passes_logs/2026/01/29/R2.0S_Moscow/R2.0S_Moscow__20260129_100249_SUOMI_NPP_rec.log

#Pass ID: 20260129_100249_SUOMI NPP
#Satellite: SUOMI NPP
#Configuration: NPP
#almurnet v.1.7.20251203
#Start time: 2026-01-29 10:02:49

#Version: 2.2.20231116
#Station: R2.0S_Moscow
#Location: 37.707566 lon 55.798166 lat
#TLE: 1 37849U 11061A   26027.93236865  .00000148  00000+0  91411-4 0  9991
#TLE: 2 37849  98.7823 329.8704 0002085  41.3231 318.8102 14.19530777738546

#Time	Az	El	Level	Level2	SNR	BER	BlckErr	Temp	State	Recorded	gain1	gain2
2026-01-29 10:02:49.11	161.96	2.00	-44.7	-59.3	3.8	1.49e+00	0	50	0	0	59	21247
2026-01-29 10:02:50.13	161.97	2.06	-44.4	-59.5	3.8	1.49e+00	0	50	104	0	60	20373
2026-01-29 10:02:51.14	161.97	2.13	-44.6	-59.5	3.8	1.49e+00	0	50	104	0	60	20355
2026-01-29 10:02:52.15	161.98	2.20	-44.6	-59.5	3.8	1.49e+00	0	50	104	0	60	20304
2026-01-29 10:02:53.16	161.98	2.26	-44.6	-59.5	3.8	1.49e+00	0	50	104	0	60	20380
2026-01-29 10:02:54.17	161.99	2.33	-44.6	-59.5	3.8	1.49e+00	0	50	104	0	60	20390
2026-01-29 10:02:55.18	161.99	2.39	-44.6	-59.5	3.8	1.49e+00	0	50	104	0	60	20357
2026-01-29 10:02:56.19	162.00	2.46	-44.6	-59.5	3.8	1.49e+00	0	50	104	0	60	20327
2026-01-29 10:02:57.20	162.00	2.52	-44.6	-59.5	3.8	1.49e+00	0	50	104	0	60	20417
2026-01-29 10:02:58.21	162.01	2.59	-44.6	-59.5	3.8	1.49e+00	0	50	104	0	60	20318
2026-01-29 10:02:59.22	162.01	2.66	-44.6	-59.5	3.8	1.49e+00	0	51	104	0	60	20415
2026-01-29 10:03:00.23	162.02	2.72	-44.6	-59.5	3.8	1.49e+00	0	51	104	0	60	20406
2026-01-29 10:03:01.24	162.02	2.79	-44.6	-59.5	3.8	1.49e+00	0	51	104	0	60	20477
2026-01-29 10:03:02.25	162.03	2.86	-44.6	-59.5	3.8	1.49e+00	0	51	104	0	60	20384
2026-01-29 10:03:03.26	162.03	2.92	-44.6	-59.5	3.8	1.49e+00	0	51	104	0	60	20397
2026-01-29 10:03:04.27	162.04	2.99	-44.6	-59.5	3.8	1.49e+00	0	51	104	0	60	20432
2026-01-29 10:03:05.28	162.04	3.06	-44.6	-59.5	3.8	1.49e+00	0	51	104	0	60	20420
2026-01-29 10:03:06.29	162.04	3.13	-44.6	-59.5	3.8	1.49e+00	0	51	104	0	60	20440
2026-01-29 10:03:07.30	162.05	3.19	-44.6	-59.5	3.8	1.49e+00	0	51	104	0	60	20409
2026-01-29 10:03:08.31	162.05	3.26	-44.6	-59.5	3.8	1.49e+00	0	51	104	0	60	20424
2026-01-29 10:03:09.32	162.06	3.33	-44.6	-59.5	3.8	1.49e+00	0	51	104	0	60	20427
2026-01-29 10:03:10.33	162.06	3.40	-44.6	-59.5	3.8	1.49e+00	0	51	104	0	60	20438
2026-01-29 10:03:11.34	162.07	3.47	-44.6	-59.5	3.8	1.49e+00	0	51	104	0	60	20435
2026-01-29 10:03:12.36	162.07	3.54	-44.6	-59.5	3.8	1.49e+00	0	51	104	0	60	20368
2026-01-29 10:03:13.37	162.08	3.61	-44.7	-59.5	3.8	1.49e+00	0	51	104	0	60	20427
2026-01-29 10:03:14.38	162.08	3.67	-44.6	-59.5	3.8	1.49e+00	0	52	104	0	60	20421
2026-01-29 10:03:15.39	162.09	3.74	-44.7	-59.5	3.8	1.49e+00	0	52	104	0	60	20509
2026-01-29 10:03:16.40	162.09	3.81	-44.7	-59.5	3.8	1.49e+00	0	52	104	0	60	20503
2026-01-29 10:03:17.41	162.10	3.88	-44.7	-59.5	3.8	1.49e+00	0	52	104	0	60	20403
2026-01-29 10:03:18.42	162.10	3.95	-44.7	-59.5	3.8	1.49e+00	0	52	104	0	60	20482
2026-01-29 10:03:19.43	162.11	4.02	-44.7	-59.5	3.8	1.49e+00	0	52	104	0	60	20435
2026-01-29 10:03:20.44	162.11	4.09	-44.7	-59.5	3.8	1.49e+00	0	52	104	0	60	20477
2026-01-29 10:03:21.45	162.12	4.16	-44.7	-59.5	3.8	1.49e+00	0	52	104	0	60	20452
2026-01-29 10:03:22.46	162.12	4.23	-44.7	-59.5	3.8	1.49e+00	0	52	104	0	60	20435
2026-01-29 10:03:23.47	162.13	4.30	-44.7	-59.5	3.8	1.49e+00	0	52	104	0	60	20434
2026-01-29 10:03:24.48	162.13	4.37	-44.6	-59.5	3.8	1.49e+00	0	52	104	0	60	20379
2026-01-29 10:03:25.49	162.14	4.44	-44.7	-59.5	3.8	1.49e+00	0	52	104	0	60	20482
2026-01-29 10:03:26.51	162.14	4.52	-44.7	-59.5	3.8	1.49e+00	0	52	104	0	60	20411
2026-01-29 10:03:27.52	162.15	4.59	-44.7	-59.5	3.8	1.49e+00	0	53	104	0	60	20520
2026-01-29 10:03:28.53	162.15	4.66	-44.7	-59.5	3.8	1.49e+00	0	52	104	0	60	20468
2026-01-29 10:03:29.54	162.16	4.73	-44.7	-59.5	3.8	1.49e+00	0	52	104	0	60	20439
2026-01-29 10:03:30.55	162.16	4.80	-44.7	-59.5	3.8	1.49e+00	0	53	104	0	60	20509
2026-01-29 10:03:31.56	162.17	4.88	-44.7	-59.5	3.8	1.49e+00	0	53	104	0	60	20445
2026-01-29 10:03:32.57	162.17	4.95	-44.7	-59.5	3.8	1.49e+00	0	53	104	0	60	20463
2026-01-29 10:03:33.58	162.18	5.02	-44.7	-59.5	3.8	1.49e+00	0	53	104	0	60	20501
2026-01-29 10:03:34.59	162.18	5.09	-44.7	-59.5	3.8	1.49e+00	0	53	104	0	60	20491
2026-01-29 10:03:35.60	162.19	5.17	-44.7	-59.5	3.8	1.49e+00	0	53	104	0	60	20523
2026-01-29 10:03:36.61	162.19	5.24	-44.7	-59.5	3.8	1.49e+00	0	53	104	0	60	20478
2026-01-29 10:03:37.62	162.20	5.31	-44.7	-59.5	3.8	1.49e+00	0	53	104	0	60	20500
2026-01-29 10:03:38.63	162.20	5.39	-44.7	-59.5	3.8	1.49e+00	0	53	104	0	60	20484
2026-01-29 10:03:39.64	162.21	5.46	-44.7	-59.6	3.8	1.49e+00	0	53	104	0	60	20544
2026-01-29 10:03:40.65	162.21	5.53	-44.7	-59.5	3.8	1.49e+00	0	53	104	0	60	20471
2026-01-29 10:03:41.67	162.22	5.61	-44.7	-59.5	3.8	1.49e+00	0	53	104	0	60	20529
2026-01-29 10:03:42.68	162.23	5.68	-44.7	-59.5	3.8	1.49e+00	0	53	104	0	60	20518
2026-01-29 10:03:43.69	162.23	5.76	-44.7	-59.5	3.8	1.49e+00	0	53	104	0	60	20439
2026-01-29 10:03:44.70	162.24	5.83	-44.7	-59.6	3.8	1.49e+00	0	53	104	0	60	20592
2026-01-29 10:03:45.71	162.24	5.91	-44.7	-59.5	3.8	1.49e+00	0	53	104	0	60	20487
2026-01-29 10:03:46.72	162.25	5.98	-44.7	-59.5	3.8	1.49e+00	0	53	104	0	60	20507
2026-01-29 10:03:47.73	162.25	6.06	-44.7	-59.6	3.8	1.49e+00	0	53	104	0	60	20570
2026-01-29 10:03:48.74	162.26	6.13	-44.7	-59.5	3.8	1.49e+00	0	53	104	0	60	20477
2026-01-29 10:03:49.75	162.26	6.21	-44.7	-59.5	3.8	1.49e+00	0	53	104	0	60	20534
2026-01-29 10:03:50.76	162.27	6.28	-44.7	-59.6	3.8	1.49e+00	0	54	104	0	60	20567
2026-01-29 10:03:51.77	162.27	6.36	-44.7	-59.6	3.8	1.49e+00	0	53	104	0	60	20555
2026-01-29 10:03:52.78	162.28	6.44	-44.7	-59.6	3.8	1.49e+00	0	54	104	0	60	20567
2026-01-29 10:03:53.79	162.28	6.51	-44.7	-59.6	3.8	1.49e+00	0	54	104	0	60	20547
2026-01-29 10:03:54.80	162.29	6.59	-44.7	-59.5	3.8	1.49e+00	0	54	104	0	60	20480
2026-01-29 10:03:55.81	162.29	6.67	-44.7	-59.6	3.8	1.49e+00	0	54	104	0	60	20555
2026-01-29 10:03:56.82	162.30	6.75	-44.7	-59.6	3.8	1.49e+00	0	54	104	0	60	20601
2026-01-29 10:03:57.83	162.30	6.82	-44.7	-59.6	3.8	1.49e+00	0	54	104	0	60	20599
2026-01-29 10:03:58.84	162.31	6.90	-44.7	-59.6	3.8	1.49e+00	0	54	104	0	60	20646
2026-01-29 10:03:59.85	162.32	6.98	-44.7	-59.5	3.8	1.49e+00	0	54	104	0	60	20538
2026-01-29 10:04:00.86	162.32	7.06	-44.7	-59.6	3.8	1.49e+00	0	54	104	0	60	20622
2026-01-29 10:04:01.87	162.33	7.14	-44.7	-59.6	3.8	1.49e+00	0	54	104	0	60	20578
2026-01-29 10:04:02.88	162.33	7.22	-44.7	-59.6	3.8	1.49e+00	0	54	104	0	60	20615
2026-01-29 10:04:03.89	162.34	7.29	-44.7	-59.6	3.8	1.49e+00	0	54	104	0	60	20573
2026-01-29 10:04:04.91	162.34	7.37	-44.7	-59.6	3.8	1.49e+00	0	54	104	0	60	20709
2026-01-29 10:04:05.92	162.35	7.45	-44.7	-59.6	3.8	1.49e+00	0	54	104	0	60	20650
2026-01-29 10:04:06.93	162.35	7.53	-44.7	-59.6	3.8	1.49e+00	0	54	104	0	60	20669
2026-01-29 10:04:07.94	162.36	7.61	-44.7	-59.6	3.8	1.49e+00	0	54	104	0	60	20667
2026-01-29 10:04:08.95	162.37	7.69	-44.7	-59.6	3.8	1.49e+00	0	54	104	0	60	20641
2026-01-29 10:04:09.96	162.37	7.78	-44.7	-59.6	3.8	1.49e+00	0	54	104	0	60	20662
2026-01-29 10:04:10.97	162.38	7.86	-44.7	-59.6	3.8	1.49e+00	0	54	104	0	60	20589
2026-01-29 10:04:11.98	162.38	7.94	-44.7	-59.6	3.8	1.49e+00	0	54	104	0	60	20576
2026-01-29 10:04:12.99	162.39	8.02	-44.8	-59.6	3.8	1.49e+00	0	54	104	0	60	20600
2026-01-29 10:04:14.00	162.39	8.10	-44.7	-59.6	3.8	1.49e+00	0	54	104	0	60	20616
2026-01-29 10:04:15.01	162.40	8.18	-44.7	-59.6	3.8	1.49e+00	0	55	104	0	60	20620
2026-01-29 10:04:16.02	162.41	8.26	-44.7	-59.6	3.8	1.49e+00	0	55	104	0	60	20648
2026-01-29 10:04:17.03	162.41	8.35	-44.7	-59.6	3.8	1.49e+00	0	55	104	0	60	20695
2026-01-29 10:04:18.05	162.42	8.43	-44.8	-59.6	3.8	1.49e+00	0	55	104	0	60	20724
2026-01-29 10:04:19.06	162.42	8.51	-44.8	-59.6	3.8	1.49e+00	0	55	104	0	60	20677
2026-01-29 10:04:20.07	162.43	8.60	-44.7	-59.6	3.8	1.49e+00	0	55	104	0	60	20726
2026-01-29 10:04:21.08	162.43	8.68	-44.8	-59.6	3.8	1.49e+00	0	55	104	0	60	20737
2026-01-29 10:04:22.09	162.44	8.76	-44.8	-59.6	3.8	1.49e+00	0	55	104	0	60	20597
2026-01-29 10:04:23.10	162.45	8.85	-44.7	-59.6	3.8	1.49e+00	0	55	104	0	60	20687
2026-01-29 10:04:24.11	162.45	8.93	-44.8	-59.6	3.8	1.49e+00	0	55	104	0	60	20702
2026-01-29 10:04:25.12	162.46	9.02	-44.8	-59.6	3.8	1.49e+00	0	55	104	0	60	20683
2026-01-29 10:04:26.13	162.46	9.10	-44.8	-59.6	3.8	1.49e+00	0	55	104	0	60	20698
2026-01-29 10:04:27.14	162.47	9.19	-44.8	-59.6	3.8	1.49e+00	0	55	104	0	60	20739
2026-01-29 10:04:28.15	162.48	9.27	-44.8	-59.6	3.8	1.49e+00	0	55	104	0	60	20756
2026-01-29 10:04:29.16	162.48	9.36	-44.8	-59.7	3.8	1.49e+00	0	55	104	0	60	20794
2026-01-29 10:04:30.17	162.49	9.45	-44.8	-59.6	3.8	1.49e+00	0	55	104	0	60	20652
2026-01-29 10:04:31.18	162.49	9.53	-44.8	-59.6	3.8	1.49e+00	0	55	104	0	60	20684
2026-01-29 10:04:32.19	162.50	9.62	-44.8	-59.7	3.8	1.49e+00	0	55	104	0	60	20791
2026-01-29 10:04:33.21	162.51	9.71	-44.8	-59.6	3.8	1.49e+00	0	55	104	0	60	20753
2026-01-29 10:04:34.22	162.51	9.79	-44.8	-59.6	3.8	1.49e+00	0	55	104	0	60	20719
2026-01-29 10:04:35.23	162.52	9.88	-44.8	-59.6	3.8	1.49e+00	0	55	104	0	60	20703
2026-01-29 10:04:36.24	162.52	9.97	-44.8	-59.6	3.8	1.49e+00	0	55	104	0	60	20774
2026-01-29 10:04:37.25	162.53	10.06	-44.8	-59.7	3.8	1.49e+00	0	55	104	0	60	20856
2026-01-29 10:04:38.26	162.54	10.15	-44.8	-59.6	3.8	1.49e+00	0	55	104	0	60	20697
2026-01-29 10:04:39.27	162.54	10.24	-44.8	-59.6	3.8	1.49e+00	0	55	104	0	60	20731
2026-01-29 10:04:40.28	162.55	10.33	-44.8	-59.7	3.8	1.49e+00	0	55	104	0	60	20794
2026-01-29 10:04:41.29	162.55	10.42	-44.8	-59.6	3.8	1.49e+00	0	56	104	0	60	20743
2026-01-29 10:04:42.30	162.56	10.51	-44.8	-59.6	3.8	1.49e+00	0	56	104	0	60	20765
2026-01-29 10:04:43.31	162.57	10.60	-44.8	-59.6	3.8	1.49e+00	0	56	104	0	60	20768
2026-01-29 10:04:44.32	162.57	10.69	-44.8	-59.6	3.8	1.49e+00	0	55	104	0	60	20770
2026-01-29 10:04:45.33	162.58	10.78	-44.8	-59.7	3.8	1.49e+00	0	56	104	0	60	20792
2026-01-29 10:04:46.34	162.59	10.87	-44.8	-59.6	3.8	1.49e+00	0	55	104	0	60	20756
2026-01-29 10:04:47.35	162.59	10.96	-44.8	-59.6	3.8	1.49e+00	0	56	104	0	60	20726
2026-01-29 10:04:48.36	162.60	11.05	-44.8	-59.7	3.8	1.49e+00	0	56	104	0	60	20841
2026-01-29 10:04:49.37	162.61	11.14	-44.8	-59.6	3.8	1.49e+00	0	56	104	0	60	20723
2026-01-29 10:04:50.38	162.61	11.24	-44.8	-59.7	3.8	1.49e+00	0	56	104	0	60	20791
2026-01-29 10:04:51.39	162.62	11.33	-44.8	-59.7	3.8	1.49e+00	0	56	104	0	60	20800
2026-01-29 10:04:52.40	162.62	11.42	-44.8	-59.6	3.8	1.49e+00	0	56	104	0	60	20768
2026-01-29 10:04:53.42	162.63	11.52	-44.8	-59.7	3.8	1.49e+00	0	56	104	0	60	20778
2026-01-29 10:04:54.43	162.64	11.61	-44.8	-59.7	3.8	1.49e+00	0	56	104	0	60	20812
2026-01-29 10:04:55.44	162.64	11.71	-44.8	-59.7	3.8	1.49e+00	0	56	104	0	60	20806
2026-01-29 10:04:56.45	162.65	11.80	-44.8	-59.7	3.8	1.49e+00	0	56	104	0	60	20855
2026-01-29 10:04:57.46	162.66	11.90	-44.8	-59.7	3.8	1.49e+00	0	56	104	0	60	20845
2026-01-29 10:04:58.47	162.66	11.99	-44.8	-59.7	3.8	1.49e+00	0	56	104	0	60	20816
2026-01-29 10:04:59.48	162.67	12.09	-44.8	-59.7	3.8	1.49e+00	0	56	104	0	60	20866
2026-01-29 10:05:00.49	162.68	12.19	-44.8	-59.7	3.8	1.49e+00	0	56	104	0	60	20787
2026-01-29 10:05:01.50	162.68	12.28	-44.8	-59.7	3.8	1.49e+00	0	56	104	0	60	20829
2026-01-29 10:05:02.51	162.69	12.38	-44.8	-59.7	3.8	1.49e+00	0	56	104	0	60	20911
2026-01-29 10:05:03.52	162.70	12.48	-44.8	-59.7	3.8	1.49e+00	0	56	104	0	60	20821
2026-01-29 10:05:04.53	162.70	12.57	-44.9	-59.7	3.8	1.49e+00	0	56	104	0	60	20819
2026-01-29 10:05:05.54	162.71	12.67	-44.9	-59.7	3.8	1.49e+00	0	56	104	0	60	20862
2026-01-29 10:05:06.55	162.72	12.77	-44.8	-59.7	3.8	1.49e+00	0	56	104	0	60	20809
2026-01-29 10:05:07.56	162.72	12.87	-44.9	-59.7	3.8	1.49e+00	0	56	104	0	60	20866
2026-01-29 10:05:08.57	162.73	12.97	-44.9	-59.7	3.8	1.49e+00	0	56	104	0	60	20883
2026-01-29 10:05:09.58	162.74	13.07	-44.8	-59.7	3.8	1.49e+00	0	56	104	0	60	20824
2026-01-29 10:05:10.59	162.74	13.17	-44.9	-59.7	3.8	1.49e+00	0	56	104	0	60	20861
2026-01-29 10:05:11.60	162.75	13.27	-44.8	-59.7	3.8	1.49e+00	0	56	104	0	60	20873
2026-01-29 10:05:12.62	162.76	13.37	-44.9	-59.7	3.8	1.49e+00	0	56	104	0	60	20798
2026-01-29 10:05:13.63	162.77	13.48	-44.9	-59.7	3.8	1.49e+00	0	56	104	0	60	20875
2026-01-29 10:05:14.64	162.77	13.58	-44.9	-59.7	3.8	1.49e+00	0	56	104	0	60	20913
2026-01-29 10:05:15.65	162.78	13.68	-44.9	-59.7	3.8	1.49e+00	0	56	104	0	60	20855
2026-01-29 10:05:16.66	162.79	13.78	-44.9	-59.7	3.8	1.49e+00	0	56	104	0	60	20889
2026-01-29 10:05:17.67	162.79	13.89	-44.8	-59.7	3.8	1.49e+00	0	56	104	0	60	20864
2026-01-29 10:05:18.68	162.80	13.99	-44.9	-59.7	3.8	1.49e+00	0	56	104	0	60	20864
2026-01-29 10:05:19.69	162.81	14.09	-44.9	-59.7	3.8	1.49e+00	0	57	104	0	60	20822
2026-01-29 10:05:20.70	162.82	14.20	-44.9	-59.7	3.8	1.49e+00	0	56	104	0	60	20876
2026-01-29 10:05:21.71	162.82	14.30	-44.9	-59.7	3.8	1.49e+00	0	57	104	0	60	20896
2026-01-29 10:05:22.72	162.83	14.41	-44.9	-59.7	3.8	1.49e+00	0	57	104	0	60	20865
2026-01-29 10:05:23.73	162.84	14.52	-44.9	-59.7	3.8	1.49e+00	0	57	104	0	60	20975
2026-01-29 10:05:24.74	162.84	14.62	-44.9	-59.7	3.8	1.49e+00	0	57	104	0	60	20947
2026-01-29 10:05:25.75	162.85	14.73	-44.9	-59.7	3.8	1.49e+00	0	57	104	0	60	20945
2026-01-29 10:05:26.76	162.86	14.84	-44.9	-59.7	3.8	1.49e+00	0	57	104	0	60	20920
2026-01-29 10:05:27.77	162.87	14.94	-44.9	-59.7	3.8	1.49e+00	0	57	104	0	60	20895
2026-01-29 10:05:28.78	162.87	15.05	-44.9	-59.7	3.8	1.49e+00	0	57	104	0	60	20966
2026-01-29 10:05:29.79	162.88	15.16	-44.9	-59.7	3.8	1.49e+00	0	57	104	0	60	20927
2026-01-29 10:05:30.81	162.89	15.27	-44.9	-59.7	3.8	1.49e+00	0	57	104	0	60	20945
2026-01-29 10:05:31.82	162.90	15.38	-44.9	-59.7	3.8	1.49e+00	0	57	104	0	60	20920
2026-01-29 10:05:32.83	162.90	15.49	-44.9	-59.7	3.8	1.49e+00	0	57	104	0	60	20918
2026-01-29 10:05:33.84	162.91	15.60	-44.9	-59.7	3.8	1.49e+00	0	57	104	0	60	20937
2026-01-29 10:05:34.85	162.92	15.71	-44.9	-59.7	3.8	1.49e+00	0	57	104	0	60	21013
2026-01-29 10:05:35.86	162.93	15.83	-44.9	-59.7	3.8	1.49e+00	0	57	104	0	60	20905
2026-01-29 10:05:36.87	162.94	15.94	-44.9	-59.7	3.8	1.49e+00	0	57	104	0	60	20911
2026-01-29 10:05:37.88	162.94	16.05	-44.9	-59.7	3.8	1.49e+00	0	57	104	0	60	20965
2026-01-29 10:05:38.89	162.95	16.17	-44.9	-59.7	3.8	1.49e+00	0	57	104	0	60	20942
2026-01-29 10:05:39.90	162.96	16.28	-44.9	-59.7	3.8	1.49e+00	0	57	104	0	60	20999
2026-01-29 10:05:40.91	162.97	16.39	-44.9	-59.7	3.8	1.49e+00	0	57	104	0	60	21009
2026-01-29 10:05:41.92	162.97	16.51	-44.9	-59.7	3.8	1.49e+00	0	57	104	0	60	20969
2026-01-29 10:05:42.93	162.98	16.63	-44.9	-59.7	3.8	1.49e+00	0	57	104	0	60	21001
2026-01-29 10:05:43.94	162.99	16.74	-44.9	-59.7	3.8	1.49e+00	0	57	104	0	60	21006
2026-01-29 10:05:44.95	163.00	16.86	-44.9	-59.7	3.8	1.49e+00	0	57	104	0	60	20980
2026-01-29 10:05:45.96	163.01	16.98	-44.9	-59.7	3.8	1.49e+00	0	57	104	0	60	20971
2026-01-29 10:05:46.97	163.01	17.09	-44.9	-59.7	3.8	1.49e+00	0	57	104	0	60	20945
2026-01-29 10:05:47.98	163.02	17.21	-44.9	-59.8	3.8	1.49e+00	0	57	104	0	60	21051
2026-01-29 10:05:48.99	163.03	17.33	-44.9	-59.7	3.8	1.49e+00	0	57	104	0	60	20941
2026-01-29 10:05:50.00	163.04	17.45	-44.9	-59.7	3.8	1.49e+00	0	57	104	0	60	20976
2026-01-29 10:05:51.02	163.05	17.57	-44.9	-59.7	3.8	1.49e+00	0	57	104	0	60	20996
2026-01-29 10:05:52.03	163.06	17.69	-44.9	-59.7	3.8	1.49e+00	0	57	104	0	60	21011
2026-01-29 10:05:53.04	163.06	17.81	-44.9	-59.8	3.8	1.49e+00	0	57	104	0	60	21037
2026-01-29 10:05:54.05	163.07	17.94	-44.9	-59.7	3.8	1.49e+00	0	57	104	0	60	20939
2026-01-29 10:05:55.06	163.08	18.06	-44.9	-59.7	3.8	1.49e+00	0	57	104	0	60	20983
2026-01-29 10:05:56.07	163.09	18.18	-44.9	-59.7	3.8	1.49e+00	0	57	104	0	60	21013
2026-01-29 10:05:57.08	163.10	18.31	-44.9	-59.8	3.8	1.49e+00	0	57	104	0	60	21079
2026-01-29 10:05:58.09	163.11	18.43	-44.9	-59.8	3.8	1.49e+00	0	57	104	0	60	21035
2026-01-29 10:05:59.10	163.12	18.56	-44.9	-59.8	3.8	1.49e+00	0	57	104	0	60	21042
2026-01-29 10:06:00.11	163.12	18.68	-44.9	-59.8	3.8	1.49e+00	0	57	104	0	60	21034
2026-01-29 10:06:01.12	163.13	18.81	-44.9	-59.8	3.8	1.49e+00	0	57	104	0	60	21060
2026-01-29 10:06:02.13	163.14	18.93	-45.0	-59.8	3.8	1.49e+00	0	57	104	0	60	21054
2026-01-29 10:06:03.14	163.15	19.06	-44.9	-59.8	3.8	1.49e+00	0	57	104	0	60	21018
2026-01-29 10:06:04.15	163.16	19.19	-45.0	-59.8	3.8	1.49e+00	0	57	104	0	60	21053
2026-01-29 10:06:05.16	163.17	19.32	-45.0	-59.7	3.8	1.49e+00	0	57	104	0	60	20990
2026-01-29 10:06:06.17	163.18	19.45	-44.9	-59.8	3.8	1.49e+00	0	57	104	0	60	21070
2026-01-29 10:06:07.18	163.19	19.58	-44.9	-59.8	3.8	1.49e+00	0	57	104	0	60	21033
2026-01-29 10:06:08.19	163.20	19.71	-44.9	-59.8	3.8	1.49e+00	0	57	104	0	60	21081
2026-01-29 10:06:09.20	163.21	19.84	-45.0	-59.8	3.8	1.49e+00	0	57	104	0	60	21032
2026-01-29 10:06:10.22	163.21	19.98	-45.0	-59.8	3.8	1.49e+00	0	57	104	0	60	21120
2026-01-29 10:06:11.23	163.22	20.11	-45.0	-59.8	3.8	1.49e+00	0	57	104	0	60	21041
2026-01-29 10:06:12.24	163.23	20.24	-44.9	-59.8	3.8	1.49e+00	0	57	104	0	60	21033
2026-01-29 10:06:13.25	163.24	20.38	-45.0	-59.8	3.8	1.49e+00	0	57	104	0	60	21059
2026-01-29 10:06:14.26	163.25	20.51	-44.9	-59.7	3.8	1.49e+00	0	57	104	0	60	21014
2026-01-29 10:06:15.27	163.26	20.65	-44.9	-59.8	3.8	1.49e+00	0	57	104	0	60	21055
2026-01-29 10:06:16.28	163.27	20.79	-44.9	-59.8	3.8	1.49e+00	0	57	104	0	60	21044
2026-01-29 10:06:17.29	163.28	20.92	-44.9	-59.7	3.8	1.49e+00	0	57	104	0	60	20996
2026-01-29 10:06:18.30	163.29	21.06	-45.0	-59.8	3.8	1.49e+00	0	57	104	0	60	21018
2026-01-29 10:06:19.31	163.30	21.20	-45.0	-59.8	3.8	1.49e+00	0	57	104	0	60	21056
2026-01-29 10:06:20.32	163.31	21.34	-45.0	-59.8	3.8	1.49e+00	0	57	104	0	60	21026
2026-01-29 10:06:21.32	163.32	21.48	-45.0	-59.7	3.8	1.49e+00	0	57	104	0	60	21006
2026-01-29 10:06:22.34	163.33	21.62	-44.9	-59.8	3.8	1.49e+00	0	58	104	0	60	21053
2026-01-29 10:06:23.34	163.34	21.76	-45.0	-59.8	3.8	1.49e+00	0	58	104	0	60	21089
2026-01-29 10:06:24.35	163.35	21.91	-45.0	-59.8	3.8	1.49e+00	0	58	104	0	60	21115
2026-01-29 10:06:25.36	163.36	22.05	-45.0	-59.8	3.8	1.49e+00	0	58	104	0	60	21061
2026-01-29 10:06:26.37	163.37	22.20	-45.0	-59.8	3.8	1.49e+00	0	58	104	0	60	21100
2026-01-29 10:06:27.38	163.38	22.34	-45.0	-59.7	3.8	1.49e+00	0	58	104	0	60	21012
2026-01-29 10:06:28.39	163.39	22.49	-45.0	-59.8	3.8	1.49e+00	0	58	104	0	60	21088
2026-01-29 10:06:29.40	163.40	22.63	-44.9	-59.8	3.8	1.49e+00	0	58	104	0	60	21062
2026-01-29 10:06:30.42	163.41	22.78	-44.9	-59.8	3.8	1.49e+00	0	58	104	0	60	21074
2026-01-29 10:06:31.43	163.42	22.93	-45.0	-59.8	3.8	1.49e+00	0	58	104	0	60	21033
2026-01-29 10:06:32.44	163.43	23.08	-45.0	-59.8	3.8	1.49e+00	0	58	104	0	60	21080
2026-01-29 10:06:33.45	163.44	23.23	-45.0	-59.8	3.8	1.49e+00	0	58	104	0	60	21080
2026-01-29 10:06:34.46	163.45	23.39	-45.0	-59.8	3.8	1.49e+00	0	58	104	0	60	21086
2026-01-29 10:06:35.47	163.46	23.54	-45.0	-59.8	3.8	1.49e+00	0	58	104	0	60	21025
2026-01-29 10:06:36.48	163.48	23.69	-45.0	-59.8	3.8	1.49e+00	0	58	104	0	60	21029
2026-01-29 10:06:37.49	163.49	23.85	-45.0	-59.8	3.8	1.49e+00	0	58	104	0	60	21112
2026-01-29 10:06:38.50	163.50	24.00	-45.0	-59.8	3.8	1.49e+00	0	58	104	0	60	21031
2026-01-29 10:06:39.51	163.51	24.16	-45.0	-59.8	3.8	1.49e+00	0	58	104	0	60	21070
2026-01-29 10:06:40.52	163.52	24.31	-45.0	-59.8	3.8	1.49e+00	0	58	104	0	60	21106
2026-01-29 10:06:41.53	163.53	24.47	-45.0	-59.8	3.8	1.49e+00	0	58	104	0	60	21071
2026-01-29 10:06:42.54	163.54	24.63	-45.0	-59.7	3.8	1.49e+00	0	58	104	0	60	21015
2026-01-29 10:06:43.55	163.55	24.79	-45.0	-59.8	3.8	1.49e+00	0	58	104	0	60	21068
2026-01-29 10:06:44.56	163.56	24.95	-45.0	-59.8	3.8	1.49e+00	0	57	104	0	60	21054
2026-01-29 10:06:45.57	163.58	25.11	-45.0	-59.8	3.8	1.49e+00	0	58	104	0	60	21027
2026-01-29 10:06:46.58	163.59	25.28	-45.0	-59.8	3.8	1.49e+00	0	58	104	0	60	21021
2026-01-29 10:06:47.59	163.60	25.44	-45.0	-59.8	3.8	1.49e+00	0	58	104	0	60	21027
2026-01-29 10:06:48.60	163.61	25.60	-45.0	-59.8	3.8	1.49e+00	0	58	104	0	60	21102
2026-01-29 10:06:49.61	163.62	25.77	-45.0	-59.8	3.8	1.49e+00	0	58	104	0	60	21115
2026-01-29 10:06:50.62	163.64	25.94	-45.0	-59.8	3.8	1.49e+00	0	58	104	0	60	21052
2026-01-29 10:06:51.63	163.65	26.11	-44.9	-59.8	3.8	1.49e+00	0	58	104	0	60	21078
2026-01-29 10:06:52.64	163.66	26.27	-45.0	-59.8	3.8	1.49e+00	0	58	104	0	60	21041
2026-01-29 10:06:53.65	163.67	26.44	-45.0	-59.8	3.8	1.49e+00	0	58	104	0	60	21068
2026-01-29 10:06:54.66	163.69	26.62	-44.9	-59.8	3.8	1.49e+00	0	58	104	0	60	21085
2026-01-29 10:06:55.67	163.70	26.79	-45.0	-59.8	3.8	1.49e+00	0	58	104	0	60	21090
2026-01-29 10:06:56.68	163.71	26.96	-45.0	-59.8	3.8	1.49e+00	0	58	104	0	60	21069
2026-01-29 10:06:57.69	163.72	27.14	-44.9	-59.8	3.8	1.49e+00	0	58	104	0	60	21028
2026-01-29 10:06:58.70	163.74	27.31	-45.0	-59.8	3.8	1.49e+00	0	58	104	0	60	21068
2026-01-29 10:06:59.71	163.75	27.49	-45.0	-59.8	3.8	1.49e+00	0	58	104	0	60	21052
2026-01-29 10:07:00.72	163.76	27.67	-45.0	-59.8	3.8	1.49e+00	0	58	104	0	60	21107
2026-01-29 10:07:01.73	163.78	27.85	-45.0	-59.8	3.8	1.49e+00	0	58	104	0	60	21058
2026-01-29 10:07:02.74	163.79	28.03	-45.0	-59.7	3.8	1.49e+00	0	58	104	0	60	21000
2026-01-29 10:07:03.75	163.80	28.21	-45.0	-59.8	3.8	1.49e+00	0	58	104	0	60	21106
2026-01-29 10:07:04.76	163.82	28.39	-45.0	-59.8	3.8	1.49e+00	0	58	104	0	60	21043
2026-01-29 10:07:05.77	163.83	28.57	-45.0	-59.8	3.8	1.49e+00	0	58	104	0	60	21070
2026-01-29 10:07:06.78	163.84	28.76	-45.0	-59.8	3.8	1.49e+00	0	58	104	0	60	21075
2026-01-29 10:07:07.79	163.86	28.95	-45.0	-59.8	3.8	1.49e+00	0	58	104	0	60	21082
2026-01-29 10:07:08.80	163.87	29.13	-45.0	-59.8	3.8	1.49e+00	0	58	104	0	60	21121
2026-01-29 10:07:09.81	163.89	29.32	-45.0	-59.8	3.8	1.49e+00	0	58	104	0	60	21057
2026-01-29 10:07:10.82	163.90	29.51	-45.0	-59.8	3.8	1.49e+00	0	58	104	0	60	21086
2026-01-29 10:07:11.83	163.91	29.70	-45.0	-59.8	3.8	1.49e+00	0	58	104	0	60	21109
2026-01-29 10:07:12.84	163.93	29.90	-45.0	-59.8	3.8	1.49e+00	0	58	104	0	60	21108
2026-01-29 10:07:13.85	163.94	30.09	-45.0	-59.8	3.8	1.49e+00	0	58	104	0	60	21112
2026-01-29 10:07:14.86	163.96	30.28	-45.0	-59.8	3.8	1.49e+00	0	58	104	0	60	21092
2026-01-29 10:07:15.87	163.97	30.48	-45.0	-59.8	3.8	1.49e+00	0	58	104	0	60	21106
2026-01-29 10:07:16.88	163.99	30.68	-45.0	-59.8	3.8	1.49e+00	0	58	104	0	60	21110
2026-01-29 10:07:17.89	164.00	30.88	-45.0	-59.8	3.8	1.49e+00	0	58	104	0	60	21095
2026-01-29 10:07:18.90	164.02	31.08	-45.0	-59.8	3.8	1.49e+00	0	58	104	0	60	21090
2026-01-29 10:07:19.91	164.03	31.28	-45.0	-59.8	3.8	1.49e+00	0	58	104	0	60	21074
2026-01-29 10:07:20.92	164.05	31.48	-45.0	-59.8	3.8	1.49e+00	0	58	104	0	60	21127
2026-01-29 10:07:21.93	164.07	31.69	-45.0	-59.8	3.8	1.49e+00	0	58	104	0	60	21138
2026-01-29 10:07:22.94	164.08	31.90	-45.0	-59.8	3.8	1.49e+00	0	58	104	0	60	21163
2026-01-29 10:07:23.95	164.10	32.10	-45.0	-59.8	3.8	1.49e+00	0	58	104	0	60	21103
2026-01-29 10:07:24.96	164.12	32.31	-45.0	-59.8	3.8	1.49e+00	0	58	104	0	60	21075
2026-01-29 10:07:25.97	164.13	32.52	-45.0	-59.8	3.8	1.49e+00	0	58	104	0	60	21063
2026-01-29 10:07:26.98	164.15	32.74	-45.0	-59.8	3.8	1.49e+00	0	58	104	0	60	21056
2026-01-29 10:07:27.99	164.17	32.95	-45.0	-59.8	3.8	1.49e+00	0	58	104	0	60	21064
2026-01-29 10:07:29.00	164.18	33.16	-45.0	-59.8	3.8	1.49e+00	0	58	104	0	60	21053
2026-01-29 10:07:30.01	164.20	33.38	-45.0	-59.8	3.8	1.49e+00	0	58	104	0	60	21065
2026-01-29 10:07:31.02	164.22	33.60	-45.0	-59.8	3.8	1.49e+00	0	58	104	0	60	21072
2026-01-29 10:07:32.03	164.24	33.82	-45.0	-59.8	3.8	1.49e+00	0	58	104	0	60	21063
2026-01-29 10:07:33.04	164.25	34.04	-45.0	-59.8	3.8	1.49e+00	0	58	104	0	60	21088
2026-01-29 10:07:34.05	164.27	34.26	-45.0	-59.8	3.8	1.49e+00	0	58	104	0	60	21058
2026-01-29 10:07:35.06	164.29	34.49	-45.0	-59.8	3.8	1.49e+00	0	59	104	0	60	21091
2026-01-29 10:07:36.07	164.31	34.72	-45.0	-59.8	3.8	1.49e+00	0	58	104	0	60	21055
2026-01-29 10:07:37.08	164.33	34.94	-45.0	-59.8	3.8	1.49e+00	0	58	104	0	60	21072
2026-01-29 10:07:38.09	164.35	35.17	-45.0	-59.8	3.8	1.49e+00	0	59	104	0	60	21021
2026-01-29 10:07:39.10	164.36	35.40	-45.0	-59.7	3.8	1.49e+00	0	58	104	0	60	21016
2026-01-29 10:07:40.11	164.38	35.64	-45.0	-59.8	3.8	1.49e+00	0	58	104	0	60	21031
2026-01-29 10:07:41.12	164.40	35.87	-45.0	-59.8	3.8	1.49e+00	0	58	104	0	60	21040
2026-01-29 10:07:42.13	164.42	36.11	-45.0	-59.8	3.8	1.49e+00	0	58	104	0	60	21047
2026-01-29 10:07:43.14	164.44	36.35	-45.0	-59.8	3.8	1.49e+00	0	58	104	0	60	21053
2026-01-29 10:07:44.15	164.46	36.59	-45.0	-59.8	3.8	1.49e+00	0	58	104	0	60	21033
2026-01-29 10:07:45.16	164.48	36.83	-45.0	-59.8	3.8	1.49e+00	0	58	104	0	60	21076
2026-01-29 10:07:46.17	164.51	37.07	-45.0	-59.8	3.8	1.49e+00	0	58	104	0	60	21037
2026-01-29 10:07:47.18	164.53	37.32	-45.0	-59.8	3.8	1.49e+00	0	58	104	0	60	21090
2026-01-29 10:07:48.19	164.55	37.56	-45.0	-59.8	3.8	1.49e+00	0	59	104	0	60	21067
2026-01-29 10:07:49.20	164.57	37.81	-45.0	-59.8	3.8	1.49e+00	0	58	104	0	60	21090
2026-01-29 10:07:50.21	164.59	38.06	-45.0	-59.8	3.8	1.49e+00	0	58	104	0	60	21060
2026-01-29 10:07:51.22	164.61	38.32	-45.0	-59.8	3.8	1.49e+00	0	58	104	0	60	21025
2026-01-29 10:07:52.23	164.64	38.57	-45.0	-59.8	3.8	1.49e+00	0	59	104	0	60	21062
2026-01-29 10:07:53.24	164.66	38.83	-45.0	-59.8	3.8	1.49e+00	0	58	104	0	60	21077
2026-01-29 10:07:54.25	164.68	39.09	-45.0	-59.8	3.8	1.49e+00	0	59	104	0	60	21102
2026-01-29 10:07:55.27	164.71	39.35	-45.0	-59.8	3.8	1.49e+00	0	59	104	0	60	21069
2026-01-29 10:07:56.28	164.73	39.61	-45.0	-59.7	3.8	1.49e+00	0	59	104	0	60	21006
2026-01-29 10:07:57.28	164.75	39.87	-45.0	-59.8	3.8	1.49e+00	0	59	104	0	60	21072
2026-01-29 10:07:58.29	164.78	40.14	-45.0	-59.8	3.8	1.49e+00	0	59	104	0	60	21034
2026-01-29 10:07:59.30	164.80	40.41	-45.0	-59.8	3.8	1.49e+00	0	59	104	0	60	21029
2026-01-29 10:08:00.32	164.83	40.68	-45.0	-59.8	3.8	1.49e+00	0	59	104	0	60	21038
2026-01-29 10:08:01.33	164.85	40.95	-45.0	-59.8	3.8	1.49e+00	0	59	104	0	60	21036
2026-01-29 10:08:02.34	164.88	41.23	-45.0	-59.8	3.8	1.49e+00	0	59	104	0	60	21085
2026-01-29 10:08:03.35	164.91	41.50	-45.0	-59.8	3.8	1.49e+00	0	59	104	0	60	21065
2026-01-29 10:08:04.36	164.93	41.78	-45.0	-59.7	3.8	1.49e+00	0	59	104	0	60	20995
2026-01-29 10:08:05.37	164.96	42.06	-45.0	-59.8	3.8	1.49e+00	0	59	104	0	60	21033
2026-01-29 10:08:06.38	164.99	42.35	-45.0	-59.8	3.8	1.49e+00	0	59	104	0	60	21060
2026-01-29 10:08:07.39	165.02	42.63	-45.0	-59.8	3.8	1.49e+00	0	59	104	0	60	21029
2026-01-29 10:08:08.40	165.04	42.92	-45.0	-59.8	3.8	1.49e+00	0	59	104	0	60	21029
2026-01-29 10:08:09.41	165.07	43.21	-45.0	-59.7	3.8	1.49e+00	0	58	104	0	60	20964
2026-01-29 10:08:10.42	165.10	43.50	-45.0	-59.8	3.8	1.49e+00	0	59	104	0	60	21030
2026-01-29 10:08:11.43	165.13	43.79	-45.0	-59.7	3.8	1.49e+00	0	59	104	0	60	20992
2026-01-29 10:08:12.44	165.16	44.09	-45.0	-59.7	3.8	1.49e+00	0	59	104	0	60	20972
2026-01-29 10:08:13.45	165.19	44.39	-45.0	-59.7	3.8	1.49e+00	0	59	104	0	60	20957
2026-01-29 10:08:14.46	165.23	44.69	-45.0	-59.8	3.8	1.49e+00	0	59	104	0	60	21037
2026-01-29 10:08:15.47	165.26	44.99	-45.0	-59.7	3.8	1.49e+00	0	59	104	0	60	21010
2026-01-29 10:08:16.48	165.29	45.30	-45.0	-59.7	3.8	1.49e+00	0	58	104	0	60	20985
2026-01-29 10:08:17.49	165.32	45.61	-45.0	-59.8	3.8	1.49e+00	0	59	104	0	60	21044
2026-01-29 10:08:18.50	165.36	45.92	-45.0	-59.7	3.8	1.49e+00	0	59	104	0	60	20971
2026-01-29 10:08:19.52	165.39	46.23	-45.0	-59.8	3.8	1.49e+00	0	59	104	0	60	21075
2026-01-29 10:08:20.52	165.43	46.54	-45.0	-59.8	3.8	1.49e+00	0	59	104	0	60	21036
2026-01-29 10:08:21.53	165.46	46.86	-45.0	-59.8	3.8	1.49e+00	0	59	104	0	60	21068
2026-01-29 10:08:22.54	165.50	47.18	-45.0	-59.7	3.8	1.49e+00	0	59	104	0	60	21012
2026-01-29 10:08:23.55	165.53	47.50	-45.0	-59.8	3.8	1.49e+00	0	59	104	0	60	21026
2026-01-29 10:08:24.56	165.57	47.83	-45.0	-59.8	3.8	1.49e+00	0	59	104	0	60	21038
2026-01-29 10:08:25.57	165.61	48.15	-45.0	-59.8	3.8	1.49e+00	0	59	104	0	60	21059
2026-01-29 10:08:26.58	165.65	48.48	-45.0	-59.7	3.8	1.49e+00	0	59	104	0	60	21006
2026-01-29 10:08:27.59	165.69	48.81	-45.0	-59.7	3.8	1.49e+00	0	59	104	0	60	21009
2026-01-29 10:08:28.60	165.73	49.15	-45.0	-59.8	3.8	1.49e+00	0	59	104	0	60	21021
2026-01-29 10:08:29.61	165.77	49.49	-45.0	-59.8	3.8	1.49e+00	0	59	104	0	60	21026
2026-01-29 10:08:30.62	165.81	49.83	-45.0	-59.7	3.8	1.49e+00	0	59	104	0	60	20989
2026-01-29 10:08:31.63	165.86	50.17	-45.0	-59.7	3.8	1.49e+00	0	59	104	0	60	20982
2026-01-29 10:08:32.64	165.90	50.51	-45.0	-59.7	3.8	1.49e+00	0	59	104	0	60	21001
2026-01-29 10:08:33.65	165.95	50.86	-45.0	-59.7	3.8	1.49e+00	0	59	104	0	60	20996
2026-01-29 10:08:34.66	165.99	51.21	-45.0	-59.7	3.8	1.49e+00	0	58	104	0	60	20987
2026-01-29 10:08:35.67	166.04	51.56	-45.0	-59.7	3.8	1.49e+00	0	59	104	0	60	20989
2026-01-29 10:08:36.68	166.09	51.92	-45.0	-59.7	3.8	1.49e+00	0	58	104	0	60	20920
2026-01-29 10:08:37.69	166.14	52.27	-45.0	-59.7	3.8	1.49e+00	0	59	104	0	60	20975
2026-01-29 10:08:38.70	166.19	52.63	-45.0	-59.7	3.8	1.49e+00	0	59	104	0	60	20985
2026-01-29 10:08:39.71	166.24	53.00	-45.0	-59.7	3.8	1.49e+00	0	59	104	0	60	20931
2026-01-29 10:08:40.72	166.29	53.36	-45.0	-59.8	3.8	1.49e+00	0	59	104	0	60	21036
2026-01-29 10:08:41.73	166.34	53.73	-45.0	-59.7	3.8	1.49e+00	0	59	104	0	60	21011
2026-01-29 10:08:42.74	166.40	54.10	-45.0	-59.7	3.8	1.49e+00	0	59	104	0	60	20997
2026-01-29 10:08:43.75	166.46	54.47	-45.0	-59.8	3.8	1.49e+00	0	59	104	0	60	21054
2026-01-29 10:08:44.76	166.51	54.85	-45.0	-59.7	3.8	1.49e+00	0	59	104	0	60	21001
2026-01-29 10:08:45.77	166.57	55.23	-45.0	-59.8	3.8	1.49e+00	0	59	104	0	60	21031
2026-01-29 10:08:46.78	166.63	55.61	-45.0	-59.7	3.8	1.49e+00	0	59	104	0	60	20971
2026-01-29 10:08:47.79	166.70	55.99	-45.0	-59.7	3.8	1.49e+00	0	59	104	0	60	20991
2026-01-29 10:08:48.80	166.76	56.38	-45.0	-59.8	3.8	1.49e+00	0	59	104	0	60	21029
2026-01-29 10:08:49.81	166.83	56.77	-45.0	-59.8	3.8	1.49e+00	0	59	104	0	60	21018
2026-01-29 10:08:50.83	166.89	57.17	-45.0	-59.8	3.8	1.49e+00	0	59	104	0	60	21036
2026-01-29 10:08:51.83	166.96	57.56	-45.0	-59.8	3.8	1.49e+00	0	59	104	0	60	21028
2026-01-29 10:08:52.84	167.03	57.95	-45.0	-59.7	3.8	1.49e+00	0	59	104	0	60	20904
2026-01-29 10:08:53.85	167.11	58.35	-44.9	-59.7	3.8	1.49e+00	0	59	104	0	60	20946
2026-01-29 10:08:54.86	167.18	58.76	-44.9	-59.7	3.8	1.49e+00	0	59	104	0	60	20890
2026-01-29 10:08:55.87	167.26	59.16	-45.0	-59.7	3.8	1.49e+00	0	59	104	0	60	20990
2026-01-29 10:08:56.88	167.34	59.57	-44.9	-59.7	3.8	1.49e+00	0	59	104	0	60	20940
2026-01-29 10:08:57.89	167.43	59.98	-44.9	-59.7	3.8	1.49e+00	0	59	104	0	60	20961
2026-01-29 10:08:58.90	167.51	60.39	-44.9	-59.7	3.8	1.49e+00	0	59	104	0	60	20941
2026-01-29 10:08:59.91	167.60	60.81	-44.9	-59.7	3.8	1.49e+00	0	59	104	0	60	20993
2026-01-29 10:09:00.92	167.69	61.23	-44.9	-59.7	3.8	1.49e+00	0	59	104	0	60	20921
2026-01-29 10:09:01.93	167.78	61.65	-44.9	-59.7	3.8	1.49e+00	0	59	104	0	60	20955
2026-01-29 10:09:02.94	167.88	62.07	-44.9	-59.7	3.8	1.49e+00	0	59	104	0	60	20918
2026-01-29 10:09:03.95	167.98	62.50	-44.9	-59.7	3.8	1.49e+00	0	59	104	0	60	20842
2026-01-29 10:09:04.96	168.08	62.93	-44.9	-59.7	3.8	1.49e+00	0	59	104	0	60	20947
2026-01-29 10:09:05.97	168.19	63.36	-44.9	-59.7	3.8	1.49e+00	0	59	104	0	60	20867
2026-01-29 10:09:06.98	168.30	63.79	-44.9	-59.7	3.8	1.49e+00	0	59	104	0	60	20942
2026-01-29 10:09:07.99	168.42	64.23	-44.9	-59.7	3.8	1.49e+00	0	59	104	0	60	20957
2026-01-29 10:09:09.00	168.54	64.67	-44.9	-59.7	3.8	1.49e+00	0	59	104	0	60	20963
2026-01-29 10:09:10.01	168.66	65.11	-44.9	-59.7	3.8	1.49e+00	0	59	104	0	60	20926
2026-01-29 10:09:11.02	168.79	65.55	-44.9	-59.7	3.8	1.49e+00	0	59	104	0	60	20907
2026-01-29 10:09:12.03	168.93	66.00	-44.9	-59.7	3.8	1.49e+00	0	59	104	0	60	20877
2026-01-29 10:09:13.04	169.07	66.45	-44.9	-59.7	3.8	1.49e+00	0	59	104	0	60	20838
2026-01-29 10:09:14.05	169.21	66.90	-44.9	-59.7	3.8	1.49e+00	0	59	104	0	60	20942
2026-01-29 10:09:15.06	169.37	67.35	-44.9	-59.7	3.8	1.49e+00	0	59	104	0	60	20892
2026-01-29 10:09:16.07	169.52	67.81	-44.9	-59.7	3.8	1.49e+00	0	59	104	0	60	20902
2026-01-29 10:09:17.08	169.69	68.27	-44.9	-59.7	3.8	1.49e+00	0	59	104	0	60	20917
2026-01-29 10:09:18.09	169.86	68.73	-44.9	-59.7	3.8	1.49e+00	0	59	104	0	60	20942
2026-01-29 10:09:19.10	170.04	69.19	-44.9	-59.7	3.8	1.49e+00	0	59	104	0	60	20907
2026-01-29 10:09:20.11	170.23	69.65	-44.9	-59.7	3.8	1.49e+00	0	59	104	0	60	20898
2026-01-29 10:09:21.12	170.43	70.12	-44.9	-59.7	3.8	1.49e+00	0	59	104	0	60	20925
2026-01-29 10:09:22.13	170.64	70.59	-44.9	-59.7	3.8	1.49e+00	0	59	104	0	60	20932
2026-01-29 10:09:23.14	170.87	71.06	-44.9	-59.7	3.8	1.49e+00	0	59	104	0	60	20951
2026-01-29 10:09:24.15	171.10	71.53	-44.9	-59.7	3.8	1.49e+00	0	59	104	0	60	20894
2026-01-29 10:09:25.16	171.34	72.01	-44.9	-59.7	3.8	1.49e+00	0	59	104	0	60	20927
2026-01-29 10:09:26.17	171.60	72.48	-44.9	-59.7	3.8	1.49e+00	0	59	104	0	60	20918
2026-01-29 10:09:27.18	171.88	72.96	-44.9	-59.7	3.8	1.49e+00	0	59	104	0	60	20928
2026-01-29 10:09:28.19	172.17	73.44	-44.9	-59.7	3.8	1.49e+00	0	59	104	0	60	20899
2026-01-29 10:09:29.21	172.48	73.92	-44.9	-59.7	3.8	1.49e+00	0	59	104	0	60	20940
2026-01-29 10:09:30.22	172.81	74.41	-44.9	-59.7	3.8	1.49e+00	0	59	104	0	60	20916
2026-01-29 10:09:31.23	173.16	74.89	-44.9	-59.7	3.8	1.49e+00	0	59	104	0	60	20993
2026-01-29 10:09:32.24	173.53	75.37	-44.9	-59.7	3.8	1.49e+00	0	59	104	0	60	20868
2026-01-29 10:09:33.25	173.93	75.86	-44.9	-59.7	3.8	1.49e+00	0	59	104	0	60	20909
2026-01-29 10:09:34.26	174.36	76.35	-44.9	-59.7	3.8	1.49e+00	0	59	104	0	60	20943
2026-01-29 10:09:35.27	174.82	76.84	-44.9	-59.7	3.8	1.49e+00	0	59	104	0	60	20945
2026-01-29 10:09:36.27	175.32	77.32	-44.9	-59.7	3.8	1.49e+00	0	59	104	0	60	20934
2026-01-29 10:09:37.28	175.86	77.81	-44.9	-59.7	3.8	1.49e+00	0	59	104	0	60	20843
2026-01-29 10:09:38.29	176.44	78.30	-44.9	-59.7	3.8	1.49e+00	0	59	104	0	60	20877
2026-01-29 10:09:39.30	177.08	78.79	-44.9	-59.7	3.8	1.49e+00	0	59	104	0	60	20906
2026-01-29 10:09:40.31	177.78	79.28	-44.9	-59.7	3.8	1.49e+00	0	59	104	0	60	20879
2026-01-29 10:09:41.32	178.54	79.76	-44.9	-59.7	3.8	1.49e+00	0	59	104	0	60	20853
2026-01-29 10:09:42.33	179.38	80.25	-44.9	-59.7	3.8	1.49e+00	0	59	104	0	60	20861
2026-01-29 10:09:43.34	180.31	80.74	-44.9	-59.7	3.8	1.49e+00	0	59	104	0	60	20961
2026-01-29 10:09:44.35	181.35	81.23	-44.9	-59.7	3.8	1.49e+00	0	59	104	0	60	20867
2026-01-29 10:09:45.36	182.51	81.71	-44.9	-59.7	3.8	1.49e+00	0	59	104	0	60	20907
2026-01-29 10:09:46.37	183.81	82.19	-44.9	-59.7	3.8	1.49e+00	0	59	104	0	60	20872
2026-01-29 10:09:47.38	185.28	82.67	-44.9	-59.7	3.8	1.49e+00	0	59	104	0	60	20851
2026-01-29 10:09:48.39	186.96	83.14	-44.9	-59.7	3.8	1.49e+00	0	59	104	0	60	20947
2026-01-29 10:09:49.40	188.89	83.61	-44.9	-59.7	3.8	1.49e+00	0	59	104	0	60	20898
2026-01-29 10:09:50.42	191.14	84.07	-44.9	-59.7	3.8	1.49e+00	0	59	104	0	60	20881
2026-01-29 10:09:51.43	193.74	84.52	-44.9	-59.7	3.8	1.49e+00	0	59	104	0	60	20903
2026-01-29 10:09:52.44	196.81	84.95	-44.9	-59.7	3.8	1.49e+00	0	59	104	0	60	20889
2026-01-29 10:09:53.45	200.44	85.37	-44.9	-59.7	3.8	1.49e+00	0	59	104	0	60	20857
2026-01-29 10:09:54.46	204.78	85.77	-44.9	-59.7	3.8	1.49e+00	0	59	104	0	60	20891
2026-01-29 10:09:55.47	209.98	86.14	-44.9	-59.7	3.8	1.49e+00	0	59	104	0	60	20876
2026-01-29 10:09:56.48	216.23	86.47	-44.9	-59.7	3.8	1.49e+00	0	59	104	0	60	20891
2026-01-29 10:09:57.49	223.66	86.75	-44.9	-59.7	3.8	1.49e+00	0	59	104	0	60	20849
2026-01-29 10:09:58.50	232.32	86.97	-44.9	-59.7	3.8	1.49e+00	0	59	104	0	60	20923
2026-01-29 10:09:59.50	241.96	87.11	-44.9	-59.7	3.8	1.49e+00	0	59	104	0	60	20896
2026-01-29 10:10:00.52	252.46	87.16	-44.9	-59.7	3.8	1.49e+00	0	59	104	0	60	20851
2026-01-29 10:10:01.52	262.76	87.11	-44.9	-59.7	3.8	1.49e+00	0	59	104	0	60	20824
2026-01-29 10:10:02.53	272.54	86.98	-44.9	-59.7	3.8	1.49e+00	0	59	104	0	60	20852
2026-01-29 10:10:03.55	281.34	86.76	-44.9	-59.7	3.8	1.49e+00	0	59	104	0	60	20873
2026-01-29 10:10:04.56	288.80	86.48	-44.9	-59.7	3.8	1.49e+00	0	59	104	0	60	20870
2026-01-29 10:10:05.56	295.03	86.16	-44.9	-59.7	3.8	1.49e+00	0	59	104	0	60	20882
2026-01-29 10:10:06.57	300.27	85.79	-44.9	-59.7	3.8	1.49e+00	0	59	104	0	60	20923
2026-01-29 10:10:07.59	304.68	85.39	-44.9	-59.7	3.8	1.49e+00	0	59	104	0	60	20913
2026-01-29 10:10:08.59	308.30	84.97	-44.9	-59.7	3.8	1.49e+00	0	59	104	0	60	20873
2026-01-29 10:10:09.60	311.38	84.54	-44.9	-59.7	3.8	1.49e+00	0	59	104	0	60	20853
2026-01-29 10:10:10.61	314.01	84.09	-44.9	-59.7	3.8	1.49e+00	0	59	104	0	60	20903
2026-01-29 10:10:11.62	316.25	83.63	-44.9	-59.7	3.8	1.49e+00	0	59	104	0	60	20874
2026-01-29 10:10:12.63	318.19	83.17	-44.9	-59.7	3.8	1.49e+00	0	59	104	0	60	20854
2026-01-29 10:10:13.64	319.88	82.69	-44.9	-59.7	3.8	1.49e+00	0	59	104	0	60	20857
2026-01-29 10:10:14.65	321.37	82.22	-44.9	-59.7	3.8	1.49e+00	0	59	104	0	60	20884
2026-01-29 10:10:15.66	322.68	81.74	-44.9	-59.7	3.8	1.49e+00	0	59	104	0	60	20870
2026-01-29 10:10:16.67	323.84	81.25	-44.9	-59.7	3.8	1.49e+00	0	59	104	0	60	20903
2026-01-29 10:10:17.68	324.88	80.77	-44.9	-59.7	3.8	1.49e+00	0	59	104	0	60	20882
2026-01-29 10:10:18.69	325.82	80.28	-44.9	-59.7	3.8	1.49e+00	0	59	104	0	60	20860
2026-01-29 10:10:19.70	326.67	79.80	-44.9	-59.7	3.8	1.49e+00	0	59	104	0	60	20850
2026-01-29 10:10:20.71	327.43	79.31	-44.9	-59.7	3.8	1.49e+00	0	59	104	0	60	20846
2026-01-29 10:10:21.71	328.13	78.82	-44.9	-59.7	3.8	1.49e+00	0	59	104	0	60	20830
2026-01-29 10:10:22.72	328.77	78.34	-44.9	-59.7	3.8	1.49e+00	0	59	104	0	60	20827
2026-01-29 10:10:23.73	329.35	77.85	-44.8	-59.7	3.8	1.49e+00	0	59	104	0	60	20785
2026-01-29 10:10:24.74	329.90	77.36	-44.8	-59.7	3.8	1.49e+00	0	59	104	0	60	20872
2026-01-29 10:10:25.75	330.40	76.87	-44.9	-59.7	3.8	1.49e+00	0	59	104	0	60	20820
2026-01-29 10:10:26.76	330.86	76.38	-44.9	-59.7	3.8	1.49e+00	0	59	104	0	60	20905
2026-01-29 10:10:27.77	331.29	75.90	-44.9	-59.7	3.8	1.49e+00	0	59	104	0	60	20802
2026-01-29 10:10:28.78	331.70	75.41	-44.9	-59.7	3.8	1.49e+00	0	59	104	0	60	20885
2026-01-29 10:10:29.79	332.07	74.93	-44.9	-59.7	3.8	1.49e+00	0	59	104	0	60	20835
2026-01-29 10:10:30.80	332.42	74.45	-44.9	-59.7	3.8	1.49e+00	0	59	104	0	60	20841
2026-01-29 10:10:31.81	332.75	73.96	-44.9	-59.7	3.8	1.49e+00	0	59	104	0	60	20913
2026-01-29 10:10:32.82	333.06	73.49	-44.9	-59.7	3.8	1.49e+00	0	59	104	0	60	20839
2026-01-29 10:10:33.83	333.35	73.01	-44.9	-59.7	3.8	1.49e+00	0	59	104	0	60	20811
2026-01-29 10:10:34.84	333.63	72.53	-44.9	-59.7	3.8	1.49e+00	0	59	104	0	60	20796
2026-01-29 10:10:35.85	333.89	72.06	-44.9	-59.7	3.8	1.49e+00	0	59	104	0	60	20877
2026-01-29 10:10:36.86	334.14	71.58	-44.9	-59.7	3.8	1.49e+00	0	59	104	0	60	20790
2026-01-29 10:10:37.87	334.37	71.11	-44.8	-59.7	3.8	1.49e+00	0	59	104	0	60	20821
2026-01-29 10:10:38.88	334.59	70.64	-44.9	-59.7	3.8	1.49e+00	0	59	104	0	60	20867
2026-01-29 10:10:39.89	334.80	70.17	-44.9	-59.7	3.8	1.49e+00	0	59	104	0	60	20864
2026-01-29 10:10:40.90	335.00	69.71	-44.8	-59.7	3.8	1.49e+00	0	59	104	0	60	20813
2026-01-29 10:10:41.91	335.19	69.24	-44.9	-59.6	3.8	1.49e+00	0	59	104	0	60	20774
2026-01-29 10:10:42.92	335.38	68.78	-44.9	-59.7	3.8	1.49e+00	0	59	104	0	60	20812
2026-01-29 10:10:43.93	335.55	68.32	-44.9	-59.6	3.8	1.49e+00	0	59	104	0	60	20761
2026-01-29 10:10:44.94	335.72	67.87	-44.9	-59.7	3.8	1.49e+00	0	59	104	0	60	20785
2026-01-29 10:10:45.95	335.87	67.41	-44.9	-59.7	3.8	1.49e+00	0	59	104	0	60	20802
2026-01-29 10:10:46.96	336.03	66.96	-44.7	-59.7	3.8	1.49e+00	0	59	104	0	60	20812
2026-01-29 10:10:47.97	336.17	66.51	-44.8	-59.6	3.8	1.49e+00	0	59	104	0	60	20758
2026-01-29 10:10:48.98	336.31	66.06	-44.9	-59.7	3.8	1.49e+00	0	59	104	0	60	20810
2026-01-29 10:10:49.99	336.45	65.62	-44.9	-59.7	3.8	1.49e+00	0	59	104	0	60	20802
2026-01-29 10:10:51.00	336.58	65.17	-44.9	-59.7	3.8	1.49e+00	0	59	104	0	60	20811
2026-01-29 10:10:52.01	336.70	64.73	-44.9	-59.7	3.8	1.49e+00	0	59	104	0	60	20810
2026-01-29 10:10:53.02	336.82	64.30	-44.9	-59.7	3.8	1.49e+00	0	59	104	0	60	20822
2026-01-29 10:10:54.03	336.94	63.86	-44.9	-59.6	3.8	1.49e+00	0	59	104	0	60	20755
2026-01-29 10:10:55.04	337.05	63.43	-44.8	-59.6	3.8	1.49e+00	0	59	104	0	60	20728
2026-01-29 10:10:56.05	337.16	63.00	-44.7	-59.6	3.8	1.49e+00	0	59	104	0	60	20743
2026-01-29 10:10:57.06	337.26	62.57	-44.9	-59.7	3.8	1.49e+00	0	59	104	0	60	20779
2026-01-29 10:10:58.07	337.36	62.14	-44.8	-59.6	3.8	1.49e+00	0	59	104	0	60	20762
2026-01-29 10:10:59.08	337.46	61.72	-44.9	-59.6	3.8	1.49e+00	0	59	104	0	60	20743
2026-01-29 10:11:00.09	337.56	61.30	-44.8	-59.7	3.8	1.49e+00	0	59	104	0	60	20785
2026-01-29 10:11:01.10	337.65	60.88	-44.9	-59.6	3.8	1.49e+00	0	59	104	0	60	20770
2026-01-29 10:11:02.12	337.74	60.47	-44.8	-59.6	3.8	1.49e+00	0	59	104	0	60	20771
2026-01-29 10:11:03.13	337.82	60.05	-44.9	-59.6	3.8	1.49e+00	0	59	104	0	60	20762
2026-01-29 10:11:04.13	337.91	59.65	-44.9	-59.7	3.8	1.49e+00	0	59	104	0	60	20781
2026-01-29 10:11:05.14	337.99	59.24	-44.8	-59.6	3.8	1.49e+00	0	59	104	0	60	20767
2026-01-29 10:11:06.16	338.06	58.83	-44.9	-59.6	3.8	1.49e+00	0	59	104	0	60	20698
2026-01-29 10:11:07.17	338.14	58.43	-44.9	-59.6	3.8	1.49e+00	0	59	104	0	60	20753
2026-01-29 10:11:08.18	338.21	58.03	-44.9	-59.7	3.8	1.49e+00	0	59	104	0	60	20780
2026-01-29 10:11:09.19	338.29	57.64	-44.3	-59.6	3.8	1.49e+00	0	59	104	0	60	20742
2026-01-29 10:11:10.20	338.36	57.24	-44.9	-59.7	3.8	1.49e+00	0	59	104	0	60	20784
2026-01-29 10:11:11.21	338.42	56.85	-44.8	-59.6	3.8	1.49e+00	0	59	104	0	60	20747
2026-01-29 10:11:12.22	338.49	56.46	-44.9	-59.7	3.8	1.49e+00	0	59	104	0	60	20797
2026-01-29 10:11:13.22	338.55	56.08	-44.8	-59.7	3.8	1.49e+00	0	59	104	0	60	20803
2026-01-29 10:11:14.24	338.62	55.70	-44.3	-59.7	3.8	1.49e+00	0	59	104	0	60	20786
2026-01-29 10:11:15.25	338.68	55.32	-44.2	-59.7	3.8	1.49e+00	0	59	104	0	60	20797
2026-01-29 10:11:16.26	338.74	54.94	-44.2	-59.6	3.8	1.49e+00	0	59	104	0	60	20764
2026-01-29 10:11:17.27	338.80	54.56	-44.9	-59.6	3.8	1.49e+00	0	59	104	0	60	20766
2026-01-29 10:11:18.28	338.85	54.19	-44.8	-59.6	3.8	1.49e+00	0	59	104	0	60	20759
2026-01-29 10:11:19.29	338.91	53.82	-44.9	-59.6	3.8	1.49e+00	0	59	104	0	60	20730
2026-01-29 10:11:20.30	338.96	53.45	-44.9	-59.6	3.8	1.49e+00	0	59	104	0	60	20755
2026-01-29 10:11:21.30	339.02	53.09	-44.8	-59.6	3.8	1.49e+00	0	59	104	0	60	20723
2026-01-29 10:11:22.32	339.07	52.73	-44.7	-59.6	3.8	1.49e+00	0	59	104	0	60	20726
2026-01-29 10:11:23.32	339.12	52.37	-44.8	-59.6	3.8	1.49e+00	0	59	104	0	60	20695
2026-01-29 10:11:24.33	339.17	52.02	-44.9	-59.7	3.8	1.49e+00	0	59	104	0	60	20800
2026-01-29 10:11:25.34	339.22	51.66	-44.8	-59.7	3.8	1.49e+00	0	59	104	0	60	20777
2026-01-29 10:11:26.35	339.26	51.31	-44.9	-59.6	3.8	1.49e+00	0	59	104	0	60	20654
2026-01-29 10:11:27.37	339.31	50.96	-44.8	-59.6	3.8	1.49e+00	0	59	104	0	60	20756
2026-01-29 10:11:28.38	339.36	50.61	-44.9	-59.6	3.8	1.49e+00	0	59	104	0	60	20710
2026-01-29 10:11:29.39	339.40	50.27	-44.8	-59.6	3.8	1.49e+00	0	59	104	0	60	20727
2026-01-29 10:11:30.40	339.44	49.93	-44.8	-59.6	3.8	1.49e+00	0	59	104	0	60	20684
2026-01-29 10:11:31.41	339.49	49.59	-44.9	-59.6	3.8	1.49e+00	0	59	104	0	60	20737
2026-01-29 10:11:32.42	339.53	49.26	-44.8	-59.6	3.8	1.49e+00	0	59	104	0	60	20703
2026-01-29 10:11:33.43	339.57	48.92	-44.8	-59.6	3.8	1.49e+00	0	59	104	0	60	20698
2026-01-29 10:11:34.44	339.61	48.59	-44.8	-59.6	3.8	1.49e+00	0	59	104	0	60	20661
2026-01-29 10:11:35.45	339.65	48.26	-44.8	-59.6	3.8	1.49e+00	0	59	104	0	60	20661
2026-01-29 10:11:36.46	339.69	47.94	-44.8	-59.6	3.8	1.49e+00	0	59	104	0	60	20717
2026-01-29 10:11:37.47	339.72	47.61	-44.8	-59.6	3.8	1.49e+00	0	59	104	0	60	20607
2026-01-29 10:11:38.48	339.76	47.29	-44.8	-59.6	3.8	1.49e+00	0	59	104	0	60	20634
2026-01-29 10:11:39.49	339.80	46.97	-44.8	-59.6	3.8	1.49e+00	0	59	104	0	60	20592
2026-01-29 10:11:40.50	339.83	46.66	-44.8	-59.6	3.8	1.49e+00	0	59	104	0	60	20682
2026-01-29 10:11:41.51	339.87	46.34	-44.8	-59.6	3.8	1.49e+00	0	59	104	0	60	20629
2026-01-29 10:11:42.52	339.90	46.03	-44.8	-59.6	3.8	1.49e+00	0	59	104	0	60	20577
2026-01-29 10:11:43.53	339.94	45.72	-44.8	-59.6	3.8	1.49e+00	0	60	104	0	60	20614
2026-01-29 10:11:44.54	339.97	45.42	-44.8	-59.7	3.8	1.49e+00	0	59	104	0	60	20863
2026-01-29 10:11:45.55	340.00	45.11	-44.6	-59.6	3.8	1.49e+00	0	59	104	0	60	20617
2026-01-29 10:11:46.56	340.04	44.81	-44.5	-59.6	3.8	1.49e+00	0	59	104	0	60	20639
2026-01-29 10:11:47.57	340.07	44.51	-45.4	-59.8	3.8	1.49e+00	0	59	104	0	60	21193
2026-01-29 10:11:48.58	340.10	44.21	-44.8	-59.6	3.8	1.49e+00	0	59	104	0	60	20602
2026-01-29 10:11:49.60	340.13	43.92	-44.8	-59.6	3.8	1.49e+00	0	59	104	0	60	20672
2026-01-29 10:11:50.61	340.16	43.62	-44.8	-59.6	3.8	1.49e+00	0	59	104	0	60	20633
2026-01-29 10:11:51.62	340.19	43.33	-44.8	-59.6	3.8	1.49e+00	0	59	104	0	60	20674
2026-01-29 10:11:52.63	340.22	43.04	-44.8	-59.6	3.8	1.49e+00	0	59	104	0	60	20603
2026-01-29 10:11:53.64	340.25	42.76	-44.8	-59.5	3.8	1.49e+00	0	59	104	0	60	20528
2026-01-29 10:11:54.65	340.28	42.47	-44.8	-59.6	3.8	1.49e+00	0	59	104	0	60	20606
2026-01-29 10:11:55.66	340.31	42.19	-44.8	-59.5	3.8	1.49e+00	0	59	104	0	60	20538
2026-01-29 10:11:56.67	340.33	41.91	-44.8	-59.6	3.8	1.49e+00	0	59	104	0	60	20584
2026-01-29 10:11:57.68	340.36	41.63	-44.8	-59.6	3.8	1.49e+00	0	59	104	0	60	20555
2026-01-29 10:11:58.69	340.39	41.36	-44.8	-59.6	3.8	1.49e+00	0	59	104	0	60	20570
2026-01-29 10:11:59.70	340.41	41.08	-44.8	-59.5	3.8	1.49e+00	0	60	104	0	60	20470
2026-01-29 10:12:00.71	340.44	40.81	-44.8	-59.6	3.8	1.49e+00	0	59	104	0	60	20589
2026-01-29 10:12:01.72	340.46	40.54	-44.8	-59.5	3.8	1.49e+00	0	59	104	0	60	20508
2026-01-29 10:12:02.73	340.49	40.28	-44.8	-59.6	3.8	1.49e+00	0	59	104	0	60	20574
2026-01-29 10:12:03.74	340.51	40.01	-44.8	-59.5	3.8	1.49e+00	0	59	104	0	60	20529
2026-01-29 10:12:04.75	340.54	39.75	-44.8	-59.6	3.8	1.49e+00	0	59	104	0	60	20550
2026-01-29 10:12:05.76	340.56	39.49	-44.8	-59.5	3.8	1.49e+00	0	59	104	0	60	20468
2026-01-29 10:12:06.77	340.59	39.23	-44.6	-59.5	3.8	1.49e+00	0	59	104	0	60	20471
2026-01-29 10:12:07.78	340.61	38.97	-44.8	-59.5	3.8	1.49e+00	0	60	104	0	60	20450
2026-01-29 10:12:08.79	340.63	38.71	-44.8	-59.5	3.8	1.49e+00	0	59	104	0	60	20471
2026-01-29 10:12:09.80	340.66	38.46	-44.8	-59.6	3.8	1.49e+00	0	59	104	0	60	20565
2026-01-29 10:12:10.81	340.68	38.21	-44.8	-59.5	3.8	1.49e+00	0	59	104	0	60	20416
2026-01-29 10:12:11.82	340.70	37.96	-44.7	-59.5	3.8	1.49e+00	0	59	104	0	60	20498
2026-01-29 10:12:12.83	340.72	37.71	-44.7	-59.5	3.7	1.49e+00	0	59	104	0	60	20458
2026-01-29 10:12:13.84	340.75	37.46	-44.7	-59.5	3.8	1.49e+00	0	60	104	0	60	20419
2026-01-29 10:12:14.85	340.77	37.22	-44.7	-59.5	3.8	1.49e+00	0	59	104	0	60	20432
2026-01-29 10:12:15.86	340.79	36.98	-44.7	-59.5	3.8	1.49e+00	0	59	104	0	60	20485
2026-01-29 10:12:16.88	340.81	36.73	-44.7	-59.5	3.8	1.49e+00	0	59	104	0	60	20438
2026-01-29 10:12:17.89	340.83	36.49	-44.7	-59.5	3.8	1.49e+00	0	59	104	0	60	20476
2026-01-29 10:12:18.90	340.85	36.26	-44.7	-59.5	3.8	1.49e+00	0	60	104	0	60	20484
2026-01-29 10:12:19.91	340.87	36.02	-44.7	-59.5	3.8	1.49e+00	0	59	104	0	60	20436
2026-01-29 10:12:20.92	340.89	35.79	-44.7	-59.5	3.8	1.49e+00	0	60	104	0	60	20463
2026-01-29 10:12:21.93	340.91	35.55	-44.7	-59.5	3.8	1.49e+00	0	60	104	0	60	20492
2026-01-29 10:12:22.94	340.93	35.32	-44.6	-59.5	3.8	1.49e+00	0	59	104	0	60	20373
2026-01-29 10:12:23.95	340.95	35.09	-44.7	-59.5	3.8	1.49e+00	0	60	104	0	60	20410
2026-01-29 10:12:24.96	340.97	34.87	-44.7	-59.5	3.8	1.49e+00	0	59	104	0	60	20456
2026-01-29 10:12:25.97	340.99	34.64	-44.7	-59.5	3.8	1.49e+00	0	59	104	0	60	20415
2026-01-29 10:12:26.98	341.01	34.42	-44.7	-59.5	3.8	1.49e+00	0	59	104	0	60	20330
2026-01-29 10:12:27.99	341.03	34.20	-44.7	-59.5	3.8	1.49e+00	0	60	104	0	60	20374
2026-01-29 10:12:29.00	341.04	33.97	-44.7	-59.5	3.8	1.49e+00	0	59	104	0	60	20382
2026-01-29 10:12:30.01	341.06	33.76	-44.7	-59.5	3.8	1.49e+00	0	59	104	0	60	20356
2026-01-29 10:12:31.02	341.08	33.54	-44.7	-59.5	3.8	1.49e+00	0	59	104	0	60	20440
2026-01-29 10:12:32.03	341.10	33.32	-44.7	-59.5	3.8	1.49e+00	0	60	104	0	60	20343
2026-01-29 10:12:33.05	341.12	33.11	-43.8	-59.0	3.8	1.49e+00	0	59	104	0	59	20512
2026-01-29 10:12:34.05	341.13	32.89	-44.7	-59.5	3.8	1.49e+00	0	60	104	0	60	20453
2026-01-29 10:12:35.06	341.15	32.68	-44.7	-59.5	3.8	1.49e+00	0	60	104	0	60	20347
2026-01-29 10:12:36.08	341.17	32.47	-44.7	-59.5	3.8	1.49e+00	0	60	104	0	60	20368
2026-01-29 10:12:37.09	341.18	32.26	-44.7	-59.5	3.8	1.49e+00	0	59	104	0	60	20329
2026-01-29 10:12:38.10	341.20	32.06	-44.7	-59.4	3.8	1.49e+00	0	60	104	0	60	20301
2026-01-29 10:12:39.11	341.22	31.85	-44.7	-59.5	3.8	1.49e+00	0	59	104	0	60	20346
2026-01-29 10:12:40.12	341.23	31.65	-44.7	-59.5	3.8	1.49e+00	0	59	104	0	60	20366
2026-01-29 10:12:41.13	341.25	31.44	-44.7	-59.5	3.8	1.49e+00	0	60	104	0	60	20389
2026-01-29 10:12:42.14	341.27	31.24	-44.7	-59.5	3.8	1.49e+00	0	60	104	0	60	20367
2026-01-29 10:12:43.15	341.28	31.04	-44.4	-59.2	3.8	1.49e+00	0	59	104	0	59	20935
2026-01-29 10:12:44.16	341.30	30.84	-44.7	-59.5	3.8	1.49e+00	0	59	104	0	60	20323
2026-01-29 10:12:45.17	341.31	30.64	-44.7	-59.5	3.8	1.49e+00	0	60	104	0	60	20341
2026-01-29 10:12:46.18	341.33	30.45	-44.7	-59.5	3.8	1.49e+00	0	60	104	0	60	20368
2026-01-29 10:12:47.19	341.35	30.25	-44.7	-59.5	3.8	1.49e+00	0	60	104	0	60	20309
2026-01-29 10:12:48.20	341.36	30.06	-44.7	-59.4	3.8	1.49e+00	0	59	104	0	60	20264
2026-01-29 10:12:49.21	341.38	29.87	-44.7	-59.4	3.8	1.49e+00	0	60	104	0	60	20268
2026-01-29 10:12:50.22	341.39	29.68	-44.7	-59.4	3.8	1.49e+00	0	59	104	0	60	20261
2026-01-29 10:12:51.23	341.41	29.49	-44.7	-59.4	3.8	1.49e+00	0	60	104	0	60	20298
2026-01-29 10:12:52.24	341.42	29.30	-44.7	-59.4	3.8	1.49e+00	0	60	104	0	60	20281
2026-01-29 10:12:53.25	341.43	29.11	-44.5	-59.5	3.8	1.49e+00	0	60	104	0	60	20340
2026-01-29 10:12:54.26	341.45	28.93	-44.7	-59.4	3.8	1.49e+00	0	60	104	0	60	20300
2026-01-29 10:12:55.27	341.46	28.74	-44.7	-59.4	3.8	1.49e+00	0	60	104	0	60	20278
2026-01-29 10:12:56.28	341.48	28.56	-44.7	-59.3	3.8	1.49e+00	0	60	104	0	59	21176
2026-01-29 10:12:57.29	341.49	28.38	-44.7	-59.4	3.8	1.49e+00	0	59	104	0	60	20299
2026-01-29 10:12:58.30	341.51	28.20	-44.5	-59.4	3.8	1.49e+00	0	60	104	0	60	20294
2026-01-29 10:12:59.31	341.52	28.02	-44.6	-59.4	3.8	1.49e+00	0	60	104	0	60	20266
2026-01-29 10:13:00.32	341.53	27.84	-44.7	-59.4	3.8	1.49e+00	0	60	104	0	60	20220
2026-01-29 10:13:01.33	341.55	27.66	-44.6	-59.4	3.8	1.49e+00	0	59	104	0	60	20214
2026-01-29 10:13:02.34	341.56	27.49	-44.7	-59.4	3.8	1.49e+00	0	59	104	0	60	20284
2026-01-29 10:13:03.35	341.57	27.31	-44.6	-59.4	3.8	1.49e+00	0	59	104	0	60	20277
2026-01-29 10:13:04.36	341.59	27.14	-44.6	-59.4	3.8	1.49e+00	0	59	104	0	60	20200
2026-01-29 10:13:05.37	341.60	26.96	-44.6	-59.4	3.8	1.49e+00	0	59	104	0	60	20194
2026-01-29 10:13:06.38	341.61	26.79	-44.6	-59.5	3.8	1.49e+00	0	59	104	0	60	20324
2026-01-29 10:13:07.39	341.63	26.62	-44.6	-59.4	3.8	1.49e+00	0	59	104	0	60	20182
2026-01-29 10:13:08.40	341.64	26.45	-44.7	-59.3	3.8	1.49e+00	0	59	104	0	59	21155
2026-01-29 10:13:09.41	341.65	26.28	-44.7	-59.3	3.8	1.49e+00	0	59	104	0	59	21118
2026-01-29 10:13:10.42	341.67	26.12	-44.7	-59.3	3.8	1.49e+00	0	60	104	0	59	21056
2026-01-29 10:13:11.43	341.68	25.95	-44.7	-59.3	3.8	1.49e+00	0	59	104	0	59	21098
2026-01-29 10:13:12.45	341.69	25.78	-44.7	-59.3	3.8	1.49e+00	0	60	104	0	59	21103
2026-01-29 10:13:13.46	341.70	25.62	-44.7	-59.3	3.8	1.49e+00	0	60	104	0	59	21087
2026-01-29 10:13:14.47	341.72	25.45	-44.7	-59.3	3.8	1.49e+00	0	59	104	0	59	21072
2026-01-29 10:13:15.48	341.73	25.29	-44.7	-59.3	3.8	1.49e+00	0	59	104	0	59	21100
2026-01-29 10:13:16.49	341.74	25.13	-44.7	-59.3	3.8	1.49e+00	0	59	104	0	59	21084
2026-01-29 10:13:17.50	341.75	24.97	-44.7	-59.3	3.8	1.49e+00	0	60	104	0	59	21100
2026-01-29 10:13:18.51	341.76	24.81	-44.7	-59.2	3.8	1.49e+00	0	60	104	0	59	21007
2026-01-29 10:13:19.52	341.78	24.65	-44.7	-59.3	3.8	1.49e+00	0	59	104	0	59	21092
2026-01-29 10:13:20.53	341.79	24.49	-44.7	-59.3	3.8	1.49e+00	0	59	104	0	59	21040
2026-01-29 10:13:21.54	341.80	24.34	-44.7	-59.3	3.8	1.49e+00	0	59	104	0	59	21051
2026-01-29 10:13:22.55	341.81	24.18	-44.7	-59.3	3.8	1.49e+00	0	59	104	0	59	21076
2026-01-29 10:13:23.56	341.82	24.03	-44.7	-59.3	3.8	1.49e+00	0	59	104	0	59	21057
2026-01-29 10:13:24.57	341.84	23.87	-44.7	-59.3	3.8	1.49e+00	0	59	104	0	59	21036
2026-01-29 10:13:25.58	341.85	23.72	-44.7	-59.3	3.8	1.49e+00	0	59	104	0	59	21068
2026-01-29 10:13:26.59	341.86	23.57	-44.7	-59.3	3.8	1.49e+00	0	59	104	0	59	21046
2026-01-29 10:13:27.60	341.87	23.42	-44.5	-59.2	3.8	1.49e+00	0	60	104	0	59	20968
2026-01-29 10:13:28.61	341.88	23.27	-44.7	-59.2	3.8	1.49e+00	0	59	104	0	59	21000
2026-01-29 10:13:29.62	341.89	23.12	-44.7	-59.3	3.8	1.49e+00	0	60	104	0	59	21059
2026-01-29 10:13:30.63	341.90	22.97	-44.6	-59.2	3.8	1.49e+00	0	60	104	0	59	20983
2026-01-29 10:13:31.64	341.91	22.82	-44.6	-59.3	3.8	1.49e+00	0	59	104	0	59	21035
2026-01-29 10:13:32.65	341.93	22.68	-44.7	-59.2	3.8	1.49e+00	0	60	104	0	59	21009
2026-01-29 10:13:33.66	341.94	22.53	-44.7	-59.2	3.8	1.49e+00	0	60	104	0	59	21015
2026-01-29 10:13:34.68	341.95	22.38	-44.6	-59.2	3.8	1.49e+00	0	60	104	0	59	20980
2026-01-29 10:13:35.68	341.96	22.24	-44.7	-59.2	3.8	1.49e+00	0	59	104	0	59	20939
2026-01-29 10:13:36.69	341.97	22.10	-44.6	-59.2	3.8	1.49e+00	0	60	104	0	59	20888
2026-01-29 10:13:37.71	341.98	21.95	-44.6	-59.2	3.8	1.49e+00	0	60	104	0	59	20936
2026-01-29 10:13:38.72	341.99	21.81	-44.6	-59.2	3.8	1.49e+00	0	60	104	0	59	20903
2026-01-29 10:13:39.73	342.00	21.67	-44.6	-59.2	3.8	1.49e+00	0	59	104	0	59	20897
2026-01-29 10:13:40.74	342.01	21.53	-44.6	-59.2	3.8	1.49e+00	0	60	104	0	59	20934
2026-01-29 10:13:41.75	342.02	21.39	-44.6	-59.2	3.8	1.49e+00	0	59	104	0	59	20876
2026-01-29 10:13:42.76	342.03	21.25	-44.6	-59.2	3.8	1.49e+00	0	59	104	0	59	20929
2026-01-29 10:13:43.77	342.04	21.11	-44.6	-59.2	3.8	1.49e+00	0	59	104	0	59	20864
2026-01-29 10:13:44.78	342.05	20.98	-44.6	-59.2	3.8	1.49e+00	0	59	104	0	59	20910
2026-01-29 10:13:45.79	342.06	20.84	-44.6	-59.2	3.8	1.49e+00	0	59	104	0	59	20841
2026-01-29 10:13:46.80	342.07	20.70	-44.6	-59.2	3.8	1.49e+00	0	59	104	0	59	20878
2026-01-29 10:13:47.81	342.08	20.57	-44.5	-59.2	3.8	1.49e+00	0	60	104	0	59	20890
2026-01-29 10:13:48.82	342.09	20.43	-44.6	-59.2	3.8	1.49e+00	0	60	104	0	59	20877
2026-01-29 10:13:49.83	342.10	20.30	-44.6	-59.2	3.8	1.49e+00	0	60	104	0	59	20859
2026-01-29 10:13:50.84	342.11	20.17	-44.6	-59.2	3.8	1.49e+00	0	60	104	0	59	20878
2026-01-29 10:13:51.85	342.12	20.04	-44.6	-59.2	3.8	1.49e+00	0	60	104	0	59	20873
2026-01-29 10:13:52.86	342.13	19.91	-44.6	-59.2	3.8	1.49e+00	0	59	104	0	59	20795
2026-01-29 10:13:53.88	342.14	19.77	-44.6	-59.2	3.8	1.49e+00	0	60	104	0	59	20820
2026-01-29 10:13:54.89	342.15	19.64	-44.6	-59.2	3.8	1.49e+00	0	59	104	0	59	20827
2026-01-29 10:13:55.90	342.16	19.51	-44.6	-59.2	3.8	1.49e+00	0	59	104	0	59	20826
2026-01-29 10:13:56.90	342.17	19.39	-44.5	-59.1	3.8	1.49e+00	0	60	104	0	59	20736
2026-01-29 10:13:57.92	342.18	19.26	-44.6	-59.1	3.8	1.49e+00	0	60	104	0	59	20775
2026-01-29 10:13:58.93	342.19	19.13	-44.6	-59.2	3.8	1.49e+00	0	59	104	0	59	20787
2026-01-29 10:13:59.94	342.20	19.00	-44.6	-59.2	3.8	1.49e+00	0	59	104	0	59	20816
2026-01-29 10:14:00.95	342.21	18.88	-44.5	-59.1	3.8	1.49e+00	0	59	104	0	59	20726
2026-01-29 10:14:01.96	342.22	18.75	-44.6	-59.1	3.8	1.49e+00	0	59	104	0	59	20747
2026-01-29 10:14:02.97	342.23	18.63	-44.6	-59.2	3.8	1.49e+00	0	59	104	0	59	20787
2026-01-29 10:14:03.98	342.24	18.50	-44.6	-59.1	3.8	1.49e+00	0	60	104	0	59	20720
2026-01-29 10:14:04.99	342.25	18.38	-44.6	-59.1	3.8	1.49e+00	0	59	104	0	59	20728
2026-01-29 10:14:06.00	342.26	18.26	-44.6	-59.1	3.8	1.49e+00	0	59	104	0	59	20743
2026-01-29 10:14:07.01	342.27	18.13	-44.5	-59.1	3.8	1.49e+00	0	59	104	0	59	20754
2026-01-29 10:14:08.02	342.28	18.01	-44.5	-59.1	3.8	1.49e+00	0	60	104	0	59	20712
2026-01-29 10:14:09.03	342.29	17.89	-44.5	-59.1	3.8	1.49e+00	0	60	104	0	59	20702
2026-01-29 10:14:10.04	342.29	17.77	-44.5	-59.1	3.8	1.49e+00	0	59	104	0	59	20688
2026-01-29 10:14:11.05	342.30	17.65	-44.5	-59.1	3.8	1.49e+00	0	59	104	0	59	20713
2026-01-29 10:14:12.06	342.31	17.53	-44.5	-59.1	3.8	1.49e+00	0	60	104	0	59	20684
2026-01-29 10:14:13.07	342.32	17.41	-44.4	-59.1	3.8	1.49e+00	0	60	104	0	59	20668
2026-01-29 10:14:14.08	342.33	17.29	-44.5	-59.1	3.8	1.49e+00	0	59	104	0	59	20650
2026-01-29 10:14:15.09	342.34	17.18	-44.5	-59.1	3.8	1.49e+00	0	59	104	0	59	20609
2026-01-29 10:14:16.10	342.35	17.06	-44.5	-59.1	3.8	1.49e+00	0	59	104	0	59	20645
2026-01-29 10:14:17.11	342.36	16.94	-44.5	-59.1	3.8	1.49e+00	0	59	104	0	59	20599
2026-01-29 10:14:18.12	342.37	16.83	-44.5	-59.1	3.8	1.49e+00	0	59	104	0	59	20657
2026-01-29 10:14:19.13	342.38	16.71	-44.5	-59.1	3.8	1.49e+00	0	59	104	0	59	20644
2026-01-29 10:14:20.14	342.38	16.60	-44.5	-59.1	3.8	1.49e+00	0	59	104	0	59	20653
2026-01-29 10:14:21.15	342.39	16.48	-44.5	-59.1	3.8	1.49e+00	0	59	104	0	59	20576
2026-01-29 10:14:22.16	342.40	16.37	-44.5	-59.1	3.8	1.49e+00	0	60	104	0	59	20591
2026-01-29 10:14:23.17	342.41	16.26	-44.5	-59.0	3.8	1.49e+00	0	59	104	0	59	20498
2026-01-29 10:14:24.18	342.42	16.14	-44.5	-59.0	3.8	1.49e+00	0	59	104	0	59	20537
2026-01-29 10:14:25.19	342.43	16.03	-44.4	-59.0	3.8	1.49e+00	0	59	104	0	59	20527
2026-01-29 10:14:26.20	342.44	15.92	-44.5	-59.0	3.8	1.49e+00	0	60	104	0	59	20531
2026-01-29 10:14:27.21	342.44	15.81	-44.5	-59.1	3.8	1.49e+00	0	59	104	0	59	20570
2026-01-29 10:14:28.23	342.45	15.70	-44.4	-59.0	3.8	1.49e+00	0	59	104	0	59	20514
2026-01-29 10:14:29.24	342.46	15.59	-44.4	-59.0	3.8	1.49e+00	0	60	104	0	59	20445
2026-01-29 10:14:30.25	342.47	15.48	-44.4	-59.0	3.8	1.49e+00	0	59	104	0	59	20512
2026-01-29 10:14:31.26	342.48	15.37	-44.4	-59.0	3.8	1.49e+00	0	59	104	0	59	20533
2026-01-29 10:14:32.27	342.49	15.26	-44.4	-59.0	3.8	1.49e+00	0	59	104	0	59	20507
2026-01-29 10:14:33.28	342.49	15.15	-44.4	-59.0	3.8	1.49e+00	0	59	104	0	59	20521
2026-01-29 10:14:34.29	342.50	15.04	-44.4	-59.0	3.8	1.49e+00	0	59	104	0	59	20457
2026-01-29 10:14:35.30	342.51	14.94	-44.4	-59.0	3.8	1.49e+00	0	59	104	0	59	20436
2026-01-29 10:14:36.31	342.52	14.83	-44.4	-59.0	3.8	1.49e+00	0	59	104	0	59	20389
2026-01-29 10:14:37.32	342.53	14.72	-44.4	-59.0	3.8	1.49e+00	0	60	104	0	59	20412
2026-01-29 10:14:38.33	342.54	14.62	-44.4	-59.0	3.8	1.49e+00	0	60	104	0	59	20438
2026-01-29 10:14:39.34	342.54	14.51	-44.4	-59.0	3.8	1.49e+00	0	60	104	0	59	20420
2026-01-29 10:14:40.35	342.55	14.41	-44.4	-59.0	3.8	1.49e+00	0	59	104	0	59	20382
2026-01-29 10:14:41.36	342.56	14.30	-44.4	-59.0	3.8	1.49e+00	0	59	104	0	59	20362
2026-01-29 10:14:42.37	342.57	14.20	-44.4	-59.0	3.8	1.49e+00	0	60	104	0	59	20382
2026-01-29 10:14:43.39	342.58	14.09	-44.4	-59.0	3.8	1.49e+00	0	59	104	0	59	20388
2026-01-29 10:14:44.40	342.58	13.99	-44.3	-59.0	3.8	1.49e+00	0	59	104	0	59	20365
2026-01-29 10:14:45.41	342.59	13.89	-44.4	-59.0	3.8	1.49e+00	0	59	104	0	59	20319
2026-01-29 10:14:46.42	342.60	13.79	-44.4	-58.9	3.8	1.49e+00	0	59	104	0	59	20301
2026-01-29 10:14:47.43	342.61	13.68	-44.3	-58.9	3.8	1.49e+00	0	59	104	0	59	20285
2026-01-29 10:14:48.44	342.62	13.58	-44.4	-58.9	3.8	1.49e+00	0	60	104	0	59	20243
2026-01-29 10:14:49.45	342.62	13.48	-44.4	-58.9	3.8	1.49e+00	0	59	104	0	59	20266
2026-01-29 10:14:50.46	342.63	13.38	-44.4	-58.9	3.8	1.49e+00	0	60	104	0	59	20222
2026-01-29 10:14:51.47	342.64	13.28	-44.3	-58.9	3.8	1.49e+00	0	60	104	0	59	20261
2026-01-29 10:14:52.48	342.65	13.18	-44.2	-58.9	3.8	1.49e+00	0	60	104	0	59	20254
2026-01-29 10:14:53.49	342.66	13.08	-44.3	-58.9	3.8	1.49e+00	0	59	104	0	59	20241
2026-01-29 10:14:54.50	342.66	12.98	-44.3	-58.9	3.8	1.49e+00	0	60	104	0	59	20194
2026-01-29 10:14:55.51	342.67	12.89	-44.3	-58.9	3.8	1.49e+00	0	59	104	0	59	20210
2026-01-29 10:14:56.52	342.68	12.79	-44.3	-58.9	3.8	1.49e+00	0	60	104	0	59	20091
2026-01-29 10:14:57.53	342.69	12.69	-44.3	-58.9	3.8	1.49e+00	0	59	104	0	59	20164
2026-01-29 10:14:58.54	342.69	12.59	-44.2	-58.9	3.8	1.49e+00	0	60	104	0	59	20113
2026-01-29 10:14:59.55	342.70	12.50	-44.3	-58.9	3.8	1.49e+00	0	60	104	0	59	20092
2026-01-29 10:15:00.56	342.71	12.40	-44.3	-58.8	3.8	1.49e+00	0	59	104	0	59	20056
2026-01-29 10:15:01.57	342.72	12.30	-44.2	-58.9	3.8	1.49e+00	0	59	104	0	59	20102
2026-01-29 10:15:02.58	342.72	12.21	-44.3	-58.8	3.8	1.49e+00	0	59	104	0	59	20053
2026-01-29 10:15:03.59	342.73	12.11	-44.3	-58.8	3.8	1.49e+00	0	60	104	0	59	20033
2026-01-29 10:15:04.60	342.74	12.02	-44.2	-58.8	3.8	1.49e+00	0	59	104	0	59	19986
2026-01-29 10:15:05.61	342.75	11.92	-44.2	-58.8	3.8	1.49e+00	0	59	104	0	59	19972
2026-01-29 10:15:06.63	342.75	11.83	-44.2	-58.8	3.8	1.49e+00	0	59	104	0	59	19966
2026-01-29 10:15:07.64	342.76	11.73	-44.2	-58.8	3.8	1.49e+00	0	59	104	0	59	19951
2026-01-29 10:15:08.65	342.77	11.64	-44.2	-58.8	3.8	1.49e+00	0	60	104	0	59	19907
2026-01-29 10:15:09.66	342.78	11.55	-44.2	-58.8	3.8	1.49e+00	0	59	104	0	59	19948
2026-01-29 10:15:10.67	342.78	11.45	-44.2	-58.8	3.8	1.49e+00	0	60	104	0	58	21078
2026-01-29 10:15:11.68	342.79	11.36	-44.2	-58.8	3.8	1.49e+00	0	60	104	0	58	21129
