passes_logs/2026/01/29/R2.0S_Moscow/R2.0S_Moscow__20260129_123953_FENGYUN_3D_rec.log

#Pass ID: 20260129_123953_FENGYUN 3D
#Satellite: FENGYUN 3D
#Configuration: FENGYUN 3D
#almurnet v.1.7.20251203
#Start time: 2026-01-29 12:39:54

#Version: 2.2.20231116
#Station: R2.0S_Moscow
#Location: 37.707566 lon 55.798166 lat
#TLE: 1 43010U 17072A   26027.97130493  .00000326  00000+0  17586-3 0  9998
#TLE: 2 43010  98.9960 359.9900 0002514  87.8428 272.3036 14.19701925425097

#Time	Az	El	Level	Level2	SNR	BER	BlckErr	Temp	State	Recorded	gain1	gain2
2026-01-29 12:39:54.62	180.23	2.08	-44.0	-55.6	3.8	8.47e-01	0	51	0	0	59	13858
2026-01-29 12:39:55.62	180.26	2.15	-44.0	-55.6	3.8	8.46e-01	0	51	104	0	59	13860
2026-01-29 12:39:56.63	180.30	2.21	-44.0	-55.7	3.8	8.46e-01	0	51	104	0	59	13903
2026-01-29 12:39:57.64	180.33	2.27	-44.0	-55.6	3.8	8.46e-01	0	52	104	0	59	13796
2026-01-29 12:39:58.65	180.36	2.34	-44.0	-55.6	3.8	8.46e-01	0	52	104	0	59	13853
2026-01-29 12:39:59.66	180.40	2.40	-44.0	-55.6	3.8	8.46e-01	0	52	104	0	59	13880
2026-01-29 12:40:00.67	180.43	2.46	-44.0	-55.6	3.8	8.47e-01	0	52	104	0	59	13862
2026-01-29 12:40:01.68	180.47	2.53	-44.0	-55.6	3.8	8.47e-01	0	52	104	0	59	13841
2026-01-29 12:40:02.69	180.50	2.59	-44.0	-55.6	3.8	8.47e-01	0	52	104	0	59	13851
2026-01-29 12:40:03.71	180.54	2.66	-44.0	-55.7	3.8	8.46e-01	0	52	104	0	59	13908
2026-01-29 12:40:04.71	180.57	2.72	-44.0	-55.7	3.8	8.46e-01	0	52	104	0	59	13898
2026-01-29 12:40:05.73	180.61	2.79	-44.0	-55.6	3.8	8.45e-01	0	52	104	0	59	13883
2026-01-29 12:40:06.74	180.64	2.85	-44.0	-55.7	3.8	8.46e-01	0	52	104	0	59	13886
2026-01-29 12:40:07.75	180.68	2.92	-44.0	-55.6	3.8	8.47e-01	0	52	104	0	59	13870
2026-01-29 12:40:08.76	180.71	2.98	-44.0	-55.6	3.8	8.46e-01	0	52	104	0	59	13876
2026-01-29 12:40:09.77	180.75	3.05	-44.0	-55.6	3.8	8.45e-01	0	52	104	0	59	13854
2026-01-29 12:40:10.78	180.78	3.11	-44.0	-55.7	3.8	8.46e-01	0	52	104	0	59	13892
2026-01-29 12:40:11.79	180.82	3.18	-44.0	-55.6	3.8	8.46e-01	0	52	104	0	59	13853
2026-01-29 12:40:12.80	180.86	3.25	-44.0	-55.6	3.8	8.46e-01	0	52	104	0	59	13862
2026-01-29 12:40:13.81	180.89	3.31	-44.0	-55.6	3.8	8.47e-01	0	53	104	0	59	13864
2026-01-29 12:40:14.82	180.93	3.38	-44.0	-55.6	3.8	8.45e-01	0	53	104	0	59	13882
2026-01-29 12:40:15.83	180.97	3.44	-44.0	-55.6	3.8	8.46e-01	0	53	104	0	59	13858
2026-01-29 12:40:16.84	181.00	3.51	-44.0	-55.6	3.8	8.46e-01	0	53	104	0	59	13852
2026-01-29 12:40:17.85	181.04	3.58	-44.0	-55.6	3.8	8.45e-01	0	53	104	0	59	13866
2026-01-29 12:40:18.86	181.08	3.64	-44.0	-55.7	3.8	8.45e-01	0	53	104	0	59	13895
2026-01-29 12:40:19.87	181.11	3.71	-44.0	-55.6	3.8	8.46e-01	0	53	104	0	59	13827
2026-01-29 12:40:20.88	181.15	3.78	-44.0	-55.6	3.8	8.45e-01	0	53	104	0	59	13872
2026-01-29 12:40:21.89	181.19	3.84	-44.0	-55.6	3.8	8.46e-01	0	53	104	0	59	13830
2026-01-29 12:40:22.90	181.23	3.91	-44.0	-55.6	3.8	8.45e-01	0	53	104	0	59	13867
2026-01-29 12:40:23.91	181.26	3.98	-44.0	-55.6	3.8	8.47e-01	0	53	104	0	59	13881
2026-01-29 12:40:24.93	181.30	4.05	-44.0	-55.6	3.8	8.46e-01	0	53	104	0	59	13817
2026-01-29 12:40:25.94	181.34	4.12	-44.0	-55.6	3.8	8.45e-01	0	54	104	0	59	13777
2026-01-29 12:40:26.95	181.38	4.18	-44.0	-55.6	3.8	8.47e-01	0	54	104	0	59	13828
2026-01-29 12:40:27.96	181.42	4.25	-44.0	-55.6	3.8	8.47e-01	0	53	104	0	59	13864
2026-01-29 12:40:28.97	181.46	4.32	-44.0	-55.6	3.8	8.46e-01	0	54	104	0	59	13797
2026-01-29 12:40:29.98	181.49	4.39	-44.0	-55.6	3.8	8.46e-01	0	54	104	0	59	13750
2026-01-29 12:40:30.99	181.53	4.46	-44.0	-55.5	3.8	8.46e-01	0	54	104	0	59	13719
2026-01-29 12:40:32.00	181.57	4.53	-44.0	-55.5	3.8	8.46e-01	0	54	104	0	59	13718
2026-01-29 12:40:33.01	181.61	4.59	-44.0	-55.5	3.8	8.46e-01	0	54	104	0	59	13688
2026-01-29 12:40:34.02	181.65	4.66	-44.0	-55.4	3.8	8.45e-01	0	54	104	0	59	13474
2026-01-29 12:40:35.03	181.69	4.73	-43.9	-55.2	3.8	8.47e-01	0	54	104	0	59	13195
2026-01-29 12:40:36.04	181.73	4.80	-43.9	-55.0	3.8	8.45e-01	0	54	104	0	59	12937
2026-01-29 12:40:37.05	181.77	4.87	-43.9	-54.8	3.8	8.46e-01	0	54	104	0	59	12523
2026-01-29 12:40:38.06	181.81	4.94	-43.9	-54.6	3.8	8.45e-01	0	54	104	0	59	12301
2026-01-29 12:40:39.07	181.85	5.01	-43.9	-54.5	3.8	8.46e-01	0	54	104	0	59	12171
2026-01-29 12:40:40.08	181.89	5.08	-43.8	-54.5	3.8	8.47e-01	0	54	104	0	59	12101
2026-01-29 12:40:41.09	181.93	5.15	-43.8	-54.4	3.8	8.46e-01	0	54	104	0	59	11964
2026-01-29 12:40:42.10	181.97	5.22	-43.8	-54.2	3.8	8.46e-01	0	54	104	0	59	11706
2026-01-29 12:40:43.12	182.01	5.29	-43.8	-54.0	3.8	8.46e-01	0	54	104	0	59	11440
2026-01-29 12:40:44.13	182.06	5.37	-43.8	-53.8	3.8	8.45e-01	0	54	104	0	59	11258
2026-01-29 12:40:45.14	182.10	5.44	-43.8	-53.7	3.9	8.46e-01	0	55	104	0	59	11082
2026-01-29 12:40:46.15	182.14	5.51	-43.7	-53.4	3.8	8.45e-01	0	55	104	0	59	10704
2026-01-29 12:40:47.16	182.18	5.58	-43.7	-53.0	3.9	8.42e-01	0	55	104	0	59	10277
2026-01-29 12:40:48.17	182.22	5.65	-43.6	-52.5	4.1	8.41e-01	0	55	0	0	59	9690
2026-01-29 12:40:49.18	182.26	5.72	-43.6	-52.3	4.1	8.40e-01	0	55	0	0	59	9433
2026-01-29 12:40:50.19	182.31	5.79	-43.5	-52.0	4.2	8.37e-01	0	55	0	0	59	9109
2026-01-29 12:40:51.20	182.35	5.87	-43.4	-51.6	4.3	8.32e-01	0	55	0	0	58	9214
2026-01-29 12:40:52.21	182.39	5.94	-43.3	-51.1	4.5	8.23e-01	0	55	0	0	58	8705
2026-01-29 12:40:53.22	182.44	6.01	-43.3	-50.7	4.7	8.07e-01	0	55	0	0	58	8272
2026-01-29 12:40:54.23	182.48	6.08	-43.1	-50.2	4.9	7.96e-01	0	55	0	0	58	7882
2026-01-29 12:40:55.24	182.52	6.16	-43.0	-49.6	5.2	7.49e-01	0	55	0	0	58	7319
2026-01-29 12:40:56.25	182.57	6.23	-42.8	-49.0	5.6	6.62e-01	0	55	0	0	57	7269
2026-01-29 12:40:57.26	182.61	6.30	-42.7	-48.6	5.9	3.87e-01	0	55	0	5242880	57	6940
2026-01-29 12:40:58.28	182.65	6.38	-42.6	-48.1	6.3	3.15e-01	0	55	0	11534336	57	6563
2026-01-29 12:40:59.29	182.70	6.45	-42.3	-47.5	6.9	2.18e-01	0	55	0	16777216	56	6434
2026-01-29 12:41:00.29	182.74	6.52	-42.2	-47.1	7.2	1.58e-01	0	55	0	23068672	56	6188
2026-01-29 12:41:01.30	182.79	6.60	-42.0	-46.7	7.6	1.17e-01	0	55	0	28311552	56	5861
2026-01-29 12:41:02.31	182.83	6.67	-41.6	-46.0	8.2	7.42e-02	0	55	0	34603008	55	5726
2026-01-29 12:41:03.33	182.88	6.75	-41.4	-45.5	8.6	5.63e-02	0	55	0	39845888	54	5786
2026-01-29 12:41:04.34	182.92	6.82	-41.3	-45.3	8.9	3.58e-02	0	55	0	46137344	54	5594
2026-01-29 12:41:05.35	182.97	6.90	-41.1	-44.9	9.3	2.92e-02	0	56	0	51380224	54	5366
2026-01-29 12:41:06.36	183.01	6.97	-41.0	-44.6	9.5	1.76e-02	0	55	0	56623104	53	5520
2026-01-29 12:41:07.37	183.06	7.05	-40.8	-44.3	9.8	1.58e-02	0	56	0	62914560	53	5318
2026-01-29 12:41:08.38	183.11	7.12	-40.6	-44.0	10.1	9.11e-03	0	56	0	68157440	53	5119
2026-01-29 12:41:09.39	183.15	7.20	-40.5	-43.7	10.5	6.58e-03	0	56	0	74448896	52	5252
2026-01-29 12:41:10.40	183.20	7.28	-40.3	-43.4	10.8	3.59e-03	0	56	0	79691776	52	5074
2026-01-29 12:41:11.41	183.25	7.35	-40.2	-43.3	10.9	3.61e-03	0	56	0	84934656	52	5015
2026-01-29 12:41:12.43	183.29	7.43	-40.1	-43.1	11.1	2.14e-03	0	56	0	91226112	52	4890
2026-01-29 12:41:13.44	183.34	7.51	-40.0	-42.9	11.3	1.72e-03	0	56	0	96468992	52	4788
2026-01-29 12:41:14.45	183.39	7.58	-39.9	-42.8	11.5	1.39e-03	0	56	0	102760448	51	5007
2026-01-29 12:41:15.46	183.44	7.66	-39.8	-42.5	11.7	8.41e-04	0	56	0	108003328	51	4861
2026-01-29 12:41:16.47	183.48	7.74	-39.7	-42.5	11.8	7.36e-04	0	56	0	113246208	51	4848
2026-01-29 12:41:17.48	183.53	7.81	-39.8	-42.5	11.8	7.19e-04	0	56	0	119537664	51	4866
2026-01-29 12:41:18.49	183.58	7.89	-39.8	-42.6	11.7	7.32e-04	0	56	0	124780544	51	4903
2026-01-29 12:41:19.50	183.63	7.97	-39.8	-42.7	11.6	8.33e-04	0	56	0	131072000	51	4928
2026-01-29 12:41:20.51	183.68	8.05	-39.9	-42.7	11.6	1.23e-03	0	56	0	136314880	51	4979
2026-01-29 12:41:21.52	183.73	8.13	-40.3	-43.3	11.1	6.92e-04	0	56	0	142606336	51	5297
2026-01-29 12:41:22.53	183.78	8.20	-39.9	-42.7	11.7	4.24e-02	0	56	0	147849216	51	4931
2026-01-29 12:41:23.54	183.83	8.28	-40.4	-43.4	10.9	5.19e-03	0	56	0	154140672	52	5086
2026-01-29 12:41:24.55	183.88	8.36	-39.9	-42.7	11.7	1.76e-03	0	56	0	159383552	51	4976
2026-01-29 12:41:25.56	183.93	8.44	-40.9	-44.5	9.7	1.51e-01	0	56	0	163577856	53	5407
2026-01-29 12:41:26.57	183.98	8.52	-39.7	-42.4	12.0	5.17e-04	0	56	0	168820736	51	4797
2026-01-29 12:41:27.59	184.03	8.60	-39.6	-42.2	12.1	3.54e-04	0	56	0	175112192	51	4705
2026-01-29 12:41:28.60	184.08	8.68	-39.5	-42.1	12.3	2.41e-04	0	56	0	180355072	51	4615
2026-01-29 12:41:29.61	184.13	8.76	-39.4	-42.0	12.4	2.18e-04	0	57	0	186646528	50	4837
2026-01-29 12:41:30.62	184.18	8.84	-39.5	-42.1	12.4	2.33e-04	0	56	0	191889408	50	4893
2026-01-29 12:41:31.62	184.23	8.92	-39.4	-41.9	12.6	1.62e-04	0	56	0	197132288	50	4781
2026-01-29 12:41:32.63	184.29	9.00	-39.4	-42.0	12.4	2.01e-04	0	57	0	203423744	50	4848
2026-01-29 12:41:33.65	184.34	9.09	-39.5	-42.0	12.4	2.24e-04	0	57	0	208666624	50	4870
2026-01-29 12:41:34.66	184.39	9.17	-39.5	-42.1	12.4	2.08e-04	0	56	0	214958080	50	4883
2026-01-29 12:41:35.66	184.44	9.25	-39.3	-41.8	12.7	1.81e-04	0	56	0	220200960	50	4745
2026-01-29 12:41:36.68	184.50	9.33	-39.2	-41.6	12.9	7.78e-05	0	57	0	226492416	50	4645
2026-01-29 12:41:37.69	184.55	9.41	-39.3	-41.7	12.7	1.13e-04	0	57	0	231735296	50	4699
2026-01-29 12:41:38.70	184.61	9.50	-39.3	-41.7	12.8	1.18e-04	0	57	0	236978176	50	4679
2026-01-29 12:41:39.71	184.66	9.58	-39.3	-41.8	12.7	1.50e-04	0	57	0	243269632	50	4741
2026-01-29 12:41:40.72	184.71	9.66	-39.3	-41.8	12.7	1.36e-04	0	57	0	248512512	50	4739
2026-01-29 12:41:41.73	184.77	9.74	-39.3	-41.7	12.8	1.03e-04	0	57	0	254803968	50	4699
2026-01-29 12:41:42.74	184.82	9.83	-39.3	-41.8	12.7	1.17e-04	0	57	0	260046848	50	4717
2026-01-29 12:41:43.75	184.88	9.91	-39.3	-41.8	12.7	1.27e-04	0	57	0	265289728	50	4725
2026-01-29 12:41:44.76	184.93	10.00	-39.3	-41.7	12.9	8.46e-05	0	57	0	271581184	50	4668
2026-01-29 12:41:45.77	184.99	10.08	-39.3	-41.7	12.9	7.43e-05	0	57	0	276824064	50	4671
2026-01-29 12:41:46.78	185.05	10.16	-39.3	-41.7	12.8	7.66e-05	0	57	0	283115520	50	4683
2026-01-29 12:41:47.79	185.10	10.25	-39.3	-41.8	12.8	9.61e-05	0	57	0	288358400	50	4715
2026-01-29 12:41:48.80	185.16	10.33	-39.3	-41.7	12.8	9.84e-05	0	57	0	294649856	50	4700
2026-01-29 12:41:49.81	185.22	10.42	-39.4	-41.9	12.7	1.06e-04	0	57	0	299892736	50	4764
2026-01-29 12:41:50.82	185.27	10.51	-39.3	-41.8	12.8	1.03e-04	0	57	0	305135616	50	4715
2026-01-29 12:41:51.82	185.33	10.59	-39.3	-41.7	12.9	8.12e-05	0	57	0	311427072	50	4662
2026-01-29 12:41:52.83	185.39	10.68	-39.3	-41.7	12.9	8.23e-05	0	57	0	316669952	50	4683
2026-01-29 12:41:53.84	185.45	10.76	-39.2	-41.6	13.0	6.52e-05	0	57	0	322961408	50	4635
2026-01-29 12:41:54.86	185.51	10.85	-39.3	-41.6	13.0	9.15e-05	0	57	0	328204288	50	4644
2026-01-29 12:41:55.87	185.57	10.94	-39.3	-41.7	12.9	8.46e-05	0	57	0	333447168	50	4676
2026-01-29 12:41:56.88	185.63	11.03	-39.3	-41.7	12.9	7.32e-05	0	57	0	339738624	50	4685
2026-01-29 12:41:57.89	185.69	11.11	-39.2	-41.6	13.0	5.83e-05	0	57	0	344981504	50	4623
2026-01-29 12:41:58.89	185.75	11.20	-39.2	-41.6	13.0	6.17e-05	0	57	0	351272960	50	4606
2026-01-29 12:41:59.90	185.81	11.29	-39.2	-41.5	13.0	5.37e-05	0	57	0	356515840	50	4598
2026-01-29 12:42:00.91	185.87	11.38	-39.1	-41.5	13.1	5.72e-05	0	57	0	361758720	50	4574
2026-01-29 12:42:01.92	185.93	11.47	-39.2	-41.5	13.1	5.26e-05	0	57	0	368050176	50	4598
2026-01-29 12:42:02.93	185.99	11.55	-39.1	-41.5	13.2	5.14e-05	0	58	0	373293056	50	4555
2026-01-29 12:42:03.94	186.05	11.64	-39.1	-41.4	13.2	4.11e-05	0	57	0	379584512	50	4538
2026-01-29 12:42:04.95	186.11	11.73	-39.1	-41.4	13.3	2.17e-05	0	57	0	384827392	50	4519
2026-01-29 12:42:05.96	186.18	11.82	-39.1	-41.4	13.3	2.63e-05	0	57	0	391118848	50	4511
2026-01-29 12:42:06.97	186.24	11.91	-39.0	-41.2	13.4	2.51e-05	0	58	0	396361728	49	4688
2026-01-29 12:42:07.99	186.30	12.01	-39.0	-41.2	13.4	3.08e-05	0	58	0	402653184	49	4702
2026-01-29 12:42:09.00	186.37	12.10	-39.0	-41.2	13.4	2.86e-05	0	58	0	407896064	49	4702
2026-01-29 12:42:10.01	186.43	12.19	-39.0	-41.3	13.4	1.37e-05	0	58	0	413138944	49	4719
2026-01-29 12:42:11.02	186.49	12.28	-38.9	-41.2	13.5	1.83e-05	0	58	0	419430400	49	4665
2026-01-29 12:42:12.03	186.56	12.37	-38.9	-41.1	13.5	1.37e-05	0	58	0	424673280	49	4641
2026-01-29 12:42:13.04	186.62	12.46	-38.9	-41.1	13.6	1.60e-05	0	58	0	430964736	49	4616
2026-01-29 12:42:14.05	186.69	12.56	-38.9	-41.1	13.6	2.40e-05	0	58	0	436207616	49	4641
2026-01-29 12:42:15.06	186.76	12.65	-39.0	-41.2	13.5	1.37e-05	0	58	0	441450496	49	4681
2026-01-29 12:42:16.07	186.82	12.74	-39.0	-41.2	13.5	1.48e-05	0	58	0	447741952	49	4693
2026-01-29 12:42:17.08	186.89	12.83	-39.0	-41.2	13.5	2.40e-05	0	58	0	452984832	49	4693
2026-01-29 12:42:18.09	186.96	12.93	-39.0	-41.2	13.5	2.05e-05	0	58	0	459276288	49	4681
2026-01-29 12:42:19.10	187.02	13.02	-38.9	-41.2	13.5	1.25e-05	0	58	0	464519168	49	4676
2026-01-29 12:42:20.11	187.09	13.12	-38.9	-41.2	13.5	1.02e-05	0	58	0	469762048	49	4664
2026-01-29 12:42:21.12	187.16	13.21	-38.9	-41.2	13.6	1.02e-05	0	58	0	476053504	49	4656
2026-01-29 12:42:22.13	187.23	13.31	-38.9	-41.1	13.6	1.25e-05	0	58	0	481296384	49	4632
2026-01-29 12:42:23.14	187.30	13.40	-38.8	-41.0	13.7	1.37e-05	0	58	0	487587840	49	4585
2026-01-29 12:42:24.15	187.37	13.50	-38.8	-41.0	13.8	1.02e-05	0	58	0	492830720	49	4556
2026-01-29 12:42:25.16	187.44	13.59	-38.8	-41.0	13.8	6.80e-06	0	58	0	499122176	49	4560
2026-01-29 12:42:26.17	187.51	13.69	-38.8	-41.0	13.8	4.50e-06	0	58	0	504365056	49	4551
2026-01-29 12:42:27.18	187.58	13.79	-38.7	-40.8	13.9	9.10e-06	0	58	0	510656512	49	4480
2026-01-29 12:42:28.19	187.65	13.88	-38.7	-40.8	13.9	9.10e-06	0	58	0	515899392	49	4484
2026-01-29 12:42:29.20	187.72	13.98	-38.7	-40.8	14.0	1.37e-05	0	58	0	521142272	49	4459
2026-01-29 12:42:30.21	187.79	14.08	-38.6	-40.7	14.1	1.10e-06	0	58	0	527433728	49	4416
2026-01-29 12:42:31.22	187.87	14.18	-38.6	-40.7	14.1	3.40e-06	0	58	0	532676608	49	4400
2026-01-29 12:42:32.24	187.94	14.28	-38.6	-40.7	14.1	3.40e-06	0	58	0	538968064	49	4422
2026-01-29 12:42:33.25	188.01	14.38	-38.6	-40.7	14.1	5.70e-06	0	58	0	544210944	49	4413
2026-01-29 12:42:34.26	188.09	14.48	-38.6	-40.7	14.1	0.00e+00	0	58	0	549453824	49	4402
2026-01-29 12:42:35.27	188.16	14.58	-38.6	-40.7	14.1	4.50e-06	0	58	0	555745280	49	4428
2026-01-29 12:42:36.28	188.24	14.68	-38.6	-40.7	14.1	5.70e-06	0	58	0	560988160	49	4418
2026-01-29 12:42:37.29	188.31	14.78	-38.6	-40.7	14.1	2.20e-06	0	58	0	567279616	49	4410
2026-01-29 12:42:38.30	188.39	14.88	-38.5	-40.6	14.2	5.70e-06	0	58	0	572522496	49	4378
2026-01-29 12:42:39.31	188.47	14.98	-38.6	-40.7	14.2	3.40e-06	0	58	0	577765376	49	4392
2026-01-29 12:42:40.32	188.54	15.08	-38.5	-40.6	14.2	3.40e-06	0	58	0	584056832	49	4360
2026-01-29 12:42:41.33	188.62	15.18	-38.5	-40.5	14.3	2.20e-06	0	58	0	589299712	48	4581
2026-01-29 12:42:42.34	188.70	15.28	-38.5	-40.5	14.3	2.20e-06	0	58	0	595591168	48	4589
2026-01-29 12:42:43.35	188.78	15.39	-38.5	-40.6	14.3	0.00e+00	0	58	0	600834048	48	4606
2026-01-29 12:42:44.36	188.86	15.49	-38.3	-40.4	14.5	1.10e-06	0	58	0	607125504	48	4499
2026-01-29 12:42:45.37	188.94	15.59	-38.3	-40.3	14.6	0.00e+00	0	58	0	612368384	48	4466
2026-01-29 12:42:46.38	189.02	15.70	-38.2	-40.2	14.7	1.10e-06	0	58	0	617611264	48	4426
2026-01-29 12:42:47.39	189.10	15.80	-38.2	-40.2	14.7	1.10e-06	0	58	0	623902720	48	4422
2026-01-29 12:42:48.40	189.18	15.91	-38.3	-40.2	14.6	0.00e+00	0	58	0	629145600	48	4441
2026-01-29 12:42:49.41	189.26	16.01	-38.2	-40.2	14.7	0.00e+00	0	59	0	635437056	48	4394
2026-01-29 12:42:50.42	189.34	16.12	-38.2	-40.1	14.8	0.00e+00	0	59	0	640679936	48	4378
2026-01-29 12:42:51.43	189.43	16.22	-38.2	-40.1	14.8	0.00e+00	0	58	0	646971392	48	4379
2026-01-29 12:42:52.44	189.51	16.33	-38.2	-40.1	14.8	1.10e-06	0	58	0	652214272	48	4381
2026-01-29 12:42:53.45	189.59	16.43	-38.2	-40.1	14.8	0.00e+00	0	58	0	657457152	48	4388
2026-01-29 12:42:54.46	189.68	16.54	-38.1	-40.1	14.8	0.00e+00	0	58	0	663748608	48	4350
2026-01-29 12:42:55.47	189.76	16.65	-38.1	-40.0	14.8	1.10e-06	0	59	0	668991488	48	4331
2026-01-29 12:42:56.48	189.85	16.76	-38.1	-40.0	14.9	0.00e+00	0	59	0	675282944	48	4311
2026-01-29 12:42:57.49	189.94	16.87	-38.1	-40.0	14.9	1.10e-06	0	59	0	680525824	48	4320
2026-01-29 12:42:58.50	190.02	16.97	-38.1	-40.0	14.9	0.00e+00	0	59	0	685768704	48	4305
2026-01-29 12:42:59.51	190.11	17.08	-37.8	-39.7	15.1	0.00e+00	0	59	0	692060160	47	4418
2026-01-29 12:43:00.52	190.20	17.19	-37.7	-39.6	15.2	0.00e+00	0	59	0	697303040	47	4373
2026-01-29 12:43:01.53	190.29	17.30	-37.6	-39.4	15.4	0.00e+00	0	59	0	703594496	47	4253
2026-01-29 12:43:02.54	190.38	17.41	-37.5	-39.3	15.6	0.00e+00	0	59	0	708837376	46	4442
2026-01-29 12:43:03.55	190.47	17.52	-37.4	-39.2	15.6	0.00e+00	0	59	0	714080256	46	4425
2026-01-29 12:43:04.56	190.56	17.64	-37.5	-39.2	15.6	0.00e+00	0	59	0	720371712	46	4435
2026-01-29 12:43:05.57	190.65	17.75	-37.5	-39.3	15.6	0.00e+00	0	59	0	725614592	46	4449
2026-01-29 12:43:06.58	190.74	17.86	-37.4	-39.2	15.6	0.00e+00	0	59	0	731906048	46	4427
2026-01-29 12:43:07.59	190.83	17.97	-37.5	-39.3	15.5	0.00e+00	0	59	0	737148928	46	4475
2026-01-29 12:43:08.60	190.93	18.09	-37.6	-39.5	15.4	0.00e+00	0	59	0	743440384	46	4560
2026-01-29 12:43:09.61	191.02	18.20	-37.6	-39.4	15.4	0.00e+00	0	59	0	748683264	46	4531
2026-01-29 12:43:10.62	191.12	18.31	-37.7	-39.5	15.3	0.00e+00	0	59	0	754974720	46	4589
2026-01-29 12:43:11.63	191.21	18.43	-37.7	-39.6	15.3	0.00e+00	0	59	0	760217600	46	4628
2026-01-29 12:43:12.64	191.31	18.54	-37.6	-39.5	15.2	8.00e-06	0	59	0	765460480	46	4576
2026-01-29 12:43:13.65	191.40	18.66	-37.6	-39.4	15.3	3.40e-06	0	59	0	771751936	46	4537
2026-01-29 12:43:14.66	191.50	18.77	-37.6	-39.4	15.3	6.80e-06	0	59	0	776994816	46	4522
2026-01-29 12:43:15.67	191.60	18.89	-37.5	-39.4	15.4	5.70e-06	0	59	0	783286272	46	4507
2026-01-29 12:43:16.68	191.70	19.01	-37.6	-39.5	15.3	4.50e-06	0	59	0	788529152	46	4556
2026-01-29 12:43:17.70	191.80	19.13	-37.6	-39.4	15.3	4.50e-06	0	59	0	793772032	46	4536
2026-01-29 12:43:18.71	191.90	19.24	-37.5	-39.3	15.5	3.40e-06	0	59	0	800063488	46	4482
2026-01-29 12:43:19.72	192.00	19.36	-37.5	-39.4	15.4	4.50e-06	0	59	0	805306368	46	4507
2026-01-29 12:43:20.73	192.10	19.48	-37.5	-39.4	15.4	1.25e-05	0	59	0	811597824	46	4504
2026-01-29 12:43:21.74	192.21	19.60	-37.5	-39.4	15.4	1.37e-05	0	59	0	816840704	46	4528
2026-01-29 12:43:22.75	192.31	19.72	-37.5	-39.4	15.4	4.50e-06	0	59	0	823132160	46	4504
2026-01-29 12:43:23.76	192.41	19.84	-37.5	-39.3	15.4	4.50e-06	0	59	0	828375040	46	4493
2026-01-29 12:43:24.77	192.52	19.96	-37.5	-39.3	15.6	0.00e+00	0	59	0	833617920	46	4465
2026-01-29 12:43:25.78	192.62	20.08	-37.5	-39.3	15.6	0.00e+00	0	59	0	839909376	46	4455
2026-01-29 12:43:26.79	192.73	20.20	-37.5	-39.3	15.6	0.00e+00	0	59	0	845152256	46	4478
2026-01-29 12:43:27.81	192.84	20.33	-37.5	-39.3	15.6	0.00e+00	0	59	0	851443712	46	4449
2026-01-29 12:43:28.82	192.95	20.45	-37.5	-39.3	15.6	0.00e+00	0	59	0	856686592	46	4489
2026-01-29 12:43:29.83	193.06	20.57	-37.3	-39.1	15.8	0.00e+00	0	59	0	862978048	46	4365
2026-01-29 12:43:30.84	193.17	20.70	-37.1	-38.8	16.1	0.00e+00	0	59	0	868220928	46	4229
2026-01-29 12:43:31.85	193.28	20.82	-37.0	-38.7	16.2	0.00e+00	0	59	0	873463808	46	4188
2026-01-29 12:43:32.86	193.39	20.94	-37.1	-38.8	16.2	0.00e+00	0	59	0	879755264	46	4199
2026-01-29 12:43:33.87	193.50	21.07	-37.1	-38.8	16.2	0.00e+00	0	59	0	884998144	46	4195
2026-01-29 12:43:34.88	193.62	21.20	-37.1	-38.8	16.1	0.00e+00	0	59	0	891289600	46	4201
2026-01-29 12:43:35.89	193.73	21.32	-37.0	-38.7	16.3	0.00e+00	0	59	0	896532480	46	4156
2026-01-29 12:43:36.90	193.85	21.45	-37.0	-38.7	16.2	0.00e+00	0	59	0	901775360	46	4172
2026-01-29 12:43:37.91	193.96	21.58	-37.0	-38.7	16.2	0.00e+00	0	59	0	908066816	46	4178
2026-01-29 12:43:38.92	194.08	21.70	-37.0	-38.7	16.2	0.00e+00	0	59	0	913309696	46	4175
2026-01-29 12:43:39.93	194.20	21.83	-37.0	-38.7	16.2	0.00e+00	0	59	0	919601152	46	4191
2026-01-29 12:43:40.94	194.32	21.96	-37.1	-38.8	16.2	0.00e+00	0	59	0	924844032	46	4200
2026-01-29 12:43:41.95	194.44	22.09	-37.1	-38.7	16.2	0.00e+00	0	59	0	930086912	46	4189
2026-01-29 12:43:42.96	194.56	22.22	-37.0	-38.7	16.2	0.00e+00	0	59	0	936378368	46	4165
2026-01-29 12:43:43.97	194.68	22.35	-37.0	-38.7	16.3	0.00e+00	0	59	0	941621248	46	4155
2026-01-29 12:43:44.98	194.80	22.48	-36.9	-38.5	16.4	0.00e+00	0	59	0	947912704	45	4339
2026-01-29 12:43:45.99	194.93	22.61	-36.9	-38.5	16.4	0.00e+00	0	59	0	953155584	45	4334
2026-01-29 12:43:47.00	195.05	22.75	-36.9	-38.5	16.4	0.00e+00	0	59	0	959447040	45	4331
2026-01-29 12:43:48.01	195.18	22.88	-36.9	-38.5	16.4	0.00e+00	0	59	0	964689920	45	4337
2026-01-29 12:43:49.02	195.30	23.01	-36.9	-38.6	16.4	0.00e+00	0	59	0	970981376	45	4344
2026-01-29 12:43:50.03	195.43	23.15	-36.9	-38.5	16.4	0.00e+00	0	59	0	976224256	45	4334
2026-01-29 12:43:51.04	195.56	23.28	-36.8	-38.5	16.5	0.00e+00	0	59	0	981467136	45	4294
2026-01-29 12:43:52.05	195.69	23.41	-36.7	-38.3	16.6	0.00e+00	0	59	0	987758592	45	4238
2026-01-29 12:43:53.06	195.82	23.55	-36.7	-38.3	16.7	0.00e+00	0	59	0	993001472	45	4219
2026-01-29 12:43:54.07	195.96	23.69	-36.7	-38.3	16.7	0.00e+00	0	59	0	999292928	45	4219
2026-01-29 12:43:55.08	196.09	23.82	-36.8	-38.4	16.6	0.00e+00	0	59	0	1004535808	45	4250
2026-01-29 12:43:56.09	196.22	23.96	-36.7	-38.3	16.7	0.00e+00	0	59	0	1009778688	45	4214
2026-01-29 12:43:57.10	196.36	24.10	-36.7	-38.4	16.6	0.00e+00	0	59	0	1016070144	45	4243
2026-01-29 12:43:58.12	196.50	24.24	-36.7	-38.3	16.6	0.00e+00	0	59	0	1021313024	45	4241
2026-01-29 12:43:59.13	196.64	24.38	-36.8	-38.4	16.6	0.00e+00	0	59	0	1027604480	45	4252
2026-01-29 12:44:00.14	196.78	24.52	-36.8	-38.4	16.5	0.00e+00	0	59	0	1032847360	45	4276
2026-01-29 12:44:01.15	196.92	24.66	-36.8	-38.5	16.4	0.00e+00	0	59	0	1038090240	45	4298
2026-01-29 12:44:02.16	197.06	24.80	-36.8	-38.4	16.5	0.00e+00	0	59	0	1044381696	45	4249
2026-01-29 12:44:03.16	197.20	24.94	-36.7	-38.4	16.5	0.00e+00	0	59	0	1049624576	45	4253
2026-01-29 12:44:04.18	197.35	25.08	-36.7	-38.3	16.6	0.00e+00	0	59	0	1055916032	45	4212
2026-01-29 12:44:05.19	197.49	25.22	-36.7	-38.4	16.6	0.00e+00	0	60	0	1061158912	45	4244
2026-01-29 12:44:06.20	197.64	25.36	-36.7	-38.3	16.6	0.00e+00	0	60	0	1067450368	45	4242
2026-01-29 12:44:07.21	197.79	25.51	-36.7	-38.3	16.6	0.00e+00	0	60	0	1072693248	45	4226
2026-01-29 12:44:08.22	197.94	25.65	-36.7	-38.3	16.6	0.00e+00	0	59	0	1077936128	45	4222
2026-01-29 12:44:09.22	198.09	25.80	-36.8	-38.4	16.6	0.00e+00	0	59	0	1084227584	45	4252
2026-01-29 12:44:10.23	198.24	25.94	-36.6	-38.2	16.7	0.00e+00	0	59	0	1089470464	45	4186
2026-01-29 12:44:11.24	198.39	26.09	-36.6	-38.2	16.8	0.00e+00	0	60	0	1095761920	45	4154
2026-01-29 12:44:12.25	198.55	26.23	-36.6	-38.2	16.8	0.00e+00	0	59	0	1101004800	45	4147
2026-01-29 12:44:13.26	198.70	26.38	-36.7	-38.2	16.7	0.00e+00	0	59	0	1106247680	45	4189
2026-01-29 12:44:14.27	198.86	26.53	-36.6	-38.2	16.7	0.00e+00	0	60	0	1112539136	45	4164
2026-01-29 12:44:15.29	199.02	26.68	-36.6	-38.2	16.8	0.00e+00	0	59	0	1117782016	45	4147
2026-01-29 12:44:16.29	199.18	26.82	-36.5	-38.1	16.9	0.00e+00	0	59	0	1124073472	45	4111
2026-01-29 12:44:17.30	199.34	26.97	-36.4	-38.0	17.0	0.00e+00	0	59	0	1129316352	44	4327
2026-01-29 12:44:18.31	199.51	27.12	-36.5	-38.0	16.9	0.00e+00	0	60	0	1134559232	44	4331
2026-01-29 12:44:19.32	199.67	27.27	-36.4	-38.0	16.9	0.00e+00	0	60	0	1140850688	44	4325
2026-01-29 12:44:20.33	199.84	27.42	-36.5	-38.0	16.9	0.00e+00	0	60	0	1146093568	44	4323
2026-01-29 12:44:21.34	200.01	27.58	-36.5	-38.0	16.9	0.00e+00	0	60	0	1152385024	44	4329
2026-01-29 12:44:22.35	200.18	27.73	-36.4	-38.0	17.0	0.00e+00	0	60	0	1157627904	44	4299
2026-01-29 12:44:23.36	200.35	27.88	-36.3	-37.9	17.1	0.00e+00	0	60	0	1163919360	44	4256
2026-01-29 12:44:24.37	200.52	28.03	-36.3	-37.8	17.1	0.00e+00	0	60	0	1169162240	44	4237
2026-01-29 12:44:25.39	200.70	28.19	-36.3	-37.9	17.1	0.00e+00	0	60	0	1175453696	44	4244
2026-01-29 12:44:26.40	200.87	28.34	-36.4	-38.0	17.0	0.00e+00	0	60	0	1180696576	44	4293
2026-01-29 12:44:27.41	201.05	28.50	-36.4	-38.0	17.0	0.00e+00	0	60	0	1185939456	44	4310
2026-01-29 12:44:28.41	201.23	28.65	-36.5	-38.1	16.9	0.00e+00	0	60	0	1192230912	44	4361
2026-01-29 12:44:29.42	201.41	28.81	-36.5	-38.1	16.9	0.00e+00	0	60	0	1197473792	44	4352
2026-01-29 12:44:30.43	201.59	28.97	-36.5	-38.1	16.9	0.00e+00	0	59	0	1203765248	44	4375
2026-01-29 12:44:31.44	201.78	29.12	-36.5	-38.1	16.9	0.00e+00	0	59	0	1209008128	44	4349
2026-01-29 12:44:32.45	201.97	29.28	-36.5	-38.1	16.9	0.00e+00	0	60	0	1214251008	44	4377
2026-01-29 12:44:33.46	202.15	29.44	-36.5	-38.1	16.9	0.00e+00	0	60	0	1220542464	44	4366
2026-01-29 12:44:34.47	202.34	29.60	-36.5	-38.0	17.0	0.00e+00	0	60	0	1225785344	44	4337
2026-01-29 12:44:35.48	202.54	29.76	-36.4	-37.9	17.1	0.00e+00	0	60	0	1232076800	44	4261
2026-01-29 12:44:36.49	202.73	29.92	-36.3	-37.8	17.2	0.00e+00	0	60	0	1237319680	44	4215
2026-01-29 12:44:37.50	202.93	30.08	-36.3	-37.8	17.3	0.00e+00	0	60	0	1242562560	44	4215
2026-01-29 12:44:38.51	203.12	30.24	-36.3	-37.9	17.2	0.00e+00	0	60	0	1248854016	44	4247
2026-01-29 12:44:39.52	203.32	30.40	-36.3	-37.8	17.2	0.00e+00	0	60	0	1254096896	44	4238
2026-01-29 12:44:40.53	203.53	30.57	-36.4	-37.9	17.2	0.00e+00	0	60	0	1260388352	44	4261
2026-01-29 12:44:41.54	203.73	30.73	-36.4	-37.9	17.1	0.00e+00	0	60	0	1265631232	44	4280
2026-01-29 12:44:42.55	203.94	30.89	-36.4	-38.0	17.1	0.00e+00	0	60	0	1271922688	44	4295
2026-01-29 12:44:43.56	204.14	31.06	-36.4	-38.0	17.1	0.00e+00	0	60	0	1277165568	44	4307
2026-01-29 12:44:44.57	204.35	31.22	-36.5	-38.1	17.0	0.00e+00	0	60	0	1283457024	44	4344
2026-01-29 12:44:45.58	204.56	31.38	-36.5	-38.1	17.0	0.00e+00	0	60	0	1288699904	44	4360
2026-01-29 12:44:46.59	204.78	31.55	-36.5	-38.1	17.0	0.00e+00	0	60	0	1293942784	44	4360
2026-01-29 12:44:47.60	205.00	31.72	-36.6	-38.1	16.9	0.00e+00	0	60	0	1300234240	44	4385
2026-01-29 12:44:48.61	205.21	31.88	-36.4	-38.0	17.1	0.00e+00	0	60	0	1305477120	44	4316
2026-01-29 12:44:49.62	205.43	32.05	-36.3	-37.9	17.2	0.00e+00	0	60	0	1311768576	44	4243
2026-01-29 12:44:50.63	205.66	32.22	-36.3	-37.8	17.2	0.00e+00	0	60	0	1317011456	44	4230
2026-01-29 12:44:51.64	205.88	32.38	-36.3	-37.8	17.3	0.00e+00	0	60	0	1322254336	44	4213
2026-01-29 12:44:52.65	206.11	32.55	-36.3	-37.8	17.3	0.00e+00	0	60	0	1328545792	44	4212
2026-01-29 12:44:53.66	206.34	32.72	-36.3	-37.9	17.2	0.00e+00	0	60	0	1333788672	44	4245
2026-01-29 12:44:54.67	206.57	32.89	-36.4	-37.9	17.2	0.00e+00	0	60	0	1340080128	44	4261
2026-01-29 12:44:55.68	206.81	33.06	-36.5	-38.0	17.1	0.00e+00	0	60	0	1345323008	44	4335
2026-01-29 12:44:56.69	207.04	33.23	-36.4	-38.0	17.1	0.00e+00	0	60	0	1350565888	44	4317
2026-01-29 12:44:57.70	207.28	33.40	-36.4	-38.0	17.1	0.00e+00	0	60	0	1356857344	44	4292
2026-01-29 12:44:58.71	207.52	33.57	-36.4	-37.9	17.1	0.00e+00	0	60	0	1362100224	44	4289
2026-01-29 12:44:59.72	207.77	33.74	-36.4	-37.9	17.2	0.00e+00	0	60	0	1368391680	44	4279
2026-01-29 12:45:00.73	208.01	33.92	-36.4	-37.9	17.2	0.00e+00	0	60	0	1373634560	44	4253
2026-01-29 12:45:01.74	208.26	34.09	-36.2	-37.7	17.4	0.00e+00	0	60	0	1379926016	44	4170
2026-01-29 12:45:02.75	208.52	34.26	-36.2	-37.7	17.4	0.00e+00	0	60	0	1385168896	44	4148
2026-01-29 12:45:03.77	208.77	34.43	-36.1	-37.5	17.5	0.00e+00	0	60	0	1390411776	44	4089
2026-01-29 12:45:04.78	209.03	34.61	-36.1	-37.5	17.6	0.00e+00	0	60	0	1396703232	44	4089
2026-01-29 12:45:05.79	209.29	34.78	-36.0	-37.5	17.6	0.00e+00	0	60	0	1401946112	44	4083
2026-01-29 12:45:06.80	209.55	34.96	-36.1	-37.6	17.5	0.00e+00	0	60	0	1408237568	44	4140
2026-01-29 12:45:07.81	209.82	35.13	-36.2	-37.8	17.3	0.00e+00	0	60	0	1413480448	44	4204
2026-01-29 12:45:08.82	210.09	35.30	-36.3	-37.8	17.3	0.00e+00	0	60	0	1419771904	44	4210
2026-01-29 12:45:09.83	210.36	35.48	-36.3	-37.8	17.3	0.00e+00	0	60	0	1425014784	44	4229
2026-01-29 12:45:10.84	210.63	35.65	-36.3	-37.9	17.2	0.00e+00	0	60	0	1430257664	44	4246
2026-01-29 12:45:11.85	210.91	35.83	-36.4	-37.9	17.2	0.00e+00	0	60	0	1436549120	44	4270
2026-01-29 12:45:12.86	211.19	36.00	-36.3	-37.8	17.2	0.00e+00	0	60	0	1441792000	44	4236
2026-01-29 12:45:13.87	211.47	36.18	-36.2	-37.7	17.4	0.00e+00	0	60	0	1448083456	44	4175
2026-01-29 12:45:14.88	211.76	36.36	-36.2	-37.7	17.4	0.00e+00	0	60	0	1453326336	44	4159
2026-01-29 12:45:15.89	212.05	36.53	-36.1	-37.6	17.5	0.00e+00	0	60	0	1458569216	44	4114
2026-01-29 12:45:16.90	212.34	36.71	-36.2	-37.7	17.4	0.00e+00	0	60	0	1464860672	44	4158
2026-01-29 12:45:17.92	212.64	36.88	-36.1	-37.6	17.5	0.00e+00	0	60	0	1470103552	44	4114
2026-01-29 12:45:18.93	212.94	37.06	-36.1	-37.5	17.6	0.00e+00	0	60	0	1476395008	44	4094
2026-01-29 12:45:19.94	213.24	37.24	-36.2	-37.7	17.4	0.00e+00	0	60	0	1481637888	44	4166
2026-01-29 12:45:20.94	213.54	37.41	-36.1	-37.6	17.5	0.00e+00	0	60	0	1487929344	44	4140
2026-01-29 12:45:21.96	213.85	37.59	-36.0	-37.5	17.6	0.00e+00	0	60	0	1493172224	44	4074
2026-01-29 12:45:22.97	214.16	37.77	-35.6	-37.0	17.9	0.00e+00	0	60	0	1499463680	43	4087
2026-01-29 12:45:23.98	214.48	37.94	-35.5	-36.9	18.0	0.00e+00	0	60	0	1504706560	43	4047
2026-01-29 12:45:24.99	214.79	38.12	-35.5	-36.9	18.0	0.00e+00	0	60	0	1509949440	43	4034
2026-01-29 12:45:26.00	215.12	38.30	-35.6	-37.0	18.0	0.00e+00	0	60	0	1516240896	43	4070
2026-01-29 12:45:27.01	215.44	38.47	-35.7	-37.2	17.8	0.00e+00	0	60	0	1521483776	43	4148
2026-01-29 12:45:28.02	215.77	38.65	-35.9	-37.4	17.5	0.00e+00	0	60	0	1527775232	43	4269
2026-01-29 12:45:29.03	216.10	38.82	-36.0	-37.5	17.4	0.00e+00	0	60	0	1533018112	43	4339
2026-01-29 12:45:30.04	216.44	39.00	-36.0	-37.4	17.5	0.00e+00	0	60	0	1538260992	43	4291
2026-01-29 12:45:31.05	216.77	39.18	-35.8	-37.2	17.8	0.00e+00	0	60	0	1544552448	43	4167
2026-01-29 12:45:32.06	217.12	39.35	-35.7	-37.1	17.8	0.00e+00	0	60	0	1549795328	43	4131
2026-01-29 12:45:33.07	217.46	39.53	-35.7	-37.1	17.9	0.00e+00	0	60	0	1556086784	43	4120
2026-01-29 12:45:34.09	217.82	39.70	-35.8	-37.2	17.8	0.00e+00	0	60	0	1561329664	43	4171
2026-01-29 12:45:35.10	218.17	39.88	-35.9	-37.3	17.7	0.00e+00	0	60	0	1566572544	43	4233
2026-01-29 12:45:36.11	218.53	40.05	-35.9	-37.4	17.6	0.00e+00	0	60	0	1572864000	43	4274
2026-01-29 12:45:37.12	218.89	40.23	-36.1	-37.6	17.4	0.00e+00	0	60	0	1578106880	43	4370
2026-01-29 12:45:38.13	219.25	40.40	-36.1	-37.6	17.3	0.00e+00	0	60	0	1584398336	43	4390
2026-01-29 12:45:39.14	219.62	40.57	-36.0	-37.5	17.5	0.00e+00	0	60	0	1589641216	43	4318
2026-01-29 12:45:40.15	220.00	40.75	-35.8	-37.2	17.7	0.00e+00	0	60	0	1595932672	43	4188
2026-01-29 12:45:41.16	220.37	40.92	-35.8	-37.3	17.7	0.00e+00	0	60	0	1601175552	43	4209
2026-01-29 12:45:42.17	220.75	41.09	-35.9	-37.4	17.6	0.00e+00	0	60	0	1607467008	43	4260
2026-01-29 12:45:43.18	221.14	41.26	-36.0	-37.4	17.5	0.00e+00	0	60	0	1612709888	43	4288
2026-01-29 12:45:44.19	221.53	41.43	-36.0	-37.5	17.5	0.00e+00	0	60	0	1617952768	43	4324
2026-01-29 12:45:45.20	221.92	41.60	-36.0	-37.5	17.4	0.00e+00	0	60	0	1624244224	43	4334
2026-01-29 12:45:46.21	222.32	41.77	-35.9	-37.4	17.6	0.00e+00	0	60	0	1629487104	43	4247
2026-01-29 12:45:47.22	222.72	41.94	-35.8	-37.3	17.7	0.00e+00	0	60	0	1635778560	43	4215
2026-01-29 12:45:48.23	223.12	42.10	-35.8	-37.2	17.8	0.00e+00	0	60	0	1641021440	43	4171
2026-01-29 12:45:49.24	223.53	42.27	-35.8	-37.3	17.7	0.00e+00	0	60	0	1646264320	43	4215
2026-01-29 12:45:50.26	223.95	42.44	-35.9	-37.4	17.6	0.00e+00	0	60	0	1652555776	43	4274
2026-01-29 12:45:51.27	224.37	42.60	-35.9	-37.4	17.6	0.00e+00	0	60	0	1657798656	43	4244
2026-01-29 12:45:52.27	224.79	42.76	-35.8	-37.3	17.7	0.00e+00	0	60	0	1664090112	43	4204
2026-01-29 12:45:53.29	225.22	42.93	-35.8	-37.2	17.8	0.00e+00	0	60	0	1669332992	43	4177
2026-01-29 12:45:54.30	225.65	43.09	-35.9	-37.3	17.7	0.00e+00	0	60	0	1674575872	43	4224
2026-01-29 12:45:55.31	226.08	43.25	-36.0	-37.4	17.5	0.00e+00	0	60	0	1680867328	43	4291
2026-01-29 12:45:56.32	226.52	43.41	-36.0	-37.5	17.5	0.00e+00	0	60	0	1686110208	43	4296
2026-01-29 12:45:57.33	226.97	43.57	-36.0	-37.5	17.5	0.00e+00	0	60	0	1692401664	43	4304
2026-01-29 12:45:58.34	227.41	43.73	-36.0	-37.4	17.6	0.00e+00	0	60	0	1697644544	43	4277
2026-01-29 12:45:59.35	227.87	43.88	-36.0	-37.5	17.5	0.00e+00	0	60	0	1703936000	43	4309
2026-01-29 12:46:00.36	228.32	44.04	-36.1	-37.5	17.5	0.00e+00	0	60	0	1709178880	43	4334
2026-01-29 12:46:01.37	228.78	44.19	-36.3	-37.8	17.3	0.00e+00	0	60	0	1715470336	43	4463
2026-01-29 12:46:02.38	229.25	44.34	-36.4	-38.0	17.1	0.00e+00	0	60	0	1720713216	43	4546
2026-01-29 12:46:03.40	229.72	44.49	-36.4	-37.9	17.1	0.00e+00	0	60	0	1725956096	43	4533
2026-01-29 12:46:04.41	230.20	44.64	-36.2	-37.8	17.2	0.00e+00	0	60	0	1732247552	43	4452
2026-01-29 12:46:05.42	230.67	44.79	-36.1	-37.6	17.4	0.00e+00	0	60	0	1737490432	43	4370
2026-01-29 12:46:06.43	231.16	44.93	-36.3	-37.8	17.2	0.00e+00	0	60	0	1743781888	43	4456
2026-01-29 12:46:07.44	231.64	45.08	-36.3	-37.9	17.1	0.00e+00	0	60	0	1749024768	43	4501
2026-01-29 12:46:08.45	232.14	45.22	-36.4	-38.0	17.0	0.00e+00	0	60	0	1754267648	43	4555
2026-01-29 12:46:09.46	232.63	45.36	-36.5	-38.1	16.9	0.00e+00	0	60	0	1760559104	43	4632
2026-01-29 12:46:10.47	233.13	45.50	-36.4	-37.9	17.1	0.00e+00	0	60	0	1765801984	43	4522
2026-01-29 12:46:11.48	233.64	45.63	-36.3	-37.8	17.2	0.00e+00	0	60	0	1772093440	43	4465
2026-01-29 12:46:12.49	234.14	45.77	-36.3	-37.8	17.2	0.00e+00	0	60	0	1777336320	43	4481
2026-01-29 12:46:13.50	234.66	45.90	-36.3	-37.9	17.1	0.00e+00	0	60	0	1782579200	43	4524
2026-01-29 12:46:14.51	235.18	46.03	-36.3	-37.8	17.2	0.00e+00	0	60	0	1788870656	43	4473
2026-01-29 12:46:15.52	235.70	46.16	-36.0	-37.5	17.5	0.00e+00	0	60	0	1794113536	43	4323
2026-01-29 12:46:16.53	236.22	46.28	-36.0	-37.5	17.5	0.00e+00	0	60	0	1800404992	43	4323
2026-01-29 12:46:17.53	236.75	46.41	-36.0	-37.4	17.6	0.00e+00	0	60	0	1805647872	43	4287
2026-01-29 12:46:18.54	237.28	46.53	-36.2	-37.7	17.3	0.00e+00	0	60	0	1811939328	43	4436
2026-01-29 12:46:19.55	237.82	46.65	-36.4	-38.0	17.0	0.00e+00	0	60	0	1817182208	43	4570
2026-01-29 12:46:20.56	238.36	46.76	-36.3	-37.8	17.2	0.00e+00	0	60	0	1822425088	43	4485
2026-01-29 12:46:21.57	238.91	46.88	-36.3	-37.9	17.2	0.00e+00	0	60	0	1828716544	43	4494
2026-01-29 12:46:22.59	239.46	46.99	-36.2	-37.7	17.3	0.00e+00	0	60	0	1833959424	43	4400
2026-01-29 12:46:23.60	240.01	47.10	-35.9	-37.4	17.6	0.00e+00	0	60	0	1840250880	43	4247
2026-01-29 12:46:24.61	240.57	47.20	-35.9	-37.3	17.7	0.00e+00	0	60	0	1845493760	43	4225
2026-01-29 12:46:25.62	241.13	47.31	-36.1	-37.6	17.4	0.00e+00	0	60	0	1851785216	43	4368
2026-01-29 12:46:26.63	241.70	47.41	-36.2	-37.7	17.3	0.00e+00	0	60	0	1857028096	43	4392
2026-01-29 12:46:27.64	242.27	47.51	-36.0	-37.5	17.5	0.00e+00	0	60	0	1862270976	43	4319
2026-01-29 12:46:28.65	242.84	47.60	-36.1	-37.6	17.4	0.00e+00	0	60	0	1868562432	43	4364
2026-01-29 12:46:29.66	243.41	47.70	-36.2	-37.7	17.4	0.00e+00	0	60	0	1873805312	43	4418
2026-01-29 12:46:30.67	243.99	47.79	-36.1	-37.6	17.4	0.00e+00	0	60	0	1880096768	43	4351
2026-01-29 12:46:31.68	244.57	47.87	-36.1	-37.6	17.4	0.00e+00	0	60	0	1885339648	43	4382
2026-01-29 12:46:32.69	245.16	47.96	-36.3	-37.9	17.2	0.00e+00	0	60	0	1890582528	43	4499
2026-01-29 12:46:33.70	245.75	48.04	-36.5	-38.0	17.0	0.00e+00	0	60	0	1896873984	43	4579
2026-01-29 12:46:34.72	246.34	48.12	-36.4	-38.0	17.1	0.00e+00	0	60	0	1902116864	43	4554
2026-01-29 12:46:35.73	246.94	48.19	-36.4	-37.9	17.1	0.00e+00	0	60	0	1908408320	43	4530
2026-01-29 12:46:36.74	247.53	48.26	-36.3	-37.9	17.1	0.00e+00	0	60	0	1913651200	43	4513
2026-01-29 12:46:37.75	248.13	48.33	-36.3	-37.8	17.2	0.00e+00	0	60	0	1919942656	43	4484
2026-01-29 12:46:38.75	248.73	48.40	-36.3	-37.8	17.2	0.00e+00	0	60	0	1925185536	43	4474
2026-01-29 12:46:39.77	249.34	48.46	-36.3	-37.8	17.2	0.00e+00	0	60	0	1930428416	43	4469
2026-01-29 12:46:40.78	249.95	48.52	-36.1	-37.5	17.5	0.00e+00	0	60	0	1936719872	43	4329
2026-01-29 12:46:41.79	250.56	48.57	-36.1	-37.5	17.5	0.00e+00	0	60	0	1941962752	43	4321
2026-01-29 12:46:42.80	251.17	48.62	-36.3	-37.8	17.2	0.00e+00	0	61	0	1948254208	43	4459
2026-01-29 12:46:43.81	251.78	48.67	-36.3	-37.9	17.2	0.00e+00	0	61	0	1953497088	43	4498
2026-01-29 12:46:44.82	252.39	48.72	-36.2	-37.7	17.4	0.00e+00	0	60	0	1958739968	43	4413
2026-01-29 12:46:45.82	253.01	48.76	-36.1	-37.6	17.5	0.00e+00	0	60	0	1965031424	43	4349
2026-01-29 12:46:46.84	253.63	48.80	-36.2	-37.7	17.3	0.00e+00	0	60	0	1970274304	43	4415
2026-01-29 12:46:47.85	254.25	48.83	-36.3	-37.9	17.2	0.00e+00	0	61	0	1976565760	43	4498
2026-01-29 12:46:48.86	254.87	48.86	-36.4	-37.9	17.1	0.00e+00	0	60	0	1981808640	43	4530
2026-01-29 12:46:49.87	255.49	48.89	-36.3	-37.8	17.2	0.00e+00	0	60	0	1987051520	43	4487
2026-01-29 12:46:50.88	256.11	48.91	-36.2	-37.7	17.3	0.00e+00	0	61	0	1993342976	43	4421
2026-01-29 12:46:51.89	256.74	48.93	-36.1	-37.6	17.4	0.00e+00	0	61	0	1998585856	43	4381
2026-01-29 12:46:52.90	257.36	48.95	-36.2	-37.7	17.4	0.00e+00	0	60	0	2004877312	43	4416
2026-01-29 12:46:53.91	257.99	48.96	-36.3	-37.8	17.3	0.00e+00	0	61	0	2010120192	43	4464
2026-01-29 12:46:54.92	258.61	48.97	-36.3	-37.9	17.2	0.00e+00	0	60	0	2016411648	43	4500
2026-01-29 12:46:55.93	259.24	48.98	-36.2	-37.7	17.3	0.00e+00	0	60	0	2021654528	43	4430
2026-01-29 12:46:56.94	259.87	48.98	-36.1	-37.6	17.4	0.00e+00	0	60	0	2027945984	43	4378
2026-01-29 12:46:57.95	260.49	48.98	-36.3	-37.9	17.2	0.00e+00	0	60	0	2033188864	43	4495
2026-01-29 12:46:58.96	261.12	48.98	-36.6	-38.2	16.8	0.00e+00	0	60	0	2038431744	43	4695
2026-01-29 12:46:59.97	261.74	48.97	-36.6	-38.2	16.8	0.00e+00	0	60	0	2044723200	43	4687
2026-01-29 12:47:00.98	262.37	48.96	-36.3	-37.8	17.2	0.00e+00	0	61	0	2049966080	43	4475
2026-01-29 12:47:01.99	262.99	48.94	-36.3	-37.8	17.2	0.00e+00	0	60	0	2056257536	43	4481
2026-01-29 12:47:03.01	263.62	48.92	-36.3	-37.9	17.2	0.00e+00	0	60	0	2061500416	43	4504
2026-01-29 12:47:04.02	264.25	48.90	-36.4	-38.0	17.1	0.00e+00	0	61	0	2066743296	43	4555
2026-01-29 12:47:05.02	264.86	48.87	-36.5	-38.1	16.9	0.00e+00	0	60	0	2073034752	43	4635
2026-01-29 12:47:06.04	265.49	48.84	-36.6	-38.2	16.8	0.00e+00	0	60	0	2078277632	43	4688
2026-01-29 12:47:07.05	266.11	48.81	-36.6	-38.2	16.8	0.00e+00	0	60	0	2084569088	43	4687
2026-01-29 12:47:08.06	266.73	48.77	-36.5	-38.1	16.9	0.00e+00	0	60	0	2089811968	43	4632
2026-01-29 12:47:09.07	267.34	48.73	-36.5	-38.1	17.0	0.00e+00	0	60	0	2096103424	43	4604
2026-01-29 12:47:10.08	267.96	48.69	-36.3	-37.9	17.2	0.00e+00	0	60	0	2101346304	43	4515
2026-01-29 12:47:11.09	268.57	48.64	-36.3	-37.8	17.3	0.00e+00	0	60	0	2106589184	43	4454
2026-01-29 12:47:12.10	269.18	48.59	-36.3	-37.8	17.2	0.00e+00	0	60	0	2112880640	43	4470
2026-01-29 12:47:13.11	269.79	48.54	-36.4	-38.0	17.1	0.00e+00	0	60	0	2118123520	43	4568
2026-01-29 12:47:14.12	270.40	48.48	-36.4	-38.0	17.1	0.00e+00	0	60	0	2124414976	43	4561
2026-01-29 12:47:15.13	271.01	48.42	-36.2	-37.7	17.3	0.00e+00	0	60	0	2129657856	43	4436
2026-01-29 12:47:16.14	271.61	48.36	-36.3	-37.8	17.2	0.00e+00	0	61	0	2135949312	43	4482
2026-01-29 12:47:17.15	272.21	48.29	-36.6	-38.2	16.9	0.00e+00	0	61	0	2141192192	43	4665
2026-01-29 12:47:18.16	272.80	48.22	-36.9	-38.6	16.7	0.00e+00	0	60	0	2146435072	44	4609
2026-01-29 12:47:19.17	273.40	48.15	-36.7	-38.3	16.9	0.00e+00	0	60	0	2152726528	44	4491
2026-01-29 12:47:20.18	273.99	48.07	-36.5	-38.0	17.2	0.00e+00	0	60	0	2157969408	44	4327
2026-01-29 12:47:21.19	274.58	47.99	-36.4	-37.9	17.3	0.00e+00	0	60	0	2164260864	44	4265
2026-01-29 12:47:22.20	275.16	47.91	-36.5	-38.0	17.2	0.00e+00	0	61	0	2169503744	44	4312
2026-01-29 12:47:23.21	275.75	47.82	-36.5	-38.0	17.2	0.00e+00	0	60	0	2174746624	44	4326
2026-01-29 12:47:24.22	276.33	47.73	-36.5	-38.1	17.1	0.00e+00	0	61	0	2181038080	44	4346
2026-01-29 12:47:25.23	276.90	47.64	-36.6	-38.2	17.0	0.00e+00	0	60	0	2186280960	44	4406
2026-01-29 12:47:26.24	277.47	47.55	-36.6	-38.2	17.0	0.00e+00	0	60	0	2192572416	44	4400
2026-01-29 12:47:27.25	278.04	47.45	-36.4	-37.9	17.3	0.00e+00	0	60	0	2197815296	44	4284
2026-01-29 12:47:28.26	278.61	47.35	-36.3	-37.8	17.4	0.00e+00	0	60	0	2203058176	44	4216
2026-01-29 12:47:29.27	279.17	47.25	-36.5	-38.0	17.1	0.00e+00	0	60	0	2209349632	44	4321
2026-01-29 12:47:30.28	279.73	47.14	-36.6	-38.2	16.9	0.00e+00	0	60	0	2214592512	44	4424
2026-01-29 12:47:31.28	280.28	47.04	-36.6	-38.2	17.0	0.00e+00	0	60	0	2220883968	44	4399
2026-01-29 12:47:32.29	280.83	46.93	-36.5	-38.1	17.1	0.00e+00	0	60	0	2226126848	44	4354
2026-01-29 12:47:33.30	281.37	46.81	-36.4	-37.9	17.2	0.00e+00	0	60	0	2232418304	44	4290
2026-01-29 12:47:34.31	281.91	46.70	-36.4	-37.9	17.3	0.00e+00	0	60	0	2237661184	44	4246
2026-01-29 12:47:35.32	282.45	46.58	-36.4	-37.8	17.6	0.00e+00	0	61	0	2243952640	44	4199
2026-01-29 12:47:36.33	282.99	46.46	-36.4	-37.9	17.5	0.00e+00	0	61	0	2249195520	44	4252
2026-01-29 12:47:37.34	283.52	46.34	-36.4	-37.8	17.6	0.00e+00	0	60	0	2254438400	44	4210
2026-01-29 12:47:38.35	284.04	46.21	-36.2	-37.6	17.8	0.00e+00	0	60	0	2260729856	44	4108
2026-01-29 12:47:39.36	284.57	46.09	-36.2	-37.5	17.8	0.00e+00	0	61	0	2265972736	44	4094
2026-01-29 12:47:40.37	285.08	45.96	-36.3	-37.7	17.7	0.00e+00	0	61	0	2272264192	44	4169
2026-01-29 12:47:41.38	285.60	45.83	-36.6	-38.0	17.4	0.00e+00	0	61	0	2277507072	44	4329
2026-01-29 12:47:42.39	286.11	45.69	-36.6	-38.0	17.4	0.00e+00	0	61	0	2282749952	44	4320
2026-01-29 12:47:43.41	286.62	45.56	-36.6	-38.0	17.4	0.00e+00	0	61	0	2289041408	44	4321
2026-01-29 12:47:44.42	287.12	45.42	-36.6	-38.0	17.4	0.00e+00	0	61	0	2294284288	44	4313
2026-01-29 12:47:45.43	287.61	45.28	-36.6	-38.0	17.3	0.00e+00	0	61	0	2300575744	44	4329
2026-01-29 12:47:46.44	288.11	45.14	-36.7	-38.1	17.2	0.00e+00	0	61	0	2305818624	44	4383
2026-01-29 12:47:47.45	288.59	45.00	-36.7	-38.2	17.2	0.00e+00	0	60	0	2311061504	44	4395
2026-01-29 12:47:48.46	289.08	44.85	-36.7	-38.2	17.2	0.00e+00	0	61	0	2317352960	44	4406
2026-01-29 12:47:49.47	289.56	44.71	-36.7	-38.1	17.2	0.00e+00	0	60	0	2322595840	44	4385
2026-01-29 12:47:50.48	290.03	44.56	-36.6	-38.0	17.3	0.00e+00	0	60	0	2328887296	44	4322
2026-01-29 12:47:51.49	290.50	44.41	-36.5	-37.9	17.5	0.00e+00	0	60	0	2334130176	44	4272
2026-01-29 12:47:52.50	290.97	44.26	-36.5	-38.0	17.4	0.00e+00	0	60	0	2340421632	44	4294
2026-01-29 12:47:53.51	291.43	44.11	-36.3	-37.7	17.7	0.00e+00	0	61	0	2345664512	44	4149
2026-01-29 12:47:54.52	291.89	43.96	-36.2	-37.6	17.8	0.00e+00	0	61	0	2351955968	44	4110
2026-01-29 12:47:55.53	292.34	43.80	-36.4	-37.8	17.6	0.00e+00	0	61	0	2357198848	44	4207
2026-01-29 12:47:56.54	292.79	43.65	-36.7	-38.1	17.3	0.00e+00	0	61	0	2362441728	44	4381
2026-01-29 12:47:57.55	293.23	43.49	-36.7	-38.2	17.2	0.00e+00	0	61	0	2368733184	44	4413
2026-01-29 12:47:58.57	293.68	43.33	-36.6	-38.1	17.3	0.00e+00	0	60	0	2373976064	44	4349
2026-01-29 12:47:59.58	294.11	43.17	-36.6	-38.0	17.4	0.00e+00	0	61	0	2380267520	44	4304
2026-01-29 12:48:00.59	294.54	43.01	-36.6	-38.0	17.4	0.00e+00	0	61	0	2385510400	44	4311
2026-01-29 12:48:01.59	294.96	42.85	-36.6	-38.0	17.3	0.00e+00	0	60	0	2390753280	44	4314
2026-01-29 12:48:02.61	295.39	42.69	-36.6	-38.1	17.3	0.00e+00	0	60	0	2397044736	44	4352
2026-01-29 12:48:03.62	295.81	42.52	-36.6	-38.0	17.4	0.00e+00	0	61	0	2402287616	44	4319
2026-01-29 12:48:04.63	296.22	42.36	-36.6	-38.0	17.4	0.00e+00	0	61	0	2408579072	44	4314
2026-01-29 12:48:05.64	296.63	42.19	-36.5	-37.9	17.4	0.00e+00	0	61	0	2413821952	44	4255
2026-01-29 12:48:06.65	297.04	42.03	-36.3	-37.7	17.6	0.00e+00	0	61	0	2419064832	44	4191
2026-01-29 12:48:07.66	297.44	41.86	-36.3	-37.6	17.7	0.00e+00	0	61	0	2425356288	44	4137
2026-01-29 12:48:08.67	297.84	41.69	-36.3	-37.6	17.7	0.00e+00	0	61	0	2430599168	44	4141
2026-01-29 12:48:09.68	298.23	41.52	-36.4	-37.8	17.6	0.00e+00	0	61	0	2436890624	44	4215
2026-01-29 12:48:10.69	298.62	41.35	-36.5	-37.9	17.5	0.00e+00	0	61	0	2442133504	44	4264
2026-01-29 12:48:11.70	299.01	41.18	-36.4	-37.9	17.5	0.00e+00	0	60	0	2448424960	44	4252
2026-01-29 12:48:12.70	299.39	41.02	-36.3	-37.7	17.6	0.00e+00	0	61	0	2453667840	44	4170
2026-01-29 12:48:13.71	299.76	40.85	-36.2	-37.5	17.8	0.00e+00	0	60	0	2458910720	44	4091
2026-01-29 12:48:14.73	300.14	40.67	-36.1	-37.4	17.9	0.00e+00	0	61	0	2465202176	44	4039
2026-01-29 12:48:15.74	300.51	40.50	-36.1	-37.4	17.9	0.00e+00	0	60	0	2470445056	44	4050
2026-01-29 12:48:16.75	300.88	40.33	-36.0	-37.4	17.9	0.00e+00	0	61	0	2476736512	44	4028
2026-01-29 12:48:17.76	301.24	40.15	-36.0	-37.4	18.0	0.00e+00	0	61	0	2481979392	44	4010
2026-01-29 12:48:18.77	301.60	39.98	-36.1	-37.4	17.9	0.00e+00	0	60	0	2488270848	44	4036
2026-01-29 12:48:19.78	301.95	39.81	-36.1	-37.5	17.8	0.00e+00	0	61	0	2493513728	44	4079
2026-01-29 12:48:20.79	302.30	39.63	-36.1	-37.5	17.8	0.00e+00	0	60	0	2498756608	44	4081
2026-01-29 12:48:21.80	302.65	39.46	-36.1	-37.4	17.9	0.00e+00	0	60	0	2505048064	44	4043
2026-01-29 12:48:22.81	302.99	39.29	-36.1	-37.5	17.8	0.00e+00	0	61	0	2510290944	44	4082
2026-01-29 12:48:23.82	303.33	39.11	-36.1	-37.5	17.8	0.00e+00	0	61	0	2516582400	44	4065
2026-01-29 12:48:24.83	303.67	38.94	-36.1	-37.5	17.8	0.00e+00	0	61	0	2521825280	44	4057
2026-01-29 12:48:25.84	304.00	38.76	-36.0	-37.3	18.0	0.00e+00	0	61	0	2527068160	44	4004
2026-01-29 12:48:26.85	304.33	38.59	-35.8	-37.1	18.1	0.00e+00	0	61	0	2533359616	43	4130
2026-01-29 12:48:27.86	304.66	38.41	-35.8	-37.1	18.1	0.00e+00	0	60	0	2538602496	43	4118
2026-01-29 12:48:28.86	304.97	38.24	-35.8	-37.2	18.0	0.00e+00	0	61	0	2544893952	43	4150
2026-01-29 12:48:29.88	305.30	38.06	-35.8	-37.1	18.0	0.00e+00	0	61	0	2550136832	43	4137
2026-01-29 12:48:30.88	305.61	37.89	-35.8	-37.1	18.0	0.00e+00	0	61	0	2556428288	43	4135
2026-01-29 12:48:31.89	305.92	37.71	-35.9	-37.2	17.9	0.00e+00	0	61	0	2561671168	43	4183
2026-01-29 12:48:32.90	306.23	37.53	-35.9	-37.2	17.9	0.00e+00	0	60	0	2566914048	43	4179
2026-01-29 12:48:33.91	306.54	37.36	-35.9	-37.3	17.9	0.00e+00	0	61	0	2573205504	43	4194
2026-01-29 12:48:34.93	306.84	37.18	-35.9	-37.2	17.9	0.00e+00	0	60	0	2578448384	43	4173
2026-01-29 12:48:35.94	307.14	37.01	-35.9	-37.3	17.9	0.00e+00	0	61	0	2584739840	43	4209
2026-01-29 12:48:36.95	307.44	36.83	-36.0	-37.3	17.8	0.00e+00	0	61	0	2589982720	43	4242
2026-01-29 12:48:37.96	307.73	36.66	-36.0	-37.4	17.8	0.00e+00	0	61	0	2595225600	43	4278
2026-01-29 12:48:38.97	308.02	36.48	-36.1	-37.5	17.7	0.00e+00	0	61	0	2601517056	43	4301
2026-01-29 12:48:39.98	308.30	36.31	-36.1	-37.5	17.7	0.00e+00	0	61	0	2606759936	43	4316
2026-01-29 12:48:40.99	308.59	36.13	-36.1	-37.5	17.6	0.00e+00	0	61	0	2613051392	43	4328
2026-01-29 12:48:42.00	308.87	35.96	-36.1	-37.5	17.7	0.00e+00	0	61	0	2618294272	43	4293
2026-01-29 12:48:43.01	309.15	35.78	-36.0	-37.4	17.8	0.00e+00	0	60	0	2623537152	43	4255
2026-01-29 12:48:44.02	309.42	35.61	-36.0	-37.4	17.8	0.00e+00	0	61	0	2629828608	43	4246
2026-01-29 12:48:45.03	309.69	35.44	-36.1	-37.4	17.7	0.00e+00	0	61	0	2635071488	43	4283
2026-01-29 12:48:46.04	309.96	35.26	-36.1	-37.5	17.7	0.00e+00	0	60	0	2641362944	43	4294
2026-01-29 12:48:47.05	310.23	35.09	-36.1	-37.5	17.7	0.00e+00	0	61	0	2646605824	43	4318
2026-01-29 12:48:48.06	310.49	34.92	-36.2	-37.6	17.5	0.00e+00	0	61	0	2652897280	43	4368
2026-01-29 12:48:49.07	310.75	34.74	-36.2	-37.7	17.5	0.00e+00	0	61	0	2658140160	43	4401
2026-01-29 12:48:50.09	311.01	34.57	-36.1	-37.5	17.6	0.00e+00	0	61	0	2664431616	43	4311
2026-01-29 12:48:51.10	311.27	34.40	-35.9	-37.3	17.8	0.00e+00	0	61	0	2669674496	43	4230
2026-01-29 12:48:52.11	311.52	34.23	-35.9	-37.2	17.9	0.00e+00	0	61	0	2674917376	43	4185
2026-01-29 12:48:53.12	311.77	34.05	-35.9	-37.2	17.9	0.00e+00	0	60	0	2681208832	43	4182
2026-01-29 12:48:54.13	312.02	33.88	-35.9	-37.2	17.9	0.00e+00	0	61	0	2686451712	43	4186
2026-01-29 12:48:55.14	312.26	33.71	-35.9	-37.2	17.9	0.00e+00	0	61	0	2692743168	43	4187
2026-01-29 12:48:56.15	312.51	33.54	-35.9	-37.2	17.9	0.00e+00	0	60	0	2697986048	43	4190
2026-01-29 12:48:57.16	312.75	33.37	-36.0	-37.4	17.7	0.00e+00	0	61	0	2703228928	43	4248
2026-01-29 12:48:58.17	312.98	33.20	-36.0	-37.4	17.7	0.00e+00	0	60	0	2709520384	43	4272
2026-01-29 12:48:59.18	313.22	33.04	-36.1	-37.4	17.7	0.00e+00	0	61	0	2714763264	43	4291
2026-01-29 12:49:00.19	313.45	32.87	-36.2	-37.6	17.5	0.00e+00	0	60	0	2721054720	43	4349
2026-01-29 12:49:01.20	313.68	32.70	-36.2	-37.6	17.5	0.00e+00	0	61	0	2726297600	43	4360
2026-01-29 12:49:02.22	313.91	32.53	-36.2	-37.7	17.5	0.00e+00	0	61	0	2731540480	43	4399
2026-01-29 12:49:03.23	314.14	32.36	-36.2	-37.7	17.5	0.00e+00	0	61	0	2737831936	43	4398
2026-01-29 12:49:04.24	314.36	32.20	-36.2	-37.6	17.5	0.00e+00	0	61	0	2743074816	43	4354
2026-01-29 12:49:05.25	314.58	32.03	-36.1	-37.6	17.5	0.00e+00	0	61	0	2749366272	43	4348
2026-01-29 12:49:06.26	314.80	31.86	-36.2	-37.6	17.5	0.00e+00	0	60	0	2754609152	43	4359
2026-01-29 12:49:07.27	315.02	31.70	-36.2	-37.7	17.4	0.00e+00	0	61	0	2760900608	43	4397
2026-01-29 12:49:08.28	315.23	31.53	-36.3	-37.8	17.3	0.00e+00	0	61	0	2766143488	43	4448
2026-01-29 12:49:09.29	315.45	31.37	-36.3	-37.7	17.4	0.00e+00	0	61	0	2772434944	43	4401
2026-01-29 12:49:10.30	315.66	31.21	-36.2	-37.6	17.5	0.00e+00	0	61	0	2777677824	43	4377
2026-01-29 12:49:11.31	315.87	31.04	-36.2	-37.6	17.5	0.00e+00	0	61	0	2782920704	43	4381
2026-01-29 12:49:12.32	316.07	30.88	-36.2	-37.6	17.5	0.00e+00	0	61	0	2789212160	43	4365
2026-01-29 12:49:13.33	316.28	30.72	-36.2	-37.6	17.5	0.00e+00	0	61	0	2794455040	43	4362
2026-01-29 12:49:14.34	316.48	30.56	-36.2	-37.7	17.4	0.00e+00	0	61	0	2800746496	43	4402
2026-01-29 12:49:15.35	316.68	30.40	-36.1	-37.5	17.5	0.00e+00	0	61	0	2805989376	43	4337
2026-01-29 12:49:16.36	316.88	30.23	-36.1	-37.5	17.6	0.00e+00	0	61	0	2811232256	43	4304
2026-01-29 12:49:17.37	317.07	30.07	-36.0	-37.4	17.7	0.00e+00	0	61	0	2817523712	43	4289
2026-01-29 12:49:18.38	317.27	29.92	-36.1	-37.4	17.7	0.00e+00	0	61	0	2822766592	43	4288
2026-01-29 12:49:19.39	317.46	29.76	-36.1	-37.5	17.6	0.00e+00	0	61	0	2829058048	43	4327
2026-01-29 12:49:20.40	317.65	29.60	-36.1	-37.5	17.5	0.00e+00	0	61	0	2834300928	43	4331
2026-01-29 12:49:21.41	317.84	29.44	-36.1	-37.6	17.5	0.00e+00	0	61	0	2839543808	43	4345
2026-01-29 12:49:22.42	318.03	29.28	-36.3	-37.7	17.4	0.00e+00	0	61	0	2845835264	43	4407
2026-01-29 12:49:23.43	318.21	29.13	-36.3	-37.8	17.3	0.00e+00	0	61	0	2851078144	43	4448
2026-01-29 12:49:24.44	318.40	28.97	-36.4	-37.8	17.2	0.00e+00	0	61	0	2857369600	43	4490
2026-01-29 12:49:25.45	318.58	28.81	-36.4	-37.8	17.2	0.00e+00	0	61	0	2862612480	43	4489
2026-01-29 12:49:26.46	318.76	28.66	-36.4	-37.8	17.2	0.00e+00	0	61	0	2868903936	43	4486
2026-01-29 12:49:27.47	318.94	28.51	-36.4	-37.9	17.2	0.00e+00	0	61	0	2874146816	43	4526
2026-01-29 12:49:28.48	319.12	28.35	-36.5	-38.0	17.1	0.00e+00	0	61	0	2880438272	43	4592
2026-01-29 12:49:29.49	319.29	28.20	-36.5	-38.0	17.0	0.00e+00	0	61	0	2885681152	43	4595
2026-01-29 12:49:30.50	319.47	28.05	-36.4	-37.9	17.2	0.00e+00	0	61	0	2890924032	43	4513
2026-01-29 12:49:31.51	319.64	27.89	-36.4	-37.8	17.2	0.00e+00	0	61	0	2897215488	43	4480
2026-01-29 12:49:32.52	319.81	27.74	-36.3	-37.8	17.3	0.00e+00	0	61	0	2902458368	43	4463
2026-01-29 12:49:33.53	319.98	27.59	-36.4	-37.8	17.2	0.00e+00	0	61	0	2908749824	43	4460
2026-01-29 12:49:34.54	320.14	27.44	-36.4	-37.9	17.2	0.00e+00	0	61	0	2913992704	43	4505
2026-01-29 12:49:35.55	320.31	27.29	-36.4	-37.8	17.2	0.00e+00	0	61	0	2919235584	43	4468
2026-01-29 12:49:36.56	320.47	27.14	-36.3	-37.7	17.3	0.00e+00	0	61	0	2925527040	43	4419
2026-01-29 12:49:37.57	320.64	26.99	-36.3	-37.7	17.3	0.00e+00	0	61	0	2930769920	43	4399
2026-01-29 12:49:38.58	320.80	26.84	-36.3	-37.7	17.3	0.00e+00	0	61	0	2937061376	43	4411
2026-01-29 12:49:39.59	320.96	26.70	-36.3	-37.7	17.3	0.00e+00	0	60	0	2942304256	43	4424
2026-01-29 12:49:40.60	321.12	26.55	-36.3	-37.8	17.3	0.00e+00	0	60	0	2947547136	43	4452
2026-01-29 12:49:41.62	321.28	26.40	-36.3	-37.7	17.3	0.00e+00	0	61	0	2953838592	43	4438
2026-01-29 12:49:42.63	321.43	26.26	-36.4	-37.9	17.2	0.00e+00	0	61	0	2959081472	43	4509
2026-01-29 12:49:43.64	321.59	26.11	-36.4	-37.9	17.1	0.00e+00	0	61	0	2965372928	43	4533
2026-01-29 12:49:44.65	321.74	25.97	-36.4	-37.9	17.1	0.00e+00	0	61	0	2970615808	43	4540
2026-01-29 12:49:45.66	321.89	25.82	-36.4	-37.9	17.1	0.00e+00	0	61	0	2976907264	43	4517
2026-01-29 12:49:46.67	322.04	25.68	-36.5	-38.0	17.0	0.00e+00	0	61	0	2982150144	43	4559
2026-01-29 12:49:47.67	322.19	25.54	-36.6	-38.1	17.0	0.00e+00	0	61	0	2988441600	43	4609
2026-01-29 12:49:48.68	322.34	25.40	-36.5	-38.0	17.0	0.00e+00	0	61	0	2993684480	43	4582
2026-01-29 12:49:49.70	322.48	25.25	-36.5	-38.0	17.0	0.00e+00	0	61	0	2998927360	43	4570
2026-01-29 12:49:50.71	322.63	25.11	-36.5	-38.0	17.0	0.00e+00	0	61	0	3005218816	43	4575
2026-01-29 12:49:51.72	322.77	24.97	-36.5	-38.0	17.0	0.00e+00	0	61	0	3010461696	43	4576
2026-01-29 12:49:52.73	322.92	24.83	-36.5	-37.9	17.1	0.00e+00	0	61	0	3016753152	43	4527
2026-01-29 12:49:53.74	323.06	24.69	-36.4	-37.9	17.1	0.00e+00	0	61	0	3021996032	43	4505
2026-01-29 12:49:54.75	323.20	24.55	-36.5	-37.9	17.0	0.00e+00	0	61	0	3027238912	43	4534
2026-01-29 12:49:55.76	323.34	24.41	-36.5	-37.9	17.0	0.00e+00	0	61	0	3033530368	43	4533
2026-01-29 12:49:56.77	323.47	24.28	-36.4	-37.9	17.1	0.00e+00	0	61	0	3038773248	43	4507
2026-01-29 12:49:57.78	323.61	24.14	-36.4	-37.9	17.1	0.00e+00	0	61	0	3045064704	43	4495
2026-01-29 12:49:58.79	323.75	24.00	-36.5	-37.9	17.0	0.00e+00	0	61	0	3050307584	43	4539
2026-01-29 12:49:59.80	323.88	23.87	-36.6	-38.1	16.9	0.00e+00	0	61	0	3055550464	43	4608
2026-01-29 12:50:00.81	324.01	23.73	-36.7	-38.2	16.8	0.00e+00	0	61	0	3061841920	43	4652
2026-01-29 12:50:01.82	324.15	23.60	-36.7	-38.2	16.7	0.00e+00	0	61	0	3067084800	43	4689
2026-01-29 12:50:02.83	324.28	23.46	-36.9	-38.5	16.6	0.00e+00	0	61	0	3073376256	44	4568
2026-01-29 12:50:03.84	324.41	23.33	-37.1	-38.7	16.5	0.00e+00	0	61	0	3078619136	44	4662
2026-01-29 12:50:04.85	324.54	23.19	-37.2	-38.8	16.4	0.00e+00	0	61	0	3084910592	44	4709
2026-01-29 12:50:05.86	324.66	23.06	-37.2	-38.8	16.3	0.00e+00	0	61	0	3090153472	44	4753
2026-01-29 12:50:06.87	324.79	22.93	-37.2	-38.8	16.3	0.00e+00	0	61	0	3096444928	45	4491
2026-01-29 12:50:07.88	324.92	22.80	-37.3	-38.9	16.2	0.00e+00	0	61	0	3101687808	45	4518
2026-01-29 12:50:08.89	325.04	22.67	-37.3	-38.9	16.2	0.00e+00	0	61	0	3106930688	45	4532
2026-01-29 12:50:09.90	325.16	22.54	-37.3	-38.9	16.2	0.00e+00	0	61	0	3113222144	45	4543
2026-01-29 12:50:10.91	325.29	22.41	-37.3	-38.9	16.2	0.00e+00	0	61	0	3118465024	45	4528
2026-01-29 12:50:11.92	325.41	22.28	-37.3	-38.9	16.2	0.00e+00	0	61	0	3124756480	45	4525
2026-01-29 12:50:12.93	325.53	22.15	-37.3	-38.9	16.2	0.00e+00	0	61	0	3129999360	45	4529
2026-01-29 12:50:13.94	325.65	22.02	-37.2	-38.9	16.2	0.00e+00	0	61	0	3135242240	45	4494
2026-01-29 12:50:14.95	325.77	21.89	-37.1	-38.7	16.4	0.00e+00	0	61	0	3141533696	45	4431
2026-01-29 12:50:15.96	325.89	21.76	-37.1	-38.7	16.4	0.00e+00	0	61	0	3146776576	45	4393
2026-01-29 12:50:16.97	326.00	21.64	-37.1	-38.7	16.4	0.00e+00	0	61	0	3153068032	45	4404
2026-01-29 12:50:17.98	326.12	21.51	-37.1	-38.7	16.3	0.00e+00	0	61	0	3158310912	45	4424
2026-01-29 12:50:19.00	326.24	21.38	-37.2	-38.8	16.2	0.00e+00	0	61	0	3163553792	45	4473
2026-01-29 12:50:20.01	326.35	21.26	-37.2	-38.8	16.2	0.00e+00	0	61	0	3169845248	45	4470
2026-01-29 12:50:21.02	326.46	21.13	-37.3	-38.9	16.2	0.00e+00	0	61	0	3175088128	45	4505
2026-01-29 12:50:22.03	326.58	21.01	-37.3	-38.9	16.1	0.00e+00	0	61	0	3181379584	45	4532
2026-01-29 12:50:23.04	326.69	20.89	-37.3	-38.9	16.1	0.00e+00	0	61	0	3186622464	45	4536
2026-01-29 12:50:24.05	326.80	20.76	-37.3	-38.9	16.1	0.00e+00	0	61	0	3192913920	45	4525
2026-01-29 12:50:25.06	326.91	20.64	-37.3	-39.0	16.1	0.00e+00	0	61	0	3198156800	45	4551
2026-01-29 12:50:26.07	327.02	20.52	-37.4	-39.0	16.0	0.00e+00	0	61	0	3204448256	45	4574
2026-01-29 12:50:27.08	327.13	20.40	-37.4	-39.1	15.9	0.00e+00	0	61	0	3209691136	45	4618
2026-01-29 12:50:28.09	327.23	20.27	-37.4	-39.0	16.0	0.00e+00	0	61	0	3214934016	45	4591
2026-01-29 12:50:29.10	327.34	20.15	-37.4	-39.0	16.0	0.00e+00	0	61	0	3221225472	45	4565
2026-01-29 12:50:30.11	327.45	20.03	-37.4	-39.0	16.0	0.00e+00	0	61	0	3226468352	45	4576
2026-01-29 12:50:31.12	327.55	19.91	-37.4	-39.0	16.0	0.00e+00	0	61	0	3232759808	45	4580
2026-01-29 12:50:32.13	327.66	19.79	-37.4	-39.0	15.9	0.00e+00	0	61	0	3238002688	45	4591
2026-01-29 12:50:33.14	327.76	19.68	-37.4	-39.1	15.9	0.00e+00	0	61	0	3243245568	45	4602
2026-01-29 12:50:34.15	327.86	19.56	-37.5	-39.1	15.8	0.00e+00	0	61	0	3249537024	45	4650
2026-01-29 12:50:35.16	327.96	19.44	-37.5	-39.2	15.7	0.00e+00	0	61	0	3254779904	45	4701
2026-01-29 12:50:36.18	328.07	19.32	-37.6	-39.3	15.7	0.00e+00	0	61	0	3261071360	45	4711
2026-01-29 12:50:37.18	328.17	19.21	-37.7	-39.4	15.6	0.00e+00	0	61	0	3266314240	45	4776
2026-01-29 12:50:38.20	328.27	19.09	-37.8	-39.5	15.5	0.00e+00	0	61	0	3271557120	46	4575
2026-01-29 12:50:39.21	328.36	18.97	-37.8	-39.5	15.4	0.00e+00	0	61	0	3277848576	46	4596
2026-01-29 12:50:40.22	328.46	18.86	-37.9	-39.7	15.3	0.00e+00	0	61	0	3283091456	46	4663
2026-01-29 12:50:41.23	328.56	18.74	-38.0	-39.8	15.1	1.10e-06	0	61	0	3289382912	46	4729
2026-01-29 12:50:42.24	328.66	18.63	-38.0	-39.9	15.1	0.00e+00	0	61	0	3294625792	46	4773
2026-01-29 12:50:43.25	328.75	18.51	-38.0	-39.9	15.1	0.00e+00	0	61	0	3300917248	46	4771
2026-01-29 12:50:44.26	328.85	18.40	-38.0	-39.9	15.1	0.00e+00	0	61	0	3306160128	46	4774
2026-01-29 12:50:45.27	328.94	18.29	-38.1	-40.0	15.0	2.20e-06	0	61	0	3312451584	46	4827
2026-01-29 12:50:46.28	329.04	18.17	-38.0	-39.9	15.0	0.00e+00	0	61	0	3317694464	46	4786
2026-01-29 12:50:47.29	329.13	18.06	-38.0	-39.9	15.0	0.00e+00	0	61	0	3322937344	46	4780
2026-01-29 12:50:48.31	329.23	17.95	-38.1	-39.9	15.0	0.00e+00	0	61	0	3329228800	46	4800
2026-01-29 12:50:49.32	329.32	17.84	-38.1	-40.0	14.9	0.00e+00	0	61	0	3334471680	46	4835
2026-01-29 12:50:50.33	329.41	17.73	-38.1	-40.0	14.9	0.00e+00	0	61	0	3340763136	46	4842
2026-01-29 12:50:51.34	329.50	17.61	-38.1	-39.9	15.0	0.00e+00	0	61	0	3346006016	46	4798
2026-01-29 12:50:52.35	329.59	17.50	-38.0	-39.8	15.1	0.00e+00	0	61	0	3351248896	46	4720
2026-01-29 12:50:53.36	329.68	17.40	-38.0	-39.8	15.1	0.00e+00	0	61	0	3357540352	46	4738
2026-01-29 12:50:54.37	329.77	17.29	-38.0	-39.8	15.1	1.10e-06	0	61	0	3362783232	46	4734
2026-01-29 12:50:55.38	329.86	17.18	-37.9	-39.7	15.2	0.00e+00	0	61	0	3369074688	46	4692
2026-01-29 12:50:56.38	329.94	17.07	-37.9	-39.7	15.1	1.10e-06	0	61	0	3374317568	46	4702
2026-01-29 12:50:57.39	330.03	16.96	-38.0	-39.8	15.1	0.00e+00	0	61	0	3379560448	46	4729
2026-01-29 12:50:58.41	330.12	16.85	-38.0	-39.9	15.0	0.00e+00	0	61	0	3385851904	46	4766
2026-01-29 12:50:59.42	330.21	16.75	-38.0	-39.8	15.0	0.00e+00	0	61	0	3391094784	46	4742
2026-01-29 12:51:00.43	330.29	16.64	-38.1	-39.9	14.9	0.00e+00	0	61	0	3397386240	46	4792
2026-01-29 12:51:01.44	330.38	16.53	-38.1	-40.0	14.8	1.10e-06	0	61	0	3402629120	46	4832
2026-01-29 12:51:02.45	330.46	16.43	-38.2	-40.1	14.7	1.10e-06	0	61	0	3408920576	46	4885
2026-01-29 12:51:03.46	330.54	16.32	-38.2	-40.1	14.7	0.00e+00	0	61	0	3414163456	46	4877
2026-01-29 12:51:04.47	330.63	16.22	-38.3	-40.2	14.6	0.00e+00	0	61	0	3420454912	47	4666
2026-01-29 12:51:05.48	330.71	16.11	-38.3	-40.2	14.6	1.10e-06	0	61	0	3425697792	47	4688
2026-01-29 12:51:06.49	330.79	16.01	-38.3	-40.3	14.5	0.00e+00	0	61	0	3430940672	47	4727
2026-01-29 12:51:07.50	330.87	15.90	-38.4	-40.4	14.4	1.10e-06	0	61	0	3437232128	47	4778
2026-01-29 12:51:08.51	330.95	15.80	-38.4	-40.4	14.4	4.50e-06	0	61	0	3442475008	47	4782
2026-01-29 12:51:09.52	331.04	15.70	-38.4	-40.4	14.3	3.40e-06	0	61	0	3448766464	47	4802
2026-01-29 12:51:10.53	331.12	15.59	-38.5	-40.5	14.3	4.50e-06	0	61	0	3454009344	47	4828
2026-01-29 12:51:11.54	331.19	15.49	-38.5	-40.5	14.2	3.40e-06	0	61	0	3459252224	47	4856
2026-01-29 12:51:12.55	331.27	15.39	-38.6	-40.6	14.1	3.40e-06	0	61	0	3465543680	47	4899
2026-01-29 12:51:13.56	331.35	15.29	-38.6	-40.6	14.1	2.20e-06	0	61	0	3470786560	47	4906
2026-01-29 12:51:14.57	331.43	15.19	-38.6	-40.6	14.1	4.50e-06	0	61	0	3477078016	47	4921
2026-01-29 12:51:15.58	331.51	15.09	-38.6	-40.6	14.1	2.20e-06	0	61	0	3482320896	47	4918
2026-01-29 12:51:16.59	331.58	14.99	-38.5	-40.6	14.1	2.20e-06	0	61	0	3487563776	47	4897
2026-01-29 12:51:17.60	331.66	14.89	-38.6	-40.6	14.1	4.50e-06	0	61	0	3493855232	47	4895
2026-01-29 12:51:18.61	331.74	14.79	-38.5	-40.6	14.1	1.10e-06	0	61	0	3499098112	47	4887
2026-01-29 12:51:19.62	331.81	14.69	-38.5	-40.6	14.1	5.70e-06	0	61	0	3505389568	47	4891
2026-01-29 12:51:20.63	331.89	14.59	-38.6	-40.7	14.0	2.20e-06	0	61	0	3510632448	47	4937
2026-01-29 12:51:21.64	331.96	14.49	-38.6	-40.7	14.0	5.70e-06	0	61	0	3516923904	47	4948
2026-01-29 12:51:22.65	332.04	14.39	-38.6	-40.7	14.0	4.50e-06	0	61	0	3522166784	47	4955
2026-01-29 12:51:23.66	332.11	14.29	-38.6	-40.7	13.9	1.14e-05	0	61	0	3528458240	47	4955
2026-01-29 12:51:24.67	332.18	14.20	-38.7	-40.8	13.9	5.70e-06	0	61	0	3533701120	47	5007
2026-01-29 12:51:25.68	332.26	14.10	-38.7	-40.7	13.9	8.00e-06	0	61	0	3538944000	47	4983
