passes_logs/2026/01/29/R2.0S_Moscow/R2.0S_Moscow__20260129_102325_NOAA_20_JPSS-1_rec.log

#Pass ID: 20260129_102325_NOAA 20 (JPSS-1)
#Satellite: NOAA 20 (JPSS-1)
#Configuration: NOAA 20
#almurnet v.1.7.20251203
#Start time: 2026-01-29 10:23:27

#Version: 2.2.20231116
#Station: R2.0S_Moscow
#Location: 37.707566 lon 55.798166 lat
#TLE: 1 43013U 17073A   26027.94683596  .00000137  00000+0  85741-4 0  9995
#TLE: 2 43013  98.7648 328.7503 0000940  21.3928 338.7287 14.19541154424576

#Time	Az	El	Level	Level2	SNR	BER	BlckErr	Temp	State	Recorded	gain1	gain2
2026-01-29 10:23:27.14	174.28	2.08	-43.3	-57.9	3.8	1.49e+00	0	51	0	0	58	19140
2026-01-29 10:23:28.14	174.30	2.15	-43.3	-57.9	3.8	1.49e+00	0	51	104	0	58	19109
2026-01-29 10:23:29.15	174.33	2.21	-43.3	-58.0	3.8	1.49e+00	0	51	104	0	58	19195
2026-01-29 10:23:30.16	174.35	2.28	-43.3	-57.9	3.8	1.49e+00	0	52	104	0	58	19128
2026-01-29 10:23:31.17	174.37	2.34	-43.3	-57.9	3.8	1.49e+00	0	52	104	0	58	19068
2026-01-29 10:23:32.18	174.40	2.41	-43.3	-57.9	3.8	1.49e+00	0	52	104	0	58	19090
2026-01-29 10:23:33.19	174.42	2.47	-43.3	-57.9	3.8	1.49e+00	0	52	104	0	58	19095
2026-01-29 10:23:34.21	174.45	2.54	-43.3	-57.9	3.8	1.49e+00	0	52	104	0	58	19095
2026-01-29 10:23:35.22	174.47	2.60	-43.3	-57.9	3.8	1.49e+00	0	52	104	0	58	19139
2026-01-29 10:23:36.23	174.50	2.67	-43.3	-57.9	3.8	1.49e+00	0	52	104	0	58	19034
2026-01-29 10:23:37.24	174.52	2.73	-43.3	-57.9	3.8	1.49e+00	0	52	104	0	58	19144
2026-01-29 10:23:38.25	174.55	2.80	-43.3	-57.9	3.8	1.49e+00	0	52	104	0	58	19128
2026-01-29 10:23:39.26	174.57	2.87	-43.3	-57.9	3.8	1.49e+00	0	52	104	0	58	19066
2026-01-29 10:23:40.27	174.60	2.93	-43.3	-57.9	3.8	1.49e+00	0	52	104	0	58	19098
2026-01-29 10:23:41.28	174.62	3.00	-43.3	-57.9	3.8	1.49e+00	0	52	104	0	58	19134
2026-01-29 10:23:42.29	174.65	3.06	-43.3	-57.9	3.8	1.49e+00	0	52	104	0	58	19087
2026-01-29 10:23:43.30	174.67	3.13	-43.3	-57.9	3.8	1.49e+00	0	52	104	0	58	19097
2026-01-29 10:23:44.31	174.70	3.20	-43.3	-57.9	3.8	1.49e+00	0	52	104	0	58	19072
2026-01-29 10:23:45.32	174.72	3.26	-43.3	-57.9	3.8	1.49e+00	0	53	104	0	58	19074
2026-01-29 10:23:46.33	174.75	3.33	-43.3	-57.9	3.8	1.49e+00	0	53	104	0	58	19078
2026-01-29 10:23:47.34	174.77	3.40	-43.3	-57.9	3.8	1.49e+00	0	53	104	0	58	19084
2026-01-29 10:23:48.35	174.80	3.47	-43.3	-57.9	3.8	1.49e+00	0	53	104	0	58	19119
2026-01-29 10:23:49.36	174.82	3.53	-43.3	-57.9	3.8	1.49e+00	0	53	104	0	58	19087
2026-01-29 10:23:50.37	174.85	3.60	-43.3	-57.9	3.8	1.49e+00	0	53	104	0	58	19026
2026-01-29 10:23:51.39	174.88	3.67	-43.3	-57.9	3.8	1.49e+00	0	53	104	0	58	19123
2026-01-29 10:23:52.40	174.90	3.74	-43.3	-57.9	3.8	1.49e+00	0	53	104	0	58	19067
2026-01-29 10:23:53.41	174.93	3.81	-43.3	-57.9	3.8	1.49e+00	0	53	104	0	58	19101
2026-01-29 10:23:54.42	174.96	3.87	-43.3	-57.9	3.8	1.49e+00	0	53	104	0	58	19019
2026-01-29 10:23:55.43	174.98	3.94	-43.3	-57.9	3.8	1.49e+00	0	53	104	0	58	19035
2026-01-29 10:23:56.44	175.01	4.01	-43.3	-57.9	3.8	1.49e+00	0	53	104	0	58	19038
2026-01-29 10:23:57.45	175.04	4.08	-43.3	-57.9	3.8	1.49e+00	0	53	104	0	58	19081
2026-01-29 10:23:58.46	175.06	4.15	-43.3	-57.9	3.8	1.49e+00	0	53	104	0	58	19073
2026-01-29 10:23:59.47	175.09	4.22	-43.3	-57.9	3.8	1.49e+00	0	53	104	0	58	19070
2026-01-29 10:24:00.48	175.12	4.29	-43.3	-57.9	3.8	1.49e+00	0	53	104	0	58	19078
2026-01-29 10:24:01.49	175.14	4.36	-43.3	-57.9	3.8	1.49e+00	0	53	104	0	58	19107
2026-01-29 10:24:02.50	175.17	4.43	-43.3	-57.9	3.8	1.49e+00	0	53	104	0	58	19070
2026-01-29 10:24:03.51	175.20	4.50	-43.3	-57.9	3.8	1.49e+00	0	54	104	0	58	19033
2026-01-29 10:24:04.52	175.23	4.57	-43.3	-57.9	3.8	1.49e+00	0	54	104	0	58	19011
2026-01-29 10:24:05.53	175.25	4.64	-43.3	-57.9	3.8	1.49e+00	0	54	104	0	58	18984
2026-01-29 10:24:06.54	175.28	4.71	-43.3	-57.9	3.8	1.49e+00	0	54	104	0	58	18973
2026-01-29 10:24:07.56	175.31	4.78	-43.3	-57.9	3.8	1.49e+00	0	54	104	0	58	18993
2026-01-29 10:24:08.57	175.34	4.85	-43.3	-57.9	3.8	1.49e+00	0	54	104	0	58	18990
2026-01-29 10:24:09.58	175.37	4.92	-43.3	-57.8	3.8	1.49e+00	0	54	104	0	58	18893
2026-01-29 10:24:10.59	175.39	4.99	-43.3	-57.8	3.8	1.49e+00	0	54	104	0	58	18880
2026-01-29 10:24:11.60	175.42	5.06	-43.3	-57.8	3.8	1.49e+00	0	54	104	0	58	18803
2026-01-29 10:24:12.61	175.45	5.14	-43.3	-57.8	3.8	1.49e+00	0	54	104	0	58	18762
2026-01-29 10:24:13.62	175.48	5.21	-43.3	-57.7	3.8	1.49e+00	0	54	104	0	58	18690
2026-01-29 10:24:14.63	175.51	5.28	-43.3	-57.7	3.8	1.49e+00	0	54	104	0	58	18559
2026-01-29 10:24:15.64	175.54	5.35	-43.3	-57.7	3.8	1.49e+00	0	54	104	0	58	18525
2026-01-29 10:24:16.65	175.57	5.42	-43.3	-57.6	3.8	1.49e+00	0	54	104	0	58	18467
2026-01-29 10:24:17.66	175.60	5.50	-43.2	-57.6	3.8	1.49e+00	0	54	104	0	58	18399
2026-01-29 10:24:18.67	175.63	5.57	-43.3	-57.6	3.8	1.49e+00	0	54	104	0	58	18462
2026-01-29 10:24:19.69	175.66	5.64	-43.3	-57.5	3.8	1.49e+00	0	54	104	0	58	18297
2026-01-29 10:24:20.69	175.69	5.72	-43.2	-57.4	3.8	1.49e+00	0	54	104	0	58	17903
2026-01-29 10:24:21.71	175.72	5.79	-43.2	-57.0	3.8	1.49e+00	0	55	104	0	58	17252
2026-01-29 10:24:22.72	175.75	5.86	-43.2	-56.5	3.8	1.49e+00	0	54	104	0	58	16284
2026-01-29 10:24:23.72	175.77	5.94	-43.2	-56.2	3.8	1.49e+00	0	54	104	0	58	15700
2026-01-29 10:24:24.74	175.81	6.01	-43.1	-55.7	3.8	1.49e+00	0	55	104	0	58	14852
2026-01-29 10:24:25.75	175.84	6.08	-43.1	-55.2	4.0	1.48e+00	0	55	104	0	58	13983
2026-01-29 10:24:26.76	175.87	6.16	-43.1	-54.7	4.1	1.44e+00	0	55	0	0	58	13235
2026-01-29 10:24:27.77	175.90	6.23	-43.0	-54.1	4.3	1.38e+00	0	55	0	0	58	12293
2026-01-29 10:24:28.78	175.93	6.31	-43.0	-53.7	4.4	1.32e+00	82	55	0	0	58	11712
2026-01-29 10:24:29.79	175.96	6.38	-42.9	-53.1	4.6	1.02e+00	0	55	0	2097152	57	11657
2026-01-29 10:24:30.80	175.99	6.46	-42.8	-52.6	4.8	8.52e-01	0	55	0	4194304	57	11011
2026-01-29 10:24:31.81	176.02	6.53	-42.8	-52.2	5.0	7.61e-01	0	55	0	6291456	57	10525
2026-01-29 10:24:32.82	176.05	6.61	-42.8	-51.9	5.2	6.33e-01	0	55	0	8388608	57	10152
2026-01-29 10:24:33.83	176.08	6.69	-42.6	-51.3	5.6	4.93e-01	0	55	0	9437184	57	9407
2026-01-29 10:24:34.84	176.11	6.76	-42.6	-51.0	5.8	4.14e-01	0	55	0	11534336	57	9148
2026-01-29 10:24:35.85	176.15	6.84	-42.5	-50.5	6.2	3.50e-01	0	55	0	13631488	57	8626
2026-01-29 10:24:36.86	176.18	6.91	-42.4	-50.1	6.5	2.34e-01	0	55	0	15728640	56	8715
2026-01-29 10:24:37.87	176.21	6.99	-42.4	-49.6	7.0	1.83e-01	0	55	0	17825792	56	8254
2026-01-29 10:24:38.88	176.24	7.07	-42.2	-49.0	7.6	1.34e-01	0	55	0	18874368	56	7696
2026-01-29 10:24:39.89	176.28	7.15	-42.1	-48.8	7.8	8.52e-02	0	55	0	20971520	56	7465
2026-01-29 10:24:40.90	176.31	7.22	-42.0	-48.2	8.4	6.59e-02	0	55	0	23068672	56	6964
2026-01-29 10:24:41.91	176.34	7.30	-41.8	-47.8	8.6	4.20e-02	0	55	0	25165824	55	7090
2026-01-29 10:24:42.92	176.37	7.38	-41.6	-47.4	9.0	2.77e-02	0	55	0	27262976	55	6761
2026-01-29 10:24:43.93	176.41	7.46	-41.6	-47.2	9.2	2.24e-02	0	55	0	28311552	55	6612
2026-01-29 10:24:44.94	176.44	7.53	-41.5	-47.1	9.4	1.89e-02	0	56	0	30408704	55	6508
2026-01-29 10:24:45.95	176.47	7.61	-41.5	-47.0	9.5	1.55e-02	0	55	0	32505856	55	6431
2026-01-29 10:24:46.97	176.51	7.69	-41.5	-46.9	9.5	1.38e-02	0	55	0	34603008	54	6774
2026-01-29 10:24:47.98	176.54	7.77	-41.4	-46.8	9.7	1.15e-02	0	55	0	36700160	54	6661
2026-01-29 10:24:48.99	176.57	7.85	-41.4	-46.7	9.7	1.03e-02	0	55	0	37748736	54	6620
2026-01-29 10:24:50.00	176.61	7.93	-41.4	-46.6	9.8	1.12e-02	0	55	0	39845888	54	6536
2026-01-29 10:24:51.01	176.64	8.01	-41.4	-46.8	9.6	1.17e-02	0	56	0	41943040	54	6692
2026-01-29 10:24:52.02	176.68	8.09	-42.5	-48.8	8.2	6.95e-03	0	56	0	44040192	55	7981
2026-01-29 10:24:53.03	176.71	8.17	-42.3	-50.2	6.1	4.67e-02	0	56	0	46137344	55	9301
2026-01-29 10:24:54.04	176.75	8.25	-42.2	-48.2	8.7	1.43e-02	0	56	0	47185920	55	7417
2026-01-29 10:24:55.05	176.78	8.33	-42.3	-47.9	9.2	1.47e-02	0	56	0	49283072	55	7198
2026-01-29 10:24:56.06	176.82	8.41	-42.6	-55.2	3.8	5.42e-01	0	56	104	51380224	55	16576
2026-01-29 10:24:57.07	176.85	8.49	-41.7	-46.8	10.1	1.39e-01	0	56	0	51380224	55	6326
2026-01-29 10:24:58.08	176.89	8.58	-41.7	-46.8	10.1	5.82e-03	0	56	0	53477376	55	6324
2026-01-29 10:24:59.09	176.92	8.66	-41.8	-46.8	10.2	6.39e-03	0	56	0	55574528	55	6291
2026-01-29 10:25:00.10	176.96	8.74	-41.7	-46.6	10.4	4.97e-03	0	56	0	57671680	55	6200
2026-01-29 10:25:01.11	176.99	8.82	-41.7	-46.6	10.5	3.90e-03	0	56	0	59768832	55	6150
2026-01-29 10:25:02.12	177.03	8.90	-41.8	-46.6	10.5	3.42e-03	0	56	0	60817408	55	6136
2026-01-29 10:25:03.13	177.07	8.99	-41.7	-46.3	10.8	2.76e-03	0	56	0	62914560	55	5970
2026-01-29 10:25:04.14	177.10	9.07	-41.6	-46.3	10.8	2.42e-03	0	56	0	65011712	55	5951
2026-01-29 10:25:05.15	177.14	9.15	-41.6	-46.2	10.9	2.22e-03	0	56	0	67108864	55	5902
2026-01-29 10:25:06.16	177.18	9.24	-41.6	-46.2	11.0	1.85e-03	0	56	0	69206016	55	5906
2026-01-29 10:25:07.17	177.21	9.32	-41.6	-46.2	11.0	1.67e-03	0	56	0	70254592	55	5877
2026-01-29 10:25:08.18	177.25	9.41	-41.6	-46.1	11.1	1.79e-03	0	56	0	72351744	55	5847
2026-01-29 10:25:09.19	177.29	9.49	-41.6	-46.2	11.1	1.74e-03	0	56	0	74448896	55	5861
2026-01-29 10:25:10.20	177.33	9.57	-41.6	-46.1	11.1	1.34e-03	0	56	0	76546048	55	5819
2026-01-29 10:25:11.21	177.36	9.66	-41.6	-46.1	11.2	1.55e-03	0	56	0	78643200	55	5799
2026-01-29 10:25:12.22	177.40	9.75	-41.6	-45.9	11.3	1.21e-03	0	56	0	79691776	55	5704
2026-01-29 10:25:13.23	177.44	9.83	-41.6	-46.0	11.3	1.36e-03	0	56	0	81788928	55	5759
2026-01-29 10:25:14.24	177.48	9.92	-41.7	-46.1	11.2	1.40e-03	0	56	0	83886080	55	5836
2026-01-29 10:25:15.26	177.52	10.00	-41.7	-46.1	11.2	1.35e-03	0	57	0	85983232	55	5842
2026-01-29 10:25:16.27	177.56	10.09	-41.6	-46.0	11.3	1.17e-03	0	56	0	88080384	55	5751
2026-01-29 10:25:17.28	177.60	10.18	-41.6	-45.9	11.4	1.01e-03	0	56	0	89128960	55	5679
2026-01-29 10:25:18.29	177.64	10.26	-41.5	-45.8	11.6	7.32e-04	0	56	0	91226112	55	5610
2026-01-29 10:25:19.30	177.68	10.35	-41.6	-45.8	11.6	6.40e-04	0	57	0	93323264	55	5628
2026-01-29 10:25:20.31	177.72	10.44	-41.6	-45.9	11.5	7.39e-04	0	56	0	95420416	55	5673
2026-01-29 10:25:21.32	177.76	10.53	-41.6	-45.9	11.4	8.69e-04	0	56	0	97517568	55	5689
2026-01-29 10:25:22.32	177.80	10.61	-41.6	-46.0	11.4	8.35e-04	0	57	0	98566144	55	5723
2026-01-29 10:25:23.33	177.84	10.70	-41.6	-46.0	11.4	9.99e-04	0	56	0	100663296	55	5732
2026-01-29 10:25:24.34	177.88	10.79	-41.7	-46.0	11.4	1.01e-03	0	57	0	102760448	55	5777
2026-01-29 10:25:25.35	177.92	10.88	-41.6	-45.8	11.6	7.60e-04	0	57	0	104857600	55	5615
2026-01-29 10:25:26.36	177.96	10.97	-41.5	-45.6	11.8	4.94e-04	0	57	0	106954752	55	5508
2026-01-29 10:25:27.37	178.00	11.06	-41.5	-45.7	11.8	4.97e-04	0	57	0	108003328	55	5529
2026-01-29 10:25:28.38	178.04	11.15	-41.5	-45.7	11.8	5.28e-04	0	57	0	110100480	55	5534
2026-01-29 10:25:29.39	178.08	11.24	-41.5	-45.6	11.8	5.29e-04	0	57	0	112197632	55	5510
2026-01-29 10:25:30.40	178.13	11.33	-41.5	-45.6	11.8	5.32e-04	0	57	0	114294784	55	5525
2026-01-29 10:25:31.41	178.17	11.42	-41.5	-45.6	11.8	4.75e-04	0	57	0	116391936	55	5494
2026-01-29 10:25:32.42	178.21	11.51	-41.5	-45.6	11.8	4.71e-04	0	57	0	118489088	55	5528
2026-01-29 10:25:33.43	178.25	11.61	-41.5	-45.7	11.8	4.79e-04	0	57	0	119537664	55	5549
2026-01-29 10:25:34.44	178.30	11.70	-41.5	-45.6	11.8	4.66e-04	0	57	0	121634816	55	5504
2026-01-29 10:25:35.45	178.34	11.79	-41.6	-45.7	11.8	4.29e-04	0	57	0	123731968	55	5542
2026-01-29 10:25:36.45	178.38	11.88	-41.5	-45.6	11.8	4.36e-04	0	57	0	125829120	55	5516
2026-01-29 10:25:37.46	178.43	11.98	-41.5	-45.6	11.9	4.03e-04	0	57	0	127926272	55	5493
2026-01-29 10:25:38.47	178.47	12.07	-41.6	-45.6	11.8	4.44e-04	0	57	0	128974848	55	5518
2026-01-29 10:25:39.48	178.52	12.16	-41.5	-45.6	11.9	3.80e-04	0	57	0	131072000	55	5474
2026-01-29 10:25:40.49	178.56	12.26	-41.5	-45.6	11.9	4.31e-04	0	57	0	133169152	55	5505
2026-01-29 10:25:41.50	178.61	12.35	-41.5	-45.6	11.9	4.01e-04	0	57	0	135266304	55	5479
2026-01-29 10:25:42.51	178.65	12.45	-41.5	-45.6	12.0	3.32e-04	0	57	0	137363456	55	5475
2026-01-29 10:25:43.52	178.70	12.54	-41.5	-45.5	12.0	3.36e-04	0	57	0	138412032	55	5418
2026-01-29 10:25:44.53	178.74	12.64	-41.5	-45.5	12.0	2.89e-04	0	57	0	140509184	55	5459
2026-01-29 10:25:45.54	178.79	12.73	-41.5	-45.6	12.0	3.00e-04	0	57	0	142606336	55	5479
2026-01-29 10:25:46.55	178.83	12.83	-41.5	-45.4	12.2	2.47e-04	0	57	0	144703488	54	5682
2026-01-29 10:25:47.56	178.88	12.93	-41.4	-45.3	12.2	2.44e-04	0	57	0	146800640	54	5648
2026-01-29 10:25:48.57	178.93	13.02	-41.5	-45.4	12.2	2.67e-04	0	57	0	147849216	54	5687
2026-01-29 10:25:49.58	178.98	13.12	-41.5	-45.4	12.2	2.32e-04	0	57	0	149946368	54	5706
2026-01-29 10:25:50.59	179.02	13.22	-41.5	-45.4	12.2	2.52e-04	0	57	0	152043520	54	5714
2026-01-29 10:25:51.60	179.07	13.32	-41.5	-45.4	12.1	2.54e-04	0	57	0	154140672	54	5721
2026-01-29 10:25:52.61	179.12	13.41	-41.6	-45.6	12.0	2.81e-04	0	57	0	156237824	54	5803
2026-01-29 10:25:53.62	179.17	13.51	-41.6	-45.6	12.0	2.75e-04	0	57	0	157286400	54	5810
2026-01-29 10:25:54.63	179.22	13.61	-41.5	-45.5	12.1	2.83e-04	0	57	0	159383552	54	5770
2026-01-29 10:25:55.64	179.26	13.71	-41.5	-45.5	12.1	3.00e-04	0	57	0	161480704	54	5780
2026-01-29 10:25:56.65	179.31	13.81	-41.5	-45.5	12.1	3.12e-04	0	57	0	163577856	54	5756
2026-01-29 10:25:57.66	179.36	13.91	-41.6	-45.5	12.1	2.82e-04	0	57	0	165675008	54	5786
2026-01-29 10:25:58.67	179.41	14.01	-41.5	-45.5	12.1	2.65e-04	0	57	0	166723584	54	5755
2026-01-29 10:25:59.68	179.46	14.12	-41.6	-45.5	12.1	2.62e-04	0	57	0	168820736	54	5771
2026-01-29 10:26:00.68	179.51	14.22	-41.6	-45.7	12.0	3.28e-04	0	57	0	170917888	54	5859
2026-01-29 10:26:01.70	179.57	14.32	-41.6	-45.5	12.1	2.54e-04	0	57	0	173015040	54	5771
2026-01-29 10:26:02.71	179.62	14.42	-41.6	-45.6	12.0	2.62e-04	0	58	0	175112192	54	5837
2026-01-29 10:26:03.72	179.67	14.52	-41.7	-45.7	12.0	3.43e-04	0	57	0	176160768	54	5871
2026-01-29 10:26:04.73	179.72	14.63	-41.6	-45.6	12.0	3.12e-04	0	57	0	178257920	54	5837
2026-01-29 10:26:05.74	179.77	14.73	-41.6	-45.7	12.0	2.67e-04	0	58	0	180355072	54	5890
2026-01-29 10:26:06.75	179.82	14.84	-41.7	-45.7	11.9	3.60e-04	0	58	0	182452224	54	5923
2026-01-29 10:26:07.76	179.88	14.94	-41.7	-45.8	11.9	3.42e-04	0	58	0	184549376	54	5925
2026-01-29 10:26:08.77	179.93	15.05	-41.7	-45.8	11.8	3.92e-04	0	58	0	186646528	54	5979
2026-01-29 10:26:09.78	179.98	15.15	-41.7	-45.8	11.9	4.26e-04	0	57	0	187695104	54	5968
2026-01-29 10:26:10.79	180.04	15.26	-41.7	-45.8	11.8	4.68e-04	0	57	0	189792256	54	5990
2026-01-29 10:26:11.80	180.09	15.36	-41.7	-45.8	11.9	4.17e-04	0	58	0	191889408	54	5950
2026-01-29 10:26:12.81	180.15	15.47	-41.7	-45.8	11.9	4.03e-04	0	58	0	193986560	54	5957
2026-01-29 10:26:13.82	180.20	15.58	-41.8	-45.9	11.8	4.15e-04	0	58	0	196083712	54	6002
2026-01-29 10:26:14.83	180.26	15.69	-41.7	-45.7	12.0	3.83e-04	0	58	0	197132288	54	5906
2026-01-29 10:26:15.84	180.31	15.79	-41.7	-45.7	12.0	3.02e-04	0	58	0	199229440	54	5861
2026-01-29 10:26:16.85	180.37	15.90	-41.7	-45.7	12.1	2.75e-04	0	58	0	201326592	54	5856
2026-01-29 10:26:17.86	180.43	16.01	-41.7	-45.6	12.1	2.84e-04	0	58	0	203423744	54	5851
2026-01-29 10:26:18.87	180.48	16.12	-41.6	-45.6	12.1	3.07e-04	0	58	0	205520896	54	5790
2026-01-29 10:26:19.88	180.54	16.23	-41.6	-45.6	12.2	2.45e-04	0	58	0	206569472	54	5819
2026-01-29 10:26:20.89	180.60	16.34	-41.7	-45.6	12.1	2.35e-04	0	58	0	208666624	54	5845
2026-01-29 10:26:21.90	180.66	16.45	-41.7	-45.7	12.0	2.66e-04	0	58	0	210763776	54	5919
2026-01-29 10:26:22.91	180.72	16.56	-41.7	-45.7	12.1	3.00e-04	0	58	0	212860928	54	5862
2026-01-29 10:26:23.92	180.77	16.68	-41.7	-45.7	12.0	2.78e-04	0	58	0	214958080	54	5909
2026-01-29 10:26:24.93	180.83	16.79	-41.7	-45.7	12.1	3.18e-04	0	58	0	216006656	54	5884
2026-01-29 10:26:25.94	180.89	16.90	-41.7	-45.6	12.1	2.79e-04	0	58	0	218103808	54	5830
2026-01-29 10:26:26.95	180.95	17.01	-41.7	-45.6	12.2	2.53e-04	0	58	0	220200960	54	5818
2026-01-29 10:26:27.96	181.02	17.13	-41.7	-45.7	12.1	2.79e-04	0	58	0	222298112	54	5886
2026-01-29 10:26:28.97	181.08	17.24	-41.7	-45.7	12.0	2.59e-04	0	58	0	224395264	54	5893
2026-01-29 10:26:29.98	181.14	17.36	-41.8	-45.8	12.0	3.42e-04	0	58	0	225443840	54	5928
2026-01-29 10:26:30.99	181.20	17.47	-41.7	-45.6	12.2	2.55e-04	0	58	0	227540992	54	5830
2026-01-29 10:26:32.00	181.26	17.59	-41.7	-45.7	12.1	2.66e-04	0	58	0	229638144	54	5892
2026-01-29 10:26:33.01	181.33	17.71	-41.7	-45.7	12.1	2.94e-04	0	58	0	231735296	54	5891
2026-01-29 10:26:34.02	181.39	17.82	-41.7	-45.7	12.1	3.25e-04	0	58	0	233832448	54	5894
2026-01-29 10:26:35.03	181.45	17.94	-41.8	-45.7	12.1	2.96e-04	0	58	0	234881024	54	5910
2026-01-29 10:26:36.05	181.52	18.06	-41.7	-45.7	12.1	2.51e-04	0	58	0	236978176	54	5885
2026-01-29 10:26:37.05	181.58	18.18	-41.8	-45.8	12.0	2.89e-04	0	58	0	239075328	54	5992
2026-01-29 10:26:38.06	181.65	18.30	-41.8	-45.7	12.1	3.46e-04	0	58	0	241172480	54	5917
2026-01-29 10:26:39.07	181.71	18.42	-41.7	-45.6	12.2	2.68e-04	0	58	0	243269632	54	5854
2026-01-29 10:26:40.08	181.78	18.54	-41.7	-45.6	12.2	2.03e-04	0	58	0	244318208	54	5830
2026-01-29 10:26:41.09	181.85	18.66	-41.7	-45.6	12.2	2.30e-04	0	58	0	246415360	54	5828
2026-01-29 10:26:42.10	181.91	18.78	-41.7	-45.6	12.2	2.12e-04	0	58	0	248512512	54	5825
2026-01-29 10:26:43.11	181.98	18.90	-41.7	-45.7	12.1	2.38e-04	0	58	0	250609664	54	5888
2026-01-29 10:26:44.12	182.05	19.02	-41.7	-45.6	12.2	1.98e-04	0	58	0	252706816	54	5835
2026-01-29 10:26:45.13	182.12	19.15	-41.7	-45.7	12.1	2.29e-04	0	58	0	254803968	54	5888
2026-01-29 10:26:46.14	182.19	19.27	-41.7	-45.6	12.3	2.09e-04	0	58	0	255852544	54	5815
2026-01-29 10:26:47.15	182.26	19.39	-41.7	-45.6	12.3	1.65e-04	0	58	0	257949696	54	5798
2026-01-29 10:26:48.16	182.33	19.52	-41.7	-45.5	12.3	1.91e-04	0	58	0	260046848	54	5774
2026-01-29 10:26:49.17	182.40	19.64	-41.7	-45.6	12.3	2.04e-04	0	58	0	262144000	54	5801
2026-01-29 10:26:50.18	182.47	19.77	-41.7	-45.7	12.2	2.02e-04	0	58	0	264241152	54	5856
2026-01-29 10:26:51.19	182.54	19.90	-41.8	-45.7	12.1	2.10e-04	0	58	0	265289728	54	5923
2026-01-29 10:26:52.20	182.62	20.02	-41.8	-45.8	12.1	2.59e-04	0	58	0	267386880	54	5950
2026-01-29 10:26:53.21	182.69	20.15	-41.8	-45.9	12.0	3.21e-04	0	58	0	269484032	54	6025
2026-01-29 10:26:54.22	182.76	20.28	-41.9	-46.0	11.9	4.01e-04	0	58	0	271581184	54	6074
2026-01-29 10:26:55.23	182.84	20.41	-41.9	-46.0	11.9	3.81e-04	0	58	0	273678336	54	6111
2026-01-29 10:26:56.25	182.91	20.54	-41.9	-46.0	11.8	4.41e-04	0	58	0	274726912	54	6106
2026-01-29 10:26:57.26	182.99	20.67	-42.0	-46.1	11.7	5.14e-04	0	58	0	276824064	54	6182
2026-01-29 10:26:58.27	183.07	20.80	-41.9	-46.1	11.8	4.73e-04	0	58	0	278921216	54	6146
2026-01-29 10:26:59.28	183.14	20.93	-41.9	-46.0	11.9	3.61e-04	0	58	0	281018368	54	6075
2026-01-29 10:27:00.29	183.22	21.07	-41.9	-45.9	12.0	3.61e-04	0	58	0	283115520	54	6032
2026-01-29 10:27:01.29	183.30	21.20	-41.8	-45.8	12.1	3.19e-04	0	58	0	284164096	54	5958
2026-01-29 10:27:02.31	183.38	21.33	-41.8	-45.8	12.1	2.62e-04	0	58	0	286261248	54	5946
2026-01-29 10:27:03.32	183.46	21.47	-41.8	-45.7	12.2	2.34e-04	0	58	0	288358400	54	5916
2026-01-29 10:27:04.33	183.54	21.60	-41.8	-45.8	12.1	2.37e-04	0	58	0	290455552	54	5933
2026-01-29 10:27:05.33	183.62	21.74	-41.7	-45.6	12.3	1.92e-04	0	58	0	292552704	54	5849
2026-01-29 10:27:06.34	183.70	21.87	-41.8	-45.6	12.3	1.69e-04	0	58	0	294649856	54	5833
2026-01-29 10:27:07.35	183.78	22.01	-41.7	-45.6	12.4	1.43e-04	0	58	0	295698432	54	5797
2026-01-29 10:27:08.36	183.86	22.15	-41.7	-45.5	12.4	1.38e-04	0	58	0	297795584	54	5771
2026-01-29 10:27:09.37	183.95	22.28	-41.7	-45.5	12.5	1.26e-04	0	59	0	299892736	54	5730
2026-01-29 10:27:10.38	184.03	22.42	-41.7	-45.4	12.5	1.45e-04	0	58	0	301989888	54	5711
2026-01-29 10:27:11.39	184.12	22.56	-41.6	-45.3	12.6	9.15e-05	0	58	0	303038464	54	5634
2026-01-29 10:27:12.40	184.20	22.70	-41.6	-45.3	12.6	9.68e-05	0	58	0	305135616	54	5624
2026-01-29 10:27:13.41	184.29	22.84	-41.5	-45.2	12.7	7.09e-05	0	58	0	307232768	54	5553
2026-01-29 10:27:14.42	184.38	22.99	-41.5	-45.2	12.8	5.79e-05	0	59	0	309329920	54	5549
2026-01-29 10:27:15.43	184.46	23.13	-41.6	-45.2	12.7	7.47e-05	0	58	0	311427072	54	5589
2026-01-29 10:27:16.44	184.55	23.27	-41.5	-45.1	12.8	7.32e-05	0	59	0	312475648	54	5519
2026-01-29 10:27:17.45	184.64	23.42	-41.5	-45.1	12.9	6.71e-05	0	58	0	314572800	54	5476
2026-01-29 10:27:18.46	184.73	23.56	-41.4	-45.0	13.0	3.89e-05	0	58	0	316669952	54	5418
2026-01-29 10:27:19.47	184.82	23.71	-41.4	-44.9	13.1	2.74e-05	0	58	0	318767104	54	5359
2026-01-29 10:27:20.48	184.92	23.85	-41.4	-44.9	13.1	2.67e-05	0	59	0	320864256	54	5384
2026-01-29 10:27:21.49	185.01	24.00	-41.4	-44.9	13.1	2.74e-05	0	59	0	322961408	54	5395
2026-01-29 10:27:22.50	185.10	24.15	-41.3	-44.8	13.2	2.67e-05	0	58	0	324009984	54	5300
2026-01-29 10:27:23.51	185.20	24.29	-41.3	-44.8	13.3	1.98e-05	0	59	0	326107136	54	5284
2026-01-29 10:27:24.52	185.29	24.44	-41.2	-44.6	13.4	1.06e-05	0	58	0	328204288	54	5202
2026-01-29 10:27:25.53	185.39	24.59	-41.2	-44.5	13.5	6.10e-06	0	59	0	330301440	54	5144
2026-01-29 10:27:26.53	185.48	24.74	-41.3	-44.6	13.4	1.37e-05	0	58	0	332398592	54	5197
2026-01-29 10:27:27.54	185.58	24.89	-41.3	-44.6	13.5	1.06e-05	0	58	0	333447168	54	5187
2026-01-29 10:27:28.55	185.68	25.05	-41.2	-44.6	13.5	1.14e-05	0	59	0	335544320	54	5181
2026-01-29 10:27:29.56	185.78	25.20	-41.2	-44.5	13.5	9.10e-06	0	58	0	337641472	54	5132
2026-01-29 10:27:30.57	185.88	25.35	-41.2	-44.5	13.5	3.80e-06	0	59	0	339738624	54	5137
2026-01-29 10:27:31.58	185.98	25.51	-41.2	-44.4	13.6	1.14e-05	0	58	0	341835776	54	5100
2026-01-29 10:27:32.59	186.09	25.66	-41.1	-44.3	13.8	3.80e-06	0	58	0	342884352	54	4988
2026-01-29 10:27:33.60	186.19	25.82	-41.0	-44.2	13.8	6.10e-06	0	59	0	344981504	54	4975
2026-01-29 10:27:34.61	186.29	25.98	-41.1	-44.3	13.8	3.80e-06	0	59	0	347078656	54	4998
2026-01-29 10:27:35.62	186.40	26.14	-41.1	-44.3	13.7	3.00e-06	0	59	0	349175808	54	5027
2026-01-29 10:27:36.63	186.51	26.29	-41.0	-44.2	13.8	6.80e-06	0	59	0	351272960	54	4960
2026-01-29 10:27:37.64	186.62	26.45	-41.1	-44.3	13.8	1.50e-06	0	58	0	352321536	54	4999
2026-01-29 10:27:38.65	186.72	26.62	-41.1	-44.3	13.8	3.80e-06	0	59	0	354418688	54	5009
2026-01-29 10:27:39.66	186.83	26.78	-41.1	-44.3	13.8	7.60e-06	0	59	0	356515840	54	5002
2026-01-29 10:27:40.67	186.94	26.94	-41.2	-44.5	13.6	4.50e-06	0	59	0	358612992	54	5112
2026-01-29 10:27:41.68	187.06	27.10	-41.2	-44.5	13.6	6.80e-06	0	59	0	360710144	54	5114
2026-01-29 10:27:42.69	187.17	27.27	-41.2	-44.4	13.7	6.10e-06	0	58	0	362807296	54	5095
2026-01-29 10:27:43.70	187.28	27.43	-41.2	-44.5	13.6	6.80e-06	0	58	0	363855872	54	5119
2026-01-29 10:27:44.71	187.40	27.60	-41.3	-44.7	13.4	6.80e-06	0	59	0	365953024	54	5239
2026-01-29 10:27:45.72	187.52	27.76	-41.3	-44.7	13.4	1.83e-05	0	59	0	368050176	54	5236
2026-01-29 10:27:46.73	187.63	27.93	-41.4	-44.8	13.3	1.52e-05	0	59	0	370147328	54	5305
2026-01-29 10:27:47.74	187.75	28.10	-41.4	-44.9	13.2	2.59e-05	0	59	0	372244480	54	5372
2026-01-29 10:27:48.75	187.87	28.27	-41.5	-45.0	13.1	2.44e-05	0	59	0	373293056	54	5448
2026-01-29 10:27:49.76	188.00	28.44	-41.5	-45.1	13.0	4.19e-05	0	59	0	375390208	54	5490
2026-01-29 10:27:50.77	188.12	28.61	-41.6	-45.1	13.0	3.66e-05	0	59	0	377487360	54	5501
2026-01-29 10:27:51.78	188.24	28.78	-41.7	-45.3	12.8	4.50e-05	0	59	0	379584512	54	5628
2026-01-29 10:27:52.79	188.37	28.95	-41.7	-45.4	12.7	7.55e-05	0	59	0	380633088	54	5688
2026-01-29 10:27:53.80	188.49	29.13	-41.7	-45.4	12.7	8.01e-05	0	59	0	382730240	54	5720
2026-01-29 10:27:54.81	188.62	29.30	-41.8	-45.7	12.4	9.99e-05	0	59	0	384827392	54	5860
2026-01-29 10:27:55.82	188.75	29.48	-41.8	-45.7	12.4	1.43e-04	0	59	0	386924544	54	5875
2026-01-29 10:27:56.83	188.88	29.66	-41.9	-45.8	12.3	1.60e-04	0	59	0	389021696	54	5956
2026-01-29 10:27:57.84	189.01	29.83	-41.9	-45.8	12.3	2.04e-04	0	59	0	391118848	54	5991
2026-01-29 10:27:58.85	189.15	30.01	-41.9	-45.9	12.2	1.81e-04	0	59	0	392167424	54	5993
2026-01-29 10:27:59.86	189.28	30.19	-42.0	-46.0	12.1	2.01e-04	0	59	0	394264576	54	6077
2026-01-29 10:28:00.86	189.42	30.37	-42.0	-46.1	12.0	3.00e-04	0	59	0	396361728	54	6154
2026-01-29 10:28:01.87	189.56	30.55	-42.2	-46.3	11.8	3.95e-04	0	59	0	398458880	54	6297
2026-01-29 10:28:02.88	189.70	30.73	-42.2	-46.4	11.6	5.99e-04	0	59	0	400556032	55	6044
2026-01-29 10:28:03.89	189.84	30.92	-42.4	-46.7	11.3	9.01e-04	0	59	0	401604608	55	6250
2026-01-29 10:28:04.90	189.98	31.10	-42.5	-46.9	11.1	1.39e-03	0	59	0	403701760	55	6410
2026-01-29 10:28:05.91	190.12	31.29	-42.6	-47.2	10.8	1.94e-03	0	59	0	405798912	55	6646
2026-01-29 10:28:06.92	190.27	31.47	-42.6	-47.4	10.6	2.92e-03	0	59	0	407896064	55	6774
2026-01-29 10:28:07.93	190.42	31.66	-42.7	-47.6	10.5	3.74e-03	0	59	0	409993216	55	6886
2026-01-29 10:28:08.94	190.57	31.85	-43.0	-48.0	10.2	4.60e-03	0	59	0	411041792	56	6816
2026-01-29 10:28:09.95	190.72	32.04	-43.0	-48.1	10.1	6.24e-03	0	59	0	413138944	56	6893
2026-01-29 10:28:10.96	190.87	32.23	-43.1	-48.2	9.9	7.63e-03	0	59	0	415236096	56	7006
2026-01-29 10:28:11.97	191.02	32.42	-43.1	-48.3	9.8	9.85e-03	0	59	0	417333248	56	7112
2026-01-29 10:28:12.98	191.18	32.61	-43.1	-48.5	9.7	1.02e-02	0	59	0	419430400	56	7205
2026-01-29 10:28:13.99	191.34	32.81	-43.2	-48.6	9.6	1.24e-02	0	59	0	420478976	56	7323
2026-01-29 10:28:15.00	191.50	33.00	-43.1	-48.4	9.8	1.17e-02	0	59	0	422576128	56	7189
2026-01-29 10:28:16.01	191.66	33.20	-43.1	-48.4	9.8	1.09e-02	0	59	0	424673280	56	7144
2026-01-29 10:28:17.02	191.82	33.39	-43.1	-48.3	9.9	9.00e-03	0	59	0	426770432	56	7113
2026-01-29 10:28:18.03	191.99	33.59	-43.1	-48.2	10.0	8.03e-03	0	59	0	428867584	56	7027
2026-01-29 10:28:19.04	192.16	33.79	-43.1	-48.4	9.8	9.67e-03	0	59	0	429916160	56	7160
2026-01-29 10:28:20.05	192.32	33.99	-43.1	-48.2	10.1	7.90e-03	0	59	0	432013312	56	7025
2026-01-29 10:28:21.06	192.50	34.19	-43.1	-48.3	9.9	8.76e-03	0	59	0	434110464	56	7104
2026-01-29 10:28:22.07	192.67	34.39	-43.1	-48.2	10.0	8.39e-03	0	59	0	436207616	56	7033
2026-01-29 10:28:23.08	192.85	34.59	-43.1	-48.2	10.0	7.70e-03	0	59	0	438304768	56	7039
2026-01-29 10:28:24.09	193.02	34.80	-43.0	-48.1	10.1	7.19e-03	0	59	0	439353344	56	6925
2026-01-29 10:28:25.10	193.20	35.00	-43.0	-48.1	10.2	6.69e-03	0	59	0	441450496	56	6900
2026-01-29 10:28:26.11	193.39	35.21	-43.0	-48.1	10.2	5.79e-03	0	59	0	443547648	56	6911
2026-01-29 10:28:27.12	193.57	35.41	-43.0	-48.2	10.1	6.94e-03	0	59	0	445644800	56	6985
2026-01-29 10:28:28.13	193.76	35.62	-43.1	-48.3	9.9	8.93e-03	0	59	0	447741952	56	7113
2026-01-29 10:28:29.14	193.95	35.83	-43.1	-48.4	9.8	9.93e-03	0	59	0	448790528	56	7155
2026-01-29 10:28:30.15	194.14	36.04	-43.2	-48.6	9.7	1.09e-02	0	59	0	450887680	56	7289
2026-01-29 10:28:31.16	194.33	36.25	-43.2	-48.5	9.7	1.16e-02	0	59	0	452984832	57	6856
2026-01-29 10:28:32.16	194.53	36.46	-43.2	-48.6	9.7	1.16e-02	0	59	0	455081984	57	6894
2026-01-29 10:28:33.17	194.72	36.67	-43.1	-48.4	9.9	9.15e-03	0	59	0	457179136	57	6759
2026-01-29 10:28:34.18	194.93	36.89	-43.1	-48.4	9.9	9.53e-03	0	59	0	459276288	57	6734
2026-01-29 10:28:35.19	195.13	37.10	-43.1	-48.3	9.9	1.00e-02	0	59	0	460324864	57	6714
2026-01-29 10:28:36.20	195.34	37.32	-43.2	-48.5	9.8	9.65e-03	0	59	0	462422016	57	6811
2026-01-29 10:28:37.21	195.55	37.53	-43.2	-48.5	9.7	1.20e-02	0	59	0	464519168	57	6818
2026-01-29 10:28:38.22	195.76	37.75	-43.2	-48.4	9.8	9.85e-03	0	59	0	466616320	57	6788
2026-01-29 10:28:39.23	195.97	37.97	-43.1	-48.2	10.1	9.37e-03	0	59	0	468713472	57	6606
2026-01-29 10:28:40.24	196.19	38.19	-43.0	-48.1	10.2	5.48e-03	0	59	0	469762048	57	6508
2026-01-29 10:28:41.25	196.41	38.41	-42.9	-47.8	10.5	5.17e-03	0	59	0	471859200	57	6338
2026-01-29 10:28:42.25	196.63	38.63	-42.9	-47.7	10.7	3.64e-03	0	59	0	473956352	57	6203
2026-01-29 10:28:43.26	196.86	38.85	-42.9	-47.6	10.7	2.87e-03	0	59	0	476053504	57	6185
2026-01-29 10:28:44.27	197.09	39.08	-42.9	-47.8	10.5	3.15e-03	0	59	0	478150656	57	6332
2026-01-29 10:28:45.28	197.32	39.30	-43.0	-48.0	10.3	5.03e-03	0	59	0	479199232	57	6482
2026-01-29 10:28:46.29	197.56	39.53	-43.0	-47.9	10.4	3.96e-03	0	59	0	481296384	57	6369
2026-01-29 10:28:47.30	197.80	39.75	-42.9	-47.7	10.6	4.19e-03	0	59	0	483393536	57	6254
2026-01-29 10:28:48.31	198.04	39.98	-42.9	-47.7	10.6	3.72e-03	0	59	0	485490688	57	6238
2026-01-29 10:28:49.32	198.29	40.21	-42.8	-47.5	10.8	2.65e-03	0	59	0	487587840	57	6098
2026-01-29 10:28:50.33	198.54	40.44	-42.6	-47.3	11.1	1.88e-03	0	59	0	488636416	56	6301
2026-01-29 10:28:51.35	198.79	40.67	-42.5	-46.9	11.4	1.18e-03	0	59	0	490733568	56	6033
2026-01-29 10:28:52.36	199.05	40.90	-42.6	-46.9	11.5	7.55e-04	0	59	0	492830720	56	5999
2026-01-29 10:28:53.37	199.31	41.13	-42.5	-46.7	11.7	6.75e-04	0	59	0	494927872	56	5881
2026-01-29 10:28:54.38	199.57	41.36	-42.3	-46.3	12.1	3.55e-04	0	59	0	497025024	56	5627
2026-01-29 10:28:55.39	199.84	41.60	-42.2	-46.2	12.3	2.43e-04	0	59	0	498073600	56	5531
2026-01-29 10:28:56.40	200.11	41.83	-42.1	-45.9	12.5	1.47e-04	0	59	0	500170752	56	5376
2026-01-29 10:28:57.41	200.39	42.07	-42.2	-46.0	12.4	9.91e-05	0	59	0	502267904	56	5444
2026-01-29 10:28:58.42	200.67	42.30	-42.3	-46.2	12.2	1.67e-04	0	59	0	504365056	56	5562
2026-01-29 10:28:59.43	200.95	42.54	-42.4	-46.4	12.1	3.04e-04	0	59	0	506462208	56	5658
2026-01-29 10:29:00.44	201.24	42.78	-42.5	-46.8	11.6	5.23e-04	0	59	0	507510784	56	5961
2026-01-29 10:29:01.44	201.53	43.01	-42.5	-46.7	11.7	6.65e-04	0	59	0	509607936	56	5888
2026-01-29 10:29:02.45	201.82	43.25	-42.4	-46.5	11.9	3.66e-04	0	59	0	511705088	56	5735
2026-01-29 10:29:03.46	202.12	43.49	-42.3	-46.2	12.1	2.83e-04	0	59	0	513802240	56	5591
2026-01-29 10:29:04.48	202.43	43.73	-42.3	-46.2	12.2	2.06e-04	0	59	0	515899392	56	5573
2026-01-29 10:29:05.49	202.74	43.97	-42.4	-46.5	11.9	3.68e-04	0	59	0	516947968	56	5747
2026-01-29 10:29:06.50	203.05	44.21	-42.6	-47.0	11.5	5.89e-04	0	59	0	519045120	56	6084
2026-01-29 10:29:07.51	203.37	44.45	-42.7	-47.3	11.1	1.09e-03	0	59	0	521142272	56	6291
2026-01-29 10:29:08.52	203.70	44.70	-42.9	-47.7	10.6	3.10e-03	0	59	0	523239424	56	6646
2026-01-29 10:29:09.53	204.03	44.94	-43.0	-47.9	10.5	3.25e-03	0	59	0	525336576	56	6729
2026-01-29 10:29:10.54	204.36	45.18	-42.9	-47.7	10.7	2.94e-03	0	59	0	527433728	56	6613
2026-01-29 10:29:11.55	204.70	45.43	-42.9	-47.8	10.5	3.59e-03	0	59	0	528482304	56	6681
2026-01-29 10:29:12.56	205.04	45.67	-43.0	-47.9	10.4	3.90e-03	0	59	0	530579456	56	6787
2026-01-29 10:29:13.56	205.39	45.91	-43.0	-47.9	10.4	4.55e-03	0	59	0	532676608	56	6775
2026-01-29 10:29:14.57	205.74	46.16	-42.9	-47.7	10.7	3.31e-03	0	59	0	534773760	56	6594
2026-01-29 10:29:15.58	206.10	46.40	-42.9	-47.7	10.7	2.70e-03	0	59	0	536870912	56	6613
2026-01-29 10:29:16.59	206.47	46.65	-42.9	-47.7	10.6	2.83e-03	0	59	0	537919488	56	6582
2026-01-29 10:29:17.60	206.84	46.89	-43.0	-48.1	10.2	4.00e-03	0	59	0	540016640	56	6941
2026-01-29 10:29:18.61	207.21	47.14	-43.2	-48.6	9.7	8.66e-03	0	59	0	542113792	57	6936
2026-01-29 10:29:19.62	207.60	47.38	-43.4	-48.9	9.4	1.67e-02	0	59	0	544210944	57	7200
2026-01-29 10:29:20.63	207.99	47.63	-43.3	-48.7	9.6	1.36e-02	0	59	0	546308096	57	6987
2026-01-29 10:29:21.64	208.38	47.87	-43.1	-48.2	10.1	8.67e-03	0	59	0	547356672	57	6627
2026-01-29 10:29:22.65	208.78	48.12	-43.0	-47.9	10.4	4.45e-03	0	59	0	549453824	57	6378
2026-01-29 10:29:23.66	209.19	48.36	-43.0	-47.8	10.5	3.26e-03	0	59	0	551550976	57	6308
2026-01-29 10:29:24.67	209.60	48.61	-43.0	-48.1	10.2	5.48e-03	0	59	0	553648128	57	6558
2026-01-29 10:29:25.69	210.03	48.86	-43.3	-48.7	9.6	9.99e-03	0	59	0	555745280	57	7010
2026-01-29 10:29:26.70	210.46	49.10	-43.5	-49.3	8.9	1.90e-02	0	59	0	556793856	57	7525
2026-01-29 10:29:27.71	210.89	49.34	-43.5	-49.3	9.0	2.97e-02	0	60	0	558891008	57	7509
2026-01-29 10:29:28.71	211.33	49.59	-43.4	-49.0	9.3	1.95e-02	0	59	0	560988160	57	7262
2026-01-29 10:29:29.73	211.78	49.83	-43.3	-48.7	9.6	1.58e-02	0	59	0	563085312	57	7014
2026-01-29 10:29:30.74	212.23	50.07	-43.2	-48.4	9.9	1.16e-02	0	59	0	565182464	57	6777
2026-01-29 10:29:31.74	212.69	50.31	-43.1	-48.2	10.1	8.02e-03	0	59	0	567279616	57	6596
2026-01-29 10:29:32.75	213.16	50.56	-43.0	-47.9	10.4	5.43e-03	0	59	0	568328192	57	6374
2026-01-29 10:29:33.76	213.64	50.80	-42.9	-47.8	10.6	3.95e-03	0	59	0	570425344	57	6276
2026-01-29 10:29:34.77	214.12	51.04	-43.0	-47.8	10.5	4.34e-03	0	59	0	572522496	57	6331
2026-01-29 10:29:35.79	214.62	51.28	-42.6	-47.1	11.3	1.66e-03	0	59	0	574619648	57	5794
2026-01-29 10:29:36.80	215.12	51.51	-42.3	-46.5	12.0	7.24e-04	0	59	0	576716800	56	5728
2026-01-29 10:29:37.81	215.63	51.75	-42.3	-46.3	12.1	3.91e-04	0	59	0	577765376	56	5648
2026-01-29 10:29:38.82	216.14	51.99	-42.2	-46.2	12.2	2.21e-04	0	59	0	579862528	56	5540
2026-01-29 10:29:39.83	216.67	52.22	-42.3	-46.2	12.1	2.78e-04	0	59	0	581959680	56	5574
2026-01-29 10:29:40.84	217.20	52.45	-42.0	-45.9	12.4	2.06e-04	0	59	0	584056832	55	5675
2026-01-29 10:29:41.85	217.74	52.69	-41.9	-45.7	12.5	1.40e-04	0	59	0	586153984	55	5575
2026-01-29 10:29:42.86	218.29	52.92	-41.7	-45.3	12.9	8.39e-05	0	59	0	587202560	55	5330
2026-01-29 10:29:43.87	218.85	53.14	-41.6	-45.0	13.3	2.89e-05	0	59	0	589299712	55	5143
2026-01-29 10:29:44.88	219.42	53.37	-41.4	-44.7	13.6	1.22e-05	0	59	0	591396864	54	5265
2026-01-29 10:29:45.89	219.99	53.60	-41.3	-44.6	13.8	4.50e-06	0	59	0	593494016	54	5170
2026-01-29 10:29:46.90	220.58	53.82	-41.6	-45.0	13.3	7.60e-06	0	59	0	595591168	54	5427
2026-01-29 10:29:47.91	221.17	54.04	-41.8	-45.4	12.9	3.20e-05	0	59	0	596639744	54	5659
2026-01-29 10:29:48.91	221.76	54.26	-41.8	-45.5	12.8	5.18e-05	0	59	0	598736896	54	5735
2026-01-29 10:29:49.92	222.38	54.47	-41.6	-45.0	13.3	3.05e-05	0	59	0	600834048	54	5446
2026-01-29 10:29:50.93	223.00	54.69	-41.4	-44.6	13.7	5.30e-06	0	59	0	602931200	54	5214
2026-01-29 10:29:51.94	223.63	54.90	-41.1	-44.3	14.0	4.50e-06	0	59	0	605028352	54	4990
2026-01-29 10:29:52.95	224.27	55.11	-41.4	-44.7	13.6	6.10e-06	0	59	0	606076928	53	5575
2026-01-29 10:29:53.96	224.91	55.31	-41.6	-45.2	13.1	1.83e-05	0	60	0	608174080	53	5866
2026-01-29 10:29:54.97	225.57	55.52	-41.6	-45.4	12.9	4.34e-05	0	59	0	610271232	54	5669
2026-01-29 10:29:55.98	226.24	55.72	-41.6	-45.1	13.1	5.03e-05	0	59	0	612368384	54	5522
2026-01-29 10:29:57.00	226.92	55.92	-41.7	-45.3	13.0	3.28e-05	0	60	0	614465536	54	5636
2026-01-29 10:29:58.01	227.61	56.11	-41.9	-45.6	12.7	4.95e-05	0	59	0	615514112	54	5819
2026-01-29 10:29:59.02	228.30	56.30	-41.9	-45.7	12.5	9.46e-05	0	59	0	617611264	54	5914
2026-01-29 10:30:00.02	229.00	56.49	-42.0	-45.8	12.5	1.46e-04	0	60	0	619708416	54	5968
2026-01-29 10:30:01.03	229.72	56.67	-42.1	-46.0	12.2	1.63e-04	0	59	0	621805568	54	6111
2026-01-29 10:30:02.04	230.44	56.85	-42.1	-46.0	12.2	1.76e-04	0	59	0	623902720	54	6098
2026-01-29 10:30:03.06	231.18	57.03	-42.0	-45.9	12.3	1.87e-04	0	59	0	624951296	54	6043
2026-01-29 10:30:04.07	231.93	57.20	-42.0	-46.0	12.4	1.35e-04	0	59	0	627048448	54	6070
2026-01-29 10:30:05.08	232.68	57.37	-42.2	-46.2	12.0	2.72e-04	0	59	0	629145600	54	6240
2026-01-29 10:30:06.09	233.44	57.53	-42.0	-46.5	11.7	4.78e-04	0	59	0	631242752	55	6120
2026-01-29 10:30:07.10	234.21	57.69	-42.3	-46.6	11.6	7.99e-04	0	59	0	633339904	55	6177
2026-01-29 10:30:08.11	234.99	57.85	-42.1	-46.1	12.1	3.04e-04	0	59	0	635437056	55	5834
2026-01-29 10:30:09.12	235.78	58.00	-42.1	-46.1	12.2	2.68e-04	0	59	0	636485632	55	5832
2026-01-29 10:30:10.13	236.57	58.15	-42.4	-46.7	11.6	5.52e-04	0	59	0	638582784	55	6227
2026-01-29 10:30:11.14	237.38	58.29	-42.4	-46.7	11.5	8.15e-04	0	59	0	640679936	55	6216
2026-01-29 10:30:12.15	238.19	58.42	-42.3	-46.4	11.8	7.38e-04	0	59	0	642777088	55	6036
2026-01-29 10:30:13.16	239.01	58.55	-42.1	-46.1	12.1	3.58e-04	0	59	0	644874240	55	5843
2026-01-29 10:30:14.17	239.84	58.68	-42.1	-46.0	12.2	3.20e-04	0	59	0	645922816	55	5780
2026-01-29 10:30:15.18	240.68	58.80	-41.6	-45.9	12.4	1.37e-04	0	59	0	648019968	55	5658
2026-01-29 10:30:16.19	241.53	58.92	-42.0	-45.8	12.5	1.17e-04	0	59	0	650117120	55	5595
2026-01-29 10:30:17.20	242.38	59.03	-41.9	-45.8	12.5	1.11e-04	0	60	0	652214272	55	5595
2026-01-29 10:30:18.21	243.24	59.13	-41.8	-45.5	12.7	1.04e-04	0	59	0	654311424	54	5788
2026-01-29 10:30:19.22	244.10	59.23	-41.7	-45.4	12.9	5.95e-05	0	59	0	655360000	54	5700
2026-01-29 10:30:20.23	244.97	59.32	-41.9	-45.6	12.6	7.93e-05	0	59	0	657457152	54	5854
2026-01-29 10:30:21.24	245.85	59.41	-42.3	-46.5	11.9	2.72e-04	0	59	0	659554304	55	6110
2026-01-29 10:30:22.25	246.74	59.49	-42.1	-47.1	11.1	9.09e-04	0	59	0	661651456	55	6500
2026-01-29 10:30:23.26	247.62	59.56	-42.3	-46.6	11.6	1.02e-03	0	59	0	663748608	55	6151
2026-01-29 10:30:24.27	248.52	59.63	-42.1	-46.1	12.1	3.72e-04	0	59	0	664797184	54	6176
2026-01-29 10:30:25.28	249.42	59.69	-42.1	-46.1	12.1	2.22e-04	0	59	0	666894336	54	6198
2026-01-29 10:30:26.29	250.32	59.75	-42.5	-47.0	11.3	7.07e-04	0	60	0	668991488	55	6449
2026-01-29 10:30:27.30	251.22	59.80	-43.1	-48.2	10.2	3.62e-03	0	59	0	671088640	56	6975
2026-01-29 10:30:28.31	252.13	59.84	-43.1	-48.5	9.8	1.31e-02	0	59	0	673185792	57	6838
2026-01-29 10:30:29.32	253.04	59.88	-42.6	-47.7	10.6	5.58e-03	0	59	0	674234368	56	6615
2026-01-29 10:30:30.33	253.96	59.91	-42.7	-47.1	11.2	1.50e-03	0	60	0	676331520	56	6191
2026-01-29 10:30:31.34	254.87	59.94	-42.7	-47.1	11.3	1.04e-03	0	59	0	678428672	56	6155
2026-01-29 10:30:32.35	255.79	59.95	-42.9	-47.7	10.5	1.70e-03	0	59	0	680525824	56	6629
2026-01-29 10:30:33.36	256.71	59.96	-43.0	-47.9	10.5	4.22e-03	0	59	0	682622976	56	6736
2026-01-29 10:30:34.37	257.63	59.97	-42.2	-46.9	11.5	1.68e-03	0	60	0	683671552	56	6035
2026-01-29 10:30:35.38	258.55	59.97	-42.3	-46.4	12.0	4.91e-04	0	59	0	685768704	56	5686
2026-01-29 10:30:36.40	259.47	59.96	-42.4	-46.4	11.9	3.68e-04	0	59	0	687865856	56	5719
2026-01-29 10:30:37.41	260.39	59.94	-42.4	-46.5	11.9	4.96e-04	0	59	0	689963008	56	5740
2026-01-29 10:30:38.42	261.31	59.92	-42.1	-45.9	12.5	2.91e-04	0	60	0	692060160	56	5388
2026-01-29 10:30:39.43	262.22	59.89	-41.8	-45.5	12.7	1.07e-04	0	60	0	693108736	55	5428
2026-01-29 10:30:40.44	263.14	59.86	-41.6	-45.1	13.1	4.27e-05	0	59	0	695205888	55	5218
2026-01-29 10:30:41.45	264.04	59.82	-41.6	-45.1	13.1	3.28e-05	0	59	0	697303040	55	5212
2026-01-29 10:30:42.46	264.95	59.77	-41.9	-45.6	12.8	6.40e-05	0	59	0	699400192	55	5478
2026-01-29 10:30:43.46	265.84	59.72	-42.0	-45.8	12.5	1.46e-04	0	60	0	701497344	55	5603
2026-01-29 10:30:44.48	266.75	59.65	-41.9	-45.6	12.7	4.88e-05	0	59	0	703594496	55	5477
2026-01-29 10:30:45.49	267.65	59.59	-41.9	-45.6	12.6	7.47e-05	0	59	0	704643072	55	5528
2026-01-29 10:30:46.50	268.54	59.52	-42.2	-46.4	11.8	3.13e-04	0	60	0	706740224	55	6027
2026-01-29 10:30:47.50	269.41	59.44	-42.5	-46.9	11.3	8.05e-04	0	60	0	708837376	55	6402
2026-01-29 10:30:48.51	270.29	59.35	-42.6	-47.2	10.9	1.54e-03	0	59	0	710934528	55	6642
2026-01-29 10:30:49.52	271.17	59.26	-43.0	-48.1	10.2	4.39e-03	0	59	0	713031680	56	6891
2026-01-29 10:30:50.53	272.03	59.17	-43.1	-48.4	10.0	6.94e-03	0	59	0	714080256	56	7129
2026-01-29 10:30:51.54	272.89	59.07	-43.0	-47.9	10.4	6.42e-03	0	60	0	716177408	56	6780
2026-01-29 10:30:52.55	273.75	58.96	-43.1	-48.1	10.1	5.35e-03	0	60	0	718274560	56	6958
2026-01-29 10:30:53.56	274.59	58.84	-43.0	-48.0	10.3	6.24e-03	0	60	0	720371712	56	6835
2026-01-29 10:30:54.57	275.43	58.73	-43.0	-47.8	10.4	5.02e-03	0	59	0	722468864	56	6723
2026-01-29 10:30:55.58	276.26	58.60	-43.4	-49.1	9.2	1.19e-02	0	60	0	723517440	57	7288
2026-01-29 10:30:56.59	277.09	58.47	-43.8	-50.6	7.7	6.16e-02	0	60	0	725614592	58	8205
2026-01-29 10:30:57.60	277.90	58.34	-43.8	-50.4	7.8	1.07e-01	0	59	0	727711744	58	8039
2026-01-29 10:30:58.61	278.71	58.20	-43.6	-49.8	8.5	5.03e-02	0	59	0	729808896	58	7487
2026-01-29 10:30:59.62	279.51	58.06	-43.7	-49.9	8.4	3.54e-02	0	60	0	731906048	58	7583
2026-01-29 10:31:00.63	280.30	57.91	-43.7	-50.0	8.1	5.87e-02	0	60	0	732954624	58	7706
2026-01-29 10:31:01.65	281.09	57.75	-43.8	-50.2	8.0	5.99e-02	0	60	0	735051776	58	7854
2026-01-29 10:31:02.66	281.86	57.59	-43.6	-49.6	8.7	4.01e-02	0	59	0	737148928	58	7315
2026-01-29 10:31:03.67	282.62	57.43	-43.5	-49.2	9.0	3.22e-02	0	60	0	739246080	58	7030
2026-01-29 10:31:04.67	283.37	57.27	-43.3	-48.6	9.6	1.87e-02	0	60	0	741343232	58	6569
2026-01-29 10:31:05.69	284.12	57.10	-43.1	-48.0	10.4	6.61e-03	0	60	0	742391808	58	6088
2026-01-29 10:31:06.70	284.86	56.92	-42.7	-47.2	11.2	2.59e-03	0	60	0	744488960	57	5880
2026-01-29 10:31:07.71	285.58	56.74	-42.5	-46.6	11.8	9.67e-04	0	60	0	746586112	56	5830
2026-01-29 10:31:08.71	286.29	56.56	-42.1	-45.8	12.6	1.28e-04	0	60	0	748683264	56	5317
2026-01-29 10:31:09.72	287.00	56.38	-42.2	-46.1	12.4	1.30e-04	0	60	0	750780416	56	5481
2026-01-29 10:31:10.73	287.70	56.19	-42.4	-46.5	11.9	2.53e-04	0	60	0	751828992	56	5747
2026-01-29 10:31:11.74	288.39	56.00	-41.8	-45.3	12.9	1.34e-04	0	60	0	753926144	55	5339
2026-01-29 10:31:12.75	289.07	55.80	-41.0	-44.0	14.3	2.20e-06	0	60	0	756023296	54	4830
2026-01-29 10:31:13.76	289.74	55.60	-40.9	-43.8	14.5	7.00e-07	0	60	0	758120448	53	5016
2026-01-29 10:31:14.77	290.40	55.40	-40.9	-43.8	14.5	2.20e-06	0	59	0	760217600	53	5027
2026-01-29 10:31:15.78	291.05	55.20	-40.8	-43.7	14.6	0.00e+00	0	60	0	761266176	53	4950
2026-01-29 10:31:16.79	291.69	54.99	-40.6	-43.3	15.1	0.00e+00	0	60	0	763363328	53	4711
2026-01-29 10:31:17.80	292.32	54.78	-40.4	-43.0	15.4	0.00e+00	0	59	0	765460480	52	4831
2026-01-29 10:31:18.81	292.94	54.57	-40.4	-43.0	15.3	0.00e+00	0	60	0	767557632	52	4851
2026-01-29 10:31:19.82	293.56	54.35	-40.6	-43.4	14.9	0.00e+00	0	60	0	769654784	52	5088
2026-01-29 10:31:20.83	294.16	54.13	-40.8	-43.7	14.6	7.00e-07	0	60	0	771751936	52	5252
2026-01-29 10:31:21.84	294.76	53.92	-40.5	-43.3	15.1	0.00e+00	0	60	0	772800512	52	4996
2026-01-29 10:31:22.85	295.34	53.69	-40.2	-42.7	15.6	0.00e+00	0	60	0	774897664	52	4695
2026-01-29 10:31:23.86	295.92	53.47	-40.3	-42.9	15.5	0.00e+00	0	59	0	776994816	52	4779
2026-01-29 10:31:24.88	296.50	53.24	-40.8	-43.6	14.7	7.00e-07	0	60	0	779091968	52	5204
2026-01-29 10:31:25.88	297.05	53.02	-41.3	-44.6	13.7	3.00e-06	0	60	0	781189120	53	5487
2026-01-29 10:31:26.89	297.60	52.79	-41.4	-44.8	13.5	7.60e-06	0	60	0	782237696	53	5602
2026-01-29 10:31:27.90	298.15	52.56	-41.0	-44.1	14.2	2.20e-06	0	60	0	784334848	53	5176
2026-01-29 10:31:28.91	298.68	52.33	-40.6	-43.4	14.9	0.00e+00	0	60	0	786432000	53	4790
2026-01-29 10:31:29.92	299.21	52.10	-40.6	-43.3	15.1	0.00e+00	0	60	0	788529152	53	4745
2026-01-29 10:31:30.93	299.73	51.86	-41.0	-44.0	14.4	0.00e+00	0	60	0	790626304	53	5120
2026-01-29 10:31:31.94	300.24	51.63	-41.6	-45.2	13.1	1.52e-05	0	60	0	791674880	53	5880
2026-01-29 10:31:32.95	300.74	51.39	-41.8	-45.5	12.8	4.80e-05	0	60	0	793772032	54	5744
2026-01-29 10:31:33.96	301.23	51.15	-41.5	-44.8	13.5	3.66e-05	0	60	0	795869184	54	5302
2026-01-29 10:31:34.97	301.72	50.91	-41.5	-44.8	13.5	1.06e-05	0	60	0	797966336	54	5328
2026-01-29 10:31:35.98	302.20	50.67	-41.7	-45.3	13.0	9.90e-06	0	60	0	800063488	54	5600
2026-01-29 10:31:36.99	302.67	50.43	-42.2	-46.3	11.9	9.76e-05	0	60	0	801112064	55	5970
2026-01-29 10:31:38.00	303.13	50.19	-42.5	-46.9	11.4	9.78e-04	0	60	0	803209216	55	6362
2026-01-29 10:31:39.01	303.59	49.95	-42.5	-46.8	11.4	1.01e-03	0	60	0	805306368	55	6322
2026-01-29 10:31:40.02	304.04	49.71	-42.3	-46.3	11.9	6.94e-04	0	60	0	807403520	55	5974
2026-01-29 10:31:41.03	304.48	49.47	-42.2	-46.2	12.0	3.20e-04	0	60	0	809500672	55	5875
2026-01-29 10:31:42.03	304.91	49.23	-42.5	-46.8	11.5	5.32e-04	0	60	0	810549248	55	6300
2026-01-29 10:31:43.04	305.34	48.98	-43.5	-49.4	8.9	4.81e-03	0	60	0	812646400	57	7621
2026-01-29 10:31:44.05	305.76	48.74	-44.0	-51.3	7.0	1.33e-01	0	60	0	814743552	58	8909
2026-01-29 10:31:45.06	306.18	48.50	-43.6	-49.8	8.5	9.29e-02	0	60	0	816840704	58	7523
2026-01-29 10:31:46.07	306.59	48.25	-43.0	-47.9	10.4	1.67e-02	0	60	0	818937856	58	6012
2026-01-29 10:31:47.08	306.99	48.01	-42.9	-47.7	10.7	2.82e-03	0	60	0	819986432	57	6215
2026-01-29 10:31:48.09	307.39	47.76	-43.3	-48.6	9.7	8.40e-03	0	59	0	822083584	57	6939
2026-01-29 10:31:49.10	307.78	47.52	-43.5	-49.3	9.0	1.87e-02	0	59	0	824180736	57	7527
2026-01-29 10:31:50.11	308.16	47.28	-43.6	-49.5	8.8	3.49e-02	0	60	0	826277888	57	7709
2026-01-29 10:31:51.12	308.54	47.03	-43.8	-50.3	8.0	4.81e-02	0	60	0	828375040	58	7961
2026-01-29 10:31:52.13	308.92	46.79	-44.0	-51.0	7.3	1.00e-01	0	60	0	829423616	58	8611
2026-01-29 10:31:53.14	309.28	46.54	-43.7	-50.2	8.0	1.12e-01	0	60	0	831520768	58	7831
2026-01-29 10:31:54.15	309.64	46.30	-43.4	-48.8	9.5	2.39e-02	0	60	0	833617920	58	6709
2026-01-29 10:31:55.16	310.00	46.06	-43.0	-47.8	10.5	5.33e-03	0	60	0	835715072	58	5983
2026-01-29 10:31:56.17	310.35	45.81	-43.1	-48.0	10.4	3.31e-03	0	60	0	837812224	57	6460
2026-01-29 10:31:57.18	310.70	45.57	-43.4	-49.1	9.2	1.40e-02	0	60	0	839909376	57	7301
2026-01-29 10:31:58.19	311.04	45.33	-43.7	-50.1	8.2	4.77e-02	0	60	0	840957952	57	8186
2026-01-29 10:31:59.20	311.37	45.09	-43.6	-49.5	8.7	5.01e-02	0	60	0	843055104	58	7264
2026-01-29 10:32:00.21	311.70	44.85	-43.4	-49.1	9.1	2.21e-02	0	60	0	845152256	58	6933
2026-01-29 10:32:01.22	312.03	44.60	-43.3	-48.5	9.8	1.19e-02	0	60	0	847249408	58	6483
2026-01-29 10:32:02.23	312.35	44.36	-43.2	-48.4	9.9	1.06e-02	0	60	0	849346560	58	6386
2026-01-29 10:32:03.24	312.66	44.12	-43.1	-48.1	10.2	8.39e-03	0	60	0	850395136	58	6192
2026-01-29 10:32:04.25	312.97	43.88	-43.1	-48.2	10.1	5.79e-03	0	60	0	852492288	58	6254
2026-01-29 10:32:05.26	313.28	43.65	-43.4	-49.0	9.4	1.02e-02	0	60	0	854589440	58	6835
2026-01-29 10:32:06.27	313.58	43.41	-43.8	-50.4	7.9	3.21e-02	0	60	0	856686592	58	8015
2026-01-29 10:32:07.28	313.88	43.17	-43.9	-51.0	7.3	1.25e-01	0	60	0	858783744	58	8574
2026-01-29 10:32:08.29	314.17	42.93	-43.5	-49.3	8.9	6.35e-02	0	60	0	859832320	58	7121
2026-01-29 10:32:09.30	314.46	42.70	-42.9	-47.5	10.8	1.01e-02	0	59	0	861929472	57	6108
2026-01-29 10:32:10.31	314.74	42.46	-42.6	-47.0	11.4	1.06e-03	0	60	0	864026624	57	5726
2026-01-29 10:32:11.32	315.02	42.23	-42.8	-47.4	10.9	1.42e-03	0	60	0	866123776	57	6016
2026-01-29 10:32:12.33	315.30	41.99	-43.1	-48.2	10.1	3.45e-03	0	60	0	868220928	57	6637
2026-01-29 10:32:13.34	315.57	41.76	-43.5	-49.2	9.0	2.04e-02	0	60	0	869269504	57	7456
2026-01-29 10:32:14.35	315.84	41.53	-43.4	-49.0	9.3	2.34e-02	0	60	0	871366656	57	7245
2026-01-29 10:32:15.36	316.11	41.29	-43.3	-48.6	9.7	1.48e-02	0	60	0	873463808	57	6921
2026-01-29 10:32:16.37	316.37	41.06	-43.1	-48.3	10.0	8.49e-03	0	60	0	875560960	57	6658
2026-01-29 10:32:17.38	316.63	40.83	-43.0	-47.9	10.4	6.90e-03	0	60	0	877658112	57	6407
2026-01-29 10:32:18.39	316.88	40.60	-42.9	-47.6	10.8	3.68e-03	0	60	0	878706688	57	6135
2026-01-29 10:32:19.40	317.13	40.38	-42.8	-47.3	11.1	2.21e-03	0	60	0	880803840	57	5955
2026-01-29 10:32:20.41	317.38	40.15	-42.8	-47.5	10.8	1.87e-03	0	60	0	882900992	57	6090
2026-01-29 10:32:21.43	317.63	39.92	-43.0	-48.0	10.2	3.22e-03	0	60	0	884998144	57	6492
2026-01-29 10:32:22.43	317.86	39.70	-43.4	-49.1	9.2	1.14e-02	0	60	0	887095296	57	7302
2026-01-29 10:32:23.44	318.10	39.47	-43.3	-48.8	9.4	2.49e-02	0	60	0	889192448	57	7115
2026-01-29 10:32:24.45	318.33	39.25	-42.8	-47.4	10.9	6.76e-03	0	60	0	890241024	57	6058
2026-01-29 10:32:25.46	318.57	39.03	-42.1	-45.8	12.6	6.10e-04	0	60	0	892338176	56	5298
2026-01-29 10:32:26.47	318.79	38.80	-41.4	-44.7	13.6	1.52e-05	0	59	0	894435328	54	5234
2026-01-29 10:32:27.49	319.02	38.58	-41.4	-44.7	13.6	8.30e-06	0	60	0	896532480	54	5221
2026-01-29 10:32:28.50	319.24	38.36	-42.0	-45.7	12.5	2.67e-05	0	60	0	898629632	54	5920
2026-01-29 10:32:29.51	319.46	38.14	-42.7	-47.3	10.8	1.30e-03	0	60	0	899678208	55	6717
2026-01-29 10:32:30.52	319.68	37.92	-43.4	-49.0	9.3	1.05e-02	0	60	0	901775360	57	7235
2026-01-29 10:32:31.53	319.89	37.71	-43.3	-48.9	9.3	2.01e-02	0	60	0	903872512	57	7164
2026-01-29 10:32:32.54	320.10	37.49	-42.9	-47.7	10.5	1.06e-02	0	60	0	905969664	57	6225
2026-01-29 10:32:33.54	320.31	37.28	-42.4	-46.6	11.8	9.26e-04	0	60	0	908066816	56	5798
2026-01-29 10:32:34.56	320.51	37.06	-42.2	-46.1	12.3	3.10e-04	0	60	0	909115392	56	5482
2026-01-29 10:32:35.57	320.72	36.85	-42.2	-46.0	12.4	1.83e-04	0	60	0	911212544	56	5438
2026-01-29 10:32:36.57	320.91	36.64	-42.1	-45.9	12.5	1.42e-04	0	60	0	913309696	56	5359
2026-01-29 10:32:37.59	321.11	36.43	-42.1	-45.8	12.6	1.09e-04	0	60	0	915406848	56	5317
2026-01-29 10:32:38.60	321.31	36.22	-42.2	-46.1	12.3	1.40e-04	0	60	0	917504000	56	5510
2026-01-29 10:32:39.61	321.50	36.01	-42.3	-46.4	12.0	2.78e-04	0	60	0	918552576	56	5677
2026-01-29 10:32:40.62	321.69	35.80	-42.5	-46.7	11.6	4.89e-04	0	60	0	920649728	56	5913
2026-01-29 10:32:41.62	321.88	35.59	-42.6	-46.9	11.4	9.32e-04	0	60	0	922746880	56	6010
2026-01-29 10:32:42.63	322.06	35.39	-42.6	-47.1	11.2	1.20e-03	0	60	0	924844032	56	6147
2026-01-29 10:32:43.64	322.25	35.18	-42.6	-47.0	11.2	1.42e-03	0	60	0	926941184	56	6131
2026-01-29 10:32:44.65	322.43	34.98	-42.5	-46.8	11.4	9.89e-04	0	60	0	927989760	56	5988
2026-01-29 10:32:45.66	322.60	34.78	-42.4	-46.5	11.8	5.61e-04	0	60	0	930086912	56	5750
2026-01-29 10:32:46.67	322.78	34.57	-42.3	-46.3	12.0	4.29e-04	0	60	0	932184064	56	5627
2026-01-29 10:32:47.68	322.96	34.37	-42.3	-46.3	12.1	3.21e-04	0	60	0	934281216	56	5593
2026-01-29 10:32:48.69	323.13	34.17	-42.2	-46.0	12.3	1.94e-04	0	60	0	936378368	56	5446
2026-01-29 10:32:49.71	323.30	33.97	-42.3	-46.4	11.9	2.41e-04	0	60	0	937426944	56	5702
2026-01-29 10:32:50.72	323.47	33.78	-42.5	-46.8	11.5	5.37e-04	0	60	0	939524096	56	5938
2026-01-29 10:32:51.73	323.64	33.58	-42.6	-47.1	11.2	9.47e-04	0	60	0	941621248	56	6173
2026-01-29 10:32:52.74	323.80	33.38	-42.8	-47.6	10.7	2.80e-03	0	60	0	943718400	56	6524
2026-01-29 10:32:53.75	323.96	33.19	-43.0	-48.0	10.2	4.00e-03	0	60	0	945815552	56	6842
2026-01-29 10:32:54.76	324.12	32.99	-43.1	-48.4	9.8	7.11e-03	0	60	0	946864128	56	7153
2026-01-29 10:32:55.77	324.28	32.80	-43.1	-48.3	9.9	8.14e-03	0	60	0	948961280	56	7058
2026-01-29 10:32:56.78	324.44	32.61	-43.1	-48.3	9.9	9.37e-03	0	60	0	951058432	56	7068
2026-01-29 10:32:57.79	324.59	32.42	-43.0	-48.0	10.2	8.69e-03	0	60	0	953155584	56	6866
2026-01-29 10:32:58.80	324.75	32.23	-42.8	-47.6	10.6	4.30e-03	0	60	0	955252736	56	6557
2026-01-29 10:32:59.81	324.90	32.04	-42.8	-47.6	10.7	3.77e-03	0	60	0	957349888	56	6527
2026-01-29 10:33:00.82	325.05	31.85	-42.7	-47.3	10.9	2.65e-03	0	60	0	958398464	56	6299
2026-01-29 10:33:01.83	325.20	31.67	-42.7	-47.4	10.9	2.27e-03	0	60	0	960495616	56	6353
2026-01-29 10:33:02.84	325.34	31.48	-42.7	-47.2	11.0	2.54e-03	0	60	0	962592768	56	6273
2026-01-29 10:33:03.85	325.49	31.30	-42.7	-47.4	10.8	2.10e-03	0	60	0	964689920	56	6348
2026-01-29 10:33:04.86	325.63	31.11	-42.8	-47.5	10.7	2.50e-03	0	60	0	966787072	56	6480
2026-01-29 10:33:05.87	325.77	30.93	-42.9	-47.7	10.4	3.39e-03	0	60	0	967835648	56	6635
2026-01-29 10:33:06.88	325.91	30.75	-43.0	-48.1	10.0	5.90e-03	0	60	0	969932800	56	6949
2026-01-29 10:33:07.89	326.05	30.57	-43.1	-48.3	9.8	7.81e-03	0	60	0	972029952	56	7084
2026-01-29 10:33:08.90	326.19	30.39	-43.3	-49.0	9.1	1.75e-02	0	60	0	974127104	57	7226
2026-01-29 10:33:09.91	326.33	30.21	-43.2	-48.9	9.2	2.57e-02	0	60	0	976224256	57	7144
2026-01-29 10:33:10.92	326.46	30.03	-43.3	-49.0	9.0	2.22e-02	0	60	0	977272832	57	7264
2026-01-29 10:33:11.93	326.59	29.85	-43.3	-49.1	9.0	2.59e-02	0	60	0	979369984	57	7295
2026-01-29 10:33:12.94	326.72	29.68	-43.2	-48.7	9.4	1.81e-02	0	60	0	981467136	57	7010
2026-01-29 10:33:13.95	326.85	29.50	-43.1	-48.6	9.5	1.45e-02	0	60	0	983564288	57	6900
2026-01-29 10:33:14.96	326.98	29.33	-43.1	-48.4	9.7	1.14e-02	0	60	0	985661440	57	6777
2026-01-29 10:33:15.97	327.11	29.15	-42.9	-47.9	10.1	7.63e-03	0	60	0	986710016	57	6413
2026-01-29 10:33:16.98	327.24	28.98	-42.8	-47.7	10.4	5.32e-03	0	60	0	988807168	57	6262
2026-01-29 10:33:17.99	327.36	28.81	-42.8	-47.7	10.5	4.27e-03	0	60	0	990904320	57	6215
2026-01-29 10:33:19.00	327.49	28.64	-42.7	-47.5	10.6	3.66e-03	0	60	0	993001472	57	6101
2026-01-29 10:33:20.01	327.61	28.47	-42.7	-47.5	10.7	2.90e-03	0	60	0	995098624	57	6069
2026-01-29 10:33:21.02	327.73	28.30	-42.8	-47.6	10.5	3.73e-03	0	60	0	996147200	57	6190
2026-01-29 10:33:22.03	327.85	28.13	-42.7	-47.5	10.7	3.59e-03	0	60	0	998244352	57	6096
2026-01-29 10:33:23.04	327.97	27.97	-42.8	-47.7	10.5	3.39e-03	0	60	0	1000341504	57	6228
2026-01-29 10:33:24.05	328.08	27.80	-42.8	-47.7	10.4	5.08e-03	0	60	0	1002438656	57	6249
2026-01-29 10:33:25.06	328.20	27.63	-42.8	-47.6	10.6	3.67e-03	0	60	0	1004535808	57	6140
2026-01-29 10:33:26.07	328.32	27.47	-42.8	-47.8	10.3	4.46e-03	0	60	0	1005584384	57	6284
2026-01-29 10:33:27.08	328.43	27.31	-42.8	-47.7	10.3	5.08e-03	0	60	0	1007681536	57	6259
2026-01-29 10:33:28.09	328.54	27.14	-42.9	-47.9	10.2	5.34e-03	0	60	0	1009778688	57	6357
2026-01-29 10:33:29.10	328.65	26.98	-42.9	-48.0	10.0	6.53e-03	0	60	0	1011875840	57	6480
2026-01-29 10:33:30.11	328.77	26.82	-42.9	-48.1	10.0	7.12e-03	0	60	0	1013972992	57	6522
2026-01-29 10:33:31.12	328.87	26.66	-42.9	-48.1	10.0	8.22e-03	0	60	0	1015021568	57	6536
2026-01-29 10:33:32.13	328.98	26.50	-42.9	-48.0	10.1	8.53e-03	0	60	0	1017118720	57	6423
2026-01-29 10:33:33.14	329.09	26.34	-42.8	-47.8	10.3	6.19e-03	0	60	0	1019215872	57	6277
2026-01-29 10:33:34.15	329.20	26.19	-42.8	-47.7	10.4	4.24e-03	0	60	0	1021313024	57	6213
2026-01-29 10:33:35.15	329.30	26.03	-42.7	-47.5	10.5	3.61e-03	0	60	0	1023410176	57	6119
2026-01-29 10:33:36.16	329.41	25.87	-42.6	-47.2	10.8	3.04e-03	0	60	0	1025507328	57	5923
2026-01-29 10:33:37.17	329.51	25.72	-42.4	-46.9	11.3	1.62e-03	0	60	0	1026555904	56	5997
2026-01-29 10:33:38.18	329.61	25.57	-42.3	-46.5	11.6	8.38e-04	0	60	0	1028653056	56	5773
2026-01-29 10:33:39.19	329.71	25.41	-42.2	-46.2	11.9	5.81e-04	0	60	0	1030750208	56	5583
2026-01-29 10:33:40.20	329.82	25.26	-42.1	-46.2	11.9	4.50e-04	0	60	0	1032847360	56	5539
2026-01-29 10:33:41.21	329.91	25.11	-42.1	-46.1	11.9	4.00e-04	0	60	0	1034944512	56	5521
2026-01-29 10:33:42.22	330.01	24.96	-42.1	-46.0	12.0	2.88e-04	0	60	0	1035993088	56	5456
2026-01-29 10:33:43.23	330.11	24.81	-42.1	-46.1	12.0	2.93e-04	0	60	0	1038090240	56	5478
2026-01-29 10:33:44.24	330.21	24.66	-42.1	-46.1	11.9	3.37e-04	0	60	0	1040187392	56	5520
2026-01-29 10:33:45.25	330.30	24.51	-42.1	-46.2	11.8	3.99e-04	0	60	0	1042284544	56	5582
2026-01-29 10:33:46.26	330.40	24.36	-42.2	-46.4	11.7	5.49e-04	0	60	0	1044381696	56	5687
2026-01-29 10:33:47.27	330.49	24.21	-42.3	-46.5	11.5	8.45e-04	0	60	0	1045430272	56	5769
2026-01-29 10:33:48.28	330.59	24.07	-42.4	-46.9	11.1	1.18e-03	0	60	0	1047527424	56	6021
2026-01-29 10:33:49.29	330.68	23.92	-42.5	-47.1	11.0	1.84e-03	0	60	0	1049624576	56	6148
2026-01-29 10:33:50.30	330.77	23.77	-42.5	-47.1	11.0	1.91e-03	0	60	0	1051721728	56	6153
2026-01-29 10:33:51.31	330.86	23.63	-42.5	-47.1	10.9	2.20e-03	0	60	0	1053818880	56	6189
2026-01-29 10:33:52.32	330.95	23.49	-42.6	-47.2	10.9	2.47e-03	0	60	0	1054867456	56	6230
2026-01-29 10:33:53.33	331.04	23.34	-42.5	-47.1	10.9	2.46e-03	0	60	0	1056964608	56	6200
2026-01-29 10:33:54.34	331.13	23.20	-42.5	-47.0	11.0	1.98e-03	0	60	0	1059061760	56	6098
2026-01-29 10:33:55.35	331.22	23.06	-42.4	-46.9	11.1	1.72e-03	0	60	0	1061158912	56	6019
2026-01-29 10:33:56.36	331.31	22.92	-42.4	-46.8	11.2	1.38e-03	0	60	0	1063256064	56	5953
2026-01-29 10:33:57.37	331.40	22.78	-42.3	-46.6	11.4	1.07e-03	0	60	0	1064304640	56	5825
2026-01-29 10:33:58.38	331.48	22.64	-42.2	-46.5	11.5	8.78e-04	0	60	0	1066401792	56	5764
2026-01-29 10:33:59.39	331.57	22.50	-42.1	-46.2	11.8	7.12e-04	0	60	0	1068498944	56	5561
2026-01-29 10:34:00.40	331.65	22.36	-42.0	-46.1	11.9	3.49e-04	0	60	0	1070596096	56	5468
2026-01-29 10:34:01.41	331.73	22.23	-41.7	-45.6	12.1	2.87e-04	0	60	0	1072693248	55	5520
2026-01-29 10:34:02.42	331.82	22.09	-41.6	-45.4	12.3	2.25e-04	0	60	0	1073741824	55	5397
2026-01-29 10:34:03.43	331.90	21.96	-41.7	-45.5	12.2	2.36e-04	0	60	0	1075838976	55	5426
2026-01-29 10:34:04.44	331.98	21.82	-41.7	-45.6	12.2	2.23e-04	0	60	0	1077936128	55	5487
2026-01-29 10:34:05.45	332.06	21.69	-41.7	-45.6	12.3	1.71e-04	0	60	0	1080033280	55	5468
2026-01-29 10:34:06.46	332.14	21.55	-41.7	-45.6	12.2	2.20e-04	0	60	0	1082130432	55	5496
2026-01-29 10:34:07.47	332.22	21.42	-41.8	-45.7	12.1	2.59e-04	0	60	0	1083179008	55	5559
2026-01-29 10:34:08.47	332.30	21.29	-41.8	-45.8	12.0	2.64e-04	0	60	0	1085276160	55	5626
2026-01-29 10:34:09.49	332.38	21.15	-41.8	-45.8	11.9	3.04e-04	0	60	0	1087373312	55	5654
2026-01-29 10:34:10.49	332.46	21.02	-41.8	-45.8	12.0	3.49e-04	0	60	0	1089470464	55	5652
2026-01-29 10:34:11.50	332.53	20.89	-41.8	-45.8	12.0	3.26e-04	0	60	0	1091567616	55	5601
2026-01-29 10:34:12.52	332.61	20.76	-41.7	-45.6	12.1	2.96e-04	0	60	0	1093664768	55	5521
2026-01-29 10:34:13.53	332.69	20.63	-41.7	-45.7	12.1	2.75e-04	0	60	0	1094713344	55	5543
2026-01-29 10:34:14.54	332.76	20.50	-41.7	-45.7	12.1	2.48e-04	0	60	0	1096810496	55	5561
2026-01-29 10:34:15.55	332.84	20.38	-41.7	-45.7	12.1	2.66e-04	0	60	0	1098907648	55	5535
2026-01-29 10:34:16.56	332.91	20.25	-41.7	-45.6	12.2	2.22e-04	0	60	0	1101004800	55	5476
2026-01-29 10:34:17.56	332.98	20.12	-41.6	-45.4	12.4	1.59e-04	0	60	0	1103101952	55	5360
2026-01-29 10:34:18.57	333.06	20.00	-41.6	-45.3	12.5	1.60e-04	0	60	0	1104150528	55	5326
2026-01-29 10:34:19.58	333.13	19.87	-41.5	-45.3	12.5	1.12e-04	0	60	0	1106247680	55	5298
2026-01-29 10:34:20.59	333.20	19.75	-41.5	-45.3	12.6	1.12e-04	0	60	0	1108344832	55	5280
2026-01-29 10:34:21.61	333.27	19.62	-41.4	-45.1	12.7	9.84e-05	0	60	0	1110441984	54	5507
2026-01-29 10:34:22.62	333.34	19.50	-41.4	-45.1	12.8	7.47e-05	0	60	0	1112539136	54	5470
2026-01-29 10:34:23.62	333.41	19.37	-41.4	-45.0	12.8	6.02e-05	0	60	0	1113587712	54	5448
2026-01-29 10:34:24.64	333.48	19.25	-41.3	-44.9	12.9	5.87e-05	0	60	0	1115684864	54	5390
2026-01-29 10:34:25.64	333.55	19.13	-41.3	-44.9	12.9	5.18e-05	0	60	0	1117782016	54	5354
2026-01-29 10:34:26.65	333.62	19.01	-41.3	-44.9	12.9	4.27e-05	0	60	0	1119879168	54	5385
2026-01-29 10:34:27.67	333.69	18.89	-41.3	-44.9	12.9	5.03e-05	0	60	0	1121976320	54	5373
2026-01-29 10:34:28.68	333.76	18.77	-41.4	-45.0	12.8	4.80e-05	0	60	0	1123024896	54	5417
2026-01-29 10:34:29.69	333.82	18.65	-41.3	-44.8	12.9	4.11e-05	0	60	0	1125122048	54	5335
2026-01-29 10:34:30.70	333.89	18.53	-41.3	-44.9	12.9	5.11e-05	0	60	0	1127219200	54	5375
2026-01-29 10:34:31.71	333.96	18.41	-41.4	-45.0	12.7	6.17e-05	0	60	0	1129316352	54	5443
2026-01-29 10:34:32.72	334.02	18.29	-41.3	-44.9	12.8	5.49e-05	0	60	0	1131413504	54	5396
2026-01-29 10:34:33.73	334.09	18.17	-41.4	-45.1	12.7	7.01e-05	0	60	0	1132462080	54	5473
2026-01-29 10:34:34.74	334.15	18.05	-41.4	-45.2	12.6	9.76e-05	0	60	0	1134559232	54	5531
2026-01-29 10:34:35.75	334.22	17.94	-41.4	-45.1	12.5	9.15e-05	0	60	0	1136656384	54	5513
2026-01-29 10:34:36.76	334.28	17.82	-41.5	-45.3	12.4	1.17e-04	0	60	0	1138753536	54	5633
2026-01-29 10:34:37.77	334.34	17.70	-41.5	-45.3	12.4	1.51e-04	0	60	0	1140850688	54	5610
2026-01-29 10:34:38.78	334.41	17.59	-41.5	-45.3	12.4	1.69e-04	0	60	0	1141899264	54	5632
2026-01-29 10:34:39.79	334.47	17.48	-41.5	-45.4	12.2	1.99e-04	0	60	0	1143996416	54	5717
2026-01-29 10:34:40.80	334.53	17.36	-41.6	-45.5	12.2	2.33e-04	0	60	0	1146093568	54	5775
2026-01-29 10:34:41.81	334.59	17.25	-41.6	-45.6	12.0	2.92e-04	0	60	0	1148190720	54	5847
2026-01-29 10:34:42.82	334.65	17.13	-41.6	-45.6	12.0	3.46e-04	0	60	0	1150287872	54	5836
2026-01-29 10:34:43.83	334.72	17.02	-41.6	-45.6	12.0	3.63e-04	0	60	0	1151336448	54	5849
2026-01-29 10:34:44.84	334.78	16.91	-41.6	-45.7	11.9	3.26e-04	0	60	0	1153433600	54	5856
2026-01-29 10:34:45.85	334.84	16.80	-41.6	-45.6	11.9	3.81e-04	0	60	0	1155530752	54	5854
2026-01-29 10:34:46.86	334.89	16.69	-41.6	-45.6	11.9	3.68e-04	0	60	0	1157627904	54	5844
2026-01-29 10:34:47.87	334.95	16.58	-41.6	-45.6	11.8	3.50e-04	0	60	0	1159725056	54	5850
2026-01-29 10:34:48.87	335.01	16.47	-41.5	-45.6	11.9	3.49e-04	0	60	0	1161822208	54	5798
2026-01-29 10:34:49.88	335.07	16.36	-41.6	-45.7	11.8	4.28e-04	0	60	0	1162870784	54	5865
2026-01-29 10:34:50.89	335.13	16.25	-41.5	-45.5	12.0	4.09e-04	0	60	0	1164967936	54	5758
2026-01-29 10:34:51.90	335.19	16.14	-41.5	-45.4	12.2	2.61e-04	0	60	0	1167065088	54	5691
2026-01-29 10:34:52.91	335.24	16.03	-41.5	-45.4	12.1	2.59e-04	0	60	0	1169162240	54	5688
2026-01-29 10:34:53.92	335.30	15.92	-41.5	-45.4	12.2	2.43e-04	0	60	0	1171259392	54	5687
2026-01-29 10:34:54.93	335.36	15.81	-41.5	-45.4	12.1	2.31e-04	0	60	0	1172307968	54	5697
2026-01-29 10:34:55.94	335.41	15.71	-41.4	-45.3	12.2	2.35e-04	0	60	0	1174405120	54	5649
2026-01-29 10:34:56.95	335.47	15.60	-41.5	-45.4	12.2	2.37e-04	0	60	0	1176502272	54	5697
2026-01-29 10:34:57.96	335.52	15.50	-41.5	-45.5	12.1	2.43e-04	0	60	0	1178599424	54	5731
2026-01-29 10:34:58.98	335.58	15.39	-41.5	-45.4	12.2	2.11e-04	0	60	0	1180696576	54	5712
2026-01-29 10:34:59.99	335.63	15.28	-41.5	-45.4	12.1	2.42e-04	0	60	0	1181745152	54	5716
2026-01-29 10:35:01.00	335.69	15.18	-41.4	-45.2	12.3	2.56e-04	0	60	0	1183842304	54	5580
2026-01-29 10:35:02.01	335.74	15.07	-41.4	-45.3	12.2	2.37e-04	0	60	0	1185939456	54	5613
2026-01-29 10:35:03.01	335.79	14.97	-41.3	-45.2	12.3	1.79e-04	0	60	0	1188036608	54	5533
