passes_logs/2026/01/29/R2.0S_Moscow/R2.0S_Moscow__20260129_010854_FENGYUN_3D_rec.log

#Pass ID: 20260129_010854_FENGYUN 3D
#Satellite: FENGYUN 3D
#Configuration: FENGYUN 3D
#almurnet v.1.7.20251203
#Start time: 2026-01-29 01:08:53

#Version: 2.2.20231116
#Station: R2.0S_Moscow
#Location: 37.707566 lon 55.798166 lat
#TLE: 1 43010U 17072A   26027.90082829  .00000305  00000+0  16579-3 0  9998
#TLE: 2 43010  98.9960 359.9183 0002511  88.1058 272.0405 14.19701796425082

#Time	Az	El	Level	Level2	SNR	BER	BlckErr	Temp	State	Recorded	gain1	gain2
2026-01-29 01:08:53.62	19.72	1.97	-41.8	-53.2	3.8	8.46e-01	0	49	0	0	55	13217
2026-01-29 01:08:54.62	19.75	2.03	-41.8	-53.3	3.8	8.45e-01	0	49	104	0	55	13261
2026-01-29 01:08:55.63	19.79	2.09	-41.8	-53.3	3.8	8.46e-01	0	49	104	0	55	13263
2026-01-29 01:08:56.64	19.82	2.15	-41.7	-53.3	3.8	8.46e-01	0	49	104	0	55	13264
2026-01-29 01:08:57.65	19.85	2.22	-41.7	-53.3	3.8	8.46e-01	0	49	104	0	55	13268
2026-01-29 01:08:58.66	19.88	2.28	-41.7	-53.2	3.8	8.46e-01	0	50	104	0	55	13241
2026-01-29 01:08:59.67	19.92	2.34	-41.7	-53.2	3.8	8.46e-01	0	50	104	0	55	13238
2026-01-29 01:09:00.68	19.95	2.41	-41.7	-53.2	3.8	8.46e-01	0	50	104	0	55	13240
2026-01-29 01:09:01.69	19.98	2.47	-41.7	-53.3	3.8	8.46e-01	0	50	104	0	55	13288
2026-01-29 01:09:02.70	20.02	2.53	-41.7	-53.2	3.8	8.46e-01	0	50	104	0	55	13247
2026-01-29 01:09:03.71	20.05	2.60	-41.7	-53.3	3.8	8.46e-01	0	50	104	0	55	13271
2026-01-29 01:09:04.72	20.08	2.66	-41.7	-53.2	3.8	8.45e-01	0	50	104	0	55	13249
2026-01-29 01:09:05.73	20.12	2.73	-41.7	-53.3	3.8	8.47e-01	0	50	104	0	55	13275
2026-01-29 01:09:06.75	20.15	2.79	-41.7	-53.2	3.8	8.45e-01	0	50	104	0	55	13229
2026-01-29 01:09:07.76	20.19	2.86	-41.8	-53.3	3.8	8.46e-01	0	50	104	0	55	13338
2026-01-29 01:09:08.77	20.22	2.92	-41.7	-53.3	3.8	8.45e-01	0	50	104	0	55	13277
2026-01-29 01:09:09.78	20.26	2.98	-41.7	-53.2	3.8	8.48e-01	0	50	104	0	55	13234
2026-01-29 01:09:10.79	20.29	3.05	-41.7	-53.2	3.8	8.45e-01	0	50	104	0	55	13249
2026-01-29 01:09:11.80	20.32	3.11	-41.7	-53.2	3.8	8.46e-01	0	50	104	0	55	13245
2026-01-29 01:09:12.81	20.36	3.18	-41.7	-53.2	3.8	8.45e-01	0	50	104	0	55	13254
2026-01-29 01:09:13.82	20.39	3.24	-41.8	-53.2	3.8	8.47e-01	0	51	104	0	55	13255
2026-01-29 01:09:14.83	20.43	3.31	-41.7	-53.3	3.8	8.46e-01	0	51	104	0	55	13323
2026-01-29 01:09:15.84	20.46	3.38	-41.7	-53.3	3.8	8.48e-01	0	51	104	0	55	13292
2026-01-29 01:09:16.85	20.50	3.44	-41.7	-53.3	3.8	8.47e-01	0	51	104	0	55	13274
2026-01-29 01:09:17.86	20.54	3.51	-41.7	-53.2	3.8	8.45e-01	0	51	104	0	55	13257
2026-01-29 01:09:18.87	20.57	3.57	-41.7	-53.2	3.8	8.46e-01	0	51	104	0	55	13205
2026-01-29 01:09:19.88	20.61	3.64	-41.7	-53.2	3.8	8.47e-01	0	51	104	0	55	13247
2026-01-29 01:09:20.89	20.64	3.71	-41.7	-53.3	3.8	8.46e-01	0	51	104	0	55	13262
2026-01-29 01:09:21.90	20.68	3.77	-41.7	-53.2	3.8	8.45e-01	0	51	104	0	55	13224
2026-01-29 01:09:22.91	20.71	3.84	-41.7	-53.2	3.8	8.46e-01	0	51	104	0	55	13218
2026-01-29 01:09:23.92	20.75	3.91	-41.7	-53.2	3.8	8.45e-01	0	51	104	0	55	13254
2026-01-29 01:09:24.93	20.79	3.97	-41.7	-53.2	3.8	8.46e-01	0	51	104	0	55	13200
2026-01-29 01:09:25.94	20.82	4.04	-41.7	-53.2	3.8	8.46e-01	0	51	104	0	55	13176
2026-01-29 01:09:26.95	20.86	4.11	-41.7	-53.2	3.8	8.45e-01	0	52	104	0	55	13219
2026-01-29 01:09:27.96	20.90	4.17	-41.7	-53.2	3.8	8.45e-01	0	52	104	0	55	13238
2026-01-29 01:09:28.97	20.93	4.24	-41.8	-53.3	3.8	8.46e-01	0	52	104	0	55	13269
2026-01-29 01:09:29.98	20.97	4.31	-41.7	-53.2	3.8	8.46e-01	0	52	104	0	55	13241
2026-01-29 01:09:30.99	21.01	4.38	-41.7	-53.2	3.8	8.47e-01	0	52	104	0	55	13223
2026-01-29 01:09:32.00	21.05	4.45	-41.7	-53.2	3.8	8.46e-01	0	52	104	0	55	13249
2026-01-29 01:09:33.01	21.08	4.51	-41.7	-53.2	3.8	8.45e-01	0	52	104	0	55	13225
2026-01-29 01:09:34.02	21.12	4.58	-41.7	-53.2	3.8	8.46e-01	0	52	104	0	55	13253
2026-01-29 01:09:35.03	21.16	4.65	-41.7	-53.3	3.8	8.45e-01	0	52	104	0	55	13262
2026-01-29 01:09:36.05	21.20	4.72	-41.8	-53.3	3.8	8.47e-01	0	52	104	0	55	13265
2026-01-29 01:09:37.06	21.24	4.79	-41.7	-53.2	3.8	8.47e-01	0	52	104	0	55	13219
2026-01-29 01:09:38.07	21.28	4.86	-41.7	-53.2	3.8	8.47e-01	0	52	104	0	55	13228
2026-01-29 01:09:39.08	21.31	4.93	-41.7	-53.3	3.8	8.46e-01	0	52	104	0	55	13282
2026-01-29 01:09:40.09	21.35	5.00	-41.7	-53.2	3.8	8.46e-01	0	52	104	0	55	13224
2026-01-29 01:09:41.10	21.39	5.07	-41.7	-53.3	3.8	8.46e-01	0	52	104	0	55	13276
2026-01-29 01:09:42.11	21.43	5.14	-41.7	-53.3	3.8	8.45e-01	0	52	104	0	55	13278
2026-01-29 01:09:43.12	21.47	5.21	-41.7	-53.2	3.8	8.47e-01	0	53	104	0	55	13227
2026-01-29 01:09:44.13	21.51	5.28	-41.7	-53.2	3.8	8.47e-01	0	52	104	0	55	13234
2026-01-29 01:09:45.14	21.55	5.35	-41.7	-53.2	3.8	8.46e-01	0	53	104	0	55	13219
2026-01-29 01:09:46.15	21.59	5.42	-41.7	-53.2	3.8	8.45e-01	0	53	104	0	55	13223
2026-01-29 01:09:47.16	21.63	5.49	-41.7	-53.2	3.8	8.47e-01	0	53	104	0	55	13240
2026-01-29 01:09:48.17	21.67	5.56	-41.7	-53.2	3.8	8.45e-01	0	53	104	0	55	13210
2026-01-29 01:09:49.18	21.71	5.63	-41.7	-53.2	3.8	8.47e-01	0	53	104	0	55	13189
2026-01-29 01:09:50.19	21.75	5.70	-41.7	-53.2	3.8	8.47e-01	0	53	104	0	55	13247
2026-01-29 01:09:51.20	21.79	5.77	-41.7	-53.2	3.8	8.46e-01	0	53	104	0	55	13209
2026-01-29 01:09:52.21	21.83	5.84	-41.7	-53.2	3.8	8.46e-01	0	53	104	0	55	13224
2026-01-29 01:09:53.22	21.87	5.91	-41.7	-53.2	3.8	8.46e-01	0	53	104	0	55	13214
2026-01-29 01:09:54.23	21.91	5.99	-41.7	-53.2	3.8	8.45e-01	0	53	104	0	55	13224
2026-01-29 01:09:55.24	21.95	6.06	-41.7	-53.2	3.8	8.46e-01	0	53	104	0	55	13171
2026-01-29 01:09:56.25	22.00	6.13	-41.7	-53.2	3.8	8.47e-01	0	53	104	0	55	13157
2026-01-29 01:09:57.26	22.04	6.20	-41.7	-53.2	3.8	8.46e-01	0	53	104	0	55	13203
2026-01-29 01:09:58.27	22.08	6.28	-41.7	-53.2	3.8	8.45e-01	0	53	104	0	55	13196
2026-01-29 01:09:59.28	22.12	6.35	-41.7	-53.2	3.8	8.45e-01	0	53	104	0	55	13150
2026-01-29 01:10:00.29	22.16	6.42	-41.7	-53.1	3.8	8.45e-01	0	53	104	0	55	13088
2026-01-29 01:10:01.30	22.21	6.50	-41.7	-53.2	3.8	8.47e-01	0	53	104	0	55	13118
2026-01-29 01:10:02.31	22.25	6.57	-41.7	-53.2	3.8	8.46e-01	0	53	104	0	55	13175
2026-01-29 01:10:03.32	22.29	6.64	-41.7	-53.2	3.8	8.46e-01	0	53	104	0	55	13171
2026-01-29 01:10:04.33	22.33	6.72	-41.7	-53.2	3.8	8.46e-01	0	54	104	0	55	13204
2026-01-29 01:10:05.34	22.38	6.79	-41.7	-53.2	3.8	8.46e-01	0	53	104	0	55	13229
2026-01-29 01:10:06.35	22.42	6.86	-41.7	-53.1	3.8	8.46e-01	0	53	104	0	55	13031
2026-01-29 01:10:07.37	22.47	6.94	-41.7	-53.0	3.8	8.45e-01	0	54	104	0	55	12916
2026-01-29 01:10:08.38	22.51	7.01	-41.7	-52.9	3.8	8.45e-01	0	54	104	0	55	12779
2026-01-29 01:10:09.39	22.55	7.09	-41.7	-52.8	3.8	8.45e-01	0	54	104	0	55	12604
2026-01-29 01:10:10.40	22.60	7.16	-41.7	-52.8	3.8	8.45e-01	0	54	104	0	55	12524
2026-01-29 01:10:11.41	22.64	7.24	-41.7	-52.7	3.8	8.46e-01	0	54	104	0	55	12507
2026-01-29 01:10:12.42	22.69	7.32	-41.7	-52.7	3.8	8.47e-01	0	54	104	0	55	12478
2026-01-29 01:10:13.43	22.73	7.39	-41.6	-52.5	3.8	8.45e-01	0	54	104	0	55	12195
2026-01-29 01:10:14.44	22.78	7.47	-41.6	-52.1	3.8	8.47e-01	0	54	104	0	55	11683
2026-01-29 01:10:15.45	22.82	7.54	-41.6	-51.8	3.8	8.46e-01	0	54	104	0	55	11248
2026-01-29 01:10:16.46	22.87	7.62	-41.5	-51.4	3.8	8.46e-01	0	54	104	0	55	10671
2026-01-29 01:10:17.47	22.91	7.70	-41.4	-50.5	3.9	8.43e-01	0	54	104	0	54	10254
2026-01-29 01:10:18.48	22.96	7.77	-41.3	-49.6	4.2	8.38e-01	0	54	0	0	54	9226
2026-01-29 01:10:19.49	23.01	7.85	-41.1	-48.5	4.6	8.25e-01	0	54	0	0	54	8138
2026-01-29 01:10:20.50	23.05	7.93	-40.7	-47.1	5.3	7.52e-01	0	54	0	0	53	7346
2026-01-29 01:10:21.51	23.10	8.01	-40.4	-46.1	6.1	4.15e-01	0	54	0	2097152	52	6880
2026-01-29 01:10:22.52	23.15	8.08	-40.2	-44.8	7.4	1.71e-01	0	54	0	8388608	52	5976
2026-01-29 01:10:23.53	23.19	8.16	-40.5	-44.8	8.3	5.84e-02	0	54	0	13631488	52	5925
2026-01-29 01:10:24.54	23.24	8.24	-39.2	-42.7	9.7	7.69e-02	0	54	0	19922944	50	5229
2026-01-29 01:10:25.55	23.29	8.32	-39.9	-45.0	6.8	2.64e-01	0	54	0	25165824	50	6811
2026-01-29 01:10:26.56	23.33	8.40	-38.1	-40.8	11.8	2.36e-01	0	54	0	30408704	48	4713
2026-01-29 01:10:27.57	23.38	8.47	-37.8	-40.0	13.4	4.11e-05	0	55	0	36700160	47	4550
2026-01-29 01:10:28.58	23.43	8.55	-37.9	-40.2	13.2	1.25e-05	0	54	0	41943040	47	4666
2026-01-29 01:10:29.59	23.48	8.63	-38.4	-40.9	12.5	9.15e-05	0	54	0	48234496	47	5094
2026-01-29 01:10:30.60	23.53	8.71	-38.9	-41.6	12.0	4.12e-04	0	54	0	53477376	48	5184
2026-01-29 01:10:31.61	23.58	8.79	-38.8	-41.4	12.3	2.85e-04	0	55	0	59768832	48	5053
2026-01-29 01:10:32.62	23.63	8.87	-38.7	-41.2	12.7	1.86e-04	0	54	0	65011712	48	4937
2026-01-29 01:10:33.63	23.68	8.95	-38.7	-41.1	12.8	1.01e-04	0	55	0	71303168	48	4895
2026-01-29 01:10:34.64	23.73	9.03	-38.7	-41.1	12.7	8.81e-05	0	55	0	76546048	48	4901
2026-01-29 01:10:35.65	23.77	9.11	-38.7	-41.1	12.8	1.42e-04	0	55	0	81788928	48	4916
2026-01-29 01:10:36.66	23.83	9.20	-38.6	-41.0	12.9	5.95e-05	0	55	0	88080384	48	4840
2026-01-29 01:10:37.67	23.88	9.28	-38.5	-40.8	13.1	5.49e-05	0	55	0	93323264	48	4757
2026-01-29 01:10:38.68	23.93	9.36	-38.3	-40.6	13.4	2.51e-05	0	55	0	99614720	48	4617
2026-01-29 01:10:39.69	23.98	9.44	-38.4	-40.6	13.3	3.31e-05	0	55	0	104857600	48	4631
2026-01-29 01:10:40.70	24.03	9.52	-38.5	-40.7	13.3	4.57e-05	0	55	0	110100480	48	4691
2026-01-29 01:10:41.71	24.08	9.60	-38.4	-40.6	13.4	3.08e-05	0	55	0	116391936	48	4628
2026-01-29 01:10:42.73	24.13	9.69	-38.5	-40.8	13.2	3.66e-05	0	55	0	121634816	48	4722
2026-01-29 01:10:43.73	24.18	9.77	-38.4	-40.6	13.4	3.20e-05	0	55	0	127926272	48	4648
2026-01-29 01:10:44.74	24.24	9.85	-38.3	-40.5	13.6	8.00e-06	0	55	0	133169152	48	4555
2026-01-29 01:10:45.75	24.29	9.94	-38.5	-40.7	13.4	1.94e-05	0	55	0	138412032	48	4674
2026-01-29 01:10:46.77	24.34	10.02	-38.3	-40.4	13.7	1.48e-05	0	55	0	144703488	48	4542
2026-01-29 01:10:47.78	24.39	10.10	-38.4	-40.6	13.7	2.28e-05	0	55	0	149946368	48	4604
2026-01-29 01:10:48.79	24.45	10.19	-38.3	-40.3	13.9	4.50e-06	0	55	0	156237824	48	4486
2026-01-29 01:10:49.80	24.50	10.27	-38.1	-40.2	14.1	4.50e-06	0	55	0	161480704	48	4393
2026-01-29 01:10:50.81	24.56	10.36	-38.1	-40.2	14.1	5.70e-06	0	55	0	167772160	48	4395
2026-01-29 01:10:51.82	24.61	10.44	-38.3	-40.3	14.0	4.50e-06	0	55	0	173015040	48	4464
2026-01-29 01:10:52.83	24.66	10.53	-38.2	-40.3	14.0	5.70e-06	0	55	0	179306496	48	4459
2026-01-29 01:10:53.84	24.72	10.61	-38.4	-40.5	13.8	6.80e-06	0	55	0	184549376	48	4573
2026-01-29 01:10:54.85	24.77	10.70	-38.4	-40.5	13.9	5.70e-06	0	55	0	189792256	48	4582
2026-01-29 01:10:55.86	24.83	10.79	-38.3	-40.3	14.1	3.40e-06	0	55	0	196083712	48	4487
2026-01-29 01:10:56.87	24.89	10.87	-38.3	-40.3	14.1	0.00e+00	0	55	0	201326592	48	4473
2026-01-29 01:10:57.88	24.94	10.96	-38.1	-40.0	14.4	0.00e+00	0	55	0	207618048	48	4336
2026-01-29 01:10:58.89	25.00	11.04	-38.2	-40.1	14.4	1.10e-06	0	56	0	212860928	48	4367
2026-01-29 01:10:59.90	25.05	11.13	-38.2	-40.1	14.4	1.10e-06	0	55	0	218103808	48	4387
2026-01-29 01:11:00.91	25.11	11.22	-38.1	-40.0	14.5	1.10e-06	0	56	0	224395264	48	4329
2026-01-29 01:11:01.92	25.17	11.31	-38.1	-40.0	14.6	0.00e+00	0	56	0	229638144	48	4298
2026-01-29 01:11:02.93	25.23	11.40	-38.1	-40.0	14.6	1.10e-06	0	55	0	235929600	48	4310
2026-01-29 01:11:03.94	25.28	11.48	-38.0	-39.9	14.6	1.10e-06	0	56	0	241172480	48	4279
2026-01-29 01:11:04.95	25.34	11.57	-38.0	-39.9	14.6	1.10e-06	0	55	0	246415360	47	4526
2026-01-29 01:11:05.95	25.40	11.66	-38.0	-39.9	14.5	0.00e+00	0	56	0	252706816	47	4544
2026-01-29 01:11:06.96	25.46	11.75	-38.0	-40.0	14.6	1.10e-06	0	56	0	257949696	47	4547
2026-01-29 01:11:07.97	25.52	11.84	-37.9	-39.8	14.7	0.00e+00	0	55	0	264241152	47	4479
2026-01-29 01:11:08.99	25.58	11.93	-38.0	-39.9	14.6	1.10e-06	0	56	0	269484032	47	4536
2026-01-29 01:11:10.00	25.64	12.02	-37.9	-39.8	14.7	0.00e+00	0	55	0	275775488	47	4469
2026-01-29 01:11:11.01	25.70	12.11	-37.9	-39.8	14.7	0.00e+00	0	55	0	281018368	47	4465
2026-01-29 01:11:12.02	25.76	12.20	-37.9	-39.8	14.8	1.10e-06	0	56	0	287309824	47	4452
2026-01-29 01:11:13.03	25.82	12.29	-37.8	-39.7	14.9	0.00e+00	0	56	0	292552704	47	4410
2026-01-29 01:11:14.04	25.88	12.38	-37.9	-39.8	14.8	0.00e+00	0	56	0	297795584	47	4452
2026-01-29 01:11:15.05	25.94	12.48	-37.9	-39.8	14.8	0.00e+00	0	56	0	304087040	47	4443
2026-01-29 01:11:16.06	26.00	12.57	-37.8	-39.7	14.8	1.10e-06	0	56	0	309329920	47	4424
2026-01-29 01:11:17.07	26.07	12.66	-37.9	-39.7	14.8	0.00e+00	0	56	0	314572800	47	4424
2026-01-29 01:11:18.08	26.13	12.75	-37.8	-39.7	14.9	0.00e+00	0	56	0	320864256	47	4427
2026-01-29 01:11:19.09	26.19	12.85	-37.8	-39.6	14.9	0.00e+00	0	56	0	326107136	47	4378
2026-01-29 01:11:20.10	26.26	12.94	-37.8	-39.7	14.9	0.00e+00	0	56	0	332398592	47	4394
2026-01-29 01:11:21.11	26.32	13.03	-37.8	-39.6	14.9	0.00e+00	0	56	0	337641472	47	4379
2026-01-29 01:11:22.11	26.38	13.13	-37.8	-39.7	14.9	0.00e+00	0	56	0	342884352	47	4408
2026-01-29 01:11:23.12	26.45	13.22	-37.7	-39.5	15.1	0.00e+00	0	56	0	349175808	47	4338
2026-01-29 01:11:24.13	26.51	13.32	-37.9	-39.7	14.9	1.10e-06	0	56	0	354418688	47	4423
2026-01-29 01:11:25.14	26.58	13.41	-37.8	-39.7	14.9	0.00e+00	0	56	0	360710144	47	4424
2026-01-29 01:11:26.15	26.64	13.51	-37.8	-39.7	15.0	0.00e+00	0	56	0	365953024	47	4415
2026-01-29 01:11:27.16	26.71	13.60	-37.9	-39.8	14.9	0.00e+00	0	56	0	372244480	47	4447
2026-01-29 01:11:28.17	26.78	13.70	-37.9	-39.8	14.9	0.00e+00	0	56	0	377487360	47	4453
2026-01-29 01:11:29.18	26.84	13.79	-37.9	-39.7	15.0	0.00e+00	0	56	0	383778816	47	4427
2026-01-29 01:11:30.20	26.91	13.89	-37.9	-39.8	14.9	0.00e+00	0	56	0	389021696	47	4463
2026-01-29 01:11:31.21	26.98	13.99	-37.7	-39.6	15.1	0.00e+00	0	56	0	394264576	47	4352
2026-01-29 01:11:32.22	27.05	14.09	-37.6	-39.4	15.3	0.00e+00	0	56	0	400556032	47	4272
2026-01-29 01:11:33.23	27.12	14.18	-37.6	-39.4	15.3	0.00e+00	0	56	0	405798912	47	4266
2026-01-29 01:11:34.24	27.19	14.28	-37.5	-39.3	15.4	0.00e+00	0	56	0	412090368	47	4214
2026-01-29 01:11:35.25	27.25	14.38	-37.4	-39.1	15.6	0.00e+00	0	56	0	417333248	46	4384
2026-01-29 01:11:36.26	27.32	14.48	-37.3	-39.0	15.8	0.00e+00	0	56	0	422576128	46	4318
2026-01-29 01:11:37.27	27.40	14.58	-37.3	-38.9	15.8	0.00e+00	0	56	0	428867584	46	4281
2026-01-29 01:11:38.28	27.47	14.68	-37.2	-38.9	15.9	0.00e+00	0	56	0	434110464	46	4263
2026-01-29 01:11:39.29	27.54	14.78	-37.3	-39.0	15.8	0.00e+00	0	56	0	440401920	46	4295
2026-01-29 01:11:40.30	27.61	14.88	-37.2	-38.8	15.9	0.00e+00	0	56	0	445644800	46	4242
2026-01-29 01:11:41.31	27.68	14.98	-37.2	-38.8	16.0	0.00e+00	0	56	0	450887680	46	4225
2026-01-29 01:11:42.32	27.75	15.08	-37.2	-38.8	16.0	0.00e+00	0	56	0	457179136	46	4237
2026-01-29 01:11:43.33	27.83	15.18	-37.1	-38.8	16.0	0.00e+00	0	56	0	462422016	46	4198
2026-01-29 01:11:44.34	27.90	15.29	-37.2	-38.8	16.0	0.00e+00	0	56	0	468713472	46	4216
2026-01-29 01:11:45.35	27.97	15.39	-37.2	-38.8	16.0	0.00e+00	0	56	0	473956352	46	4223
2026-01-29 01:11:46.36	28.05	15.49	-37.2	-38.8	15.9	0.00e+00	0	56	0	480247808	46	4235
2026-01-29 01:11:47.37	28.12	15.59	-37.2	-38.8	16.0	0.00e+00	0	56	0	485490688	46	4242
2026-01-29 01:11:48.38	28.20	15.70	-37.2	-38.9	16.0	0.00e+00	0	56	0	491782144	46	4243
2026-01-29 01:11:49.39	28.28	15.80	-37.2	-38.9	16.0	0.00e+00	0	56	0	497025024	46	4251
2026-01-29 01:11:50.40	28.35	15.91	-37.2	-38.8	16.0	0.00e+00	0	56	0	502267904	46	4231
2026-01-29 01:11:51.41	28.43	16.01	-37.2	-38.8	16.0	0.00e+00	0	57	0	508559360	46	4226
2026-01-29 01:11:52.42	28.51	16.12	-37.2	-38.8	16.0	0.00e+00	0	57	0	513802240	46	4207
2026-01-29 01:11:53.43	28.58	16.22	-37.1	-38.7	16.1	0.00e+00	0	57	0	520093696	46	4168
2026-01-29 01:11:54.44	28.66	16.33	-37.0	-38.6	16.2	0.00e+00	0	56	0	525336576	46	4142
2026-01-29 01:11:55.45	28.74	16.43	-36.9	-38.5	16.3	0.00e+00	0	57	0	530579456	45	4325
2026-01-29 01:11:56.46	28.82	16.54	-36.9	-38.5	16.3	0.00e+00	0	57	0	536870912	45	4322
2026-01-29 01:11:57.48	28.90	16.65	-36.9	-38.4	16.4	0.00e+00	0	56	0	542113792	45	4274
2026-01-29 01:11:58.49	28.98	16.76	-36.9	-38.5	16.4	0.00e+00	0	57	0	548405248	45	4316
2026-01-29 01:11:59.50	29.06	16.87	-36.9	-38.4	16.4	0.00e+00	0	57	0	553648128	45	4285
2026-01-29 01:12:00.51	29.15	16.97	-36.8	-38.4	16.4	0.00e+00	0	56	0	558891008	45	4267
2026-01-29 01:12:01.52	29.23	17.08	-36.9	-38.5	16.3	0.00e+00	0	57	0	565182464	45	4321
2026-01-29 01:12:02.53	29.31	17.19	-37.0	-38.5	16.3	0.00e+00	0	57	0	570425344	45	4339
2026-01-29 01:12:03.54	29.39	17.30	-36.9	-38.5	16.4	0.00e+00	0	57	0	576716800	45	4296
2026-01-29 01:12:04.55	29.48	17.41	-36.9	-38.4	16.5	0.00e+00	0	57	0	581959680	45	4270
2026-01-29 01:12:05.56	29.56	17.52	-36.9	-38.5	16.4	0.00e+00	0	57	0	588251136	45	4293
2026-01-29 01:12:06.57	29.65	17.63	-36.8	-38.4	16.6	0.00e+00	0	57	0	593494016	45	4248
2026-01-29 01:12:07.58	29.73	17.75	-36.8	-38.3	16.6	0.00e+00	0	57	0	599785472	45	4225
2026-01-29 01:12:08.59	29.82	17.86	-36.7	-38.2	16.7	0.00e+00	0	57	0	605028352	45	4184
2026-01-29 01:12:09.60	29.91	17.97	-36.6	-38.2	16.8	0.00e+00	0	57	0	610271232	45	4146
2026-01-29 01:12:10.61	30.00	18.08	-36.5	-38.0	16.9	0.00e+00	0	57	0	616562688	45	4090
2026-01-29 01:12:11.62	30.08	18.20	-36.6	-38.1	16.8	0.00e+00	0	57	0	621805568	45	4136
2026-01-29 01:12:12.63	30.17	18.31	-36.5	-38.0	16.9	0.00e+00	0	57	0	628097024	45	4087
2026-01-29 01:12:13.64	30.26	18.43	-36.5	-38.0	17.0	0.00e+00	0	57	0	633339904	45	4087
2026-01-29 01:12:14.65	30.35	18.54	-36.6	-38.0	17.0	0.00e+00	0	57	0	638582784	45	4096
2026-01-29 01:12:15.66	30.44	18.66	-36.6	-38.1	17.0	0.00e+00	0	57	0	644874240	45	4099
2026-01-29 01:12:16.67	30.53	18.77	-36.6	-38.1	17.0	0.00e+00	0	57	0	650117120	45	4100
2026-01-29 01:12:17.68	30.63	18.89	-36.6	-38.1	17.0	0.00e+00	0	57	0	656408576	45	4112
2026-01-29 01:12:18.69	30.72	19.01	-36.6	-38.2	16.9	0.00e+00	0	57	0	661651456	45	4158
2026-01-29 01:12:19.70	30.81	19.12	-36.6	-38.1	16.9	0.00e+00	0	57	0	666894336	45	4142
2026-01-29 01:12:20.71	30.91	19.24	-36.6	-38.1	16.9	0.00e+00	0	57	0	673185792	45	4135
2026-01-29 01:12:21.72	31.00	19.36	-36.6	-38.1	17.0	0.00e+00	0	57	0	678428672	45	4126
2026-01-29 01:12:22.73	31.10	19.48	-36.6	-38.1	17.0	0.00e+00	0	57	0	684720128	45	4128
2026-01-29 01:12:23.74	31.19	19.60	-36.5	-38.0	17.0	0.00e+00	0	57	0	689963008	45	4076
2026-01-29 01:12:24.75	31.29	19.72	-36.5	-37.9	17.1	0.00e+00	0	57	0	696254464	44	4283
2026-01-29 01:12:25.76	31.39	19.84	-36.4	-37.9	17.2	0.00e+00	0	57	0	701497344	44	4263
2026-01-29 01:12:26.77	31.49	19.96	-36.5	-37.9	17.1	0.00e+00	0	57	0	707788800	44	4290
2026-01-29 01:12:27.78	31.59	20.08	-36.4	-37.9	17.2	0.00e+00	0	57	0	713031680	44	4247
2026-01-29 01:12:28.79	31.69	20.20	-36.4	-37.9	17.2	0.00e+00	0	57	0	718274560	44	4244
2026-01-29 01:12:29.80	31.79	20.32	-36.4	-37.9	17.2	0.00e+00	0	57	0	724566016	44	4252
2026-01-29 01:12:30.81	31.89	20.45	-36.3	-37.7	17.3	0.00e+00	0	57	0	729808896	44	4191
2026-01-29 01:12:31.82	31.99	20.57	-36.3	-37.8	17.3	0.00e+00	0	57	0	736100352	44	4194
2026-01-29 01:12:32.83	32.09	20.69	-36.4	-37.8	17.2	0.00e+00	0	57	0	741343232	44	4234
2026-01-29 01:12:33.84	32.20	20.82	-36.4	-37.8	17.2	0.00e+00	0	57	0	746586112	44	4237
2026-01-29 01:12:34.85	32.30	20.94	-36.4	-37.8	17.3	0.00e+00	0	57	0	752877568	44	4213
2026-01-29 01:12:35.86	32.41	21.07	-36.4	-37.8	17.3	0.00e+00	0	57	0	758120448	44	4239
2026-01-29 01:12:36.87	32.52	21.19	-36.4	-37.8	17.3	0.00e+00	0	57	0	764411904	44	4227
2026-01-29 01:12:37.88	32.62	21.32	-36.3	-37.7	17.4	0.00e+00	0	57	0	769654784	44	4191
2026-01-29 01:12:38.89	32.73	21.45	-36.2	-37.6	17.5	0.00e+00	0	57	0	774897664	44	4129
2026-01-29 01:12:39.90	32.84	21.58	-36.2	-37.6	17.5	0.00e+00	0	57	0	781189120	44	4106
2026-01-29 01:12:40.91	32.95	21.70	-36.2	-37.6	17.5	0.00e+00	0	57	0	786432000	44	4142
2026-01-29 01:12:41.93	33.06	21.83	-36.1	-37.5	17.6	0.00e+00	0	57	0	792723456	44	4089
2026-01-29 01:12:42.94	33.17	21.96	-36.0	-37.4	17.7	0.00e+00	0	57	0	797966336	44	4008
2026-01-29 01:12:43.94	33.28	22.09	-35.8	-37.1	17.8	0.00e+00	0	57	0	804257792	43	4145
2026-01-29 01:12:44.95	33.40	22.22	-35.8	-37.2	17.8	0.00e+00	0	57	0	809500672	43	4147
2026-01-29 01:12:45.96	33.51	22.35	-35.7	-37.1	17.8	0.00e+00	0	57	0	814743552	43	4126
2026-01-29 01:12:46.97	33.63	22.49	-35.8	-37.1	17.8	0.00e+00	0	57	0	821035008	43	4141
2026-01-29 01:12:47.99	33.74	22.62	-35.8	-37.1	17.9	0.00e+00	0	57	0	826277888	43	4133
2026-01-29 01:12:49.00	33.86	22.75	-35.8	-37.1	17.8	0.00e+00	0	57	0	832569344	43	4135
2026-01-29 01:12:50.01	33.98	22.89	-35.8	-37.2	17.8	0.00e+00	0	57	0	837812224	43	4162
2026-01-29 01:12:51.02	34.10	23.02	-35.8	-37.2	17.8	0.00e+00	0	57	0	843055104	43	4161
2026-01-29 01:12:52.03	34.22	23.15	-35.9	-37.2	17.8	0.00e+00	0	57	0	849346560	43	4191
2026-01-29 01:12:53.04	34.34	23.29	-35.8	-37.2	17.8	0.00e+00	0	57	0	854589440	43	4174
2026-01-29 01:12:54.05	34.46	23.42	-35.6	-37.0	18.0	0.00e+00	0	57	0	860880896	43	4066
2026-01-29 01:12:55.05	34.58	23.56	-35.6	-36.9	18.1	0.00e+00	0	57	0	866123776	43	4037
2026-01-29 01:12:56.06	34.71	23.70	-35.6	-36.9	18.1	0.00e+00	0	57	0	871366656	43	4027
2026-01-29 01:12:57.07	34.83	23.83	-35.6	-37.0	18.0	0.00e+00	0	57	0	877658112	43	4056
2026-01-29 01:12:58.08	34.96	23.97	-35.6	-36.9	18.1	0.00e+00	0	57	0	882900992	43	4041
2026-01-29 01:12:59.10	35.09	24.11	-35.6	-36.9	18.1	0.00e+00	0	57	0	889192448	43	4041
2026-01-29 01:13:00.10	35.22	24.25	-35.6	-36.9	18.1	0.00e+00	0	57	0	894435328	43	4032
2026-01-29 01:13:01.12	35.35	24.39	-35.4	-36.7	18.3	0.00e+00	0	57	0	900726784	42	4189
2026-01-29 01:13:02.13	35.48	24.53	-35.4	-36.7	18.3	0.00e+00	0	57	0	905969664	42	4166
2026-01-29 01:13:03.14	35.61	24.67	-35.3	-36.6	18.4	0.00e+00	0	57	0	912261120	42	4143
2026-01-29 01:13:04.15	35.74	24.81	-35.2	-36.5	18.5	0.00e+00	0	57	0	917504000	42	4093
2026-01-29 01:13:05.16	35.88	24.96	-35.3	-36.6	18.5	0.00e+00	0	58	0	922746880	42	4107
2026-01-29 01:13:06.17	36.01	25.10	-35.3	-36.5	18.5	0.00e+00	0	57	0	929038336	42	4096
2026-01-29 01:13:07.18	36.15	25.24	-35.3	-36.6	18.5	0.00e+00	0	57	0	934281216	42	4126
2026-01-29 01:13:08.19	36.29	25.39	-35.3	-36.6	18.4	0.00e+00	0	57	0	940572672	42	4145
2026-01-29 01:13:09.21	36.43	25.53	-35.3	-36.6	18.4	0.00e+00	0	57	0	945815552	42	4139
2026-01-29 01:13:10.22	36.57	25.68	-35.3	-36.6	18.5	0.00e+00	0	57	0	951058432	42	4122
2026-01-29 01:13:11.23	36.71	25.83	-35.4	-36.6	18.4	0.00e+00	0	57	0	957349888	42	4142
2026-01-29 01:13:12.24	36.85	25.97	-35.4	-36.7	18.4	0.00e+00	0	57	0	962592768	42	4177
2026-01-29 01:13:13.25	37.00	26.12	-35.5	-36.8	18.3	0.00e+00	0	57	0	968884224	42	4226
2026-01-29 01:13:14.26	37.14	26.27	-35.4	-36.7	18.3	0.00e+00	0	58	0	974127104	42	4189
2026-01-29 01:13:15.27	37.29	26.42	-35.3	-36.6	18.5	0.00e+00	0	57	0	979369984	42	4134
2026-01-29 01:13:16.28	37.44	26.56	-35.3	-36.6	18.5	0.00e+00	0	57	0	985661440	42	4112
2026-01-29 01:13:17.29	37.58	26.71	-35.4	-36.7	18.4	0.00e+00	0	57	0	990904320	42	4157
2026-01-29 01:13:18.30	37.74	26.87	-35.3	-36.6	18.5	0.00e+00	0	57	0	997195776	42	4130
2026-01-29 01:13:19.31	37.89	27.02	-35.4	-36.7	18.4	0.00e+00	0	57	0	1002438656	42	4152
2026-01-29 01:13:20.32	38.04	27.17	-35.3	-36.6	18.5	0.00e+00	0	57	0	1008730112	42	4105
2026-01-29 01:13:21.33	38.20	27.32	-35.2	-36.4	18.7	0.00e+00	0	57	0	1013972992	42	4036
2026-01-29 01:13:22.35	38.35	27.48	-35.1	-36.4	18.7	0.00e+00	0	57	0	1020264448	42	4012
2026-01-29 01:13:23.35	38.51	27.63	-35.1	-36.4	18.7	0.00e+00	0	57	0	1025507328	42	4042
2026-01-29 01:13:24.37	38.67	27.78	-35.1	-36.4	18.7	0.00e+00	0	57	0	1030750208	42	4028
2026-01-29 01:13:25.38	38.83	27.94	-35.1	-36.4	18.7	0.00e+00	0	57	0	1037041664	42	4046
2026-01-29 01:13:26.39	39.00	28.09	-35.2	-36.5	18.6	0.00e+00	0	57	0	1042284544	42	4087
2026-01-29 01:13:27.40	39.16	28.25	-35.3	-36.6	18.6	0.00e+00	0	58	0	1048576000	42	4110
2026-01-29 01:13:28.41	39.32	28.41	-35.3	-36.6	18.5	0.00e+00	0	57	0	1053818880	42	4123
2026-01-29 01:13:29.42	39.49	28.56	-35.3	-36.6	18.5	0.00e+00	0	57	0	1060110336	42	4118
2026-01-29 01:13:30.43	39.66	28.72	-35.3	-36.6	18.5	0.00e+00	0	57	0	1065353216	42	4122
2026-01-29 01:13:31.44	39.83	28.88	-35.3	-36.6	18.5	0.00e+00	0	58	0	1070596096	42	4115
2026-01-29 01:13:32.45	40.00	29.04	-35.4	-36.6	18.5	0.00e+00	0	58	0	1076887552	42	4139
2026-01-29 01:13:33.46	40.18	29.20	-35.3	-36.6	18.6	0.00e+00	0	57	0	1082130432	42	4114
2026-01-29 01:13:34.47	40.35	29.36	-35.2	-36.5	18.6	0.00e+00	0	57	0	1088421888	42	4083
2026-01-29 01:13:35.48	40.53	29.52	-35.2	-36.5	18.7	0.00e+00	0	58	0	1093664768	42	4063
2026-01-29 01:13:36.49	40.71	29.69	-35.3	-36.6	18.6	0.00e+00	0	58	0	1098907648	42	4106
2026-01-29 01:13:37.50	40.89	29.85	-35.2	-36.5	18.7	0.00e+00	0	58	0	1105199104	42	4072
2026-01-29 01:13:38.51	41.07	30.01	-35.3	-36.6	18.6	0.00e+00	0	58	0	1110441984	42	4102
2026-01-29 01:13:39.52	41.26	30.18	-35.3	-36.6	18.6	0.00e+00	0	58	0	1116733440	42	4101
2026-01-29 01:13:40.53	41.44	30.34	-35.3	-36.5	18.6	0.00e+00	0	58	0	1121976320	42	4093
2026-01-29 01:13:41.54	41.63	30.50	-35.2	-36.5	18.7	0.00e+00	0	58	0	1128267776	42	4058
2026-01-29 01:13:42.55	41.82	30.67	-35.2	-36.5	18.7	0.00e+00	0	58	0	1133510656	42	4060
2026-01-29 01:13:43.56	42.01	30.84	-35.2	-36.5	18.7	0.00e+00	0	58	0	1138753536	42	4074
2026-01-29 01:13:44.57	42.21	31.00	-35.2	-36.5	18.7	0.00e+00	0	57	0	1145044992	42	4060
2026-01-29 01:13:45.58	42.40	31.17	-35.2	-36.4	18.7	0.00e+00	0	58	0	1150287872	42	4043
2026-01-29 01:13:46.59	42.60	31.34	-35.2	-36.4	18.7	0.00e+00	0	58	0	1156579328	42	4042
2026-01-29 01:13:47.60	42.80	31.51	-35.1	-36.3	18.8	0.00e+00	0	58	0	1161822208	42	4003
2026-01-29 01:13:48.61	43.00	31.68	-35.0	-36.2	18.9	0.00e+00	0	58	0	1167065088	42	3947
2026-01-29 01:13:49.62	43.20	31.85	-34.9	-36.2	19.0	0.00e+00	0	58	0	1173356544	41	4155
2026-01-29 01:13:50.63	43.41	32.02	-34.8	-36.0	19.1	0.00e+00	0	58	0	1178599424	41	4083
2026-01-29 01:13:51.64	43.62	32.19	-34.7	-36.0	18.9	0.00e+00	0	58	0	1184890880	41	4076
2026-01-29 01:13:52.65	43.83	32.36	-34.8	-36.1	18.8	0.00e+00	0	58	0	1190133760	41	4118
2026-01-29 01:13:53.67	44.04	32.54	-34.8	-36.2	18.7	0.00e+00	0	58	0	1195376640	41	4162
2026-01-29 01:13:54.68	44.26	32.71	-34.8	-36.2	18.7	0.00e+00	0	57	0	1201668096	41	4167
2026-01-29 01:13:55.69	44.48	32.88	-34.9	-36.3	18.6	0.00e+00	0	58	0	1206910976	41	4214
2026-01-29 01:13:56.70	44.69	33.06	-35.0	-36.4	18.5	0.00e+00	0	58	0	1213202432	41	4258
2026-01-29 01:13:57.71	44.92	33.23	-35.1	-36.5	18.4	0.00e+00	0	58	0	1218445312	41	4299
2026-01-29 01:13:58.72	45.14	33.41	-35.0	-36.4	18.5	0.00e+00	0	58	0	1224736768	41	4246
2026-01-29 01:13:59.73	45.37	33.58	-35.0	-36.3	18.6	0.00e+00	0	58	0	1229979648	41	4237
2026-01-29 01:14:00.74	45.60	33.76	-34.9	-36.2	18.7	0.00e+00	0	58	0	1236271104	41	4177
2026-01-29 01:14:01.75	45.83	33.94	-34.8	-36.1	18.8	0.00e+00	0	58	0	1241513984	41	4120
2026-01-29 01:14:02.76	46.06	34.11	-34.8	-36.1	18.8	0.00e+00	0	58	0	1246756864	41	4111
2026-01-29 01:14:03.77	46.30	34.29	-34.7	-36.1	18.8	0.00e+00	0	58	0	1253048320	41	4100
2026-01-29 01:14:04.78	46.54	34.47	-34.6	-36.0	18.9	0.00e+00	0	58	0	1258291200	41	4060
2026-01-29 01:14:05.79	46.78	34.65	-34.8	-36.2	18.7	0.00e+00	0	58	0	1264582656	41	4164
2026-01-29 01:14:06.80	47.02	34.83	-34.9	-36.3	18.6	0.00e+00	0	58	0	1269825536	41	4230
2026-01-29 01:14:07.81	47.27	35.01	-35.1	-36.6	18.3	0.00e+00	0	58	0	1275068416	41	4350
2026-01-29 01:14:08.82	47.52	35.19	-35.2	-36.6	18.3	0.00e+00	0	58	0	1281359872	41	4367
2026-01-29 01:14:09.84	47.77	35.37	-35.2	-36.6	18.3	0.00e+00	0	58	0	1286602752	41	4384
2026-01-29 01:14:10.85	48.03	35.55	-35.1	-36.5	18.4	0.00e+00	0	58	0	1292894208	41	4292
2026-01-29 01:14:11.86	48.28	35.73	-34.9	-36.2	18.7	0.00e+00	0	58	0	1298137088	41	4172
2026-01-29 01:14:12.87	48.54	35.92	-34.8	-36.2	18.7	0.00e+00	0	58	0	1304428544	41	4156
2026-01-29 01:14:13.88	48.81	36.10	-34.9	-36.3	18.7	0.00e+00	0	58	0	1309671424	41	4199
2026-01-29 01:14:14.89	49.07	36.28	-34.8	-36.1	18.8	0.00e+00	0	58	0	1314914304	41	4122
2026-01-29 01:14:15.90	49.34	36.46	-34.7	-36.0	18.9	0.00e+00	0	58	0	1321205760	41	4097
2026-01-29 01:14:16.91	49.62	36.65	-34.7	-36.0	18.9	0.00e+00	0	58	0	1326448640	41	4063
2026-01-29 01:14:17.92	49.89	36.83	-34.8	-36.1	18.8	0.00e+00	0	58	0	1332740096	41	4139
2026-01-29 01:14:18.93	50.17	37.02	-34.9	-36.3	18.7	0.00e+00	0	58	0	1337982976	41	4216
2026-01-29 01:14:19.94	50.45	37.20	-34.9	-36.3	18.7	0.00e+00	0	58	0	1344274432	41	4196
2026-01-29 01:14:20.95	50.74	37.38	-34.7	-36.0	19.0	0.00e+00	0	58	0	1349517312	41	4068
2026-01-29 01:14:21.96	51.02	37.57	-34.5	-35.8	19.1	0.00e+00	0	58	0	1354760192	41	3983
2026-01-29 01:14:22.97	51.32	37.75	-34.4	-35.7	19.2	0.00e+00	0	58	0	1361051648	40	4187
2026-01-29 01:14:23.98	51.61	37.94	-34.3	-35.6	19.3	0.00e+00	0	58	0	1366294528	40	4127
2026-01-29 01:14:25.00	51.91	38.13	-34.4	-35.7	19.3	0.00e+00	0	58	0	1372585984	40	4147
2026-01-29 01:14:26.01	52.21	38.31	-34.5	-35.8	19.1	0.00e+00	0	58	0	1377828864	40	4230
2026-01-29 01:14:27.02	52.52	38.50	-34.8	-36.1	18.8	0.00e+00	0	58	0	1383071744	40	4386
2026-01-29 01:14:28.03	52.82	38.69	-34.9	-36.2	18.7	0.00e+00	0	58	0	1389363200	40	4426
2026-01-29 01:14:29.04	53.14	38.87	-34.8	-36.1	18.9	0.00e+00	0	58	0	1394606080	40	4383
2026-01-29 01:14:30.05	53.45	39.06	-34.7	-36.0	19.0	0.00e+00	0	58	0	1400897536	40	4328
2026-01-29 01:14:31.06	53.77	39.24	-34.7	-36.0	19.1	0.00e+00	0	58	0	1406140416	40	4293
2026-01-29 01:14:32.07	54.09	39.43	-34.6	-35.9	19.1	0.00e+00	0	58	0	1412431872	40	4252
2026-01-29 01:14:33.08	54.42	39.62	-34.5	-35.8	19.2	0.00e+00	0	58	0	1417674752	40	4212
2026-01-29 01:14:34.09	54.75	39.80	-34.5	-35.8	19.2	0.00e+00	0	58	0	1422917632	40	4208
2026-01-29 01:14:35.10	55.08	39.99	-34.6	-36.0	19.1	0.00e+00	0	58	0	1429209088	40	4294
2026-01-29 01:14:36.11	55.42	40.18	-35.0	-36.3	18.7	0.00e+00	0	58	0	1434451968	40	4476
2026-01-29 01:14:37.12	55.76	40.36	-35.1	-36.5	18.5	0.00e+00	0	58	0	1440743424	40	4564
2026-01-29 01:14:38.13	56.10	40.55	-35.2	-36.5	18.5	0.00e+00	0	58	0	1445986304	40	4594
2026-01-29 01:14:39.14	56.45	40.73	-35.1	-36.4	18.6	0.00e+00	0	58	0	1452277760	40	4534
2026-01-29 01:14:40.15	56.81	40.92	-35.1	-36.4	18.6	0.00e+00	0	58	0	1457520640	40	4531
2026-01-29 01:14:41.16	57.16	41.10	-35.1	-36.4	18.6	0.00e+00	0	58	0	1462763520	40	4528
2026-01-29 01:14:42.17	57.52	41.29	-34.9	-36.3	18.7	0.00e+00	0	58	0	1469054976	40	4464
2026-01-29 01:14:43.18	57.89	41.47	-34.9	-36.3	18.7	0.00e+00	0	58	0	1474297856	40	4464
2026-01-29 01:14:44.19	58.26	41.66	-34.9	-36.2	18.8	0.00e+00	0	58	0	1480589312	40	4420
2026-01-29 01:14:45.20	58.63	41.84	-34.8	-36.2	18.9	0.00e+00	0	58	0	1485832192	40	4399
2026-01-29 01:14:46.21	59.01	42.03	-34.8	-36.1	18.9	0.00e+00	0	58	0	1491075072	40	4377
2026-01-29 01:14:47.22	59.39	42.21	-34.7	-36.0	19.0	0.00e+00	0	58	0	1497366528	40	4299
2026-01-29 01:14:48.23	59.78	42.39	-34.8	-36.1	18.9	0.00e+00	0	58	0	1502609408	40	4373
2026-01-29 01:14:49.24	60.17	42.57	-34.8	-36.2	18.9	0.00e+00	0	58	0	1508900864	40	4392
2026-01-29 01:14:50.25	60.56	42.75	-34.9	-36.2	18.8	0.00e+00	0	58	0	1514143744	40	4417
2026-01-29 01:14:51.27	60.97	42.94	-34.9	-36.2	18.8	0.00e+00	0	58	0	1519386624	40	4415
2026-01-29 01:14:52.28	61.37	43.12	-34.9	-36.3	18.8	0.00e+00	0	58	0	1525678080	40	4444
2026-01-29 01:14:53.29	61.78	43.30	-34.9	-36.2	18.8	0.00e+00	0	58	0	1530920960	40	4420
2026-01-29 01:14:54.30	62.19	43.48	-35.0	-36.4	18.7	0.00e+00	0	58	0	1537212416	40	4498
2026-01-29 01:14:55.31	62.61	43.65	-34.9	-36.3	18.8	0.00e+00	0	58	0	1542455296	40	4452
2026-01-29 01:14:56.32	63.03	43.83	-35.0	-36.3	18.8	0.00e+00	0	58	0	1548746752	40	4464
2026-01-29 01:14:57.33	63.46	44.01	-34.9	-36.3	18.8	0.00e+00	0	58	0	1553989632	40	4442
2026-01-29 01:14:58.34	63.89	44.18	-34.9	-36.2	18.9	0.00e+00	0	58	0	1560281088	40	4423
2026-01-29 01:14:59.35	64.33	44.36	-34.9	-36.2	18.9	0.00e+00	0	58	0	1565523968	40	4432
2026-01-29 01:15:00.36	64.77	44.53	-35.0	-36.3	18.8	0.00e+00	0	58	0	1570766848	40	4482
2026-01-29 01:15:01.37	65.21	44.70	-35.1	-36.5	18.6	0.00e+00	0	58	0	1577058304	40	4575
2026-01-29 01:15:02.39	65.67	44.87	-35.2	-36.5	18.5	0.00e+00	0	58	0	1582301184	41	4335
2026-01-29 01:15:03.40	66.12	45.04	-35.1	-36.5	18.6	0.00e+00	0	58	0	1588592640	41	4298
2026-01-29 01:15:04.41	66.58	45.21	-35.1	-36.5	18.6	0.00e+00	0	58	0	1593835520	41	4293
2026-01-29 01:15:05.42	67.05	45.38	-35.1	-36.4	18.6	0.00e+00	0	58	0	1599078400	41	4279
2026-01-29 01:15:06.42	67.51	45.54	-35.1	-36.4	18.6	0.00e+00	0	58	0	1605369856	41	4283
2026-01-29 01:15:07.43	67.99	45.71	-35.1	-36.5	18.6	0.00e+00	0	58	0	1610612736	41	4297
2026-01-29 01:15:08.44	68.47	45.87	-35.2	-36.6	18.5	0.00e+00	0	58	0	1616904192	41	4351
2026-01-29 01:15:09.46	68.96	46.03	-35.2	-36.6	18.5	0.00e+00	0	58	0	1622147072	41	4349
2026-01-29 01:15:10.47	69.45	46.19	-35.2	-36.6	18.5	0.00e+00	0	58	0	1627389952	41	4344
2026-01-29 01:15:11.48	69.94	46.35	-35.2	-36.5	18.6	0.00e+00	0	58	0	1633681408	41	4321
2026-01-29 01:15:12.49	70.44	46.51	-35.2	-36.6	18.5	0.00e+00	0	58	0	1638924288	41	4353
2026-01-29 01:15:13.50	70.95	46.66	-35.3	-36.6	18.5	0.00e+00	0	58	0	1645215744	41	4387
2026-01-29 01:15:14.51	71.46	46.82	-35.1	-36.4	18.7	0.00e+00	0	58	0	1650458624	41	4279
2026-01-29 01:15:15.52	71.97	46.97	-35.0	-36.3	18.8	0.00e+00	0	58	0	1656750080	41	4217
2026-01-29 01:15:16.53	72.49	47.12	-35.0	-36.3	18.8	0.00e+00	0	58	0	1661992960	41	4234
2026-01-29 01:15:17.54	73.01	47.26	-34.9	-36.2	18.9	0.00e+00	0	58	0	1668284416	41	4188
2026-01-29 01:15:18.55	73.54	47.41	-35.0	-36.3	18.9	0.00e+00	0	58	0	1673527296	41	4201
2026-01-29 01:15:19.56	74.08	47.55	-35.2	-36.5	18.6	0.00e+00	0	58	0	1678770176	41	4324
2026-01-29 01:15:20.57	74.62	47.69	-35.1	-36.4	18.7	0.00e+00	0	58	0	1685061632	41	4289
2026-01-29 01:15:21.58	75.16	47.83	-35.2	-36.5	18.6	0.00e+00	0	58	0	1690304512	41	4318
2026-01-29 01:15:22.59	75.71	47.97	-35.3	-36.7	18.4	0.00e+00	0	58	0	1696595968	41	4423
2026-01-29 01:15:23.60	76.26	48.10	-35.3	-36.7	18.5	0.00e+00	0	58	0	1701838848	41	4403
2026-01-29 01:15:24.61	76.82	48.23	-35.2	-36.5	18.7	0.00e+00	0	58	0	1707081728	41	4310
2026-01-29 01:15:25.62	77.38	48.36	-35.1	-36.5	18.7	0.00e+00	0	58	0	1713373184	41	4296
2026-01-29 01:15:26.63	77.95	48.49	-35.1	-36.4	18.7	0.00e+00	0	58	0	1718616064	41	4275
2026-01-29 01:15:27.64	78.52	48.61	-35.0	-36.3	18.8	0.00e+00	0	58	0	1724907520	41	4233
2026-01-29 01:15:28.65	79.10	48.73	-35.0	-36.3	18.9	0.00e+00	0	58	0	1730150400	41	4212
2026-01-29 01:15:29.66	79.68	48.85	-35.1	-36.4	18.8	0.00e+00	0	58	0	1735393280	41	4267
2026-01-29 01:15:30.67	80.26	48.97	-35.2	-36.5	18.7	0.00e+00	0	58	0	1741684736	41	4312
2026-01-29 01:15:31.68	80.85	49.08	-35.3	-36.7	18.5	0.00e+00	0	58	0	1746927616	41	4415
2026-01-29 01:15:32.69	81.45	49.19	-35.2	-36.6	18.6	0.00e+00	0	58	0	1753219072	41	4359
2026-01-29 01:15:33.70	82.05	49.29	-35.3	-36.6	18.6	0.00e+00	0	58	0	1758461952	41	4353
2026-01-29 01:15:34.71	82.65	49.40	-35.1	-36.4	18.8	0.00e+00	0	58	0	1764753408	41	4255
2026-01-29 01:15:35.72	83.26	49.50	-35.0	-36.3	18.8	0.00e+00	0	58	0	1769996288	41	4242
2026-01-29 01:15:36.73	83.87	49.59	-35.2	-36.6	18.6	0.00e+00	0	58	0	1776287744	41	4343
2026-01-29 01:15:37.74	84.48	49.69	-35.3	-36.6	18.5	0.00e+00	0	58	0	1781530624	41	4391
2026-01-29 01:15:38.76	85.10	49.78	-35.3	-36.7	18.5	0.00e+00	0	58	0	1786773504	41	4421
2026-01-29 01:15:39.76	85.72	49.87	-35.2	-36.6	18.6	0.00e+00	0	58	0	1793064960	41	4353
2026-01-29 01:15:40.78	86.35	49.95	-35.3	-36.7	18.5	0.00e+00	0	58	0	1798307840	41	4408
2026-01-29 01:15:41.79	86.98	50.03	-35.3	-36.6	18.5	0.00e+00	0	58	0	1804599296	41	4376
2026-01-29 01:15:42.80	87.61	50.11	-35.2	-36.5	18.6	0.00e+00	0	58	0	1809842176	41	4337
2026-01-29 01:15:43.81	88.24	50.18	-35.0	-36.3	18.9	0.00e+00	0	58	0	1815085056	41	4211
2026-01-29 01:15:44.82	88.88	50.25	-35.0	-36.3	18.8	0.00e+00	0	58	0	1821376512	41	4236
2026-01-29 01:15:45.83	89.52	50.32	-35.0	-36.3	18.9	0.00e+00	0	58	0	1826619392	41	4204
2026-01-29 01:15:46.84	90.17	50.38	-35.0	-36.2	18.9	0.00e+00	0	58	0	1832910848	41	4190
2026-01-29 01:15:47.85	90.81	50.44	-35.0	-36.3	18.9	0.00e+00	0	58	0	1838153728	41	4214
2026-01-29 01:15:48.86	91.46	50.50	-35.2	-36.6	18.6	0.00e+00	0	58	0	1843396608	41	4360
2026-01-29 01:15:49.87	92.11	50.55	-35.3	-36.6	18.6	0.00e+00	0	58	0	1849688064	41	4364
2026-01-29 01:15:50.88	92.76	50.60	-35.3	-36.7	18.5	0.00e+00	0	58	0	1854930944	41	4399
2026-01-29 01:15:51.89	93.42	50.64	-35.5	-36.8	18.4	0.00e+00	0	58	0	1861222400	41	4485
2026-01-29 01:15:52.90	94.08	50.68	-35.4	-36.8	18.4	0.00e+00	0	58	0	1866465280	41	4477
2026-01-29 01:15:53.91	94.73	50.72	-35.1	-36.4	18.8	0.00e+00	0	58	0	1872756736	41	4261
2026-01-29 01:15:54.92	95.39	50.75	-35.0	-36.3	18.9	0.00e+00	0	58	0	1877999616	41	4212
2026-01-29 01:15:55.93	96.06	50.78	-34.9	-36.2	19.0	0.00e+00	0	58	0	1884291072	41	4164
2026-01-29 01:15:56.94	96.72	50.80	-35.0	-36.3	18.9	0.00e+00	0	58	0	1889533952	41	4197
2026-01-29 01:15:57.95	97.38	50.82	-35.1	-36.4	18.7	0.00e+00	0	58	0	1894776832	41	4280
2026-01-29 01:15:58.96	98.05	50.84	-35.2	-36.6	18.6	0.00e+00	0	58	0	1901068288	41	4363
2026-01-29 01:15:59.98	98.72	50.85	-35.2	-36.5	18.6	0.00e+00	0	58	0	1906311168	41	4337
2026-01-29 01:16:00.99	99.38	50.86	-35.2	-36.5	18.7	0.00e+00	0	58	0	1912602624	41	4302
2026-01-29 01:16:01.99	100.04	50.87	-35.2	-36.5	18.7	0.00e+00	0	58	0	1917845504	41	4309
2026-01-29 01:16:03.01	100.71	50.87	-35.3	-36.6	18.5	0.00e+00	0	58	0	1923088384	41	4368
2026-01-29 01:16:04.02	101.38	50.86	-35.4	-36.8	18.4	0.00e+00	0	58	0	1929379840	41	4447
2026-01-29 01:16:05.03	102.05	50.86	-35.3	-36.7	18.5	0.00e+00	0	58	0	1934622720	41	4393
2026-01-29 01:16:06.04	102.71	50.85	-35.0	-36.3	18.8	0.00e+00	0	58	0	1940914176	41	4242
2026-01-29 01:16:07.05	103.38	50.83	-35.0	-36.3	18.8	0.00e+00	0	58	0	1946157056	41	4239
2026-01-29 01:16:08.06	104.04	50.81	-35.1	-36.5	18.7	0.00e+00	0	58	0	1951399936	41	4292
2026-01-29 01:16:09.07	104.70	50.79	-35.3	-36.6	18.5	0.00e+00	0	58	0	1957691392	41	4371
2026-01-29 01:16:10.08	105.36	50.76	-35.2	-36.5	18.7	0.00e+00	0	58	0	1962934272	41	4315
2026-01-29 01:16:11.09	106.03	50.73	-35.0	-36.3	18.8	0.00e+00	0	58	0	1969225728	41	4227
2026-01-29 01:16:12.10	106.69	50.70	-35.0	-36.3	18.8	0.00e+00	0	58	0	1974468608	41	4242
2026-01-29 01:16:13.11	107.34	50.66	-35.1	-36.4	18.7	0.00e+00	0	58	0	1980760064	41	4290
2026-01-29 01:16:14.12	108.00	50.61	-35.3	-36.7	18.5	0.00e+00	0	58	0	1986002944	41	4408
2026-01-29 01:16:15.13	108.65	50.57	-35.2	-36.6	18.6	0.00e+00	0	58	0	1992294400	41	4370
2026-01-29 01:16:16.14	109.30	50.52	-35.2	-36.5	18.7	0.00e+00	0	58	0	1997537280	41	4307
2026-01-29 01:16:17.16	109.96	50.46	-35.3	-36.7	18.5	0.00e+00	0	58	0	2002780160	41	4402
2026-01-29 01:16:18.17	110.61	50.40	-35.5	-36.9	18.3	0.00e+00	0	58	0	2009071616	41	4521
2026-01-29 01:16:19.18	111.25	50.34	-35.6	-37.0	18.2	0.00e+00	0	58	0	2014314496	41	4563
2026-01-29 01:16:20.19	111.90	50.28	-35.6	-37.0	18.2	0.00e+00	0	58	0	2020605952	41	4596
2026-01-29 01:16:21.20	112.54	50.21	-35.3	-36.7	18.5	0.00e+00	0	58	0	2025848832	41	4396
2026-01-29 01:16:22.21	113.17	50.14	-35.0	-36.3	18.8	0.00e+00	0	58	0	2031091712	41	4241
2026-01-29 01:16:23.22	113.81	50.06	-35.2	-36.5	18.6	0.00e+00	0	58	0	2037383168	41	4328
2026-01-29 01:16:24.23	114.44	49.98	-35.2	-36.6	18.6	0.00e+00	0	58	0	2042626048	41	4353
2026-01-29 01:16:25.24	115.06	49.90	-35.3	-36.7	18.4	0.00e+00	0	58	0	2048917504	41	4420
2026-01-29 01:16:26.25	115.69	49.81	-35.4	-36.7	18.4	0.00e+00	0	58	0	2054160384	41	4439
2026-01-29 01:16:27.26	116.31	49.72	-35.3	-36.7	18.5	0.00e+00	0	58	0	2059403264	41	4401
2026-01-29 01:16:28.27	116.92	49.63	-35.2	-36.5	18.6	0.00e+00	0	58	0	2065694720	41	4332
2026-01-29 01:16:29.28	117.53	49.53	-35.3	-36.7	18.5	0.00e+00	0	58	0	2070937600	41	4394
2026-01-29 01:16:30.29	118.14	49.43	-35.3	-36.6	18.5	0.00e+00	0	58	0	2077229056	41	4382
2026-01-29 01:16:31.31	118.75	49.33	-35.2	-36.5	18.6	0.00e+00	0	58	0	2082471936	41	4325
2026-01-29 01:16:32.31	119.35	49.22	-35.2	-36.5	18.6	0.00e+00	0	58	0	2088763392	41	4335
2026-01-29 01:16:33.33	119.95	49.11	-35.3	-36.6	18.5	0.00e+00	0	58	0	2094006272	41	4383
2026-01-29 01:16:34.34	120.54	49.00	-35.3	-36.7	18.5	0.00e+00	0	58	0	2100297728	41	4422
2026-01-29 01:16:35.35	121.13	48.89	-35.3	-36.6	18.5	0.00e+00	0	58	0	2105540608	41	4385
2026-01-29 01:16:36.36	121.71	48.77	-35.3	-36.6	18.5	0.00e+00	0	58	0	2110783488	41	4382
2026-01-29 01:16:37.37	122.29	48.65	-35.2	-36.5	18.6	0.00e+00	0	58	0	2117074944	41	4319
2026-01-29 01:16:38.38	122.87	48.53	-35.3	-36.7	18.5	0.00e+00	0	58	0	2122317824	41	4403
2026-01-29 01:16:39.39	123.44	48.40	-35.4	-36.8	18.4	0.00e+00	0	58	0	2128609280	41	4445
2026-01-29 01:16:40.40	124.00	48.27	-35.3	-36.7	18.5	0.00e+00	0	58	0	2133852160	41	4417
2026-01-29 01:16:41.41	124.56	48.14	-35.3	-36.7	18.5	0.00e+00	0	58	0	2139095040	41	4410
2026-01-29 01:16:42.43	125.13	48.01	-35.3	-36.7	18.5	0.00e+00	0	58	0	2145386496	41	4395
2026-01-29 01:16:43.44	125.68	47.87	-35.1	-36.5	18.7	0.00e+00	0	58	0	2150629376	41	4320
2026-01-29 01:16:44.45	126.22	47.74	-35.0	-36.3	18.9	0.00e+00	0	58	0	2156920832	41	4222
2026-01-29 01:16:45.46	126.77	47.59	-34.8	-36.1	19.1	0.00e+00	0	58	0	2162163712	41	4123
2026-01-29 01:16:46.47	127.30	47.45	-34.9	-36.2	18.9	0.00e+00	0	58	0	2168455168	41	4171
2026-01-29 01:16:47.48	127.83	47.31	-35.0	-36.3	18.8	0.00e+00	0	58	0	2173698048	41	4235
2026-01-29 01:16:48.49	128.36	47.16	-35.2	-36.6	18.6	0.00e+00	0	58	0	2178940928	41	4363
2026-01-29 01:16:49.50	128.88	47.01	-35.3	-36.7	18.5	0.00e+00	0	58	0	2185232384	41	4395
2026-01-29 01:16:50.51	129.40	46.86	-35.2	-36.5	18.6	0.00e+00	0	58	0	2190475264	41	4337
2026-01-29 01:16:51.52	129.91	46.71	-35.1	-36.5	18.6	0.00e+00	0	58	0	2196766720	41	4316
2026-01-29 01:16:52.54	130.43	46.55	-35.1	-36.4	18.7	0.00e+00	0	58	0	2202009600	41	4276
2026-01-29 01:16:53.55	130.93	46.40	-35.0	-36.4	18.7	0.00e+00	0	58	0	2208301056	41	4253
2026-01-29 01:16:54.56	131.42	46.24	-35.1	-36.5	18.7	0.00e+00	0	58	0	2213543936	41	4303
2026-01-29 01:16:55.57	131.92	46.08	-35.1	-36.4	18.7	0.00e+00	0	58	0	2218786816	41	4274
2026-01-29 01:16:56.58	132.40	45.92	-35.1	-36.4	18.7	0.00e+00	0	58	0	2225078272	41	4280
2026-01-29 01:16:57.59	132.89	45.75	-35.1	-36.5	18.6	0.00e+00	0	58	0	2230321152	41	4315
2026-01-29 01:16:58.60	133.37	45.59	-35.2	-36.5	18.6	0.00e+00	0	58	0	2236612608	41	4336
2026-01-29 01:16:59.61	133.84	45.42	-35.1	-36.5	18.6	0.00e+00	0	58	0	2241855488	41	4313
2026-01-29 01:17:00.62	134.31	45.25	-35.2	-36.5	18.6	0.00e+00	0	58	0	2247098368	41	4325
2026-01-29 01:17:01.63	134.77	45.09	-35.3	-36.7	18.4	0.00e+00	0	58	0	2253389824	41	4406
2026-01-29 01:17:02.64	135.23	44.92	-35.4	-36.8	18.3	0.00e+00	0	59	0	2258632704	41	4483
2026-01-29 01:17:03.65	135.68	44.74	-35.4	-36.9	18.3	0.00e+00	0	58	0	2264924160	41	4496
2026-01-29 01:17:04.66	136.13	44.57	-35.3	-36.7	18.4	0.00e+00	0	58	0	2270167040	41	4438
2026-01-29 01:17:05.67	136.57	44.40	-35.3	-36.7	18.3	0.00e+00	0	58	0	2275409920	41	4438
2026-01-29 01:17:06.68	137.01	44.22	-35.2	-36.6	18.4	0.00e+00	0	58	0	2281701376	41	4389
2026-01-29 01:17:07.68	137.44	44.05	-35.1	-36.4	18.6	0.00e+00	0	58	0	2286944256	41	4281
2026-01-29 01:17:08.69	137.87	43.87	-34.9	-36.3	18.8	0.00e+00	0	58	0	2293235712	41	4213
2026-01-29 01:17:09.71	138.30	43.69	-34.9	-36.2	18.9	0.00e+00	0	58	0	2298478592	41	4180
2026-01-29 01:17:10.71	138.71	43.52	-35.0	-36.3	18.7	0.00e+00	0	58	0	2303721472	41	4239
2026-01-29 01:17:11.72	139.13	43.34	-35.1	-36.5	18.6	0.00e+00	0	58	0	2310012928	41	4314
2026-01-29 01:17:12.74	139.55	43.16	-35.2	-36.6	18.5	0.00e+00	0	58	0	2315255808	41	4390
2026-01-29 01:17:13.74	139.95	42.98	-35.2	-36.6	18.5	0.00e+00	0	58	0	2321547264	41	4359
2026-01-29 01:17:14.75	140.35	42.79	-35.0	-36.4	18.7	0.00e+00	0	58	0	2326790144	41	4258
2026-01-29 01:17:15.76	140.75	42.61	-34.9	-36.3	18.8	0.00e+00	0	58	0	2333081600	41	4197
2026-01-29 01:17:16.77	141.14	42.43	-34.9	-36.2	18.8	0.00e+00	0	58	0	2338324480	41	4168
2026-01-29 01:17:17.78	141.53	42.25	-34.9	-36.2	18.8	0.00e+00	0	58	0	2344615936	41	4193
2026-01-29 01:17:18.79	141.91	42.06	-34.9	-36.3	18.7	0.00e+00	0	58	0	2349858816	41	4211
2026-01-29 01:17:19.80	142.29	41.88	-35.0	-36.4	18.6	0.00e+00	0	58	0	2355101696	41	4267
2026-01-29 01:17:20.81	142.67	41.69	-35.1	-36.5	18.6	0.00e+00	0	58	0	2361393152	41	4292
2026-01-29 01:17:21.82	143.04	41.51	-35.1	-36.5	18.6	0.00e+00	0	58	0	2366636032	41	4313
2026-01-29 01:17:22.83	143.41	41.32	-35.1	-36.5	18.6	0.00e+00	0	58	0	2372927488	41	4299
2026-01-29 01:17:23.84	143.77	41.14	-35.0	-36.4	18.7	0.00e+00	0	59	0	2378170368	41	4254
2026-01-29 01:17:24.85	144.13	40.95	-35.0	-36.3	18.7	0.00e+00	0	58	0	2383413248	41	4230
2026-01-29 01:17:25.86	144.49	40.76	-34.8	-36.2	18.8	0.00e+00	0	58	0	2389704704	41	4166
2026-01-29 01:17:26.87	144.84	40.58	-34.7	-36.0	19.0	0.00e+00	0	58	0	2394947584	41	4091
2026-01-29 01:17:27.88	145.18	40.39	-34.6	-35.9	19.1	0.00e+00	0	58	0	2401239040	41	4045
2026-01-29 01:17:28.90	145.53	40.20	-34.6	-36.0	19.1	0.00e+00	0	58	0	2406481920	41	4052
2026-01-29 01:17:29.91	145.87	40.02	-34.6	-35.9	19.2	0.00e+00	0	58	0	2411724800	41	4020
2026-01-29 01:17:30.92	146.20	39.83	-34.6	-35.9	19.1	0.00e+00	0	59	0	2418016256	41	4043
2026-01-29 01:17:31.93	146.54	39.64	-34.7	-36.0	19.1	0.00e+00	0	58	0	2423259136	41	4065
2026-01-29 01:17:32.94	146.86	39.45	-34.6	-35.9	19.1	0.00e+00	0	58	0	2429550592	41	4047
2026-01-29 01:17:33.95	147.19	39.27	-34.6	-36.0	19.1	0.00e+00	0	58	0	2434793472	41	4052
2026-01-29 01:17:34.96	147.51	39.08	-34.7	-36.1	19.0	0.00e+00	0	59	0	2441084928	41	4112
2026-01-29 01:17:35.97	147.83	38.89	-34.8	-36.1	18.9	0.00e+00	0	58	0	2446327808	41	4127
2026-01-29 01:17:36.98	148.14	38.71	-34.8	-36.2	18.9	0.00e+00	0	58	0	2452619264	41	4163
2026-01-29 01:17:37.99	148.45	38.52	-34.8	-36.1	18.9	0.00e+00	0	58	0	2457862144	41	4123
2026-01-29 01:17:39.00	148.75	38.33	-34.6	-35.9	19.1	0.00e+00	0	59	0	2463105024	41	4034
2026-01-29 01:17:40.01	149.06	38.14	-34.5	-35.8	19.2	0.00e+00	0	59	0	2469396480	41	3995
2026-01-29 01:17:41.02	149.36	37.96	-34.5	-35.8	19.2	0.00e+00	0	59	0	2474639360	41	3968
2026-01-29 01:17:42.03	149.65	37.77	-34.5	-35.8	19.2	0.00e+00	0	58	0	2480930816	41	3992
2026-01-29 01:17:43.04	149.95	37.59	-34.6	-35.9	19.1	0.00e+00	0	59	0	2486173696	41	4011
2026-01-29 01:17:44.05	150.24	37.40	-34.7	-36.0	19.0	0.00e+00	0	58	0	2491416576	41	4070
2026-01-29 01:17:45.06	150.52	37.21	-34.8	-36.1	18.9	0.00e+00	0	58	0	2497708032	41	4114
2026-01-29 01:17:46.07	150.81	37.03	-34.8	-36.1	18.9	0.00e+00	0	59	0	2502950912	41	4122
2026-01-29 01:17:47.08	151.09	36.84	-34.8	-36.1	18.9	0.00e+00	0	59	0	2509242368	41	4125
2026-01-29 01:17:48.09	151.36	36.66	-34.8	-36.1	18.9	0.00e+00	0	59	0	2514485248	41	4137
2026-01-29 01:17:49.10	151.64	36.47	-34.6	-35.9	19.1	0.00e+00	0	59	0	2519728128	41	4031
2026-01-29 01:17:50.11	151.91	36.29	-34.6	-35.9	19.1	0.00e+00	0	59	0	2526019584	41	4013
2026-01-29 01:17:51.12	152.17	36.10	-34.8	-36.1	18.9	0.00e+00	0	59	0	2531262464	41	4121
2026-01-29 01:17:52.13	152.44	35.92	-34.7	-36.1	18.9	0.00e+00	0	58	0	2537553920	41	4114
2026-01-29 01:17:53.14	152.70	35.74	-34.7	-36.1	18.9	0.00e+00	0	58	0	2542796800	41	4114
2026-01-29 01:17:54.15	152.96	35.56	-34.8	-36.1	18.8	0.00e+00	0	58	0	2549088256	41	4136
2026-01-29 01:17:55.16	153.22	35.37	-34.7	-36.1	18.9	0.00e+00	0	59	0	2554331136	41	4104
2026-01-29 01:17:56.17	153.47	35.19	-34.6	-36.0	19.0	0.00e+00	0	59	0	2560622592	41	4060
2026-01-29 01:17:57.18	153.72	35.01	-34.6	-35.9	19.1	0.00e+00	0	59	0	2565865472	41	4022
2026-01-29 01:17:58.20	153.97	34.83	-34.5	-35.8	19.2	0.00e+00	0	58	0	2571108352	40	4197
2026-01-29 01:17:59.21	154.22	34.65	-34.4	-35.8	19.2	0.00e+00	0	58	0	2577399808	40	4195
2026-01-29 01:18:00.22	154.46	34.47	-34.4	-35.8	19.2	0.00e+00	0	58	0	2582642688	40	4194
2026-01-29 01:18:01.23	154.70	34.29	-34.4	-35.7	19.2	0.00e+00	0	58	0	2588934144	40	4184
2026-01-29 01:18:02.24	154.94	34.11	-34.4	-35.7	19.2	0.00e+00	0	58	0	2594177024	40	4193
2026-01-29 01:18:03.25	155.17	33.93	-34.4	-35.7	19.2	0.00e+00	0	58	0	2599419904	40	4190
2026-01-29 01:18:04.26	155.40	33.75	-34.5	-35.8	19.2	0.00e+00	0	59	0	2605711360	40	4215
2026-01-29 01:18:05.27	155.63	33.57	-34.5	-35.9	19.1	0.00e+00	0	59	0	2610954240	40	4244
2026-01-29 01:18:06.28	155.86	33.40	-34.5	-35.9	19.1	0.00e+00	0	59	0	2617245696	40	4245
2026-01-29 01:18:07.29	156.09	33.22	-34.6	-35.9	19.0	0.00e+00	0	59	0	2622488576	40	4280
2026-01-29 01:18:08.30	156.31	33.04	-34.7	-36.0	18.9	0.00e+00	0	59	0	2627731456	40	4335
2026-01-29 01:18:09.31	156.53	32.87	-34.7	-36.0	18.9	0.00e+00	0	59	0	2634022912	40	4334
2026-01-29 01:18:10.32	156.75	32.69	-34.7	-36.1	18.8	0.00e+00	0	59	0	2639265792	40	4365
2026-01-29 01:18:11.33	156.96	32.52	-34.9	-36.2	18.7	0.00e+00	0	59	0	2645557248	40	4439
2026-01-29 01:18:12.34	157.18	32.35	-34.9	-36.3	18.7	0.00e+00	0	59	0	2650800128	40	4444
2026-01-29 01:18:13.35	157.39	32.17	-34.9	-36.3	18.7	0.00e+00	0	58	0	2657091584	40	4442
2026-01-29 01:18:14.36	157.60	32.00	-34.9	-36.3	18.6	0.00e+00	0	59	0	2662334464	40	4473
2026-01-29 01:18:15.37	157.80	31.83	-35.0	-36.4	18.5	0.00e+00	0	59	0	2668625920	40	4506
2026-01-29 01:18:16.38	158.01	31.66	-35.0	-36.4	18.5	0.00e+00	0	59	0	2673868800	40	4534
2026-01-29 01:18:17.39	158.21	31.49	-35.0	-36.5	18.4	0.00e+00	0	58	0	2679111680	40	4547
2026-01-29 01:18:18.40	158.41	31.32	-35.1	-36.6	18.3	0.00e+00	0	58	0	2685403136	40	4615
2026-01-29 01:18:19.41	158.61	31.15	-35.1	-36.5	18.3	0.00e+00	0	58	0	2690646016	40	4591
2026-01-29 01:18:20.42	158.81	30.98	-35.1	-36.5	18.4	0.00e+00	0	59	0	2696937472	40	4575
2026-01-29 01:18:21.43	159.00	30.81	-35.1	-36.5	18.4	0.00e+00	0	59	0	2702180352	40	4585
2026-01-29 01:18:22.44	159.19	30.64	-35.2	-36.6	18.3	0.00e+00	0	59	0	2707423232	40	4626
2026-01-29 01:18:23.45	159.38	30.48	-35.1	-36.5	18.3	0.00e+00	0	58	0	2713714688	41	4335
2026-01-29 01:18:24.46	159.57	30.31	-35.1	-36.5	18.4	0.00e+00	0	58	0	2718957568	41	4313
2026-01-29 01:18:25.47	159.76	30.14	-35.1	-36.5	18.4	0.00e+00	0	59	0	2725249024	41	4294
2026-01-29 01:18:26.48	159.95	29.98	-35.1	-36.6	18.4	0.00e+00	0	58	0	2730491904	41	4341
2026-01-29 01:18:27.49	160.13	29.81	-35.2	-36.7	18.2	0.00e+00	0	58	0	2735734784	41	4407
2026-01-29 01:18:28.50	160.31	29.65	-35.2	-36.6	18.3	0.00e+00	0	59	0	2742026240	41	4354
2026-01-29 01:18:29.51	160.49	29.49	-35.1	-36.6	18.3	0.00e+00	0	58	0	2747269120	41	4351
2026-01-29 01:18:30.52	160.67	29.32	-35.2	-36.6	18.3	0.00e+00	0	59	0	2753560576	41	4373
2026-01-29 01:18:31.53	160.84	29.16	-35.2	-36.7	18.2	0.00e+00	0	58	0	2758803456	41	4393
2026-01-29 01:18:32.54	161.02	29.00	-35.0	-36.4	18.5	0.00e+00	0	58	0	2765094912	41	4272
2026-01-29 01:18:33.55	161.19	28.84	-35.0	-36.4	18.5	0.00e+00	0	59	0	2770337792	41	4251
2026-01-29 01:18:34.56	161.36	28.68	-35.0	-36.4	18.5	0.00e+00	0	58	0	2775580672	41	4258
2026-01-29 01:18:35.57	161.53	28.52	-35.1	-36.5	18.4	0.00e+00	0	59	0	2781872128	41	4300
2026-01-29 01:18:36.59	161.70	28.36	-35.0	-36.4	18.5	0.00e+00	0	58	0	2787115008	41	4272
2026-01-29 01:18:37.60	161.87	28.20	-35.0	-36.4	18.4	0.00e+00	0	58	0	2793406464	41	4281
2026-01-29 01:18:38.61	162.03	28.05	-35.0	-36.4	18.4	0.00e+00	0	58	0	2798649344	41	4289
2026-01-29 01:18:39.62	162.19	27.89	-35.0	-36.4	18.5	0.00e+00	0	58	0	2804940800	41	4269
2026-01-29 01:18:40.63	162.35	27.73	-35.0	-36.4	18.5	0.00e+00	0	59	0	2810183680	41	4273
2026-01-29 01:18:41.64	162.51	27.58	-35.1	-36.4	18.4	0.00e+00	0	59	0	2815426560	41	4289
2026-01-29 01:18:42.65	162.67	27.42	-35.0	-36.4	18.5	0.00e+00	0	58	0	2821718016	41	4260
2026-01-29 01:18:43.66	162.83	27.27	-34.9	-36.3	18.6	0.00e+00	0	59	0	2826960896	41	4194
2026-01-29 01:18:44.67	162.99	27.12	-34.8	-36.2	18.7	0.00e+00	0	58	0	2833252352	41	4150
2026-01-29 01:18:45.68	163.14	26.96	-34.8	-36.2	18.7	0.00e+00	0	58	0	2838495232	41	4156
2026-01-29 01:18:46.69	163.29	26.81	-35.0	-36.3	18.6	0.00e+00	0	59	0	2843738112	41	4222
2026-01-29 01:18:47.70	163.44	26.66	-34.9	-36.3	18.6	0.00e+00	0	58	0	2850029568	41	4200
2026-01-29 01:18:48.71	163.59	26.51	-35.0	-36.4	18.5	0.00e+00	0	58	0	2855272448	41	4245
2026-01-29 01:18:49.73	163.74	26.36	-35.1	-36.5	18.4	0.00e+00	0	59	0	2861563904	41	4317
2026-01-29 01:18:50.74	163.89	26.21	-35.1	-36.5	18.4	0.00e+00	0	59	0	2866806784	41	4330
2026-01-29 01:18:51.75	164.03	26.06	-35.1	-36.5	18.4	0.00e+00	0	58	0	2873098240	41	4311
2026-01-29 01:18:52.76	164.18	25.91	-35.0	-36.4	18.4	0.00e+00	0	59	0	2878341120	41	4287
2026-01-29 01:18:53.77	164.32	25.76	-35.0	-36.4	18.4	0.00e+00	0	58	0	2883584000	41	4284
2026-01-29 01:18:54.78	164.46	25.61	-35.1	-36.5	18.4	0.00e+00	0	59	0	2889875456	41	4295
2026-01-29 01:18:55.79	164.60	25.47	-35.2	-36.6	18.2	0.00e+00	0	59	0	2895118336	41	4357
2026-01-29 01:18:56.79	164.74	25.32	-35.1	-36.5	18.3	0.00e+00	0	59	0	2901409792	41	4313
2026-01-29 01:18:57.80	164.88	25.18	-35.0	-36.4	18.4	0.00e+00	0	59	0	2906652672	41	4280
2026-01-29 01:18:58.81	165.02	25.03	-35.0	-36.4	18.4	0.00e+00	0	58	0	2911895552	41	4246
2026-01-29 01:18:59.82	165.15	24.89	-35.0	-36.4	18.4	0.00e+00	0	58	0	2918187008	41	4279
2026-01-29 01:19:00.83	165.29	24.75	-35.1	-36.5	18.4	0.00e+00	0	58	0	2923429888	41	4298
2026-01-29 01:19:01.84	165.42	24.60	-35.0	-36.4	18.5	0.00e+00	0	58	0	2929721344	41	4245
2026-01-29 01:19:02.85	165.55	24.46	-35.2	-36.6	18.3	0.00e+00	0	59	0	2934964224	41	4343
2026-01-29 01:19:03.86	165.68	24.32	-35.2	-36.6	18.2	0.00e+00	0	59	0	2940207104	41	4349
2026-01-29 01:19:04.87	165.81	24.18	-35.1	-36.5	18.2	0.00e+00	0	58	0	2946498560	41	4331
2026-01-29 01:19:05.88	165.94	24.04	-35.3	-36.7	18.1	0.00e+00	0	58	0	2951741440	41	4407
2026-01-29 01:19:06.89	166.07	23.90	-35.4	-36.8	17.9	0.00e+00	0	59	0	2958032896	41	4493
2026-01-29 01:19:07.90	166.20	23.76	-35.4	-36.8	17.9	0.00e+00	0	59	0	2963275776	41	4493
2026-01-29 01:19:08.91	166.32	23.62	-35.5	-37.0	17.8	0.00e+00	0	59	0	2969567232	41	4574
2026-01-29 01:19:09.92	166.44	23.49	-35.6	-37.1	17.6	0.00e+00	0	59	0	2974810112	41	4643
2026-01-29 01:19:10.93	166.57	23.35	-35.7	-37.2	17.6	0.00e+00	0	59	0	2981101568	41	4671
2026-01-29 01:19:11.94	166.69	23.21	-35.7	-37.2	17.6	0.00e+00	0	59	0	2986344448	41	4682
2026-01-29 01:19:12.95	166.81	23.08	-35.7	-37.2	17.6	0.00e+00	0	59	0	2991587328	41	4695
2026-01-29 01:19:13.96	166.93	22.94	-35.6	-37.1	17.6	0.00e+00	0	59	0	2997878784	41	4651
2026-01-29 01:19:14.97	167.05	22.80	-35.6	-37.1	17.7	0.00e+00	0	59	0	3003121664	41	4604
2026-01-29 01:19:15.98	167.17	22.67	-35.6	-37.1	17.6	0.00e+00	0	59	0	3009413120	41	4622
2026-01-29 01:19:16.99	167.29	22.54	-35.7	-37.2	17.6	0.00e+00	0	59	0	3014656000	41	4667
2026-01-29 01:19:18.00	167.40	22.40	-35.6	-37.1	17.7	0.00e+00	0	59	0	3019898880	41	4622
2026-01-29 01:19:19.02	167.52	22.27	-35.6	-37.0	17.7	0.00e+00	0	58	0	3026190336	41	4598
2026-01-29 01:19:20.03	167.63	22.14	-35.6	-37.1	17.6	0.00e+00	0	59	0	3031433216	41	4645
2026-01-29 01:19:21.04	167.75	22.01	-35.6	-37.1	17.6	0.00e+00	0	59	0	3037724672	41	4628
2026-01-29 01:19:22.05	167.86	21.88	-35.7	-37.2	17.6	0.00e+00	0	59	0	3042967552	41	4662
2026-01-29 01:19:23.06	167.97	21.75	-35.7	-37.2	17.6	0.00e+00	0	59	0	3048210432	41	4666
2026-01-29 01:19:24.07	168.08	21.62	-35.7	-37.2	17.5	0.00e+00	0	59	0	3054501888	41	4668
2026-01-29 01:19:25.08	168.19	21.49	-35.8	-37.3	17.4	0.00e+00	0	58	0	3059744768	42	4463
2026-01-29 01:19:26.09	168.30	21.36	-35.8	-37.3	17.5	0.00e+00	0	59	0	3066036224	42	4460
2026-01-29 01:19:27.10	168.41	21.23	-35.8	-37.3	17.5	0.00e+00	0	59	0	3071279104	42	4449
2026-01-29 01:19:28.11	168.51	21.10	-35.8	-37.3	17.4	0.00e+00	0	59	0	3077570560	42	4476
2026-01-29 01:19:29.12	168.62	20.98	-35.8	-37.4	17.4	0.00e+00	0	59	0	3082813440	42	4495
2026-01-29 01:19:30.13	168.73	20.85	-35.8	-37.3	17.4	0.00e+00	0	58	0	3089104896	42	4486
2026-01-29 01:19:31.14	168.83	20.72	-35.9	-37.4	17.3	0.00e+00	0	58	0	3094347776	42	4542
2026-01-29 01:19:32.15	168.93	20.60	-35.9	-37.4	17.3	0.00e+00	0	59	0	3099590656	42	4536
2026-01-29 01:19:33.16	169.04	20.47	-35.9	-37.4	17.3	0.00e+00	0	59	0	3105882112	42	4525
2026-01-29 01:19:34.17	169.14	20.35	-35.9	-37.5	17.3	0.00e+00	0	59	0	3111124992	42	4551
2026-01-29 01:19:35.18	169.24	20.23	-35.9	-37.5	17.3	0.00e+00	0	58	0	3117416448	42	4549
2026-01-29 01:19:36.19	169.34	20.10	-36.0	-37.5	17.2	0.00e+00	0	59	0	3122659328	42	4588
2026-01-29 01:19:37.20	169.44	19.98	-36.0	-37.6	17.2	0.00e+00	0	58	0	3127902208	42	4617
2026-01-29 01:19:38.21	169.54	19.86	-36.1	-37.7	17.0	0.00e+00	0	58	0	3134193664	42	4668
2026-01-29 01:19:39.22	169.64	19.74	-36.2	-37.7	17.0	0.00e+00	0	59	0	3139436544	42	4698
2026-01-29 01:19:40.23	169.74	19.62	-36.2	-37.8	17.0	0.00e+00	0	59	0	3145728000	42	4719
2026-01-29 01:19:41.24	169.83	19.49	-36.2	-37.9	16.9	0.00e+00	0	58	0	3150970880	43	4495
2026-01-29 01:19:42.25	169.93	19.37	-36.2	-37.8	16.9	0.00e+00	0	59	0	3156213760	43	4491
2026-01-29 01:19:43.26	170.02	19.25	-36.2	-37.8	16.9	0.00e+00	0	59	0	3162505216	43	4491
2026-01-29 01:19:44.27	170.12	19.14	-36.3	-37.9	16.8	0.00e+00	0	59	0	3167748096	43	4510
2026-01-29 01:19:45.28	170.21	19.02	-36.2	-37.9	16.9	0.00e+00	0	59	0	3174039552	43	4499
2026-01-29 01:19:46.29	170.31	18.90	-36.3	-37.9	16.8	0.00e+00	0	59	0	3179282432	43	4520
2026-01-29 01:19:47.30	170.40	18.78	-36.3	-37.9	16.8	0.00e+00	0	59	0	3185573888	43	4533
2026-01-29 01:19:48.31	170.49	18.66	-36.3	-37.9	16.8	0.00e+00	0	59	0	3190816768	43	4530
2026-01-29 01:19:49.32	170.58	18.55	-36.2	-37.8	16.8	0.00e+00	0	59	0	3197108224	43	4493
2026-01-29 01:19:50.33	170.67	18.43	-36.2	-37.7	16.9	0.00e+00	0	59	0	3202351104	43	4440
2026-01-29 01:19:51.34	170.76	18.32	-36.2	-37.8	16.9	0.00e+00	0	58	0	3207593984	43	4464
2026-01-29 01:19:52.35	170.85	18.20	-36.3	-37.8	16.8	0.00e+00	0	59	0	3213885440	43	4488
2026-01-29 01:19:53.36	170.94	18.09	-36.4	-38.0	16.7	0.00e+00	0	59	0	3219128320	43	4567
2026-01-29 01:19:54.38	171.03	17.97	-36.3	-37.9	16.8	0.00e+00	0	59	0	3225419776	43	4505
2026-01-29 01:19:55.39	171.12	17.86	-36.2	-37.8	16.9	0.00e+00	0	59	0	3230662656	43	4462
2026-01-29 01:19:56.40	171.20	17.74	-36.3	-37.9	16.7	0.00e+00	0	59	0	3235905536	43	4526
2026-01-29 01:19:57.41	171.29	17.63	-36.4	-38.0	16.7	0.00e+00	0	59	0	3242196992	43	4555
2026-01-29 01:19:58.42	171.37	17.52	-36.4	-38.0	16.6	0.00e+00	0	59	0	3247439872	43	4576
2026-01-29 01:19:59.43	171.46	17.41	-36.4	-38.0	16.6	0.00e+00	0	59	0	3253731328	43	4586
2026-01-29 01:20:00.44	171.54	17.30	-36.5	-38.2	16.5	0.00e+00	0	59	0	3258974208	43	4657
2026-01-29 01:20:01.45	171.63	17.18	-36.6	-38.3	16.3	0.00e+00	0	59	0	3264217088	43	4741
2026-01-29 01:20:02.46	171.71	17.07	-36.7	-38.4	16.2	0.00e+00	0	59	0	3270508544	43	4789
2026-01-29 01:20:03.47	171.79	16.96	-37.0	-38.7	16.1	0.00e+00	0	59	0	3275751424	44	4680
2026-01-29 01:20:04.48	171.87	16.85	-37.0	-38.8	16.0	0.00e+00	0	59	0	3282042880	44	4733
2026-01-29 01:20:05.49	171.96	16.74	-37.1	-38.8	15.9	0.00e+00	0	59	0	3287285760	44	4744
2026-01-29 01:20:06.50	172.04	16.64	-37.2	-39.0	15.8	0.00e+00	0	59	0	3293577216	44	4834
2026-01-29 01:20:07.52	172.12	16.53	-37.3	-39.1	15.6	0.00e+00	0	59	0	3298820096	45	4638
2026-01-29 01:20:08.53	172.20	16.42	-37.3	-39.1	15.7	0.00e+00	0	58	0	3305111552	45	4618
2026-01-29 01:20:09.54	172.28	16.31	-37.3	-39.1	15.6	0.00e+00	0	59	0	3310354432	45	4647
2026-01-29 01:20:10.55	172.35	16.20	-37.3	-39.2	15.6	0.00e+00	0	59	0	3315597312	45	4656
2026-01-29 01:20:11.56	172.43	16.10	-37.4	-39.2	15.6	0.00e+00	0	59	0	3321888768	45	4676
2026-01-29 01:20:12.57	172.51	15.99	-37.4	-39.3	15.5	0.00e+00	0	59	0	3327131648	45	4712
2026-01-29 01:20:13.58	172.59	15.88	-37.3	-39.2	15.6	0.00e+00	0	59	0	3333423104	45	4667
2026-01-29 01:20:14.59	172.66	15.78	-37.4	-39.2	15.5	0.00e+00	0	59	0	3338665984	45	4705
2026-01-29 01:20:15.60	172.74	15.67	-37.3	-39.2	15.6	0.00e+00	0	59	0	3343908864	45	4671
2026-01-29 01:20:16.61	172.81	15.57	-37.4	-39.2	15.5	0.00e+00	0	59	0	3350200320	45	4692
2026-01-29 01:20:17.62	172.89	15.47	-37.5	-39.4	15.3	0.00e+00	0	59	0	3355443200	45	4789
2026-01-29 01:20:18.63	172.96	15.36	-37.4	-39.2	15.5	0.00e+00	0	59	0	3361734656	45	4703
2026-01-29 01:20:19.64	173.04	15.26	-37.4	-39.2	15.5	0.00e+00	0	59	0	3366977536	45	4692
2026-01-29 01:20:20.65	173.11	15.16	-37.4	-39.3	15.4	0.00e+00	0	59	0	3372220416	45	4727
2026-01-29 01:20:21.66	173.18	15.05	-37.5	-39.4	15.3	0.00e+00	0	59	0	3378511872	45	4780
2026-01-29 01:20:22.67	173.26	14.95	-37.5	-39.4	15.3	1.10e-06	0	59	0	3383754752	45	4786
2026-01-29 01:20:23.68	173.33	14.85	-37.6	-39.5	15.2	0.00e+00	0	59	0	3390046208	45	4848
2026-01-29 01:20:24.69	173.40	14.75	-37.6	-39.5	15.2	0.00e+00	0	59	0	3395289088	45	4858
2026-01-29 01:20:25.71	173.47	14.65	-37.6	-39.6	15.1	0.00e+00	0	59	0	3401580544	45	4872
2026-01-29 01:20:26.71	173.54	14.55	-37.7	-39.6	15.0	0.00e+00	0	59	0	3406823424	45	4908
2026-01-29 01:20:27.72	173.61	14.45	-37.7	-39.7	14.9	1.10e-06	0	59	0	3413114880	46	4680
2026-01-29 01:20:28.73	173.68	14.35	-37.7	-39.7	15.0	0.00e+00	0	59	0	3418357760	46	4658
2026-01-29 01:20:29.75	173.75	14.24	-37.7	-39.7	15.0	1.10e-06	0	59	0	3423600640	46	4666
2026-01-29 01:20:30.76	173.82	14.15	-37.7	-39.7	14.9	0.00e+00	0	59	0	3429892096	46	4683
2026-01-29 01:20:31.77	173.89	14.05	-37.7	-39.7	14.9	0.00e+00	0	59	0	3435134976	46	4688
