passes_logs/2026/01/29/R2.0S_Moscow/R2.0S_Moscow__20260129_015254_SUOMI_NPP_rec.log

#Pass ID: 20260129_015254_SUOMI NPP
#Satellite: SUOMI NPP
#Configuration: NPP
#almurnet v.1.7.20251203
#Start time: 2026-01-29 01:52:56

#Version: 2.2.20231116
#Station: R2.0S_Moscow
#Location: 37.707566 lon 55.798166 lat
#TLE: 1 37849U 11061A   26027.86188320  .00000172  00000+0  10275-3 0  9990
#TLE: 2 37849  98.7823 329.8005 0002088  41.4184 318.7150 14.19530883738530

#Time	Az	El	Level	Level2	SNR	BER	BlckErr	Temp	State	Recorded	gain1	gain2
2026-01-29 01:52:56.42	8.92	2.09	-39.8	-54.2	3.8	1.49e+00	0	49	0	0	51	18572
2026-01-29 01:52:57.42	8.84	2.14	-39.8	-54.2	3.8	1.49e+00	0	50	104	0	51	18551
2026-01-29 01:52:58.43	8.76	2.19	-39.8	-54.2	3.8	1.49e+00	0	50	104	0	51	18561
2026-01-29 01:52:59.44	8.67	2.25	-39.8	-54.2	3.8	1.49e+00	0	50	104	0	51	18518
2026-01-29 01:53:00.45	8.59	2.30	-39.8	-54.2	3.8	1.49e+00	0	50	104	0	51	18519
2026-01-29 01:53:01.46	8.51	2.35	-39.7	-54.1	3.8	1.49e+00	0	50	104	0	51	18513
2026-01-29 01:53:02.47	8.43	2.40	-39.8	-54.2	3.8	1.49e+00	0	50	104	0	51	18545
2026-01-29 01:53:03.48	8.34	2.46	-39.8	-54.2	3.8	1.49e+00	0	50	104	0	51	18548
2026-01-29 01:53:04.49	8.26	2.51	-39.8	-54.2	3.8	1.49e+00	0	51	104	0	51	18533
2026-01-29 01:53:05.50	8.18	2.56	-39.8	-54.2	3.8	1.49e+00	0	51	104	0	51	18523
2026-01-29 01:53:06.51	8.09	2.61	-39.8	-54.2	3.8	1.49e+00	0	51	104	0	51	18553
2026-01-29 01:53:07.52	8.01	2.67	-39.7	-54.2	3.8	1.49e+00	0	51	104	0	51	18526
2026-01-29 01:53:08.53	7.92	2.72	-39.8	-54.1	3.8	1.49e+00	0	51	104	0	51	18508
2026-01-29 01:53:09.54	7.84	2.77	-39.7	-54.2	3.8	1.49e+00	0	51	104	0	51	18519
2026-01-29 01:53:10.55	7.75	2.83	-39.7	-54.1	3.8	1.49e+00	0	51	104	0	51	18509
2026-01-29 01:53:11.56	7.67	2.88	-39.7	-54.2	3.8	1.49e+00	0	51	104	0	51	18518
2026-01-29 01:53:12.57	7.58	2.93	-39.7	-54.2	3.8	1.49e+00	0	51	104	0	51	18571
2026-01-29 01:53:13.58	7.49	2.98	-39.7	-54.1	3.8	1.49e+00	0	51	104	0	51	18507
2026-01-29 01:53:14.59	7.41	3.04	-39.7	-54.1	3.8	1.49e+00	0	51	104	0	51	18448
2026-01-29 01:53:15.60	7.32	3.09	-39.7	-54.1	3.8	1.49e+00	0	51	104	0	51	18464
2026-01-29 01:53:16.62	7.23	3.14	-39.7	-54.1	3.8	1.49e+00	0	51	104	0	51	18459
2026-01-29 01:53:17.63	7.14	3.20	-39.7	-54.1	3.8	1.49e+00	0	51	104	0	51	18471
2026-01-29 01:53:18.64	7.06	3.25	-39.7	-54.1	3.8	1.49e+00	0	51	104	0	51	18456
2026-01-29 01:53:19.65	6.97	3.30	-39.7	-54.1	3.8	1.49e+00	0	51	104	0	51	18458
2026-01-29 01:53:20.66	6.88	3.36	-39.7	-54.1	3.8	1.49e+00	0	51	104	0	51	18502
2026-01-29 01:53:21.67	6.79	3.41	-39.7	-54.1	3.8	1.49e+00	0	51	104	0	51	18496
2026-01-29 01:53:22.68	6.70	3.46	-39.7	-54.1	3.8	1.49e+00	0	52	104	0	51	18488
2026-01-29 01:53:23.69	6.61	3.52	-39.7	-54.1	3.8	1.49e+00	0	52	104	0	51	18476
2026-01-29 01:53:24.70	6.52	3.57	-39.7	-54.1	3.8	1.49e+00	0	52	104	0	51	18480
2026-01-29 01:53:25.71	6.43	3.62	-39.7	-54.1	3.8	1.49e+00	0	52	104	0	51	18499
2026-01-29 01:53:26.72	6.34	3.68	-39.7	-54.1	3.8	1.49e+00	0	52	104	0	51	18501
2026-01-29 01:53:27.73	6.25	3.73	-39.7	-54.1	3.8	1.49e+00	0	52	104	0	51	18477
2026-01-29 01:53:28.74	6.16	3.78	-39.7	-54.1	3.8	1.49e+00	0	52	104	0	51	18510
2026-01-29 01:53:29.75	6.07	3.84	-39.7	-54.1	3.8	1.49e+00	0	52	104	0	51	18515
2026-01-29 01:53:30.76	5.97	3.89	-39.7	-54.2	3.8	1.49e+00	0	52	104	0	51	18531
2026-01-29 01:53:31.77	5.88	3.94	-39.7	-54.1	3.8	1.49e+00	0	52	104	0	51	18490
2026-01-29 01:53:32.78	5.79	4.00	-39.7	-54.1	3.8	1.49e+00	0	52	104	0	51	18486
2026-01-29 01:53:33.79	5.70	4.05	-39.7	-54.1	3.8	1.49e+00	0	52	104	0	51	18470
2026-01-29 01:53:34.80	5.60	4.10	-39.7	-54.1	3.8	1.49e+00	0	52	104	0	51	18512
2026-01-29 01:53:35.81	5.51	4.16	-39.7	-54.1	3.8	1.49e+00	0	52	104	0	51	18488
2026-01-29 01:53:36.82	5.41	4.21	-39.7	-54.1	3.8	1.49e+00	0	52	104	0	51	18460
2026-01-29 01:53:37.84	5.32	4.27	-39.7	-54.1	3.8	1.49e+00	0	52	104	0	51	18454
2026-01-29 01:53:38.85	5.22	4.32	-39.7	-54.1	3.8	1.49e+00	0	52	104	0	51	18504
2026-01-29 01:53:39.86	5.13	4.37	-39.7	-54.1	3.8	1.49e+00	0	52	104	0	51	18454
2026-01-29 01:53:40.87	5.03	4.43	-39.7	-54.1	3.8	1.49e+00	0	52	104	0	51	18437
2026-01-29 01:53:41.88	4.94	4.48	-39.7	-54.1	3.8	1.49e+00	0	53	104	0	51	18445
2026-01-29 01:53:42.89	4.84	4.54	-39.7	-54.1	3.8	1.49e+00	0	53	104	0	51	18446
2026-01-29 01:53:43.90	4.74	4.59	-39.7	-54.1	3.8	1.49e+00	0	53	104	0	51	18472
2026-01-29 01:53:44.91	4.65	4.64	-39.7	-54.1	3.8	1.49e+00	0	53	104	0	51	18481
2026-01-29 01:53:45.92	4.55	4.70	-39.7	-54.1	3.8	1.49e+00	0	53	104	0	51	18499
2026-01-29 01:53:46.93	4.45	4.75	-39.7	-54.1	3.8	1.49e+00	0	53	104	0	51	18476
2026-01-29 01:53:47.94	4.35	4.81	-39.7	-54.1	3.8	1.49e+00	0	53	104	0	51	18478
2026-01-29 01:53:48.95	4.25	4.86	-39.7	-54.1	3.8	1.49e+00	0	53	104	0	51	18469
2026-01-29 01:53:49.96	4.15	4.91	-39.7	-54.1	3.8	1.49e+00	0	53	104	0	51	18440
2026-01-29 01:53:50.97	4.05	4.97	-39.7	-54.1	3.8	1.49e+00	0	53	104	0	51	18493
2026-01-29 01:53:51.98	3.95	5.02	-39.7	-54.1	3.8	1.49e+00	0	53	104	0	51	18474
2026-01-29 01:53:52.99	3.85	5.08	-39.7	-54.1	3.8	1.49e+00	0	53	104	0	51	18461
2026-01-29 01:53:54.00	3.75	5.13	-39.7	-54.1	3.8	1.49e+00	0	53	104	0	51	18454
2026-01-29 01:53:55.01	3.65	5.19	-39.7	-54.1	3.8	1.49e+00	0	53	104	0	51	18433
2026-01-29 01:53:56.03	3.55	5.24	-39.7	-54.1	3.8	1.49e+00	0	53	104	0	51	18469
2026-01-29 01:53:57.04	3.45	5.30	-39.7	-54.1	3.8	1.49e+00	0	53	104	0	51	18465
2026-01-29 01:53:58.05	3.35	5.35	-39.7	-54.1	3.8	1.49e+00	0	53	104	0	51	18457
2026-01-29 01:53:59.06	3.24	5.40	-39.7	-54.1	3.8	1.49e+00	0	53	104	0	51	18461
2026-01-29 01:54:00.07	3.14	5.46	-39.7	-54.1	3.8	1.49e+00	0	54	104	0	51	18431
2026-01-29 01:54:01.08	3.04	5.51	-39.7	-54.1	3.8	1.49e+00	0	54	104	0	51	18488
2026-01-29 01:54:02.09	2.93	5.57	-39.7	-54.1	3.8	1.49e+00	0	54	104	0	51	18477
2026-01-29 01:54:03.10	2.83	5.62	-39.7	-54.1	3.8	1.49e+00	0	54	104	0	51	18470
2026-01-29 01:54:04.11	2.73	5.68	-39.7	-54.1	3.8	1.49e+00	0	54	104	0	51	18450
2026-01-29 01:54:05.12	2.62	5.73	-39.7	-54.1	3.8	1.49e+00	0	54	104	0	51	18458
2026-01-29 01:54:06.13	2.51	5.79	-39.7	-54.1	3.8	1.49e+00	0	54	104	0	51	18486
2026-01-29 01:54:07.14	2.41	5.84	-39.7	-54.1	3.8	1.49e+00	0	54	104	0	51	18437
2026-01-29 01:54:08.15	2.30	5.89	-39.7	-54.1	3.8	1.49e+00	0	54	104	0	51	18442
2026-01-29 01:54:09.16	2.20	5.95	-39.7	-54.1	3.8	1.49e+00	0	54	104	0	51	18390
2026-01-29 01:54:10.17	2.09	6.00	-39.7	-54.1	3.8	1.49e+00	0	54	104	0	51	18476
2026-01-29 01:54:11.18	1.98	6.06	-39.7	-54.1	3.8	1.49e+00	0	54	104	0	51	18453
2026-01-29 01:54:12.19	1.87	6.11	-39.7	-54.1	3.8	1.49e+00	0	54	104	0	51	18467
2026-01-29 01:54:13.20	1.77	6.17	-39.7	-54.1	3.8	1.49e+00	0	54	104	0	51	18362
2026-01-29 01:54:14.21	1.66	6.22	-39.7	-54.1	3.8	1.49e+00	0	54	104	0	51	18396
2026-01-29 01:54:15.22	1.55	6.28	-39.7	-54.1	3.8	1.49e+00	0	54	104	0	51	18413
2026-01-29 01:54:16.23	1.44	6.33	-39.7	-54.1	3.8	1.49e+00	0	54	104	0	51	18378
2026-01-29 01:54:17.24	1.33	6.39	-39.7	-54.1	3.8	1.49e+00	0	54	104	0	51	18349
2026-01-29 01:54:18.25	1.22	6.44	-39.7	-54.1	3.8	1.49e+00	0	54	104	0	51	18372
2026-01-29 01:54:19.26	1.11	6.50	-39.7	-54.1	3.8	1.49e+00	0	54	104	0	51	18338
2026-01-29 01:54:20.27	1.00	6.55	-39.7	-54.0	3.8	1.49e+00	0	54	104	0	51	18302
2026-01-29 01:54:21.28	0.88	6.61	-39.7	-54.1	3.8	1.49e+00	0	54	104	0	51	18385
2026-01-29 01:54:22.29	0.77	6.66	-39.7	-54.1	3.8	1.49e+00	0	54	104	0	51	18320
2026-01-29 01:54:23.30	0.66	6.72	-39.7	-54.1	3.8	1.49e+00	0	54	104	0	51	18326
2026-01-29 01:54:24.32	0.55	6.77	-39.7	-54.1	3.8	1.49e+00	0	54	104	0	51	18344
2026-01-29 01:54:25.33	0.43	6.83	-39.7	-54.1	3.8	1.49e+00	0	54	104	0	51	18329
2026-01-29 01:54:26.34	0.32	6.88	-39.7	-54.1	3.8	1.49e+00	0	55	104	0	51	18316
2026-01-29 01:54:27.35	0.20	6.94	-39.7	-54.1	3.8	1.49e+00	0	54	104	0	51	18374
2026-01-29 01:54:28.36	0.09	6.99	-39.7	-54.1	3.8	1.49e+00	0	54	104	0	51	18381
2026-01-29 01:54:29.36	359.97	7.05	-39.7	-54.1	3.8	1.49e+00	0	55	104	0	51	18337
2026-01-29 01:54:30.37	359.86	7.10	-39.7	-54.1	3.8	1.49e+00	0	55	104	0	51	18353
2026-01-29 01:54:31.38	359.74	7.16	-39.7	-54.1	3.8	1.49e+00	0	55	104	0	51	18378
2026-01-29 01:54:32.39	359.63	7.21	-39.6	-54.1	3.8	1.49e+00	0	55	104	0	51	18309
2026-01-29 01:54:33.40	359.51	7.27	-39.7	-54.1	3.8	1.49e+00	0	54	104	0	51	18319
2026-01-29 01:54:34.41	359.39	7.32	-39.6	-54.1	3.8	1.49e+00	0	55	104	0	51	18336
2026-01-29 01:54:35.42	359.27	7.38	-39.7	-54.1	3.8	1.49e+00	0	55	104	0	51	18319
2026-01-29 01:54:36.43	359.16	7.43	-39.7	-54.1	3.8	1.49e+00	0	55	104	0	51	18338
2026-01-29 01:54:37.45	359.04	7.49	-39.6	-54.1	3.8	1.49e+00	0	55	104	0	51	18318
2026-01-29 01:54:38.46	358.92	7.54	-39.7	-54.1	3.8	1.49e+00	0	55	104	0	51	18310
2026-01-29 01:54:39.47	358.80	7.60	-39.7	-54.1	3.8	1.49e+00	0	55	104	0	51	18315
2026-01-29 01:54:40.48	358.68	7.65	-39.6	-54.0	3.8	1.49e+00	0	55	104	0	51	18289
2026-01-29 01:54:41.49	358.56	7.71	-39.6	-54.0	3.8	1.49e+00	0	55	104	0	51	18297
2026-01-29 01:54:42.50	358.43	7.76	-39.7	-54.0	3.8	1.49e+00	0	55	104	0	51	18260
2026-01-29 01:54:43.51	358.31	7.82	-39.7	-54.0	3.8	1.49e+00	0	55	104	0	51	18268
2026-01-29 01:54:44.52	358.19	7.87	-39.6	-54.1	3.8	1.49e+00	0	55	104	0	51	18372
2026-01-29 01:54:45.53	358.07	7.93	-39.6	-54.0	3.8	1.49e+00	0	55	104	0	51	18259
2026-01-29 01:54:46.54	357.94	7.98	-39.6	-54.0	3.8	1.49e+00	0	55	104	0	51	18298
2026-01-29 01:54:47.55	357.82	8.04	-39.7	-54.1	3.8	1.49e+00	0	55	104	0	51	18312
2026-01-29 01:54:48.56	357.70	8.09	-39.8	-54.2	3.8	1.49e+00	0	55	104	0	51	18670
2026-01-29 01:54:49.57	357.57	8.15	-39.9	-54.3	3.8	1.49e+00	0	55	104	0	51	18777
2026-01-29 01:54:50.58	357.45	8.20	-39.9	-54.3	3.8	1.49e+00	0	55	104	0	51	18803
2026-01-29 01:54:51.60	357.32	8.26	-39.9	-54.3	3.8	1.49e+00	0	55	104	0	51	18816
2026-01-29 01:54:52.60	357.20	8.31	-39.9	-54.3	3.8	1.49e+00	0	55	104	0	51	18807
2026-01-29 01:54:53.61	357.07	8.36	-39.9	-54.3	3.8	1.49e+00	0	55	104	0	51	18761
2026-01-29 01:54:54.62	356.94	8.42	-39.9	-54.3	3.8	1.49e+00	0	55	104	0	51	18820
2026-01-29 01:54:55.63	356.81	8.47	-39.9	-54.3	3.8	1.49e+00	0	55	104	0	51	18801
2026-01-29 01:54:56.65	356.69	8.53	-39.9	-54.3	3.8	1.49e+00	0	56	104	0	51	18788
2026-01-29 01:54:57.66	356.56	8.58	-39.8	-54.2	3.8	1.49e+00	0	55	104	0	51	18722
2026-01-29 01:54:58.66	356.43	8.64	-40.0	-54.4	3.8	1.49e+00	0	55	104	0	51	18998
2026-01-29 01:54:59.68	356.30	8.69	-39.9	-54.3	3.8	1.49e+00	0	55	104	0	51	18736
2026-01-29 01:55:00.68	356.17	8.75	-39.8	-54.2	3.8	1.49e+00	0	56	104	0	51	18690
2026-01-29 01:55:01.69	356.04	8.80	-39.9	-54.3	3.8	1.49e+00	0	56	104	0	51	18920
2026-01-29 01:55:02.70	355.91	8.86	-40.0	-54.4	3.8	1.49e+00	0	55	104	0	51	19109
2026-01-29 01:55:03.72	355.78	8.91	-39.9	-54.3	3.8	1.49e+00	0	56	104	0	51	18787
2026-01-29 01:55:04.73	355.64	8.97	-39.9	-54.2	3.8	1.49e+00	0	56	104	0	51	18722
2026-01-29 01:55:05.74	355.51	9.02	-40.0	-54.4	3.8	1.49e+00	0	55	104	0	51	19039
2026-01-29 01:55:06.75	355.38	9.08	-40.0	-54.4	3.8	1.49e+00	0	56	104	0	51	19093
2026-01-29 01:55:07.76	355.24	9.13	-39.9	-54.3	3.8	1.49e+00	0	56	104	0	51	18864
2026-01-29 01:55:08.77	355.11	9.19	-40.0	-54.4	3.8	1.49e+00	0	56	104	0	51	18972
2026-01-29 01:55:09.78	354.98	9.24	-40.1	-54.5	3.8	1.49e+00	0	56	104	0	51	19197
2026-01-29 01:55:10.79	354.84	9.29	-40.1	-54.4	3.8	1.49e+00	0	56	104	0	51	19115
2026-01-29 01:55:11.80	354.71	9.35	-40.0	-54.4	3.8	1.49e+00	0	56	104	0	51	18972
2026-01-29 01:55:12.81	354.57	9.40	-40.1	-54.5	3.8	1.49e+00	0	56	104	0	51	19186
2026-01-29 01:55:13.82	354.43	9.46	-40.1	-54.5	3.8	1.49e+00	0	56	104	0	51	19186
2026-01-29 01:55:14.83	354.30	9.51	-40.1	-54.5	3.8	1.49e+00	0	56	104	0	51	19358
2026-01-29 01:55:15.84	354.16	9.57	-40.0	-54.4	3.8	1.49e+00	0	56	104	0	51	19014
2026-01-29 01:55:16.85	354.02	9.62	-40.1	-54.5	3.8	1.49e+00	0	56	104	0	51	19362
2026-01-29 01:55:17.86	353.88	9.67	-40.1	-54.5	3.8	1.49e+00	0	56	104	0	51	19318
2026-01-29 01:55:18.87	353.74	9.73	-40.3	-54.7	3.8	1.49e+00	0	56	104	0	51	19702
2026-01-29 01:55:19.88	353.60	9.78	-40.0	-54.4	3.8	1.49e+00	0	56	104	0	51	19131
2026-01-29 01:55:20.89	353.46	9.84	-40.2	-54.5	3.8	1.49e+00	0	56	104	0	51	19348
2026-01-29 01:55:21.90	353.32	9.89	-40.2	-54.6	3.8	1.49e+00	0	56	104	0	51	19573
2026-01-29 01:55:22.91	353.18	9.94	-40.5	-54.9	3.8	1.49e+00	0	56	104	0	51	20119
2026-01-29 01:55:23.93	353.04	10.00	-40.1	-54.5	3.8	1.49e+00	0	56	104	0	51	19300
2026-01-29 01:55:24.94	352.89	10.05	-40.3	-54.7	3.8	1.49e+00	0	56	104	0	51	19625
2026-01-29 01:55:25.95	352.75	10.11	-40.4	-54.8	3.8	1.49e+00	0	56	104	0	51	19992
2026-01-29 01:55:26.96	352.61	10.16	-40.4	-54.8	3.8	1.49e+00	0	56	104	0	51	19988
2026-01-29 01:55:27.97	352.46	10.21	-40.3	-54.7	3.8	1.49e+00	0	56	104	0	51	19708
2026-01-29 01:55:28.98	352.32	10.27	-40.5	-55.0	3.8	1.49e+00	0	56	104	0	51	20330
2026-01-29 01:55:29.99	352.17	10.32	-40.5	-54.9	3.8	1.49e+00	0	56	104	0	51	20165
2026-01-29 01:55:31.00	352.03	10.37	-40.4	-54.8	3.8	1.49e+00	0	56	104	0	51	19944
2026-01-29 01:55:32.01	351.88	10.43	-40.4	-54.9	3.8	1.49e+00	0	56	104	0	51	20074
2026-01-29 01:55:33.02	351.73	10.48	-40.7	-55.1	3.8	1.49e+00	0	56	104	0	51	20621
2026-01-29 01:55:34.03	351.59	10.53	-40.5	-54.9	3.8	1.49e+00	0	56	104	0	51	20126
2026-01-29 01:55:35.04	351.44	10.59	-40.5	-55.0	3.8	1.49e+00	0	56	104	0	51	20345
2026-01-29 01:55:36.05	351.29	10.64	-40.4	-54.8	3.8	1.49e+00	0	56	104	0	51	19976
2026-01-29 01:55:37.06	351.14	10.69	-40.7	-55.1	3.8	1.49e+00	0	56	104	0	51	20639
2026-01-29 01:55:38.07	350.99	10.75	-40.6	-55.1	3.8	1.49e+00	0	56	104	0	51	20574
2026-01-29 01:55:39.08	350.84	10.80	-40.7	-55.2	3.8	1.49e+00	0	57	104	0	51	20807
2026-01-29 01:55:40.09	350.69	10.85	-40.4	-54.8	3.8	1.49e+00	0	56	104	0	51	19934
2026-01-29 01:55:41.10	350.54	10.91	-40.7	-55.1	3.8	1.49e+00	0	56	104	0	52	19540
2026-01-29 01:55:42.11	350.39	10.96	-40.5	-55.0	3.8	1.49e+00	0	56	104	0	52	19211
2026-01-29 01:55:43.12	350.24	11.01	-40.7	-55.1	3.8	1.49e+00	0	56	104	0	52	19507
2026-01-29 01:55:44.13	350.08	11.06	-40.5	-54.9	3.8	1.49e+00	0	56	104	0	52	19053
2026-01-29 01:55:45.14	349.93	11.12	-40.6	-55.1	3.8	1.49e+00	0	56	104	0	52	19432
2026-01-29 01:55:46.15	349.78	11.17	-40.4	-54.9	3.8	1.49e+00	0	56	104	0	52	19001
2026-01-29 01:55:47.16	349.62	11.22	-40.7	-55.2	3.8	1.49e+00	0	57	104	0	52	19790
2026-01-29 01:55:48.17	349.47	11.27	-40.7	-55.1	3.8	1.49e+00	0	56	104	0	52	19576
2026-01-29 01:55:49.18	349.31	11.32	-40.6	-55.1	3.8	1.49e+00	0	56	104	0	52	19393
2026-01-29 01:55:50.19	349.15	11.38	-40.7	-55.2	3.8	1.49e+00	0	57	104	0	52	19732
2026-01-29 01:55:51.20	349.00	11.43	-40.9	-55.4	3.8	1.49e+00	0	56	104	0	52	20237
2026-01-29 01:55:52.21	348.84	11.48	-40.7	-55.1	3.8	1.49e+00	0	56	104	0	52	19544
2026-01-29 01:55:53.22	348.68	11.53	-40.8	-55.3	3.8	1.49e+00	0	56	104	0	52	20049
2026-01-29 01:55:54.23	348.52	11.58	-40.9	-55.4	3.8	1.49e+00	0	57	104	0	52	20237
2026-01-29 01:55:55.24	348.36	11.63	-41.0	-55.5	3.8	1.49e+00	0	57	104	0	52	20426
2026-01-29 01:55:56.25	348.21	11.69	-40.8	-55.3	3.8	1.49e+00	0	57	104	0	52	19870
2026-01-29 01:55:57.26	348.04	11.74	-41.0	-55.5	3.8	1.49e+00	0	56	104	0	52	20461
2026-01-29 01:55:58.27	347.88	11.79	-40.9	-55.4	3.8	1.49e+00	0	57	104	0	52	20258
2026-01-29 01:55:59.28	347.72	11.84	-41.0	-55.5	3.8	1.49e+00	0	56	104	0	52	20405
2026-01-29 01:56:00.29	347.56	11.89	-40.9	-55.4	3.8	1.49e+00	0	57	104	0	52	20286
2026-01-29 01:56:01.30	347.40	11.94	-41.1	-55.6	3.8	1.49e+00	0	57	104	0	52	20738
2026-01-29 01:56:02.31	347.24	11.99	-41.0	-55.5	3.8	1.49e+00	0	57	104	0	52	20344
2026-01-29 01:56:03.32	347.07	12.04	-40.9	-55.5	3.8	1.49e+00	0	57	104	0	52	20416
2026-01-29 01:56:04.33	346.91	12.09	-41.0	-55.5	3.8	1.49e+00	0	57	104	0	52	20473
2026-01-29 01:56:05.34	346.74	12.14	-41.0	-55.6	3.8	1.49e+00	0	57	104	0	52	20659
2026-01-29 01:56:06.35	346.58	12.19	-40.9	-55.4	3.8	1.49e+00	0	57	104	0	52	20232
2026-01-29 01:56:07.36	346.41	12.24	-40.8	-55.3	3.8	1.49e+00	0	57	104	0	52	19992
2026-01-29 01:56:08.37	346.24	12.29	-41.0	-55.5	3.8	1.49e+00	0	57	104	0	52	20435
2026-01-29 01:56:09.37	346.08	12.34	-40.9	-55.4	3.8	1.49e+00	0	57	104	0	52	20273
2026-01-29 01:56:10.39	345.91	12.39	-40.6	-55.1	3.8	1.49e+00	0	57	104	0	52	19495
2026-01-29 01:56:11.40	345.74	12.44	-40.6	-55.1	3.8	1.49e+00	0	57	104	0	52	19461
2026-01-29 01:56:12.41	345.57	12.49	-40.9	-55.4	3.8	1.49e+00	0	57	104	0	52	20169
2026-01-29 01:56:13.42	345.40	12.54	-40.7	-55.2	3.8	1.49e+00	0	57	104	0	52	19734
2026-01-29 01:56:14.43	345.23	12.59	-40.6	-55.0	3.8	1.49e+00	0	57	104	0	52	19282
2026-01-29 01:56:15.44	345.06	12.64	-40.6	-55.1	3.8	1.49e+00	0	57	104	0	52	19443
2026-01-29 01:56:16.45	344.89	12.69	-40.7	-55.1	3.8	1.49e+00	0	57	104	0	52	19594
2026-01-29 01:56:17.46	344.72	12.73	-40.7	-55.2	3.8	1.49e+00	0	57	104	0	52	19706
2026-01-29 01:56:18.47	344.55	12.78	-40.6	-55.1	3.8	1.49e+00	0	57	104	0	52	19427
2026-01-29 01:56:19.48	344.37	12.83	-40.7	-55.1	3.8	1.49e+00	0	57	104	0	52	19576
2026-01-29 01:56:20.49	344.20	12.88	-40.7	-55.2	3.8	1.49e+00	0	57	104	0	52	19700
2026-01-29 01:56:21.50	344.03	12.93	-40.7	-55.1	3.8	1.49e+00	0	57	104	0	52	19609
2026-01-29 01:56:22.51	343.85	12.97	-40.5	-54.9	3.8	1.49e+00	0	57	104	0	52	19076
2026-01-29 01:56:23.52	343.68	13.02	-40.6	-55.0	3.8	1.49e+00	0	57	104	0	52	19332
2026-01-29 01:56:24.53	343.50	13.07	-40.7	-55.2	3.8	1.49e+00	0	57	104	0	52	19785
2026-01-29 01:56:25.54	343.33	13.12	-40.5	-55.0	3.8	1.49e+00	0	57	104	0	52	19216
2026-01-29 01:56:26.55	343.15	13.16	-40.5	-54.9	3.8	1.49e+00	0	57	104	0	52	19096
2026-01-29 01:56:27.56	342.97	13.21	-40.6	-55.0	3.8	1.49e+00	0	57	104	0	52	19350
2026-01-29 01:56:28.57	342.79	13.26	-40.6	-55.0	3.8	1.49e+00	0	57	104	0	52	19303
2026-01-29 01:56:29.58	342.61	13.30	-40.5	-55.0	3.8	1.49e+00	0	57	104	0	52	19224
2026-01-29 01:56:30.59	342.44	13.35	-40.3	-54.7	3.8	1.49e+00	0	57	104	0	52	18663
2026-01-29 01:56:31.59	342.26	13.40	-40.6	-55.0	3.8	1.49e+00	0	57	104	0	52	19265
2026-01-29 01:56:32.61	342.07	13.44	-40.6	-55.0	3.8	1.49e+00	0	57	104	0	52	19333
2026-01-29 01:56:33.62	341.89	13.49	-40.3	-54.7	3.8	1.49e+00	0	57	104	0	52	18679
2026-01-29 01:56:34.63	341.71	13.53	-40.2	-54.6	3.8	1.49e+00	0	57	104	0	52	18456
2026-01-29 01:56:35.64	341.53	13.58	-40.3	-54.7	3.8	1.49e+00	0	57	104	0	52	18703
2026-01-29 01:56:36.65	341.35	13.62	-40.3	-54.7	3.8	1.49e+00	0	57	104	0	52	18691
2026-01-29 01:56:37.66	341.16	13.67	-40.3	-54.7	3.8	1.49e+00	0	57	104	0	52	18546
2026-01-29 01:56:38.67	340.98	13.71	-40.5	-54.8	3.8	1.49e+00	0	57	104	0	52	18801
2026-01-29 01:56:39.68	340.80	13.76	-40.3	-54.7	3.8	1.49e+00	0	57	104	0	52	18526
2026-01-29 01:56:40.69	340.61	13.80	-40.3	-54.7	3.8	1.49e+00	0	57	104	0	52	18585
2026-01-29 01:56:41.70	340.43	13.85	-40.5	-54.7	3.8	1.49e+00	0	57	104	0	52	18637
2026-01-29 01:56:42.71	340.24	13.89	-41.1	-54.6	3.8	1.49e+00	0	57	104	0	52	18442
2026-01-29 01:56:43.72	340.05	13.93	-40.6	-54.6	3.8	1.49e+00	0	57	104	0	53	17475
2026-01-29 01:56:44.73	339.87	13.98	-40.6	-54.5	3.8	1.49e+00	0	57	104	0	52	18225
2026-01-29 01:56:45.74	339.68	14.02	-41.2	-53.3	4.0	1.49e+00	0	57	104	0	52	15836
2026-01-29 01:56:46.75	339.49	14.06	-42.1	-51.9	4.7	1.48e+00	0	57	0	0	54	12003
2026-01-29 01:56:47.76	339.30	14.10	-40.9	-51.8	4.2	6.54e-01	0	57	0	1048576	53	12639
2026-01-29 01:56:48.77	339.11	14.15	-41.2	-48.5	6.7	1.22e+00	0	57	0	1048576	53	8572
2026-01-29 01:56:49.78	338.92	14.19	-41.0	-46.9	8.7	8.00e-02	0	57	0	3145728	53	7175
2026-01-29 01:56:50.79	338.73	14.23	-40.6	-45.5	10.3	9.05e-03	0	58	0	4194304	53	6109
2026-01-29 01:56:51.80	338.54	14.27	-40.5	-45.0	11.1	2.31e-03	0	57	0	6291456	52	6086
2026-01-29 01:56:52.81	338.35	14.31	-40.6	-45.1	11.0	1.47e-03	0	57	0	8388608	52	6201
2026-01-29 01:56:53.82	338.16	14.36	-40.9	-45.8	10.5	3.20e-03	0	57	0	10485760	52	6673
2026-01-29 01:56:54.83	337.97	14.40	-41.0	-45.9	10.6	3.59e-03	0	57	0	12582912	52	6801
2026-01-29 01:56:55.84	337.77	14.44	-41.1	-46.0	10.5	3.80e-03	0	57	0	13631488	52	6868
2026-01-29 01:56:56.85	337.58	14.48	-41.2	-46.0	10.6	4.33e-03	0	57	0	15728640	53	6446
2026-01-29 01:56:57.86	337.38	14.52	-41.0	-45.5	11.3	1.63e-03	0	57	0	17825792	53	6081
2026-01-29 01:56:58.87	337.19	14.56	-40.5	-44.3	12.7	3.15e-04	0	58	0	19922944	53	5291
2026-01-29 01:56:59.88	336.99	14.60	-40.6	-44.3	12.8	4.57e-05	0	58	0	22020096	52	5593
2026-01-29 01:57:00.89	336.80	14.64	-40.7	-44.4	12.8	6.48e-05	0	57	0	23068672	52	5673
2026-01-29 01:57:01.90	336.60	14.68	-40.8	-44.5	12.8	3.28e-05	0	58	0	25165824	52	5742
2026-01-29 01:57:02.91	336.41	14.71	-41.1	-45.1	12.2	9.61e-05	0	58	0	27262976	52	6162
2026-01-29 01:57:03.92	336.21	14.75	-41.2	-45.3	12.1	2.48e-04	0	58	0	29360128	52	6284
2026-01-29 01:57:04.93	336.01	14.79	-41.3	-45.4	11.9	3.87e-04	0	57	0	31457280	53	6053
2026-01-29 01:57:05.94	335.81	14.83	-41.2	-45.2	12.2	3.45e-04	0	58	0	32505856	53	5909
2026-01-29 01:57:06.95	335.61	14.87	-41.2	-45.3	12.1	2.37e-04	0	57	0	34603008	53	5931
2026-01-29 01:57:07.96	335.41	14.90	-41.1	-45.0	12.5	1.37e-04	0	58	0	36700160	53	5739
2026-01-29 01:57:08.97	335.21	14.94	-41.0	-44.7	12.8	8.39e-05	0	58	0	38797312	53	5575
2026-01-29 01:57:09.98	335.01	14.98	-40.9	-44.5	13.0	3.89e-05	0	58	0	40894464	53	5416
2026-01-29 01:57:10.99	334.81	15.01	-40.8	-44.4	13.1	3.73e-05	0	58	0	41943040	53	5369
2026-01-29 01:57:12.00	334.61	15.05	-40.9	-44.6	12.9	3.20e-05	0	58	0	44040192	53	5493
2026-01-29 01:57:13.01	334.41	15.09	-40.9	-44.5	13.0	3.43e-05	0	57	0	46137344	53	5434
2026-01-29 01:57:14.02	334.21	15.12	-40.9	-44.6	12.9	4.65e-05	0	58	0	48234496	53	5471
2026-01-29 01:57:15.03	334.00	15.16	-41.0	-44.7	12.8	5.64e-05	0	57	0	50331648	53	5565
2026-01-29 01:57:16.04	333.80	15.19	-40.9	-44.6	12.9	5.41e-05	0	58	0	51380224	53	5486
2026-01-29 01:57:17.05	333.60	15.23	-40.8	-44.4	13.1	2.74e-05	0	57	0	53477376	53	5383
2026-01-29 01:57:18.06	333.39	15.26	-40.8	-44.4	13.1	3.73e-05	0	58	0	55574528	53	5397
2026-01-29 01:57:19.07	333.19	15.30	-40.8	-44.4	13.2	2.44e-05	0	58	0	57671680	53	5383
2026-01-29 01:57:20.08	332.98	15.33	-40.8	-44.4	13.2	3.12e-05	0	58	0	59768832	53	5372
2026-01-29 01:57:21.09	332.78	15.36	-40.9	-44.5	13.0	2.82e-05	0	58	0	61865984	53	5447
2026-01-29 01:57:22.10	332.57	15.40	-40.9	-44.6	13.0	2.74e-05	0	57	0	62914560	53	5473
2026-01-29 01:57:23.10	332.36	15.43	-41.0	-44.8	12.8	5.11e-05	0	58	0	65011712	53	5633
2026-01-29 01:57:24.11	332.16	15.46	-41.0	-44.7	12.8	6.33e-05	0	58	0	67108864	53	5537
2026-01-29 01:57:25.12	331.95	15.49	-40.9	-44.5	13.1	4.11e-05	0	58	0	69206016	53	5405
2026-01-29 01:57:26.13	331.74	15.52	-40.9	-44.5	13.1	3.05e-05	0	58	0	71303168	53	5404
2026-01-29 01:57:27.14	331.53	15.56	-40.7	-44.2	13.4	1.98e-05	0	58	0	72351744	53	5239
2026-01-29 01:57:28.16	331.32	15.59	-40.6	-44.0	13.6	1.22e-05	0	57	0	74448896	53	5113
2026-01-29 01:57:29.17	331.11	15.62	-40.6	-43.8	13.7	6.10e-06	0	58	0	76546048	53	5040
2026-01-29 01:57:30.18	330.90	15.65	-40.5	-43.8	13.7	7.60e-06	0	58	0	78643200	52	5284
2026-01-29 01:57:31.19	330.69	15.68	-40.5	-43.7	13.9	6.10e-06	0	58	0	80740352	52	5246
2026-01-29 01:57:32.20	330.48	15.71	-40.5	-43.8	13.8	4.50e-06	0	58	0	81788928	52	5290
2026-01-29 01:57:33.21	330.27	15.74	-40.6	-43.8	13.8	3.00e-06	0	58	0	83886080	52	5326
2026-01-29 01:57:34.22	330.06	15.77	-40.5	-43.7	13.9	3.80e-06	0	57	0	85983232	52	5274
2026-01-29 01:57:35.23	329.85	15.79	-40.5	-43.7	13.9	4.50e-06	0	58	0	88080384	52	5272
2026-01-29 01:57:36.24	329.63	15.82	-40.5	-43.7	13.9	2.20e-06	0	58	0	90177536	52	5258
2026-01-29 01:57:37.24	329.42	15.85	-40.5	-43.7	13.9	3.80e-06	0	58	0	91226112	52	5228
2026-01-29 01:57:38.25	329.21	15.88	-40.6	-43.8	13.8	3.80e-06	0	58	0	93323264	52	5311
2026-01-29 01:57:39.26	329.00	15.91	-40.6	-43.9	13.7	7.60e-06	0	58	0	95420416	52	5353
2026-01-29 01:57:40.28	328.78	15.93	-40.7	-44.1	13.4	9.90e-06	0	58	0	97517568	52	5509
2026-01-29 01:57:41.29	328.57	15.96	-40.7	-44.1	13.5	1.22e-05	0	58	0	99614720	52	5511
2026-01-29 01:57:42.30	328.35	15.98	-40.9	-44.5	13.1	2.13e-05	0	58	0	100663296	52	5735
2026-01-29 01:57:43.30	328.14	16.01	-41.0	-44.7	13.0	4.42e-05	0	58	0	102760448	52	5871
2026-01-29 01:57:44.31	327.92	16.03	-41.0	-44.7	12.9	3.66e-05	0	58	0	104857600	52	5865
2026-01-29 01:57:45.32	327.71	16.06	-40.9	-44.4	13.2	2.59e-05	0	58	0	106954752	52	5690
2026-01-29 01:57:46.33	327.49	16.08	-40.9	-44.4	13.3	1.90e-05	0	58	0	109051904	52	5667
2026-01-29 01:57:47.34	327.27	16.11	-40.8	-44.2	13.4	2.21e-05	0	57	0	110100480	52	5555
2026-01-29 01:57:48.35	327.06	16.13	-40.8	-44.2	13.5	1.60e-05	0	58	0	112197632	52	5564
2026-01-29 01:57:49.36	326.84	16.15	-40.9	-44.5	13.1	2.36e-05	0	58	0	114294784	52	5725
2026-01-29 01:57:50.37	326.62	16.18	-41.1	-44.7	13.0	3.20e-05	0	58	0	116391936	52	5880
2026-01-29 01:57:51.38	326.40	16.20	-41.1	-44.9	12.8	3.58e-05	0	58	0	118489088	52	5998
2026-01-29 01:57:52.40	326.18	16.22	-41.2	-45.0	12.7	8.39e-05	0	58	0	119537664	53	5735
2026-01-29 01:57:53.40	325.97	16.24	-41.1	-44.8	12.7	5.18e-05	0	58	0	121634816	53	5652
2026-01-29 01:57:54.41	325.75	16.27	-41.1	-44.8	12.8	6.10e-05	0	58	0	123731968	53	5609
2026-01-29 01:57:55.42	325.53	16.29	-41.2	-44.9	12.7	7.78e-05	0	58	0	125829120	53	5709
2026-01-29 01:57:56.43	325.31	16.31	-41.1	-44.8	12.8	5.41e-05	0	58	0	127926272	53	5614
2026-01-29 01:57:57.44	325.09	16.33	-41.1	-44.7	13.0	4.57e-05	0	58	0	130023424	53	5571
2026-01-29 01:57:58.45	324.87	16.35	-41.0	-44.7	12.9	6.10e-05	0	58	0	131072000	53	5542
2026-01-29 01:57:59.46	324.65	16.37	-41.0	-44.6	13.0	5.18e-05	0	58	0	133169152	53	5495
2026-01-29 01:58:00.47	324.43	16.38	-41.0	-44.5	13.1	2.82e-05	0	58	0	135266304	53	5430
2026-01-29 01:58:01.48	324.21	16.40	-41.0	-44.5	13.1	2.51e-05	0	58	0	137363456	53	5445
2026-01-29 01:58:02.49	323.99	16.42	-41.0	-44.5	13.1	1.83e-05	0	58	0	139460608	53	5448
2026-01-29 01:58:03.50	323.77	16.44	-40.9	-44.4	13.2	2.21e-05	0	58	0	140509184	53	5400
2026-01-29 01:58:04.51	323.54	16.45	-40.9	-44.4	13.2	2.13e-05	0	58	0	142606336	53	5397
2026-01-29 01:58:05.52	323.32	16.47	-41.0	-44.6	13.1	3.50e-05	0	58	0	144703488	53	5502
2026-01-29 01:58:06.54	323.10	16.49	-40.9	-44.5	13.2	1.75e-05	0	58	0	146800640	53	5407
2026-01-29 01:58:07.54	322.88	16.50	-40.8	-44.2	13.5	2.05e-05	0	58	0	148897792	53	5224
2026-01-29 01:58:08.55	322.65	16.52	-40.6	-43.9	13.7	5.30e-06	0	58	0	149946368	53	5093
2026-01-29 01:58:09.57	322.43	16.53	-40.6	-43.9	13.8	6.10e-06	0	58	0	152043520	53	5044
2026-01-29 01:58:10.57	322.21	16.55	-40.6	-43.9	13.7	6.10e-06	0	58	0	154140672	53	5076
2026-01-29 01:58:11.58	321.98	16.56	-40.7	-44.1	13.6	4.50e-06	0	58	0	156237824	53	5160
2026-01-29 01:58:12.59	321.76	16.58	-40.8	-44.2	13.5	4.50e-06	0	58	0	158334976	53	5222
2026-01-29 01:58:13.61	321.53	16.59	-40.9	-44.3	13.3	1.06e-05	0	58	0	159383552	53	5340
2026-01-29 01:58:14.62	321.31	16.60	-41.0	-44.6	13.0	2.89e-05	0	58	0	161480704	53	5520
2026-01-29 01:58:15.63	321.09	16.61	-41.1	-44.9	12.8	4.57e-05	0	58	0	163577856	53	5661
2026-01-29 01:58:16.64	320.86	16.63	-41.0	-44.7	13.0	5.26e-05	0	58	0	165675008	53	5553
2026-01-29 01:58:17.65	320.64	16.64	-41.0	-44.8	12.9	4.73e-05	0	58	0	167772160	53	5611
2026-01-29 01:58:18.66	320.41	16.65	-41.2	-45.0	12.6	6.86e-05	0	58	0	168820736	53	5751
2026-01-29 01:58:19.67	320.19	16.66	-41.1	-44.9	12.7	8.46e-05	0	58	0	170917888	53	5701
2026-01-29 01:58:20.68	319.96	16.67	-41.2	-45.1	12.5	1.12e-04	0	58	0	173015040	53	5800
2026-01-29 01:58:21.69	319.74	16.68	-41.2	-45.1	12.6	1.41e-04	0	58	0	175112192	53	5816
2026-01-29 01:58:22.70	319.51	16.69	-41.3	-45.3	12.3	1.48e-04	0	58	0	177209344	53	5961
2026-01-29 01:58:23.71	319.29	16.70	-41.4	-45.4	12.2	2.39e-04	0	58	0	178257920	53	6015
2026-01-29 01:58:24.72	319.06	16.71	-41.5	-45.7	11.9	3.77e-04	0	58	0	180355072	53	6220
2026-01-29 01:58:25.73	318.83	16.71	-41.5	-45.8	11.8	4.90e-04	0	58	0	182452224	53	6281
2026-01-29 01:58:26.74	318.61	16.72	-41.5	-45.8	11.9	4.77e-04	0	58	0	184549376	53	6275
2026-01-29 01:58:27.75	318.38	16.73	-41.6	-46.0	11.7	5.42e-04	0	58	0	186646528	53	6424
2026-01-29 01:58:28.76	318.16	16.73	-41.5	-45.6	12.0	4.45e-04	0	58	0	187695104	53	6190
2026-01-29 01:58:29.77	317.93	16.74	-41.4	-45.5	12.0	3.02e-04	0	58	0	189792256	53	6105
2026-01-29 01:58:30.78	317.70	16.75	-41.3	-45.3	12.3	1.50e-04	0	58	0	191889408	53	5945
2026-01-29 01:58:31.79	317.48	16.75	-41.1	-45.0	12.7	9.46e-05	0	58	0	193986560	53	5733
2026-01-29 01:58:32.80	317.25	16.76	-41.1	-44.8	12.8	7.62e-05	0	58	0	196083712	53	5632
2026-01-29 01:58:33.81	317.02	16.76	-41.1	-44.8	12.8	5.56e-05	0	58	0	198180864	53	5625
2026-01-29 01:58:34.81	316.80	16.76	-41.1	-44.8	12.8	7.55e-05	0	58	0	199229440	53	5628
2026-01-29 01:58:35.82	316.57	16.77	-41.1	-44.8	12.8	6.10e-05	0	58	0	201326592	53	5633
2026-01-29 01:58:36.83	316.35	16.77	-41.1	-44.9	12.8	4.19e-05	0	58	0	203423744	53	5708
2026-01-29 01:58:37.84	316.12	16.77	-41.0	-44.7	12.9	5.64e-05	0	58	0	205520896	53	5584
2026-01-29 01:58:38.86	315.89	16.77	-41.0	-44.7	13.0	3.96e-05	0	58	0	207618048	53	5534
2026-01-29 01:58:39.87	315.66	16.78	-40.9	-44.5	13.1	4.65e-05	0	58	0	208666624	53	5432
2026-01-29 01:58:40.88	315.44	16.78	-40.9	-44.4	13.3	2.05e-05	0	58	0	210763776	53	5360
2026-01-29 01:58:41.89	315.21	16.78	-40.8	-44.2	13.4	1.52e-05	0	58	0	212860928	53	5274
2026-01-29 01:58:42.90	314.98	16.78	-40.9	-44.5	13.2	9.90e-06	0	58	0	214958080	53	5410
2026-01-29 01:58:43.91	314.75	16.78	-41.0	-44.5	13.2	2.21e-05	0	58	0	217055232	53	5460
2026-01-29 01:58:44.92	314.53	16.78	-40.9	-44.5	13.1	3.96e-05	0	58	0	218103808	53	5460
2026-01-29 01:58:45.93	314.30	16.78	-41.1	-44.8	12.8	4.95e-05	0	58	0	220200960	53	5649
2026-01-29 01:58:46.94	314.07	16.77	-41.1	-44.9	12.8	5.34e-05	0	58	0	222298112	53	5659
2026-01-29 01:58:47.95	313.85	16.77	-41.1	-44.8	12.8	5.95e-05	0	58	0	224395264	53	5648
2026-01-29 01:58:48.96	313.62	16.77	-41.2	-44.9	12.7	8.01e-05	0	58	0	226492416	53	5715
2026-01-29 01:58:49.97	313.39	16.77	-41.2	-45.0	12.6	1.17e-04	0	58	0	227540992	53	5787
2026-01-29 01:58:50.98	313.17	16.76	-41.2	-45.0	12.6	9.23e-05	0	58	0	229638144	53	5777
2026-01-29 01:58:51.98	312.94	16.76	-41.2	-45.0	12.6	1.02e-04	0	58	0	231735296	53	5780
2026-01-29 01:58:52.99	312.72	16.75	-41.1	-44.8	12.8	7.85e-05	0	58	0	233832448	53	5642
2026-01-29 01:58:54.00	312.49	16.75	-41.0	-44.7	12.9	4.42e-05	0	58	0	235929600	53	5531
2026-01-29 01:58:55.01	312.26	16.74	-40.9	-44.5	13.1	3.50e-05	0	58	0	236978176	53	5448
2026-01-29 01:58:56.02	312.04	16.74	-40.9	-44.5	13.1	2.13e-05	0	58	0	239075328	53	5436
2026-01-29 01:58:57.03	311.81	16.73	-40.9	-44.5	13.1	2.82e-05	0	58	0	241172480	53	5460
2026-01-29 01:58:58.04	311.58	16.72	-41.0	-44.8	12.9	4.19e-05	0	58	0	243269632	53	5599
2026-01-29 01:58:59.05	311.36	16.72	-41.2	-45.0	12.6	8.23e-05	0	58	0	245366784	53	5748
2026-01-29 01:59:00.06	311.13	16.71	-41.2	-45.1	12.4	9.68e-05	0	58	0	246415360	53	5850
2026-01-29 01:59:01.07	310.91	16.70	-41.3	-45.3	12.2	1.82e-04	0	58	0	248512512	53	5988
2026-01-29 01:59:02.08	310.68	16.69	-41.3	-45.4	12.2	1.91e-04	0	58	0	250609664	53	6015
2026-01-29 01:59:03.09	310.45	16.68	-41.4	-45.4	12.2	2.23e-04	0	58	0	252706816	53	6035
2026-01-29 01:59:04.10	310.23	16.68	-41.4	-45.4	12.1	2.10e-04	0	58	0	254803968	53	6048
2026-01-29 01:59:05.10	310.01	16.67	-41.5	-45.7	11.9	3.20e-04	0	58	0	255852544	53	6248
2026-01-29 01:59:06.12	309.78	16.65	-41.5	-45.8	11.7	4.74e-04	0	58	0	257949696	53	6341
2026-01-29 01:59:07.12	309.56	16.64	-41.6	-46.0	11.6	6.85e-04	0	58	0	260046848	53	6437
2026-01-29 01:59:08.13	309.33	16.63	-41.6	-46.0	11.6	7.16e-04	0	58	0	262144000	53	6448
2026-01-29 01:59:09.14	309.11	16.62	-41.6	-45.9	11.6	5.09e-04	0	58	0	264241152	53	6415
2026-01-29 01:59:10.15	308.88	16.61	-41.4	-45.6	11.9	3.50e-04	0	58	0	266338304	53	6200
2026-01-29 01:59:11.16	308.66	16.60	-41.4	-45.5	12.0	3.07e-04	0	58	0	267386880	53	6106
2026-01-29 01:59:12.17	308.43	16.58	-41.4	-45.5	12.1	2.55e-04	0	58	0	269484032	53	6092
2026-01-29 01:59:13.18	308.21	16.57	-41.3	-45.3	12.3	1.91e-04	0	58	0	271581184	53	5930
2026-01-29 01:59:14.19	307.98	16.56	-41.3	-45.4	12.2	1.88e-04	0	58	0	273678336	53	6030
2026-01-29 01:59:15.20	307.76	16.54	-41.3	-45.3	12.3	1.53e-04	0	58	0	275775488	53	5943
2026-01-29 01:59:16.21	307.54	16.53	-41.3	-45.2	12.4	1.62e-04	0	58	0	276824064	53	5895
2026-01-29 01:59:17.22	307.31	16.51	-41.2	-45.0	12.6	1.14e-04	0	58	0	278921216	53	5759
2026-01-29 01:59:18.23	307.09	16.50	-41.1	-45.0	12.6	8.01e-05	0	58	0	281018368	53	5734
2026-01-29 01:59:19.24	306.87	16.48	-41.0	-44.8	12.8	6.10e-05	0	58	0	283115520	53	5602
2026-01-29 01:59:20.25	306.65	16.46	-41.0	-44.7	12.9	8.01e-05	0	58	0	285212672	53	5553
2026-01-29 01:59:21.26	306.42	16.45	-41.0	-44.7	12.8	4.27e-05	0	58	0	286261248	53	5585
2026-01-29 01:59:22.27	306.20	16.43	-41.0	-44.8	12.8	7.32e-05	0	58	0	288358400	53	5594
2026-01-29 01:59:23.28	305.98	16.41	-41.0	-44.7	12.9	5.11e-05	0	58	0	290455552	53	5557
2026-01-29 01:59:24.29	305.76	16.39	-41.0	-44.6	13.0	4.19e-05	0	59	0	292552704	53	5513
2026-01-29 01:59:25.30	305.54	16.38	-40.8	-44.3	13.3	1.22e-05	0	58	0	294649856	53	5306
2026-01-29 01:59:26.31	305.32	16.36	-40.7	-44.0	13.6	6.10e-06	0	58	0	295698432	53	5153
2026-01-29 01:59:27.32	305.10	16.34	-40.7	-43.9	13.7	3.80e-06	0	58	0	297795584	53	5081
2026-01-29 01:59:28.33	304.88	16.32	-40.6	-43.6	14.1	7.00e-07	0	58	0	299892736	53	4922
2026-01-29 01:59:29.34	304.66	16.30	-40.5	-43.5	14.1	7.00e-07	0	58	0	301989888	52	5158
2026-01-29 01:59:30.34	304.44	16.28	-40.6	-43.7	14.0	7.00e-07	0	58	0	304087040	52	5232
2026-01-29 01:59:31.35	304.22	16.26	-40.8	-44.0	13.7	6.10e-06	0	58	0	305135616	52	5433
2026-01-29 01:59:32.37	304.00	16.23	-40.8	-44.1	13.6	9.10e-06	0	58	0	307232768	52	5492
2026-01-29 01:59:33.38	303.78	16.21	-40.9	-44.2	13.4	6.80e-06	0	58	0	309329920	52	5554
2026-01-29 01:59:34.38	303.56	16.19	-40.9	-44.2	13.5	1.83e-05	0	58	0	311427072	52	5552
2026-01-29 01:59:35.39	303.34	16.17	-40.8	-44.1	13.5	9.10e-06	0	58	0	313524224	52	5500
2026-01-29 01:59:36.40	303.13	16.15	-40.9	-44.2	13.4	1.75e-05	0	58	0	314572800	52	5579
2026-01-29 01:59:37.41	302.91	16.12	-40.9	-44.2	13.4	2.21e-05	0	58	0	316669952	52	5584
2026-01-29 01:59:38.42	302.69	16.10	-41.0	-44.5	13.1	1.52e-05	0	58	0	318767104	52	5756
2026-01-29 01:59:39.43	302.47	16.07	-41.1	-44.6	13.0	4.42e-05	0	58	0	320864256	52	5838
2026-01-29 01:59:40.44	302.26	16.05	-41.0	-44.6	13.1	1.90e-05	0	58	0	322961408	52	5796
2026-01-29 01:59:41.45	302.04	16.02	-41.1	-44.6	12.9	3.81e-05	0	58	0	324009984	52	5851
2026-01-29 01:59:42.46	301.83	16.00	-41.1	-44.7	12.9	3.66e-05	0	58	0	326107136	52	5903
2026-01-29 01:59:43.47	301.61	15.97	-41.2	-44.8	12.8	4.50e-05	0	58	0	328204288	52	5969
2026-01-29 01:59:44.48	301.40	15.95	-41.1	-44.7	12.9	4.95e-05	0	58	0	330301440	53	5565
2026-01-29 01:59:45.49	301.18	15.92	-41.2	-44.9	12.7	8.92e-05	0	58	0	332398592	53	5696
2026-01-29 01:59:46.50	300.97	15.89	-41.1	-44.8	12.8	6.94e-05	0	58	0	334495744	53	5616
2026-01-29 01:59:47.51	300.75	15.87	-41.1	-44.8	12.8	6.10e-05	0	58	0	335544320	53	5611
2026-01-29 01:59:48.52	300.54	15.84	-40.9	-44.3	13.4	4.04e-05	0	58	0	337641472	53	5280
2026-01-29 01:59:49.53	300.33	15.81	-40.7	-44.0	13.7	5.30e-06	0	58	0	339738624	53	5118
2026-01-29 01:59:50.54	300.11	15.78	-40.7	-43.9	13.7	3.00e-06	0	58	0	341835776	53	5082
2026-01-29 01:59:51.55	299.90	15.75	-40.8	-44.1	13.6	1.06e-05	0	58	0	343932928	53	5184
2026-01-29 01:59:52.56	299.69	15.72	-40.7	-43.9	13.7	3.80e-06	0	59	0	344981504	53	5077
2026-01-29 01:59:53.57	299.48	15.70	-40.6	-43.8	13.7	4.50e-06	0	58	0	347078656	53	5035
2026-01-29 01:59:54.58	299.27	15.67	-40.8	-44.1	13.5	6.80e-06	0	58	0	349175808	53	5199
2026-01-29 01:59:55.59	299.06	15.64	-40.7	-43.8	13.8	5.30e-06	0	58	0	351272960	53	5038
2026-01-29 01:59:56.60	298.85	15.60	-40.6	-43.8	13.8	5.30e-06	0	59	0	353370112	53	5022
2026-01-29 01:59:57.61	298.64	15.57	-40.6	-43.8	13.8	2.20e-06	0	58	0	354418688	53	4985
2026-01-29 01:59:58.62	298.43	15.54	-40.7	-44.0	13.6	4.50e-06	0	58	0	356515840	53	5120
2026-01-29 01:59:59.63	298.22	15.51	-40.6	-43.8	13.8	1.83e-05	0	58	0	358612992	53	5028
2026-01-29 02:00:00.64	298.01	15.48	-40.9	-44.4	13.2	1.60e-05	0	58	0	360710144	53	5386
2026-01-29 02:00:01.65	297.80	15.45	-41.1	-44.6	12.9	3.81e-05	0	58	0	362807296	53	5520
2026-01-29 02:00:02.66	297.59	15.41	-41.0	-44.6	13.0	3.28e-05	0	58	0	363855872	53	5488
2026-01-29 02:00:03.67	297.39	15.38	-41.1	-44.8	12.8	3.89e-05	0	58	0	365953024	53	5606
2026-01-29 02:00:04.68	297.18	15.35	-41.0	-44.6	13.0	4.19e-05	0	58	0	368050176	53	5495
2026-01-29 02:00:05.69	296.98	15.31	-41.1	-44.7	12.8	4.95e-05	0	58	0	370147328	53	5562
2026-01-29 02:00:06.70	296.77	15.28	-41.1	-44.7	12.8	6.33e-05	0	58	0	372244480	53	5582
2026-01-29 02:00:07.71	296.56	15.25	-41.3	-45.1	12.4	9.84e-05	0	58	0	373293056	53	5834
2026-01-29 02:00:08.72	296.36	15.21	-41.2	-45.0	12.5	1.13e-04	0	58	0	375390208	53	5735
2026-01-29 02:00:09.73	296.16	15.18	-41.3	-45.2	12.3	1.71e-04	0	58	0	377487360	53	5872
2026-01-29 02:00:10.74	295.95	15.14	-41.4	-45.3	12.2	1.55e-04	0	58	0	379584512	53	5983
2026-01-29 02:00:11.75	295.75	15.11	-41.5	-45.5	12.0	2.42e-04	0	59	0	381681664	53	6070
2026-01-29 02:00:12.76	295.55	15.07	-41.5	-45.5	12.0	2.42e-04	0	58	0	382730240	53	6108
2026-01-29 02:00:13.77	295.34	15.03	-41.4	-45.4	12.1	2.37e-04	0	58	0	384827392	53	6025
2026-01-29 02:00:14.78	295.14	15.00	-41.4	-45.4	12.1	2.94e-04	0	58	0	386924544	53	6045
2026-01-29 02:00:15.79	294.94	14.96	-41.4	-45.3	12.2	2.49e-04	0	58	0	389021696	53	5940
2026-01-29 02:00:16.80	294.74	14.92	-41.3	-45.1	12.4	1.91e-04	0	58	0	391118848	53	5848
2026-01-29 02:00:17.81	294.54	14.89	-41.3	-45.1	12.4	1.43e-04	0	58	0	392167424	53	5833
2026-01-29 02:00:18.82	294.34	14.85	-41.2	-45.0	12.5	1.23e-04	0	58	0	394264576	53	5773
2026-01-29 02:00:19.83	294.14	14.81	-41.2	-44.9	12.6	8.46e-05	0	58	0	396361728	53	5699
2026-01-29 02:00:20.84	293.94	14.77	-41.2	-44.9	12.5	9.91e-05	0	58	0	398458880	53	5720
2026-01-29 02:00:21.85	293.74	14.74	-41.1	-44.9	12.6	9.84e-05	0	58	0	400556032	53	5667
2026-01-29 02:00:22.86	293.55	14.70	-41.2	-45.0	12.4	1.01e-04	0	58	0	402653184	53	5781
2026-01-29 02:00:23.86	293.35	14.66	-41.2	-45.0	12.5	1.17e-04	0	58	0	403701760	53	5748
2026-01-29 02:00:24.87	293.15	14.62	-41.1	-44.8	12.6	1.15e-04	0	59	0	405798912	53	5639
2026-01-29 02:00:25.88	292.96	14.58	-41.1	-44.8	12.6	7.55e-05	0	59	0	407896064	53	5638
2026-01-29 02:00:26.89	292.76	14.54	-40.9	-44.5	12.9	9.53e-05	0	58	0	409993216	53	5406
2026-01-29 02:00:27.90	292.57	14.50	-40.8	-44.2	13.2	2.74e-05	0	58	0	412090368	53	5259
2026-01-29 02:00:28.91	292.37	14.46	-40.7	-44.1	13.4	1.83e-05	0	58	0	413138944	53	5183
2026-01-29 02:00:29.92	292.18	14.42	-40.6	-43.9	13.5	1.14e-05	0	59	0	415236096	53	5058
2026-01-29 02:00:30.93	291.98	14.38	-40.6	-43.9	13.5	1.83e-05	0	59	0	417333248	53	5077
2026-01-29 02:00:31.94	291.79	14.34	-40.6	-43.9	13.4	8.30e-06	0	58	0	419430400	53	5086
2026-01-29 02:00:32.95	291.60	14.29	-40.7	-44.2	13.2	1.60e-05	0	58	0	421527552	53	5223
2026-01-29 02:00:33.96	291.41	14.25	-40.8	-44.2	13.2	1.52e-05	0	58	0	422576128	53	5264
2026-01-29 02:00:34.97	291.22	14.21	-40.8	-44.3	13.0	3.28e-05	0	58	0	424673280	53	5338
2026-01-29 02:00:35.98	291.02	14.17	-40.8	-44.4	13.0	2.89e-05	0	58	0	426770432	53	5356
2026-01-29 02:00:36.99	290.83	14.13	-40.9	-44.6	12.8	3.35e-05	0	59	0	428867584	53	5479
2026-01-29 02:00:38.00	290.64	14.08	-40.9	-44.7	12.7	6.33e-05	0	58	0	430964736	53	5533
2026-01-29 02:00:39.01	290.46	14.04	-41.1	-44.9	12.5	8.85e-05	0	58	0	432013312	53	5678
2026-01-29 02:00:40.02	290.27	14.00	-41.2	-45.3	12.0	1.66e-04	0	58	0	434110464	53	5945
2026-01-29 02:00:41.02	290.08	13.96	-41.4	-45.5	11.8	4.19e-04	0	59	0	436207616	53	6088
2026-01-29 02:00:42.03	289.89	13.91	-41.5	-45.8	11.5	5.62e-04	0	58	0	438304768	53	6302
2026-01-29 02:00:43.04	289.71	13.87	-41.6	-46.0	11.3	8.77e-04	0	58	0	440401920	53	6444
2026-01-29 02:00:44.05	289.52	13.82	-41.6	-46.1	11.2	1.16e-03	0	59	0	441450496	53	6536
2026-01-29 02:00:45.06	289.33	13.78	-41.4	-45.6	11.7	1.04e-03	0	58	0	443547648	53	6175
2026-01-29 02:00:46.08	289.15	13.74	-41.5	-45.9	11.4	8.87e-04	0	58	0	445644800	53	6386
2026-01-29 02:00:47.08	288.96	13.69	-41.4	-45.7	11.5	1.02e-03	0	58	0	447741952	53	6252
2026-01-29 02:00:48.09	288.78	13.65	-41.4	-45.6	11.6	5.43e-04	0	58	0	449839104	53	6185
2026-01-29 02:00:49.10	288.60	13.60	-41.3	-45.6	11.6	6.07e-04	0	58	0	450887680	53	6143
2026-01-29 02:00:50.11	288.41	13.56	-41.4	-45.8	11.5	7.00e-04	0	58	0	452984832	53	6286
2026-01-29 02:00:51.12	288.23	13.51	-41.4	-45.8	11.3	1.25e-03	0	58	0	455081984	53	6301
2026-01-29 02:00:52.13	288.05	13.46	-41.4	-45.8	11.3	1.24e-03	0	58	0	457179136	53	6323
2026-01-29 02:00:53.14	287.87	13.42	-41.4	-46.0	11.1	1.32e-03	0	58	0	459276288	53	6434
2026-01-29 02:00:54.15	287.69	13.37	-41.4	-45.9	11.2	1.56e-03	0	58	0	460324864	53	6370
2026-01-29 02:00:55.16	287.51	13.33	-41.4	-46.0	11.1	1.58e-03	0	58	0	462422016	53	6440
2026-01-29 02:00:56.17	287.33	13.28	-41.3	-45.7	11.3	1.48e-03	0	58	0	464519168	53	6266
2026-01-29 02:00:57.18	287.15	13.23	-41.2	-45.6	11.4	1.01e-03	0	58	0	466616320	53	6138
2026-01-29 02:00:58.19	286.97	13.19	-41.2	-45.4	11.4	1.16e-03	0	58	0	468713472	53	6059
2026-01-29 02:00:59.20	286.79	13.14	-41.2	-45.6	11.4	8.89e-04	0	58	0	469762048	53	6134
2026-01-29 02:01:00.21	286.61	13.09	-41.2	-45.7	11.2	1.06e-03	0	58	0	471859200	53	6214
2026-01-29 02:01:01.22	286.44	13.05	-41.3	-45.8	11.2	1.43e-03	0	59	0	473956352	53	6275
2026-01-29 02:01:02.23	286.26	13.00	-41.3	-45.8	11.1	1.72e-03	0	58	0	476053504	53	6311
2026-01-29 02:01:03.24	286.08	12.95	-41.3	-45.8	11.0	2.01e-03	0	58	0	478150656	53	6316
2026-01-29 02:01:04.25	285.91	12.90	-41.2	-45.6	11.1	1.48e-03	0	58	0	480247808	53	6183
2026-01-29 02:01:05.26	285.73	12.85	-41.1	-45.4	11.4	1.01e-03	0	58	0	481296384	53	6008
2026-01-29 02:01:06.27	285.56	12.81	-41.0	-45.3	11.7	6.54e-04	0	58	0	483393536	53	5957
2026-01-29 02:01:07.28	285.39	12.76	-40.7	-44.6	12.3	2.66e-04	0	58	0	485490688	53	5494
2026-01-29 02:01:08.28	285.22	12.71	-40.7	-44.4	12.5	1.60e-04	0	58	0	487587840	53	5390
2026-01-29 02:01:09.30	285.04	12.66	-40.7	-44.6	12.3	1.40e-04	0	58	0	489684992	53	5487
2026-01-29 02:01:10.31	284.87	12.61	-40.8	-44.8	12.1	2.45e-04	0	58	0	490733568	53	5609
2026-01-29 02:01:11.32	284.70	12.56	-40.9	-45.0	11.9	3.70e-04	0	58	0	492830720	53	5763
2026-01-29 02:01:12.33	284.53	12.51	-41.0	-45.3	11.5	5.80e-04	0	59	0	494927872	53	5930
2026-01-29 02:01:13.34	284.36	12.46	-41.1	-45.6	11.2	1.23e-03	0	58	0	497025024	53	6133
2026-01-29 02:01:14.35	284.19	12.41	-41.2	-45.8	11.0	2.16e-03	0	59	0	499122176	53	6283
2026-01-29 02:01:15.36	284.02	12.36	-41.4	-46.2	10.5	2.71e-03	0	58	0	500170752	53	6631
2026-01-29 02:01:16.37	283.85	12.32	-41.4	-46.3	10.4	3.56e-03	0	58	0	502267904	53	6653
2026-01-29 02:01:17.38	283.68	12.27	-41.4	-46.3	10.4	3.00e-03	0	58	0	504365056	53	6666
2026-01-29 02:01:18.39	283.52	12.22	-41.4	-46.2	10.5	4.24e-03	0	58	0	506462208	53	6608
2026-01-29 02:01:19.40	283.35	12.17	-41.3	-45.9	10.8	2.84e-03	0	58	0	508559360	53	6406
2026-01-29 02:01:20.41	283.19	12.11	-41.3	-46.0	10.8	2.51e-03	0	59	0	509607936	53	6465
2026-01-29 02:01:21.42	283.02	12.06	-41.2	-45.6	11.2	1.63e-03	0	58	0	511705088	53	6173
2026-01-29 02:01:22.43	282.86	12.01	-41.3	-45.8	11.0	1.37e-03	0	58	0	513802240	53	6347
2026-01-29 02:01:23.44	282.69	11.96	-41.1	-45.5	11.3	1.16e-03	0	58	0	515899392	53	6083
2026-01-29 02:01:24.45	282.53	11.91	-41.3	-45.8	11.1	1.54e-03	0	58	0	517996544	53	6277
2026-01-29 02:01:25.46	282.36	11.86	-41.4	-46.0	10.8	2.67e-03	0	59	0	519045120	53	6453
2026-01-29 02:01:26.47	282.20	11.81	-41.7	-46.8	10.1	5.53e-03	0	58	0	521142272	53	7069
2026-01-29 02:01:27.48	282.04	11.76	-41.9	-47.2	9.6	1.12e-02	0	58	0	523239424	54	6992
2026-01-29 02:01:28.49	281.88	11.71	-42.1	-48.0	8.9	1.54e-02	0	58	0	525336576	54	7648
2026-01-29 02:01:29.50	281.72	11.66	-42.4	-48.9	7.9	5.60e-02	0	58	0	527433728	55	8081
2026-01-29 02:01:30.51	281.56	11.61	-42.5	-49.0	8.0	7.34e-02	0	59	0	528482304	55	8099
2026-01-29 02:01:31.52	281.40	11.55	-42.6	-49.6	7.4	9.21e-02	0	59	0	530579456	55	8739
2026-01-29 02:01:32.53	281.24	11.50	-42.6	-49.4	7.5	1.18e-01	0	58	0	532676608	55	8488
2026-01-29 02:01:33.54	281.08	11.45	-42.5	-49.0	7.9	8.20e-02	0	58	0	534773760	55	8132
2026-01-29 02:01:34.55	280.92	11.40	-42.3	-48.4	8.5	4.90e-02	0	58	0	536870912	55	7623
2026-01-29 02:01:35.56	280.76	11.35	-42.3	-48.5	8.5	3.82e-02	0	59	0	537919488	55	7689
2026-01-29 02:01:36.57	280.61	11.29	-42.3	-48.3	8.6	3.86e-02	0	59	0	540016640	55	7509
2026-01-29 02:01:37.58	280.45	11.24	-42.2	-48.0	8.9	2.43e-02	0	58	0	542113792	55	7263
2026-01-29 02:01:38.59	280.30	11.19	-42.2	-48.2	8.8	2.92e-02	0	59	0	544210944	55	7412
2026-01-29 02:01:39.60	280.14	11.14	-42.2	-47.9	9.0	2.79e-02	0	59	0	546308096	55	7170
2026-01-29 02:01:40.60	279.99	11.09	-42.1	-47.8	9.1	2.23e-02	0	59	0	548405248	55	7076
2026-01-29 02:01:41.61	279.83	11.03	-42.0	-47.6	9.3	1.98e-02	0	59	0	549453824	55	6936
2026-01-29 02:01:42.62	279.68	10.98	-41.9	-47.2	9.7	1.30e-02	0	58	0	551550976	55	6583
2026-01-29 02:01:43.63	279.53	10.93	-41.7	-46.7	10.2	8.76e-03	0	59	0	553648128	55	6203
2026-01-29 02:01:44.64	279.37	10.87	-41.6	-46.5	10.4	5.86e-03	0	58	0	555745280	55	6095
2026-01-29 02:01:45.65	279.22	10.82	-41.5	-46.4	10.5	4.05e-03	0	59	0	557842432	55	5993
2026-01-29 02:01:46.66	279.07	10.77	-41.5	-46.3	10.5	3.95e-03	0	58	0	558891008	55	5992
2026-01-29 02:01:47.67	278.92	10.72	-41.6	-46.5	10.3	4.43e-03	0	58	0	560988160	55	6098
2026-01-29 02:01:48.68	278.77	10.66	-41.5	-46.4	10.4	4.59e-03	0	58	0	563085312	55	6035
2026-01-29 02:01:49.69	278.62	10.61	-41.5	-46.5	10.3	5.36e-03	0	59	0	565182464	54	6452
2026-01-29 02:01:50.70	278.47	10.56	-41.5	-46.4	10.3	6.72e-03	0	59	0	567279616	54	6386
2026-01-29 02:01:51.71	278.32	10.50	-41.5	-46.7	9.9	6.47e-03	0	58	0	568328192	54	6635
2026-01-29 02:01:52.72	278.18	10.45	-41.5	-46.5	10.1	6.80e-03	0	59	0	570425344	54	6458
2026-01-29 02:01:53.73	278.03	10.40	-41.4	-46.5	10.2	6.30e-03	0	58	0	572522496	54	6432
2026-01-29 02:01:54.74	277.88	10.34	-41.3	-46.3	10.2	6.34e-03	0	58	0	574619648	54	6320
2026-01-29 02:01:55.75	277.74	10.29	-41.3	-46.3	10.2	5.83e-03	0	59	0	576716800	54	6310
2026-01-29 02:01:56.76	277.59	10.24	-41.3	-46.4	10.1	7.53e-03	0	59	0	577765376	54	6361
2026-01-29 02:01:57.77	277.44	10.18	-41.3	-46.6	9.8	7.47e-03	0	59	0	579862528	54	6498
2026-01-29 02:01:58.78	277.30	10.13	-41.4	-46.8	9.5	1.21e-02	0	58	0	581959680	54	6696
2026-01-29 02:01:59.79	277.16	10.07	-41.3	-46.7	9.6	1.14e-02	0	59	0	584056832	54	6589
2026-01-29 02:02:00.80	277.01	10.02	-41.4	-46.9	9.3	1.79e-02	0	58	0	586153984	54	6760
2026-01-29 02:02:01.82	276.87	9.97	-41.4	-47.0	9.2	1.72e-02	0	58	0	587202560	54	6840
2026-01-29 02:02:02.82	276.73	9.91	-41.4	-47.3	8.9	2.22e-02	0	59	0	589299712	54	7043
2026-01-29 02:02:03.84	276.58	9.86	-41.4	-47.6	8.4	3.57e-02	0	59	0	591396864	54	7347
2026-01-29 02:02:04.84	276.44	9.80	-41.4	-47.7	8.1	6.36e-02	0	58	0	593494016	54	7451
2026-01-29 02:02:05.86	276.30	9.75	-41.6	-48.4	7.5	8.15e-02	0	58	0	595591168	54	7992
2026-01-29 02:02:06.87	276.16	9.69	-41.6	-48.8	7.1	1.24e-01	0	58	0	596639744	54	8371
2026-01-29 02:02:07.88	276.02	9.64	-41.6	-49.1	6.7	1.78e-01	0	58	0	598736896	54	8702
2026-01-29 02:02:08.89	275.88	9.59	-41.6	-49.7	6.1	2.68e-01	0	59	0	600834048	54	9310
2026-01-29 02:02:09.90	275.74	9.53	-41.6	-50.0	5.9	3.47e-01	0	59	0	602931200	54	9616
2026-01-29 02:02:10.91	275.60	9.48	-41.7	-50.3	5.5	4.18e-01	0	59	0	605028352	54	10043
2026-01-29 02:02:11.92	275.47	9.42	-42.0	-50.8	5.4	4.52e-01	0	58	0	606076928	54	10589
2026-01-29 02:02:12.93	275.33	9.37	-40.1	-54.3	3.8	1.40e+00	0	59	104	607125504	52	17776
2026-01-29 02:02:13.94	275.19	9.31	-41.2	-55.1	3.8	1.49e+00	0	59	104	607125504	52	19464
2026-01-29 02:02:14.95	275.06	9.26	-41.9	-51.1	5.2	1.20e+00	0	58	104	607125504	54	11008
2026-01-29 02:02:15.96	274.92	9.20	-41.9	-51.2	5.1	6.54e-01	0	59	0	608174080	54	11051
2026-01-29 02:02:16.97	274.78	9.15	-41.8	-51.5	4.8	7.26e-01	0	58	0	610271232	54	11530
2026-01-29 02:02:17.98	274.65	9.10	-41.8	-51.7	4.7	8.06e-01	0	59	0	612368384	54	11768
2026-01-29 02:02:18.99	274.52	9.04	-41.7	-52.0	4.5	9.34e-01	0	59	0	614465536	54	12159
2026-01-29 02:02:20.00	274.38	8.99	-41.6	-52.2	4.4	1.14e+00	0	59	0	615514112	54	12485
2026-01-29 02:02:21.01	274.25	8.93	-41.6	-52.6	4.2	1.31e+00	0	59	0	616562688	54	13053
2026-01-29 02:02:22.02	274.12	8.88	-41.3	-52.8	4.1	1.41e+00	0	59	0	616562688	54	13337
2026-01-29 02:02:23.03	273.98	8.82	-40.5	-54.8	3.8	1.49e+00	0	59	104	616562688	52	18774
2026-01-29 02:02:24.04	273.85	8.77	-40.0	-54.0	3.8	1.49e+00	0	59	104	616562688	52	17151
2026-01-29 02:02:25.05	273.72	8.71	-40.8	-54.8	3.8	1.49e+00	0	59	104	616562688	52	18914
2026-01-29 02:02:26.06	273.59	8.66	-39.8	-54.2	3.8	1.49e+00	0	58	104	616562688	51	18637
2026-01-29 02:02:27.07	273.46	8.60	-40.0	-54.2	3.8	1.49e+00	0	58	104	616562688	51	18523
2026-01-29 02:02:28.08	273.33	8.55	-39.9	-54.1	3.8	1.49e+00	0	59	104	616562688	51	18473
2026-01-29 02:02:29.08	273.20	8.49	-39.9	-54.2	3.8	1.49e+00	0	59	104	616562688	51	18543
2026-01-29 02:02:30.09	273.07	8.44	-39.8	-54.2	3.8	1.49e+00	0	59	104	616562688	51	18617
2026-01-29 02:02:31.10	272.95	8.38	-40.0	-54.2	3.8	1.49e+00	0	58	104	616562688	51	18587
2026-01-29 02:02:32.12	272.82	8.33	-40.1	-54.5	3.8	1.49e+00	0	59	104	616562688	51	19343
2026-01-29 02:02:33.12	272.69	8.27	-40.6	-54.5	3.8	1.49e+00	0	59	104	616562688	52	18105
2026-01-29 02:02:34.13	272.56	8.22	-39.8	-54.1	3.8	1.49e+00	0	58	104	616562688	51	18488
2026-01-29 02:02:35.14	272.44	8.16	-39.9	-54.2	3.8	1.49e+00	0	59	104	616562688	51	18583
2026-01-29 02:02:36.15	272.31	8.11	-40.1	-54.5	3.8	1.49e+00	0	59	104	616562688	51	19241
2026-01-29 02:02:37.16	272.19	8.05	-40.5	-54.7	3.8	1.49e+00	0	59	104	616562688	51	19619
2026-01-29 02:02:38.17	272.06	8.00	-39.7	-54.1	3.8	1.49e+00	0	58	104	616562688	51	18408
2026-01-29 02:02:39.18	271.94	7.94	-43.8	-58.4	3.8	1.49e+00	0	59	104	616562688	58	20252
2026-01-29 02:02:40.19	271.81	7.89	-44.5	-59.1	3.8	1.49e+00	0	58	104	616562688	59	20559
2026-01-29 02:02:41.20	271.69	7.83	-44.7	-59.3	3.8	1.49e+00	0	58	104	616562688	59	21191
2026-01-29 02:02:42.21	271.57	7.78	-44.8	-59.6	3.8	1.49e+00	0	59	104	616562688	60	20747
2026-01-29 02:02:43.22	271.45	7.72	-44.9	-59.7	3.8	1.49e+00	0	59	104	616562688	60	21006
2026-01-29 02:02:44.23	271.32	7.67	-45.0	-59.9	3.8	1.49e+00	0	59	104	616562688	60	21261
2026-01-29 02:02:45.24	271.20	7.61	-45.0	-59.9	3.8	1.49e+00	0	58	104	616562688	60	21406
2026-01-29 02:02:46.25	271.08	7.56	-45.0	-59.9	3.8	1.49e+00	0	59	104	616562688	60	21336
2026-01-29 02:02:47.26	270.96	7.50	-45.1	-59.9	3.8	1.49e+00	0	58	104	616562688	60	21399
2026-01-29 02:02:48.27	270.84	7.45	-45.1	-59.9	3.8	1.49e+00	0	59	104	616562688	60	21487
2026-01-29 02:02:49.28	270.72	7.39	-45.1	-59.9	3.8	1.49e+00	0	59	104	616562688	60	21463
2026-01-29 02:02:50.30	270.60	7.34	-45.1	-59.9	3.8	1.49e+00	0	59	104	616562688	60	21391
2026-01-29 02:02:51.30	270.48	7.28	-45.0	-59.9	3.8	1.49e+00	0	58	104	616562688	60	21383
2026-01-29 02:02:52.32	270.36	7.23	-45.0	-59.9	3.8	1.49e+00	0	59	104	616562688	60	21417
2026-01-29 02:02:53.33	270.25	7.17	-45.0	-59.9	3.8	1.49e+00	0	59	104	616562688	60	21379
2026-01-29 02:02:54.34	270.13	7.12	-45.0	-59.9	3.8	1.49e+00	0	58	104	616562688	60	21404
2026-01-29 02:02:55.35	270.01	7.06	-45.1	-59.9	3.8	1.49e+00	0	59	104	616562688	60	21434
2026-01-29 02:02:56.36	269.90	7.01	-45.0	-59.8	3.8	1.49e+00	0	59	104	616562688	60	21254
2026-01-29 02:02:57.37	269.78	6.95	-44.9	-59.8	3.8	1.49e+00	0	59	104	616562688	60	21161
2026-01-29 02:02:58.38	269.66	6.90	-44.9	-59.8	3.8	1.49e+00	0	59	104	616562688	60	21231
2026-01-29 02:02:59.39	269.55	6.84	-44.9	-59.8	3.8	1.49e+00	0	59	104	616562688	60	21176
2026-01-29 02:03:00.40	269.43	6.79	-45.0	-59.8	3.8	1.49e+00	0	59	104	616562688	60	21152
2026-01-29 02:03:01.41	269.32	6.73	-44.9	-59.8	3.8	1.49e+00	0	59	104	616562688	60	21188
2026-01-29 02:03:02.42	269.21	6.68	-44.9	-59.8	3.8	1.49e+00	0	59	104	616562688	60	21238
2026-01-29 02:03:03.43	269.09	6.62	-45.0	-59.8	3.8	1.49e+00	0	59	104	616562688	60	21216
2026-01-29 02:03:04.44	268.98	6.57	-44.9	-59.8	3.8	1.49e+00	0	59	104	616562688	60	21151
2026-01-29 02:03:05.45	268.87	6.51	-45.0	-59.8	3.8	1.49e+00	0	59	104	616562688	60	21167
2026-01-29 02:03:06.46	268.76	6.46	-44.9	-59.8	3.8	1.49e+00	0	59	104	616562688	60	21136
2026-01-29 02:03:07.47	268.64	6.40	-44.9	-59.8	3.8	1.49e+00	0	58	104	616562688	60	21197
2026-01-29 02:03:08.48	268.53	6.35	-44.9	-59.8	3.8	1.49e+00	0	59	104	616562688	60	21179
2026-01-29 02:03:09.49	268.42	6.29	-45.0	-59.8	3.8	1.49e+00	0	59	104	616562688	60	21233
2026-01-29 02:03:10.50	268.31	6.24	-45.0	-59.8	3.8	1.49e+00	0	59	104	616562688	60	21208
2026-01-29 02:03:11.51	268.20	6.18	-44.9	-59.8	3.8	1.49e+00	0	59	104	616562688	60	21182
2026-01-29 02:03:12.52	268.09	6.13	-44.9	-59.8	3.8	1.49e+00	0	59	104	616562688	60	21160
2026-01-29 02:03:13.53	267.98	6.07	-44.9	-59.8	3.8	1.49e+00	0	59	104	616562688	60	21142
2026-01-29 02:03:14.53	267.88	6.02	-44.9	-59.8	3.8	1.49e+00	0	59	104	616562688	60	21167
2026-01-29 02:03:15.54	267.77	5.96	-44.9	-59.8	3.8	1.49e+00	0	59	104	616562688	60	21205
2026-01-29 02:03:16.55	267.66	5.91	-44.9	-59.8	3.8	1.49e+00	0	59	104	616562688	60	21142
2026-01-29 02:03:17.56	267.55	5.85	-44.9	-59.8	3.8	1.49e+00	0	59	104	616562688	60	21148
2026-01-29 02:03:18.57	267.45	5.80	-45.0	-59.8	3.8	1.49e+00	0	59	104	616562688	60	21122
2026-01-29 02:03:19.58	267.34	5.74	-44.9	-59.8	3.8	1.49e+00	0	59	104	616562688	60	21088
2026-01-29 02:03:20.59	267.23	5.69	-44.9	-59.8	3.8	1.49e+00	0	59	104	616562688	60	21112
2026-01-29 02:03:21.60	267.13	5.63	-44.9	-59.8	3.8	1.49e+00	0	59	104	616562688	60	21172
2026-01-29 02:03:22.61	267.02	5.58	-44.9	-59.8	3.8	1.49e+00	0	59	104	616562688	60	21153
2026-01-29 02:03:23.62	266.92	5.53	-44.9	-59.8	3.8	1.49e+00	0	59	104	616562688	60	21151
2026-01-29 02:03:24.63	266.81	5.47	-44.9	-59.8	3.8	1.49e+00	0	59	104	616562688	60	21171
2026-01-29 02:03:25.64	266.71	5.42	-44.9	-59.8	3.8	1.49e+00	0	59	104	616562688	60	21141
2026-01-29 02:03:26.65	266.60	5.36	-44.9	-59.8	3.8	1.49e+00	0	59	104	616562688	60	21136
2026-01-29 02:03:27.66	266.50	5.31	-44.9	-59.8	3.8	1.49e+00	0	59	104	616562688	60	21193
2026-01-29 02:03:28.67	266.40	5.25	-44.9	-59.8	3.8	1.49e+00	0	59	104	616562688	60	21111
2026-01-29 02:03:29.68	266.30	5.20	-44.9	-59.8	3.8	1.49e+00	0	59	104	616562688	60	21123
2026-01-29 02:03:30.70	266.19	5.14	-44.9	-59.8	3.8	1.49e+00	0	59	104	616562688	60	21178
2026-01-29 02:03:31.71	266.09	5.09	-44.9	-59.8	3.8	1.49e+00	0	59	104	616562688	60	21115
2026-01-29 02:03:32.71	265.99	5.04	-44.9	-59.8	3.8	1.49e+00	0	59	104	616562688	60	21151
2026-01-29 02:03:33.73	265.89	4.98	-44.9	-59.8	3.8	1.49e+00	0	59	104	616562688	60	21137
2026-01-29 02:03:34.74	265.79	4.93	-44.9	-59.8	3.8	1.49e+00	0	59	104	616562688	60	21090
2026-01-29 02:03:35.74	265.69	4.87	-44.9	-59.8	3.8	1.49e+00	0	59	104	616562688	60	21107
2026-01-29 02:03:36.76	265.59	4.82	-44.9	-59.8	3.8	1.49e+00	0	59	104	616562688	60	21154
2026-01-29 02:03:37.77	265.49	4.76	-44.9	-59.8	3.8	1.49e+00	0	59	104	616562688	60	21108
2026-01-29 02:03:38.78	265.39	4.71	-44.9	-59.8	3.8	1.49e+00	0	59	104	616562688	60	21184
2026-01-29 02:03:39.79	265.29	4.66	-44.9	-59.8	3.8	1.49e+00	0	59	104	616562688	60	21147
2026-01-29 02:03:40.80	265.19	4.60	-44.9	-59.8	3.8	1.49e+00	0	59	104	616562688	60	21179
2026-01-29 02:03:41.81	265.09	4.55	-44.9	-59.8	3.8	1.49e+00	0	59	104	616562688	60	21140
2026-01-29 02:03:42.82	265.00	4.49	-44.9	-59.8	3.8	1.49e+00	0	59	104	616562688	60	21148
2026-01-29 02:03:43.83	264.90	4.44	-44.9	-59.8	3.8	1.49e+00	0	59	104	616562688	60	21097
2026-01-29 02:03:44.84	264.80	4.38	-44.9	-59.8	3.8	1.49e+00	0	59	104	616562688	60	21092
2026-01-29 02:03:45.85	264.70	4.33	-44.9	-59.8	3.8	1.49e+00	0	59	104	616562688	60	21146
2026-01-29 02:03:46.86	264.61	4.28	-44.9	-59.8	3.8	1.49e+00	0	59	104	616562688	60	21070
2026-01-29 02:03:47.87	264.51	4.22	-44.9	-59.8	3.8	1.49e+00	0	59	104	616562688	60	21191
2026-01-29 02:03:48.88	264.42	4.17	-44.9	-59.8	3.8	1.49e+00	0	59	104	616562688	60	21093
2026-01-29 02:03:49.89	264.32	4.12	-44.9	-59.8	3.8	1.49e+00	0	59	104	616562688	60	21083
2026-01-29 02:03:50.90	264.23	4.06	-44.9	-59.8	3.8	1.49e+00	0	59	104	616562688	60	21108
2026-01-29 02:03:51.91	264.13	4.01	-44.9	-59.8	3.8	1.49e+00	0	59	104	616562688	60	21115
2026-01-29 02:03:52.92	264.04	3.95	-44.9	-59.8	3.8	1.49e+00	0	59	104	616562688	60	21108
2026-01-29 02:03:53.93	263.95	3.90	-44.9	-59.8	3.8	1.49e+00	0	59	104	616562688	60	21166
2026-01-29 02:03:54.94	263.85	3.85	-44.9	-59.8	3.8	1.49e+00	0	59	104	616562688	60	21108
2026-01-29 02:03:55.95	263.76	3.79	-44.9	-59.8	3.8	1.49e+00	0	59	104	616562688	60	21063
2026-01-29 02:03:56.97	263.67	3.74	-44.9	-59.8	3.8	1.49e+00	0	59	104	616562688	60	21093
2026-01-29 02:03:57.98	263.57	3.69	-44.9	-59.8	3.8	1.49e+00	0	59	104	616562688	60	21149
2026-01-29 02:03:58.99	263.48	3.63	-44.9	-59.8	3.8	1.49e+00	0	59	104	616562688	60	21103
2026-01-29 02:04:00.00	263.39	3.58	-44.9	-59.8	3.8	1.49e+00	0	59	104	616562688	60	21102
2026-01-29 02:04:01.01	263.30	3.52	-44.9	-59.8	3.8	1.49e+00	0	59	104	616562688	60	21117
2026-01-29 02:04:02.02	263.21	3.47	-44.9	-59.8	3.8	1.49e+00	0	59	104	616562688	60	21075
2026-01-29 02:04:03.03	263.12	3.42	-44.9	-59.8	3.8	1.49e+00	0	59	104	616562688	60	21114
2026-01-29 02:04:04.04	263.03	3.36	-44.9	-59.8	3.8	1.49e+00	0	59	104	616562688	60	21119
2026-01-29 02:04:05.05	262.94	3.31	-44.9	-59.8	3.8	1.49e+00	0	59	104	616562688	60	21118
2026-01-29 02:04:06.06	262.85	3.26	-44.9	-59.8	3.8	1.49e+00	0	59	104	616562688	60	21098
2026-01-29 02:04:07.07	262.76	3.20	-44.9	-59.8	3.8	1.49e+00	0	59	104	616562688	60	21088
2026-01-29 02:04:08.08	262.67	3.15	-44.9	-59.8	3.8	1.49e+00	0	59	104	616562688	60	21140
2026-01-29 02:04:09.09	262.58	3.10	-44.9	-59.8	3.8	1.49e+00	0	59	104	616562688	60	21031
2026-01-29 02:04:10.10	262.49	3.05	-44.9	-59.8	3.8	1.49e+00	0	59	104	616562688	60	21066
2026-01-29 02:04:11.11	262.40	2.99	-44.9	-59.8	3.8	1.49e+00	0	59	104	616562688	60	21117
2026-01-29 02:04:12.12	262.32	2.94	-44.9	-59.8	3.8	1.49e+00	0	59	104	616562688	60	21072
2026-01-29 02:04:13.13	262.23	2.89	-44.9	-59.8	3.8	1.49e+00	0	59	104	616562688	60	21098
2026-01-29 02:04:14.14	262.14	2.83	-44.9	-59.8	3.8	1.49e+00	0	59	104	616562688	60	21089
2026-01-29 02:04:15.15	262.06	2.78	-44.9	-59.8	3.8	1.49e+00	0	59	104	616562688	60	21104
2026-01-29 02:04:16.16	261.97	2.73	-44.9	-59.8	3.8	1.49e+00	0	59	104	616562688	60	21049
2026-01-29 02:04:17.17	261.88	2.67	-44.9	-59.8	3.8	1.49e+00	0	59	104	616562688	60	21129
2026-01-29 02:04:18.18	261.80	2.62	-44.9	-59.7	3.8	1.49e+00	0	59	104	616562688	60	21002
2026-01-29 02:04:19.19	261.71	2.57	-44.9	-59.7	3.8	1.49e+00	0	59	104	616562688	60	20975
2026-01-29 02:04:20.20	261.63	2.52	-44.9	-59.7	3.8	1.49e+00	0	59	104	616562688	60	20981
2026-01-29 02:04:21.21	261.54	2.46	-44.9	-59.8	3.8	1.49e+00	0	59	104	616562688	60	21047
2026-01-29 02:04:22.22	261.46	2.41	-44.9	-59.7	3.8	1.49e+00	0	59	104	616562688	60	21001
2026-01-29 02:04:23.24	261.37	2.36	-44.9	-59.8	3.8	1.49e+00	0	59	104	616562688	60	21026
2026-01-29 02:04:24.25	261.29	2.31	-44.9	-59.7	3.8	1.49e+00	0	59	104	616562688	60	20943
2026-01-29 02:04:25.26	261.21	2.25	-44.9	-59.7	3.8	1.49e+00	0	59	104	616562688	60	20931
2026-01-29 02:04:26.27	261.12	2.20	-44.9	-59.7	3.8	1.49e+00	0	59	104	616562688	60	20989
2026-01-29 02:04:27.28	261.04	2.15	-44.9	-59.7	3.8	1.49e+00	0	59	104	616562688	60	20992
2026-01-29 02:04:28.29	260.96	2.10	-44.9	-59.7	3.8	1.49e+00	0	59	104	616562688	60	20963
2026-01-29 02:04:29.30	260.88	2.04	-44.9	-59.7	3.8	1.49e+00	0	59	104	616562688	60	20932
2026-01-29 02:04:30.31	260.79	1.99	-44.9	-59.8	3.8	1.49e+00	0	59	104	616562688	60	21057
2026-01-29 02:04:31.32	260.71	1.94	-44.9	-59.7	3.8	1.49e+00	0	59	104	616562688	60	20997

#Closed at: 2026-01-29 02:04:31
#Recorded file [616 MB]: D:/lorett/data/31039_260129_045256.dat