passes_logs/2025/01/21/LEX_Murmansk/LEX_Murmansk__20250121_174624_NOAA_19_rec.log

#Pass ID: 20250121_174624_NOAA 19
#Satellite: NOAA 19
#Configuration: NOAA 19
#Start time: 2025-01-21 17:46:19.386901

#LorettStation: 1.0.0 05.05.2024
#Station: LEX_Murmansk
#Location: 33.156738 lon 68.926811 lat
#TLE: 1 33591U 09005A   25021.16349212  .00000417  00000+0  24660-3 0  9995
#TLE: 2 33591  99.0186  84.9732 0014271  40.9333 319.2908 14.13264918822414

#Time	Az	El	Level	SNR
2025-01-21 17:46:31.527115	153.8	16.3	-89.9	3.7
2025-01-21 17:46:32.672704	153.8	16.5	-90.5	4.8
2025-01-21 17:46:33.827875	153.8	16.6	-90.2	4.1
2025-01-21 17:46:34.969933	153.8	16.7	-89.9	1.6
2025-01-21 17:46:36.118580	153.8	16.8	-90.0	1.5
2025-01-21 17:46:37.268615	153.8	17.0	-90.0	3.5
2025-01-21 17:46:38.416751	153.8	17.1	-89.8	2.0
2025-01-21 17:46:39.573032	153.8	17.2	-89.6	2.5
2025-01-21 17:46:40.722356	153.9	17.4	-89.8	1.3
2025-01-21 17:46:41.874898	153.9	17.5	-90.0	1.7
2025-01-21 17:46:43.023752	153.9	17.7	-90.0	0.4
2025-01-21 17:46:44.182146	153.9	17.8	-90.4	3.3
2025-01-21 17:46:45.327887	153.9	17.9	-90.2	1.6
2025-01-21 17:46:46.478787	153.9	18.1	-90.6	2.5
2025-01-21 17:46:47.630962	153.9	18.2	-90.4	2.6
2025-01-21 17:46:48.778168	153.9	18.3	-90.2	4.5
2025-01-21 17:46:49.935146	153.9	18.5	-90.4	3.3
2025-01-21 17:46:51.091064	153.9	18.6	-90.5	3.0
2025-01-21 17:46:52.246907	153.9	18.8	-90.2	2.3
2025-01-21 17:46:53.394585	154.0	18.9	-89.9	4.7
2025-01-21 17:46:54.551668	154.0	19.1	-90.0	4.5
2025-01-21 17:46:55.701614	154.0	19.2	-90.3	2.9
2025-01-21 17:46:56.852291	154.0	19.3	-90.0	2.5
2025-01-21 17:46:58.006049	154.0	19.5	-90.1	1.6
2025-01-21 17:46:59.150247	154.0	19.6	-90.2	2.5
2025-01-21 17:47:00.298217	154.0	19.8	-90.4	3.0
2025-01-21 17:47:01.446670	154.0	19.9	-90.4	2.7
2025-01-21 17:47:02.597258	154.0	20.1	-90.1	6.6
2025-01-21 17:47:03.744589	154.0	20.2	-90.5	6.2
2025-01-21 17:47:04.899963	154.1	20.4	-90.6	5.5
2025-01-21 17:47:06.047091	154.1	20.5	-90.4	6.7
2025-01-21 17:47:07.205097	154.1	20.7	-90.3	5.4
2025-01-21 17:47:08.353958	154.1	20.8	-90.3	5.5
2025-01-21 17:47:09.502108	154.1	21.0	-90.6	7.2
2025-01-21 17:47:10.658610	154.1	21.2	-90.6	8.4
2025-01-21 17:47:11.805036	154.1	21.3	-89.9	5.4
2025-01-21 17:47:12.955097	154.1	21.5	-90.3	3.5
2025-01-21 17:47:14.103568	154.1	21.6	-90.1	4.2
2025-01-21 17:47:15.259191	154.1	21.8	-90.2	3.6
2025-01-21 17:47:16.406358	154.2	22.0	-90.5	2.5
2025-01-21 17:47:17.561318	154.2	22.1	-90.1	6.1
2025-01-21 17:47:18.716524	154.2	22.3	-90.1	5.5
2025-01-21 17:47:19.866595	154.2	22.4	-90.3	10.0
2025-01-21 17:47:21.020624	154.2	22.6	-90.6	9.0
2025-01-21 17:47:22.176370	154.2	22.8	-90.4	5.3
2025-01-21 17:47:23.325292	154.2	22.9	-89.8	4.5
2025-01-21 17:47:24.473807	154.2	23.1	-90.5	8.0
2025-01-21 17:47:25.621677	154.2	23.3	-90.6	10.5
2025-01-21 17:47:26.775068	154.3	23.5	-90.2	8.1
2025-01-21 17:47:27.923571	154.3	23.6	-90.5	7.2
2025-01-21 17:47:29.071078	154.3	23.8	-90.3	4.0
2025-01-21 17:47:30.218300	154.3	24.0	-90.2	3.0
2025-01-21 17:47:31.377878	154.3	24.2	-90.4	2.7
2025-01-21 17:47:32.528022	154.3	24.3	-90.7	4.8
2025-01-21 17:47:33.685460	154.3	24.5	-90.3	7.0
2025-01-21 17:47:34.835213	154.3	24.7	-90.4	9.5
2025-01-21 17:47:35.987488	154.4	24.9	-90.5	10.5
2025-01-21 17:47:37.128816	154.4	25.0	-90.4	9.2
2025-01-21 17:47:38.249151	154.4	25.2	-90.6	5.9
2025-01-21 17:47:39.370859	154.4	25.4	-90.6	6.0
2025-01-21 17:47:40.491465	154.4	25.6	-90.5	7.8
2025-01-21 17:47:41.611856	154.4	25.8	-90.4	7.8
2025-01-21 17:47:42.732176	154.4	25.9	-90.6	8.3
2025-01-21 17:47:43.853024	154.4	26.1	-90.6	7.1
2025-01-21 17:47:44.973125	154.5	26.3	-90.8	6.5
2025-01-21 17:47:46.096831	154.5	26.5	-90.4	3.9
2025-01-21 17:47:47.220320	154.5	26.7	-90.5	2.5
2025-01-21 17:47:48.371842	154.5	26.9	-90.5	2.5
2025-01-21 17:47:49.525406	154.5	27.1	-90.6	4.2
2025-01-21 17:47:50.675506	154.5	27.3	-90.7	5.7
2025-01-21 17:47:51.823633	154.5	27.5	-90.5	6.6
2025-01-21 17:47:52.972885	154.5	27.7	-90.6	5.3
2025-01-21 17:47:54.120330	154.6	27.9	-90.5	6.5
2025-01-21 17:47:55.267140	154.6	28.1	-90.1	5.3
2025-01-21 17:47:56.416891	154.6	28.3	-90.5	6.2
2025-01-21 17:47:57.568610	154.6	28.5	-90.4	7.8
2025-01-21 17:47:58.717356	154.6	28.7	-90.3	8.1
2025-01-21 17:47:59.869620	154.6	28.9	-90.5	6.8
2025-01-21 17:48:01.019794	154.6	29.1	-90.9	3.8
2025-01-21 17:48:02.170255	154.7	29.3	-90.5	3.2
2025-01-21 17:48:03.316816	154.7	29.5	-90.6	1.0
2025-01-21 17:48:04.475512	154.7	29.8	-91.0	2.4
2025-01-21 17:48:05.625593	154.7	30.0	-90.5	3.4
2025-01-21 17:48:06.786957	154.7	30.2	-90.7	5.4
2025-01-21 17:48:07.938930	154.7	30.4	-90.5	6.2
2025-01-21 17:48:09.092764	154.7	30.6	-90.6	8.0
2025-01-21 17:48:10.247380	154.8	30.9	-90.7	4.8
2025-01-21 17:48:11.398834	154.8	31.1	-90.7	5.6
2025-01-21 17:48:12.550400	154.8	31.3	-90.9	5.9
2025-01-21 17:48:13.704542	154.8	31.5	-90.6	4.0
2025-01-21 17:48:14.855082	154.8	31.8	-90.5	5.9
2025-01-21 17:48:15.998563	154.8	32.0	-90.7	9.1
2025-01-21 17:48:17.147070	154.9	32.2	-90.1	6.8
2025-01-21 17:48:18.295821	154.9	32.5	-90.3	3.8
2025-01-21 17:48:19.449433	154.9	32.7	-90.4	3.3
2025-01-21 17:48:20.599243	154.9	33.0	-90.7	3.4
2025-01-21 17:48:21.744002	154.9	33.2	-90.3	3.3
2025-01-21 17:48:22.897727	154.9	33.4	-90.4	5.0
2025-01-21 17:48:24.050188	155.0	33.7	-90.4	6.9
2025-01-21 17:48:25.206449	155.0	33.9	-90.6	9.5
2025-01-21 17:48:26.354885	155.0	34.2	-90.5	7.9
2025-01-21 17:48:27.505120	155.0	34.4	-90.4	7.7
2025-01-21 17:48:28.658186	155.0	34.7	-90.4	4.7
2025-01-21 17:48:29.813586	155.1	34.9	-90.5	4.9
2025-01-21 17:48:30.965992	155.1	35.2	-90.4	6.3
2025-01-21 17:48:32.112848	155.1	35.5	-90.2	8.6
2025-01-21 17:48:33.264340	155.1	35.7	-90.5	11.0
2025-01-21 17:48:34.418942	155.1	36.0	-90.3	5.9
2025-01-21 17:48:35.563721	155.2	36.3	-90.2	6.4
2025-01-21 17:48:36.713372	155.2	36.5	-90.5	4.4
2025-01-21 17:48:37.868913	155.2	36.8	-90.3	4.4
2025-01-21 17:48:39.018915	155.2	37.1	-90.5	2.8
2025-01-21 17:48:40.174107	155.2	37.3	-90.4	4.5
2025-01-21 17:48:41.325257	155.3	37.6	-90.3	2.9
2025-01-21 17:48:42.472668	155.3	37.9	-90.6	8.9
2025-01-21 17:48:43.628999	155.3	38.2	-90.8	9.3
2025-01-21 17:48:44.775944	155.3	38.5	-90.7	8.9
2025-01-21 17:48:45.928627	155.3	38.7	-90.5	7.1
2025-01-21 17:48:47.084356	155.4	39.0	-90.5	4.4
2025-01-21 17:48:48.237141	155.4	39.3	-90.4	3.4
2025-01-21 17:48:49.371351	155.4	39.6	-90.2	6.8
2025-01-21 17:48:50.522513	155.4	39.9	-90.9	9.1
2025-01-21 17:48:51.679265	155.5	40.2	-90.4	12.5
2025-01-21 17:48:52.840649	155.5	40.5	-90.5	13.9
2025-01-21 17:48:53.992681	155.5	40.8	-90.7	6.6
2025-01-21 17:48:55.147009	155.5	41.1	-90.3	2.1
2025-01-21 17:48:56.294330	155.6	41.4	-89.8	1.7
2025-01-21 17:48:57.447088	155.6	41.8	-90.5	2.6
2025-01-21 17:48:58.594109	155.6	42.1	-90.8	3.9
2025-01-21 17:48:59.750430	155.7	42.4	-90.8	6.8
2025-01-21 17:49:00.907631	155.7	42.7	-91.0	8.5
2025-01-21 17:49:02.060288	155.7	43.0	-91.0	14.3
2025-01-21 17:49:03.217486	155.7	43.4	-90.7	12.0
2025-01-21 17:49:04.373893	155.8	43.7	-90.6	9.0
2025-01-21 17:49:05.526081	155.8	44.0	-90.7	12.2
2025-01-21 17:49:06.677778	155.8	44.4	-90.3	7.4
2025-01-21 17:49:07.828870	155.9	44.7	-90.5	7.5
2025-01-21 17:49:08.981230	155.9	45.0	-90.4	13.6
2025-01-21 17:49:10.133665	155.9	45.4	-90.4	16.6
2025-01-21 17:49:11.286109	156.0	45.7	-90.4	11.5
2025-01-21 17:49:12.436982	156.0	46.1	-90.6	12.3
2025-01-21 17:49:13.582312	156.0	46.4	-90.6	8.6
2025-01-21 17:49:14.728209	156.1	46.8	-90.6	3.9
2025-01-21 17:49:15.883803	156.1	47.1	-90.4	2.9
2025-01-21 17:49:17.032554	156.1	47.5	-90.7	3.5
2025-01-21 17:49:18.182169	156.2	47.9	-90.4	4.4
2025-01-21 17:49:19.337860	156.2	48.2	-90.6	4.8
2025-01-21 17:49:20.495504	156.2	48.6	-90.7	11.8
2025-01-21 17:49:21.649948	156.3	49.0	-90.7	11.9
2025-01-21 17:49:22.802844	156.3	49.3	-90.3	14.3
2025-01-21 17:49:23.955939	156.4	49.7	-90.4	13.6
2025-01-21 17:49:25.102967	156.4	50.1	-90.4	8.9
2025-01-21 17:49:26.249916	156.4	50.5	-90.6	4.9
2025-01-21 17:49:27.399804	156.5	50.9	-90.6	5.7
2025-01-21 17:49:28.546085	156.5	51.3	-90.5	6.1
2025-01-21 17:49:29.696977	156.6	51.7	-90.9	3.2
2025-01-21 17:49:30.843810	156.6	52.1	-90.9	6.6
2025-01-21 17:49:31.996198	156.7	52.5	-90.9	11.0
2025-01-21 17:49:33.145811	156.7	52.9	-90.2	10.8
2025-01-21 17:49:34.299027	156.8	53.3	-90.6	4.7
2025-01-21 17:49:35.453436	156.8	53.7	-90.5	3.9
2025-01-21 17:49:36.599962	156.9	54.1	-90.4	5.0
2025-01-21 17:49:37.753212	156.9	54.5	-90.4	1.7
2025-01-21 17:49:38.901928	157.0	54.9	-90.5	5.1
2025-01-21 17:49:40.056971	157.0	55.4	-90.1	4.7
2025-01-21 17:49:41.207263	157.1	55.8	-90.6	3.9
2025-01-21 17:49:42.367524	157.2	56.2	-90.7	8.5
2025-01-21 17:49:43.514659	157.2	56.7	-91.0	7.5
2025-01-21 17:49:44.666470	157.3	57.1	-90.7	2.3
2025-01-21 17:49:45.815246	157.4	57.5	-90.9	8.4
2025-01-21 17:49:46.963604	157.4	58.0	-90.5	8.6
2025-01-21 17:49:48.111917	157.5	58.4	-90.1	9.2
2025-01-21 17:49:49.260110	157.6	58.9	-90.4	4.1
2025-01-21 17:49:50.412195	157.6	59.3	-90.7	5.6
2025-01-21 17:49:51.569393	157.7	59.8	-90.4	10.5
2025-01-21 17:49:52.726415	157.8	60.3	-90.6	9.1
2025-01-21 17:49:53.870537	157.9	60.7	-90.9	12.3
2025-01-21 17:49:55.020937	158.0	61.2	-90.2	12.5
2025-01-21 17:49:56.176561	158.1	61.7	-90.5	12.3
2025-01-21 17:49:57.331651	158.2	62.1	-90.5	12.3
2025-01-21 17:49:58.478176	158.3	62.6	-90.9	11.7
2025-01-21 17:49:59.625518	158.4	63.1	-90.6	7.4
2025-01-21 17:50:00.781031	158.5	63.6	-90.4	5.1
2025-01-21 17:50:01.931769	158.6	64.1	-90.6	4.3
2025-01-21 17:50:03.078729	158.7	64.6	-90.4	4.8
2025-01-21 17:50:04.226534	158.8	65.1	-90.5	2.1
2025-01-21 17:50:05.376546	158.9	65.5	-90.1	4.4
2025-01-21 17:50:06.529096	159.0	66.0	-90.3	7.4
2025-01-21 17:50:07.676823	159.2	66.6	-90.4	8.9
2025-01-21 17:50:08.834149	159.3	67.1	-90.6	11.8
2025-01-21 17:50:09.991520	159.5	67.6	-90.9	10.9
2025-01-21 17:50:11.142101	159.6	68.1	-90.5	7.9
2025-01-21 17:50:12.298818	159.8	68.6	-90.5	12.6
2025-01-21 17:50:13.451516	160.0	69.1	-90.5	13.5
2025-01-21 17:50:14.607153	160.1	69.6	-90.1	8.7
2025-01-21 17:50:15.755038	160.3	70.2	-90.6	8.1
2025-01-21 17:50:16.901043	160.5	70.7	-90.6	7.4
2025-01-21 17:50:18.048596	160.7	71.2	-90.7	11.2
2025-01-21 17:50:19.201119	161.0	71.7	-90.2	7.2
2025-01-21 17:50:20.349127	161.2	72.3	-90.5	8.9
2025-01-21 17:50:21.504099	161.5	72.8	-90.5	14.8
2025-01-21 17:50:22.652227	161.7	73.3	-90.4	11.3
2025-01-21 17:50:23.804948	162.0	73.9	-90.4	13.7
2025-01-21 17:50:24.953965	162.3	74.4	-90.7	18.3
2025-01-21 17:50:26.108726	162.7	75.0	-90.3	16.0
2025-01-21 17:50:27.261908	163.0	75.5	-90.1	16.9
2025-01-21 17:50:28.417323	163.4	76.1	-90.4	14.3
2025-01-21 17:50:29.567731	163.8	76.6	-90.2	12.5
2025-01-21 17:50:30.712071	164.3	77.2	-90.4	9.2
2025-01-21 17:50:31.866946	164.8	77.7	-90.4	7.7
2025-01-21 17:50:33.013468	165.3	78.3	-90.5	8.3
2025-01-21 17:50:34.162634	165.9	78.8	-90.4	6.8
2025-01-21 17:50:35.310138	166.6	79.4	-90.7	3.8
2025-01-21 17:50:36.460401	167.3	79.9	-90.7	6.4
2025-01-21 17:50:37.607574	168.1	80.5	-90.7	6.8
2025-01-21 17:50:38.761074	169.1	81.0	-90.4	5.1
2025-01-21 17:50:39.921594	170.1	81.6	-90.6	6.3
2025-01-21 17:50:41.069806	171.3	82.1	-90.9	8.5
2025-01-21 17:50:42.219562	172.7	82.7	-90.4	8.2
2025-01-21 17:50:43.370846	174.3	83.2	-90.1	12.5
2025-01-21 17:50:44.528083	176.2	83.7	-90.2	11.3
2025-01-21 17:50:45.681489	178.4	84.3	-89.4	14.4
2025-01-21 17:50:46.833983	181.1	84.8	-90.4	16.4
2025-01-21 17:50:47.983344	184.3	85.3	-89.9	16.9
2025-01-21 17:50:49.138704	188.4	85.8	-90.3	21.1
2025-01-21 17:50:50.289864	193.5	86.3	-89.3	19.2
2025-01-21 17:50:51.450248	200.0	86.7	-90.8	19.5
2025-01-21 17:50:52.605929	208.2	87.1	-90.2	20.5
2025-01-21 17:50:53.764248	218.6	87.4	-90.4	19.2
2025-01-21 17:50:54.913595	231.0	87.5	-90.5	19.0
2025-01-21 17:50:56.059417	244.6	87.6	-90.5	18.7
2025-01-21 17:50:57.191308	258.0	87.5	-90.1	19.4
2025-01-21 17:50:58.348196	270.3	87.3	-88.1	15.3
2025-01-21 17:50:59.507641	280.4	87.0	-89.7	17.7
2025-01-21 17:51:00.657885	288.4	86.6	-90.7	13.5
2025-01-21 17:51:01.806856	294.7	86.2	-90.7	12.8
2025-01-21 17:51:02.955835	299.6	85.7	-90.4	14.4
2025-01-21 17:51:04.111846	303.6	85.3	-89.8	11.4
2025-01-21 17:51:05.267411	306.8	84.7	-87.2	7.6
2025-01-21 17:51:06.420250	309.4	84.2	-90.6	12.0
2025-01-21 17:51:07.572500	311.6	83.7	-90.7	10.3
2025-01-21 17:51:08.733438	313.5	83.1	-90.7	8.2
2025-01-21 17:51:09.888987	315.0	82.6	-90.7	8.7
2025-01-21 17:51:11.040239	316.4	82.1	-90.6	11.2
2025-01-21 17:51:12.190160	317.6	81.5	-90.1	6.8
2025-01-21 17:51:13.343631	318.6	81.0	-90.6	6.0
2025-01-21 17:51:14.493980	319.5	80.4	-90.8	12.2
2025-01-21 17:51:15.653771	320.3	79.9	-91.0	8.2
2025-01-21 17:51:16.810444	321.1	79.3	-90.7	8.3
2025-01-21 17:51:17.964087	321.7	78.7	-90.0	11.6
2025-01-21 17:51:19.113264	322.3	78.2	-90.6	8.7
2025-01-21 17:51:20.263179	322.8	77.6	-90.7	6.2
2025-01-21 17:51:21.410411	323.3	77.1	-90.5	7.8
2025-01-21 17:51:22.565969	323.8	76.5	-90.9	9.8
2025-01-21 17:51:23.723071	324.2	76.0	-90.4	5.6
2025-01-21 17:51:24.882281	324.6	75.5	-90.8	8.0
2025-01-21 17:51:26.037136	324.9	74.9	-91.0	10.3
2025-01-21 17:51:27.191923	325.3	74.4	-90.6	5.7
2025-01-21 17:51:28.344220	325.6	73.8	-90.4	4.5
2025-01-21 17:51:29.498525	325.9	73.3	-90.6	7.8
2025-01-21 17:51:30.653574	326.1	72.7	-90.6	5.9
2025-01-21 17:51:31.802147	326.4	72.2	-90.7	4.1
2025-01-21 17:51:32.947478	326.6	71.7	-89.7	4.4
2025-01-21 17:51:34.101467	326.8	71.2	-90.3	2.1
2025-01-21 17:51:35.255022	327.1	70.6	-90.7	3.9
2025-01-21 17:51:36.403827	327.3	70.1	-90.3	4.5
2025-01-21 17:51:37.548828	327.4	69.6	-90.6	4.0
2025-01-21 17:51:38.702632	327.6	69.1	-90.6	3.3
2025-01-21 17:51:39.864627	327.8	68.5	-90.2	2.7
2025-01-21 17:51:41.018349	328.0	68.0	-90.2	3.3
2025-01-21 17:51:42.171983	328.1	67.5	-90.6	5.6
2025-01-21 17:51:43.320566	328.3	67.0	-89.1	3.6
2025-01-21 17:51:44.467437	328.4	66.5	-90.2	4.6
2025-01-21 17:51:45.616732	328.5	66.0	-90.6	6.7
2025-01-21 17:51:46.762059	328.7	65.5	-90.6	7.2
2025-01-21 17:51:47.912842	328.8	65.0	-91.0	8.2
2025-01-21 17:51:49.059645	328.9	64.5	-90.4	11.1
2025-01-21 17:51:50.216580	329.0	64.0	-90.4	6.9
2025-01-21 17:51:51.373512	329.1	63.6	-90.3	6.7
2025-01-21 17:51:52.528928	329.2	63.1	-90.7	11.0
2025-01-21 17:51:53.681267	329.3	62.6	-90.6	12.6
2025-01-21 17:51:54.848104	329.4	62.1	-90.7	8.7
2025-01-21 17:51:55.996272	329.5	61.6	-89.6	7.6
2025-01-21 17:51:57.154487	329.6	61.2	-90.8	10.3
2025-01-21 17:51:58.306447	329.7	60.7	-90.5	11.1
2025-01-21 17:51:59.455518	329.8	60.2	-90.9	13.7
2025-01-21 17:52:00.601406	329.8	59.8	-90.0	12.0
2025-01-21 17:52:01.747072	329.9	59.3	-90.9	12.9
2025-01-21 17:52:02.901734	330.0	58.9	-90.8	15.2
2025-01-21 17:52:04.023196	330.1	58.4	-90.9	11.1
2025-01-21 17:52:05.149263	330.1	58.0	-90.6	7.5
2025-01-21 17:52:06.299455	330.2	57.6	-90.4	7.2
2025-01-21 17:52:07.453032	330.3	57.1	-90.4	7.8
2025-01-21 17:52:08.608765	330.3	56.7	-90.8	9.9
2025-01-21 17:52:09.756303	330.4	56.2	-91.3	5.9
2025-01-21 17:52:10.904318	330.5	55.8	-91.1	7.9
2025-01-21 17:52:12.054691	330.5	55.4	-91.3	6.7
2025-01-21 17:52:13.202913	330.6	55.0	-90.6	3.9
2025-01-21 17:52:14.357422	330.6	54.5	-90.7	4.5
2025-01-21 17:52:15.507502	330.7	54.1	-91.1	8.0
2025-01-21 17:52:16.658833	330.7	53.7	-91.0	3.2
2025-01-21 17:52:17.806943	330.8	53.3	-90.8	5.0
2025-01-21 17:52:18.963461	330.8	52.9	-90.4	6.3
2025-01-21 17:52:20.111119	330.9	52.5	-90.6	6.6
2025-01-21 17:52:21.263524	330.9	52.1	-90.7	5.4
2025-01-21 17:52:22.416252	331.0	51.7	-91.0	6.0
2025-01-21 17:52:23.565558	331.0	51.3	-90.6	8.5
2025-01-21 17:52:24.711424	331.1	50.9	-91.0	9.5
2025-01-21 17:52:25.865006	331.1	50.5	-90.5	7.8
2025-01-21 17:52:27.015962	331.2	50.2	-90.7	11.7
2025-01-21 17:52:28.168578	331.2	49.8	-90.8	9.3
2025-01-21 17:52:29.317096	331.2	49.4	-90.7	9.3
2025-01-21 17:52:30.465993	331.3	49.0	-91.1	12.3
2025-01-21 17:52:31.616797	331.3	48.6	-90.9	12.3
2025-01-21 17:52:32.770859	331.4	48.3	-91.1	14.7
2025-01-21 17:52:33.919724	331.4	47.9	-90.9	8.5
2025-01-21 17:52:35.067530	331.4	47.6	-90.6	10.7
2025-01-21 17:52:36.216929	331.5	47.2	-90.7	7.0
2025-01-21 17:52:37.368417	331.5	46.8	-90.2	8.4
2025-01-21 17:52:38.523242	331.5	46.5	-90.7	11.0
2025-01-21 17:52:39.677010	331.6	46.1	-90.9	7.8
2025-01-21 17:52:40.828520	331.6	45.8	-90.9	7.0
2025-01-21 17:52:41.972155	331.6	45.4	-91.0	8.1
2025-01-21 17:52:43.117178	331.7	45.1	-90.6	9.5
2025-01-21 17:52:44.263545	331.7	44.8	-91.0	3.6
2025-01-21 17:52:45.418006	331.7	44.4	-90.8	10.5
2025-01-21 17:52:46.567643	331.8	44.1	-90.8	12.8
2025-01-21 17:52:47.715512	331.8	43.8	-90.5	10.4
2025-01-21 17:52:48.876192	331.8	43.4	-90.6	17.5
2025-01-21 17:52:50.019668	331.9	43.1	-90.9	17.9
2025-01-21 17:52:51.178422	331.9	42.8	-90.6	16.5
2025-01-21 17:52:52.323100	331.9	42.5	-90.6	17.6
2025-01-21 17:52:53.471819	331.9	42.2	-90.5	15.4
2025-01-21 17:52:54.621533	332.0	41.9	-90.7	16.0
2025-01-21 17:52:55.775078	332.0	41.5	-90.8	10.3
2025-01-21 17:52:56.921580	332.0	41.2	-91.0	10.5
2025-01-21 17:52:58.077491	332.0	40.9	-91.2	10.2
2025-01-21 17:52:59.228462	332.1	40.6	-90.6	6.9
2025-01-21 17:53:00.383094	332.1	40.3	-90.9	6.3
2025-01-21 17:53:01.532244	332.1	40.0	-91.2	9.2
2025-01-21 17:53:02.684291	332.1	39.7	-91.1	5.7
2025-01-21 17:53:03.837727	332.2	39.4	-91.1	6.3
2025-01-21 17:53:04.991630	332.2	39.2	-91.1	10.7
2025-01-21 17:53:06.139466	332.2	38.9	-90.5	13.7
2025-01-21 17:53:07.288302	332.2	38.6	-90.1	13.8
2025-01-21 17:53:08.439191	332.3	38.3	-90.8	10.3
2025-01-21 17:53:09.590740	332.3	38.0	-90.6	10.5
2025-01-21 17:53:10.742789	332.3	37.7	-90.8	9.9
2025-01-21 17:53:11.898189	332.3	37.5	-90.7	8.9
2025-01-21 17:53:13.046752	332.4	37.2	-90.8	6.6
2025-01-21 17:53:14.191500	332.4	36.9	-90.4	3.7
2025-01-21 17:53:15.345810	332.4	36.6	-90.4	2.4
2025-01-21 17:53:16.501212	332.4	36.4	-90.2	3.2
2025-01-21 17:53:17.651013	332.4	36.1	-90.4	3.9
2025-01-21 17:53:18.803678	332.5	35.9	-90.6	3.4
2025-01-21 17:53:19.965076	332.5	35.6	-90.2	5.4
2025-01-21 17:53:21.112051	332.5	35.3	-90.5	7.1
2025-01-21 17:53:22.258754	332.5	35.1	-90.2	5.0
2025-01-21 17:53:23.410423	332.5	34.8	-90.3	10.4
2025-01-21 17:53:24.560140	332.6	34.6	-90.7	9.0
2025-01-21 17:53:25.708499	332.6	34.3	-90.8	10.3
2025-01-21 17:53:26.866554	332.6	34.1	-90.7	7.8
2025-01-21 17:53:28.020031	332.6	33.8	-89.9	7.7
2025-01-21 17:53:29.170768	332.6	33.6	-89.9	6.9
2025-01-21 17:53:30.322506	332.6	33.3	-89.7	6.0
2025-01-21 17:53:31.474096	332.7	33.1	-89.9	6.1
2025-01-21 17:53:32.621758	332.7	32.9	-90.2	6.8
2025-01-21 17:53:33.770821	332.7	32.6	-89.9	3.1
2025-01-21 17:53:34.918677	332.7	32.4	-90.3	8.4
2025-01-21 17:53:36.079274	332.7	32.1	-89.9	6.1
2025-01-21 17:53:37.230068	332.7	31.9	-90.5	5.1
2025-01-21 17:53:38.382018	332.8	31.7	-90.6	8.4
2025-01-21 17:53:39.540800	332.8	31.5	-90.1	7.6
2025-01-21 17:53:40.699356	332.8	31.2	-90.9	11.8
2025-01-21 17:53:41.843756	332.8	31.0	-90.3	12.4
2025-01-21 17:53:42.998698	332.8	30.8	-90.0	10.0
2025-01-21 17:53:44.150997	332.8	30.6	-90.4	9.3
2025-01-21 17:53:45.310008	332.9	30.3	-90.3	7.0
2025-01-21 17:53:46.455886	332.9	30.1	-90.5	7.1
2025-01-21 17:53:47.601723	332.9	29.9	-90.7	4.6
2025-01-21 17:53:48.758309	332.9	29.7	-90.7	3.9
2025-01-21 17:53:49.908620	332.9	29.5	-90.5	4.0
2025-01-21 17:53:51.063299	332.9	29.3	-90.7	3.8
2025-01-21 17:53:52.218763	333.0	29.1	-90.5	4.4
2025-01-21 17:53:53.368733	333.0	28.9	-90.4	5.6
2025-01-21 17:53:54.525870	333.0	28.6	-90.5	5.4
2025-01-21 17:53:55.681355	333.0	28.4	-90.9	7.7
2025-01-21 17:53:56.829986	333.0	28.2	-90.6	5.3
2025-01-21 17:53:57.979626	333.0	28.0	-90.7	5.4
2025-01-21 17:53:59.138368	333.0	27.8	-90.5	6.9
2025-01-21 17:54:00.289724	333.1	27.6	-90.5	5.6
2025-01-21 17:54:01.439334	333.1	27.4	-90.3	4.8
2025-01-21 17:54:02.594513	333.1	27.2	-90.7	3.4
2025-01-21 17:54:03.741711	333.1	27.0	-91.0	2.8
2025-01-21 17:54:04.891249	333.1	26.9	-90.5	4.1
2025-01-21 17:54:06.044766	333.1	26.7	-90.4	6.5
2025-01-21 17:54:07.188764	333.1	26.5	-90.1	3.3
2025-01-21 17:54:08.341329	333.1	26.3	-90.6	7.7
2025-01-21 17:54:09.490165	333.2	26.1	-90.2	6.2
2025-01-21 17:54:10.644148	333.2	25.9	-90.4	9.4
2025-01-21 17:54:11.799138	333.2	25.7	-89.9	6.1
2025-01-21 17:54:12.948033	333.2	25.5	-89.5	6.1
2025-01-21 17:54:14.107894	333.2	25.4	-88.7	4.0
2025-01-21 17:54:15.264205	333.2	25.2	-89.3	5.5
2025-01-21 17:54:16.418580	333.2	25.0	-89.4	4.1
2025-01-21 17:54:17.563910	333.3	24.8	-87.2	1.5
2025-01-21 17:54:18.720479	333.3	24.6	-87.3	3.5
2025-01-21 17:54:19.868096	333.3	24.5	-87.3	1.9
2025-01-21 17:54:21.025206	333.3	24.3	-87.1	2.2
2025-01-21 17:54:22.174842	333.3	24.1	-88.0	2.1
2025-01-21 17:54:23.324622	333.3	23.9	-87.1	4.7
2025-01-21 17:54:24.482794	333.3	23.8	-88.4	7.0
2025-01-21 17:54:25.631821	333.3	23.6	-88.8	8.9
2025-01-21 17:54:26.778600	333.3	23.4	-89.6	7.9
2025-01-21 17:54:27.927307	333.4	23.2	-90.1	8.1
2025-01-21 17:54:29.076362	333.4	23.1	-90.2	8.4
2025-01-21 17:54:30.224670	333.4	22.9	-88.9	3.3
2025-01-21 17:54:31.375247	333.4	22.7	-89.6	2.5
2025-01-21 17:54:32.523935	333.4	22.6	-89.9	3.9
2025-01-21 17:54:33.675353	333.4	22.4	-90.0	2.5
2025-01-21 17:54:34.828275	333.4	22.3	-89.8	4.6
2025-01-21 17:54:35.975726	333.4	22.1	-90.3	4.0
2025-01-21 17:54:37.124925	333.5	21.9	-90.3	3.3
2025-01-21 17:54:38.275244	333.5	21.8	-90.4	4.3
2025-01-21 17:54:39.428767	333.5	21.6	-90.6	5.6
2025-01-21 17:54:40.580677	333.5	21.5	-90.3	4.0
2025-01-21 17:54:41.724555	333.5	21.3	-90.3	3.6
2025-01-21 17:54:42.876269	333.5	21.2	-90.7	3.8
2025-01-21 17:54:44.026794	333.5	21.0	-90.3	2.3
2025-01-21 17:54:45.172843	333.5	20.8	-90.6	3.3
2025-01-21 17:54:46.327556	333.5	20.7	-90.1	0.5
2025-01-21 17:54:47.472824	333.6	20.5	-90.1	2.2
2025-01-21 17:54:48.620322	333.6	20.4	-90.3	5.1
2025-01-21 17:54:49.765642	333.6	20.2	-90.4	3.6
2025-01-21 17:54:50.903421	333.6	20.1	-90.2	2.6
2025-01-21 17:54:52.023568	333.6	19.9	-90.5	4.2
2025-01-21 17:54:53.145969	333.6	19.8	-90.1	0.8
2025-01-21 17:54:54.266774	333.6	19.7	-90.2	1.2
2025-01-21 17:54:55.388842	333.6	19.5	-90.6	1.1
2025-01-21 17:54:56.508442	333.6	19.4	-90.4	1.1
2025-01-21 17:54:57.628732	333.6	19.2	-90.7	1.5
2025-01-21 17:54:58.751646	333.7	19.1	-90.2	2.4
2025-01-21 17:54:59.871922	333.7	19.0	-90.1	2.5
2025-01-21 17:55:00.997837	333.7	18.8	-90.7	1.5
2025-01-21 17:55:02.152927	333.7	18.7	-90.7	1.7
2025-01-21 17:55:03.300629	333.7	18.5	-90.2	2.0
2025-01-21 17:55:04.452307	333.7	18.4	-90.6	2.0
2025-01-21 17:55:05.604591	333.7	18.3	-90.6	1.6
2025-01-21 17:55:06.756055	333.7	18.1	-90.1	2.6
2025-01-21 17:55:07.902284	333.7	18.0	-90.6	1.6
2025-01-21 17:55:09.055708	333.7	17.9	-90.7	2.9
2025-01-21 17:55:10.206169	333.8	17.7	-90.6	0.8
2025-01-21 17:55:11.355338	333.8	17.6	-90.4	1.9
2025-01-21 17:55:12.501800	333.8	17.4	-90.5	2.6
2025-01-21 17:55:13.656649	333.8	17.3	-90.6	1.4
2025-01-21 17:55:14.807706	333.8	17.2	-90.3	2.8
2025-01-21 17:55:15.963186	333.8	17.0	-90.5	2.0
2025-01-21 17:55:17.116887	333.8	16.9	-90.4	1.8
2025-01-21 17:55:18.272900	333.8	16.8	-90.2	3.5
2025-01-21 17:55:19.420738	333.8	16.7	-90.5	1.8
2025-01-21 17:55:20.575797	333.8	16.5	-90.4	3.8
2025-01-21 17:55:21.727434	333.8	16.4	-90.8	3.0
2025-01-21 17:55:22.881562	333.9	16.3	-90.4	2.4
2025-01-21 17:55:24.032327	333.9	16.1	-90.7	1.7
2025-01-21 17:55:25.187900	333.9	16.0	-90.2	4.0
2025-01-21 17:55:26.339650	333.9	15.9	-90.5	2.9
2025-01-21 17:55:27.490822	333.9	15.8	-90.6	3.2
2025-01-21 17:55:28.647142	333.9	15.6	-90.4	2.8
2025-01-21 17:55:29.800893	333.9	15.5	-90.1	3.3
2025-01-21 17:55:30.950845	333.9	15.4	-90.4	2.4
2025-01-21 17:55:32.106071	333.9	15.3	-90.5	2.3
2025-01-21 17:55:33.261097	333.9	15.1	-90.2	2.7
2025-01-21 17:55:34.418474	333.9	15.0	-90.8	3.1
2025-01-21 17:55:35.564317	334.0	14.9	-90.7	2.5
2025-01-21 17:55:36.713945	334.0	14.8	-90.8	4.1
2025-01-21 17:55:37.860747	334.0	14.7	-90.5	3.7
2025-01-21 17:55:39.014909	334.0	14.5	-90.4	3.2
2025-01-21 17:55:40.192127	334.0	14.4	-90.1	2.4
#Closed at: 2025-01-21 17:46:24.361962