passes_logs/2025/01/21/LEX_Murmansk/LEX_Murmansk__20250121_195110_NOAA_18_rec.log

#Pass ID: 20250121_195110_NOAA 18
#Satellite: NOAA 18
#Configuration: NOAA 18
#Start time: 2025-01-21 19:51:05.771644

#LorettStation: 1.0.0 05.05.2024
#Station: LEX_Murmansk
#Location: 33.156738 lon 68.926811 lat
#TLE: 1 28654U 05018A   25021.17963601  .00000484  00000+0  28040-3 0  9994
#TLE: 2 28654  98.8557 102.1724 0014626 162.0619 198.1073 14.13492794 14053

#Time	Az	El	Level	SNR
2025-01-21 19:51:17.907034	183.2	16.2	-92.1	4.0
2025-01-21 19:51:19.072991	183.3	16.4	-91.3	3.6
2025-01-21 19:51:20.227097	183.4	16.5	-91.6	6.5
2025-01-21 19:51:21.386589	183.4	16.6	-91.4	5.4
2025-01-21 19:51:22.544633	183.5	16.7	-92.0	3.3
2025-01-21 19:51:23.721210	183.6	16.9	-91.8	5.9
2025-01-21 19:51:24.886300	183.7	17.0	-92.2	4.4
2025-01-21 19:51:26.050333	183.8	17.1	-91.7	2.8
2025-01-21 19:51:27.212024	183.9	17.2	-91.1	4.2
2025-01-21 19:51:28.379051	184.0	17.4	-91.5	6.1
2025-01-21 19:51:29.543728	184.1	17.5	-91.8	7.2
2025-01-21 19:51:30.703614	184.1	17.6	-91.8	8.0
2025-01-21 19:51:31.863454	184.2	17.7	-92.2	8.2
2025-01-21 19:51:33.027665	184.3	17.9	-91.8	5.5
2025-01-21 19:51:34.196576	184.4	18.0	-91.6	6.2
2025-01-21 19:51:35.353750	184.5	18.1	-90.8	5.0
2025-01-21 19:51:36.512761	184.6	18.3	-91.8	5.9
2025-01-21 19:51:37.676797	184.7	18.4	-91.6	7.3
2025-01-21 19:51:38.838503	184.8	18.5	-92.1	7.3
2025-01-21 19:51:40.005752	184.9	18.7	-92.3	4.5
2025-01-21 19:51:41.166423	185.0	18.8	-91.7	4.9
2025-01-21 19:51:42.331942	185.1	18.9	-91.7	6.8
2025-01-21 19:51:43.491613	185.2	19.1	-92.3	9.5
2025-01-21 19:51:44.655107	185.3	19.2	-92.2	7.3
2025-01-21 19:51:45.817377	185.4	19.3	-91.9	10.0
2025-01-21 19:51:46.978940	185.5	19.5	-92.0	7.1
2025-01-21 19:51:48.141532	185.6	19.6	-91.3	9.0
2025-01-21 19:51:49.305322	185.7	19.7	-91.1	10.0
2025-01-21 19:51:50.460441	185.8	19.9	-92.0	10.3
2025-01-21 19:51:51.622070	185.9	20.0	-91.9	10.8
2025-01-21 19:51:52.783414	186.0	20.2	-91.1	9.3
2025-01-21 19:51:53.948636	186.1	20.3	-91.7	6.6
2025-01-21 19:51:55.116831	186.2	20.4	-91.5	4.2
2025-01-21 19:51:56.274607	186.3	20.6	-91.9	5.4
2025-01-21 19:51:57.438549	186.4	20.7	-92.2	5.3
2025-01-21 19:51:58.597671	186.5	20.9	-92.1	3.4
2025-01-21 19:51:59.763105	186.6	21.0	-92.1	5.9
2025-01-21 19:52:00.920217	186.7	21.2	-91.6	5.6
2025-01-21 19:52:02.077325	186.8	21.3	-91.8	7.7
2025-01-21 19:52:03.240757	187.0	21.4	-91.6	8.7
2025-01-21 19:52:04.405861	187.1	21.6	-91.8	6.0
2025-01-21 19:52:05.567271	187.2	21.7	-92.4	8.8
2025-01-21 19:52:06.731485	187.3	21.9	-92.4	13.7
2025-01-21 19:52:07.891535	187.4	22.0	-92.1	10.3
2025-01-21 19:52:09.049427	187.5	22.2	-91.8	11.8
2025-01-21 19:52:10.218755	187.6	22.3	-91.8	9.0
2025-01-21 19:52:11.382731	187.8	22.5	-91.9	8.7
2025-01-21 19:52:12.543585	187.9	22.6	-92.7	6.7
2025-01-21 19:52:13.705050	188.0	22.8	-92.4	10.3
2025-01-21 19:52:14.868811	188.1	22.9	-92.4	7.5
2025-01-21 19:52:16.029053	188.3	23.1	-92.0	8.7
2025-01-21 19:52:17.184986	188.4	23.3	-91.9	11.3
2025-01-21 19:52:18.350771	188.5	23.4	-91.6	12.3
2025-01-21 19:52:19.518919	188.6	23.6	-92.1	12.3
2025-01-21 19:52:20.686606	188.8	23.7	-91.8	11.6
2025-01-21 19:52:21.849120	188.9	23.9	-91.6	11.4
2025-01-21 19:52:23.020270	189.0	24.0	-92.1	9.9
2025-01-21 19:52:24.185047	189.2	24.2	-91.3	14.2
2025-01-21 19:52:25.341866	189.3	24.4	-91.6	8.2
2025-01-21 19:52:26.502575	189.4	24.5	-91.8	15.1
2025-01-21 19:52:27.658491	189.6	24.7	-91.7	10.7
2025-01-21 19:52:28.818066	189.7	24.9	-92.5	10.9
2025-01-21 19:52:29.978015	189.9	25.0	-92.7	7.4
2025-01-21 19:52:31.139573	190.0	25.2	-91.9	11.6
2025-01-21 19:52:32.296140	190.1	25.3	-91.8	9.7
2025-01-21 19:52:33.458021	190.3	25.5	-92.1	7.0
2025-01-21 19:52:34.622168	190.4	25.7	-92.5	9.4
2025-01-21 19:52:35.782829	190.6	25.8	-92.2	10.1
2025-01-21 19:52:36.938042	190.7	26.0	-92.3	11.3
2025-01-21 19:52:38.101565	190.9	26.2	-92.0	10.2
2025-01-21 19:52:39.262158	191.0	26.4	-91.5	10.4
2025-01-21 19:52:40.423460	191.2	26.5	-91.9	7.0
2025-01-21 19:52:41.580514	191.3	26.7	-92.2	7.1
2025-01-21 19:52:42.741948	191.5	26.9	-92.5	7.5
2025-01-21 19:52:43.905637	191.6	27.1	-92.4	10.4
2025-01-21 19:52:45.065952	191.8	27.2	-91.7	9.4
2025-01-21 19:52:46.228404	192.0	27.4	-91.9	8.1
2025-01-21 19:52:47.385103	192.1	27.6	-92.2	8.5
2025-01-21 19:52:48.549849	192.3	27.8	-92.4	4.4
2025-01-21 19:52:49.711233	192.5	27.9	-92.4	5.2
2025-01-21 19:52:50.875930	192.6	28.1	-92.4	7.6
2025-01-21 19:52:52.038348	192.8	28.3	-91.9	8.3
2025-01-21 19:52:53.202389	193.0	28.5	-91.8	10.4
2025-01-21 19:52:54.367540	193.1	28.7	-92.1	9.5
2025-01-21 19:52:55.535802	193.3	28.8	-91.9	12.1
2025-01-21 19:52:56.696048	193.5	29.0	-92.1	7.3
2025-01-21 19:52:57.865459	193.7	29.2	-92.6	7.5
2025-01-21 19:52:59.028363	193.9	29.4	-92.3	6.4
2025-01-21 19:53:00.192199	194.1	29.6	-92.4	6.1
2025-01-21 19:53:01.351645	194.2	29.8	-92.0	6.1
2025-01-21 19:53:02.509826	194.4	30.0	-91.9	6.2
2025-01-21 19:53:03.678788	194.6	30.2	-92.5	7.6
2025-01-21 19:53:04.838582	194.8	30.3	-91.8	9.5
2025-01-21 19:53:06.002204	195.0	30.5	-92.1	5.4
2025-01-21 19:53:07.154235	195.2	30.7	-91.8	7.4
2025-01-21 19:53:08.317995	195.4	30.9	-91.2	3.2
2025-01-21 19:53:09.477853	195.6	31.1	-92.1	4.8
2025-01-21 19:53:10.643561	195.8	31.3	-92.4	5.1
2025-01-21 19:53:11.807673	196.0	31.5	-92.2	7.1
2025-01-21 19:53:12.973725	196.2	31.7	-92.4	10.6
2025-01-21 19:53:14.138913	196.4	31.9	-91.3	9.1
2025-01-21 19:53:15.306389	196.7	32.1	-91.9	11.4
2025-01-21 19:53:16.470931	196.9	32.3	-92.5	5.1
2025-01-21 19:53:17.630789	197.1	32.5	-92.2	11.4
2025-01-21 19:53:18.795875	197.3	32.7	-91.9	12.9
2025-01-21 19:53:19.961166	197.5	32.9	-92.0	9.3
2025-01-21 19:53:21.121157	197.8	33.1	-92.0	10.0
2025-01-21 19:53:22.280365	198.0	33.3	-91.9	7.8
2025-01-21 19:53:23.447418	198.2	33.5	-92.6	6.1
2025-01-21 19:53:24.605907	198.5	33.7	-92.5	7.3
2025-01-21 19:53:25.766350	198.7	33.9	-92.1	8.9
2025-01-21 19:53:26.925802	198.9	34.1	-92.6	5.4
2025-01-21 19:53:28.086209	199.2	34.4	-92.4	6.4
2025-01-21 19:53:29.251912	199.4	34.6	-92.1	9.7
2025-01-21 19:53:30.412905	199.7	34.8	-91.8	10.3
2025-01-21 19:53:31.577227	199.9	35.0	-92.1	9.6
2025-01-21 19:53:32.737101	200.2	35.2	-91.7	7.4
2025-01-21 19:53:33.901844	200.5	35.4	-91.4	7.3
2025-01-21 19:53:35.064947	200.7	35.6	-92.1	4.6
2025-01-21 19:53:36.228427	201.0	35.8	-91.5	10.9
2025-01-21 19:53:37.387484	201.3	36.0	-92.3	10.7
2025-01-21 19:53:38.549768	201.5	36.3	-92.7	10.6
2025-01-21 19:53:39.710489	201.8	36.5	-92.3	19.6
2025-01-21 19:53:40.875394	202.1	36.7	-92.5	12.2
2025-01-21 19:53:42.042000	202.4	36.9	-92.2	16.5
2025-01-21 19:53:43.201493	202.7	37.1	-92.1	11.9
2025-01-21 19:53:44.367483	203.0	37.4	-92.4	9.7
2025-01-21 19:53:45.532008	203.3	37.6	-92.2	5.6
2025-01-21 19:53:46.693898	203.6	37.8	-92.5	13.2
2025-01-21 19:53:47.850164	203.9	38.0	-92.7	6.5
2025-01-21 19:53:49.017341	204.2	38.2	-92.5	9.0
2025-01-21 19:53:50.172797	204.5	38.5	-91.5	11.5
2025-01-21 19:53:51.333445	204.8	38.7	-91.6	9.9
2025-01-21 19:53:52.495275	205.1	38.9	-91.9	10.5
2025-01-21 19:53:53.663536	205.5	39.1	-92.5	12.8
2025-01-21 19:53:54.825136	205.8	39.3	-92.7	16.3
2025-01-21 19:53:55.985906	206.1	39.6	-92.3	14.8
2025-01-21 19:53:57.146491	206.5	39.8	-92.5	15.2
2025-01-21 19:53:58.311623	206.8	40.0	-92.1	14.4
2025-01-21 19:53:59.479392	207.2	40.2	-92.3	13.5
2025-01-21 19:54:00.635061	207.5	40.5	-89.6	12.3
2025-01-21 19:54:01.793677	207.9	40.7	-90.2	19.0
2025-01-21 19:54:02.960410	208.2	40.9	-90.1	14.9
2025-01-21 19:54:04.118652	208.6	41.1	-92.0	17.0
2025-01-21 19:54:05.285774	209.0	41.4	-91.7	14.9
2025-01-21 19:54:06.447016	209.3	41.6	-92.2	12.3
2025-01-21 19:54:07.607067	209.7	41.8	-88.2	7.9
2025-01-21 19:54:09.580331	210.4	42.2	-88.6	3.2
2025-01-21 19:54:10.743456	210.8	42.4	-88.7	10.7
2025-01-21 19:54:11.902975	211.2	42.7	-92.7	9.0
2025-01-21 19:54:13.071335	211.6	42.9	-92.3	8.0
2025-01-21 19:54:14.236769	212.0	43.1	-87.7	9.6
2025-01-21 19:54:15.395937	212.4	43.3	-87.5	10.8
2025-01-21 19:54:16.557562	212.9	43.6	-87.8	11.4
2025-01-21 19:54:17.713995	213.3	43.8	-87.9	12.0
2025-01-21 19:54:18.879567	213.7	44.0	-92.8	15.5
2025-01-21 19:54:20.040140	214.2	44.2	-92.5	10.8
2025-01-21 19:54:21.207920	214.6	44.4	-92.0	11.7
2025-01-21 19:54:22.367761	215.1	44.7	-92.2	8.8
2025-01-21 19:54:23.532202	215.6	44.9	-92.5	9.0
2025-01-21 19:54:24.692600	216.0	45.1	-92.9	12.8
2025-01-21 19:54:25.870583	216.5	45.3	-92.3	6.7
2025-01-21 19:54:27.035025	217.0	45.5	-91.9	9.9
2025-01-21 19:54:28.193982	217.5	45.8	-92.1	10.2
2025-01-21 19:54:29.362065	218.0	46.0	-92.1	7.2
2025-01-21 19:54:30.525092	218.5	46.2	-92.7	14.1
2025-01-21 19:54:31.690500	219.0	46.4	-92.8	15.2
2025-01-21 19:54:32.852365	219.5	46.6	-93.0	10.4
2025-01-21 19:54:34.010825	220.0	46.8	-92.7	8.0
2025-01-21 19:54:35.176169	220.6	47.0	-91.7	9.3
2025-01-21 19:54:36.338950	221.1	47.2	-92.1	7.6
2025-01-21 19:54:37.496100	221.6	47.4	-92.6	8.4
2025-01-21 19:54:38.666991	222.2	47.6	-92.5	13.2
2025-01-21 19:54:39.833829	222.8	47.9	-92.3	17.0
2025-01-21 19:54:40.996402	223.3	48.1	-92.4	14.9
2025-01-21 19:54:42.154394	223.9	48.2	-92.3	14.6
2025-01-21 19:54:43.315678	224.5	48.4	-91.9	15.1
2025-01-21 19:54:44.481395	225.1	48.6	-92.6	16.6
2025-01-21 19:54:45.645979	225.7	48.8	-92.6	19.9
2025-01-21 19:54:46.804643	226.3	49.0	-92.3	16.8
2025-01-21 19:54:47.961611	226.9	49.2	-92.4	18.0
2025-01-21 19:54:49.123378	227.5	49.4	-91.9	18.6
2025-01-21 19:54:50.295549	228.1	49.6	-91.9	17.2
2025-01-21 19:54:51.451871	228.7	49.7	-92.4	12.3
2025-01-21 19:54:52.618282	229.4	49.9	-92.4	15.7
2025-01-21 19:54:53.779595	230.0	50.1	-92.3	17.6
2025-01-21 19:54:54.941196	230.7	50.3	-92.4	9.0
2025-01-21 19:54:56.104619	231.3	50.4	-92.0	19.2
2025-01-21 19:54:57.263377	232.0	50.6	-91.9	16.5
2025-01-21 19:54:58.426122	232.7	50.7	-92.1	24.5
2025-01-21 19:54:59.601165	233.4	50.9	-92.5	10.1
2025-01-21 19:55:00.762772	234.1	51.0	-92.4	17.8
2025-01-21 19:55:01.925660	234.8	51.2	-92.6	12.8
2025-01-21 19:55:03.086204	235.5	51.3	-92.2	16.7
2025-01-21 19:55:04.254095	236.2	51.5	-92.0	12.1
2025-01-21 19:55:05.420739	236.9	51.6	-92.6	15.5
2025-01-21 19:55:06.586214	237.6	51.7	-92.8	7.4
2025-01-21 19:55:07.743556	238.3	51.9	-92.6	7.2
2025-01-21 19:55:08.907475	239.1	52.0	-92.8	8.0
2025-01-21 19:55:10.070704	239.8	52.1	-92.3	5.4
2025-01-21 19:55:11.232017	240.5	52.2	-92.1	16.6
2025-01-21 19:55:12.393595	241.3	52.3	-92.6	7.0
2025-01-21 19:55:13.556758	242.0	52.4	-92.5	7.7
2025-01-21 19:55:14.719471	242.8	52.5	-92.6	9.2
2025-01-21 19:55:15.880392	243.6	52.6	-92.3	12.1
2025-01-21 19:55:17.041437	244.3	52.7	-91.9	6.9
2025-01-21 19:55:18.204675	245.1	52.8	-91.7	7.2
2025-01-21 19:55:19.377717	245.9	52.9	-92.2	11.7
2025-01-21 19:55:20.543048	246.7	52.9	-92.2	14.8
2025-01-21 19:55:21.705831	247.5	53.0	-92.5	14.4
2025-01-21 19:55:22.872583	248.3	53.1	-92.3	8.4
2025-01-21 19:55:24.035181	249.1	53.1	-92.0	9.8
2025-01-21 19:55:25.199272	249.9	53.2	-91.7	12.5
2025-01-21 19:55:26.357543	250.7	53.2	-92.1	13.0
2025-01-21 19:55:27.519210	251.5	53.3	-92.7	6.8
2025-01-21 19:55:28.674872	252.2	53.3	-92.2	15.2
2025-01-21 19:55:29.841166	253.1	53.3	-92.1	14.9
2025-01-21 19:55:31.005505	253.9	53.3	-92.3	7.4
2025-01-21 19:55:32.163114	254.7	53.4	-92.3	10.6
2025-01-21 19:55:33.330384	255.5	53.4	-92.2	22.8
2025-01-21 19:55:34.490678	256.3	53.4	-93.0	14.0
2025-01-21 19:55:35.654876	257.1	53.4	-92.7	10.2
2025-01-21 19:55:36.820549	257.9	53.4	-92.1	13.9
2025-01-21 19:55:37.981537	258.7	53.4	-92.0	10.7
2025-01-21 19:55:39.146878	259.5	53.3	-91.7	18.4
2025-01-21 19:55:40.310931	260.3	53.3	-91.5	21.8
2025-01-21 19:55:41.472528	261.1	53.3	-91.9	15.0
2025-01-21 19:55:42.636412	261.9	53.3	-92.5	22.7
2025-01-21 19:55:43.797486	262.7	53.2	-92.6	21.7
2025-01-21 19:55:44.963124	263.5	53.2	-92.4	13.7
2025-01-21 19:55:46.125735	264.3	53.1	-92.1	14.3
2025-01-21 19:55:47.284818	265.1	53.1	-92.1	16.0
2025-01-21 19:55:48.445822	265.9	53.0	-91.0	14.9
2025-01-21 19:55:49.608419	266.7	52.9	-91.5	17.6
2025-01-21 19:55:50.766785	267.5	52.9	-91.7	24.9
2025-01-21 19:55:51.933904	268.3	52.8	-92.3	13.9
2025-01-21 19:55:53.097667	269.0	52.7	-92.0	19.7
2025-01-21 19:55:54.256716	269.8	52.6	-92.0	23.8
2025-01-21 19:55:55.417818	270.6	52.5	-91.5	14.2
2025-01-21 19:55:56.580523	271.3	52.4	-92.3	16.6
2025-01-21 19:55:57.739929	272.1	52.3	-92.6	17.1
2025-01-21 19:55:58.898478	272.8	52.2	-92.4	10.9
2025-01-21 19:56:00.054557	273.6	52.1	-91.8	14.9
2025-01-21 19:56:01.180347	274.3	52.0	-92.1	22.8
2025-01-21 19:56:02.301621	275.0	51.9	-92.2	19.7
2025-01-21 19:56:03.422534	275.7	51.8	-92.5	7.7
2025-01-21 19:56:04.543332	276.4	51.6	-92.5	8.8
2025-01-21 19:56:05.664408	277.1	51.5	-92.7	20.5
2025-01-21 19:56:06.785345	277.8	51.4	-92.6	13.5
2025-01-21 19:56:07.906259	278.4	51.2	-92.5	14.6
2025-01-21 19:56:09.027121	279.1	51.1	-92.5	13.6
2025-01-21 19:56:10.154666	279.8	50.9	-92.3	14.1
2025-01-21 19:56:11.306087	280.5	50.8	-91.7	16.6
2025-01-21 19:56:12.470871	281.1	50.6	-92.6	13.4
2025-01-21 19:56:13.637030	281.8	50.5	-92.2	13.4
2025-01-21 19:56:14.793058	282.5	50.3	-92.5	22.1
2025-01-21 19:56:15.945326	283.1	50.1	-92.4	18.8
2025-01-21 19:56:17.111089	283.8	50.0	-92.2	14.3
2025-01-21 19:56:18.269670	284.4	49.8	-91.7	8.2
2025-01-21 19:56:19.441281	285.0	49.6	-91.5	4.9
2025-01-21 19:56:20.606326	285.7	49.4	-91.5	16.1
2025-01-21 19:56:21.770129	286.3	49.3	-91.4	9.2
2025-01-21 19:56:22.936713	286.9	49.1	-92.1	8.7
2025-01-21 19:56:24.097047	287.5	48.9	-92.1	10.7
2025-01-21 19:56:25.270636	288.1	48.7	-92.1	15.2
2025-01-21 19:56:26.424734	288.7	48.5	-92.4	12.5
2025-01-21 19:56:27.586872	289.3	48.3	-92.3	9.1
2025-01-21 19:56:28.745349	289.9	48.1	-92.5	19.0
2025-01-21 19:56:29.907118	290.4	47.9	-92.6	6.0
2025-01-21 19:56:31.074069	291.0	47.7	-91.7	6.0
2025-01-21 19:56:32.235290	291.5	47.5	-92.1	10.1
2025-01-21 19:56:33.401075	292.1	47.3	-92.4	7.6
2025-01-21 19:56:34.557736	292.6	47.1	-91.9	9.4
2025-01-21 19:56:35.723633	293.2	46.9	-91.9	9.0
2025-01-21 19:56:36.883883	293.7	46.7	-92.1	9.5
2025-01-21 19:56:38.049116	294.2	46.5	-91.9	6.3
2025-01-21 19:56:39.213849	294.7	46.3	-91.8	17.6
2025-01-21 19:56:40.374987	295.2	46.1	-92.1	11.2
2025-01-21 19:56:41.541811	295.7	45.8	-92.3	9.2
2025-01-21 19:56:42.700171	296.2	45.6	-92.5	13.8
2025-01-21 19:56:43.865849	296.7	45.4	-92.5	9.2
2025-01-21 19:56:45.022894	297.2	45.2	-91.9	11.4
2025-01-21 19:56:46.183059	297.7	45.0	-91.9	15.1
2025-01-21 19:56:47.341707	298.1	44.8	-92.0	12.2
2025-01-21 19:56:48.500758	298.6	44.5	-92.3	8.7
2025-01-21 19:56:49.658100	299.0	44.3	-91.6	19.9
2025-01-21 19:56:50.822955	299.5	44.1	-92.0	8.1
2025-01-21 19:56:51.983691	299.9	43.9	-92.4	16.2
2025-01-21 19:56:53.144469	300.4	43.6	-91.8	9.1
2025-01-21 19:56:54.310158	300.8	43.4	-91.7	18.0
2025-01-21 19:56:55.474201	301.2	43.2	-92.2	11.2
2025-01-21 19:56:56.633627	301.6	43.0	-92.5	20.3
2025-01-21 19:56:57.794245	302.0	42.7	-92.3	18.3
2025-01-21 19:56:58.953080	302.4	42.5	-92.6	16.7
2025-01-21 19:57:00.115872	302.8	42.3	-92.0	20.5
2025-01-21 19:57:01.276749	303.2	42.1	-92.2	19.3
2025-01-21 19:57:02.435290	303.6	41.8	-92.5	14.9
2025-01-21 19:57:03.602808	304.0	41.6	-92.4	18.7
2025-01-21 19:57:04.762888	304.4	41.4	-92.6	13.9
2025-01-21 19:57:05.924401	304.8	41.2	-92.3	19.0
2025-01-21 19:57:07.080766	305.1	40.9	-92.5	17.5
2025-01-21 19:57:08.253488	305.5	40.7	-92.0	19.0
2025-01-21 19:57:09.410819	305.9	40.5	-92.3	13.8
2025-01-21 19:57:10.581702	306.2	40.3	-92.7	14.3
2025-01-21 19:57:11.739251	306.6	40.0	-92.9	15.7
2025-01-21 19:57:12.911342	306.9	39.8	-92.2	6.0
2025-01-21 19:57:14.078373	307.3	39.6	-92.5	9.6
2025-01-21 19:57:15.240323	307.6	39.4	-92.2	10.5
2025-01-21 19:57:16.400889	307.9	39.1	-92.1	9.7
2025-01-21 19:57:17.556057	308.2	38.9	-92.4	9.8
2025-01-21 19:57:18.721199	308.6	38.7	-92.2	9.3
2025-01-21 19:57:19.885012	308.9	38.5	-92.2	5.4
2025-01-21 19:57:21.051777	309.2	38.3	-92.6	11.8
2025-01-21 19:57:22.214382	309.5	38.0	-92.6	13.2
2025-01-21 19:57:23.371116	309.8	37.8	-92.5	11.2
2025-01-21 19:57:24.536946	310.1	37.6	-92.5	14.3
2025-01-21 19:57:25.698562	310.4	37.4	-92.6	20.1
2025-01-21 19:57:26.863375	310.7	37.2	-92.2	11.1
2025-01-21 19:57:28.023795	311.0	36.9	-88.7	8.2
2025-01-21 19:57:29.179155	311.3	36.7	-91.7	12.0
2025-01-21 19:57:30.343628	311.6	36.5	-91.7	16.9
2025-01-21 19:57:31.507501	311.8	36.3	-91.3	11.7
2025-01-21 19:57:32.665487	312.1	36.1	-92.2	11.8
2025-01-21 19:57:33.830786	312.4	35.9	-92.2	14.1
2025-01-21 19:57:34.994845	312.7	35.6	-92.0	10.8
2025-01-21 19:57:36.160355	312.9	35.4	-91.9	11.3
2025-01-21 19:57:37.319277	313.2	35.2	-92.0	14.6
2025-01-21 19:57:38.479153	313.4	35.0	-92.1	9.0
2025-01-21 19:57:39.645510	313.7	34.8	-92.5	14.6
2025-01-21 19:57:40.807027	314.0	34.6	-92.6	16.3
2025-01-21 19:57:41.969995	314.2	34.4	-92.2	8.2
2025-01-21 19:57:43.129308	314.4	34.2	-92.0	12.7
2025-01-21 19:57:44.287205	314.7	34.0	-91.5	14.3
2025-01-21 19:57:45.454157	314.9	33.7	-92.7	10.7
2025-01-21 19:57:46.611093	315.2	33.5	-92.6	16.1
2025-01-21 19:57:47.772106	315.4	33.3	-92.6	20.8
2025-01-21 19:57:48.934501	315.6	33.1	-92.4	17.6
2025-01-21 19:57:50.103764	315.9	32.9	-91.8	16.5
2025-01-21 19:57:51.260923	316.1	32.7	-92.1	16.8
2025-01-21 19:57:52.424961	316.3	32.5	-92.4	13.2
2025-01-21 19:57:53.588107	316.5	32.3	-92.4	13.8
2025-01-21 19:57:54.751512	316.7	32.1	-92.4	15.0
2025-01-21 19:57:55.908572	317.0	31.9	-92.4	13.3
2025-01-21 19:57:57.075101	317.2	31.7	-92.5	13.8
2025-01-21 19:57:58.233328	317.4	31.5	-92.6	14.4
2025-01-21 19:57:59.394425	317.6	31.3	-92.6	10.2
2025-01-21 19:58:00.552964	317.8	31.1	-92.6	8.2
2025-01-21 19:58:01.717309	318.0	30.9	-92.6	16.2
2025-01-21 19:58:02.876316	318.2	30.8	-92.4	10.7
2025-01-21 19:58:04.040557	318.4	30.6	-91.9	9.9
2025-01-21 19:58:05.202159	318.6	30.4	-91.9	12.4
2025-01-21 19:58:06.376579	318.8	30.2	-92.3	14.0
2025-01-21 19:58:07.536180	319.0	30.0	-92.3	12.3
2025-01-21 19:58:08.698350	319.2	29.8	-92.4	14.6
2025-01-21 19:58:09.862007	319.4	29.6	-92.7	12.2
2025-01-21 19:58:11.026919	319.5	29.4	-92.5	13.5
2025-01-21 19:58:12.188099	319.7	29.2	-92.2	14.5
2025-01-21 19:58:13.350643	319.9	29.0	-91.7	12.7
2025-01-21 19:58:14.509372	320.1	28.9	-92.1	7.3
2025-01-21 19:58:15.677578	320.3	28.7	-92.3	13.4
2025-01-21 19:58:16.838081	320.4	28.5	-92.5	10.8
2025-01-21 19:58:18.003064	320.6	28.3	-92.3	6.1
2025-01-21 19:58:19.162476	320.8	28.1	-92.3	12.4
2025-01-21 19:58:20.320606	320.9	28.0	-91.9	12.8
2025-01-21 19:58:21.483743	321.1	27.8	-92.4	7.8
2025-01-21 19:58:22.642323	321.3	27.6	-92.4	10.3
2025-01-21 19:58:23.801841	321.4	27.4	-92.4	12.8
2025-01-21 19:58:24.965122	321.6	27.2	-92.8	11.2
2025-01-21 19:58:26.120579	321.8	27.1	-91.9	13.4
2025-01-21 19:58:27.286819	321.9	26.9	-92.2	12.5
2025-01-21 19:58:28.445679	322.1	26.7	-91.7	12.9
2025-01-21 19:58:29.606971	322.2	26.6	-92.3	12.1
2025-01-21 19:58:30.773541	322.4	26.4	-92.5	13.8
2025-01-21 19:58:31.933665	322.5	26.2	-92.4	11.8
2025-01-21 19:58:33.094363	322.7	26.0	-91.7	9.6
2025-01-21 19:58:34.257125	322.8	25.9	-91.4	6.2
2025-01-21 19:58:35.413804	323.0	25.7	-92.1	4.8
2025-01-21 19:58:36.576456	323.1	25.5	-92.2	7.7
2025-01-21 19:58:37.737104	323.3	25.4	-92.5	13.0
2025-01-21 19:58:38.891889	323.4	25.2	-91.9	9.9
2025-01-21 19:58:40.056896	323.6	25.0	-91.8	7.2
2025-01-21 19:58:41.219111	323.7	24.9	-91.5	13.1
2025-01-21 19:58:42.381443	323.8	24.7	-91.7	11.7
2025-01-21 19:58:43.544732	324.0	24.5	-91.8	15.6
2025-01-21 19:58:44.706581	324.1	24.4	-92.3	18.0
2025-01-21 19:58:45.870816	324.3	24.2	-92.6	13.6
2025-01-21 19:58:47.033777	324.4	24.1	-92.3	11.7
2025-01-21 19:58:48.197385	324.5	23.9	-91.8	13.8
2025-01-21 19:58:49.356309	324.6	23.7	-91.7	11.1
2025-01-21 19:58:50.518384	324.8	23.6	-92.2	6.8
2025-01-21 19:58:51.684597	324.9	23.4	-92.3	10.1
2025-01-21 19:58:52.830237	325.0	23.3	-92.4	8.3
2025-01-21 19:58:53.990366	325.2	23.1	-92.4	7.1
2025-01-21 19:58:55.149753	325.3	23.0	-92.2	11.6
2025-01-21 19:58:56.312203	325.4	22.8	-91.6	10.4
2025-01-21 19:58:57.481189	325.5	22.7	-92.0	5.7
2025-01-21 19:58:58.640439	325.7	22.5	-91.1	12.6
2025-01-21 19:58:59.802048	325.8	22.4	-91.7	7.7
2025-01-21 19:59:00.962144	325.9	22.2	-91.5	7.9
2025-01-21 19:59:02.125534	326.0	22.1	-91.5	7.4
2025-01-21 19:59:03.290558	326.1	21.9	-90.4	10.3
2025-01-21 19:59:04.450918	326.2	21.8	-90.7	5.6
2025-01-21 19:59:05.610950	326.4	21.6	-90.9	7.6
2025-01-21 19:59:06.778565	326.5	21.5	-90.2	6.6
2025-01-21 19:59:07.940919	326.6	21.3	-89.5	4.2
2025-01-21 19:59:09.099485	326.7	21.2	-90.8	10.0
2025-01-21 19:59:10.262048	326.8	21.0	-91.2	4.2
2025-01-21 19:59:11.421143	326.9	20.9	-92.4	8.3
2025-01-21 19:59:12.584745	327.0	20.7	-92.5	5.6
2025-01-21 19:59:13.745982	327.1	20.6	-92.1	5.9
2025-01-21 19:59:14.906481	327.2	20.5	-92.3	3.9
2025-01-21 19:59:16.069561	327.4	20.3	-91.6	4.6
2025-01-21 19:59:17.229963	327.5	20.2	-91.9	5.4
2025-01-21 19:59:18.390327	327.6	20.0	-91.7	6.1
2025-01-21 19:59:19.562391	327.7	19.9	-91.9	3.8
2025-01-21 19:59:20.725624	327.8	19.8	-92.1	4.7
2025-01-21 19:59:21.885345	327.9	19.6	-91.5	4.0
2025-01-21 19:59:23.059175	328.0	19.5	-92.0	5.1
2025-01-21 19:59:24.223479	328.1	19.3	-91.4	8.0
2025-01-21 19:59:25.384143	328.2	19.2	-91.0	4.9
2025-01-21 19:59:26.546866	328.3	19.1	-91.5	5.3
2025-01-21 19:59:27.720549	328.4	18.9	-91.9	3.7
2025-01-21 19:59:28.876811	328.5	18.8	-92.4	5.4
2025-01-21 19:59:30.048539	328.6	18.7	-92.1	7.5
2025-01-21 19:59:31.211262	328.7	18.5	-91.5	6.2
2025-01-21 19:59:32.376720	328.8	18.4	-92.1	4.7
2025-01-21 19:59:33.543783	328.8	18.3	-92.0	6.9
2025-01-21 19:59:34.705142	328.9	18.1	-92.7	3.6
2025-01-21 19:59:35.872243	329.0	18.0	-92.5	4.7
2025-01-21 19:59:37.037373	329.1	17.9	-92.3	3.3
2025-01-21 19:59:38.198539	329.2	17.8	-91.6	12.7
2025-01-21 19:59:39.362059	329.3	17.6	-92.2	4.3
2025-01-21 19:59:40.524347	329.4	17.5	-92.5	4.3
2025-01-21 19:59:41.710886	329.5	17.4	-92.6	6.8
2025-01-21 19:59:42.875309	329.6	17.2	-92.4	5.0
2025-01-21 19:59:44.040670	329.7	17.1	-92.3	4.2
2025-01-21 19:59:45.200806	329.8	17.0	-91.7	5.7
2025-01-21 19:59:46.361756	329.8	16.9	-92.0	5.6
2025-01-21 19:59:47.526822	329.9	16.7	-92.5	4.6
2025-01-21 19:59:48.684783	330.0	16.6	-91.9	7.1
2025-01-21 19:59:49.850233	330.1	16.5	-91.8	6.0
2025-01-21 19:59:51.010546	330.2	16.4	-92.3	4.5
2025-01-21 19:59:52.174232	330.3	16.3	-91.8	5.3
2025-01-21 19:59:53.345104	330.3	16.1	-92.6	5.4
2025-01-21 19:59:54.497195	330.4	16.0	-92.1	4.6
2025-01-21 19:59:55.661123	330.5	15.9	-92.5	10.0
2025-01-21 19:59:56.827176	330.6	15.8	-92.3	5.8
2025-01-21 19:59:57.986620	330.7	15.6	-92.1	7.0
2025-01-21 19:59:59.147083	330.7	15.5	-91.9	5.4
2025-01-21 20:00:00.302165	330.8	15.4	-92.1	4.3
2025-01-21 20:00:01.467045	330.9	15.3	-92.5	5.7
2025-01-21 20:00:02.631429	331.0	15.2	-92.2	4.2
2025-01-21 20:00:03.795971	331.1	15.1	-92.1	7.1
2025-01-21 20:00:04.959672	331.1	14.9	-89.6	4.2
2025-01-21 20:00:06.128249	331.2	14.8	-91.3	5.4
2025-01-21 20:00:07.287878	331.3	14.7	-91.7	6.6
2025-01-21 20:00:08.451948	331.4	14.6	-92.0	4.8
2025-01-21 20:00:09.593967	331.4	14.5	-92.2	3.6
#Closed at: 2025-01-21 19:51:10.715908