passes_logs/2025/01/21/LEX_Murmansk/LEX_Murmansk__20250121_181015_NOAA_18_rec.log

#Pass ID: 20250121_181015_NOAA 18
#Satellite: NOAA 18
#Configuration: NOAA 18
#Start time: 2025-01-21 18:10:10.459133

#LorettStation: 1.0.0 05.05.2024
#Station: LEX_Murmansk
#Location: 33.156738 lon 68.926811 lat
#TLE: 1 28654U 05018A   25021.17963601  .00000484  00000+0  28040-3 0  9994
#TLE: 2 28654  98.8557 102.1724 0014626 162.0619 198.1073 14.13492794 14053

#Time	Az	El	Level	SNR
2025-01-21 18:10:22.583127	130.5	16.3	-90.0	6.2
2025-01-21 18:10:23.747770	130.5	16.4	-90.3	8.6
2025-01-21 18:10:24.907775	130.4	16.5	-90.4	10.9
2025-01-21 18:10:26.070865	130.4	16.7	-90.4	11.3
2025-01-21 18:10:27.229753	130.3	16.8	-90.3	10.6
2025-01-21 18:10:28.390012	130.3	16.9	-90.5	9.5
2025-01-21 18:10:29.555299	130.2	17.1	-90.2	10.4
2025-01-21 18:10:30.715603	130.2	17.2	-90.5	12.3
2025-01-21 18:10:31.874821	130.1	17.3	-90.4	10.7
2025-01-21 18:10:33.039943	130.1	17.4	-90.4	10.0
2025-01-21 18:10:34.193156	130.0	17.6	-90.1	10.1
2025-01-21 18:10:35.356692	130.0	17.7	-90.2	10.5
2025-01-21 18:10:36.515508	129.9	17.8	-90.4	6.1
2025-01-21 18:10:37.672571	129.9	18.0	-90.1	11.7
2025-01-21 18:10:38.834419	129.8	18.1	-90.2	11.1
2025-01-21 18:10:39.994730	129.8	18.2	-90.0	12.6
2025-01-21 18:10:41.161870	129.7	18.4	-90.0	13.6
2025-01-21 18:10:42.321339	129.6	18.5	-90.5	15.6
2025-01-21 18:10:43.484335	129.6	18.7	-90.7	11.3
2025-01-21 18:10:44.633809	129.5	18.8	-90.5	12.2
2025-01-21 18:10:45.796890	129.5	18.9	-90.8	15.2
2025-01-21 18:10:46.972789	129.4	19.1	-90.8	15.8
2025-01-21 18:10:48.138044	129.3	19.2	-90.6	14.2
2025-01-21 18:10:49.302500	129.3	19.4	-90.7	13.2
2025-01-21 18:10:50.462995	129.2	19.5	-90.7	8.2
2025-01-21 18:10:51.631497	129.2	19.6	-91.0	10.3
2025-01-21 18:10:52.789021	129.1	19.8	-90.8	13.6
2025-01-21 18:10:53.956232	129.0	19.9	-90.9	9.1
2025-01-21 18:10:55.121915	129.0	20.1	-90.3	14.2
2025-01-21 18:10:56.286367	128.9	20.2	-90.3	16.0
2025-01-21 18:10:57.444104	128.8	20.4	-90.8	17.5
2025-01-21 18:10:58.608223	128.8	20.5	-90.5	16.4
2025-01-21 18:10:59.772555	128.7	20.7	-90.4	14.2
2025-01-21 18:11:00.928649	128.6	20.8	-90.4	11.7
2025-01-21 18:11:02.088035	128.6	21.0	-90.1	14.2
2025-01-21 18:11:03.247915	128.5	21.1	-90.7	14.7
2025-01-21 18:11:04.408296	128.4	21.3	-90.5	12.9
2025-01-21 18:11:05.566246	128.4	21.4	-90.6	10.9
2025-01-21 18:11:06.727299	128.3	21.6	-90.3	13.8
2025-01-21 18:11:07.890814	128.2	21.7	-90.4	7.1
2025-01-21 18:11:09.053508	128.1	21.9	-90.4	6.6
2025-01-21 18:11:10.214368	128.1	22.1	-90.6	13.2
2025-01-21 18:11:11.373846	128.0	22.2	-90.2	13.1
2025-01-21 18:11:12.536764	127.9	22.4	-90.6	14.4
2025-01-21 18:11:13.700564	127.8	22.5	-90.8	13.9
2025-01-21 18:11:14.864391	127.8	22.7	-90.8	14.2
2025-01-21 18:11:16.024111	127.7	22.8	-91.1	11.6
2025-01-21 18:11:17.187969	127.6	23.0	-91.0	13.0
2025-01-21 18:11:18.346696	127.5	23.2	-90.6	15.1
2025-01-21 18:11:19.505440	127.4	23.3	-90.9	16.7
2025-01-21 18:11:20.659501	127.4	23.5	-90.9	14.2
2025-01-21 18:11:21.816743	127.3	23.7	-90.6	13.6
2025-01-21 18:11:22.981530	127.2	23.8	-90.5	8.6
2025-01-21 18:11:24.149011	127.1	24.0	-90.5	12.2
2025-01-21 18:11:25.311153	127.0	24.2	-90.4	13.7
2025-01-21 18:11:26.479105	126.9	24.3	-90.5	7.6
2025-01-21 18:11:27.639533	126.9	24.5	-90.3	14.6
2025-01-21 18:11:28.804658	126.8	24.7	-90.8	11.5
2025-01-21 18:11:29.968677	126.7	24.9	-90.7	15.0
2025-01-21 18:11:31.131529	126.6	25.0	-90.8	11.2
2025-01-21 18:11:32.290602	126.5	25.2	-90.5	13.3
2025-01-21 18:11:33.450265	126.4	25.4	-90.5	9.2
2025-01-21 18:11:34.614793	126.3	25.6	-90.6	10.4
2025-01-21 18:11:35.772679	126.2	25.7	-90.8	14.4
2025-01-21 18:11:36.932341	126.1	25.9	-91.0	13.1
2025-01-21 18:11:38.091996	126.0	26.1	-90.5	10.7
2025-01-21 18:11:39.252550	125.9	26.3	-90.2	12.0
2025-01-21 18:11:40.406260	125.8	26.5	-90.8	6.7
2025-01-21 18:11:41.565095	125.7	26.6	-90.7	5.7
2025-01-21 18:11:42.720830	125.6	26.8	-90.8	9.7
2025-01-21 18:11:43.880687	125.5	27.0	-90.7	6.2
2025-01-21 18:11:45.038296	125.4	27.2	-90.9	8.2
2025-01-21 18:11:46.200447	125.3	27.4	-90.6	8.4
2025-01-21 18:11:47.362366	125.2	27.6	-90.3	7.4
2025-01-21 18:11:48.524864	125.1	27.8	-90.7	5.2
2025-01-21 18:11:49.686871	125.0	28.0	-90.4	5.1
2025-01-21 18:11:50.848983	124.9	28.2	-90.7	4.9
2025-01-21 18:11:52.003781	124.8	28.4	-90.8	3.4
2025-01-21 18:11:53.159240	124.7	28.5	-90.3	6.0
2025-01-21 18:11:54.322275	124.6	28.7	-90.3	8.8
2025-01-21 18:11:55.491158	124.4	28.9	-90.4	6.9
2025-01-21 18:11:56.652864	124.3	29.1	-90.4	8.0
2025-01-21 18:11:57.814206	124.2	29.3	-90.8	9.4
2025-01-21 18:11:58.975290	124.1	29.5	-90.7	6.4
2025-01-21 18:12:00.121943	124.0	29.7	-90.2	6.5
2025-01-21 18:12:01.282549	123.9	30.0	-90.0	7.7
2025-01-21 18:12:02.439883	123.7	30.2	-90.6	6.0
2025-01-21 18:12:03.602793	123.6	30.4	-90.8	6.3
2025-01-21 18:12:04.761719	123.5	30.6	-90.0	4.6
2025-01-21 18:12:05.922620	123.3	30.8	-90.7	4.8
2025-01-21 18:12:07.074951	123.2	31.0	-90.7	4.8
2025-01-21 18:12:08.235543	123.1	31.2	-90.4	8.3
2025-01-21 18:12:09.393794	122.9	31.4	-90.5	9.1
2025-01-21 18:12:10.556433	122.8	31.6	-90.4	9.2
2025-01-21 18:12:11.704890	122.7	31.8	-91.0	12.2
2025-01-21 18:12:12.859270	122.5	32.1	-91.0	10.8
2025-01-21 18:12:14.022062	122.4	32.3	-90.8	10.4
2025-01-21 18:12:15.181862	122.2	32.5	-90.6	11.7
2025-01-21 18:12:16.343980	122.1	32.7	-90.5	12.7
2025-01-21 18:12:17.502791	122.0	33.0	-90.6	6.6
2025-01-21 18:12:18.666731	121.8	33.2	-90.4	15.0
2025-01-21 18:12:19.834738	121.6	33.4	-90.5	15.2
2025-01-21 18:12:20.996862	121.5	33.6	-90.4	13.8
2025-01-21 18:12:22.149741	121.3	33.9	-90.3	14.3
2025-01-21 18:12:23.310573	121.2	34.1	-90.2	14.3
2025-01-21 18:12:24.468728	121.0	34.3	-90.4	10.9
2025-01-21 18:12:25.629836	120.9	34.6	-90.7	10.4
2025-01-21 18:12:26.791998	120.7	34.8	-90.7	10.8
2025-01-21 18:12:27.952363	120.5	35.0	-90.9	10.6
2025-01-21 18:12:29.117041	120.3	35.3	-90.8	13.5
2025-01-21 18:12:30.270308	120.2	35.5	-90.4	13.9
2025-01-21 18:12:31.427873	120.0	35.7	-90.9	13.6
2025-01-21 18:12:32.591497	119.8	36.0	-90.7	10.4
2025-01-21 18:12:33.748853	119.6	36.2	-90.9	11.5
2025-01-21 18:12:34.914333	119.4	36.5	-90.7	6.9
2025-01-21 18:12:36.079461	119.3	36.7	-90.6	5.2
2025-01-21 18:12:37.243449	119.1	37.0	-90.7	13.9
2025-01-21 18:12:38.404101	118.9	37.2	-90.8	12.8
2025-01-21 18:12:39.569605	118.7	37.5	-90.8	14.4
2025-01-21 18:12:40.734412	118.5	37.7	-90.6	13.9
2025-01-21 18:12:41.896757	118.3	38.0	-90.5	13.8
2025-01-21 18:12:43.062212	118.1	38.2	-90.4	13.4
2025-01-21 18:12:44.233247	117.9	38.5	-90.6	14.1
2025-01-21 18:12:45.398992	117.6	38.8	-91.0	10.7
2025-01-21 18:12:46.560708	117.4	39.0	-90.9	12.0
2025-01-21 18:12:47.728633	117.2	39.3	-90.8	14.9
2025-01-21 18:12:48.889093	117.0	39.6	-90.6	16.1
2025-01-21 18:12:50.052039	116.8	39.8	-90.6	13.5
2025-01-21 18:12:51.217747	116.5	40.1	-90.3	13.2
2025-01-21 18:12:52.368940	116.3	40.4	-90.4	10.3
2025-01-21 18:12:53.533811	116.0	40.6	-90.7	7.8
2025-01-21 18:12:54.695556	115.8	40.9	-90.9	14.1
2025-01-21 18:12:55.857729	115.6	41.2	-90.8	10.7
2025-01-21 18:12:57.021109	115.3	41.4	-90.9	7.5
2025-01-21 18:12:58.183793	115.0	41.7	-90.7	12.8
2025-01-21 18:12:59.347293	114.8	42.0	-90.7	13.7
2025-01-21 18:13:00.498405	114.5	42.3	-91.0	16.4
2025-01-21 18:13:01.660217	114.3	42.6	-90.9	17.0
2025-01-21 18:13:02.816658	114.0	42.8	-90.4	20.9
2025-01-21 18:13:03.975762	113.7	43.1	-90.7	14.1
2025-01-21 18:13:05.143432	113.4	43.4	-90.7	16.5
2025-01-21 18:13:06.305186	113.1	43.7	-90.7	17.6
2025-01-21 18:13:07.466616	112.8	44.0	-90.2	12.7
2025-01-21 18:13:08.633158	112.5	44.3	-90.5	13.5
2025-01-21 18:13:09.790680	112.2	44.5	-90.8	17.6
2025-01-21 18:13:10.949608	111.9	44.8	-90.8	21.6
2025-01-21 18:13:12.108377	111.6	45.1	-90.9	17.9
2025-01-21 18:13:13.266241	111.3	45.4	-91.0	16.5
2025-01-21 18:13:14.416292	110.9	45.7	-90.8	9.6
2025-01-21 18:13:15.574785	110.6	46.0	-90.8	7.7
2025-01-21 18:13:16.734022	110.3	46.3	-90.7	7.8
2025-01-21 18:13:17.901842	109.9	46.6	-90.8	7.6
2025-01-21 18:13:19.066342	109.6	46.9	-90.8	8.2
2025-01-21 18:13:20.225769	109.2	47.2	-90.5	13.5
2025-01-21 18:13:21.385981	108.8	47.5	-90.7	12.5
2025-01-21 18:13:22.537981	108.5	47.8	-90.4	8.5
2025-01-21 18:13:23.701302	108.1	48.1	-90.5	18.2
2025-01-21 18:13:24.864907	107.7	48.4	-90.4	14.7
2025-01-21 18:13:26.029317	107.3	48.7	-90.7	10.7
2025-01-21 18:13:27.194196	106.9	49.0	-90.4	5.0
2025-01-21 18:13:28.353216	106.5	49.3	-90.8	6.5
2025-01-21 18:13:29.519512	106.0	49.6	-90.9	5.0
2025-01-21 18:13:30.681304	105.6	49.9	-91.0	6.3
2025-01-21 18:13:31.838939	105.2	50.2	-90.9	6.6
2025-01-21 18:13:32.998334	104.7	50.5	-90.6	14.4
2025-01-21 18:13:34.161971	104.3	50.8	-90.6	5.1
2025-01-21 18:13:35.325226	103.8	51.1	-90.8	18.4
2025-01-21 18:13:36.480437	103.3	51.4	-90.9	13.0
2025-01-21 18:13:37.644513	102.8	51.7	-91.0	12.1
2025-01-21 18:13:38.809468	102.3	52.0	-91.0	8.1
2025-01-21 18:13:39.973164	101.8	52.3	-91.0	4.4
2025-01-21 18:13:41.132508	101.3	52.6	-90.6	12.0
2025-01-21 18:13:42.286109	100.8	52.9	-90.6	10.8
2025-01-21 18:13:43.448646	100.2	53.2	-90.6	6.5
2025-01-21 18:13:44.613004	99.7	53.5	-90.6	8.3
2025-01-21 18:13:45.766718	99.1	53.8	-90.7	16.4
2025-01-21 18:13:46.926494	98.5	54.1	-90.7	11.6
2025-01-21 18:13:48.084935	98.0	54.4	-90.6	16.6
2025-01-21 18:13:49.250103	97.4	54.7	-90.9	13.9
2025-01-21 18:13:50.416754	96.7	55.0	-91.3	10.7
2025-01-21 18:13:51.579074	96.1	55.3	-91.0	5.6
2025-01-21 18:13:52.749564	95.5	55.6	-91.1	12.2
2025-01-21 18:13:53.905695	94.8	55.9	-90.8	11.1
2025-01-21 18:13:55.076770	94.2	56.1	-90.8	6.7
2025-01-21 18:13:56.240115	93.5	56.4	-90.7	11.9
2025-01-21 18:13:57.410555	92.8	56.7	-90.5	11.7
2025-01-21 18:13:58.578800	92.1	57.0	-90.7	10.5
2025-01-21 18:13:59.736601	91.3	57.3	-90.5	11.7
2025-01-21 18:14:00.890093	90.6	57.5	-90.4	14.9
2025-01-21 18:14:02.054227	89.9	57.8	-91.2	13.4
2025-01-21 18:14:03.215658	89.1	58.1	-91.0	16.9
2025-01-21 18:14:04.379347	88.3	58.3	-91.1	13.9
2025-01-21 18:14:05.543723	87.5	58.6	-90.8	8.3
2025-01-21 18:14:06.706726	86.7	58.8	-90.7	13.0
2025-01-21 18:14:07.860861	85.9	59.1	-90.8	14.5
2025-01-21 18:14:09.026362	85.0	59.3	-90.9	9.0
2025-01-21 18:14:10.182802	84.2	59.6	-90.9	12.6
2025-01-21 18:14:11.349972	83.3	59.8	-90.6	17.4
2025-01-21 18:14:12.504367	82.4	60.0	-90.9	7.8
2025-01-21 18:14:13.668788	81.5	60.2	-90.8	9.9
2025-01-21 18:14:14.833748	80.6	60.5	-90.6	21.4
2025-01-21 18:14:15.997125	79.6	60.7	-90.6	13.8
2025-01-21 18:14:17.156831	78.7	60.9	-90.6	17.0
2025-01-21 18:14:18.321114	77.7	61.1	-90.8	17.0
2025-01-21 18:14:19.484330	76.7	61.3	-91.0	14.8
2025-01-21 18:14:20.647286	75.7	61.4	-91.2	15.8
2025-01-21 18:14:21.811503	74.7	61.6	-91.0	10.4
2025-01-21 18:14:22.971724	73.7	61.8	-90.8	18.6
2025-01-21 18:14:24.132513	72.7	61.9	-90.9	18.5
2025-01-21 18:14:25.297790	71.6	62.1	-90.6	10.7
2025-01-21 18:14:26.462546	70.5	62.2	-90.7	14.4
2025-01-21 18:14:27.623052	69.5	62.4	-91.1	11.1
2025-01-21 18:14:28.784357	68.4	62.5	-90.6	19.7
2025-01-21 18:14:29.944484	67.3	62.6	-90.5	9.8
2025-01-21 18:14:31.107568	66.1	62.7	-90.6	9.6
2025-01-21 18:14:32.265353	65.0	62.8	-90.6	19.1
2025-01-21 18:14:33.430101	63.9	62.9	-90.7	9.5
2025-01-21 18:14:34.592151	62.8	63.0	-91.2	13.2
2025-01-21 18:14:35.758432	61.6	63.1	-91.3	15.5
2025-01-21 18:14:36.922781	60.4	63.2	-91.1	11.0
2025-01-21 18:14:38.082427	59.3	63.2	-90.6	8.7
2025-01-21 18:14:39.248595	58.1	63.3	-90.9	15.5
2025-01-21 18:14:40.407334	56.9	63.3	-91.0	11.8
2025-01-21 18:14:41.568621	55.8	63.3	-90.7	7.8
2025-01-21 18:14:42.728146	54.6	63.3	-91.0	17.8
2025-01-21 18:14:43.894850	53.4	63.3	-90.9	12.2
2025-01-21 18:14:45.059518	52.2	63.3	-90.9	14.1
2025-01-21 18:14:46.221219	51.1	63.3	-90.8	18.6
2025-01-21 18:14:47.385557	49.9	63.3	-90.7	14.1
2025-01-21 18:14:48.547769	48.7	63.3	-91.0	19.1
2025-01-21 18:14:49.714861	47.5	63.2	-90.8	19.7
2025-01-21 18:14:50.872665	46.4	63.2	-90.8	17.1
2025-01-21 18:14:52.032754	45.2	63.1	-91.0	16.7
2025-01-21 18:14:53.191526	44.1	63.0	-90.7	18.3
2025-01-21 18:14:54.357467	42.9	62.9	-90.9	16.0
2025-01-21 18:14:55.520980	41.8	62.8	-90.8	16.6
2025-01-21 18:14:56.687431	40.7	62.7	-90.7	17.1
2025-01-21 18:14:57.851088	39.6	62.6	-90.7	18.5
2025-01-21 18:14:59.010561	38.5	62.5	-90.9	13.2
2025-01-21 18:15:00.164197	37.4	62.4	-90.8	15.9
2025-01-21 18:15:01.326382	36.3	62.2	-91.1	18.3
2025-01-21 18:15:02.482378	35.2	62.1	-90.8	14.2
2025-01-21 18:15:03.603736	34.2	62.0	-91.0	13.1
2025-01-21 18:15:04.759258	33.2	61.8	-91.0	12.3
2025-01-21 18:15:05.927338	32.1	61.6	-90.8	12.1
2025-01-21 18:15:07.094023	31.1	61.4	-90.9	10.9
2025-01-21 18:15:08.251719	30.1	61.3	-90.9	14.7
2025-01-21 18:15:09.415969	29.2	61.1	-91.0	12.4
2025-01-21 18:15:10.598403	28.2	60.9	-90.9	12.4
2025-01-21 18:15:11.767030	27.2	60.7	-90.8	15.1
2025-01-21 18:15:12.914470	26.3	60.5	-91.0	9.8
2025-01-21 18:15:14.070508	25.4	60.2	-91.0	12.3
2025-01-21 18:15:15.238795	24.5	60.0	-91.2	14.9
2025-01-21 18:15:16.398730	23.6	59.8	-90.9	9.8
2025-01-21 18:15:17.558838	22.7	59.6	-90.7	9.4
2025-01-21 18:15:18.724151	21.8	59.3	-91.1	16.7
2025-01-21 18:15:19.879494	21.0	59.1	-90.8	13.7
2025-01-21 18:15:21.042963	20.2	58.8	-91.1	13.4
2025-01-21 18:15:22.205932	19.4	58.6	-90.8	17.2
2025-01-21 18:15:23.362442	18.6	58.3	-90.6	15.4
2025-01-21 18:15:24.530878	17.8	58.1	-91.1	11.4
2025-01-21 18:15:25.690011	17.0	57.8	-91.3	17.5
2025-01-21 18:15:26.852393	16.3	57.5	-91.2	15.9
2025-01-21 18:15:28.015827	15.5	57.3	-90.8	15.2
2025-01-21 18:15:29.177144	14.8	57.0	-90.9	11.4
2025-01-21 18:15:30.345985	14.1	56.7	-90.9	15.5
2025-01-21 18:15:31.506127	13.4	56.4	-90.4	14.0
2025-01-21 18:15:32.662910	12.7	56.1	-89.1	17.6
2025-01-21 18:15:33.830271	12.1	55.9	-90.3	16.8
2025-01-21 18:15:34.993363	11.4	55.6	-90.6	11.5
2025-01-21 18:15:36.157361	10.8	55.3	-90.7	12.4
2025-01-21 18:15:37.320003	10.1	55.0	-90.1	11.2
2025-01-21 18:15:38.482564	9.5	54.7	-90.3	16.1
2025-01-21 18:15:39.636536	8.9	54.4	-90.5	15.7
2025-01-21 18:15:40.799902	8.3	54.1	-90.3	17.8
2025-01-21 18:15:41.964387	7.8	53.8	-90.3	18.2
2025-01-21 18:15:43.129857	7.2	53.5	-90.0	11.8
2025-01-21 18:15:44.290471	6.6	53.2	-89.8	15.4
2025-01-21 18:15:45.459731	6.1	52.9	-90.1	15.5
2025-01-21 18:15:46.617759	5.6	52.6	-90.3	15.9
2025-01-21 18:15:47.776852	5.1	52.3	-90.3	15.0
2025-01-21 18:15:48.942726	4.5	52.0	-90.5	12.6
2025-01-21 18:15:50.106617	4.0	51.7	-90.3	12.0
2025-01-21 18:15:51.268331	3.6	51.4	-90.2	17.2
2025-01-21 18:15:52.431171	3.1	51.1	-90.3	12.1
2025-01-21 18:15:53.589748	2.6	50.8	-90.3	12.8
2025-01-21 18:15:54.747623	2.2	50.5	-90.4	16.9
2025-01-21 18:15:55.909875	1.7	50.2	-90.3	9.7
2025-01-21 18:15:57.075463	1.3	49.9	-90.3	9.1
2025-01-21 18:15:58.236003	0.8	49.6	-90.8	12.8
2025-01-21 18:15:59.403448	0.4	49.3	-90.9	9.2
2025-01-21 18:16:00.558647	360.0	49.0	-90.7	10.1
2025-01-21 18:16:01.719398	359.6	48.7	-90.4	14.5
2025-01-21 18:16:02.880280	359.2	48.4	-90.7	10.9
2025-01-21 18:16:04.028139	358.8	48.1	-90.3	10.4
2025-01-21 18:16:05.187144	358.4	47.8	-90.5	16.4
2025-01-21 18:16:06.350737	358.0	47.5	-90.3	16.0
2025-01-21 18:16:07.513672	357.7	47.2	-90.4	11.4
2025-01-21 18:16:08.669041	357.3	46.9	-90.1	14.0
2025-01-21 18:16:09.832777	357.0	46.6	-90.5	14.8
2025-01-21 18:16:10.996928	356.6	46.3	-90.8	12.8
2025-01-21 18:16:12.156824	356.3	46.0	-90.7	18.1
2025-01-21 18:16:13.321401	355.9	45.7	-90.3	19.9
2025-01-21 18:16:14.484153	355.6	45.4	-90.1	20.0
2025-01-21 18:16:15.656140	355.3	45.1	-90.1	17.5
2025-01-21 18:16:16.823082	355.0	44.8	-90.4	19.8
2025-01-21 18:16:17.987833	354.6	44.5	-90.1	17.4
2025-01-21 18:16:19.157302	354.3	44.2	-90.0	19.0
2025-01-21 18:16:20.321059	354.0	43.9	-90.1	18.3
2025-01-21 18:16:21.489564	353.7	43.7	-90.2	18.1
2025-01-21 18:16:22.653773	353.4	43.4	-89.6	19.5
2025-01-21 18:16:23.807573	353.2	43.1	-90.2	20.4
2025-01-21 18:16:24.970697	352.9	42.8	-90.2	15.2
2025-01-21 18:16:26.133618	352.6	42.5	-89.9	20.1
2025-01-21 18:16:27.301054	352.3	42.2	-90.0	20.4
2025-01-21 18:16:28.466122	352.1	42.0	-90.1	12.9
2025-01-21 18:16:29.634500	351.8	41.7	-90.2	16.1
2025-01-21 18:16:30.794702	351.6	41.4	-90.5	17.4
2025-01-21 18:16:31.954989	351.3	41.1	-90.3	13.7
2025-01-21 18:16:33.117811	351.1	40.9	-91.1	15.7
2025-01-21 18:16:34.275347	350.8	40.6	-90.5	16.6
2025-01-21 18:16:35.442813	350.6	40.3	-90.6	13.7
2025-01-21 18:16:36.605894	350.3	40.1	-90.1	16.5
2025-01-21 18:16:37.773568	350.1	39.8	-90.4	17.5
2025-01-21 18:16:38.936088	349.9	39.5	-90.3	15.8
2025-01-21 18:16:40.099717	349.7	39.3	-90.6	16.0
2025-01-21 18:16:41.265520	349.4	39.0	-90.3	15.1
2025-01-21 18:16:42.427253	349.2	38.7	-90.5	14.7
2025-01-21 18:16:43.595879	349.0	38.5	-90.8	14.1
2025-01-21 18:16:44.759029	348.8	38.2	-90.7	18.6
2025-01-21 18:16:45.921172	348.6	38.0	-91.2	12.2
2025-01-21 18:16:47.087107	348.4	37.7	-90.8	9.3
2025-01-21 18:16:48.254000	348.2	37.4	-90.6	9.7
2025-01-21 18:16:49.415508	348.0	37.2	-90.5	6.6
2025-01-21 18:16:50.578350	347.8	36.9	-90.7	7.7
2025-01-21 18:16:51.743994	347.6	36.7	-90.7	11.2
2025-01-21 18:16:52.907734	347.4	36.4	-90.8	7.0
2025-01-21 18:16:54.033863	347.2	36.2	-90.2	7.8
2025-01-21 18:16:55.192604	347.1	36.0	-90.7	9.5
2025-01-21 18:16:56.351019	346.9	35.7	-90.2	10.7
2025-01-21 18:16:57.511970	346.7	35.5	-90.5	8.7
2025-01-21 18:16:58.675160	346.5	35.2	-90.3	10.6
2025-01-21 18:16:59.838060	346.4	35.0	-90.2	7.8
2025-01-21 18:17:00.991727	346.2	34.8	-90.5	4.6
2025-01-21 18:17:02.155870	346.0	34.5	-90.2	5.5
2025-01-21 18:17:03.319869	345.9	34.3	-90.0	11.3
2025-01-21 18:17:04.482874	345.7	34.1	-90.4	8.1
2025-01-21 18:17:05.649031	345.5	33.8	-90.5	9.0
2025-01-21 18:17:06.812521	345.4	33.6	-90.7	9.7
2025-01-21 18:17:07.978111	345.2	33.4	-90.7	7.8
2025-01-21 18:17:09.131452	345.1	33.1	-90.8	9.3
2025-01-21 18:17:10.299264	344.9	32.9	-91.1	15.4
2025-01-21 18:17:11.463288	344.8	32.7	-91.1	10.4
2025-01-21 18:17:12.623167	344.6	32.5	-90.0	11.7
2025-01-21 18:17:13.779407	344.5	32.2	-90.4	8.9
2025-01-21 18:17:14.946761	344.3	32.0	-90.2	15.0
2025-01-21 18:17:16.111181	344.2	31.8	-90.4	12.8
2025-01-21 18:17:17.274909	344.1	31.6	-90.3	9.2
2025-01-21 18:17:18.443252	343.9	31.4	-90.5	10.1
2025-01-21 18:17:19.606861	343.8	31.2	-90.6	7.6
2025-01-21 18:17:20.769566	343.7	30.9	-90.5	10.8
2025-01-21 18:17:21.930776	343.5	30.7	-90.5	6.7
2025-01-21 18:17:23.089353	343.4	30.5	-90.3	7.7
2025-01-21 18:17:24.245854	343.3	30.3	-90.3	8.2
2025-01-21 18:17:25.408121	343.1	30.1	-90.4	5.8
2025-01-21 18:17:26.571584	343.0	29.9	-90.4	4.4
2025-01-21 18:17:27.734442	342.9	29.7	-90.2	8.1
2025-01-21 18:17:28.898971	342.8	29.5	-90.4	7.5
2025-01-21 18:17:30.061688	342.7	29.3	-90.5	7.8
2025-01-21 18:17:31.230178	342.5	29.1	-90.5	7.0
2025-01-21 18:17:32.394124	342.4	28.9	-90.5	7.3
2025-01-21 18:17:33.556134	342.3	28.7	-90.4	6.5
2025-01-21 18:17:34.718854	342.2	28.5	-90.5	7.4
2025-01-21 18:17:35.885352	342.1	28.3	-90.4	8.1
2025-01-21 18:17:37.053331	342.0	28.1	-89.2	6.3
2025-01-21 18:17:38.216218	341.9	27.9	-90.6	8.6
2025-01-21 18:17:39.378403	341.8	27.7	-91.0	8.3
2025-01-21 18:17:40.541187	341.6	27.5	-90.7	6.1
2025-01-21 18:17:41.708805	341.5	27.3	-90.6	6.0
2025-01-21 18:17:42.868758	341.4	27.1	-90.5	8.5
2025-01-21 18:17:44.026982	341.3	27.0	-90.5	4.8
2025-01-21 18:17:45.188810	341.2	26.8	-90.6	6.3
2025-01-21 18:17:46.345091	341.1	26.6	-90.6	7.5
2025-01-21 18:17:47.509962	341.0	26.4	-90.2	4.0
2025-01-21 18:17:48.672815	340.9	26.2	-90.4	12.0
2025-01-21 18:17:49.835847	340.8	26.0	-90.8	11.1
2025-01-21 18:17:51.003827	340.7	25.9	-91.1	8.4
2025-01-21 18:17:52.169774	340.6	25.7	-90.9	11.5
2025-01-21 18:17:53.328289	340.6	25.5	-91.0	8.0
2025-01-21 18:17:54.503458	340.5	25.3	-91.1	5.4
2025-01-21 18:17:55.661617	340.4	25.1	-91.1	7.0
2025-01-21 18:17:56.827927	340.3	25.0	-90.6	13.4
2025-01-21 18:17:57.990157	340.2	24.8	-90.3	6.9
2025-01-21 18:17:59.158153	340.1	24.6	-90.7	12.6
2025-01-21 18:18:00.313391	340.0	24.4	-90.5	9.3
2025-01-21 18:18:01.474718	339.9	24.3	-90.6	6.6
2025-01-21 18:18:02.634294	339.8	24.1	-90.7	13.3
2025-01-21 18:18:03.787376	339.8	23.9	-90.5	9.7
2025-01-21 18:18:04.944065	339.7	23.8	-90.7	7.9
2025-01-21 18:18:06.104340	339.6	23.6	-90.7	8.3
2025-01-21 18:18:07.268532	339.5	23.4	-90.0	11.2
2025-01-21 18:18:08.431229	339.4	23.3	-90.1	5.5
2025-01-21 18:18:09.587056	339.4	23.1	-90.5	4.7
2025-01-21 18:18:10.751333	339.3	22.9	-90.4	11.9
2025-01-21 18:18:11.919207	339.2	22.8	-89.5	5.2
2025-01-21 18:18:13.079868	339.1	22.6	-89.9	8.2
2025-01-21 18:18:14.237788	339.0	22.5	-90.2	6.7
2025-01-21 18:18:15.389570	339.0	22.3	-90.9	3.9
2025-01-21 18:18:16.547615	338.9	22.1	-90.8	9.2
2025-01-21 18:18:17.701794	338.8	22.0	-90.3	8.9
2025-01-21 18:18:18.861920	338.7	21.8	-90.2	11.0
2025-01-21 18:18:20.023485	338.7	21.7	-90.5	7.0
2025-01-21 18:18:21.189251	338.6	21.5	-90.1	14.5
2025-01-21 18:18:22.352747	338.5	21.4	-90.7	6.8
2025-01-21 18:18:23.508722	338.5	21.2	-90.8	5.3
2025-01-21 18:18:24.661016	338.4	21.1	-90.8	11.4
2025-01-21 18:18:25.825288	338.3	20.9	-91.1	13.7
2025-01-21 18:18:26.995367	338.3	20.8	-91.2	4.5
2025-01-21 18:18:28.152523	338.2	20.6	-91.1	7.5
2025-01-21 18:18:29.312670	338.1	20.5	-90.8	6.8
2025-01-21 18:18:30.472041	338.1	20.3	-90.8	10.9
2025-01-21 18:18:31.650414	338.0	20.2	-90.9	11.5
2025-01-21 18:18:32.806903	337.9	20.0	-91.1	10.6
2025-01-21 18:18:33.966582	337.9	19.9	-91.1	6.9
2025-01-21 18:18:35.129494	337.8	19.7	-91.0	6.4
2025-01-21 18:18:36.289177	337.7	19.6	-90.9	8.0
2025-01-21 18:18:37.452193	337.7	19.4	-91.5	3.2
2025-01-21 18:18:38.618083	337.6	19.3	-91.4	8.5
2025-01-21 18:18:39.780154	337.6	19.2	-91.1	9.4
2025-01-21 18:18:40.938938	337.5	19.0	-91.0	8.5
2025-01-21 18:18:42.106967	337.4	18.9	-90.9	5.0
2025-01-21 18:18:43.269262	337.4	18.7	-90.7	4.9
2025-01-21 18:18:44.427654	337.3	18.6	-91.0	6.7
2025-01-21 18:18:45.590869	337.3	18.5	-90.9	5.2
2025-01-21 18:18:46.752119	337.2	18.3	-91.1	8.7
2025-01-21 18:18:47.915495	337.1	18.2	-90.9	11.0
2025-01-21 18:18:49.082637	337.1	18.1	-91.0	8.2
2025-01-21 18:18:50.233959	337.0	17.9	-90.5	14.3
2025-01-21 18:18:51.407281	337.0	17.8	-90.9	5.4
2025-01-21 18:18:52.569669	336.9	17.7	-90.9	5.0
2025-01-21 18:18:53.727741	336.9	17.5	-91.2	5.0
2025-01-21 18:18:54.886015	336.8	17.4	-91.2	5.6
2025-01-21 18:18:56.048723	336.8	17.3	-91.3	3.8
2025-01-21 18:18:57.216725	336.7	17.1	-91.1	2.2
2025-01-21 18:18:58.381555	336.7	17.0	-91.0	4.2
2025-01-21 18:18:59.550084	336.6	16.9	-91.1	4.6
2025-01-21 18:19:00.707999	336.6	16.7	-90.9	6.5
2025-01-21 18:19:01.870401	336.5	16.6	-90.6	4.4
2025-01-21 18:19:03.033792	336.5	16.5	-91.1	4.8
2025-01-21 18:19:04.189643	336.4	16.3	-91.0	5.2
2025-01-21 18:19:05.353365	336.4	16.2	-91.1	7.7
2025-01-21 18:19:06.514936	336.3	16.1	-90.9	5.3
2025-01-21 18:19:07.673009	336.3	16.0	-91.2	5.0
2025-01-21 18:19:08.831662	336.2	15.8	-91.4	7.1
2025-01-21 18:19:09.989423	336.2	15.7	-91.4	4.8
2025-01-21 18:19:11.154168	336.1	15.6	-91.0	5.2
2025-01-21 18:19:12.321386	336.1	15.5	-90.9	5.7
2025-01-21 18:19:13.480956	336.0	15.4	-90.9	8.0
2025-01-21 18:19:14.642259	336.0	15.2	-90.8	4.2
2025-01-21 18:19:15.804534	335.9	15.1	-90.5	7.2
2025-01-21 18:19:16.965847	335.9	15.0	-91.1	5.7
2025-01-21 18:19:18.130556	335.8	14.9	-90.9	6.8
2025-01-21 18:19:19.293678	335.8	14.8	-90.8	5.2
2025-01-21 18:19:20.452563	335.8	14.6	-91.0	4.7
2025-01-21 18:19:21.595015	335.7	14.5	-91.0	5.3
#Closed at: 2025-01-21 18:10:15.371111