passes_logs/2025/01/21/LEX_Murmansk/LEX_Murmansk__20250121_095058_NOAA_18_rec.log

#Pass ID: 20250121_095058_NOAA 18
#Satellite: NOAA 18
#Configuration: NOAA 18
#Start time: 2025-01-21 09:50:53.169920

#LorettStation: 1.0.0 05.05.2024
#Station: LEX_Murmansk
#Location: 33.156738 lon 68.926811 lat
#TLE: 1 28654U 05018A   25020.18862715  .00000449  00000+0  26167-3 0  9997
#TLE: 2 28654  98.8558 101.1913 0014575 164.8261 195.3351 14.13491567 13918

#Time	Az	El	Level	SNR
2025-01-21 09:51:05.361324	26.2	16.3	-90.5	6.3
2025-01-21 09:51:06.509007	26.2	16.4	-90.1	4.5
2025-01-21 09:51:07.660034	26.2	16.6	-90.2	7.0
2025-01-21 09:51:08.806409	26.3	16.7	-90.6	8.9
2025-01-21 09:51:09.953439	26.3	16.8	-90.5	4.9
2025-01-21 09:51:11.103543	26.3	17.0	-90.2	8.4
2025-01-21 09:51:12.256334	26.3	17.1	-89.9	10.3
2025-01-21 09:51:13.407622	26.3	17.2	-90.4	8.2
2025-01-21 09:51:14.561477	26.4	17.3	-90.4	6.7
2025-01-21 09:51:15.710108	26.4	17.5	-89.9	9.3
2025-01-21 09:51:16.860590	26.4	17.6	-90.2	8.0
2025-01-21 09:51:18.007791	26.4	17.7	-90.2	4.5
2025-01-21 09:51:19.161079	26.4	17.9	-90.2	9.0
2025-01-21 09:51:20.314912	26.5	18.0	-89.9	7.7
2025-01-21 09:51:21.464265	26.5	18.2	-90.4	6.5
2025-01-21 09:51:22.614781	26.5	18.3	-89.9	13.2
2025-01-21 09:51:23.760747	26.5	18.4	-90.6	11.6
2025-01-21 09:51:24.910620	26.6	18.6	-89.9	10.6
2025-01-21 09:51:26.058859	26.6	18.7	-89.9	8.9
2025-01-21 09:51:27.204639	26.6	18.8	-90.4	10.9
2025-01-21 09:51:28.350649	26.6	19.0	-90.3	9.1
2025-01-21 09:51:29.501619	26.7	19.1	-90.5	7.7
2025-01-21 09:51:30.649043	26.7	19.3	-90.7	6.9
2025-01-21 09:51:31.799787	26.7	19.4	-90.8	9.7
2025-01-21 09:51:32.949210	26.7	19.6	-90.7	7.1
2025-01-21 09:51:34.099214	26.8	19.7	-90.4	3.9
2025-01-21 09:51:35.248908	26.8	19.8	-90.4	11.2
2025-01-21 09:51:36.396792	26.8	20.0	-90.6	5.8
2025-01-21 09:51:37.538929	26.8	20.1	-90.6	7.7
2025-01-21 09:51:38.684844	26.9	20.3	-90.4	12.1
2025-01-21 09:51:39.834023	26.9	20.4	-90.6	14.1
2025-01-21 09:51:40.979420	26.9	20.6	-90.7	10.7
2025-01-21 09:51:42.126066	26.9	20.7	-90.5	11.2
2025-01-21 09:51:43.275327	27.0	20.9	-90.5	11.2
2025-01-21 09:51:44.422498	27.0	21.0	-90.6	8.8
2025-01-21 09:51:45.570445	27.0	21.2	-90.2	11.1
2025-01-21 09:51:46.716721	27.0	21.3	-90.3	10.4
2025-01-21 09:51:47.867212	27.1	21.5	-90.5	9.4
2025-01-21 09:51:49.017447	27.1	21.7	-90.3	5.5
2025-01-21 09:51:50.161068	27.1	21.8	-90.3	9.6
2025-01-21 09:51:51.305592	27.1	22.0	-90.7	9.3
2025-01-21 09:51:52.455538	27.2	22.1	-90.1	6.6
2025-01-21 09:51:53.602863	27.2	22.3	-90.5	8.7
2025-01-21 09:51:54.748945	27.2	22.5	-90.4	8.6
2025-01-21 09:51:55.896764	27.3	22.6	-89.6	11.3
2025-01-21 09:51:57.046386	27.3	22.8	-89.5	10.7
2025-01-21 09:51:58.194443	27.3	22.9	-89.6	9.6
2025-01-21 09:51:59.344854	27.3	23.1	-89.6	9.5
2025-01-21 09:52:00.491870	27.4	23.3	-90.2	9.6
2025-01-21 09:52:01.638595	27.4	23.4	-90.0	10.6
2025-01-21 09:52:02.784135	27.4	23.6	-90.0	9.1
2025-01-21 09:52:03.931639	27.5	23.8	-90.1	9.8
2025-01-21 09:52:05.083851	27.5	24.0	-90.1	6.2
2025-01-21 09:52:06.232310	27.5	24.1	-90.6	12.6
2025-01-21 09:52:07.382876	27.6	24.3	-90.7	5.8
2025-01-21 09:52:08.528794	27.6	24.5	-90.3	5.8
2025-01-21 09:52:09.676160	27.6	24.7	-90.5	11.0
2025-01-21 09:52:10.823077	27.7	24.8	-90.3	10.2
2025-01-21 09:52:11.967601	27.7	25.0	-90.3	12.8
2025-01-21 09:52:13.118153	27.7	25.2	-90.3	10.3
2025-01-21 09:52:14.267176	27.8	25.4	-90.3	13.2
2025-01-21 09:52:15.411461	27.8	25.5	-90.3	7.7
2025-01-21 09:52:16.560970	27.8	25.7	-90.3	9.6
2025-01-21 09:52:17.708603	27.9	25.9	-90.3	13.0
2025-01-21 09:52:18.855913	27.9	26.1	-90.0	11.5
2025-01-21 09:52:20.003379	27.9	26.3	-90.5	9.9
2025-01-21 09:52:21.153795	28.0	26.5	-90.5	9.2
2025-01-21 09:52:22.298220	28.0	26.7	-90.3	10.6
2025-01-21 09:52:23.450391	28.0	26.8	-90.6	4.8
2025-01-21 09:52:24.600464	28.1	27.0	-90.3	4.5
2025-01-21 09:52:25.748260	28.1	27.2	-90.1	8.3
2025-01-21 09:52:26.901000	28.1	27.4	-90.7	6.8
2025-01-21 09:52:28.045881	28.2	27.6	-90.1	9.3
2025-01-21 09:52:29.192315	28.2	27.8	-90.4	11.4
2025-01-21 09:52:30.344892	28.3	28.0	-89.9	11.1
2025-01-21 09:52:31.494055	28.3	28.2	-90.3	8.4
2025-01-21 09:52:32.640655	28.3	28.4	-89.9	9.3
2025-01-21 09:52:33.786183	28.4	28.6	-90.4	10.8
2025-01-21 09:52:34.935864	28.4	28.8	-90.5	7.2
2025-01-21 09:52:36.081581	28.5	29.0	-89.6	5.9
2025-01-21 09:52:37.227685	28.5	29.2	-89.5	4.9
2025-01-21 09:52:38.378852	28.5	29.4	-89.9	3.5
2025-01-21 09:52:39.527159	28.6	29.7	-89.8	4.8
2025-01-21 09:52:40.675410	28.6	29.9	-89.9	7.4
2025-01-21 09:52:41.823853	28.7	30.1	-90.1	8.1
2025-01-21 09:52:42.971744	28.7	30.3	-89.8	6.9
2025-01-21 09:52:44.124095	28.7	30.5	-89.8	8.3
2025-01-21 09:52:45.272109	28.8	30.7	-89.6	7.5
2025-01-21 09:52:46.421822	28.8	31.0	-90.0	6.6
2025-01-21 09:52:47.567210	28.9	31.2	-90.0	5.9
2025-01-21 09:52:48.719265	28.9	31.4	-90.0	9.2
2025-01-21 09:52:49.868746	29.0	31.6	-90.0	7.1
2025-01-21 09:52:51.015223	29.0	31.9	-90.2	10.6
2025-01-21 09:52:52.169017	29.1	32.1	-90.0	12.3
2025-01-21 09:52:53.315346	29.1	32.3	-90.6	12.6
2025-01-21 09:52:54.466275	29.2	32.5	-90.5	8.0
2025-01-21 09:52:55.610580	29.2	32.8	-90.8	6.6
2025-01-21 09:52:56.761064	29.3	33.0	-90.8	10.1
2025-01-21 09:52:57.904919	29.3	33.2	-90.7	6.5
2025-01-21 09:52:59.052045	29.4	33.5	-90.3	4.7
2025-01-21 09:53:00.204342	29.4	33.7	-90.6	10.3
2025-01-21 09:53:01.349920	29.5	34.0	-90.3	11.5
2025-01-21 09:53:02.499416	29.5	34.2	-90.8	13.5
2025-01-21 09:53:03.648051	29.6	34.5	-90.5	13.2
2025-01-21 09:53:04.796691	29.6	34.7	-90.2	12.4
2025-01-21 09:53:05.947545	29.7	35.0	-90.2	8.8
2025-01-21 09:53:07.093897	29.8	35.2	-90.4	11.0
2025-01-21 09:53:08.243433	29.8	35.5	-90.7	13.2
2025-01-21 09:53:09.396567	29.9	35.7	-90.4	12.5
2025-01-21 09:53:10.546315	29.9	36.0	-90.7	11.6
2025-01-21 09:53:11.699692	30.0	36.2	-90.5	13.6
2025-01-21 09:53:12.850331	30.1	36.5	-90.4	13.6
2025-01-21 09:53:13.999257	30.1	36.8	-90.8	6.2
2025-01-21 09:53:15.147056	30.2	37.0	-90.3	14.0
2025-01-21 09:53:16.295431	30.2	37.3	-90.5	16.4
2025-01-21 09:53:17.446061	30.3	37.6	-90.8	9.7
2025-01-21 09:53:18.593360	30.4	37.9	-90.4	13.9
2025-01-21 09:53:19.740865	30.4	38.1	-90.1	16.3
2025-01-21 09:53:20.887110	30.5	38.4	-90.4	16.5
2025-01-21 09:53:22.039580	30.6	38.7	-90.5	15.4
2025-01-21 09:53:23.189597	30.6	39.0	-90.1	17.0
2025-01-21 09:53:24.339565	30.7	39.3	-90.2	17.2
2025-01-21 09:53:25.486494	30.8	39.5	-90.6	14.2
2025-01-21 09:53:26.635083	30.9	39.8	-90.6	15.9
2025-01-21 09:53:27.781589	30.9	40.1	-90.6	16.7
2025-01-21 09:53:28.927715	31.0	40.4	-90.7	17.2
2025-01-21 09:53:30.075616	31.1	40.7	-90.3	14.5
2025-01-21 09:53:31.219038	31.2	41.0	-89.6	15.3
2025-01-21 09:53:32.366973	31.2	41.3	-89.7	9.3
2025-01-21 09:53:33.519055	31.3	41.6	-90.1	7.5
2025-01-21 09:53:34.665584	31.4	41.9	-90.0	14.3
2025-01-21 09:53:35.827080	31.5	42.2	-89.8	15.4
2025-01-21 09:53:36.975163	31.6	42.5	-90.5	11.7
2025-01-21 09:53:38.125647	31.7	42.9	-90.4	15.3
2025-01-21 09:53:39.277327	31.8	43.2	-90.7	15.0
2025-01-21 09:53:40.432274	31.9	43.5	-90.9	15.3
2025-01-21 09:53:41.580443	31.9	43.8	-90.9	14.1
2025-01-21 09:53:42.728464	32.0	44.1	-90.3	17.3
2025-01-21 09:53:43.875157	32.1	44.5	-90.6	11.2
2025-01-21 09:53:45.021647	32.2	44.8	-90.8	11.9
2025-01-21 09:53:46.173160	32.3	45.1	-90.2	15.3
2025-01-21 09:53:47.322213	32.4	45.5	-90.4	15.4
2025-01-21 09:53:48.472401	32.5	45.8	-90.7	14.5
2025-01-21 09:53:49.629524	32.7	46.2	-90.2	13.1
2025-01-21 09:53:50.776963	32.8	46.5	-90.5	14.6
2025-01-21 09:53:51.924249	32.9	46.8	-90.7	8.6
2025-01-21 09:53:53.075695	33.0	47.2	-90.6	4.7
2025-01-21 09:53:54.230489	33.1	47.5	-90.3	10.0
2025-01-21 09:53:55.376171	33.2	47.9	-90.7	6.7
2025-01-21 09:53:56.530184	33.3	48.3	-90.4	9.5
2025-01-21 09:53:57.677303	33.5	48.6	-90.9	12.9
2025-01-21 09:53:58.820561	33.6	49.0	-90.9	11.8
2025-01-21 09:53:59.969398	33.7	49.3	-90.3	14.9
2025-01-21 09:54:01.109343	33.9	49.7	-90.6	14.4
2025-01-21 09:54:02.264896	34.0	50.1	-90.5	14.2
2025-01-21 09:54:03.413212	34.1	50.5	-90.4	10.5
2025-01-21 09:54:04.563770	34.3	50.8	-90.4	9.6
2025-01-21 09:54:05.714286	34.4	51.2	-90.3	14.2
2025-01-21 09:54:06.860234	34.6	51.6	-90.2	13.3
2025-01-21 09:54:08.005896	34.7	52.0	-90.5	12.9
2025-01-21 09:54:09.152368	34.9	52.4	-90.5	10.8
2025-01-21 09:54:10.305838	35.0	52.8	-90.6	11.7
2025-01-21 09:54:11.451122	35.2	53.2	-90.5	12.2
2025-01-21 09:54:12.594115	35.4	53.6	-90.6	7.9
2025-01-21 09:54:13.744359	35.6	54.0	-90.8	12.7
2025-01-21 09:54:14.893267	35.7	54.4	-90.7	7.0
2025-01-21 09:54:16.042039	35.9	54.8	-90.6	3.8
2025-01-21 09:54:17.184175	36.1	55.2	-90.7	5.4
2025-01-21 09:54:18.329974	36.3	55.6	-90.6	10.1
2025-01-21 09:54:19.480340	36.5	56.0	-90.7	6.1
2025-01-21 09:54:20.627509	36.7	56.4	-90.9	12.4
2025-01-21 09:54:21.780708	36.9	56.8	-90.8	12.6
2025-01-21 09:54:22.935476	37.2	57.3	-90.5	11.4
2025-01-21 09:54:24.082554	37.4	57.7	-90.3	9.3
2025-01-21 09:54:25.234312	37.6	58.1	-90.6	15.5
2025-01-21 09:54:26.381700	37.9	58.6	-90.6	10.5
2025-01-21 09:54:27.544213	38.1	59.0	-90.6	10.7
2025-01-21 09:54:28.691029	38.4	59.4	-91.1	15.6
2025-01-21 09:54:29.848644	38.6	59.9	-90.7	12.7
2025-01-21 09:54:30.996687	38.9	60.3	-90.4	16.4
2025-01-21 09:54:32.145553	39.2	60.8	-90.6	17.9
2025-01-21 09:54:33.289451	39.5	61.2	-90.6	17.6
2025-01-21 09:54:34.433251	39.8	61.7	-90.7	17.0
2025-01-21 09:54:35.582576	40.1	62.1	-90.7	14.5
2025-01-21 09:54:36.731167	40.4	62.6	-90.6	17.0
2025-01-21 09:54:37.881851	40.8	63.0	-90.5	10.1
2025-01-21 09:54:39.030324	41.1	63.5	-90.6	8.4
2025-01-21 09:54:40.177550	41.5	63.9	-90.6	14.7
2025-01-21 09:54:41.322770	41.9	64.4	-90.4	14.2
2025-01-21 09:54:42.467565	42.3	64.9	-90.7	9.7
2025-01-21 09:54:43.614450	42.7	65.3	-90.6	11.2
2025-01-21 09:54:44.760379	43.1	65.8	-90.9	12.7
2025-01-21 09:54:45.909492	43.6	66.3	-90.7	12.7
2025-01-21 09:54:47.057867	44.1	66.7	-90.7	16.7
2025-01-21 09:54:48.204146	44.6	67.2	-90.4	19.3
2025-01-21 09:54:49.351534	45.1	67.7	-90.0	18.0
2025-01-21 09:54:50.496273	45.6	68.2	-90.7	16.4
2025-01-21 09:54:51.648913	46.2	68.6	-90.8	13.5
2025-01-21 09:54:52.795031	46.8	69.1	-90.4	15.4
2025-01-21 09:54:53.944094	47.4	69.6	-90.5	12.9
2025-01-21 09:54:55.094276	48.0	70.1	-90.5	8.8
2025-01-21 09:54:56.241195	48.7	70.5	-90.2	14.6
2025-01-21 09:54:57.391102	49.5	71.0	-90.4	10.0
2025-01-21 09:54:58.533693	50.2	71.5	-90.9	11.2
2025-01-21 09:54:59.681312	51.0	72.0	-90.5	15.3
2025-01-21 09:55:00.832726	51.9	72.4	-90.8	15.1
2025-01-21 09:55:01.980385	52.8	72.9	-90.4	17.8
2025-01-21 09:55:03.130096	53.7	73.4	-90.5	21.0
2025-01-21 09:55:04.280265	54.8	73.8	-90.5	19.8
2025-01-21 09:55:05.427334	55.8	74.3	-89.7	17.5
2025-01-21 09:55:06.574210	57.0	74.8	-89.4	17.8
2025-01-21 09:55:07.721674	58.2	75.2	-90.0	17.2
2025-01-21 09:55:08.871042	59.5	75.7	-89.5	10.8
2025-01-21 09:55:10.019907	60.9	76.1	-89.9	11.2
2025-01-21 09:55:11.167215	62.3	76.5	-89.7	15.2
2025-01-21 09:55:12.320727	63.9	77.0	-90.0	15.5
2025-01-21 09:55:13.468850	65.6	77.4	-89.7	11.3
2025-01-21 09:55:14.618009	67.4	77.8	-89.9	15.4
2025-01-21 09:55:15.766982	69.3	78.2	-90.5	19.3
2025-01-21 09:55:16.920496	71.4	78.6	-90.7	12.2
2025-01-21 09:55:18.067220	73.6	78.9	-90.3	9.7
2025-01-21 09:55:19.211693	76.0	79.3	-90.5	20.2
2025-01-21 09:55:20.360604	78.5	79.6	-90.4	14.6
2025-01-21 09:55:21.509867	81.1	79.9	-90.5	11.7
2025-01-21 09:55:22.656701	84.0	80.2	-90.2	20.8
2025-01-21 09:55:23.805947	87.0	80.5	-90.6	22.9
2025-01-21 09:55:24.955421	90.2	80.7	-90.7	15.5
2025-01-21 09:55:26.103455	93.6	80.9	-90.1	18.0
2025-01-21 09:55:27.256611	97.1	81.1	-90.2	23.0
2025-01-21 09:55:28.405280	100.7	81.3	-90.1	22.2
2025-01-21 09:55:29.552408	104.4	81.4	-90.6	22.5
2025-01-21 09:55:30.702584	108.3	81.5	-90.3	22.6
2025-01-21 09:55:31.852427	112.1	81.5	-90.5	22.3
2025-01-21 09:55:33.002597	116.0	81.5	-90.9	21.0
2025-01-21 09:55:34.151537	119.9	81.4	-90.3	22.6
2025-01-21 09:55:35.303193	123.7	81.4	-90.3	21.3
2025-01-21 09:55:36.451272	127.4	81.2	-90.5	19.6
2025-01-21 09:55:37.594862	131.0	81.1	-90.8	21.6
2025-01-21 09:55:38.745769	134.5	80.9	-90.8	22.2
2025-01-21 09:55:39.900055	137.8	80.7	-90.4	19.8
2025-01-21 09:55:41.050936	141.0	80.4	-90.5	20.1
2025-01-21 09:55:42.197005	144.0	80.2	-90.7	20.0
2025-01-21 09:55:43.351271	146.8	79.9	-90.6	18.8
2025-01-21 09:55:44.496750	149.5	79.6	-90.6	18.2
2025-01-21 09:55:45.642975	151.9	79.2	-90.8	16.8
2025-01-21 09:55:46.796307	154.3	78.9	-90.4	16.7
2025-01-21 09:55:47.942746	156.4	78.5	-89.9	13.5
2025-01-21 09:55:49.089518	158.5	78.1	-89.6	16.5
2025-01-21 09:55:50.242399	160.4	77.7	-89.9	17.5
2025-01-21 09:55:51.388637	162.2	77.3	-90.2	12.7
2025-01-21 09:55:52.538303	163.8	76.9	-90.4	12.1
2025-01-21 09:55:53.684489	165.4	76.4	-90.2	17.3
2025-01-21 09:55:54.834928	166.8	76.0	-90.0	9.7
2025-01-21 09:55:55.983487	168.2	75.6	-90.6	10.4
2025-01-21 09:55:57.127753	169.5	75.1	-89.7	17.3
2025-01-21 09:55:58.278606	170.7	74.7	-89.8	12.5
2025-01-21 09:55:59.423243	171.8	74.2	-90.1	15.0
2025-01-21 09:56:00.572305	172.9	73.7	-89.9	10.9
2025-01-21 09:56:01.716255	173.9	73.3	-90.2	15.6
2025-01-21 09:56:02.865933	174.8	72.8	-91.0	9.7
2025-01-21 09:56:04.013590	175.7	72.3	-90.6	11.1
2025-01-21 09:56:05.156716	176.5	71.9	-90.4	16.4
2025-01-21 09:56:06.307153	177.3	71.4	-90.5	16.2
2025-01-21 09:56:07.456242	178.1	70.9	-90.8	9.8
2025-01-21 09:56:08.601099	178.8	70.4	-90.5	11.6
2025-01-21 09:56:09.747003	179.5	70.0	-91.0	12.8
2025-01-21 09:56:10.904300	180.2	69.5	-91.0	8.4
2025-01-21 09:56:12.052348	180.8	69.0	-90.9	6.6
2025-01-21 09:56:13.197997	181.4	68.5	-90.6	12.0
2025-01-21 09:56:14.344871	181.9	68.0	-90.5	11.9
2025-01-21 09:56:15.496538	182.5	67.6	-91.0	10.8
2025-01-21 09:56:16.647867	183.0	67.1	-90.7	10.3
2025-01-21 09:56:17.806192	183.5	66.6	-90.6	9.0
2025-01-21 09:56:18.955446	183.9	66.1	-90.9	8.9
2025-01-21 09:56:20.104261	184.4	65.7	-91.1	12.0
2025-01-21 09:56:21.258937	184.8	65.2	-90.3	16.1
2025-01-21 09:56:22.405394	185.2	64.7	-90.7	9.9
2025-01-21 09:56:23.551645	185.6	64.3	-90.9	11.0
2025-01-21 09:56:24.702790	186.0	63.8	-90.7	17.7
2025-01-21 09:56:25.851017	186.4	63.3	-90.9	17.2
2025-01-21 09:56:26.996918	186.7	62.9	-90.1	17.1
2025-01-21 09:56:28.149948	187.1	62.4	-90.0	18.6
2025-01-21 09:56:29.295439	187.4	62.0	-90.6	17.9
2025-01-21 09:56:30.445509	187.7	61.5	-90.5	14.3
2025-01-21 09:56:31.595782	188.0	61.1	-90.6	14.3
2025-01-21 09:56:32.743236	188.3	60.6	-90.8	17.6
2025-01-21 09:56:33.890788	188.6	60.2	-90.4	16.3
2025-01-21 09:56:35.042725	188.9	59.7	-90.3	15.3
2025-01-21 09:56:36.194754	189.1	59.3	-90.5	15.0
2025-01-21 09:56:37.344801	189.4	58.8	-90.4	16.0
2025-01-21 09:56:38.505124	189.6	58.4	-90.8	16.1
2025-01-21 09:56:39.652868	189.9	58.0	-90.7	17.2
2025-01-21 09:56:40.801792	190.1	57.5	-90.5	11.5
2025-01-21 09:56:41.952144	190.3	57.1	-90.8	10.3
2025-01-21 09:56:43.104806	190.5	56.7	-90.4	11.7
2025-01-21 09:56:44.256145	190.8	56.3	-90.8	16.2
2025-01-21 09:56:45.406613	191.0	55.8	-90.6	10.1
2025-01-21 09:56:46.554663	191.2	55.4	-90.7	8.6
2025-01-21 09:56:47.703647	191.4	55.0	-91.0	13.0
2025-01-21 09:56:48.849568	191.5	54.6	-90.8	13.4
2025-01-21 09:56:49.995684	191.7	54.2	-90.8	7.5
2025-01-21 09:56:51.142892	191.9	53.8	-90.6	10.1
2025-01-21 09:56:52.291622	192.1	53.4	-90.7	10.8
2025-01-21 09:56:53.441501	192.3	53.0	-90.9	9.1
2025-01-21 09:56:54.592051	192.4	52.6	-90.4	9.3
2025-01-21 09:56:55.740261	192.6	52.2	-90.7	12.0
2025-01-21 09:56:56.888300	192.7	51.8	-90.8	12.6
2025-01-21 09:56:58.036096	192.9	51.4	-90.3	11.0
2025-01-21 09:56:59.189030	193.0	51.0	-90.1	8.3
2025-01-21 09:57:00.344962	193.2	50.6	-90.3	9.8
2025-01-21 09:57:01.488167	193.3	50.3	-90.6	6.7
2025-01-21 09:57:02.636275	193.5	49.9	-90.7	13.3
2025-01-21 09:57:03.785333	193.6	49.5	-90.6	11.8
2025-01-21 09:57:04.931887	193.7	49.1	-90.8	13.9
2025-01-21 09:57:06.081800	193.9	48.8	-90.3	13.7
2025-01-21 09:57:07.227146	194.0	48.4	-89.6	12.5
2025-01-21 09:57:08.372779	194.1	48.1	-89.9	14.9
2025-01-21 09:57:09.518076	194.2	47.7	-90.3	12.5
2025-01-21 09:57:10.666917	194.3	47.3	-90.0	15.5
2025-01-21 09:57:11.817961	194.5	47.0	-89.9	13.9
2025-01-21 09:57:12.967948	194.6	46.6	-90.2	8.4
2025-01-21 09:57:14.112912	194.7	46.3	-89.7	11.3
2025-01-21 09:57:15.262161	194.8	45.9	-89.6	15.4
2025-01-21 09:57:16.411587	194.9	45.6	-90.1	8.7
2025-01-21 09:57:17.560033	195.0	45.3	-90.4	10.6
2025-01-21 09:57:18.706979	195.1	44.9	-90.7	17.9
2025-01-21 09:57:19.856305	195.2	44.6	-90.8	13.0
2025-01-21 09:57:21.002769	195.3	44.3	-90.9	14.5
2025-01-21 09:57:22.153356	195.4	43.9	-90.4	18.1
2025-01-21 09:57:23.302293	195.5	43.6	-90.6	19.3
2025-01-21 09:57:24.454962	195.6	43.3	-90.3	19.9
2025-01-21 09:57:25.599739	195.7	43.0	-89.6	16.3
2025-01-21 09:57:26.753775	195.8	42.7	-89.9	16.5
2025-01-21 09:57:27.905985	195.9	42.3	-89.3	13.2
2025-01-21 09:57:29.054165	195.9	42.0	-90.2	14.2
2025-01-21 09:57:30.201823	196.0	41.7	-89.9	16.0
2025-01-21 09:57:31.349534	196.1	41.4	-89.6	15.5
2025-01-21 09:57:32.504041	196.2	41.1	-89.9	9.5
2025-01-21 09:57:33.649482	196.3	40.8	-89.8	13.8
2025-01-21 09:57:34.797938	196.3	40.5	-90.4	15.6
2025-01-21 09:57:35.946322	196.4	40.2	-90.5	9.7
2025-01-21 09:57:37.095158	196.5	39.9	-90.1	13.8
2025-01-21 09:57:38.238867	196.6	39.6	-90.6	15.7
2025-01-21 09:57:39.387529	196.6	39.3	-90.8	14.4
2025-01-21 09:57:40.537325	196.7	39.0	-90.5	15.4
2025-01-21 09:57:41.689292	196.8	38.7	-90.5	14.5
2025-01-21 09:57:42.837204	196.9	38.5	-90.9	13.9
2025-01-21 09:57:43.986593	196.9	38.2	-90.7	12.8
2025-01-21 09:57:45.135202	197.0	37.9	-90.2	10.2
2025-01-21 09:57:46.287549	197.1	37.6	-89.3	10.8
2025-01-21 09:57:47.437093	197.1	37.4	-90.5	7.5
2025-01-21 09:57:48.585532	197.2	37.1	-90.6	7.8
2025-01-21 09:57:49.744496	197.3	36.8	-90.4	13.7
2025-01-21 09:57:50.891792	197.3	36.5	-90.5	6.5
2025-01-21 09:57:52.038516	197.4	36.3	-90.7	7.7
2025-01-21 09:57:53.186787	197.4	36.0	-90.4	12.8
2025-01-21 09:57:54.334549	197.5	35.7	-90.3	12.6
2025-01-21 09:57:55.478111	197.6	35.5	-90.8	7.8
2025-01-21 09:57:56.628905	197.6	35.2	-91.1	10.3
2025-01-21 09:57:57.772755	197.7	35.0	-90.6	12.1
2025-01-21 09:57:58.919495	197.7	34.7	-90.8	10.5
2025-01-21 09:58:00.061830	197.8	34.5	-90.8	13.2
2025-01-21 09:58:01.206415	197.8	34.2	-90.4	12.6
2025-01-21 09:58:02.352564	197.9	34.0	-90.6	11.5
2025-01-21 09:58:03.500096	197.9	33.7	-91.2	10.1
2025-01-21 09:58:04.645537	198.0	33.5	-90.7	7.3
2025-01-21 09:58:05.791292	198.1	33.3	-90.9	10.1
2025-01-21 09:58:06.945060	198.1	33.0	-91.3	7.1
2025-01-21 09:58:08.091195	198.2	32.8	-90.4	7.1
2025-01-21 09:58:09.233898	198.2	32.5	-90.5	7.4
2025-01-21 09:58:10.378698	198.3	32.3	-90.8	7.3
2025-01-21 09:58:11.528910	198.3	32.1	-90.9	4.7
2025-01-21 09:58:12.675916	198.3	31.8	-90.4	9.5
2025-01-21 09:58:13.824800	198.4	31.6	-90.4	8.8
2025-01-21 09:58:14.979670	198.4	31.4	-90.4	6.4
2025-01-21 09:58:16.127173	198.5	31.2	-89.9	10.6
2025-01-21 09:58:17.277094	198.5	30.9	-89.8	11.5
2025-01-21 09:58:18.420725	198.6	30.7	-90.1	9.6
2025-01-21 09:58:19.563752	198.6	30.5	-90.0	9.3
2025-01-21 09:58:20.713337	198.7	30.3	-90.2	11.1
2025-01-21 09:58:21.856996	198.7	30.1	-90.6	8.0
2025-01-21 09:58:23.004523	198.8	29.8	-90.0	3.4
2025-01-21 09:58:24.157706	198.8	29.6	-89.8	9.4
2025-01-21 09:58:25.305774	198.8	29.4	-90.8	8.3
2025-01-21 09:58:26.453502	198.9	29.2	-91.0	4.8
2025-01-21 09:58:27.601795	198.9	29.0	-90.0	6.1
2025-01-21 09:58:28.746071	199.0	28.8	-90.0	6.6
2025-01-21 09:58:29.893777	199.0	28.6	-90.4	6.1
2025-01-21 09:58:31.032840	199.0	28.4	-90.0	5.4
2025-01-21 09:58:32.182146	199.1	28.2	-90.0	6.7
2025-01-21 09:58:33.331215	199.1	28.0	-89.4	8.2
2025-01-21 09:58:34.483281	199.2	27.8	-90.9	9.4
2025-01-21 09:58:35.630880	199.2	27.6	-90.7	10.9
2025-01-21 09:58:36.778730	199.2	27.4	-90.9	11.2
2025-01-21 09:58:37.926471	199.3	27.2	-90.7	8.5
2025-01-21 09:58:39.072732	199.3	27.0	-90.5	8.6
2025-01-21 09:58:40.220128	199.3	26.8	-90.5	12.9
2025-01-21 09:58:41.367371	199.4	26.6	-90.6	11.4
2025-01-21 09:58:42.519030	199.4	26.4	-90.7	9.2
2025-01-21 09:58:43.669270	199.4	26.2	-90.8	13.2
2025-01-21 09:58:44.821257	199.5	26.0	-91.0	13.6
2025-01-21 09:58:45.975329	199.5	25.8	-90.9	13.4
2025-01-21 09:58:47.123840	199.6	25.7	-90.3	11.8
2025-01-21 09:58:48.275262	199.6	25.5	-90.1	11.3
2025-01-21 09:58:49.427258	199.6	25.3	-90.9	9.6
2025-01-21 09:58:50.573199	199.7	25.1	-90.9	7.6
2025-01-21 09:58:51.720918	199.7	24.9	-90.6	11.0
2025-01-21 09:58:52.873035	199.7	24.7	-90.7	7.6
2025-01-21 09:58:54.028587	199.7	24.6	-90.6	7.2
2025-01-21 09:58:55.177604	199.8	24.4	-90.6	10.6
2025-01-21 09:58:56.327537	199.8	24.2	-90.7	10.7
2025-01-21 09:58:57.474292	199.8	24.0	-90.6	10.0
2025-01-21 09:58:58.621105	199.9	23.9	-90.7	11.7
2025-01-21 09:58:59.769752	199.9	23.7	-90.6	13.5
2025-01-21 09:59:00.910678	199.9	23.5	-90.6	11.6
2025-01-21 09:59:02.063181	200.0	23.3	-90.6	11.0
2025-01-21 09:59:03.210662	200.0	23.2	-90.7	11.2
2025-01-21 09:59:04.359638	200.0	23.0	-90.3	9.9
2025-01-21 09:59:05.509257	200.1	22.8	-91.0	7.9
2025-01-21 09:59:06.657997	200.1	22.7	-90.5	10.5
2025-01-21 09:59:07.803874	200.1	22.5	-90.4	10.7
2025-01-21 09:59:08.950374	200.1	22.3	-90.8	8.8
2025-01-21 09:59:10.103116	200.2	22.2	-90.5	7.7
2025-01-21 09:59:11.251453	200.2	22.0	-90.7	12.2
2025-01-21 09:59:12.404506	200.2	21.9	-91.0	10.8
2025-01-21 09:59:13.557875	200.2	21.7	-91.1	10.9
2025-01-21 09:59:14.708510	200.3	21.5	-90.7	9.5
2025-01-21 09:59:15.862817	200.3	21.4	-90.7	8.7
2025-01-21 09:59:17.009394	200.3	21.2	-91.0	7.1
2025-01-21 09:59:18.158166	200.4	21.1	-90.4	8.2
2025-01-21 09:59:19.305667	200.4	20.9	-90.6	7.4
2025-01-21 09:59:20.451602	200.4	20.8	-91.2	5.8
2025-01-21 09:59:21.603354	200.4	20.6	-90.8	7.5
2025-01-21 09:59:22.750318	200.5	20.5	-91.1	8.2
2025-01-21 09:59:23.902848	200.5	20.3	-90.9	6.6
2025-01-21 09:59:25.052107	200.5	20.2	-91.0	6.9
2025-01-21 09:59:26.203550	200.5	20.0	-89.7	7.1
2025-01-21 09:59:27.351139	200.6	19.9	-89.3	5.7
2025-01-21 09:59:28.502519	200.6	19.7	-89.5	5.4
2025-01-21 09:59:29.644993	200.6	19.6	-89.8	8.2
2025-01-21 09:59:30.790583	200.6	19.4	-89.7	8.2
2025-01-21 09:59:31.940358	200.7	19.3	-89.9	7.1
2025-01-21 09:59:33.090235	200.7	19.1	-89.4	5.9
2025-01-21 09:59:34.244828	200.7	19.0	-90.6	8.3
2025-01-21 09:59:35.392164	200.7	18.8	-90.5	8.7
2025-01-21 09:59:36.536305	200.8	18.7	-90.5	5.6
2025-01-21 09:59:37.686698	200.8	18.6	-90.8	8.1
2025-01-21 09:59:38.831605	200.8	18.4	-90.7	6.8
2025-01-21 09:59:39.977208	200.8	18.3	-90.4	10.0
2025-01-21 09:59:41.130043	200.8	18.1	-90.3	8.1
2025-01-21 09:59:42.280213	200.9	18.0	-90.4	7.4
2025-01-21 09:59:43.435991	200.9	17.9	-90.8	5.4
2025-01-21 09:59:44.581156	200.9	17.7	-90.6	6.3
2025-01-21 09:59:45.735839	200.9	17.6	-90.5	6.8
2025-01-21 09:59:46.880915	201.0	17.5	-90.7	5.9
2025-01-21 09:59:48.027097	201.0	17.3	-90.6	3.9
2025-01-21 09:59:49.176214	201.0	17.2	-90.4	4.6
2025-01-21 09:59:50.322416	201.0	17.1	-90.6	5.7
2025-01-21 09:59:51.474885	201.0	16.9	-91.1	4.9
2025-01-21 09:59:52.619983	201.1	16.8	-90.8	4.3
2025-01-21 09:59:53.771391	201.1	16.7	-90.6	3.3
2025-01-21 09:59:54.921497	201.1	16.5	-90.6	4.8
2025-01-21 09:59:56.073209	201.1	16.4	-90.3	3.8
2025-01-21 09:59:57.217819	201.1	16.3	-90.5	4.3
2025-01-21 09:59:58.367010	201.2	16.1	-90.5	3.6
2025-01-21 09:59:59.516251	201.2	16.0	-90.6	4.6
2025-01-21 10:00:00.660628	201.2	15.9	-91.0	4.8
2025-01-21 10:00:01.814063	201.2	15.8	-90.8	3.0
2025-01-21 10:00:02.961639	201.2	15.6	-90.7	5.1
2025-01-21 10:00:04.114623	201.3	15.5	-90.4	4.9
2025-01-21 10:00:05.265331	201.3	15.4	-90.3	5.2
2025-01-21 10:00:06.417059	201.3	15.3	-90.6	6.7
2025-01-21 10:00:07.568178	201.3	15.1	-90.7	4.5
2025-01-21 10:00:08.714204	201.3	15.0	-90.7	5.4
2025-01-21 10:00:09.861295	201.4	14.9	-90.7	4.8
2025-01-21 10:00:11.008501	201.4	14.8	-90.7	4.5
2025-01-21 10:00:12.156573	201.4	14.7	-90.5	6.5
2025-01-21 10:00:13.300081	201.4	14.5	-90.7	4.9
#Closed at: 2025-01-21 09:50:58.169146