passes_logs/2025/01/21/LEX_Murmansk/LEX_Murmansk__20250121_092711_NOAA_19_rec.log

#Pass ID: 20250121_092711_NOAA 19
#Satellite: NOAA 19
#Configuration: NOAA 19
#Start time: 2025-01-21 09:27:06.518337

#LorettStation: 1.0.0 05.05.2024
#Station: LEX_Murmansk
#Location: 33.156738 lon 68.926811 lat
#TLE: 1 33591U 09005A   25020.17232911  .00000399  00000+0  23710-3 0  9996
#TLE: 2 33591  99.0187  83.9745 0014303  43.5990 316.6309 14.13263973822272

#Time	Az	El	Level	SNR
2025-01-21 09:27:18.813375	24.5	16.3	-89.6	2.6
2025-01-21 09:27:19.973617	24.5	16.4	-89.7	3.9
2025-01-21 09:27:21.138508	24.5	16.6	-89.7	3.5
2025-01-21 09:27:22.294553	24.4	16.7	-89.9	2.0
2025-01-21 09:27:23.459431	24.4	16.8	-89.7	1.5
2025-01-21 09:27:24.627254	24.4	17.0	-90.3	1.5
2025-01-21 09:27:25.797084	24.3	17.1	-89.9	3.6
2025-01-21 09:27:26.966058	24.3	17.2	-89.8	3.8
2025-01-21 09:27:28.135115	24.3	17.4	-89.7	4.4
2025-01-21 09:27:29.296001	24.2	17.5	-90.0	3.8
2025-01-21 09:27:30.464702	24.2	17.6	-89.9	1.7
2025-01-21 09:27:31.623591	24.1	17.8	-89.9	4.1
2025-01-21 09:27:32.787905	24.1	17.9	-90.1	1.0
2025-01-21 09:27:33.952782	24.1	18.0	-90.1	4.7
2025-01-21 09:27:35.112680	24.0	18.2	-89.8	1.8
2025-01-21 09:27:36.280776	24.0	18.3	-89.7	3.8
2025-01-21 09:27:37.444724	24.0	18.5	-89.8	2.3
2025-01-21 09:27:38.609427	23.9	18.6	-89.9	3.5
2025-01-21 09:27:39.772260	23.9	18.7	-89.9	2.8
2025-01-21 09:27:40.938287	23.8	18.9	-90.2	2.6
2025-01-21 09:27:42.097464	23.8	19.0	-90.0	4.1
2025-01-21 09:27:43.261912	23.7	19.2	-89.9	3.3
2025-01-21 09:27:44.425875	23.7	19.3	-89.9	3.5
2025-01-21 09:27:45.589926	23.7	19.5	-89.9	4.2
2025-01-21 09:27:46.751407	23.6	19.6	-90.0	2.7
2025-01-21 09:27:47.916167	23.6	19.8	-90.0	3.2
2025-01-21 09:27:49.080007	23.5	19.9	-89.8	4.7
2025-01-21 09:27:50.236321	23.5	20.0	-89.5	5.6
2025-01-21 09:27:51.397467	23.4	20.2	-89.8	6.1
2025-01-21 09:27:52.562441	23.4	20.3	-90.1	5.7
2025-01-21 09:27:53.728550	23.3	20.5	-90.0	2.3
2025-01-21 09:27:54.891353	23.3	20.6	-90.1	3.5
2025-01-21 09:27:56.055887	23.3	20.8	-90.1	0.2
2025-01-21 09:27:57.221967	23.2	21.0	-90.0	1.8
2025-01-21 09:27:58.383499	23.2	21.1	-89.6	4.8
2025-01-21 09:27:59.547700	23.1	21.3	-89.7	7.2
2025-01-21 09:28:00.705436	23.1	21.4	-89.8	7.5
2025-01-21 09:28:01.871191	23.0	21.6	-89.7	7.7
2025-01-21 09:28:03.033459	23.0	21.7	-90.0	5.2
2025-01-21 09:28:04.200451	22.9	21.9	-90.1	2.5
2025-01-21 09:28:05.358948	22.9	22.1	-90.2	5.0
2025-01-21 09:28:06.524203	22.8	22.2	-90.1	9.5
2025-01-21 09:28:07.692426	22.8	22.4	-90.0	7.5
2025-01-21 09:28:08.841195	22.7	22.5	-90.3	6.9
2025-01-21 09:28:10.006391	22.6	22.7	-90.0	3.7
2025-01-21 09:28:11.169955	22.6	22.9	-89.7	4.7
2025-01-21 09:28:12.328407	22.5	23.0	-89.6	2.4
2025-01-21 09:28:13.491515	22.5	23.2	-89.9	3.2
2025-01-21 09:28:14.652917	22.4	23.4	-89.7	4.8
2025-01-21 09:28:15.813814	22.4	23.5	-89.6	6.4
2025-01-21 09:28:16.982281	22.3	23.7	-89.7	8.7
2025-01-21 09:28:18.147368	22.2	23.9	-89.5	8.9
2025-01-21 09:28:19.313634	22.2	24.1	-90.0	7.5
2025-01-21 09:28:20.477357	22.1	24.2	-90.4	5.4
2025-01-21 09:28:21.644916	22.1	24.4	-90.2	6.0
2025-01-21 09:28:22.807373	22.0	24.6	-89.9	9.3
2025-01-21 09:28:23.971840	21.9	24.8	-89.9	7.5
2025-01-21 09:28:25.140784	21.9	24.9	-89.9	9.8
2025-01-21 09:28:26.303727	21.8	25.1	-90.1	3.6
2025-01-21 09:28:27.464359	21.8	25.3	-90.1	4.3
2025-01-21 09:28:28.630110	21.7	25.5	-90.0	5.7
2025-01-21 09:28:29.768548	21.6	25.7	-89.9	2.4
2025-01-21 09:28:30.935647	21.6	25.8	-89.7	6.7
2025-01-21 09:28:32.085195	21.5	26.0	-89.6	9.8
2025-01-21 09:28:33.250365	21.4	26.2	-89.4	11.6
2025-01-21 09:28:34.416205	21.4	26.4	-89.9	8.6
2025-01-21 09:28:35.579690	21.3	26.6	-90.2	5.9
2025-01-21 09:28:36.743950	21.2	26.8	-90.1	4.7
2025-01-21 09:28:37.916224	21.1	27.0	-89.9	6.8
2025-01-21 09:28:39.087600	21.1	27.2	-89.6	7.0
2025-01-21 09:28:40.245225	21.0	27.4	-90.1	6.7
2025-01-21 09:28:41.408320	20.9	27.5	-90.2	6.9
2025-01-21 09:28:42.572412	20.8	27.7	-90.2	5.8
2025-01-21 09:28:43.739846	20.8	27.9	-90.2	3.4
2025-01-21 09:28:44.905043	20.7	28.1	-90.0	2.3
2025-01-21 09:28:46.072257	20.6	28.3	-89.8	3.2
2025-01-21 09:28:47.243383	20.5	28.5	-89.8	3.5
2025-01-21 09:28:48.406906	20.4	28.7	-90.1	5.0
2025-01-21 09:28:49.568390	20.4	29.0	-90.2	5.6
2025-01-21 09:28:50.731445	20.3	29.2	-90.0	5.1
2025-01-21 09:28:51.896585	20.2	29.4	-89.9	7.9
2025-01-21 09:28:53.062033	20.1	29.6	-89.9	5.5
2025-01-21 09:28:54.228509	20.0	29.8	-89.9	2.7
2025-01-21 09:28:55.390309	19.9	30.0	-89.8	5.4
2025-01-21 09:28:56.558834	19.9	30.2	-90.1	8.5
2025-01-21 09:28:57.720486	19.8	30.4	-89.9	10.2
2025-01-21 09:28:58.881534	19.7	30.6	-89.9	6.6
2025-01-21 09:29:00.047961	19.6	30.9	-89.9	4.6
2025-01-21 09:29:01.204349	19.5	31.1	-89.8	3.2
2025-01-21 09:29:02.365002	19.4	31.3	-89.4	4.3
2025-01-21 09:29:03.528941	19.3	31.5	-89.5	3.9
2025-01-21 09:29:04.707902	19.2	31.8	-89.3	4.7
2025-01-21 09:29:05.875567	19.1	32.0	-89.3	7.8
2025-01-21 09:29:07.038076	19.0	32.2	-89.4	7.9
2025-01-21 09:29:08.202742	18.9	32.4	-90.1	10.7
2025-01-21 09:29:09.363934	18.8	32.7	-90.2	6.5
2025-01-21 09:29:10.526062	18.7	32.9	-90.2	7.6
2025-01-21 09:29:11.688860	18.6	33.1	-90.1	4.3
2025-01-21 09:29:12.849913	18.5	33.4	-89.8	6.2
2025-01-21 09:29:14.015361	18.4	33.6	-90.0	11.6
2025-01-21 09:29:15.177513	18.2	33.8	-89.8	11.1
2025-01-21 09:29:16.337226	18.1	34.1	-90.0	7.7
2025-01-21 09:29:17.502322	18.0	34.3	-90.1	8.7
2025-01-21 09:29:18.665790	17.9	34.6	-90.3	3.4
2025-01-21 09:29:19.829897	17.8	34.8	-90.0	4.1
2025-01-21 09:29:20.997986	17.7	35.1	-90.1	3.4
2025-01-21 09:29:22.161126	17.5	35.3	-89.7	2.8
2025-01-21 09:29:23.328922	17.4	35.6	-89.7	7.2
2025-01-21 09:29:24.485241	17.3	35.8	-90.0	7.9
2025-01-21 09:29:25.647851	17.2	36.1	-89.7	10.8
2025-01-21 09:29:26.811180	17.0	36.3	-89.7	9.7
2025-01-21 09:29:27.968456	16.9	36.6	-90.1	8.5
2025-01-21 09:29:29.136249	16.8	36.9	-89.9	8.4
2025-01-21 09:29:30.299113	16.6	37.1	-89.8	6.2
2025-01-21 09:29:31.465823	16.5	37.4	-90.2	11.7
2025-01-21 09:29:32.629445	16.3	37.6	-90.2	12.5
2025-01-21 09:29:33.796994	16.2	37.9	-89.4	10.8
2025-01-21 09:29:34.954157	16.0	38.2	-89.3	9.9
2025-01-21 09:29:36.116346	15.9	38.5	-89.4	6.9
2025-01-21 09:29:37.277801	15.7	38.7	-89.6	3.2
2025-01-21 09:29:38.443050	15.6	39.0	-89.5	2.4
2025-01-21 09:29:39.605551	15.4	39.3	-90.2	1.1
2025-01-21 09:29:40.771940	15.3	39.6	-90.0	1.1
2025-01-21 09:29:41.933286	15.1	39.8	-89.9	8.7
2025-01-21 09:29:43.098576	14.9	40.1	-89.5	9.9
2025-01-21 09:29:44.262625	14.8	40.4	-89.3	11.3
2025-01-21 09:29:45.428124	14.6	40.7	-89.7	15.3
2025-01-21 09:29:46.591484	14.4	41.0	-89.5	13.3
2025-01-21 09:29:47.754810	14.2	41.3	-89.2	7.9
2025-01-21 09:29:48.935018	14.1	41.6	-89.9	8.3
2025-01-21 09:29:50.094739	13.9	41.9	-89.5	11.2
2025-01-21 09:29:51.258310	13.7	42.2	-89.6	10.9
2025-01-21 09:29:52.419177	13.5	42.5	-89.7	16.6
2025-01-21 09:29:53.583220	13.3	42.8	-89.7	14.7
2025-01-21 09:29:54.751253	13.1	43.1	-89.5	12.6
2025-01-21 09:29:55.915523	12.9	43.4	-90.0	8.2
2025-01-21 09:29:57.078410	12.7	43.7	-89.7	8.2
2025-01-21 09:29:58.239598	12.5	44.0	-89.7	2.9
2025-01-21 09:29:59.401784	12.2	44.3	-89.9	3.7
2025-01-21 09:30:00.559016	12.0	44.6	-90.1	7.9
2025-01-21 09:30:01.724250	11.8	45.0	-90.1	9.2
2025-01-21 09:30:02.886496	11.6	45.3	-89.8	13.1
2025-01-21 09:30:04.049171	11.3	45.6	-89.8	15.3
2025-01-21 09:30:05.211559	11.1	45.9	-89.8	14.9
2025-01-21 09:30:06.369557	10.9	46.2	-89.7	12.0
2025-01-21 09:30:07.530367	10.6	46.6	-90.2	12.5
2025-01-21 09:30:08.698117	10.3	46.9	-90.3	8.7
2025-01-21 09:30:09.856505	10.1	47.2	-89.7	6.4
2025-01-21 09:30:11.021081	9.8	47.5	-89.9	10.3
2025-01-21 09:30:12.176434	9.6	47.9	-89.7	10.4
2025-01-21 09:30:13.342127	9.3	48.2	-90.1	13.9
2025-01-21 09:30:14.505861	9.0	48.6	-90.3	14.7
2025-01-21 09:30:15.672252	8.7	48.9	-90.4	11.3
2025-01-21 09:30:16.832426	8.4	49.2	-90.1	9.9
2025-01-21 09:30:17.994629	8.1	49.6	-90.2	7.3
2025-01-21 09:30:19.158766	7.8	49.9	-89.6	5.2
2025-01-21 09:30:20.318043	7.5	50.3	-89.8	2.8
2025-01-21 09:30:21.480635	7.1	50.6	-90.1	3.0
2025-01-21 09:30:22.641827	6.8	51.0	-90.3	4.1
2025-01-21 09:30:23.807450	6.5	51.3	-90.5	7.0
2025-01-21 09:30:24.971553	6.1	51.7	-90.4	8.6
2025-01-21 09:30:26.138312	5.8	52.0	-90.3	12.0
2025-01-21 09:30:27.300627	5.4	52.4	-90.3	15.7
2025-01-21 09:30:28.464423	5.0	52.7	-90.2	14.6
2025-01-21 09:30:29.629045	4.6	53.1	-90.4	12.0
2025-01-21 09:30:30.794675	4.2	53.5	-90.4	8.4
2025-01-21 09:30:31.961544	3.8	53.8	-90.3	5.2
2025-01-21 09:30:33.121404	3.4	54.2	-90.1	7.3
2025-01-21 09:30:34.297955	3.0	54.5	-90.4	4.4
2025-01-21 09:30:35.457949	2.5	54.9	-90.3	2.3
2025-01-21 09:30:36.629351	2.1	55.3	-90.3	6.3
2025-01-21 09:30:37.773945	1.6	55.6	-90.6	11.2
2025-01-21 09:30:38.895240	1.2	56.0	-90.4	13.8
2025-01-21 09:30:40.041763	0.7	56.3	-90.3	10.0
2025-01-21 09:30:41.205446	0.2	56.7	-90.3	5.5
2025-01-21 09:30:42.364228	359.7	57.1	-90.3	4.2
2025-01-21 09:30:43.532162	359.2	57.4	-90.6	2.1
2025-01-21 09:30:44.696049	358.6	57.8	-90.4	1.7
2025-01-21 09:30:45.863380	358.1	58.2	-90.3	2.3
2025-01-21 09:30:47.027455	357.5	58.5	-90.2	3.9
2025-01-21 09:30:48.189007	356.9	58.9	-89.2	6.3
2025-01-21 09:30:49.350549	356.3	59.3	-90.3	7.9
2025-01-21 09:30:50.518054	355.7	59.6	-90.6	13.7
2025-01-21 09:30:51.683794	355.1	60.0	-90.3	13.3
2025-01-21 09:30:52.841475	354.4	60.3	-90.2	11.9
2025-01-21 09:30:54.001877	353.7	60.7	-90.4	13.8
2025-01-21 09:30:55.172808	353.0	61.1	-90.1	10.8
2025-01-21 09:30:56.343457	352.3	61.4	-90.4	7.3
2025-01-21 09:30:57.503757	351.6	61.8	-90.1	10.8
2025-01-21 09:30:58.671676	350.8	62.1	-90.3	7.5
2025-01-21 09:30:59.839178	350.0	62.5	-90.2	7.3
2025-01-21 09:31:01.008237	349.2	62.8	-90.3	12.5
2025-01-21 09:31:02.174356	348.4	63.2	-90.0	9.0
2025-01-21 09:31:03.330002	347.6	63.5	-90.0	10.7
2025-01-21 09:31:04.479262	346.7	63.8	-90.1	16.3
2025-01-21 09:31:05.642717	345.8	64.2	-90.0	14.7
2025-01-21 09:31:06.806563	344.9	64.5	-90.2	12.4
2025-01-21 09:31:07.968964	343.9	64.8	-90.1	9.4
2025-01-21 09:31:09.131604	342.9	65.1	-89.9	11.1
2025-01-21 09:31:10.292781	341.9	65.5	-90.2	13.6
2025-01-21 09:31:11.454891	340.9	65.8	-90.2	14.9
2025-01-21 09:31:12.609419	339.8	66.1	-90.4	12.8
2025-01-21 09:31:13.775198	338.7	66.3	-90.2	9.2
2025-01-21 09:31:14.937618	337.6	66.6	-90.2	8.1
2025-01-21 09:31:16.103812	336.5	66.9	-89.9	9.4
2025-01-21 09:31:17.266825	335.3	67.2	-90.3	3.9
2025-01-21 09:31:18.434753	334.1	67.4	-90.4	4.8
2025-01-21 09:31:19.604510	332.8	67.7	-90.6	4.5
2025-01-21 09:31:20.766302	331.5	67.9	-90.3	3.7
2025-01-21 09:31:21.926953	330.2	68.2	-90.7	4.3
2025-01-21 09:31:23.086343	328.9	68.4	-90.5	5.8
2025-01-21 09:31:24.242185	327.5	68.6	-90.1	6.2
2025-01-21 09:31:25.403051	326.1	68.8	-90.1	2.3
2025-01-21 09:31:26.564449	324.7	69.0	-90.6	4.3
2025-01-21 09:31:27.719481	323.3	69.2	-90.6	6.2
2025-01-21 09:31:28.887092	321.8	69.3	-90.6	7.1
2025-01-21 09:31:30.047844	320.3	69.5	-90.7	11.6
2025-01-21 09:31:31.214262	318.8	69.6	-90.1	8.8
2025-01-21 09:31:32.369292	317.2	69.8	-90.3	9.6
2025-01-21 09:31:33.533339	315.7	69.9	-90.8	11.7
2025-01-21 09:31:34.698343	314.1	70.0	-90.5	10.5
2025-01-21 09:31:35.860537	312.5	70.1	-90.4	6.8
2025-01-21 09:31:37.028282	310.8	70.1	-90.3	3.9
2025-01-21 09:31:38.191392	309.2	70.2	-90.5	8.5
2025-01-21 09:31:39.355744	307.6	70.2	-90.5	9.1
2025-01-21 09:31:40.516685	305.9	70.3	-90.8	11.0
2025-01-21 09:31:41.682601	304.3	70.3	-90.4	9.6
2025-01-21 09:31:42.835064	302.7	70.3	-90.2	6.4
2025-01-21 09:31:43.993032	301.0	70.2	-90.3	8.9
2025-01-21 09:31:45.175283	299.4	70.2	-90.0	7.0
2025-01-21 09:31:46.330749	297.8	70.1	-89.7	5.2
2025-01-21 09:31:47.496691	296.1	70.1	-89.8	10.2
2025-01-21 09:31:48.650417	294.6	70.0	-89.9	8.2
2025-01-21 09:31:49.812226	293.0	69.9	-90.0	6.6
2025-01-21 09:31:50.977439	291.4	69.8	-89.9	9.6
2025-01-21 09:31:52.141935	289.8	69.7	-89.7	6.4
2025-01-21 09:31:53.301184	288.3	69.5	-89.8	7.5
2025-01-21 09:31:54.469656	286.8	69.4	-90.0	8.7
2025-01-21 09:31:55.633991	285.3	69.2	-90.1	9.4
2025-01-21 09:31:56.794873	283.9	69.0	-89.9	7.9
2025-01-21 09:31:57.956041	282.4	68.9	-90.0	10.3
2025-01-21 09:31:59.121131	281.0	68.7	-90.1	10.1
2025-01-21 09:32:00.277159	279.7	68.4	-89.6	6.6
2025-01-21 09:32:01.439090	278.3	68.2	-89.6	10.6
2025-01-21 09:32:02.600715	277.0	68.0	-89.6	12.5
2025-01-21 09:32:03.767312	275.7	67.8	-89.6	8.3
2025-01-21 09:32:04.932035	274.5	67.5	-89.9	14.9
2025-01-21 09:32:06.091938	273.2	67.2	-89.7	13.3
2025-01-21 09:32:07.255878	272.0	67.0	-89.7	8.6
2025-01-21 09:32:08.420271	270.9	66.7	-90.0	14.1
2025-01-21 09:32:09.584714	269.8	66.4	-90.2	14.0
2025-01-21 09:32:10.741560	268.7	66.1	-89.9	12.4
2025-01-21 09:32:11.907881	267.6	65.8	-90.1	14.2
2025-01-21 09:32:13.067850	266.5	65.5	-90.0	10.3
2025-01-21 09:32:14.232092	265.5	65.2	-89.8	10.3
2025-01-21 09:32:15.395881	264.5	64.9	-89.9	13.5
2025-01-21 09:32:16.557606	263.6	64.6	-90.2	11.7
2025-01-21 09:32:17.720655	262.7	64.2	-90.1	4.4
2025-01-21 09:32:18.878329	261.8	63.9	-89.7	10.0
2025-01-21 09:32:20.036313	260.9	63.6	-89.8	8.1
2025-01-21 09:32:21.198647	260.0	63.2	-90.0	7.0
2025-01-21 09:32:22.362441	259.2	62.9	-90.0	10.9
2025-01-21 09:32:23.523358	258.4	62.6	-90.2	8.3
2025-01-21 09:32:24.687708	257.6	62.2	-90.3	8.1
2025-01-21 09:32:25.853602	256.8	61.9	-90.3	7.6
2025-01-21 09:32:27.024498	256.1	61.5	-90.3	8.4
2025-01-21 09:32:28.192184	255.4	61.1	-90.3	5.2
2025-01-21 09:32:29.355255	254.7	60.8	-90.0	7.5
2025-01-21 09:32:30.520009	254.0	60.4	-90.0	8.3
2025-01-21 09:32:31.680401	253.3	60.1	-90.1	5.4
2025-01-21 09:32:32.840066	252.7	59.7	-90.4	3.7
2025-01-21 09:32:33.996131	252.1	59.3	-90.3	5.5
2025-01-21 09:32:35.160304	251.5	59.0	-90.4	5.1
2025-01-21 09:32:36.327368	250.9	58.6	-89.6	5.1
2025-01-21 09:32:37.487435	250.3	58.3	-89.9	3.7
2025-01-21 09:32:38.650577	249.8	57.9	-89.9	3.9
2025-01-21 09:32:39.810060	249.2	57.5	-89.8	5.5
2025-01-21 09:32:40.970857	248.7	57.2	-90.0	4.5
2025-01-21 09:32:42.130473	248.2	56.8	-89.7	5.8
2025-01-21 09:32:43.293894	247.7	56.4	-89.6	8.0
2025-01-21 09:32:44.457659	247.2	56.1	-89.8	6.1
2025-01-21 09:32:45.625246	246.7	55.7	-89.7	9.4
2025-01-21 09:32:46.790199	246.2	55.3	-90.0	11.2
2025-01-21 09:32:47.950967	245.8	55.0	-90.4	10.3
2025-01-21 09:32:49.111726	245.4	54.6	-90.3	10.1
2025-01-21 09:32:50.277183	244.9	54.2	-90.0	14.5
2025-01-21 09:32:51.458015	244.5	53.9	-90.2	11.7
2025-01-21 09:32:52.621443	244.1	53.5	-90.1	8.8
2025-01-21 09:32:53.779916	243.7	53.2	-90.1	8.0
2025-01-21 09:32:54.942249	243.3	52.8	-90.2	8.0
2025-01-21 09:32:56.113107	242.9	52.4	-90.2	9.4
2025-01-21 09:32:57.280365	242.6	52.1	-90.1	6.8
2025-01-21 09:32:58.443795	242.2	51.7	-90.0	3.9
2025-01-21 09:32:59.606419	241.9	51.4	-90.0	3.2
2025-01-21 09:33:00.756391	241.5	51.0	-90.2	4.1
2025-01-21 09:33:01.893077	241.2	50.7	-90.2	1.8
2025-01-21 09:33:03.054212	240.9	50.3	-89.9	2.8
2025-01-21 09:33:04.220727	240.5	50.0	-90.0	4.8
2025-01-21 09:33:05.385129	240.2	49.7	-89.7	2.9
2025-01-21 09:33:06.553846	239.9	49.3	-90.1	2.3
2025-01-21 09:33:07.717529	239.6	49.0	-89.9	5.4
2025-01-21 09:33:08.881691	239.3	48.6	-90.0	1.5
2025-01-21 09:33:10.043353	239.0	48.3	-90.1	4.2
2025-01-21 09:33:11.217450	238.8	48.0	-90.1	7.9
2025-01-21 09:33:12.385829	238.5	47.6	-90.0	2.7
2025-01-21 09:33:13.546310	238.2	47.3	-89.8	3.8
2025-01-21 09:33:14.714054	238.0	47.0	-89.8	8.3
2025-01-21 09:33:15.876499	237.7	46.6	-89.8	10.0
2025-01-21 09:33:17.035565	237.5	46.3	-90.1	10.1
2025-01-21 09:33:18.192686	237.2	46.0	-89.9	11.6
2025-01-21 09:33:19.354462	237.0	45.7	-90.0	7.6
2025-01-21 09:33:20.513961	236.7	45.3	-89.9	11.9
2025-01-21 09:33:21.675593	236.5	45.0	-90.2	12.0
2025-01-21 09:33:22.839328	236.3	44.7	-90.0	10.0
2025-01-21 09:33:23.997774	236.1	44.4	-90.4	5.5
2025-01-21 09:33:25.156605	235.8	44.1	-90.0	5.7
2025-01-21 09:33:26.315725	235.6	43.8	-90.0	7.5
2025-01-21 09:33:27.476456	235.4	43.5	-90.3	8.0
2025-01-21 09:33:28.641792	235.2	43.2	-90.1	9.6
2025-01-21 09:33:29.817201	235.0	42.8	-90.2	8.1
2025-01-21 09:33:30.977742	234.8	42.5	-90.3	6.0
2025-01-21 09:33:32.140246	234.6	42.2	-89.8	9.5
2025-01-21 09:33:33.295334	234.4	41.9	-90.0	13.0
2025-01-21 09:33:34.461987	234.2	41.6	-90.1	7.1
2025-01-21 09:33:35.624042	234.1	41.4	-89.8	6.4
2025-01-21 09:33:36.789522	233.9	41.1	-89.9	11.7
2025-01-21 09:33:37.955487	233.7	40.8	-90.1	8.2
2025-01-21 09:33:39.116541	233.5	40.5	-90.2	12.2
2025-01-21 09:33:40.284630	233.4	40.2	-90.1	17.5
2025-01-21 09:33:41.446216	233.2	39.9	-90.0	16.0
2025-01-21 09:33:42.604220	233.0	39.6	-90.0	18.3
2025-01-21 09:33:43.765630	232.9	39.4	-90.2	14.8
2025-01-21 09:33:44.928895	232.7	39.1	-90.2	14.8
2025-01-21 09:33:46.089978	232.6	38.8	-89.9	13.0
2025-01-21 09:33:47.252706	232.4	38.5	-89.6	14.8
2025-01-21 09:33:48.420317	232.2	38.3	-90.0	10.5
2025-01-21 09:33:49.584477	232.1	38.0	-90.3	9.0
2025-01-21 09:33:50.749693	232.0	37.7	-90.3	16.6
2025-01-21 09:33:51.911724	231.8	37.4	-90.4	9.8
2025-01-21 09:33:53.073438	231.7	37.2	-90.2	6.3
2025-01-21 09:33:54.237048	231.5	36.9	-89.9	13.2
2025-01-21 09:33:55.407027	231.4	36.7	-89.9	11.3
2025-01-21 09:33:56.570268	231.3	36.4	-89.9	11.8
2025-01-21 09:33:57.728191	231.1	36.1	-89.8	14.2
2025-01-21 09:33:58.895796	231.0	35.9	-90.3	12.2
2025-01-21 09:34:00.059971	230.9	35.6	-90.2	13.6
2025-01-21 09:34:01.216422	230.7	35.4	-90.1	13.5
2025-01-21 09:34:02.378592	230.6	35.1	-90.0	15.0
2025-01-21 09:34:03.541938	230.5	34.9	-90.0	12.5
2025-01-21 09:34:04.703965	230.4	34.6	-90.1	14.5
2025-01-21 09:34:05.867691	230.3	34.4	-90.0	13.1
2025-01-21 09:34:07.035917	230.1	34.1	-90.0	6.2
2025-01-21 09:34:08.196053	230.0	33.9	-90.0	14.1
2025-01-21 09:34:09.364658	229.9	33.7	-90.1	12.0
2025-01-21 09:34:10.524539	229.8	33.4	-90.1	7.1
2025-01-21 09:34:11.692917	229.7	33.2	-90.3	13.2
2025-01-21 09:34:12.853295	229.6	33.0	-90.1	11.3
2025-01-21 09:34:14.012634	229.5	32.7	-90.0	8.8
2025-01-21 09:34:15.176586	229.4	32.5	-90.2	13.0
2025-01-21 09:34:16.338467	229.3	32.3	-90.4	13.8
2025-01-21 09:34:17.501403	229.2	32.0	-90.0	13.6
2025-01-21 09:34:18.669932	229.1	31.8	-90.3	14.0
2025-01-21 09:34:19.832356	229.0	31.6	-90.6	14.7
2025-01-21 09:34:20.993953	228.9	31.4	-90.1	11.7
2025-01-21 09:34:22.162121	228.8	31.1	-90.2	12.8
2025-01-21 09:34:23.321150	228.7	30.9	-90.4	14.2
2025-01-21 09:34:24.488197	228.6	30.7	-90.1	7.3
2025-01-21 09:34:25.651242	228.5	30.5	-90.2	11.5
2025-01-21 09:34:26.814212	228.4	30.3	-90.1	9.7
2025-01-21 09:34:27.980593	228.3	30.1	-89.8	5.9
2025-01-21 09:34:29.142753	228.2	29.8	-90.0	6.6
2025-01-21 09:34:30.306454	228.2	29.6	-89.7	4.9
2025-01-21 09:34:31.466774	228.1	29.4	-90.1	2.9
2025-01-21 09:34:32.632356	228.0	29.2	-90.0	3.2
2025-01-21 09:34:33.790016	227.9	29.0	-89.8	1.9
2025-01-21 09:34:34.949592	227.8	28.8	-90.2	1.6
2025-01-21 09:34:36.115306	227.7	28.6	-90.0	2.8
2025-01-21 09:34:37.279468	227.7	28.4	-90.1	3.3
2025-01-21 09:34:38.443240	227.6	28.2	-90.5	0.9
2025-01-21 09:34:39.605157	227.5	28.0	-90.7	3.9
2025-01-21 09:34:40.764528	227.4	27.8	-90.4	4.5
2025-01-21 09:34:41.924677	227.3	27.6	-90.6	4.1
2025-01-21 09:34:43.082457	227.3	27.4	-90.2	1.6
2025-01-21 09:34:44.241482	227.2	27.2	-90.5	3.7
2025-01-21 09:34:45.405043	227.1	27.0	-90.5	3.5
2025-01-21 09:34:46.569542	227.0	26.8	-90.5	3.5
2025-01-21 09:34:47.735875	227.0	26.6	-90.9	1.3
2025-01-21 09:34:48.899124	226.9	26.5	-90.9	2.1
2025-01-21 09:34:50.060177	226.8	26.3	-90.9	3.1
2025-01-21 09:34:51.222032	226.8	26.1	-90.6	3.4
2025-01-21 09:34:52.380422	226.7	25.9	-90.7	5.5
2025-01-21 09:34:53.542220	226.6	25.7	-90.8	3.5
2025-01-21 09:34:54.705300	226.6	25.5	-90.9	6.0
2025-01-21 09:34:55.866391	226.5	25.4	-90.4	4.6
2025-01-21 09:34:57.028857	226.4	25.2	-90.6	4.0
2025-01-21 09:34:58.191573	226.4	25.0	-90.3	5.5
2025-01-21 09:34:59.354709	226.3	24.8	-90.4	5.6
2025-01-21 09:35:00.512964	226.2	24.6	-90.8	5.4
2025-01-21 09:35:01.677332	226.2	24.5	-90.6	6.5
2025-01-21 09:35:02.831227	226.1	24.3	-90.2	8.4
2025-01-21 09:35:03.986862	226.1	24.1	-90.8	6.0
2025-01-21 09:35:05.148706	226.0	23.9	-90.3	8.3
2025-01-21 09:35:06.317167	225.9	23.8	-90.3	9.5
2025-01-21 09:35:07.484991	225.9	23.6	-90.8	6.2
2025-01-21 09:35:08.654624	225.8	23.4	-90.6	8.6
2025-01-21 09:35:09.815862	225.8	23.3	-90.5	8.2
2025-01-21 09:35:10.977614	225.7	23.1	-90.6	3.5
2025-01-21 09:35:12.145634	225.7	22.9	-90.4	6.9
2025-01-21 09:35:13.314221	225.6	22.8	-90.4	7.4
2025-01-21 09:35:14.468164	225.5	22.6	-90.4	7.3
2025-01-21 09:35:15.628611	225.5	22.4	-90.2	8.0
2025-01-21 09:35:16.791721	225.4	22.3	-90.1	10.5
2025-01-21 09:35:17.948955	225.4	22.1	-90.4	12.3
2025-01-21 09:35:19.111509	225.3	22.0	-89.9	8.0
2025-01-21 09:35:20.266736	225.3	21.8	-89.9	11.1
2025-01-21 09:35:21.433414	225.2	21.6	-89.9	6.3
2025-01-21 09:35:22.594515	225.2	21.5	-90.4	5.3
2025-01-21 09:35:23.756174	225.1	21.3	-90.4	9.1
2025-01-21 09:35:24.915042	225.1	21.2	-90.2	8.3
2025-01-21 09:35:26.076995	225.0	21.0	-90.0	6.4
2025-01-21 09:35:27.241070	225.0	20.9	-90.0	8.2
2025-01-21 09:35:28.400394	224.9	20.7	-89.7	6.1
2025-01-21 09:35:29.564131	224.9	20.6	-89.7	6.3
2025-01-21 09:35:30.726342	224.8	20.4	-89.6	6.7
2025-01-21 09:35:31.888784	224.8	20.3	-89.7	6.6
2025-01-21 09:35:33.051640	224.8	20.1	-90.0	7.0
2025-01-21 09:35:34.211142	224.7	20.0	-89.7	5.9
2025-01-21 09:35:35.370885	224.7	19.8	-89.7	5.8
2025-01-21 09:35:36.535095	224.6	19.7	-89.7	2.4
2025-01-21 09:35:37.697123	224.6	19.5	-90.1	6.2
2025-01-21 09:35:38.860953	224.5	19.4	-90.2	7.0
2025-01-21 09:35:40.024718	224.5	19.2	-90.0	5.0
2025-01-21 09:35:41.189278	224.4	19.1	-89.7	7.3
2025-01-21 09:35:42.353022	224.4	18.9	-89.6	6.3
2025-01-21 09:35:43.500662	224.4	18.8	-89.9	5.6
2025-01-21 09:35:44.658345	224.3	18.7	-89.7	7.3
2025-01-21 09:35:45.826072	224.3	18.5	-89.6	8.4
2025-01-21 09:35:46.994094	224.2	18.4	-89.8	5.6
2025-01-21 09:35:48.157559	224.2	18.2	-89.4	6.9
2025-01-21 09:35:49.314327	224.2	18.1	-89.8	6.8
2025-01-21 09:35:50.475165	224.1	18.0	-89.7	3.3
2025-01-21 09:35:51.638866	224.1	17.8	-89.3	5.4
2025-01-21 09:35:52.802425	224.0	17.7	-89.3	6.2
2025-01-21 09:35:53.961625	224.0	17.6	-89.6	4.5
2025-01-21 09:35:55.103988	224.0	17.4	-89.6	6.3
2025-01-21 09:35:56.264097	223.9	17.3	-89.5	5.7
2025-01-21 09:35:57.432136	223.9	17.2	-89.7	7.3
2025-01-21 09:35:58.595026	223.9	17.0	-89.5	5.3
2025-01-21 09:35:59.756658	223.8	16.9	-89.0	5.2
2025-01-21 09:36:00.917531	223.8	16.8	-89.1	7.0
2025-01-21 09:36:02.075397	223.7	16.6	-89.5	6.0
2025-01-21 09:36:03.239686	223.7	16.5	-89.4	7.3
2025-01-21 09:36:04.394210	223.7	16.4	-89.1	4.6
2025-01-21 09:36:05.552261	223.6	16.3	-89.0	2.7
2025-01-21 09:36:06.716810	223.6	16.1	-89.4	4.0
2025-01-21 09:36:07.886509	223.6	16.0	-89.4	5.4
2025-01-21 09:36:09.051197	223.5	15.9	-87.3	5.2
2025-01-21 09:36:10.215320	223.5	15.8	-89.3	4.7
2025-01-21 09:36:11.375254	223.5	15.6	-89.1	5.9
2025-01-21 09:36:12.534974	223.4	15.5	-89.2	4.6
2025-01-21 09:36:13.690150	223.4	15.4	-89.8	3.3
2025-01-21 09:36:14.848305	223.4	15.3	-89.8	4.9
2025-01-21 09:36:16.017775	223.3	15.1	-89.5	2.3
2025-01-21 09:36:17.177316	223.3	15.0	-89.6	3.3
2025-01-21 09:36:18.341077	223.3	14.9	-89.6	3.0
2025-01-21 09:36:19.500176	223.3	14.8	-89.7	2.7
2025-01-21 09:36:20.660300	223.2	14.7	-89.5	3.9
2025-01-21 09:36:21.822934	223.2	14.5	-89.6	3.3
#Closed at: 2025-01-21 09:27:11.602946