passes_logs/2026/01/14/R4.6S_Anadyr/R4.6S_Anadyr__20260114_012943_AQUA_rec.log

#Pass ID: 20260114_012943_AQUA
#Satellite: AQUA
#Configuration: AQUA
#almurnet v.1.7.20251203
#Start time: 2026-01-14 01:29:46

#Version: 2.2.20231116
#Station: R4.6S_Anadyr
#Location: 177.4865 lon 64.73178 lat
#TLE: 1 27424U 02022A   26013.58555111  .00000773  00000+0  16469-3 0  9993
#TLE: 2 27424  98.4079 339.9892 0002045  80.0365 334.6894 14.61818766260681

#Time	Az	El	Level	Level2	SNR	BER	BlckErr	Temp	State	Recorded	gain1	gain2
2026-01-14 01:29:46.57	144.65	0.21	-48.8	-65.3	3.3	7.68e-01	0	26	0	0	60	70626
2026-01-14 01:29:47.58	144.64	0.27	-48.9	-66.8	3.5	7.68e-01	0	26	104	0	60	84470
2026-01-14 01:29:48.59	144.63	0.34	-49.0	-66.9	3.5	7.68e-01	0	26	104	0	60	85169
2026-01-14 01:29:49.60	144.61	0.40	-49.0	-66.9	3.5	7.68e-01	0	26	104	0	60	84949
2026-01-14 01:29:50.61	144.60	0.46	-48.9	-66.9	3.5	7.68e-01	0	26	104	0	60	85375
2026-01-14 01:29:51.62	144.59	0.53	-48.9	-66.8	3.5	7.68e-01	0	26	104	0	60	84328
2026-01-14 01:29:52.63	144.57	0.59	-48.8	-66.7	3.5	7.68e-01	0	26	104	0	60	83232
2026-01-14 01:29:53.64	144.56	0.65	-48.7	-66.6	3.5	7.68e-01	0	26	104	0	60	82150
2026-01-14 01:29:54.65	144.54	0.72	-48.6	-66.5	3.5	7.68e-01	0	26	104	0	60	81366
2026-01-14 01:29:55.66	144.53	0.78	-48.4	-66.3	3.5	7.68e-01	0	26	104	0	60	79760
2026-01-14 01:29:56.67	144.52	0.85	-48.2	-66.1	3.5	7.68e-01	0	26	104	0	60	78012
2026-01-14 01:29:57.68	144.50	0.91	-47.9	-65.7	3.5	7.68e-01	0	26	104	0	60	74493
2026-01-14 01:29:58.69	144.49	0.97	-47.5	-65.4	3.5	7.68e-01	0	26	104	0	60	72051
2026-01-14 01:29:59.70	144.47	1.04	-46.8	-64.5	3.5	7.68e-01	0	26	104	0	60	64516
2026-01-14 01:30:00.71	144.46	1.10	-46.8	-64.7	3.5	7.68e-01	0	26	104	0	60	66332
2026-01-14 01:30:01.72	144.44	1.17	-46.8	-64.7	3.5	7.68e-01	0	26	104	0	60	66138
2026-01-14 01:30:02.73	144.43	1.23	-46.8	-64.8	3.5	7.68e-01	0	26	104	0	60	66843
2026-01-14 01:30:03.74	144.42	1.30	-46.8	-64.7	3.5	7.68e-01	0	26	104	0	60	65971
2026-01-14 01:30:04.75	144.40	1.36	-46.8	-64.6	3.5	7.68e-01	0	26	104	0	60	65284
2026-01-14 01:30:05.76	144.39	1.43	-46.8	-64.3	3.5	7.68e-01	0	26	104	0	60	62934
2026-01-14 01:30:06.77	144.37	1.49	-46.8	-64.4	3.5	7.68e-01	0	26	104	0	60	63666
2026-01-14 01:30:07.78	144.36	1.56	-46.8	-64.3	3.5	7.68e-01	0	26	104	0	60	63323
2026-01-14 01:30:08.79	144.34	1.63	-46.8	-64.4	3.5	7.68e-01	0	26	104	0	60	63911
2026-01-14 01:30:09.80	144.33	1.69	-46.8	-64.3	3.5	7.68e-01	0	26	104	0	60	62964
2026-01-14 01:30:10.81	144.31	1.76	-46.8	-64.5	3.5	7.68e-01	0	26	104	0	60	64890
2026-01-14 01:30:11.82	144.29	1.82	-46.8	-64.5	3.5	7.68e-01	0	26	104	0	60	64613
2026-01-14 01:30:12.83	144.28	1.89	-46.8	-64.7	3.5	7.68e-01	0	26	104	0	60	66174
2026-01-14 01:30:13.84	144.26	1.96	-46.8	-64.7	3.5	7.68e-01	0	26	104	0	60	66485
2026-01-14 01:30:14.85	144.25	2.02	-46.8	-64.8	3.5	7.68e-01	0	26	104	0	60	66627
2026-01-14 01:30:15.86	144.23	2.09	-46.8	-64.7	3.5	7.68e-01	0	26	104	0	60	66339
2026-01-14 01:30:16.87	144.22	2.16	-46.8	-64.7	3.5	7.68e-01	0	26	104	0	60	66223
2026-01-14 01:30:17.88	144.20	2.23	-46.8	-64.7	3.5	7.68e-01	0	26	104	0	60	66311
2026-01-14 01:30:18.89	144.19	2.29	-46.8	-64.7	3.5	7.68e-01	0	26	104	0	60	65837
2026-01-14 01:30:19.90	144.17	2.36	-46.8	-64.7	3.5	7.68e-01	0	26	104	0	60	65789
2026-01-14 01:30:20.91	144.15	2.43	-46.8	-64.6	3.5	7.68e-01	0	26	104	0	60	65425
2026-01-14 01:30:21.92	144.14	2.50	-46.8	-64.5	3.5	7.68e-01	0	26	104	0	60	64782
2026-01-14 01:30:22.93	144.12	2.57	-46.8	-64.5	3.5	7.68e-01	0	26	104	0	60	64449
2026-01-14 01:30:23.94	144.10	2.63	-46.8	-64.5	3.5	7.68e-01	0	26	104	0	60	64290
2026-01-14 01:30:24.95	144.09	2.70	-46.7	-64.6	3.5	7.68e-01	0	26	104	0	60	65065
2026-01-14 01:30:25.96	144.07	2.77	-46.8	-64.6	3.5	7.68e-01	0	26	104	0	60	65510
2026-01-14 01:30:26.97	144.05	2.84	-46.8	-64.7	3.5	7.68e-01	0	26	104	0	60	65784
2026-01-14 01:30:27.98	144.04	2.91	-46.8	-64.7	3.5	7.68e-01	0	26	104	0	60	66236
2026-01-14 01:30:28.99	144.02	2.98	-46.8	-64.6	3.5	7.68e-01	0	26	104	0	60	65583
2026-01-14 01:30:30.00	144.00	3.05	-46.7	-64.0	3.5	7.68e-01	0	26	104	0	60	60682
2026-01-14 01:30:31.01	143.99	3.12	-46.7	-62.3	3.6	7.68e-01	0	26	104	0	60	49990
2026-01-14 01:30:32.02	143.97	3.19	-46.5	-59.2	5.2	7.68e-01	11	26	0	0	60	35232
2026-01-14 01:30:33.03	143.95	3.26	-46.3	-55.7	7.7	7.68e-01	92	26	0	1048576	60	23472
2026-01-14 01:30:34.04	143.93	3.33	-45.9	-53.4	10.4	7.68e-01	90	26	0	3145728	60	18088
2026-01-14 01:30:35.05	143.92	3.40	-45.3	-51.5	12.7	7.68e-01	92	26	0	5242880	60	14386
2026-01-14 01:30:36.06	143.90	3.47	-44.6	-49.5	14.7	7.68e-01	90	26	0	6815744	60	11465
2026-01-14 01:30:37.07	143.88	3.54	-44.0	-48.2	16.1	7.68e-01	91	26	0	8912896	60	9842
2026-01-14 01:30:38.08	143.86	3.61	-43.5	-47.2	17.1	7.68e-01	90	26	0	11010048	60	8796
2026-01-14 01:30:39.09	143.84	3.69	-43.0	-46.2	18.0	7.68e-01	91	26	0	12582912	60	7884
2026-01-14 01:30:40.10	143.83	3.76	-42.7	-45.8	18.5	7.68e-01	90	26	0	14680064	60	7478
2026-01-14 01:30:41.11	143.81	3.83	-42.8	-45.9	18.4	7.68e-01	90	26	0	16252928	60	7548
2026-01-14 01:30:42.12	143.79	3.90	-46.8	-63.0	3.7	7.68e-01	0	26	104	17301504	60	54100
2026-01-14 01:30:43.13	143.77	3.97	-39.8	-41.7	22.8	7.68e-01	92	26	0	17825792	54	6631
2026-01-14 01:30:44.14	143.75	4.05	-46.3	-57.8	6.3	7.68e-01	12	26	104	18874368	60	29909
2026-01-14 01:30:45.15	143.73	4.12	-46.0	-53.8	11.5	7.68e-01	91	26	0	19398656	60	18775
2026-01-14 01:30:46.16	143.71	4.19	-45.2	-51.2	13.3	7.68e-01	91	27	0	20971520	60	14042
2026-01-14 01:30:47.17	143.70	4.26	-41.5	-44.1	20.1	7.68e-01	89	26	0	23068672	58	6903
2026-01-14 01:30:48.18	143.68	4.34	-41.2	-43.6	20.8	7.68e-01	91	26	0	24641536	58	6532
2026-01-14 01:30:49.19	143.66	4.41	-40.5	-42.7	21.7	7.68e-01	90	26	0	26738688	56	6598
2026-01-14 01:30:50.20	143.64	4.48	-40.2	-42.3	22.1	7.68e-01	92	26	0	28835840	56	6298
2026-01-14 01:30:51.21	143.62	4.56	-40.0	-42.1	22.5	7.68e-01	90	26	0	30408704	56	6143
2026-01-14 01:30:52.22	143.60	4.63	-39.1	-40.9	23.4	7.68e-01	92	26	0	32505856	54	6051
2026-01-14 01:30:53.23	143.58	4.71	-38.8	-40.5	23.9	7.68e-01	87	26	0	34078720	52	6473
2026-01-14 01:30:54.24	143.56	4.78	-38.8	-40.5	23.9	7.68e-01	92	26	0	36175872	52	6463
2026-01-14 01:30:55.25	143.54	4.86	-38.7	-40.5	24.0	7.68e-01	92	26	0	38273024	52	6434
2026-01-14 01:30:56.26	143.52	4.93	-38.7	-40.5	24.0	7.68e-01	92	26	0	39845888	52	6428
2026-01-14 01:30:57.27	143.50	5.01	-38.8	-40.5	23.9	7.68e-01	90	26	0	41943040	52	6487
2026-01-14 01:30:58.28	143.48	5.08	-38.8	-40.5	24.0	7.68e-01	92	26	0	44040192	52	6446
2026-01-14 01:30:59.29	143.46	5.16	-38.8	-40.5	24.0	7.68e-01	92	26	0	45613056	52	6496
2026-01-14 01:31:00.30	143.44	5.23	-38.8	-40.5	23.9	7.68e-01	92	26	0	47710208	52	6450
2026-01-14 01:31:01.31	143.42	5.31	-38.6	-40.3	24.2	7.68e-01	92	26	0	49283072	52	6320
2026-01-14 01:31:02.32	143.40	5.39	-38.7	-40.4	24.0	7.68e-01	90	27	0	51380224	52	6410
2026-01-14 01:31:03.33	143.38	5.46	-38.6	-40.4	24.1	7.68e-01	90	26	0	53477376	52	6355
2026-01-14 01:31:04.34	143.35	5.54	-38.5	-40.3	24.1	7.68e-01	92	26	0	55050240	52	6298
2026-01-14 01:31:05.35	143.33	5.62	-38.7	-40.4	24.1	7.68e-01	92	26	0	57147392	52	6421
2026-01-14 01:31:06.36	143.31	5.70	-38.6	-40.3	24.2	7.68e-01	92	26	0	58720256	52	6319
2026-01-14 01:31:07.37	143.29	5.77	-38.6	-40.3	24.2	7.68e-01	92	27	0	60817408	52	6318
2026-01-14 01:31:08.38	143.27	5.85	-38.7	-40.5	24.0	7.68e-01	92	27	0	62914560	52	6443
2026-01-14 01:31:09.39	143.25	5.93	-38.6	-40.4	24.2	7.68e-01	87	26	0	64487424	52	6367
2026-01-14 01:31:10.40	143.22	6.01	-38.6	-40.3	24.2	7.68e-01	92	27	0	66584576	52	6338
2026-01-14 01:31:11.41	143.20	6.09	-38.6	-40.3	24.3	7.68e-01	92	26	0	68681728	52	6297
2026-01-14 01:31:12.42	143.18	6.17	-38.6	-40.3	24.3	7.68e-01	92	27	0	70254592	52	6304
2026-01-14 01:31:13.43	143.16	6.25	-38.6	-40.3	24.3	7.68e-01	92	27	0	72351744	52	6312
2026-01-14 01:31:14.44	143.13	6.33	-38.4	-40.0	24.5	7.68e-01	92	27	0	73924608	52	6127
2026-01-14 01:31:15.45	143.11	6.41	-38.5	-40.1	24.5	7.68e-01	92	26	0	76021760	52	6183
2026-01-14 01:31:16.45	143.09	6.49	-38.6	-40.3	24.2	7.68e-01	92	26	0	78118912	52	6317
2026-01-14 01:31:17.47	143.07	6.57	-38.4	-40.0	24.6	7.68e-01	92	26	0	79691776	52	6106
2026-01-14 01:31:18.48	143.04	6.65	-38.3	-39.9	24.6	7.68e-01	91	27	0	81788928	52	6049
2026-01-14 01:31:19.49	143.02	6.73	-38.2	-39.8	24.8	7.68e-01	92	26	0	83886080	52	5937
2026-01-14 01:31:20.50	143.00	6.81	-38.1	-39.7	24.9	7.68e-01	90	27	0	85458944	52	5899
2026-01-14 01:31:21.51	142.97	6.89	-38.2	-39.8	24.8	7.68e-01	92	27	0	87556096	52	5957
2026-01-14 01:31:22.52	142.95	6.97	-38.2	-39.9	24.6	7.68e-01	92	27	0	89128960	52	6022
2026-01-14 01:31:23.53	142.92	7.05	-38.1	-39.8	24.9	7.68e-01	92	27	0	91226112	52	5932
2026-01-14 01:31:24.53	142.90	7.14	-38.0	-39.5	23.8	7.68e-01	90	26	0	93323264	52	5786
2026-01-14 01:31:25.54	142.87	7.22	-37.8	-39.4	25.2	7.68e-01	92	26	0	94896128	50	6385
2026-01-14 01:31:26.56	142.85	7.30	-37.8	-39.4	25.2	7.68e-01	90	26	0	96993280	50	6372
2026-01-14 01:31:27.56	142.83	7.39	-37.8	-39.3	25.4	7.68e-01	92	26	0	98566144	50	6326
2026-01-14 01:31:28.57	142.80	7.47	-37.8	-39.3	25.3	7.68e-01	92	26	0	100663296	50	6334
2026-01-14 01:31:29.58	142.78	7.55	-37.6	-39.1	25.6	7.68e-01	92	26	0	102760448	50	6178
2026-01-14 01:31:30.59	142.75	7.64	-37.6	-39.1	25.5	7.68e-01	92	27	0	104333312	50	6180
2026-01-14 01:31:31.60	142.72	7.72	-37.6	-39.1	25.6	7.68e-01	89	26	0	106430464	50	6152
2026-01-14 01:31:32.61	142.70	7.81	-37.5	-39.1	25.7	7.68e-01	92	27	0	108003328	50	6140
2026-01-14 01:31:33.62	142.67	7.89	-37.4	-38.9	25.8	7.68e-01	92	26	0	110100480	50	6014
2026-01-14 01:31:34.63	142.65	7.98	-37.4	-38.9	25.8	7.68e-01	91	26	0	112197632	50	6018
2026-01-14 01:31:35.64	142.62	8.06	-37.3	-38.7	26.0	7.68e-01	92	27	0	113770496	50	5893
2026-01-14 01:31:36.65	142.59	8.15	-37.3	-38.8	25.9	7.68e-01	90	27	0	115867648	50	5965
2026-01-14 01:31:37.66	142.57	8.24	-37.5	-39.0	25.8	7.68e-01	92	27	0	117440512	50	6128
2026-01-14 01:31:38.67	142.54	8.32	-37.2	-38.7	26.1	7.68e-01	91	27	0	119537664	50	5894
2026-01-14 01:31:39.68	142.51	8.41	-37.1	-38.6	26.1	7.68e-01	90	27	0	121634816	50	5817
2026-01-14 01:31:40.69	142.49	8.50	-37.1	-38.5	26.2	7.68e-01	92	27	0	123207680	50	5788
2026-01-14 01:31:41.70	142.46	8.58	-37.1	-38.5	26.3	7.68e-01	90	27	0	125304832	50	5757
2026-01-14 01:31:42.71	142.43	8.67	-37.1	-38.5	26.2	7.68e-01	92	27	0	126877696	50	5785
2026-01-14 01:31:43.72	142.40	8.76	-37.0	-38.5	26.3	7.68e-01	92	27	0	128974848	50	5735
2026-01-14 01:31:44.72	142.38	8.85	-36.9	-38.3	26.4	7.68e-01	91	27	0	131072000	48	6350
2026-01-14 01:31:45.73	142.35	8.94	-37.0	-38.5	26.3	7.68e-01	90	27	0	132644864	48	6426
2026-01-14 01:31:46.74	142.32	9.03	-36.9	-38.4	26.4	7.68e-01	92	27	0	134742016	48	6366
2026-01-14 01:31:47.75	142.29	9.12	-36.9	-38.3	26.5	7.68e-01	90	26	0	136839168	48	6334
2026-01-14 01:31:48.76	142.26	9.21	-37.0	-38.4	26.3	7.68e-01	91	27	0	138412032	48	6400
2026-01-14 01:31:49.77	142.23	9.30	-36.9	-38.4	26.3	7.68e-01	91	27	0	140509184	48	6365
2026-01-14 01:31:50.78	142.20	9.39	-37.0	-38.4	26.3	7.68e-01	91	27	0	142082048	48	6372
2026-01-14 01:31:51.79	142.18	9.48	-36.9	-38.3	26.4	7.68e-01	92	27	0	144179200	48	6328
2026-01-14 01:31:52.80	142.15	9.57	-36.9	-38.3	26.4	7.68e-01	92	26	0	146276352	48	6320
2026-01-14 01:31:53.81	142.12	9.66	-36.9	-38.3	26.4	7.68e-01	90	27	0	147849216	48	6327
2026-01-14 01:31:54.82	142.09	9.76	-37.3	-47.6	3.6	7.68e-01	0	27	104	148897792	48	18476
2026-01-14 01:31:55.83	142.06	9.85	-37.3	-47.7	3.6	7.68e-01	0	27	104	148897792	48	18561
2026-01-14 01:31:56.84	142.02	9.94	-37.2	-47.6	3.6	7.68e-01	0	27	104	148897792	48	18401
2026-01-14 01:31:57.85	141.99	10.03	-37.6	-48.0	3.6	7.68e-01	0	27	104	148897792	48	19261
2026-01-14 01:31:58.85	141.96	10.13	-39.4	-50.0	3.4	7.68e-01	0	27	104	148897792	50	21536
2026-01-14 01:31:59.87	141.93	10.22	-46.7	-62.8	3.5	7.68e-01	0	27	104	148897792	60	52833
2026-01-14 01:32:00.88	141.90	10.32	-46.7	-63.9	3.5	7.68e-01	0	27	104	148897792	60	60350
2026-01-14 01:32:01.89	141.87	10.41	-40.4	-51.3	3.7	7.68e-01	0	27	104	148897792	50	25095
2026-01-14 01:32:02.90	141.84	10.51	-38.4	-48.9	3.5	7.68e-01	0	27	104	148897792	52	17035
2026-01-14 01:32:03.91	141.80	10.60	-37.9	-48.4	3.3	7.68e-01	0	27	104	148897792	52	16122
2026-01-14 01:32:04.92	141.77	10.70	-38.0	-48.4	3.6	7.68e-01	0	27	104	148897792	50	18041
2026-01-14 01:32:05.93	141.74	10.80	-37.5	-47.9	3.6	7.68e-01	0	27	104	148897792	50	17048
2026-01-14 01:32:06.94	141.71	10.89	-39.7	-50.6	3.5	7.68e-01	0	27	104	148897792	52	20586
2026-01-14 01:32:07.95	141.67	10.99	-40.7	-51.8	3.6	7.68e-01	0	27	104	148897792	54	21216
2026-01-14 01:32:08.96	141.64	11.09	-46.5	-63.1	3.5	7.68e-01	0	27	104	148897792	60	54972
2026-01-14 01:32:09.97	141.60	11.19	-46.7	-64.7	3.5	7.68e-01	0	27	104	148897792	60	65815
2026-01-14 01:32:10.98	141.57	11.29	-43.2	-55.1	3.8	7.68e-01	0	27	104	148897792	58	24518
2026-01-14 01:32:11.99	141.54	11.39	-40.6	-51.6	4.0	7.68e-01	0	27	104	148897792	56	18373
2026-01-14 01:32:13.00	141.50	11.49	-39.9	-50.6	3.6	7.68e-01	0	27	104	148897792	56	16496
2026-01-14 01:32:14.01	141.47	11.59	-38.6	-49.3	3.5	7.68e-01	0	27	104	148897792	52	17860
2026-01-14 01:32:15.02	141.43	11.69	-37.7	-48.3	3.5	7.68e-01	0	27	104	148897792	50	17846
2026-01-14 01:32:16.03	141.40	11.79	-38.5	-49.2	3.5	7.68e-01	0	27	104	148897792	50	19829
2026-01-14 01:32:17.04	141.36	11.89	-44.3	-57.1	3.5	7.68e-01	0	27	104	148897792	60	27573
2026-01-14 01:32:18.05	141.32	11.99	-46.5	-63.5	3.5	7.68e-01	0	27	104	148897792	60	57291
2026-01-14 01:32:19.06	141.29	12.09	-40.1	-51.1	3.5	7.68e-01	0	27	104	148897792	56	17449
2026-01-14 01:32:20.07	141.25	12.20	-46.4	-63.1	3.5	7.68e-01	0	27	104	148897792	60	55128
2026-01-14 01:32:21.08	141.21	12.30	-39.6	-50.5	3.5	7.68e-01	0	27	104	148897792	56	16168
2026-01-14 01:32:22.09	141.18	12.40	-38.2	-48.9	3.5	7.68e-01	0	27	104	148897792	52	16917
2026-01-14 01:32:23.10	141.14	12.51	-37.5	-48.1	3.5	7.68e-01	0	27	104	148897792	50	17380
2026-01-14 01:32:24.11	141.10	12.61	-37.4	-48.0	3.5	7.68e-01	0	27	104	148897792	50	17202
2026-01-14 01:32:25.12	141.06	12.72	-45.4	-59.0	3.5	7.68e-01	0	27	104	148897792	60	34423
2026-01-14 01:32:26.13	141.03	12.82	-40.2	-51.1	3.5	7.68e-01	0	27	104	148897792	56	17351
2026-01-14 01:32:27.14	140.99	12.93	-47.0	-63.1	3.5	7.68e-01	0	27	104	148897792	60	55038
2026-01-14 01:32:28.15	140.95	13.04	-47.8	-65.3	3.5	7.68e-01	0	27	104	148897792	60	70970
2026-01-14 01:32:29.16	140.91	13.14	-40.6	-51.7	3.5	7.68e-01	0	27	104	148897792	52	23421
2026-01-14 01:32:30.17	140.87	13.25	-36.5	-46.9	3.5	7.68e-01	0	27	104	148897792	48	17027
2026-01-14 01:32:31.18	140.83	13.36	-36.1	-46.5	3.5	7.68e-01	0	27	104	148897792	48	16171
2026-01-14 01:32:32.19	140.79	13.47	-36.0	-46.3	3.5	7.68e-01	0	27	104	148897792	46	17879
2026-01-14 01:32:33.20	140.75	13.58	-35.8	-46.1	3.5	7.68e-01	0	27	104	148897792	46	17431
2026-01-14 01:32:34.21	140.71	13.69	-36.9	-47.2	3.5	7.68e-01	0	27	104	148897792	48	17687
2026-01-14 01:32:35.22	140.66	13.80	-42.3	-53.6	3.5	7.68e-01	0	27	104	148897792	58	20643
2026-01-14 01:32:36.23	140.62	13.91	-48.3	-66.1	3.5	7.68e-01	0	27	104	148897792	60	77821
2026-01-14 01:32:37.23	140.58	14.02	-41.9	-52.9	3.5	7.68e-01	0	27	104	148897792	60	17022
2026-01-14 01:32:38.24	140.54	14.13	-47.8	-64.2	3.5	7.68e-01	0	27	104	148897792	60	62535
2026-01-14 01:32:39.25	140.49	14.24	-40.1	-50.8	3.6	7.68e-01	0	27	104	148897792	56	16794
2026-01-14 01:32:40.26	140.45	14.36	-39.0	-49.5	3.5	7.68e-01	0	27	104	148897792	54	16321
2026-01-14 01:32:41.27	140.41	14.47	-37.4	-47.8	3.5	7.68e-01	0	27	104	148897792	50	16808
2026-01-14 01:32:42.28	140.36	14.58	-36.4	-46.7	3.5	7.68e-01	0	27	104	148897792	48	16696
2026-01-14 01:32:43.29	140.32	14.70	-37.9	-48.3	3.5	7.68e-01	0	27	104	148897792	52	15854
2026-01-14 01:32:44.30	140.27	14.81	-39.8	-50.5	3.5	7.68e-01	0	27	104	148897792	56	16191
2026-01-14 01:32:45.31	140.23	14.93	-48.2	-65.7	3.5	7.68e-01	0	27	104	148897792	60	74599
2026-01-14 01:32:46.33	140.18	15.05	-37.3	-47.6	3.5	7.68e-01	0	27	104	148897792	52	14636
2026-01-14 01:32:47.34	140.14	15.17	-47.7	-63.0	3.5	7.68e-01	0	27	104	148897792	60	54480
2026-01-14 01:32:48.35	140.09	15.28	-36.3	-46.6	3.5	7.68e-01	0	27	104	148897792	48	16457
2026-01-14 01:32:49.36	140.04	15.40	-35.6	-45.9	3.5	7.68e-01	0	27	104	148897792	46	17009
2026-01-14 01:32:50.37	140.00	15.52	-35.5	-45.8	3.5	7.68e-01	0	27	104	148897792	46	16797
2026-01-14 01:32:51.38	139.95	15.64	-34.8	-45.0	3.5	7.68e-01	0	27	104	148897792	44	17270
2026-01-14 01:32:52.39	139.90	15.76	-39.4	-49.9	3.5	7.68e-01	0	27	104	148897792	54	17059
2026-01-14 01:32:53.40	139.85	15.88	-36.0	-46.3	3.5	7.68e-01	0	27	104	148897792	48	15841
2026-01-14 01:32:54.41	139.80	16.00	-47.2	-61.7	3.5	7.68e-01	0	27	104	148897792	60	47065
2026-01-14 01:32:55.41	139.75	16.13	-43.7	-55.2	3.6	7.68e-01	0	27	104	148897792	60	22165
2026-01-14 01:32:56.42	139.70	16.25	-39.5	-50.1	3.6	7.68e-01	0	27	104	148897792	54	17294
2026-01-14 01:32:57.43	139.65	16.37	-36.0	-46.3	3.5	7.68e-01	0	27	104	148897792	46	17701
2026-01-14 01:32:58.44	139.60	16.50	-35.3	-45.5	3.5	7.68e-01	0	27	104	148897792	46	16279
2026-01-14 01:32:59.45	139.55	16.62	-35.1	-45.3	3.5	7.68e-01	0	27	104	148897792	46	15900
2026-01-14 01:33:00.46	139.50	16.75	-34.6	-44.9	3.5	7.68e-01	0	27	104	148897792	44	16902
2026-01-14 01:33:01.47	139.44	16.87	-34.7	-44.9	3.5	7.68e-01	0	27	104	148897792	46	15179
2026-01-14 01:33:02.48	139.39	17.00	-36.0	-46.3	3.5	7.68e-01	0	27	104	148897792	50	14068
2026-01-14 01:33:03.49	139.34	17.13	-47.9	-64.3	3.5	7.68e-01	0	27	104	148897792	60	63178
2026-01-14 01:33:04.50	139.28	17.26	-39.5	-50.2	3.5	7.68e-01	0	27	104	148897792	56	15589
2026-01-14 01:33:05.51	139.23	17.39	-47.5	-63.1	3.5	7.68e-01	0	27	104	148897792	60	55080
2026-01-14 01:33:06.52	139.17	17.52	-42.0	-53.0	3.5	7.68e-01	0	27	104	148897792	58	19237
2026-01-14 01:33:07.53	139.12	17.65	-40.1	-50.8	3.5	7.68e-01	0	27	104	148897792	56	16724
2026-01-14 01:33:08.54	139.06	17.78	-38.7	-49.2	3.5	7.68e-01	0	27	104	148897792	52	17607
2026-01-14 01:33:09.55	139.01	17.91	-37.3	-47.7	3.5	7.68e-01	0	27	104	148897792	50	16589
2026-01-14 01:33:10.56	138.95	18.04	-41.1	-51.9	3.8	7.68e-01	0	27	104	148897792	52	23979
2026-01-14 01:33:11.57	138.89	18.18	-37.5	-47.9	3.3	7.68e-01	0	27	104	148897792	54	13437
2026-01-14 01:33:12.58	138.83	18.31	-45.7	-58.5	3.5	7.68e-01	0	27	104	148897792	60	32338
2026-01-14 01:33:13.59	138.77	18.45	-37.1	-47.5	3.5	7.68e-01	0	27	104	148897792	58	10238
2026-01-14 01:33:14.60	138.71	18.58	-37.0	-47.4	3.5	7.68e-01	0	27	104	148897792	50	15991
2026-01-14 01:33:15.61	138.65	18.72	-35.8	-46.2	3.5	7.68e-01	0	27	104	148897792	46	17493
2026-01-14 01:33:16.62	138.59	18.86	-34.8	-45.0	3.5	7.68e-01	0	27	104	148897792	44	17263
2026-01-14 01:33:17.63	138.53	18.99	-34.4	-44.5	3.5	7.68e-01	0	27	104	148897792	44	16310
2026-01-14 01:33:18.64	138.47	19.13	-35.2	-45.4	3.5	7.68e-01	0	27	104	148897792	44	18072
2026-01-14 01:33:19.65	138.41	19.27	-38.8	-49.2	3.5	7.68e-01	0	27	104	148897792	48	22246
2026-01-14 01:33:20.66	138.34	19.41	-37.1	-47.4	3.5	7.68e-01	0	27	104	148897792	46	20283
2026-01-14 01:33:21.67	138.28	19.56	-48.2	-64.7	3.5	7.68e-01	0	27	104	148897792	60	65789
2026-01-14 01:33:22.68	138.22	19.70	-38.7	-49.1	3.5	7.68e-01	0	27	104	148897792	60	11009
2026-01-14 01:33:23.69	138.15	19.84	-39.5	-50.0	3.5	7.68e-01	0	27	104	148897792	56	15316
2026-01-14 01:33:24.70	138.09	19.99	-38.2	-48.6	3.5	7.68e-01	0	27	104	148897792	52	16498
2026-01-14 01:33:25.71	138.02	20.13	-36.5	-46.8	3.5	7.68e-01	0	27	104	148897792	48	16754
2026-01-14 01:33:26.72	137.95	20.28	-35.4	-45.7	3.5	7.68e-01	0	27	104	148897792	46	16666
2026-01-14 01:33:27.73	137.88	20.42	-35.0	-45.2	3.5	7.68e-01	0	27	104	148897792	44	17604
2026-01-14 01:33:28.74	137.82	20.57	-36.6	-47.0	3.5	7.68e-01	0	27	104	148897792	44	21548
2026-01-14 01:33:29.75	137.75	20.72	-44.2	-56.1	3.4	7.68e-01	0	27	104	148897792	52	38970
2026-01-14 01:33:30.76	137.68	20.87	-42.2	-53.2	3.5	7.68e-01	0	27	104	148897792	60	17547
2026-01-14 01:33:31.77	137.60	21.02	-41.6	-52.5	3.5	7.68e-01	0	27	104	148897792	50	28856
2026-01-14 01:33:32.78	137.53	21.17	-41.4	-52.2	3.5	7.68e-01	0	27	104	148897792	60	15717
2026-01-14 01:33:33.79	137.46	21.33	-39.1	-49.6	3.5	7.68e-01	0	27	104	148897792	52	18336
2026-01-14 01:33:34.80	137.39	21.48	-38.2	-48.6	3.5	7.68e-01	0	27	104	148897792	52	16482
2026-01-14 01:33:35.81	137.31	21.63	-38.1	-48.6	3.5	7.68e-01	0	27	104	148897792	50	18360
2026-01-14 01:33:36.82	137.24	21.79	-37.2	-47.5	3.5	7.68e-01	0	27	104	148897792	48	18256
2026-01-14 01:33:37.83	137.16	21.95	-44.9	-56.7	3.5	7.68e-01	0	27	104	148897792	58	29541
2026-01-14 01:33:38.84	137.09	22.10	-39.4	-49.9	3.7	7.68e-01	0	27	104	148897792	48	23868
2026-01-14 01:33:39.85	137.01	22.26	-48.3	-65.1	3.5	7.68e-01	0	27	104	148897792	60	68995
2026-01-14 01:33:40.86	136.93	22.42	-36.0	-46.3	3.5	7.68e-01	0	27	104	148897792	44	19894
2026-01-14 01:33:41.87	136.85	22.58	-36.0	-46.3	3.5	7.68e-01	0	27	104	148897792	48	15918
2026-01-14 01:33:42.88	136.77	22.74	-36.0	-46.3	3.6	7.68e-01	0	27	104	148897792	48	15864
2026-01-14 01:33:43.88	136.69	22.90	-35.5	-45.7	3.5	7.68e-01	0	27	104	148897792	46	16619
2026-01-14 01:33:44.89	136.61	23.07	-35.6	-45.9	3.5	7.68e-01	0	27	104	148897792	46	17013
2026-01-14 01:33:45.90	136.53	23.23	-36.8	-47.1	3.5	7.68e-01	0	27	104	148897792	46	19473
2026-01-14 01:33:46.91	136.44	23.40	-38.8	-49.3	3.5	7.68e-01	0	27	104	148897792	48	22397
2026-01-14 01:33:47.92	136.36	23.56	-48.5	-66.3	3.5	7.68e-01	0	27	104	148897792	60	79920
2026-01-14 01:33:48.93	136.27	23.73	-42.2	-53.2	3.5	7.68e-01	0	27	104	148897792	60	17503
2026-01-14 01:33:49.94	136.19	23.90	-46.5	-59.4	3.5	7.68e-01	0	27	104	148897792	60	35856
2026-01-14 01:33:50.96	136.10	24.07	-36.9	-47.1	3.5	7.68e-01	0	27	104	148897792	50	15564
2026-01-14 01:33:51.97	136.01	24.25	-36.0	-46.2	3.5	7.68e-01	0	27	104	148897792	48	15768
2026-01-14 01:33:52.98	135.92	24.42	-35.1	-45.3	3.5	7.68e-01	0	27	104	148897792	46	15931
2026-01-14 01:33:53.99	135.83	24.59	-35.0	-45.2	3.5	7.68e-01	0	27	104	148897792	46	15752
2026-01-14 01:33:55.00	135.74	24.77	-41.7	-52.6	3.5	7.68e-01	0	27	104	148897792	56	20614
2026-01-14 01:33:56.01	135.64	24.94	-38.0	-48.4	3.5	7.68e-01	0	27	104	148897792	46	22569
2026-01-14 01:33:57.02	135.55	25.12	-48.6	-66.4	3.5	7.68e-01	0	27	104	148897792	60	80865
2026-01-14 01:33:58.03	135.45	25.30	-42.0	-53.0	3.5	7.68e-01	0	27	104	148897792	60	17202
2026-01-14 01:33:59.04	135.36	25.48	-47.9	-63.4	3.5	7.68e-01	0	27	104	148897792	60	57037
2026-01-14 01:34:00.05	135.26	25.66	-38.6	-49.1	3.5	7.68e-01	0	27	104	148897792	52	17382
2026-01-14 01:34:01.06	135.16	25.84	-37.6	-47.9	3.5	7.68e-01	0	27	104	148897792	50	17072
2026-01-14 01:34:02.07	135.06	26.02	-38.0	-48.4	3.5	7.68e-01	0	27	104	148897792	50	17924
2026-01-14 01:34:03.07	134.96	26.21	-37.5	-47.8	3.5	7.68e-01	0	27	104	148897792	50	16785
2026-01-14 01:34:04.08	134.86	26.39	-36.5	-46.9	3.5	7.68e-01	0	27	104	148897792	48	16968
2026-01-14 01:34:05.09	134.75	26.58	-48.1	-64.2	3.5	7.68e-01	0	27	104	148897792	60	62731
2026-01-14 01:34:06.10	134.65	26.77	-42.7	-53.8	3.5	7.68e-01	0	27	104	148897792	58	21141
2026-01-14 01:34:07.11	134.54	26.96	-48.3	-64.6	3.5	7.68e-01	0	27	104	148897792	60	65155
2026-01-14 01:34:08.12	134.43	27.15	-38.5	-48.9	3.5	7.68e-01	0	27	104	148897792	48	21427
2026-01-14 01:34:09.13	134.32	27.34	-36.2	-46.5	3.5	7.68e-01	0	27	104	148897792	48	16176
2026-01-14 01:34:10.14	134.21	27.54	-35.9	-46.2	3.5	7.68e-01	0	27	104	148897792	46	17529
2026-01-14 01:34:11.15	134.10	27.73	-35.8	-46.0	3.6	7.68e-01	0	27	104	148897792	46	17262
2026-01-14 01:34:12.16	133.99	27.93	-36.2	-46.5	3.5	7.68e-01	0	27	104	148897792	46	18193
2026-01-14 01:34:13.17	133.87	28.13	-35.5	-45.8	3.5	7.68e-01	0	27	104	148897792	46	16864
2026-01-14 01:34:14.18	133.76	28.32	-38.8	-49.3	3.5	7.68e-01	0	27	104	148897792	52	17850
2026-01-14 01:34:15.19	133.64	28.53	-48.6	-66.0	3.5	7.68e-01	0	27	104	148897792	60	76868
2026-01-14 01:34:16.20	133.52	28.73	-41.0	-51.7	3.5	7.68e-01	0	27	104	148897792	60	14817
2026-01-14 01:34:17.21	133.40	28.93	-47.4	-61.8	3.6	7.68e-01	0	27	104	148897792	60	47132
2026-01-14 01:34:18.22	133.27	29.14	-35.6	-45.9	3.5	7.68e-01	0	27	104	148897792	46	16997
2026-01-14 01:34:19.23	133.15	29.34	-34.6	-44.7	3.5	7.68e-01	0	27	104	148897792	44	16620
2026-01-14 01:34:20.25	133.02	29.55	-34.1	-44.3	3.5	7.68e-01	0	27	104	148897792	44	15777
2026-01-14 01:34:21.25	132.89	29.76	-34.2	-44.4	3.5	7.68e-01	0	27	104	148897792	44	15969
2026-01-14 01:34:22.26	132.76	29.97	-39.0	-49.6	3.6	7.68e-01	0	27	104	148897792	54	16325
2026-01-14 01:34:23.27	132.63	30.18	-37.8	-48.2	3.5	7.68e-01	0	27	104	148897792	52	15713
2026-01-14 01:34:24.29	132.50	30.40	-48.6	-66.3	3.5	7.68e-01	0	27	104	148897792	60	79451
2026-01-14 01:34:25.29	132.36	30.61	-40.4	-51.0	3.6	7.68e-01	0	27	104	148897792	60	13646
2026-01-14 01:34:26.30	132.23	30.83	-47.3	-61.2	3.5	7.68e-01	0	27	104	148897792	60	44314
2026-01-14 01:34:27.31	132.09	31.05	-37.3	-47.6	3.5	7.68e-01	0	27	104	148897792	50	16381
2026-01-14 01:34:28.32	131.94	31.27	-37.1	-47.3	3.5	7.68e-01	0	27	104	148897792	48	17890
2026-01-14 01:34:29.33	131.80	31.49	-37.1	-47.4	3.5	7.68e-01	0	27	104	148897792	48	17982
2026-01-14 01:34:30.34	131.66	31.72	-37.7	-48.0	3.5	7.68e-01	0	27	104	148897792	48	19334
2026-01-14 01:34:31.35	131.51	31.94	-40.9	-51.6	3.5	7.68e-01	0	27	104	148897792	58	16452
2026-01-14 01:34:32.36	131.36	32.17	-43.1	-54.2	3.5	7.68e-01	0	27	104	148897792	60	19712
2026-01-14 01:34:33.37	131.21	32.39	-44.8	-56.7	3.5	7.68e-01	0	27	104	148897792	60	26466
2026-01-14 01:34:34.38	131.05	32.62	-47.7	-62.7	3.5	7.68e-01	0	27	104	148897792	60	52712
2026-01-14 01:34:35.39	130.89	32.86	-39.1	-49.5	3.5	7.68e-01	0	27	104	148897792	52	18191
2026-01-14 01:34:36.40	130.74	33.09	-36.4	-46.6	3.5	7.68e-01	0	27	104	148897792	48	16502
2026-01-14 01:34:37.41	130.57	33.32	-35.8	-46.0	3.5	7.68e-01	0	27	104	148897792	46	17252
2026-01-14 01:34:38.42	130.41	33.56	-36.0	-46.3	3.5	7.68e-01	0	27	104	148897792	46	17789
2026-01-14 01:34:39.43	130.24	33.80	-35.0	-45.3	3.5	7.68e-01	0	27	104	148897792	46	15788
2026-01-14 01:34:40.44	130.07	34.04	-35.2	-45.5	3.5	7.68e-01	0	27	104	148897792	46	16279
2026-01-14 01:34:41.45	129.90	34.28	-35.9	-46.1	3.5	7.68e-01	0	27	104	148897792	50	13836
2026-01-14 01:34:42.46	129.73	34.52	-48.3	-65.1	3.5	7.68e-01	0	27	104	148897792	60	69247
2026-01-14 01:34:43.47	129.55	34.77	-38.1	-48.5	3.6	7.68e-01	0	27	104	148897792	54	14449
2026-01-14 01:34:44.48	129.37	35.02	-44.6	-56.5	3.5	7.68e-01	0	27	104	148897792	60	25594
2026-01-14 01:34:45.49	129.19	35.26	-36.8	-47.2	3.5	7.68e-01	0	27	104	148897792	48	17564
2026-01-14 01:34:46.50	129.00	35.52	-36.1	-46.3	3.6	7.68e-01	0	27	104	148897792	48	15913
2026-01-14 01:34:47.51	128.81	35.77	-35.7	-46.0	3.6	7.68e-01	0	27	104	148897792	46	17209
2026-01-14 01:34:48.52	128.62	36.02	-37.2	-47.5	3.6	7.68e-01	0	27	104	148897792	46	20452
2026-01-14 01:34:49.52	128.43	36.27	-37.6	-48.0	3.7	7.68e-01	0	27	104	148897792	54	13582
2026-01-14 01:34:50.53	128.23	36.53	-36.3	-46.6	3.5	7.68e-01	0	27	104	148897792	50	14618
2026-01-14 01:34:51.54	128.03	36.79	-47.1	-61.0	3.5	7.68e-01	0	27	104	148897792	60	43386
2026-01-14 01:34:52.55	127.83	37.05	-37.4	-47.8	3.5	7.68e-01	0	27	104	148897792	52	14992
2026-01-14 01:34:53.55	127.62	37.31	-44.5	-56.2	3.5	7.68e-01	0	27	104	148897792	60	24897
2026-01-14 01:34:54.56	127.41	37.58	-39.0	-49.5	3.5	7.68e-01	0	27	104	148897792	52	18133
2026-01-14 01:34:55.57	127.19	37.84	-39.0	-49.4	3.6	7.68e-01	0	27	104	148897792	52	18042
2026-01-14 01:34:56.58	126.97	38.11	-39.5	-50.1	3.5	7.68e-01	0	27	104	148897792	52	19524
2026-01-14 01:34:57.60	126.75	38.38	-39.4	-49.9	3.5	7.68e-01	0	27	104	148897792	52	19131
2026-01-14 01:34:58.61	126.52	38.65	-42.6	-53.6	3.5	7.68e-01	0	27	104	148897792	54	25981
2026-01-14 01:34:59.61	126.29	38.92	-38.4	-48.8	3.5	7.68e-01	0	27	104	148897792	54	14965
2026-01-14 01:35:00.63	126.06	39.20	-47.6	-62.4	3.5	7.68e-01	0	27	104	148897792	60	50645
2026-01-14 01:35:01.64	125.82	39.48	-37.4	-47.8	3.2	7.68e-01	0	27	104	148897792	54	13299
2026-01-14 01:35:02.65	125.58	39.76	-38.4	-48.8	3.4	7.68e-01	0	27	104	148897792	54	15011
2026-01-14 01:35:03.66	125.33	40.04	-37.6	-47.8	3.5	7.68e-01	0	27	104	148897792	50	16757
2026-01-14 01:35:04.67	125.08	40.32	-37.7	-48.1	3.5	7.68e-01	0	27	104	148897792	50	17343
2026-01-14 01:35:05.68	124.82	40.60	-36.7	-47.1	3.5	7.68e-01	0	27	104	148897792	48	17365
2026-01-14 01:35:06.69	124.56	40.89	-37.6	-48.0	3.5	7.68e-01	0	27	104	148897792	48	19364
2026-01-14 01:35:07.70	124.29	41.18	-36.2	-46.4	3.6	7.68e-01	0	27	104	148897792	46	17898
2026-01-14 01:35:08.71	124.02	41.47	-44.0	-55.6	3.4	7.68e-01	0	27	104	148897792	52	36641
2026-01-14 01:35:09.72	123.75	41.76	-46.4	-59.4	3.5	7.68e-01	0	27	104	148897792	60	35997
2026-01-14 01:35:10.73	123.47	42.05	-40.4	-51.1	3.5	7.68e-01	0	27	104	148897792	50	24569
2026-01-14 01:35:11.74	123.18	42.34	-41.4	-52.1	3.5	7.68e-01	0	27	104	148897792	60	15504
2026-01-14 01:35:12.75	122.89	42.64	-38.9	-49.4	3.5	7.68e-01	0	27	104	148897792	52	17971
2026-01-14 01:35:13.76	122.59	42.94	-37.7	-48.0	3.5	7.68e-01	0	27	104	148897792	50	17170
2026-01-14 01:35:14.77	122.29	43.24	-37.0	-47.3	3.5	7.68e-01	0	27	104	148897792	48	17753
2026-01-14 01:35:15.78	121.98	43.54	-39.7	-50.4	3.5	7.68e-01	0	27	104	148897792	52	20164
2026-01-14 01:35:16.79	121.67	43.84	-36.9	-47.3	3.5	7.68e-01	0	27	104	148897792	46	19926
2026-01-14 01:35:17.80	121.35	44.14	-45.7	-58.2	3.5	7.68e-01	0	27	104	148897792	54	43983
2026-01-14 01:35:18.81	121.02	44.45	-43.3	-54.5	3.5	7.68e-01	0	27	104	148897792	60	20405
2026-01-14 01:35:19.82	120.69	44.75	-38.9	-49.5	3.5	7.68e-01	0	27	104	148897792	44	28756
2026-01-14 01:35:20.83	120.35	45.06	-38.6	-49.1	3.5	7.68e-01	0	27	104	148897792	54	15515
2026-01-14 01:35:21.84	120.00	45.37	-37.1	-47.5	3.5	7.68e-01	0	27	104	148897792	48	18187
2026-01-14 01:35:22.85	119.64	45.68	-37.5	-47.9	3.6	7.68e-01	0	27	104	148897792	48	19119
2026-01-14 01:35:23.86	119.28	45.99	-35.9	-46.1	3.5	7.68e-01	0	27	104	148897792	48	15542
2026-01-14 01:35:24.87	118.91	46.31	-40.5	-51.2	3.5	7.68e-01	0	27	104	148897792	52	22212
2026-01-14 01:35:25.88	118.54	46.62	-36.7	-47.1	3.5	7.68e-01	0	27	104	148897792	46	19447
2026-01-14 01:35:26.89	118.15	46.93	-48.8	-66.6	3.5	7.68e-01	0	27	104	148897792	60	82494
2026-01-14 01:35:27.90	117.76	47.25	-46.7	-60.0	3.5	7.68e-01	0	27	104	148897792	60	38330
2026-01-14 01:35:28.91	117.36	47.57	-45.6	-58.0	3.5	7.68e-01	0	27	104	148897792	58	34112
2026-01-14 01:35:29.92	116.95	47.89	-39.9	-50.4	3.5	7.68e-01	0	27	104	148897792	56	16116
2026-01-14 01:35:30.93	116.54	48.21	-38.0	-48.4	3.5	7.68e-01	0	27	104	148897792	52	15991
2026-01-14 01:35:31.94	116.11	48.53	-38.3	-48.7	3.5	7.68e-01	0	27	104	148897792	50	18715
2026-01-14 01:35:32.95	115.67	48.85	-38.0	-48.5	3.5	7.68e-01	0	27	104	148897792	50	18116
2026-01-14 01:35:33.96	115.23	49.17	-45.6	-58.1	3.5	7.68e-01	0	27	104	148897792	60	30826
2026-01-14 01:35:34.97	114.78	49.49	-48.0	-63.2	3.5	7.68e-01	0	27	104	148897792	60	55707
2026-01-14 01:35:35.98	114.31	49.81	-45.4	-57.5	3.5	7.68e-01	0	27	104	148897792	60	28752
2026-01-14 01:35:36.99	113.84	50.13	-48.5	-65.5	3.5	7.68e-01	0	27	104	148897792	60	72554
2026-01-14 01:35:38.00	113.35	50.46	-38.0	-48.4	3.5	7.68e-01	0	27	104	148897792	46	22745
2026-01-14 01:35:39.01	112.86	50.78	-36.0	-46.3	3.5	7.68e-01	0	27	104	148897792	46	17734
2026-01-14 01:35:40.02	112.35	51.10	-35.6	-46.0	3.6	7.68e-01	0	27	104	148897792	46	17155
2026-01-14 01:35:41.03	111.84	51.42	-35.4	-45.8	3.5	7.68e-01	0	27	104	148897792	46	16703
2026-01-14 01:35:42.04	111.31	51.75	-34.6	-44.9	3.5	7.68e-01	0	27	104	148897792	44	16951
2026-01-14 01:35:43.05	110.77	52.07	-39.6	-50.1	3.5	7.68e-01	0	27	104	148897792	52	19586
2026-01-14 01:35:44.06	110.21	52.39	-37.1	-47.5	3.5	7.68e-01	0	27	104	148897792	46	20463
2026-01-14 01:35:45.07	109.65	52.71	-48.5	-65.1	3.5	7.68e-01	0	27	104	148897792	60	69528
2026-01-14 01:35:46.08	109.07	53.03	-45.6	-57.8	3.5	7.68e-01	0	27	104	148897792	60	29913
2026-01-14 01:35:47.09	108.48	53.35	-46.5	-59.2	3.5	7.68e-01	0	27	104	148897792	60	35019
2026-01-14 01:35:48.10	107.88	53.67	-35.7	-46.0	3.5	7.68e-01	0	27	104	148897792	46	17261
2026-01-14 01:35:49.11	107.26	53.99	-35.1	-45.3	3.5	7.68e-01	0	27	104	148897792	46	15941
2026-01-14 01:35:50.05	106.68	54.28	-34.3	-44.4	3.5	7.68e-01	0	27	104	148897792	44	16044
2026-01-14 01:35:51.06	106.03	54.60	-34.5	-44.8	3.5	7.68e-01	0	27	104	148897792	44	16729
2026-01-14 01:35:52.07	105.37	54.91	-40.2	-50.8	3.5	7.68e-01	0	27	104	148897792	54	18910
2026-01-14 01:35:53.08	104.70	55.22	-38.4	-48.9	3.5	7.68e-01	0	27	104	148897792	50	18961
2026-01-14 01:35:54.09	104.01	55.53	-48.6	-65.7	3.5	7.68e-01	0	27	104	148897792	60	74083
2026-01-14 01:35:55.10	103.31	55.83	-46.8	-60.0	3.5	7.68e-01	0	27	104	148897792	60	38702
2026-01-14 01:35:56.11	102.59	56.14	-47.9	-63.0	3.5	7.68e-01	0	27	104	148897792	60	54420
2026-01-14 01:35:57.12	101.85	56.44	-37.9	-48.3	3.5	7.68e-01	0	27	104	148897792	52	15950
2026-01-14 01:35:58.13	101.10	56.74	-37.5	-47.8	3.5	7.68e-01	0	27	104	148897792	50	16818
2026-01-14 01:35:59.14	100.33	57.03	-37.2	-47.6	3.5	7.68e-01	0	27	104	148897792	50	16375
2026-01-14 01:36:00.15	99.55	57.32	-35.9	-46.0	3.5	7.68e-01	0	27	104	148897792	48	15260
2026-01-14 01:36:01.16	98.75	57.61	-40.2	-50.9	3.5	7.68e-01	0	27	104	148897792	58	15226
2026-01-14 01:36:02.17	97.93	57.89	-38.8	-49.2	3.5	7.68e-01	0	27	104	148897792	50	19839
2026-01-14 01:36:03.18	97.09	58.17	-48.6	-65.8	3.5	7.68e-01	0	27	104	148897792	60	75211
2026-01-14 01:36:04.19	96.24	58.45	-46.7	-59.8	3.6	7.68e-01	0	27	104	148897792	60	37707
2026-01-14 01:36:05.20	95.37	58.72	-47.8	-62.6	3.5	7.68e-01	0	27	104	148897792	60	51934
2026-01-14 01:36:06.21	94.48	58.98	-38.7	-49.0	3.6	7.68e-01	0	27	104	148897792	52	17103
2026-01-14 01:36:07.22	93.57	59.24	-37.6	-47.9	3.5	7.68e-01	0	27	104	148897792	50	16991
2026-01-14 01:36:08.22	92.65	59.49	-37.5	-47.9	3.5	7.68e-01	0	27	104	148897792	50	17064
2026-01-14 01:36:09.24	91.70	59.75	-37.3	-47.6	3.5	7.68e-01	0	27	104	148897792	50	16383
2026-01-14 01:36:10.25	90.73	59.99	-41.0	-51.7	3.6	7.68e-01	0	27	104	148897792	58	16518
2026-01-14 01:36:11.25	89.76	60.22	-44.4	-56.1	3.6	7.68e-01	0	27	104	148897792	60	24459
2026-01-14 01:36:12.26	88.77	60.45	-46.9	-60.4	3.5	7.68e-01	0	27	104	148897792	60	40308
2026-01-14 01:36:13.27	87.75	60.67	-48.3	-64.8	3.5	7.68e-01	0	27	104	148897792	60	66831
2026-01-14 01:36:14.28	86.71	60.89	-40.2	-50.9	3.5	7.68e-01	0	27	104	148897792	54	19001
2026-01-14 01:36:15.29	85.66	61.09	-37.4	-48.0	3.5	7.68e-01	0	27	104	148897792	48	19205
2026-01-14 01:36:16.30	84.59	61.29	-37.0	-47.3	3.5	7.68e-01	0	27	104	148897792	48	17866
2026-01-14 01:36:17.31	83.51	61.48	-36.7	-47.0	3.5	7.68e-01	0	27	104	148897792	48	17234
2026-01-14 01:36:18.32	82.40	61.67	-36.8	-47.2	3.5	7.68e-01	0	27	104	148897792	48	17496
2026-01-14 01:36:19.33	81.29	61.84	-37.3	-47.7	3.5	7.68e-01	0	27	104	148897792	50	16619
2026-01-14 01:36:20.34	80.15	62.00	-37.7	-48.0	3.5	7.68e-01	0	27	104	148897792	52	15245
2026-01-14 01:36:21.35	79.00	62.16	-48.7	-66.6	3.5	7.68e-01	0	27	104	148897792	60	82032
2026-01-14 01:36:22.36	77.84	62.30	-40.5	-51.3	3.3	7.68e-01	0	27	104	148897792	60	14082
2026-01-14 01:36:23.37	76.66	62.44	-45.2	-57.2	3.6	7.68e-01	0	27	104	148897792	60	27766
2026-01-14 01:36:24.39	75.46	62.57	-40.1	-50.9	3.5	7.68e-01	0	27	104	148897792	54	19103
2026-01-14 01:36:25.39	74.27	62.68	-39.2	-49.6	3.5	7.68e-01	0	27	104	148897792	54	16494
2026-01-14 01:36:26.40	73.06	62.78	-38.8	-49.3	3.6	7.68e-01	0	27	104	148897792	52	17766
2026-01-14 01:36:27.41	71.83	62.88	-38.8	-49.5	3.5	7.68e-01	0	27	104	148897792	50	20357
2026-01-14 01:36:28.42	70.60	62.96	-38.9	-49.2	3.5	7.68e-01	0	27	104	148897792	54	15731
2026-01-14 01:36:29.43	69.36	63.03	-37.7	-48.1	3.5	7.68e-01	0	27	104	148897792	50	17356
2026-01-14 01:36:30.44	68.11	63.09	-48.5	-65.3	3.5	7.68e-01	0	27	104	148897792	60	71161
2026-01-14 01:36:31.45	66.86	63.14	-40.6	-51.1	3.5	7.68e-01	0	27	104	148897792	60	13755
2026-01-14 01:36:32.46	65.60	63.18	-45.5	-57.9	3.6	7.68e-01	0	27	104	148897792	60	30326
2026-01-14 01:36:33.47	64.34	63.21	-40.5	-51.1	3.5	7.68e-01	0	27	104	148897792	56	17432
2026-01-14 01:36:34.48	63.08	63.22	-39.6	-50.3	3.5	7.68e-01	0	27	104	148897792	54	17864
2026-01-14 01:36:35.49	61.81	63.23	-38.2	-48.4	3.5	7.68e-01	0	27	104	148897792	52	15991
2026-01-14 01:36:36.50	60.55	63.22	-38.6	-49.3	3.5	7.68e-01	0	27	104	148897792	50	20071
2026-01-14 01:36:37.51	59.29	63.20	-38.8	-49.1	3.5	7.68e-01	0	27	104	148897792	54	15572
2026-01-14 01:36:38.52	58.03	63.17	-42.4	-53.4	3.8	7.68e-01	0	27	104	148897792	50	31897
2026-01-14 01:36:39.53	56.77	63.13	-46.8	-60.2	3.5	7.68e-01	0	27	104	148897792	60	39304
2026-01-14 01:36:40.54	55.52	63.07	-38.7	-49.1	3.5	7.68e-01	0	27	104	148897792	58	12304
2026-01-14 01:36:41.55	54.28	63.01	-44.8	-56.6	3.5	7.68e-01	0	27	104	148897792	60	26088
2026-01-14 01:36:42.56	53.04	62.93	-41.5	-52.4	3.5	7.68e-01	0	27	104	148897792	56	20300
2026-01-14 01:36:43.57	51.81	62.85	-42.2	-53.2	3.5	7.68e-01	0	27	104	148897792	58	19789
2026-01-14 01:36:44.58	50.59	62.75	-41.6	-52.3	3.5	7.68e-01	0	27	104	148897792	58	17733
2026-01-14 01:36:45.59	49.38	62.64	-42.8	-53.9	3.5	7.68e-01	0	27	104	148897792	58	21493
2026-01-14 01:36:46.60	48.19	62.52	-47.5	-62.2	3.5	7.68e-01	0	27	104	148897792	60	49570
2026-01-14 01:36:47.61	47.00	62.39	-42.0	-52.5	3.5	7.68e-01	0	27	104	148897792	54	23017
2026-01-14 01:36:48.62	45.83	62.25	-48.6	-66.1	3.5	7.68e-01	0	27	104	148897792	60	78017
2026-01-14 01:36:49.63	44.67	62.11	-40.2	-50.8	3.5	7.68e-01	0	27	104	148897792	60	13395
2026-01-14 01:36:50.64	43.53	61.95	-39.4	-49.7	3.5	7.68e-01	0	27	104	148897792	54	16649
2026-01-14 01:36:51.65	42.40	61.78	-39.2	-49.7	3.5	7.68e-01	0	27	104	148897792	52	18598
2026-01-14 01:36:52.66	41.29	61.60	-38.1	-48.3	3.5	7.68e-01	0	27	104	148897792	52	15866
2026-01-14 01:36:53.67	40.19	61.42	-37.3	-47.6	3.5	7.68e-01	0	27	104	148897792	50	16372
2026-01-14 01:36:54.68	39.11	61.23	-40.4	-51.0	3.5	7.68e-01	0	27	104	148897792	50	24302
2026-01-14 01:36:55.69	38.05	61.02	-37.3	-47.8	3.6	7.68e-01	0	27	104	148897792	50	16859
2026-01-14 01:36:56.70	37.01	60.82	-46.6	-59.7	3.5	7.68e-01	0	27	104	148897792	56	46742
2026-01-14 01:36:57.71	35.98	60.60	-48.1	-63.6	3.5	7.68e-01	0	27	104	148897792	60	58126
2026-01-14 01:36:58.72	34.97	60.37	-44.7	-56.4	3.5	7.68e-01	0	27	104	148897792	58	28595
2026-01-14 01:36:59.73	33.98	60.14	-42.7	-54.0	3.5	7.68e-01	0	27	104	148897792	60	19281
2026-01-14 01:37:00.74	33.01	59.91	-39.6	-50.3	3.6	7.68e-01	0	27	104	148897792	54	17849
2026-01-14 01:37:01.75	32.05	59.66	-39.4	-49.7	3.5	7.68e-01	0	27	104	148897792	54	16698
2026-01-14 01:37:02.76	31.11	59.41	-39.9	-50.5	3.5	7.68e-01	0	27	104	148897792	54	18276
2026-01-14 01:37:03.77	30.20	59.16	-48.5	-65.7	3.5	7.68e-01	0	27	104	148897792	60	74024
2026-01-14 01:37:04.78	29.30	58.89	-48.2	-64.4	3.5	7.68e-01	0	27	104	148897792	60	63534
2026-01-14 01:37:05.79	28.41	58.63	-46.0	-58.4	3.5	7.68e-01	0	27	104	148897792	60	31869
2026-01-14 01:37:06.80	27.55	58.36	-48.6	-66.0	3.5	7.68e-01	0	27	104	148897792	60	76646
2026-01-14 01:37:07.81	26.70	58.08	-35.9	-46.2	3.5	7.68e-01	0	27	104	148897792	46	17672
2026-01-14 01:37:08.81	25.88	57.80	-36.6	-46.5	3.5	7.68e-01	0	27	104	148897792	48	16271
2026-01-14 01:37:09.82	25.07	57.52	-37.3	-47.7	3.5	7.68e-01	0	27	104	148897792	48	18724
2026-01-14 01:37:10.83	24.28	57.23	-37.5	-47.9	3.5	7.68e-01	0	27	104	148897792	48	19113
2026-01-14 01:37:11.84	23.50	56.94	-35.9	-46.0	3.5	7.68e-01	0	27	104	148897792	48	15376
2026-01-14 01:37:12.85	22.74	56.64	-38.2	-48.7	3.5	7.68e-01	0	27	104	148897792	48	20988
2026-01-14 01:37:13.86	21.99	56.35	-35.7	-45.7	3.5	7.68e-01	0	27	104	148897792	46	16647
2026-01-14 01:37:14.87	21.26	56.04	-48.6	-65.4	3.5	7.68e-01	0	27	104	148897792	60	71979
2026-01-14 01:37:15.88	20.55	55.74	-47.4	-61.6	3.5	7.68e-01	0	27	104	148897792	60	46063
2026-01-14 01:37:16.89	19.85	55.43	-47.8	-62.5	3.5	7.68e-01	0	27	104	148897792	60	51426
2026-01-14 01:37:17.90	19.17	55.13	-39.4	-50.1	3.5	7.68e-01	0	27	104	148897792	54	17317
2026-01-14 01:37:18.91	18.50	54.82	-37.9	-48.3	3.5	7.68e-01	0	27	104	148897792	50	17712
2026-01-14 01:37:19.92	17.85	54.50	-36.6	-46.8	3.5	7.68e-01	0	27	104	148897792	48	16890
2026-01-14 01:37:20.93	17.21	54.19	-35.0	-45.0	3.5	7.68e-01	0	27	104	148897792	46	15408
2026-01-14 01:37:21.94	16.59	53.87	-41.0	-51.7	3.5	7.68e-01	0	27	104	148897792	56	18532
2026-01-14 01:37:22.95	15.98	53.56	-35.8	-46.2	3.5	7.68e-01	0	27	104	148897792	44	19636
2026-01-14 01:37:23.96	15.38	53.24	-48.6	-65.3	3.5	7.68e-01	0	27	104	148897792	60	70809
2026-01-14 01:37:24.97	14.80	52.92	-47.2	-61.1	3.5	7.68e-01	0	27	104	148897792	60	43471
2026-01-14 01:37:25.98	14.23	52.60	-47.9	-62.9	3.5	7.68e-01	0	27	104	148897792	60	53906
2026-01-14 01:37:26.99	13.67	52.28	-38.8	-49.3	3.5	7.68e-01	0	27	104	148897792	54	15947
2026-01-14 01:37:28.00	13.12	51.96	-36.7	-47.0	3.5	7.68e-01	0	27	104	148897792	48	17241
2026-01-14 01:37:29.01	12.59	51.64	-35.2	-45.4	3.5	7.68e-01	0	27	104	148897792	46	16079
2026-01-14 01:37:30.02	12.06	51.32	-34.6	-44.7	3.5	7.68e-01	0	27	104	148897792	44	16684
2026-01-14 01:37:31.03	11.55	50.99	-40.3	-50.7	3.6	7.68e-01	0	27	104	148897792	56	16617
2026-01-14 01:37:32.04	11.05	50.67	-36.9	-47.2	3.5	7.68e-01	0	27	104	148897792	46	19707
2026-01-14 01:37:33.05	10.56	50.35	-48.6	-65.6	3.5	7.68e-01	0	27	104	148897792	60	73512
2026-01-14 01:37:34.06	10.08	50.03	-47.1	-60.8	3.5	7.68e-01	0	27	104	148897792	60	42218
2026-01-14 01:37:35.07	9.61	49.71	-46.0	-58.4	3.5	7.68e-01	0	27	104	148897792	60	31891
2026-01-14 01:37:36.08	9.16	49.39	-38.0	-48.6	3.5	7.68e-01	0	27	104	148897792	52	16410
2026-01-14 01:37:37.09	8.71	49.07	-36.5	-47.0	3.5	7.68e-01	0	27	104	148897792	48	17127
2026-01-14 01:37:38.10	8.27	48.75	-35.5	-45.6	3.6	7.68e-01	0	27	104	148897792	46	16469
2026-01-14 01:37:39.11	7.84	48.43	-35.2	-45.7	3.5	7.68e-01	0	27	104	148897792	46	16520
2026-01-14 01:37:40.12	7.41	48.11	-43.1	-54.2	3.6	7.68e-01	0	27	104	148897792	60	19689
2026-01-14 01:37:41.13	7.00	47.79	-36.6	-46.7	3.5	7.68e-01	0	27	104	148897792	46	18607
2026-01-14 01:37:42.14	6.60	47.47	-48.5	-65.5	3.5	7.68e-01	0	27	104	148897792	60	72154
2026-01-14 01:37:43.15	6.20	47.16	-46.9	-60.4	3.5	7.68e-01	0	27	104	148897792	60	40484
2026-01-14 01:37:44.16	5.81	46.84	-47.1	-60.9	3.5	7.68e-01	0	27	104	148897792	60	42728
2026-01-14 01:37:45.17	5.43	46.53	-39.0	-49.4	3.5	7.68e-01	0	27	104	148897792	52	18090
2026-01-14 01:37:46.18	5.06	46.22	-38.0	-48.5	3.5	7.68e-01	0	27	104	148897792	52	16195
2026-01-14 01:37:47.19	4.69	45.90	-37.6	-47.6	3.5	7.68e-01	0	27	104	148897792	50	16434
2026-01-14 01:37:48.20	4.34	45.59	-37.3	-47.4	3.5	7.68e-01	0	27	104	148897792	50	16047
2026-01-14 01:37:49.22	3.98	45.28	-44.2	-56.0	3.5	7.68e-01	0	27	104	148897792	60	24223
2026-01-14 01:37:50.23	3.64	44.97	-44.5	-56.2	3.6	7.68e-01	0	27	104	148897792	60	24936
2026-01-14 01:37:51.24	3.30	44.67	-48.2	-64.0	3.5	7.68e-01	0	27	104	148897792	60	60916
2026-01-14 01:37:52.25	2.97	44.36	-48.7	-66.2	3.5	7.68e-01	0	27	104	148897792	60	78216
2026-01-14 01:37:53.26	2.65	44.06	-37.4	-47.6	3.5	7.68e-01	0	27	104	148897792	48	18493
2026-01-14 01:37:54.27	2.33	43.76	-35.7	-46.0	3.5	7.68e-01	0	27	104	148897792	46	17130
2026-01-14 01:37:55.28	2.02	43.46	-35.3	-45.5	3.5	7.68e-01	0	27	104	148897792	46	16139
2026-01-14 01:37:56.29	1.71	43.16	-35.2	-45.5	3.5	7.68e-01	0	27	104	148897792	46	16301
2026-01-14 01:37:57.30	1.41	42.86	-35.3	-45.8	3.5	7.68e-01	0	27	104	148897792	46	16751
2026-01-14 01:37:58.31	1.12	42.57	-36.4	-46.7	3.5	7.68e-01	0	27	104	148897792	50	14861
2026-01-14 01:37:59.32	0.83	42.27	-35.4	-45.8	3.3	7.68e-01	0	27	104	148897792	48	14891
2026-01-14 01:38:00.33	0.55	41.98	-48.3	-64.5	3.6	7.68e-01	0	27	104	148897792	60	64634
2026-01-14 01:38:01.34	0.27	41.69	-38.9	-49.4	3.4	7.68e-01	0	27	104	148897792	60	11327
2026-01-14 01:38:02.35	360.00	41.40	-44.9	-56.6	3.5	7.68e-01	0	27	104	148897792	60	25899
2026-01-14 01:38:03.35	359.73	41.12	-37.2	-47.4	3.5	7.68e-01	0	27	104	148897792	48	17958
2026-01-14 01:38:04.36	359.47	40.83	-37.0	-47.2	3.5	7.68e-01	0	27	104	148897792	48	17673
2026-01-14 01:38:05.37	359.21	40.55	-36.9	-47.3	3.5	7.68e-01	0	27	104	148897792	48	17753
2026-01-14 01:38:06.38	358.96	40.26	-37.7	-48.2	3.5	7.68e-01	0	27	104	148897792	48	19635
2026-01-14 01:38:07.39	358.71	39.98	-39.5	-50.0	3.5	7.68e-01	0	27	104	148897792	56	15402
2026-01-14 01:38:08.40	358.46	39.70	-36.5	-46.8	3.5	7.68e-01	0	27	104	148897792	48	16836
2026-01-14 01:38:09.41	358.22	39.43	-48.4	-65.2	3.5	7.68e-01	0	27	104	148897792	60	70099
2026-01-14 01:38:10.42	357.98	39.15	-40.5	-51.2	3.5	7.68e-01	0	27	104	148897792	60	13958
2026-01-14 01:38:11.43	357.75	38.88	-46.5	-59.4	3.5	7.68e-01	0	27	104	148897792	60	35942
2026-01-14 01:38:12.44	357.52	38.61	-41.1	-52.0	3.5	7.68e-01	0	27	104	148897792	56	19201
2026-01-14 01:38:13.45	357.30	38.34	-39.5	-50.1	3.5	7.68e-01	0	27	104	148897792	54	17454
2026-01-14 01:38:14.46	357.08	38.07	-38.2	-49.0	3.5	7.68e-01	0	27	104	148897792	52	17123
2026-01-14 01:38:15.47	356.86	37.80	-37.1	-47.5	3.5	7.68e-01	0	27	104	148897792	50	16268
2026-01-14 01:38:16.48	356.65	37.54	-36.7	-46.8	3.5	7.68e-01	0	27	104	148897792	48	16807
2026-01-14 01:38:17.49	356.44	37.28	-36.7	-46.9	3.5	7.68e-01	0	27	104	148897792	46	19128
2026-01-14 01:38:18.50	356.23	37.01	-47.3	-61.6	3.5	7.68e-01	0	27	104	148897792	60	46267
2026-01-14 01:38:19.51	356.03	36.76	-36.7	-47.3	3.5	7.68e-01	0	27	104	148897792	48	17824
2026-01-14 01:38:20.52	355.83	36.50	-41.4	-52.2	3.5	7.68e-01	0	27	104	148897792	60	15683
2026-01-14 01:38:21.53	355.63	36.24	-36.9	-47.1	3.5	7.68e-01	0	27	104	148897792	50	15486
2026-01-14 01:38:22.54	355.44	35.99	-36.2	-46.1	3.5	7.68e-01	0	27	104	148897792	48	15514
2026-01-14 01:38:23.55	355.25	35.74	-35.7	-45.9	3.5	7.68e-01	0	27	104	148897792	46	16996
2026-01-14 01:38:24.56	355.06	35.49	-36.9	-47.2	3.5	7.68e-01	0	27	104	148897792	46	19719
2026-01-14 01:38:25.57	354.88	35.24	-36.5	-46.9	3.4	7.68e-01	0	27	104	148897792	50	15167
2026-01-14 01:38:26.58	354.70	34.99	-41.3	-52.1	3.5	7.68e-01	0	27	104	148897792	46	34529
2026-01-14 01:38:27.59	354.52	34.74	-44.3	-55.9	3.6	7.68e-01	0	27	104	148897792	60	24019
2026-01-14 01:38:28.59	354.35	34.50	-35.6	-37.1	24.0	7.68e-01	61	27	104	148897792	44	6902
2026-01-14 01:38:29.60	354.17	34.26	-37.0	-38.3	28.1	7.68e-01	52	27	0	149946368	52	4995
2026-01-14 01:38:30.61	354.00	34.02	-34.6	-35.8	29.7	7.68e-01	49	27	0	152043520	44	5939
2026-01-14 01:38:31.62	353.84	33.78	-34.3	-35.4	29.9	7.68e-01	59	27	0	153616384	44	5724
2026-01-14 01:38:32.63	353.67	33.55	-34.2	-35.3	30.0	7.68e-01	58	27	0	155713536	44	5649
2026-01-14 01:38:33.64	353.51	33.31	-34.2	-35.4	29.9	7.68e-01	57	27	0	157286400	44	5683
2026-01-14 01:38:34.64	353.35	33.08	-34.3	-35.5	29.9	7.68e-01	60	27	0	159383552	44	5726
2026-01-14 01:38:35.65	353.19	32.85	-34.4	-35.6	29.9	7.68e-01	56	27	0	160956416	44	5834
2026-01-14 01:38:36.67	353.04	32.61	-34.2	-35.4	30.0	7.68e-01	60	27	0	163053568	44	5677
2026-01-14 01:38:37.68	352.88	32.39	-34.3	-35.5	29.9	7.68e-01	57	27	0	165150720	44	5768
2026-01-14 01:38:38.68	352.73	32.16	-34.2	-35.4	29.9	7.68e-01	45	27	0	166723584	44	5704
2026-01-14 01:38:39.69	352.59	31.94	-34.2	-35.4	30.0	7.68e-01	60	27	0	168820736	44	5664
2026-01-14 01:38:40.70	352.44	31.71	-34.3	-35.5	29.9	7.68e-01	57	27	0	170393600	44	5745
2026-01-14 01:38:41.71	352.29	31.49	-34.1	-35.2	30.0	7.68e-01	60	27	0	172490752	44	5583
2026-01-14 01:38:42.72	352.15	31.27	-33.9	-35.1	30.3	7.68e-01	58	27	0	174587904	42	6184
2026-01-14 01:38:43.73	352.01	31.05	-33.8	-35.0	30.2	7.68e-01	57	27	0	176160768	42	6079
2026-01-14 01:38:44.74	351.87	30.83	-33.8	-34.9	30.4	7.68e-01	59	27	0	178257920	42	6054
2026-01-14 01:38:45.75	351.74	30.62	-33.9	-35.1	30.3	7.68e-01	61	27	0	180355072	42	6150
2026-01-14 01:38:46.76	351.60	30.40	-33.9	-35.1	30.2	7.68e-01	47	27	0	181927936	42	6164
2026-01-14 01:38:47.77	351.47	30.19	-34.1	-35.3	30.0	7.68e-01	58	27	0	184025088	42	6311
2026-01-14 01:38:48.79	351.34	29.98	-34.0	-35.2	30.1	7.68e-01	54	27	0	185597952	42	6233
2026-01-14 01:38:49.79	351.21	29.77	-34.0	-35.1	30.1	7.68e-01	56	27	0	187695104	42	6202
2026-01-14 01:38:50.80	351.08	29.56	-33.8	-35.0	30.3	7.68e-01	60	27	0	189792256	42	6086
2026-01-14 01:38:51.82	350.96	29.35	-33.9	-35.1	30.2	7.68e-01	54	27	0	191365120	42	6148
2026-01-14 01:38:52.83	350.83	29.15	-34.1	-35.2	30.1	7.68e-01	59	27	0	193462272	42	6269
2026-01-14 01:38:53.84	350.71	28.94	-34.1	-35.3	30.0	7.68e-01	58	27	0	195035136	42	6345
2026-01-14 01:38:54.84	350.59	28.74	-34.2	-35.3	30.0	7.68e-01	60	27	0	197132288	42	6344
2026-01-14 01:38:55.85	350.47	28.54	-34.0	-35.2	30.0	7.68e-01	61	27	0	199229440	42	6258
2026-01-14 01:38:56.87	350.36	28.34	-34.0	-35.2	30.1	7.68e-01	49	27	0	200802304	42	6212
2026-01-14 01:38:57.87	350.24	28.14	-34.0	-35.2	30.1	7.68e-01	57	27	0	202899456	42	6247
2026-01-14 01:38:58.88	350.13	27.95	-33.9	-35.1	30.2	7.68e-01	58	27	0	204996608	42	6157
2026-01-14 01:38:59.89	350.01	27.75	-34.1	-35.3	30.1	7.68e-01	44	27	0	206569472	42	6279
2026-01-14 01:39:00.90	349.90	27.56	-34.3	-35.5	29.9	7.68e-01	59	27	0	208666624	42	6445
2026-01-14 01:39:01.91	349.79	27.37	-34.3	-35.5	29.9	7.68e-01	58	27	0	210239488	42	6464
2026-01-14 01:39:02.92	349.68	27.17	-34.4	-35.6	29.7	7.68e-01	61	27	0	212336640	42	6571
2026-01-14 01:39:03.93	349.58	26.98	-34.4	-35.6	29.8	7.68e-01	61	27	0	214433792	42	6499
2026-01-14 01:39:04.94	349.47	26.80	-34.4	-35.6	29.8	7.68e-01	53	27	0	216006656	42	6505
2026-01-14 01:39:05.95	349.37	26.61	-34.3	-35.5	29.8	7.68e-01	63	27	0	218103808	42	6439
2026-01-14 01:39:06.96	349.27	26.42	-34.4	-35.6	29.7	7.68e-01	60	27	0	219676672	42	6562
2026-01-14 01:39:07.97	349.16	26.24	-34.4	-35.6	29.7	7.68e-01	49	27	0	221773824	42	6518
2026-01-14 01:39:08.98	349.06	26.05	-34.6	-35.8	29.6	7.68e-01	60	27	0	223870976	42	6671
2026-01-14 01:39:09.99	348.96	25.87	-34.6	-35.8	29.6	7.68e-01	59	27	0	225443840	42	6666
2026-01-14 01:39:11.00	348.87	25.69	-34.7	-36.0	29.5	7.68e-01	60	27	0	227540992	42	6807
2026-01-14 01:39:12.01	348.77	25.51	-34.9	-36.1	29.4	7.68e-01	57	27	0	229113856	42	6913
2026-01-14 01:39:13.02	348.67	25.33	-34.9	-36.1	29.4	7.68e-01	52	27	0	231211008	42	6937
2026-01-14 01:39:14.02	348.58	25.16	-34.8	-36.0	29.4	7.68e-01	58	27	0	233308160	42	6828
2026-01-14 01:39:15.03	348.49	24.98	-34.9	-36.1	29.3	7.68e-01	60	27	0	234881024	42	6957
2026-01-14 01:39:16.04	348.39	24.80	-34.8	-36.0	29.4	7.68e-01	45	27	0	236978176	44	6124
2026-01-14 01:39:17.06	348.30	24.63	-34.8	-36.0	29.3	7.68e-01	62	27	0	238551040	44	6128
2026-01-14 01:39:18.06	348.21	24.46	-34.8	-36.0	29.3	7.68e-01	59	27	0	240648192	44	6132
2026-01-14 01:39:19.08	348.12	24.28	-34.8	-36.0	29.4	7.68e-01	61	27	0	242745344	44	6122
2026-01-14 01:39:20.09	348.04	24.11	-34.9	-36.1	29.2	7.68e-01	55	27	0	244318208	44	6150
2026-01-14 01:39:21.09	347.95	23.95	-35.0	-36.2	29.3	7.68e-01	54	27	0	246415360	44	6221
2026-01-14 01:39:22.10	347.86	23.78	-34.8	-36.0	29.4	7.68e-01	59	27	0	247988224	44	6081
2026-01-14 01:39:23.11	347.78	23.61	-34.8	-36.0	29.3	7.68e-01	61	27	0	250085376	44	6123
2026-01-14 01:39:24.12	347.70	23.45	-34.6	-35.8	29.4	7.68e-01	61	27	0	252182528	44	5975
2026-01-14 01:39:25.13	347.61	23.28	-34.7	-35.8	29.4	7.68e-01	58	27	0	253755392	44	5993
2026-01-14 01:39:26.14	347.53	23.12	-34.5	-35.7	29.5	7.68e-01	45	27	0	255852544	44	5896
2026-01-14 01:39:27.15	347.45	22.95	-34.6	-35.8	29.5	7.68e-01	53	27	0	257949696	44	5959
2026-01-14 01:39:28.16	347.37	22.79	-34.6	-35.8	29.5	7.68e-01	59	27	0	259522560	44	5953
2026-01-14 01:39:29.17	347.29	22.63	-34.7	-35.9	29.5	7.68e-01	53	27	0	261619712	44	5998
2026-01-14 01:39:30.18	347.21	22.47	-34.7	-35.9	29.5	7.68e-01	60	27	0	263192576	44	6039
2026-01-14 01:39:31.19	347.13	22.31	-34.9	-36.1	29.2	7.68e-01	58	27	0	265289728	44	6169
2026-01-14 01:39:32.20	347.06	22.16	-34.8	-36.1	29.3	7.68e-01	58	27	0	267386880	44	6140
2026-01-14 01:39:33.21	346.98	22.00	-34.8	-36.1	29.2	7.68e-01	57	27	0	268959744	44	6138
2026-01-14 01:39:34.22	346.91	21.84	-34.8	-36.1	29.2	7.68e-01	45	27	0	271056896	44	6159
2026-01-14 01:39:35.23	346.83	21.69	-34.7	-35.9	29.3	7.68e-01	55	27	0	273154048	44	6051
2026-01-14 01:39:36.24	346.76	21.54	-34.6	-35.8	29.5	7.68e-01	57	27	0	274726912	44	5982
2026-01-14 01:39:37.25	346.69	21.38	-34.7	-35.9	29.4	7.68e-01	46	27	0	276824064	44	6018
2026-01-14 01:39:38.26	346.62	21.23	-34.5	-35.7	29.5	7.68e-01	59	27	0	278396928	44	5891
2026-01-14 01:39:39.27	346.54	21.08	-34.5	-35.7	29.6	7.68e-01	57	27	0	280494080	44	5895
2026-01-14 01:39:40.28	346.47	20.93	-34.5	-35.7	29.7	7.68e-01	60	27	0	282591232	44	5863
2026-01-14 01:39:41.29	346.41	20.78	-34.6	-35.8	29.5	7.68e-01	59	27	0	284164096	44	5974
2026-01-14 01:39:42.30	346.34	20.63	-34.6	-35.9	29.5	7.68e-01	61	27	0	286261248	44	5997
2026-01-14 01:39:43.31	346.27	20.49	-34.7	-35.9	29.4	7.68e-01	58	27	0	287834112	44	6022
2026-01-14 01:39:44.32	346.20	20.34	-34.7	-35.9	29.4	7.68e-01	59	27	0	289931264	44	6023
2026-01-14 01:39:45.33	346.14	20.19	-34.7	-36.0	29.4	7.68e-01	53	27	0	292028416	44	6067
2026-01-14 01:39:46.34	346.07	20.05	-34.7	-35.9	29.3	7.68e-01	54	27	0	293601280	44	6055
2026-01-14 01:39:47.35	346.00	19.91	-34.7	-35.9	29.3	7.68e-01	59	27	0	295698432	44	6031
2026-01-14 01:39:48.36	345.94	19.76	-34.7	-35.9	29.3	7.68e-01	59	27	0	297271296	44	6018
2026-01-14 01:39:49.37	345.88	19.62	-34.8	-36.0	29.3	7.68e-01	57	27	0	299368448	44	6093
2026-01-14 01:39:50.37	345.81	19.48	-34.8	-36.0	29.2	7.68e-01	54	27	0	301465600	44	6109
2026-01-14 01:39:51.38	345.75	19.34	-34.8	-36.0	29.3	7.68e-01	59	27	0	303038464	44	6105
2026-01-14 01:39:52.39	345.69	19.20	-34.8	-36.0	29.2	7.68e-01	59	27	0	305135616	44	6117
2026-01-14 01:39:53.40	345.63	19.06	-34.7	-35.9	29.3	7.68e-01	48	27	0	306708480	44	6006
2026-01-14 01:39:54.41	345.57	18.93	-34.7	-35.9	29.3	7.68e-01	61	27	0	308805632	44	6050
2026-01-14 01:39:55.42	345.51	18.79	-34.7	-35.9	29.4	7.68e-01	55	27	0	310902784	44	6021
2026-01-14 01:39:56.43	345.45	18.65	-34.6	-35.8	29.4	7.68e-01	60	27	0	312475648	44	5985
2026-01-14 01:39:57.44	345.39	18.52	-34.8	-36.0	29.3	7.68e-01	58	27	0	314572800	44	6082
2026-01-14 01:39:58.45	345.33	18.38	-34.8	-36.0	29.3	7.68e-01	54	27	0	316145664	44	6088
2026-01-14 01:39:59.46	345.27	18.25	-34.7	-35.9	29.3	7.68e-01	61	27	0	318242816	44	6046
2026-01-14 01:40:00.47	345.22	18.12	-34.7	-35.9	29.3	7.68e-01	60	27	0	320339968	44	6024
2026-01-14 01:40:01.48	345.16	17.98	-34.6	-35.8	29.4	7.68e-01	52	27	0	321912832	44	5957
2026-01-14 01:40:02.49	345.10	17.85	-34.8	-36.0	29.2	7.68e-01	62	27	0	324009984	44	6087
2026-01-14 01:40:03.50	345.05	17.72	-34.7	-35.9	29.3	7.68e-01	45	27	0	326107136	44	6041
2026-01-14 01:40:04.51	344.99	17.59	-34.7	-36.0	29.3	7.68e-01	59	27	0	327680000	44	6068
2026-01-14 01:40:05.52	344.94	17.46	-34.7	-35.9	29.3	7.68e-01	57	27	0	329777152	44	6050
2026-01-14 01:40:06.53	344.89	17.33	-34.8	-36.0	29.2	7.68e-01	48	27	0	331350016	44	6102
2026-01-14 01:40:07.54	344.83	17.21	-34.8	-36.1	29.2	7.68e-01	62	27	0	333447168	44	6135
2026-01-14 01:40:08.55	344.78	17.08	-34.7	-35.9	29.2	7.68e-01	52	27	0	335544320	44	6033
2026-01-14 01:40:09.56	344.73	16.95	-34.7	-35.9	29.3	7.68e-01	62	27	0	337117184	44	6027
2026-01-14 01:40:10.57	344.68	16.83	-34.7	-35.9	29.3	7.68e-01	61	27	0	339214336	44	6044
2026-01-14 01:40:11.58	344.62	16.70	-34.7	-35.9	29.2	7.68e-01	48	27	0	341311488	44	6030
2026-01-14 01:40:12.59	344.57	16.58	-34.7	-35.9	29.2	7.68e-01	58	27	0	342884352	44	6035
2026-01-14 01:40:13.60	344.52	16.45	-34.7	-35.9	29.2	7.68e-01	59	27	0	344981504	44	6045
2026-01-14 01:40:14.61	344.47	16.33	-34.7	-36.0	29.1	7.68e-01	50	27	0	346554368	44	6084
2026-01-14 01:40:15.62	344.42	16.21	-34.7	-36.0	29.2	7.68e-01	56	27	0	348651520	44	6068
2026-01-14 01:40:16.63	344.38	16.09	-34.7	-35.9	29.2	7.68e-01	60	27	0	350748672	44	6025
2026-01-14 01:40:17.64	344.33	15.97	-34.8	-36.0	29.1	7.68e-01	59	27	0	352321536	44	6098
2026-01-14 01:40:18.65	344.28	15.84	-34.8	-36.0	29.2	7.68e-01	56	27	0	354418688	44	6087
2026-01-14 01:40:19.66	344.23	15.72	-34.6	-35.8	29.3	7.68e-01	55	27	0	355991552	44	5947
2026-01-14 01:40:20.67	344.18	15.61	-34.6	-35.8	29.3	7.68e-01	60	27	0	358088704	44	5987
2026-01-14 01:40:21.68	344.14	15.49	-34.6	-35.8	29.3	7.68e-01	60	27	0	360185856	44	5958
2026-01-14 01:40:22.69	344.09	15.37	-34.6	-35.8	29.3	7.68e-01	50	27	0	361758720	44	5954
2026-01-14 01:40:23.70	344.05	15.25	-34.6	-35.9	29.2	7.68e-01	60	27	0	363855872	44	5995
2026-01-14 01:40:24.71	344.00	15.13	-34.8	-36.0	29.1	7.68e-01	59	27	0	365953024	44	6113
2026-01-14 01:40:25.72	343.96	15.02	-34.6	-35.8	29.3	7.68e-01	57	27	0	367525888	44	5945
2026-01-14 01:40:26.74	343.91	14.90	-34.5	-35.8	29.3	7.68e-01	59	27	0	369623040	44	5932
2026-01-14 01:40:27.75	343.87	14.79	-34.6	-35.8	29.3	7.68e-01	38	27	0	371195904	44	5939
2026-01-14 01:40:28.75	343.82	14.67	-34.5	-35.7	29.4	7.68e-01	59	27	0	373293056	44	5865
2026-01-14 01:40:29.76	343.78	14.56	-34.5	-35.7	29.4	7.68e-01	61	27	0	375390208	44	5884
2026-01-14 01:40:30.77	343.74	14.45	-34.5	-35.7	29.3	7.68e-01	59	27	0	376963072	44	5891
2026-01-14 01:40:31.78	343.69	14.33	-34.5	-35.7	29.4	7.68e-01	60	27	0	379060224	44	5902
2026-01-14 01:40:32.79	343.65	14.22	-34.4	-35.6	29.5	7.68e-01	60	27	0	380633088	44	5833
2026-01-14 01:40:33.80	343.61	14.11	-34.6	-35.8	29.4	7.68e-01	62	27	0	382730240	44	5963
2026-01-14 01:40:34.81	343.57	14.00	-34.6	-35.8	29.3	7.68e-01	59	27	0	384827392	44	5988
2026-01-14 01:40:35.82	343.53	13.89	-34.6	-35.8	29.3	7.68e-01	45	27	0	386400256	44	5973
2026-01-14 01:40:36.83	343.49	13.78	-34.8	-36.0	29.1	7.68e-01	55	27	0	388497408	44	6118
2026-01-14 01:40:37.84	343.45	13.67	-34.7	-36.0	29.1	7.68e-01	63	27	0	390070272	44	6079
2026-01-14 01:40:38.85	343.41	13.56	-34.8	-36.0	29.1	7.68e-01	58	27	0	392167424	44	6121
2026-01-14 01:40:39.86	343.37	13.45	-34.8	-36.0	29.0	7.68e-01	60	27	0	394264576	44	6122
2026-01-14 01:40:40.87	343.33	13.34	-34.8	-36.1	29.0	7.68e-01	51	27	0	395837440	44	6162
2026-01-14 01:40:41.88	343.29	13.24	-34.7	-35.9	29.2	7.68e-01	59	27	0	397934592	44	6048
2026-01-14 01:40:42.90	343.25	13.13	-34.8	-36.0	29.1	7.68e-01	59	27	0	399507456	44	6109
2026-01-14 01:40:43.90	343.21	13.02	-34.8	-36.0	29.1	7.68e-01	45	27	0	401604608	44	6117
2026-01-14 01:40:44.91	343.17	12.92	-34.8	-36.0	29.0	7.68e-01	58	27	0	403701760	44	6120
2026-01-14 01:40:45.92	343.13	12.81	-34.7	-35.9	29.1	7.68e-01	56	27	0	405274624	44	6027
2026-01-14 01:40:46.93	343.10	12.71	-34.7	-36.0	29.1	7.68e-01	51	27	0	407371776	44	6078
2026-01-14 01:40:47.94	343.06	12.60	-34.7	-35.9	29.2	7.68e-01	59	27	0	409468928	44	6038
2026-01-14 01:40:48.95	343.02	12.50	-34.9	-36.2	29.0	7.68e-01	58	27	0	411041792	44	6207
2026-01-14 01:40:49.96	342.99	12.40	-34.8	-36.0	29.0	7.68e-01	61	27	0	413138944	44	6101
2026-01-14 01:40:50.97	342.95	12.29	-34.7	-35.9	29.1	7.68e-01	62	27	0	414711808	44	6054
2026-01-14 01:40:51.98	342.91	12.19	-34.9	-36.1	29.1	7.68e-01	52	27	0	416808960	44	6160
2026-01-14 01:40:52.99	342.88	12.09	-34.8	-36.1	28.9	7.68e-01	60	27	0	418906112	44	6151
2026-01-14 01:40:54.00	342.84	11.99	-35.1	-36.4	28.8	7.68e-01	58	27	0	420478976	44	6351
2026-01-14 01:40:55.00	342.81	11.89	-34.9	-36.2	28.9	7.68e-01	58	27	0	422576128	44	6219
2026-01-14 01:40:56.01	342.77	11.79	-35.0	-36.2	29.0	7.68e-01	61	27	0	424148992	44	6233
2026-01-14 01:40:57.03	342.74	11.69	-34.9	-36.2	28.9	7.68e-01	52	27	0	426246144	44	6219
2026-01-14 01:40:58.03	342.70	11.59	-35.0	-36.3	28.7	7.68e-01	59	27	0	428343296	44	6295
2026-01-14 01:40:59.04	342.67	11.49	-34.9	-36.2	28.9	7.68e-01	60	27	0	429916160	44	6212
2026-01-14 01:41:00.05	342.64	11.39	-35.1	-36.3	28.7	7.68e-01	46	27	0	432013312	44	6316
2026-01-14 01:41:01.06	342.60	11.29	-35.0	-36.2	28.8	7.68e-01	63	27	0	433586176	44	6271
2026-01-14 01:41:02.07	342.57	11.19	-35.1	-36.3	28.7	7.68e-01	60	27	0	435683328	44	6330
2026-01-14 01:41:03.08	342.54	11.09	-35.0	-36.3	28.8	7.68e-01	61	27	0	437780480	44	6284
2026-01-14 01:41:04.09	342.51	11.00	-35.0	-36.3	28.8	7.68e-01	59	27	0	439353344	44	6300
2026-01-14 01:41:05.10	342.47	10.90	-35.1	-36.3	28.8	7.68e-01	55	27	0	441450496	44	6329
2026-01-14 01:41:06.11	342.44	10.80	-35.1	-36.3	28.8	7.68e-01	51	27	0	443547648	44	6333
2026-01-14 01:41:07.12	342.41	10.71	-35.2	-36.4	28.7	7.68e-01	58	27	0	445120512	44	6395
2026-01-14 01:41:08.13	342.38	10.61	-35.1	-36.3	28.7	7.68e-01	60	27	0	447217664	44	6332
2026-01-14 01:41:09.14	342.35	10.52	-35.2	-36.5	28.6	7.68e-01	57	27	0	448790528	44	6437
2026-01-14 01:41:10.15	342.32	10.42	-35.2	-36.5	28.6	7.68e-01	59	27	0	450887680	44	6447
2026-01-14 01:41:11.16	342.28	10.33	-35.2	-36.4	28.7	7.68e-01	61	27	0	452460544	44	6380
