passes_logs/2026/01/14/R4.6S_Anadyr/R4.6S_Anadyr__20260114_020423_JILIN-1_GAOFEN_03D18_rec.log

#Pass ID: 20260114_020423_JILIN-1 GAOFEN 03D18
#Satellite: JILIN-1 GAOFEN 03D18
#Configuration: 03D_900M
#almurnet v.1.7.20251203
#Start time: 2026-01-14 02:04:28

#Version: 2.2.20231116
#Station: R4.6S_Anadyr
#Location: 177.4865 lon 64.73178 lat
#TLE: 1 51844U 22019W   26013.62182770  .00052539  00000+0  58341-3 0  9998
#TLE: 2 51844  97.3771 103.0541 0006142 315.7940  44.2827 15.62745831215719

#Time	Az	El	Level	Level2	SNR	BER	BlckErr	Temp	State	Recorded	gain1	gain2
2026-01-14 02:04:28.76	13.04	0.33	-48.7	-66.5	3.5	7.68e-01	0	24	0	0	60	81448
2026-01-14 02:04:29.76	12.95	0.39	-45.4	-47.8	6.1	0.00e+00	0	26	104	0	60	29985
2026-01-14 02:04:30.77	12.85	0.45	-45.6	-47.9	6.1	0.00e+00	0	26	104	0	60	30323
2026-01-14 02:04:31.78	12.76	0.51	-45.5	-47.9	6.0	0.00e+00	0	26	104	0	60	30341
2026-01-14 02:04:32.79	12.67	0.57	-45.0	-47.4	6.1	0.00e+00	0	26	104	0	60	28869
2026-01-14 02:04:33.80	12.58	0.63	-45.1	-47.6	6.1	0.00e+00	0	26	104	0	60	29290
2026-01-14 02:04:34.81	12.49	0.69	-45.4	-47.7	6.1	0.00e+00	0	26	104	0	60	29801
2026-01-14 02:04:35.82	12.39	0.75	-45.3	-47.7	6.1	0.00e+00	0	26	104	0	60	29620
2026-01-14 02:04:36.83	12.30	0.81	-45.2	-47.6	6.1	0.00e+00	0	26	104	0	60	29247
2026-01-14 02:04:37.84	12.20	0.87	-45.0	-47.4	6.1	0.00e+00	0	26	104	0	60	28784
2026-01-14 02:04:38.85	12.11	0.93	-44.6	-47.0	6.1	0.00e+00	0	26	104	0	60	27491
2026-01-14 02:04:39.86	12.01	0.99	-44.2	-46.6	6.1	0.00e+00	0	26	104	0	60	26336
2026-01-14 02:04:40.87	11.92	1.06	-43.9	-46.2	6.1	0.00e+00	0	26	104	0	60	25093
2026-01-14 02:04:41.88	11.82	1.12	-43.8	-46.2	6.1	0.00e+00	0	26	104	0	60	25037
2026-01-14 02:04:42.89	11.72	1.18	-43.8	-46.2	6.1	0.00e+00	0	26	104	0	60	24983
2026-01-14 02:04:43.90	11.62	1.24	-43.8	-46.2	6.1	0.00e+00	0	26	104	0	60	24946
2026-01-14 02:04:44.91	11.52	1.30	-43.8	-46.2	6.1	0.00e+00	0	26	104	0	60	24868
2026-01-14 02:04:45.92	11.42	1.36	-43.8	-46.2	6.1	0.00e+00	0	26	104	0	60	24878
2026-01-14 02:04:46.94	11.32	1.43	-43.7	-46.1	6.1	0.00e+00	0	26	104	0	60	24748
2026-01-14 02:04:47.95	11.22	1.49	-43.7	-46.1	6.1	0.00e+00	0	27	104	0	60	24651
2026-01-14 02:04:48.96	11.12	1.55	-43.7	-46.1	6.1	0.00e+00	0	26	104	0	60	24730
2026-01-14 02:04:49.97	11.02	1.61	-43.7	-46.1	6.1	0.00e+00	0	26	104	0	60	24645
2026-01-14 02:04:50.97	10.92	1.68	-43.7	-46.1	6.1	0.00e+00	0	27	104	0	60	24633
2026-01-14 02:04:51.98	10.81	1.74	-43.7	-46.1	6.1	0.00e+00	0	27	104	0	60	24636
2026-01-14 02:04:52.99	10.71	1.80	-43.7	-46.1	6.1	0.00e+00	0	27	104	0	60	24664
2026-01-14 02:04:54.00	10.60	1.87	-43.7	-46.0	6.1	0.00e+00	0	27	104	0	60	24537
2026-01-14 02:04:55.01	10.50	1.93	-43.7	-46.0	6.1	0.00e+00	0	27	104	0	60	24549
2026-01-14 02:04:56.02	10.39	1.99	-43.7	-46.0	6.1	0.00e+00	0	27	104	0	60	24547
2026-01-14 02:04:57.03	10.28	2.06	-43.7	-46.1	6.1	0.00e+00	0	27	104	0	60	24597
2026-01-14 02:04:58.04	10.18	2.12	-43.7	-46.1	6.1	0.00e+00	0	27	104	0	60	24634
2026-01-14 02:04:59.05	10.07	2.18	-43.7	-46.0	6.1	0.00e+00	0	27	104	0	60	24520
2026-01-14 02:05:00.06	9.96	2.25	-43.6	-46.0	6.1	0.00e+00	0	27	104	0	60	24448
2026-01-14 02:05:01.07	9.85	2.31	-43.6	-46.0	6.1	0.00e+00	0	27	104	0	60	24360
2026-01-14 02:05:02.08	9.74	2.38	-43.6	-46.0	6.1	0.00e+00	0	27	104	0	60	24345
2026-01-14 02:05:03.09	9.63	2.44	-43.6	-45.9	6.1	0.00e+00	0	27	104	0	60	24269
2026-01-14 02:05:04.10	9.51	2.51	-43.6	-46.0	6.1	0.00e+00	0	27	104	0	60	24448
2026-01-14 02:05:05.11	9.40	2.57	-43.6	-46.0	6.1	0.00e+00	0	27	104	0	60	24419
2026-01-14 02:05:06.12	9.29	2.64	-43.6	-46.0	6.1	0.00e+00	0	27	104	0	60	24379
2026-01-14 02:05:07.13	9.17	2.70	-43.6	-45.9	6.1	0.00e+00	0	27	104	0	60	24285
2026-01-14 02:05:08.14	9.06	2.77	-43.6	-45.9	6.1	0.00e+00	0	27	104	0	60	24291
2026-01-14 02:05:09.15	8.94	2.83	-43.6	-45.9	6.1	0.00e+00	0	27	104	0	60	24163
2026-01-14 02:05:10.16	8.83	2.90	-43.6	-45.9	6.1	0.00e+00	0	27	104	0	60	24247
2026-01-14 02:05:11.17	8.71	2.96	-43.6	-45.9	6.1	0.00e+00	0	27	104	0	60	24209
2026-01-14 02:05:12.18	8.59	3.03	-43.6	-45.9	6.1	0.00e+00	0	27	104	0	60	24211
2026-01-14 02:05:13.19	8.47	3.09	-43.6	-45.9	6.1	0.00e+00	0	27	104	0	60	24257
2026-01-14 02:05:14.20	8.35	3.16	-43.6	-45.9	6.1	0.00e+00	0	27	104	0	60	24202
2026-01-14 02:05:15.20	8.23	3.23	-43.6	-46.0	6.1	0.00e+00	0	27	104	0	60	24311
2026-01-14 02:05:16.21	8.11	3.29	-43.6	-46.0	6.1	0.00e+00	0	27	104	0	60	24320
2026-01-14 02:05:17.22	7.99	3.36	-43.6	-45.9	6.1	0.00e+00	0	27	104	0	60	24208
2026-01-14 02:05:18.23	7.87	3.43	-43.6	-45.9	6.1	0.00e+00	0	27	104	0	60	24196
2026-01-14 02:05:19.24	7.74	3.49	-43.5	-45.9	6.1	0.00e+00	0	27	104	0	60	24143
2026-01-14 02:05:20.25	7.62	3.56	-43.5	-45.9	6.1	0.00e+00	0	27	104	0	60	24244
2026-01-14 02:05:21.26	7.49	3.63	-43.5	-45.9	6.1	0.00e+00	0	27	104	0	60	24250
2026-01-14 02:05:22.27	7.37	3.70	-43.5	-45.9	6.1	0.00e+00	0	27	104	0	60	24256
2026-01-14 02:05:23.28	7.24	3.76	-43.6	-46.0	6.1	0.00e+00	0	27	104	0	60	24366
2026-01-14 02:05:24.29	7.11	3.83	-43.8	-46.2	6.1	0.00e+00	0	27	104	0	60	24928
2026-01-14 02:05:25.30	6.98	3.90	-43.8	-46.2	6.1	0.00e+00	0	27	104	0	60	24990
2026-01-14 02:05:26.31	6.85	3.97	-43.6	-46.0	6.1	0.00e+00	0	27	104	0	60	24303
2026-01-14 02:05:27.32	6.72	4.03	-43.8	-46.2	6.1	0.00e+00	0	27	104	0	60	24983
2026-01-14 02:05:28.33	6.59	4.10	-43.8	-46.2	6.1	0.00e+00	0	27	104	0	60	24875
2026-01-14 02:05:29.34	6.46	4.17	-43.9	-46.3	6.1	0.00e+00	0	27	104	0	60	25210
2026-01-14 02:05:30.35	6.32	4.24	-43.7	-46.1	6.1	0.00e+00	0	27	104	0	60	24670
2026-01-14 02:05:31.36	6.19	4.31	-43.9	-46.3	6.1	0.00e+00	0	27	104	0	60	25183
2026-01-14 02:05:32.37	6.05	4.38	-43.9	-46.2	6.1	0.00e+00	0	27	104	0	60	25034
2026-01-14 02:05:33.38	5.92	4.45	-44.0	-46.3	6.1	0.00e+00	0	28	104	0	60	25380
2026-01-14 02:05:34.39	5.78	4.52	-43.8	-46.1	6.1	0.00e+00	0	27	104	0	60	24828
2026-01-14 02:05:35.40	5.64	4.59	-44.0	-46.3	6.1	0.00e+00	0	27	104	0	60	25274
2026-01-14 02:05:36.41	5.50	4.66	-43.9	-46.3	6.1	0.00e+00	0	27	104	0	60	25286
2026-01-14 02:05:37.42	5.36	4.73	-44.0	-46.3	6.1	0.00e+00	0	27	104	0	60	25373
2026-01-14 02:05:38.43	5.22	4.80	-43.9	-46.3	6.1	0.00e+00	0	28	104	0	60	25338
2026-01-14 02:05:39.44	5.08	4.87	-44.0	-46.4	6.1	0.00e+00	0	27	104	0	60	25462
2026-01-14 02:05:40.45	4.93	4.94	-44.0	-46.3	6.1	0.00e+00	0	28	104	0	60	25278
2026-01-14 02:05:41.46	4.79	5.01	-44.0	-46.4	6.1	0.00e+00	0	28	104	0	60	25554
2026-01-14 02:05:42.47	4.64	5.08	-43.8	-46.2	6.1	0.00e+00	0	28	104	0	60	24928
2026-01-14 02:05:43.48	4.50	5.15	-44.0	-46.3	6.1	0.00e+00	0	28	104	0	60	25383
2026-01-14 02:05:44.48	4.35	5.22	-44.0	-46.4	6.1	0.00e+00	0	27	104	0	60	25578
2026-01-14 02:05:45.50	4.20	5.29	-44.1	-46.4	6.1	0.00e+00	0	28	104	0	60	25664
2026-01-14 02:05:46.51	4.05	5.36	-44.0	-46.4	6.1	0.00e+00	0	27	104	0	60	25541
2026-01-14 02:05:47.52	3.90	5.43	-44.0	-46.4	6.1	0.00e+00	0	28	104	0	60	25475
2026-01-14 02:05:48.53	3.75	5.50	-44.1	-46.4	6.1	0.00e+00	0	28	104	0	60	25678
2026-01-14 02:05:49.54	3.60	5.58	-44.1	-46.4	6.1	0.00e+00	0	28	104	0	60	25656
2026-01-14 02:05:50.55	3.44	5.65	-44.0	-46.4	6.1	0.00e+00	0	28	104	0	60	25624
2026-01-14 02:05:51.56	3.29	5.72	-44.1	-46.5	6.1	0.00e+00	0	28	104	0	60	25930
2026-01-14 02:05:52.57	3.13	5.79	-44.2	-46.6	6.1	0.00e+00	0	28	104	0	60	26180
2026-01-14 02:05:53.58	2.97	5.86	-44.1	-46.5	6.1	0.00e+00	0	28	104	0	60	25822
2026-01-14 02:05:54.59	2.82	5.94	-44.1	-46.5	6.1	0.00e+00	0	28	104	0	60	25876
2026-01-14 02:05:55.60	2.66	6.01	-44.2	-46.5	6.1	0.00e+00	0	28	104	0	60	26033
2026-01-14 02:05:56.61	2.50	6.08	-44.1	-46.5	6.1	0.00e+00	0	28	104	0	60	25793
2026-01-14 02:05:57.62	2.33	6.16	-44.2	-46.6	6.1	0.00e+00	0	28	104	0	60	26201
2026-01-14 02:05:58.63	2.17	6.23	-44.1	-46.5	6.1	0.00e+00	0	28	104	0	60	25924
2026-01-14 02:05:59.64	2.01	6.30	-44.1	-46.5	6.1	0.00e+00	0	28	104	0	60	25897
2026-01-14 02:06:00.65	1.84	6.38	-44.3	-46.7	6.1	0.00e+00	0	28	104	0	60	26390
2026-01-14 02:06:01.66	1.67	6.45	-44.2	-46.6	6.1	0.00e+00	0	28	104	0	60	26115
2026-01-14 02:06:02.67	1.51	6.52	-44.3	-46.7	6.1	0.00e+00	0	28	104	0	60	26356
2026-01-14 02:06:03.68	1.34	6.60	-44.2	-46.6	6.1	0.00e+00	0	28	104	0	60	26128
2026-01-14 02:06:04.69	1.17	6.67	-44.3	-46.7	6.1	0.00e+00	0	28	104	0	60	26512
2026-01-14 02:06:05.70	0.99	6.74	-44.2	-46.6	6.1	0.00e+00	0	28	104	0	60	26172
2026-01-14 02:06:06.71	0.82	6.82	-44.3	-46.6	6.1	0.00e+00	0	28	104	0	60	26280
2026-01-14 02:06:07.72	0.65	6.89	-44.3	-46.6	6.1	0.00e+00	0	28	104	0	60	26198
2026-01-14 02:06:08.73	0.47	6.97	-44.3	-46.7	6.1	0.00e+00	0	28	104	0	60	26636
2026-01-14 02:06:09.74	0.30	7.04	-44.3	-46.7	6.1	0.00e+00	0	28	104	0	60	26360
2026-01-14 02:06:10.75	0.12	7.12	-44.3	-46.7	6.1	0.00e+00	0	28	104	0	60	26617
2026-01-14 02:06:11.76	359.94	7.19	-44.3	-46.7	6.1	0.00e+00	0	28	104	0	60	26521
2026-01-14 02:06:12.77	359.76	7.27	-44.3	-46.7	6.1	0.00e+00	0	28	104	0	60	26452
2026-01-14 02:06:13.78	359.58	7.34	-44.3	-46.7	6.1	0.00e+00	0	28	104	0	60	26364
2026-01-14 02:06:14.79	359.39	7.42	-44.4	-46.8	6.1	0.00e+00	0	28	104	0	60	26806
2026-01-14 02:06:15.80	359.21	7.49	-44.4	-46.7	6.1	0.00e+00	0	28	104	0	60	26412
2026-01-14 02:06:16.81	359.02	7.57	-44.4	-46.8	6.0	0.00e+00	0	28	104	0	60	26790
2026-01-14 02:06:17.82	358.83	7.65	-44.3	-46.7	6.1	0.00e+00	0	28	104	0	60	26392
2026-01-14 02:06:18.83	358.64	7.72	-45.0	-47.3	6.1	0.00e+00	0	28	104	0	60	28473
2026-01-14 02:06:19.84	358.45	7.80	-44.4	-46.8	6.1	0.00e+00	0	28	104	0	60	26910
2026-01-14 02:06:20.85	358.26	7.87	-45.0	-47.4	6.1	0.00e+00	0	28	104	0	60	28761
2026-01-14 02:06:21.86	358.07	7.95	-44.5	-46.9	6.1	0.00e+00	0	28	104	0	60	27111
2026-01-14 02:06:22.87	357.87	8.03	-44.5	-46.9	6.1	0.00e+00	0	28	104	0	60	26978
2026-01-14 02:06:23.88	357.68	8.10	-44.5	-46.9	6.1	0.00e+00	0	28	104	0	60	27032
2026-01-14 02:06:24.89	357.48	8.18	-44.3	-46.7	6.1	0.00e+00	0	28	104	0	60	26547
2026-01-14 02:06:25.90	357.28	8.26	-44.3	-46.7	6.1	0.00e+00	0	28	104	0	60	26561
2026-01-14 02:06:26.91	357.08	8.33	-44.4	-46.8	6.1	0.00e+00	0	28	104	0	60	26921
2026-01-14 02:06:27.92	356.88	8.41	-44.5	-46.8	6.1	0.00e+00	0	28	104	0	60	26904
2026-01-14 02:06:28.93	356.68	8.49	-44.5	-46.9	6.1	0.00e+00	0	28	104	0	60	27173
2026-01-14 02:06:29.94	356.47	8.57	-44.3	-46.7	6.1	0.00e+00	0	28	104	0	60	26491
2026-01-14 02:06:30.95	356.26	8.64	-44.5	-46.9	6.1	0.00e+00	0	28	104	0	60	27193
2026-01-14 02:06:31.96	356.06	8.72	-44.5	-46.9	6.1	0.00e+00	0	28	104	0	60	27034
2026-01-14 02:06:32.97	355.85	8.80	-44.5	-46.9	6.1	0.00e+00	0	28	104	0	60	26957
2026-01-14 02:06:33.98	355.64	8.88	-44.4	-46.8	6.1	0.00e+00	0	28	104	0	60	26714
2026-01-14 02:06:34.99	355.42	8.95	-44.5	-46.9	6.1	0.00e+00	0	28	104	0	60	27045
2026-01-14 02:06:36.00	355.21	9.03	-44.5	-46.9	6.1	0.00e+00	0	28	104	0	60	27040
2026-01-14 02:06:37.01	354.99	9.11	-44.5	-46.9	6.1	0.00e+00	0	28	104	0	60	27098
2026-01-14 02:06:38.02	354.77	9.19	-44.4	-46.8	6.1	0.00e+00	0	28	104	0	60	26759
2026-01-14 02:06:39.03	354.56	9.27	-44.6	-46.9	6.1	0.00e+00	0	28	104	0	60	27157
2026-01-14 02:06:40.04	354.33	9.34	-44.6	-46.9	6.1	0.00e+00	0	28	104	0	60	27114
2026-01-14 02:06:41.05	354.11	9.42	-44.5	-46.9	6.1	0.00e+00	0	28	104	0	60	27000
2026-01-14 02:06:42.06	353.89	9.50	-44.6	-47.0	6.1	0.00e+00	0	28	104	0	60	27429
2026-01-14 02:06:43.07	353.66	9.58	-44.7	-47.0	6.1	0.00e+00	0	28	104	0	60	27536
2026-01-14 02:06:44.08	353.43	9.66	-44.5	-46.9	6.1	0.00e+00	0	28	104	0	60	27149
2026-01-14 02:06:45.09	353.20	9.74	-44.7	-47.1	6.1	0.00e+00	0	28	104	0	60	27582
2026-01-14 02:06:46.10	352.97	9.81	-44.8	-47.1	6.1	0.00e+00	0	28	104	0	60	27761
2026-01-14 02:06:47.11	352.74	9.89	-44.7	-47.1	6.1	0.00e+00	0	28	104	0	60	27615
2026-01-14 02:06:48.12	352.51	9.97	-44.7	-47.1	6.1	0.00e+00	0	28	104	0	60	27863
2026-01-14 02:06:49.12	352.27	10.05	-44.6	-47.0	6.1	0.00e+00	0	28	104	0	60	27404
2026-01-14 02:06:50.13	352.03	10.13	-44.6	-47.0	6.1	0.00e+00	0	28	104	0	60	27515
2026-01-14 02:06:51.14	351.80	10.21	-44.6	-47.0	6.1	0.00e+00	0	28	104	0	60	27427
2026-01-14 02:06:52.15	351.55	10.28	-44.6	-47.0	6.1	0.00e+00	0	28	104	0	60	27385
2026-01-14 02:06:53.16	351.31	10.36	-44.5	-46.9	6.1	0.00e+00	0	28	104	0	60	27191
2026-01-14 02:06:54.18	351.06	10.44	-44.6	-47.0	6.1	0.00e+00	0	28	104	0	60	27438
2026-01-14 02:06:55.19	350.82	10.52	-44.6	-47.0	6.1	0.00e+00	0	28	104	0	60	27487
2026-01-14 02:06:56.20	350.57	10.60	-44.6	-46.9	6.1	0.00e+00	0	28	104	0	60	27151
2026-01-14 02:06:57.21	350.32	10.68	-44.6	-47.0	6.1	0.00e+00	0	28	104	0	60	27547
2026-01-14 02:06:58.22	350.06	10.75	-44.8	-47.1	6.1	0.00e+00	0	28	104	0	60	27624
2026-01-14 02:06:59.23	349.81	10.83	-44.7	-47.0	6.1	0.00e+00	0	28	104	0	60	27425
2026-01-14 02:07:00.23	349.56	10.91	-44.7	-47.0	6.1	0.00e+00	0	28	104	0	60	27455
2026-01-14 02:07:01.24	349.30	10.99	-44.7	-47.0	6.1	0.00e+00	0	28	104	0	60	27533
2026-01-14 02:07:02.25	349.04	11.07	-44.8	-47.1	6.1	0.00e+00	0	29	104	0	60	27767
2026-01-14 02:07:03.26	348.78	11.15	-44.7	-47.0	6.1	0.00e+00	0	28	104	0	60	27567
2026-01-14 02:07:04.27	348.51	11.22	-44.6	-47.0	6.1	0.00e+00	0	29	104	0	60	27483
2026-01-14 02:07:05.28	348.25	11.30	-44.7	-47.1	6.1	0.00e+00	0	28	104	0	60	27694
2026-01-14 02:07:06.29	347.98	11.38	-44.6	-47.0	6.1	0.00e+00	0	28	104	0	60	27546
2026-01-14 02:07:07.30	347.71	11.46	-44.7	-47.0	6.1	0.00e+00	0	28	104	0	60	27575
2026-01-14 02:07:08.31	347.44	11.53	-44.7	-47.0	6.1	0.00e+00	0	29	104	0	60	27561
2026-01-14 02:07:09.32	347.17	11.61	-44.7	-47.1	6.1	0.00e+00	0	29	104	0	60	27715
2026-01-14 02:07:10.34	346.89	11.69	-44.7	-47.0	6.1	0.00e+00	0	29	104	0	60	27532
2026-01-14 02:07:11.35	346.61	11.77	-44.7	-47.1	6.1	0.00e+00	0	28	104	0	60	27760
2026-01-14 02:07:12.36	346.33	11.84	-44.7	-47.1	6.1	0.00e+00	0	28	104	0	60	27646
2026-01-14 02:07:13.37	346.05	11.92	-44.7	-47.1	6.1	0.00e+00	0	28	104	0	60	27698
2026-01-14 02:07:14.38	345.77	12.00	-44.9	-47.2	6.1	0.00e+00	0	29	104	0	60	28163
2026-01-14 02:07:15.39	345.48	12.07	-44.8	-47.2	6.1	0.00e+00	0	28	104	0	60	27920
2026-01-14 02:07:16.40	345.20	12.15	-44.7	-47.1	6.1	0.00e+00	0	29	104	0	60	27807
2026-01-14 02:07:17.41	344.91	12.23	-44.8	-47.2	6.1	0.00e+00	0	29	104	0	60	27997
2026-01-14 02:07:18.42	344.61	12.30	-44.9	-47.3	6.1	0.00e+00	0	28	104	0	60	28411
2026-01-14 02:07:19.43	344.32	12.38	-44.9	-47.3	6.1	0.00e+00	0	28	104	0	60	28418
2026-01-14 02:07:20.43	344.03	12.45	-44.8	-47.2	6.1	0.00e+00	0	28	104	0	60	28006
2026-01-14 02:07:21.44	343.73	12.53	-44.9	-47.3	6.1	0.00e+00	0	29	104	0	60	28474
2026-01-14 02:07:22.45	343.43	12.60	-44.8	-47.2	6.1	0.00e+00	0	29	104	0	60	28066
2026-01-14 02:07:23.46	343.13	12.68	-44.9	-47.3	6.1	0.00e+00	0	28	104	0	60	28387
2026-01-14 02:07:24.47	342.83	12.75	-44.8	-47.2	6.1	0.00e+00	0	29	104	0	60	27967
2026-01-14 02:07:25.48	342.52	12.83	-44.9	-47.3	6.0	0.00e+00	0	29	104	0	60	28462
2026-01-14 02:07:26.49	342.21	12.90	-45.0	-47.3	6.1	0.00e+00	0	29	104	0	60	28537
2026-01-14 02:07:27.50	341.91	12.98	-44.9	-47.3	6.1	0.00e+00	0	28	104	0	60	28453
2026-01-14 02:07:28.52	341.59	13.05	-44.8	-47.2	6.1	0.00e+00	0	29	104	0	60	28090
2026-01-14 02:07:29.53	341.28	13.12	-45.0	-47.4	6.1	0.00e+00	0	29	104	0	60	28602
2026-01-14 02:07:30.54	340.96	13.19	-45.0	-47.4	6.1	0.00e+00	0	29	104	0	60	28685
2026-01-14 02:07:31.55	340.64	13.27	-45.0	-47.4	6.1	0.00e+00	0	29	104	0	60	28661
2026-01-14 02:07:32.56	340.32	13.34	-44.9	-47.3	6.1	0.00e+00	0	29	104	0	60	28415
2026-01-14 02:07:33.57	340.00	13.41	-45.0	-47.4	6.1	0.00e+00	0	29	104	0	60	28775
2026-01-14 02:07:34.57	339.68	13.48	-45.1	-47.5	6.1	0.00e+00	0	29	104	0	60	28967
2026-01-14 02:07:35.58	339.36	13.55	-45.1	-47.5	6.1	0.00e+00	0	29	104	0	60	29113
2026-01-14 02:07:36.59	339.03	13.62	-45.0	-47.3	6.1	0.00e+00	0	29	104	0	60	28482
2026-01-14 02:07:37.60	338.70	13.69	-45.0	-47.4	6.1	0.00e+00	0	29	104	0	60	28695
2026-01-14 02:07:38.61	338.36	13.76	-45.0	-47.4	6.1	0.00e+00	0	28	104	0	60	28702
2026-01-14 02:07:39.62	338.03	13.83	-44.9	-47.3	6.1	0.00e+00	0	29	104	0	60	28515
2026-01-14 02:07:40.63	337.69	13.90	-45.0	-47.4	6.1	0.00e+00	0	29	104	0	60	28567
2026-01-14 02:07:41.64	337.36	13.97	-45.2	-47.6	6.1	0.00e+00	0	29	104	0	60	29512
2026-01-14 02:07:42.65	337.02	14.03	-45.1	-47.5	6.1	0.00e+00	0	29	104	0	60	29181
2026-01-14 02:07:43.66	336.67	14.10	-45.1	-47.5	6.1	0.00e+00	0	29	104	0	60	29073
2026-01-14 02:07:44.67	336.33	14.17	-45.2	-47.7	6.1	0.00e+00	0	29	104	0	60	29689
2026-01-14 02:07:45.68	335.98	14.23	-45.1	-47.4	6.1	0.00e+00	0	29	104	0	60	28838
2026-01-14 02:07:46.69	335.63	14.30	-45.1	-47.5	6.1	0.00e+00	0	29	104	0	60	28944
2026-01-14 02:07:47.70	335.28	14.36	-45.1	-47.5	6.0	0.00e+00	0	29	104	0	60	28886
2026-01-14 02:07:48.71	334.93	14.42	-45.1	-47.5	6.1	0.00e+00	0	29	104	0	60	28973
2026-01-14 02:07:49.72	334.58	14.49	-45.0	-47.4	6.1	0.00e+00	0	29	104	0	60	28869
2026-01-14 02:07:50.72	334.23	14.55	-45.0	-47.4	6.1	0.00e+00	0	29	104	0	60	28621
2026-01-14 02:07:51.73	333.87	14.61	-45.0	-47.4	6.1	0.00e+00	0	29	104	0	60	28716
2026-01-14 02:07:52.74	333.51	14.67	-45.1	-47.5	6.1	0.00e+00	0	29	104	0	60	28907
2026-01-14 02:07:53.75	333.14	14.73	-45.1	-47.4	6.1	0.00e+00	0	29	104	0	60	28738
2026-01-14 02:07:54.76	332.78	14.79	-45.0	-47.4	6.1	0.00e+00	0	29	104	0	60	28584
2026-01-14 02:07:55.77	332.41	14.85	-45.0	-47.3	6.1	0.00e+00	0	29	104	0	60	28541
2026-01-14 02:07:56.78	332.05	14.91	-45.1	-47.4	6.1	0.00e+00	0	29	104	0	60	28828
2026-01-14 02:07:57.79	331.68	14.97	-45.0	-47.4	6.1	0.00e+00	0	29	104	0	60	28596
2026-01-14 02:07:58.80	331.31	15.03	-45.0	-47.4	6.1	0.00e+00	0	29	104	0	60	28579
2026-01-14 02:07:59.80	330.94	15.08	-45.0	-47.3	6.1	0.00e+00	0	29	104	0	60	28519
2026-01-14 02:08:00.81	330.56	15.14	-45.0	-47.4	6.1	0.00e+00	0	29	104	0	60	28735
2026-01-14 02:08:01.82	330.18	15.19	-45.1	-47.4	6.1	0.00e+00	0	29	104	0	60	28765
2026-01-14 02:08:02.83	329.81	15.24	-44.9	-47.3	6.1	0.00e+00	0	29	104	0	60	28519
2026-01-14 02:08:03.84	329.43	15.30	-45.0	-47.3	6.1	0.00e+00	0	29	104	0	60	28525
2026-01-14 02:08:04.85	329.04	15.35	-44.9	-47.3	6.1	0.00e+00	0	29	104	0	60	28503
2026-01-14 02:08:05.86	328.66	15.40	-45.1	-47.4	6.1	0.00e+00	0	29	104	0	60	28663
2026-01-14 02:08:06.87	328.27	15.45	-45.0	-47.3	6.1	0.00e+00	0	29	104	0	60	28339
2026-01-14 02:08:07.88	327.89	15.50	-45.0	-47.3	6.1	0.00e+00	0	29	104	0	60	28522
2026-01-14 02:08:08.89	327.50	15.55	-44.8	-47.3	6.1	0.00e+00	0	29	104	0	60	28271
2026-01-14 02:08:09.90	327.11	15.59	-45.0	-47.4	6.1	0.00e+00	0	29	104	0	60	28652
2026-01-14 02:08:10.91	326.72	15.64	-44.9	-47.3	6.1	0.00e+00	0	29	104	0	60	28351
2026-01-14 02:08:11.92	326.32	15.69	-45.0	-47.4	6.1	0.00e+00	0	29	104	0	60	28682
2026-01-14 02:08:12.93	325.93	15.73	-44.9	-47.3	6.1	0.00e+00	0	29	104	0	60	28516
2026-01-14 02:08:13.94	325.53	15.77	-44.7	-47.1	6.1	0.00e+00	0	29	104	0	60	27857
2026-01-14 02:08:14.95	325.13	15.82	-44.6	-47.0	6.1	0.00e+00	0	29	104	0	60	27407
2026-01-14 02:08:15.96	324.73	15.86	-44.9	-47.3	6.1	0.00e+00	0	29	104	0	60	28393
2026-01-14 02:08:16.96	324.34	15.90	-44.9	-47.3	6.1	0.00e+00	0	29	104	0	60	28513
2026-01-14 02:08:17.98	323.93	15.94	-45.0	-47.4	6.1	0.00e+00	0	29	104	0	60	28604
2026-01-14 02:08:18.99	323.53	15.98	-45.0	-47.3	6.1	0.00e+00	0	29	104	0	60	28336
2026-01-14 02:08:20.00	323.12	16.01	-44.8	-47.2	6.1	0.00e+00	0	29	104	0	60	28109
2026-01-14 02:08:21.01	322.71	16.05	-45.0	-47.4	6.1	0.00e+00	0	29	104	0	60	28635
2026-01-14 02:08:22.02	322.31	16.08	-44.9	-47.3	6.1	0.00e+00	0	29	104	0	60	28276
2026-01-14 02:08:23.03	321.90	16.12	-44.9	-47.3	6.1	0.00e+00	0	29	104	0	60	28324
2026-01-14 02:08:24.03	321.49	16.15	-44.8	-47.2	6.1	0.00e+00	0	29	104	0	60	28190
2026-01-14 02:08:25.05	321.08	16.18	-44.9	-47.3	6.1	0.00e+00	0	29	104	0	60	28358
2026-01-14 02:08:26.05	320.67	16.21	-45.0	-47.4	6.1	0.00e+00	0	29	104	0	60	28634
2026-01-14 02:08:27.07	320.25	16.24	-45.0	-47.3	6.1	0.00e+00	0	29	104	0	60	28498
2026-01-14 02:08:28.08	319.84	16.27	-45.0	-47.3	6.1	0.00e+00	0	29	104	0	60	28489
2026-01-14 02:08:29.08	319.43	16.30	-44.9	-47.3	6.1	0.00e+00	0	29	104	0	60	28440
2026-01-14 02:08:30.09	319.01	16.32	-44.8	-47.2	6.1	0.00e+00	0	29	104	0	60	27949
2026-01-14 02:08:31.10	318.59	16.35	-44.9	-47.3	6.1	0.00e+00	0	29	104	0	60	28319
2026-01-14 02:08:32.11	318.18	16.37	-44.8	-47.2	6.1	0.00e+00	0	29	104	0	60	28127
2026-01-14 02:08:33.12	317.76	16.39	-45.0	-47.4	6.1	0.00e+00	0	29	104	0	60	28561
2026-01-14 02:08:34.13	317.34	16.41	-45.0	-47.3	6.1	0.00e+00	0	29	104	0	60	28463
2026-01-14 02:08:35.14	316.92	16.43	-44.9	-47.3	6.1	0.00e+00	0	29	104	0	60	28403
2026-01-14 02:08:36.15	316.50	16.45	-45.0	-47.4	6.1	0.00e+00	0	29	104	0	60	28637
2026-01-14 02:08:37.16	316.08	16.47	-44.8	-47.3	6.1	0.00e+00	0	29	104	0	60	28262
2026-01-14 02:08:38.17	315.65	16.48	-44.8	-47.1	6.1	0.00e+00	0	29	104	0	60	27887
2026-01-14 02:08:39.18	315.23	16.50	-44.8	-47.3	6.1	0.00e+00	0	29	104	0	60	28308
2026-01-14 02:08:40.19	314.81	16.51	-44.6	-47.0	6.1	0.00e+00	0	29	104	0	60	27503
2026-01-14 02:08:41.20	314.38	16.52	-44.9	-47.3	6.1	0.00e+00	0	29	104	0	60	28236
2026-01-14 02:08:42.21	313.96	16.53	-44.9	-47.3	6.1	0.00e+00	0	29	104	0	60	28475
2026-01-14 02:08:43.23	313.53	16.54	-44.8	-47.2	6.1	0.00e+00	0	29	104	0	60	28037
2026-01-14 02:08:44.24	313.11	16.55	-44.9	-47.3	6.1	0.00e+00	0	29	104	0	60	28339
2026-01-14 02:08:45.25	312.68	16.55	-44.8	-47.2	6.1	0.00e+00	0	29	104	0	60	27972
2026-01-14 02:08:46.25	312.26	16.56	-44.7	-47.1	6.1	0.00e+00	0	29	104	0	60	27730
2026-01-14 02:08:47.26	311.84	16.56	-44.9	-47.2	6.1	0.00e+00	0	29	104	0	60	28202
2026-01-14 02:08:48.27	311.41	16.57	-44.9	-47.3	6.1	0.00e+00	0	29	104	0	60	28401
2026-01-14 02:08:49.28	310.99	16.57	-44.6	-47.1	6.1	0.00e+00	0	29	104	0	60	27631
2026-01-14 02:08:50.29	310.56	16.57	-44.6	-47.1	6.1	0.00e+00	0	29	104	0	60	27620
2026-01-14 02:08:51.30	310.14	16.57	-44.6	-47.0	6.1	0.00e+00	0	29	104	0	60	27569
2026-01-14 02:08:52.31	309.71	16.56	-44.7	-47.2	6.1	0.00e+00	0	29	104	0	60	27928
2026-01-14 02:08:53.32	309.28	16.56	-44.9	-47.3	6.1	0.00e+00	0	29	104	0	60	28298
2026-01-14 02:08:54.33	308.86	16.55	-44.8	-47.3	6.1	0.00e+00	0	29	104	0	60	28277
2026-01-14 02:08:55.34	308.43	16.55	-44.7	-47.2	6.1	0.00e+00	0	29	104	0	60	27934
2026-01-14 02:08:56.35	308.01	16.54	-44.8	-47.2	6.1	0.00e+00	0	29	104	0	60	28131
2026-01-14 02:08:57.36	307.58	16.53	-44.8	-47.2	6.1	0.00e+00	0	29	104	0	60	27905
2026-01-14 02:08:58.37	307.16	16.52	-44.8	-47.3	6.1	0.00e+00	0	29	104	0	60	28320
2026-01-14 02:08:59.38	306.74	16.51	-44.7	-47.1	6.1	0.00e+00	0	29	104	0	60	27824
2026-01-14 02:09:00.39	306.31	16.50	-44.6	-47.1	6.1	0.00e+00	0	29	104	0	60	27651
2026-01-14 02:09:01.40	305.89	16.48	-44.4	-46.9	6.1	0.00e+00	0	29	104	0	60	26987
2026-01-14 02:09:02.41	305.47	16.47	-44.4	-46.9	6.1	0.00e+00	0	29	104	0	60	27223
2026-01-14 02:09:03.42	305.05	16.45	-44.6	-47.0	6.1	0.00e+00	0	29	104	0	60	27329
2026-01-14 02:09:04.43	304.63	16.43	-44.6	-47.0	6.1	0.00e+00	0	29	104	0	60	27519
2026-01-14 02:09:05.44	304.21	16.41	-44.5	-46.9	6.1	0.00e+00	0	29	104	0	60	27194
2026-01-14 02:09:06.45	303.79	16.39	-44.5	-47.0	6.1	0.00e+00	0	29	104	0	60	27353
2026-01-14 02:09:07.46	303.37	16.37	-44.5	-47.0	6.1	0.00e+00	0	29	104	0	60	27395
2026-01-14 02:09:08.47	302.95	16.35	-44.6	-47.1	6.1	0.00e+00	0	29	104	0	60	27618
2026-01-14 02:09:09.48	302.53	16.32	-44.7	-47.1	6.1	0.00e+00	0	29	104	0	60	27800
2026-01-14 02:09:10.49	302.11	16.30	-44.7	-47.2	6.1	0.00e+00	0	29	104	0	60	27975
2026-01-14 02:09:11.50	301.70	16.27	-44.7	-47.1	6.1	0.00e+00	0	29	104	0	60	27807
2026-01-14 02:09:12.51	301.28	16.24	-44.7	-47.2	6.1	0.00e+00	0	29	104	0	60	27915
2026-01-14 02:09:13.52	300.87	16.21	-44.8	-47.3	6.1	0.00e+00	0	29	104	0	60	28274
2026-01-14 02:09:14.53	300.46	16.18	-44.8	-47.2	6.1	0.00e+00	0	29	104	0	60	28057
2026-01-14 02:09:15.54	300.05	16.15	-44.9	-47.2	6.1	0.00e+00	0	29	104	0	60	28146
2026-01-14 02:09:16.55	299.64	16.12	-44.7	-47.2	6.1	0.00e+00	0	29	104	0	60	28044
2026-01-14 02:09:17.56	299.23	16.08	-45.0	-47.4	6.1	0.00e+00	0	29	104	0	60	28548
2026-01-14 02:09:18.57	298.82	16.05	-44.8	-47.3	6.1	0.00e+00	0	29	104	0	60	28294
2026-01-14 02:09:19.58	298.41	16.01	-44.8	-47.2	6.1	0.00e+00	0	29	104	0	60	28189
2026-01-14 02:09:20.59	298.01	15.97	-44.8	-47.3	6.1	0.00e+00	0	29	104	0	60	28318
2026-01-14 02:09:21.59	297.61	15.94	-44.9	-47.2	6.1	0.00e+00	0	29	104	0	60	28040
2026-01-14 02:09:22.61	297.20	15.90	-44.9	-47.3	6.1	0.00e+00	0	29	104	0	60	28316
2026-01-14 02:09:23.62	296.80	15.86	-44.9	-47.3	6.1	0.00e+00	0	29	104	0	60	28350
2026-01-14 02:09:24.63	296.40	15.81	-44.8	-47.3	6.0	0.00e+00	0	29	104	0	60	28263
2026-01-14 02:09:25.64	296.00	15.77	-44.9	-47.3	6.1	0.00e+00	0	29	104	0	60	28399
2026-01-14 02:09:26.65	295.60	15.73	-44.8	-47.2	6.1	0.00e+00	0	29	104	0	60	27980
2026-01-14 02:09:27.66	295.20	15.68	-44.9	-47.3	6.0	0.00e+00	0	29	104	0	60	28372
2026-01-14 02:09:28.67	294.81	15.64	-44.8	-47.2	6.1	0.00e+00	0	29	104	0	60	28140
2026-01-14 02:09:29.68	294.42	15.59	-44.9	-47.3	6.1	0.00e+00	0	29	104	0	60	28223
2026-01-14 02:09:30.69	294.03	15.54	-44.9	-47.2	6.1	0.00e+00	0	29	104	0	60	28168
2026-01-14 02:09:31.70	293.64	15.50	-44.8	-47.2	6.1	0.00e+00	0	29	104	0	60	28175
2026-01-14 02:09:32.70	293.25	15.45	-44.8	-47.2	6.1	0.00e+00	0	29	104	0	60	28048
2026-01-14 02:09:33.71	292.86	15.40	-44.9	-47.2	6.1	0.00e+00	0	29	104	0	60	28202
2026-01-14 02:09:34.72	292.48	15.35	-44.8	-47.2	6.1	0.00e+00	0	29	104	0	60	28050
2026-01-14 02:09:35.74	292.09	15.29	-44.9	-47.2	6.1	0.00e+00	0	29	104	0	60	28212
2026-01-14 02:09:36.74	291.72	15.24	-44.9	-47.2	6.1	0.00e+00	0	29	104	0	60	28148
2026-01-14 02:09:37.75	291.34	15.19	-44.9	-47.3	6.1	0.00e+00	0	29	104	0	60	28338
2026-01-14 02:09:38.76	290.96	15.13	-44.9	-47.2	6.0	0.00e+00	0	29	104	0	60	28178
2026-01-14 02:09:39.77	290.58	15.08	-44.9	-47.3	6.1	0.00e+00	0	29	104	0	60	28341
2026-01-14 02:09:40.78	290.21	15.02	-44.9	-47.3	6.1	0.00e+00	0	29	104	0	60	28300
2026-01-14 02:09:41.79	289.83	14.96	-44.9	-47.3	6.1	0.00e+00	0	29	104	0	60	28240
2026-01-14 02:09:42.80	289.46	14.90	-44.9	-47.3	6.1	0.00e+00	0	29	104	0	60	28252
2026-01-14 02:09:43.81	289.10	14.85	-44.9	-47.3	6.1	0.00e+00	0	29	104	0	60	28256
2026-01-14 02:09:44.83	288.72	14.79	-44.8	-47.2	6.1	0.00e+00	0	29	104	0	60	28154
2026-01-14 02:09:45.84	288.36	14.73	-44.9	-47.2	6.1	0.00e+00	0	29	104	0	60	28203
2026-01-14 02:09:46.85	288.00	14.67	-44.9	-47.2	6.1	0.00e+00	0	29	104	0	60	28186
2026-01-14 02:09:47.86	287.64	14.60	-44.8	-47.2	6.1	0.00e+00	0	29	104	0	60	28043
2026-01-14 02:09:48.87	287.28	14.54	-44.8	-47.2	6.1	0.00e+00	0	29	104	0	60	28158
2026-01-14 02:09:49.88	286.92	14.48	-44.8	-47.2	6.1	0.00e+00	0	29	104	0	60	28126
2026-01-14 02:09:50.89	286.56	14.42	-44.8	-47.2	6.0	0.00e+00	0	29	104	0	60	28122
2026-01-14 02:09:51.90	286.21	14.35	-44.8	-47.2	6.1	0.00e+00	0	29	104	0	60	28052
2026-01-14 02:09:52.91	285.86	14.29	-44.8	-47.2	6.1	0.00e+00	0	29	104	0	60	28008
2026-01-14 02:09:53.92	285.51	14.22	-44.8	-47.2	6.1	0.00e+00	0	29	104	0	60	28105
2026-01-14 02:09:54.93	285.16	14.16	-44.8	-47.1	6.1	0.00e+00	0	29	104	0	60	27886
2026-01-14 02:09:55.94	284.82	14.09	-44.8	-47.2	6.1	0.00e+00	0	29	104	0	60	28070
2026-01-14 02:09:56.95	284.47	14.02	-44.8	-47.1	6.1	0.00e+00	0	29	104	0	60	27897
2026-01-14 02:09:57.96	284.13	13.95	-44.8	-47.2	6.1	0.00e+00	0	29	104	0	60	28100
2026-01-14 02:09:58.97	283.79	13.89	-44.8	-47.1	6.1	0.00e+00	0	29	104	0	60	27892
2026-01-14 02:09:59.98	283.46	13.82	-44.8	-47.2	6.1	0.00e+00	0	29	104	0	60	27910
2026-01-14 02:10:00.99	283.12	13.75	-44.8	-47.2	6.1	0.00e+00	0	29	104	0	60	28163
2026-01-14 02:10:02.00	282.79	13.68	-44.8	-47.2	6.1	0.00e+00	0	29	104	0	60	28020
2026-01-14 02:10:03.01	282.46	13.61	-44.8	-47.2	6.1	0.00e+00	0	29	104	0	60	27923
2026-01-14 02:10:04.02	282.13	13.54	-44.8	-47.2	6.1	0.00e+00	0	29	104	0	60	28017
2026-01-14 02:10:05.03	281.80	13.47	-44.8	-47.2	6.1	0.00e+00	0	29	104	0	60	27942
2026-01-14 02:10:06.04	281.47	13.40	-44.8	-47.1	6.1	0.00e+00	0	29	104	0	60	27813
2026-01-14 02:10:07.05	281.15	13.32	-44.7	-47.1	6.1	0.00e+00	0	29	104	0	60	27809
2026-01-14 02:10:08.06	280.83	13.25	-44.8	-47.1	6.1	0.00e+00	0	29	104	0	60	27829
2026-01-14 02:10:09.07	280.51	13.18	-44.8	-47.1	6.1	0.00e+00	0	29	104	0	60	27870
2026-01-14 02:10:10.08	280.19	13.11	-44.8	-47.1	6.1	0.00e+00	0	29	104	0	60	27767
2026-01-14 02:10:11.09	279.88	13.03	-44.8	-47.1	6.1	0.00e+00	0	29	104	0	60	27855
2026-01-14 02:10:12.10	279.57	12.96	-44.7	-47.1	6.1	0.00e+00	0	29	104	0	60	27680
2026-01-14 02:10:13.11	279.26	12.89	-44.7	-47.1	6.1	0.00e+00	0	29	104	0	60	27688
2026-01-14 02:10:14.12	278.95	12.81	-44.7	-47.1	6.1	0.00e+00	0	29	104	0	60	27622
2026-01-14 02:10:15.12	278.64	12.74	-44.7	-47.1	6.1	0.00e+00	0	29	104	0	60	27681
2026-01-14 02:10:16.13	278.34	12.66	-44.7	-47.0	6.1	0.00e+00	0	29	104	0	60	27565
2026-01-14 02:10:17.15	278.03	12.59	-44.7	-47.0	6.1	0.00e+00	0	29	104	0	60	27470
2026-01-14 02:10:18.16	277.73	12.51	-44.7	-47.1	6.1	0.00e+00	0	29	104	0	60	27589
2026-01-14 02:10:19.17	277.44	12.44	-44.6	-47.0	6.1	0.00e+00	0	29	104	0	60	27435
2026-01-14 02:10:20.18	277.14	12.36	-44.6	-47.0	6.1	0.00e+00	0	29	104	0	60	27382
2026-01-14 02:10:21.19	276.84	12.28	-44.6	-47.0	6.1	0.00e+00	0	29	104	0	60	27462
2026-01-14 02:10:22.20	276.55	12.21	-44.6	-47.0	6.1	0.00e+00	0	29	104	0	60	27456
2026-01-14 02:10:23.21	276.26	12.13	-44.7	-47.0	6.1	0.00e+00	0	29	104	0	60	27483
2026-01-14 02:10:24.22	275.97	12.05	-44.7	-47.1	6.1	0.00e+00	0	29	104	0	60	27596
2026-01-14 02:10:25.23	275.69	11.98	-44.6	-47.0	6.1	0.00e+00	0	29	104	0	60	27473
2026-01-14 02:10:26.24	275.40	11.90	-44.7	-47.0	6.1	0.00e+00	0	29	104	0	60	27551
2026-01-14 02:10:27.25	275.12	11.82	-44.6	-47.0	6.1	0.00e+00	0	29	104	0	60	27389
2026-01-14 02:10:28.25	274.84	11.75	-44.7	-47.0	6.1	0.00e+00	0	29	104	0	60	27563
2026-01-14 02:10:29.26	274.56	11.67	-44.6	-47.0	6.1	0.00e+00	0	29	104	0	60	27503
2026-01-14 02:10:30.27	274.29	11.59	-44.7	-47.0	6.1	0.00e+00	0	29	104	0	60	27538
2026-01-14 02:10:31.28	274.01	11.51	-44.6	-47.0	6.1	0.00e+00	0	29	104	0	60	27312
2026-01-14 02:10:32.29	273.74	11.44	-44.6	-47.0	6.1	0.00e+00	0	29	104	0	60	27435
2026-01-14 02:10:33.30	273.47	11.36	-44.6	-47.0	6.1	0.00e+00	0	29	104	0	60	27279
2026-01-14 02:10:34.31	273.20	11.28	-44.6	-47.0	6.1	0.00e+00	0	29	104	0	60	27469
2026-01-14 02:10:35.32	272.94	11.20	-44.6	-46.9	6.1	0.00e+00	0	29	104	0	60	27175
2026-01-14 02:10:36.33	272.67	11.12	-44.6	-47.0	6.1	0.00e+00	0	29	104	0	60	27286
2026-01-14 02:10:37.34	272.41	11.04	-44.6	-46.9	6.1	0.00e+00	0	29	104	0	60	27221
2026-01-14 02:10:38.35	272.15	10.97	-44.5	-46.9	6.1	0.00e+00	0	29	104	0	60	27013
2026-01-14 02:10:39.36	271.89	10.89	-44.6	-46.9	6.1	0.00e+00	0	29	104	0	60	27092
2026-01-14 02:10:40.37	271.63	10.81	-44.6	-46.9	6.1	0.00e+00	0	29	104	0	60	27252
2026-01-14 02:10:41.38	271.37	10.73	-44.5	-46.9	6.1	0.00e+00	0	29	104	0	60	27041
2026-01-14 02:10:42.39	271.12	10.65	-44.5	-47.0	6.1	0.00e+00	0	29	104	0	60	27313
2026-01-14 02:10:43.40	270.87	10.57	-44.5	-46.9	6.1	0.00e+00	0	29	104	0	60	27160
2026-01-14 02:10:44.41	270.62	10.49	-44.5	-46.9	6.1	0.00e+00	0	29	104	0	60	27000
2026-01-14 02:10:45.42	270.37	10.41	-44.5	-46.9	6.1	0.00e+00	0	29	104	0	60	27048
2026-01-14 02:10:46.43	270.13	10.34	-44.5	-46.9	6.1	0.00e+00	0	29	104	0	60	27026
2026-01-14 02:10:47.44	269.88	10.26	-44.5	-46.9	6.1	0.00e+00	0	29	104	0	60	27020
2026-01-14 02:10:48.45	269.64	10.18	-44.4	-46.8	6.1	0.00e+00	0	29	104	0	60	26753
2026-01-14 02:10:49.46	269.40	10.10	-44.5	-46.9	6.1	0.00e+00	0	29	104	0	60	27026
2026-01-14 02:10:50.47	269.16	10.02	-44.5	-46.8	6.1	0.00e+00	0	29	104	0	60	26866
2026-01-14 02:10:51.48	268.92	9.94	-44.4	-46.8	6.1	0.00e+00	0	29	104	0	60	26947
2026-01-14 02:10:52.48	268.69	9.86	-44.4	-46.8	6.1	0.00e+00	0	29	104	0	60	26869
2026-01-14 02:10:53.50	268.45	9.78	-44.4	-46.9	6.1	0.00e+00	0	29	104	0	60	26969
2026-01-14 02:10:54.50	268.22	9.71	-44.4	-46.9	6.1	0.00e+00	0	29	104	0	60	26970
2026-01-14 02:10:55.51	267.99	9.63	-44.4	-46.8	6.1	0.00e+00	0	29	104	0	60	26848
2026-01-14 02:10:56.52	267.76	9.55	-44.4	-46.8	6.1	0.00e+00	0	29	104	0	60	26759
2026-01-14 02:10:57.53	267.54	9.47	-44.4	-46.8	6.1	0.00e+00	0	29	104	0	60	26738
2026-01-14 02:10:58.54	267.31	9.39	-44.4	-46.8	6.1	0.00e+00	0	29	104	0	60	26899
2026-01-14 02:10:59.55	267.09	9.31	-44.4	-46.8	6.1	0.00e+00	0	29	104	0	60	26747
2026-01-14 02:11:00.56	266.87	9.23	-44.4	-46.8	6.1	0.00e+00	0	29	104	0	60	26673
2026-01-14 02:11:01.57	266.64	9.16	-44.4	-46.7	6.1	0.00e+00	0	29	104	0	60	26529
2026-01-14 02:11:02.59	266.42	9.08	-44.4	-46.7	6.1	0.00e+00	0	29	104	0	60	26544
2026-01-14 02:11:03.60	266.21	9.00	-44.4	-46.8	6.1	0.00e+00	0	29	104	0	60	26660
2026-01-14 02:11:04.61	265.99	8.92	-44.4	-46.8	6.1	0.00e+00	0	29	104	0	60	26718
2026-01-14 02:11:05.62	265.78	8.84	-44.4	-46.8	6.1	0.00e+00	0	29	104	0	60	26668
2026-01-14 02:11:06.63	265.57	8.76	-44.4	-46.8	6.1	0.00e+00	0	29	104	0	60	26707
2026-01-14 02:11:07.64	265.35	8.69	-44.4	-46.8	6.1	0.00e+00	0	29	104	0	60	26764
2026-01-14 02:11:08.65	265.15	8.61	-44.3	-46.8	6.1	0.00e+00	0	29	104	0	60	26700
2026-01-14 02:11:09.66	264.94	8.53	-44.3	-46.6	6.1	0.00e+00	0	29	104	0	60	26317
2026-01-14 02:11:10.67	264.73	8.45	-44.3	-46.7	6.1	0.00e+00	0	29	104	0	60	26393
2026-01-14 02:11:11.68	264.53	8.38	-44.3	-46.7	6.1	0.00e+00	0	29	104	0	60	26566
2026-01-14 02:11:12.68	264.33	8.30	-44.3	-46.7	6.1	0.00e+00	0	29	104	0	60	26466
2026-01-14 02:11:13.69	264.12	8.22	-44.3	-46.7	6.1	0.00e+00	0	29	104	0	60	26432
2026-01-14 02:11:14.70	263.92	8.15	-44.3	-46.7	6.1	0.00e+00	0	29	104	0	60	26385
2026-01-14 02:11:15.72	263.72	8.07	-44.3	-46.7	6.1	0.00e+00	0	29	104	0	60	26400
2026-01-14 02:11:16.73	263.53	7.99	-44.3	-46.6	6.1	0.00e+00	0	29	104	0	60	26297
2026-01-14 02:11:17.74	263.33	7.91	-44.2	-46.7	6.1	0.00e+00	0	29	104	0	60	26402
2026-01-14 02:11:18.74	263.14	7.84	-44.3	-46.7	6.1	0.00e+00	0	29	104	0	60	26427
2026-01-14 02:11:19.75	262.95	7.76	-44.3	-46.7	6.1	0.00e+00	0	29	104	0	60	26397
2026-01-14 02:11:20.77	262.75	7.68	-44.1	-46.5	6.1	0.00e+00	0	29	104	0	60	25969
2026-01-14 02:11:21.77	262.57	7.61	-44.2	-46.6	6.0	0.00e+00	0	29	104	0	60	26143
2026-01-14 02:11:22.78	262.38	7.53	-44.1	-46.5	6.1	0.00e+00	0	29	104	0	60	25933
2026-01-14 02:11:23.79	262.19	7.46	-44.2	-46.6	6.1	0.00e+00	0	29	104	0	60	26229
2026-01-14 02:11:24.81	262.00	7.38	-44.2	-46.5	6.1	0.00e+00	0	29	104	0	60	25935
2026-01-14 02:11:25.82	261.82	7.30	-44.2	-46.6	6.1	0.00e+00	0	29	104	0	60	26101
2026-01-14 02:11:26.82	261.64	7.23	-44.2	-46.6	6.1	0.00e+00	0	29	104	0	60	26245
2026-01-14 02:11:27.83	261.45	7.15	-44.2	-46.6	6.1	0.00e+00	0	29	104	0	60	26237
2026-01-14 02:11:28.84	261.27	7.08	-44.2	-46.5	6.1	0.00e+00	0	29	104	0	60	25862
2026-01-14 02:11:29.85	261.10	7.00	-44.1	-46.5	6.1	0.00e+00	0	29	104	0	60	25975
2026-01-14 02:11:30.86	260.92	6.93	-44.2	-46.5	6.1	0.00e+00	0	29	104	0	60	25979
2026-01-14 02:11:31.87	260.74	6.85	-44.2	-46.6	6.1	0.00e+00	0	29	104	0	60	26146
2026-01-14 02:11:32.88	260.57	6.78	-44.1	-46.5	6.1	0.00e+00	0	29	104	0	60	25795
2026-01-14 02:11:33.89	260.39	6.70	-44.1	-46.5	6.1	0.00e+00	0	29	104	0	60	25868
2026-01-14 02:11:34.90	260.22	6.63	-44.1	-46.4	6.1	0.00e+00	0	29	104	0	60	25684
2026-01-14 02:11:35.91	260.05	6.55	-44.1	-46.5	6.1	0.00e+00	0	29	104	0	60	25828
2026-01-14 02:11:36.92	259.88	6.48	-44.1	-46.4	6.1	0.00e+00	0	29	104	0	60	25567
2026-01-14 02:11:37.93	259.71	6.41	-44.1	-46.4	6.1	0.00e+00	0	29	104	0	60	25579
2026-01-14 02:11:38.94	259.54	6.33	-44.1	-46.4	6.1	0.00e+00	0	29	104	0	60	25662
2026-01-14 02:11:39.95	259.38	6.26	-44.1	-46.5	6.1	0.00e+00	0	29	104	0	60	25765
2026-01-14 02:11:40.96	259.21	6.18	-44.0	-46.3	6.1	0.00e+00	0	29	104	0	60	25386
2026-01-14 02:11:41.97	259.05	6.11	-43.9	-46.3	6.0	0.00e+00	0	29	104	0	60	25340
2026-01-14 02:11:42.98	258.88	6.04	-44.0	-46.4	6.1	0.00e+00	0	29	104	0	60	25575
2026-01-14 02:11:43.99	258.72	5.96	-44.1	-46.4	6.1	0.00e+00	0	29	104	0	60	25734
2026-01-14 02:11:45.00	258.56	5.89	-43.9	-46.2	6.1	0.00e+00	0	29	104	0	60	25142
2026-01-14 02:11:46.01	258.40	5.82	-44.0	-46.3	6.1	0.00e+00	0	29	104	0	60	25400
2026-01-14 02:11:47.02	258.24	5.75	-43.9	-46.3	6.1	0.00e+00	0	29	104	0	60	25324
2026-01-14 02:11:48.03	258.09	5.67	-44.0	-46.4	6.1	0.00e+00	0	29	104	0	60	25488
2026-01-14 02:11:49.04	257.93	5.60	-43.8	-46.2	6.1	0.00e+00	0	29	104	0	60	25017
2026-01-14 02:11:50.05	257.78	5.53	-43.9	-46.3	6.1	0.00e+00	0	29	104	0	60	25193
2026-01-14 02:11:51.06	257.62	5.46	-43.9	-46.3	6.1	0.00e+00	0	29	104	0	60	25393
2026-01-14 02:11:52.07	257.47	5.39	-43.9	-46.3	6.1	0.00e+00	0	29	104	0	60	25322
2026-01-14 02:11:53.08	257.32	5.31	-43.8	-46.1	6.1	0.00e+00	0	29	104	0	60	24803
2026-01-14 02:11:54.09	257.17	5.24	-43.9	-46.3	6.1	0.00e+00	0	29	104	0	60	25179
2026-01-14 02:11:55.10	257.02	5.17	-43.9	-46.2	6.1	0.00e+00	0	29	104	0	60	25099
2026-01-14 02:11:56.11	256.87	5.10	-44.0	-46.3	6.1	0.00e+00	0	29	104	0	60	25332
2026-01-14 02:11:57.12	256.72	5.03	-43.7	-46.0	6.1	0.00e+00	0	29	104	0	60	24537
2026-01-14 02:11:58.13	256.58	4.96	-43.8	-46.2	6.1	0.00e+00	0	29	104	0	60	24928
2026-01-14 02:11:59.14	256.43	4.89	-43.9	-46.2	6.1	0.00e+00	0	29	104	0	60	25073
2026-01-14 02:12:00.15	256.29	4.82	-43.9	-46.3	6.1	0.00e+00	0	29	104	0	60	25184
2026-01-14 02:12:01.16	256.14	4.75	-43.7	-46.1	6.1	0.00e+00	0	29	104	0	60	24743
2026-01-14 02:12:02.17	256.00	4.68	-43.7	-46.1	6.1	0.00e+00	0	29	104	0	60	24654
2026-01-14 02:12:03.18	255.86	4.61	-43.8	-46.2	6.1	0.00e+00	0	29	104	0	60	24931
2026-01-14 02:12:04.19	255.72	4.54	-43.8	-46.2	6.1	0.00e+00	0	29	104	0	60	24882
2026-01-14 02:12:05.20	255.58	4.47	-43.6	-46.0	6.1	0.00e+00	0	29	104	0	60	24397
2026-01-14 02:12:06.21	255.44	4.40	-43.6	-46.0	6.1	0.00e+00	0	29	104	0	60	24488
2026-01-14 02:12:07.22	255.30	4.33	-43.7	-46.1	6.1	0.00e+00	0	29	104	0	60	24636
2026-01-14 02:12:08.23	255.17	4.26	-43.7	-46.1	6.1	0.00e+00	0	29	104	0	60	24778
2026-01-14 02:12:09.24	255.03	4.19	-43.6	-46.0	6.1	0.00e+00	0	29	104	0	60	24340
2026-01-14 02:12:10.25	254.90	4.12	-43.7	-46.0	6.1	0.00e+00	0	29	104	0	60	24519
2026-01-14 02:12:11.26	254.76	4.05	-43.6	-46.0	6.1	0.00e+00	0	29	104	0	60	24555
2026-01-14 02:12:12.27	254.63	3.98	-43.7	-46.1	6.1	0.00e+00	0	29	104	0	60	24641
2026-01-14 02:12:13.28	254.50	3.91	-43.5	-45.9	6.1	0.00e+00	0	29	104	0	60	24022
2026-01-14 02:12:14.29	254.37	3.85	-43.4	-45.8	6.1	0.00e+00	0	29	104	0	60	23916
2026-01-14 02:12:15.30	254.24	3.78	-43.7	-46.0	6.1	0.00e+00	0	29	104	0	60	24498
2026-01-14 02:12:16.31	254.11	3.71	-43.6	-46.0	6.1	0.00e+00	0	29	104	0	60	24455
2026-01-14 02:12:17.32	253.98	3.64	-43.4	-45.8	6.1	0.00e+00	0	29	104	0	60	23850
2026-01-14 02:12:18.33	253.86	3.57	-43.5	-45.9	6.1	0.00e+00	0	29	104	0	60	24080
2026-01-14 02:12:19.34	253.73	3.51	-43.4	-45.9	6.1	0.00e+00	0	29	104	0	60	24061
2026-01-14 02:12:20.35	253.60	3.44	-43.5	-45.9	6.1	0.00e+00	0	29	104	0	60	24117
2026-01-14 02:12:21.36	253.48	3.37	-43.3	-45.7	6.1	0.00e+00	0	29	104	0	60	23506
2026-01-14 02:12:22.37	253.35	3.31	-43.4	-45.7	6.1	0.00e+00	0	29	104	0	60	23649
2026-01-14 02:12:23.38	253.23	3.24	-43.5	-45.9	6.1	0.00e+00	0	29	104	0	60	24104
2026-01-14 02:12:24.39	253.11	3.17	-43.4	-45.8	6.1	0.00e+00	0	29	104	0	60	23898
2026-01-14 02:12:25.40	252.99	3.11	-43.1	-45.5	6.1	0.00e+00	0	29	104	0	60	23149
2026-01-14 02:12:26.41	252.87	3.04	-43.3	-45.7	6.1	0.00e+00	0	29	104	0	60	23615
2026-01-14 02:12:27.42	252.75	2.97	-43.6	-45.9	6.1	0.00e+00	0	29	104	0	60	24067
2026-01-14 02:12:28.43	252.63	2.91	-44.4	-46.7	6.1	0.00e+00	0	29	104	0	60	26521
2026-01-14 02:12:29.44	252.51	2.84	-44.9	-47.1	6.1	0.00e+00	0	29	104	0	60	27881
2026-01-14 02:12:30.45	252.39	2.78	-45.1	-47.4	6.1	0.00e+00	0	29	104	0	60	28847
2026-01-14 02:12:31.46	252.28	2.71	-45.2	-47.6	6.1	0.00e+00	0	29	104	0	60	29253
2026-01-14 02:12:32.47	252.16	2.64	-45.3	-47.7	6.1	0.00e+00	0	29	104	0	60	29593
2026-01-14 02:12:33.48	252.05	2.58	-45.4	-47.8	6.1	0.00e+00	0	29	104	0	60	30155
2026-01-14 02:12:34.49	251.93	2.51	-45.4	-47.8	6.1	0.00e+00	0	29	104	0	60	30134
2026-01-14 02:12:35.50	251.82	2.45	-45.5	-47.9	6.1	0.00e+00	0	29	104	0	60	30246
2026-01-14 02:12:36.51	251.70	2.38	-45.5	-47.8	6.1	0.00e+00	0	29	104	0	60	30220
2026-01-14 02:12:37.52	251.59	2.32	-45.7	-48.1	6.1	0.00e+00	0	29	104	0	60	31243
2026-01-14 02:12:38.53	251.48	2.25	-45.2	-47.6	6.1	0.00e+00	0	29	104	0	60	29293
2026-01-14 02:12:39.54	251.37	2.19	-45.3	-47.7	6.1	0.00e+00	0	29	104	0	60	29583
2026-01-14 02:12:40.55	251.26	2.13	-45.5	-47.8	6.1	0.00e+00	0	29	104	0	60	30143
2026-01-14 02:12:41.56	251.15	2.06	-44.9	-47.3	6.1	0.00e+00	0	29	104	0	60	28538
2026-01-14 02:12:42.57	251.04	2.00	-45.2	-47.6	6.1	0.00e+00	0	29	104	0	60	29364
2026-01-14 02:12:43.58	250.93	1.93	-44.9	-47.3	6.1	0.00e+00	0	29	104	0	60	28447
2026-01-14 02:12:44.59	250.83	1.87	-46.6	-48.9	6.1	0.00e+00	0	29	104	0	60	34318
2026-01-14 02:12:45.60	250.72	1.81	-45.5	-47.9	6.1	0.00e+00	0	29	104	0	60	30425
2026-01-14 02:12:46.61	250.62	1.74	-45.5	-47.8	6.1	0.00e+00	0	29	104	0	60	30164
2026-01-14 02:12:47.62	250.51	1.68	-45.4	-47.8	6.1	0.00e+00	0	29	104	0	60	30085
2026-01-14 02:12:48.63	250.41	1.62	-45.3	-47.7	6.1	0.00e+00	0	29	104	0	60	29590
2026-01-14 02:12:49.64	250.30	1.55	-45.3	-47.7	6.1	0.00e+00	0	29	104	0	60	29803
2026-01-14 02:12:50.65	250.20	1.49	-45.3	-47.6	6.1	0.00e+00	0	29	104	0	60	29425
2026-01-14 02:12:51.65	250.10	1.43	-45.2	-47.6	6.1	0.00e+00	0	29	104	0	60	29394
2026-01-14 02:12:52.67	249.99	1.37	-45.2	-47.6	6.1	0.00e+00	0	29	104	0	60	29261
2026-01-14 02:12:53.67	249.89	1.30	-45.2	-47.6	6.1	0.00e+00	0	29	104	0	60	29225
2026-01-14 02:12:54.68	249.79	1.24	-45.2	-47.5	6.1	0.00e+00	0	29	104	0	60	28985
2026-01-14 02:12:55.69	249.69	1.18	-45.2	-47.5	6.1	0.00e+00	0	29	104	0	60	29106
2026-01-14 02:12:56.70	249.59	1.12	-45.1	-47.5	6.1	0.00e+00	0	29	104	0	60	29175
2026-01-14 02:12:57.71	249.50	1.06	-45.2	-47.6	6.1	0.00e+00	0	29	104	0	60	29288
2026-01-14 02:12:58.72	249.40	0.99	-45.2	-47.6	6.1	0.00e+00	0	29	104	0	60	29369
2026-01-14 02:12:59.73	249.30	0.93	-45.1	-47.5	6.1	0.00e+00	0	29	104	0	60	28991
2026-01-14 02:13:00.74	249.20	0.87	-45.1	-47.5	6.1	0.00e+00	0	29	104	0	60	29075
2026-01-14 02:13:01.76	249.11	0.81	-45.2	-47.5	6.1	0.00e+00	0	29	104	0	60	29208
2026-01-14 02:13:02.76	249.01	0.75	-45.1	-47.5	6.1	0.00e+00	0	29	104	0	60	28923
2026-01-14 02:13:03.78	248.92	0.69	-45.1	-47.5	6.1	0.00e+00	0	29	104	0	60	29009
2026-01-14 02:13:04.79	248.82	0.63	-45.1	-47.5	6.1	0.00e+00	0	29	104	0	60	28928
2026-01-14 02:13:05.80	248.73	0.57	-45.1	-47.4	6.1	0.00e+00	0	29	104	0	60	28849
2026-01-14 02:13:06.81	248.63	0.51	-45.1	-47.5	6.1	0.00e+00	0	29	104	0	60	28985
2026-01-14 02:13:07.82	248.54	0.45	-45.1	-47.5	6.1	0.00e+00	0	29	104	0	60	28999
2026-01-14 02:13:08.83	248.45	0.38	-45.1	-47.5	6.1	0.00e+00	0	29	104	0	60	28929
2026-01-14 02:13:09.84	248.36	0.32	-45.1	-47.5	6.1	0.00e+00	0	29	104	0	60	29011
2026-01-14 02:13:10.85	248.27	0.26	-45.1	-47.5	6.1	0.00e+00	0	29	104	0	60	29105
2026-01-14 02:13:11.86	248.18	0.20	-45.1	-47.5	6.1	0.00e+00	0	29	104	0	60	28950
2026-01-14 02:13:12.87	248.09	0.14	-45.1	-47.5	6.1	0.00e+00	0	29	104	0	60	28916
2026-01-14 02:13:13.88	248.00	0.09	-45.1	-47.4	6.1	0.00e+00	0	29	104	0	60	28866
2026-01-14 02:13:14.89	247.91	0.03	-45.1	-47.5	6.1	0.00e+00	0	29	104	0	60	28986
2026-01-14 02:13:15.90	247.82	-0.03	-45.1	-47.5	6.1	0.00e+00	0	29	104	0	60	28910

#Closed at: 2026-01-14 02:13:16
#Recorded file [0 MB]: D:/lorett/data/35029_260114_140428.dat