passes_logs/2026/01/14/R4.6S_Anadyr/R4.6S_Anadyr__20260114_170411_NOAA_20_JPSS-1_rec.log

#Pass ID: 20260114_170411_NOAA 20 (JPSS-1)
#Satellite: NOAA 20 (JPSS-1)
#Configuration: NOAA 20
#almurnet v.1.7.20251203
#Start time: 2026-01-14 17:04:14

#Version: 2.2.20231116
#Station: R4.6S_Anadyr
#Location: 177.4865 lon 64.73178 lat
#TLE: 1 43013U 17073A   26013.84982170  .00000053  00000+0  46215-4 0  9999
#TLE: 2 43013  98.7633 314.8013 0001544  40.9009 319.2282 14.19535753422575

#Time	Az	El	Level	Level2	SNR	BER	BlckErr	Temp	State	Recorded	gain1	gain2
2026-01-14 17:04:14.13	29.42	0.13	-49.1	-66.8	3.5	3.02e+01	0	26	0	0	60	84241
2026-01-14 17:04:15.14	29.37	0.18	-48.8	-63.9	3.6	1.51e+00	0	27	104	0	60	56671
2026-01-14 17:04:16.15	29.31	0.24	-48.8	-64.0	3.6	1.51e+00	0	27	104	0	60	57130
2026-01-14 17:04:17.16	29.26	0.29	-48.8	-64.0	3.6	1.51e+00	0	27	104	0	60	56966
2026-01-14 17:04:18.16	29.21	0.35	-48.8	-64.0	3.6	1.51e+00	0	27	104	0	60	57019
2026-01-14 17:04:19.17	29.15	0.40	-48.9	-64.1	3.6	1.51e+00	0	27	104	0	60	57894
2026-01-14 17:04:20.18	29.10	0.46	-48.8	-64.0	3.6	1.51e+00	0	27	104	0	60	57351
2026-01-14 17:04:21.19	29.04	0.51	-48.8	-64.0	3.6	1.51e+00	0	27	104	0	60	56997
2026-01-14 17:04:22.20	28.99	0.57	-48.7	-63.9	3.6	1.51e+00	0	28	104	0	60	56685
2026-01-14 17:04:23.21	28.94	0.62	-48.6	-63.8	3.6	1.51e+00	0	27	104	0	60	56178
2026-01-14 17:04:24.22	28.88	0.68	-48.5	-63.7	3.6	1.51e+00	0	27	104	0	60	55516
2026-01-14 17:04:25.23	28.83	0.74	-48.5	-63.6	3.6	1.51e+00	0	27	104	0	60	55019
2026-01-14 17:04:26.24	28.77	0.79	-48.3	-63.5	3.6	1.51e+00	0	27	104	0	60	53923
2026-01-14 17:04:27.25	28.71	0.85	-48.1	-63.3	3.6	1.51e+00	0	27	104	0	60	52992
2026-01-14 17:04:28.26	28.66	0.90	-47.9	-63.1	3.6	1.51e+00	0	28	104	0	60	51496
2026-01-14 17:04:29.27	28.60	0.96	-47.6	-62.7	3.6	1.51e+00	0	28	104	0	60	49324
2026-01-14 17:04:30.28	28.55	1.02	-47.2	-62.3	3.6	1.51e+00	0	27	104	0	60	47277
2026-01-14 17:04:31.29	28.49	1.07	-47.1	-62.3	3.6	1.51e+00	0	27	104	0	60	47155
2026-01-14 17:04:32.30	28.43	1.13	-47.1	-62.2	3.6	1.51e+00	0	27	104	0	60	46811
2026-01-14 17:04:33.31	28.38	1.19	-47.1	-62.2	3.6	1.51e+00	0	28	104	0	60	46743
2026-01-14 17:04:34.32	28.32	1.24	-47.1	-62.3	3.6	1.51e+00	0	27	104	0	60	46921
2026-01-14 17:04:35.33	28.26	1.30	-47.1	-62.3	3.6	1.51e+00	0	28	104	0	60	46913
2026-01-14 17:04:36.34	28.20	1.36	-47.1	-62.3	3.6	1.51e+00	0	27	104	0	60	47079
2026-01-14 17:04:37.35	28.15	1.41	-47.1	-62.3	3.6	1.51e+00	0	28	104	0	60	46954
2026-01-14 17:04:38.35	28.09	1.47	-47.1	-62.3	3.6	1.51e+00	0	28	104	0	60	47174
2026-01-14 17:04:39.37	28.03	1.53	-47.1	-62.3	3.6	1.51e+00	0	28	104	0	60	47056
2026-01-14 17:04:40.37	27.97	1.59	-47.1	-62.3	3.6	1.51e+00	0	28	104	0	60	47008
2026-01-14 17:04:41.38	27.91	1.64	-47.1	-62.3	3.6	1.51e+00	0	28	104	0	60	46934
2026-01-14 17:04:42.39	27.85	1.70	-47.1	-62.3	3.6	1.51e+00	0	28	104	0	60	46891
2026-01-14 17:04:43.40	27.79	1.76	-47.1	-62.3	3.6	1.51e+00	0	28	104	0	60	47188
2026-01-14 17:04:44.41	27.73	1.82	-47.1	-62.3	3.6	1.51e+00	0	28	104	0	60	46939
2026-01-14 17:04:45.42	27.67	1.87	-47.1	-62.3	3.6	1.51e+00	0	28	104	0	60	47038
2026-01-14 17:04:46.43	27.61	1.93	-47.1	-62.3	3.6	1.51e+00	0	28	104	0	60	47192
2026-01-14 17:04:47.44	27.55	1.99	-47.1	-62.3	3.6	1.51e+00	0	28	104	0	60	46891
2026-01-14 17:04:48.45	27.49	2.05	-47.1	-62.2	3.6	1.51e+00	0	28	104	0	60	46657
2026-01-14 17:04:49.46	27.43	2.10	-47.1	-62.1	3.6	1.51e+00	0	28	104	0	60	45940
2026-01-14 17:04:50.47	27.37	2.16	-47.1	-62.1	3.6	1.51e+00	0	28	104	0	60	45814
2026-01-14 17:04:51.48	27.31	2.22	-47.1	-62.0	3.6	1.51e+00	0	28	104	0	60	45749
2026-01-14 17:04:52.49	27.25	2.28	-47.1	-62.1	3.6	1.51e+00	0	28	104	0	60	46168
2026-01-14 17:04:53.50	27.19	2.34	-47.1	-62.2	3.6	1.51e+00	0	28	104	0	60	46429
2026-01-14 17:04:54.51	27.12	2.40	-47.1	-62.3	3.6	1.51e+00	0	28	104	0	60	46993
2026-01-14 17:04:55.52	27.06	2.45	-47.1	-62.3	3.6	1.51e+00	0	28	104	0	60	46851
2026-01-14 17:04:56.53	27.00	2.51	-47.1	-62.2	3.6	1.51e+00	0	28	104	0	60	46809
2026-01-14 17:04:57.54	26.94	2.57	-47.1	-62.2	3.6	1.51e+00	0	28	104	0	60	46570
2026-01-14 17:04:58.55	26.87	2.63	-47.1	-62.3	3.6	1.51e+00	0	28	104	0	60	46863
2026-01-14 17:04:59.56	26.81	2.69	-47.1	-62.2	3.6	1.51e+00	0	28	104	0	60	46570
2026-01-14 17:05:00.57	26.75	2.75	-47.1	-62.1	3.6	1.51e+00	0	28	104	0	60	45952
2026-01-14 17:05:01.58	26.68	2.81	-47.1	-61.8	3.6	1.51e+00	0	28	104	0	60	44431
2026-01-14 17:05:02.59	26.62	2.87	-47.1	-61.5	3.6	1.51e+00	0	28	104	0	60	43163
2026-01-14 17:05:03.59	26.55	2.93	-47.1	-61.7	3.6	1.51e+00	0	28	104	0	60	43801
2026-01-14 17:05:04.60	26.49	2.98	-47.1	-62.1	3.6	1.51e+00	0	28	104	0	60	45850
2026-01-14 17:05:05.61	26.42	3.04	-47.1	-61.8	3.6	1.51e+00	0	28	104	0	60	44645
2026-01-14 17:05:06.62	26.36	3.10	-47.0	-60.0	3.7	1.51e+00	0	28	104	0	60	36090
2026-01-14 17:05:07.63	26.29	3.16	-46.7	-55.9	5.0	1.21e+00	26	28	0	0	60	22455
2026-01-14 17:05:08.63	26.23	3.22	-46.4	-53.3	7.1	3.81e-01	92	28	0	2097152	60	16803
2026-01-14 17:05:09.64	26.16	3.28	-45.9	-51.7	9.0	4.63e-02	22	28	0	4194304	60	13887
2026-01-14 17:05:10.64	26.10	3.34	-45.4	-50.1	10.8	7.31e-03	7	28	0	5242880	60	11608
2026-01-14 17:05:11.65	26.03	3.40	-45.3	-50.0	11.1	1.78e-03	6	28	0	7340032	60	11400
2026-01-14 17:05:12.66	25.96	3.46	-45.2	-49.5	10.2	4.37e-04	6	28	0	9437184	60	10849
2026-01-14 17:05:13.67	25.89	3.52	-46.9	-55.9	4.2	1.44e-01	51	28	0	11534336	60	22526
2026-01-14 17:05:14.68	25.83	3.58	-45.3	-50.2	9.7	1.33e+00	6	28	104	11534336	60	11634
2026-01-14 17:05:15.69	25.76	3.64	-41.7	-43.5	17.8	8.22e-03	90	28	0	12582912	56	6821
2026-01-14 17:05:16.70	25.69	3.70	-47.1	-62.0	3.6	4.34e-05	0	28	104	13631488	60	45399
2026-01-14 17:05:17.71	25.62	3.76	-43.2	-45.7	6.0	1.51e+00	34	28	104	13631488	60	6997
2026-01-14 17:05:18.72	25.55	3.82	-41.8	-43.7	17.7	0.00e+00	0	28	0	13631488	56	6942
2026-01-14 17:05:19.73	25.48	3.88	-41.6	-43.4	18.1	0.00e+00	0	28	0	15728640	56	6724
2026-01-14 17:05:20.74	25.41	3.95	-41.9	-43.7	17.7	0.00e+00	0	28	0	16777216	56	6976
2026-01-14 17:05:21.75	25.34	4.01	-41.6	-43.4	18.1	0.00e+00	63	28	0	18874368	56	6719
2026-01-14 17:05:22.76	25.27	4.07	-41.5	-43.2	18.3	0.00e+00	92	28	0	20971520	56	6573
2026-01-14 17:05:23.77	25.20	4.13	-41.7	-43.5	18.0	0.00e+00	59	28	0	23068672	56	6832
2026-01-14 17:05:24.78	25.13	4.19	-41.6	-43.3	18.3	0.00e+00	91	28	0	25165824	56	6658
2026-01-14 17:05:25.79	25.06	4.25	-41.8	-43.6	17.9	0.00e+00	20	28	0	26214400	56	6913
2026-01-14 17:05:26.80	24.99	4.31	-41.9	-43.8	17.8	0.00e+00	23	28	0	28311552	56	7041
2026-01-14 17:05:27.81	24.92	4.37	-41.9	-43.7	17.8	0.00e+00	22	28	0	30408704	56	6991
2026-01-14 17:05:28.81	24.85	4.43	-41.5	-43.3	18.2	0.00e+00	0	28	0	32505856	56	6641
2026-01-14 17:05:29.82	24.78	4.50	-41.6	-43.4	18.2	0.00e+00	92	28	0	34603008	56	6708
2026-01-14 17:05:30.83	24.70	4.56	-41.6	-43.4	18.2	0.00e+00	21	28	0	35651584	56	6696
2026-01-14 17:05:31.84	24.63	4.62	-41.5	-43.2	18.4	0.00e+00	92	28	0	37748736	56	6586
2026-01-14 17:05:32.85	24.56	4.68	-41.4	-43.1	18.5	0.00e+00	0	28	0	39845888	56	6494
2026-01-14 17:05:33.86	24.48	4.74	-41.5	-43.1	18.5	0.00e+00	0	28	0	41943040	56	6529
2026-01-14 17:05:34.87	24.41	4.81	-41.5	-43.2	18.4	0.00e+00	0	28	0	44040192	56	6589
2026-01-14 17:05:35.88	24.33	4.87	-41.4	-43.1	18.5	0.00e+00	0	28	0	45088768	56	6470
2026-01-14 17:05:36.89	24.26	4.93	-41.5	-43.2	18.5	0.00e+00	41	28	0	47185920	56	6589
2026-01-14 17:05:37.90	24.19	4.99	-41.4	-43.1	18.6	0.00e+00	62	28	0	49283072	56	6516
2026-01-14 17:05:38.91	24.11	5.06	-41.4	-43.1	18.6	0.00e+00	92	28	0	51380224	56	6473
2026-01-14 17:05:39.92	24.03	5.12	-41.2	-42.8	18.9	0.00e+00	0	28	0	53477376	56	6308
2026-01-14 17:05:40.93	23.96	5.18	-41.3	-42.8	18.8	0.00e+00	25	28	0	55574528	56	6317
2026-01-14 17:05:41.94	23.88	5.24	-41.2	-42.8	18.9	0.00e+00	65	28	0	56623104	56	6268
2026-01-14 17:05:42.95	23.81	5.31	-41.1	-42.7	19.0	0.00e+00	65	28	0	58720256	56	6221
2026-01-14 17:05:43.96	23.73	5.37	-41.2	-42.8	18.9	0.00e+00	0	28	0	60817408	56	6307
2026-01-14 17:05:44.97	23.65	5.43	-41.3	-43.0	18.8	0.00e+00	64	28	0	62914560	56	6398
2026-01-14 17:05:45.98	23.57	5.50	-41.3	-42.8	18.9	0.00e+00	92	28	0	65011712	56	6314
2026-01-14 17:05:46.99	23.50	5.56	-41.2	-42.8	18.9	0.00e+00	0	28	0	66060288	56	6268
2026-01-14 17:05:47.99	23.42	5.62	-41.1	-42.7	19.1	0.00e+00	91	28	0	68157440	56	6210
2026-01-14 17:05:49.00	23.34	5.69	-41.1	-42.6	19.2	0.00e+00	17	28	0	70254592	56	6167
2026-01-14 17:05:50.01	23.26	5.75	-41.0	-42.5	19.2	0.00e+00	16	28	0	72351744	56	6083
2026-01-14 17:05:51.02	23.18	5.81	-41.0	-42.5	19.2	0.00e+00	2	28	0	74448896	56	6085
2026-01-14 17:05:52.03	23.10	5.88	-41.1	-42.6	19.2	0.00e+00	18	28	0	75497472	56	6118
2026-01-14 17:05:53.04	23.02	5.94	-41.1	-42.6	19.3	0.00e+00	92	28	0	77594624	56	6169
2026-01-14 17:05:54.05	22.94	6.01	-40.9	-42.4	19.4	0.00e+00	0	28	0	79691776	56	6006
2026-01-14 17:05:55.06	22.86	6.07	-40.9	-42.4	19.4	0.00e+00	92	28	0	81788928	56	5993
2026-01-14 17:05:56.06	22.78	6.13	-40.8	-42.3	19.5	0.00e+00	0	28	0	83886080	56	5928
2026-01-14 17:05:57.07	22.70	6.20	-40.7	-42.2	19.6	0.00e+00	0	28	0	84934656	54	6577
2026-01-14 17:05:58.09	22.61	6.26	-40.7	-42.2	19.6	0.00e+00	0	28	0	87031808	54	6553
2026-01-14 17:05:59.09	22.53	6.33	-40.8	-42.2	19.5	0.00e+00	0	28	0	89128960	54	6584
2026-01-14 17:06:00.10	22.45	6.39	-40.7	-42.1	19.7	0.00e+00	78	28	0	91226112	54	6512
2026-01-14 17:06:01.11	22.37	6.46	-40.7	-42.1	19.6	0.00e+00	59	28	0	93323264	54	6536
2026-01-14 17:06:02.11	22.28	6.52	-40.7	-42.1	19.7	0.00e+00	92	28	0	94371840	54	6490
2026-01-14 17:06:03.13	22.20	6.59	-40.7	-42.1	19.7	0.00e+00	0	28	0	96468992	54	6485
2026-01-14 17:06:04.13	22.12	6.65	-40.8	-42.3	19.6	0.00e+00	65	28	0	98566144	54	6656
2026-01-14 17:06:05.14	22.03	6.72	-40.5	-41.9	19.8	0.00e+00	65	28	0	100663296	54	6365
2026-01-14 17:06:06.15	21.95	6.78	-40.7	-42.1	19.8	0.00e+00	66	28	0	102760448	54	6503
2026-01-14 17:06:07.17	21.86	6.85	-40.7	-42.1	19.8	0.00e+00	50	28	0	103809024	54	6489
2026-01-14 17:06:08.17	21.77	6.91	-40.5	-41.9	19.9	0.00e+00	67	28	0	105906176	54	6351
2026-01-14 17:06:09.18	21.69	6.98	-40.5	-41.9	19.9	0.00e+00	92	28	0	108003328	54	6355
2026-01-14 17:06:10.19	21.60	7.04	-40.5	-41.9	20.0	0.00e+00	2	28	0	110100480	54	6333
2026-01-14 17:06:11.20	21.51	7.11	-40.5	-41.9	19.9	0.00e+00	10	28	0	112197632	54	6336
2026-01-14 17:06:12.21	21.43	7.18	-40.6	-42.0	19.9	0.00e+00	17	28	0	113246208	54	6413
2026-01-14 17:06:13.22	21.34	7.24	-40.7	-42.1	19.7	0.00e+00	2	28	0	115343360	54	6484
2026-01-14 17:06:14.23	21.25	7.31	-40.7	-42.1	19.8	0.00e+00	17	28	0	117440512	54	6483
2026-01-14 17:06:15.24	21.16	7.37	-40.6	-42.0	19.8	0.00e+00	0	28	0	119537664	54	6455
2026-01-14 17:06:16.25	21.07	7.44	-40.8	-42.2	19.8	0.00e+00	92	28	0	121634816	54	6561
2026-01-14 17:06:17.26	20.98	7.51	-40.6	-42.0	19.9	0.00e+00	2	28	0	123731968	54	6422
2026-01-14 17:06:18.26	20.89	7.57	-40.8	-42.2	19.7	0.00e+00	81	28	0	124780544	54	6558
2026-01-14 17:06:19.27	20.80	7.64	-40.6	-42.0	19.8	0.00e+00	0	28	0	126877696	54	6419
2026-01-14 17:06:20.28	20.71	7.71	-40.6	-42.0	19.8	0.00e+00	2	28	0	128974848	54	6436
2026-01-14 17:06:21.29	20.62	7.77	-40.7	-42.1	19.7	0.00e+00	0	28	0	131072000	54	6534
2026-01-14 17:06:22.30	20.53	7.84	-40.7	-42.1	19.9	0.00e+00	0	28	0	133169152	54	6487
2026-01-14 17:06:23.31	20.44	7.91	-40.7	-42.2	19.7	0.00e+00	59	28	0	134217728	54	6545
2026-01-14 17:06:24.32	20.34	7.97	-40.9	-42.3	19.7	0.00e+00	60	28	0	136314880	54	6671
2026-01-14 17:06:25.33	20.25	8.04	-40.8	-42.2	19.7	0.00e+00	92	28	0	138412032	54	6578
2026-01-14 17:06:26.34	20.16	8.11	-40.6	-41.9	20.0	0.00e+00	2	28	0	140509184	54	6375
2026-01-14 17:06:27.35	20.06	8.18	-40.5	-41.9	20.1	0.00e+00	0	28	0	142606336	54	6337
2026-01-14 17:06:28.36	19.97	8.24	-40.4	-41.8	20.1	0.00e+00	23	28	0	143654912	54	6273
2026-01-14 17:06:29.37	19.87	8.31	-40.5	-41.9	20.1	0.00e+00	20	28	0	145752064	54	6319
2026-01-14 17:06:30.38	19.78	8.38	-40.5	-41.8	20.2	0.00e+00	28	28	0	147849216	54	6302
2026-01-14 17:06:31.39	19.68	8.45	-40.4	-41.7	20.3	0.00e+00	23	28	0	149946368	54	6212
2026-01-14 17:06:32.40	19.58	8.52	-40.3	-41.6	20.4	0.00e+00	92	28	0	152043520	54	6153
2026-01-14 17:06:33.41	19.49	8.58	-40.3	-41.7	20.3	0.00e+00	7	28	0	153092096	54	6183
2026-01-14 17:06:34.42	19.39	8.65	-40.3	-41.6	20.4	0.00e+00	10	28	0	155189248	54	6111
2026-01-14 17:06:35.43	19.29	8.72	-40.3	-41.6	20.4	0.00e+00	5	28	0	157286400	54	6155
2026-01-14 17:06:36.44	19.19	8.79	-40.2	-41.5	20.5	0.00e+00	6	28	0	159383552	54	6077
2026-01-14 17:06:37.45	19.09	8.86	-40.3	-41.7	20.4	0.00e+00	0	28	0	161480704	54	6176
2026-01-14 17:06:38.46	19.00	8.93	-40.3	-41.5	20.5	0.00e+00	7	28	0	162529280	54	6103
2026-01-14 17:06:39.47	18.90	8.99	-40.3	-41.6	20.4	0.00e+00	92	28	0	164626432	54	6116
2026-01-14 17:06:40.48	18.80	9.06	-40.2	-41.5	20.4	0.00e+00	7	28	0	166723584	54	6073
2026-01-14 17:06:41.49	18.70	9.13	-40.2	-41.5	20.5	0.00e+00	92	28	0	168820736	54	6048
2026-01-14 17:06:42.49	18.59	9.20	-40.2	-41.4	20.5	0.00e+00	65	28	0	170917888	54	6027
2026-01-14 17:06:43.51	18.49	9.27	-40.2	-41.5	20.5	0.00e+00	63	28	0	171966464	54	6076
2026-01-14 17:06:44.51	18.39	9.34	-40.2	-41.5	20.5	0.00e+00	66	28	0	174063616	54	6095
2026-01-14 17:06:45.52	18.29	9.41	-40.2	-41.5	20.5	0.00e+00	66	28	0	176160768	54	6069
2026-01-14 17:06:46.53	18.19	9.48	-40.2	-41.5	20.5	0.00e+00	8	28	0	178257920	54	6074
2026-01-14 17:06:47.54	18.08	9.55	-40.3	-41.6	20.5	0.00e+00	20	28	0	180355072	54	6133
2026-01-14 17:06:48.55	17.98	9.62	-40.2	-41.5	20.6	0.00e+00	92	28	0	181403648	54	6043
2026-01-14 17:06:49.56	17.87	9.69	-40.2	-41.5	20.5	0.00e+00	6	28	0	183500800	54	6083
2026-01-14 17:06:50.57	17.77	9.76	-40.4	-41.7	20.4	0.00e+00	19	28	0	185597952	54	6195
2026-01-14 17:06:51.58	17.66	9.83	-40.3	-41.6	20.5	0.00e+00	25	28	0	187695104	54	6155
2026-01-14 17:06:52.59	17.55	9.90	-40.2	-41.5	20.5	0.00e+00	21	28	0	189792256	54	6068
2026-01-14 17:06:53.60	17.45	9.97	-40.2	-41.4	20.6	0.00e+00	0	28	0	191889408	54	6022
2026-01-14 17:06:54.61	17.34	10.04	-40.2	-41.4	20.6	0.00e+00	6	28	0	192937984	54	6025
2026-01-14 17:06:55.62	17.23	10.11	-40.1	-41.4	20.7	0.00e+00	89	28	0	195035136	54	6008
2026-01-14 17:06:56.63	17.12	10.18	-40.1	-41.4	20.5	0.00e+00	6	28	0	197132288	54	6003
2026-01-14 17:06:57.64	17.02	10.25	-40.0	-41.2	20.8	0.00e+00	92	28	0	199229440	54	5848
2026-01-14 17:06:58.65	16.91	10.32	-40.0	-41.2	20.7	0.00e+00	6	28	0	201326592	54	5847
2026-01-14 17:06:59.66	16.80	10.39	-39.9	-41.1	21.0	0.00e+00	7	28	0	202375168	54	5769
2026-01-14 17:07:00.67	16.69	10.46	-39.8	-41.0	21.0	0.00e+00	5	28	0	204472320	54	5752
2026-01-14 17:07:01.67	16.58	10.53	-39.8	-41.0	21.1	0.00e+00	0	28	0	206569472	54	5720
2026-01-14 17:07:02.68	16.46	10.60	-39.7	-40.9	21.1	0.00e+00	92	28	0	208666624	52	6367
2026-01-14 17:07:03.69	16.35	10.67	-39.8	-40.9	21.1	0.00e+00	65	28	0	210763776	52	6386
2026-01-14 17:07:04.70	16.24	10.74	-39.8	-40.9	21.2	0.00e+00	92	28	0	211812352	52	6376
2026-01-14 17:07:05.71	16.12	10.82	-39.8	-41.0	21.1	0.00e+00	0	28	0	213909504	52	6434
2026-01-14 17:07:06.72	16.01	10.89	-39.8	-41.0	21.1	0.00e+00	66	28	0	216006656	52	6450
2026-01-14 17:07:07.72	15.90	10.96	-39.9	-41.1	21.1	0.00e+00	67	28	0	218103808	52	6471
2026-01-14 17:07:08.73	15.78	11.03	-39.8	-40.9	21.1	0.00e+00	66	28	0	220200960	52	6387
2026-01-14 17:07:09.75	15.67	11.10	-39.7	-40.8	21.3	0.00e+00	0	28	0	221249536	52	6314
2026-01-14 17:07:10.76	15.55	11.17	-39.7	-40.9	21.3	0.00e+00	64	28	0	223346688	52	6328
2026-01-14 17:07:11.77	15.43	11.25	-39.7	-40.9	21.2	0.00e+00	92	28	0	225443840	52	6349
2026-01-14 17:07:12.78	15.31	11.32	-39.8	-41.0	21.1	0.00e+00	66	28	0	227540992	52	6428
2026-01-14 17:07:13.78	15.20	11.39	-39.8	-41.0	21.2	0.00e+00	72	28	0	229638144	52	6408
2026-01-14 17:07:14.79	15.08	11.46	-39.7	-40.9	21.2	0.00e+00	16	28	0	230686720	52	6347
2026-01-14 17:07:15.80	14.96	11.53	-39.9	-41.1	21.1	0.00e+00	16	28	0	232783872	52	6465
2026-01-14 17:07:16.81	14.84	11.61	-39.8	-41.0	21.1	0.00e+00	17	29	0	234881024	52	6446
2026-01-14 17:07:17.82	14.72	11.68	-39.9	-41.0	21.2	0.00e+00	13	28	0	236978176	52	6456
2026-01-14 17:07:18.83	14.60	11.75	-39.9	-41.0	21.1	0.00e+00	92	28	0	239075328	52	6455
2026-01-14 17:07:19.83	14.48	11.82	-39.8	-41.0	21.1	0.00e+00	15	29	0	240123904	52	6450
2026-01-14 17:07:20.84	14.36	11.90	-39.9	-41.1	21.0	0.00e+00	91	28	0	242221056	52	6515
2026-01-14 17:07:21.85	14.23	11.97	-39.7	-40.9	21.2	0.00e+00	0	28	0	244318208	52	6343
2026-01-14 17:07:22.86	14.11	12.04	-39.8	-40.9	21.3	0.00e+00	0	28	0	246415360	52	6363
2026-01-14 17:07:23.87	13.98	12.11	-39.7	-40.8	21.3	0.00e+00	0	28	0	248512512	52	6309
2026-01-14 17:07:24.88	13.86	12.19	-39.7	-40.8	21.3	0.00e+00	0	28	0	249561088	52	6283
2026-01-14 17:07:25.89	13.73	12.26	-39.7	-40.8	21.4	0.00e+00	67	28	0	251658240	52	6276
2026-01-14 17:07:26.90	13.61	12.33	-39.6	-40.7	21.4	0.00e+00	0	28	0	253755392	52	6228
2026-01-14 17:07:27.91	13.48	12.41	-39.6	-40.7	21.5	0.00e+00	92	28	0	255852544	52	6195
2026-01-14 17:07:28.92	13.35	12.48	-39.6	-40.8	21.3	0.00e+00	0	28	0	257949696	52	6262
2026-01-14 17:07:29.93	13.23	12.55	-39.6	-40.7	21.5	0.00e+00	61	28	0	258998272	52	6220
2026-01-14 17:07:30.94	13.10	12.63	-39.5	-40.7	21.5	0.00e+00	4	28	0	261095424	52	6191
2026-01-14 17:07:31.94	12.97	12.70	-39.5	-40.6	21.6	0.00e+00	61	28	0	263192576	52	6148
2026-01-14 17:07:32.95	12.84	12.77	-39.5	-40.6	21.6	0.00e+00	40	28	0	265289728	52	6154
2026-01-14 17:07:33.96	12.71	12.85	-39.5	-40.6	21.5	0.00e+00	67	28	0	267386880	52	6151
2026-01-14 17:07:34.97	12.58	12.92	-39.5	-40.6	21.6	0.00e+00	91	28	0	268435456	52	6136
2026-01-14 17:07:35.98	12.44	13.00	-39.4	-40.6	21.6	0.00e+00	14	28	0	270532608	52	6120
2026-01-14 17:07:36.99	12.31	13.07	-39.5	-40.7	21.6	0.00e+00	92	28	0	272629760	52	6182
2026-01-14 17:07:38.00	12.18	13.14	-39.4	-40.6	21.6	0.00e+00	17	29	0	274726912	52	6106
2026-01-14 17:07:39.01	12.04	13.22	-39.6	-40.7	21.5	0.00e+00	0	28	0	276824064	52	6233
2026-01-14 17:07:40.02	11.91	13.29	-39.5	-40.6	21.6	0.00e+00	16	28	0	277872640	52	6153
2026-01-14 17:07:41.03	11.77	13.37	-39.5	-40.6	21.6	0.00e+00	0	28	0	279969792	52	6150
2026-01-14 17:07:42.04	11.64	13.44	-39.5	-40.7	21.5	0.00e+00	90	29	0	282066944	52	6176
2026-01-14 17:07:43.04	11.50	13.51	-39.3	-40.4	21.9	0.00e+00	0	28	0	284164096	52	6017
2026-01-14 17:07:44.05	11.36	13.59	-39.2	-40.3	21.9	0.00e+00	90	28	0	286261248	52	5934
2026-01-14 17:07:45.06	11.23	13.66	-39.1	-40.2	22.0	0.00e+00	0	28	0	288358400	52	5871
2026-01-14 17:07:46.07	11.09	13.74	-39.1	-40.2	22.0	0.00e+00	2	28	0	289406976	52	5850
2026-01-14 17:07:47.08	10.95	13.81	-39.2	-40.3	21.9	0.00e+00	0	28	0	291504128	52	5926
2026-01-14 17:07:48.09	10.81	13.89	-39.2	-40.3	21.9	0.00e+00	0	28	0	293601280	52	5900
2026-01-14 17:07:49.10	10.67	13.96	-39.1	-40.2	22.0	0.00e+00	48	28	0	295698432	52	5841
2026-01-14 17:07:50.11	10.52	14.04	-39.1	-40.2	21.7	0.00e+00	67	28	0	297795584	52	5844
2026-01-14 17:07:51.11	10.38	14.11	-39.1	-40.2	22.1	0.00e+00	90	28	0	298844160	52	5856
2026-01-14 17:07:52.13	10.24	14.19	-39.2	-40.2	21.8	0.00e+00	0	28	0	300941312	52	5890
2026-01-14 17:07:53.13	10.09	14.26	-39.1	-40.2	22.0	0.00e+00	67	28	0	303038464	52	5846
2026-01-14 17:07:54.14	9.95	14.34	-39.0	-40.1	22.1	0.00e+00	0	28	0	305135616	52	5776
2026-01-14 17:07:55.15	9.80	14.41	-38.9	-39.9	22.3	0.00e+00	0	28	0	307232768	52	5689
2026-01-14 17:07:56.16	9.66	14.49	-38.9	-39.9	22.2	0.00e+00	0	29	0	308281344	52	5692
2026-01-14 17:07:57.17	9.51	14.56	-38.8	-39.8	22.3	0.00e+00	14	28	0	310378496	52	5628
2026-01-14 17:07:58.18	9.36	14.64	-38.8	-39.8	22.4	0.00e+00	90	28	0	312475648	52	5610
2026-01-14 17:07:59.19	9.21	14.71	-38.8	-39.9	22.4	0.00e+00	14	28	0	314572800	52	5634
2026-01-14 17:08:00.20	9.06	14.79	-38.8	-39.8	22.4	0.00e+00	92	28	0	316669952	52	5593
2026-01-14 17:08:01.21	8.91	14.86	-38.8	-39.8	22.4	0.00e+00	20	28	0	317718528	52	5622
2026-01-14 17:08:02.22	8.76	14.94	-38.8	-39.8	22.4	0.00e+00	0	28	0	319815680	50	6299
2026-01-14 17:08:03.23	8.61	15.01	-38.9	-39.9	22.3	0.00e+00	0	29	0	321912832	50	6369
2026-01-14 17:08:04.24	8.46	15.09	-38.7	-39.7	22.5	0.00e+00	0	28	0	324009984	50	6200
2026-01-14 17:08:05.25	8.31	15.16	-38.6	-39.6	22.6	0.00e+00	92	28	0	326107136	50	6165
2026-01-14 17:08:06.26	8.15	15.24	-38.7	-39.7	22.5	0.00e+00	0	29	0	327155712	50	6234
2026-01-14 17:08:07.27	8.00	15.31	-38.7	-39.7	22.5	0.00e+00	92	29	0	329252864	50	6196
2026-01-14 17:08:08.28	7.84	15.39	-38.5	-39.4	22.7	0.00e+00	0	28	0	331350016	50	6031
2026-01-14 17:08:09.29	7.68	15.46	-38.7	-39.7	22.6	0.00e+00	0	29	0	333447168	50	6178
2026-01-14 17:08:10.30	7.53	15.54	-38.7	-39.7	22.5	0.00e+00	0	28	0	335544320	50	6186
2026-01-14 17:08:11.31	7.37	15.61	-38.8	-39.8	22.4	0.00e+00	0	29	0	336592896	50	6268
2026-01-14 17:08:12.32	7.21	15.69	-38.8	-39.9	22.4	0.00e+00	88	29	0	338690048	50	6320
2026-01-14 17:08:13.33	7.05	15.77	-39.0	-40.0	22.3	0.00e+00	66	29	0	340787200	50	6458
2026-01-14 17:08:14.34	6.89	15.84	-38.9	-39.9	22.3	0.00e+00	90	28	0	342884352	50	6365
2026-01-14 17:08:15.35	6.73	15.92	-38.9	-40.0	22.3	0.00e+00	14	29	0	344981504	50	6397
2026-01-14 17:08:16.35	6.57	15.99	-38.9	-39.9	22.2	0.00e+00	12	29	0	346030080	50	6373
2026-01-14 17:08:17.36	6.40	16.07	-39.1	-40.1	22.1	0.00e+00	20	29	0	348127232	50	6529
2026-01-14 17:08:18.37	6.24	16.14	-39.2	-40.2	22.1	0.00e+00	2	28	0	350224384	50	6586
2026-01-14 17:08:19.38	6.07	16.22	-39.2	-40.3	22.0	0.00e+00	0	28	0	352321536	50	6650
2026-01-14 17:08:20.39	5.91	16.29	-39.2	-40.3	22.0	0.00e+00	14	29	0	354418688	50	6617
2026-01-14 17:08:21.40	5.74	16.37	-39.2	-40.2	22.0	0.00e+00	92	28	0	356515840	50	6595
2026-01-14 17:08:22.40	5.58	16.44	-39.1	-40.1	22.2	0.00e+00	15	28	0	357564416	50	6523
2026-01-14 17:08:23.41	5.41	16.52	-39.0	-40.1	22.1	0.00e+00	92	29	0	359661568	50	6490
2026-01-14 17:08:24.42	5.24	16.59	-39.1	-40.1	22.1	0.00e+00	14	29	0	361758720	50	6532
2026-01-14 17:08:25.43	5.07	16.67	-39.2	-40.3	22.0	0.00e+00	5	29	0	363855872	50	6646
2026-01-14 17:08:26.44	4.90	16.74	-39.3	-40.4	21.9	0.00e+00	0	29	0	365953024	50	6699
2026-01-14 17:08:27.45	4.73	16.82	-39.3	-40.3	22.0	0.00e+00	5	29	0	367001600	50	6676
2026-01-14 17:08:28.46	4.55	16.89	-39.3	-40.3	21.9	0.00e+00	92	28	0	369098752	50	6692
2026-01-14 17:08:29.47	4.38	16.97	-39.3	-40.4	21.9	0.00e+00	0	29	0	371195904	50	6704
2026-01-14 17:08:30.48	4.21	17.05	-39.4	-40.5	21.9	0.00e+00	92	28	0	373293056	50	6775
2026-01-14 17:08:31.49	4.03	17.12	-39.4	-40.5	21.9	0.00e+00	0	29	0	374341632	50	6826
2026-01-14 17:08:32.50	3.85	17.20	-39.2	-40.2	22.1	0.00e+00	68	28	0	376438784	50	6603
2026-01-14 17:08:33.51	3.68	17.27	-39.1	-40.1	22.3	0.00e+00	0	29	0	378535936	50	6483
2026-01-14 17:08:34.52	3.50	17.35	-39.1	-40.1	22.3	0.00e+00	0	28	0	380633088	50	6499
2026-01-14 17:08:35.53	3.32	17.42	-39.1	-40.1	22.3	0.00e+00	61	29	0	382730240	50	6483
2026-01-14 17:08:36.54	3.14	17.49	-39.2	-40.2	22.1	0.00e+00	0	28	0	384827392	50	6583
2026-01-14 17:08:37.54	2.96	17.57	-39.2	-40.2	22.2	0.00e+00	92	29	0	385875968	50	6595
2026-01-14 17:08:38.55	2.78	17.64	-39.3	-40.4	22.0	0.00e+00	66	29	0	387973120	50	6693
2026-01-14 17:08:39.56	2.60	17.72	-39.3	-40.4	22.1	0.00e+00	29	29	0	390070272	50	6696
2026-01-14 17:08:40.57	2.42	17.79	-39.3	-40.4	22.0	0.00e+00	66	28	0	392167424	50	6717
2026-01-14 17:08:41.58	2.23	17.87	-39.2	-40.3	22.1	0.00e+00	0	28	0	394264576	50	6649
2026-01-14 17:08:42.59	2.05	17.94	-39.3	-40.4	22.0	0.00e+00	44	29	0	395313152	50	6730
2026-01-14 17:08:43.60	1.86	18.02	-39.3	-40.3	22.1	0.00e+00	25	29	0	397410304	50	6689
2026-01-14 17:08:44.61	1.67	18.09	-39.2	-40.2	22.1	0.00e+00	90	29	0	399507456	50	6587
2026-01-14 17:08:45.61	1.49	18.16	-39.1	-40.2	22.0	0.00e+00	6	29	0	401604608	50	6578
2026-01-14 17:08:46.63	1.30	18.24	-39.1	-40.2	22.1	0.00e+00	90	29	0	403701760	50	6562
2026-01-14 17:08:47.63	1.11	18.31	-39.0	-40.1	22.3	0.00e+00	6	29	0	404750336	50	6475
2026-01-14 17:08:48.64	0.92	18.39	-39.0	-40.1	22.3	0.00e+00	6	28	0	406847488	50	6482
2026-01-14 17:08:49.65	0.73	18.46	-39.0	-40.0	22.3	0.00e+00	8	28	0	408944640	50	6454
2026-01-14 17:08:50.66	0.53	18.53	-39.0	-40.0	22.4	0.00e+00	0	29	0	411041792	50	6446
2026-01-14 17:08:51.67	0.34	18.61	-39.0	-40.0	22.3	0.00e+00	92	29	0	413138944	50	6458
2026-01-14 17:08:52.68	0.14	18.68	-39.0	-40.1	22.3	0.00e+00	6	29	0	414187520	50	6482
2026-01-14 17:08:53.69	359.95	18.75	-39.1	-40.1	22.2	0.00e+00	88	29	0	416284672	50	6503
2026-01-14 17:08:54.70	359.75	18.83	-39.0	-40.0	22.3	0.00e+00	67	29	0	418381824	50	6462
2026-01-14 17:08:55.71	359.56	18.90	-39.2	-40.3	22.1	0.00e+00	10	29	0	420478976	50	6623
2026-01-14 17:08:56.72	359.36	18.97	-38.9	-39.9	22.4	0.00e+00	68	29	0	422576128	50	6381
2026-01-14 17:08:57.73	359.16	19.04	-38.9	-39.9	22.4	0.00e+00	63	29	0	423624704	50	6386
2026-01-14 17:08:58.74	358.96	19.12	-38.7	-39.7	22.6	0.00e+00	64	29	0	425721856	50	6211
2026-01-14 17:08:59.75	358.76	19.19	-38.7	-39.6	22.7	0.00e+00	20	29	0	427819008	50	6169
2026-01-14 17:09:00.76	358.55	19.26	-38.7	-39.7	22.6	0.00e+00	92	29	0	429916160	50	6179
2026-01-14 17:09:01.76	358.35	19.33	-38.6	-39.5	22.7	0.00e+00	12	29	0	432013312	50	6091
2026-01-14 17:09:02.77	358.15	19.40	-38.5	-39.5	22.8	0.00e+00	92	29	0	433061888	50	6047
2026-01-14 17:09:03.78	357.94	19.48	-38.5	-39.5	22.8	0.00e+00	12	29	0	435159040	50	6086
2026-01-14 17:09:04.79	357.74	19.55	-38.4	-39.4	22.9	0.00e+00	12	29	0	437256192	50	6014
2026-01-14 17:09:05.80	357.53	19.62	-38.3	-39.3	23.0	0.00e+00	0	29	0	439353344	50	5930
2026-01-14 17:09:06.81	357.32	19.69	-38.3	-39.3	23.1	0.00e+00	0	29	0	441450496	50	5930
2026-01-14 17:09:07.82	357.11	19.76	-37.9	-38.8	23.4	0.00e+00	92	28	0	442499072	50	5620
2026-01-14 17:09:08.83	356.90	19.83	-38.0	-38.9	23.5	0.00e+00	13	28	0	444596224	50	5663
2026-01-14 17:09:09.84	356.69	19.90	-37.9	-38.8	23.5	0.00e+00	90	29	0	446693376	50	5616
2026-01-14 17:09:10.85	356.48	19.97	-37.5	-38.4	23.8	0.00e+00	0	29	0	448790528	48	5998
2026-01-14 17:09:11.86	356.27	20.04	-37.6	-38.4	23.8	0.00e+00	0	28	0	450887680	48	6025
2026-01-14 17:09:12.87	356.05	20.11	-37.4	-38.3	23.9	0.00e+00	0	29	0	452984832	48	5933
2026-01-14 17:09:13.87	355.84	20.18	-37.4	-38.2	23.9	0.00e+00	0	29	0	454033408	48	5892
2026-01-14 17:09:14.88	355.62	20.25	-37.0	-37.8	24.3	0.00e+00	92	29	0	456130560	48	5627
2026-01-14 17:09:15.89	355.41	20.32	-37.0	-37.9	24.2	0.00e+00	69	29	0	458227712	48	5640
2026-01-14 17:09:16.90	355.19	20.39	-36.9	-37.8	24.3	0.00e+00	92	29	0	460324864	48	5595
2026-01-14 17:09:17.91	354.97	20.46	-37.0	-37.8	24.3	0.00e+00	0	29	0	462422016	48	5623
2026-01-14 17:09:18.92	354.75	20.52	-37.0	-37.9	24.2	0.00e+00	43	29	0	463470592	48	5657
2026-01-14 17:09:19.93	354.53	20.59	-36.9	-37.7	24.3	0.00e+00	0	29	0	465567744	48	5559
2026-01-14 17:09:20.93	354.31	20.66	-37.0	-37.9	24.2	0.00e+00	67	28	0	467664896	48	5655
2026-01-14 17:09:21.94	354.09	20.73	-37.0	-37.8	24.3	0.00e+00	52	29	0	469762048	48	5615
2026-01-14 17:09:22.95	353.86	20.79	-36.9	-37.8	24.4	0.00e+00	3	28	0	471859200	48	5580
2026-01-14 17:09:23.96	353.64	20.86	-36.8	-37.7	24.4	0.00e+00	92	28	0	472907776	48	5517
2026-01-14 17:09:24.97	353.41	20.93	-36.8	-37.7	24.5	0.00e+00	68	29	0	475004928	46	6190
2026-01-14 17:09:25.98	353.18	20.99	-36.8	-37.6	24.4	0.00e+00	90	29	0	477102080	46	6141
2026-01-14 17:09:26.99	352.96	21.06	-36.8	-37.7	23.6	0.00e+00	12	28	0	479199232	46	6191
2026-01-14 17:09:27.99	352.73	21.13	-36.8	-37.7	24.2	0.00e+00	12	29	0	481296384	46	6183
2026-01-14 17:09:29.00	352.50	21.19	-36.7	-37.5	24.5	0.00e+00	13	28	0	482344960	46	6095
2026-01-14 17:09:30.01	352.27	21.26	-36.8	-37.6	24.5	0.00e+00	0	29	0	484442112	46	6128
2026-01-14 17:09:31.02	352.04	21.32	-36.6	-37.5	24.6	0.00e+00	92	28	0	486539264	46	6046
2026-01-14 17:09:32.03	351.80	21.38	-36.7	-37.5	24.7	0.00e+00	2	28	0	488636416	46	6053
2026-01-14 17:09:33.04	351.57	21.45	-36.5	-37.4	24.7	0.00e+00	91	28	0	490733568	46	5966
2026-01-14 17:09:34.05	351.34	21.51	-36.5	-37.4	24.8	0.00e+00	0	29	0	491782144	46	5970
2026-01-14 17:09:35.06	351.10	21.58	-36.6	-37.4	24.7	0.00e+00	0	28	0	493879296	46	5988
2026-01-14 17:09:36.07	350.86	21.64	-36.6	-37.5	24.6	0.00e+00	2	29	0	495976448	46	6040
2026-01-14 17:09:37.08	350.63	21.70	-36.6	-37.4	24.7	0.00e+00	0	29	0	498073600	46	5991
2026-01-14 17:09:38.09	350.39	21.76	-36.8	-37.6	24.5	0.00e+00	84	28	0	500170752	46	6112
2026-01-14 17:09:39.10	350.15	21.83	-36.5	-37.2	24.5	0.00e+00	0	29	0	501219328	46	5895
2026-01-14 17:09:40.10	349.91	21.89	-36.6	-37.4	24.7	0.00e+00	92	29	0	503316480	46	6004
2026-01-14 17:09:41.11	349.67	21.95	-36.6	-37.5	24.7	0.00e+00	70	28	0	505413632	46	6036
2026-01-14 17:09:42.12	349.43	22.01	-36.7	-37.6	24.6	0.00e+00	8	28	0	507510784	46	6107
2026-01-14 17:09:43.13	349.18	22.07	-36.9	-37.7	24.5	0.00e+00	70	29	0	509607936	46	6214
2026-01-14 17:09:44.14	348.94	22.13	-36.9	-37.7	24.4	0.00e+00	71	29	0	510656512	46	6229
2026-01-14 17:09:45.15	348.69	22.19	-36.9	-37.7	24.5	0.00e+00	51	29	0	512753664	46	6197
2026-01-14 17:09:46.16	348.45	22.25	-36.9	-37.7	24.4	0.00e+00	0	29	0	514850816	46	6216
2026-01-14 17:09:47.17	348.20	22.31	-36.8	-37.6	24.6	0.00e+00	92	29	0	516947968	46	6140
2026-01-14 17:09:48.18	347.95	22.36	-36.8	-37.6	24.5	0.00e+00	12	29	0	519045120	46	6128
2026-01-14 17:09:49.19	347.70	22.42	-36.9	-37.7	24.5	0.00e+00	92	29	0	520093696	46	6204
2026-01-14 17:09:50.20	347.45	22.48	-37.0	-37.8	23.9	0.00e+00	0	29	0	522190848	46	6307
2026-01-14 17:09:51.21	347.20	22.54	-37.0	-37.9	24.2	0.00e+00	13	29	0	524288000	46	6329
2026-01-14 17:09:52.22	346.95	22.59	-37.0	-37.9	24.3	0.00e+00	0	29	0	526385152	46	6318
2026-01-14 17:09:53.23	346.70	22.65	-37.0	-37.9	24.3	0.00e+00	0	29	0	528482304	46	6326
2026-01-14 17:09:54.24	346.44	22.70	-36.8	-37.6	24.4	0.00e+00	92	29	0	529530880	46	6170
2026-01-14 17:09:55.25	346.19	22.76	-36.8	-37.6	24.6	0.00e+00	0	29	0	531628032	46	6121
2026-01-14 17:09:56.26	345.93	22.81	-36.6	-37.4	24.6	0.00e+00	92	29	0	533725184	46	6008
2026-01-14 17:09:57.26	345.68	22.87	-36.6	-37.4	24.7	0.00e+00	0	29	0	535822336	46	6032
2026-01-14 17:09:58.28	345.42	22.92	-36.6	-37.4	24.7	0.00e+00	0	29	0	537919488	46	6012
2026-01-14 17:09:59.29	345.16	22.97	-36.7	-37.5	24.6	0.00e+00	0	29	0	538968064	46	6090
2026-01-14 17:10:00.29	344.90	23.02	-36.5	-37.3	24.5	0.00e+00	67	29	0	541065216	46	5957
2026-01-14 17:10:01.30	344.64	23.08	-36.6	-37.4	24.6	0.00e+00	85	29	0	543162368	46	5988
2026-01-14 17:10:02.31	344.38	23.13	-36.6	-37.5	24.6	0.00e+00	0	29	0	545259520	46	6034
2026-01-14 17:10:03.32	344.12	23.18	-36.8	-37.6	24.5	0.00e+00	92	29	0	547356672	46	6169
2026-01-14 17:10:04.33	343.86	23.23	-36.7	-37.5	24.6	0.00e+00	0	29	0	549453824	46	6079
2026-01-14 17:10:05.34	343.59	23.28	-36.8	-37.6	24.5	0.00e+00	5	29	0	550502400	46	6136
2026-01-14 17:10:06.35	343.33	23.33	-36.7	-37.5	24.6	0.00e+00	14	29	0	552599552	46	6097
2026-01-14 17:10:07.36	343.06	23.38	-36.6	-37.4	24.8	0.00e+00	68	29	0	554696704	46	5982
2026-01-14 17:10:08.37	342.80	23.42	-36.3	-37.1	24.9	0.00e+00	55	29	0	556793856	46	5781
2026-01-14 17:10:09.38	342.53	23.47	-36.2	-37.0	25.0	0.00e+00	62	29	0	558891008	46	5743
2026-01-14 17:10:10.38	342.27	23.52	-36.1	-36.9	25.1	0.00e+00	92	29	0	559939584	46	5666
2026-01-14 17:10:11.39	342.00	23.56	-36.0	-36.8	25.1	0.00e+00	0	29	0	562036736	46	5605
2026-01-14 17:10:12.40	341.73	23.61	-36.2	-37.0	25.0	0.00e+00	92	29	0	564133888	46	5740
2026-01-14 17:10:13.41	341.46	23.65	-36.2	-36.9	25.0	0.00e+00	14	29	0	566231040	46	5687
2026-01-14 17:10:14.42	341.19	23.70	-36.3	-37.1	25.0	0.00e+00	7	29	0	568328192	46	5778
2026-01-14 17:10:15.43	340.92	23.74	-36.3	-37.1	25.0	0.00e+00	5	29	0	569376768	46	5763
2026-01-14 17:10:16.44	340.64	23.79	-36.4	-37.2	24.9	0.00e+00	0	29	0	571473920	46	5835
2026-01-14 17:10:17.45	340.37	23.83	-36.4	-37.2	24.9	0.00e+00	92	29	0	573571072	46	5852
2026-01-14 17:10:18.46	340.10	23.87	-36.5	-37.3	24.8	0.00e+00	7	29	0	575668224	46	5950
2026-01-14 17:10:19.47	339.82	23.91	-36.7	-37.5	24.6	0.00e+00	92	29	0	577765376	46	6071
2026-01-14 17:10:20.48	339.55	23.95	-36.7	-37.6	24.5	0.00e+00	0	29	0	578813952	46	6119
2026-01-14 17:10:21.49	339.27	23.99	-36.9	-37.7	24.4	0.00e+00	67	29	0	580911104	46	6222
2026-01-14 17:10:22.50	338.99	24.03	-36.9	-37.7	24.4	0.00e+00	0	29	0	583008256	46	6223
2026-01-14 17:10:23.51	338.72	24.07	-36.7	-37.6	24.6	0.00e+00	0	29	0	585105408	46	6107
2026-01-14 17:10:24.52	338.44	24.11	-36.8	-37.7	24.4	0.00e+00	17	29	0	587202560	46	6175
2026-01-14 17:10:25.53	338.16	24.14	-36.7	-37.5	24.6	0.00e+00	0	29	0	588251136	46	6099
2026-01-14 17:10:26.54	337.88	24.18	-36.9	-37.7	24.4	0.00e+00	92	29	0	590348288	46	6209
2026-01-14 17:10:27.55	337.60	24.22	-37.2	-38.0	24.3	0.00e+00	25	29	0	592445440	46	6431
2026-01-14 17:10:28.55	337.32	24.25	-37.2	-38.0	24.2	0.00e+00	35	29	0	594542592	46	6439
2026-01-14 17:10:29.56	337.04	24.29	-37.3	-38.2	24.1	0.00e+00	16	29	0	596639744	46	6547
2026-01-14 17:10:30.57	336.76	24.32	-37.3	-38.2	24.0	0.00e+00	68	29	0	597688320	46	6573
2026-01-14 17:10:31.58	336.48	24.35	-37.4	-38.2	24.0	0.00e+00	0	29	0	599785472	46	6585
2026-01-14 17:10:32.59	336.19	24.38	-37.6	-38.5	23.8	0.00e+00	17	29	0	601882624	46	6813
2026-01-14 17:10:33.60	335.91	24.42	-37.6	-38.5	23.7	0.00e+00	92	29	0	603979776	46	6835
2026-01-14 17:10:34.61	335.63	24.45	-37.8	-38.8	23.5	0.00e+00	21	29	0	606076928	48	6247
2026-01-14 17:10:35.61	335.34	24.48	-38.0	-38.9	23.4	0.00e+00	92	29	0	607125504	48	6359
2026-01-14 17:10:36.62	335.06	24.51	-38.1	-39.1	23.3	0.00e+00	16	29	0	609222656	48	6477
2026-01-14 17:10:37.63	334.77	24.54	-38.2	-39.1	23.3	0.00e+00	6	29	0	611319808	48	6490
2026-01-14 17:10:38.64	334.49	24.56	-38.2	-39.1	23.2	0.00e+00	5	29	0	613416960	48	6527
2026-01-14 17:10:39.65	334.20	24.59	-38.3	-39.3	23.1	0.00e+00	0	29	0	615514112	48	6640
2026-01-14 17:10:40.66	333.91	24.62	-38.4	-39.3	23.1	0.00e+00	91	29	0	617611264	48	6661
2026-01-14 17:10:41.67	333.62	24.64	-38.4	-39.3	23.1	0.00e+00	0	29	0	618659840	48	6687
2026-01-14 17:10:42.67	333.34	24.67	-38.3	-39.3	23.1	0.00e+00	91	29	0	620756992	48	6616
2026-01-14 17:10:43.68	333.05	24.69	-38.4	-39.3	23.1	0.00e+00	6	29	0	622854144	48	6679
2026-01-14 17:10:44.69	332.76	24.71	-38.3	-39.3	23.1	0.00e+00	0	29	0	624951296	48	6643
2026-01-14 17:10:45.70	332.47	24.74	-38.5	-39.5	22.9	0.00e+00	68	28	0	627048448	48	6812
2026-01-14 17:10:46.71	332.18	24.76	-38.4	-39.4	23.0	0.00e+00	70	29	0	628097024	48	6713
2026-01-14 17:10:47.72	331.89	24.78	-38.5	-39.5	22.9	0.00e+00	6	29	0	630194176	48	6775
2026-01-14 17:10:48.73	331.60	24.80	-38.4	-39.3	23.1	0.00e+00	70	29	0	632291328	48	6687
2026-01-14 17:10:49.74	331.31	24.82	-38.4	-39.3	23.0	0.00e+00	91	29	0	634388480	48	6685
2026-01-14 17:10:50.75	331.02	24.84	-38.4	-39.3	23.0	0.00e+00	13	29	0	636485632	48	6684
2026-01-14 17:10:51.76	330.72	24.85	-38.6	-39.5	22.9	0.00e+00	15	28	0	637534208	48	6835
2026-01-14 17:10:52.77	330.43	24.87	-38.7	-39.7	22.8	0.00e+00	68	29	0	639631360	48	6982
2026-01-14 17:10:53.77	330.14	24.89	-38.8	-39.8	22.7	0.00e+00	12	29	0	641728512	50	6310
2026-01-14 17:10:54.78	329.85	24.90	-38.9	-39.9	22.6	0.00e+00	52	29	0	643825664	50	6384
2026-01-14 17:10:55.79	329.56	24.92	-38.8	-39.8	22.7	0.00e+00	2	29	0	645922816	50	6278
2026-01-14 17:10:56.80	329.26	24.93	-38.7	-39.6	22.8	0.00e+00	90	29	0	646971392	50	6164
2026-01-14 17:10:57.81	328.97	24.94	-38.5	-39.5	23.0	0.00e+00	13	29	0	649068544	50	6069
2026-01-14 17:10:58.82	328.67	24.96	-38.5	-39.4	23.1	0.00e+00	92	29	0	651165696	50	6007
2026-01-14 17:10:59.83	328.38	24.97	-38.6	-39.6	22.9	0.00e+00	14	29	0	653262848	50	6124
2026-01-14 17:11:00.84	328.09	24.98	-38.4	-39.4	23.1	0.00e+00	13	29	0	655360000	50	5965
2026-01-14 17:11:01.85	327.79	24.99	-38.5	-39.5	23.0	0.00e+00	0	29	0	656408576	50	6071
2026-01-14 17:11:02.86	327.50	25.00	-38.6	-39.6	22.9	0.00e+00	0	29	0	658505728	50	6147
2026-01-14 17:11:03.86	327.20	25.00	-38.8	-39.8	22.7	0.00e+00	92	29	0	660602880	50	6269
2026-01-14 17:11:04.87	326.91	25.01	-38.9	-39.8	22.7	0.00e+00	0	29	0	662700032	50	6314
2026-01-14 17:11:05.88	326.61	25.02	-38.9	-39.8	22.6	0.00e+00	92	29	0	664797184	50	6317
2026-01-14 17:11:06.89	326.32	25.02	-39.0	-40.0	22.5	0.00e+00	4	29	0	665845760	50	6408
2026-01-14 17:11:07.90	326.02	25.03	-38.7	-39.7	22.7	0.00e+00	69	29	0	667942912	50	6211
2026-01-14 17:11:08.91	325.73	25.03	-38.7	-39.7	22.9	0.00e+00	0	29	0	670040064	50	6176
2026-01-14 17:11:09.92	325.43	25.04	-38.6	-39.5	23.0	0.00e+00	69	29	0	672137216	50	6088
2026-01-14 17:11:10.93	325.14	25.04	-38.5	-39.5	23.0	0.00e+00	0	29	0	674234368	50	6052
2026-01-14 17:11:11.94	324.84	25.04	-38.5	-39.5	23.0	0.00e+00	67	29	0	675282944	50	6055
2026-01-14 17:11:12.95	324.55	25.04	-38.4	-39.4	23.1	0.00e+00	90	29	0	677380096	50	5977
2026-01-14 17:11:13.96	324.25	25.04	-38.3	-39.2	23.3	0.00e+00	13	29	0	679477248	50	5860
2026-01-14 17:11:14.97	323.95	25.04	-38.4	-39.3	23.1	0.00e+00	0	29	0	681574400	50	5952
2026-01-14 17:11:15.98	323.66	25.04	-38.3	-39.3	23.1	0.00e+00	13	29	0	683671552	50	5920
2026-01-14 17:11:16.99	323.36	25.03	-38.4	-39.3	22.4	0.00e+00	12	29	0	684720128	50	5925
2026-01-14 17:11:18.00	323.07	25.03	-38.3	-39.2	23.2	0.00e+00	16	29	0	686817280	50	5850
2026-01-14 17:11:19.00	322.77	25.03	-38.2	-39.1	23.3	0.00e+00	13	29	0	688914432	50	5780
2026-01-14 17:11:20.02	322.48	25.02	-38.2	-39.1	23.4	0.00e+00	92	28	0	691011584	50	5789
2026-01-14 17:11:21.02	322.18	25.01	-37.8	-38.7	23.7	0.00e+00	12	29	0	693108736	50	5537
2026-01-14 17:11:22.03	321.89	25.01	-37.9	-38.8	23.5	0.00e+00	92	29	0	694157312	50	5606
2026-01-14 17:11:23.04	321.59	25.00	-37.6	-38.4	24.0	0.00e+00	0	29	0	696254464	48	6018
2026-01-14 17:11:24.05	321.30	24.99	-37.7	-38.6	23.8	0.00e+00	0	29	0	698351616	48	6119
2026-01-14 17:11:25.05	321.01	24.98	-37.7	-38.5	23.8	0.00e+00	0	29	0	700448768	48	6088
2026-01-14 17:11:26.06	320.71	24.97	-37.8	-38.7	23.7	0.00e+00	0	29	0	702545920	48	6202
2026-01-14 17:11:27.07	320.42	24.96	-37.7	-38.6	23.8	0.00e+00	77	29	0	703594496	48	6140
2026-01-14 17:11:28.08	320.12	24.95	-37.6	-38.5	23.9	0.00e+00	0	29	0	705691648	48	6058
2026-01-14 17:11:29.09	319.83	24.94	-37.4	-38.3	24.0	0.00e+00	91	29	0	707788800	48	5911
2026-01-14 17:11:30.10	319.54	24.92	-37.2	-38.0	24.4	0.00e+00	2	29	0	709885952	48	5720
2026-01-14 17:11:31.11	319.24	24.91	-36.7	-37.5	24.8	0.00e+00	0	29	0	711983104	48	5419
2026-01-14 17:11:32.12	318.95	24.89	-36.8	-37.6	24.6	0.00e+00	69	29	0	714080256	46	6170
2026-01-14 17:11:33.13	318.66	24.88	-36.7	-37.5	24.7	0.00e+00	0	29	0	715128832	46	6063
2026-01-14 17:11:34.13	318.37	24.86	-36.7	-37.5	24.8	0.00e+00	0	29	0	717225984	46	6064
2026-01-14 17:11:35.14	318.08	24.84	-36.7	-37.5	24.4	0.00e+00	68	29	0	719323136	46	6081
2026-01-14 17:11:36.15	317.78	24.82	-36.5	-37.3	24.9	0.00e+00	92	29	0	721420288	46	5915
2026-01-14 17:11:37.16	317.49	24.80	-36.2	-36.9	25.2	0.00e+00	13	29	0	723517440	46	5682
2026-01-14 17:11:38.17	317.20	24.78	-36.1	-36.9	25.2	0.00e+00	0	29	0	724566016	46	5644
2026-01-14 17:11:39.18	316.91	24.76	-36.3	-37.1	25.1	0.00e+00	0	29	0	726663168	46	5771
2026-01-14 17:11:40.19	316.62	24.74	-36.2	-36.9	25.2	0.00e+00	14	29	0	728760320	46	5689
2026-01-14 17:11:41.20	316.33	24.72	-36.3	-37.1	25.1	0.00e+00	12	29	0	730857472	46	5796
2026-01-14 17:11:42.21	316.04	24.70	-36.1	-36.9	25.2	0.00e+00	13	29	0	732954624	46	5655
2026-01-14 17:11:43.21	315.75	24.67	-35.9	-36.7	25.3	0.00e+00	92	29	0	734003200	46	5543
2026-01-14 17:11:44.22	315.46	24.65	-35.9	-36.7	25.2	0.00e+00	11	29	0	736100352	46	5537
2026-01-14 17:11:45.23	315.18	24.62	-36.1	-36.8	25.3	0.00e+00	92	29	0	738197504	46	5630
2026-01-14 17:11:46.24	314.89	24.60	-36.0	-36.8	25.3	0.00e+00	0	29	0	740294656	46	5577
2026-01-14 17:11:47.25	314.60	24.57	-35.9	-36.7	25.4	0.00e+00	0	29	0	742391808	46	5531
2026-01-14 17:11:48.26	314.31	24.54	-36.0	-36.8	25.3	0.00e+00	0	29	0	743440384	46	5602
2026-01-14 17:11:49.27	314.03	24.51	-36.1	-36.9	25.3	0.00e+00	0	29	0	745537536	46	5643
2026-01-14 17:11:50.29	313.74	24.48	-36.2	-37.0	25.2	0.00e+00	57	29	0	747634688	46	5710
2026-01-14 17:11:51.30	313.45	24.45	-36.2	-36.9	25.2	0.00e+00	68	29	0	749731840	46	5695
2026-01-14 17:11:52.31	313.17	24.42	-36.3	-37.1	25.0	0.00e+00	88	29	0	751828992	46	5768
2026-01-14 17:11:53.32	312.89	24.39	-36.4	-37.1	24.9	0.00e+00	0	29	0	752877568	46	5824
2026-01-14 17:11:54.33	312.60	24.36	-36.3	-37.1	24.8	0.00e+00	0	29	0	754974720	46	5811
2026-01-14 17:11:55.34	312.32	24.33	-36.3	-37.1	25.1	0.00e+00	0	29	0	757071872	46	5765
2026-01-14 17:11:56.35	312.04	24.29	-36.3	-37.1	24.9	0.00e+00	62	29	0	759169024	46	5814
2026-01-14 17:11:57.35	311.76	24.26	-36.4	-37.2	25.0	0.00e+00	0	28	0	761266176	46	5837
2026-01-14 17:11:58.36	311.48	24.22	-36.4	-37.2	25.0	0.00e+00	22	29	0	762314752	46	5829
2026-01-14 17:11:59.37	311.20	24.19	-36.4	-37.2	25.0	0.00e+00	90	29	0	764411904	46	5829
2026-01-14 17:12:00.38	310.92	24.15	-36.6	-37.4	24.8	0.00e+00	20	29	0	766509056	46	5996
2026-01-14 17:12:01.39	310.64	24.12	-36.7	-37.5	24.7	0.00e+00	92	29	0	768606208	46	6075
2026-01-14 17:12:02.40	310.36	24.08	-36.9	-37.7	24.6	0.00e+00	0	29	0	770703360	46	6213
2026-01-14 17:12:03.41	310.08	24.04	-37.0	-37.8	24.4	0.00e+00	8	29	0	771751936	46	6268
2026-01-14 17:12:04.42	309.80	24.00	-37.2	-38.0	24.3	0.00e+00	7	29	0	773849088	46	6439
2026-01-14 17:12:05.43	309.53	23.96	-37.3	-38.1	24.2	0.00e+00	6	29	0	775946240	46	6512
2026-01-14 17:12:06.44	309.25	23.92	-37.4	-38.2	24.1	0.00e+00	92	29	0	778043392	46	6597
2026-01-14 17:12:07.45	308.98	23.88	-37.5	-38.4	23.9	0.00e+00	5	29	0	780140544	46	6740
2026-01-14 17:12:08.45	308.70	23.84	-37.5	-38.4	24.0	0.00e+00	92	29	0	782237696	46	6706
2026-01-14 17:12:09.46	308.43	23.80	-37.4	-38.3	24.1	0.00e+00	0	29	0	783286272	46	6657
2026-01-14 17:12:10.47	308.16	23.75	-37.5	-38.3	24.0	0.00e+00	5	29	0	785383424	46	6668
2026-01-14 17:12:11.48	307.89	23.71	-37.5	-38.3	24.0	0.00e+00	0	29	0	787480576	46	6677
2026-01-14 17:12:12.49	307.61	23.66	-37.5	-38.4	23.9	0.00e+00	66	29	0	789577728	46	6700
2026-01-14 17:12:13.50	307.34	23.62	-37.6	-38.5	23.9	0.00e+00	28	29	0	791674880	46	6790
2026-01-14 17:12:14.51	307.07	23.57	-37.7	-38.5	23.8	0.00e+00	0	29	0	792723456	46	6844
2026-01-14 17:12:15.52	306.81	23.53	-37.6	-38.5	23.8	0.00e+00	92	29	0	794820608	46	6814
2026-01-14 17:12:16.52	306.54	23.48	-37.8	-38.7	23.7	0.00e+00	0	29	0	796917760	48	6197
2026-01-14 17:12:17.53	306.27	23.43	-37.9	-38.8	23.6	0.00e+00	14	29	0	799014912	48	6268
2026-01-14 17:12:18.54	306.01	23.39	-38.0	-38.8	23.6	0.00e+00	67	29	0	801112064	48	6317
2026-01-14 17:12:19.55	305.74	23.34	-38.0	-38.9	23.6	0.00e+00	23	29	0	802160640	48	6327
2026-01-14 17:12:20.56	305.47	23.29	-38.2	-39.1	23.3	0.00e+00	44	29	0	804257792	48	6475
2026-01-14 17:12:21.57	305.21	23.24	-38.1	-39.0	23.4	0.00e+00	19	29	0	806354944	48	6446
2026-01-14 17:12:22.58	304.95	23.19	-38.2	-39.2	23.3	0.00e+00	92	29	0	808452096	48	6549
2026-01-14 17:12:23.59	304.69	23.14	-38.1	-39.0	23.2	0.00e+00	27	29	0	810549248	48	6451
2026-01-14 17:12:24.59	304.43	23.09	-38.2	-39.1	23.4	0.00e+00	90	29	0	811597824	48	6531
2026-01-14 17:12:25.60	304.17	23.04	-38.2	-39.2	23.2	0.00e+00	8	29	0	813694976	48	6547
2026-01-14 17:12:26.61	303.91	22.98	-38.3	-39.2	23.0	0.00e+00	23	29	0	815792128	48	6569
2026-01-14 17:12:27.62	303.65	22.93	-38.3	-39.2	23.2	0.00e+00	6	29	0	817889280	48	6562
2026-01-14 17:12:28.63	303.39	22.88	-38.4	-39.3	23.2	0.00e+00	6	29	0	819986432	48	6651
2026-01-14 17:12:29.64	303.13	22.82	-38.5	-39.5	23.0	0.00e+00	53	29	0	821035008	48	6778
2026-01-14 17:12:30.65	302.88	22.77	-38.6	-39.5	22.9	0.00e+00	7	28	0	823132160	48	6831
2026-01-14 17:12:31.66	302.62	22.72	-38.5	-39.5	23.0	0.00e+00	92	29	0	825229312	48	6789
2026-01-14 17:12:32.67	302.37	22.66	-38.4	-39.4	23.1	0.00e+00	0	29	0	827326464	48	6705
2026-01-14 17:12:33.68	302.11	22.60	-38.4	-39.3	23.1	0.00e+00	0	28	0	829423616	48	6662
2026-01-14 17:12:34.69	301.86	22.55	-38.4	-39.3	22.9	0.00e+00	6	29	0	830472192	48	6648
2026-01-14 17:12:35.70	301.61	22.49	-38.3	-39.2	23.2	0.00e+00	0	29	0	832569344	48	6563
2026-01-14 17:12:36.71	301.36	22.43	-38.4	-39.3	23.2	0.00e+00	18	28	0	834666496	48	6672
2026-01-14 17:12:37.71	301.11	22.38	-38.3	-39.2	23.2	0.00e+00	67	29	0	836763648	48	6572
2026-01-14 17:12:38.72	300.86	22.32	-38.2	-39.2	23.3	0.00e+00	92	28	0	838860800	48	6543
2026-01-14 17:12:39.73	300.61	22.26	-38.3	-39.2	23.3	0.00e+00	67	29	0	839909376	48	6571
2026-01-14 17:12:40.74	300.37	22.20	-38.5	-39.4	23.1	0.00e+00	90	28	0	842006528	48	6743
2026-01-14 17:12:41.75	300.12	22.14	-38.7	-39.7	22.8	0.00e+00	66	29	0	844103680	48	6978
2026-01-14 17:12:42.76	299.87	22.08	-38.9	-39.9	22.6	0.00e+00	67	29	0	846200832	50	6382
2026-01-14 17:12:43.77	299.63	22.02	-38.8	-39.8	22.7	0.00e+00	63	29	0	848297984	50	6269
2026-01-14 17:12:44.78	299.39	21.96	-38.7	-39.7	22.8	0.00e+00	66	29	0	849346560	50	6198
2026-01-14 17:12:45.79	299.14	21.90	-38.8	-39.8	22.7	0.00e+00	91	29	0	851443712	50	6248
2026-01-14 17:12:46.79	298.91	21.84	-38.4	-39.4	23.1	0.00e+00	0	29	0	853540864	50	5965
2026-01-14 17:12:47.80	298.67	21.78	-38.4	-39.4	23.1	0.00e+00	92	29	0	855638016	50	5982
2026-01-14 17:12:48.81	298.43	21.71	-38.3	-39.2	23.3	0.00e+00	15	29	0	857735168	50	5845
2026-01-14 17:12:49.82	298.19	21.65	-38.3	-39.2	23.2	0.00e+00	2	29	0	858783744	50	5882
2026-01-14 17:12:50.83	297.95	21.59	-38.3	-39.2	23.2	0.00e+00	15	29	0	860880896	50	5867
2026-01-14 17:12:51.84	297.71	21.52	-38.4	-39.3	23.1	0.00e+00	0	29	0	862978048	50	5955
2026-01-14 17:12:52.85	297.48	21.46	-38.4	-39.3	23.2	0.00e+00	91	28	0	865075200	50	5919
2026-01-14 17:12:53.85	297.25	21.40	-38.3	-39.2	23.2	0.00e+00	0	29	0	867172352	50	5862
2026-01-14 17:12:54.86	297.01	21.33	-38.4	-39.3	23.1	0.00e+00	92	28	0	868220928	50	5932
2026-01-14 17:12:55.87	296.78	21.27	-38.2	-39.1	23.3	0.00e+00	0	29	0	870318080	50	5801
2026-01-14 17:12:56.88	296.55	21.20	-38.1	-39.0	23.4	0.00e+00	92	29	0	872415232	50	5708
2026-01-14 17:12:57.89	296.32	21.14	-37.9	-38.8	23.6	0.00e+00	61	29	0	874512384	50	5615
2026-01-14 17:12:58.90	296.09	21.07	-38.0	-38.9	23.5	0.00e+00	4	29	0	876609536	50	5684
2026-01-14 17:12:59.91	295.86	21.01	-37.9	-38.8	23.5	0.00e+00	62	29	0	878706688	50	5616
2026-01-14 17:13:00.92	295.63	20.94	-38.0	-38.9	23.4	0.00e+00	60	29	0	879755264	50	5652
2026-01-14 17:13:01.93	295.40	20.87	-37.9	-38.8	23.6	0.00e+00	91	29	0	881852416	50	5615
2026-01-14 17:13:02.94	295.18	20.81	-38.0	-38.9	23.5	0.00e+00	0	29	0	883949568	50	5651
2026-01-14 17:13:03.95	294.95	20.74	-37.8	-38.7	23.6	0.00e+00	91	29	0	886046720	50	5554
2026-01-14 17:13:04.96	294.73	20.67	-37.8	-38.7	23.6	0.00e+00	15	29	0	888143872	48	6216
2026-01-14 17:13:05.97	294.51	20.60	-37.7	-38.6	23.7	0.00e+00	66	29	0	889192448	48	6112
2026-01-14 17:13:06.98	294.29	20.53	-37.8	-38.6	23.7	0.00e+00	0	28	0	891289600	48	6170
2026-01-14 17:13:07.99	294.07	20.47	-37.7	-38.6	23.7	0.00e+00	66	29	0	893386752	48	6105
2026-01-14 17:13:09.00	293.85	20.40	-37.7	-38.6	23.7	0.00e+00	92	29	0	895483904	48	6147
2026-01-14 17:13:10.00	293.63	20.33	-37.8	-38.7	23.4	0.00e+00	0	29	0	897581056	48	6189
2026-01-14 17:13:11.02	293.41	20.26	-37.8	-38.7	23.6	0.00e+00	92	29	0	898629632	48	6190
2026-01-14 17:13:12.03	293.19	20.19	-37.8	-38.7	23.7	0.00e+00	16	29	0	900726784	48	6213
2026-01-14 17:13:13.04	292.98	20.12	-37.8	-38.7	23.4	0.00e+00	18	28	0	902823936	48	6185
2026-01-14 17:13:14.05	292.76	20.05	-37.7	-38.6	23.7	0.00e+00	2	29	0	904921088	48	6156
2026-01-14 17:13:15.05	292.55	19.98	-37.8	-38.7	23.7	0.00e+00	0	29	0	907018240	48	6188
2026-01-14 17:13:16.06	292.34	19.91	-37.7	-38.6	23.7	0.00e+00	92	29	0	908066816	48	6148
2026-01-14 17:13:17.07	292.13	19.84	-37.7	-38.6	23.7	0.00e+00	2	29	0	910163968	48	6159
2026-01-14 17:13:18.08	291.91	19.77	-37.8	-38.7	23.7	0.00e+00	92	29	0	912261120	48	6215
2026-01-14 17:13:19.09	291.71	19.70	-37.8	-38.7	23.6	0.00e+00	66	29	0	914358272	48	6204
2026-01-14 17:13:20.10	291.50	19.63	-37.7	-38.6	23.7	0.00e+00	66	29	0	916455424	48	6146
2026-01-14 17:13:21.11	291.29	19.56	-37.9	-38.8	23.5	0.00e+00	66	29	0	917504000	48	6251
2026-01-14 17:13:22.12	291.08	19.48	-37.8	-38.7	23.6	0.00e+00	0	29	0	919601152	48	6196
2026-01-14 17:13:23.13	290.88	19.41	-37.8	-38.7	23.5	0.00e+00	0	28	0	921698304	48	6220
2026-01-14 17:13:24.14	290.67	19.34	-37.9	-38.8	23.6	0.00e+00	0	29	0	923795456	48	6266
2026-01-14 17:13:25.15	290.47	19.27	-37.7	-38.6	23.7	0.00e+00	92	29	0	925892608	48	6158
2026-01-14 17:13:26.16	290.26	19.20	-37.9	-38.8	23.6	0.00e+00	61	29	0	926941184	48	6257
2026-01-14 17:13:27.17	290.06	19.12	-37.9	-38.8	23.5	0.00e+00	91	29	0	929038336	48	6258
2026-01-14 17:13:28.17	289.86	19.05	-37.8	-38.7	23.6	0.00e+00	62	28	0	931135488	48	6234
2026-01-14 17:13:29.18	289.66	18.98	-37.8	-38.7	23.6	0.00e+00	21	29	0	933232640	48	6208
2026-01-14 17:13:30.19	289.46	18.91	-37.8	-38.7	23.5	0.00e+00	2	29	0	935329792	48	6233
2026-01-14 17:13:31.20	289.26	18.83	-37.8	-38.7	23.6	0.00e+00	0	29	0	936378368	48	6229
2026-01-14 17:13:32.21	289.07	18.76	-37.9	-38.8	23.5	0.00e+00	91	29	0	938475520	48	6269
2026-01-14 17:13:33.22	288.87	18.69	-37.8	-38.7	23.6	0.00e+00	16	28	0	940572672	48	6242
2026-01-14 17:13:34.23	288.68	18.61	-37.7	-38.6	23.7	0.00e+00	92	29	0	942669824	48	6113
2026-01-14 17:13:35.24	288.48	18.54	-37.9	-38.8	23.6	0.00e+00	0	29	0	944766976	48	6257
2026-01-14 17:13:36.25	288.29	18.47	-37.9	-38.7	23.6	0.00e+00	0	28	0	946864128	48	6242
2026-01-14 17:13:37.25	288.10	18.39	-37.6	-38.5	23.7	0.00e+00	2	29	0	947912704	48	6073
2026-01-14 17:13:38.26	287.91	18.32	-37.6	-38.5	23.7	0.00e+00	2	29	0	950009856	48	6050
2026-01-14 17:13:39.27	287.71	18.25	-37.6	-38.5	23.7	0.00e+00	92	28	0	952107008	48	6090
2026-01-14 17:13:40.28	287.53	18.17	-37.5	-38.3	23.9	0.00e+00	2	29	0	954204160	48	5956
2026-01-14 17:13:41.29	287.34	18.10	-37.5	-38.4	23.8	0.00e+00	92	29	0	955252736	48	6001
2026-01-14 17:13:42.30	287.15	18.02	-37.5	-38.4	23.9	0.00e+00	0	29	0	957349888	48	5979
2026-01-14 17:13:43.31	286.96	17.95	-37.6	-38.5	23.8	0.00e+00	22	29	0	959447040	48	6043
2026-01-14 17:13:44.32	286.78	17.87	-37.4	-38.3	24.0	0.00e+00	66	29	0	961544192	48	5927
2026-01-14 17:13:45.33	286.59	17.80	-37.6	-38.5	23.8	0.00e+00	62	29	0	963641344	48	6039
2026-01-14 17:13:46.34	286.41	17.72	-37.4	-38.2	24.0	0.00e+00	0	29	0	964689920	48	5879
2026-01-14 17:13:47.35	286.22	17.65	-37.4	-38.2	24.0	0.00e+00	0	29	0	966787072	48	5880
2026-01-14 17:13:48.36	286.04	17.58	-37.2	-38.0	24.2	0.00e+00	91	29	0	968884224	48	5749
2026-01-14 17:13:49.37	285.86	17.50	-37.2	-38.0	24.2	0.00e+00	64	29	0	970981376	48	5749
2026-01-14 17:13:50.38	285.68	17.43	-37.0	-37.8	24.3	0.00e+00	91	29	0	973078528	48	5611
2026-01-14 17:13:51.39	285.50	17.35	-37.0	-37.9	24.3	0.00e+00	64	29	0	975175680	48	5633
2026-01-14 17:13:52.39	285.32	17.28	-37.0	-37.9	24.3	0.00e+00	17	29	0	976224256	48	5634
2026-01-14 17:13:53.40	285.14	17.20	-37.1	-37.9	24.3	0.00e+00	24	29	0	978321408	48	5669
2026-01-14 17:13:54.41	284.97	17.13	-37.2	-38.0	24.1	0.00e+00	5	29	0	980418560	48	5749
2026-01-14 17:13:55.42	284.79	17.05	-37.1	-38.0	24.1	0.00e+00	92	29	0	982515712	48	5708
2026-01-14 17:13:56.43	284.62	16.97	-37.3	-38.1	24.1	0.00e+00	5	29	0	984612864	48	5819
2026-01-14 17:13:57.44	284.44	16.90	-37.1	-38.0	24.2	0.00e+00	92	28	0	985661440	48	5724
2026-01-14 17:13:58.45	284.27	16.82	-37.1	-37.9	24.2	0.00e+00	0	29	0	987758592	48	5675
2026-01-14 17:13:59.46	284.10	16.75	-37.1	-37.9	24.2	0.00e+00	5	29	0	989855744	48	5686
2026-01-14 17:14:00.47	283.93	16.67	-37.1	-37.9	24.3	0.00e+00	0	29	0	991952896	48	5686
2026-01-14 17:14:01.48	283.75	16.60	-37.1	-37.9	24.3	0.00e+00	6	28	0	994050048	48	5682
2026-01-14 17:14:02.48	283.59	16.52	-36.9	-37.8	24.3	0.00e+00	0	29	0	995098624	48	5567
2026-01-14 17:14:03.50	283.42	16.45	-36.9	-37.7	24.3	0.00e+00	0	29	0	997195776	48	5560
2026-01-14 17:14:04.51	283.25	16.37	-36.9	-37.7	24.3	0.00e+00	92	29	0	999292928	48	5547
2026-01-14 17:14:05.51	283.08	16.30	-36.8	-37.6	24.4	0.00e+00	65	29	0	1001390080	48	5500
2026-01-14 17:14:06.53	282.91	16.22	-36.9	-37.7	24.3	0.00e+00	40	29	0	1003487232	48	5547
2026-01-14 17:14:07.53	282.75	16.15	-36.9	-37.8	24.3	0.00e+00	64	29	0	1004535808	48	5576
2026-01-14 17:14:08.54	282.58	16.07	-37.1	-37.9	24.2	0.00e+00	22	29	0	1006632960	48	5694
2026-01-14 17:14:09.55	282.42	15.99	-37.1	-38.0	24.2	0.00e+00	7	29	0	1008730112	48	5711
2026-01-14 17:14:10.57	282.26	15.92	-37.3	-38.2	23.8	0.00e+00	23	29	0	1010827264	48	5872
2026-01-14 17:14:11.58	282.09	15.84	-37.1	-38.0	24.2	0.00e+00	92	29	0	1012924416	48	5720
2026-01-14 17:14:12.59	281.93	15.77	-37.2	-38.0	23.9	0.00e+00	22	29	0	1013972992	48	5741
2026-01-14 17:14:13.59	281.77	15.69	-37.1	-37.9	24.1	0.00e+00	90	29	0	1016070144	48	5695
2026-01-14 17:14:14.60	281.61	15.62	-37.1	-38.0	24.1	0.00e+00	24	29	0	1018167296	48	5720
2026-01-14 17:14:15.61	281.45	15.54	-37.1	-37.9	23.9	0.00e+00	26	29	0	1020264448	48	5663
2026-01-14 17:14:16.62	281.30	15.46	-37.1	-37.9	23.4	0.00e+00	8	29	0	1022361600	48	5674
2026-01-14 17:14:17.63	281.14	15.39	-37.0	-37.9	24.0	0.00e+00	7	29	0	1023410176	48	5635
2026-01-14 17:14:18.64	280.98	15.31	-37.0	-37.9	24.3	0.00e+00	92	29	0	1025507328	48	5635
2026-01-14 17:14:19.65	280.83	15.24	-37.0	-37.8	24.2	0.00e+00	0	29	0	1027604480	48	5599
2026-01-14 17:14:20.66	280.67	15.16	-37.0	-37.9	24.2	0.00e+00	92	29	0	1029701632	48	5653
2026-01-14 17:14:21.66	280.52	15.09	-37.0	-37.8	24.2	0.00e+00	7	29	0	1031798784	48	5627
2026-01-14 17:14:22.67	280.37	15.01	-37.0	-37.8	24.2	0.00e+00	33	29	0	1032847360	48	5626
2026-01-14 17:14:23.68	280.21	14.94	-37.0	-37.8	24.3	0.00e+00	0	29	0	1034944512	48	5626
2026-01-14 17:14:24.69	280.06	14.86	-37.1	-37.9	24.2	0.00e+00	0	29	0	1037041664	48	5663
2026-01-14 17:14:25.70	279.91	14.79	-37.2	-38.0	24.1	0.00e+00	77	29	0	1039138816	48	5754
2026-01-14 17:14:26.71	279.76	14.71	-37.1	-38.0	24.0	0.00e+00	58	29	0	1041235968	48	5702
2026-01-14 17:14:27.72	279.61	14.64	-37.3	-38.2	23.9	0.00e+00	92	29	0	1043333120	48	5832
2026-01-14 17:14:28.73	279.46	14.56	-37.4	-38.2	23.8	0.00e+00	0	29	0	1044381696	48	5896
2026-01-14 17:14:29.74	279.31	14.48	-37.4	-38.3	23.8	0.00e+00	92	29	0	1046478848	48	5915
2026-01-14 17:14:30.74	279.17	14.41	-37.5	-38.4	23.7	0.00e+00	24	29	0	1048576000	48	5996
2026-01-14 17:14:31.75	279.02	14.33	-37.6	-38.5	23.6	0.00e+00	57	29	0	1050673152	48	6041
2026-01-14 17:14:32.76	278.88	14.26	-37.7	-38.6	23.5	0.00e+00	0	29	0	1052770304	48	6138
2026-01-14 17:14:33.77	278.73	14.18	-37.8	-38.7	23.5	0.00e+00	20	29	0	1053818880	48	6195
2026-01-14 17:14:34.78	278.59	14.11	-37.8	-38.8	23.4	0.00e+00	92	29	0	1055916032	48	6257
2026-01-14 17:14:35.79	278.44	14.03	-37.9	-38.8	23.3	0.00e+00	19	29	0	1058013184	48	6288
2026-01-14 17:14:36.80	278.30	13.96	-38.0	-39.0	23.2	0.00e+00	92	29	0	1060110336	48	6411
2026-01-14 17:14:37.81	278.16	13.88	-38.0	-38.9	23.3	0.00e+00	18	29	0	1062207488	48	6353
2026-01-14 17:14:38.81	278.02	13.81	-37.9	-38.9	23.3	0.00e+00	20	29	0	1063256064	48	6331
2026-01-14 17:14:39.82	277.88	13.74	-37.8	-38.7	23.4	0.00e+00	19	29	0	1065353216	48	6225
2026-01-14 17:14:40.83	277.74	13.66	-37.7	-38.6	23.5	0.00e+00	17	28	0	1067450368	48	6151
2026-01-14 17:14:41.84	277.60	13.59	-37.7	-38.6	23.4	0.00e+00	92	29	0	1069547520	48	6135
2026-01-14 17:14:42.85	277.46	13.51	-37.6	-38.5	23.6	0.00e+00	0	29	0	1071644672	48	6092
2026-01-14 17:14:43.86	277.32	13.44	-37.8	-38.7	23.4	0.00e+00	92	29	0	1072693248	48	6185
2026-01-14 17:14:44.87	277.19	13.36	-37.9	-38.8	23.3	0.00e+00	0	29	0	1074790400	48	6316
2026-01-14 17:14:45.88	277.05	13.29	-37.8	-38.8	23.4	0.00e+00	0	29	0	1076887552	48	6256
2026-01-14 17:14:46.89	276.92	13.21	-38.0	-38.9	23.2	0.00e+00	63	29	0	1078984704	48	6367
2026-01-14 17:14:47.90	276.78	13.14	-37.9	-38.9	23.3	0.00e+00	0	29	0	1081081856	48	6329
2026-01-14 17:14:48.91	276.65	13.07	-38.2	-39.1	23.1	0.00e+00	0	29	0	1082130432	48	6505
2026-01-14 17:14:49.92	276.51	12.99	-38.2	-39.2	23.0	0.00e+00	63	29	0	1084227584	48	6544
2026-01-14 17:14:50.93	276.38	12.92	-38.2	-39.2	23.0	0.00e+00	90	29	0	1086324736	48	6579
2026-01-14 17:14:51.94	276.25	12.84	-38.2	-39.1	23.0	0.00e+00	61	29	0	1088421888	48	6510
2026-01-14 17:14:52.95	276.12	12.77	-38.2	-39.2	23.0	0.00e+00	92	29	0	1090519040	48	6573
2026-01-14 17:14:53.96	275.99	12.70	-38.2	-39.1	23.1	0.00e+00	57	29	0	1091567616	48	6504
2026-01-14 17:14:54.97	275.86	12.62	-38.2	-39.1	22.9	0.00e+00	24	29	0	1093664768	48	6533
2026-01-14 17:14:55.98	275.73	12.55	-38.3	-39.2	22.9	0.00e+00	35	29	0	1095761920	48	6596
2026-01-14 17:14:56.99	275.60	12.47	-38.3	-39.3	22.9	0.00e+00	25	29	0	1097859072	48	6632
2026-01-14 17:14:58.00	275.47	12.40	-38.3	-39.3	22.9	0.00e+00	90	29	0	1099956224	48	6653
2026-01-14 17:14:59.01	275.34	12.33	-38.4	-39.3	22.8	0.00e+00	0	29	0	1101004800	48	6685
2026-01-14 17:15:00.02	275.21	12.25	-38.5	-39.5	22.7	0.00e+00	91	29	0	1103101952	48	6789
2026-01-14 17:15:01.03	275.09	12.18	-38.6	-39.6	22.7	0.00e+00	23	29	0	1105199104	48	6895
2026-01-14 17:15:02.04	274.96	12.11	-38.4	-39.4	22.8	0.00e+00	20	29	0	1107296256	48	6749
2026-01-14 17:15:03.05	274.84	12.03	-38.4	-39.4	22.7	0.00e+00	0	29	0	1109393408	48	6747
2026-01-14 17:15:04.05	274.71	11.96	-38.3	-39.2	22.9	0.00e+00	2	29	0	1111490560	48	6611
2026-01-14 17:15:05.06	274.59	11.89	-38.4	-39.4	22.8	0.00e+00	92	29	0	1112539136	48	6696
2026-01-14 17:15:06.07	274.47	11.82	-38.3	-39.3	22.9	0.00e+00	0	29	0	1114636288	48	6658
2026-01-14 17:15:07.08	274.35	11.74	-38.4	-39.4	22.8	0.00e+00	92	29	0	1116733440	48	6723
2026-01-14 17:15:08.09	274.22	11.67	-38.4	-39.3	22.8	0.00e+00	0	29	0	1118830592	48	6673
2026-01-14 17:15:09.10	274.10	11.60	-38.5	-39.5	22.6	0.00e+00	34	29	0	1120927744	48	6837
2026-01-14 17:15:10.10	273.98	11.53	-38.6	-39.6	22.5	0.00e+00	0	29	0	1121976320	48	6908
2026-01-14 17:15:11.11	273.86	11.45	-38.7	-39.7	22.4	0.00e+00	63	29	0	1124073472	48	6992
2026-01-14 17:15:12.12	273.74	11.38	-38.8	-39.9	22.3	0.00e+00	0	29	0	1126170624	50	6328
2026-01-14 17:15:13.13	273.62	11.31	-38.9	-40.0	22.1	0.00e+00	0	29	0	1128267776	50	6419
2026-01-14 17:15:14.14	273.51	11.24	-38.9	-40.0	22.2	0.00e+00	92	29	0	1129316352	50	6410
2026-01-14 17:15:15.15	273.39	11.17	-38.9	-40.0	22.1	0.00e+00	0	29	0	1131413504	50	6422
2026-01-14 17:15:16.16	273.27	11.09	-39.1	-40.1	22.1	0.00e+00	86	29	0	1133510656	50	6520
2026-01-14 17:15:17.17	273.16	11.02	-38.9	-40.0	22.2	0.00e+00	19	29	0	1135607808	50	6412
2026-01-14 17:15:18.18	273.04	10.95	-39.1	-40.1	22.1	0.00e+00	62	29	0	1137704960	50	6535
2026-01-14 17:15:19.18	272.93	10.88	-39.0	-40.0	22.2	0.00e+00	29	29	0	1139802112	50	6436
2026-01-14 17:15:20.20	272.81	10.81	-38.8	-39.9	22.3	0.00e+00	0	29	0	1140850688	50	6326
2026-01-14 17:15:21.21	272.70	10.73	-38.9	-40.0	22.2	0.00e+00	92	29	0	1142947840	50	6393
2026-01-14 17:15:22.21	272.58	10.66	-38.8	-39.8	22.3	0.00e+00	0	29	0	1145044992	50	6294
2026-01-14 17:15:23.22	272.47	10.59	-38.9	-40.0	22.1	0.00e+00	2	29	0	1147142144	50	6419
2026-01-14 17:15:24.23	272.36	10.52	-39.0	-40.1	22.0	0.00e+00	2	29	0	1149239296	50	6499
2026-01-14 17:15:25.24	272.25	10.45	-38.9	-39.9	22.2	0.00e+00	0	29	0	1150287872	50	6372
2026-01-14 17:15:26.25	272.13	10.38	-38.9	-39.9	22.2	0.00e+00	0	29	0	1152385024	50	6383
2026-01-14 17:15:27.26	272.02	10.31	-38.9	-39.9	22.2	0.00e+00	0	29	0	1154482176	50	6371
2026-01-14 17:15:28.26	271.91	10.24	-39.0	-40.0	22.1	0.00e+00	92	29	0	1156579328	50	6445
2026-01-14 17:15:29.28	271.80	10.17	-39.1	-40.1	22.0	0.00e+00	2	29	0	1158676480	50	6530
2026-01-14 17:15:30.28	271.70	10.10	-39.1	-40.1	22.0	0.00e+00	92	29	0	1159725056	50	6528
2026-01-14 17:15:31.30	271.59	10.03	-39.3	-40.4	21.7	0.00e+00	2	29	0	1161822208	50	6700
2026-01-14 17:15:32.31	271.48	9.96	-39.3	-40.4	21.8	0.00e+00	60	29	0	1163919360	50	6707
2026-01-14 17:15:33.31	271.37	9.89	-39.4	-40.5	21.6	0.00e+00	59	28	0	1166016512	50	6783
2026-01-14 17:15:34.32	271.26	9.82	-39.3	-40.4	21.6	0.00e+00	60	29	0	1168113664	50	6721
2026-01-14 17:15:35.33	271.16	9.75	-39.4	-40.6	21.6	0.00e+00	0	29	0	1169162240	50	6849
2026-01-14 17:15:36.34	271.05	9.68	-39.5	-40.6	21.6	0.00e+00	0	29	0	1171259392	50	6867
2026-01-14 17:15:37.35	270.95	9.61	-39.7	-40.8	21.3	0.00e+00	92	29	0	1173356544	50	7057
2026-01-14 17:15:38.36	270.84	9.54	-39.6	-40.8	21.3	0.00e+00	0	28	0	1175453696	50	7042
2026-01-14 17:15:39.37	270.74	9.47	-39.7	-40.9	21.3	0.00e+00	2	29	0	1177550848	52	6358
2026-01-14 17:15:40.38	270.63	9.40	-39.8	-41.0	21.1	0.00e+00	22	29	0	1178599424	52	6433
2026-01-14 17:15:41.39	270.53	9.33	-39.9	-41.1	21.0	0.00e+00	21	29	0	1180696576	52	6479
2026-01-14 17:15:42.40	270.43	9.26	-40.0	-41.1	21.0	0.00e+00	23	29	0	1182793728	52	6529
2026-01-14 17:15:43.41	270.32	9.19	-39.8	-41.0	21.2	0.00e+00	6	29	0	1184890880	52	6434
2026-01-14 17:15:44.42	270.22	9.12	-39.8	-41.0	21.1	0.00e+00	92	29	0	1186988032	52	6432
2026-01-14 17:15:45.42	270.12	9.05	-39.9	-41.0	21.1	0.00e+00	23	28	0	1188036608	52	6447
2026-01-14 17:15:46.44	270.02	8.98	-40.0	-41.2	21.0	0.00e+00	92	29	0	1190133760	52	6547
2026-01-14 17:15:47.45	269.92	8.91	-40.1	-41.4	20.8	0.00e+00	5	29	0	1192230912	52	6704
2026-01-14 17:15:48.45	269.82	8.84	-40.2	-41.4	20.7	0.00e+00	0	28	0	1194328064	52	6723
