passes_logs/2026/01/14/R4.6S_Anadyr/R4.6S_Anadyr__20260114_202206_NOAA_20_JPSS-1_rec.log

#Pass ID: 20260114_202206_NOAA 20 (JPSS-1)
#Satellite: NOAA 20 (JPSS-1)
#Configuration: NOAA 20
#almurnet v.1.7.20251203
#Start time: 2026-01-14 20:22:07

#Version: 2.2.20231116
#Station: R4.6S_Anadyr
#Location: 177.4865 lon 64.73178 lat
#TLE: 1 43013U 17073A   26013.84982170  .00000053  00000+0  46215-4 0  9999
#TLE: 2 43013  98.7633 314.8013 0001544  40.9009 319.2282 14.19535753422575

#Time	Az	El	Level	Level2	SNR	BER	BlckErr	Temp	State	Recorded	gain1	gain2
2026-01-14 20:22:07.34	68.76	0.06	-48.8	-63.7	3.5	1.51e+00	0	26	0	0	60	55270
2026-01-14 20:22:08.34	68.69	0.11	-48.7	-64.0	3.6	1.51e+00	0	27	104	0	60	57136
2026-01-14 20:22:09.35	68.62	0.16	-48.8	-64.0	3.6	1.51e+00	0	28	104	0	60	57245
2026-01-14 20:22:10.36	68.54	0.21	-48.8	-64.0	3.6	1.51e+00	0	28	104	0	60	57306
2026-01-14 20:22:11.37	68.47	0.26	-48.8	-64.0	3.6	1.51e+00	0	28	104	0	60	57518
2026-01-14 20:22:12.38	68.40	0.31	-48.8	-64.0	3.6	1.51e+00	0	28	104	0	60	57116
2026-01-14 20:22:13.39	68.32	0.36	-48.8	-64.0	3.6	1.51e+00	0	28	104	0	60	57276
2026-01-14 20:22:14.40	68.25	0.41	-48.8	-64.0	3.6	1.51e+00	0	28	104	0	60	57320
2026-01-14 20:22:15.41	68.17	0.46	-48.8	-64.0	3.6	1.51e+00	0	28	104	0	60	57043
2026-01-14 20:22:16.42	68.10	0.51	-48.8	-64.0	3.6	1.51e+00	0	28	104	0	60	57234
2026-01-14 20:22:17.43	68.02	0.56	-48.8	-64.0	3.6	1.51e+00	0	28	104	0	60	57034
2026-01-14 20:22:18.44	67.94	0.61	-48.7	-64.0	3.6	1.51e+00	0	28	104	0	60	57261
2026-01-14 20:22:19.45	67.87	0.66	-48.6	-63.8	3.6	1.51e+00	0	28	104	0	60	56291
2026-01-14 20:22:20.46	67.79	0.71	-48.5	-63.7	3.6	1.51e+00	0	28	104	0	60	55392
2026-01-14 20:22:21.47	67.71	0.76	-48.3	-63.5	3.6	1.51e+00	0	28	104	0	60	54279
2026-01-14 20:22:22.48	67.64	0.81	-48.1	-63.3	3.6	1.51e+00	0	28	104	0	60	52751
2026-01-14 20:22:23.49	67.56	0.86	-47.6	-62.7	3.6	1.51e+00	0	28	104	0	60	49321
2026-01-14 20:22:24.50	67.48	0.91	-47.1	-62.3	3.6	1.51e+00	0	28	104	0	60	47003
2026-01-14 20:22:25.51	67.40	0.96	-47.1	-62.3	3.6	1.51e+00	0	28	104	0	60	46946
2026-01-14 20:22:26.52	67.33	1.02	-47.1	-62.2	3.6	1.51e+00	0	28	104	0	60	46591
2026-01-14 20:22:27.53	67.25	1.07	-47.1	-62.2	3.6	1.51e+00	0	28	104	0	60	46813
2026-01-14 20:22:28.54	67.17	1.12	-47.1	-62.2	3.6	1.51e+00	0	28	104	0	60	46797
2026-01-14 20:22:29.55	67.09	1.17	-47.1	-62.2	3.6	1.51e+00	0	28	104	0	60	46747
2026-01-14 20:22:30.56	67.01	1.22	-47.1	-62.2	3.6	1.51e+00	0	28	104	0	60	46753
2026-01-14 20:22:31.57	66.93	1.27	-47.1	-62.2	3.6	1.51e+00	0	28	104	0	60	46724
2026-01-14 20:22:32.58	66.85	1.32	-47.1	-62.2	3.6	1.51e+00	0	28	104	0	60	46812
2026-01-14 20:22:33.59	66.77	1.37	-47.1	-62.2	3.6	1.51e+00	0	28	104	0	60	46419
2026-01-14 20:22:34.60	66.69	1.42	-47.1	-62.2	3.6	1.51e+00	0	28	104	0	60	46554
2026-01-14 20:22:35.60	66.61	1.47	-47.1	-62.2	3.6	1.51e+00	0	28	104	0	60	46639
2026-01-14 20:22:36.62	66.53	1.52	-47.0	-62.2	3.6	1.51e+00	0	28	104	0	60	46494
2026-01-14 20:22:37.63	66.45	1.57	-47.1	-62.1	3.6	1.51e+00	0	28	104	0	60	46181
2026-01-14 20:22:38.63	66.37	1.63	-47.1	-62.1	3.6	1.51e+00	0	28	104	0	60	46294
2026-01-14 20:22:39.65	66.29	1.68	-47.1	-62.2	3.6	1.51e+00	0	28	104	0	60	46567
2026-01-14 20:22:40.65	66.20	1.73	-47.1	-62.2	3.6	1.51e+00	0	28	104	0	60	46539
2026-01-14 20:22:41.67	66.12	1.78	-47.1	-62.2	3.6	1.51e+00	0	28	104	0	60	46763
2026-01-14 20:22:42.67	66.04	1.83	-47.0	-62.2	3.6	1.51e+00	0	28	104	0	60	46348
2026-01-14 20:22:43.68	65.96	1.88	-47.0	-62.1	3.6	1.51e+00	0	28	104	0	60	46170
2026-01-14 20:22:44.70	65.87	1.93	-47.0	-62.1	3.6	1.51e+00	0	28	104	0	60	45792
2026-01-14 20:22:45.71	65.79	1.98	-47.0	-62.0	3.6	1.51e+00	0	28	104	0	60	45317
2026-01-14 20:22:46.72	65.70	2.04	-47.0	-61.9	3.6	1.51e+00	0	28	104	0	60	44755
2026-01-14 20:22:47.72	65.62	2.09	-47.0	-61.7	3.6	1.51e+00	0	28	104	0	60	44160
2026-01-14 20:22:48.73	65.54	2.14	-47.0	-61.8	3.6	1.51e+00	0	28	104	0	60	44564
2026-01-14 20:22:49.74	65.45	2.19	-47.0	-61.9	3.6	1.51e+00	0	28	104	0	60	44783
2026-01-14 20:22:50.75	65.37	2.24	-47.0	-62.1	3.6	1.51e+00	0	28	104	0	60	46216
2026-01-14 20:22:51.76	65.28	2.29	-47.0	-62.2	3.6	1.51e+00	0	28	104	0	60	46391
2026-01-14 20:22:52.77	65.20	2.34	-47.0	-62.2	3.6	1.51e+00	0	28	104	0	60	46353
2026-01-14 20:22:53.78	65.11	2.40	-47.0	-62.1	3.6	1.51e+00	0	28	104	0	60	46173
2026-01-14 20:22:54.79	65.02	2.45	-47.0	-62.1	3.6	1.51e+00	0	28	104	0	60	46227
2026-01-14 20:22:55.80	64.94	2.50	-47.0	-62.2	3.6	1.51e+00	0	28	104	0	60	46513
2026-01-14 20:22:56.81	64.85	2.55	-47.0	-62.1	3.6	1.51e+00	0	28	104	0	60	46017
2026-01-14 20:22:57.82	64.76	2.60	-47.0	-61.6	3.6	1.51e+00	0	28	104	0	60	43363
2026-01-14 20:22:58.83	64.67	2.65	-47.0	-61.2	3.6	1.51e+00	0	28	104	0	60	41393
2026-01-14 20:22:59.84	64.59	2.71	-47.0	-61.3	3.6	1.51e+00	0	28	104	0	60	42016
2026-01-14 20:23:00.85	64.50	2.76	-47.0	-61.9	3.6	1.51e+00	0	28	104	0	60	44911
2026-01-14 20:23:01.86	64.41	2.81	-47.0	-61.1	3.6	1.51e+00	0	28	104	0	60	40984
2026-01-14 20:23:02.87	64.32	2.86	-46.8	-57.8	4.3	1.50e+00	92	28	104	0	60	28204
2026-01-14 20:23:03.88	64.23	2.91	-46.5	-54.0	6.3	3.62e-01	91	28	0	1048576	60	18175
2026-01-14 20:23:04.89	64.14	2.97	-45.9	-51.7	9.2	5.99e-02	92	28	0	3145728	60	13860
2026-01-14 20:23:05.90	64.05	3.02	-45.3	-50.0	11.1	7.11e-03	91	28	0	4194304	60	11406
2026-01-14 20:23:06.91	63.96	3.07	-46.0	-52.0	7.6	2.48e-03	8	28	0	6291456	60	14369
2026-01-14 20:23:07.92	63.87	3.12	-45.4	-49.6	11.7	5.51e-01	91	28	0	7340032	60	10916
2026-01-14 20:23:08.93	63.78	3.17	-46.8	-57.5	3.6	0.00e+00	23	28	0	9437184	60	27138
2026-01-14 20:23:09.94	63.69	3.23	-47.0	-59.9	3.6	1.51e+00	0	28	104	9437184	60	35567
2026-01-14 20:23:10.95	63.60	3.28	-44.7	-48.6	12.5	2.44e-01	0	28	0	9437184	60	9691
2026-01-14 20:23:11.96	63.51	3.33	-45.4	-50.0	10.8	1.24e-02	92	28	0	11534336	60	11487
2026-01-14 20:23:12.97	63.41	3.38	-45.4	-50.1	11.0	1.64e-03	73	28	0	12582912	60	11529
2026-01-14 20:23:13.97	63.32	3.43	-44.4	-47.8	13.7	4.04e-05	90	28	0	14680064	60	8836
2026-01-14 20:23:14.98	63.23	3.49	-43.6	-46.4	15.3	0.00e+00	92	28	0	16777216	60	7523
2026-01-14 20:23:15.99	63.14	3.54	-43.5	-46.2	15.3	0.00e+00	4	28	0	18874368	60	7374
2026-01-14 20:23:17.00	63.04	3.59	-42.5	-44.7	16.8	0.00e+00	92	28	0	20971520	58	7001
2026-01-14 20:23:18.01	62.95	3.64	-42.1	-44.1	17.3	0.00e+00	71	28	0	22020096	58	6518
2026-01-14 20:23:19.02	62.85	3.70	-42.3	-44.4	17.2	7.00e-07	92	28	0	24117248	58	6719
2026-01-14 20:23:20.02	62.76	3.75	-42.9	-45.2	16.4	0.00e+00	0	28	0	26214400	58	7358
2026-01-14 20:23:21.03	62.67	3.80	-42.2	-44.2	17.4	0.00e+00	91	29	0	28311552	58	6545
2026-01-14 20:23:22.04	62.57	3.85	-42.2	-44.2	17.2	0.00e+00	87	28	0	29360128	58	6597
2026-01-14 20:23:23.05	62.47	3.91	-42.4	-44.5	17.0	0.00e+00	82	28	0	31457280	58	6772
2026-01-14 20:23:24.06	62.38	3.96	-42.5	-44.5	17.0	0.00e+00	92	28	0	33554432	58	6845
2026-01-14 20:23:25.07	62.28	4.01	-42.5	-44.6	16.9	0.00e+00	72	28	0	35651584	58	6859
2026-01-14 20:23:26.08	62.18	4.06	-42.3	-44.3	17.1	0.00e+00	90	28	0	37748736	58	6687
2026-01-14 20:23:27.09	62.09	4.12	-42.2	-44.2	17.3	0.00e+00	72	28	0	39845888	58	6557
2026-01-14 20:23:28.10	61.99	4.17	-42.4	-44.5	17.0	0.00e+00	92	28	0	40894464	58	6814
2026-01-14 20:23:29.11	61.89	4.22	-42.7	-44.9	16.9	0.00e+00	92	29	0	42991616	58	7122
2026-01-14 20:23:30.12	61.79	4.27	-42.4	-44.4	17.0	0.00e+00	92	28	0	45088768	58	6765
2026-01-14 20:23:31.13	61.70	4.33	-42.5	-44.5	17.0	0.00e+00	90	28	0	47185920	58	6847
2026-01-14 20:23:32.14	61.60	4.38	-42.3	-44.3	17.2	0.00e+00	0	28	0	49283072	58	6616
2026-01-14 20:23:33.14	61.50	4.43	-42.1	-44.1	17.5	0.00e+00	92	28	0	50331648	58	6491
2026-01-14 20:23:34.16	61.40	4.48	-42.5	-44.6	16.9	0.00e+00	7	29	0	52428800	58	6871
2026-01-14 20:23:35.17	61.30	4.54	-42.4	-44.5	17.0	0.00e+00	92	28	0	54525952	58	6777
2026-01-14 20:23:36.17	61.20	4.59	-42.0	-43.9	17.7	0.00e+00	0	28	0	56623104	58	6361
2026-01-14 20:23:37.18	61.10	4.64	-42.1	-44.0	17.6	0.00e+00	90	29	0	58720256	58	6444
2026-01-14 20:23:38.19	61.00	4.69	-42.0	-43.8	17.8	0.00e+00	91	28	0	59768832	58	6301
2026-01-14 20:23:39.20	60.89	4.75	-42.2	-44.1	17.5	0.00e+00	0	28	0	61865984	58	6528
2026-01-14 20:23:40.21	60.79	4.80	-42.1	-44.0	17.6	0.00e+00	92	28	0	63963136	58	6448
2026-01-14 20:23:41.22	60.69	4.85	-41.8	-43.6	18.1	0.00e+00	5	28	0	66060288	58	6119
2026-01-14 20:23:42.23	60.59	4.91	-41.9	-43.7	18.0	0.00e+00	91	28	0	68157440	56	6975
2026-01-14 20:23:43.24	60.49	4.96	-41.9	-43.7	18.0	0.00e+00	8	29	0	69206016	56	6940
2026-01-14 20:23:44.25	60.38	5.01	-41.8	-43.6	18.1	0.00e+00	90	29	0	71303168	56	6873
2026-01-14 20:23:45.26	60.28	5.07	-41.8	-43.6	18.1	0.00e+00	91	29	0	73400320	56	6908
2026-01-14 20:23:46.27	60.17	5.12	-41.8	-43.5	18.2	0.00e+00	6	28	0	75497472	56	6820
2026-01-14 20:23:47.27	60.07	5.17	-41.8	-43.5	18.2	0.00e+00	91	29	0	77594624	56	6841
2026-01-14 20:23:48.28	59.97	5.22	-41.6	-43.3	18.4	0.00e+00	83	28	0	78643200	56	6655
2026-01-14 20:23:49.29	59.86	5.28	-41.7	-43.5	18.2	0.00e+00	92	29	0	80740352	56	6779
2026-01-14 20:23:50.30	59.75	5.33	-41.6	-43.3	18.5	0.00e+00	0	29	0	82837504	56	6660
2026-01-14 20:23:51.31	59.65	5.38	-41.6	-43.3	18.4	0.00e+00	91	29	0	84934656	56	6664
2026-01-14 20:23:52.32	59.54	5.44	-41.8	-43.5	18.3	0.00e+00	92	28	0	87031808	56	6797
2026-01-14 20:23:53.33	59.43	5.49	-41.6	-43.3	18.4	0.00e+00	92	28	0	88080384	56	6681
2026-01-14 20:23:54.34	59.33	5.54	-41.5	-43.2	18.6	0.00e+00	92	28	0	90177536	56	6567
2026-01-14 20:23:55.35	59.22	5.60	-41.6	-43.3	18.5	0.00e+00	0	28	0	92274688	56	6616
2026-01-14 20:23:56.35	59.11	5.65	-41.4	-43.0	18.8	0.00e+00	92	28	0	94371840	56	6393
2026-01-14 20:23:57.36	59.00	5.70	-41.2	-42.8	18.9	0.00e+00	2	29	0	96468992	56	6301
2026-01-14 20:23:58.37	58.89	5.75	-41.4	-43.0	18.9	0.00e+00	92	29	0	97517568	56	6408
2026-01-14 20:23:59.38	58.78	5.81	-41.2	-42.8	19.1	0.00e+00	0	29	0	99614720	56	6263
2026-01-14 20:24:00.39	58.68	5.86	-41.2	-42.7	19.0	0.00e+00	92	28	0	101711872	56	6236
2026-01-14 20:24:01.39	58.57	5.91	-41.4	-43.0	18.9	0.00e+00	90	29	0	103809024	56	6399
2026-01-14 20:24:02.40	58.46	5.97	-41.3	-42.9	18.9	0.00e+00	2	29	0	105906176	56	6330
2026-01-14 20:24:03.41	58.34	6.02	-41.3	-42.9	18.9	0.00e+00	92	29	0	108003328	56	6368
2026-01-14 20:24:04.42	58.23	6.07	-41.4	-42.9	18.6	0.00e+00	69	29	0	109051904	56	6384
2026-01-14 20:24:05.43	58.12	6.13	-41.3	-42.9	19.0	0.00e+00	92	29	0	111149056	56	6319
2026-01-14 20:24:06.44	58.01	6.18	-41.3	-42.8	18.8	0.00e+00	79	29	0	113246208	56	6302
2026-01-14 20:24:07.44	57.90	6.23	-41.2	-42.7	19.1	0.00e+00	92	29	0	115343360	56	6230
2026-01-14 20:24:08.45	57.78	6.29	-41.1	-42.6	19.2	0.00e+00	92	29	0	117440512	56	6170
2026-01-14 20:24:09.47	57.67	6.34	-41.1	-42.6	19.2	0.00e+00	70	29	0	118489088	56	6140
2026-01-14 20:24:10.48	57.56	6.39	-41.2	-42.8	19.0	0.00e+00	92	29	0	120586240	56	6259
2026-01-14 20:24:11.49	57.44	6.45	-41.3	-42.9	19.1	0.00e+00	0	29	0	122683392	56	6319
2026-01-14 20:24:12.49	57.33	6.50	-41.1	-42.6	19.3	0.00e+00	92	29	0	124780544	56	6145
2026-01-14 20:24:13.50	57.21	6.55	-41.0	-42.4	19.5	0.00e+00	0	29	0	126877696	56	6027
2026-01-14 20:24:14.52	57.10	6.61	-40.9	-42.3	19.4	0.00e+00	92	29	0	127926272	56	5935
2026-01-14 20:24:15.52	56.98	6.66	-41.1	-42.6	19.3	0.00e+00	73	29	0	130023424	56	6132
2026-01-14 20:24:16.53	56.86	6.71	-40.9	-42.3	19.5	0.00e+00	0	29	0	132120576	56	5929
2026-01-14 20:24:17.54	56.75	6.76	-40.6	-42.0	19.8	0.00e+00	91	29	0	134217728	54	6452
2026-01-14 20:24:18.55	56.63	6.82	-40.6	-42.0	19.8	0.00e+00	2	29	0	136314880	54	6412
2026-01-14 20:24:19.56	56.51	6.87	-40.6	-42.0	19.8	0.00e+00	92	29	0	137363456	54	6395
2026-01-14 20:24:20.57	56.39	6.92	-40.6	-42.0	19.8	0.00e+00	10	29	0	139460608	54	6406
2026-01-14 20:24:21.58	56.27	6.98	-40.6	-41.9	19.9	0.00e+00	92	29	0	141557760	54	6376
2026-01-14 20:24:22.59	56.15	7.03	-40.6	-42.0	19.8	0.00e+00	10	29	0	143654912	54	6430
2026-01-14 20:24:23.60	56.04	7.08	-40.7	-42.1	19.8	0.00e+00	10	29	0	145752064	54	6495
2026-01-14 20:24:24.61	55.91	7.14	-40.5	-41.9	19.9	0.00e+00	91	29	0	146800640	54	6368
2026-01-14 20:24:25.62	55.79	7.19	-40.6	-42.0	19.8	0.00e+00	72	29	0	148897792	54	6456
2026-01-14 20:24:26.62	55.67	7.24	-40.7	-42.1	19.7	0.00e+00	91	29	0	150994944	54	6529
2026-01-14 20:24:27.63	55.55	7.30	-40.8	-42.2	19.7	0.00e+00	0	29	0	153092096	54	6591
2026-01-14 20:24:28.64	55.43	7.35	-40.7	-42.1	19.8	0.00e+00	90	29	0	155189248	54	6528
2026-01-14 20:24:29.65	55.31	7.40	-40.7	-42.1	19.8	0.00e+00	0	29	0	156237824	54	6493
2026-01-14 20:24:30.66	55.19	7.45	-40.7	-42.1	19.7	0.00e+00	92	29	0	158334976	54	6527
2026-01-14 20:24:31.67	55.06	7.51	-40.8	-42.2	19.7	0.00e+00	92	29	0	160432128	54	6598
2026-01-14 20:24:32.68	54.94	7.56	-40.7	-42.2	19.8	0.00e+00	68	29	0	162529280	54	6549
2026-01-14 20:24:33.69	54.81	7.61	-40.7	-42.2	19.8	0.00e+00	91	29	0	164626432	54	6545
2026-01-14 20:24:34.70	54.69	7.67	-40.6	-42.0	19.9	0.00e+00	7	29	0	165675008	54	6440
2026-01-14 20:24:35.71	54.56	7.72	-40.5	-41.9	20.1	0.00e+00	92	29	0	167772160	54	6324
2026-01-14 20:24:36.72	54.44	7.77	-40.6	-41.9	20.0	0.00e+00	0	29	0	169869312	54	6384
2026-01-14 20:24:37.73	54.31	7.83	-40.7	-42.1	19.9	0.00e+00	72	29	0	171966464	54	6466
2026-01-14 20:24:38.74	54.19	7.88	-40.7	-42.1	19.7	0.00e+00	76	29	0	174063616	54	6507
2026-01-14 20:24:39.75	54.06	7.93	-40.8	-42.2	19.7	0.00e+00	6	29	0	175112192	54	6610
2026-01-14 20:24:40.76	53.93	7.98	-40.5	-41.8	20.1	0.00e+00	92	29	0	177209344	54	6303
2026-01-14 20:24:41.77	53.80	8.04	-40.6	-41.9	20.0	0.00e+00	4	29	0	179306496	54	6375
2026-01-14 20:24:42.78	53.68	8.09	-40.5	-41.9	20.1	0.00e+00	92	29	0	181403648	54	6327
2026-01-14 20:24:43.79	53.55	8.14	-40.4	-41.8	20.1	0.00e+00	5	29	0	183500800	54	6274
2026-01-14 20:24:44.80	53.42	8.20	-40.5	-41.9	20.1	0.00e+00	92	29	0	184549376	54	6321
2026-01-14 20:24:45.80	53.29	8.25	-40.5	-41.8	20.0	0.00e+00	0	29	0	186646528	54	6298
2026-01-14 20:24:46.81	53.16	8.30	-40.4	-41.8	20.2	0.00e+00	75	29	0	188743680	54	6265
2026-01-14 20:24:47.82	53.03	8.35	-40.4	-41.7	20.2	0.00e+00	92	29	0	190840832	54	6244
2026-01-14 20:24:48.83	52.90	8.41	-40.5	-41.8	20.2	0.00e+00	10	29	0	192937984	54	6274
2026-01-14 20:24:49.84	52.76	8.46	-40.4	-41.7	20.3	0.00e+00	92	29	0	193986560	54	6226
2026-01-14 20:24:50.85	52.63	8.51	-40.5	-41.8	20.2	0.00e+00	0	29	0	196083712	54	6290
2026-01-14 20:24:51.86	52.50	8.56	-40.4	-41.7	20.2	0.00e+00	92	29	0	198180864	54	6243
2026-01-14 20:24:52.87	52.37	8.62	-40.4	-41.7	20.2	0.00e+00	0	29	0	200278016	54	6232
2026-01-14 20:24:53.88	52.23	8.67	-40.4	-41.7	20.3	0.00e+00	92	29	0	202375168	54	6209
2026-01-14 20:24:54.89	52.10	8.72	-40.3	-41.6	20.3	7.00e-07	92	29	0	204472320	54	6161
2026-01-14 20:24:55.90	51.96	8.77	-40.4	-41.7	20.3	0.00e+00	0	29	0	205520896	54	6200
2026-01-14 20:24:56.91	51.83	8.83	-40.4	-41.8	20.1	0.00e+00	92	29	0	207618048	54	6272
2026-01-14 20:24:57.92	51.69	8.88	-40.4	-41.7	20.3	7.00e-07	8	29	0	209715200	54	6234
2026-01-14 20:24:58.93	51.56	8.93	-40.3	-41.6	20.3	0.00e+00	92	29	0	211812352	54	6163
2026-01-14 20:24:59.94	51.42	8.98	-40.4	-41.7	20.3	0.00e+00	0	29	0	213909504	54	6223
2026-01-14 20:25:00.95	51.28	9.04	-40.3	-41.6	20.3	0.00e+00	92	29	0	214958080	54	6142
2026-01-14 20:25:01.95	51.15	9.09	-40.4	-41.7	20.4	0.00e+00	92	29	0	217055232	54	6191
2026-01-14 20:25:02.97	51.01	9.14	-40.3	-41.6	20.4	0.00e+00	6	29	0	219152384	54	6152
2026-01-14 20:25:03.97	50.87	9.19	-40.2	-41.5	20.5	0.00e+00	91	29	0	221249536	54	6081
2026-01-14 20:25:04.98	50.73	9.24	-40.1	-41.4	20.6	0.00e+00	13	29	0	223346688	54	5972
2026-01-14 20:25:05.99	50.59	9.30	-40.1	-41.4	20.6	0.00e+00	91	29	0	224395264	54	5985
2026-01-14 20:25:07.00	50.45	9.35	-40.1	-41.3	20.7	0.00e+00	12	29	0	226492416	54	5962
2026-01-14 20:25:08.01	50.31	9.40	-40.0	-41.3	20.7	0.00e+00	69	29	0	228589568	54	5926
2026-01-14 20:25:09.02	50.17	9.45	-40.0	-41.3	20.7	0.00e+00	0	29	0	230686720	54	5920
2026-01-14 20:25:10.03	50.03	9.50	-40.1	-41.4	20.7	0.00e+00	13	29	0	232783872	54	5978
2026-01-14 20:25:11.04	49.88	9.55	-40.1	-41.4	20.7	0.00e+00	92	29	0	233832448	54	5992
2026-01-14 20:25:12.05	49.74	9.61	-40.1	-41.3	20.7	0.00e+00	67	29	0	235929600	54	5945
2026-01-14 20:25:13.06	49.60	9.66	-40.1	-41.3	20.7	0.00e+00	90	29	0	238026752	54	5941
2026-01-14 20:25:14.07	49.45	9.71	-40.1	-41.3	20.7	0.00e+00	69	29	0	240123904	54	5933
2026-01-14 20:25:15.08	49.31	9.76	-40.1	-41.4	20.6	0.00e+00	90	29	0	242221056	54	5985
2026-01-14 20:25:16.09	49.16	9.81	-40.2	-41.5	20.5	0.00e+00	69	29	0	243269632	54	6049
2026-01-14 20:25:17.09	49.02	9.86	-40.2	-41.4	20.6	0.00e+00	44	29	0	245366784	54	6011
2026-01-14 20:25:18.10	48.87	9.91	-40.1	-41.4	20.7	0.00e+00	92	29	0	247463936	54	5974
2026-01-14 20:25:19.11	48.73	9.96	-40.2	-41.5	20.5	0.00e+00	0	29	0	249561088	54	6079
2026-01-14 20:25:20.12	48.58	10.01	-40.3	-41.6	20.5	0.00e+00	92	29	0	251658240	54	6133
2026-01-14 20:25:21.13	48.43	10.07	-40.2	-41.5	20.6	0.00e+00	0	29	0	252706816	54	6037
2026-01-14 20:25:22.14	48.29	10.12	-40.1	-41.4	20.7	0.00e+00	90	29	0	254803968	54	5971
2026-01-14 20:25:23.15	48.14	10.17	-40.2	-41.5	20.6	0.00e+00	4	29	0	256901120	54	6034
2026-01-14 20:25:24.16	47.99	10.22	-40.1	-41.4	20.7	0.00e+00	41	29	0	258998272	54	5980
2026-01-14 20:25:25.17	47.84	10.27	-40.2	-41.5	20.6	0.00e+00	48	29	0	261095424	54	6088
2026-01-14 20:25:26.18	47.69	10.32	-39.8	-41.0	21.1	0.00e+00	0	29	0	262144000	54	5697
2026-01-14 20:25:27.19	47.54	10.37	-39.9	-41.2	21.0	0.00e+00	92	29	0	264241152	54	5830
2026-01-14 20:25:28.20	47.39	10.42	-39.8	-41.1	21.0	0.00e+00	68	29	0	266338304	54	5762
2026-01-14 20:25:29.21	47.24	10.47	-39.8	-41.0	21.0	0.00e+00	92	29	0	268435456	54	5756
2026-01-14 20:25:30.22	47.08	10.52	-39.6	-40.8	21.3	0.00e+00	12	29	0	270532608	52	6277
2026-01-14 20:25:31.23	46.93	10.57	-39.5	-40.6	21.5	0.00e+00	92	29	0	272629760	52	6150
2026-01-14 20:25:32.24	46.78	10.62	-39.4	-40.6	21.5	0.00e+00	0	29	0	273678336	52	6108
2026-01-14 20:25:33.24	46.62	10.67	-39.5	-40.6	21.4	0.00e+00	68	29	0	275775488	52	6156
2026-01-14 20:25:34.25	46.47	10.72	-39.5	-40.6	21.5	0.00e+00	92	29	0	277872640	52	6135
2026-01-14 20:25:35.26	46.32	10.77	-39.4	-40.5	21.6	0.00e+00	0	29	0	279969792	52	6064
2026-01-14 20:25:36.27	46.16	10.82	-39.2	-40.3	21.8	0.00e+00	92	29	0	282066944	52	5912
2026-01-14 20:25:37.28	46.00	10.87	-39.1	-40.2	21.7	0.00e+00	0	29	0	283115520	52	5872
2026-01-14 20:25:38.29	45.85	10.92	-39.2	-40.3	21.7	0.00e+00	92	29	0	285212672	52	5922
2026-01-14 20:25:39.30	45.69	10.97	-39.0	-40.0	22.1	0.00e+00	0	29	0	287309824	52	5738
2026-01-14 20:25:40.31	45.53	11.02	-39.0	-40.0	22.0	0.00e+00	0	29	0	289406976	52	5759
2026-01-14 20:25:41.32	45.38	11.06	-39.0	-40.0	22.0	0.00e+00	64	29	0	291504128	52	5739
2026-01-14 20:25:42.33	45.22	11.11	-38.9	-40.0	22.1	0.00e+00	0	29	0	292552704	52	5697
2026-01-14 20:25:43.34	45.06	11.16	-38.6	-39.6	22.3	0.00e+00	92	29	0	294649856	50	6161
2026-01-14 20:25:44.35	44.90	11.21	-38.7	-39.7	22.4	0.00e+00	0	29	0	296747008	50	6214
2026-01-14 20:25:45.36	44.74	11.26	-38.5	-39.5	22.4	0.00e+00	92	29	0	298844160	50	6089
2026-01-14 20:25:46.37	44.58	11.31	-38.6	-39.6	22.4	0.00e+00	0	29	0	300941312	50	6128
2026-01-14 20:25:47.38	44.42	11.36	-38.7	-39.7	22.3	0.00e+00	2	29	0	301989888	50	6220
2026-01-14 20:25:48.39	44.25	11.40	-38.7	-39.7	22.3	0.00e+00	0	29	0	304087040	50	6210
2026-01-14 20:25:49.39	44.09	11.45	-38.6	-39.6	22.4	0.00e+00	13	29	0	306184192	50	6132
2026-01-14 20:25:50.40	43.93	11.50	-38.6	-39.6	22.4	0.00e+00	92	29	0	308281344	50	6163
2026-01-14 20:25:51.41	43.77	11.55	-38.7	-39.7	22.4	0.00e+00	69	29	0	310378496	50	6197
2026-01-14 20:25:52.42	43.60	11.59	-38.9	-39.9	22.1	0.00e+00	92	29	0	311427072	50	6377
2026-01-14 20:25:53.43	43.44	11.64	-39.0	-40.1	21.9	0.00e+00	13	29	0	313524224	50	6482
2026-01-14 20:25:54.44	43.27	11.69	-39.2	-40.3	21.9	0.00e+00	91	29	0	315621376	50	6616
2026-01-14 20:25:55.45	43.11	11.74	-39.0	-40.1	21.9	0.00e+00	0	29	0	317718528	50	6519
2026-01-14 20:25:56.46	42.94	11.78	-38.5	-39.5	22.5	0.00e+00	68	29	0	319815680	50	6058
2026-01-14 20:25:57.47	42.77	11.83	-38.4	-39.4	22.6	0.00e+00	90	29	0	320864256	50	5967
2026-01-14 20:25:58.48	42.61	11.88	-38.3	-39.2	22.8	0.00e+00	0	29	0	322961408	50	5893
2026-01-14 20:25:59.49	42.44	11.92	-38.2	-39.1	22.8	0.00e+00	92	29	0	325058560	50	5823
2026-01-14 20:26:00.48	42.27	11.97	-38.2	-39.1	22.9	0.00e+00	66	29	0	327155712	50	5816
2026-01-14 20:26:01.48	42.11	12.02	-38.2	-39.2	22.8	0.00e+00	92	29	0	329252864	50	5834
2026-01-14 20:26:02.49	41.94	12.06	-38.2	-39.1	22.9	0.00e+00	0	29	0	330301440	50	5825
2026-01-14 20:26:03.50	41.77	12.11	-38.1	-39.1	22.9	0.00e+00	0	29	0	332398592	50	5771
2026-01-14 20:26:04.51	41.60	12.15	-38.1	-39.1	22.8	0.00e+00	92	29	0	334495744	50	5791
2026-01-14 20:26:05.52	41.43	12.20	-37.9	-38.9	23.1	0.00e+00	0	29	0	336592896	50	5666
2026-01-14 20:26:06.53	41.26	12.24	-38.0	-39.0	22.9	0.00e+00	92	29	0	338690048	50	5731
2026-01-14 20:26:07.54	41.08	12.29	-37.8	-38.8	23.2	0.00e+00	0	29	0	339738624	50	5585
2026-01-14 20:26:08.55	40.91	12.33	-37.9	-38.8	23.1	0.00e+00	92	29	0	341835776	50	5625
2026-01-14 20:26:09.56	40.74	12.38	-37.9	-38.9	23.1	0.00e+00	0	29	0	343932928	50	5644
2026-01-14 20:26:10.57	40.56	12.42	-37.7	-38.6	23.1	0.00e+00	2	29	0	346030080	48	6142
2026-01-14 20:26:11.58	40.39	12.47	-37.6	-38.5	23.4	0.00e+00	0	29	0	348127232	48	6103
2026-01-14 20:26:12.58	40.22	12.51	-37.8	-38.7	23.2	0.00e+00	11	29	0	349175808	48	6211
2026-01-14 20:26:13.59	40.04	12.56	-37.6	-38.5	23.4	0.00e+00	92	29	0	351272960	48	6085
2026-01-14 20:26:14.60	39.87	12.60	-37.7	-38.6	23.4	0.00e+00	11	29	0	353370112	48	6126
2026-01-14 20:26:15.61	39.69	12.64	-37.8	-38.7	23.3	0.00e+00	79	29	0	355467264	48	6223
2026-01-14 20:26:16.62	39.51	12.69	-37.9	-38.9	23.1	0.00e+00	12	29	0	357564416	48	6342
2026-01-14 20:26:17.63	39.34	12.73	-37.9	-38.9	23.1	0.00e+00	11	29	0	358612992	48	6347
2026-01-14 20:26:18.64	39.16	12.78	-37.9	-38.8	23.2	0.00e+00	0	29	0	360710144	48	6278
2026-01-14 20:26:19.65	38.98	12.82	-37.8	-38.7	23.3	0.00e+00	0	29	0	362807296	48	6226
2026-01-14 20:26:20.66	38.80	12.86	-37.9	-38.9	23.1	0.00e+00	90	29	0	364904448	48	6327
2026-01-14 20:26:21.67	38.62	12.90	-38.0	-38.9	23.1	0.00e+00	0	29	0	367001600	48	6351
2026-01-14 20:26:22.67	38.44	12.95	-38.1	-39.0	22.9	0.00e+00	92	29	0	369098752	48	6451
2026-01-14 20:26:23.68	38.26	12.99	-38.1	-39.1	23.0	0.00e+00	0	29	0	370147328	48	6488
2026-01-14 20:26:24.69	38.08	13.03	-38.1	-39.1	22.9	0.00e+00	0	29	0	372244480	48	6501
2026-01-14 20:26:25.70	37.90	13.07	-38.1	-39.1	22.9	0.00e+00	5	29	0	374341632	48	6472
2026-01-14 20:26:26.71	37.72	13.11	-38.1	-39.0	22.8	0.00e+00	0	29	0	376438784	48	6427
2026-01-14 20:26:27.72	37.53	13.16	-38.2	-39.2	22.8	0.00e+00	3	29	0	378535936	48	6563
2026-01-14 20:26:28.73	37.35	13.20	-38.3	-39.3	22.7	0.00e+00	7	29	0	379584512	48	6627
2026-01-14 20:26:29.74	37.17	13.24	-38.1	-39.1	22.9	0.00e+00	91	29	0	381681664	48	6499
2026-01-14 20:26:30.75	36.98	13.28	-38.2	-39.2	22.7	0.00e+00	0	29	0	383778816	48	6572
2026-01-14 20:26:31.76	36.80	13.32	-38.1	-39.1	22.9	0.00e+00	11	29	0	385875968	48	6491
2026-01-14 20:26:32.77	36.61	13.36	-38.3	-39.2	22.8	0.00e+00	13	29	0	387973120	48	6606
2026-01-14 20:26:33.78	36.43	13.40	-38.2	-39.2	22.8	0.00e+00	6	29	0	389021696	48	6582
2026-01-14 20:26:34.79	36.24	13.44	-38.2	-39.2	22.9	0.00e+00	14	29	0	391118848	48	6559
2026-01-14 20:26:35.79	36.06	13.48	-38.3	-39.3	22.7	0.00e+00	10	29	0	393216000	48	6664
2026-01-14 20:26:36.81	35.87	13.52	-38.2	-39.2	22.9	0.00e+00	91	29	0	395313152	48	6545
2026-01-14 20:26:37.81	35.68	13.56	-38.0	-39.0	23.1	0.00e+00	13	29	0	397410304	48	6404
2026-01-14 20:26:38.82	35.49	13.60	-38.0	-39.0	23.1	0.00e+00	92	29	0	398458880	48	6391
2026-01-14 20:26:39.83	35.31	13.63	-38.0	-39.0	23.0	0.00e+00	73	29	0	400556032	48	6418
2026-01-14 20:26:40.84	35.12	13.67	-38.0	-38.9	22.8	0.00e+00	71	29	0	402653184	48	6390
2026-01-14 20:26:41.85	34.93	13.71	-38.1	-39.0	23.0	0.00e+00	0	29	0	404750336	48	6436
2026-01-14 20:26:42.86	34.74	13.75	-38.0	-38.9	23.1	0.00e+00	0	29	0	406847488	48	6364
2026-01-14 20:26:43.87	34.55	13.79	-37.9	-38.8	23.1	0.00e+00	92	29	0	407896064	48	6298
2026-01-14 20:26:44.87	34.36	13.82	-37.9	-38.8	23.2	0.00e+00	72	29	0	409993216	48	6307
2026-01-14 20:26:45.88	34.16	13.86	-37.9	-38.9	23.2	0.00e+00	90	29	0	412090368	48	6337
2026-01-14 20:26:46.89	33.97	13.90	-38.1	-39.0	23.0	0.00e+00	0	29	0	414187520	48	6457
2026-01-14 20:26:47.90	33.78	13.93	-37.9	-38.9	23.2	0.00e+00	0	29	0	416284672	48	6334
2026-01-14 20:26:48.91	33.59	13.97	-38.0	-38.9	23.2	0.00e+00	0	29	0	417333248	48	6372
2026-01-14 20:26:49.92	33.39	14.01	-37.8	-38.7	23.4	0.00e+00	8	29	0	419430400	48	6214
2026-01-14 20:26:50.92	33.20	14.04	-37.7	-38.7	23.3	0.00e+00	92	29	0	421527552	48	6190
2026-01-14 20:26:51.93	33.01	14.08	-37.7	-38.6	23.4	0.00e+00	6	29	0	423624704	48	6132
2026-01-14 20:26:52.94	32.81	14.11	-37.7	-38.6	23.3	0.00e+00	92	29	0	425721856	48	6128
2026-01-14 20:26:53.95	32.62	14.15	-37.7	-38.7	23.3	0.00e+00	15	29	0	426770432	48	6189
2026-01-14 20:26:54.96	32.42	14.18	-37.8	-38.7	23.3	0.00e+00	14	29	0	428867584	48	6210
2026-01-14 20:26:55.97	32.22	14.22	-37.8	-38.7	23.2	0.00e+00	6	29	0	430964736	48	6240
2026-01-14 20:26:56.98	32.03	14.25	-37.6	-38.5	23.4	0.00e+00	6	29	0	433061888	48	6083
2026-01-14 20:26:57.99	31.83	14.28	-37.5	-38.5	23.5	0.00e+00	7	29	0	435159040	48	6036
2026-01-14 20:26:58.99	31.63	14.32	-37.6	-38.5	23.5	0.00e+00	14	29	0	436207616	48	6037
2026-01-14 20:27:00.00	31.44	14.35	-37.6	-38.5	23.5	0.00e+00	92	29	0	438304768	48	6082
2026-01-14 20:27:01.01	31.24	14.38	-37.5	-38.5	23.5	0.00e+00	68	29	0	440401920	48	6035
2026-01-14 20:27:02.02	31.04	14.42	-37.6	-38.5	23.5	0.00e+00	92	29	0	442499072	48	6078
2026-01-14 20:27:03.03	30.84	14.45	-37.6	-38.6	23.5	0.00e+00	67	29	0	444596224	48	6107
2026-01-14 20:27:04.04	30.64	14.48	-37.3	-38.2	23.8	0.00e+00	13	29	0	445644800	48	5856
2026-01-14 20:27:05.05	30.44	14.51	-37.3	-38.2	23.8	0.00e+00	0	29	0	447741952	48	5867
2026-01-14 20:27:06.06	30.24	14.54	-37.4	-38.3	23.7	0.00e+00	0	29	0	449839104	48	5920
2026-01-14 20:27:07.07	30.04	14.57	-37.6	-38.5	23.5	0.00e+00	92	29	0	451936256	48	6045
2026-01-14 20:27:08.08	29.84	14.60	-37.6	-38.5	23.4	0.00e+00	69	29	0	454033408	48	6084
2026-01-14 20:27:09.09	29.63	14.63	-37.6	-38.5	23.5	0.00e+00	92	29	0	455081984	48	6082
2026-01-14 20:27:10.10	29.43	14.66	-37.5	-38.4	23.6	0.00e+00	0	29	0	457179136	48	5975
2026-01-14 20:27:11.11	29.23	14.69	-37.5	-38.4	23.5	0.00e+00	0	29	0	459276288	48	6020
2026-01-14 20:27:12.12	29.02	14.72	-37.6	-38.5	23.5	0.00e+00	1	29	0	461373440	48	6068
2026-01-14 20:27:13.12	28.82	14.75	-37.7	-38.6	23.5	0.00e+00	0	29	0	463470592	48	6114
2026-01-14 20:27:14.13	28.62	14.78	-37.7	-38.6	23.4	0.00e+00	92	29	0	465567744	48	6139
2026-01-14 20:27:15.14	28.41	14.81	-37.7	-38.7	23.4	0.00e+00	0	29	0	466616320	48	6181
2026-01-14 20:27:16.15	28.21	14.84	-37.6	-38.5	23.5	0.00e+00	92	29	0	468713472	48	6036
2026-01-14 20:27:17.16	28.00	14.87	-37.5	-38.4	23.5	0.00e+00	13	29	0	470810624	48	6023
2026-01-14 20:27:18.17	27.80	14.89	-37.7	-38.6	23.3	0.00e+00	13	29	0	472907776	48	6171
2026-01-14 20:27:19.18	27.59	14.92	-37.6	-38.5	23.4	0.00e+00	0	29	0	475004928	48	6092
2026-01-14 20:27:20.19	27.39	14.95	-37.7	-38.7	23.3	0.00e+00	13	29	0	476053504	48	6184
2026-01-14 20:27:21.20	27.18	14.97	-37.9	-38.8	23.0	0.00e+00	0	29	0	478150656	48	6298
2026-01-14 20:27:22.21	26.97	15.00	-38.1	-39.0	23.0	0.00e+00	12	29	0	480247808	48	6427
2026-01-14 20:27:23.22	26.76	15.02	-38.0	-39.0	23.1	0.00e+00	92	29	0	482344960	48	6395
2026-01-14 20:27:24.22	26.56	15.05	-37.9	-38.8	23.2	0.00e+00	67	29	0	484442112	48	6270
2026-01-14 20:27:25.23	26.35	15.08	-37.8	-38.7	23.3	0.00e+00	92	29	0	485490688	48	6244
2026-01-14 20:27:26.24	26.14	15.10	-37.8	-38.7	23.4	0.00e+00	13	29	0	487587840	48	6223
2026-01-14 20:27:27.25	25.93	15.12	-38.0	-38.9	23.1	0.00e+00	0	29	0	489684992	48	6372
2026-01-14 20:27:28.26	25.72	15.15	-38.1	-39.0	23.1	0.00e+00	0	29	0	491782144	48	6427
2026-01-14 20:27:29.27	25.51	15.17	-38.0	-39.0	23.1	0.00e+00	67	29	0	493879296	48	6421
2026-01-14 20:27:30.27	25.31	15.19	-38.2	-39.1	23.0	0.00e+00	92	29	0	494927872	48	6520
2026-01-14 20:27:31.28	25.10	15.22	-38.0	-39.0	23.2	0.00e+00	0	29	0	497025024	48	6417
2026-01-14 20:27:32.29	24.89	15.24	-38.2	-39.2	22.9	0.00e+00	92	29	0	499122176	48	6582
2026-01-14 20:27:33.30	24.68	15.26	-38.2	-39.2	22.8	0.00e+00	0	29	0	501219328	48	6582
2026-01-14 20:27:34.31	24.46	15.28	-38.4	-39.4	22.8	0.00e+00	18	29	0	503316480	48	6722
2026-01-14 20:27:35.32	24.25	15.30	-38.5	-39.5	22.7	0.00e+00	0	29	0	504365056	48	6779
2026-01-14 20:27:36.33	24.04	15.33	-38.5	-39.5	22.6	0.00e+00	0	29	0	506462208	48	6816
2026-01-14 20:27:37.34	23.83	15.35	-38.4	-39.4	22.8	0.00e+00	0	29	0	508559360	48	6750
2026-01-14 20:27:38.35	23.62	15.37	-38.5	-39.5	22.6	0.00e+00	0	29	0	510656512	48	6820
2026-01-14 20:27:39.36	23.40	15.39	-38.5	-39.5	22.6	0.00e+00	92	29	0	512753664	48	6780
2026-01-14 20:27:40.36	23.19	15.41	-38.7	-39.7	22.3	0.00e+00	0	29	0	513802240	48	6986
2026-01-14 20:27:41.37	22.98	15.42	-38.4	-39.4	22.8	0.00e+00	15	29	0	515899392	50	5989
2026-01-14 20:27:42.38	22.77	15.44	-38.5	-39.5	22.5	0.00e+00	14	29	0	517996544	50	6102
2026-01-14 20:27:43.39	22.55	15.46	-38.2	-39.2	22.9	0.00e+00	0	29	0	520093696	50	5859
2026-01-14 20:27:44.40	22.34	15.48	-38.0	-39.0	23.1	0.00e+00	0	29	0	522190848	50	5705
2026-01-14 20:27:45.41	22.12	15.50	-38.0	-39.0	23.0	0.00e+00	14	29	0	523239424	50	5716
2026-01-14 20:27:46.42	21.91	15.51	-38.0	-38.9	23.1	0.00e+00	92	29	0	525336576	50	5680
2026-01-14 20:27:47.43	21.69	15.53	-37.9	-38.8	23.3	0.00e+00	0	29	0	527433728	50	5611
2026-01-14 20:27:48.44	21.48	15.55	-37.9	-38.8	23.2	0.00e+00	92	29	0	529530880	50	5606
2026-01-14 20:27:49.45	21.26	15.56	-38.1	-39.0	23.2	0.00e+00	13	29	0	531628032	50	5721
2026-01-14 20:27:50.46	21.05	15.58	-38.0	-38.9	23.1	0.00e+00	66	29	0	533725184	50	5693
2026-01-14 20:27:51.47	20.83	15.59	-38.2	-39.1	23.0	0.00e+00	0	29	0	534773760	50	5798
2026-01-14 20:27:52.47	20.62	15.61	-38.0	-39.0	23.1	0.00e+00	0	29	0	536870912	50	5701
2026-01-14 20:27:53.48	20.40	15.62	-38.0	-39.0	23.1	0.00e+00	10	29	0	538968064	50	5702
2026-01-14 20:27:54.49	20.19	15.64	-38.1	-39.0	23.1	0.00e+00	0	29	0	541065216	50	5756
2026-01-14 20:27:55.50	19.97	15.65	-38.1	-39.1	23.1	0.00e+00	62	29	0	543162368	50	5764
2026-01-14 20:27:56.51	19.75	15.66	-38.2	-39.1	22.9	0.00e+00	2	29	0	544210944	50	5819
2026-01-14 20:27:57.52	19.54	15.68	-38.4	-39.3	22.8	0.00e+00	0	29	0	546308096	50	5953
2026-01-14 20:27:58.53	19.32	15.69	-38.2	-39.1	23.0	0.00e+00	2	29	0	548405248	50	5827
2026-01-14 20:27:59.54	19.10	15.70	-38.2	-39.1	23.0	0.00e+00	0	29	0	550502400	50	5824
2026-01-14 20:28:00.54	18.89	15.71	-38.2	-39.2	23.0	0.00e+00	0	29	0	551550976	50	5851
2026-01-14 20:28:01.55	18.67	15.72	-38.1	-39.0	23.1	0.00e+00	2	29	0	553648128	50	5743
2026-01-14 20:28:02.56	18.45	15.73	-38.2	-39.1	23.0	0.00e+00	92	29	0	555745280	50	5807
2026-01-14 20:28:03.57	18.23	15.74	-38.1	-39.1	23.1	0.00e+00	0	29	0	557842432	50	5785
2026-01-14 20:28:04.58	18.02	15.75	-38.2	-39.2	22.9	0.00e+00	89	29	0	559939584	50	5829
2026-01-14 20:28:05.59	17.80	15.76	-38.3	-39.3	22.9	0.00e+00	14	29	0	562036736	50	5905
2026-01-14 20:28:06.60	17.58	15.77	-38.3	-39.3	22.9	0.00e+00	70	29	0	563085312	50	5905
2026-01-14 20:28:07.61	17.36	15.78	-38.3	-39.2	22.9	0.00e+00	0	29	0	565182464	50	5892
2026-01-14 20:28:08.62	17.14	15.79	-38.4	-39.3	22.8	0.00e+00	13	29	0	567279616	50	5956
2026-01-14 20:28:09.63	16.92	15.80	-38.4	-39.4	22.8	0.00e+00	92	29	0	569376768	50	5980
2026-01-14 20:28:10.64	16.70	15.80	-38.3	-39.2	22.9	0.00e+00	0	29	0	571473920	50	5881
2026-01-14 20:28:11.65	16.49	15.81	-38.4	-39.3	22.7	0.00e+00	0	29	0	572522496	50	5950
2026-01-14 20:28:12.66	16.27	15.82	-38.6	-39.6	22.5	0.00e+00	69	29	0	574619648	50	6146
2026-01-14 20:28:13.67	16.05	15.82	-38.5	-39.5	22.7	0.00e+00	67	29	0	576716800	50	6080
2026-01-14 20:28:14.68	15.83	15.83	-38.3	-39.3	22.9	0.00e+00	0	29	0	578813952	50	5915
2026-01-14 20:28:15.68	15.61	15.83	-38.2	-39.2	23.0	0.00e+00	68	29	0	580911104	50	5874
2026-01-14 20:28:16.69	15.39	15.84	-38.1	-39.1	23.0	0.00e+00	9	29	0	581959680	50	5763
2026-01-14 20:28:17.70	15.17	15.84	-38.1	-39.1	23.1	0.00e+00	0	29	0	584056832	50	5766
2026-01-14 20:28:18.71	14.95	15.85	-38.0	-38.9	23.2	0.00e+00	92	29	0	586153984	50	5665
2026-01-14 20:28:19.72	14.73	15.85	-38.1	-39.1	23.1	0.00e+00	5	29	0	588251136	50	5767
2026-01-14 20:28:20.73	14.51	15.85	-38.1	-39.1	23.0	0.00e+00	50	29	0	590348288	50	5780
2026-01-14 20:28:21.74	14.29	15.86	-38.3	-39.3	22.8	0.00e+00	6	29	0	591396864	50	5915
2026-01-14 20:28:22.75	14.08	15.86	-38.4	-39.4	22.8	0.00e+00	7	29	0	593494016	50	6018
2026-01-14 20:28:23.76	13.86	15.86	-38.6	-39.7	22.6	0.00e+00	11	29	0	595591168	50	6175
2026-01-14 20:28:24.77	13.64	15.86	-38.4	-39.4	22.8	0.00e+00	6	29	0	597688320	50	5982
2026-01-14 20:28:25.78	13.42	15.86	-38.5	-39.5	22.7	0.00e+00	92	29	0	599785472	50	6042
2026-01-14 20:28:26.79	13.20	15.86	-38.3	-39.3	22.9	0.00e+00	8	29	0	600834048	50	5898
2026-01-14 20:28:27.80	12.98	15.86	-38.4	-39.4	22.8	0.00e+00	6	29	0	602931200	50	5967
2026-01-14 20:28:28.80	12.76	15.86	-38.4	-39.3	22.8	0.00e+00	4	29	0	605028352	50	5960
2026-01-14 20:28:29.81	12.54	15.86	-38.1	-39.1	23.1	0.00e+00	8	29	0	607125504	50	5793
2026-01-14 20:28:30.82	12.32	15.86	-38.2	-39.1	22.9	0.00e+00	0	29	0	609222656	50	5828
2026-01-14 20:28:31.83	12.10	15.86	-38.3	-39.2	22.3	0.00e+00	5	29	0	610271232	50	5872
2026-01-14 20:28:32.84	11.88	15.86	-38.2	-39.1	23.0	0.00e+00	92	29	0	612368384	50	5822
2026-01-14 20:28:33.85	11.66	15.85	-38.1	-39.1	23.0	0.00e+00	0	29	0	614465536	50	5767
2026-01-14 20:28:34.86	11.44	15.85	-38.3	-39.2	22.7	0.00e+00	92	29	0	616562688	50	5886
2026-01-14 20:28:35.87	11.22	15.85	-38.5	-39.5	22.7	0.00e+00	74	29	0	618659840	50	6060
2026-01-14 20:28:36.88	11.00	15.84	-38.5	-39.5	22.7	0.00e+00	73	29	0	619708416	50	6044
2026-01-14 20:28:37.89	10.78	15.84	-38.6	-39.6	22.7	0.00e+00	73	29	0	621805568	50	6114
2026-01-14 20:28:38.90	10.56	15.84	-38.7	-39.7	22.5	0.00e+00	0	29	0	623902720	50	6183
2026-01-14 20:28:39.90	10.35	15.83	-38.7	-39.7	22.5	0.00e+00	70	29	0	625999872	50	6218
2026-01-14 20:28:40.91	10.13	15.83	-38.8	-39.8	22.4	0.00e+00	6	29	0	628097024	50	6266
2026-01-14 20:28:41.92	9.91	15.82	-39.2	-40.3	21.9	0.00e+00	90	29	0	630194176	50	6619
2026-01-14 20:28:42.93	9.69	15.81	-38.7	-39.8	22.5	0.00e+00	0	29	0	631242752	50	6261
2026-01-14 20:28:43.94	9.47	15.81	-38.5	-39.5	22.6	0.00e+00	21	29	0	633339904	50	6096
2026-01-14 20:28:44.95	9.25	15.80	-38.3	-39.3	22.9	0.00e+00	13	29	0	635437056	50	5919
2026-01-14 20:28:45.96	9.03	15.79	-38.4	-39.4	22.9	0.00e+00	6	29	0	637534208	50	5967
2026-01-14 20:28:46.97	8.81	15.78	-38.3	-39.3	22.9	0.00e+00	1	29	0	639631360	50	5900
2026-01-14 20:28:47.98	8.60	15.78	-38.2	-39.2	22.9	0.00e+00	6	29	0	640679936	50	5867
2026-01-14 20:28:48.99	8.38	15.77	-38.2	-39.1	23.0	0.00e+00	92	29	0	642777088	50	5816
2026-01-14 20:28:50.00	8.16	15.76	-38.1	-39.0	23.1	0.00e+00	13	29	0	644874240	50	5760
2026-01-14 20:28:51.01	7.94	15.75	-38.3	-39.2	22.9	0.00e+00	74	29	0	646971392	50	5884
2026-01-14 20:28:52.02	7.72	15.74	-38.2	-39.2	23.0	0.00e+00	13	29	0	649068544	50	5874
2026-01-14 20:28:53.03	7.51	15.73	-38.3	-39.3	22.9	0.00e+00	70	29	0	650117120	50	5930
2026-01-14 20:28:54.04	7.29	15.72	-38.3	-39.2	22.9	0.00e+00	3	29	0	652214272	50	5877
2026-01-14 20:28:55.04	7.07	15.71	-38.4	-39.3	22.7	0.00e+00	6	29	0	654311424	50	5954
2026-01-14 20:28:56.05	6.86	15.69	-38.4	-39.4	22.8	0.00e+00	92	29	0	656408576	50	5984
2026-01-14 20:28:57.06	6.64	15.68	-38.2	-39.2	23.0	0.00e+00	74	29	0	658505728	50	5844
2026-01-14 20:28:58.07	6.42	15.67	-38.3	-39.3	22.9	0.00e+00	92	29	0	659554304	50	5944
2026-01-14 20:28:59.08	6.20	15.66	-38.2	-39.2	23.0	0.00e+00	0	29	0	661651456	50	5837
2026-01-14 20:29:00.09	5.99	15.64	-38.0	-38.9	23.2	0.00e+00	73	29	0	663748608	50	5659
2026-01-14 20:29:01.10	5.77	15.63	-38.0	-39.0	23.2	0.00e+00	0	29	0	665845760	50	5704
2026-01-14 20:29:02.11	5.56	15.62	-38.0	-39.0	23.2	0.00e+00	0	29	0	667942912	50	5705
2026-01-14 20:29:03.12	5.34	15.60	-37.9	-38.8	23.3	0.00e+00	74	29	0	668991488	50	5611
2026-01-14 20:29:04.13	5.12	15.59	-37.9	-38.8	23.3	0.00e+00	0	29	0	671088640	50	5624
2026-01-14 20:29:05.14	4.91	15.57	-37.9	-38.9	23.2	0.00e+00	92	29	0	673185792	50	5652
2026-01-14 20:29:06.15	4.69	15.55	-38.0	-38.9	23.2	0.00e+00	0	29	0	675282944	50	5669
2026-01-14 20:29:07.16	4.48	15.54	-37.9	-38.8	23.1	0.00e+00	76	29	0	677380096	50	5613
2026-01-14 20:29:08.17	4.26	15.52	-37.8	-38.7	23.3	0.00e+00	2	29	0	678428672	50	5559
2026-01-14 20:29:09.17	4.05	15.51	-37.9	-38.8	23.2	0.00e+00	0	29	0	680525824	50	5621
2026-01-14 20:29:10.18	3.84	15.49	-37.7	-38.7	23.4	0.00e+00	0	29	0	682622976	48	6187
2026-01-14 20:29:11.19	3.62	15.47	-37.7	-38.7	23.4	0.00e+00	13	29	0	684720128	48	6204
2026-01-14 20:29:12.20	3.41	15.45	-37.5	-38.4	23.6	0.00e+00	93	29	0	686817280	48	6003
2026-01-14 20:29:13.21	3.20	15.43	-37.5	-38.4	23.7	0.00e+00	12	29	0	687865856	48	5987
2026-01-14 20:29:14.22	2.98	15.41	-37.5	-38.4	23.7	0.00e+00	69	29	0	689963008	48	5977
2026-01-14 20:29:15.23	2.77	15.40	-37.7	-38.6	23.6	0.00e+00	3	29	0	692060160	48	6112
2026-01-14 20:29:16.24	2.56	15.38	-37.7	-38.7	23.5	0.00e+00	13	29	0	694157312	48	6181
2026-01-14 20:29:17.25	2.34	15.36	-37.9	-38.8	23.4	0.00e+00	0	29	0	696254464	48	6304
2026-01-14 20:29:18.26	2.13	15.34	-37.9	-38.8	23.4	0.00e+00	69	29	0	698351616	48	6311
2026-01-14 20:29:19.27	1.92	15.31	-38.1	-39.0	23.2	0.00e+00	92	29	0	699400192	48	6428
2026-01-14 20:29:20.28	1.71	15.29	-37.8	-38.7	23.4	0.00e+00	0	29	0	701497344	48	6236
2026-01-14 20:29:21.29	1.50	15.27	-37.8	-38.8	23.4	0.00e+00	92	29	0	703594496	48	6264
2026-01-14 20:29:22.30	1.29	15.25	-37.8	-38.7	23.5	0.00e+00	70	29	0	705691648	48	6195
2026-01-14 20:29:23.31	1.08	15.23	-37.9	-38.8	23.4	0.00e+00	0	29	0	707788800	48	6265
2026-01-14 20:29:24.32	0.87	15.20	-37.8	-38.7	23.5	0.00e+00	2	29	0	708837376	48	6211
2026-01-14 20:29:25.32	0.66	15.18	-37.8	-38.7	23.4	0.00e+00	0	29	0	710934528	48	6236
2026-01-14 20:29:26.33	0.45	15.16	-37.8	-38.8	23.4	0.00e+00	15	29	0	713031680	48	6257
2026-01-14 20:29:27.34	0.24	15.13	-37.9	-38.8	23.4	0.00e+00	0	29	0	715128832	48	6269
2026-01-14 20:29:28.35	0.03	15.11	-38.0	-38.9	23.2	0.00e+00	92	29	0	717225984	48	6344
2026-01-14 20:29:29.36	359.82	15.09	-38.0	-38.9	23.2	0.00e+00	0	29	0	718274560	48	6390
2026-01-14 20:29:30.37	359.61	15.06	-38.0	-38.9	23.2	0.00e+00	70	29	0	720371712	48	6357
2026-01-14 20:29:31.38	359.41	15.04	-38.0	-39.0	23.1	0.00e+00	0	29	0	722468864	48	6422
2026-01-14 20:29:32.39	359.20	15.01	-38.2	-39.1	23.1	0.00e+00	2	29	0	724566016	48	6521
2026-01-14 20:29:33.40	358.99	14.98	-38.3	-39.2	22.9	0.00e+00	0	29	0	726663168	48	6609
2026-01-14 20:29:34.41	358.79	14.96	-38.2	-39.1	23.0	0.00e+00	14	29	0	727711744	48	6535
2026-01-14 20:29:35.42	358.58	14.93	-38.2	-39.2	22.9	0.00e+00	91	29	0	729808896	48	6551
2026-01-14 20:29:36.43	358.37	14.91	-38.2	-39.2	23.0	0.00e+00	65	29	0	731906048	48	6563
2026-01-14 20:29:37.44	358.17	14.88	-38.2	-39.1	23.0	0.00e+00	92	29	0	734003200	48	6526
2026-01-14 20:29:38.45	357.96	14.85	-38.3	-39.3	22.9	0.00e+00	0	29	0	736100352	48	6653
2026-01-14 20:29:39.46	357.76	14.82	-38.2	-39.1	23.0	0.00e+00	0	29	0	737148928	48	6516
2026-01-14 20:29:40.47	357.55	14.79	-38.3	-39.3	22.8	0.00e+00	0	29	0	739246080	48	6674
2026-01-14 20:29:41.47	357.35	14.77	-38.1	-39.1	23.1	0.00e+00	0	29	0	741343232	48	6501
2026-01-14 20:29:42.48	357.15	14.74	-38.2	-39.1	23.0	0.00e+00	91	29	0	743440384	48	6526
2026-01-14 20:29:43.50	356.94	14.71	-38.2	-39.1	23.0	0.00e+00	0	29	0	745537536	48	6538
2026-01-14 20:29:44.50	356.74	14.68	-38.2	-39.2	23.0	0.00e+00	92	29	0	746586112	48	6542
2026-01-14 20:29:45.51	356.54	14.65	-38.2	-39.2	23.0	0.00e+00	2	29	0	748683264	48	6546
2026-01-14 20:29:46.52	356.34	14.62	-38.2	-39.2	22.9	0.00e+00	2	29	0	750780416	48	6582
2026-01-14 20:29:47.53	356.13	14.59	-38.2	-39.2	22.9	0.00e+00	0	29	0	752877568	48	6574
2026-01-14 20:29:48.54	355.93	14.56	-38.1	-39.1	23.0	0.00e+00	2	29	0	754974720	48	6493
2026-01-14 20:29:49.55	355.73	14.53	-38.1	-39.1	23.0	0.00e+00	0	29	0	756023296	48	6472
2026-01-14 20:29:50.56	355.53	14.49	-37.9	-38.9	23.2	0.00e+00	10	29	0	758120448	48	6354
2026-01-14 20:29:51.57	355.33	14.46	-38.1	-39.1	22.9	0.00e+00	92	29	0	760217600	48	6504
2026-01-14 20:29:52.58	355.13	14.43	-38.0	-38.9	23.1	0.00e+00	13	29	0	762314752	48	6390
2026-01-14 20:29:53.58	354.94	14.40	-37.9	-38.9	23.1	0.00e+00	92	29	0	764411904	48	6359
2026-01-14 20:29:54.59	354.74	14.36	-38.0	-39.0	23.0	0.00e+00	0	29	0	765460480	48	6432
2026-01-14 20:29:55.60	354.54	14.33	-37.9	-38.9	23.2	0.00e+00	2	29	0	767557632	48	6348
2026-01-14 20:29:56.61	354.34	14.30	-38.0	-39.0	23.1	0.00e+00	0	29	0	769654784	48	6415
2026-01-14 20:29:57.62	354.14	14.26	-37.9	-38.8	23.1	0.00e+00	7	29	0	771751936	48	6267
2026-01-14 20:29:58.62	353.95	14.23	-37.9	-38.8	23.3	0.00e+00	92	29	0	773849088	48	6300
2026-01-14 20:29:59.63	353.75	14.20	-37.9	-38.8	23.2	0.00e+00	6	29	0	774897664	48	6316
2026-01-14 20:30:00.64	353.56	14.16	-37.8	-38.7	23.3	0.00e+00	90	29	0	776994816	48	6242
2026-01-14 20:30:01.65	353.36	14.13	-38.0	-38.9	23.1	0.00e+00	76	29	0	779091968	48	6380
2026-01-14 20:30:02.66	353.17	14.09	-37.8	-38.8	23.3	0.00e+00	0	29	0	781189120	48	6266
2026-01-14 20:30:03.67	352.97	14.06	-37.7	-38.7	23.4	0.00e+00	0	29	0	783286272	48	6177
2026-01-14 20:30:04.68	352.78	14.02	-37.8	-38.8	23.3	0.00e+00	0	29	0	784334848	48	6259
2026-01-14 20:30:05.69	352.58	13.99	-37.8	-38.7	23.3	0.00e+00	92	29	0	786432000	48	6234
2026-01-14 20:30:06.70	352.39	13.95	-37.9	-38.9	23.2	0.00e+00	8	29	0	788529152	48	6331
2026-01-14 20:30:07.71	352.20	13.91	-38.0	-38.9	23.2	0.00e+00	92	29	0	790626304	48	6373
2026-01-14 20:30:08.72	352.01	13.88	-38.1	-39.0	23.0	0.00e+00	0	29	0	792723456	48	6451
2026-01-14 20:30:09.73	351.82	13.84	-38.1	-39.1	23.0	0.00e+00	38	29	0	794820608	48	6511
2026-01-14 20:30:10.74	351.62	13.80	-38.3	-39.2	22.7	0.00e+00	0	29	0	795869184	48	6604
2026-01-14 20:30:11.75	351.43	13.77	-38.0	-38.9	23.1	0.00e+00	5	29	0	797966336	48	6354
2026-01-14 20:30:12.76	351.24	13.73	-38.0	-39.0	23.1	0.00e+00	0	29	0	800063488	48	6399
2026-01-14 20:30:13.77	351.05	13.69	-38.2	-39.2	22.9	0.00e+00	5	29	0	802160640	48	6567
2026-01-14 20:30:14.78	350.86	13.65	-38.0	-38.9	23.0	0.00e+00	92	29	0	804257792	48	6384
2026-01-14 20:30:15.79	350.68	13.61	-37.9	-38.8	23.2	0.00e+00	6	29	0	805306368	48	6287
2026-01-14 20:30:16.80	350.49	13.57	-37.9	-38.8	23.2	0.00e+00	90	29	0	807403520	48	6315
2026-01-14 20:30:17.80	350.30	13.54	-38.0	-38.9	23.1	0.00e+00	5	29	0	809500672	48	6390
2026-01-14 20:30:18.81	350.11	13.50	-38.0	-39.0	23.1	0.00e+00	77	29	0	811597824	48	6409
2026-01-14 20:30:19.82	349.93	13.46	-38.1	-39.0	23.0	0.00e+00	0	29	0	813694976	48	6430
2026-01-14 20:30:20.83	349.74	13.42	-38.2	-39.1	22.9	0.00e+00	10	29	0	814743552	48	6533
2026-01-14 20:30:21.84	349.56	13.38	-38.2	-39.1	22.9	0.00e+00	92	29	0	816840704	48	6537
2026-01-14 20:30:22.85	349.37	13.34	-38.1	-39.1	22.9	0.00e+00	0	29	0	818937856	48	6484
2026-01-14 20:30:23.86	349.19	13.30	-38.1	-39.0	23.0	0.00e+00	92	29	0	821035008	48	6462
2026-01-14 20:30:24.87	349.00	13.26	-38.2	-39.2	22.9	0.00e+00	79	29	0	823132160	48	6560
2026-01-14 20:30:25.88	348.82	13.22	-38.0	-39.0	23.1	0.00e+00	0	29	0	824180736	48	6428
2026-01-14 20:30:26.89	348.64	13.17	-38.0	-39.0	23.1	0.00e+00	80	29	0	826277888	48	6412
2026-01-14 20:30:27.90	348.45	13.13	-38.2	-39.2	22.8	0.00e+00	0	29	0	828375040	48	6583
2026-01-14 20:30:28.90	348.27	13.09	-38.3	-39.2	22.7	0.00e+00	82	29	0	830472192	48	6613
2026-01-14 20:30:29.92	348.09	13.05	-38.4	-39.4	22.7	0.00e+00	0	29	0	832569344	48	6711
2026-01-14 20:30:30.93	347.91	13.01	-38.4	-39.4	22.7	0.00e+00	91	29	0	833617920	48	6731
2026-01-14 20:30:31.94	347.73	12.97	-38.6	-39.6	22.5	0.00e+00	6	29	0	835715072	48	6885
2026-01-14 20:30:32.95	347.55	12.92	-38.7	-39.8	22.0	0.00e+00	91	29	0	837812224	48	7015
2026-01-14 20:30:33.96	347.37	12.88	-38.7	-39.7	22.4	0.00e+00	8	29	0	839909376	50	6226
2026-01-14 20:30:34.97	347.19	12.84	-38.8	-39.9	22.2	0.00e+00	6	29	0	842006528	50	6352
2026-01-14 20:30:35.97	347.01	12.80	-38.8	-39.8	22.3	0.00e+00	17	29	0	843055104	50	6277
2026-01-14 20:30:36.98	346.84	12.75	-39.0	-40.1	22.0	0.00e+00	10	29	0	845152256	50	6515
2026-01-14 20:30:37.99	346.66	12.71	-39.0	-40.1	22.0	0.00e+00	91	29	0	847249408	50	6501
2026-01-14 20:30:39.00	346.48	12.67	-39.2	-40.2	21.9	0.00e+00	7	29	0	849346560	50	6615
2026-01-14 20:30:40.01	346.31	12.62	-38.9	-40.0	22.1	0.00e+00	92	29	0	851443712	50	6404
2026-01-14 20:30:41.02	346.13	12.58	-39.0	-40.0	22.0	0.00e+00	71	29	0	852492288	50	6460
2026-01-14 20:30:42.03	345.95	12.53	-38.9	-40.0	22.1	0.00e+00	72	29	0	854589440	50	6430
2026-01-14 20:30:43.04	345.78	12.49	-39.0	-40.1	22.0	0.00e+00	0	29	0	856686592	50	6520
2026-01-14 20:30:44.04	345.61	12.45	-39.2	-40.3	21.8	0.00e+00	72	29	0	858783744	50	6665
2026-01-14 20:30:45.05	345.43	12.40	-39.3	-40.4	21.7	0.00e+00	92	29	0	860880896	50	6717
2026-01-14 20:30:46.06	345.26	12.36	-39.3	-40.4	21.8	0.00e+00	72	29	0	862978048	50	6713
2026-01-14 20:30:47.07	345.09	12.31	-39.5	-40.6	21.5	0.00e+00	92	29	0	864026624	50	6884
2026-01-14 20:30:48.08	344.92	12.27	-39.6	-40.8	21.3	0.00e+00	0	29	0	866123776	50	7017
2026-01-14 20:30:49.09	344.74	12.22	-39.5	-40.7	21.4	0.00e+00	0	29	0	868220928	50	6973
2026-01-14 20:30:50.10	344.57	12.18	-39.7	-40.9	21.3	0.00e+00	0	29	0	870318080	50	7101
2026-01-14 20:30:51.11	344.40	12.13	-39.8	-41.0	21.1	0.00e+00	2	29	0	872415232	52	6459
2026-01-14 20:30:52.11	344.24	12.08	-39.9	-41.1	21.1	0.00e+00	87	29	0	873463808	52	6504
2026-01-14 20:30:53.12	344.07	12.04	-40.0	-41.2	21.0	0.00e+00	0	29	0	875560960	52	6594
2026-01-14 20:30:54.13	343.90	11.99	-40.1	-41.3	20.9	0.00e+00	92	29	0	877658112	52	6686
2026-01-14 20:30:55.14	343.73	11.95	-40.1	-41.4	20.9	0.00e+00	0	29	0	879755264	52	6713
2026-01-14 20:30:56.15	343.56	11.90	-40.2	-41.5	20.8	0.00e+00	50	29	0	881852416	52	6787
2026-01-14 20:30:57.17	343.39	11.85	-40.2	-41.4	20.7	0.00e+00	9	29	0	882900992	52	6745
2026-01-14 20:30:58.18	343.23	11.81	-40.0	-41.3	21.0	0.00e+00	2	29	0	884998144	52	6626
2026-01-14 20:30:59.18	343.06	11.76	-40.1	-41.4	20.8	0.00e+00	0	29	0	887095296	52	6727
2026-01-14 20:31:00.20	342.89	11.71	-40.1	-41.3	20.9	0.00e+00	0	29	0	889192448	52	6676
2026-01-14 20:31:01.21	342.73	11.66	-40.2	-41.4	20.8	0.00e+00	92	29	0	891289600	52	6745
2026-01-14 20:31:02.21	342.57	11.62	-40.2	-41.5	20.7	0.00e+00	77	29	0	892338176	52	6812
2026-01-14 20:31:03.22	342.40	11.57	-40.4	-41.7	20.5	0.00e+00	92	29	0	894435328	52	7001
2026-01-14 20:31:04.23	342.24	11.52	-40.6	-41.9	20.3	0.00e+00	70	29	0	896532480	52	7153
2026-01-14 20:31:05.24	342.08	11.47	-40.7	-42.1	20.2	0.00e+00	71	29	0	898629632	52	7283
2026-01-14 20:31:06.25	341.91	11.43	-40.6	-41.9	20.3	0.00e+00	75	29	0	900726784	54	6373
2026-01-14 20:31:07.26	341.75	11.38	-40.6	-42.0	20.3	0.00e+00	0	29	0	901775360	54	6413
2026-01-14 20:31:08.27	341.59	11.33	-40.6	-41.9	20.3	0.00e+00	90	29	0	903872512	54	6374
2026-01-14 20:31:09.28	341.43	11.28	-40.6	-41.9	20.3	0.00e+00	0	29	0	905969664	54	6370
2026-01-14 20:31:10.29	341.27	11.23	-40.6	-42.0	20.2	0.00e+00	92	29	0	908066816	54	6414
2026-01-14 20:31:11.30	341.11	11.19	-40.9	-42.2	20.2	0.00e+00	77	29	0	910163968	54	6611
2026-01-14 20:31:12.31	340.95	11.14	-40.8	-42.2	20.1	0.00e+00	0	29	0	911212544	54	6547
2026-01-14 20:31:13.32	340.79	11.09	-40.9	-42.2	20.0	0.00e+00	2	29	0	913309696	54	6612
2026-01-14 20:31:14.32	340.64	11.04	-41.0	-42.5	19.7	0.00e+00	2	29	0	915406848	54	6800
2026-01-14 20:31:15.33	340.48	10.99	-40.9	-42.3	19.9	0.00e+00	13	29	0	917504000	54	6645
2026-01-14 20:31:16.34	340.32	10.94	-40.9	-42.3	19.9	0.00e+00	0	29	0	919601152	54	6665
2026-01-14 20:31:17.35	340.17	10.89	-41.0	-42.4	19.8	0.00e+00	92	29	0	920649728	54	6720
2026-01-14 20:31:18.36	340.01	10.84	-41.0	-42.4	19.8	0.00e+00	0	29	0	922746880	54	6723
2026-01-14 20:31:19.37	339.86	10.79	-40.9	-42.3	19.9	0.00e+00	66	29	0	924844032	54	6662
2026-01-14 20:31:20.38	339.70	10.74	-41.0	-42.4	19.8	0.00e+00	10	29	0	926941184	54	6715
2026-01-14 20:31:21.39	339.55	10.69	-40.8	-42.2	20.0	0.00e+00	2	29	0	929038336	54	6577
2026-01-14 20:31:22.40	339.39	10.64	-40.9	-42.3	19.8	0.00e+00	0	29	0	931135488	54	6652
2026-01-14 20:31:23.41	339.24	10.59	-40.9	-42.3	19.9	0.00e+00	0	29	0	932184064	54	6668
2026-01-14 20:31:24.42	339.09	10.55	-40.8	-42.2	19.9	0.00e+00	92	29	0	934281216	54	6542
2026-01-14 20:31:25.43	338.93	10.49	-40.7	-42.0	20.1	0.00e+00	76	29	0	936378368	54	6428
2026-01-14 20:31:26.44	338.78	10.44	-40.7	-42.0	20.1	0.00e+00	90	29	0	938475520	54	6447
2026-01-14 20:31:27.44	338.63	10.40	-40.8	-42.1	20.0	0.00e+00	4	29	0	939524096	54	6523
2026-01-14 20:31:28.46	338.48	10.34	-40.8	-42.1	20.0	0.00e+00	0	29	0	941621248	54	6521
2026-01-14 20:31:29.47	338.33	10.29	-40.8	-42.2	20.0	0.00e+00	0	29	0	943718400	54	6563
2026-01-14 20:31:30.47	338.18	10.24	-40.9	-42.3	19.8	0.00e+00	0	29	0	945815552	54	6647
2026-01-14 20:31:31.49	338.03	10.19	-40.9	-42.3	19.8	0.00e+00	92	29	0	947912704	54	6645
2026-01-14 20:31:32.49	337.89	10.14	-40.8	-42.1	19.9	0.00e+00	73	29	0	948961280	54	6532
2026-01-14 20:31:33.50	337.74	10.09	-40.8	-42.2	19.9	0.00e+00	92	29	0	951058432	54	6541
2026-01-14 20:31:34.51	337.59	10.04	-40.6	-42.0	20.1	0.00e+00	0	29	0	953155584	54	6422
2026-01-14 20:31:35.52	337.44	9.99	-40.5	-41.9	20.2	0.00e+00	1	29	0	955252736	54	6320
2026-01-14 20:31:36.53	337.30	9.94	-40.4	-41.7	20.3	0.00e+00	0	29	0	957349888	54	6240
2026-01-14 20:31:37.54	337.15	9.89	-40.4	-41.7	20.3	0.00e+00	2	29	0	959447040	54	6194
2026-01-14 20:31:38.55	337.01	9.84	-40.4	-41.7	20.4	0.00e+00	6	29	0	960495616	54	6224
2026-01-14 20:31:39.56	336.86	9.79	-40.2	-41.5	20.6	0.00e+00	0	29	0	962592768	54	6046
2026-01-14 20:31:40.57	336.72	9.73	-40.3	-41.6	20.5	0.00e+00	92	29	0	964689920	54	6113
2026-01-14 20:31:41.58	336.57	9.68	-40.2	-41.5	20.6	0.00e+00	3	29	0	966787072	54	6045
2026-01-14 20:31:42.59	336.43	9.63	-40.2	-41.5	20.6	0.00e+00	64	29	0	968884224	54	6042
2026-01-14 20:31:43.60	336.29	9.58	-40.3	-41.6	20.5	0.00e+00	0	29	0	969932800	54	6108
2026-01-14 20:31:44.61	336.15	9.53	-40.0	-41.3	20.8	0.00e+00	8	29	0	972029952	54	5901
2026-01-14 20:31:45.62	336.00	9.48	-40.1	-41.3	20.8	0.00e+00	5	29	0	974127104	54	5947
2026-01-14 20:31:46.63	335.86	9.43	-39.9	-41.1	20.9	0.00e+00	2	29	0	976224256	54	5787
2026-01-14 20:31:47.64	335.72	9.37	-40.0	-41.3	20.8	0.00e+00	92	29	0	978321408	54	5916
2026-01-14 20:31:48.65	335.58	9.32	-39.9	-41.2	20.9	0.00e+00	75	29	0	979369984	54	5851
2026-01-14 20:31:49.66	335.44	9.27	-39.8	-41.0	21.0	0.00e+00	92	29	0	981467136	54	5742
2026-01-14 20:31:50.67	335.30	9.22	-39.8	-41.0	21.0	0.00e+00	81	29	0	983564288	54	5742
2026-01-14 20:31:51.68	335.16	9.17	-39.9	-41.1	20.9	0.00e+00	79	29	0	985661440	54	5820
2026-01-14 20:31:52.68	335.03	9.12	-39.9	-41.2	20.8	0.00e+00	71	29	0	987758592	54	5842
2026-01-14 20:31:53.70	334.89	9.06	-39.8	-41.0	21.1	0.00e+00	5	29	0	988807168	54	5709
2026-01-14 20:31:54.71	334.75	9.01	-39.7	-40.9	21.0	0.00e+00	92	29	0	990904320	52	6361
2026-01-14 20:31:55.72	334.62	8.96	-39.5	-40.7	21.4	0.00e+00	0	29	0	993001472	52	6181
2026-01-14 20:31:56.73	334.48	8.91	-39.5	-40.7	21.3	0.00e+00	91	29	0	995098624	52	6191
2026-01-14 20:31:57.74	334.34	8.85	-39.6	-40.8	21.3	0.00e+00	5	29	0	997195776	52	6246
2026-01-14 20:31:58.75	334.21	8.80	-39.4	-40.5	21.4	0.00e+00	6	29	0	998244352	52	6089
2026-01-14 20:31:59.76	334.07	8.75	-39.3	-40.4	21.5	0.00e+00	5	29	0	1000341504	52	5994
2026-01-14 20:32:00.77	333.94	8.70	-39.3	-40.4	21.5	0.00e+00	7	29	0	1002438656	52	6004
2026-01-14 20:32:01.78	333.81	8.64	-39.2	-40.3	21.6	0.00e+00	55	29	0	1004535808	52	5954
2026-01-14 20:32:02.78	333.67	8.59	-39.2	-40.3	21.7	0.00e+00	6	29	0	1006632960	52	5911
2026-01-14 20:32:03.79	333.54	8.54	-39.1	-40.2	21.7	0.00e+00	90	29	0	1007681536	52	5877
2026-01-14 20:32:04.80	333.41	8.49	-39.0	-40.1	21.9	0.00e+00	79	29	0	1009778688	52	5765
2026-01-14 20:32:05.81	333.28	8.44	-38.9	-40.0	22.0	0.00e+00	73	29	0	1011875840	52	5703
2026-01-14 20:32:06.83	333.15	8.38	-38.9	-40.0	21.9	0.00e+00	86	29	0	1013972992	52	5727
2026-01-14 20:32:07.83	333.02	8.33	-38.7	-39.8	22.0	0.00e+00	1	29	0	1016070144	52	5601
2026-01-14 20:32:08.84	332.89	8.28	-38.8	-39.9	22.0	0.00e+00	0	29	0	1017118720	50	6339
2026-01-14 20:32:09.86	332.75	8.22	-38.8	-39.8	22.0	0.00e+00	0	29	0	1019215872	50	6313
2026-01-14 20:32:10.87	332.63	8.17	-38.8	-39.9	22.0	0.00e+00	92	29	0	1021313024	50	6341
2026-01-14 20:32:11.88	332.50	8.12	-38.7	-39.7	22.1	0.00e+00	0	29	0	1023410176	50	6216
2026-01-14 20:32:12.89	332.37	8.07	-38.7	-39.8	22.1	0.00e+00	92	29	0	1025507328	50	6286
2026-01-14 20:32:13.90	332.24	8.01	-38.6	-39.7	22.1	0.00e+00	0	29	0	1027604480	50	6185
2026-01-14 20:32:14.91	332.11	7.96	-38.7	-39.7	22.1	0.00e+00	7	29	0	1028653056	50	6213
2026-01-14 20:32:15.92	331.99	7.91	-38.6	-39.7	21.9	0.00e+00	6	29	0	1030750208	50	6199
2026-01-14 20:32:16.93	331.86	7.85	-38.6	-39.7	21.9	0.00e+00	7	29	0	1032847360	50	6211
2026-01-14 20:32:17.94	331.73	7.80	-38.7	-39.8	22.1	0.00e+00	66	29	0	1034944512	50	6253
2026-01-14 20:32:18.95	331.61	7.75	-38.7	-39.7	22.1	0.00e+00	7	29	0	1037041664	50	6224
2026-01-14 20:32:19.96	331.48	7.70	-38.7	-39.8	22.1	0.00e+00	92	29	0	1038090240	50	6265
2026-01-14 20:32:20.97	331.36	7.64	-38.7	-39.8	22.1	0.00e+00	6	29	0	1040187392	50	6289
2026-01-14 20:32:21.97	331.24	7.59	-38.7	-39.8	22.1	0.00e+00	3	29	0	1042284544	50	6251
2026-01-14 20:32:22.98	331.11	7.54	-38.7	-39.8	22.0	0.00e+00	6	29	0	1044381696	50	6270
2026-01-14 20:32:23.99	330.99	7.48	-38.9	-40.0	21.9	0.00e+00	2	29	0	1046478848	50	6407
2026-01-14 20:32:25.00	330.87	7.43	-38.9	-40.0	21.9	0.00e+00	13	29	0	1047527424	50	6406
2026-01-14 20:32:26.01	330.74	7.38	-38.9	-40.0	21.7	0.00e+00	75	29	0	1049624576	50	6460
2026-01-14 20:32:27.02	330.62	7.33	-39.1	-40.2	21.9	0.00e+00	92	29	0	1051721728	50	6552
2026-01-14 20:32:28.03	330.50	7.27	-39.0	-40.1	21.7	0.00e+00	6	29	0	1053818880	50	6486
2026-01-14 20:32:29.04	330.38	7.22	-38.9	-40.0	21.9	0.00e+00	92	29	0	1055916032	50	6392
2026-01-14 20:32:30.05	330.26	7.17	-38.9	-40.0	21.8	0.00e+00	79	29	0	1056964608	50	6431
2026-01-14 20:32:31.06	330.14	7.11	-38.8	-39.9	21.9	0.00e+00	81	29	0	1059061760	50	6363
2026-01-14 20:32:32.07	330.02	7.06	-38.8	-39.9	21.9	0.00e+00	16	29	0	1061158912	50	6364
2026-01-14 20:32:33.07	329.90	7.01	-38.9	-40.0	21.8	0.00e+00	0	29	0	1063256064	50	6396
2026-01-14 20:32:34.09	329.78	6.95	-38.8	-39.9	21.9	0.00e+00	92	29	0	1065353216	50	6349
2026-01-14 20:32:35.09	329.67	6.90	-38.8	-39.9	21.9	0.00e+00	0	29	0	1066401792	50	6366
2026-01-14 20:32:36.10	329.55	6.85	-38.9	-40.0	21.9	0.00e+00	92	29	0	1068498944	50	6400
2026-01-14 20:32:37.11	329.43	6.79	-39.2	-40.4	21.5	0.00e+00	0	29	0	1070596096	50	6700
2026-01-14 20:32:38.12	329.31	6.74	-39.1	-40.2	21.6	0.00e+00	0	29	0	1072693248	50	6603
2026-01-14 20:32:39.13	329.20	6.69	-39.2	-40.3	21.5	0.00e+00	2	29	0	1074790400	50	6662
2026-01-14 20:32:40.14	329.08	6.64	-39.2	-40.4	21.5	0.00e+00	0	29	0	1075838976	50	6710
2026-01-14 20:32:41.15	328.97	6.58	-39.2	-40.3	21.5	0.00e+00	90	29	0	1077936128	50	6677
2026-01-14 20:32:42.16	328.85	6.53	-39.3	-40.4	21.3	0.00e+00	6	29	0	1080033280	50	6767
2026-01-14 20:32:43.17	328.74	6.48	-39.5	-40.6	21.2	3.00e-06	92	29	0	1082130432	50	6919
2026-01-14 20:32:44.18	328.62	6.42	-39.3	-40.5	21.2	0.00e+00	0	29	0	1084227584	50	6816
2026-01-14 20:32:45.19	328.51	6.37	-39.4	-40.6	21.2	0.00e+00	73	29	0	1085276160	50	6853
2026-01-14 20:32:46.20	328.39	6.32	-39.2	-40.4	21.4	0.00e+00	0	29	0	1087373312	50	6718
2026-01-14 20:32:47.21	328.28	6.26	-39.2	-40.3	21.5	0.00e+00	81	29	0	1089470464	50	6653
2026-01-14 20:32:48.22	328.17	6.21	-39.2	-40.4	21.4	0.00e+00	90	29	0	1091567616	50	6732
2026-01-14 20:32:49.22	328.06	6.16	-39.1	-40.2	21.5	0.00e+00	6	29	0	1093664768	50	6600
2026-01-14 20:32:50.23	327.95	6.10	-39.2	-40.4	21.4	0.00e+00	90	29	0	1095761920	50	6713
2026-01-14 20:32:51.24	327.83	6.05	-39.1	-40.3	21.5	0.00e+00	4	29	0	1096810496	50	6626
2026-01-14 20:32:52.25	327.72	6.00	-39.2	-40.4	21.3	0.00e+00	92	29	0	1098907648	50	6719
2026-01-14 20:32:53.26	327.61	5.94	-39.1	-40.2	21.5	0.00e+00	0	29	0	1101004800	50	6611
2026-01-14 20:32:54.27	327.50	5.89	-39.2	-40.3	21.4	0.00e+00	0	29	0	1103101952	50	6650
2026-01-14 20:32:55.27	327.39	5.84	-39.3	-40.5	21.3	0.00e+00	81	29	0	1105199104	50	6775
2026-01-14 20:32:56.28	327.28	5.79	-39.2	-40.4	21.4	0.00e+00	0	29	0	1106247680	50	6693
2026-01-14 20:32:57.29	327.18	5.73	-39.4	-40.6	21.1	0.00e+00	90	29	0	1108344832	50	6859
2026-01-14 20:32:58.30	327.07	5.68	-39.5	-40.7	21.1	0.00e+00	0	29	0	1110441984	50	6928
2026-01-14 20:32:59.31	326.96	5.63	-39.5	-40.7	21.0	0.00e+00	92	29	0	1112539136	50	6970
2026-01-14 20:33:00.33	326.85	5.57	-39.7	-40.9	20.8	0.00e+00	0	29	0	1114636288	50	7123
2026-01-14 20:33:01.33	326.74	5.52	-39.9	-41.2	20.6	0.00e+00	0	29	0	1115684864	52	6551
2026-01-14 20:33:02.34	326.64	5.47	-39.9	-41.1	20.7	0.00e+00	0	29	0	1117782016	52	6515
2026-01-14 20:33:03.35	326.53	5.41	-40.1	-41.4	20.3	0.00e+00	1	29	0	1119879168	52	6700
2026-01-14 20:33:04.36	326.43	5.36	-39.9	-41.2	20.6	0.00e+00	92	29	0	1121976320	52	6572
2026-01-14 20:33:05.37	326.32	5.31	-40.1	-41.4	20.3	0.00e+00	2	29	0	1124073472	52	6718
2026-01-14 20:33:06.37	326.22	5.26	-40.1	-41.4	20.3	0.00e+00	92	29	0	1125122048	52	6769
2026-01-14 20:33:07.38	326.11	5.20	-40.0	-41.3	20.4	0.00e+00	0	29	0	1127219200	52	6688
2026-01-14 20:33:08.39	326.01	5.15	-40.1	-41.4	20.3	0.00e+00	25	29	0	1129316352	52	6732
2026-01-14 20:33:09.40	325.90	5.10	-40.1	-41.4	20.4	0.00e+00	77	29	0	1131413504	52	6719
2026-01-14 20:33:10.41	325.80	5.04	-40.1	-41.4	20.3	0.00e+00	80	29	0	1133510656	52	6700
2026-01-14 20:33:11.42	325.70	4.99	-40.1	-41.4	20.4	0.00e+00	0	29	0	1134559232	52	6695
2026-01-14 20:33:12.43	325.59	4.94	-40.2	-41.5	20.2	0.00e+00	7	29	0	1136656384	52	6808
2026-01-14 20:33:13.44	325.49	4.89	-40.7	-42.1	19.7	0.00e+00	91	29	0	1138753536	52	7287
2026-01-14 20:33:14.45	325.39	4.83	-40.7	-42.2	19.5	0.00e+00	0	29	0	1140850688	54	6553
2026-01-14 20:33:15.46	325.29	4.78	-40.7	-42.1	19.6	0.00e+00	0	29	0	1142947840	54	6515
2026-01-14 20:33:16.47	325.18	4.73	-40.6	-42.0	19.7	0.00e+00	74	29	0	1143996416	54	6454
2026-01-14 20:33:17.48	325.08	4.67	-40.5	-42.0	19.7	0.00e+00	0	29	0	1146093568	54	6393
2026-01-14 20:33:18.49	324.98	4.62	-40.5	-42.0	19.7	0.00e+00	0	29	0	1148190720	54	6393
2026-01-14 20:33:19.50	324.88	4.57	-40.7	-42.1	19.5	0.00e+00	2	29	0	1150287872	54	6527
2026-01-14 20:33:20.51	324.78	4.52	-40.8	-42.2	19.4	0.00e+00	90	29	0	1152385024	54	6606
2026-01-14 20:33:21.52	324.68	4.46	-41.0	-42.5	19.1	0.00e+00	0	29	0	1153433600	54	6804
2026-01-14 20:33:22.53	324.58	4.41	-40.9	-42.5	19.2	0.00e+00	90	29	0	1155530752	54	6790
2026-01-14 20:33:23.54	324.49	4.36	-41.1	-42.6	19.0	0.00e+00	0	29	0	1157627904	54	6919
2026-01-14 20:33:24.55	324.39	4.31	-40.8	-42.4	19.3	0.00e+00	3	29	0	1159725056	54	6696
2026-01-14 20:33:25.55	324.29	4.25	-41.0	-42.5	19.1	0.00e+00	0	29	0	1161822208	54	6821
2026-01-14 20:33:26.56	324.19	4.20	-41.0	-42.6	19.0	0.00e+00	0	29	0	1163919360	54	6865
2026-01-14 20:33:27.57	324.10	4.15	-41.0	-42.6	19.0	0.00e+00	92	29	0	1164967936	54	6871
2026-01-14 20:33:28.58	324.00	4.10	-41.1	-42.7	18.9	0.00e+00	0	29	0	1167065088	54	6939
2026-01-14 20:33:29.59	323.90	4.04	-40.8	-42.3	19.3	0.00e+00	92	29	0	1169162240	54	6648
2026-01-14 20:33:30.60	323.81	3.99	-40.9	-42.4	19.1	0.00e+00	0	29	0	1171259392	54	6739
2026-01-14 20:33:31.61	323.71	3.94	-41.1	-42.7	18.8	0.00e+00	0	29	0	1173356544	54	6996
2026-01-14 20:33:32.62	323.61	3.89	-41.0	-42.6	19.0	0.00e+00	78	29	0	1174405120	54	6852
2026-01-14 20:33:33.63	323.52	3.83	-40.9	-42.5	19.0	0.00e+00	0	29	0	1176502272	54	6790
2026-01-14 20:33:34.64	323.42	3.78	-41.0	-42.6	18.9	0.00e+00	0	29	0	1178599424	54	6900
2026-01-14 20:33:35.65	323.33	3.73	-41.2	-42.8	18.7	0.00e+00	82	29	0	1180696576	54	7026
2026-01-14 20:33:36.66	323.24	3.68	-41.0	-42.5	18.9	0.00e+00	91	29	0	1182793728	54	6831
2026-01-14 20:33:37.67	323.14	3.62	-41.1	-42.7	18.9	0.00e+00	3	29	0	1183842304	54	6963
2026-01-14 20:33:38.68	323.05	3.57	-41.2	-42.9	18.5	0.00e+00	89	29	0	1185939456	54	7127
2026-01-14 20:33:39.69	322.96	3.52	-41.3	-42.9	18.5	0.00e+00	0	29	0	1188036608	54	7151
2026-01-14 20:33:40.70	322.86	3.47	-41.4	-43.1	18.4	0.00e+00	5	29	0	1190133760	54	7261
2026-01-14 20:33:41.71	322.77	3.42	-41.6	-43.4	18.2	0.00e+00	0	29	0	1192230912	56	6720
2026-01-14 20:33:42.72	322.68	3.36	-41.5	-43.2	18.3	0.00e+00	0	29	0	1193279488	56	6594
2026-01-14 20:33:43.73	322.59	3.31	-41.5	-43.2	18.3	0.00e+00	92	29	0	1195376640	56	6605
2026-01-14 20:33:44.74	322.50	3.26	-41.5	-43.2	18.3	0.00e+00	0	29	0	1197473792	56	6599
