passes_logs/2026/01/14/R4.6S_Anadyr/R4.6S_Anadyr__20260114_211057_NOAA_21_JPSS-2_rec.log

#Pass ID: 20260114_211057_NOAA 21 (JPSS-2)
#Satellite: NOAA 21 (JPSS-2)
#Configuration: NOAA-21
#almurnet v.1.7.20251203
#Start time: 2026-01-14 21:10:58

#Version: 2.2.20231116
#Station: R4.6S_Anadyr
#Location: 177.4865 lon 64.73178 lat
#TLE: 1 54234U 22150A   26014.58979933  .00000039  00000+0  39403-4 0  9998
#TLE: 2 54234  98.7497 315.4945 0000653 294.6373  65.4735 14.19534652164756

#Time	Az	El	Level	Level2	SNR	BER	BlckErr	Temp	State	Recorded	gain1	gain2
2026-01-14 21:10:58.95	84.99	0.10	-48.8	-63.7	3.6	1.51e+00	0	26	0	0	60	55514
2026-01-14 21:10:59.96	84.92	0.15	-48.7	-61.6	3.5	1.52e+00	0	28	104	0	60	42181
2026-01-14 21:11:00.97	84.86	0.20	-48.8	-61.6	3.5	1.52e+00	0	28	104	0	60	42322
2026-01-14 21:11:01.98	84.79	0.26	-48.8	-61.7	3.5	1.51e+00	0	28	104	0	60	42455
2026-01-14 21:11:02.99	84.73	0.31	-48.8	-61.6	3.5	1.51e+00	0	28	104	0	60	42322
2026-01-14 21:11:04.00	84.66	0.36	-48.8	-61.7	3.5	1.52e+00	0	28	104	0	60	42470
2026-01-14 21:11:05.01	84.59	0.41	-48.8	-61.6	3.5	1.52e+00	0	28	104	0	60	42332
2026-01-14 21:11:06.02	84.53	0.47	-48.8	-61.6	3.5	1.52e+00	0	28	104	0	60	42330
2026-01-14 21:11:07.02	84.46	0.52	-48.7	-61.7	3.5	1.51e+00	0	28	104	0	60	42705
2026-01-14 21:11:08.03	84.39	0.57	-48.8	-61.6	3.5	1.52e+00	0	28	104	0	60	42287
2026-01-14 21:11:09.04	84.33	0.63	-48.8	-61.7	3.5	1.51e+00	0	28	104	0	60	42558
2026-01-14 21:11:10.05	84.26	0.68	-48.9	-61.7	3.5	1.52e+00	0	28	104	0	60	42782
2026-01-14 21:11:11.06	84.19	0.73	-48.7	-61.6	3.5	1.51e+00	0	28	104	0	60	42298
2026-01-14 21:11:12.07	84.12	0.78	-48.5	-61.4	3.5	1.52e+00	0	28	104	0	60	41225
2026-01-14 21:11:13.08	84.05	0.84	-48.1	-61.3	3.5	1.51e+00	0	28	104	0	60	40877
2026-01-14 21:11:14.09	83.99	0.89	-48.0	-60.8	3.5	1.52e+00	0	28	104	0	60	38666
2026-01-14 21:11:15.10	83.92	0.94	-47.6	-60.5	3.5	1.52e+00	0	28	104	0	60	37285
2026-01-14 21:11:16.11	83.85	1.00	-46.9	-60.0	3.5	1.52e+00	0	28	104	0	60	35031
2026-01-14 21:11:17.12	83.78	1.05	-46.8	-60.0	3.5	1.51e+00	0	28	104	0	60	35021
2026-01-14 21:11:18.13	83.71	1.11	-46.8	-59.9	3.5	1.52e+00	0	28	104	0	60	34711
2026-01-14 21:11:19.14	83.64	1.16	-46.8	-59.9	3.5	1.52e+00	0	28	104	0	60	34820
2026-01-14 21:11:20.15	83.57	1.21	-46.8	-59.9	3.5	1.51e+00	0	28	104	0	60	34594
2026-01-14 21:11:21.16	83.50	1.27	-46.8	-59.9	3.5	1.52e+00	0	28	104	0	60	34870
2026-01-14 21:11:22.17	83.43	1.32	-46.8	-60.0	3.5	1.52e+00	0	28	104	0	60	34958
2026-01-14 21:11:23.18	83.36	1.37	-46.8	-59.9	3.5	1.52e+00	0	28	104	0	60	34861
2026-01-14 21:11:24.19	83.29	1.43	-46.8	-59.9	3.5	1.52e+00	0	28	104	0	60	34567
2026-01-14 21:11:25.20	83.21	1.48	-46.8	-59.9	3.5	1.52e+00	0	28	104	0	60	34745
2026-01-14 21:11:26.21	83.14	1.54	-46.8	-59.9	3.5	1.52e+00	0	28	104	0	60	34511
2026-01-14 21:11:27.22	83.07	1.59	-46.8	-59.9	3.5	1.52e+00	0	28	104	0	60	34588
2026-01-14 21:11:28.23	83.00	1.64	-46.8	-59.9	3.5	1.52e+00	0	28	104	0	60	34636
2026-01-14 21:11:29.24	82.92	1.70	-46.8	-60.0	3.5	1.52e+00	0	28	104	0	60	34897
2026-01-14 21:11:30.25	82.85	1.75	-46.8	-60.0	3.5	1.52e+00	0	28	104	0	60	34920
2026-01-14 21:11:31.26	82.78	1.81	-46.8	-60.0	3.5	1.51e+00	0	28	104	0	60	34936
2026-01-14 21:11:32.26	82.71	1.86	-46.8	-59.9	3.5	1.52e+00	0	28	104	0	60	34855
2026-01-14 21:11:33.27	82.63	1.91	-46.8	-60.0	3.5	1.52e+00	0	28	104	0	60	34906
2026-01-14 21:11:34.28	82.56	1.97	-46.8	-59.8	3.5	1.52e+00	0	28	104	0	60	34227
2026-01-14 21:11:35.29	82.48	2.02	-46.8	-59.7	3.5	1.52e+00	0	28	104	0	60	33996
2026-01-14 21:11:36.30	82.41	2.08	-46.8	-59.5	3.5	1.52e+00	0	28	104	0	60	33312
2026-01-14 21:11:37.31	82.33	2.13	-46.8	-59.5	3.5	1.52e+00	0	28	104	0	60	33040
2026-01-14 21:11:38.32	82.26	2.19	-46.8	-59.4	3.5	1.52e+00	0	28	104	0	60	32679
2026-01-14 21:11:39.33	82.18	2.24	-46.8	-59.5	3.5	1.52e+00	0	28	104	0	60	33080
2026-01-14 21:11:40.34	82.11	2.30	-46.8	-59.8	3.5	1.52e+00	0	28	104	0	60	34237
2026-01-14 21:11:41.35	82.03	2.35	-46.8	-59.9	3.5	1.51e+00	0	28	104	0	60	34762
2026-01-14 21:11:42.36	81.96	2.41	-46.8	-59.9	3.5	1.52e+00	0	29	104	0	60	34848
2026-01-14 21:11:43.37	81.88	2.46	-46.8	-59.9	3.5	1.52e+00	0	28	104	0	60	34610
2026-01-14 21:11:44.38	81.80	2.52	-46.8	-59.9	3.5	1.52e+00	0	29	104	0	60	34645
2026-01-14 21:11:45.39	81.73	2.57	-46.8	-60.0	3.5	1.52e+00	0	28	104	0	60	34982
2026-01-14 21:11:46.40	81.65	2.63	-46.8	-59.9	3.5	1.52e+00	0	29	104	0	60	34523
2026-01-14 21:11:47.41	81.57	2.68	-46.8	-59.4	3.5	1.51e+00	0	29	104	0	60	32910
2026-01-14 21:11:48.42	81.49	2.74	-46.8	-58.8	3.5	1.51e+00	0	29	104	0	60	30741
2026-01-14 21:11:49.42	81.41	2.79	-46.7	-58.5	3.5	1.51e+00	0	29	104	0	60	29487
2026-01-14 21:11:50.44	81.34	2.85	-46.8	-59.0	3.5	1.51e+00	0	28	104	0	60	31359
2026-01-14 21:11:51.44	81.26	2.90	-46.8	-59.4	3.5	1.51e+00	0	28	104	0	60	32891
2026-01-14 21:11:52.45	81.18	2.96	-46.6	-57.3	3.6	1.51e+00	0	28	104	0	60	25691
2026-01-14 21:11:53.46	81.10	3.01	-45.9	-53.0	6.6	4.33e-01	122	28	104	0	60	15703
2026-01-14 21:11:54.47	81.02	3.07	-44.6	-48.4	10.5	2.01e-02	123	29	0	2097152	60	9239
2026-01-14 21:11:55.48	80.94	3.13	-43.3	-46.1	13.1	1.45e-04	123	28	0	5242880	60	7091
2026-01-14 21:11:56.49	80.86	3.18	-42.0	-44.2	15.0	7.00e-07	123	29	0	8388608	58	6405
2026-01-14 21:11:57.50	80.78	3.24	-42.1	-44.3	14.7	0.00e+00	121	29	0	11534336	58	6490
2026-01-14 21:11:58.51	80.70	3.29	-44.4	-48.1	9.6	1.23e-04	122	29	0	14680064	60	8961
2026-01-14 21:11:59.52	80.61	3.35	-42.4	-45.2	14.9	7.97e-01	123	29	104	15728640	60	6367
2026-01-14 21:12:00.53	80.53	3.41	-39.3	-40.8	18.9	3.36e-04	123	29	0	17825792	54	5420
2026-01-14 21:12:01.54	80.45	3.46	-40.2	-41.9	15.8	0.00e+00	123	29	0	20971520	50	7759
2026-01-14 21:12:02.55	80.37	3.52	-46.0	-52.9	4.3	1.51e+00	0	29	104	20971520	60	15558
2026-01-14 21:12:03.55	80.29	3.57	-38.1	-39.7	18.6	0.00e+00	122	29	104	20971520	50	6049
2026-01-14 21:12:04.56	80.20	3.63	-38.1	-39.4	19.8	0.00e+00	123	28	0	23068672	50	5822
2026-01-14 21:12:05.57	80.12	3.69	-37.8	-39.0	20.1	0.00e+00	123	29	0	26214400	48	6242
2026-01-14 21:12:06.58	80.03	3.74	-38.0	-39.3	19.9	0.00e+00	123	29	0	29360128	48	6445
2026-01-14 21:12:07.59	79.95	3.80	-38.0	-39.2	19.9	0.00e+00	122	29	0	32505856	48	6373
2026-01-14 21:12:08.60	79.87	3.86	-37.5	-38.7	20.4	0.00e+00	123	28	0	35651584	48	6026
2026-01-14 21:12:09.61	79.78	3.91	-37.7	-38.8	20.2	0.00e+00	123	28	0	38797312	48	6131
2026-01-14 21:12:10.62	79.70	3.97	-38.0	-39.3	20.0	0.00e+00	123	29	0	41943040	48	6440
2026-01-14 21:12:11.63	79.61	4.03	-37.8	-39.0	20.1	0.00e+00	122	29	0	45088768	48	6239
2026-01-14 21:12:12.64	79.52	4.08	-37.6	-38.7	20.3	0.00e+00	123	29	0	48234496	48	6047
2026-01-14 21:12:13.65	79.44	4.14	-37.5	-38.7	20.4	0.00e+00	123	29	0	51380224	48	6015
2026-01-14 21:12:14.66	79.35	4.20	-37.8	-39.0	20.2	0.00e+00	123	29	0	54525952	48	6219
2026-01-14 21:12:15.67	79.27	4.25	-37.6	-38.8	20.3	0.00e+00	123	29	0	57671680	48	6084
2026-01-14 21:12:16.68	79.18	4.31	-37.7	-38.8	20.2	0.00e+00	123	29	0	60817408	48	6131
2026-01-14 21:12:17.69	79.09	4.37	-37.8	-39.0	20.1	0.00e+00	122	29	0	63963136	48	6225
2026-01-14 21:12:18.69	79.00	4.42	-37.7	-38.9	20.2	0.00e+00	123	29	0	67108864	48	6182
2026-01-14 21:12:19.70	78.92	4.48	-37.6	-38.8	20.4	0.00e+00	122	29	0	70254592	48	6069
2026-01-14 21:12:20.71	78.83	4.54	-37.7	-38.9	20.3	0.00e+00	123	29	0	73400320	48	6141
2026-01-14 21:12:21.72	78.74	4.59	-37.7	-38.9	20.3	0.00e+00	123	29	0	76546048	48	6140
2026-01-14 21:12:22.73	78.65	4.65	-37.4	-38.6	20.6	0.00e+00	120	29	0	79691776	48	5949
2026-01-14 21:12:23.74	78.56	4.71	-37.4	-38.5	20.5	0.00e+00	123	29	0	82837504	48	5924
2026-01-14 21:12:24.75	78.47	4.77	-37.5	-38.7	20.5	0.00e+00	121	29	0	85983232	48	6033
2026-01-14 21:12:25.76	78.38	4.82	-37.6	-38.8	20.4	0.00e+00	123	29	0	89128960	48	6103
2026-01-14 21:12:26.77	78.29	4.88	-37.5	-38.6	20.6	0.00e+00	122	29	0	92274688	48	5969
2026-01-14 21:12:27.79	78.19	4.94	-37.5	-38.7	20.5	0.00e+00	123	29	0	95420416	48	6034
2026-01-14 21:12:28.80	78.10	5.00	-37.4	-38.6	20.6	0.00e+00	120	29	0	98566144	48	5931
2026-01-14 21:12:29.80	78.01	5.05	-37.4	-38.6	20.7	0.00e+00	121	29	0	101711872	48	5950
2026-01-14 21:12:30.82	77.92	5.11	-37.4	-38.6	20.6	0.00e+00	122	29	0	105906176	48	5958
2026-01-14 21:12:31.83	77.83	5.17	-37.5	-38.6	20.7	0.00e+00	122	29	0	108003328	48	5971
2026-01-14 21:12:32.84	77.73	5.23	-37.2	-38.4	20.9	0.00e+00	123	29	0	111149056	48	5811
2026-01-14 21:12:33.84	77.64	5.29	-37.2	-38.3	20.9	0.00e+00	123	29	0	114294784	48	5749
2026-01-14 21:12:34.85	77.55	5.34	-37.3	-38.4	20.9	0.00e+00	122	29	0	117440512	48	5839
2026-01-14 21:12:35.86	77.45	5.40	-37.3	-38.4	20.9	0.00e+00	123	29	0	120586240	48	5848
2026-01-14 21:12:36.87	77.36	5.46	-37.0	-38.1	21.1	0.00e+00	123	29	0	124780544	48	5634
2026-01-14 21:12:37.88	77.26	5.52	-37.0	-38.1	21.2	0.00e+00	122	29	0	127926272	48	5604
2026-01-14 21:12:38.89	77.17	5.58	-37.0	-38.1	21.2	0.00e+00	122	29	0	130023424	48	5615
2026-01-14 21:12:39.90	77.07	5.63	-37.0	-38.1	21.2	0.00e+00	123	29	0	133169152	48	5607
2026-01-14 21:12:40.91	76.98	5.69	-37.0	-38.0	21.2	0.00e+00	123	29	0	136314880	48	5590
2026-01-14 21:12:41.92	76.88	5.75	-36.9	-38.0	21.3	0.00e+00	120	29	0	140509184	48	5577
2026-01-14 21:12:42.93	76.78	5.81	-37.1	-38.2	21.2	0.00e+00	123	29	0	143654912	48	5703
2026-01-14 21:12:43.94	76.68	5.87	-37.1	-38.2	21.1	0.00e+00	120	29	0	146800640	48	5699
2026-01-14 21:12:44.95	76.59	5.93	-37.0	-38.1	21.2	0.00e+00	122	29	0	149946368	48	5637
2026-01-14 21:12:45.96	76.49	5.98	-37.1	-38.2	21.1	0.00e+00	123	29	0	153092096	48	5682
2026-01-14 21:12:46.96	76.39	6.04	-37.0	-38.1	21.2	0.00e+00	120	29	0	155189248	48	5604
2026-01-14 21:12:47.97	76.29	6.10	-37.2	-38.3	21.0	0.00e+00	120	29	0	159383552	48	5753
2026-01-14 21:12:48.98	76.19	6.16	-37.3	-38.4	20.9	0.00e+00	123	29	0	162529280	48	5830
2026-01-14 21:12:49.99	76.09	6.22	-37.2	-38.3	21.0	0.00e+00	121	29	0	165675008	48	5743
2026-01-14 21:12:51.00	75.99	6.28	-37.3	-38.5	20.9	0.00e+00	122	29	0	168820736	48	5884
2026-01-14 21:12:52.01	75.89	6.34	-37.4	-38.5	20.8	0.00e+00	123	29	0	171966464	48	5880
2026-01-14 21:12:53.02	75.79	6.39	-37.1	-38.2	21.2	0.00e+00	123	29	0	175112192	48	5686
2026-01-14 21:12:54.03	75.69	6.45	-37.1	-38.2	21.1	0.00e+00	122	29	0	178257920	48	5685
2026-01-14 21:12:55.04	75.59	6.51	-37.2	-38.3	21.1	0.00e+00	123	29	0	181403648	48	5759
2026-01-14 21:12:56.05	75.49	6.57	-37.2	-38.3	21.1	0.00e+00	123	29	0	184549376	48	5789
2026-01-14 21:12:57.06	75.38	6.63	-37.1	-38.2	21.2	0.00e+00	123	29	0	187695104	48	5679
2026-01-14 21:12:58.07	75.28	6.69	-37.1	-38.2	21.2	0.00e+00	123	29	0	190840832	48	5692
2026-01-14 21:12:59.08	75.18	6.75	-37.0	-38.1	21.3	0.00e+00	122	29	0	193986560	48	5598
2026-01-14 21:13:00.09	75.07	6.81	-37.0	-38.1	21.3	0.00e+00	120	29	0	197132288	48	5632
2026-01-14 21:13:01.09	74.97	6.87	-36.9	-38.0	21.4	0.00e+00	123	29	0	200278016	48	5569
2026-01-14 21:13:02.10	74.86	6.93	-37.0	-38.1	21.3	0.00e+00	123	29	0	203423744	48	5623
2026-01-14 21:13:03.12	74.76	6.99	-37.1	-38.1	21.2	0.00e+00	123	29	0	206569472	48	5657
2026-01-14 21:13:04.13	74.65	7.05	-37.1	-38.2	21.3	0.00e+00	120	29	0	209715200	48	5683
2026-01-14 21:13:05.14	74.55	7.11	-37.0	-38.1	21.4	0.00e+00	123	29	0	212860928	48	5628
2026-01-14 21:13:06.15	74.44	7.16	-36.8	-37.8	21.5	0.00e+00	122	29	0	216006656	48	5465
2026-01-14 21:13:07.15	74.33	7.22	-36.8	-37.9	21.5	0.00e+00	123	29	0	219152384	46	6139
2026-01-14 21:13:08.17	74.22	7.28	-36.8	-37.9	21.5	0.00e+00	122	29	0	222298112	46	6155
2026-01-14 21:13:09.18	74.12	7.34	-36.8	-37.9	21.5	0.00e+00	123	29	0	225443840	46	6137
2026-01-14 21:13:10.19	74.01	7.40	-37.0	-38.1	21.4	0.00e+00	123	29	0	228589568	46	6290
2026-01-14 21:13:11.19	73.90	7.46	-36.9	-38.0	21.4	0.00e+00	123	29	0	231735296	46	6224
2026-01-14 21:13:12.20	73.79	7.52	-36.7	-37.8	21.5	0.00e+00	123	29	0	234881024	46	6082
2026-01-14 21:13:13.21	73.68	7.58	-36.9	-37.9	21.4	0.00e+00	123	29	0	238026752	46	6201
2026-01-14 21:13:14.22	73.57	7.64	-36.8	-37.8	21.5	0.00e+00	123	29	0	241172480	46	6119
2026-01-14 21:13:15.23	73.46	7.70	-36.9	-38.0	21.3	0.00e+00	122	29	0	244318208	46	6228
2026-01-14 21:13:16.24	73.35	7.76	-37.0	-38.1	21.3	0.00e+00	123	29	0	247463936	46	6334
2026-01-14 21:13:17.25	73.24	7.82	-36.8	-37.9	21.4	0.00e+00	123	29	0	250609664	46	6175
2026-01-14 21:13:18.26	73.12	7.88	-36.9	-38.0	21.5	0.00e+00	122	29	0	253755392	46	6209
2026-01-14 21:13:19.27	73.01	7.94	-37.0	-38.1	21.4	0.00e+00	120	29	0	256901120	46	6320
2026-01-14 21:13:20.28	72.90	8.00	-36.9	-38.0	21.6	0.00e+00	122	29	0	260046848	46	6245
2026-01-14 21:13:21.29	72.78	8.06	-36.7	-37.7	21.7	0.00e+00	120	29	0	263192576	46	6027
2026-01-14 21:13:22.30	72.67	8.12	-36.6	-37.7	21.9	0.00e+00	123	29	0	266338304	46	6007
2026-01-14 21:13:23.31	72.56	8.18	-36.5	-37.5	22.0	0.00e+00	122	29	0	269484032	46	5899
2026-01-14 21:13:24.31	72.44	8.24	-36.4	-37.4	22.0	0.00e+00	122	29	0	272629760	46	5819
2026-01-14 21:13:25.32	72.33	8.30	-36.4	-37.5	21.9	0.00e+00	123	29	0	275775488	46	5884
2026-01-14 21:13:26.34	72.21	8.36	-36.4	-37.4	21.9	0.00e+00	122	29	0	278921216	46	5837
2026-01-14 21:13:27.34	72.09	8.42	-36.5	-37.6	21.8	0.00e+00	121	29	0	282066944	46	5933
2026-01-14 21:13:28.35	71.98	8.48	-36.3	-37.3	22.0	0.00e+00	122	29	0	285212672	46	5752
2026-01-14 21:13:29.36	71.86	8.54	-36.3	-37.3	22.0	0.00e+00	122	29	0	288358400	46	5780
2026-01-14 21:13:30.37	71.74	8.60	-36.5	-37.6	21.8	0.00e+00	120	29	0	291504128	46	5958
2026-01-14 21:13:31.38	71.62	8.66	-36.6	-37.6	21.8	0.00e+00	123	29	0	294649856	46	5991
2026-01-14 21:13:32.39	71.50	8.72	-36.5	-37.5	21.9	0.00e+00	123	29	0	297795584	46	5918
2026-01-14 21:13:33.40	71.38	8.78	-36.4	-37.5	22.0	0.00e+00	122	29	0	300941312	46	5873
2026-01-14 21:13:34.41	71.26	8.84	-36.4	-37.4	22.0	0.00e+00	123	29	0	304087040	46	5854
2026-01-14 21:13:35.42	71.14	8.90	-36.2	-37.3	22.2	0.00e+00	122	29	0	307232768	46	5729
2026-01-14 21:13:36.43	71.02	8.97	-35.9	-36.9	22.5	0.00e+00	122	29	0	310378496	46	5526
2026-01-14 21:13:37.44	70.90	9.03	-35.9	-36.9	22.5	0.00e+00	123	29	0	313524224	46	5475
2026-01-14 21:13:38.45	70.78	9.09	-35.9	-37.0	22.5	0.00e+00	120	29	0	316669952	46	5531
2026-01-14 21:13:39.46	70.66	9.15	-35.7	-36.7	22.7	0.00e+00	120	29	0	319815680	46	5388
2026-01-14 21:13:40.47	70.53	9.21	-35.9	-36.9	22.5	0.00e+00	122	29	0	322961408	44	6162
2026-01-14 21:13:41.48	70.41	9.27	-35.8	-36.8	22.5	0.00e+00	122	29	0	326107136	44	6130
2026-01-14 21:13:42.49	70.29	9.33	-35.7	-36.7	22.6	0.00e+00	122	29	0	329252864	44	6051
2026-01-14 21:13:43.50	70.16	9.39	-35.5	-36.5	22.8	0.00e+00	120	29	0	332398592	44	5888
2026-01-14 21:13:44.51	70.04	9.45	-35.5	-36.5	22.8	0.00e+00	123	29	0	335544320	44	5869
2026-01-14 21:13:45.52	69.91	9.51	-35.5	-36.5	22.7	0.00e+00	123	29	0	338690048	44	5897
2026-01-14 21:13:46.53	69.78	9.57	-35.6	-36.6	22.7	0.00e+00	123	29	0	341835776	44	5959
2026-01-14 21:13:47.54	69.66	9.63	-35.5	-36.5	22.8	0.00e+00	123	29	0	344981504	44	5883
2026-01-14 21:13:48.55	69.53	9.69	-35.4	-36.4	22.9	0.00e+00	123	29	0	348127232	44	5824
2026-01-14 21:13:49.55	69.40	9.75	-35.4	-36.4	22.9	0.00e+00	122	29	0	351272960	44	5833
2026-01-14 21:13:50.56	69.27	9.81	-35.4	-36.4	22.9	0.00e+00	120	29	0	354418688	44	5827
2026-01-14 21:13:51.58	69.14	9.87	-35.4	-36.4	22.9	0.00e+00	123	29	0	357564416	44	5832
2026-01-14 21:13:52.59	69.01	9.94	-35.3	-36.2	23.0	0.00e+00	123	29	0	360710144	44	5714
2026-01-14 21:13:53.59	68.89	10.00	-35.2	-36.2	23.1	0.00e+00	122	29	0	363855872	44	5677
2026-01-14 21:13:54.60	68.75	10.06	-35.3	-36.2	23.0	0.00e+00	122	29	0	367001600	44	5705
2026-01-14 21:13:55.61	68.62	10.12	-35.2	-36.2	23.1	0.00e+00	123	29	0	370147328	44	5669
2026-01-14 21:13:56.62	68.49	10.18	-35.2	-36.2	23.0	0.00e+00	123	29	0	373293056	44	5683
2026-01-14 21:13:57.63	68.36	10.24	-35.1	-36.1	23.1	0.00e+00	122	29	0	376438784	44	5607
2026-01-14 21:13:58.64	68.23	10.30	-35.1	-36.0	23.2	0.00e+00	123	29	0	379584512	44	5564
2026-01-14 21:13:59.65	68.09	10.36	-35.1	-36.0	23.2	0.00e+00	123	29	0	382730240	44	5582
2026-01-14 21:14:00.66	67.96	10.42	-35.0	-35.9	23.3	0.00e+00	122	29	0	385875968	44	5524
2026-01-14 21:14:01.67	67.82	10.48	-35.1	-36.1	23.1	0.00e+00	122	29	0	389021696	44	5610
2026-01-14 21:14:02.68	67.69	10.54	-35.2	-36.1	23.0	0.00e+00	123	29	0	392167424	44	5653
2026-01-14 21:14:03.69	67.55	10.60	-35.2	-36.1	23.1	0.00e+00	123	29	0	395313152	44	5654
2026-01-14 21:14:04.70	67.42	10.66	-35.1	-36.1	23.1	0.00e+00	123	29	0	398458880	44	5615
2026-01-14 21:14:05.71	67.28	10.72	-35.2	-36.2	23.2	0.00e+00	120	29	0	401604608	44	5672
2026-01-14 21:14:06.72	67.14	10.79	-35.0	-35.9	23.4	0.00e+00	122	29	0	404750336	44	5517
2026-01-14 21:14:07.72	67.01	10.85	-35.0	-35.9	23.4	0.00e+00	123	29	0	407896064	44	5493
2026-01-14 21:14:08.73	66.87	10.91	-35.0	-35.9	23.4	0.00e+00	123	29	0	411041792	44	5521
2026-01-14 21:14:09.74	66.73	10.97	-35.1	-36.0	23.3	0.00e+00	120	29	0	414187520	44	5592
2026-01-14 21:14:10.76	66.59	11.03	-35.0	-36.0	23.4	0.00e+00	123	29	0	417333248	44	5537
2026-01-14 21:14:11.77	66.45	11.09	-35.0	-35.9	23.4	0.00e+00	120	29	0	420478976	44	5507
2026-01-14 21:14:12.78	66.31	11.15	-35.0	-35.9	23.4	0.00e+00	123	29	0	423624704	44	5506
2026-01-14 21:14:13.79	66.16	11.21	-34.8	-35.8	23.5	0.00e+00	120	29	0	426770432	44	5430
2026-01-14 21:14:14.80	66.02	11.27	-35.0	-36.0	23.4	0.00e+00	123	29	0	429916160	44	5532
2026-01-14 21:14:15.81	65.88	11.33	-34.8	-35.7	23.5	0.00e+00	120	29	0	433061888	44	5395
2026-01-14 21:14:16.82	65.74	11.39	-34.8	-35.7	23.6	0.00e+00	122	29	0	436207616	44	5388
2026-01-14 21:14:17.83	65.59	11.45	-34.8	-35.7	23.7	0.00e+00	123	29	0	439353344	44	5371
2026-01-14 21:14:18.84	65.45	11.51	-34.9	-35.8	23.5	0.00e+00	123	29	0	442499072	42	6104
2026-01-14 21:14:19.84	65.30	11.57	-34.8	-35.8	23.6	0.00e+00	122	29	0	445644800	42	6078
2026-01-14 21:14:20.85	65.16	11.63	-34.9	-35.9	23.5	0.00e+00	123	29	0	448790528	42	6151
2026-01-14 21:14:21.86	65.01	11.69	-35.0	-36.0	23.4	0.00e+00	123	29	0	451936256	42	6230
2026-01-14 21:14:22.87	64.86	11.75	-34.9	-35.8	23.5	0.00e+00	121	29	0	455081984	42	6119
2026-01-14 21:14:23.88	64.72	11.81	-34.9	-35.9	23.5	0.00e+00	123	29	0	458227712	42	6135
2026-01-14 21:14:24.89	64.57	11.87	-35.0	-36.0	23.4	0.00e+00	120	29	0	461373440	42	6217
2026-01-14 21:14:25.90	64.42	11.93	-35.1	-36.0	23.3	0.00e+00	122	29	0	464519168	42	6253
2026-01-14 21:14:26.91	64.27	11.99	-35.1	-36.1	23.3	0.00e+00	120	29	0	467664896	42	6282
2026-01-14 21:14:27.93	64.12	12.05	-35.1	-36.1	23.3	0.00e+00	123	29	0	470810624	42	6304
2026-01-14 21:14:28.94	63.97	12.11	-35.2	-36.1	23.3	0.00e+00	120	29	0	473956352	42	6336
2026-01-14 21:14:29.95	63.82	12.17	-35.1	-36.1	23.4	0.00e+00	123	29	0	477102080	42	6282
2026-01-14 21:14:30.95	63.67	12.23	-35.1	-36.0	23.5	0.00e+00	122	29	0	480247808	42	6270
2026-01-14 21:14:31.96	63.51	12.29	-35.1	-36.1	23.4	0.00e+00	120	29	0	483393536	42	6299
2026-01-14 21:14:32.97	63.36	12.35	-34.9	-35.9	23.5	0.00e+00	123	29	0	487587840	42	6159
2026-01-14 21:14:33.98	63.21	12.41	-34.9	-35.8	23.6	0.00e+00	123	29	0	490733568	42	6092
2026-01-14 21:14:34.99	63.05	12.47	-34.9	-35.9	23.5	0.00e+00	122	29	0	493879296	42	6143
2026-01-14 21:14:36.00	62.90	12.53	-34.9	-35.9	23.5	0.00e+00	122	29	0	495976448	42	6149
2026-01-14 21:14:37.01	62.74	12.59	-35.0	-36.0	23.4	0.00e+00	120	29	0	499122176	42	6228
2026-01-14 21:14:38.02	62.58	12.65	-35.0	-36.0	23.4	0.00e+00	122	29	0	503316480	42	6229
2026-01-14 21:14:39.03	62.43	12.71	-34.9	-35.9	23.5	0.00e+00	122	29	0	506462208	42	6154
2026-01-14 21:14:40.04	62.27	12.77	-34.9	-35.9	23.6	0.00e+00	120	29	0	509607936	42	6139
2026-01-14 21:14:41.05	62.11	12.83	-34.9	-35.9	23.5	0.00e+00	123	29	0	512753664	42	6141
2026-01-14 21:14:42.06	61.95	12.89	-34.9	-35.8	23.6	0.00e+00	120	29	0	515899392	42	6122
2026-01-14 21:14:43.07	61.79	12.95	-35.0	-35.9	23.4	0.00e+00	123	29	0	519045120	42	6175
2026-01-14 21:14:44.08	61.63	13.01	-35.0	-35.9	23.4	0.00e+00	122	29	0	522190848	42	6191
2026-01-14 21:14:45.09	61.47	13.07	-35.2	-36.1	23.3	0.00e+00	123	29	0	525336576	42	6329
2026-01-14 21:14:46.10	61.31	13.13	-35.1	-36.0	23.2	0.00e+00	123	29	0	528482304	42	6268
2026-01-14 21:14:47.11	61.15	13.19	-35.3	-36.3	23.2	0.00e+00	122	29	0	531628032	42	6431
2026-01-14 21:14:48.12	60.99	13.24	-35.3	-36.2	23.1	0.00e+00	120	29	0	534773760	42	6399
2026-01-14 21:14:49.12	60.82	13.30	-35.1	-36.0	23.3	0.00e+00	123	29	0	537919488	42	6251
2026-01-14 21:14:50.13	60.66	13.36	-35.1	-36.1	23.2	0.00e+00	120	29	0	541065216	42	6309
2026-01-14 21:14:51.14	60.49	13.42	-35.1	-36.1	23.2	0.00e+00	120	29	0	544210944	42	6311
2026-01-14 21:14:52.15	60.33	13.48	-35.2	-36.1	23.3	0.00e+00	123	29	0	547356672	42	6329
2026-01-14 21:14:53.16	60.16	13.54	-35.0	-35.9	23.4	0.00e+00	122	29	0	550502400	42	6187
2026-01-14 21:14:54.17	60.00	13.59	-35.0	-36.0	23.4	0.00e+00	123	29	0	553648128	42	6227
2026-01-14 21:14:55.18	59.83	13.65	-35.2	-36.1	23.4	0.00e+00	122	29	0	556793856	42	6350
2026-01-14 21:14:56.19	59.66	13.71	-35.1	-36.0	23.4	0.00e+00	120	29	0	559939584	42	6256
2026-01-14 21:14:57.20	59.49	13.77	-35.2	-36.1	23.3	0.00e+00	123	29	0	563085312	42	6332
2026-01-14 21:14:58.21	59.32	13.83	-35.2	-36.1	23.3	0.00e+00	123	29	0	566231040	42	6328
2026-01-14 21:14:59.22	59.15	13.88	-35.3	-36.3	23.3	0.00e+00	120	29	0	569376768	42	6449
2026-01-14 21:15:00.23	58.98	13.94	-35.2	-36.2	23.4	0.00e+00	122	29	0	572522496	42	6391
2026-01-14 21:15:01.24	58.81	14.00	-35.2	-36.2	23.3	0.00e+00	122	29	0	575668224	42	6381
2026-01-14 21:15:02.25	58.64	14.06	-35.2	-36.2	23.3	0.00e+00	122	29	0	578813952	42	6358
2026-01-14 21:15:03.26	58.46	14.11	-35.2	-36.2	23.3	0.00e+00	123	29	0	581959680	42	6378
2026-01-14 21:15:04.27	58.29	14.17	-35.2	-36.1	23.4	0.00e+00	123	29	0	585105408	42	6332
2026-01-14 21:15:05.28	58.12	14.23	-35.0	-36.0	23.6	0.00e+00	122	29	0	588251136	42	6230
2026-01-14 21:15:06.29	57.94	14.28	-35.1	-36.0	23.5	0.00e+00	120	29	0	591396864	42	6247
2026-01-14 21:15:07.30	57.77	14.34	-35.0	-35.9	23.6	0.00e+00	123	29	0	594542592	42	6176
2026-01-14 21:15:08.31	57.59	14.40	-35.0	-36.0	23.5	0.00e+00	123	29	0	597688320	42	6233
2026-01-14 21:15:09.32	57.41	14.45	-35.2	-36.1	23.4	0.00e+00	123	29	0	600834048	42	6320
2026-01-14 21:15:10.33	57.24	14.51	-35.1	-36.1	23.5	0.00e+00	123	29	0	603979776	42	6294
2026-01-14 21:15:11.34	57.06	14.57	-35.1	-36.0	23.5	0.00e+00	122	29	0	607125504	42	6272
2026-01-14 21:15:12.35	56.88	14.62	-35.0	-35.9	23.6	0.00e+00	120	29	0	610271232	42	6200
2026-01-14 21:15:13.36	56.70	14.68	-35.1	-36.0	23.5	0.00e+00	122	29	0	613416960	42	6244
2026-01-14 21:15:14.37	56.52	14.73	-35.0	-35.9	23.6	0.00e+00	122	29	0	616562688	42	6169
2026-01-14 21:15:15.38	56.34	14.79	-35.0	-36.0	23.5	0.00e+00	122	29	0	619708416	42	6214
2026-01-14 21:15:16.39	56.16	14.84	-35.0	-35.9	23.5	0.00e+00	122	29	0	622854144	42	6188
2026-01-14 21:15:17.40	55.97	14.90	-35.0	-36.0	23.5	0.00e+00	123	29	0	625999872	42	6215
2026-01-14 21:15:18.41	55.79	14.95	-35.2	-36.1	23.4	0.00e+00	123	29	0	629145600	42	6318
2026-01-14 21:15:19.42	55.61	15.01	-35.2	-36.1	23.4	0.00e+00	122	29	0	632291328	42	6333
2026-01-14 21:15:20.43	55.42	15.06	-35.2	-36.2	23.3	0.00e+00	122	29	0	635437056	42	6376
2026-01-14 21:15:21.44	55.24	15.12	-35.3	-36.2	23.4	0.00e+00	120	29	0	638582784	42	6390
2026-01-14 21:15:22.44	55.05	15.17	-35.2	-36.1	23.4	0.00e+00	123	29	0	641728512	42	6340
2026-01-14 21:15:23.45	54.87	15.22	-35.3	-36.3	23.3	0.00e+00	123	29	0	644874240	42	6442
2026-01-14 21:15:24.46	54.68	15.28	-35.1	-36.1	23.4	0.00e+00	122	29	0	648019968	42	6302
2026-01-14 21:15:25.47	54.49	15.33	-35.1	-36.1	23.4	0.00e+00	123	29	0	651165696	42	6297
2026-01-14 21:15:26.48	54.30	15.39	-35.1	-36.0	23.5	0.00e+00	120	29	0	654311424	42	6247
2026-01-14 21:15:27.49	54.11	15.44	-35.1	-36.0	23.4	0.00e+00	123	29	0	657457152	42	6271
2026-01-14 21:15:28.50	53.92	15.49	-35.1	-36.0	23.5	0.00e+00	123	29	0	660602880	42	6264
2026-01-14 21:15:29.51	53.73	15.54	-35.2	-36.1	23.4	0.00e+00	120	29	0	663748608	42	6339
2026-01-14 21:15:30.52	53.54	15.60	-35.1	-36.1	23.5	0.00e+00	123	29	0	666894336	42	6283
2026-01-14 21:15:31.53	53.35	15.65	-35.1	-36.1	23.5	0.00e+00	123	29	0	670040064	42	6294
2026-01-14 21:15:32.54	53.16	15.70	-35.1	-36.1	23.4	0.00e+00	123	29	0	673185792	42	6301
2026-01-14 21:15:33.55	52.96	15.75	-34.8	-35.8	23.7	0.00e+00	122	29	0	676331520	42	6080
2026-01-14 21:15:34.56	52.77	15.81	-34.9	-35.8	23.7	0.00e+00	122	29	0	679477248	42	6095
2026-01-14 21:15:35.57	52.58	15.86	-34.9	-35.8	23.6	0.00e+00	123	29	0	682622976	42	6099
2026-01-14 21:15:36.58	52.38	15.91	-35.1	-36.1	23.5	0.00e+00	120	29	0	685768704	42	6292
2026-01-14 21:15:37.59	52.18	15.96	-34.9	-35.8	23.7	0.00e+00	123	29	0	688914432	42	6095
2026-01-14 21:15:38.60	51.99	16.01	-34.8	-35.8	23.7	0.00e+00	121	29	0	692060160	42	6076
2026-01-14 21:15:39.62	51.79	16.06	-34.7	-35.6	23.9	0.00e+00	123	29	0	695205888	42	5940
2026-01-14 21:15:40.62	51.59	16.11	-34.7	-35.7	23.8	0.00e+00	121	29	0	698351616	42	5997
2026-01-14 21:15:41.64	51.39	16.16	-34.6	-35.6	23.8	0.00e+00	123	29	0	701497344	42	5928
2026-01-14 21:15:42.65	51.19	16.21	-34.7	-35.7	23.7	0.00e+00	120	29	0	704643072	42	6014
2026-01-14 21:15:43.66	50.99	16.26	-34.9	-35.8	23.5	0.00e+00	122	29	0	707788800	42	6103
2026-01-14 21:15:44.67	50.79	16.31	-34.9	-35.8	23.6	0.00e+00	123	29	0	710934528	42	6109
2026-01-14 21:15:45.68	50.59	16.36	-34.9	-35.9	23.5	0.00e+00	122	29	0	714080256	42	6144
2026-01-14 21:15:46.69	50.39	16.41	-35.0	-35.9	23.5	0.00e+00	122	29	0	717225984	42	6200
2026-01-14 21:15:47.70	50.19	16.46	-35.2	-36.2	23.3	0.00e+00	122	29	0	720371712	42	6359
2026-01-14 21:15:48.71	49.98	16.51	-35.0	-36.0	23.4	0.00e+00	123	29	0	723517440	42	6212
2026-01-14 21:15:49.72	49.78	16.55	-35.1	-36.0	23.4	0.00e+00	123	29	0	726663168	42	6269
2026-01-14 21:15:50.73	49.57	16.60	-35.1	-36.0	23.5	0.00e+00	120	29	0	729808896	42	6275
2026-01-14 21:15:51.74	49.37	16.65	-35.1	-36.0	23.6	0.00e+00	122	29	0	732954624	42	6252
2026-01-14 21:15:52.75	49.16	16.70	-35.0	-36.0	23.6	0.00e+00	122	29	0	736100352	42	6228
2026-01-14 21:15:53.76	48.96	16.74	-35.0	-35.9	23.7	0.00e+00	123	29	0	739246080	42	6176
2026-01-14 21:15:54.77	48.75	16.79	-34.9	-35.9	23.7	0.00e+00	123	29	0	742391808	42	6148
2026-01-14 21:15:55.78	48.54	16.84	-34.9	-35.8	23.7	0.00e+00	120	29	0	745537536	42	6132
2026-01-14 21:15:56.79	48.33	16.88	-34.6	-35.5	23.9	0.00e+00	120	29	0	748683264	42	5912
2026-01-14 21:15:57.80	48.12	16.93	-34.6	-35.6	24.0	0.00e+00	121	29	0	751828992	42	5942
2026-01-14 21:15:58.81	47.91	16.97	-34.6	-35.5	24.0	0.00e+00	123	29	0	754974720	42	5888
2026-01-14 21:15:59.82	47.70	17.02	-34.3	-35.2	24.2	0.00e+00	123	29	0	758120448	42	5694
2026-01-14 21:16:00.83	47.49	17.06	-34.4	-35.3	24.1	0.00e+00	123	29	0	761266176	42	5737
2026-01-14 21:16:01.84	47.28	17.11	-34.3	-35.2	24.1	0.00e+00	122	29	0	764411904	42	5698
2026-01-14 21:16:02.85	47.07	17.15	-34.1	-35.0	24.3	0.00e+00	120	29	0	767557632	42	5578
2026-01-14 21:16:03.85	46.86	17.19	-34.3	-35.2	24.1	0.00e+00	122	29	0	770703360	42	5708
2026-01-14 21:16:04.86	46.64	17.24	-34.2	-35.1	24.2	0.00e+00	120	29	0	773849088	42	5615
2026-01-14 21:16:05.87	46.43	17.28	-34.2	-35.2	24.1	0.00e+00	122	29	0	776994816	42	5669
2026-01-14 21:16:06.88	46.21	17.32	-34.1	-35.0	24.3	0.00e+00	123	29	0	780140544	42	5534
2026-01-14 21:16:07.89	46.00	17.37	-34.0	-34.9	24.4	0.00e+00	122	29	0	783286272	42	5509
2026-01-14 21:16:08.90	45.78	17.41	-34.0	-34.9	24.3	0.00e+00	122	29	0	786432000	42	5486
2026-01-14 21:16:09.91	45.57	17.45	-34.0	-34.9	24.3	0.00e+00	120	29	0	789577728	42	5495
2026-01-14 21:16:10.92	45.35	17.49	-33.9	-34.8	24.2	0.00e+00	122	29	0	792723456	42	5435
2026-01-14 21:16:11.93	45.13	17.53	-34.0	-34.9	24.1	0.00e+00	120	29	0	795869184	42	5521
2026-01-14 21:16:12.94	44.91	17.57	-34.1	-35.0	24.2	0.00e+00	123	29	0	799014912	42	5558
2026-01-14 21:16:13.95	44.69	17.61	-34.2	-35.2	24.1	0.00e+00	123	29	0	802160640	42	5660
2026-01-14 21:16:14.95	44.48	17.65	-34.1	-35.0	24.2	0.00e+00	120	29	0	805306368	42	5562
2026-01-14 21:16:15.97	44.25	17.69	-34.1	-35.0	24.3	0.00e+00	122	29	0	808452096	42	5574
2026-01-14 21:16:16.97	44.04	17.73	-34.2	-35.1	24.2	0.00e+00	123	29	0	811597824	42	5629
2026-01-14 21:16:17.98	43.81	17.77	-34.3	-35.2	24.2	0.00e+00	122	29	0	814743552	42	5712
2026-01-14 21:16:18.99	43.59	17.81	-34.2	-35.1	24.3	0.00e+00	123	29	0	817889280	42	5643
2026-01-14 21:16:20.00	43.37	17.85	-34.2	-35.1	24.2	0.00e+00	123	29	0	821035008	42	5653
2026-01-14 21:16:21.01	43.15	17.89	-34.1	-35.0	24.3	0.00e+00	123	29	0	824180736	42	5555
2026-01-14 21:16:22.02	42.92	17.92	-34.2	-35.1	24.2	0.00e+00	123	29	0	828375040	42	5619
2026-01-14 21:16:23.03	42.70	17.96	-34.1	-35.0	24.3	0.00e+00	123	29	0	831520768	42	5556
2026-01-14 21:16:24.04	42.47	18.00	-34.1	-35.0	24.3	0.00e+00	123	29	0	833617920	42	5562
2026-01-14 21:16:25.05	42.25	18.03	-34.1	-35.0	24.3	0.00e+00	120	29	0	836763648	42	5587
2026-01-14 21:16:26.06	42.02	18.07	-33.9	-34.8	24.5	0.00e+00	123	29	0	839909376	42	5419
2026-01-14 21:16:27.06	41.80	18.10	-33.9	-34.8	24.5	0.00e+00	120	29	0	843055104	42	5420
2026-01-14 21:16:28.07	41.57	18.14	-34.0	-34.8	24.3	0.00e+00	122	29	0	847249408	42	5453
2026-01-14 21:16:29.09	41.34	18.17	-33.9	-34.8	24.4	0.00e+00	122	29	0	850395136	42	5455
2026-01-14 21:16:30.10	41.11	18.21	-34.1	-35.0	24.4	0.00e+00	122	29	0	853540864	42	5594
2026-01-14 21:16:31.11	40.89	18.24	-33.8	-34.7	24.5	0.00e+00	123	29	0	856686592	42	5401
2026-01-14 21:16:32.12	40.66	18.27	-33.9	-34.8	24.4	0.00e+00	123	29	0	859832320	42	5419
2026-01-14 21:16:33.12	40.43	18.31	-34.0	-34.9	24.3	0.00e+00	121	29	0	862978048	42	5523
2026-01-14 21:16:34.13	40.20	18.34	-34.0	-34.9	24.3	0.00e+00	120	29	0	866123776	42	5487
2026-01-14 21:16:35.14	39.97	18.37	-34.2	-35.1	24.1	0.00e+00	123	29	0	869269504	42	5630
2026-01-14 21:16:36.15	39.74	18.40	-34.2	-35.1	24.2	0.00e+00	123	29	0	872415232	42	5620
2026-01-14 21:16:37.16	39.51	18.43	-34.1	-35.0	24.2	0.00e+00	120	29	0	875560960	42	5537
2026-01-14 21:16:38.17	39.28	18.46	-34.0	-34.9	24.2	0.00e+00	123	29	0	878706688	42	5519
2026-01-14 21:16:39.18	39.04	18.49	-34.1	-35.0	24.3	0.00e+00	122	29	0	881852416	42	5565
2026-01-14 21:16:40.19	38.81	18.52	-34.2	-35.1	24.2	0.00e+00	120	29	0	884998144	42	5597
2026-01-14 21:16:41.20	38.58	18.55	-34.1	-35.0	24.3	0.00e+00	123	29	0	888143872	42	5564
2026-01-14 21:16:42.21	38.34	18.58	-34.1	-35.0	24.1	0.00e+00	123	29	0	891289600	42	5563
2026-01-14 21:16:43.22	38.11	18.61	-34.2	-35.1	24.1	0.00e+00	123	29	0	894435328	42	5643
2026-01-14 21:16:44.23	37.88	18.64	-34.4	-35.3	24.0	0.00e+00	124	29	0	897581056	42	5777
2026-01-14 21:16:45.24	37.64	18.66	-34.2	-35.1	24.1	0.00e+00	121	29	0	900726784	42	5648
2026-01-14 21:16:46.25	37.41	18.69	-34.4	-35.3	24.1	0.00e+00	123	29	0	903872512	42	5749
2026-01-14 21:16:47.26	37.17	18.72	-34.3	-35.2	24.1	0.00e+00	123	29	0	907018240	42	5697
2026-01-14 21:16:48.28	36.93	18.74	-34.2	-35.1	24.1	0.00e+00	122	29	0	910163968	42	5650
2026-01-14 21:16:49.29	36.70	18.77	-34.3	-35.2	24.2	0.00e+00	120	29	0	913309696	42	5717
2026-01-14 21:16:50.30	36.46	18.79	-34.2	-35.1	24.2	0.00e+00	122	29	0	916455424	42	5625
2026-01-14 21:16:51.31	36.22	18.82	-34.1	-35.0	24.3	0.00e+00	123	29	0	919601152	42	5577
2026-01-14 21:16:52.32	35.98	18.84	-34.2	-35.1	24.2	0.00e+00	123	29	0	922746880	42	5628
2026-01-14 21:16:53.33	35.75	18.86	-34.2	-35.1	24.1	0.00e+00	119	29	0	925892608	42	5627
2026-01-14 21:16:54.33	35.51	18.89	-34.2	-35.1	24.2	0.00e+00	122	29	0	929038336	42	5646
2026-01-14 21:16:55.34	35.27	18.91	-34.3	-35.2	24.1	0.00e+00	123	29	0	932184064	42	5676
2026-01-14 21:16:56.35	35.03	18.93	-34.2	-35.2	24.2	0.00e+00	123	29	0	935329792	42	5662
2026-01-14 21:16:57.36	34.79	18.95	-34.3	-35.2	24.2	0.00e+00	123	29	0	938475520	42	5675
2026-01-14 21:16:58.37	34.55	18.97	-34.2	-35.1	24.3	0.00e+00	122	29	0	941621248	42	5642
2026-01-14 21:16:59.38	34.31	18.99	-34.3	-35.2	24.2	0.00e+00	122	29	0	944766976	42	5703
2026-01-14 21:17:00.39	34.07	19.01	-34.5	-35.4	24.1	0.00e+00	122	29	0	947912704	42	5799
2026-01-14 21:17:01.40	33.83	19.03	-34.5	-35.4	23.9	0.00e+00	122	29	0	951058432	42	5843
2026-01-14 21:17:02.41	33.59	19.05	-34.6	-35.6	23.8	0.00e+00	123	29	0	954204160	42	5946
2026-01-14 21:17:03.41	33.35	19.07	-34.7	-35.6	23.8	0.00e+00	122	29	0	957349888	42	5986
2026-01-14 21:17:04.43	33.11	19.09	-34.7	-35.6	23.9	0.00e+00	123	29	0	960495616	42	5939
2026-01-14 21:17:05.43	32.87	19.11	-34.6	-35.5	23.9	0.00e+00	122	29	0	963641344	42	5917
2026-01-14 21:17:06.44	32.63	19.12	-34.6	-35.5	24.0	0.00e+00	123	29	0	966787072	42	5900
2026-01-14 21:17:07.45	32.38	19.14	-34.4	-35.4	24.1	0.00e+00	122	29	0	969932800	42	5803
2026-01-14 21:17:08.46	32.14	19.16	-34.3	-35.2	24.3	0.00e+00	122	29	0	973078528	42	5665
2026-01-14 21:17:09.47	31.90	19.17	-34.5	-35.4	24.1	0.00e+00	122	29	0	976224256	42	5799
2026-01-14 21:17:10.48	31.65	19.19	-34.3	-35.2	24.2	0.00e+00	122	29	0	979369984	42	5692
2026-01-14 21:17:11.49	31.41	19.20	-34.2	-35.1	24.3	0.00e+00	122	29	0	982515712	42	5619
2026-01-14 21:17:12.50	31.17	19.21	-34.3	-35.2	24.2	0.00e+00	120	29	0	985661440	42	5709
2026-01-14 21:17:13.51	30.92	19.23	-34.4	-35.4	24.1	0.00e+00	123	29	0	988807168	42	5802
2026-01-14 21:17:14.52	30.68	19.24	-34.3	-35.2	24.2	0.00e+00	122	29	0	991952896	42	5708
2026-01-14 21:17:15.53	30.43	19.25	-34.4	-35.3	24.2	0.00e+00	123	29	0	995098624	42	5727
2026-01-14 21:17:16.54	30.19	19.26	-34.3	-35.2	24.3	0.00e+00	123	29	0	998244352	42	5661
2026-01-14 21:17:17.54	29.95	19.27	-34.3	-35.2	24.2	0.00e+00	122	29	0	1001390080	42	5718
2026-01-14 21:17:18.55	29.70	19.28	-34.3	-35.2	24.3	0.00e+00	123	29	0	1004535808	42	5678
2026-01-14 21:17:19.57	29.46	19.29	-34.2	-35.1	24.3	0.00e+00	122	29	0	1007681536	42	5651
2026-01-14 21:17:20.57	29.21	19.30	-34.2	-35.1	24.3	0.00e+00	123	29	0	1010827264	42	5636
2026-01-14 21:17:21.58	28.97	19.31	-34.2	-35.1	24.2	0.00e+00	122	29	0	1013972992	42	5628
2026-01-14 21:17:22.59	28.72	19.32	-34.3	-35.2	24.2	0.00e+00	123	29	0	1017118720	42	5684
2026-01-14 21:17:23.60	28.48	19.33	-34.3	-35.2	24.2	0.00e+00	123	29	0	1020264448	42	5714
2026-01-14 21:17:24.61	28.23	19.34	-34.3	-35.2	24.1	0.00e+00	122	29	0	1023410176	42	5681
2026-01-14 21:17:25.62	27.99	19.34	-34.3	-35.2	24.1	0.00e+00	122	29	0	1026555904	42	5717
2026-01-14 21:17:26.63	27.74	19.35	-34.3	-35.2	24.1	0.00e+00	122	29	0	1029701632	42	5715
2026-01-14 21:17:27.64	27.49	19.35	-34.4	-35.3	24.1	0.00e+00	122	29	0	1032847360	42	5776
2026-01-14 21:17:28.65	27.25	19.36	-34.3	-35.1	24.1	0.00e+00	123	29	0	1035993088	42	5659
2026-01-14 21:17:29.66	27.00	19.36	-34.1	-35.0	24.4	0.00e+00	123	29	0	1039138816	42	5546
2026-01-14 21:17:30.67	26.76	19.37	-34.1	-35.0	24.3	0.00e+00	123	29	0	1042284544	42	5542
2026-01-14 21:17:31.68	26.51	19.37	-34.1	-35.0	24.3	0.00e+00	123	29	0	1045430272	42	5551
2026-01-14 21:17:32.69	26.26	19.37	-34.1	-35.0	24.4	0.00e+00	123	29	0	1048576000	42	5552
2026-01-14 21:17:33.70	26.02	19.38	-34.3	-35.1	24.3	0.00e+00	122	29	0	1051721728	42	5647
2026-01-14 21:17:34.71	25.77	19.38	-33.9	-34.8	24.5	0.00e+00	123	29	0	1054867456	42	5439
2026-01-14 21:17:35.71	25.53	19.38	-34.0	-34.8	24.4	0.00e+00	123	29	0	1058013184	42	5461
2026-01-14 21:17:36.72	25.28	19.38	-34.1	-35.0	24.3	0.00e+00	123	29	0	1061158912	42	5591
2026-01-14 21:17:37.73	25.03	19.38	-34.1	-35.0	24.4	0.00e+00	123	29	0	1064304640	42	5555
2026-01-14 21:17:38.74	24.79	19.38	-34.1	-34.9	24.3	0.00e+00	121	29	0	1067450368	42	5530
2026-01-14 21:17:39.75	24.54	19.38	-34.1	-35.0	24.2	0.00e+00	122	29	0	1070596096	42	5587
2026-01-14 21:17:40.76	24.29	19.38	-34.3	-35.2	24.1	0.00e+00	122	29	0	1073741824	42	5677
2026-01-14 21:17:41.77	24.05	19.37	-34.5	-35.4	24.0	0.00e+00	123	29	0	1076887552	42	5817
2026-01-14 21:17:42.78	23.80	19.37	-34.4	-35.3	24.0	0.00e+00	120	29	0	1080033280	42	5780
2026-01-14 21:17:43.79	23.56	19.37	-34.3	-35.2	24.3	0.00e+00	122	29	0	1083179008	42	5683
2026-01-14 21:17:44.80	23.31	19.36	-34.3	-35.3	24.1	0.00e+00	123	29	0	1086324736	42	5730
2026-01-14 21:17:45.81	23.06	19.36	-34.2	-35.1	24.2	0.00e+00	123	29	0	1089470464	42	5610
2026-01-14 21:17:46.82	22.82	19.35	-34.2	-35.1	24.1	0.00e+00	120	29	0	1092616192	42	5608
2026-01-14 21:17:47.82	22.57	19.35	-34.2	-35.1	24.2	0.00e+00	122	29	0	1095761920	42	5606
2026-01-14 21:17:48.83	22.33	19.34	-34.1	-35.0	24.2	0.00e+00	123	29	0	1098907648	42	5569
2026-01-14 21:17:49.84	22.08	19.34	-34.2	-35.1	24.2	0.00e+00	120	29	0	1102053376	42	5625
2026-01-14 21:17:50.85	21.84	19.33	-34.2	-35.2	24.1	0.00e+00	123	29	0	1105199104	42	5660
2026-01-14 21:17:51.87	21.59	19.32	-34.2	-35.1	24.1	0.00e+00	122	29	0	1108344832	42	5635
2026-01-14 21:17:52.87	21.35	19.31	-34.2	-35.1	24.1	0.00e+00	123	29	0	1111490560	42	5621
2026-01-14 21:17:53.88	21.10	19.30	-34.3	-35.2	24.0	0.00e+00	123	29	0	1114636288	42	5685
2026-01-14 21:17:54.89	20.86	19.29	-34.0	-34.9	24.3	0.00e+00	122	29	0	1117782016	42	5529
2026-01-14 21:17:55.90	20.61	19.28	-34.1	-35.0	24.1	0.00e+00	123	29	0	1120927744	42	5537
2026-01-14 21:17:56.91	20.37	19.27	-34.2	-35.1	24.1	0.00e+00	121	29	0	1124073472	42	5616
2026-01-14 21:17:57.92	20.12	19.26	-34.1	-35.0	24.2	0.00e+00	123	29	0	1127219200	42	5564
2026-01-14 21:17:58.93	19.88	19.25	-34.1	-35.0	24.2	0.00e+00	123	29	0	1130364928	42	5531
2026-01-14 21:17:59.95	19.63	19.24	-34.2	-35.1	24.2	0.00e+00	123	29	0	1133510656	42	5616
2026-01-14 21:18:00.96	19.39	19.23	-34.2	-35.1	24.3	0.00e+00	121	29	0	1136656384	42	5618
2026-01-14 21:18:01.97	19.14	19.21	-34.2	-35.1	24.3	0.00e+00	123	29	0	1139802112	42	5640
2026-01-14 21:18:02.98	18.90	19.20	-34.1	-35.0	24.3	0.00e+00	122	29	0	1142947840	42	5590
2026-01-14 21:18:03.98	18.66	19.19	-34.2	-35.1	24.2	0.00e+00	122	29	0	1146093568	42	5655
2026-01-14 21:18:05.00	18.41	19.17	-34.3	-35.2	24.1	0.00e+00	123	29	0	1149239296	42	5674
2026-01-14 21:18:06.01	18.17	19.16	-34.4	-35.3	24.1	0.00e+00	120	29	0	1152385024	42	5759
2026-01-14 21:18:07.02	17.93	19.14	-34.3	-35.3	24.1	0.00e+00	123	29	0	1155530752	42	5727
2026-01-14 21:18:08.03	17.69	19.12	-34.3	-35.3	24.1	0.00e+00	120	29	0	1158676480	42	5726
2026-01-14 21:18:09.04	17.44	19.11	-34.2	-35.1	24.1	0.00e+00	122	29	0	1161822208	42	5637
2026-01-14 21:18:10.05	17.20	19.09	-34.4	-35.3	24.0	0.00e+00	120	29	0	1164967936	42	5761
2026-01-14 21:18:11.05	16.96	19.07	-34.2	-35.2	24.0	0.00e+00	120	29	0	1168113664	42	5665
2026-01-14 21:18:12.06	16.72	19.05	-34.1	-35.0	24.1	0.00e+00	120	29	0	1171259392	42	5560
2026-01-14 21:18:13.08	16.48	19.03	-34.1	-35.1	24.2	0.00e+00	123	29	0	1174405120	42	5596
2026-01-14 21:18:14.09	16.24	19.02	-34.0	-34.9	24.4	0.00e+00	123	29	0	1177550848	42	5523
2026-01-14 21:18:15.10	16.00	19.00	-34.0	-34.9	24.4	0.00e+00	122	29	0	1180696576	42	5515
2026-01-14 21:18:16.11	15.76	18.97	-34.2	-35.1	24.2	0.00e+00	120	29	0	1183842304	42	5633
2026-01-14 21:18:17.11	15.52	18.95	-34.2	-35.1	24.2	0.00e+00	122	29	0	1186988032	42	5641
2026-01-14 21:18:18.12	15.28	18.93	-34.3	-35.2	24.2	0.00e+00	123	29	0	1191182336	42	5694
2026-01-14 21:18:19.13	15.04	18.91	-34.3	-35.2	24.2	0.00e+00	122	29	0	1194328064	42	5688
2026-01-14 21:18:20.14	14.80	18.89	-34.2	-35.1	24.3	0.00e+00	123	29	0	1197473792	42	5627
2026-01-14 21:18:21.15	14.57	18.87	-34.0	-34.9	24.4	0.00e+00	122	29	0	1199570944	42	5489
2026-01-14 21:18:22.16	14.33	18.84	-34.0	-34.9	24.5	0.00e+00	123	29	0	1202716672	42	5472
2026-01-14 21:18:23.17	14.09	18.82	-33.8	-34.6	24.7	0.00e+00	122	29	0	1206910976	42	5335
2026-01-14 21:18:24.18	13.85	18.79	-33.8	-34.7	24.5	0.00e+00	123	29	0	1210056704	40	6043
2026-01-14 21:18:25.19	13.62	18.77	-33.8	-34.7	24.5	0.00e+00	122	29	0	1213202432	40	6021
2026-01-14 21:18:26.20	13.38	18.74	-33.9	-34.8	24.6	0.00e+00	123	29	0	1216348160	40	6071
2026-01-14 21:18:27.21	13.14	18.72	-33.9	-34.8	24.5	0.00e+00	123	29	0	1219493888	40	6084
2026-01-14 21:18:28.22	12.91	18.69	-33.9	-34.8	24.5	0.00e+00	121	29	0	1222639616	40	6079
2026-01-14 21:18:29.23	12.67	18.66	-33.8	-34.7	24.5	0.00e+00	120	29	0	1225785344	40	6049
2026-01-14 21:18:30.24	12.44	18.64	-33.9	-34.8	24.5	0.00e+00	123	29	0	1228931072	40	6122
2026-01-14 21:18:31.25	12.20	18.61	-33.9	-34.8	24.5	0.00e+00	123	29	0	1232076800	40	6131
2026-01-14 21:18:32.26	11.97	18.58	-34.0	-34.9	24.4	0.00e+00	122	29	0	1235222528	40	6182
2026-01-14 21:18:33.27	11.74	18.55	-34.2	-35.1	24.3	0.00e+00	122	29	0	1238368256	40	6326
2026-01-14 21:18:34.28	11.50	18.52	-34.1	-35.0	24.4	0.00e+00	123	29	0	1241513984	40	6269
2026-01-14 21:18:35.29	11.27	18.49	-34.1	-35.0	24.4	0.00e+00	122	29	0	1244659712	40	6242
2026-01-14 21:18:36.30	11.04	18.46	-34.2	-35.1	24.2	0.00e+00	122	29	0	1247805440	40	6339
2026-01-14 21:18:37.31	10.81	18.43	-34.2	-35.1	24.2	0.00e+00	122	29	0	1250951168	40	6339
2026-01-14 21:18:38.32	10.58	18.40	-34.4	-35.3	24.1	0.00e+00	123	29	0	1254096896	40	6473
2026-01-14 21:18:39.33	10.35	18.37	-34.5	-35.4	24.1	0.00e+00	122	29	0	1257242624	40	6547
2026-01-14 21:18:40.34	10.12	18.34	-34.6	-35.5	24.0	0.00e+00	122	29	0	1260388352	40	6619
2026-01-14 21:18:41.35	9.89	18.31	-34.4	-35.3	24.2	0.00e+00	123	29	0	1263534080	40	6483
2026-01-14 21:18:42.36	9.66	18.27	-34.3	-35.2	24.3	0.00e+00	123	29	0	1266679808	40	6417
2026-01-14 21:18:43.37	9.43	18.24	-34.3	-35.2	24.2	0.00e+00	123	29	0	1269825536	40	6389
2026-01-14 21:18:44.38	9.20	18.21	-34.4	-35.4	24.2	0.00e+00	123	29	0	1272971264	40	6499
2026-01-14 21:18:45.39	8.97	18.17	-34.4	-35.3	24.2	0.00e+00	120	29	0	1276116992	40	6466
2026-01-14 21:18:46.40	8.75	18.14	-34.4	-35.3	24.2	0.00e+00	123	29	0	1279262720	40	6432
2026-01-14 21:18:47.41	8.52	18.10	-34.5	-35.4	24.1	0.00e+00	123	29	0	1282408448	40	6520
2026-01-14 21:18:48.42	8.29	18.07	-34.5	-35.4	24.2	0.00e+00	122	29	0	1285554176	40	6520
2026-01-14 21:18:49.43	8.07	18.03	-34.4	-35.3	24.1	0.00e+00	123	29	0	1288699904	40	6465
2026-01-14 21:18:50.44	7.84	18.00	-34.3	-35.3	24.1	0.00e+00	120	29	0	1291845632	40	6424
2026-01-14 21:18:51.45	7.62	17.96	-34.1	-35.0	24.3	0.00e+00	123	29	0	1294991360	40	6273
2026-01-14 21:18:52.46	7.40	17.92	-34.0	-34.9	24.4	0.00e+00	122	29	0	1298137088	40	6179
2026-01-14 21:18:53.47	7.17	17.89	-34.0	-34.9	24.4	0.00e+00	122	29	0	1301282816	40	6196
2026-01-14 21:18:54.48	6.95	17.85	-34.0	-34.9	24.5	0.00e+00	123	29	0	1304428544	40	6154
2026-01-14 21:18:55.49	6.73	17.81	-34.1	-35.0	24.4	0.00e+00	127	29	0	1307574272	40	6266
2026-01-14 21:18:56.50	6.51	17.77	-34.1	-35.0	24.4	0.00e+00	123	29	0	1310720000	40	6245
2026-01-14 21:18:57.51	6.29	17.73	-34.3	-35.2	24.3	0.00e+00	122	29	0	1313865728	40	6369
2026-01-14 21:18:58.52	6.06	17.70	-34.3	-35.2	24.2	0.00e+00	120	29	0	1317011456	40	6364
2026-01-14 21:18:59.53	5.85	17.66	-34.2	-35.1	24.3	0.00e+00	123	29	0	1320157184	40	6314
2026-01-14 21:19:00.54	5.63	17.62	-34.3	-35.2	24.2	0.00e+00	120	29	0	1323302912	40	6356
2026-01-14 21:19:01.55	5.41	17.58	-34.3	-35.2	24.1	0.00e+00	123	29	0	1326448640	40	6396
2026-01-14 21:19:02.56	5.19	17.53	-34.3	-35.2	24.1	0.00e+00	122	29	0	1329594368	40	6409
2026-01-14 21:19:03.57	4.97	17.49	-34.3	-35.2	24.2	0.00e+00	120	29	0	1332740096	40	6398
2026-01-14 21:19:04.58	4.75	17.45	-34.2	-35.1	24.2	0.00e+00	122	29	0	1335885824	40	6334
2026-01-14 21:19:05.59	4.54	17.41	-34.2	-35.1	24.3	0.00e+00	123	29	0	1339031552	40	6281
2026-01-14 21:19:06.60	4.32	17.37	-34.1	-35.0	24.3	0.00e+00	123	29	0	1342177280	40	6225
2026-01-14 21:19:07.61	4.11	17.33	-34.1	-35.0	24.3	0.00e+00	123	29	0	1345323008	40	6255
2026-01-14 21:19:08.62	3.89	17.28	-34.2	-35.1	24.3	0.00e+00	120	29	0	1348468736	40	6280
2026-01-14 21:19:09.63	3.68	17.24	-34.1	-35.0	24.3	0.00e+00	123	29	0	1351614464	40	6236
2026-01-14 21:19:10.64	3.47	17.20	-34.1	-35.0	24.3	0.00e+00	120	29	0	1354760192	40	6262
2026-01-14 21:19:11.65	3.25	17.15	-34.0	-34.9	24.3	0.00e+00	123	29	0	1357905920	40	6176
2026-01-14 21:19:12.66	3.04	17.11	-34.1	-35.0	24.3	0.00e+00	121	29	0	1361051648	40	6269
2026-01-14 21:19:13.67	2.83	17.06	-34.1	-35.0	24.3	0.00e+00	122	29	0	1364197376	40	6230
2026-01-14 21:19:14.68	2.62	17.02	-34.2	-35.0	24.2	0.00e+00	122	29	0	1367343104	40	6272
2026-01-14 21:19:15.69	2.41	16.98	-34.2	-35.1	24.3	0.00e+00	123	29	0	1370488832	40	6317
2026-01-14 21:19:16.70	2.20	16.93	-34.3	-35.1	24.3	0.00e+00	122	29	0	1373634560	40	6330
2026-01-14 21:19:17.71	1.99	16.88	-34.2	-35.1	24.3	0.00e+00	122	29	0	1376780288	40	6278
2026-01-14 21:19:18.72	1.78	16.84	-34.3	-35.2	24.2	0.00e+00	121	29	0	1379926016	40	6400
2026-01-14 21:19:19.73	1.58	16.79	-34.4	-35.3	24.1	0.00e+00	123	29	0	1383071744	40	6440
2026-01-14 21:19:20.74	1.37	16.75	-34.5	-35.4	24.1	0.00e+00	123	29	0	1386217472	40	6524
2026-01-14 21:19:21.75	1.16	16.70	-34.4	-35.4	24.0	0.00e+00	123	29	0	1389363200	40	6504
2026-01-14 21:19:22.76	0.96	16.65	-34.5	-35.4	23.9	0.00e+00	123	29	0	1392508928	40	6526
2026-01-14 21:19:23.77	0.75	16.60	-34.4	-35.3	23.9	0.00e+00	120	29	0	1395654656	40	6474
2026-01-14 21:19:24.78	0.55	16.56	-34.3	-35.2	24.0	0.00e+00	122	29	0	1398800384	40	6364
2026-01-14 21:19:25.79	0.34	16.51	-34.2	-35.1	24.1	0.00e+00	123	29	0	1401946112	40	6301
2026-01-14 21:19:26.80	0.14	16.46	-34.3	-35.2	24.0	0.00e+00	122	29	0	1405091840	40	6409
2026-01-14 21:19:27.81	359.94	16.41	-34.2	-35.1	24.1	0.00e+00	120	29	0	1408237568	40	6317
2026-01-14 21:19:28.82	359.74	16.36	-34.2	-35.1	24.0	0.00e+00	122	29	0	1411383296	40	6308
2026-01-14 21:19:29.83	359.54	16.31	-34.3	-35.2	24.1	0.00e+00	123	29	0	1414529024	40	6357
2026-01-14 21:19:30.84	359.34	16.27	-34.4	-35.3	24.0	0.00e+00	123	29	0	1417674752	40	6495
2026-01-14 21:19:31.85	359.14	16.22	-34.5	-35.4	24.0	0.00e+00	122	30	0	1420820480	40	6536
2026-01-14 21:19:32.86	358.94	16.17	-34.5	-35.4	23.9	0.00e+00	122	30	0	1423966208	40	6562
2026-01-14 21:19:33.87	358.74	16.12	-34.7	-35.6	23.8	0.00e+00	123	30	0	1427111936	40	6666
2026-01-14 21:19:34.87	358.54	16.07	-34.6	-35.5	23.9	0.00e+00	123	29	0	1430257664	40	6595
2026-01-14 21:19:35.88	358.35	16.02	-34.5	-35.4	24.0	0.00e+00	123	29	0	1433403392	40	6550
2026-01-14 21:19:36.90	358.15	15.96	-34.5	-35.4	23.9	0.00e+00	122	29	0	1436549120	40	6563
2026-01-14 21:19:37.91	357.95	15.91	-34.6	-35.5	23.8	0.00e+00	123	29	0	1439694848	40	6630
2026-01-14 21:19:38.92	357.76	15.86	-34.5	-35.4	23.9	0.00e+00	123	29	0	1442840576	40	6557
2026-01-14 21:19:39.93	357.56	15.81	-34.6	-35.6	23.8	0.00e+00	123	29	0	1445986304	40	6665
2026-01-14 21:19:40.93	357.37	15.76	-34.7	-35.7	23.6	0.00e+00	121	30	0	1449132032	42	5995
2026-01-14 21:19:41.95	357.18	15.71	-34.8	-35.7	23.6	0.00e+00	122	29	0	1452277760	42	6027
2026-01-14 21:19:42.95	356.99	15.66	-34.6	-35.5	23.8	0.00e+00	123	29	0	1455423488	42	5898
2026-01-14 21:19:43.96	356.80	15.60	-34.6	-35.5	23.8	0.00e+00	123	29	0	1458569216	42	5900
2026-01-14 21:19:44.97	356.61	15.55	-34.6	-35.6	23.7	0.00e+00	120	29	0	1461714944	42	5953
2026-01-14 21:19:45.98	356.42	15.50	-34.6	-35.5	23.8	0.00e+00	122	29	0	1464860672	42	5872
2026-01-14 21:19:46.99	356.23	15.44	-34.7	-35.6	23.8	0.00e+00	122	29	0	1468006400	42	5939
2026-01-14 21:19:48.00	356.04	15.39	-34.7	-35.6	23.8	0.00e+00	122	29	0	1471152128	42	5964
2026-01-14 21:19:49.01	355.85	15.34	-34.7	-35.6	23.7	0.00e+00	122	29	0	1474297856	42	5994
2026-01-14 21:19:50.02	355.66	15.28	-34.8	-35.8	23.6	0.00e+00	123	29	0	1477443584	42	6087
2026-01-14 21:19:51.03	355.48	15.23	-34.8	-35.7	23.7	0.00e+00	123	29	0	1480589312	42	6059
2026-01-14 21:19:52.04	355.29	15.18	-34.9	-35.9	23.6	0.00e+00	120	29	0	1483735040	42	6143
2026-01-14 21:19:53.05	355.10	15.12	-35.0	-35.9	23.5	0.00e+00	122	29	0	1486880768	42	6199
2026-01-14 21:19:54.06	354.92	15.07	-35.0	-35.9	23.5	0.00e+00	121	29	0	1490026496	42	6184
2026-01-14 21:19:55.07	354.74	15.01	-34.9	-35.9	23.5	0.00e+00	123	29	0	1493172224	42	6168
2026-01-14 21:19:56.08	354.55	14.96	-34.9	-35.9	23.5	0.00e+00	122	29	0	1496317952	42	6159
2026-01-14 21:19:57.08	354.37	14.91	-35.0	-35.9	23.4	0.00e+00	123	29	0	1499463680	42	6201
2026-01-14 21:19:58.09	354.19	14.85	-34.9	-35.9	23.5	0.00e+00	122	29	0	1502609408	42	6145
2026-01-14 21:19:59.10	354.01	14.79	-34.9	-35.9	23.5	0.00e+00	123	29	0	1505755136	42	6142
2026-01-14 21:20:00.11	353.83	14.74	-35.0	-35.9	23.5	0.00e+00	123	29	0	1508900864	42	6198
2026-01-14 21:20:01.12	353.65	14.68	-35.0	-36.0	23.5	0.00e+00	123	29	0	1513095168	42	6228
2026-01-14 21:20:02.13	353.47	14.63	-35.1	-36.0	23.5	0.00e+00	123	29	0	1515192320	42	6243
2026-01-14 21:20:03.14	353.29	14.57	-35.2	-36.1	23.4	0.00e+00	123	29	0	1518338048	42	6327
2026-01-14 21:20:04.15	353.11	14.52	-35.1	-36.1	23.5	0.00e+00	124	29	0	1521483776	42	6308
2026-01-14 21:20:05.16	352.94	14.46	-35.3	-36.3	23.4	0.00e+00	122	30	0	1524629504	42	6438
2026-01-14 21:20:06.17	352.76	14.40	-35.2	-36.1	23.5	0.00e+00	120	29	0	1528823808	42	6345
2026-01-14 21:20:07.17	352.58	14.35	-35.2	-36.1	23.5	0.00e+00	122	29	0	1531969536	42	6342
2026-01-14 21:20:08.18	352.41	14.29	-35.1	-36.0	23.6	0.00e+00	120	29	0	1535115264	42	6262
2026-01-14 21:20:09.19	352.24	14.24	-35.2	-36.2	23.4	0.00e+00	123	29	0	1537212416	42	6379
2026-01-14 21:20:10.20	352.06	14.18	-34.9	-35.8	23.7	0.00e+00	120	29	0	1540358144	42	6128
2026-01-14 21:20:11.21	351.89	14.12	-34.9	-35.9	23.7	0.00e+00	122	29	0	1543503872	42	6141
2026-01-14 21:20:12.22	351.72	14.06	-35.0	-35.9	23.6	0.00e+00	123	29	0	1547698176	42	6188
2026-01-14 21:20:13.23	351.54	14.01	-34.9	-35.8	23.7	0.00e+00	123	29	0	1550843904	42	6119
2026-01-14 21:20:14.24	351.37	13.95	-34.9	-35.8	23.7	0.00e+00	123	29	0	1553989632	42	6110
2026-01-14 21:20:15.25	351.20	13.89	-34.8	-35.7	23.7	0.00e+00	122	29	0	1557135360	42	6043
2026-01-14 21:20:16.26	351.03	13.84	-34.8	-35.7	23.7	0.00e+00	120	30	0	1560281088	42	6036
2026-01-14 21:20:17.27	350.86	13.78	-35.0	-35.9	23.6	0.00e+00	123	29	0	1563426816	42	6174
2026-01-14 21:20:18.28	350.70	13.72	-34.9	-35.9	23.6	0.00e+00	123	30	0	1566572544	42	6143
2026-01-14 21:20:19.29	350.53	13.66	-34.9	-35.8	23.6	0.00e+00	122	30	0	1569718272	42	6105
2026-01-14 21:20:20.30	350.36	13.60	-34.9	-35.8	23.5	0.00e+00	122	29	0	1572864000	42	6128
2026-01-14 21:20:21.31	350.19	13.55	-34.8	-35.8	23.5	0.00e+00	120	30	0	1576009728	42	6082
2026-01-14 21:20:22.32	350.03	13.49	-34.9	-35.8	23.5	0.00e+00	123	30	0	1579155456	42	6098
2026-01-14 21:20:23.32	349.87	13.43	-34.9	-35.8	23.5	0.00e+00	123	29	0	1582301184	42	6120
2026-01-14 21:20:24.33	349.70	13.37	-34.8	-35.8	23.6	0.00e+00	122	29	0	1585446912	42	6086
2026-01-14 21:20:25.34	349.54	13.31	-34.8	-35.7	23.6	0.00e+00	123	29	0	1588592640	42	6018
2026-01-14 21:20:26.35	349.37	13.25	-34.9	-35.8	23.6	0.00e+00	120	29	0	1591738368	42	6099
2026-01-14 21:20:27.36	349.21	13.20	-34.8	-35.7	23.7	0.00e+00	123	29	0	1594884096	42	6033
2026-01-14 21:20:28.37	349.05	13.14	-34.9	-35.8	23.5	0.00e+00	123	29	0	1598029824	42	6130
2026-01-14 21:20:29.38	348.89	13.08	-35.0	-36.0	23.5	0.00e+00	123	29	0	1601175552	42	6228
2026-01-14 21:20:30.39	348.73	13.02	-35.0	-35.9	23.4	0.00e+00	123	29	0	1604321280	42	6204
2026-01-14 21:20:31.40	348.57	12.96	-35.1	-36.1	23.4	0.00e+00	122	29	0	1607467008	42	6294
2026-01-14 21:20:32.41	348.41	12.90	-35.1	-36.1	23.3	0.00e+00	122	29	0	1610612736	42	6283
2026-01-14 21:20:33.42	348.25	12.84	-35.1	-36.0	23.4	0.00e+00	123	29	0	1613758464	42	6255
2026-01-14 21:20:34.42	348.09	12.78	-35.1	-36.0	23.4	0.00e+00	122	29	0	1616904192	42	6257
2026-01-14 21:20:35.43	347.94	12.72	-35.0	-36.0	23.4	0.00e+00	123	29	0	1620049920	42	6212
2026-01-14 21:20:36.44	347.78	12.66	-34.9	-35.9	23.5	0.00e+00	123	29	0	1623195648	42	6156
2026-01-14 21:20:37.45	347.62	12.61	-34.9	-35.9	23.4	0.00e+00	123	29	0	1626341376	42	6148
2026-01-14 21:20:38.46	347.47	12.55	-34.9	-35.9	23.5	0.00e+00	123	29	0	1629487104	42	6143
2026-01-14 21:20:39.47	347.31	12.49	-35.0	-35.9	23.5	0.00e+00	123	29	0	1632632832	42	6190
2026-01-14 21:20:40.48	347.16	12.43	-35.0	-35.9	23.5	0.00e+00	123	29	0	1635778560	42	6169
2026-01-14 21:20:41.49	347.01	12.37	-35.1	-36.0	23.4	0.00e+00	123	29	0	1638924288	42	6247
2026-01-14 21:20:42.50	346.85	12.31	-35.3	-36.2	23.3	0.00e+00	120	29	0	1642070016	42	6408
2026-01-14 21:20:43.50	346.70	12.25	-35.2	-36.2	23.3	0.00e+00	123	29	0	1645215744	42	6379
2026-01-14 21:20:44.51	346.55	12.19	-35.4	-36.3	23.1	0.00e+00	123	29	0	1648361472	42	6487
2026-01-14 21:20:45.52	346.40	12.13	-35.4	-36.4	23.1	0.00e+00	120	29	0	1651507200	42	6526
2026-01-14 21:20:46.53	346.25	12.07	-35.3	-36.3	23.2	0.00e+00	123	29	0	1654652928	42	6464
2026-01-14 21:20:47.54	346.10	12.01	-35.3	-36.3	23.1	0.00e+00	122	29	0	1657798656	42	6441
2026-01-14 21:20:48.55	345.95	11.95	-35.5	-36.4	23.0	0.00e+00	122	29	0	1660944384	42	6567
2026-01-14 21:20:49.56	345.80	11.89	-35.3	-36.3	23.2	0.00e+00	123	29	0	1664090112	42	6461
2026-01-14 21:20:50.57	345.66	11.83	-35.4	-36.4	23.0	0.00e+00	122	29	0	1667235840	42	6500
2026-01-14 21:20:51.58	345.51	11.77	-35.5	-36.4	23.0	0.00e+00	123	29	0	1670381568	42	6559
2026-01-14 21:20:52.59	345.36	11.71	-35.5	-36.4	23.0	0.00e+00	122	29	0	1673527296	42	6563
2026-01-14 21:20:53.60	345.22	11.65	-35.6	-36.6	22.8	0.00e+00	120	29	0	1676673024	42	6668
2026-01-14 21:20:54.61	345.07	11.59	-35.5	-36.5	22.9	0.00e+00	123	29	0	1679818752	42	6608
2026-01-14 21:20:55.62	344.93	11.53	-35.7	-36.7	22.7	0.00e+00	120	29	0	1682964480	42	6730
2026-01-14 21:20:56.63	344.78	11.47	-35.7	-36.7	22.8	0.00e+00	122	29	0	1686110208	42	6748
2026-01-14 21:20:57.64	344.64	11.41	-35.5	-36.5	23.0	0.00e+00	121	29	0	1689255936	42	6605
2026-01-14 21:20:58.65	344.50	11.35	-35.6	-36.5	22.8	0.00e+00	122	29	0	1692401664	42	6642
2026-01-14 21:20:59.66	344.35	11.29	-35.6	-36.5	22.8	0.00e+00	123	29	0	1695547392	42	6633
2026-01-14 21:21:00.67	344.21	11.23	-35.6	-36.6	22.8	0.00e+00	123	29	0	1698693120	42	6664
2026-01-14 21:21:01.68	344.07	11.16	-35.6	-36.6	22.8	0.00e+00	123	29	0	1701838848	42	6704
2026-01-14 21:21:02.69	343.93	11.10	-35.5	-36.4	22.9	0.00e+00	122	29	0	1704984576	42	6547
2026-01-14 21:21:03.69	343.79	11.04	-35.6	-36.6	22.8	0.00e+00	122	29	0	1708130304	42	6671
2026-01-14 21:21:04.70	343.65	10.98	-35.6	-36.5	22.9	0.00e+00	123	29	0	1711276032	42	6631
2026-01-14 21:21:05.71	343.51	10.92	-35.7	-36.6	22.8	0.00e+00	122	29	0	1714421760	42	6708
2026-01-14 21:21:06.72	343.38	10.86	-35.7	-36.7	22.8	0.00e+00	123	29	0	1717567488	42	6754
2026-01-14 21:21:07.73	343.24	10.80	-35.8	-36.7	22.7	0.00e+00	123	29	0	1720713216	42	6788
2026-01-14 21:21:08.74	343.10	10.74	-35.9	-36.9	22.6	0.00e+00	123	29	0	1723858944	44	6184
2026-01-14 21:21:09.75	342.96	10.68	-35.9	-36.9	22.6	0.00e+00	123	29	0	1727004672	44	6156
2026-01-14 21:21:10.76	342.83	10.62	-35.9	-36.9	22.6	0.00e+00	120	29	0	1730150400	44	6161
2026-01-14 21:21:11.77	342.69	10.56	-36.1	-37.1	22.5	0.00e+00	122	29	0	1733296128	44	6333
2026-01-14 21:21:12.78	342.56	10.50	-36.2	-37.2	22.3	0.00e+00	122	29	0	1736441856	44	6361
2026-01-14 21:21:13.79	342.43	10.44	-36.0	-37.0	22.5	0.00e+00	123	29	0	1739587584	44	6242
2026-01-14 21:21:14.80	342.29	10.38	-36.0	-37.0	22.4	0.00e+00	120	29	0	1742733312	44	6264
2026-01-14 21:21:15.81	342.16	10.32	-36.0	-37.0	22.4	0.00e+00	122	29	0	1745879040	44	6241
2026-01-14 21:21:16.82	342.03	10.26	-36.1	-37.1	22.4	0.00e+00	122	29	0	1749024768	44	6297
2026-01-14 21:21:17.83	341.89	10.20	-36.0	-37.0	22.5	0.00e+00	120	29	0	1752170496	44	6207
2026-01-14 21:21:18.83	341.76	10.14	-36.0	-37.0	22.5	0.00e+00	123	29	0	1755316224	44	6226
2026-01-14 21:21:19.84	341.63	10.08	-35.7	-36.7	22.7	0.00e+00	120	29	0	1758461952	44	6029
2026-01-14 21:21:20.85	341.50	10.01	-35.8	-36.8	22.7	0.00e+00	123	29	0	1761607680	44	6082
2026-01-14 21:21:21.86	341.37	9.95	-35.9	-36.9	22.5	0.00e+00	122	29	0	1764753408	44	6136
2026-01-14 21:21:22.87	341.24	9.89	-35.9	-36.9	22.6	0.00e+00	120	29	0	1767899136	44	6165
2026-01-14 21:21:23.88	341.12	9.83	-35.9	-36.9	22.5	0.00e+00	120	29	0	1771044864	44	6197
2026-01-14 21:21:24.89	340.99	9.77	-36.1	-37.1	22.4	0.00e+00	122	29	0	1774190592	44	6301
2026-01-14 21:21:25.90	340.86	9.71	-36.2	-37.2	22.3	0.00e+00	122	29	0	1777336320	44	6413
2026-01-14 21:21:26.91	340.73	9.65	-36.3	-37.3	22.2	0.00e+00	123	29	0	1780482048	44	6494
2026-01-14 21:21:27.92	340.61	9.59	-36.4	-37.4	22.2	0.00e+00	122	29	0	1783627776	44	6545
2026-01-14 21:21:28.93	340.48	9.53	-36.5	-37.5	22.0	0.00e+00	121	29	0	1786773504	44	6637
2026-01-14 21:21:29.94	340.36	9.47	-36.6	-37.7	21.9	0.00e+00	122	29	0	1789919232	44	6760
2026-01-14 21:21:30.95	340.23	9.41	-36.7	-37.7	21.8	0.00e+00	122	29	0	1793064960	44	6803
2026-01-14 21:21:31.96	340.11	9.35	-36.6	-37.7	21.9	0.00e+00	122	29	0	1796210688	46	6028
2026-01-14 21:21:32.97	339.98	9.29	-36.7	-37.7	21.7	0.00e+00	121	29	0	1799356416	46	6063
2026-01-14 21:21:33.98	339.86	9.23	-36.4	-37.4	22.1	0.00e+00	123	29	0	1802502144	46	5846
2026-01-14 21:21:34.99	339.74	9.17	-36.3	-37.3	22.1	0.00e+00	120	29	0	1805647872	46	5784
2026-01-14 21:21:35.99	339.62	9.11	-36.4	-37.4	22.1	0.00e+00	120	29	0	1808793600	46	5807
2026-01-14 21:21:37.01	339.49	9.05	-36.4	-37.4	22.0	0.00e+00	122	30	0	1811939328	46	5830
2026-01-14 21:21:38.01	339.37	8.99	-36.4	-37.5	22.0	0.00e+00	123	29	0	1815085056	46	5887
2026-01-14 21:21:39.02	339.25	8.93	-36.3	-37.3	22.2	0.00e+00	122	29	0	1818230784	46	5775
2026-01-14 21:21:40.03	339.13	8.87	-36.4	-37.4	22.1	0.00e+00	122	29	0	1821376512	46	5857
2026-01-14 21:21:41.04	339.01	8.81	-36.5	-37.6	22.0	0.00e+00	120	29	0	1824522240	46	5936
2026-01-14 21:21:42.05	338.89	8.74	-36.6	-37.6	21.9	0.00e+00	123	29	0	1827667968	46	5964
2026-01-14 21:21:43.06	338.78	8.68	-36.7	-37.8	21.8	0.00e+00	120	29	0	1830813696	46	6100
2026-01-14 21:21:44.07	338.66	8.62	-36.6	-37.6	21.9	0.00e+00	122	29	0	1833959424	46	5994
2026-01-14 21:21:45.08	338.54	8.56	-36.7	-37.8	21.8	0.00e+00	123	29	0	1837105152	46	6104
2026-01-14 21:21:46.09	338.42	8.50	-36.8	-37.9	21.6	0.00e+00	123	29	0	1840250880	46	6172
2026-01-14 21:21:47.10	338.31	8.44	-36.8	-37.9	21.7	0.00e+00	122	29	0	1843396608	46	6143
2026-01-14 21:21:48.11	338.19	8.38	-36.8	-37.9	21.6	0.00e+00	123	29	0	1846542336	46	6171
2026-01-14 21:21:49.12	338.08	8.32	-36.8	-37.9	21.6	0.00e+00	122	29	0	1849688064	46	6146
2026-01-14 21:21:50.12	337.96	8.26	-36.8	-37.8	21.6	0.00e+00	123	29	0	1852833792	46	6126
2026-01-14 21:21:51.13	337.85	8.20	-36.7	-37.8	21.7	0.00e+00	122	29	0	1855979520	46	6066
2026-01-14 21:21:52.14	337.73	8.14	-36.5	-37.6	21.8	0.00e+00	123	29	0	1859125248	46	5941
2026-01-14 21:21:53.15	337.62	8.08	-36.4	-37.4	22.0	0.00e+00	122	29	0	1862270976	46	5821
2026-01-14 21:21:54.16	337.51	8.02	-36.4	-37.4	22.0	0.00e+00	123	29	0	1865416704	46	5848
2026-01-14 21:21:55.17	337.39	7.96	-36.3	-37.3	22.1	0.00e+00	123	29	0	1868562432	46	5779
2026-01-14 21:21:56.18	337.28	7.90	-36.5	-37.6	22.0	0.00e+00	123	29	0	1871708160	46	5935
2026-01-14 21:21:57.19	337.17	7.84	-36.5	-37.5	21.9	0.00e+00	123	29	0	1874853888	46	5915
2026-01-14 21:21:58.20	337.06	7.78	-36.4	-37.4	22.0	0.00e+00	120	29	0	1877999616	46	5848
2026-01-14 21:21:59.21	336.95	7.72	-36.4	-37.4	22.0	0.00e+00	122	29	0	1881145344	46	5826
2026-01-14 21:22:00.22	336.84	7.67	-36.5	-37.6	21.9	0.00e+00	120	29	0	1884291072	46	5949
2026-01-14 21:22:01.23	336.73	7.61	-36.7	-37.7	21.8	0.00e+00	123	29	0	1887436800	46	6036
2026-01-14 21:22:02.24	336.62	7.55	-36.7	-37.8	21.7	0.00e+00	122	29	0	1890582528	46	6089
2026-01-14 21:22:03.24	336.51	7.49	-36.9	-38.0	21.5	0.00e+00	120	29	0	1893728256	46	6209
2026-01-14 21:22:04.25	336.40	7.43	-37.0	-38.1	21.4	0.00e+00	122	29	0	1896873984	46	6284
2026-01-14 21:22:05.26	336.29	7.37	-37.0	-38.1	21.3	0.00e+00	122	29	0	1900019712	46	6320
2026-01-14 21:22:06.27	336.19	7.31	-37.2	-38.3	21.1	0.00e+00	122	29	0	1903165440	46	6469
2026-01-14 21:22:07.28	336.08	7.25	-37.1	-38.3	21.1	0.00e+00	120	29	0	1906311168	46	6438
2026-01-14 21:22:08.29	335.97	7.19	-37.2	-38.4	21.0	0.00e+00	122	30	0	1909456896	46	6516
2026-01-14 21:22:09.30	335.87	7.13	-37.0	-38.1	21.2	0.00e+00	119	29	0	1912602624	46	6333
2026-01-14 21:22:10.31	335.76	7.07	-36.9	-38.0	21.2	0.00e+00	123	30	0	1915748352	46	6271
2026-01-14 21:22:11.32	335.65	7.01	-37.0	-38.1	21.2	0.00e+00	123	29	0	1919942656	46	6319
2026-01-14 21:22:12.33	335.55	6.95	-36.7	-37.8	21.4	0.00e+00	122	29	0	1923088384	46	6120
2026-01-14 21:22:13.34	335.45	6.89	-36.7	-37.8	21.5	0.00e+00	122	29	0	1925185536	46	6088
2026-01-14 21:22:14.35	335.34	6.83	-36.5	-37.5	21.7	0.00e+00	123	29	0	1928331264	46	5915
2026-01-14 21:22:15.36	335.24	6.77	-36.6	-37.7	21.5	0.00e+00	122	29	0	1931476992	46	6031
2026-01-14 21:22:16.36	335.14	6.72	-36.4	-37.4	21.8	0.00e+00	122	30	0	1934622720	46	5821
2026-01-14 21:22:17.37	335.03	6.66	-36.5	-37.5	21.6	0.00e+00	123	29	0	1938817024	46	5921
2026-01-14 21:22:18.38	334.93	6.60	-36.5	-37.5	21.7	0.00e+00	123	30	0	1941962752	46	5919
2026-01-14 21:22:19.39	334.83	6.54	-36.8	-37.8	21.4	0.00e+00	123	29	0	1945108480	46	6125
2026-01-14 21:22:20.40	334.73	6.48	-36.8	-37.9	21.3	0.00e+00	123	29	0	1947205632	46	6143
2026-01-14 21:22:21.41	334.63	6.42	-37.1	-38.2	21.0	0.00e+00	123	29	0	1950351360	46	6405
2026-01-14 21:22:22.42	334.53	6.36	-37.2	-38.3	20.8	0.00e+00	122	30	0	1954545664	46	6473
2026-01-14 21:22:23.43	334.43	6.30	-37.4	-38.6	20.6	0.00e+00	120	30	0	1957691392	46	6695
