passes_logs/2026/01/14/R4.6S_Anadyr/R4.6S_Anadyr__20260114_233905_NOAA_20_JPSS-1_rec.log

#Pass ID: 20260114_233905_NOAA 20 (JPSS-1)
#Satellite: NOAA 20 (JPSS-1)
#Configuration: NOAA 20
#almurnet v.1.7.20251203
#Start time: 2026-01-14 23:39:06

#Version: 2.2.20231116
#Station: R4.6S_Anadyr
#Location: 177.4865 lon 64.73178 lat
#TLE: 1 43013U 17073A   26014.55467351  .00000038  00000+0  38801-4 0  9992
#TLE: 2 43013  98.7635 315.4987 0001517  39.9279 320.2008 14.19535859422677

#Time	Az	El	Level	Level2	SNR	BER	BlckErr	Temp	State	Recorded	gain1	gain2
2026-01-14 23:39:06.05	142.27	0.03	-48.8	-63.7	3.5	1.51e+00	0	27	0	0	60	55029
2026-01-14 23:39:07.06	142.25	0.09	-48.8	-64.0	3.6	1.51e+00	0	28	104	0	60	57367
2026-01-14 23:39:08.07	142.24	0.15	-48.8	-64.1	3.6	1.51e+00	0	28	104	0	60	57804
2026-01-14 23:39:09.08	142.23	0.22	-48.8	-64.0	3.6	1.51e+00	0	28	104	0	60	57359
2026-01-14 23:39:10.09	142.22	0.28	-48.9	-64.1	3.6	1.51e+00	0	28	104	0	60	57888
2026-01-14 23:39:11.10	142.20	0.34	-48.8	-64.1	3.6	1.51e+00	0	28	104	0	60	57893
2026-01-14 23:39:12.11	142.19	0.40	-48.9	-64.2	3.6	1.51e+00	0	28	104	0	60	58504
2026-01-14 23:39:13.12	142.18	0.46	-48.9	-64.1	3.6	1.51e+00	0	28	104	0	60	58182
2026-01-14 23:39:14.13	142.16	0.52	-48.9	-64.1	3.6	1.51e+00	0	28	104	0	60	57725
2026-01-14 23:39:15.14	142.15	0.58	-48.8	-64.0	3.6	1.51e+00	0	28	104	0	60	57059
2026-01-14 23:39:16.15	142.14	0.64	-48.6	-63.8	3.6	1.51e+00	0	28	104	0	60	56177
2026-01-14 23:39:17.16	142.13	0.71	-48.6	-63.7	3.6	1.51e+00	0	28	104	0	60	55585
2026-01-14 23:39:18.16	142.11	0.77	-48.5	-63.7	3.6	1.51e+00	0	28	104	0	60	55357
2026-01-14 23:39:19.18	142.10	0.83	-48.0	-63.3	3.6	1.51e+00	0	28	104	0	60	52913
2026-01-14 23:39:20.19	142.09	0.89	-47.7	-62.8	3.9	1.51e+00	0	28	104	0	60	49875
2026-01-14 23:39:21.19	142.07	0.95	-47.3	-62.5	3.6	1.51e+00	0	28	104	0	60	48033
2026-01-14 23:39:22.20	142.06	1.02	-45.8	-61.0	3.6	1.51e+00	0	28	104	0	60	40331
2026-01-14 23:39:23.21	142.05	1.08	-45.3	-60.8	3.5	1.51e+00	0	28	104	0	60	39751
2026-01-14 23:39:24.23	142.03	1.14	-45.3	-60.7	3.6	1.51e+00	0	28	104	0	60	39278
2026-01-14 23:39:25.24	142.02	1.20	-45.4	-60.5	3.6	1.51e+00	0	28	104	0	60	38313
2026-01-14 23:39:26.24	142.00	1.27	-45.5	-60.5	3.6	1.51e+00	0	28	104	0	60	38375
2026-01-14 23:39:27.25	141.99	1.33	-45.4	-60.6	3.6	1.51e+00	0	28	104	0	60	38706
2026-01-14 23:39:28.27	141.98	1.39	-45.5	-60.6	3.6	1.51e+00	0	28	104	0	60	38814
2026-01-14 23:39:29.28	141.96	1.46	-45.6	-60.7	3.6	1.51e+00	0	28	104	0	60	39350
2026-01-14 23:39:30.29	141.95	1.52	-45.6	-60.7	3.7	1.51e+00	0	28	104	0	60	39355
2026-01-14 23:39:31.30	141.93	1.58	-45.6	-60.8	3.6	1.51e+00	0	28	104	0	60	39453
2026-01-14 23:39:32.31	141.92	1.65	-45.6	-60.7	3.6	1.51e+00	0	29	104	0	60	39182
2026-01-14 23:39:33.32	141.91	1.71	-45.6	-60.8	3.6	1.51e+00	0	28	104	0	60	39442
2026-01-14 23:39:34.33	141.89	1.77	-45.6	-60.5	3.6	1.51e+00	0	28	104	0	60	38347
2026-01-14 23:39:35.34	141.88	1.84	-45.6	-60.6	3.6	1.51e+00	0	28	104	0	60	38616
2026-01-14 23:39:36.35	141.86	1.90	-45.6	-60.8	3.6	1.51e+00	0	29	104	0	60	39779
2026-01-14 23:39:37.36	141.85	1.97	-45.6	-60.7	3.6	1.51e+00	0	28	104	0	60	39305
2026-01-14 23:39:38.37	141.83	2.03	-45.6	-60.7	3.6	1.51e+00	0	28	104	0	60	39304
2026-01-14 23:39:39.38	141.82	2.10	-45.6	-60.7	3.6	1.51e+00	0	28	104	0	60	39385
2026-01-14 23:39:40.39	141.80	2.16	-45.6	-60.7	3.6	1.51e+00	0	28	104	0	60	39366
2026-01-14 23:39:41.40	141.79	2.23	-45.7	-60.6	3.6	1.51e+00	0	29	104	0	60	38827
2026-01-14 23:39:42.41	141.77	2.29	-45.6	-60.5	3.6	1.51e+00	0	29	104	0	60	38268
2026-01-14 23:39:43.42	141.76	2.36	-45.6	-60.7	3.6	1.51e+00	0	28	104	0	60	39102
2026-01-14 23:39:44.43	141.74	2.42	-45.6	-60.5	3.6	1.51e+00	0	28	104	0	60	38390
2026-01-14 23:39:45.44	141.73	2.49	-45.6	-60.6	3.6	1.51e+00	0	28	104	0	60	38616
2026-01-14 23:39:46.44	141.71	2.55	-45.6	-60.5	3.6	1.51e+00	0	29	104	0	60	38267
2026-01-14 23:39:47.46	141.70	2.62	-45.6	-60.5	3.6	1.51e+00	0	29	104	0	60	38205
2026-01-14 23:39:48.46	141.68	2.69	-45.6	-60.7	3.6	1.51e+00	0	28	104	0	60	39093
2026-01-14 23:39:49.47	141.67	2.75	-45.6	-60.6	3.6	1.51e+00	0	29	104	0	60	38793
2026-01-14 23:39:50.49	141.65	2.82	-45.6	-60.4	3.6	1.51e+00	0	29	104	0	60	38016
2026-01-14 23:39:51.49	141.64	2.88	-45.6	-60.0	3.6	1.51e+00	0	29	104	0	60	36063
2026-01-14 23:39:52.51	141.62	2.95	-45.5	-60.1	3.6	1.51e+00	0	28	104	0	60	36451
2026-01-14 23:39:53.51	141.60	3.02	-45.6	-59.9	3.6	1.51e+00	0	29	104	0	60	35779
2026-01-14 23:39:54.52	141.59	3.08	-45.6	-60.1	3.6	1.51e+00	0	29	104	0	60	36652
2026-01-14 23:39:55.53	141.57	3.15	-45.6	-60.1	3.6	1.51e+00	0	29	104	0	60	36459
2026-01-14 23:39:56.54	141.56	3.22	-45.6	-60.1	3.6	1.51e+00	0	29	104	0	60	36623
2026-01-14 23:39:57.55	141.54	3.29	-45.6	-60.2	3.6	1.51e+00	0	29	104	0	60	37082
2026-01-14 23:39:58.56	141.52	3.35	-45.6	-60.0	3.6	1.51e+00	0	29	104	0	60	36211
2026-01-14 23:39:59.57	141.51	3.42	-45.5	-59.5	3.6	1.51e+00	0	29	104	0	60	34319
2026-01-14 23:40:00.58	141.49	3.49	-45.5	-59.3	3.6	1.51e+00	0	29	104	0	60	33371
2026-01-14 23:40:01.59	141.47	3.56	-45.5	-58.9	3.6	1.51e+00	0	29	104	0	60	31819
2026-01-14 23:40:02.60	141.46	3.63	-45.5	-58.7	3.6	1.51e+00	0	29	104	0	60	31198
2026-01-14 23:40:03.61	141.44	3.69	-45.4	-58.8	3.6	1.51e+00	0	29	104	0	60	31311
2026-01-14 23:40:04.62	141.42	3.76	-45.4	-59.9	3.6	1.51e+00	0	29	104	0	60	35617
2026-01-14 23:40:05.63	141.41	3.83	-45.2	-55.0	4.3	1.51e+00	0	29	104	0	60	20438
2026-01-14 23:40:06.64	141.39	3.90	-45.2	-60.2	3.6	1.14e+00	0	29	104	0	60	37178
2026-01-14 23:40:07.65	141.37	3.97	-45.6	-59.7	3.6	1.51e+00	0	29	104	0	60	34802
2026-01-14 23:40:08.66	141.36	4.04	-43.9	-53.9	4.3	1.50e+00	0	29	104	0	60	17936
2026-01-14 23:40:09.67	141.34	4.11	-44.9	-54.8	5.1	1.48e+00	92	29	0	0	60	19890
2026-01-14 23:40:10.68	141.32	4.18	-45.0	-53.2	5.5	5.50e-01	41	29	0	1048576	60	16428
2026-01-14 23:40:11.69	141.30	4.25	-45.0	-52.9	5.8	4.65e-01	91	29	0	3145728	60	15945
2026-01-14 23:40:12.70	141.29	4.32	-45.0	-52.5	6.4	3.02e-01	0	29	0	5242880	60	15223
2026-01-14 23:40:13.71	141.27	4.39	-45.0	-52.8	5.9	3.28e-01	91	29	0	6291456	60	15863
2026-01-14 23:40:14.72	141.25	4.46	-45.1	-53.1	5.6	2.99e-01	92	29	0	8388608	60	16297
2026-01-14 23:40:15.73	141.23	4.53	-44.7	-52.3	6.7	2.82e-01	90	29	0	10485760	60	14819
2026-01-14 23:40:16.73	141.22	4.60	-44.9	-52.2	6.7	2.05e-01	92	29	0	12582912	60	14706
2026-01-14 23:40:17.74	141.20	4.67	-45.1	-52.5	6.6	2.24e-01	40	29	0	14680064	60	15258
2026-01-14 23:40:18.75	141.18	4.74	-45.1	-52.1	6.6	1.56e-01	92	29	0	15728640	60	14638
2026-01-14 23:40:19.76	141.16	4.81	-45.1	-52.1	6.9	1.89e-01	54	29	0	17825792	60	14519
2026-01-14 23:40:20.77	141.14	4.88	-45.0	-51.7	7.1	1.98e-01	92	29	0	19922944	60	13914
2026-01-14 23:40:21.78	141.12	4.96	-45.0	-51.6	7.1	1.31e-01	92	29	0	22020096	60	13726
2026-01-14 23:40:22.79	141.11	5.03	-44.9	-51.5	7.4	1.07e-01	92	29	0	24117248	60	13609
2026-01-14 23:40:23.80	141.09	5.10	-44.8	-51.1	7.8	7.64e-02	92	29	0	25165824	60	12979
2026-01-14 23:40:24.81	141.07	5.17	-44.7	-50.8	8.2	7.12e-02	92	29	0	27262976	60	12525
2026-01-14 23:40:25.82	141.05	5.24	-44.7	-50.9	8.4	4.56e-02	92	29	0	29360128	60	12687
2026-01-14 23:40:26.83	141.03	5.32	-44.6	-50.5	7.8	9.31e-02	0	29	0	31457280	60	12169
2026-01-14 23:40:27.84	141.01	5.39	-44.6	-50.5	8.8	5.10e-02	92	29	0	33554432	60	12172
2026-01-14 23:40:28.85	140.99	5.46	-44.6	-50.3	8.4	9.19e-02	92	29	0	35651584	60	11797
2026-01-14 23:40:29.86	140.97	5.54	-44.8	-50.4	7.5	1.86e-01	92	29	0	36700160	60	11920
2026-01-14 23:40:30.87	140.95	5.61	-44.6	-50.1	7.7	1.31e-01	92	29	0	38797312	60	11508
2026-01-14 23:40:31.88	140.93	5.68	-44.6	-49.9	9.2	1.26e-01	92	29	0	40894464	60	11245
2026-01-14 23:40:32.88	140.91	5.76	-44.7	-49.8	8.5	9.28e-02	92	29	0	42991616	60	11136
2026-01-14 23:40:33.89	140.89	5.83	-44.5	-49.6	8.8	8.92e-02	36	29	0	45088768	60	10956
2026-01-14 23:40:34.90	140.87	5.91	-44.4	-49.3	10.4	5.71e-02	90	29	0	46137344	60	10535
2026-01-14 23:40:35.91	140.85	5.98	-44.5	-49.2	10.4	3.23e-02	0	29	0	48234496	60	10431
2026-01-14 23:40:36.92	140.83	6.05	-44.3	-48.8	10.3	1.75e-02	92	29	0	50331648	60	10002
2026-01-14 23:40:37.93	140.81	6.13	-44.2	-48.4	10.2	7.21e-03	92	29	0	52428800	60	9493
2026-01-14 23:40:38.94	140.79	6.20	-44.1	-48.4	11.3	1.60e-02	92	29	0	54525952	60	9521
2026-01-14 23:40:39.95	140.77	6.28	-44.0	-48.0	11.3	3.73e-03	90	29	0	55574528	60	9110
2026-01-14 23:40:40.96	140.75	6.35	-43.8	-47.6	11.8	7.27e-03	92	29	0	57671680	60	8684
2026-01-14 23:40:41.97	140.73	6.43	-43.7	-47.5	11.2	6.52e-03	90	29	0	59768832	60	8553
2026-01-14 23:40:42.98	140.71	6.51	-43.6	-47.2	11.2	1.13e-02	0	29	0	61865984	60	8261
2026-01-14 23:40:43.99	140.69	6.58	-43.3	-46.6	12.0	1.01e-02	92	29	0	63963136	60	7735
2026-01-14 23:40:44.99	140.67	6.66	-43.2	-46.5	12.1	5.99e-03	92	29	0	65011712	60	7596
2026-01-14 23:40:46.01	140.65	6.74	-43.0	-46.0	13.4	2.61e-03	92	29	0	67108864	60	7221
2026-01-14 23:40:47.02	140.62	6.81	-42.9	-45.8	14.1	3.13e-03	92	29	0	69206016	60	7081
2026-01-14 23:40:48.02	140.60	6.89	-42.6	-45.4	13.4	9.02e-04	89	29	0	71303168	58	7560
2026-01-14 23:40:49.03	140.58	6.97	-42.6	-45.3	14.3	2.49e-03	92	29	0	73400320	58	7444
2026-01-14 23:40:50.04	140.56	7.04	-42.6	-45.3	14.1	8.28e-04	0	29	0	74448896	58	7434
2026-01-14 23:40:51.05	140.54	7.12	-42.2	-44.6	13.9	1.64e-03	92	29	0	76546048	58	6906
2026-01-14 23:40:52.06	140.52	7.20	-42.2	-44.5	14.1	5.88e-04	0	29	0	78643200	58	6819
2026-01-14 23:40:53.07	140.49	7.28	-42.1	-44.4	15.1	1.50e-04	92	29	0	80740352	58	6723
2026-01-14 23:40:54.08	140.47	7.36	-41.9	-44.2	14.9	9.00e-05	92	29	0	82837504	58	6569
2026-01-14 23:40:55.08	140.45	7.43	-41.8	-44.0	14.5	1.40e-04	92	29	0	83886080	58	6417
2026-01-14 23:40:56.09	140.43	7.51	-41.7	-43.7	15.3	6.79e-05	92	29	0	85983232	56	6935
2026-01-14 23:40:57.10	140.40	7.59	-41.5	-43.4	16.5	8.30e-06	3	29	0	88080384	56	6715
2026-01-14 23:40:58.11	140.38	7.67	-41.3	-43.2	17.0	7.00e-07	92	29	0	90177536	56	6547
2026-01-14 23:40:59.12	140.36	7.75	-41.0	-42.8	17.9	0.00e+00	19	29	0	92274688	56	6291
2026-01-14 23:41:00.13	140.33	7.83	-40.9	-42.6	17.6	0.00e+00	92	29	0	93323264	56	6152
2026-01-14 23:41:01.14	140.31	7.91	-40.8	-42.5	18.8	0.00e+00	92	29	0	95420416	56	6049
2026-01-14 23:41:02.15	140.29	7.99	-40.8	-42.4	18.8	0.00e+00	92	29	0	97517568	56	5978
2026-01-14 23:41:03.16	140.26	8.07	-41.0	-42.6	18.4	0.00e+00	91	29	0	99614720	56	6167
2026-01-14 23:41:04.17	140.24	8.15	-40.6	-42.1	19.0	0.00e+00	53	29	0	101711872	54	6471
2026-01-14 23:41:05.18	140.22	8.23	-40.3	-41.8	19.2	0.00e+00	91	29	0	103809024	54	6281
2026-01-14 23:41:06.19	140.19	8.32	-40.0	-41.4	19.9	0.00e+00	0	29	0	104857600	54	5984
2026-01-14 23:41:07.20	140.17	8.40	-39.9	-41.2	20.1	0.00e+00	91	29	0	106954752	54	5854
2026-01-14 23:41:08.21	140.14	8.48	-39.8	-41.1	20.0	0.00e+00	91	29	0	109051904	54	5817
2026-01-14 23:41:09.22	140.12	8.56	-39.7	-40.9	20.4	0.00e+00	90	29	0	111149056	52	6388
2026-01-14 23:41:10.23	140.09	8.64	-39.6	-40.9	20.3	0.00e+00	91	29	0	113246208	52	6367
2026-01-14 23:41:11.24	140.07	8.73	-39.6	-40.9	20.4	0.00e+00	90	29	0	114294784	52	6352
2026-01-14 23:41:12.25	140.04	8.81	-39.4	-40.7	20.7	0.00e+00	92	29	0	116391936	52	6182
2026-01-14 23:41:13.26	140.02	8.89	-39.3	-40.6	21.1	0.00e+00	7	29	0	118489088	52	6107
2026-01-14 23:41:14.27	139.99	8.98	-39.0	-40.1	21.4	0.00e+00	91	29	0	120586240	52	5827
2026-01-14 23:41:15.28	139.97	9.06	-38.9	-40.0	21.5	0.00e+00	86	29	0	122683392	52	5718
2026-01-14 23:41:16.29	139.94	9.14	-38.9	-40.0	21.5	0.00e+00	92	29	0	123731968	52	5706
2026-01-14 23:41:17.30	139.92	9.23	-38.8	-39.9	21.7	0.00e+00	92	29	0	125829120	52	5639
2026-01-14 23:41:18.31	139.89	9.31	-38.8	-39.9	21.7	0.00e+00	92	29	0	127926272	50	6365
2026-01-14 23:41:19.32	139.86	9.40	-38.6	-39.7	22.0	0.00e+00	92	29	0	130023424	50	6183
2026-01-14 23:41:20.33	139.84	9.48	-38.8	-39.8	21.9	0.00e+00	43	29	0	132120576	50	6311
2026-01-14 23:41:21.33	139.81	9.57	-38.7	-39.8	21.9	0.00e+00	92	29	0	133169152	50	6247
2026-01-14 23:41:22.34	139.79	9.65	-38.4	-39.4	22.2	0.00e+00	0	29	0	135266304	50	6025
2026-01-14 23:41:23.35	139.76	9.74	-38.5	-39.6	22.1	0.00e+00	92	29	0	137363456	50	6105
2026-01-14 23:41:24.36	139.73	9.83	-38.4	-39.5	22.1	0.00e+00	92	29	0	139460608	50	6060
2026-01-14 23:41:25.38	139.70	9.91	-38.4	-39.5	22.1	0.00e+00	92	29	0	141557760	50	6060
2026-01-14 23:41:26.38	139.68	10.00	-38.5	-39.6	22.0	0.00e+00	91	29	0	142606336	50	6149
2026-01-14 23:41:27.39	139.65	10.09	-38.5	-39.6	21.8	0.00e+00	7	29	0	144703488	50	6119
2026-01-14 23:41:28.41	139.62	10.18	-38.5	-39.5	22.2	0.00e+00	92	29	0	146800640	50	6096
2026-01-14 23:41:29.42	139.59	10.26	-38.5	-39.6	22.2	0.00e+00	11	29	0	148897792	50	6117
2026-01-14 23:41:30.43	139.56	10.35	-38.5	-39.6	22.1	0.00e+00	92	29	0	150994944	50	6127
2026-01-14 23:41:31.44	139.54	10.44	-38.2	-39.2	22.4	0.00e+00	92	29	0	152043520	50	5890
2026-01-14 23:41:32.45	139.51	10.53	-38.2	-39.2	22.5	0.00e+00	91	29	0	154140672	50	5834
2026-01-14 23:41:33.46	139.48	10.62	-38.1	-39.1	22.6	0.00e+00	92	29	0	156237824	50	5813
2026-01-14 23:41:34.47	139.45	10.71	-38.0	-38.9	22.8	0.00e+00	37	29	0	158334976	50	5675
2026-01-14 23:41:35.48	139.42	10.80	-37.9	-38.8	22.9	0.00e+00	91	29	0	160432128	50	5607
2026-01-14 23:41:36.49	139.39	10.89	-37.8	-38.8	22.9	0.00e+00	0	29	0	161480704	50	5603
2026-01-14 23:41:37.49	139.36	10.98	-37.8	-38.7	23.0	0.00e+00	92	29	0	163577856	50	5555
2026-01-14 23:41:38.50	139.33	11.07	-37.7	-38.6	23.1	0.00e+00	0	29	0	165675008	48	6156
2026-01-14 23:41:39.51	139.30	11.16	-37.7	-38.7	23.0	0.00e+00	92	29	0	167772160	48	6179
2026-01-14 23:41:40.52	139.27	11.25	-37.7	-38.7	23.1	0.00e+00	92	29	0	169869312	48	6183
2026-01-14 23:41:41.53	139.24	11.34	-37.7	-38.7	23.1	0.00e+00	92	29	0	171966464	48	6190
2026-01-14 23:41:42.54	139.21	11.43	-37.7	-38.7	23.0	0.00e+00	92	29	0	173015040	48	6203
2026-01-14 23:41:43.55	139.18	11.53	-37.7	-38.7	23.2	0.00e+00	38	29	0	175112192	48	6182
2026-01-14 23:41:44.56	139.15	11.62	-37.8	-38.7	23.1	0.00e+00	93	29	0	177209344	48	6220
2026-01-14 23:41:45.57	139.12	11.71	-37.7	-38.6	23.2	0.00e+00	0	29	0	179306496	48	6152
2026-01-14 23:41:46.58	139.09	11.81	-37.6	-38.5	23.3	0.00e+00	92	29	0	181403648	48	6099
2026-01-14 23:41:47.59	139.06	11.90	-37.6	-38.5	23.3	0.00e+00	92	29	0	182452224	48	6103
2026-01-14 23:41:48.60	139.02	11.99	-37.4	-38.3	23.5	0.00e+00	92	29	0	184549376	48	5944
2026-01-14 23:41:49.60	138.99	12.09	-37.4	-38.3	23.5	0.00e+00	92	29	0	186646528	48	5943
2026-01-14 23:41:50.62	138.96	12.18	-37.3	-38.2	23.7	0.00e+00	0	29	0	188743680	48	5856
2026-01-14 23:41:51.63	138.93	12.28	-37.2	-38.0	23.7	0.00e+00	90	29	0	190840832	48	5759
2026-01-14 23:41:52.64	138.89	12.37	-37.1	-37.9	23.9	0.00e+00	6	29	0	191889408	48	5679
2026-01-14 23:41:53.64	138.86	12.47	-37.1	-38.0	23.8	0.00e+00	92	29	0	193986560	48	5736
2026-01-14 23:41:54.65	138.83	12.57	-37.0	-37.9	23.9	0.00e+00	92	29	0	196083712	48	5640
2026-01-14 23:41:55.66	138.80	12.66	-37.0	-37.9	24.0	0.00e+00	92	29	0	198180864	48	5648
2026-01-14 23:41:56.67	138.76	12.76	-37.0	-37.9	23.9	0.00e+00	92	29	0	200278016	48	5656
2026-01-14 23:41:57.68	138.73	12.86	-36.9	-37.8	24.1	0.00e+00	64	29	0	201326592	48	5577
2026-01-14 23:41:58.69	138.69	12.95	-36.9	-37.7	24.1	0.00e+00	92	29	0	203423744	48	5560
2026-01-14 23:41:59.70	138.66	13.05	-36.9	-37.8	24.1	0.00e+00	44	29	0	205520896	48	5573
2026-01-14 23:42:00.71	138.62	13.15	-37.0	-37.9	23.9	0.00e+00	92	29	0	207618048	48	5634
2026-01-14 23:42:01.72	138.59	13.25	-36.9	-37.8	24.0	0.00e+00	91	29	0	209715200	48	5591
2026-01-14 23:42:02.72	138.56	13.35	-37.0	-37.9	24.0	0.00e+00	91	29	0	210763776	48	5647
2026-01-14 23:42:03.73	138.52	13.45	-36.8	-37.7	24.2	0.00e+00	91	29	0	212860928	48	5532
2026-01-14 23:42:04.74	138.48	13.55	-36.9	-37.8	24.1	0.00e+00	91	29	0	214958080	48	5568
2026-01-14 23:42:05.75	138.45	13.65	-36.9	-37.8	24.1	0.00e+00	92	29	0	217055232	48	5592
2026-01-14 23:42:06.76	138.41	13.75	-37.0	-37.9	24.0	0.00e+00	40	29	0	219152384	48	5638
2026-01-14 23:42:07.77	138.38	13.85	-36.7	-37.5	24.3	0.00e+00	92	29	0	220200960	46	6081
2026-01-14 23:42:08.78	138.34	13.95	-36.7	-37.5	24.4	0.00e+00	0	29	0	222298112	46	6059
2026-01-14 23:42:09.79	138.30	14.05	-36.7	-37.5	24.3	0.00e+00	92	29	0	224395264	46	6077
2026-01-14 23:42:10.80	138.26	14.16	-36.7	-37.6	24.3	0.00e+00	90	29	0	226492416	46	6122
2026-01-14 23:42:11.81	138.23	14.26	-36.8	-37.6	24.3	0.00e+00	92	29	0	228589568	46	6170
2026-01-14 23:42:12.82	138.19	14.36	-36.7	-37.6	24.3	0.00e+00	92	29	0	229638144	46	6114
2026-01-14 23:42:13.83	138.15	14.47	-36.7	-37.6	24.3	0.00e+00	0	29	0	231735296	46	6108
2026-01-14 23:42:14.84	138.11	14.57	-36.7	-37.6	24.3	0.00e+00	92	29	0	233832448	46	6110
2026-01-14 23:42:15.85	138.07	14.68	-36.8	-37.6	24.4	0.00e+00	7	29	0	235929600	46	6143
2026-01-14 23:42:16.86	138.03	14.78	-36.8	-37.6	24.3	0.00e+00	92	29	0	238026752	46	6149
2026-01-14 23:42:17.87	137.99	14.89	-36.8	-37.7	24.2	0.00e+00	90	29	0	240123904	46	6179
2026-01-14 23:42:18.88	137.96	14.99	-36.8	-37.6	24.2	0.00e+00	91	29	0	241172480	46	6161
2026-01-14 23:42:19.89	137.92	15.10	-36.8	-37.6	24.3	0.00e+00	92	29	0	243269632	46	6160
2026-01-14 23:42:20.90	137.88	15.21	-36.7	-37.5	24.4	0.00e+00	92	29	0	245366784	46	6072
2026-01-14 23:42:21.91	137.83	15.31	-36.8	-37.6	24.4	0.00e+00	92	29	0	247463936	46	6155
2026-01-14 23:42:22.92	137.79	15.42	-36.8	-37.6	24.4	0.00e+00	38	29	0	249561088	46	6137
2026-01-14 23:42:23.93	137.75	15.53	-36.7	-37.6	24.3	0.00e+00	92	29	0	250609664	46	6130
2026-01-14 23:42:24.94	137.71	15.64	-36.8	-37.6	24.3	0.00e+00	18	29	0	252706816	46	6156
2026-01-14 23:42:25.95	137.67	15.75	-37.1	-37.9	24.1	0.00e+00	92	29	0	254803968	46	6363
2026-01-14 23:42:26.96	137.63	15.86	-36.7	-37.6	24.3	0.00e+00	90	29	0	256901120	46	6111
2026-01-14 23:42:27.97	137.58	15.97	-36.8	-37.7	24.3	0.00e+00	38	29	0	258998272	46	6174
2026-01-14 23:42:28.98	137.54	16.08	-36.7	-37.5	24.4	0.00e+00	92	29	0	260046848	46	6099
2026-01-14 23:42:29.99	137.50	16.19	-36.8	-37.7	24.4	0.00e+00	0	29	0	262144000	46	6189
2026-01-14 23:42:31.00	137.45	16.30	-36.9	-37.7	24.2	0.00e+00	92	29	0	264241152	46	6221
2026-01-14 23:42:32.01	137.41	16.41	-37.0	-37.8	24.2	0.00e+00	45	29	0	266338304	46	6302
2026-01-14 23:42:33.02	137.37	16.53	-36.8	-37.6	24.3	0.00e+00	91	29	0	268435456	46	6157
2026-01-14 23:42:34.02	137.32	16.64	-36.7	-37.6	24.4	0.00e+00	92	29	0	269484032	46	6128
2026-01-14 23:42:35.03	137.28	16.75	-36.7	-37.6	24.4	0.00e+00	84	29	0	271581184	46	6113
2026-01-14 23:42:36.04	137.23	16.87	-36.8	-37.7	24.3	0.00e+00	92	29	0	273678336	46	6193
2026-01-14 23:42:37.05	137.19	16.98	-36.8	-37.7	24.4	0.00e+00	92	29	0	275775488	46	6190
2026-01-14 23:42:38.06	137.14	17.10	-36.7	-37.6	24.4	0.00e+00	92	29	0	277872640	46	6130
2026-01-14 23:42:39.07	137.09	17.21	-36.7	-37.6	24.4	0.00e+00	0	29	0	278921216	46	6138
2026-01-14 23:42:40.08	137.05	17.33	-36.8	-37.6	24.4	0.00e+00	92	29	0	281018368	46	6163
2026-01-14 23:42:41.09	137.00	17.45	-36.7	-37.5	24.5	0.00e+00	92	29	0	283115520	46	6078
2026-01-14 23:42:42.10	136.95	17.56	-36.7	-37.5	24.5	0.00e+00	92	29	0	285212672	46	6084
2026-01-14 23:42:43.10	136.90	17.68	-36.8	-37.6	24.4	0.00e+00	90	29	0	287309824	46	6141
2026-01-14 23:42:44.12	136.86	17.80	-36.7	-37.6	24.5	0.00e+00	40	29	0	288358400	46	6125
2026-01-14 23:42:45.12	136.81	17.92	-36.6	-37.5	24.5	0.00e+00	92	29	0	290455552	46	6052
2026-01-14 23:42:46.13	136.76	18.04	-36.7	-37.6	24.5	0.00e+00	40	29	0	292552704	46	6121
2026-01-14 23:42:47.14	136.71	18.16	-36.7	-37.5	24.4	0.00e+00	92	29	0	294649856	46	6102
2026-01-14 23:42:48.15	136.66	18.28	-36.6	-37.4	24.5	0.00e+00	37	29	0	296747008	46	6023
2026-01-14 23:42:49.16	136.61	18.40	-36.7	-37.5	24.5	0.00e+00	90	29	0	297795584	46	6076
2026-01-14 23:42:50.17	136.56	18.52	-36.6	-37.5	24.5	0.00e+00	92	29	0	299892736	46	6046
2026-01-14 23:42:51.18	136.51	18.64	-36.8	-37.7	24.4	0.00e+00	92	29	0	301989888	46	6185
2026-01-14 23:42:52.19	136.45	18.77	-36.7	-37.5	24.4	0.00e+00	91	29	0	304087040	46	6057
2026-01-14 23:42:53.20	136.40	18.89	-36.8	-37.6	24.4	0.00e+00	91	29	0	306184192	46	6148
2026-01-14 23:42:54.21	136.35	19.01	-36.7	-37.5	24.5	0.00e+00	92	29	0	307232768	46	6095
2026-01-14 23:42:55.22	136.30	19.14	-36.7	-37.5	24.6	0.00e+00	0	29	0	309329920	46	6069
2026-01-14 23:42:56.23	136.24	19.26	-36.7	-37.6	24.5	0.00e+00	92	29	0	311427072	46	6118
2026-01-14 23:42:57.24	136.19	19.39	-36.8	-37.7	24.3	0.00e+00	92	29	0	313524224	46	6189
2026-01-14 23:42:58.25	136.13	19.52	-36.7	-37.5	24.6	0.00e+00	91	29	0	315621376	46	6095
2026-01-14 23:42:59.25	136.08	19.64	-36.8	-37.6	24.4	0.00e+00	92	29	0	316669952	46	6172
2026-01-14 23:43:00.26	136.02	19.77	-36.6	-37.4	24.6	0.00e+00	0	29	0	318767104	46	6002
2026-01-14 23:43:01.28	135.97	19.90	-36.7	-37.6	24.4	0.00e+00	92	29	0	320864256	46	6118
2026-01-14 23:43:02.28	135.91	20.03	-36.6	-37.5	24.5	0.00e+00	0	29	0	322961408	46	6041
2026-01-14 23:43:03.29	135.86	20.16	-36.7	-37.5	24.5	0.00e+00	92	29	0	325058560	46	6068
2026-01-14 23:43:04.30	135.80	20.29	-36.5	-37.3	24.6	0.00e+00	16	29	0	326107136	46	5961
2026-01-14 23:43:05.31	135.74	20.42	-36.6	-37.4	24.6	0.00e+00	92	29	0	328204288	46	5993
2026-01-14 23:43:06.32	135.68	20.55	-36.5	-37.3	24.7	0.00e+00	92	29	0	330301440	46	5957
2026-01-14 23:43:07.33	135.62	20.68	-36.6	-37.4	24.7	0.00e+00	60	29	0	332398592	46	5999
2026-01-14 23:43:08.34	135.56	20.82	-36.5	-37.3	24.7	0.00e+00	92	29	0	334495744	46	5933
2026-01-14 23:43:09.35	135.50	20.95	-36.4	-37.2	24.8	0.00e+00	92	29	0	336592896	46	5860
2026-01-14 23:43:10.35	135.44	21.08	-36.6	-37.4	24.6	0.00e+00	92	29	0	337641472	46	5988
2026-01-14 23:43:11.36	135.38	21.22	-36.4	-37.2	24.7	0.00e+00	31	29	0	339738624	46	5892
2026-01-14 23:43:12.37	135.32	21.35	-36.4	-37.2	24.7	0.00e+00	92	29	0	341835776	46	5892
2026-01-14 23:43:13.38	135.26	21.49	-36.5	-37.3	24.7	0.00e+00	92	29	0	343932928	46	5941
2026-01-14 23:43:14.39	135.19	21.63	-36.4	-37.2	24.8	0.00e+00	92	29	0	346030080	46	5844
2026-01-14 23:43:15.39	135.13	21.76	-36.5	-37.3	24.7	0.00e+00	92	29	0	347078656	46	5924
2026-01-14 23:43:16.41	135.07	21.90	-36.5	-37.3	24.8	0.00e+00	92	29	0	349175808	46	5944
2026-01-14 23:43:17.41	135.00	22.04	-36.5	-37.3	24.7	0.00e+00	92	29	0	351272960	46	5905
2026-01-14 23:43:18.43	134.94	22.18	-36.5	-37.3	24.7	0.00e+00	10	29	0	353370112	46	5958
2026-01-14 23:43:19.43	134.87	22.32	-36.6	-37.4	24.6	0.00e+00	90	29	0	355467264	46	5997
2026-01-14 23:43:20.44	134.80	22.46	-36.6	-37.4	24.7	0.00e+00	91	29	0	356515840	46	6004
2026-01-14 23:43:21.45	134.74	22.60	-36.6	-37.4	24.6	0.00e+00	90	29	0	358612992	46	6004
2026-01-14 23:43:22.46	134.67	22.75	-36.6	-37.5	24.6	0.00e+00	91	29	0	360710144	46	6035
2026-01-14 23:43:23.47	134.60	22.89	-36.7	-37.5	24.6	0.00e+00	0	29	0	362807296	46	6047
2026-01-14 23:43:24.48	134.53	23.04	-36.8	-37.7	24.5	0.00e+00	90	29	0	364904448	46	6189
2026-01-14 23:43:25.49	134.46	23.18	-37.0	-37.9	24.3	0.00e+00	45	29	0	365953024	46	6319
2026-01-14 23:43:26.50	134.39	23.33	-36.9	-37.8	24.4	0.00e+00	91	29	0	368050176	46	6262
2026-01-14 23:43:27.51	134.32	23.47	-37.0	-37.8	24.3	0.00e+00	83	29	0	370147328	46	6306
2026-01-14 23:43:28.52	134.25	23.62	-37.0	-37.9	24.3	0.00e+00	90	29	0	372244480	46	6338
2026-01-14 23:43:29.53	134.18	23.77	-37.0	-37.9	24.3	0.00e+00	92	29	0	374341632	46	6369
2026-01-14 23:43:30.53	134.10	23.92	-37.1	-38.0	24.3	0.00e+00	92	29	0	375390208	46	6407
2026-01-14 23:43:31.54	134.03	24.07	-37.0	-37.8	24.3	0.00e+00	90	29	0	377487360	46	6296
2026-01-14 23:43:32.55	133.95	24.22	-37.1	-37.9	24.3	0.00e+00	70	29	0	379584512	46	6383
2026-01-14 23:43:33.56	133.88	24.37	-37.1	-37.9	24.2	0.00e+00	92	29	0	381681664	46	6388
2026-01-14 23:43:34.57	133.80	24.52	-37.1	-38.0	24.2	0.00e+00	80	29	0	383778816	46	6410
2026-01-14 23:43:35.58	133.72	24.67	-37.2	-38.1	24.2	0.00e+00	90	29	0	384827392	46	6474
2026-01-14 23:43:36.59	133.65	24.83	-37.2	-38.1	24.1	0.00e+00	92	29	0	386924544	46	6484
2026-01-14 23:43:37.59	133.57	24.98	-37.3	-38.2	24.1	0.00e+00	90	29	0	389021696	46	6583
2026-01-14 23:43:38.60	133.49	25.14	-37.3	-38.3	24.0	0.00e+00	92	29	0	391118848	46	6625
2026-01-14 23:43:39.61	133.41	25.29	-37.3	-38.2	23.8	0.00e+00	92	29	0	393216000	46	6605
2026-01-14 23:43:40.62	133.33	25.45	-37.4	-38.3	24.0	0.00e+00	92	29	0	394264576	46	6644
2026-01-14 23:43:41.63	133.25	25.61	-37.4	-38.3	23.9	0.00e+00	71	29	0	396361728	46	6642
2026-01-14 23:43:42.64	133.16	25.77	-37.6	-38.5	23.8	0.00e+00	90	29	0	398458880	46	6810
2026-01-14 23:43:43.65	133.08	25.93	-37.7	-38.7	23.6	0.00e+00	92	29	0	400556032	46	6928
2026-01-14 23:43:44.66	132.99	26.09	-38.0	-38.9	23.5	0.00e+00	92	29	0	402653184	48	6375
2026-01-14 23:43:45.67	132.91	26.25	-38.0	-39.0	23.4	0.00e+00	92	29	0	404750336	48	6448
2026-01-14 23:43:46.68	132.82	26.41	-38.2	-39.2	23.1	0.00e+00	92	29	0	405798912	48	6544
2026-01-14 23:43:47.69	132.74	26.58	-38.5	-39.5	22.8	0.00e+00	90	29	0	407896064	48	6830
2026-01-14 23:43:48.70	132.65	26.74	-38.7	-39.7	22.7	0.00e+00	42	29	0	409993216	48	6966
2026-01-14 23:43:49.70	132.56	26.91	-38.8	-39.9	22.4	0.00e+00	90	29	0	412090368	48	7090
2026-01-14 23:43:50.71	132.47	27.07	-38.6	-39.6	22.9	0.00e+00	10	29	0	413138944	50	6145
2026-01-14 23:43:51.72	132.38	27.24	-38.9	-39.9	22.6	0.00e+00	90	29	0	415236096	50	6343
2026-01-14 23:43:52.73	132.29	27.41	-39.0	-40.0	22.5	0.00e+00	92	29	0	417333248	50	6417
2026-01-14 23:43:53.74	132.19	27.58	-38.9	-39.9	22.6	0.00e+00	91	29	0	419430400	50	6350
2026-01-14 23:43:54.75	132.10	27.75	-39.1	-40.1	22.4	0.00e+00	92	29	0	421527552	50	6497
2026-01-14 23:43:55.76	132.00	27.92	-39.1	-40.2	22.3	0.00e+00	46	29	0	422576128	50	6551
2026-01-14 23:43:56.77	131.91	28.09	-39.0	-40.0	22.5	0.00e+00	92	29	0	424673280	50	6460
2026-01-14 23:43:57.78	131.81	28.27	-39.4	-40.4	22.2	0.00e+00	0	29	0	426770432	50	6748
2026-01-14 23:43:58.79	131.71	28.44	-39.3	-40.4	22.1	0.00e+00	92	29	0	428867584	50	6728
2026-01-14 23:43:59.80	131.61	28.61	-39.5	-40.5	22.0	0.00e+00	91	29	0	430964736	50	6845
2026-01-14 23:44:00.81	131.51	28.79	-39.5	-40.5	22.1	0.00e+00	92	29	0	433061888	50	6836
2026-01-14 23:44:01.82	131.41	28.97	-39.5	-40.6	22.0	0.00e+00	91	29	0	434110464	50	6879
2026-01-14 23:44:02.83	131.31	29.15	-39.6	-40.6	21.8	0.00e+00	44	29	0	436207616	50	6921
2026-01-14 23:44:03.84	131.20	29.32	-39.7	-40.8	21.8	0.00e+00	92	29	0	438304768	52	6302
2026-01-14 23:44:04.85	131.10	29.51	-39.8	-40.9	21.7	0.00e+00	0	29	0	440401920	52	6347
2026-01-14 23:44:05.86	130.99	29.69	-40.0	-41.1	21.5	0.00e+00	92	29	0	442499072	52	6535
2026-01-14 23:44:06.87	130.88	29.87	-40.1	-41.2	21.5	0.00e+00	92	29	0	443547648	52	6573
2026-01-14 23:44:07.87	130.77	30.05	-39.9	-41.1	21.6	0.00e+00	92	29	0	445644800	52	6466
2026-01-14 23:44:08.88	130.66	30.23	-40.0	-41.1	21.5	0.00e+00	92	29	0	447741952	52	6513
2026-01-14 23:44:09.89	130.55	30.42	-40.0	-41.2	21.5	0.00e+00	90	29	0	449839104	52	6558
2026-01-14 23:44:10.90	130.44	30.61	-40.0	-41.2	21.4	0.00e+00	92	29	0	451936256	52	6554
2026-01-14 23:44:11.91	130.33	30.79	-40.1	-41.2	21.5	0.00e+00	0	29	0	452984832	52	6607
2026-01-14 23:44:12.92	130.21	30.98	-40.2	-41.4	21.4	0.00e+00	92	29	0	455081984	52	6699
2026-01-14 23:44:13.93	130.09	31.17	-40.4	-41.6	21.1	0.00e+00	91	29	0	457179136	52	6923
2026-01-14 23:44:14.94	129.97	31.36	-40.5	-41.7	21.1	0.00e+00	92	29	0	459276288	52	6955
2026-01-14 23:44:15.95	129.85	31.56	-40.6	-41.8	20.9	0.00e+00	92	29	0	461373440	52	7028
2026-01-14 23:44:16.96	129.73	31.75	-40.6	-41.8	20.9	0.00e+00	90	29	0	462422016	54	6303
2026-01-14 23:44:17.96	129.61	31.94	-40.6	-41.9	20.9	0.00e+00	92	29	0	464519168	54	6325
2026-01-14 23:44:18.97	129.49	32.14	-40.7	-41.9	20.8	0.00e+00	7	29	0	466616320	54	6363
2026-01-14 23:44:19.99	129.36	32.33	-40.6	-41.8	20.9	0.00e+00	92	29	0	468713472	54	6302
2026-01-14 23:44:21.00	129.23	32.53	-40.6	-41.8	21.0	0.00e+00	0	29	0	470810624	54	6301
2026-01-14 23:44:22.00	129.10	32.73	-40.8	-42.0	20.7	0.00e+00	92	29	0	471859200	54	6451
2026-01-14 23:44:23.01	128.97	32.93	-40.7	-42.0	20.7	0.00e+00	92	29	0	473956352	54	6413
2026-01-14 23:44:24.02	128.84	33.13	-40.6	-41.9	20.8	0.00e+00	92	29	0	476053504	54	6344
2026-01-14 23:44:25.03	128.71	33.33	-40.5	-41.7	20.9	0.00e+00	92	29	0	478150656	54	6218
2026-01-14 23:44:26.04	128.57	33.54	-40.7	-42.0	20.8	0.00e+00	92	29	0	480247808	54	6424
2026-01-14 23:44:27.05	128.43	33.74	-40.7	-42.0	20.7	0.00e+00	92	29	0	481296384	54	6395
2026-01-14 23:44:28.06	128.29	33.95	-40.7	-42.0	20.8	0.00e+00	0	29	0	483393536	54	6424
2026-01-14 23:44:29.07	128.15	34.15	-40.7	-41.9	20.9	0.00e+00	93	29	0	485490688	54	6353
2026-01-14 23:44:30.08	128.01	34.36	-40.7	-42.0	20.8	0.00e+00	90	29	0	487587840	54	6394
2026-01-14 23:44:31.08	127.87	34.57	-40.7	-41.9	20.8	0.00e+00	92	29	0	489684992	54	6380
2026-01-14 23:44:32.09	127.72	34.78	-41.0	-42.3	20.5	0.00e+00	92	29	0	490733568	54	6641
2026-01-14 23:44:33.10	127.57	34.99	-41.2	-42.5	20.2	0.00e+00	92	29	0	492830720	54	6843
2026-01-14 23:44:34.11	127.42	35.20	-41.3	-42.6	20.1	0.00e+00	89	29	0	494927872	54	6909
2026-01-14 23:44:35.12	127.27	35.42	-41.1	-42.4	20.3	0.00e+00	0	29	0	497025024	54	6765
2026-01-14 23:44:36.13	127.11	35.63	-41.2	-42.6	20.3	0.00e+00	92	29	0	499122176	54	6870
2026-01-14 23:44:37.14	126.96	35.85	-40.8	-42.1	20.7	0.00e+00	0	29	0	501219328	54	6508
2026-01-14 23:44:38.15	126.80	36.07	-40.8	-42.0	20.7	0.00e+00	92	29	0	502267904	54	6451
2026-01-14 23:44:39.16	126.64	36.28	-40.8	-42.1	20.7	0.00e+00	90	29	0	504365056	54	6482
2026-01-14 23:44:40.17	126.47	36.50	-40.6	-41.9	20.8	0.00e+00	92	29	0	506462208	54	6340
2026-01-14 23:44:41.18	126.31	36.73	-40.5	-41.7	21.0	0.00e+00	92	29	0	508559360	54	6234
2026-01-14 23:44:42.19	126.14	36.95	-40.2	-41.4	21.3	0.00e+00	0	29	0	510656512	54	6000
2026-01-14 23:44:43.19	125.97	37.17	-40.0	-41.1	21.6	0.00e+00	91	29	0	511705088	54	5800
2026-01-14 23:44:44.20	125.80	37.39	-39.8	-40.9	21.8	0.00e+00	39	29	0	513802240	54	5633
2026-01-14 23:44:45.21	125.62	37.62	-39.9	-41.0	21.7	0.00e+00	92	29	0	515899392	54	5722
2026-01-14 23:44:46.22	125.44	37.85	-39.8	-40.9	21.8	0.00e+00	92	29	0	517996544	52	6338
2026-01-14 23:44:47.23	125.26	38.08	-39.9	-41.0	21.7	0.00e+00	92	29	0	520093696	52	6415
2026-01-14 23:44:48.24	125.08	38.31	-39.7	-40.8	21.9	0.00e+00	92	29	0	521142272	52	6253
2026-01-14 23:44:49.25	124.90	38.54	-39.8	-40.8	21.9	0.00e+00	92	29	0	523239424	52	6301
2026-01-14 23:44:50.26	124.71	38.77	-39.7	-40.8	21.8	0.00e+00	92	29	0	525336576	52	6298
2026-01-14 23:44:51.27	124.52	39.00	-39.6	-40.7	21.6	0.00e+00	8	29	0	527433728	52	6184
2026-01-14 23:44:52.28	124.32	39.24	-39.5	-40.6	22.1	0.00e+00	92	29	0	529530880	52	6133
2026-01-14 23:44:53.29	124.13	39.47	-39.6	-40.7	22.0	0.00e+00	92	29	0	530579456	52	6180
2026-01-14 23:44:54.30	123.93	39.71	-39.5	-40.6	22.1	0.00e+00	92	29	0	532676608	52	6133
2026-01-14 23:44:55.31	123.72	39.95	-39.6	-40.7	22.0	0.00e+00	92	29	0	534773760	52	6177
2026-01-14 23:44:56.32	123.52	40.19	-39.7	-40.8	21.9	0.00e+00	92	29	0	536870912	52	6254
2026-01-14 23:44:57.32	123.31	40.43	-39.8	-40.9	21.8	0.00e+00	92	29	0	538968064	52	6326
2026-01-14 23:44:58.33	123.10	40.67	-39.7	-40.8	21.9	0.00e+00	7	29	0	540016640	52	6304
2026-01-14 23:44:59.34	122.89	40.91	-40.0	-41.1	21.6	0.00e+00	92	29	0	542113792	52	6494
2026-01-14 23:45:00.35	122.67	41.16	-39.8	-40.9	21.8	0.00e+00	40	29	0	544210944	52	6335
2026-01-14 23:45:01.36	122.45	41.40	-39.8	-40.9	21.7	0.00e+00	92	29	0	546308096	52	6367
2026-01-14 23:45:02.37	122.22	41.65	-39.9	-41.1	21.6	0.00e+00	92	29	0	548405248	52	6487
2026-01-14 23:45:03.38	121.99	41.90	-40.0	-41.1	21.6	0.00e+00	92	29	0	549453824	52	6531
2026-01-14 23:45:04.39	121.76	42.14	-39.9	-41.0	21.6	0.00e+00	92	29	0	551550976	52	6443
2026-01-14 23:45:05.40	121.52	42.39	-39.8	-40.9	21.8	0.00e+00	92	29	0	553648128	52	6346
2026-01-14 23:45:06.41	121.29	42.65	-39.5	-40.6	22.1	0.00e+00	92	29	0	555745280	52	6123
2026-01-14 23:45:07.42	121.04	42.90	-39.3	-40.3	22.3	0.00e+00	0	29	0	557842432	52	5943
2026-01-14 23:45:08.43	120.79	43.15	-39.6	-40.6	22.0	0.00e+00	92	29	0	558891008	52	6166
2026-01-14 23:45:09.44	120.54	43.41	-39.6	-40.7	22.0	0.00e+00	92	29	0	560988160	52	6193
2026-01-14 23:45:10.45	120.29	43.66	-39.4	-40.4	22.3	0.00e+00	92	29	0	563085312	52	6001
2026-01-14 23:45:11.46	120.03	43.92	-39.1	-40.1	22.6	0.00e+00	92	29	0	565182464	52	5779
2026-01-14 23:45:12.47	119.76	44.18	-38.8	-39.8	22.8	0.00e+00	92	29	0	567279616	52	5596
2026-01-14 23:45:13.48	119.50	44.43	-38.9	-39.9	22.7	0.00e+00	90	29	0	569376768	52	5655
2026-01-14 23:45:14.49	119.22	44.69	-38.7	-39.6	22.9	0.00e+00	39	29	0	570425344	50	6159
2026-01-14 23:45:15.50	118.95	44.95	-39.1	-40.1	22.5	0.00e+00	92	29	0	572522496	50	6519
2026-01-14 23:45:16.51	118.67	45.21	-38.9	-39.9	22.6	0.00e+00	91	29	0	574619648	50	6376
2026-01-14 23:45:17.52	118.38	45.48	-39.0	-40.0	22.5	0.00e+00	90	29	0	576716800	50	6425
2026-01-14 23:45:18.52	118.09	45.74	-39.0	-40.0	22.7	0.00e+00	92	29	0	578813952	50	6453
2026-01-14 23:45:19.53	117.79	46.00	-38.9	-39.9	22.6	0.00e+00	90	29	0	579862528	50	6367
2026-01-14 23:45:20.54	117.49	46.27	-39.1	-40.1	22.5	0.00e+00	91	29	0	581959680	50	6507
2026-01-14 23:45:21.55	117.19	46.53	-39.1	-40.1	22.5	0.00e+00	0	29	0	584056832	50	6480
2026-01-14 23:45:22.56	116.87	46.80	-39.1	-40.2	22.4	0.00e+00	92	29	0	586153984	50	6545
2026-01-14 23:45:23.57	116.56	47.07	-39.1	-40.1	22.5	0.00e+00	89	29	0	588251136	50	6511
2026-01-14 23:45:24.58	116.23	47.33	-39.0	-40.0	22.6	0.00e+00	91	29	0	589299712	50	6438
2026-01-14 23:45:25.59	115.91	47.60	-39.1	-40.1	22.5	0.00e+00	92	29	0	591396864	50	6513
2026-01-14 23:45:26.60	115.57	47.87	-39.1	-40.1	22.5	0.00e+00	91	29	0	593494016	50	6487
2026-01-14 23:45:27.61	115.23	48.14	-39.4	-40.4	22.2	0.00e+00	91	29	0	595591168	50	6751
2026-01-14 23:45:28.62	114.89	48.41	-39.1	-40.2	22.5	0.00e+00	0	29	0	597688320	50	6542
2026-01-14 23:45:29.63	114.53	48.68	-39.1	-40.1	22.5	0.00e+00	91	29	0	598736896	50	6503
2026-01-14 23:45:30.64	114.18	48.95	-38.9	-39.9	22.6	0.00e+00	3	29	0	600834048	50	6349
2026-01-14 23:45:31.65	113.81	49.23	-38.7	-39.7	22.9	0.00e+00	91	29	0	602931200	50	6199
2026-01-14 23:45:32.65	113.44	49.50	-38.3	-39.3	23.2	0.00e+00	91	29	0	605028352	50	5908
2026-01-14 23:45:33.67	113.06	49.77	-38.5	-39.4	23.2	0.00e+00	91	29	0	607125504	50	5994
2026-01-14 23:45:34.68	112.68	50.04	-38.6	-39.5	23.0	0.00e+00	90	29	0	608174080	50	6083
2026-01-14 23:45:35.69	112.28	50.32	-38.3	-39.2	23.3	0.00e+00	46	29	0	610271232	50	5880
2026-01-14 23:45:36.70	111.89	50.59	-38.4	-39.3	23.2	0.00e+00	91	29	0	612368384	50	5936
2026-01-14 23:45:37.71	111.48	50.86	-37.8	-38.7	23.7	0.00e+00	0	29	0	614465536	50	5559
2026-01-14 23:45:38.72	111.06	51.14	-38.0	-38.9	23.6	0.00e+00	92	29	0	616562688	50	5638
2026-01-14 23:45:39.73	110.64	51.41	-38.1	-39.0	23.5	0.00e+00	87	29	0	617611264	50	5743
2026-01-14 23:45:40.74	110.21	51.68	-37.9	-38.8	23.7	0.00e+00	92	29	0	619708416	50	5614
2026-01-14 23:45:41.75	109.78	51.96	-37.9	-38.9	23.7	0.00e+00	90	29	0	621805568	50	5633
2026-01-14 23:45:42.76	109.33	52.23	-38.0	-39.0	23.5	0.00e+00	92	29	0	623902720	50	5701
2026-01-14 23:45:43.77	108.88	52.50	-37.9	-38.9	23.5	0.00e+00	92	29	0	625999872	50	5639
2026-01-14 23:45:44.78	108.41	52.77	-37.6	-38.5	23.8	0.00e+00	0	29	0	627048448	48	6089
2026-01-14 23:45:45.79	107.94	53.05	-37.1	-38.0	24.3	0.00e+00	90	29	0	629145600	48	5699
2026-01-14 23:45:46.81	107.46	53.32	-36.7	-37.5	24.7	0.00e+00	46	29	0	631242752	46	6081
2026-01-14 23:45:47.81	106.97	53.59	-36.9	-37.7	24.5	0.00e+00	90	29	0	633339904	46	6223
2026-01-14 23:45:48.82	106.47	53.86	-37.2	-38.0	24.3	0.00e+00	91	29	0	635437056	46	6430
2026-01-14 23:45:49.83	105.97	54.13	-37.2	-38.0	24.3	0.00e+00	90	29	0	637534208	46	6459
2026-01-14 23:45:50.84	105.45	54.39	-36.9	-37.7	24.6	0.00e+00	92	29	0	638582784	46	6229
2026-01-14 23:45:51.85	104.92	54.66	-36.7	-37.5	24.6	0.00e+00	10	29	0	640679936	46	6094
2026-01-14 23:45:52.86	104.38	54.93	-36.9	-37.7	24.5	0.00e+00	92	29	0	642777088	46	6223
2026-01-14 23:45:53.87	103.84	55.19	-37.2	-38.0	24.2	0.00e+00	0	29	0	644874240	46	6450
2026-01-14 23:45:54.88	103.28	55.45	-37.4	-38.2	24.1	0.00e+00	92	29	0	646971392	46	6585
2026-01-14 23:45:55.88	102.72	55.71	-37.5	-38.4	24.1	0.00e+00	92	29	0	648019968	46	6701
2026-01-14 23:45:56.89	102.14	55.97	-38.0	-39.0	23.5	0.00e+00	90	29	0	650117120	48	6397
2026-01-14 23:45:57.90	101.55	56.23	-38.8	-39.8	22.8	0.00e+00	92	29	0	652214272	50	6267
2026-01-14 23:45:58.91	100.95	56.49	-39.1	-40.2	22.4	0.00e+00	91	29	0	654311424	50	6563
2026-01-14 23:45:59.91	100.34	56.74	-39.2	-40.3	22.5	0.00e+00	92	29	0	655360000	50	6631
2026-01-14 23:46:00.92	99.72	56.99	-39.3	-40.3	22.3	0.00e+00	44	29	0	657457152	50	6641
2026-01-14 23:46:01.93	99.08	57.24	-39.2	-40.2	22.4	0.00e+00	92	29	0	659554304	50	6584
2026-01-14 23:46:02.94	98.44	57.49	-39.2	-40.2	22.4	0.00e+00	90	29	0	661651456	50	6572
2026-01-14 23:46:03.95	97.78	57.73	-39.2	-40.3	22.4	0.00e+00	92	29	0	663748608	50	6621
2026-01-14 23:46:04.96	97.11	57.98	-39.1	-40.1	22.4	0.00e+00	92	29	0	665845760	50	6495
2026-01-14 23:46:05.97	96.42	58.22	-39.7	-40.8	21.9	0.00e+00	90	29	0	666894336	50	7063
2026-01-14 23:46:06.98	95.73	58.45	-39.9	-41.1	21.5	0.00e+00	92	29	0	668991488	52	6478
2026-01-14 23:46:07.98	95.03	58.69	-39.7	-40.8	21.8	0.00e+00	42	29	0	671088640	52	6307
2026-01-14 23:46:08.99	94.31	58.92	-39.7	-40.8	22.0	0.00e+00	92	29	0	673185792	52	6247
2026-01-14 23:46:10.00	93.57	59.14	-39.6	-40.6	22.0	0.00e+00	58	29	0	675282944	52	6170
2026-01-14 23:46:11.01	92.83	59.37	-39.7	-40.8	21.8	0.00e+00	92	29	0	676331520	52	6313
2026-01-14 23:46:12.02	92.07	59.59	-39.7	-40.8	21.9	0.00e+00	92	29	0	678428672	52	6270
2026-01-14 23:46:13.03	91.30	59.80	-39.3	-40.3	22.4	0.00e+00	92	29	0	680525824	52	5958
2026-01-14 23:46:14.03	90.52	60.01	-38.9	-39.9	22.6	0.00e+00	92	29	0	682622976	52	5633
2026-01-14 23:46:15.04	89.73	60.22	-38.8	-39.8	22.9	0.00e+00	0	29	0	684720128	50	6274
2026-01-14 23:46:16.05	88.92	60.43	-38.3	-39.2	23.4	0.00e+00	92	29	0	685768704	50	5853
2026-01-14 23:46:17.06	88.09	60.62	-37.6	-38.5	23.9	0.00e+00	2	29	0	687865856	48	6048
2026-01-14 23:46:18.07	87.26	60.82	-37.8	-38.7	23.7	0.00e+00	92	29	0	689963008	48	6195
2026-01-14 23:46:19.07	86.42	61.01	-37.1	-37.9	24.4	0.00e+00	90	29	0	692060160	48	5662
2026-01-14 23:46:20.08	85.56	61.19	-36.8	-37.7	24.6	0.00e+00	91	29	0	694157312	48	5504
2026-01-14 23:46:21.09	84.68	61.37	-36.7	-37.5	24.8	0.00e+00	92	29	0	695205888	46	6057
2026-01-14 23:46:22.10	83.80	61.54	-36.4	-37.2	24.9	0.00e+00	70	29	0	697303040	46	5858
2026-01-14 23:46:23.11	82.90	61.71	-36.0	-36.8	25.3	0.00e+00	92	29	0	699400192	46	5602
2026-01-14 23:46:24.12	81.99	61.87	-36.1	-36.8	25.4	0.00e+00	50	29	0	701497344	46	5622
2026-01-14 23:46:25.13	81.07	62.03	-35.8	-36.6	25.6	0.00e+00	92	29	0	703594496	46	5479
2026-01-14 23:46:26.14	80.13	62.18	-35.6	-36.3	25.6	0.00e+00	92	29	0	704643072	44	5949
2026-01-14 23:46:27.15	79.19	62.32	-35.7	-36.5	25.3	0.00e+00	50	29	0	706740224	44	6041
2026-01-14 23:46:28.16	78.23	62.46	-36.1	-36.8	25.3	0.00e+00	92	29	0	708837376	44	6306
2026-01-14 23:46:29.17	77.26	62.59	-35.7	-36.5	25.7	0.00e+00	32	29	0	710934528	44	6041
2026-01-14 23:46:30.18	76.28	62.72	-35.6	-36.4	25.5	0.00e+00	92	29	0	713031680	44	5997
2026-01-14 23:46:31.18	75.31	62.83	-35.5	-36.2	25.8	0.00e+00	43	29	0	714080256	44	5877
2026-01-14 23:46:32.19	74.31	62.94	-35.3	-36.0	26.0	0.00e+00	92	29	0	716177408	44	5759
2026-01-14 23:46:33.20	73.30	63.04	-35.1	-35.8	26.2	0.00e+00	0	29	0	718274560	44	5603
2026-01-14 23:46:34.21	72.29	63.14	-35.1	-35.8	26.2	0.00e+00	92	29	0	720371712	44	5604
2026-01-14 23:46:35.22	71.27	63.23	-35.1	-35.8	26.1	0.00e+00	92	29	0	722468864	44	5622
2026-01-14 23:46:36.23	70.24	63.31	-34.7	-35.4	26.4	0.00e+00	12	29	0	723517440	44	5360
2026-01-14 23:46:37.24	69.20	63.38	-34.9	-35.6	26.2	0.00e+00	92	29	0	725614592	42	6132
2026-01-14 23:46:38.25	68.16	63.45	-35.0	-35.8	26.2	0.00e+00	7	29	0	727711744	42	6248
2026-01-14 23:46:39.26	67.11	63.51	-34.9	-35.6	26.3	0.00e+00	92	29	0	729808896	42	6136
2026-01-14 23:46:40.27	66.06	63.55	-34.9	-35.6	26.4	0.00e+00	0	29	0	731906048	42	6142
2026-01-14 23:46:41.28	65.01	63.60	-35.0	-35.7	26.2	0.00e+00	92	29	0	734003200	42	6221
2026-01-14 23:46:42.29	63.95	63.63	-35.1	-35.8	26.1	0.00e+00	92	29	0	735051776	42	6295
2026-01-14 23:46:43.30	62.88	63.66	-34.6	-35.3	26.5	0.00e+00	0	29	0	737148928	42	5904
2026-01-14 23:46:44.31	61.82	63.67	-34.4	-35.1	26.6	0.00e+00	92	29	0	739246080	42	5816
2026-01-14 23:46:45.32	60.75	63.68	-34.2	-34.9	26.8	0.00e+00	44	29	0	741343232	42	5645
2026-01-14 23:46:46.32	59.70	63.68	-34.0	-34.7	26.9	0.00e+00	92	29	0	743440384	42	5547
2026-01-14 23:46:47.33	58.63	63.68	-34.3	-35.0	26.5	0.00e+00	49	29	0	744488960	42	5715
2026-01-14 23:46:48.34	57.57	63.66	-34.6	-35.3	26.5	0.00e+00	90	29	0	746586112	42	5908
2026-01-14 23:46:49.35	56.51	63.64	-34.6	-35.3	26.5	0.00e+00	0	29	0	748683264	42	5930
2026-01-14 23:46:50.36	55.45	63.61	-34.8	-35.5	26.2	0.00e+00	90	29	0	750780416	42	6059
2026-01-14 23:46:51.37	54.39	63.57	-35.1	-35.8	26.1	0.00e+00	92	29	0	752877568	42	6274
2026-01-14 23:46:52.38	53.33	63.52	-35.1	-35.8	26.1	0.00e+00	6	29	0	753926144	42	6283
2026-01-14 23:46:53.39	52.29	63.47	-35.2	-35.9	26.0	0.00e+00	92	29	0	756023296	42	6367
2026-01-14 23:46:54.40	51.24	63.40	-35.5	-36.3	25.7	0.00e+00	6	29	0	758120448	42	6644
2026-01-14 23:46:55.41	50.21	63.33	-35.6	-36.3	25.7	0.00e+00	91	29	0	760217600	42	6686
2026-01-14 23:46:56.42	49.17	63.26	-35.7	-36.5	25.6	0.00e+00	4	29	0	762314752	42	6781
2026-01-14 23:46:57.43	48.15	63.17	-35.7	-36.5	25.6	0.00e+00	92	29	0	763363328	44	6042
2026-01-14 23:46:58.44	47.13	63.08	-35.5	-36.3	25.7	0.00e+00	92	29	0	765460480	44	5911
2026-01-14 23:46:59.45	46.13	62.98	-35.2	-36.0	26.0	0.00e+00	0	29	0	767557632	44	5702
2026-01-14 23:47:00.46	45.13	62.87	-35.2	-35.9	26.1	0.00e+00	92	29	0	769654784	44	5660
2026-01-14 23:47:01.47	44.14	62.75	-35.3	-36.0	26.0	0.00e+00	49	29	0	771751936	44	5726
2026-01-14 23:47:02.48	43.16	62.63	-35.2	-36.0	26.0	0.00e+00	92	29	0	772800512	44	5697
2026-01-14 23:47:03.49	42.19	62.50	-35.2	-36.0	25.9	0.00e+00	0	29	0	774897664	44	5707
2026-01-14 23:47:04.49	41.24	62.37	-35.0	-35.7	26.1	0.00e+00	92	29	0	776994816	44	5532
2026-01-14 23:47:05.50	40.29	62.23	-35.1	-35.8	26.1	0.00e+00	92	29	0	779091968	44	5612
2026-01-14 23:47:06.51	39.35	62.08	-35.1	-35.8	26.0	0.00e+00	0	29	0	781189120	44	5609
2026-01-14 23:47:07.52	38.43	61.93	-34.9	-35.6	26.2	0.00e+00	92	29	0	782237696	44	5473
2026-01-14 23:47:08.53	37.52	61.77	-35.2	-35.9	25.9	0.00e+00	49	29	0	784334848	44	5656
2026-01-14 23:47:09.54	36.61	61.60	-35.6	-36.3	25.5	0.00e+00	92	29	0	786432000	44	5950
2026-01-14 23:47:10.55	35.72	61.43	-35.9	-36.7	25.3	0.00e+00	43	29	0	788529152	44	6210
2026-01-14 23:47:11.56	34.85	61.25	-36.2	-37.0	25.2	0.00e+00	90	29	0	790626304	44	6407
2026-01-14 23:47:12.57	33.98	61.07	-36.0	-36.7	25.3	0.00e+00	18	29	0	791674880	44	6245
2026-01-14 23:47:13.58	33.13	60.88	-36.1	-36.9	25.3	0.00e+00	89	29	0	793772032	44	6365
2026-01-14 23:47:14.58	32.30	60.69	-36.9	-37.8	24.4	0.00e+00	92	29	0	795869184	46	6260
2026-01-14 23:47:15.60	31.47	60.49	-37.7	-38.6	23.8	0.00e+00	38	29	0	797966336	46	6884
2026-01-14 23:47:16.61	30.65	60.29	-38.2	-39.1	23.3	0.00e+00	92	29	0	800063488	48	6522
2026-01-14 23:47:17.62	29.85	60.08	-38.6	-39.5	23.0	0.00e+00	6	29	0	802160640	48	6844
2026-01-14 23:47:18.63	29.07	59.87	-38.7	-39.6	22.8	0.00e+00	92	29	0	803209216	48	6915
2026-01-14 23:47:19.64	28.29	59.66	-39.0	-40.0	22.6	0.00e+00	6	29	0	805306368	50	6400
2026-01-14 23:47:20.65	27.53	59.44	-39.5	-40.6	21.9	0.00e+00	92	29	0	807403520	50	6858
2026-01-14 23:47:21.65	26.79	59.22	-40.1	-41.2	21.4	0.00e+00	90	29	0	809500672	52	6615
2026-01-14 23:47:22.67	26.05	58.99	-40.5	-41.6	21.0	0.00e+00	50	29	0	811597824	52	6920
2026-01-14 23:47:23.67	25.33	58.77	-40.3	-41.4	21.2	0.00e+00	92	29	0	812646400	52	6767
2026-01-14 23:47:24.68	24.62	58.53	-40.6	-41.8	20.9	0.00e+00	50	29	0	814743552	52	7023
2026-01-14 23:47:25.69	23.92	58.30	-41.2	-42.5	20.2	0.00e+00	90	29	0	816840704	54	6817
2026-01-14 23:47:26.70	23.24	58.06	-41.1	-42.5	20.4	0.00e+00	0	29	0	818937856	54	6771
2026-01-14 23:47:27.71	22.57	57.82	-40.5	-41.8	20.9	0.00e+00	92	29	0	819986432	54	6262
2026-01-14 23:47:28.72	21.90	57.57	-40.4	-41.6	21.0	0.00e+00	92	29	0	822083584	54	6130
2026-01-14 23:47:29.73	21.25	57.33	-40.2	-41.3	21.4	0.00e+00	33	29	0	824180736	54	5957
2026-01-14 23:47:30.74	20.62	57.08	-39.8	-40.9	21.8	0.00e+00	92	29	0	826277888	54	5691
2026-01-14 23:47:31.75	19.99	56.83	-39.1	-40.1	22.3	0.00e+00	32	29	0	828375040	52	5788
2026-01-14 23:47:32.76	19.38	56.57	-39.2	-40.2	22.3	0.00e+00	92	29	0	830472192	52	5887
2026-01-14 23:47:33.77	18.77	56.32	-39.2	-40.3	22.4	0.00e+00	0	29	0	831520768	52	5919
2026-01-14 23:47:34.78	18.18	56.06	-38.9	-39.9	22.7	0.00e+00	90	29	0	833617920	52	5658
2026-01-14 23:47:35.78	17.61	55.80	-38.4	-39.4	23.2	0.00e+00	38	29	0	835715072	50	5996
2026-01-14 23:47:36.79	17.04	55.54	-38.3	-39.2	23.4	0.00e+00	92	29	0	837812224	50	5890
2026-01-14 23:47:37.80	16.48	55.28	-38.2	-39.2	23.4	0.00e+00	90	29	0	839909376	50	5839
2026-01-14 23:47:38.81	15.93	55.02	-38.1	-39.0	23.6	0.00e+00	32	29	0	840957952	50	5742
2026-01-14 23:47:39.82	15.39	54.75	-37.7	-38.5	23.8	0.00e+00	92	29	0	843055104	48	6099
2026-01-14 23:47:40.83	14.86	54.49	-37.6	-38.5	24.0	0.00e+00	0	29	0	845152256	48	6064
2026-01-14 23:47:41.83	14.34	54.22	-37.7	-38.6	23.8	0.00e+00	92	29	0	847249408	48	6143
2026-01-14 23:47:42.84	13.83	53.96	-37.6	-38.5	23.8	0.00e+00	0	29	0	849346560	48	6091
2026-01-14 23:47:43.85	13.33	53.69	-37.4	-38.3	24.0	0.00e+00	92	29	0	850395136	48	5935
2026-01-14 23:47:44.86	12.84	53.42	-37.9	-38.8	23.6	0.00e+00	92	29	0	852492288	48	6274
2026-01-14 23:47:45.87	12.36	53.15	-38.2	-39.2	23.3	0.00e+00	0	29	0	854589440	48	6554
2026-01-14 23:47:46.88	11.89	52.88	-38.4	-39.4	23.1	0.00e+00	91	29	0	856686592	48	6713
2026-01-14 23:47:47.89	11.42	52.61	-38.6	-39.6	22.9	0.00e+00	48	29	0	858783744	48	6862
2026-01-14 23:47:48.90	10.97	52.34	-38.7	-39.7	22.8	0.00e+00	90	29	0	859832320	50	6231
2026-01-14 23:47:49.91	10.52	52.06	-39.1	-40.1	22.5	0.00e+00	0	29	0	861929472	50	6496
2026-01-14 23:47:50.92	10.08	51.79	-39.3	-40.3	22.4	0.00e+00	91	29	0	864026624	50	6654
2026-01-14 23:47:51.93	9.65	51.52	-39.4	-40.5	22.2	0.00e+00	92	29	0	866123776	50	6806
2026-01-14 23:47:52.94	9.22	51.25	-39.4	-40.5	22.1	0.00e+00	33	29	0	868220928	50	6776
2026-01-14 23:47:53.94	8.81	50.98	-39.6	-40.7	22.0	0.00e+00	90	29	0	869269504	50	6950
2026-01-14 23:47:54.95	8.40	50.70	-39.8	-40.9	21.7	0.00e+00	3	29	0	871366656	50	7156
2026-01-14 23:47:55.96	8.00	50.43	-40.0	-41.1	21.6	0.00e+00	90	29	0	873463808	52	6494
2026-01-14 23:47:56.97	7.61	50.16	-39.7	-40.8	21.8	0.00e+00	34	29	0	875560960	52	6317
2026-01-14 23:47:57.98	7.22	49.89	-39.5	-40.6	22.0	0.00e+00	90	29	0	877658112	52	6147
2026-01-14 23:47:58.99	6.84	49.62	-39.3	-40.3	22.3	0.00e+00	38	29	0	878706688	52	5948
2026-01-14 23:48:00.00	6.47	49.35	-39.2	-40.3	22.5	0.00e+00	0	29	0	880803840	52	5898
2026-01-14 23:48:01.00	6.11	49.08	-39.1	-40.2	22.5	0.00e+00	90	29	0	882900992	52	5849
2026-01-14 23:48:02.01	5.75	48.81	-39.5	-40.6	22.0	0.00e+00	0	29	0	884998144	52	6130
2026-01-14 23:48:03.02	5.40	48.54	-39.6	-40.7	22.1	0.00e+00	92	29	0	887095296	52	6203
2026-01-14 23:48:04.04	5.04	48.26	-39.3	-40.3	22.4	0.00e+00	0	29	0	888143872	52	5933
2026-01-14 23:48:05.04	4.71	48.00	-39.1	-40.1	22.5	0.00e+00	90	29	0	890241024	52	5766
2026-01-14 23:48:06.05	4.37	47.73	-38.9	-39.8	22.8	0.00e+00	0	29	0	892338176	52	5628
2026-01-14 23:48:07.06	4.04	47.46	-38.9	-39.9	22.6	0.00e+00	92	29	0	894435328	52	5651
2026-01-14 23:48:08.07	3.72	47.19	-38.8	-39.8	22.8	0.00e+00	92	29	0	896532480	52	5575
2026-01-14 23:48:09.08	3.40	46.93	-38.7	-39.7	22.9	0.00e+00	0	29	0	898629632	50	6209
2026-01-14 23:48:10.09	3.09	46.66	-38.8	-39.8	22.8	0.00e+00	90	29	0	899678208	50	6300
2026-01-14 23:48:11.10	2.78	46.40	-38.7	-39.6	23.0	0.00e+00	0	29	0	901775360	50	6167
2026-01-14 23:48:12.11	2.48	46.13	-38.8	-39.8	22.8	0.00e+00	90	29	0	903872512	50	6278
2026-01-14 23:48:13.12	2.18	45.87	-38.7	-39.7	22.9	0.00e+00	49	29	0	905969664	50	6208
2026-01-14 23:48:14.13	1.89	45.61	-38.8	-39.7	22.9	0.00e+00	90	29	0	908066816	50	6237
2026-01-14 23:48:15.14	1.60	45.34	-38.7	-39.7	22.8	0.00e+00	48	29	0	909115392	50	6192
2026-01-14 23:48:16.15	1.32	45.08	-38.9	-39.8	22.7	0.00e+00	49	29	0	911212544	50	6311
2026-01-14 23:48:17.16	1.04	44.82	-39.2	-40.2	22.4	0.00e+00	92	29	0	913309696	50	6564
2026-01-14 23:48:18.16	0.77	44.57	-39.6	-40.7	22.0	0.00e+00	0	29	0	915406848	50	6978
2026-01-14 23:48:19.17	0.50	44.31	-39.7	-40.8	21.8	0.00e+00	92	29	0	917504000	50	7056
2026-01-14 23:48:20.18	0.24	44.05	-39.9	-41.0	21.7	0.00e+00	34	29	0	918552576	52	6459
2026-01-14 23:48:21.20	359.97	43.79	-39.9	-41.0	21.7	0.00e+00	92	29	0	920649728	52	6459
2026-01-14 23:48:22.20	359.72	43.54	-40.0	-41.1	21.6	0.00e+00	55	29	0	922746880	52	6529
2026-01-14 23:48:23.21	359.47	43.29	-40.0	-41.1	21.6	0.00e+00	2	29	0	924844032	52	6531
2026-01-14 23:48:24.22	359.22	43.03	-40.3	-41.5	21.2	0.00e+00	90	29	0	926941184	52	6801
2026-01-14 23:48:25.23	358.97	42.78	-40.4	-41.6	21.1	0.00e+00	0	29	0	927989760	52	6879
2026-01-14 23:48:26.24	358.73	42.53	-40.8	-42.1	20.7	0.00e+00	90	29	0	930086912	54	6504
2026-01-14 23:48:27.25	358.50	42.28	-40.9	-42.2	20.6	0.00e+00	0	29	0	932184064	54	6543
2026-01-14 23:48:28.26	358.26	42.03	-41.2	-42.6	20.2	0.00e+00	90	29	0	934281216	54	6891
2026-01-14 23:48:29.27	358.04	41.79	-41.4	-42.9	19.8	0.00e+00	0	29	0	936378368	54	7102
2026-01-14 23:48:30.28	357.81	41.54	-41.8	-43.4	19.6	0.00e+00	23	29	0	937426944	56	6707
2026-01-14 23:48:31.29	357.59	41.30	-41.7	-43.2	19.6	0.00e+00	91	29	0	939524096	56	6556
2026-01-14 23:48:32.30	357.37	41.05	-42.1	-43.6	19.3	0.00e+00	45	29	0	941621248	56	6923
2026-01-14 23:48:33.31	357.15	40.81	-42.0	-43.6	19.2	0.00e+00	91	29	0	943718400	56	6889
2026-01-14 23:48:34.32	356.94	40.57	-42.4	-44.1	18.9	0.00e+00	2	29	0	945815552	56	7270
2026-01-14 23:48:35.32	356.73	40.33	-42.1	-43.8	19.1	0.00e+00	92	29	0	946864128	56	7023
2026-01-14 23:48:36.33	356.53	40.09	-42.6	-44.3	18.7	0.00e+00	41	29	0	948961280	56	7464
2026-01-14 23:48:37.34	356.33	39.85	-42.5	-44.2	18.6	0.00e+00	92	29	0	951058432	56	7396
2026-01-14 23:48:38.35	356.13	39.62	-42.3	-43.9	18.8	0.00e+00	90	29	0	953155584	56	7164
2026-01-14 23:48:39.36	355.93	39.38	-42.1	-43.7	19.3	0.00e+00	45	29	0	955252736	56	6939
2026-01-14 23:48:40.37	355.73	39.15	-42.1	-43.6	19.3	0.00e+00	92	29	0	956301312	56	6909
2026-01-14 23:48:41.38	355.54	38.91	-41.9	-43.4	19.5	0.00e+00	36	29	0	958398464	56	6719
2026-01-14 23:48:42.39	355.35	38.68	-41.9	-43.4	19.5	0.00e+00	92	29	0	960495616	56	6727
2026-01-14 23:48:43.40	355.17	38.45	-41.7	-43.2	19.7	0.00e+00	0	29	0	962592768	56	6588
2026-01-14 23:48:44.41	354.99	38.22	-41.7	-43.2	19.7	0.00e+00	92	29	0	964689920	56	6595
2026-01-14 23:48:45.41	354.81	38.00	-41.5	-43.0	19.9	0.00e+00	0	29	0	965738496	56	6425
2026-01-14 23:48:46.42	354.63	37.77	-41.1	-42.5	20.4	0.00e+00	0	29	0	967835648	56	6060
2026-01-14 23:48:47.43	354.45	37.54	-41.0	-42.4	20.5	0.00e+00	92	29	0	969932800	56	5978
2026-01-14 23:48:48.44	354.28	37.32	-41.0	-42.3	20.5	0.00e+00	0	29	0	972029952	56	5946
2026-01-14 23:48:49.45	354.11	37.09	-40.9	-42.2	20.6	0.00e+00	92	29	0	974127104	56	5880
2026-01-14 23:48:50.45	353.94	36.87	-40.8	-42.1	20.6	0.00e+00	5	29	0	975175680	56	5804
2026-01-14 23:48:51.46	353.78	36.65	-40.8	-42.1	20.7	0.00e+00	18	29	0	977272832	54	6492
2026-01-14 23:48:52.47	353.61	36.43	-40.5	-41.7	21.0	0.00e+00	0	29	0	979369984	54	6223
2026-01-14 23:48:53.48	353.45	36.22	-40.4	-41.6	21.2	0.00e+00	44	29	0	981467136	54	6138
2026-01-14 23:48:54.49	353.29	36.00	-40.3	-41.4	21.2	0.00e+00	91	29	0	983564288	54	6013
2026-01-14 23:48:55.50	353.13	35.78	-40.4	-41.6	21.0	0.00e+00	0	29	0	984612864	54	6144
2026-01-14 23:48:56.51	352.98	35.57	-40.3	-41.5	21.2	0.00e+00	92	29	0	986710016	54	6059
2026-01-14 23:48:57.51	352.83	35.36	-40.4	-41.6	21.1	0.00e+00	6	29	0	988807168	54	6119
2026-01-14 23:48:58.52	352.68	35.14	-40.1	-41.2	21.5	0.00e+00	92	29	0	990904320	54	5854
2026-01-14 23:48:59.53	352.53	34.93	-39.6	-40.7	22.0	0.00e+00	42	29	0	993001472	54	5519
2026-01-14 23:49:00.54	352.38	34.72	-39.6	-40.7	22.1	0.00e+00	90	29	0	995098624	52	6188
2026-01-14 23:49:01.55	352.24	34.51	-39.6	-40.6	21.8	0.00e+00	0	29	0	996147200	52	6161
2026-01-14 23:49:02.56	352.09	34.31	-39.5	-40.6	22.1	0.00e+00	43	29	0	998244352	52	6134
2026-01-14 23:49:03.57	351.95	34.10	-39.7	-40.8	21.8	0.00e+00	92	29	0	1000341504	52	6313
2026-01-14 23:49:04.58	351.81	33.89	-40.0	-41.2	21.5	0.00e+00	6	29	0	1002438656	52	6567
2026-01-14 23:49:05.59	351.67	33.69	-40.2	-41.4	21.3	0.00e+00	92	29	0	1004535808	52	6722
2026-01-14 23:49:06.60	351.54	33.49	-40.4	-41.6	21.2	0.00e+00	41	29	0	1005584384	52	6869
2026-01-14 23:49:07.61	351.40	33.28	-40.3	-41.6	21.2	0.00e+00	6	29	0	1007681536	52	6863
2026-01-14 23:49:08.62	351.27	33.08	-40.6	-41.8	21.0	0.00e+00	2	29	0	1009778688	52	7054
2026-01-14 23:49:09.63	351.14	32.88	-40.5	-41.7	21.0	0.00e+00	0	29	0	1011875840	52	6948
2026-01-14 23:49:10.64	351.01	32.69	-40.4	-41.6	21.1	0.00e+00	92	29	0	1013972992	52	6895
2026-01-14 23:49:11.65	350.88	32.49	-40.5	-41.7	21.0	0.00e+00	7	29	0	1015021568	52	6945
2026-01-14 23:49:12.66	350.76	32.29	-40.7	-41.9	20.9	0.00e+00	92	29	0	1017118720	52	7146
2026-01-14 23:49:13.66	350.63	32.10	-40.7	-42.0	20.7	0.00e+00	7	29	0	1019215872	52	7177
2026-01-14 23:49:14.67	350.51	31.91	-41.0	-42.3	20.5	0.00e+00	46	29	0	1021313024	54	6678
2026-01-14 23:49:15.68	350.39	31.71	-41.1	-42.4	20.3	0.00e+00	0	29	0	1023410176	54	6727
2026-01-14 23:49:16.69	350.27	31.52	-41.4	-42.8	20.0	0.00e+00	45	29	0	1024458752	54	7046
2026-01-14 23:49:17.70	350.15	31.33	-41.4	-42.8	19.9	0.00e+00	92	29	0	1026555904	54	7052
2026-01-14 23:49:18.71	350.03	31.14	-41.6	-43.0	19.7	0.00e+00	44	29	0	1028653056	54	7217
2026-01-14 23:49:19.72	349.92	30.95	-41.6	-43.1	19.8	0.00e+00	92	29	0	1030750208	56	6477
2026-01-14 23:49:20.73	349.80	30.76	-41.7	-43.2	19.6	0.00e+00	46	29	0	1032847360	56	6586
2026-01-14 23:49:21.73	349.69	30.58	-41.8	-43.3	19.5	0.00e+00	44	29	0	1033895936	56	6673
2026-01-14 23:49:22.74	349.58	30.40	-41.6	-43.1	19.7	0.00e+00	45	29	0	1035993088	56	6478
2026-01-14 23:49:23.75	349.47	30.21	-41.7	-43.1	19.7	0.00e+00	37	29	0	1038090240	56	6528
2026-01-14 23:49:24.76	349.36	30.03	-41.7	-43.1	19.7	0.00e+00	0	29	0	1040187392	56	6530
2026-01-14 23:49:25.77	349.25	29.85	-41.8	-43.3	19.5	0.00e+00	0	29	0	1042284544	56	6646
2026-01-14 23:49:26.78	349.15	29.66	-41.9	-43.5	19.4	0.00e+00	92	29	0	1043333120	56	6771
2026-01-14 23:49:27.79	349.04	29.49	-42.0	-43.6	19.2	0.00e+00	36	29	0	1045430272	56	6888
2026-01-14 23:49:28.80	348.94	29.31	-42.1	-43.7	19.1	0.00e+00	91	29	0	1047527424	56	6972
2026-01-14 23:49:29.81	348.83	29.13	-42.3	-43.9	18.9	0.00e+00	2	29	0	1049624576	56	7169
2026-01-14 23:49:30.82	348.73	28.95	-42.2	-43.8	19.1	0.00e+00	2	29	0	1051721728	56	7068
2026-01-14 23:49:31.83	348.63	28.78	-42.3	-44.0	18.9	0.00e+00	0	29	0	1052770304	56	7191
2026-01-14 23:49:32.84	348.53	28.60	-42.2	-43.7	19.3	0.00e+00	2	29	0	1054867456	56	6973
2026-01-14 23:49:33.85	348.43	28.43	-42.0	-43.6	19.3	0.00e+00	90	29	0	1056964608	56	6850
2026-01-14 23:49:34.86	348.34	28.25	-41.8	-43.2	19.7	0.00e+00	0	29	0	1059061760	56	6574
2026-01-14 23:49:35.86	348.24	28.08	-41.6	-43.0	19.8	0.00e+00	92	29	0	1061158912	56	6461
2026-01-14 23:49:36.87	348.15	27.91	-41.2	-42.5	20.3	0.00e+00	0	29	0	1063256064	56	6095
2026-01-14 23:49:37.88	348.05	27.74	-41.2	-42.5	20.3	0.00e+00	0	29	0	1064304640	56	6060
2026-01-14 23:49:38.89	347.96	27.57	-41.0	-42.3	20.6	0.00e+00	4	29	0	1066401792	56	5935
2026-01-14 23:49:39.90	347.87	27.41	-40.8	-42.1	20.6	0.00e+00	0	29	0	1068498944	56	5810
2026-01-14 23:49:40.91	347.78	27.24	-41.0	-42.2	20.5	0.00e+00	92	29	0	1070596096	56	5890
2026-01-14 23:49:41.92	347.69	27.07	-41.1	-42.4	20.5	0.00e+00	37	29	0	1072693248	56	5970
2026-01-14 23:49:42.93	347.60	26.91	-41.1	-42.4	20.4	0.00e+00	90	29	0	1073741824	56	6008
2026-01-14 23:49:43.94	347.51	26.74	-41.2	-42.5	20.3	0.00e+00	44	29	0	1075838976	56	6064
2026-01-14 23:49:44.95	347.42	26.58	-41.1	-42.4	20.4	0.00e+00	43	29	0	1077936128	56	6017
2026-01-14 23:49:45.96	347.34	26.42	-41.0	-42.3	20.5	0.00e+00	38	29	0	1080033280	56	5943
2026-01-14 23:49:46.97	347.25	26.25	-41.0	-42.3	20.5	0.00e+00	2	29	0	1082130432	56	5900
2026-01-14 23:49:47.98	347.17	26.09	-40.8	-42.1	20.6	0.00e+00	12	29	0	1083179008	56	5805
2026-01-14 23:49:48.99	347.08	25.93	-40.9	-42.1	20.6	0.00e+00	44	29	0	1085276160	56	5816
2026-01-14 23:49:49.99	347.00	25.78	-40.5	-41.7	20.8	0.00e+00	90	29	0	1087373312	54	6244
2026-01-14 23:49:51.00	346.92	25.62	-40.6	-41.8	20.9	0.00e+00	0	29	0	1089470464	54	6291
2026-01-14 23:49:52.01	346.84	25.46	-40.3	-41.5	21.1	0.00e+00	90	29	0	1091567616	54	6037
2026-01-14 23:49:53.02	346.76	25.30	-40.2	-41.4	21.3	0.00e+00	0	29	0	1092616192	54	5973
2026-01-14 23:49:54.03	346.68	25.15	-40.1	-41.2	21.4	0.00e+00	2	29	0	1094713344	54	5864
2026-01-14 23:49:55.04	346.60	24.99	-40.1	-41.2	21.4	0.00e+00	0	29	0	1096810496	54	5882
2026-01-14 23:49:56.05	346.52	24.84	-40.0	-41.2	21.5	0.00e+00	0	29	0	1098907648	54	5830
2026-01-14 23:49:57.06	346.45	24.69	-40.0	-41.1	21.5	0.00e+00	90	29	0	1101004800	54	5827
2026-01-14 23:49:58.07	346.37	24.54	-39.8	-41.0	21.6	0.00e+00	0	29	0	1102053376	54	5726
2026-01-14 23:49:59.08	346.29	24.38	-40.0	-41.2	21.4	0.00e+00	92	29	0	1104150528	54	5831
2026-01-14 23:50:00.09	346.22	24.23	-39.8	-41.0	21.6	0.00e+00	0	29	0	1106247680	54	5710
2026-01-14 23:50:01.10	346.15	24.08	-39.6	-40.7	21.8	0.00e+00	43	29	0	1108344832	52	6235
2026-01-14 23:50:02.11	346.07	23.93	-39.7	-40.8	21.8	0.00e+00	0	29	0	1110441984	52	6284
2026-01-14 23:50:03.11	346.00	23.79	-39.8	-40.9	21.7	0.00e+00	0	29	0	1111490560	52	6348
2026-01-14 23:50:04.12	345.93	23.64	-39.6	-40.7	21.9	0.00e+00	92	29	0	1113587712	52	6217
2026-01-14 23:50:05.13	345.86	23.49	-39.4	-40.5	22.1	0.00e+00	43	29	0	1115684864	52	6042
2026-01-14 23:50:06.14	345.79	23.35	-39.4	-40.5	22.1	0.00e+00	92	29	0	1117782016	52	6040
2026-01-14 23:50:07.15	345.72	23.20	-39.2	-40.3	22.2	0.00e+00	42	29	0	1119879168	52	5899
2026-01-14 23:50:08.16	345.65	23.06	-39.1	-40.1	22.4	0.00e+00	37	29	0	1120927744	52	5800
2026-01-14 23:50:09.17	345.58	22.92	-39.1	-40.2	22.3	0.00e+00	37	29	0	1123024896	52	5836
2026-01-14 23:50:10.18	345.51	22.77	-38.9	-39.9	22.6	0.00e+00	0	29	0	1125122048	52	5665
2026-01-14 23:50:11.19	345.45	22.63	-38.8	-39.8	22.6	0.00e+00	0	29	0	1127219200	50	6295
2026-01-14 23:50:12.20	345.38	22.49	-38.7	-39.8	22.7	0.00e+00	0	29	0	1129316352	50	6270
2026-01-14 23:50:13.21	345.32	22.35	-38.8	-39.8	22.6	0.00e+00	91	29	0	1130364928	50	6265
2026-01-14 23:50:14.22	345.25	22.21	-38.7	-39.7	22.7	0.00e+00	0	29	0	1132462080	50	6218
2026-01-14 23:50:15.23	345.19	22.07	-38.6	-39.6	22.8	0.00e+00	37	29	0	1134559232	50	6164
2026-01-14 23:50:16.24	345.12	21.93	-38.6	-39.6	22.8	0.00e+00	0	29	0	1136656384	50	6156
2026-01-14 23:50:17.25	345.06	21.79	-38.7	-39.7	22.7	0.00e+00	0	29	0	1138753536	50	6183
2026-01-14 23:50:18.26	345.00	21.66	-38.8	-39.8	22.6	0.00e+00	0	29	0	1139802112	50	6262
2026-01-14 23:50:19.27	344.93	21.52	-38.7	-39.8	22.6	0.00e+00	0	29	0	1141899264	50	6248
2026-01-14 23:50:20.28	344.87	21.39	-38.8	-39.8	22.6	0.00e+00	90	29	0	1143996416	50	6311
2026-01-14 23:50:21.29	344.81	21.25	-39.0	-40.1	22.4	0.00e+00	0	29	0	1146093568	50	6471
2026-01-14 23:50:22.30	344.75	21.12	-38.8	-39.8	22.6	0.00e+00	92	29	0	1148190720	50	6254
2026-01-14 23:50:23.31	344.69	20.98	-38.8	-39.8	22.6	0.00e+00	41	29	0	1149239296	50	6301
2026-01-14 23:50:24.32	344.63	20.85	-38.8	-39.9	22.5	0.00e+00	0	29	0	1151336448	50	6321
2026-01-14 23:50:25.33	344.57	20.72	-38.7	-39.7	22.6	0.00e+00	39	29	0	1153433600	50	6211
2026-01-14 23:50:26.34	344.52	20.59	-38.9	-39.9	22.5	0.00e+00	0	29	0	1155530752	50	6349
2026-01-14 23:50:27.34	344.46	20.46	-38.7	-39.7	22.7	0.00e+00	92	29	0	1157627904	50	6212
2026-01-14 23:50:28.35	344.40	20.33	-38.8	-39.8	22.4	0.00e+00	41	29	0	1159725056	50	6259
2026-01-14 23:50:29.36	344.34	20.20	-38.9	-39.9	22.5	0.00e+00	92	29	0	1160773632	50	6379
2026-01-14 23:50:30.37	344.29	20.07	-38.9	-39.9	22.3	0.00e+00	6	29	0	1162870784	50	6371
2026-01-14 23:50:31.38	344.23	19.94	-38.9	-40.0	22.4	0.00e+00	4	29	0	1164967936	50	6396
2026-01-14 23:50:32.39	344.18	19.81	-39.0	-40.0	22.4	0.00e+00	39	29	0	1167065088	50	6450
2026-01-14 23:50:33.40	344.12	19.68	-39.1	-40.1	22.3	0.00e+00	5	29	0	1169162240	50	6505
2026-01-14 23:50:34.40	344.07	19.56	-38.9	-40.0	22.5	0.00e+00	0	29	0	1170210816	50	6402
2026-01-14 23:50:35.41	344.02	19.43	-39.0	-40.0	22.4	0.00e+00	0	29	0	1172307968	50	6416
2026-01-14 23:50:36.42	343.96	19.31	-38.9	-39.9	22.5	0.00e+00	92	29	0	1174405120	50	6366
2026-01-14 23:50:37.43	343.91	19.18	-38.8	-39.8	22.5	0.00e+00	5	29	0	1176502272	50	6317
