passes_logs/2026/01/14/R4.6S_Anadyr/R4.6S_Anadyr__20260114_114238_SUOMI_NPP_rec.log

#Pass ID: 20260114_114238_SUOMI NPP
#Satellite: SUOMI NPP
#Configuration: NPP
#almurnet v.1.7.20251203
#Start time: 2026-01-14 11:42:41

#Version: 2.2.20231116
#Station: R4.6S_Anadyr
#Location: 177.4865 lon 64.73178 lat
#TLE: 1 37849U 11061A   26013.83525404  .00000052  00000+0  45495-4 0  9990
#TLE: 2 37849  98.7808 315.8939 0002471  65.6575 294.4859 14.19524986736544

#Time	Az	El	Level	Level2	SNR	BER	BlckErr	Temp	State	Recorded	gain1	gain2
2026-01-14 11:42:41.47	20.82	0.14	-48.9	-50.5	5.7	0.00e+00	0	26	0	0	60	41020
2026-01-14 11:42:42.47	20.91	0.18	-48.8	-64.0	3.6	1.51e+00	0	27	104	0	60	57336
2026-01-14 11:42:43.48	21.01	0.22	-48.8	-63.9	3.6	1.51e+00	0	27	104	0	60	56716
2026-01-14 11:42:44.49	21.10	0.26	-48.8	-63.9	3.6	1.51e+00	0	27	104	0	60	56796
2026-01-14 11:42:45.50	21.20	0.30	-48.7	-64.0	3.6	1.51e+00	0	27	104	0	60	57044
2026-01-14 11:42:46.51	21.30	0.34	-48.6	-63.8	3.6	1.51e+00	0	27	104	0	60	56227
2026-01-14 11:42:47.52	21.39	0.38	-48.6	-63.8	3.6	1.51e+00	0	27	104	0	60	55706
2026-01-14 11:42:48.53	21.49	0.42	-48.5	-63.6	3.6	1.51e+00	0	28	104	0	60	54802
2026-01-14 11:42:49.54	21.59	0.46	-48.4	-63.5	3.6	1.51e+00	0	28	104	0	60	54319
2026-01-14 11:42:50.55	21.69	0.50	-48.2	-63.4	3.6	1.51e+00	0	27	104	0	60	53606
2026-01-14 11:42:51.57	21.78	0.54	-48.1	-63.3	3.6	1.51e+00	0	27	104	0	60	52691
2026-01-14 11:42:52.58	21.88	0.58	-47.8	-63.0	3.6	1.51e+00	0	28	104	0	60	51052
2026-01-14 11:42:53.58	21.98	0.63	-47.4	-62.5	3.6	1.51e+00	0	28	104	0	60	48445
2026-01-14 11:42:54.59	22.08	0.67	-47.0	-62.1	3.6	1.51e+00	0	28	104	0	60	46108
2026-01-14 11:42:55.60	22.18	0.71	-47.0	-62.1	3.6	1.51e+00	0	27	104	0	60	46137
2026-01-14 11:42:56.61	22.28	0.75	-47.0	-62.1	3.6	1.51e+00	0	28	104	0	60	46150
2026-01-14 11:42:57.62	22.38	0.79	-47.0	-62.1	3.6	1.51e+00	0	28	104	0	60	46187
2026-01-14 11:42:58.63	22.48	0.83	-47.0	-62.1	3.6	1.51e+00	0	28	104	0	60	46195
2026-01-14 11:42:59.64	22.57	0.87	-47.0	-62.1	3.6	1.51e+00	0	28	104	0	60	46177
2026-01-14 11:43:00.65	22.67	0.91	-47.0	-62.1	3.6	1.51e+00	0	28	104	0	60	46166
2026-01-14 11:43:01.66	22.78	0.95	-47.0	-62.1	3.6	1.51e+00	0	28	104	0	60	46111
2026-01-14 11:43:02.67	22.88	0.99	-47.0	-62.1	3.6	1.51e+00	0	28	104	0	60	46159
2026-01-14 11:43:03.68	22.98	1.03	-47.0	-62.1	3.6	1.51e+00	0	28	104	0	60	46151
2026-01-14 11:43:04.69	23.08	1.07	-47.0	-62.1	3.6	1.51e+00	0	28	104	0	60	45976
2026-01-14 11:43:05.70	23.18	1.11	-46.9	-62.1	3.6	1.51e+00	0	28	104	0	60	45901
2026-01-14 11:43:06.71	23.28	1.15	-46.9	-62.0	3.6	1.51e+00	0	28	104	0	60	45661
2026-01-14 11:43:07.71	23.38	1.19	-46.9	-62.1	3.6	1.51e+00	0	28	104	0	60	45980
2026-01-14 11:43:08.72	23.48	1.23	-47.0	-62.1	3.6	1.51e+00	0	28	104	0	60	45925
2026-01-14 11:43:09.73	23.59	1.27	-47.0	-62.1	3.6	1.51e+00	0	28	104	0	60	46069
2026-01-14 11:43:10.75	23.69	1.32	-47.0	-62.1	3.6	1.51e+00	0	28	104	0	60	45923
2026-01-14 11:43:11.75	23.79	1.36	-46.9	-62.1	3.6	1.51e+00	0	28	104	0	60	45917
2026-01-14 11:43:12.77	23.90	1.40	-46.9	-62.1	3.6	1.51e+00	0	28	104	0	60	45900
2026-01-14 11:43:13.78	24.00	1.44	-46.9	-62.1	3.6	1.51e+00	0	28	104	0	60	45879
2026-01-14 11:43:14.79	24.10	1.48	-46.9	-62.1	3.6	1.51e+00	0	28	104	0	60	45889
2026-01-14 11:43:15.80	24.21	1.52	-46.9	-62.0	3.6	1.51e+00	0	28	104	0	60	45655
2026-01-14 11:43:16.81	24.31	1.56	-46.9	-62.1	3.6	1.51e+00	0	28	104	0	60	45884
2026-01-14 11:43:17.82	24.42	1.60	-46.9	-62.0	3.6	1.51e+00	0	28	104	0	60	45720
2026-01-14 11:43:18.83	24.52	1.64	-46.9	-62.1	3.6	1.51e+00	0	28	104	0	60	45859
2026-01-14 11:43:19.84	24.63	1.68	-46.9	-62.1	3.6	1.51e+00	0	28	104	0	60	46038
2026-01-14 11:43:20.85	24.73	1.72	-46.9	-62.0	3.6	1.51e+00	0	28	104	0	60	45652
2026-01-14 11:43:21.86	24.84	1.76	-46.9	-62.1	3.6	1.51e+00	0	28	104	0	60	45934
2026-01-14 11:43:22.87	24.94	1.80	-46.9	-62.0	3.6	1.51e+00	0	28	104	0	60	45700
2026-01-14 11:43:23.88	25.05	1.84	-46.9	-62.0	3.6	1.51e+00	0	28	104	0	60	45648
2026-01-14 11:43:24.89	25.16	1.88	-46.9	-62.0	3.6	1.51e+00	0	28	104	0	60	45752
2026-01-14 11:43:25.90	25.26	1.92	-46.9	-62.0	3.6	1.51e+00	0	28	104	0	60	45448
2026-01-14 11:43:26.91	25.37	1.96	-46.9	-62.1	3.6	1.51e+00	0	28	104	0	60	46158
2026-01-14 11:43:27.92	25.48	2.00	-46.9	-62.1	3.6	1.51e+00	0	28	104	0	60	45920
2026-01-14 11:43:28.93	25.58	2.04	-46.9	-62.0	3.6	1.51e+00	0	28	104	0	60	45618
2026-01-14 11:43:29.94	25.69	2.08	-46.9	-62.1	3.6	1.51e+00	0	28	104	0	60	45807
2026-01-14 11:43:30.95	25.80	2.12	-46.9	-62.1	3.6	1.51e+00	0	28	104	0	60	46029
2026-01-14 11:43:31.96	25.91	2.16	-46.9	-62.0	3.6	1.51e+00	0	28	104	0	60	45736
2026-01-14 11:43:32.97	26.02	2.20	-46.9	-62.1	3.6	1.51e+00	0	28	104	0	60	46031
2026-01-14 11:43:33.98	26.13	2.24	-46.9	-62.0	3.6	1.51e+00	0	28	104	0	60	45621
2026-01-14 11:43:34.99	26.23	2.28	-46.9	-62.0	3.6	1.51e+00	0	28	104	0	60	45275
2026-01-14 11:43:36.00	26.34	2.32	-46.9	-62.0	3.6	1.51e+00	0	28	104	0	60	45500
2026-01-14 11:43:37.01	26.45	2.36	-46.9	-62.0	3.5	1.51e+00	0	28	104	0	60	45713
2026-01-14 11:43:38.02	26.56	2.40	-46.9	-62.1	3.6	1.51e+00	0	28	104	0	60	45936
2026-01-14 11:43:39.03	26.67	2.44	-46.9	-62.0	3.6	1.51e+00	0	28	104	0	60	45532
2026-01-14 11:43:40.04	26.79	2.48	-46.9	-62.0	3.6	1.51e+00	0	28	104	0	60	45340
2026-01-14 11:43:41.05	26.90	2.52	-46.9	-62.0	3.6	1.51e+00	0	28	104	0	60	45766
2026-01-14 11:43:42.06	27.01	2.56	-46.9	-61.9	3.6	1.51e+00	0	28	104	0	60	45061
2026-01-14 11:43:43.07	27.12	2.60	-46.9	-61.3	3.6	1.51e+00	0	28	104	0	60	41760
2026-01-14 11:43:44.08	27.23	2.64	-46.9	-60.7	3.6	1.51e+00	0	28	104	0	60	39006
2026-01-14 11:43:45.09	27.34	2.68	-46.9	-61.0	3.6	1.51e+00	0	28	104	0	60	40728
2026-01-14 11:43:46.10	27.46	2.72	-46.9	-60.2	3.6	1.51e+00	0	28	104	0	60	37009
2026-01-14 11:43:47.11	27.57	2.76	-46.4	-55.0	6.4	6.60e-01	0	28	104	0	60	20332
2026-01-14 11:43:48.12	27.68	2.80	-45.2	-49.8	11.1	2.73e-02	0	28	0	1048576	60	11149
2026-01-14 11:43:49.13	27.79	2.84	-43.6	-46.6	14.4	1.04e-04	0	28	0	3145728	60	7691
2026-01-14 11:43:50.14	27.91	2.88	-42.2	-44.4	16.6	0.00e+00	0	28	0	5242880	58	6694
2026-01-14 11:43:51.15	28.02	2.92	-41.2	-43.0	17.9	0.00e+00	37	28	0	7340032	56	6454
2026-01-14 11:43:52.17	28.14	2.96	-41.4	-43.2	17.7	0.00e+00	0	28	0	8388608	56	6603
2026-01-14 11:43:53.17	28.25	3.00	-42.0	-44.1	16.8	0.00e+00	92	28	0	10485760	56	7270
2026-01-14 11:43:54.18	28.36	3.04	-42.0	-44.1	17.9	0.00e+00	0	28	0	12582912	58	6480
2026-01-14 11:43:55.19	28.48	3.08	-47.5	-62.5	3.6	1.50e+00	0	28	104	12582912	60	48402
2026-01-14 11:43:56.20	28.60	3.12	-46.8	-60.6	3.7	1.38e+00	0	28	104	12582912	60	38642
2026-01-14 11:43:57.21	28.71	3.16	-43.9	-46.9	14.3	6.80e-06	0	28	0	13631488	60	8004
2026-01-14 11:43:58.22	28.83	3.20	-41.2	-43.0	18.3	0.00e+00	41	28	0	15728640	56	6428
2026-01-14 11:43:59.23	28.94	3.24	-46.6	-55.1	7.5	8.26e-01	0	28	0	16777216	60	20593
2026-01-14 11:44:00.24	29.06	3.28	-41.0	-42.7	18.4	0.00e+00	61	28	0	18874368	56	6185
2026-01-14 11:44:01.25	29.18	3.32	-40.9	-42.5	18.5	0.00e+00	0	28	0	20971520	54	6830
2026-01-14 11:44:02.26	29.29	3.36	-40.6	-42.2	18.6	0.00e+00	0	28	0	23068672	54	6585
2026-01-14 11:44:03.27	29.41	3.39	-40.6	-42.2	18.6	0.00e+00	0	28	0	25165824	54	6571
2026-01-14 11:44:04.28	29.53	3.43	-40.6	-42.1	18.8	0.00e+00	0	28	0	26214400	54	6516
2026-01-14 11:44:05.29	29.65	3.47	-40.7	-42.3	18.7	0.00e+00	40	28	0	28311552	54	6652
2026-01-14 11:44:06.29	29.76	3.51	-40.6	-42.1	19.0	0.00e+00	0	28	0	30408704	54	6521
2026-01-14 11:44:07.30	29.88	3.55	-40.3	-41.8	19.1	0.00e+00	92	28	0	32505856	54	6282
2026-01-14 11:44:08.31	30.00	3.59	-40.3	-41.8	19.2	0.00e+00	0	28	0	34603008	54	6304
2026-01-14 11:44:09.32	30.12	3.63	-40.2	-41.7	19.3	0.00e+00	0	28	0	35651584	54	6235
2026-01-14 11:44:10.33	30.24	3.67	-40.0	-41.5	19.6	0.00e+00	0	28	0	37748736	54	6050
2026-01-14 11:44:11.34	30.36	3.71	-40.4	-41.9	19.2	0.00e+00	0	28	0	39845888	54	6346
2026-01-14 11:44:12.35	30.48	3.75	-40.2	-41.6	19.3	0.00e+00	32	28	0	41943040	54	6171
2026-01-14 11:44:13.36	30.60	3.78	-40.3	-41.8	19.2	0.00e+00	0	28	0	44040192	54	6288
2026-01-14 11:44:14.37	30.72	3.82	-40.3	-41.7	19.3	0.00e+00	92	28	0	45088768	54	6240
2026-01-14 11:44:15.37	30.84	3.86	-40.5	-42.0	19.0	0.00e+00	0	28	0	47185920	54	6433
2026-01-14 11:44:16.38	30.96	3.90	-40.3	-41.9	19.2	0.00e+00	0	28	0	49283072	54	6327
2026-01-14 11:44:17.39	31.08	3.94	-40.4	-41.9	19.2	0.00e+00	0	28	0	51380224	54	6369
2026-01-14 11:44:18.40	31.21	3.98	-40.4	-42.0	19.1	0.00e+00	0	28	0	53477376	54	6394
2026-01-14 11:44:19.41	31.33	4.02	-40.3	-41.8	19.2	0.00e+00	35	28	0	54525952	54	6273
2026-01-14 11:44:20.42	31.45	4.05	-40.2	-41.7	19.4	0.00e+00	0	28	0	56623104	54	6203
2026-01-14 11:44:21.43	31.57	4.09	-40.1	-41.5	19.6	0.00e+00	92	28	0	58720256	54	6087
2026-01-14 11:44:22.44	31.70	4.13	-40.0	-41.4	19.7	0.00e+00	0	28	0	60817408	54	6021
2026-01-14 11:44:23.45	31.82	4.17	-39.8	-41.2	19.8	0.00e+00	89	28	0	62914560	54	5870
2026-01-14 11:44:24.46	31.94	4.21	-40.0	-41.4	19.9	0.00e+00	0	28	0	63963136	54	5967
2026-01-14 11:44:25.47	32.07	4.25	-40.0	-41.5	19.7	0.00e+00	0	28	0	66060288	54	6038
2026-01-14 11:44:26.48	32.19	4.28	-39.6	-41.0	20.1	0.00e+00	0	28	0	68157440	52	6402
2026-01-14 11:44:27.48	32.32	4.32	-39.7	-41.0	20.1	0.00e+00	0	28	0	70254592	52	6446
2026-01-14 11:44:28.49	32.44	4.36	-39.7	-41.0	20.1	0.00e+00	34	28	0	72351744	52	6448
2026-01-14 11:44:29.50	32.57	4.40	-39.7	-41.0	20.0	0.00e+00	0	28	0	73400320	52	6447
2026-01-14 11:44:30.51	32.69	4.44	-39.8	-41.1	20.0	0.00e+00	92	28	0	75497472	52	6531
2026-01-14 11:44:31.52	32.82	4.47	-40.0	-41.3	19.7	0.00e+00	0	28	0	77594624	52	6690
2026-01-14 11:44:32.53	32.94	4.51	-39.8	-41.2	19.8	0.00e+00	0	28	0	79691776	52	6578
2026-01-14 11:44:33.54	33.07	4.55	-39.9	-41.3	19.8	0.00e+00	0	28	0	81788928	52	6681
2026-01-14 11:44:34.55	33.20	4.59	-39.9	-41.3	19.7	0.00e+00	0	28	0	83886080	52	6657
2026-01-14 11:44:35.55	33.32	4.62	-39.9	-41.3	19.9	0.00e+00	37	28	0	84934656	52	6622
2026-01-14 11:44:36.56	33.45	4.66	-39.9	-41.3	19.9	0.00e+00	0	28	0	87031808	52	6633
2026-01-14 11:44:37.57	33.58	4.70	-40.0	-41.4	19.7	0.00e+00	92	28	0	89128960	52	6713
2026-01-14 11:44:38.58	33.71	4.74	-40.1	-41.5	19.7	0.00e+00	0	28	0	91226112	52	6816
2026-01-14 11:44:39.59	33.84	4.77	-39.8	-41.1	20.0	0.00e+00	0	28	0	93323264	52	6510
2026-01-14 11:44:40.60	33.96	4.81	-40.0	-41.4	19.9	0.00e+00	0	28	0	94371840	52	6758
2026-01-14 11:44:41.61	34.09	4.85	-40.2	-41.6	19.7	0.00e+00	0	28	0	96468992	52	6874
2026-01-14 11:44:42.62	34.22	4.89	-40.1	-41.4	19.8	0.00e+00	0	28	0	98566144	52	6760
2026-01-14 11:44:43.63	34.35	4.92	-40.3	-41.8	19.4	0.00e+00	0	28	0	100663296	52	7042
2026-01-14 11:44:44.64	34.48	4.96	-40.2	-41.6	19.7	0.00e+00	73	28	0	102760448	52	6870
2026-01-14 11:44:45.64	34.61	5.00	-40.3	-41.8	19.5	0.00e+00	0	28	0	103809024	52	7014
2026-01-14 11:44:46.65	34.74	5.03	-40.4	-41.9	19.4	0.00e+00	41	28	0	105906176	52	7112
2026-01-14 11:44:47.66	34.87	5.07	-40.4	-41.9	19.5	0.00e+00	0	28	0	108003328	52	7120
2026-01-14 11:44:48.67	35.00	5.11	-40.3	-41.7	19.5	0.00e+00	0	28	0	110100480	52	6951
2026-01-14 11:44:49.68	35.14	5.14	-40.4	-41.9	19.4	0.00e+00	0	28	0	112197632	52	7144
2026-01-14 11:44:50.69	35.27	5.18	-40.2	-41.6	19.6	0.00e+00	0	28	0	113246208	52	6890
2026-01-14 11:44:51.70	35.40	5.22	-40.2	-41.7	19.6	0.00e+00	92	28	0	115343360	52	6945
2026-01-14 11:44:52.71	35.53	5.25	-40.2	-41.7	19.6	0.00e+00	0	28	0	117440512	52	6928
2026-01-14 11:44:53.72	35.67	5.29	-40.0	-41.4	19.9	0.00e+00	90	28	0	119537664	52	6699
2026-01-14 11:44:54.73	35.80	5.33	-40.0	-41.4	19.9	0.00e+00	0	28	0	121634816	52	6704
2026-01-14 11:44:55.74	35.93	5.36	-40.2	-41.6	19.8	0.00e+00	0	28	0	122683392	52	6916
2026-01-14 11:44:56.74	36.07	5.40	-40.1	-41.5	19.7	0.00e+00	0	28	0	124780544	52	6825
2026-01-14 11:44:57.75	36.20	5.43	-40.2	-41.7	19.5	0.00e+00	0	28	0	126877696	52	6941
2026-01-14 11:44:58.76	36.33	5.47	-40.3	-41.7	19.7	0.00e+00	92	28	0	128974848	52	6966
2026-01-14 11:44:59.77	36.47	5.51	-40.4	-41.9	19.5	0.00e+00	0	28	0	131072000	52	7097
2026-01-14 11:45:00.78	36.60	5.54	-40.4	-41.8	19.6	0.00e+00	92	28	0	132120576	52	7085
2026-01-14 11:45:01.79	36.74	5.58	-40.5	-41.9	19.4	0.00e+00	0	28	0	134217728	52	7152
2026-01-14 11:45:02.80	36.88	5.61	-40.4	-41.9	19.5	0.00e+00	0	28	0	136314880	52	7110
2026-01-14 11:45:03.81	37.01	5.65	-40.4	-41.9	19.4	0.00e+00	0	28	0	138412032	52	7097
2026-01-14 11:45:04.82	37.15	5.68	-40.2	-41.6	19.7	0.00e+00	0	28	0	140509184	52	6912
2026-01-14 11:45:05.83	37.28	5.72	-40.2	-41.6	19.7	0.00e+00	40	28	0	141557760	52	6923
2026-01-14 11:45:06.83	37.42	5.75	-40.3	-41.7	19.7	0.00e+00	0	28	0	143654912	52	6951
2026-01-14 11:45:07.85	37.56	5.79	-40.2	-41.6	19.8	0.00e+00	92	28	0	145752064	52	6856
2026-01-14 11:45:08.85	37.70	5.83	-40.1	-41.4	19.9	0.00e+00	0	28	0	147849216	52	6755
2026-01-14 11:45:09.86	37.83	5.86	-40.0	-41.4	20.0	0.00e+00	0	28	0	149946368	52	6697
2026-01-14 11:45:10.87	37.97	5.90	-39.9	-41.3	20.1	0.00e+00	0	28	0	150994944	52	6624
2026-01-14 11:45:11.88	38.11	5.93	-39.9	-41.2	20.1	0.00e+00	0	28	0	153092096	52	6595
2026-01-14 11:45:12.89	38.25	5.96	-39.8	-41.1	20.1	0.00e+00	54	28	0	155189248	52	6534
2026-01-14 11:45:13.90	38.39	6.00	-40.0	-41.3	20.0	0.00e+00	0	28	0	157286400	52	6687
2026-01-14 11:45:14.91	38.53	6.03	-40.0	-41.3	20.0	0.00e+00	72	28	0	159383552	52	6660
2026-01-14 11:45:15.92	38.67	6.07	-40.1	-41.5	19.9	0.00e+00	0	28	0	160432128	52	6801
2026-01-14 11:45:16.93	38.81	6.10	-40.1	-41.5	19.9	0.00e+00	31	28	0	162529280	52	6787
2026-01-14 11:45:17.93	38.95	6.14	-40.3	-41.7	19.7	0.00e+00	0	28	0	164626432	52	7005
2026-01-14 11:45:18.94	39.09	6.17	-40.3	-41.7	19.6	0.00e+00	0	28	0	166723584	52	6977
2026-01-14 11:45:19.95	39.23	6.21	-40.2	-41.6	19.8	0.00e+00	42	28	0	168820736	52	6907
2026-01-14 11:45:20.96	39.37	6.24	-40.2	-41.6	19.9	0.00e+00	0	28	0	169869312	52	6908
2026-01-14 11:45:21.97	39.51	6.27	-40.3	-41.7	19.8	0.00e+00	92	28	0	171966464	52	6948
2026-01-14 11:45:22.98	39.66	6.31	-40.0	-41.3	20.1	0.00e+00	0	28	0	174063616	52	6691
2026-01-14 11:45:23.99	39.80	6.34	-40.1	-41.5	20.0	0.00e+00	39	28	0	176160768	52	6789
2026-01-14 11:45:25.00	39.94	6.38	-40.3	-41.7	19.8	0.00e+00	0	28	0	178257920	52	6942
2026-01-14 11:45:26.00	40.08	6.41	-40.4	-41.8	19.7	0.00e+00	0	28	0	180355072	52	7016
2026-01-14 11:45:27.01	40.23	6.44	-40.3	-41.8	19.6	0.00e+00	0	28	0	181403648	52	7008
2026-01-14 11:45:28.02	40.37	6.48	-40.4	-41.8	19.7	0.00e+00	0	28	0	183500800	52	7024
2026-01-14 11:45:29.03	40.51	6.51	-40.5	-41.9	19.6	0.00e+00	32	28	0	185597952	52	7108
2026-01-14 11:45:30.04	40.66	6.54	-40.6	-42.0	19.5	0.00e+00	0	28	0	187695104	52	7224
2026-01-14 11:45:31.04	40.80	6.57	-40.6	-42.1	19.4	0.00e+00	92	28	0	189792256	52	7278
2026-01-14 11:45:32.05	40.95	6.61	-40.5	-42.0	19.5	0.00e+00	0	28	0	190840832	52	7188
2026-01-14 11:45:33.06	41.09	6.64	-40.6	-42.1	19.5	0.00e+00	0	28	0	192937984	52	7284
2026-01-14 11:45:34.07	41.24	6.67	-40.5	-42.0	19.5	0.00e+00	0	28	0	195035136	52	7180
2026-01-14 11:45:35.08	41.38	6.71	-40.6	-42.1	19.6	0.00e+00	36	28	0	197132288	52	7280
2026-01-14 11:45:36.09	41.53	6.74	-40.5	-41.9	19.5	0.00e+00	37	28	0	199229440	52	7137
2026-01-14 11:45:37.10	41.68	6.77	-40.4	-41.8	19.6	0.00e+00	0	28	0	200278016	52	7023
2026-01-14 11:45:38.11	41.82	6.80	-40.1	-41.5	19.9	0.00e+00	92	29	0	202375168	52	6815
2026-01-14 11:45:39.12	41.97	6.83	-40.2	-41.5	20.0	0.00e+00	0	28	0	204472320	52	6828
2026-01-14 11:45:40.13	42.12	6.87	-40.1	-41.5	20.0	0.00e+00	0	28	0	206569472	52	6792
2026-01-14 11:45:41.14	42.27	6.90	-40.3	-41.7	19.8	0.00e+00	32	28	0	208666624	52	6955
2026-01-14 11:45:42.14	42.41	6.93	-40.2	-41.6	19.6	0.00e+00	0	28	0	209715200	52	6884
2026-01-14 11:45:43.15	42.56	6.96	-40.2	-41.6	19.8	0.00e+00	39	28	0	211812352	52	6860
2026-01-14 11:45:44.16	42.71	6.99	-40.2	-41.5	19.9	0.00e+00	0	28	0	213909504	52	6820
2026-01-14 11:45:45.17	42.86	7.02	-40.2	-41.6	20.0	0.00e+00	92	28	0	216006656	52	6850
2026-01-14 11:45:46.18	43.01	7.06	-40.0	-41.3	20.2	0.00e+00	0	28	0	218103808	52	6678
2026-01-14 11:45:47.19	43.16	7.09	-40.2	-41.5	20.0	0.00e+00	15	28	0	219152384	52	6822
2026-01-14 11:45:48.19	43.31	7.12	-40.4	-41.8	19.8	0.00e+00	0	28	0	221249536	52	7020
2026-01-14 11:45:49.20	43.46	7.15	-40.3	-41.7	19.8	0.00e+00	0	28	0	223346688	52	6980
2026-01-14 11:45:50.21	43.61	7.18	-40.4	-41.8	19.7	0.00e+00	0	28	0	225443840	52	7085
2026-01-14 11:45:51.22	43.76	7.21	-40.6	-42.1	19.5	0.00e+00	0	28	0	227540992	52	7277
2026-01-14 11:45:52.23	43.91	7.24	-40.7	-42.1	19.5	0.00e+00	92	28	0	228589568	52	7325
2026-01-14 11:45:53.24	44.06	7.27	-40.7	-42.2	19.4	0.00e+00	0	28	0	230686720	52	7402
2026-01-14 11:45:54.25	44.21	7.30	-40.6	-42.1	19.6	0.00e+00	0	28	0	232783872	52	7296
2026-01-14 11:45:55.26	44.37	7.33	-40.5	-41.9	19.7	0.00e+00	0	28	0	234881024	52	7144
2026-01-14 11:45:56.27	44.52	7.36	-40.4	-41.8	19.8	0.00e+00	0	28	0	236978176	52	7021
2026-01-14 11:45:57.28	44.67	7.39	-40.2	-41.5	20.1	0.00e+00	37	28	0	238026752	52	6812
2026-01-14 11:45:58.29	44.82	7.42	-40.3	-41.7	20.0	0.00e+00	0	28	0	240123904	52	6986
2026-01-14 11:45:59.30	44.98	7.45	-40.0	-41.3	20.2	0.00e+00	64	28	0	242221056	52	6622
2026-01-14 11:46:00.31	45.13	7.48	-40.1	-41.4	20.2	0.00e+00	0	28	0	244318208	52	6728
2026-01-14 11:46:01.32	45.29	7.51	-40.0	-41.3	20.2	0.00e+00	92	28	0	246415360	52	6667
2026-01-14 11:46:02.33	45.44	7.54	-40.3	-41.6	19.8	0.00e+00	0	28	0	247463936	52	6923
2026-01-14 11:46:03.33	45.59	7.57	-40.4	-41.8	19.8	0.00e+00	0	28	0	249561088	52	7021
2026-01-14 11:46:04.34	45.75	7.60	-40.6	-42.1	19.6	0.00e+00	0	29	0	251658240	52	7254
2026-01-14 11:46:05.35	45.90	7.62	-40.6	-42.1	19.6	0.00e+00	0	28	0	253755392	52	7259
2026-01-14 11:46:06.36	46.06	7.65	-40.6	-42.1	19.5	0.00e+00	92	29	0	255852544	54	6516
2026-01-14 11:46:07.37	46.21	7.68	-40.8	-42.3	19.4	0.00e+00	0	28	0	256901120	54	6620
2026-01-14 11:46:08.38	46.37	7.71	-40.7	-42.1	19.4	0.00e+00	72	28	0	258998272	54	6512
2026-01-14 11:46:09.39	46.53	7.74	-40.8	-42.2	19.5	0.00e+00	0	28	0	261095424	54	6597
2026-01-14 11:46:10.40	46.68	7.77	-40.5	-41.9	19.7	0.00e+00	0	28	0	263192576	54	6342
2026-01-14 11:46:11.41	46.84	7.79	-40.6	-42.0	19.6	0.00e+00	0	28	0	265289728	54	6461
2026-01-14 11:46:12.42	47.00	7.82	-40.6	-42.1	19.6	0.00e+00	0	28	0	266338304	54	6482
2026-01-14 11:46:13.43	47.16	7.85	-40.7	-42.2	19.5	0.00e+00	26	28	0	268435456	54	6550
2026-01-14 11:46:14.44	47.31	7.88	-40.7	-42.2	19.5	0.00e+00	0	28	0	270532608	54	6568
2026-01-14 11:46:15.45	47.47	7.90	-40.6	-42.0	19.6	0.00e+00	81	28	0	272629760	54	6445
2026-01-14 11:46:16.46	47.63	7.93	-40.6	-42.1	19.6	0.00e+00	0	29	0	274726912	54	6503
2026-01-14 11:46:17.47	47.79	7.96	-40.6	-42.0	19.7	0.00e+00	0	28	0	276824064	54	6424
2026-01-14 11:46:18.48	47.95	7.98	-40.5	-41.9	19.7	0.00e+00	0	28	0	277872640	54	6372
2026-01-14 11:46:19.49	48.11	8.01	-40.3	-41.7	19.9	0.00e+00	0	28	0	279969792	54	6188
2026-01-14 11:46:20.49	48.27	8.04	-40.1	-41.5	20.1	0.00e+00	21	28	0	282066944	54	6053
2026-01-14 11:46:21.51	48.43	8.06	-40.0	-41.3	20.2	0.00e+00	0	28	0	284164096	54	5923
2026-01-14 11:46:22.52	48.59	8.09	-40.2	-41.5	20.1	0.00e+00	68	28	0	286261248	54	6093
2026-01-14 11:46:23.53	48.75	8.11	-40.2	-41.5	20.0	0.00e+00	0	28	0	287309824	54	6055
2026-01-14 11:46:24.53	48.91	8.14	-40.2	-41.6	19.9	0.00e+00	0	28	0	289406976	54	6127
2026-01-14 11:46:25.54	49.07	8.17	-40.2	-41.6	20.0	0.00e+00	0	28	0	291504128	54	6104
2026-01-14 11:46:26.55	49.23	8.19	-40.5	-41.9	19.7	0.00e+00	0	28	0	293601280	54	6362
2026-01-14 11:46:27.56	49.39	8.22	-40.7	-42.2	19.5	0.00e+00	37	28	0	295698432	54	6560
2026-01-14 11:46:28.57	49.55	8.24	-41.1	-42.6	19.1	0.00e+00	0	29	0	296747008	54	6914
2026-01-14 11:46:29.58	49.71	8.27	-41.4	-43.0	18.7	0.00e+00	92	28	0	298844160	54	7240
2026-01-14 11:46:30.58	49.87	8.29	-41.6	-43.3	18.5	0.00e+00	0	28	0	300941312	54	7468
2026-01-14 11:46:31.59	50.04	8.32	-41.5	-43.2	18.6	0.00e+00	33	28	0	303038464	54	7370
2026-01-14 11:46:32.60	50.20	8.34	-41.6	-43.3	18.5	0.00e+00	0	28	0	305135616	56	6651
2026-01-14 11:46:33.60	50.36	8.36	-41.4	-43.0	18.9	0.00e+00	0	29	0	306184192	56	6435
2026-01-14 11:46:34.61	50.52	8.39	-41.3	-42.8	19.0	0.00e+00	0	28	0	308281344	56	6286
2026-01-14 11:46:35.62	50.69	8.41	-41.0	-42.4	19.4	0.00e+00	0	29	0	310378496	56	6031
2026-01-14 11:46:36.63	50.85	8.44	-40.9	-42.3	19.5	0.00e+00	37	28	0	312475648	56	5942
2026-01-14 11:46:37.64	51.02	8.46	-40.4	-41.8	19.9	0.00e+00	0	29	0	314572800	54	6247
2026-01-14 11:46:38.65	51.18	8.48	-40.3	-41.7	19.6	0.00e+00	84	29	0	315621376	54	6210
2026-01-14 11:46:39.66	51.35	8.51	-40.4	-41.8	19.7	0.00e+00	0	28	0	317718528	54	6266
2026-01-14 11:46:40.67	51.51	8.53	-40.3	-41.7	19.8	0.00e+00	0	29	0	319815680	54	6183
2026-01-14 11:46:41.68	51.68	8.55	-40.5	-41.9	19.9	0.00e+00	0	29	0	321912832	54	6378
2026-01-14 11:46:42.69	51.84	8.57	-40.4	-41.7	19.9	0.00e+00	0	29	0	324009984	54	6243
2026-01-14 11:46:43.70	52.01	8.60	-40.4	-41.7	19.9	0.00e+00	38	28	0	325058560	54	6241
2026-01-14 11:46:44.71	52.17	8.62	-40.4	-41.8	20.0	0.00e+00	0	29	0	327155712	54	6257
2026-01-14 11:46:45.71	52.34	8.64	-40.3	-41.7	20.0	0.00e+00	70	28	0	329252864	54	6198
2026-01-14 11:46:46.72	52.50	8.66	-40.1	-41.4	20.2	0.00e+00	0	29	0	331350016	54	6028
2026-01-14 11:46:47.73	52.67	8.68	-40.0	-41.3	20.4	0.00e+00	0	28	0	333447168	54	5938
2026-01-14 11:46:48.74	52.84	8.71	-40.2	-41.5	20.1	0.00e+00	0	28	0	334495744	54	6072
2026-01-14 11:46:49.75	53.00	8.73	-39.8	-41.1	20.5	0.00e+00	0	29	0	336592896	54	5790
2026-01-14 11:46:50.76	53.17	8.75	-40.1	-41.4	20.3	0.00e+00	40	28	0	338690048	54	5992
2026-01-14 11:46:51.77	53.34	8.77	-40.3	-41.6	20.1	0.00e+00	0	29	0	340787200	54	6138
2026-01-14 11:46:52.78	53.51	8.79	-40.5	-41.9	19.7	0.00e+00	50	28	0	342884352	54	6378
2026-01-14 11:46:53.79	53.67	8.81	-40.8	-42.3	19.4	0.00e+00	0	29	0	344981504	54	6640
2026-01-14 11:46:54.80	53.84	8.83	-40.8	-42.3	19.4	0.00e+00	0	29	0	346030080	54	6660
2026-01-14 11:46:55.80	54.01	8.85	-40.7	-42.2	19.4	0.00e+00	0	29	0	348127232	54	6589
2026-01-14 11:46:56.82	54.18	8.87	-40.5	-41.9	19.8	0.00e+00	0	29	0	350224384	54	6323
2026-01-14 11:46:57.82	54.35	8.89	-40.2	-41.6	20.1	0.00e+00	0	29	0	352321536	54	6118
2026-01-14 11:46:58.83	54.52	8.91	-39.8	-41.0	20.6	0.00e+00	0	29	0	354418688	54	5728
2026-01-14 11:46:59.84	54.69	8.93	-39.7	-40.9	20.6	0.00e+00	59	28	0	355467264	52	6384
2026-01-14 11:47:00.85	54.86	8.95	-39.8	-41.0	20.5	0.00e+00	0	29	0	357564416	52	6449
2026-01-14 11:47:01.86	55.03	8.97	-39.9	-41.2	20.5	0.00e+00	90	29	0	359661568	52	6594
2026-01-14 11:47:02.87	55.20	8.99	-40.1	-41.4	20.3	0.00e+00	0	29	0	361758720	52	6721
2026-01-14 11:47:03.88	55.37	9.01	-40.3	-41.6	20.1	0.00e+00	0	28	0	363855872	52	6927
2026-01-14 11:47:04.89	55.54	9.02	-40.4	-41.8	19.8	0.00e+00	0	29	0	364904448	52	7064
2026-01-14 11:47:05.90	55.71	9.04	-40.5	-41.8	20.0	0.00e+00	0	29	0	367001600	52	7082
2026-01-14 11:47:06.91	55.88	9.06	-40.2	-41.5	20.2	0.00e+00	86	29	0	369098752	52	6813
2026-01-14 11:47:07.92	56.05	9.08	-40.0	-41.3	20.4	0.00e+00	0	29	0	371195904	52	6617
2026-01-14 11:47:08.93	56.22	9.10	-40.0	-41.3	20.4	0.00e+00	69	29	0	373293056	52	6670
2026-01-14 11:47:09.94	56.39	9.11	-39.7	-41.0	20.7	0.00e+00	0	29	0	374341632	52	6408
2026-01-14 11:47:10.95	56.56	9.13	-39.6	-40.8	20.7	0.00e+00	0	28	0	376438784	52	6300
2026-01-14 11:47:11.96	56.74	9.15	-39.7	-41.0	20.5	0.00e+00	0	29	0	378535936	52	6416
2026-01-14 11:47:12.97	56.91	9.16	-39.9	-41.2	20.2	0.00e+00	0	29	0	380633088	52	6594
2026-01-14 11:47:13.97	57.08	9.18	-39.9	-41.2	20.5	0.00e+00	42	28	0	382730240	52	6551
2026-01-14 11:47:14.98	57.25	9.20	-39.9	-41.2	20.4	0.00e+00	0	29	0	383778816	52	6594
2026-01-14 11:47:15.99	57.42	9.21	-40.0	-41.3	20.3	0.00e+00	91	29	0	385875968	52	6638
2026-01-14 11:47:17.00	57.60	9.23	-39.9	-41.1	20.5	0.00e+00	0	28	0	387973120	52	6518
2026-01-14 11:47:18.01	57.77	9.24	-39.8	-41.1	20.5	0.00e+00	0	29	0	390070272	52	6496
2026-01-14 11:47:19.02	57.94	9.26	-39.9	-41.2	20.6	0.00e+00	0	28	0	392167424	52	6570
2026-01-14 11:47:20.03	58.12	9.27	-39.8	-41.1	20.5	0.00e+00	0	28	0	393216000	52	6467
2026-01-14 11:47:21.04	58.29	9.29	-40.1	-41.4	20.3	0.00e+00	92	28	0	395313152	52	6705
2026-01-14 11:47:22.05	58.46	9.30	-40.3	-41.7	20.1	0.00e+00	0	29	0	397410304	52	6939
2026-01-14 11:47:23.06	58.64	9.32	-40.6	-42.1	19.6	0.00e+00	47	28	0	399507456	54	6484
2026-01-14 11:47:24.07	58.81	9.33	-41.2	-42.8	19.0	0.00e+00	0	29	0	401604608	54	7049
2026-01-14 11:47:25.07	58.98	9.35	-41.4	-43.1	18.7	0.00e+00	0	28	0	402653184	54	7275
2026-01-14 11:47:26.09	59.16	9.36	-41.6	-43.3	18.6	0.00e+00	0	28	0	404750336	56	6648
2026-01-14 11:47:27.09	59.33	9.37	-41.8	-43.5	18.4	0.00e+00	0	28	0	406847488	56	6844
2026-01-14 11:47:28.10	59.51	9.39	-41.5	-43.2	18.7	0.00e+00	36	29	0	408944640	56	6567
2026-01-14 11:47:29.11	59.68	9.40	-41.5	-43.2	18.7	0.00e+00	0	28	0	411041792	56	6567
2026-01-14 11:47:30.12	59.86	9.41	-41.3	-42.9	18.9	0.00e+00	90	28	0	412090368	56	6367
2026-01-14 11:47:31.13	60.03	9.43	-41.5	-43.1	18.9	0.00e+00	0	28	0	414187520	56	6492
2026-01-14 11:47:32.14	60.21	9.44	-41.1	-42.7	19.1	0.00e+00	0	28	0	416284672	56	6187
2026-01-14 11:47:33.15	60.38	9.45	-41.3	-42.8	19.0	0.00e+00	0	29	0	418381824	56	6310
2026-01-14 11:47:34.16	60.56	9.46	-41.2	-42.8	19.2	0.00e+00	0	29	0	420478976	56	6253
2026-01-14 11:47:35.18	60.74	9.48	-41.3	-42.9	19.0	0.00e+00	31	29	0	421527552	56	6348
2026-01-14 11:47:36.18	60.91	9.49	-41.4	-43.0	18.8	0.00e+00	0	28	0	423624704	56	6421
2026-01-14 11:47:37.19	61.09	9.50	-41.5	-43.1	18.8	0.00e+00	80	29	0	425721856	56	6476
2026-01-14 11:47:38.20	61.26	9.51	-41.4	-42.9	19.0	0.00e+00	0	29	0	427819008	56	6376
2026-01-14 11:47:39.21	61.44	9.52	-41.3	-42.9	19.0	0.00e+00	31	28	0	429916160	56	6321
2026-01-14 11:47:40.22	61.62	9.53	-41.2	-42.8	19.1	0.00e+00	0	28	0	430964736	56	6263
2026-01-14 11:47:41.23	61.79	9.54	-41.1	-42.7	19.1	0.00e+00	0	29	0	433061888	56	6191
2026-01-14 11:47:42.24	61.97	9.55	-41.1	-42.6	19.3	0.00e+00	0	29	0	435159040	56	6149
2026-01-14 11:47:43.25	62.15	9.56	-41.1	-42.7	19.3	0.00e+00	0	29	0	437256192	56	6175
2026-01-14 11:47:44.26	62.32	9.57	-41.2	-42.7	19.2	0.00e+00	92	29	0	439353344	56	6224
2026-01-14 11:47:45.27	62.50	9.58	-41.3	-42.9	18.9	0.00e+00	0	29	0	441450496	56	6321
2026-01-14 11:47:46.28	62.68	9.59	-41.2	-42.8	19.1	0.00e+00	66	29	0	442499072	56	6281
2026-01-14 11:47:47.29	62.86	9.60	-41.3	-42.9	19.1	0.00e+00	0	29	0	444596224	56	6324
2026-01-14 11:47:48.30	63.03	9.61	-41.4	-43.0	19.0	0.00e+00	0	29	0	446693376	56	6438
2026-01-14 11:47:49.31	63.21	9.62	-41.1	-42.6	19.3	0.00e+00	0	29	0	448790528	56	6129
2026-01-14 11:47:50.32	63.39	9.63	-41.0	-42.5	19.4	0.00e+00	0	29	0	450887680	56	6087
2026-01-14 11:47:51.33	63.57	9.63	-41.2	-42.7	19.2	0.00e+00	41	29	0	451936256	56	6208
2026-01-14 11:47:52.33	63.74	9.64	-40.7	-42.1	19.7	0.00e+00	0	29	0	454033408	54	6530
2026-01-14 11:47:53.35	63.92	9.65	-40.6	-42.1	19.7	0.00e+00	47	29	0	456130560	54	6479
2026-01-14 11:47:54.36	64.10	9.66	-40.6	-42.0	19.7	0.00e+00	0	29	0	458227712	54	6418
2026-01-14 11:47:55.37	64.28	9.66	-40.5	-41.9	19.8	0.00e+00	0	29	0	460324864	54	6388
2026-01-14 11:47:56.37	64.45	9.67	-40.5	-41.9	19.9	0.00e+00	0	28	0	461373440	54	6323
2026-01-14 11:47:57.38	64.63	9.68	-40.5	-41.9	19.8	0.00e+00	0	28	0	463470592	54	6331
2026-01-14 11:47:58.39	64.81	9.68	-40.5	-41.9	19.8	0.00e+00	39	28	0	465567744	54	6377
2026-01-14 11:47:59.40	64.99	9.69	-40.3	-41.7	20.0	0.00e+00	0	28	0	467664896	54	6178
2026-01-14 11:48:00.41	65.17	9.70	-40.3	-41.7	20.0	0.00e+00	67	29	0	469762048	54	6192
2026-01-14 11:48:01.42	65.35	9.70	-40.2	-41.5	20.1	0.00e+00	0	29	0	470810624	54	6100
2026-01-14 11:48:02.43	65.52	9.71	-40.1	-41.4	20.3	0.00e+00	7	29	0	472907776	54	6022
2026-01-14 11:48:03.44	65.70	9.71	-40.1	-41.4	20.3	0.00e+00	0	29	0	475004928	54	5987
2026-01-14 11:48:04.45	65.88	9.72	-40.1	-41.5	20.2	0.00e+00	0	29	0	477102080	54	6045
2026-01-14 11:48:05.46	66.06	9.72	-40.2	-41.6	20.0	0.00e+00	34	29	0	479199232	54	6124
2026-01-14 11:48:06.47	66.24	9.73	-40.4	-41.8	20.0	0.00e+00	0	29	0	480247808	54	6288
2026-01-14 11:48:07.47	66.42	9.73	-40.5	-41.9	19.9	0.00e+00	90	29	0	482344960	54	6340
2026-01-14 11:48:08.48	66.60	9.74	-40.6	-42.1	19.7	0.00e+00	0	29	0	484442112	54	6468
2026-01-14 11:48:09.49	66.77	9.74	-40.4	-41.7	20.0	0.00e+00	0	28	0	486539264	54	6236
2026-01-14 11:48:10.50	66.95	9.74	-40.1	-41.4	20.3	0.00e+00	0	28	0	488636416	54	6029
2026-01-14 11:48:11.51	67.13	9.75	-40.0	-41.4	20.3	0.00e+00	0	29	0	489684992	54	5966
2026-01-14 11:48:12.52	67.31	9.75	-39.9	-41.1	20.6	0.00e+00	0	29	0	491782144	54	5814
2026-01-14 11:48:13.53	67.49	9.75	-39.6	-40.8	20.8	0.00e+00	0	29	0	493879296	52	6278
2026-01-14 11:48:14.54	67.67	9.75	-39.4	-40.6	21.0	0.00e+00	34	29	0	495976448	52	6161
2026-01-14 11:48:15.55	67.85	9.76	-39.3	-40.5	21.1	0.00e+00	0	29	0	498073600	52	6072
2026-01-14 11:48:16.56	68.03	9.76	-39.4	-40.6	20.9	0.00e+00	60	29	0	499122176	52	6152
2026-01-14 11:48:17.56	68.21	9.76	-39.5	-40.7	20.9	0.00e+00	0	29	0	501219328	52	6237
2026-01-14 11:48:18.57	68.39	9.76	-39.6	-40.8	20.8	0.00e+00	0	28	0	503316480	52	6290
2026-01-14 11:48:19.58	68.57	9.76	-39.4	-40.6	21.0	0.00e+00	0	28	0	505413632	52	6126
2026-01-14 11:48:20.59	68.74	9.77	-39.3	-40.5	21.2	0.00e+00	0	28	0	507510784	52	6043
2026-01-14 11:48:21.60	68.92	9.77	-39.2	-40.4	21.3	0.00e+00	36	28	0	509607936	52	5982
2026-01-14 11:48:22.61	69.10	9.77	-39.0	-40.1	21.5	0.00e+00	0	28	0	510656512	52	5794
2026-01-14 11:48:23.62	69.28	9.77	-38.9	-40.0	21.6	0.00e+00	80	28	0	512753664	52	5700
2026-01-14 11:48:24.63	69.46	9.77	-38.9	-40.0	21.6	0.00e+00	0	28	0	514850816	52	5719
2026-01-14 11:48:25.63	69.64	9.77	-39.0	-40.1	21.4	0.00e+00	0	28	0	516947968	52	5816
2026-01-14 11:48:26.64	69.82	9.77	-39.1	-40.2	21.2	0.00e+00	0	28	0	519045120	52	5886
2026-01-14 11:48:27.65	70.00	9.77	-39.4	-40.6	21.0	0.00e+00	0	28	0	520093696	52	6139
2026-01-14 11:48:28.66	70.18	9.77	-39.4	-40.7	20.9	0.00e+00	38	29	0	522190848	52	6188
2026-01-14 11:48:29.67	70.36	9.76	-39.6	-40.8	20.8	0.00e+00	0	29	0	524288000	52	6305
2026-01-14 11:48:30.68	70.54	9.76	-39.6	-40.9	20.8	0.00e+00	90	28	0	526385152	52	6346
2026-01-14 11:48:31.69	70.72	9.76	-39.3	-40.4	21.1	0.00e+00	0	28	0	528482304	52	6031
2026-01-14 11:48:32.70	70.90	9.76	-39.3	-40.5	21.0	0.00e+00	0	29	0	529530880	52	6067
2026-01-14 11:48:33.71	71.08	9.76	-39.2	-40.4	21.1	0.00e+00	0	28	0	531628032	52	6016
2026-01-14 11:48:34.71	71.25	9.76	-39.2	-40.4	21.1	0.00e+00	0	28	0	533725184	52	5987
2026-01-14 11:48:35.72	71.43	9.75	-39.3	-40.5	21.0	0.00e+00	35	29	0	535822336	52	6083
2026-01-14 11:48:36.73	71.61	9.75	-39.3	-40.5	20.9	0.00e+00	0	28	0	537919488	52	6052
2026-01-14 11:48:37.75	71.79	9.75	-39.4	-40.6	21.0	0.00e+00	81	28	0	538968064	52	6161
2026-01-14 11:48:38.75	71.97	9.74	-39.3	-40.5	21.0	0.00e+00	0	28	0	541065216	52	6071
2026-01-14 11:48:39.76	72.15	9.74	-39.4	-40.6	20.8	0.00e+00	11	29	0	543162368	52	6159
2026-01-14 11:48:40.77	72.33	9.74	-39.5	-40.7	20.8	0.00e+00	0	28	0	545259520	52	6241
2026-01-14 11:48:41.78	72.51	9.73	-39.4	-40.7	20.9	0.00e+00	0	29	0	547356672	52	6190
2026-01-14 11:48:42.79	72.69	9.73	-39.2	-40.4	21.1	0.00e+00	42	29	0	548405248	52	5998
2026-01-14 11:48:43.80	72.87	9.72	-39.1	-40.3	21.3	0.00e+00	0	28	0	550502400	52	5941
2026-01-14 11:48:44.81	73.04	9.72	-39.1	-40.2	21.3	0.00e+00	92	29	0	552599552	52	5894
2026-01-14 11:48:45.82	73.22	9.71	-38.9	-40.1	21.3	0.00e+00	0	29	0	554696704	52	5767
2026-01-14 11:48:46.83	73.40	9.71	-38.9	-40.0	20.9	0.00e+00	73	28	0	556793856	52	5711
2026-01-14 11:48:47.84	73.58	9.70	-38.9	-40.0	21.3	0.00e+00	0	29	0	557842432	52	5731
2026-01-14 11:48:48.84	73.76	9.70	-39.0	-40.2	21.3	0.00e+00	0	29	0	559939584	52	5867
2026-01-14 11:48:49.85	73.94	9.69	-39.1	-40.2	21.2	0.00e+00	0	28	0	562036736	52	5890
2026-01-14 11:48:50.86	74.12	9.69	-38.9	-40.0	21.4	0.00e+00	0	29	0	564133888	52	5747
2026-01-14 11:48:51.87	74.29	9.68	-38.7	-39.9	21.6	0.00e+00	90	28	0	566231040	50	6321
2026-01-14 11:48:52.88	74.47	9.67	-38.5	-39.6	21.8	0.00e+00	0	29	0	567279616	50	6134
2026-01-14 11:48:53.89	74.65	9.67	-38.4	-39.4	21.9	0.00e+00	92	28	0	569376768	50	6015
2026-01-14 11:48:54.90	74.83	9.66	-38.1	-39.2	22.2	0.00e+00	0	29	0	571473920	50	5829
2026-01-14 11:48:55.91	75.01	9.65	-38.0	-39.0	22.4	0.00e+00	0	29	0	573571072	50	5722
2026-01-14 11:48:56.92	75.19	9.64	-37.7	-38.7	22.6	0.00e+00	0	29	0	575668224	50	5533
2026-01-14 11:48:57.93	75.36	9.64	-37.7	-38.7	22.5	0.00e+00	0	29	0	577765376	48	6213
2026-01-14 11:48:58.94	75.54	9.63	-37.8	-38.7	22.4	0.00e+00	79	29	0	578813952	48	6244
2026-01-14 11:48:59.95	75.72	9.62	-38.0	-39.0	22.3	0.00e+00	0	29	0	580911104	48	6436
2026-01-14 11:49:00.96	75.90	9.61	-38.2	-39.3	22.0	0.00e+00	71	29	0	583008256	48	6635
2026-01-14 11:49:01.97	76.07	9.60	-38.2	-39.3	22.0	0.00e+00	0	28	0	585105408	48	6657
2026-01-14 11:49:02.97	76.25	9.59	-38.4	-39.5	21.9	0.00e+00	0	28	0	586153984	48	6790
2026-01-14 11:49:03.98	76.43	9.58	-38.4	-39.5	21.9	0.00e+00	0	28	0	588251136	48	6821
2026-01-14 11:49:04.99	76.60	9.57	-38.4	-39.5	21.9	0.00e+00	0	29	0	590348288	48	6806
2026-01-14 11:49:06.00	76.78	9.56	-38.5	-39.6	21.7	0.00e+00	41	29	0	592445440	48	6885
2026-01-14 11:49:07.01	76.96	9.55	-38.3	-39.4	22.0	0.00e+00	0	29	0	594542592	48	6729
2026-01-14 11:49:08.02	77.14	9.54	-38.3	-39.3	22.0	0.00e+00	92	28	0	595591168	48	6684
2026-01-14 11:49:09.03	77.31	9.53	-38.4	-39.5	22.0	0.00e+00	0	29	0	597688320	48	6791
2026-01-14 11:49:10.04	77.49	9.52	-38.4	-39.5	21.9	0.00e+00	0	29	0	599785472	48	6815
2026-01-14 11:49:11.05	77.67	9.51	-38.5	-39.6	21.8	0.00e+00	0	28	0	601882624	48	6889
2026-01-14 11:49:12.06	77.84	9.50	-38.6	-39.7	21.7	0.00e+00	0	29	0	603979776	48	6987
2026-01-14 11:49:13.07	78.02	9.49	-38.5	-39.6	21.8	0.00e+00	8	28	0	606076928	48	6902
2026-01-14 11:49:14.08	78.20	9.48	-38.6	-39.7	21.7	0.00e+00	0	28	0	607125504	48	6988
2026-01-14 11:49:15.09	78.37	9.47	-38.6	-39.7	21.7	0.00e+00	90	28	0	609222656	48	6943
2026-01-14 11:49:16.10	78.55	9.45	-38.6	-39.7	21.8	0.00e+00	0	28	0	611319808	48	6992
2026-01-14 11:49:17.11	78.72	9.44	-38.4	-39.5	21.8	0.00e+00	92	28	0	613416960	48	6803
2026-01-14 11:49:18.11	78.90	9.43	-38.4	-39.5	21.7	0.00e+00	31	28	0	615514112	48	6837
2026-01-14 11:49:19.12	79.07	9.42	-38.5	-39.6	21.8	0.00e+00	0	28	0	616562688	48	6910
2026-01-14 11:49:20.13	79.25	9.40	-38.6	-39.7	21.8	0.00e+00	37	28	0	618659840	48	6958
2026-01-14 11:49:21.14	79.42	9.39	-38.6	-39.8	21.7	0.00e+00	0	29	0	620756992	48	7009
2026-01-14 11:49:22.15	79.60	9.38	-38.7	-39.8	21.6	0.00e+00	31	29	0	622854144	48	7078
2026-01-14 11:49:23.16	79.77	9.36	-38.9	-40.1	21.4	0.00e+00	0	29	0	624951296	50	6481
2026-01-14 11:49:24.17	79.95	9.35	-38.8	-40.0	21.5	0.00e+00	92	29	0	625999872	50	6410
2026-01-14 11:49:25.17	80.12	9.34	-38.9	-40.1	21.4	0.00e+00	0	28	0	628097024	50	6496
2026-01-14 11:49:26.18	80.30	9.32	-39.1	-40.3	21.2	0.00e+00	0	29	0	630194176	50	6678
2026-01-14 11:49:27.19	80.47	9.31	-39.3	-40.5	21.1	0.00e+00	33	28	0	632291328	50	6810
2026-01-14 11:49:28.20	80.64	9.29	-39.3	-40.5	21.0	0.00e+00	0	29	0	634388480	50	6842
2026-01-14 11:49:29.20	80.82	9.28	-39.4	-40.6	21.0	0.00e+00	39	29	0	635437056	50	6898
2026-01-14 11:49:30.22	80.99	9.26	-39.5	-40.7	20.8	0.00e+00	0	29	0	637534208	50	6966
2026-01-14 11:49:31.23	81.17	9.25	-39.2	-40.4	21.1	0.00e+00	76	28	0	639631360	50	6700
2026-01-14 11:49:32.24	81.34	9.23	-39.1	-40.2	21.3	0.00e+00	0	28	0	641728512	50	6603
2026-01-14 11:49:33.24	81.51	9.22	-38.9	-40.1	21.3	0.00e+00	0	28	0	643825664	50	6489
2026-01-14 11:49:34.25	81.68	9.20	-38.8	-40.0	21.3	0.00e+00	0	29	0	644874240	50	6397
2026-01-14 11:49:35.26	81.86	9.18	-38.9	-40.0	21.4	0.00e+00	0	28	0	646971392	50	6419
2026-01-14 11:49:36.27	82.03	9.17	-38.6	-39.7	21.5	0.00e+00	40	29	0	649068544	50	6181
2026-01-14 11:49:37.28	82.20	9.15	-38.6	-39.7	21.8	0.00e+00	0	29	0	651165696	50	6201
2026-01-14 11:49:38.29	82.37	9.13	-38.3	-39.4	21.7	0.00e+00	52	28	0	653262848	50	5991
2026-01-14 11:49:39.30	82.55	9.12	-38.3	-39.3	22.0	0.00e+00	0	28	0	654311424	50	5943
2026-01-14 11:49:40.31	82.72	9.10	-38.1	-39.2	22.0	0.00e+00	0	29	0	656408576	50	5836
2026-01-14 11:49:41.32	82.89	9.08	-37.9	-38.9	22.3	0.00e+00	0	28	0	658505728	50	5677
2026-01-14 11:49:42.33	83.06	9.06	-37.6	-38.5	22.6	0.00e+00	0	29	0	660602880	48	6089
2026-01-14 11:49:43.34	83.23	9.05	-37.5	-38.5	22.5	0.00e+00	41	28	0	662700032	48	6095
2026-01-14 11:49:44.35	83.40	9.03	-37.4	-38.4	22.6	0.00e+00	0	28	0	663748608	48	6003
2026-01-14 11:49:45.36	83.57	9.01	-37.6	-38.6	22.5	0.00e+00	78	29	0	665845760	48	6133
2026-01-14 11:49:46.37	83.75	8.99	-37.4	-38.3	22.8	0.00e+00	0	28	0	667942912	48	5944
2026-01-14 11:49:47.37	83.91	8.97	-37.5	-38.5	22.7	0.00e+00	69	28	0	670040064	48	6034
2026-01-14 11:49:48.39	84.09	8.95	-37.6	-38.6	22.5	0.00e+00	0	28	0	672137216	48	6134
2026-01-14 11:49:49.39	84.25	8.93	-37.8	-38.8	22.3	0.00e+00	0	29	0	674234368	48	6280
2026-01-14 11:49:50.40	84.42	8.91	-37.9	-38.9	22.2	0.00e+00	0	28	0	675282944	48	6377
2026-01-14 11:49:51.41	84.59	8.89	-37.8	-38.8	22.3	0.00e+00	0	29	0	677380096	48	6306
2026-01-14 11:49:52.42	84.76	8.87	-37.9	-38.9	22.3	0.00e+00	68	28	0	679477248	48	6356
2026-01-14 11:49:53.43	84.93	8.85	-37.9	-38.9	22.3	0.00e+00	0	29	0	681574400	48	6373
2026-01-14 11:49:54.44	85.10	8.83	-37.9	-38.9	22.1	0.00e+00	0	29	0	683671552	48	6338
2026-01-14 11:49:55.45	85.27	8.81	-37.9	-39.0	22.2	0.00e+00	0	29	0	684720128	48	6393
2026-01-14 11:49:56.46	85.44	8.79	-38.0	-39.0	22.2	0.00e+00	0	29	0	686817280	48	6418
2026-01-14 11:49:57.47	85.61	8.77	-38.0	-39.0	22.3	0.00e+00	0	29	0	688914432	48	6411
2026-01-14 11:49:58.48	85.78	8.75	-38.0	-39.0	22.1	0.00e+00	0	28	0	691011584	48	6439
2026-01-14 11:49:59.49	85.94	8.73	-37.9	-39.0	22.1	0.00e+00	92	28	0	693108736	48	6411
2026-01-14 11:50:00.50	86.11	8.71	-38.1	-39.1	22.1	0.00e+00	0	28	0	694157312	48	6530
2026-01-14 11:50:01.51	86.28	8.69	-38.1	-39.2	22.0	0.00e+00	92	28	0	696254464	48	6573
2026-01-14 11:50:02.52	86.45	8.67	-38.3	-39.3	21.9	0.00e+00	0	28	0	698351616	48	6678
2026-01-14 11:50:03.53	86.61	8.64	-38.4	-39.5	21.8	0.00e+00	0	28	0	700448768	48	6793
2026-01-14 11:50:04.53	86.78	8.62	-38.4	-39.4	21.9	0.00e+00	0	28	0	702545920	48	6760
2026-01-14 11:50:05.54	86.94	8.60	-38.3	-39.4	21.9	0.00e+00	0	28	0	703594496	48	6744
2026-01-14 11:50:06.55	87.11	8.58	-38.2	-39.2	22.1	0.00e+00	34	28	0	705691648	48	6603
2026-01-14 11:50:07.56	87.28	8.55	-37.9	-39.0	22.2	0.00e+00	0	28	0	707788800	48	6402
2026-01-14 11:50:08.58	87.44	8.53	-37.5	-38.5	22.6	0.00e+00	68	28	0	709885952	48	6036
2026-01-14 11:50:09.58	87.61	8.51	-37.4	-38.3	22.8	0.00e+00	0	28	0	711983104	48	5953
2026-01-14 11:50:10.59	87.77	8.48	-37.3	-38.3	22.8	0.00e+00	0	29	0	713031680	48	5898
2026-01-14 11:50:11.60	87.94	8.46	-37.2	-38.1	22.9	0.00e+00	0	28	0	715128832	48	5803
2026-01-14 11:50:12.61	88.10	8.44	-37.2	-38.2	22.9	0.00e+00	0	28	0	717225984	48	5846
2026-01-14 11:50:13.62	88.27	8.41	-37.5	-38.4	22.7	0.00e+00	30	28	0	719323136	48	6027
2026-01-14 11:50:14.63	88.43	8.39	-37.6	-38.6	22.5	0.00e+00	0	29	0	721420288	48	6151
2026-01-14 11:50:15.63	88.59	8.37	-37.9	-38.9	22.2	0.00e+00	92	28	0	722468864	48	6384
2026-01-14 11:50:16.64	88.76	8.34	-38.1	-39.1	22.2	0.00e+00	0	29	0	724566016	48	6537
2026-01-14 11:50:17.65	88.92	8.32	-38.1	-39.2	22.0	0.00e+00	0	29	0	726663168	48	6551
2026-01-14 11:50:18.66	89.08	8.29	-38.0	-39.0	22.1	0.00e+00	0	29	0	728760320	48	6462
2026-01-14 11:50:19.67	89.25	8.27	-38.1	-39.2	22.1	0.00e+00	0	28	0	730857472	48	6548
2026-01-14 11:50:20.68	89.41	8.24	-38.0	-39.0	22.2	0.00e+00	19	28	0	731906048	48	6436
2026-01-14 11:50:21.69	89.57	8.22	-38.1	-39.2	22.0	0.00e+00	0	28	0	734003200	48	6567
2026-01-14 11:50:22.70	89.73	8.19	-38.2	-39.2	22.0	0.00e+00	87	29	0	736100352	48	6594
2026-01-14 11:50:23.71	89.89	8.17	-38.1	-39.1	22.0	0.00e+00	0	29	0	738197504	48	6537
2026-01-14 11:50:24.72	90.06	8.14	-38.1	-39.2	22.0	0.00e+00	92	28	0	740294656	48	6567
2026-01-14 11:50:25.73	90.22	8.11	-38.3	-39.3	21.8	0.00e+00	0	28	0	742391808	48	6678
2026-01-14 11:50:26.74	90.38	8.09	-38.6	-39.7	21.5	0.00e+00	0	28	0	743440384	48	6991
2026-01-14 11:50:27.74	90.54	8.06	-38.7	-39.9	21.4	0.00e+00	37	28	0	745537536	48	7147
2026-01-14 11:50:28.75	90.70	8.04	-38.9	-40.2	21.1	0.00e+00	0	28	0	747634688	50	6542
2026-01-14 11:50:29.76	90.86	8.01	-39.1	-40.4	20.9	0.00e+00	36	28	0	749731840	50	6732
2026-01-14 11:50:30.78	91.02	7.98	-39.5	-40.8	20.7	0.00e+00	0	28	0	750780416	50	7045
2026-01-14 11:50:31.78	91.18	7.96	-39.6	-40.9	20.4	0.00e+00	63	28	0	752877568	50	7170
2026-01-14 11:50:32.80	91.34	7.93	-39.9	-41.2	20.4	0.00e+00	0	28	0	754974720	52	6592
2026-01-14 11:50:33.80	91.50	7.90	-39.9	-41.2	20.3	0.00e+00	0	28	0	757071872	52	6603
2026-01-14 11:50:34.81	91.65	7.87	-39.9	-41.2	20.4	0.00e+00	0	28	0	759169024	52	6578
2026-01-14 11:50:35.82	91.81	7.85	-39.7	-41.0	20.5	0.00e+00	0	28	0	760217600	52	6399
2026-01-14 11:50:36.83	91.97	7.82	-39.7	-41.0	20.3	0.00e+00	36	28	0	762314752	52	6458
2026-01-14 11:50:37.84	92.13	7.79	-39.6	-40.9	20.4	0.00e+00	0	29	0	764411904	52	6372
2026-01-14 11:50:38.85	92.29	7.76	-39.9	-41.2	20.2	0.00e+00	91	28	0	766509056	52	6585
2026-01-14 11:50:39.85	92.44	7.74	-39.9	-41.2	20.2	0.00e+00	0	29	0	768606208	52	6587
2026-01-14 11:50:40.86	92.60	7.71	-40.0	-41.4	20.2	0.00e+00	0	28	0	770703360	52	6706
2026-01-14 11:50:41.87	92.76	7.68	-40.0	-41.3	20.1	0.00e+00	0	28	0	771751936	52	6669
2026-01-14 11:50:42.88	92.91	7.65	-40.0	-41.4	20.0	0.00e+00	0	28	0	773849088	52	6739
2026-01-14 11:50:43.89	93.07	7.62	-39.8	-41.2	20.4	0.00e+00	35	28	0	775946240	52	6546
2026-01-14 11:50:44.90	93.22	7.59	-39.7	-41.1	20.4	0.00e+00	0	28	0	778043392	52	6468
2026-01-14 11:50:45.91	93.38	7.56	-39.7	-41.1	20.4	0.00e+00	76	28	0	780140544	52	6484
2026-01-14 11:50:46.92	93.53	7.53	-39.5	-40.9	20.5	0.00e+00	0	28	0	781189120	52	6354
2026-01-14 11:50:47.93	93.69	7.50	-39.5	-40.8	20.3	0.00e+00	0	28	0	783286272	52	6287
2026-01-14 11:50:48.94	93.84	7.48	-39.8	-41.1	20.2	0.00e+00	0	28	0	785383424	52	6496
2026-01-14 11:50:49.95	94.00	7.45	-39.9	-41.2	20.2	0.00e+00	0	28	0	787480576	52	6599
2026-01-14 11:50:50.96	94.15	7.42	-40.0	-41.4	19.9	0.00e+00	42	28	0	789577728	52	6722
2026-01-14 11:50:51.97	94.31	7.39	-40.0	-41.5	19.9	0.00e+00	0	28	0	790626304	52	6774
2026-01-14 11:50:52.98	94.46	7.36	-40.2	-41.7	19.7	0.00e+00	90	28	0	792723456	52	6933
2026-01-14 11:50:53.98	94.61	7.33	-40.2	-41.6	19.8	0.00e+00	0	29	0	794820608	52	6896
2026-01-14 11:50:55.00	94.77	7.30	-40.3	-41.7	19.6	0.00e+00	0	28	0	796917760	52	6968
2026-01-14 11:50:56.01	94.92	7.27	-40.5	-41.9	19.5	0.00e+00	0	28	0	799014912	52	7170
2026-01-14 11:50:57.01	95.07	7.24	-40.8	-42.4	19.0	0.00e+00	0	28	0	800063488	52	7538
2026-01-14 11:50:58.02	95.22	7.20	-41.1	-42.7	18.9	0.00e+00	9	28	0	802160640	54	6999
2026-01-14 11:50:59.03	95.37	7.17	-41.4	-43.1	18.5	0.00e+00	0	28	0	804257792	54	7277
2026-01-14 11:51:00.04	95.52	7.14	-41.4	-43.1	18.4	0.00e+00	92	28	0	806354944	54	7289
2026-01-14 11:51:01.05	95.67	7.11	-41.6	-43.4	18.3	0.00e+00	0	29	0	808452096	54	7553
2026-01-14 11:51:02.06	95.82	7.08	-41.7	-43.5	17.9	0.00e+00	77	28	0	809500672	54	7676
2026-01-14 11:51:03.07	95.97	7.05	-42.1	-44.2	17.4	0.00e+00	0	28	0	811597824	56	7366
2026-01-14 11:51:04.08	96.12	7.02	-42.3	-44.4	17.2	0.00e+00	0	28	0	813694976	56	7558
2026-01-14 11:51:05.09	96.27	6.99	-42.5	-44.7	16.9	0.00e+00	0	28	0	815792128	56	7805
2026-01-14 11:51:06.10	96.42	6.95	-42.4	-44.4	17.2	0.00e+00	0	28	0	817889280	56	7585
2026-01-14 11:51:07.11	96.57	6.92	-41.9	-43.8	17.7	0.00e+00	90	28	0	818937856	56	7029
2026-01-14 11:51:08.11	96.72	6.89	-42.0	-43.9	17.6	0.00e+00	0	28	0	821035008	56	7116
2026-01-14 11:51:09.13	96.87	6.86	-41.8	-43.7	18.1	0.00e+00	88	29	0	823132160	56	6959
2026-01-14 11:51:10.13	97.02	6.83	-41.4	-43.0	18.5	0.00e+00	0	28	0	825229312	56	6464
2026-01-14 11:51:11.14	97.16	6.79	-41.3	-42.9	18.7	0.00e+00	0	29	0	827326464	56	6374
2026-01-14 11:51:12.15	97.31	6.76	-41.0	-42.6	18.8	0.00e+00	0	29	0	828375040	56	6112
2026-01-14 11:51:13.16	97.46	6.73	-40.9	-42.5	18.8	0.00e+00	33	28	0	830472192	56	6043
2026-01-14 11:51:14.17	97.61	6.70	-40.8	-42.4	18.9	0.00e+00	92	29	0	832569344	56	5996
2026-01-14 11:51:15.18	97.75	6.66	-40.8	-42.4	18.9	0.00e+00	0	29	0	834666496	54	6693
2026-01-14 11:51:16.19	97.90	6.63	-40.8	-42.4	18.9	0.00e+00	92	28	0	836763648	54	6700
2026-01-14 11:51:17.20	98.04	6.60	-40.8	-42.4	18.9	0.00e+00	0	29	0	838860800	54	6733
2026-01-14 11:51:18.21	98.19	6.56	-40.9	-42.5	18.9	0.00e+00	0	29	0	839909376	54	6834
2026-01-14 11:51:19.22	98.34	6.53	-41.0	-42.7	18.7	0.00e+00	0	29	0	842006528	54	6951
2026-01-14 11:51:20.23	98.48	6.50	-41.0	-42.7	18.8	0.00e+00	0	29	0	844103680	54	6957
2026-01-14 11:51:21.23	98.62	6.46	-41.3	-43.0	18.4	0.00e+00	59	29	0	846200832	54	7239
2026-01-14 11:51:22.25	98.77	6.43	-41.3	-43.0	18.5	0.00e+00	0	29	0	848297984	54	7232
2026-01-14 11:51:23.25	98.91	6.40	-41.2	-42.9	18.6	0.00e+00	90	29	0	849346560	54	7164
2026-01-14 11:51:24.26	99.06	6.36	-41.2	-43.0	18.4	0.00e+00	0	29	0	851443712	54	7207
2026-01-14 11:51:25.27	99.20	6.33	-41.2	-42.9	18.5	0.00e+00	61	28	0	853540864	54	7169
2026-01-14 11:51:26.28	99.34	6.30	-41.4	-43.2	18.4	0.00e+00	0	29	0	855638016	54	7383
2026-01-14 11:51:27.29	99.48	6.26	-41.2	-42.9	18.5	0.00e+00	0	28	0	857735168	54	7097
2026-01-14 11:51:28.30	99.63	6.23	-41.2	-42.9	18.5	0.00e+00	15	28	0	858783744	54	7157
2026-01-14 11:51:29.31	99.77	6.19	-41.2	-42.9	18.6	0.00e+00	0	28	0	860880896	54	7121
2026-01-14 11:51:30.32	99.91	6.16	-40.7	-42.4	19.1	0.00e+00	92	29	0	862978048	54	6694
2026-01-14 11:51:31.33	100.05	6.12	-40.7	-42.3	19.0	0.00e+00	0	28	0	865075200	54	6689
2026-01-14 11:51:32.34	100.19	6.09	-40.6	-42.2	19.1	0.00e+00	13	29	0	867172352	54	6596
2026-01-14 11:51:33.35	100.33	6.05	-40.7	-42.3	19.0	0.00e+00	0	29	0	868220928	54	6647
2026-01-14 11:51:34.35	100.47	6.02	-41.0	-42.6	18.7	0.00e+00	0	29	0	870318080	54	6888
2026-01-14 11:51:35.36	100.61	5.99	-40.9	-42.5	18.9	0.00e+00	0	29	0	872415232	54	6773
2026-01-14 11:51:36.37	100.75	5.95	-40.6	-42.1	19.0	0.00e+00	0	29	0	874512384	54	6526
2026-01-14 11:51:37.38	100.89	5.92	-40.7	-42.3	19.0	0.00e+00	92	29	0	876609536	54	6671
2026-01-14 11:51:38.39	101.03	5.88	-40.7	-42.5	18.8	0.00e+00	0	28	0	877658112	54	6776
2026-01-14 11:51:39.40	101.17	5.84	-40.9	-42.7	18.6	0.00e+00	92	29	0	879755264	54	6954
2026-01-14 11:51:40.41	101.31	5.81	-40.9	-42.6	18.9	0.00e+00	0	29	0	881852416	54	6880
2026-01-14 11:51:41.42	101.45	5.77	-40.9	-42.5	18.8	0.00e+00	0	29	0	883949568	54	6790
2026-01-14 11:51:42.43	101.59	5.74	-40.8	-42.4	18.7	0.00e+00	0	29	0	886046720	54	6764
2026-01-14 11:51:43.44	101.72	5.70	-40.6	-42.4	18.8	0.00e+00	0	29	0	887095296	54	6725
2026-01-14 11:51:44.45	101.86	5.67	-40.4	-42.4	18.8	0.00e+00	26	29	0	889192448	54	6707
2026-01-14 11:51:45.46	102.00	5.63	-40.1	-42.1	19.0	0.00e+00	0	29	0	891289600	54	6515
2026-01-14 11:51:46.47	102.13	5.60	-39.9	-41.8	19.4	0.00e+00	90	29	0	893386752	54	6264
2026-01-14 11:51:47.47	102.27	5.56	-40.2	-41.9	19.4	0.00e+00	0	29	0	895483904	54	6350
2026-01-14 11:51:48.49	102.41	5.52	-40.2	-41.7	19.6	0.00e+00	0	28	0	896532480	54	6215
2026-01-14 11:51:49.49	102.54	5.49	-40.2	-41.7	19.6	0.00e+00	0	29	0	898629632	54	6180
2026-01-14 11:51:50.50	102.68	5.45	-40.4	-41.9	19.5	0.00e+00	0	29	0	900726784	54	6337
2026-01-14 11:51:51.51	102.81	5.41	-40.3	-41.7	19.5	0.00e+00	50	29	0	902823936	54	6226
2026-01-14 11:51:52.52	102.95	5.38	-40.1	-41.6	19.6	0.00e+00	0	29	0	904921088	54	6121
2026-01-14 11:51:53.53	103.08	5.34	-40.2	-41.6	19.6	0.00e+00	92	29	0	907018240	54	6152
2026-01-14 11:51:54.54	103.21	5.31	-40.3	-41.8	19.4	0.00e+00	0	29	0	908066816	54	6288
2026-01-14 11:51:55.55	103.35	5.27	-40.0	-41.4	19.8	0.00e+00	0	29	0	910163968	54	5992
2026-01-14 11:51:56.56	103.48	5.23	-40.1	-41.6	19.7	0.00e+00	0	29	0	912261120	54	6155
2026-01-14 11:51:57.57	103.61	5.19	-40.2	-41.8	19.5	0.00e+00	0	28	0	914358272	54	6257
2026-01-14 11:51:58.58	103.75	5.16	-40.2	-41.7	19.5	0.00e+00	40	29	0	915406848	54	6205
2026-01-14 11:51:59.59	103.88	5.12	-40.2	-41.8	19.5	0.00e+00	0	28	0	917504000	54	6275
2026-01-14 11:52:00.59	104.01	5.08	-40.3	-41.8	19.4	0.00e+00	92	29	0	919601152	54	6286
2026-01-14 11:52:01.60	104.14	5.05	-40.2	-41.7	19.5	0.00e+00	0	29	0	921698304	54	6231
2026-01-14 11:52:02.61	104.27	5.01	-40.4	-42.0	19.2	0.00e+00	0	29	0	923795456	54	6445
2026-01-14 11:52:03.62	104.40	4.97	-40.5	-42.2	19.0	0.00e+00	0	28	0	924844032	54	6561
2026-01-14 11:52:04.63	104.54	4.94	-40.7	-42.4	18.9	0.00e+00	0	29	0	926941184	54	6715
2026-01-14 11:52:05.64	104.67	4.90	-40.4	-42.1	19.0	0.00e+00	33	29	0	929038336	54	6518
2026-01-14 11:52:06.65	104.80	4.86	-40.3	-42.1	19.0	0.00e+00	0	29	0	931135488	54	6467
2026-01-14 11:52:07.66	104.93	4.82	-40.2	-42.1	19.0	0.00e+00	64	29	0	933232640	54	6497
2026-01-14 11:52:08.67	105.06	4.79	-40.1	-42.0	19.1	0.00e+00	0	29	0	935329792	54	6392
2026-01-14 11:52:09.68	105.18	4.75	-40.3	-42.1	18.9	0.00e+00	59	29	0	936378368	54	6519
2026-01-14 11:52:10.69	105.31	4.71	-40.2	-41.9	19.2	0.00e+00	0	29	0	938475520	54	6388
2026-01-14 11:52:11.70	105.44	4.67	-40.4	-41.9	19.2	0.00e+00	0	29	0	940572672	54	6383
2026-01-14 11:52:12.71	105.57	4.63	-40.2	-41.8	19.2	0.00e+00	33	29	0	942669824	54	6258
2026-01-14 11:52:13.72	105.70	4.60	-39.4	-40.9	20.1	0.00e+00	0	29	0	944766976	52	6337
2026-01-14 11:52:14.73	105.83	4.56	-39.3	-40.8	20.2	0.00e+00	33	29	0	945815552	52	6306
2026-01-14 11:52:15.74	105.95	4.52	-39.8	-41.4	19.5	0.00e+00	0	29	0	947912704	52	6701
2026-01-14 11:52:16.75	106.08	4.48	-39.6	-41.2	19.6	0.00e+00	65	29	0	950009856	52	6555
2026-01-14 11:52:17.75	106.21	4.44	-39.4	-40.9	19.9	0.00e+00	0	29	0	952107008	52	6363
2026-01-14 11:52:18.77	106.33	4.41	-39.6	-41.2	19.7	0.00e+00	0	29	0	954204160	52	6552
2026-01-14 11:52:19.77	106.46	4.37	-39.6	-41.1	19.8	0.00e+00	0	29	0	955252736	52	6490
2026-01-14 11:52:20.78	106.58	4.33	-39.9	-41.4	19.3	0.00e+00	0	29	0	957349888	52	6769
2026-01-14 11:52:21.79	106.71	4.29	-39.7	-41.3	19.4	0.00e+00	87	29	0	959447040	52	6653
2026-01-14 11:52:22.80	106.83	4.25	-39.9	-41.4	19.1	0.00e+00	0	29	0	961544192	52	6755
2026-01-14 11:52:23.81	106.96	4.21	-40.0	-41.5	19.1	0.00e+00	74	29	0	963641344	52	6834
2026-01-14 11:52:24.82	107.08	4.18	-39.8	-41.3	19.4	0.00e+00	0	29	0	964689920	52	6682
2026-01-14 11:52:25.83	107.21	4.14	-39.7	-41.2	19.5	0.00e+00	0	29	0	966787072	52	6614
2026-01-14 11:52:26.84	107.33	4.10	-39.7	-41.1	19.5	0.00e+00	0	29	0	968884224	52	6536
2026-01-14 11:52:27.85	107.46	4.06	-39.6	-41.0	19.6	0.00e+00	0	29	0	970981376	52	6460
2026-01-14 11:52:28.86	107.58	4.02	-39.6	-41.1	19.5	0.00e+00	38	29	0	973078528	52	6506
2026-01-14 11:52:29.87	107.70	3.98	-39.6	-41.2	19.4	0.00e+00	0	29	0	974127104	52	6565
2026-01-14 11:52:30.88	107.82	3.94	-39.7	-41.3	19.2	0.00e+00	92	29	0	976224256	52	6668
2026-01-14 11:52:31.89	107.95	3.90	-39.9	-41.4	19.1	0.00e+00	0	29	0	978321408	52	6716
2026-01-14 11:52:32.90	108.07	3.87	-39.8	-41.3	19.2	0.00e+00	0	29	0	980418560	52	6684
2026-01-14 11:52:33.91	108.19	3.83	-40.0	-41.7	18.9	0.00e+00	0	29	0	982515712	52	6981
2026-01-14 11:52:34.92	108.31	3.79	-39.9	-41.9	18.6	0.00e+00	0	29	0	983564288	52	7125
2026-01-14 11:52:35.93	108.43	3.75	-39.8	-42.0	18.5	0.00e+00	37	29	0	985661440	52	7213
2026-01-14 11:52:36.94	108.55	3.71	-39.7	-41.8	18.5	0.00e+00	0	29	0	987758592	52	7039
2026-01-14 11:52:37.95	108.67	3.67	-40.4	-42.5	18.0	0.00e+00	92	29	0	989855744	52	7665
2026-01-14 11:52:38.96	108.79	3.63	-40.6	-42.5	18.0	0.00e+00	0	28	0	991952896	54	6770
2026-01-14 11:52:39.97	108.91	3.59	-40.3	-42.1	18.4	0.00e+00	72	28	0	993001472	54	6471
2026-01-14 11:52:40.98	109.03	3.55	-40.7	-42.5	17.8	0.00e+00	0	29	0	995098624	54	6832
2026-01-14 11:52:41.99	109.15	3.51	-40.7	-42.6	17.7	0.00e+00	0	28	0	997195776	54	6911
2026-01-14 11:52:43.00	109.27	3.47	-40.8	-42.8	17.7	0.00e+00	0	29	0	999292928	54	7032
2026-01-14 11:52:44.01	109.39	3.43	-41.0	-42.9	17.6	0.00e+00	0	29	0	1001390080	54	7091
2026-01-14 11:52:45.02	109.51	3.39	-40.8	-42.6	17.9	0.00e+00	92	29	0	1003487232	54	6898
2026-01-14 11:52:46.03	109.63	3.36	-40.9	-43.0	17.5	0.00e+00	0	29	0	1004535808	54	7172
2026-01-14 11:52:47.03	109.74	3.32	-41.0	-43.1	17.3	0.00e+00	32	29	0	1006632960	54	7261
2026-01-14 11:52:48.04	109.86	3.28	-41.2	-43.3	17.2	0.00e+00	0	29	0	1008730112	54	7440
2026-01-14 11:52:49.05	109.98	3.24	-41.5	-43.7	16.8	0.00e+00	0	29	0	1010827264	54	7808
2026-01-14 11:52:50.06	110.09	3.20	-41.8	-44.1	16.2	0.00e+00	0	29	0	1012924416	56	7324
2026-01-14 11:52:51.07	110.21	3.16	-41.5	-43.8	16.6	0.00e+00	0	29	0	1013972992	56	7016
2026-01-14 11:52:52.07	110.32	3.12	-41.2	-43.5	16.8	0.00e+00	4	29	0	1016070144	56	6806
2026-01-14 11:52:53.08	110.44	3.08	-41.5	-44.1	16.2	0.00e+00	0	29	0	1018167296	56	7314
2026-01-14 11:52:54.08	110.55	3.04	-41.3	-43.8	16.6	0.00e+00	92	29	0	1020264448	56	7028
2026-01-14 11:52:55.09	110.67	3.00	-40.4	-42.6	17.7	0.00e+00	0	29	0	1022361600	54	6859
2026-01-14 11:52:56.10	110.79	2.96	-47.0	-62.7	3.6	1.51e+00	0	29	104	1022361600	60	49092
2026-01-14 11:52:57.11	110.90	2.92	-47.9	-63.2	3.6	1.51e+00	0	29	104	1022361600	60	52187
2026-01-14 11:52:58.12	111.01	2.88	-48.2	-63.4	3.6	1.51e+00	0	29	104	1022361600	60	53770
2026-01-14 11:52:59.13	111.13	2.84	-48.4	-63.6	3.6	1.51e+00	0	29	104	1022361600	60	54737
2026-01-14 11:53:00.14	111.24	2.80	-48.5	-63.7	3.6	1.51e+00	0	29	104	1022361600	60	55362
2026-01-14 11:53:01.15	111.36	2.76	-48.6	-63.7	3.6	1.51e+00	0	29	104	1022361600	60	55593
2026-01-14 11:53:02.16	111.47	2.72	-48.6	-63.8	3.6	1.51e+00	0	29	104	1022361600	60	56064
2026-01-14 11:53:03.17	111.58	2.68	-48.7	-63.8	3.6	1.51e+00	0	29	104	1022361600	60	56243
2026-01-14 11:53:04.17	111.69	2.64	-48.7	-63.8	3.6	1.51e+00	0	29	104	1022361600	60	56270
2026-01-14 11:53:05.19	111.81	2.60	-48.7	-63.9	3.6	1.51e+00	0	29	104	1022361600	60	56591
2026-01-14 11:53:06.19	111.92	2.56	-48.7	-63.9	3.6	1.51e+00	0	29	104	1022361600	60	56621
2026-01-14 11:53:07.20	112.03	2.52	-48.7	-63.8	3.6	1.51e+00	0	29	104	1022361600	60	56206
2026-01-14 11:53:08.21	112.14	2.48	-48.7	-63.9	3.6	1.51e+00	0	29	104	1022361600	60	56353
2026-01-14 11:53:09.22	112.25	2.44	-48.7	-63.9	3.6	1.51e+00	0	29	104	1022361600	60	56391
2026-01-14 11:53:10.23	112.36	2.40	-48.6	-63.8	3.6	1.51e+00	0	29	104	1022361600	60	56276
2026-01-14 11:53:11.24	112.47	2.36	-48.6	-63.9	3.6	1.51e+00	0	29	104	1022361600	60	56353
2026-01-14 11:53:12.25	112.58	2.32	-48.7	-63.8	3.6	1.51e+00	0	29	104	1022361600	60	56156
2026-01-14 11:53:13.26	112.69	2.28	-48.7	-63.8	3.6	1.51e+00	0	29	104	1022361600	60	56128
2026-01-14 11:53:14.27	112.80	2.23	-48.6	-63.8	3.6	1.51e+00	0	29	104	1022361600	60	56221
2026-01-14 11:53:15.28	112.91	2.19	-48.6	-63.8	3.6	1.51e+00	0	29	104	1022361600	60	56089
2026-01-14 11:53:16.29	113.02	2.15	-48.6	-63.8	3.6	1.51e+00	0	29	104	1022361600	60	55964
2026-01-14 11:53:17.30	113.13	2.11	-48.6	-63.8	3.6	1.51e+00	0	29	104	1022361600	60	55937
2026-01-14 11:53:18.31	113.24	2.07	-48.6	-63.8	3.6	1.51e+00	0	29	104	1022361600	60	56235
2026-01-14 11:53:19.32	113.35	2.03	-48.6	-63.8	3.6	1.51e+00	0	29	104	1022361600	60	56150
2026-01-14 11:53:20.33	113.46	1.99	-48.6	-63.8	3.6	1.51e+00	0	29	104	1022361600	60	55917
2026-01-14 11:53:21.34	113.56	1.95	-48.6	-63.8	3.6	1.51e+00	0	29	104	1022361600	60	56100
2026-01-14 11:53:22.35	113.67	1.91	-48.6	-63.9	3.6	1.51e+00	0	29	104	1022361600	60	56320
2026-01-14 11:53:23.36	113.78	1.87	-48.6	-63.8	3.6	1.51e+00	0	29	104	1022361600	60	55942
2026-01-14 11:53:24.37	113.88	1.83	-48.6	-63.8	3.6	1.51e+00	0	29	104	1022361600	60	56243
2026-01-14 11:53:25.38	113.99	1.79	-48.6	-63.8	3.6	1.51e+00	0	29	104	1022361600	60	56247
2026-01-14 11:53:26.39	114.10	1.75	-48.6	-63.8	3.6	1.51e+00	0	29	104	1022361600	60	56088
2026-01-14 11:53:27.40	114.20	1.71	-48.6	-63.8	3.6	1.51e+00	0	29	104	1022361600	60	56075
2026-01-14 11:53:28.41	114.31	1.67	-48.6	-63.9	3.6	1.51e+00	0	29	104	1022361600	60	56312
2026-01-14 11:53:29.41	114.41	1.63	-48.6	-63.8	3.6	1.51e+00	0	29	104	1022361600	60	55877
2026-01-14 11:53:30.42	114.52	1.58	-48.6	-63.8	3.6	1.51e+00	0	29	104	1022361600	60	56063
2026-01-14 11:53:31.43	114.62	1.54	-48.6	-63.8	3.6	1.51e+00	0	29	104	1022361600	60	56191
2026-01-14 11:53:32.44	114.73	1.50	-48.6	-63.8	3.6	1.51e+00	0	29	104	1022361600	60	55918
2026-01-14 11:53:33.45	114.83	1.46	-48.6	-63.8	3.6	1.51e+00	0	29	104	1022361600	60	55905
2026-01-14 11:53:34.46	114.94	1.42	-48.6	-63.8	3.6	1.51e+00	0	29	104	1022361600	60	55972
2026-01-14 11:53:35.47	115.04	1.38	-48.6	-63.8	3.6	1.51e+00	0	29	104	1022361600	60	56005
2026-01-14 11:53:36.48	115.14	1.34	-48.6	-63.8	3.6	1.51e+00	0	29	104	1022361600	60	55971
2026-01-14 11:53:37.49	115.25	1.30	-48.6	-63.8	3.6	1.51e+00	0	29	104	1022361600	60	56290
2026-01-14 11:53:38.50	115.35	1.26	-48.6	-63.8	3.6	1.51e+00	0	29	104	1022361600	60	55946
2026-01-14 11:53:39.51	115.45	1.22	-48.6	-63.8	3.6	1.51e+00	0	29	104	1022361600	60	55918
2026-01-14 11:53:40.52	115.56	1.18	-48.6	-63.8	3.5	1.51e+00	0	29	104	1022361600	60	55911
2026-01-14 11:53:41.53	115.66	1.13	-48.6	-63.8	3.6	1.51e+00	0	29	104	1022361600	60	56052
2026-01-14 11:53:42.54	115.76	1.09	-48.6	-63.7	3.6	1.51e+00	0	29	104	1022361600	60	55587
2026-01-14 11:53:43.55	115.86	1.05	-48.6	-63.8	3.6	1.51e+00	0	29	104	1022361600	60	55876
2026-01-14 11:53:44.56	115.96	1.01	-48.6	-63.8	3.6	1.51e+00	0	29	104	1022361600	60	56056
2026-01-14 11:53:45.57	116.06	0.97	-48.7	-63.8	3.6	1.51e+00	0	29	104	1022361600	60	56306
2026-01-14 11:53:46.58	116.16	0.93	-48.6	-63.8	3.6	1.51e+00	0	29	104	1022361600	60	56088
2026-01-14 11:53:47.59	116.26	0.89	-48.7	-63.9	3.6	1.51e+00	0	29	104	1022361600	60	56324
2026-01-14 11:53:48.60	116.37	0.85	-48.6	-63.8	3.6	1.51e+00	0	29	104	1022361600	60	55990
2026-01-14 11:53:49.61	116.47	0.81	-48.6	-63.9	3.6	1.51e+00	0	29	104	1022361600	60	56426
2026-01-14 11:53:50.62	116.56	0.77	-48.6	-63.8	3.6	1.51e+00	0	29	104	1022361600	60	56225
2026-01-14 11:53:51.63	116.66	0.72	-48.6	-63.8	3.6	1.51e+00	0	29	104	1022361600	60	56208
2026-01-14 11:53:52.64	116.76	0.68	-48.6	-63.8	3.6	1.51e+00	0	29	104	1022361600	60	56180
2026-01-14 11:53:53.65	116.86	0.64	-48.6	-63.8	3.6	1.51e+00	0	29	104	1022361600	60	55983
2026-01-14 11:53:54.66	116.96	0.60	-48.6	-63.8	3.6	1.51e+00	0	29	104	1022361600	60	55889
2026-01-14 11:53:55.67	117.06	0.56	-48.6	-63.8	3.6	1.51e+00	0	29	104	1022361600	60	56033
2026-01-14 11:53:56.68	117.16	0.52	-48.6	-63.8	3.6	1.51e+00	0	29	104	1022361600	60	56073
2026-01-14 11:53:57.69	117.26	0.48	-48.6	-63.8	3.6	1.51e+00	0	29	104	1022361600	60	56214
2026-01-14 11:53:58.70	117.35	0.44	-48.6	-63.8	3.6	1.51e+00	0	29	104	1022361600	60	55891
2026-01-14 11:53:59.71	117.45	0.39	-48.6	-63.8	3.6	1.51e+00	0	29	104	1022361600	60	56045
2026-01-14 11:54:00.72	117.55	0.35	-48.6	-63.8	3.6	1.51e+00	0	29	104	1022361600	60	55992
2026-01-14 11:54:01.73	117.65	0.31	-48.7	-63.8	3.6	1.51e+00	0	29	104	1022361600	60	56032
2026-01-14 11:54:02.74	117.74	0.27	-48.6	-63.9	3.6	1.51e+00	0	29	104	1022361600	60	56370
2026-01-14 11:54:03.75	117.84	0.23	-48.6	-63.8	3.6	1.51e+00	0	29	104	1022361600	60	56165
2026-01-14 11:54:04.76	117.93	0.19	-48.6	-63.8	3.6	1.51e+00	0	29	104	1022361600	60	55870
2026-01-14 11:54:05.77	118.03	0.15	-48.6	-63.8	3.6	1.51e+00	0	29	104	1022361600	60	56086
2026-01-14 11:54:06.78	118.13	0.11	-48.6	-63.8	3.6	1.51e+00	0	29	104	1022361600	60	56211
2026-01-14 11:54:07.79	118.22	0.07	-48.6	-63.8	3.6	1.51e+00	0	29	104	1022361600	60	56115
2026-01-14 11:54:08.80	118.32	0.02	-48.6	-63.8	3.6	1.51e+00	0	29	104	1022361600	60	55940
2026-01-14 11:54:09.81	118.41	-0.02	-48.6	-63.9	3.6	1.51e+00	0	29	104	1022361600	60	56499
2026-01-14 11:54:10.81	118.51	-0.06	-48.6	-63.8	3.6	1.51e+00	0	29	104	1022361600	60	55756

#Closed at: 2026-01-14 11:54:11
#Recorded file [1022 MB]: D:/lorett/data/35029_260114_234241.dat