passes_logs/2026/01/14/R4.6S_Anadyr/R4.6S_Anadyr__20260114_194359_AQUA_rec.log

#Pass ID: 20260114_194359_AQUA
#Satellite: AQUA
#Configuration: AQUA
#almurnet v.1.7.20251203
#Start time: 2026-01-14 19:44:00

#Version: 2.2.20231116
#Station: R4.6S_Anadyr
#Location: 177.4865 lon 64.73178 lat
#TLE: 1 27424U 02022A   26013.85306262  .00000759  00000+0  16188-3 0  9996
#TLE: 2 27424  98.4079 340.2612 0002043  79.8220 301.8652 14.61819210260728

#Time	Az	El	Level	Level2	SNR	BER	BlckErr	Temp	State	Recorded	gain1	gain2
2026-01-14 19:44:00.64	32.44	0.03	-48.7	-60.3	3.5	8.45e-01	0	26	0	0	60	37508
2026-01-14 19:44:01.65	32.35	0.08	-49.1	-66.9	3.5	3.03e+01	0	27	104	0	60	85137
2026-01-14 19:44:02.66	32.27	0.14	-49.1	-67.0	3.5	3.03e+01	0	28	104	0	60	86030
2026-01-14 19:44:03.67	32.19	0.19	-49.1	-67.0	3.5	3.03e+01	0	28	104	0	60	86357
2026-01-14 19:44:04.68	32.10	0.24	-49.1	-67.0	3.5	3.03e+01	0	28	104	0	60	85777
2026-01-14 19:44:05.69	32.02	0.29	-49.1	-67.0	3.5	3.03e+01	0	28	104	0	60	86381
2026-01-14 19:44:06.70	31.93	0.34	-49.1	-67.0	3.5	3.03e+01	0	28	104	0	60	86465
2026-01-14 19:44:07.71	31.85	0.39	-49.1	-67.0	3.5	3.03e+01	0	28	104	0	60	85882
2026-01-14 19:44:08.72	31.76	0.44	-48.9	-67.0	3.5	3.03e+01	0	28	104	0	60	85761
2026-01-14 19:44:09.73	31.68	0.49	-48.9	-66.9	3.5	3.03e+01	0	28	104	0	60	85503
2026-01-14 19:44:10.74	31.59	0.54	-48.9	-66.8	3.5	3.03e+01	0	28	104	0	60	84644
2026-01-14 19:44:11.75	31.50	0.59	-48.6	-66.7	3.5	3.03e+01	0	28	104	0	60	83325
2026-01-14 19:44:12.76	31.42	0.64	-48.7	-66.6	3.5	3.03e+01	0	28	104	0	60	82223
2026-01-14 19:44:13.77	31.33	0.69	-48.5	-66.5	3.5	3.03e+01	0	28	104	0	60	81087
2026-01-14 19:44:14.78	31.24	0.75	-48.2	-66.3	3.5	3.03e+01	0	28	104	0	60	79623
2026-01-14 19:44:15.79	31.15	0.80	-48.1	-66.1	3.5	3.03e+01	0	28	104	0	60	77994
2026-01-14 19:44:16.80	31.06	0.85	-47.7	-65.7	3.5	3.03e+01	0	28	104	0	60	74112
2026-01-14 19:44:17.81	30.97	0.90	-47.4	-65.3	3.5	3.03e+01	0	28	104	0	60	70870
2026-01-14 19:44:18.82	30.89	0.95	-47.4	-65.2	3.5	3.03e+01	0	28	104	0	60	70269
2026-01-14 19:44:19.83	30.80	1.00	-47.4	-65.3	3.5	3.03e+01	0	28	104	0	60	70808
2026-01-14 19:44:20.84	30.71	1.05	-47.4	-65.3	3.5	3.03e+01	0	28	104	0	60	70724
2026-01-14 19:44:21.85	30.62	1.10	-47.3	-65.3	3.5	3.03e+01	0	28	104	0	60	70752
2026-01-14 19:44:22.86	30.53	1.16	-47.3	-65.3	3.5	3.03e+01	0	28	104	0	60	70820
2026-01-14 19:44:23.87	30.43	1.21	-47.3	-65.3	3.5	3.03e+01	0	28	104	0	60	70716
2026-01-14 19:44:24.88	30.34	1.26	-47.3	-65.2	3.5	3.03e+01	0	28	104	0	60	70393
2026-01-14 19:44:25.89	30.25	1.31	-47.3	-65.3	3.5	3.03e+01	0	28	104	0	60	70516
2026-01-14 19:44:26.90	30.16	1.36	-47.3	-65.2	3.5	3.03e+01	0	28	104	0	60	70309
2026-01-14 19:44:27.91	30.07	1.41	-47.3	-65.2	3.5	3.03e+01	0	28	104	0	60	70432
2026-01-14 19:44:28.92	29.97	1.46	-47.3	-65.2	3.5	3.03e+01	0	28	104	0	60	70058
2026-01-14 19:44:29.93	29.88	1.52	-47.3	-65.3	3.5	3.03e+01	0	28	104	0	60	70529
2026-01-14 19:44:30.94	29.79	1.57	-47.3	-65.2	3.5	3.03e+01	0	28	104	0	60	70300
2026-01-14 19:44:31.95	29.69	1.62	-47.3	-65.3	3.5	3.03e+01	0	28	104	0	60	70648
2026-01-14 19:44:32.96	29.60	1.67	-47.3	-65.2	3.5	3.03e+01	0	28	104	0	60	70369
2026-01-14 19:44:33.97	29.51	1.72	-47.3	-65.2	3.5	3.03e+01	0	28	104	0	60	70372
2026-01-14 19:44:34.97	29.41	1.77	-47.3	-65.2	3.5	3.03e+01	0	28	104	0	60	70276
2026-01-14 19:44:35.98	29.32	1.83	-47.3	-65.2	3.5	3.03e+01	0	28	104	0	60	70135
2026-01-14 19:44:36.99	29.22	1.88	-47.3	-65.2	3.5	3.03e+01	0	28	104	0	60	70392
2026-01-14 19:44:38.00	29.12	1.93	-47.3	-65.2	3.5	3.03e+01	0	28	104	0	60	70120
2026-01-14 19:44:39.01	29.03	1.98	-47.3	-65.2	3.5	3.03e+01	0	28	104	0	60	69903
2026-01-14 19:44:40.02	28.93	2.03	-47.3	-65.2	3.5	3.03e+01	0	28	104	0	60	69654
2026-01-14 19:44:41.03	28.83	2.09	-47.3	-65.1	3.5	3.03e+01	0	28	104	0	60	69482
2026-01-14 19:44:42.04	28.74	2.14	-47.3	-65.0	3.5	3.03e+01	0	28	104	0	60	68293
2026-01-14 19:44:43.05	28.64	2.19	-47.3	-64.9	3.5	3.03e+01	0	28	104	0	60	67567
2026-01-14 19:44:44.06	28.54	2.24	-47.3	-64.8	3.5	3.03e+01	0	28	104	0	60	66705
2026-01-14 19:44:45.06	28.44	2.29	-47.3	-64.9	3.5	3.03e+01	0	28	104	0	60	67566
2026-01-14 19:44:46.07	28.34	2.35	-47.3	-65.1	3.5	3.03e+01	0	28	104	0	60	69522
2026-01-14 19:44:47.08	28.24	2.40	-47.3	-65.2	3.5	3.03e+01	0	28	104	0	60	70331
2026-01-14 19:44:48.09	28.14	2.45	-47.3	-65.2	3.5	3.03e+01	0	28	104	0	60	69960
2026-01-14 19:44:49.10	28.04	2.50	-47.3	-65.1	3.5	3.03e+01	0	28	104	0	60	69010
2026-01-14 19:44:50.11	27.94	2.55	-47.3	-65.2	3.5	3.03e+01	0	28	104	0	60	69960
2026-01-14 19:44:51.12	27.84	2.61	-47.3	-65.1	3.5	3.03e+01	0	28	104	0	60	69294
2026-01-14 19:44:52.13	27.74	2.66	-47.2	-64.7	3.5	3.03e+01	0	28	104	0	60	65949
2026-01-14 19:44:53.14	27.64	2.71	-47.1	-64.2	3.5	3.03e+01	0	28	104	0	60	62250
2026-01-14 19:44:54.15	27.53	2.76	-47.2	-64.3	3.6	3.03e+01	0	28	104	0	60	63179
2026-01-14 19:44:55.16	27.43	2.82	-47.2	-64.8	3.5	3.03e+01	0	28	104	0	60	67139
2026-01-14 19:44:56.17	27.33	2.87	-47.0	-63.4	3.5	3.03e+01	0	28	104	0	60	57207
2026-01-14 19:44:57.18	27.22	2.92	-46.0	-60.2	3.5	3.03e+01	0	28	104	0	60	39162
2026-01-14 19:44:58.18	27.12	2.97	-44.7	-57.4	3.5	3.03e+01	0	28	104	0	60	28369
2026-01-14 19:44:59.19	27.02	3.03	-43.6	-55.6	3.5	3.03e+01	0	28	104	0	60	23074
2026-01-14 19:45:00.20	26.91	3.08	-46.8	-62.4	3.5	3.03e+01	0	28	104	0	60	50613
2026-01-14 19:45:01.21	26.81	3.13	-47.2	-64.7	3.5	3.03e+01	0	28	104	0	60	66187
2026-01-14 19:45:02.22	26.70	3.18	-45.0	-58.0	3.5	3.03e+01	0	28	104	0	60	30636
2026-01-14 19:45:03.23	26.59	3.24	-39.2	-49.8	3.6	3.03e+01	0	28	104	0	52	18900
2026-01-14 19:45:04.24	26.49	3.29	-47.2	-64.6	3.5	3.03e+01	0	28	104	0	60	65298
2026-01-14 19:45:05.25	26.38	3.34	-40.0	-50.8	3.5	3.03e+01	0	28	104	0	54	18763
2026-01-14 19:45:06.26	26.27	3.39	-39.4	-50.2	3.5	3.03e+01	0	28	104	0	54	17495
2026-01-14 19:45:07.27	26.16	3.45	-39.5	-50.3	3.6	3.03e+01	0	28	104	0	54	17734
2026-01-14 19:45:08.28	26.06	3.50	-39.5	-50.2	3.5	3.03e+01	0	28	104	0	54	17645
2026-01-14 19:45:09.29	25.95	3.55	-43.7	-55.6	3.5	3.03e+01	0	28	104	0	60	23121
2026-01-14 19:45:10.30	25.84	3.61	-44.5	-57.1	3.5	3.03e+01	0	28	104	0	60	27533
2026-01-14 19:45:11.31	25.73	3.66	-47.3	-64.6	3.5	3.03e+01	0	28	104	0	60	65163
2026-01-14 19:45:12.31	25.62	3.71	-40.6	-51.5	3.5	3.03e+01	0	28	104	0	56	18167
2026-01-14 19:45:13.32	25.51	3.76	-47.4	-65.0	3.5	3.03e+01	0	28	104	0	60	68628
2026-01-14 19:45:14.34	25.39	3.82	-39.3	-50.0	3.5	3.03e+01	0	28	104	0	54	17138
2026-01-14 19:45:15.34	25.28	3.87	-38.8	-49.4	3.5	3.03e+01	0	28	104	0	52	17898
2026-01-14 19:45:16.35	25.17	3.92	-38.7	-49.3	3.5	3.03e+01	0	28	104	0	52	17782
2026-01-14 19:45:17.36	25.06	3.98	-38.3	-48.8	3.5	3.03e+01	0	28	104	0	52	16883
2026-01-14 19:45:18.37	24.95	4.03	-45.5	-58.7	3.5	3.03e+01	0	29	104	0	60	33143
2026-01-14 19:45:19.38	24.83	4.08	-40.4	-51.2	3.5	3.03e+01	0	28	104	0	58	15612
2026-01-14 19:45:20.39	24.72	4.13	-47.4	-65.1	3.5	3.03e+01	0	28	104	0	60	69534
2026-01-14 19:45:21.40	24.61	4.19	-46.7	-62.0	3.5	3.03e+01	0	29	104	0	60	48573
2026-01-14 19:45:22.41	24.49	4.24	-40.5	-51.4	3.5	3.03e+01	0	28	104	0	56	17997
2026-01-14 19:45:23.43	24.37	4.29	-39.0	-49.6	3.6	3.03e+01	0	28	104	0	54	16504
2026-01-14 19:45:24.43	24.26	4.35	-39.3	-49.9	3.5	3.03e+01	0	28	104	0	52	19040
2026-01-14 19:45:25.44	24.14	4.40	-39.3	-50.0	3.5	3.03e+01	0	28	104	0	52	19379
2026-01-14 19:45:26.45	24.03	4.45	-39.7	-50.4	3.5	3.03e+01	0	28	104	0	52	20178
2026-01-14 19:45:27.46	23.91	4.51	-43.5	-55.2	3.5	3.03e+01	0	28	104	0	60	22255
2026-01-14 19:45:28.47	23.79	4.56	-43.8	-55.8	3.5	3.03e+01	0	28	104	0	60	23788
2026-01-14 19:45:29.48	23.67	4.61	-47.2	-64.0	3.5	3.03e+01	0	28	104	0	60	60689
2026-01-14 19:45:30.49	23.55	4.66	-42.0	-53.2	3.5	3.03e+01	0	28	104	0	60	17645
2026-01-14 19:45:31.49	23.44	4.72	-47.5	-65.1	3.5	3.03e+01	0	28	104	0	60	69123
2026-01-14 19:45:32.50	23.32	4.77	-43.3	-55.0	3.5	3.03e+01	0	28	104	0	60	21589
2026-01-14 19:45:33.51	23.20	4.82	-42.8	-54.3	3.5	3.03e+01	0	29	104	0	60	19997
2026-01-14 19:45:34.52	23.08	4.88	-42.9	-54.3	3.5	3.03e+01	0	29	104	0	60	19949
2026-01-14 19:45:35.53	22.96	4.93	-41.9	-53.0	3.5	3.03e+01	0	28	104	0	58	19388
2026-01-14 19:45:36.54	22.83	4.98	-47.0	-62.1	3.5	3.03e+01	0	28	104	0	60	49275
2026-01-14 19:45:37.55	22.71	5.04	-47.1	-62.9	3.5	3.03e+01	0	28	104	0	60	53695
2026-01-14 19:45:38.56	22.59	5.09	-41.5	-52.5	3.5	3.03e+01	0	29	104	0	60	16213
2026-01-14 19:45:39.57	22.47	5.14	-37.6	-48.0	3.5	3.03e+01	0	29	104	0	52	15327
2026-01-14 19:45:40.58	22.34	5.20	-47.5	-64.6	3.5	3.03e+01	0	29	104	0	60	65045
2026-01-14 19:45:41.59	22.22	5.25	-38.0	-48.4	3.5	3.03e+01	0	29	104	0	52	15979
2026-01-14 19:45:42.60	22.09	5.30	-38.2	-48.6	3.5	3.03e+01	0	29	104	0	50	18456
2026-01-14 19:45:43.60	21.97	5.35	-37.7	-48.1	3.5	3.03e+01	0	28	104	0	50	17323
2026-01-14 19:45:44.61	21.84	5.41	-39.2	-49.9	3.5	3.03e+01	0	29	104	0	50	21277
2026-01-14 19:45:45.62	21.72	5.46	-47.4	-64.3	3.5	3.03e+01	0	29	104	0	60	62860
2026-01-14 19:45:46.63	21.59	5.51	-41.2	-52.2	3.5	3.03e+01	0	29	104	0	60	15643
2026-01-14 19:45:47.64	21.46	5.57	-45.7	-58.8	3.5	3.03e+01	0	29	104	0	60	33601
2026-01-14 19:45:48.65	21.34	5.62	-38.2	-48.7	3.5	3.03e+01	0	29	104	0	52	16662
2026-01-14 19:45:49.66	21.21	5.67	-47.3	-63.4	3.5	3.03e+01	0	29	104	0	60	56838
2026-01-14 19:45:50.67	21.08	5.73	-38.5	-49.0	3.5	3.03e+01	0	29	104	0	52	17230
2026-01-14 19:45:51.68	20.95	5.78	-38.6	-49.2	3.5	3.03e+01	0	29	104	0	52	17516
2026-01-14 19:45:52.69	20.82	5.83	-38.0	-48.4	3.6	3.03e+01	0	29	104	0	52	16126
2026-01-14 19:45:53.70	20.69	5.89	-39.5	-50.1	3.5	3.03e+01	0	29	104	0	50	21817
2026-01-14 19:45:54.71	20.56	5.94	-46.7	-61.0	3.5	3.03e+01	0	29	104	0	60	43201
2026-01-14 19:45:55.72	20.43	5.99	-39.4	-50.0	3.5	3.03e+01	0	29	104	0	52	19265
2026-01-14 19:45:56.73	20.30	6.05	-47.8	-65.3	3.6	3.03e+01	0	28	104	0	60	70835
2026-01-14 19:45:57.74	20.16	6.10	-41.9	-52.9	3.6	3.03e+01	0	29	104	0	60	17069
2026-01-14 19:45:58.75	20.03	6.15	-41.6	-52.5	3.5	3.03e+01	0	29	104	0	58	18293
2026-01-14 19:45:59.76	19.90	6.20	-40.2	-50.8	3.5	3.03e+01	0	29	104	0	56	16896
2026-01-14 19:46:00.77	19.76	6.26	-40.0	-50.8	3.5	3.03e+01	0	29	104	0	54	18816
2026-01-14 19:46:01.78	19.63	6.31	-39.5	-50.1	3.6	3.03e+01	0	29	104	0	54	17463
2026-01-14 19:46:02.79	19.49	6.36	-38.7	-49.2	3.5	3.03e+01	0	29	104	0	52	17543
2026-01-14 19:46:03.80	19.36	6.42	-39.5	-50.1	3.6	3.03e+01	0	29	104	0	52	19602
2026-01-14 19:46:04.81	19.22	6.47	-40.9	-51.7	3.3	3.03e+01	0	29	104	0	54	21021
2026-01-14 19:46:05.82	19.08	6.52	-42.9	-54.4	3.6	3.03e+01	0	29	104	0	60	20084
2026-01-14 19:46:06.83	18.95	6.58	-40.3	-51.0	3.4	3.03e+01	0	29	104	0	52	21674
2026-01-14 19:46:07.84	18.81	6.63	-47.5	-63.4	3.5	3.03e+01	0	29	104	0	60	56977
2026-01-14 19:46:08.85	18.67	6.68	-39.7	-50.3	3.5	3.03e+01	0	29	104	0	54	17895
2026-01-14 19:46:09.86	18.53	6.73	-38.4	-48.9	3.5	3.03e+01	0	29	104	0	52	17038
2026-01-14 19:46:10.87	18.39	6.79	-37.9	-48.4	3.5	3.03e+01	0	29	104	0	50	17936
2026-01-14 19:46:11.88	18.25	6.84	-44.0	-55.7	3.5	3.03e+01	0	29	104	0	58	26425
2026-01-14 19:46:12.89	18.11	6.89	-43.2	-54.7	3.5	3.03e+01	0	29	104	0	60	20836
2026-01-14 19:46:13.90	17.97	6.94	-45.9	-59.1	3.5	3.03e+01	0	29	104	0	58	38805
2026-01-14 19:46:14.90	17.83	7.00	-47.0	-61.7	3.5	3.03e+01	0	29	104	0	60	47040
2026-01-14 19:46:15.91	17.69	7.05	-37.4	-47.7	3.5	3.03e+01	0	29	104	0	52	14848
2026-01-14 19:46:16.92	17.54	7.10	-37.7	-48.1	3.5	3.03e+01	0	29	104	0	50	17435
2026-01-14 19:46:17.94	17.40	7.15	-37.6	-48.0	3.5	3.03e+01	0	29	104	0	50	17125
2026-01-14 19:46:18.95	17.25	7.21	-37.4	-47.8	3.5	3.03e+01	0	29	104	0	50	16802
2026-01-14 19:46:19.96	17.11	7.26	-37.2	-47.6	3.5	3.03e+01	0	29	104	0	50	16443
2026-01-14 19:46:20.97	16.96	7.31	-37.1	-47.4	3.5	3.03e+01	0	29	104	0	48	18021
2026-01-14 19:46:21.97	16.82	7.36	-39.3	-49.9	3.5	3.03e+01	0	29	104	0	50	21415
2026-01-14 19:46:22.98	16.67	7.42	-44.5	-56.5	3.5	3.03e+01	0	29	104	0	56	32450
2026-01-14 19:46:23.99	16.53	7.47	-41.3	-52.1	3.5	3.03e+01	0	29	104	0	60	15560
2026-01-14 19:46:25.00	16.38	7.52	-47.1	-62.1	3.5	3.03e+01	0	29	104	0	60	49073
2026-01-14 19:46:26.01	16.23	7.57	-42.5	-53.6	3.5	3.03e+01	0	29	104	0	60	18384
2026-01-14 19:46:27.02	16.08	7.63	-40.0	-50.6	3.5	3.03e+01	0	29	104	0	56	16475
2026-01-14 19:46:28.03	15.93	7.68	-40.7	-51.5	3.5	3.03e+01	0	29	104	0	56	18167
2026-01-14 19:46:29.04	15.78	7.73	-40.5	-51.3	3.6	3.03e+01	0	29	104	0	56	17829
2026-01-14 19:46:30.05	15.63	7.78	-42.8	-54.2	3.5	3.03e+01	0	29	104	0	58	22051
2026-01-14 19:46:31.06	15.48	7.83	-40.1	-50.7	3.5	3.03e+01	0	29	104	0	52	20945
2026-01-14 19:46:32.07	15.33	7.88	-47.1	-62.1	3.5	3.03e+01	0	29	104	0	60	48900
2026-01-14 19:46:33.07	15.18	7.94	-40.9	-51.7	3.5	3.03e+01	0	29	104	0	56	18612
2026-01-14 19:46:34.08	15.02	7.99	-47.9	-65.7	3.5	3.03e+01	0	29	104	0	60	74284
2026-01-14 19:46:35.09	14.87	8.04	-41.7	-52.7	3.5	3.03e+01	0	29	104	0	60	16529
2026-01-14 19:46:36.10	14.71	8.09	-40.1	-50.7	3.5	3.03e+01	0	29	104	0	56	16660
2026-01-14 19:46:37.11	14.56	8.14	-39.0	-49.6	3.5	3.03e+01	0	29	104	0	54	16412
2026-01-14 19:46:38.12	14.40	8.19	-38.0	-48.4	3.5	3.03e+01	0	29	104	0	52	16114
2026-01-14 19:46:39.13	14.25	8.25	-45.8	-59.0	3.5	3.03e+01	0	29	104	0	60	34306
2026-01-14 19:46:40.14	14.09	8.30	-41.9	-52.9	3.5	3.03e+01	0	29	104	0	60	17004
2026-01-14 19:46:41.15	13.93	8.35	-48.0	-65.3	3.5	3.03e+01	0	29	104	0	60	70643
2026-01-14 19:46:42.16	13.78	8.40	-47.4	-64.0	3.5	3.03e+01	0	29	104	0	60	61036
2026-01-14 19:46:43.17	13.62	8.45	-37.4	-47.8	3.5	3.03e+01	0	29	104	0	48	18898
2026-01-14 19:46:44.18	13.46	8.50	-37.0	-47.3	3.5	3.03e+01	0	29	104	0	48	17831
2026-01-14 19:46:45.19	13.30	8.55	-36.7	-47.0	3.5	3.03e+01	0	29	104	0	48	17201
2026-01-14 19:46:46.20	13.14	8.60	-36.3	-46.6	3.5	3.03e+01	0	29	104	0	48	16451
2026-01-14 19:46:47.20	12.98	8.65	-36.4	-46.8	3.5	3.03e+01	0	29	104	0	48	16748
2026-01-14 19:46:48.21	12.82	8.70	-38.5	-49.0	3.5	3.03e+01	0	29	104	0	50	19317
2026-01-14 19:46:49.22	12.66	8.75	-41.2	-52.0	3.5	3.03e+01	0	29	104	0	56	19398
2026-01-14 19:46:50.24	12.49	8.80	-48.0	-65.4	3.5	3.03e+01	0	29	104	0	60	72033
2026-01-14 19:46:51.25	12.33	8.85	-43.6	-55.1	3.6	3.03e+01	0	29	104	0	60	21990
2026-01-14 19:46:52.25	12.16	8.90	-47.8	-64.4	3.5	3.03e+01	0	29	104	0	60	63908
2026-01-14 19:46:53.26	12.00	8.95	-42.5	-53.6	3.5	3.03e+01	0	29	104	0	60	18404
2026-01-14 19:46:54.27	11.83	9.00	-41.0	-51.8	3.5	3.03e+01	0	29	104	0	58	16780
2026-01-14 19:46:55.28	11.67	9.05	-40.3	-51.0	3.5	3.03e+01	0	29	104	0	56	17138
2026-01-14 19:46:56.29	11.50	9.10	-40.6	-51.3	3.5	3.03e+01	0	29	104	0	56	17858
2026-01-14 19:46:57.30	11.33	9.15	-47.6	-63.9	3.5	3.03e+01	0	29	104	0	60	60265
2026-01-14 19:46:58.31	11.17	9.20	-40.3	-51.0	3.5	3.03e+01	0	29	104	0	56	17213
2026-01-14 19:46:59.32	11.00	9.25	-48.0	-64.9	3.5	3.03e+01	0	29	104	0	60	67408
2026-01-14 19:47:00.33	10.83	9.30	-48.1	-65.4	3.5	3.03e+01	0	29	104	0	60	72068
2026-01-14 19:47:01.34	10.66	9.35	-40.8	-51.5	3.5	3.03e+01	0	29	104	0	54	20466
2026-01-14 19:47:02.35	10.49	9.40	-39.5	-50.1	3.5	3.03e+01	0	29	104	0	54	17365
2026-01-14 19:47:03.36	10.32	9.45	-39.2	-49.7	3.5	3.03e+01	0	29	104	0	52	18736
2026-01-14 19:47:04.37	10.15	9.50	-38.8	-49.4	3.5	3.03e+01	0	29	104	0	52	17925
2026-01-14 19:47:05.38	9.97	9.55	-37.8	-48.2	3.5	3.03e+01	0	29	104	0	52	15718
2026-01-14 19:47:06.39	9.80	9.60	-36.7	-47.0	3.5	3.03e+01	0	29	104	0	48	17202
2026-01-14 19:47:07.40	9.63	9.64	-41.3	-52.3	3.5	3.03e+01	0	29	104	0	56	19877
2026-01-14 19:47:08.41	9.45	9.69	-47.9	-64.3	3.5	3.03e+01	0	29	104	0	60	63094
2026-01-14 19:47:09.41	9.28	9.74	-39.3	-49.9	3.5	3.03e+01	0	29	104	0	54	16938
2026-01-14 19:47:10.42	9.10	9.79	-47.4	-64.7	3.5	3.03e+01	0	29	104	0	60	65818
2026-01-14 19:47:11.43	8.93	9.84	-37.3	-47.7	3.5	3.03e+01	0	29	104	0	50	16619
2026-01-14 19:47:12.44	8.75	9.88	-37.2	-47.5	3.5	3.03e+01	0	29	104	0	50	16277
2026-01-14 19:47:13.45	8.57	9.93	-36.7	-47.0	3.5	3.03e+01	0	29	104	0	48	17251
2026-01-14 19:47:14.46	8.40	9.98	-36.6	-47.0	3.5	3.03e+01	0	29	104	0	48	17138
2026-01-14 19:47:15.47	8.22	10.03	-46.9	-61.1	3.5	3.03e+01	0	29	104	0	60	43872
2026-01-14 19:47:16.48	8.04	10.07	-39.6	-50.2	3.5	3.03e+01	0	29	104	0	56	15643
2026-01-14 19:47:17.49	7.86	10.12	-47.8	-64.3	3.5	3.03e+01	0	29	104	0	60	62888
2026-01-14 19:47:18.50	7.68	10.17	-47.5	-62.4	3.5	3.03e+01	0	29	104	0	60	50981
2026-01-14 19:47:19.50	7.50	10.21	-41.4	-52.3	3.5	3.03e+01	0	29	104	0	56	20011
2026-01-14 19:47:20.51	7.32	10.26	-39.9	-50.5	3.5	3.03e+01	0	29	104	0	54	18182
2026-01-14 19:47:21.53	7.13	10.31	-39.5	-50.0	3.5	3.03e+01	0	29	104	0	54	17243
2026-01-14 19:47:22.53	6.95	10.35	-40.2	-50.9	3.5	3.03e+01	0	29	104	0	54	18979
2026-01-14 19:47:23.54	6.77	10.40	-39.8	-50.4	3.5	3.03e+01	0	29	104	0	54	18000
2026-01-14 19:47:24.55	6.58	10.45	-39.3	-49.8	3.5	3.03e+01	0	29	104	0	54	16788
2026-01-14 19:47:25.56	6.40	10.49	-40.2	-50.9	3.6	3.03e+01	0	29	104	0	58	15103
2026-01-14 19:47:26.57	6.21	10.54	-46.4	-59.7	3.5	3.03e+01	0	29	104	0	60	37076
2026-01-14 19:47:27.58	6.03	10.58	-36.9	-47.2	3.5	3.03e+01	0	29	104	0	50	15636
2026-01-14 19:47:28.59	5.84	10.63	-47.9	-64.3	3.5	3.03e+01	0	29	104	0	60	63015
2026-01-14 19:47:29.60	5.65	10.67	-39.2	-49.8	3.5	3.03e+01	0	29	104	0	54	16786
2026-01-14 19:47:30.61	5.46	10.72	-37.7	-48.1	3.5	3.03e+01	0	29	104	0	50	17391
2026-01-14 19:47:31.62	5.27	10.76	-36.8	-47.2	3.5	3.03e+01	0	29	104	0	48	17502
2026-01-14 19:47:32.63	5.09	10.81	-38.1	-48.4	3.5	3.03e+01	0	29	104	0	48	20293
2026-01-14 19:47:33.64	4.90	10.85	-46.0	-59.2	3.5	3.03e+01	0	29	104	0	60	35268
2026-01-14 19:47:34.65	4.70	10.89	-36.9	-47.2	3.5	3.03e+01	0	29	104	0	50	15629
2026-01-14 19:47:35.66	4.51	10.94	-48.2	-65.1	3.5	3.03e+01	0	29	104	0	60	69319
2026-01-14 19:47:36.67	4.32	10.98	-39.4	-50.0	3.4	3.03e+01	0	29	104	0	60	12138
2026-01-14 19:47:37.68	4.13	11.02	-38.0	-48.4	3.5	3.03e+01	0	29	104	0	52	16083
2026-01-14 19:47:38.69	3.94	11.07	-36.8	-47.1	3.5	3.03e+01	0	29	104	0	48	17328
2026-01-14 19:47:39.70	3.74	11.11	-36.4	-46.7	3.5	3.03e+01	0	29	104	0	48	16600
2026-01-14 19:47:40.71	3.55	11.15	-36.1	-46.4	3.5	3.03e+01	0	29	104	0	48	16018
2026-01-14 19:47:41.72	3.35	11.20	-35.9	-46.2	3.5	3.03e+01	0	29	104	0	46	17518
2026-01-14 19:47:42.73	3.16	11.24	-37.4	-47.8	3.5	3.03e+01	0	29	104	0	48	18801
2026-01-14 19:47:43.74	2.96	11.28	-37.8	-48.1	3.5	3.03e+01	0	29	104	0	48	19591
2026-01-14 19:47:44.74	2.77	11.32	-48.1	-65.1	3.5	3.03e+01	0	29	104	0	60	69547
2026-01-14 19:47:45.75	2.57	11.36	-41.3	-52.0	3.6	3.03e+01	0	29	104	0	60	15343
2026-01-14 19:47:46.76	2.37	11.40	-41.2	-52.0	3.5	3.03e+01	0	29	104	0	58	17115
2026-01-14 19:47:47.77	2.17	11.45	-39.6	-50.2	3.6	3.03e+01	0	29	104	0	56	15608
2026-01-14 19:47:48.78	1.97	11.49	-37.9	-48.3	3.5	3.03e+01	0	29	104	0	52	15892
2026-01-14 19:47:49.79	1.77	11.53	-37.0	-47.3	3.5	3.03e+01	0	29	104	0	50	15896
2026-01-14 19:47:50.80	1.57	11.57	-36.4	-46.7	3.5	3.03e+01	0	29	104	0	48	16663
2026-01-14 19:47:51.81	1.37	11.61	-37.4	-47.8	3.5	3.03e+01	0	29	104	0	48	18811
2026-01-14 19:47:52.82	1.17	11.65	-41.8	-52.7	3.4	3.03e+01	0	29	104	0	54	23423
2026-01-14 19:47:53.83	0.97	11.69	-41.5	-52.4	3.6	3.03e+01	0	29	104	0	60	16014
2026-01-14 19:47:54.84	0.76	11.73	-41.0	-51.8	3.4	3.03e+01	0	29	104	0	52	23670
2026-01-14 19:47:55.85	0.56	11.77	-47.5	-62.0	3.6	3.03e+01	0	29	104	0	60	48646
2026-01-14 19:47:56.86	0.36	11.80	-38.2	-48.6	3.5	3.03e+01	0	29	104	0	52	16511
2026-01-14 19:47:57.87	0.15	11.84	-37.4	-47.8	3.5	3.03e+01	0	29	104	0	50	16742
2026-01-14 19:47:58.88	359.95	11.88	-37.7	-48.0	3.5	3.03e+01	0	29	104	0	50	17228
2026-01-14 19:47:59.89	359.74	11.92	-46.0	-59.0	3.5	3.03e+01	0	29	104	0	60	34178
2026-01-14 19:48:00.90	359.53	11.96	-39.3	-49.9	3.6	3.03e+01	0	29	104	0	56	15088
2026-01-14 19:48:01.91	359.33	11.99	-46.2	-59.1	3.5	3.03e+01	0	29	104	0	56	43836
2026-01-14 19:48:02.91	359.12	12.03	-46.4	-59.5	3.6	3.03e+01	0	29	104	0	60	36537
2026-01-14 19:48:03.92	358.91	12.07	-36.3	-46.6	3.5	3.03e+01	0	29	104	0	48	16379
2026-01-14 19:48:04.93	358.70	12.10	-37.0	-47.3	3.5	3.03e+01	0	29	104	0	50	15916
2026-01-14 19:48:05.94	358.49	12.14	-36.6	-46.9	3.5	3.03e+01	0	29	104	0	48	17091
2026-01-14 19:48:06.95	358.28	12.18	-36.5	-46.8	3.5	3.03e+01	0	29	104	0	48	16717
2026-01-14 19:48:07.96	358.07	12.21	-36.1	-46.4	3.5	3.03e+01	0	29	104	0	48	16036
2026-01-14 19:48:08.97	357.86	12.25	-38.4	-48.8	3.5	3.03e+01	0	29	104	0	48	21153
2026-01-14 19:48:09.98	357.65	12.28	-38.2	-48.6	3.5	3.03e+01	0	29	104	0	52	16415
2026-01-14 19:48:10.99	357.44	12.32	-47.4	-61.7	3.5	3.03e+01	0	29	104	0	58	52818
2026-01-14 19:48:11.99	357.23	12.35	-47.8	-63.1	3.5	3.03e+01	0	29	104	0	60	54983
2026-01-14 19:48:13.00	357.02	12.39	-39.3	-49.8	3.5	3.03e+01	0	29	104	0	54	16774
2026-01-14 19:48:14.01	356.80	12.42	-40.0	-50.5	3.5	3.03e+01	0	29	104	0	56	16283
2026-01-14 19:48:15.02	356.59	12.45	-38.9	-49.3	3.5	3.03e+01	0	29	104	0	52	17866
2026-01-14 19:48:16.03	356.37	12.49	-37.3	-47.6	3.5	3.03e+01	0	29	104	0	50	16414
2026-01-14 19:48:17.04	356.16	12.52	-36.7	-47.0	3.5	3.03e+01	0	29	104	0	48	17161
2026-01-14 19:48:18.05	355.94	12.55	-36.0	-46.3	3.5	3.03e+01	0	29	104	0	48	15791
2026-01-14 19:48:19.06	355.73	12.58	-41.8	-52.7	3.5	3.03e+01	0	29	104	0	54	23361
2026-01-14 19:48:20.07	355.51	12.62	-45.0	-57.2	3.5	3.03e+01	0	29	104	0	60	27762
2026-01-14 19:48:21.08	355.29	12.65	-40.0	-50.7	3.5	3.03e+01	0	29	104	0	56	16529
2026-01-14 19:48:22.09	355.07	12.68	-48.4	-65.9	3.5	3.03e+01	0	29	104	0	60	75894
2026-01-14 19:48:23.10	354.85	12.71	-38.9	-49.4	3.5	3.03e+01	0	29	104	0	54	16126
2026-01-14 19:48:24.11	354.64	12.74	-37.2	-47.6	3.5	3.03e+01	0	29	104	0	50	16332
2026-01-14 19:48:25.11	354.42	12.77	-37.1	-47.5	3.5	3.03e+01	0	29	104	0	50	16235
2026-01-14 19:48:26.12	354.20	12.80	-37.3	-47.7	3.4	3.03e+01	0	29	104	0	50	16541
2026-01-14 19:48:27.13	353.98	12.83	-46.6	-60.0	3.5	3.03e+01	0	29	104	0	60	38282
2026-01-14 19:48:28.14	353.76	12.86	-40.0	-50.5	5.2	3.03e+01	0	29	104	0	56	16297
2026-01-14 19:48:29.15	353.54	12.89	-48.4	-62.1	5.5	3.03e+01	0	29	104	0	60	48818
2026-01-14 19:48:30.16	353.31	12.92	-44.3	-47.6	17.8	3.03e+01	59	29	104	0	60	9284
2026-01-14 19:48:31.17	353.09	12.94	-39.9	-41.6	24.1	3.03e+01	62	29	0	1048576	52	7294
2026-01-14 19:48:32.18	352.87	12.97	-36.0	-37.2	28.3	3.03e+01	61	29	0	3145728	48	5574
2026-01-14 19:48:33.19	352.65	13.00	-35.7	-36.9	28.6	3.03e+01	56	29	0	4718592	46	6046
2026-01-14 19:48:34.19	352.43	13.03	-35.5	-36.7	28.7	3.03e+01	59	29	0	6815744	46	5904
2026-01-14 19:48:35.20	352.20	13.05	-35.6	-36.8	28.6	3.03e+01	58	29	0	8388608	46	5964
2026-01-14 19:48:36.21	351.98	13.08	-35.6	-36.8	28.7	3.03e+01	52	29	0	10485760	46	5963
2026-01-14 19:48:37.22	351.75	13.10	-35.8	-37.0	28.5	3.03e+01	59	29	0	12582912	46	6116
2026-01-14 19:48:38.23	351.53	13.13	-35.6	-36.9	28.6	3.03e+01	60	29	0	14155776	46	6021
2026-01-14 19:48:39.24	351.30	13.15	-35.8	-37.1	28.4	3.03e+01	58	29	0	16252928	46	6144
2026-01-14 19:48:40.24	351.08	13.18	-35.5	-36.8	28.6	3.03e+01	61	29	0	17825792	46	5943
2026-01-14 19:48:41.25	350.85	13.20	-35.6	-36.9	28.6	3.03e+01	59	29	0	19922944	46	6031
2026-01-14 19:48:42.26	350.62	13.23	-35.4	-36.7	28.7	3.03e+01	56	29	0	22020096	46	5878
2026-01-14 19:48:43.27	350.40	13.25	-35.4	-36.7	28.7	3.03e+01	60	29	0	23592960	46	5862
2026-01-14 19:48:44.28	350.17	13.27	-35.5	-36.7	28.7	3.03e+01	53	29	0	25690112	46	5922
2026-01-14 19:48:45.29	349.94	13.30	-35.6	-36.8	28.6	3.03e+01	58	29	0	27787264	46	5974
2026-01-14 19:48:46.30	349.71	13.32	-35.6	-36.9	28.5	3.03e+01	66	29	0	29360128	46	6008
2026-01-14 19:48:47.31	349.48	13.34	-35.7	-36.9	28.5	3.03e+01	59	29	0	31457280	46	6044
2026-01-14 19:48:48.32	349.25	13.36	-35.6	-36.9	28.5	3.03e+01	60	29	0	33030144	46	6015
2026-01-14 19:48:49.33	349.02	13.38	-35.5	-36.8	28.6	3.03e+01	55	29	0	35127296	46	5950
2026-01-14 19:48:50.34	348.79	13.40	-35.4	-36.7	28.7	3.03e+01	58	29	0	37224448	46	5884
2026-01-14 19:48:51.35	348.56	13.42	-35.6	-36.8	28.6	3.03e+01	57	29	0	38797312	46	5985
2026-01-14 19:48:52.36	348.33	13.44	-35.7	-37.0	28.4	3.03e+01	60	29	0	40894464	46	6069
2026-01-14 19:48:53.37	348.10	13.46	-35.7	-37.0	28.5	3.03e+01	62	29	0	42991616	46	6082
2026-01-14 19:48:54.38	347.87	13.48	-35.6	-36.9	28.5	3.03e+01	59	29	0	44564480	46	6013
2026-01-14 19:48:55.39	347.64	13.50	-35.7	-36.9	28.5	3.03e+01	59	29	0	46661632	46	6047
2026-01-14 19:48:56.39	347.41	13.52	-35.7	-37.0	28.5	3.03e+01	62	29	0	48234496	46	6082
2026-01-14 19:48:57.40	347.18	13.54	-35.9	-37.2	28.3	3.03e+01	56	29	0	50331648	46	6248
2026-01-14 19:48:58.41	346.95	13.55	-35.7	-36.9	28.5	3.03e+01	60	29	0	52428800	46	6056
2026-01-14 19:48:59.42	346.71	13.57	-35.8	-37.0	28.5	3.03e+01	56	29	0	54001664	46	6120
2026-01-14 19:49:00.43	346.48	13.59	-35.7	-37.0	28.5	3.03e+01	58	29	0	56098816	46	6092
2026-01-14 19:49:01.44	346.25	13.60	-35.7	-37.0	28.5	3.03e+01	60	29	0	57671680	46	6098
2026-01-14 19:49:02.45	346.01	13.62	-35.6	-36.8	28.6	3.03e+01	50	29	0	59768832	46	5952
2026-01-14 19:49:03.46	345.78	13.63	-35.8	-37.0	28.4	3.03e+01	57	29	0	61865984	46	6112
2026-01-14 19:49:04.47	345.54	13.65	-35.8	-37.0	28.4	3.03e+01	52	29	0	63438848	46	6108
2026-01-14 19:49:05.47	345.31	13.66	-35.8	-37.1	28.4	3.03e+01	47	29	0	65536000	46	6137
2026-01-14 19:49:06.48	345.08	13.68	-36.0	-37.3	28.2	3.03e+01	59	29	0	67108864	46	6305
2026-01-14 19:49:07.49	344.84	13.69	-36.0	-37.2	28.3	3.03e+01	60	29	0	69206016	46	6267
2026-01-14 19:49:08.50	344.61	13.70	-35.6	-36.8	28.6	3.03e+01	59	29	0	71303168	46	5970
2026-01-14 19:49:09.51	344.37	13.71	-35.7	-37.0	28.5	3.03e+01	59	29	0	72876032	46	6105
2026-01-14 19:49:10.52	344.14	13.73	-35.8	-37.0	28.4	3.03e+01	47	29	0	74973184	46	6120
2026-01-14 19:49:11.53	343.90	13.74	-35.8	-37.1	28.3	3.03e+01	57	29	0	76546048	46	6167
2026-01-14 19:49:12.54	343.67	13.75	-35.9	-37.2	28.4	3.03e+01	59	29	0	78643200	46	6212
2026-01-14 19:49:13.55	343.43	13.76	-35.6	-36.9	28.6	3.03e+01	46	29	0	80740352	46	6006
2026-01-14 19:49:14.55	343.20	13.77	-35.7	-37.0	28.5	3.03e+01	60	29	0	82313216	46	6088
2026-01-14 19:49:15.57	342.96	13.78	-35.8	-37.0	28.4	3.03e+01	59	29	0	84410368	46	6112
2026-01-14 19:49:16.58	342.72	13.79	-35.8	-37.0	28.5	3.03e+01	61	29	0	85983232	46	6128
2026-01-14 19:49:17.58	342.49	13.80	-35.7	-37.0	28.5	3.03e+01	59	29	0	88080384	46	6100
2026-01-14 19:49:18.60	342.25	13.81	-35.8	-37.0	28.4	3.03e+01	53	29	0	90177536	46	6111
2026-01-14 19:49:19.61	342.01	13.81	-35.8	-37.0	28.5	3.03e+01	59	29	0	91750400	46	6105
2026-01-14 19:49:20.62	341.77	13.82	-35.7	-36.9	28.6	3.03e+01	58	29	0	93847552	46	6041
2026-01-14 19:49:21.62	341.54	13.83	-35.7	-37.0	28.5	3.03e+01	46	29	0	95944704	46	6077
2026-01-14 19:49:22.64	341.30	13.83	-35.9	-37.2	28.4	3.03e+01	61	29	0	97517568	46	6215
2026-01-14 19:49:23.65	341.06	13.84	-35.9	-37.2	28.3	3.03e+01	60	29	0	99614720	46	6221
2026-01-14 19:49:24.66	340.82	13.85	-35.7	-37.0	28.5	3.03e+01	58	29	0	101187584	46	6093
2026-01-14 19:49:25.67	340.58	13.85	-35.8	-37.1	28.5	3.03e+01	60	29	0	103284736	46	6143
2026-01-14 19:49:26.67	340.35	13.86	-35.6	-36.9	28.7	3.03e+01	47	29	0	105381888	46	6006
2026-01-14 19:49:27.68	340.11	13.86	-35.6	-36.9	28.6	3.03e+01	60	29	0	106954752	46	6005
2026-01-14 19:49:28.69	339.87	13.86	-35.7	-36.9	28.6	3.03e+01	61	29	0	109051904	46	6048
2026-01-14 19:49:29.70	339.63	13.87	-35.8	-37.1	28.5	3.03e+01	45	29	0	110624768	46	6177
2026-01-14 19:49:30.71	339.40	13.87	-35.9	-37.1	28.4	3.03e+01	58	29	0	112721920	46	6190
2026-01-14 19:49:31.72	339.16	13.87	-35.9	-37.2	28.4	3.03e+01	50	29	0	114819072	46	6208
2026-01-14 19:49:32.73	338.92	13.87	-35.9	-37.2	28.3	3.03e+01	59	29	0	116391936	46	6235
2026-01-14 19:49:33.74	338.68	13.88	-36.1	-37.3	28.3	3.03e+01	60	29	0	118489088	46	6347
2026-01-14 19:49:34.75	338.44	13.88	-36.0	-37.3	28.2	3.03e+01	50	29	0	120061952	46	6289
2026-01-14 19:49:35.76	338.21	13.88	-36.2	-37.5	28.3	3.03e+01	62	29	0	122159104	46	6443
2026-01-14 19:49:36.77	337.97	13.88	-35.9	-37.1	28.4	3.03e+01	59	29	0	124256256	46	6204
2026-01-14 19:49:37.78	337.73	13.88	-36.1	-37.3	28.3	3.03e+01	59	29	0	125829120	46	6347
2026-01-14 19:49:38.79	337.49	13.88	-36.1	-37.3	28.2	3.03e+01	63	29	0	127926272	46	6333
2026-01-14 19:49:39.80	337.25	13.88	-36.2	-37.5	28.2	3.03e+01	48	29	0	129499136	46	6441
2026-01-14 19:49:40.80	337.02	13.87	-36.2	-37.5	28.2	3.03e+01	59	29	0	131596288	46	6491
2026-01-14 19:49:41.81	336.78	13.87	-36.2	-37.4	28.1	3.03e+01	59	29	0	133693440	46	6411
2026-01-14 19:49:42.82	336.54	13.87	-36.1	-37.4	28.2	3.03e+01	38	29	0	135266304	46	6360
2026-01-14 19:49:43.83	336.30	13.87	-36.1	-37.4	28.4	3.03e+01	59	29	0	137363456	46	6379
2026-01-14 19:49:44.83	336.07	13.86	-35.9	-37.2	28.2	3.03e+01	58	29	0	138936320	46	6225
2026-01-14 19:49:45.84	335.83	13.86	-36.2	-37.5	28.1	3.03e+01	56	29	0	141033472	46	6429
2026-01-14 19:49:46.85	335.59	13.85	-36.0	-37.3	28.3	3.03e+01	60	29	0	143130624	46	6299
2026-01-14 19:49:47.86	335.35	13.85	-36.1	-37.4	28.3	3.03e+01	59	29	0	144703488	46	6374
2026-01-14 19:49:48.87	335.11	13.84	-36.1	-37.4	28.1	3.03e+01	56	29	0	146800640	46	6390
2026-01-14 19:49:49.88	334.88	13.84	-36.0	-37.3	28.3	3.03e+01	59	29	0	148897792	46	6323
2026-01-14 19:49:50.89	334.64	13.83	-36.1	-37.4	28.1	3.03e+01	44	29	0	150470656	46	6417
2026-01-14 19:49:51.90	334.40	13.82	-36.2	-37.5	28.2	3.03e+01	57	29	0	152567808	46	6431
2026-01-14 19:49:52.91	334.16	13.82	-36.1	-37.4	28.0	3.03e+01	58	29	0	154140672	46	6387
2026-01-14 19:49:53.92	333.93	13.81	-35.6	-36.9	28.6	3.03e+01	60	29	0	156237824	46	6019
2026-01-14 19:49:54.93	333.69	13.80	-35.8	-37.1	28.6	3.03e+01	58	29	0	158334976	46	6167
2026-01-14 19:49:55.94	333.45	13.79	-35.6	-36.9	28.6	3.03e+01	59	29	0	159907840	46	6004
2026-01-14 19:49:56.94	333.22	13.78	-35.8	-37.0	28.5	3.03e+01	58	29	0	162004992	46	6124
2026-01-14 19:49:57.95	332.98	13.77	-35.8	-37.1	28.4	3.03e+01	57	29	0	164102144	46	6175
2026-01-14 19:49:58.96	332.75	13.76	-35.8	-37.1	28.4	3.03e+01	45	29	0	165675008	46	6142
2026-01-14 19:49:59.97	332.51	13.75	-36.0	-37.3	28.3	3.03e+01	58	29	0	167772160	46	6285
2026-01-14 19:50:00.98	332.27	13.74	-35.5	-36.8	28.7	3.03e+01	56	29	0	169345024	46	5935
2026-01-14 19:50:01.99	332.04	13.73	-35.8	-37.0	28.5	3.03e+01	58	29	0	171442176	46	6108
2026-01-14 19:50:03.00	331.80	13.72	-35.8	-37.0	28.5	3.03e+01	57	29	0	173015040	46	6121
2026-01-14 19:50:04.01	331.57	13.70	-35.9	-37.2	28.3	3.03e+01	54	29	0	175112192	46	6216
2026-01-14 19:50:05.02	331.33	13.69	-35.9	-37.2	28.3	3.03e+01	54	29	0	177209344	46	6253
2026-01-14 19:50:06.03	331.10	13.68	-36.0	-37.3	28.3	3.03e+01	58	29	0	178782208	46	6289
2026-01-14 19:50:07.04	330.86	13.66	-36.2	-37.5	28.1	3.03e+01	45	29	0	180879360	46	6452
2026-01-14 19:50:08.04	330.63	13.65	-36.0	-37.3	28.3	3.03e+01	60	29	0	182452224	46	6281
2026-01-14 19:50:09.05	330.39	13.64	-36.5	-37.8	27.8	3.03e+01	60	29	0	184549376	46	6674
2026-01-14 19:50:10.06	330.16	13.62	-36.5	-37.8	27.8	3.03e+01	57	29	0	186646528	46	6675
2026-01-14 19:50:11.07	329.93	13.61	-36.8	-38.2	27.5	3.03e+01	59	29	0	188219392	48	6208
2026-01-14 19:50:12.08	329.69	13.59	-36.7	-38.0	27.8	3.03e+01	53	29	0	190316544	48	6083
2026-01-14 19:50:13.09	329.46	13.57	-36.6	-37.9	27.7	3.03e+01	60	29	0	192413696	48	6004
2026-01-14 19:50:14.10	329.23	13.56	-36.8	-38.1	27.7	3.03e+01	63	29	0	193986560	48	6205
2026-01-14 19:50:15.11	328.99	13.54	-36.2	-37.5	27.8	3.03e+01	58	29	0	196083712	48	5753
2026-01-14 19:50:16.12	328.76	13.52	-36.9	-38.2	27.5	3.03e+01	60	29	0	197656576	48	6259
2026-01-14 19:50:17.13	328.53	13.50	-36.2	-37.5	27.9	3.03e+01	46	29	0	199753728	48	5746
2026-01-14 19:50:18.14	328.30	13.49	-36.4	-37.7	27.9	3.03e+01	63	29	0	201850880	48	5912
2026-01-14 19:50:19.15	328.07	13.47	-36.3	-37.6	27.9	3.03e+01	60	29	0	203423744	48	5839
2026-01-14 19:50:20.15	327.84	13.45	-36.2	-37.4	28.1	3.03e+01	46	29	0	205520896	48	5706
2026-01-14 19:50:21.16	327.61	13.43	-36.9	-38.3	27.3	3.03e+01	62	29	0	207093760	48	6307
2026-01-14 19:50:22.17	327.38	13.41	-35.9	-37.2	28.4	3.03e+01	60	29	0	209190912	46	6225
2026-01-14 19:50:23.18	327.15	13.39	-36.5	-37.8	27.8	3.03e+01	63	29	0	211288064	46	6704
2026-01-14 19:50:24.18	326.92	13.37	-36.7	-38.0	27.7	3.03e+01	52	29	0	212860928	46	6829
2026-01-14 19:50:25.20	326.69	13.34	-36.7	-38.0	27.6	3.03e+01	57	29	0	214958080	48	6077
2026-01-14 19:50:26.20	326.46	13.32	-36.9	-38.3	27.3	3.03e+01	61	29	0	217055232	48	6304
2026-01-14 19:50:27.21	326.23	13.30	-36.2	-37.5	28.1	3.03e+01	61	29	0	218628096	48	5766
2026-01-14 19:50:28.22	326.00	13.28	-36.1	-37.4	28.1	3.03e+01	47	29	0	220725248	48	5668
2026-01-14 19:50:29.23	325.78	13.25	-35.7	-37.0	28.5	3.03e+01	58	29	0	222298112	46	6099
2026-01-14 19:50:30.24	325.55	13.23	-35.8	-37.0	28.5	3.03e+01	61	29	0	224395264	46	6104
2026-01-14 19:50:31.25	325.32	13.21	-36.5	-37.8	27.8	3.03e+01	60	29	0	225968128	46	6663
2026-01-14 19:50:32.26	325.09	13.18	-36.1	-37.3	28.2	3.03e+01	63	29	0	228065280	46	6335
2026-01-14 19:50:33.27	324.87	13.16	-36.4	-37.7	27.9	3.03e+01	55	29	0	230162432	46	6586
2026-01-14 19:50:34.28	324.64	13.13	-35.9	-37.2	28.4	3.03e+01	57	29	0	231735296	46	6214
2026-01-14 19:50:35.29	324.42	13.11	-36.0	-37.2	28.3	3.03e+01	61	29	0	233832448	46	6270
2026-01-14 19:50:36.30	324.19	13.08	-35.7	-36.9	28.6	3.03e+01	51	29	0	235405312	46	6043
2026-01-14 19:50:37.31	323.97	13.06	-36.2	-37.5	28.1	3.03e+01	60	29	0	237502464	46	6455
2026-01-14 19:50:38.32	323.74	13.03	-35.4	-36.6	28.8	3.03e+01	59	29	0	239599616	46	5849
2026-01-14 19:50:39.33	323.52	13.00	-36.1	-37.4	28.2	3.03e+01	58	29	0	241172480	46	6360
2026-01-14 19:50:40.34	323.29	12.98	-36.0	-37.2	28.2	3.03e+01	61	29	0	243269632	46	6252
2026-01-14 19:50:41.35	323.07	12.95	-36.0	-37.2	28.4	3.03e+01	48	29	0	245366784	46	6257
2026-01-14 19:50:42.36	322.85	12.92	-36.1	-37.4	28.3	3.03e+01	60	29	0	246939648	46	6355
2026-01-14 19:50:43.37	322.63	12.89	-36.1	-37.4	28.2	3.03e+01	56	29	0	249036800	46	6360
2026-01-14 19:50:44.38	322.40	12.86	-35.8	-37.0	28.4	3.03e+01	44	29	0	250609664	46	6118
2026-01-14 19:50:45.39	322.18	12.83	-35.7	-37.0	28.5	3.03e+01	62	29	0	252706816	46	6072
2026-01-14 19:50:46.40	321.96	12.80	-36.3	-37.6	27.9	3.03e+01	52	29	0	254803968	46	6571
2026-01-14 19:50:47.41	321.74	12.78	-35.5	-36.7	28.7	3.03e+01	59	29	0	256376832	46	5884
2026-01-14 19:50:48.42	321.52	12.74	-36.3	-37.6	28.1	3.03e+01	59	29	0	258473984	46	6543
2026-01-14 19:50:49.43	321.30	12.71	-35.9	-37.1	28.4	3.03e+01	48	29	0	260571136	46	6199
2026-01-14 19:50:50.44	321.09	12.68	-36.3	-37.6	28.0	3.03e+01	59	29	0	262144000	46	6556
2026-01-14 19:50:51.45	320.87	12.65	-36.1	-37.4	28.2	3.03e+01	57	29	0	264241152	46	6371
2026-01-14 19:50:52.46	320.65	12.62	-36.1	-37.4	28.2	3.03e+01	58	29	0	265814016	46	6408
2026-01-14 19:50:53.47	320.43	12.59	-35.7	-36.9	28.5	3.03e+01	61	29	0	267911168	46	6061
2026-01-14 19:50:54.48	320.22	12.56	-35.6	-36.8	28.6	3.03e+01	49	29	0	270008320	46	5933
2026-01-14 19:50:55.49	320.00	12.52	-36.5	-37.8	27.7	3.03e+01	59	29	0	271581184	46	6712
2026-01-14 19:50:56.50	319.78	12.49	-36.2	-37.5	27.8	3.03e+01	60	29	0	273678336	46	6451
2026-01-14 19:50:57.51	319.57	12.46	-36.8	-38.2	27.3	3.03e+01	50	29	0	275251200	48	6213
2026-01-14 19:50:58.52	319.35	12.42	-35.9	-37.1	28.3	3.03e+01	59	29	0	277348352	46	6201
2026-01-14 19:50:59.53	319.14	12.39	-36.3	-37.6	28.0	3.03e+01	59	29	0	279445504	46	6504
2026-01-14 19:51:00.54	318.93	12.36	-36.1	-37.4	28.1	3.03e+01	58	29	0	281018368	46	6379
2026-01-14 19:51:01.55	318.71	12.32	-36.9	-38.2	27.4	3.03e+01	61	29	0	283115520	46	7041
2026-01-14 19:51:02.56	318.50	12.29	-35.6	-36.8	28.7	3.03e+01	62	29	0	285212672	46	5931
2026-01-14 19:51:03.57	318.29	12.25	-36.6	-38.0	27.4	3.03e+01	59	29	0	286785536	46	6859
2026-01-14 19:51:04.57	318.08	12.22	-35.3	-36.5	28.7	3.03e+01	57	29	0	288882688	46	5749
2026-01-14 19:51:05.58	317.87	12.18	-36.5	-37.9	27.5	3.03e+01	47	29	0	290455552	46	6773
2026-01-14 19:51:06.59	317.66	12.15	-35.7	-36.9	28.3	3.03e+01	60	29	0	292552704	46	6055
2026-01-14 19:51:07.60	317.45	12.11	-36.5	-37.8	27.6	3.03e+01	58	29	0	294125568	46	6720
2026-01-14 19:51:08.61	317.24	12.07	-36.4	-37.7	27.9	3.03e+01	62	29	0	296222720	46	6584
2026-01-14 19:51:09.62	317.03	12.04	-36.1	-37.3	28.2	3.03e+01	58	29	0	298319872	46	6345
2026-01-14 19:51:10.63	316.82	12.00	-36.7	-38.0	27.6	3.03e+01	50	29	0	299892736	46	6836
2026-01-14 19:51:11.64	316.62	11.96	-35.6	-36.8	28.7	3.03e+01	61	29	0	301989888	46	5983
2026-01-14 19:51:12.65	316.41	11.92	-36.7	-38.1	27.4	3.03e+01	59	29	0	303562752	46	6943
2026-01-14 19:51:13.66	316.20	11.89	-35.5	-36.7	28.6	3.03e+01	46	29	0	305659904	46	5872
2026-01-14 19:51:14.66	316.00	11.85	-36.4	-37.7	27.8	3.03e+01	57	29	0	307757056	46	6634
2026-01-14 19:51:15.67	315.79	11.81	-35.9	-37.2	28.2	3.03e+01	59	29	0	309329920	46	6214
2026-01-14 19:51:16.68	315.59	11.77	-36.1	-37.4	28.2	3.03e+01	58	29	0	311427072	46	6379
2026-01-14 19:51:17.69	315.38	11.73	-36.3	-37.6	27.9	3.03e+01	60	29	0	313524224	46	6543
2026-01-14 19:51:18.70	315.18	11.69	-36.0	-37.2	28.3	3.03e+01	57	29	0	315097088	46	6257
2026-01-14 19:51:19.71	314.98	11.65	-36.5	-37.9	27.7	3.03e+01	62	29	0	317194240	46	6747
2026-01-14 19:51:20.72	314.78	11.61	-36.2	-37.5	27.9	3.03e+01	61	29	0	318767104	46	6473
2026-01-14 19:51:21.73	314.57	11.57	-36.6	-37.9	27.6	3.03e+01	61	29	0	320864256	46	6799
2026-01-14 19:51:22.74	314.37	11.53	-37.0	-38.4	27.1	3.03e+01	60	29	0	322961408	48	6381
2026-01-14 19:51:23.75	314.17	11.49	-37.6	-39.0	26.7	3.03e+01	48	29	0	324534272	48	6854
2026-01-14 19:51:24.75	313.98	11.45	-38.1	-39.6	26.2	3.03e+01	56	29	0	326631424	50	6519
2026-01-14 19:51:25.76	313.78	11.41	-38.7	-40.2	25.4	3.03e+01	60	29	0	328728576	50	6993
2026-01-14 19:51:26.77	313.58	11.37	-38.7	-40.2	25.9	3.03e+01	48	29	0	330301440	50	7020
2026-01-14 19:51:27.78	313.38	11.33	-38.2	-39.7	26.0	3.03e+01	63	29	0	332398592	50	6602
2026-01-14 19:51:28.79	313.18	11.29	-36.9	-38.2	27.4	3.03e+01	59	29	0	333971456	50	5536
2026-01-14 19:51:29.80	312.99	11.24	-36.7	-38.1	27.4	3.03e+01	59	29	0	336068608	48	6145
2026-01-14 19:51:30.81	312.79	11.20	-36.9	-38.2	27.4	3.03e+01	58	29	0	338165760	48	6260
2026-01-14 19:51:31.82	312.59	11.16	-36.1	-37.3	28.2	3.03e+01	46	29	0	339738624	48	5653
2026-01-14 19:51:32.83	312.40	11.12	-36.6	-37.9	27.7	3.03e+01	59	29	0	341835776	48	6045
2026-01-14 19:51:33.84	312.20	11.07	-36.5	-37.8	27.7	3.03e+01	56	29	0	343408640	48	5991
2026-01-14 19:51:34.85	312.01	11.03	-36.8	-38.1	27.5	3.03e+01	49	29	0	345505792	48	6163
2026-01-14 19:51:35.85	311.82	10.99	-36.8	-38.1	27.5	3.03e+01	58	29	0	347602944	48	6185
2026-01-14 19:51:36.86	311.63	10.94	-36.0	-37.3	28.3	3.03e+01	61	29	0	349175808	48	5602
2026-01-14 19:51:37.87	311.44	10.90	-36.3	-37.6	28.1	3.03e+01	59	29	0	351272960	48	5796
2026-01-14 19:51:38.88	311.24	10.86	-36.1	-37.4	28.1	3.03e+01	56	29	0	352845824	48	5701
2026-01-14 19:51:39.89	311.05	10.81	-36.1	-37.4	28.2	3.03e+01	58	29	0	354942976	48	5665
2026-01-14 19:51:40.90	310.86	10.77	-36.2	-37.5	28.1	3.03e+01	56	29	0	357040128	48	5752
2026-01-14 19:51:41.91	310.68	10.72	-36.4	-37.7	27.9	3.03e+01	58	29	0	358612992	48	5881
2026-01-14 19:51:42.92	310.49	10.68	-36.1	-37.4	28.1	3.03e+01	45	29	0	360710144	48	5692
2026-01-14 19:51:43.93	310.30	10.63	-36.6	-38.0	27.7	3.03e+01	57	29	0	362283008	48	6076
2026-01-14 19:51:44.94	310.11	10.59	-36.4	-37.7	27.7	3.03e+01	59	29	0	364380160	48	5916
2026-01-14 19:51:45.95	309.92	10.54	-36.5	-37.8	27.6	3.03e+01	57	29	0	366477312	48	5950
2026-01-14 19:51:46.96	309.74	10.50	-37.2	-38.6	26.9	3.03e+01	53	29	0	368050176	48	6528
2026-01-14 19:51:47.97	309.55	10.45	-37.1	-38.4	27.4	3.03e+01	51	29	0	370147328	48	6381
2026-01-14 19:51:48.97	309.37	10.40	-37.6	-39.0	26.4	3.03e+01	59	29	0	371720192	48	6882
2026-01-14 19:51:49.98	309.19	10.36	-37.6	-39.0	26.7	3.03e+01	59	29	0	373817344	50	6117
2026-01-14 19:51:50.99	309.00	10.31	-36.6	-37.9	27.7	3.03e+01	44	29	0	375914496	48	6019
2026-01-14 19:51:51.99	308.82	10.27	-36.6	-37.9	27.7	3.03e+01	58	29	0	377487360	48	6007
2026-01-14 19:51:53.00	308.64	10.22	-36.3	-37.6	27.9	3.03e+01	58	29	0	379584512	48	5792
2026-01-14 19:51:54.01	308.46	10.17	-36.5	-37.8	27.8	3.03e+01	62	29	0	381681664	48	5984
2026-01-14 19:51:55.02	308.28	10.13	-36.7	-38.0	27.6	3.03e+01	62	29	0	383254528	48	6117
2026-01-14 19:51:56.03	308.10	10.08	-36.4	-37.7	27.8	3.03e+01	54	29	0	385351680	48	5926
2026-01-14 19:51:57.04	307.92	10.03	-36.9	-38.3	27.3	3.03e+01	59	29	0	386924544	48	6311
2026-01-14 19:51:58.05	307.74	9.98	-36.7	-38.0	27.4	3.03e+01	60	29	0	389021696	48	6102
2026-01-14 19:51:59.06	307.56	9.94	-37.0	-38.4	27.1	3.03e+01	57	29	0	391118848	48	6359
2026-01-14 19:52:00.06	307.38	9.89	-37.6	-39.1	26.4	3.03e+01	63	29	0	392691712	48	6906
2026-01-14 19:52:01.07	307.20	9.84	-37.5	-38.8	27.0	3.03e+01	61	29	0	394788864	48	6704
2026-01-14 19:52:02.08	307.03	9.79	-37.5	-38.9	26.5	3.03e+01	59	29	0	396361728	48	6742
2026-01-14 19:52:03.09	306.85	9.75	-37.8	-39.3	26.0	3.03e+01	61	29	0	398458880	50	6283
2026-01-14 19:52:04.10	306.68	9.70	-36.9	-38.3	27.3	3.03e+01	51	29	0	400031744	50	5607
2026-01-14 19:52:05.11	306.50	9.65	-37.3	-38.7	26.8	3.03e+01	59	29	0	402128896	48	6602
2026-01-14 19:52:06.12	306.33	9.60	-37.2	-38.6	26.9	3.03e+01	51	29	0	404226048	48	6529
2026-01-14 19:52:07.13	306.15	9.55	-36.6	-37.9	27.5	3.03e+01	62	29	0	405798912	48	6037
2026-01-14 19:52:08.14	305.98	9.50	-37.1	-38.6	26.9	3.03e+01	55	29	0	407896064	48	6529
2026-01-14 19:52:09.15	305.81	9.45	-37.1	-38.5	26.9	3.03e+01	37	29	0	409993216	48	6473
2026-01-14 19:52:10.16	305.64	9.41	-36.6	-38.0	27.6	3.03e+01	60	29	0	411566080	48	6070
2026-01-14 19:52:11.17	305.47	9.36	-37.2	-38.6	27.0	3.03e+01	59	29	0	413663232	48	6557
2026-01-14 19:52:12.18	305.30	9.31	-37.1	-38.5	27.0	3.03e+01	48	29	0	415236096	48	6472
2026-01-14 19:52:13.19	305.13	9.26	-36.6	-37.9	27.6	3.03e+01	61	29	0	417333248	48	6032
2026-01-14 19:52:14.20	304.96	9.21	-36.9	-38.3	27.3	3.03e+01	59	29	0	419430400	48	6318
2026-01-14 19:52:15.21	304.79	9.16	-36.5	-37.8	27.7	3.03e+01	58	29	0	421003264	48	5962
2026-01-14 19:52:16.22	304.62	9.11	-36.7	-38.0	27.5	3.03e+01	59	29	0	423100416	48	6089
2026-01-14 19:52:17.23	304.45	9.06	-37.3	-38.7	26.9	3.03e+01	59	29	0	425197568	48	6611
2026-01-14 19:52:18.24	304.29	9.01	-36.6	-37.9	27.5	3.03e+01	57	29	0	426770432	48	6021
2026-01-14 19:52:19.25	304.12	8.96	-36.4	-37.6	27.8	3.03e+01	60	29	0	428867584	48	5855
2026-01-14 19:52:20.26	303.96	8.91	-37.1	-38.4	27.0	3.03e+01	49	29	0	430440448	48	6417
2026-01-14 19:52:21.26	303.79	8.86	-37.4	-38.8	26.8	3.03e+01	60	29	0	432537600	48	6711
2026-01-14 19:52:22.27	303.63	8.81	-37.2	-38.6	27.1	3.03e+01	61	29	0	434634752	48	6508
2026-01-14 19:52:23.28	303.47	8.76	-37.0	-38.3	27.2	3.03e+01	62	29	0	436207616	48	6317
2026-01-14 19:52:24.29	303.30	8.71	-37.1	-38.5	27.0	3.03e+01	61	29	0	438304768	48	6465
2026-01-14 19:52:25.30	303.14	8.66	-36.7	-38.0	27.4	3.03e+01	47	29	0	439877632	48	6128
2026-01-14 19:52:26.31	302.98	8.61	-36.8	-38.1	27.4	3.03e+01	59	29	0	441974784	48	6182
2026-01-14 19:52:27.32	302.82	8.56	-36.9	-38.2	27.2	3.03e+01	61	29	0	444071936	48	6277
2026-01-14 19:52:28.33	302.66	8.50	-36.8	-38.1	27.4	3.03e+01	41	29	0	445644800	48	6186
2026-01-14 19:52:29.34	302.50	8.45	-36.9	-38.2	27.3	3.03e+01	58	29	0	447741952	48	6227
2026-01-14 19:52:30.35	302.34	8.40	-36.8	-38.2	27.3	3.03e+01	58	29	0	449314816	48	6208
2026-01-14 19:52:31.36	302.18	8.35	-36.9	-38.3	27.2	3.03e+01	60	29	0	451411968	48	6319
2026-01-14 19:52:32.37	302.02	8.30	-36.8	-38.2	27.4	3.03e+01	59	29	0	453509120	48	6222
2026-01-14 19:52:33.38	301.87	8.25	-36.9	-38.2	27.3	3.03e+01	54	29	0	455081984	48	6246
2026-01-14 19:52:34.39	301.71	8.20	-37.0	-38.3	27.2	3.03e+01	60	29	0	457179136	48	6345
2026-01-14 19:52:35.40	301.55	8.15	-37.1	-38.4	27.0	3.03e+01	57	29	0	458752000	48	6403
2026-01-14 19:52:36.41	301.40	8.09	-37.0	-38.4	27.1	3.03e+01	57	29	0	460849152	48	6381
2026-01-14 19:52:37.41	301.24	8.04	-37.0	-38.3	27.2	3.03e+01	64	29	0	462946304	48	6340
2026-01-14 19:52:38.43	301.09	7.99	-36.9	-38.3	27.1	3.03e+01	52	29	0	464519168	48	6305
2026-01-14 19:52:39.44	300.94	7.94	-36.7	-38.0	27.4	3.03e+01	59	29	0	466616320	48	6119
2026-01-14 19:52:40.45	300.78	7.89	-36.9	-38.3	27.2	3.03e+01	61	29	0	468189184	48	6285
2026-01-14 19:52:41.46	300.63	7.84	-37.4	-38.8	26.8	3.03e+01	45	29	0	470286336	48	6660
2026-01-14 19:52:42.47	300.48	7.78	-37.4	-38.8	26.8	3.03e+01	59	29	0	472383488	48	6677
2026-01-14 19:52:43.47	300.33	7.73	-37.0	-38.3	27.2	3.03e+01	61	29	0	473956352	48	6347
2026-01-14 19:52:44.48	300.18	7.68	-36.9	-38.2	27.2	3.03e+01	59	29	0	476053504	48	6247
2026-01-14 19:52:45.49	300.03	7.63	-37.2	-38.5	26.8	3.03e+01	58	29	0	478150656	48	6486
2026-01-14 19:52:46.50	299.88	7.58	-37.5	-38.9	26.6	3.03e+01	49	29	0	479723520	48	6740
2026-01-14 19:52:47.51	299.73	7.52	-37.4	-38.8	26.7	3.03e+01	58	29	0	481820672	48	6667
2026-01-14 19:52:48.52	299.58	7.47	-37.3	-38.6	26.8	3.03e+01	58	29	0	483393536	48	6547
2026-01-14 19:52:49.52	299.44	7.42	-37.1	-38.5	26.9	3.03e+01	44	29	0	485490688	48	6455
2026-01-14 19:52:50.53	299.29	7.37	-37.2	-38.6	26.8	3.03e+01	60	29	0	487587840	48	6555
2026-01-14 19:52:51.54	299.14	7.31	-37.3	-38.7	26.7	3.03e+01	59	29	0	489160704	48	6595
2026-01-14 19:52:52.55	299.00	7.26	-37.0	-38.3	27.1	3.03e+01	59	29	0	491257856	48	6321
2026-01-14 19:52:53.56	298.85	7.21	-37.0	-38.3	27.1	3.03e+01	59	29	0	493355008	48	6349
2026-01-14 19:52:54.57	298.71	7.16	-37.1	-38.5	27.0	3.03e+01	63	29	0	494927872	48	6439
2026-01-14 19:52:55.58	298.56	7.10	-37.3	-38.7	26.8	3.03e+01	61	29	0	497025024	48	6589
2026-01-14 19:52:56.59	298.42	7.05	-37.4	-38.8	26.7	3.03e+01	59	29	0	498597888	48	6677
2026-01-14 19:52:57.60	298.28	7.00	-37.4	-38.8	26.6	3.03e+01	48	29	0	500695040	48	6714
2026-01-14 19:52:58.61	298.13	6.95	-37.4	-38.8	26.6	3.03e+01	58	29	0	502792192	48	6722
2026-01-14 19:52:59.62	297.99	6.89	-37.5	-38.9	26.5	3.03e+01	60	29	0	504365056	48	6763
2026-01-14 19:53:00.62	297.85	6.84	-37.5	-38.9	26.5	3.03e+01	59	29	0	506462208	48	6774
2026-01-14 19:53:01.63	297.71	6.79	-37.2	-38.6	26.9	3.03e+01	57	29	0	508035072	48	6521
2026-01-14 19:53:02.64	297.57	6.74	-37.3	-38.7	26.7	3.03e+01	53	29	0	510132224	48	6605
2026-01-14 19:53:03.64	297.43	6.68	-37.4	-38.8	26.6	3.03e+01	61	29	0	511705088	48	6659
2026-01-14 19:53:04.66	297.29	6.63	-37.5	-38.9	26.5	3.03e+01	58	29	0	513802240	48	6796
2026-01-14 19:53:05.66	297.15	6.58	-37.6	-39.0	26.4	3.03e+01	48	29	0	515899392	48	6859
2026-01-14 19:53:06.68	297.01	6.52	-37.5	-38.9	26.5	3.03e+01	53	29	0	517472256	48	6751
2026-01-14 19:53:07.68	296.88	6.47	-37.5	-38.9	26.4	3.03e+01	61	29	0	519569408	48	6786
2026-01-14 19:53:08.69	296.74	6.42	-37.6	-39.0	26.5	3.03e+01	59	29	0	521666560	48	6811
2026-01-14 19:53:09.70	296.61	6.37	-37.6	-39.0	26.4	3.03e+01	61	29	0	523239424	48	6835
2026-01-14 19:53:10.71	296.47	6.31	-37.7	-39.1	26.3	3.03e+01	51	29	0	525336576	48	6948
2026-01-14 19:53:11.72	296.33	6.26	-37.7	-39.1	26.3	3.03e+01	57	29	0	526909440	48	6896
2026-01-14 19:53:12.73	296.20	6.21	-37.5	-38.9	26.4	3.03e+01	57	29	0	529006592	48	6796
2026-01-14 19:53:13.74	296.07	6.15	-37.7	-39.1	26.3	3.03e+01	45	29	0	531103744	48	6924
2026-01-14 19:53:14.75	295.93	6.10	-37.7	-39.1	26.2	3.03e+01	57	29	0	532676608	48	6942
2026-01-14 19:53:15.76	295.80	6.05	-37.8	-39.2	26.2	3.03e+01	47	29	0	534773760	48	7042
2026-01-14 19:53:16.77	295.67	5.99	-37.7	-39.1	26.2	3.03e+01	64	29	0	536346624	48	6942
2026-01-14 19:53:17.78	295.54	5.94	-37.8	-39.2	26.2	3.03e+01	57	29	0	538443776	48	7004
2026-01-14 19:53:18.79	295.40	5.89	-37.8	-39.2	26.1	3.03e+01	51	29	0	540540928	48	6994
2026-01-14 19:53:19.80	295.27	5.83	-37.9	-39.3	26.0	3.03e+01	56	29	0	542113792	48	7083
2026-01-14 19:53:20.81	295.14	5.78	-38.1	-39.5	25.9	3.03e+01	59	29	0	544210944	50	6491
2026-01-14 19:53:21.81	295.01	5.73	-38.0	-39.4	26.0	3.03e+01	58	29	0	546308096	50	6412
2026-01-14 19:53:22.82	294.88	5.68	-38.0	-39.4	25.9	3.03e+01	59	29	0	547880960	50	6386
2026-01-14 19:53:23.83	294.76	5.62	-38.0	-39.4	26.0	3.03e+01	53	29	0	549978112	50	6400
2026-01-14 19:53:24.84	294.63	5.57	-37.8	-39.3	26.0	3.03e+01	63	29	0	551550976	50	6307
2026-01-14 19:53:25.85	294.50	5.52	-37.9	-39.4	26.0	3.03e+01	57	29	0	553648128	50	6375
2026-01-14 19:53:26.86	294.37	5.46	-37.8	-39.2	26.1	3.03e+01	49	29	0	555745280	50	6266
2026-01-14 19:53:27.87	294.25	5.41	-37.7	-39.1	26.2	3.03e+01	60	29	0	557318144	50	6175
2026-01-14 19:53:28.88	294.12	5.36	-38.0	-39.5	25.9	3.03e+01	61	29	0	559415296	50	6453
2026-01-14 19:53:29.88	294.00	5.30	-38.1	-39.5	25.8	3.03e+01	58	29	0	560988160	50	6474
2026-01-14 19:53:30.89	293.87	5.25	-38.1	-39.6	25.7	3.03e+01	59	29	0	563085312	50	6518
2026-01-14 19:53:31.90	293.75	5.20	-38.0	-39.5	25.7	3.03e+01	58	29	0	565182464	50	6468
2026-01-14 19:53:32.91	293.62	5.14	-38.0	-39.5	25.8	3.03e+01	56	29	0	566755328	50	6443
2026-01-14 19:53:33.92	293.50	5.09	-37.9	-39.4	25.9	3.03e+01	57	29	0	568852480	50	6356
2026-01-14 19:53:34.93	293.37	5.04	-37.9	-39.3	26.0	3.03e+01	44	29	0	570425344	50	6308
2026-01-14 19:53:35.94	293.25	4.98	-37.8	-39.2	26.0	3.03e+01	54	29	0	572522496	50	6275
2026-01-14 19:53:36.95	293.13	4.93	-38.2	-39.7	25.5	3.03e+01	59	29	0	574619648	50	6598
2026-01-14 19:53:37.96	293.01	4.88	-38.2	-39.7	25.6	3.03e+01	59	29	0	576192512	50	6579
2026-01-14 19:53:38.97	292.89	4.82	-38.4	-39.9	25.4	3.03e+01	59	29	0	578289664	50	6787
2026-01-14 19:53:39.98	292.77	4.77	-38.5	-40.0	25.2	3.03e+01	47	29	0	579862528	50	6864
2026-01-14 19:53:40.99	292.65	4.72	-38.4	-39.9	25.4	3.03e+01	58	29	0	581959680	50	6755
2026-01-14 19:53:42.00	292.53	4.66	-38.5	-40.0	25.2	3.03e+01	58	29	0	584056832	50	6872
2026-01-14 19:53:43.01	292.41	4.61	-38.1	-39.6	25.6	3.03e+01	53	29	0	585629696	50	6545
2026-01-14 19:53:44.02	292.29	4.56	-38.0	-39.5	25.7	3.03e+01	60	29	0	587726848	50	6464
2026-01-14 19:53:45.03	292.17	4.51	-38.2	-39.7	25.4	3.03e+01	60	29	0	589824000	50	6629
2026-01-14 19:53:46.04	292.05	4.45	-38.3	-39.8	25.4	3.03e+01	61	29	0	591396864	50	6697
2026-01-14 19:53:47.04	291.94	4.40	-38.5	-40.0	25.2	3.03e+01	59	29	0	593494016	50	6826
2026-01-14 19:53:48.05	291.82	4.35	-38.7	-40.2	25.0	3.03e+01	49	29	0	595066880	50	7013
2026-01-14 19:53:49.06	291.70	4.29	-38.5	-40.0	25.2	3.03e+01	58	29	0	597164032	50	6829
2026-01-14 19:53:50.07	291.59	4.24	-38.4	-40.0	25.1	3.03e+01	61	29	0	599261184	50	6826
2026-01-14 19:53:51.08	291.47	4.19	-38.2	-39.7	25.4	3.03e+01	55	29	0	600834048	50	6603
2026-01-14 19:53:52.09	291.36	4.13	-38.4	-40.0	25.2	3.03e+01	61	29	0	602931200	50	6829
2026-01-14 19:53:53.10	291.24	4.08	-38.3	-39.8	25.3	3.03e+01	45	29	0	604504064	50	6691
2026-01-14 19:53:54.11	291.13	4.03	-38.2	-39.7	25.4	3.03e+01	56	29	0	606601216	50	6590
2026-01-14 19:53:55.12	291.02	3.97	-38.5	-40.0	25.1	3.03e+01	60	29	0	608698368	50	6849
2026-01-14 19:53:56.13	290.90	3.92	-38.5	-40.0	25.3	3.03e+01	47	29	0	610271232	50	6829
2026-01-14 19:53:57.14	290.79	3.87	-38.5	-40.1	25.1	3.03e+01	60	29	0	612368384	50	6885
2026-01-14 19:53:58.15	290.68	3.82	-38.5	-40.1	25.0	3.03e+01	59	29	0	613941248	50	6909
2026-01-14 19:53:59.16	290.57	3.76	-38.6	-40.1	25.0	3.03e+01	61	29	0	616038400	50	6946
2026-01-14 19:54:00.17	290.46	3.71	-38.7	-40.3	24.9	3.03e+01	61	29	0	618135552	50	7046
2026-01-14 19:54:01.18	290.34	3.66	-38.8	-40.4	24.6	3.03e+01	46	29	0	619708416	50	7205
2026-01-14 19:54:02.19	290.23	3.60	-38.9	-40.5	24.5	3.03e+01	61	29	0	621805568	52	6494
2026-01-14 19:54:03.20	290.12	3.55	-38.9	-40.5	24.6	3.03e+01	59	29	0	623378432	52	6442
2026-01-14 19:54:04.20	290.02	3.50	-38.6	-40.1	24.9	3.03e+01	44	29	0	625475584	52	6175
2026-01-14 19:54:05.22	289.91	3.45	-38.7	-40.3	24.7	3.03e+01	59	29	0	627572736	52	6284
2026-01-14 19:54:06.23	289.80	3.39	-38.8	-40.4	24.6	3.03e+01	57	29	0	629145600	52	6402
2026-01-14 19:54:07.24	289.69	3.34	-38.8	-40.4	24.7	3.03e+01	57	29	0	631242752	52	6374
2026-01-14 19:54:08.25	289.58	3.29	-38.7	-40.2	24.7	3.03e+01	62	29	0	632815616	52	6263
2026-01-14 19:54:09.26	289.47	3.23	-38.6	-40.2	24.8	3.03e+01	59	29	0	634912768	52	6222
2026-01-14 19:54:10.27	289.37	3.18	-38.8	-40.4	24.6	3.03e+01	60	29	0	637009920	52	6377
2026-01-14 19:54:11.28	289.26	3.13	-39.0	-40.6	24.3	3.03e+01	61	29	0	638582784	52	6573
2026-01-14 19:54:12.29	289.16	3.08	-38.7	-40.3	24.6	3.03e+01	51	29	0	640679936	52	6284
2026-01-14 19:54:13.30	289.05	3.02	-38.7	-40.3	24.7	3.03e+01	60	29	0	642777088	52	6326
2026-01-14 19:54:14.31	288.94	2.97	-48.3	-65.8	3.5	3.03e+01	0	29	104	643301376	60	75096
2026-01-14 19:54:15.32	288.84	2.92	-48.8	-66.6	3.5	3.03e+01	0	29	104	643301376	60	82121
2026-01-14 19:54:16.33	288.74	2.87	-49.0	-66.7	3.5	3.03e+01	0	29	104	643301376	60	83111
2026-01-14 19:54:17.33	288.63	2.81	-49.1	-66.9	3.5	3.03e+01	0	29	104	643301376	60	85629
2026-01-14 19:54:18.35	288.53	2.76	-49.2	-67.0	3.5	3.03e+01	0	29	104	643301376	60	85966
2026-01-14 19:54:19.35	288.43	2.71	-49.2	-67.1	3.5	3.03e+01	0	29	104	643301376	60	86947
2026-01-14 19:54:20.36	288.32	2.66	-49.2	-67.0	3.5	3.03e+01	0	29	104	643301376	60	86607
2026-01-14 19:54:21.37	288.22	2.60	-49.2	-67.1	3.5	3.03e+01	0	29	104	643301376	60	86989
2026-01-14 19:54:22.39	288.12	2.55	-49.2	-67.1	3.5	3.03e+01	0	29	104	643301376	60	86780
2026-01-14 19:54:23.40	288.02	2.50	-49.2	-67.1	3.5	3.03e+01	0	29	104	643301376	60	86895
2026-01-14 19:54:24.40	287.92	2.45	-49.0	-67.1	3.5	3.03e+01	0	29	104	643301376	60	86954
2026-01-14 19:54:25.41	287.82	2.39	-49.1	-67.1	3.5	3.03e+01	0	29	104	643301376	60	86719
2026-01-14 19:54:26.42	287.72	2.34	-49.2	-67.3	3.5	3.03e+01	0	29	104	643301376	60	89195
2026-01-14 19:54:27.43	287.62	2.29	-49.1	-67.0	3.5	3.03e+01	0	29	104	643301376	60	86252
2026-01-14 19:54:28.44	287.52	2.24	-49.1	-67.0	3.5	3.03e+01	0	29	104	643301376	60	86077
2026-01-14 19:54:29.45	287.42	2.19	-48.9	-67.0	3.5	3.03e+01	0	29	104	643301376	60	86395
2026-01-14 19:54:30.46	287.32	2.13	-49.0	-67.0	3.5	3.03e+01	0	29	104	643301376	60	85969
2026-01-14 19:54:31.47	287.22	2.08	-49.3	-67.1	3.5	3.03e+01	0	29	104	643301376	60	87622
2026-01-14 19:54:32.48	287.12	2.03	-49.2	-67.2	3.5	3.03e+01	0	29	104	643301376	60	87692
2026-01-14 19:54:33.49	287.03	1.98	-49.2	-67.1	3.5	3.03e+01	0	29	104	643301376	60	87381
2026-01-14 19:54:34.50	286.93	1.93	-49.2	-67.1	3.5	3.03e+01	0	29	104	643301376	60	86674
2026-01-14 19:54:35.51	286.83	1.87	-49.1	-67.1	3.5	3.03e+01	0	29	104	643301376	60	86846
2026-01-14 19:54:36.52	286.74	1.82	-49.1	-67.0	3.5	3.03e+01	0	29	104	643301376	60	86485
2026-01-14 19:54:37.53	286.64	1.77	-49.2	-67.0	3.5	3.03e+01	0	29	104	643301376	60	86390
2026-01-14 19:54:38.54	286.55	1.72	-49.1	-67.0	3.5	3.03e+01	0	29	104	643301376	60	86190
2026-01-14 19:54:39.54	286.45	1.67	-49.1	-67.0	3.5	3.03e+01	0	29	104	643301376	60	86374
2026-01-14 19:54:40.55	286.36	1.62	-49.1	-67.0	3.5	3.03e+01	0	29	104	643301376	60	86248
2026-01-14 19:54:41.56	286.26	1.56	-49.1	-67.0	3.5	3.03e+01	0	29	104	643301376	60	86198
2026-01-14 19:54:42.57	286.17	1.51	-49.1	-67.0	3.5	3.03e+01	0	29	104	643301376	60	85932
2026-01-14 19:54:43.58	286.07	1.46	-49.1	-67.0	3.5	3.03e+01	0	29	104	643301376	60	86412
2026-01-14 19:54:44.59	285.98	1.41	-49.1	-67.0	3.5	3.03e+01	0	29	104	643301376	60	86051
2026-01-14 19:54:45.60	285.89	1.36	-49.1	-67.0	3.5	3.03e+01	0	29	104	643301376	60	85942
2026-01-14 19:54:46.62	285.79	1.30	-49.1	-67.0	3.5	3.03e+01	0	29	104	643301376	60	86070
2026-01-14 19:54:47.63	285.70	1.25	-49.1	-67.0	3.5	3.03e+01	0	29	104	643301376	60	86102
2026-01-14 19:54:48.63	285.61	1.20	-49.1	-67.0	3.5	3.03e+01	0	29	104	643301376	60	85731
2026-01-14 19:54:49.64	285.52	1.15	-49.1	-67.0	3.5	3.03e+01	0	29	104	643301376	60	85964
2026-01-14 19:54:50.65	285.43	1.10	-49.1	-67.0	3.5	3.03e+01	0	29	104	643301376	60	85718
2026-01-14 19:54:51.66	285.34	1.05	-49.1	-67.0	3.5	3.03e+01	0	29	104	643301376	60	86067
2026-01-14 19:54:52.68	285.25	1.00	-49.1	-67.0	3.5	3.03e+01	0	29	104	643301376	60	86341
2026-01-14 19:54:53.69	285.16	0.94	-49.1	-67.0	3.5	3.03e+01	0	29	104	643301376	60	86186
2026-01-14 19:54:54.69	285.07	0.89	-49.1	-66.9	3.5	3.03e+01	0	29	104	643301376	60	85446
2026-01-14 19:54:55.70	284.98	0.84	-49.1	-67.0	3.5	3.03e+01	0	29	104	643301376	60	86194
2026-01-14 19:54:56.71	284.89	0.79	-49.1	-66.9	3.5	3.03e+01	0	29	104	643301376	60	85445
2026-01-14 19:54:57.72	284.80	0.74	-49.1	-67.0	3.5	3.03e+01	0	29	104	643301376	60	85867
2026-01-14 19:54:58.73	284.71	0.69	-49.1	-67.0	3.5	3.03e+01	0	29	104	643301376	60	86257
2026-01-14 19:54:59.74	284.63	0.64	-49.1	-67.0	3.5	3.03e+01	0	29	104	643301376	60	85791
2026-01-14 19:55:00.75	284.54	0.59	-49.1	-66.9	3.5	3.03e+01	0	29	104	643301376	60	85631
2026-01-14 19:55:01.76	284.45	0.54	-49.1	-66.9	3.5	3.03e+01	0	29	104	643301376	60	85584
2026-01-14 19:55:02.77	284.36	0.49	-49.1	-67.0	3.5	3.03e+01	0	29	104	643301376	60	85733
2026-01-14 19:55:03.78	284.28	0.43	-49.1	-66.9	3.5	3.03e+01	0	29	104	643301376	60	85578
2026-01-14 19:55:04.79	284.19	0.38	-49.1	-66.9	3.5	3.03e+01	0	29	104	643301376	60	85492
2026-01-14 19:55:05.80	284.10	0.33	-49.1	-67.0	3.5	3.03e+01	0	29	104	643301376	60	86079
2026-01-14 19:55:06.81	284.02	0.28	-49.1	-67.0	3.5	3.03e+01	0	29	104	643301376	60	85989
2026-01-14 19:55:07.82	283.93	0.23	-49.1	-67.0	3.5	3.03e+01	0	29	104	643301376	60	85944
2026-01-14 19:55:08.83	283.85	0.18	-49.1	-66.9	3.5	3.03e+01	0	29	104	643301376	60	85562
2026-01-14 19:55:09.84	283.76	0.13	-49.0	-66.9	3.5	3.03e+01	0	29	104	643301376	60	85481
2026-01-14 19:55:10.84	283.68	0.08	-49.1	-66.9	3.5	3.03e+01	0	29	104	643301376	60	85446
2026-01-14 19:55:11.85	283.60	0.03	-49.1	-67.0	3.5	3.03e+01	0	29	104	643301376	60	85728
2026-01-14 19:55:12.87	283.51	-0.02	-49.0	-67.0	3.5	3.03e+01	0	29	104	643301376	60	86088

#Closed at: 2026-01-14 19:55:13
#Recorded file [643 MB]: D:/lorett/data/35029_260115_074400.dat