passes_logs/2026/01/14/R4.6S_Anadyr/R4.6S_Anadyr__20260114_143341_NOAA_21_JPSS-2_rec.log

#Pass ID: 20260114_143341_NOAA 21 (JPSS-2)
#Satellite: NOAA 21 (JPSS-2)
#Configuration: NOAA-21
#almurnet v.1.7.20251203
#Start time: 2026-01-14 14:33:42

#Version: 2.2.20231116
#Station: R4.6S_Anadyr
#Location: 177.4865 lon 64.73178 lat
#TLE: 1 54234U 22150A   26013.88494661  .00000045  00000+0  42271-4 0  9994
#TLE: 2 54234  98.7497 314.7982 0000672 299.1935  60.9174 14.19534564164652

#Time	Az	El	Level	Level2	SNR	BER	BlckErr	Temp	State	Recorded	gain1	gain2
2026-01-14 14:33:42.37	20.17	0.06	-48.6	-63.5	3.5	1.51e+00	0	26	0	0	60	54059
2026-01-14 14:33:43.38	20.18	0.12	-48.7	-61.5	3.5	1.52e+00	0	27	104	0	60	41842
2026-01-14 14:33:44.39	20.19	0.18	-48.7	-61.6	3.5	1.52e+00	0	27	104	0	60	41975
2026-01-14 14:33:45.40	20.20	0.24	-48.8	-61.6	3.5	1.51e+00	0	27	104	0	60	42365
2026-01-14 14:33:46.41	20.21	0.31	-48.7	-61.6	3.5	1.52e+00	0	27	104	0	60	42252
2026-01-14 14:33:47.42	20.21	0.37	-48.7	-61.6	3.5	1.51e+00	0	27	104	0	60	42132
2026-01-14 14:33:48.43	20.22	0.43	-48.8	-61.7	3.5	1.52e+00	0	27	104	0	60	42571
2026-01-14 14:33:49.44	20.23	0.49	-48.8	-61.6	3.5	1.52e+00	0	27	104	0	60	42092
2026-01-14 14:33:50.45	20.24	0.55	-48.7	-61.5	3.5	1.52e+00	0	27	104	0	60	41796
2026-01-14 14:33:51.46	20.25	0.61	-48.7	-61.5	3.5	1.52e+00	0	27	104	0	60	41766
2026-01-14 14:33:52.47	20.26	0.67	-48.6	-61.4	3.5	1.51e+00	0	27	104	0	60	41310
2026-01-14 14:33:53.48	20.27	0.73	-48.4	-61.3	3.5	1.52e+00	0	27	104	0	60	40577
2026-01-14 14:33:54.49	20.28	0.79	-48.3	-61.2	3.5	1.52e+00	0	27	104	0	60	40079
2026-01-14 14:33:55.50	20.29	0.86	-48.1	-60.9	3.5	1.52e+00	0	27	104	0	60	38787
2026-01-14 14:33:56.51	20.30	0.92	-47.9	-60.7	3.5	1.51e+00	0	27	104	0	60	38108
2026-01-14 14:33:57.52	20.31	0.98	-47.7	-60.5	3.5	1.52e+00	0	27	104	0	60	37152
2026-01-14 14:33:58.53	20.32	1.04	-47.3	-60.0	3.5	1.51e+00	0	27	104	0	60	34974
2026-01-14 14:33:59.54	20.33	1.10	-47.2	-59.9	3.5	1.52e+00	0	27	104	0	60	34843
2026-01-14 14:34:00.55	20.34	1.17	-47.2	-59.9	3.5	1.52e+00	0	27	104	0	60	34785
2026-01-14 14:34:01.56	20.35	1.23	-47.2	-59.8	3.5	1.52e+00	0	28	104	0	60	34474
2026-01-14 14:34:02.57	20.36	1.29	-47.2	-59.9	3.5	1.52e+00	0	27	104	0	60	34677
2026-01-14 14:34:03.58	20.37	1.35	-47.2	-59.9	3.5	1.52e+00	0	28	104	0	60	34594
2026-01-14 14:34:04.59	20.38	1.42	-47.2	-59.8	3.5	1.52e+00	0	27	104	0	60	34369
2026-01-14 14:34:05.60	20.39	1.48	-47.2	-59.8	3.5	1.52e+00	0	28	104	0	60	34410
2026-01-14 14:34:06.61	20.39	1.54	-47.2	-59.9	3.5	1.52e+00	0	28	104	0	60	34628
2026-01-14 14:34:07.62	20.40	1.61	-47.2	-59.9	3.5	1.52e+00	0	28	104	0	60	34661
2026-01-14 14:34:08.63	20.41	1.67	-47.2	-59.9	3.5	1.52e+00	0	28	104	0	60	34871
2026-01-14 14:34:09.64	20.42	1.73	-47.2	-60.0	3.5	1.52e+00	0	28	104	0	60	35026
2026-01-14 14:34:10.65	20.43	1.80	-47.2	-60.0	3.5	1.52e+00	0	28	104	0	60	34948
2026-01-14 14:34:11.66	20.44	1.86	-47.2	-60.0	3.5	1.52e+00	0	28	104	0	60	35138
2026-01-14 14:34:12.66	20.45	1.92	-47.2	-60.0	3.5	1.52e+00	0	28	104	0	60	34987
2026-01-14 14:34:13.67	20.46	1.99	-47.2	-60.0	3.5	1.52e+00	0	28	104	0	60	35085
2026-01-14 14:34:14.68	20.47	2.05	-47.2	-60.0	3.5	1.52e+00	0	28	104	0	60	35169
2026-01-14 14:34:15.69	20.48	2.12	-47.2	-59.9	3.5	1.52e+00	0	28	104	0	60	34765
2026-01-14 14:34:16.71	20.49	2.18	-47.1	-59.7	3.5	1.52e+00	0	28	104	0	60	33819
2026-01-14 14:34:17.71	20.50	2.25	-47.1	-59.0	3.5	1.52e+00	0	28	104	0	60	31262
2026-01-14 14:34:18.72	20.51	2.31	-47.0	-58.5	3.5	1.51e+00	0	28	104	0	60	29391
2026-01-14 14:34:19.73	20.52	2.38	-47.0	-58.1	3.5	1.51e+00	0	28	104	0	60	28122
2026-01-14 14:34:20.74	20.53	2.44	-46.9	-57.2	3.9	1.49e+00	0	28	104	0	60	25476
2026-01-14 14:34:21.75	20.54	2.51	-46.9	-57.2	3.9	1.47e+00	0	28	104	0	60	25545
2026-01-14 14:34:22.76	20.55	2.57	-46.9	-57.3	3.6	1.48e+00	0	28	104	0	60	25721
2026-01-14 14:34:23.77	20.56	2.64	-46.9	-57.3	3.9	1.49e+00	0	28	104	0	60	25692
2026-01-14 14:34:24.78	20.57	2.70	-46.8	-56.7	4.1	1.48e+00	0	28	104	0	60	23967
2026-01-14 14:34:25.79	20.58	2.77	-46.5	-54.5	5.4	6.46e-01	122	28	104	0	60	18680
2026-01-14 14:34:26.80	20.59	2.83	-45.9	-51.3	7.3	1.84e-01	122	28	0	2097152	60	12839
2026-01-14 14:34:27.81	20.60	2.90	-45.1	-49.2	9.7	3.62e-02	123	28	0	5242880	60	10113
2026-01-14 14:34:28.82	20.61	2.97	-43.9	-47.0	12.1	4.87e-04	123	28	0	8388608	60	7831
2026-01-14 14:34:29.83	20.62	3.03	-42.9	-45.3	13.9	5.30e-06	123	28	0	11534336	60	6491
2026-01-14 14:34:30.84	20.63	3.10	-42.2	-44.4	15.0	0.00e+00	122	28	0	14680064	58	6528
2026-01-14 14:34:31.85	20.64	3.17	-41.0	-42.8	16.4	0.00e+00	122	28	0	17825792	56	6131
2026-01-14 14:34:32.86	20.65	3.23	-40.5	-42.2	17.0	0.00e+00	123	28	0	20971520	54	6367
2026-01-14 14:34:33.87	20.66	3.30	-39.8	-41.3	17.9	0.00e+00	122	28	0	24117248	52	6452
2026-01-14 14:34:34.88	20.67	3.37	-39.6	-41.1	18.1	0.00e+00	122	28	0	27262976	52	6315
2026-01-14 14:34:35.89	20.68	3.44	-39.9	-41.4	17.7	0.00e+00	122	28	0	30408704	52	6562
2026-01-14 14:34:36.90	20.70	3.50	-40.1	-41.7	17.5	0.00e+00	122	28	0	33554432	52	6745
2026-01-14 14:34:37.91	20.71	3.57	-40.7	-42.4	16.8	0.00e+00	123	28	0	36700160	52	7313
2026-01-14 14:34:38.92	20.72	3.64	-41.3	-43.2	16.0	0.00e+00	123	28	0	39845888	54	7135
2026-01-14 14:34:39.93	20.73	3.71	-42.4	-44.6	14.5	0.00e+00	118	28	0	42991616	56	7478
2026-01-14 14:34:40.94	20.74	3.78	-38.8	-40.1	18.9	0.00e+00	123	28	0	46137344	50	6328
2026-01-14 14:34:41.95	20.75	3.85	-42.3	-44.5	14.2	0.00e+00	120	28	0	49283072	54	8327
2026-01-14 14:34:42.96	20.76	3.91	-47.0	-57.2	3.5	9.09e-03	0	28	104	52428800	60	25328
2026-01-14 14:34:43.97	20.77	3.98	-41.6	-43.7	16.0	7.00e-07	122	28	0	52428800	56	6728
2026-01-14 14:34:44.98	20.78	4.05	-47.1	-59.4	3.5	9.41e-01	0	28	104	54525952	60	32861
2026-01-14 14:34:45.98	20.79	4.12	-39.4	-41.2	17.9	1.40e+00	0	28	104	54525952	54	5703
2026-01-14 14:34:46.99	20.80	4.19	-39.2	-40.6	18.8	0.00e+00	120	28	0	55574528	52	5979
2026-01-14 14:34:48.00	20.81	4.26	-39.1	-40.5	19.0	0.00e+00	123	28	0	58720256	52	5860
2026-01-14 14:34:49.01	20.82	4.33	-38.6	-39.8	19.4	0.00e+00	122	28	0	61865984	50	6129
2026-01-14 14:34:50.02	20.83	4.40	-38.7	-40.0	19.5	0.00e+00	123	28	0	65011712	50	6211
2026-01-14 14:34:51.03	20.84	4.47	-38.5	-39.8	19.4	0.00e+00	123	28	0	68157440	50	6073
2026-01-14 14:34:52.04	20.85	4.54	-38.6	-39.9	19.4	0.00e+00	123	28	0	71303168	50	6171
2026-01-14 14:34:53.05	20.86	4.61	-38.4	-39.6	19.7	0.00e+00	123	28	0	74448896	50	5988
2026-01-14 14:34:54.06	20.88	4.68	-38.5	-39.8	19.7	0.00e+00	120	28	0	77594624	50	6107
2026-01-14 14:34:55.07	20.89	4.75	-38.2	-39.4	20.0	0.00e+00	123	28	0	80740352	50	5853
2026-01-14 14:34:56.08	20.90	4.82	-38.3	-39.5	19.8	0.00e+00	120	28	0	83886080	50	5885
2026-01-14 14:34:57.09	20.91	4.89	-37.7	-38.9	20.4	0.00e+00	123	28	0	87031808	48	6189
2026-01-14 14:34:58.10	20.92	4.96	-37.8	-39.0	20.3	0.00e+00	122	28	0	90177536	48	6228
2026-01-14 14:34:59.11	20.93	5.04	-37.6	-38.8	20.5	0.00e+00	123	28	0	93323264	48	6102
2026-01-14 14:35:00.12	20.94	5.11	-37.7	-38.9	20.4	0.00e+00	123	28	0	96468992	48	6176
2026-01-14 14:35:01.13	20.95	5.18	-37.6	-38.7	20.6	0.00e+00	123	28	0	99614720	48	6044
2026-01-14 14:35:02.14	20.96	5.25	-37.6	-38.8	20.6	0.00e+00	120	28	0	102760448	48	6080
2026-01-14 14:35:03.15	20.97	5.32	-37.4	-38.6	20.7	0.00e+00	123	28	0	105906176	48	5947
2026-01-14 14:35:04.15	20.99	5.40	-37.4	-38.5	20.8	0.00e+00	123	28	0	109051904	48	5891
2026-01-14 14:35:05.16	21.00	5.47	-37.4	-38.6	20.8	0.00e+00	122	28	0	112197632	48	5947
2026-01-14 14:35:06.17	21.01	5.54	-37.5	-38.6	20.7	0.00e+00	122	28	0	115343360	48	5983
2026-01-14 14:35:07.18	21.02	5.62	-37.6	-38.7	20.7	0.00e+00	123	28	0	118489088	48	6051
2026-01-14 14:35:08.19	21.03	5.69	-37.4	-38.6	20.8	0.00e+00	122	28	0	121634816	48	5940
2026-01-14 14:35:09.20	21.04	5.76	-37.2	-38.4	21.0	0.00e+00	123	28	0	124780544	48	5792
2026-01-14 14:35:10.21	21.05	5.84	-37.3	-38.4	20.9	0.00e+00	122	28	0	127926272	48	5805
2026-01-14 14:35:11.22	21.06	5.91	-37.2	-38.3	21.0	0.00e+00	118	28	0	131072000	48	5789
2026-01-14 14:35:12.23	21.08	5.98	-37.1	-38.2	21.2	0.00e+00	120	28	0	134217728	48	5698
2026-01-14 14:35:13.24	21.09	6.06	-37.1	-38.2	21.2	0.00e+00	123	28	0	137363456	48	5673
2026-01-14 14:35:14.25	21.10	6.13	-37.1	-38.2	21.2	0.00e+00	123	28	0	140509184	48	5698
2026-01-14 14:35:15.26	21.11	6.21	-37.2	-38.3	21.1	0.00e+00	122	28	0	143654912	48	5739
2026-01-14 14:35:16.27	21.12	6.28	-37.2	-38.3	21.1	0.00e+00	123	28	0	146800640	48	5731
2026-01-14 14:35:17.28	21.13	6.36	-37.0	-38.1	21.3	0.00e+00	120	28	0	149946368	48	5598
2026-01-14 14:35:18.29	21.15	6.43	-37.0	-38.1	21.3	0.00e+00	123	28	0	153092096	48	5600
2026-01-14 14:35:19.30	21.16	6.51	-37.1	-38.2	21.2	0.00e+00	123	28	0	156237824	48	5699
2026-01-14 14:35:20.31	21.17	6.59	-37.1	-38.2	21.2	0.00e+00	123	28	0	159383552	48	5691
2026-01-14 14:35:21.32	21.18	6.66	-36.9	-38.0	21.4	0.00e+00	123	28	0	162529280	48	5538
2026-01-14 14:35:22.33	21.19	6.74	-37.1	-38.1	21.3	0.00e+00	123	28	0	165675008	48	5655
2026-01-14 14:35:23.33	21.20	6.81	-36.9	-37.9	21.5	0.00e+00	120	28	0	168820736	48	5526
2026-01-14 14:35:24.34	21.22	6.89	-36.8	-37.9	21.5	0.00e+00	123	28	0	171966464	48	5493
2026-01-14 14:35:25.35	21.23	6.97	-36.9	-38.0	21.4	0.00e+00	123	28	0	175112192	48	5558
2026-01-14 14:35:26.36	21.24	7.05	-36.8	-37.8	21.6	0.00e+00	122	28	0	178257920	48	5455
2026-01-14 14:35:27.37	21.25	7.12	-36.7	-37.7	21.7	0.00e+00	123	28	0	181403648	46	6054
2026-01-14 14:35:28.38	21.26	7.20	-36.7	-37.8	21.6	0.00e+00	120	28	0	184549376	46	6077
2026-01-14 14:35:29.39	21.28	7.28	-36.8	-37.8	21.6	0.00e+00	123	28	0	187695104	46	6127
2026-01-14 14:35:30.40	21.29	7.36	-36.7	-37.7	21.7	0.00e+00	122	28	0	190840832	46	6064
2026-01-14 14:35:31.41	21.30	7.44	-36.7	-37.7	21.7	0.00e+00	123	28	0	193986560	46	6027
2026-01-14 14:35:32.42	21.31	7.51	-36.8	-37.9	21.6	0.00e+00	122	28	0	197132288	46	6136
2026-01-14 14:35:33.43	21.33	7.59	-36.5	-37.6	21.9	0.00e+00	121	28	0	200278016	46	5936
2026-01-14 14:35:34.43	21.34	7.67	-36.5	-37.6	21.9	0.00e+00	122	28	0	203423744	46	5951
2026-01-14 14:35:35.44	21.35	7.75	-36.5	-37.6	21.9	0.00e+00	123	28	0	206569472	46	5947
2026-01-14 14:35:36.45	21.36	7.83	-36.5	-37.5	21.9	0.00e+00	120	28	0	209715200	46	5896
2026-01-14 14:35:37.46	21.37	7.91	-36.3	-37.3	22.1	0.00e+00	122	28	0	212860928	46	5751
2026-01-14 14:35:38.47	21.39	7.99	-36.4	-37.4	22.0	0.00e+00	122	28	0	216006656	46	5845
2026-01-14 14:35:39.49	21.40	8.07	-36.5	-37.5	21.9	0.00e+00	123	28	0	219152384	46	5906
2026-01-14 14:35:40.49	21.41	8.15	-36.4	-37.4	22.0	0.00e+00	123	28	0	222298112	46	5854
2026-01-14 14:35:41.50	21.42	8.23	-36.4	-37.4	22.1	0.00e+00	123	28	0	225443840	46	5849
2026-01-14 14:35:42.51	21.44	8.31	-36.4	-37.4	22.0	0.00e+00	122	28	0	228589568	46	5855
2026-01-14 14:35:43.52	21.45	8.40	-36.3	-37.3	22.1	0.00e+00	120	28	0	231735296	46	5786
2026-01-14 14:35:44.53	21.46	8.48	-36.5	-37.5	22.0	0.00e+00	123	28	0	234881024	46	5885
2026-01-14 14:35:45.54	21.48	8.56	-36.2	-37.2	22.2	0.00e+00	123	28	0	238026752	46	5723
2026-01-14 14:35:46.55	21.49	8.64	-36.3	-37.4	22.1	0.00e+00	122	28	0	241172480	46	5809
2026-01-14 14:35:47.56	21.50	8.73	-36.4	-37.4	22.0	0.00e+00	122	28	0	244318208	46	5834
2026-01-14 14:35:48.57	21.51	8.81	-36.4	-37.4	22.1	0.00e+00	123	28	0	247463936	46	5811
2026-01-14 14:35:49.58	21.53	8.89	-36.5	-37.5	22.0	0.00e+00	123	28	0	250609664	46	5896
2026-01-14 14:35:50.59	21.54	8.97	-36.3	-37.4	22.2	0.00e+00	122	28	0	253755392	46	5807
2026-01-14 14:35:51.60	21.55	9.06	-36.3	-37.4	22.1	0.00e+00	123	28	0	256901120	46	5799
2026-01-14 14:35:52.61	21.57	9.14	-36.1	-37.1	22.3	0.00e+00	123	28	0	260046848	46	5617
2026-01-14 14:35:53.62	21.58	9.23	-36.1	-37.1	22.4	0.00e+00	122	28	0	263192576	46	5656
2026-01-14 14:35:54.63	21.59	9.31	-36.1	-37.1	22.3	0.00e+00	122	28	0	266338304	46	5654
2026-01-14 14:35:55.64	21.61	9.40	-36.1	-37.1	22.4	0.00e+00	123	28	0	269484032	46	5612
2026-01-14 14:35:56.65	21.62	9.48	-36.1	-37.1	22.3	0.00e+00	122	28	0	272629760	46	5644
2026-01-14 14:35:57.66	21.63	9.57	-36.0	-37.0	22.5	0.00e+00	122	28	0	275775488	46	5571
2026-01-14 14:35:58.67	21.65	9.65	-35.8	-36.9	22.6	0.00e+00	123	28	0	278921216	46	5472
2026-01-14 14:35:59.68	21.66	9.74	-35.9	-36.9	22.6	0.00e+00	122	28	0	282066944	46	5529
2026-01-14 14:36:00.69	21.67	9.82	-35.9	-36.9	22.6	0.00e+00	123	28	0	285212672	46	5486
2026-01-14 14:36:01.70	21.69	9.91	-35.7	-36.7	22.7	0.00e+00	122	28	0	288358400	46	5388
2026-01-14 14:36:02.71	21.70	10.00	-35.8	-36.8	22.6	0.00e+00	122	28	0	291504128	44	6099
2026-01-14 14:36:03.72	21.71	10.09	-35.7	-36.7	22.7	0.00e+00	120	29	0	294649856	44	6042
2026-01-14 14:36:04.73	21.73	10.17	-35.7	-36.7	22.6	0.00e+00	123	28	0	297795584	44	6035
2026-01-14 14:36:05.74	21.74	10.26	-35.7	-36.7	22.7	0.00e+00	123	28	0	300941312	44	6001
2026-01-14 14:36:06.75	21.76	10.35	-35.6	-36.6	22.8	0.00e+00	123	28	0	304087040	44	5976
2026-01-14 14:36:07.75	21.77	10.44	-35.6	-36.6	22.8	0.00e+00	123	28	0	307232768	44	5936
2026-01-14 14:36:08.77	21.78	10.53	-35.6	-36.6	22.8	0.00e+00	120	28	0	310378496	44	5973
2026-01-14 14:36:09.77	21.80	10.61	-35.6	-36.6	22.8	0.00e+00	123	28	0	313524224	44	5952
2026-01-14 14:36:10.79	21.81	10.70	-35.4	-36.4	22.9	0.00e+00	120	28	0	316669952	44	5835
2026-01-14 14:36:11.79	21.83	10.79	-35.4	-36.4	23.0	0.00e+00	122	28	0	319815680	44	5819
2026-01-14 14:36:12.80	21.84	10.88	-35.4	-36.3	23.0	0.00e+00	122	28	0	322961408	44	5782
2026-01-14 14:36:13.81	21.85	10.97	-35.4	-36.4	22.9	0.00e+00	122	28	0	326107136	44	5803
2026-01-14 14:36:14.82	21.87	11.06	-35.2	-36.2	23.2	0.00e+00	120	28	0	329252864	44	5672
2026-01-14 14:36:15.82	21.88	11.15	-35.3	-36.2	23.1	0.00e+00	123	28	0	332398592	44	5712
2026-01-14 14:36:16.83	21.90	11.25	-35.2	-36.2	23.1	0.00e+00	122	28	0	335544320	44	5676
2026-01-14 14:36:17.84	21.91	11.34	-35.1	-36.0	23.3	0.00e+00	123	28	0	338690048	44	5586
2026-01-14 14:36:18.85	21.93	11.43	-35.1	-36.1	23.2	0.00e+00	123	28	0	341835776	44	5605
2026-01-14 14:36:19.87	21.94	11.52	-35.1	-36.1	23.2	0.00e+00	123	28	0	344981504	44	5629
2026-01-14 14:36:20.87	21.96	11.62	-35.1	-36.0	23.2	0.00e+00	123	28	0	348127232	44	5585
2026-01-14 14:36:21.88	21.97	11.71	-35.2	-36.1	23.2	0.00e+00	120	28	0	351272960	44	5651
2026-01-14 14:36:22.89	21.98	11.80	-35.1	-36.0	23.3	0.00e+00	123	28	0	354418688	44	5580
2026-01-14 14:36:23.90	22.00	11.90	-35.0	-35.9	23.3	0.00e+00	122	28	0	357564416	44	5524
2026-01-14 14:36:24.91	22.01	11.99	-34.9	-35.9	23.4	0.00e+00	122	28	0	360710144	44	5487
2026-01-14 14:36:25.92	22.03	12.08	-35.0	-35.9	23.4	0.00e+00	120	28	0	363855872	44	5529
2026-01-14 14:36:26.93	22.04	12.18	-34.9	-35.8	23.4	0.00e+00	123	28	0	367001600	44	5447
2026-01-14 14:36:27.94	22.06	12.28	-34.9	-35.8	23.5	0.00e+00	121	28	0	370147328	44	5433
2026-01-14 14:36:28.95	22.08	12.37	-34.9	-35.8	23.5	0.00e+00	122	28	0	373293056	44	5442
2026-01-14 14:36:29.95	22.09	12.47	-34.8	-35.7	23.6	0.00e+00	123	28	0	376438784	44	5400
2026-01-14 14:36:30.96	22.11	12.56	-34.7	-35.7	23.6	0.00e+00	122	28	0	379584512	44	5355
2026-01-14 14:36:31.97	22.12	12.66	-34.8	-35.7	23.6	0.00e+00	123	29	0	382730240	42	6045
2026-01-14 14:36:32.98	22.14	12.76	-35.0	-35.9	23.4	0.00e+00	120	28	0	386924544	42	6191
2026-01-14 14:36:33.99	22.15	12.85	-34.8	-35.7	23.6	0.00e+00	120	28	0	390070272	42	6050
2026-01-14 14:36:35.00	22.17	12.95	-34.7	-35.7	23.7	0.00e+00	123	28	0	393216000	42	6006
2026-01-14 14:36:36.01	22.18	13.05	-34.8	-35.7	23.6	0.00e+00	123	28	0	395313152	42	6024
2026-01-14 14:36:37.02	22.20	13.15	-34.8	-35.7	23.7	0.00e+00	123	28	0	398458880	42	6043
2026-01-14 14:36:38.03	22.22	13.25	-34.8	-35.7	23.7	0.00e+00	123	28	0	401604608	42	6037
2026-01-14 14:36:39.04	22.23	13.35	-34.7	-35.6	23.7	0.00e+00	120	28	0	405798912	42	5952
2026-01-14 14:36:40.05	22.25	13.45	-34.7	-35.6	23.8	0.00e+00	123	28	0	408944640	42	5959
2026-01-14 14:36:41.06	22.26	13.55	-34.7	-35.6	23.8	0.00e+00	123	28	0	412090368	42	5963
2026-01-14 14:36:42.07	22.28	13.65	-34.6	-35.6	23.8	0.00e+00	122	28	0	415236096	42	5947
2026-01-14 14:36:43.08	22.30	13.75	-34.7	-35.6	23.7	0.00e+00	122	28	0	417333248	42	5984
2026-01-14 14:36:44.09	22.31	13.85	-34.8	-35.7	23.7	0.00e+00	123	28	0	421527552	42	6042
2026-01-14 14:36:45.10	22.33	13.95	-34.9	-35.8	23.6	0.00e+00	121	28	0	424673280	42	6100
2026-01-14 14:36:46.11	22.35	14.06	-34.7	-35.6	23.8	0.00e+00	123	28	0	427819008	42	5967
2026-01-14 14:36:47.12	22.36	14.16	-34.7	-35.6	23.7	0.00e+00	123	28	0	430964736	42	5962
2026-01-14 14:36:48.13	22.38	14.26	-34.8	-35.8	23.7	0.00e+00	123	29	0	434110464	42	6069
2026-01-14 14:36:49.14	22.40	14.37	-34.8	-35.7	23.7	0.00e+00	123	28	0	437256192	42	6045
2026-01-14 14:36:50.15	22.41	14.47	-34.7	-35.7	23.8	0.00e+00	122	28	0	440401920	42	6001
2026-01-14 14:36:51.16	22.43	14.58	-34.6	-35.6	23.8	0.00e+00	123	28	0	443547648	42	5930
2026-01-14 14:36:52.17	22.45	14.68	-34.8	-35.7	23.8	0.00e+00	123	28	0	446693376	42	6019
2026-01-14 14:36:53.18	22.46	14.79	-34.8	-35.8	23.6	0.00e+00	123	28	0	449839104	42	6082
2026-01-14 14:36:54.19	22.48	14.89	-34.7	-35.7	23.8	0.00e+00	120	28	0	452984832	42	6000
2026-01-14 14:36:55.20	22.50	15.00	-34.7	-35.6	23.8	0.00e+00	123	28	0	456130560	42	5990
2026-01-14 14:36:56.21	22.52	15.11	-34.8	-35.7	23.8	0.00e+00	123	28	0	459276288	42	6037
2026-01-14 14:36:57.22	22.53	15.21	-34.9	-35.8	23.7	0.00e+00	122	28	0	462422016	42	6102
2026-01-14 14:36:58.23	22.55	15.32	-34.7	-35.6	23.7	0.00e+00	123	29	0	465567744	42	5983
2026-01-14 14:36:59.24	22.57	15.43	-34.6	-35.5	23.9	0.00e+00	120	28	0	468713472	42	5923
2026-01-14 14:37:00.25	22.59	15.54	-34.7	-35.6	23.8	0.00e+00	123	28	0	471859200	42	5975
2026-01-14 14:37:01.25	22.60	15.65	-34.7	-35.6	23.8	0.00e+00	123	28	0	475004928	42	5980
2026-01-14 14:37:02.26	22.62	15.76	-34.6	-35.6	23.9	0.00e+00	120	28	0	478150656	42	5945
2026-01-14 14:37:03.27	22.64	15.87	-34.7	-35.7	23.8	0.00e+00	123	28	0	481296384	42	6009
2026-01-14 14:37:04.28	22.66	15.98	-34.7	-35.6	23.9	0.00e+00	120	28	0	484442112	42	5970
2026-01-14 14:37:05.29	22.68	16.09	-34.8	-35.7	23.8	0.00e+00	122	28	0	487587840	42	6045
2026-01-14 14:37:06.30	22.70	16.20	-34.8	-35.8	23.8	0.00e+00	123	28	0	490733568	42	6067
2026-01-14 14:37:07.31	22.71	16.32	-34.7	-35.6	23.8	0.00e+00	122	28	0	493879296	42	5981
2026-01-14 14:37:08.32	22.73	16.43	-34.8	-35.8	23.7	0.00e+00	123	29	0	497025024	42	6077
2026-01-14 14:37:09.33	22.75	16.54	-34.8	-35.8	23.7	0.00e+00	120	29	0	500170752	42	6077
2026-01-14 14:37:10.33	22.77	16.65	-34.8	-35.7	23.8	0.00e+00	123	28	0	503316480	42	6056
2026-01-14 14:37:11.34	22.79	16.77	-34.8	-35.7	23.8	0.00e+00	121	28	0	506462208	42	6025
2026-01-14 14:37:12.35	22.81	16.88	-34.8	-35.8	23.7	0.00e+00	123	28	0	509607936	42	6068
2026-01-14 14:37:13.36	22.83	17.00	-34.8	-35.7	23.8	0.00e+00	120	28	0	512753664	42	6047
2026-01-14 14:37:14.37	22.85	17.12	-34.8	-35.7	23.8	0.00e+00	123	28	0	515899392	42	6027
2026-01-14 14:37:15.38	22.87	17.23	-34.8	-35.7	23.7	0.00e+00	120	29	0	519045120	42	6060
2026-01-14 14:37:16.39	22.89	17.35	-35.0	-36.0	23.6	0.00e+00	123	28	0	522190848	42	6209
2026-01-14 14:37:17.40	22.90	17.47	-34.7	-35.7	23.8	0.00e+00	122	29	0	525336576	42	6008
2026-01-14 14:37:18.41	22.92	17.59	-34.8	-35.8	23.8	0.00e+00	122	28	0	528482304	42	6073
2026-01-14 14:37:19.42	22.94	17.71	-34.8	-35.8	23.7	0.00e+00	120	29	0	531628032	42	6071
2026-01-14 14:37:20.43	22.96	17.83	-34.8	-35.8	23.8	0.00e+00	123	29	0	534773760	42	6067
2026-01-14 14:37:21.44	22.98	17.95	-34.8	-35.7	23.8	0.00e+00	122	29	0	537919488	42	6028
2026-01-14 14:37:22.45	23.01	18.07	-34.8	-35.7	23.8	0.00e+00	123	28	0	541065216	42	6055
2026-01-14 14:37:23.46	23.03	18.19	-34.7	-35.7	23.9	0.00e+00	120	29	0	544210944	42	6012
2026-01-14 14:37:24.47	23.05	18.31	-34.8	-35.7	23.8	0.00e+00	123	29	0	547356672	42	6014
2026-01-14 14:37:25.48	23.07	18.43	-34.8	-35.7	23.8	0.00e+00	122	29	0	550502400	42	6045
2026-01-14 14:37:26.49	23.09	18.56	-34.8	-35.7	23.8	0.00e+00	123	29	0	553648128	42	6058
2026-01-14 14:37:27.50	23.11	18.68	-34.8	-35.7	23.8	0.00e+00	120	28	0	556793856	42	6022
2026-01-14 14:37:28.51	23.13	18.80	-34.8	-35.7	23.8	0.00e+00	123	29	0	559939584	42	6025
2026-01-14 14:37:29.51	23.15	18.93	-34.8	-35.7	23.8	0.00e+00	123	29	0	563085312	42	6038
2026-01-14 14:37:30.53	23.17	19.05	-34.8	-35.7	23.7	0.00e+00	122	28	0	566231040	42	6058
2026-01-14 14:37:31.54	23.19	19.18	-34.6	-35.5	24.0	0.00e+00	123	28	0	569376768	42	5892
2026-01-14 14:37:32.55	23.22	19.31	-34.6	-35.5	24.0	0.00e+00	122	29	0	572522496	42	5903
2026-01-14 14:37:33.56	23.24	19.44	-34.6	-35.5	23.9	0.00e+00	123	29	0	575668224	42	5903
2026-01-14 14:37:34.57	23.26	19.56	-34.6	-35.5	24.0	0.00e+00	123	28	0	578813952	42	5908
2026-01-14 14:37:35.58	23.28	19.69	-34.5	-35.4	24.1	0.00e+00	123	29	0	581959680	42	5831
2026-01-14 14:37:36.59	23.30	19.82	-34.5	-35.4	24.1	0.00e+00	122	28	0	585105408	42	5806
2026-01-14 14:37:37.60	23.33	19.95	-34.3	-35.2	24.2	0.00e+00	122	29	0	588251136	42	5718
2026-01-14 14:37:38.61	23.35	20.08	-34.3	-35.3	24.1	0.00e+00	120	29	0	591396864	42	5738
2026-01-14 14:37:39.62	23.37	20.22	-34.2	-35.1	24.2	0.00e+00	122	28	0	594542592	42	5637
2026-01-14 14:37:40.63	23.39	20.35	-34.1	-35.0	24.3	0.00e+00	122	28	0	597688320	42	5578
2026-01-14 14:37:41.64	23.42	20.48	-34.1	-35.0	24.3	0.00e+00	120	28	0	600834048	42	5558
2026-01-14 14:37:42.65	23.44	20.61	-34.1	-34.9	24.4	0.00e+00	123	29	0	603979776	42	5524
2026-01-14 14:37:43.67	23.46	20.75	-34.0	-34.9	24.5	0.00e+00	123	29	0	607125504	42	5480
2026-01-14 14:37:44.67	23.49	20.88	-33.9	-34.7	24.6	0.00e+00	123	29	0	610271232	42	5396
2026-01-14 14:37:45.68	23.51	21.02	-33.9	-34.8	24.6	0.00e+00	123	29	0	613416960	42	5426
2026-01-14 14:37:46.69	23.53	21.16	-33.9	-34.7	24.5	0.00e+00	123	28	0	616562688	42	5402
2026-01-14 14:37:47.70	23.56	21.29	-33.8	-34.6	24.7	0.00e+00	123	29	0	619708416	40	5983
2026-01-14 14:37:48.71	23.58	21.43	-33.7	-34.6	24.7	0.00e+00	122	28	0	622854144	40	5955
2026-01-14 14:37:49.72	23.61	21.57	-33.7	-34.6	24.7	0.00e+00	122	29	0	625999872	40	5941
2026-01-14 14:37:50.74	23.63	21.71	-33.6	-34.5	24.8	0.00e+00	123	28	0	629145600	40	5904
2026-01-14 14:37:51.75	23.66	21.85	-33.5	-34.3	24.9	0.00e+00	122	28	0	632291328	40	5787
2026-01-14 14:37:52.76	23.68	21.99	-33.5	-34.4	24.9	0.00e+00	120	28	0	635437056	40	5815
2026-01-14 14:37:53.77	23.71	22.14	-33.5	-34.4	24.9	0.00e+00	122	28	0	638582784	40	5810
2026-01-14 14:37:54.78	23.73	22.28	-33.4	-34.2	25.0	0.00e+00	123	28	0	641728512	40	5707
2026-01-14 14:37:55.79	23.76	22.42	-33.2	-34.1	25.1	0.00e+00	118	29	0	644874240	40	5605
2026-01-14 14:37:56.80	23.78	22.57	-33.2	-34.1	25.0	0.00e+00	122	29	0	648019968	40	5609
2026-01-14 14:37:57.81	23.81	22.71	-33.3	-34.1	25.0	0.00e+00	120	28	0	651165696	40	5656
2026-01-14 14:37:58.82	23.83	22.86	-33.2	-34.0	25.1	0.00e+00	123	29	0	654311424	40	5594
2026-01-14 14:37:59.83	23.86	23.01	-33.1	-34.0	25.1	0.00e+00	123	29	0	657457152	40	5543
2026-01-14 14:38:00.84	23.89	23.15	-33.1	-34.0	25.1	0.00e+00	122	29	0	660602880	40	5541
2026-01-14 14:38:01.85	23.91	23.30	-33.1	-34.0	25.1	0.00e+00	122	29	0	663748608	40	5563
2026-01-14 14:38:02.86	23.94	23.45	-33.2	-34.0	25.1	0.00e+00	123	29	0	666894336	40	5585
2026-01-14 14:38:03.87	23.97	23.60	-33.0	-33.9	25.2	0.00e+00	123	29	0	670040064	40	5480
2026-01-14 14:38:04.88	24.00	23.75	-33.2	-34.1	24.9	0.00e+00	123	29	0	673185792	40	5602
2026-01-14 14:38:05.89	24.02	23.91	-33.1	-34.0	25.1	0.00e+00	122	28	0	676331520	40	5534
2026-01-14 14:38:06.90	24.05	24.06	-33.0	-33.9	25.1	0.00e+00	122	29	0	679477248	40	5481
2026-01-14 14:38:07.91	24.08	24.21	-33.1	-34.0	25.0	0.00e+00	122	28	0	682622976	40	5567
2026-01-14 14:38:08.92	24.11	24.37	-33.1	-33.9	25.1	0.00e+00	123	29	0	685768704	40	5521
2026-01-14 14:38:09.93	24.14	24.52	-33.2	-34.0	25.1	0.00e+00	122	29	0	688914432	40	5590
2026-01-14 14:38:10.94	24.16	24.68	-33.2	-34.1	25.0	0.00e+00	123	29	0	692060160	40	5611
2026-01-14 14:38:11.95	24.19	24.84	-33.2	-34.1	25.0	0.00e+00	122	28	0	695205888	40	5630
2026-01-14 14:38:12.96	24.22	25.00	-33.3	-34.2	25.0	0.00e+00	120	29	0	698351616	40	5664
2026-01-14 14:38:13.97	24.25	25.16	-33.4	-34.3	25.0	0.00e+00	123	29	0	701497344	40	5735
2026-01-14 14:38:14.98	24.28	25.32	-33.5	-34.4	24.9	0.00e+00	120	29	0	704643072	40	5806
2026-01-14 14:38:15.99	24.31	25.48	-33.5	-34.4	24.9	0.00e+00	122	28	0	708837376	40	5812
2026-01-14 14:38:17.00	24.34	25.64	-33.5	-34.4	24.8	0.00e+00	120	28	0	710934528	40	5815
2026-01-14 14:38:18.01	24.37	25.80	-33.7	-34.6	24.7	0.00e+00	123	29	0	714080256	40	5930
2026-01-14 14:38:19.02	24.40	25.97	-33.6	-34.5	24.7	0.00e+00	123	29	0	717225984	40	5896
2026-01-14 14:38:20.02	24.43	26.13	-33.7	-34.5	24.7	0.00e+00	123	29	0	720371712	40	5915
2026-01-14 14:38:21.03	24.47	26.30	-33.8	-34.7	24.7	0.00e+00	120	29	0	724566016	40	6013
2026-01-14 14:38:22.04	24.50	26.46	-33.8	-34.7	24.6	0.00e+00	123	29	0	727711744	40	6006
2026-01-14 14:38:23.05	24.53	26.63	-33.8	-34.7	24.7	0.00e+00	122	29	0	730857472	40	5996
2026-01-14 14:38:24.06	24.56	26.80	-33.9	-34.8	24.6	0.00e+00	123	29	0	734003200	40	6110
2026-01-14 14:38:25.07	24.59	26.97	-34.0	-34.8	24.6	0.00e+00	123	28	0	736100352	40	6129
2026-01-14 14:38:26.08	24.63	27.15	-34.0	-34.8	24.6	0.00e+00	123	29	0	739246080	40	6129
2026-01-14 14:38:27.09	24.66	27.32	-34.1	-35.0	24.4	0.00e+00	120	29	0	743440384	40	6236
2026-01-14 14:38:28.10	24.69	27.49	-34.2	-35.0	24.5	0.00e+00	122	29	0	746586112	40	6272
2026-01-14 14:38:29.11	24.73	27.67	-34.4	-35.3	24.2	0.00e+00	123	29	0	749731840	40	6452
2026-01-14 14:38:30.12	24.76	27.84	-34.5	-35.4	24.2	0.00e+00	123	29	0	752877568	40	6506
2026-01-14 14:38:31.13	24.80	28.02	-34.5	-35.4	24.1	0.00e+00	122	29	0	756023296	40	6562
2026-01-14 14:38:32.14	24.83	28.20	-34.7	-35.6	24.0	0.00e+00	123	29	0	759169024	40	6681
2026-01-14 14:38:33.15	24.87	28.38	-34.8	-35.8	23.9	0.00e+00	120	28	0	762314752	42	6073
2026-01-14 14:38:34.16	24.90	28.56	-34.8	-35.7	23.9	0.00e+00	123	29	0	765460480	42	6042
2026-01-14 14:38:35.16	24.94	28.74	-34.8	-35.7	23.9	0.00e+00	122	28	0	768606208	42	6016
2026-01-14 14:38:36.18	24.97	28.92	-35.0	-35.9	23.8	0.00e+00	123	29	0	771751936	42	6158
2026-01-14 14:38:37.19	25.01	29.11	-35.0	-35.9	23.7	0.00e+00	122	29	0	774897664	42	6190
2026-01-14 14:38:38.20	25.05	29.29	-35.0	-35.9	23.6	0.00e+00	122	29	0	778043392	42	6197
2026-01-14 14:38:39.20	25.09	29.48	-35.1	-36.0	23.7	0.00e+00	123	29	0	781189120	42	6243
2026-01-14 14:38:40.21	25.12	29.67	-35.0	-36.0	23.7	0.00e+00	122	29	0	784334848	42	6214
2026-01-14 14:38:41.23	25.16	29.86	-35.0	-35.9	23.7	0.00e+00	123	29	0	787480576	42	6156
2026-01-14 14:38:42.23	25.20	30.05	-34.8	-35.7	23.8	0.00e+00	123	29	0	790626304	42	6061
2026-01-14 14:38:43.24	25.24	30.24	-34.3	-35.2	24.3	0.00e+00	123	28	0	793772032	42	5700
2026-01-14 14:38:44.25	25.28	30.43	-34.2	-35.1	24.4	0.00e+00	123	29	0	796917760	42	5609
2026-01-14 14:38:45.26	25.32	30.62	-34.1	-35.0	24.4	0.00e+00	123	28	0	800063488	42	5569
2026-01-14 14:38:46.27	25.36	30.82	-33.9	-34.8	24.6	0.00e+00	120	28	0	803209216	42	5458
2026-01-14 14:38:47.28	25.40	31.02	-33.9	-34.7	24.7	0.00e+00	123	28	0	806354944	42	5390
2026-01-14 14:38:48.29	25.44	31.21	-33.8	-34.7	24.7	0.00e+00	122	29	0	809500672	42	5379
2026-01-14 14:38:49.30	25.48	31.41	-33.9	-34.8	24.7	0.00e+00	122	29	0	812646400	42	5410
2026-01-14 14:38:50.31	25.52	31.61	-33.9	-34.8	24.6	0.00e+00	120	29	0	815792128	42	5432
2026-01-14 14:38:51.32	25.57	31.82	-33.6	-34.5	24.8	0.00e+00	123	29	0	818937856	40	5877
2026-01-14 14:38:52.33	25.61	32.02	-33.8	-34.7	24.6	0.00e+00	122	29	0	822083584	40	6011
2026-01-14 14:38:53.34	25.65	32.23	-33.8	-34.7	24.7	0.00e+00	122	29	0	825229312	40	6007
2026-01-14 14:38:54.35	25.70	32.43	-34.0	-34.9	24.6	0.00e+00	123	29	0	828375040	40	6150
2026-01-14 14:38:55.36	25.74	32.64	-34.0	-34.9	24.6	0.00e+00	123	29	0	831520768	40	6137
2026-01-14 14:38:56.37	25.79	32.85	-34.1	-35.0	24.6	0.00e+00	123	29	0	834666496	40	6250
2026-01-14 14:38:57.38	25.83	33.06	-34.2	-35.1	24.4	0.00e+00	122	29	0	837812224	40	6296
2026-01-14 14:38:58.39	25.88	33.27	-34.2	-35.1	24.4	0.00e+00	123	29	0	840957952	40	6322
2026-01-14 14:38:59.40	25.92	33.49	-34.4	-35.3	24.3	0.00e+00	123	29	0	844103680	40	6426
2026-01-14 14:39:00.41	25.97	33.70	-34.4	-35.3	24.3	0.00e+00	121	29	0	847249408	40	6482
2026-01-14 14:39:01.42	26.02	33.92	-34.5	-35.4	24.3	0.00e+00	122	29	0	850395136	40	6563
2026-01-14 14:39:02.42	26.07	34.13	-34.8	-35.7	24.1	0.00e+00	122	29	0	853540864	40	6749
2026-01-14 14:39:03.44	26.12	34.35	-34.8	-35.7	24.1	0.00e+00	123	29	0	856686592	42	6061
2026-01-14 14:39:04.44	26.17	34.57	-35.0	-35.9	23.9	0.00e+00	120	29	0	859832320	42	6200
2026-01-14 14:39:05.45	26.22	34.80	-35.2	-36.1	23.8	0.00e+00	123	29	0	862978048	42	6313
2026-01-14 14:39:06.46	26.27	35.02	-35.3	-36.2	23.6	0.00e+00	122	29	0	866123776	42	6406
2026-01-14 14:39:07.47	26.32	35.25	-35.4	-36.4	23.6	0.00e+00	120	29	0	869269504	42	6502
2026-01-14 14:39:08.48	26.37	35.47	-35.7	-36.6	23.3	0.00e+00	123	29	0	872415232	42	6704
2026-01-14 14:39:09.49	26.42	35.70	-36.0	-36.9	23.1	0.00e+00	120	29	0	875560960	44	6169
2026-01-14 14:39:10.50	26.48	35.93	-36.3	-37.3	22.8	0.00e+00	123	29	0	878706688	44	6465
2026-01-14 14:39:11.51	26.53	36.17	-36.4	-37.4	22.6	0.00e+00	121	29	0	881852416	44	6540
2026-01-14 14:39:12.52	26.59	36.40	-36.7	-37.7	22.5	0.00e+00	122	29	0	884998144	44	6743
2026-01-14 14:39:13.53	26.64	36.64	-36.7	-37.7	22.4	0.00e+00	123	29	0	888143872	44	6750
2026-01-14 14:39:14.54	26.70	36.87	-36.7	-37.7	22.5	0.00e+00	120	29	0	891289600	44	6737
2026-01-14 14:39:15.55	26.75	37.11	-36.6	-37.6	22.3	0.00e+00	123	29	0	894435328	44	6699
2026-01-14 14:39:16.56	26.81	37.35	-36.5	-37.5	22.4	0.00e+00	122	29	0	897581056	44	6637
2026-01-14 14:39:17.57	26.87	37.60	-36.3	-37.3	22.6	0.00e+00	122	29	0	900726784	44	6477
2026-01-14 14:39:18.58	26.93	37.84	-36.3	-37.3	22.7	0.00e+00	120	29	0	903872512	44	6466
2026-01-14 14:39:19.59	26.99	38.09	-36.2	-37.2	22.6	0.00e+00	122	28	0	907018240	44	6370
2026-01-14 14:39:20.60	27.05	38.34	-36.1	-37.1	22.9	0.00e+00	120	29	0	910163968	44	6279
2026-01-14 14:39:21.61	27.11	38.59	-36.0	-36.9	22.9	0.00e+00	122	29	0	913309696	44	6202
2026-01-14 14:39:22.62	27.18	38.84	-36.0	-37.0	22.9	0.00e+00	123	29	0	916455424	44	6226
2026-01-14 14:39:23.64	27.24	39.09	-36.1	-37.1	22.7	0.00e+00	120	29	0	919601152	44	6281
2026-01-14 14:39:24.65	27.31	39.35	-36.3	-37.3	22.5	0.00e+00	122	29	0	922746880	44	6448
2026-01-14 14:39:25.66	27.37	39.61	-36.4	-37.5	22.2	0.00e+00	120	29	0	925892608	44	6577
2026-01-14 14:39:26.67	27.44	39.86	-36.6	-37.7	22.1	0.00e+00	120	29	0	929038336	44	6729
2026-01-14 14:39:27.68	27.51	40.13	-36.7	-37.7	22.0	0.00e+00	122	29	0	932184064	44	6801
2026-01-14 14:39:28.69	27.58	40.39	-36.6	-37.7	22.2	0.00e+00	120	29	0	935329792	44	6752
2026-01-14 14:39:29.70	27.65	40.65	-36.8	-37.8	22.0	0.00e+00	122	28	0	938475520	46	6134
2026-01-14 14:39:30.71	27.72	40.92	-36.9	-38.0	22.0	0.00e+00	123	29	0	941621248	46	6217
2026-01-14 14:39:31.72	27.79	41.19	-36.9	-38.0	22.0	0.00e+00	123	29	0	944766976	46	6222
2026-01-14 14:39:32.73	27.86	41.46	-37.0	-38.0	22.0	0.00e+00	121	29	0	947912704	46	6258
2026-01-14 14:39:33.74	27.94	41.73	-37.1	-38.2	21.9	0.00e+00	123	29	0	951058432	46	6377
2026-01-14 14:39:34.75	28.01	42.01	-37.3	-38.3	21.9	0.00e+00	123	29	0	954204160	46	6460
2026-01-14 14:39:35.76	28.09	42.28	-37.5	-38.5	21.5	0.00e+00	123	29	0	957349888	46	6633
2026-01-14 14:39:36.77	28.17	42.56	-37.6	-38.7	21.5	0.00e+00	122	29	0	960495616	46	6761
2026-01-14 14:39:37.78	28.25	42.84	-37.8	-38.9	21.2	0.00e+00	122	29	0	963641344	48	6188
2026-01-14 14:39:38.79	28.33	43.13	-37.9	-39.0	21.1	0.00e+00	123	29	0	966787072	48	6224
2026-01-14 14:39:39.79	28.41	43.41	-38.0	-39.1	20.9	0.00e+00	123	29	0	969932800	48	6317
2026-01-14 14:39:40.80	28.49	43.69	-37.8	-39.0	21.1	0.00e+00	122	29	0	973078528	48	6206
2026-01-14 14:39:41.81	28.58	43.98	-37.8	-38.9	21.3	0.00e+00	123	29	0	976224256	48	6173
2026-01-14 14:39:42.82	28.67	44.27	-37.7	-38.9	21.5	0.00e+00	120	29	0	979369984	48	6136
2026-01-14 14:39:43.83	28.75	44.57	-37.5	-38.6	21.5	0.00e+00	122	29	0	982515712	48	5944
2026-01-14 14:39:44.84	28.84	44.86	-37.4	-38.5	21.7	0.00e+00	120	29	0	985661440	48	5894
2026-01-14 14:39:45.85	28.94	45.16	-37.7	-38.7	21.5	0.00e+00	123	29	0	988807168	48	6049
2026-01-14 14:39:46.86	29.03	45.46	-37.8	-38.9	21.4	0.00e+00	122	29	0	991952896	48	6171
2026-01-14 14:39:47.87	29.12	45.76	-38.0	-39.1	21.2	0.00e+00	122	29	0	995098624	48	6306
2026-01-14 14:39:48.88	29.22	46.07	-37.7	-38.8	21.5	0.00e+00	122	29	0	998244352	48	6098
2026-01-14 14:39:49.89	29.32	46.37	-37.6	-38.7	21.7	0.00e+00	122	29	0	1001390080	48	6046
2026-01-14 14:39:50.90	29.42	46.68	-37.6	-38.7	21.6	0.00e+00	123	29	0	1004535808	48	6006
2026-01-14 14:39:51.91	29.52	46.99	-37.5	-38.6	21.8	0.00e+00	123	29	0	1007681536	48	5933
2026-01-14 14:39:52.92	29.62	47.30	-37.3	-38.4	21.8	0.00e+00	122	29	0	1010827264	48	5797
2026-01-14 14:39:53.92	29.73	47.62	-36.9	-37.9	22.3	0.00e+00	123	29	0	1013972992	48	5481
2026-01-14 14:39:54.94	29.84	47.94	-36.5	-37.5	22.6	0.00e+00	123	29	0	1017118720	46	5898
2026-01-14 14:39:55.94	29.95	48.25	-36.5	-37.5	22.7	0.00e+00	122	29	0	1020264448	46	5879
2026-01-14 14:39:56.95	30.06	48.58	-36.0	-37.0	23.0	0.00e+00	123	29	0	1023410176	46	5550
2026-01-14 14:39:57.96	30.17	48.90	-35.9	-36.9	23.3	0.00e+00	120	29	0	1026555904	46	5483
2026-01-14 14:39:58.97	30.29	49.23	-35.7	-36.7	23.2	0.00e+00	122	29	0	1029701632	46	5370
2026-01-14 14:39:59.98	30.41	49.56	-35.9	-36.9	23.0	0.00e+00	120	29	0	1032847360	44	6158
2026-01-14 14:40:00.99	30.53	49.89	-36.0	-37.0	23.0	0.00e+00	120	29	0	1035993088	44	6222
2026-01-14 14:40:02.00	30.66	50.22	-35.8	-36.8	23.2	0.00e+00	123	29	0	1039138816	44	6078
2026-01-14 14:40:03.01	30.78	50.56	-35.7	-36.6	23.4	0.00e+00	122	29	0	1042284544	44	5989
2026-01-14 14:40:04.02	30.91	50.89	-35.9	-36.9	23.2	0.00e+00	122	29	0	1045430272	44	6159
2026-01-14 14:40:05.03	31.05	51.23	-35.8	-36.7	23.2	0.00e+00	120	29	0	1048576000	44	6042
2026-01-14 14:40:06.04	31.18	51.58	-35.8	-36.8	22.8	0.00e+00	122	29	0	1051721728	44	6087
2026-01-14 14:40:07.05	31.32	51.92	-35.8	-36.8	22.8	0.00e+00	123	29	0	1054867456	44	6089
2026-01-14 14:40:08.06	31.47	52.27	-35.5	-36.5	23.2	0.00e+00	120	29	0	1058013184	44	5897
2026-01-14 14:40:09.07	31.61	52.62	-35.5	-36.5	23.4	0.00e+00	123	29	0	1061158912	44	5867
2026-01-14 14:40:10.07	31.76	52.97	-35.4	-36.4	23.4	0.00e+00	123	29	0	1064304640	44	5817
2026-01-14 14:40:11.08	31.91	53.32	-35.6	-36.6	23.0	0.00e+00	123	29	0	1067450368	44	5933
2026-01-14 14:40:12.09	32.07	53.68	-35.6	-36.5	22.9	0.00e+00	123	29	0	1071644672	44	5912
2026-01-14 14:40:13.10	32.23	54.04	-35.5	-36.5	23.0	0.00e+00	123	29	0	1074790400	44	5881
2026-01-14 14:40:14.11	32.39	54.40	-35.6	-36.6	23.2	0.00e+00	121	29	0	1076887552	44	5971
2026-01-14 14:40:15.12	32.56	54.76	-35.1	-36.0	23.5	0.00e+00	123	29	0	1080033280	44	5563
2026-01-14 14:40:16.13	32.73	55.13	-35.0	-36.0	23.6	0.00e+00	123	29	0	1083179008	44	5540
2026-01-14 14:40:17.14	32.91	55.50	-34.7	-35.6	24.0	0.00e+00	123	29	0	1087373312	42	5960
2026-01-14 14:40:18.15	33.09	55.87	-34.8	-35.8	23.9	0.00e+00	122	29	0	1090519040	42	6079
2026-01-14 14:40:19.16	33.27	56.24	-35.0	-35.9	23.7	0.00e+00	123	29	0	1093664768	42	6190
2026-01-14 14:40:20.17	33.47	56.61	-35.0	-35.9	23.5	0.00e+00	123	29	0	1096810496	42	6183
2026-01-14 14:40:21.18	33.66	56.99	-35.0	-36.0	23.3	0.00e+00	122	29	0	1098907648	42	6240
2026-01-14 14:40:22.19	33.86	57.37	-34.8	-35.7	23.5	0.00e+00	120	29	0	1103101952	42	6039
2026-01-14 14:40:23.20	34.07	57.75	-34.6	-35.6	23.8	0.00e+00	120	29	0	1106247680	42	5938
2026-01-14 14:40:24.21	34.28	58.14	-34.7	-35.6	24.1	0.00e+00	123	29	0	1109393408	42	5963
2026-01-14 14:40:25.22	34.50	58.52	-34.2	-35.1	24.5	0.00e+00	120	29	0	1112539136	42	5613
2026-01-14 14:40:26.23	34.73	58.91	-34.5	-35.4	24.2	0.00e+00	123	29	0	1115684864	42	5800
2026-01-14 14:40:27.24	34.96	59.30	-34.5	-35.4	24.3	0.00e+00	123	29	0	1118830592	42	5848
2026-01-14 14:40:28.24	35.20	59.69	-34.2	-35.2	24.2	0.00e+00	123	29	0	1121976320	42	5661
2026-01-14 14:40:29.25	35.44	60.08	-34.1	-35.1	24.3	0.00e+00	123	29	0	1125122048	42	5597
2026-01-14 14:40:30.26	35.70	60.48	-33.7	-34.6	24.5	0.00e+00	122	29	0	1128267776	40	5952
2026-01-14 14:40:31.27	35.96	60.88	-33.6	-34.5	24.5	0.00e+00	121	29	0	1131413504	40	5909
2026-01-14 14:40:32.28	36.23	61.28	-33.5	-34.3	24.7	0.00e+00	125	28	0	1134559232	40	5782
2026-01-14 14:40:33.29	36.51	61.68	-33.3	-34.2	24.7	0.00e+00	122	29	0	1137704960	40	5666
2026-01-14 14:40:34.30	36.79	62.09	-33.2	-34.1	24.8	0.00e+00	121	29	0	1140850688	40	5614
2026-01-14 14:40:35.31	37.09	62.49	-33.2	-34.1	24.7	0.00e+00	123	29	0	1143996416	40	5625
2026-01-14 14:40:36.32	37.40	62.90	-33.3	-34.1	24.9	0.00e+00	123	29	0	1147142144	40	5651
2026-01-14 14:40:37.33	37.72	63.31	-33.2	-34.1	24.8	0.00e+00	123	29	0	1150287872	40	5619
2026-01-14 14:40:38.34	38.05	63.72	-33.3	-34.2	24.8	0.00e+00	123	29	0	1153433600	40	5686
2026-01-14 14:40:39.35	38.39	64.13	-33.0	-33.9	25.1	0.00e+00	122	29	0	1156579328	40	5485
2026-01-14 14:40:40.36	38.74	64.55	-32.9	-33.8	25.2	0.00e+00	120	29	0	1159725056	40	5428
2026-01-14 14:40:41.37	39.11	64.96	-32.6	-33.5	25.3	0.00e+00	123	29	0	1162870784	40	5246
2026-01-14 14:40:42.38	39.49	65.38	-32.5	-33.3	25.2	0.00e+00	123	29	0	1166016512	38	5765
2026-01-14 14:40:43.39	39.88	65.80	-32.8	-33.7	25.1	0.00e+00	123	29	0	1169162240	38	6015
2026-01-14 14:40:44.40	40.29	66.22	-32.8	-33.6	25.0	0.00e+00	122	29	0	1172307968	38	5985
2026-01-14 14:40:45.41	40.71	66.64	-32.6	-33.5	25.3	0.00e+00	122	29	0	1175453696	38	5896
2026-01-14 14:40:46.42	41.16	67.06	-32.9	-33.7	25.3	0.00e+00	123	29	0	1178599424	38	6042
2026-01-14 14:40:47.43	41.62	67.48	-33.0	-33.8	25.2	0.00e+00	122	29	0	1181745152	38	6122
2026-01-14 14:40:48.44	42.10	67.90	-32.9	-33.7	25.5	0.00e+00	123	29	0	1184890880	38	6035
2026-01-14 14:40:49.45	42.60	68.33	-32.7	-33.6	25.5	0.00e+00	123	29	0	1188036608	38	5943
2026-01-14 14:40:50.46	43.12	68.75	-32.9	-33.7	25.0	0.00e+00	122	29	0	1191182336	38	6056
2026-01-14 14:40:51.47	43.66	69.18	-32.8	-33.7	24.9	0.00e+00	122	29	0	1194328064	38	6016
2026-01-14 14:40:52.48	44.23	69.60	-32.7	-33.6	25.1	0.00e+00	122	29	0	1197473792	38	5983
2026-01-14 14:40:53.49	44.82	70.02	-32.7	-33.6	25.2	0.00e+00	123	29	0	1200619520	38	5960
2026-01-14 14:40:54.50	45.44	70.45	-32.5	-33.3	25.5	0.00e+00	122	29	0	1203765248	38	5773
2026-01-14 14:40:55.51	46.09	70.87	-32.4	-33.3	25.3	0.00e+00	122	29	0	1206910976	38	5728
2026-01-14 14:40:56.52	46.78	71.30	-32.8	-33.7	24.9	0.00e+00	122	29	0	1210056704	38	6009
2026-01-14 14:40:57.53	47.49	71.72	-33.0	-33.9	25.0	0.00e+00	123	29	0	1213202432	38	6186
2026-01-14 14:40:58.54	48.24	72.14	-33.2	-34.1	24.6	0.00e+00	123	29	0	1216348160	38	6306
2026-01-14 14:40:59.54	49.02	72.56	-33.4	-34.3	24.8	0.00e+00	123	29	0	1219493888	38	6475
2026-01-14 14:41:00.55	49.85	72.97	-33.3	-34.2	25.1	0.00e+00	122	29	0	1222639616	38	6389
2026-01-14 14:41:01.56	50.72	73.39	-33.0	-33.9	25.4	0.00e+00	123	29	0	1225785344	38	6161
2026-01-14 14:41:02.57	51.64	73.80	-32.8	-33.6	25.5	0.00e+00	120	29	0	1228931072	38	5991
2026-01-14 14:41:03.58	52.61	74.22	-32.9	-33.8	25.4	0.00e+00	120	29	0	1232076800	38	6100
2026-01-14 14:41:04.59	53.64	74.62	-32.9	-33.8	25.4	0.00e+00	123	29	0	1235222528	38	6074
2026-01-14 14:41:05.60	54.72	75.03	-33.0	-33.9	25.4	0.00e+00	123	29	0	1238368256	38	6160
2026-01-14 14:41:06.61	55.86	75.43	-32.3	-33.1	25.8	0.00e+00	123	29	0	1241513984	38	5656
2026-01-14 14:41:07.62	57.07	75.82	-32.3	-33.1	25.9	0.00e+00	122	29	0	1244659712	38	5637
2026-01-14 14:41:08.63	58.35	76.21	-32.6	-33.5	25.7	0.00e+00	120	29	0	1247805440	38	5861
2026-01-14 14:41:09.64	59.71	76.60	-32.8	-33.6	25.6	0.00e+00	123	29	0	1250951168	38	5957
2026-01-14 14:41:10.65	61.15	76.98	-32.9	-33.7	25.5	0.00e+00	123	29	0	1254096896	38	6063
2026-01-14 14:41:11.66	62.67	77.35	-32.8	-33.6	25.6	0.00e+00	123	29	0	1257242624	38	5982
2026-01-14 14:41:12.67	64.29	77.71	-32.6	-33.4	25.6	0.00e+00	123	29	0	1260388352	38	5844
2026-01-14 14:41:13.68	66.01	78.06	-32.3	-33.2	25.8	0.00e+00	123	29	0	1263534080	38	5675
2026-01-14 14:41:14.69	67.83	78.40	-32.6	-33.4	25.7	0.00e+00	122	29	0	1266679808	38	5824
2026-01-14 14:41:15.69	69.75	78.73	-32.3	-33.1	25.8	0.00e+00	123	29	0	1269825536	38	5638
2026-01-14 14:41:16.70	71.80	79.05	-32.3	-33.2	25.6	0.00e+00	123	29	0	1272971264	38	5665
2026-01-14 14:41:17.71	73.97	79.35	-32.0	-32.8	25.8	0.00e+00	120	29	0	1276116992	38	5431
2026-01-14 14:41:18.72	76.27	79.64	-32.0	-32.9	25.5	0.00e+00	123	29	0	1279262720	38	5483
2026-01-14 14:41:19.73	78.71	79.92	-32.3	-33.2	25.5	0.00e+00	120	29	0	1282408448	38	5666
2026-01-14 14:41:20.74	81.27	80.17	-32.6	-33.4	25.5	0.00e+00	122	29	0	1285554176	38	5835
2026-01-14 14:41:21.75	83.96	80.40	-33.0	-33.8	25.2	0.00e+00	121	29	0	1288699904	38	6129
2026-01-14 14:41:22.76	86.79	80.61	-32.9	-33.7	25.2	0.00e+00	123	29	0	1291845632	38	6063
2026-01-14 14:41:23.77	89.74	80.80	-33.0	-33.8	25.2	0.00e+00	123	29	0	1294991360	38	6122
2026-01-14 14:41:24.78	92.81	80.97	-32.6	-33.5	25.5	0.00e+00	122	29	0	1298137088	38	5868
2026-01-14 14:41:25.79	95.98	81.11	-32.7	-33.5	25.4	0.00e+00	123	29	0	1301282816	38	5926
2026-01-14 14:41:26.79	99.21	81.21	-32.7	-33.6	25.4	0.00e+00	122	29	0	1304428544	38	5931
2026-01-14 14:41:27.80	102.55	81.30	-32.9	-33.7	25.4	0.00e+00	121	29	0	1307574272	38	6040
2026-01-14 14:41:28.81	105.94	81.35	-32.9	-33.7	25.4	0.00e+00	123	29	0	1310720000	38	6011
2026-01-14 14:41:29.82	109.35	81.37	-32.9	-33.8	25.3	0.00e+00	123	29	0	1313865728	38	6096
2026-01-14 14:41:30.83	112.78	81.36	-32.5	-33.3	25.8	0.00e+00	122	29	0	1317011456	38	5749
2026-01-14 14:41:31.84	116.18	81.32	-32.3	-33.2	25.7	0.00e+00	120	29	0	1320157184	38	5686
2026-01-14 14:41:32.85	119.55	81.26	-32.7	-33.6	25.5	0.00e+00	122	29	0	1323302912	38	5942
2026-01-14 14:41:33.86	122.85	81.16	-32.8	-33.6	25.6	0.00e+00	122	29	0	1326448640	38	5984
2026-01-14 14:41:34.87	126.06	81.03	-32.3	-33.1	25.9	0.00e+00	123	29	0	1329594368	38	5634
2026-01-14 14:41:35.88	129.18	80.88	-32.5	-33.3	25.5	0.00e+00	123	29	0	1332740096	38	5764
2026-01-14 14:41:36.89	132.18	80.70	-32.7	-33.5	25.5	0.00e+00	123	29	0	1335885824	38	5926
2026-01-14 14:41:37.90	135.07	80.50	-32.4	-33.2	25.8	0.00e+00	122	29	0	1339031552	38	5697
2026-01-14 14:41:38.91	137.82	80.28	-32.5	-33.3	25.7	0.00e+00	122	29	0	1342177280	38	5784
2026-01-14 14:41:39.92	140.45	80.03	-33.1	-33.9	25.1	0.00e+00	120	29	0	1345323008	38	6199
2026-01-14 14:41:40.93	142.94	79.77	-32.8	-33.7	25.5	0.00e+00	123	29	0	1348468736	38	6004
2026-01-14 14:41:41.93	145.27	79.49	-32.4	-33.2	25.7	0.00e+00	121	29	0	1351614464	38	5716
2026-01-14 14:41:42.94	147.51	79.19	-32.2	-33.0	25.8	0.00e+00	123	29	0	1354760192	38	5592
2026-01-14 14:41:43.95	149.61	78.88	-32.4	-33.2	25.8	0.00e+00	123	29	0	1357905920	38	5697
2026-01-14 14:41:44.96	151.60	78.55	-32.0	-32.8	26.1	0.00e+00	123	29	0	1361051648	38	5453
2026-01-14 14:41:45.97	153.48	78.21	-32.0	-32.8	26.0	0.00e+00	120	29	0	1364197376	38	5465
2026-01-14 14:41:46.98	155.24	77.87	-31.9	-32.8	25.6	0.00e+00	122	29	0	1367343104	38	5410
2026-01-14 14:41:47.99	156.91	77.51	-31.9	-32.8	25.8	0.00e+00	120	29	0	1370488832	38	5419
2026-01-14 14:41:49.00	158.47	77.14	-31.8	-32.6	26.0	0.00e+00	123	29	0	1373634560	36	5954
2026-01-14 14:41:50.01	159.95	76.77	-32.3	-33.2	25.4	0.00e+00	123	29	0	1376780288	36	6388
2026-01-14 14:41:51.02	161.34	76.38	-33.1	-34.0	24.7	0.00e+00	123	29	0	1379926016	38	6256
2026-01-14 14:41:52.03	162.66	75.99	-33.1	-34.0	24.9	0.00e+00	120	29	0	1383071744	38	6265
2026-01-14 14:41:53.04	163.90	75.60	-33.1	-33.9	24.9	0.00e+00	122	29	0	1386217472	38	6196
2026-01-14 14:41:54.05	165.07	75.20	-33.2	-34.1	24.7	0.00e+00	123	29	0	1389363200	38	6343
2026-01-14 14:41:55.06	166.18	74.80	-33.0	-33.8	25.4	0.00e+00	122	29	0	1392508928	38	6122
2026-01-14 14:41:56.07	167.23	74.39	-32.7	-33.5	25.6	0.00e+00	123	29	0	1395654656	38	5886
2026-01-14 14:41:57.08	168.22	73.98	-32.6	-33.5	25.6	0.00e+00	123	29	0	1398800384	38	5862
2026-01-14 14:41:58.09	169.16	73.57	-33.5	-34.4	24.8	0.00e+00	120	29	0	1401946112	38	6511
2026-01-14 14:41:59.10	170.06	73.15	-33.2	-34.1	25.0	0.00e+00	120	29	0	1405091840	38	6319
2026-01-14 14:42:00.11	170.91	72.73	-33.0	-33.8	25.3	0.00e+00	123	29	0	1408237568	38	6099
2026-01-14 14:42:01.12	171.71	72.31	-32.7	-33.5	25.4	0.00e+00	123	29	0	1411383296	38	5902
2026-01-14 14:42:02.13	172.48	71.89	-32.2	-33.1	26.0	0.00e+00	123	29	0	1414529024	38	5597
2026-01-14 14:42:03.14	173.21	71.47	-32.1	-32.9	26.0	0.00e+00	122	29	0	1417674752	38	5524
2026-01-14 14:42:04.15	173.91	71.05	-32.4	-33.2	25.8	0.00e+00	123	29	0	1420820480	38	5718
2026-01-14 14:42:05.16	174.57	70.62	-32.5	-33.4	25.6	0.00e+00	123	29	0	1423966208	38	5815
2026-01-14 14:42:06.17	175.21	70.20	-32.4	-33.3	24.7	0.00e+00	122	29	0	1427111936	38	5735
2026-01-14 14:42:07.18	175.81	69.77	-31.8	-32.6	25.7	0.00e+00	123	29	0	1430257664	38	5311
2026-01-14 14:42:08.19	176.39	69.35	-31.6	-32.3	26.2	0.00e+00	123	29	0	1434451968	36	5782
2026-01-14 14:42:09.20	176.94	68.92	-32.1	-32.9	26.0	0.00e+00	123	29	0	1437597696	36	6191
2026-01-14 14:42:10.21	177.48	68.49	-33.3	-34.2	25.2	0.00e+00	123	29	0	1439694848	38	6378
2026-01-14 14:42:11.22	177.98	68.07	-34.0	-34.9	24.6	0.00e+00	120	29	0	1442840576	40	6194
2026-01-14 14:42:12.23	178.47	67.65	-34.2	-35.1	24.2	0.00e+00	122	29	0	1445986304	40	6311
2026-01-14 14:42:13.24	178.94	67.22	-33.5	-34.4	24.3	0.00e+00	122	29	0	1450180608	40	5811
2026-01-14 14:42:14.25	179.39	66.80	-32.5	-33.4	25.2	0.00e+00	120	29	0	1453326336	38	5810
2026-01-14 14:42:15.26	179.82	66.38	-32.3	-33.1	25.7	0.00e+00	123	29	0	1456472064	38	5653
2026-01-14 14:42:16.27	180.24	65.96	-32.4	-33.2	25.6	0.00e+00	122	29	0	1459617792	38	5711
2026-01-14 14:42:17.28	180.64	65.54	-32.9	-33.8	24.9	0.00e+00	122	29	0	1461714944	38	6101
2026-01-14 14:42:18.28	181.02	65.12	-34.3	-35.2	24.0	0.00e+00	123	29	0	1465909248	40	6418
2026-01-14 14:42:19.29	181.39	64.71	-34.2	-35.2	24.5	0.00e+00	122	29	0	1469054976	40	6358
2026-01-14 14:42:20.31	181.76	64.29	-33.8	-34.6	24.7	0.00e+00	123	29	0	1472200704	40	5984
2026-01-14 14:42:21.31	182.10	63.88	-32.8	-33.6	25.5	0.00e+00	123	29	0	1475346432	40	5305
2026-01-14 14:42:22.32	182.43	63.46	-32.6	-33.4	25.5	0.00e+00	123	29	0	1478492160	38	5821
2026-01-14 14:42:23.33	182.76	63.05	-32.1	-32.9	25.8	0.00e+00	123	29	0	1481637888	38	5475
2026-01-14 14:42:24.34	183.07	62.64	-32.6	-33.5	25.6	0.00e+00	123	29	0	1484783616	38	5871
2026-01-14 14:42:25.35	183.37	62.24	-33.9	-34.8	24.7	0.00e+00	123	29	0	1487929344	40	6124
2026-01-14 14:42:26.36	183.66	61.83	-35.8	-36.8	23.1	0.00e+00	123	29	0	1491075072	42	6857
2026-01-14 14:42:27.37	183.94	61.43	-36.9	-38.1	22.1	0.00e+00	123	29	0	1494220800	46	6328
2026-01-14 14:42:28.37	184.22	61.03	-36.3	-37.5	22.5	0.00e+00	122	29	0	1497366528	46	5860
2026-01-14 14:42:29.39	184.48	60.62	-34.1	-35.0	24.6	0.00e+00	120	29	0	1500512256	42	5545
2026-01-14 14:42:30.39	184.74	60.23	-32.7	-33.6	25.7	0.00e+00	123	29	0	1503657984	40	5283
2026-01-14 14:42:31.40	184.99	59.83	-32.7	-33.5	25.7	0.00e+00	122	29	0	1506803712	38	5906
2026-01-14 14:42:32.41	185.23	59.44	-33.0	-33.8	25.3	0.00e+00	123	29	0	1509949440	38	6100
2026-01-14 14:42:33.42	185.46	59.05	-33.6	-34.5	25.0	0.00e+00	122	29	0	1513095168	38	6589
2026-01-14 14:42:34.43	185.69	58.66	-34.2	-35.1	24.4	0.00e+00	122	29	0	1516240896	40	6320
2026-01-14 14:42:35.44	185.91	58.27	-35.0	-35.9	24.0	0.00e+00	123	29	0	1519386624	42	6195
2026-01-14 14:42:36.45	186.13	57.88	-35.1	-36.0	23.8	0.00e+00	122	29	0	1522532352	42	6275
2026-01-14 14:42:37.46	186.34	57.50	-34.8	-35.8	23.3	0.00e+00	123	29	0	1525678080	42	6109
2026-01-14 14:42:38.47	186.54	57.12	-34.6	-35.6	23.3	0.00e+00	122	29	0	1528823808	42	5949
2026-01-14 14:42:39.48	186.74	56.74	-33.9	-34.9	23.9	0.00e+00	122	29	0	1531969536	42	5481
2026-01-14 14:42:40.49	186.94	56.36	-34.0	-34.9	24.5	0.00e+00	123	29	0	1535115264	42	5491
2026-01-14 14:42:41.50	187.12	55.98	-34.8	-35.7	24.0	0.00e+00	122	29	0	1538260992	42	6008
2026-01-14 14:42:42.51	187.31	55.61	-34.7	-35.7	23.4	0.00e+00	123	29	0	1541406720	42	6010
2026-01-14 14:42:43.52	187.49	55.24	-35.0	-36.0	23.5	0.00e+00	121	29	0	1544552448	42	6217
2026-01-14 14:42:44.53	187.66	54.87	-35.3	-36.3	23.6	0.00e+00	123	29	0	1547698176	42	6441
2026-01-14 14:42:45.53	187.83	54.51	-35.5	-36.4	23.6	0.00e+00	120	29	0	1550843904	42	6548
2026-01-14 14:42:46.54	187.99	54.15	-35.6	-36.6	23.5	0.00e+00	122	29	0	1553989632	42	6664
2026-01-14 14:42:47.55	188.15	53.79	-35.6	-36.6	23.3	0.00e+00	122	29	0	1557135360	42	6695
2026-01-14 14:42:48.56	188.31	53.43	-35.5	-36.5	22.9	0.00e+00	120	29	0	1560281088	42	6622
2026-01-14 14:42:49.57	188.47	53.07	-35.4	-36.4	22.7	0.00e+00	123	29	0	1563426816	42	6547
2026-01-14 14:42:50.58	188.62	52.72	-35.1	-36.0	23.1	0.00e+00	122	29	0	1566572544	42	6274
2026-01-14 14:42:51.59	188.76	52.37	-35.0	-35.9	23.7	0.00e+00	128	29	0	1569718272	42	6171
2026-01-14 14:42:52.60	188.91	52.02	-35.3	-36.1	23.8	0.00e+00	120	29	0	1572864000	42	6347
2026-01-14 14:42:53.61	189.05	51.67	-35.5	-36.5	23.5	0.00e+00	123	29	0	1576009728	42	6580
2026-01-14 14:42:54.62	189.18	51.32	-36.4	-37.4	22.6	0.00e+00	122	29	0	1579155456	44	6517
2026-01-14 14:42:55.63	189.32	50.98	-37.6	-38.7	21.5	0.00e+00	122	29	0	1582301184	46	6775
2026-01-14 14:42:56.64	189.45	50.64	-38.1	-39.3	20.9	0.00e+00	122	29	0	1585446912	48	6475
2026-01-14 14:42:57.65	189.58	50.30	-38.0	-39.1	21.1	0.00e+00	123	29	0	1588592640	48	6332
2026-01-14 14:42:58.66	189.70	49.97	-37.2	-38.2	22.0	0.00e+00	120	29	0	1591738368	48	5718
2026-01-14 14:42:59.66	189.83	49.64	-36.8	-37.8	22.3	0.00e+00	123	29	0	1594884096	48	5427
2026-01-14 14:43:00.68	189.95	49.31	-36.3	-37.3	22.7	0.00e+00	122	29	0	1598029824	46	5748
2026-01-14 14:43:01.69	190.07	48.98	-36.3	-37.4	22.3	0.00e+00	123	29	0	1601175552	46	5805
2026-01-14 14:43:02.69	190.18	48.65	-36.2	-37.2	22.3	0.00e+00	122	29	0	1604321280	46	5693
2026-01-14 14:43:03.70	190.29	48.33	-36.2	-37.3	22.0	0.00e+00	123	29	0	1607467008	46	5738
2026-01-14 14:43:04.71	190.40	48.01	-36.2	-37.2	22.4	0.00e+00	123	29	0	1610612736	46	5708
2026-01-14 14:43:05.72	190.51	47.69	-36.0	-37.0	23.0	0.00e+00	123	29	0	1613758464	46	5554
2026-01-14 14:43:06.73	190.62	47.37	-35.9	-36.9	23.2	0.00e+00	120	29	0	1616904192	46	5483
2026-01-14 14:43:07.74	190.72	47.06	-36.1	-37.0	22.8	0.00e+00	123	29	0	1620049920	46	5580
2026-01-14 14:43:08.75	190.83	46.74	-36.6	-37.6	22.1	0.00e+00	123	29	0	1623195648	46	5992
2026-01-14 14:43:09.76	190.93	46.43	-37.1	-38.2	21.7	0.00e+00	123	29	0	1626341376	46	6407
2026-01-14 14:43:10.77	191.03	46.12	-37.7	-38.8	21.6	0.00e+00	120	29	0	1629487104	46	6816
2026-01-14 14:43:11.78	191.12	45.82	-37.8	-39.0	21.6	0.00e+00	120	29	0	1632632832	48	6222
2026-01-14 14:43:12.79	191.22	45.51	-37.9	-39.0	21.4	0.00e+00	127	29	0	1635778560	48	6235
2026-01-14 14:43:13.80	191.31	45.21	-37.3	-38.3	22.0	0.00e+00	123	29	0	1638924288	48	5766
2026-01-14 14:43:14.81	191.40	44.91	-37.1	-38.1	22.1	0.00e+00	122	29	0	1642070016	48	5646
2026-01-14 14:43:15.82	191.49	44.62	-37.2	-38.2	22.1	0.00e+00	123	29	0	1645215744	48	5711
2026-01-14 14:43:16.83	191.58	44.32	-37.0	-38.0	22.2	0.00e+00	122	29	0	1648361472	48	5542
2026-01-14 14:43:17.84	191.67	44.03	-37.3	-38.3	21.8	0.00e+00	120	29	0	1651507200	48	5758
2026-01-14 14:43:18.85	191.76	43.74	-37.5	-38.6	21.6	0.00e+00	123	29	0	1654652928	48	5947
2026-01-14 14:43:19.85	191.84	43.45	-37.3	-38.4	21.3	0.00e+00	123	29	0	1657798656	48	5830
2026-01-14 14:43:20.86	191.92	43.17	-37.2	-38.3	21.3	0.00e+00	123	29	0	1660944384	48	5753
2026-01-14 14:43:21.87	192.00	42.88	-36.9	-38.0	21.3	0.00e+00	120	29	0	1664090112	48	5573
2026-01-14 14:43:22.88	192.08	42.60	-36.4	-37.5	21.9	0.00e+00	123	29	0	1667235840	46	5877
2026-01-14 14:43:23.89	192.16	42.32	-36.4	-37.4	22.5	0.00e+00	123	29	0	1670381568	46	5817
2026-01-14 14:43:24.90	192.24	42.04	-36.1	-37.1	23.0	0.00e+00	123	29	0	1673527296	46	5609
2026-01-14 14:43:25.91	192.31	41.76	-36.2	-37.2	22.9	0.00e+00	122	29	0	1676673024	46	5679
2026-01-14 14:43:26.92	192.39	41.49	-36.0	-36.9	23.0	0.00e+00	123	29	0	1679818752	46	5529
2026-01-14 14:43:27.93	192.46	41.22	-36.3	-37.3	22.7	0.00e+00	123	29	0	1682964480	46	5767
2026-01-14 14:43:28.94	192.53	40.95	-36.6	-37.6	22.4	0.00e+00	123	29	0	1686110208	46	5976
2026-01-14 14:43:29.95	192.61	40.68	-36.9	-38.0	22.2	0.00e+00	123	29	0	1689255936	46	6223
2026-01-14 14:43:30.96	192.68	40.41	-37.2	-38.3	22.0	0.00e+00	120	29	0	1692401664	46	6434
2026-01-14 14:43:31.97	192.75	40.15	-37.4	-38.4	21.9	0.00e+00	120	29	0	1695547392	46	6560
2026-01-14 14:43:32.98	192.81	39.88	-37.3	-38.3	22.0	0.00e+00	120	29	0	1698693120	46	6464
2026-01-14 14:43:33.99	192.88	39.62	-37.3	-38.3	22.0	0.00e+00	123	29	0	1701838848	46	6483
2026-01-14 14:43:35.00	192.95	39.36	-37.1	-38.1	22.2	0.00e+00	122	29	0	1704984576	46	6337
2026-01-14 14:43:36.00	193.01	39.11	-37.0	-38.1	22.0	0.00e+00	123	29	0	1708130304	46	6303
2026-01-14 14:43:37.02	193.08	38.85	-37.0	-38.1	22.0	0.00e+00	121	29	0	1711276032	46	6321
2026-01-14 14:43:38.02	193.14	38.60	-37.3	-38.4	21.8	0.00e+00	122	29	0	1714421760	46	6518
2026-01-14 14:43:39.03	193.20	38.35	-37.1	-38.2	22.1	0.00e+00	123	29	0	1717567488	46	6379
2026-01-14 14:43:40.04	193.26	38.10	-37.0	-38.0	22.2	0.00e+00	122	29	0	1720713216	46	6231
2026-01-14 14:43:41.05	193.32	37.85	-36.9	-37.9	22.2	0.00e+00	118	29	0	1723858944	46	6188
2026-01-14 14:43:42.06	193.38	37.61	-36.7	-37.7	22.1	0.00e+00	123	29	0	1727004672	46	6046
2026-01-14 14:43:43.07	193.44	37.36	-36.0	-37.1	22.2	0.00e+00	123	29	0	1730150400	46	5605
2026-01-14 14:43:44.08	193.50	37.12	-36.0	-37.0	22.3	0.00e+00	122	29	0	1733296128	46	5556
2026-01-14 14:43:45.09	193.56	36.88	-35.5	-36.5	22.8	0.00e+00	123	29	0	1736441856	44	5905
2026-01-14 14:43:46.10	193.61	36.64	-35.2	-36.1	23.3	0.00e+00	123	29	0	1739587584	44	5654
2026-01-14 14:43:47.11	193.67	36.40	-34.9	-35.8	23.6	0.00e+00	120	29	0	1742733312	44	5448
2026-01-14 14:43:48.12	193.72	36.17	-34.9	-35.8	23.7	0.00e+00	123	29	0	1745879040	44	5445
2026-01-14 14:43:49.13	193.78	35.93	-34.8	-35.7	23.7	0.00e+00	123	29	0	1749024768	44	5396
2026-01-14 14:43:50.14	193.83	35.70	-34.9	-35.8	23.8	0.00e+00	123	29	0	1752170496	44	5433
2026-01-14 14:43:51.15	193.88	35.47	-35.0	-35.9	23.6	0.00e+00	122	29	0	1755316224	44	5516
2026-01-14 14:43:52.15	193.94	35.24	-35.1	-36.0	23.8	0.00e+00	123	29	0	1758461952	44	5547
2026-01-14 14:43:53.16	193.99	35.02	-35.2	-36.1	23.7	0.00e+00	123	29	0	1761607680	44	5650
2026-01-14 14:43:54.17	194.04	34.79	-35.3	-36.2	23.7	0.00e+00	123	29	0	1764753408	44	5682
2026-01-14 14:43:55.18	194.09	34.57	-35.3	-36.2	23.7	0.00e+00	122	29	0	1767899136	44	5683
2026-01-14 14:43:56.19	194.14	34.34	-35.2	-36.1	23.7	0.00e+00	122	29	0	1771044864	44	5642
2026-01-14 14:43:57.20	194.19	34.12	-35.3	-36.2	23.6	0.00e+00	123	29	0	1774190592	44	5710
2026-01-14 14:43:58.21	194.23	33.90	-35.3	-36.2	23.5	0.00e+00	123	29	0	1777336320	44	5715
2026-01-14 14:43:59.22	194.28	33.68	-35.2	-36.2	23.6	0.00e+00	123	29	0	1780482048	44	5676
2026-01-14 14:44:00.23	194.33	33.47	-35.3	-36.2	23.6	0.00e+00	123	29	0	1783627776	44	5679
2026-01-14 14:44:01.24	194.38	33.25	-35.2	-36.1	23.7	0.00e+00	123	29	0	1786773504	44	5615
2026-01-14 14:44:02.25	194.42	33.04	-35.0	-35.9	23.9	0.00e+00	123	29	0	1789919232	44	5508
2026-01-14 14:44:03.25	194.47	32.83	-35.0	-35.9	23.8	0.00e+00	121	29	0	1793064960	44	5511
2026-01-14 14:44:04.26	194.51	32.62	-34.8	-35.7	24.0	0.00e+00	118	29	0	1796210688	44	5390
2026-01-14 14:44:05.27	194.56	32.41	-34.8	-35.7	24.0	0.00e+00	122	29	0	1799356416	44	5400
2026-01-14 14:44:06.28	194.60	32.20	-34.7	-35.6	24.3	0.00e+00	122	29	0	1802502144	42	5976
2026-01-14 14:44:07.29	194.64	32.00	-34.6	-35.4	24.3	0.00e+00	123	29	0	1805647872	42	5858
2026-01-14 14:44:08.30	194.69	31.79	-34.5	-35.4	24.3	0.00e+00	123	29	0	1808793600	42	5835
2026-01-14 14:44:09.31	194.73	31.59	-34.6	-35.5	24.3	0.00e+00	122	29	0	1811939328	42	5881
2026-01-14 14:44:10.32	194.77	31.39	-34.2	-35.1	24.6	0.00e+00	122	29	0	1815085056	42	5632
2026-01-14 14:44:11.33	194.81	31.19	-34.2	-35.1	24.6	0.00e+00	123	29	0	1818230784	42	5640
2026-01-14 14:44:12.34	194.85	30.99	-34.2	-35.1	24.5	0.00e+00	123	29	0	1822425088	42	5624
2026-01-14 14:44:13.35	194.89	30.79	-34.3	-35.2	24.4	0.00e+00	123	29	0	1824522240	42	5670
2026-01-14 14:44:14.35	194.93	30.59	-34.5	-35.4	24.3	0.00e+00	123	29	0	1827667968	42	5796
2026-01-14 14:44:15.37	194.97	30.40	-34.5	-35.4	24.3	0.00e+00	123	29	0	1830813696	42	5801
2026-01-14 14:44:16.38	195.01	30.20	-34.5	-35.4	24.2	0.00e+00	123	29	0	1833959424	42	5846
2026-01-14 14:44:17.39	195.05	30.01	-34.8	-35.7	24.0	0.00e+00	123	29	0	1838153728	42	6045
2026-01-14 14:44:18.39	195.09	29.82	-34.8	-35.8	23.9	0.00e+00	123	29	0	1841299456	42	6068
2026-01-14 14:44:19.40	195.13	29.63	-34.8	-35.8	23.9	0.00e+00	123	29	0	1844445184	42	6086
2026-01-14 14:44:20.41	195.16	29.44	-34.9	-35.8	23.9	0.00e+00	122	29	0	1847590912	42	6122
2026-01-14 14:44:21.42	195.20	29.25	-34.8	-35.7	23.9	0.00e+00	122	29	0	1849688064	42	6045
2026-01-14 14:44:22.42	195.24	29.07	-34.9	-35.8	23.8	0.00e+00	123	29	0	1852833792	42	6123
2026-01-14 14:44:23.43	195.27	28.88	-34.9	-35.8	23.6	0.00e+00	123	29	0	1857028096	42	6134
2026-01-14 14:44:24.44	195.31	28.70	-35.0	-36.0	23.4	0.00e+00	120	29	0	1860173824	42	6212
2026-01-14 14:44:25.45	195.35	28.52	-34.7	-35.7	23.6	0.00e+00	123	29	0	1863319552	42	6027
2026-01-14 14:44:26.46	195.38	28.33	-34.9	-35.9	23.4	0.00e+00	122	29	0	1866465280	42	6184
2026-01-14 14:44:27.47	195.42	28.15	-35.0	-36.0	23.3	0.00e+00	121	29	0	1869611008	42	6245
2026-01-14 14:44:28.48	195.45	27.97	-35.1	-36.0	23.4	0.00e+00	123	29	0	1871708160	42	6268
2026-01-14 14:44:29.49	195.49	27.80	-34.9	-35.8	23.5	0.00e+00	123	29	0	1875902464	42	6134
2026-01-14 14:44:30.50	195.52	27.62	-34.8	-35.8	23.5	0.00e+00	123	29	0	1879048192	42	6105
2026-01-14 14:44:31.51	195.55	27.44	-34.9	-35.9	23.5	0.00e+00	122	29	0	1882193920	42	6156
2026-01-14 14:44:32.52	195.59	27.27	-34.8	-35.7	23.6	0.00e+00	122	29	0	1885339648	42	6056
2026-01-14 14:44:33.53	195.62	27.09	-34.6	-35.5	23.8	0.00e+00	123	29	0	1888485376	42	5910
2026-01-14 14:44:34.54	195.65	26.92	-34.5	-35.4	23.9	0.00e+00	123	29	0	1891631104	42	5846
2026-01-14 14:44:35.55	195.68	26.75	-34.2	-35.2	24.2	0.00e+00	122	29	0	1894776832	42	5672
2026-01-14 14:44:36.56	195.72	26.58	-33.8	-34.7	24.5	0.00e+00	123	29	0	1897922560	42	5351
2026-01-14 14:44:37.57	195.75	26.41	-33.9	-34.8	24.2	0.00e+00	122	29	0	1901068288	40	6133
2026-01-14 14:44:38.57	195.78	26.24	-33.7	-34.6	24.4	0.00e+00	120	29	0	1904214016	40	5966
2026-01-14 14:44:39.58	195.81	26.08	-33.8	-34.7	24.5	0.00e+00	123	29	0	1907359744	40	6017
2026-01-14 14:44:40.59	195.84	25.91	-33.7	-34.6	24.6	0.00e+00	122	29	0	1910505472	40	5983
2026-01-14 14:44:41.60	195.87	25.74	-33.8	-34.6	24.6	0.00e+00	123	29	0	1913651200	40	5994
2026-01-14 14:44:42.61	195.90	25.58	-33.7	-34.6	24.8	0.00e+00	122	29	0	1916796928	40	5927
2026-01-14 14:44:43.62	195.93	25.42	-33.4	-34.2	24.9	0.00e+00	120	29	0	1919942656	40	5724
2026-01-14 14:44:44.63	195.96	25.25	-33.4	-34.3	24.8	0.00e+00	121	29	0	1923088384	40	5757
2026-01-14 14:44:45.64	195.99	25.09	-33.5	-34.4	24.7	0.00e+00	123	29	0	1926234112	40	5794
2026-01-14 14:44:46.65	196.02	24.93	-33.7	-34.6	24.6	0.00e+00	122	29	0	1929379840	40	5931
2026-01-14 14:44:47.66	196.05	24.77	-33.8	-34.6	24.6	0.00e+00	123	29	0	1932525568	40	5993
2026-01-14 14:44:48.67	196.08	24.61	-33.8	-34.7	24.7	0.00e+00	123	29	0	1935671296	40	6050
2026-01-14 14:44:49.68	196.11	24.46	-33.9	-34.7	24.8	0.00e+00	123	29	0	1938817024	40	6040
2026-01-14 14:44:50.69	196.13	24.30	-33.8	-34.7	24.8	0.00e+00	122	29	0	1941962752	40	6014
2026-01-14 14:44:51.70	196.16	24.14	-33.8	-34.7	24.8	0.00e+00	123	29	0	1945108480	40	6011
2026-01-14 14:44:52.71	196.19	23.99	-33.8	-34.7	24.7	0.00e+00	122	29	0	1948254208	40	6046
2026-01-14 14:44:53.72	196.22	23.84	-33.8	-34.7	24.8	0.00e+00	123	29	0	1951399936	40	6011
2026-01-14 14:44:54.73	196.24	23.68	-33.8	-34.6	24.8	0.00e+00	122	29	0	1954545664	40	5991
2026-01-14 14:44:55.74	196.27	23.53	-33.7	-34.6	24.9	0.00e+00	122	29	0	1957691392	40	5927
2026-01-14 14:44:56.75	196.30	23.38	-33.7	-34.6	24.8	0.00e+00	123	29	0	1960837120	40	5937
2026-01-14 14:44:57.76	196.32	23.23	-33.7	-34.6	24.9	0.00e+00	123	29	0	1963982848	40	5947
2026-01-14 14:44:58.77	196.35	23.08	-33.6	-34.4	25.0	0.00e+00	123	29	0	1967128576	40	5845
2026-01-14 14:44:59.78	196.38	22.93	-33.5	-34.4	25.1	0.00e+00	123	29	0	1970274304	40	5795
2026-01-14 14:45:00.79	196.40	22.78	-33.7	-34.6	24.9	0.00e+00	122	29	0	1973420032	40	5936
2026-01-14 14:45:01.80	196.43	22.64	-33.7	-34.6	24.8	0.00e+00	123	29	0	1976565760	40	5941
2026-01-14 14:45:02.81	196.45	22.49	-33.8	-34.7	24.8	0.00e+00	122	29	0	1979711488	40	6022
2026-01-14 14:45:03.82	196.48	22.35	-33.8	-34.7	24.8	0.00e+00	122	29	0	1982857216	40	6048
