passes_logs/2026/01/14/R4.6S_Anadyr/R4.6S_Anadyr__20260114_044757_AQUA_rec.log

#Pass ID: 20260114_044757_AQUA
#Satellite: AQUA
#Configuration: AQUA
#almurnet v.1.7.20251203
#Start time: 2026-01-14 04:48:00

#Version: 2.2.20231116
#Station: R4.6S_Anadyr
#Location: 177.4865 lon 64.73178 lat
#TLE: 1 27424U 02022A   26013.58555111  .00000773  00000+0  16469-3 0  9993
#TLE: 2 27424  98.4079 339.9892 0002045  80.0365 334.6894 14.61818766260681

#Time	Az	El	Level	Level2	SNR	BER	BlckErr	Temp	State	Recorded	gain1	gain2
2026-01-14 04:48:00.07	237.30	0.12	-48.7	-60.3	3.5	8.46e-01	0	25	0	0	60	37342
2026-01-14 04:48:01.08	237.41	0.16	-48.7	-67.0	3.5	3.02e+01	0	26	104	0	60	86248
2026-01-14 04:48:02.09	237.51	0.21	-49.1	-67.1	3.5	3.02e+01	0	26	104	0	60	87358
2026-01-14 04:48:03.10	237.61	0.25	-49.1	-67.1	3.5	3.02e+01	0	26	104	0	60	87002
2026-01-14 04:48:04.11	237.72	0.29	-49.1	-67.1	3.5	3.02e+01	0	26	104	0	60	87389
2026-01-14 04:48:05.12	237.82	0.34	-49.0	-67.1	3.5	3.02e+01	0	26	104	0	60	86763
2026-01-14 04:48:06.12	237.93	0.38	-49.2	-67.1	3.5	3.02e+01	0	26	104	0	60	87309
2026-01-14 04:48:07.13	238.03	0.43	-49.2	-67.1	3.5	3.02e+01	0	26	104	0	60	87649
2026-01-14 04:48:08.14	238.14	0.47	-49.3	-67.2	3.5	3.02e+01	0	26	104	0	60	88158
2026-01-14 04:48:09.15	238.25	0.51	-49.3	-67.2	3.5	3.02e+01	0	26	104	0	60	88106
2026-01-14 04:48:10.16	238.35	0.56	-49.4	-67.3	3.5	3.02e+01	0	26	104	0	60	89186
2026-01-14 04:48:11.17	238.46	0.60	-49.3	-67.2	3.6	3.02e+01	0	26	104	0	60	88463
2026-01-14 04:48:12.18	238.57	0.64	-49.2	-67.1	3.5	3.02e+01	0	26	104	0	60	87143
2026-01-14 04:48:13.19	238.67	0.69	-49.2	-67.1	3.5	3.02e+01	0	26	104	0	60	87095
2026-01-14 04:48:14.20	238.78	0.73	-49.1	-67.0	3.5	3.02e+01	0	26	104	0	60	86040
2026-01-14 04:48:15.21	238.89	0.78	-49.0	-66.8	3.5	3.02e+01	0	26	104	0	60	84364
2026-01-14 04:48:16.22	239.00	0.82	-48.5	-66.4	3.5	3.02e+01	0	27	104	0	60	80747
2026-01-14 04:48:17.23	239.11	0.86	-47.9	-65.7	3.5	3.02e+01	0	26	104	0	60	74503
2026-01-14 04:48:18.24	239.22	0.91	-47.3	-65.2	3.5	3.02e+01	0	26	104	0	60	70128
2026-01-14 04:48:19.25	239.33	0.95	-47.3	-65.2	3.5	3.02e+01	0	27	104	0	60	70132
2026-01-14 04:48:20.26	239.44	0.99	-47.3	-65.2	3.5	3.02e+01	0	26	104	0	60	70329
2026-01-14 04:48:21.26	239.55	1.04	-47.3	-65.2	3.5	3.02e+01	0	27	104	0	60	69956
2026-01-14 04:48:22.27	239.66	1.08	-47.3	-65.2	3.5	3.02e+01	0	27	104	0	60	69874
2026-01-14 04:48:23.28	239.77	1.12	-47.3	-65.2	3.5	3.02e+01	0	26	104	0	60	70015
2026-01-14 04:48:24.29	239.88	1.17	-47.3	-65.2	3.5	3.02e+01	0	26	104	0	60	69762
2026-01-14 04:48:25.30	239.99	1.21	-47.3	-65.1	3.5	3.02e+01	0	26	104	0	60	69539
2026-01-14 04:48:26.31	240.10	1.26	-47.3	-65.1	3.5	3.02e+01	0	27	104	0	60	68932
2026-01-14 04:48:27.32	240.22	1.30	-47.3	-65.1	3.5	3.02e+01	0	27	104	0	60	69589
2026-01-14 04:48:28.33	240.33	1.34	-47.3	-65.2	3.5	3.02e+01	0	27	104	0	60	69726
2026-01-14 04:48:29.34	240.44	1.39	-47.3	-65.0	3.5	3.02e+01	0	27	104	0	60	68141
2026-01-14 04:48:30.35	240.56	1.43	-47.2	-64.9	3.5	3.02e+01	0	27	104	0	60	67542
2026-01-14 04:48:31.36	240.67	1.47	-47.3	-65.1	3.5	3.02e+01	0	27	104	0	60	69147
2026-01-14 04:48:32.37	240.78	1.52	-47.3	-65.2	3.5	3.02e+01	0	27	104	0	60	69663
2026-01-14 04:48:33.38	240.90	1.56	-47.3	-65.0	3.5	3.02e+01	0	27	104	0	60	68214
2026-01-14 04:48:34.39	241.01	1.60	-47.3	-64.9	3.5	3.02e+01	0	27	104	0	60	67473
2026-01-14 04:48:35.40	241.13	1.65	-47.2	-64.9	3.5	3.02e+01	0	27	104	0	60	67905
2026-01-14 04:48:36.41	241.24	1.69	-47.2	-65.1	3.5	3.02e+01	0	27	104	0	60	68959
2026-01-14 04:48:37.42	241.36	1.74	-47.3	-65.1	3.5	3.02e+01	0	27	104	0	60	69109
2026-01-14 04:48:38.43	241.48	1.78	-47.3	-65.2	3.5	3.02e+01	0	27	104	0	60	69843
2026-01-14 04:48:39.44	241.59	1.82	-47.2	-64.9	3.5	3.02e+01	0	27	104	0	60	67980
2026-01-14 04:48:40.45	241.71	1.87	-47.2	-64.7	3.5	3.02e+01	0	27	104	0	60	66487
2026-01-14 04:48:41.46	241.83	1.91	-47.2	-64.9	3.5	3.02e+01	0	27	104	0	60	67319
2026-01-14 04:48:42.47	241.94	1.95	-47.2	-64.8	3.5	3.02e+01	0	27	104	0	60	66795
2026-01-14 04:48:43.48	242.06	2.00	-47.2	-64.8	3.5	3.02e+01	0	27	104	0	60	66573
2026-01-14 04:48:44.50	242.18	2.04	-47.2	-64.5	3.5	3.02e+01	0	27	104	0	60	64472
2026-01-14 04:48:45.50	242.30	2.08	-47.2	-64.5	3.5	3.02e+01	0	27	104	0	60	64921
2026-01-14 04:48:46.51	242.42	2.13	-47.2	-64.3	3.5	3.02e+01	0	27	104	0	60	63308
2026-01-14 04:48:47.52	242.54	2.17	-47.2	-64.4	3.5	3.02e+01	0	27	104	0	60	64123
2026-01-14 04:48:48.53	242.66	2.21	-47.2	-64.2	3.5	3.02e+01	0	27	104	0	60	62301
2026-01-14 04:48:49.54	242.78	2.26	-47.2	-63.8	3.5	3.02e+01	0	27	104	0	60	59903
2026-01-14 04:48:50.55	242.90	2.30	-47.2	-63.7	3.5	3.02e+01	0	27	104	0	60	59214
2026-01-14 04:48:51.56	243.02	2.34	-47.2	-63.3	3.6	3.02e+01	0	27	104	0	60	56499
2026-01-14 04:48:52.57	243.14	2.39	-47.2	-63.2	3.6	3.02e+01	0	27	104	0	60	55756
2026-01-14 04:48:53.58	243.26	2.43	-47.2	-63.2	3.5	3.02e+01	0	27	104	0	60	55780
2026-01-14 04:48:54.59	243.39	2.47	-47.2	-62.9	3.7	3.02e+01	0	27	104	0	60	53942
2026-01-14 04:48:55.60	243.51	2.52	-47.2	-63.4	3.5	3.02e+01	0	27	104	0	60	56773
2026-01-14 04:48:56.61	243.63	2.56	-47.2	-63.9	3.5	3.02e+01	0	27	104	0	60	60149
2026-01-14 04:48:57.62	243.76	2.60	-47.2	-64.3	3.5	3.02e+01	0	27	104	0	60	62786
2026-01-14 04:48:58.63	243.88	2.65	-47.2	-62.9	3.8	3.02e+01	0	27	104	0	60	53933
2026-01-14 04:48:59.65	244.00	2.69	-47.1	-60.7	4.5	3.02e+01	0	27	104	0	60	41897
2026-01-14 04:49:00.66	244.13	2.73	-46.9	-58.5	6.2	3.02e+01	92	27	104	0	60	32449
2026-01-14 04:49:01.67	244.25	2.78	-46.7	-55.9	8.1	3.02e+01	92	27	0	1048576	60	23994
2026-01-14 04:49:02.67	244.38	2.82	-46.4	-54.3	9.7	3.02e+01	91	27	0	2621440	60	19906
2026-01-14 04:49:03.68	244.50	2.86	-46.3	-53.7	10.5	3.02e+01	90	27	0	4718592	60	18656
2026-01-14 04:49:04.69	244.63	2.90	-46.1	-52.8	11.6	3.02e+01	91	27	0	6815744	60	16784
2026-01-14 04:49:05.70	244.76	2.95	-46.0	-52.5	11.4	3.02e+01	92	27	0	8388608	60	16280
2026-01-14 04:49:06.71	244.88	2.99	-46.1	-53.0	11.5	3.02e+01	90	27	0	10485760	60	17094
2026-01-14 04:49:07.72	245.01	3.03	-43.3	-46.3	18.1	3.02e+01	92	27	0	12058624	60	7939
2026-01-14 04:49:08.73	245.14	3.08	-44.8	-49.3	14.6	3.02e+01	92	27	0	14155776	60	11169
2026-01-14 04:49:09.74	245.27	3.12	-46.5	-55.0	9.0	3.02e+01	89	27	0	16252928	60	21561
2026-01-14 04:49:10.75	245.39	3.16	-47.0	-61.4	3.5	3.02e+01	0	27	104	17301504	60	45073
2026-01-14 04:49:11.76	245.52	3.20	-41.9	-44.6	19.7	3.02e+01	0	27	104	17301504	60	6528
2026-01-14 04:49:12.77	245.65	3.25	-42.0	-44.3	20.7	3.02e+01	92	27	0	17825792	58	7119
2026-01-14 04:49:13.78	245.78	3.29	-41.8	-44.1	20.9	3.02e+01	92	27	0	19398656	58	6962
2026-01-14 04:49:14.79	245.91	3.33	-41.1	-43.1	21.8	3.02e+01	91	27	0	21495808	56	6960
2026-01-14 04:49:15.80	246.04	3.37	-41.2	-43.3	21.6	3.02e+01	91	27	0	23592960	56	7105
2026-01-14 04:49:16.81	246.17	3.42	-40.8	-42.8	22.3	3.02e+01	91	27	0	25165824	56	6651
2026-01-14 04:49:17.82	246.30	3.46	-40.9	-43.0	22.0	3.02e+01	92	27	0	27262976	56	6818
2026-01-14 04:49:18.83	246.44	3.50	-40.8	-42.8	22.2	3.02e+01	91	27	0	28835840	56	6704
2026-01-14 04:49:19.84	246.57	3.54	-40.5	-42.5	22.7	3.02e+01	91	27	0	30932992	56	6431
2026-01-14 04:49:20.85	246.70	3.59	-40.3	-42.2	22.8	3.02e+01	91	27	0	33030144	56	6239
2026-01-14 04:49:21.86	246.83	3.63	-40.4	-42.3	22.8	3.02e+01	91	27	0	34603008	56	6319
2026-01-14 04:49:22.87	246.97	3.67	-40.2	-42.0	22.9	3.02e+01	91	27	0	36700160	56	6114
2026-01-14 04:49:23.88	247.10	3.71	-40.1	-41.9	23.3	3.02e+01	92	27	0	38273024	56	5998
2026-01-14 04:49:24.89	247.23	3.75	-40.0	-41.8	23.4	3.02e+01	90	27	0	40370176	54	6705
2026-01-14 04:49:25.90	247.37	3.80	-39.8	-41.5	23.6	3.02e+01	89	27	0	42467328	54	6489
2026-01-14 04:49:26.91	247.50	3.84	-40.1	-41.9	23.3	3.02e+01	92	27	0	44040192	54	6786
2026-01-14 04:49:27.92	247.64	3.88	-40.1	-41.9	23.2	3.02e+01	90	27	0	46137344	54	6786
2026-01-14 04:49:28.94	247.77	3.92	-39.9	-41.7	23.3	3.02e+01	89	27	0	48234496	54	6611
2026-01-14 04:49:29.95	247.91	3.97	-39.4	-41.1	24.1	3.02e+01	92	27	0	49807360	54	6192
2026-01-14 04:49:30.96	248.05	4.01	-39.5	-41.2	24.0	3.02e+01	92	27	0	51904512	54	6269
2026-01-14 04:49:31.97	248.18	4.05	-39.6	-41.3	23.9	3.02e+01	86	27	0	53477376	54	6317
2026-01-14 04:49:32.98	248.32	4.09	-39.3	-41.0	24.2	3.02e+01	90	27	0	55574528	54	6108
2026-01-14 04:49:33.99	248.46	4.13	-39.5	-41.1	24.2	3.02e+01	92	27	0	57671680	54	6195
2026-01-14 04:49:35.00	248.60	4.17	-39.5	-41.1	24.0	3.02e+01	92	27	0	59244544	54	6181
2026-01-14 04:49:36.00	248.73	4.21	-39.4	-41.0	24.3	3.02e+01	91	27	0	61341696	54	6110
2026-01-14 04:49:37.01	248.87	4.26	-39.1	-40.8	24.4	3.02e+01	90	27	0	62914560	54	5931
2026-01-14 04:49:38.02	249.01	4.30	-39.1	-40.7	24.6	3.02e+01	91	27	0	65011712	52	6592
2026-01-14 04:49:39.03	249.15	4.34	-38.8	-40.4	24.9	3.02e+01	91	27	0	67108864	52	6369
2026-01-14 04:49:40.04	249.29	4.38	-39.1	-40.7	24.5	3.02e+01	91	27	0	68681728	52	6616
2026-01-14 04:49:41.04	249.43	4.42	-39.1	-40.8	24.9	3.02e+01	90	27	0	70778880	52	6662
2026-01-14 04:49:42.05	249.57	4.46	-38.6	-40.2	25.0	3.02e+01	91	27	0	72351744	52	6211
2026-01-14 04:49:43.06	249.71	4.50	-38.4	-39.9	25.4	3.02e+01	92	27	0	74448896	52	6041
2026-01-14 04:49:44.07	249.86	4.54	-38.4	-39.9	25.4	3.02e+01	92	27	0	76546048	52	6060
2026-01-14 04:49:45.08	250.00	4.59	-38.4	-39.9	25.3	3.02e+01	92	27	0	78118912	52	6063
2026-01-14 04:49:46.09	250.14	4.63	-38.5	-40.1	25.2	3.02e+01	91	27	0	80216064	52	6137
2026-01-14 04:49:47.10	250.28	4.67	-38.4	-39.9	25.4	3.02e+01	90	27	0	82313216	52	6030
2026-01-14 04:49:48.11	250.43	4.71	-38.4	-39.9	25.5	3.02e+01	91	27	0	83886080	52	6003
2026-01-14 04:49:49.12	250.57	4.75	-38.5	-40.1	25.3	3.02e+01	92	27	0	85983232	52	6154
2026-01-14 04:49:50.13	250.71	4.79	-38.5	-40.0	25.4	3.02e+01	92	27	0	87556096	52	6079
2026-01-14 04:49:51.14	250.86	4.83	-38.3	-39.8	25.6	3.02e+01	91	27	0	89653248	52	5966
2026-01-14 04:49:52.15	251.00	4.87	-38.2	-39.6	25.7	3.02e+01	92	27	0	91750400	52	5847
2026-01-14 04:49:53.16	251.15	4.91	-38.3	-39.8	25.6	3.02e+01	91	27	0	93323264	52	5937
2026-01-14 04:49:54.17	251.30	4.95	-38.2	-39.7	25.6	3.02e+01	91	27	0	95420416	52	5875
2026-01-14 04:49:55.18	251.44	4.99	-38.3	-39.8	25.6	3.02e+01	91	27	0	96993280	52	5956
2026-01-14 04:49:56.19	251.59	5.03	-38.4	-39.8	25.5	3.02e+01	92	27	0	99090432	52	5987
2026-01-14 04:49:57.20	251.74	5.07	-38.4	-40.0	25.3	3.02e+01	91	27	0	101187584	52	6071
2026-01-14 04:49:58.22	251.89	5.11	-38.0	-39.5	25.8	3.02e+01	91	27	0	102760448	52	5736
2026-01-14 04:49:59.23	252.03	5.15	-38.1	-39.6	25.7	3.02e+01	91	27	0	104857600	52	5813
2026-01-14 04:50:00.24	252.18	5.19	-37.9	-39.4	26.0	3.02e+01	92	27	0	106954752	52	5675
2026-01-14 04:50:01.24	252.33	5.23	-37.8	-39.2	26.1	3.02e+01	90	27	0	108527616	50	6270
2026-01-14 04:50:02.25	252.48	5.27	-38.0	-39.5	25.8	3.02e+01	92	27	0	110624768	50	6443
2026-01-14 04:50:03.26	252.63	5.31	-38.0	-39.4	25.9	3.02e+01	92	27	0	112197632	50	6413
2026-01-14 04:50:04.28	252.78	5.35	-38.1	-39.6	25.8	3.02e+01	92	27	0	114294784	50	6525
2026-01-14 04:50:05.28	252.93	5.39	-38.2	-39.7	25.7	3.02e+01	91	27	0	116391936	50	6608
2026-01-14 04:50:06.30	253.08	5.43	-38.1	-39.6	25.8	3.02e+01	92	27	0	117964800	50	6522
2026-01-14 04:50:07.31	253.24	5.47	-38.0	-39.4	25.9	3.02e+01	92	27	0	120061952	50	6407
2026-01-14 04:50:08.32	253.39	5.51	-37.9	-39.4	26.0	3.02e+01	90	27	0	121634816	50	6358
2026-01-14 04:50:09.32	253.54	5.55	-37.7	-39.1	26.2	3.02e+01	92	27	0	123731968	50	6177
2026-01-14 04:50:10.34	253.69	5.59	-37.8	-39.3	26.1	3.02e+01	87	27	0	125829120	50	6285
2026-01-14 04:50:11.35	253.85	5.63	-38.0	-39.4	26.0	3.02e+01	92	27	0	127401984	50	6402
2026-01-14 04:50:12.35	254.00	5.66	-37.9	-39.4	26.0	3.02e+01	92	27	0	129499136	50	6352
2026-01-14 04:50:13.37	254.15	5.70	-38.0	-39.4	25.9	3.02e+01	91	27	0	131072000	50	6419
2026-01-14 04:50:14.38	254.31	5.74	-38.1	-39.5	25.9	3.02e+01	89	27	0	133169152	50	6479
2026-01-14 04:50:15.39	254.46	5.78	-37.9	-39.4	26.0	3.02e+01	92	27	0	135266304	50	6376
2026-01-14 04:50:16.40	254.62	5.82	-37.8	-39.2	26.1	3.02e+01	91	27	0	136839168	50	6245
2026-01-14 04:50:17.41	254.77	5.86	-37.7	-39.1	26.3	3.02e+01	92	27	0	138936320	50	6189
2026-01-14 04:50:18.42	254.93	5.90	-37.7	-39.1	26.3	3.02e+01	92	27	0	140509184	50	6198
2026-01-14 04:50:19.43	255.09	5.93	-37.7	-39.1	26.2	3.02e+01	92	27	0	142606336	50	6201
2026-01-14 04:50:20.44	255.24	5.97	-37.8	-39.3	26.2	3.02e+01	92	27	0	144703488	50	6278
2026-01-14 04:50:21.45	255.40	6.01	-37.7	-39.2	26.2	3.02e+01	92	27	0	146276352	50	6207
2026-01-14 04:50:22.46	255.56	6.05	-37.8	-39.2	26.2	3.02e+01	92	27	0	148373504	50	6264
2026-01-14 04:50:23.47	255.72	6.08	-37.7	-39.2	26.2	3.02e+01	92	27	0	150470656	50	6226
2026-01-14 04:50:24.48	255.88	6.12	-37.8	-39.2	26.2	3.02e+01	92	27	0	152043520	50	6257
2026-01-14 04:50:25.49	256.04	6.16	-37.7	-39.1	26.3	3.02e+01	92	27	0	154140672	50	6157
2026-01-14 04:50:26.50	256.20	6.20	-37.8	-39.2	26.2	3.02e+01	92	27	0	155713536	50	6250
2026-01-14 04:50:27.51	256.36	6.23	-37.7	-39.1	26.3	3.02e+01	91	27	0	157810688	50	6175
2026-01-14 04:50:28.52	256.52	6.27	-37.7	-39.1	26.3	3.02e+01	92	27	0	159907840	50	6165
2026-01-14 04:50:29.53	256.68	6.31	-37.6	-39.0	26.4	3.02e+01	90	27	0	161480704	50	6079
2026-01-14 04:50:30.54	256.84	6.34	-37.6	-39.0	26.4	3.02e+01	92	27	0	163577856	50	6083
2026-01-14 04:50:31.55	257.00	6.38	-37.6	-39.0	26.4	3.02e+01	89	27	0	165150720	50	6094
2026-01-14 04:50:32.56	257.16	6.42	-37.6	-39.0	26.4	3.02e+01	92	27	0	167247872	50	6132
2026-01-14 04:50:33.57	257.33	6.45	-37.7	-39.1	26.3	3.02e+01	92	27	0	169345024	50	6151
2026-01-14 04:50:34.58	257.49	6.49	-37.6	-39.0	26.5	3.02e+01	92	27	0	170917888	50	6084
2026-01-14 04:50:35.59	257.65	6.53	-37.6	-39.0	26.4	3.02e+01	92	27	0	173015040	50	6100
2026-01-14 04:50:36.60	257.82	6.56	-37.6	-39.0	26.5	3.02e+01	92	27	0	175112192	50	6075
2026-01-14 04:50:37.61	257.98	6.60	-37.5	-38.9	26.5	3.02e+01	92	27	0	176685056	50	6010
2026-01-14 04:50:38.62	258.15	6.63	-37.5	-38.9	26.5	3.02e+01	90	27	0	178782208	50	6001
2026-01-14 04:50:39.63	258.31	6.67	-37.3	-38.7	26.7	3.02e+01	92	27	0	180355072	50	5906
2026-01-14 04:50:40.64	258.48	6.71	-37.5	-38.9	26.5	3.02e+01	92	27	0	182452224	50	6033
2026-01-14 04:50:41.65	258.64	6.74	-37.4	-38.7	26.7	3.02e+01	92	27	0	184549376	50	5922
2026-01-14 04:50:42.66	258.81	6.78	-37.4	-38.8	26.6	3.02e+01	92	27	0	186122240	50	5940
2026-01-14 04:50:43.67	258.98	6.81	-37.4	-38.7	26.7	3.02e+01	91	27	0	188219392	50	5916
2026-01-14 04:50:44.68	259.15	6.85	-37.4	-38.8	26.7	3.02e+01	90	27	0	189792256	50	5929
2026-01-14 04:50:45.69	259.31	6.88	-37.4	-38.8	26.7	3.02e+01	92	27	0	191889408	50	5941
2026-01-14 04:50:46.70	259.48	6.92	-37.5	-38.9	26.6	3.02e+01	91	27	0	193986560	50	6023
2026-01-14 04:50:47.71	259.65	6.95	-37.4	-38.7	26.7	3.02e+01	92	27	0	195559424	50	5925
2026-01-14 04:50:48.72	259.82	6.98	-37.4	-38.8	26.7	3.02e+01	86	27	0	197656576	50	5965
2026-01-14 04:50:49.73	259.99	7.02	-37.4	-38.8	26.7	3.02e+01	90	27	0	199229440	50	5964
2026-01-14 04:50:50.74	260.16	7.05	-37.3	-38.7	26.8	3.02e+01	91	27	0	201326592	50	5886
2026-01-14 04:50:51.75	260.33	7.09	-37.4	-38.8	26.7	3.02e+01	91	27	0	203423744	50	5927
2026-01-14 04:50:52.76	260.50	7.12	-37.3	-38.7	26.7	3.02e+01	91	27	0	204996608	50	5897
2026-01-14 04:50:53.77	260.67	7.15	-37.2	-38.6	26.8	3.02e+01	91	27	0	207093760	50	5833
2026-01-14 04:50:54.78	260.84	7.19	-37.2	-38.6	26.8	3.02e+01	92	27	0	208666624	50	5822
2026-01-14 04:50:55.79	261.01	7.22	-37.2	-38.6	26.9	3.02e+01	91	27	0	210763776	50	5829
2026-01-14 04:50:56.80	261.19	7.25	-37.2	-38.5	26.9	3.02e+01	91	27	0	212860928	50	5787
2026-01-14 04:50:57.81	261.36	7.29	-37.3	-38.7	26.8	3.02e+01	92	27	0	214433792	50	5863
2026-01-14 04:50:58.81	261.53	7.32	-37.2	-38.6	26.9	3.02e+01	92	27	0	216530944	50	5831
2026-01-14 04:50:59.82	261.71	7.35	-37.3	-38.6	26.8	3.02e+01	92	27	0	218628096	50	5845
2026-01-14 04:51:00.84	261.88	7.39	-37.2	-38.5	26.9	3.02e+01	92	27	0	220200960	50	5785
2026-01-14 04:51:01.85	262.06	7.42	-37.1	-38.4	27.0	3.02e+01	92	27	0	222298112	50	5694
2026-01-14 04:51:02.86	262.23	7.45	-37.2	-38.6	26.9	3.02e+01	92	27	0	223870976	50	5797
2026-01-14 04:51:03.87	262.41	7.48	-37.2	-38.6	26.8	3.02e+01	92	27	0	225968128	50	5846
2026-01-14 04:51:04.88	262.58	7.51	-37.3	-38.6	26.8	3.02e+01	92	27	0	228065280	50	5837
2026-01-14 04:51:05.89	262.76	7.55	-37.3	-38.7	26.8	3.02e+01	92	27	0	229638144	50	5869
2026-01-14 04:51:06.90	262.93	7.58	-37.3	-38.7	26.8	3.02e+01	92	27	0	231735296	50	5900
2026-01-14 04:51:07.91	263.11	7.61	-37.2	-38.5	27.0	3.02e+01	91	27	0	233308160	50	5785
2026-01-14 04:51:08.92	263.29	7.64	-37.2	-38.5	26.9	3.02e+01	91	27	0	235405312	50	5786
2026-01-14 04:51:09.93	263.47	7.67	-37.1	-38.4	27.0	3.02e+01	92	27	0	237502464	50	5724
2026-01-14 04:51:10.94	263.64	7.70	-37.3	-38.6	26.9	3.02e+01	90	28	0	239075328	50	5848
2026-01-14 04:51:11.95	263.82	7.73	-37.0	-38.4	27.1	3.02e+01	92	27	0	241172480	50	5670
2026-01-14 04:51:12.96	264.00	7.76	-36.9	-38.3	27.2	3.02e+01	92	27	0	243269632	48	6287
2026-01-14 04:51:13.97	264.18	7.79	-36.9	-38.2	27.3	3.02e+01	92	27	0	244842496	48	6243
2026-01-14 04:51:14.98	264.36	7.82	-37.0	-38.4	27.1	3.02e+01	92	27	0	246939648	48	6381
2026-01-14 04:51:15.99	264.54	7.85	-37.1	-38.4	27.0	3.02e+01	91	27	0	248512512	48	6385
2026-01-14 04:51:17.00	264.72	7.88	-37.0	-38.3	27.2	3.02e+01	92	27	0	250609664	48	6323
2026-01-14 04:51:18.01	264.90	7.91	-36.9	-38.2	27.2	3.02e+01	92	27	0	252706816	48	6269
2026-01-14 04:51:19.02	265.08	7.94	-36.9	-38.2	27.3	3.02e+01	92	27	0	254279680	48	6245
2026-01-14 04:51:20.03	265.26	7.97	-36.9	-38.3	27.2	3.02e+01	91	27	0	256376832	48	6284
2026-01-14 04:51:21.04	265.45	8.00	-36.9	-38.2	27.2	3.02e+01	91	27	0	258473984	48	6252
2026-01-14 04:51:22.05	265.63	8.03	-37.0	-38.3	27.2	3.02e+01	91	27	0	260046848	48	6312
2026-01-14 04:51:23.06	265.81	8.06	-36.9	-38.2	27.3	3.02e+01	90	27	0	262144000	48	6240
2026-01-14 04:51:24.07	265.99	8.08	-36.8	-38.1	27.3	3.02e+01	92	27	0	263716864	48	6162
2026-01-14 04:51:25.08	266.18	8.11	-36.7	-38.0	27.4	3.02e+01	91	27	0	265814016	48	6134
2026-01-14 04:51:26.09	266.36	8.14	-36.9	-38.3	27.2	3.02e+01	92	28	0	267911168	48	6297
2026-01-14 04:51:27.10	266.55	8.17	-37.0	-38.4	27.1	3.02e+01	90	27	0	269484032	48	6363
2026-01-14 04:51:28.11	266.73	8.19	-37.0	-38.4	27.1	3.02e+01	92	27	0	271581184	48	6377
2026-01-14 04:51:29.12	266.91	8.22	-36.9	-38.2	27.2	3.02e+01	90	27	0	273154048	48	6233
2026-01-14 04:51:30.13	267.10	8.25	-36.9	-38.2	27.3	3.02e+01	89	28	0	275251200	48	6266
2026-01-14 04:51:31.14	267.29	8.28	-36.9	-38.2	27.3	3.02e+01	90	27	0	277348352	48	6267
2026-01-14 04:51:32.16	267.47	8.30	-36.8	-38.1	27.4	3.02e+01	92	28	0	278921216	48	6177
2026-01-14 04:51:33.16	267.66	8.33	-36.8	-38.1	27.3	3.02e+01	90	28	0	281018368	48	6175
2026-01-14 04:51:34.18	267.85	8.36	-36.8	-38.1	27.3	3.02e+01	92	28	0	282591232	48	6194
2026-01-14 04:51:35.19	268.03	8.38	-36.8	-38.1	27.3	3.02e+01	91	27	0	284688384	48	6189
2026-01-14 04:51:36.20	268.22	8.41	-36.8	-38.2	27.3	3.02e+01	91	28	0	286785536	48	6209
2026-01-14 04:51:37.21	268.41	8.43	-36.7	-38.0	27.5	3.02e+01	90	27	0	288358400	48	6104
2026-01-14 04:51:38.22	268.60	8.46	-36.9	-38.2	27.2	3.02e+01	91	27	0	290455552	48	6266
2026-01-14 04:51:39.23	268.78	8.48	-36.7	-38.0	27.4	3.02e+01	91	27	0	292028416	48	6102
2026-01-14 04:51:40.24	268.97	8.51	-36.7	-38.0	27.4	3.02e+01	92	27	0	294125568	48	6119
2026-01-14 04:51:41.24	269.16	8.53	-36.7	-38.0	27.4	3.02e+01	92	27	0	296222720	48	6092
2026-01-14 04:51:42.25	269.35	8.56	-36.7	-38.0	27.4	3.02e+01	90	27	0	297795584	48	6097
2026-01-14 04:51:43.26	269.54	8.58	-36.7	-38.1	27.4	3.02e+01	91	27	0	299892736	48	6156
2026-01-14 04:51:44.27	269.73	8.60	-36.7	-38.0	27.4	3.02e+01	92	27	0	301465600	48	6122
2026-01-14 04:51:45.28	269.92	8.63	-36.6	-37.9	27.5	3.02e+01	92	27	0	303562752	48	6030
2026-01-14 04:51:46.29	270.11	8.65	-36.6	-37.9	27.5	3.02e+01	86	27	0	305659904	48	6028
2026-01-14 04:51:47.30	270.30	8.67	-36.8	-38.1	27.4	3.02e+01	91	27	0	307232768	48	6162
2026-01-14 04:51:48.31	270.49	8.70	-36.7	-38.0	27.4	3.02e+01	91	27	0	309329920	48	6125
2026-01-14 04:51:49.32	270.68	8.72	-36.7	-38.0	27.5	3.02e+01	88	27	0	311427072	48	6083
2026-01-14 04:51:50.33	270.88	8.74	-36.6	-37.9	27.5	3.02e+01	92	27	0	312999936	48	6038
2026-01-14 04:51:51.34	271.07	8.77	-36.6	-37.9	27.6	3.02e+01	92	27	0	315097088	48	6012
2026-01-14 04:51:52.35	271.26	8.79	-36.6	-37.9	27.6	3.02e+01	92	27	0	316669952	48	6021
2026-01-14 04:51:53.36	271.45	8.81	-36.6	-37.9	27.5	3.02e+01	91	27	0	318767104	48	6029
2026-01-14 04:51:54.37	271.65	8.83	-36.5	-37.8	27.7	3.02e+01	91	27	0	320864256	48	5965
2026-01-14 04:51:55.38	271.84	8.85	-36.6	-37.9	27.6	3.02e+01	92	27	0	322437120	48	6043
2026-01-14 04:51:56.39	272.03	8.87	-36.5	-37.8	27.6	3.02e+01	89	27	0	324534272	48	5983
2026-01-14 04:51:57.40	272.23	8.89	-36.5	-37.8	27.7	3.02e+01	92	27	0	326631424	48	5973
2026-01-14 04:51:58.41	272.42	8.91	-36.5	-37.8	27.6	3.02e+01	92	27	0	328204288	48	5993
2026-01-14 04:51:59.42	272.62	8.93	-36.7	-38.0	27.5	3.02e+01	92	27	0	330301440	48	6102
2026-01-14 04:52:00.43	272.81	8.95	-36.6	-37.9	27.6	3.02e+01	92	27	0	331874304	48	6020
2026-01-14 04:52:01.44	273.01	8.97	-36.5	-37.8	27.6	3.02e+01	92	27	0	333971456	48	5975
2026-01-14 04:52:02.45	273.20	8.99	-36.5	-37.8	27.7	3.02e+01	90	27	0	336068608	48	5934
2026-01-14 04:52:03.46	273.40	9.01	-36.4	-37.7	27.8	3.02e+01	92	27	0	337641472	48	5918
2026-01-14 04:52:04.47	273.59	9.03	-36.5	-37.8	27.7	3.02e+01	90	27	0	339738624	48	5943
2026-01-14 04:52:05.48	273.79	9.05	-36.4	-37.7	27.7	3.02e+01	92	27	0	341311488	48	5867
2026-01-14 04:52:06.49	273.99	9.07	-36.4	-37.7	27.8	3.02e+01	92	28	0	343408640	48	5901
2026-01-14 04:52:07.50	274.18	9.09	-36.4	-37.7	27.8	3.02e+01	91	27	0	345505792	48	5903
2026-01-14 04:52:08.51	274.38	9.11	-36.4	-37.8	27.7	3.02e+01	91	27	0	347078656	48	5927
2026-01-14 04:52:09.52	274.58	9.12	-36.4	-37.7	27.8	3.02e+01	92	28	0	349175808	48	5891
2026-01-14 04:52:10.53	274.78	9.14	-36.4	-37.7	27.7	3.02e+01	90	27	0	350748672	48	5921
2026-01-14 04:52:11.54	274.97	9.16	-36.6	-37.9	27.6	3.02e+01	92	27	0	352845824	48	6022
2026-01-14 04:52:12.55	275.17	9.17	-36.4	-37.7	27.7	3.02e+01	91	27	0	354942976	48	5925
2026-01-14 04:52:13.56	275.37	9.19	-36.4	-37.7	27.8	3.02e+01	92	27	0	356515840	48	5861
2026-01-14 04:52:14.56	275.57	9.21	-36.4	-37.7	27.8	3.02e+01	92	27	0	358612992	48	5887
2026-01-14 04:52:15.57	275.76	9.22	-36.5	-37.8	27.6	3.02e+01	90	27	0	360185856	48	5952
2026-01-14 04:52:16.58	275.96	9.24	-36.4	-37.7	27.7	3.02e+01	92	28	0	362283008	48	5909
2026-01-14 04:52:17.58	276.16	9.25	-36.3	-37.6	27.8	3.02e+01	92	27	0	364380160	48	5846
2026-01-14 04:52:18.59	276.36	9.27	-36.3	-37.5	27.9	3.02e+01	91	27	0	365953024	48	5789
2026-01-14 04:52:19.60	276.56	9.28	-36.3	-37.6	27.9	3.02e+01	90	27	0	368050176	48	5815
2026-01-14 04:52:20.61	276.76	9.30	-36.3	-37.6	27.9	3.02e+01	91	27	0	369623040	48	5815
2026-01-14 04:52:21.62	276.96	9.31	-36.5	-37.8	27.8	3.02e+01	90	27	0	371720192	48	5945
2026-01-14 04:52:22.64	277.16	9.33	-36.5	-37.8	27.7	3.02e+01	91	27	0	373817344	48	5961
2026-01-14 04:52:23.65	277.36	9.34	-36.4	-37.7	27.8	3.02e+01	91	27	0	375390208	48	5867
2026-01-14 04:52:24.66	277.56	9.36	-36.4	-37.7	27.8	3.02e+01	92	27	0	377487360	48	5909
2026-01-14 04:52:25.67	277.76	9.37	-36.4	-37.7	27.7	3.02e+01	92	27	0	379584512	48	5900
2026-01-14 04:52:26.68	277.96	9.38	-36.7	-38.0	27.7	3.02e+01	91	27	0	381157376	48	6091
2026-01-14 04:52:27.69	278.16	9.39	-36.8	-38.1	27.6	3.02e+01	87	27	0	383254528	48	6165
2026-01-14 04:52:28.70	278.37	9.41	-36.4	-37.7	27.8	3.02e+01	92	27	0	384827392	48	5909
2026-01-14 04:52:29.71	278.57	9.42	-36.3	-37.6	27.9	3.02e+01	92	27	0	386924544	48	5819
2026-01-14 04:52:30.72	278.77	9.43	-36.3	-37.6	27.9	3.02e+01	86	27	0	389021696	48	5806
2026-01-14 04:52:31.73	278.97	9.44	-36.3	-37.6	27.9	3.02e+01	92	27	0	390594560	48	5836
2026-01-14 04:52:32.74	279.17	9.45	-36.2	-37.5	28.0	3.02e+01	91	28	0	392691712	48	5789
2026-01-14 04:52:33.75	279.37	9.46	-36.3	-37.6	27.9	3.02e+01	91	27	0	394788864	48	5845
2026-01-14 04:52:34.76	279.58	9.48	-36.5	-37.8	27.7	3.02e+01	92	27	0	396361728	48	5968
2026-01-14 04:52:35.77	279.78	9.49	-36.5	-37.8	27.7	3.02e+01	92	27	0	398458880	48	5935
2026-01-14 04:52:36.78	279.98	9.50	-36.3	-37.6	27.9	3.02e+01	92	27	0	400031744	48	5834
2026-01-14 04:52:37.78	280.18	9.51	-36.2	-37.5	28.0	3.02e+01	92	27	0	402128896	48	5765
2026-01-14 04:52:38.80	280.39	9.52	-36.3	-37.6	28.0	3.02e+01	92	27	0	404226048	48	5802
2026-01-14 04:52:39.81	280.59	9.52	-36.4	-37.7	27.8	3.02e+01	92	27	0	405798912	48	5914
2026-01-14 04:52:40.82	280.79	9.53	-36.5	-37.8	27.8	3.02e+01	92	28	0	407896064	48	5942
2026-01-14 04:52:41.83	281.00	9.54	-36.5	-37.8	27.8	3.02e+01	92	28	0	409468928	48	5961
2026-01-14 04:52:42.84	281.20	9.55	-36.3	-37.6	27.9	3.02e+01	91	28	0	411566080	48	5792
2026-01-14 04:52:43.85	281.40	9.56	-36.2	-37.5	28.0	3.02e+01	92	27	0	413663232	48	5758
2026-01-14 04:52:44.86	281.61	9.57	-36.2	-37.5	28.0	3.02e+01	91	27	0	415236096	48	5758
2026-01-14 04:52:45.87	281.81	9.57	-36.3	-37.6	27.9	3.02e+01	91	27	0	417333248	48	5822
2026-01-14 04:52:46.87	282.01	9.58	-36.3	-37.6	27.9	3.02e+01	91	27	0	418906112	48	5828
2026-01-14 04:52:47.89	282.22	9.59	-36.3	-37.6	27.9	3.02e+01	90	27	0	421003264	48	5827
2026-01-14 04:52:48.90	282.42	9.59	-36.2	-37.5	28.0	3.02e+01	92	27	0	423100416	48	5750
2026-01-14 04:52:49.91	282.63	9.60	-36.3	-37.6	27.9	3.02e+01	86	28	0	424673280	48	5810
2026-01-14 04:52:50.92	282.83	9.61	-36.2	-37.5	28.0	3.02e+01	92	27	0	426770432	48	5754
2026-01-14 04:52:51.93	283.03	9.61	-36.2	-37.5	28.0	3.02e+01	91	27	0	428343296	48	5756
2026-01-14 04:52:52.94	283.24	9.62	-36.3	-37.6	27.9	3.02e+01	92	27	0	430440448	48	5809
2026-01-14 04:52:53.95	283.44	9.62	-36.3	-37.6	27.9	3.02e+01	91	27	0	432537600	48	5799
2026-01-14 04:52:54.96	283.65	9.63	-36.1	-37.4	28.1	3.02e+01	92	27	0	434110464	48	5675
2026-01-14 04:52:55.97	283.85	9.63	-36.2	-37.4	28.1	3.02e+01	92	27	0	436207616	48	5724
2026-01-14 04:52:56.98	284.06	9.64	-36.1	-37.4	28.1	3.02e+01	92	27	0	437780480	48	5688
2026-01-14 04:52:57.99	284.26	9.64	-36.3	-37.6	27.9	3.02e+01	91	27	0	439877632	48	5806
2026-01-14 04:52:59.00	284.47	9.64	-36.2	-37.5	27.9	3.02e+01	90	27	0	441974784	48	5779
2026-01-14 04:53:00.01	284.67	9.65	-36.2	-37.5	28.1	3.02e+01	92	27	0	443547648	48	5747
2026-01-14 04:53:01.02	284.88	9.65	-36.2	-37.5	28.0	3.02e+01	91	27	0	445644800	48	5744
2026-01-14 04:53:02.03	285.08	9.65	-36.3	-37.6	28.0	3.02e+01	91	27	0	447741952	48	5794
2026-01-14 04:53:03.04	285.29	9.65	-36.3	-37.6	27.9	3.02e+01	89	27	0	449314816	48	5799
2026-01-14 04:53:04.05	285.49	9.66	-36.2	-37.5	28.0	3.02e+01	92	27	0	451411968	48	5763
2026-01-14 04:53:05.06	285.70	9.66	-36.2	-37.5	28.0	3.02e+01	92	28	0	452984832	48	5733
2026-01-14 04:53:06.07	285.90	9.66	-36.2	-37.5	28.0	3.02e+01	88	28	0	455081984	48	5747
2026-01-14 04:53:07.08	286.10	9.66	-36.2	-37.4	28.0	3.02e+01	91	27	0	457179136	48	5704
2026-01-14 04:53:08.09	286.31	9.66	-36.2	-37.4	28.0	3.02e+01	92	28	0	458752000	48	5724
2026-01-14 04:53:09.10	286.51	9.66	-36.2	-37.4	28.0	3.02e+01	87	27	0	460849152	48	5723
2026-01-14 04:53:10.11	286.72	9.66	-36.2	-37.5	28.0	3.02e+01	92	27	0	462946304	48	5783
2026-01-14 04:53:11.12	286.92	9.66	-36.3	-37.6	27.8	3.02e+01	92	27	0	464519168	48	5842
2026-01-14 04:53:12.13	287.13	9.66	-36.3	-37.6	27.9	3.02e+01	91	27	0	466616320	48	5844
2026-01-14 04:53:13.13	287.33	9.66	-36.4	-37.7	27.7	3.02e+01	92	27	0	468189184	48	5878
2026-01-14 04:53:14.14	287.54	9.66	-36.1	-37.4	28.1	3.02e+01	92	27	0	470286336	48	5678
2026-01-14 04:53:15.15	287.74	9.66	-36.4	-37.6	27.9	3.02e+01	92	27	0	472383488	48	5849
2026-01-14 04:53:16.16	287.95	9.66	-36.2	-37.5	28.0	3.02e+01	90	27	0	473956352	48	5748
2026-01-14 04:53:17.17	288.15	9.66	-36.3	-37.6	27.9	3.02e+01	92	27	0	476053504	48	5796
2026-01-14 04:53:18.18	288.36	9.65	-36.1	-37.4	28.1	3.02e+01	92	27	0	477626368	48	5691
2026-01-14 04:53:19.19	288.56	9.65	-36.2	-37.5	28.0	3.02e+01	92	27	0	479723520	48	5727
2026-01-14 04:53:20.20	288.77	9.65	-36.2	-37.5	28.0	3.02e+01	92	27	0	481820672	48	5754
2026-01-14 04:53:21.21	288.97	9.65	-36.2	-37.5	28.0	3.02e+01	91	27	0	483393536	48	5734
2026-01-14 04:53:22.22	289.18	9.64	-36.3	-37.6	27.9	3.02e+01	90	27	0	485490688	48	5794
2026-01-14 04:53:23.23	289.38	9.64	-36.2	-37.4	28.0	3.02e+01	92	28	0	487063552	48	5724
2026-01-14 04:53:24.23	289.58	9.63	-36.1	-37.4	28.0	3.02e+01	93	28	0	489160704	48	5698
2026-01-14 04:53:25.24	289.79	9.63	-36.1	-37.4	28.0	3.02e+01	92	27	0	491257856	48	5705
2026-01-14 04:53:26.26	289.99	9.63	-36.1	-37.4	28.0	3.02e+01	92	28	0	492830720	48	5700
2026-01-14 04:53:27.27	290.20	9.62	-36.1	-37.4	28.1	3.02e+01	92	27	0	494927872	48	5712
2026-01-14 04:53:28.28	290.40	9.62	-36.2	-37.5	28.0	3.02e+01	86	27	0	496500736	48	5751
2026-01-14 04:53:29.28	290.60	9.61	-36.2	-37.5	28.0	3.02e+01	92	28	0	498597888	48	5778
2026-01-14 04:53:30.30	290.81	9.60	-36.3	-37.6	28.0	3.02e+01	92	28	0	500695040	48	5793
2026-01-14 04:53:31.31	291.01	9.60	-36.1	-37.4	28.1	3.02e+01	92	27	0	502267904	48	5673
2026-01-14 04:53:32.32	291.22	9.59	-36.2	-37.5	28.0	3.02e+01	92	27	0	504365056	48	5732
2026-01-14 04:53:33.33	291.42	9.58	-36.1	-37.4	28.0	3.02e+01	90	28	0	505937920	48	5700
2026-01-14 04:53:34.34	291.62	9.58	-36.2	-37.4	28.0	3.02e+01	92	27	0	508035072	48	5724
2026-01-14 04:53:35.35	291.83	9.57	-36.1	-37.4	28.0	3.02e+01	92	27	0	510132224	48	5725
2026-01-14 04:53:36.36	292.03	9.56	-36.2	-37.5	28.0	3.02e+01	92	27	0	511705088	48	5767
2026-01-14 04:53:37.37	292.23	9.55	-36.2	-37.4	28.0	3.02e+01	90	28	0	513802240	48	5721
2026-01-14 04:53:38.38	292.44	9.55	-36.2	-37.5	28.0	3.02e+01	92	27	0	515899392	48	5765
2026-01-14 04:53:39.39	292.64	9.54	-36.1	-37.4	28.0	3.02e+01	92	28	0	517472256	48	5705
2026-01-14 04:53:40.40	292.84	9.53	-36.2	-37.4	28.0	3.02e+01	92	27	0	519569408	48	5723
2026-01-14 04:53:41.41	293.05	9.52	-36.2	-37.5	28.0	3.02e+01	91	27	0	521142272	48	5751
2026-01-14 04:53:42.42	293.25	9.51	-36.2	-37.4	28.1	3.02e+01	91	28	0	523239424	48	5724
2026-01-14 04:53:43.43	293.45	9.50	-36.1	-37.4	28.0	3.02e+01	91	28	0	525336576	48	5703
2026-01-14 04:53:44.44	293.65	9.49	-36.2	-37.4	28.0	3.02e+01	92	28	0	526909440	48	5721
2026-01-14 04:53:45.45	293.86	9.48	-36.2	-37.5	28.0	3.02e+01	91	27	0	529006592	48	5737
2026-01-14 04:53:46.46	294.06	9.47	-36.1	-37.4	28.1	3.02e+01	92	28	0	531103744	48	5686
2026-01-14 04:53:47.47	294.26	9.46	-36.2	-37.5	28.0	3.02e+01	92	28	0	532676608	48	5739
2026-01-14 04:53:48.48	294.46	9.45	-36.2	-37.5	28.0	3.02e+01	92	28	0	534773760	48	5745
2026-01-14 04:53:49.48	294.66	9.44	-36.1	-37.3	28.1	3.02e+01	91	28	0	536346624	48	5647
2026-01-14 04:53:50.49	294.86	9.43	-36.1	-37.4	28.1	3.02e+01	91	28	0	538443776	48	5689
2026-01-14 04:53:51.50	295.06	9.41	-36.2	-37.4	28.1	3.02e+01	91	27	0	540540928	48	5718
2026-01-14 04:53:52.51	295.26	9.40	-36.2	-37.5	28.0	3.02e+01	92	27	0	542113792	48	5730
2026-01-14 04:53:53.52	295.47	9.39	-36.2	-37.5	28.0	3.02e+01	92	28	0	544210944	48	5747
2026-01-14 04:53:54.53	295.67	9.38	-36.2	-37.5	27.9	3.02e+01	91	28	0	545783808	48	5767
2026-01-14 04:53:55.54	295.87	9.36	-36.1	-37.4	28.1	3.02e+01	92	27	0	547880960	48	5688
2026-01-14 04:53:56.55	296.07	9.35	-36.2	-37.5	28.0	3.02e+01	92	28	0	549978112	48	5743
2026-01-14 04:53:57.56	296.27	9.34	-36.3	-37.6	27.9	3.02e+01	92	28	0	551550976	48	5797
2026-01-14 04:53:58.58	296.47	9.32	-36.2	-37.5	28.0	3.02e+01	89	27	0	553648128	48	5730
2026-01-14 04:53:59.58	296.67	9.31	-36.3	-37.6	27.9	3.02e+01	92	28	0	555745280	48	5815
2026-01-14 04:54:00.60	296.87	9.29	-36.2	-37.5	28.0	3.02e+01	90	28	0	557318144	48	5767
2026-01-14 04:54:01.61	297.07	9.28	-36.2	-37.6	28.0	3.02e+01	92	28	0	559415296	48	5793
2026-01-14 04:54:02.62	297.27	9.26	-36.1	-37.4	28.0	3.02e+01	92	28	0	560988160	48	5688
2026-01-14 04:54:03.63	297.46	9.25	-36.2	-37.6	28.0	3.02e+01	92	28	0	563085312	48	5798
2026-01-14 04:54:04.64	297.66	9.23	-36.2	-37.5	28.0	3.02e+01	92	28	0	565182464	48	5730
2026-01-14 04:54:05.65	297.86	9.22	-36.4	-37.7	27.8	3.02e+01	59	28	0	566755328	48	5862
2026-01-14 04:54:06.66	298.06	9.20	-36.3	-37.6	27.9	3.02e+01	36	28	0	568852480	48	5803
2026-01-14 04:54:07.67	298.26	9.18	-36.6	-37.9	27.6	3.02e+01	61	28	0	570425344	48	6049
2026-01-14 04:54:08.68	298.46	9.17	-36.4	-37.7	27.8	3.02e+01	59	28	0	572522496	48	5884
2026-01-14 04:54:09.69	298.65	9.15	-36.3	-37.6	27.9	3.02e+01	60	28	0	574619648	48	5801
2026-01-14 04:54:10.70	298.85	9.13	-36.2	-37.5	28.0	3.02e+01	58	28	0	576192512	48	5746
2026-01-14 04:54:11.71	299.05	9.12	-36.2	-37.4	28.0	3.02e+01	46	28	0	578289664	48	5723
2026-01-14 04:54:12.72	299.24	9.10	-36.2	-37.5	28.0	3.02e+01	59	28	0	579862528	48	5727
2026-01-14 04:54:13.73	299.44	9.08	-36.1	-37.4	28.0	3.02e+01	61	28	0	581959680	48	5710
2026-01-14 04:54:14.74	299.64	9.06	-36.2	-37.5	27.9	3.02e+01	58	28	0	584056832	48	5758
2026-01-14 04:54:15.75	299.83	9.04	-36.2	-37.5	27.9	3.02e+01	60	28	0	585629696	48	5773
2026-01-14 04:54:16.76	300.03	9.02	-36.3	-37.6	27.9	3.02e+01	62	28	0	587726848	48	5792
2026-01-14 04:54:17.76	300.22	9.01	-36.3	-37.6	27.9	3.02e+01	59	28	0	589299712	48	5818
2026-01-14 04:54:18.77	300.42	8.99	-36.3	-37.6	27.8	3.02e+01	57	28	0	591396864	48	5829
2026-01-14 04:54:19.78	300.61	8.97	-36.1	-37.4	28.0	3.02e+01	54	28	0	593494016	48	5698
2026-01-14 04:54:20.79	300.80	8.95	-36.1	-37.4	28.0	3.02e+01	59	28	0	595066880	48	5711
2026-01-14 04:54:21.80	301.00	8.93	-36.3	-37.6	27.9	3.02e+01	60	28	0	597164032	48	5814
2026-01-14 04:54:22.81	301.19	8.91	-36.2	-37.5	28.0	3.02e+01	57	28	0	599261184	48	5753
2026-01-14 04:54:23.82	301.39	8.89	-36.2	-37.5	27.9	3.02e+01	59	28	0	600834048	48	5757
2026-01-14 04:54:24.83	301.58	8.87	-36.2	-37.5	27.9	3.02e+01	54	28	0	602931200	48	5762
2026-01-14 04:54:25.84	301.77	8.84	-36.3	-37.6	27.9	3.02e+01	59	28	0	604504064	48	5803
2026-01-14 04:54:26.85	301.97	8.82	-36.2	-37.5	27.9	3.02e+01	60	28	0	606601216	48	5774
2026-01-14 04:54:27.86	302.16	8.80	-36.3	-37.6	27.8	3.02e+01	46	28	0	608698368	48	5832
2026-01-14 04:54:28.87	302.35	8.78	-36.3	-37.6	27.8	3.02e+01	61	28	0	610271232	48	5841
2026-01-14 04:54:29.88	302.54	8.76	-36.3	-37.7	27.8	3.02e+01	60	28	0	612368384	48	5866
2026-01-14 04:54:30.90	302.74	8.74	-36.3	-37.6	27.8	3.02e+01	56	28	0	613941248	48	5810
2026-01-14 04:54:31.91	302.93	8.71	-36.3	-37.6	27.8	3.02e+01	58	28	0	616038400	48	5839
2026-01-14 04:54:32.92	303.12	8.69	-36.2	-37.5	27.9	3.02e+01	58	28	0	618135552	48	5758
2026-01-14 04:54:33.92	303.31	8.67	-36.2	-37.5	27.8	3.02e+01	56	28	0	619708416	48	5766
2026-01-14 04:54:34.94	303.50	8.64	-36.2	-37.5	27.9	3.02e+01	59	28	0	621805568	48	5780
2026-01-14 04:54:35.95	303.69	8.62	-36.3	-37.6	27.8	3.02e+01	50	28	0	623902720	48	5805
2026-01-14 04:54:36.95	303.88	8.60	-36.3	-37.6	27.9	3.02e+01	59	28	0	625475584	48	5818
2026-01-14 04:54:37.96	304.06	8.57	-36.3	-37.6	27.8	3.02e+01	60	28	0	627572736	48	5826
2026-01-14 04:54:38.97	304.25	8.55	-36.3	-37.6	27.8	3.02e+01	60	28	0	629145600	48	5850
2026-01-14 04:54:39.98	304.44	8.52	-36.3	-37.7	27.7	3.02e+01	61	28	0	631242752	48	5869
2026-01-14 04:54:40.99	304.63	8.50	-36.4	-37.7	27.7	3.02e+01	47	28	0	633339904	48	5924
2026-01-14 04:54:42.00	304.82	8.48	-36.3	-37.7	27.7	3.02e+01	59	28	0	634912768	48	5882
2026-01-14 04:54:43.01	305.01	8.45	-36.5	-37.8	27.6	3.02e+01	61	28	0	637009920	48	5960
2026-01-14 04:54:44.02	305.19	8.43	-36.2	-37.5	27.8	3.02e+01	46	27	0	638582784	48	5776
2026-01-14 04:54:45.03	305.38	8.40	-36.2	-37.5	27.9	3.02e+01	59	28	0	640679936	48	5788
2026-01-14 04:54:46.04	305.57	8.37	-36.3	-37.6	27.8	3.02e+01	60	28	0	642777088	48	5849
2026-01-14 04:54:47.05	305.75	8.35	-36.2	-37.5	27.8	3.02e+01	58	28	0	644349952	48	5785
2026-01-14 04:54:48.06	305.94	8.32	-36.3	-37.6	27.8	3.02e+01	61	28	0	646447104	48	5834
2026-01-14 04:54:49.07	306.12	8.30	-36.3	-37.6	27.7	3.02e+01	46	28	0	648019968	48	5858
2026-01-14 04:54:50.08	306.31	8.27	-36.3	-37.7	27.8	3.02e+01	59	28	0	650117120	48	5875
2026-01-14 04:54:51.09	306.49	8.24	-36.5	-37.9	27.5	3.02e+01	61	28	0	652214272	48	6008
2026-01-14 04:54:52.10	306.68	8.22	-36.6	-38.0	27.5	3.02e+01	45	28	0	653787136	48	6072
2026-01-14 04:54:53.11	306.86	8.19	-36.4	-37.8	27.6	3.02e+01	59	28	0	655884288	48	5946
2026-01-14 04:54:54.12	307.05	8.16	-36.3	-37.7	27.6	3.02e+01	60	27	0	657457152	48	5878
2026-01-14 04:54:55.13	307.23	8.13	-36.5	-37.8	27.6	3.02e+01	62	28	0	659554304	48	5987
2026-01-14 04:54:56.14	307.41	8.11	-36.5	-37.8	27.5	3.02e+01	57	28	0	661651456	48	5985
2026-01-14 04:54:57.15	307.59	8.08	-36.5	-37.8	27.6	3.02e+01	52	28	0	663224320	48	5976
2026-01-14 04:54:58.17	307.78	8.05	-36.4	-37.7	27.6	3.02e+01	59	28	0	665321472	48	5883
2026-01-14 04:54:59.18	307.96	8.02	-36.4	-37.7	27.7	3.02e+01	60	28	0	666894336	48	5912
2026-01-14 04:55:00.19	308.14	7.99	-36.5	-37.9	27.6	3.02e+01	57	28	0	668991488	48	6005
2026-01-14 04:55:01.20	308.32	7.96	-36.4	-37.7	27.6	3.02e+01	58	28	0	671088640	48	5887
2026-01-14 04:55:02.21	308.50	7.93	-36.5	-37.9	27.5	3.02e+01	45	28	0	672661504	48	6012
2026-01-14 04:55:03.22	308.68	7.91	-36.6	-37.9	27.5	3.02e+01	60	28	0	674758656	48	6058
2026-01-14 04:55:04.23	308.86	7.88	-36.7	-38.1	27.2	3.02e+01	57	28	0	676855808	48	6151
2026-01-14 04:55:05.24	309.04	7.85	-36.7	-38.0	27.4	3.02e+01	52	28	0	678428672	48	6121
2026-01-14 04:55:06.25	309.22	7.82	-36.8	-38.2	27.3	3.02e+01	59	28	0	680525824	48	6215
2026-01-14 04:55:07.26	309.40	7.79	-36.8	-38.2	27.2	3.02e+01	53	27	0	682098688	48	6222
2026-01-14 04:55:08.27	309.58	7.76	-36.6	-38.0	27.5	3.02e+01	57	28	0	684195840	48	6082
2026-01-14 04:55:09.28	309.76	7.73	-36.5	-37.8	27.6	3.02e+01	58	27	0	686292992	48	5983
2026-01-14 04:55:10.29	309.93	7.70	-36.5	-37.8	27.5	3.02e+01	64	28	0	687865856	48	5992
2026-01-14 04:55:11.30	310.11	7.67	-36.7	-38.0	27.5	3.02e+01	60	28	0	689963008	48	6110
2026-01-14 04:55:12.31	310.29	7.63	-36.5	-37.9	27.4	3.02e+01	59	28	0	692060160	48	6029
2026-01-14 04:55:13.32	310.47	7.60	-36.5	-37.9	27.5	3.02e+01	54	28	0	693633024	48	6016
2026-01-14 04:55:14.33	310.64	7.57	-36.6	-37.9	27.5	3.02e+01	61	28	0	695730176	48	6031
2026-01-14 04:55:15.34	310.82	7.54	-36.5	-37.8	27.5	3.02e+01	57	28	0	697303040	48	5979
2026-01-14 04:55:16.35	310.99	7.51	-36.6	-37.9	27.5	3.02e+01	62	28	0	699400192	48	6057
2026-01-14 04:55:17.36	311.17	7.48	-36.7	-38.1	27.2	3.02e+01	57	28	0	701497344	48	6156
2026-01-14 04:55:18.37	311.34	7.45	-36.8	-38.1	27.2	3.02e+01	51	28	0	703070208	48	6180
2026-01-14 04:55:19.38	311.51	7.41	-36.6	-37.9	27.4	3.02e+01	62	28	0	705167360	48	6039
2026-01-14 04:55:20.39	311.69	7.38	-36.6	-38.0	27.3	3.02e+01	59	28	0	706740224	48	6089
2026-01-14 04:55:21.40	311.86	7.35	-36.7	-38.1	27.3	3.02e+01	51	28	0	708837376	48	6154
2026-01-14 04:55:22.41	312.03	7.32	-36.7	-38.0	27.4	3.02e+01	58	28	0	710934528	48	6109
2026-01-14 04:55:23.42	312.21	7.28	-36.7	-38.1	27.3	3.02e+01	59	28	0	712507392	48	6163
2026-01-14 04:55:24.43	312.38	7.25	-36.7	-38.1	27.2	3.02e+01	61	28	0	714604544	48	6145
2026-01-14 04:55:25.44	312.55	7.22	-36.5	-37.9	27.5	3.02e+01	59	28	0	716701696	48	6001
2026-01-14 04:55:26.45	312.72	7.19	-36.6	-37.9	27.5	3.02e+01	43	28	0	718274560	48	6019
2026-01-14 04:55:27.46	312.89	7.15	-36.7	-38.1	27.3	3.02e+01	59	28	0	720371712	48	6135
2026-01-14 04:55:28.47	313.06	7.12	-36.8	-38.1	27.3	3.02e+01	60	28	0	721944576	48	6193
2026-01-14 04:55:29.48	313.23	7.09	-37.1	-38.4	26.9	3.02e+01	52	28	0	724041728	48	6419
2026-01-14 04:55:30.49	313.40	7.05	-36.7	-38.1	27.2	3.02e+01	60	27	0	726138880	48	6171
2026-01-14 04:55:31.50	313.57	7.02	-36.7	-38.1	27.2	3.02e+01	46	28	0	727711744	48	6172
2026-01-14 04:55:32.51	313.74	6.98	-36.9	-38.3	27.1	3.02e+01	60	28	0	729808896	48	6330
2026-01-14 04:55:33.52	313.91	6.95	-36.7	-38.1	27.2	3.02e+01	61	28	0	731381760	48	6185
2026-01-14 04:55:34.53	314.07	6.92	-37.0	-38.4	27.0	3.02e+01	47	28	0	733478912	48	6371
2026-01-14 04:55:35.54	314.24	6.88	-37.1	-38.5	26.8	3.02e+01	59	28	0	735576064	48	6488
2026-01-14 04:55:36.55	314.41	6.85	-36.9	-38.3	27.0	3.02e+01	58	28	0	737148928	48	6346
2026-01-14 04:55:37.56	314.58	6.81	-36.8	-38.1	27.1	3.02e+01	59	28	0	739246080	48	6186
2026-01-14 04:55:38.57	314.74	6.78	-36.9	-38.3	27.1	3.02e+01	57	28	0	740818944	48	6319
2026-01-14 04:55:39.58	314.91	6.74	-36.7	-38.0	27.3	3.02e+01	58	27	0	742916096	48	6134
2026-01-14 04:55:40.59	315.07	6.71	-36.7	-38.0	27.3	3.02e+01	60	27	0	745013248	48	6091
2026-01-14 04:55:41.60	315.24	6.67	-36.8	-38.2	27.1	3.02e+01	59	27	0	746586112	48	6250
2026-01-14 04:55:42.61	315.40	6.64	-36.8	-38.1	27.2	3.02e+01	49	28	0	748683264	48	6182
2026-01-14 04:55:43.62	315.57	6.60	-36.8	-38.2	27.1	3.02e+01	61	28	0	750256128	48	6233
2026-01-14 04:55:44.63	315.73	6.56	-36.8	-38.2	27.1	3.02e+01	57	28	0	752353280	48	6233
2026-01-14 04:55:45.63	315.89	6.53	-36.9	-38.3	27.0	3.02e+01	57	28	0	754450432	48	6284
2026-01-14 04:55:46.64	316.05	6.49	-36.9	-38.3	27.0	3.02e+01	59	28	0	756023296	48	6308
2026-01-14 04:55:47.65	316.22	6.46	-37.0	-38.4	26.9	3.02e+01	44	28	0	758120448	48	6362
2026-01-14 04:55:48.66	316.38	6.42	-37.0	-38.3	27.0	3.02e+01	59	28	0	760217600	48	6340
2026-01-14 04:55:49.67	316.54	6.38	-37.0	-38.4	26.9	3.02e+01	60	28	0	761790464	48	6382
2026-01-14 04:55:50.68	316.70	6.35	-36.9	-38.3	27.0	3.02e+01	44	28	0	763887616	48	6296
2026-01-14 04:55:51.69	316.86	6.31	-37.0	-38.4	26.8	3.02e+01	58	28	0	765460480	48	6395
2026-01-14 04:55:52.70	317.02	6.27	-37.0	-38.3	26.9	3.02e+01	61	28	0	767557632	48	6327
2026-01-14 04:55:53.71	317.18	6.24	-36.9	-38.2	27.0	3.02e+01	61	28	0	769654784	48	6277
2026-01-14 04:55:54.72	317.34	6.20	-37.0	-38.3	26.8	3.02e+01	60	28	0	771227648	48	6346
2026-01-14 04:55:55.73	317.50	6.16	-36.8	-38.2	27.0	3.02e+01	44	28	0	773324800	48	6231
2026-01-14 04:55:56.74	317.66	6.13	-37.0	-38.4	26.9	3.02e+01	59	28	0	774897664	48	6361
2026-01-14 04:55:57.75	317.81	6.09	-37.0	-38.3	26.9	3.02e+01	59	28	0	776994816	48	6324
2026-01-14 04:55:58.76	317.97	6.05	-36.9	-38.2	27.0	3.02e+01	56	28	0	779091968	48	6275
2026-01-14 04:55:59.77	318.13	6.01	-36.9	-38.3	26.9	3.02e+01	62	28	0	780664832	48	6300
2026-01-14 04:56:00.78	318.29	5.98	-37.2	-38.6	26.8	3.02e+01	53	28	0	782761984	48	6501
2026-01-14 04:56:01.79	318.44	5.94	-37.2	-38.6	26.6	3.02e+01	61	28	0	784859136	48	6551
2026-01-14 04:56:02.79	318.60	5.90	-37.4	-38.8	26.5	3.02e+01	60	28	0	786432000	48	6705
2026-01-14 04:56:03.80	318.75	5.86	-37.4	-38.8	26.3	3.02e+01	53	28	0	788529152	48	6703
2026-01-14 04:56:04.81	318.91	5.83	-37.5	-38.9	26.4	3.02e+01	53	27	0	790102016	48	6787
2026-01-14 04:56:05.82	319.06	5.79	-37.3	-38.7	26.4	3.02e+01	62	28	0	792199168	48	6632
2026-01-14 04:56:06.83	319.22	5.75	-37.3	-38.7	26.5	3.02e+01	60	28	0	793772032	48	6615
2026-01-14 04:56:07.84	319.37	5.71	-37.1	-38.5	26.7	3.02e+01	58	28	0	795869184	48	6468
2026-01-14 04:56:08.85	319.52	5.67	-37.2	-38.6	26.6	3.02e+01	49	28	0	797966336	48	6532
2026-01-14 04:56:09.86	319.68	5.63	-37.0	-38.4	26.7	3.02e+01	59	28	0	799539200	48	6403
2026-01-14 04:56:10.87	319.83	5.60	-37.1	-38.5	26.7	3.02e+01	60	27	0	801636352	48	6437
2026-01-14 04:56:11.88	319.98	5.56	-37.1	-38.5	26.7	3.02e+01	44	27	0	803209216	48	6474
2026-01-14 04:56:12.89	320.13	5.52	-37.1	-38.5	26.6	3.02e+01	62	27	0	805306368	48	6475
2026-01-14 04:56:13.90	320.28	5.48	-37.1	-38.5	26.6	3.02e+01	59	28	0	807403520	48	6484
2026-01-14 04:56:14.91	320.43	5.44	-37.2	-38.6	26.6	3.02e+01	59	28	0	808976384	48	6535
2026-01-14 04:56:15.92	320.58	5.40	-37.3	-38.7	26.5	3.02e+01	57	28	0	811073536	48	6604
2026-01-14 04:56:16.93	320.73	5.36	-37.3	-38.7	26.4	3.02e+01	50	28	0	813170688	48	6612
2026-01-14 04:56:17.94	320.88	5.32	-37.2	-38.7	26.5	3.02e+01	61	28	0	814743552	48	6596
2026-01-14 04:56:18.95	321.03	5.28	-37.3	-38.7	26.4	3.02e+01	61	28	0	816840704	48	6607
2026-01-14 04:56:19.96	321.18	5.24	-37.4	-38.8	26.3	3.02e+01	49	27	0	818413568	48	6675
2026-01-14 04:56:20.97	321.33	5.21	-37.4	-38.9	26.3	3.02e+01	60	28	0	820510720	48	6728
2026-01-14 04:56:21.98	321.48	5.17	-37.4	-38.8	26.3	3.02e+01	57	27	0	822607872	48	6725
2026-01-14 04:56:22.99	321.62	5.13	-37.4	-38.8	26.2	3.02e+01	60	27	0	824180736	48	6703
2026-01-14 04:56:24.00	321.77	5.09	-37.4	-38.8	26.3	3.02e+01	60	28	0	826277888	48	6702
2026-01-14 04:56:25.00	321.92	5.05	-37.6	-39.0	26.2	3.02e+01	46	28	0	828375040	48	6867
2026-01-14 04:56:26.01	322.06	5.01	-37.3	-38.7	26.3	3.02e+01	59	28	0	829947904	48	6646
2026-01-14 04:56:27.02	322.21	4.97	-37.3	-38.7	26.3	3.02e+01	61	27	0	832045056	48	6629
2026-01-14 04:56:28.03	322.35	4.93	-37.4	-38.8	26.2	3.02e+01	45	28	0	833617920	48	6690
2026-01-14 04:56:29.04	322.50	4.89	-37.4	-38.9	26.2	3.02e+01	61	27	0	835715072	48	6729
2026-01-14 04:56:30.05	322.64	4.85	-37.3	-38.8	26.3	3.02e+01	58	28	0	837812224	48	6657
2026-01-14 04:56:31.06	322.79	4.81	-37.5	-39.0	26.1	3.02e+01	58	28	0	839385088	48	6818
2026-01-14 04:56:32.07	322.93	4.77	-37.5	-39.0	26.1	3.02e+01	59	28	0	841482240	48	6837
2026-01-14 04:56:33.08	323.07	4.73	-37.4	-38.8	26.2	3.02e+01	55	28	0	843055104	48	6726
2026-01-14 04:56:34.09	323.22	4.69	-37.5	-38.9	26.1	3.02e+01	59	28	0	845152256	48	6801
2026-01-14 04:56:35.10	323.36	4.65	-37.6	-39.1	26.0	3.02e+01	60	28	0	847249408	48	6890
2026-01-14 04:56:36.11	323.50	4.60	-37.7	-39.2	25.8	3.02e+01	46	28	0	848822272	48	6975
2026-01-14 04:56:37.12	323.64	4.56	-37.6	-39.1	25.9	3.02e+01	59	28	0	850919424	48	6920
2026-01-14 04:56:38.12	323.78	4.52	-37.8	-39.4	25.6	3.02e+01	49	28	0	852492288	48	7141
2026-01-14 04:56:39.13	323.92	4.48	-37.7	-39.2	25.7	3.02e+01	59	28	0	854589440	48	7032
2026-01-14 04:56:40.14	324.06	4.44	-37.7	-39.2	25.8	3.02e+01	60	28	0	856686592	48	6991
2026-01-14 04:56:41.15	324.20	4.40	-37.7	-39.2	25.8	3.02e+01	51	27	0	858259456	48	7036
2026-01-14 04:56:42.16	324.34	4.36	-37.6	-39.0	25.9	3.02e+01	59	28	0	860356608	48	6877
2026-01-14 04:56:43.17	324.48	4.32	-37.6	-39.1	25.9	3.02e+01	60	28	0	861929472	48	6922
2026-01-14 04:56:44.18	324.62	4.28	-37.5	-39.0	25.9	3.02e+01	59	28	0	864026624	48	6850
2026-01-14 04:56:45.19	324.76	4.24	-37.7	-39.1	25.8	3.02e+01	60	28	0	866123776	48	6940
2026-01-14 04:56:46.20	324.90	4.20	-37.6	-39.1	25.9	3.02e+01	53	28	0	867696640	48	6925
2026-01-14 04:56:47.21	325.03	4.15	-37.7	-39.1	25.8	3.02e+01	58	28	0	869793792	48	6962
2026-01-14 04:56:48.22	325.17	4.11	-37.7	-39.2	25.7	3.02e+01	60	28	0	871366656	48	7019
2026-01-14 04:56:49.23	325.31	4.07	-37.7	-39.1	25.7	3.02e+01	46	28	0	873463808	48	6931
2026-01-14 04:56:50.24	325.44	4.03	-38.3	-48.3	3.4	3.02e+01	45	28	104	875560960	48	20052
2026-01-14 04:56:51.25	325.58	3.99	-38.2	-48.6	3.6	3.02e+01	0	28	104	875560960	50	18469
2026-01-14 04:56:52.26	325.71	3.95	-38.2	-48.7	3.4	3.02e+01	0	28	104	875560960	50	18571
2026-01-14 04:56:53.27	325.85	3.91	-38.2	-48.6	3.6	3.02e+01	0	28	104	875560960	50	18377
2026-01-14 04:56:54.27	325.98	3.86	-38.2	-48.6	3.6	3.02e+01	0	28	104	875560960	50	18427
2026-01-14 04:56:55.28	326.12	3.82	-38.7	-49.1	3.5	3.02e+01	0	28	104	875560960	54	15551
2026-01-14 04:56:56.29	326.25	3.78	-47.3	-64.1	3.5	3.02e+01	0	28	104	875560960	60	61514
2026-01-14 04:56:57.30	326.38	3.74	-44.2	-56.4	3.4	3.02e+01	0	28	104	875560960	60	25352
2026-01-14 04:56:58.31	326.52	3.70	-42.9	-54.4	3.6	3.02e+01	0	28	104	875560960	60	20167
2026-01-14 04:56:59.33	326.65	3.66	-40.8	-51.6	3.5	3.02e+01	0	28	104	875560960	56	18326
2026-01-14 04:57:00.33	326.78	3.61	-41.3	-52.1	3.6	3.02e+01	0	28	104	875560960	56	19532
2026-01-14 04:57:01.35	326.91	3.57	-40.1	-50.7	3.6	3.02e+01	0	28	104	875560960	56	16635
2026-01-14 04:57:02.35	327.04	3.53	-39.0	-49.4	3.4	3.02e+01	0	28	104	875560960	54	16062
2026-01-14 04:57:03.37	327.18	3.49	-38.4	-48.7	3.5	3.02e+01	0	28	104	875560960	52	16661
2026-01-14 04:57:04.38	327.31	3.45	-41.6	-52.6	4.0	3.02e+01	0	28	104	875560960	60	16403
2026-01-14 04:57:05.39	327.44	3.40	-46.8	-63.4	3.5	3.02e+01	0	28	104	875560960	60	56679
2026-01-14 04:57:06.40	327.57	3.36	-44.7	-57.5	3.5	3.02e+01	0	28	104	875560960	60	28747
2026-01-14 04:57:07.41	327.70	3.32	-40.2	-50.7	3.9	3.02e+01	0	28	104	875560960	56	16653
2026-01-14 04:57:08.42	327.82	3.28	-39.3	-49.8	3.5	3.02e+01	0	28	104	875560960	54	16868
2026-01-14 04:57:09.43	327.95	3.23	-39.1	-49.6	3.5	3.02e+01	0	28	104	875560960	54	16441
2026-01-14 04:57:10.44	328.08	3.19	-39.1	-49.7	3.5	3.02e+01	0	28	104	875560960	52	18597
2026-01-14 04:57:11.45	328.21	3.15	-40.3	-51.2	3.5	3.02e+01	0	28	104	875560960	52	22173
2026-01-14 04:57:12.45	328.33	3.11	-42.5	-53.9	3.5	3.02e+01	0	28	104	875560960	60	19003
2026-01-14 04:57:13.46	328.46	3.07	-39.6	-50.5	3.5	3.02e+01	0	28	104	875560960	52	20369
2026-01-14 04:57:14.47	328.59	3.02	-44.8	-60.0	3.5	3.02e+01	0	28	104	875560960	60	38605
2026-01-14 04:57:15.48	328.71	2.98	-40.1	-51.1	3.5	3.02e+01	0	28	104	875560960	56	17311
2026-01-14 04:57:16.49	328.84	2.94	-47.9	-66.0	3.5	3.02e+01	0	28	104	875560960	60	77020
2026-01-14 04:57:17.50	328.97	2.90	-48.5	-66.4	3.5	3.02e+01	0	28	104	875560960	60	80697
2026-01-14 04:57:18.51	329.09	2.85	-48.5	-66.7	3.5	3.02e+01	0	28	104	875560960	60	83354
2026-01-14 04:57:19.52	329.22	2.81	-48.8	-66.8	3.5	3.02e+01	0	28	104	875560960	60	84091
2026-01-14 04:57:20.53	329.34	2.77	-48.9	-67.0	3.5	3.02e+01	0	28	104	875560960	60	86041
2026-01-14 04:57:21.54	329.46	2.73	-49.0	-67.0	3.5	3.02e+01	0	28	104	875560960	60	86259
2026-01-14 04:57:22.55	329.59	2.68	-48.4	-67.0	3.5	3.02e+01	0	28	104	875560960	60	86373
2026-01-14 04:57:23.56	329.71	2.64	-49.0	-67.0	3.5	3.02e+01	0	28	104	875560960	60	86533
2026-01-14 04:57:24.57	329.83	2.60	-48.9	-67.0	3.5	3.02e+01	0	28	104	875560960	60	86464
2026-01-14 04:57:25.58	329.96	2.56	-49.0	-67.1	3.5	3.02e+01	0	28	104	875560960	60	87175
2026-01-14 04:57:26.59	330.08	2.51	-49.0	-67.0	3.5	3.02e+01	0	28	104	875560960	60	86302
2026-01-14 04:57:27.60	330.20	2.47	-49.2	-67.1	3.5	3.02e+01	0	28	104	875560960	60	87119
2026-01-14 04:57:28.61	330.32	2.43	-48.9	-66.9	3.5	3.02e+01	0	28	104	875560960	60	85606
2026-01-14 04:57:29.62	330.44	2.38	-49.0	-66.9	3.5	3.02e+01	0	28	104	875560960	60	84996
2026-01-14 04:57:30.63	330.56	2.34	-48.7	-66.9	3.5	3.02e+01	0	28	104	875560960	60	84969
2026-01-14 04:57:31.64	330.68	2.30	-49.0	-66.9	3.5	3.02e+01	0	28	104	875560960	60	85501
2026-01-14 04:57:32.65	330.80	2.26	-49.1	-67.1	3.5	3.02e+01	0	28	104	875560960	60	86728
2026-01-14 04:57:33.66	330.92	2.21	-49.1	-67.0	3.5	3.02e+01	0	28	104	875560960	60	86467
2026-01-14 04:57:34.67	331.04	2.17	-49.1	-67.0	3.5	3.02e+01	0	28	104	875560960	60	85997
2026-01-14 04:57:35.68	331.16	2.13	-49.1	-67.0	3.5	3.02e+01	0	28	104	875560960	60	85709
2026-01-14 04:57:36.69	331.28	2.08	-49.1	-66.9	3.5	3.02e+01	0	28	104	875560960	60	85447
2026-01-14 04:57:37.70	331.40	2.04	-49.1	-67.0	3.5	3.02e+01	0	28	104	875560960	60	86045
2026-01-14 04:57:38.71	331.52	2.00	-49.1	-67.0	3.5	3.02e+01	0	28	104	875560960	60	85777
2026-01-14 04:57:39.72	331.63	1.95	-49.1	-66.9	3.5	3.02e+01	0	28	104	875560960	60	85512
2026-01-14 04:57:40.73	331.75	1.91	-49.0	-67.0	3.6	3.02e+01	0	28	104	875560960	60	85729
2026-01-14 04:57:41.74	331.87	1.87	-49.0	-67.0	3.5	3.02e+01	0	28	104	875560960	60	85679
2026-01-14 04:57:42.75	331.98	1.83	-49.0	-66.9	3.5	3.02e+01	0	28	104	875560960	60	85080
2026-01-14 04:57:43.75	332.10	1.78	-49.0	-67.0	3.5	3.02e+01	0	28	104	875560960	60	85716
2026-01-14 04:57:44.76	332.21	1.74	-49.0	-66.9	3.5	3.02e+01	0	28	104	875560960	60	85541
2026-01-14 04:57:45.77	332.33	1.70	-49.0	-67.0	3.5	3.02e+01	0	28	104	875560960	60	85680
2026-01-14 04:57:46.78	332.44	1.65	-49.0	-67.0	3.5	3.02e+01	0	28	104	875560960	60	85779
2026-01-14 04:57:47.79	332.56	1.61	-49.0	-66.9	3.5	3.02e+01	0	28	104	875560960	60	85548
2026-01-14 04:57:48.80	332.67	1.57	-49.0	-66.9	3.5	3.02e+01	0	28	104	875560960	60	85333
2026-01-14 04:57:49.81	332.79	1.52	-49.0	-66.9	3.5	3.02e+01	0	28	104	875560960	60	84885
2026-01-14 04:57:50.82	332.90	1.48	-49.0	-66.9	3.5	3.02e+01	0	28	104	875560960	60	85195
2026-01-14 04:57:51.83	333.01	1.44	-49.0	-66.9	3.5	3.02e+01	0	28	104	875560960	60	85395
2026-01-14 04:57:52.84	333.12	1.39	-49.0	-66.9	3.5	3.02e+01	0	28	104	875560960	60	85105
2026-01-14 04:57:53.85	333.24	1.35	-49.0	-66.9	3.5	3.02e+01	0	28	104	875560960	60	85260
2026-01-14 04:57:54.86	333.35	1.31	-49.0	-66.9	3.5	3.02e+01	0	28	104	875560960	60	85507
2026-01-14 04:57:55.87	333.46	1.26	-49.0	-66.9	3.5	3.02e+01	0	28	104	875560960	60	84983
2026-01-14 04:57:56.88	333.57	1.22	-49.0	-66.9	3.5	3.02e+01	0	28	104	875560960	60	85381
2026-01-14 04:57:57.89	333.68	1.18	-49.0	-66.9	3.5	3.02e+01	0	28	104	875560960	60	85140
2026-01-14 04:57:58.90	333.79	1.13	-49.0	-66.9	3.5	3.02e+01	0	28	104	875560960	60	85214
2026-01-14 04:57:59.91	333.90	1.09	-49.0	-66.9	3.5	3.02e+01	0	28	104	875560960	60	84954
2026-01-14 04:58:00.92	334.01	1.05	-49.0	-66.9	3.5	3.02e+01	0	28	104	875560960	60	85122
2026-01-14 04:58:01.93	334.12	1.01	-49.0	-66.9	3.5	3.02e+01	0	28	104	875560960	60	85321
2026-01-14 04:58:02.94	334.23	0.96	-49.0	-66.9	3.5	3.02e+01	0	28	104	875560960	60	84690
2026-01-14 04:58:03.95	334.34	0.92	-49.0	-66.9	3.5	3.02e+01	0	28	104	875560960	60	85029
2026-01-14 04:58:04.96	334.45	0.88	-49.0	-66.9	3.5	3.02e+01	0	28	104	875560960	60	85149
2026-01-14 04:58:05.97	334.56	0.83	-49.0	-66.9	3.5	3.02e+01	0	28	104	875560960	60	85064
2026-01-14 04:58:06.98	334.67	0.79	-49.0	-66.9	3.5	3.02e+01	0	28	104	875560960	60	84941
2026-01-14 04:58:07.99	334.78	0.75	-49.0	-66.9	3.5	3.02e+01	0	28	104	875560960	60	84790
2026-01-14 04:58:09.00	334.88	0.70	-49.0	-66.9	3.5	3.02e+01	0	28	104	875560960	60	85559
2026-01-14 04:58:10.01	334.99	0.66	-49.0	-66.9	3.5	3.02e+01	0	28	104	875560960	60	84913
2026-01-14 04:58:11.02	335.10	0.62	-49.0	-66.9	3.5	3.02e+01	0	28	104	875560960	60	84862
2026-01-14 04:58:12.03	335.20	0.57	-49.0	-66.8	3.5	3.02e+01	0	28	104	875560960	60	84627
2026-01-14 04:58:13.04	335.31	0.53	-49.0	-66.9	3.5	3.02e+01	0	28	104	875560960	60	84776
2026-01-14 04:58:14.05	335.42	0.49	-49.0	-66.9	3.5	3.02e+01	0	28	104	875560960	60	84953
2026-01-14 04:58:15.06	335.52	0.44	-49.0	-66.9	3.5	3.02e+01	0	28	104	875560960	60	85412
2026-01-14 04:58:16.07	335.63	0.40	-49.0	-66.9	3.5	3.02e+01	0	28	104	875560960	60	85052
2026-01-14 04:58:17.08	335.73	0.36	-49.0	-66.8	3.5	3.02e+01	0	28	104	875560960	60	84362
2026-01-14 04:58:18.09	335.84	0.31	-49.0	-66.9	3.5	3.02e+01	0	28	104	875560960	60	85039
2026-01-14 04:58:19.10	335.94	0.27	-49.0	-66.8	3.5	3.02e+01	0	28	104	875560960	60	84516
2026-01-14 04:58:20.11	336.04	0.23	-49.0	-66.9	3.5	3.02e+01	0	28	104	875560960	60	85163
2026-01-14 04:58:21.12	336.15	0.18	-49.0	-66.9	3.5	3.02e+01	0	28	104	875560960	60	84978
2026-01-14 04:58:22.13	336.25	0.14	-49.0	-66.9	3.5	3.02e+01	0	28	104	875560960	60	84856
2026-01-14 04:58:23.14	336.35	0.10	-49.0	-66.9	3.5	3.02e+01	0	28	104	875560960	60	84772
2026-01-14 04:58:24.15	336.46	0.05	-49.0	-66.9	3.5	3.02e+01	0	28	104	875560960	60	84827
2026-01-14 04:58:25.16	336.56	0.01	-49.0	-66.9	3.5	3.02e+01	0	28	104	875560960	60	84826
2026-01-14 04:58:26.17	336.66	-0.03	-49.0	-66.9	3.5	3.02e+01	0	28	104	875560960	60	84773

#Closed at: 2026-01-14 04:58:26
#Recorded file [875 MB]: D:/lorett/data/35029_260114_164800.dat