passes_logs/2026/01/14/R4.6S_Anadyr/R4.6S_Anadyr__20260114_134337_NOAA_20_JPSS-1_rec.log

#Pass ID: 20260114_134337_NOAA 20 (JPSS-1)
#Satellite: NOAA 20 (JPSS-1)
#Configuration: NOAA 20
#almurnet v.1.7.20251203
#Start time: 2026-01-14 13:43:40

#Version: 2.2.20231116
#Station: R4.6S_Anadyr
#Location: 177.4865 lon 64.73178 lat
#TLE: 1 43013U 17073A   26013.84982170  .00000053  00000+0  46215-4 0  9999
#TLE: 2 43013  98.7633 314.8013 0001544  40.9009 319.2282 14.19535753422575

#Time	Az	El	Level	Level2	SNR	BER	BlckErr	Temp	State	Recorded	gain1	gain2
2026-01-14 13:43:40.57	19.14	0.20	-48.6	-62.3	3.3	1.54e+00	0	27	0	0	60	47340
2026-01-14 13:43:41.57	19.18	0.25	-48.7	-63.9	3.6	1.51e+00	0	27	104	0	60	56433
2026-01-14 13:43:42.58	19.21	0.31	-48.7	-63.9	3.6	1.51e+00	0	27	104	0	60	56781
2026-01-14 13:43:43.59	19.25	0.37	-48.7	-63.9	3.6	1.51e+00	0	27	104	0	60	56631
2026-01-14 13:43:44.60	19.28	0.43	-48.7	-63.9	3.6	1.51e+00	0	27	104	0	60	56815
2026-01-14 13:43:45.61	19.31	0.49	-48.8	-64.0	3.6	1.51e+00	0	27	104	0	60	57066
2026-01-14 13:43:46.62	19.35	0.55	-48.8	-63.9	3.5	1.51e+00	0	27	104	0	60	56917
2026-01-14 13:43:47.63	19.39	0.61	-48.7	-63.9	3.6	1.51e+00	0	27	104	0	60	56765
2026-01-14 13:43:48.64	19.42	0.67	-48.7	-63.9	3.6	1.51e+00	0	27	104	0	60	56371
2026-01-14 13:43:49.65	19.46	0.73	-48.6	-63.8	3.6	1.51e+00	0	27	104	0	60	56167
2026-01-14 13:43:50.66	19.49	0.78	-48.5	-63.7	3.6	1.51e+00	0	27	104	0	60	55455
2026-01-14 13:43:51.67	19.53	0.84	-48.4	-63.6	3.6	1.51e+00	0	27	104	0	60	54687
2026-01-14 13:43:52.68	19.56	0.90	-48.2	-63.4	3.6	1.51e+00	0	27	104	0	60	53670
2026-01-14 13:43:53.69	19.60	0.96	-47.9	-63.2	3.6	1.51e+00	0	27	104	0	60	52330
2026-01-14 13:43:54.69	19.63	1.02	-47.9	-63.0	3.6	1.51e+00	0	27	104	0	60	50993
2026-01-14 13:43:55.70	19.67	1.08	-47.6	-62.7	3.6	1.51e+00	0	27	104	0	60	49428
2026-01-14 13:43:56.71	19.71	1.14	-47.2	-62.4	3.6	1.51e+00	0	27	104	0	60	47538
2026-01-14 13:43:57.73	19.74	1.20	-47.1	-62.3	3.6	1.51e+00	0	27	104	0	60	46885
2026-01-14 13:43:58.73	19.78	1.26	-47.1	-62.3	3.6	1.51e+00	0	27	104	0	60	46887
2026-01-14 13:43:59.74	19.82	1.32	-47.1	-62.2	3.6	1.51e+00	0	27	104	0	60	46711
2026-01-14 13:44:00.75	19.85	1.38	-47.1	-62.2	3.6	1.51e+00	0	27	104	0	60	46590
2026-01-14 13:44:01.77	19.89	1.45	-47.1	-62.2	3.6	1.51e+00	0	27	104	0	60	46718
2026-01-14 13:44:02.77	19.93	1.51	-47.1	-62.2	3.6	1.51e+00	0	27	104	0	60	46610
2026-01-14 13:44:03.78	19.97	1.57	-47.1	-62.2	3.6	1.51e+00	0	28	104	0	60	46713
2026-01-14 13:44:04.79	20.00	1.63	-47.1	-62.2	3.6	1.51e+00	0	27	104	0	60	46422
2026-01-14 13:44:05.80	20.04	1.69	-47.1	-62.2	3.6	1.51e+00	0	28	104	0	60	46720
2026-01-14 13:44:06.82	20.08	1.75	-47.1	-62.2	3.6	1.51e+00	0	28	104	0	60	46690
2026-01-14 13:44:07.82	20.12	1.81	-47.1	-62.2	3.6	1.51e+00	0	28	104	0	60	46728
2026-01-14 13:44:08.83	20.15	1.87	-47.1	-62.3	3.6	1.51e+00	0	28	104	0	60	46893
2026-01-14 13:44:09.84	20.19	1.93	-47.1	-62.2	3.6	1.51e+00	0	27	104	0	60	46722
2026-01-14 13:44:10.85	20.23	2.00	-47.1	-62.3	3.6	1.51e+00	0	27	104	0	60	46873
2026-01-14 13:44:11.86	20.27	2.06	-47.1	-62.2	3.6	1.51e+00	0	27	104	0	60	46664
2026-01-14 13:44:12.87	20.31	2.12	-47.1	-62.1	3.6	1.51e+00	0	27	104	0	60	46073
2026-01-14 13:44:13.88	20.35	2.18	-47.1	-61.9	3.5	1.51e+00	0	28	104	0	60	44931
2026-01-14 13:44:14.89	20.38	2.24	-47.1	-61.4	3.6	1.51e+00	0	28	104	0	60	42370
2026-01-14 13:44:15.90	20.42	2.31	-47.0	-61.1	3.6	1.51e+00	0	28	104	0	60	40871
2026-01-14 13:44:16.91	20.46	2.37	-47.1	-61.3	3.6	1.51e+00	0	28	104	0	60	41746
2026-01-14 13:44:17.92	20.50	2.43	-47.1	-61.5	3.6	1.51e+00	0	27	104	0	60	42762
2026-01-14 13:44:18.93	20.54	2.50	-47.1	-62.1	3.6	1.51e+00	0	28	104	0	60	45873
2026-01-14 13:44:19.94	20.58	2.56	-47.1	-61.8	3.6	1.51e+00	0	28	104	0	60	44305
2026-01-14 13:44:20.95	20.62	2.62	-46.9	-59.2	3.7	1.51e+00	0	28	104	0	60	32949
2026-01-14 13:44:21.96	20.66	2.68	-46.6	-54.9	5.6	5.72e-01	0	28	0	0	60	20180
2026-01-14 13:44:22.97	20.70	2.75	-46.0	-51.8	8.7	1.10e-01	38	28	0	2097152	60	14056
2026-01-14 13:44:23.98	20.74	2.81	-45.0	-49.2	12.0	5.91e-03	37	28	0	4194304	60	10377
2026-01-14 13:44:24.99	20.78	2.88	-44.2	-47.6	13.6	8.39e-05	92	28	0	5242880	60	8687
2026-01-14 13:44:26.00	20.82	2.94	-43.4	-46.2	15.2	0.00e+00	44	28	0	7340032	60	7340
2026-01-14 13:44:27.01	20.86	3.00	-42.8	-45.2	16.0	0.00e+00	90	28	0	9437184	60	6612
2026-01-14 13:44:28.02	20.90	3.07	-42.0	-44.1	17.0	0.00e+00	42	28	0	11534336	58	6490
2026-01-14 13:44:29.03	20.94	3.13	-41.6	-43.5	17.8	0.00e+00	43	28	0	13631488	56	6807
2026-01-14 13:44:30.04	20.98	3.20	-41.8	-43.7	17.6	0.00e+00	38	28	0	14680064	56	6998
2026-01-14 13:44:31.05	21.02	3.26	-41.8	-43.7	17.5	0.00e+00	2	28	0	16777216	56	6994
2026-01-14 13:44:32.05	21.07	3.32	-42.3	-44.4	16.8	0.00e+00	24	28	0	18874368	56	7524
2026-01-14 13:44:33.06	21.11	3.39	-43.0	-45.5	15.6	0.00e+00	2	28	0	20971520	58	7596
2026-01-14 13:44:34.07	21.15	3.45	-43.9	-47.0	14.1	0.00e+00	92	28	0	23068672	60	8108
2026-01-14 13:44:35.08	21.19	3.52	-44.9	-49.0	12.1	1.98e-05	0	28	0	25165824	60	10219
2026-01-14 13:44:36.09	21.23	3.58	-41.6	-43.4	17.9	0.00e+00	92	28	0	26214400	56	6739
2026-01-14 13:44:37.10	21.27	3.65	-46.9	-58.6	3.7	7.33e-02	0	28	104	28311552	60	30652
2026-01-14 13:44:38.11	21.32	3.71	-46.7	-55.5	5.6	4.00e-01	0	28	0	28311552	60	21482
2026-01-14 13:44:39.12	21.36	3.78	-44.9	-48.7	12.8	1.49e-04	0	28	0	29360128	60	9824
2026-01-14 13:44:40.13	21.40	3.85	-47.1	-60.9	3.6	7.72e-01	0	28	104	30408704	60	39958
2026-01-14 13:44:41.14	21.45	3.91	-44.1	-47.3	14.0	1.49e+00	92	28	104	30408704	60	8380
2026-01-14 13:44:42.15	21.49	3.98	-43.6	-46.3	15.2	7.00e-07	0	28	0	30408704	60	7468
2026-01-14 13:44:43.16	21.53	4.04	-43.0	-45.3	16.1	0.00e+00	90	28	0	32505856	60	6679
2026-01-14 13:44:44.17	21.57	4.11	-42.6	-44.8	16.6	0.00e+00	49	28	0	34603008	58	7067
2026-01-14 13:44:45.18	21.62	4.18	-42.3	-44.4	17.1	0.00e+00	49	28	0	36700160	58	6700
2026-01-14 13:44:46.18	21.66	4.24	-42.0	-43.9	17.3	0.00e+00	49	28	0	38797312	58	6364
2026-01-14 13:44:47.19	21.71	4.31	-42.0	-43.9	17.6	0.00e+00	32	28	0	39845888	58	6368
2026-01-14 13:44:48.21	21.75	4.38	-41.6	-43.4	18.1	0.00e+00	92	28	0	41943040	56	6738
2026-01-14 13:44:49.21	21.79	4.44	-41.9	-43.7	18.0	0.00e+00	33	28	0	44040192	56	6958
2026-01-14 13:44:50.22	21.84	4.51	-41.6	-43.4	18.0	0.00e+00	92	28	0	46137344	56	6740
2026-01-14 13:44:51.23	21.88	4.58	-41.4	-43.1	18.5	0.00e+00	0	28	0	48234496	56	6504
2026-01-14 13:44:52.24	21.93	4.65	-41.0	-42.6	19.0	0.00e+00	0	28	0	50331648	56	6157
2026-01-14 13:44:53.25	21.97	4.71	-41.1	-42.6	18.9	0.00e+00	37	28	0	51380224	56	6162
2026-01-14 13:44:54.26	22.02	4.78	-41.0	-42.6	19.0	0.00e+00	0	28	0	53477376	56	6106
2026-01-14 13:44:55.27	22.06	4.85	-40.8	-42.4	19.1	0.00e+00	0	28	0	55574528	56	5979
2026-01-14 13:44:56.28	22.11	4.92	-40.9	-42.5	19.2	0.00e+00	0	28	0	57671680	56	6042
2026-01-14 13:44:57.29	22.15	4.99	-40.8	-42.3	19.2	0.00e+00	92	28	0	59768832	54	6685
2026-01-14 13:44:58.29	22.20	5.05	-40.8	-42.3	19.2	0.00e+00	0	28	0	60817408	54	6634
2026-01-14 13:44:59.30	22.25	5.12	-40.8	-42.4	19.2	0.00e+00	0	28	0	62914560	54	6697
2026-01-14 13:45:00.31	22.29	5.19	-41.1	-42.6	18.9	0.00e+00	0	28	0	65011712	54	6927
2026-01-14 13:45:01.32	22.34	5.26	-41.0	-42.6	19.1	0.00e+00	0	28	0	67108864	54	6854
2026-01-14 13:45:02.33	22.39	5.33	-40.9	-42.5	19.1	0.00e+00	0	28	0	69206016	54	6772
2026-01-14 13:45:03.34	22.43	5.40	-40.6	-42.1	19.5	0.00e+00	46	28	0	70254592	54	6467
2026-01-14 13:45:04.35	22.48	5.47	-40.7	-42.1	19.4	0.00e+00	92	28	0	72351744	54	6511
2026-01-14 13:45:05.36	22.53	5.54	-40.7	-42.2	19.4	0.00e+00	47	28	0	74448896	54	6557
2026-01-14 13:45:06.37	22.57	5.61	-40.7	-42.2	19.4	0.00e+00	92	28	0	76546048	54	6556
2026-01-14 13:45:07.38	22.62	5.68	-40.7	-42.1	19.5	0.00e+00	0	28	0	78643200	54	6517
2026-01-14 13:45:08.39	22.67	5.75	-40.6	-42.0	19.6	0.00e+00	43	28	0	79691776	54	6417
2026-01-14 13:45:09.40	22.72	5.82	-40.6	-42.0	19.6	0.00e+00	43	28	0	81788928	54	6436
2026-01-14 13:45:10.41	22.77	5.89	-40.4	-41.8	19.8	0.00e+00	43	28	0	83886080	54	6293
2026-01-14 13:45:11.42	22.81	5.96	-40.5	-41.9	19.8	0.00e+00	91	28	0	85983232	54	6342
2026-01-14 13:45:12.43	22.86	6.03	-40.4	-41.8	19.8	0.00e+00	31	28	0	88080384	54	6280
2026-01-14 13:45:13.44	22.91	6.10	-40.4	-41.8	19.8	0.00e+00	91	28	0	89128960	54	6315
2026-01-14 13:45:14.45	22.96	6.17	-40.4	-41.8	19.8	0.00e+00	0	28	0	91226112	54	6290
2026-01-14 13:45:15.46	23.01	6.24	-40.5	-41.9	19.8	0.00e+00	0	28	0	93323264	54	6341
2026-01-14 13:45:16.47	23.06	6.32	-40.4	-41.8	19.9	0.00e+00	6	28	0	95420416	54	6277
2026-01-14 13:45:17.48	23.11	6.39	-40.4	-41.7	19.9	0.00e+00	38	28	0	97517568	54	6240
2026-01-14 13:45:18.49	23.16	6.46	-40.5	-41.8	19.8	0.00e+00	19	28	0	98566144	54	6316
2026-01-14 13:45:19.50	23.21	6.53	-40.3	-41.7	20.0	0.00e+00	0	28	0	100663296	54	6191
2026-01-14 13:45:20.51	23.26	6.60	-40.3	-41.7	20.0	0.00e+00	92	28	0	102760448	54	6216
2026-01-14 13:45:21.52	23.31	6.68	-40.4	-41.8	19.9	0.00e+00	0	28	0	104857600	54	6275
2026-01-14 13:45:22.53	23.36	6.75	-40.5	-41.8	19.9	0.00e+00	6	28	0	106954752	54	6306
2026-01-14 13:45:23.54	23.41	6.82	-40.3	-41.6	20.1	0.00e+00	0	28	0	108003328	54	6161
2026-01-14 13:45:24.55	23.47	6.90	-40.1	-41.5	20.2	0.00e+00	0	28	0	110100480	54	6043
2026-01-14 13:45:25.56	23.52	6.97	-40.2	-41.5	20.3	0.00e+00	0	28	0	112197632	54	6078
2026-01-14 13:45:26.56	23.57	7.04	-40.2	-41.5	20.2	0.00e+00	42	28	0	114294784	54	6091
2026-01-14 13:45:27.57	23.62	7.12	-40.2	-41.6	20.2	0.00e+00	91	28	0	116391936	54	6111
2026-01-14 13:45:28.58	23.67	7.19	-40.2	-41.5	20.3	0.00e+00	39	28	0	118489088	54	6049
2026-01-14 13:45:29.60	23.73	7.26	-40.2	-41.5	20.3	0.00e+00	92	28	0	119537664	54	6100
2026-01-14 13:45:30.60	23.78	7.34	-40.1	-41.4	20.3	0.00e+00	50	28	0	121634816	54	6024
2026-01-14 13:45:31.61	23.83	7.41	-39.9	-41.2	20.6	0.00e+00	48	28	0	123731968	54	5863
2026-01-14 13:45:32.62	23.88	7.49	-40.0	-41.2	20.6	0.00e+00	44	28	0	125829120	54	5879
2026-01-14 13:45:33.63	23.94	7.56	-40.0	-41.3	20.5	0.00e+00	6	28	0	127926272	54	5917
2026-01-14 13:45:34.64	23.99	7.64	-40.0	-41.2	20.6	0.00e+00	91	28	0	128974848	54	5878
2026-01-14 13:45:35.65	24.05	7.71	-39.9	-41.2	20.6	0.00e+00	6	28	0	131072000	54	5854
2026-01-14 13:45:36.66	24.10	7.79	-39.9	-41.1	20.7	0.00e+00	92	28	0	133169152	54	5817
2026-01-14 13:45:37.67	24.16	7.86	-40.1	-41.4	20.5	0.00e+00	0	28	0	135266304	54	5968
2026-01-14 13:45:38.68	24.21	7.94	-40.0	-41.2	20.7	0.00e+00	35	28	0	136314880	54	5859
2026-01-14 13:45:39.68	24.27	8.01	-39.7	-40.9	21.0	0.00e+00	6	28	0	138412032	52	6330
2026-01-14 13:45:40.70	24.32	8.09	-39.6	-40.8	21.0	0.00e+00	7	28	0	140509184	52	6279
2026-01-14 13:45:41.70	24.38	8.17	-39.6	-40.7	21.1	0.00e+00	2	28	0	142606336	52	6244
2026-01-14 13:45:42.71	24.43	8.24	-39.6	-40.7	21.2	0.00e+00	0	28	0	144703488	52	6245
2026-01-14 13:45:43.72	24.49	8.32	-39.6	-40.8	21.0	0.00e+00	92	28	0	146800640	52	6259
2026-01-14 13:45:44.73	24.54	8.40	-39.7	-40.9	21.0	0.00e+00	50	28	0	147849216	52	6377
2026-01-14 13:45:45.74	24.60	8.48	-39.6	-40.8	21.1	0.00e+00	51	28	0	149946368	52	6250
2026-01-14 13:45:46.75	24.66	8.55	-39.6	-40.8	21.1	0.00e+00	50	28	0	152043520	52	6254
2026-01-14 13:45:47.76	24.72	8.63	-39.5	-40.7	21.2	0.00e+00	51	28	0	154140672	52	6185
2026-01-14 13:45:48.77	24.77	8.71	-39.6	-40.8	21.2	0.00e+00	0	28	0	156237824	52	6249
2026-01-14 13:45:49.78	24.83	8.79	-39.5	-40.6	21.2	0.00e+00	0	28	0	157286400	52	6157
2026-01-14 13:45:50.79	24.89	8.87	-39.5	-40.7	21.2	0.00e+00	92	28	0	159383552	52	6224
2026-01-14 13:45:51.80	24.95	8.94	-39.5	-40.6	21.3	0.00e+00	51	28	0	161480704	52	6164
2026-01-14 13:45:52.81	25.01	9.02	-39.4	-40.6	21.3	0.00e+00	92	28	0	163577856	52	6132
2026-01-14 13:45:53.82	25.07	9.10	-39.4	-40.5	21.4	0.00e+00	30	28	0	165675008	52	6071
2026-01-14 13:45:54.83	25.13	9.18	-39.3	-40.4	21.5	0.00e+00	37	28	0	166723584	52	6019
2026-01-14 13:45:55.84	25.18	9.26	-39.3	-40.4	21.5	0.00e+00	30	28	0	168820736	52	6029
2026-01-14 13:45:56.85	25.24	9.34	-39.2	-40.3	21.6	0.00e+00	37	28	0	170917888	52	5954
2026-01-14 13:45:57.86	25.31	9.42	-39.2	-40.3	21.5	0.00e+00	35	28	0	173015040	52	5951
2026-01-14 13:45:58.87	25.37	9.50	-39.4	-40.5	21.5	0.00e+00	31	28	0	175112192	52	6060
2026-01-14 13:45:59.88	25.43	9.58	-39.2	-40.3	21.6	0.00e+00	92	28	0	176160768	52	5959
2026-01-14 13:46:00.88	25.49	9.66	-39.2	-40.3	21.7	0.00e+00	0	28	0	178257920	52	5957
2026-01-14 13:46:01.89	25.55	9.74	-39.1	-40.2	21.7	0.00e+00	0	28	0	180355072	52	5872
2026-01-14 13:46:02.90	25.61	9.83	-39.1	-40.2	21.8	0.00e+00	0	28	0	182452224	52	5859
2026-01-14 13:46:03.91	25.67	9.91	-39.0	-40.1	21.8	0.00e+00	0	28	0	184549376	52	5812
2026-01-14 13:46:04.92	25.73	9.99	-39.1	-40.1	21.8	0.00e+00	2	28	0	185597952	52	5826
2026-01-14 13:46:05.93	25.80	10.07	-39.2	-40.3	21.6	0.00e+00	46	28	0	187695104	52	5931
2026-01-14 13:46:06.94	25.86	10.15	-39.0	-40.1	21.8	0.00e+00	92	28	0	189792256	52	5805
2026-01-14 13:46:07.95	25.92	10.24	-39.1	-40.2	21.8	0.00e+00	45	28	0	191889408	52	5862
2026-01-14 13:46:08.96	25.99	10.32	-39.0	-40.1	21.8	0.00e+00	91	28	0	193986560	52	5787
2026-01-14 13:46:09.97	26.05	10.40	-39.1	-40.2	21.7	0.00e+00	51	28	0	195035136	52	5870
2026-01-14 13:46:10.98	26.12	10.48	-39.0	-40.1	21.8	0.00e+00	0	28	0	197132288	52	5817
2026-01-14 13:46:11.98	26.18	10.57	-39.0	-40.1	21.8	0.00e+00	45	28	0	199229440	52	5813
2026-01-14 13:46:12.99	26.25	10.65	-38.9	-40.0	22.0	0.00e+00	47	28	0	201326592	52	5732
2026-01-14 13:46:14.00	26.31	10.74	-39.0	-40.1	21.8	0.00e+00	92	28	0	203423744	52	5800
2026-01-14 13:46:15.01	26.38	10.82	-38.9	-40.0	22.0	0.00e+00	49	28	0	204472320	52	5745
2026-01-14 13:46:16.02	26.44	10.90	-39.0	-40.1	22.0	0.00e+00	92	28	0	206569472	52	5771
2026-01-14 13:46:17.03	26.51	10.99	-39.0	-40.0	21.9	0.00e+00	51	28	0	208666624	52	5744
2026-01-14 13:46:18.04	26.58	11.07	-39.0	-40.1	21.9	0.00e+00	29	28	0	210763776	52	5768
2026-01-14 13:46:19.05	26.64	11.16	-39.1	-40.1	21.8	0.00e+00	0	28	0	212860928	52	5820
2026-01-14 13:46:20.05	26.71	11.24	-39.1	-40.1	21.8	0.00e+00	2	28	0	214958080	52	5827
2026-01-14 13:46:21.06	26.78	11.33	-38.8	-39.9	22.1	0.00e+00	33	28	0	216006656	52	5643
2026-01-14 13:46:22.07	26.85	11.42	-38.9	-40.0	22.1	0.00e+00	0	28	0	218103808	52	5726
2026-01-14 13:46:23.08	26.92	11.50	-38.8	-39.8	22.2	0.00e+00	92	28	0	220200960	50	6277
2026-01-14 13:46:24.09	26.98	11.59	-38.8	-39.8	22.1	0.00e+00	0	28	0	222298112	50	6303
2026-01-14 13:46:25.10	27.05	11.68	-38.7	-39.7	22.2	0.00e+00	19	28	0	224395264	50	6207
2026-01-14 13:46:26.10	27.12	11.76	-38.6	-39.6	22.3	0.00e+00	0	28	0	225443840	50	6168
2026-01-14 13:46:27.11	27.19	11.85	-38.5	-39.5	22.4	0.00e+00	0	28	0	227540992	50	6086
2026-01-14 13:46:28.12	27.26	11.94	-38.5	-39.6	22.4	0.00e+00	0	28	0	229638144	50	6109
2026-01-14 13:46:29.13	27.34	12.03	-38.7	-39.7	22.1	0.00e+00	0	28	0	231735296	50	6227
2026-01-14 13:46:30.14	27.41	12.11	-38.4	-39.4	22.5	0.00e+00	92	28	0	233832448	50	6018
2026-01-14 13:46:31.14	27.48	12.20	-38.4	-39.4	22.6	0.00e+00	0	28	0	234881024	50	5994
2026-01-14 13:46:32.15	27.55	12.29	-38.5	-39.5	22.6	0.00e+00	92	28	0	236978176	50	6055
2026-01-14 13:46:33.16	27.62	12.38	-38.5	-39.5	22.5	0.00e+00	52	28	0	239075328	50	6066
2026-01-14 13:46:34.17	27.70	12.47	-38.6	-39.6	22.4	0.00e+00	0	28	0	241172480	50	6133
2026-01-14 13:46:35.17	27.77	12.56	-38.4	-39.4	22.6	0.00e+00	0	28	0	243269632	50	6003
2026-01-14 13:46:36.18	27.84	12.65	-38.5	-39.6	22.5	0.00e+00	30	28	0	244318208	50	6110
2026-01-14 13:46:37.19	27.92	12.74	-38.2	-39.2	22.7	0.00e+00	92	28	0	246415360	50	5876
2026-01-14 13:46:38.20	27.99	12.83	-38.3	-39.3	22.7	0.00e+00	47	28	0	248512512	50	5917
2026-01-14 13:46:39.21	28.07	12.92	-38.3	-39.3	22.7	0.00e+00	92	28	0	250609664	50	5938
2026-01-14 13:46:40.22	28.14	13.01	-38.3	-39.2	22.8	0.00e+00	52	28	0	252706816	50	5877
2026-01-14 13:46:41.23	28.22	13.10	-38.2	-39.2	22.8	0.00e+00	30	28	0	253755392	50	5866
2026-01-14 13:46:42.24	28.29	13.20	-38.2	-39.2	22.8	0.00e+00	0	28	0	255852544	50	5850
2026-01-14 13:46:43.25	28.37	13.29	-38.2	-39.2	22.8	0.00e+00	0	28	0	257949696	50	5849
2026-01-14 13:46:44.26	28.45	13.38	-38.3	-39.2	22.7	0.00e+00	39	28	0	260046848	50	5887
2026-01-14 13:46:45.26	28.53	13.47	-38.1	-39.0	23.0	0.00e+00	2	28	0	262144000	50	5756
2026-01-14 13:46:46.27	28.60	13.56	-38.1	-39.1	22.9	0.00e+00	91	28	0	263192576	50	5802
2026-01-14 13:46:47.28	28.68	13.66	-38.0	-39.0	23.1	0.00e+00	2	28	0	265289728	50	5705
2026-01-14 13:46:48.29	28.76	13.75	-38.0	-39.0	23.1	0.00e+00	92	28	0	267386880	50	5721
2026-01-14 13:46:49.30	28.84	13.85	-37.9	-38.8	23.2	0.00e+00	0	28	0	269484032	50	5596
2026-01-14 13:46:50.31	28.92	13.94	-37.9	-38.8	23.2	0.00e+00	0	28	0	271581184	50	5614
2026-01-14 13:46:51.32	29.00	14.04	-37.9	-38.8	23.2	0.00e+00	0	28	0	272629760	50	5619
2026-01-14 13:46:52.33	29.08	14.13	-37.9	-38.9	23.1	0.00e+00	0	28	0	274726912	50	5646
2026-01-14 13:46:53.34	29.17	14.23	-37.7	-38.7	23.3	0.00e+00	92	28	0	276824064	48	6180
2026-01-14 13:46:54.34	29.25	14.32	-37.9	-38.8	23.1	0.00e+00	0	28	0	278921216	48	6297
2026-01-14 13:46:55.35	29.33	14.42	-37.7	-38.7	23.3	0.00e+00	92	28	0	281018368	48	6175
2026-01-14 13:46:56.36	29.41	14.51	-37.7	-38.7	23.3	0.00e+00	51	28	0	282066944	48	6180
2026-01-14 13:46:57.37	29.50	14.61	-37.7	-38.6	23.3	0.00e+00	51	28	0	284164096	48	6160
2026-01-14 13:46:58.38	29.58	14.71	-37.7	-38.6	23.4	0.00e+00	0	28	0	286261248	48	6136
2026-01-14 13:46:59.39	29.67	14.80	-37.8	-38.8	23.3	0.00e+00	0	28	0	288358400	48	6266
2026-01-14 13:47:00.40	29.75	14.90	-38.0	-38.9	23.0	0.00e+00	90	28	0	290455552	48	6371
2026-01-14 13:47:01.41	29.84	15.00	-38.0	-38.9	23.1	0.00e+00	47	28	0	291504128	48	6384
2026-01-14 13:47:02.41	29.92	15.10	-37.9	-38.9	23.1	0.00e+00	92	28	0	293601280	48	6355
2026-01-14 13:47:03.42	30.01	15.19	-38.0	-38.9	23.1	0.00e+00	32	28	0	295698432	48	6365
2026-01-14 13:47:04.43	30.10	15.29	-38.0	-39.0	23.1	0.00e+00	5	28	0	297795584	48	6400
2026-01-14 13:47:05.44	30.18	15.39	-38.1	-39.0	22.9	0.00e+00	6	28	0	299892736	48	6452
2026-01-14 13:47:06.45	30.27	15.49	-38.1	-39.0	23.0	0.00e+00	5	28	0	300941312	48	6433
2026-01-14 13:47:07.46	30.36	15.59	-38.2	-39.1	22.9	0.00e+00	0	28	0	303038464	48	6516
2026-01-14 13:47:08.47	30.45	15.69	-38.1	-39.1	23.0	0.00e+00	5	28	0	305135616	48	6502
2026-01-14 13:47:09.48	30.54	15.79	-38.3	-39.3	22.7	0.00e+00	90	28	0	307232768	48	6642
2026-01-14 13:47:10.49	30.63	15.90	-38.2	-39.2	22.9	0.00e+00	0	28	0	309329920	48	6566
2026-01-14 13:47:11.50	30.72	16.00	-38.4	-39.4	22.7	0.00e+00	15	28	0	311427072	48	6743
2026-01-14 13:47:12.51	30.81	16.10	-38.5	-39.5	22.7	0.00e+00	0	28	0	312475648	48	6804
2026-01-14 13:47:13.52	30.91	16.20	-38.5	-39.5	22.6	0.00e+00	5	28	0	314572800	48	6788
2026-01-14 13:47:14.53	31.00	16.30	-38.5	-39.5	22.5	0.00e+00	0	28	0	316669952	48	6811
2026-01-14 13:47:15.53	31.09	16.41	-38.4	-39.3	22.7	0.00e+00	0	28	0	318767104	48	6686
2026-01-14 13:47:16.54	31.19	16.51	-38.3	-39.3	22.8	0.00e+00	92	28	0	320864256	48	6654
2026-01-14 13:47:17.55	31.28	16.61	-38.5	-39.4	22.7	0.00e+00	47	28	0	321912832	48	6768
2026-01-14 13:47:18.56	31.38	16.72	-38.2	-39.1	23.0	0.00e+00	92	28	0	324009984	48	6539
2026-01-14 13:47:19.57	31.47	16.82	-38.3	-39.2	22.9	0.00e+00	52	28	0	326107136	48	6599
2026-01-14 13:47:20.58	31.57	16.93	-38.3	-39.2	22.9	0.00e+00	5	28	0	328204288	48	6592
2026-01-14 13:47:21.58	31.67	17.03	-38.3	-39.3	22.8	0.00e+00	6	28	0	330301440	48	6636
2026-01-14 13:47:22.59	31.77	17.14	-38.3	-39.2	22.9	0.00e+00	52	28	0	331350016	48	6602
2026-01-14 13:47:23.60	31.86	17.24	-38.2	-39.1	23.0	0.00e+00	50	28	0	333447168	48	6512
2026-01-14 13:47:24.61	31.96	17.35	-38.3	-39.3	22.8	0.00e+00	46	28	0	335544320	48	6641
2026-01-14 13:47:25.62	32.06	17.45	-38.2	-39.2	23.0	0.00e+00	91	28	0	337641472	48	6557
2026-01-14 13:47:26.63	32.17	17.56	-38.1	-39.1	23.0	0.00e+00	41	28	0	339738624	48	6496
2026-01-14 13:47:27.64	32.27	17.67	-38.1	-39.0	23.1	0.00e+00	90	28	0	340787200	48	6455
2026-01-14 13:47:28.65	32.37	17.78	-38.1	-39.1	23.1	0.00e+00	5	28	0	342884352	48	6468
2026-01-14 13:47:29.66	32.47	17.88	-38.1	-39.1	23.1	0.00e+00	0	28	0	344981504	48	6480
2026-01-14 13:47:30.67	32.58	17.99	-37.9	-38.9	23.3	0.00e+00	0	28	0	347078656	48	6331
2026-01-14 13:47:31.68	32.68	18.10	-38.0	-38.9	23.2	0.00e+00	35	28	0	349175808	48	6363
2026-01-14 13:47:32.68	32.78	18.21	-38.0	-39.0	23.1	0.00e+00	91	28	0	350224384	48	6412
2026-01-14 13:47:33.69	32.89	18.32	-38.0	-38.9	23.2	0.00e+00	0	28	0	352321536	48	6346
2026-01-14 13:47:34.70	33.00	18.43	-38.1	-39.1	23.0	0.00e+00	92	28	0	354418688	48	6474
2026-01-14 13:47:35.71	33.10	18.54	-37.9	-38.9	23.2	0.00e+00	0	28	0	356515840	48	6324
2026-01-14 13:47:36.72	33.21	18.65	-38.0	-38.9	23.2	0.00e+00	6	28	0	358612992	48	6349
2026-01-14 13:47:37.73	33.32	18.76	-37.9	-38.8	23.3	0.00e+00	0	28	0	359661568	48	6292
2026-01-14 13:47:38.74	33.43	18.88	-38.1	-39.0	23.1	0.00e+00	55	28	0	361758720	48	6438
2026-01-14 13:47:39.75	33.54	18.99	-38.0	-38.9	23.2	0.00e+00	92	28	0	363855872	48	6347
2026-01-14 13:47:40.76	33.65	19.10	-38.0	-39.0	23.2	0.00e+00	0	28	0	365953024	48	6408
2026-01-14 13:47:41.76	33.76	19.21	-38.1	-39.0	23.0	0.00e+00	92	28	0	368050176	48	6435
2026-01-14 13:47:42.78	33.87	19.33	-38.0	-38.9	23.3	0.00e+00	54	28	0	369098752	48	6373
2026-01-14 13:47:43.78	33.99	19.44	-38.1	-39.1	23.1	0.00e+00	29	28	0	371195904	48	6491
2026-01-14 13:47:44.79	34.10	19.55	-37.9	-38.9	23.3	0.00e+00	55	28	0	373293056	48	6323
2026-01-14 13:47:45.80	34.22	19.67	-38.0	-38.9	23.3	0.00e+00	28	28	0	375390208	48	6362
2026-01-14 13:47:46.81	34.33	19.78	-38.1	-39.0	23.1	0.00e+00	48	28	0	377487360	48	6420
2026-01-14 13:47:47.82	34.45	19.90	-38.2	-39.1	23.0	0.00e+00	30	28	0	378535936	48	6503
2026-01-14 13:47:48.83	34.57	20.02	-38.1	-39.1	23.1	0.00e+00	92	28	0	380633088	48	6482
2026-01-14 13:47:49.84	34.68	20.13	-38.1	-39.0	22.9	0.00e+00	27	28	0	382730240	48	6451
2026-01-14 13:47:50.85	34.80	20.25	-38.2	-39.1	22.9	0.00e+00	6	28	0	384827392	48	6503
2026-01-14 13:47:51.86	34.92	20.37	-38.3	-39.3	22.8	0.00e+00	2	28	0	386924544	48	6648
2026-01-14 13:47:52.87	35.05	20.48	-38.4	-39.3	22.9	0.00e+00	0	28	0	387973120	48	6675
2026-01-14 13:47:53.88	35.17	20.60	-38.3	-39.3	23.0	0.00e+00	28	28	0	390070272	48	6641
2026-01-14 13:47:54.88	35.29	20.72	-38.5	-39.5	22.8	0.00e+00	0	28	0	392167424	48	6789
2026-01-14 13:47:55.89	35.41	20.84	-38.3	-39.3	22.9	0.00e+00	91	28	0	394264576	48	6625
2026-01-14 13:47:56.90	35.54	20.96	-38.5	-39.5	22.7	0.00e+00	0	28	0	396361728	48	6799
2026-01-14 13:47:57.91	35.66	21.08	-38.5	-39.5	22.7	0.00e+00	92	28	0	397410304	48	6798
2026-01-14 13:47:58.92	35.79	21.20	-38.5	-39.5	22.8	0.00e+00	0	28	0	399507456	48	6777
2026-01-14 13:47:59.93	35.92	21.32	-38.6	-39.6	22.7	0.00e+00	0	28	0	401604608	48	6898
2026-01-14 13:48:00.94	36.05	21.44	-38.6	-39.6	22.6	0.00e+00	0	28	0	403701760	48	6904
2026-01-14 13:48:01.95	36.18	21.56	-38.6	-39.6	22.7	0.00e+00	0	28	0	405798912	48	6883
2026-01-14 13:48:02.96	36.31	21.69	-38.7	-39.6	22.6	0.00e+00	90	28	0	407896064	48	6923
2026-01-14 13:48:03.97	36.44	21.81	-38.8	-39.8	22.5	0.00e+00	0	28	0	408944640	50	6247
2026-01-14 13:48:04.98	36.57	21.93	-38.7	-39.7	22.6	0.00e+00	90	28	0	411041792	50	6222
2026-01-14 13:48:05.98	36.70	22.05	-38.7	-39.7	22.7	0.00e+00	26	28	0	413138944	50	6174
2026-01-14 13:48:06.99	36.84	22.18	-38.6	-39.6	22.7	0.00e+00	53	28	0	415236096	50	6128
2026-01-14 13:48:08.00	36.97	22.30	-38.8	-39.8	22.6	0.00e+00	54	28	0	417333248	50	6283
2026-01-14 13:48:09.01	37.11	22.43	-38.5	-39.5	22.7	0.00e+00	52	28	0	418381824	50	6079
2026-01-14 13:48:10.02	37.25	22.55	-38.6	-39.6	22.7	0.00e+00	0	28	0	420478976	50	6131
2026-01-14 13:48:11.03	37.38	22.68	-38.5	-39.4	22.9	0.00e+00	0	28	0	422576128	50	6012
2026-01-14 13:48:12.04	37.52	22.80	-38.7	-39.7	22.7	0.00e+00	91	28	0	424673280	50	6177
2026-01-14 13:48:13.05	37.67	22.93	-38.6	-39.6	22.7	0.00e+00	2	28	0	426770432	50	6155
2026-01-14 13:48:14.06	37.81	23.06	-38.5	-39.5	22.7	0.00e+00	92	28	0	427819008	50	6061
2026-01-14 13:48:15.07	37.95	23.19	-38.5	-39.4	22.7	0.00e+00	27	28	0	429916160	50	6027
2026-01-14 13:48:16.08	38.10	23.31	-38.6	-39.5	22.5	0.00e+00	0	28	0	432013312	50	6084
2026-01-14 13:48:17.09	38.24	23.44	-38.6	-39.5	22.5	0.00e+00	0	28	0	434110464	50	6096
2026-01-14 13:48:18.10	38.39	23.57	-38.5	-39.4	22.7	0.00e+00	0	28	0	436207616	50	6026
2026-01-14 13:48:19.11	38.54	23.70	-38.3	-39.2	22.9	0.00e+00	92	28	0	437256192	50	5880
2026-01-14 13:48:20.12	38.68	23.83	-38.3	-39.2	23.0	0.00e+00	0	28	0	439353344	50	5883
2026-01-14 13:48:21.13	38.83	23.96	-38.2	-39.1	23.1	0.00e+00	92	28	0	441450496	50	5815
2026-01-14 13:48:22.13	38.98	24.09	-38.3	-39.2	23.0	0.00e+00	0	28	0	443547648	50	5895
2026-01-14 13:48:23.14	39.14	24.22	-38.2	-39.1	23.1	0.00e+00	0	28	0	445644800	50	5820
2026-01-14 13:48:24.15	39.29	24.35	-38.3	-39.2	22.9	0.00e+00	44	28	0	446693376	50	5896
2026-01-14 13:48:25.16	39.45	24.49	-38.4	-39.3	22.9	0.00e+00	48	28	0	448790528	50	5945
2026-01-14 13:48:26.17	39.60	24.62	-38.4	-39.4	22.9	0.00e+00	85	28	0	450887680	50	5969
2026-01-14 13:48:27.18	39.76	24.75	-38.5	-39.5	22.9	0.00e+00	0	28	0	452984832	50	6064
2026-01-14 13:48:28.19	39.92	24.89	-38.5	-39.5	22.8	0.00e+00	92	28	0	455081984	50	6063
2026-01-14 13:48:29.20	40.08	25.02	-38.6	-39.6	22.8	0.00e+00	30	28	0	456130560	50	6107
2026-01-14 13:48:30.21	40.24	25.15	-38.7	-39.6	22.7	0.00e+00	31	28	0	458227712	50	6166
2026-01-14 13:48:31.22	40.40	25.29	-38.7	-39.7	22.7	0.00e+00	27	28	0	460324864	50	6210
2026-01-14 13:48:32.23	40.57	25.42	-38.7	-39.7	22.7	0.00e+00	25	28	0	462422016	50	6185
2026-01-14 13:48:33.24	40.73	25.56	-38.7	-39.7	22.7	0.00e+00	25	28	0	464519168	50	6193
2026-01-14 13:48:34.25	40.90	25.70	-38.8	-39.8	22.7	0.00e+00	0	28	0	465567744	50	6278
2026-01-14 13:48:35.26	41.07	25.83	-38.5	-39.5	22.8	0.00e+00	92	28	0	467664896	50	6048
2026-01-14 13:48:36.27	41.24	25.97	-38.6	-39.6	22.6	0.00e+00	26	28	0	469762048	50	6138
2026-01-14 13:48:37.28	41.41	26.11	-38.6	-39.5	22.7	0.00e+00	91	28	0	471859200	50	6103
2026-01-14 13:48:38.29	41.58	26.25	-38.5	-39.5	22.8	0.00e+00	0	28	0	473956352	50	6079
2026-01-14 13:48:39.29	41.76	26.38	-38.7	-39.7	22.8	0.00e+00	0	28	0	476053504	50	6201
2026-01-14 13:48:40.30	41.93	26.52	-38.5	-39.4	22.9	0.00e+00	0	28	0	477102080	50	6018
2026-01-14 13:48:41.31	42.11	26.66	-38.4	-39.4	22.9	0.00e+00	0	28	0	479199232	50	5989
2026-01-14 13:48:42.32	42.29	26.80	-38.3	-39.3	23.0	0.00e+00	90	28	0	481296384	50	5924
2026-01-14 13:48:43.33	42.47	26.94	-38.2	-39.1	23.2	0.00e+00	0	28	0	483393536	50	5789
2026-01-14 13:48:44.34	42.65	27.08	-38.2	-39.2	23.1	0.00e+00	90	28	0	485490688	50	5850
2026-01-14 13:48:45.35	42.83	27.22	-38.2	-39.2	23.1	0.00e+00	55	28	0	486539264	50	5837
2026-01-14 13:48:46.36	43.02	27.37	-38.3	-39.2	23.1	0.00e+00	48	28	0	488636416	50	5888
2026-01-14 13:48:47.36	43.20	27.51	-38.4	-39.3	23.0	0.00e+00	53	28	0	490733568	50	5940
2026-01-14 13:48:48.37	43.39	27.65	-38.5	-39.4	22.9	0.00e+00	51	28	0	492830720	50	6031
2026-01-14 13:48:49.38	43.58	27.79	-38.5	-39.4	22.7	0.00e+00	90	28	0	494927872	50	6008
2026-01-14 13:48:50.39	43.77	27.93	-38.7	-39.6	22.7	0.00e+00	2	28	0	495976448	50	6163
2026-01-14 13:48:51.40	43.97	28.08	-38.9	-39.9	22.5	0.00e+00	92	28	0	498073600	50	6332
2026-01-14 13:48:52.41	44.16	28.22	-39.0	-40.0	22.3	0.00e+00	32	28	0	500170752	50	6434
2026-01-14 13:48:53.42	44.36	28.37	-39.2	-40.2	21.9	0.00e+00	92	28	0	502267904	50	6606
2026-01-14 13:48:54.43	44.56	28.51	-39.3	-40.3	21.3	0.00e+00	34	28	0	504365056	50	6665
2026-01-14 13:48:55.43	44.75	28.66	-39.4	-40.5	21.8	0.00e+00	32	28	0	505413632	50	6812
2026-01-14 13:48:56.45	44.96	28.80	-39.6	-40.7	21.8	0.00e+00	52	28	0	507510784	50	6928
2026-01-14 13:48:57.46	45.16	28.95	-39.7	-40.8	21.6	0.00e+00	32	28	0	509607936	50	7080
2026-01-14 13:48:58.46	45.37	29.09	-39.8	-40.9	21.6	0.00e+00	92	28	0	511705088	52	6357
2026-01-14 13:48:59.47	45.57	29.24	-39.8	-41.0	21.5	0.00e+00	0	28	0	513802240	52	6404
2026-01-14 13:49:00.48	45.78	29.39	-39.8	-40.9	21.6	0.00e+00	31	28	0	514850816	52	6366
2026-01-14 13:49:01.49	45.99	29.54	-39.7	-40.8	21.7	0.00e+00	5	28	0	516947968	52	6278
2026-01-14 13:49:02.50	46.21	29.68	-39.5	-40.5	21.9	0.00e+00	6	28	0	519045120	52	6091
2026-01-14 13:49:03.51	46.42	29.83	-39.3	-40.4	22.1	0.00e+00	6	28	0	521142272	52	5985
2026-01-14 13:49:04.52	46.64	29.98	-39.3	-40.4	22.1	0.00e+00	6	28	0	523239424	52	5969
2026-01-14 13:49:05.53	46.86	30.13	-39.4	-40.5	22.0	0.00e+00	90	28	0	524288000	52	6074
2026-01-14 13:49:06.53	47.08	30.28	-39.5	-40.5	21.9	0.00e+00	56	28	0	526385152	52	6089
2026-01-14 13:49:07.54	47.30	30.43	-39.5	-40.6	21.7	0.00e+00	92	28	0	528482304	52	6151
2026-01-14 13:49:08.55	47.52	30.58	-39.6	-40.7	21.8	0.00e+00	0	28	0	530579456	52	6231
2026-01-14 13:49:09.56	47.75	30.73	-39.7	-40.8	21.7	0.00e+00	0	28	0	532676608	52	6262
2026-01-14 13:49:10.57	47.98	30.88	-39.8	-40.9	21.7	0.00e+00	55	28	0	533725184	52	6372
2026-01-14 13:49:11.58	48.21	31.03	-39.7	-40.8	21.7	0.00e+00	31	28	0	535822336	52	6284
2026-01-14 13:49:12.59	48.44	31.18	-39.7	-40.8	21.6	0.00e+00	92	28	0	537919488	52	6317
2026-01-14 13:49:13.60	48.68	31.33	-39.8	-40.9	21.6	0.00e+00	5	28	0	540016640	52	6383
2026-01-14 13:49:14.61	48.92	31.48	-39.6	-40.7	21.8	0.00e+00	92	28	0	542113792	52	6174
2026-01-14 13:49:15.62	49.16	31.64	-39.6	-40.7	21.8	0.00e+00	33	28	0	543162368	52	6175
2026-01-14 13:49:16.63	49.40	31.79	-39.6	-40.7	21.8	0.00e+00	92	28	0	545259520	52	6188
2026-01-14 13:49:17.64	49.64	31.94	-39.5	-40.5	22.0	0.00e+00	31	28	0	547356672	52	6089
2026-01-14 13:49:18.65	49.89	32.09	-39.4	-40.4	22.1	0.00e+00	6	28	0	549453824	52	6003
2026-01-14 13:49:19.66	50.14	32.25	-39.4	-40.4	22.2	0.00e+00	0	28	0	551550976	52	6000
2026-01-14 13:49:20.67	50.39	32.40	-39.2	-40.2	22.3	0.00e+00	31	28	0	552599552	52	5876
2026-01-14 13:49:21.67	50.64	32.55	-38.8	-39.8	22.7	0.00e+00	92	28	0	554696704	52	5569
2026-01-14 13:49:22.68	50.90	32.70	-38.6	-39.6	22.9	0.00e+00	6	28	0	556793856	50	6141
2026-01-14 13:49:23.69	51.15	32.86	-38.7	-39.7	22.7	0.00e+00	46	28	0	558891008	50	6208
2026-01-14 13:49:24.70	51.41	33.01	-38.9	-39.9	22.5	0.00e+00	0	28	0	560988160	50	6378
2026-01-14 13:49:25.71	51.68	33.17	-39.0	-40.0	22.5	0.00e+00	6	28	0	562036736	50	6428
2026-01-14 13:49:26.72	51.94	33.32	-39.1	-40.1	22.3	0.00e+00	5	28	0	564133888	50	6483
2026-01-14 13:49:27.73	52.21	33.47	-38.9	-39.9	22.6	0.00e+00	0	28	0	566231040	50	6364
2026-01-14 13:49:28.74	52.48	33.63	-39.0	-40.0	22.5	0.00e+00	90	28	0	568328192	50	6453
2026-01-14 13:49:29.75	52.75	33.78	-39.0	-40.0	22.5	0.00e+00	50	28	0	570425344	50	6429
2026-01-14 13:49:30.76	53.03	33.94	-39.0	-40.1	22.4	0.00e+00	90	28	0	572522496	50	6465
2026-01-14 13:49:31.78	53.31	34.09	-39.2	-40.2	22.2	0.00e+00	56	28	0	573571072	50	6602
2026-01-14 13:49:32.78	53.59	34.25	-39.5	-40.6	21.9	0.00e+00	55	28	0	575668224	50	6854
2026-01-14 13:49:33.79	53.87	34.40	-39.4	-40.5	21.8	0.00e+00	26	28	0	577765376	50	6784
2026-01-14 13:49:34.80	54.16	34.55	-39.1	-40.2	22.3	0.00e+00	55	28	0	579862528	50	6552
2026-01-14 13:49:35.82	54.45	34.71	-38.8	-39.8	22.7	0.00e+00	0	28	0	581959680	50	6260
2026-01-14 13:49:36.82	54.74	34.86	-38.8	-39.7	22.6	0.00e+00	56	28	0	583008256	50	6244
2026-01-14 13:49:37.83	55.03	35.02	-38.7	-39.6	22.8	0.00e+00	92	28	0	585105408	50	6165
2026-01-14 13:49:38.84	55.33	35.17	-38.3	-39.3	23.1	0.00e+00	0	28	0	587202560	50	5897
2026-01-14 13:49:39.85	55.63	35.33	-38.4	-39.4	23.0	0.00e+00	0	28	0	589299712	50	5982
2026-01-14 13:49:40.86	55.93	35.48	-38.9	-39.9	22.6	0.00e+00	26	28	0	591396864	50	6333
2026-01-14 13:49:41.87	56.24	35.63	-39.0	-40.0	22.5	0.00e+00	0	28	0	592445440	50	6433
2026-01-14 13:49:42.88	56.54	35.79	-38.9	-39.9	22.6	0.00e+00	0	28	0	594542592	50	6363
2026-01-14 13:49:43.89	56.86	35.94	-38.8	-39.8	22.6	0.00e+00	2	28	0	596639744	50	6281
2026-01-14 13:49:44.90	57.17	36.10	-38.7	-39.7	22.7	0.00e+00	90	28	0	598736896	50	6182
2026-01-14 13:49:45.90	57.48	36.25	-38.7	-39.7	22.9	0.00e+00	2	28	0	600834048	50	6204
2026-01-14 13:49:46.91	57.80	36.40	-38.6	-39.6	22.8	0.00e+00	92	28	0	601882624	50	6131
2026-01-14 13:49:47.92	58.13	36.55	-38.5	-39.5	22.9	0.00e+00	0	28	0	603979776	50	6062
2026-01-14 13:49:48.93	58.45	36.71	-38.8	-39.8	22.6	0.00e+00	55	28	0	606076928	50	6276
2026-01-14 13:49:49.94	58.78	36.86	-38.9	-39.9	22.5	0.00e+00	0	28	0	608174080	50	6381
2026-01-14 13:49:50.95	59.11	37.01	-39.1	-40.1	22.3	0.00e+00	57	28	0	610271232	50	6508
2026-01-14 13:49:51.96	59.45	37.16	-39.3	-40.3	22.1	0.00e+00	92	28	0	611319808	50	6668
2026-01-14 13:49:52.97	59.78	37.31	-39.3	-40.3	22.2	0.00e+00	0	28	0	613416960	50	6660
2026-01-14 13:49:53.98	60.13	37.46	-39.3	-40.3	22.2	0.00e+00	92	28	0	615514112	50	6674
2026-01-14 13:49:54.99	60.47	37.61	-39.5	-40.5	22.0	0.00e+00	0	28	0	617611264	50	6844
2026-01-14 13:49:56.00	60.82	37.76	-39.3	-40.4	22.2	0.00e+00	32	28	0	619708416	50	6704
2026-01-14 13:49:57.01	61.17	37.91	-39.4	-40.5	22.0	0.00e+00	51	28	0	620756992	50	6799
2026-01-14 13:49:58.02	61.52	38.06	-39.3	-40.4	22.2	0.00e+00	52	28	0	622854144	50	6725
2026-01-14 13:49:59.03	61.88	38.21	-39.6	-40.6	21.9	0.00e+00	0	28	0	624951296	50	6910
2026-01-14 13:50:00.04	62.24	38.36	-39.8	-40.9	21.7	0.00e+00	2	28	0	627048448	52	6338
2026-01-14 13:50:01.05	62.60	38.51	-40.0	-41.1	21.5	0.00e+00	92	28	0	629145600	52	6485
2026-01-14 13:50:02.05	62.96	38.65	-40.3	-41.4	21.2	0.00e+00	0	28	0	630194176	52	6755
2026-01-14 13:50:03.06	63.33	38.80	-40.4	-41.6	20.7	0.00e+00	33	28	0	632291328	52	6911
2026-01-14 13:50:04.07	63.71	38.94	-40.4	-41.6	21.0	0.00e+00	26	28	0	634388480	52	6915
2026-01-14 13:50:05.08	64.08	39.09	-40.3	-41.5	21.2	0.00e+00	0	28	0	636485632	52	6804
2026-01-14 13:50:06.09	64.46	39.23	-40.1	-41.2	21.4	0.00e+00	0	28	0	638582784	52	6615
2026-01-14 13:50:07.10	64.85	39.37	-39.8	-41.0	21.7	0.00e+00	0	28	0	640679936	52	6403
2026-01-14 13:50:08.11	65.23	39.51	-39.6	-40.7	21.9	0.00e+00	90	28	0	641728512	52	6198
2026-01-14 13:50:09.11	65.62	39.65	-39.4	-40.5	22.2	0.00e+00	0	28	0	643825664	52	6050
2026-01-14 13:50:10.12	66.01	39.79	-39.4	-40.4	22.1	0.00e+00	91	28	0	645922816	52	5998
2026-01-14 13:50:11.13	66.41	39.93	-39.5	-40.5	21.8	0.00e+00	0	28	0	648019968	52	6083
2026-01-14 13:50:12.14	66.81	40.07	-39.5	-40.5	22.0	0.00e+00	50	28	0	650117120	52	6070
2026-01-14 13:50:13.15	67.21	40.21	-39.6	-40.6	21.9	0.00e+00	38	28	0	651165696	52	6150
2026-01-14 13:50:14.16	67.62	40.35	-39.5	-40.6	22.0	0.00e+00	0	28	0	653262848	52	6131
2026-01-14 13:50:15.17	68.03	40.48	-39.1	-40.1	22.4	0.00e+00	92	28	0	655360000	52	5773
2026-01-14 13:50:16.18	68.44	40.62	-39.2	-40.2	22.3	0.00e+00	0	28	0	657457152	52	5882
2026-01-14 13:50:17.19	68.86	40.75	-39.3	-40.3	22.1	0.00e+00	92	28	0	659554304	52	5925
2026-01-14 13:50:18.20	69.28	40.88	-39.8	-40.9	21.7	0.00e+00	0	28	0	660602880	52	6390
2026-01-14 13:50:19.21	69.70	41.01	-40.3	-41.5	20.8	0.00e+00	0	28	0	662700032	52	6793
2026-01-14 13:50:20.22	70.13	41.14	-40.6	-41.8	20.8	0.00e+00	24	28	0	664797184	52	7031
2026-01-14 13:50:21.23	70.56	41.27	-40.5	-41.8	21.0	0.00e+00	25	28	0	666894336	52	7012
2026-01-14 13:50:22.24	70.99	41.39	-40.4	-41.6	21.1	0.00e+00	92	28	0	668991488	52	6878
2026-01-14 13:50:23.25	71.43	41.52	-40.1	-41.3	21.4	0.00e+00	2	28	0	670040064	52	6631
2026-01-14 13:50:24.26	71.87	41.64	-39.8	-40.9	21.6	0.00e+00	92	28	0	672137216	52	6388
2026-01-14 13:50:25.27	72.31	41.77	-40.0	-41.1	21.4	0.00e+00	0	28	0	674234368	52	6524
2026-01-14 13:50:26.27	72.75	41.89	-40.6	-41.8	20.6	0.00e+00	37	28	0	676331520	52	7077
2026-01-14 13:50:27.28	73.20	42.01	-41.4	-42.8	19.8	0.00e+00	0	28	0	678428672	54	7069
2026-01-14 13:50:28.29	73.66	42.12	-41.9	-43.4	19.5	0.00e+00	2	28	0	679477248	56	6740
2026-01-14 13:50:29.30	74.11	42.24	-41.6	-43.0	19.8	0.00e+00	0	28	0	681574400	56	6436
2026-01-14 13:50:30.31	74.57	42.35	-41.5	-42.9	19.9	0.00e+00	0	28	0	683671552	56	6339
2026-01-14 13:50:31.32	75.04	42.47	-40.5	-41.7	20.8	0.00e+00	92	28	0	685768704	54	6245
2026-01-14 13:50:32.33	75.50	42.58	-40.3	-41.5	21.0	0.00e+00	0	28	0	687865856	54	6039
2026-01-14 13:50:33.34	75.97	42.69	-40.2	-41.4	21.2	0.00e+00	92	28	0	688914432	54	5983
2026-01-14 13:50:34.35	76.45	42.80	-40.4	-41.6	21.0	0.00e+00	0	28	0	691011584	54	6139
2026-01-14 13:50:35.36	76.92	42.90	-40.6	-41.8	20.7	0.00e+00	0	28	0	693108736	54	6269
2026-01-14 13:50:36.37	77.40	43.01	-41.0	-42.3	20.4	0.00e+00	0	28	0	695205888	54	6619
2026-01-14 13:50:37.38	77.88	43.11	-40.6	-41.9	20.8	0.00e+00	55	28	0	697303040	54	6349
2026-01-14 13:50:38.39	78.37	43.21	-40.1	-41.3	21.4	0.00e+00	91	28	0	698351616	54	5897
2026-01-14 13:50:39.40	78.86	43.31	-39.9	-41.0	21.6	0.00e+00	26	28	0	700448768	54	5749
2026-01-14 13:50:40.41	79.35	43.40	-39.7	-40.8	21.7	0.00e+00	92	28	0	702545920	52	6252
2026-01-14 13:50:41.42	79.84	43.50	-40.3	-41.5	21.0	0.00e+00	55	28	0	704643072	52	6792
2026-01-14 13:50:42.43	80.34	43.59	-40.7	-42.0	20.7	0.00e+00	2	28	0	706740224	54	6405
2026-01-14 13:50:43.44	80.84	43.68	-39.7	-40.8	21.7	0.00e+00	5	28	0	708837376	54	5615
2026-01-14 13:50:44.45	81.34	43.77	-39.3	-40.3	22.3	0.00e+00	5	28	0	709885952	52	5939
2026-01-14 13:50:45.45	81.84	43.85	-39.1	-40.1	22.4	0.00e+00	48	28	0	711983104	52	5793
2026-01-14 13:50:46.46	82.35	43.93	-38.7	-39.7	22.8	0.00e+00	6	28	0	714080256	50	6201
2026-01-14 13:50:47.47	82.86	44.02	-38.7	-39.7	22.8	0.00e+00	90	28	0	716177408	50	6195
2026-01-14 13:50:48.48	83.37	44.09	-39.1	-40.1	22.3	0.00e+00	28	28	0	717225984	50	6525
2026-01-14 13:50:49.49	83.89	44.17	-39.7	-40.8	21.8	0.00e+00	92	28	0	719323136	50	7051
2026-01-14 13:50:50.50	84.40	44.24	-39.9	-41.1	21.6	0.00e+00	0	28	0	721420288	52	6484
2026-01-14 13:50:51.51	84.92	44.32	-39.7	-40.8	21.8	0.00e+00	0	28	0	723517440	52	6308
2026-01-14 13:50:52.52	85.45	44.38	-39.7	-40.8	21.8	0.00e+00	0	28	0	725614592	52	6271
2026-01-14 13:50:53.53	85.97	44.45	-40.0	-41.2	21.5	0.00e+00	0	28	0	726663168	52	6569
2026-01-14 13:50:54.54	86.50	44.52	-40.2	-41.4	21.3	0.00e+00	92	28	0	728760320	52	6757
2026-01-14 13:50:55.55	87.03	44.58	-40.0	-41.1	21.5	0.00e+00	0	28	0	730857472	52	6497
2026-01-14 13:50:56.55	87.55	44.64	-39.9	-41.0	21.6	0.00e+00	92	28	0	732954624	52	6434
2026-01-14 13:50:57.56	88.09	44.69	-40.0	-41.2	21.3	0.00e+00	5	28	0	735051776	52	6558
2026-01-14 13:50:58.57	88.62	44.75	-40.5	-41.8	20.9	0.00e+00	49	28	0	737148928	52	7010
2026-01-14 13:50:59.58	89.16	44.80	-40.4	-41.6	21.1	0.00e+00	0	28	0	738197504	52	6927
2026-01-14 13:51:00.59	89.69	44.85	-40.3	-41.4	21.2	0.00e+00	54	28	0	740294656	52	6749
2026-01-14 13:51:01.60	90.23	44.89	-39.6	-40.7	21.9	0.00e+00	66	28	0	742391808	52	6189
2026-01-14 13:51:02.61	90.78	44.93	-39.0	-40.0	22.5	0.00e+00	55	28	0	744488960	52	5753
2026-01-14 13:51:03.62	91.32	44.97	-38.9	-39.9	22.5	0.00e+00	92	28	0	746586112	52	5682
2026-01-14 13:51:04.63	91.86	45.01	-38.9	-39.9	22.6	0.00e+00	55	28	0	747634688	52	5674
2026-01-14 13:51:05.64	92.41	45.05	-39.0	-40.0	22.6	0.00e+00	7	28	0	749731840	52	5740
2026-01-14 13:51:06.64	92.95	45.08	-39.3	-40.4	22.1	0.00e+00	31	28	0	751828992	52	6004
2026-01-14 13:51:07.65	93.50	45.11	-39.3	-40.3	22.2	0.00e+00	6	28	0	753926144	52	5940
2026-01-14 13:51:08.66	94.04	45.13	-39.2	-40.3	22.4	0.00e+00	52	28	0	756023296	52	5908
2026-01-14 13:51:09.67	94.59	45.16	-38.9	-39.9	22.6	0.00e+00	7	28	0	757071872	52	5656
2026-01-14 13:51:10.68	95.14	45.18	-38.8	-39.8	22.7	0.00e+00	92	28	0	759169024	52	5583
2026-01-14 13:51:11.69	95.69	45.20	-38.8	-39.8	22.8	0.00e+00	8	28	0	761266176	50	6254
2026-01-14 13:51:12.70	96.25	45.21	-38.4	-39.3	23.2	0.00e+00	87	28	0	763363328	50	5952
2026-01-14 13:51:13.71	96.80	45.22	-38.0	-38.9	23.5	0.00e+00	6	28	0	765460480	50	5667
2026-01-14 13:51:14.72	97.35	45.23	-37.8	-38.6	23.7	0.00e+00	0	28	0	766509056	50	5494
2026-01-14 13:51:15.73	97.90	45.24	-37.8	-38.7	23.6	0.00e+00	0	28	0	768606208	48	6193
2026-01-14 13:51:16.74	98.45	45.24	-38.1	-39.0	23.3	0.00e+00	0	28	0	770703360	48	6428
2026-01-14 13:51:17.75	99.01	45.24	-38.3	-39.3	23.0	0.00e+00	90	28	0	772800512	48	6643
2026-01-14 13:51:18.76	99.56	45.24	-38.8	-39.8	22.5	0.00e+00	55	28	0	774897664	50	6282
2026-01-14 13:51:19.76	100.11	45.24	-38.7	-39.7	22.8	0.00e+00	92	28	0	775946240	50	6230
2026-01-14 13:51:20.77	100.66	45.23	-38.1	-39.0	23.3	0.00e+00	0	28	0	778043392	50	5723
2026-01-14 13:51:21.78	101.21	45.22	-37.8	-38.7	23.6	0.00e+00	20	28	0	780140544	48	6236
2026-01-14 13:51:22.79	101.76	45.20	-37.9	-38.8	23.5	0.00e+00	51	28	0	782237696	48	6259
2026-01-14 13:51:23.80	102.31	45.19	-38.3	-39.3	23.1	0.00e+00	29	28	0	784334848	48	6629
2026-01-14 13:51:24.81	102.86	45.17	-38.3	-39.3	23.1	0.00e+00	91	28	0	785383424	48	6635
2026-01-14 13:51:25.82	103.41	45.15	-38.3	-39.2	23.2	0.00e+00	29	28	0	787480576	48	6605
2026-01-14 13:51:26.83	103.96	45.12	-38.3	-39.2	23.1	0.00e+00	91	28	0	789577728	48	6601
2026-01-14 13:51:27.83	104.51	45.09	-38.8	-39.8	22.7	0.00e+00	30	28	0	791674880	50	6246
2026-01-14 13:51:28.84	105.05	45.06	-39.1	-40.1	22.4	0.00e+00	64	28	0	793772032	50	6471
2026-01-14 13:51:29.85	105.60	45.03	-38.9	-39.9	22.6	0.00e+00	30	28	0	794820608	50	6376
2026-01-14 13:51:30.86	106.14	44.99	-39.0	-40.0	22.6	0.00e+00	0	28	0	796917760	50	6443
2026-01-14 13:51:31.87	106.69	44.95	-39.2	-40.3	22.3	0.00e+00	0	28	0	799014912	50	6616
2026-01-14 13:51:32.88	107.23	44.91	-40.1	-41.2	21.4	0.00e+00	26	28	0	801112064	52	6574
2026-01-14 13:51:33.89	107.77	44.87	-40.7	-42.0	20.7	0.00e+00	91	28	0	803209216	52	7184
2026-01-14 13:51:34.90	108.31	44.82	-40.4	-41.7	21.1	0.00e+00	0	28	0	805306368	54	6198
2026-01-14 13:51:35.91	108.85	44.77	-39.5	-40.7	22.0	0.00e+00	90	28	0	806354944	52	6196
2026-01-14 13:51:36.92	109.38	44.72	-39.2	-40.2	22.3	0.00e+00	0	28	0	808452096	52	5877
2026-01-14 13:51:37.93	109.92	44.66	-39.0	-40.1	22.4	0.00e+00	0	28	0	810549248	52	5795
2026-01-14 13:51:38.93	110.45	44.61	-39.5	-40.6	21.9	0.00e+00	0	28	0	812646400	52	6155
2026-01-14 13:51:39.95	110.98	44.55	-40.0	-41.2	21.5	0.00e+00	0	28	0	814743552	52	6546
2026-01-14 13:51:40.95	111.50	44.48	-39.3	-40.4	22.2	0.00e+00	92	28	0	815792128	52	5976
2026-01-14 13:51:41.96	112.03	44.42	-38.6	-39.6	22.9	0.00e+00	0	28	0	817889280	50	6131
2026-01-14 13:51:42.97	112.55	44.35	-38.6	-39.5	22.9	0.00e+00	92	28	0	819986432	50	6103
2026-01-14 13:51:43.98	113.08	44.28	-39.3	-40.3	22.1	0.00e+00	55	28	0	822083584	50	6684
2026-01-14 13:51:44.99	113.60	44.21	-40.4	-41.7	20.9	0.00e+00	78	28	0	824180736	52	6953
2026-01-14 13:51:46.00	114.11	44.13	-40.7	-42.0	20.7	0.00e+00	54	28	0	825229312	52	7211
2026-01-14 13:51:47.01	114.63	44.05	-40.3	-41.5	21.2	0.00e+00	3	28	0	827326464	52	6790
2026-01-14 13:51:48.02	115.14	43.97	-39.8	-40.9	21.7	0.00e+00	0	28	0	829423616	52	6366
2026-01-14 13:51:49.02	115.65	43.89	-39.8	-40.9	21.7	0.00e+00	27	28	0	831520768	52	6350
2026-01-14 13:51:50.03	116.15	43.81	-39.4	-40.5	22.1	0.00e+00	92	28	0	833617920	52	6080
2026-01-14 13:51:51.04	116.66	43.72	-39.4	-40.4	22.2	0.00e+00	26	28	0	834666496	52	6000
2026-01-14 13:51:52.05	117.16	43.63	-38.7	-39.7	22.9	0.00e+00	90	28	0	836763648	50	6211
2026-01-14 13:51:53.06	117.66	43.54	-38.1	-39.0	23.4	0.00e+00	33	28	0	838860800	50	5703
2026-01-14 13:51:54.07	118.15	43.45	-37.9	-38.8	23.5	0.00e+00	0	28	0	840957952	50	5572
2026-01-14 13:51:55.08	118.65	43.35	-38.4	-39.3	23.0	0.00e+00	0	28	0	843055104	50	5932
2026-01-14 13:51:56.09	119.14	43.26	-38.7	-39.7	22.8	0.00e+00	0	28	0	844103680	50	6199
2026-01-14 13:51:57.10	119.63	43.16	-37.9	-38.8	23.6	0.00e+00	90	28	0	846200832	50	5593
2026-01-14 13:51:58.11	120.11	43.05	-37.3	-38.1	24.2	0.00e+00	0	28	0	848297984	48	5826
2026-01-14 13:51:59.12	120.59	42.95	-37.3	-38.1	24.2	0.00e+00	92	28	0	850395136	48	5803
2026-01-14 13:52:00.12	121.07	42.85	-37.7	-38.6	23.7	0.00e+00	0	28	0	852492288	48	6130
2026-01-14 13:52:01.13	121.54	42.74	-38.2	-39.1	23.2	0.00e+00	53	28	0	853540864	48	6528
2026-01-14 13:52:02.14	122.01	42.63	-37.7	-38.6	23.8	0.00e+00	0	28	0	855638016	48	6143
2026-01-14 13:52:03.14	122.48	42.52	-37.0	-37.8	24.5	0.00e+00	0	28	0	857735168	48	5587
2026-01-14 13:52:04.15	122.94	42.41	-36.6	-37.4	24.7	0.00e+00	92	28	0	859832320	46	6033
2026-01-14 13:52:05.17	123.41	42.29	-36.2	-37.0	25.1	0.00e+00	0	28	0	861929472	46	5697
2026-01-14 13:52:06.17	123.86	42.18	-36.9	-37.7	24.5	0.00e+00	92	28	0	862978048	46	6229
2026-01-14 13:52:07.18	124.32	42.06	-37.0	-37.9	24.3	0.00e+00	26	28	0	865075200	46	6341
2026-01-14 13:52:08.19	124.77	41.94	-36.4	-37.2	24.9	0.00e+00	92	28	0	867172352	46	5869
2026-01-14 13:52:09.20	125.22	41.82	-36.3	-37.0	24.9	0.00e+00	55	28	0	869269504	46	5761
2026-01-14 13:52:10.21	125.67	41.70	-35.9	-36.6	25.4	0.00e+00	0	28	0	871366656	46	5488
2026-01-14 13:52:11.22	126.11	41.58	-36.5	-37.3	24.7	0.00e+00	21	28	0	872415232	46	5924
2026-01-14 13:52:12.23	126.55	41.45	-36.8	-37.7	24.6	0.00e+00	56	28	0	874512384	46	6180
2026-01-14 13:52:13.24	126.99	41.32	-36.8	-37.7	24.5	0.00e+00	91	28	0	876609536	46	6180
2026-01-14 13:52:14.25	127.42	41.20	-36.4	-37.2	25.1	0.00e+00	25	28	0	878706688	46	5871
2026-01-14 13:52:15.25	127.85	41.07	-35.9	-36.7	25.2	0.00e+00	92	28	0	880803840	46	5525
2026-01-14 13:52:16.27	128.28	40.94	-36.4	-37.2	24.9	0.00e+00	26	28	0	881852416	46	5843
2026-01-14 13:52:17.27	128.69	40.81	-36.8	-37.7	24.3	0.00e+00	27	28	0	883949568	46	6181
2026-01-14 13:52:18.28	129.11	40.67	-37.3	-38.1	24.2	0.00e+00	0	28	0	886046720	46	6520
2026-01-14 13:52:19.29	129.53	40.54	-37.3	-38.1	24.2	0.00e+00	0	28	0	888143872	46	6521
2026-01-14 13:52:20.30	129.94	40.40	-37.2	-38.1	24.2	0.00e+00	91	28	0	890241024	46	6488
2026-01-14 13:52:21.31	130.35	40.27	-37.3	-38.2	24.2	0.00e+00	0	28	0	891289600	46	6571
2026-01-14 13:52:22.32	130.76	40.13	-37.4	-38.3	24.0	0.00e+00	92	28	0	893386752	46	6668
2026-01-14 13:52:23.33	131.16	39.99	-37.4	-38.2	24.2	0.00e+00	2	28	0	895483904	46	6591
2026-01-14 13:52:24.34	131.56	39.85	-37.1	-37.9	24.4	0.00e+00	49	28	0	897581056	46	6343
2026-01-14 13:52:25.35	131.95	39.71	-37.1	-37.9	24.3	0.00e+00	38	28	0	899678208	46	6366
2026-01-14 13:52:26.35	132.34	39.57	-37.4	-38.3	24.0	0.00e+00	0	28	0	901775360	46	6650
2026-01-14 13:52:27.36	132.73	39.43	-38.0	-38.9	23.5	0.00e+00	24	28	0	902823936	48	6344
2026-01-14 13:52:28.37	133.12	39.29	-37.8	-38.7	23.6	0.00e+00	48	28	0	904921088	48	6185
2026-01-14 13:52:29.38	133.50	39.14	-37.3	-38.1	24.3	0.00e+00	92	28	0	907018240	48	5786
2026-01-14 13:52:30.39	133.88	39.00	-37.2	-38.0	24.3	0.00e+00	33	28	0	909115392	48	5714
2026-01-14 13:52:31.40	134.25	38.85	-38.1	-39.0	23.2	0.00e+00	91	28	0	911212544	48	6459
2026-01-14 13:52:32.41	134.62	38.71	-39.1	-40.1	22.4	0.00e+00	27	28	0	912261120	50	6538
2026-01-14 13:52:33.41	134.99	38.56	-39.0	-40.0	22.5	0.00e+00	31	28	0	914358272	50	6450
2026-01-14 13:52:34.42	135.36	38.41	-38.8	-39.8	22.7	0.00e+00	0	28	0	916455424	50	6282
2026-01-14 13:52:35.43	135.72	38.27	-38.6	-39.6	22.9	0.00e+00	0	28	0	918552576	50	6122
2026-01-14 13:52:36.44	136.08	38.12	-38.1	-38.9	23.5	0.00e+00	91	28	0	920649728	50	5692
2026-01-14 13:52:37.45	136.43	37.97	-37.7	-38.6	23.8	0.00e+00	5	28	0	921698304	48	6128
2026-01-14 13:52:38.45	136.78	37.82	-38.2	-39.1	23.2	0.00e+00	92	28	0	923795456	48	6535
2026-01-14 13:52:39.46	137.13	37.67	-38.5	-39.5	23.1	0.00e+00	28	28	0	925892608	48	6783
2026-01-14 13:52:40.47	137.48	37.52	-37.7	-38.6	23.6	0.00e+00	67	28	0	927989760	48	6166
2026-01-14 13:52:41.48	137.82	37.37	-37.1	-38.0	24.3	0.00e+00	5	28	0	930086912	48	5697
2026-01-14 13:52:42.49	138.16	37.22	-36.6	-37.4	24.5	0.00e+00	5	28	0	931135488	46	6016
2026-01-14 13:52:43.50	138.50	37.06	-36.6	-37.4	24.7	0.00e+00	92	28	0	933232640	46	6030
2026-01-14 13:52:44.51	138.83	36.91	-38.1	-39.0	23.3	0.00e+00	5	28	0	935329792	48	6431
2026-01-14 13:52:45.52	139.17	36.76	-39.2	-40.2	22.3	0.00e+00	92	28	0	937426944	50	6594
2026-01-14 13:52:46.53	139.49	36.61	-38.8	-39.9	22.7	0.00e+00	0	28	0	939524096	50	6323
2026-01-14 13:52:47.54	139.82	36.45	-38.1	-39.0	23.5	0.00e+00	63	28	0	940572672	50	5720
2026-01-14 13:52:48.55	140.14	36.30	-37.7	-38.6	23.8	0.00e+00	0	28	0	942669824	48	6155
2026-01-14 13:52:49.56	140.46	36.15	-37.9	-38.8	23.4	0.00e+00	0	28	0	944766976	48	6292
2026-01-14 13:52:50.57	140.78	35.99	-39.2	-40.3	22.1	0.00e+00	75	28	0	946864128	50	6657
2026-01-14 13:52:51.58	141.09	35.84	-40.3	-41.5	21.2	0.00e+00	0	28	0	948961280	52	6793
2026-01-14 13:52:52.59	141.40	35.68	-40.1	-41.3	21.4	0.00e+00	92	28	0	950009856	52	6688
2026-01-14 13:52:53.60	141.71	35.53	-39.0	-40.1	22.6	0.00e+00	38	28	0	952107008	52	5782
2026-01-14 13:52:54.61	142.01	35.37	-38.2	-39.2	23.3	0.00e+00	92	28	0	954204160	50	5834
2026-01-14 13:52:55.61	142.31	35.22	-37.6	-38.4	23.8	0.00e+00	48	28	0	956301312	48	6029
2026-01-14 13:52:56.62	142.61	35.06	-37.0	-37.8	24.4	0.00e+00	47	28	0	958398464	48	5612
2026-01-14 13:52:57.63	142.90	34.91	-37.6	-38.5	23.7	0.00e+00	5	28	0	959447040	48	6075
2026-01-14 13:52:58.64	143.20	34.75	-39.1	-40.2	22.3	0.00e+00	36	28	0	961544192	50	6563
2026-01-14 13:52:59.65	143.49	34.60	-40.4	-41.7	21.0	0.00e+00	92	28	0	963641344	52	6934
2026-01-14 13:53:00.66	143.78	34.44	-40.0	-41.1	21.4	0.00e+00	39	28	0	965738496	52	6537
2026-01-14 13:53:01.67	144.06	34.29	-38.7	-39.7	22.8	0.00e+00	92	28	0	967835648	52	5543
2026-01-14 13:53:02.68	144.34	34.13	-38.3	-39.2	23.1	0.00e+00	7	28	0	969932800	50	5864
2026-01-14 13:53:03.69	144.62	33.98	-38.0	-38.9	23.6	0.00e+00	6	28	0	970981376	50	5638
2026-01-14 13:53:04.70	144.90	33.82	-38.6	-39.6	22.8	0.00e+00	6	28	0	973078528	50	6151
2026-01-14 13:53:05.71	145.18	33.67	-40.1	-41.3	21.3	0.00e+00	7	28	0	975175680	52	6680
2026-01-14 13:53:06.72	145.45	33.51	-41.4	-42.8	19.7	0.00e+00	92	28	0	977272832	54	7075
2026-01-14 13:53:07.73	145.72	33.36	-41.0	-42.4	20.3	0.00e+00	0	28	0	978321408	54	6748
2026-01-14 13:53:08.74	145.99	33.20	-39.4	-40.5	22.1	0.00e+00	91	28	0	980418560	52	6062
2026-01-14 13:53:09.74	146.25	33.05	-38.0	-38.9	23.5	0.00e+00	53	28	0	982515712	50	5671
2026-01-14 13:53:10.75	146.51	32.89	-37.3	-38.2	24.1	0.00e+00	62	28	0	984612864	48	5840
2026-01-14 13:53:11.76	146.77	32.74	-37.1	-37.9	24.2	0.00e+00	53	28	0	986710016	48	5690
2026-01-14 13:53:12.77	147.03	32.59	-37.7	-38.6	23.7	0.00e+00	0	28	0	987758592	48	6126
2026-01-14 13:53:13.78	147.28	32.43	-39.0	-40.1	22.2	0.00e+00	6	28	0	989855744	50	6481
2026-01-14 13:53:14.79	147.54	32.28	-40.9	-42.2	20.3	0.00e+00	27	28	0	991952896	52	7402
2026-01-14 13:53:15.80	147.79	32.12	-41.6	-43.1	19.7	0.00e+00	92	28	0	994050048	54	7276
2026-01-14 13:53:16.81	148.03	31.97	-40.8	-42.1	20.5	0.00e+00	27	28	0	996147200	54	6517
2026-01-14 13:53:17.82	148.28	31.82	-39.9	-41.1	21.5	0.00e+00	92	28	0	998244352	54	5795
2026-01-14 13:53:18.82	148.52	31.67	-39.8	-40.9	21.6	0.00e+00	53	28	0	999292928	52	6323
2026-01-14 13:53:19.83	148.76	31.51	-38.5	-39.4	23.1	0.00e+00	29	28	0	1001390080	50	5999
2026-01-14 13:53:20.84	149.00	31.36	-38.2	-39.1	23.1	0.00e+00	0	28	0	1003487232	50	5826
2026-01-14 13:53:21.85	149.24	31.21	-39.3	-40.4	22.0	0.00e+00	0	28	0	1005584384	50	6707
2026-01-14 13:53:22.86	149.47	31.06	-40.8	-42.1	20.4	0.00e+00	91	28	0	1007681536	52	7315
2026-01-14 13:53:23.87	149.71	30.90	-42.4	-44.1	18.5	0.00e+00	35	28	0	1008730112	56	7332
2026-01-14 13:53:24.88	149.94	30.75	-42.6	-44.4	18.4	0.00e+00	90	28	0	1010827264	58	6729
2026-01-14 13:53:25.90	150.17	30.60	-41.1	-42.5	20.3	0.00e+00	0	28	0	1012924416	56	6057
2026-01-14 13:53:26.90	150.39	30.45	-39.7	-40.9	21.6	0.00e+00	2	28	0	1015021568	54	5632
2026-01-14 13:53:27.91	150.61	30.30	-39.5	-40.6	21.5	0.00e+00	0	28	0	1017118720	52	6145
2026-01-14 13:53:28.92	150.84	30.15	-38.6	-39.5	22.9	0.00e+00	0	28	0	1018167296	50	6083
2026-01-14 13:53:29.93	151.06	30.00	-37.7	-38.5	23.8	0.00e+00	92	28	0	1020264448	50	5423
2026-01-14 13:53:30.94	151.28	29.85	-37.2	-38.0	24.0	0.00e+00	0	28	0	1022361600	48	5749
2026-01-14 13:53:31.95	151.49	29.70	-37.7	-38.6	23.6	0.00e+00	92	28	0	1024458752	48	6118
2026-01-14 13:53:32.96	151.71	29.55	-38.6	-39.6	22.7	0.00e+00	51	28	0	1026555904	48	6895
2026-01-14 13:53:33.97	151.92	29.40	-39.5	-40.6	21.7	0.00e+00	92	28	0	1027604480	50	6915
2026-01-14 13:53:34.98	152.13	29.25	-40.0	-41.2	21.4	0.00e+00	0	28	0	1029701632	52	6580
2026-01-14 13:53:35.99	152.34	29.11	-39.9	-41.1	21.5	0.00e+00	30	28	0	1031798784	52	6480
2026-01-14 13:53:36.99	152.54	28.96	-39.2	-40.3	22.2	0.00e+00	52	28	0	1033895936	52	5931
2026-01-14 13:53:38.00	152.75	28.81	-38.8	-39.8	22.7	0.00e+00	29	28	0	1035993088	52	5571
2026-01-14 13:53:39.01	152.95	28.67	-38.4	-39.3	23.1	0.00e+00	92	28	0	1037041664	50	5935
2026-01-14 13:53:40.02	153.15	28.52	-38.2	-39.1	23.3	0.00e+00	53	28	0	1039138816	50	5783
2026-01-14 13:53:41.03	153.35	28.38	-38.3	-39.3	23.1	0.00e+00	92	28	0	1041235968	50	5911
2026-01-14 13:53:42.04	153.55	28.23	-38.5	-39.5	22.9	0.00e+00	0	28	0	1043333120	50	6043
2026-01-14 13:53:43.05	153.74	28.08	-38.8	-39.9	22.5	0.00e+00	2	28	0	1045430272	50	6320
2026-01-14 13:53:44.06	153.94	27.94	-39.0	-40.0	22.4	0.00e+00	0	28	0	1046478848	50	6437
2026-01-14 13:53:45.07	154.13	27.80	-39.1	-40.1	22.3	0.00e+00	0	28	0	1048576000	50	6504
2026-01-14 13:53:46.08	154.32	27.65	-38.9	-40.0	22.4	0.00e+00	92	28	0	1050673152	50	6408
2026-01-14 13:53:47.09	154.51	27.51	-38.5	-39.5	23.0	0.00e+00	0	28	0	1052770304	50	6040
2026-01-14 13:53:48.09	154.70	27.37	-38.3	-39.2	23.1	0.00e+00	91	28	0	1054867456	50	5853
2026-01-14 13:53:49.10	154.88	27.22	-37.8	-38.7	23.7	0.00e+00	2	28	0	1055916032	50	5516
2026-01-14 13:53:50.11	155.07	27.08	-37.4	-38.2	24.0	0.00e+00	0	28	0	1058013184	48	5871
2026-01-14 13:53:51.12	155.25	26.94	-36.7	-37.5	24.6	0.00e+00	0	28	0	1060110336	46	6053
2026-01-14 13:53:52.13	155.43	26.80	-36.6	-37.4	24.6	0.00e+00	0	28	0	1062207488	46	6006
2026-01-14 13:53:53.14	155.61	26.66	-36.9	-37.7	24.4	0.00e+00	91	28	0	1064304640	46	6199
2026-01-14 13:53:54.15	155.79	26.52	-37.4	-38.2	24.0	0.00e+00	2	28	0	1066401792	46	6577
2026-01-14 13:53:55.16	155.97	26.38	-37.8	-38.7	23.5	0.00e+00	92	28	0	1067450368	46	6968
2026-01-14 13:53:56.17	156.14	26.24	-38.0	-38.9	23.4	0.00e+00	0	28	0	1069547520	48	6332
2026-01-14 13:53:57.18	156.32	26.10	-38.3	-39.3	23.0	0.00e+00	59	28	0	1071644672	48	6650
2026-01-14 13:53:58.19	156.49	25.96	-38.1	-39.0	23.2	0.00e+00	34	28	0	1073741824	48	6451
2026-01-14 13:53:59.20	156.66	25.82	-38.1	-39.0	23.3	0.00e+00	36	28	0	1075838976	48	6448
2026-01-14 13:54:00.21	156.83	25.68	-38.1	-39.0	23.2	0.00e+00	23	28	0	1076887552	48	6448
2026-01-14 13:54:01.22	157.00	25.55	-38.1	-39.0	23.3	0.00e+00	52	28	0	1078984704	48	6442
2026-01-14 13:54:02.23	157.16	25.41	-37.7	-38.6	23.7	0.00e+00	92	28	0	1081081856	48	6113
2026-01-14 13:54:03.24	157.33	25.27	-37.6	-38.4	23.8	0.00e+00	2	28	0	1083179008	48	6015
2026-01-14 13:54:04.25	157.49	25.14	-37.5	-38.4	23.8	0.00e+00	92	28	0	1085276160	48	6005
2026-01-14 13:54:05.26	157.65	25.00	-37.6	-38.4	23.8	0.00e+00	29	28	0	1086324736	48	6025
2026-01-14 13:54:06.27	157.81	24.87	-37.3	-38.2	24.0	0.00e+00	30	28	0	1088421888	48	5832
2026-01-14 13:54:07.27	157.97	24.74	-37.3	-38.2	24.1	0.00e+00	30	28	0	1090519040	48	5835
2026-01-14 13:54:08.29	158.13	24.60	-37.3	-38.2	24.0	0.00e+00	0	28	0	1092616192	48	5844
2026-01-14 13:54:09.30	158.29	24.47	-37.5	-38.3	23.8	0.00e+00	90	28	0	1094713344	48	5952
2026-01-14 13:54:10.31	158.44	24.33	-37.7	-38.6	23.6	0.00e+00	0	28	0	1095761920	48	6139
2026-01-14 13:54:11.31	158.60	24.20	-38.0	-38.9	23.3	0.00e+00	85	28	0	1097859072	48	6388
2026-01-14 13:54:12.32	158.75	24.07	-38.3	-39.2	23.1	0.00e+00	0	28	0	1099956224	48	6606
2026-01-14 13:54:13.33	158.90	23.94	-38.6	-39.6	22.6	0.00e+00	49	28	0	1102053376	48	6904
2026-01-14 13:54:14.34	159.05	23.81	-39.0	-40.0	22.3	0.00e+00	0	28	0	1104150528	50	6431
2026-01-14 13:54:15.35	159.20	23.68	-39.1	-40.1	22.2	0.00e+00	0	28	0	1105199104	50	6536
2026-01-14 13:54:16.36	159.35	23.55	-39.1	-40.1	22.2	0.00e+00	90	28	0	1107296256	50	6517
2026-01-14 13:54:17.37	159.50	23.42	-38.8	-39.9	22.5	0.00e+00	0	28	0	1109393408	50	6323
2026-01-14 13:54:18.38	159.64	23.29	-38.7	-39.7	22.6	0.00e+00	90	28	0	1111490560	50	6212
2026-01-14 13:54:19.39	159.79	23.16	-38.4	-39.4	22.9	0.00e+00	0	28	0	1113587712	50	5970
2026-01-14 13:54:20.40	159.93	23.03	-37.9	-38.9	23.2	0.00e+00	33	28	0	1114636288	50	5638
2026-01-14 13:54:21.41	160.08	22.90	-37.9	-38.8	23.3	0.00e+00	50	28	0	1116733440	50	5604
2026-01-14 13:54:22.41	160.22	22.77	-37.8	-38.7	23.5	0.00e+00	48	28	0	1118830592	50	5531
2026-01-14 13:54:23.42	160.36	22.65	-37.8	-38.7	23.5	0.00e+00	0	28	0	1120927744	50	5565
2026-01-14 13:54:24.43	160.49	22.52	-38.0	-39.0	23.2	0.00e+00	37	28	0	1123024896	50	5716
2026-01-14 13:54:25.44	160.63	22.39	-38.3	-39.2	23.0	0.00e+00	92	28	0	1124073472	50	5879
2026-01-14 13:54:26.45	160.77	22.27	-38.4	-39.4	22.8	0.00e+00	0	28	0	1126170624	50	5975
2026-01-14 13:54:27.46	160.91	22.14	-38.4	-39.4	22.9	0.00e+00	57	28	0	1128267776	50	6000
2026-01-14 13:54:28.47	161.04	22.02	-38.3	-39.3	23.0	0.00e+00	38	28	0	1130364928	50	5922
2026-01-14 13:54:29.48	161.17	21.89	-38.2	-39.1	23.2	0.00e+00	5	28	0	1132462080	50	5798
2026-01-14 13:54:30.49	161.31	21.77	-38.1	-39.0	23.2	0.00e+00	0	28	0	1134559232	50	5744
2026-01-14 13:54:31.50	161.44	21.65	-37.9	-38.8	23.4	0.00e+00	6	28	0	1135607808	50	5586
2026-01-14 13:54:32.51	161.57	21.52	-37.9	-38.8	23.4	0.00e+00	90	28	0	1137704960	50	5597
2026-01-14 13:54:33.52	161.70	21.40	-37.6	-38.5	23.6	0.00e+00	0	28	0	1139802112	48	6090
2026-01-14 13:54:34.53	161.83	21.28	-37.7	-38.6	23.5	0.00e+00	92	28	0	1141899264	48	6116
2026-01-14 13:54:35.54	161.96	21.16	-37.7	-38.5	23.6	0.00e+00	0	28	0	1143996416	48	6097
2026-01-14 13:54:36.55	162.08	21.04	-37.7	-38.6	23.5	0.00e+00	0	28	0	1145044992	48	6126
2026-01-14 13:54:37.55	162.21	20.92	-37.7	-38.6	23.6	0.00e+00	37	28	0	1147142144	48	6108
2026-01-14 13:54:38.56	162.33	20.80	-37.7	-38.6	23.5	0.00e+00	0	28	0	1149239296	48	6158
2026-01-14 13:54:39.57	162.46	20.68	-37.7	-38.6	23.5	0.00e+00	92	28	0	1151336448	48	6129
2026-01-14 13:54:40.58	162.58	20.56	-37.9	-38.8	23.2	0.00e+00	48	28	0	1153433600	48	6294
2026-01-14 13:54:41.59	162.70	20.44	-37.8	-38.8	23.3	0.00e+00	92	28	0	1154482176	48	6248
2026-01-14 13:54:42.60	162.82	20.32	-37.9	-38.8	23.4	0.00e+00	45	28	0	1156579328	48	6277
2026-01-14 13:54:43.61	162.94	20.20	-37.9	-38.8	23.4	0.00e+00	36	28	0	1158676480	48	6256
2026-01-14 13:54:44.62	163.06	20.08	-38.0	-38.9	23.2	0.00e+00	37	28	0	1160773632	48	6368
2026-01-14 13:54:45.63	163.18	19.97	-38.1	-39.0	23.2	0.00e+00	48	28	0	1162870784	48	6445
2026-01-14 13:54:46.63	163.30	19.85	-38.2	-39.2	23.0	0.00e+00	22	28	0	1163919360	48	6567
2026-01-14 13:54:47.65	163.42	19.73	-38.3	-39.2	22.9	0.00e+00	38	28	0	1166016512	48	6612
2026-01-14 13:54:48.65	163.53	19.62	-38.5	-39.4	22.8	0.00e+00	91	28	0	1168113664	48	6755
2026-01-14 13:54:49.66	163.65	19.50	-38.5	-39.5	22.7	0.00e+00	7	28	0	1170210816	48	6838
2026-01-14 13:54:50.67	163.76	19.39	-38.7	-39.7	22.5	0.00e+00	92	28	0	1172307968	48	6983
2026-01-14 13:54:51.68	163.87	19.27	-38.7	-39.7	22.6	0.00e+00	8	28	0	1173356544	50	6208
2026-01-14 13:54:52.69	163.99	19.16	-38.7	-39.7	22.5	0.00e+00	0	28	0	1175453696	50	6228
2026-01-14 13:54:53.70	164.10	19.04	-38.6	-39.6	22.6	0.00e+00	1	28	0	1177550848	50	6156
2026-01-14 13:54:54.70	164.21	18.93	-38.6	-39.6	22.7	0.00e+00	7	28	0	1179648000	50	6131
2026-01-14 13:54:55.71	164.32	18.82	-38.6	-39.5	22.7	0.00e+00	92	28	0	1181745152	50	6102
2026-01-14 13:54:56.72	164.43	18.71	-38.5	-39.4	22.8	0.00e+00	0	28	0	1182793728	50	6029
2026-01-14 13:54:57.73	164.54	18.59	-38.3	-39.2	22.8	0.00e+00	92	28	0	1184890880	50	5886
2026-01-14 13:54:58.74	164.65	18.48	-38.3	-39.2	23.0	0.00e+00	44	28	0	1186988032	50	5872
2026-01-14 13:54:59.75	164.75	18.37	-38.3	-39.3	22.9	0.00e+00	43	28	0	1189085184	50	5927
2026-01-14 13:55:00.76	164.86	18.26	-38.1	-39.0	23.0	0.00e+00	0	28	0	1191182336	50	5750
2026-01-14 13:55:01.77	164.97	18.15	-38.2	-39.1	23.1	0.00e+00	0	28	0	1192230912	50	5823
2026-01-14 13:55:02.78	165.07	18.04	-38.1	-39.0	23.2	0.00e+00	63	28	0	1194328064	50	5741
2026-01-14 13:55:03.79	165.18	17.93	-38.1	-39.1	23.1	0.00e+00	49	28	0	1196425216	50	5775
2026-01-14 13:55:04.80	165.28	17.82	-38.3	-39.2	22.9	0.00e+00	92	28	0	1198522368	50	5889
2026-01-14 13:55:05.81	165.38	17.71	-38.2	-39.2	23.0	0.00e+00	32	28	0	1200619520	50	5844
2026-01-14 13:55:06.81	165.48	17.60	-38.3	-39.3	22.9	0.00e+00	92	28	0	1201668096	50	5915
2026-01-14 13:55:07.82	165.58	17.50	-38.5	-39.4	22.8	0.00e+00	34	28	0	1203765248	50	6023
2026-01-14 13:55:08.83	165.69	17.39	-38.3	-39.2	22.9	0.00e+00	33	28	0	1205862400	50	5885
2026-01-14 13:55:09.84	165.79	17.28	-38.4	-39.4	22.8	0.00e+00	45	28	0	1207959552	50	5967
2026-01-14 13:55:10.85	165.88	17.17	-38.4	-39.3	22.8	0.00e+00	0	28	0	1210056704	50	5951
2026-01-14 13:55:11.86	165.98	17.07	-38.4	-39.3	22.8	0.00e+00	91	28	0	1211105280	50	5961
2026-01-14 13:55:12.87	166.08	16.96	-38.2	-39.1	23.0	0.00e+00	2	28	0	1213202432	50	5804
2026-01-14 13:55:13.88	166.18	16.86	-38.2	-39.2	22.9	0.00e+00	92	28	0	1215299584	50	5854
2026-01-14 13:55:14.89	166.28	16.75	-38.0	-39.0	23.1	0.00e+00	2	28	0	1217396736	50	5707
