passes_logs/2026/01/14/R4.6S_Anadyr/R4.6S_Anadyr__20260114_182316_SUOMI_NPP_rec.log

#Pass ID: 20260114_182316_SUOMI NPP
#Satellite: SUOMI NPP
#Configuration: NPP
#almurnet v.1.7.20251203
#Start time: 2026-01-14 18:23:19

#Version: 2.2.20231116
#Station: R4.6S_Anadyr
#Location: 177.4865 lon 64.73178 lat
#TLE: 1 37849U 11061A   26013.83525404  .00000052  00000+0  45495-4 0  9990
#TLE: 2 37849  98.7808 315.8939 0002471  65.6575 294.4859 14.19524986736544

#Time	Az	El	Level	Level2	SNR	BER	BlckErr	Temp	State	Recorded	gain1	gain2
2026-01-14 18:23:19.73	39.24	0.17	-48.8	-62.5	3.3	1.54e+00	0	28	0	0	60	48270
2026-01-14 18:23:20.73	39.17	0.22	-48.8	-64.0	3.6	1.51e+00	0	28	104	0	60	57466
2026-01-14 18:23:21.74	39.09	0.27	-48.8	-64.0	3.6	1.51e+00	0	28	104	0	60	57372
2026-01-14 18:23:22.75	39.02	0.32	-48.8	-64.0	3.6	1.51e+00	0	28	104	0	60	57488
2026-01-14 18:23:23.76	38.95	0.38	-48.8	-64.0	3.6	1.51e+00	0	28	104	0	60	57459
2026-01-14 18:23:24.77	38.88	0.43	-48.8	-64.0	3.6	1.51e+00	0	28	104	0	60	57157
2026-01-14 18:23:25.78	38.81	0.48	-48.7	-63.9	3.6	1.51e+00	0	28	104	0	60	56382
2026-01-14 18:23:26.79	38.73	0.53	-48.6	-63.9	3.6	1.51e+00	0	28	104	0	60	56347
2026-01-14 18:23:27.80	38.66	0.58	-48.6	-63.8	3.6	1.51e+00	0	28	104	0	60	55921
2026-01-14 18:23:28.81	38.59	0.63	-48.5	-63.7	3.6	1.51e+00	0	28	104	0	60	55343
2026-01-14 18:23:29.82	38.52	0.68	-48.4	-63.5	3.6	1.51e+00	0	28	104	0	60	54391
2026-01-14 18:23:30.83	38.44	0.73	-48.2	-63.4	3.6	1.51e+00	0	28	104	0	60	53194
2026-01-14 18:23:31.84	38.37	0.78	-48.0	-63.1	3.6	1.51e+00	0	28	104	0	60	51873
2026-01-14 18:23:32.85	38.29	0.84	-47.5	-62.7	3.6	1.51e+00	0	28	104	0	60	49176
2026-01-14 18:23:33.86	38.22	0.89	-47.1	-62.2	3.6	1.51e+00	0	28	104	0	60	46721
2026-01-14 18:23:34.87	38.15	0.94	-47.1	-62.2	3.6	1.51e+00	0	28	104	0	60	46729
2026-01-14 18:23:35.88	38.07	0.99	-47.1	-62.3	3.6	1.51e+00	0	28	104	0	60	46850
2026-01-14 18:23:36.89	38.00	1.04	-47.1	-62.2	3.6	1.51e+00	0	28	104	0	60	46476
2026-01-14 18:23:37.90	37.92	1.09	-47.1	-62.2	3.6	1.51e+00	0	28	104	0	60	46787
2026-01-14 18:23:38.91	37.84	1.14	-47.1	-62.2	3.6	1.51e+00	0	28	104	0	60	46677
2026-01-14 18:23:39.92	37.77	1.20	-47.1	-62.2	3.6	1.51e+00	0	28	104	0	60	46586
2026-01-14 18:23:40.93	37.69	1.25	-47.1	-62.2	3.6	1.51e+00	0	28	104	0	60	46646
2026-01-14 18:23:41.94	37.62	1.30	-47.1	-62.2	3.6	1.51e+00	0	28	104	0	60	46529
2026-01-14 18:23:42.95	37.54	1.35	-47.1	-62.2	3.6	1.51e+00	0	28	104	0	60	46685
2026-01-14 18:23:43.96	37.46	1.40	-47.1	-62.2	3.6	1.51e+00	0	28	104	0	60	46300
2026-01-14 18:23:44.97	37.38	1.46	-47.1	-62.2	3.6	1.51e+00	0	28	104	0	60	46465
2026-01-14 18:23:45.98	37.31	1.51	-47.1	-62.2	3.6	1.51e+00	0	28	104	0	60	46397
2026-01-14 18:23:46.98	37.23	1.56	-47.1	-62.2	3.6	1.51e+00	0	28	104	0	60	46445
2026-01-14 18:23:48.00	37.15	1.61	-47.1	-62.2	3.6	1.51e+00	0	28	104	0	60	46592
2026-01-14 18:23:49.00	37.07	1.66	-47.1	-62.2	3.6	1.51e+00	0	28	104	0	60	46641
2026-01-14 18:23:50.02	36.99	1.72	-47.1	-62.2	3.6	1.51e+00	0	28	104	0	60	46664
2026-01-14 18:23:51.02	36.91	1.77	-47.1	-62.2	3.6	1.51e+00	0	28	104	0	60	46732
2026-01-14 18:23:52.04	36.83	1.82	-47.1	-62.2	3.6	1.51e+00	0	28	104	0	60	46465
2026-01-14 18:23:53.04	36.76	1.87	-47.1	-62.2	3.6	1.51e+00	0	28	104	0	60	46403
2026-01-14 18:23:54.05	36.68	1.92	-47.1	-62.1	3.6	1.51e+00	0	28	104	0	60	45952
2026-01-14 18:23:55.06	36.60	1.98	-47.1	-62.0	3.6	1.51e+00	0	28	104	0	60	45253
2026-01-14 18:23:56.07	36.51	2.03	-47.1	-61.8	3.6	1.51e+00	0	28	104	0	60	44705
2026-01-14 18:23:57.08	36.43	2.08	-47.1	-61.9	3.6	1.51e+00	0	28	104	0	60	44854
2026-01-14 18:23:58.09	36.35	2.13	-47.1	-62.0	3.6	1.51e+00	0	29	104	0	60	45433
2026-01-14 18:23:59.10	36.27	2.19	-47.1	-62.1	3.6	1.51e+00	0	28	104	0	60	46096
2026-01-14 18:24:00.12	36.19	2.24	-47.1	-62.2	3.6	1.51e+00	0	28	104	0	60	46617
2026-01-14 18:24:01.12	36.11	2.29	-47.1	-62.2	3.6	1.51e+00	0	28	104	0	60	46532
2026-01-14 18:24:02.13	36.03	2.34	-47.1	-62.2	3.5	1.51e+00	0	28	104	0	60	46564
2026-01-14 18:24:03.14	35.94	2.40	-47.1	-62.2	3.6	1.51e+00	0	28	104	0	60	46417
2026-01-14 18:24:04.15	35.86	2.45	-47.1	-62.2	3.6	1.51e+00	0	28	104	0	60	46444
2026-01-14 18:24:05.16	35.78	2.50	-47.1	-62.1	3.6	1.51e+00	0	28	104	0	60	45830
2026-01-14 18:24:06.17	35.69	2.55	-47.0	-61.5	3.6	1.51e+00	0	28	104	0	60	43171
2026-01-14 18:24:07.18	35.61	2.61	-47.0	-61.0	3.6	1.51e+00	0	29	104	0	60	40722
2026-01-14 18:24:08.19	35.52	2.66	-47.0	-61.1	3.6	1.51e+00	0	28	104	0	60	40926
2026-01-14 18:24:09.20	35.44	2.71	-47.0	-61.7	3.6	1.51e+00	0	28	104	0	60	43842
2026-01-14 18:24:10.21	35.35	2.77	-47.0	-61.5	3.6	1.51e+00	0	29	104	0	60	42794
2026-01-14 18:24:11.22	35.27	2.82	-46.9	-58.6	4.2	1.50e+00	0	29	104	0	60	30886
2026-01-14 18:24:12.23	35.18	2.87	-46.5	-54.2	6.3	6.26e-01	0	29	0	0	60	18568
2026-01-14 18:24:13.24	35.10	2.92	-45.8	-51.2	9.3	1.08e-01	68	29	0	2097152	60	13124
2026-01-14 18:24:14.26	35.01	2.98	-45.1	-49.5	11.4	3.48e-03	0	29	0	4194304	60	10818
2026-01-14 18:24:15.26	34.93	3.03	-45.2	-49.8	11.0	2.21e-04	0	28	0	6291456	60	11222
2026-01-14 18:24:16.27	34.84	3.08	-47.1	-61.8	3.6	1.32e+00	0	29	104	6291456	60	44285
2026-01-14 18:24:17.28	34.75	3.14	-46.9	-57.5	4.6	1.50e+00	0	29	104	6291456	60	27197
2026-01-14 18:24:18.29	34.66	3.19	-44.8	-48.9	13.2	1.12e-01	44	28	104	6291456	60	10114
2026-01-14 18:24:19.30	34.58	3.24	-41.4	-43.2	17.6	0.00e+00	0	29	0	7340032	56	6551
2026-01-14 18:24:20.31	34.49	3.30	-46.9	-61.1	3.6	1.51e+00	0	29	104	8388608	60	40995
2026-01-14 18:24:21.32	34.40	3.35	-41.2	-42.9	17.3	4.43e-01	0	28	104	8388608	56	6332
2026-01-14 18:24:22.33	34.31	3.40	-41.6	-43.4	17.9	0.00e+00	0	28	0	9437184	56	6718
2026-01-14 18:24:23.34	34.22	3.46	-41.4	-43.1	18.0	0.00e+00	0	29	0	11534336	56	6539
2026-01-14 18:24:24.35	34.13	3.51	-41.1	-42.8	18.4	0.00e+00	0	28	0	12582912	56	6276
2026-01-14 18:24:25.35	34.04	3.56	-41.4	-43.2	18.0	0.00e+00	28	29	0	14680064	56	6575
2026-01-14 18:24:26.36	33.95	3.62	-41.6	-43.4	18.0	0.00e+00	0	29	0	16777216	56	6755
2026-01-14 18:24:27.37	33.86	3.67	-41.6	-43.4	17.9	0.00e+00	92	28	0	18874368	56	6743
2026-01-14 18:24:28.38	33.77	3.72	-41.6	-43.3	17.9	0.00e+00	0	29	0	20971520	56	6690
2026-01-14 18:24:29.39	33.68	3.78	-41.4	-43.2	18.1	0.00e+00	84	29	0	22020096	56	6540
2026-01-14 18:24:30.40	33.59	3.83	-41.9	-43.8	17.5	0.00e+00	0	29	0	24117248	56	7056
2026-01-14 18:24:31.41	33.50	3.89	-41.9	-43.7	17.5	0.00e+00	0	29	0	26214400	56	7000
2026-01-14 18:24:32.41	33.41	3.94	-42.3	-44.3	17.1	0.00e+00	24	29	0	28311552	56	7485
2026-01-14 18:24:33.42	33.31	3.99	-42.5	-44.6	16.9	0.00e+00	0	29	0	30408704	56	7689
2026-01-14 18:24:34.43	33.22	4.05	-42.4	-44.4	17.1	0.00e+00	51	29	0	31457280	56	7580
2026-01-14 18:24:35.44	33.13	4.10	-41.7	-43.5	17.9	0.00e+00	0	28	0	33554432	56	6838
2026-01-14 18:24:36.45	33.03	4.15	-42.0	-43.9	17.6	0.00e+00	92	29	0	35651584	56	7117
2026-01-14 18:24:37.46	32.94	4.21	-41.9	-43.8	17.7	0.00e+00	0	29	0	37748736	56	7014
2026-01-14 18:24:38.47	32.84	4.26	-42.3	-44.4	17.1	0.00e+00	0	29	0	39845888	56	7539
2026-01-14 18:24:39.48	32.75	4.32	-42.1	-44.1	17.3	0.00e+00	0	29	0	40894464	56	7302
2026-01-14 18:24:40.49	32.65	4.37	-42.5	-44.5	17.0	0.00e+00	0	28	0	42991616	56	7682
2026-01-14 18:24:41.50	32.56	4.42	-42.1	-44.0	17.5	0.00e+00	60	28	0	45088768	56	7178
2026-01-14 18:24:42.51	32.46	4.48	-42.1	-44.1	17.3	0.00e+00	0	28	0	47185920	56	7255
2026-01-14 18:24:43.52	32.37	4.53	-42.1	-44.1	17.4	0.00e+00	92	28	0	49283072	56	7262
2026-01-14 18:24:44.53	32.27	4.59	-41.7	-43.5	17.9	0.00e+00	0	29	0	51380224	56	6813
2026-01-14 18:24:45.54	32.17	4.64	-41.8	-43.6	17.9	0.00e+00	0	29	0	52428800	56	6871
2026-01-14 18:24:46.54	32.08	4.70	-41.6	-43.4	18.2	0.00e+00	0	29	0	54525952	56	6719
2026-01-14 18:24:47.55	31.98	4.75	-41.6	-43.3	18.0	0.00e+00	0	29	0	56623104	56	6653
2026-01-14 18:24:48.56	31.88	4.80	-41.7	-43.4	18.1	0.00e+00	22	29	0	58720256	56	6748
2026-01-14 18:24:49.57	31.78	4.86	-41.6	-43.3	18.2	0.00e+00	0	29	0	60817408	56	6618
2026-01-14 18:24:50.58	31.68	4.91	-41.3	-43.0	18.5	0.00e+00	92	29	0	61865984	56	6414
2026-01-14 18:24:51.59	31.59	4.97	-41.2	-42.8	18.6	0.00e+00	0	29	0	63963136	56	6270
2026-01-14 18:24:52.60	31.49	5.02	-41.3	-42.9	18.6	0.00e+00	0	29	0	66060288	56	6320
2026-01-14 18:24:53.61	31.39	5.08	-41.1	-42.7	18.7	0.00e+00	0	29	0	68157440	56	6234
2026-01-14 18:24:54.62	31.29	5.13	-41.4	-43.0	18.5	0.00e+00	0	29	0	70254592	56	6434
2026-01-14 18:24:55.63	31.18	5.19	-41.5	-43.2	18.4	0.00e+00	26	29	0	71303168	56	6549
2026-01-14 18:24:56.64	31.08	5.24	-41.4	-43.1	18.3	0.00e+00	0	29	0	73400320	56	6479
2026-01-14 18:24:57.65	30.98	5.29	-41.4	-43.0	18.5	0.00e+00	92	29	0	75497472	56	6415
2026-01-14 18:24:58.66	30.88	5.35	-41.2	-42.8	18.6	0.00e+00	0	29	0	77594624	56	6307
2026-01-14 18:24:59.67	30.78	5.40	-41.2	-42.8	18.7	0.00e+00	24	29	0	79691776	56	6269
2026-01-14 18:25:00.66	30.68	5.46	-41.5	-43.2	18.4	0.00e+00	0	29	0	80740352	56	6542
2026-01-14 18:25:01.66	30.57	5.51	-41.5	-43.2	18.4	0.00e+00	0	29	0	82837504	56	6600
2026-01-14 18:25:02.67	30.47	5.57	-41.6	-43.4	18.2	0.00e+00	0	29	0	84934656	56	6721
2026-01-14 18:25:03.68	30.37	5.62	-41.7	-43.5	18.1	0.00e+00	0	29	0	87031808	56	6792
2026-01-14 18:25:04.69	30.26	5.68	-41.7	-43.5	18.2	0.00e+00	92	29	0	89128960	56	6822
2026-01-14 18:25:05.70	30.16	5.73	-41.6	-43.3	18.4	0.00e+00	0	29	0	90177536	56	6665
2026-01-14 18:25:06.71	30.05	5.79	-41.4	-43.1	18.5	0.00e+00	90	29	0	92274688	56	6491
2026-01-14 18:25:07.72	29.95	5.84	-41.4	-43.0	18.5	0.00e+00	0	29	0	94371840	56	6458
2026-01-14 18:25:08.73	29.84	5.89	-41.5	-43.2	18.3	0.00e+00	0	29	0	96468992	56	6594
2026-01-14 18:25:09.74	29.74	5.95	-41.4	-43.1	18.4	0.00e+00	0	29	0	98566144	56	6530
2026-01-14 18:25:10.75	29.63	6.00	-41.5	-43.2	18.4	0.00e+00	0	29	0	99614720	56	6564
2026-01-14 18:25:11.75	29.52	6.06	-41.5	-43.3	18.5	0.00e+00	29	29	0	101711872	56	6638
2026-01-14 18:25:12.76	29.41	6.11	-41.3	-43.0	18.7	0.00e+00	0	29	0	103809024	56	6411
2026-01-14 18:25:13.77	29.31	6.17	-41.3	-42.9	18.6	0.00e+00	75	29	0	105906176	56	6384
2026-01-14 18:25:14.78	29.20	6.22	-41.4	-43.1	18.6	0.00e+00	0	29	0	108003328	56	6477
2026-01-14 18:25:15.79	29.09	6.28	-41.4	-43.0	18.7	0.00e+00	0	29	0	109051904	56	6436
2026-01-14 18:25:16.80	28.98	6.33	-41.4	-43.1	18.4	0.00e+00	0	29	0	111149056	56	6479
2026-01-14 18:25:17.81	28.87	6.39	-41.4	-43.1	18.6	0.00e+00	0	29	0	113246208	56	6512
2026-01-14 18:25:18.82	28.76	6.44	-41.2	-42.8	18.9	0.00e+00	46	29	0	115343360	56	6314
2026-01-14 18:25:19.83	28.65	6.50	-41.3	-42.9	18.8	0.00e+00	0	29	0	117440512	56	6353
2026-01-14 18:25:20.84	28.54	6.55	-41.0	-42.6	19.0	0.00e+00	79	29	0	118489088	56	6123
2026-01-14 18:25:21.85	28.43	6.61	-41.1	-42.7	18.9	0.00e+00	0	29	0	120586240	56	6198
2026-01-14 18:25:22.86	28.32	6.66	-41.3	-42.9	18.8	0.00e+00	0	29	0	122683392	56	6380
2026-01-14 18:25:23.86	28.20	6.72	-41.0	-42.6	19.1	0.00e+00	0	29	0	124780544	56	6141
2026-01-14 18:25:24.88	28.09	6.77	-41.3	-42.9	18.7	0.00e+00	0	29	0	126877696	56	6346
2026-01-14 18:25:25.88	27.98	6.83	-41.4	-43.1	18.7	0.00e+00	27	29	0	127926272	56	6513
2026-01-14 18:25:26.89	27.86	6.88	-41.2	-42.7	19.0	0.00e+00	0	29	0	130023424	56	6236
2026-01-14 18:25:27.90	27.75	6.94	-41.0	-42.5	19.2	0.00e+00	72	29	0	132120576	56	6082
2026-01-14 18:25:28.91	27.64	6.99	-40.7	-42.2	19.4	0.00e+00	0	29	0	134217728	54	6568
2026-01-14 18:25:29.92	27.52	7.05	-40.7	-42.1	19.4	0.00e+00	73	29	0	136314880	54	6509
2026-01-14 18:25:30.93	27.41	7.11	-40.8	-42.3	19.4	0.00e+00	0	29	0	137363456	54	6672
2026-01-14 18:25:31.94	27.29	7.16	-40.9	-42.4	19.3	0.00e+00	0	29	0	139460608	54	6731
2026-01-14 18:25:32.95	27.17	7.22	-41.1	-42.7	19.0	0.00e+00	17	29	0	141557760	54	6972
2026-01-14 18:25:33.96	27.06	7.27	-41.0	-42.5	19.1	0.00e+00	0	29	0	143654912	54	6834
2026-01-14 18:25:34.97	26.94	7.33	-40.9	-42.5	19.2	0.00e+00	26	29	0	145752064	54	6793
2026-01-14 18:25:35.98	26.82	7.38	-41.2	-42.8	18.9	0.00e+00	0	29	0	147849216	54	7082
2026-01-14 18:25:36.99	26.70	7.44	-41.1	-42.7	19.0	0.00e+00	92	29	0	148897792	54	7001
2026-01-14 18:25:37.99	26.59	7.49	-41.2	-42.9	19.0	0.00e+00	0	29	0	150994944	54	7106
2026-01-14 18:25:39.01	26.47	7.55	-40.9	-42.4	19.3	0.00e+00	0	29	0	153092096	54	6738
2026-01-14 18:25:40.01	26.35	7.60	-40.8	-42.3	19.3	0.00e+00	0	29	0	155189248	54	6675
2026-01-14 18:25:41.02	26.23	7.66	-41.0	-42.6	19.2	0.00e+00	0	29	0	157286400	54	6857
2026-01-14 18:25:42.03	26.11	7.71	-40.9	-42.4	19.3	0.00e+00	59	29	0	158334976	54	6743
2026-01-14 18:25:43.04	25.99	7.77	-40.9	-42.5	19.2	0.00e+00	0	29	0	160432128	54	6772
2026-01-14 18:25:44.05	25.86	7.82	-41.1	-42.7	19.0	0.00e+00	32	29	0	162529280	54	6996
2026-01-14 18:25:45.06	25.74	7.88	-41.0	-42.5	19.2	0.00e+00	0	29	0	164626432	54	6841
2026-01-14 18:25:46.07	25.62	7.93	-40.8	-42.3	19.5	0.00e+00	0	29	0	166723584	54	6622
2026-01-14 18:25:47.08	25.50	7.99	-40.6	-42.0	19.7	0.00e+00	0	29	0	167772160	54	6431
2026-01-14 18:25:48.09	25.37	8.04	-40.4	-41.7	19.9	0.00e+00	0	29	0	169869312	54	6239
2026-01-14 18:25:49.10	25.25	8.10	-40.2	-41.5	20.1	0.00e+00	31	29	0	171966464	54	6090
2026-01-14 18:25:50.11	25.13	8.15	-40.0	-41.3	20.3	0.00e+00	0	29	0	174063616	54	5940
2026-01-14 18:25:51.12	25.00	8.21	-39.9	-41.2	20.4	0.00e+00	92	29	0	176160768	54	5879
2026-01-14 18:25:52.13	24.88	8.26	-40.0	-41.3	20.4	0.00e+00	0	29	0	177209344	54	5937
2026-01-14 18:25:53.14	24.75	8.32	-40.0	-41.3	20.3	0.00e+00	0	29	0	179306496	54	5905
2026-01-14 18:25:54.14	24.63	8.37	-40.0	-41.2	20.2	0.00e+00	0	29	0	181403648	54	5871
2026-01-14 18:25:55.15	24.50	8.43	-40.1	-41.4	19.8	0.00e+00	7	29	0	183500800	54	6002
2026-01-14 18:25:56.16	24.37	8.48	-40.1	-41.5	20.0	0.00e+00	29	29	0	185597952	54	6042
2026-01-14 18:25:57.17	24.24	8.54	-39.8	-41.0	20.5	0.00e+00	0	29	0	186646528	54	5750
2026-01-14 18:25:58.18	24.12	8.59	-39.9	-41.2	20.4	0.00e+00	67	29	0	188743680	54	5862
2026-01-14 18:25:59.19	23.99	8.65	-40.1	-41.4	20.3	0.00e+00	0	29	0	190840832	54	5993
2026-01-14 18:26:00.20	23.86	8.70	-40.0	-41.3	20.4	0.00e+00	50	29	0	192937984	54	5948
2026-01-14 18:26:01.21	23.73	8.76	-40.1	-41.5	20.2	0.00e+00	6	29	0	195035136	54	6040
2026-01-14 18:26:02.22	23.60	8.81	-40.1	-41.4	20.2	0.00e+00	0	29	0	196083712	54	5989
2026-01-14 18:26:03.23	23.47	8.87	-40.2	-41.6	20.1	0.00e+00	0	29	0	198180864	54	6139
2026-01-14 18:26:04.23	23.34	8.92	-40.3	-41.7	20.0	0.00e+00	0	29	0	200278016	54	6190
2026-01-14 18:26:05.24	23.21	8.98	-40.2	-41.6	20.0	0.00e+00	92	29	0	202375168	54	6130
2026-01-14 18:26:06.25	23.07	9.03	-40.3	-41.7	20.1	0.00e+00	0	29	0	204472320	54	6188
2026-01-14 18:26:07.26	22.94	9.09	-40.4	-41.7	20.1	0.00e+00	49	29	0	205520896	54	6237
2026-01-14 18:26:08.27	22.81	9.14	-40.1	-41.4	20.3	0.00e+00	0	29	0	207618048	54	5998
2026-01-14 18:26:09.28	22.67	9.20	-40.4	-41.7	20.0	0.00e+00	0	29	0	209715200	54	6223
2026-01-14 18:26:10.29	22.54	9.25	-40.4	-41.8	19.8	0.00e+00	0	29	0	211812352	54	6284
2026-01-14 18:26:11.30	22.40	9.31	-40.4	-41.7	20.1	0.00e+00	0	29	0	213909504	54	6220
2026-01-14 18:26:12.31	22.27	9.36	-40.4	-41.8	20.0	0.00e+00	91	29	0	216006656	54	6247
2026-01-14 18:26:13.32	22.13	9.42	-40.3	-41.7	20.1	0.00e+00	0	29	0	217055232	54	6191
2026-01-14 18:26:14.33	22.00	9.47	-40.2	-41.5	20.3	0.00e+00	85	29	0	219152384	54	6065
2026-01-14 18:26:15.34	21.86	9.53	-40.2	-41.6	20.2	0.00e+00	0	29	0	221249536	54	6104
2026-01-14 18:26:16.34	21.72	9.58	-40.1	-41.4	20.3	0.00e+00	0	29	0	223346688	54	6023
2026-01-14 18:26:17.35	21.59	9.64	-40.2	-41.5	20.2	0.00e+00	0	29	0	225443840	54	6062
2026-01-14 18:26:18.36	21.45	9.69	-40.1	-41.4	20.4	0.00e+00	0	29	0	226492416	54	5993
2026-01-14 18:26:19.37	21.31	9.74	-39.9	-41.2	20.6	0.00e+00	75	29	0	228589568	54	5859
2026-01-14 18:26:20.38	21.17	9.80	-40.1	-41.4	20.4	0.00e+00	0	29	0	230686720	54	6017
2026-01-14 18:26:21.39	21.03	9.85	-40.1	-41.4	20.3	0.00e+00	73	29	0	232783872	54	6015
2026-01-14 18:26:22.40	20.89	9.91	-40.2	-41.6	20.2	0.00e+00	0	29	0	234881024	54	6121
2026-01-14 18:26:23.41	20.75	9.96	-40.1	-41.3	20.2	0.00e+00	0	29	0	235929600	54	5954
2026-01-14 18:26:24.42	20.61	10.02	-40.1	-41.4	20.3	0.00e+00	0	29	0	238026752	54	5979
2026-01-14 18:26:25.43	20.46	10.07	-39.9	-41.2	20.6	0.00e+00	0	29	0	240123904	54	5859
2026-01-14 18:26:26.44	20.32	10.12	-40.0	-41.2	20.6	0.00e+00	33	29	0	242221056	54	5894
2026-01-14 18:26:27.45	20.18	10.18	-39.9	-41.1	20.7	0.00e+00	0	29	0	244318208	54	5787
2026-01-14 18:26:28.46	20.03	10.23	-39.9	-41.2	20.6	0.00e+00	91	29	0	245366784	54	5869
2026-01-14 18:26:29.47	19.89	10.29	-40.1	-41.3	20.4	0.00e+00	0	29	0	247463936	54	5961
2026-01-14 18:26:30.48	19.74	10.34	-40.2	-41.5	20.3	0.00e+00	0	29	0	249561088	54	6080
2026-01-14 18:26:31.49	19.60	10.39	-40.4	-41.8	20.2	0.00e+00	0	29	0	251658240	54	6262
2026-01-14 18:26:32.50	19.45	10.45	-40.2	-41.5	20.3	0.00e+00	0	29	0	253755392	54	6070
2026-01-14 18:26:33.51	19.31	10.50	-40.0	-41.3	20.4	0.00e+00	17	29	0	254803968	54	5928
2026-01-14 18:26:34.52	19.16	10.56	-40.0	-41.3	20.6	0.00e+00	0	29	0	256901120	54	5902
2026-01-14 18:26:35.53	19.01	10.61	-40.0	-41.3	20.5	0.00e+00	91	29	0	258998272	54	5938
2026-01-14 18:26:36.53	18.86	10.66	-40.3	-41.6	20.2	0.00e+00	0	29	0	261095424	54	6144
2026-01-14 18:26:37.55	18.71	10.72	-40.4	-41.8	20.0	0.00e+00	4	29	0	263192576	54	6262
2026-01-14 18:26:38.55	18.57	10.77	-40.8	-42.3	19.4	0.00e+00	0	29	0	264241152	54	6657
2026-01-14 18:26:39.56	18.42	10.82	-41.0	-42.5	19.2	0.00e+00	0	29	0	266338304	54	6803
2026-01-14 18:26:40.57	18.27	10.88	-40.8	-42.3	19.5	0.00e+00	0	29	0	268435456	54	6680
2026-01-14 18:26:41.58	18.12	10.93	-40.7	-42.1	19.8	0.00e+00	0	29	0	270532608	54	6519
2026-01-14 18:26:42.59	17.96	10.98	-40.4	-41.8	20.1	0.00e+00	91	29	0	272629760	54	6279
2026-01-14 18:26:43.60	17.81	11.03	-40.3	-41.7	20.1	0.00e+00	0	29	0	273678336	54	6193
2026-01-14 18:26:44.61	17.66	11.09	-40.1	-41.5	20.3	0.00e+00	90	29	0	275775488	54	6041
2026-01-14 18:26:45.62	17.51	11.14	-40.1	-41.4	20.3	0.00e+00	0	29	0	277872640	54	5991
2026-01-14 18:26:46.63	17.35	11.19	-40.1	-41.4	20.3	0.00e+00	0	29	0	279969792	54	6011
2026-01-14 18:26:47.64	17.20	11.25	-39.9	-41.2	20.5	0.00e+00	0	29	0	282066944	54	5867
2026-01-14 18:26:48.65	17.04	11.30	-40.1	-41.4	20.4	0.00e+00	0	29	0	283115520	54	5983
2026-01-14 18:26:49.65	16.89	11.35	-40.0	-41.3	20.6	0.00e+00	28	29	0	285212672	54	5915
2026-01-14 18:26:50.66	16.73	11.40	-39.8	-41.1	20.8	0.00e+00	0	29	0	287309824	54	5766
2026-01-14 18:26:51.68	16.57	11.45	-39.7	-41.0	20.9	0.00e+00	49	29	0	289406976	52	6402
2026-01-14 18:26:52.68	16.42	11.51	-39.7	-41.0	20.9	0.00e+00	0	29	0	291504128	52	6398
2026-01-14 18:26:53.69	16.26	11.56	-39.4	-40.6	21.2	0.00e+00	0	29	0	293601280	52	6115
2026-01-14 18:26:54.70	16.10	11.61	-39.5	-40.7	21.1	0.00e+00	0	29	0	294649856	52	6183
2026-01-14 18:26:55.71	15.94	11.66	-39.4	-40.5	21.2	0.00e+00	0	29	0	296747008	52	6087
2026-01-14 18:26:56.72	15.78	11.71	-39.6	-40.8	21.0	0.00e+00	28	29	0	298844160	52	6287
2026-01-14 18:26:57.73	15.62	11.77	-39.7	-41.0	20.6	0.00e+00	0	29	0	300941312	52	6423
2026-01-14 18:26:58.74	15.46	11.82	-39.3	-40.5	21.4	0.00e+00	90	29	0	301989888	52	6066
2026-01-14 18:26:59.75	15.30	11.87	-39.1	-40.2	21.6	0.00e+00	0	29	0	304087040	52	5843
2026-01-14 18:27:00.76	15.14	11.92	-39.0	-40.1	21.6	0.00e+00	0	29	0	306184192	52	5815
2026-01-14 18:27:01.77	14.98	11.97	-38.8	-39.8	21.8	0.00e+00	0	29	0	308281344	52	5615
2026-01-14 18:27:02.78	14.82	12.02	-38.7	-39.8	21.8	0.00e+00	0	29	0	310378496	50	6278
2026-01-14 18:27:03.79	14.65	12.07	-38.6	-39.7	21.8	0.00e+00	35	29	0	312475648	50	6222
2026-01-14 18:27:04.79	14.49	12.12	-38.7	-39.8	21.9	0.00e+00	0	29	0	313524224	50	6266
2026-01-14 18:27:05.80	14.32	12.17	-38.4	-39.5	22.2	0.00e+00	74	29	0	315621376	50	6041
2026-01-14 18:27:06.81	14.16	12.22	-38.4	-39.4	22.3	0.00e+00	0	29	0	317718528	50	5993
2026-01-14 18:27:07.82	13.99	12.27	-38.4	-39.4	22.2	0.00e+00	35	29	0	319815680	50	6019
2026-01-14 18:27:08.83	13.83	12.32	-38.3	-39.4	22.3	0.00e+00	0	29	0	321912832	50	5988
2026-01-14 18:27:09.84	13.66	12.38	-38.2	-39.2	22.5	0.00e+00	0	29	0	322961408	50	5883
2026-01-14 18:27:10.85	13.49	12.43	-38.1	-39.1	22.4	0.00e+00	34	29	0	325058560	50	5824
2026-01-14 18:27:11.86	13.32	12.47	-38.5	-39.6	22.1	0.00e+00	0	29	0	327155712	50	6147
2026-01-14 18:27:12.87	13.16	12.52	-38.5	-39.6	22.2	0.00e+00	42	29	0	329252864	50	6110
2026-01-14 18:27:13.88	12.99	12.57	-38.5	-39.6	22.0	0.00e+00	0	29	0	331350016	50	6161
2026-01-14 18:27:14.89	12.82	12.62	-38.5	-39.6	21.8	0.00e+00	57	29	0	332398592	50	6111
2026-01-14 18:27:15.90	12.65	12.67	-38.3	-39.4	22.2	0.00e+00	0	29	0	334495744	50	5974
2026-01-14 18:27:16.91	12.48	12.72	-38.3	-39.3	22.3	0.00e+00	0	29	0	336592896	50	5927
2026-01-14 18:27:17.92	12.30	12.77	-38.2	-39.2	22.4	0.00e+00	30	29	0	338690048	50	5875
2026-01-14 18:27:18.93	12.13	12.82	-38.2	-39.2	22.4	0.00e+00	0	29	0	340787200	50	5833
2026-01-14 18:27:19.94	11.96	12.87	-38.3	-39.3	22.4	0.00e+00	30	29	0	341835776	50	5937
2026-01-14 18:27:20.94	11.79	12.92	-38.2	-39.2	22.4	0.00e+00	0	29	0	343932928	50	5888
2026-01-14 18:27:21.95	11.61	12.96	-38.3	-39.3	22.3	0.00e+00	79	29	0	346030080	50	5958
2026-01-14 18:27:22.96	11.44	13.01	-38.1	-39.1	22.4	0.00e+00	0	29	0	348127232	50	5815
2026-01-14 18:27:23.97	11.26	13.06	-38.2	-39.3	22.3	0.00e+00	0	29	0	350224384	50	5905
2026-01-14 18:27:24.98	11.09	13.11	-38.1	-39.1	22.5	0.00e+00	0	29	0	351272960	50	5789
2026-01-14 18:27:25.99	10.91	13.16	-38.3	-39.3	22.5	0.00e+00	0	29	0	353370112	50	5953
2026-01-14 18:27:27.00	10.74	13.20	-38.4	-39.5	22.1	0.00e+00	27	29	0	355467264	50	6059
2026-01-14 18:27:28.01	10.56	13.25	-38.5	-39.6	22.1	0.00e+00	0	29	0	357564416	50	6140
2026-01-14 18:27:29.02	10.38	13.30	-38.6	-39.7	22.1	0.00e+00	92	29	0	359661568	50	6208
2026-01-14 18:27:30.03	10.20	13.34	-38.7	-39.8	21.9	0.00e+00	0	29	0	360710144	50	6263
2026-01-14 18:27:31.04	10.02	13.39	-38.7	-39.8	21.8	0.00e+00	0	29	0	362807296	50	6304
2026-01-14 18:27:32.05	9.84	13.44	-38.8	-40.0	21.8	0.00e+00	0	29	0	364904448	50	6407
2026-01-14 18:27:33.06	9.66	13.48	-38.6	-39.7	22.2	0.00e+00	0	29	0	367001600	50	6207
2026-01-14 18:27:34.07	9.48	13.53	-38.4	-39.5	22.1	0.00e+00	89	29	0	369098752	50	6083
2026-01-14 18:27:35.08	9.30	13.58	-38.4	-39.4	22.2	0.00e+00	0	29	0	370147328	50	6012
2026-01-14 18:27:36.09	9.12	13.62	-38.1	-39.1	22.5	0.00e+00	82	29	0	372244480	50	5817
2026-01-14 18:27:37.10	8.94	13.67	-37.8	-38.7	22.9	0.00e+00	0	29	0	374341632	50	5563
2026-01-14 18:27:38.11	8.75	13.71	-37.3	-38.2	23.1	0.00e+00	0	29	0	376438784	48	5885
2026-01-14 18:27:39.12	8.57	13.76	-37.1	-37.9	23.5	0.00e+00	31	29	0	378535936	48	5686
2026-01-14 18:27:40.13	8.39	13.80	-37.1	-37.9	23.4	0.00e+00	0	29	0	379584512	48	5693
2026-01-14 18:27:41.14	8.20	13.85	-37.0	-37.9	23.6	0.00e+00	32	29	0	381681664	48	5656
2026-01-14 18:27:42.15	8.01	13.89	-37.0	-37.9	23.5	0.00e+00	30	29	0	383778816	48	5683
2026-01-14 18:27:43.16	7.83	13.94	-37.1	-38.0	23.3	0.00e+00	90	29	0	385875968	48	5704
2026-01-14 18:27:44.17	7.64	13.98	-37.1	-38.0	23.3	0.00e+00	0	29	0	387973120	48	5759
2026-01-14 18:27:45.17	7.46	14.02	-37.4	-38.3	22.9	0.00e+00	3	29	0	390070272	48	5940
2026-01-14 18:27:46.18	7.27	14.07	-37.4	-38.3	23.0	0.00e+00	0	29	0	391118848	48	5917
2026-01-14 18:27:47.19	7.08	14.11	-37.5	-38.4	23.1	0.00e+00	0	29	0	393216000	48	6028
2026-01-14 18:27:48.20	6.89	14.15	-37.8	-38.7	22.9	0.00e+00	5	29	0	395313152	48	6232
2026-01-14 18:27:49.21	6.70	14.20	-38.1	-39.1	22.7	0.00e+00	0	29	0	397410304	48	6497
2026-01-14 18:27:50.22	6.51	14.24	-38.1	-39.1	22.6	0.00e+00	91	29	0	399507456	48	6498
2026-01-14 18:27:51.23	6.32	14.28	-38.2	-39.2	22.4	0.00e+00	0	29	0	400556032	48	6575
2026-01-14 18:27:52.24	6.13	14.32	-38.3	-39.3	22.4	0.00e+00	91	29	0	402653184	48	6673
2026-01-14 18:27:53.25	5.94	14.37	-38.3	-39.4	22.4	0.00e+00	0	29	0	404750336	48	6697
2026-01-14 18:27:54.25	5.75	14.41	-37.8	-38.7	22.9	0.00e+00	0	29	0	406847488	48	6237
2026-01-14 18:27:55.26	5.56	14.45	-37.8	-38.7	22.9	0.00e+00	0	29	0	408944640	48	6243
2026-01-14 18:27:56.27	5.36	14.49	-37.8	-38.7	22.9	0.00e+00	0	29	0	409993216	48	6222
2026-01-14 18:27:57.28	5.17	14.53	-38.0	-39.0	22.6	0.00e+00	32	29	0	412090368	48	6444
2026-01-14 18:27:58.29	4.98	14.57	-38.3	-39.4	22.4	0.00e+00	0	29	0	414187520	48	6696
2026-01-14 18:27:59.30	4.78	14.61	-38.5	-39.6	22.1	0.00e+00	92	29	0	416284672	48	6896
2026-01-14 18:28:00.31	4.59	14.65	-38.7	-39.9	22.0	0.00e+00	0	29	0	418381824	48	7092
2026-01-14 18:28:01.32	4.39	14.69	-38.8	-39.9	21.9	0.00e+00	0	29	0	419430400	50	6357
2026-01-14 18:28:02.33	4.19	14.73	-38.5	-39.6	22.3	0.00e+00	0	29	0	421527552	50	6107
2026-01-14 18:28:03.34	4.00	14.77	-38.2	-39.3	22.4	0.00e+00	0	29	0	423624704	50	5930
2026-01-14 18:28:04.34	3.80	14.81	-38.2	-39.3	22.5	0.00e+00	31	29	0	425721856	50	5916
2026-01-14 18:28:05.35	3.60	14.85	-38.2	-39.2	22.6	0.00e+00	0	29	0	427819008	50	5896
2026-01-14 18:28:06.36	3.41	14.89	-38.1	-39.1	22.6	0.00e+00	72	29	0	428867584	50	5828
2026-01-14 18:28:07.37	3.21	14.92	-38.0	-39.0	22.8	0.00e+00	0	29	0	430964736	50	5724
2026-01-14 18:28:08.38	3.01	14.96	-38.0	-38.9	22.8	0.00e+00	0	29	0	433061888	50	5691
2026-01-14 18:28:09.38	2.81	15.00	-37.8	-38.8	22.9	0.00e+00	0	29	0	435159040	50	5577
2026-01-14 18:28:10.39	2.61	15.04	-37.9	-38.9	22.8	0.00e+00	0	29	0	437256192	48	6358
2026-01-14 18:28:11.40	2.41	15.07	-37.5	-38.4	23.1	0.00e+00	25	29	0	438304768	48	6024
2026-01-14 18:28:12.41	2.21	15.11	-37.6	-38.6	23.0	0.00e+00	0	29	0	440401920	48	6139
2026-01-14 18:28:13.41	2.01	15.15	-38.1	-39.1	22.7	0.00e+00	90	29	0	442499072	48	6479
2026-01-14 18:28:14.42	1.80	15.18	-38.2	-39.2	22.6	0.00e+00	0	29	0	444596224	48	6596
2026-01-14 18:28:15.43	1.60	15.22	-38.1	-39.1	22.8	0.00e+00	57	29	0	446693376	48	6475
2026-01-14 18:28:16.44	1.40	15.25	-37.8	-38.7	22.9	0.00e+00	0	29	0	447741952	48	6227
2026-01-14 18:28:17.45	1.19	15.29	-37.5	-38.4	23.2	0.00e+00	0	29	0	449839104	48	6027
2026-01-14 18:28:18.46	0.99	15.32	-37.3	-38.2	23.3	0.00e+00	31	29	0	451936256	48	5880
2026-01-14 18:28:19.48	0.78	15.36	-37.6	-38.5	23.1	0.00e+00	0	29	0	454033408	48	6098
2026-01-14 18:28:20.48	0.58	15.39	-37.9	-38.9	22.8	0.00e+00	22	29	0	456130560	48	6318
2026-01-14 18:28:21.49	0.37	15.43	-37.9	-38.9	22.8	0.00e+00	0	29	0	458227712	48	6370
2026-01-14 18:28:22.50	0.17	15.46	-37.8	-38.7	22.9	0.00e+00	0	29	0	459276288	48	6227
2026-01-14 18:28:23.51	359.96	15.49	-37.6	-38.6	23.1	0.00e+00	0	29	0	461373440	48	6117
2026-01-14 18:28:24.52	359.75	15.53	-37.3	-38.2	23.3	0.00e+00	0	29	0	463470592	48	5867
2026-01-14 18:28:25.53	359.54	15.56	-37.1	-38.0	23.0	0.00e+00	0	29	0	465567744	48	5732
2026-01-14 18:28:26.54	359.34	15.59	-36.9	-37.8	23.3	0.00e+00	0	29	0	466616320	48	5607
2026-01-14 18:28:27.55	359.13	15.62	-36.9	-37.7	23.5	0.00e+00	21	29	0	468713472	48	5564
2026-01-14 18:28:28.55	358.92	15.65	-36.9	-37.7	23.7	0.00e+00	0	29	0	470810624	48	5552
2026-01-14 18:28:29.56	358.71	15.68	-37.0	-37.9	23.6	0.00e+00	61	29	0	472907776	48	5649
2026-01-14 18:28:30.57	358.50	15.72	-37.0	-37.9	23.6	0.00e+00	0	29	0	475004928	48	5642
2026-01-14 18:28:31.58	358.29	15.75	-37.1	-38.0	23.5	0.00e+00	0	29	0	476053504	48	5760
2026-01-14 18:28:32.59	358.08	15.78	-37.0	-37.9	23.5	0.00e+00	0	29	0	478150656	48	5669
2026-01-14 18:28:33.60	357.87	15.81	-37.1	-38.0	23.6	0.00e+00	0	29	0	480247808	48	5723
2026-01-14 18:28:34.61	357.66	15.84	-37.3	-38.2	23.3	0.00e+00	55	29	0	482344960	48	5886
2026-01-14 18:28:35.62	357.44	15.86	-37.4	-38.4	23.1	0.00e+00	0	29	0	484442112	48	5988
2026-01-14 18:28:36.63	357.23	15.89	-37.8	-38.7	23.0	0.00e+00	50	29	0	486539264	48	6233
2026-01-14 18:28:37.64	357.02	15.92	-37.8	-38.8	22.8	0.00e+00	0	29	0	487587840	48	6262
2026-01-14 18:28:38.65	356.81	15.95	-37.8	-38.7	22.8	0.00e+00	0	29	0	489684992	48	6242
2026-01-14 18:28:39.66	356.59	15.98	-37.6	-38.5	23.0	0.00e+00	0	29	0	491782144	48	6070
2026-01-14 18:28:40.66	356.38	16.00	-37.5	-38.4	23.1	0.00e+00	0	29	0	493879296	48	6007
2026-01-14 18:28:41.67	356.17	16.03	-37.6	-38.6	23.0	0.00e+00	42	29	0	495976448	48	6120
2026-01-14 18:28:42.68	355.95	16.06	-37.5	-38.4	23.2	0.00e+00	0	29	0	497025024	48	6033
2026-01-14 18:28:43.69	355.74	16.08	-37.8	-38.7	22.8	0.00e+00	91	29	0	499122176	48	6229
2026-01-14 18:28:44.70	355.52	16.11	-37.9	-38.9	22.7	0.00e+00	0	29	0	501219328	48	6375
2026-01-14 18:28:45.71	355.30	16.13	-38.1	-39.2	22.6	0.00e+00	0	29	0	503316480	48	6549
2026-01-14 18:28:46.72	355.09	16.16	-37.9	-38.9	22.8	0.00e+00	0	29	0	505413632	48	6365
2026-01-14 18:28:47.73	354.87	16.18	-37.8	-38.8	23.0	0.00e+00	0	29	0	506462208	48	6257
2026-01-14 18:28:48.74	354.65	16.21	-37.7	-38.6	22.9	0.00e+00	28	29	0	508559360	48	6168
2026-01-14 18:28:49.75	354.44	16.23	-37.7	-38.6	22.9	0.00e+00	0	29	0	510656512	48	6139
2026-01-14 18:28:50.76	354.22	16.25	-37.6	-38.5	23.0	0.00e+00	92	29	0	512753664	48	6100
2026-01-14 18:28:51.77	354.00	16.28	-37.9	-38.9	22.8	0.00e+00	0	29	0	514850816	48	6351
2026-01-14 18:28:52.78	353.78	16.30	-38.0	-39.0	22.7	0.00e+00	13	29	0	515899392	48	6424
2026-01-14 18:28:53.79	353.56	16.32	-38.3	-39.3	22.4	0.00e+00	0	29	0	517996544	48	6648
2026-01-14 18:28:54.80	353.34	16.34	-38.3	-39.3	22.5	0.00e+00	0	29	0	520093696	48	6639
2026-01-14 18:28:55.81	353.12	16.36	-38.1	-39.1	22.7	0.00e+00	33	29	0	522190848	48	6468
2026-01-14 18:28:56.81	352.91	16.39	-37.7	-38.7	23.0	0.00e+00	0	29	0	524288000	48	6175
2026-01-14 18:28:57.82	352.69	16.41	-37.5	-38.4	23.2	0.00e+00	62	29	0	525336576	48	6012
2026-01-14 18:28:58.83	352.47	16.43	-37.5	-38.4	23.3	0.00e+00	0	29	0	527433728	48	6027
2026-01-14 18:28:59.84	352.24	16.45	-37.4	-38.4	23.3	0.00e+00	89	29	0	529530880	48	5965
2026-01-14 18:29:00.85	352.02	16.46	-37.6	-38.5	23.1	0.00e+00	0	29	0	531628032	48	6086
2026-01-14 18:29:01.86	351.80	16.48	-37.7	-38.7	22.9	0.00e+00	0	29	0	533725184	48	6197
2026-01-14 18:29:02.87	351.58	16.50	-37.6	-38.5	23.1	0.00e+00	0	29	0	534773760	48	6094
2026-01-14 18:29:03.88	351.36	16.52	-37.5	-38.4	23.2	0.00e+00	0	29	0	536870912	48	6007
2026-01-14 18:29:04.89	351.14	16.54	-37.4	-38.3	23.4	0.00e+00	31	29	0	538968064	48	5925
2026-01-14 18:29:05.89	350.92	16.55	-37.3	-38.2	23.5	0.00e+00	0	29	0	541065216	48	5836
2026-01-14 18:29:06.91	350.69	16.57	-37.1	-37.9	23.5	0.00e+00	85	29	0	543162368	48	5687
2026-01-14 18:29:07.92	350.47	16.59	-37.3	-38.2	23.4	0.00e+00	0	29	0	544210944	48	5874
2026-01-14 18:29:08.92	350.25	16.60	-37.4	-38.3	23.3	0.00e+00	0	29	0	546308096	48	5959
2026-01-14 18:29:09.93	350.02	16.62	-37.6	-38.5	23.2	0.00e+00	0	29	0	548405248	48	6080
2026-01-14 18:29:10.94	349.80	16.63	-37.7	-38.7	22.9	0.00e+00	0	29	0	550502400	48	6196
2026-01-14 18:29:11.95	349.58	16.65	-37.8	-38.8	22.9	0.00e+00	30	29	0	552599552	48	6253
2026-01-14 18:29:12.96	349.35	16.66	-37.8	-38.8	22.8	0.00e+00	0	29	0	554696704	48	6281
2026-01-14 18:29:13.97	349.13	16.68	-37.8	-38.8	22.8	0.00e+00	73	29	0	555745280	48	6290
2026-01-14 18:29:14.98	348.90	16.69	-38.0	-39.0	22.7	0.00e+00	0	29	0	557842432	48	6402
2026-01-14 18:29:15.99	348.68	16.70	-38.4	-39.4	22.4	0.00e+00	0	29	0	559939584	48	6733
2026-01-14 18:29:17.00	348.46	16.71	-38.4	-39.5	22.3	0.00e+00	0	29	0	562036736	48	6776
2026-01-14 18:29:18.01	348.23	16.73	-38.7	-39.8	22.2	0.00e+00	0	29	0	564133888	48	7028
2026-01-14 18:29:19.02	348.01	16.74	-38.9	-40.0	22.0	0.00e+00	0	29	0	565182464	50	6400
2026-01-14 18:29:20.03	347.78	16.75	-38.8	-39.9	22.0	0.00e+00	0	29	0	567279616	50	6352
2026-01-14 18:29:21.04	347.55	16.76	-38.8	-39.9	22.0	0.00e+00	50	29	0	569376768	50	6344
2026-01-14 18:29:22.04	347.33	16.77	-38.6	-39.7	22.2	0.00e+00	0	29	0	571473920	50	6208
2026-01-14 18:29:23.05	347.10	16.78	-38.7	-39.8	22.3	0.00e+00	0	29	0	573571072	50	6248
2026-01-14 18:29:24.06	346.88	16.79	-38.5	-39.6	22.3	0.00e+00	0	29	0	574619648	50	6138
2026-01-14 18:29:25.07	346.65	16.80	-38.1	-39.1	22.5	0.00e+00	0	29	0	576716800	50	5798
2026-01-14 18:29:26.08	346.43	16.80	-38.1	-39.1	22.6	0.00e+00	57	29	0	578813952	50	5803
2026-01-14 18:29:27.09	346.20	16.81	-38.1	-39.0	22.7	0.00e+00	0	29	0	580911104	50	5759
2026-01-14 18:29:28.10	345.97	16.82	-38.1	-39.1	22.7	0.00e+00	82	29	0	583008256	50	5803
2026-01-14 18:29:29.11	345.75	16.83	-38.2	-39.2	22.6	0.00e+00	25	29	0	584056832	50	5883
2026-01-14 18:29:30.12	345.52	16.83	-38.3	-39.3	22.4	0.00e+00	53	29	0	586153984	50	5953
2026-01-14 18:29:31.12	345.30	16.84	-38.3	-39.3	22.3	0.00e+00	0	29	0	588251136	50	5938
2026-01-14 18:29:32.14	345.07	16.84	-38.1	-39.2	22.6	0.00e+00	0	29	0	590348288	50	5836
2026-01-14 18:29:33.14	344.84	16.85	-38.2	-39.2	22.6	0.00e+00	25	29	0	592445440	50	5852
2026-01-14 18:29:34.15	344.62	16.85	-38.0	-38.9	22.9	0.00e+00	0	29	0	593494016	50	5691
2026-01-14 18:29:35.16	344.39	16.86	-37.7	-38.7	23.0	0.00e+00	21	29	0	595591168	48	6211
2026-01-14 18:29:36.17	344.16	16.86	-37.8	-38.8	22.8	0.00e+00	0	29	0	597688320	48	6295
2026-01-14 18:29:37.18	343.93	16.86	-37.7	-38.7	23.0	0.00e+00	92	29	0	599785472	48	6199
2026-01-14 18:29:38.19	343.71	16.87	-37.8	-38.7	23.0	0.00e+00	0	29	0	601882624	48	6223
2026-01-14 18:29:39.20	343.48	16.87	-38.0	-39.0	22.7	0.00e+00	5	29	0	602931200	48	6451
2026-01-14 18:29:40.21	343.25	16.87	-38.3	-39.3	22.5	0.00e+00	17	29	0	605028352	48	6641
2026-01-14 18:29:41.22	343.02	16.87	-38.5	-39.6	22.2	0.00e+00	0	29	0	607125504	48	6881
2026-01-14 18:29:42.23	342.80	16.87	-38.4	-39.4	22.4	0.00e+00	31	29	0	609222656	48	6765
2026-01-14 18:29:43.24	342.57	16.87	-38.4	-39.4	22.4	0.00e+00	0	29	0	611319808	48	6747
2026-01-14 18:29:44.25	342.34	16.87	-38.3	-39.3	22.6	0.00e+00	61	29	0	612368384	48	6616
2026-01-14 18:29:45.26	342.12	16.87	-38.1	-39.1	22.7	0.00e+00	0	29	0	614465536	48	6531
2026-01-14 18:29:46.27	341.89	16.87	-38.2	-39.2	22.7	0.00e+00	0	29	0	616562688	48	6610
2026-01-14 18:29:47.28	341.66	16.87	-38.1	-39.1	22.6	0.00e+00	0	29	0	618659840	48	6524
2026-01-14 18:29:48.28	341.44	16.87	-38.0	-39.0	22.8	0.00e+00	27	29	0	620756992	48	6435
2026-01-14 18:29:49.29	341.21	16.87	-37.8	-38.7	23.0	0.00e+00	58	29	0	622854144	48	6244
2026-01-14 18:29:50.30	340.98	16.87	-37.5	-38.4	23.1	0.00e+00	0	29	0	623902720	48	6019
2026-01-14 18:29:51.31	340.75	16.86	-37.6	-38.5	23.1	0.00e+00	91	29	0	625999872	48	6071
2026-01-14 18:29:52.32	340.53	16.86	-37.5	-38.5	23.2	0.00e+00	0	29	0	628097024	48	6036
2026-01-14 18:29:53.33	340.30	16.85	-37.7	-38.6	23.0	0.00e+00	0	29	0	630194176	48	6173
2026-01-14 18:29:54.34	340.07	16.85	-37.7	-38.7	23.0	0.00e+00	0	29	0	632291328	48	6242
2026-01-14 18:29:55.35	339.85	16.84	-37.6	-38.6	23.0	0.00e+00	0	29	0	633339904	48	6168
2026-01-14 18:29:56.36	339.62	16.84	-37.7	-38.7	22.9	0.00e+00	43	29	0	635437056	48	6217
2026-01-14 18:29:57.37	339.39	16.83	-37.8	-38.9	22.7	0.00e+00	0	29	0	637534208	48	6330
2026-01-14 18:29:58.38	339.17	16.83	-38.0	-39.0	22.7	0.00e+00	57	29	0	639631360	48	6449
2026-01-14 18:29:59.38	338.94	16.82	-38.3	-39.3	22.3	0.00e+00	0	29	0	640679936	48	6676
2026-01-14 18:30:00.39	338.71	16.81	-38.5	-39.6	22.2	0.00e+00	34	29	0	642777088	48	6851
2026-01-14 18:30:01.40	338.49	16.80	-38.7	-39.8	21.9	0.00e+00	0	29	0	644874240	48	7025
2026-01-14 18:30:02.41	338.26	16.80	-38.6	-39.7	22.1	0.00e+00	0	29	0	646971392	48	6981
2026-01-14 18:30:03.43	338.03	16.79	-38.6	-39.7	22.2	0.00e+00	24	29	0	649068544	50	6228
2026-01-14 18:30:04.43	337.81	16.78	-38.7	-39.8	22.1	0.00e+00	0	29	0	651165696	50	6285
2026-01-14 18:30:05.44	337.58	16.77	-38.5	-39.6	22.3	0.00e+00	46	29	0	652214272	50	6159
2026-01-14 18:30:06.45	337.36	16.76	-38.3	-39.4	22.5	0.00e+00	0	29	0	654311424	50	5982
2026-01-14 18:30:07.46	337.13	16.75	-38.0	-39.1	22.7	0.00e+00	50	29	0	656408576	50	5772
2026-01-14 18:30:08.47	336.91	16.74	-38.0	-39.0	22.8	0.00e+00	0	29	0	658505728	50	5720
2026-01-14 18:30:09.48	336.68	16.73	-38.0	-39.1	22.8	0.00e+00	0	29	0	660602880	50	5763
2026-01-14 18:30:10.49	336.46	16.71	-37.8	-38.8	22.5	0.00e+00	0	29	0	661651456	50	5580
2026-01-14 18:30:11.50	336.23	16.70	-38.0	-39.0	22.8	0.00e+00	0	29	0	663748608	48	6397
2026-01-14 18:30:12.51	336.01	16.69	-37.9	-38.8	22.8	0.00e+00	82	29	0	665845760	48	6312
2026-01-14 18:30:13.52	335.78	16.68	-37.7	-38.6	23.1	0.00e+00	0	29	0	667942912	48	6157
2026-01-14 18:30:14.53	335.56	16.66	-37.9	-38.9	22.9	0.00e+00	92	29	0	670040064	48	6352
2026-01-14 18:30:15.53	335.34	16.65	-37.8	-38.8	23.0	0.00e+00	0	29	0	671088640	48	6284
2026-01-14 18:30:16.54	335.11	16.63	-38.2	-39.2	22.6	0.00e+00	0	29	0	673185792	48	6574
2026-01-14 18:30:17.55	334.89	16.62	-38.2	-39.3	22.6	0.00e+00	0	29	0	675282944	48	6636
2026-01-14 18:30:18.56	334.67	16.60	-38.3	-39.4	22.6	0.00e+00	0	29	0	677380096	48	6700
2026-01-14 18:30:19.57	334.44	16.59	-38.2	-39.3	22.7	0.00e+00	25	29	0	679477248	48	6638
2026-01-14 18:30:20.58	334.22	16.57	-37.8	-38.8	22.9	0.00e+00	0	29	0	680525824	48	6283
2026-01-14 18:30:21.59	334.00	16.55	-37.7	-38.6	23.1	0.00e+00	87	29	0	682622976	48	6173
2026-01-14 18:30:22.60	333.77	16.54	-37.3	-38.2	23.4	0.00e+00	0	29	0	684720128	48	5871
2026-01-14 18:30:23.61	333.55	16.52	-37.3	-38.3	23.3	0.00e+00	0	29	0	686817280	48	5906
2026-01-14 18:30:24.62	333.33	16.50	-37.3	-38.2	23.2	0.00e+00	0	29	0	688914432	48	5887
2026-01-14 18:30:25.63	333.11	16.48	-37.4	-38.3	23.4	0.00e+00	0	29	0	689963008	48	5931
2026-01-14 18:30:26.63	332.89	16.47	-37.2	-38.1	23.4	0.00e+00	21	29	0	692060160	48	5813
2026-01-14 18:30:27.64	332.67	16.45	-37.3	-38.2	23.4	0.00e+00	0	29	0	694157312	48	5895
2026-01-14 18:30:28.65	332.45	16.43	-37.3	-38.2	23.4	0.00e+00	79	29	0	696254464	48	5851
2026-01-14 18:30:29.66	332.23	16.41	-37.3	-38.3	23.3	0.00e+00	0	29	0	698351616	48	5897
2026-01-14 18:30:30.67	332.01	16.39	-37.4	-38.3	23.2	0.00e+00	13	29	0	699400192	48	5959
2026-01-14 18:30:31.68	331.79	16.37	-37.5	-38.5	23.2	0.00e+00	0	29	0	701497344	48	6045
2026-01-14 18:30:32.69	331.57	16.34	-37.5	-38.5	23.1	0.00e+00	0	29	0	703594496	48	6036
2026-01-14 18:30:33.70	331.35	16.32	-37.7	-38.6	23.1	0.00e+00	29	29	0	705691648	48	6148
2026-01-14 18:30:34.71	331.13	16.30	-37.8	-38.8	22.9	0.00e+00	0	29	0	707788800	48	6270
2026-01-14 18:30:35.72	330.91	16.28	-38.0	-39.0	22.8	0.00e+00	92	29	0	708837376	48	6393
2026-01-14 18:30:36.73	330.69	16.25	-38.1	-39.1	22.7	0.00e+00	0	29	0	710934528	48	6468
2026-01-14 18:30:37.74	330.47	16.23	-38.1	-39.1	22.6	0.00e+00	18	29	0	713031680	48	6512
2026-01-14 18:30:38.75	330.26	16.21	-38.1	-39.1	22.7	0.00e+00	0	29	0	715128832	48	6478
2026-01-14 18:30:39.76	330.04	16.18	-38.0	-39.0	22.6	0.00e+00	0	29	0	717225984	48	6461
2026-01-14 18:30:40.77	329.82	16.16	-38.2	-39.2	22.7	0.00e+00	0	29	0	719323136	48	6579
2026-01-14 18:30:41.78	329.61	16.13	-38.3	-39.4	22.5	0.00e+00	0	29	0	720371712	48	6722
2026-01-14 18:30:42.79	329.39	16.11	-38.2	-39.2	22.7	0.00e+00	92	29	0	722468864	48	6548
2026-01-14 18:30:43.80	329.17	16.08	-37.9	-38.8	22.9	0.00e+00	0	29	0	724566016	48	6310
2026-01-14 18:30:44.81	328.96	16.06	-37.5	-38.4	23.0	0.00e+00	91	29	0	726663168	48	6019
2026-01-14 18:30:45.82	328.74	16.03	-37.6	-38.5	23.1	0.00e+00	0	29	0	728760320	48	6060
2026-01-14 18:30:46.83	328.53	16.00	-37.5	-38.4	23.3	0.00e+00	0	29	0	729808896	48	6006
2026-01-14 18:30:47.84	328.31	15.98	-37.7	-38.6	23.1	0.00e+00	0	29	0	731906048	48	6147
2026-01-14 18:30:48.85	328.10	15.95	-37.6	-38.5	23.2	0.00e+00	0	29	0	734003200	48	6094
2026-01-14 18:30:49.86	327.89	15.92	-37.8	-38.7	23.0	0.00e+00	31	29	0	736100352	48	6204
2026-01-14 18:30:50.87	327.67	15.89	-37.7	-38.6	23.1	0.00e+00	0	29	0	738197504	48	6121
2026-01-14 18:30:51.88	327.46	15.86	-37.7	-38.6	23.1	0.00e+00	55	29	0	739246080	48	6136
2026-01-14 18:30:52.89	327.25	15.84	-37.7	-38.6	23.2	0.00e+00	0	29	0	741343232	48	6131
2026-01-14 18:30:53.89	327.04	15.81	-37.6	-38.5	23.1	0.00e+00	0	29	0	743440384	48	6061
2026-01-14 18:30:54.91	326.82	15.78	-37.8	-38.7	23.1	0.00e+00	0	29	0	745537536	48	6200
2026-01-14 18:30:55.92	326.61	15.75	-37.8	-38.7	23.0	0.00e+00	0	29	0	747634688	48	6232
2026-01-14 18:30:56.93	326.40	15.72	-37.9	-38.9	22.9	0.00e+00	30	29	0	748683264	48	6323
2026-01-14 18:30:57.93	326.20	15.69	-38.1	-39.0	22.8	0.00e+00	0	29	0	750780416	48	6453
2026-01-14 18:30:58.94	325.99	15.65	-38.0	-38.9	22.9	0.00e+00	73	29	0	752877568	48	6371
2026-01-14 18:30:59.95	325.78	15.62	-37.9	-38.9	22.9	0.00e+00	0	29	0	754974720	48	6319
2026-01-14 18:31:00.96	325.57	15.59	-38.3	-39.3	22.6	0.00e+00	0	29	0	757071872	48	6627
2026-01-14 18:31:01.97	325.36	15.56	-38.0	-39.0	22.8	0.00e+00	0	29	0	758120448	48	6443
2026-01-14 18:31:02.98	325.15	15.53	-38.2	-39.1	22.7	0.00e+00	0	29	0	760217600	48	6538
2026-01-14 18:31:03.99	324.94	15.49	-38.4	-39.5	22.5	0.00e+00	37	29	0	762314752	48	6786
2026-01-14 18:31:04.99	324.74	15.46	-38.6	-39.7	22.2	0.00e+00	0	29	0	764411904	48	6943
2026-01-14 18:31:06.00	324.53	15.43	-38.6	-39.6	22.2	0.00e+00	34	29	0	766509056	48	6918
2026-01-14 18:31:07.01	324.33	15.39	-38.8	-39.9	22.1	0.00e+00	0	29	0	767557632	50	6332
2026-01-14 18:31:08.02	324.12	15.36	-38.6	-39.6	22.4	0.00e+00	25	29	0	769654784	50	6128
2026-01-14 18:31:09.03	323.92	15.32	-38.7	-39.7	22.2	0.00e+00	0	29	0	771751936	50	6209
2026-01-14 18:31:10.04	323.71	15.29	-38.6	-39.6	22.2	0.00e+00	0	29	0	773849088	50	6173
2026-01-14 18:31:11.05	323.51	15.25	-38.4	-39.5	22.4	0.00e+00	2	29	0	775946240	50	6039
2026-01-14 18:31:12.06	323.30	15.22	-38.5	-39.5	22.4	0.00e+00	0	29	0	776994816	50	6088
2026-01-14 18:31:13.07	323.10	15.18	-38.5	-39.6	22.4	0.00e+00	91	29	0	779091968	50	6109
2026-01-14 18:31:14.08	322.90	15.15	-38.5	-39.6	22.4	0.00e+00	0	29	0	781189120	50	6117
2026-01-14 18:31:15.09	322.69	15.11	-38.4	-39.4	22.6	0.00e+00	77	29	0	783286272	50	5998
2026-01-14 18:31:16.09	322.50	15.07	-38.3	-39.3	22.6	0.00e+00	22	29	0	785383424	50	5912
2026-01-14 18:31:17.11	322.29	15.04	-38.3	-39.3	22.5	0.00e+00	0	29	0	787480576	50	5954
2026-01-14 18:31:18.11	322.09	15.00	-38.2	-39.2	22.7	0.00e+00	25	29	0	788529152	50	5834
2026-01-14 18:31:19.12	321.89	14.96	-38.2	-39.2	22.7	0.00e+00	25	29	0	790626304	50	5852
2026-01-14 18:31:20.13	321.69	14.92	-38.5	-39.5	22.3	0.00e+00	88	29	0	792723456	50	6087
2026-01-14 18:31:21.14	321.49	14.89	-38.2	-39.1	22.8	0.00e+00	0	29	0	794820608	50	5827
2026-01-14 18:31:22.15	321.30	14.85	-37.7	-38.7	23.0	0.00e+00	92	29	0	796917760	48	6183
2026-01-14 18:31:23.16	321.10	14.81	-37.6	-38.5	22.7	0.00e+00	0	29	0	797966336	48	6063
2026-01-14 18:31:24.17	320.90	14.77	-37.5	-38.4	23.1	0.00e+00	0	29	0	800063488	48	6023
2026-01-14 18:31:25.18	320.70	14.73	-37.7	-38.7	22.9	0.00e+00	0	29	0	802160640	48	6178
2026-01-14 18:31:26.19	320.51	14.69	-37.4	-38.3	23.2	0.00e+00	1	29	0	804257792	48	5929
2026-01-14 18:31:27.19	320.31	14.65	-37.4	-38.4	23.3	0.00e+00	27	29	0	806354944	48	5965
2026-01-14 18:31:28.20	320.12	14.61	-37.6	-38.5	23.1	0.00e+00	0	29	0	807403520	48	6069
2026-01-14 18:31:29.21	319.92	14.57	-37.7	-38.6	23.0	0.00e+00	92	29	0	809500672	48	6130
2026-01-14 18:31:30.22	319.73	14.53	-37.6	-38.6	23.1	0.00e+00	0	29	0	811597824	48	6117
2026-01-14 18:31:31.23	319.53	14.49	-37.8	-38.7	22.9	0.00e+00	0	29	0	813694976	48	6235
2026-01-14 18:31:32.24	319.34	14.45	-37.8	-38.8	22.9	0.00e+00	2	29	0	815792128	48	6277
2026-01-14 18:31:33.24	319.15	14.41	-38.0	-39.0	22.7	0.00e+00	0	29	0	816840704	48	6434
2026-01-14 18:31:34.25	318.96	14.37	-38.3	-39.4	22.4	0.00e+00	65	29	0	818937856	48	6722
2026-01-14 18:31:35.26	318.77	14.32	-38.6	-39.7	22.2	0.00e+00	0	29	0	821035008	48	6941
2026-01-14 18:31:36.27	318.57	14.28	-39.0	-40.1	21.9	0.00e+00	90	29	0	823132160	50	6486
2026-01-14 18:31:37.28	318.38	14.24	-39.1	-40.2	21.6	0.00e+00	0	29	0	825229312	50	6609
2026-01-14 18:31:38.29	318.19	14.20	-39.2	-40.4	21.9	0.00e+00	0	29	0	826277888	50	6703
2026-01-14 18:31:39.30	318.00	14.15	-39.3	-40.4	21.6	0.00e+00	0	29	0	828375040	50	6742
2026-01-14 18:31:40.31	317.82	14.11	-39.3	-40.5	21.3	0.00e+00	0	29	0	830472192	50	6802
2026-01-14 18:31:41.32	317.63	14.07	-38.9	-39.9	21.9	0.00e+00	29	29	0	832569344	50	6387
2026-01-14 18:31:42.33	317.44	14.02	-38.9	-40.0	22.0	0.00e+00	0	29	0	834666496	50	6421
2026-01-14 18:31:43.34	317.25	13.98	-38.6	-39.7	22.2	0.00e+00	92	29	0	835715072	50	6198
2026-01-14 18:31:44.35	317.07	13.94	-38.8	-39.9	22.0	0.00e+00	0	29	0	837812224	50	6333
2026-01-14 18:31:45.35	316.88	13.89	-38.6	-39.7	22.1	0.00e+00	80	29	0	839909376	50	6197
2026-01-14 18:31:46.36	316.70	13.85	-39.0	-40.1	21.9	0.00e+00	0	29	0	842006528	50	6486
2026-01-14 18:31:47.38	316.51	13.80	-38.8	-39.9	22.0	0.00e+00	0	29	0	844103680	50	6328
2026-01-14 18:31:48.39	316.32	13.76	-39.0	-40.1	21.9	0.00e+00	0	29	0	845152256	50	6469
2026-01-14 18:31:49.39	316.14	13.71	-39.1	-40.2	21.8	0.00e+00	0	29	0	847249408	50	6564
2026-01-14 18:31:50.40	315.96	13.67	-39.2	-40.3	21.8	0.00e+00	92	29	0	849346560	50	6630
2026-01-14 18:31:51.41	315.78	13.62	-38.8	-39.9	21.9	0.00e+00	0	29	0	851443712	50	6325
2026-01-14 18:31:52.42	315.59	13.58	-38.8	-39.8	22.1	0.00e+00	92	29	0	853540864	50	6309
2026-01-14 18:31:53.43	315.41	13.53	-38.9	-39.9	22.0	0.00e+00	0	29	0	854589440	50	6386
2026-01-14 18:31:54.44	315.23	13.48	-39.0	-40.0	21.9	0.00e+00	0	29	0	856686592	50	6453
2026-01-14 18:31:55.45	315.05	13.44	-39.2	-40.3	21.7	0.00e+00	0	29	0	858783744	50	6671
2026-01-14 18:31:56.46	314.87	13.39	-39.4	-40.5	21.5	0.00e+00	0	29	0	860880896	50	6820
2026-01-14 18:31:57.47	314.69	13.34	-39.4	-40.5	21.5	0.00e+00	13	29	0	862978048	50	6790
2026-01-14 18:31:58.48	314.51	13.30	-38.8	-39.9	22.1	0.00e+00	0	29	0	864026624	50	6336
2026-01-14 18:31:59.49	314.33	13.25	-38.5	-39.5	22.3	0.00e+00	57	29	0	866123776	50	6057
2026-01-14 18:32:00.50	314.16	13.20	-38.3	-39.3	22.6	0.00e+00	0	29	0	868220928	50	5902
2026-01-14 18:32:01.51	313.98	13.16	-38.0	-38.9	22.9	0.00e+00	0	29	0	870318080	50	5692
2026-01-14 18:32:02.52	313.80	13.11	-38.0	-39.0	22.8	0.00e+00	0	29	0	872415232	50	5717
2026-01-14 18:32:03.52	313.63	13.06	-37.9	-38.8	22.9	0.00e+00	0	29	0	873463808	50	5606
2026-01-14 18:32:04.53	313.45	13.01	-38.2	-39.1	22.7	0.00e+00	43	29	0	875560960	50	5815
2026-01-14 18:32:05.54	313.28	12.96	-38.3	-39.3	22.4	0.00e+00	0	29	0	877658112	50	5910
2026-01-14 18:32:06.55	313.10	12.92	-38.7	-39.7	22.2	0.00e+00	56	29	0	879755264	50	6240
2026-01-14 18:32:07.56	312.93	12.87	-38.6	-39.7	22.2	0.00e+00	0	29	0	881852416	50	6182
2026-01-14 18:32:08.57	312.76	12.82	-39.0	-40.1	21.8	0.00e+00	0	29	0	883949568	50	6474
2026-01-14 18:32:09.58	312.59	12.77	-39.1	-40.2	21.8	0.00e+00	0	29	0	884998144	50	6610
2026-01-14 18:32:10.59	312.41	12.72	-39.2	-40.3	21.6	0.00e+00	0	29	0	887095296	50	6622
2026-01-14 18:32:11.60	312.24	12.67	-39.3	-40.4	21.6	0.00e+00	25	29	0	889192448	50	6726
2026-01-14 18:32:12.61	312.07	12.62	-39.0	-40.0	21.9	0.00e+00	0	29	0	891289600	50	6448
2026-01-14 18:32:13.62	311.90	12.57	-38.9	-39.9	21.9	0.00e+00	77	29	0	893386752	50	6385
2026-01-14 18:32:14.63	311.73	12.52	-38.9	-39.9	22.0	0.00e+00	0	29	0	894435328	50	6367
2026-01-14 18:32:15.64	311.56	12.47	-39.0	-40.0	21.9	0.00e+00	65	29	0	896532480	50	6451
2026-01-14 18:32:16.65	311.40	12.42	-38.9	-40.0	22.0	0.00e+00	0	29	0	898629632	50	6398
2026-01-14 18:32:17.66	311.23	12.37	-38.9	-39.9	21.9	0.00e+00	0	29	0	900726784	50	6365
2026-01-14 18:32:18.67	311.06	12.32	-39.3	-40.3	21.6	0.00e+00	48	29	0	902823936	50	6690
2026-01-14 18:32:19.68	310.89	12.27	-39.8	-40.9	21.1	0.00e+00	0	29	0	903872512	50	7156
2026-01-14 18:32:20.68	310.73	12.22	-40.5	-41.8	20.3	0.00e+00	27	29	0	905969664	52	7040
2026-01-14 18:32:21.69	310.56	12.17	-41.0	-42.4	19.7	0.00e+00	0	29	0	908066816	54	6762
2026-01-14 18:32:22.70	310.40	12.12	-41.7	-43.3	18.9	0.00e+00	14	29	0	910163968	54	7481
2026-01-14 18:32:23.71	310.23	12.07	-42.2	-44.0	18.4	0.00e+00	0	29	0	912261120	56	7196
2026-01-14 18:32:24.72	310.07	12.02	-42.6	-44.5	17.8	0.00e+00	0	29	0	913309696	56	7637
2026-01-14 18:32:25.73	309.91	11.97	-42.6	-44.5	17.9	0.00e+00	25	29	0	915406848	56	7676
2026-01-14 18:32:26.74	309.75	11.92	-42.6	-44.5	17.9	0.00e+00	0	29	0	917504000	56	7682
2026-01-14 18:32:27.75	309.58	11.87	-42.0	-43.7	18.8	0.00e+00	23	29	0	919601152	56	6970
2026-01-14 18:32:28.76	309.42	11.82	-41.9	-43.5	18.6	0.00e+00	0	29	0	921698304	56	6780
2026-01-14 18:32:29.77	309.26	11.76	-42.1	-43.8	18.6	0.00e+00	93	29	0	922746880	56	7030
2026-01-14 18:32:30.78	309.10	11.71	-41.8	-43.3	19.1	0.00e+00	0	29	0	924844032	56	6674
2026-01-14 18:32:31.79	308.94	11.66	-41.3	-42.8	19.6	0.00e+00	0	29	0	926941184	56	6286
2026-01-14 18:32:32.80	308.78	11.61	-41.1	-42.5	19.8	0.00e+00	17	29	0	929038336	56	6099
2026-01-14 18:32:33.81	308.62	11.56	-40.9	-42.2	20.0	0.00e+00	0	29	0	931135488	56	5892
2026-01-14 18:32:34.82	308.47	11.50	-40.6	-41.9	20.3	0.00e+00	64	29	0	932184064	54	6330
2026-01-14 18:32:35.83	308.31	11.45	-40.4	-41.7	20.4	0.00e+00	0	29	0	934281216	54	6213
2026-01-14 18:32:36.84	308.15	11.40	-40.1	-41.3	20.8	0.00e+00	92	29	0	936378368	54	5959
2026-01-14 18:32:37.85	307.99	11.35	-39.8	-40.9	21.2	0.00e+00	0	29	0	938475520	52	6383
2026-01-14 18:32:38.86	307.84	11.30	-39.7	-40.8	21.3	0.00e+00	0	29	0	940572672	52	6261
2026-01-14 18:32:39.87	307.68	11.24	-39.8	-40.9	21.2	0.00e+00	0	29	0	941621248	52	6366
2026-01-14 18:32:40.88	307.53	11.19	-39.8	-40.9	21.1	0.00e+00	0	29	0	943718400	52	6387
2026-01-14 18:32:41.89	307.38	11.14	-40.0	-41.2	20.8	0.00e+00	24	29	0	945815552	52	6561
2026-01-14 18:32:42.90	307.22	11.08	-40.0	-41.1	20.9	0.00e+00	0	29	0	947912704	52	6517
2026-01-14 18:32:43.90	307.07	11.03	-40.1	-41.3	20.9	0.00e+00	44	29	0	950009856	52	6617
2026-01-14 18:32:44.91	306.92	10.98	-40.0	-41.2	20.9	0.00e+00	0	29	0	952107008	52	6605
2026-01-14 18:32:45.92	306.77	10.93	-40.1	-41.3	20.9	0.00e+00	0	29	0	953155584	52	6617
2026-01-14 18:32:46.93	306.61	10.87	-39.8	-41.0	21.0	0.00e+00	0	29	0	955252736	52	6404
2026-01-14 18:32:47.94	306.46	10.82	-39.9	-41.1	21.0	0.00e+00	0	29	0	957349888	52	6475
2026-01-14 18:32:48.95	306.31	10.77	-39.8	-40.9	21.1	0.00e+00	55	29	0	959447040	52	6361
2026-01-14 18:32:49.96	306.16	10.71	-39.7	-40.8	21.2	0.00e+00	0	29	0	961544192	52	6275
2026-01-14 18:32:50.97	306.02	10.66	-39.6	-40.7	21.3	0.00e+00	58	29	0	962592768	52	6197
2026-01-14 18:32:51.98	305.87	10.61	-39.5	-40.6	21.4	0.00e+00	0	29	0	964689920	52	6137
2026-01-14 18:32:52.99	305.72	10.55	-39.4	-40.5	21.6	0.00e+00	0	29	0	966787072	52	6039
2026-01-14 18:32:54.00	305.57	10.50	-39.2	-40.3	21.7	0.00e+00	0	29	0	968884224	52	5918
2026-01-14 18:32:55.01	305.42	10.45	-39.3	-40.4	21.5	0.00e+00	0	29	0	970981376	52	5994
2026-01-14 18:32:56.02	305.28	10.39	-39.2	-40.3	21.6	0.00e+00	0	29	0	972029952	52	5938
2026-01-14 18:32:57.03	305.13	10.34	-39.3	-40.4	21.5	0.00e+00	0	29	0	974127104	52	6006
2026-01-14 18:32:58.04	304.99	10.28	-39.5	-40.6	21.4	0.00e+00	90	29	0	976224256	52	6144
2026-01-14 18:32:59.05	304.84	10.23	-39.3	-40.4	21.4	0.00e+00	0	29	0	978321408	52	6018
2026-01-14 18:33:00.05	304.70	10.18	-39.6	-40.8	21.2	0.00e+00	73	29	0	980418560	52	6258
2026-01-14 18:33:01.06	304.56	10.12	-39.8	-40.9	21.0	0.00e+00	0	29	0	981467136	52	6370
2026-01-14 18:33:02.07	304.41	10.07	-39.8	-41.0	20.8	0.00e+00	0	29	0	983564288	52	6439
2026-01-14 18:33:03.08	304.27	10.01	-39.8	-41.0	20.9	0.00e+00	0	29	0	985661440	52	6436
2026-01-14 18:33:04.09	304.13	9.96	-40.0	-41.2	20.9	0.00e+00	0	29	0	987758592	52	6602
2026-01-14 18:33:05.10	303.99	9.90	-39.8	-41.0	20.9	0.00e+00	66	29	0	989855744	52	6445
2026-01-14 18:33:06.11	303.85	9.85	-39.6	-40.8	21.2	0.00e+00	29	29	0	990904320	52	6265
2026-01-14 18:33:07.12	303.71	9.80	-39.8	-40.9	21.0	0.00e+00	92	29	0	993001472	52	6378
2026-01-14 18:33:08.13	303.57	9.74	-39.7	-40.9	21.1	0.00e+00	0	29	0	995098624	52	6345
2026-01-14 18:33:09.14	303.43	9.69	-39.7	-40.9	21.1	0.00e+00	0	29	0	997195776	52	6319
2026-01-14 18:33:10.15	303.29	9.63	-39.6	-40.8	21.2	0.00e+00	0	29	0	999292928	52	6254
2026-01-14 18:33:11.16	303.15	9.58	-39.4	-40.6	21.3	0.00e+00	0	29	0	1000341504	52	6123
2026-01-14 18:33:12.17	303.01	9.52	-39.6	-40.8	21.2	0.00e+00	28	29	0	1002438656	52	6261
2026-01-14 18:33:13.18	302.88	9.47	-39.6	-40.7	21.2	0.00e+00	7	29	0	1004535808	52	6239
2026-01-14 18:33:14.19	302.74	9.41	-39.3	-40.4	21.6	0.00e+00	92	29	0	1006632960	52	5975
2026-01-14 18:33:15.20	302.60	9.36	-39.0	-40.1	21.9	0.00e+00	0	29	0	1008730112	52	5766
2026-01-14 18:33:16.21	302.47	9.30	-38.9	-39.9	21.9	0.00e+00	6	29	0	1009778688	52	5675
2026-01-14 18:33:17.22	302.33	9.25	-38.7	-39.7	22.1	0.00e+00	0	29	0	1011875840	50	6214
2026-01-14 18:33:18.23	302.20	9.19	-38.2	-39.2	22.3	0.00e+00	0	29	0	1013972992	50	5883
2026-01-14 18:33:19.24	302.06	9.14	-38.1	-39.1	22.5	0.00e+00	28	29	0	1016070144	50	5798
2026-01-14 18:33:20.25	301.93	9.09	-38.0	-39.0	22.7	0.00e+00	0	29	0	1018167296	50	5723
2026-01-14 18:33:21.26	301.80	9.03	-37.8	-38.7	22.8	0.00e+00	88	29	0	1020264448	50	5563
2026-01-14 18:33:22.27	301.66	8.98	-37.9	-38.9	22.7	0.00e+00	0	29	0	1021313024	50	5663
2026-01-14 18:33:23.27	301.53	8.92	-38.0	-39.0	22.6	0.00e+00	53	29	0	1023410176	50	5717
2026-01-14 18:33:24.28	301.40	8.87	-38.0	-39.0	22.5	0.00e+00	0	29	0	1025507328	50	5740
2026-01-14 18:33:25.30	301.27	8.81	-38.1	-39.1	22.5	0.00e+00	0	29	0	1027604480	50	5767
2026-01-14 18:33:26.30	301.14	8.76	-38.2	-39.2	22.4	0.00e+00	19	29	0	1029701632	50	5852
2026-01-14 18:33:27.31	301.01	8.70	-38.1	-39.1	22.5	0.00e+00	0	29	0	1030750208	50	5812
2026-01-14 18:33:28.32	300.88	8.65	-38.2	-39.2	22.4	0.00e+00	80	29	0	1032847360	50	5859
2026-01-14 18:33:29.33	300.75	8.59	-38.3	-39.3	22.3	0.00e+00	0	29	0	1034944512	50	5947
2026-01-14 18:33:30.34	300.62	8.54	-38.3	-39.3	22.4	0.00e+00	0	29	0	1037041664	50	5911
2026-01-14 18:33:31.35	300.50	8.48	-38.2	-39.2	22.3	0.00e+00	0	29	0	1039138816	50	5890
2026-01-14 18:33:32.36	300.37	8.42	-38.2	-39.2	22.5	0.00e+00	0	29	0	1040187392	50	5868
2026-01-14 18:33:33.36	300.24	8.37	-38.1	-39.1	22.6	0.00e+00	26	29	0	1042284544	50	5818
2026-01-14 18:33:34.37	300.12	8.32	-38.2	-39.2	22.5	0.00e+00	0	29	0	1044381696	50	5872
2026-01-14 18:33:35.38	299.99	8.26	-38.1	-39.1	22.5	0.00e+00	24	29	0	1046478848	50	5772
2026-01-14 18:33:36.39	299.87	8.20	-38.0	-39.0	22.6	0.00e+00	0	29	0	1048576000	50	5733
2026-01-14 18:33:37.40	299.74	8.15	-38.1	-39.1	22.4	0.00e+00	49	29	0	1049624576	50	5777
2026-01-14 18:33:38.41	299.62	8.09	-38.1	-39.2	22.5	0.00e+00	0	29	0	1051721728	50	5832
2026-01-14 18:33:39.42	299.49	8.04	-38.3	-39.3	22.3	0.00e+00	0	29	0	1053818880	50	5942
2026-01-14 18:33:40.43	299.37	7.98	-38.5	-39.6	22.0	0.00e+00	0	29	0	1055916032	50	6131
2026-01-14 18:33:41.44	299.24	7.93	-38.9	-40.0	21.7	0.00e+00	0	29	0	1058013184	50	6446
2026-01-14 18:33:42.45	299.12	7.87	-38.6	-39.7	22.0	0.00e+00	91	29	0	1059061760	50	6194
2026-01-14 18:33:43.46	299.00	7.82	-38.7	-39.8	21.8	0.00e+00	0	29	0	1061158912	50	6271
2026-01-14 18:33:44.47	298.88	7.76	-38.9	-40.0	21.7	0.00e+00	31	29	0	1063256064	50	6442
2026-01-14 18:33:45.48	298.76	7.71	-38.7	-39.8	21.8	0.00e+00	0	29	0	1065353216	50	6299
2026-01-14 18:33:46.49	298.64	7.65	-39.1	-40.2	21.6	0.00e+00	0	29	0	1067450368	50	6559
2026-01-14 18:33:47.50	298.52	7.60	-39.0	-40.1	21.5	0.00e+00	0	29	0	1068498944	50	6504
2026-01-14 18:33:48.51	298.40	7.54	-39.1	-40.2	21.3	0.00e+00	0	29	0	1070596096	50	6582
2026-01-14 18:33:49.51	298.28	7.49	-39.0	-40.1	21.6	0.00e+00	69	29	0	1072693248	50	6503
2026-01-14 18:33:50.52	298.16	7.43	-39.1	-40.2	21.4	0.00e+00	0	29	0	1074790400	50	6575
2026-01-14 18:33:51.53	298.04	7.38	-39.2	-40.4	21.4	0.00e+00	49	29	0	1076887552	50	6705
2026-01-14 18:33:52.54	297.92	7.32	-39.2	-40.3	21.2	0.00e+00	0	29	0	1077936128	50	6683
2026-01-14 18:33:53.55	297.80	7.27	-39.3	-40.5	21.2	0.00e+00	0	29	0	1080033280	50	6771
2026-01-14 18:33:54.56	297.69	7.21	-39.1	-40.2	21.3	0.00e+00	0	29	0	1082130432	50	6615
2026-01-14 18:33:55.57	297.57	7.16	-39.3	-40.4	21.0	0.00e+00	0	29	0	1084227584	50	6747
2026-01-14 18:33:56.58	297.46	7.10	-39.4	-40.5	20.8	0.00e+00	61	29	0	1086324736	50	6838
2026-01-14 18:33:57.59	297.34	7.04	-39.3	-40.4	21.1	0.00e+00	0	29	0	1087373312	50	6744
2026-01-14 18:33:58.59	297.23	6.99	-39.2	-40.3	21.4	0.00e+00	78	29	0	1089470464	50	6646
2026-01-14 18:33:59.60	297.11	6.93	-39.1	-40.3	21.4	0.00e+00	0	29	0	1091567616	50	6620
2026-01-14 18:34:00.61	297.00	6.88	-38.9	-39.9	21.7	0.00e+00	0	29	0	1093664768	50	6390
2026-01-14 18:34:01.62	296.88	6.82	-38.9	-39.9	21.7	0.00e+00	0	29	0	1095761920	50	6388
2026-01-14 18:34:02.63	296.77	6.77	-39.0	-40.1	21.5	0.00e+00	0	29	0	1096810496	50	6508
2026-01-14 18:34:03.64	296.66	6.71	-38.8	-39.9	21.6	0.00e+00	40	29	0	1098907648	50	6333
2026-01-14 18:34:04.65	296.54	6.66	-38.7	-39.8	21.8	0.00e+00	0	29	0	1101004800	50	6287
2026-01-14 18:34:05.66	296.43	6.60	-38.7	-39.8	21.7	0.00e+00	92	29	0	1103101952	50	6296
2026-01-14 18:34:06.67	296.32	6.55	-38.8	-39.9	21.7	0.00e+00	0	29	0	1105199104	50	6361
2026-01-14 18:34:07.68	296.21	6.49	-39.0	-40.2	21.4	0.00e+00	71	29	0	1106247680	50	6549
2026-01-14 18:34:08.69	296.10	6.44	-39.2	-40.4	21.3	0.00e+00	0	29	0	1108344832	50	6729
2026-01-14 18:34:09.70	295.99	6.38	-39.3	-40.4	21.2	0.00e+00	0	29	0	1110441984	50	6741
2026-01-14 18:34:10.71	295.88	6.33	-39.1	-40.2	21.3	0.00e+00	0	29	0	1112539136	50	6593
2026-01-14 18:34:11.72	295.77	6.27	-39.6	-40.8	20.9	0.00e+00	0	29	0	1114636288	50	7023
2026-01-14 18:34:12.72	295.66	6.22	-39.7	-41.0	20.7	0.00e+00	79	29	0	1116733440	50	7176
2026-01-14 18:34:13.73	295.55	6.16	-39.9	-41.1	20.6	0.00e+00	0	29	0	1117782016	52	6497
2026-01-14 18:34:14.74	295.44	6.11	-40.1	-41.4	20.3	0.00e+00	90	29	0	1119879168	52	6752
2026-01-14 18:34:15.75	295.33	6.05	-39.9	-41.2	20.5	0.00e+00	0	29	0	1121976320	52	6548
2026-01-14 18:34:16.76	295.23	6.00	-40.0	-41.2	20.5	0.00e+00	0	29	0	1124073472	52	6592
2026-01-14 18:34:17.77	295.12	5.94	-39.9	-41.2	20.5	0.00e+00	0	29	0	1126170624	52	6567
2026-01-14 18:34:18.78	295.01	5.89	-39.9	-41.2	20.5	0.00e+00	0	29	0	1127219200	52	6575
2026-01-14 18:34:19.79	294.91	5.83	-39.6	-40.8	20.9	0.00e+00	21	29	0	1129316352	52	6294
2026-01-14 18:34:20.79	294.80	5.78	-39.6	-40.8	20.7	0.00e+00	0	29	0	1131413504	52	6270
2026-01-14 18:34:21.80	294.70	5.72	-39.3	-40.5	21.1	0.00e+00	76	29	0	1133510656	52	6060
2026-01-14 18:34:22.81	294.59	5.67	-39.4	-40.5	21.1	0.00e+00	0	29	0	1135607808	52	6101
2026-01-14 18:34:23.82	294.49	5.62	-39.4	-40.5	21.1	0.00e+00	0	29	0	1136656384	52	6095
2026-01-14 18:34:24.83	294.38	5.56	-39.1	-40.2	21.3	0.00e+00	0	29	0	1138753536	52	5861
2026-01-14 18:34:25.84	294.28	5.51	-39.0	-40.2	21.3	0.00e+00	0	29	0	1140850688	52	5834
2026-01-14 18:34:26.85	294.17	5.45	-39.0	-40.2	21.2	0.00e+00	22	29	0	1142947840	52	5837
2026-01-14 18:34:27.86	294.07	5.40	-39.0	-40.1	21.3	0.00e+00	8	29	0	1145044992	52	5812
2026-01-14 18:34:28.87	293.97	5.34	-39.1	-40.2	21.3	0.00e+00	92	29	0	1146093568	52	5893
2026-01-14 18:34:29.88	293.87	5.29	-38.9	-40.1	21.4	0.00e+00	0	29	0	1148190720	52	5769
2026-01-14 18:34:30.88	293.77	5.23	-39.2	-40.4	21.1	0.00e+00	0	29	0	1150287872	52	5996
2026-01-14 18:34:31.89	293.66	5.18	-39.1	-40.2	21.3	0.00e+00	0	29	0	1152385024	52	5887
2026-01-14 18:34:32.90	293.56	5.12	-39.1	-40.3	21.1	0.00e+00	0	29	0	1154482176	52	5916
2026-01-14 18:34:33.91	293.46	5.07	-39.6	-40.8	20.8	0.00e+00	23	29	0	1155530752	52	6255
2026-01-14 18:34:34.92	293.36	5.01	-39.4	-40.6	20.9	0.00e+00	0	29	0	1157627904	52	6133
2026-01-14 18:34:35.93	293.26	4.96	-39.8	-41.0	20.5	0.00e+00	81	29	0	1159725056	52	6423
2026-01-14 18:34:36.94	293.16	4.91	-39.7	-40.9	20.7	0.00e+00	0	29	0	1161822208	52	6363
2026-01-14 18:34:37.95	293.06	4.85	-40.0	-41.3	20.3	0.00e+00	39	29	0	1163919360	52	6641
2026-01-14 18:34:38.96	292.97	4.80	-40.3	-41.6	20.0	0.00e+00	0	29	0	1164967936	52	6888
2026-01-14 18:34:39.97	292.87	4.74	-40.3	-41.7	19.9	0.00e+00	0	29	0	1167065088	52	6950
2026-01-14 18:34:40.98	292.77	4.69	-40.3	-41.7	19.9	0.00e+00	9	29	0	1169162240	52	6980
2026-01-14 18:34:41.99	292.67	4.63	-40.5	-41.9	19.7	0.00e+00	0	29	0	1171259392	52	7164
2026-01-14 18:34:43.00	292.57	4.58	-40.8	-42.2	19.3	0.00e+00	57	29	0	1173356544	54	6602
2026-01-14 18:34:44.00	292.48	4.53	-40.8	-42.2	19.2	0.00e+00	0	29	0	1174405120	54	6609
2026-01-14 18:34:45.01	292.38	4.47	-41.0	-42.5	19.0	0.00e+00	46	29	0	1176502272	54	6839
2026-01-14 18:34:46.03	292.28	4.42	-40.8	-42.3	19.2	0.00e+00	0	29	0	1178599424	54	6657
2026-01-14 18:34:47.04	292.19	4.36	-40.6	-42.0	19.5	0.00e+00	0	29	0	1180696576	54	6441
2026-01-14 18:34:48.04	292.09	4.31	-40.8	-42.3	19.3	0.00e+00	0	29	0	1182793728	54	6660
2026-01-14 18:34:49.05	292.00	4.26	-40.6	-42.0	19.5	0.00e+00	0	29	0	1184890880	54	6439
2026-01-14 18:34:50.06	291.90	4.20	-40.6	-42.0	19.5	0.00e+00	85	29	0	1185939456	54	6414
2026-01-14 18:34:51.08	291.81	4.15	-40.6	-42.0	19.5	0.00e+00	0	29	0	1188036608	54	6430
2026-01-14 18:34:52.09	291.72	4.09	-40.7	-42.2	19.3	0.00e+00	84	29	0	1190133760	54	6561
2026-01-14 18:34:53.10	291.62	4.04	-40.7	-42.1	19.3	0.00e+00	0	29	0	1192230912	54	6525
2026-01-14 18:34:54.11	291.53	3.99	-40.8	-42.3	19.2	0.00e+00	0	29	0	1194328064	54	6631
2026-01-14 18:34:55.12	291.44	3.93	-40.8	-42.3	19.2	0.00e+00	0	29	0	1195376640	54	6652
2026-01-14 18:34:56.13	291.34	3.88	-40.5	-41.9	19.5	0.00e+00	0	29	0	1197473792	54	6368
2026-01-14 18:34:57.14	291.25	3.82	-41.0	-42.6	18.8	0.00e+00	73	29	0	1199570944	54	6849
