passes_logs/2026/01/14/R4.6S_Anadyr/R4.6S_Anadyr__20260114_200158_SUOMI_NPP_rec.log

#Pass ID: 20260114_200158_SUOMI NPP
#Satellite: SUOMI NPP
#Configuration: NPP
#almurnet v.1.7.20251203
#Start time: 2026-01-14 20:01:59

#Version: 2.2.20231116
#Station: R4.6S_Anadyr
#Location: 177.4865 lon 64.73178 lat
#TLE: 1 37849U 11061A   26013.83525404  .00000052  00000+0  45495-4 0  9990
#TLE: 2 37849  98.7808 315.8939 0002471  65.6575 294.4859 14.19524986736544

#Time	Az	El	Level	Level2	SNR	BER	BlckErr	Temp	State	Recorded	gain1	gain2
2026-01-14 20:01:59.62	61.50	0.07	-49.0	-66.8	3.5	3.03e+01	0	26	0	0	60	84546
2026-01-14 20:02:00.62	61.43	0.12	-48.8	-64.0	3.6	1.51e+00	0	27	104	0	60	57063
2026-01-14 20:02:01.63	61.35	0.17	-48.8	-64.0	3.6	1.51e+00	0	28	104	0	60	57073
2026-01-14 20:02:02.64	61.27	0.22	-48.8	-64.1	3.6	1.51e+00	0	28	104	0	60	57709
2026-01-14 20:02:03.65	61.20	0.27	-48.8	-64.0	3.6	1.51e+00	0	28	104	0	60	57442
2026-01-14 20:02:04.66	61.12	0.31	-48.8	-64.0	3.6	1.51e+00	0	27	104	0	60	57176
2026-01-14 20:02:05.67	61.04	0.36	-48.8	-64.0	3.6	1.51e+00	0	28	104	0	60	57470
2026-01-14 20:02:06.68	60.97	0.41	-48.8	-64.0	3.6	1.51e+00	0	28	104	0	60	57437
2026-01-14 20:02:07.69	60.89	0.46	-48.8	-64.0	3.6	1.51e+00	0	28	104	0	60	57192
2026-01-14 20:02:08.70	60.81	0.51	-48.8	-64.0	3.6	1.51e+00	0	28	104	0	60	57114
2026-01-14 20:02:09.71	60.73	0.56	-48.8	-64.0	3.6	1.51e+00	0	28	104	0	60	57194
2026-01-14 20:02:10.72	60.66	0.61	-48.7	-63.9	3.6	1.51e+00	0	28	104	0	60	56926
2026-01-14 20:02:11.73	60.58	0.66	-48.7	-63.8	3.6	1.51e+00	0	28	104	0	60	56165
2026-01-14 20:02:12.74	60.50	0.71	-48.6	-63.7	3.6	1.51e+00	0	28	104	0	60	55489
2026-01-14 20:02:13.75	60.42	0.76	-48.4	-63.6	3.6	1.51e+00	0	28	104	0	60	54519
2026-01-14 20:02:14.76	60.34	0.81	-48.3	-63.5	3.6	1.51e+00	0	28	104	0	60	53778
2026-01-14 20:02:15.77	60.26	0.86	-48.0	-63.1	3.6	1.51e+00	0	28	104	0	60	51898
2026-01-14 20:02:16.78	60.18	0.91	-47.2	-62.4	3.6	1.51e+00	0	28	104	0	60	47668
2026-01-14 20:02:17.79	60.10	0.96	-47.1	-62.2	3.6	1.51e+00	0	28	104	0	60	46694
2026-01-14 20:02:18.80	60.02	1.01	-47.1	-62.2	3.6	1.51e+00	0	28	104	0	60	46781
2026-01-14 20:02:19.81	59.94	1.06	-47.1	-62.2	3.6	1.51e+00	0	28	104	0	60	46624
2026-01-14 20:02:20.82	59.86	1.11	-47.1	-62.2	3.6	1.51e+00	0	28	104	0	60	46695
2026-01-14 20:02:21.83	59.78	1.16	-47.1	-62.2	3.6	1.51e+00	0	28	104	0	60	46560
2026-01-14 20:02:22.84	59.70	1.21	-47.1	-62.2	3.6	1.51e+00	0	28	104	0	60	46657
2026-01-14 20:02:23.85	59.62	1.26	-47.1	-62.2	3.6	1.51e+00	0	28	104	0	60	46620
2026-01-14 20:02:24.86	59.53	1.31	-47.1	-62.2	3.6	1.51e+00	0	28	104	0	60	46691
2026-01-14 20:02:25.87	59.45	1.36	-47.1	-62.2	3.6	1.51e+00	0	28	104	0	60	46550
2026-01-14 20:02:26.88	59.37	1.41	-47.1	-62.1	3.6	1.51e+00	0	28	104	0	60	46295
2026-01-14 20:02:27.88	59.29	1.46	-47.1	-62.2	3.6	1.51e+00	0	28	104	0	60	46420
2026-01-14 20:02:28.90	59.20	1.51	-47.1	-62.2	3.6	1.51e+00	0	28	104	0	60	46380
2026-01-14 20:02:29.91	59.12	1.56	-47.1	-62.2	3.6	1.51e+00	0	28	104	0	60	46538
2026-01-14 20:02:30.91	59.04	1.61	-47.1	-62.1	3.6	1.51e+00	0	28	104	0	60	46154
2026-01-14 20:02:31.92	58.95	1.66	-47.1	-62.2	3.6	1.51e+00	0	28	104	0	60	46313
2026-01-14 20:02:32.93	58.87	1.71	-47.1	-62.2	3.6	1.51e+00	0	28	104	0	60	46550
2026-01-14 20:02:33.94	58.78	1.76	-47.1	-62.2	3.6	1.51e+00	0	28	104	0	60	46534
2026-01-14 20:02:34.95	58.70	1.81	-47.1	-62.2	3.6	1.51e+00	0	28	104	0	60	46550
2026-01-14 20:02:35.96	58.61	1.86	-47.0	-62.1	3.6	1.51e+00	0	28	104	0	60	46291
2026-01-14 20:02:36.97	58.53	1.91	-47.1	-62.1	3.6	1.51e+00	0	28	104	0	60	46231
2026-01-14 20:02:37.98	58.44	1.96	-47.0	-62.1	3.6	1.51e+00	0	28	104	0	60	45849
2026-01-14 20:02:39.00	58.35	2.01	-47.0	-62.0	3.6	1.51e+00	0	28	104	0	60	45265
2026-01-14 20:02:40.00	58.27	2.06	-47.0	-61.9	3.6	1.51e+00	0	28	104	0	60	44888
2026-01-14 20:02:41.01	58.18	2.11	-47.0	-61.8	3.6	1.51e+00	0	28	104	0	60	44556
2026-01-14 20:02:42.02	58.09	2.16	-47.0	-61.8	3.6	1.51e+00	0	28	104	0	60	44526
2026-01-14 20:02:43.03	58.01	2.21	-47.0	-61.9	3.6	1.51e+00	0	28	104	0	60	44830
2026-01-14 20:02:44.05	57.92	2.26	-47.0	-62.1	3.6	1.51e+00	0	28	104	0	60	46077
2026-01-14 20:02:45.05	57.83	2.31	-47.0	-62.2	3.6	1.51e+00	0	28	104	0	60	46740
2026-01-14 20:02:46.06	57.74	2.36	-47.1	-62.2	3.6	1.51e+00	0	28	104	0	60	46431
2026-01-14 20:02:47.07	57.65	2.42	-47.0	-62.1	3.6	1.51e+00	0	28	104	0	60	45930
2026-01-14 20:02:48.08	57.56	2.47	-47.0	-62.2	3.6	1.51e+00	0	28	104	0	60	46466
2026-01-14 20:02:49.09	57.47	2.52	-47.1	-62.2	3.6	1.51e+00	0	28	104	0	60	46499
2026-01-14 20:02:50.10	57.38	2.57	-47.0	-62.0	3.6	1.51e+00	0	28	104	0	60	45374
2026-01-14 20:02:51.11	57.29	2.62	-47.0	-61.4	3.6	1.51e+00	0	28	104	0	60	42246
2026-01-14 20:02:52.12	57.20	2.67	-47.0	-61.0	3.6	1.51e+00	0	28	104	0	60	40470
2026-01-14 20:02:53.13	57.11	2.72	-47.0	-61.3	3.6	1.51e+00	0	28	104	0	60	41758
2026-01-14 20:02:54.14	57.02	2.77	-47.0	-61.8	3.6	1.51e+00	0	28	104	0	60	44577
2026-01-14 20:02:55.15	56.93	2.82	-47.0	-60.7	3.6	1.51e+00	0	28	104	0	60	39325
2026-01-14 20:02:56.16	56.84	2.87	-46.7	-56.6	4.5	1.28e+00	0	28	0	0	60	24501
2026-01-14 20:02:57.17	56.75	2.92	-46.3	-53.0	7.4	2.69e-01	92	28	0	2097152	60	16238
2026-01-14 20:02:58.18	56.66	2.97	-45.7	-51.1	9.6	4.16e-02	53	28	0	3145728	60	13036
2026-01-14 20:02:59.19	56.56	3.03	-45.2	-49.8	11.1	3.47e-03	0	28	0	5242880	60	11191
2026-01-14 20:03:00.20	56.47	3.08	-47.4	-62.2	3.6	8.53e-01	0	29	104	6291456	60	46763
2026-01-14 20:03:01.21	56.38	3.13	-47.1	-60.5	3.6	1.51e+00	0	29	104	6291456	60	38145
2026-01-14 20:03:02.22	56.28	3.18	-46.0	-52.3	7.9	5.21e-01	54	28	0	6291456	60	14866
2026-01-14 20:03:03.23	56.19	3.23	-42.9	-45.4	15.9	7.00e-07	0	28	0	8388608	58	7510
2026-01-14 20:03:04.24	56.10	3.28	-46.8	-61.2	3.6	3.78e-01	0	28	104	9437184	60	41534
2026-01-14 20:03:05.25	56.00	3.33	-42.1	-44.2	16.3	1.50e+00	0	28	104	9437184	56	7374
2026-01-14 20:03:06.26	55.91	3.38	-42.2	-44.3	16.8	0.00e+00	0	28	0	9437184	56	7431
2026-01-14 20:03:07.27	55.81	3.43	-42.2	-44.3	16.9	0.00e+00	50	28	0	11534336	56	7427
2026-01-14 20:03:08.28	55.71	3.48	-42.5	-44.7	16.5	0.00e+00	0	28	0	13631488	56	7796
2026-01-14 20:03:09.29	55.62	3.54	-42.4	-44.6	16.6	0.00e+00	76	28	0	15728640	56	7751
2026-01-14 20:03:10.30	55.52	3.59	-42.4	-44.5	16.9	0.00e+00	0	28	0	17825792	56	7681
2026-01-14 20:03:11.31	55.43	3.64	-42.5	-44.8	16.8	0.00e+00	45	28	0	18874368	56	7886
2026-01-14 20:03:12.32	55.33	3.69	-42.2	-44.3	17.0	0.00e+00	0	28	0	20971520	56	7432
2026-01-14 20:03:13.33	55.23	3.74	-42.4	-44.5	16.8	0.00e+00	17	28	0	23068672	56	7658
2026-01-14 20:03:14.34	55.13	3.79	-42.4	-44.5	16.9	0.00e+00	92	28	0	25165824	56	7657
2026-01-14 20:03:15.35	55.04	3.84	-42.4	-44.5	16.9	0.00e+00	0	28	0	27262976	56	7625
2026-01-14 20:03:16.36	54.94	3.89	-42.1	-44.1	17.3	0.00e+00	25	28	0	28311552	56	7322
2026-01-14 20:03:17.36	54.84	3.95	-42.1	-44.1	17.3	0.00e+00	0	28	0	30408704	56	7295
2026-01-14 20:03:18.37	54.74	4.00	-42.1	-44.0	17.3	0.00e+00	92	28	0	32505856	56	7235
2026-01-14 20:03:19.39	54.64	4.05	-42.3	-44.4	17.1	0.00e+00	33	28	0	34603008	56	7586
2026-01-14 20:03:20.40	54.54	4.10	-42.0	-44.0	17.4	0.00e+00	92	29	0	36700160	56	7180
2026-01-14 20:03:21.40	54.44	4.15	-42.1	-44.1	17.4	0.00e+00	54	28	0	37748736	56	7278
2026-01-14 20:03:22.41	54.34	4.20	-42.0	-44.0	17.3	0.00e+00	33	29	0	39845888	56	7240
2026-01-14 20:03:23.42	54.24	4.25	-42.0	-44.0	17.4	0.00e+00	87	29	0	41943040	56	7227
2026-01-14 20:03:24.43	54.14	4.31	-41.9	-43.8	17.5	0.00e+00	0	28	0	44040192	56	7045
2026-01-14 20:03:25.44	54.04	4.36	-41.8	-43.7	17.7	0.00e+00	92	28	0	46137344	56	6985
2026-01-14 20:03:26.45	53.93	4.41	-41.8	-43.6	17.7	0.00e+00	0	28	0	47185920	56	6911
2026-01-14 20:03:27.46	53.83	4.46	-42.1	-44.1	17.3	0.00e+00	92	28	0	49283072	56	7282
2026-01-14 20:03:28.47	53.73	4.51	-41.9	-43.9	17.6	0.00e+00	0	28	0	51380224	56	7095
2026-01-14 20:03:29.48	53.63	4.56	-41.8	-43.6	17.8	0.00e+00	0	28	0	53477376	56	6906
2026-01-14 20:03:30.49	53.52	4.61	-42.0	-43.9	17.7	0.00e+00	69	29	0	55574528	56	7156
2026-01-14 20:03:31.50	53.42	4.67	-41.8	-43.7	17.8	0.00e+00	0	29	0	56623104	56	6945
2026-01-14 20:03:32.51	53.31	4.72	-41.8	-43.7	17.7	0.00e+00	92	28	0	58720256	56	6961
2026-01-14 20:03:33.52	53.21	4.77	-42.1	-44.1	17.4	0.00e+00	0	29	0	60817408	56	7307
2026-01-14 20:03:34.53	53.10	4.82	-41.8	-43.7	17.8	0.00e+00	92	28	0	62914560	56	6995
2026-01-14 20:03:35.54	53.00	4.87	-41.8	-43.7	17.8	0.00e+00	25	29	0	65011712	56	6953
2026-01-14 20:03:36.55	52.89	4.92	-41.7	-43.5	18.0	0.00e+00	0	28	0	66060288	56	6806
2026-01-14 20:03:37.56	52.79	4.97	-41.4	-43.2	18.3	0.00e+00	88	29	0	68157440	56	6563
2026-01-14 20:03:38.57	52.68	5.03	-41.8	-43.7	17.8	0.00e+00	0	28	0	70254592	56	6986
2026-01-14 20:03:39.58	52.57	5.08	-41.6	-43.3	18.2	0.00e+00	68	28	0	72351744	56	6679
2026-01-14 20:03:40.59	52.47	5.13	-41.7	-43.5	18.0	0.00e+00	0	28	0	74448896	56	6800
2026-01-14 20:03:41.60	52.36	5.18	-41.9	-43.7	17.9	0.00e+00	91	28	0	75497472	56	6978
2026-01-14 20:03:42.61	52.25	5.23	-41.6	-43.3	18.2	0.00e+00	9	28	0	77594624	56	6673
2026-01-14 20:03:43.62	52.14	5.28	-41.7	-43.5	18.0	0.00e+00	0	29	0	79691776	56	6813
2026-01-14 20:03:44.63	52.03	5.34	-42.0	-43.9	17.7	0.00e+00	92	29	0	81788928	56	7134
2026-01-14 20:03:45.64	51.92	5.39	-41.7	-43.5	18.0	0.00e+00	0	28	0	83886080	56	6834
2026-01-14 20:03:46.65	51.81	5.44	-41.6	-43.5	18.2	0.00e+00	92	28	0	85983232	56	6770
2026-01-14 20:03:47.66	51.70	5.49	-41.6	-43.4	18.2	0.00e+00	0	28	0	87031808	56	6718
2026-01-14 20:03:48.67	51.59	5.54	-41.5	-43.3	18.3	0.00e+00	92	29	0	89128960	56	6623
2026-01-14 20:03:49.68	51.48	5.59	-41.4	-43.0	18.6	0.00e+00	0	28	0	91226112	56	6463
2026-01-14 20:03:50.69	51.37	5.65	-41.4	-43.1	18.6	0.00e+00	0	29	0	93323264	56	6496
2026-01-14 20:03:51.70	51.26	5.70	-41.3	-42.9	18.7	0.00e+00	92	28	0	95420416	56	6360
2026-01-14 20:03:52.71	51.15	5.75	-41.1	-42.7	18.9	0.00e+00	0	28	0	96468992	56	6228
2026-01-14 20:03:53.72	51.03	5.80	-41.1	-42.7	18.9	0.00e+00	50	29	0	98566144	56	6195
2026-01-14 20:03:54.73	50.92	5.85	-41.0	-42.5	19.1	0.00e+00	0	28	0	100663296	56	6097
2026-01-14 20:03:55.74	50.81	5.90	-40.9	-42.4	19.0	0.00e+00	56	28	0	102760448	56	6031
2026-01-14 20:03:56.75	50.69	5.96	-40.8	-42.4	19.1	0.00e+00	0	29	0	104857600	56	5970
2026-01-14 20:03:57.76	50.58	6.01	-40.6	-42.1	19.5	0.00e+00	56	28	0	105906176	54	6472
2026-01-14 20:03:58.77	50.46	6.06	-40.6	-42.1	19.5	0.00e+00	92	29	0	108003328	54	6508
2026-01-14 20:03:59.78	50.35	6.11	-40.4	-41.8	19.7	0.00e+00	0	29	0	110100480	54	6257
2026-01-14 20:04:00.79	50.23	6.16	-40.4	-41.8	19.6	0.00e+00	49	29	0	112197632	54	6282
2026-01-14 20:04:01.80	50.12	6.21	-40.4	-41.8	19.7	0.00e+00	0	29	0	114294784	54	6265
2026-01-14 20:04:02.81	50.00	6.26	-40.4	-41.8	19.6	0.00e+00	82	29	0	115343360	54	6272
2026-01-14 20:04:03.82	49.88	6.32	-40.3	-41.7	19.8	0.00e+00	0	29	0	117440512	54	6231
2026-01-14 20:04:04.83	49.77	6.37	-40.3	-41.7	19.8	0.00e+00	63	29	0	119537664	54	6220
2026-01-14 20:04:05.84	49.65	6.42	-40.4	-41.8	19.7	0.00e+00	71	29	0	121634816	54	6288
2026-01-14 20:04:06.85	49.53	6.47	-40.5	-41.9	19.7	0.00e+00	0	29	0	123731968	54	6360
2026-01-14 20:04:07.86	49.41	6.52	-40.4	-41.8	19.7	0.00e+00	82	29	0	124780544	54	6316
2026-01-14 20:04:08.87	49.29	6.57	-40.3	-41.7	19.8	0.00e+00	0	29	0	126877696	54	6235
2026-01-14 20:04:09.88	49.18	6.63	-40.4	-41.8	19.7	0.00e+00	92	29	0	128974848	54	6274
2026-01-14 20:04:10.88	49.06	6.68	-40.5	-41.9	19.5	0.00e+00	0	29	0	131072000	54	6372
2026-01-14 20:04:11.90	48.94	6.73	-40.2	-41.5	19.9	0.00e+00	92	29	0	133169152	54	6094
2026-01-14 20:04:12.91	48.81	6.78	-40.4	-41.8	19.8	0.00e+00	0	29	0	134217728	54	6250
2026-01-14 20:04:13.91	48.69	6.83	-40.2	-41.6	19.9	0.00e+00	0	29	0	136314880	54	6124
2026-01-14 20:04:14.92	48.57	6.88	-40.2	-41.6	20.0	0.00e+00	85	29	0	138412032	54	6126
2026-01-14 20:04:15.93	48.45	6.93	-40.5	-41.9	19.6	0.00e+00	0	29	0	140509184	54	6380
2026-01-14 20:04:16.94	48.33	6.98	-40.5	-41.9	19.6	0.00e+00	91	29	0	142606336	54	6363
2026-01-14 20:04:17.95	48.21	7.04	-40.6	-42.0	19.6	0.00e+00	0	29	0	143654912	54	6420
2026-01-14 20:04:18.96	48.08	7.09	-40.8	-42.3	19.3	0.00e+00	92	29	0	145752064	54	6662
2026-01-14 20:04:19.97	47.96	7.14	-40.9	-42.4	19.3	0.00e+00	0	29	0	147849216	54	6724
2026-01-14 20:04:20.98	47.83	7.19	-40.6	-42.1	19.5	0.00e+00	0	29	0	149946368	54	6482
2026-01-14 20:04:21.99	47.71	7.24	-40.6	-42.0	19.6	0.00e+00	92	29	0	152043520	54	6411
2026-01-14 20:04:23.00	47.59	7.29	-40.6	-42.1	19.6	0.00e+00	0	29	0	154140672	54	6478
2026-01-14 20:04:24.00	47.46	7.34	-40.6	-42.0	19.7	0.00e+00	52	29	0	155189248	54	6458
2026-01-14 20:04:25.02	47.33	7.39	-40.7	-42.2	19.5	0.00e+00	0	29	0	157286400	54	6572
2026-01-14 20:04:26.03	47.21	7.45	-40.8	-42.3	19.4	0.00e+00	77	29	0	159383552	54	6647
2026-01-14 20:04:27.04	47.08	7.50	-40.8	-42.3	19.4	0.00e+00	0	29	0	161480704	54	6687
2026-01-14 20:04:28.05	46.95	7.55	-40.8	-42.4	19.3	0.00e+00	0	29	0	163577856	54	6693
2026-01-14 20:04:29.06	46.83	7.60	-40.9	-42.4	19.4	0.00e+00	92	29	0	164626432	54	6704
2026-01-14 20:04:30.07	46.70	7.65	-40.8	-42.2	19.4	0.00e+00	0	29	0	166723584	54	6604
2026-01-14 20:04:31.08	46.57	7.70	-40.9	-42.4	19.4	0.00e+00	36	29	0	168820736	54	6720
2026-01-14 20:04:32.09	46.44	7.75	-40.6	-42.1	19.6	0.00e+00	0	29	0	170917888	54	6481
2026-01-14 20:04:33.09	46.31	7.80	-40.7	-42.1	19.5	0.00e+00	92	29	0	173015040	54	6497
2026-01-14 20:04:34.10	46.18	7.85	-40.7	-42.1	19.6	0.00e+00	0	29	0	174063616	54	6528
2026-01-14 20:04:35.11	46.05	7.90	-40.5	-41.9	19.7	0.00e+00	0	29	0	176160768	54	6318
2026-01-14 20:04:36.12	45.92	7.95	-40.7	-42.1	19.6	0.00e+00	0	29	0	178257920	54	6506
2026-01-14 20:04:37.13	45.79	8.01	-40.6	-42.1	19.5	0.00e+00	0	29	0	180355072	54	6498
2026-01-14 20:04:38.13	45.66	8.06	-40.5	-41.9	19.7	0.00e+00	34	29	0	182452224	54	6384
2026-01-14 20:04:39.14	45.52	8.11	-40.4	-41.8	19.9	0.00e+00	0	29	0	183500800	54	6288
2026-01-14 20:04:40.15	45.39	8.16	-40.3	-41.7	19.9	0.00e+00	81	29	0	185597952	54	6223
2026-01-14 20:04:41.16	45.26	8.21	-40.4	-41.8	19.9	0.00e+00	0	29	0	187695104	54	6258
2026-01-14 20:04:42.17	45.12	8.26	-40.2	-41.5	20.1	0.00e+00	59	29	0	189792256	54	6102
2026-01-14 20:04:43.17	44.99	8.31	-40.2	-41.5	20.1	0.00e+00	9	29	0	191889408	54	6058
2026-01-14 20:04:44.18	44.86	8.36	-40.0	-41.3	20.3	0.00e+00	0	29	0	192937984	54	5916
2026-01-14 20:04:45.19	44.72	8.41	-40.3	-41.6	20.1	0.00e+00	93	29	0	195035136	54	6155
2026-01-14 20:04:46.20	44.59	8.46	-40.2	-41.6	20.0	0.00e+00	0	29	0	197132288	54	6128
2026-01-14 20:04:47.21	44.45	8.51	-40.3	-41.7	20.0	0.00e+00	68	29	0	199229440	54	6225
2026-01-14 20:04:48.22	44.31	8.56	-40.5	-41.9	19.7	0.00e+00	0	29	0	201326592	54	6384
2026-01-14 20:04:49.23	44.18	8.61	-40.8	-42.3	19.5	0.00e+00	90	29	0	202375168	54	6654
2026-01-14 20:04:50.24	44.04	8.66	-40.7	-42.2	19.6	0.00e+00	0	29	0	204472320	54	6565
2026-01-14 20:04:51.25	43.90	8.71	-41.0	-42.5	19.4	0.00e+00	0	29	0	206569472	54	6812
2026-01-14 20:04:52.26	43.76	8.76	-40.8	-42.3	19.5	0.00e+00	84	29	0	208666624	54	6655
2026-01-14 20:04:53.27	43.62	8.81	-41.0	-42.6	19.4	0.00e+00	0	29	0	210763776	54	6863
2026-01-14 20:04:54.28	43.48	8.86	-40.7	-42.2	19.6	0.00e+00	21	29	0	211812352	54	6578
2026-01-14 20:04:55.29	43.34	8.91	-40.7	-42.3	19.5	0.00e+00	0	29	0	213909504	54	6617
2026-01-14 20:04:56.30	43.20	8.96	-40.8	-42.3	19.5	0.00e+00	16	29	0	216006656	54	6620
2026-01-14 20:04:57.31	43.06	9.01	-40.7	-42.2	19.6	0.00e+00	0	29	0	218103808	54	6544
2026-01-14 20:04:58.31	42.92	9.06	-40.6	-42.1	19.6	0.00e+00	0	29	0	220200960	54	6469
2026-01-14 20:04:59.32	42.78	9.11	-40.5	-41.9	19.9	0.00e+00	22	29	0	221249536	54	6346
2026-01-14 20:05:00.33	42.64	9.16	-40.3	-41.6	20.2	0.00e+00	0	29	0	223346688	54	6147
2026-01-14 20:05:01.34	42.49	9.21	-40.2	-41.6	20.2	0.00e+00	92	29	0	225443840	54	6110
2026-01-14 20:05:02.35	42.35	9.25	-40.2	-41.6	20.2	0.00e+00	0	29	0	227540992	54	6110
2026-01-14 20:05:03.36	42.21	9.30	-40.4	-41.8	20.0	0.00e+00	45	29	0	229638144	54	6290
2026-01-14 20:05:04.37	42.06	9.35	-40.2	-41.6	20.2	0.00e+00	0	29	0	230686720	54	6122
2026-01-14 20:05:05.38	41.92	9.40	-39.9	-41.2	20.5	0.00e+00	53	29	0	232783872	54	5887
2026-01-14 20:05:06.39	41.77	9.45	-39.9	-41.1	20.7	0.00e+00	92	29	0	234881024	54	5818
2026-01-14 20:05:07.40	41.63	9.50	-39.7	-40.9	20.8	0.00e+00	0	29	0	236978176	52	6373
2026-01-14 20:05:08.40	41.48	9.55	-39.8	-41.0	20.6	0.00e+00	56	29	0	239075328	52	6439
2026-01-14 20:05:09.41	41.33	9.60	-39.8	-41.0	20.7	0.00e+00	33	29	0	240123904	52	6435
2026-01-14 20:05:10.42	41.19	9.65	-39.7	-40.9	20.7	0.00e+00	92	29	0	242221056	52	6368
2026-01-14 20:05:11.43	41.04	9.69	-39.8	-41.0	20.7	0.00e+00	0	29	0	244318208	52	6452
2026-01-14 20:05:12.44	40.89	9.74	-39.5	-40.7	21.0	0.00e+00	32	29	0	246415360	52	6202
2026-01-14 20:05:13.45	40.74	9.79	-39.5	-40.7	21.0	0.00e+00	55	29	0	248512512	52	6183
2026-01-14 20:05:14.46	40.59	9.84	-39.4	-40.6	21.2	0.00e+00	0	29	0	250609664	52	6147
2026-01-14 20:05:15.47	40.44	9.89	-39.2	-40.4	21.3	0.00e+00	43	29	0	251658240	52	5991
2026-01-14 20:05:16.48	40.29	9.94	-39.1	-40.3	21.3	0.00e+00	0	29	0	253755392	52	5917
2026-01-14 20:05:17.49	40.14	9.98	-39.1	-40.3	21.4	0.00e+00	84	29	0	255852544	52	5919
2026-01-14 20:05:18.50	39.99	10.03	-38.9	-40.0	21.3	0.00e+00	0	29	0	257949696	52	5717
2026-01-14 20:05:19.51	39.84	10.08	-39.0	-40.1	21.5	0.00e+00	92	29	0	260046848	52	5823
2026-01-14 20:05:20.52	39.68	10.13	-38.9	-40.0	21.6	0.00e+00	49	29	0	261095424	52	5714
2026-01-14 20:05:21.53	39.53	10.17	-38.7	-39.8	21.9	0.00e+00	0	29	0	263192576	52	5574
2026-01-14 20:05:22.54	39.38	10.22	-38.4	-39.4	22.1	0.00e+00	53	29	0	265289728	50	6011
2026-01-14 20:05:23.54	39.22	10.27	-38.6	-39.7	21.8	0.00e+00	0	29	0	267386880	50	6179
2026-01-14 20:05:24.55	39.07	10.32	-38.5	-39.6	22.0	0.00e+00	60	29	0	269484032	50	6114
2026-01-14 20:05:25.56	38.91	10.36	-38.8	-39.9	21.7	0.00e+00	0	29	0	270532608	50	6385
2026-01-14 20:05:26.57	38.76	10.41	-38.7	-39.8	21.7	0.00e+00	0	29	0	272629760	50	6293
2026-01-14 20:05:27.58	38.60	10.46	-39.0	-40.2	21.4	0.00e+00	58	29	0	274726912	50	6566
2026-01-14 20:05:28.59	38.45	10.50	-39.0	-40.2	21.5	0.00e+00	0	29	0	276824064	50	6581
2026-01-14 20:05:29.60	38.29	10.55	-39.0	-40.1	21.5	0.00e+00	66	29	0	278921216	50	6516
2026-01-14 20:05:30.61	38.13	10.60	-38.8	-40.0	21.8	0.00e+00	0	29	0	279969792	50	6391
2026-01-14 20:05:31.62	37.97	10.64	-38.7	-39.8	21.7	0.00e+00	92	29	0	282066944	50	6296
2026-01-14 20:05:32.63	37.82	10.69	-38.9	-40.0	21.6	0.00e+00	0	29	0	284164096	50	6443
2026-01-14 20:05:33.64	37.66	10.74	-38.8	-39.9	21.7	0.00e+00	0	29	0	286261248	50	6367
2026-01-14 20:05:34.65	37.50	10.78	-38.8	-39.9	21.7	0.00e+00	0	29	0	288358400	50	6350
2026-01-14 20:05:35.66	37.34	10.83	-38.6	-39.7	22.0	0.00e+00	0	29	0	289406976	50	6195
2026-01-14 20:05:36.67	37.18	10.87	-38.5	-39.6	21.8	0.00e+00	56	29	0	291504128	50	6155
2026-01-14 20:05:37.68	37.01	10.92	-38.3	-39.3	22.2	0.00e+00	0	29	0	293601280	50	5928
2026-01-14 20:05:38.69	36.85	10.96	-38.1	-39.1	22.4	0.00e+00	63	29	0	295698432	50	5766
2026-01-14 20:05:39.70	36.69	11.01	-38.2	-39.2	22.3	0.00e+00	0	29	0	297795584	50	5878
2026-01-14 20:05:40.71	36.53	11.05	-37.9	-38.9	22.5	0.00e+00	0	29	0	298844160	50	5680
2026-01-14 20:05:41.72	36.36	11.10	-38.0	-39.0	22.4	0.00e+00	0	29	0	300941312	50	5758
2026-01-14 20:05:42.73	36.20	11.14	-38.0	-39.0	22.5	0.00e+00	0	29	0	303038464	50	5754
2026-01-14 20:05:43.74	36.04	11.19	-37.8	-38.8	22.6	0.00e+00	30	29	0	305135616	50	5592
2026-01-14 20:05:44.74	35.87	11.23	-37.9	-38.9	22.5	0.00e+00	0	29	0	307232768	48	6379
2026-01-14 20:05:45.75	35.71	11.28	-37.9	-38.9	22.5	0.00e+00	82	29	0	308281344	48	6358
2026-01-14 20:05:46.76	35.54	11.32	-38.2	-39.2	22.4	0.00e+00	0	29	0	310378496	48	6592
2026-01-14 20:05:47.77	35.38	11.37	-38.4	-39.5	22.1	0.00e+00	0	29	0	312475648	48	6795
2026-01-14 20:05:48.78	35.21	11.41	-38.2	-39.2	22.3	0.00e+00	0	29	0	314572800	48	6567
2026-01-14 20:05:49.79	35.04	11.45	-38.2	-39.3	22.2	0.00e+00	0	29	0	316669952	48	6641
2026-01-14 20:05:50.80	34.87	11.50	-38.1	-39.1	22.3	0.00e+00	49	29	0	318767104	48	6524
2026-01-14 20:05:51.81	34.71	11.54	-38.0	-39.0	22.5	0.00e+00	0	29	0	319815680	48	6445
2026-01-14 20:05:52.82	34.54	11.58	-37.8	-38.7	22.7	0.00e+00	58	29	0	321912832	48	6235
2026-01-14 20:05:53.83	34.37	11.63	-37.6	-38.6	22.7	0.00e+00	0	29	0	324009984	48	6127
2026-01-14 20:05:54.84	34.20	11.67	-37.7	-38.6	22.9	0.00e+00	0	29	0	326107136	48	6156
2026-01-14 20:05:55.84	34.03	11.71	-37.4	-38.4	23.0	0.00e+00	0	29	0	328204288	48	5969
2026-01-14 20:05:56.86	33.86	11.76	-37.4	-38.3	23.0	0.00e+00	0	29	0	329252864	48	5958
2026-01-14 20:05:57.86	33.69	11.80	-37.6	-38.5	22.9	0.00e+00	0	29	0	331350016	48	6075
2026-01-14 20:05:58.87	33.52	11.84	-37.5	-38.5	22.9	0.00e+00	0	29	0	333447168	48	6060
2026-01-14 20:05:59.88	33.34	11.88	-37.4	-38.4	22.9	0.00e+00	92	29	0	335544320	48	5985
2026-01-14 20:06:00.89	33.17	11.92	-37.5	-38.4	22.9	0.00e+00	0	29	0	337641472	48	6012
2026-01-14 20:06:01.90	33.00	11.97	-37.7	-38.7	22.7	0.00e+00	90	29	0	338690048	48	6176
2026-01-14 20:06:02.91	32.82	12.01	-37.7	-38.7	22.7	0.00e+00	0	29	0	340787200	48	6180
2026-01-14 20:06:03.92	32.65	12.05	-38.0	-39.0	22.5	0.00e+00	0	29	0	342884352	48	6439
2026-01-14 20:06:04.93	32.48	12.09	-38.3	-39.3	22.3	0.00e+00	0	29	0	344981504	48	6673
2026-01-14 20:06:05.94	32.30	12.13	-38.4	-39.5	22.0	0.00e+00	0	29	0	347078656	48	6816
2026-01-14 20:06:06.95	32.12	12.17	-38.3	-39.4	22.2	0.00e+00	52	29	0	348127232	48	6700
2026-01-14 20:06:07.96	31.95	12.21	-38.4	-39.4	22.1	0.00e+00	0	29	0	350224384	48	6761
2026-01-14 20:06:08.97	31.77	12.25	-38.4	-39.5	22.0	0.00e+00	92	29	0	352321536	48	6814
2026-01-14 20:06:09.98	31.59	12.29	-38.2	-39.2	22.2	0.00e+00	0	29	0	354418688	48	6582
2026-01-14 20:06:10.99	31.42	12.33	-38.1	-39.2	22.4	0.00e+00	0	29	0	356515840	48	6550
2026-01-14 20:06:12.00	31.24	12.37	-38.0	-39.0	22.5	0.00e+00	0	29	0	357564416	48	6453
2026-01-14 20:06:13.00	31.06	12.41	-38.2	-39.2	22.4	0.00e+00	0	29	0	359661568	48	6546
2026-01-14 20:06:14.01	30.88	12.45	-38.3	-39.4	22.2	0.00e+00	47	29	0	361758720	48	6710
2026-01-14 20:06:15.02	30.70	12.49	-38.3	-39.3	22.2	0.00e+00	0	29	0	363855872	48	6651
2026-01-14 20:06:16.03	30.52	12.53	-38.6	-39.7	21.8	0.00e+00	90	29	0	365953024	48	6937
2026-01-14 20:06:17.04	30.34	12.57	-38.8	-39.9	21.8	0.00e+00	0	29	0	367001600	50	6328
2026-01-14 20:06:18.05	30.16	12.61	-38.6	-39.7	22.0	0.00e+00	0	29	0	369098752	50	6231
2026-01-14 20:06:19.06	29.98	12.65	-38.7	-39.8	21.9	0.00e+00	0	29	0	371195904	50	6268
2026-01-14 20:06:20.07	29.80	12.68	-38.4	-39.5	22.1	0.00e+00	0	29	0	373293056	50	6073
2026-01-14 20:06:21.08	29.61	12.72	-38.5	-39.6	22.0	0.00e+00	28	29	0	375390208	50	6124
2026-01-14 20:06:22.08	29.43	12.76	-38.4	-39.5	22.2	0.00e+00	0	29	0	376438784	50	6044
2026-01-14 20:06:23.09	29.25	12.80	-38.4	-39.5	22.0	0.00e+00	92	29	0	378535936	50	6055
2026-01-14 20:06:24.10	29.06	12.83	-38.3	-39.3	22.1	0.00e+00	0	29	0	380633088	50	5916
2026-01-14 20:06:25.12	28.88	12.87	-38.1	-39.1	22.4	0.00e+00	0	29	0	382730240	50	5766
2026-01-14 20:06:26.12	28.70	12.91	-37.6	-38.5	22.9	0.00e+00	0	29	0	384827392	48	6080
2026-01-14 20:06:27.13	28.51	12.94	-37.6	-38.6	22.8	0.00e+00	0	29	0	386924544	48	6111
2026-01-14 20:06:28.14	28.32	12.98	-37.8	-38.8	22.7	0.00e+00	17	29	0	387973120	48	6308
2026-01-14 20:06:29.15	28.14	13.02	-38.0	-39.0	22.6	0.00e+00	0	29	0	390070272	48	6422
2026-01-14 20:06:30.16	27.95	13.05	-38.1	-39.1	22.5	0.00e+00	90	29	0	392167424	48	6483
2026-01-14 20:06:31.17	27.76	13.09	-37.9	-38.9	22.6	0.00e+00	33	29	0	394264576	48	6340
2026-01-14 20:06:32.18	27.58	13.12	-37.9	-38.9	22.6	0.00e+00	0	29	0	396361728	48	6346
2026-01-14 20:06:33.18	27.39	13.16	-37.8	-38.8	22.7	0.00e+00	0	29	0	397410304	48	6275
2026-01-14 20:06:34.19	27.20	13.19	-37.9	-38.8	22.7	0.00e+00	0	29	0	399507456	48	6312
2026-01-14 20:06:35.20	27.01	13.23	-38.0	-39.0	22.5	0.00e+00	0	29	0	401604608	48	6400
2026-01-14 20:06:36.21	26.82	13.26	-37.7	-38.7	22.8	0.00e+00	0	29	0	403701760	48	6188
2026-01-14 20:06:37.22	26.63	13.29	-37.5	-38.5	23.0	0.00e+00	54	29	0	404750336	48	6064
2026-01-14 20:06:38.23	26.44	13.33	-37.5	-38.5	22.7	0.00e+00	0	29	0	406847488	48	6064
2026-01-14 20:06:39.24	26.25	13.36	-37.7	-38.6	22.8	0.00e+00	78	29	0	408944640	48	6161
2026-01-14 20:06:40.25	26.06	13.39	-37.9	-38.9	22.6	0.00e+00	0	29	0	411041792	48	6321
2026-01-14 20:06:41.25	25.87	13.43	-38.3	-39.4	22.2	0.00e+00	0	29	0	413138944	48	6720
2026-01-14 20:06:42.26	25.68	13.46	-38.5	-39.6	22.0	0.00e+00	0	29	0	415236096	48	6898
2026-01-14 20:06:43.27	25.49	13.49	-38.6	-39.7	21.9	0.00e+00	0	29	0	416284672	48	6946
2026-01-14 20:06:44.28	25.29	13.52	-38.8	-39.9	21.8	0.00e+00	32	29	0	418381824	50	6360
2026-01-14 20:06:45.30	25.10	13.56	-38.7	-39.8	21.9	0.00e+00	0	29	0	420478976	50	6292
2026-01-14 20:06:46.30	24.91	13.59	-38.3	-39.4	22.2	0.00e+00	23	29	0	422576128	50	5988
2026-01-14 20:06:47.31	24.71	13.62	-38.0	-39.0	22.6	0.00e+00	0	29	0	424673280	50	5707
2026-01-14 20:06:48.32	24.52	13.65	-37.8	-38.8	22.8	0.00e+00	0	29	0	425721856	50	5576
2026-01-14 20:06:49.33	24.32	13.68	-37.6	-38.6	22.9	0.00e+00	0	29	0	427819008	48	6123
2026-01-14 20:06:50.34	24.13	13.71	-37.5	-38.4	22.9	0.00e+00	0	29	0	429916160	48	6023
2026-01-14 20:06:51.35	23.93	13.74	-37.2	-38.1	22.8	0.00e+00	22	29	0	432013312	48	5821
2026-01-14 20:06:52.36	23.74	13.77	-37.2	-38.1	22.9	0.00e+00	0	29	0	434110464	48	5770
2026-01-14 20:06:53.37	23.54	13.80	-37.4	-38.3	23.1	0.00e+00	89	29	0	435159040	48	5956
2026-01-14 20:06:54.38	23.34	13.83	-37.1	-38.0	23.3	0.00e+00	0	29	0	437256192	48	5721
2026-01-14 20:06:55.39	23.14	13.86	-37.1	-38.0	23.2	0.00e+00	0	29	0	439353344	48	5721
2026-01-14 20:06:56.40	22.95	13.88	-37.4	-38.3	23.1	0.00e+00	0	29	0	441450496	48	5960
2026-01-14 20:06:57.40	22.75	13.91	-37.4	-38.4	23.0	0.00e+00	0	29	0	443547648	48	5973
2026-01-14 20:06:58.41	22.55	13.94	-37.7	-38.7	23.0	0.00e+00	0	29	0	444596224	48	6204
2026-01-14 20:06:59.42	22.35	13.97	-37.4	-38.3	23.2	0.00e+00	0	29	0	446693376	48	5931
2026-01-14 20:07:00.43	22.15	14.00	-37.2	-38.1	23.3	0.00e+00	92	29	0	448790528	48	5778
2026-01-14 20:07:01.44	21.95	14.02	-37.0	-37.9	23.4	0.00e+00	0	29	0	450887680	48	5640
2026-01-14 20:07:02.45	21.75	14.05	-37.1	-38.0	23.4	0.00e+00	0	29	0	452984832	48	5710
2026-01-14 20:07:03.46	21.55	14.07	-37.2	-38.1	23.3	0.00e+00	0	29	0	454033408	48	5804
2026-01-14 20:07:04.47	21.35	14.10	-37.3	-38.2	23.1	0.00e+00	0	29	0	456130560	48	5832
2026-01-14 20:07:05.48	21.15	14.13	-37.3	-38.2	23.1	0.00e+00	56	29	0	458227712	48	5894
2026-01-14 20:07:06.49	20.95	14.15	-37.5	-38.4	23.0	0.00e+00	0	29	0	460324864	48	6009
2026-01-14 20:07:07.50	20.75	14.18	-37.7	-38.7	22.8	0.00e+00	54	29	0	462422016	48	6214
2026-01-14 20:07:08.51	20.55	14.20	-38.0	-39.0	22.6	0.00e+00	0	29	0	463470592	48	6443
2026-01-14 20:07:09.52	20.34	14.23	-38.3	-39.4	22.3	0.00e+00	64	29	0	465567744	48	6697
2026-01-14 20:07:10.53	20.14	14.25	-38.4	-39.4	22.3	0.00e+00	0	29	0	467664896	48	6730
2026-01-14 20:07:11.54	19.94	14.27	-38.2	-39.3	22.3	0.00e+00	0	29	0	469762048	48	6625
2026-01-14 20:07:12.55	19.74	14.30	-38.2	-39.2	22.4	0.00e+00	0	29	0	471859200	48	6584
2026-01-14 20:07:13.56	19.53	14.32	-38.1	-39.1	22.5	0.00e+00	0	29	0	472907776	48	6511
2026-01-14 20:07:14.57	19.33	14.34	-38.3	-39.3	22.4	0.00e+00	64	29	0	475004928	48	6648
2026-01-14 20:07:15.58	19.12	14.36	-38.2	-39.2	22.4	0.00e+00	0	29	0	477102080	48	6597
2026-01-14 20:07:16.59	18.92	14.39	-38.4	-39.4	22.2	0.00e+00	92	29	0	479199232	48	6729
2026-01-14 20:07:17.60	18.71	14.41	-38.4	-39.4	21.9	0.00e+00	0	29	0	481296384	48	6738
2026-01-14 20:07:18.61	18.51	14.43	-38.5	-39.6	22.2	0.00e+00	0	29	0	483393536	48	6867
2026-01-14 20:07:19.62	18.30	14.45	-38.5	-39.6	22.1	0.00e+00	0	29	0	484442112	48	6908
2026-01-14 20:07:20.63	18.10	14.47	-38.5	-39.5	22.1	0.00e+00	0	29	0	486539264	48	6840
2026-01-14 20:07:21.64	17.89	14.49	-38.6	-39.6	22.0	0.00e+00	72	29	0	488636416	48	6912
2026-01-14 20:07:22.64	17.69	14.51	-38.4	-39.5	22.2	0.00e+00	0	29	0	490733568	48	6790
2026-01-14 20:07:23.66	17.48	14.53	-38.4	-39.4	22.3	0.00e+00	92	29	0	492830720	48	6740
2026-01-14 20:07:24.66	17.27	14.55	-38.3	-39.3	22.3	0.00e+00	0	29	0	493879296	48	6662
2026-01-14 20:07:25.67	17.07	14.57	-38.1	-39.1	22.4	0.00e+00	0	29	0	495976448	48	6530
2026-01-14 20:07:26.68	16.86	14.59	-38.1	-39.1	22.6	0.00e+00	0	29	0	498073600	48	6504
2026-01-14 20:07:27.69	16.65	14.60	-37.8	-38.8	22.9	0.00e+00	0	29	0	500170752	48	6253
2026-01-14 20:07:28.70	16.44	14.62	-37.5	-38.5	23.0	0.00e+00	17	29	0	502267904	48	6039
2026-01-14 20:07:29.71	16.23	14.64	-37.6	-38.5	22.9	0.00e+00	0	29	0	503316480	48	6055
2026-01-14 20:07:30.72	16.02	14.66	-37.4	-38.4	23.0	0.00e+00	92	29	0	505413632	48	5969
2026-01-14 20:07:31.73	15.82	14.67	-37.6	-38.6	22.9	0.00e+00	0	29	0	507510784	48	6111
2026-01-14 20:07:32.74	15.61	14.69	-37.7	-38.6	22.9	0.00e+00	0	29	0	509607936	48	6149
2026-01-14 20:07:33.75	15.40	14.70	-37.7	-38.7	23.0	0.00e+00	0	29	0	511705088	48	6211
2026-01-14 20:07:34.76	15.19	14.72	-37.9	-38.8	22.8	0.00e+00	0	29	0	512753664	48	6306
2026-01-14 20:07:35.77	14.98	14.74	-37.8	-38.7	22.7	0.00e+00	52	29	0	514850816	48	6222
2026-01-14 20:07:36.78	14.77	14.75	-37.9	-38.9	22.7	0.00e+00	0	29	0	516947968	48	6372
2026-01-14 20:07:37.79	14.56	14.76	-37.9	-38.9	22.6	0.00e+00	67	29	0	519045120	48	6383
2026-01-14 20:07:38.80	14.35	14.78	-38.1	-39.1	22.5	0.00e+00	0	29	0	521142272	48	6480
2026-01-14 20:07:39.81	14.14	14.79	-37.9	-38.8	22.7	0.00e+00	0	29	0	522190848	48	6308
2026-01-14 20:07:40.82	13.93	14.81	-37.9	-38.8	22.6	0.00e+00	0	29	0	524288000	48	6307
2026-01-14 20:07:41.83	13.72	14.82	-37.7	-38.7	22.8	0.00e+00	0	29	0	526385152	48	6201
2026-01-14 20:07:42.84	13.51	14.83	-37.8	-38.8	22.7	0.00e+00	15	29	0	528482304	48	6305
2026-01-14 20:07:43.85	13.29	14.84	-37.7	-38.6	22.9	0.00e+00	0	29	0	530579456	48	6172
2026-01-14 20:07:44.86	13.08	14.85	-37.9	-38.9	22.7	0.00e+00	92	29	0	531628032	48	6335
2026-01-14 20:07:45.87	12.87	14.87	-38.1	-39.1	22.6	0.00e+00	0	29	0	533725184	48	6485
2026-01-14 20:07:46.88	12.66	14.88	-38.1	-39.2	22.5	0.00e+00	78	29	0	535822336	48	6543
2026-01-14 20:07:47.89	12.45	14.89	-38.4	-39.4	22.3	0.00e+00	0	29	0	537919488	48	6753
2026-01-14 20:07:48.89	12.24	14.90	-38.3	-39.3	22.4	0.00e+00	0	29	0	540016640	48	6644
2026-01-14 20:07:49.90	12.03	14.91	-38.3	-39.4	22.3	0.00e+00	25	29	0	541065216	48	6731
2026-01-14 20:07:50.91	11.81	14.92	-38.3	-39.3	22.3	0.00e+00	0	29	0	543162368	48	6666
2026-01-14 20:07:51.92	11.60	14.92	-38.2	-39.3	22.5	0.00e+00	38	29	0	545259520	48	6628
2026-01-14 20:07:52.93	11.39	14.93	-38.0	-39.0	22.6	0.00e+00	0	29	0	547356672	48	6462
2026-01-14 20:07:53.94	11.18	14.94	-38.0	-39.0	22.6	0.00e+00	59	29	0	549453824	48	6430
2026-01-14 20:07:54.95	10.96	14.95	-38.2	-39.2	22.5	0.00e+00	0	29	0	551550976	48	6612
2026-01-14 20:07:55.96	10.75	14.96	-38.0	-39.0	22.6	0.00e+00	0	29	0	552599552	48	6416
2026-01-14 20:07:56.96	10.54	14.96	-38.0	-39.0	22.6	0.00e+00	0	29	0	554696704	48	6412
2026-01-14 20:07:57.97	10.33	14.97	-38.0	-39.0	22.6	0.00e+00	0	29	0	556793856	48	6464
2026-01-14 20:07:58.98	10.11	14.98	-38.3	-39.4	22.3	0.00e+00	50	29	0	558891008	48	6717
2026-01-14 20:07:59.99	9.90	14.98	-38.5	-39.5	22.3	0.00e+00	0	29	0	560988160	48	6828
2026-01-14 20:08:01.00	9.69	14.99	-38.0	-39.0	22.5	0.00e+00	53	29	0	562036736	48	6450
2026-01-14 20:08:02.01	9.47	14.99	-37.8	-38.8	22.8	0.00e+00	0	29	0	564133888	48	6308
2026-01-14 20:08:03.02	9.26	15.00	-37.6	-38.6	22.9	0.00e+00	0	29	0	566231040	48	6115
2026-01-14 20:08:04.03	9.05	15.00	-37.7	-38.6	22.9	0.00e+00	0	29	0	568328192	48	6173
2026-01-14 20:08:05.04	8.83	15.00	-37.8	-38.7	22.8	0.00e+00	0	29	0	570425344	48	6240
2026-01-14 20:08:06.04	8.62	15.01	-38.0	-39.0	22.6	0.00e+00	28	29	0	571473920	48	6396
2026-01-14 20:08:07.06	8.41	15.01	-38.1	-39.1	22.6	0.00e+00	0	29	0	573571072	48	6477
2026-01-14 20:08:08.06	8.19	15.01	-38.1	-39.2	22.4	0.00e+00	78	29	0	575668224	48	6542
2026-01-14 20:08:09.07	7.98	15.02	-38.3	-39.4	22.3	0.00e+00	0	29	0	577765376	48	6719
2026-01-14 20:08:10.08	7.77	15.02	-38.2	-39.3	22.4	0.00e+00	0	29	0	579862528	48	6624
2026-01-14 20:08:11.09	7.55	15.02	-38.2	-39.2	22.5	0.00e+00	0	29	0	580911104	48	6590
2026-01-14 20:08:12.10	7.34	15.02	-38.2	-39.3	22.4	0.00e+00	0	29	0	583008256	48	6619
2026-01-14 20:08:13.11	7.13	15.02	-38.1	-39.1	22.5	0.00e+00	58	29	0	585105408	48	6491
2026-01-14 20:08:14.12	6.91	15.02	-37.7	-38.7	22.9	0.00e+00	0	29	0	587202560	48	6213
2026-01-14 20:08:15.13	6.70	15.02	-37.6	-38.5	23.0	0.00e+00	91	29	0	589299712	48	6099
2026-01-14 20:08:16.14	6.48	15.02	-37.4	-38.4	23.2	0.00e+00	0	29	0	590348288	48	5975
2026-01-14 20:08:17.15	6.27	15.02	-37.6	-38.5	23.0	0.00e+00	6	29	0	592445440	48	6069
2026-01-14 20:08:18.16	6.06	15.02	-37.6	-38.5	22.9	0.00e+00	0	29	0	594542592	48	6070
2026-01-14 20:08:19.17	5.84	15.02	-37.8	-38.8	22.8	0.00e+00	0	29	0	596639744	48	6256
2026-01-14 20:08:20.18	5.63	15.01	-37.7	-38.6	22.9	0.00e+00	0	29	0	598736896	48	6160
2026-01-14 20:08:21.18	5.42	15.01	-37.7	-38.6	22.7	0.00e+00	0	29	0	599785472	48	6146
2026-01-14 20:08:22.19	5.20	15.01	-37.8	-38.8	22.8	0.00e+00	54	29	0	601882624	48	6263
2026-01-14 20:08:23.20	4.99	15.00	-38.1	-39.1	22.6	0.00e+00	0	29	0	603979776	48	6497
2026-01-14 20:08:24.22	4.78	15.00	-38.2	-39.3	22.4	0.00e+00	92	29	0	606076928	48	6616
2026-01-14 20:08:25.23	4.56	15.00	-38.2	-39.3	22.3	0.00e+00	0	29	0	608174080	48	6640
2026-01-14 20:08:26.24	4.35	14.99	-38.4	-39.4	22.3	0.00e+00	0	29	0	609222656	48	6745
2026-01-14 20:08:27.25	4.13	14.99	-38.6	-39.6	22.0	0.00e+00	0	29	0	611319808	48	6908
2026-01-14 20:08:28.25	3.92	14.98	-38.9	-40.0	21.8	0.00e+00	0	29	0	613416960	50	6457
2026-01-14 20:08:29.26	3.71	14.98	-39.0	-40.1	21.6	0.00e+00	49	29	0	615514112	50	6491
2026-01-14 20:08:30.27	3.50	14.97	-38.9	-40.0	21.4	0.00e+00	0	29	0	617611264	50	6411
2026-01-14 20:08:31.28	3.28	14.96	-38.7	-39.7	22.0	0.00e+00	90	29	0	619708416	50	6242
2026-01-14 20:08:32.29	3.07	14.96	-38.9	-40.0	21.7	0.00e+00	0	29	0	620756992	50	6448
2026-01-14 20:08:33.30	2.86	14.95	-38.7	-39.8	21.9	0.00e+00	0	29	0	622854144	50	6294
2026-01-14 20:08:34.31	2.65	14.94	-38.5	-39.6	22.2	0.00e+00	0	29	0	624951296	50	6121
2026-01-14 20:08:35.31	2.44	14.93	-38.4	-39.5	22.2	0.00e+00	0	29	0	627048448	50	6042
2026-01-14 20:08:36.32	2.22	14.92	-38.3	-39.3	22.4	0.00e+00	9	29	0	628097024	50	5956
2026-01-14 20:08:37.33	2.01	14.92	-38.3	-39.4	22.5	0.00e+00	0	29	0	630194176	50	5968
2026-01-14 20:08:38.34	1.80	14.91	-38.2	-39.2	22.5	0.00e+00	92	29	0	632291328	50	5889
2026-01-14 20:08:39.35	1.59	14.90	-38.3	-39.3	22.3	0.00e+00	0	29	0	634388480	50	5934
2026-01-14 20:08:40.36	1.37	14.89	-37.9	-38.9	22.7	0.00e+00	0	29	0	636485632	50	5676
2026-01-14 20:08:41.37	1.16	14.88	-38.0	-39.0	22.7	0.00e+00	0	29	0	637534208	50	5742
2026-01-14 20:08:42.38	0.95	14.86	-38.0	-39.0	22.8	0.00e+00	0	29	0	639631360	50	5698
2026-01-14 20:08:43.39	0.74	14.85	-37.9	-38.9	22.8	0.00e+00	39	29	0	641728512	48	6321
2026-01-14 20:08:44.39	0.53	14.84	-38.0	-39.0	22.7	0.00e+00	33	29	0	643825664	48	6408
2026-01-14 20:08:45.40	0.32	14.83	-38.0	-39.0	22.5	0.00e+00	90	29	0	645922816	48	6438
2026-01-14 20:08:46.42	0.11	14.82	-38.0	-39.0	22.7	0.00e+00	0	29	0	648019968	48	6412
2026-01-14 20:08:47.42	359.90	14.80	-38.1	-39.1	22.7	0.00e+00	92	29	0	649068544	48	6485
2026-01-14 20:08:48.43	359.69	14.79	-38.1	-39.1	22.7	0.00e+00	0	29	0	651165696	48	6498
2026-01-14 20:08:49.44	359.48	14.78	-37.7	-38.6	22.9	0.00e+00	0	29	0	653262848	48	6152
2026-01-14 20:08:50.45	359.27	14.76	-37.7	-38.6	22.9	0.00e+00	0	29	0	655360000	48	6152
2026-01-14 20:08:51.46	359.06	14.75	-37.4	-38.3	23.2	0.00e+00	0	29	0	657457152	48	5928
2026-01-14 20:08:52.47	358.85	14.73	-37.3	-38.2	23.2	0.00e+00	53	29	0	658505728	48	5868
2026-01-14 20:08:53.48	358.64	14.72	-37.4	-38.4	23.1	0.00e+00	0	29	0	660602880	48	5972
2026-01-14 20:08:54.49	358.43	14.70	-37.5	-38.4	23.0	0.00e+00	16	29	0	662700032	48	6007
2026-01-14 20:08:55.50	358.22	14.69	-37.6	-38.5	23.0	0.00e+00	0	29	0	664797184	48	6098
2026-01-14 20:08:56.52	358.01	14.67	-37.5	-38.5	22.9	0.00e+00	0	29	0	666894336	48	6065
2026-01-14 20:08:57.52	357.80	14.66	-37.7	-38.6	22.8	0.00e+00	0	29	0	667942912	48	6172
2026-01-14 20:08:58.53	357.59	14.64	-37.5	-38.5	23.0	0.00e+00	0	29	0	670040064	48	6071
2026-01-14 20:08:59.54	357.38	14.62	-37.8	-38.9	22.7	0.00e+00	52	29	0	672137216	48	6318
2026-01-14 20:09:00.55	357.18	14.60	-37.9	-38.9	22.6	0.00e+00	0	29	0	674234368	48	6332
2026-01-14 20:09:01.56	356.97	14.59	-38.0	-39.0	22.6	0.00e+00	59	29	0	676331520	48	6433
2026-01-14 20:09:02.57	356.76	14.57	-38.1	-39.2	22.4	0.00e+00	0	29	0	677380096	48	6548
2026-01-14 20:09:03.58	356.55	14.55	-38.3	-39.3	22.3	0.00e+00	0	29	0	679477248	48	6666
2026-01-14 20:09:04.59	356.35	14.53	-38.3	-39.3	22.3	0.00e+00	0	29	0	681574400	48	6683
2026-01-14 20:09:05.60	356.14	14.51	-38.3	-39.4	22.3	0.00e+00	0	29	0	683671552	48	6696
2026-01-14 20:09:06.60	355.94	14.49	-38.3	-39.4	22.3	0.00e+00	55	29	0	685768704	48	6732
2026-01-14 20:09:07.61	355.73	14.47	-38.3	-39.3	22.4	0.00e+00	0	29	0	686817280	48	6682
2026-01-14 20:09:08.62	355.53	14.45	-38.3	-39.4	22.3	0.00e+00	75	29	0	688914432	48	6719
2026-01-14 20:09:09.63	355.32	14.43	-38.3	-39.4	22.3	0.00e+00	0	29	0	691011584	48	6695
2026-01-14 20:09:10.64	355.11	14.41	-38.2	-39.3	22.4	0.00e+00	0	29	0	693108736	48	6640
2026-01-14 20:09:11.65	354.91	14.39	-38.3	-39.4	22.3	0.00e+00	0	29	0	695205888	48	6702
2026-01-14 20:09:12.66	354.71	14.36	-37.9	-39.0	22.7	0.00e+00	0	29	0	696254464	48	6391
2026-01-14 20:09:13.67	354.50	14.34	-37.6	-38.6	23.0	0.00e+00	26	29	0	698351616	48	6107
2026-01-14 20:09:14.67	354.30	14.32	-37.4	-38.3	23.2	0.00e+00	0	29	0	700448768	48	5952
2026-01-14 20:09:15.68	354.10	14.30	-37.5	-38.5	22.9	0.00e+00	67	29	0	702545920	48	6059
2026-01-14 20:09:16.69	353.89	14.27	-37.7	-38.6	23.0	0.00e+00	0	29	0	704643072	48	6173
2026-01-14 20:09:17.70	353.69	14.25	-37.6	-38.5	23.0	0.00e+00	0	29	0	705691648	48	6102
2026-01-14 20:09:18.71	353.49	14.22	-37.6	-38.5	22.8	0.00e+00	0	29	0	707788800	48	6094
2026-01-14 20:09:19.72	353.28	14.20	-37.4	-38.4	23.1	0.00e+00	0	29	0	709885952	48	5981
2026-01-14 20:09:20.73	353.08	14.18	-37.5	-38.5	23.1	0.00e+00	48	29	0	711983104	48	6054
2026-01-14 20:09:21.74	352.88	14.15	-37.5	-38.5	23.0	0.00e+00	0	29	0	714080256	48	6039
2026-01-14 20:09:22.75	352.68	14.13	-37.6	-38.5	23.1	0.00e+00	45	29	0	715128832	48	6071
2026-01-14 20:09:23.76	352.48	14.10	-37.4	-38.3	23.2	0.00e+00	0	29	0	717225984	48	5926
2026-01-14 20:09:24.77	352.28	14.07	-37.4	-38.3	23.2	0.00e+00	0	29	0	719323136	48	5963
2026-01-14 20:09:25.78	352.08	14.05	-37.5	-38.4	23.0	0.00e+00	0	29	0	721420288	48	6023
2026-01-14 20:09:26.79	351.88	14.02	-37.9	-38.9	22.7	0.00e+00	0	29	0	723517440	48	6342
2026-01-14 20:09:27.80	351.68	13.99	-37.7	-38.7	22.9	0.00e+00	0	29	0	725614592	48	6191
2026-01-14 20:09:28.80	351.48	13.97	-38.1	-39.1	22.5	0.00e+00	0	29	0	726663168	48	6529
2026-01-14 20:09:29.81	351.28	13.94	-38.1	-39.1	22.5	0.00e+00	62	29	0	728760320	48	6491
2026-01-14 20:09:30.82	351.08	13.91	-38.0	-39.0	22.5	0.00e+00	0	29	0	730857472	48	6460
2026-01-14 20:09:31.83	350.89	13.88	-38.2	-39.2	22.3	0.00e+00	71	29	0	732954624	48	6611
2026-01-14 20:09:32.84	350.69	13.85	-38.3	-39.3	22.3	0.00e+00	0	29	0	735051776	48	6679
2026-01-14 20:09:33.85	350.49	13.83	-38.5	-39.5	22.2	0.00e+00	0	29	0	736100352	48	6841
2026-01-14 20:09:34.86	350.29	13.80	-38.4	-39.4	22.2	0.00e+00	0	29	0	738197504	48	6760
2026-01-14 20:09:35.87	350.10	13.77	-38.3	-39.4	22.4	0.00e+00	0	29	0	740294656	48	6739
2026-01-14 20:09:36.88	349.90	13.74	-38.4	-39.5	22.2	0.00e+00	49	29	0	742391808	48	6781
2026-01-14 20:09:37.89	349.71	13.71	-38.3	-39.4	22.4	0.00e+00	0	29	0	744488960	48	6710
2026-01-14 20:09:38.90	349.51	13.68	-38.4	-39.4	22.3	0.00e+00	90	29	0	745537536	48	6758
2026-01-14 20:09:39.91	349.32	13.65	-38.5	-39.6	22.2	0.00e+00	0	29	0	747634688	48	6861
2026-01-14 20:09:40.91	349.12	13.62	-38.4	-39.5	22.2	0.00e+00	0	29	0	749731840	48	6818
2026-01-14 20:09:41.92	348.93	13.59	-38.0	-39.0	22.5	0.00e+00	0	29	0	751828992	48	6436
2026-01-14 20:09:42.93	348.74	13.55	-38.0	-39.0	22.7	0.00e+00	0	29	0	753926144	48	6410
2026-01-14 20:09:43.94	348.54	13.52	-37.8	-38.8	22.8	0.00e+00	52	29	0	754974720	48	6294
2026-01-14 20:09:44.95	348.35	13.49	-37.9	-38.9	22.7	0.00e+00	0	29	0	757071872	48	6375
2026-01-14 20:09:45.96	348.16	13.46	-37.9	-38.9	22.6	0.00e+00	74	29	0	759169024	48	6354
2026-01-14 20:09:46.96	347.97	13.43	-37.8	-38.8	22.7	0.00e+00	0	29	0	761266176	48	6302
2026-01-14 20:09:47.97	347.78	13.39	-38.1	-39.1	22.6	0.00e+00	0	29	0	763363328	48	6495
2026-01-14 20:09:48.98	347.58	13.36	-38.0	-39.0	22.5	0.00e+00	0	29	0	764411904	48	6443
2026-01-14 20:09:49.99	347.39	13.33	-38.2	-39.2	22.5	0.00e+00	0	29	0	766509056	48	6562
2026-01-14 20:09:51.00	347.20	13.29	-38.2	-39.2	22.3	0.00e+00	0	29	0	768606208	48	6583
2026-01-14 20:09:52.01	347.01	13.26	-38.2	-39.2	22.4	0.00e+00	0	29	0	770703360	48	6563
2026-01-14 20:09:53.02	346.82	13.22	-37.5	-38.5	23.0	0.00e+00	80	29	0	772800512	48	6044
2026-01-14 20:09:54.03	346.64	13.19	-37.3	-38.2	23.2	0.00e+00	0	29	0	773849088	48	5888
2026-01-14 20:09:55.04	346.45	13.16	-36.8	-37.7	23.5	0.00e+00	0	29	0	775946240	48	5517
2026-01-14 20:09:56.05	346.26	13.12	-36.8	-37.7	23.6	0.00e+00	0	29	0	778043392	46	6178
2026-01-14 20:09:57.05	346.07	13.09	-36.7	-37.6	23.6	0.00e+00	0	29	0	780140544	46	6137
2026-01-14 20:09:58.06	345.89	13.05	-36.7	-37.5	23.6	0.00e+00	9	29	0	782237696	46	6096
2026-01-14 20:09:59.07	345.70	13.01	-37.0	-37.9	23.0	0.00e+00	0	29	0	783286272	46	6332
2026-01-14 20:10:00.08	345.51	12.98	-37.2	-38.1	23.3	0.00e+00	76	29	0	785383424	46	6480
2026-01-14 20:10:01.09	345.33	12.94	-37.3	-38.2	23.2	0.00e+00	0	29	0	787480576	46	6613
2026-01-14 20:10:02.10	345.14	12.91	-37.7	-38.6	22.8	0.00e+00	60	29	0	789577728	46	6911
2026-01-14 20:10:03.11	344.96	12.87	-37.7	-38.7	22.6	0.00e+00	0	29	0	791674880	48	6223
2026-01-14 20:10:04.12	344.77	12.83	-37.7	-38.7	22.7	0.00e+00	0	29	0	792723456	48	6237
2026-01-14 20:10:05.13	344.59	12.80	-37.9	-38.9	22.6	0.00e+00	0	29	0	794820608	48	6385
2026-01-14 20:10:06.14	344.41	12.76	-38.2	-39.3	22.3	0.00e+00	0	29	0	796917760	48	6666
2026-01-14 20:10:07.15	344.22	12.72	-38.2	-39.3	22.3	0.00e+00	92	29	0	799014912	48	6644
2026-01-14 20:10:08.16	344.04	12.68	-38.6	-39.7	21.9	0.00e+00	0	29	0	801112064	50	6213
2026-01-14 20:10:09.17	343.86	12.64	-38.7	-39.8	21.9	0.00e+00	92	29	0	802160640	50	6272
2026-01-14 20:10:10.18	343.68	12.61	-38.8	-39.9	21.7	0.00e+00	0	29	0	804257792	50	6368
2026-01-14 20:10:11.19	343.50	12.57	-38.9	-40.1	21.6	0.00e+00	0	29	0	806354944	50	6507
2026-01-14 20:10:12.20	343.32	12.53	-38.8	-39.9	21.8	0.00e+00	0	29	0	808452096	50	6386
2026-01-14 20:10:13.20	343.14	12.49	-38.7	-39.8	21.9	0.00e+00	0	29	0	810549248	50	6250
2026-01-14 20:10:14.21	342.96	12.45	-38.7	-39.8	21.9	0.00e+00	36	29	0	811597824	50	6292
2026-01-14 20:10:15.22	342.78	12.41	-38.6	-39.7	21.9	0.00e+00	0	29	0	813694976	50	6185
2026-01-14 20:10:16.23	342.60	12.37	-38.5	-39.6	22.0	0.00e+00	92	29	0	815792128	50	6142
2026-01-14 20:10:17.24	342.42	12.33	-38.6	-39.6	21.9	0.00e+00	0	29	0	817889280	50	6172
2026-01-14 20:10:18.25	342.25	12.29	-38.7	-39.8	21.8	0.00e+00	0	29	0	819986432	50	6247
2026-01-14 20:10:19.26	342.07	12.25	-38.8	-39.9	21.8	0.00e+00	0	29	0	822083584	50	6337
2026-01-14 20:10:20.27	341.89	12.21	-38.5	-39.6	22.0	0.00e+00	0	29	0	823132160	50	6159
2026-01-14 20:10:21.28	341.72	12.17	-38.9	-40.1	21.7	0.00e+00	53	29	0	825229312	50	6492
2026-01-14 20:10:22.29	341.54	12.13	-38.8	-39.9	21.8	0.00e+00	0	29	0	827326464	50	6367
2026-01-14 20:10:23.30	341.37	12.09	-38.8	-39.9	21.8	0.00e+00	49	29	0	829423616	50	6384
2026-01-14 20:10:24.31	341.19	12.05	-38.8	-39.9	21.9	0.00e+00	0	29	0	831520768	50	6335
2026-01-14 20:10:25.32	341.02	12.01	-38.9	-40.0	21.7	0.00e+00	9	29	0	832569344	50	6432
2026-01-14 20:10:26.32	340.85	11.97	-38.8	-39.9	21.7	0.00e+00	0	29	0	834666496	50	6387
2026-01-14 20:10:27.33	340.67	11.92	-38.6	-39.7	21.9	0.00e+00	0	29	0	836763648	50	6215
2026-01-14 20:10:28.34	340.50	11.88	-39.0	-40.2	21.6	0.00e+00	19	29	0	838860800	50	6554
2026-01-14 20:10:29.35	340.33	11.84	-38.9	-40.0	21.7	0.00e+00	0	29	0	840957952	50	6440
2026-01-14 20:10:30.36	340.16	11.80	-39.1	-40.2	21.5	0.00e+00	92	29	0	842006528	50	6592
2026-01-14 20:10:31.37	339.98	11.76	-39.1	-40.2	21.6	0.00e+00	0	29	0	844103680	50	6564
2026-01-14 20:10:32.38	339.81	11.71	-39.0	-40.1	21.8	0.00e+00	0	29	0	846200832	50	6536
2026-01-14 20:10:33.39	339.64	11.67	-38.7	-39.7	21.9	0.00e+00	0	29	0	848297984	50	6232
2026-01-14 20:10:34.40	339.47	11.63	-38.4	-39.4	22.2	0.00e+00	33	29	0	850395136	50	6006
2026-01-14 20:10:35.41	339.31	11.58	-38.3	-39.3	22.3	0.00e+00	50	29	0	851443712	50	5951
2026-01-14 20:10:36.42	339.14	11.54	-38.3	-39.3	22.4	0.00e+00	0	29	0	853540864	50	5919
2026-01-14 20:10:37.43	338.97	11.50	-38.2	-39.3	22.1	0.00e+00	92	29	0	855638016	50	5904
2026-01-14 20:10:38.44	338.80	11.45	-38.2	-39.2	22.4	0.00e+00	0	29	0	857735168	50	5876
2026-01-14 20:10:39.45	338.63	11.41	-38.5	-39.5	22.1	0.00e+00	92	29	0	859832320	50	6084
2026-01-14 20:10:40.45	338.47	11.37	-38.8	-39.9	21.8	0.00e+00	33	29	0	860880896	50	6374
2026-01-14 20:10:41.46	338.30	11.32	-39.2	-40.3	21.4	0.00e+00	0	29	0	862978048	50	6692
2026-01-14 20:10:42.47	338.14	11.28	-39.5	-40.8	21.0	0.00e+00	0	29	0	865075200	50	7027
2026-01-14 20:10:43.48	337.97	11.23	-39.8	-41.1	20.7	0.00e+00	0	29	0	867172352	52	6514
2026-01-14 20:10:44.48	337.81	11.19	-40.0	-41.3	20.6	0.00e+00	66	29	0	869269504	52	6632
2026-01-14 20:10:45.49	337.65	11.14	-39.9	-41.2	20.5	0.00e+00	0	29	0	870318080	52	6568
2026-01-14 20:10:46.50	337.48	11.10	-40.2	-41.5	20.4	0.00e+00	92	29	0	872415232	52	6787
2026-01-14 20:10:47.51	337.32	11.05	-39.8	-41.1	20.7	0.00e+00	0	29	0	874512384	52	6492
2026-01-14 20:10:48.51	337.16	11.01	-39.8	-41.0	20.8	0.00e+00	0	29	0	876609536	52	6402
2026-01-14 20:10:49.52	337.00	10.96	-39.8	-41.1	20.8	0.00e+00	0	29	0	878706688	52	6474
2026-01-14 20:10:50.52	336.84	10.92	-39.7	-40.9	20.9	0.00e+00	0	29	0	879755264	52	6373
2026-01-14 20:10:51.53	336.68	10.87	-39.2	-40.4	21.3	0.00e+00	29	29	0	881852416	52	5981
2026-01-14 20:10:52.54	336.52	10.83	-39.4	-40.6	21.2	0.00e+00	0	29	0	883949568	52	6112
2026-01-14 20:10:53.55	336.36	10.78	-39.8	-41.1	20.7	0.00e+00	92	29	0	886046720	52	6467
2026-01-14 20:10:54.56	336.20	10.74	-40.3	-41.6	20.2	0.00e+00	0	29	0	888143872	52	6886
2026-01-14 20:10:55.57	336.04	10.69	-40.8	-42.2	19.6	0.00e+00	10	29	0	889192448	54	6599
2026-01-14 20:10:56.58	335.88	10.64	-41.4	-43.0	18.9	0.00e+00	0	29	0	891289600	54	7251
2026-01-14 20:10:57.59	335.72	10.60	-42.1	-43.8	18.2	0.00e+00	0	29	0	893386752	56	7074
2026-01-14 20:10:58.60	335.56	10.55	-42.0	-43.8	18.1	0.00e+00	0	29	0	895483904	56	7030
2026-01-14 20:10:59.61	335.41	10.50	-42.4	-44.2	17.8	0.00e+00	0	29	0	897581056	56	7408
2026-01-14 20:11:00.62	335.25	10.46	-42.5	-44.4	17.7	0.00e+00	92	29	0	898629632	56	7524
2026-01-14 20:11:01.63	335.09	10.41	-42.0	-43.7	18.3	0.00e+00	0	29	0	900726784	56	6961
2026-01-14 20:11:02.63	334.94	10.36	-41.8	-43.5	18.6	0.00e+00	36	29	0	902823936	56	6807
2026-01-14 20:11:03.64	334.79	10.32	-41.7	-43.3	18.7	0.00e+00	0	29	0	904921088	56	6678
2026-01-14 20:11:04.65	334.63	10.27	-42.0	-43.7	18.4	0.00e+00	0	29	0	907018240	56	7003
2026-01-14 20:11:05.66	334.48	10.22	-41.7	-43.3	18.7	0.00e+00	0	29	0	908066816	56	6686
2026-01-14 20:11:06.67	334.32	10.18	-42.0	-43.7	18.4	0.00e+00	0	29	0	910163968	56	6980
2026-01-14 20:11:07.68	334.17	10.13	-41.4	-42.9	19.1	0.00e+00	50	29	0	912261120	56	6348
2026-01-14 20:11:08.69	334.02	10.08	-41.4	-42.9	19.1	0.00e+00	0	29	0	914358272	56	6386
2026-01-14 20:11:09.70	333.87	10.03	-41.2	-42.7	19.2	0.00e+00	86	29	0	916455424	56	6181
2026-01-14 20:11:10.71	333.72	9.98	-41.1	-42.6	19.3	0.00e+00	0	29	0	918552576	56	6122
2026-01-14 20:11:11.72	333.56	9.94	-40.9	-42.3	19.6	0.00e+00	0	29	0	919601152	56	5952
2026-01-14 20:11:12.72	333.42	9.89	-40.8	-42.2	19.6	0.00e+00	0	29	0	921698304	56	5893
2026-01-14 20:11:13.73	333.27	9.84	-40.5	-41.8	20.0	0.00e+00	0	29	0	923795456	54	6308
2026-01-14 20:11:14.74	333.12	9.79	-40.3	-41.7	20.1	0.00e+00	83	29	0	925892608	54	6176
2026-01-14 20:11:15.75	332.97	9.74	-40.4	-41.8	20.1	0.00e+00	0	29	0	927989760	54	6255
2026-01-14 20:11:16.76	332.82	9.70	-40.3	-41.6	20.1	0.00e+00	46	29	0	929038336	54	6160
2026-01-14 20:11:17.77	332.67	9.65	-40.4	-41.8	20.2	7.00e-07	0	29	0	931135488	54	6261
2026-01-14 20:11:18.78	332.52	9.60	-40.7	-42.1	19.8	0.00e+00	0	29	0	933232640	54	6506
2026-01-14 20:11:19.79	332.38	9.55	-40.5	-41.9	19.9	0.00e+00	0	29	0	935329792	54	6318
2026-01-14 20:11:20.80	332.23	9.50	-40.3	-41.6	20.1	0.00e+00	0	29	0	937426944	54	6170
2026-01-14 20:11:21.81	332.09	9.45	-40.0	-41.2	20.5	0.00e+00	50	29	0	938475520	54	5891
2026-01-14 20:11:22.82	331.94	9.40	-39.8	-41.0	20.6	0.00e+00	0	29	0	940572672	54	5742
2026-01-14 20:11:23.83	331.80	9.35	-39.7	-40.9	20.9	0.00e+00	90	29	0	942669824	52	6348
2026-01-14 20:11:24.83	331.65	9.31	-39.7	-40.9	20.9	0.00e+00	0	29	0	944766976	52	6346
2026-01-14 20:11:25.84	331.51	9.26	-39.7	-40.9	20.9	0.00e+00	0	29	0	946864128	52	6379
2026-01-14 20:11:26.86	331.36	9.21	-39.5	-40.7	21.0	0.00e+00	0	29	0	947912704	52	6207
2026-01-14 20:11:27.86	331.22	9.16	-39.5	-40.6	21.0	0.00e+00	0	29	0	950009856	52	6150
2026-01-14 20:11:28.87	331.08	9.11	-39.5	-40.6	21.0	0.00e+00	25	29	0	952107008	52	6172
2026-01-14 20:11:29.88	330.94	9.06	-39.6	-40.8	21.0	0.00e+00	0	29	0	954204160	52	6253
2026-01-14 20:11:30.89	330.80	9.01	-39.5	-40.7	21.0	0.00e+00	76	29	0	956301312	52	6186
2026-01-14 20:11:31.90	330.66	8.96	-39.7	-40.9	20.9	0.00e+00	0	29	0	957349888	52	6336
2026-01-14 20:11:32.91	330.52	8.91	-39.8	-41.0	20.6	0.00e+00	19	29	0	959447040	52	6416
2026-01-14 20:11:33.92	330.38	8.86	-39.8	-41.1	20.7	0.00e+00	0	29	0	961544192	52	6474
2026-01-14 20:11:34.93	330.24	8.81	-39.9	-41.2	20.6	0.00e+00	0	29	0	963641344	52	6558
2026-01-14 20:11:35.94	330.10	8.76	-39.9	-41.2	20.5	0.00e+00	49	29	0	965738496	52	6572
2026-01-14 20:11:36.94	329.96	8.71	-40.0	-41.3	20.4	0.00e+00	0	29	0	966787072	52	6664
2026-01-14 20:11:37.95	329.82	8.66	-40.2	-41.5	20.3	0.00e+00	91	29	0	968884224	52	6806
2026-01-14 20:11:38.96	329.69	8.61	-40.2	-41.5	20.3	0.00e+00	0	29	0	970981376	52	6821
2026-01-14 20:11:39.97	329.55	8.56	-40.1	-41.4	20.3	0.00e+00	80	29	0	973078528	52	6766
2026-01-14 20:11:40.98	329.41	8.51	-40.3	-41.6	20.1	0.00e+00	0	29	0	975175680	52	6882
2026-01-14 20:11:41.99	329.28	8.46	-40.2	-41.5	20.2	0.00e+00	0	29	0	976224256	52	6826
2026-01-14 20:11:43.00	329.14	8.41	-40.2	-41.5	20.2	0.00e+00	0	29	0	978321408	52	6787
2026-01-14 20:11:44.00	329.01	8.36	-40.1	-41.3	20.2	0.00e+00	0	29	0	980418560	52	6677
2026-01-14 20:11:45.01	328.87	8.31	-39.9	-41.2	20.3	0.00e+00	42	29	0	982515712	52	6580
2026-01-14 20:11:46.02	328.74	8.26	-39.9	-41.2	20.6	0.00e+00	0	29	0	984612864	52	6552
2026-01-14 20:11:47.03	328.60	8.21	-39.8	-41.0	20.6	0.00e+00	92	29	0	986710016	52	6431
2026-01-14 20:11:48.04	328.47	8.16	-39.9	-41.1	20.6	0.00e+00	0	29	0	987758592	52	6525
2026-01-14 20:11:49.04	328.34	8.11	-39.9	-41.2	20.5	0.00e+00	0	29	0	989855744	52	6568
2026-01-14 20:11:50.05	328.21	8.06	-39.7	-41.0	20.7	0.00e+00	0	29	0	991952896	52	6396
2026-01-14 20:11:51.06	328.08	8.01	-39.7	-41.0	20.8	0.00e+00	0	29	0	994050048	52	6391
2026-01-14 20:11:52.07	327.95	7.96	-39.5	-40.7	20.8	0.00e+00	41	29	0	995098624	52	6208
2026-01-14 20:11:53.08	327.81	7.91	-39.5	-40.7	21.0	0.00e+00	0	29	0	997195776	52	6197
2026-01-14 20:11:54.09	327.68	7.86	-39.2	-40.4	21.3	0.00e+00	92	29	0	999292928	52	5968
2026-01-14 20:11:55.10	327.55	7.81	-38.9	-40.1	21.5	0.00e+00	0	29	0	1001390080	52	5771
2026-01-14 20:11:56.11	327.42	7.76	-38.7	-39.8	21.6	0.00e+00	0	29	0	1003487232	50	6273
2026-01-14 20:11:57.12	327.30	7.70	-38.6	-39.7	21.8	0.00e+00	0	29	0	1004535808	50	6196
2026-01-14 20:11:58.12	327.17	7.65	-38.6	-39.7	21.8	0.00e+00	0	29	0	1006632960	50	6184
2026-01-14 20:11:59.13	327.04	7.60	-38.5	-39.5	21.9	0.00e+00	51	29	0	1008730112	50	6075
2026-01-14 20:12:00.14	326.91	7.55	-38.5	-39.6	21.9	0.00e+00	0	29	0	1010827264	50	6123
2026-01-14 20:12:01.15	326.79	7.50	-38.5	-39.5	21.9	0.00e+00	73	29	0	1012924416	50	6085
2026-01-14 20:12:02.16	326.66	7.45	-38.6	-39.7	21.8	0.00e+00	0	29	0	1015021568	50	6185
2026-01-14 20:12:03.17	326.53	7.40	-38.9	-40.0	21.5	0.00e+00	20	29	0	1016070144	50	6408
2026-01-14 20:12:04.18	326.41	7.35	-38.8	-39.9	21.6	0.00e+00	0	29	0	1018167296	50	6388
2026-01-14 20:12:05.19	326.28	7.30	-39.1	-40.3	21.2	0.00e+00	0	29	0	1020264448	50	6657
2026-01-14 20:12:06.20	326.16	7.25	-39.0	-40.1	21.4	0.00e+00	51	29	0	1022361600	50	6507
2026-01-14 20:12:07.20	326.03	7.19	-39.2	-40.4	21.2	0.00e+00	0	29	0	1024458752	50	6720
2026-01-14 20:12:08.21	325.91	7.14	-39.0	-40.1	21.3	0.00e+00	87	29	0	1025507328	50	6509
2026-01-14 20:12:09.22	325.79	7.09	-38.9	-40.0	21.5	0.00e+00	0	29	0	1027604480	50	6456
2026-01-14 20:12:10.22	325.66	7.04	-38.6	-39.7	21.8	0.00e+00	92	29	0	1029701632	50	6208
2026-01-14 20:12:11.23	325.54	6.99	-38.5	-39.5	21.9	0.00e+00	0	29	0	1031798784	50	6091
2026-01-14 20:12:12.24	325.42	6.94	-38.5	-39.6	21.8	0.00e+00	0	29	0	1033895936	50	6137
2026-01-14 20:12:13.25	325.30	6.89	-38.4	-39.5	21.9	0.00e+00	0	29	0	1034944512	50	6057
2026-01-14 20:12:14.26	325.18	6.84	-38.6	-39.7	21.6	0.00e+00	0	29	0	1037041664	50	6206
2026-01-14 20:12:15.27	325.06	6.78	-38.8	-39.9	21.6	0.00e+00	90	29	0	1039138816	50	6383
2026-01-14 20:12:16.28	324.94	6.73	-38.8	-39.9	21.6	0.00e+00	0	29	0	1041235968	50	6339
2026-01-14 20:12:17.29	324.82	6.68	-38.9	-40.0	21.4	0.00e+00	75	29	0	1043333120	50	6445
2026-01-14 20:12:18.30	324.70	6.63	-39.0	-40.2	21.3	0.00e+00	0	29	0	1044381696	50	6549
2026-01-14 20:12:19.31	324.58	6.58	-39.2	-40.4	21.1	0.00e+00	0	29	0	1046478848	50	6750
2026-01-14 20:12:20.32	324.46	6.53	-39.2	-40.4	21.1	0.00e+00	0	29	0	1048576000	50	6707
2026-01-14 20:12:21.33	324.34	6.48	-39.3	-40.6	20.9	0.00e+00	0	29	0	1050673152	50	6849
2026-01-14 20:12:22.34	324.22	6.42	-39.2	-40.4	21.1	0.00e+00	16	29	0	1052770304	50	6744
2026-01-14 20:12:23.34	324.11	6.37	-39.3	-40.5	21.0	0.00e+00	0	29	0	1053818880	50	6787
2026-01-14 20:12:24.35	323.99	6.32	-39.5	-40.7	20.8	0.00e+00	91	29	0	1055916032	50	6954
2026-01-14 20:12:25.36	323.87	6.27	-39.5	-40.7	20.9	0.00e+00	0	29	0	1058013184	50	6946
2026-01-14 20:12:26.37	323.76	6.22	-39.5	-40.7	20.7	0.00e+00	0	29	0	1060110336	50	6961
2026-01-14 20:12:27.38	323.64	6.17	-39.4	-40.6	20.8	0.00e+00	0	29	0	1062207488	50	6902
2026-01-14 20:12:28.39	323.52	6.12	-39.4	-40.7	20.8	0.00e+00	0	29	0	1063256064	50	6936
2026-01-14 20:12:29.40	323.41	6.06	-39.5	-40.7	20.8	0.00e+00	57	29	0	1065353216	50	6991
2026-01-14 20:12:30.41	323.30	6.01	-39.6	-40.9	20.6	0.00e+00	0	29	0	1067450368	50	7092
2026-01-14 20:12:31.42	323.18	5.96	-39.7	-41.0	20.5	0.00e+00	92	29	0	1069547520	50	7186
2026-01-14 20:12:32.43	323.07	5.91	-39.6	-40.8	20.7	0.00e+00	0	29	0	1071644672	50	7050
2026-01-14 20:12:33.44	322.95	5.86	-39.7	-41.0	20.4	0.00e+00	0	29	0	1072693248	52	6407
2026-01-14 20:12:34.45	322.84	5.81	-39.7	-40.9	20.4	0.00e+00	0	29	0	1074790400	52	6355
2026-01-14 20:12:35.45	322.73	5.76	-39.6	-40.8	20.5	0.00e+00	0	29	0	1076887552	52	6278
2026-01-14 20:12:36.46	322.62	5.70	-39.8	-41.0	20.4	0.00e+00	50	29	0	1078984704	52	6461
2026-01-14 20:12:37.47	322.51	5.65	-39.4	-40.6	20.6	0.00e+00	33	29	0	1081081856	52	6166
2026-01-14 20:12:38.48	322.40	5.60	-39.2	-40.4	20.9	0.00e+00	86	29	0	1083179008	52	5989
2026-01-14 20:12:39.49	322.28	5.55	-39.1	-40.3	21.0	0.00e+00	0	29	0	1084227584	52	5914
2026-01-14 20:12:40.50	322.17	5.50	-39.0	-40.1	21.0	0.00e+00	92	29	0	1086324736	52	5808
2026-01-14 20:12:41.50	322.07	5.45	-38.9	-40.1	20.8	0.00e+00	0	29	0	1088421888	52	5782
2026-01-14 20:12:42.51	321.96	5.40	-38.9	-40.0	21.0	0.00e+00	0	29	0	1090519040	50	6461
2026-01-14 20:12:43.52	321.85	5.34	-39.0	-40.1	21.1	0.00e+00	0	29	0	1091567616	50	6531
2026-01-14 20:12:44.54	321.74	5.29	-38.7	-39.8	21.4	0.00e+00	0	29	0	1093664768	50	6272
2026-01-14 20:12:45.54	321.63	5.24	-38.9	-40.0	21.2	0.00e+00	92	29	0	1095761920	50	6454
2026-01-14 20:12:46.55	321.52	5.19	-39.0	-40.1	21.2	0.00e+00	0	29	0	1097859072	50	6504
2026-01-14 20:12:47.56	321.41	5.14	-39.0	-40.2	21.1	0.00e+00	91	29	0	1099956224	50	6566
2026-01-14 20:12:48.57	321.31	5.09	-39.1	-40.2	21.1	0.00e+00	0	29	0	1101004800	50	6590
2026-01-14 20:12:49.58	321.20	5.03	-39.4	-40.6	20.7	0.00e+00	0	29	0	1103101952	50	6908
2026-01-14 20:12:50.59	321.09	4.98	-39.4	-40.7	20.6	0.00e+00	0	29	0	1105199104	50	6933
2026-01-14 20:12:51.59	320.99	4.93	-39.6	-40.8	20.5	0.00e+00	0	29	0	1107296256	50	7064
2026-01-14 20:12:52.61	320.88	4.88	-39.9	-41.2	20.1	0.00e+00	49	29	0	1109393408	52	6567
2026-01-14 20:12:53.61	320.78	4.83	-39.9	-41.3	20.1	0.00e+00	33	29	0	1111490560	52	6624
2026-01-14 20:12:54.62	320.67	4.78	-40.2	-41.6	19.8	0.00e+00	70	29	0	1112539136	52	6910
2026-01-14 20:12:55.63	320.57	4.73	-40.3	-41.8	19.6	0.00e+00	0	29	0	1114636288	52	7013
2026-01-14 20:12:56.64	320.46	4.67	-40.3	-41.6	19.8	0.00e+00	0	29	0	1116733440	52	6919
2026-01-14 20:12:57.65	320.36	4.62	-40.4	-41.8	19.6	0.00e+00	0	29	0	1118830592	52	7079
2026-01-14 20:12:58.66	320.26	4.57	-40.2	-41.6	19.9	0.00e+00	0	29	0	1120927744	52	6880
2026-01-14 20:12:59.67	320.15	4.52	-40.0	-41.3	20.1	0.00e+00	48	29	0	1121976320	52	6648
2026-01-14 20:13:00.68	320.05	4.47	-39.7	-41.0	20.4	0.00e+00	0	29	0	1124073472	52	6444
2026-01-14 20:13:01.69	319.95	4.42	-39.9	-41.3	20.1	0.00e+00	61	29	0	1126170624	52	6619
2026-01-14 20:13:02.70	319.85	4.37	-39.7	-41.0	20.3	0.00e+00	0	29	0	1128267776	52	6425
2026-01-14 20:13:03.71	319.75	4.31	-40.1	-41.5	20.0	0.00e+00	0	29	0	1130364928	52	6800
2026-01-14 20:13:04.72	319.64	4.26	-39.8	-41.1	20.2	0.00e+00	0	29	0	1131413504	52	6504
2026-01-14 20:13:05.72	319.54	4.21	-39.6	-40.8	20.6	0.00e+00	0	29	0	1133510656	52	6293
2026-01-14 20:13:06.73	319.44	4.16	-39.8	-41.1	20.2	0.00e+00	47	29	0	1135607808	52	6485
2026-01-14 20:13:07.74	319.34	4.11	-39.2	-40.4	20.8	0.00e+00	0	29	0	1137704960	52	6031
2026-01-14 20:13:08.75	319.24	4.06	-39.2	-40.4	20.7	0.00e+00	58	29	0	1139802112	52	5978
2026-01-14 20:13:09.76	319.14	4.01	-39.2	-40.4	20.8	0.00e+00	0	29	0	1140850688	52	6005
2026-01-14 20:13:10.76	319.05	3.96	-39.2	-40.4	20.9	0.00e+00	53	29	0	1142947840	52	6019
2026-01-14 20:13:11.78	318.95	3.90	-39.2	-40.4	20.8	0.00e+00	0	29	0	1145044992	52	6024
2026-01-14 20:13:12.78	318.85	3.85	-39.3	-40.5	20.7	0.00e+00	0	29	0	1147142144	52	6076
2026-01-14 20:13:13.79	318.75	3.80	-39.6	-40.9	20.3	0.00e+00	0	29	0	1149239296	52	6347
2026-01-14 20:13:14.80	318.65	3.75	-39.5	-40.8	20.3	0.00e+00	0	29	0	1150287872	52	6283
2026-01-14 20:13:15.81	318.56	3.70	-39.8	-41.1	20.1	0.00e+00	61	29	0	1152385024	52	6504
2026-01-14 20:13:16.82	318.46	3.65	-39.9	-41.2	19.9	0.00e+00	0	29	0	1154482176	52	6582
2026-01-14 20:13:17.83	318.36	3.60	-40.1	-41.5	19.7	0.00e+00	92	29	0	1156579328	52	6802
2026-01-14 20:13:18.84	318.27	3.55	-40.2	-41.7	19.5	0.00e+00	0	29	0	1158676480	52	6929
2026-01-14 20:13:19.85	318.17	3.50	-40.3	-41.8	19.4	0.00e+00	0	29	0	1159725056	52	7022
2026-01-14 20:13:20.86	318.08	3.44	-40.6	-42.2	19.1	0.00e+00	0	29	0	1161822208	52	7344
2026-01-14 20:13:21.87	317.98	3.39	-40.9	-42.5	18.9	0.00e+00	0	29	0	1163919360	54	6810
2026-01-14 20:13:22.88	317.89	3.34	-40.7	-42.3	18.9	0.00e+00	87	29	0	1166016512	54	6639
2026-01-14 20:13:23.88	317.79	3.29	-41.0	-42.7	18.5	0.00e+00	0	29	0	1168113664	54	6932
2026-01-14 20:13:24.89	317.70	3.24	-41.1	-42.7	18.3	0.00e+00	92	29	0	1169162240	54	7007
2026-01-14 20:13:25.90	317.60	3.19	-41.3	-43.0	18.2	0.00e+00	0	29	0	1171259392	54	7216
2026-01-14 20:13:26.90	317.51	3.14	-41.1	-42.8	18.4	0.00e+00	0	29	0	1173356544	54	7065
2026-01-14 20:13:27.91	317.42	3.09	-41.2	-42.9	18.2	0.00e+00	0	29	0	1175453696	54	7108
2026-01-14 20:13:28.92	317.33	3.04	-41.1	-42.8	18.5	0.00e+00	0	29	0	1177550848	54	7053
2026-01-14 20:13:29.93	317.23	2.99	-47.5	-62.7	3.5	7.50e-01	0	29	104	1178599424	60	49069
2026-01-14 20:13:30.94	317.14	2.94	-48.1	-63.3	3.6	1.51e+00	0	29	104	1178599424	60	52713
2026-01-14 20:13:31.95	317.05	2.88	-48.4	-63.6	3.6	1.51e+00	0	29	104	1178599424	60	54944
2026-01-14 20:13:32.96	316.96	2.83	-48.7	-63.8	3.6	1.51e+00	0	29	104	1178599424	60	55962
2026-01-14 20:13:33.97	316.87	2.78	-48.8	-63.9	3.6	1.51e+00	0	29	104	1178599424	60	56949
2026-01-14 20:13:34.98	316.78	2.73	-48.8	-64.0	3.6	1.51e+00	0	29	104	1178599424	60	57367
2026-01-14 20:13:35.99	316.69	2.68	-48.9	-64.1	3.6	1.51e+00	0	29	104	1178599424	60	57744
2026-01-14 20:13:37.00	316.60	2.63	-48.9	-64.1	3.6	1.51e+00	0	29	104	1178599424	60	57748
2026-01-14 20:13:38.01	316.51	2.58	-48.9	-64.1	3.6	1.51e+00	0	29	104	1178599424	60	57707
2026-01-14 20:13:39.02	316.42	2.53	-48.9	-64.1	3.6	1.51e+00	0	29	104	1178599424	60	57880
