passes_logs/2026/01/14/R4.6S_Anadyr/R4.6S_Anadyr__20260114_120314_NOAA_20_JPSS-1_rec.log

#Pass ID: 20260114_120314_NOAA 20 (JPSS-1)
#Satellite: NOAA 20 (JPSS-1)
#Configuration: NOAA 20
#almurnet v.1.7.20251203
#Start time: 2026-01-14 12:03:17

#Version: 2.2.20231116
#Station: R4.6S_Anadyr
#Location: 177.4865 lon 64.73178 lat
#TLE: 1 43013U 17073A   26013.84982170  .00000053  00000+0  46215-4 0  9999
#TLE: 2 43013  98.7633 314.8013 0001544  40.9009 319.2282 14.19535753422575

#Time	Az	El	Level	Level2	SNR	BER	BlckErr	Temp	State	Recorded	gain1	gain2
2026-01-14 12:03:17.81	19.73	0.15	-48.6	-62.3	3.3	1.54e+00	0	27	0	0	60	47278
2026-01-14 12:03:18.82	19.81	0.20	-48.7	-63.9	3.6	1.51e+00	0	27	104	0	60	56492
2026-01-14 12:03:19.83	19.89	0.24	-48.7	-63.9	3.6	1.51e+00	0	27	104	0	60	56598
2026-01-14 12:03:20.84	19.98	0.29	-48.8	-63.9	3.6	1.51e+00	0	27	104	0	60	56813
2026-01-14 12:03:21.84	20.06	0.34	-48.8	-64.0	3.6	1.51e+00	0	27	104	0	60	57077
2026-01-14 12:03:22.85	20.15	0.38	-48.7	-63.9	3.6	1.51e+00	0	27	104	0	60	56839
2026-01-14 12:03:23.86	20.23	0.43	-48.8	-64.0	3.6	1.51e+00	0	27	104	0	60	57101
2026-01-14 12:03:24.87	20.32	0.47	-48.8	-63.9	3.6	1.51e+00	0	27	104	0	60	56760
2026-01-14 12:03:25.88	20.40	0.52	-48.7	-63.9	3.6	1.51e+00	0	27	104	0	60	56790
2026-01-14 12:03:26.89	20.49	0.57	-48.6	-63.9	3.6	1.51e+00	0	27	104	0	60	56617
2026-01-14 12:03:27.90	20.58	0.61	-48.6	-63.8	3.6	1.51e+00	0	27	104	0	60	55855
2026-01-14 12:03:28.91	20.66	0.66	-48.5	-63.7	3.6	1.51e+00	0	28	104	0	60	55304
2026-01-14 12:03:29.92	20.75	0.71	-48.4	-63.6	3.6	1.51e+00	0	28	104	0	60	54604
2026-01-14 12:03:30.93	20.84	0.75	-48.3	-63.5	3.6	1.51e+00	0	28	104	0	60	53862
2026-01-14 12:03:31.94	20.92	0.80	-48.1	-63.3	3.6	1.51e+00	0	28	104	0	60	52989
2026-01-14 12:03:32.95	21.01	0.84	-47.9	-63.1	3.6	1.51e+00	0	28	104	0	60	51749
2026-01-14 12:03:33.95	21.10	0.89	-47.6	-62.8	3.6	1.51e+00	0	28	104	0	60	49700
2026-01-14 12:03:34.97	21.19	0.94	-47.1	-62.3	3.6	1.51e+00	0	28	104	0	60	47234
2026-01-14 12:03:35.97	21.27	0.98	-47.0	-62.2	3.6	1.51e+00	0	28	104	0	60	46510
2026-01-14 12:03:36.98	21.36	1.03	-47.0	-62.2	3.6	1.51e+00	0	28	104	0	60	46529
2026-01-14 12:03:37.99	21.45	1.08	-47.0	-62.2	3.6	1.51e+00	0	28	104	0	60	46394
2026-01-14 12:03:39.00	21.54	1.12	-47.0	-62.1	3.6	1.51e+00	0	28	104	0	60	46222
2026-01-14 12:03:40.01	21.63	1.17	-47.0	-62.2	3.6	1.51e+00	0	28	104	0	60	46344
2026-01-14 12:03:41.02	21.72	1.22	-47.0	-62.2	3.6	1.51e+00	0	28	104	0	60	46382
2026-01-14 12:03:42.03	21.81	1.26	-47.0	-62.1	3.6	1.51e+00	0	28	104	0	60	46204
2026-01-14 12:03:43.04	21.90	1.31	-47.0	-62.1	3.6	1.51e+00	0	28	104	0	60	46254
2026-01-14 12:03:44.05	21.99	1.36	-47.0	-62.1	3.6	1.51e+00	0	28	104	0	60	46141
2026-01-14 12:03:45.06	22.08	1.40	-47.0	-62.1	3.6	1.51e+00	0	28	104	0	60	46246
2026-01-14 12:03:46.07	22.17	1.45	-47.0	-62.1	3.6	1.51e+00	0	28	104	0	60	46135
2026-01-14 12:03:47.08	22.26	1.49	-47.0	-62.1	3.6	1.51e+00	0	28	104	0	60	46127
2026-01-14 12:03:48.09	22.35	1.54	-47.0	-62.1	3.6	1.51e+00	0	28	104	0	60	46271
2026-01-14 12:03:49.10	22.45	1.59	-47.0	-62.1	3.6	1.51e+00	0	28	104	0	60	46228
2026-01-14 12:03:50.11	22.54	1.63	-47.0	-62.2	3.6	1.51e+00	0	28	104	0	60	46356
2026-01-14 12:03:51.12	22.63	1.68	-47.0	-62.1	3.6	1.51e+00	0	28	104	0	60	46271
2026-01-14 12:03:52.13	22.72	1.73	-47.0	-62.1	3.6	1.51e+00	0	28	104	0	60	46171
2026-01-14 12:03:53.13	22.82	1.77	-46.9	-62.1	3.6	1.51e+00	0	28	104	0	60	46204
2026-01-14 12:03:54.15	22.91	1.82	-46.8	-62.1	3.6	1.51e+00	0	28	104	0	60	46211
2026-01-14 12:03:55.16	23.00	1.87	-46.8	-62.1	3.6	1.51e+00	0	28	104	0	60	46068
2026-01-14 12:03:56.16	23.10	1.91	-46.9	-62.1	3.6	1.51e+00	0	28	104	0	60	46098
2026-01-14 12:03:57.17	23.19	1.96	-46.9	-62.1	3.6	1.51e+00	0	28	104	0	60	46201
2026-01-14 12:03:58.18	23.28	2.01	-47.0	-62.0	3.6	1.51e+00	0	28	104	0	60	45741
2026-01-14 12:03:59.19	23.38	2.06	-47.0	-62.0	3.6	1.51e+00	0	28	104	0	60	45637
2026-01-14 12:04:00.20	23.47	2.10	-47.0	-62.0	3.6	1.51e+00	0	28	104	0	60	45711
2026-01-14 12:04:01.21	23.57	2.15	-47.0	-62.1	3.6	1.51e+00	0	28	104	0	60	45808
2026-01-14 12:04:02.22	23.66	2.20	-47.0	-62.1	3.5	1.51e+00	0	28	104	0	60	45962
2026-01-14 12:04:03.23	23.76	2.24	-47.0	-62.1	3.6	1.51e+00	0	28	104	0	60	46029
2026-01-14 12:04:04.24	23.85	2.29	-46.9	-62.0	3.6	1.51e+00	0	28	104	0	60	45749
2026-01-14 12:04:05.25	23.95	2.34	-47.0	-62.1	3.6	1.51e+00	0	28	104	0	60	46034
2026-01-14 12:04:06.26	24.05	2.38	-47.0	-62.1	3.6	1.51e+00	0	28	104	0	60	45989
2026-01-14 12:04:07.27	24.14	2.43	-46.9	-61.7	3.6	1.51e+00	0	28	104	0	60	43980
2026-01-14 12:04:08.28	24.24	2.48	-46.9	-61.1	3.6	1.51e+00	0	28	104	0	60	40976
2026-01-14 12:04:09.29	24.34	2.52	-46.9	-60.8	3.6	1.51e+00	0	28	104	0	60	39737
2026-01-14 12:04:10.30	24.44	2.57	-46.9	-61.1	3.6	1.51e+00	0	28	104	0	60	41094
2026-01-14 12:04:11.31	24.53	2.62	-46.8	-59.6	3.7	1.51e+00	0	28	104	0	60	34437
2026-01-14 12:04:12.32	24.63	2.67	-46.4	-54.8	6.5	1.15e+00	0	28	104	0	60	19833
2026-01-14 12:04:13.33	24.73	2.71	-45.3	-50.1	10.6	1.47e-02	90	28	0	1048576	60	11586
2026-01-14 12:04:14.34	24.83	2.76	-44.3	-47.9	13.4	2.25e-04	38	28	0	3145728	60	8964
2026-01-14 12:04:15.35	24.93	2.81	-43.0	-45.5	15.8	0.00e+00	40	28	0	5242880	60	6832
2026-01-14 12:04:16.36	25.03	2.85	-41.9	-44.0	17.2	0.00e+00	33	28	0	6291456	58	6408
2026-01-14 12:04:17.37	25.13	2.90	-41.9	-43.9	17.2	0.00e+00	42	28	0	8388608	56	7111
2026-01-14 12:04:18.38	25.23	2.95	-42.1	-44.2	16.9	0.00e+00	35	28	0	10485760	56	7407
2026-01-14 12:04:19.39	25.33	3.00	-42.8	-45.2	15.8	0.00e+00	5	28	0	12582912	58	7393
2026-01-14 12:04:20.40	25.43	3.04	-42.1	-44.2	17.1	0.00e+00	92	28	0	14680064	58	6555
2026-01-14 12:04:21.41	25.53	3.09	-44.1	-47.5	12.8	0.00e+00	6	28	0	15728640	58	9603
2026-01-14 12:04:22.41	25.63	3.14	-45.4	-50.8	5.6	1.45e+00	0	28	104	16777216	60	12557
2026-01-14 12:04:23.42	25.73	3.18	-43.3	-45.9	15.1	2.98e-02	45	28	104	16777216	60	7170
2026-01-14 12:04:24.43	25.83	3.23	-41.5	-43.2	16.9	0.00e+00	0	28	0	17825792	56	6612
2026-01-14 12:04:25.44	25.94	3.28	-45.4	-50.4	13.1	9.19e-01	6	28	104	18874368	60	11975
2026-01-14 12:04:26.45	26.04	3.33	-41.6	-43.3	17.9	0.00e+00	0	28	0	18874368	56	6688
2026-01-14 12:04:27.46	26.14	3.37	-40.9	-42.5	18.9	0.00e+00	92	28	0	20971520	56	6063
2026-01-14 12:04:28.47	26.25	3.42	-40.5	-42.1	19.2	0.00e+00	5	28	0	23068672	54	6473
2026-01-14 12:04:29.48	26.35	3.47	-40.6	-42.2	19.0	0.00e+00	90	28	0	25165824	54	6553
2026-01-14 12:04:30.49	26.45	3.51	-40.8	-42.4	18.9	0.00e+00	39	28	0	27262976	54	6711
2026-01-14 12:04:31.50	26.56	3.56	-40.8	-42.4	18.8	0.00e+00	39	28	0	28311552	54	6750
2026-01-14 12:04:32.51	26.66	3.61	-41.1	-42.7	18.8	0.00e+00	22	28	0	30408704	54	6965
2026-01-14 12:04:33.52	26.77	3.66	-41.0	-42.6	18.7	0.00e+00	5	28	0	32505856	54	6923
2026-01-14 12:04:34.52	26.87	3.70	-41.0	-42.7	18.8	0.00e+00	91	28	0	34603008	54	6949
2026-01-14 12:04:35.54	26.98	3.75	-40.8	-42.4	18.8	0.00e+00	32	28	0	36700160	54	6719
2026-01-14 12:04:36.55	27.08	3.80	-41.0	-42.6	18.8	0.00e+00	90	28	0	37748736	54	6876
2026-01-14 12:04:37.55	27.19	3.84	-40.8	-42.3	19.0	0.00e+00	40	28	0	39845888	54	6686
2026-01-14 12:04:38.56	27.29	3.89	-41.2	-42.9	18.5	0.00e+00	49	28	0	41943040	54	7114
2026-01-14 12:04:39.57	27.40	3.94	-41.0	-42.7	18.7	0.00e+00	37	28	0	44040192	54	6944
2026-01-14 12:04:40.58	27.51	3.99	-41.3	-43.1	18.6	0.00e+00	7	28	0	46137344	54	7263
2026-01-14 12:04:41.59	27.61	4.03	-40.9	-42.5	18.9	0.00e+00	31	28	0	47185920	54	6812
2026-01-14 12:04:42.60	27.72	4.08	-40.9	-42.5	18.8	0.00e+00	6	28	0	49283072	54	6814
2026-01-14 12:04:43.61	27.83	4.13	-40.8	-42.4	19.2	0.00e+00	91	28	0	51380224	54	6703
2026-01-14 12:04:44.62	27.94	4.18	-40.9	-42.5	18.7	0.00e+00	51	28	0	53477376	54	6805
2026-01-14 12:04:45.62	28.05	4.22	-41.2	-42.9	19.0	0.00e+00	90	28	0	55574528	54	7123
2026-01-14 12:04:46.63	28.16	4.27	-40.8	-42.3	18.7	0.00e+00	0	28	0	56623104	54	6676
2026-01-14 12:04:47.64	28.26	4.32	-41.2	-42.8	18.4	0.00e+00	0	28	0	58720256	54	7057
2026-01-14 12:04:48.65	28.37	4.36	-41.5	-43.2	18.5	0.00e+00	6	28	0	60817408	54	7408
2026-01-14 12:04:49.65	28.48	4.41	-41.2	-42.9	18.4	0.00e+00	7	28	0	62914560	54	7090
2026-01-14 12:04:50.66	28.59	4.46	-41.6	-43.3	18.2	0.00e+00	92	28	0	65011712	54	7507
2026-01-14 12:04:51.67	28.70	4.51	-42.0	-43.9	18.1	0.00e+00	7	28	0	66060288	56	7090
2026-01-14 12:04:52.68	28.82	4.55	-41.9	-43.7	17.9	0.00e+00	92	28	0	68157440	56	6968
2026-01-14 12:04:53.69	28.93	4.60	-42.0	-43.9	17.7	0.00e+00	40	28	0	70254592	56	7137
2026-01-14 12:04:54.70	29.04	4.65	-42.6	-44.6	17.1	0.00e+00	41	28	0	72351744	56	7759
2026-01-14 12:04:55.71	29.15	4.70	-42.0	-43.8	18.1	0.00e+00	0	28	0	74448896	56	7082
2026-01-14 12:04:56.72	29.26	4.74	-41.7	-43.5	18.1	0.00e+00	40	28	0	75497472	56	6776
2026-01-14 12:04:57.73	29.38	4.79	-41.5	-43.2	18.5	0.00e+00	91	28	0	77594624	56	6567
2026-01-14 12:04:58.74	29.49	4.84	-41.0	-42.5	19.1	0.00e+00	36	28	0	79691776	56	6101
2026-01-14 12:04:59.75	29.60	4.88	-41.0	-42.6	19.1	0.00e+00	92	28	0	81788928	56	6108
2026-01-14 12:05:00.76	29.72	4.93	-40.3	-41.7	19.8	0.00e+00	34	28	0	83886080	54	6202
2026-01-14 12:05:01.77	29.83	4.98	-40.0	-41.4	20.1	0.00e+00	40	28	0	84934656	54	5988
2026-01-14 12:05:02.77	29.94	5.03	-40.0	-41.4	20.1	0.00e+00	42	28	0	87031808	54	5978
2026-01-14 12:05:03.78	30.06	5.07	-40.0	-41.4	20.1	0.00e+00	43	28	0	89128960	54	5982
2026-01-14 12:05:04.79	30.17	5.12	-40.3	-41.7	19.8	0.00e+00	31	28	0	91226112	54	6185
2026-01-14 12:05:05.80	30.29	5.17	-40.4	-41.8	19.7	0.00e+00	0	28	0	93323264	54	6314
2026-01-14 12:05:06.81	30.41	5.21	-40.7	-42.2	19.3	0.00e+00	92	28	0	94371840	54	6545
2026-01-14 12:05:07.82	30.52	5.26	-40.3	-41.7	19.8	0.00e+00	46	28	0	96468992	54	6197
2026-01-14 12:05:08.83	30.64	5.31	-40.2	-41.6	20.0	0.00e+00	32	28	0	98566144	54	6119
2026-01-14 12:05:09.84	30.76	5.36	-40.3	-41.6	19.9	0.00e+00	0	28	0	100663296	54	6165
2026-01-14 12:05:10.85	30.87	5.40	-40.2	-41.6	20.0	0.00e+00	0	28	0	102760448	54	6122
2026-01-14 12:05:11.86	30.99	5.45	-40.2	-41.5	20.0	0.00e+00	0	28	0	103809024	54	6101
2026-01-14 12:05:12.87	31.11	5.50	-40.1	-41.5	20.1	0.00e+00	0	28	0	105906176	54	6066
2026-01-14 12:05:13.88	31.23	5.55	-40.1	-41.4	20.1	0.00e+00	92	28	0	108003328	54	6013
2026-01-14 12:05:14.89	31.35	5.59	-39.9	-41.3	20.3	0.00e+00	0	28	0	110100480	54	5899
2026-01-14 12:05:15.90	31.47	5.64	-39.8	-41.1	20.5	0.00e+00	92	28	0	112197632	54	5763
2026-01-14 12:05:16.91	31.59	5.69	-39.9	-41.2	20.3	0.00e+00	0	28	0	113246208	54	5852
2026-01-14 12:05:17.92	31.71	5.73	-39.7	-40.9	20.6	0.00e+00	0	28	0	115343360	54	5672
2026-01-14 12:05:18.92	31.82	5.78	-39.9	-41.1	20.5	0.00e+00	39	28	0	117440512	52	6517
2026-01-14 12:05:19.93	31.94	5.83	-39.5	-40.7	20.9	0.00e+00	39	28	0	119537664	52	6223
2026-01-14 12:05:20.94	32.07	5.87	-39.6	-40.9	20.8	0.00e+00	52	28	0	121634816	52	6319
2026-01-14 12:05:21.95	32.19	5.92	-39.6	-40.8	20.8	0.00e+00	41	28	0	123731968	52	6302
2026-01-14 12:05:22.96	32.31	5.97	-39.6	-40.8	20.8	0.00e+00	91	28	0	124780544	52	6292
2026-01-14 12:05:23.97	32.43	6.02	-39.8	-41.1	20.5	0.00e+00	46	28	0	126877696	52	6512
2026-01-14 12:05:24.98	32.55	6.06	-39.6	-40.9	20.8	0.00e+00	2	28	0	128974848	52	6342
2026-01-14 12:05:25.98	32.68	6.11	-39.6	-40.8	20.8	0.00e+00	41	28	0	131072000	52	6286
2026-01-14 12:05:26.99	32.80	6.16	-39.7	-40.9	20.7	0.00e+00	0	28	0	133169152	52	6372
2026-01-14 12:05:28.00	32.92	6.20	-39.6	-40.9	20.8	0.00e+00	73	28	0	134217728	52	6342
2026-01-14 12:05:29.01	33.05	6.25	-39.5	-40.6	21.0	0.00e+00	48	28	0	136314880	52	6172
2026-01-14 12:05:30.02	33.17	6.30	-39.5	-40.7	20.8	0.00e+00	91	28	0	138412032	52	6237
2026-01-14 12:05:31.03	33.30	6.34	-39.1	-40.3	21.4	0.00e+00	0	28	0	140509184	52	5901
2026-01-14 12:05:32.04	33.42	6.39	-39.3	-40.5	21.2	0.00e+00	33	28	0	142606336	52	6079
2026-01-14 12:05:33.04	33.55	6.44	-39.3	-40.5	21.1	0.00e+00	0	28	0	143654912	52	6090
2026-01-14 12:05:34.05	33.67	6.48	-39.4	-40.6	21.1	0.00e+00	0	28	0	145752064	52	6123
2026-01-14 12:05:35.06	33.80	6.53	-39.2	-40.4	21.3	0.00e+00	0	28	0	147849216	52	5998
2026-01-14 12:05:36.07	33.93	6.58	-39.2	-40.3	21.2	0.00e+00	0	28	0	149946368	52	5958
2026-01-14 12:05:37.08	34.05	6.62	-39.3	-40.5	21.1	0.00e+00	92	28	0	152043520	52	6087
2026-01-14 12:05:38.09	34.18	6.67	-39.3	-40.5	21.3	0.00e+00	0	28	0	153092096	52	6054
2026-01-14 12:05:39.10	34.31	6.72	-39.3	-40.5	21.1	0.00e+00	92	28	0	155189248	52	6050
2026-01-14 12:05:40.11	34.44	6.76	-39.5	-40.7	21.1	0.00e+00	37	28	0	157286400	52	6188
2026-01-14 12:05:41.12	34.57	6.81	-39.6	-40.8	20.8	0.00e+00	17	28	0	159383552	52	6301
2026-01-14 12:05:42.13	34.69	6.85	-39.7	-40.9	20.8	0.00e+00	45	28	0	161480704	52	6365
2026-01-14 12:05:43.14	34.82	6.90	-39.6	-40.8	20.9	0.00e+00	40	28	0	162529280	52	6298
2026-01-14 12:05:44.14	34.95	6.95	-39.1	-40.3	21.4	0.00e+00	91	28	0	164626432	52	5922
2026-01-14 12:05:45.15	35.08	6.99	-39.1	-40.2	21.5	0.00e+00	42	28	0	166723584	52	5862
2026-01-14 12:05:46.16	35.21	7.04	-39.0	-40.1	21.6	0.00e+00	92	28	0	168820736	52	5813
2026-01-14 12:05:47.17	35.34	7.09	-39.0	-40.2	21.5	0.00e+00	0	28	0	170917888	52	5833
2026-01-14 12:05:48.18	35.48	7.13	-39.0	-40.1	21.6	0.00e+00	3	28	0	171966464	52	5813
2026-01-14 12:05:49.19	35.61	7.18	-38.9	-40.0	21.7	0.00e+00	0	28	0	174063616	52	5758
2026-01-14 12:05:50.20	35.74	7.22	-38.9	-40.0	21.7	0.00e+00	0	28	0	176160768	52	5716
2026-01-14 12:05:51.21	35.87	7.27	-38.9	-40.0	21.7	0.00e+00	53	28	0	178257920	52	5758
2026-01-14 12:05:52.22	36.01	7.32	-38.9	-40.1	21.7	0.00e+00	39	28	0	180355072	52	5764
2026-01-14 12:05:53.23	36.14	7.36	-39.0	-40.1	21.6	0.00e+00	92	28	0	181403648	52	5824
2026-01-14 12:05:54.24	36.27	7.41	-38.9	-40.0	21.7	0.00e+00	0	28	0	183500800	52	5760
2026-01-14 12:05:55.25	36.41	7.45	-39.1	-40.2	21.5	0.00e+00	0	28	0	185597952	52	5844
2026-01-14 12:05:56.26	36.54	7.50	-39.1	-40.2	21.5	0.00e+00	0	28	0	187695104	52	5866
2026-01-14 12:05:57.27	36.68	7.55	-39.0	-40.1	21.4	0.00e+00	0	28	0	189792256	52	5827
2026-01-14 12:05:58.28	36.81	7.59	-38.9	-40.0	21.7	0.00e+00	0	28	0	191889408	52	5739
2026-01-14 12:05:59.29	36.95	7.64	-39.1	-40.2	21.6	0.00e+00	39	28	0	192937984	52	5856
2026-01-14 12:06:00.29	37.08	7.68	-39.1	-40.2	21.6	0.00e+00	92	28	0	195035136	52	5843
2026-01-14 12:06:01.30	37.22	7.73	-38.9	-40.0	21.8	0.00e+00	39	28	0	197132288	52	5750
2026-01-14 12:06:02.31	37.36	7.77	-39.0	-40.1	21.5	0.00e+00	91	28	0	199229440	52	5807
2026-01-14 12:06:03.32	37.50	7.82	-39.1	-40.3	21.6	0.00e+00	0	28	0	200278016	52	5906
2026-01-14 12:06:04.33	37.63	7.87	-39.0	-40.1	21.7	0.00e+00	35	28	0	202375168	52	5812
2026-01-14 12:06:05.34	37.77	7.91	-39.0	-40.1	21.7	0.00e+00	40	28	0	204472320	52	5814
2026-01-14 12:06:06.35	37.91	7.96	-38.9	-40.0	21.8	0.00e+00	42	28	0	206569472	52	5701
2026-01-14 12:06:07.36	38.05	8.00	-38.9	-40.0	21.8	0.00e+00	38	28	0	208666624	52	5750
2026-01-14 12:06:08.37	38.19	8.05	-38.8	-39.9	21.8	0.00e+00	40	28	0	209715200	52	5679
2026-01-14 12:06:09.38	38.33	8.09	-39.0	-40.1	21.7	0.00e+00	91	28	0	211812352	52	5811
2026-01-14 12:06:10.39	38.47	8.14	-39.0	-40.1	21.7	0.00e+00	6	28	0	213909504	52	5774
2026-01-14 12:06:11.40	38.61	8.18	-39.0	-40.1	21.8	0.00e+00	0	28	0	216006656	52	5765
2026-01-14 12:06:12.40	38.75	8.23	-39.0	-40.2	21.7	0.00e+00	6	28	0	218103808	52	5829
2026-01-14 12:06:13.41	38.89	8.27	-39.0	-40.1	21.7	0.00e+00	4	28	0	220200960	52	5828
2026-01-14 12:06:14.42	39.04	8.32	-39.2	-40.3	21.6	0.00e+00	42	28	0	221249536	52	5937
2026-01-14 12:06:15.43	39.18	8.36	-39.1	-40.3	21.6	0.00e+00	0	28	0	223346688	52	5913
2026-01-14 12:06:16.44	39.32	8.40	-39.1	-40.2	21.7	0.00e+00	90	28	0	225443840	52	5837
2026-01-14 12:06:17.45	39.47	8.45	-39.0	-40.1	21.7	0.00e+00	0	28	0	227540992	52	5818
2026-01-14 12:06:18.46	39.61	8.49	-38.9	-40.0	21.8	0.00e+00	73	28	0	229638144	52	5739
2026-01-14 12:06:19.47	39.75	8.54	-39.0	-40.1	21.8	0.00e+00	0	28	0	230686720	52	5774
2026-01-14 12:06:20.48	39.90	8.58	-39.2	-40.4	21.6	0.00e+00	0	28	0	232783872	52	5975
2026-01-14 12:06:21.49	40.04	8.63	-39.0	-40.1	21.8	0.00e+00	0	29	0	234881024	52	5795
2026-01-14 12:06:22.50	40.19	8.67	-39.1	-40.2	21.6	0.00e+00	40	28	0	236978176	52	5875
2026-01-14 12:06:23.51	40.34	8.72	-39.1	-40.2	21.6	0.00e+00	92	28	0	239075328	52	5881
2026-01-14 12:06:24.52	40.48	8.76	-39.1	-40.2	21.6	0.00e+00	40	28	0	240123904	52	5859
2026-01-14 12:06:25.53	40.63	8.80	-39.2	-40.3	21.5	0.00e+00	91	28	0	242221056	52	5945
2026-01-14 12:06:26.53	40.78	8.85	-39.2	-40.4	21.6	0.00e+00	41	28	0	244318208	52	5979
2026-01-14 12:06:27.54	40.92	8.89	-39.3	-40.4	21.5	0.00e+00	38	28	0	246415360	52	5997
2026-01-14 12:06:28.55	41.07	8.93	-39.3	-40.4	21.5	0.00e+00	39	28	0	248512512	52	6002
2026-01-14 12:06:29.56	41.22	8.98	-39.2	-40.4	21.5	0.00e+00	44	29	0	249561088	52	5968
2026-01-14 12:06:30.57	41.37	9.02	-39.3	-40.5	21.5	0.00e+00	19	28	0	251658240	52	6043
2026-01-14 12:06:31.58	41.52	9.06	-39.1	-40.2	21.7	0.00e+00	45	28	0	253755392	52	5873
2026-01-14 12:06:32.59	41.67	9.11	-39.1	-40.3	21.7	0.00e+00	92	28	0	255852544	52	5903
2026-01-14 12:06:33.60	41.82	9.15	-39.1	-40.2	21.7	0.00e+00	7	28	0	257949696	52	5877
2026-01-14 12:06:34.61	41.97	9.19	-39.0	-40.1	21.8	0.00e+00	48	28	0	258998272	52	5812
2026-01-14 12:06:35.62	42.12	9.24	-39.1	-40.2	21.7	0.00e+00	7	29	0	261095424	52	5873
2026-01-14 12:06:36.63	42.27	9.28	-39.1	-40.2	21.7	0.00e+00	6	28	0	263192576	52	5886
2026-01-14 12:06:37.64	42.42	9.32	-39.2	-40.3	21.7	0.00e+00	4	28	0	265289728	52	5911
2026-01-14 12:06:38.64	42.58	9.37	-39.2	-40.3	21.7	0.00e+00	6	29	0	267386880	52	5918
2026-01-14 12:06:39.65	42.73	9.41	-39.3	-40.5	21.5	0.00e+00	91	29	0	268435456	52	6044
2026-01-14 12:06:40.66	42.88	9.45	-39.4	-40.5	21.5	0.00e+00	0	29	0	270532608	52	6080
2026-01-14 12:06:41.67	43.04	9.49	-39.4	-40.6	21.4	0.00e+00	92	29	0	272629760	52	6114
2026-01-14 12:06:42.68	43.19	9.54	-39.4	-40.5	21.4	0.00e+00	41	29	0	274726912	52	6071
2026-01-14 12:06:43.69	43.34	9.58	-39.4	-40.6	21.3	0.00e+00	42	29	0	276824064	52	6142
2026-01-14 12:06:44.70	43.50	9.62	-39.4	-40.5	21.4	0.00e+00	27	28	0	277872640	52	6080
2026-01-14 12:06:45.71	43.66	9.66	-39.4	-40.6	21.4	0.00e+00	42	28	0	279969792	52	6125
2026-01-14 12:06:46.72	43.81	9.70	-39.4	-40.6	21.4	0.00e+00	18	28	0	282066944	52	6109
2026-01-14 12:06:47.73	43.97	9.75	-39.5	-40.6	21.3	0.00e+00	40	29	0	284164096	52	6148
2026-01-14 12:06:48.74	44.12	9.79	-39.4	-40.6	21.4	0.00e+00	91	28	0	286261248	52	6110
2026-01-14 12:06:49.74	44.28	9.83	-39.4	-40.6	21.4	0.00e+00	41	28	0	288358400	52	6104
2026-01-14 12:06:50.75	44.44	9.87	-39.5	-40.7	21.3	0.00e+00	39	28	0	289406976	52	6202
2026-01-14 12:06:51.76	44.60	9.91	-39.5	-40.7	21.3	0.00e+00	39	28	0	291504128	52	6184
2026-01-14 12:06:52.77	44.75	9.95	-39.6	-40.7	21.2	0.00e+00	36	29	0	293601280	52	6243
2026-01-14 12:06:53.78	44.91	9.99	-39.5	-40.7	21.4	0.00e+00	29	28	0	295698432	52	6177
2026-01-14 12:06:54.79	45.07	10.03	-39.5	-40.7	21.3	0.00e+00	51	29	0	297795584	52	6198
2026-01-14 12:06:55.80	45.23	10.08	-39.5	-40.6	21.3	0.00e+00	90	29	0	298844160	52	6163
2026-01-14 12:06:56.81	45.39	10.12	-39.5	-40.7	21.3	0.00e+00	0	29	0	300941312	52	6225
2026-01-14 12:06:57.82	45.55	10.16	-39.5	-40.6	21.4	0.00e+00	29	29	0	303038464	52	6170
2026-01-14 12:06:58.83	45.72	10.20	-39.6	-40.7	21.2	0.00e+00	0	29	0	305135616	52	6239
2026-01-14 12:06:59.84	45.88	10.24	-39.5	-40.7	21.2	0.00e+00	2	28	0	307232768	52	6210
2026-01-14 12:07:00.84	46.04	10.28	-39.5	-40.7	21.0	0.00e+00	2	28	0	308281344	52	6196
2026-01-14 12:07:01.85	46.20	10.32	-39.5	-40.7	21.1	0.00e+00	0	29	0	310378496	52	6180
2026-01-14 12:07:02.86	46.36	10.36	-39.5	-40.6	21.3	0.00e+00	92	29	0	312475648	52	6158
2026-01-14 12:07:03.87	46.53	10.40	-39.4	-40.6	21.4	0.00e+00	0	29	0	314572800	52	6128
2026-01-14 12:07:04.88	46.69	10.44	-39.5	-40.6	21.4	0.00e+00	92	29	0	316669952	52	6168
2026-01-14 12:07:05.89	46.85	10.48	-39.6	-40.8	21.3	0.00e+00	0	29	0	317718528	52	6250
2026-01-14 12:07:06.90	47.02	10.52	-39.7	-40.9	21.2	0.00e+00	3	29	0	319815680	52	6337
2026-01-14 12:07:07.91	47.18	10.56	-39.7	-40.9	21.1	0.00e+00	0	28	0	321912832	52	6357
2026-01-14 12:07:08.92	47.35	10.59	-39.7	-40.9	21.2	0.00e+00	42	29	0	324009984	52	6335
2026-01-14 12:07:09.93	47.51	10.63	-39.8	-41.0	21.2	0.00e+00	88	29	0	326107136	52	6407
2026-01-14 12:07:10.93	47.68	10.67	-39.8	-41.0	21.1	0.00e+00	40	29	0	327155712	52	6417
2026-01-14 12:07:11.95	47.85	10.71	-39.6	-40.8	21.3	0.00e+00	90	29	0	329252864	52	6287
2026-01-14 12:07:12.96	48.02	10.75	-39.7	-40.8	21.3	0.00e+00	41	29	0	331350016	52	6297
2026-01-14 12:07:13.97	48.18	10.79	-39.7	-40.9	21.1	0.00e+00	40	28	0	333447168	52	6366
2026-01-14 12:07:14.98	48.35	10.83	-39.7	-40.9	21.1	0.00e+00	0	29	0	335544320	52	6351
2026-01-14 12:07:15.98	48.52	10.86	-39.5	-40.6	21.5	0.00e+00	39	28	0	336592896	52	6154
2026-01-14 12:07:16.99	48.69	10.90	-39.5	-40.6	21.5	0.00e+00	29	29	0	338690048	52	6135
2026-01-14 12:07:18.00	48.86	10.94	-39.3	-40.4	21.6	0.00e+00	0	29	0	340787200	52	6011
2026-01-14 12:07:19.01	49.03	10.98	-39.4	-40.5	21.5	0.00e+00	92	29	0	342884352	52	6085
2026-01-14 12:07:20.02	49.20	11.01	-39.3	-40.4	21.5	0.00e+00	40	29	0	344981504	52	6030
2026-01-14 12:07:21.03	49.37	11.05	-39.3	-40.5	21.6	0.00e+00	46	28	0	346030080	52	6034
2026-01-14 12:07:22.04	49.54	11.09	-39.4	-40.5	21.6	0.00e+00	0	28	0	348127232	52	6051
2026-01-14 12:07:23.05	49.71	11.12	-39.5	-40.6	21.5	0.00e+00	0	29	0	350224384	52	6139
2026-01-14 12:07:24.06	49.88	11.16	-39.4	-40.6	21.5	0.00e+00	2	28	0	352321536	52	6107
2026-01-14 12:07:25.07	50.05	11.20	-39.6	-40.7	21.4	0.00e+00	2	29	0	354418688	52	6227
2026-01-14 12:07:26.08	50.23	11.23	-39.6	-40.7	21.4	0.00e+00	92	28	0	356515840	52	6230
2026-01-14 12:07:27.08	50.40	11.27	-39.7	-40.9	21.1	0.00e+00	0	28	0	357564416	52	6376
2026-01-14 12:07:28.09	50.57	11.31	-39.9	-41.1	21.1	0.00e+00	91	28	0	359661568	52	6489
2026-01-14 12:07:29.10	50.74	11.34	-39.8	-41.0	21.1	0.00e+00	0	29	0	361758720	52	6415
2026-01-14 12:07:30.11	50.92	11.38	-39.8	-41.0	21.1	0.00e+00	2	28	0	363855872	52	6436
2026-01-14 12:07:31.12	51.09	11.41	-39.9	-41.1	21.1	0.00e+00	0	29	0	364904448	52	6474
2026-01-14 12:07:32.13	51.27	11.45	-39.7	-40.8	21.3	0.00e+00	40	28	0	367001600	52	6286
2026-01-14 12:07:33.14	51.44	11.48	-39.7	-40.8	21.2	0.00e+00	92	28	0	369098752	52	6311
2026-01-14 12:07:34.15	51.62	11.52	-39.6	-40.8	21.3	0.00e+00	38	29	0	371195904	52	6271
2026-01-14 12:07:35.16	51.80	11.55	-39.6	-40.7	21.4	0.00e+00	92	29	0	373293056	52	6228
2026-01-14 12:07:36.17	51.97	11.59	-39.6	-40.7	21.2	0.00e+00	44	29	0	374341632	52	6217
2026-01-14 12:07:37.18	52.15	11.62	-39.5	-40.6	21.4	0.00e+00	2	29	0	376438784	52	6139
2026-01-14 12:07:38.19	52.33	11.66	-39.6	-40.7	21.3	0.00e+00	2	29	0	378535936	52	6226
2026-01-14 12:07:39.20	52.51	11.69	-39.5	-40.7	21.4	0.00e+00	0	29	0	380633088	52	6175
2026-01-14 12:07:40.21	52.68	11.72	-39.7	-40.8	21.2	0.00e+00	40	28	0	382730240	52	6317
2026-01-14 12:07:41.22	52.86	11.76	-39.5	-40.7	21.5	0.00e+00	2	29	0	384827392	52	6212
2026-01-14 12:07:42.22	53.04	11.79	-39.5	-40.7	21.4	0.00e+00	90	29	0	385875968	52	6195
2026-01-14 12:07:43.23	53.22	11.82	-39.6	-40.7	21.4	0.00e+00	3	29	0	387973120	52	6211
2026-01-14 12:07:44.24	53.40	11.86	-39.6	-40.8	21.3	0.00e+00	22	29	0	390070272	52	6254
2026-01-14 12:07:45.25	53.58	11.89	-39.7	-40.9	21.2	0.00e+00	0	29	0	392167424	52	6347
2026-01-14 12:07:46.26	53.76	11.92	-39.8	-41.0	21.2	0.00e+00	0	28	0	394264576	52	6395
2026-01-14 12:07:47.27	53.94	11.95	-39.9	-41.2	21.0	0.00e+00	0	28	0	395313152	52	6540
2026-01-14 12:07:48.28	54.12	11.99	-40.1	-41.3	20.9	0.00e+00	40	28	0	397410304	52	6640
2026-01-14 12:07:49.29	54.31	12.02	-39.9	-41.1	21.0	0.00e+00	92	28	0	399507456	52	6520
2026-01-14 12:07:50.30	54.49	12.05	-39.9	-41.1	21.0	0.00e+00	39	28	0	401604608	52	6506
2026-01-14 12:07:51.31	54.67	12.08	-39.8	-41.0	21.2	0.00e+00	92	28	0	403701760	52	6404
2026-01-14 12:07:52.32	54.85	12.11	-39.8	-40.9	20.6	0.00e+00	36	28	0	404750336	52	6388
2026-01-14 12:07:53.33	55.04	12.14	-39.5	-40.7	21.2	0.00e+00	47	29	0	406847488	52	6197
2026-01-14 12:07:54.34	55.22	12.17	-39.4	-40.5	21.5	0.00e+00	0	29	0	408944640	52	6097
2026-01-14 12:07:55.35	55.41	12.20	-39.3	-40.4	21.6	0.00e+00	0	29	0	411041792	52	6016
2026-01-14 12:07:56.36	55.59	12.23	-39.2	-40.2	21.8	0.00e+00	35	29	0	413138944	52	5892
2026-01-14 12:07:57.37	55.77	12.26	-39.2	-40.2	21.8	0.00e+00	36	28	0	414187520	52	5894
2026-01-14 12:07:58.38	55.96	12.29	-39.3	-40.4	21.7	0.00e+00	92	29	0	416284672	52	6011
2026-01-14 12:07:59.38	56.14	12.32	-39.2	-40.3	21.8	0.00e+00	5	28	0	418381824	52	5900
2026-01-14 12:08:00.39	56.33	12.35	-39.1	-40.1	21.9	0.00e+00	92	29	0	420478976	52	5815
2026-01-14 12:08:01.41	56.52	12.38	-39.1	-40.1	22.0	0.00e+00	40	29	0	422576128	52	5813
2026-01-14 12:08:02.42	56.71	12.41	-39.1	-40.2	21.9	0.00e+00	0	28	0	423624704	52	5850
2026-01-14 12:08:03.43	56.89	12.44	-39.2	-40.3	21.9	0.00e+00	0	29	0	425721856	52	5898
2026-01-14 12:08:04.43	57.08	12.47	-39.1	-40.2	21.9	0.00e+00	0	28	0	427819008	52	5867
2026-01-14 12:08:05.44	57.27	12.50	-39.2	-40.3	21.8	0.00e+00	91	28	0	429916160	52	5940
2026-01-14 12:08:06.45	57.45	12.52	-39.1	-40.2	21.9	0.00e+00	0	28	0	432013312	52	5841
2026-01-14 12:08:07.46	57.64	12.55	-39.2	-40.3	21.9	0.00e+00	90	29	0	433061888	52	5915
2026-01-14 12:08:08.47	57.83	12.58	-39.1	-40.2	21.8	0.00e+00	6	28	0	435159040	52	5852
2026-01-14 12:08:09.48	58.02	12.61	-38.9	-39.9	22.2	0.00e+00	0	28	0	437256192	52	5667
2026-01-14 12:08:10.49	58.21	12.63	-38.9	-40.0	22.1	0.00e+00	0	28	0	439353344	52	5707
2026-01-14 12:08:11.50	58.40	12.66	-38.8	-39.8	22.2	0.00e+00	38	28	0	441450496	52	5612
2026-01-14 12:08:12.51	58.59	12.69	-38.7	-39.7	22.3	0.00e+00	90	29	0	442499072	50	6241
2026-01-14 12:08:13.52	58.78	12.71	-38.7	-39.7	22.3	0.00e+00	0	29	0	444596224	50	6223
2026-01-14 12:08:14.53	58.97	12.74	-38.6	-39.6	22.4	0.00e+00	92	29	0	446693376	50	6113
2026-01-14 12:08:15.54	59.16	12.76	-38.6	-39.6	22.4	0.00e+00	41	29	0	448790528	50	6153
2026-01-14 12:08:16.55	59.35	12.79	-38.5	-39.6	22.5	0.00e+00	44	29	0	450887680	50	6110
2026-01-14 12:08:17.56	59.55	12.81	-38.7	-39.7	22.4	0.00e+00	4	29	0	452984832	50	6217
2026-01-14 12:08:18.57	59.74	12.84	-38.8	-39.8	22.2	0.00e+00	43	29	0	454033408	50	6310
2026-01-14 12:08:19.58	59.93	12.86	-38.9	-39.9	22.1	0.00e+00	91	29	0	456130560	50	6365
2026-01-14 12:08:20.59	60.12	12.89	-39.0	-40.1	22.1	0.00e+00	6	29	0	458227712	50	6468
2026-01-14 12:08:21.60	60.32	12.91	-39.1	-40.2	21.8	0.00e+00	92	29	0	460324864	50	6597
2026-01-14 12:08:22.61	60.51	12.94	-39.2	-40.3	21.5	0.00e+00	7	29	0	462422016	50	6652
2026-01-14 12:08:23.61	60.70	12.96	-39.4	-40.5	21.6	0.00e+00	92	29	0	463470592	50	6792
2026-01-14 12:08:24.62	60.90	12.98	-39.4	-40.6	21.5	0.00e+00	50	29	0	465567744	50	6855
2026-01-14 12:08:25.63	61.09	13.01	-39.4	-40.5	21.6	0.00e+00	0	29	0	467664896	50	6818
2026-01-14 12:08:26.64	61.28	13.03	-39.5	-40.7	21.4	0.00e+00	0	29	0	469762048	50	6957
2026-01-14 12:08:27.65	61.48	13.05	-39.6	-40.7	21.4	0.00e+00	7	28	0	471859200	50	6995
2026-01-14 12:08:28.66	61.67	13.07	-39.5	-40.7	21.5	0.00e+00	92	28	0	472907776	50	6930
2026-01-14 12:08:29.67	61.87	13.09	-39.5	-40.6	21.5	0.00e+00	0	28	0	475004928	50	6890
2026-01-14 12:08:30.68	62.07	13.12	-39.5	-40.7	21.4	0.00e+00	92	28	0	477102080	50	6958
2026-01-14 12:08:31.68	62.26	13.14	-39.6	-40.8	21.3	0.00e+00	41	28	0	479199232	50	7019
2026-01-14 12:08:32.69	62.46	13.16	-39.7	-40.8	21.3	0.00e+00	43	28	0	481296384	50	7084
2026-01-14 12:08:33.70	62.65	13.18	-39.7	-40.8	21.3	0.00e+00	3	28	0	482344960	50	7064
2026-01-14 12:08:34.71	62.85	13.20	-39.7	-40.9	21.2	0.00e+00	42	28	0	484442112	50	7126
2026-01-14 12:08:35.72	63.05	13.22	-39.8	-40.9	21.2	0.00e+00	92	28	0	486539264	52	6386
2026-01-14 12:08:36.73	63.24	13.24	-39.9	-41.1	21.0	0.00e+00	41	29	0	488636416	52	6475
2026-01-14 12:08:37.74	63.44	13.26	-39.7	-40.9	21.2	0.00e+00	92	29	0	490733568	52	6340
2026-01-14 12:08:38.75	63.64	13.28	-39.8	-40.9	21.2	0.00e+00	41	29	0	491782144	52	6383
2026-01-14 12:08:39.76	63.84	13.30	-39.9	-41.1	21.1	0.00e+00	42	29	0	493879296	52	6508
2026-01-14 12:08:40.77	64.04	13.32	-39.9	-41.1	21.1	0.00e+00	38	29	0	495976448	52	6519
2026-01-14 12:08:41.78	64.24	13.33	-39.8	-40.9	21.4	0.00e+00	2	29	0	498073600	52	6378
2026-01-14 12:08:42.79	64.43	13.35	-39.6	-40.7	21.4	0.00e+00	92	29	0	500170752	52	6235
2026-01-14 12:08:43.80	64.63	13.37	-39.6	-40.7	21.5	0.00e+00	41	28	0	501219328	52	6205
2026-01-14 12:08:44.81	64.83	13.39	-39.7	-40.8	21.3	0.00e+00	92	29	0	503316480	52	6296
2026-01-14 12:08:45.82	65.03	13.40	-39.5	-40.7	21.5	0.00e+00	0	28	0	505413632	52	6174
2026-01-14 12:08:46.83	65.23	13.42	-39.6	-40.7	21.4	0.00e+00	92	28	0	507510784	52	6243
2026-01-14 12:08:47.84	65.43	13.44	-39.6	-40.7	21.4	0.00e+00	0	29	0	509607936	52	6218
2026-01-14 12:08:48.84	65.63	13.45	-39.5	-40.7	21.5	0.00e+00	0	29	0	510656512	52	6195
2026-01-14 12:08:49.85	65.83	13.47	-39.4	-40.6	21.6	0.00e+00	0	29	0	512753664	52	6120
2026-01-14 12:08:50.86	66.03	13.49	-39.4	-40.5	21.5	0.00e+00	0	29	0	514850816	52	6074
2026-01-14 12:08:51.87	66.23	13.50	-39.4	-40.6	21.6	0.00e+00	92	29	0	516947968	52	6114
2026-01-14 12:08:52.88	66.43	13.52	-39.3	-40.4	21.8	0.00e+00	0	29	0	519045120	52	5981
2026-01-14 12:08:53.88	66.63	13.53	-39.3	-40.4	21.7	0.00e+00	92	28	0	521142272	52	5999
2026-01-14 12:08:54.89	66.83	13.55	-39.3	-40.5	21.6	0.00e+00	0	29	0	522190848	52	6034
2026-01-14 12:08:55.90	67.04	13.56	-39.3	-40.5	21.7	0.00e+00	0	29	0	524288000	52	6043
2026-01-14 12:08:56.91	67.24	13.57	-39.5	-40.6	21.5	0.00e+00	0	29	0	526385152	52	6151
2026-01-14 12:08:57.92	67.44	13.59	-39.5	-40.6	21.5	0.00e+00	0	28	0	528482304	52	6152
2026-01-14 12:08:58.93	67.64	13.60	-39.4	-40.6	21.6	0.00e+00	92	29	0	530579456	52	6110
2026-01-14 12:08:59.94	67.84	13.61	-39.4	-40.5	21.7	0.00e+00	48	28	0	531628032	52	6055
2026-01-14 12:09:00.94	68.05	13.62	-39.4	-40.6	21.5	0.00e+00	92	29	0	533725184	52	6115
2026-01-14 12:09:01.95	68.25	13.64	-39.2	-40.3	21.8	0.00e+00	40	29	0	535822336	52	5938
2026-01-14 12:09:02.96	68.45	13.65	-39.2	-40.3	21.9	0.00e+00	42	29	0	537919488	52	5903
2026-01-14 12:09:03.97	68.65	13.66	-39.3	-40.4	21.7	0.00e+00	40	28	0	538968064	52	5970
2026-01-14 12:09:04.98	68.86	13.67	-39.2	-40.3	21.6	0.00e+00	0	28	0	541065216	52	5961
2026-01-14 12:09:05.99	69.06	13.68	-39.0	-40.1	22.0	0.00e+00	12	28	0	543162368	52	5806
2026-01-14 12:09:07.00	69.26	13.69	-39.0	-40.0	22.1	0.00e+00	0	28	0	545259520	52	5750
2026-01-14 12:09:08.01	69.47	13.70	-38.8	-39.9	22.3	0.00e+00	90	28	0	547356672	52	5648
2026-01-14 12:09:09.02	69.67	13.71	-39.0	-40.0	22.2	0.00e+00	40	29	0	549453824	52	5754
2026-01-14 12:09:10.03	69.88	13.72	-38.9	-40.0	22.1	0.00e+00	92	28	0	550502400	52	5703
2026-01-14 12:09:11.04	70.08	13.73	-38.9	-40.0	22.2	0.00e+00	0	28	0	552599552	52	5698
2026-01-14 12:09:12.05	70.28	13.74	-39.0	-40.1	22.1	0.00e+00	0	29	0	554696704	52	5769
2026-01-14 12:09:13.06	70.49	13.75	-39.0	-40.1	22.0	0.00e+00	0	29	0	556793856	52	5796
2026-01-14 12:09:14.07	70.69	13.76	-39.2	-40.3	21.9	0.00e+00	0	28	0	558891008	52	5923
2026-01-14 12:09:15.08	70.90	13.76	-39.1	-40.1	22.0	0.00e+00	92	28	0	559939584	52	5816
2026-01-14 12:09:16.09	71.10	13.77	-39.0	-40.1	22.0	0.00e+00	0	29	0	562036736	52	5773
2026-01-14 12:09:17.10	71.31	13.78	-39.1	-40.1	21.9	0.00e+00	92	28	0	564133888	52	5822
2026-01-14 12:09:18.11	71.51	13.79	-38.9	-40.0	22.1	0.00e+00	41	28	0	566231040	52	5701
2026-01-14 12:09:19.12	71.72	13.79	-38.8	-39.8	22.2	0.00e+00	43	29	0	568328192	50	6301
2026-01-14 12:09:20.13	71.92	13.80	-38.7	-39.7	22.4	0.00e+00	39	29	0	569376768	50	6212
2026-01-14 12:09:21.13	72.12	13.81	-38.6	-39.6	22.4	0.00e+00	43	29	0	571473920	50	6171
2026-01-14 12:09:22.14	72.33	13.81	-38.7	-39.8	22.5	0.00e+00	68	29	0	573571072	50	6275
2026-01-14 12:09:23.15	72.53	13.82	-38.6	-39.7	22.4	0.00e+00	0	28	0	575668224	50	6188
2026-01-14 12:09:24.16	72.74	13.82	-38.8	-39.8	22.4	0.00e+00	91	28	0	577765376	50	6290
2026-01-14 12:09:25.17	72.95	13.83	-38.8	-39.9	22.1	0.00e+00	45	28	0	578813952	50	6319
2026-01-14 12:09:26.18	73.15	13.83	-38.8	-39.8	22.3	0.00e+00	0	29	0	580911104	50	6287
2026-01-14 12:09:27.19	73.36	13.83	-38.8	-39.9	22.2	0.00e+00	46	29	0	583008256	50	6346
2026-01-14 12:09:28.20	73.56	13.84	-38.7	-39.7	22.3	0.00e+00	2	29	0	585105408	50	6224
2026-01-14 12:09:29.21	73.77	13.84	-38.7	-39.7	22.3	0.00e+00	33	28	0	587202560	50	6211
2026-01-14 12:09:30.22	73.97	13.84	-38.8	-39.9	22.3	0.00e+00	0	28	0	588251136	50	6323
2026-01-14 12:09:31.23	74.18	13.85	-38.9	-40.0	22.2	0.00e+00	91	28	0	590348288	50	6419
2026-01-14 12:09:32.24	74.38	13.85	-38.5	-39.5	22.4	0.00e+00	0	28	0	592445440	50	6074
2026-01-14 12:09:33.25	74.59	13.85	-38.8	-39.8	22.3	0.00e+00	92	29	0	594542592	50	6303
2026-01-14 12:09:34.26	74.80	13.85	-38.6	-39.7	22.3	0.00e+00	0	29	0	596639744	50	6174
2026-01-14 12:09:35.27	75.00	13.85	-38.8	-39.9	22.2	0.00e+00	0	28	0	597688320	50	6339
2026-01-14 12:09:36.28	75.21	13.85	-38.9	-39.9	21.9	0.00e+00	0	29	0	599785472	50	6371
2026-01-14 12:09:37.29	75.41	13.85	-39.2	-40.3	22.1	0.00e+00	40	29	0	601882624	50	6647
2026-01-14 12:09:38.29	75.62	13.85	-39.1	-40.2	21.8	0.00e+00	92	29	0	603979776	50	6549
2026-01-14 12:09:39.30	75.82	13.85	-39.3	-40.4	21.8	0.00e+00	0	29	0	606076928	50	6743
2026-01-14 12:09:40.31	76.03	13.85	-38.9	-40.0	22.1	0.00e+00	92	28	0	607125504	50	6433
2026-01-14 12:09:41.32	76.24	13.85	-38.8	-39.8	22.0	0.00e+00	41	29	0	609222656	50	6308
2026-01-14 12:09:42.33	76.44	13.85	-38.8	-39.9	22.2	0.00e+00	39	29	0	611319808	50	6351
2026-01-14 12:09:43.34	76.65	13.85	-38.8	-39.9	22.0	0.00e+00	41	28	0	613416960	50	6351
2026-01-14 12:09:44.34	76.85	13.85	-38.8	-39.8	22.1	0.00e+00	39	29	0	615514112	50	6309
2026-01-14 12:09:45.35	77.06	13.85	-38.4	-39.4	22.6	0.00e+00	41	29	0	617611264	50	5965
2026-01-14 12:09:46.36	77.26	13.84	-38.3	-39.3	22.6	0.00e+00	2	28	0	618659840	50	5942
2026-01-14 12:09:47.37	77.47	13.84	-38.4	-39.4	22.7	0.00e+00	92	29	0	620756992	50	6027
2026-01-14 12:09:48.38	77.67	13.84	-38.4	-39.3	22.6	0.00e+00	6	29	0	622854144	50	5964
2026-01-14 12:09:49.39	77.88	13.83	-38.1	-39.1	22.9	0.00e+00	22	29	0	624951296	50	5769
2026-01-14 12:09:50.40	78.09	13.83	-38.2	-39.2	22.9	0.00e+00	42	29	0	627048448	50	5868
2026-01-14 12:09:51.41	78.29	13.82	-37.9	-38.9	23.0	0.00e+00	42	29	0	628097024	50	5645
2026-01-14 12:09:52.42	78.50	13.82	-38.1	-39.1	22.9	0.00e+00	57	29	0	630194176	50	5776
2026-01-14 12:09:53.43	78.70	13.82	-38.1	-39.1	23.1	0.00e+00	6	29	0	632291328	50	5771
2026-01-14 12:09:54.44	78.91	13.81	-37.9	-38.8	22.9	0.00e+00	92	28	0	634388480	48	6288
2026-01-14 12:09:55.44	79.11	13.80	-37.9	-38.8	23.1	0.00e+00	0	29	0	636485632	48	6302
2026-01-14 12:09:56.45	79.32	13.80	-38.0	-38.9	23.0	0.00e+00	89	28	0	637534208	48	6366
2026-01-14 12:09:57.46	79.52	13.79	-38.0	-39.0	23.1	0.00e+00	5	29	0	639631360	48	6400
2026-01-14 12:09:58.47	79.73	13.79	-38.1	-39.0	22.8	0.00e+00	6	29	0	641728512	48	6451
2026-01-14 12:09:59.48	79.93	13.78	-38.4	-39.4	22.7	0.00e+00	0	28	0	643825664	48	6703
2026-01-14 12:10:00.49	80.14	13.77	-38.5	-39.5	22.4	0.00e+00	35	28	0	645922816	48	6783
2026-01-14 12:10:01.50	80.34	13.76	-38.6	-39.6	22.3	0.00e+00	89	29	0	646971392	48	6896
2026-01-14 12:10:02.51	80.55	13.76	-38.6	-39.7	22.2	0.00e+00	41	28	0	649068544	48	6941
2026-01-14 12:10:03.52	80.75	13.75	-38.7	-39.8	22.2	0.00e+00	92	29	0	651165696	50	6253
2026-01-14 12:10:04.53	80.95	13.74	-38.3	-39.3	22.6	0.00e+00	40	29	0	653262848	50	5954
2026-01-14 12:10:05.54	81.16	13.73	-38.5	-39.6	22.4	0.00e+00	42	29	0	655360000	50	6116
2026-01-14 12:10:06.55	81.36	13.72	-38.1	-39.1	23.0	0.00e+00	40	29	0	656408576	50	5771
2026-01-14 12:10:07.56	81.57	13.71	-38.0	-39.0	23.0	0.00e+00	45	28	0	658505728	50	5732
2026-01-14 12:10:08.57	81.77	13.70	-38.1	-39.1	22.8	0.00e+00	41	28	0	660602880	50	5807
2026-01-14 12:10:09.57	81.97	13.69	-38.2	-39.2	22.9	0.00e+00	7	28	0	662700032	50	5847
2026-01-14 12:10:10.58	82.18	13.68	-38.2	-39.2	22.9	0.00e+00	92	29	0	664797184	50	5840
2026-01-14 12:10:11.60	82.38	13.67	-38.0	-39.0	22.6	0.00e+00	48	29	0	665845760	50	5750
2026-01-14 12:10:12.61	82.59	13.66	-38.1	-39.1	22.8	0.00e+00	54	29	0	667942912	50	5783
2026-01-14 12:10:13.62	82.79	13.65	-38.0	-38.9	23.1	0.00e+00	4	29	0	670040064	50	5676
2026-01-14 12:10:14.63	82.99	13.64	-37.8	-38.8	23.2	0.00e+00	0	29	0	672137216	50	5579
2026-01-14 12:10:15.64	83.20	13.62	-37.7	-38.6	23.3	0.00e+00	0	29	0	674234368	48	6171
2026-01-14 12:10:16.65	83.40	13.61	-37.7	-38.6	23.3	0.00e+00	6	29	0	675282944	48	6156
2026-01-14 12:10:17.65	83.60	13.60	-37.7	-38.7	23.2	0.00e+00	90	29	0	677380096	48	6187
2026-01-14 12:10:18.67	83.80	13.58	-37.8	-38.8	23.1	0.00e+00	0	29	0	679477248	48	6288
2026-01-14 12:10:19.67	84.00	13.57	-38.0	-38.9	23.0	0.00e+00	92	29	0	681574400	48	6365
2026-01-14 12:10:20.68	84.21	13.56	-38.2	-39.1	22.8	0.00e+00	41	29	0	683671552	48	6531
2026-01-14 12:10:21.69	84.41	13.54	-38.7	-39.8	22.2	0.00e+00	0	29	0	685768704	50	6248
2026-01-14 12:10:22.70	84.61	13.53	-38.5	-39.5	22.7	0.00e+00	0	28	0	686817280	50	6099
2026-01-14 12:10:23.71	84.81	13.51	-38.5	-39.6	22.5	0.00e+00	35	28	0	688914432	50	6104
2026-01-14 12:10:24.72	85.01	13.50	-38.4	-39.5	22.5	0.00e+00	92	28	0	691011584	50	6051
2026-01-14 12:10:25.73	85.21	13.48	-38.2	-39.3	22.7	0.00e+00	36	29	0	693108736	50	5898
2026-01-14 12:10:26.74	85.41	13.47	-38.1	-39.1	22.9	0.00e+00	92	29	0	695205888	50	5785
2026-01-14 12:10:27.75	85.62	13.45	-38.1	-39.1	22.9	0.00e+00	47	28	0	696254464	50	5766
2026-01-14 12:10:28.76	85.82	13.44	-38.0	-39.0	22.9	0.00e+00	35	29	0	698351616	50	5696
2026-01-14 12:10:29.77	86.02	13.42	-37.7	-38.6	23.2	0.00e+00	36	29	0	700448768	48	6157
2026-01-14 12:10:30.78	86.22	13.40	-37.5	-38.5	23.4	0.00e+00	0	29	0	702545920	48	6051
2026-01-14 12:10:31.79	86.42	13.38	-37.6	-38.5	23.3	0.00e+00	92	28	0	704643072	48	6078
2026-01-14 12:10:32.80	86.62	13.37	-37.4	-38.3	23.6	0.00e+00	0	29	0	705691648	48	5939
2026-01-14 12:10:33.80	86.81	13.35	-37.4	-38.3	23.5	0.00e+00	92	28	0	707788800	48	5926
2026-01-14 12:10:34.81	87.01	13.33	-37.4	-38.4	23.5	0.00e+00	0	29	0	709885952	48	5965
2026-01-14 12:10:35.82	87.21	13.31	-37.3	-38.2	23.7	0.00e+00	0	29	0	711983104	48	5868
2026-01-14 12:10:36.83	87.41	13.29	-37.2	-38.1	23.7	0.00e+00	0	28	0	714080256	48	5827
2026-01-14 12:10:37.84	87.61	13.28	-37.2	-38.2	23.6	0.00e+00	0	29	0	715128832	48	5839
2026-01-14 12:10:38.85	87.81	13.26	-37.3	-38.2	23.3	0.00e+00	0	29	0	717225984	48	5869
2026-01-14 12:10:39.86	88.01	13.24	-37.4	-38.3	23.5	0.00e+00	0	29	0	719323136	48	5940
2026-01-14 12:10:40.87	88.20	13.22	-37.5	-38.5	23.4	0.00e+00	92	29	0	721420288	48	6051
2026-01-14 12:10:41.88	88.40	13.20	-37.6	-38.6	23.2	0.00e+00	40	29	0	723517440	48	6172
2026-01-14 12:10:42.89	88.60	13.18	-37.6	-38.6	23.4	0.00e+00	91	29	0	724566016	48	6135
2026-01-14 12:10:43.90	88.80	13.15	-37.7	-38.6	23.2	0.00e+00	40	29	0	726663168	48	6172
2026-01-14 12:10:44.91	88.99	13.13	-37.7	-38.6	23.2	0.00e+00	41	28	0	728760320	48	6133
2026-01-14 12:10:45.92	89.19	13.11	-37.7	-38.6	23.3	0.00e+00	0	28	0	730857472	48	6142
2026-01-14 12:10:46.93	89.38	13.09	-37.6	-38.5	23.4	0.00e+00	41	28	0	732954624	48	6064
2026-01-14 12:10:47.94	89.58	13.07	-37.3	-38.2	23.7	0.00e+00	91	29	0	734003200	48	5868
2026-01-14 12:10:48.95	89.78	13.05	-37.3	-38.2	23.6	0.00e+00	40	29	0	736100352	48	5895
2026-01-14 12:10:49.96	89.97	13.02	-37.3	-38.2	23.7	0.00e+00	91	29	0	738197504	48	5854
2026-01-14 12:10:50.96	90.16	13.00	-37.2	-38.1	23.7	0.00e+00	3	29	0	740294656	48	5819
2026-01-14 12:10:51.97	90.36	12.98	-37.1	-38.0	23.9	0.00e+00	40	28	0	742391808	48	5728
2026-01-14 12:10:52.98	90.55	12.95	-37.4	-38.3	23.6	0.00e+00	2	29	0	743440384	48	5906
2026-01-14 12:10:53.99	90.75	12.93	-37.2	-38.1	23.8	0.00e+00	0	29	0	745537536	48	5767
2026-01-14 12:10:55.00	90.94	12.91	-37.3	-38.2	23.6	0.00e+00	15	29	0	747634688	48	5887
2026-01-14 12:10:56.01	91.14	12.88	-37.4	-38.3	23.5	0.00e+00	46	29	0	749731840	48	5938
2026-01-14 12:10:57.02	91.33	12.86	-37.4	-38.3	23.6	0.00e+00	91	29	0	751828992	48	5940
2026-01-14 12:10:58.03	91.52	12.83	-37.3	-38.2	23.6	0.00e+00	0	29	0	753926144	48	5870
2026-01-14 12:10:59.04	91.71	12.81	-37.4	-38.3	23.6	0.00e+00	10	28	0	754974720	48	5928
2026-01-14 12:11:00.05	91.91	12.78	-37.4	-38.3	23.5	0.00e+00	0	28	0	757071872	48	5956
2026-01-14 12:11:01.06	92.10	12.76	-37.5	-38.5	23.4	0.00e+00	0	29	0	759169024	48	6041
2026-01-14 12:11:02.07	92.29	12.73	-37.6	-38.5	23.4	0.00e+00	0	29	0	761266176	48	6067
2026-01-14 12:11:03.08	92.48	12.71	-37.5	-38.4	23.4	0.00e+00	0	29	0	763363328	48	6027
2026-01-14 12:11:04.09	92.67	12.68	-37.6	-38.6	23.3	0.00e+00	92	29	0	764411904	48	6129
2026-01-14 12:11:05.10	92.86	12.65	-37.4	-38.4	23.5	0.00e+00	0	29	0	766509056	48	5983
2026-01-14 12:11:06.11	93.05	12.63	-37.3	-38.2	23.6	0.00e+00	92	29	0	768606208	48	5877
2026-01-14 12:11:07.11	93.24	12.60	-37.3	-38.2	23.6	0.00e+00	0	29	0	770703360	48	5874
2026-01-14 12:11:08.12	93.43	12.57	-37.3	-38.2	23.6	0.00e+00	42	29	0	772800512	48	5858
2026-01-14 12:11:09.14	93.62	12.54	-37.4	-38.3	23.5	0.00e+00	49	28	0	773849088	48	5906
2026-01-14 12:11:10.15	93.81	12.52	-37.3	-38.2	23.6	0.00e+00	41	29	0	775946240	48	5880
2026-01-14 12:11:11.16	94.00	12.49	-37.3	-38.2	23.5	0.00e+00	92	28	0	778043392	48	5875
2026-01-14 12:11:12.16	94.19	12.46	-37.3	-38.2	23.6	0.00e+00	45	29	0	780140544	48	5884
2026-01-14 12:11:13.17	94.38	12.43	-37.4	-38.3	23.6	0.00e+00	92	29	0	782237696	48	5907
2026-01-14 12:11:14.18	94.56	12.40	-37.3	-38.2	23.6	0.00e+00	0	29	0	783286272	48	5886
2026-01-14 12:11:15.19	94.75	12.37	-37.5	-38.4	23.4	0.00e+00	0	29	0	785383424	48	6018
2026-01-14 12:11:16.20	94.94	12.34	-37.5	-38.4	23.5	0.00e+00	0	29	0	787480576	48	6009
2026-01-14 12:11:17.21	95.12	12.31	-37.5	-38.4	23.5	0.00e+00	0	29	0	789577728	48	5993
2026-01-14 12:11:18.22	95.31	12.28	-37.7	-38.7	23.2	0.00e+00	22	29	0	791674880	48	6187
2026-01-14 12:11:19.23	95.50	12.25	-37.8	-38.8	23.2	0.00e+00	0	28	0	792723456	48	6257
2026-01-14 12:11:20.24	95.68	12.22	-37.9	-38.8	23.0	0.00e+00	92	29	0	794820608	48	6302
2026-01-14 12:11:21.25	95.87	12.19	-38.1	-39.1	22.9	0.00e+00	0	28	0	796917760	48	6480
2026-01-14 12:11:22.26	96.05	12.16	-38.2	-39.2	22.6	0.00e+00	63	28	0	799014912	48	6611
2026-01-14 12:11:23.27	96.24	12.13	-38.1	-39.1	22.6	0.00e+00	3	28	0	801112064	48	6476
2026-01-14 12:11:24.28	96.42	12.10	-38.3	-39.3	22.7	0.00e+00	0	29	0	802160640	48	6636
2026-01-14 12:11:25.29	96.60	12.07	-38.2	-39.2	22.6	0.00e+00	0	29	0	804257792	48	6597
2026-01-14 12:11:26.30	96.79	12.04	-38.5	-39.5	22.4	0.00e+00	0	29	0	806354944	48	6829
2026-01-14 12:11:27.30	96.97	12.01	-38.7	-39.7	22.2	0.00e+00	92	28	0	808452096	48	6992
2026-01-14 12:11:28.32	97.15	11.97	-38.4	-39.4	22.5	0.00e+00	0	28	0	810549248	48	6748
2026-01-14 12:11:29.32	97.33	11.94	-38.6	-39.6	22.3	0.00e+00	92	29	0	811597824	48	6901
2026-01-14 12:11:30.33	97.51	11.91	-38.7	-39.7	22.1	0.00e+00	0	29	0	813694976	48	7000
2026-01-14 12:11:31.34	97.69	11.88	-38.9	-39.9	21.9	0.00e+00	0	29	0	815792128	50	6365
2026-01-14 12:11:32.35	97.88	11.84	-39.0	-40.1	22.0	0.00e+00	42	29	0	817889280	50	6515
2026-01-14 12:11:33.36	98.06	11.81	-38.9	-40.0	21.9	0.00e+00	39	29	0	819986432	50	6411
2026-01-14 12:11:34.37	98.24	11.78	-39.0	-40.1	21.9	0.00e+00	90	29	0	821035008	50	6519
2026-01-14 12:11:35.38	98.42	11.74	-38.8	-39.9	22.0	0.00e+00	6	29	0	823132160	50	6369
2026-01-14 12:11:36.39	98.59	11.71	-38.7	-39.8	22.1	0.00e+00	90	28	0	825229312	50	6292
2026-01-14 12:11:37.40	98.77	11.68	-38.7	-39.8	22.1	0.00e+00	43	28	0	827326464	50	6291
2026-01-14 12:11:38.41	98.95	11.64	-38.8	-39.9	21.9	0.00e+00	5	29	0	829423616	50	6336
2026-01-14 12:11:39.41	99.13	11.61	-38.9	-40.0	21.9	0.00e+00	0	29	0	830472192	50	6423
2026-01-14 12:11:40.42	99.31	11.57	-39.0	-40.1	21.9	0.00e+00	5	29	0	832569344	50	6498
2026-01-14 12:11:41.43	99.48	11.54	-39.2	-40.3	21.6	0.00e+00	0	29	0	834666496	50	6678
2026-01-14 12:11:42.44	99.66	11.50	-39.4	-40.6	21.4	0.00e+00	7	29	0	836763648	50	6858
2026-01-14 12:11:43.45	99.84	11.47	-39.7	-40.9	21.1	0.00e+00	91	29	0	838860800	50	7090
2026-01-14 12:11:44.46	100.01	11.43	-39.9	-41.1	20.9	0.00e+00	5	29	0	839909376	52	6521
2026-01-14 12:11:45.47	100.19	11.40	-40.1	-41.4	20.7	0.00e+00	91	29	0	842006528	52	6722
2026-01-14 12:11:46.48	100.36	11.36	-40.2	-41.5	20.5	0.00e+00	0	28	0	844103680	52	6809
2026-01-14 12:11:47.49	100.54	11.33	-40.2	-41.5	20.6	0.00e+00	0	29	0	846200832	52	6785
2026-01-14 12:11:48.49	100.71	11.29	-40.3	-41.7	20.4	0.00e+00	0	29	0	848297984	52	6930
2026-01-14 12:11:49.50	100.89	11.25	-40.5	-41.9	20.1	0.00e+00	38	29	0	850395136	52	7089
2026-01-14 12:11:50.51	101.06	11.22	-40.8	-42.2	19.9	0.00e+00	91	29	0	851443712	54	6553
2026-01-14 12:11:51.52	101.23	11.18	-41.0	-42.4	19.6	0.00e+00	0	29	0	853540864	54	6748
2026-01-14 12:11:52.53	101.41	11.14	-41.0	-42.5	19.6	0.00e+00	92	29	0	855638016	54	6786
2026-01-14 12:11:53.54	101.58	11.11	-41.1	-42.5	19.5	0.00e+00	6	29	0	857735168	54	6840
2026-01-14 12:11:54.55	101.75	11.07	-40.8	-42.2	19.8	0.00e+00	31	28	0	859832320	54	6594
2026-01-14 12:11:55.56	101.92	11.03	-40.6	-42.0	20.0	0.00e+00	55	29	0	860880896	54	6460
2026-01-14 12:11:56.57	102.09	11.00	-40.6	-42.0	20.1	0.00e+00	32	29	0	862978048	54	6430
2026-01-14 12:11:57.58	102.26	10.96	-40.4	-41.8	20.2	0.00e+00	92	28	0	865075200	54	6277
2026-01-14 12:11:58.59	102.43	10.92	-40.2	-41.6	20.4	0.00e+00	56	28	0	867172352	54	6150
2026-01-14 12:11:59.60	102.60	10.88	-40.0	-41.4	20.6	0.00e+00	92	29	0	869269504	54	6011
2026-01-14 12:12:00.61	102.77	10.84	-39.9	-41.3	20.7	0.00e+00	7	28	0	870318080	54	5934
2026-01-14 12:12:01.61	102.94	10.81	-39.9	-41.3	20.7	0.00e+00	41	29	0	872415232	54	5943
2026-01-14 12:12:02.62	103.11	10.77	-39.9	-41.3	20.7	0.00e+00	6	29	0	874512384	54	5947
2026-01-14 12:12:03.63	103.28	10.73	-40.0	-41.4	20.6	0.00e+00	0	29	0	876609536	54	6006
2026-01-14 12:12:04.64	103.44	10.69	-40.0	-41.4	20.6	0.00e+00	2	29	0	878706688	54	5971
2026-01-14 12:12:05.65	103.61	10.65	-40.1	-41.4	20.6	0.00e+00	0	29	0	879755264	54	5978
2026-01-14 12:12:06.65	103.78	10.61	-40.2	-41.6	20.4	0.00e+00	92	29	0	881852416	54	6148
2026-01-14 12:12:07.66	103.94	10.57	-40.4	-41.8	20.2	0.00e+00	0	29	0	883949568	54	6274
2026-01-14 12:12:08.67	104.11	10.53	-40.6	-42.1	19.9	0.00e+00	91	29	0	886046720	54	6489
2026-01-14 12:12:09.68	104.28	10.49	-40.6	-42.2	19.8	0.00e+00	0	29	0	888143872	54	6580
2026-01-14 12:12:10.69	104.44	10.45	-40.9	-42.4	19.6	0.00e+00	0	29	0	889192448	54	6715
2026-01-14 12:12:11.70	104.61	10.41	-41.0	-42.5	19.5	0.00e+00	0	29	0	891289600	54	6780
2026-01-14 12:12:12.71	104.77	10.37	-41.0	-42.5	19.6	0.00e+00	0	29	0	893386752	54	6789
2026-01-14 12:12:13.72	104.93	10.33	-40.7	-42.2	19.8	0.00e+00	91	29	0	895483904	54	6607
2026-01-14 12:12:14.73	105.10	10.29	-40.5	-41.9	20.1	0.00e+00	38	29	0	897581056	54	6346
2026-01-14 12:12:15.74	105.26	10.25	-40.5	-41.9	20.1	0.00e+00	92	28	0	898629632	54	6349
2026-01-14 12:12:16.75	105.42	10.21	-40.1	-41.4	20.6	0.00e+00	39	29	0	900726784	54	5966
2026-01-14 12:12:17.76	105.58	10.17	-40.2	-41.5	20.4	0.00e+00	44	29	0	902823936	54	6085
2026-01-14 12:12:18.77	105.75	10.13	-40.3	-41.6	20.4	0.00e+00	37	28	0	904921088	54	6105
2026-01-14 12:12:19.78	105.91	10.09	-40.0	-41.2	20.7	0.00e+00	43	28	0	907018240	54	5882
2026-01-14 12:12:20.79	106.07	10.05	-40.1	-41.4	20.5	0.00e+00	90	29	0	908066816	54	6009
2026-01-14 12:12:21.80	106.23	10.01	-40.2	-41.5	20.4	0.00e+00	44	29	0	910163968	54	6098
2026-01-14 12:12:22.81	106.39	9.97	-40.4	-41.7	20.2	0.00e+00	92	28	0	912261120	54	6216
2026-01-14 12:12:23.82	106.55	9.93	-40.2	-41.5	20.4	0.00e+00	0	29	0	914358272	54	6040
2026-01-14 12:12:24.83	106.71	9.88	-40.3	-41.6	20.3	0.00e+00	86	29	0	916455424	54	6150
2026-01-14 12:12:25.84	106.87	9.84	-39.8	-41.0	20.8	0.00e+00	0	29	0	918552576	54	5755
2026-01-14 12:12:26.85	107.02	9.80	-39.7	-40.9	21.0	0.00e+00	0	29	0	919601152	52	6343
2026-01-14 12:12:27.86	107.18	9.76	-39.6	-40.8	21.1	0.00e+00	0	28	0	921698304	52	6299
2026-01-14 12:12:28.86	107.34	9.72	-39.2	-40.3	21.6	0.00e+00	0	28	0	923795456	52	5934
2026-01-14 12:12:29.88	107.50	9.67	-39.2	-40.4	21.5	0.00e+00	92	28	0	925892608	52	5987
2026-01-14 12:12:30.88	107.65	9.63	-39.3	-40.4	21.5	0.00e+00	38	29	0	927989760	52	6001
2026-01-14 12:12:31.89	107.81	9.59	-39.2	-40.4	21.5	0.00e+00	90	28	0	929038336	52	5972
2026-01-14 12:12:32.90	107.96	9.55	-39.4	-40.6	21.3	0.00e+00	38	29	0	931135488	52	6115
2026-01-14 12:12:33.91	108.12	9.51	-39.6	-40.8	21.1	0.00e+00	39	28	0	933232640	52	6269
2026-01-14 12:12:34.92	108.27	9.46	-39.5	-40.7	21.2	0.00e+00	0	29	0	935329792	52	6215
2026-01-14 12:12:35.93	108.43	9.42	-39.7	-40.9	21.0	0.00e+00	39	28	0	937426944	52	6366
2026-01-14 12:12:36.94	108.58	9.38	-39.7	-40.9	21.0	0.00e+00	92	29	0	938475520	52	6381
2026-01-14 12:12:37.95	108.73	9.33	-39.7	-41.0	20.8	0.00e+00	31	29	0	940572672	52	6400
2026-01-14 12:12:38.96	108.89	9.29	-39.8	-41.0	20.9	0.00e+00	92	29	0	942669824	52	6410
2026-01-14 12:12:39.97	109.04	9.25	-39.8	-41.0	20.9	0.00e+00	37	29	0	944766976	52	6404
2026-01-14 12:12:40.98	109.19	9.20	-39.7	-41.1	20.9	0.00e+00	0	29	0	946864128	52	6487
2026-01-14 12:12:41.99	109.34	9.16	-39.6	-41.1	20.8	0.00e+00	0	29	0	947912704	52	6491
2026-01-14 12:12:43.00	109.49	9.12	-39.6	-41.0	20.8	0.00e+00	0	29	0	950009856	52	6450
2026-01-14 12:12:44.01	109.65	9.07	-39.6	-41.0	20.9	0.00e+00	92	28	0	952107008	52	6415
2026-01-14 12:12:45.02	109.80	9.03	-39.7	-40.9	20.9	0.00e+00	2	29	0	954204160	52	6356
2026-01-14 12:12:46.03	109.95	8.99	-39.6	-40.9	21.0	0.00e+00	92	29	0	956301312	52	6326
2026-01-14 12:12:47.04	110.09	8.94	-39.3	-40.6	21.3	0.00e+00	2	29	0	957349888	52	6116
2026-01-14 12:12:48.04	110.24	8.90	-39.2	-40.4	21.4	0.00e+00	92	29	0	959447040	52	6018
2026-01-14 12:12:49.05	110.39	8.85	-39.2	-40.4	21.4	0.00e+00	0	29	0	961544192	52	5999
2026-01-14 12:12:50.07	110.54	8.81	-39.0	-40.1	21.8	0.00e+00	0	29	0	963641344	52	5810
2026-01-14 12:12:51.08	110.69	8.77	-38.9	-40.0	21.8	0.00e+00	32	29	0	965738496	52	5729
2026-01-14 12:12:52.08	110.83	8.72	-38.8	-39.9	21.9	0.00e+00	39	29	0	966787072	52	5667
2026-01-14 12:12:53.09	110.98	8.68	-38.4	-39.5	22.2	0.00e+00	92	29	0	968884224	50	6047
2026-01-14 12:12:54.10	111.13	8.63	-38.5	-39.6	22.1	0.00e+00	33	29	0	970981376	50	6142
2026-01-14 12:12:55.11	111.27	8.59	-38.5	-39.7	22.1	0.00e+00	92	29	0	973078528	50	6176
2026-01-14 12:12:56.12	111.42	8.54	-38.6	-39.8	22.0	0.00e+00	33	29	0	975175680	50	6269
2026-01-14 12:12:57.13	111.56	8.50	-38.8	-39.9	21.8	0.00e+00	50	29	0	976224256	50	6366
2026-01-14 12:12:58.14	111.71	8.45	-38.9	-40.1	21.5	0.00e+00	2	29	0	978321408	50	6488
2026-01-14 12:12:59.14	111.85	8.41	-38.9	-40.1	21.5	0.00e+00	0	28	0	980418560	50	6488
2026-01-14 12:13:00.16	112.00	8.36	-38.9	-40.0	21.7	0.00e+00	91	29	0	982515712	50	6436
2026-01-14 12:13:01.16	112.14	8.32	-39.0	-40.1	21.7	0.00e+00	46	28	0	984612864	50	6478
2026-01-14 12:13:02.17	112.28	8.27	-39.0	-40.0	21.7	0.00e+00	90	29	0	986710016	50	6461
2026-01-14 12:13:03.18	112.43	8.23	-38.8	-39.9	21.9	0.00e+00	4	29	0	987758592	50	6346
2026-01-14 12:13:04.19	112.57	8.18	-38.9	-40.0	21.7	0.00e+00	0	29	0	989855744	50	6424
2026-01-14 12:13:05.20	112.71	8.14	-38.6	-39.6	22.1	0.00e+00	2	29	0	991952896	50	6143
2026-01-14 12:13:06.21	112.85	8.09	-38.8	-39.9	21.9	0.00e+00	0	29	0	994050048	50	6329
2026-01-14 12:13:07.22	112.99	8.05	-38.6	-39.7	21.9	0.00e+00	36	29	0	995098624	50	6228
2026-01-14 12:13:08.23	113.13	8.00	-38.9	-40.0	21.7	0.00e+00	0	29	0	997195776	50	6405
2026-01-14 12:13:09.24	113.27	7.96	-38.9	-40.0	21.7	0.00e+00	92	29	0	999292928	50	6430
2026-01-14 12:13:10.25	113.41	7.91	-38.9	-40.1	21.7	0.00e+00	2	29	0	1001390080	50	6507
2026-01-14 12:13:11.26	113.55	7.87	-39.0	-40.2	21.5	0.00e+00	90	29	0	1003487232	50	6600
2026-01-14 12:13:12.26	113.69	7.82	-39.0	-40.2	21.5	0.00e+00	0	29	0	1004535808	50	6615
2026-01-14 12:13:13.28	113.83	7.77	-39.0	-40.1	21.5	0.00e+00	34	29	0	1006632960	50	6532
2026-01-14 12:13:14.28	113.97	7.73	-38.9	-40.0	21.7	0.00e+00	0	28	0	1008730112	50	6439
2026-01-14 12:13:15.29	114.10	7.68	-38.8	-39.9	21.7	0.00e+00	0	29	0	1010827264	50	6348
2026-01-14 12:13:16.30	114.24	7.64	-38.7	-39.8	21.8	0.00e+00	92	29	0	1012924416	50	6287
2026-01-14 12:13:17.31	114.38	7.59	-38.8	-39.8	21.8	0.00e+00	35	29	0	1015021568	50	6303
2026-01-14 12:13:18.32	114.51	7.54	-38.7	-39.8	21.8	0.00e+00	92	29	0	1016070144	50	6292
2026-01-14 12:13:19.33	114.65	7.50	-38.8	-39.9	21.7	0.00e+00	47	29	0	1018167296	50	6368
2026-01-14 12:13:20.34	114.78	7.45	-39.0	-40.2	21.5	0.00e+00	44	28	0	1020264448	50	6556
2026-01-14 12:13:21.35	114.92	7.41	-39.0	-40.1	21.5	0.00e+00	47	29	0	1022361600	50	6500
2026-01-14 12:13:22.36	115.05	7.36	-38.9	-40.1	21.6	0.00e+00	0	29	0	1024458752	50	6471
2026-01-14 12:13:23.36	115.19	7.31	-39.0	-40.2	21.4	0.00e+00	91	29	0	1025507328	50	6601
2026-01-14 12:13:24.37	115.32	7.27	-39.1	-40.3	21.4	0.00e+00	54	29	0	1027604480	50	6622
2026-01-14 12:13:25.38	115.45	7.22	-39.1	-40.3	21.4	0.00e+00	91	29	0	1029701632	50	6650
2026-01-14 12:13:26.39	115.59	7.17	-39.1	-40.3	21.4	0.00e+00	6	29	0	1031798784	50	6618
2026-01-14 12:13:27.40	115.72	7.13	-39.0	-40.1	21.6	0.00e+00	41	29	0	1033895936	50	6519
2026-01-14 12:13:28.41	115.85	7.08	-38.9	-40.0	21.7	0.00e+00	48	29	0	1034944512	50	6436
2026-01-14 12:13:29.42	115.98	7.03	-38.8	-39.9	21.7	0.00e+00	6	29	0	1037041664	50	6380
2026-01-14 12:13:30.43	116.12	6.99	-38.8	-40.0	21.6	0.00e+00	92	29	0	1039138816	50	6396
2026-01-14 12:13:31.44	116.25	6.94	-38.8	-39.9	21.8	0.00e+00	6	29	0	1041235968	50	6386
2026-01-14 12:13:32.45	116.38	6.89	-38.8	-39.9	21.7	0.00e+00	92	29	0	1043333120	50	6341
2026-01-14 12:13:33.46	116.51	6.85	-38.8	-40.0	21.6	0.00e+00	5	29	0	1044381696	50	6407
2026-01-14 12:13:34.47	116.64	6.80	-39.0	-40.1	21.4	0.00e+00	92	29	0	1046478848	50	6533
2026-01-14 12:13:35.48	116.77	6.75	-39.0	-40.2	21.4	0.00e+00	0	29	0	1048576000	50	6580
2026-01-14 12:13:36.49	116.90	6.71	-39.2	-40.4	21.2	0.00e+00	0	29	0	1050673152	50	6712
2026-01-14 12:13:37.50	117.02	6.66	-39.3	-40.6	21.1	0.00e+00	0	29	0	1052770304	50	6850
2026-01-14 12:13:38.51	117.15	6.61	-39.3	-40.5	21.2	0.00e+00	0	29	0	1053818880	50	6832
2026-01-14 12:13:39.52	117.28	6.57	-39.2	-40.5	21.1	0.00e+00	92	29	0	1055916032	50	6826
2026-01-14 12:13:40.53	117.41	6.52	-39.3	-40.5	21.1	0.00e+00	53	28	0	1058013184	50	6835
2026-01-14 12:13:41.54	117.53	6.47	-39.6	-40.8	20.8	0.00e+00	92	29	0	1060110336	50	7056
2026-01-14 12:13:42.55	117.66	6.42	-39.3	-40.5	21.1	0.00e+00	52	28	0	1062207488	50	6822
2026-01-14 12:13:43.56	117.79	6.38	-39.3	-40.5	21.1	0.00e+00	34	29	0	1063256064	50	6799
2026-01-14 12:13:44.56	117.91	6.33	-39.4	-40.6	21.1	0.00e+00	52	29	0	1065353216	50	6898
2026-01-14 12:13:45.57	118.04	6.28	-39.2	-40.4	21.2	0.00e+00	5	29	0	1067450368	50	6763
2026-01-14 12:13:46.58	118.16	6.24	-39.2	-40.4	21.3	0.00e+00	92	29	0	1069547520	50	6704
2026-01-14 12:13:47.59	118.29	6.19	-39.3	-40.5	21.1	0.00e+00	54	29	0	1071644672	50	6783
2026-01-14 12:13:48.60	118.41	6.14	-39.5	-40.7	20.9	0.00e+00	92	28	0	1072693248	50	6946
2026-01-14 12:13:49.61	118.54	6.09	-39.5	-40.7	20.9	0.00e+00	50	29	0	1074790400	50	6999
2026-01-14 12:13:50.62	118.66	6.05	-39.6	-40.8	20.8	0.00e+00	92	29	0	1076887552	50	7074
2026-01-14 12:13:51.63	118.78	6.00	-39.7	-40.9	20.7	0.00e+00	0	29	0	1078984704	52	6369
2026-01-14 12:13:52.64	118.90	5.95	-39.7	-41.0	20.6	0.00e+00	0	28	0	1081081856	52	6439
2026-01-14 12:13:53.65	119.03	5.90	-39.8	-41.1	20.5	0.00e+00	14	29	0	1083179008	52	6468
2026-01-14 12:13:54.66	119.15	5.86	-39.9	-41.2	20.5	0.00e+00	6	29	0	1084227584	52	6546
2026-01-14 12:13:55.67	119.27	5.81	-39.9	-41.2	20.3	0.00e+00	92	29	0	1086324736	52	6585
2026-01-14 12:13:56.68	119.39	5.76	-39.8	-41.1	20.4	0.00e+00	29	29	0	1088421888	52	6531
2026-01-14 12:13:57.69	119.51	5.71	-39.9	-41.2	20.3	0.00e+00	92	29	0	1090519040	52	6591
2026-01-14 12:13:58.70	119.63	5.67	-39.8	-41.1	20.5	0.00e+00	28	29	0	1092616192	52	6488
2026-01-14 12:13:59.71	119.75	5.62	-39.8	-41.1	20.5	0.00e+00	29	29	0	1093664768	52	6538
2026-01-14 12:14:00.72	119.87	5.57	-39.6	-41.0	20.6	0.00e+00	0	29	0	1095761920	52	6404
2026-01-14 12:14:01.73	119.99	5.52	-39.7	-41.0	20.5	0.00e+00	34	29	0	1097859072	52	6454
2026-01-14 12:14:02.73	120.11	5.48	-39.8	-41.1	20.4	0.00e+00	92	29	0	1099956224	52	6520
2026-01-14 12:14:03.75	120.23	5.43	-39.8	-41.1	20.5	0.00e+00	54	28	0	1102053376	52	6515
2026-01-14 12:14:04.75	120.35	5.38	-39.9	-41.3	20.3	0.00e+00	92	28	0	1103101952	52	6654
2026-01-14 12:14:05.76	120.46	5.33	-39.9	-41.3	20.2	0.00e+00	47	28	0	1105199104	52	6667
2026-01-14 12:14:06.77	120.58	5.29	-40.1	-41.6	20.0	0.00e+00	63	28	0	1107296256	52	6855
2026-01-14 12:14:07.78	120.70	5.24	-40.2	-41.6	19.9	0.00e+00	0	29	0	1109393408	52	6901
2026-01-14 12:14:08.79	120.82	5.19	-40.1	-41.5	19.9	0.00e+00	46	28	0	1111490560	52	6790
2026-01-14 12:14:09.80	120.93	5.14	-40.1	-41.5	20.0	0.00e+00	92	29	0	1112539136	52	6844
2026-01-14 12:14:10.81	121.05	5.10	-40.3	-41.7	19.7	0.00e+00	2	29	0	1114636288	52	6960
2026-01-14 12:14:11.82	121.16	5.05	-40.5	-42.0	19.5	0.00e+00	92	29	0	1116733440	52	7209
2026-01-14 12:14:12.83	121.28	5.00	-40.4	-41.9	19.6	0.00e+00	0	29	0	1118830592	52	7102
2026-01-14 12:14:13.84	121.39	4.95	-40.3	-41.7	19.7	0.00e+00	0	28	0	1120927744	52	6948
2026-01-14 12:14:14.85	121.51	4.90	-40.5	-41.9	19.6	0.00e+00	0	29	0	1121976320	52	7138
2026-01-14 12:14:15.86	121.62	4.86	-40.4	-41.8	19.6	0.00e+00	2	29	0	1124073472	52	7041
2026-01-14 12:14:16.87	121.74	4.81	-40.4	-41.8	19.4	0.00e+00	0	29	0	1126170624	52	7077
2026-01-14 12:14:17.87	121.85	4.76	-40.4	-41.9	19.6	0.00e+00	0	28	0	1128267776	52	7102
2026-01-14 12:14:18.88	121.96	4.71	-40.4	-41.9	19.5	0.00e+00	92	29	0	1130364928	52	7101
2026-01-14 12:14:19.89	122.08	4.67	-40.6	-42.1	19.4	0.00e+00	33	28	0	1131413504	52	7261
2026-01-14 12:14:20.90	122.19	4.62	-40.6	-42.2	19.2	0.00e+00	91	29	0	1133510656	52	7362
2026-01-14 12:14:21.91	122.30	4.57	-40.7	-42.3	19.1	0.00e+00	33	29	0	1135607808	54	6638
2026-01-14 12:14:22.92	122.41	4.52	-40.5	-42.0	19.4	0.00e+00	0	29	0	1137704960	54	6438
2026-01-14 12:14:23.93	122.52	4.48	-40.7	-42.3	19.1	0.00e+00	0	29	0	1139802112	54	6616
2026-01-14 12:14:24.94	122.63	4.43	-40.9	-42.4	18.9	0.00e+00	55	29	0	1140850688	54	6760
2026-01-14 12:14:25.95	122.74	4.38	-40.8	-42.3	19.0	0.00e+00	92	29	0	1142947840	54	6689
2026-01-14 12:14:26.96	122.86	4.33	-40.7	-42.2	19.2	0.00e+00	0	28	0	1145044992	54	6578
2026-01-14 12:14:27.97	122.97	4.28	-40.6	-42.1	19.2	0.00e+00	92	29	0	1147142144	54	6529
2026-01-14 12:14:28.98	123.07	4.24	-40.5	-42.1	19.3	0.00e+00	0	29	0	1149239296	54	6468
2026-01-14 12:14:29.99	123.18	4.19	-40.6	-42.1	19.2	0.00e+00	0	29	0	1151336448	54	6525
2026-01-14 12:14:31.00	123.29	4.14	-40.6	-42.1	19.2	0.00e+00	0	29	0	1152385024	54	6528
2026-01-14 12:14:32.01	123.40	4.09	-40.7	-42.3	18.9	0.00e+00	0	29	0	1154482176	54	6621
2026-01-14 12:14:33.02	123.51	4.05	-40.9	-42.5	18.8	0.00e+00	91	29	0	1156579328	54	6792
2026-01-14 12:14:34.03	123.62	4.00	-41.1	-42.8	18.5	0.00e+00	2	29	0	1158676480	54	7071
2026-01-14 12:14:35.04	123.73	3.95	-41.1	-42.7	18.6	0.00e+00	90	29	0	1160773632	54	6976
2026-01-14 12:14:36.05	123.83	3.90	-41.2	-43.0	18.4	0.00e+00	0	29	0	1161822208	54	7176
2026-01-14 12:14:37.06	123.94	3.85	-41.0	-42.7	18.6	0.00e+00	74	29	0	1163919360	54	6929
2026-01-14 12:14:38.07	124.05	3.81	-40.6	-42.1	19.1	0.00e+00	0	29	0	1166016512	54	6518
2026-01-14 12:14:39.08	124.15	3.76	-40.7	-42.3	18.8	0.00e+00	0	29	0	1168113664	54	6688
2026-01-14 12:14:40.09	124.26	3.71	-41.2	-43.0	18.2	0.00e+00	43	29	0	1170210816	54	7172
2026-01-14 12:14:41.10	124.36	3.66	-40.7	-42.3	18.9	0.00e+00	33	29	0	1171259392	54	6640
2026-01-14 12:14:42.11	124.47	3.62	-40.8	-42.4	18.8	0.00e+00	92	29	0	1173356544	54	6741
2026-01-14 12:14:43.12	124.57	3.57	-41.2	-43.1	18.1	0.00e+00	0	29	0	1175453696	54	7258
2026-01-14 12:14:44.13	124.68	3.52	-41.3	-43.1	18.0	0.00e+00	90	29	0	1177550848	54	7297
2026-01-14 12:14:45.14	124.78	3.47	-41.0	-42.7	18.5	0.00e+00	47	29	0	1179648000	54	6997
2026-01-14 12:14:46.15	124.89	3.42	-40.9	-42.5	18.5	0.00e+00	48	29	0	1180696576	54	6843
2026-01-14 12:14:47.16	124.99	3.38	-41.3	-43.1	17.9	0.00e+00	33	29	0	1182793728	54	7319
2026-01-14 12:14:48.17	125.09	3.33	-41.0	-42.7	18.4	0.00e+00	47	29	0	1184890880	54	6968
2026-01-14 12:14:49.18	125.20	3.28	-40.9	-42.6	18.4	0.00e+00	91	29	0	1186988032	54	6882
2026-01-14 12:14:50.19	125.30	3.23	-41.5	-43.4	17.6	0.00e+00	0	29	0	1189085184	54	7533
2026-01-14 12:14:51.20	125.40	3.19	-41.1	-42.8	18.2	0.00e+00	80	29	0	1190133760	54	7083
2026-01-14 12:14:52.21	125.51	3.14	-40.9	-42.6	18.3	0.00e+00	0	29	0	1192230912	54	6868
2026-01-14 12:14:53.21	125.61	3.09	-41.3	-43.2	17.7	0.00e+00	53	29	0	1194328064	54	7391
2026-01-14 12:14:54.23	125.71	3.04	-41.3	-43.2	17.8	0.00e+00	0	29	0	1196425216	54	7342
2026-01-14 12:14:55.24	125.81	3.00	-41.5	-43.4	17.5	0.00e+00	0	29	0	1198522368	54	7571
2026-01-14 12:14:56.25	125.91	2.95	-47.6	-62.8	3.6	1.51e+00	0	29	104	1198522368	60	50015
