passes_logs/2026/01/14/R4.6S_Anadyr/R4.6S_Anadyr__20260114_160226_FENGYUN_3D_rec.log

#Pass ID: 20260114_160226_FENGYUN 3D
#Satellite: FENGYUN 3D
#Configuration: FENGYUN 3D
#almurnet v.1.7.20251203
#Start time: 2026-01-14 16:02:30

#Version: 2.2.20231116
#Station: R4.6S_Anadyr
#Location: 177.4865 lon 64.73178 lat
#TLE: 1 43010U 17072A   26013.94640698 -.00000044  00000+0  88349-6 0  9999
#TLE: 2 43010  98.9934 345.7464 0002313 110.9627 249.1796 14.19695403423100

#Time	Az	El	Level	Level2	SNR	BER	BlckErr	Temp	State	Recorded	gain1	gain2
2026-01-14 16:02:30.18	19.90	0.19	-48.7	-59.4	3.3	8.39e-01	0	27	0	0	60	33839
2026-01-14 16:02:31.18	19.92	0.25	-48.8	-60.9	3.6	8.46e-01	0	27	104	0	60	40124
2026-01-14 16:02:32.19	19.95	0.31	-48.8	-60.9	3.6	8.45e-01	0	27	104	0	60	40207
2026-01-14 16:02:33.20	19.98	0.37	-48.8	-60.9	3.6	8.44e-01	0	27	104	0	60	40100
2026-01-14 16:02:34.21	20.01	0.43	-48.7	-60.8	3.6	8.46e-01	0	27	104	0	60	39806
2026-01-14 16:02:35.22	20.04	0.49	-48.7	-60.8	3.6	8.46e-01	0	27	104	0	60	39691
2026-01-14 16:02:36.23	20.06	0.55	-48.6	-60.7	3.6	8.45e-01	0	27	104	0	60	39210
2026-01-14 16:02:37.24	20.09	0.61	-48.5	-60.6	3.6	8.45e-01	0	27	104	0	60	38834
2026-01-14 16:02:38.25	20.12	0.67	-48.4	-60.4	3.6	8.45e-01	0	27	104	0	60	38024
2026-01-14 16:02:39.26	20.15	0.73	-48.1	-60.2	3.6	8.45e-01	0	27	104	0	60	37119
2026-01-14 16:02:40.27	20.18	0.79	-48.0	-60.1	3.6	8.44e-01	0	27	104	0	60	36455
2026-01-14 16:02:41.28	20.21	0.85	-47.8	-59.9	3.6	8.44e-01	0	27	104	0	60	35608
2026-01-14 16:02:42.29	20.24	0.91	-47.4	-59.5	3.6	8.45e-01	0	27	104	0	60	34002
2026-01-14 16:02:43.30	20.26	0.97	-47.2	-59.3	3.6	8.44e-01	0	27	104	0	60	33353
2026-01-14 16:02:44.31	20.29	1.03	-47.2	-59.2	3.6	8.45e-01	0	27	104	0	60	33156
2026-01-14 16:02:45.32	20.32	1.09	-47.2	-59.2	3.6	8.44e-01	0	27	104	0	60	33131
2026-01-14 16:02:46.33	20.35	1.16	-47.2	-59.2	3.6	8.46e-01	0	27	104	0	60	33105
2026-01-14 16:02:47.34	20.38	1.22	-47.2	-59.2	3.6	8.45e-01	0	27	104	0	60	32985
2026-01-14 16:02:48.35	20.41	1.28	-47.2	-59.1	3.6	8.46e-01	0	27	104	0	60	32649
2026-01-14 16:02:49.36	20.44	1.34	-47.2	-59.1	3.6	8.46e-01	0	27	104	0	60	32645
2026-01-14 16:02:50.37	20.47	1.40	-47.2	-59.1	3.6	8.45e-01	0	27	104	0	60	32561
2026-01-14 16:02:51.38	20.50	1.46	-47.2	-59.1	3.6	8.45e-01	0	27	104	0	60	32728
2026-01-14 16:02:52.39	20.53	1.52	-47.2	-59.1	3.6	8.44e-01	0	27	104	0	60	32657
2026-01-14 16:02:53.40	20.56	1.59	-47.2	-59.1	3.6	8.44e-01	0	27	104	0	60	32729
2026-01-14 16:02:54.41	20.59	1.65	-47.1	-59.2	3.6	8.46e-01	0	27	104	0	60	32807
2026-01-14 16:02:55.42	20.62	1.71	-47.2	-59.2	3.6	8.47e-01	0	27	104	0	60	32794
2026-01-14 16:02:56.42	20.65	1.77	-47.2	-59.2	3.6	8.46e-01	0	28	104	0	60	32896
2026-01-14 16:02:57.43	20.68	1.83	-47.2	-59.1	3.6	8.45e-01	0	27	104	0	60	32626
2026-01-14 16:02:58.45	20.71	1.90	-47.2	-59.1	3.6	8.44e-01	0	27	104	0	60	32727
2026-01-14 16:02:59.46	20.74	1.96	-47.2	-59.2	3.6	8.46e-01	0	28	104	0	60	33013
2026-01-14 16:03:00.47	20.77	2.02	-47.2	-59.3	3.6	8.44e-01	0	27	104	0	60	33215
2026-01-14 16:03:01.48	20.80	2.09	-47.2	-59.1	3.6	8.44e-01	0	27	104	0	60	32601
2026-01-14 16:03:02.49	20.83	2.15	-47.1	-58.5	3.6	8.46e-01	0	28	104	0	60	30284
2026-01-14 16:03:03.50	20.86	2.21	-47.0	-57.8	3.6	8.44e-01	0	28	104	0	60	28128
2026-01-14 16:03:04.51	20.90	2.27	-46.9	-56.9	3.6	8.45e-01	0	27	104	0	60	25395
2026-01-14 16:03:05.52	20.93	2.34	-46.9	-55.5	3.7	8.42e-01	0	28	104	0	60	21612
2026-01-14 16:03:06.53	20.96	2.40	-46.8	-56.0	3.8	8.40e-01	0	28	0	0	60	22895
2026-01-14 16:03:07.54	20.99	2.47	-46.9	-57.0	3.7	8.43e-01	0	28	104	0	60	25466
2026-01-14 16:03:08.55	21.02	2.53	-47.0	-58.0	3.6	8.45e-01	0	28	104	0	60	28776
2026-01-14 16:03:09.56	21.05	2.59	-46.9	-56.7	3.6	8.43e-01	0	28	104	0	60	24769
2026-01-14 16:03:10.57	21.08	2.66	-46.4	-52.4	5.0	8.17e-01	0	28	0	0	60	15036
2026-01-14 16:03:11.58	21.12	2.72	-44.9	-48.4	9.2	7.41e-02	0	28	0	4194304	60	9553
2026-01-14 16:03:12.58	21.15	2.79	-43.5	-46.1	12.0	2.53e-03	0	28	0	9437184	60	7273
2026-01-14 16:03:13.60	21.18	2.85	-41.7	-43.4	14.9	3.40e-06	0	28	0	15728640	58	6027
2026-01-14 16:03:14.60	21.21	2.92	-39.9	-41.2	17.0	0.00e+00	0	28	0	20971520	54	5890
2026-01-14 16:03:15.62	21.25	2.98	-39.1	-40.2	18.1	0.00e+00	0	28	0	27262976	52	5890
2026-01-14 16:03:16.62	21.28	3.04	-37.6	-38.6	19.6	0.00e+00	0	28	0	32505856	48	6117
2026-01-14 16:03:17.63	21.31	3.11	-36.7	-37.6	20.5	0.00e+00	0	28	0	38797312	46	6167
2026-01-14 16:03:18.64	21.34	3.18	-36.7	-37.6	20.7	0.00e+00	0	28	0	44040192	46	6110
2026-01-14 16:03:19.65	21.38	3.24	-36.3	-37.1	21.0	0.00e+00	0	28	0	50331648	46	5808
2026-01-14 16:03:20.66	21.41	3.31	-36.6	-37.5	20.6	0.00e+00	0	28	0	55574528	46	6098
2026-01-14 16:03:21.68	21.44	3.37	-37.0	-37.9	20.1	0.00e+00	0	28	0	60817408	46	6376
2026-01-14 16:03:22.69	21.48	3.44	-37.8	-38.8	19.3	0.00e+00	0	28	0	67108864	46	7035
2026-01-14 16:03:23.70	21.51	3.50	-39.1	-40.3	17.9	0.00e+00	0	28	0	72351744	50	6661
2026-01-14 16:03:24.71	21.54	3.57	-40.6	-42.0	16.1	0.00e+00	0	28	0	78643200	52	7250
2026-01-14 16:03:25.72	21.58	3.64	-37.3	-38.2	20.0	0.00e+00	0	28	0	83886080	48	5860
2026-01-14 16:03:26.72	21.61	3.70	-43.1	-45.6	12.0	0.00e+00	0	28	0	89128960	54	9743
2026-01-14 16:03:27.73	21.64	3.77	-41.4	-43.1	13.0	5.28e-03	0	28	0	95420416	56	6466
2026-01-14 16:03:28.74	21.68	3.84	-41.6	-43.2	15.1	3.77e-05	0	28	0	100663296	56	6606
2026-01-14 16:03:29.75	21.71	3.90	-47.1	-57.0	3.6	2.63e-05	0	28	104	105906176	60	25613
2026-01-14 16:03:30.76	21.75	3.97	-44.2	-47.2	12.1	4.47e-01	0	28	104	105906176	60	8282
2026-01-14 16:03:31.77	21.78	4.04	-42.1	-44.0	14.4	1.60e-05	0	28	0	111149056	58	6417
2026-01-14 16:03:32.78	21.82	4.11	-41.8	-43.5	15.1	0.00e+00	0	28	0	116391936	56	6775
2026-01-14 16:03:33.79	21.85	4.17	-41.8	-43.6	15.0	0.00e+00	0	28	0	121634816	56	6855
2026-01-14 16:03:34.80	21.89	4.24	-40.4	-41.7	16.7	0.00e+00	0	28	0	127926272	54	6219
2026-01-14 16:03:35.81	21.92	4.31	-39.2	-40.3	18.3	0.00e+00	0	28	0	133169152	52	5945
2026-01-14 16:03:36.82	21.96	4.38	-38.4	-39.5	19.0	0.00e+00	0	28	0	139460608	50	6054
2026-01-14 16:03:37.83	21.99	4.45	-37.3	-38.2	20.4	0.00e+00	0	28	0	144703488	48	5871
2026-01-14 16:03:38.84	22.03	4.51	-36.6	-37.5	20.9	0.00e+00	0	28	0	150994944	46	6080
2026-01-14 16:03:39.85	22.06	4.58	-36.3	-37.2	21.2	0.00e+00	0	28	0	156237824	46	5838
2026-01-14 16:03:40.86	22.10	4.65	-35.9	-36.7	21.8	0.00e+00	0	28	0	162529280	46	5512
2026-01-14 16:03:41.87	22.13	4.72	-35.4	-36.2	22.3	0.00e+00	0	28	0	167772160	44	5834
2026-01-14 16:03:42.87	22.17	4.79	-35.5	-36.3	22.0	0.00e+00	0	28	0	173015040	44	5937
2026-01-14 16:03:43.88	22.21	4.86	-35.3	-36.1	22.3	0.00e+00	0	28	0	179306496	44	5794
2026-01-14 16:03:44.89	22.24	4.93	-35.1	-35.9	22.5	0.00e+00	0	28	0	184549376	44	5636
2026-01-14 16:03:45.90	22.28	5.00	-35.1	-35.9	22.4	0.00e+00	0	28	0	190840832	44	5665
2026-01-14 16:03:46.91	22.32	5.07	-35.3	-36.1	22.3	0.00e+00	0	28	0	196083712	44	5783
2026-01-14 16:03:47.92	22.35	5.14	-35.1	-35.9	22.5	0.00e+00	0	28	0	201326592	44	5679
2026-01-14 16:03:48.93	22.39	5.21	-35.1	-35.9	22.5	0.00e+00	0	28	0	207618048	44	5655
2026-01-14 16:03:49.94	22.43	5.28	-35.2	-36.0	22.5	0.00e+00	0	28	0	212860928	44	5741
2026-01-14 16:03:50.95	22.46	5.35	-34.9	-35.6	22.7	0.00e+00	0	28	0	219152384	44	5478
2026-01-14 16:03:51.96	22.50	5.42	-35.0	-35.7	22.7	0.00e+00	0	28	0	224395264	44	5537
2026-01-14 16:03:52.97	22.54	5.49	-35.0	-35.8	22.6	0.00e+00	0	28	0	229638144	44	5577
2026-01-14 16:03:53.98	22.58	5.56	-34.9	-35.7	22.8	0.00e+00	0	28	0	235929600	44	5524
2026-01-14 16:03:54.99	22.61	5.63	-35.0	-35.8	22.7	0.00e+00	0	28	0	241172480	44	5592
2026-01-14 16:03:56.00	22.65	5.70	-34.7	-35.5	23.0	0.00e+00	0	28	0	247463936	44	5407
2026-01-14 16:03:57.01	22.69	5.78	-34.8	-35.5	23.0	0.00e+00	0	28	0	252706816	42	6094
2026-01-14 16:03:58.02	22.73	5.85	-34.8	-35.6	23.0	0.00e+00	0	28	0	258998272	42	6113
2026-01-14 16:03:59.03	22.77	5.92	-34.8	-35.5	23.0	0.00e+00	0	28	0	264241152	42	6059
2026-01-14 16:04:00.04	22.81	5.99	-34.7	-35.4	23.1	0.00e+00	0	28	0	270532608	42	5997
2026-01-14 16:04:01.05	22.85	6.06	-34.7	-35.5	23.1	0.00e+00	0	28	0	275775488	42	6036
2026-01-14 16:04:02.06	22.88	6.14	-34.5	-35.2	23.4	0.00e+00	0	28	0	281018368	42	5851
2026-01-14 16:04:03.07	22.92	6.21	-34.6	-35.3	23.2	0.00e+00	0	28	0	287309824	42	5948
2026-01-14 16:04:04.08	22.96	6.28	-34.5	-35.2	23.2	0.00e+00	0	28	0	292552704	42	5884
2026-01-14 16:04:05.09	23.00	6.36	-34.7	-35.4	23.2	0.00e+00	0	28	0	297795584	42	5975
2026-01-14 16:04:06.10	23.04	6.43	-34.4	-35.2	23.3	0.00e+00	0	28	0	304087040	42	5845
2026-01-14 16:04:07.11	23.08	6.50	-34.3	-35.0	23.5	0.00e+00	0	28	0	309329920	42	5755
2026-01-14 16:04:08.12	23.12	6.58	-34.3	-35.1	23.5	0.00e+00	0	28	0	315621376	42	5765
2026-01-14 16:04:09.13	23.16	6.65	-34.5	-35.2	23.4	0.00e+00	0	28	0	320864256	42	5861
2026-01-14 16:04:10.14	23.20	6.72	-34.2	-34.9	23.6	0.00e+00	0	28	0	327155712	42	5692
2026-01-14 16:04:11.15	23.24	6.80	-34.3	-35.0	23.4	0.00e+00	0	28	0	332398592	42	5747
2026-01-14 16:04:12.16	23.29	6.87	-34.4	-35.1	23.5	0.00e+00	0	28	0	337641472	42	5816
2026-01-14 16:04:13.17	23.33	6.95	-34.2	-34.9	23.6	0.00e+00	0	28	0	343932928	42	5688
2026-01-14 16:04:14.18	23.37	7.02	-34.2	-35.0	23.6	0.00e+00	0	28	0	349175808	42	5704
2026-01-14 16:04:15.19	23.41	7.10	-34.3	-35.0	23.6	0.00e+00	0	28	0	355467264	42	5745
2026-01-14 16:04:16.20	23.45	7.17	-34.2	-35.0	23.6	0.00e+00	0	28	0	360710144	42	5698
2026-01-14 16:04:17.21	23.49	7.25	-34.2	-35.0	23.6	0.00e+00	0	28	0	367001600	42	5704
2026-01-14 16:04:18.22	23.53	7.33	-34.1	-34.9	23.7	0.00e+00	0	28	0	372244480	42	5635
2026-01-14 16:04:19.23	23.58	7.40	-34.2	-34.9	23.7	0.00e+00	0	28	0	377487360	42	5651
2026-01-14 16:04:20.24	23.62	7.48	-34.1	-34.8	23.8	0.00e+00	0	28	0	383778816	42	5583
2026-01-14 16:04:21.24	23.66	7.55	-34.0	-34.8	23.9	0.00e+00	0	28	0	389021696	42	5579
2026-01-14 16:04:22.25	23.70	7.63	-34.1	-34.8	23.8	0.00e+00	0	28	0	395313152	42	5599
2026-01-14 16:04:23.26	23.75	7.71	-34.2	-34.9	23.7	0.00e+00	0	28	0	400556032	42	5672
2026-01-14 16:04:24.27	23.79	7.78	-34.3	-35.0	23.6	0.00e+00	0	28	0	405798912	42	5740
2026-01-14 16:04:25.28	23.83	7.86	-34.5	-35.2	23.4	0.00e+00	0	28	0	412090368	42	5867
2026-01-14 16:04:26.29	23.88	7.94	-34.3	-35.0	23.7	0.00e+00	0	28	0	417333248	42	5719
2026-01-14 16:04:27.30	23.92	8.02	-34.0	-34.7	24.0	0.00e+00	0	28	0	423624704	42	5536
2026-01-14 16:04:28.31	23.96	8.10	-34.1	-34.8	23.9	0.00e+00	0	28	0	428867584	42	5579
2026-01-14 16:04:29.32	24.01	8.17	-34.1	-34.8	23.9	0.00e+00	0	28	0	434110464	42	5584
2026-01-14 16:04:30.33	24.05	8.25	-33.9	-34.6	24.0	0.00e+00	0	28	0	440401920	42	5500
2026-01-14 16:04:31.34	24.10	8.33	-33.9	-34.6	24.1	0.00e+00	0	28	0	445644800	42	5470
2026-01-14 16:04:32.35	24.14	8.41	-34.0	-34.7	24.0	0.00e+00	0	28	0	451936256	42	5512
2026-01-14 16:04:33.36	24.19	8.49	-33.7	-34.4	24.2	0.00e+00	0	28	0	457179136	42	5351
2026-01-14 16:04:34.37	24.23	8.57	-33.6	-34.3	24.3	0.00e+00	0	28	0	463470592	40	5958
2026-01-14 16:04:35.38	24.28	8.65	-33.7	-34.4	24.4	0.00e+00	0	28	0	468713472	40	5973
2026-01-14 16:04:36.39	24.32	8.73	-33.6	-34.3	24.4	0.00e+00	0	28	0	473956352	40	5935
2026-01-14 16:04:37.39	24.37	8.81	-33.7	-34.4	24.2	0.00e+00	0	28	0	480247808	40	6018
2026-01-14 16:04:38.40	24.42	8.89	-33.5	-34.2	24.5	0.00e+00	0	28	0	485490688	40	5867
2026-01-14 16:04:39.41	24.46	8.97	-33.6	-34.3	24.4	0.00e+00	0	28	0	491782144	40	5948
2026-01-14 16:04:40.42	24.51	9.05	-33.6	-34.3	24.4	0.00e+00	0	28	0	497025024	40	5943
2026-01-14 16:04:41.43	24.56	9.13	-33.4	-34.1	24.6	0.00e+00	0	28	0	502267904	40	5799
2026-01-14 16:04:42.44	24.60	9.21	-33.4	-34.1	24.6	0.00e+00	0	28	0	508559360	40	5786
2026-01-14 16:04:43.45	24.65	9.30	-33.5	-34.1	24.5	0.00e+00	0	28	0	513802240	40	5824
2026-01-14 16:04:44.46	24.70	9.38	-33.4	-34.0	24.6	0.00e+00	0	28	0	520093696	40	5758
2026-01-14 16:04:45.47	24.75	9.46	-33.4	-34.1	24.7	0.00e+00	0	28	0	525336576	40	5775
2026-01-14 16:04:46.48	24.79	9.54	-33.4	-34.0	24.7	0.00e+00	0	28	0	530579456	40	5742
2026-01-14 16:04:47.49	24.84	9.62	-33.3	-34.0	24.7	0.00e+00	0	28	0	536870912	40	5710
2026-01-14 16:04:48.50	24.89	9.71	-33.3	-33.9	24.7	0.00e+00	0	28	0	542113792	40	5691
2026-01-14 16:04:49.51	24.94	9.79	-33.4	-34.0	24.7	0.00e+00	0	28	0	548405248	40	5741
2026-01-14 16:04:50.52	24.99	9.87	-33.2	-33.9	24.8	0.00e+00	0	28	0	553648128	40	5644
2026-01-14 16:04:51.53	25.04	9.96	-33.3	-34.0	24.8	0.00e+00	0	28	0	559939584	40	5697
2026-01-14 16:04:52.54	25.09	10.04	-33.2	-33.9	24.8	0.00e+00	0	28	0	565182464	40	5653
2026-01-14 16:04:53.55	25.14	10.13	-33.2	-33.9	24.8	0.00e+00	0	28	0	571473920	40	5662
2026-01-14 16:04:54.56	25.19	10.21	-33.2	-33.9	24.9	0.00e+00	0	28	0	576716800	40	5633
2026-01-14 16:04:55.57	25.24	10.30	-33.3	-34.0	24.7	0.00e+00	0	28	0	581959680	40	5721
2026-01-14 16:04:56.58	25.29	10.38	-33.2	-33.9	24.8	0.00e+00	0	28	0	588251136	40	5658
2026-01-14 16:04:57.59	25.34	10.47	-33.2	-33.8	24.8	0.00e+00	0	28	0	593494016	40	5604
2026-01-14 16:04:58.60	25.39	10.55	-33.2	-33.9	24.8	0.00e+00	0	28	0	599785472	40	5642
2026-01-14 16:04:59.60	25.44	10.64	-33.1	-33.8	24.9	0.00e+00	0	28	0	605028352	40	5598
2026-01-14 16:05:00.61	25.49	10.72	-33.1	-33.8	24.9	0.00e+00	0	28	0	610271232	40	5576
2026-01-14 16:05:01.62	25.55	10.81	-33.2	-33.8	24.9	0.00e+00	0	28	0	616562688	40	5608
2026-01-14 16:05:02.63	25.60	10.90	-33.2	-33.9	24.8	0.00e+00	0	28	0	621805568	40	5652
2026-01-14 16:05:03.64	25.65	10.98	-33.2	-33.8	24.9	0.00e+00	0	28	0	628097024	40	5620
2026-01-14 16:05:04.65	25.70	11.07	-33.3	-34.0	24.7	0.00e+00	0	28	0	633339904	40	5715
2026-01-14 16:05:05.66	25.76	11.16	-33.2	-33.8	25.0	0.00e+00	0	28	0	638582784	40	5626
2026-01-14 16:05:06.67	25.81	11.25	-33.2	-33.9	24.8	0.00e+00	0	28	0	644874240	40	5635
2026-01-14 16:05:07.68	25.87	11.34	-33.2	-33.9	24.9	0.00e+00	0	28	0	650117120	40	5665
2026-01-14 16:05:08.69	25.92	11.42	-33.3	-34.0	24.8	0.00e+00	0	28	0	656408576	40	5711
2026-01-14 16:05:09.70	25.97	11.51	-33.3	-34.0	24.8	0.00e+00	0	28	0	661651456	40	5723
2026-01-14 16:05:10.71	26.03	11.60	-33.3	-34.0	24.9	0.00e+00	0	28	0	667942912	40	5717
2026-01-14 16:05:11.72	26.08	11.69	-33.1	-33.8	25.0	0.00e+00	0	28	0	673185792	40	5576
2026-01-14 16:05:12.72	26.14	11.78	-33.1	-33.8	24.9	0.00e+00	0	28	0	678428672	40	5612
2026-01-14 16:05:13.73	26.19	11.87	-33.1	-33.8	24.9	0.00e+00	0	28	0	684720128	40	5602
2026-01-14 16:05:14.74	26.25	11.96	-33.1	-33.8	25.0	0.00e+00	0	28	0	689963008	40	5571
2026-01-14 16:05:15.75	26.31	12.05	-33.2	-33.9	24.9	0.00e+00	0	28	0	696254464	40	5651
2026-01-14 16:05:16.76	26.36	12.14	-33.2	-33.8	24.9	0.00e+00	0	28	0	701497344	40	5625
2026-01-14 16:05:17.77	26.42	12.24	-32.9	-33.6	25.2	0.00e+00	0	28	0	706740224	40	5459
2026-01-14 16:05:18.78	26.48	12.33	-33.0	-33.7	25.2	0.00e+00	0	28	0	713031680	40	5516
2026-01-14 16:05:19.79	26.53	12.42	-33.1	-33.8	25.0	0.00e+00	0	28	0	718274560	40	5580
2026-01-14 16:05:20.80	26.59	12.51	-32.9	-33.6	25.1	0.00e+00	0	28	0	724566016	40	5476
2026-01-14 16:05:21.81	26.65	12.60	-33.0	-33.7	25.1	0.00e+00	0	28	0	729808896	40	5534
2026-01-14 16:05:22.82	26.71	12.70	-32.9	-33.5	25.3	0.00e+00	0	28	0	735051776	40	5412
2026-01-14 16:05:23.83	26.77	12.79	-32.9	-33.6	25.3	0.00e+00	0	28	0	741343232	40	5443
2026-01-14 16:05:24.84	26.83	12.89	-32.9	-33.5	25.3	0.00e+00	0	28	0	746586112	40	5430
2026-01-14 16:05:25.84	26.89	12.98	-32.9	-33.5	25.3	0.00e+00	0	28	0	752877568	40	5420
2026-01-14 16:05:26.86	26.95	13.07	-32.8	-33.5	25.3	0.00e+00	0	28	0	758120448	40	5420
2026-01-14 16:05:27.87	27.01	13.17	-32.9	-33.6	25.3	0.00e+00	0	28	0	764411904	40	5451
2026-01-14 16:05:28.88	27.07	13.26	-32.8	-33.5	25.4	0.00e+00	0	28	0	769654784	40	5413
2026-01-14 16:05:29.89	27.13	13.36	-32.9	-33.6	25.3	0.00e+00	0	28	0	774897664	40	5457
2026-01-14 16:05:30.89	27.19	13.45	-32.9	-33.5	25.2	0.00e+00	0	28	0	781189120	40	5435
2026-01-14 16:05:31.91	27.25	13.55	-32.8	-33.5	25.4	0.00e+00	0	28	0	786432000	40	5385
2026-01-14 16:05:32.92	27.31	13.65	-32.8	-33.4	25.4	0.00e+00	0	28	0	792723456	40	5352
2026-01-14 16:05:33.92	27.38	13.74	-32.8	-33.5	25.4	0.00e+00	0	28	0	797966336	40	5385
2026-01-14 16:05:34.93	27.44	13.84	-32.8	-33.4	25.4	0.00e+00	0	28	0	803209216	40	5355
2026-01-14 16:05:35.94	27.50	13.94	-32.8	-33.4	25.5	0.00e+00	0	28	0	809500672	40	5365
2026-01-14 16:05:36.95	27.57	14.04	-32.8	-33.5	25.4	0.00e+00	0	28	0	814743552	38	6051
2026-01-14 16:05:37.96	27.63	14.13	-32.7	-33.4	25.5	0.00e+00	0	28	0	821035008	38	5991
2026-01-14 16:05:38.97	27.69	14.23	-32.7	-33.4	25.5	0.00e+00	0	28	0	826277888	38	5979
2026-01-14 16:05:39.98	27.76	14.33	-32.7	-33.3	25.5	0.00e+00	0	28	0	831520768	38	5957
2026-01-14 16:05:40.99	27.82	14.43	-32.7	-33.4	25.5	0.00e+00	0	28	0	837812224	38	5996
2026-01-14 16:05:42.00	27.89	14.53	-32.6	-33.2	25.7	0.00e+00	0	28	0	843055104	38	5884
2026-01-14 16:05:43.01	27.96	14.63	-32.6	-33.3	25.7	0.00e+00	0	28	0	849346560	38	5897
2026-01-14 16:05:44.02	28.02	14.73	-32.4	-33.1	25.8	0.00e+00	0	28	0	854589440	38	5792
2026-01-14 16:05:45.03	28.09	14.83	-32.5	-33.1	25.7	0.00e+00	0	28	0	860880896	38	5812
2026-01-14 16:05:46.04	28.16	14.93	-32.3	-33.0	25.9	0.00e+00	0	28	0	866123776	38	5707
2026-01-14 16:05:47.04	28.22	15.04	-32.4	-33.0	25.8	0.00e+00	0	28	0	872415232	38	5729
2026-01-14 16:05:48.06	28.29	15.14	-32.4	-33.1	25.8	0.00e+00	0	28	0	877658112	38	5778
2026-01-14 16:05:49.07	28.36	15.24	-32.3	-33.0	25.8	0.00e+00	0	28	0	882900992	38	5743
2026-01-14 16:05:50.08	28.43	15.34	-32.3	-33.0	25.9	0.00e+00	0	28	0	889192448	38	5727
2026-01-14 16:05:51.08	28.50	15.45	-32.3	-32.9	25.9	0.00e+00	0	28	0	894435328	38	5686
2026-01-14 16:05:52.09	28.57	15.55	-32.3	-32.9	26.0	0.00e+00	0	28	0	900726784	38	5653
2026-01-14 16:05:53.10	28.64	15.65	-32.2	-32.9	26.0	0.00e+00	0	28	0	905969664	38	5632
2026-01-14 16:05:54.11	28.71	15.76	-32.3	-32.9	26.0	0.00e+00	0	28	0	911212544	38	5671
2026-01-14 16:05:55.12	28.78	15.86	-32.1	-32.7	26.0	0.00e+00	0	28	0	917504000	38	5539
2026-01-14 16:05:56.13	28.85	15.97	-32.1	-32.7	26.1	0.00e+00	0	28	0	922746880	38	5532
2026-01-14 16:05:57.14	28.93	16.08	-32.0	-32.6	26.1	0.00e+00	0	28	0	927989760	38	5499
2026-01-14 16:05:58.15	29.00	16.18	-32.0	-32.6	26.2	0.00e+00	0	28	0	934281216	38	5480
2026-01-14 16:05:59.15	29.07	16.29	-31.8	-32.4	26.3	0.00e+00	0	28	0	939524096	38	5348
2026-01-14 16:06:00.17	29.15	16.40	-31.8	-32.4	26.4	0.00e+00	0	28	0	945815552	36	6023
2026-01-14 16:06:01.18	29.22	16.50	-31.7	-32.3	26.5	0.00e+00	0	28	0	951058432	36	5942
2026-01-14 16:06:02.18	29.29	16.61	-31.5	-32.1	26.6	0.00e+00	0	28	0	957349888	36	5813
2026-01-14 16:06:03.19	29.37	16.72	-31.5	-32.2	26.6	0.00e+00	0	28	0	962592768	36	5832
2026-01-14 16:06:04.20	29.44	16.83	-31.4	-32.0	26.7	0.00e+00	0	28	0	968884224	36	5758
2026-01-14 16:06:05.21	29.52	16.94	-31.4	-32.0	26.7	0.00e+00	0	28	0	974127104	36	5758
2026-01-14 16:06:06.22	29.60	17.05	-31.3	-31.9	26.8	0.00e+00	0	28	0	979369984	36	5668
2026-01-14 16:06:07.24	29.68	17.16	-31.3	-31.9	26.8	0.00e+00	0	28	0	985661440	36	5663
2026-01-14 16:06:08.25	29.75	17.27	-31.4	-32.0	26.7	0.00e+00	0	28	0	990904320	36	5737
2026-01-14 16:06:09.25	29.83	17.38	-31.3	-32.0	26.8	0.00e+00	0	28	0	997195776	36	5700
2026-01-14 16:06:10.26	29.91	17.49	-31.4	-32.0	26.7	0.00e+00	0	28	0	1002438656	36	5738
2026-01-14 16:06:11.27	29.99	17.60	-31.4	-32.0	26.7	0.00e+00	0	28	0	1007681536	36	5744
2026-01-14 16:06:12.28	30.07	17.71	-31.4	-32.1	26.7	0.00e+00	0	28	0	1013972992	36	5789
2026-01-14 16:06:13.30	30.15	17.83	-31.4	-32.0	26.6	0.00e+00	0	28	0	1019215872	36	5760
2026-01-14 16:06:14.30	30.23	17.94	-31.6	-32.2	26.6	0.00e+00	0	28	0	1025507328	36	5895
2026-01-14 16:06:15.31	30.31	18.06	-31.3	-31.9	26.8	0.00e+00	0	28	0	1030750208	36	5692
2026-01-14 16:06:16.32	30.40	18.17	-31.5	-32.1	26.7	0.00e+00	0	29	0	1035993088	36	5776
2026-01-14 16:06:17.33	30.48	18.28	-31.2	-31.9	26.9	0.00e+00	0	28	0	1042284544	36	5646
2026-01-14 16:06:18.34	30.56	18.40	-31.3	-31.9	26.9	0.00e+00	0	28	0	1047527424	36	5653
2026-01-14 16:06:19.35	30.65	18.52	-31.3	-31.9	26.7	0.00e+00	0	28	0	1053818880	36	5652
2026-01-14 16:06:20.36	30.73	18.63	-31.1	-31.8	26.9	0.00e+00	0	28	0	1059061760	36	5582
2026-01-14 16:06:21.37	30.82	18.75	-31.3	-31.9	26.9	0.00e+00	0	28	0	1065353216	36	5675
2026-01-14 16:06:22.38	30.90	18.87	-31.2	-31.8	26.9	0.00e+00	0	28	0	1070596096	36	5610
2026-01-14 16:06:23.39	30.99	18.98	-31.3	-31.9	26.9	0.00e+00	0	28	0	1075838976	36	5676
2026-01-14 16:06:24.40	31.08	19.10	-31.3	-32.0	26.8	0.00e+00	0	28	0	1082130432	36	5702
2026-01-14 16:06:25.40	31.16	19.22	-31.3	-32.0	26.8	0.00e+00	0	28	0	1087373312	36	5713
2026-01-14 16:06:26.42	31.25	19.34	-31.3	-32.0	26.8	0.00e+00	0	28	0	1093664768	36	5706
2026-01-14 16:06:27.42	31.34	19.46	-31.4	-32.0	26.8	0.00e+00	0	28	0	1098907648	36	5735
2026-01-14 16:06:28.43	31.43	19.58	-31.2	-31.8	27.0	0.00e+00	0	28	0	1104150528	36	5602
2026-01-14 16:06:29.44	31.52	19.70	-31.4	-32.1	26.7	0.00e+00	0	28	0	1110441984	36	5770
2026-01-14 16:06:30.45	31.61	19.82	-31.1	-31.7	27.0	0.00e+00	0	28	0	1115684864	36	5560
2026-01-14 16:06:31.46	31.70	19.94	-31.1	-31.8	27.0	0.00e+00	0	28	0	1121976320	36	5588
2026-01-14 16:06:32.47	31.80	20.07	-31.1	-31.7	27.1	0.00e+00	0	28	0	1127219200	36	5554
2026-01-14 16:06:33.48	31.89	20.19	-31.0	-31.6	27.1	0.00e+00	0	28	0	1132462080	36	5456
2026-01-14 16:06:34.49	31.98	20.31	-30.8	-31.4	27.3	0.00e+00	0	28	0	1138753536	36	5355
2026-01-14 16:06:35.50	32.08	20.44	-30.8	-31.4	27.2	0.00e+00	0	28	0	1143996416	36	5335
2026-01-14 16:06:36.51	32.18	20.56	-30.8	-31.4	27.3	0.00e+00	0	28	0	1150287872	36	5355
2026-01-14 16:06:37.52	32.27	20.69	-30.8	-31.5	27.2	0.00e+00	0	28	0	1155530752	36	5379
2026-01-14 16:06:38.52	32.37	20.81	-30.8	-31.3	27.2	0.00e+00	0	28	0	1161822208	36	5315
2026-01-14 16:06:39.53	32.47	20.94	-30.8	-31.4	27.2	0.00e+00	0	28	0	1167065088	36	5330
2026-01-14 16:06:40.54	32.56	21.07	-30.7	-31.3	27.4	0.00e+00	0	28	0	1173356544	34	5952
2026-01-14 16:06:41.55	32.66	21.19	-30.8	-31.4	27.3	0.00e+00	0	28	0	1178599424	34	6002
2026-01-14 16:06:42.56	32.76	21.32	-30.8	-31.4	27.2	0.00e+00	0	28	0	1183842304	34	6026
2026-01-14 16:06:43.57	32.86	21.45	-30.7	-31.3	27.3	0.00e+00	0	28	0	1190133760	34	5932
2026-01-14 16:06:44.58	32.97	21.58	-30.9	-31.4	27.2	0.00e+00	0	28	0	1195376640	34	6031
2026-01-14 16:06:45.59	33.07	21.71	-30.7	-31.3	27.4	0.00e+00	0	28	0	1201668096	34	5939
2026-01-14 16:06:46.60	33.17	21.84	-30.8	-31.4	27.2	0.00e+00	0	28	0	1206910976	34	5999
2026-01-14 16:06:47.61	33.28	21.97	-30.6	-31.2	27.4	0.00e+00	0	28	0	1212153856	34	5872
2026-01-14 16:06:48.62	33.38	22.10	-30.5	-31.1	27.5	0.00e+00	0	28	0	1218445312	34	5807
2026-01-14 16:06:49.63	33.49	22.23	-30.5	-31.1	27.5	0.00e+00	0	28	0	1223688192	34	5781
2026-01-14 16:06:50.64	33.59	22.37	-30.5	-31.0	27.6	0.00e+00	0	28	0	1229979648	34	5761
2026-01-14 16:06:51.65	33.70	22.50	-30.5	-31.1	27.4	0.00e+00	0	28	0	1235222528	34	5770
2026-01-14 16:06:52.66	33.81	22.63	-30.5	-31.1	27.5	0.00e+00	0	28	0	1240465408	34	5808
2026-01-14 16:06:53.67	33.92	22.77	-30.5	-31.1	27.5	0.00e+00	0	28	0	1246756864	34	5804
2026-01-14 16:06:54.68	34.03	22.90	-30.5	-31.1	27.5	0.00e+00	0	28	0	1251999744	34	5826
2026-01-14 16:06:55.69	34.14	23.04	-30.5	-31.0	27.5	0.00e+00	0	28	0	1258291200	34	5759
2026-01-14 16:06:56.70	34.25	23.18	-30.4	-31.0	27.6	0.00e+00	0	28	0	1263534080	34	5736
2026-01-14 16:06:57.71	34.37	23.31	-30.5	-31.1	27.5	0.00e+00	0	28	0	1269825536	34	5800
2026-01-14 16:06:58.72	34.48	23.45	-30.4	-31.1	27.6	0.00e+00	0	28	0	1275068416	34	5763
2026-01-14 16:06:59.73	34.60	23.59	-30.3	-31.0	27.6	0.00e+00	0	28	0	1280311296	34	5701
2026-01-14 16:07:00.74	34.71	23.73	-30.1	-30.7	27.8	0.00e+00	0	28	0	1286602752	34	5518
2026-01-14 16:07:01.75	34.83	23.87	-30.1	-30.8	27.8	0.00e+00	0	28	0	1291845632	34	5571
2026-01-14 16:07:02.76	34.95	24.01	-30.1	-30.7	27.9	0.00e+00	0	28	0	1298137088	34	5507
2026-01-14 16:07:03.77	35.07	24.15	-30.1	-30.7	27.8	0.00e+00	0	28	0	1303379968	34	5525
2026-01-14 16:07:04.78	35.19	24.29	-30.2	-30.8	27.7	0.00e+00	0	28	0	1308622848	34	5630
2026-01-14 16:07:05.79	35.31	24.43	-30.3	-30.8	27.6	0.00e+00	0	28	0	1314914304	34	5624
2026-01-14 16:07:06.80	35.43	24.57	-30.4	-31.0	27.7	0.00e+00	0	28	0	1320157184	34	5754
2026-01-14 16:07:07.81	35.55	24.72	-30.3	-30.9	27.7	0.00e+00	0	28	0	1326448640	34	5659
2026-01-14 16:07:08.82	35.68	24.86	-30.1	-30.7	27.8	0.00e+00	0	28	0	1331691520	34	5547
2026-01-14 16:07:09.83	35.80	25.01	-30.1	-30.7	27.9	0.00e+00	0	28	0	1336934400	34	5504
2026-01-14 16:07:10.84	35.93	25.15	-30.1	-30.7	27.8	0.00e+00	0	28	0	1343225856	34	5537
2026-01-14 16:07:11.85	36.06	25.30	-30.3	-30.8	27.7	0.00e+00	0	28	0	1348468736	34	5624
2026-01-14 16:07:12.86	36.19	25.44	-30.1	-30.7	27.8	0.00e+00	0	28	0	1354760192	34	5530
2026-01-14 16:07:13.87	36.32	25.59	-30.1	-30.7	27.8	0.00e+00	0	28	0	1360003072	34	5550
2026-01-14 16:07:14.88	36.45	25.74	-30.1	-30.7	27.9	0.00e+00	0	28	0	1366294528	34	5519
2026-01-14 16:07:15.89	36.58	25.89	-30.0	-30.6	27.9	0.00e+00	0	28	0	1371537408	34	5484
2026-01-14 16:07:16.90	36.71	26.04	-30.0	-30.6	27.9	0.00e+00	0	28	0	1377828864	34	5462
2026-01-14 16:07:17.90	36.85	26.19	-30.0	-30.6	27.9	0.00e+00	0	28	0	1383071744	34	5440
2026-01-14 16:07:18.91	36.98	26.34	-30.0	-30.6	27.9	0.00e+00	0	28	0	1388314624	34	5467
2026-01-14 16:07:19.92	37.12	26.49	-30.0	-30.6	28.0	0.00e+00	0	28	0	1394606080	34	5462
2026-01-14 16:07:20.93	37.26	26.64	-30.0	-30.6	27.9	0.00e+00	0	28	0	1399848960	34	5500
2026-01-14 16:07:21.94	37.40	26.79	-29.9	-30.5	28.0	0.00e+00	0	28	0	1406140416	34	5396
2026-01-14 16:07:22.95	37.54	26.95	-30.1	-30.7	28.0	0.00e+00	0	28	0	1411383296	34	5539
2026-01-14 16:07:23.96	37.68	27.10	-29.9	-30.5	28.0	0.00e+00	0	28	0	1416626176	34	5428
2026-01-14 16:07:24.97	37.83	27.26	-29.9	-30.5	28.0	0.00e+00	0	28	0	1422917632	34	5415
2026-01-14 16:07:25.98	37.97	27.41	-29.9	-30.5	28.1	0.00e+00	0	28	0	1428160512	34	5419
2026-01-14 16:07:26.99	38.12	27.57	-29.9	-30.4	28.0	0.00e+00	0	28	0	1433403392	34	5368
2026-01-14 16:07:28.00	38.27	27.73	-29.8	-30.4	28.1	0.00e+00	0	28	0	1439694848	34	5363
2026-01-14 16:07:29.00	38.41	27.88	-29.9	-30.5	28.0	0.00e+00	0	28	0	1444937728	34	5422
2026-01-14 16:07:30.01	38.56	28.04	-29.9	-30.4	28.0	0.00e+00	0	28	0	1451229184	34	5375
2026-01-14 16:07:31.02	38.72	28.20	-29.7	-30.3	28.0	0.00e+00	0	28	0	1456472064	32	5960
2026-01-14 16:07:32.03	38.87	28.36	-29.7	-30.3	28.2	0.00e+00	0	28	0	1462763520	32	5933
2026-01-14 16:07:33.04	39.03	28.52	-29.7	-30.3	28.2	0.00e+00	0	28	0	1468006400	32	5959
2026-01-14 16:07:34.05	39.18	28.68	-29.7	-30.4	28.2	0.00e+00	0	28	0	1474297856	32	5966
2026-01-14 16:07:35.06	39.34	28.84	-29.9	-30.5	28.0	0.00e+00	0	28	0	1479540736	32	6066
2026-01-14 16:07:36.07	39.50	29.01	-29.8	-30.5	28.1	0.00e+00	0	28	0	1484783616	32	6041
2026-01-14 16:07:37.08	39.66	29.17	-30.0	-30.6	27.9	0.00e+00	0	28	0	1491075072	32	6134
2026-01-14 16:07:38.09	39.83	29.33	-29.9	-30.5	28.1	0.00e+00	0	28	0	1496317952	32	6043
2026-01-14 16:07:39.10	39.99	29.50	-29.9	-30.5	27.9	0.00e+00	0	28	0	1502609408	32	6084
2026-01-14 16:07:40.11	40.16	29.66	-29.9	-30.5	28.0	0.00e+00	0	28	0	1507852288	32	6066
2026-01-14 16:07:41.12	40.32	29.83	-29.9	-30.5	28.0	0.00e+00	0	28	0	1513095168	32	6096
2026-01-14 16:07:42.13	40.49	30.00	-29.8	-30.4	28.1	0.00e+00	0	28	0	1519386624	32	6023
2026-01-14 16:07:43.14	40.67	30.17	-29.9	-30.5	28.1	0.00e+00	0	28	0	1524629504	32	6034
2026-01-14 16:07:44.15	40.84	30.33	-29.8	-30.4	28.1	0.00e+00	0	28	0	1530920960	32	6020
2026-01-14 16:07:45.15	41.01	30.50	-29.8	-30.4	28.1	0.00e+00	0	28	0	1536163840	32	6017
2026-01-14 16:07:46.17	41.19	30.67	-29.7	-30.3	28.2	0.00e+00	0	28	0	1541406720	32	5918
2026-01-14 16:07:47.17	41.37	30.84	-29.8	-30.4	28.2	0.00e+00	0	28	0	1547698176	32	5993
2026-01-14 16:07:48.18	41.55	31.01	-29.7	-30.2	28.3	0.00e+00	0	28	0	1552941056	32	5888
2026-01-14 16:07:49.19	41.73	31.19	-29.6	-30.2	28.3	0.00e+00	0	28	0	1559232512	32	5862
2026-01-14 16:07:50.20	41.91	31.36	-29.6	-30.2	28.3	0.00e+00	0	28	0	1564475392	32	5872
2026-01-14 16:07:51.21	42.10	31.53	-29.6	-30.2	28.3	0.00e+00	0	28	0	1570766848	32	5852
2026-01-14 16:07:52.22	42.29	31.71	-29.5	-30.1	28.3	0.00e+00	0	28	0	1576009728	32	5825
2026-01-14 16:07:53.23	42.48	31.88	-29.7	-30.3	28.2	0.00e+00	0	28	0	1581252608	32	5899
2026-01-14 16:07:54.24	42.67	32.06	-29.7	-30.3	28.2	0.00e+00	0	28	0	1587544064	32	5923
2026-01-14 16:07:55.25	42.87	32.23	-29.6	-30.2	28.2	0.00e+00	0	28	0	1592786944	32	5873
2026-01-14 16:07:56.26	43.06	32.41	-29.6	-30.2	28.2	0.00e+00	0	28	0	1599078400	32	5856
2026-01-14 16:07:57.27	43.26	32.59	-29.5	-30.1	28.4	0.00e+00	0	28	0	1604321280	32	5781
2026-01-14 16:07:58.28	43.46	32.77	-29.7	-30.3	28.3	0.00e+00	0	28	0	1609564160	32	5930
2026-01-14 16:07:59.28	43.66	32.94	-29.6	-30.2	28.3	0.00e+00	0	28	0	1615855616	32	5856
2026-01-14 16:08:00.29	43.87	33.12	-29.6	-30.2	28.2	0.00e+00	0	28	0	1621098496	32	5888
2026-01-14 16:08:01.30	44.07	33.30	-29.7	-30.2	28.3	0.00e+00	0	28	0	1627389952	32	5893
2026-01-14 16:08:02.31	44.28	33.48	-29.6	-30.2	28.3	0.00e+00	0	28	0	1632632832	32	5876
2026-01-14 16:08:03.32	44.49	33.67	-29.6	-30.2	28.2	0.00e+00	0	28	0	1637875712	32	5890
2026-01-14 16:08:04.33	44.71	33.85	-29.6	-30.3	28.3	0.00e+00	0	28	0	1644167168	32	5899
2026-01-14 16:08:05.34	44.92	34.03	-29.7	-30.3	28.3	0.00e+00	0	28	0	1649410048	32	5933
2026-01-14 16:08:06.35	45.14	34.22	-29.7	-30.3	28.2	0.00e+00	0	28	0	1655701504	32	5959
2026-01-14 16:08:07.36	45.36	34.40	-29.8	-30.4	28.1	0.00e+00	0	28	0	1660944384	32	6020
2026-01-14 16:08:08.37	45.59	34.58	-29.6	-30.3	28.3	0.00e+00	0	28	0	1667235840	32	5898
2026-01-14 16:08:09.38	45.81	34.77	-29.5	-30.1	28.4	0.00e+00	0	28	0	1672478720	32	5810
2026-01-14 16:08:10.38	46.04	34.95	-29.4	-30.0	28.5	0.00e+00	0	28	0	1677721600	32	5711
2026-01-14 16:08:11.39	46.27	35.14	-29.3	-29.9	28.5	0.00e+00	0	28	0	1684013056	32	5692
2026-01-14 16:08:12.40	46.51	35.33	-29.4	-30.0	28.5	0.00e+00	0	28	0	1689255936	32	5704
2026-01-14 16:08:13.41	46.74	35.52	-29.4	-30.0	28.3	0.00e+00	0	28	0	1695547392	32	5749
2026-01-14 16:08:14.42	46.98	35.71	-29.6	-30.1	28.4	0.00e+00	0	28	0	1700790272	32	5819
2026-01-14 16:08:15.43	47.22	35.90	-29.5	-30.1	28.3	0.00e+00	0	28	0	1706033152	32	5768
2026-01-14 16:08:16.44	47.47	36.09	-29.3	-29.8	28.4	0.00e+00	0	28	0	1712324608	32	5628
2026-01-14 16:08:17.45	47.72	36.28	-29.4	-29.9	28.5	0.00e+00	0	28	0	1717567488	32	5690
2026-01-14 16:08:18.46	47.97	36.47	-29.1	-29.7	28.7	0.00e+00	0	28	0	1723858944	32	5549
2026-01-14 16:08:19.46	48.22	36.66	-29.2	-29.8	28.6	0.00e+00	0	28	0	1729101824	32	5582
2026-01-14 16:08:20.47	48.47	36.85	-29.1	-29.6	28.8	0.00e+00	0	28	0	1734344704	32	5486
2026-01-14 16:08:21.48	48.73	37.04	-29.0	-29.6	28.8	0.00e+00	0	28	0	1740636160	32	5452
2026-01-14 16:08:22.49	48.99	37.23	-29.2	-29.8	28.6	0.00e+00	0	28	0	1745879040	32	5580
2026-01-14 16:08:23.50	49.26	37.43	-29.3	-29.9	28.5	0.00e+00	0	28	0	1752170496	32	5682
2026-01-14 16:08:24.51	49.53	37.62	-29.6	-30.2	28.3	0.00e+00	0	28	0	1757413376	32	5844
2026-01-14 16:08:25.52	49.80	37.82	-29.6	-30.3	28.3	0.00e+00	0	28	0	1763704832	32	5924
2026-01-14 16:08:26.53	50.07	38.01	-29.6	-30.3	28.4	0.00e+00	0	28	0	1768947712	32	5902
2026-01-14 16:08:27.54	50.35	38.20	-29.3	-30.0	28.5	0.00e+00	0	28	0	1775239168	32	5711
2026-01-14 16:08:28.55	50.63	38.40	-29.3	-29.9	28.6	0.00e+00	0	28	0	1780482048	32	5637
2026-01-14 16:08:29.56	50.92	38.60	-29.2	-29.8	28.5	0.00e+00	0	28	0	1785724928	32	5609
2026-01-14 16:08:30.57	51.21	38.79	-29.1	-29.8	28.6	0.00e+00	0	28	0	1792016384	32	5572
2026-01-14 16:08:31.58	51.50	38.99	-29.2	-29.8	28.6	0.00e+00	0	28	0	1797259264	32	5599
2026-01-14 16:08:32.58	51.79	39.18	-29.3	-30.0	28.5	0.00e+00	0	28	0	1802502144	32	5698
2026-01-14 16:08:33.59	52.09	39.38	-29.3	-30.0	28.5	0.00e+00	0	28	0	1808793600	32	5702
2026-01-14 16:08:34.60	52.39	39.58	-29.5	-30.1	28.4	0.00e+00	0	28	0	1814036480	32	5763
2026-01-14 16:08:35.61	52.70	39.78	-29.4	-30.0	28.4	0.00e+00	0	28	0	1820327936	32	5713
2026-01-14 16:08:36.62	53.01	39.97	-29.2	-29.8	28.6	0.00e+00	0	28	0	1825570816	32	5595
2026-01-14 16:08:37.64	53.32	40.18	-29.2	-29.8	28.6	0.00e+00	0	28	0	1830813696	32	5573
2026-01-14 16:08:38.64	53.64	40.37	-29.2	-29.8	28.6	0.00e+00	0	28	0	1837105152	32	5587
2026-01-14 16:08:39.65	53.96	40.57	-29.3	-29.9	28.5	0.00e+00	0	28	0	1842348032	32	5667
2026-01-14 16:08:40.66	54.28	40.77	-29.4	-30.0	28.5	0.00e+00	0	28	0	1848639488	32	5739
2026-01-14 16:08:41.67	54.61	40.97	-29.6	-30.2	28.4	0.00e+00	0	28	0	1853882368	32	5830
2026-01-14 16:08:42.68	54.94	41.17	-29.6	-30.2	28.3	0.00e+00	0	28	0	1860173824	32	5869
2026-01-14 16:08:43.69	55.28	41.36	-29.6	-30.3	28.3	0.00e+00	0	28	0	1865416704	32	5901
2026-01-14 16:08:44.70	55.62	41.56	-29.6	-30.2	28.2	0.00e+00	0	28	0	1871708160	32	5872
2026-01-14 16:08:45.71	55.97	41.76	-29.6	-30.2	28.3	0.00e+00	0	28	0	1876951040	32	5851
2026-01-14 16:08:46.72	56.32	41.96	-29.5	-30.1	28.4	0.00e+00	0	28	0	1882193920	32	5770
2026-01-14 16:08:47.73	56.67	42.16	-29.4	-30.0	28.4	0.00e+00	0	28	0	1888485376	32	5717
2026-01-14 16:08:48.74	57.03	42.36	-29.3	-29.9	28.5	0.00e+00	0	28	0	1893728256	32	5667
2026-01-14 16:08:49.75	57.39	42.56	-29.5	-30.1	28.4	0.00e+00	0	28	0	1900019712	32	5817
2026-01-14 16:08:50.76	57.76	42.75	-29.6	-30.2	28.3	0.00e+00	0	28	0	1905262592	32	5868
2026-01-14 16:08:51.77	58.13	42.95	-29.7	-30.3	28.3	0.00e+00	0	28	0	1910505472	32	5922
2026-01-14 16:08:52.78	58.50	43.15	-29.6	-30.2	28.3	0.00e+00	0	28	0	1916796928	32	5888
2026-01-14 16:08:53.79	58.88	43.35	-29.5	-30.1	28.4	0.00e+00	0	28	0	1922039808	32	5804
2026-01-14 16:08:54.80	59.27	43.54	-29.4	-30.0	28.5	0.00e+00	0	28	0	1928331264	32	5697
2026-01-14 16:08:55.81	59.66	43.74	-29.4	-30.0	28.5	0.00e+00	0	28	0	1933574144	32	5736
2026-01-14 16:08:56.81	60.05	43.94	-29.6	-30.2	28.3	0.00e+00	0	28	0	1938817024	32	5847
2026-01-14 16:08:57.82	60.45	44.13	-29.7	-30.4	28.2	0.00e+00	0	28	0	1945108480	32	5965
2026-01-14 16:08:58.83	60.85	44.33	-29.8	-30.4	28.0	0.00e+00	0	28	0	1950351360	32	6015
2026-01-14 16:08:59.84	61.26	44.52	-29.8	-30.4	28.2	0.00e+00	0	28	0	1956642816	32	5977
2026-01-14 16:09:00.85	61.68	44.71	-29.5	-30.1	28.4	0.00e+00	0	29	0	1961885696	32	5812
2026-01-14 16:09:01.86	62.10	44.91	-29.6	-30.1	28.2	0.00e+00	0	28	0	1968177152	32	5826
2026-01-14 16:09:02.87	62.52	45.10	-29.7	-30.3	28.2	0.00e+00	0	28	0	1973420032	32	5941
2026-01-14 16:09:03.88	62.95	45.29	-29.8	-30.5	28.1	0.00e+00	0	28	0	1978662912	32	6061
2026-01-14 16:09:04.89	63.38	45.48	-29.9	-30.5	28.0	0.00e+00	0	28	0	1984954368	32	6091
2026-01-14 16:09:05.90	63.82	45.67	-29.7	-30.3	28.2	0.00e+00	0	28	0	1990197248	32	5951
2026-01-14 16:09:06.91	64.27	45.86	-29.7	-30.4	28.2	0.00e+00	0	28	0	1996488704	32	5966
2026-01-14 16:09:07.91	64.71	46.05	-30.0	-30.6	28.1	0.00e+00	0	28	0	2001731584	32	6110
2026-01-14 16:09:08.92	65.17	46.23	-30.2	-30.8	27.9	0.00e+00	0	28	0	2006974464	32	6283
2026-01-14 16:09:09.93	65.63	46.42	-30.2	-30.8	27.8	0.00e+00	0	28	0	2013265920	32	6298
2026-01-14 16:09:10.94	66.10	46.60	-30.2	-30.9	27.8	0.00e+00	0	28	0	2018508800	32	6339
2026-01-14 16:09:11.95	66.57	46.79	-29.9	-30.5	28.2	0.00e+00	0	28	0	2024800256	32	6060
2026-01-14 16:09:12.96	67.05	46.97	-29.7	-30.3	28.3	0.00e+00	0	28	0	2030043136	32	5955
2026-01-14 16:09:13.97	67.53	47.15	-29.8	-30.4	28.2	0.00e+00	0	28	0	2035286016	32	5991
2026-01-14 16:09:14.98	68.02	47.33	-30.0	-30.6	28.1	0.00e+00	0	28	0	2041577472	32	6106
2026-01-14 16:09:15.99	68.51	47.51	-29.8	-30.4	28.1	0.00e+00	0	28	0	2046820352	32	6007
2026-01-14 16:09:17.00	69.01	47.69	-29.8	-30.5	28.0	0.00e+00	0	28	0	2053111808	32	6053
2026-01-14 16:09:18.01	69.52	47.86	-29.6	-30.2	28.3	0.00e+00	0	28	0	2058354688	32	5868
2026-01-14 16:09:19.02	70.03	48.03	-29.4	-30.0	28.4	0.00e+00	0	28	0	2064646144	32	5722
2026-01-14 16:09:20.03	70.54	48.20	-29.7	-30.2	28.2	0.00e+00	0	28	0	2069889024	32	5891
2026-01-14 16:09:21.04	71.07	48.37	-29.8	-30.4	28.2	0.00e+00	0	28	0	2076180480	32	5997
2026-01-14 16:09:22.05	71.59	48.54	-29.7	-30.3	28.3	0.00e+00	0	28	0	2081423360	32	5911
2026-01-14 16:09:23.06	72.13	48.71	-29.5	-30.1	28.4	0.00e+00	0	28	0	2086666240	32	5797
2026-01-14 16:09:24.07	72.67	48.87	-29.5	-30.1	28.4	0.00e+00	0	28	0	2092957696	32	5818
2026-01-14 16:09:25.07	73.21	49.03	-29.9	-30.5	28.1	0.00e+00	0	28	0	2098200576	32	6045
2026-01-14 16:09:26.08	73.76	49.19	-29.9	-30.5	28.0	0.00e+00	0	28	0	2103443456	32	6070
2026-01-14 16:09:27.10	74.32	49.35	-29.8	-30.4	28.2	0.00e+00	0	28	0	2109734912	32	6031
2026-01-14 16:09:28.10	74.88	49.50	-29.7	-30.3	28.2	0.00e+00	0	28	0	2114977792	32	5940
2026-01-14 16:09:29.11	75.44	49.66	-29.7	-30.3	28.3	0.00e+00	0	28	0	2121269248	32	5911
2026-01-14 16:09:30.12	76.02	49.81	-29.7	-30.3	28.2	0.00e+00	0	28	0	2126512128	32	5955
2026-01-14 16:09:31.13	76.60	49.95	-29.8	-30.4	28.1	0.00e+00	0	29	0	2131755008	32	6031
2026-01-14 16:09:32.14	77.18	50.10	-30.0	-30.6	28.0	0.00e+00	0	28	0	2138046464	32	6122
2026-01-14 16:09:33.15	77.77	50.24	-30.2	-30.9	27.9	0.00e+00	0	28	0	2143289344	32	6331
2026-01-14 16:09:34.16	78.36	50.38	-30.4	-31.0	27.8	0.00e+00	0	28	0	2149580800	32	6442
2026-01-14 16:09:35.17	78.97	50.52	-30.0	-30.7	28.0	0.00e+00	0	28	0	2154823680	32	6183
2026-01-14 16:09:36.18	79.57	50.65	-30.1	-30.7	28.0	0.00e+00	0	28	0	2161115136	32	6190
2026-01-14 16:09:37.19	80.18	50.78	-30.1	-30.7	28.0	0.00e+00	0	28	0	2166358016	32	6208
2026-01-14 16:09:38.20	80.80	50.91	-30.2	-30.8	28.0	0.00e+00	0	29	0	2172649472	32	6261
2026-01-14 16:09:39.21	81.42	51.03	-30.0	-30.6	28.0	0.00e+00	0	28	0	2177892352	32	6132
2026-01-14 16:09:40.22	82.05	51.16	-30.1	-30.7	28.0	0.00e+00	0	28	0	2183135232	32	6189
2026-01-14 16:09:41.23	82.68	51.27	-30.0	-30.6	28.0	0.00e+00	0	28	0	2189426688	32	6164
2026-01-14 16:09:42.24	83.32	51.39	-30.1	-30.7	27.9	0.00e+00	0	28	0	2194669568	32	6212
2026-01-14 16:09:43.24	83.95	51.50	-29.9	-30.5	28.1	0.00e+00	0	28	0	2200961024	32	6094
2026-01-14 16:09:44.26	84.61	51.61	-29.9	-30.5	28.1	0.00e+00	0	28	0	2206203904	32	6053
2026-01-14 16:09:45.26	85.25	51.71	-30.4	-31.0	27.6	0.00e+00	0	29	0	2211446784	32	6444
2026-01-14 16:09:46.27	85.91	51.81	-30.6	-31.3	27.7	0.00e+00	0	28	0	2217738240	32	6617
2026-01-14 16:09:47.28	86.57	51.91	-30.3	-30.9	27.8	0.00e+00	0	28	0	2222981120	32	6356
2026-01-14 16:09:48.29	87.23	52.01	-30.3	-30.9	27.8	0.00e+00	0	29	0	2229272576	32	6345
2026-01-14 16:09:49.30	87.90	52.10	-30.4	-31.0	27.6	0.00e+00	0	28	0	2234515456	32	6433
2026-01-14 16:09:50.31	88.57	52.18	-30.5	-31.1	27.7	0.00e+00	0	28	0	2239758336	32	6506
2026-01-14 16:09:51.32	89.25	52.26	-30.3	-30.9	27.8	0.00e+00	0	28	0	2246049792	32	6350
2026-01-14 16:09:52.33	89.93	52.34	-30.5	-31.1	27.7	0.00e+00	0	28	0	2251292672	32	6476
2026-01-14 16:09:53.34	90.61	52.42	-30.4	-31.0	27.8	0.00e+00	0	29	0	2257584128	32	6431
2026-01-14 16:09:54.35	91.30	52.49	-30.1	-30.8	27.9	0.00e+00	0	28	0	2262827008	32	6251
2026-01-14 16:09:55.36	91.99	52.55	-30.2	-30.8	27.9	0.00e+00	0	28	0	2269118464	32	6317
2026-01-14 16:09:56.37	92.68	52.62	-30.3	-31.0	27.7	0.00e+00	0	29	0	2274361344	32	6403
2026-01-14 16:09:57.38	93.38	52.67	-29.9	-30.4	28.2	0.00e+00	0	28	0	2279604224	32	6030
2026-01-14 16:09:58.39	94.08	52.73	-30.1	-30.7	27.9	0.00e+00	0	28	0	2285895680	32	6202
2026-01-14 16:09:59.40	94.78	52.78	-30.4	-31.0	27.7	0.00e+00	0	28	0	2291138560	32	6460
2026-01-14 16:10:00.40	95.47	52.82	-30.5	-31.1	27.6	0.00e+00	0	29	0	2297430016	32	6478
2026-01-14 16:10:01.41	96.18	52.86	-30.6	-31.2	27.6	0.00e+00	0	28	0	2302672896	32	6562
2026-01-14 16:10:02.42	96.89	52.90	-30.8	-31.3	27.4	0.00e+00	0	28	0	2307915776	32	6674
2026-01-14 16:10:03.43	97.60	52.93	-30.8	-31.4	27.4	0.00e+00	0	28	0	2314207232	34	6029
2026-01-14 16:10:04.44	98.31	52.96	-30.4	-31.0	27.6	0.00e+00	0	28	0	2319450112	34	5759
2026-01-14 16:10:05.45	99.02	52.98	-30.2	-30.8	27.9	0.00e+00	0	28	0	2325741568	34	5573
2026-01-14 16:10:06.46	99.73	53.00	-30.4	-31.0	27.7	0.00e+00	0	28	0	2330984448	34	5743
2026-01-14 16:10:07.47	100.44	53.02	-30.7	-31.4	27.5	0.00e+00	0	28	0	2336227328	34	5974
2026-01-14 16:10:08.48	101.16	53.03	-30.8	-31.4	27.4	0.00e+00	0	28	0	2342518784	34	5988
2026-01-14 16:10:09.49	101.87	53.03	-30.7	-31.3	27.4	0.00e+00	0	29	0	2347761664	34	5955
2026-01-14 16:10:10.50	102.59	53.03	-30.6	-31.3	27.5	0.00e+00	0	28	0	2354053120	34	5937
2026-01-14 16:10:11.51	103.30	53.03	-30.5	-31.2	27.6	0.00e+00	0	28	0	2359296000	34	5849
2026-01-14 16:10:12.52	104.02	53.02	-30.7	-31.4	27.4	0.00e+00	0	28	0	2365587456	34	5976
2026-01-14 16:10:13.52	104.72	53.01	-30.5	-31.1	27.6	0.00e+00	0	28	0	2370830336	34	5768
2026-01-14 16:10:14.54	105.44	52.99	-30.2	-30.8	27.9	0.00e+00	0	29	0	2376073216	34	5593
2026-01-14 16:10:15.54	106.15	52.97	-30.2	-30.8	27.9	0.00e+00	0	29	0	2382364672	34	5604
2026-01-14 16:10:16.55	106.86	52.95	-30.3	-31.0	27.7	0.00e+00	0	28	0	2387607552	34	5718
2026-01-14 16:10:17.56	107.57	52.92	-30.5	-31.2	27.6	0.00e+00	0	28	0	2393899008	34	5849
2026-01-14 16:10:18.57	108.28	52.88	-30.3	-30.9	27.6	0.00e+00	0	28	0	2399141888	34	5669
2026-01-14 16:10:19.58	108.98	52.84	-30.2	-30.7	27.8	0.00e+00	0	28	0	2404384768	34	5538
2026-01-14 16:10:20.60	109.70	52.80	-30.7	-31.3	27.4	0.00e+00	0	28	0	2410676224	34	5942
2026-01-14 16:10:21.60	110.39	52.75	-30.9	-31.5	27.3	0.00e+00	0	28	0	2415919104	34	6099
2026-01-14 16:10:22.62	111.10	52.70	-30.7	-31.3	27.3	0.00e+00	0	28	0	2422210560	34	5928
2026-01-14 16:10:23.62	111.79	52.65	-30.2	-30.8	27.9	0.00e+00	0	28	0	2427453440	34	5606
2026-01-14 16:10:24.63	112.48	52.59	-30.0	-30.6	28.0	0.00e+00	0	28	0	2432696320	34	5480
2026-01-14 16:10:25.64	113.18	52.52	-30.3	-30.9	27.8	0.00e+00	0	28	0	2438987776	34	5664
2026-01-14 16:10:26.65	113.86	52.45	-30.4	-31.0	27.7	0.00e+00	0	28	0	2444230656	34	5736
2026-01-14 16:10:27.66	114.55	52.38	-30.6	-31.2	27.5	0.00e+00	0	28	0	2450522112	34	5867
2026-01-14 16:10:28.67	115.23	52.30	-30.6	-31.2	27.6	0.00e+00	0	28	0	2455764992	34	5858
2026-01-14 16:10:29.68	115.91	52.22	-30.5	-31.1	27.6	0.00e+00	0	29	0	2462056448	34	5769
2026-01-14 16:10:30.69	116.59	52.14	-30.5	-31.1	27.7	0.00e+00	0	28	0	2467299328	34	5786
2026-01-14 16:10:31.70	117.26	52.05	-30.6	-31.2	27.6	0.00e+00	0	28	0	2473590784	34	5866
2026-01-14 16:10:32.71	117.93	51.96	-30.5	-31.2	27.7	0.00e+00	0	28	0	2478833664	34	5829
2026-01-14 16:10:33.72	118.59	51.86	-30.5	-31.1	27.6	0.00e+00	0	29	0	2484076544	34	5827
2026-01-14 16:10:34.73	119.25	51.76	-30.2	-30.8	27.9	0.00e+00	0	28	0	2490368000	34	5592
2026-01-14 16:10:35.74	119.90	51.66	-30.2	-30.8	27.9	0.00e+00	0	28	0	2495610880	34	5575
2026-01-14 16:10:36.74	120.54	51.55	-30.2	-30.8	27.9	0.00e+00	0	29	0	2501902336	34	5619
2026-01-14 16:10:37.75	121.19	51.44	-30.4	-30.9	27.8	0.00e+00	0	29	0	2507145216	34	5692
2026-01-14 16:10:38.76	121.83	51.33	-30.2	-30.9	27.8	0.00e+00	0	28	0	2512388096	34	5631
2026-01-14 16:10:39.77	122.47	51.21	-30.1	-30.7	28.0	0.00e+00	0	28	0	2518679552	34	5554
2026-01-14 16:10:40.78	123.10	51.09	-30.0	-30.7	27.9	0.00e+00	0	28	0	2523922432	34	5507
2026-01-14 16:10:41.79	123.72	50.97	-30.2	-30.8	27.9	0.00e+00	0	29	0	2530213888	34	5571
2026-01-14 16:10:42.80	124.34	50.84	-30.7	-31.3	27.5	0.00e+00	0	28	0	2535456768	34	5940
2026-01-14 16:10:43.81	124.96	50.71	-30.7	-31.4	27.4	0.00e+00	0	29	0	2540699648	34	5993
2026-01-14 16:10:44.82	125.57	50.58	-30.4	-31.0	27.8	0.00e+00	0	29	0	2546991104	34	5756
2026-01-14 16:10:45.83	126.17	50.44	-30.0	-30.5	28.0	0.00e+00	0	29	0	2552233984	34	5434
2026-01-14 16:10:46.84	126.77	50.31	-29.9	-30.6	28.0	0.00e+00	0	28	0	2558525440	32	6137
2026-01-14 16:10:47.85	127.36	50.16	-29.9	-30.4	28.1	0.00e+00	0	28	0	2563768320	32	6018
2026-01-14 16:10:48.86	127.95	50.02	-29.9	-30.5	28.2	0.00e+00	0	28	0	2570059776	32	6053
2026-01-14 16:10:49.87	128.53	49.87	-29.8	-30.4	28.1	0.00e+00	0	29	0	2575302656	32	5992
2026-01-14 16:10:50.88	129.11	49.72	-30.0	-30.7	27.9	0.00e+00	0	28	0	2580545536	32	6188
2026-01-14 16:10:51.89	129.68	49.57	-30.0	-30.5	28.1	0.00e+00	0	28	0	2586836992	32	6082
2026-01-14 16:10:52.90	130.25	49.42	-29.8	-30.4	28.3	0.00e+00	0	28	0	2592079872	32	5979
2026-01-14 16:10:53.91	130.81	49.26	-29.6	-30.2	28.4	0.00e+00	0	28	0	2598371328	32	5831
2026-01-14 16:10:54.92	131.36	49.10	-29.6	-30.2	28.3	0.00e+00	0	28	0	2603614208	32	5892
2026-01-14 16:10:55.93	131.91	48.94	-29.9	-30.5	28.2	0.00e+00	0	28	0	2608857088	32	6064
2026-01-14 16:10:56.94	132.46	48.78	-30.0	-30.7	28.0	0.00e+00	0	28	0	2615148544	32	6175
2026-01-14 16:10:57.95	132.99	48.61	-29.9	-30.6	28.1	0.00e+00	0	28	0	2620391424	32	6152
2026-01-14 16:10:58.96	133.52	48.45	-29.6	-30.2	28.4	0.00e+00	0	28	0	2626682880	32	5889
2026-01-14 16:10:59.97	134.05	48.28	-29.5	-30.1	28.3	0.00e+00	0	28	0	2631925760	32	5821
2026-01-14 16:11:00.98	134.57	48.11	-30.1	-30.6	27.8	0.00e+00	0	29	0	2637168640	32	6153
2026-01-14 16:11:01.99	135.09	47.93	-30.3	-30.9	27.7	0.00e+00	0	28	0	2643460096	32	6376
2026-01-14 16:11:03.00	135.59	47.76	-30.0	-30.7	28.0	0.00e+00	0	28	0	2648702976	32	6184
2026-01-14 16:11:04.01	136.10	47.58	-29.9	-30.6	28.1	0.00e+00	0	28	0	2654994432	32	6127
2026-01-14 16:11:05.02	136.59	47.40	-29.8	-30.4	28.2	0.00e+00	0	28	0	2660237312	32	5998
2026-01-14 16:11:06.03	137.09	47.23	-29.9	-30.5	28.1	0.00e+00	0	28	0	2666528768	32	6035
2026-01-14 16:11:07.04	137.57	47.04	-30.0	-30.7	28.0	0.00e+00	0	28	0	2671771648	32	6186
2026-01-14 16:11:08.05	138.05	46.86	-30.0	-30.6	28.0	0.00e+00	0	28	0	2678063104	32	6107
2026-01-14 16:11:09.06	138.53	46.68	-29.6	-30.3	28.3	0.00e+00	0	28	0	2683305984	32	5912
2026-01-14 16:11:10.07	139.00	46.49	-29.7	-30.3	28.2	0.00e+00	0	29	0	2688548864	32	5939
2026-01-14 16:11:11.08	139.46	46.31	-29.7	-30.2	28.3	0.00e+00	0	28	0	2694840320	32	5883
2026-01-14 16:11:12.09	139.92	46.12	-29.9	-30.6	28.0	0.00e+00	0	28	0	2700083200	32	6140
2026-01-14 16:11:13.10	140.38	45.93	-30.3	-30.9	27.8	0.00e+00	0	28	0	2706374656	32	6336
2026-01-14 16:11:14.11	140.83	45.74	-30.3	-31.0	27.9	0.00e+00	0	29	0	2711617536	32	6417
2026-01-14 16:11:15.12	141.27	45.55	-30.3	-30.9	27.9	0.00e+00	0	28	0	2716860416	32	6346
2026-01-14 16:11:16.13	141.71	45.36	-30.0	-30.6	28.1	0.00e+00	0	29	0	2723151872	32	6148
2026-01-14 16:11:17.14	142.14	45.17	-30.0	-30.5	28.0	0.00e+00	0	28	0	2728394752	32	6063
2026-01-14 16:11:18.15	142.57	44.98	-29.8	-30.3	28.2	0.00e+00	0	28	0	2734686208	32	5957
2026-01-14 16:11:19.16	142.99	44.78	-29.9	-30.5	28.1	0.00e+00	0	28	0	2739929088	32	6090
2026-01-14 16:11:20.17	143.41	44.59	-30.0	-30.7	28.0	0.00e+00	0	29	0	2745171968	32	6227
2026-01-14 16:11:21.18	143.82	44.39	-30.1	-30.6	28.1	0.00e+00	0	28	0	2751463424	32	6163
2026-01-14 16:11:22.19	144.23	44.20	-29.8	-30.3	28.2	0.00e+00	0	29	0	2756706304	32	5943
2026-01-14 16:11:23.20	144.63	44.00	-29.7	-30.2	28.3	0.00e+00	0	28	0	2762997760	32	5887
2026-01-14 16:11:24.20	145.02	43.81	-29.5	-30.1	28.3	0.00e+00	0	29	0	2768240640	32	5818
2026-01-14 16:11:25.21	145.41	43.61	-29.5	-30.0	28.4	0.00e+00	0	28	0	2774532096	32	5760
2026-01-14 16:11:26.22	145.80	43.41	-29.6	-30.1	28.3	0.00e+00	0	29	0	2779774976	32	5822
2026-01-14 16:11:27.23	146.19	43.22	-29.8	-30.3	28.2	0.00e+00	0	28	0	2785017856	32	5960
2026-01-14 16:11:28.24	146.56	43.02	-30.0	-30.7	28.0	0.00e+00	0	29	0	2791309312	32	6212
2026-01-14 16:11:29.25	146.94	42.82	-30.1	-30.7	28.0	0.00e+00	0	29	0	2796552192	32	6208
2026-01-14 16:11:30.26	147.31	42.62	-29.8	-30.4	28.2	0.00e+00	0	28	0	2802843648	32	5977
2026-01-14 16:11:31.27	147.67	42.42	-29.7	-30.3	28.4	0.00e+00	0	28	0	2808086528	32	5934
2026-01-14 16:11:32.28	148.03	42.22	-29.6	-30.2	28.4	0.00e+00	0	28	0	2813329408	32	5889
2026-01-14 16:11:33.28	148.39	42.02	-29.5	-30.1	28.5	0.00e+00	0	28	0	2819620864	32	5780
2026-01-14 16:11:34.29	148.74	41.82	-29.6	-30.1	28.3	0.00e+00	0	28	0	2824863744	32	5782
2026-01-14 16:11:35.30	149.09	41.62	-29.5	-30.1	28.4	0.00e+00	0	28	0	2831155200	32	5768
2026-01-14 16:11:36.31	149.43	41.42	-29.4	-29.9	28.3	0.00e+00	0	28	0	2836398080	32	5671
2026-01-14 16:11:37.32	149.77	41.22	-29.4	-30.1	28.4	0.00e+00	0	28	0	2841640960	32	5800
2026-01-14 16:11:38.33	150.11	41.02	-29.4	-30.1	28.2	0.00e+00	0	28	0	2847932416	32	5789
2026-01-14 16:11:39.34	150.44	40.83	-29.4	-29.9	28.2	0.00e+00	0	28	0	2853175296	32	5687
2026-01-14 16:11:40.35	150.76	40.63	-29.5	-30.1	28.2	0.00e+00	0	29	0	2859466752	32	5802
2026-01-14 16:11:41.36	151.09	40.43	-29.6	-30.3	28.1	0.00e+00	0	28	0	2864709632	32	5921
2026-01-14 16:11:42.37	151.41	40.23	-29.7	-30.2	28.0	0.00e+00	0	28	0	2871001088	32	5892
2026-01-14 16:11:43.38	151.72	40.03	-29.7	-30.3	28.0	0.00e+00	0	28	0	2876243968	32	5912
2026-01-14 16:11:44.39	152.03	39.83	-29.7	-30.2	28.1	0.00e+00	0	28	0	2882535424	32	5884
2026-01-14 16:11:45.40	152.34	39.63	-29.5	-30.1	28.3	0.00e+00	0	29	0	2887778304	32	5763
2026-01-14 16:11:46.41	152.65	39.43	-29.4	-30.1	28.4	0.00e+00	0	28	0	2893021184	32	5769
2026-01-14 16:11:47.42	152.95	39.23	-29.2	-29.8	28.5	0.00e+00	0	29	0	2899312640	32	5577
2026-01-14 16:11:48.43	153.24	39.04	-29.2	-29.7	28.6	0.00e+00	0	28	0	2904555520	32	5541
2026-01-14 16:11:49.44	153.54	38.84	-29.3	-29.8	28.6	0.00e+00	0	29	0	2910846976	32	5594
2026-01-14 16:11:50.45	153.83	38.64	-29.0	-29.6	28.7	0.00e+00	0	29	0	2916089856	32	5498
2026-01-14 16:11:51.46	154.11	38.44	-29.0	-29.5	28.7	0.00e+00	0	28	0	2921332736	32	5416
2026-01-14 16:11:52.47	154.40	38.25	-29.1	-29.6	28.6	0.00e+00	0	28	0	2927624192	32	5486
2026-01-14 16:11:53.48	154.68	38.05	-29.2	-29.7	28.6	0.00e+00	0	28	0	2932867072	32	5530
2026-01-14 16:11:54.49	154.95	37.85	-29.3	-29.9	28.5	0.00e+00	0	28	0	2938109952	32	5638
2026-01-14 16:11:55.50	155.23	37.66	-29.4	-30.1	28.5	0.00e+00	0	28	0	2944401408	32	5791
2026-01-14 16:11:56.51	155.50	37.46	-29.5	-30.1	28.4	0.00e+00	0	28	0	2949644288	32	5820
2026-01-14 16:11:57.52	155.77	37.27	-29.7	-30.3	28.2	0.00e+00	0	28	0	2955935744	32	5948
2026-01-14 16:11:58.53	156.03	37.07	-29.3	-30.0	28.5	0.00e+00	0	28	0	2961178624	32	5713
2026-01-14 16:11:59.54	156.29	36.88	-29.5	-30.1	28.4	0.00e+00	0	28	0	2967470080	32	5804
2026-01-14 16:12:00.54	156.55	36.69	-29.4	-29.9	28.4	0.00e+00	0	29	0	2972712960	32	5672
2026-01-14 16:12:01.55	156.80	36.50	-29.5	-30.0	28.4	0.00e+00	0	28	0	2979004416	32	5731
2026-01-14 16:12:02.56	157.05	36.31	-29.3	-29.8	28.5	0.00e+00	0	29	0	2984247296	32	5614
2026-01-14 16:12:03.57	157.30	36.11	-29.2	-29.8	28.6	0.00e+00	0	28	0	2989490176	32	5622
2026-01-14 16:12:04.58	157.55	35.92	-29.2	-29.8	28.6	0.00e+00	0	28	0	2995781632	32	5569
2026-01-14 16:12:05.59	157.79	35.73	-29.0	-29.6	28.6	0.00e+00	0	28	0	3001024512	32	5449
2026-01-14 16:12:06.60	158.03	35.54	-29.0	-29.6	28.7	0.00e+00	0	28	0	3007315968	32	5441
2026-01-14 16:12:07.61	158.27	35.35	-29.0	-29.5	28.8	0.00e+00	0	28	0	3012558848	32	5395
2026-01-14 16:12:08.62	158.51	35.16	-28.9	-29.6	28.7	0.00e+00	0	29	0	3017801728	32	5461
2026-01-14 16:12:09.63	158.74	34.98	-29.1	-29.7	28.6	0.00e+00	0	28	0	3024093184	32	5505
2026-01-14 16:12:10.64	158.97	34.79	-29.1	-29.6	28.6	0.00e+00	0	29	0	3029336064	32	5491
2026-01-14 16:12:11.65	159.20	34.60	-29.2	-29.7	28.5	0.00e+00	0	28	0	3035627520	32	5535
2026-01-14 16:12:12.65	159.42	34.42	-29.2	-29.7	28.6	0.00e+00	0	28	0	3040870400	32	5526
2026-01-14 16:12:13.66	159.64	34.23	-29.2	-29.7	28.6	0.00e+00	0	28	0	3046113280	32	5519
2026-01-14 16:12:14.67	159.86	34.05	-29.2	-29.7	28.6	0.00e+00	0	29	0	3052404736	32	5562
2026-01-14 16:12:15.68	160.08	33.86	-29.3	-29.8	28.4	0.00e+00	0	28	0	3057647616	32	5597
2026-01-14 16:12:16.69	160.30	33.68	-29.2	-29.8	28.5	0.00e+00	0	29	0	3063939072	32	5575
2026-01-14 16:12:17.71	160.51	33.49	-29.2	-29.8	28.5	0.00e+00	0	29	0	3069181952	32	5575
2026-01-14 16:12:18.72	160.72	33.31	-29.3	-29.9	28.4	0.00e+00	0	28	0	3075473408	32	5680
2026-01-14 16:12:19.72	160.93	33.13	-29.2	-29.9	28.5	0.00e+00	0	29	0	3080716288	32	5645
2026-01-14 16:12:20.73	161.13	32.95	-29.2	-29.9	28.5	0.00e+00	0	28	0	3085959168	32	5663
2026-01-14 16:12:21.74	161.34	32.77	-29.1	-29.8	28.5	0.00e+00	0	28	0	3092250624	32	5596
2026-01-14 16:12:22.75	161.54	32.59	-29.4	-30.0	28.4	0.00e+00	0	28	0	3097493504	32	5747
2026-01-14 16:12:23.76	161.74	32.41	-29.4	-30.1	28.4	0.00e+00	0	29	0	3103784960	32	5787
2026-01-14 16:12:24.77	161.94	32.23	-29.3	-30.0	28.5	0.00e+00	0	29	0	3109027840	32	5715
2026-01-14 16:12:25.78	162.13	32.06	-29.5	-30.2	28.3	0.00e+00	0	28	0	3114270720	32	5877
2026-01-14 16:12:26.79	162.32	31.88	-29.3	-29.9	28.5	0.00e+00	0	28	0	3120562176	32	5644
2026-01-14 16:12:27.80	162.51	31.70	-29.5	-30.0	28.4	0.00e+00	0	28	0	3125805056	32	5724
2026-01-14 16:12:28.81	162.70	31.53	-29.5	-30.2	28.3	0.00e+00	0	29	0	3132096512	32	5834
2026-01-14 16:12:29.82	162.89	31.35	-29.7	-30.4	28.1	0.00e+00	0	29	0	3137339392	32	5965
2026-01-14 16:12:30.83	163.08	31.18	-29.7	-30.4	28.2	0.00e+00	0	28	0	3142582272	32	5972
2026-01-14 16:12:31.84	163.26	31.01	-29.7	-30.3	28.1	0.00e+00	0	28	0	3148873728	32	5914
2026-01-14 16:12:32.85	163.44	30.83	-29.7	-30.3	28.1	0.00e+00	0	28	0	3154116608	32	5930
2026-01-14 16:12:33.86	163.62	30.66	-29.8	-30.4	28.1	0.00e+00	0	29	0	3160408064	32	6028
2026-01-14 16:12:34.87	163.80	30.49	-29.6	-30.1	28.2	0.00e+00	0	28	0	3165650944	32	5818
2026-01-14 16:12:35.88	163.97	30.32	-29.5	-30.0	28.3	0.00e+00	0	28	0	3171942400	32	5739
2026-01-14 16:12:36.89	164.15	30.15	-29.7	-30.2	28.2	0.00e+00	0	28	0	3177185280	32	5852
2026-01-14 16:12:37.90	164.32	29.98	-29.5	-30.0	28.3	0.00e+00	0	29	0	3183476736	32	5703
2026-01-14 16:12:38.91	164.49	29.81	-29.5	-30.1	28.3	0.00e+00	0	28	0	3188719616	32	5804
2026-01-14 16:12:39.92	164.66	29.65	-29.4	-30.1	28.3	0.00e+00	0	28	0	3193962496	32	5776
2026-01-14 16:12:40.94	164.83	29.48	-29.5	-30.2	28.4	0.00e+00	0	28	0	3200253952	32	5836
2026-01-14 16:12:41.95	164.99	29.31	-29.5	-30.2	28.3	0.00e+00	0	28	0	3205496832	32	5871
2026-01-14 16:12:42.96	165.16	29.15	-29.7	-30.4	28.2	0.00e+00	0	28	0	3211788288	32	6002
2026-01-14 16:12:43.96	165.32	28.98	-29.8	-30.5	28.1	0.00e+00	0	28	0	3217031168	32	6052
2026-01-14 16:12:44.97	165.48	28.82	-29.8	-30.3	28.0	0.00e+00	0	28	0	3222274048	32	5932
2026-01-14 16:12:45.98	165.64	28.66	-29.7	-30.3	28.2	0.00e+00	0	29	0	3228565504	32	5909
2026-01-14 16:12:46.99	165.79	28.50	-29.7	-30.2	28.2	0.00e+00	0	28	0	3233808384	32	5884
2026-01-14 16:12:48.01	165.95	28.33	-29.8	-30.3	28.0	0.00e+00	0	28	0	3240099840	32	5940
2026-01-14 16:12:49.02	166.11	28.17	-29.9	-30.5	27.9	0.00e+00	0	28	0	3245342720	32	6035
2026-01-14 16:12:50.03	166.26	28.01	-29.6	-30.3	28.2	0.00e+00	0	28	0	3250585600	32	5946
2026-01-14 16:12:51.03	166.41	27.85	-29.7	-30.4	28.0	0.00e+00	0	29	0	3256877056	32	6009
2026-01-14 16:12:52.05	166.56	27.69	-29.6	-30.3	28.2	0.00e+00	0	28	0	3262119936	32	5903
2026-01-14 16:12:53.05	166.71	27.54	-29.5	-30.2	28.3	0.00e+00	0	28	0	3268411392	32	5839
2026-01-14 16:12:54.06	166.85	27.38	-29.6	-30.1	28.2	0.00e+00	0	29	0	3273654272	32	5804
2026-01-14 16:12:55.07	167.00	27.22	-29.6	-30.1	28.2	0.00e+00	0	28	0	3279945728	32	5779
2026-01-14 16:12:56.08	167.14	27.07	-29.6	-30.1	28.2	0.00e+00	0	28	0	3285188608	32	5787
2026-01-14 16:12:57.09	167.29	26.91	-29.7	-30.2	28.2	0.00e+00	0	28	0	3291480064	32	5857
2026-01-14 16:12:58.10	167.43	26.76	-29.8	-30.3	28.2	0.00e+00	0	29	0	3296722944	32	5939
2026-01-14 16:12:59.12	167.57	26.60	-29.6	-30.2	28.3	0.00e+00	0	28	0	3301965824	32	5889
2026-01-14 16:13:00.12	167.71	26.45	-29.7	-30.2	28.1	0.00e+00	0	28	0	3308257280	32	5891
2026-01-14 16:13:01.13	167.85	26.30	-29.6	-30.1	28.3	0.00e+00	0	28	0	3313500160	32	5814
2026-01-14 16:13:02.14	167.98	26.15	-29.6	-30.2	28.1	0.00e+00	0	28	0	3319791616	32	5836
2026-01-14 16:13:03.15	168.12	25.99	-29.6	-30.2	28.2	0.00e+00	0	28	0	3325034496	32	5856
2026-01-14 16:13:04.16	168.25	25.84	-29.7	-30.4	28.1	0.00e+00	0	28	0	3330277376	32	5978
2026-01-14 16:13:05.17	168.38	25.69	-29.9	-30.4	27.9	0.00e+00	0	28	0	3336568832	32	6029
2026-01-14 16:13:06.18	168.52	25.55	-29.7	-30.2	28.1	0.00e+00	0	28	0	3341811712	32	5876
2026-01-14 16:13:07.19	168.65	25.40	-29.7	-30.4	28.0	0.00e+00	0	28	0	3348103168	32	5986
2026-01-14 16:13:08.20	168.78	25.25	-29.9	-30.6	27.9	0.00e+00	0	29	0	3353346048	32	6105
2026-01-14 16:13:09.21	168.90	25.10	-29.8	-30.4	28.0	0.00e+00	0	29	0	3358588928	32	6024
2026-01-14 16:13:10.22	169.03	24.96	-29.9	-30.6	27.9	0.00e+00	0	28	0	3364880384	32	6131
2026-01-14 16:13:11.23	169.16	24.81	-29.9	-30.6	27.9	0.00e+00	0	28	0	3370123264	32	6109
2026-01-14 16:13:12.24	169.28	24.67	-29.8	-30.5	28.0	0.00e+00	0	29	0	3376414720	32	6062
2026-01-14 16:13:13.25	169.40	24.52	-30.0	-30.7	27.9	0.00e+00	0	29	0	3381657600	32	6201
2026-01-14 16:13:14.26	169.53	24.38	-30.0	-30.7	27.9	0.00e+00	0	29	0	3387949056	32	6216
2026-01-14 16:13:15.27	169.65	24.23	-29.9	-30.6	27.8	0.00e+00	0	28	0	3393191936	32	6140
2026-01-14 16:13:16.28	169.77	24.09	-30.0	-30.7	27.8	0.00e+00	0	28	0	3398434816	32	6225
2026-01-14 16:13:17.29	169.89	23.95	-30.0	-30.6	27.7	0.00e+00	0	28	0	3404726272	32	6112
2026-01-14 16:13:18.30	170.01	23.81	-30.1	-30.7	27.7	0.00e+00	0	28	0	3409969152	32	6191
2026-01-14 16:13:19.31	170.12	23.67	-30.1	-30.7	27.8	0.00e+00	0	29	0	3416260608	32	6175
2026-01-14 16:13:20.32	170.24	23.53	-30.1	-30.7	27.8	0.00e+00	0	28	0	3421503488	32	6183
2026-01-14 16:13:21.33	170.35	23.39	-30.0	-30.7	27.7	0.00e+00	0	28	0	3426746368	32	6212
2026-01-14 16:13:22.34	170.47	23.25	-30.1	-30.6	27.8	0.00e+00	0	28	0	3433037824	32	6150
2026-01-14 16:13:23.35	170.58	23.11	-30.0	-30.6	27.8	0.00e+00	0	28	0	3438280704	32	6118
2026-01-14 16:13:24.36	170.69	22.98	-30.2	-30.7	27.7	0.00e+00	0	28	0	3444572160	32	6223
2026-01-14 16:13:25.37	170.81	22.84	-30.1	-30.6	27.8	0.00e+00	0	28	0	3449815040	32	6169
2026-01-14 16:13:26.37	170.92	22.70	-30.1	-30.6	27.8	0.00e+00	0	28	0	3455057920	32	6145
2026-01-14 16:13:27.38	171.02	22.57	-30.3	-30.8	27.6	0.00e+00	0	28	0	3461349376	32	6288
2026-01-14 16:13:28.39	171.13	22.43	-30.2	-30.7	27.7	0.00e+00	0	28	0	3466592256	32	6236
2026-01-14 16:13:29.40	171.24	22.30	-30.2	-30.7	27.8	0.00e+00	0	28	0	3472883712	32	6202
2026-01-14 16:13:30.41	171.35	22.17	-30.3	-30.8	27.6	0.00e+00	0	28	0	3478126592	32	6280
2026-01-14 16:13:31.42	171.45	22.03	-30.3	-30.8	27.6	0.00e+00	0	28	0	3484418048	32	6288
2026-01-14 16:13:32.43	171.56	21.90	-30.3	-30.8	27.6	0.00e+00	0	28	0	3489660928	32	6302
2026-01-14 16:13:33.44	171.66	21.77	-30.4	-31.0	27.5	0.00e+00	0	28	0	3494903808	32	6423
2026-01-14 16:13:34.45	171.77	21.64	-30.4	-31.0	27.5	0.00e+00	0	28	0	3501195264	32	6399
2026-01-14 16:13:35.46	171.87	21.51	-30.5	-31.1	27.4	0.00e+00	0	29	0	3506438144	32	6488
2026-01-14 16:13:36.47	171.97	21.38	-30.6	-31.1	27.3	0.00e+00	0	29	0	3512729600	32	6539
2026-01-14 16:13:37.48	172.07	21.25	-30.6	-31.1	27.4	0.00e+00	0	28	0	3517972480	32	6536
2026-01-14 16:13:38.48	172.17	21.12	-30.6	-31.2	27.3	0.00e+00	0	28	0	3523215360	32	6543
2026-01-14 16:13:39.49	172.27	20.99	-30.7	-31.3	27.3	0.00e+00	0	28	0	3529506816	34	5908
2026-01-14 16:13:40.50	172.37	20.86	-30.8	-31.3	27.2	0.00e+00	0	28	0	3534749696	34	5936
2026-01-14 16:13:41.51	172.47	20.74	-30.8	-31.5	27.1	0.00e+00	0	28	0	3541041152	34	6066
2026-01-14 16:13:42.52	172.56	20.61	-30.9	-31.6	27.1	0.00e+00	0	29	0	3546284032	34	6126
2026-01-14 16:13:43.53	172.66	20.49	-30.7	-31.4	27.2	0.00e+00	0	29	0	3551526912	34	6023
2026-01-14 16:13:44.54	172.76	20.36	-30.8	-31.3	27.2	0.00e+00	0	28	0	3557818368	34	5959
2026-01-14 16:13:45.55	172.85	20.23	-30.8	-31.4	27.2	0.00e+00	0	28	0	3563061248	34	5968
2026-01-14 16:13:46.56	172.94	20.11	-30.8	-31.5	27.2	0.00e+00	0	29	0	3569352704	34	6079
2026-01-14 16:13:47.57	173.04	19.99	-31.0	-31.7	27.0	0.00e+00	0	28	0	3574595584	34	6206
2026-01-14 16:13:48.58	173.13	19.86	-30.7	-31.3	27.2	0.00e+00	0	29	0	3580887040	34	5920
2026-01-14 16:13:49.59	173.22	19.74	-30.8	-31.4	27.1	0.00e+00	0	29	0	3586129920	34	5980
2026-01-14 16:13:50.60	173.31	19.62	-30.8	-31.4	27.2	0.00e+00	0	29	0	3592421376	34	6030
2026-01-14 16:13:51.61	173.40	19.50	-30.7	-31.4	27.3	0.00e+00	0	29	0	3597664256	34	5965
2026-01-14 16:13:52.62	173.49	19.38	-30.6	-31.3	27.3	0.00e+00	0	29	0	3602907136	34	5964
2026-01-14 16:13:53.63	173.58	19.25	-30.7	-31.4	27.2	0.00e+00	0	28	0	3609198592	34	5976
2026-01-14 16:13:54.64	173.67	19.13	-30.8	-31.4	27.2	0.00e+00	0	29	0	3614441472	34	6030
2026-01-14 16:13:55.65	173.76	19.02	-30.8	-31.3	27.3	0.00e+00	0	29	0	3620732928	34	5953
2026-01-14 16:13:56.66	173.85	18.90	-30.8	-31.3	27.2	0.00e+00	0	28	0	3625975808	34	5956
2026-01-14 16:13:57.67	173.93	18.78	-30.9	-31.6	27.0	0.00e+00	0	28	0	3631218688	34	6119
2026-01-14 16:13:58.67	174.02	18.66	-30.9	-31.6	27.1	0.00e+00	0	28	0	3637510144	34	6157
2026-01-14 16:13:59.68	174.10	18.54	-31.0	-31.7	26.9	0.00e+00	0	29	0	3642753024	34	6238
2026-01-14 16:14:00.69	174.19	18.43	-31.1	-31.8	26.9	0.00e+00	0	29	0	3649044480	34	6257
2026-01-14 16:14:01.70	174.27	18.31	-31.1	-31.8	26.9	0.00e+00	0	29	0	3654287360	34	6306
2026-01-14 16:14:02.71	174.35	18.19	-31.2	-31.9	26.8	0.00e+00	0	28	0	3659530240	34	6334
2026-01-14 16:14:03.72	174.44	18.08	-31.4	-31.9	26.7	0.00e+00	0	28	0	3665821696	34	6390
