passes_logs/2026/01/14/R4.6S_Anadyr/R4.6S_Anadyr__20260114_150322_SUOMI_NPP_rec.log

#Pass ID: 20260114_150322_SUOMI NPP
#Satellite: SUOMI NPP
#Configuration: NPP
#almurnet v.1.7.20251203
#Start time: 2026-01-14 15:03:24

#Version: 2.2.20231116
#Station: R4.6S_Anadyr
#Location: 177.4865 lon 64.73178 lat
#TLE: 1 37849U 11061A   26013.83525404  .00000052  00000+0  45495-4 0  9990
#TLE: 2 37849  98.7808 315.8939 0002471  65.6575 294.4859 14.19524986736544

#Time	Az	El	Level	Level2	SNR	BER	BlckErr	Temp	State	Recorded	gain1	gain2
2026-01-14 15:03:24.34	21.11	0.14	-48.7	-61.2	3.4	1.52e+00	0	26	0	0	60	40277
2026-01-14 15:03:25.35	21.11	0.20	-48.8	-63.9	3.6	1.51e+00	0	27	104	0	60	56842
2026-01-14 15:03:26.36	21.11	0.26	-48.8	-64.0	3.6	1.51e+00	0	27	104	0	60	56966
2026-01-14 15:03:27.37	21.11	0.32	-48.8	-64.0	3.6	1.51e+00	0	27	104	0	60	57004
2026-01-14 15:03:28.38	21.10	0.38	-48.8	-64.0	3.6	1.51e+00	0	27	104	0	60	57091
2026-01-14 15:03:29.39	21.10	0.44	-48.8	-64.0	3.6	1.51e+00	0	27	104	0	60	57256
2026-01-14 15:03:30.40	21.10	0.50	-48.9	-64.0	3.6	1.51e+00	0	27	104	0	60	57506
2026-01-14 15:03:31.41	21.09	0.56	-48.8	-64.0	3.6	1.51e+00	0	27	104	0	60	57195
2026-01-14 15:03:32.42	21.09	0.62	-48.8	-63.9	3.5	1.51e+00	0	27	104	0	60	56943
2026-01-14 15:03:33.43	21.09	0.68	-48.7	-63.9	3.6	1.51e+00	0	27	104	0	60	56716
2026-01-14 15:03:34.44	21.09	0.75	-48.6	-63.8	3.6	1.51e+00	0	27	104	0	60	55865
2026-01-14 15:03:35.45	21.08	0.81	-48.5	-63.7	3.5	1.51e+00	0	27	104	0	60	55439
2026-01-14 15:03:36.46	21.08	0.87	-48.4	-63.6	3.6	1.51e+00	0	27	104	0	60	54448
2026-01-14 15:03:37.47	21.08	0.93	-48.1	-63.2	3.6	1.51e+00	0	27	104	0	60	52296
2026-01-14 15:03:38.48	21.07	0.99	-47.9	-63.2	3.6	1.51e+00	0	27	104	0	60	52110
2026-01-14 15:03:39.49	21.07	1.06	-47.8	-62.9	3.6	1.51e+00	0	27	104	0	60	50672
2026-01-14 15:03:40.50	21.07	1.12	-47.4	-62.5	3.6	1.51e+00	0	27	104	0	60	48120
2026-01-14 15:03:41.51	21.06	1.18	-47.3	-62.5	3.6	1.51e+00	0	27	104	0	60	47940
2026-01-14 15:03:42.52	21.06	1.24	-47.3	-62.5	3.6	1.51e+00	0	27	104	0	60	47951
2026-01-14 15:03:43.53	21.06	1.31	-47.3	-62.4	3.6	1.51e+00	0	27	104	0	60	47900
2026-01-14 15:03:44.54	21.05	1.37	-47.2	-62.4	3.6	1.51e+00	0	27	104	0	60	47533
2026-01-14 15:03:45.55	21.05	1.43	-47.2	-62.4	3.6	1.51e+00	0	27	104	0	60	47417
2026-01-14 15:03:46.56	21.05	1.50	-47.2	-62.3	3.6	1.51e+00	0	27	104	0	60	46837
2026-01-14 15:03:47.57	21.04	1.56	-47.2	-62.3	3.6	1.51e+00	0	27	104	0	60	47108
2026-01-14 15:03:48.58	21.04	1.62	-47.2	-62.2	3.6	1.51e+00	0	27	104	0	60	46738
2026-01-14 15:03:49.59	21.04	1.69	-47.2	-62.2	3.6	1.51e+00	0	28	104	0	60	46811
2026-01-14 15:03:50.60	21.03	1.75	-47.2	-62.3	3.6	1.51e+00	0	27	104	0	60	47017
2026-01-14 15:03:51.61	21.03	1.81	-47.2	-62.3	3.6	1.51e+00	0	28	104	0	60	47192
2026-01-14 15:03:52.62	21.03	1.88	-47.2	-62.4	3.6	1.51e+00	0	27	104	0	60	47559
2026-01-14 15:03:53.63	21.02	1.94	-47.2	-62.4	3.6	1.51e+00	0	28	104	0	60	47628
2026-01-14 15:03:54.64	21.02	2.01	-47.2	-62.5	3.6	1.51e+00	0	28	104	0	60	47948
2026-01-14 15:03:55.65	21.02	2.07	-47.2	-62.4	3.6	1.51e+00	0	28	104	0	60	47587
2026-01-14 15:03:56.66	21.01	2.14	-47.2	-62.4	3.6	1.51e+00	0	28	104	0	60	47507
2026-01-14 15:03:57.67	21.01	2.20	-47.2	-62.4	3.6	1.51e+00	0	28	104	0	60	47427
2026-01-14 15:03:58.68	21.00	2.27	-47.2	-62.3	3.5	1.51e+00	0	28	104	0	60	47299
2026-01-14 15:03:59.69	21.00	2.33	-47.2	-62.1	3.6	1.51e+00	0	28	104	0	60	46064
2026-01-14 15:04:00.70	21.00	2.40	-47.2	-62.1	3.6	1.51e+00	0	28	104	0	60	45813
2026-01-14 15:04:01.71	20.99	2.46	-47.2	-61.7	3.6	1.51e+00	0	28	104	0	60	44066
2026-01-14 15:04:02.72	20.99	2.53	-47.2	-61.2	3.6	1.51e+00	0	28	104	0	60	41571
2026-01-14 15:04:03.73	20.98	2.59	-47.2	-61.2	3.6	1.51e+00	0	28	104	0	60	41368
2026-01-14 15:04:04.74	20.98	2.66	-47.2	-61.1	3.6	1.51e+00	0	28	104	0	60	40857
2026-01-14 15:04:05.75	20.98	2.72	-47.2	-61.1	3.6	1.51e+00	0	28	104	0	60	40969
2026-01-14 15:04:06.76	20.97	2.79	-47.2	-61.1	3.6	1.51e+00	0	28	104	0	60	40797
2026-01-14 15:04:07.77	20.97	2.86	-47.1	-60.7	3.6	1.51e+00	0	28	104	0	60	39141
2026-01-14 15:04:08.78	20.96	2.92	-47.1	-59.8	3.7	1.50e+00	0	28	104	0	60	35477
2026-01-14 15:04:09.79	20.96	2.99	-47.0	-57.6	4.3	1.44e+00	0	28	0	0	60	27288
2026-01-14 15:04:10.80	20.96	3.06	-46.7	-54.6	5.6	5.24e-01	0	28	0	1048576	60	19466
2026-01-14 15:04:11.81	20.95	3.12	-46.4	-53.1	7.5	2.10e-01	33	28	0	3145728	60	16255
2026-01-14 15:04:12.82	20.95	3.19	-46.0	-51.7	9.3	5.09e-02	0	28	0	5242880	60	13840
2026-01-14 15:04:13.83	20.94	3.26	-45.5	-50.4	10.6	1.20e-02	29	28	0	7340032	60	11921
2026-01-14 15:04:14.84	20.94	3.33	-45.2	-49.5	11.8	1.22e-03	0	28	0	9437184	60	10800
2026-01-14 15:04:15.85	20.93	3.39	-44.9	-48.8	12.4	2.16e-04	39	28	0	10485760	60	9959
2026-01-14 15:04:16.86	20.93	3.46	-44.5	-48.0	13.2	3.50e-05	0	28	0	12582912	60	9115
2026-01-14 15:04:17.87	20.92	3.53	-44.5	-48.0	13.3	2.28e-05	0	28	0	14680064	60	9070
2026-01-14 15:04:18.88	20.92	3.60	-44.5	-48.1	13.2	3.58e-05	0	28	0	16777216	60	9172
2026-01-14 15:04:19.89	20.92	3.67	-44.7	-48.4	12.8	1.83e-05	0	28	0	18874368	60	9473
2026-01-14 15:04:20.90	20.91	3.73	-44.9	-48.9	12.1	1.56e-04	82	28	0	19922944	60	10084
2026-01-14 15:04:21.91	20.91	3.80	-45.3	-49.9	11.1	9.60e-04	0	28	0	22020096	60	11319
2026-01-14 15:04:22.92	20.90	3.87	-44.4	-47.8	13.5	2.97e-04	80	28	0	24117248	60	8846
2026-01-14 15:04:23.93	20.90	3.94	-43.3	-45.9	15.1	0.00e+00	0	28	0	26214400	58	8042
2026-01-14 15:04:24.93	20.89	4.01	-47.2	-61.9	3.6	1.46e-01	0	28	104	27262976	60	44926
2026-01-14 15:04:25.94	20.89	4.08	-44.8	-48.6	5.7	1.22e+00	0	28	104	27262976	60	9765
2026-01-14 15:04:26.95	20.88	4.15	-47.2	-60.9	3.6	5.00e-01	0	28	104	27262976	60	40024
2026-01-14 15:04:27.96	20.88	4.22	-43.4	-46.0	6.0	1.48e+00	0	28	104	27262976	60	7229
2026-01-14 15:04:28.97	20.87	4.29	-43.1	-45.6	16.0	0.00e+00	0	28	0	27262976	60	6850
2026-01-14 15:04:29.98	20.87	4.36	-42.9	-45.2	16.3	0.00e+00	92	28	0	29360128	60	6580
2026-01-14 15:04:30.99	20.86	4.43	-42.8	-45.1	16.4	0.00e+00	0	28	0	30408704	58	7332
2026-01-14 15:04:32.00	20.86	4.50	-43.0	-45.4	16.1	0.00e+00	0	28	0	32505856	58	7521
2026-01-14 15:04:33.00	20.85	4.57	-42.8	-45.1	16.3	0.00e+00	0	28	0	34603008	58	7276
2026-01-14 15:04:34.01	20.85	4.64	-42.5	-44.6	16.8	0.00e+00	0	28	0	36700160	58	6902
2026-01-14 15:04:35.02	20.84	4.71	-42.4	-44.6	16.9	0.00e+00	34	28	0	38797312	58	6859
2026-01-14 15:04:36.03	20.84	4.78	-42.3	-44.4	17.0	0.00e+00	0	28	0	40894464	58	6713
2026-01-14 15:04:37.04	20.83	4.85	-42.3	-44.4	16.9	0.00e+00	90	28	0	41943040	58	6730
2026-01-14 15:04:38.05	20.82	4.92	-42.6	-44.9	16.9	0.00e+00	0	28	0	44040192	58	7104
2026-01-14 15:04:39.06	20.82	5.00	-42.2	-44.2	17.3	0.00e+00	0	28	0	46137344	58	6563
2026-01-14 15:04:40.07	20.81	5.07	-42.1	-44.1	17.4	0.00e+00	0	28	0	48234496	58	6512
2026-01-14 15:04:41.08	20.81	5.14	-42.2	-44.2	17.4	0.00e+00	0	28	0	50331648	58	6577
2026-01-14 15:04:42.09	20.80	5.21	-42.2	-44.2	17.4	0.00e+00	2	28	0	51380224	58	6541
2026-01-14 15:04:43.10	20.80	5.28	-42.0	-43.9	17.6	0.00e+00	0	28	0	53477376	58	6361
2026-01-14 15:04:44.11	20.79	5.36	-42.0	-43.9	17.6	0.00e+00	32	28	0	55574528	58	6382
2026-01-14 15:04:45.12	20.78	5.43	-42.3	-44.3	17.2	0.00e+00	0	28	0	57671680	58	6655
2026-01-14 15:04:46.13	20.78	5.50	-42.0	-44.0	17.6	0.00e+00	0	28	0	59768832	58	6413
2026-01-14 15:04:47.14	20.77	5.58	-42.0	-43.9	17.8	0.00e+00	0	28	0	60817408	58	6319
2026-01-14 15:04:48.14	20.77	5.65	-42.0	-43.9	17.7	0.00e+00	0	28	0	62914560	58	6373
2026-01-14 15:04:49.15	20.76	5.72	-41.9	-43.8	17.8	0.00e+00	0	28	0	65011712	58	6277
2026-01-14 15:04:50.16	20.76	5.80	-41.9	-43.7	17.9	0.00e+00	0	28	0	67108864	58	6231
2026-01-14 15:04:51.17	20.75	5.87	-41.9	-43.7	17.8	0.00e+00	92	28	0	69206016	58	6236
2026-01-14 15:04:52.18	20.74	5.94	-41.8	-43.7	17.9	0.00e+00	0	28	0	70254592	58	6183
2026-01-14 15:04:53.19	20.74	6.02	-41.9	-43.7	17.8	0.00e+00	92	28	0	72351744	58	6231
2026-01-14 15:04:54.20	20.73	6.09	-41.9	-43.7	17.9	0.00e+00	0	28	0	74448896	58	6219
2026-01-14 15:04:55.21	20.72	6.17	-42.1	-44.0	17.7	0.00e+00	0	28	0	76546048	58	6407
2026-01-14 15:04:56.22	20.72	6.24	-42.0	-43.8	17.9	0.00e+00	33	28	0	78643200	58	6292
2026-01-14 15:04:57.23	20.71	6.32	-41.9	-43.7	18.0	0.00e+00	0	28	0	79691776	56	6945
2026-01-14 15:04:58.23	20.70	6.39	-42.0	-43.8	17.9	0.00e+00	91	28	0	81788928	56	7062
2026-01-14 15:04:59.24	20.70	6.47	-41.9	-43.7	18.0	0.00e+00	0	28	0	83886080	56	6963
2026-01-14 15:05:00.25	20.69	6.55	-41.7	-43.5	18.2	0.00e+00	66	28	0	85983232	56	6794
2026-01-14 15:05:01.26	20.68	6.62	-41.9	-43.7	18.1	0.00e+00	0	28	0	88080384	56	6931
2026-01-14 15:05:02.27	20.68	6.70	-41.7	-43.5	18.3	0.00e+00	0	28	0	89128960	56	6802
2026-01-14 15:05:03.28	20.67	6.78	-41.7	-43.5	18.3	0.00e+00	0	28	0	91226112	56	6770
2026-01-14 15:05:04.29	20.66	6.85	-41.6	-43.3	18.5	0.00e+00	0	28	0	93323264	56	6686
2026-01-14 15:05:05.30	20.66	6.93	-41.5	-43.2	18.5	0.00e+00	46	28	0	95420416	56	6556
2026-01-14 15:05:06.31	20.65	7.01	-41.5	-43.2	18.5	0.00e+00	0	28	0	97517568	56	6584
2026-01-14 15:05:07.32	20.64	7.09	-41.6	-43.3	18.5	0.00e+00	48	28	0	98566144	56	6643
2026-01-14 15:05:08.33	20.64	7.16	-41.5	-43.2	18.4	0.00e+00	0	28	0	100663296	56	6598
2026-01-14 15:05:09.34	20.63	7.24	-41.7	-43.5	18.4	0.00e+00	0	28	0	102760448	56	6791
2026-01-14 15:05:10.35	20.62	7.32	-41.6	-43.3	18.5	0.00e+00	0	28	0	104857600	56	6651
2026-01-14 15:05:11.36	20.61	7.40	-41.6	-43.2	18.5	0.00e+00	0	28	0	106954752	56	6598
2026-01-14 15:05:12.37	20.61	7.48	-41.4	-43.0	18.8	0.00e+00	30	28	0	109051904	56	6413
2026-01-14 15:05:13.38	20.60	7.56	-41.5	-43.2	18.6	0.00e+00	0	28	0	110100480	56	6546
2026-01-14 15:05:14.38	20.59	7.63	-41.4	-43.1	18.7	0.00e+00	68	28	0	112197632	56	6481
2026-01-14 15:05:15.39	20.59	7.71	-41.4	-43.0	18.8	0.00e+00	0	28	0	114294784	56	6448
2026-01-14 15:05:16.40	20.58	7.79	-41.4	-43.0	18.8	0.00e+00	35	28	0	116391936	56	6430
2026-01-14 15:05:17.41	20.57	7.87	-41.4	-43.1	18.8	0.00e+00	0	28	0	118489088	56	6477
2026-01-14 15:05:18.42	20.56	7.95	-41.1	-42.7	19.1	0.00e+00	0	28	0	119537664	56	6196
2026-01-14 15:05:19.43	20.55	8.04	-41.0	-42.6	19.2	0.00e+00	34	28	0	121634816	56	6118
2026-01-14 15:05:20.44	20.55	8.12	-41.1	-42.7	19.1	0.00e+00	0	28	0	123731968	56	6181
2026-01-14 15:05:21.45	20.54	8.20	-41.2	-42.8	19.0	0.00e+00	31	28	0	125829120	56	6293
2026-01-14 15:05:22.46	20.53	8.28	-41.3	-42.9	18.9	0.00e+00	0	28	0	127926272	56	6389
2026-01-14 15:05:23.47	20.52	8.36	-41.1	-42.6	19.2	0.00e+00	53	28	0	128974848	56	6159
2026-01-14 15:05:24.48	20.51	8.44	-41.0	-42.5	19.3	0.00e+00	0	28	0	131072000	56	6101
2026-01-14 15:05:25.49	20.51	8.52	-41.1	-42.7	19.3	0.00e+00	0	28	0	133169152	56	6206
2026-01-14 15:05:26.50	20.50	8.61	-41.0	-42.4	19.4	0.00e+00	0	28	0	135266304	56	6030
2026-01-14 15:05:27.51	20.49	8.69	-41.0	-42.5	19.4	0.00e+00	0	28	0	137363456	56	6067
2026-01-14 15:05:28.52	20.48	8.77	-40.9	-42.4	19.5	0.00e+00	25	28	0	138412032	56	5967
2026-01-14 15:05:29.53	20.47	8.86	-40.7	-42.2	19.6	0.00e+00	0	28	0	140509184	54	6569
2026-01-14 15:05:30.54	20.46	8.94	-40.8	-42.3	19.6	0.00e+00	82	28	0	142606336	54	6631
2026-01-14 15:05:31.55	20.46	9.02	-40.7	-42.1	19.8	0.00e+00	0	28	0	144703488	54	6505
2026-01-14 15:05:32.56	20.45	9.11	-40.6	-42.1	19.8	0.00e+00	0	28	0	146800640	54	6471
2026-01-14 15:05:33.56	20.44	9.19	-40.8	-42.3	19.6	0.00e+00	0	28	0	147849216	54	6635
2026-01-14 15:05:34.57	20.43	9.28	-40.6	-42.0	19.8	0.00e+00	0	28	0	149946368	54	6417
2026-01-14 15:05:35.58	20.42	9.36	-40.6	-42.0	19.8	0.00e+00	32	28	0	152043520	54	6434
2026-01-14 15:05:36.59	20.41	9.45	-40.4	-41.8	20.0	0.00e+00	0	28	0	154140672	54	6271
2026-01-14 15:05:37.60	20.40	9.53	-40.6	-42.0	19.8	0.00e+00	70	28	0	156237824	54	6408
2026-01-14 15:05:38.61	20.39	9.62	-40.6	-42.0	19.8	0.00e+00	0	28	0	157286400	54	6437
2026-01-14 15:05:39.62	20.38	9.70	-40.7	-42.1	19.7	0.00e+00	0	28	0	159383552	54	6469
2026-01-14 15:05:40.63	20.37	9.79	-40.3	-41.6	20.2	0.00e+00	0	28	0	161480704	54	6143
2026-01-14 15:05:41.64	20.37	9.88	-40.3	-41.7	20.2	0.00e+00	0	28	0	163577856	54	6175
2026-01-14 15:05:42.65	20.36	9.96	-40.2	-41.5	20.2	0.00e+00	31	28	0	165675008	54	6091
2026-01-14 15:05:43.66	20.35	10.05	-40.2	-41.5	20.3	0.00e+00	0	28	0	166723584	54	6052
2026-01-14 15:05:44.67	20.34	10.14	-40.2	-41.5	20.4	0.00e+00	40	28	0	168820736	54	6085
2026-01-14 15:05:45.68	20.33	10.23	-40.1	-41.4	20.4	0.00e+00	0	28	0	170917888	54	5976
2026-01-14 15:05:46.68	20.32	10.31	-40.2	-41.5	20.4	0.00e+00	0	28	0	173015040	54	6064
2026-01-14 15:05:47.69	20.31	10.40	-40.0	-41.3	20.5	0.00e+00	0	28	0	175112192	54	5938
2026-01-14 15:05:48.70	20.30	10.49	-40.0	-41.3	20.4	0.00e+00	0	28	0	176160768	54	5924
2026-01-14 15:05:49.71	20.29	10.58	-39.9	-41.2	20.5	0.00e+00	34	28	0	178257920	54	5853
2026-01-14 15:05:50.72	20.28	10.67	-39.7	-41.0	20.7	0.00e+00	0	28	0	180355072	54	5702
2026-01-14 15:05:51.73	20.27	10.76	-39.9	-41.2	20.6	0.00e+00	92	28	0	182452224	52	6572
2026-01-14 15:05:52.74	20.26	10.85	-39.9	-41.1	20.6	0.00e+00	0	28	0	184549376	52	6505
2026-01-14 15:05:53.75	20.25	10.94	-39.8	-41.0	20.7	0.00e+00	69	28	0	185597952	52	6448
2026-01-14 15:05:54.76	20.24	11.03	-39.9	-41.2	20.6	0.00e+00	0	28	0	187695104	52	6551
2026-01-14 15:05:55.76	20.22	11.12	-39.8	-41.0	20.7	0.00e+00	0	28	0	189792256	52	6431
2026-01-14 15:05:56.77	20.21	11.21	-39.7	-40.9	20.9	0.00e+00	32	28	0	191889408	52	6380
2026-01-14 15:05:57.78	20.20	11.31	-39.6	-40.8	20.9	0.00e+00	0	28	0	193986560	52	6285
2026-01-14 15:05:58.79	20.19	11.40	-39.5	-40.7	21.0	0.00e+00	92	28	0	195035136	52	6201
2026-01-14 15:05:59.80	20.18	11.49	-39.5	-40.7	21.1	0.00e+00	0	28	0	197132288	52	6191
2026-01-14 15:06:00.81	20.17	11.58	-39.3	-40.4	21.3	0.00e+00	4	28	0	199229440	52	6016
2026-01-14 15:06:01.82	20.16	11.68	-39.2	-40.4	21.4	0.00e+00	0	28	0	201326592	52	5981
2026-01-14 15:06:02.83	20.15	11.77	-39.2	-40.4	21.4	0.00e+00	0	28	0	203423744	52	5992
2026-01-14 15:06:03.84	20.14	11.86	-39.1	-40.3	21.5	0.00e+00	0	28	0	205520896	52	5898
2026-01-14 15:06:04.84	20.12	11.96	-39.0	-40.1	21.5	0.00e+00	0	28	0	206569472	52	5789
2026-01-14 15:06:05.86	20.11	12.05	-38.9	-40.0	21.6	0.00e+00	90	28	0	208666624	52	5741
2026-01-14 15:06:06.87	20.10	12.15	-39.0	-40.1	21.7	0.00e+00	0	28	0	210763776	52	5793
2026-01-14 15:06:07.87	20.09	12.24	-39.2	-40.3	21.4	0.00e+00	88	28	0	212860928	52	5961
2026-01-14 15:06:08.88	20.08	12.34	-38.8	-39.9	21.8	0.00e+00	0	28	0	214958080	52	5648
2026-01-14 15:06:09.89	20.07	12.43	-38.9	-40.0	21.7	0.00e+00	0	28	0	216006656	52	5711
2026-01-14 15:06:10.90	20.05	12.53	-39.0	-40.1	21.6	0.00e+00	0	28	0	218103808	52	5814
2026-01-14 15:06:11.91	20.04	12.63	-38.8	-39.9	21.8	0.00e+00	0	28	0	220200960	52	5651
2026-01-14 15:06:12.92	20.03	12.73	-38.9	-40.0	21.9	0.00e+00	38	28	0	222298112	52	5726
2026-01-14 15:06:13.93	20.02	12.82	-38.9	-39.9	21.7	0.00e+00	0	28	0	224395264	50	6383
2026-01-14 15:06:14.94	20.00	12.92	-38.7	-39.8	21.9	0.00e+00	66	28	0	225443840	50	6255
2026-01-14 15:06:15.95	19.99	13.02	-38.9	-40.0	21.8	0.00e+00	0	28	0	227540992	50	6391
2026-01-14 15:06:16.95	19.98	13.12	-38.6	-39.7	22.1	0.00e+00	0	28	0	229638144	50	6198
2026-01-14 15:06:17.96	19.97	13.22	-38.5	-39.6	22.1	0.00e+00	0	28	0	231735296	50	6107
2026-01-14 15:06:18.97	19.95	13.32	-38.5	-39.6	22.2	0.00e+00	0	28	0	233832448	50	6119
2026-01-14 15:06:19.98	19.94	13.42	-38.4	-39.5	22.2	0.00e+00	27	28	0	234881024	50	6036
2026-01-14 15:06:20.99	19.93	13.52	-38.5	-39.5	22.0	0.00e+00	0	28	0	236978176	50	6095
2026-01-14 15:06:22.00	19.91	13.62	-38.7	-39.7	22.0	0.00e+00	72	28	0	239075328	50	6221
2026-01-14 15:06:23.01	19.90	13.72	-38.5	-39.5	22.2	0.00e+00	0	28	0	241172480	50	6050
2026-01-14 15:06:24.02	19.89	13.82	-38.6	-39.6	22.0	0.00e+00	0	28	0	243269632	50	6171
2026-01-14 15:06:25.03	19.87	13.92	-38.5	-39.5	22.3	0.00e+00	0	28	0	244318208	50	6080
2026-01-14 15:06:26.04	19.86	14.03	-38.4	-39.4	22.2	0.00e+00	0	28	0	246415360	50	6007
2026-01-14 15:06:27.05	19.84	14.13	-38.3	-39.3	22.4	0.00e+00	20	28	0	248512512	50	5940
2026-01-14 15:06:28.06	19.83	14.23	-38.3	-39.3	22.3	0.00e+00	0	28	0	250609664	50	5914
2026-01-14 15:06:29.07	19.82	14.34	-38.2	-39.2	22.4	0.00e+00	47	28	0	252706816	50	5866
2026-01-14 15:06:30.08	19.80	14.44	-38.2	-39.1	22.5	0.00e+00	0	28	0	253755392	50	5819
2026-01-14 15:06:31.09	19.79	14.55	-38.1	-39.1	22.5	0.00e+00	64	28	0	255852544	50	5788
2026-01-14 15:06:32.10	19.77	14.65	-38.2	-39.2	22.5	0.00e+00	0	28	0	257949696	50	5893
2026-01-14 15:06:33.11	19.76	14.76	-38.2	-39.1	22.5	0.00e+00	0	28	0	260046848	50	5827
2026-01-14 15:06:34.11	19.74	14.86	-38.2	-39.2	22.4	0.00e+00	5	28	0	262144000	50	5849
2026-01-14 15:06:35.12	19.73	14.97	-38.0	-38.9	22.6	0.00e+00	0	28	0	263192576	50	5668
2026-01-14 15:06:36.13	19.71	15.08	-37.9	-38.8	22.8	0.00e+00	5	28	0	265289728	50	5615
2026-01-14 15:06:37.14	19.70	15.18	-37.9	-38.9	22.6	0.00e+00	10	28	0	267386880	48	6338
2026-01-14 15:06:38.15	19.68	15.29	-37.9	-38.8	22.8	0.00e+00	28	28	0	269484032	48	6283
2026-01-14 15:06:39.16	19.67	15.40	-37.7	-38.7	22.9	0.00e+00	0	28	0	271581184	48	6184
2026-01-14 15:06:40.17	19.65	15.51	-37.8	-38.7	22.8	0.00e+00	0	28	0	273678336	48	6243
2026-01-14 15:06:41.18	19.63	15.62	-37.7	-38.6	22.9	0.00e+00	0	28	0	274726912	48	6130
2026-01-14 15:06:42.19	19.62	15.73	-37.6	-38.5	22.7	0.00e+00	0	28	0	276824064	48	6056
2026-01-14 15:06:43.20	19.60	15.84	-37.5	-38.4	23.1	0.00e+00	36	28	0	278921216	48	6026
2026-01-14 15:06:44.21	19.59	15.95	-37.5	-38.4	22.6	0.00e+00	0	28	0	281018368	48	6022
2026-01-14 15:06:45.22	19.57	16.06	-37.8	-38.7	22.8	0.00e+00	76	28	0	283115520	48	6215
2026-01-14 15:06:46.23	19.55	16.18	-37.5	-38.4	22.7	0.00e+00	0	28	0	284164096	48	6031
2026-01-14 15:06:47.24	19.54	16.29	-37.5	-38.5	22.8	0.00e+00	0	28	0	286261248	48	6048
2026-01-14 15:06:48.25	19.52	16.40	-37.5	-38.4	22.9	0.00e+00	0	28	0	288358400	48	5997
2026-01-14 15:06:49.25	19.50	16.51	-37.4	-38.3	23.1	0.00e+00	0	28	0	290455552	48	5930
2026-01-14 15:06:50.26	19.48	16.63	-37.5	-38.4	23.2	0.00e+00	72	28	0	292552704	48	5995
2026-01-14 15:06:51.27	19.47	16.74	-37.6	-38.5	23.0	0.00e+00	0	28	0	293601280	48	6065
2026-01-14 15:06:52.28	19.45	16.86	-37.5	-38.5	23.1	0.00e+00	89	28	0	295698432	48	6034
2026-01-14 15:06:53.29	19.43	16.97	-37.7	-38.6	23.0	0.00e+00	0	28	0	297795584	48	6143
2026-01-14 15:06:54.30	19.41	17.09	-37.6	-38.6	23.0	0.00e+00	17	28	0	299892736	48	6113
2026-01-14 15:06:55.31	19.40	17.21	-37.6	-38.5	23.1	0.00e+00	0	28	0	301989888	48	6058
2026-01-14 15:06:56.32	19.38	17.32	-37.6	-38.6	23.0	0.00e+00	0	28	0	303038464	48	6124
2026-01-14 15:06:57.33	19.36	17.44	-37.6	-38.5	23.0	0.00e+00	51	28	0	305135616	48	6098
2026-01-14 15:06:58.34	19.34	17.56	-37.5	-38.5	23.0	0.00e+00	0	28	0	307232768	48	6059
2026-01-14 15:06:59.35	19.32	17.68	-37.8	-38.7	22.9	0.00e+00	92	28	0	309329920	48	6234
2026-01-14 15:07:00.36	19.30	17.80	-37.7	-38.6	23.0	0.00e+00	0	28	0	311427072	48	6147
2026-01-14 15:07:01.37	19.28	17.92	-37.7	-38.6	23.0	0.00e+00	0	28	0	312475648	48	6151
2026-01-14 15:07:02.38	19.26	18.04	-37.6	-38.5	23.1	0.00e+00	0	28	0	314572800	48	6090
2026-01-14 15:07:03.39	19.24	18.16	-37.6	-38.5	23.1	0.00e+00	0	28	0	316669952	48	6070
2026-01-14 15:07:04.40	19.22	18.28	-37.5	-38.4	23.1	0.00e+00	37	28	0	318767104	48	6020
2026-01-14 15:07:05.41	19.20	18.41	-37.5	-38.5	23.1	0.00e+00	0	28	0	320864256	48	6052
2026-01-14 15:07:06.42	19.18	18.53	-37.7	-38.6	23.0	0.00e+00	92	28	0	321912832	48	6152
2026-01-14 15:07:07.43	19.16	18.65	-37.6	-38.5	23.1	0.00e+00	0	28	0	324009984	48	6089
2026-01-14 15:07:08.43	19.14	18.78	-37.4	-38.4	23.2	0.00e+00	92	28	0	326107136	48	5978
2026-01-14 15:07:09.44	19.12	18.90	-37.6	-38.5	23.2	0.00e+00	0	28	0	328204288	48	6068
2026-01-14 15:07:10.45	19.10	19.03	-37.5	-38.4	23.2	0.00e+00	0	28	0	330301440	48	6023
2026-01-14 15:07:11.46	19.08	19.16	-37.4	-38.3	23.2	0.00e+00	34	28	0	331350016	48	5955
2026-01-14 15:07:12.47	19.06	19.28	-37.6	-38.6	23.1	0.00e+00	0	28	0	333447168	48	6135
2026-01-14 15:07:13.48	19.04	19.41	-37.7	-38.7	23.0	0.00e+00	84	28	0	335544320	48	6180
2026-01-14 15:07:14.49	19.02	19.54	-37.7	-38.7	23.1	0.00e+00	0	28	0	337641472	48	6176
2026-01-14 15:07:15.50	18.99	19.67	-37.8	-38.7	23.0	0.00e+00	92	28	0	339738624	48	6236
2026-01-14 15:07:16.51	18.97	19.80	-37.9	-38.9	22.9	0.00e+00	0	28	0	341835776	48	6329
2026-01-14 15:07:17.52	18.95	19.93	-38.0	-39.0	22.8	0.00e+00	0	28	0	342884352	48	6452
2026-01-14 15:07:18.53	18.93	20.06	-38.0	-39.0	22.8	0.00e+00	0	28	0	344981504	48	6409
2026-01-14 15:07:19.54	18.90	20.19	-38.1	-39.1	22.6	0.00e+00	0	28	0	347078656	48	6507
2026-01-14 15:07:20.55	18.88	20.32	-38.0	-39.0	22.7	0.00e+00	34	28	0	349175808	48	6399
2026-01-14 15:07:21.56	18.86	20.46	-38.1	-39.1	22.8	0.00e+00	0	28	0	350224384	48	6527
2026-01-14 15:07:22.57	18.83	20.59	-38.2	-39.2	22.6	0.00e+00	71	28	0	352321536	48	6572
2026-01-14 15:07:23.58	18.81	20.72	-38.0	-39.0	22.8	0.00e+00	0	28	0	354418688	48	6402
2026-01-14 15:07:24.59	18.78	20.86	-38.0	-39.0	22.9	0.00e+00	0	28	0	356515840	48	6419
2026-01-14 15:07:25.59	18.76	20.99	-38.0	-39.0	22.8	0.00e+00	0	28	0	358612992	48	6440
2026-01-14 15:07:26.60	18.74	21.13	-37.9	-38.9	22.9	0.00e+00	0	28	0	359661568	48	6379
2026-01-14 15:07:27.61	18.71	21.27	-37.9	-38.9	22.9	0.00e+00	44	28	0	361758720	48	6333
2026-01-14 15:07:28.62	18.69	21.41	-38.0	-39.0	22.9	0.00e+00	0	28	0	363855872	48	6391
2026-01-14 15:07:29.63	18.66	21.55	-38.0	-39.0	22.8	0.00e+00	75	28	0	365953024	48	6432
2026-01-14 15:07:30.64	18.64	21.69	-38.3	-39.3	22.5	0.00e+00	0	28	0	368050176	48	6683
2026-01-14 15:07:31.65	18.61	21.83	-38.0	-39.1	22.8	0.00e+00	0	28	0	370147328	48	6465
2026-01-14 15:07:32.66	18.58	21.97	-38.0	-39.0	22.8	0.00e+00	0	28	0	371195904	48	6436
2026-01-14 15:07:33.66	18.56	22.11	-38.0	-39.0	23.0	0.00e+00	0	28	0	373293056	48	6401
2026-01-14 15:07:34.67	18.53	22.25	-38.1	-39.1	22.8	0.00e+00	37	28	0	375390208	48	6477
2026-01-14 15:07:35.68	18.50	22.39	-37.9	-38.8	22.9	0.00e+00	0	28	0	377487360	48	6316
2026-01-14 15:07:36.69	18.48	22.54	-38.0	-39.0	22.8	0.00e+00	92	28	0	379584512	48	6403
2026-01-14 15:07:37.70	18.45	22.68	-37.9	-38.9	22.9	0.00e+00	0	28	0	380633088	48	6381
2026-01-14 15:07:38.71	18.42	22.83	-38.1	-39.1	22.7	0.00e+00	0	28	0	382730240	48	6524
2026-01-14 15:07:39.72	18.39	22.98	-37.9	-38.9	22.8	0.00e+00	0	28	0	384827392	48	6366
2026-01-14 15:07:40.73	18.36	23.13	-37.6	-38.6	23.2	0.00e+00	0	28	0	386924544	48	6112
2026-01-14 15:07:41.74	18.33	23.27	-37.6	-38.5	23.2	0.00e+00	17	28	0	389021696	48	6070
2026-01-14 15:07:42.75	18.30	23.42	-37.6	-38.5	23.2	0.00e+00	0	28	0	390070272	48	6080
2026-01-14 15:07:43.76	18.28	23.57	-37.6	-38.6	23.1	0.00e+00	36	28	0	392167424	48	6118
2026-01-14 15:07:44.77	18.25	23.73	-37.3	-38.2	23.5	0.00e+00	0	28	0	394264576	48	5852
2026-01-14 15:07:45.78	18.22	23.88	-37.3	-38.3	23.4	0.00e+00	93	28	0	396361728	48	5900
2026-01-14 15:07:46.79	18.18	24.03	-37.5	-38.4	23.4	0.00e+00	0	28	0	398458880	48	6015
2026-01-14 15:07:47.79	18.15	24.18	-37.3	-38.2	23.5	0.00e+00	0	28	0	399507456	48	5871
2026-01-14 15:07:48.80	18.12	24.34	-37.3	-38.2	23.6	0.00e+00	0	28	0	401604608	48	5859
2026-01-14 15:07:49.81	18.09	24.49	-37.4	-38.3	23.4	0.00e+00	0	28	0	403701760	48	5922
2026-01-14 15:07:50.82	18.06	24.65	-37.5	-38.4	23.3	0.00e+00	92	28	0	405798912	48	5986
2026-01-14 15:07:51.83	18.03	24.81	-37.6	-38.5	23.0	0.00e+00	0	28	0	407896064	48	6084
2026-01-14 15:07:52.84	18.00	24.97	-37.8	-38.7	23.1	0.00e+00	90	28	0	408944640	48	6216
2026-01-14 15:07:53.85	17.96	25.12	-37.7	-38.6	23.2	0.00e+00	0	28	0	411041792	48	6142
2026-01-14 15:07:54.86	17.93	25.29	-37.9	-38.9	23.1	0.00e+00	0	28	0	413138944	48	6325
2026-01-14 15:07:55.87	17.90	25.45	-37.6	-38.5	23.3	0.00e+00	0	28	0	415236096	48	6054
2026-01-14 15:07:56.87	17.86	25.61	-37.3	-38.2	23.4	0.00e+00	0	28	0	417333248	48	5841
2026-01-14 15:07:57.88	17.83	25.77	-37.7	-38.6	23.2	0.00e+00	47	28	0	418381824	48	6135
2026-01-14 15:07:58.89	17.79	25.93	-37.6	-38.5	23.3	0.00e+00	0	28	0	420478976	48	6052
2026-01-14 15:07:59.90	17.76	26.10	-37.6	-38.5	23.2	0.00e+00	41	28	0	422576128	48	6055
2026-01-14 15:08:00.91	17.72	26.27	-37.5	-38.4	23.4	0.00e+00	0	28	0	424673280	48	6018
2026-01-14 15:08:01.92	17.68	26.43	-37.7	-38.6	23.2	0.00e+00	0	28	0	426770432	48	6152
2026-01-14 15:08:02.93	17.65	26.60	-38.0	-39.0	22.9	0.00e+00	0	28	0	427819008	48	6416
2026-01-14 15:08:03.94	17.61	26.77	-38.2	-39.1	22.8	0.00e+00	0	28	0	429916160	48	6529
2026-01-14 15:08:04.95	17.57	26.94	-38.7	-39.7	22.4	0.00e+00	24	28	0	432013312	50	6239
2026-01-14 15:08:05.96	17.54	27.11	-39.1	-40.1	22.0	0.00e+00	0	28	0	434110464	50	6502
2026-01-14 15:08:06.97	17.50	27.29	-38.5	-39.5	22.5	0.00e+00	49	28	0	436207616	50	6061
2026-01-14 15:08:07.98	17.46	27.46	-38.8	-39.9	22.2	0.00e+00	0	28	0	438304768	50	6353
2026-01-14 15:08:08.99	17.42	27.63	-38.4	-39.4	22.6	0.00e+00	23	28	0	439353344	50	6021
2026-01-14 15:08:10.00	17.38	27.81	-38.5	-39.6	22.5	0.00e+00	0	28	0	441450496	50	6111
2026-01-14 15:08:11.01	17.34	27.99	-38.7	-39.8	22.4	0.00e+00	0	28	0	443547648	50	6275
2026-01-14 15:08:12.01	17.30	28.16	-38.3	-39.3	22.6	0.00e+00	41	28	0	445644800	50	5948
2026-01-14 15:08:13.02	17.26	28.34	-38.2	-39.2	22.7	0.00e+00	0	28	0	447741952	50	5881
2026-01-14 15:08:14.03	17.22	28.52	-38.3	-39.3	22.8	0.00e+00	38	28	0	448790528	50	5917
2026-01-14 15:08:15.04	17.17	28.70	-38.2	-39.1	22.7	0.00e+00	0	28	0	450887680	50	5815
2026-01-14 15:08:16.05	17.13	28.89	-38.6	-39.6	22.4	0.00e+00	40	28	0	452984832	50	6158
2026-01-14 15:08:17.06	17.09	29.07	-38.6	-39.6	22.4	0.00e+00	0	28	0	455081984	50	6156
2026-01-14 15:08:18.07	17.04	29.26	-38.8	-39.8	22.3	0.00e+00	0	28	0	457179136	50	6272
2026-01-14 15:08:19.08	17.00	29.44	-39.0	-40.1	22.0	0.00e+00	15	28	0	458227712	50	6488
2026-01-14 15:08:20.09	16.95	29.63	-39.4	-40.6	21.6	0.00e+00	0	28	0	460324864	50	6850
2026-01-14 15:08:21.10	16.91	29.82	-39.4	-40.5	21.7	0.00e+00	12	28	0	462422016	50	6773
2026-01-14 15:08:22.10	16.86	30.01	-39.4	-40.5	21.6	0.00e+00	0	28	0	464519168	52	6092
2026-01-14 15:08:23.11	16.82	30.20	-39.7	-40.8	21.3	0.00e+00	89	28	0	466616320	52	6296
2026-01-14 15:08:24.12	16.77	30.39	-39.9	-41.1	21.2	0.00e+00	0	28	0	467664896	52	6479
2026-01-14 15:08:25.13	16.72	30.58	-39.5	-40.7	21.5	0.00e+00	0	28	0	469762048	52	6184
2026-01-14 15:08:26.14	16.67	30.78	-39.4	-40.5	21.8	0.00e+00	0	28	0	471859200	52	6092
2026-01-14 15:08:27.15	16.62	30.98	-39.6	-40.7	21.6	0.00e+00	0	28	0	473956352	52	6178
2026-01-14 15:08:28.16	16.57	31.17	-39.9	-41.1	21.3	0.00e+00	92	28	0	476053504	52	6466
2026-01-14 15:08:29.16	16.52	31.37	-40.4	-41.6	21.0	0.00e+00	0	28	0	477102080	52	6871
2026-01-14 15:08:30.17	16.47	31.57	-40.4	-41.7	20.9	0.00e+00	70	28	0	479199232	52	6934
2026-01-14 15:08:31.18	16.42	31.77	-40.7	-42.0	20.2	0.00e+00	0	28	0	481296384	54	6401
2026-01-14 15:08:32.19	16.37	31.98	-41.3	-42.7	19.8	0.00e+00	0	28	0	483393536	54	6958
2026-01-14 15:08:33.20	16.31	32.18	-41.7	-43.3	19.0	0.00e+00	33	28	0	485490688	54	7433
2026-01-14 15:08:34.21	16.26	32.39	-42.1	-43.7	19.4	0.00e+00	0	28	0	486539264	56	6951
2026-01-14 15:08:35.21	16.21	32.59	-42.0	-43.5	19.0	0.00e+00	51	28	0	488636416	56	6844
2026-01-14 15:08:36.22	16.15	32.80	-41.5	-42.9	19.6	0.00e+00	0	28	0	490733568	56	6371
2026-01-14 15:08:37.23	16.09	33.01	-41.5	-42.9	19.7	0.00e+00	92	28	0	492830720	56	6377
2026-01-14 15:08:38.24	16.04	33.22	-40.9	-42.2	20.3	0.00e+00	0	28	0	494927872	56	5871
2026-01-14 15:08:39.25	15.98	33.43	-41.1	-42.4	20.1	0.00e+00	0	28	0	495976448	56	6014
2026-01-14 15:08:40.26	15.92	33.65	-40.9	-42.2	20.5	0.00e+00	0	28	0	498073600	56	5881
2026-01-14 15:08:41.27	15.86	33.86	-40.9	-42.2	20.3	0.00e+00	0	28	0	500170752	54	6590
2026-01-14 15:08:42.28	15.80	34.08	-40.9	-42.3	20.2	0.00e+00	43	28	0	502267904	54	6676
2026-01-14 15:08:43.29	15.74	34.30	-40.6	-41.9	20.6	0.00e+00	0	28	0	504365056	54	6335
2026-01-14 15:08:44.30	15.68	34.52	-40.1	-41.3	21.2	0.00e+00	92	28	0	505413632	54	5937
2026-01-14 15:08:45.31	15.61	34.74	-39.7	-40.9	21.4	0.00e+00	0	28	0	507510784	52	6353
2026-01-14 15:08:46.32	15.55	34.96	-39.1	-40.2	22.1	0.00e+00	0	28	0	509607936	52	5881
2026-01-14 15:08:47.33	15.49	35.19	-38.6	-39.6	22.5	0.00e+00	0	28	0	511705088	50	6150
2026-01-14 15:08:48.34	15.42	35.42	-38.1	-39.1	23.0	0.00e+00	0	28	0	513802240	50	5797
2026-01-14 15:08:49.35	15.35	35.64	-37.9	-38.8	23.2	0.00e+00	0	28	0	514850816	50	5587
2026-01-14 15:08:50.36	15.29	35.87	-37.5	-38.3	23.4	0.00e+00	0	28	0	516947968	48	5957
2026-01-14 15:08:51.37	15.22	36.10	-37.2	-38.1	23.6	0.00e+00	91	28	0	519045120	48	5803
2026-01-14 15:08:52.38	15.15	36.34	-37.3	-38.2	23.6	0.00e+00	0	28	0	521142272	48	5830
2026-01-14 15:08:53.39	15.08	36.57	-36.7	-37.5	24.1	0.00e+00	92	28	0	523239424	46	6092
2026-01-14 15:08:54.40	15.00	36.81	-36.6	-37.4	24.0	0.00e+00	0	28	0	524288000	46	6020
2026-01-14 15:08:55.41	14.93	37.05	-36.5	-37.3	24.3	0.00e+00	0	28	0	526385152	46	5916
2026-01-14 15:08:56.42	14.86	37.29	-36.2	-37.0	24.5	0.00e+00	0	28	0	528482304	46	5738
2026-01-14 15:08:57.42	14.78	37.52	-36.3	-37.1	24.4	0.00e+00	0	28	0	530579456	46	5795
2026-01-14 15:08:58.43	14.71	37.77	-36.3	-37.1	24.4	0.00e+00	40	28	0	532676608	46	5786
2026-01-14 15:08:59.44	14.63	38.01	-36.4	-37.2	24.3	0.00e+00	0	28	0	534773760	46	5895
2026-01-14 15:09:00.45	14.55	38.26	-36.7	-37.6	24.0	0.00e+00	91	28	0	535822336	46	6147
2026-01-14 15:09:01.46	14.47	38.51	-36.6	-37.5	24.0	0.00e+00	0	28	0	537919488	46	6059
2026-01-14 15:09:02.47	14.39	38.76	-37.6	-38.5	23.2	0.00e+00	0	28	0	540016640	46	6824
2026-01-14 15:09:03.48	14.30	39.01	-38.1	-39.1	23.0	0.00e+00	0	28	0	542113792	48	6506
2026-01-14 15:09:04.49	14.22	39.26	-38.1	-39.2	22.9	0.00e+00	0	28	0	544210944	48	6557
2026-01-14 15:09:05.50	14.13	39.52	-38.3	-39.3	22.8	0.00e+00	45	28	0	545259520	48	6651
2026-01-14 15:09:06.51	14.05	39.77	-38.7	-39.7	22.4	0.00e+00	0	28	0	547356672	50	6240
2026-01-14 15:09:07.52	13.96	40.03	-39.4	-40.6	21.6	0.00e+00	91	28	0	549453824	50	6871
2026-01-14 15:09:08.53	13.87	40.29	-39.7	-41.0	21.3	0.00e+00	0	28	0	551550976	50	7176
2026-01-14 15:09:09.54	13.78	40.56	-39.8	-41.1	20.7	0.00e+00	0	28	0	553648128	52	6529
2026-01-14 15:09:10.55	13.68	40.82	-39.8	-41.0	21.2	0.00e+00	0	28	0	554696704	52	6449
2026-01-14 15:09:11.55	13.59	41.08	-39.8	-41.1	21.2	0.00e+00	0	28	0	556793856	52	6485
2026-01-14 15:09:12.56	13.49	41.35	-40.3	-41.7	20.9	0.00e+00	30	28	0	558891008	52	6935
2026-01-14 15:09:13.57	13.40	41.62	-39.9	-41.1	21.3	0.00e+00	0	28	0	560988160	52	6531
2026-01-14 15:09:14.58	13.30	41.89	-40.0	-41.3	21.0	0.00e+00	74	28	0	563085312	52	6624
2026-01-14 15:09:15.59	13.19	42.17	-39.7	-40.8	21.4	0.00e+00	0	28	0	564133888	52	6316
2026-01-14 15:09:16.60	13.09	42.44	-39.4	-40.6	21.9	0.00e+00	0	28	0	566231040	52	6112
2026-01-14 15:09:17.61	12.99	42.72	-39.8	-41.0	21.3	0.00e+00	0	28	0	568328192	52	6427
2026-01-14 15:09:18.62	12.88	43.00	-40.5	-41.8	20.6	0.00e+00	0	28	0	570425344	52	7028
2026-01-14 15:09:19.63	12.77	43.28	-40.2	-41.5	21.2	0.00e+00	41	28	0	572522496	54	6054
2026-01-14 15:09:20.64	12.66	43.57	-40.4	-41.7	20.7	0.00e+00	0	28	0	573571072	54	6192
2026-01-14 15:09:21.65	12.54	43.85	-40.6	-41.9	20.6	0.00e+00	37	28	0	575668224	54	6374
2026-01-14 15:09:22.66	12.43	44.14	-40.9	-42.4	20.0	0.00e+00	0	28	0	577765376	54	6721
2026-01-14 15:09:23.66	12.31	44.43	-40.7	-42.1	20.2	0.00e+00	0	28	0	579862528	54	6482
2026-01-14 15:09:24.67	12.19	44.72	-40.4	-41.8	20.6	0.00e+00	0	28	0	581959680	54	6251
2026-01-14 15:09:25.68	12.07	45.01	-40.1	-41.4	21.1	0.00e+00	0	28	0	583008256	54	5998
2026-01-14 15:09:26.69	11.95	45.31	-40.0	-41.2	21.0	0.00e+00	38	28	0	585105408	54	5884
2026-01-14 15:09:27.70	11.82	45.61	-39.9	-41.1	21.1	0.00e+00	0	28	0	587202560	54	5798
2026-01-14 15:09:28.72	11.69	45.91	-39.7	-40.8	21.6	0.00e+00	36	28	0	589299712	52	6281
2026-01-14 15:09:29.73	11.56	46.21	-39.4	-40.6	21.7	0.00e+00	0	28	0	591396864	52	6112
2026-01-14 15:09:30.74	11.42	46.51	-39.5	-40.6	21.5	0.00e+00	64	28	0	592445440	52	6131
2026-01-14 15:09:31.74	11.29	46.82	-39.7	-40.8	21.4	0.00e+00	0	28	0	594542592	52	6298
2026-01-14 15:09:32.75	11.15	47.12	-40.0	-41.1	20.7	0.00e+00	0	28	0	596639744	52	6528
2026-01-14 15:09:33.76	11.01	47.43	-39.9	-41.1	21.4	0.00e+00	0	28	0	598736896	52	6482
2026-01-14 15:09:34.77	10.86	47.75	-39.4	-40.5	21.5	0.00e+00	0	28	0	600834048	52	6069
2026-01-14 15:09:35.78	10.71	48.06	-38.9	-39.9	22.5	0.00e+00	51	28	0	602931200	52	5672
2026-01-14 15:09:36.80	10.56	48.38	-38.9	-39.9	22.5	0.00e+00	0	28	0	603979776	50	6340
2026-01-14 15:09:37.80	10.40	48.70	-38.4	-39.4	22.7	0.00e+00	92	28	0	606076928	50	5997
2026-01-14 15:09:38.81	10.25	49.02	-37.7	-38.6	23.5	0.00e+00	0	28	0	608174080	48	6107
2026-01-14 15:09:39.82	10.08	49.34	-37.5	-38.4	23.4	0.00e+00	0	28	0	610271232	48	5996
2026-01-14 15:09:40.83	9.92	49.66	-37.4	-38.3	23.5	0.00e+00	0	28	0	612368384	48	5936
2026-01-14 15:09:41.83	9.75	49.99	-37.6	-38.5	23.4	0.00e+00	0	28	0	613416960	48	6051
2026-01-14 15:09:42.84	9.58	50.32	-37.6	-38.5	23.2	0.00e+00	42	28	0	615514112	48	6088
2026-01-14 15:09:43.85	9.40	50.65	-37.6	-38.5	23.1	0.00e+00	0	28	0	617611264	48	6095
2026-01-14 15:09:44.86	9.22	50.98	-37.1	-38.0	23.8	0.00e+00	92	28	0	619708416	48	5701
2026-01-14 15:09:45.87	9.03	51.32	-37.2	-38.1	23.8	0.00e+00	0	28	0	621805568	48	5770
2026-01-14 15:09:46.87	8.85	51.65	-37.1	-38.0	23.7	0.00e+00	0	28	0	622854144	46	6441
2026-01-14 15:09:47.88	8.65	51.99	-36.9	-37.8	24.0	0.00e+00	0	28	0	624951296	46	6269
2026-01-14 15:09:48.89	8.46	52.33	-37.2	-38.1	23.7	0.00e+00	0	28	0	627048448	46	6470
2026-01-14 15:09:49.90	8.25	52.67	-37.2	-38.1	23.6	0.00e+00	45	28	0	629145600	46	6516
2026-01-14 15:09:50.91	8.05	53.02	-37.3	-38.2	23.4	0.00e+00	0	28	0	631242752	46	6605
2026-01-14 15:09:51.91	7.83	53.36	-37.2	-38.1	23.7	0.00e+00	86	28	0	632291328	48	5810
2026-01-14 15:09:52.92	7.62	53.71	-37.3	-38.2	23.6	0.00e+00	0	28	0	634388480	48	5884
2026-01-14 15:09:53.93	7.39	54.06	-37.2	-38.1	23.8	0.00e+00	0	28	0	636485632	48	5810
2026-01-14 15:09:54.94	7.16	54.42	-37.3	-38.3	23.7	0.00e+00	0	28	0	638582784	48	5909
2026-01-14 15:09:55.95	6.93	54.77	-36.5	-37.4	24.1	0.00e+00	0	28	0	640679936	46	5992
2026-01-14 15:09:56.95	6.69	55.13	-37.2	-38.1	23.7	0.00e+00	0	28	0	641728512	46	6507
2026-01-14 15:09:57.96	6.44	55.49	-37.3	-38.3	23.4	0.00e+00	0	28	0	643825664	46	6639
2026-01-14 15:09:58.97	6.19	55.85	-37.8	-38.8	23.1	0.00e+00	42	28	0	645922816	46	7033
2026-01-14 15:09:59.98	5.93	56.21	-37.7	-38.7	23.0	0.00e+00	0	28	0	648019968	48	6221
2026-01-14 15:10:00.99	5.66	56.57	-37.8	-38.7	23.2	0.00e+00	89	28	0	650117120	48	6238
2026-01-14 15:10:02.00	5.39	56.94	-38.1	-39.1	22.9	0.00e+00	0	28	0	651165696	48	6475
2026-01-14 15:10:03.01	5.10	57.31	-38.4	-39.4	22.7	0.00e+00	0	28	0	653262848	48	6727
2026-01-14 15:10:04.01	4.82	57.67	-39.0	-40.1	22.1	0.00e+00	0	28	0	655360000	50	6472
2026-01-14 15:10:05.02	4.52	58.04	-38.7	-39.7	22.2	0.00e+00	0	28	0	657457152	50	6214
2026-01-14 15:10:06.03	4.21	58.42	-38.0	-38.9	22.8	0.00e+00	44	28	0	659554304	50	5683
2026-01-14 15:10:07.04	3.90	58.79	-37.5	-38.4	23.4	0.00e+00	0	28	0	660602880	48	6010
2026-01-14 15:10:08.05	3.57	59.17	-37.4	-38.2	23.5	0.00e+00	82	28	0	662700032	48	5880
2026-01-14 15:10:09.06	3.24	59.55	-37.2	-38.1	23.6	0.00e+00	0	28	0	664797184	48	5812
2026-01-14 15:10:10.07	2.89	59.92	-36.7	-37.5	24.0	0.00e+00	0	28	0	666894336	46	6071
2026-01-14 15:10:11.07	2.54	60.30	-36.1	-36.9	24.6	0.00e+00	0	28	0	668991488	46	5678
2026-01-14 15:10:12.08	2.17	60.68	-36.0	-36.8	24.5	0.00e+00	0	28	0	670040064	44	6271
2026-01-14 15:10:13.09	1.80	61.07	-36.3	-37.2	24.4	0.00e+00	14	28	0	672137216	44	6553
2026-01-14 15:10:14.09	1.41	61.45	-36.9	-37.8	24.0	0.00e+00	0	28	0	674234368	46	6268
2026-01-14 15:10:15.10	1.01	61.83	-36.5	-37.4	24.2	0.00e+00	92	28	0	676331520	46	6000
2026-01-14 15:10:16.11	0.60	62.22	-36.1	-36.9	24.7	0.00e+00	0	28	0	678428672	46	5641
2026-01-14 15:10:17.12	0.17	62.60	-37.1	-38.0	23.7	0.00e+00	0	28	0	679477248	46	6440
2026-01-14 15:10:18.13	359.73	62.99	-37.6	-38.5	23.3	0.00e+00	0	28	0	681574400	46	6826
2026-01-14 15:10:19.14	359.27	63.38	-37.5	-38.4	23.4	0.00e+00	0	28	0	683671552	48	6016
2026-01-14 15:10:20.15	358.80	63.77	-37.1	-38.0	23.6	0.00e+00	17	28	0	685768704	48	5730
2026-01-14 15:10:21.16	358.31	64.16	-37.6	-38.5	23.3	0.00e+00	0	28	0	687865856	48	6081
2026-01-14 15:10:22.17	357.81	64.54	-37.2	-38.1	23.7	0.00e+00	92	28	0	688914432	48	5816
2026-01-14 15:10:23.18	357.29	64.93	-35.9	-36.7	24.7	0.00e+00	0	28	0	691011584	46	5531
2026-01-14 15:10:24.19	356.75	65.32	-35.8	-36.5	24.7	0.00e+00	92	28	0	693108736	44	6081
2026-01-14 15:10:25.20	356.19	65.71	-36.0	-36.8	24.3	0.00e+00	0	28	0	695205888	44	6308
2026-01-14 15:10:26.21	355.61	66.10	-36.8	-37.6	23.8	0.00e+00	0	28	0	697303040	46	6165
2026-01-14 15:10:27.22	355.01	66.49	-37.3	-38.2	23.6	0.00e+00	27	28	0	699400192	46	6559
2026-01-14 15:10:28.22	354.39	66.88	-37.5	-38.5	23.3	0.00e+00	0	28	0	700448768	46	6783
2026-01-14 15:10:29.23	353.74	67.26	-38.0	-39.0	22.9	0.00e+00	43	28	0	702545920	48	6424
2026-01-14 15:10:30.24	353.07	67.65	-38.4	-39.4	22.5	0.00e+00	0	28	0	704643072	48	6737
2026-01-14 15:10:31.25	352.37	68.03	-38.4	-39.5	22.5	0.00e+00	91	28	0	706740224	48	6770
2026-01-14 15:10:32.26	351.65	68.42	-38.4	-39.4	22.6	0.00e+00	0	28	0	708837376	48	6752
2026-01-14 15:10:33.27	350.89	68.80	-38.8	-39.9	22.3	0.00e+00	0	28	0	709885952	48	7095
2026-01-14 15:10:34.28	350.11	69.18	-39.1	-40.2	21.6	0.00e+00	0	28	0	711983104	50	6574
2026-01-14 15:10:35.29	349.29	69.56	-40.2	-41.5	20.6	0.00e+00	0	28	0	714080256	52	6830
2026-01-14 15:10:36.30	348.44	69.93	-39.8	-41.0	21.3	0.00e+00	40	28	0	716177408	52	6451
2026-01-14 15:10:37.31	347.56	70.31	-38.6	-39.6	22.5	0.00e+00	0	28	0	717225984	52	5450
2026-01-14 15:10:38.32	346.64	70.67	-38.2	-39.2	23.0	0.00e+00	90	28	0	719323136	50	5846
2026-01-14 15:10:39.32	345.70	71.04	-37.9	-38.9	23.1	0.00e+00	0	28	0	721420288	48	6331
2026-01-14 15:10:40.34	344.69	71.40	-37.4	-38.3	23.6	0.00e+00	0	28	0	723517440	48	5922
2026-01-14 15:10:41.35	343.65	71.76	-37.2	-38.0	23.7	0.00e+00	0	28	0	725614592	48	5733
2026-01-14 15:10:42.35	342.58	72.11	-38.0	-39.0	22.9	0.00e+00	0	28	0	727711744	48	6424
2026-01-14 15:10:43.37	341.44	72.46	-39.6	-40.8	21.4	0.00e+00	40	28	0	728760320	50	7014
2026-01-14 15:10:44.37	340.27	72.80	-40.3	-41.6	20.8	0.00e+00	0	28	0	730857472	52	6865
2026-01-14 15:10:45.39	339.03	73.14	-40.4	-41.7	21.1	0.00e+00	92	28	0	732954624	52	6999
2026-01-14 15:10:46.40	337.75	73.47	-39.9	-41.1	21.4	0.00e+00	0	28	0	735051776	52	6487
2026-01-14 15:10:47.41	336.42	73.79	-37.7	-38.6	23.5	0.00e+00	0	28	0	737148928	48	6145
2026-01-14 15:10:48.42	335.03	74.10	-36.1	-36.9	24.4	0.00e+00	0	28	0	738197504	46	5662
2026-01-14 15:10:49.43	333.59	74.41	-37.2	-38.1	23.6	0.00e+00	0	28	0	740294656	46	6481
2026-01-14 15:10:50.44	332.08	74.70	-38.9	-40.0	22.1	0.00e+00	44	28	0	742391808	48	7200
2026-01-14 15:10:51.44	330.53	74.98	-38.7	-39.7	22.4	0.00e+00	0	28	0	744488960	50	6223
2026-01-14 15:10:52.45	328.90	75.26	-39.0	-40.1	22.0	0.00e+00	92	28	0	746586112	50	6485
2026-01-14 15:10:53.46	327.21	75.52	-39.0	-40.1	22.1	0.00e+00	0	28	0	747634688	50	6531
2026-01-14 15:10:54.47	325.45	75.78	-38.7	-39.8	22.3	0.00e+00	21	28	0	749731840	50	6287
2026-01-14 15:10:55.48	323.64	76.01	-38.7	-39.8	22.4	0.00e+00	0	28	0	751828992	50	6259
2026-01-14 15:10:56.49	321.75	76.24	-38.2	-39.2	22.8	0.00e+00	0	28	0	753926144	50	5895
2026-01-14 15:10:57.50	319.81	76.45	-37.8	-38.8	23.1	0.00e+00	38	28	0	756023296	50	5583
2026-01-14 15:10:58.51	317.80	76.64	-38.3	-39.3	22.6	0.00e+00	0	28	0	757071872	48	6652
2026-01-14 15:10:59.52	315.74	76.82	-38.9	-40.0	22.1	0.00e+00	92	28	0	759169024	50	6407
2026-01-14 15:11:00.53	313.62	76.98	-38.7	-39.7	22.2	0.00e+00	0	28	0	761266176	50	6207
2026-01-14 15:11:01.54	311.44	77.13	-39.4	-40.6	21.5	0.00e+00	90	28	0	763363328	50	6869
2026-01-14 15:11:02.55	309.22	77.25	-40.3	-41.6	20.5	0.00e+00	0	28	0	765460480	52	6902
2026-01-14 15:11:03.55	306.98	77.36	-40.2	-41.4	20.7	0.00e+00	0	28	0	766509056	52	6707
2026-01-14 15:11:04.56	304.68	77.45	-40.3	-41.5	20.9	0.00e+00	0	28	0	768606208	54	6078
2026-01-14 15:11:05.57	302.36	77.52	-38.4	-39.3	22.6	0.00e+00	0	28	0	770703360	50	5952
2026-01-14 15:11:06.58	300.01	77.56	-36.7	-37.5	24.0	0.00e+00	53	28	0	772800512	48	5428
2026-01-14 15:11:07.59	297.64	77.59	-38.5	-39.5	22.5	0.00e+00	0	28	0	774897664	48	6777
2026-01-14 15:11:08.60	295.27	77.60	-38.9	-39.9	22.1	0.00e+00	91	28	0	775946240	50	6387
2026-01-14 15:11:09.61	292.90	77.58	-38.1	-39.0	22.6	0.00e+00	0	28	0	778043392	50	5733
2026-01-14 15:11:10.62	290.54	77.54	-41.0	-42.5	19.9	0.00e+00	0	28	0	780140544	52	7648
2026-01-14 15:11:11.63	288.20	77.49	-39.8	-41.1	21.0	0.00e+00	0	28	0	782237696	54	5790
2026-01-14 15:11:12.64	285.88	77.41	-38.1	-39.0	22.9	0.00e+00	0	28	0	784334848	50	5756
2026-01-14 15:11:13.65	283.60	77.32	-38.5	-39.5	22.5	0.00e+00	39	28	0	785383424	50	6057
2026-01-14 15:11:14.66	281.35	77.20	-38.6	-39.7	22.1	0.00e+00	0	28	0	787480576	50	6209
2026-01-14 15:11:15.67	279.15	77.07	-38.1	-39.1	22.5	0.00e+00	92	28	0	789577728	50	5813
2026-01-14 15:11:16.68	277.00	76.92	-40.2	-41.6	20.7	0.00e+00	0	28	0	791674880	50	7698
2026-01-14 15:11:17.69	274.90	76.75	-40.5	-41.8	20.8	0.00e+00	0	28	0	793772032	52	7042
2026-01-14 15:11:18.70	272.86	76.56	-39.4	-40.5	21.8	0.00e+00	0	28	0	795869184	52	6099
2026-01-14 15:11:19.70	270.90	76.36	-39.1	-40.2	22.1	0.00e+00	0	28	0	796917760	52	5843
2026-01-14 15:11:20.72	268.96	76.14	-37.0	-37.8	23.9	0.00e+00	38	28	0	799014912	48	5595
2026-01-14 15:11:21.72	267.13	75.91	-37.2	-38.1	23.6	0.00e+00	0	28	0	801112064	46	6484
2026-01-14 15:11:22.73	265.33	75.67	-39.6	-40.8	21.3	0.00e+00	76	28	0	803209216	50	7074
2026-01-14 15:11:23.74	263.60	75.41	-39.8	-41.0	21.3	0.00e+00	0	28	0	805306368	52	6424
2026-01-14 15:11:24.75	261.94	75.14	-40.1	-41.3	20.8	0.00e+00	7	28	0	806354944	52	6643
2026-01-14 15:11:25.76	260.34	74.86	-41.9	-43.5	18.8	0.00e+00	0	28	0	808452096	56	6819
2026-01-14 15:11:26.77	258.80	74.57	-40.2	-41.4	21.1	0.00e+00	0	28	0	810549248	54	6018
2026-01-14 15:11:27.79	257.30	74.27	-38.9	-39.9	22.1	0.00e+00	42	28	0	812646400	52	5678
2026-01-14 15:11:28.79	255.89	73.96	-40.2	-41.5	20.6	0.00e+00	0	28	0	814743552	52	6813
2026-01-14 15:11:29.80	254.53	73.65	-41.7	-43.3	19.3	0.00e+00	92	28	0	815792128	54	7442
2026-01-14 15:11:30.81	253.22	73.32	-40.6	-41.9	20.4	0.00e+00	0	28	0	817889280	54	6383
2026-01-14 15:11:31.82	251.96	72.99	-40.4	-41.6	21.0	0.00e+00	29	28	0	819986432	54	6157
2026-01-14 15:11:32.83	250.76	72.65	-39.8	-41.0	21.4	0.00e+00	0	28	0	822083584	54	5708
2026-01-14 15:11:33.84	249.60	72.30	-40.2	-41.4	20.8	0.00e+00	0	28	0	824180736	52	6698
2026-01-14 15:11:34.85	248.49	71.95	-41.3	-42.8	19.6	0.00e+00	40	28	0	825229312	54	7053
2026-01-14 15:11:35.85	247.44	71.60	-41.0	-42.4	20.2	0.00e+00	0	28	0	827326464	54	6738
2026-01-14 15:11:36.87	246.40	71.24	-41.5	-43.1	19.4	0.00e+00	92	28	0	829423616	54	7263
2026-01-14 15:11:37.88	245.42	70.88	-40.2	-41.4	20.9	0.00e+00	0	28	0	831520768	54	6003
2026-01-14 15:11:38.89	244.48	70.51	-40.8	-42.2	20.3	0.00e+00	92	28	0	833617920	54	6592
2026-01-14 15:11:39.89	243.59	70.14	-42.6	-44.5	18.0	0.00e+00	0	28	0	834666496	56	7648
2026-01-14 15:11:40.90	242.72	69.77	-40.9	-42.2	20.4	0.00e+00	0	28	0	836763648	56	5863
2026-01-14 15:11:41.91	241.89	69.39	-39.9	-41.0	21.3	0.00e+00	17	28	0	838860800	54	5723
2026-01-14 15:11:42.92	241.08	69.01	-40.3	-41.5	20.8	0.00e+00	0	28	0	840957952	54	6086
2026-01-14 15:11:43.93	240.31	68.63	-40.2	-41.4	21.1	0.00e+00	92	28	0	843055104	54	5967
2026-01-14 15:11:44.94	239.57	68.24	-39.7	-40.8	21.3	0.00e+00	0	28	0	844103680	52	6312
2026-01-14 15:11:45.95	238.86	67.86	-39.9	-41.1	21.1	0.00e+00	41	28	0	846200832	52	6474
2026-01-14 15:11:46.96	238.17	67.47	-39.6	-40.8	21.8	0.00e+00	0	28	0	848297984	52	6255
2026-01-14 15:11:47.97	237.51	67.09	-39.6	-40.7	21.6	0.00e+00	0	28	0	850395136	52	6205
2026-01-14 15:11:48.98	236.87	66.70	-40.2	-41.4	20.5	0.00e+00	0	28	0	852492288	52	6769
2026-01-14 15:11:49.99	236.26	66.31	-39.6	-40.8	21.6	0.00e+00	0	28	0	853540864	52	6249
2026-01-14 15:11:51.00	235.66	65.92	-37.7	-38.7	23.0	0.00e+00	31	28	0	855638016	50	5504
2026-01-14 15:11:52.00	235.10	65.53	-37.6	-38.4	23.1	0.00e+00	0	28	0	857735168	48	6033
2026-01-14 15:11:53.01	234.55	65.14	-37.3	-38.2	23.5	0.00e+00	61	28	0	859832320	48	5885
2026-01-14 15:11:54.02	234.01	64.75	-35.7	-36.5	24.8	0.00e+00	0	28	0	861929472	46	5409
2026-01-14 15:11:55.03	233.50	64.36	-34.6	-35.3	25.6	0.00e+00	0	28	0	864026624	42	5936
2026-01-14 15:11:56.04	233.00	63.97	-34.4	-35.1	25.8	0.00e+00	0	28	0	865075200	42	5787
2026-01-14 15:11:57.05	232.52	63.58	-34.7	-35.4	25.3	0.00e+00	0	28	0	867172352	42	6007
2026-01-14 15:11:58.06	232.05	63.19	-36.7	-37.5	24.0	0.00e+00	31	28	0	869269504	44	6819
2026-01-14 15:11:59.07	231.60	62.80	-36.4	-37.2	24.4	0.00e+00	0	28	0	871366656	46	5885
2026-01-14 15:12:00.07	231.17	62.42	-36.4	-37.2	24.3	0.00e+00	91	28	0	873463808	46	5833
2026-01-14 15:12:01.09	230.75	62.03	-37.4	-38.4	23.4	0.00e+00	0	28	0	874512384	46	6702
2026-01-14 15:12:02.10	230.34	61.64	-38.7	-39.8	22.2	0.00e+00	0	28	0	876609536	48	7042
2026-01-14 15:12:03.11	229.94	61.26	-39.3	-40.4	21.7	0.00e+00	0	28	0	878706688	50	6768
2026-01-14 15:12:04.12	229.56	60.87	-40.1	-41.4	21.1	0.00e+00	0	28	0	880803840	52	6703
2026-01-14 15:12:05.13	229.19	60.49	-41.1	-42.6	20.1	0.00e+00	15	28	0	882900992	54	6870
2026-01-14 15:12:06.14	228.83	60.11	-40.5	-41.7	20.5	0.00e+00	0	28	0	883949568	54	6230
2026-01-14 15:12:07.15	228.48	59.73	-41.9	-43.7	18.7	0.00e+00	92	28	0	886046720	54	7787
2026-01-14 15:12:08.15	228.14	59.35	-43.5	-45.8	16.9	0.00e+00	0	28	0	888143872	58	7938
2026-01-14 15:12:09.16	227.81	58.98	-41.1	-42.5	20.5	0.00e+00	91	28	0	890241024	56	6081
2026-01-14 15:12:10.17	227.49	58.60	-39.0	-40.0	22.2	0.00e+00	0	28	0	892338176	52	5723
2026-01-14 15:12:11.18	227.17	58.22	-38.6	-39.6	22.3	0.00e+00	0	28	0	893386752	50	6130
2026-01-14 15:12:12.19	226.87	57.85	-37.9	-38.8	22.9	0.00e+00	0	28	0	895483904	50	5581
2026-01-14 15:12:13.20	226.58	57.48	-38.0	-38.9	23.1	0.00e+00	0	28	0	897581056	50	5679
2026-01-14 15:12:14.21	226.29	57.11	-38.2	-39.1	22.8	0.00e+00	92	28	0	899678208	48	6528
2026-01-14 15:12:15.22	226.01	56.74	-38.4	-39.4	22.8	0.00e+00	0	28	0	901775360	48	6696
2026-01-14 15:12:16.23	225.74	56.38	-37.9	-38.8	23.1	0.00e+00	90	28	0	902823936	48	6308
2026-01-14 15:12:17.23	225.48	56.01	-37.8	-38.7	23.2	0.00e+00	33	28	0	904921088	48	6203
2026-01-14 15:12:18.24	225.22	55.65	-38.0	-39.0	22.7	0.00e+00	0	28	0	907018240	48	6453
2026-01-14 15:12:19.25	224.97	55.29	-38.2	-39.2	22.8	0.00e+00	0	28	0	909115392	48	6562
2026-01-14 15:12:20.26	224.72	54.93	-37.7	-38.6	23.4	0.00e+00	0	28	0	911212544	48	6159
2026-01-14 15:12:21.27	224.48	54.57	-37.6	-38.6	23.3	0.00e+00	66	28	0	912261120	48	6108
2026-01-14 15:12:22.28	224.25	54.22	-38.3	-39.3	22.7	0.00e+00	33	28	0	914358272	48	6665
2026-01-14 15:12:23.29	224.02	53.87	-38.6	-39.7	22.3	0.00e+00	92	28	0	916455424	48	6994
2026-01-14 15:12:24.30	223.80	53.52	-38.4	-39.4	22.5	0.00e+00	0	28	0	918552576	50	6031
2026-01-14 15:12:25.31	223.59	53.17	-37.4	-38.4	23.4	0.00e+00	0	28	0	920649728	48	5974
2026-01-14 15:12:26.32	223.38	52.82	-37.7	-38.7	23.4	0.00e+00	0	28	0	921698304	48	6204
2026-01-14 15:12:27.33	223.17	52.47	-38.6	-39.7	22.5	0.00e+00	0	28	0	923795456	48	6966
2026-01-14 15:12:28.33	222.97	52.13	-38.4	-39.4	22.7	0.00e+00	42	28	0	925892608	50	6019
2026-01-14 15:12:29.34	222.78	51.79	-38.8	-39.9	22.3	0.00e+00	0	28	0	927989760	50	6342
2026-01-14 15:12:30.36	222.58	51.45	-39.5	-40.6	21.5	0.00e+00	91	28	0	930086912	50	6915
2026-01-14 15:12:31.36	222.40	51.12	-40.4	-41.8	20.7	0.00e+00	0	28	0	932184064	52	7033
2026-01-14 15:12:32.37	222.21	50.78	-40.4	-41.7	20.7	0.00e+00	0	28	0	933232640	54	6235
2026-01-14 15:12:33.38	222.03	50.45	-40.2	-41.4	21.0	0.00e+00	0	28	0	935329792	54	6017
2026-01-14 15:12:34.39	221.86	50.12	-39.5	-40.7	21.9	0.00e+00	0	28	0	937426944	52	6191
2026-01-14 15:12:35.40	221.69	49.79	-38.7	-39.8	22.3	0.00e+00	38	28	0	939524096	52	5575
2026-01-14 15:12:36.41	221.52	49.46	-38.9	-40.0	22.2	0.00e+00	0	28	0	940572672	50	6398
2026-01-14 15:12:37.42	221.36	49.14	-39.3	-40.5	21.7	0.00e+00	90	28	0	942669824	50	6791
2026-01-14 15:12:38.42	221.20	48.82	-39.3	-40.4	22.1	0.00e+00	0	28	0	944766976	50	6704
2026-01-14 15:12:39.44	221.04	48.49	-38.8	-39.8	22.3	0.00e+00	8	28	0	946864128	50	6277
2026-01-14 15:12:40.44	220.88	48.18	-38.6	-39.6	22.5	0.00e+00	0	28	0	948961280	50	6140
2026-01-14 15:12:41.45	220.73	47.86	-39.1	-40.1	21.9	0.00e+00	0	28	0	950009856	50	6524
2026-01-14 15:12:42.46	220.59	47.55	-38.9	-39.9	22.1	0.00e+00	0	28	0	952107008	50	6324
2026-01-14 15:12:43.47	220.44	47.24	-39.4	-40.4	21.8	0.00e+00	0	28	0	954204160	50	6756
2026-01-14 15:12:44.48	220.30	46.93	-39.5	-40.6	21.7	0.00e+00	90	28	0	956301312	50	6863
2026-01-14 15:12:45.49	220.16	46.62	-39.5	-40.7	21.6	0.00e+00	0	28	0	958398464	50	6947
2026-01-14 15:12:46.50	220.03	46.31	-39.9	-41.1	21.3	0.00e+00	91	28	0	960495616	52	6484
2026-01-14 15:12:47.51	219.89	46.01	-41.3	-42.8	20.1	0.00e+00	0	28	0	961544192	54	7026
2026-01-14 15:12:48.52	219.76	45.71	-40.3	-41.5	20.7	0.00e+00	0	28	0	963641344	54	6097
2026-01-14 15:12:49.53	219.63	45.41	-39.4	-40.5	21.9	0.00e+00	0	28	0	965738496	52	6077
2026-01-14 15:12:50.54	219.51	45.11	-38.0	-38.9	23.1	0.00e+00	0	28	0	967835648	50	5691
2026-01-14 15:12:51.55	219.38	44.81	-37.7	-38.6	23.1	0.00e+00	33	28	0	969932800	48	6144
2026-01-14 15:12:52.56	219.26	44.52	-38.8	-39.9	22.2	0.00e+00	0	28	0	970981376	48	7101
2026-01-14 15:12:53.57	219.14	44.23	-39.6	-40.8	21.4	0.00e+00	92	28	0	973078528	50	7059
2026-01-14 15:12:54.58	219.03	43.94	-40.3	-41.5	20.6	0.00e+00	0	28	0	975175680	52	6821
2026-01-14 15:12:55.59	218.91	43.65	-40.0	-41.2	21.2	0.00e+00	0	28	0	977272832	52	6567
2026-01-14 15:12:56.60	218.80	43.37	-39.8	-40.9	21.4	0.00e+00	0	28	0	979369984	52	6390
2026-01-14 15:12:57.61	218.69	43.08	-39.9	-41.0	21.2	0.00e+00	0	28	0	980418560	52	6442
2026-01-14 15:12:58.62	218.58	42.80	-40.4	-41.6	20.8	0.00e+00	92	28	0	982515712	52	6902
2026-01-14 15:12:59.63	218.47	42.52	-39.5	-40.6	21.7	0.00e+00	0	28	0	984612864	52	6168
2026-01-14 15:13:00.63	218.37	42.25	-38.8	-39.8	22.3	0.00e+00	83	28	0	986710016	52	5612
2026-01-14 15:13:01.64	218.27	41.97	-38.3	-39.3	22.7	0.00e+00	0	28	0	988807168	48	6639
2026-01-14 15:13:02.65	218.17	41.70	-39.8	-41.1	21.2	0.00e+00	0	28	0	989855744	50	7283
2026-01-14 15:13:03.66	218.07	41.43	-40.9	-42.4	20.3	0.00e+00	0	28	0	991952896	54	6738
2026-01-14 15:13:04.67	217.97	41.16	-42.4	-44.2	18.0	0.00e+00	0	28	0	994050048	56	7395
2026-01-14 15:13:05.68	217.87	40.89	-41.8	-43.4	19.4	0.00e+00	36	28	0	996147200	58	5965
2026-01-14 15:13:06.69	217.78	40.62	-40.8	-42.1	20.4	0.00e+00	0	28	0	998244352	54	6539
2026-01-14 15:13:07.70	217.69	40.36	-39.5	-40.6	21.9	0.00e+00	92	28	0	999292928	52	6117
2026-01-14 15:13:08.71	217.60	40.10	-38.3	-39.3	22.7	0.00e+00	0	28	0	1001390080	50	5946
2026-01-14 15:13:09.72	217.51	39.84	-38.4	-39.4	22.7	0.00e+00	0	28	0	1003487232	50	5988
2026-01-14 15:13:10.73	217.42	39.58	-38.8	-39.8	22.4	0.00e+00	0	28	0	1005584384	50	6284
2026-01-14 15:13:11.74	217.33	39.32	-38.9	-39.9	22.4	0.00e+00	0	28	0	1007681536	50	6380
2026-01-14 15:13:12.75	217.25	39.07	-39.0	-40.1	22.1	0.00e+00	22	28	0	1008730112	50	6511
2026-01-14 15:13:13.76	217.16	38.81	-39.6	-40.8	21.5	0.00e+00	0	28	0	1010827264	50	7081
2026-01-14 15:13:14.77	217.08	38.56	-39.1	-40.2	22.0	0.00e+00	91	28	0	1012924416	50	6613
2026-01-14 15:13:15.78	217.00	38.31	-39.4	-40.6	21.7	0.00e+00	0	28	0	1015021568	50	6865
2026-01-14 15:13:16.79	216.92	38.06	-39.4	-40.5	21.8	0.00e+00	90	28	0	1017118720	50	6800
2026-01-14 15:13:17.79	216.84	37.82	-39.5	-40.6	21.8	0.00e+00	0	28	0	1018167296	50	6882
2026-01-14 15:13:18.80	216.76	37.57	-39.3	-40.4	21.9	0.00e+00	0	28	0	1020264448	50	6752
2026-01-14 15:13:19.81	216.69	37.33	-39.8	-41.0	21.3	0.00e+00	28	28	0	1022361600	50	7187
2026-01-14 15:13:20.82	216.61	37.09	-39.3	-40.4	22.0	0.00e+00	0	28	0	1024458752	52	5977
2026-01-14 15:13:21.83	216.54	36.85	-38.8	-39.8	22.2	0.00e+00	35	28	0	1026555904	52	5625
2026-01-14 15:13:22.84	216.46	36.61	-39.0	-40.0	22.2	0.00e+00	0	28	0	1028653056	52	5738
2026-01-14 15:13:23.85	216.39	36.38	-38.7	-39.7	22.5	0.00e+00	90	28	0	1029701632	50	6195
2026-01-14 15:13:24.86	216.32	36.14	-39.2	-40.2	22.2	0.00e+00	0	28	0	1031798784	50	6588
2026-01-14 15:13:25.87	216.25	35.91	-39.4	-40.5	21.8	0.00e+00	0	28	0	1033895936	50	6787
2026-01-14 15:13:26.88	216.18	35.68	-40.4	-41.6	20.8	0.00e+00	17	28	0	1035993088	52	6906
2026-01-14 15:13:27.89	216.12	35.45	-40.8	-42.2	20.3	0.00e+00	0	28	0	1038090240	52	7379
2026-01-14 15:13:28.89	216.05	35.23	-40.8	-42.1	20.3	0.00e+00	36	28	0	1039138816	54	6528
2026-01-14 15:13:29.90	215.98	35.00	-40.7	-42.1	20.2	0.00e+00	0	28	0	1041235968	54	6488
2026-01-14 15:13:30.91	215.92	34.77	-40.7	-42.0	20.4	0.00e+00	92	28	0	1043333120	54	6451
2026-01-14 15:13:31.92	215.86	34.55	-40.1	-41.3	21.1	0.00e+00	0	28	0	1045430272	54	5934
2026-01-14 15:13:32.93	215.79	34.33	-39.7	-40.8	21.3	0.00e+00	0	28	0	1047527424	54	5625
2026-01-14 15:13:33.94	215.73	34.11	-39.5	-40.6	21.7	0.00e+00	0	28	0	1048576000	52	6157
2026-01-14 15:13:34.95	215.67	33.89	-39.6	-40.7	21.6	0.00e+00	0	28	0	1050673152	52	6231
2026-01-14 15:13:35.96	215.61	33.67	-39.0	-40.0	22.1	0.00e+00	35	28	0	1052770304	52	5737
2026-01-14 15:13:36.97	215.55	33.46	-38.9	-39.9	22.2	0.00e+00	0	28	0	1054867456	52	5688
2026-01-14 15:13:37.98	215.49	33.24	-39.0	-40.0	22.2	0.00e+00	59	28	0	1056964608	52	5758
2026-01-14 15:13:38.99	215.43	33.03	-39.1	-40.2	22.0	0.00e+00	0	28	0	1058013184	50	6558
2026-01-14 15:13:40.00	215.38	32.82	-39.1	-40.1	22.1	0.00e+00	0	28	0	1060110336	50	6490
2026-01-14 15:13:41.01	215.32	32.61	-39.2	-40.2	22.1	0.00e+00	0	28	0	1062207488	50	6608
2026-01-14 15:13:42.01	215.26	32.40	-40.0	-41.2	21.2	0.00e+00	0	28	0	1064304640	52	6541
2026-01-14 15:13:43.02	215.21	32.20	-40.4	-41.6	20.8	0.00e+00	37	28	0	1066401792	52	6881
2026-01-14 15:13:44.03	215.16	31.99	-41.0	-42.3	20.5	0.00e+00	0	28	0	1067450368	54	6668
2026-01-14 15:13:45.04	215.10	31.79	-41.4	-42.8	19.7	0.00e+00	92	28	0	1069547520	54	7011
2026-01-14 15:13:46.05	215.05	31.58	-41.6	-43.0	19.2	0.00e+00	0	28	0	1071644672	54	7244
2026-01-14 15:13:47.06	215.00	31.38	-41.7	-43.2	19.4	0.00e+00	27	28	0	1073741824	56	6568
2026-01-14 15:13:48.07	214.95	31.18	-41.0	-42.3	20.3	0.00e+00	0	28	0	1075838976	56	5923
2026-01-14 15:13:49.08	214.90	30.98	-40.4	-41.6	20.9	0.00e+00	0	28	0	1076887552	54	6109
2026-01-14 15:13:50.09	214.85	30.79	-39.8	-41.0	21.4	0.00e+00	12	28	0	1078984704	54	5698
2026-01-14 15:13:51.10	214.80	30.59	-39.7	-40.8	21.6	0.00e+00	0	28	0	1081081856	52	6295
2026-01-14 15:13:52.11	214.75	30.39	-39.5	-40.6	21.7	0.00e+00	92	28	0	1083179008	52	6131
2026-01-14 15:13:53.11	214.70	30.20	-39.3	-40.3	21.9	0.00e+00	0	28	0	1085276160	52	5935
2026-01-14 15:13:54.12	214.65	30.01	-39.1	-40.2	22.0	0.00e+00	75	28	0	1086324736	52	5836
2026-01-14 15:13:55.13	214.61	29.82	-39.0	-40.0	22.1	0.00e+00	0	28	0	1088421888	52	5708
2026-01-14 15:13:56.14	214.56	29.63	-39.0	-40.0	22.1	0.00e+00	0	28	0	1090519040	52	5728
2026-01-14 15:13:57.15	214.51	29.44	-39.1	-40.1	22.1	0.00e+00	0	28	0	1092616192	52	5794
2026-01-14 15:13:58.15	214.47	29.26	-39.2	-40.2	22.0	0.00e+00	0	28	0	1094713344	52	5888
2026-01-14 15:13:59.16	214.43	29.07	-39.3	-40.4	22.2	0.00e+00	57	28	0	1096810496	52	5990
2026-01-14 15:14:00.17	214.38	28.88	-39.2	-40.3	22.0	0.00e+00	0	28	0	1097859072	52	5915
2026-01-14 15:14:01.18	214.34	28.70	-39.0	-40.1	22.3	0.00e+00	90	28	0	1099956224	52	5766
2026-01-14 15:14:02.19	214.29	28.52	-38.9	-39.9	22.2	0.00e+00	0	28	0	1102053376	52	5683
2026-01-14 15:14:03.20	214.25	28.34	-38.5	-39.4	22.7	0.00e+00	0	28	0	1104150528	50	6020
2026-01-14 15:14:04.21	214.21	28.16	-38.4	-39.3	22.7	0.00e+00	0	28	0	1106247680	50	5959
2026-01-14 15:14:05.22	214.17	27.98	-38.2	-39.2	22.9	0.00e+00	0	28	0	1107296256	50	5868
2026-01-14 15:14:06.23	214.13	27.80	-38.5	-39.5	22.6	0.00e+00	33	28	0	1109393408	50	6067
2026-01-14 15:14:07.23	214.09	27.62	-38.9	-40.0	22.2	0.00e+00	0	28	0	1111490560	50	6395
2026-01-14 15:14:08.24	214.05	27.45	-39.4	-40.5	21.7	0.00e+00	90	28	0	1113587712	50	6837
2026-01-14 15:14:09.25	214.01	27.27	-39.9	-41.1	21.2	0.00e+00	0	28	0	1114636288	52	6495
2026-01-14 15:14:10.26	213.97	27.10	-40.1	-41.3	21.0	0.00e+00	0	28	0	1116733440	52	6667
2026-01-14 15:14:11.27	213.93	26.93	-40.2	-41.4	21.0	0.00e+00	0	28	0	1118830592	52	6735
2026-01-14 15:14:12.28	213.89	26.76	-40.1	-41.3	21.3	0.00e+00	0	28	0	1120927744	52	6617
2026-01-14 15:14:13.29	213.86	26.59	-40.0	-41.2	21.2	0.00e+00	36	28	0	1123024896	52	6543
2026-01-14 15:14:14.30	213.82	26.42	-39.5	-40.6	21.6	0.00e+00	0	28	0	1125122048	52	6153
2026-01-14 15:14:15.31	213.78	26.25	-38.8	-39.8	22.3	0.00e+00	90	28	0	1126170624	52	5616
2026-01-14 15:14:16.32	213.74	26.08	-38.4	-39.4	22.6	0.00e+00	0	28	0	1128267776	50	6023
2026-01-14 15:14:17.33	213.71	25.92	-38.0	-39.0	23.0	0.00e+00	0	28	0	1130364928	50	5704
2026-01-14 15:14:18.34	213.67	25.75	-38.1	-39.1	23.0	0.00e+00	0	28	0	1132462080	50	5772
2026-01-14 15:14:19.35	213.64	25.59	-38.0	-39.0	23.0	0.00e+00	0	28	0	1134559232	48	6398
2026-01-14 15:14:20.36	213.60	25.42	-37.9	-38.9	23.0	0.00e+00	36	28	0	1135607808	48	6319
2026-01-14 15:14:21.36	213.57	25.26	-37.8	-38.7	23.2	0.00e+00	0	28	0	1137704960	48	6212
2026-01-14 15:14:22.37	213.54	25.10	-37.9	-38.8	23.1	0.00e+00	92	28	0	1139802112	48	6313
2026-01-14 15:14:23.38	213.50	24.94	-38.3	-39.2	22.7	0.00e+00	0	28	0	1141899264	48	6605
2026-01-14 15:14:24.39	213.47	24.78	-38.6	-39.6	22.4	0.00e+00	92	28	0	1143996416	48	6896
2026-01-14 15:14:25.40	213.44	24.62	-38.1	-39.1	22.8	0.00e+00	0	28	0	1145044992	48	6494
2026-01-14 15:14:26.40	213.40	24.47	-38.5	-39.4	22.8	0.00e+00	0	28	0	1147142144	48	6758
2026-01-14 15:14:27.41	213.37	24.31	-38.4	-39.4	22.7	0.00e+00	35	28	0	1149239296	48	6699
2026-01-14 15:14:28.42	213.34	24.16	-38.2	-39.1	22.9	0.00e+00	0	28	0	1151336448	48	6533
2026-01-14 15:14:29.43	213.31	24.00	-38.0	-39.0	22.9	0.00e+00	92	28	0	1153433600	48	6400
2026-01-14 15:14:30.44	213.28	23.85	-38.2	-39.1	22.9	0.00e+00	0	28	0	1154482176	48	6504
2026-01-14 15:14:31.45	213.25	23.69	-38.0	-39.0	23.1	0.00e+00	90	28	0	1156579328	48	6401
2026-01-14 15:14:32.46	213.22	23.54	-37.9	-38.8	23.1	0.00e+00	0	28	0	1158676480	48	6303
2026-01-14 15:14:33.46	213.19	23.39	-38.3	-39.2	22.6	0.00e+00	0	28	0	1160773632	48	6610
2026-01-14 15:14:34.47	213.16	23.24	-38.5	-39.5	22.5	0.00e+00	0	28	0	1162870784	48	6806
2026-01-14 15:14:35.48	213.13	23.09	-38.7	-39.8	22.3	0.00e+00	0	28	0	1163919360	48	7024
2026-01-14 15:14:36.49	213.10	22.94	-38.6	-39.7	22.4	0.00e+00	26	28	0	1166016512	50	6184
2026-01-14 15:14:37.50	213.07	22.80	-38.6	-39.6	22.6	0.00e+00	0	28	0	1168113664	50	6136
2026-01-14 15:14:38.51	213.04	22.65	-38.8	-39.9	22.1	0.00e+00	74	28	0	1170210816	50	6339
2026-01-14 15:14:39.51	213.01	22.50	-38.7	-39.8	22.6	0.00e+00	0	28	0	1172307968	50	6251
2026-01-14 15:14:40.52	212.98	22.36	-39.0	-40.1	22.1	0.00e+00	0	28	0	1173356544	50	6485
2026-01-14 15:14:41.53	212.96	22.21	-39.0	-40.0	22.1	0.00e+00	0	28	0	1175453696	50	6464
2026-01-14 15:14:42.54	212.93	22.07	-39.0	-40.1	22.1	0.00e+00	0	28	0	1177550848	50	6471
2026-01-14 15:14:43.55	212.90	21.93	-38.7	-39.8	22.3	0.00e+00	28	28	0	1179648000	50	6266
2026-01-14 15:14:44.56	212.87	21.79	-38.9	-40.0	22.1	0.00e+00	0	28	0	1181745152	50	6410
2026-01-14 15:14:45.57	212.85	21.65	-39.2	-40.4	21.8	0.00e+00	59	28	0	1182793728	50	6694
2026-01-14 15:14:46.58	212.82	21.50	-39.1	-40.2	22.0	0.00e+00	0	28	0	1184890880	50	6609
2026-01-14 15:14:47.59	212.80	21.37	-39.4	-40.6	21.7	0.00e+00	0	28	0	1186988032	50	6887
2026-01-14 15:14:48.60	212.77	21.23	-39.6	-40.8	21.5	0.00e+00	0	28	0	1189085184	52	6291
2026-01-14 15:14:49.61	212.74	21.09	-39.6	-40.8	21.4	0.00e+00	0	28	0	1191182336	52	6275
2026-01-14 15:14:50.62	212.72	20.95	-40.0	-41.2	21.1	0.00e+00	32	28	0	1193279488	52	6586
2026-01-14 15:14:51.63	212.69	20.81	-40.0	-41.2	21.1	0.00e+00	0	28	0	1194328064	52	6560
2026-01-14 15:14:52.64	212.67	20.68	-39.9	-41.1	21.1	0.00e+00	91	28	0	1196425216	52	6512
2026-01-14 15:14:53.65	212.64	20.54	-40.2	-41.5	20.8	0.00e+00	0	28	0	1198522368	52	6784
2026-01-14 15:14:54.66	212.62	20.41	-40.1	-41.3	21.0	0.00e+00	87	28	0	1200619520	52	6673
2026-01-14 15:14:55.67	212.60	20.27	-40.0	-41.2	21.1	0.00e+00	0	28	0	1202716672	52	6607
2026-01-14 15:14:56.68	212.57	20.14	-39.9	-41.1	21.0	0.00e+00	0	28	0	1203765248	52	6531
2026-01-14 15:14:57.69	212.55	20.01	-40.1	-41.4	20.8	0.00e+00	30	28	0	1205862400	52	6702
2026-01-14 15:14:58.70	212.53	19.88	-40.0	-41.2	21.2	0.00e+00	0	28	0	1207959552	52	6571
2026-01-14 15:14:59.71	212.50	19.75	-39.7	-40.8	21.4	0.00e+00	61	28	0	1210056704	52	6304
2026-01-14 15:15:00.72	212.48	19.62	-39.5	-40.7	21.5	0.00e+00	0	28	0	1212153856	52	6187
