passes_logs/2026/01/14/R4.6S_Anadyr/R4.6S_Anadyr__20260114_021638_FENGYUN_3D_rec.log

#Pass ID: 20260114_021638_FENGYUN 3D
#Satellite: FENGYUN 3D
#Configuration: FENGYUN 3D
#almurnet v.1.7.20251203
#Start time: 2026-01-14 02:16:43

#Version: 2.2.20231116
#Station: R4.6S_Anadyr
#Location: 177.4865 lon 64.73178 lat
#TLE: 1 43010U 17072A   26013.59402220  .00000029  00000+0  35477-4 0  9991
#TLE: 2 43010  98.9934 345.3884 0002280 110.7757 249.3663 14.19695359423056

#Time	Az	El	Level	Level2	SNR	BER	BlckErr	Temp	State	Recorded	gain1	gain2
2026-01-14 02:16:43.59	156.64	0.29	-45.1	-46.5	5.7	0.00e+00	0	25	0	0	60	25982
2026-01-14 02:16:44.60	156.64	0.35	-48.5	-60.6	3.6	8.45e-01	0	26	104	0	60	38947
2026-01-14 02:16:45.61	156.65	0.41	-48.6	-60.6	3.6	8.44e-01	0	26	104	0	60	38874
2026-01-14 02:16:46.62	156.65	0.47	-48.5	-60.6	3.6	8.45e-01	0	26	104	0	60	38771
2026-01-14 02:16:47.63	156.66	0.53	-48.5	-60.6	3.6	8.45e-01	0	26	104	0	60	38649
2026-01-14 02:16:48.64	156.66	0.60	-48.3	-60.5	3.6	8.46e-01	0	26	104	0	60	38242
2026-01-14 02:16:49.65	156.66	0.66	-48.2	-60.4	3.6	8.45e-01	0	26	104	0	60	37674
2026-01-14 02:16:50.66	156.67	0.72	-48.1	-60.2	3.6	8.46e-01	0	26	104	0	60	36896
2026-01-14 02:16:51.67	156.67	0.78	-47.9	-60.0	3.6	8.45e-01	0	26	104	0	60	36220
2026-01-14 02:16:52.68	156.68	0.85	-47.4	-59.5	3.6	8.46e-01	0	26	104	0	60	34033
2026-01-14 02:16:53.69	156.68	0.91	-47.0	-59.1	3.6	8.45e-01	0	26	104	0	60	32488
2026-01-14 02:16:54.70	156.69	0.97	-46.6	-58.6	3.6	8.46e-01	0	26	104	0	60	30881
2026-01-14 02:16:55.71	156.69	1.03	-46.5	-58.6	3.6	8.46e-01	0	26	104	0	60	30796
2026-01-14 02:16:56.72	156.70	1.10	-46.5	-58.5	3.6	8.43e-01	0	26	104	0	60	30432
2026-01-14 02:16:57.73	156.70	1.16	-46.5	-58.4	3.6	8.46e-01	0	26	104	0	60	30085
2026-01-14 02:16:58.74	156.71	1.22	-46.5	-58.4	3.6	8.45e-01	0	26	104	0	60	29973
2026-01-14 02:16:59.75	156.71	1.28	-46.5	-58.4	3.6	8.46e-01	0	26	104	0	60	30198
2026-01-14 02:17:00.76	156.72	1.35	-46.5	-58.4	3.6	8.45e-01	0	26	104	0	60	30162
2026-01-14 02:17:01.77	156.72	1.41	-46.5	-58.5	3.6	8.44e-01	0	26	104	0	60	30398
2026-01-14 02:17:02.78	156.73	1.48	-46.5	-58.5	3.6	8.45e-01	0	26	104	0	60	30472
2026-01-14 02:17:03.79	156.73	1.54	-46.5	-58.4	3.6	8.45e-01	0	26	104	0	60	30042
2026-01-14 02:17:04.80	156.74	1.60	-46.4	-58.3	3.6	8.46e-01	0	26	104	0	60	29680
2026-01-14 02:17:05.81	156.74	1.67	-46.4	-58.1	3.6	8.45e-01	0	26	104	0	60	29144
2026-01-14 02:17:06.82	156.75	1.73	-46.4	-58.1	3.6	8.45e-01	0	26	104	0	60	28998
2026-01-14 02:17:07.83	156.75	1.80	-46.4	-58.2	3.6	8.45e-01	0	26	104	0	60	29282
2026-01-14 02:17:08.84	156.76	1.86	-46.4	-58.3	3.6	8.45e-01	0	26	104	0	60	29590
2026-01-14 02:17:09.85	156.76	1.92	-46.4	-58.3	3.6	8.45e-01	0	26	104	0	60	29795
2026-01-14 02:17:10.86	156.77	1.99	-46.4	-58.3	3.6	8.45e-01	0	26	104	0	60	29883
2026-01-14 02:17:11.87	156.77	2.05	-46.4	-58.4	3.6	8.45e-01	0	26	104	0	60	30027
2026-01-14 02:17:12.88	156.78	2.12	-46.4	-58.3	3.6	8.45e-01	0	26	104	0	60	29751
2026-01-14 02:17:13.89	156.78	2.18	-46.4	-58.2	3.6	8.46e-01	0	26	104	0	60	29301
2026-01-14 02:17:14.90	156.79	2.25	-46.4	-58.0	3.6	8.46e-01	0	26	104	0	60	28700
2026-01-14 02:17:15.91	156.79	2.32	-46.4	-57.8	3.6	8.46e-01	0	26	104	0	60	27972
2026-01-14 02:17:16.92	156.80	2.38	-46.4	-57.6	3.6	8.46e-01	0	26	104	0	60	27401
2026-01-14 02:17:17.93	156.80	2.45	-46.4	-57.7	3.6	8.44e-01	0	26	104	0	60	27708
2026-01-14 02:17:18.94	156.81	2.51	-46.4	-57.7	3.6	8.44e-01	0	27	104	0	60	27869
2026-01-14 02:17:19.95	156.81	2.58	-46.4	-57.7	3.6	8.45e-01	0	26	104	0	60	27657
2026-01-14 02:17:20.96	156.82	2.65	-46.4	-57.6	3.6	8.46e-01	0	26	104	0	60	27277
2026-01-14 02:17:21.97	156.82	2.71	-46.4	-57.6	3.6	8.45e-01	0	26	104	0	60	27307
2026-01-14 02:17:22.98	156.83	2.78	-46.4	-57.7	3.6	8.45e-01	0	27	104	0	60	27670
2026-01-14 02:17:23.99	156.83	2.85	-46.4	-58.2	3.6	8.45e-01	0	26	104	0	60	29287
2026-01-14 02:17:25.00	156.84	2.91	-46.4	-58.0	3.6	8.45e-01	0	27	104	0	60	28703
2026-01-14 02:17:26.01	156.84	2.98	-46.2	-55.9	3.6	8.44e-01	0	26	104	0	60	22466
2026-01-14 02:17:27.02	156.85	3.05	-45.7	-52.7	5.2	8.09e-01	0	26	104	0	60	15620
2026-01-14 02:17:28.03	156.85	3.11	-44.9	-49.1	7.6	1.53e-01	0	26	0	4194304	60	10336
2026-01-14 02:17:29.04	156.86	3.18	-43.8	-46.9	10.3	1.84e-02	0	27	0	9437184	60	7971
2026-01-14 02:17:30.05	156.86	3.25	-42.7	-45.1	12.3	1.50e-03	0	26	0	14680064	60	6481
2026-01-14 02:17:31.06	156.87	3.32	-41.9	-43.9	13.5	2.17e-05	0	26	0	20971520	58	6376
2026-01-14 02:17:32.07	156.87	3.39	-41.0	-42.7	14.9	0.00e+00	0	27	0	26214400	56	6188
2026-01-14 02:17:33.08	156.88	3.45	-40.2	-41.7	15.8	0.00e+00	0	27	0	32505856	54	6208
2026-01-14 02:17:34.08	156.88	3.52	-39.8	-41.2	16.4	0.00e+00	0	27	0	37748736	52	6554
2026-01-14 02:17:35.10	156.89	3.59	-39.6	-41.0	16.5	0.00e+00	0	27	0	42991616	52	6401
2026-01-14 02:17:36.10	156.89	3.66	-39.4	-40.8	16.7	0.00e+00	0	26	0	49283072	52	6267
2026-01-14 02:17:37.11	156.90	3.73	-39.6	-41.0	16.4	0.00e+00	0	26	0	54525952	52	6443
2026-01-14 02:17:38.13	156.90	3.80	-40.3	-41.8	15.6	0.00e+00	0	26	0	60817408	52	7054
2026-01-14 02:17:39.14	156.91	3.87	-45.8	-53.7	4.1	8.32e-01	0	26	104	62914560	60	17463
2026-01-14 02:17:40.15	156.91	3.94	-43.9	-46.9	12.4	1.26e-02	0	27	0	65011712	60	7958
2026-01-14 02:17:41.16	156.92	4.01	-46.0	-55.5	3.7	8.43e-01	0	27	104	68157440	60	21586
2026-01-14 02:17:42.17	156.92	4.08	-39.4	-40.7	17.0	0.00e+00	0	26	0	69206016	52	6239
2026-01-14 02:17:43.18	156.93	4.15	-46.3	-57.4	3.6	8.45e-01	0	26	104	72351744	60	26721
2026-01-14 02:17:44.19	156.93	4.22	-39.7	-41.2	15.9	6.25e-01	0	26	104	72351744	54	5829
2026-01-14 02:17:45.20	156.94	4.29	-39.1	-40.3	17.3	0.00e+00	0	27	0	74448896	52	5964
2026-01-14 02:17:46.21	156.94	4.36	-38.9	-40.1	17.6	0.00e+00	0	27	0	80740352	52	5813
2026-01-14 02:17:47.22	156.95	4.43	-38.8	-39.9	18.1	0.00e+00	0	26	0	85983232	52	5692
2026-01-14 02:17:48.23	156.95	4.50	-36.9	-37.9	20.0	0.00e+00	0	27	0	92274688	48	5670
2026-01-14 02:17:49.24	156.96	4.57	-36.1	-37.0	20.9	0.00e+00	0	26	0	97517568	46	5728
2026-01-14 02:17:50.25	156.97	4.64	-35.6	-36.4	21.4	0.00e+00	0	27	0	102760448	44	6023
2026-01-14 02:17:51.26	156.97	4.71	-35.6	-36.5	21.4	0.00e+00	0	27	0	109051904	44	6060
2026-01-14 02:17:52.27	156.98	4.79	-35.4	-36.2	21.7	0.00e+00	0	27	0	114294784	44	5892
2026-01-14 02:17:53.28	156.98	4.86	-35.5	-36.3	21.5	0.00e+00	0	27	0	120586240	44	5947
2026-01-14 02:17:54.29	156.99	4.93	-35.4	-36.3	21.7	0.00e+00	0	26	0	125829120	44	5919
2026-01-14 02:17:55.30	156.99	5.00	-35.4	-36.2	21.8	0.00e+00	0	27	0	132120576	44	5891
2026-01-14 02:17:56.31	157.00	5.07	-35.3	-36.1	21.9	0.00e+00	0	27	0	137363456	44	5808
2026-01-14 02:17:57.32	157.00	5.15	-35.3	-36.1	21.8	0.00e+00	0	27	0	143654912	44	5800
2026-01-14 02:17:58.33	157.01	5.22	-35.3	-36.1	21.9	0.00e+00	0	26	0	148897792	44	5802
2026-01-14 02:17:59.34	157.01	5.29	-35.1	-35.9	22.0	0.00e+00	0	26	0	154140672	44	5659
2026-01-14 02:18:00.35	157.02	5.37	-34.9	-35.7	22.2	0.00e+00	0	27	0	160432128	44	5554
2026-01-14 02:18:01.36	157.02	5.44	-34.9	-35.7	22.3	0.00e+00	0	27	0	165675008	44	5531
2026-01-14 02:18:02.37	157.03	5.51	-34.9	-35.7	22.2	0.00e+00	0	27	0	171966464	44	5505
2026-01-14 02:18:03.38	157.04	5.59	-34.8	-35.6	22.4	0.00e+00	0	26	0	177209344	44	5486
2026-01-14 02:18:04.39	157.04	5.66	-34.9	-35.7	22.3	0.00e+00	0	27	0	182452224	44	5547
2026-01-14 02:18:05.40	157.05	5.74	-34.9	-35.7	22.3	0.00e+00	0	26	0	188743680	44	5519
2026-01-14 02:18:06.41	157.05	5.81	-34.8	-35.6	22.5	0.00e+00	0	26	0	193986560	44	5451
2026-01-14 02:18:07.42	157.06	5.89	-34.9	-35.7	22.3	0.00e+00	0	26	0	200278016	44	5537
2026-01-14 02:18:08.43	157.06	5.96	-35.0	-35.8	22.4	0.00e+00	0	26	0	205520896	44	5578
2026-01-14 02:18:09.44	157.07	6.04	-34.7	-35.4	22.7	0.00e+00	0	26	0	210763776	42	6033
2026-01-14 02:18:10.45	157.07	6.11	-34.6	-35.4	22.7	0.00e+00	0	26	0	217055232	42	6006
2026-01-14 02:18:11.46	157.08	6.19	-34.6	-35.3	22.8	0.00e+00	0	27	0	222298112	42	5964
2026-01-14 02:18:12.47	157.08	6.26	-34.4	-35.1	23.0	0.00e+00	0	27	0	228589568	42	5804
2026-01-14 02:18:13.48	157.09	6.34	-34.4	-35.2	23.0	0.00e+00	0	26	0	233832448	42	5848
2026-01-14 02:18:14.49	157.10	6.41	-34.3	-35.0	23.2	0.00e+00	0	27	0	240123904	42	5741
2026-01-14 02:18:15.50	157.10	6.49	-34.3	-35.0	23.1	0.00e+00	0	27	0	245366784	42	5761
2026-01-14 02:18:16.51	157.11	6.57	-34.1	-34.8	23.3	0.00e+00	0	27	0	251658240	42	5617
2026-01-14 02:18:17.52	157.11	6.64	-34.1	-34.8	23.3	0.00e+00	0	27	0	256901120	42	5623
2026-01-14 02:18:18.53	157.12	6.72	-34.1	-34.8	23.3	0.00e+00	0	27	0	262144000	42	5625
2026-01-14 02:18:19.54	157.12	6.80	-34.2	-34.9	23.2	0.00e+00	0	27	0	268435456	42	5686
2026-01-14 02:18:20.55	157.13	6.88	-34.0	-34.8	23.4	0.00e+00	0	27	0	273678336	42	5585
2026-01-14 02:18:21.56	157.14	6.96	-34.1	-34.8	23.2	0.00e+00	0	27	0	279969792	42	5627
2026-01-14 02:18:22.57	157.14	7.03	-34.2	-34.9	23.3	0.00e+00	0	27	0	285212672	42	5654
2026-01-14 02:18:23.58	157.15	7.11	-34.1	-34.9	23.3	0.00e+00	0	27	0	290455552	42	5652
2026-01-14 02:18:24.59	157.15	7.19	-33.9	-34.7	23.6	0.00e+00	0	27	0	296747008	42	5528
2026-01-14 02:18:25.60	157.16	7.27	-34.0	-34.7	23.5	0.00e+00	0	27	0	301989888	42	5520
2026-01-14 02:18:26.61	157.16	7.35	-33.9	-34.6	23.6	0.00e+00	0	27	0	308281344	42	5483
2026-01-14 02:18:27.63	157.17	7.43	-33.8	-34.6	23.7	0.00e+00	0	27	0	313524224	42	5451
2026-01-14 02:18:28.63	157.18	7.51	-33.9	-34.6	23.6	0.00e+00	0	27	0	318767104	42	5470
2026-01-14 02:18:29.64	157.18	7.59	-33.6	-34.4	23.9	0.00e+00	0	27	0	325058560	40	5968
2026-01-14 02:18:30.65	157.19	7.67	-33.6	-34.3	23.9	0.00e+00	0	27	0	330301440	40	5922
2026-01-14 02:18:31.66	157.19	7.75	-33.7	-34.3	23.8	0.00e+00	0	27	0	336592896	40	5964
2026-01-14 02:18:32.67	157.20	7.83	-33.6	-34.3	23.9	0.00e+00	0	27	0	341835776	40	5930
2026-01-14 02:18:33.69	157.20	7.91	-33.5	-34.2	24.0	0.00e+00	0	27	0	348127232	40	5886
2026-01-14 02:18:34.70	157.21	7.99	-33.5	-34.2	24.0	0.00e+00	0	27	0	353370112	40	5863
2026-01-14 02:18:35.71	157.22	8.07	-33.7	-34.4	23.9	0.00e+00	0	27	0	359661568	40	6007
2026-01-14 02:18:36.72	157.22	8.15	-33.6	-34.3	23.9	0.00e+00	0	27	0	364904448	40	5898
2026-01-14 02:18:37.73	157.23	8.24	-33.7	-34.4	23.9	0.00e+00	0	27	0	370147328	40	5992
2026-01-14 02:18:38.74	157.23	8.32	-33.5	-34.3	24.1	0.00e+00	0	27	0	376438784	40	5900
2026-01-14 02:18:39.75	157.24	8.40	-33.6	-34.3	24.0	0.00e+00	0	27	0	381681664	40	5898
2026-01-14 02:18:40.76	157.25	8.48	-33.5	-34.2	24.0	0.00e+00	0	27	0	387973120	40	5879
2026-01-14 02:18:41.77	157.25	8.57	-33.6	-34.3	24.0	0.00e+00	0	27	0	393216000	40	5948
2026-01-14 02:18:42.78	157.26	8.65	-33.5	-34.2	24.1	0.00e+00	0	27	0	398458880	40	5876
2026-01-14 02:18:43.79	157.26	8.73	-33.4	-34.1	24.2	0.00e+00	0	27	0	404750336	40	5770
2026-01-14 02:18:44.80	157.27	8.82	-33.4	-34.1	24.2	0.00e+00	0	27	0	409993216	40	5795
2026-01-14 02:18:45.81	157.28	8.90	-33.5	-34.2	24.1	0.00e+00	0	27	0	416284672	40	5837
2026-01-14 02:18:46.82	157.28	8.99	-33.3	-34.0	24.3	0.00e+00	0	27	0	421527552	40	5752
2026-01-14 02:18:47.83	157.29	9.07	-33.3	-34.0	24.2	0.00e+00	0	27	0	426770432	40	5758
2026-01-14 02:18:48.84	157.29	9.16	-33.3	-34.0	24.3	0.00e+00	0	27	0	433061888	40	5742
2026-01-14 02:18:49.85	157.30	9.24	-33.4	-34.1	24.2	0.00e+00	0	27	0	438304768	40	5787
2026-01-14 02:18:50.86	157.31	9.33	-33.4	-34.1	24.2	0.00e+00	0	27	0	444596224	40	5809
2026-01-14 02:18:51.87	157.31	9.41	-33.3	-34.0	24.3	0.00e+00	0	27	0	449839104	40	5721
2026-01-14 02:18:52.88	157.32	9.50	-33.4	-34.1	24.3	0.00e+00	0	27	0	456130560	40	5787
2026-01-14 02:18:53.89	157.32	9.59	-33.3	-34.0	24.4	0.00e+00	0	27	0	461373440	40	5751
2026-01-14 02:18:54.90	157.33	9.67	-33.3	-34.0	24.3	0.00e+00	0	27	0	466616320	40	5727
2026-01-14 02:18:55.91	157.34	9.76	-33.4	-34.1	24.3	0.00e+00	0	27	0	472907776	40	5795
2026-01-14 02:18:56.92	157.34	9.85	-33.4	-34.1	24.3	0.00e+00	0	27	0	478150656	40	5787
2026-01-14 02:18:57.93	157.35	9.93	-33.3	-34.0	24.4	0.00e+00	0	27	0	484442112	40	5709
2026-01-14 02:18:58.94	157.36	10.02	-33.3	-34.0	24.3	0.00e+00	0	27	0	489684992	40	5703
2026-01-14 02:18:59.95	157.36	10.11	-33.3	-34.0	24.3	0.00e+00	0	27	0	494927872	40	5756
2026-01-14 02:19:00.96	157.37	10.20	-33.1	-33.8	24.5	0.00e+00	0	27	0	501219328	40	5612
2026-01-14 02:19:01.98	157.37	10.29	-33.2	-33.9	24.4	0.00e+00	0	27	0	506462208	40	5639
2026-01-14 02:19:02.99	157.38	10.38	-33.1	-33.8	24.6	0.00e+00	0	27	0	512753664	40	5576
2026-01-14 02:19:03.99	157.39	10.47	-33.1	-33.8	24.5	0.00e+00	0	27	0	517996544	40	5607
2026-01-14 02:19:05.00	157.39	10.56	-33.0	-33.7	24.7	0.00e+00	0	27	0	523239424	40	5557
2026-01-14 02:19:06.02	157.40	10.65	-33.0	-33.8	24.6	0.00e+00	0	27	0	529530880	40	5575
2026-01-14 02:19:07.03	157.41	10.74	-33.1	-33.8	24.6	0.00e+00	0	27	0	534773760	40	5600
2026-01-14 02:19:08.04	157.41	10.83	-33.2	-33.9	24.6	0.00e+00	0	27	0	541065216	40	5652
2026-01-14 02:19:09.05	157.42	10.92	-33.2	-33.9	24.6	0.00e+00	0	27	0	546308096	40	5643
2026-01-14 02:19:10.06	157.43	11.01	-33.0	-33.7	24.6	0.00e+00	0	27	0	552599552	40	5544
2026-01-14 02:19:11.07	157.43	11.11	-33.0	-33.7	24.7	0.00e+00	0	27	0	557842432	40	5536
2026-01-14 02:19:12.08	157.44	11.20	-33.0	-33.7	24.7	0.00e+00	0	27	0	564133888	40	5523
2026-01-14 02:19:13.09	157.44	11.29	-32.9	-33.6	24.8	0.00e+00	0	27	0	569376768	40	5464
2026-01-14 02:19:14.10	157.45	11.38	-32.9	-33.6	24.8	0.00e+00	0	27	0	574619648	40	5477
2026-01-14 02:19:15.11	157.46	11.48	-33.0	-33.7	24.7	0.00e+00	0	27	0	580911104	40	5519
2026-01-14 02:19:16.12	157.46	11.57	-33.0	-33.6	24.8	0.00e+00	0	27	0	586153984	40	5502
2026-01-14 02:19:17.13	157.47	11.67	-32.8	-33.5	25.0	0.00e+00	0	27	0	592445440	40	5396
2026-01-14 02:19:18.14	157.48	11.76	-32.8	-33.5	25.0	0.00e+00	0	27	0	597688320	40	5410
2026-01-14 02:19:19.15	157.48	11.85	-33.0	-33.7	24.8	0.00e+00	0	27	0	602931200	40	5539
2026-01-14 02:19:20.16	157.49	11.95	-32.8	-33.4	25.0	0.00e+00	0	27	0	609222656	40	5368
2026-01-14 02:19:21.17	157.50	12.05	-32.7	-33.4	25.0	0.00e+00	0	27	0	614465536	38	5984
2026-01-14 02:19:22.18	157.50	12.14	-32.9	-33.5	24.9	0.00e+00	0	27	0	620756992	38	6095
2026-01-14 02:19:23.19	157.51	12.24	-32.8	-33.5	25.0	0.00e+00	0	27	0	625999872	38	6037
2026-01-14 02:19:24.20	157.52	12.33	-32.6	-33.2	25.1	0.00e+00	0	27	0	631242752	38	5894
2026-01-14 02:19:25.21	157.52	12.43	-32.6	-33.2	25.2	0.00e+00	0	27	0	637534208	38	5878
2026-01-14 02:19:26.22	157.53	12.53	-32.6	-33.3	25.2	0.00e+00	0	27	0	642777088	38	5926
2026-01-14 02:19:27.23	157.54	12.63	-32.6	-33.2	25.2	0.00e+00	0	27	0	649068544	38	5893
2026-01-14 02:19:28.24	157.54	12.73	-32.6	-33.3	25.3	0.00e+00	0	27	0	654311424	38	5914
2026-01-14 02:19:29.25	157.55	12.82	-32.4	-33.1	25.3	0.00e+00	0	27	0	660602880	38	5799
2026-01-14 02:19:30.26	157.56	12.92	-32.5	-33.1	25.3	0.00e+00	0	27	0	665845760	38	5786
2026-01-14 02:19:31.27	157.57	13.02	-32.4	-33.1	25.3	0.00e+00	0	27	0	672137216	38	5804
2026-01-14 02:19:32.28	157.57	13.12	-32.4	-33.1	25.4	0.00e+00	0	27	0	677380096	38	5792
2026-01-14 02:19:33.29	157.58	13.22	-32.4	-33.1	25.5	0.00e+00	0	27	0	682622976	38	5768
2026-01-14 02:19:34.30	157.59	13.32	-32.2	-32.8	25.6	0.00e+00	0	27	0	688914432	38	5617
2026-01-14 02:19:35.31	157.59	13.42	-32.1	-32.8	25.7	0.00e+00	0	27	0	694157312	38	5584
2026-01-14 02:19:36.32	157.60	13.53	-32.0	-32.7	25.8	0.00e+00	0	27	0	700448768	38	5505
2026-01-14 02:19:37.33	157.61	13.63	-31.9	-32.6	25.8	0.00e+00	0	27	0	705691648	38	5473
2026-01-14 02:19:38.34	157.61	13.73	-32.1	-32.7	25.6	0.00e+00	0	27	0	710934528	38	5557
2026-01-14 02:19:39.35	157.62	13.83	-31.8	-32.5	25.8	0.00e+00	0	27	0	717225984	38	5409
2026-01-14 02:19:40.36	157.63	13.94	-31.9	-32.5	25.8	0.00e+00	0	27	0	722468864	38	5437
2026-01-14 02:19:41.37	157.64	14.04	-31.8	-32.4	26.0	0.00e+00	0	27	0	728760320	36	5987
2026-01-14 02:19:42.38	157.64	14.14	-31.8	-32.4	25.8	0.00e+00	0	27	0	734003200	36	6007
2026-01-14 02:19:43.39	157.65	14.25	-31.7	-32.4	25.9	0.00e+00	0	27	0	739246080	36	5965
2026-01-14 02:19:44.40	157.66	14.35	-31.7	-32.4	26.0	0.00e+00	0	27	0	745537536	36	5977
2026-01-14 02:19:45.42	157.66	14.46	-31.6	-32.3	26.0	0.00e+00	0	27	0	750780416	36	5904
2026-01-14 02:19:46.43	157.67	14.57	-31.6	-32.2	26.1	0.00e+00	0	27	0	757071872	36	5882
2026-01-14 02:19:47.43	157.68	14.67	-31.5	-32.2	26.2	0.00e+00	0	27	0	762314752	36	5851
2026-01-14 02:19:48.45	157.69	14.78	-31.6	-32.2	26.2	0.00e+00	0	27	0	768606208	36	5865
2026-01-14 02:19:49.46	157.69	14.89	-31.6	-32.3	26.1	0.00e+00	0	27	0	773849088	36	5909
2026-01-14 02:19:50.47	157.70	15.00	-31.6	-32.2	26.2	0.00e+00	0	27	0	780140544	36	5866
2026-01-14 02:19:51.48	157.71	15.10	-31.5	-32.1	26.2	0.00e+00	0	27	0	785383424	36	5825
2026-01-14 02:19:52.49	157.72	15.21	-31.7	-32.3	26.2	0.00e+00	0	27	0	790626304	36	5939
2026-01-14 02:19:53.50	157.72	15.32	-31.5	-32.2	26.0	0.00e+00	0	27	0	796917760	36	5852
2026-01-14 02:19:54.51	157.73	15.43	-31.4	-32.0	26.3	0.00e+00	0	27	0	802160640	36	5756
2026-01-14 02:19:55.52	157.74	15.54	-31.3	-31.9	26.4	0.00e+00	0	27	0	808452096	36	5689
2026-01-14 02:19:56.53	157.75	15.65	-31.3	-32.0	26.3	0.00e+00	0	27	0	813694976	36	5706
2026-01-14 02:19:57.54	157.75	15.77	-31.3	-32.0	26.4	0.00e+00	0	27	0	818937856	36	5703
2026-01-14 02:19:58.55	157.76	15.88	-31.2	-31.9	26.5	0.00e+00	0	27	0	825229312	36	5641
2026-01-14 02:19:59.56	157.77	15.99	-31.3	-31.9	26.4	0.00e+00	0	27	0	830472192	36	5694
2026-01-14 02:20:00.57	157.78	16.10	-31.2	-31.8	26.6	0.00e+00	0	27	0	836763648	36	5618
2026-01-14 02:20:01.58	157.78	16.22	-31.2	-31.9	26.5	0.00e+00	0	27	0	842006528	36	5658
2026-01-14 02:20:02.59	157.79	16.33	-31.1	-31.8	26.6	0.00e+00	0	27	0	847249408	36	5589
2026-01-14 02:20:03.60	157.80	16.44	-31.2	-31.8	26.5	0.00e+00	0	27	0	853540864	36	5613
2026-01-14 02:20:04.61	157.81	16.56	-31.1	-31.7	26.5	0.00e+00	0	27	0	858783744	36	5526
2026-01-14 02:20:05.62	157.82	16.68	-31.2	-31.8	26.6	0.00e+00	0	27	0	865075200	36	5585
2026-01-14 02:20:06.63	157.82	16.79	-31.1	-31.7	26.6	0.00e+00	0	27	0	870318080	36	5562
2026-01-14 02:20:07.64	157.83	16.91	-31.1	-31.7	26.6	0.00e+00	0	27	0	876609536	36	5566
2026-01-14 02:20:08.65	157.84	17.03	-31.1	-31.7	26.6	0.00e+00	0	27	0	881852416	36	5563
2026-01-14 02:20:09.66	157.85	17.14	-31.0	-31.6	26.6	0.00e+00	0	27	0	888143872	36	5500
2026-01-14 02:20:10.67	157.86	17.26	-31.0	-31.6	26.7	0.00e+00	0	27	0	893386752	36	5473
2026-01-14 02:20:11.68	157.86	17.38	-31.0	-31.6	26.7	0.00e+00	0	27	0	898629632	36	5482
2026-01-14 02:20:12.69	157.87	17.50	-30.9	-31.5	26.8	0.00e+00	0	27	0	904921088	36	5439
2026-01-14 02:20:13.70	157.88	17.62	-30.8	-31.5	26.8	0.00e+00	0	27	0	910163968	36	5400
2026-01-14 02:20:14.71	157.89	17.74	-30.9	-31.5	26.8	0.00e+00	0	27	0	916455424	36	5419
2026-01-14 02:20:15.72	157.90	17.86	-30.8	-31.4	27.0	0.00e+00	0	27	0	921698304	36	5340
2026-01-14 02:20:16.73	157.91	17.98	-30.8	-31.5	26.7	0.00e+00	0	27	0	926941184	34	6056
2026-01-14 02:20:17.74	157.91	18.11	-31.0	-31.6	26.8	0.00e+00	0	27	0	933232640	34	6160
2026-01-14 02:20:18.76	157.92	18.23	-30.9	-31.5	26.7	0.00e+00	0	27	0	938475520	34	6087
2026-01-14 02:20:19.76	157.93	18.35	-30.7	-31.3	26.9	0.00e+00	0	27	0	944766976	34	5945
2026-01-14 02:20:20.77	157.94	18.48	-30.7	-31.3	27.0	0.00e+00	0	27	0	950009856	34	5943
2026-01-14 02:20:21.78	157.95	18.60	-30.6	-31.3	27.0	0.00e+00	0	27	0	955252736	34	5924
2026-01-14 02:20:22.79	157.96	18.73	-30.6	-31.2	27.0	0.00e+00	0	27	0	961544192	34	5879
2026-01-14 02:20:23.80	157.96	18.86	-30.6	-31.2	27.0	0.00e+00	0	27	0	966787072	34	5894
2026-01-14 02:20:24.81	157.97	18.98	-30.6	-31.3	27.0	0.00e+00	0	27	0	973078528	34	5917
2026-01-14 02:20:25.82	157.98	19.11	-30.7	-31.4	26.9	0.00e+00	0	27	0	978321408	34	5981
2026-01-14 02:20:26.83	157.99	19.24	-30.8	-31.4	26.9	0.00e+00	0	27	0	984612864	34	6021
2026-01-14 02:20:27.84	158.00	19.37	-30.9	-31.6	26.9	0.00e+00	0	27	0	989855744	34	6128
2026-01-14 02:20:28.85	158.01	19.50	-30.6	-31.2	27.1	0.00e+00	0	27	0	995098624	34	5896
2026-01-14 02:20:29.86	158.02	19.63	-30.6	-31.3	27.1	0.00e+00	0	27	0	1001390080	34	5933
2026-01-14 02:20:30.87	158.03	19.76	-30.7	-31.4	27.0	0.00e+00	0	27	0	1006632960	34	5996
2026-01-14 02:20:31.88	158.03	19.89	-30.9	-31.5	26.9	0.00e+00	0	27	0	1012924416	34	6071
2026-01-14 02:20:32.89	158.04	20.02	-30.5	-31.1	27.2	0.00e+00	0	27	0	1018167296	34	5809
2026-01-14 02:20:33.90	158.05	20.16	-30.4	-31.0	27.3	0.00e+00	0	27	0	1023410176	34	5718
2026-01-14 02:20:34.91	158.06	20.29	-30.4	-31.0	27.3	0.00e+00	0	27	0	1029701632	34	5750
2026-01-14 02:20:35.92	158.07	20.42	-30.3	-30.9	27.4	0.00e+00	0	27	0	1034944512	34	5668
2026-01-14 02:20:36.93	158.08	20.56	-30.3	-30.9	27.3	0.00e+00	0	27	0	1041235968	34	5691
2026-01-14 02:20:37.94	158.09	20.69	-30.4	-31.0	27.2	0.00e+00	0	27	0	1046478848	34	5744
2026-01-14 02:20:38.95	158.10	20.83	-30.3	-30.9	27.3	0.00e+00	0	27	0	1051721728	34	5685
2026-01-14 02:20:39.96	158.11	20.97	-30.3	-30.9	27.4	0.00e+00	0	27	0	1058013184	34	5652
2026-01-14 02:20:40.97	158.12	21.11	-30.3	-30.9	27.3	0.00e+00	0	27	0	1063256064	34	5658
2026-01-14 02:20:41.98	158.13	21.25	-30.3	-30.9	27.4	0.00e+00	0	27	0	1069547520	34	5634
2026-01-14 02:20:42.99	158.14	21.39	-30.4	-31.0	27.3	0.00e+00	0	27	0	1074790400	34	5718
2026-01-14 02:20:44.00	158.15	21.53	-30.2	-30.8	27.4	0.00e+00	0	27	0	1081081856	34	5607
2026-01-14 02:20:45.01	158.16	21.67	-30.3	-31.0	27.4	0.00e+00	0	27	0	1086324736	34	5730
2026-01-14 02:20:46.02	158.17	21.81	-30.3	-30.9	27.5	0.00e+00	0	27	0	1092616192	34	5658
2026-01-14 02:20:47.03	158.17	21.95	-30.3	-31.0	27.4	0.00e+00	0	27	0	1097859072	34	5712
2026-01-14 02:20:48.04	158.18	22.10	-30.2	-30.8	27.5	0.00e+00	0	27	0	1103101952	34	5629
2026-01-14 02:20:49.06	158.19	22.24	-30.2	-30.9	27.4	0.00e+00	0	27	0	1109393408	34	5642
2026-01-14 02:20:50.07	158.20	22.39	-30.3	-30.9	27.4	0.00e+00	0	27	0	1114636288	34	5683
2026-01-14 02:20:51.08	158.21	22.53	-30.2	-30.9	27.4	0.00e+00	0	27	0	1120927744	34	5654
2026-01-14 02:20:52.09	158.22	22.68	-30.2	-30.8	27.5	0.00e+00	0	27	0	1126170624	34	5590
2026-01-14 02:20:53.10	158.23	22.83	-30.1	-30.7	27.5	0.00e+00	0	27	0	1131413504	34	5549
2026-01-14 02:20:54.11	158.24	22.98	-30.1	-30.7	27.5	0.00e+00	0	27	0	1137704960	34	5535
2026-01-14 02:20:55.12	158.25	23.13	-30.1	-30.7	27.6	0.00e+00	0	27	0	1142947840	34	5510
2026-01-14 02:20:56.13	158.27	23.28	-30.1	-30.7	27.6	0.00e+00	0	27	0	1149239296	34	5521
2026-01-14 02:20:57.14	158.28	23.43	-29.8	-30.5	27.7	0.00e+00	0	27	0	1154482176	34	5392
2026-01-14 02:20:58.15	158.29	23.58	-29.9	-30.6	27.6	0.00e+00	0	27	0	1159725056	34	5445
2026-01-14 02:20:59.16	158.30	23.74	-29.8	-30.4	27.8	0.00e+00	0	27	0	1166016512	34	5356
2026-01-14 02:21:00.17	158.31	23.89	-29.8	-30.5	27.7	0.00e+00	0	27	0	1171259392	34	5396
2026-01-14 02:21:01.18	158.32	24.04	-29.7	-30.3	27.9	0.00e+00	0	27	0	1177550848	32	5953
2026-01-14 02:21:02.19	158.33	24.20	-29.5	-30.1	28.0	0.00e+00	0	27	0	1182793728	32	5811
2026-01-14 02:21:03.20	158.34	24.36	-29.5	-30.1	28.0	0.00e+00	0	27	0	1189085184	32	5821
2026-01-14 02:21:04.21	158.35	24.52	-29.6	-30.2	28.0	0.00e+00	0	27	0	1194328064	32	5883
2026-01-14 02:21:05.22	158.36	24.67	-29.5	-30.1	28.1	0.00e+00	0	27	0	1200619520	32	5781
2026-01-14 02:21:06.23	158.37	24.83	-29.4	-30.1	27.9	0.00e+00	0	27	0	1205862400	32	5772
2026-01-14 02:21:07.24	158.38	24.99	-29.5	-30.2	27.9	0.00e+00	0	27	0	1211105280	32	5842
2026-01-14 02:21:08.25	158.39	25.16	-29.5	-30.1	28.0	0.00e+00	0	27	0	1217396736	32	5825
2026-01-14 02:21:09.27	158.41	25.32	-29.5	-30.1	28.1	0.00e+00	0	27	0	1222639616	32	5819
2026-01-14 02:21:10.27	158.42	25.48	-29.6	-30.2	27.9	0.00e+00	0	27	0	1228931072	32	5888
2026-01-14 02:21:11.29	158.43	25.65	-29.6	-30.2	28.1	0.00e+00	0	27	0	1234173952	32	5848
2026-01-14 02:21:12.30	158.44	25.81	-29.5	-30.1	28.1	0.00e+00	0	27	0	1239416832	32	5800
2026-01-14 02:21:13.31	158.45	25.98	-29.6	-30.2	27.9	0.00e+00	0	27	0	1245708288	32	5865
2026-01-14 02:21:14.32	158.46	26.15	-29.5	-30.1	28.0	0.00e+00	0	27	0	1250951168	32	5778
2026-01-14 02:21:15.33	158.47	26.32	-29.6	-30.2	28.0	0.00e+00	0	27	0	1257242624	32	5883
2026-01-14 02:21:16.34	158.49	26.49	-29.5	-30.1	28.0	0.00e+00	0	27	0	1262485504	32	5806
2026-01-14 02:21:17.35	158.50	26.66	-29.4	-30.0	28.2	0.00e+00	0	27	0	1267728384	32	5722
2026-01-14 02:21:18.36	158.51	26.83	-29.6	-30.2	28.1	0.00e+00	0	27	0	1274019840	32	5855
2026-01-14 02:21:19.37	158.52	27.00	-29.5	-30.2	28.1	0.00e+00	0	27	0	1279262720	32	5833
2026-01-14 02:21:20.38	158.53	27.18	-29.6	-30.2	28.0	0.00e+00	0	27	0	1285554176	32	5866
2026-01-14 02:21:21.39	158.55	27.35	-29.6	-30.2	28.1	0.00e+00	0	27	0	1290797056	32	5853
2026-01-14 02:21:22.40	158.56	27.53	-29.6	-30.2	28.1	0.00e+00	0	27	0	1297088512	32	5852
2026-01-14 02:21:23.41	158.57	27.71	-29.5	-30.1	28.1	0.00e+00	0	27	0	1302331392	32	5795
2026-01-14 02:21:24.42	158.58	27.89	-29.6	-30.2	28.1	0.00e+00	0	27	0	1308622848	32	5867
2026-01-14 02:21:25.43	158.60	28.07	-29.4	-30.0	28.2	0.00e+00	0	27	0	1313865728	32	5758
2026-01-14 02:21:26.44	158.61	28.25	-29.4	-30.1	28.2	0.00e+00	0	27	0	1319108608	32	5779
2026-01-14 02:21:27.45	158.62	28.43	-29.4	-30.0	28.3	0.00e+00	0	27	0	1325400064	32	5730
2026-01-14 02:21:28.46	158.63	28.62	-29.4	-30.0	28.2	0.00e+00	0	27	0	1330642944	32	5730
2026-01-14 02:21:29.47	158.65	28.80	-29.4	-30.0	28.1	0.00e+00	0	27	0	1336934400	32	5749
2026-01-14 02:21:30.48	158.66	28.99	-29.4	-30.0	28.1	0.00e+00	0	27	0	1342177280	32	5756
2026-01-14 02:21:31.49	158.67	29.17	-29.3	-29.9	28.2	0.00e+00	0	27	0	1347420160	32	5674
2026-01-14 02:21:32.50	158.69	29.36	-29.3	-29.9	28.4	0.00e+00	0	27	0	1353711616	32	5650
2026-01-14 02:21:33.51	158.70	29.55	-29.3	-29.9	28.3	0.00e+00	0	27	0	1358954496	32	5655
2026-01-14 02:21:34.52	158.71	29.74	-29.2	-29.8	28.3	0.00e+00	0	27	0	1365245952	32	5620
2026-01-14 02:21:35.53	158.73	29.94	-29.2	-29.9	28.3	0.00e+00	0	27	0	1370488832	32	5631
2026-01-14 02:21:36.54	158.74	30.13	-29.4	-30.0	28.2	0.00e+00	0	27	0	1375731712	32	5710
2026-01-14 02:21:37.55	158.76	30.32	-29.3	-29.9	28.3	0.00e+00	0	27	0	1382023168	32	5690
2026-01-14 02:21:38.56	158.77	30.52	-29.2	-29.8	28.4	0.00e+00	0	27	0	1387266048	32	5613
2026-01-14 02:21:39.57	158.79	30.72	-29.0	-29.6	28.4	0.00e+00	0	27	0	1393557504	32	5495
2026-01-14 02:21:40.58	158.80	30.92	-29.0	-29.7	28.5	0.00e+00	0	27	0	1398800384	32	5515
2026-01-14 02:21:41.59	158.81	31.12	-29.0	-29.6	28.5	0.00e+00	0	27	0	1405091840	32	5489
2026-01-14 02:21:42.60	158.83	31.32	-29.0	-29.7	28.5	0.00e+00	0	27	0	1410334720	32	5508
2026-01-14 02:21:43.61	158.84	31.52	-29.1	-29.7	28.4	0.00e+00	0	27	0	1416626176	32	5548
2026-01-14 02:21:44.62	158.86	31.73	-29.2	-29.9	28.3	0.00e+00	0	27	0	1421869056	32	5631
2026-01-14 02:21:45.63	158.87	31.93	-29.2	-29.8	28.4	0.00e+00	0	27	0	1427111936	32	5595
2026-01-14 02:21:46.64	158.89	32.14	-29.2	-29.8	28.3	0.00e+00	0	27	0	1433403392	32	5589
2026-01-14 02:21:47.65	158.90	32.35	-29.1	-29.7	28.5	0.00e+00	0	27	0	1438646272	32	5522
2026-01-14 02:21:48.66	158.92	32.56	-29.2	-29.9	28.3	0.00e+00	0	27	0	1444937728	32	5638
2026-01-14 02:21:49.67	158.94	32.77	-29.3	-29.9	28.3	0.00e+00	0	27	0	1450180608	32	5690
2026-01-14 02:21:50.68	158.95	32.99	-29.2	-29.8	28.3	0.00e+00	0	27	0	1455423488	32	5627
2026-01-14 02:21:51.69	158.97	33.20	-29.3	-29.9	28.3	0.00e+00	0	27	0	1461714944	32	5685
2026-01-14 02:21:52.71	158.98	33.42	-29.2	-29.8	28.3	0.00e+00	0	27	0	1466957824	32	5618
2026-01-14 02:21:53.72	159.00	33.64	-28.8	-29.4	28.7	0.00e+00	0	27	0	1473249280	32	5365
2026-01-14 02:21:54.73	159.02	33.86	-28.8	-29.4	28.7	0.00e+00	0	27	0	1478492160	30	5986
2026-01-14 02:21:55.74	159.03	34.08	-28.8	-29.4	28.7	0.00e+00	0	27	0	1483735040	30	5985
2026-01-14 02:21:56.75	159.05	34.30	-28.7	-29.3	28.7	0.00e+00	0	27	0	1490026496	30	5923
2026-01-14 02:21:57.76	159.07	34.53	-28.8	-29.4	28.5	0.00e+00	0	27	0	1495269376	30	6033
2026-01-14 02:21:58.77	159.08	34.75	-28.9	-29.5	28.6	0.00e+00	0	27	0	1501560832	30	6054
2026-01-14 02:21:59.77	159.10	34.98	-28.7	-29.3	28.7	0.00e+00	0	27	0	1506803712	30	5950
2026-01-14 02:22:00.77	159.12	35.20	-28.6	-29.2	28.9	0.00e+00	0	27	0	1513095168	30	5864
2026-01-14 02:22:01.78	159.14	35.43	-28.5	-29.1	28.8	0.00e+00	0	27	0	1518338048	30	5808
2026-01-14 02:22:02.79	159.16	35.67	-28.5	-29.2	28.8	0.00e+00	0	27	0	1523580928	30	5839
2026-01-14 02:22:03.80	159.17	35.90	-28.5	-29.1	28.8	0.00e+00	0	27	0	1529872384	30	5815
2026-01-14 02:22:04.80	159.19	36.13	-28.6	-29.2	28.9	0.00e+00	0	27	0	1535115264	30	5882
2026-01-14 02:22:05.82	159.21	36.38	-28.5	-29.1	28.9	0.00e+00	0	27	0	1541406720	30	5785
2026-01-14 02:22:06.82	159.23	36.61	-28.5	-29.2	28.7	0.00e+00	0	27	0	1546649600	30	5845
2026-01-14 02:22:07.84	159.25	36.86	-28.6	-29.2	28.8	0.00e+00	0	27	0	1551892480	30	5869
2026-01-14 02:22:08.85	159.27	37.10	-28.7	-29.3	28.7	0.00e+00	0	27	0	1558183936	30	5956
2026-01-14 02:22:09.86	159.29	37.34	-28.9	-29.5	28.6	0.00e+00	0	27	0	1563426816	30	6056
2026-01-14 02:22:10.87	159.31	37.59	-28.8	-29.4	28.7	0.00e+00	0	27	0	1569718272	30	5973
2026-01-14 02:22:11.88	159.33	37.84	-28.9	-29.5	28.6	0.00e+00	0	27	0	1574961152	30	6065
2026-01-14 02:22:12.89	159.35	38.09	-28.7	-29.3	28.7	0.00e+00	0	27	0	1580204032	30	5925
2026-01-14 02:22:13.90	159.37	38.34	-28.8	-29.4	28.7	0.00e+00	0	27	0	1586495488	30	6016
2026-01-14 02:22:14.91	159.39	38.60	-29.0	-29.6	28.5	0.00e+00	0	27	0	1591738368	30	6160
2026-01-14 02:22:15.93	159.41	38.85	-29.0	-29.7	28.5	0.00e+00	0	27	0	1598029824	30	6203
2026-01-14 02:22:16.94	159.43	39.11	-29.2	-29.8	28.4	0.00e+00	0	27	0	1603272704	30	6277
2026-01-14 02:22:17.95	159.45	39.37	-29.3	-29.9	28.3	0.00e+00	0	27	0	1609564160	30	6364
2026-01-14 02:22:18.96	159.48	39.63	-29.2	-29.8	28.4	0.00e+00	0	27	0	1614807040	30	6291
2026-01-14 02:22:19.97	159.50	39.90	-29.2	-29.8	28.4	0.00e+00	0	27	0	1621098496	30	6272
2026-01-14 02:22:20.98	159.52	40.16	-29.2	-29.8	28.4	0.00e+00	0	27	0	1626341376	30	6294
2026-01-14 02:22:21.99	159.54	40.43	-29.3	-29.9	28.3	0.00e+00	0	27	0	1631584256	30	6344
2026-01-14 02:22:23.00	159.57	40.70	-29.1	-29.7	28.5	0.00e+00	0	27	0	1637875712	30	6204
2026-01-14 02:22:24.01	159.59	40.97	-29.2	-29.8	28.3	0.00e+00	0	27	0	1643118592	30	6299
2026-01-14 02:22:25.02	159.61	41.25	-29.4	-30.0	28.3	0.00e+00	0	27	0	1649410048	30	6407
2026-01-14 02:22:26.03	159.64	41.52	-29.5	-30.2	28.1	0.00e+00	0	27	0	1654652928	30	6542
2026-01-14 02:22:27.04	159.66	41.80	-29.4	-30.0	28.2	0.00e+00	0	27	0	1659895808	30	6437
2026-01-14 02:22:28.05	159.69	42.08	-29.7	-30.4	28.1	0.00e+00	0	27	0	1666187264	30	6709
2026-01-14 02:22:29.06	159.71	42.36	-29.6	-30.3	28.1	0.00e+00	0	27	0	1671430144	30	6633
2026-01-14 02:22:30.08	159.74	42.65	-29.6	-30.3	28.1	0.00e+00	0	27	0	1677721600	30	6616
2026-01-14 02:22:31.08	159.77	42.94	-29.5	-30.1	28.2	0.00e+00	0	27	0	1682964480	30	6512
2026-01-14 02:22:32.09	159.79	43.22	-29.5	-30.1	28.3	0.00e+00	0	27	0	1688207360	30	6489
2026-01-14 02:22:33.10	159.82	43.52	-29.4	-30.0	28.3	0.00e+00	0	27	0	1694498816	30	6404
2026-01-14 02:22:34.12	159.85	43.81	-29.4	-30.0	28.3	0.00e+00	0	27	0	1699741696	30	6453
2026-01-14 02:22:35.13	159.87	44.11	-29.3	-29.9	28.3	0.00e+00	0	27	0	1706033152	30	6385
2026-01-14 02:22:36.14	159.90	44.41	-29.2	-29.7	28.5	0.00e+00	0	27	0	1711276032	30	6235
2026-01-14 02:22:37.15	159.93	44.71	-29.2	-29.8	28.4	0.00e+00	0	27	0	1717567488	30	6281
2026-01-14 02:22:38.16	159.96	45.01	-29.3	-29.9	28.4	0.00e+00	0	27	0	1722810368	30	6379
2026-01-14 02:22:39.17	159.99	45.31	-29.4	-30.0	28.2	0.00e+00	0	27	0	1729101824	30	6422
2026-01-14 02:22:40.18	160.02	45.62	-29.4	-30.1	28.3	0.00e+00	0	27	0	1734344704	30	6469
2026-01-14 02:22:41.19	160.05	45.93	-29.4	-30.0	28.2	0.00e+00	0	27	0	1739587584	30	6421
2026-01-14 02:22:42.20	160.08	46.24	-29.6	-30.2	28.1	0.00e+00	0	27	0	1745879040	30	6610
2026-01-14 02:22:43.21	160.11	46.56	-29.7	-30.3	28.1	0.00e+00	0	27	0	1751121920	30	6657
2026-01-14 02:22:44.22	160.15	46.87	-29.2	-29.8	28.4	0.00e+00	0	27	0	1757413376	30	6308
2026-01-14 02:22:45.23	160.18	47.19	-29.2	-29.9	28.3	0.00e+00	0	27	0	1762656256	30	6321
2026-01-14 02:22:46.24	160.21	47.51	-29.3	-29.9	28.3	0.00e+00	0	27	0	1767899136	30	6355
2026-01-14 02:22:47.25	160.25	47.84	-29.2	-29.8	28.4	0.00e+00	0	27	0	1774190592	30	6265
2026-01-14 02:22:48.26	160.28	48.16	-29.2	-29.8	28.4	0.00e+00	0	27	0	1779433472	30	6295
2026-01-14 02:22:49.27	160.32	48.49	-29.3	-30.0	28.3	0.00e+00	0	27	0	1785724928	30	6402
2026-01-14 02:22:50.28	160.35	48.82	-29.1	-29.7	28.5	0.00e+00	0	27	0	1790967808	30	6191
2026-01-14 02:22:51.29	160.39	49.16	-28.8	-29.4	28.7	0.00e+00	0	27	0	1796210688	30	6020
2026-01-14 02:22:52.30	160.43	49.49	-29.2	-29.9	28.5	0.00e+00	0	27	0	1802502144	30	6318
2026-01-14 02:22:53.31	160.47	49.83	-29.9	-30.6	27.8	0.00e+00	0	27	0	1807745024	32	6125
2026-01-14 02:22:54.32	160.51	50.17	-30.3	-30.9	27.6	0.00e+00	0	27	0	1814036480	32	6378
2026-01-14 02:22:55.33	160.55	50.52	-30.3	-31.0	27.6	0.00e+00	0	27	0	1819279360	32	6400
2026-01-14 02:22:56.34	160.59	50.86	-30.4	-31.0	27.5	0.00e+00	0	27	0	1825570816	32	6404
2026-01-14 02:22:57.35	160.63	51.21	-30.2	-30.8	27.7	0.00e+00	0	27	0	1830813696	32	6301
2026-01-14 02:22:58.36	160.67	51.56	-30.3	-30.9	27.6	0.00e+00	0	27	0	1837105152	32	6335
2026-01-14 02:22:59.37	160.72	51.92	-30.8	-31.4	27.1	0.00e+00	0	27	0	1842348032	32	6748
2026-01-14 02:23:00.38	160.76	52.27	-30.7	-31.3	27.2	0.00e+00	0	27	0	1847590912	34	5955
2026-01-14 02:23:01.39	160.81	52.63	-30.5	-31.1	27.4	0.00e+00	0	27	0	1853882368	34	5780
2026-01-14 02:23:02.40	160.85	53.00	-30.3	-30.9	27.7	0.00e+00	0	27	0	1859125248	34	5681
2026-01-14 02:23:03.41	160.90	53.36	-30.1	-30.7	27.8	0.00e+00	0	27	0	1865416704	34	5525
2026-01-14 02:23:04.42	160.95	53.73	-30.3	-30.9	27.6	0.00e+00	0	27	0	1870659584	34	5643
2026-01-14 02:23:05.43	161.00	54.10	-30.4	-31.1	27.4	0.00e+00	0	27	0	1875902464	34	5782
2026-01-14 02:23:06.44	161.05	54.47	-30.3	-31.0	27.6	0.00e+00	0	27	0	1882193920	34	5704
2026-01-14 02:23:07.45	161.10	54.85	-30.3	-30.9	27.6	0.00e+00	0	27	0	1887436800	34	5637
2026-01-14 02:23:08.46	161.16	55.22	-29.9	-30.5	27.9	0.00e+00	0	27	0	1893728256	34	5436
2026-01-14 02:23:09.48	161.21	55.61	-29.9	-30.5	27.8	0.00e+00	0	27	0	1898971136	34	5434
2026-01-14 02:23:10.49	161.27	55.99	-30.3	-30.9	27.6	0.00e+00	0	27	0	1904214016	34	5652
2026-01-14 02:23:11.50	161.33	56.38	-30.4	-31.1	27.5	0.00e+00	0	27	0	1910505472	34	5763
2026-01-14 02:23:12.51	161.39	56.76	-30.5	-31.1	27.3	0.00e+00	0	27	0	1915748352	34	5815
2026-01-14 02:23:13.52	161.45	57.16	-30.5	-31.2	27.3	0.00e+00	0	27	0	1922039808	34	5856
2026-01-14 02:23:14.53	161.51	57.55	-30.3	-30.9	27.4	0.00e+00	0	27	0	1927282688	34	5692
2026-01-14 02:23:15.54	161.57	57.95	-30.0	-30.7	27.7	0.00e+00	0	27	0	1933574144	34	5513
2026-01-14 02:23:16.55	161.64	58.35	-29.9	-30.5	27.8	0.00e+00	0	27	0	1938817024	34	5419
2026-01-14 02:23:17.56	161.71	58.75	-30.0	-30.7	27.8	0.00e+00	0	27	0	1945108480	34	5514
2026-01-14 02:23:18.57	161.78	59.15	-29.8	-30.4	27.9	0.00e+00	0	27	0	1950351360	34	5375
2026-01-14 02:23:19.58	161.85	59.56	-29.4	-30.1	28.1	0.00e+00	0	27	0	1955594240	32	5773
2026-01-14 02:23:20.59	161.93	59.97	-29.4	-30.0	28.2	0.00e+00	0	27	0	1961885696	32	5707
2026-01-14 02:23:21.60	162.00	60.38	-29.6	-30.3	28.0	0.00e+00	0	27	0	1967128576	32	5911
2026-01-14 02:23:22.61	162.08	60.80	-29.6	-30.3	28.0	0.00e+00	0	27	0	1973420032	32	5907
2026-01-14 02:23:23.62	162.16	61.22	-29.2	-29.9	28.3	0.00e+00	0	27	0	1978662912	32	5647
2026-01-14 02:23:24.63	162.25	61.64	-29.0	-29.6	28.4	0.00e+00	0	27	0	1983905792	32	5473
2026-01-14 02:23:25.64	162.33	62.06	-28.9	-29.5	28.5	0.00e+00	0	27	0	1990197248	32	5415
2026-01-14 02:23:26.65	162.42	62.48	-29.1	-29.7	28.4	0.00e+00	0	27	0	1995440128	32	5552
2026-01-14 02:23:27.66	162.52	62.91	-29.0	-29.6	28.5	0.00e+00	0	27	0	2001731584	32	5445
2026-01-14 02:23:28.67	162.61	63.34	-28.9	-29.6	28.5	0.00e+00	0	27	0	2006974464	32	5448
2026-01-14 02:23:29.68	162.71	63.78	-29.0	-29.7	28.4	0.00e+00	0	27	0	2012217344	32	5510
2026-01-14 02:23:30.69	162.82	64.21	-29.0	-29.6	28.5	0.00e+00	0	27	0	2018508800	32	5455
2026-01-14 02:23:31.70	162.93	64.65	-29.1	-29.7	28.4	0.00e+00	0	27	0	2023751680	32	5545
2026-01-14 02:23:32.71	163.04	65.09	-28.8	-29.4	28.6	0.00e+00	0	27	0	2030043136	32	5371
2026-01-14 02:23:33.72	163.15	65.54	-28.5	-29.0	28.9	0.00e+00	0	27	0	2035286016	30	5747
2026-01-14 02:23:34.74	163.27	65.99	-28.3	-28.9	28.9	0.00e+00	0	27	0	2041577472	30	5657
2026-01-14 02:23:35.74	163.40	66.43	-28.6	-29.2	28.8	0.00e+00	0	27	0	2046820352	30	5852
2026-01-14 02:23:36.75	163.53	66.88	-28.5	-29.1	29.0	0.00e+00	0	27	0	2052063232	30	5780
2026-01-14 02:23:37.76	163.67	67.33	-28.3	-29.0	28.9	0.00e+00	0	27	0	2058354688	30	5696
2026-01-14 02:23:38.77	163.81	67.79	-28.2	-28.8	29.1	0.00e+00	0	27	0	2063597568	30	5576
2026-01-14 02:23:39.78	163.96	68.25	-28.2	-28.8	29.1	0.00e+00	0	27	0	2069889024	30	5578
2026-01-14 02:23:40.80	164.11	68.71	-27.9	-28.5	29.3	0.00e+00	0	27	0	2075131904	30	5429
2026-01-14 02:23:41.81	164.27	69.17	-28.2	-28.8	29.0	0.00e+00	0	27	0	2081423360	30	5576
2026-01-14 02:23:42.82	164.44	69.64	-28.1	-28.7	29.2	0.00e+00	0	27	0	2086666240	30	5522
2026-01-14 02:23:43.83	164.62	70.10	-27.9	-28.4	29.2	0.00e+00	0	27	0	2091909120	30	5377
2026-01-14 02:23:44.84	164.81	70.57	-28.2	-28.8	29.1	0.00e+00	0	27	0	2098200576	30	5591
2026-01-14 02:23:45.85	165.01	71.04	-28.1	-28.7	29.1	0.00e+00	0	27	0	2103443456	30	5547
2026-01-14 02:23:46.86	165.22	71.51	-27.9	-28.5	29.3	0.00e+00	0	27	0	2109734912	30	5431
2026-01-14 02:23:47.87	165.44	71.99	-27.9	-28.5	29.3	0.00e+00	0	27	0	2114977792	30	5415
2026-01-14 02:23:48.88	165.67	72.46	-27.7	-28.3	29.4	0.00e+00	0	27	0	2120220672	30	5306
2026-01-14 02:23:49.89	165.91	72.94	-27.9	-28.5	29.2	0.00e+00	0	27	0	2126512128	28	6088
2026-01-14 02:23:50.90	166.17	73.42	-28.0	-28.5	29.3	0.00e+00	0	27	0	2131755008	28	6099
2026-01-14 02:23:51.91	166.45	73.90	-27.9	-28.5	29.2	0.00e+00	0	27	0	2138046464	28	6076
2026-01-14 02:23:52.92	166.74	74.38	-27.7	-28.3	29.4	0.00e+00	0	27	0	2143289344	28	5954
2026-01-14 02:23:53.93	167.05	74.87	-27.6	-28.2	29.4	0.00e+00	0	27	0	2149580800	28	5887
2026-01-14 02:23:54.94	167.39	75.35	-27.9	-28.5	29.2	0.00e+00	0	27	0	2154823680	28	6055
2026-01-14 02:23:55.95	167.74	75.84	-27.6	-28.2	29.4	0.00e+00	0	27	0	2160066560	28	5852
2026-01-14 02:23:56.96	168.13	76.33	-27.5	-28.1	29.5	0.00e+00	0	27	0	2166358016	28	5786
2026-01-14 02:23:57.97	168.54	76.82	-27.4	-28.0	29.5	0.00e+00	0	27	0	2171600896	28	5741
2026-01-14 02:23:58.98	168.98	77.31	-27.3	-28.0	29.4	0.00e+00	0	27	0	2177892352	28	5720
2026-01-14 02:23:59.99	169.46	77.80	-26.8	-27.4	29.9	0.00e+00	0	27	0	2183135232	28	5337
2026-01-14 02:24:01.00	169.98	78.29	-26.9	-27.5	29.8	0.00e+00	0	27	0	2188378112	26	6048
2026-01-14 02:24:02.01	170.55	78.78	-26.9	-27.6	29.8	0.00e+00	0	27	0	2194669568	26	6124
2026-01-14 02:24:03.02	171.17	79.27	-26.8	-27.4	29.9	0.00e+00	0	27	0	2199912448	26	5990
2026-01-14 02:24:04.03	171.86	79.76	-26.9	-27.5	29.8	0.00e+00	0	27	0	2206203904	26	6034
2026-01-14 02:24:05.04	172.61	80.25	-26.7	-27.3	30.1	0.00e+00	0	27	0	2211446784	26	5918
2026-01-14 02:24:06.05	173.44	80.74	-27.0	-27.6	29.8	0.00e+00	0	27	0	2216689664	26	6142
2026-01-14 02:24:07.06	174.37	81.23	-26.4	-27.0	30.3	0.00e+00	0	27	0	2222981120	26	5705
2026-01-14 02:24:08.07	175.40	81.72	-26.3	-26.9	30.2	0.00e+00	0	27	0	2228224000	26	5671
2026-01-14 02:24:09.08	176.57	82.21	-26.2	-26.8	30.1	0.00e+00	0	27	0	2234515456	26	5578
2026-01-14 02:24:10.09	177.89	82.69	-26.3	-26.9	30.2	0.00e+00	0	27	0	2239758336	26	5677
2026-01-14 02:24:11.10	179.40	83.17	-26.4	-26.9	30.2	0.00e+00	0	27	0	2246049792	26	5693
2026-01-14 02:24:12.11	181.15	83.65	-26.1	-26.6	30.4	0.00e+00	0	27	0	2251292672	26	5482
2026-01-14 02:24:13.12	183.17	84.12	-26.4	-27.0	30.2	0.00e+00	0	27	0	2257584128	26	5751
2026-01-14 02:24:14.13	185.54	84.58	-26.6	-27.2	30.0	0.00e+00	0	27	0	2262827008	26	5868
2026-01-14 02:24:15.14	188.34	85.03	-26.7	-27.3	30.0	0.00e+00	0	27	0	2268069888	26	5953
2026-01-14 02:24:16.15	191.70	85.47	-26.8	-27.5	29.9	0.00e+00	0	27	0	2274361344	26	6070
2026-01-14 02:24:17.16	195.77	85.89	-26.9	-27.6	29.9	0.00e+00	0	27	0	2279604224	26	6122
2026-01-14 02:24:18.17	200.72	86.28	-26.8	-27.4	29.9	0.00e+00	0	27	0	2285895680	26	6024
2026-01-14 02:24:19.18	206.79	86.64	-27.0	-27.6	29.8	0.00e+00	0	27	0	2291138560	26	6117
2026-01-14 02:24:20.19	214.22	86.96	-27.1	-27.7	29.7	0.00e+00	0	27	0	2296381440	26	6227
2026-01-14 02:24:21.20	223.17	87.21	-27.0	-27.6	29.8	0.00e+00	0	27	0	2302672896	26	6158
2026-01-14 02:24:22.21	233.59	87.38	-27.2	-27.8	29.8	0.00e+00	0	27	0	2307915776	26	6279
2026-01-14 02:24:23.22	245.04	87.46	-26.9	-27.5	30.0	0.00e+00	0	27	0	2314207232	26	6094
2026-01-14 02:24:24.23	256.70	87.43	-27.1	-27.7	29.7	0.00e+00	0	27	0	2319450112	26	6193
2026-01-14 02:24:25.24	267.66	87.30	-27.3	-27.8	29.7	0.00e+00	0	27	0	2324692992	26	6289
2026-01-14 02:24:26.25	277.30	87.08	-26.8	-27.4	29.9	0.00e+00	0	27	0	2330984448	26	5995
2026-01-14 02:24:27.26	285.40	86.79	-26.7	-27.3	30.0	0.00e+00	0	27	0	2336227328	26	5906
2026-01-14 02:24:28.27	292.06	86.45	-26.7	-27.3	29.7	0.00e+00	0	27	0	2342518784	26	5927
2026-01-14 02:24:29.29	297.54	86.06	-26.6	-27.2	29.6	0.00e+00	0	27	0	2347761664	26	5888
2026-01-14 02:24:30.30	301.97	85.66	-26.7	-27.3	30.0	0.00e+00	0	27	0	2354053120	26	5918
2026-01-14 02:24:31.31	305.61	85.23	-26.3	-26.9	30.1	0.00e+00	0	27	0	2359296000	26	5635
2026-01-14 02:24:32.32	308.65	84.78	-26.1	-26.7	30.2	0.00e+00	0	27	0	2364538880	26	5536
2026-01-14 02:24:33.33	311.20	84.32	-26.1	-26.7	30.3	0.00e+00	0	27	0	2370830336	26	5564
2026-01-14 02:24:34.34	313.36	83.86	-26.1	-26.7	30.3	0.00e+00	0	27	0	2376073216	26	5505
2026-01-14 02:24:35.35	315.22	83.38	-26.0	-26.6	30.4	0.00e+00	0	27	0	2382364672	26	5485
2026-01-14 02:24:36.36	316.83	82.91	-26.4	-27.0	30.2	0.00e+00	0	27	0	2387607552	26	5731
2026-01-14 02:24:37.37	318.23	82.42	-26.5	-27.1	30.1	0.00e+00	0	27	0	2393899008	26	5796
2026-01-14 02:24:38.38	319.46	81.94	-26.1	-26.7	30.2	0.00e+00	0	27	0	2399141888	26	5563
2026-01-14 02:24:39.39	320.55	81.45	-26.1	-26.7	30.3	0.00e+00	0	27	0	2404384768	26	5543
2026-01-14 02:24:40.40	321.53	80.96	-26.3	-26.9	30.2	0.00e+00	0	27	0	2410676224	26	5686
2026-01-14 02:24:41.41	322.40	80.47	-26.3	-26.9	30.2	0.00e+00	0	27	0	2415919104	26	5638
2026-01-14 02:24:42.42	323.18	79.98	-26.3	-26.9	30.2	0.00e+00	0	27	0	2422210560	26	5676
2026-01-14 02:24:43.43	323.89	79.49	-26.4	-27.1	30.1	0.00e+00	0	27	0	2427453440	26	5790
2026-01-14 02:24:44.44	324.54	79.00	-27.0	-27.6	29.7	0.00e+00	0	27	0	2432696320	26	6155
2026-01-14 02:24:45.45	325.13	78.51	-27.1	-27.7	29.7	0.00e+00	0	27	0	2438987776	26	6241
2026-01-14 02:24:46.46	325.67	78.02	-27.0	-27.6	29.8	0.00e+00	0	27	0	2444230656	26	6154
2026-01-14 02:24:47.47	326.17	77.53	-27.3	-27.9	29.6	0.00e+00	0	27	0	2450522112	26	6332
2026-01-14 02:24:48.49	326.64	77.03	-27.3	-27.9	29.7	0.00e+00	0	27	0	2455764992	26	6348
2026-01-14 02:24:49.49	327.06	76.55	-27.1	-27.8	29.8	0.00e+00	0	27	0	2461007872	26	6275
2026-01-14 02:24:50.50	327.45	76.06	-27.1	-27.7	29.7	0.00e+00	0	27	0	2467299328	26	6192
2026-01-14 02:24:51.51	327.82	75.58	-27.2	-27.7	29.6	0.00e+00	0	27	0	2472542208	26	6219
2026-01-14 02:24:52.53	328.17	75.09	-27.7	-28.2	29.4	0.00e+00	0	27	0	2478833664	26	6577
2026-01-14 02:24:53.54	328.49	74.60	-27.5	-28.0	29.3	0.00e+00	0	27	0	2484076544	28	5742
2026-01-14 02:24:54.55	328.79	74.12	-27.3	-28.0	29.5	0.00e+00	0	27	0	2490368000	28	5721
2026-01-14 02:24:55.56	329.07	73.64	-27.6	-28.2	29.3	0.00e+00	0	27	0	2495610880	28	5887
2026-01-14 02:24:56.57	329.34	73.16	-27.7	-28.4	29.3	0.00e+00	0	27	0	2501902336	28	5980
2026-01-14 02:24:57.57	329.59	72.69	-27.7	-28.3	29.3	0.00e+00	0	27	0	2507145216	28	5920
2026-01-14 02:24:58.58	329.83	72.21	-27.9	-28.4	29.2	0.00e+00	0	27	0	2512388096	28	6024
2026-01-14 02:24:59.59	330.05	71.74	-27.8	-28.4	29.2	0.00e+00	0	27	0	2518679552	28	5969
2026-01-14 02:25:00.61	330.27	71.26	-27.5	-28.1	29.5	0.00e+00	0	27	0	2523922432	28	5776
2026-01-14 02:25:01.61	330.47	70.79	-27.6	-28.2	29.3	0.00e+00	0	27	0	2530213888	28	5881
2026-01-14 02:25:02.63	330.66	70.32	-27.8	-28.4	29.2	0.00e+00	0	27	0	2535456768	28	6021
2026-01-14 02:25:03.63	330.84	69.86	-27.8	-28.4	29.2	0.00e+00	0	27	0	2540699648	28	5990
2026-01-14 02:25:04.64	331.01	69.39	-27.9	-28.6	29.2	0.00e+00	0	27	0	2546991104	28	6133
2026-01-14 02:25:05.65	331.18	68.93	-27.9	-28.4	29.2	0.00e+00	0	27	0	2552233984	28	6006
2026-01-14 02:25:06.66	331.34	68.47	-28.1	-28.7	29.0	0.00e+00	0	27	0	2558525440	28	6241
2026-01-14 02:25:07.67	331.49	68.01	-28.5	-29.1	28.7	0.00e+00	0	27	0	2563768320	28	6536
2026-01-14 02:25:08.68	331.63	67.56	-28.4	-29.1	28.8	0.00e+00	0	27	0	2569011200	28	6474
2026-01-14 02:25:09.69	331.77	67.11	-28.3	-28.9	28.9	0.00e+00	0	27	0	2575302656	28	6388
2026-01-14 02:25:10.70	331.91	66.66	-28.4	-29.1	28.8	0.00e+00	0	27	0	2580545536	28	6495
2026-01-14 02:25:11.71	332.03	66.21	-28.6	-29.2	28.7	0.00e+00	0	27	0	2586836992	28	6553
2026-01-14 02:25:12.72	332.16	65.76	-28.6	-29.3	28.6	0.00e+00	0	27	0	2592079872	28	6655
2026-01-14 02:25:13.73	332.27	65.32	-28.5	-29.2	28.8	0.00e+00	0	27	0	2598371328	28	6568
2026-01-14 02:25:14.74	332.39	64.88	-28.4	-29.0	28.8	0.00e+00	0	27	0	2603614208	28	6437
2026-01-14 02:25:15.75	332.50	64.44	-28.2	-28.7	28.9	0.00e+00	0	27	0	2608857088	28	6202
2026-01-14 02:25:16.76	332.60	64.00	-28.2	-28.9	28.9	0.00e+00	0	27	0	2615148544	28	6343
2026-01-14 02:25:17.78	332.71	63.56	-28.4	-29.1	28.9	0.00e+00	0	27	0	2620391424	28	6503
2026-01-14 02:25:18.79	332.80	63.13	-28.7	-29.2	28.7	0.00e+00	0	27	0	2626682880	28	6578
2026-01-14 02:25:19.80	332.90	62.70	-28.6	-29.3	28.7	0.00e+00	0	27	0	2631925760	28	6644
2026-01-14 02:25:20.80	332.99	62.28	-28.6	-29.2	28.6	0.00e+00	0	27	0	2637168640	28	6568
2026-01-14 02:25:21.81	333.08	61.86	-28.8	-29.4	28.7	0.00e+00	0	27	0	2643460096	28	6761
2026-01-14 02:25:22.83	333.16	61.43	-28.6	-29.2	28.7	0.00e+00	0	27	0	2648702976	30	5838
2026-01-14 02:25:23.84	333.25	61.02	-28.7	-29.4	28.7	0.00e+00	0	27	0	2654994432	30	5996
2026-01-14 02:25:24.85	333.33	60.60	-28.8	-29.5	28.5	0.00e+00	0	27	0	2660237312	30	6080
2026-01-14 02:25:25.86	333.41	60.19	-28.8	-29.4	28.5	0.00e+00	0	27	0	2666528768	30	5983
2026-01-14 02:25:26.87	333.48	59.78	-29.1	-29.6	28.4	0.00e+00	0	27	0	2671771648	30	6131
2026-01-14 02:25:27.88	333.55	59.37	-29.3	-30.0	28.1	0.00e+00	0	27	0	2677014528	30	6461
2026-01-14 02:25:28.89	333.63	58.97	-29.4	-30.1	28.1	0.00e+00	0	27	0	2683305984	30	6509
2026-01-14 02:25:29.90	333.70	58.56	-29.3	-29.9	28.2	0.00e+00	0	27	0	2688548864	30	6323
2026-01-14 02:25:30.91	333.76	58.16	-29.4	-29.9	28.2	0.00e+00	0	27	0	2694840320	30	6366
2026-01-14 02:25:31.92	333.83	57.77	-29.6	-30.2	27.9	0.00e+00	0	27	0	2700083200	30	6577
2026-01-14 02:25:32.93	333.89	57.37	-29.8	-30.4	27.6	0.00e+00	0	27	0	2706374656	32	6014
2026-01-14 02:25:33.94	333.95	56.98	-29.8	-30.4	27.7	0.00e+00	0	27	0	2711617536	32	6020
2026-01-14 02:25:34.95	334.01	56.59	-29.6	-30.1	28.0	0.00e+00	0	27	0	2716860416	32	5819
2026-01-14 02:25:35.96	334.07	56.21	-29.7	-30.3	27.5	0.00e+00	0	27	0	2723151872	32	5959
2026-01-14 02:25:36.97	334.13	55.82	-30.1	-30.7	27.3	0.00e+00	0	27	0	2728394752	32	6217
2026-01-14 02:25:37.98	334.19	55.44	-30.4	-31.0	27.4	0.00e+00	0	27	0	2734686208	32	6432
2026-01-14 02:25:38.99	334.24	55.06	-30.4	-30.9	27.2	0.00e+00	0	27	0	2739929088	32	6374
2026-01-14 02:25:40.00	334.29	54.69	-30.2	-30.9	27.3	0.00e+00	0	27	0	2745171968	32	6340
2026-01-14 02:25:41.01	334.35	54.32	-30.2	-30.8	27.5	0.00e+00	0	27	0	2751463424	32	6288
2026-01-14 02:25:42.02	334.40	53.95	-30.3	-31.0	27.4	0.00e+00	0	27	0	2756706304	32	6412
2026-01-14 02:25:43.03	334.45	53.58	-30.1	-30.8	27.6	0.00e+00	0	27	0	2762997760	32	6280
2026-01-14 02:25:44.04	334.49	53.21	-30.0	-30.6	27.7	0.00e+00	0	27	0	2768240640	32	6110
2026-01-14 02:25:45.05	334.54	52.85	-30.0	-30.6	27.6	0.00e+00	0	27	0	2773483520	32	6109
2026-01-14 02:25:46.06	334.59	52.49	-30.2	-30.8	27.5	0.00e+00	0	27	0	2779774976	32	6286
2026-01-14 02:25:47.07	334.63	52.13	-30.0	-30.7	27.7	0.00e+00	0	27	0	2785017856	32	6223
2026-01-14 02:25:48.08	334.68	51.78	-29.8	-30.4	27.9	0.00e+00	0	27	0	2791309312	32	5986
2026-01-14 02:25:49.09	334.72	51.43	-29.6	-30.1	28.0	0.00e+00	0	27	0	2796552192	32	5809
2026-01-14 02:25:50.10	334.76	51.08	-29.8	-30.3	27.9	0.00e+00	0	27	0	2802843648	32	5953
2026-01-14 02:25:51.11	334.80	50.73	-29.8	-30.4	27.9	0.00e+00	0	27	0	2808086528	32	5983
2026-01-14 02:25:52.12	334.84	50.39	-29.8	-30.4	27.8	0.00e+00	0	27	0	2814377984	32	5971
2026-01-14 02:25:53.13	334.88	50.05	-29.4	-29.9	28.2	0.00e+00	0	27	0	2819620864	32	5694
2026-01-14 02:25:54.14	334.92	49.71	-29.3	-29.9	28.2	0.00e+00	0	27	0	2824863744	32	5693
2026-01-14 02:25:55.15	334.96	49.37	-28.9	-29.4	28.4	0.00e+00	0	27	0	2831155200	32	5347
2026-01-14 02:25:56.16	335.00	49.04	-29.0	-29.5	28.5	0.00e+00	0	27	0	2836398080	32	5414
2026-01-14 02:25:57.17	335.04	48.71	-29.1	-29.7	28.4	0.00e+00	0	27	0	2842689536	32	5510
2026-01-14 02:25:58.18	335.07	48.38	-29.2	-29.7	28.3	0.00e+00	0	27	0	2847932416	32	5564
2026-01-14 02:25:59.19	335.11	48.05	-29.0	-29.6	28.5	0.00e+00	0	27	0	2853175296	32	5497
2026-01-14 02:26:00.20	335.14	47.73	-28.9	-29.6	28.5	0.00e+00	0	27	0	2859466752	32	5471
2026-01-14 02:26:01.21	335.18	47.40	-28.9	-29.5	28.5	0.00e+00	0	27	0	2864709632	32	5425
2026-01-14 02:26:02.22	335.21	47.08	-29.0	-29.6	28.5	0.00e+00	0	27	0	2871001088	32	5497
2026-01-14 02:26:03.23	335.24	46.77	-28.8	-29.3	28.6	0.00e+00	0	27	0	2876243968	30	5921
2026-01-14 02:26:04.24	335.27	46.45	-29.0	-29.6	28.4	0.00e+00	0	27	0	2881486848	30	6105
2026-01-14 02:26:05.26	335.31	46.14	-29.0	-29.5	28.5	0.00e+00	0	27	0	2887778304	30	6066
2026-01-14 02:26:06.27	335.34	45.83	-29.0	-29.5	28.6	0.00e+00	0	27	0	2893021184	30	6061
2026-01-14 02:26:07.28	335.37	45.52	-29.0	-29.6	28.4	0.00e+00	0	27	0	2899312640	30	6134
2026-01-14 02:26:08.29	335.40	45.22	-29.1	-29.7	28.4	0.00e+00	0	27	0	2904555520	30	6197
2026-01-14 02:26:09.30	335.43	44.91	-29.2	-29.9	28.3	0.00e+00	0	27	0	2910846976	30	6383
2026-01-14 02:26:10.30	335.46	44.62	-29.1	-29.8	28.5	0.00e+00	0	27	0	2916089856	30	6281
2026-01-14 02:26:11.32	335.49	44.32	-28.9	-29.6	28.5	0.00e+00	0	27	0	2922381312	30	6131
2026-01-14 02:26:12.33	335.51	44.02	-28.8	-29.4	28.6	0.00e+00	0	27	0	2927624192	30	5995
2026-01-14 02:26:13.34	335.54	43.73	-28.9	-29.4	28.6	0.00e+00	0	27	0	2932867072	30	5995
2026-01-14 02:26:14.35	335.57	43.43	-28.8	-29.5	28.6	0.00e+00	0	27	0	2939158528	30	6049
2026-01-14 02:26:15.36	335.60	43.15	-29.0	-29.7	28.5	0.00e+00	0	27	0	2944401408	30	6214
2026-01-14 02:26:16.37	335.62	42.86	-28.9	-29.6	28.4	0.00e+00	0	27	0	2950692864	30	6156
2026-01-14 02:26:17.38	335.65	42.57	-28.9	-29.6	28.5	0.00e+00	0	27	0	2955935744	30	6134
2026-01-14 02:26:18.39	335.68	42.29	-28.9	-29.6	28.5	0.00e+00	0	27	0	2961178624	30	6135
2026-01-14 02:26:19.40	335.70	42.01	-28.9	-29.6	28.5	0.00e+00	0	27	0	2967470080	30	6130
2026-01-14 02:26:20.41	335.73	41.73	-28.8	-29.5	28.6	0.00e+00	0	27	0	2972712960	30	6087
2026-01-14 02:26:21.42	335.75	41.46	-28.9	-29.6	28.5	0.00e+00	0	27	0	2979004416	30	6138
2026-01-14 02:26:22.43	335.77	41.18	-28.8	-29.5	28.7	0.00e+00	0	27	0	2984247296	30	6051
2026-01-14 02:26:23.44	335.80	40.91	-28.7	-29.3	28.7	0.00e+00	0	27	0	2989490176	30	5898
2026-01-14 02:26:24.45	335.82	40.64	-28.6	-29.3	28.7	0.00e+00	0	27	0	2995781632	30	5943
2026-01-14 02:26:25.46	335.85	40.37	-28.8	-29.3	28.6	0.00e+00	0	27	0	3001024512	30	5961
2026-01-14 02:26:26.47	335.87	40.10	-28.7	-29.4	28.7	0.00e+00	0	27	0	3007315968	30	5979
2026-01-14 02:26:27.48	335.89	39.84	-28.8	-29.5	28.6	0.00e+00	0	27	0	3012558848	30	6045
2026-01-14 02:26:28.49	335.91	39.58	-28.9	-29.6	28.5	0.00e+00	0	27	0	3018850304	30	6148
2026-01-14 02:26:29.50	335.94	39.32	-29.0	-29.6	28.4	0.00e+00	0	27	0	3024093184	30	6112
2026-01-14 02:26:30.51	335.96	39.06	-28.7	-29.4	28.7	0.00e+00	0	27	0	3030384640	30	5967
2026-01-14 02:26:31.52	335.98	38.80	-28.8	-29.4	28.5	0.00e+00	0	27	0	3035627520	30	6031
2026-01-14 02:26:32.53	336.00	38.55	-28.5	-29.1	28.8	0.00e+00	0	27	0	3040870400	30	5776
2026-01-14 02:26:33.54	336.02	38.30	-28.5	-29.0	28.7	0.00e+00	0	27	0	3047161856	30	5758
2026-01-14 02:26:34.55	336.04	38.05	-28.4	-28.9	28.9	0.00e+00	0	27	0	3052404736	30	5667
2026-01-14 02:26:35.56	336.06	37.80	-28.4	-28.9	28.8	0.00e+00	0	27	0	3058696192	30	5660
2026-01-14 02:26:36.57	336.08	37.55	-28.3	-28.8	28.9	0.00e+00	0	27	0	3063939072	30	5614
2026-01-14 02:26:37.58	336.10	37.31	-28.3	-28.8	28.9	0.00e+00	0	27	0	3069181952	30	5581
2026-01-14 02:26:38.60	336.12	37.06	-28.4	-28.9	28.9	0.00e+00	0	27	0	3075473408	30	5650
2026-01-14 02:26:39.61	336.14	36.82	-28.4	-28.9	28.9	0.00e+00	0	27	0	3080716288	30	5677
2026-01-14 02:26:40.62	336.16	36.58	-28.4	-28.9	28.9	0.00e+00	0	27	0	3087007744	30	5664
2026-01-14 02:26:41.63	336.18	36.34	-28.4	-28.9	28.8	0.00e+00	0	27	0	3092250624	30	5682
2026-01-14 02:26:42.64	336.20	36.11	-28.3	-28.9	28.8	0.00e+00	0	27	0	3097493504	30	5646
2026-01-14 02:26:43.65	336.22	35.87	-28.4	-28.9	28.8	0.00e+00	0	27	0	3103784960	30	5684
2026-01-14 02:26:44.66	336.24	35.64	-28.5	-29.0	28.8	0.00e+00	0	27	0	3109027840	30	5743
2026-01-14 02:26:45.67	336.26	35.41	-28.3	-28.9	28.8	0.00e+00	0	27	0	3115319296	30	5639
2026-01-14 02:26:46.68	336.27	35.18	-28.4	-29.1	28.8	0.00e+00	0	27	0	3120562176	30	5807
2026-01-14 02:26:47.69	336.29	34.95	-28.4	-28.9	28.8	0.00e+00	0	27	0	3126853632	30	5687
2026-01-14 02:26:48.70	336.31	34.72	-28.5	-29.1	28.7	0.00e+00	0	27	0	3132096512	30	5768
2026-01-14 02:26:49.71	336.33	34.50	-28.6	-29.1	28.7	0.00e+00	0	27	0	3138387968	30	5790
2026-01-14 02:26:50.72	336.34	34.28	-28.6	-29.1	28.8	0.00e+00	0	27	0	3143630848	30	5796
2026-01-14 02:26:51.73	336.36	34.06	-28.6	-29.3	28.7	0.00e+00	0	27	0	3148873728	30	5917
2026-01-14 02:26:52.74	336.38	33.84	-28.7	-29.4	28.7	0.00e+00	0	27	0	3155165184	30	5988
2026-01-14 02:26:53.75	336.40	33.62	-28.7	-29.3	28.7	0.00e+00	0	27	0	3160408064	30	5962
2026-01-14 02:26:54.76	336.41	33.40	-28.7	-29.4	28.6	0.00e+00	0	27	0	3166699520	30	5974
2026-01-14 02:26:55.77	336.43	33.19	-28.8	-29.4	28.6	0.00e+00	0	27	0	3171942400	30	5978
2026-01-14 02:26:56.78	336.44	32.97	-28.8	-29.3	28.5	0.00e+00	0	27	0	3177185280	30	5951
2026-01-14 02:26:57.79	336.46	32.76	-28.7	-29.3	28.6	0.00e+00	0	27	0	3183476736	30	5922
2026-01-14 02:26:58.80	336.48	32.55	-28.8	-29.3	28.5	0.00e+00	0	27	0	3188719616	30	5941
2026-01-14 02:26:59.81	336.49	32.34	-28.9	-29.4	28.5	0.00e+00	0	27	0	3195011072	30	6018
2026-01-14 02:27:00.82	336.51	32.13	-28.9	-29.4	28.4	0.00e+00	0	27	0	3200253952	30	6028
2026-01-14 02:27:01.83	336.52	31.93	-28.9	-29.5	28.5	0.00e+00	0	27	0	3205496832	30	6053
2026-01-14 02:27:02.84	336.54	31.72	-29.0	-29.5	28.4	0.00e+00	0	27	0	3211788288	30	6080
2026-01-14 02:27:03.85	336.55	31.52	-28.9	-29.5	28.5	0.00e+00	0	27	0	3217031168	30	6060
2026-01-14 02:27:04.86	336.57	31.32	-29.0	-29.7	28.3	0.00e+00	0	27	0	3223322624	30	6186
2026-01-14 02:27:05.87	336.58	31.12	-29.2	-29.7	28.3	0.00e+00	0	27	0	3228565504	30	6219
2026-01-14 02:27:06.88	336.60	30.92	-29.1	-29.7	28.3	0.00e+00	0	27	0	3234856960	30	6201
2026-01-14 02:27:07.89	336.61	30.72	-29.1	-29.6	28.4	0.00e+00	0	27	0	3240099840	30	6142
2026-01-14 02:27:08.90	336.63	30.52	-29.3	-29.8	28.2	0.00e+00	0	27	0	3245342720	30	6295
2026-01-14 02:27:09.91	336.64	30.33	-29.2	-29.7	28.3	0.00e+00	0	27	0	3251634176	30	6227
2026-01-14 02:27:10.92	336.66	30.13	-29.2	-29.8	28.3	0.00e+00	0	27	0	3256877056	30	6269
2026-01-14 02:27:11.93	336.67	29.94	-29.3	-29.8	28.2	0.00e+00	0	27	0	3263168512	30	6301
2026-01-14 02:27:12.94	336.69	29.75	-29.3	-29.8	28.1	0.00e+00	0	27	0	3268411392	30	6294
2026-01-14 02:27:13.95	336.70	29.56	-29.5	-30.0	28.1	0.00e+00	0	27	0	3273654272	30	6455
2026-01-14 02:27:14.96	336.71	29.37	-29.3	-29.9	28.2	0.00e+00	0	27	0	3279945728	30	6325
2026-01-14 02:27:15.97	336.73	29.18	-29.3	-29.8	28.1	0.00e+00	0	27	0	3285188608	30	6310
2026-01-14 02:27:16.98	336.74	29.00	-29.2	-29.8	28.2	0.00e+00	0	27	0	3291480064	30	6266
2026-01-14 02:27:17.99	336.75	28.81	-29.3	-29.9	28.1	0.00e+00	0	27	0	3296722944	30	6354
2026-01-14 02:27:19.00	336.77	28.63	-29.3	-29.9	28.1	0.00e+00	0	27	0	3301965824	30	6322
2026-01-14 02:27:20.01	336.78	28.45	-29.2	-29.9	28.1	0.00e+00	0	27	0	3308257280	30	6384
2026-01-14 02:27:21.02	336.79	28.27	-29.0	-29.6	28.3	0.00e+00	0	27	0	3313500160	30	6111
2026-01-14 02:27:22.03	336.81	28.08	-29.0	-29.7	28.3	0.00e+00	0	27	0	3319791616	30	6210
2026-01-14 02:27:23.04	336.82	27.91	-29.1	-29.6	28.3	0.00e+00	0	27	0	3325034496	30	6144
2026-01-14 02:27:24.05	336.83	27.73	-28.9	-29.6	28.5	0.00e+00	0	27	0	3331325952	30	6128
2026-01-14 02:27:25.06	336.85	27.55	-29.1	-29.6	28.3	0.00e+00	0	27	0	3336568832	30	6140
2026-01-14 02:27:26.07	336.86	27.38	-28.9	-29.4	28.4	0.00e+00	0	27	0	3342860288	30	6005
2026-01-14 02:27:27.08	336.87	27.20	-29.1	-29.6	28.3	0.00e+00	0	27	0	3348103168	30	6129
2026-01-14 02:27:28.09	336.88	27.03	-29.0	-29.6	28.3	0.00e+00	0	27	0	3353346048	30	6106
2026-01-14 02:27:29.10	336.90	26.86	-29.0	-29.5	28.4	0.00e+00	0	27	0	3359637504	30	6089
2026-01-14 02:27:30.11	336.91	26.68	-29.1	-29.6	28.3	0.00e+00	0	27	0	3364880384	30	6127
2026-01-14 02:27:31.12	336.92	26.51	-29.1	-29.6	28.3	0.00e+00	0	27	0	3371171840	30	6143
2026-01-14 02:27:32.13	336.93	26.35	-29.2	-29.7	28.3	0.00e+00	0	27	0	3376414720	30	6212
2026-01-14 02:27:33.14	336.95	26.18	-29.3	-29.9	28.2	0.00e+00	0	27	0	3381657600	30	6351
2026-01-14 02:27:34.15	336.96	26.01	-29.3	-29.8	28.2	0.00e+00	0	27	0	3387949056	30	6301
2026-01-14 02:27:35.16	336.97	25.85	-29.5	-30.0	28.0	0.00e+00	0	27	0	3393191936	30	6434
2026-01-14 02:27:36.17	336.98	25.68	-29.4	-30.0	28.1	0.00e+00	0	27	0	3399483392	30	6436
2026-01-14 02:27:37.18	336.99	25.52	-29.5	-30.0	28.0	0.00e+00	0	27	0	3404726272	30	6440
2026-01-14 02:27:38.19	337.00	25.35	-29.5	-30.1	28.0	0.00e+00	0	27	0	3409969152	30	6499
2026-01-14 02:27:39.21	337.02	25.19	-29.6	-30.2	27.8	0.00e+00	0	27	0	3416260608	30	6576
2026-01-14 02:27:40.21	337.03	25.03	-29.6	-30.1	27.9	0.00e+00	0	27	0	3421503488	32	5825
2026-01-14 02:27:41.22	337.04	24.87	-29.5	-30.2	27.8	0.00e+00	0	27	0	3427794944	32	5883
2026-01-14 02:27:42.23	337.05	24.71	-29.6	-30.2	27.9	0.00e+00	0	27	0	3433037824	32	5839
2026-01-14 02:27:43.24	337.06	24.55	-29.8	-30.5	27.8	0.00e+00	0	27	0	3439329280	32	6053
2026-01-14 02:27:44.25	337.07	24.40	-29.9	-30.6	27.7	0.00e+00	0	27	0	3444572160	32	6118
2026-01-14 02:27:45.26	337.08	24.24	-29.7	-30.3	27.8	0.00e+00	0	27	0	3450863616	32	5898
2026-01-14 02:27:46.27	337.10	24.09	-29.7	-30.2	27.8	0.00e+00	0	27	0	3456106496	32	5888
2026-01-14 02:27:47.29	337.11	23.93	-29.5	-30.2	27.9	0.00e+00	0	27	0	3461349376	32	5869
2026-01-14 02:27:48.30	337.12	23.78	-29.6	-30.3	27.9	0.00e+00	0	27	0	3467640832	32	5913
2026-01-14 02:27:49.31	337.13	23.63	-29.5	-30.1	27.9	0.00e+00	0	27	0	3472883712	32	5769
2026-01-14 02:27:50.32	337.14	23.47	-29.5	-30.1	28.0	0.00e+00	0	27	0	3479175168	32	5763
2026-01-14 02:27:51.33	337.15	23.32	-29.5	-30.2	27.9	0.00e+00	0	27	0	3484418048	32	5856
2026-01-14 02:27:52.34	337.16	23.17	-29.4	-30.1	28.1	0.00e+00	0	27	0	3489660928	32	5795
2026-01-14 02:27:53.35	337.17	23.02	-29.5	-30.2	27.9	0.00e+00	0	27	0	3495952384	32	5859
2026-01-14 02:27:54.36	337.18	22.88	-29.6	-30.1	27.9	0.00e+00	0	27	0	3501195264	32	5803
2026-01-14 02:27:55.37	337.19	22.73	-29.6	-30.1	27.9	0.00e+00	0	27	0	3507486720	32	5799
2026-01-14 02:27:56.38	337.20	22.58	-29.5	-30.0	27.9	0.00e+00	0	27	0	3512729600	32	5753
2026-01-14 02:27:57.39	337.21	22.44	-29.6	-30.1	27.9	0.00e+00	0	27	0	3517972480	32	5822
2026-01-14 02:27:58.40	337.22	22.29	-29.7	-30.2	27.8	0.00e+00	0	27	0	3524263936	32	5874
2026-01-14 02:27:59.41	337.23	22.15	-29.6	-30.2	27.8	0.00e+00	0	27	0	3529506816	32	5844
2026-01-14 02:28:00.42	337.24	22.01	-29.7	-30.2	27.8	0.00e+00	0	27	0	3535798272	32	5896
2026-01-14 02:28:01.43	337.25	21.86	-29.7	-30.2	27.9	0.00e+00	0	27	0	3541041152	32	5892
2026-01-14 02:28:02.44	337.26	21.72	-29.8	-30.3	27.8	0.00e+00	0	27	0	3547332608	32	5936
2026-01-14 02:28:03.45	337.27	21.58	-29.8	-30.4	27.7	0.00e+00	0	27	0	3552575488	32	5975
2026-01-14 02:28:04.46	337.28	21.44	-29.8	-30.3	27.8	0.00e+00	0	27	0	3558866944	32	5964
2026-01-14 02:28:05.47	337.29	21.30	-29.9	-30.5	27.6	0.00e+00	0	27	0	3564109824	32	6036
2026-01-14 02:28:06.48	337.30	21.16	-30.1	-30.6	27.5	0.00e+00	0	27	0	3569352704	32	6139
2026-01-14 02:28:07.49	337.31	21.03	-30.0	-30.5	27.5	0.00e+00	0	27	0	3575644160	32	6094
2026-01-14 02:28:08.50	337.32	20.89	-30.0	-30.5	27.5	0.00e+00	0	27	0	3580887040	32	6101
2026-01-14 02:28:09.51	337.33	20.75	-30.0	-30.5	27.6	0.00e+00	0	27	0	3587178496	32	6071
2026-01-14 02:28:10.52	337.34	20.62	-30.1	-30.6	27.5	0.00e+00	0	27	0	3592421376	32	6161
2026-01-14 02:28:11.53	337.35	20.48	-30.1	-30.7	27.4	0.00e+00	0	27	0	3597664256	32	6178
2026-01-14 02:28:12.54	337.36	20.35	-30.1	-30.6	27.5	0.00e+00	0	27	0	3603955712	32	6152
