passes_logs/2026/01/14/R4.6S_Anadyr/R4.6S_Anadyr__20260114_152403_NOAA_20_JPSS-1_rec.log

#Pass ID: 20260114_152403_NOAA 20 (JPSS-1)
#Satellite: NOAA 20 (JPSS-1)
#Configuration: NOAA 20
#almurnet v.1.7.20251203
#Start time: 2026-01-14 15:24:05

#Version: 2.2.20231116
#Station: R4.6S_Anadyr
#Location: 177.4865 lon 64.73178 lat
#TLE: 1 43013U 17073A   26013.84982170  .00000053  00000+0  46215-4 0  9999
#TLE: 2 43013  98.7633 314.8013 0001544  40.9009 319.2282 14.19535753422575

#Time	Az	El	Level	Level2	SNR	BER	BlckErr	Temp	State	Recorded	gain1	gain2
2026-01-14 15:24:05.15	22.18	0.10	-48.7	-63.6	3.5	1.51e+00	0	26	0	0	60	54898
2026-01-14 15:24:06.16	22.16	0.16	-48.7	-63.9	3.6	1.51e+00	0	27	104	0	60	56380
2026-01-14 15:24:07.17	22.15	0.22	-48.7	-63.9	3.6	1.51e+00	0	27	104	0	60	56415
2026-01-14 15:24:08.18	22.14	0.28	-48.7	-63.9	3.6	1.51e+00	0	27	104	0	60	56358
2026-01-14 15:24:09.19	22.12	0.34	-48.7	-63.9	3.6	1.51e+00	0	27	104	0	60	56905
2026-01-14 15:24:10.20	22.11	0.41	-48.8	-64.0	3.6	1.51e+00	0	27	104	0	60	57126
2026-01-14 15:24:11.21	22.09	0.47	-48.8	-63.9	3.6	1.51e+00	0	27	104	0	60	56930
2026-01-14 15:24:12.22	22.08	0.53	-48.8	-64.0	3.6	1.51e+00	0	27	104	0	60	57158
2026-01-14 15:24:13.23	22.06	0.59	-48.8	-64.0	3.6	1.51e+00	0	27	104	0	60	57327
2026-01-14 15:24:14.24	22.05	0.65	-48.9	-64.1	3.6	1.51e+00	0	27	104	0	60	57841
2026-01-14 15:24:15.25	22.03	0.71	-48.8	-64.0	3.6	1.51e+00	0	27	104	0	60	57222
2026-01-14 15:24:16.26	22.02	0.77	-48.8	-63.9	3.6	1.51e+00	0	27	104	0	60	56880
2026-01-14 15:24:17.27	22.00	0.83	-48.7	-63.9	3.6	1.51e+00	0	27	104	0	60	56610
2026-01-14 15:24:18.28	21.99	0.89	-48.6	-63.8	3.6	1.51e+00	0	27	104	0	60	55899
2026-01-14 15:24:19.29	21.97	0.96	-48.5	-63.7	3.6	1.51e+00	0	27	104	0	60	55451
2026-01-14 15:24:20.30	21.96	1.02	-48.4	-63.6	3.6	1.51e+00	0	27	104	0	60	54782
2026-01-14 15:24:21.31	21.94	1.08	-48.2	-63.4	3.6	1.51e+00	0	27	104	0	60	53412
2026-01-14 15:24:22.32	21.92	1.14	-48.0	-63.2	3.6	1.51e+00	0	28	104	0	60	52249
2026-01-14 15:24:23.33	21.91	1.20	-47.8	-63.0	3.6	1.51e+00	0	27	104	0	60	50935
2026-01-14 15:24:24.34	21.89	1.27	-47.5	-62.6	3.5	1.51e+00	0	27	104	0	60	48874
2026-01-14 15:24:25.34	21.88	1.33	-47.3	-62.4	3.6	1.51e+00	0	27	104	0	60	47772
2026-01-14 15:24:26.35	21.86	1.39	-47.2	-62.3	3.6	1.51e+00	0	28	104	0	60	47175
2026-01-14 15:24:27.36	21.85	1.45	-47.2	-62.2	3.6	1.51e+00	0	28	104	0	60	46685
2026-01-14 15:24:28.37	21.83	1.52	-47.2	-62.2	3.6	1.51e+00	0	28	104	0	60	46643
2026-01-14 15:24:29.38	21.81	1.58	-47.2	-62.1	3.6	1.51e+00	0	28	104	0	60	45909
2026-01-14 15:24:30.39	21.80	1.64	-47.2	-62.0	3.6	1.51e+00	0	28	104	0	60	45401
2026-01-14 15:24:31.40	21.78	1.71	-47.2	-61.9	3.6	1.51e+00	0	28	104	0	60	45203
2026-01-14 15:24:32.41	21.76	1.77	-47.2	-62.1	3.6	1.51e+00	0	28	104	0	60	46021
2026-01-14 15:24:33.42	21.75	1.83	-47.2	-62.0	3.6	1.51e+00	0	28	104	0	60	45614
2026-01-14 15:24:34.43	21.73	1.90	-47.2	-62.1	3.6	1.51e+00	0	28	104	0	60	46259
2026-01-14 15:24:35.44	21.71	1.96	-47.2	-62.3	3.6	1.51e+00	0	28	104	0	60	47155
2026-01-14 15:24:36.45	21.70	2.02	-47.2	-62.4	3.6	1.51e+00	0	28	104	0	60	47647
2026-01-14 15:24:37.46	21.68	2.09	-47.2	-62.4	3.6	1.51e+00	0	28	104	0	60	47598
2026-01-14 15:24:38.47	21.66	2.15	-47.2	-62.4	3.6	1.51e+00	0	28	104	0	60	47640
2026-01-14 15:24:39.48	21.65	2.22	-47.2	-62.3	3.6	1.51e+00	0	28	104	0	60	47149
2026-01-14 15:24:40.49	21.63	2.28	-47.2	-62.3	3.6	1.51e+00	0	28	104	0	60	46857
2026-01-14 15:24:41.50	21.61	2.35	-47.2	-62.1	3.6	1.51e+00	0	28	104	0	60	46065
2026-01-14 15:24:42.51	21.59	2.41	-47.2	-61.9	3.6	1.51e+00	0	28	104	0	60	44936
2026-01-14 15:24:43.52	21.58	2.47	-47.2	-61.6	3.6	1.51e+00	0	28	104	0	60	43264
2026-01-14 15:24:44.53	21.56	2.54	-47.2	-61.3	3.6	1.51e+00	0	28	104	0	60	41976
2026-01-14 15:24:45.54	21.54	2.61	-47.2	-60.9	3.6	1.51e+00	0	28	104	0	60	40220
2026-01-14 15:24:46.55	21.52	2.67	-47.2	-60.8	3.6	1.51e+00	0	28	104	0	60	39679
2026-01-14 15:24:47.56	21.51	2.74	-47.1	-60.8	3.6	1.51e+00	0	28	104	0	60	39827
2026-01-14 15:24:48.57	21.49	2.80	-47.2	-61.3	3.6	1.51e+00	0	28	104	0	60	42194
2026-01-14 15:24:49.58	21.47	2.87	-47.2	-61.5	3.6	1.51e+00	0	28	104	0	60	42949
2026-01-14 15:24:50.58	21.45	2.93	-47.2	-60.9	3.6	1.51e+00	0	28	104	0	60	40198
2026-01-14 15:24:51.59	21.43	3.00	-47.0	-58.1	3.8	1.49e+00	0	28	0	0	60	29158
2026-01-14 15:24:52.60	21.41	3.07	-46.8	-55.5	4.9	1.30e+00	0	28	0	1048576	60	21470
2026-01-14 15:24:53.61	21.40	3.13	-46.5	-53.4	7.1	2.49e-01	0	28	0	2097152	60	16880
2026-01-14 15:24:54.62	21.38	3.20	-46.0	-51.6	9.2	5.30e-02	38	28	0	4194304	60	13778
2026-01-14 15:24:55.63	21.36	3.26	-45.4	-49.8	11.3	7.68e-03	50	28	0	6291456	60	11209
2026-01-14 15:24:56.64	21.34	3.33	-44.7	-48.4	12.9	1.54e-04	92	28	0	8388608	60	9526
2026-01-14 15:24:57.65	21.32	3.40	-44.4	-47.8	13.5	1.37e-05	0	28	0	10485760	60	8875
2026-01-14 15:24:58.66	21.30	3.47	-44.1	-47.3	14.1	2.20e-06	91	28	0	11534336	60	8380
2026-01-14 15:24:59.67	21.28	3.53	-43.8	-46.7	14.6	7.00e-07	35	28	0	13631488	60	7860
2026-01-14 15:25:00.67	21.26	3.60	-43.7	-46.6	14.9	0.00e+00	36	28	0	15728640	60	7690
2026-01-14 15:25:01.68	21.24	3.67	-44.0	-47.0	14.4	7.00e-07	37	28	0	17825792	60	8084
2026-01-14 15:25:02.69	21.22	3.74	-44.2	-47.5	13.6	2.20e-06	29	28	0	19922944	60	8530
2026-01-14 15:25:03.70	21.20	3.80	-44.4	-47.7	12.6	2.36e-05	93	28	0	20971520	60	8820
2026-01-14 15:25:04.71	21.19	3.87	-41.2	-42.8	19.4	5.16e-03	30	28	0	23068672	58	5615
2026-01-14 15:25:05.71	21.17	3.94	-45.2	-49.8	5.8	0.00e+00	92	28	0	25165824	58	12512
2026-01-14 15:25:06.72	21.15	4.01	-43.9	-46.9	5.9	1.39e+00	47	28	104	25165824	60	7990
2026-01-14 15:25:07.73	21.13	4.08	-43.9	-46.9	13.3	8.08e-05	0	28	0	25165824	54	11328
2026-01-14 15:25:08.74	21.11	4.15	-43.6	-46.1	15.4	7.62e-01	0	28	0	26214400	60	7265
2026-01-14 15:25:09.75	21.09	4.21	-42.3	-44.3	17.2	0.00e+00	7	28	0	28311552	58	6640
2026-01-14 15:25:10.76	21.06	4.28	-41.3	-43.0	18.6	0.00e+00	17	28	0	30408704	56	6410
2026-01-14 15:25:11.76	21.04	4.35	-40.6	-42.2	19.3	0.00e+00	6	28	0	32505856	54	6540
2026-01-14 15:25:12.77	21.02	4.42	-40.3	-41.7	19.8	0.00e+00	90	28	0	34603008	54	6205
2026-01-14 15:25:13.78	21.00	4.49	-40.0	-41.3	20.1	0.00e+00	0	28	0	35651584	54	5956
2026-01-14 15:25:14.79	20.98	4.56	-40.3	-41.7	19.7	0.00e+00	57	28	0	37748736	54	6190
2026-01-14 15:25:15.80	20.96	4.63	-40.0	-41.4	20.1	0.00e+00	0	28	0	39845888	54	5995
2026-01-14 15:25:16.81	20.94	4.70	-40.0	-41.3	20.2	0.00e+00	0	28	0	41943040	54	5927
2026-01-14 15:25:17.82	20.92	4.77	-40.0	-41.4	20.1	0.00e+00	0	28	0	44040192	54	5982
2026-01-14 15:25:18.83	20.90	4.84	-39.9	-41.2	20.4	0.00e+00	58	28	0	45088768	54	5830
2026-01-14 15:25:19.84	20.88	4.91	-40.0	-41.4	20.1	0.00e+00	92	28	0	47185920	54	5975
2026-01-14 15:25:20.85	20.85	4.99	-39.9	-41.2	20.3	0.00e+00	23	28	0	49283072	54	5885
2026-01-14 15:25:21.86	20.83	5.06	-39.9	-41.2	20.4	0.00e+00	92	28	0	51380224	54	5891
2026-01-14 15:25:22.87	20.81	5.13	-39.8	-41.0	20.5	0.00e+00	24	28	0	53477376	52	6445
2026-01-14 15:25:23.87	20.79	5.20	-39.8	-41.1	20.5	0.00e+00	29	28	0	54525952	52	6495
2026-01-14 15:25:24.88	20.77	5.27	-39.6	-40.9	20.7	0.00e+00	0	28	0	56623104	52	6332
2026-01-14 15:25:25.89	20.75	5.34	-39.6	-40.8	20.8	0.00e+00	27	28	0	58720256	52	6308
2026-01-14 15:25:26.90	20.72	5.41	-39.7	-41.0	20.6	0.00e+00	91	28	0	60817408	52	6421
2026-01-14 15:25:27.91	20.70	5.49	-39.6	-40.8	20.8	0.00e+00	2	28	0	62914560	52	6315
2026-01-14 15:25:28.91	20.68	5.56	-39.6	-40.9	20.7	0.00e+00	92	28	0	63963136	52	6343
2026-01-14 15:25:29.92	20.66	5.63	-39.5	-40.7	21.0	0.00e+00	0	28	0	66060288	52	6212
2026-01-14 15:25:30.93	20.63	5.70	-39.5	-40.7	20.9	0.00e+00	0	28	0	68157440	52	6231
2026-01-14 15:25:31.94	20.61	5.78	-39.6	-40.8	20.9	0.00e+00	2	28	0	70254592	52	6256
2026-01-14 15:25:32.95	20.59	5.85	-39.6	-40.8	20.9	0.00e+00	0	28	0	72351744	52	6271
2026-01-14 15:25:33.96	20.56	5.92	-39.4	-40.6	21.1	0.00e+00	0	28	0	73400320	52	6134
2026-01-14 15:25:34.97	20.54	6.00	-39.3	-40.5	21.2	0.00e+00	58	28	0	75497472	52	6058
2026-01-14 15:25:35.98	20.52	6.07	-39.3	-40.5	21.1	0.00e+00	90	28	0	77594624	52	6067
2026-01-14 15:25:36.99	20.49	6.15	-39.3	-40.5	21.2	0.00e+00	56	28	0	79691776	52	6058
2026-01-14 15:25:38.00	20.47	6.22	-39.3	-40.4	21.2	0.00e+00	78	28	0	81788928	52	6030
2026-01-14 15:25:39.01	20.44	6.29	-39.3	-40.5	21.3	0.00e+00	0	28	0	82837504	52	6038
2026-01-14 15:25:40.02	20.42	6.37	-39.2	-40.4	21.3	0.00e+00	24	28	0	84934656	52	5993
2026-01-14 15:25:41.02	20.40	6.44	-39.1	-40.3	21.5	0.00e+00	48	28	0	87031808	52	5910
2026-01-14 15:25:42.03	20.37	6.52	-39.2	-40.4	21.4	0.00e+00	22	28	0	89128960	52	5985
2026-01-14 15:25:43.04	20.35	6.59	-39.2	-40.4	21.4	0.00e+00	92	28	0	91226112	52	5971
2026-01-14 15:25:44.05	20.32	6.67	-39.0	-40.1	21.6	0.00e+00	58	28	0	92274688	52	5804
2026-01-14 15:25:45.06	20.30	6.74	-39.1	-40.2	21.6	0.00e+00	92	28	0	94371840	52	5892
2026-01-14 15:25:46.07	20.27	6.82	-38.9	-40.0	21.8	0.00e+00	24	28	0	96468992	52	5740
2026-01-14 15:25:47.08	20.25	6.90	-38.8	-39.9	21.8	0.00e+00	0	28	0	98566144	52	5683
2026-01-14 15:25:48.09	20.22	6.97	-38.9	-39.9	21.8	0.00e+00	2	28	0	100663296	52	5694
2026-01-14 15:25:49.10	20.20	7.05	-38.9	-40.0	21.8	0.00e+00	2	28	0	101711872	52	5735
2026-01-14 15:25:50.11	20.17	7.13	-38.9	-40.0	21.7	0.00e+00	28	28	0	103809024	52	5756
2026-01-14 15:25:51.12	20.14	7.20	-38.9	-40.0	21.8	0.00e+00	2	28	0	105906176	52	5723
2026-01-14 15:25:52.13	20.12	7.28	-38.8	-39.9	21.9	0.00e+00	91	28	0	108003328	52	5649
2026-01-14 15:25:53.14	20.09	7.36	-38.8	-39.9	21.9	0.00e+00	2	28	0	110100480	52	5678
2026-01-14 15:25:54.15	20.07	7.44	-38.8	-39.9	21.9	0.00e+00	0	28	0	112197632	52	5680
2026-01-14 15:25:55.16	20.04	7.51	-38.7	-39.8	22.0	0.00e+00	0	28	0	113246208	50	6257
2026-01-14 15:25:56.17	20.01	7.59	-38.8	-39.8	21.9	0.00e+00	0	28	0	115343360	50	6310
2026-01-14 15:25:57.18	19.99	7.67	-38.7	-39.8	22.1	0.00e+00	0	28	0	117440512	50	6246
2026-01-14 15:25:58.19	19.96	7.75	-38.6	-39.6	22.1	0.00e+00	0	28	0	119537664	50	6172
2026-01-14 15:25:59.20	19.93	7.83	-38.6	-39.6	22.1	0.00e+00	92	28	0	121634816	50	6168
2026-01-14 15:26:00.21	19.90	7.91	-38.6	-39.6	22.1	0.00e+00	0	28	0	122683392	50	6167
2026-01-14 15:26:01.22	19.88	7.99	-38.4	-39.4	22.4	0.00e+00	78	28	0	124780544	50	6027
2026-01-14 15:26:02.23	19.85	8.07	-38.6	-39.6	22.3	0.00e+00	0	28	0	126877696	50	6125
2026-01-14 15:26:03.24	19.82	8.15	-38.6	-39.6	22.2	0.00e+00	0	28	0	128974848	50	6152
2026-01-14 15:26:04.25	19.79	8.23	-38.4	-39.4	22.5	0.00e+00	57	28	0	131072000	50	5983
2026-01-14 15:26:05.25	19.77	8.31	-38.4	-39.4	22.4	0.00e+00	22	28	0	132120576	50	6011
2026-01-14 15:26:06.26	19.74	8.39	-38.4	-39.4	22.4	0.00e+00	90	28	0	134217728	50	5998
2026-01-14 15:26:07.27	19.71	8.47	-38.5	-39.5	22.4	0.00e+00	22	28	0	136314880	50	6099
2026-01-14 15:26:08.28	19.68	8.55	-38.3	-39.3	22.5	0.00e+00	92	28	0	138412032	50	5914
2026-01-14 15:26:09.29	19.65	8.63	-38.3	-39.3	22.5	0.00e+00	2	28	0	140509184	50	5954
2026-01-14 15:26:10.30	19.62	8.71	-38.1	-39.1	22.7	0.00e+00	0	28	0	141557760	50	5814
2026-01-14 15:26:11.31	19.59	8.79	-38.3	-39.3	22.5	0.00e+00	0	28	0	143654912	50	5940
2026-01-14 15:26:12.32	19.56	8.88	-38.2	-39.1	22.7	0.00e+00	2	28	0	145752064	50	5820
2026-01-14 15:26:13.33	19.53	8.96	-38.2	-39.2	22.7	0.00e+00	91	28	0	147849216	50	5857
2026-01-14 15:26:14.34	19.50	9.04	-38.1	-39.1	22.7	0.00e+00	0	28	0	149946368	50	5805
2026-01-14 15:26:15.34	19.47	9.12	-38.2	-39.2	22.7	0.00e+00	92	28	0	150994944	50	5846
2026-01-14 15:26:16.35	19.44	9.21	-38.1	-39.1	22.8	0.00e+00	0	28	0	153092096	50	5767
2026-01-14 15:26:17.36	19.41	9.29	-38.1	-39.1	22.9	0.00e+00	0	28	0	155189248	50	5762
2026-01-14 15:26:18.37	19.38	9.37	-38.0	-39.0	22.9	0.00e+00	0	28	0	157286400	50	5708
2026-01-14 15:26:19.38	19.35	9.46	-37.9	-38.9	23.0	0.00e+00	0	28	0	159383552	50	5651
2026-01-14 15:26:20.39	19.32	9.54	-37.9	-38.9	23.0	0.00e+00	0	28	0	160432128	50	5654
2026-01-14 15:26:21.40	19.29	9.63	-37.9	-38.8	23.0	0.00e+00	59	28	0	162529280	50	5604
2026-01-14 15:26:22.41	19.26	9.71	-37.8	-38.8	23.1	0.00e+00	92	28	0	164626432	50	5596
2026-01-14 15:26:23.42	19.23	9.80	-37.8	-38.8	23.2	0.00e+00	51	28	0	166723584	50	5570
2026-01-14 15:26:24.43	19.19	9.88	-37.8	-38.7	23.1	0.00e+00	92	28	0	168820736	48	6220
2026-01-14 15:26:25.44	19.16	9.97	-37.9	-38.8	23.1	0.00e+00	29	28	0	169869312	48	6289
2026-01-14 15:26:26.45	19.13	10.06	-37.7	-38.7	23.2	0.00e+00	2	28	0	171966464	48	6187
2026-01-14 15:26:27.46	19.10	10.14	-37.9	-38.8	23.1	0.00e+00	2	28	0	174063616	48	6294
2026-01-14 15:26:28.47	19.06	10.23	-37.7	-38.6	23.3	0.00e+00	27	28	0	176160768	48	6131
2026-01-14 15:26:29.47	19.03	10.31	-37.8	-38.7	23.2	0.00e+00	92	28	0	178257920	48	6224
2026-01-14 15:26:30.48	19.00	10.40	-37.8	-38.8	23.2	0.00e+00	23	28	0	180355072	48	6264
2026-01-14 15:26:31.49	18.97	10.49	-37.8	-38.8	23.0	0.00e+00	91	28	0	181403648	48	6252
2026-01-14 15:26:32.50	18.93	10.58	-37.6	-38.5	23.4	0.00e+00	6	28	0	183500800	48	6103
2026-01-14 15:26:33.51	18.90	10.66	-37.4	-38.4	23.5	0.00e+00	6	28	0	185597952	48	5969
2026-01-14 15:26:34.52	18.86	10.75	-37.5	-38.4	23.4	0.00e+00	0	28	0	187695104	48	6008
2026-01-14 15:26:35.53	18.83	10.84	-37.4	-38.3	23.5	0.00e+00	0	28	0	189792256	48	5948
2026-01-14 15:26:36.54	18.79	10.93	-37.6	-38.5	23.4	0.00e+00	92	28	0	190840832	48	6044
2026-01-14 15:26:37.55	18.76	11.02	-37.4	-38.3	23.5	0.00e+00	0	28	0	192937984	48	5942
2026-01-14 15:26:38.55	18.73	11.11	-37.5	-38.4	23.5	0.00e+00	92	28	0	195035136	48	6012
2026-01-14 15:26:39.56	18.69	11.20	-37.6	-38.5	23.5	0.00e+00	0	28	0	197132288	48	6061
2026-01-14 15:26:40.57	18.65	11.29	-37.3	-38.2	23.7	0.00e+00	12	28	0	199229440	48	5868
2026-01-14 15:26:41.58	18.62	11.38	-37.4	-38.3	23.5	0.00e+00	0	28	0	200278016	48	5948
2026-01-14 15:26:42.59	18.58	11.47	-37.3	-38.2	23.6	0.00e+00	59	28	0	202375168	48	5872
2026-01-14 15:26:43.60	18.55	11.56	-37.4	-38.3	23.5	0.00e+00	0	28	0	204472320	48	5955
2026-01-14 15:26:44.61	18.51	11.65	-37.5	-38.4	23.5	0.00e+00	0	28	0	206569472	48	5971
2026-01-14 15:26:45.62	18.47	11.75	-37.2	-38.1	23.7	0.00e+00	92	28	0	208666624	48	5815
2026-01-14 15:26:46.63	18.44	11.84	-37.3	-38.2	23.7	0.00e+00	28	28	0	209715200	48	5840
2026-01-14 15:26:47.64	18.40	11.93	-37.3	-38.1	23.8	0.00e+00	92	28	0	211812352	48	5815
2026-01-14 15:26:48.65	18.36	12.02	-37.3	-38.2	23.8	0.00e+00	33	28	0	213909504	48	5844
2026-01-14 15:26:49.66	18.32	12.12	-37.2	-38.1	23.8	0.00e+00	6	28	0	216006656	48	5780
2026-01-14 15:26:50.67	18.29	12.21	-37.2	-38.0	23.9	0.00e+00	26	28	0	218103808	48	5754
2026-01-14 15:26:51.67	18.25	12.30	-37.2	-38.1	23.8	0.00e+00	29	28	0	219152384	48	5779
2026-01-14 15:26:52.68	18.21	12.40	-37.3	-38.2	23.7	0.00e+00	90	28	0	221249536	48	5876
2026-01-14 15:26:53.69	18.17	12.49	-37.1	-38.0	23.8	0.00e+00	35	28	0	223346688	48	5732
2026-01-14 15:26:54.70	18.13	12.59	-37.3	-38.2	23.6	0.00e+00	91	28	0	225443840	48	5859
2026-01-14 15:26:55.71	18.09	12.68	-37.2	-38.1	23.8	0.00e+00	6	28	0	227540992	48	5780
2026-01-14 15:26:56.72	18.05	12.78	-37.2	-38.0	23.9	0.00e+00	0	28	0	228589568	48	5741
2026-01-14 15:26:57.73	18.01	12.87	-37.2	-38.1	23.8	0.00e+00	0	28	0	230686720	48	5800
2026-01-14 15:26:58.74	17.97	12.97	-37.4	-38.2	23.7	0.00e+00	0	28	0	232783872	48	5893
2026-01-14 15:26:59.74	17.93	13.07	-37.1	-38.0	23.9	0.00e+00	0	28	0	234881024	48	5727
2026-01-14 15:27:00.75	17.89	13.16	-37.3	-38.2	23.8	0.00e+00	7	28	0	236978176	48	5851
2026-01-14 15:27:01.76	17.85	13.26	-37.1	-38.0	23.9	0.00e+00	92	28	0	238026752	48	5713
2026-01-14 15:27:02.77	17.81	13.36	-37.2	-38.1	23.8	0.00e+00	0	28	0	240123904	48	5787
2026-01-14 15:27:03.78	17.77	13.46	-37.2	-38.1	23.8	0.00e+00	22	28	0	242221056	48	5794
2026-01-14 15:27:04.79	17.72	13.56	-37.1	-38.0	24.0	0.00e+00	56	28	0	244318208	48	5735
2026-01-14 15:27:05.79	17.68	13.65	-37.1	-38.0	23.9	0.00e+00	0	28	0	246415360	48	5726
2026-01-14 15:27:06.80	17.64	13.75	-37.1	-37.9	24.0	0.00e+00	0	28	0	247463936	48	5679
2026-01-14 15:27:07.81	17.60	13.85	-37.0	-37.9	24.0	0.00e+00	0	28	0	249561088	48	5648
2026-01-14 15:27:08.82	17.55	13.95	-37.1	-37.9	24.1	0.00e+00	92	28	0	251658240	48	5671
2026-01-14 15:27:09.83	17.51	14.05	-37.1	-38.0	24.0	0.00e+00	60	28	0	253755392	48	5697
2026-01-14 15:27:10.84	17.47	14.16	-37.1	-37.9	24.0	0.00e+00	92	28	0	255852544	48	5684
2026-01-14 15:27:11.85	17.42	14.26	-37.0	-37.9	24.1	0.00e+00	55	28	0	256901120	48	5641
2026-01-14 15:27:12.86	17.38	14.36	-37.1	-38.0	24.0	0.00e+00	56	28	0	258998272	48	5703
2026-01-14 15:27:13.87	17.33	14.46	-36.9	-37.8	24.2	0.00e+00	26	28	0	261095424	48	5583
2026-01-14 15:27:14.88	17.29	14.56	-37.0	-37.8	24.2	0.00e+00	20	28	0	263192576	48	5622
2026-01-14 15:27:15.88	17.24	14.67	-36.9	-37.8	24.2	0.00e+00	56	28	0	265289728	48	5579
2026-01-14 15:27:16.89	17.19	14.77	-37.1	-37.9	24.1	0.00e+00	2	28	0	266338304	48	5677
2026-01-14 15:27:17.91	17.15	14.87	-36.9	-37.7	24.2	0.00e+00	92	28	0	268435456	48	5549
2026-01-14 15:27:18.91	17.10	14.98	-36.9	-37.8	24.2	0.00e+00	22	28	0	270532608	48	5585
2026-01-14 15:27:19.92	17.05	15.08	-36.9	-37.8	24.2	0.00e+00	0	28	0	272629760	48	5574
2026-01-14 15:27:20.93	17.01	15.19	-36.9	-37.8	24.2	0.00e+00	0	28	0	274726912	48	5588
2026-01-14 15:27:21.94	16.96	15.29	-37.0	-37.9	24.1	0.00e+00	0	28	0	276824064	48	5652
2026-01-14 15:27:22.95	16.91	15.40	-36.9	-37.8	24.2	0.00e+00	0	28	0	277872640	48	5587
2026-01-14 15:27:23.95	16.86	15.51	-37.0	-37.9	24.2	0.00e+00	0	28	0	279969792	48	5650
2026-01-14 15:27:24.96	16.81	15.61	-37.0	-37.9	24.1	0.00e+00	90	28	0	282066944	48	5649
2026-01-14 15:27:25.97	16.77	15.72	-36.9	-37.7	24.2	0.00e+00	0	28	0	284164096	48	5566
2026-01-14 15:27:26.98	16.72	15.83	-36.8	-37.6	24.3	0.00e+00	92	28	0	286261248	48	5495
2026-01-14 15:27:27.99	16.67	15.94	-36.9	-37.7	24.3	0.00e+00	57	28	0	287309824	48	5532
2026-01-14 15:27:29.00	16.62	16.04	-36.8	-37.6	24.3	0.00e+00	55	28	0	289406976	48	5495
2026-01-14 15:27:30.01	16.56	16.15	-36.8	-37.6	24.4	0.00e+00	0	29	0	291504128	48	5500
2026-01-14 15:27:31.02	16.51	16.26	-36.8	-37.6	24.4	0.00e+00	4	28	0	293601280	46	6140
2026-01-14 15:27:32.02	16.46	16.37	-36.9	-37.7	24.2	0.00e+00	92	28	0	295698432	46	6210
2026-01-14 15:27:33.04	16.41	16.48	-36.8	-37.7	24.4	0.00e+00	20	28	0	296747008	46	6193
2026-01-14 15:27:34.04	16.36	16.59	-36.8	-37.6	24.4	0.00e+00	92	28	0	298844160	46	6124
2026-01-14 15:27:35.05	16.30	16.71	-36.8	-37.7	24.3	0.00e+00	21	28	0	300941312	46	6180
2026-01-14 15:27:36.06	16.25	16.82	-36.9	-37.7	24.3	0.00e+00	24	28	0	303038464	46	6215
2026-01-14 15:27:37.07	16.20	16.93	-36.9	-37.8	24.3	0.00e+00	0	28	0	305135616	46	6259
2026-01-14 15:27:38.08	16.14	17.04	-36.9	-37.7	24.3	0.00e+00	24	28	0	306184192	46	6234
2026-01-14 15:27:39.09	16.09	17.16	-36.8	-37.6	24.4	0.00e+00	76	28	0	308281344	46	6160
2026-01-14 15:27:40.10	16.03	17.27	-36.9	-37.8	24.4	0.00e+00	22	29	0	310378496	46	6280
2026-01-14 15:27:41.11	15.98	17.39	-36.9	-37.7	24.3	0.00e+00	92	28	0	312475648	46	6234
2026-01-14 15:27:42.12	15.92	17.50	-36.9	-37.8	24.3	0.00e+00	0	28	0	314572800	46	6263
2026-01-14 15:27:43.13	15.87	17.62	-36.8	-37.7	24.4	0.00e+00	88	28	0	315621376	46	6195
2026-01-14 15:27:44.14	15.81	17.73	-36.8	-37.6	24.4	0.00e+00	0	28	0	317718528	46	6168
2026-01-14 15:27:45.15	15.75	17.85	-36.8	-37.6	24.5	0.00e+00	0	28	0	319815680	46	6129
2026-01-14 15:27:46.16	15.69	17.97	-36.9	-37.7	24.4	0.00e+00	0	28	0	321912832	46	6208
2026-01-14 15:27:47.17	15.64	18.08	-36.8	-37.7	24.4	0.00e+00	0	28	0	324009984	46	6175
2026-01-14 15:27:48.18	15.58	18.20	-36.8	-37.6	24.3	0.00e+00	92	28	0	325058560	46	6160
2026-01-14 15:27:49.18	15.52	18.32	-36.9	-37.8	24.3	0.00e+00	0	28	0	327155712	46	6249
2026-01-14 15:27:50.19	15.46	18.44	-36.8	-37.6	24.4	0.00e+00	92	28	0	329252864	46	6136
2026-01-14 15:27:51.20	15.40	18.56	-36.8	-37.6	24.4	0.00e+00	0	28	0	331350016	46	6156
2026-01-14 15:27:52.21	15.34	18.68	-36.8	-37.6	24.4	0.00e+00	58	28	0	333447168	46	6134
2026-01-14 15:27:53.22	15.28	18.80	-36.8	-37.6	24.4	0.00e+00	45	28	0	334495744	46	6128
2026-01-14 15:27:54.23	15.21	18.92	-36.7	-37.5	24.4	0.00e+00	0	28	0	336592896	46	6103
2026-01-14 15:27:55.24	15.15	19.04	-36.8	-37.7	24.4	0.00e+00	92	28	0	338690048	46	6199
2026-01-14 15:27:56.25	15.09	19.17	-36.7	-37.6	24.3	0.00e+00	18	28	0	340787200	46	6128
2026-01-14 15:27:57.26	15.03	19.29	-36.9	-37.7	24.3	0.00e+00	92	28	0	342884352	46	6238
2026-01-14 15:27:58.27	14.96	19.41	-36.9	-37.7	24.4	0.00e+00	17	28	0	343932928	46	6197
2026-01-14 15:27:59.27	14.90	19.54	-36.7	-37.5	24.5	0.00e+00	0	28	0	346030080	46	6099
2026-01-14 15:28:00.28	14.83	19.66	-36.8	-37.6	24.5	0.00e+00	23	28	0	348127232	46	6153
2026-01-14 15:28:01.29	14.77	19.79	-36.8	-37.6	24.5	0.00e+00	26	28	0	350224384	46	6144
2026-01-14 15:28:02.30	14.70	19.91	-36.8	-37.6	24.5	0.00e+00	2	28	0	352321536	46	6139
2026-01-14 15:28:03.31	14.63	20.04	-36.7	-37.5	24.6	0.00e+00	0	28	0	353370112	46	6091
2026-01-14 15:28:04.32	14.57	20.17	-36.6	-37.4	24.5	0.00e+00	92	28	0	355467264	46	6028
2026-01-14 15:28:05.33	14.50	20.30	-36.7	-37.5	24.6	0.00e+00	0	28	0	357564416	46	6045
2026-01-14 15:28:06.34	14.43	20.42	-36.8	-37.6	24.6	0.00e+00	0	28	0	359661568	46	6134
2026-01-14 15:28:07.35	14.36	20.55	-36.6	-37.4	24.7	0.00e+00	2	28	0	361758720	46	5976
2026-01-14 15:28:08.35	14.29	20.68	-36.7	-37.6	24.5	0.00e+00	0	28	0	362807296	46	6107
2026-01-14 15:28:09.36	14.22	20.81	-36.5	-37.3	24.8	0.00e+00	2	28	0	364904448	46	5937
2026-01-14 15:28:10.37	14.15	20.94	-36.6	-37.4	24.7	0.00e+00	0	28	0	367001600	46	5974
2026-01-14 15:28:11.38	14.08	21.07	-36.4	-37.2	24.8	0.00e+00	92	28	0	369098752	46	5890
2026-01-14 15:28:12.39	14.01	21.21	-36.4	-37.2	24.8	0.00e+00	60	28	0	371195904	46	5890
2026-01-14 15:28:13.40	13.93	21.34	-36.4	-37.2	24.8	0.00e+00	92	28	0	373293056	46	5833
2026-01-14 15:28:14.41	13.86	21.47	-36.4	-37.2	24.8	0.00e+00	0	28	0	374341632	46	5852
2026-01-14 15:28:15.42	13.79	21.61	-36.6	-37.4	24.7	0.00e+00	0	28	0	376438784	46	5967
2026-01-14 15:28:16.42	13.71	21.74	-36.4	-37.2	24.8	0.00e+00	26	28	0	378535936	46	5875
2026-01-14 15:28:17.43	13.64	21.88	-36.5	-37.3	24.8	0.00e+00	27	28	0	380633088	46	5925
2026-01-14 15:28:18.44	13.56	22.01	-36.5	-37.3	24.8	0.00e+00	92	28	0	382730240	46	5898
2026-01-14 15:28:19.45	13.48	22.15	-36.5	-37.3	24.8	0.00e+00	0	28	0	383778816	46	5909
2026-01-14 15:28:20.46	13.40	22.29	-36.5	-37.3	24.7	0.00e+00	92	28	0	385875968	46	5950
2026-01-14 15:28:21.47	13.33	22.43	-36.5	-37.3	24.8	0.00e+00	6	28	0	387973120	46	5961
2026-01-14 15:28:22.48	13.25	22.56	-36.6	-37.4	24.8	0.00e+00	6	28	0	390070272	46	5968
2026-01-14 15:28:23.49	13.17	22.70	-36.8	-37.6	24.5	0.00e+00	6	28	0	392167424	46	6166
2026-01-14 15:28:24.50	13.09	22.84	-36.8	-37.6	24.5	0.00e+00	24	28	0	393216000	46	6159
2026-01-14 15:28:25.51	13.00	22.99	-36.8	-37.7	24.4	0.00e+00	81	28	0	395313152	46	6177
2026-01-14 15:28:26.52	12.92	23.13	-36.8	-37.6	24.6	0.00e+00	7	28	0	397410304	46	6148
2026-01-14 15:28:27.53	12.84	23.27	-36.9	-37.8	24.4	0.00e+00	92	28	0	399507456	46	6247
2026-01-14 15:28:28.54	12.75	23.41	-37.0	-37.8	24.4	0.00e+00	0	28	0	401604608	46	6289
2026-01-14 15:28:29.55	12.67	23.56	-36.9	-37.8	24.4	0.00e+00	13	28	0	402653184	46	6257
2026-01-14 15:28:30.55	12.58	23.70	-37.0	-37.9	24.2	0.00e+00	0	28	0	404750336	46	6345
2026-01-14 15:28:31.57	12.50	23.85	-37.1	-37.9	24.0	0.00e+00	0	28	0	406847488	46	6375
2026-01-14 15:28:32.58	12.41	23.99	-37.1	-37.9	24.1	0.00e+00	0	28	0	408944640	46	6359
2026-01-14 15:28:33.58	12.32	24.14	-37.2	-38.0	24.2	0.00e+00	0	28	0	411041792	46	6436
2026-01-14 15:28:34.59	12.23	24.29	-37.2	-38.1	24.1	0.00e+00	92	28	0	412090368	46	6493
2026-01-14 15:28:35.60	12.14	24.44	-37.2	-38.1	24.1	0.00e+00	0	28	0	414187520	46	6484
2026-01-14 15:28:36.61	12.05	24.58	-37.3	-38.1	24.1	0.00e+00	90	28	0	416284672	46	6531
2026-01-14 15:28:37.62	11.96	24.73	-37.2	-38.1	24.3	0.00e+00	63	28	0	418381824	46	6466
2026-01-14 15:28:38.63	11.87	24.89	-37.4	-38.3	24.0	0.00e+00	62	28	0	420478976	46	6627
2026-01-14 15:28:39.64	11.78	25.04	-37.4	-38.3	24.0	0.00e+00	57	28	0	421527552	46	6647
2026-01-14 15:28:40.65	11.68	25.19	-37.5	-38.4	23.9	0.00e+00	28	28	0	423624704	46	6751
2026-01-14 15:28:41.66	11.59	25.34	-37.6	-38.5	23.8	0.00e+00	91	28	0	425721856	46	6805
2026-01-14 15:28:42.67	11.49	25.50	-37.7	-38.6	23.8	0.00e+00	62	28	0	427819008	46	6890
2026-01-14 15:28:43.67	11.39	25.65	-37.9	-38.8	23.6	0.00e+00	92	28	0	429916160	48	6255
2026-01-14 15:28:44.69	11.29	25.81	-38.0	-38.9	23.5	0.00e+00	6	28	0	430964736	48	6332
2026-01-14 15:28:45.69	11.20	25.96	-38.0	-38.9	23.4	0.00e+00	23	28	0	433061888	48	6375
2026-01-14 15:28:46.70	11.10	26.12	-38.3	-39.2	23.2	0.00e+00	5	28	0	435159040	48	6582
2026-01-14 15:28:47.71	10.99	26.28	-38.4	-39.3	23.1	0.00e+00	31	28	0	437256192	48	6667
2026-01-14 15:28:48.72	10.89	26.44	-38.6	-39.6	22.8	0.00e+00	0	28	0	439353344	48	6889
2026-01-14 15:28:49.73	10.79	26.59	-38.9	-39.9	22.6	0.00e+00	7	28	0	441450496	50	6342
2026-01-14 15:28:50.74	10.68	26.76	-38.8	-39.8	22.7	0.00e+00	92	28	0	442499072	50	6292
2026-01-14 15:28:51.74	10.58	26.91	-39.1	-40.1	22.4	0.00e+00	0	28	0	444596224	50	6482
2026-01-14 15:28:52.75	10.47	27.08	-39.1	-40.1	22.4	0.00e+00	92	28	0	446693376	50	6500
2026-01-14 15:28:53.76	10.37	27.24	-39.3	-40.3	22.2	0.00e+00	6	28	0	448790528	50	6670
2026-01-14 15:28:54.77	10.26	27.40	-39.3	-40.4	22.2	0.00e+00	0	28	0	450887680	50	6716
2026-01-14 15:28:55.78	10.15	27.57	-39.4	-40.4	22.2	0.00e+00	0	28	0	451936256	50	6754
2026-01-14 15:28:56.79	10.03	27.73	-39.5	-40.5	22.0	0.00e+00	60	28	0	454033408	50	6838
2026-01-14 15:28:57.80	9.92	27.90	-39.7	-40.8	21.9	0.00e+00	92	28	0	456130560	52	6265
2026-01-14 15:28:58.81	9.81	28.07	-39.8	-40.9	21.8	0.00e+00	0	28	0	458227712	52	6322
2026-01-14 15:28:59.82	9.69	28.24	-39.8	-40.9	21.8	0.00e+00	92	28	0	460324864	52	6373
2026-01-14 15:29:00.83	9.58	28.41	-39.8	-40.9	21.8	0.00e+00	17	28	0	461373440	52	6372
2026-01-14 15:29:01.84	9.46	28.58	-40.1	-41.2	21.5	0.00e+00	16	28	0	463470592	52	6595
2026-01-14 15:29:02.85	9.34	28.75	-40.0	-41.2	21.5	0.00e+00	65	28	0	465567744	52	6575
2026-01-14 15:29:03.86	9.22	28.92	-40.0	-41.1	21.5	0.00e+00	22	28	0	467664896	52	6531
2026-01-14 15:29:04.87	9.10	29.09	-40.0	-41.1	21.6	0.00e+00	91	28	0	469762048	52	6495
2026-01-14 15:29:05.88	8.98	29.26	-40.0	-41.1	21.6	0.00e+00	20	28	0	470810624	52	6534
2026-01-14 15:29:06.89	8.85	29.44	-40.0	-41.1	21.6	0.00e+00	92	28	0	472907776	52	6522
2026-01-14 15:29:07.90	8.73	29.62	-40.2	-41.3	21.4	0.00e+00	0	28	0	475004928	52	6675
2026-01-14 15:29:08.90	8.60	29.79	-40.1	-41.2	21.5	0.00e+00	0	28	0	477102080	52	6567
2026-01-14 15:29:09.91	8.47	29.97	-40.3	-41.5	21.3	0.00e+00	0	28	0	479199232	52	6779
2026-01-14 15:29:10.92	8.34	30.15	-40.2	-41.4	21.3	0.00e+00	0	28	0	480247808	52	6735
2026-01-14 15:29:11.93	8.21	30.32	-40.1	-41.2	21.5	0.00e+00	0	28	0	482344960	52	6573
2026-01-14 15:29:12.94	8.08	30.51	-40.3	-41.5	21.2	0.00e+00	0	28	0	484442112	52	6784
2026-01-14 15:29:13.95	7.94	30.69	-40.3	-41.5	21.2	0.00e+00	90	28	0	486539264	52	6819
2026-01-14 15:29:14.96	7.81	30.87	-40.3	-41.4	21.3	0.00e+00	2	28	0	488636416	52	6763
2026-01-14 15:29:15.97	7.67	31.05	-40.4	-41.5	21.2	0.00e+00	90	28	0	489684992	52	6838
2026-01-14 15:29:16.98	7.53	31.24	-40.3	-41.4	21.2	0.00e+00	0	28	0	491782144	52	6767
2026-01-14 15:29:17.99	7.39	31.42	-40.6	-41.8	21.0	0.00e+00	64	28	0	493879296	52	7033
2026-01-14 15:29:19.00	7.25	31.61	-40.4	-41.6	21.1	0.00e+00	0	28	0	495976448	52	6900
2026-01-14 15:29:20.01	7.10	31.79	-40.3	-41.5	21.1	0.00e+00	64	28	0	498073600	52	6816
2026-01-14 15:29:21.02	6.96	31.98	-40.4	-41.6	21.0	0.00e+00	92	28	0	499122176	52	6883
2026-01-14 15:29:22.03	6.81	32.17	-40.4	-41.6	21.2	0.00e+00	18	28	0	501219328	52	6874
2026-01-14 15:29:23.03	6.66	32.36	-40.5	-41.7	21.0	0.00e+00	92	28	0	503316480	52	6943
2026-01-14 15:29:24.04	6.51	32.55	-40.1	-41.3	21.5	0.00e+00	18	28	0	505413632	52	6638
2026-01-14 15:29:25.05	6.36	32.74	-40.1	-41.2	21.5	0.00e+00	64	28	0	507510784	52	6615
2026-01-14 15:29:26.06	6.20	32.93	-40.1	-41.3	21.5	0.00e+00	16	28	0	508559360	52	6635
2026-01-14 15:29:27.07	6.05	33.13	-40.1	-41.2	21.5	0.00e+00	17	28	0	510656512	52	6571
2026-01-14 15:29:28.08	5.89	33.32	-40.2	-41.4	21.3	0.00e+00	92	28	0	512753664	52	6717
2026-01-14 15:29:29.09	5.73	33.52	-40.4	-41.6	21.1	0.00e+00	0	28	0	514850816	52	6855
2026-01-14 15:29:30.10	5.56	33.72	-40.5	-41.7	21.0	0.00e+00	90	28	0	516947968	52	6999
2026-01-14 15:29:31.11	5.40	33.91	-40.6	-41.9	20.8	0.00e+00	0	28	0	517996544	52	7090
2026-01-14 15:29:32.12	5.23	34.11	-40.5	-41.7	21.0	0.00e+00	0	28	0	520093696	52	6996
2026-01-14 15:29:33.13	5.06	34.31	-40.3	-41.5	21.1	0.00e+00	0	28	0	522190848	52	6826
2026-01-14 15:29:34.14	4.89	34.51	-40.3	-41.5	21.2	0.00e+00	0	28	0	524288000	52	6814
2026-01-14 15:29:35.15	4.72	34.72	-40.4	-41.6	21.1	0.00e+00	0	28	0	526385152	52	6919
2026-01-14 15:29:36.16	4.54	34.92	-40.4	-41.6	21.2	0.00e+00	0	28	0	527433728	52	6860
2026-01-14 15:29:37.17	4.37	35.12	-40.4	-41.6	21.1	0.00e+00	92	28	0	529530880	52	6889
2026-01-14 15:29:38.18	4.19	35.33	-40.5	-41.7	21.0	0.00e+00	0	28	0	531628032	52	6990
2026-01-14 15:29:39.19	4.00	35.53	-40.4	-41.6	21.0	0.00e+00	53	28	0	533725184	52	6923
2026-01-14 15:29:40.20	3.82	35.74	-40.7	-41.9	20.7	0.00e+00	0	28	0	535822336	52	7160
2026-01-14 15:29:41.21	3.63	35.95	-40.6	-41.9	20.9	0.00e+00	0	28	0	537919488	54	6353
2026-01-14 15:29:42.22	3.44	36.16	-40.7	-42.0	20.8	0.00e+00	43	28	0	538968064	54	6412
2026-01-14 15:29:43.22	3.25	36.36	-40.6	-41.8	20.9	0.00e+00	17	28	0	541065216	54	6303
2026-01-14 15:29:44.23	3.06	36.57	-40.4	-41.6	21.1	0.00e+00	92	28	0	543162368	54	6142
2026-01-14 15:29:45.24	2.86	36.79	-40.2	-41.4	21.3	0.00e+00	59	28	0	545259520	54	6024
2026-01-14 15:29:46.25	2.66	37.00	-40.1	-41.3	21.4	0.00e+00	92	28	0	547356672	54	5934
2026-01-14 15:29:47.26	2.46	37.21	-40.3	-41.5	20.6	0.00e+00	0	28	0	548405248	54	6085
2026-01-14 15:29:48.27	2.25	37.43	-40.3	-41.4	21.1	0.00e+00	2	29	0	550502400	54	6017
2026-01-14 15:29:49.27	2.05	37.64	-40.2	-41.4	21.3	0.00e+00	17	29	0	552599552	54	5997
2026-01-14 15:29:50.28	1.84	37.86	-40.6	-41.8	20.8	0.00e+00	15	29	0	554696704	54	6316
2026-01-14 15:29:51.29	1.62	38.08	-40.3	-41.4	21.3	0.00e+00	93	29	0	556793856	54	6026
2026-01-14 15:29:52.30	1.41	38.29	-40.1	-41.2	21.5	0.00e+00	0	28	0	557842432	54	5892
2026-01-14 15:29:53.31	1.19	38.51	-40.1	-41.3	21.4	0.00e+00	92	28	0	559939584	54	5900
2026-01-14 15:29:54.32	0.96	38.73	-40.0	-41.2	21.6	0.00e+00	0	28	0	562036736	54	5869
2026-01-14 15:29:55.33	0.74	38.96	-39.8	-40.9	21.8	0.00e+00	0	28	0	564133888	54	5662
2026-01-14 15:29:56.34	0.51	39.18	-40.0	-41.1	21.5	0.00e+00	0	28	0	566231040	54	5811
2026-01-14 15:29:57.35	0.28	39.40	-40.1	-41.2	21.5	0.00e+00	0	28	0	567279616	54	5883
2026-01-14 15:29:58.36	0.04	39.63	-40.3	-41.5	21.2	0.00e+00	0	28	0	569376768	54	6065
2026-01-14 15:29:59.37	359.80	39.85	-40.3	-41.5	21.2	0.00e+00	0	29	0	571473920	54	6081
2026-01-14 15:30:00.38	359.56	40.08	-40.2	-41.4	21.3	0.00e+00	92	28	0	573571072	54	5983
2026-01-14 15:30:01.38	359.32	40.30	-40.4	-41.6	21.2	0.00e+00	0	29	0	575668224	54	6110
2026-01-14 15:30:02.39	359.07	40.53	-40.6	-41.9	20.9	0.00e+00	90	28	0	576716800	54	6355
2026-01-14 15:30:03.40	358.82	40.76	-40.2	-41.4	21.3	0.00e+00	2	28	0	578813952	54	6008
2026-01-14 15:30:04.41	358.56	40.99	-40.3	-41.5	21.2	0.00e+00	0	28	0	580911104	54	6094
2026-01-14 15:30:05.42	358.30	41.22	-40.3	-41.5	21.1	0.00e+00	57	28	0	583008256	54	6096
2026-01-14 15:30:06.43	358.04	41.45	-40.4	-41.6	21.2	0.00e+00	18	28	0	585105408	54	6139
2026-01-14 15:30:07.44	357.77	41.68	-40.1	-41.3	21.4	0.00e+00	81	28	0	586153984	54	5909
2026-01-14 15:30:08.45	357.50	41.91	-40.4	-41.6	21.1	0.00e+00	63	28	0	588251136	54	6159
2026-01-14 15:30:09.46	357.23	42.14	-40.6	-41.8	20.8	0.00e+00	92	28	0	590348288	54	6292
2026-01-14 15:30:10.47	356.95	42.38	-40.6	-41.9	20.8	0.00e+00	0	28	0	592445440	54	6321
2026-01-14 15:30:11.48	356.66	42.61	-40.7	-42.0	20.8	0.00e+00	6	28	0	594542592	54	6419
2026-01-14 15:30:12.49	356.37	42.85	-40.6	-41.9	20.9	0.00e+00	7	28	0	596639744	54	6334
2026-01-14 15:30:13.50	356.08	43.08	-40.6	-41.9	21.1	0.00e+00	20	28	0	597688320	54	6321
2026-01-14 15:30:14.50	355.79	43.32	-40.1	-41.3	21.4	0.00e+00	86	28	0	599785472	54	5907
2026-01-14 15:30:15.51	355.49	43.55	-39.9	-41.0	21.8	0.00e+00	18	28	0	601882624	54	5719
2026-01-14 15:30:16.52	355.18	43.79	-39.0	-40.0	22.6	0.00e+00	92	28	0	603979776	52	5744
2026-01-14 15:30:17.53	354.87	44.03	-38.7	-39.7	22.8	0.00e+00	5	28	0	606076928	50	6188
2026-01-14 15:30:18.54	354.56	44.27	-38.9	-39.9	22.6	0.00e+00	0	28	0	607125504	50	6339
2026-01-14 15:30:19.55	354.24	44.51	-38.8	-39.8	22.6	0.00e+00	0	28	0	609222656	50	6274
2026-01-14 15:30:20.56	353.91	44.75	-39.0	-40.0	22.6	0.00e+00	5	28	0	611319808	50	6407
2026-01-14 15:30:21.57	353.59	44.99	-39.0	-40.0	22.7	0.00e+00	0	28	0	613416960	50	6424
2026-01-14 15:30:22.58	353.25	45.23	-38.9	-39.9	22.7	0.00e+00	0	28	0	615514112	50	6322
2026-01-14 15:30:23.59	352.91	45.47	-39.1	-40.1	22.5	0.00e+00	92	28	0	616562688	50	6518
2026-01-14 15:30:24.60	352.57	45.71	-39.4	-40.5	22.1	0.00e+00	0	28	0	618659840	50	6783
2026-01-14 15:30:25.61	352.22	45.95	-39.7	-40.8	21.8	0.00e+00	92	28	0	620756992	50	7034
2026-01-14 15:30:26.62	351.86	46.19	-39.9	-41.1	21.7	0.00e+00	27	28	0	622854144	52	6472
2026-01-14 15:30:27.63	351.50	46.43	-39.7	-40.8	21.6	0.00e+00	58	28	0	624951296	52	6311
2026-01-14 15:30:28.64	351.13	46.67	-40.0	-41.1	21.6	0.00e+00	28	28	0	625999872	52	6531
2026-01-14 15:30:29.65	350.76	46.91	-40.1	-41.2	21.5	0.00e+00	63	28	0	628097024	52	6580
2026-01-14 15:30:30.66	350.38	47.16	-40.3	-41.5	21.2	0.00e+00	92	28	0	630194176	52	6811
2026-01-14 15:30:31.67	350.00	47.40	-40.4	-41.6	21.1	0.00e+00	7	28	0	632291328	52	6894
2026-01-14 15:30:32.68	349.61	47.64	-40.2	-41.3	21.4	0.00e+00	91	28	0	634388480	52	6664
2026-01-14 15:30:33.69	349.21	47.88	-40.0	-41.1	21.8	0.00e+00	7	28	0	635437056	52	6504
2026-01-14 15:30:34.70	348.81	48.12	-39.4	-40.5	22.4	0.00e+00	6	28	0	637534208	52	6049
2026-01-14 15:30:35.71	348.40	48.36	-39.3	-40.3	22.4	0.00e+00	6	28	0	639631360	52	5956
2026-01-14 15:30:36.71	347.99	48.60	-39.1	-40.2	22.6	0.00e+00	22	28	0	641728512	52	5838
2026-01-14 15:30:37.72	347.56	48.84	-39.2	-40.2	22.4	0.00e+00	90	28	0	643825664	52	5858
2026-01-14 15:30:38.74	347.13	49.08	-39.3	-40.3	22.3	0.00e+00	0	28	0	644874240	52	5951
2026-01-14 15:30:39.75	346.69	49.32	-39.0	-40.0	22.5	0.00e+00	91	28	0	646971392	52	5760
2026-01-14 15:30:40.75	346.26	49.56	-39.1	-40.1	22.6	0.00e+00	0	28	0	649068544	52	5795
2026-01-14 15:30:41.77	345.80	49.80	-39.2	-40.2	22.4	0.00e+00	0	28	0	651165696	52	5871
2026-01-14 15:30:42.78	345.34	50.04	-39.4	-40.4	22.2	0.00e+00	64	28	0	653262848	52	6016
2026-01-14 15:30:43.78	344.88	50.27	-39.1	-40.1	22.5	0.00e+00	0	28	0	654311424	52	5809
2026-01-14 15:30:44.79	344.41	50.51	-38.9	-39.9	22.8	0.00e+00	0	28	0	656408576	52	5643
2026-01-14 15:30:45.80	343.93	50.75	-38.7	-39.6	23.0	0.00e+00	0	28	0	658505728	50	6159
2026-01-14 15:30:46.81	343.45	50.98	-38.7	-39.7	22.9	0.00e+00	90	29	0	660602880	50	6175
2026-01-14 15:30:47.82	342.95	51.21	-38.0	-38.9	23.6	0.00e+00	64	28	0	662700032	50	5640
2026-01-14 15:30:48.83	342.45	51.45	-37.8	-38.7	23.7	0.00e+00	91	28	0	663748608	48	6193
2026-01-14 15:30:49.84	341.94	51.68	-37.6	-38.4	23.7	0.00e+00	65	29	0	665845760	48	6015
2026-01-14 15:30:50.85	341.42	51.91	-37.7	-38.6	23.7	0.00e+00	15	29	0	667942912	48	6158
2026-01-14 15:30:51.86	340.89	52.14	-37.8	-38.7	23.9	0.00e+00	16	28	0	670040064	48	6225
2026-01-14 15:30:52.87	340.36	52.36	-37.0	-37.8	24.5	0.00e+00	2	29	0	672137216	48	5624
2026-01-14 15:30:53.88	339.82	52.59	-36.8	-37.6	24.7	0.00e+00	92	28	0	674234368	48	5464
2026-01-14 15:30:54.88	339.27	52.81	-36.8	-37.6	24.7	0.00e+00	2	28	0	675282944	46	6143
2026-01-14 15:30:55.89	338.71	53.03	-37.0	-37.8	24.5	0.00e+00	91	28	0	677380096	46	6299
2026-01-14 15:30:56.90	338.14	53.25	-36.9	-37.7	24.4	0.00e+00	0	28	0	679477248	46	6196
2026-01-14 15:30:57.91	337.57	53.47	-36.8	-37.6	24.8	0.00e+00	2	28	0	681574400	46	6165
2026-01-14 15:30:58.92	336.98	53.69	-36.2	-37.0	25.0	0.00e+00	0	28	0	683671552	46	5732
2026-01-14 15:30:59.93	336.39	53.90	-36.1	-36.9	25.3	0.00e+00	0	28	0	684720128	46	5632
2026-01-14 15:31:00.94	335.78	54.11	-36.1	-36.9	25.1	0.00e+00	0	28	0	686817280	46	5666
2026-01-14 15:31:01.95	335.17	54.32	-36.4	-37.2	25.0	0.00e+00	0	28	0	688914432	46	5838
2026-01-14 15:31:02.96	334.55	54.53	-36.7	-37.6	24.7	0.00e+00	92	28	0	691011584	46	6115
2026-01-14 15:31:03.97	333.92	54.73	-37.1	-37.9	24.3	0.00e+00	67	28	0	693108736	46	6390
2026-01-14 15:31:04.98	333.28	54.93	-37.2	-38.1	24.3	0.00e+00	64	28	0	694157312	46	6488
2026-01-14 15:31:05.99	332.63	55.13	-37.2	-38.1	24.2	0.00e+00	65	28	0	696254464	46	6522
2026-01-14 15:31:07.00	331.97	55.32	-37.3	-38.2	24.2	0.00e+00	0	28	0	698351616	46	6582
2026-01-14 15:31:08.00	331.31	55.52	-37.1	-37.9	24.4	0.00e+00	0	29	0	700448768	46	6384
2026-01-14 15:31:09.01	330.64	55.70	-37.0	-37.9	24.4	0.00e+00	65	28	0	702545920	46	6368
2026-01-14 15:31:10.02	329.95	55.89	-37.4	-38.3	24.1	0.00e+00	92	28	0	703594496	46	6623
2026-01-14 15:31:11.03	329.26	56.07	-37.9	-38.9	23.6	0.00e+00	58	29	0	705691648	48	6320
2026-01-14 15:31:12.04	328.56	56.25	-38.6	-39.6	21.9	0.00e+00	92	28	0	707788800	48	6895
2026-01-14 15:31:13.05	327.84	56.43	-39.2	-40.3	22.4	0.00e+00	64	28	0	709885952	50	6649
2026-01-14 15:31:14.06	327.12	56.60	-39.1	-40.1	22.4	0.00e+00	15	28	0	711983104	50	6538
2026-01-14 15:31:15.06	326.40	56.76	-39.2	-40.3	22.3	0.00e+00	3	28	0	713031680	50	6647
2026-01-14 15:31:16.07	325.66	56.93	-39.1	-40.1	22.5	0.00e+00	17	28	0	715128832	50	6533
2026-01-14 15:31:17.08	324.91	57.09	-39.0	-40.0	22.6	0.00e+00	91	28	0	717225984	50	6432
2026-01-14 15:31:18.09	324.16	57.24	-38.7	-39.7	22.9	0.00e+00	14	28	0	719323136	50	6227
2026-01-14 15:31:19.10	323.39	57.39	-38.7	-39.7	22.8	0.00e+00	90	28	0	721420288	50	6179
2026-01-14 15:31:20.11	322.62	57.54	-38.5	-39.5	23.0	0.00e+00	0	28	0	722468864	50	6065
2026-01-14 15:31:21.12	321.84	57.68	-38.8	-39.9	22.7	0.00e+00	35	28	0	724566016	50	6319
2026-01-14 15:31:22.13	321.05	57.81	-39.4	-40.5	22.2	0.00e+00	0	28	0	726663168	50	6775
2026-01-14 15:31:23.14	320.25	57.95	-39.3	-40.3	22.2	0.00e+00	0	28	0	728760320	50	6678
2026-01-14 15:31:24.15	319.44	58.07	-39.3	-40.4	22.3	0.00e+00	20	28	0	730857472	50	6709
2026-01-14 15:31:25.15	318.64	58.19	-39.3	-40.4	22.2	0.00e+00	0	28	0	731906048	50	6718
2026-01-14 15:31:26.16	317.82	58.31	-39.4	-40.5	22.1	0.00e+00	90	28	0	734003200	50	6847
2026-01-14 15:31:27.17	316.99	58.42	-39.1	-40.2	22.4	0.00e+00	61	28	0	736100352	50	6584
2026-01-14 15:31:28.18	316.16	58.52	-39.1	-40.2	22.3	0.00e+00	92	28	0	738197504	50	6568
2026-01-14 15:31:29.19	315.32	58.62	-39.0	-40.0	22.7	0.00e+00	0	28	0	740294656	50	6440
2026-01-14 15:31:30.20	314.47	58.72	-38.5	-39.5	23.1	0.00e+00	0	28	0	741343232	50	6046
2026-01-14 15:31:31.21	313.62	58.81	-38.3	-39.3	23.1	0.00e+00	0	28	0	743440384	50	5920
2026-01-14 15:31:32.21	312.77	58.89	-38.7	-39.7	22.8	0.00e+00	65	28	0	745537536	50	6187
2026-01-14 15:31:33.22	311.90	58.97	-38.6	-39.7	22.9	0.00e+00	92	28	0	747634688	50	6174
2026-01-14 15:31:34.23	311.04	59.04	-38.1	-39.1	23.4	0.00e+00	14	28	0	749731840	50	5789
2026-01-14 15:31:35.24	310.16	59.10	-37.7	-38.6	23.9	0.00e+00	92	28	0	750780416	48	6116
2026-01-14 15:31:36.25	309.29	59.16	-37.4	-38.3	24.0	0.00e+00	66	28	0	752877568	48	5928
2026-01-14 15:31:37.26	308.40	59.21	-37.7	-38.7	23.7	0.00e+00	65	28	0	754974720	48	6181
2026-01-14 15:31:38.27	307.52	59.26	-37.9	-38.8	23.6	0.00e+00	0	28	0	757071872	48	6295
2026-01-14 15:31:39.28	306.63	59.30	-37.9	-38.8	23.6	0.00e+00	0	28	0	759169024	48	6273
2026-01-14 15:31:40.29	305.74	59.33	-37.4	-38.3	24.1	0.00e+00	90	28	0	761266176	48	5897
2026-01-14 15:31:41.30	304.85	59.36	-37.0	-37.8	24.5	0.00e+00	2	28	0	762314752	48	5630
2026-01-14 15:31:42.31	303.96	59.38	-36.9	-37.8	24.6	0.00e+00	92	28	0	764411904	48	5573
2026-01-14 15:31:43.31	303.07	59.40	-36.7	-37.5	24.7	0.00e+00	14	28	0	766509056	46	6081
2026-01-14 15:31:44.32	302.18	59.41	-36.7	-37.5	24.8	0.00e+00	31	28	0	768606208	46	6090
2026-01-14 15:31:45.33	301.28	59.41	-36.6	-37.5	25.0	0.00e+00	0	28	0	770703360	46	6035
2026-01-14 15:31:46.34	300.38	59.40	-36.6	-37.4	24.9	0.00e+00	0	28	0	771751936	46	5988
2026-01-14 15:31:47.35	299.49	59.39	-36.1	-36.9	24.5	0.00e+00	0	28	0	773849088	46	5634
2026-01-14 15:31:48.36	298.59	59.38	-36.3	-37.1	25.0	0.00e+00	0	28	0	775946240	46	5773
2026-01-14 15:31:49.37	297.70	59.35	-36.3	-37.1	24.9	0.00e+00	92	28	0	778043392	46	5827
2026-01-14 15:31:50.38	296.81	59.32	-36.2	-37.1	25.1	0.00e+00	63	28	0	780140544	46	5767
2026-01-14 15:31:51.38	295.93	59.29	-36.2	-37.0	25.1	0.00e+00	92	28	0	781189120	46	5747
2026-01-14 15:31:52.40	295.03	59.24	-36.3	-37.1	25.0	0.00e+00	0	28	0	783286272	46	5820
2026-01-14 15:31:53.40	294.16	59.20	-36.2	-37.0	25.1	0.00e+00	0	28	0	785383424	46	5740
2026-01-14 15:31:54.42	293.27	59.14	-36.1	-36.9	25.2	0.00e+00	0	28	0	787480576	46	5681
2026-01-14 15:31:55.43	292.39	59.08	-36.1	-36.9	25.3	0.00e+00	0	28	0	789577728	46	5657
2026-01-14 15:31:56.44	291.52	59.01	-35.9	-36.6	25.5	0.00e+00	92	28	0	790626304	46	5480
2026-01-14 15:31:57.45	290.66	58.94	-35.6	-36.4	25.7	0.00e+00	22	28	0	792723456	44	5977
2026-01-14 15:31:58.46	289.79	58.86	-35.6	-36.4	25.6	0.00e+00	92	28	0	794820608	44	5968
2026-01-14 15:31:59.46	288.94	58.78	-35.6	-36.3	25.6	0.00e+00	59	28	0	796917760	44	5960
2026-01-14 15:32:00.47	288.09	58.69	-35.7	-36.5	25.6	0.00e+00	6	28	0	799014912	44	6074
2026-01-14 15:32:01.48	287.25	58.59	-36.1	-36.9	25.3	0.00e+00	6	28	0	800063488	44	6327
2026-01-14 15:32:02.49	286.41	58.49	-36.2	-37.0	25.2	0.00e+00	0	28	0	802160640	44	6393
2026-01-14 15:32:03.50	285.58	58.38	-36.2	-37.0	25.2	0.00e+00	13	28	0	804257792	44	6446
2026-01-14 15:32:04.51	284.75	58.27	-36.5	-37.3	24.9	0.00e+00	16	28	0	806354944	44	6654
2026-01-14 15:32:05.52	283.93	58.15	-36.7	-37.5	24.8	0.00e+00	91	28	0	808452096	44	6802
2026-01-14 15:32:06.53	283.12	58.03	-36.9	-37.7	24.6	0.00e+00	7	28	0	809500672	46	6204
2026-01-14 15:32:07.54	282.32	57.90	-37.1	-37.9	24.4	0.00e+00	92	29	0	811597824	46	6389
2026-01-14 15:32:08.55	281.52	57.76	-37.1	-38.0	24.4	0.00e+00	6	29	0	813694976	46	6401
2026-01-14 15:32:09.56	280.74	57.63	-37.0	-37.8	24.4	0.00e+00	5	28	0	815792128	46	6316
2026-01-14 15:32:10.56	279.96	57.49	-37.1	-38.0	24.3	0.00e+00	6	28	0	817889280	46	6398
2026-01-14 15:32:11.57	279.19	57.34	-36.8	-37.6	24.7	0.00e+00	0	28	0	818937856	46	6150
2026-01-14 15:32:12.58	278.43	57.19	-37.0	-37.8	24.5	0.00e+00	91	28	0	821035008	46	6287
2026-01-14 15:32:13.59	277.67	57.03	-37.3	-38.2	24.1	0.00e+00	0	28	0	823132160	46	6566
2026-01-14 15:32:14.60	276.93	56.87	-37.8	-38.7	23.7	0.00e+00	91	28	0	825229312	46	6960
2026-01-14 15:32:15.61	276.19	56.70	-38.0	-38.9	23.5	0.00e+00	63	28	0	827326464	48	6372
2026-01-14 15:32:16.62	275.46	56.53	-37.8	-38.7	23.8	0.00e+00	63	28	0	829423616	48	6200
2026-01-14 15:32:17.62	274.75	56.36	-37.5	-38.4	24.0	0.00e+00	0	28	0	830472192	48	5992
2026-01-14 15:32:18.63	274.04	56.19	-37.1	-38.0	24.4	0.00e+00	21	28	0	832569344	48	5713
2026-01-14 15:32:19.64	273.34	56.01	-37.0	-37.9	24.5	0.00e+00	92	28	0	834666496	48	5636
2026-01-14 15:32:20.65	272.65	55.82	-36.7	-37.5	24.7	0.00e+00	23	28	0	836763648	46	6094
2026-01-14 15:32:21.66	271.97	55.64	-36.5	-37.3	24.9	0.00e+00	91	28	0	837812224	46	5962
2026-01-14 15:32:22.67	271.29	55.44	-36.7	-37.6	24.8	0.00e+00	22	28	0	839909376	46	6110
2026-01-14 15:32:23.68	270.63	55.25	-36.7	-37.5	24.8	0.00e+00	10	28	0	842006528	46	6060
2026-01-14 15:32:24.69	269.97	55.05	-36.4	-37.2	25.0	0.00e+00	5	28	0	844103680	46	5891
2026-01-14 15:32:25.70	269.33	54.85	-36.5	-37.3	25.1	0.00e+00	0	28	0	846200832	46	5915
2026-01-14 15:32:26.71	268.69	54.65	-36.5	-37.3	24.9	0.00e+00	92	28	0	847249408	46	5952
2026-01-14 15:32:27.72	268.06	54.45	-36.5	-37.3	24.9	0.00e+00	7	28	0	849346560	46	5925
2026-01-14 15:32:28.72	267.45	54.24	-36.1	-36.9	25.3	0.00e+00	92	28	0	851443712	46	5658
2026-01-14 15:32:29.73	266.84	54.03	-35.9	-36.7	25.3	0.00e+00	6	28	0	853540864	46	5509
2026-01-14 15:32:30.74	266.24	53.82	-35.7	-36.5	25.7	0.00e+00	91	28	0	855638016	44	6036
2026-01-14 15:32:31.75	265.65	53.60	-35.8	-36.5	25.6	0.00e+00	0	28	0	857735168	44	6093
2026-01-14 15:32:32.76	265.06	53.39	-36.4	-37.2	24.6	0.00e+00	6	28	0	858783744	44	6581
2026-01-14 15:32:33.77	264.49	53.17	-37.2	-38.1	24.3	0.00e+00	0	28	0	860880896	46	6473
2026-01-14 15:32:34.77	263.93	52.95	-37.3	-38.2	24.1	0.00e+00	64	28	0	862978048	46	6555
2026-01-14 15:32:35.78	263.37	52.72	-37.5	-38.3	24.1	0.00e+00	90	28	0	865075200	46	6678
2026-01-14 15:32:36.79	262.82	52.50	-37.4	-38.2	24.2	0.00e+00	57	28	0	867172352	46	6611
2026-01-14 15:32:37.80	262.28	52.27	-37.2	-38.1	24.3	0.00e+00	92	28	0	868220928	46	6470
2026-01-14 15:32:38.81	261.75	52.05	-37.9	-38.8	23.7	0.00e+00	0	28	0	870318080	48	6306
2026-01-14 15:32:39.82	261.23	51.82	-38.7	-39.7	22.8	0.00e+00	63	28	0	872415232	48	6952
2026-01-14 15:32:40.83	260.71	51.59	-38.9	-39.9	22.7	0.00e+00	65	28	0	874512384	50	6358
2026-01-14 15:32:41.84	260.20	51.35	-38.6	-39.6	23.1	0.00e+00	18	28	0	876609536	50	6120
2026-01-14 15:32:42.85	259.70	51.12	-38.3	-39.3	23.2	0.00e+00	92	28	0	877658112	50	5909
2026-01-14 15:32:43.86	259.21	50.89	-38.6	-39.5	23.0	0.00e+00	18	28	0	879755264	50	6091
2026-01-14 15:32:44.87	258.72	50.65	-39.4	-40.4	22.4	0.00e+00	92	28	0	881852416	50	6718
2026-01-14 15:32:45.87	258.25	50.42	-39.8	-40.8	22.0	0.00e+00	17	28	0	883949568	50	7081
2026-01-14 15:32:46.88	257.78	50.18	-40.2	-41.3	21.4	0.00e+00	92	28	0	886046720	52	6681
2026-01-14 15:32:47.90	257.31	49.94	-40.4	-41.6	21.0	0.00e+00	17	28	0	887095296	52	6927
2026-01-14 15:32:48.90	256.86	49.70	-40.7	-42.0	20.9	0.00e+00	0	28	0	889192448	54	6397
2026-01-14 15:32:49.91	256.41	49.46	-40.6	-41.9	21.0	0.00e+00	71	28	0	891289600	54	6327
2026-01-14 15:32:50.92	255.97	49.22	-40.8	-42.1	20.8	0.00e+00	0	28	0	893386752	54	6507
2026-01-14 15:32:51.93	255.54	48.98	-41.0	-42.3	20.6	0.00e+00	92	28	0	895483904	54	6662
2026-01-14 15:32:52.94	255.11	48.74	-41.2	-42.6	20.3	0.00e+00	2	28	0	896532480	54	6868
2026-01-14 15:32:53.95	254.69	48.50	-40.8	-42.1	20.6	0.00e+00	92	28	0	898629632	54	6493
2026-01-14 15:32:54.96	254.28	48.26	-40.7	-42.0	20.9	0.00e+00	0	28	0	900726784	54	6391
2026-01-14 15:32:55.97	253.87	48.02	-40.9	-42.1	20.7	0.00e+00	0	28	0	902823936	54	6515
2026-01-14 15:32:56.98	253.47	47.77	-41.0	-42.3	20.5	0.00e+00	0	28	0	904921088	54	6684
2026-01-14 15:32:57.99	253.07	47.53	-41.1	-42.4	20.4	0.00e+00	59	28	0	905969664	54	6724
2026-01-14 15:32:59.00	252.68	47.29	-41.3	-42.7	20.2	0.00e+00	91	28	0	908066816	54	6971
2026-01-14 15:33:00.01	252.30	47.05	-41.6	-43.0	19.9	0.00e+00	57	28	0	910163968	54	7239
2026-01-14 15:33:01.02	251.92	46.80	-41.7	-43.1	19.9	0.00e+00	91	28	0	912261120	56	6511
2026-01-14 15:33:02.03	251.55	46.56	-41.3	-42.6	20.4	0.00e+00	62	28	0	914358272	56	6150
2026-01-14 15:33:03.04	251.19	46.32	-40.9	-42.2	20.7	0.00e+00	62	28	0	915406848	56	5883
2026-01-14 15:33:04.05	250.83	46.08	-40.5	-41.7	21.1	0.00e+00	63	28	0	917504000	54	6228
2026-01-14 15:33:05.06	250.47	45.84	-40.3	-41.5	21.4	0.00e+00	17	28	0	919601152	54	6062
2026-01-14 15:33:06.07	250.12	45.59	-39.8	-40.8	21.9	0.00e+00	92	28	0	921698304	54	5616
2026-01-14 15:33:07.08	249.78	45.35	-39.7	-40.8	22.1	0.00e+00	0	28	0	923795456	52	6260
2026-01-14 15:33:08.09	249.44	45.11	-39.7	-40.8	22.0	0.00e+00	92	28	0	925892608	52	6263
2026-01-14 15:33:09.10	249.11	44.87	-39.8	-40.9	21.9	0.00e+00	0	28	0	926941184	52	6385
2026-01-14 15:33:10.10	248.78	44.63	-39.8	-40.9	21.8	0.00e+00	71	28	0	929038336	52	6333
2026-01-14 15:33:11.11	248.46	44.39	-40.0	-41.1	21.8	0.00e+00	2	28	0	931135488	52	6491
2026-01-14 15:33:12.12	248.14	44.15	-40.0	-41.1	21.6	0.00e+00	0	28	0	933232640	52	6490
2026-01-14 15:33:13.13	247.83	43.91	-39.6	-40.6	22.1	0.00e+00	15	28	0	935329792	52	6167
2026-01-14 15:33:14.14	247.52	43.68	-39.5	-40.6	22.2	0.00e+00	2	28	0	936378368	52	6127
2026-01-14 15:33:15.15	247.21	43.44	-39.9	-41.0	21.8	0.00e+00	92	28	0	938475520	52	6398
2026-01-14 15:33:16.16	246.91	43.20	-40.2	-41.3	21.6	0.00e+00	2	28	0	940572672	52	6647
2026-01-14 15:33:17.17	246.62	42.96	-40.1	-41.2	21.6	0.00e+00	92	28	0	942669824	52	6615
2026-01-14 15:33:18.18	246.33	42.73	-39.8	-40.9	21.9	0.00e+00	0	28	0	944766976	52	6319
2026-01-14 15:33:19.19	246.04	42.49	-39.7	-40.8	22.0	0.00e+00	0	28	0	945815552	52	6282
2026-01-14 15:33:20.20	245.76	42.26	-39.9	-40.9	21.9	0.00e+00	0	28	0	947912704	52	6375
2026-01-14 15:33:21.21	245.48	42.02	-40.0	-41.0	21.7	0.00e+00	0	28	0	950009856	52	6460
2026-01-14 15:33:22.22	245.20	41.79	-39.8	-40.8	21.9	0.00e+00	92	28	0	952107008	52	6291
2026-01-14 15:33:23.23	244.93	41.56	-39.9	-41.0	21.8	0.00e+00	0	28	0	954204160	52	6403
2026-01-14 15:33:24.24	244.67	41.33	-40.0	-41.1	21.8	0.00e+00	92	29	0	955252736	52	6468
2026-01-14 15:33:25.25	244.40	41.09	-40.3	-41.5	21.4	0.00e+00	23	28	0	957349888	52	6775
2026-01-14 15:33:26.26	244.15	40.86	-40.4	-41.5	21.3	0.00e+00	72	28	0	959447040	52	6837
2026-01-14 15:33:27.26	243.89	40.64	-40.9	-42.1	20.8	0.00e+00	57	28	0	961544192	52	7289
2026-01-14 15:33:28.27	243.64	40.41	-40.6	-41.8	21.0	0.00e+00	23	28	0	963641344	54	6260
2026-01-14 15:33:29.28	243.39	40.18	-40.6	-41.8	21.0	0.00e+00	92	28	0	964689920	54	6300
2026-01-14 15:33:30.29	243.15	39.95	-40.7	-41.9	21.0	0.00e+00	0	28	0	966787072	54	6382
2026-01-14 15:33:31.30	242.91	39.73	-40.8	-42.1	20.8	0.00e+00	92	29	0	968884224	54	6479
2026-01-14 15:33:32.31	242.67	39.50	-40.8	-42.0	20.5	0.00e+00	0	28	0	970981376	54	6422
2026-01-14 15:33:33.32	242.43	39.28	-41.1	-42.4	20.5	0.00e+00	69	28	0	973078528	54	6744
2026-01-14 15:33:34.33	242.20	39.05	-41.4	-42.8	20.2	0.00e+00	0	28	0	974127104	54	7022
2026-01-14 15:33:35.34	241.98	38.83	-41.3	-42.7	20.2	0.00e+00	0	28	0	976224256	54	6930
2026-01-14 15:33:36.35	241.75	38.61	-41.1	-42.3	20.6	0.00e+00	12	29	0	978321408	54	6687
2026-01-14 15:33:37.36	241.53	38.39	-40.9	-42.1	20.7	0.00e+00	0	28	0	980418560	54	6532
2026-01-14 15:33:38.36	241.31	38.17	-40.8	-42.0	20.8	0.00e+00	90	28	0	982515712	54	6448
2026-01-14 15:33:39.37	241.10	37.95	-40.7	-41.9	21.0	0.00e+00	0	28	0	983564288	54	6372
2026-01-14 15:33:40.38	240.88	37.73	-40.8	-42.0	20.9	0.00e+00	92	28	0	985661440	54	6434
2026-01-14 15:33:41.39	240.67	37.52	-40.6	-41.8	21.1	0.00e+00	61	28	0	987758592	54	6281
2026-01-14 15:33:42.40	240.46	37.30	-40.6	-41.9	21.1	0.00e+00	0	28	0	989855744	54	6322
2026-01-14 15:33:43.41	240.26	37.09	-40.3	-41.5	21.4	0.00e+00	0	28	0	991952896	54	6077
2026-01-14 15:33:44.42	240.06	36.87	-40.4	-41.6	21.2	0.00e+00	62	28	0	993001472	54	6137
2026-01-14 15:33:45.43	239.86	36.66	-40.3	-41.4	21.3	0.00e+00	92	28	0	995098624	54	6015
2026-01-14 15:33:46.44	239.66	36.45	-40.4	-41.6	21.2	0.00e+00	0	29	0	997195776	54	6115
2026-01-14 15:33:47.45	239.47	36.24	-40.4	-41.6	21.3	0.00e+00	88	28	0	999292928	54	6123
2026-01-14 15:33:48.46	239.28	36.02	-40.6	-41.8	21.1	0.00e+00	59	28	0	1001390080	54	6250
2026-01-14 15:33:49.46	239.09	35.82	-40.6	-41.8	21.1	0.00e+00	27	28	0	1002438656	54	6262
2026-01-14 15:33:50.47	238.90	35.61	-40.6	-41.8	21.0	0.00e+00	21	28	0	1004535808	54	6298
2026-01-14 15:33:51.48	238.72	35.40	-40.5	-41.7	21.1	0.00e+00	20	28	0	1006632960	54	6189
2026-01-14 15:33:52.49	238.54	35.20	-40.7	-41.9	21.0	0.00e+00	21	28	0	1008730112	54	6326
2026-01-14 15:33:53.50	238.36	34.99	-40.5	-41.7	21.1	0.00e+00	6	28	0	1010827264	54	6217
2026-01-14 15:33:54.51	238.18	34.79	-40.7	-41.9	20.9	0.00e+00	92	28	0	1011875840	54	6380
2026-01-14 15:33:55.52	238.00	34.58	-40.7	-41.9	20.9	0.00e+00	5	28	0	1013972992	54	6371
2026-01-14 15:33:56.53	237.83	34.38	-40.9	-42.2	20.6	0.00e+00	90	28	0	1016070144	54	6551
2026-01-14 15:33:57.54	237.66	34.18	-40.9	-42.2	20.7	0.00e+00	0	28	0	1018167296	54	6598
2026-01-14 15:33:58.55	237.49	33.98	-41.1	-42.3	20.5	0.00e+00	9	28	0	1020264448	54	6692
2026-01-14 15:33:59.56	237.33	33.78	-40.8	-42.0	20.8	0.00e+00	0	28	0	1021313024	54	6429
2026-01-14 15:34:00.57	237.16	33.58	-40.8	-42.1	20.7	0.00e+00	57	28	0	1023410176	54	6483
2026-01-14 15:34:01.58	237.00	33.39	-40.8	-42.1	20.7	0.00e+00	92	28	0	1025507328	54	6474
2026-01-14 15:34:02.58	236.84	33.19	-40.9	-42.2	20.6	0.00e+00	55	28	0	1027604480	54	6584
2026-01-14 15:34:03.59	236.68	33.00	-40.9	-42.2	20.6	0.00e+00	91	28	0	1029701632	54	6569
2026-01-14 15:34:04.60	236.52	32.80	-41.0	-42.2	20.6	0.00e+00	0	28	0	1031798784	54	6599
2026-01-14 15:34:05.61	236.37	32.61	-40.8	-42.0	20.7	0.00e+00	61	28	0	1032847360	54	6442
2026-01-14 15:34:06.62	236.22	32.42	-40.6	-41.7	21.0	0.00e+00	44	28	0	1034944512	54	6243
2026-01-14 15:34:07.63	236.07	32.23	-40.5	-41.7	21.1	0.00e+00	27	28	0	1037041664	54	6199
2026-01-14 15:34:08.63	235.92	32.04	-40.5	-41.7	21.1	0.00e+00	92	28	0	1039138816	54	6225
2026-01-14 15:34:09.64	235.77	31.85	-40.1	-41.2	21.5	0.00e+00	0	28	0	1041235968	54	5880
2026-01-14 15:34:10.65	235.62	31.66	-40.2	-41.3	21.5	0.00e+00	92	28	0	1042284544	54	5925
2026-01-14 15:34:11.65	235.48	31.48	-40.0	-41.0	21.7	0.00e+00	56	28	0	1044381696	54	5759
2026-01-14 15:34:12.66	235.34	31.29	-39.9	-41.0	21.7	0.00e+00	27	28	0	1046478848	54	5726
2026-01-14 15:34:13.67	235.20	31.10	-40.0	-41.1	21.7	0.00e+00	5	28	0	1048576000	54	5777
2026-01-14 15:34:14.68	235.06	30.92	-39.7	-40.8	21.9	0.00e+00	6	28	0	1050673152	52	6246
2026-01-14 15:34:15.69	234.92	30.74	-39.9	-41.0	21.7	0.00e+00	32	28	0	1051721728	52	6444
2026-01-14 15:34:16.70	234.79	30.55	-40.2	-41.4	21.4	0.00e+00	6	28	0	1053818880	52	6695
2026-01-14 15:34:17.71	234.65	30.37	-40.2	-41.3	21.4	0.00e+00	92	28	0	1055916032	52	6674
2026-01-14 15:34:18.72	234.52	30.19	-40.2	-41.4	21.4	0.00e+00	0	28	0	1058013184	52	6698
2026-01-14 15:34:19.73	234.39	30.01	-40.2	-41.3	21.4	0.00e+00	0	28	0	1060110336	52	6684
2026-01-14 15:34:20.74	234.26	29.83	-40.2	-41.4	21.4	0.00e+00	6	28	0	1061158912	52	6696
2026-01-14 15:34:21.75	234.13	29.66	-40.1	-41.3	21.4	0.00e+00	6	28	0	1063256064	52	6639
2026-01-14 15:34:22.76	234.00	29.48	-40.2	-41.4	21.4	0.00e+00	5	28	0	1065353216	52	6701
2026-01-14 15:34:23.77	233.88	29.30	-40.2	-41.4	21.4	0.00e+00	0	28	0	1067450368	52	6731
2026-01-14 15:34:24.78	233.75	29.13	-40.3	-41.5	21.3	0.00e+00	90	28	0	1069547520	52	6811
2026-01-14 15:34:25.78	233.63	28.96	-40.3	-41.4	21.3	0.00e+00	55	28	0	1070596096	52	6751
2026-01-14 15:34:26.79	233.51	28.78	-40.2	-41.4	21.3	0.00e+00	93	28	0	1072693248	52	6736
2026-01-14 15:34:27.80	233.39	28.61	-40.2	-41.4	21.4	0.00e+00	54	28	0	1074790400	52	6710
2026-01-14 15:34:28.81	233.27	28.44	-40.3	-41.4	21.3	0.00e+00	0	28	0	1076887552	52	6745
2026-01-14 15:34:29.82	233.15	28.27	-40.3	-41.5	21.3	0.00e+00	28	28	0	1078984704	52	6783
2026-01-14 15:34:30.83	233.04	28.10	-40.1	-41.2	21.5	0.00e+00	27	28	0	1080033280	52	6603
2026-01-14 15:34:31.84	232.92	27.93	-40.1	-41.3	21.5	0.00e+00	92	28	0	1082130432	52	6621
2026-01-14 15:34:32.85	232.81	27.77	-40.0	-41.1	21.6	0.00e+00	21	28	0	1084227584	52	6487
2026-01-14 15:34:33.86	232.69	27.60	-39.7	-40.7	21.9	0.00e+00	92	28	0	1086324736	52	6242
2026-01-14 15:34:34.87	232.58	27.43	-39.8	-40.9	21.8	0.00e+00	23	28	0	1088421888	52	6331
2026-01-14 15:34:35.88	232.47	27.27	-39.4	-40.4	22.3	0.00e+00	23	28	0	1089470464	52	6003
2026-01-14 15:34:36.89	232.36	27.10	-39.4	-40.5	22.3	0.00e+00	22	28	0	1091567616	52	6042
2026-01-14 15:34:37.90	232.26	26.94	-39.2	-40.2	22.5	0.00e+00	0	28	0	1093664768	52	5887
2026-01-14 15:34:38.91	232.15	26.78	-39.3	-40.3	22.4	0.00e+00	55	28	0	1095761920	52	5947
2026-01-14 15:34:39.92	232.04	26.62	-39.1	-40.1	22.6	0.00e+00	0	28	0	1097859072	52	5802
2026-01-14 15:34:40.93	231.94	26.46	-39.0	-40.0	22.6	0.00e+00	92	28	0	1099956224	52	5742
2026-01-14 15:34:41.94	231.84	26.30	-39.1	-40.1	22.5	0.00e+00	0	28	0	1101004800	52	5777
2026-01-14 15:34:42.95	231.73	26.14	-39.0	-40.0	22.6	0.00e+00	85	28	0	1103101952	52	5740
2026-01-14 15:34:43.96	231.63	25.98	-39.1	-40.1	22.5	0.00e+00	0	28	0	1105199104	52	5801
2026-01-14 15:34:44.96	231.53	25.82	-39.1	-40.1	22.5	0.00e+00	0	28	0	1107296256	52	5810
2026-01-14 15:34:45.97	231.43	25.67	-39.2	-40.2	22.5	0.00e+00	0	28	0	1109393408	52	5866
2026-01-14 15:34:46.98	231.33	25.51	-39.2	-40.2	22.4	0.00e+00	0	28	0	1110441984	52	5867
2026-01-14 15:34:47.99	231.24	25.36	-39.2	-40.2	22.5	0.00e+00	92	28	0	1112539136	52	5834
2026-01-14 15:34:49.00	231.14	25.20	-39.2	-40.2	22.5	0.00e+00	0	28	0	1114636288	52	5862
2026-01-14 15:34:50.01	231.04	25.05	-38.9	-39.9	22.6	0.00e+00	92	28	0	1116733440	52	5682
2026-01-14 15:34:51.02	230.95	24.90	-39.1	-40.1	22.5	0.00e+00	0	28	0	1118830592	52	5827
2026-01-14 15:34:52.03	230.86	24.75	-38.9	-39.8	22.8	0.00e+00	23	28	0	1119879168	52	5629
2026-01-14 15:34:53.04	230.76	24.60	-38.9	-39.8	22.7	0.00e+00	60	28	0	1121976320	52	5630
2026-01-14 15:34:54.05	230.67	24.45	-39.0	-40.0	22.7	0.00e+00	54	28	0	1124073472	52	5708
2026-01-14 15:34:55.05	230.58	24.30	-39.1	-40.1	22.5	0.00e+00	54	28	0	1126170624	52	5764
2026-01-14 15:34:56.06	230.49	24.15	-39.1	-40.0	22.5	0.00e+00	54	28	0	1128267776	52	5761
2026-01-14 15:34:57.07	230.40	24.00	-39.1	-40.1	22.5	0.00e+00	90	28	0	1129316352	52	5811
2026-01-14 15:34:58.08	230.31	23.85	-39.3	-40.3	22.4	0.00e+00	28	28	0	1131413504	52	5920
2026-01-14 15:34:59.09	230.23	23.71	-39.2	-40.2	22.4	0.00e+00	33	28	0	1133510656	52	5857
2026-01-14 15:35:00.10	230.14	23.56	-39.3	-40.4	22.2	0.00e+00	0	28	0	1135607808	52	5978
2026-01-14 15:35:01.11	230.06	23.42	-39.4	-40.4	22.2	0.00e+00	27	28	0	1137704960	52	6010
2026-01-14 15:35:02.12	229.97	23.27	-39.4	-40.4	22.2	0.00e+00	79	28	0	1138753536	52	6016
2026-01-14 15:35:03.13	229.89	23.13	-39.3	-40.4	22.2	0.00e+00	0	28	0	1140850688	52	5979
2026-01-14 15:35:04.14	229.80	22.99	-39.3	-40.4	22.2	0.00e+00	92	28	0	1142947840	52	5973
2026-01-14 15:35:05.15	229.72	22.85	-39.2	-40.3	22.4	0.00e+00	0	28	0	1145044992	52	5917
2026-01-14 15:35:06.16	229.64	22.70	-39.0	-40.0	22.6	0.00e+00	42	28	0	1147142144	52	5753
2026-01-14 15:35:07.17	229.56	22.56	-39.1	-40.2	22.5	0.00e+00	0	28	0	1148190720	52	5838
2026-01-14 15:35:08.17	229.48	22.43	-39.0	-40.1	22.5	0.00e+00	58	28	0	1150287872	52	5765
2026-01-14 15:35:09.18	229.40	22.29	-39.3	-40.3	22.4	0.00e+00	0	28	0	1152385024	52	5927
2026-01-14 15:35:10.19	229.32	22.15	-39.0	-40.0	22.6	0.00e+00	60	28	0	1154482176	52	5739
2026-01-14 15:35:11.20	229.24	22.01	-38.9	-39.9	22.6	0.00e+00	92	29	0	1156579328	52	5685
2026-01-14 15:35:12.21	229.16	21.87	-38.9	-39.9	22.7	0.00e+00	60	28	0	1157627904	52	5652
2026-01-14 15:35:13.22	229.09	21.74	-38.9	-39.8	22.7	0.00e+00	92	28	0	1159725056	52	5627
2026-01-14 15:35:14.23	229.01	21.60	-38.9	-39.9	22.7	0.00e+00	0	28	0	1161822208	52	5633
2026-01-14 15:35:15.24	228.94	21.47	-38.7	-39.7	22.8	0.00e+00	0	28	0	1163919360	50	6206
2026-01-14 15:35:16.25	228.86	21.33	-38.8	-39.8	22.7	7.00e-07	59	28	0	1166016512	50	6273
2026-01-14 15:35:17.26	228.79	21.20	-38.8	-39.8	22.7	0.00e+00	58	28	0	1167065088	50	6272
2026-01-14 15:35:18.26	228.71	21.07	-38.7	-39.7	22.9	0.00e+00	92	28	0	1169162240	50	6201
2026-01-14 15:35:19.28	228.64	20.93	-38.7	-39.7	22.9	0.00e+00	0	28	0	1171259392	50	6206
2026-01-14 15:35:20.28	228.57	20.80	-38.4	-39.4	23.1	0.00e+00	92	28	0	1173356544	50	5994
2026-01-14 15:35:21.29	228.50	20.67	-38.7	-39.6	22.9	0.00e+00	0	28	0	1175453696	50	6155
2026-01-14 15:35:22.30	228.43	20.54	-38.6	-39.5	23.0	0.00e+00	18	28	0	1176502272	50	6085
2026-01-14 15:35:23.31	228.36	20.41	-38.6	-39.6	22.9	0.00e+00	0	28	0	1178599424	50	6124
2026-01-14 15:35:24.32	228.29	20.28	-38.6	-39.6	22.9	0.00e+00	0	28	0	1180696576	50	6104
2026-01-14 15:35:25.32	228.22	20.15	-38.7	-39.6	22.8	0.00e+00	8	29	0	1182793728	50	6163
2026-01-14 15:35:26.33	228.15	20.03	-38.7	-39.6	22.7	0.00e+00	0	28	0	1184890880	50	6155
2026-01-14 15:35:27.34	228.08	19.90	-38.6	-39.5	22.9	0.00e+00	92	28	0	1185939456	50	6084
2026-01-14 15:35:28.35	228.02	19.77	-38.7	-39.7	22.7	0.00e+00	0	29	0	1188036608	50	6196
2026-01-14 15:35:29.36	227.95	19.65	-38.6	-39.6	22.8	0.00e+00	92	28	0	1190133760	50	6151
2026-01-14 15:35:30.37	227.88	19.52	-38.5	-39.5	23.0	0.00e+00	2	28	0	1192230912	50	6073
2026-01-14 15:35:31.38	227.82	19.39	-38.6	-39.6	22.9	0.00e+00	0	29	0	1194328064	50	6115
2026-01-14 15:35:32.38	227.76	19.27	-38.5	-39.5	22.9	0.00e+00	0	28	0	1196425216	50	6064
2026-01-14 15:35:33.39	227.69	19.15	-38.7	-39.6	22.8	0.00e+00	0	28	0	1197473792	50	6155
2026-01-14 15:35:34.40	227.63	19.02	-38.6	-39.6	22.8	0.00e+00	92	28	0	1199570944	50	6132
2026-01-14 15:35:35.41	227.56	18.90	-38.6	-39.6	22.8	0.00e+00	0	28	0	1201668096	50	6120
2026-01-14 15:35:36.42	227.50	18.78	-38.7	-39.7	22.7	0.00e+00	91	28	0	1203765248	50	6210
2026-01-14 15:35:37.43	227.44	18.66	-38.6	-39.6	22.6	0.00e+00	55	28	0	1205862400	50	6104
2026-01-14 15:35:38.44	227.38	18.54	-38.7	-39.7	22.6	0.00e+00	0	28	0	1206910976	50	6186
2026-01-14 15:35:39.45	227.32	18.42	-38.7	-39.7	22.7	0.00e+00	0	28	0	1209008128	50	6204
