passes_logs/2026/01/14/R4.6S_Anadyr/R4.6S_Anadyr__20260114_214002_SUOMI_NPP_rec.log

#Pass ID: 20260114_214002_SUOMI NPP
#Satellite: SUOMI NPP
#Configuration: NPP
#almurnet v.1.7.20251203
#Start time: 2026-01-14 21:40:04

#Version: 2.2.20231116
#Station: R4.6S_Anadyr
#Location: 177.4865 lon 64.73178 lat
#TLE: 1 37849U 11061A   26014.61059675  .00000037  00000+0  38639-4 0  9994
#TLE: 2 37849  98.7810 316.6625 0002460  64.3781 295.7649 14.19525105736658

#Time	Az	El	Level	Level2	SNR	BER	BlckErr	Temp	State	Recorded	gain1	gain2
2026-01-14 21:40:04.46	93.86	0.09	-48.7	-61.2	3.4	1.51e+00	0	26	0	0	60	40352
2026-01-14 21:40:05.47	93.80	0.15	-48.8	-63.9	3.6	1.51e+00	0	27	104	0	60	56783
2026-01-14 21:40:06.48	93.74	0.20	-48.7	-63.9	3.6	1.51e+00	0	27	104	0	60	56723
2026-01-14 21:40:07.49	93.68	0.26	-48.7	-63.9	3.6	1.51e+00	0	27	104	0	60	56618
2026-01-14 21:40:08.50	93.62	0.31	-48.7	-63.9	3.6	1.51e+00	0	27	104	0	60	56618
2026-01-14 21:40:09.51	93.56	0.36	-48.6	-63.9	3.6	1.51e+00	0	28	104	0	60	56930
2026-01-14 21:40:10.52	93.50	0.42	-48.8	-64.0	3.6	1.51e+00	0	28	104	0	60	56982
2026-01-14 21:40:11.53	93.44	0.47	-48.8	-64.0	3.6	1.51e+00	0	28	104	0	60	57216
2026-01-14 21:40:12.54	93.38	0.53	-48.7	-64.0	3.6	1.51e+00	0	27	104	0	60	57195
2026-01-14 21:40:13.55	93.32	0.58	-48.7	-63.9	3.6	1.51e+00	0	28	104	0	60	56518
2026-01-14 21:40:14.56	93.26	0.64	-48.7	-63.9	3.6	1.51e+00	0	28	104	0	60	56837
2026-01-14 21:40:15.57	93.20	0.69	-48.4	-63.9	3.6	1.51e+00	0	28	104	0	60	56651
2026-01-14 21:40:16.58	93.13	0.75	-48.6	-63.9	3.6	1.51e+00	0	28	104	0	60	56650
2026-01-14 21:40:17.58	93.07	0.80	-48.5	-63.8	3.6	1.51e+00	0	28	104	0	60	56012
2026-01-14 21:40:18.59	93.01	0.86	-48.5	-63.6	3.6	1.51e+00	0	28	104	0	60	54682
2026-01-14 21:40:19.60	92.95	0.91	-48.3	-63.4	3.6	1.51e+00	0	28	104	0	60	53539
2026-01-14 21:40:20.61	92.89	0.97	-47.8	-63.1	3.6	1.51e+00	0	28	104	0	60	51768
2026-01-14 21:40:21.62	92.82	1.02	-46.7	-62.2	3.6	1.51e+00	0	28	104	0	60	46702
2026-01-14 21:40:22.63	92.76	1.08	-46.9	-62.1	3.6	1.51e+00	0	28	104	0	60	45990
2026-01-14 21:40:23.64	92.70	1.13	-46.9	-62.1	3.6	1.51e+00	0	28	104	0	60	46186
2026-01-14 21:40:24.65	92.63	1.19	-46.9	-62.1	3.6	1.51e+00	0	28	104	0	60	45895
2026-01-14 21:40:25.66	92.57	1.24	-46.9	-62.1	3.6	1.51e+00	0	28	104	0	60	46209
2026-01-14 21:40:26.67	92.50	1.30	-46.9	-62.2	3.6	1.51e+00	0	28	104	0	60	46371
2026-01-14 21:40:27.68	92.44	1.36	-46.9	-62.1	3.6	1.51e+00	0	28	104	0	60	46097
2026-01-14 21:40:28.69	92.38	1.41	-46.9	-62.1	3.6	1.51e+00	0	28	104	0	60	46291
2026-01-14 21:40:29.69	92.31	1.47	-46.9	-62.1	3.6	1.51e+00	0	28	104	0	60	46149
2026-01-14 21:40:30.70	92.25	1.52	-46.9	-62.1	3.6	1.51e+00	0	28	104	0	60	46230
2026-01-14 21:40:31.71	92.18	1.58	-46.9	-62.1	3.6	1.51e+00	0	28	104	0	60	46047
2026-01-14 21:40:32.72	92.12	1.63	-46.9	-62.2	3.6	1.51e+00	0	28	104	0	60	46450
2026-01-14 21:40:33.73	92.05	1.69	-46.9	-62.2	3.6	1.51e+00	0	28	104	0	60	46316
2026-01-14 21:40:34.74	91.98	1.75	-46.9	-62.2	3.6	1.51e+00	0	28	104	0	60	46468
2026-01-14 21:40:35.75	91.92	1.80	-46.9	-62.1	3.6	1.51e+00	0	28	104	0	60	45846
2026-01-14 21:40:36.76	91.85	1.86	-46.9	-62.2	3.6	1.51e+00	0	28	104	0	60	46390
2026-01-14 21:40:37.77	91.78	1.92	-46.9	-62.2	3.6	1.51e+00	0	28	104	0	60	46344
2026-01-14 21:40:38.78	91.72	1.97	-46.9	-62.1	3.6	1.51e+00	0	28	104	0	60	46049
2026-01-14 21:40:39.79	91.65	2.03	-46.9	-62.0	3.6	1.51e+00	0	28	104	0	60	45544
2026-01-14 21:40:40.80	91.58	2.09	-46.9	-61.9	3.5	1.51e+00	0	28	104	0	60	44736
2026-01-14 21:40:41.81	91.51	2.14	-46.9	-61.8	3.6	1.51e+00	0	28	104	0	60	44588
2026-01-14 21:40:42.82	91.45	2.20	-46.9	-61.8	3.6	1.51e+00	0	28	104	0	60	44637
2026-01-14 21:40:43.82	91.38	2.25	-46.9	-62.0	3.6	1.51e+00	0	28	104	0	60	45291
2026-01-14 21:40:44.83	91.31	2.31	-46.9	-62.1	3.6	1.51e+00	0	28	104	0	60	45937
2026-01-14 21:40:45.84	91.24	2.37	-46.9	-62.1	3.6	1.51e+00	0	28	104	0	60	45947
2026-01-14 21:40:46.85	91.17	2.43	-46.9	-62.1	3.6	1.51e+00	0	28	104	0	60	45996
2026-01-14 21:40:47.86	91.10	2.48	-46.9	-62.1	3.6	1.51e+00	0	28	104	0	60	46135
2026-01-14 21:40:48.87	91.03	2.54	-46.9	-62.2	3.6	1.51e+00	0	28	104	0	60	46567
2026-01-14 21:40:49.88	90.96	2.60	-46.9	-62.1	3.6	1.51e+00	0	28	104	0	60	46186
2026-01-14 21:40:50.89	90.89	2.66	-46.9	-62.0	3.6	1.51e+00	0	28	104	0	60	45752
2026-01-14 21:40:51.90	90.82	2.71	-46.9	-61.7	3.6	1.51e+00	0	28	104	0	60	43993
2026-01-14 21:40:52.91	90.75	2.77	-46.9	-61.3	3.6	1.51e+00	0	28	104	0	60	41955
2026-01-14 21:40:53.92	90.68	2.83	-46.9	-61.4	3.6	1.51e+00	0	28	104	0	60	42259
2026-01-14 21:40:54.93	90.61	2.89	-46.9	-61.8	3.6	1.51e+00	0	28	104	0	60	44278
2026-01-14 21:40:55.94	90.53	2.94	-46.9	-61.9	3.6	1.51e+00	0	28	104	0	60	44853
2026-01-14 21:40:56.95	90.46	3.00	-46.8	-60.1	3.7	1.51e+00	0	28	104	0	60	36682
2026-01-14 21:40:57.96	90.39	3.06	-46.5	-55.3	5.2	8.81e-01	0	28	0	0	60	21069
2026-01-14 21:40:58.97	90.32	3.12	-46.0	-52.5	7.9	1.72e-01	87	28	0	2097152	60	15210
2026-01-14 21:40:59.98	90.24	3.18	-45.2	-49.9	10.9	1.79e-02	0	28	0	4194304	60	11266
2026-01-14 21:41:00.99	90.17	3.23	-44.4	-48.0	13.2	1.62e-04	90	28	0	6291456	60	9080
2026-01-14 21:41:02.00	90.10	3.29	-44.0	-47.4	13.7	2.44e-05	0	28	0	8388608	60	8447
2026-01-14 21:41:03.00	90.02	3.35	-46.3	-54.1	5.9	4.18e-04	92	28	0	9437184	60	18299
2026-01-14 21:41:04.02	89.95	3.41	-46.9	-57.6	3.7	2.45e-01	12	28	0	11534336	60	27524
2026-01-14 21:41:05.02	89.87	3.47	-45.1	-49.7	9.8	6.63e-05	0	28	0	13631488	60	11077
2026-01-14 21:41:06.03	89.80	3.52	-42.2	-44.5	16.4	2.20e-06	91	28	0	14680064	56	7596
2026-01-14 21:41:07.04	89.72	3.58	-46.1	-60.8	3.6	5.33e-03	0	28	104	16777216	60	39435
2026-01-14 21:41:08.05	89.65	3.64	-42.0	-44.3	16.3	1.31e+00	85	28	104	16777216	58	6649
2026-01-14 21:41:09.06	89.57	3.70	-41.8	-43.9	17.3	0.00e+00	0	28	0	16777216	56	7151
2026-01-14 21:41:10.07	89.50	3.76	-41.4	-43.3	17.9	0.00e+00	92	28	0	18874368	56	6668
2026-01-14 21:41:11.08	89.42	3.82	-41.1	-42.9	18.4	0.00e+00	84	28	0	20971520	56	6322
2026-01-14 21:41:12.09	89.34	3.88	-40.9	-42.6	18.6	0.00e+00	0	28	0	23068672	56	6126
2026-01-14 21:41:13.10	89.27	3.94	-40.5	-42.1	19.0	0.00e+00	90	28	0	24117248	54	6490
2026-01-14 21:41:14.11	89.19	4.00	-41.0	-42.7	18.3	0.00e+00	0	28	0	26214400	54	7007
2026-01-14 21:41:15.12	89.11	4.06	-40.7	-42.3	18.8	0.00e+00	84	28	0	28311552	54	6661
2026-01-14 21:41:16.13	89.03	4.12	-40.7	-42.3	18.8	0.00e+00	0	28	0	30408704	54	6688
2026-01-14 21:41:17.14	88.95	4.17	-40.9	-42.6	18.4	0.00e+00	91	28	0	32505856	54	6876
2026-01-14 21:41:18.15	88.88	4.23	-41.0	-42.7	18.5	0.00e+00	51	28	0	33554432	54	6944
2026-01-14 21:41:19.16	88.80	4.29	-41.2	-43.0	18.0	0.00e+00	30	28	0	35651584	54	7213
2026-01-14 21:41:20.16	88.72	4.35	-41.2	-43.0	18.2	0.00e+00	92	28	0	37748736	54	7223
2026-01-14 21:41:21.17	88.64	4.41	-41.3	-43.1	18.0	0.00e+00	0	28	0	39845888	54	7301
2026-01-14 21:41:22.18	88.56	4.47	-41.3	-43.1	18.2	0.00e+00	92	28	0	41943040	54	7272
2026-01-14 21:41:23.19	88.48	4.53	-41.2	-43.0	18.3	0.00e+00	0	28	0	42991616	54	7180
2026-01-14 21:41:24.20	88.40	4.59	-41.5	-43.3	18.0	0.00e+00	91	28	0	45088768	54	7463
2026-01-14 21:41:25.21	88.32	4.65	-41.3	-43.1	18.1	0.00e+00	83	28	0	47185920	54	7303
2026-01-14 21:41:26.22	88.23	4.71	-41.7	-43.6	17.7	0.00e+00	91	28	0	49283072	54	7693
2026-01-14 21:41:27.23	88.15	4.77	-41.5	-43.3	18.0	0.00e+00	91	28	0	51380224	56	6681
2026-01-14 21:41:28.23	88.07	4.83	-41.4	-43.2	18.2	0.00e+00	0	28	0	53477376	56	6590
2026-01-14 21:41:29.25	87.99	4.89	-41.5	-43.3	18.0	0.00e+00	81	28	0	54525952	56	6690
2026-01-14 21:41:30.25	87.91	4.95	-41.5	-43.3	18.0	0.00e+00	0	28	0	56623104	56	6673
2026-01-14 21:41:31.26	87.82	5.01	-41.6	-43.4	18.1	0.00e+00	92	28	0	58720256	56	6766
2026-01-14 21:41:32.27	87.74	5.07	-41.6	-43.5	18.0	0.00e+00	0	28	0	60817408	56	6770
2026-01-14 21:41:33.28	87.65	5.14	-41.7	-43.6	17.9	0.00e+00	92	28	0	62914560	56	6879
2026-01-14 21:41:34.29	87.57	5.20	-41.4	-43.2	18.3	0.00e+00	92	28	0	63963136	56	6615
2026-01-14 21:41:35.30	87.49	5.26	-41.6	-43.5	18.0	0.00e+00	0	28	0	66060288	56	6779
2026-01-14 21:41:36.31	87.40	5.32	-41.1	-42.9	18.6	7.00e-07	87	28	0	68157440	56	6346
2026-01-14 21:41:37.32	87.31	5.38	-41.1	-42.8	18.6	0.00e+00	0	28	0	70254592	56	6294
2026-01-14 21:41:38.33	87.23	5.44	-41.0	-42.7	18.7	0.00e+00	92	28	0	71303168	56	6225
2026-01-14 21:41:39.33	87.14	5.50	-41.1	-42.8	18.7	0.00e+00	0	28	0	73400320	56	6262
2026-01-14 21:41:40.34	87.06	5.56	-41.3	-43.0	18.5	0.00e+00	90	28	0	75497472	56	6411
2026-01-14 21:41:41.35	86.97	5.62	-40.9	-42.6	18.9	0.00e+00	80	28	0	77594624	56	6119
2026-01-14 21:41:42.36	86.88	5.68	-41.0	-42.6	18.8	0.00e+00	0	28	0	79691776	56	6157
2026-01-14 21:41:43.37	86.80	5.75	-41.0	-42.7	18.9	0.00e+00	63	28	0	81788928	56	6207
2026-01-14 21:41:44.38	86.71	5.81	-41.1	-42.8	18.7	0.00e+00	0	28	0	82837504	56	6310
2026-01-14 21:41:45.39	86.62	5.87	-41.1	-42.8	18.8	0.00e+00	92	28	0	84934656	56	6279
2026-01-14 21:41:46.40	86.53	5.93	-40.9	-42.6	19.0	0.00e+00	0	28	0	87031808	56	6110
2026-01-14 21:41:47.41	86.44	5.99	-40.6	-42.1	19.4	0.00e+00	92	28	0	89128960	54	6484
2026-01-14 21:41:48.42	86.35	6.06	-40.4	-41.8	19.6	0.00e+00	0	29	0	91226112	54	6296
2026-01-14 21:41:49.43	86.26	6.12	-40.5	-42.0	19.6	0.00e+00	0	28	0	92274688	54	6402
2026-01-14 21:41:50.44	86.17	6.18	-40.3	-41.7	19.7	0.00e+00	92	28	0	94371840	54	6231
2026-01-14 21:41:51.45	86.08	6.24	-40.5	-42.0	19.2	0.00e+00	0	29	0	96468992	54	6429
2026-01-14 21:41:52.46	85.99	6.30	-40.8	-42.3	19.1	0.00e+00	92	29	0	98566144	54	6667
2026-01-14 21:41:53.46	85.90	6.37	-40.7	-42.3	19.1	0.00e+00	0	28	0	100663296	54	6642
2026-01-14 21:41:54.47	85.81	6.43	-41.0	-42.7	18.7	0.00e+00	92	28	0	101711872	54	6944
2026-01-14 21:41:55.48	85.71	6.49	-40.4	-41.9	19.5	0.00e+00	80	28	0	103809024	54	6362
2026-01-14 21:41:56.49	85.62	6.55	-40.3	-41.8	19.6	0.00e+00	92	29	0	105906176	54	6268
2026-01-14 21:41:57.50	85.53	6.62	-40.3	-41.7	19.9	0.00e+00	92	28	0	108003328	54	6200
2026-01-14 21:41:58.51	85.43	6.68	-39.8	-41.1	20.3	0.00e+00	0	28	0	110100480	54	5779
2026-01-14 21:41:59.52	85.34	6.74	-39.8	-41.1	20.3	0.00e+00	92	28	0	111149056	54	5811
2026-01-14 21:42:00.52	85.25	6.80	-39.8	-41.1	20.2	0.00e+00	0	28	0	113246208	54	5824
2026-01-14 21:42:01.53	85.15	6.87	-40.1	-41.4	20.0	0.00e+00	92	29	0	115343360	54	6018
2026-01-14 21:42:02.54	85.06	6.93	-40.2	-41.6	19.9	0.00e+00	0	28	0	117440512	54	6160
2026-01-14 21:42:03.55	84.96	6.99	-40.1	-41.4	20.1	0.00e+00	92	28	0	119537664	54	6024
2026-01-14 21:42:04.56	84.86	7.06	-40.1	-41.5	20.0	0.00e+00	92	29	0	120586240	54	6054
2026-01-14 21:42:05.57	84.77	7.12	-39.9	-41.2	20.3	0.00e+00	0	29	0	122683392	54	5853
2026-01-14 21:42:06.58	84.67	7.18	-39.8	-41.0	20.5	0.00e+00	80	29	0	124780544	54	5758
2026-01-14 21:42:07.59	84.57	7.25	-39.6	-40.9	20.4	0.00e+00	0	29	0	126877696	52	6327
2026-01-14 21:42:08.60	84.47	7.31	-39.5	-40.7	20.7	0.00e+00	80	28	0	128974848	52	6241
2026-01-14 21:42:09.61	84.38	7.37	-39.8	-41.0	20.4	0.00e+00	0	28	0	130023424	52	6440
2026-01-14 21:42:10.62	84.28	7.44	-40.1	-41.5	20.1	0.00e+00	92	28	0	132120576	52	6779
2026-01-14 21:42:11.63	84.18	7.50	-40.0	-41.3	18.8	7.00e-07	92	28	0	134217728	58	4723
2026-01-14 21:42:12.64	84.08	7.56	-41.2	-42.8	19.5	0.00e+00	0	28	0	136314880	54	7019
2026-01-14 21:42:13.65	83.98	7.63	-41.0	-42.6	19.4	0.00e+00	92	28	0	138412032	54	6879
2026-01-14 21:42:14.66	83.88	7.69	-40.7	-42.2	19.1	0.00e+00	0	28	0	139460608	54	6593
2026-01-14 21:42:15.67	83.78	7.76	-40.9	-42.5	19.2	0.00e+00	92	28	0	141557760	54	6846
2026-01-14 21:42:16.68	83.67	7.82	-40.8	-42.4	19.1	0.00e+00	0	28	0	143654912	54	6712
2026-01-14 21:42:17.69	83.57	7.88	-40.6	-42.0	19.6	0.00e+00	92	29	0	145752064	54	6443
2026-01-14 21:42:18.69	83.47	7.95	-40.5	-42.0	19.6	0.00e+00	80	28	0	147849216	54	6396
2026-01-14 21:42:19.70	83.37	8.01	-40.7	-42.2	19.4	0.00e+00	0	28	0	149946368	54	6569
2026-01-14 21:42:20.71	83.26	8.08	-40.7	-42.2	19.4	0.00e+00	92	29	0	150994944	54	6608
2026-01-14 21:42:21.72	83.16	8.14	-41.0	-42.6	19.1	0.00e+00	0	29	0	153092096	54	6868
2026-01-14 21:42:22.73	83.06	8.21	-40.6	-42.1	19.5	0.00e+00	90	28	0	155189248	54	6522
2026-01-14 21:42:23.74	82.95	8.27	-41.0	-42.6	19.2	0.00e+00	0	29	0	157286400	54	6871
2026-01-14 21:42:24.75	82.85	8.34	-40.8	-42.3	19.4	0.00e+00	92	29	0	159383552	54	6659
2026-01-14 21:42:25.76	82.74	8.40	-40.9	-42.5	19.2	0.00e+00	83	29	0	160432128	54	6786
2026-01-14 21:42:26.77	82.63	8.47	-40.9	-42.5	19.2	0.00e+00	92	29	0	162529280	54	6794
2026-01-14 21:42:27.78	82.53	8.53	-40.5	-42.0	19.6	0.00e+00	92	29	0	164626432	54	6453
2026-01-14 21:42:28.79	82.42	8.60	-40.3	-41.7	19.9	0.00e+00	0	29	0	166723584	54	6222
2026-01-14 21:42:29.79	82.31	8.66	-40.3	-41.7	19.9	0.00e+00	78	29	0	168820736	54	6174
2026-01-14 21:42:30.80	82.21	8.72	-40.2	-41.6	20.0	0.00e+00	0	29	0	169869312	54	6130
2026-01-14 21:42:31.81	82.10	8.79	-40.6	-42.1	19.6	0.00e+00	92	29	0	171966464	54	6506
2026-01-14 21:42:32.82	81.99	8.86	-40.3	-41.7	20.0	0.00e+00	73	28	0	174063616	54	6228
2026-01-14 21:42:33.83	81.88	8.92	-40.1	-41.4	20.2	0.00e+00	92	28	0	176160768	54	6021
2026-01-14 21:42:34.85	81.77	8.99	-40.1	-41.4	20.2	0.00e+00	90	29	0	178257920	54	6005
2026-01-14 21:42:35.86	81.66	9.05	-40.0	-41.3	20.4	0.00e+00	0	28	0	179306496	54	5903
2026-01-14 21:42:36.86	81.55	9.12	-39.9	-41.2	20.3	0.00e+00	84	29	0	181403648	54	5882
2026-01-14 21:42:37.87	81.43	9.18	-40.2	-41.5	20.2	0.00e+00	0	29	0	183500800	54	6069
2026-01-14 21:42:38.88	81.32	9.25	-39.8	-41.0	20.6	0.00e+00	92	29	0	185597952	54	5735
2026-01-14 21:42:39.89	81.21	9.31	-40.1	-41.4	20.4	0.00e+00	49	29	0	187695104	52	6745
2026-01-14 21:42:40.90	81.10	9.38	-40.3	-41.6	20.1	0.00e+00	92	29	0	188743680	52	6926
2026-01-14 21:42:41.91	80.98	9.45	-40.4	-41.8	20.0	0.00e+00	92	29	0	190840832	52	7025
2026-01-14 21:42:42.92	80.87	9.51	-40.4	-41.7	20.1	0.00e+00	0	29	0	192937984	52	6979
2026-01-14 21:42:43.93	80.75	9.58	-40.3	-41.7	20.2	0.00e+00	92	29	0	195035136	52	6940
2026-01-14 21:42:44.94	80.64	9.64	-40.1	-41.4	20.1	0.00e+00	0	29	0	197132288	52	6762
2026-01-14 21:42:45.95	80.52	9.71	-40.0	-41.3	20.4	0.00e+00	92	29	0	198180864	52	6632
2026-01-14 21:42:46.96	80.40	9.78	-40.0	-41.3	20.4	0.00e+00	0	28	0	200278016	52	6623
2026-01-14 21:42:47.97	80.29	9.84	-39.9	-41.2	20.4	0.00e+00	92	29	0	202375168	52	6610
2026-01-14 21:42:48.97	80.17	9.91	-40.0	-41.3	20.4	0.00e+00	86	29	0	204472320	52	6627
2026-01-14 21:42:49.99	80.05	9.98	-40.0	-41.3	20.3	0.00e+00	0	29	0	206569472	52	6667
2026-01-14 21:42:51.00	79.93	10.04	-40.1	-41.4	20.3	0.00e+00	88	29	0	207618048	52	6752
2026-01-14 21:42:52.01	79.81	10.11	-40.0	-41.3	20.5	0.00e+00	0	29	0	209715200	52	6632
2026-01-14 21:42:53.02	79.69	10.18	-40.1	-41.5	20.2	0.00e+00	92	29	0	211812352	52	6782
2026-01-14 21:42:54.03	79.57	10.24	-40.1	-41.5	20.3	0.00e+00	0	29	0	213909504	52	6813
2026-01-14 21:42:55.04	79.45	10.31	-39.8	-41.0	20.7	0.00e+00	90	29	0	216006656	52	6443
2026-01-14 21:42:56.04	79.33	10.37	-39.8	-41.1	20.6	0.00e+00	87	29	0	218103808	52	6518
2026-01-14 21:42:57.05	79.21	10.44	-39.6	-40.9	20.9	0.00e+00	0	29	0	219152384	52	6321
2026-01-14 21:42:58.06	79.09	10.51	-39.4	-40.6	21.1	0.00e+00	61	29	0	221249536	52	6126
2026-01-14 21:42:59.07	78.96	10.58	-39.3	-40.5	21.1	0.00e+00	0	28	0	223346688	52	6076
2026-01-14 21:43:00.08	78.84	10.64	-39.4	-40.6	21.1	0.00e+00	78	28	0	225443840	52	6141
2026-01-14 21:43:01.09	78.72	10.71	-39.5	-40.7	21.1	0.00e+00	0	29	0	227540992	52	6189
2026-01-14 21:43:02.10	78.59	10.78	-39.3	-40.5	21.2	0.00e+00	91	29	0	228589568	52	6034
2026-01-14 21:43:03.11	78.47	10.84	-39.2	-40.4	21.3	0.00e+00	51	29	0	230686720	52	5966
2026-01-14 21:43:04.11	78.34	10.91	-39.2	-40.3	21.3	0.00e+00	83	29	0	232783872	52	5956
2026-01-14 21:43:05.12	78.21	10.98	-39.1	-40.2	21.5	0.00e+00	92	29	0	234881024	52	5845
2026-01-14 21:43:06.14	78.09	11.04	-39.2	-40.3	21.3	0.00e+00	0	29	0	236978176	52	5942
2026-01-14 21:43:07.15	77.96	11.11	-39.0	-40.1	21.5	0.00e+00	90	29	0	238026752	52	5796
2026-01-14 21:43:08.15	77.83	11.18	-39.0	-40.2	21.5	0.00e+00	0	29	0	240123904	52	5832
2026-01-14 21:43:09.17	77.70	11.25	-39.3	-40.4	21.4	0.00e+00	90	29	0	242221056	52	6014
2026-01-14 21:43:10.18	77.57	11.31	-39.2	-40.4	21.4	0.00e+00	0	29	0	244318208	52	5982
2026-01-14 21:43:11.19	77.44	11.38	-39.2	-40.4	21.3	0.00e+00	28	29	0	246415360	52	5968
2026-01-14 21:43:12.20	77.31	11.45	-39.0	-40.1	21.5	0.00e+00	92	28	0	247463936	52	5804
2026-01-14 21:43:13.21	77.18	11.52	-39.1	-40.3	21.4	0.00e+00	0	29	0	249561088	52	5925
2026-01-14 21:43:14.22	77.05	11.58	-39.3	-40.4	21.3	0.00e+00	92	29	0	251658240	52	6032
2026-01-14 21:43:15.23	76.91	11.65	-39.3	-40.5	21.1	0.00e+00	0	29	0	253755392	52	6091
2026-01-14 21:43:16.23	76.78	11.72	-39.5	-40.8	20.9	0.00e+00	92	29	0	255852544	52	6266
2026-01-14 21:43:17.24	76.65	11.79	-39.7	-40.9	21.0	0.00e+00	0	29	0	256901120	52	6372
2026-01-14 21:43:18.25	76.51	11.85	-39.7	-41.0	20.9	0.00e+00	92	29	0	258998272	52	6426
2026-01-14 21:43:19.26	76.38	11.92	-39.5	-40.8	21.0	0.00e+00	92	29	0	261095424	52	6272
2026-01-14 21:43:20.27	76.24	11.99	-39.5	-40.7	21.0	0.00e+00	0	29	0	263192576	52	6232
2026-01-14 21:43:21.28	76.10	12.06	-39.9	-41.2	20.7	0.00e+00	54	29	0	265289728	52	6611
2026-01-14 21:43:22.29	75.97	12.13	-39.5	-40.7	20.6	0.00e+00	0	29	0	266338304	52	6215
2026-01-14 21:43:23.30	75.83	12.19	-39.7	-41.0	20.8	0.00e+00	92	29	0	268435456	52	6415
2026-01-14 21:43:24.31	75.69	12.26	-39.8	-41.1	20.7	0.00e+00	0	29	0	270532608	52	6523
2026-01-14 21:43:25.32	75.55	12.33	-39.5	-40.8	21.0	0.00e+00	92	29	0	272629760	52	6277
2026-01-14 21:43:26.33	75.41	12.40	-39.6	-40.8	21.0	0.00e+00	90	29	0	274726912	52	6291
2026-01-14 21:43:27.34	75.27	12.46	-39.4	-40.7	21.1	0.00e+00	0	29	0	275775488	52	6177
2026-01-14 21:43:28.35	75.13	12.53	-39.2	-40.4	21.5	0.00e+00	92	29	0	277872640	52	5975
2026-01-14 21:43:29.36	74.99	12.60	-39.3	-40.5	21.3	0.00e+00	0	29	0	279969792	52	6035
2026-01-14 21:43:30.37	74.85	12.67	-39.3	-40.4	21.3	0.00e+00	89	29	0	282066944	52	6025
2026-01-14 21:43:31.38	74.70	12.74	-39.2	-40.4	21.4	0.00e+00	0	29	0	284164096	52	5990
2026-01-14 21:43:32.39	74.56	12.80	-39.2	-40.4	21.3	0.00e+00	92	29	0	286261248	52	5983
2026-01-14 21:43:33.40	74.41	12.87	-39.1	-40.2	21.5	0.00e+00	37	29	0	287309824	52	5889
2026-01-14 21:43:34.41	74.27	12.94	-39.2	-40.3	21.4	0.00e+00	0	29	0	289406976	52	5929
2026-01-14 21:43:35.42	74.12	13.01	-39.1	-40.3	21.5	0.00e+00	92	29	0	291504128	52	5911
2026-01-14 21:43:36.43	73.98	13.08	-38.9	-40.0	21.4	0.00e+00	0	29	0	293601280	52	5711
2026-01-14 21:43:37.44	73.83	13.14	-38.8	-40.0	21.6	0.00e+00	88	29	0	295698432	52	5696
2026-01-14 21:43:38.45	73.68	13.21	-39.0	-40.1	21.5	0.00e+00	0	29	0	296747008	52	5807
2026-01-14 21:43:39.46	73.53	13.28	-39.1	-40.2	21.6	0.00e+00	91	29	0	298844160	52	5873
2026-01-14 21:43:40.47	73.38	13.35	-39.0	-40.1	21.6	0.00e+00	0	29	0	300941312	52	5770
2026-01-14 21:43:41.48	73.23	13.42	-39.1	-40.2	21.4	0.00e+00	0	29	0	303038464	52	5883
2026-01-14 21:43:42.48	73.08	13.48	-39.2	-40.4	21.4	0.00e+00	92	29	0	305135616	52	5997
2026-01-14 21:43:43.49	72.93	13.55	-39.3	-40.5	21.3	0.00e+00	0	29	0	306184192	52	6076
2026-01-14 21:43:44.50	72.78	13.62	-39.5	-40.7	21.1	0.00e+00	80	29	0	308281344	52	6223
2026-01-14 21:43:45.51	72.63	13.69	-39.6	-40.8	21.0	0.00e+00	0	29	0	310378496	52	6280
2026-01-14 21:43:46.52	72.48	13.76	-39.7	-40.9	21.0	0.00e+00	91	29	0	312475648	52	6379
2026-01-14 21:43:47.53	72.32	13.82	-39.6	-40.8	21.1	0.00e+00	0	29	0	314572800	52	6261
2026-01-14 21:43:48.54	72.17	13.89	-39.6	-40.8	21.1	0.00e+00	0	29	0	315621376	52	6306
2026-01-14 21:43:49.55	72.01	13.96	-39.6	-40.8	21.1	0.00e+00	92	29	0	317718528	52	6289
2026-01-14 21:43:50.56	71.85	14.03	-39.6	-40.8	21.1	0.00e+00	0	29	0	319815680	52	6276
2026-01-14 21:43:51.58	71.70	14.10	-39.4	-40.6	21.0	0.00e+00	80	29	0	321912832	52	6126
2026-01-14 21:43:52.59	71.54	14.16	-39.4	-40.5	21.3	0.00e+00	0	29	0	324009984	52	6091
2026-01-14 21:43:53.59	71.38	14.23	-39.4	-40.5	21.3	0.00e+00	92	29	0	325058560	52	6083
2026-01-14 21:43:54.60	71.22	14.30	-39.1	-40.2	21.7	0.00e+00	25	29	0	327155712	52	5841
2026-01-14 21:43:55.61	71.06	14.37	-39.2	-40.3	21.5	0.00e+00	11	29	0	329252864	52	5930
2026-01-14 21:43:56.62	70.90	14.43	-39.3	-40.4	21.3	0.00e+00	92	29	0	331350016	52	6033
2026-01-14 21:43:57.63	70.74	14.50	-39.4	-40.6	21.2	0.00e+00	0	29	0	333447168	52	6173
2026-01-14 21:43:58.64	70.58	14.57	-39.6	-40.8	21.0	0.00e+00	53	29	0	334495744	52	6275
2026-01-14 21:43:59.65	70.41	14.64	-39.6	-40.8	21.0	0.00e+00	0	29	0	336592896	52	6316
2026-01-14 21:44:00.66	70.25	14.71	-39.5	-40.7	21.1	0.00e+00	90	29	0	338690048	52	6202
2026-01-14 21:44:01.67	70.08	14.77	-39.5	-40.7	21.2	0.00e+00	0	29	0	340787200	52	6189
2026-01-14 21:44:02.68	69.92	14.84	-39.2	-40.4	21.5	0.00e+00	51	29	0	342884352	52	6004
2026-01-14 21:44:03.69	69.75	14.91	-39.2	-40.4	21.3	0.00e+00	92	29	0	343932928	52	5997
2026-01-14 21:44:04.70	69.59	14.97	-39.5	-40.7	21.1	0.00e+00	0	29	0	346030080	52	6225
2026-01-14 21:44:05.71	69.42	15.04	-39.5	-40.7	21.1	0.00e+00	0	29	0	348127232	52	6225
2026-01-14 21:44:06.72	69.25	15.11	-39.6	-40.8	21.1	0.00e+00	0	29	0	350224384	52	6263
2026-01-14 21:44:07.73	69.08	15.18	-39.2	-40.4	21.5	0.00e+00	92	29	0	352321536	52	5983
2026-01-14 21:44:08.74	68.91	15.24	-39.3	-40.4	21.4	0.00e+00	0	29	0	354418688	52	6007
2026-01-14 21:44:09.75	68.74	15.31	-39.1	-40.2	21.6	0.00e+00	90	29	0	355467264	52	5844
2026-01-14 21:44:10.75	68.57	15.38	-39.2	-40.3	21.4	0.00e+00	80	29	0	357564416	52	5944
2026-01-14 21:44:11.76	68.40	15.44	-39.4	-40.6	21.2	0.00e+00	0	29	0	359661568	52	6139
2026-01-14 21:44:12.77	68.23	15.51	-39.7	-40.9	21.0	0.00e+00	90	29	0	361758720	52	6368
2026-01-14 21:44:13.78	68.05	15.58	-39.4	-40.5	21.3	0.00e+00	0	29	0	363855872	52	6096
2026-01-14 21:44:14.79	67.88	15.64	-39.4	-40.6	21.3	0.00e+00	92	29	0	364904448	52	6153
2026-01-14 21:44:15.80	67.70	15.71	-39.3	-40.5	21.2	0.00e+00	0	29	0	367001600	52	6045
2026-01-14 21:44:16.80	67.53	15.78	-39.8	-41.1	20.8	0.00e+00	91	29	0	369098752	52	6474
2026-01-14 21:44:17.82	67.35	15.84	-39.5	-40.8	21.0	0.00e+00	0	29	0	371195904	52	6261
2026-01-14 21:44:18.83	67.17	15.91	-39.8	-41.1	21.0	0.00e+00	0	29	0	372244480	52	6465
2026-01-14 21:44:19.84	66.99	15.97	-39.6	-40.9	21.1	0.00e+00	0	29	0	374341632	52	6320
2026-01-14 21:44:20.85	66.81	16.04	-39.4	-40.6	21.0	0.00e+00	0	29	0	376438784	52	6166
2026-01-14 21:44:21.85	66.63	16.11	-39.4	-40.6	21.3	0.00e+00	87	29	0	378535936	52	6137
2026-01-14 21:44:22.86	66.45	16.17	-39.1	-40.3	21.5	0.00e+00	0	29	0	380633088	52	5938
2026-01-14 21:44:23.87	66.27	16.24	-39.3	-40.5	21.3	0.00e+00	91	29	0	382730240	52	6100
2026-01-14 21:44:24.87	66.09	16.30	-38.9	-40.0	21.8	0.00e+00	0	29	0	383778816	52	5746
2026-01-14 21:44:25.88	65.91	16.37	-38.6	-39.7	22.1	0.00e+00	0	29	0	385875968	50	6224
2026-01-14 21:44:26.89	65.72	16.43	-38.6	-39.7	22.0	0.00e+00	92	29	0	387973120	50	6198
2026-01-14 21:44:27.90	65.54	16.50	-38.3	-39.3	22.4	0.00e+00	0	29	0	390070272	50	5952
2026-01-14 21:44:28.91	65.35	16.56	-38.3	-39.4	22.3	0.00e+00	42	29	0	392167424	50	5993
2026-01-14 21:44:29.92	65.17	16.63	-38.4	-39.5	22.2	0.00e+00	0	29	0	393216000	50	6056
2026-01-14 21:44:30.93	64.98	16.69	-38.3	-39.3	22.3	0.00e+00	90	29	0	395313152	50	5964
2026-01-14 21:44:31.94	64.79	16.76	-38.3	-39.3	22.4	0.00e+00	0	29	0	397410304	50	5948
2026-01-14 21:44:32.95	64.60	16.82	-38.0	-39.0	22.5	0.00e+00	0	29	0	399507456	50	5759
2026-01-14 21:44:33.96	64.41	16.89	-38.0	-39.1	22.5	0.00e+00	85	29	0	401604608	50	5792
2026-01-14 21:44:34.97	64.22	16.95	-38.0	-39.0	22.6	0.00e+00	0	29	0	402653184	50	5751
2026-01-14 21:44:35.98	64.03	17.01	-38.0	-39.1	22.6	0.00e+00	90	29	0	404750336	50	5783
2026-01-14 21:44:36.99	63.84	17.08	-37.9	-39.0	22.6	0.00e+00	0	29	0	406847488	48	6400
2026-01-14 21:44:37.99	63.65	17.14	-38.1	-39.1	22.5	0.00e+00	90	29	0	408944640	48	6492
2026-01-14 21:44:39.00	63.45	17.20	-37.8	-38.8	22.8	0.00e+00	0	29	0	411041792	48	6271
2026-01-14 21:44:40.02	63.26	17.27	-37.6	-38.6	22.9	0.00e+00	82	29	0	412090368	48	6119
2026-01-14 21:44:41.02	63.06	17.33	-37.7	-38.7	22.7	0.00e+00	25	29	0	414187520	48	6218
2026-01-14 21:44:42.03	62.86	17.39	-37.7	-38.7	22.9	0.00e+00	0	29	0	416284672	48	6205
2026-01-14 21:44:43.05	62.67	17.46	-37.5	-38.5	23.0	0.00e+00	88	29	0	418381824	48	6070
2026-01-14 21:44:44.05	62.47	17.52	-37.6	-38.7	22.9	0.00e+00	0	29	0	420478976	48	6180
2026-01-14 21:44:45.06	62.27	17.58	-37.2	-38.2	23.1	0.00e+00	91	29	0	421527552	48	5839
2026-01-14 21:44:46.07	62.07	17.64	-37.1	-38.0	23.3	0.00e+00	0	29	0	423624704	48	5752
2026-01-14 21:44:47.08	61.87	17.71	-37.1	-38.0	23.4	0.00e+00	2	29	0	425721856	48	5737
2026-01-14 21:44:48.09	61.67	17.77	-37.2	-38.2	23.2	0.00e+00	18	29	0	427819008	48	5841
2026-01-14 21:44:49.10	61.47	17.83	-37.2	-38.1	23.3	0.00e+00	0	29	0	429916160	48	5807
2026-01-14 21:44:50.11	61.26	17.89	-36.9	-37.8	23.6	0.00e+00	28	29	0	430964736	48	5598
2026-01-14 21:44:51.12	61.06	17.95	-36.9	-37.8	23.6	0.00e+00	0	29	0	433061888	48	5593
2026-01-14 21:44:52.13	60.85	18.01	-36.7	-37.6	23.7	0.00e+00	92	29	0	435159040	46	6139
2026-01-14 21:44:53.14	60.65	18.07	-36.8	-37.7	23.6	0.00e+00	0	29	0	437256192	46	6219
2026-01-14 21:44:54.15	60.44	18.13	-36.9	-37.8	23.7	0.00e+00	88	29	0	439353344	46	6311
2026-01-14 21:44:55.15	60.24	18.19	-36.8	-37.6	23.6	0.00e+00	10	29	0	440401920	46	6171
2026-01-14 21:44:56.16	60.03	18.25	-36.8	-37.6	23.6	0.00e+00	0	29	0	442499072	46	6162
2026-01-14 21:44:57.17	59.82	18.31	-36.9	-37.8	23.6	0.00e+00	85	29	0	444596224	46	6272
2026-01-14 21:44:58.18	59.61	18.37	-37.1	-38.0	23.5	0.00e+00	0	29	0	446693376	46	6420
2026-01-14 21:44:59.19	59.40	18.43	-37.2	-38.1	23.3	0.00e+00	90	29	0	448790528	46	6529
2026-01-14 21:45:00.20	59.19	18.49	-37.4	-38.3	23.2	0.00e+00	33	29	0	450887680	46	6665
2026-01-14 21:45:01.21	58.98	18.55	-37.7	-38.7	22.9	0.00e+00	90	29	0	451936256	46	6955
2026-01-14 21:45:02.22	58.76	18.61	-37.8	-38.9	22.7	0.00e+00	0	29	0	454033408	48	6325
2026-01-14 21:45:03.23	58.55	18.66	-37.6	-38.6	23.0	0.00e+00	0	29	0	456130560	48	6132
2026-01-14 21:45:04.24	58.34	18.72	-37.7	-38.7	22.9	0.00e+00	90	29	0	458227712	48	6207
2026-01-14 21:45:05.25	58.12	18.78	-37.8	-38.8	22.9	0.00e+00	0	29	0	460324864	48	6292
2026-01-14 21:45:06.26	57.90	18.84	-37.5	-38.5	23.1	0.00e+00	86	29	0	461373440	48	6092
2026-01-14 21:45:07.27	57.69	18.89	-37.2	-38.1	23.4	0.00e+00	0	29	0	463470592	48	5803
2026-01-14 21:45:08.28	57.47	18.95	-37.1	-38.0	23.4	0.00e+00	90	29	0	465567744	48	5737
2026-01-14 21:45:09.29	57.25	19.01	-37.1	-38.1	23.3	0.00e+00	0	29	0	467664896	48	5791
2026-01-14 21:45:10.30	57.03	19.06	-37.2	-38.2	23.4	0.00e+00	0	29	0	469762048	48	5835
2026-01-14 21:45:11.31	56.81	19.12	-37.1	-38.0	23.3	0.00e+00	92	29	0	470810624	48	5747
2026-01-14 21:45:12.31	56.59	19.17	-37.0	-37.9	23.2	0.00e+00	0	29	0	472907776	48	5682
2026-01-14 21:45:13.32	56.37	19.23	-36.8	-37.7	23.6	0.00e+00	89	29	0	475004928	48	5553
2026-01-14 21:45:14.33	56.15	19.28	-36.7	-37.6	23.8	0.00e+00	0	29	0	477102080	46	6151
2026-01-14 21:45:15.34	55.92	19.34	-36.6	-37.5	23.8	0.00e+00	84	29	0	479199232	46	6074
2026-01-14 21:45:16.35	55.70	19.39	-36.6	-37.5	23.8	0.00e+00	0	29	0	480247808	46	6043
2026-01-14 21:45:17.36	55.47	19.45	-36.3	-37.2	24.1	0.00e+00	0	29	0	482344960	46	5848
2026-01-14 21:45:18.37	55.25	19.50	-36.4	-37.3	24.0	0.00e+00	90	29	0	484442112	46	5926
2026-01-14 21:45:19.38	55.02	19.55	-36.0	-36.8	24.4	0.00e+00	0	29	0	486539264	46	5610
2026-01-14 21:45:20.39	54.79	19.60	-36.0	-36.8	24.3	0.00e+00	92	29	0	488636416	46	5616
2026-01-14 21:45:21.40	54.56	19.66	-36.1	-36.9	24.2	0.00e+00	0	29	0	489684992	46	5649
2026-01-14 21:45:22.41	54.33	19.71	-36.0	-36.8	24.3	0.00e+00	92	29	0	491782144	46	5604
2026-01-14 21:45:23.41	54.11	19.76	-36.1	-36.9	24.2	0.00e+00	0	29	0	493879296	46	5663
2026-01-14 21:45:24.42	53.88	19.81	-36.3	-37.2	23.9	0.00e+00	81	29	0	495976448	46	5839
2026-01-14 21:45:25.43	53.65	19.86	-36.7	-37.5	23.8	0.00e+00	90	29	0	498073600	46	6084
2026-01-14 21:45:26.44	53.41	19.91	-36.8	-37.7	23.6	0.00e+00	0	29	0	499122176	46	6179
2026-01-14 21:45:27.45	53.18	19.96	-36.8	-37.6	23.7	0.00e+00	0	29	0	501219328	46	6157
2026-01-14 21:45:28.46	52.95	20.01	-36.7	-37.5	23.7	0.00e+00	0	29	0	503316480	46	6103
2026-01-14 21:45:29.47	52.71	20.06	-36.7	-37.6	23.7	0.00e+00	90	29	0	505413632	46	6121
2026-01-14 21:45:30.48	52.48	20.11	-36.9	-37.8	23.6	0.00e+00	0	29	0	507510784	46	6258
2026-01-14 21:45:31.49	52.24	20.16	-36.8	-37.7	23.7	0.00e+00	84	29	0	508559360	46	6220
2026-01-14 21:45:32.50	52.00	20.21	-36.8	-37.7	23.7	0.00e+00	83	29	0	510656512	46	6186
2026-01-14 21:45:33.51	51.77	20.25	-36.5	-37.4	24.0	0.00e+00	0	29	0	512753664	46	5967
2026-01-14 21:45:34.52	51.53	20.30	-36.6	-37.5	23.7	0.00e+00	80	29	0	514850816	46	6068
2026-01-14 21:45:35.53	51.29	20.35	-36.7	-37.6	23.6	0.00e+00	0	29	0	516947968	46	6168
2026-01-14 21:45:36.54	51.05	20.39	-36.5	-37.4	23.9	0.00e+00	62	29	0	519045120	46	5992
2026-01-14 21:45:37.55	50.81	20.44	-36.5	-37.4	24.0	0.00e+00	0	29	0	520093696	46	5985
2026-01-14 21:45:38.55	50.57	20.48	-36.5	-37.4	23.9	0.00e+00	84	29	0	522190848	46	5982
2026-01-14 21:45:39.56	50.33	20.53	-36.3	-37.2	24.0	0.00e+00	0	29	0	524288000	46	5832
2026-01-14 21:45:40.57	50.09	20.57	-36.5	-37.3	24.1	0.00e+00	0	29	0	526385152	46	5947
2026-01-14 21:45:41.58	49.84	20.62	-36.4	-37.2	24.1	0.00e+00	90	29	0	528482304	46	5888
2026-01-14 21:45:42.59	49.60	20.66	-36.1	-36.9	24.2	0.00e+00	0	29	0	529530880	46	5692
2026-01-14 21:45:43.60	49.35	20.70	-36.0	-36.9	24.4	0.00e+00	84	29	0	531628032	46	5635
2026-01-14 21:45:44.61	49.11	20.75	-36.0	-36.9	24.3	0.00e+00	0	29	0	533725184	46	5635
2026-01-14 21:45:45.62	48.86	20.79	-36.1	-37.0	24.2	0.00e+00	92	29	0	535822336	46	5704
2026-01-14 21:45:46.63	48.62	20.83	-36.2	-37.1	23.9	0.00e+00	0	29	0	537919488	46	5766
2026-01-14 21:45:47.64	48.37	20.87	-36.3	-37.2	24.0	0.00e+00	0	29	0	538968064	46	5860
2026-01-14 21:45:48.65	48.12	20.91	-36.3	-37.2	24.1	0.00e+00	92	29	0	541065216	46	5855
2026-01-14 21:45:49.66	47.87	20.95	-36.3	-37.1	24.1	0.00e+00	0	29	0	543162368	46	5802
2026-01-14 21:45:50.67	47.62	20.99	-36.3	-37.1	24.2	0.00e+00	84	29	0	545259520	46	5791
2026-01-14 21:45:51.68	47.37	21.03	-36.3	-37.2	24.1	0.00e+00	0	29	0	547356672	46	5849
2026-01-14 21:45:52.69	47.12	21.07	-36.6	-37.4	23.9	0.00e+00	92	29	0	548405248	46	6019
2026-01-14 21:45:53.70	46.87	21.11	-36.8	-37.6	23.7	0.00e+00	0	29	0	550502400	46	6168
2026-01-14 21:45:54.71	46.62	21.14	-36.9	-37.8	23.7	0.00e+00	0	29	0	552599552	46	6306
2026-01-14 21:45:55.72	46.37	21.18	-36.7	-37.6	23.8	0.00e+00	87	29	0	554696704	46	6150
2026-01-14 21:45:56.73	46.11	21.22	-37.0	-37.9	23.4	0.00e+00	0	29	0	556793856	46	6363
2026-01-14 21:45:57.74	45.86	21.25	-37.5	-38.4	23.1	0.00e+00	92	29	0	557842432	46	6751
2026-01-14 21:45:58.75	45.61	21.29	-37.7	-38.7	23.0	0.00e+00	0	29	0	559939584	46	6940
2026-01-14 21:45:59.76	45.35	21.32	-37.8	-38.8	22.7	0.00e+00	92	29	0	562036736	48	6280
2026-01-14 21:46:00.77	45.10	21.36	-37.8	-38.7	22.9	0.00e+00	0	29	0	564133888	48	6236
2026-01-14 21:46:01.78	44.84	21.39	-37.7	-38.6	23.0	0.00e+00	0	29	0	566231040	48	6144
2026-01-14 21:46:02.79	44.58	21.42	-37.8	-38.8	22.9	0.00e+00	86	29	0	567279616	48	6266
2026-01-14 21:46:03.80	44.33	21.46	-38.0	-39.0	22.7	0.00e+00	0	29	0	569376768	48	6432
2026-01-14 21:46:04.81	44.07	21.49	-38.1	-39.2	22.5	0.00e+00	87	29	0	571473920	48	6543
2026-01-14 21:46:05.82	43.81	21.52	-38.4	-39.4	22.5	0.00e+00	0	29	0	573571072	48	6724
2026-01-14 21:46:06.83	43.55	21.55	-38.0	-39.0	22.6	0.00e+00	90	29	0	575668224	48	6456
2026-01-14 21:46:07.84	43.29	21.58	-37.8	-38.7	22.7	0.00e+00	0	29	0	576716800	48	6242
2026-01-14 21:46:08.85	43.03	21.61	-37.7	-38.6	22.9	0.00e+00	81	29	0	578813952	48	6169
2026-01-14 21:46:09.86	42.77	21.64	-38.0	-38.9	22.8	0.00e+00	25	29	0	580911104	48	6380
2026-01-14 21:46:10.87	42.51	21.67	-37.7	-38.6	23.1	0.00e+00	0	29	0	583008256	48	6151
2026-01-14 21:46:11.88	42.25	21.69	-37.7	-38.7	23.0	0.00e+00	43	29	0	585105408	48	6192
2026-01-14 21:46:12.89	41.99	21.72	-38.0	-39.0	22.8	0.00e+00	0	29	0	587202560	48	6414
2026-01-14 21:46:13.89	41.73	21.75	-37.7	-38.7	22.9	0.00e+00	87	29	0	588251136	48	6212
2026-01-14 21:46:14.90	41.47	21.77	-38.0	-39.0	22.7	0.00e+00	0	29	0	590348288	48	6424
2026-01-14 21:46:15.91	41.21	21.80	-38.4	-39.5	22.3	0.00e+00	77	29	0	592445440	48	6815
2026-01-14 21:46:16.92	40.94	21.82	-38.9	-40.1	21.9	0.00e+00	9	29	0	594542592	50	6480
2026-01-14 21:46:17.93	40.68	21.85	-38.8	-40.0	21.9	0.00e+00	0	29	0	596639744	50	6401
2026-01-14 21:46:18.94	40.41	21.87	-38.4	-39.5	22.4	0.00e+00	86	29	0	597688320	50	6041
2026-01-14 21:46:19.95	40.15	21.89	-38.1	-39.1	22.8	0.00e+00	0	29	0	599785472	50	5762
2026-01-14 21:46:20.96	39.88	21.92	-37.7	-38.7	22.9	0.00e+00	80	29	0	601882624	50	5505
2026-01-14 21:46:21.97	39.62	21.94	-37.9	-38.9	22.8	0.00e+00	0	29	0	603979776	48	6355
2026-01-14 21:46:22.97	39.36	21.96	-38.0	-39.0	22.7	0.00e+00	55	29	0	605028352	48	6439
2026-01-14 21:46:23.98	39.09	21.98	-37.9	-38.9	22.8	0.00e+00	0	29	0	607125504	48	6338
2026-01-14 21:46:24.99	38.82	22.00	-37.9	-38.8	22.8	0.00e+00	0	29	0	609222656	48	6316
2026-01-14 21:46:26.00	38.56	22.02	-38.0	-38.9	22.8	0.00e+00	90	29	0	611319808	48	6375
2026-01-14 21:46:27.01	38.29	22.03	-38.3	-39.3	22.4	0.00e+00	0	29	0	613416960	48	6666
2026-01-14 21:46:28.02	38.02	22.05	-38.5	-39.5	22.3	0.00e+00	88	29	0	615514112	48	6792
2026-01-14 21:46:29.03	37.76	22.07	-38.2	-39.2	22.7	0.00e+00	0	29	0	616562688	48	6542
2026-01-14 21:46:30.04	37.49	22.09	-37.9	-38.9	22.8	0.00e+00	90	29	0	618659840	48	6339
2026-01-14 21:46:31.05	37.22	22.10	-37.7	-38.7	23.0	0.00e+00	0	29	0	620756992	48	6184
2026-01-14 21:46:32.06	36.95	22.12	-38.1	-39.1	22.6	0.00e+00	49	29	0	622854144	48	6515
2026-01-14 21:46:33.07	36.68	22.13	-38.5	-39.5	22.2	0.00e+00	57	29	0	624951296	48	6831
2026-01-14 21:46:34.08	36.41	22.14	-39.0	-40.1	21.8	0.00e+00	0	29	0	625999872	50	6495
2026-01-14 21:46:35.08	36.15	22.16	-39.4	-40.5	21.6	0.00e+00	74	29	0	628097024	50	6847
2026-01-14 21:46:36.10	35.88	22.17	-39.1	-40.3	21.7	0.00e+00	0	29	0	630194176	50	6643
2026-01-14 21:46:37.11	35.61	22.18	-39.1	-40.2	21.7	0.00e+00	70	29	0	632291328	50	6554
2026-01-14 21:46:38.11	35.34	22.19	-39.3	-40.5	21.5	0.00e+00	0	29	0	634388480	50	6781
2026-01-14 21:46:39.12	35.07	22.20	-39.6	-40.8	21.2	0.00e+00	69	29	0	635437056	50	7025
2026-01-14 21:46:40.13	34.80	22.21	-39.7	-41.0	21.1	0.00e+00	51	29	0	637534208	50	7190
2026-01-14 21:46:41.14	34.53	22.22	-39.7	-41.0	21.1	0.00e+00	0	29	0	639631360	52	6394
2026-01-14 21:46:42.15	34.26	22.23	-39.3	-40.5	21.6	0.00e+00	1	29	0	641728512	52	6068
2026-01-14 21:46:43.15	33.99	22.24	-38.7	-39.8	22.0	0.00e+00	0	29	0	643825664	50	6248
2026-01-14 21:46:44.16	33.72	22.24	-38.4	-39.5	22.4	0.00e+00	58	29	0	644874240	50	6039
2026-01-14 21:46:45.17	33.45	22.25	-38.3	-39.3	22.6	0.00e+00	0	29	0	646971392	50	5919
2026-01-14 21:46:46.18	33.18	22.26	-37.9	-38.8	22.8	0.00e+00	91	29	0	649068544	50	5620
2026-01-14 21:46:47.19	32.91	22.26	-37.8	-38.7	22.9	0.00e+00	0	29	0	651165696	48	6240
2026-01-14 21:46:48.20	32.64	22.27	-37.8	-38.8	22.9	0.00e+00	0	29	0	653262848	48	6279
2026-01-14 21:46:49.21	32.37	22.27	-37.8	-38.7	22.9	0.00e+00	92	29	0	654311424	48	6234
2026-01-14 21:46:50.22	32.09	22.27	-37.6	-38.6	23.0	0.00e+00	0	29	0	656408576	48	6119
2026-01-14 21:46:51.23	31.82	22.27	-37.6	-38.5	23.1	0.00e+00	0	29	0	658505728	48	6058
2026-01-14 21:46:52.24	31.55	22.28	-37.5	-38.4	23.2	0.00e+00	0	29	0	660602880	48	5997
2026-01-14 21:46:53.25	31.28	22.28	-37.4	-38.3	23.2	0.00e+00	0	29	0	662700032	48	5920
2026-01-14 21:46:54.26	31.01	22.28	-37.4	-38.4	23.2	0.00e+00	0	29	0	663748608	48	5973
2026-01-14 21:46:55.27	30.74	22.28	-37.5	-38.5	23.1	0.00e+00	0	29	0	665845760	48	6049
2026-01-14 21:46:56.27	30.47	22.27	-37.6	-38.5	23.1	0.00e+00	91	29	0	667942912	48	6095
2026-01-14 21:46:57.28	30.20	22.27	-37.7	-38.7	22.9	0.00e+00	0	29	0	670040064	48	6227
2026-01-14 21:46:58.29	29.93	22.27	-37.8	-38.8	23.0	0.00e+00	92	29	0	672137216	48	6259
2026-01-14 21:46:59.30	29.66	22.27	-37.9	-38.9	22.7	0.00e+00	0	29	0	673185792	48	6381
2026-01-14 21:47:00.31	29.39	22.26	-37.7	-38.7	22.9	0.00e+00	0	29	0	675282944	48	6223
2026-01-14 21:47:01.32	29.12	22.26	-37.9	-38.9	22.8	0.00e+00	0	29	0	677380096	48	6345
2026-01-14 21:47:02.33	28.84	22.25	-37.7	-38.7	23.0	0.00e+00	0	29	0	679477248	48	6198
2026-01-14 21:47:03.34	28.57	22.25	-37.4	-38.3	23.2	0.00e+00	40	29	0	681574400	48	5964
2026-01-14 21:47:04.35	28.30	22.24	-37.1	-38.0	23.5	0.00e+00	0	29	0	683671552	48	5731
2026-01-14 21:47:05.36	28.03	22.23	-36.9	-37.7	23.7	0.00e+00	89	29	0	684720128	48	5546
2026-01-14 21:47:06.37	27.76	22.22	-37.0	-37.9	22.9	0.00e+00	0	29	0	686817280	46	6348
2026-01-14 21:47:07.38	27.49	22.21	-37.1	-38.0	23.4	0.00e+00	0	29	0	688914432	46	6430
2026-01-14 21:47:08.39	27.22	22.21	-37.3	-38.2	23.3	0.00e+00	0	29	0	691011584	46	6580
2026-01-14 21:47:09.40	26.95	22.20	-37.3	-38.2	23.1	0.00e+00	0	29	0	693108736	46	6612
2026-01-14 21:47:10.41	26.68	22.18	-37.2	-38.1	23.4	0.00e+00	89	29	0	694157312	46	6474
2026-01-14 21:47:11.42	26.41	22.17	-36.8	-37.6	23.7	0.00e+00	0	29	0	696254464	46	6169
2026-01-14 21:47:12.43	26.14	22.16	-36.4	-37.2	24.0	0.00e+00	92	29	0	698351616	46	5874
2026-01-14 21:47:13.44	25.88	22.15	-36.4	-37.2	24.1	0.00e+00	0	29	0	700448768	46	5856
2026-01-14 21:47:14.45	25.61	22.13	-36.4	-37.2	23.9	0.00e+00	0	29	0	702545920	46	5880
2026-01-14 21:47:15.45	25.34	22.12	-36.5	-37.4	24.0	0.00e+00	0	29	0	703594496	46	5975
2026-01-14 21:47:16.46	25.07	22.11	-36.7	-37.6	23.7	0.00e+00	0	29	0	705691648	46	6159
2026-01-14 21:47:17.47	24.80	22.09	-36.8	-37.7	23.7	0.00e+00	73	29	0	707788800	46	6200
2026-01-14 21:47:18.48	24.54	22.07	-36.6	-37.5	23.8	0.00e+00	0	29	0	709885952	46	6080
2026-01-14 21:47:19.49	24.27	22.06	-36.5	-37.3	23.9	0.00e+00	83	29	0	711983104	46	5957
2026-01-14 21:47:20.50	24.00	22.04	-36.2	-37.0	24.2	0.00e+00	0	29	0	713031680	46	5761
2026-01-14 21:47:21.51	23.74	22.02	-36.1	-36.9	24.3	0.00e+00	0	29	0	715128832	46	5660
2026-01-14 21:47:22.52	23.47	22.00	-35.9	-36.8	24.4	0.00e+00	0	29	0	717225984	46	5575
2026-01-14 21:47:23.53	23.20	21.98	-36.1	-36.9	24.4	0.00e+00	0	29	0	719323136	46	5678
2026-01-14 21:47:24.54	22.94	21.96	-36.3	-37.1	24.1	0.00e+00	0	29	0	721420288	46	5813
2026-01-14 21:47:25.54	22.67	21.94	-36.4	-37.2	24.1	0.00e+00	0	29	0	722468864	46	5886
2026-01-14 21:47:26.55	22.41	21.92	-36.5	-37.4	24.0	0.00e+00	77	29	0	724566016	46	5972
2026-01-14 21:47:27.56	22.14	21.90	-36.6	-37.4	23.8	0.00e+00	0	29	0	726663168	46	6024
2026-01-14 21:47:28.57	21.88	21.88	-36.6	-37.5	23.8	0.00e+00	84	29	0	728760320	46	6042
2026-01-14 21:47:29.58	21.62	21.85	-36.5	-37.4	23.9	0.00e+00	0	29	0	730857472	46	5997
2026-01-14 21:47:30.59	21.35	21.83	-36.5	-37.4	23.9	0.00e+00	0	29	0	731906048	46	5991
2026-01-14 21:47:31.60	21.09	21.81	-36.5	-37.3	24.1	0.00e+00	17	29	0	734003200	46	5959
2026-01-14 21:47:32.61	20.83	21.78	-36.7	-37.5	23.9	0.00e+00	0	29	0	736100352	46	6093
2026-01-14 21:47:33.62	20.56	21.75	-36.5	-37.4	24.0	0.00e+00	82	29	0	738197504	46	5996
2026-01-14 21:47:34.63	20.30	21.73	-36.5	-37.3	24.1	0.00e+00	0	29	0	740294656	46	5943
2026-01-14 21:47:35.64	20.04	21.70	-36.3	-37.1	24.1	0.00e+00	69	29	0	741343232	46	5820
2026-01-14 21:47:36.65	19.78	21.67	-36.0	-36.9	24.2	0.00e+00	0	29	0	743440384	46	5637
2026-01-14 21:47:37.66	19.52	21.65	-35.9	-36.7	24.5	0.00e+00	0	29	0	745537536	46	5518
2026-01-14 21:47:38.67	19.26	21.62	-36.1	-36.9	24.2	0.00e+00	0	29	0	747634688	46	5692
2026-01-14 21:47:39.68	19.00	21.59	-36.2	-37.1	24.1	0.00e+00	0	29	0	749731840	46	5779
2026-01-14 21:47:40.69	18.74	21.56	-36.6	-37.5	23.9	0.00e+00	4	29	0	751828992	46	6059
2026-01-14 21:47:41.70	18.48	21.53	-37.1	-38.0	23.5	0.00e+00	0	29	0	752877568	46	6407
2026-01-14 21:47:42.71	18.23	21.50	-37.0	-37.9	23.6	0.00e+00	85	29	0	754974720	46	6379
2026-01-14 21:47:43.71	17.97	21.46	-37.0	-37.8	23.6	0.00e+00	0	29	0	757071872	46	6311
2026-01-14 21:47:44.72	17.71	21.43	-37.1	-38.0	23.6	0.00e+00	0	29	0	759169024	46	6431
2026-01-14 21:47:45.73	17.46	21.40	-37.0	-37.9	23.6	0.00e+00	0	29	0	761266176	46	6329
2026-01-14 21:47:46.74	17.20	21.37	-36.8	-37.7	23.5	0.00e+00	0	29	0	762314752	46	6213
2026-01-14 21:47:47.75	16.95	21.33	-36.7	-37.6	23.8	0.00e+00	84	29	0	764411904	46	6130
2026-01-14 21:47:48.76	16.69	21.30	-36.7	-37.6	23.8	0.00e+00	0	29	0	766509056	46	6108
2026-01-14 21:47:49.77	16.44	21.26	-36.9	-37.8	23.7	0.00e+00	82	29	0	768606208	46	6305
2026-01-14 21:47:50.78	16.18	21.23	-37.1	-38.0	23.4	0.00e+00	0	29	0	770703360	46	6438
2026-01-14 21:47:51.79	15.93	21.19	-37.7	-38.6	22.9	0.00e+00	0	29	0	771751936	46	6911
2026-01-14 21:47:52.80	15.68	21.15	-37.9	-38.9	22.8	0.00e+00	0	29	0	773849088	48	6333
2026-01-14 21:47:53.81	15.43	21.12	-38.2	-39.2	22.5	0.00e+00	0	29	0	775946240	48	6603
2026-01-14 21:47:54.81	15.18	21.08	-38.4	-39.5	22.2	0.00e+00	81	29	0	778043392	48	6771
2026-01-14 21:47:55.83	14.93	21.04	-38.6	-39.7	22.2	0.00e+00	0	29	0	780140544	48	6960
2026-01-14 21:47:56.83	14.68	21.00	-38.5	-39.6	22.3	0.00e+00	91	29	0	781189120	48	6861
2026-01-14 21:47:57.84	14.43	20.96	-38.8	-39.9	22.0	0.00e+00	0	29	0	783286272	48	7089
2026-01-14 21:47:58.85	14.18	20.92	-38.9	-40.0	21.9	0.00e+00	0	29	0	785383424	50	6451
2026-01-14 21:47:59.86	13.93	20.88	-38.5	-39.6	22.3	0.00e+00	0	29	0	787480576	50	6139
2026-01-14 21:48:00.87	13.69	20.84	-38.5	-39.6	22.2	0.00e+00	0	29	0	789577728	50	6112
2026-01-14 21:48:01.88	13.44	20.80	-38.1	-39.1	22.6	0.00e+00	73	29	0	790626304	50	5808
2026-01-14 21:48:02.89	13.19	20.76	-38.1	-39.1	22.7	0.00e+00	0	29	0	792723456	50	5805
2026-01-14 21:48:03.90	12.95	20.72	-37.7	-38.6	23.0	0.00e+00	43	29	0	794820608	50	5500
2026-01-14 21:48:04.91	12.70	20.67	-37.8	-38.8	22.9	0.00e+00	0	29	0	796917760	48	6249
2026-01-14 21:48:05.92	12.46	20.63	-38.2	-39.2	22.6	0.00e+00	84	29	0	799014912	48	6560
2026-01-14 21:48:06.93	12.22	20.59	-38.4	-39.5	22.3	0.00e+00	0	29	0	800063488	48	6773
2026-01-14 21:48:07.94	11.98	20.54	-38.2	-39.2	22.5	0.00e+00	0	29	0	802160640	48	6595
2026-01-14 21:48:08.95	11.73	20.50	-38.2	-39.2	22.7	0.00e+00	0	29	0	804257792	48	6559
2026-01-14 21:48:09.96	11.49	20.45	-37.8	-38.8	22.9	0.00e+00	0	29	0	806354944	48	6255
2026-01-14 21:48:10.97	11.25	20.41	-38.2	-39.2	22.8	0.00e+00	86	29	0	808452096	48	6541
2026-01-14 21:48:11.98	11.01	20.36	-38.0	-39.0	22.6	0.00e+00	0	29	0	809500672	48	6432
2026-01-14 21:48:12.99	10.77	20.32	-37.9	-38.8	22.9	0.00e+00	92	29	0	811597824	48	6295
2026-01-14 21:48:13.99	10.54	20.27	-37.5	-38.4	23.3	0.00e+00	0	29	0	813694976	48	5978
2026-01-14 21:48:15.00	10.30	20.22	-37.3	-38.2	23.4	0.00e+00	0	29	0	815792128	48	5844
2026-01-14 21:48:16.01	10.07	20.17	-37.1	-37.9	23.6	0.00e+00	0	29	0	817889280	48	5673
2026-01-14 21:48:17.02	9.83	20.13	-37.0	-37.8	23.6	0.00e+00	0	29	0	818937856	48	5610
2026-01-14 21:48:18.03	9.59	20.08	-37.1	-38.0	23.5	0.00e+00	65	29	0	821035008	48	5704
2026-01-14 21:48:19.04	9.36	20.03	-37.2	-38.1	23.1	0.00e+00	0	29	0	823132160	48	5818
2026-01-14 21:48:20.05	9.13	19.98	-37.3	-38.2	23.2	0.00e+00	87	29	0	825229312	48	5884
2026-01-14 21:48:21.06	8.89	19.93	-37.6	-38.6	23.0	0.00e+00	0	29	0	827326464	48	6133
2026-01-14 21:48:22.07	8.66	19.88	-38.2	-39.2	22.4	0.00e+00	0	29	0	828375040	48	6566
2026-01-14 21:48:23.08	8.43	19.83	-38.7	-39.8	21.9	0.00e+00	0	29	0	830472192	48	7052
2026-01-14 21:48:24.09	8.20	19.78	-39.0	-40.1	21.7	0.00e+00	0	29	0	832569344	50	6492
2026-01-14 21:48:25.10	7.97	19.73	-39.3	-40.5	21.5	0.00e+00	56	29	0	834666496	50	6806
2026-01-14 21:48:26.11	7.74	19.68	-39.3	-40.4	21.7	0.00e+00	0	29	0	836763648	50	6743
2026-01-14 21:48:27.11	7.52	19.62	-39.0	-40.2	21.9	0.00e+00	60	29	0	837812224	50	6542
2026-01-14 21:48:28.12	7.29	19.57	-38.6	-39.7	22.2	0.00e+00	0	29	0	839909376	50	6209
2026-01-14 21:48:29.13	7.06	19.52	-38.7	-39.8	22.1	0.00e+00	0	29	0	842006528	50	6281
2026-01-14 21:48:30.14	6.84	19.47	-38.7	-39.8	22.1	0.00e+00	0	29	0	844103680	50	6266
2026-01-14 21:48:31.15	6.61	19.41	-39.1	-40.3	21.5	0.00e+00	0	29	0	846200832	50	6643
2026-01-14 21:48:32.16	6.39	19.36	-39.8	-41.1	21.0	0.00e+00	0	29	0	848297984	52	6471
2026-01-14 21:48:33.17	6.16	19.30	-40.4	-41.8	20.4	0.00e+00	0	29	0	849346560	52	7050
2026-01-14 21:48:34.18	5.94	19.25	-40.6	-42.1	20.6	0.00e+00	92	29	0	851443712	52	7312
2026-01-14 21:48:35.19	5.72	19.19	-40.1	-41.5	20.5	0.00e+00	0	29	0	853540864	52	6830
2026-01-14 21:48:36.20	5.50	19.14	-40.0	-41.4	20.7	0.00e+00	90	29	0	855638016	52	6752
2026-01-14 21:48:37.21	5.28	19.08	-39.9	-41.3	20.9	0.00e+00	0	29	0	857735168	52	6619
2026-01-14 21:48:38.22	5.06	19.03	-39.5	-40.7	21.4	0.00e+00	0	29	0	858783744	52	6205
2026-01-14 21:48:39.22	4.84	18.97	-38.9	-40.0	22.0	0.00e+00	0	29	0	860880896	52	5740
2026-01-14 21:48:40.23	4.63	18.92	-38.3	-39.3	22.6	0.00e+00	0	29	0	862978048	50	5961
2026-01-14 21:48:41.24	4.41	18.86	-37.9	-38.9	22.9	0.00e+00	78	29	0	865075200	50	5665
2026-01-14 21:48:42.25	4.19	18.80	-37.6	-38.6	23.1	0.00e+00	0	29	0	867172352	48	6117
2026-01-14 21:48:43.26	3.98	18.74	-37.2	-38.1	23.4	0.00e+00	85	29	0	868220928	48	5787
2026-01-14 21:48:44.27	3.76	18.69	-37.0	-37.9	23.6	0.00e+00	0	29	0	870318080	48	5694
2026-01-14 21:48:45.28	3.55	18.63	-37.0	-37.9	23.5	0.00e+00	0	29	0	872415232	48	5689
2026-01-14 21:48:46.29	3.34	18.57	-37.1	-38.0	23.6	0.00e+00	0	29	0	874512384	48	5725
2026-01-14 21:48:47.30	3.13	18.51	-37.1	-38.1	23.5	0.00e+00	0	29	0	876609536	48	5763
2026-01-14 21:48:48.30	2.92	18.45	-37.2	-38.1	23.4	0.00e+00	1	29	0	877658112	48	5804
2026-01-14 21:48:49.32	2.70	18.40	-37.3	-38.2	23.3	0.00e+00	0	29	0	879755264	48	5846
2026-01-14 21:48:50.32	2.50	18.34	-37.1	-37.9	23.4	0.00e+00	80	29	0	881852416	48	5689
2026-01-14 21:48:51.33	2.29	18.28	-37.3	-38.2	23.3	0.00e+00	0	29	0	883949568	48	5846
2026-01-14 21:48:52.34	2.08	18.22	-37.0	-37.9	23.6	0.00e+00	0	29	0	886046720	48	5692
2026-01-14 21:48:53.35	1.87	18.16	-36.9	-37.8	23.6	0.00e+00	0	29	0	887095296	48	5618
2026-01-14 21:48:54.36	1.67	18.10	-36.8	-37.6	23.8	0.00e+00	0	29	0	889192448	46	6160
2026-01-14 21:48:55.37	1.46	18.04	-36.9	-37.8	23.6	0.00e+00	73	29	0	891289600	46	6279
2026-01-14 21:48:56.38	1.26	17.98	-37.0	-37.9	23.5	0.00e+00	0	29	0	893386752	46	6388
2026-01-14 21:48:57.39	1.05	17.92	-37.4	-38.4	23.1	0.00e+00	87	29	0	895483904	46	6719
2026-01-14 21:48:58.40	0.85	17.85	-37.7	-38.7	22.8	0.00e+00	0	29	0	896532480	48	6232
2026-01-14 21:48:59.41	0.65	17.79	-38.3	-39.4	22.4	0.00e+00	0	29	0	898629632	48	6739
2026-01-14 21:49:00.42	0.45	17.73	-38.7	-39.9	21.9	0.00e+00	0	29	0	900726784	50	6325
2026-01-14 21:49:01.42	0.25	17.67	-39.2	-40.4	21.5	0.00e+00	0	29	0	902823936	50	6695
2026-01-14 21:49:02.43	0.05	17.61	-39.4	-40.6	21.3	0.00e+00	0	29	0	904921088	50	6906
2026-01-14 21:49:03.44	359.85	17.55	-39.2	-40.4	21.6	0.00e+00	0	29	0	905969664	50	6724
2026-01-14 21:49:04.45	359.65	17.48	-39.1	-40.3	21.7	0.00e+00	84	29	0	908066816	50	6623
2026-01-14 21:49:05.46	359.46	17.42	-38.8	-39.9	22.1	0.00e+00	0	29	0	910163968	50	6343
2026-01-14 21:49:06.47	359.26	17.36	-38.5	-39.5	22.2	0.00e+00	0	29	0	912261120	50	6102
2026-01-14 21:49:07.48	359.07	17.30	-38.0	-39.0	22.6	0.00e+00	0	29	0	914358272	50	5754
2026-01-14 21:49:08.49	358.87	17.23	-37.7	-38.7	23.0	0.00e+00	0	29	0	915406848	50	5503
2026-01-14 21:49:09.50	358.68	17.17	-37.4	-38.3	23.2	0.00e+00	0	29	0	917504000	48	5951
2026-01-14 21:49:10.51	358.48	17.11	-37.5	-38.4	23.1	0.00e+00	0	29	0	919601152	48	6007
2026-01-14 21:49:11.52	358.29	17.04	-37.3	-38.3	23.1	0.00e+00	34	29	0	921698304	48	5898
2026-01-14 21:49:12.53	358.10	16.98	-37.1	-38.1	23.3	0.00e+00	0	29	0	923795456	48	5763
2026-01-14 21:49:13.54	357.91	16.91	-37.1	-38.0	23.4	0.00e+00	8	29	0	925892608	48	5726
2026-01-14 21:49:14.55	357.72	16.85	-37.0	-37.9	23.4	0.00e+00	0	29	0	926941184	48	5640
2026-01-14 21:49:15.56	357.53	16.79	-37.1	-38.0	23.3	0.00e+00	0	29	0	929038336	48	5759
2026-01-14 21:49:16.56	357.35	16.72	-37.4	-38.3	23.2	0.00e+00	0	29	0	931135488	48	5921
2026-01-14 21:49:17.58	357.16	16.66	-37.7	-38.7	23.0	0.00e+00	0	29	0	933232640	48	6190
2026-01-14 21:49:18.59	356.97	16.59	-38.1	-39.1	22.6	0.00e+00	78	29	0	935329792	48	6515
2026-01-14 21:49:19.60	356.79	16.53	-38.5	-39.6	22.2	0.00e+00	0	29	0	936378368	48	6881
2026-01-14 21:49:20.61	356.60	16.46	-38.4	-39.5	22.2	0.00e+00	92	29	0	938475520	48	6818
2026-01-14 21:49:21.62	356.42	16.40	-38.6	-39.7	22.0	0.00e+00	0	29	0	940572672	48	6979
2026-01-14 21:49:22.63	356.24	16.33	-38.5	-39.6	22.2	0.00e+00	0	29	0	942669824	48	6882
2026-01-14 21:49:23.63	356.05	16.27	-38.2	-39.2	22.4	0.00e+00	0	29	0	944766976	48	6587
2026-01-14 21:49:24.64	355.87	16.20	-38.3	-39.3	22.4	0.00e+00	0	29	0	945815552	48	6679
2026-01-14 21:49:25.65	355.69	16.14	-38.3	-39.4	22.3	0.00e+00	83	29	0	947912704	48	6708
2026-01-14 21:49:26.66	355.51	16.07	-38.5	-39.6	22.1	0.00e+00	0	29	0	950009856	48	6876
2026-01-14 21:49:27.67	355.33	16.01	-38.3	-39.4	22.3	0.00e+00	89	29	0	952107008	48	6718
2026-01-14 21:49:28.68	355.16	15.94	-38.3	-39.4	22.3	0.00e+00	0	29	0	954204160	48	6729
2026-01-14 21:49:29.69	354.98	15.87	-38.3	-39.4	22.3	0.00e+00	0	29	0	955252736	48	6711
2026-01-14 21:49:30.70	354.80	15.81	-38.4	-39.5	22.1	0.00e+00	0	29	0	957349888	48	6839
2026-01-14 21:49:31.71	354.63	15.74	-38.3	-39.4	22.3	0.00e+00	0	29	0	959447040	48	6739
2026-01-14 21:49:32.72	354.45	15.67	-38.3	-39.4	22.3	0.00e+00	0	29	0	961544192	48	6736
2026-01-14 21:49:33.73	354.28	15.61	-38.5	-39.6	22.1	0.00e+00	0	29	0	963641344	48	6914
2026-01-14 21:49:34.74	354.10	15.54	-38.1	-39.2	22.4	0.00e+00	81	29	0	964689920	48	6548
2026-01-14 21:49:35.75	353.93	15.48	-38.0	-38.9	22.7	0.00e+00	0	29	0	966787072	48	6390
2026-01-14 21:49:36.76	353.76	15.41	-37.6	-38.6	22.9	0.00e+00	0	29	0	968884224	48	6144
2026-01-14 21:49:37.77	353.59	15.34	-37.4	-38.4	23.1	0.00e+00	0	29	0	970981376	48	5984
2026-01-14 21:49:38.77	353.42	15.28	-37.1	-38.0	23.4	0.00e+00	0	29	0	973078528	48	5759
2026-01-14 21:49:39.78	353.25	15.21	-37.0	-37.9	23.5	0.00e+00	0	29	0	974127104	48	5647
2026-01-14 21:49:40.79	353.08	15.14	-37.1	-38.0	23.4	0.00e+00	0	29	0	976224256	48	5732
2026-01-14 21:49:41.80	352.91	15.08	-37.0	-37.9	23.4	0.00e+00	83	29	0	978321408	48	5666
2026-01-14 21:49:42.81	352.75	15.01	-37.2	-38.1	23.3	0.00e+00	0	29	0	980418560	48	5787
2026-01-14 21:49:43.82	352.58	14.94	-37.1	-38.0	23.2	0.00e+00	30	29	0	982515712	48	5708
2026-01-14 21:49:44.83	352.41	14.87	-37.0	-37.9	23.4	0.00e+00	0	29	0	983564288	48	5647
2026-01-14 21:49:45.84	352.25	14.81	-37.0	-37.9	23.6	0.00e+00	33	29	0	985661440	48	5635
2026-01-14 21:49:46.85	352.08	14.74	-36.6	-37.4	23.8	0.00e+00	0	29	0	987758592	46	6031
2026-01-14 21:49:47.86	351.92	14.67	-36.2	-37.0	24.1	0.00e+00	0	29	0	989855744	46	5733
2026-01-14 21:49:48.87	351.76	14.60	-36.2	-37.0	24.1	0.00e+00	81	29	0	991952896	46	5739
2026-01-14 21:49:49.88	351.60	14.54	-36.2	-37.0	24.1	0.00e+00	0	29	0	994050048	46	5716
2026-01-14 21:49:50.89	351.43	14.47	-36.2	-37.0	24.2	0.00e+00	44	29	0	995098624	46	5754
2026-01-14 21:49:51.89	351.28	14.40	-36.7	-37.5	23.9	0.00e+00	0	29	0	997195776	46	6097
2026-01-14 21:49:52.90	351.12	14.34	-36.7	-37.6	23.7	0.00e+00	0	29	0	999292928	46	6118
2026-01-14 21:49:53.91	350.96	14.27	-36.6	-37.5	23.7	0.00e+00	0	29	0	1001390080	46	6077
2026-01-14 21:49:54.92	350.80	14.20	-36.8	-37.7	23.7	0.00e+00	0	29	0	1002438656	46	6196
2026-01-14 21:49:55.93	350.64	14.13	-37.0	-37.9	23.3	0.00e+00	83	29	0	1004535808	46	6377
2026-01-14 21:49:56.94	350.48	14.06	-37.2	-38.2	23.3	0.00e+00	0	29	0	1006632960	46	6546
2026-01-14 21:49:57.95	350.33	14.00	-37.4	-38.4	23.1	0.00e+00	83	29	0	1008730112	46	6709
2026-01-14 21:49:58.96	350.17	13.93	-37.3	-38.2	23.1	0.00e+00	0	29	0	1010827264	46	6607
2026-01-14 21:49:59.97	350.02	13.86	-37.2	-38.1	23.2	0.00e+00	0	29	0	1011875840	46	6521
2026-01-14 21:50:00.98	349.87	13.79	-37.2	-38.1	23.3	0.00e+00	0	29	0	1013972992	46	6502
2026-01-14 21:50:01.99	349.71	13.73	-37.1	-38.0	23.3	0.00e+00	0	29	0	1016070144	46	6463
2026-01-14 21:50:03.00	349.56	13.66	-37.0	-37.8	23.4	0.00e+00	85	29	0	1018167296	46	6309
2026-01-14 21:50:04.01	349.41	13.59	-36.6	-37.4	23.7	0.00e+00	0	29	0	1020264448	46	6015
2026-01-14 21:50:05.02	349.26	13.52	-36.5	-37.3	23.8	0.00e+00	70	29	0	1022361600	46	5930
2026-01-14 21:50:06.03	349.11	13.45	-36.5	-37.3	23.9	0.00e+00	0	29	0	1023410176	46	5937
2026-01-14 21:50:07.04	348.96	13.39	-36.4	-37.3	23.9	0.00e+00	0	29	0	1025507328	46	5933
2026-01-14 21:50:08.05	348.81	13.32	-36.7	-37.6	23.6	0.00e+00	0	29	0	1027604480	46	6137
2026-01-14 21:50:09.06	348.66	13.25	-37.1	-38.0	23.3	0.00e+00	0	29	0	1029701632	46	6449
2026-01-14 21:50:10.07	348.51	13.18	-37.2	-38.1	23.2	0.00e+00	65	29	0	1031798784	46	6491
2026-01-14 21:50:11.08	348.37	13.12	-37.4	-38.4	23.0	0.00e+00	0	29	0	1032847360	46	6695
2026-01-14 21:50:12.09	348.22	13.05	-37.7	-38.6	22.9	0.00e+00	87	29	0	1034944512	46	6922
2026-01-14 21:50:13.10	348.07	12.98	-37.6	-38.6	22.9	0.00e+00	0	29	0	1037041664	48	6131
2026-01-14 21:50:14.11	347.93	12.91	-37.8	-38.9	22.6	0.00e+00	0	29	0	1039138816	48	6318
2026-01-14 21:50:15.11	347.79	12.84	-38.0	-39.0	22.4	0.00e+00	0	29	0	1041235968	48	6459
2026-01-14 21:50:16.12	347.64	12.78	-38.0	-39.0	22.4	0.00e+00	0	29	0	1042284544	48	6441
2026-01-14 21:50:17.13	347.50	12.71	-38.0	-39.0	22.5	0.00e+00	14	29	0	1044381696	48	6427
2026-01-14 21:50:18.14	347.36	12.64	-37.8	-38.8	22.7	0.00e+00	0	29	0	1046478848	48	6300
2026-01-14 21:50:19.15	347.22	12.57	-38.0	-39.1	22.4	0.00e+00	48	29	0	1048576000	48	6479
2026-01-14 21:50:20.16	347.08	12.51	-38.1	-39.2	22.4	0.00e+00	0	29	0	1050673152	48	6567
2026-01-14 21:50:21.17	346.94	12.44	-38.0	-39.0	22.4	0.00e+00	54	29	0	1051721728	48	6438
2026-01-14 21:50:22.18	346.80	12.37	-37.6	-38.5	22.8	0.00e+00	0	29	0	1053818880	48	6099
2026-01-14 21:50:23.19	346.66	12.30	-37.6	-38.6	22.6	0.00e+00	0	29	0	1055916032	48	6129
2026-01-14 21:50:24.20	346.52	12.23	-37.2	-38.1	22.8	0.00e+00	73	29	0	1058013184	48	5809
2026-01-14 21:50:25.21	346.38	12.17	-37.2	-38.1	22.9	0.00e+00	0	29	0	1060110336	48	5797
2026-01-14 21:50:26.22	346.25	12.10	-36.9	-37.8	23.4	0.00e+00	31	29	0	1061158912	48	5605
2026-01-14 21:50:27.23	346.11	12.03	-36.8	-37.7	23.5	0.00e+00	0	29	0	1063256064	46	6212
2026-01-14 21:50:28.24	345.97	11.96	-36.9	-37.8	23.3	0.00e+00	92	29	0	1065353216	46	6317
2026-01-14 21:50:29.25	345.84	11.90	-37.0	-37.9	23.0	0.00e+00	0	29	0	1067450368	46	6359
2026-01-14 21:50:30.25	345.71	11.83	-37.7	-38.6	22.1	0.00e+00	0	29	0	1069547520	46	6925
2026-01-14 21:50:31.26	345.57	11.76	-38.2	-39.2	22.4	0.00e+00	0	29	0	1070596096	48	6573
2026-01-14 21:50:32.27	345.44	11.69	-38.5	-39.5	21.9	0.00e+00	0	29	0	1072693248	48	6832
2026-01-14 21:50:33.28	345.31	11.63	-38.7	-39.8	21.7	0.00e+00	81	29	0	1074790400	48	7074
2026-01-14 21:50:34.29	345.18	11.56	-39.1	-40.3	21.5	0.00e+00	0	29	0	1076887552	50	6627
2026-01-14 21:50:35.30	345.04	11.49	-39.1	-40.2	21.5	0.00e+00	78	29	0	1078984704	50	6613
2026-01-14 21:50:36.31	344.91	11.43	-38.9	-40.0	21.6	0.00e+00	0	29	0	1080033280	50	6464
2026-01-14 21:50:37.32	344.78	11.36	-38.9	-40.1	21.6	0.00e+00	0	29	0	1082130432	50	6490
2026-01-14 21:50:38.33	344.65	11.29	-38.6	-39.7	21.9	0.00e+00	0	29	0	1084227584	50	6190
2026-01-14 21:50:39.34	344.53	11.22	-38.4	-39.5	22.1	0.00e+00	0	29	0	1086324736	50	6054
2026-01-14 21:50:40.35	344.40	11.16	-38.2	-39.3	22.2	0.00e+00	5	29	0	1088421888	50	5911
2026-01-14 21:50:41.36	344.27	11.09	-38.2	-39.2	22.3	0.00e+00	0	29	0	1090519040	50	5890
2026-01-14 21:50:42.37	344.14	11.02	-38.2	-39.3	22.2	0.00e+00	85	29	0	1091567616	50	5914
2026-01-14 21:50:43.38	344.02	10.96	-38.2	-39.2	22.2	0.00e+00	0	29	0	1093664768	50	5882
2026-01-14 21:50:44.39	343.89	10.89	-38.3	-39.3	22.2	0.00e+00	0	29	0	1095761920	50	5945
2026-01-14 21:50:45.40	343.77	10.82	-38.0	-39.0	22.5	0.00e+00	0	29	0	1097859072	50	5735
2026-01-14 21:50:46.41	343.64	10.75	-38.3	-39.4	22.1	0.00e+00	0	29	0	1099956224	50	5997
2026-01-14 21:50:47.42	343.52	10.69	-38.3	-39.4	22.1	0.00e+00	0	29	0	1101004800	50	5996
2026-01-14 21:50:48.43	343.39	10.62	-38.4	-39.5	22.1	0.00e+00	0	29	0	1103101952	50	6043
2026-01-14 21:50:49.44	343.27	10.55	-38.3	-39.3	22.1	0.00e+00	79	29	0	1105199104	50	5963
2026-01-14 21:50:50.45	343.15	10.49	-38.2	-39.2	22.3	0.00e+00	0	29	0	1107296256	50	5854
2026-01-14 21:50:51.46	343.03	10.42	-38.2	-39.2	22.2	0.00e+00	0	29	0	1109393408	50	5892
2026-01-14 21:50:52.47	342.91	10.35	-38.5	-39.5	22.1	0.00e+00	0	29	0	1110441984	50	6075
2026-01-14 21:50:53.48	342.79	10.29	-38.6	-39.7	21.9	0.00e+00	33	29	0	1112539136	50	6193
2026-01-14 21:50:54.49	342.67	10.22	-38.5	-39.6	21.9	0.00e+00	73	29	0	1114636288	50	6140
2026-01-14 21:50:55.50	342.55	10.15	-38.7	-39.8	21.6	0.00e+00	0	29	0	1116733440	50	6306
2026-01-14 21:50:56.51	342.43	10.09	-39.1	-40.2	21.5	0.00e+00	56	29	0	1118830592	50	6585
2026-01-14 21:50:57.52	342.31	10.02	-39.1	-40.2	21.5	0.00e+00	0	29	0	1119879168	50	6602
2026-01-14 21:50:58.52	342.19	9.96	-39.1	-40.3	21.4	0.00e+00	60	29	0	1121976320	50	6620
2026-01-14 21:50:59.53	342.08	9.89	-39.1	-40.2	21.4	0.00e+00	0	29	0	1124073472	50	6575
2026-01-14 21:51:00.54	341.96	9.82	-39.0	-40.1	21.5	0.00e+00	0	29	0	1126170624	50	6522
2026-01-14 21:51:01.55	341.84	9.76	-38.7	-39.8	21.8	0.00e+00	0	29	0	1128267776	50	6272
2026-01-14 21:51:02.56	341.73	9.69	-38.9	-40.0	21.5	0.00e+00	0	29	0	1129316352	50	6430
2026-01-14 21:51:03.57	341.61	9.63	-38.8	-39.8	21.7	0.00e+00	30	29	0	1131413504	50	6314
2026-01-14 21:51:04.58	341.50	9.56	-38.8	-39.9	21.6	0.00e+00	0	29	0	1133510656	50	6379
2026-01-14 21:51:05.59	341.39	9.49	-38.9	-40.0	21.6	0.00e+00	81	29	0	1135607808	50	6432
2026-01-14 21:51:06.60	341.27	9.43	-38.9	-40.0	21.5	0.00e+00	0	29	0	1137704960	50	6442
2026-01-14 21:51:07.61	341.16	9.36	-39.1	-40.3	21.3	0.00e+00	0	29	0	1138753536	50	6620
2026-01-14 21:51:08.62	341.05	9.30	-39.2	-40.4	21.1	0.00e+00	0	29	0	1140850688	50	6742
2026-01-14 21:51:09.63	340.93	9.23	-39.6	-40.8	20.9	0.00e+00	0	29	0	1142947840	50	7045
2026-01-14 21:51:10.64	340.82	9.17	-39.6	-40.8	20.8	0.00e+00	77	29	0	1145044992	50	7057
2026-01-14 21:51:11.65	340.71	9.10	-39.8	-41.0	20.6	0.00e+00	0	29	0	1147142144	52	6463
2026-01-14 21:51:12.67	340.60	9.03	-39.7	-40.9	20.7	0.00e+00	84	29	0	1148190720	52	6357
2026-01-14 21:51:13.67	340.49	8.97	-39.6	-40.9	20.8	0.00e+00	0	29	0	1150287872	52	6333
2026-01-14 21:51:14.68	340.38	8.90	-39.8	-41.1	20.5	0.00e+00	0	29	0	1152385024	52	6512
2026-01-14 21:51:15.69	340.27	8.84	-39.7	-40.9	20.7	0.00e+00	0	29	0	1154482176	52	6389
2026-01-14 21:51:16.70	340.17	8.77	-39.4	-40.6	21.0	0.00e+00	0	29	0	1156579328	52	6143
2026-01-14 21:51:17.71	340.06	8.71	-39.1	-40.3	21.1	0.00e+00	0	29	0	1158676480	52	5904
2026-01-14 21:51:18.72	339.95	8.64	-39.1	-40.2	21.3	0.00e+00	0	29	0	1159725056	52	5883
2026-01-14 21:51:19.73	339.84	8.58	-38.8	-39.9	21.6	0.00e+00	83	29	0	1161822208	52	5651
2026-01-14 21:51:20.73	339.74	8.52	-39.0	-40.1	21.4	0.00e+00	0	29	0	1163919360	50	6492
2026-01-14 21:51:21.74	339.63	8.45	-38.9	-40.0	21.4	0.00e+00	0	29	0	1166016512	50	6452
2026-01-14 21:51:22.75	339.53	8.39	-38.7	-39.7	21.6	0.00e+00	0	29	0	1168113664	50	6237
2026-01-14 21:51:23.77	339.42	8.32	-39.0	-40.2	21.3	0.00e+00	0	29	0	1169162240	50	6560
2026-01-14 21:51:24.77	339.32	8.26	-39.1	-40.2	21.3	0.00e+00	57	29	0	1171259392	50	6612
2026-01-14 21:51:25.78	339.21	8.19	-39.3	-40.5	20.9	0.00e+00	0	29	0	1173356544	50	6825
2026-01-14 21:51:26.79	339.11	8.13	-39.3	-40.5	21.0	0.00e+00	79	29	0	1175453696	50	6797
2026-01-14 21:51:27.80	339.01	8.06	-39.3	-40.6	20.9	0.00e+00	0	29	0	1177550848	50	6849
2026-01-14 21:51:28.81	338.91	8.00	-39.4	-40.6	20.8	0.00e+00	0	29	0	1178599424	50	6896
2026-01-14 21:51:29.82	338.80	7.94	-39.5	-40.7	20.8	0.00e+00	0	29	0	1180696576	50	6997
2026-01-14 21:51:30.83	338.70	7.87	-39.8	-41.0	20.6	0.00e+00	0	29	0	1182793728	50	7232
2026-01-14 21:51:31.84	338.60	7.81	-39.7	-41.0	20.6	0.00e+00	0	29	0	1184890880	52	6410
2026-01-14 21:51:32.85	338.50	7.74	-39.6	-40.9	20.8	0.00e+00	0	29	0	1186988032	52	6330
2026-01-14 21:51:33.86	338.40	7.68	-39.6	-40.8	20.6	0.00e+00	76	29	0	1188036608	52	6295
2026-01-14 21:51:34.87	338.30	7.62	-39.5	-40.8	20.7	0.00e+00	0	29	0	1190133760	52	6246
2026-01-14 21:51:35.88	338.20	7.55	-39.5	-40.7	20.7	0.00e+00	80	29	0	1192230912	52	6232
2026-01-14 21:51:36.89	338.10	7.49	-39.4	-40.6	20.9	0.00e+00	0	29	0	1194328064	52	6162
2026-01-14 21:51:37.90	338.00	7.42	-39.4	-40.6	21.0	0.00e+00	0	29	0	1196425216	52	6119
2026-01-14 21:51:38.91	337.91	7.36	-39.1	-40.3	21.2	0.00e+00	0	29	0	1197473792	52	5927
2026-01-14 21:51:39.92	337.81	7.30	-39.2	-40.4	21.0	0.00e+00	0	29	0	1199570944	52	6020
2026-01-14 21:51:40.93	337.71	7.23	-39.2	-40.4	20.9	0.00e+00	80	29	0	1201668096	52	6026
2026-01-14 21:51:41.94	337.62	7.17	-39.4	-40.6	20.7	0.00e+00	0	29	0	1203765248	52	6147
2026-01-14 21:51:42.95	337.52	7.11	-39.5	-40.7	20.7	0.00e+00	81	29	0	1205862400	52	6209
