passes_logs/2026/01/14/R4.6S_Anadyr/R4.6S_Anadyr__20260114_220246_TY-42_rec.log

#Pass ID: 20260114_220246_TY-42
#Satellite: TY-42
#Configuration: TY-42_900M
#almurnet v.1.7.20251203
#Start time: 2026-01-14 22:03:17

#Version: 2.2.20231116
#Station: R4.6S_Anadyr
#Location: 177.4865 lon 64.73178 lat
#TLE: 1 64048U 25103A   26014.69425926  .00008005  00000-0  38191-3 0 09997
#TLE: 2 64048 097.4117 090.1174 0001564 091.0855 218.1626 15.19145944 36760

#Time	Az	El	Level	Level2	SNR	BER	BlckErr	Temp	State	Recorded	gain1	gain2
2026-01-14 22:03:17.66	23.98	1.83	-48.7	-63.6	3.6	1.51e+00	0	26	0	0	60	54533
2026-01-14 22:03:18.66	24.07	1.89	-47.3	-49.7	6.1	0.00e+00	0	28	104	0	60	37542
2026-01-14 22:03:19.67	24.16	1.95	-47.3	-49.8	6.1	0.00e+00	0	28	104	0	60	37880
2026-01-14 22:03:20.68	24.25	2.01	-47.3	-49.8	6.1	0.00e+00	0	28	104	0	60	37943
2026-01-14 22:03:21.69	24.33	2.08	-47.3	-49.8	6.1	0.00e+00	0	28	104	0	60	37846
2026-01-14 22:03:22.70	24.42	2.14	-47.3	-49.8	6.1	0.00e+00	0	28	104	0	60	37919
2026-01-14 22:03:23.71	24.52	2.20	-47.3	-49.8	6.1	0.00e+00	0	28	104	0	60	37915
2026-01-14 22:03:24.72	24.61	2.26	-47.3	-49.8	6.1	0.00e+00	0	28	104	0	60	37828
2026-01-14 22:03:25.73	24.70	2.32	-47.3	-49.8	6.1	0.00e+00	0	28	104	0	60	37794
2026-01-14 22:03:26.74	24.79	2.38	-47.3	-49.8	6.1	0.00e+00	0	28	104	0	60	37775
2026-01-14 22:03:27.75	24.88	2.45	-47.3	-49.8	6.1	0.00e+00	0	28	104	0	60	37680
2026-01-14 22:03:28.76	24.97	2.51	-47.3	-49.8	6.1	0.00e+00	0	29	104	0	60	37761
2026-01-14 22:03:29.77	25.07	2.57	-47.3	-49.8	6.1	0.00e+00	0	28	104	0	60	37953
2026-01-14 22:03:30.78	25.16	2.63	-47.3	-49.8	6.1	0.00e+00	0	29	104	0	60	37911
2026-01-14 22:03:31.79	25.26	2.70	-47.3	-49.8	6.1	0.00e+00	0	29	104	0	60	37688
2026-01-14 22:03:32.80	25.35	2.76	-47.3	-49.7	6.1	0.00e+00	0	29	104	0	60	37621
2026-01-14 22:03:33.81	25.45	2.82	-47.3	-49.8	6.1	0.00e+00	0	29	104	0	60	37661
2026-01-14 22:03:34.82	25.54	2.88	-47.3	-49.8	6.1	0.00e+00	0	29	104	0	60	37690
2026-01-14 22:03:35.83	25.64	2.95	-47.3	-49.8	6.1	0.00e+00	0	29	104	0	60	37731
2026-01-14 22:03:36.84	25.73	3.01	-47.3	-49.8	6.1	0.00e+00	0	29	104	0	60	37913
2026-01-14 22:03:37.85	25.83	3.07	-47.3	-49.8	6.0	0.00e+00	0	29	104	0	60	37688
2026-01-14 22:03:38.85	25.93	3.14	-47.3	-49.7	6.1	0.00e+00	0	29	104	0	60	37618
2026-01-14 22:03:39.87	26.03	3.20	-47.3	-49.8	6.1	0.00e+00	0	29	104	0	60	37807
2026-01-14 22:03:40.87	26.13	3.27	-47.3	-49.8	6.1	0.00e+00	0	29	104	0	60	37813
2026-01-14 22:03:41.88	26.22	3.33	-47.3	-49.8	6.1	0.00e+00	0	29	104	0	60	37757
2026-01-14 22:03:42.89	26.32	3.39	-47.3	-49.8	6.1	0.00e+00	0	29	104	0	60	37732
2026-01-14 22:03:43.90	26.42	3.46	-47.3	-49.8	6.1	0.00e+00	0	29	104	0	60	37838
2026-01-14 22:03:44.91	26.53	3.52	-47.3	-49.8	6.1	0.00e+00	0	29	104	0	60	37738
2026-01-14 22:03:45.92	26.63	3.59	-47.4	-50.0	6.1	0.00e+00	0	29	104	0	60	38531
2026-01-14 22:03:46.93	26.73	3.65	-47.4	-49.9	6.1	0.00e+00	0	29	104	0	60	38362
2026-01-14 22:03:47.94	26.83	3.72	-47.3	-49.8	6.1	0.00e+00	0	29	104	0	60	37939
2026-01-14 22:03:48.94	26.93	3.78	-47.3	-49.8	6.1	0.00e+00	0	29	104	0	60	37661
2026-01-14 22:03:49.95	27.04	3.85	-47.4	-49.9	6.1	0.00e+00	0	29	104	0	60	38490
2026-01-14 22:03:50.96	27.14	3.91	-47.4	-49.9	6.1	0.00e+00	0	29	104	0	60	38271
2026-01-14 22:03:51.97	27.25	3.98	-47.4	-49.9	6.1	0.00e+00	0	29	104	0	60	38207
2026-01-14 22:03:52.98	27.35	4.04	-47.4	-49.9	6.1	0.00e+00	0	29	104	0	60	38194
2026-01-14 22:03:53.99	27.46	4.11	-47.3	-49.8	6.1	0.00e+00	0	29	104	0	60	38030
2026-01-14 22:03:55.00	27.56	4.17	-47.5	-49.9	6.1	0.00e+00	0	29	104	0	60	38423
2026-01-14 22:03:56.01	27.67	4.24	-47.4	-49.9	6.1	0.00e+00	0	29	104	0	60	38355
2026-01-14 22:03:57.02	27.78	4.31	-47.3	-49.8	6.1	0.00e+00	0	29	104	0	60	37804
2026-01-14 22:03:58.03	27.89	4.37	-47.7	-50.2	6.1	0.00e+00	0	29	104	0	60	39453
2026-01-14 22:03:59.04	27.99	4.44	-47.4	-49.9	6.1	0.00e+00	0	29	104	0	60	38487
2026-01-14 22:04:00.05	28.10	4.50	-47.4	-49.8	6.1	0.00e+00	0	29	104	0	60	37990
2026-01-14 22:04:01.06	28.21	4.57	-47.4	-49.9	6.1	0.00e+00	0	29	104	0	60	38366
2026-01-14 22:04:02.07	28.32	4.64	-47.4	-49.9	6.1	0.00e+00	0	29	104	0	60	38214
2026-01-14 22:04:03.07	28.43	4.70	-47.3	-49.8	6.1	0.00e+00	0	29	104	0	60	37967
2026-01-14 22:04:04.08	28.55	4.77	-47.5	-49.9	6.1	0.00e+00	0	29	104	0	60	38497
2026-01-14 22:04:05.09	28.66	4.84	-47.4	-49.9	6.1	0.00e+00	0	29	104	0	60	38350
2026-01-14 22:04:06.10	28.77	4.91	-47.7	-50.2	6.1	0.00e+00	0	29	104	0	60	39413
2026-01-14 22:04:07.11	28.89	4.97	-47.3	-49.9	6.1	0.00e+00	0	29	104	0	60	38250
2026-01-14 22:04:08.12	29.00	5.04	-47.4	-49.9	6.1	0.00e+00	0	29	104	0	60	38175
2026-01-14 22:04:09.12	29.11	5.11	-47.5	-50.0	6.1	0.00e+00	0	30	104	0	60	38794
2026-01-14 22:04:10.13	29.23	5.18	-47.6	-50.0	6.1	0.00e+00	0	30	104	0	60	38930
2026-01-14 22:04:11.14	29.34	5.25	-47.8	-50.3	6.1	0.00e+00	0	29	104	0	60	39968
2026-01-14 22:04:12.15	29.46	5.31	-47.2	-49.7	6.1	0.00e+00	0	29	104	0	60	37514
2026-01-14 22:04:13.16	29.58	5.38	-47.6	-50.0	6.1	0.00e+00	0	30	104	0	60	38942
2026-01-14 22:04:14.17	29.70	5.45	-47.6	-50.1	6.1	0.00e+00	0	30	104	0	60	39194
2026-01-14 22:04:15.18	29.82	5.52	-47.5	-50.0	6.1	0.00e+00	0	30	104	0	60	38871
2026-01-14 22:04:16.19	29.94	5.59	-47.7	-50.3	6.1	0.00e+00	0	30	104	0	60	39864
2026-01-14 22:04:17.20	30.06	5.66	-47.7	-50.1	6.1	0.00e+00	0	30	104	0	60	39227
2026-01-14 22:04:18.21	30.18	5.73	-47.7	-50.2	6.1	0.00e+00	0	30	104	0	60	39820
2026-01-14 22:04:19.22	30.30	5.80	-47.8	-50.3	6.1	0.00e+00	0	30	104	0	60	39940
2026-01-14 22:04:20.23	30.42	5.87	-47.6	-50.1	6.1	0.00e+00	0	30	104	0	60	39214
2026-01-14 22:04:21.23	30.54	5.94	-47.5	-50.0	6.1	0.00e+00	0	30	104	0	60	38907
2026-01-14 22:04:22.24	30.67	6.00	-47.6	-50.1	6.1	0.00e+00	0	30	104	0	60	39327
2026-01-14 22:04:23.25	30.79	6.08	-47.8	-50.3	6.1	0.00e+00	0	30	104	0	60	40039
2026-01-14 22:04:24.26	30.92	6.15	-47.6	-50.1	6.1	0.00e+00	0	30	104	0	60	39374
2026-01-14 22:04:25.27	31.04	6.22	-47.5	-50.1	6.1	0.00e+00	0	30	104	0	60	38978
2026-01-14 22:04:26.28	31.17	6.29	-47.4	-50.0	6.1	0.00e+00	0	30	104	0	60	38558
2026-01-14 22:04:27.29	31.30	6.36	-47.6	-50.2	6.1	0.00e+00	0	30	104	0	60	39520
2026-01-14 22:04:28.29	31.42	6.43	-47.9	-50.3	6.1	0.00e+00	0	30	104	0	60	40178
2026-01-14 22:04:29.30	31.55	6.50	-47.6	-50.1	6.1	0.00e+00	0	30	104	0	60	39223
2026-01-14 22:04:30.31	31.68	6.57	-47.8	-50.2	6.1	0.00e+00	0	30	104	0	60	39684
2026-01-14 22:04:31.32	31.81	6.64	-47.9	-50.4	6.1	0.00e+00	0	30	104	0	60	40588
2026-01-14 22:04:32.33	31.94	6.71	-47.9	-50.5	6.1	0.00e+00	0	30	104	0	60	40798
2026-01-14 22:04:33.34	32.08	6.78	-47.8	-50.3	6.1	0.00e+00	0	30	104	0	60	40217
2026-01-14 22:04:34.35	32.21	6.86	-47.9	-50.3	6.1	0.00e+00	0	30	104	0	60	40176
2026-01-14 22:04:35.36	32.34	6.93	-48.0	-50.5	6.1	0.00e+00	0	30	104	0	60	41057
2026-01-14 22:04:36.37	32.48	7.00	-48.0	-50.4	6.1	0.00e+00	0	30	104	0	60	40765
2026-01-14 22:04:37.38	32.61	7.07	-47.9	-50.4	6.1	0.00e+00	0	30	104	0	60	40768
2026-01-14 22:04:38.38	32.75	7.14	-47.9	-50.4	6.0	0.00e+00	0	30	104	0	60	40767
2026-01-14 22:04:39.39	32.88	7.22	-48.1	-50.5	6.1	0.00e+00	0	30	104	0	60	41146
2026-01-14 22:04:40.41	33.02	7.29	-48.0	-50.5	6.1	0.00e+00	0	30	104	0	60	40802
2026-01-14 22:04:41.41	33.16	7.36	-48.0	-50.4	6.1	0.00e+00	0	30	104	0	60	40670
2026-01-14 22:04:42.42	33.30	7.43	-48.0	-50.5	6.1	0.00e+00	0	30	104	0	60	40924
2026-01-14 22:04:43.43	33.44	7.51	-48.0	-50.5	6.1	0.00e+00	0	30	104	0	60	41069
2026-01-14 22:04:44.44	33.58	7.58	-47.8	-50.3	6.1	0.00e+00	0	30	104	0	60	40301
2026-01-14 22:04:45.45	33.72	7.65	-48.0	-50.4	6.1	0.00e+00	0	30	104	0	60	40642
2026-01-14 22:04:46.46	33.86	7.73	-47.9	-50.4	6.1	0.00e+00	0	30	104	0	60	40541
2026-01-14 22:04:47.47	34.01	7.80	-47.9	-50.4	6.1	0.00e+00	0	30	104	0	60	40606
2026-01-14 22:04:48.48	34.15	7.88	-47.8	-50.3	6.1	0.00e+00	0	30	104	0	60	39957
2026-01-14 22:04:49.49	34.30	7.95	-47.9	-50.4	6.1	0.00e+00	0	30	104	0	60	40471
2026-01-14 22:04:50.50	34.44	8.02	-47.8	-50.3	6.1	0.00e+00	0	30	104	0	60	40017
2026-01-14 22:04:51.51	34.59	8.10	-48.0	-50.5	6.1	0.00e+00	0	30	104	0	60	41157
2026-01-14 22:04:52.52	34.74	8.17	-48.0	-50.5	6.1	0.00e+00	0	30	104	0	60	40862
2026-01-14 22:04:53.52	34.89	8.25	-47.9	-50.4	6.1	0.00e+00	0	30	104	0	60	40723
2026-01-14 22:04:54.53	35.04	8.32	-47.9	-50.4	6.1	0.00e+00	0	30	104	0	60	40611
2026-01-14 22:04:55.54	35.19	8.40	-47.7	-50.3	6.1	0.00e+00	0	30	104	0	60	40211
2026-01-14 22:04:56.55	35.34	8.47	-48.0	-50.5	6.1	0.00e+00	0	30	104	0	60	41025
2026-01-14 22:04:57.56	35.49	8.55	-47.8	-50.3	6.0	0.00e+00	0	30	104	0	60	40213
2026-01-14 22:04:58.57	35.64	8.62	-47.9	-50.4	6.1	0.00e+00	0	30	104	0	60	40551
2026-01-14 22:04:59.58	35.80	8.70	-47.4	-50.0	6.1	0.00e+00	0	30	104	0	60	38523
2026-01-14 22:05:00.59	35.95	8.77	-47.2	-49.8	6.1	0.00e+00	0	30	104	0	60	37907
2026-01-14 22:05:01.60	36.11	8.85	-47.1	-49.7	6.1	0.00e+00	0	30	104	0	60	37566
2026-01-14 22:05:02.60	36.27	8.93	-47.1	-49.8	6.1	0.00e+00	0	30	104	0	60	37721
2026-01-14 22:05:03.61	36.42	9.00	-47.6	-50.1	6.1	0.00e+00	0	30	104	0	60	39366
2026-01-14 22:05:04.62	36.58	9.08	-48.0	-50.4	6.1	0.00e+00	0	30	104	0	60	40724
2026-01-14 22:05:05.63	36.74	9.16	-47.4	-50.0	6.1	0.00e+00	0	30	104	0	60	38538
2026-01-14 22:05:06.64	36.91	9.23	-47.4	-50.0	6.1	0.00e+00	0	30	104	0	60	38914
2026-01-14 22:05:07.65	37.07	9.31	-47.3	-49.9	6.1	0.00e+00	0	30	104	0	60	38404
2026-01-14 22:05:08.66	37.23	9.39	-47.6	-50.2	6.1	0.00e+00	0	30	104	0	60	39562
2026-01-14 22:05:09.67	37.40	9.46	-48.1	-50.6	6.1	0.00e+00	0	30	104	0	60	41460
2026-01-14 22:05:10.67	37.56	9.54	-47.7	-50.3	6.1	0.00e+00	0	30	104	0	60	39942
2026-01-14 22:05:11.68	37.73	9.62	-47.5	-50.1	6.1	0.00e+00	0	30	104	0	60	39057
2026-01-14 22:05:12.69	37.89	9.69	-47.6	-50.2	6.0	0.00e+00	0	30	104	0	60	39488
2026-01-14 22:05:13.70	38.06	9.77	-47.8	-50.4	6.1	0.00e+00	0	30	104	0	60	40658
2026-01-14 22:05:14.71	38.23	9.85	-47.9	-50.4	6.1	0.00e+00	0	30	104	0	60	40602
2026-01-14 22:05:15.72	38.40	9.93	-47.9	-50.4	6.1	0.00e+00	0	30	104	0	60	40571
2026-01-14 22:05:16.73	38.57	10.01	-48.2	-50.6	6.1	0.00e+00	0	30	104	0	60	41526
2026-01-14 22:05:17.74	38.75	10.08	-48.1	-50.6	6.1	0.00e+00	0	30	104	0	60	41639
2026-01-14 22:05:18.75	38.92	10.16	-48.2	-50.7	6.1	0.00e+00	0	30	104	0	60	42192
2026-01-14 22:05:19.76	39.10	10.24	-48.1	-50.6	6.1	0.00e+00	0	30	104	0	60	41426
2026-01-14 22:05:20.77	39.27	10.32	-48.2	-50.7	6.1	0.00e+00	0	30	104	0	60	41884
2026-01-14 22:05:21.78	39.45	10.40	-48.0	-50.5	6.1	0.00e+00	0	30	104	0	60	41116
2026-01-14 22:05:22.79	39.63	10.48	-48.2	-50.6	6.1	0.00e+00	0	30	104	0	60	41726
2026-01-14 22:05:23.80	39.81	10.56	-48.1	-50.6	6.1	0.00e+00	0	30	104	0	60	41520
2026-01-14 22:05:24.81	39.99	10.64	-48.0	-50.6	6.1	0.00e+00	0	30	104	0	60	41270
2026-01-14 22:05:25.82	40.17	10.71	-48.2	-50.7	6.1	0.00e+00	0	30	104	0	60	41798
2026-01-14 22:05:26.83	40.36	10.79	-48.2	-50.7	6.1	0.00e+00	0	30	104	0	60	42079
2026-01-14 22:05:27.84	40.54	10.87	-48.2	-50.7	6.1	0.00e+00	0	30	104	0	60	41834
2026-01-14 22:05:28.85	40.73	10.95	-48.2	-50.7	6.1	0.00e+00	0	30	104	0	60	41884
2026-01-14 22:05:29.85	40.91	11.03	-48.2	-50.7	6.1	0.00e+00	0	30	104	0	60	41893
2026-01-14 22:05:30.86	41.10	11.11	-47.3	-50.0	6.1	0.00e+00	0	30	104	0	60	38660
2026-01-14 22:05:31.87	41.29	11.19	-46.6	-49.3	6.1	0.00e+00	0	30	104	0	60	35724
2026-01-14 22:05:32.88	41.48	11.27	-47.0	-49.7	6.1	0.00e+00	0	31	104	0	60	37342
2026-01-14 22:05:33.89	41.67	11.35	-46.7	-49.4	6.1	0.00e+00	0	31	104	0	60	36116
2026-01-14 22:05:34.90	41.86	11.43	-47.4	-50.0	6.1	0.00e+00	0	31	104	0	60	38760
2026-01-14 22:05:35.91	42.06	11.51	-48.0	-50.5	6.1	0.00e+00	0	31	104	0	60	40931
2026-01-14 22:05:36.92	42.25	11.59	-48.2	-50.7	6.1	0.00e+00	0	31	104	0	60	42056
2026-01-14 22:05:37.92	42.45	11.67	-48.3	-50.8	6.1	0.00e+00	0	31	104	0	60	42360
2026-01-14 22:05:38.93	42.64	11.75	-48.4	-50.8	6.1	0.00e+00	0	31	104	0	60	42569
2026-01-14 22:05:39.94	42.84	11.83	-48.0	-50.5	6.1	0.00e+00	0	31	104	0	60	40976
2026-01-14 22:05:40.96	43.05	11.91	-47.5	-50.1	6.1	0.00e+00	0	31	104	0	60	39286
2026-01-14 22:05:41.96	43.25	11.99	-47.7	-50.3	6.1	0.00e+00	0	31	104	0	60	39901
2026-01-14 22:05:42.98	43.45	12.08	-47.1	-49.8	6.1	0.00e+00	0	31	104	0	60	37960
2026-01-14 22:05:43.99	43.66	12.16	-48.2	-50.7	6.1	0.00e+00	0	30	104	0	60	42029
2026-01-14 22:05:44.99	43.86	12.24	-22.8	-23.0	12.0	0.00e+00	1752	31	104	0	20	17369
2026-01-14 22:05:46.00	44.07	12.32	-43.3	-44.2	7.7	8.65e-03	0	31	104	0	60	19842
2026-01-14 22:05:47.01	44.28	12.40	-23.4	-23.6	13.9	0.00e+00	425	31	104	0	24	14801
2026-01-14 22:05:48.02	44.49	12.48	-23.1	-23.5	17.0	0.00e+00	0	31	0	41943040	22	16393
2026-01-14 22:05:49.02	44.69	12.56	-22.9	-23.4	17.1	1.18e-02	0	31	0	159383552	22	16156
2026-01-14 22:05:50.03	44.91	12.64	-23.1	-23.6	17.1	1.18e-02	0	31	0	276824064	22	16487
2026-01-14 22:05:51.04	45.12	12.72	-23.0	-23.4	17.2	1.18e-02	0	31	0	385875968	22	16151
2026-01-14 22:05:52.05	45.34	12.80	-23.0	-23.5	17.1	0.00e+00	0	31	0	503316480	22	16276
2026-01-14 22:05:53.06	45.55	12.89	-23.1	-23.5	17.1	0.00e+00	0	31	0	612368384	22	16337
2026-01-14 22:05:54.06	45.77	12.97	-23.1	-23.5	17.1	0.00e+00	0	31	0	721420288	22	16388
2026-01-14 22:05:55.07	45.99	13.05	-23.1	-23.6	17.2	0.00e+00	0	31	0	838860800	22	16450
2026-01-14 22:05:56.08	46.21	13.13	-23.1	-23.5	17.2	0.00e+00	0	31	0	956301312	22	16352
2026-01-14 22:05:57.09	46.43	13.21	-23.1	-23.6	17.2	0.00e+00	0	31	0	1065353216	22	16446
2026-01-14 22:05:58.10	46.66	13.29	-23.1	-23.6	17.2	0.00e+00	0	31	0	1182793728	22	16528
2026-01-14 22:05:59.11	46.88	13.37	-23.2	-23.7	17.0	0.00e+00	0	31	0	1291845632	22	16658
2026-01-14 22:06:00.12	47.11	13.46	-23.2	-23.7	17.1	0.00e+00	0	31	0	1409286144	22	16651
2026-01-14 22:06:01.13	47.34	13.54	-23.0	-23.5	17.2	0.00e+00	0	31	0	1526726656	22	16320
2026-01-14 22:06:02.14	47.57	13.62	-23.1	-23.6	17.2	0.00e+00	0	31	0	1635778560	22	16507
2026-01-14 22:06:03.15	47.80	13.70	-23.2	-23.6	17.2	0.00e+00	0	31	0	1744830464	22	16595
2026-01-14 22:06:04.16	48.03	13.78	-23.1	-23.6	17.3	0.00e+00	0	31	0	1862270976	22	16503
2026-01-14 22:06:05.17	48.26	13.86	-23.1	-23.6	17.3	0.00e+00	0	31	0	1971322880	22	16579
2026-01-14 22:06:06.18	48.50	13.94	-23.1	-23.6	17.3	0.00e+00	0	31	0	2088763392	22	16468
2026-01-14 22:06:07.19	48.74	14.02	-23.3	-23.7	17.2	0.00e+00	0	31	0	2206203904	22	16801
2026-01-14 22:06:08.20	48.97	14.11	-23.1	-23.6	17.2	0.00e+00	0	31	0	2315255808	22	16489
2026-01-14 22:06:09.21	49.21	14.19	-23.2	-23.7	17.2	0.00e+00	0	31	0	2432696320	22	16697
2026-01-14 22:06:10.22	49.46	14.27	-23.3	-23.8	17.2	0.00e+00	0	31	0	2541748224	22	16921
2026-01-14 22:06:11.23	49.70	14.35	-23.1	-23.6	17.3	0.00e+00	0	31	0	2659188736	22	16479
2026-01-14 22:06:12.24	49.94	14.43	-23.1	-23.5	17.3	0.00e+00	0	31	0	2768240640	22	16421
2026-01-14 22:06:13.25	50.19	14.51	-23.2	-23.7	17.3	0.00e+00	0	31	0	2885681152	22	16672
2026-01-14 22:06:14.26	50.44	14.59	-23.1	-23.6	17.3	0.00e+00	0	31	0	2994733056	22	16437
2026-01-14 22:06:15.27	50.69	14.67	-23.1	-23.6	17.3	0.00e+00	0	31	0	3112173568	22	16493
2026-01-14 22:06:16.28	50.94	14.75	-23.0	-23.5	17.3	0.00e+00	0	31	0	3229614080	22	16415
2026-01-14 22:06:17.29	51.19	14.83	-23.0	-23.5	17.3	0.00e+00	0	31	0	3338665984	22	16377
2026-01-14 22:06:18.29	51.44	14.91	-23.0	-23.5	17.2	0.00e+00	0	31	0	3456106496	22	16389
2026-01-14 22:06:19.30	51.70	14.99	-22.9	-23.4	17.2	0.00e+00	0	31	0	3565158400	22	16116
2026-01-14 22:06:20.31	51.96	15.07	-22.9	-23.4	17.2	0.00e+00	0	31	0	3674210304	22	16157
2026-01-14 22:06:21.32	52.22	15.15	-22.9	-23.4	17.2	0.00e+00	0	31	0	3791650816	22	16192
2026-01-14 22:06:22.33	52.48	15.23	-22.9	-23.4	17.2	0.00e+00	0	31	0	3909091328	22	16169
2026-01-14 22:06:23.34	52.74	15.31	-22.9	-23.4	17.2	0.00e+00	0	31	0	4018143232	22	16113
2026-01-14 22:06:24.35	53.00	15.39	-22.8	-23.3	17.2	0.00e+00	0	31	0	4135583744	22	16000
2026-01-14 22:06:25.36	53.27	15.47	-22.8	-23.3	17.3	0.00e+00	0	31	0	4244635648	22	15950
2026-01-14 22:06:26.37	53.54	15.55	-22.8	-23.3	17.2	0.00e+00	0	31	0	4362076160	22	15959
2026-01-14 22:06:27.37	53.80	15.63	-22.7	-23.2	17.2	0.00e+00	0	31	0	4479516672	22	15869
2026-01-14 22:06:28.38	54.07	15.71	-22.7	-23.2	17.1	0.00e+00	0	31	0	4588568576	20	17689
2026-01-14 22:06:29.39	54.34	15.79	-22.7	-23.2	17.1	0.00e+00	0	31	0	4697620480	20	17769
2026-01-14 22:06:30.40	54.62	15.87	-22.7	-23.2	17.1	0.00e+00	0	31	0	4815060992	20	17660
2026-01-14 22:06:31.41	54.89	15.94	-22.6	-23.1	17.2	0.00e+00	0	31	0	4924112896	20	17573
2026-01-14 22:06:32.42	55.17	16.02	-22.7	-23.2	17.2	0.00e+00	0	31	0	5041553408	20	17615
2026-01-14 22:06:33.43	55.45	16.10	-22.7	-23.2	17.3	0.00e+00	0	31	0	5158993920	20	17764
2026-01-14 22:06:34.44	55.73	16.18	-22.6	-23.1	17.2	0.00e+00	0	31	0	5268045824	20	17465
2026-01-14 22:06:35.45	56.01	16.25	-22.7	-23.2	17.2	0.00e+00	0	31	0	5385486336	20	17686
2026-01-14 22:06:36.46	56.30	16.33	-22.7	-23.2	17.2	0.00e+00	0	31	0	5494538240	20	17723
2026-01-14 22:06:37.47	56.58	16.41	-22.6	-23.1	17.2	0.00e+00	0	31	0	5603590144	20	17426
2026-01-14 22:06:38.48	56.87	16.48	-22.5	-23.0	17.2	0.00e+00	0	31	0	5721030656	20	17247
2026-01-14 22:06:39.49	57.16	16.56	-22.4	-22.9	17.2	0.00e+00	0	31	0	5838471168	20	17148
2026-01-14 22:06:40.50	57.45	16.64	-22.4	-22.9	17.2	0.00e+00	0	31	0	5947523072	20	17056
2026-01-14 22:06:41.51	57.74	16.71	-22.5	-23.0	17.1	0.00e+00	0	31	0	6064963584	20	17258
2026-01-14 22:06:42.51	58.03	16.79	-22.4	-22.9	17.0	0.00e+00	0	31	0	6174015488	20	17051
2026-01-14 22:06:43.52	58.33	16.86	-22.4	-22.9	16.9	0.00e+00	0	31	0	6291456000	20	17116
2026-01-14 22:06:44.53	58.62	16.94	-22.3	-22.7	17.1	0.00e+00	0	31	0	6408896512	20	16802
2026-01-14 22:06:45.54	58.92	17.01	-22.3	-22.8	17.2	0.00e+00	0	31	0	6517948416	20	16915
2026-01-14 22:06:46.55	59.22	17.08	-22.3	-22.8	17.2	0.00e+00	0	31	0	6627000320	20	16900
2026-01-14 22:06:47.56	59.53	17.16	-22.4	-22.9	17.2	0.00e+00	0	31	0	6744440832	20	17058
2026-01-14 22:06:48.57	59.83	17.23	-22.4	-22.8	17.2	0.00e+00	0	31	0	6853492736	20	16999
2026-01-14 22:06:49.58	60.13	17.30	-22.1	-22.6	17.1	0.00e+00	0	31	0	6970933248	20	16568
2026-01-14 22:06:50.59	60.44	17.37	-22.3	-22.8	16.7	0.00e+00	0	31	0	7088373760	20	16810
2026-01-14 22:06:51.60	60.75	17.44	-22.1	-22.6	16.7	0.00e+00	0	31	0	7197425664	20	16510
2026-01-14 22:06:52.61	61.06	17.52	-22.2	-22.7	16.9	0.00e+00	0	31	0	7314866176	20	16632
2026-01-14 22:06:53.62	61.37	17.59	-22.0	-22.5	17.1	0.00e+00	0	31	0	7423918080	20	16347
2026-01-14 22:06:54.63	61.69	17.66	-22.1	-22.6	17.3	0.00e+00	0	31	0	7541358592	20	16521
2026-01-14 22:06:55.64	62.00	17.73	-22.1	-22.6	17.2	0.00e+00	0	31	0	7658799104	20	16433
2026-01-14 22:06:56.64	62.32	17.79	-21.9	-22.4	17.2	0.00e+00	0	31	0	7767851008	20	16190
2026-01-14 22:06:57.65	62.64	17.86	-22.0	-22.4	17.2	0.00e+00	0	31	0	7876902912	20	16211
2026-01-14 22:06:58.66	62.96	17.93	-22.0	-22.5	17.3	0.00e+00	0	31	0	7994343424	20	16282
2026-01-14 22:06:59.68	63.28	18.00	-22.0	-22.5	17.3	0.00e+00	0	31	0	8111783936	20	16243
2026-01-14 22:07:00.69	63.61	18.07	-21.8	-22.3	17.3	0.00e+00	0	31	0	8220835840	20	15912
2026-01-14 22:07:01.69	63.93	18.13	-21.9	-22.4	17.3	0.00e+00	0	31	0	8338276352	20	16138
2026-01-14 22:07:02.71	64.26	18.20	-21.8	-22.3	17.3	0.00e+00	0	31	0	8447328256	20	15988
2026-01-14 22:07:03.72	64.59	18.26	-21.6	-22.1	17.3	0.00e+00	0	31	0	8556380160	18	17488
2026-01-14 22:07:04.73	64.92	18.33	-21.4	-21.9	17.3	0.00e+00	0	31	0	8682209280	18	17181
2026-01-14 22:07:05.74	65.25	18.39	-21.4	-21.9	17.3	0.00e+00	0	31	0	8791261184	18	17089
2026-01-14 22:07:06.74	65.58	18.45	-21.5	-22.0	17.3	0.00e+00	0	31	0	8900313088	18	17263
2026-01-14 22:07:07.75	65.92	18.52	-21.4	-21.8	17.0	0.00e+00	0	31	0	9017753600	18	16984
2026-01-14 22:07:08.76	66.25	18.58	-21.4	-21.8	16.9	0.00e+00	0	31	0	9126805504	18	16982
2026-01-14 22:07:09.77	66.59	18.64	-21.5	-21.9	17.1	0.00e+00	0	31	0	9244246016	18	17192
2026-01-14 22:07:10.78	66.93	18.70	-21.4	-21.9	17.3	0.00e+00	0	32	0	9361686528	18	17129
2026-01-14 22:07:11.79	67.27	18.76	-21.4	-21.9	17.3	0.00e+00	0	31	0	9470738432	18	17078
2026-01-14 22:07:12.80	67.62	18.82	-21.4	-21.9	17.2	0.00e+00	0	31	0	9579790336	18	17114
2026-01-14 22:07:13.81	67.96	18.88	-21.4	-21.9	17.2	0.00e+00	0	31	0	9697230848	18	17127
2026-01-14 22:07:14.82	68.31	18.94	-21.3	-21.8	17.3	0.00e+00	0	31	0	9806282752	18	16878
2026-01-14 22:07:15.83	68.65	18.99	-21.4	-21.9	17.3	0.00e+00	0	31	0	9923723264	18	17129
2026-01-14 22:07:16.84	69.00	19.05	-21.4	-21.9	17.3	0.00e+00	0	31	0	10041163776	18	17126
2026-01-14 22:07:17.85	69.35	19.10	-21.4	-21.8	17.2	0.00e+00	0	31	0	10150215680	18	17001
2026-01-14 22:07:18.86	69.70	19.16	-21.3	-21.8	17.2	0.00e+00	0	31	0	10267656192	18	16952
2026-01-14 22:07:19.87	70.06	19.21	-21.4	-21.8	17.2	0.00e+00	0	32	0	10376708096	18	16996
2026-01-14 22:07:20.87	70.41	19.27	-21.4	-21.8	17.2	0.00e+00	0	31	0	10494148608	18	16976
2026-01-14 22:07:21.88	70.76	19.32	-21.3	-21.8	17.3	0.00e+00	0	31	0	10611589120	18	16947
2026-01-14 22:07:22.89	71.12	19.37	-21.3	-21.8	17.3	0.00e+00	0	31	0	10720641024	18	16954
2026-01-14 22:07:23.90	71.48	19.42	-21.3	-21.8	17.2	0.00e+00	0	32	0	10829692928	18	16873
2026-01-14 22:07:24.91	71.84	19.47	-21.2	-21.7	17.1	0.00e+00	0	31	0	10947133440	18	16696
2026-01-14 22:07:25.92	72.20	19.52	-21.4	-21.8	17.0	0.00e+00	0	32	0	11056185344	18	16965
2026-01-14 22:07:26.93	72.56	19.57	-21.2	-21.7	17.0	0.00e+00	0	31	0	11173625856	18	16778
2026-01-14 22:07:27.94	72.93	19.61	-21.2	-21.7	17.1	0.00e+00	0	32	0	11291066368	18	16651
2026-01-14 22:07:28.95	73.29	19.66	-21.2	-21.7	17.2	0.00e+00	0	31	0	11400118272	18	16754
2026-01-14 22:07:29.96	73.66	19.70	-21.2	-21.7	17.3	0.00e+00	0	32	0	11509170176	18	16754
2026-01-14 22:07:30.97	74.03	19.75	-21.3	-21.7	17.3	0.00e+00	0	32	0	11626610688	18	16774
2026-01-14 22:07:31.98	74.40	19.79	-21.2	-21.7	17.2	0.00e+00	0	32	0	11744051200	18	16717
2026-01-14 22:07:32.99	74.77	19.83	-21.3	-21.8	17.2	0.00e+00	0	31	0	11853103104	18	16958
2026-01-14 22:07:34.00	75.14	19.87	-21.3	-21.8	17.3	0.00e+00	0	32	0	11970543616	18	16888
2026-01-14 22:07:35.01	75.51	19.91	-21.3	-21.8	17.3	0.00e+00	0	31	0	12079595520	18	16841
2026-01-14 22:07:36.01	75.88	19.95	-21.4	-21.9	17.2	0.00e+00	0	32	0	12197036032	18	17016
2026-01-14 22:07:37.02	76.25	19.99	-21.2	-21.7	17.2	0.00e+00	0	32	0	12306087936	18	16625
2026-01-14 22:07:38.03	76.63	20.03	-21.3	-21.8	17.2	0.00e+00	0	32	0	12423528448	18	16938
2026-01-14 22:07:39.04	77.01	20.06	-21.2	-21.6	17.2	0.00e+00	0	31	0	12540968960	18	16615
2026-01-14 22:07:40.05	77.38	20.10	-21.3	-21.7	17.2	0.00e+00	0	32	0	12650020864	18	16771
2026-01-14 22:07:41.06	77.76	20.13	-21.1	-21.6	17.2	0.00e+00	0	32	0	12759072768	18	16500
2026-01-14 22:07:42.07	78.14	20.17	-21.2	-21.7	17.1	0.00e+00	0	32	0	12876513280	18	16695
2026-01-14 22:07:43.08	78.52	20.20	-21.2	-21.7	17.0	0.00e+00	0	32	0	12993953792	18	16637
2026-01-14 22:07:44.09	78.90	20.23	-21.1	-21.6	17.1	0.00e+00	0	32	0	13103005696	18	16568
2026-01-14 22:07:45.09	79.28	20.26	-21.1	-21.6	17.0	0.00e+00	0	32	0	13220446208	18	16483
2026-01-14 22:07:46.11	79.67	20.29	-21.2	-21.7	17.1	0.00e+00	0	32	0	13329498112	18	16694
2026-01-14 22:07:47.12	80.05	20.31	-21.1	-21.6	17.2	0.00e+00	0	32	0	13446938624	18	16546
2026-01-14 22:07:48.12	80.43	20.34	-21.1	-21.6	17.2	0.00e+00	0	32	0	13564379136	18	16536
2026-01-14 22:07:49.13	80.82	20.37	-21.2	-21.6	17.2	0.00e+00	0	32	0	13673431040	18	16593
2026-01-14 22:07:50.14	81.20	20.39	-21.2	-21.7	17.1	0.00e+00	0	32	0	13782482944	18	16676
2026-01-14 22:07:51.16	81.59	20.41	-21.2	-21.6	17.2	0.00e+00	0	32	0	13899923456	18	16608
2026-01-14 22:07:52.16	81.98	20.43	-21.2	-21.6	17.2	0.00e+00	0	32	0	14008975360	18	16571
2026-01-14 22:07:53.17	82.37	20.45	-21.3	-21.8	17.2	0.00e+00	0	32	0	14126415872	18	16908
2026-01-14 22:07:54.18	82.75	20.47	-21.2	-21.7	17.2	0.00e+00	0	32	0	14243856384	18	16741
2026-01-14 22:07:55.19	83.14	20.49	-21.2	-21.6	17.1	0.00e+00	0	32	0	14352908288	18	16582
2026-01-14 22:07:56.20	83.53	20.51	-21.1	-21.6	17.1	0.00e+00	0	32	0	14470348800	18	16472
2026-01-14 22:07:57.21	83.92	20.53	-21.2	-21.7	17.1	0.00e+00	0	32	0	14579400704	18	16720
2026-01-14 22:07:58.22	84.31	20.54	-21.1	-21.5	17.1	0.00e+00	0	32	0	14688452608	18	16420
2026-01-14 22:07:59.23	84.70	20.55	-21.2	-21.7	17.1	0.00e+00	0	32	0	14805893120	18	16681
2026-01-14 22:08:00.24	85.09	20.57	-21.0	-21.5	17.0	0.00e+00	0	32	0	14923333632	18	16307
2026-01-14 22:08:01.24	85.48	20.58	-21.1	-21.6	16.9	0.00e+00	0	32	0	15032385536	18	16535
2026-01-14 22:08:02.25	85.87	20.59	-21.0	-21.5	17.0	0.00e+00	0	31	0	15149826048	18	16300
2026-01-14 22:08:03.26	86.27	20.60	-21.2	-21.6	17.0	0.00e+00	0	32	0	15258877952	18	16604
2026-01-14 22:08:04.27	86.66	20.60	-21.3	-21.7	17.0	0.00e+00	0	32	0	15376318464	18	16778
2026-01-14 22:08:05.28	87.05	20.61	-21.2	-21.6	17.0	0.00e+00	0	32	0	15493758976	18	16522
2026-01-14 22:08:06.29	87.44	20.61	-21.1	-21.5	17.0	0.00e+00	0	32	0	15602810880	18	16416
2026-01-14 22:08:07.30	87.84	20.62	-21.1	-21.6	17.1	0.00e+00	0	32	0	15711862784	18	16491
2026-01-14 22:08:08.31	88.23	20.62	-21.1	-21.6	17.1	0.00e+00	0	32	0	15829303296	18	16447
2026-01-14 22:08:09.32	88.62	20.62	-21.1	-21.5	17.0	0.00e+00	0	32	0	15938355200	18	16357
2026-01-14 22:08:10.33	89.02	20.62	-21.1	-21.5	17.0	0.00e+00	0	32	0	16055795712	18	16414
2026-01-14 22:08:11.34	89.41	20.62	-21.1	-21.6	17.0	0.00e+00	0	32	0	16173236224	18	16440
2026-01-14 22:08:12.35	89.80	20.62	-21.0	-21.5	17.0	0.00e+00	0	32	0	16282288128	18	16381
2026-01-14 22:08:13.36	90.20	20.61	-21.2	-21.6	17.0	0.00e+00	0	32	0	16399728640	18	16615
2026-01-14 22:08:14.36	90.58	20.61	-21.1	-21.5	17.0	0.00e+00	0	32	0	16508780544	18	16367
2026-01-14 22:08:15.37	90.98	20.60	-21.2	-21.7	17.0	0.00e+00	0	32	0	16626221056	18	16624
2026-01-14 22:08:16.38	91.37	20.60	-21.2	-21.7	17.0	0.00e+00	0	32	0	16735272960	18	16653
2026-01-14 22:08:17.39	91.76	20.59	-21.2	-21.7	17.0	0.00e+00	0	32	0	16852713472	18	16698
2026-01-14 22:08:18.40	92.15	20.58	-21.2	-21.7	17.0	0.00e+00	0	32	0	16961765376	18	16671
2026-01-14 22:08:19.41	92.55	20.57	-21.4	-21.8	17.0	0.00e+00	0	32	0	17079205888	18	16945
2026-01-14 22:08:20.42	92.94	20.56	-21.3	-21.7	16.9	0.00e+00	0	32	0	17188257792	18	16722
2026-01-14 22:08:21.43	93.33	20.54	-21.3	-21.7	17.0	0.00e+00	0	32	0	17305698304	18	16785
2026-01-14 22:08:22.44	93.72	20.53	-21.2	-21.6	16.9	0.00e+00	0	32	0	17423138816	18	16561
2026-01-14 22:08:23.45	94.11	20.51	-21.3	-21.7	16.9	0.00e+00	0	32	0	17532190720	18	16797
2026-01-14 22:08:24.46	94.50	20.50	-21.2	-21.6	16.9	0.00e+00	0	32	0	17641242624	18	16524
2026-01-14 22:08:25.47	94.89	20.48	-21.3	-21.8	17.0	0.00e+00	0	32	0	17758683136	18	16827
2026-01-14 22:08:26.48	95.28	20.46	-21.4	-21.8	16.9	0.00e+00	0	32	0	17876123648	18	16999
2026-01-14 22:08:27.49	95.67	20.44	-21.3	-21.7	16.9	0.00e+00	0	32	0	17985175552	18	16807
2026-01-14 22:08:28.50	96.06	20.42	-21.3	-21.7	16.9	0.00e+00	0	32	0	18102616064	18	16716
2026-01-14 22:08:29.51	96.44	20.39	-21.4	-21.8	16.9	0.00e+00	0	32	0	18211667968	18	16990
2026-01-14 22:08:30.52	96.83	20.37	-21.4	-21.9	16.9	0.00e+00	0	32	0	18329108480	18	17018
2026-01-14 22:08:31.53	97.22	20.34	-21.3	-21.8	16.9	0.00e+00	0	32	0	18446548992	18	16910
2026-01-14 22:08:32.54	97.60	20.32	-21.3	-21.8	16.9	0.00e+00	0	32	0	18555600896	18	16856
2026-01-14 22:08:33.55	97.98	20.29	-21.3	-21.7	16.9	0.00e+00	0	32	0	18664652800	18	16791
2026-01-14 22:08:34.56	98.37	20.26	-21.3	-21.7	16.9	0.00e+00	0	32	0	18782093312	18	16806
2026-01-14 22:08:35.57	98.75	20.23	-21.4	-21.8	16.9	0.00e+00	0	32	0	18891145216	18	16906
2026-01-14 22:08:36.58	99.13	20.20	-21.4	-21.8	16.9	0.00e+00	0	32	0	19008585728	18	16934
2026-01-14 22:08:37.59	99.51	20.17	-21.4	-21.8	16.9	0.00e+00	0	32	0	19126026240	18	16957
2026-01-14 22:08:38.60	99.90	20.14	-21.3	-21.7	16.9	0.00e+00	0	32	0	19235078144	18	16751
2026-01-14 22:08:39.61	100.27	20.10	-21.3	-21.8	16.9	0.00e+00	0	32	0	19352518656	18	16845
2026-01-14 22:08:40.62	100.65	20.07	-21.4	-21.8	16.9	0.00e+00	0	32	0	19461570560	18	17003
2026-01-14 22:08:41.62	101.03	20.03	-21.4	-21.8	16.9	0.00e+00	0	32	0	19570622464	18	16942
2026-01-14 22:08:42.63	101.40	20.00	-21.4	-21.8	16.9	0.00e+00	0	32	0	19688062976	18	16921
2026-01-14 22:08:43.64	101.78	19.96	-21.3	-21.7	16.9	0.00e+00	0	32	0	19805503488	18	16787
2026-01-14 22:08:44.65	102.15	19.92	-21.3	-21.7	17.0	0.00e+00	0	32	0	19914555392	18	16769
2026-01-14 22:08:45.66	102.53	19.88	-21.4	-21.8	17.0	0.00e+00	0	32	0	20031995904	18	16920
2026-01-14 22:08:46.67	102.90	19.84	-21.5	-22.0	17.0	0.00e+00	0	32	0	20149436416	18	17236
2026-01-14 22:08:47.68	103.27	19.80	-21.5	-21.9	17.0	0.00e+00	0	32	0	20258488320	18	17186
2026-01-14 22:08:48.69	103.64	19.75	-21.5	-22.0	17.0	0.00e+00	0	32	0	20375928832	18	17222
2026-01-14 22:08:49.70	104.01	19.71	-21.6	-22.0	17.1	0.00e+00	0	32	0	20484980736	18	17324
2026-01-14 22:08:50.71	104.38	19.66	-21.5	-21.9	17.1	0.00e+00	0	32	0	20594032640	18	17107
2026-01-14 22:08:51.72	104.74	19.62	-21.6	-22.0	17.1	0.00e+00	0	32	0	20711473152	18	17350
2026-01-14 22:08:52.73	105.11	19.57	-21.6	-22.0	17.1	0.00e+00	0	32	0	20828913664	18	17335
2026-01-14 22:08:53.74	105.47	19.52	-21.5	-21.9	17.1	0.00e+00	0	32	0	20937965568	18	17054
2026-01-14 22:08:54.74	105.83	19.47	-21.5	-22.0	17.1	0.00e+00	0	32	0	21055406080	18	17205
2026-01-14 22:08:55.75	106.19	19.42	-21.6	-22.0	17.1	0.00e+00	0	32	0	21164457984	18	17285
2026-01-14 22:08:56.76	106.55	19.37	-21.5	-21.9	17.1	0.00e+00	0	32	0	21281898496	18	17170
2026-01-14 22:08:57.77	106.91	19.32	-21.5	-21.9	17.1	0.00e+00	0	32	0	21390950400	18	17143
2026-01-14 22:08:58.78	107.27	19.27	-21.5	-22.0	17.1	0.00e+00	0	32	0	21508390912	18	17202
2026-01-14 22:08:59.78	107.62	19.22	-21.7	-22.1	17.1	0.00e+00	0	32	0	21617442816	18	17478
2026-01-14 22:09:00.79	107.98	19.16	-21.6	-22.0	17.1	0.00e+00	0	32	0	21734883328	18	17331
2026-01-14 22:09:01.80	108.33	19.11	-21.6	-22.0	17.2	0.00e+00	0	32	0	21843935232	18	17327
2026-01-14 22:09:02.81	108.68	19.05	-21.9	-22.3	17.2	0.00e+00	0	32	0	21961375744	18	17895
2026-01-14 22:09:03.82	109.03	19.00	-21.8	-22.2	17.2	0.00e+00	0	32	0	22078816256	18	17800
2026-01-14 22:09:04.83	109.38	18.94	-22.0	-22.4	17.2	0.00e+00	0	32	0	22187868160	18	18141
2026-01-14 22:09:05.84	109.73	18.88	-21.9	-22.3	17.3	0.00e+00	0	32	0	22305308672	18	17836
2026-01-14 22:09:06.85	110.07	18.82	-22.1	-22.6	17.2	0.00e+00	0	32	0	22414360576	18	18454
2026-01-14 22:09:07.86	110.42	18.76	-21.8	-22.2	17.3	0.00e+00	0	32	0	22523412480	18	17778
2026-01-14 22:09:08.87	110.76	18.70	-22.3	-22.8	17.2	0.00e+00	0	32	0	22640852992	18	18864
2026-01-14 22:09:09.88	111.10	18.64	-22.2	-22.6	17.3	0.00e+00	0	32	0	22758293504	18	18561
2026-01-14 22:09:10.89	111.44	18.58	-22.5	-22.9	17.2	0.00e+00	0	32	0	22867345408	18	19186
2026-01-14 22:09:11.90	111.78	18.52	-22.6	-23.0	17.3	0.00e+00	0	32	0	22984785920	18	19478
2026-01-14 22:09:12.91	112.12	18.46	-22.4	-22.8	17.3	0.00e+00	0	32	0	23093837824	18	18963
2026-01-14 22:09:13.92	112.45	18.39	-22.5	-22.9	17.3	0.00e+00	0	32	0	23211278336	18	19271
2026-01-14 22:09:14.93	112.79	18.33	-22.4	-22.8	17.2	0.00e+00	0	32	0	23328718848	18	18960
2026-01-14 22:09:15.94	113.12	18.26	-22.1	-22.5	17.3	0.00e+00	0	32	0	23437770752	18	18316
2026-01-14 22:09:16.94	113.45	18.20	-22.2	-22.6	17.3	0.00e+00	0	32	0	23546822656	18	18521
2026-01-14 22:09:17.96	113.78	18.13	-22.0	-22.4	17.4	0.00e+00	0	32	0	23664263168	18	18179
2026-01-14 22:09:18.96	114.10	18.06	-22.1	-22.5	17.4	0.00e+00	0	32	0	23773315072	18	18393
2026-01-14 22:09:19.97	114.43	18.00	-22.2	-22.7	17.3	0.00e+00	0	32	0	23890755584	18	18684
2026-01-14 22:09:20.98	114.75	17.93	-22.0	-22.5	17.5	0.00e+00	0	32	0	24008196096	18	18233
2026-01-14 22:09:21.99	115.07	17.86	-22.2	-22.6	17.4	0.00e+00	0	32	0	24117248000	18	18520
2026-01-14 22:09:23.00	115.39	17.79	-22.0	-22.4	17.4	0.00e+00	0	32	0	24234688512	18	18210
2026-01-14 22:09:24.01	115.71	17.72	-22.1	-22.5	17.5	0.00e+00	0	32	0	24343740416	18	18310
2026-01-14 22:09:25.02	116.03	17.65	-22.0	-22.4	17.4	0.00e+00	0	32	0	24452792320	18	18186
2026-01-14 22:09:26.03	116.35	17.58	-22.0	-22.4	17.5	0.00e+00	0	32	0	24570232832	18	18185
2026-01-14 22:09:27.04	116.66	17.51	-22.1	-22.5	17.4	0.00e+00	0	32	0	24687673344	18	18260
2026-01-14 22:09:28.05	116.97	17.44	-22.1	-22.5	17.5	0.00e+00	0	32	0	24796725248	18	18304
2026-01-14 22:09:29.06	117.28	17.37	-22.1	-22.5	17.5	0.00e+00	0	32	0	24914165760	18	18390
2026-01-14 22:09:30.07	117.59	17.30	-22.1	-22.5	17.5	0.00e+00	0	32	0	25023217664	18	18424
2026-01-14 22:09:31.08	117.90	17.22	-22.3	-22.7	17.5	0.00e+00	0	32	0	25140658176	18	18679
2026-01-14 22:09:32.09	118.20	17.15	-22.1	-22.6	17.5	0.00e+00	0	32	0	25258098688	18	18471
2026-01-14 22:09:33.10	118.51	17.08	-22.3	-22.7	17.5	0.00e+00	0	32	0	25367150592	18	18775
2026-01-14 22:09:34.11	118.81	17.00	-22.3	-22.8	17.5	0.00e+00	0	32	0	25476202496	18	18910
2026-01-14 22:09:35.12	119.11	16.93	-22.2	-22.6	17.5	0.00e+00	0	32	0	25593643008	18	18641
2026-01-14 22:09:36.13	119.41	16.85	-22.3	-22.7	17.5	0.00e+00	0	32	0	25711083520	18	18849
2026-01-14 22:09:37.14	119.71	16.78	-22.3	-22.7	17.5	0.00e+00	0	32	0	25820135424	18	18813
2026-01-14 22:09:38.15	120.00	16.70	-22.4	-22.9	17.5	0.00e+00	0	32	0	25937575936	18	19115
2026-01-14 22:09:39.16	120.30	16.63	-22.4	-22.8	17.5	0.00e+00	0	32	0	26046627840	18	18987
2026-01-14 22:09:40.17	120.59	16.55	-22.4	-22.8	17.5	0.00e+00	0	32	0	26164068352	18	18986
2026-01-14 22:09:41.18	120.88	16.47	-22.4	-22.9	17.5	0.00e+00	0	32	0	26281508864	18	19096
2026-01-14 22:09:42.19	121.17	16.40	-22.3	-22.7	17.6	0.00e+00	0	32	0	26390560768	18	18803
2026-01-14 22:09:43.19	121.45	16.32	-22.4	-22.8	17.6	0.00e+00	0	32	0	26499612672	18	19050
2026-01-14 22:09:44.20	121.74	16.24	-22.4	-22.9	17.6	0.00e+00	0	32	0	26617053184	18	19094
2026-01-14 22:09:45.21	122.02	16.16	-22.4	-22.8	17.6	0.00e+00	0	32	0	26726105088	18	19065
2026-01-14 22:09:46.22	122.30	16.09	-22.4	-22.8	17.6	0.00e+00	0	32	0	26843545600	18	19031
2026-01-14 22:09:47.23	122.58	16.01	-22.6	-23.0	17.5	0.00e+00	0	32	0	26960986112	18	19393
2026-01-14 22:09:48.24	122.86	15.93	-22.5	-22.9	17.6	0.00e+00	0	32	0	27070038016	18	19276
2026-01-14 22:09:49.25	123.14	15.85	-22.5	-22.9	17.6	0.00e+00	0	32	0	27187478528	18	19167
2026-01-14 22:09:50.26	123.41	15.77	-22.6	-23.0	17.6	0.00e+00	0	32	0	27296530432	18	19479
2026-01-14 22:09:51.27	123.69	15.69	-22.5	-22.9	17.6	0.00e+00	0	32	0	27405582336	18	19300
2026-01-14 22:09:52.28	123.96	15.61	-22.6	-23.1	17.6	0.00e+00	0	32	0	27531411456	18	19592
2026-01-14 22:09:53.29	124.23	15.53	-22.7	-23.1	17.6	0.00e+00	0	32	0	27640463360	20	17595
2026-01-14 22:09:54.30	124.50	15.45	-22.7	-23.1	17.6	0.00e+00	0	32	0	27749515264	20	17501
2026-01-14 22:09:55.30	124.76	15.38	-22.8	-23.2	17.5	0.00e+00	0	32	0	27866955776	20	17728
2026-01-14 22:09:56.31	125.03	15.29	-22.9	-23.3	17.5	0.00e+00	0	32	0	27976007680	20	17920
2026-01-14 22:09:57.32	125.29	15.21	-22.9	-23.3	17.6	0.00e+00	0	32	0	28093448192	20	17932
2026-01-14 22:09:58.33	125.55	15.13	-22.9	-23.3	17.6	0.00e+00	0	32	0	28210888704	20	17984
2026-01-14 22:09:59.34	125.82	15.05	-22.9	-23.3	17.6	0.00e+00	0	32	0	28319940608	20	18006
2026-01-14 22:10:00.35	126.07	14.97	-23.0	-23.5	17.6	0.00e+00	0	32	0	28428992512	20	18304
2026-01-14 22:10:01.36	126.33	14.89	-23.0	-23.4	17.6	0.00e+00	0	32	0	28546433024	20	18215
2026-01-14 22:10:02.37	126.59	14.81	-23.0	-23.4	17.6	0.00e+00	0	32	0	28655484928	20	18148
2026-01-14 22:10:03.38	126.84	14.73	-23.0	-23.4	17.6	0.00e+00	0	32	0	28772925440	20	18140
2026-01-14 22:10:04.39	127.09	14.65	-23.1	-23.6	17.6	0.00e+00	0	32	0	28890365952	20	18464
2026-01-14 22:10:05.40	127.34	14.57	-23.1	-23.5	17.6	0.00e+00	0	32	0	28999417856	20	18369
2026-01-14 22:10:06.41	127.59	14.49	-23.1	-23.6	17.6	0.00e+00	0	32	0	29116858368	20	18496
2026-01-14 22:10:07.42	127.84	14.40	-23.1	-23.5	17.6	0.00e+00	0	32	0	29225910272	20	18397
2026-01-14 22:10:08.43	128.09	14.32	-23.1	-23.6	17.6	0.00e+00	0	32	0	29343350784	20	18499
2026-01-14 22:10:09.44	128.33	14.24	-23.1	-23.5	17.6	0.00e+00	0	32	0	29460791296	20	18423
2026-01-14 22:10:10.45	128.58	14.16	-23.1	-23.6	17.6	0.00e+00	0	32	0	29569843200	20	18472
2026-01-14 22:10:11.46	128.82	14.08	-23.2	-23.7	17.6	0.00e+00	0	32	0	29678895104	20	18676
2026-01-14 22:10:12.47	129.06	13.99	-23.2	-23.7	17.5	0.00e+00	0	32	0	29796335616	20	18706
2026-01-14 22:10:13.48	129.30	13.91	-23.3	-23.8	17.6	0.00e+00	0	32	0	29913776128	20	18940
2026-01-14 22:10:14.49	129.53	13.83	-23.3	-23.7	17.6	0.00e+00	0	32	0	30022828032	20	18832
2026-01-14 22:10:15.50	129.77	13.75	-23.2	-23.7	17.5	0.00e+00	0	32	0	30140268544	20	18767
2026-01-14 22:10:16.51	130.00	13.67	-23.5	-24.0	17.5	0.00e+00	0	32	0	30249320448	20	19340
2026-01-14 22:10:17.52	130.23	13.58	-23.5	-24.0	17.5	0.00e+00	0	32	0	30358372352	20	19479
2026-01-14 22:10:18.53	130.47	13.50	-23.6	-24.0	17.5	0.00e+00	0	32	0	30484201472	20	19465
2026-01-14 22:10:19.54	130.70	13.42	-23.4	-23.8	17.5	0.00e+00	0	32	0	30593253376	20	19012
2026-01-14 22:10:20.54	130.92	13.34	-23.4	-23.8	17.5	0.00e+00	0	32	0	30702305280	20	19024
2026-01-14 22:10:21.55	131.15	13.26	-23.4	-23.8	17.5	0.00e+00	0	32	0	30819745792	20	19071
2026-01-14 22:10:22.56	131.37	13.17	-23.4	-23.9	17.5	0.00e+00	0	32	0	30928797696	20	19228
2026-01-14 22:10:23.57	131.60	13.09	-23.4	-23.9	17.5	0.00e+00	0	32	0	31046238208	20	19186
2026-01-14 22:10:24.58	131.82	13.01	-23.5	-24.0	17.5	0.00e+00	0	32	0	31163678720	20	19302
2026-01-14 22:10:25.59	132.04	12.93	-23.5	-23.9	17.5	0.00e+00	0	32	0	31272730624	20	19255
2026-01-14 22:10:26.60	132.26	12.85	-23.5	-24.0	17.4	0.00e+00	0	32	0	31390171136	20	19391
2026-01-14 22:10:27.61	132.48	12.76	-23.5	-24.0	17.5	0.00e+00	0	32	0	31499223040	20	19451
2026-01-14 22:10:28.62	132.69	12.68	-23.6	-24.1	17.4	0.00e+00	0	32	0	31608274944	20	19585
2026-01-14 22:10:29.63	132.91	12.60	-23.7	-24.2	17.4	0.00e+00	0	32	0	31725715456	20	19815
2026-01-14 22:10:30.64	133.12	12.52	-23.7	-24.2	17.4	0.00e+00	0	32	0	31843155968	20	19826
2026-01-14 22:10:31.65	133.33	12.44	-23.8	-24.3	17.4	0.00e+00	0	32	0	31952207872	22	17884
2026-01-14 22:10:32.66	133.54	12.35	-23.7	-24.2	17.4	0.00e+00	0	32	0	32069648384	22	17679
2026-01-14 22:10:33.67	133.75	12.27	-23.8	-24.3	17.4	0.00e+00	0	32	0	32178700288	22	17839
2026-01-14 22:10:34.67	133.96	12.19	-23.7	-24.2	17.4	0.00e+00	0	32	0	32296140800	22	17719
2026-01-14 22:10:35.68	134.17	12.11	-23.8	-24.3	17.4	0.00e+00	0	32	0	32413581312	22	17823
2026-01-14 22:10:36.69	134.37	12.03	-23.8	-24.3	17.4	0.00e+00	0	32	0	32522633216	22	17926
2026-01-14 22:10:37.70	134.58	11.95	-23.8	-24.3	17.4	0.00e+00	0	32	0	32631685120	22	17897
2026-01-14 22:10:38.71	134.78	11.87	-23.9	-24.4	17.3	0.00e+00	0	32	0	32749125632	22	18048
2026-01-14 22:10:39.72	134.98	11.78	-24.0	-24.4	17.3	0.00e+00	0	32	0	32858177536	22	18219
2026-01-14 22:10:40.73	135.18	11.70	-23.9	-24.4	17.2	0.00e+00	0	32	0	32975618048	22	18072
2026-01-14 22:10:41.74	135.38	11.62	-23.9	-24.4	17.3	0.00e+00	0	32	0	33093058560	22	18179
2026-01-14 22:10:42.75	135.58	11.54	-24.0	-24.5	17.3	0.00e+00	0	32	0	33202110464	22	18314
2026-01-14 22:10:43.76	135.77	11.46	-24.1	-24.5	17.2	0.00e+00	0	32	0	33319550976	22	18410
2026-01-14 22:10:44.77	135.97	11.38	-24.0	-24.5	17.2	0.00e+00	0	32	0	33428602880	22	18356
2026-01-14 22:10:45.78	136.16	11.30	-24.0	-24.5	17.2	0.00e+00	0	32	0	33546043392	22	18358
2026-01-14 22:10:46.79	136.36	11.22	-24.1	-24.6	17.2	0.00e+00	0	32	0	33655095296	22	18588
2026-01-14 22:10:47.79	136.55	11.14	-24.1	-24.6	17.2	0.00e+00	0	32	0	33772535808	22	18531
2026-01-14 22:10:48.81	136.74	11.06	-24.2	-24.7	17.1	0.00e+00	0	32	0	33881587712	22	18679
2026-01-14 22:10:49.82	136.93	10.98	-24.1	-24.6	17.1	0.00e+00	0	32	0	33999028224	22	18511
2026-01-14 22:10:50.83	137.11	10.90	-24.3	-24.8	17.1	0.00e+00	0	32	0	34116468736	22	18992
2026-01-14 22:10:51.83	137.30	10.82	-24.4	-24.8	17.1	0.00e+00	0	32	0	34225520640	22	19059
2026-01-14 22:10:52.84	137.48	10.74	-24.4	-24.8	17.1	0.00e+00	0	32	0	34342961152	22	19069
2026-01-14 22:10:53.85	137.67	10.66	-24.4	-24.9	17.1	0.00e+00	0	32	0	34452013056	22	19085
2026-01-14 22:10:54.86	137.85	10.58	-24.3	-24.8	17.1	0.00e+00	0	32	0	34561064960	22	18963
2026-01-14 22:10:55.87	138.03	10.50	-24.4	-24.8	17.0	0.00e+00	0	32	0	34678505472	22	19060
2026-01-14 22:10:56.88	138.21	10.42	-24.4	-24.8	17.1	0.00e+00	0	32	0	34795945984	22	19050
2026-01-14 22:10:57.89	138.39	10.34	-24.6	-25.0	17.0	0.00e+00	0	32	0	34904997888	22	19515
2026-01-14 22:10:58.90	138.57	10.26	-24.6	-25.1	17.0	0.00e+00	0	32	0	35014049792	22	19545
2026-01-14 22:10:59.91	138.75	10.18	-24.8	-25.3	17.0	0.00e+00	0	32	0	35131490304	24	17828
2026-01-14 22:11:00.92	138.92	10.10	-24.8	-25.2	17.0	0.00e+00	0	32	0	35248930816	24	17696
2026-01-14 22:11:01.93	139.10	10.02	-25.0	-25.5	16.9	0.00e+00	0	32	0	35366371328	24	18237
2026-01-14 22:11:02.94	139.27	9.94	-25.3	-25.7	16.8	0.00e+00	0	32	0	35475423232	24	18740
2026-01-14 22:11:03.95	139.45	9.86	-25.5	-25.9	16.8	0.00e+00	0	32	0	35584475136	24	19196
2026-01-14 22:11:04.96	139.62	9.78	-25.7	-26.1	16.7	0.00e+00	0	32	0	35701915648	24	19721
2026-01-14 22:11:05.97	139.79	9.71	-25.8	-26.3	16.7	5.40e-06	0	32	0	35810967552	26	17864
2026-01-14 22:11:06.98	139.96	9.63	-26.0	-26.5	16.6	5.40e-06	0	32	0	35928408064	26	18297
2026-01-14 22:11:07.98	140.12	9.55	-26.3	-26.8	16.5	1.63e-05	0	32	0	36045848576	26	18937
2026-01-14 22:11:08.99	140.29	9.47	-26.7	-27.2	16.4	1.63e-05	0	32	0	36154900480	26	19768
2026-01-14 22:11:10.00	140.46	9.39	-27.1	-27.5	16.3	3.81e-05	0	32	0	36272340992	28	18341
2026-01-14 22:11:11.01	140.62	9.32	-27.2	-27.6	16.2	3.81e-05	0	32	0	36381392896	28	18593
2026-01-14 22:11:12.02	140.79	9.24	-27.5	-27.9	16.1	5.44e-05	0	32	0	36490444800	28	19273
2026-01-14 22:11:13.02	140.95	9.16	-27.5	-27.9	16.0	5.44e-05	0	32	0	36607885312	28	19293
2026-01-14 22:11:14.03	141.11	9.08	-27.8	-28.2	15.8	3.22e-04	0	32	0	36725325824	30	17779
2026-01-14 22:11:15.04	141.27	9.01	-27.9	-28.3	15.8	3.22e-04	0	32	0	36834377728	30	17887
2026-01-14 22:11:16.05	141.43	8.93	-27.6	-28.0	16.0	5.18e-04	0	32	0	36951818240	30	17281
2026-01-14 22:11:17.06	141.59	8.85	-27.7	-28.1	16.0	5.18e-04	0	32	0	37060870144	30	17587
2026-01-14 22:11:18.07	141.75	8.78	-27.4	-27.8	16.1	2.62e-04	0	32	0	37178310656	30	16952
2026-01-14 22:11:19.08	141.90	8.70	-27.5	-27.9	16.1	2.62e-04	0	32	0	37295751168	30	17096
2026-01-14 22:11:20.09	142.06	8.62	-27.0	-27.4	16.3	2.29e-04	0	32	0	37404803072	30	16159
2026-01-14 22:11:21.10	142.22	8.55	-27.0	-27.5	16.2	8.71e-05	0	32	0	37513854976	30	16254
2026-01-14 22:11:22.11	142.37	8.47	-26.7	-27.2	16.3	8.71e-05	0	32	0	37631295488	28	17604
2026-01-14 22:11:23.12	142.52	8.40	-26.6	-27.0	16.4	9.80e-05	0	32	0	37740347392	28	17287
2026-01-14 22:11:24.13	142.67	8.32	-26.3	-26.8	16.4	9.80e-05	0	32	0	37857787904	28	16873
2026-01-14 22:11:25.14	142.83	8.24	-26.4	-26.9	16.4	5.44e-05	0	32	0	37975228416	28	17031
2026-01-14 22:11:26.14	142.97	8.17	-26.2	-26.7	16.4	5.44e-05	0	32	0	38084280320	28	16670
2026-01-14 22:11:27.15	143.12	8.09	-26.2	-26.7	16.3	3.81e-05	0	32	0	38201720832	28	16646
2026-01-14 22:11:28.16	143.27	8.02	-26.1	-26.5	16.4	3.81e-05	0	32	0	38310772736	28	16331
2026-01-14 22:11:29.17	143.42	7.94	-26.1	-26.6	16.4	2.72e-05	0	32	0	38419824640	28	16477
2026-01-14 22:11:30.18	143.57	7.87	-25.9	-26.3	16.5	2.72e-05	0	32	0	38537265152	28	16051
2026-01-14 22:11:31.19	143.71	7.79	-26.0	-26.5	16.5	3.81e-05	0	32	0	38654705664	28	16276
2026-01-14 22:11:32.20	143.86	7.72	-25.9	-26.3	16.5	3.81e-05	0	32	0	38763757568	28	16019
2026-01-14 22:11:33.21	144.00	7.64	-25.9	-26.4	16.5	2.72e-05	0	32	0	38881198080	28	16073
2026-01-14 22:11:34.22	144.14	7.57	-25.9	-26.3	16.5	2.72e-05	0	32	0	38990249984	28	16024
2026-01-14 22:11:35.23	144.29	7.50	-25.8	-26.3	16.5	2.17e-05	0	32	0	39107690496	26	17884
2026-01-14 22:11:36.24	144.43	7.42	-25.9	-26.3	16.5	2.17e-05	0	32	0	39225131008	26	17961
2026-01-14 22:11:37.25	144.57	7.35	-25.8	-26.3	16.5	1.08e-05	0	32	0	39334182912	26	17881
2026-01-14 22:11:38.26	144.71	7.28	-25.7	-26.2	16.6	1.08e-05	0	32	0	39443234816	26	17722
2026-01-14 22:11:39.27	144.85	7.20	-25.9	-26.3	16.5	5.40e-06	0	32	0	39560675328	26	17979
2026-01-14 22:11:40.28	144.98	7.13	-26.0	-26.5	16.5	5.40e-06	0	32	0	39678115840	26	18242
2026-01-14 22:11:41.29	145.12	7.06	-25.7	-26.1	16.6	5.40e-06	0	32	0	39787167744	26	17575
2026-01-14 22:11:42.30	145.26	6.98	-25.9	-26.4	16.5	5.40e-06	0	32	0	39904608256	26	18107
2026-01-14 22:11:43.31	145.39	6.91	-25.8	-26.3	16.6	5.40e-06	0	32	0	40013660160	26	17837
2026-01-14 22:11:44.32	145.53	6.84	-25.6	-26.1	16.6	5.40e-06	0	32	0	40131100672	26	17494
2026-01-14 22:11:45.33	145.66	6.76	-25.7	-26.2	16.6	1.08e-05	0	32	0	40248541184	26	17699
2026-01-14 22:11:46.34	145.79	6.69	-25.7	-26.1	16.6	5.40e-06	0	32	0	40357593088	26	17584
2026-01-14 22:11:47.35	145.93	6.62	-25.5	-26.0	16.6	5.40e-06	0	32	0	40466644992	26	17309
2026-01-14 22:11:48.36	146.06	6.55	-25.6	-26.0	16.6	1.63e-05	0	32	0	40584085504	26	17373
2026-01-14 22:11:49.37	146.19	6.48	-25.5	-26.0	16.6	1.63e-05	0	32	0	40693137408	26	17301
2026-01-14 22:11:50.38	146.32	6.40	-25.7	-26.2	16.5	0.00e+00	0	32	0	40810577920	26	17681
2026-01-14 22:11:51.39	146.45	6.33	-25.4	-25.9	16.6	0.00e+00	0	32	0	40928018432	26	17015
2026-01-14 22:11:52.40	146.58	6.26	-25.7	-26.2	16.5	5.40e-06	0	32	0	41037070336	26	17752
2026-01-14 22:11:53.40	146.70	6.19	-25.7	-26.1	16.6	5.40e-06	0	32	0	41154510848	26	17563
2026-01-14 22:11:54.41	146.83	6.12	-25.7	-26.2	16.6	5.40e-06	0	32	0	41263562752	26	17642
2026-01-14 22:11:55.42	146.96	6.05	-25.8	-26.3	16.5	5.40e-06	0	32	0	41381003264	26	17935
2026-01-14 22:11:56.43	147.08	5.98	-25.9	-26.4	16.5	2.72e-05	0	32	0	41490055168	26	18079
2026-01-14 22:11:57.44	147.21	5.91	-25.6	-26.1	16.6	2.72e-05	0	32	0	41607495680	26	17420
2026-01-14 22:11:58.45	147.33	5.84	-26.0	-26.5	16.5	3.81e-05	0	32	0	41716547584	26	18365
2026-01-14 22:11:59.46	147.45	5.77	-26.0	-26.4	16.5	3.81e-05	0	32	0	41833988096	26	18213
2026-01-14 22:12:00.47	147.58	5.70	-25.7	-26.2	16.6	2.17e-05	0	32	0	41943040000	26	17650
2026-01-14 22:12:01.48	147.70	5.63	-25.8	-26.3	16.5	2.17e-05	0	32	0	42060480512	26	17826
2026-01-14 22:12:02.48	147.82	5.56	-25.7	-26.2	16.5	2.72e-05	0	32	0	42177921024	26	17729
2026-01-14 22:12:03.49	147.94	5.49	-25.8	-26.3	16.5	2.72e-05	0	32	0	42286972928	26	17938
2026-01-14 22:12:04.51	148.06	5.42	-25.7	-26.2	16.5	0.00e+00	0	32	0	42396024832	26	17737
2026-01-14 22:12:05.52	148.18	5.35	-26.1	-26.6	16.4	0.00e+00	0	32	0	42513465344	26	18576
2026-01-14 22:12:06.52	148.29	5.28	-25.9	-26.3	16.5	3.26e-05	0	32	0	42630905856	26	17993
2026-01-14 22:12:07.53	148.41	5.21	-26.0	-26.5	16.5	3.26e-05	0	32	0	42739957760	26	18380
2026-01-14 22:12:08.54	148.53	5.14	-26.3	-26.8	16.4	3.26e-05	0	32	0	42857398272	26	18981
2026-01-14 22:12:09.55	148.65	5.07	-26.3	-26.8	16.4	3.26e-05	0	32	0	42966450176	26	18946
2026-01-14 22:12:10.56	148.76	5.00	-26.2	-26.7	16.4	3.81e-05	0	32	0	43083890688	26	18743
2026-01-14 22:12:11.57	148.88	4.94	-26.2	-26.7	16.4	3.81e-05	0	32	0	43201331200	26	18705
2026-01-14 22:12:12.58	148.99	4.87	-26.5	-27.0	16.4	3.81e-05	0	32	0	43310383104	26	19310
2026-01-14 22:12:13.59	149.10	4.80	-26.5	-27.0	16.3	3.81e-05	0	32	0	43419435008	26	19309
2026-01-14 22:12:14.60	149.22	4.73	-26.4	-26.9	16.4	1.14e-04	0	32	0	43536875520	26	19161
2026-01-14 22:12:15.61	149.33	4.66	-26.6	-27.1	16.3	1.14e-04	0	32	0	43645927424	26	19576
2026-01-14 22:12:16.62	149.44	4.60	-26.5	-27.0	16.3	5.44e-05	0	32	0	43763367936	26	19417
2026-01-14 22:12:17.63	149.55	4.53	-26.8	-27.3	16.2	5.44e-05	0	32	0	43880808448	28	17812
2026-01-14 22:12:18.64	149.66	4.46	-26.8	-27.3	16.2	8.71e-05	0	32	0	43989860352	28	17862
2026-01-14 22:12:19.65	149.77	4.39	-26.5	-27.0	16.3	8.71e-05	0	32	0	44107300864	28	17304
2026-01-14 22:12:20.65	149.88	4.33	-26.8	-27.3	16.2	1.36e-04	0	32	0	44216352768	28	17952
2026-01-14 22:12:21.66	149.99	4.26	-26.6	-27.1	16.2	1.36e-04	0	32	0	44325404672	28	17580
2026-01-14 22:12:22.67	150.10	4.19	-26.6	-27.1	16.3	1.91e-04	0	32	0	44442845184	28	17565
2026-01-14 22:12:23.68	150.21	4.13	-27.0	-27.5	16.2	1.91e-04	0	32	0	44560285696	28	18339
2026-01-14 22:12:24.69	150.31	4.06	-26.7	-27.2	16.2	1.58e-04	0	32	0	44669337600	28	17767
2026-01-14 22:12:25.70	150.42	3.99	-27.0	-27.5	16.1	1.58e-04	0	32	0	44786778112	28	18404
2026-01-14 22:12:26.71	150.52	3.93	-47.3	-49.9	6.1	2.18e-04	0	32	104	44862275584	60	38104
2026-01-14 22:12:27.72	150.63	3.86	-47.4	-49.9	6.0	2.18e-04	0	32	104	44862275584	60	38116
2026-01-14 22:12:28.73	150.73	3.80	-47.4	-49.9	6.1	2.18e-04	0	32	104	44862275584	60	38187
2026-01-14 22:12:29.74	150.84	3.73	-47.4	-49.9	6.1	2.18e-04	0	32	104	44862275584	60	38272
2026-01-14 22:12:30.75	150.94	3.67	-47.2	-49.7	6.1	2.18e-04	0	32	104	44862275584	60	37204
2026-01-14 22:12:31.76	151.04	3.60	-47.2	-49.7	6.1	2.18e-04	0	32	104	44862275584	60	37370
2026-01-14 22:12:32.77	151.15	3.53	-46.9	-49.4	6.1	2.72e-05	0	32	104	44862275584	60	36346
2026-01-14 22:12:33.78	151.25	3.47	-47.4	-49.9	6.1	2.72e-05	0	32	104	44862275584	60	38200
2026-01-14 22:12:34.79	151.35	3.40	-46.9	-49.4	6.1	2.72e-05	0	32	104	44862275584	60	36157
2026-01-14 22:12:35.80	151.45	3.34	-46.6	-49.1	6.1	2.72e-05	0	32	104	44862275584	60	34990
2026-01-14 22:12:36.80	151.55	3.28	-46.6	-49.1	6.1	2.72e-05	0	32	104	44862275584	60	34730
2026-01-14 22:12:37.81	151.65	3.21	-46.3	-48.8	6.1	0.00e+00	0	32	104	44862275584	60	33844
2026-01-14 22:12:38.82	151.75	3.15	-44.9	-47.4	6.1	0.00e+00	0	32	104	44862275584	60	28747
2026-01-14 22:12:39.83	151.85	3.08	-46.2	-48.6	6.1	0.00e+00	0	32	104	44862275584	60	33096
2026-01-14 22:12:40.84	151.94	3.02	-47.1	-49.6	6.1	0.00e+00	0	32	104	44862275584	60	37178
2026-01-14 22:12:41.85	152.04	2.95	-47.6	-50.1	6.1	0.00e+00	0	32	104	44862275584	60	39161
2026-01-14 22:12:42.86	152.14	2.89	-47.8	-50.3	6.1	0.00e+00	0	32	104	44862275584	60	40104
2026-01-14 22:12:43.87	152.24	2.83	-47.1	-49.7	6.1	0.00e+00	0	32	104	44862275584	60	37507
2026-01-14 22:12:44.88	152.33	2.76	-48.6	-51.1	6.1	0.00e+00	0	32	104	44862275584	60	43934
2026-01-14 22:12:45.89	152.43	2.70	-48.6	-51.2	6.1	0.00e+00	0	32	104	44862275584	60	44298
2026-01-14 22:12:46.90	152.52	2.64	-48.8	-51.3	6.1	0.00e+00	0	32	104	44862275584	60	44933
2026-01-14 22:12:47.91	152.62	2.57	-48.9	-51.4	6.1	0.00e+00	0	32	104	44862275584	60	45550
2026-01-14 22:12:48.92	152.71	2.51	-48.9	-51.4	6.1	0.00e+00	0	32	104	44862275584	60	45682
2026-01-14 22:12:49.93	152.80	2.45	-49.0	-51.5	6.1	0.00e+00	0	32	104	44862275584	60	46118
2026-01-14 22:12:50.95	152.90	2.38	-49.0	-51.5	6.1	0.00e+00	0	32	104	44862275584	60	46028
2026-01-14 22:12:51.96	152.99	2.32	-48.9	-51.4	6.1	0.00e+00	0	32	104	44862275584	60	45683
2026-01-14 22:12:52.97	153.08	2.26	-49.1	-51.6	6.1	0.00e+00	0	32	104	44862275584	60	46641
2026-01-14 22:12:53.98	153.17	2.20	-49.1	-51.5	6.0	0.00e+00	0	32	104	44862275584	60	46238
2026-01-14 22:12:54.99	153.27	2.13	-49.0	-51.5	6.1	0.00e+00	0	32	104	44862275584	60	45838
2026-01-14 22:12:56.00	153.36	2.07	-49.0	-51.4	6.1	0.00e+00	0	32	104	44862275584	60	45735
2026-01-14 22:12:57.01	153.45	2.01	-48.9	-51.4	6.1	0.00e+00	0	32	104	44862275584	60	45519
2026-01-14 22:12:58.02	153.54	1.95	-48.9	-51.4	6.1	0.00e+00	0	32	104	44862275584	60	45327
2026-01-14 22:12:59.02	153.62	1.89	-48.9	-51.4	6.1	0.00e+00	0	32	104	44862275584	60	45566
2026-01-14 22:13:00.03	153.71	1.82	-48.9	-51.3	6.1	0.00e+00	0	32	104	44862275584	60	45221
2026-01-14 22:13:01.04	153.80	1.76	-48.9	-51.4	6.1	0.00e+00	0	32	104	44862275584	60	45326
2026-01-14 22:13:02.05	153.89	1.70	-48.9	-51.4	6.1	0.00e+00	0	32	104	44862275584	60	45298
2026-01-14 22:13:03.06	153.98	1.64	-48.9	-51.3	6.1	0.00e+00	0	32	104	44862275584	60	45208
2026-01-14 22:13:04.07	154.06	1.58	-48.9	-51.3	6.1	0.00e+00	0	32	104	44862275584	60	45175
2026-01-14 22:13:05.08	154.15	1.52	-48.9	-51.3	6.1	0.00e+00	0	32	104	44862275584	60	45231
2026-01-14 22:13:06.09	154.24	1.46	-48.9	-51.4	6.1	0.00e+00	0	32	104	44862275584	60	45328
2026-01-14 22:13:07.10	154.32	1.40	-48.9	-51.3	6.1	0.00e+00	0	32	104	44862275584	60	45205
2026-01-14 22:13:08.11	154.41	1.34	-48.9	-51.4	6.1	0.00e+00	0	32	104	44862275584	60	45387
2026-01-14 22:13:09.12	154.49	1.28	-48.9	-51.3	6.1	0.00e+00	0	32	104	44862275584	60	44977
2026-01-14 22:13:10.13	154.58	1.22	-48.9	-51.3	6.1	0.00e+00	0	32	104	44862275584	60	45240
2026-01-14 22:13:11.14	154.66	1.15	-48.9	-51.3	6.1	0.00e+00	0	32	104	44862275584	60	45135
2026-01-14 22:13:12.15	154.74	1.09	-48.9	-51.3	6.1	0.00e+00	0	32	104	44862275584	60	45210
2026-01-14 22:13:13.16	154.83	1.03	-48.9	-51.4	6.1	0.00e+00	0	32	104	44862275584	60	45402
2026-01-14 22:13:14.17	154.91	0.97	-48.9	-51.3	6.1	0.00e+00	0	32	104	44862275584	60	45098
2026-01-14 22:13:15.18	154.99	0.91	-48.9	-51.3	6.1	0.00e+00	0	32	104	44862275584	60	45165
2026-01-14 22:13:16.19	155.08	0.86	-48.9	-51.4	6.1	0.00e+00	0	32	104	44862275584	60	45278
2026-01-14 22:13:17.20	155.16	0.80	-48.9	-51.3	6.1	0.00e+00	0	32	104	44862275584	60	45111
2026-01-14 22:13:18.20	155.24	0.74	-48.9	-51.3	6.0	0.00e+00	0	32	104	44862275584	60	45085
2026-01-14 22:13:19.21	155.32	0.68	-48.9	-51.3	6.1	0.00e+00	0	32	104	44862275584	60	45053
2026-01-14 22:13:20.22	155.40	0.62	-48.9	-51.4	6.1	0.00e+00	0	32	104	44862275584	60	45469
2026-01-14 22:13:21.23	155.48	0.56	-48.8	-51.3	6.1	0.00e+00	0	32	104	44862275584	60	45223
2026-01-14 22:13:22.24	155.56	0.50	-48.8	-51.3	6.1	0.00e+00	0	32	104	44862275584	60	45071
2026-01-14 22:13:23.25	155.64	0.44	-48.9	-51.3	6.1	0.00e+00	0	32	104	44862275584	60	45239
2026-01-14 22:13:24.26	155.72	0.38	-48.9	-51.4	6.1	0.00e+00	0	32	104	44862275584	60	45423
2026-01-14 22:13:25.27	155.80	0.32	-48.8	-51.3	6.1	0.00e+00	0	32	104	44862275584	60	44947
2026-01-14 22:13:26.28	155.87	0.27	-48.9	-51.3	6.1	0.00e+00	0	32	104	44862275584	60	44912
2026-01-14 22:13:27.29	155.95	0.21	-48.9	-51.3	6.1	0.00e+00	0	32	104	44862275584	60	45241
2026-01-14 22:13:28.30	156.03	0.15	-48.8	-51.3	6.1	0.00e+00	0	32	104	44862275584	60	45205
2026-01-14 22:13:29.31	156.11	0.09	-48.8	-51.3	6.1	0.00e+00	0	32	104	44862275584	60	45124
2026-01-14 22:13:30.32	156.18	0.03	-48.8	-51.3	6.1	0.00e+00	0	32	104	44862275584	60	44954
2026-01-14 22:13:31.33	156.26	-0.03	-48.8	-51.3	6.1	0.00e+00	0	32	104	44862275584	60	45127

#Closed at: 2026-01-14 22:13:32
#Recorded file [44862 MB]: D:/lorett/data/35029_260115_100317.dat