passes_logs/2026/01/14/R4.6S_Anadyr/R4.6S_Anadyr__20260114_004752_NOAA_21_JPSS-2_rec.log

#Pass ID: 20260114_004752_NOAA 21 (JPSS-2)
#Satellite: NOAA 21 (JPSS-2)
#Configuration: NOAA-21
#almurnet v.1.7.20251203
#Start time: 2026-01-14 00:47:55

#Version: 2.2.20231116
#Station: R4.6S_Anadyr
#Location: 177.4865 lon 64.73178 lat
#TLE: 1 54234U 22150A   26013.60300550  .00000047  00000+0  43143-4 0  9998
#TLE: 2 54234  98.7496 314.5197 0000681 301.0337  59.0772 14.19534502164617

#Time	Az	El	Level	Level2	SNR	BER	BlckErr	Temp	State	Recorded	gain1	gain2
2026-01-14 00:47:55.17	170.90	0.18	-48.6	-60.0	3.2	1.54e+00	0	26	0	0	60	34924
2026-01-14 00:47:56.18	170.92	0.24	-48.6	-61.5	3.5	1.52e+00	0	26	104	0	60	41579
2026-01-14 00:47:57.19	170.94	0.30	-48.6	-61.5	3.5	1.52e+00	0	26	104	0	60	41884
2026-01-14 00:47:58.20	170.97	0.36	-48.8	-61.6	3.5	1.52e+00	0	26	104	0	60	42325
2026-01-14 00:47:59.21	170.99	0.42	-48.6	-61.5	3.5	1.52e+00	0	26	104	0	60	41773
2026-01-14 00:48:00.22	171.01	0.48	-48.6	-61.5	3.5	1.51e+00	0	27	104	0	60	41791
2026-01-14 00:48:01.23	171.03	0.54	-48.6	-61.4	3.5	1.51e+00	0	26	104	0	60	41420
2026-01-14 00:48:02.24	171.05	0.60	-48.6	-61.4	3.5	1.52e+00	0	26	104	0	60	41150
2026-01-14 00:48:03.25	171.07	0.67	-48.5	-61.4	3.5	1.52e+00	0	26	104	0	60	41062
2026-01-14 00:48:04.26	171.09	0.73	-48.4	-61.3	3.5	1.52e+00	0	27	104	0	60	40688
2026-01-14 00:48:05.27	171.12	0.79	-48.3	-61.1	3.5	1.52e+00	0	27	104	0	60	39973
2026-01-14 00:48:06.28	171.14	0.85	-48.2	-61.1	3.5	1.52e+00	0	26	104	0	60	39671
2026-01-14 00:48:07.29	171.16	0.91	-48.0	-60.8	3.5	1.52e+00	0	27	104	0	60	38528
2026-01-14 00:48:08.30	171.18	0.97	-47.8	-60.5	3.5	1.52e+00	0	27	104	0	60	37297
2026-01-14 00:48:09.31	171.20	1.04	-47.2	-59.9	3.4	1.52e+00	0	27	104	0	60	34888
2026-01-14 00:48:10.32	171.22	1.10	-47.1	-59.7	3.5	1.52e+00	0	27	104	0	60	34043
2026-01-14 00:48:11.33	171.25	1.16	-47.1	-59.8	3.5	1.52e+00	0	27	104	0	60	34107
2026-01-14 00:48:12.34	171.27	1.22	-47.1	-59.9	3.5	1.52e+00	0	27	104	0	60	34532
2026-01-14 00:48:13.35	171.29	1.28	-47.1	-59.8	3.5	1.52e+00	0	27	104	0	60	34244
2026-01-14 00:48:14.36	171.31	1.35	-47.1	-59.8	3.5	1.52e+00	0	27	104	0	60	34425
2026-01-14 00:48:15.37	171.34	1.41	-47.1	-59.9	3.5	1.52e+00	0	27	104	0	60	34535
2026-01-14 00:48:16.38	171.36	1.47	-47.1	-59.7	3.5	1.52e+00	0	27	104	0	60	34036
2026-01-14 00:48:17.39	171.38	1.54	-47.0	-59.7	3.5	1.52e+00	0	27	104	0	60	33776
2026-01-14 00:48:18.40	171.40	1.60	-47.0	-59.6	3.5	1.51e+00	0	27	104	0	60	33480
2026-01-14 00:48:19.41	171.43	1.66	-47.0	-59.5	3.5	1.51e+00	0	27	104	0	60	33208
2026-01-14 00:48:20.42	171.45	1.73	-47.1	-59.6	3.5	1.51e+00	0	27	104	0	60	33454
2026-01-14 00:48:21.43	171.47	1.79	-47.0	-59.7	3.5	1.52e+00	0	27	104	0	60	33783
2026-01-14 00:48:22.44	171.50	1.85	-47.1	-59.7	3.5	1.52e+00	0	27	104	0	60	33992
2026-01-14 00:48:23.45	171.52	1.92	-47.1	-59.8	3.5	1.52e+00	0	27	104	0	60	34123
2026-01-14 00:48:24.46	171.54	1.98	-47.1	-59.8	3.5	1.51e+00	0	27	104	0	60	34354
2026-01-14 00:48:25.46	171.57	2.04	-47.1	-59.8	3.5	1.51e+00	0	27	104	0	60	34279
2026-01-14 00:48:26.47	171.59	2.11	-47.0	-59.7	3.5	1.52e+00	0	27	104	0	60	34101
2026-01-14 00:48:27.48	171.61	2.17	-47.0	-59.6	3.5	1.52e+00	0	27	104	0	60	33698
2026-01-14 00:48:28.49	171.64	2.24	-47.0	-59.5	3.5	1.52e+00	0	27	104	0	60	32971
2026-01-14 00:48:29.50	171.66	2.30	-47.0	-59.3	3.5	1.51e+00	0	27	104	0	60	32216
2026-01-14 00:48:30.51	171.68	2.37	-47.0	-59.0	3.5	1.52e+00	0	27	104	0	60	31406
2026-01-14 00:48:31.52	171.71	2.43	-47.0	-58.8	3.5	1.52e+00	0	27	104	0	60	30652
2026-01-14 00:48:32.53	171.73	2.50	-46.9	-58.6	3.6	1.51e+00	0	27	104	0	60	29831
2026-01-14 00:48:33.54	171.75	2.56	-46.9	-58.5	3.5	1.51e+00	0	27	104	0	60	29561
2026-01-14 00:48:34.55	171.78	2.63	-47.0	-58.9	3.5	1.51e+00	0	27	104	0	60	31034
2026-01-14 00:48:35.56	171.80	2.69	-47.0	-59.5	3.5	1.52e+00	0	27	104	0	60	33249
2026-01-14 00:48:36.57	171.83	2.76	-47.0	-59.6	3.5	1.52e+00	0	27	104	0	60	33461
2026-01-14 00:48:37.58	171.85	2.82	-46.9	-57.8	3.5	1.51e+00	0	27	104	0	60	27280
2026-01-14 00:48:38.59	171.88	2.89	-46.4	-54.5	5.3	7.25e-01	122	27	104	0	60	18542
2026-01-14 00:48:39.60	171.90	2.96	-45.5	-50.3	8.2	7.27e-02	120	27	0	2097152	60	11463
2026-01-14 00:48:40.61	171.93	3.02	-44.1	-47.4	11.6	6.68e-03	122	27	0	5242880	60	8259
2026-01-14 00:48:41.61	171.95	3.09	-43.1	-45.7	13.5	4.57e-05	123	27	0	8388608	60	6751
2026-01-14 00:48:42.62	171.98	3.15	-41.7	-43.7	15.5	0.00e+00	122	27	0	11534336	56	6741
2026-01-14 00:48:43.63	172.00	3.22	-40.6	-42.3	16.8	0.00e+00	123	27	0	14680064	54	6445
2026-01-14 00:48:44.64	172.03	3.29	-39.5	-41.0	18.0	0.00e+00	122	27	0	17825792	52	6248
2026-01-14 00:48:45.65	172.05	3.35	-39.0	-40.4	18.6	0.00e+00	123	27	0	20971520	52	5841
2026-01-14 00:48:46.66	172.08	3.42	-38.7	-40.1	19.0	0.00e+00	123	27	0	24117248	52	5599
2026-01-14 00:48:47.67	172.10	3.49	-38.7	-40.0	18.9	0.00e+00	122	27	0	27262976	50	6242
2026-01-14 00:48:48.68	172.13	3.56	-38.8	-40.1	18.8	0.00e+00	122	27	0	30408704	50	6331
2026-01-14 00:48:49.69	172.15	3.62	-39.2	-40.7	18.3	0.00e+00	123	27	0	33554432	50	6736
2026-01-14 00:48:50.71	172.18	3.69	-43.7	-46.8	12.0	0.00e+00	122	27	0	36700160	58	8600
2026-01-14 00:48:51.72	172.20	3.76	-42.8	-45.1	14.3	3.46e-04	123	27	0	39845888	60	6348
2026-01-14 00:48:52.73	172.23	3.83	-41.3	-43.2	10.9	4.50e-06	123	27	0	42991616	52	8059
2026-01-14 00:48:53.74	172.26	3.90	-42.3	-44.9	14.0	1.72e-03	122	27	104	42991616	60	6204
2026-01-14 00:48:54.75	172.28	3.97	-42.4	-44.6	13.6	0.00e+00	122	27	0	45088768	52	9482
2026-01-14 00:48:55.76	172.31	4.03	-41.5	-43.3	16.2	6.82e-03	123	27	0	48234496	58	5778
2026-01-14 00:48:56.77	172.33	4.10	-40.1	-41.7	17.2	0.00e+00	122	27	0	51380224	54	6019
2026-01-14 00:48:57.78	172.36	4.17	-40.6	-42.3	17.0	0.00e+00	123	27	0	54525952	54	6486
2026-01-14 00:48:58.79	172.39	4.24	-40.1	-41.7	17.5	0.00e+00	122	27	0	57671680	54	6015
2026-01-14 00:48:59.80	172.41	4.31	-39.9	-41.4	17.9	0.00e+00	123	27	0	60817408	54	5819
2026-01-14 00:49:00.82	172.44	4.38	-38.8	-40.1	19.0	0.00e+00	122	27	0	63963136	52	5613
2026-01-14 00:49:01.83	172.47	4.45	-38.0	-39.3	19.9	0.00e+00	122	27	0	67108864	50	5737
2026-01-14 00:49:02.84	172.49	4.52	-37.5	-38.7	20.3	0.00e+00	123	27	0	70254592	48	6035
2026-01-14 00:49:03.85	172.52	4.59	-37.6	-38.7	20.3	0.00e+00	122	27	0	73400320	48	6056
2026-01-14 00:49:04.86	172.55	4.66	-37.3	-38.4	20.6	0.00e+00	122	27	0	76546048	48	5845
2026-01-14 00:49:05.87	172.58	4.73	-37.4	-38.5	20.4	0.00e+00	123	27	0	79691776	48	5914
2026-01-14 00:49:06.88	172.60	4.80	-37.4	-38.6	20.4	0.00e+00	122	27	0	82837504	48	5957
2026-01-14 00:49:07.89	172.63	4.87	-37.4	-38.6	20.4	0.00e+00	121	27	0	85983232	48	5956
2026-01-14 00:49:08.90	172.66	4.94	-37.3	-38.5	20.6	0.00e+00	123	27	0	89128960	48	5870
2026-01-14 00:49:09.91	172.69	5.02	-37.2	-38.3	20.7	0.00e+00	123	27	0	92274688	48	5771
2026-01-14 00:49:10.92	172.71	5.09	-37.3	-38.4	20.7	0.00e+00	122	27	0	95420416	48	5832
2026-01-14 00:49:11.93	172.74	5.16	-37.3	-38.4	20.6	0.00e+00	123	27	0	98566144	48	5824
2026-01-14 00:49:12.94	172.77	5.23	-37.4	-38.5	20.6	0.00e+00	123	27	0	101711872	48	5922
2026-01-14 00:49:13.95	172.80	5.30	-37.2	-38.3	20.8	0.00e+00	120	27	0	104857600	48	5758
2026-01-14 00:49:14.96	172.83	5.37	-37.2	-38.3	20.8	0.00e+00	123	27	0	108003328	48	5746
2026-01-14 00:49:15.97	172.86	5.45	-37.3	-38.5	20.7	0.00e+00	123	27	0	111149056	48	5860
2026-01-14 00:49:16.98	172.88	5.52	-37.2	-38.3	20.8	0.00e+00	123	27	0	114294784	48	5774
2026-01-14 00:49:17.99	172.91	5.59	-37.1	-38.2	20.8	0.00e+00	122	27	0	117440512	48	5712
2026-01-14 00:49:19.00	172.94	5.66	-37.4	-38.5	20.5	0.00e+00	120	27	0	120586240	48	5920
2026-01-14 00:49:20.01	172.97	5.74	-37.0	-38.1	21.0	0.00e+00	123	27	0	123731968	48	5622
2026-01-14 00:49:21.02	173.00	5.81	-37.2	-38.3	20.7	0.00e+00	122	27	0	126877696	48	5745
2026-01-14 00:49:22.03	173.03	5.88	-36.9	-38.0	21.0	0.00e+00	123	27	0	130023424	48	5589
2026-01-14 00:49:23.04	173.06	5.96	-36.8	-38.0	21.1	0.00e+00	123	27	0	133169152	48	5532
2026-01-14 00:49:24.05	173.09	6.03	-36.8	-37.9	21.2	0.00e+00	123	27	0	136314880	48	5519
2026-01-14 00:49:25.06	173.12	6.11	-36.8	-37.9	21.2	0.00e+00	123	27	0	139460608	46	6147
2026-01-14 00:49:26.07	173.15	6.18	-36.9	-38.0	21.0	0.00e+00	123	27	0	142606336	46	6214
2026-01-14 00:49:27.08	173.18	6.26	-36.8	-37.9	21.2	0.00e+00	123	27	0	145752064	46	6141
2026-01-14 00:49:28.09	173.21	6.33	-36.9	-38.0	21.0	0.00e+00	120	27	0	148897792	46	6209
2026-01-14 00:49:29.10	173.24	6.40	-36.7	-37.8	21.3	0.00e+00	122	27	0	152043520	46	6097
2026-01-14 00:49:30.12	173.27	6.48	-36.8	-37.9	21.2	0.00e+00	122	27	0	155189248	46	6175
2026-01-14 00:49:31.13	173.30	6.56	-36.6	-37.7	21.4	0.00e+00	123	27	0	158334976	46	6046
2026-01-14 00:49:32.14	173.33	6.63	-36.6	-37.7	21.4	0.00e+00	122	27	0	161480704	46	6041
2026-01-14 00:49:33.15	173.36	6.71	-36.8	-37.9	21.2	0.00e+00	123	27	0	164626432	46	6158
2026-01-14 00:49:34.16	173.39	6.78	-36.7	-37.8	21.4	0.00e+00	122	27	0	167772160	46	6070
2026-01-14 00:49:35.17	173.42	6.86	-36.7	-37.8	21.2	0.00e+00	120	27	0	170917888	46	6114
2026-01-14 00:49:36.18	173.45	6.94	-36.6	-37.7	21.5	0.00e+00	123	27	0	174063616	46	6016
2026-01-14 00:49:37.19	173.49	7.01	-36.6	-37.7	21.5	0.00e+00	123	27	0	177209344	46	6008
2026-01-14 00:49:38.20	173.52	7.09	-36.6	-37.7	21.5	0.00e+00	123	27	0	180355072	46	6007
2026-01-14 00:49:39.21	173.55	7.17	-36.6	-37.6	21.5	0.00e+00	123	27	0	183500800	46	5992
2026-01-14 00:49:40.22	173.58	7.24	-36.4	-37.5	21.6	0.00e+00	121	27	0	186646528	46	5880
2026-01-14 00:49:41.23	173.61	7.32	-36.5	-37.6	21.6	0.00e+00	123	28	0	189792256	46	5931
2026-01-14 00:49:42.24	173.65	7.40	-36.5	-37.6	21.6	0.00e+00	122	27	0	192937984	46	5942
2026-01-14 00:49:43.25	173.68	7.48	-36.3	-37.4	21.7	0.00e+00	123	27	0	196083712	46	5825
2026-01-14 00:49:44.26	173.71	7.56	-36.5	-37.6	21.6	0.00e+00	123	27	0	199229440	46	5963
2026-01-14 00:49:45.27	173.74	7.63	-36.3	-37.4	21.8	0.00e+00	122	27	0	202375168	46	5796
2026-01-14 00:49:46.28	173.78	7.71	-36.3	-37.3	21.8	0.00e+00	123	27	0	205520896	46	5765
2026-01-14 00:49:47.29	173.81	7.79	-36.3	-37.4	21.7	0.00e+00	120	27	0	208666624	46	5823
2026-01-14 00:49:48.30	173.84	7.87	-36.4	-37.4	21.7	0.00e+00	118	27	0	211812352	46	5843
2026-01-14 00:49:49.31	173.87	7.95	-36.4	-37.4	21.7	0.00e+00	120	27	0	214958080	46	5836
2026-01-14 00:49:50.32	173.91	8.03	-36.5	-37.5	21.6	0.00e+00	123	27	0	218103808	46	5908
2026-01-14 00:49:51.33	173.94	8.11	-36.2	-37.2	21.9	0.00e+00	123	27	0	221249536	46	5722
2026-01-14 00:49:52.34	173.98	8.19	-36.2	-37.3	21.9	0.00e+00	123	27	0	224395264	46	5757
2026-01-14 00:49:53.35	174.01	8.27	-36.1	-37.1	21.9	0.00e+00	122	27	0	227540992	46	5651
2026-01-14 00:49:54.36	174.04	8.35	-36.1	-37.1	22.0	0.00e+00	123	27	0	230686720	46	5650
2026-01-14 00:49:55.37	174.08	8.43	-36.1	-37.1	22.0	0.00e+00	123	27	0	233832448	46	5648
2026-01-14 00:49:56.38	174.11	8.51	-36.0	-37.0	22.1	0.00e+00	122	27	0	236978176	46	5567
2026-01-14 00:49:57.39	174.15	8.60	-36.0	-37.1	22.0	0.00e+00	120	27	0	241172480	46	5604
2026-01-14 00:49:58.40	174.18	8.68	-36.0	-37.0	22.1	0.00e+00	122	27	0	244318208	46	5573
2026-01-14 00:49:59.41	174.22	8.76	-36.1	-37.1	22.1	0.00e+00	120	27	0	246415360	46	5627
2026-01-14 00:50:00.42	174.25	8.84	-35.9	-36.9	22.2	0.00e+00	122	27	0	249561088	46	5513
2026-01-14 00:50:01.43	174.29	8.92	-36.0	-37.0	22.0	0.00e+00	123	27	0	252706816	46	5587
2026-01-14 00:50:02.44	174.32	9.01	-35.8	-36.9	22.2	0.00e+00	123	27	0	256901120	46	5483
2026-01-14 00:50:03.45	174.36	9.09	-35.8	-36.8	22.3	0.00e+00	121	27	0	260046848	46	5442
2026-01-14 00:50:04.46	174.39	9.17	-35.6	-36.7	22.4	0.00e+00	120	27	0	263192576	44	5999
2026-01-14 00:50:05.47	174.43	9.26	-35.7	-36.7	22.4	0.00e+00	122	27	0	266338304	44	6063
2026-01-14 00:50:06.48	174.47	9.34	-35.6	-36.6	22.5	0.00e+00	121	27	0	269484032	44	5946
2026-01-14 00:50:07.49	174.50	9.43	-35.6	-36.6	22.4	0.00e+00	123	27	0	272629760	44	5957
2026-01-14 00:50:08.50	174.54	9.51	-35.6	-36.6	22.5	0.00e+00	122	27	0	275775488	44	5951
2026-01-14 00:50:09.51	174.58	9.60	-35.5	-36.5	22.6	0.00e+00	123	27	0	278921216	44	5883
2026-01-14 00:50:10.52	174.61	9.68	-35.6	-36.6	22.5	0.00e+00	123	27	0	282066944	44	5958
2026-01-14 00:50:11.53	174.65	9.77	-35.5	-36.5	22.5	0.00e+00	123	27	0	285212672	44	5904
2026-01-14 00:50:12.54	174.69	9.85	-35.5	-36.5	22.5	0.00e+00	123	27	0	288358400	44	5900
2026-01-14 00:50:13.56	174.73	9.94	-35.3	-36.3	22.7	0.00e+00	123	28	0	291504128	44	5786
2026-01-14 00:50:14.57	174.76	10.02	-35.4	-36.4	22.6	0.00e+00	122	28	0	294649856	44	5827
2026-01-14 00:50:15.58	174.80	10.11	-35.4	-36.4	22.6	0.00e+00	120	27	0	297795584	44	5837
2026-01-14 00:50:16.59	174.84	10.20	-35.6	-36.6	22.5	0.00e+00	123	28	0	300941312	44	5938
2026-01-14 00:50:17.60	174.88	10.28	-35.3	-36.3	22.7	0.00e+00	121	27	0	304087040	44	5735
2026-01-14 00:50:18.61	174.92	10.37	-35.2	-36.2	22.8	0.00e+00	122	27	0	307232768	44	5703
2026-01-14 00:50:19.62	174.96	10.46	-35.1	-36.1	22.9	0.00e+00	123	27	0	310378496	44	5636
2026-01-14 00:50:20.63	174.99	10.55	-35.1	-36.1	22.9	0.00e+00	123	27	0	313524224	44	5637
2026-01-14 00:50:21.64	175.03	10.64	-35.1	-36.1	22.9	0.00e+00	120	27	0	316669952	44	5628
2026-01-14 00:50:22.65	175.07	10.72	-35.1	-36.1	22.9	0.00e+00	120	27	0	319815680	44	5618
2026-01-14 00:50:23.66	175.11	10.81	-35.0	-36.0	23.0	0.00e+00	122	27	0	322961408	44	5542
2026-01-14 00:50:24.67	175.15	10.90	-35.0	-36.0	23.0	0.00e+00	121	28	0	326107136	44	5547
2026-01-14 00:50:25.68	175.19	10.99	-34.8	-35.8	23.2	0.00e+00	123	27	0	329252864	44	5439
2026-01-14 00:50:26.69	175.23	11.08	-35.0	-35.9	23.0	0.00e+00	124	27	0	332398592	44	5524
2026-01-14 00:50:27.70	175.27	11.17	-34.9	-35.9	23.1	0.00e+00	123	28	0	335544320	44	5473
2026-01-14 00:50:28.71	175.31	11.26	-34.9	-35.9	23.1	0.00e+00	123	27	0	338690048	44	5486
2026-01-14 00:50:29.72	175.36	11.35	-35.0	-36.0	23.0	0.00e+00	123	27	0	341835776	44	5568
2026-01-14 00:50:30.73	175.40	11.44	-34.8	-35.7	23.3	0.00e+00	123	28	0	344981504	44	5400
2026-01-14 00:50:31.74	175.44	11.53	-34.9	-35.8	23.1	0.00e+00	123	28	0	348127232	44	5461
2026-01-14 00:50:32.75	175.48	11.63	-34.8	-35.7	23.3	0.00e+00	123	27	0	351272960	42	6047
2026-01-14 00:50:33.76	175.52	11.72	-34.8	-35.8	23.4	0.00e+00	123	27	0	354418688	42	6081
2026-01-14 00:50:34.77	175.56	11.81	-34.7	-35.7	23.3	0.00e+00	123	27	0	357564416	42	6001
2026-01-14 00:50:35.78	175.61	11.90	-34.7	-35.6	23.4	0.00e+00	123	27	0	360710144	42	5970
2026-01-14 00:50:36.79	175.65	12.00	-34.6	-35.5	23.5	0.00e+00	120	27	0	363855872	42	5921
2026-01-14 00:50:37.80	175.69	12.09	-34.5	-35.5	23.5	0.00e+00	123	27	0	367001600	42	5889
2026-01-14 00:50:38.81	175.74	12.18	-34.7	-35.6	23.5	0.00e+00	120	27	0	370147328	42	5952
2026-01-14 00:50:39.82	175.78	12.28	-34.5	-35.4	23.7	0.00e+00	123	27	0	373293056	42	5820
2026-01-14 00:50:40.83	175.82	12.37	-34.6	-35.5	23.5	0.00e+00	120	27	0	376438784	42	5901
2026-01-14 00:50:41.84	175.87	12.47	-34.5	-35.4	23.5	0.00e+00	122	27	0	379584512	42	5831
2026-01-14 00:50:42.85	175.91	12.56	-34.5	-35.4	23.7	0.00e+00	120	28	0	382730240	42	5825
2026-01-14 00:50:43.86	175.96	12.66	-34.5	-35.4	23.7	0.00e+00	123	28	0	385875968	42	5824
2026-01-14 00:50:44.88	176.00	12.76	-34.4	-35.3	23.7	0.00e+00	123	28	0	389021696	42	5758
2026-01-14 00:50:45.88	176.05	12.85	-34.4	-35.3	23.7	0.00e+00	123	28	0	392167424	42	5772
2026-01-14 00:50:46.89	176.09	12.95	-34.4	-35.3	23.8	0.00e+00	122	27	0	395313152	42	5768
2026-01-14 00:50:47.91	176.14	13.05	-34.4	-35.4	23.7	0.00e+00	123	28	0	398458880	42	5794
2026-01-14 00:50:48.91	176.18	13.14	-34.4	-35.4	23.7	0.00e+00	120	27	0	401604608	42	5801
2026-01-14 00:50:49.92	176.23	13.24	-34.3	-35.2	23.9	0.00e+00	123	27	0	404750336	42	5677
2026-01-14 00:50:50.94	176.28	13.34	-34.4	-35.3	23.7	0.00e+00	123	27	0	407896064	42	5773
2026-01-14 00:50:51.94	176.32	13.44	-34.4	-35.4	23.8	0.00e+00	122	27	0	411041792	42	5794
2026-01-14 00:50:52.95	176.37	13.53	-34.3	-35.2	23.9	0.00e+00	123	27	0	414187520	42	5687
2026-01-14 00:50:53.96	176.42	13.63	-34.3	-35.3	23.8	0.00e+00	123	27	0	417333248	42	5727
2026-01-14 00:50:54.97	176.46	13.73	-34.2	-35.1	23.9	0.00e+00	123	28	0	420478976	42	5658
2026-01-14 00:50:55.98	176.51	13.83	-34.3	-35.2	23.9	0.00e+00	123	28	0	423624704	42	5681
2026-01-14 00:50:56.99	176.56	13.93	-34.2	-35.1	24.0	0.00e+00	122	27	0	426770432	42	5653
2026-01-14 00:50:58.00	176.61	14.04	-34.3	-35.2	23.8	0.00e+00	123	28	0	429916160	42	5696
2026-01-14 00:50:59.01	176.66	14.14	-34.3	-35.2	23.8	0.00e+00	123	27	0	433061888	42	5678
2026-01-14 00:51:00.03	176.71	14.24	-34.4	-35.3	23.8	0.00e+00	120	28	0	436207616	42	5760
2026-01-14 00:51:01.04	176.76	14.34	-34.2	-35.1	24.0	0.00e+00	123	27	0	439353344	42	5603
2026-01-14 00:51:02.05	176.81	14.44	-34.3	-35.2	23.9	0.00e+00	123	28	0	442499072	42	5697
2026-01-14 00:51:03.06	176.86	14.55	-34.3	-35.2	24.0	0.00e+00	123	28	0	445644800	42	5668
2026-01-14 00:51:04.07	176.91	14.65	-34.3	-35.2	24.0	0.00e+00	123	28	0	448790528	42	5672
2026-01-14 00:51:05.08	176.96	14.75	-34.2	-35.1	24.0	0.00e+00	123	27	0	451936256	42	5612
2026-01-14 00:51:06.09	177.01	14.86	-34.2	-35.1	23.9	0.00e+00	122	28	0	455081984	42	5656
2026-01-14 00:51:07.10	177.06	14.96	-34.1	-35.0	24.0	0.00e+00	123	27	0	458227712	42	5586
2026-01-14 00:51:08.11	177.11	15.07	-34.2	-35.2	24.0	0.00e+00	122	27	0	461373440	42	5665
2026-01-14 00:51:09.12	177.16	15.17	-34.3	-35.2	23.9	0.00e+00	123	27	0	464519168	42	5693
2026-01-14 00:51:10.13	177.21	15.28	-34.3	-35.2	23.8	0.00e+00	123	28	0	467664896	42	5689
2026-01-14 00:51:11.14	177.27	15.39	-34.1	-35.0	24.1	0.00e+00	120	27	0	470810624	42	5538
2026-01-14 00:51:12.15	177.32	15.49	-34.1	-35.0	24.1	0.00e+00	122	28	0	473956352	42	5577
2026-01-14 00:51:13.16	177.37	15.60	-34.2	-35.1	24.0	0.00e+00	123	28	0	477102080	42	5603
2026-01-14 00:51:14.17	177.43	15.71	-34.2	-35.1	24.1	0.00e+00	123	28	0	480247808	42	5602
2026-01-14 00:51:15.17	177.48	15.81	-34.2	-35.1	24.0	0.00e+00	123	27	0	483393536	42	5623
2026-01-14 00:51:16.19	177.54	15.92	-34.3	-35.2	23.9	0.00e+00	123	28	0	486539264	42	5692
2026-01-14 00:51:17.20	177.59	16.03	-34.2	-35.1	24.1	0.00e+00	123	27	0	489684992	42	5597
2026-01-14 00:51:18.21	177.65	16.14	-34.3	-35.2	24.0	0.00e+00	123	27	0	492830720	42	5696
2026-01-14 00:51:19.21	177.70	16.25	-34.2	-35.1	24.1	0.00e+00	122	27	0	495976448	42	5646
2026-01-14 00:51:20.22	177.76	16.36	-34.3	-35.2	24.0	0.00e+00	123	27	0	499122176	42	5666
2026-01-14 00:51:21.23	177.81	16.47	-34.4	-35.3	24.0	0.00e+00	122	28	0	502267904	42	5759
2026-01-14 00:51:22.24	177.87	16.59	-34.5	-35.4	23.8	0.00e+00	123	28	0	505413632	42	5836
2026-01-14 00:51:23.25	177.93	16.70	-34.6	-35.5	23.8	0.00e+00	122	28	0	508559360	42	5890
2026-01-14 00:51:24.26	177.99	16.81	-34.6	-35.6	23.7	0.00e+00	123	28	0	511705088	42	5946
2026-01-14 00:51:25.27	178.04	16.92	-34.5	-35.4	23.8	0.00e+00	122	28	0	514850816	42	5807
2026-01-14 00:51:26.27	178.10	17.03	-34.6	-35.5	23.7	0.00e+00	123	28	0	517996544	42	5889
2026-01-14 00:51:27.28	178.16	17.15	-34.6	-35.5	23.7	0.00e+00	123	28	0	521142272	42	5901
2026-01-14 00:51:28.29	178.22	17.26	-34.6	-35.5	23.7	0.00e+00	122	28	0	524288000	42	5874
2026-01-14 00:51:29.30	178.28	17.38	-34.6	-35.5	23.7	0.00e+00	122	28	0	527433728	42	5923
2026-01-14 00:51:30.31	178.34	17.49	-34.7	-35.6	23.7	0.00e+00	123	28	0	530579456	42	5955
2026-01-14 00:51:31.32	178.40	17.61	-34.7	-35.6	23.6	0.00e+00	123	28	0	533725184	42	5967
2026-01-14 00:51:32.33	178.46	17.73	-34.6	-35.6	23.6	0.00e+00	120	28	0	536870912	42	5943
2026-01-14 00:51:33.34	178.52	17.84	-34.7	-35.6	23.6	0.00e+00	123	28	0	540016640	42	5969
2026-01-14 00:51:34.35	178.58	17.96	-34.6	-35.5	23.7	0.00e+00	120	28	0	543162368	42	5886
2026-01-14 00:51:35.36	178.65	18.08	-34.6	-35.5	23.7	0.00e+00	118	28	0	546308096	42	5903
2026-01-14 00:51:36.37	178.71	18.20	-34.6	-35.5	23.7	0.00e+00	123	28	0	549453824	42	5895
2026-01-14 00:51:37.38	178.77	18.32	-34.6	-35.5	23.8	0.00e+00	123	28	0	552599552	42	5898
2026-01-14 00:51:38.39	178.84	18.44	-34.5	-35.5	23.8	0.00e+00	120	28	0	556793856	42	5863
2026-01-14 00:51:39.40	178.90	18.56	-34.6	-35.5	23.8	0.00e+00	123	28	0	559939584	42	5921
2026-01-14 00:51:40.41	178.96	18.68	-34.5	-35.4	23.9	0.00e+00	120	27	0	563085312	42	5848
2026-01-14 00:51:41.42	179.03	18.80	-34.5	-35.4	23.8	0.00e+00	122	28	0	565182464	42	5840
2026-01-14 00:51:42.43	179.10	18.92	-34.3	-35.2	24.0	0.00e+00	122	27	0	568328192	42	5717
2026-01-14 00:51:43.44	179.16	19.04	-34.4	-35.3	24.0	0.00e+00	122	28	0	572522496	42	5733
2026-01-14 00:51:44.45	179.23	19.17	-34.2	-35.1	24.1	0.00e+00	122	28	0	575668224	42	5658
2026-01-14 00:51:45.46	179.30	19.29	-34.3	-35.2	24.1	0.00e+00	123	28	0	578813952	42	5670
2026-01-14 00:51:46.47	179.36	19.42	-34.3	-35.2	24.1	0.00e+00	123	28	0	581959680	42	5703
2026-01-14 00:51:47.49	179.43	19.54	-34.2	-35.1	24.2	0.00e+00	122	28	0	585105408	42	5640
2026-01-14 00:51:48.50	179.50	19.67	-34.2	-35.1	24.2	0.00e+00	122	28	0	588251136	42	5637
2026-01-14 00:51:49.51	179.57	19.79	-34.1	-35.0	24.2	0.00e+00	123	28	0	591396864	42	5567
2026-01-14 00:51:50.52	179.64	19.92	-34.1	-35.0	24.1	0.00e+00	123	28	0	594542592	42	5575
2026-01-14 00:51:51.53	179.71	20.05	-33.9	-34.8	24.4	0.00e+00	122	28	0	597688320	42	5438
2026-01-14 00:51:52.53	179.78	20.17	-34.0	-34.9	24.3	0.00e+00	123	28	0	600834048	42	5501
2026-01-14 00:51:53.54	179.85	20.30	-33.8	-34.7	24.4	0.00e+00	122	28	0	603979776	42	5373
2026-01-14 00:51:54.55	179.92	20.43	-33.9	-34.7	24.4	0.00e+00	123	28	0	607125504	42	5402
2026-01-14 00:51:55.56	180.00	20.56	-33.7	-34.6	24.5	0.00e+00	123	28	0	610271232	40	5956
2026-01-14 00:51:56.57	180.07	20.69	-33.8	-34.7	24.5	0.00e+00	123	28	0	613416960	40	6030
2026-01-14 00:51:57.58	180.14	20.82	-33.7	-34.6	24.4	0.00e+00	122	28	0	616562688	40	5964
2026-01-14 00:51:58.59	180.22	20.95	-33.4	-34.3	24.7	0.00e+00	122	28	0	619708416	40	5758
2026-01-14 00:51:59.60	180.29	21.09	-33.3	-34.2	24.7	0.00e+00	123	28	0	622854144	40	5682
2026-01-14 00:52:00.61	180.37	21.22	-33.1	-34.0	24.9	0.00e+00	123	28	0	625999872	40	5558
2026-01-14 00:52:01.63	180.44	21.35	-33.2	-34.1	24.8	0.00e+00	122	28	0	629145600	40	5627
2026-01-14 00:52:02.64	180.52	21.49	-33.1	-33.9	24.9	0.00e+00	122	28	0	632291328	40	5518
2026-01-14 00:52:03.65	180.60	21.62	-33.1	-33.9	25.0	0.00e+00	123	28	0	635437056	40	5530
2026-01-14 00:52:04.66	180.68	21.76	-33.1	-34.0	25.0	0.00e+00	123	28	0	638582784	40	5556
2026-01-14 00:52:05.66	180.75	21.89	-32.9	-33.8	25.1	0.00e+00	123	28	0	641728512	40	5433
2026-01-14 00:52:06.68	180.83	22.03	-33.0	-33.8	25.0	0.00e+00	123	28	0	644874240	40	5455
2026-01-14 00:52:07.69	180.91	22.17	-32.8	-33.7	25.2	0.00e+00	123	28	0	648019968	40	5366
2026-01-14 00:52:08.69	180.99	22.31	-32.9	-33.8	25.2	0.00e+00	123	28	0	651165696	40	5422
2026-01-14 00:52:09.70	181.08	22.45	-33.0	-33.8	25.1	0.00e+00	122	28	0	654311424	40	5455
2026-01-14 00:52:10.71	181.16	22.59	-32.9	-33.7	25.2	0.00e+00	123	28	0	657457152	40	5402
2026-01-14 00:52:11.72	181.24	22.73	-32.8	-33.7	25.1	0.00e+00	123	28	0	660602880	40	5359
2026-01-14 00:52:12.73	181.32	22.87	-32.7	-33.6	25.3	0.00e+00	122	28	0	663748608	40	5309
2026-01-14 00:52:13.74	181.41	23.01	-32.9	-33.8	25.2	0.00e+00	122	28	0	666894336	38	6093
2026-01-14 00:52:14.75	181.49	23.15	-33.0	-33.8	25.1	0.00e+00	120	28	0	670040064	38	6123
2026-01-14 00:52:15.76	181.58	23.30	-32.9	-33.7	25.2	0.00e+00	122	28	0	673185792	38	6060
2026-01-14 00:52:16.77	181.67	23.44	-32.9	-33.8	25.2	0.00e+00	122	28	0	676331520	38	6069
2026-01-14 00:52:17.78	181.75	23.58	-32.9	-33.7	25.1	0.00e+00	123	28	0	679477248	38	6045
2026-01-14 00:52:18.79	181.84	23.73	-32.8	-33.7	25.2	0.00e+00	123	28	0	682622976	38	5996
2026-01-14 00:52:19.80	181.93	23.88	-32.8	-33.7	25.2	0.00e+00	122	28	0	685768704	38	6029
2026-01-14 00:52:20.81	182.02	24.02	-32.8	-33.6	25.3	0.00e+00	123	28	0	688914432	38	5982
2026-01-14 00:52:21.82	182.11	24.17	-32.8	-33.7	25.2	0.00e+00	122	28	0	692060160	38	6006
2026-01-14 00:52:22.83	182.20	24.32	-33.0	-33.9	25.1	0.00e+00	123	28	0	695205888	38	6169
2026-01-14 00:52:23.84	182.29	24.47	-32.8	-33.7	25.1	0.00e+00	123	28	0	698351616	38	6052
2026-01-14 00:52:24.85	182.39	24.62	-33.0	-33.9	25.0	0.00e+00	120	28	0	701497344	38	6141
2026-01-14 00:52:25.86	182.48	24.77	-33.0	-33.9	25.2	0.00e+00	125	28	0	704643072	38	6145
2026-01-14 00:52:26.87	182.57	24.92	-33.0	-33.8	25.1	0.00e+00	123	28	0	707788800	38	6112
2026-01-14 00:52:27.88	182.67	25.08	-33.0	-33.8	25.2	0.00e+00	123	28	0	710934528	38	6134
2026-01-14 00:52:28.89	182.77	25.23	-33.1	-34.0	25.1	0.00e+00	123	28	0	714080256	38	6208
2026-01-14 00:52:29.90	182.86	25.38	-33.3	-34.2	24.9	0.00e+00	122	28	0	717225984	38	6381
2026-01-14 00:52:30.91	182.96	25.54	-33.4	-34.3	24.9	0.00e+00	125	28	0	720371712	38	6433
2026-01-14 00:52:31.92	183.06	25.69	-33.5	-34.4	24.8	0.00e+00	120	28	0	723517440	38	6499
2026-01-14 00:52:32.93	183.16	25.85	-33.5	-34.4	24.8	0.00e+00	123	28	0	726663168	38	6506
2026-01-14 00:52:33.94	183.26	26.01	-33.6	-34.5	24.6	0.00e+00	120	28	0	729808896	38	6584
2026-01-14 00:52:34.95	183.36	26.17	-33.6	-34.5	24.8	0.00e+00	123	28	0	732954624	38	6625
2026-01-14 00:52:35.96	183.47	26.33	-33.7	-34.6	24.6	0.00e+00	123	28	0	736100352	38	6714
2026-01-14 00:52:36.97	183.57	26.49	-33.7	-34.6	24.6	0.00e+00	123	28	0	739246080	40	5982
2026-01-14 00:52:37.98	183.68	26.65	-33.8	-34.7	24.6	0.00e+00	122	28	0	742391808	40	6027
2026-01-14 00:52:38.99	183.78	26.81	-33.9	-34.8	24.5	0.00e+00	123	28	0	745537536	40	6104
2026-01-14 00:52:40.00	183.89	26.97	-33.9	-34.8	24.5	0.00e+00	120	28	0	748683264	40	6124
2026-01-14 00:52:41.01	184.00	27.13	-34.0	-34.9	24.4	0.00e+00	122	28	0	751828992	40	6165
2026-01-14 00:52:42.02	184.11	27.30	-34.0	-34.9	24.5	0.00e+00	120	28	0	754974720	40	6195
2026-01-14 00:52:43.03	184.22	27.46	-34.1	-35.0	24.4	0.00e+00	123	28	0	758120448	40	6238
2026-01-14 00:52:44.04	184.33	27.63	-34.2	-35.0	24.3	0.00e+00	122	28	0	761266176	40	6276
2026-01-14 00:52:45.05	184.44	27.80	-34.1	-35.0	24.3	0.00e+00	122	28	0	764411904	40	6270
2026-01-14 00:52:46.06	184.55	27.97	-34.3	-35.2	24.1	0.00e+00	120	28	0	767557632	40	6413
2026-01-14 00:52:47.07	184.67	28.13	-34.3	-35.2	24.1	0.00e+00	122	28	0	770703360	40	6418
2026-01-14 00:52:48.08	184.79	28.30	-34.5	-35.4	24.1	0.00e+00	120	28	0	773849088	40	6566
2026-01-14 00:52:49.09	184.90	28.47	-34.3	-35.2	24.3	0.00e+00	122	28	0	776994816	40	6405
2026-01-14 00:52:50.10	185.02	28.65	-34.4	-35.4	24.1	0.00e+00	120	28	0	780140544	40	6505
2026-01-14 00:52:51.11	185.14	28.82	-34.3	-35.2	24.3	0.00e+00	122	28	0	783286272	40	6355
2026-01-14 00:52:52.12	185.26	28.99	-34.2	-35.1	24.3	0.00e+00	123	28	0	786432000	40	6316
2026-01-14 00:52:53.13	185.38	29.17	-34.2	-35.1	24.3	0.00e+00	123	28	0	789577728	40	6281
2026-01-14 00:52:54.14	185.51	29.34	-34.2	-35.1	24.3	0.00e+00	121	28	0	792723456	40	6287
2026-01-14 00:52:55.15	185.63	29.52	-34.0	-34.9	24.5	0.00e+00	123	28	0	795869184	40	6176
2026-01-14 00:52:56.16	185.76	29.70	-34.1	-34.9	24.3	0.00e+00	123	28	0	799014912	40	6205
2026-01-14 00:52:57.17	185.88	29.87	-34.0	-34.9	24.4	0.00e+00	121	28	0	802160640	40	6165
2026-01-14 00:52:58.18	186.01	30.05	-34.0	-34.9	24.5	0.00e+00	122	28	0	805306368	40	6173
2026-01-14 00:52:59.19	186.14	30.23	-33.9	-34.8	24.5	0.00e+00	122	28	0	808452096	40	6108
2026-01-14 00:53:00.20	186.28	30.42	-34.0	-34.9	24.5	0.00e+00	123	28	0	811597824	40	6167
2026-01-14 00:53:01.21	186.41	30.60	-34.1	-35.0	24.4	0.00e+00	120	28	0	814743552	40	6216
2026-01-14 00:53:02.22	186.54	30.78	-34.0	-34.8	24.5	0.00e+00	122	28	0	817889280	40	6132
2026-01-14 00:53:03.23	186.68	30.96	-34.0	-34.9	24.5	0.00e+00	122	28	0	821035008	40	6158
2026-01-14 00:53:04.24	186.82	31.15	-33.9	-34.7	24.6	0.00e+00	123	28	0	824180736	40	6059
2026-01-14 00:53:05.25	186.96	31.34	-33.7	-34.6	24.7	0.00e+00	123	28	0	827326464	40	5934
2026-01-14 00:53:06.26	187.10	31.52	-33.8	-34.7	24.6	0.00e+00	122	28	0	830472192	40	6029
2026-01-14 00:53:07.27	187.24	31.71	-33.6	-34.5	24.7	0.00e+00	121	28	0	833617920	40	5866
2026-01-14 00:53:08.28	187.38	31.90	-33.7	-34.6	24.6	0.00e+00	122	28	0	836763648	40	5983
2026-01-14 00:53:09.29	187.53	32.09	-33.8	-34.7	24.6	0.00e+00	123	28	0	839909376	40	6003
2026-01-14 00:53:10.30	187.67	32.28	-33.9	-34.8	24.6	0.00e+00	123	28	0	843055104	40	6066
2026-01-14 00:53:11.31	187.82	32.47	-33.9	-34.8	24.6	0.00e+00	122	28	0	846200832	40	6067
2026-01-14 00:53:12.31	187.97	32.67	-33.8	-34.7	24.6	0.00e+00	120	28	0	849346560	40	6002
2026-01-14 00:53:13.32	188.12	32.86	-33.8	-34.7	24.6	0.00e+00	123	28	0	852492288	40	6012
2026-01-14 00:53:14.33	188.28	33.06	-34.0	-34.9	24.4	0.00e+00	120	28	0	855638016	40	6167
2026-01-14 00:53:15.34	188.43	33.25	-34.0	-34.9	24.4	0.00e+00	122	28	0	858783744	40	6176
2026-01-14 00:53:16.35	188.59	33.45	-34.2	-35.1	24.3	0.00e+00	122	28	0	861929472	40	6318
2026-01-14 00:53:17.36	188.75	33.65	-34.2	-35.1	24.2	0.00e+00	122	28	0	865075200	40	6322
2026-01-14 00:53:18.37	188.91	33.85	-34.2	-35.1	24.3	0.00e+00	122	28	0	868220928	40	6301
2026-01-14 00:53:19.38	189.08	34.05	-34.3	-35.2	24.2	0.00e+00	122	28	0	871366656	40	6388
2026-01-14 00:53:20.39	189.24	34.25	-34.4	-35.3	24.1	0.00e+00	122	28	0	875560960	40	6470
2026-01-14 00:53:21.40	189.41	34.45	-34.5	-35.4	24.1	0.00e+00	122	28	0	878706688	40	6552
2026-01-14 00:53:22.41	189.58	34.66	-34.8	-35.7	23.9	0.00e+00	122	28	0	880803840	40	6748
2026-01-14 00:53:23.42	189.75	34.86	-34.9	-35.8	23.8	0.00e+00	122	28	0	883949568	42	6132
2026-01-14 00:53:24.43	189.92	35.07	-35.2	-36.1	23.6	0.00e+00	122	28	0	887095296	42	6333
2026-01-14 00:53:25.44	190.10	35.27	-35.4	-36.3	23.3	0.00e+00	120	28	0	891289600	42	6479
2026-01-14 00:53:26.45	190.28	35.48	-35.7	-36.7	23.2	0.00e+00	123	28	0	894435328	42	6752
2026-01-14 00:53:27.46	190.46	35.69	-35.8	-36.8	23.0	0.00e+00	120	28	0	897581056	44	6081
2026-01-14 00:53:28.47	190.64	35.90	-36.0	-37.0	22.9	0.00e+00	123	28	0	899678208	44	6248
2026-01-14 00:53:29.48	190.82	36.11	-36.0	-37.0	22.8	0.00e+00	122	28	0	903872512	44	6250
2026-01-14 00:53:30.49	191.01	36.33	-36.2	-37.2	22.7	0.00e+00	123	28	0	907018240	44	6357
2026-01-14 00:53:31.50	191.20	36.54	-36.2	-37.2	22.6	0.00e+00	123	28	0	910163968	44	6403
2026-01-14 00:53:32.51	191.39	36.75	-36.1	-37.1	22.7	0.00e+00	122	28	0	913309696	44	6325
2026-01-14 00:53:33.53	191.59	36.97	-36.1	-37.1	22.8	0.00e+00	121	28	0	916455424	44	6280
2026-01-14 00:53:34.54	191.79	37.19	-36.2	-37.2	22.7	0.00e+00	122	28	0	919601152	44	6353
2026-01-14 00:53:35.55	191.99	37.41	-36.1	-37.1	22.8	0.00e+00	123	28	0	922746880	44	6283
2026-01-14 00:53:36.56	192.19	37.62	-36.1	-37.1	22.7	0.00e+00	122	28	0	925892608	44	6298
2026-01-14 00:53:37.57	192.39	37.84	-36.0	-37.0	22.8	0.00e+00	123	28	0	929038336	44	6272
2026-01-14 00:53:38.58	192.60	38.06	-36.1	-37.1	22.8	0.00e+00	123	28	0	932184064	44	6303
2026-01-14 00:53:39.59	192.81	38.29	-36.1	-37.1	22.7	0.00e+00	122	28	0	935329792	44	6320
2026-01-14 00:53:40.60	193.02	38.51	-36.3	-37.3	22.6	0.00e+00	123	28	0	938475520	44	6463
2026-01-14 00:53:41.61	193.24	38.73	-36.0	-37.0	22.9	0.00e+00	123	28	0	941621248	44	6232
2026-01-14 00:53:42.61	193.46	38.96	-36.0	-37.0	22.8	0.00e+00	122	28	0	944766976	44	6208
2026-01-14 00:53:43.62	193.68	39.18	-35.8	-36.8	22.9	0.00e+00	122	28	0	947912704	44	6102
2026-01-14 00:53:44.63	193.90	39.41	-36.0	-36.9	22.8	0.00e+00	122	28	0	951058432	44	6199
2026-01-14 00:53:45.64	194.13	39.64	-35.9	-36.8	23.0	0.00e+00	122	28	0	954204160	44	6130
2026-01-14 00:53:46.65	194.36	39.87	-35.7	-36.6	23.1	0.00e+00	123	28	0	957349888	44	5988
2026-01-14 00:53:47.66	194.60	40.10	-35.7	-36.7	23.1	0.00e+00	123	28	0	960495616	44	6017
2026-01-14 00:53:48.67	194.84	40.33	-35.8	-36.8	23.0	0.00e+00	122	28	0	963641344	44	6068
2026-01-14 00:53:49.68	195.08	40.56	-36.3	-37.3	22.6	0.00e+00	120	28	0	966787072	44	6453
2026-01-14 00:53:50.69	195.32	40.79	-36.1	-37.0	22.8	0.00e+00	120	28	0	969932800	44	6271
2026-01-14 00:53:51.70	195.57	41.02	-35.9	-36.9	22.9	0.00e+00	123	28	0	973078528	44	6180
2026-01-14 00:53:52.71	195.82	41.26	-36.0	-37.0	22.9	0.00e+00	122	28	0	976224256	44	6249
2026-01-14 00:53:53.72	196.08	41.49	-36.1	-37.0	22.9	0.00e+00	123	28	0	979369984	44	6259
2026-01-14 00:53:54.73	196.34	41.73	-35.6	-36.6	23.2	0.00e+00	123	28	0	982515712	44	5930
2026-01-14 00:53:55.74	196.60	41.97	-35.8	-36.8	23.0	0.00e+00	123	28	0	985661440	44	6102
2026-01-14 00:53:56.75	196.86	42.21	-36.1	-37.1	22.7	0.00e+00	122	28	0	988807168	44	6291
2026-01-14 00:53:57.76	197.14	42.45	-36.4	-37.4	22.3	0.00e+00	122	28	0	991952896	44	6533
2026-01-14 00:53:58.77	197.41	42.69	-36.6	-37.6	22.3	0.00e+00	123	28	0	995098624	44	6722
2026-01-14 00:53:59.78	197.69	42.93	-36.8	-37.8	22.2	0.00e+00	120	28	0	998244352	46	6134
2026-01-14 00:54:00.80	197.97	43.17	-36.9	-38.0	22.0	0.00e+00	120	28	0	1001390080	46	6218
2026-01-14 00:54:01.81	198.26	43.41	-37.1	-38.1	22.0	0.00e+00	123	28	0	1004535808	46	6340
2026-01-14 00:54:02.82	198.55	43.66	-37.4	-38.5	21.6	0.00e+00	123	28	0	1007681536	46	6594
2026-01-14 00:54:03.83	198.85	43.90	-37.7	-38.8	21.3	0.00e+00	123	28	0	1010827264	46	6854
2026-01-14 00:54:04.84	199.15	44.14	-37.7	-38.9	21.3	0.00e+00	122	28	0	1013972992	48	6136
2026-01-14 00:54:05.85	199.45	44.39	-37.7	-38.8	21.2	0.00e+00	122	28	0	1017118720	48	6112
2026-01-14 00:54:06.86	199.76	44.63	-37.4	-38.5	21.5	0.00e+00	122	28	0	1020264448	48	5873
2026-01-14 00:54:07.87	200.07	44.88	-37.5	-38.6	21.5	0.00e+00	123	28	0	1023410176	48	5936
2026-01-14 00:54:08.88	200.39	45.13	-37.5	-38.6	21.4	0.00e+00	122	28	0	1026555904	48	5981
2026-01-14 00:54:09.90	200.72	45.38	-37.6	-38.8	21.2	0.00e+00	122	28	0	1029701632	48	6088
2026-01-14 00:54:10.91	201.05	45.63	-37.8	-38.9	21.1	0.00e+00	122	28	0	1032847360	48	6160
2026-01-14 00:54:11.91	201.38	45.87	-37.7	-38.8	21.2	0.00e+00	122	28	0	1035993088	48	6127
2026-01-14 00:54:12.93	201.72	46.12	-37.0	-38.0	22.0	0.00e+00	123	28	0	1039138816	48	5582
2026-01-14 00:54:13.94	202.07	46.37	-36.6	-37.6	22.3	0.00e+00	122	28	0	1042284544	46	5986
2026-01-14 00:54:14.95	202.42	46.62	-36.6	-37.6	22.3	0.00e+00	122	28	0	1045430272	46	5956
2026-01-14 00:54:15.96	202.77	46.87	-36.4	-37.4	22.2	0.00e+00	123	28	0	1048576000	46	5828
2026-01-14 00:54:16.97	203.13	47.12	-36.2	-37.2	22.6	0.00e+00	123	28	0	1051721728	46	5663
2026-01-14 00:54:17.98	203.50	47.38	-36.0	-36.9	22.7	0.00e+00	122	28	0	1054867456	46	5515
2026-01-14 00:54:18.99	203.87	47.63	-35.9	-36.8	22.9	0.00e+00	123	28	0	1058013184	46	5442
2026-01-14 00:54:20.00	204.25	47.88	-35.6	-36.5	23.2	0.00e+00	123	28	0	1061158912	44	5895
2026-01-14 00:54:21.01	204.64	48.13	-35.9	-36.9	22.8	0.00e+00	121	28	0	1064304640	44	6155
2026-01-14 00:54:22.02	205.03	48.38	-36.2	-37.2	22.5	0.00e+00	122	28	0	1067450368	44	6382
2026-01-14 00:54:23.03	205.42	48.63	-36.4	-37.4	22.5	0.00e+00	123	28	0	1070596096	44	6534
2026-01-14 00:54:24.04	205.83	48.88	-36.3	-37.3	22.5	0.00e+00	122	28	0	1073741824	44	6486
2026-01-14 00:54:25.05	206.24	49.13	-36.3	-37.3	22.5	0.00e+00	121	28	0	1076887552	44	6467
2026-01-14 00:54:26.06	206.66	49.39	-36.3	-37.3	22.6	0.00e+00	121	28	0	1080033280	44	6452
2026-01-14 00:54:27.07	207.08	49.64	-36.1	-37.1	22.7	0.00e+00	122	28	0	1083179008	44	6337
2026-01-14 00:54:28.08	207.51	49.89	-36.1	-37.1	22.6	0.00e+00	120	28	0	1086324736	44	6318
2026-01-14 00:54:29.09	207.95	50.14	-36.1	-37.1	22.7	0.00e+00	123	28	0	1089470464	44	6297
2026-01-14 00:54:30.10	208.39	50.39	-36.0	-37.0	22.8	0.00e+00	123	28	0	1092616192	44	6273
2026-01-14 00:54:31.11	208.85	50.64	-36.0	-36.9	22.9	0.00e+00	121	28	0	1095761920	44	6198
2026-01-14 00:54:32.12	209.31	50.89	-36.0	-37.0	22.8	0.00e+00	122	28	0	1098907648	44	6213
2026-01-14 00:54:33.12	209.77	51.13	-36.0	-37.0	22.7	0.00e+00	122	28	0	1102053376	44	6243
2026-01-14 00:54:34.14	210.25	51.38	-35.9	-36.9	22.8	0.00e+00	120	28	0	1105199104	44	6190
2026-01-14 00:54:35.15	210.73	51.63	-35.8	-36.8	22.9	0.00e+00	122	28	0	1108344832	44	6126
2026-01-14 00:54:36.15	211.22	51.87	-36.0	-37.0	22.8	0.00e+00	123	28	0	1111490560	44	6228
2026-01-14 00:54:37.17	211.72	52.12	-35.8	-36.8	22.9	0.00e+00	120	28	0	1114636288	44	6115
2026-01-14 00:54:38.18	212.23	52.36	-35.4	-36.4	23.2	0.00e+00	123	28	0	1117782016	44	5834
2026-01-14 00:54:39.19	212.74	52.61	-35.3	-36.3	23.3	0.00e+00	120	28	0	1120927744	44	5750
2026-01-14 00:54:40.20	213.27	52.85	-35.2	-36.1	23.5	0.00e+00	123	28	0	1124073472	44	5643
2026-01-14 00:54:41.21	213.80	53.09	-35.3	-36.2	23.4	0.00e+00	120	28	0	1127219200	44	5690
2026-01-14 00:54:42.22	214.34	53.33	-35.4	-36.3	23.5	0.00e+00	120	28	0	1130364928	44	5764
2026-01-14 00:54:43.23	214.89	53.57	-35.2	-36.1	23.5	0.00e+00	123	28	0	1133510656	44	5653
2026-01-14 00:54:44.24	215.45	53.80	-35.0	-35.9	23.7	0.00e+00	123	28	0	1136656384	44	5516
2026-01-14 00:54:45.25	216.02	54.04	-34.9	-35.9	23.6	0.00e+00	122	28	0	1139802112	44	5471
2026-01-14 00:54:46.26	216.60	54.27	-34.5	-35.4	24.1	0.00e+00	123	28	0	1142947840	42	5807
2026-01-14 00:54:47.27	217.19	54.50	-34.3	-35.2	24.2	0.00e+00	120	28	0	1146093568	42	5678
2026-01-14 00:54:48.28	217.78	54.73	-34.5	-35.4	24.1	0.00e+00	123	28	0	1149239296	42	5803
2026-01-14 00:54:49.29	218.39	54.96	-34.7	-35.7	23.8	0.00e+00	122	28	0	1152385024	42	5998
2026-01-14 00:54:50.30	219.00	55.18	-34.7	-35.6	23.9	0.00e+00	122	28	0	1155530752	42	5993
2026-01-14 00:54:51.31	219.63	55.40	-34.6	-35.5	24.0	0.00e+00	122	28	0	1158676480	42	5871
2026-01-14 00:54:52.32	220.26	55.62	-34.5	-35.4	23.9	0.00e+00	123	28	0	1161822208	42	5813
2026-01-14 00:54:53.33	220.91	55.84	-34.3	-35.2	24.1	0.00e+00	120	28	0	1164967936	42	5713
2026-01-14 00:54:54.34	221.56	56.05	-34.3	-35.2	24.1	0.00e+00	123	28	0	1169162240	42	5689
2026-01-14 00:54:55.35	222.23	56.27	-34.3	-35.2	24.1	0.00e+00	120	28	0	1172307968	42	5693
2026-01-14 00:54:56.36	222.90	56.47	-34.2	-35.1	24.2	0.00e+00	122	28	0	1174405120	42	5598
2026-01-14 00:54:57.37	223.59	56.68	-34.3	-35.2	23.9	0.00e+00	120	28	0	1177550848	42	5689
2026-01-14 00:54:58.38	224.28	56.88	-34.2	-35.1	24.1	0.00e+00	123	27	0	1180696576	42	5653
2026-01-14 00:54:59.39	224.99	57.08	-34.0	-34.9	24.4	0.00e+00	123	28	0	1184890880	42	5525
2026-01-14 00:55:00.40	225.70	57.28	-33.9	-34.8	24.4	0.00e+00	123	28	0	1188036608	42	5458
2026-01-14 00:55:01.41	226.43	57.47	-33.6	-34.5	24.4	0.00e+00	122	28	0	1191182336	40	5879
2026-01-14 00:55:02.42	227.16	57.66	-33.8	-34.7	24.2	0.00e+00	122	28	0	1194328064	40	6038
2026-01-14 00:55:03.43	227.91	57.84	-33.4	-34.3	24.4	0.00e+00	123	28	0	1197473792	40	5751
2026-01-14 00:55:04.44	228.67	58.02	-33.6	-34.5	24.5	0.00e+00	122	28	0	1200619520	40	5889
2026-01-14 00:55:05.45	229.43	58.20	-33.8	-34.7	24.3	0.00e+00	123	28	0	1203765248	40	6038
2026-01-14 00:55:06.46	230.21	58.37	-33.7	-34.6	24.2	0.00e+00	123	28	0	1206910976	40	5994
2026-01-14 00:55:07.47	230.99	58.54	-33.8	-34.7	24.0	0.00e+00	122	28	0	1210056704	40	6031
2026-01-14 00:55:08.48	231.79	58.70	-33.7	-34.7	24.0	0.00e+00	123	28	0	1213202432	40	6009
2026-01-14 00:55:09.49	232.59	58.86	-33.9	-34.8	24.3	0.00e+00	123	28	0	1216348160	40	6129
2026-01-14 00:55:10.50	233.41	59.01	-33.7	-34.5	24.7	0.00e+00	123	28	0	1219493888	40	5924
2026-01-14 00:55:11.50	234.22	59.16	-33.8	-34.7	24.5	0.00e+00	123	28	0	1222639616	40	6023
2026-01-14 00:55:12.52	235.07	59.31	-33.8	-34.7	24.5	0.00e+00	122	28	0	1225785344	40	6042
2026-01-14 00:55:13.53	235.91	59.44	-33.8	-34.6	24.6	0.00e+00	123	28	0	1228931072	40	5982
2026-01-14 00:55:14.53	236.75	59.58	-33.6	-34.5	24.7	0.00e+00	123	28	0	1232076800	40	5889
2026-01-14 00:55:15.54	237.61	59.70	-33.5	-34.4	24.8	0.00e+00	120	28	0	1235222528	40	5817
2026-01-14 00:55:16.55	238.48	59.83	-33.3	-34.1	25.0	0.00e+00	123	28	0	1238368256	40	5639
2026-01-14 00:55:17.56	239.35	59.94	-33.4	-34.3	24.7	0.00e+00	123	28	0	1241513984	40	5745
2026-01-14 00:55:18.57	240.24	60.05	-33.6	-34.5	24.7	0.00e+00	122	28	0	1244659712	40	5879
2026-01-14 00:55:19.58	241.13	60.16	-33.4	-34.3	24.7	0.00e+00	122	28	0	1247805440	40	5766
2026-01-14 00:55:20.59	242.02	60.26	-33.4	-34.3	24.8	0.00e+00	122	28	0	1250951168	40	5759
2026-01-14 00:55:21.60	242.93	60.35	-33.3	-34.1	25.0	0.00e+00	122	28	0	1254096896	40	5644
2026-01-14 00:55:22.62	243.85	60.44	-33.0	-33.9	25.1	0.00e+00	123	28	0	1257242624	40	5508
2026-01-14 00:55:23.63	244.76	60.52	-33.1	-34.0	25.1	0.00e+00	123	28	0	1260388352	40	5535
2026-01-14 00:55:24.64	245.69	60.59	-33.4	-34.3	24.9	0.00e+00	120	28	0	1263534080	40	5776
2026-01-14 00:55:25.65	246.61	60.66	-33.4	-34.3	24.8	0.00e+00	122	28	0	1266679808	40	5734
2026-01-14 00:55:26.66	247.55	60.72	-33.4	-34.3	24.8	0.00e+00	120	28	0	1269825536	40	5759
2026-01-14 00:55:27.67	248.48	60.77	-33.3	-34.2	24.5	0.00e+00	123	28	0	1272971264	40	5697
2026-01-14 00:55:28.68	249.42	60.82	-33.4	-34.3	24.5	0.00e+00	120	28	0	1276116992	40	5786
2026-01-14 00:55:29.69	250.37	60.86	-33.6	-34.5	24.5	0.00e+00	122	28	0	1279262720	40	5882
2026-01-14 00:55:30.70	251.31	60.90	-33.3	-34.2	24.8	0.00e+00	123	28	0	1282408448	40	5697
2026-01-14 00:55:31.71	252.26	60.92	-33.4	-34.3	24.5	0.00e+00	120	28	0	1285554176	40	5728
2026-01-14 00:55:32.72	253.21	60.94	-33.3	-34.2	24.8	0.00e+00	123	28	0	1288699904	40	5688
2026-01-14 00:55:33.73	254.16	60.96	-33.4	-34.3	24.9	0.00e+00	122	28	0	1291845632	40	5768
2026-01-14 00:55:34.74	255.11	60.96	-33.4	-34.3	24.9	0.00e+00	123	28	0	1294991360	40	5736
2026-01-14 00:55:35.75	256.06	60.96	-33.6	-34.5	24.7	0.00e+00	120	28	0	1298137088	40	5890
2026-01-14 00:55:36.76	257.02	60.96	-33.8	-34.7	24.6	0.00e+00	122	28	0	1301282816	40	6052
2026-01-14 00:55:37.77	257.97	60.94	-33.5	-34.4	24.8	0.00e+00	123	28	0	1304428544	40	5846
2026-01-14 00:55:38.78	258.92	60.92	-33.2	-34.1	25.1	0.00e+00	123	28	0	1307574272	40	5607
2026-01-14 00:55:39.80	259.87	60.89	-33.4	-34.2	24.5	0.00e+00	122	28	0	1310720000	40	5723
2026-01-14 00:55:40.81	260.82	60.86	-33.3	-34.2	24.9	0.00e+00	123	28	0	1313865728	40	5695
2026-01-14 00:55:41.82	261.76	60.82	-33.1	-33.9	25.1	0.00e+00	122	28	0	1317011456	40	5508
2026-01-14 00:55:42.83	262.70	60.77	-33.0	-33.8	25.2	0.00e+00	123	28	0	1320157184	40	5445
2026-01-14 00:55:43.84	263.64	60.72	-33.0	-33.8	25.1	0.00e+00	123	28	0	1323302912	40	5462
2026-01-14 00:55:44.85	264.57	60.66	-33.0	-33.8	25.2	0.00e+00	122	28	0	1326448640	40	5442
2026-01-14 00:55:45.86	265.49	60.59	-32.7	-33.5	25.5	0.00e+00	120	28	0	1329594368	38	5896
2026-01-14 00:55:46.87	266.42	60.51	-32.7	-33.6	25.4	0.00e+00	122	28	0	1332740096	38	5942
2026-01-14 00:55:47.88	267.33	60.43	-33.4	-34.3	24.7	0.00e+00	123	28	0	1335885824	38	6454
2026-01-14 00:55:48.89	268.24	60.35	-33.9	-34.8	24.3	0.00e+00	123	28	0	1339031552	40	6102
2026-01-14 00:55:49.90	269.14	60.25	-34.0	-34.9	24.2	0.00e+00	123	28	0	1342177280	40	6200
2026-01-14 00:55:50.91	270.04	60.16	-34.0	-35.0	24.1	0.00e+00	123	28	0	1345323008	40	6233
2026-01-14 00:55:51.92	270.93	60.05	-33.7	-34.6	24.6	0.00e+00	120	28	0	1348468736	40	5967
2026-01-14 00:55:52.93	271.81	59.94	-33.3	-34.2	25.0	0.00e+00	122	28	0	1351614464	40	5671
2026-01-14 00:55:53.94	272.69	59.82	-33.1	-33.9	25.1	0.00e+00	123	28	0	1354760192	40	5521
2026-01-14 00:55:54.95	273.55	59.70	-33.6	-34.5	24.8	0.00e+00	123	28	0	1357905920	40	5859
2026-01-14 00:55:55.96	274.41	59.57	-33.9	-34.8	24.5	0.00e+00	123	28	0	1361051648	40	6104
2026-01-14 00:55:56.97	275.26	59.44	-33.8	-34.7	24.5	0.00e+00	123	28	0	1364197376	40	6064
2026-01-14 00:55:57.98	276.10	59.30	-33.4	-34.3	24.5	0.00e+00	123	28	0	1367343104	40	5784
2026-01-14 00:55:58.99	276.93	59.16	-33.5	-34.4	24.5	0.00e+00	122	28	0	1370488832	40	5816
2026-01-14 00:56:00.00	277.76	59.01	-33.7	-34.6	24.8	0.00e+00	123	28	0	1373634560	40	5949
2026-01-14 00:56:01.01	278.57	58.85	-34.2	-35.1	24.3	0.00e+00	122	28	0	1376780288	40	6302
2026-01-14 00:56:02.02	279.37	58.70	-34.1	-35.0	24.2	0.00e+00	123	28	0	1379926016	40	6271
2026-01-14 00:56:03.03	280.17	58.53	-34.4	-35.3	24.1	0.00e+00	122	28	0	1383071744	40	6489
2026-01-14 00:56:04.04	280.95	58.37	-34.1	-35.0	24.3	0.00e+00	121	28	0	1386217472	40	6247
2026-01-14 00:56:05.05	281.73	58.19	-34.0	-34.9	24.4	0.00e+00	120	28	0	1389363200	40	6172
2026-01-14 00:56:06.06	282.49	58.02	-33.5	-34.4	24.7	0.00e+00	122	28	0	1392508928	40	5846
2026-01-14 00:56:07.07	283.25	57.84	-33.7	-34.6	24.6	0.00e+00	123	28	0	1395654656	40	5952
2026-01-14 00:56:08.08	283.99	57.65	-34.2	-35.1	24.2	0.00e+00	122	28	0	1398800384	40	6317
2026-01-14 00:56:09.10	284.73	57.46	-34.1	-35.1	24.2	0.00e+00	123	28	0	1401946112	40	6278
2026-01-14 00:56:10.11	285.45	57.27	-34.3	-35.2	24.2	0.00e+00	122	28	0	1405091840	40	6385
2026-01-14 00:56:11.12	286.17	57.08	-34.2	-35.1	23.8	0.00e+00	120	28	0	1408237568	40	6346
2026-01-14 00:56:12.13	286.87	56.88	-34.7	-35.6	23.7	0.00e+00	123	28	0	1411383296	40	6713
2026-01-14 00:56:13.13	287.56	56.68	-34.4	-35.3	24.1	0.00e+00	121	28	0	1414529024	42	5779
2026-01-14 00:56:14.15	288.25	56.47	-34.2	-35.1	24.2	0.00e+00	122	28	0	1417674752	42	5633
2026-01-14 00:56:15.16	288.92	56.26	-34.2	-35.1	24.2	0.00e+00	122	28	0	1420820480	42	5610
2026-01-14 00:56:16.17	289.59	56.05	-34.4	-35.3	24.1	0.00e+00	123	28	0	1423966208	42	5774
2026-01-14 00:56:17.18	290.24	55.84	-34.3	-35.2	24.3	0.00e+00	123	28	0	1427111936	42	5684
2026-01-14 00:56:18.19	290.88	55.62	-34.1	-35.0	24.3	0.00e+00	123	28	0	1430257664	42	5579
2026-01-14 00:56:19.20	291.51	55.40	-34.0	-34.9	24.1	0.00e+00	122	28	0	1433403392	42	5480
2026-01-14 00:56:20.21	292.14	55.18	-33.7	-34.6	24.4	0.00e+00	120	28	0	1436549120	40	5960
2026-01-14 00:56:21.22	292.75	54.96	-33.8	-34.7	24.6	0.00e+00	120	28	0	1439694848	40	6019
2026-01-14 00:56:22.23	293.36	54.73	-33.8	-34.7	24.4	0.00e+00	123	28	0	1442840576	40	6017
2026-01-14 00:56:23.24	293.95	54.50	-34.0	-34.9	24.3	0.00e+00	120	28	0	1445986304	40	6142
2026-01-14 00:56:24.25	294.54	54.27	-34.2	-35.1	24.2	0.00e+00	123	28	0	1449132032	40	6313
2026-01-14 00:56:25.26	295.11	54.04	-34.3	-35.1	24.1	0.00e+00	121	28	0	1452277760	40	6335
2026-01-14 00:56:26.27	295.68	53.80	-34.8	-35.7	23.6	0.00e+00	123	28	0	1455423488	42	6042
2026-01-14 00:56:27.28	296.24	53.57	-35.5	-36.5	23.1	0.00e+00	122	28	0	1458569216	42	6577
2026-01-14 00:56:28.29	296.79	53.33	-35.2	-36.1	23.5	0.00e+00	120	28	0	1462763520	42	6344
2026-01-14 00:56:29.30	297.33	53.09	-35.0	-35.9	23.7	0.00e+00	122	28	0	1465909248	42	6185
2026-01-14 00:56:30.31	297.86	52.85	-35.1	-36.0	23.6	0.00e+00	123	28	0	1468006400	42	6218
2026-01-14 00:56:31.32	298.38	52.61	-35.3	-36.3	23.2	0.00e+00	122	28	0	1471152128	42	6448
2026-01-14 00:56:32.33	298.90	52.37	-35.2	-36.1	23.6	0.00e+00	120	28	0	1474297856	42	6311
2026-01-14 00:56:33.34	299.40	52.13	-34.7	-35.6	24.0	0.00e+00	123	28	0	1478492160	42	5983
2026-01-14 00:56:34.35	299.90	51.88	-34.9	-35.8	23.8	0.00e+00	120	28	0	1481637888	42	6086
2026-01-14 00:56:35.36	300.39	51.64	-35.2	-36.1	23.6	0.00e+00	122	28	0	1484783616	42	6326
2026-01-14 00:56:36.37	300.87	51.39	-35.3	-36.2	23.5	0.00e+00	120	28	0	1487929344	42	6394
2026-01-14 00:56:37.39	301.35	51.14	-35.2	-36.2	23.5	0.00e+00	122	28	0	1491075072	42	6370
2026-01-14 00:56:38.40	301.82	50.90	-35.3	-36.2	23.3	0.00e+00	123	28	0	1494220800	42	6389
2026-01-14 00:56:39.41	302.27	50.65	-35.0	-36.0	23.2	0.00e+00	122	28	0	1497366528	42	6237
2026-01-14 00:56:40.42	302.73	50.40	-35.3	-36.3	23.4	0.00e+00	122	28	0	1500512256	42	6463
2026-01-14 00:56:41.43	303.17	50.15	-35.4	-36.3	23.4	0.00e+00	123	28	0	1503657984	42	6494
2026-01-14 00:56:42.44	303.61	49.90	-35.3	-36.2	23.5	0.00e+00	122	28	0	1506803712	42	6377
2026-01-14 00:56:43.45	304.04	49.65	-35.6	-36.5	23.3	0.00e+00	123	28	0	1509949440	42	6600
2026-01-14 00:56:44.46	304.46	49.40	-36.2	-37.2	22.6	0.00e+00	122	28	0	1513095168	44	6380
2026-01-14 00:56:45.47	304.88	49.15	-37.2	-38.3	21.8	0.00e+00	123	28	0	1516240896	46	6457
2026-01-14 00:56:46.48	305.29	48.90	-37.7	-38.8	21.2	0.00e+00	121	28	0	1519386624	46	6845
2026-01-14 00:56:47.49	305.69	48.65	-38.0	-39.3	20.5	0.00e+00	122	28	0	1522532352	48	6453
2026-01-14 00:56:48.50	306.08	48.40	-37.8	-39.0	20.8	0.00e+00	122	28	0	1525678080	48	6210
2026-01-14 00:56:49.51	306.47	48.15	-37.3	-38.4	21.5	0.00e+00	123	28	0	1528823808	48	5839
2026-01-14 00:56:50.52	306.86	47.90	-36.8	-37.8	22.1	0.00e+00	123	28	0	1531969536	48	5450
2026-01-14 00:56:51.53	307.24	47.65	-36.7	-37.7	22.0	0.00e+00	120	28	0	1535115264	46	6028
2026-01-14 00:56:52.54	307.61	47.40	-36.7	-37.7	21.8	0.00e+00	122	28	0	1538260992	46	6033
2026-01-14 00:56:53.55	307.97	47.15	-37.2	-38.3	21.4	0.00e+00	123	28	0	1541406720	46	6449
2026-01-14 00:56:54.55	308.33	46.90	-37.5	-38.6	20.9	0.00e+00	122	28	0	1544552448	48	5968
2026-01-14 00:56:55.56	308.69	46.65	-37.6	-38.7	21.2	0.00e+00	123	28	0	1547698176	48	6027
2026-01-14 00:56:56.58	309.04	46.40	-36.9	-37.9	22.1	0.00e+00	123	28	0	1550843904	48	5516
2026-01-14 00:56:57.58	309.38	46.16	-36.7	-37.7	22.3	0.00e+00	122	28	0	1553989632	46	6017
2026-01-14 00:56:58.59	309.72	45.91	-36.6	-37.6	22.3	0.00e+00	123	28	0	1557135360	46	5965
2026-01-14 00:56:59.60	310.05	45.66	-36.1	-37.1	22.6	0.00e+00	122	28	0	1560281088	46	5612
2026-01-14 00:57:00.61	310.38	45.41	-35.7	-36.7	23.0	0.00e+00	122	28	0	1563426816	46	5365
2026-01-14 00:57:01.62	310.70	45.17	-36.0	-36.9	22.8	0.00e+00	123	28	0	1566572544	44	6197
2026-01-14 00:57:02.63	311.02	44.92	-36.5	-37.5	22.4	0.00e+00	123	28	0	1569718272	44	6593
2026-01-14 00:57:03.64	311.33	44.68	-36.7	-37.8	21.9	0.00e+00	119	28	0	1572864000	46	6065
2026-01-14 00:57:04.65	311.64	44.43	-36.7	-37.7	21.8	0.00e+00	122	28	0	1576009728	46	6022
2026-01-14 00:57:05.66	311.95	44.19	-36.9	-37.9	21.8	0.00e+00	122	28	0	1579155456	46	6192
2026-01-14 00:57:06.67	312.25	43.94	-37.2	-38.3	21.7	0.00e+00	122	28	0	1582301184	46	6449
2026-01-14 00:57:07.69	312.54	43.70	-37.3	-38.4	21.6	0.00e+00	120	28	0	1585446912	46	6517
2026-01-14 00:57:08.70	312.83	43.46	-37.4	-38.4	21.4	0.00e+00	122	28	0	1588592640	46	6564
2026-01-14 00:57:09.71	313.12	43.21	-37.0	-38.1	21.8	0.00e+00	123	28	0	1591738368	46	6324
2026-01-14 00:57:10.72	313.40	42.97	-36.7	-37.7	22.2	0.00e+00	120	28	0	1594884096	46	6035
2026-01-14 00:57:11.72	313.68	42.74	-36.4	-37.4	22.4	0.00e+00	124	28	0	1598029824	46	5825
2026-01-14 00:57:12.73	313.95	42.50	-36.2	-37.2	22.7	0.00e+00	123	28	0	1601175552	46	5676
2026-01-14 00:57:13.75	314.22	42.26	-35.9	-36.9	22.9	0.00e+00	122	28	0	1604321280	46	5490
2026-01-14 00:57:14.76	314.49	42.02	-35.8	-36.7	23.0	0.00e+00	122	28	0	1607467008	44	6041
2026-01-14 00:57:15.77	314.75	41.78	-36.1	-37.0	22.6	0.00e+00	123	28	0	1610612736	44	6264
2026-01-14 00:57:16.77	315.01	41.55	-36.7	-37.7	22.1	0.00e+00	122	28	0	1613758464	44	6798
2026-01-14 00:57:17.79	315.27	41.31	-37.3	-38.4	21.6	0.00e+00	123	28	0	1616904192	46	6519
2026-01-14 00:57:18.80	315.52	41.08	-37.5	-38.6	21.4	0.00e+00	123	28	0	1620049920	46	6715
2026-01-14 00:57:19.81	315.77	40.85	-37.4	-38.5	21.6	0.00e+00	120	28	0	1623195648	46	6591
2026-01-14 00:57:20.82	316.01	40.62	-37.1	-38.1	21.8	0.00e+00	123	28	0	1626341376	46	6331
2026-01-14 00:57:21.83	316.25	40.39	-36.1	-37.1	22.7	0.00e+00	121	28	0	1629487104	46	5618
2026-01-14 00:57:22.84	316.49	40.16	-35.6	-36.6	22.9	0.00e+00	123	28	0	1632632832	44	5942
2026-01-14 00:57:23.85	316.72	39.93	-35.7	-36.7	23.0	0.00e+00	120	28	0	1635778560	44	6011
2026-01-14 00:57:24.86	316.95	39.70	-35.8	-36.8	22.9	0.00e+00	122	28	0	1638924288	44	6083
2026-01-14 00:57:25.87	317.18	39.47	-36.2	-37.2	22.8	0.00e+00	120	28	0	1642070016	44	6364
2026-01-14 00:57:26.88	317.41	39.25	-36.4	-37.5	22.6	0.00e+00	123	28	0	1645215744	44	6577
2026-01-14 00:57:27.89	317.63	39.02	-36.3	-37.3	22.6	0.00e+00	123	28	0	1648361472	44	6477
2026-01-14 00:57:28.89	317.84	38.80	-36.3	-37.3	22.6	0.00e+00	122	28	0	1651507200	44	6445
2026-01-14 00:57:29.90	318.06	38.58	-36.0	-37.0	22.7	0.00e+00	122	28	0	1654652928	44	6255
2026-01-14 00:57:30.91	318.27	38.36	-36.2	-37.2	22.5	0.00e+00	123	28	0	1657798656	44	6415
2026-01-14 00:57:31.92	318.48	38.13	-36.2	-37.2	22.6	0.00e+00	123	28	0	1660944384	44	6410
2026-01-14 00:57:32.93	318.69	37.91	-36.2	-37.2	22.8	0.00e+00	123	28	0	1664090112	44	6368
2026-01-14 00:57:33.94	318.90	37.70	-35.8	-36.8	22.9	0.00e+00	123	28	0	1667235840	44	6086
2026-01-14 00:57:34.95	319.10	37.48	-35.6	-36.6	23.1	0.00e+00	122	28	0	1670381568	44	5972
2026-01-14 00:57:35.96	319.30	37.26	-35.5	-36.5	23.2	0.00e+00	122	28	0	1673527296	44	5875
2026-01-14 00:57:36.98	319.50	37.04	-35.3	-36.2	23.3	0.00e+00	122	28	0	1676673024	44	5720
2026-01-14 00:57:37.99	319.69	36.83	-35.0	-35.9	23.7	0.00e+00	123	28	0	1679818752	44	5504
2026-01-14 00:57:38.99	319.88	36.62	-34.7	-35.6	23.9	0.00e+00	122	28	0	1682964480	44	5313
2026-01-14 00:57:40.00	320.07	36.41	-34.5	-35.4	24.1	0.00e+00	120	28	0	1686110208	42	5812
2026-01-14 00:57:41.01	320.26	36.19	-34.3	-35.2	24.1	0.00e+00	123	28	0	1689255936	42	5698
2026-01-14 00:57:42.02	320.44	35.98	-34.6	-35.5	23.8	0.00e+00	120	28	0	1692401664	42	5891
2026-01-14 00:57:43.03	320.62	35.77	-34.9	-35.9	23.4	0.00e+00	123	28	0	1695547392	42	6145
2026-01-14 00:57:44.04	320.80	35.57	-35.4	-36.4	23.0	0.00e+00	122	28	0	1698693120	42	6516
2026-01-14 00:57:45.06	320.98	35.36	-35.6	-36.6	23.0	0.00e+00	123	28	0	1701838848	42	6698
2026-01-14 00:57:46.06	321.16	35.15	-35.7	-36.7	22.8	0.00e+00	123	28	0	1704984576	44	6005
2026-01-14 00:57:47.07	321.33	34.95	-35.7	-36.8	22.9	0.00e+00	123	28	0	1708130304	44	6065
2026-01-14 00:57:48.08	321.50	34.74	-35.5	-36.5	23.0	0.00e+00	120	28	0	1711276032	44	5887
2026-01-14 00:57:49.09	321.67	34.54	-35.4	-36.4	23.1	0.00e+00	123	28	0	1714421760	44	5816
2026-01-14 00:57:50.10	321.84	34.34	-35.0	-36.0	23.5	0.00e+00	122	28	0	1717567488	44	5535
2026-01-14 00:57:51.12	322.01	34.14	-34.7	-35.6	24.0	0.00e+00	123	28	0	1720713216	42	5973
2026-01-14 00:57:52.13	322.17	33.94	-34.7	-35.6	24.0	0.00e+00	122	28	0	1723858944	42	5954
2026-01-14 00:57:53.13	322.33	33.74	-34.7	-35.6	23.9	0.00e+00	123	28	0	1727004672	42	5993
2026-01-14 00:57:54.14	322.49	33.54	-35.1	-36.0	23.6	0.00e+00	122	28	0	1730150400	42	6247
2026-01-14 00:57:55.15	322.65	33.35	-35.2	-36.1	23.4	0.00e+00	122	28	0	1733296128	42	6350
2026-01-14 00:57:56.17	322.81	33.15	-35.4	-36.4	23.3	0.00e+00	122	28	0	1736441856	42	6501
2026-01-14 00:57:57.18	322.96	32.95	-35.6	-36.5	23.2	0.00e+00	123	28	0	1739587584	42	6646
2026-01-14 00:57:58.19	323.11	32.76	-35.6	-36.6	23.2	0.00e+00	122	28	0	1742733312	42	6670
2026-01-14 00:57:59.20	323.26	32.57	-35.5	-36.5	23.3	0.00e+00	120	28	0	1745879040	42	6618
2026-01-14 00:58:00.21	323.41	32.38	-35.5	-36.5	23.2	0.00e+00	123	28	0	1749024768	42	6582
2026-01-14 00:58:01.22	323.56	32.19	-35.0	-35.9	23.6	0.00e+00	122	28	0	1752170496	42	6174
2026-01-14 00:58:02.23	323.70	32.00	-34.8	-35.8	23.5	0.00e+00	123	28	0	1755316224	42	6096
2026-01-14 00:58:03.24	323.85	31.81	-34.6	-35.6	23.5	0.00e+00	120	28	0	1758461952	42	5939
2026-01-14 00:58:04.25	323.99	31.62	-34.5	-35.4	23.6	0.00e+00	123	28	0	1761607680	42	5841
2026-01-14 00:58:05.26	324.13	31.43	-34.5	-35.4	23.6	0.00e+00	122	28	0	1764753408	42	5838
2026-01-14 00:58:06.27	324.27	31.25	-34.3	-35.2	23.8	0.00e+00	122	28	0	1767899136	42	5682
2026-01-14 00:58:07.28	324.41	31.06	-34.3	-35.2	23.8	0.00e+00	122	28	0	1771044864	42	5686
2026-01-14 00:58:08.29	324.54	30.88	-34.3	-35.2	23.8	0.00e+00	123	28	0	1775239168	42	5699
2026-01-14 00:58:09.30	324.68	30.70	-34.2	-35.2	23.8	0.00e+00	120	28	0	1778384896	42	5668
2026-01-14 00:58:10.31	324.81	30.52	-34.1	-35.1	23.9	0.00e+00	122	28	0	1781530624	42	5601
2026-01-14 00:58:11.32	324.94	30.34	-34.3	-35.2	24.0	0.00e+00	122	28	0	1783627776	42	5681
2026-01-14 00:58:12.33	325.07	30.16	-34.0	-34.9	24.2	0.00e+00	122	28	0	1786773504	42	5511
2026-01-14 00:58:13.34	325.20	29.98	-34.1	-35.0	24.2	0.00e+00	122	28	0	1790967808	42	5584
2026-01-14 00:58:14.35	325.33	29.80	-33.9	-34.8	24.4	0.00e+00	122	28	0	1794113536	42	5451
2026-01-14 00:58:15.36	325.46	29.63	-33.7	-34.6	24.4	0.00e+00	122	28	0	1797259264	40	5973
2026-01-14 00:58:16.37	325.58	29.45	-33.7	-34.6	24.4	0.00e+00	123	28	0	1800404992	40	5959
2026-01-14 00:58:17.38	325.70	29.28	-33.8	-34.7	24.2	0.00e+00	122	28	0	1803550720	40	6062
2026-01-14 00:58:18.39	325.83	29.10	-33.9	-34.9	24.2	0.00e+00	120	28	0	1806696448	40	6138
2026-01-14 00:58:19.40	325.95	28.93	-34.2	-35.1	24.1	0.00e+00	122	28	0	1809842176	40	6306
2026-01-14 00:58:20.41	326.07	28.76	-34.0	-34.9	24.2	0.00e+00	121	28	0	1812987904	40	6167
2026-01-14 00:58:21.42	326.19	28.59	-34.1	-35.0	24.2	0.00e+00	122	28	0	1816133632	40	6265
2026-01-14 00:58:22.43	326.30	28.42	-34.1	-35.0	24.2	0.00e+00	123	28	0	1819279360	40	6227
2026-01-14 00:58:23.44	326.42	28.25	-34.1	-35.0	24.3	0.00e+00	122	28	0	1822425088	40	6245
2026-01-14 00:58:24.45	326.53	28.08	-34.1	-35.0	24.2	0.00e+00	120	28	0	1825570816	40	6238
2026-01-14 00:58:25.46	326.65	27.91	-34.0	-35.0	24.3	0.00e+00	123	28	0	1828716544	40	6219
2026-01-14 00:58:26.47	326.76	27.75	-34.1	-35.0	24.2	0.00e+00	123	28	0	1831862272	40	6276
2026-01-14 00:58:27.48	326.87	27.58	-34.2	-35.1	24.2	0.00e+00	122	28	0	1835008000	40	6293
2026-01-14 00:58:28.49	326.98	27.42	-34.1	-35.0	24.4	0.00e+00	123	28	0	1838153728	40	6232
2026-01-14 00:58:29.50	327.09	27.25	-33.8	-34.7	24.6	0.00e+00	123	28	0	1841299456	40	5997
2026-01-14 00:58:30.51	327.20	27.09	-33.8	-34.7	24.7	0.00e+00	120	28	0	1844445184	40	6003
2026-01-14 00:58:31.52	327.31	26.93	-33.6	-34.4	24.7	0.00e+00	120	28	0	1847590912	40	5850
2026-01-14 00:58:32.53	327.41	26.77	-33.5	-34.4	24.7	0.00e+00	122	28	0	1850736640	40	5834
2026-01-14 00:58:33.54	327.52	26.61	-33.5	-34.4	24.7	0.00e+00	120	28	0	1853882368	40	5814
2026-01-14 00:58:34.55	327.62	26.45	-33.5	-34.4	24.8	0.00e+00	122	28	0	1857028096	40	5832
2026-01-14 00:58:35.56	327.73	26.29	-33.5	-34.3	24.7	0.00e+00	120	28	0	1860173824	40	5787
2026-01-14 00:58:36.57	327.83	26.13	-33.5	-34.3	24.8	0.00e+00	123	28	0	1863319552	40	5789
2026-01-14 00:58:37.58	327.93	25.97	-33.5	-34.3	24.8	0.00e+00	116	28	0	1866465280	40	5770
2026-01-14 00:58:38.59	328.03	25.82	-33.4	-34.3	24.9	0.00e+00	123	28	0	1869611008	40	5740
2026-01-14 00:58:39.60	328.13	25.66	-33.3	-34.2	24.9	0.00e+00	123	28	0	1872756736	40	5671
2026-01-14 00:58:40.61	328.23	25.51	-33.2	-34.0	25.0	0.00e+00	122	28	0	1875902464	40	5581
2026-01-14 00:58:41.62	328.33	25.35	-33.3	-34.1	24.9	0.00e+00	122	28	0	1879048192	40	5648
2026-01-14 00:58:42.63	328.42	25.20	-33.2	-34.1	25.0	0.00e+00	123	28	0	1882193920	40	5616
2026-01-14 00:58:43.64	328.52	25.05	-33.4	-34.3	24.8	0.00e+00	122	28	0	1885339648	40	5736
2026-01-14 00:58:44.65	328.61	24.90	-33.5	-34.4	24.7	0.00e+00	123	28	0	1888485376	40	5815
2026-01-14 00:58:45.66	328.71	24.75	-33.3	-34.2	24.8	0.00e+00	122	28	0	1891631104	40	5696
2026-01-14 00:58:46.68	328.80	24.60	-33.5	-34.4	24.7	0.00e+00	122	28	0	1894776832	40	5793
2026-01-14 00:58:47.69	328.89	24.45	-33.6	-34.5	24.5	0.00e+00	123	28	0	1897922560	40	5895
2026-01-14 00:58:48.70	328.99	24.30	-33.7	-34.6	24.5	0.00e+00	121	28	0	1901068288	40	5953
2026-01-14 00:58:49.71	329.08	24.15	-33.4	-34.3	24.7	0.00e+00	123	28	0	1904214016	40	5733
2026-01-14 00:58:50.72	329.17	24.01	-33.7	-34.6	24.5	0.00e+00	122	28	0	1907359744	40	5944
2026-01-14 00:58:51.73	329.26	23.86	-33.6	-34.5	24.5	0.00e+00	123	28	0	1910505472	40	5920
2026-01-14 00:58:52.74	329.34	23.72	-33.6	-34.5	24.6	0.00e+00	120	28	0	1913651200	40	5895
2026-01-14 00:58:53.75	329.43	23.57	-33.6	-34.5	24.6	0.00e+00	123	28	0	1916796928	40	5916
2026-01-14 00:58:54.76	329.52	23.43	-33.8	-34.7	24.4	0.00e+00	122	28	0	1919942656	40	6037
2026-01-14 00:58:55.77	329.60	23.28	-33.6	-34.5	24.7	0.00e+00	123	28	0	1923088384	40	5893
2026-01-14 00:58:56.78	329.69	23.14	-33.7	-34.6	24.6	0.00e+00	122	28	0	1926234112	40	5972
2026-01-14 00:58:57.79	329.77	23.00	-33.7	-34.5	24.6	0.00e+00	122	28	0	1929379840	40	5923
2026-01-14 00:58:58.80	329.86	22.86	-33.7	-34.6	24.6	0.00e+00	123	28	0	1932525568	40	5959
2026-01-14 00:58:59.81	329.94	22.72	-33.8	-34.7	24.5	0.00e+00	123	28	0	1935671296	40	6035
2026-01-14 00:59:00.82	330.02	22.58	-33.9	-34.8	24.4	0.00e+00	123	28	0	1938817024	40	6098
2026-01-14 00:59:01.83	330.11	22.44	-33.8	-34.7	24.5	0.00e+00	123	28	0	1941962752	40	6045
2026-01-14 00:59:02.84	330.19	22.31	-33.9	-34.8	24.4	0.00e+00	120	28	0	1945108480	40	6096
2026-01-14 00:59:03.85	330.27	22.17	-33.9	-34.8	24.4	0.00e+00	120	28	0	1948254208	40	6115
2026-01-14 00:59:04.86	330.35	22.03	-33.8	-34.7	24.5	0.00e+00	122	28	0	1951399936	40	6034
2026-01-14 00:59:05.87	330.43	21.90	-34.0	-34.9	24.3	0.00e+00	122	28	0	1954545664	40	6156
2026-01-14 00:59:06.88	330.51	21.76	-33.8	-34.7	24.5	0.00e+00	123	28	0	1957691392	40	6028
2026-01-14 00:59:07.89	330.58	21.63	-33.9	-34.8	24.3	0.00e+00	122	28	0	1960837120	40	6123
2026-01-14 00:59:08.90	330.66	21.49	-34.1	-35.0	24.1	0.00e+00	123	28	0	1963982848	40	6259
2026-01-14 00:59:09.91	330.74	21.36	-34.1	-35.1	24.1	0.00e+00	123	28	0	1967128576	40	6287
2026-01-14 00:59:10.92	330.81	21.23	-34.0	-34.9	24.2	0.00e+00	120	28	0	1970274304	40	6196
2026-01-14 00:59:11.93	330.89	21.10	-34.0	-34.9	24.2	0.00e+00	122	28	0	1973420032	40	6164
