passes_logs/2026/01/14/R4.6S_Anadyr/R4.6S_Anadyr__20260114_231838_SUOMI_NPP_rec.log

#Pass ID: 20260114_231838_SUOMI NPP
#Satellite: SUOMI NPP
#Configuration: NPP
#almurnet v.1.7.20251203
#Start time: 2026-01-14 23:18:40

#Version: 2.2.20231116
#Station: R4.6S_Anadyr
#Location: 177.4865 lon 64.73178 lat
#TLE: 1 37849U 11061A   26014.61059675  .00000037  00000+0  38639-4 0  9994
#TLE: 2 37849  98.7810 316.6625 0002460  64.3781 295.7649 14.19525105736658

#Time	Az	El	Level	Level2	SNR	BER	BlckErr	Temp	State	Recorded	gain1	gain2
2026-01-14 23:18:40.75	132.17	0.13	-48.8	-61.2	3.5	1.52e+00	0	27	0	0	60	40497
2026-01-14 23:18:41.75	132.14	0.19	-48.8	-64.0	3.6	1.51e+00	0	28	104	0	60	57251
2026-01-14 23:18:42.77	132.12	0.25	-48.7	-64.0	3.6	1.51e+00	0	28	104	0	60	57223
2026-01-14 23:18:43.77	132.09	0.31	-48.8	-64.0	3.6	1.51e+00	0	28	104	0	60	57205
2026-01-14 23:18:44.78	132.07	0.37	-48.8	-64.1	3.6	1.51e+00	0	28	104	0	60	57693
2026-01-14 23:18:45.79	132.05	0.43	-48.9	-64.1	3.6	1.51e+00	0	28	104	0	60	57766
2026-01-14 23:18:46.80	132.02	0.49	-48.9	-64.0	3.6	1.51e+00	0	28	104	0	60	57611
2026-01-14 23:18:47.81	132.00	0.55	-48.8	-64.0	3.6	1.51e+00	0	28	104	0	60	57611
2026-01-14 23:18:48.82	131.97	0.61	-48.8	-64.0	3.6	1.51e+00	0	28	104	0	60	57373
2026-01-14 23:18:49.83	131.95	0.67	-48.7	-63.9	3.6	1.51e+00	0	28	104	0	60	56566
2026-01-14 23:18:50.84	131.92	0.73	-48.4	-63.8	3.6	1.51e+00	0	28	104	0	60	56148
2026-01-14 23:18:51.85	131.90	0.80	-48.5	-63.7	3.6	1.51e+00	0	28	104	0	60	55650
2026-01-14 23:18:52.86	131.87	0.86	-48.5	-63.7	3.6	1.51e+00	0	28	104	0	60	55098
2026-01-14 23:18:53.87	131.85	0.92	-48.3	-63.6	3.6	1.51e+00	0	28	104	0	60	54421
2026-01-14 23:18:54.88	131.82	0.98	-48.1	-63.3	3.6	1.51e+00	0	28	104	0	60	52906
2026-01-14 23:18:55.90	131.80	1.04	-47.9	-63.0	3.6	1.51e+00	0	28	104	0	60	51098
2026-01-14 23:18:56.91	131.77	1.10	-47.4	-62.6	3.6	1.51e+00	0	28	104	0	60	48598
2026-01-14 23:18:57.91	131.75	1.16	-47.0	-62.3	3.6	1.51e+00	0	28	104	0	60	47046
2026-01-14 23:18:58.92	131.72	1.23	-47.0	-62.4	3.5	1.51e+00	0	28	104	0	60	47622
2026-01-14 23:18:59.93	131.70	1.29	-47.0	-62.3	3.6	1.51e+00	0	28	104	0	60	47138
2026-01-14 23:19:00.94	131.67	1.35	-47.0	-62.3	3.6	1.51e+00	0	28	104	0	60	46990
2026-01-14 23:19:01.95	131.64	1.41	-47.0	-62.2	3.6	1.51e+00	0	28	104	0	60	46714
2026-01-14 23:19:02.96	131.62	1.48	-47.0	-62.2	3.6	1.51e+00	0	28	104	0	60	46810
2026-01-14 23:19:03.97	131.59	1.54	-47.0	-62.3	3.6	1.51e+00	0	28	104	0	60	47185
2026-01-14 23:19:04.98	131.57	1.60	-47.0	-62.4	3.6	1.51e+00	0	28	104	0	60	47501
2026-01-14 23:19:05.99	131.54	1.66	-47.0	-62.4	3.6	1.51e+00	0	28	104	0	60	47472
2026-01-14 23:19:07.00	131.51	1.73	-47.0	-62.3	3.6	1.51e+00	0	28	104	0	60	47234
2026-01-14 23:19:08.01	131.49	1.79	-47.0	-62.3	3.6	1.51e+00	0	28	104	0	60	46888
2026-01-14 23:19:09.02	131.46	1.85	-47.0	-62.2	3.6	1.51e+00	0	28	104	0	60	46569
2026-01-14 23:19:10.03	131.43	1.92	-47.0	-62.0	3.6	1.51e+00	0	28	104	0	60	45595
2026-01-14 23:19:11.04	131.41	1.98	-47.0	-62.0	3.6	1.51e+00	0	28	104	0	60	45488
2026-01-14 23:19:12.05	131.38	2.04	-47.0	-62.0	3.6	1.51e+00	0	28	104	0	60	45721
2026-01-14 23:19:13.06	131.35	2.11	-47.0	-62.1	3.6	1.51e+00	0	29	104	0	60	46185
2026-01-14 23:19:14.07	131.32	2.17	-47.0	-62.2	3.6	1.51e+00	0	28	104	0	60	46563
2026-01-14 23:19:15.08	131.30	2.24	-47.0	-62.3	3.6	1.51e+00	0	28	104	0	60	47243
2026-01-14 23:19:16.08	131.27	2.30	-47.0	-62.4	3.6	1.51e+00	0	28	104	0	60	47595
2026-01-14 23:19:17.09	131.24	2.36	-47.0	-62.4	3.6	1.51e+00	0	28	104	0	60	47432
2026-01-14 23:19:18.10	131.21	2.43	-47.0	-62.3	3.6	1.51e+00	0	28	104	0	60	46987
2026-01-14 23:19:19.11	131.18	2.49	-47.0	-62.2	3.6	1.51e+00	0	28	104	0	60	46385
2026-01-14 23:19:20.12	131.16	2.56	-47.0	-62.0	3.6	1.51e+00	0	29	104	0	60	45482
2026-01-14 23:19:21.13	131.13	2.62	-47.0	-61.9	3.6	1.51e+00	0	28	104	0	60	44900
2026-01-14 23:19:22.14	131.10	2.69	-46.9	-61.7	3.6	1.51e+00	0	28	104	0	60	44057
2026-01-14 23:19:23.15	131.07	2.75	-46.9	-61.4	3.6	1.51e+00	0	28	104	0	60	42447
2026-01-14 23:19:24.16	131.04	2.82	-46.9	-61.2	3.6	1.51e+00	0	28	104	0	60	41417
2026-01-14 23:19:25.17	131.01	2.88	-46.9	-61.2	3.6	1.51e+00	0	28	104	0	60	41523
2026-01-14 23:19:26.18	130.98	2.95	-46.9	-61.6	3.6	1.51e+00	0	29	104	0	60	43555
2026-01-14 23:19:27.19	130.95	3.01	-47.0	-62.2	3.6	1.51e+00	0	29	104	0	60	46406
2026-01-14 23:19:28.20	130.92	3.08	-47.0	-62.1	3.6	1.51e+00	0	28	104	0	60	45861
2026-01-14 23:19:29.21	130.90	3.15	-46.9	-59.7	3.7	1.51e+00	0	28	104	0	60	34926
2026-01-14 23:19:30.22	130.87	3.21	-46.5	-56.0	5.6	6.05e-01	88	28	104	0	60	22890
2026-01-14 23:19:31.23	130.84	3.28	-45.9	-51.8	8.9	8.60e-02	90	29	0	1048576	60	14134
2026-01-14 23:19:32.23	130.81	3.35	-45.1	-49.5	11.8	3.78e-03	0	29	0	3145728	60	10757
2026-01-14 23:19:33.25	130.78	3.41	-44.1	-47.4	14.0	1.90e-04	79	28	0	5242880	60	8433
2026-01-14 23:19:34.26	130.75	3.48	-43.4	-46.1	15.1	0.00e+00	0	28	0	6291456	60	7330
2026-01-14 23:19:35.27	130.71	3.55	-42.5	-44.9	16.4	0.00e+00	92	28	0	8388608	58	7097
2026-01-14 23:19:36.28	130.68	3.61	-41.7	-43.6	17.6	0.00e+00	9	28	0	10485760	56	6908
2026-01-14 23:19:37.29	130.65	3.68	-41.9	-43.9	17.3	0.00e+00	91	29	0	12582912	56	7163
2026-01-14 23:19:38.30	130.62	3.75	-42.3	-44.5	16.3	0.00e+00	91	29	0	14680064	56	7612
2026-01-14 23:19:39.30	130.59	3.82	-47.3	-61.8	3.6	8.88e-01	0	29	104	14680064	60	44391
2026-01-14 23:19:40.31	130.56	3.88	-45.9	-51.9	12.3	7.05e-01	92	29	104	14680064	60	14254
2026-01-14 23:19:41.32	130.53	3.95	-45.5	-50.7	11.4	2.19e-01	0	29	0	15728640	60	12367
2026-01-14 23:19:42.33	130.50	4.02	-39.8	-41.3	19.7	0.00e+00	92	29	0	16777216	54	5944
2026-01-14 23:19:43.34	130.47	4.09	-46.9	-60.7	3.7	1.52e+00	0	29	104	17825792	60	39316
2026-01-14 23:19:44.35	130.43	4.16	-41.0	-42.7	17.5	9.23e-01	92	29	104	17825792	54	6986
2026-01-14 23:19:45.36	130.40	4.22	-40.7	-42.4	18.7	0.00e+00	92	29	0	18874368	54	6727
2026-01-14 23:19:46.37	130.37	4.29	-40.3	-41.9	19.4	0.00e+00	0	29	0	19922944	54	6348
2026-01-14 23:19:47.38	130.34	4.36	-40.1	-41.7	19.6	0.00e+00	92	29	0	22020096	54	6183
2026-01-14 23:19:48.38	130.31	4.43	-39.9	-41.4	19.7	0.00e+00	0	29	0	24117248	54	5984
2026-01-14 23:19:49.39	130.27	4.50	-39.4	-40.7	20.4	0.00e+00	83	29	0	26214400	52	6213
2026-01-14 23:19:50.40	130.24	4.57	-39.4	-40.7	20.5	0.00e+00	0	28	0	28311552	52	6219
2026-01-14 23:19:51.41	130.21	4.64	-39.4	-40.7	20.6	0.00e+00	92	29	0	29360128	52	6195
2026-01-14 23:19:52.42	130.17	4.71	-39.4	-40.6	20.6	0.00e+00	92	28	0	31457280	52	6164
2026-01-14 23:19:53.42	130.14	4.78	-39.6	-40.9	20.2	0.00e+00	58	29	0	33554432	52	6362
2026-01-14 23:19:54.43	130.11	4.85	-39.4	-40.7	20.5	0.00e+00	92	29	0	35651584	52	6223
2026-01-14 23:19:55.44	130.07	4.92	-39.6	-40.9	20.3	0.00e+00	0	29	0	37748736	52	6387
2026-01-14 23:19:56.45	130.04	4.99	-39.6	-41.0	20.3	0.00e+00	84	29	0	38797312	52	6430
2026-01-14 23:19:57.46	130.01	5.06	-40.0	-41.5	20.0	0.00e+00	0	28	0	40894464	52	6816
2026-01-14 23:19:58.46	129.97	5.13	-40.1	-41.6	19.7	0.00e+00	91	29	0	42991616	52	6876
2026-01-14 23:19:59.47	129.94	5.20	-39.8	-41.2	20.2	0.00e+00	78	29	0	45088768	52	6594
2026-01-14 23:20:00.48	129.90	5.27	-39.8	-41.3	20.0	0.00e+00	92	29	0	47185920	52	6651
2026-01-14 23:20:01.49	129.87	5.34	-39.8	-41.3	20.1	0.00e+00	92	29	0	48234496	52	6642
2026-01-14 23:20:02.50	129.83	5.42	-39.4	-40.8	20.5	0.00e+00	0	29	0	50331648	52	6249
2026-01-14 23:20:03.51	129.80	5.49	-39.3	-40.5	20.7	0.00e+00	83	29	0	52428800	52	6099
2026-01-14 23:20:04.52	129.76	5.56	-39.1	-40.4	20.8	0.00e+00	0	28	0	54525952	52	5977
2026-01-14 23:20:05.53	129.73	5.63	-39.0	-40.2	21.0	0.00e+00	92	29	0	56623104	52	5836
2026-01-14 23:20:06.53	129.69	5.70	-38.9	-40.1	21.2	0.00e+00	0	29	0	57671680	52	5764
2026-01-14 23:20:07.54	129.65	5.78	-38.7	-39.9	21.2	0.00e+00	92	29	0	59768832	50	6344
2026-01-14 23:20:08.55	129.62	5.85	-38.9	-40.1	21.1	0.00e+00	73	29	0	61865984	50	6495
2026-01-14 23:20:09.56	129.58	5.92	-38.7	-39.9	21.4	0.00e+00	0	29	0	63963136	50	6339
2026-01-14 23:20:10.57	129.55	5.99	-39.0	-40.2	21.0	0.00e+00	33	29	0	66060288	50	6611
2026-01-14 23:20:11.58	129.51	6.07	-38.7	-39.9	21.4	0.00e+00	0	29	0	67108864	50	6325
2026-01-14 23:20:12.59	129.47	6.14	-39.1	-40.3	20.9	0.00e+00	92	29	0	69206016	50	6686
2026-01-14 23:20:13.60	129.44	6.21	-39.1	-40.3	21.0	0.00e+00	0	29	0	71303168	50	6674
2026-01-14 23:20:14.61	129.40	6.29	-39.4	-40.7	20.6	0.00e+00	92	29	0	73400320	50	7000
2026-01-14 23:20:15.62	129.36	6.36	-39.3	-40.6	20.7	0.00e+00	81	29	0	75497472	50	6905
2026-01-14 23:20:16.62	129.32	6.44	-39.3	-40.6	20.8	0.00e+00	0	29	0	77594624	50	6866
2026-01-14 23:20:17.64	129.28	6.51	-39.3	-40.6	20.7	0.00e+00	24	29	0	78643200	50	6869
2026-01-14 23:20:18.65	129.25	6.59	-39.1	-40.3	21.0	0.00e+00	0	29	0	80740352	50	6623
2026-01-14 23:20:19.65	129.21	6.66	-39.0	-40.2	21.1	0.00e+00	78	29	0	82837504	50	6607
2026-01-14 23:20:20.67	129.17	6.74	-39.0	-40.2	21.1	0.00e+00	0	29	0	84934656	50	6582
2026-01-14 23:20:21.67	129.13	6.81	-38.7	-39.8	21.4	0.00e+00	92	29	0	87031808	50	6316
2026-01-14 23:20:22.68	129.09	6.89	-38.8	-39.9	21.3	0.00e+00	2	29	0	88080384	50	6362
2026-01-14 23:20:23.69	129.05	6.96	-38.9	-40.0	21.3	0.00e+00	0	29	0	90177536	50	6450
2026-01-14 23:20:24.70	129.01	7.04	-38.6	-39.7	21.6	0.00e+00	90	29	0	92274688	50	6210
2026-01-14 23:20:25.71	128.97	7.11	-38.5	-39.6	21.6	0.00e+00	0	29	0	94371840	50	6172
2026-01-14 23:20:26.72	128.93	7.19	-38.8	-39.9	21.4	0.00e+00	75	29	0	96468992	50	6370
2026-01-14 23:20:27.73	128.89	7.27	-38.7	-39.9	21.4	0.00e+00	0	29	0	97517568	50	6336
2026-01-14 23:20:28.74	128.85	7.34	-38.7	-39.9	21.4	0.00e+00	90	29	0	99614720	50	6357
2026-01-14 23:20:29.75	128.81	7.42	-38.9	-40.1	21.1	0.00e+00	81	29	0	101711872	50	6484
2026-01-14 23:20:30.76	128.77	7.50	-39.0	-40.2	21.0	0.00e+00	0	29	0	103809024	50	6586
2026-01-14 23:20:31.77	128.73	7.57	-39.0	-40.2	21.2	0.00e+00	92	29	0	105906176	50	6590
2026-01-14 23:20:32.78	128.69	7.65	-38.9	-40.1	21.2	0.00e+00	0	29	0	106954752	50	6506
2026-01-14 23:20:33.79	128.65	7.73	-39.1	-40.3	21.2	0.00e+00	70	29	0	109051904	50	6651
2026-01-14 23:20:34.80	128.61	7.81	-38.8	-40.0	21.3	0.00e+00	0	29	0	111149056	50	6410
2026-01-14 23:20:35.80	128.56	7.89	-38.8	-40.0	21.5	0.00e+00	90	29	0	113246208	50	6400
2026-01-14 23:20:36.81	128.52	7.96	-38.7	-39.8	21.6	0.00e+00	49	29	0	115343360	50	6310
2026-01-14 23:20:37.83	128.48	8.04	-38.6	-39.7	21.4	0.00e+00	32	29	0	116391936	50	6227
2026-01-14 23:20:38.83	128.44	8.12	-38.6	-39.7	21.6	0.00e+00	92	29	0	118489088	50	6186
2026-01-14 23:20:39.84	128.39	8.20	-38.7	-39.8	21.3	0.00e+00	0	29	0	120586240	50	6279
2026-01-14 23:20:40.85	128.35	8.28	-38.7	-39.9	21.5	0.00e+00	83	29	0	122683392	50	6331
2026-01-14 23:20:41.86	128.31	8.36	-38.6	-39.7	21.5	0.00e+00	0	29	0	124780544	50	6242
2026-01-14 23:20:42.87	128.26	8.44	-38.8	-40.0	21.4	0.00e+00	92	29	0	125829120	50	6419
2026-01-14 23:20:43.88	128.22	8.52	-38.7	-39.9	21.5	0.00e+00	17	29	0	127926272	50	6320
2026-01-14 23:20:44.89	128.18	8.60	-38.7	-39.8	21.5	0.00e+00	92	29	0	130023424	50	6317
2026-01-14 23:20:45.89	128.13	8.68	-38.9	-40.0	21.4	0.00e+00	92	29	0	132120576	50	6456
2026-01-14 23:20:46.90	128.09	8.76	-38.9	-40.0	21.4	0.00e+00	0	29	0	134217728	50	6428
2026-01-14 23:20:47.91	128.04	8.84	-38.7	-39.8	21.7	0.00e+00	87	29	0	135266304	50	6277
2026-01-14 23:20:48.92	128.00	8.92	-38.4	-39.5	21.9	0.00e+00	0	29	0	137363456	50	6058
2026-01-14 23:20:49.93	127.95	9.00	-38.4	-39.5	21.9	0.00e+00	90	29	0	139460608	50	6070
2026-01-14 23:20:50.94	127.90	9.09	-38.5	-39.6	21.8	0.00e+00	0	29	0	141557760	50	6137
2026-01-14 23:20:51.95	127.86	9.17	-38.7	-39.8	21.7	0.00e+00	92	29	0	143654912	50	6271
2026-01-14 23:20:52.96	127.81	9.25	-38.8	-39.9	21.5	0.00e+00	92	29	0	145752064	50	6373
2026-01-14 23:20:53.97	127.77	9.33	-38.7	-39.8	21.7	0.00e+00	0	29	0	146800640	50	6304
2026-01-14 23:20:54.98	127.72	9.42	-38.9	-40.0	21.5	0.00e+00	85	29	0	148897792	50	6459
2026-01-14 23:20:55.99	127.67	9.50	-38.6	-39.7	21.7	0.00e+00	0	29	0	150994944	50	6242
2026-01-14 23:20:57.00	127.62	9.58	-38.5	-39.6	21.9	0.00e+00	92	29	0	153092096	50	6112
2026-01-14 23:20:58.01	127.58	9.67	-38.4	-39.5	21.9	0.00e+00	0	29	0	154140672	50	6079
2026-01-14 23:20:59.02	127.53	9.75	-38.7	-39.8	21.7	0.00e+00	91	29	0	156237824	50	6285
2026-01-14 23:21:00.03	127.48	9.83	-38.7	-39.8	21.7	0.00e+00	77	29	0	158334976	50	6316
2026-01-14 23:21:01.04	127.43	9.92	-38.8	-39.9	21.7	0.00e+00	0	29	0	160432128	50	6344
2026-01-14 23:21:02.05	127.38	10.00	-38.4	-39.4	22.0	0.00e+00	90	29	0	162529280	50	6030
2026-01-14 23:21:03.06	127.33	10.09	-38.2	-39.2	22.2	0.00e+00	0	29	0	163577856	50	5879
2026-01-14 23:21:04.07	127.28	10.17	-38.1	-39.1	22.3	0.00e+00	90	29	0	165675008	50	5806
2026-01-14 23:21:05.08	127.23	10.26	-38.0	-39.0	22.4	0.00e+00	0	29	0	167772160	50	5742
2026-01-14 23:21:06.08	127.18	10.34	-37.9	-38.9	22.4	0.00e+00	64	29	0	169869312	50	5657
2026-01-14 23:21:07.09	127.13	10.43	-37.8	-38.8	22.5	0.00e+00	0	29	0	171966464	50	5619
2026-01-14 23:21:08.10	127.08	10.52	-37.9	-38.9	22.5	0.00e+00	0	29	0	174063616	50	5656
2026-01-14 23:21:09.11	127.03	10.60	-38.1	-39.1	22.3	0.00e+00	79	29	0	175112192	50	5772
2026-01-14 23:21:10.12	126.98	10.69	-37.9	-38.9	22.6	0.00e+00	0	29	0	177209344	50	5655
2026-01-14 23:21:11.13	126.93	10.78	-38.0	-39.0	22.4	0.00e+00	54	29	0	179306496	50	5712
2026-01-14 23:21:12.14	126.87	10.87	-38.1	-39.1	22.4	0.00e+00	0	29	0	181403648	50	5817
2026-01-14 23:21:13.15	126.82	10.95	-38.2	-39.3	22.2	0.00e+00	92	29	0	183500800	50	5904
2026-01-14 23:21:14.16	126.77	11.04	-38.3	-39.3	22.1	0.00e+00	0	29	0	184549376	50	5932
2026-01-14 23:21:15.17	126.72	11.13	-38.3	-39.4	22.1	0.00e+00	92	29	0	186646528	50	5966
2026-01-14 23:21:16.18	126.66	11.22	-38.1	-39.2	22.3	0.00e+00	88	29	0	188743680	50	5837
2026-01-14 23:21:17.19	126.61	11.31	-38.3	-39.3	22.2	0.00e+00	0	29	0	190840832	50	5927
2026-01-14 23:21:18.20	126.55	11.40	-38.3	-39.4	22.2	0.00e+00	59	29	0	192937984	50	5968
2026-01-14 23:21:19.21	126.50	11.49	-37.8	-38.7	22.7	0.00e+00	0	29	0	193986560	50	5561
2026-01-14 23:21:20.21	126.45	11.57	-37.8	-38.7	22.6	0.00e+00	92	29	0	196083712	48	6232
2026-01-14 23:21:21.22	126.39	11.66	-37.7	-38.7	22.7	0.00e+00	0	29	0	198180864	48	6215
2026-01-14 23:21:22.23	126.33	11.76	-37.7	-38.7	22.6	0.00e+00	90	29	0	200278016	48	6213
2026-01-14 23:21:23.24	126.28	11.85	-37.7	-38.7	22.6	0.00e+00	79	29	0	202375168	48	6194
2026-01-14 23:21:24.25	126.22	11.94	-37.9	-38.9	22.5	0.00e+00	0	29	0	203423744	48	6352
2026-01-14 23:21:25.26	126.17	12.03	-37.8	-38.8	22.6	0.00e+00	90	29	0	205520896	48	6269
2026-01-14 23:21:26.27	126.11	12.12	-37.8	-38.7	22.7	0.00e+00	0	29	0	207618048	48	6238
2026-01-14 23:21:27.27	126.05	12.21	-37.8	-38.8	22.5	0.00e+00	92	29	0	209715200	48	6290
2026-01-14 23:21:28.29	125.99	12.30	-38.0	-39.0	22.4	0.00e+00	0	29	0	211812352	48	6430
2026-01-14 23:21:29.30	125.94	12.40	-37.7	-38.7	22.7	0.00e+00	92	29	0	212860928	48	6205
2026-01-14 23:21:30.31	125.88	12.49	-37.8	-38.7	22.7	0.00e+00	0	29	0	214958080	48	6237
2026-01-14 23:21:31.32	125.82	12.58	-38.1	-39.1	22.5	0.00e+00	0	29	0	217055232	48	6495
2026-01-14 23:21:32.33	125.76	12.68	-37.6	-38.6	22.8	0.00e+00	90	29	0	219152384	48	6131
2026-01-14 23:21:33.34	125.70	12.77	-37.5	-38.4	23.0	0.00e+00	0	29	0	221249536	48	5997
2026-01-14 23:21:34.35	125.64	12.87	-37.6	-38.6	22.8	0.00e+00	90	29	0	222298112	48	6124
2026-01-14 23:21:35.36	125.58	12.96	-37.7	-38.7	22.8	0.00e+00	0	29	0	224395264	48	6184
2026-01-14 23:21:36.37	125.52	13.05	-37.8	-38.8	22.6	0.00e+00	92	29	0	226492416	48	6305
2026-01-14 23:21:37.38	125.46	13.15	-38.0	-39.1	22.4	0.00e+00	86	29	0	228589568	48	6478
2026-01-14 23:21:38.38	125.39	13.24	-37.9	-38.9	22.7	0.00e+00	0	29	0	230686720	48	6380
2026-01-14 23:21:39.39	125.33	13.34	-38.0	-39.0	22.6	0.00e+00	92	29	0	231735296	48	6430
2026-01-14 23:21:40.40	125.27	13.44	-38.0	-39.1	22.5	0.00e+00	0	29	0	233832448	48	6483
2026-01-14 23:21:41.41	125.21	13.53	-38.3	-39.4	22.1	0.00e+00	90	29	0	235929600	48	6710
2026-01-14 23:21:42.42	125.14	13.63	-38.3	-39.3	22.3	0.00e+00	0	29	0	238026752	48	6660
2026-01-14 23:21:43.43	125.08	13.73	-38.1	-39.1	22.5	0.00e+00	92	29	0	240123904	48	6490
2026-01-14 23:21:44.44	125.01	13.83	-38.3	-39.3	22.2	0.00e+00	0	29	0	242221056	48	6670
2026-01-14 23:21:45.45	124.95	13.92	-38.1	-39.1	22.4	0.00e+00	92	29	0	243269632	48	6535
2026-01-14 23:21:46.46	124.88	14.02	-37.5	-38.4	23.0	0.00e+00	92	29	0	245366784	48	6023
2026-01-14 23:21:47.47	124.82	14.12	-37.8	-38.8	22.7	0.00e+00	0	29	0	247463936	48	6255
2026-01-14 23:21:48.47	124.75	14.22	-37.9	-38.9	22.5	0.00e+00	92	29	0	249561088	48	6358
2026-01-14 23:21:49.48	124.69	14.32	-38.1	-39.1	22.5	0.00e+00	0	29	0	251658240	48	6500
2026-01-14 23:21:50.49	124.62	14.42	-38.4	-39.4	22.2	0.00e+00	91	29	0	252706816	48	6762
2026-01-14 23:21:51.50	124.55	14.52	-38.4	-39.5	22.2	0.00e+00	0	29	0	254803968	48	6803
2026-01-14 23:21:52.51	124.48	14.62	-38.1	-39.1	22.4	0.00e+00	92	29	0	256901120	48	6522
2026-01-14 23:21:53.51	124.42	14.72	-37.9	-38.9	22.6	0.00e+00	81	29	0	258998272	48	6382
2026-01-14 23:21:54.52	124.35	14.82	-37.8	-38.8	22.8	0.00e+00	0	29	0	261095424	48	6258
2026-01-14 23:21:55.53	124.28	14.92	-37.9	-38.9	22.7	0.00e+00	92	29	0	262144000	48	6325
2026-01-14 23:21:56.54	124.21	15.02	-37.9	-38.9	22.7	0.00e+00	0	29	0	264241152	48	6386
2026-01-14 23:21:57.55	124.14	15.13	-37.7	-38.7	22.8	0.00e+00	92	29	0	266338304	48	6219
2026-01-14 23:21:58.56	124.07	15.23	-37.9	-38.9	22.7	0.00e+00	0	29	0	268435456	48	6364
2026-01-14 23:21:59.57	123.99	15.33	-37.7	-38.7	22.9	0.00e+00	91	29	0	270532608	48	6227
2026-01-14 23:22:00.58	123.92	15.44	-37.8	-38.8	22.7	0.00e+00	55	29	0	271581184	48	6289
2026-01-14 23:22:01.59	123.85	15.54	-37.7	-38.7	22.9	0.00e+00	0	29	0	273678336	48	6204
2026-01-14 23:22:02.60	123.78	15.65	-37.6	-38.6	22.8	0.00e+00	92	29	0	275775488	48	6145
2026-01-14 23:22:03.61	123.70	15.75	-37.8	-38.8	22.8	0.00e+00	0	29	0	277872640	48	6316
2026-01-14 23:22:04.61	123.63	15.85	-37.7	-38.7	22.8	0.00e+00	92	29	0	279969792	48	6231
2026-01-14 23:22:05.62	123.55	15.96	-37.7	-38.8	22.8	0.00e+00	0	29	0	281018368	48	6252
2026-01-14 23:22:06.63	123.48	16.07	-37.8	-38.8	22.7	0.00e+00	92	29	0	283115520	48	6264
2026-01-14 23:22:07.64	123.40	16.17	-37.7	-38.7	22.9	0.00e+00	84	29	0	285212672	48	6195
2026-01-14 23:22:08.65	123.33	16.28	-37.6	-38.6	22.9	0.00e+00	92	29	0	287309824	48	6121
2026-01-14 23:22:09.66	123.25	16.39	-37.6	-38.6	22.8	0.00e+00	92	29	0	289406976	48	6163
2026-01-14 23:22:10.66	123.17	16.49	-37.6	-38.6	22.9	0.00e+00	0	29	0	290455552	48	6136
2026-01-14 23:22:11.67	123.09	16.60	-37.7	-38.7	22.8	0.00e+00	92	29	0	292552704	48	6186
2026-01-14 23:22:12.68	123.02	16.71	-37.7	-38.7	22.8	0.00e+00	0	29	0	294649856	48	6237
2026-01-14 23:22:13.69	122.94	16.82	-37.8	-38.9	22.7	0.00e+00	92	29	0	296747008	48	6324
2026-01-14 23:22:14.70	122.86	16.93	-37.9	-38.9	22.7	0.00e+00	0	29	0	298844160	48	6368
2026-01-14 23:22:15.71	122.78	17.04	-37.8	-38.7	22.8	0.00e+00	91	29	0	299892736	48	6236
2026-01-14 23:22:16.72	122.69	17.15	-37.9	-38.9	22.8	0.00e+00	92	29	0	301989888	48	6331
2026-01-14 23:22:17.73	122.61	17.26	-37.6	-38.6	22.9	0.00e+00	0	29	0	304087040	48	6139
2026-01-14 23:22:18.74	122.53	17.37	-37.6	-38.5	23.0	0.00e+00	78	29	0	306184192	48	6070
2026-01-14 23:22:19.74	122.45	17.48	-37.3	-38.2	23.2	0.00e+00	0	29	0	308281344	48	5886
2026-01-14 23:22:20.76	122.36	17.59	-37.3	-38.3	23.3	0.00e+00	90	29	0	309329920	48	5901
2026-01-14 23:22:21.76	122.28	17.71	-37.3	-38.2	23.3	0.00e+00	0	29	0	311427072	48	5852
2026-01-14 23:22:22.77	122.20	17.82	-37.5	-38.5	23.1	0.00e+00	92	29	0	313524224	48	6055
2026-01-14 23:22:23.78	122.11	17.93	-37.1	-38.0	23.3	0.00e+00	90	29	0	315621376	48	5755
2026-01-14 23:22:24.79	122.02	18.05	-37.4	-38.3	23.2	0.00e+00	13	29	0	317718528	48	5954
2026-01-14 23:22:25.80	121.94	18.16	-37.5	-38.5	23.2	0.00e+00	92	29	0	318767104	48	6046
2026-01-14 23:22:26.81	121.85	18.28	-37.5	-38.5	23.2	0.00e+00	0	29	0	320864256	48	6043
2026-01-14 23:22:27.82	121.76	18.39	-37.2	-38.2	23.3	0.00e+00	92	29	0	322961408	48	5829
2026-01-14 23:22:28.83	121.67	18.51	-37.4	-38.3	23.2	0.00e+00	0	29	0	325058560	48	5963
2026-01-14 23:22:29.84	121.58	18.62	-37.3	-38.3	23.2	0.00e+00	92	29	0	327155712	48	5922
2026-01-14 23:22:30.85	121.49	18.74	-37.1	-38.1	23.4	0.00e+00	92	29	0	328204288	48	5777
2026-01-14 23:22:31.86	121.40	18.86	-37.3	-38.2	23.2	0.00e+00	53	29	0	330301440	48	5876
2026-01-14 23:22:32.87	121.31	18.97	-37.6	-38.6	23.0	0.00e+00	92	29	0	332398592	48	6125
2026-01-14 23:22:33.88	121.22	19.09	-37.6	-38.6	22.9	0.00e+00	0	29	0	334495744	48	6105
2026-01-14 23:22:34.88	121.12	19.21	-37.5	-38.5	23.0	0.00e+00	92	29	0	336592896	48	6062
2026-01-14 23:22:35.89	121.03	19.33	-37.8	-38.8	22.9	0.00e+00	0	29	0	338690048	48	6263
2026-01-14 23:22:36.90	120.93	19.45	-37.6	-38.6	23.0	0.00e+00	92	29	0	339738624	48	6128
2026-01-14 23:22:37.91	120.84	19.57	-37.9	-38.9	22.9	0.00e+00	92	29	0	341835776	48	6340
2026-01-14 23:22:38.92	120.74	19.69	-37.9	-38.9	22.9	0.00e+00	69	29	0	343932928	48	6340
2026-01-14 23:22:39.93	120.65	19.81	-37.6	-38.6	23.1	0.00e+00	90	29	0	346030080	48	6116
2026-01-14 23:22:40.94	120.55	19.93	-37.8	-38.8	23.0	0.00e+00	0	29	0	348127232	48	6265
2026-01-14 23:22:41.95	120.45	20.05	-37.9	-38.9	22.8	0.00e+00	92	29	0	349175808	48	6357
2026-01-14 23:22:42.96	120.35	20.18	-38.2	-39.1	22.6	0.00e+00	0	29	0	351272960	48	6537
2026-01-14 23:22:43.97	120.25	20.30	-38.3	-39.3	22.4	0.00e+00	92	29	0	353370112	48	6687
2026-01-14 23:22:44.98	120.15	20.42	-38.5	-39.5	22.3	0.00e+00	89	29	0	355467264	48	6836
2026-01-14 23:22:45.99	120.05	20.55	-38.6	-39.7	22.1	0.00e+00	92	29	0	357564416	48	6973
2026-01-14 23:22:46.99	119.94	20.67	-38.7	-39.7	22.2	0.00e+00	92	29	0	358612992	50	6231
2026-01-14 23:22:48.00	119.84	20.80	-38.8	-39.9	22.0	0.00e+00	0	29	0	360710144	50	6342
2026-01-14 23:22:49.01	119.74	20.92	-38.5	-39.5	22.3	0.00e+00	90	29	0	362807296	50	6083
2026-01-14 23:22:50.02	119.63	21.05	-38.8	-39.8	22.1	0.00e+00	33	29	0	364904448	50	6308
2026-01-14 23:22:51.03	119.52	21.17	-38.3	-39.3	22.5	0.00e+00	92	29	0	367001600	50	5904
2026-01-14 23:22:52.04	119.42	21.30	-38.2	-39.2	22.6	0.00e+00	0	29	0	368050176	50	5871
2026-01-14 23:22:53.05	119.31	21.43	-37.9	-38.9	22.9	0.00e+00	92	29	0	370147328	50	5644
2026-01-14 23:22:54.06	119.20	21.56	-38.3	-39.3	22.5	0.00e+00	91	29	0	372244480	50	5911
2026-01-14 23:22:55.07	119.09	21.69	-38.1	-39.0	22.8	0.00e+00	0	29	0	374341632	50	5760
2026-01-14 23:22:56.08	118.98	21.82	-38.1	-39.1	22.7	0.00e+00	60	29	0	376438784	50	5789
2026-01-14 23:22:57.09	118.87	21.95	-38.2	-39.2	22.6	0.00e+00	0	29	0	377487360	50	5840
2026-01-14 23:22:58.10	118.75	22.08	-38.1	-39.1	22.7	0.00e+00	89	29	0	379584512	50	5797
2026-01-14 23:22:59.11	118.64	22.21	-38.0	-39.0	22.8	0.00e+00	0	29	0	381681664	50	5698
2026-01-14 23:23:00.12	118.52	22.34	-38.0	-38.9	22.8	0.00e+00	92	29	0	383778816	50	5688
2026-01-14 23:23:01.13	118.41	22.47	-38.2	-39.2	22.6	0.00e+00	90	29	0	385875968	50	5879
2026-01-14 23:23:02.14	118.29	22.60	-38.5	-39.5	22.5	0.00e+00	20	29	0	386924544	50	6074
2026-01-14 23:23:03.15	118.17	22.74	-38.3	-39.3	22.4	0.00e+00	92	29	0	389021696	50	5962
2026-01-14 23:23:04.16	118.05	22.87	-38.8	-39.9	21.8	0.00e+00	0	29	0	391118848	50	6324
2026-01-14 23:23:05.17	117.93	23.01	-38.8	-39.8	22.1	0.00e+00	90	29	0	393216000	50	6299
2026-01-14 23:23:06.17	117.81	23.14	-38.6	-39.6	22.3	0.00e+00	0	29	0	395313152	50	6111
2026-01-14 23:23:07.18	117.69	23.27	-38.7	-39.7	22.1	0.00e+00	90	29	0	396361728	50	6243
2026-01-14 23:23:08.19	117.57	23.41	-38.7	-39.8	22.1	0.00e+00	20	29	0	398458880	50	6259
2026-01-14 23:23:09.20	117.44	23.55	-38.8	-39.8	22.0	0.00e+00	90	29	0	400556032	50	6316
2026-01-14 23:23:10.21	117.32	23.68	-38.6	-39.7	22.2	0.00e+00	91	29	0	402653184	50	6207
2026-01-14 23:23:11.22	117.19	23.82	-38.6	-39.6	22.3	0.00e+00	0	29	0	404750336	50	6170
2026-01-14 23:23:12.23	117.06	23.96	-38.9	-40.0	22.0	0.00e+00	92	29	0	406847488	50	6451
2026-01-14 23:23:13.24	116.94	24.10	-38.8	-39.8	22.2	0.00e+00	33	29	0	407896064	50	6304
2026-01-14 23:23:14.25	116.81	24.24	-38.5	-39.5	22.0	0.00e+00	90	29	0	409993216	50	6061
2026-01-14 23:23:15.26	116.67	24.38	-38.7	-39.8	22.1	0.00e+00	0	29	0	412090368	50	6282
2026-01-14 23:23:16.27	116.54	24.52	-38.7	-39.8	22.2	0.00e+00	91	29	0	414187520	50	6278
2026-01-14 23:23:17.28	116.41	24.66	-38.7	-39.8	22.0	0.00e+00	91	29	0	416284672	50	6268
2026-01-14 23:23:18.29	116.27	24.80	-38.9	-40.0	21.9	0.00e+00	0	29	0	417333248	50	6460
2026-01-14 23:23:19.30	116.14	24.94	-38.8	-39.9	22.0	0.00e+00	92	29	0	419430400	50	6356
2026-01-14 23:23:20.30	116.00	25.09	-38.8	-39.9	22.2	0.00e+00	0	29	0	421527552	50	6318
2026-01-14 23:23:21.31	115.86	25.23	-39.0	-40.0	22.0	0.00e+00	92	29	0	423624704	50	6450
2026-01-14 23:23:22.32	115.72	25.37	-39.1	-40.2	21.9	0.00e+00	0	29	0	425721856	50	6564
2026-01-14 23:23:23.33	115.58	25.52	-39.1	-40.2	21.8	0.00e+00	92	29	0	426770432	50	6587
2026-01-14 23:23:24.34	115.44	25.66	-38.9	-40.0	22.0	0.00e+00	92	29	0	428867584	50	6398
2026-01-14 23:23:25.35	115.29	25.81	-39.1	-40.2	21.9	0.00e+00	0	29	0	430964736	50	6541
2026-01-14 23:23:26.36	115.15	25.96	-38.5	-39.5	22.4	0.00e+00	92	29	0	433061888	50	6098
2026-01-14 23:23:27.37	115.00	26.10	-38.2	-39.1	22.7	0.00e+00	0	29	0	435159040	50	5824
2026-01-14 23:23:28.38	114.85	26.25	-37.8	-38.8	23.1	0.00e+00	92	29	0	436207616	50	5585
2026-01-14 23:23:29.39	114.71	26.40	-37.8	-38.8	23.0	0.00e+00	9	29	0	438304768	48	6264
2026-01-14 23:23:30.40	114.55	26.55	-37.9	-38.9	23.0	0.00e+00	92	29	0	440401920	48	6324
2026-01-14 23:23:31.41	114.40	26.70	-37.7	-38.6	23.1	0.00e+00	92	29	0	442499072	48	6155
2026-01-14 23:23:32.42	114.25	26.85	-38.0	-38.9	22.8	0.00e+00	0	29	0	444596224	48	6339
2026-01-14 23:23:33.42	114.09	27.00	-38.2	-39.2	22.6	0.00e+00	92	29	0	445644800	48	6579
2026-01-14 23:23:34.43	113.94	27.15	-38.4	-39.4	22.5	0.00e+00	0	29	0	447741952	48	6730
2026-01-14 23:23:35.44	113.78	27.30	-38.3	-39.3	22.3	0.00e+00	91	29	0	449839104	48	6648
2026-01-14 23:23:36.45	113.62	27.45	-38.6	-39.6	22.4	0.00e+00	0	29	0	451936256	48	6918
2026-01-14 23:23:37.46	113.46	27.61	-38.4	-39.4	22.5	0.00e+00	91	29	0	454033408	50	6021
2026-01-14 23:23:38.47	113.30	27.76	-38.4	-39.4	22.6	0.00e+00	92	29	0	455081984	50	5992
2026-01-14 23:23:39.48	113.13	27.92	-38.5	-39.5	22.5	0.00e+00	65	29	0	457179136	50	6100
2026-01-14 23:23:40.49	112.96	28.07	-38.5	-39.6	22.4	0.00e+00	92	29	0	459276288	50	6104
2026-01-14 23:23:41.50	112.80	28.23	-38.6	-39.7	22.3	0.00e+00	0	29	0	461373440	50	6193
2026-01-14 23:23:42.51	112.63	28.38	-38.5	-39.5	22.4	0.00e+00	92	29	0	463470592	50	6100
2026-01-14 23:23:43.52	112.46	28.54	-38.5	-39.5	22.2	0.00e+00	0	29	0	464519168	50	6074
2026-01-14 23:23:44.53	112.28	28.70	-38.7	-39.8	22.3	0.00e+00	92	29	0	466616320	50	6246
2026-01-14 23:23:45.54	112.11	28.85	-38.8	-39.8	22.1	0.00e+00	79	29	0	468713472	50	6302
2026-01-14 23:23:46.55	111.93	29.01	-38.9	-39.9	22.1	0.00e+00	92	29	0	470810624	50	6384
2026-01-14 23:23:47.56	111.75	29.17	-38.9	-40.0	22.0	0.00e+00	91	29	0	472907776	50	6451
2026-01-14 23:23:48.57	111.57	29.33	-39.2	-40.4	21.8	0.00e+00	0	29	0	475004928	50	6702
2026-01-14 23:23:49.58	111.39	29.49	-39.0	-40.1	22.0	0.00e+00	92	29	0	476053504	50	6518
2026-01-14 23:23:50.59	111.21	29.65	-39.1	-40.2	22.0	0.00e+00	0	29	0	478150656	50	6594
2026-01-14 23:23:51.59	111.02	29.81	-39.1	-40.2	22.0	0.00e+00	91	29	0	480247808	50	6582
2026-01-14 23:23:52.60	110.84	29.97	-39.2	-40.2	22.0	0.00e+00	86	29	0	482344960	50	6606
2026-01-14 23:23:53.61	110.65	30.14	-39.1	-40.2	21.8	0.00e+00	92	29	0	483393536	50	6586
2026-01-14 23:23:54.62	110.46	30.30	-39.3	-40.4	21.8	0.00e+00	90	29	0	485490688	50	6705
2026-01-14 23:23:55.63	110.26	30.46	-39.6	-40.7	21.6	0.00e+00	0	29	0	487587840	50	6944
2026-01-14 23:23:56.64	110.07	30.63	-39.5	-40.7	21.5	0.00e+00	92	29	0	489684992	50	6929
2026-01-14 23:23:57.65	109.87	30.79	-39.5	-40.6	21.7	0.00e+00	0	29	0	491782144	50	6894
2026-01-14 23:23:58.66	109.67	30.96	-39.2	-40.2	21.8	0.00e+00	91	29	0	492830720	50	6597
2026-01-14 23:23:59.67	109.47	31.12	-39.1	-40.2	21.9	0.00e+00	0	29	0	494927872	50	6568
2026-01-14 23:24:00.68	109.27	31.29	-40.3	-41.5	20.9	0.00e+00	90	29	0	497025024	52	6830
2026-01-14 23:24:01.69	109.06	31.46	-39.5	-40.7	21.5	0.00e+00	92	29	0	499122176	52	6174
2026-01-14 23:24:02.70	108.85	31.62	-40.1	-41.2	21.0	0.00e+00	0	29	0	501219328	52	6607
2026-01-14 23:24:03.70	108.65	31.79	-39.9	-41.1	21.2	0.00e+00	88	29	0	503316480	52	6466
2026-01-14 23:24:04.71	108.43	31.96	-39.9	-41.0	21.3	0.00e+00	0	29	0	504365056	52	6443
2026-01-14 23:24:05.72	108.22	32.13	-39.7	-40.8	21.4	0.00e+00	90	29	0	506462208	52	6258
2026-01-14 23:24:06.73	108.00	32.30	-39.9	-41.1	21.2	0.00e+00	0	29	0	508559360	52	6504
2026-01-14 23:24:07.74	107.78	32.47	-39.5	-40.6	21.7	0.00e+00	90	29	0	510656512	52	6167
2026-01-14 23:24:08.74	107.56	32.64	-39.8	-40.9	21.3	0.00e+00	85	29	0	512753664	52	6389
2026-01-14 23:24:09.75	107.34	32.81	-39.6	-40.7	21.4	0.00e+00	0	29	0	513802240	52	6222
2026-01-14 23:24:10.76	107.12	32.98	-39.7	-40.9	21.3	0.00e+00	66	29	0	515899392	52	6321
2026-01-14 23:24:11.76	106.89	33.15	-39.5	-40.6	21.6	0.00e+00	0	29	0	517996544	52	6143
2026-01-14 23:24:12.77	106.66	33.32	-39.6	-40.8	21.3	0.00e+00	92	29	0	520093696	52	6246
2026-01-14 23:24:13.78	106.42	33.49	-39.9	-41.1	20.9	0.00e+00	0	29	0	522190848	52	6510
2026-01-14 23:24:14.79	106.19	33.67	-40.5	-41.8	20.4	0.00e+00	90	29	0	523239424	52	7069
2026-01-14 23:24:15.80	105.95	33.84	-40.1	-41.2	21.3	0.00e+00	86	29	0	525336576	52	6613
2026-01-14 23:24:16.81	105.71	34.01	-40.2	-41.4	21.0	0.00e+00	90	29	0	527433728	52	6702
2026-01-14 23:24:17.82	105.47	34.19	-39.9	-41.1	21.1	0.00e+00	92	29	0	529530880	52	6513
2026-01-14 23:24:18.82	105.22	34.36	-39.5	-40.6	21.6	0.00e+00	0	29	0	531628032	52	6150
2026-01-14 23:24:19.83	104.97	34.54	-39.2	-40.3	21.8	0.00e+00	91	29	0	532676608	52	5926
2026-01-14 23:24:20.84	104.72	34.71	-39.3	-40.4	21.9	0.00e+00	0	29	0	534773760	52	6019
2026-01-14 23:24:21.85	104.47	34.89	-39.4	-40.5	21.6	0.00e+00	92	29	0	536870912	52	6072
2026-01-14 23:24:22.86	104.21	35.06	-39.5	-40.6	21.7	0.00e+00	49	29	0	538968064	52	6118
2026-01-14 23:24:23.87	103.95	35.24	-39.6	-40.7	21.5	0.00e+00	21	29	0	541065216	52	6224
2026-01-14 23:24:24.88	103.69	35.42	-39.6	-40.7	21.6	0.00e+00	92	29	0	542113792	52	6183
2026-01-14 23:24:25.89	103.42	35.59	-40.2	-41.4	20.9	0.00e+00	0	29	0	544210944	52	6749
2026-01-14 23:24:26.90	103.15	35.77	-40.8	-42.2	20.2	0.00e+00	90	29	0	546308096	54	6573
2026-01-14 23:24:27.91	102.88	35.95	-41.0	-42.4	20.1	0.00e+00	0	29	0	548405248	54	6748
2026-01-14 23:24:28.91	102.61	36.12	-41.2	-42.7	19.8	0.00e+00	90	29	0	550502400	54	6934
2026-01-14 23:24:29.92	102.33	36.30	-41.3	-42.8	19.6	0.00e+00	0	29	0	551550976	54	7042
2026-01-14 23:24:30.93	102.05	36.48	-41.3	-42.8	19.7	0.00e+00	92	29	0	553648128	54	7060
2026-01-14 23:24:31.94	101.77	36.66	-41.1	-42.5	20.3	0.00e+00	92	29	0	555745280	54	6813
2026-01-14 23:24:32.95	101.48	36.84	-40.5	-41.8	20.5	0.00e+00	0	29	0	557842432	54	6278
2026-01-14 23:24:33.96	101.19	37.02	-40.1	-41.3	21.1	0.00e+00	78	29	0	559939584	54	5956
2026-01-14 23:24:34.97	100.90	37.19	-39.5	-40.6	21.7	0.00e+00	0	29	0	560988160	52	6127
2026-01-14 23:24:35.98	100.60	37.37	-39.3	-40.3	21.8	0.00e+00	90	29	0	563085312	52	5961
2026-01-14 23:24:36.99	100.30	37.55	-39.1	-40.1	22.0	0.00e+00	0	29	0	565182464	52	5809
2026-01-14 23:24:38.00	100.00	37.73	-38.9	-39.9	22.2	0.00e+00	90	29	0	567279616	52	5692
2026-01-14 23:24:39.01	99.69	37.91	-38.7	-39.8	22.4	0.00e+00	92	29	0	569376768	50	6249
2026-01-14 23:24:40.01	99.38	38.09	-39.4	-40.5	21.8	0.00e+00	0	29	0	571473920	50	6834
2026-01-14 23:24:41.02	99.07	38.27	-39.7	-40.9	21.4	0.00e+00	90	29	0	572522496	50	7096
2026-01-14 23:24:42.03	98.75	38.44	-39.7	-40.9	21.4	0.00e+00	0	29	0	574619648	50	7123
2026-01-14 23:24:43.03	98.44	38.62	-39.7	-40.9	21.4	0.00e+00	92	29	0	576716800	52	6357
2026-01-14 23:24:44.04	98.11	38.80	-39.6	-40.7	21.6	0.00e+00	0	29	0	578813952	52	6211
2026-01-14 23:24:45.05	97.79	38.98	-39.5	-40.6	21.7	0.00e+00	92	29	0	579862528	52	6160
2026-01-14 23:24:46.06	97.46	39.16	-39.8	-41.0	21.3	0.00e+00	90	29	0	581959680	52	6401
2026-01-14 23:24:47.07	97.12	39.34	-40.0	-41.2	21.2	0.00e+00	0	29	0	584056832	52	6582
2026-01-14 23:24:48.08	96.78	39.51	-40.2	-41.5	20.8	0.00e+00	92	29	0	586153984	52	6788
2026-01-14 23:24:49.09	96.44	39.69	-40.4	-41.7	20.9	0.00e+00	0	29	0	588251136	52	7000
2026-01-14 23:24:50.10	96.09	39.87	-40.8	-42.2	20.3	0.00e+00	92	29	0	589299712	54	6543
2026-01-14 23:24:51.11	95.74	40.05	-40.7	-42.0	20.4	0.00e+00	0	29	0	591396864	54	6428
2026-01-14 23:24:52.12	95.39	40.22	-40.1	-41.3	21.1	0.00e+00	92	29	0	593494016	54	5903
2026-01-14 23:24:53.12	95.04	40.40	-40.0	-41.1	21.2	0.00e+00	93	29	0	595591168	54	5823
2026-01-14 23:24:54.13	94.67	40.57	-39.8	-40.9	21.3	0.00e+00	43	29	0	597688320	52	6376
2026-01-14 23:24:55.14	94.31	40.75	-39.6	-40.8	21.5	0.00e+00	92	29	0	599785472	52	6264
2026-01-14 23:24:56.15	93.94	40.92	-39.5	-40.7	21.5	0.00e+00	0	29	0	600834048	52	6189
2026-01-14 23:24:57.16	93.57	41.10	-39.9	-41.1	20.9	0.00e+00	92	29	0	602931200	52	6483
2026-01-14 23:24:58.17	93.19	41.27	-40.5	-41.8	20.8	0.00e+00	33	29	0	605028352	52	7066
2026-01-14 23:24:59.18	92.81	41.45	-40.4	-41.8	20.6	0.00e+00	92	29	0	607125504	54	6251
2026-01-14 23:25:00.18	92.42	41.62	-39.2	-40.3	21.9	0.00e+00	89	29	0	609222656	52	5930
2026-01-14 23:25:01.19	92.03	41.79	-38.8	-39.9	22.2	0.00e+00	35	29	0	610271232	50	6328
2026-01-14 23:25:02.20	91.64	41.96	-38.8	-39.8	22.3	0.00e+00	92	29	0	612368384	50	6272
2026-01-14 23:25:03.21	91.24	42.13	-39.3	-40.4	22.0	0.00e+00	32	29	0	614465536	50	6721
2026-01-14 23:25:04.22	90.84	42.30	-39.5	-40.6	21.6	0.00e+00	79	29	0	616562688	50	6849
2026-01-14 23:25:05.23	90.43	42.47	-39.1	-40.2	21.8	0.00e+00	0	29	0	618659840	50	6540
2026-01-14 23:25:06.24	90.02	42.64	-39.5	-40.6	21.5	0.00e+00	92	29	0	619708416	50	6915
2026-01-14 23:25:07.25	89.61	42.81	-40.0	-41.3	21.0	0.00e+00	31	29	0	621805568	52	6632
2026-01-14 23:25:08.26	89.19	42.97	-40.6	-42.1	20.3	0.00e+00	90	29	0	623902720	52	7298
2026-01-14 23:25:09.27	88.76	43.14	-40.5	-42.0	20.2	0.00e+00	92	29	0	625999872	54	6420
2026-01-14 23:25:10.28	88.33	43.30	-40.3	-41.8	20.6	0.00e+00	0	29	0	628097024	54	6288
2026-01-14 23:25:11.29	87.90	43.46	-39.5	-40.7	21.7	0.00e+00	92	29	0	629145600	52	6230
2026-01-14 23:25:12.30	87.46	43.63	-38.7	-39.7	22.4	0.00e+00	0	29	0	631242752	52	5535
2026-01-14 23:25:13.31	87.02	43.79	-37.8	-38.8	23.2	0.00e+00	91	29	0	633339904	50	5578
2026-01-14 23:25:14.32	86.57	43.95	-36.8	-37.6	23.9	0.00e+00	0	29	0	635437056	48	5476
2026-01-14 23:25:15.33	86.12	44.10	-36.5	-37.3	24.3	0.00e+00	91	29	0	637534208	46	5947
2026-01-14 23:25:16.34	85.67	44.26	-36.6	-37.4	24.2	0.00e+00	90	29	0	638582784	46	5996
2026-01-14 23:25:17.35	85.21	44.42	-37.2	-38.1	23.5	0.00e+00	0	29	0	640679936	46	6520
2026-01-14 23:25:18.36	84.74	44.57	-38.3	-39.3	22.6	0.00e+00	75	29	0	642777088	48	6689
2026-01-14 23:25:19.37	84.28	44.72	-39.4	-40.7	21.6	0.00e+00	0	29	0	644874240	50	6944
2026-01-14 23:25:20.37	83.81	44.87	-39.4	-40.7	21.7	0.00e+00	92	29	0	646971392	50	6938
2026-01-14 23:25:21.38	83.33	45.02	-38.9	-40.0	22.3	0.00e+00	0	29	0	648019968	50	6434
2026-01-14 23:25:22.39	82.85	45.17	-37.9	-38.9	22.8	0.00e+00	92	29	0	650117120	48	6323
2026-01-14 23:25:23.40	82.36	45.31	-38.0	-39.0	22.9	0.00e+00	0	29	0	652214272	48	6452
2026-01-14 23:25:24.41	81.87	45.46	-38.0	-39.0	22.7	0.00e+00	0	29	0	654311424	48	6442
2026-01-14 23:25:25.42	81.37	45.60	-38.1	-39.1	22.9	0.00e+00	25	29	0	656408576	48	6521
2026-01-14 23:25:26.43	80.87	45.74	-38.3	-39.3	22.8	0.00e+00	0	29	0	657457152	48	6628
2026-01-14 23:25:27.44	80.37	45.88	-38.1	-39.1	22.9	0.00e+00	90	29	0	659554304	48	6478
2026-01-14 23:25:28.45	79.86	46.01	-38.4	-39.4	22.6	0.00e+00	0	29	0	661651456	48	6716
2026-01-14 23:25:29.45	79.35	46.14	-38.4	-39.4	22.6	0.00e+00	90	29	0	663748608	48	6704
2026-01-14 23:25:30.46	78.83	46.28	-37.8	-38.7	23.1	0.00e+00	0	29	0	665845760	48	6211
2026-01-14 23:25:31.47	78.31	46.41	-37.7	-38.6	22.8	0.00e+00	36	29	0	667942912	48	6166
2026-01-14 23:25:32.48	77.79	46.53	-38.0	-38.9	23.0	0.00e+00	92	29	0	668991488	48	6348
2026-01-14 23:25:33.49	77.25	46.66	-38.2	-39.2	22.8	0.00e+00	0	29	0	671088640	48	6566
2026-01-14 23:25:34.50	76.72	46.78	-39.3	-40.4	21.7	0.00e+00	85	29	0	673185792	50	6750
2026-01-14 23:25:35.51	76.18	46.90	-40.2	-41.5	20.7	0.00e+00	0	29	0	675282944	52	6779
2026-01-14 23:25:36.52	75.64	47.02	-40.1	-41.3	20.8	0.00e+00	92	29	0	677380096	52	6656
2026-01-14 23:25:37.53	75.09	47.13	-40.9	-42.3	20.1	0.00e+00	0	29	0	678428672	54	6656
2026-01-14 23:25:38.54	74.54	47.25	-41.8	-43.4	19.0	0.00e+00	0	29	0	680525824	56	6734
2026-01-14 23:25:39.54	73.99	47.35	-42.5	-44.4	18.4	0.00e+00	92	29	0	682622976	56	7528
2026-01-14 23:25:40.56	73.43	47.46	-42.6	-44.6	18.4	0.00e+00	0	29	0	684720128	58	6850
2026-01-14 23:25:41.57	72.86	47.57	-41.8	-43.4	19.2	0.00e+00	45	29	0	686817280	56	6756
2026-01-14 23:25:42.58	72.30	47.67	-41.4	-42.9	19.9	0.00e+00	0	29	0	687865856	56	6364
2026-01-14 23:25:43.59	71.73	47.77	-40.9	-42.4	20.1	0.00e+00	92	29	0	689963008	56	5982
2026-01-14 23:25:44.60	71.15	47.86	-41.0	-42.4	20.1	0.00e+00	0	29	0	692060160	56	6003
2026-01-14 23:25:45.61	70.58	47.96	-40.8	-42.2	20.4	0.00e+00	91	29	0	694157312	56	5845
2026-01-14 23:25:46.62	69.99	48.05	-40.1	-41.3	21.0	0.00e+00	90	29	0	696254464	54	5922
2026-01-14 23:25:47.62	69.42	48.13	-39.6	-40.8	21.4	0.00e+00	0	29	0	697303040	52	6269
2026-01-14 23:25:48.63	68.83	48.22	-39.8	-41.0	21.5	0.00e+00	41	29	0	699400192	52	6400
2026-01-14 23:25:49.63	68.24	48.30	-39.7	-40.9	21.4	0.00e+00	0	29	0	701497344	52	6382
2026-01-14 23:25:50.64	67.65	48.38	-39.7	-40.9	21.5	0.00e+00	87	29	0	703594496	52	6322
2026-01-14 23:25:51.65	67.05	48.45	-40.2	-41.5	21.4	0.00e+00	0	29	0	705691648	52	6837
2026-01-14 23:25:52.66	66.46	48.52	-39.7	-41.0	21.2	0.00e+00	92	29	0	706740224	52	6422
2026-01-14 23:25:53.67	65.85	48.59	-39.5	-40.7	21.5	0.00e+00	90	29	0	708837376	52	6208
2026-01-14 23:25:54.68	65.25	48.65	-38.3	-39.3	22.8	0.00e+00	0	29	0	710934528	50	5915
2026-01-14 23:25:55.69	64.64	48.72	-37.8	-38.7	23.2	0.00e+00	0	29	0	713031680	48	6237
2026-01-14 23:25:56.69	64.04	48.77	-38.1	-39.0	22.8	0.00e+00	0	29	0	715128832	48	6452
2026-01-14 23:25:57.70	63.43	48.83	-38.8	-40.0	22.0	0.00e+00	87	29	0	716177408	48	7194
2026-01-14 23:25:58.71	62.81	48.88	-38.4	-39.5	22.6	0.00e+00	0	29	0	718274560	50	6069
2026-01-14 23:25:59.72	62.20	48.93	-37.5	-38.5	23.3	0.00e+00	90	29	0	720371712	48	6070
2026-01-14 23:26:00.72	61.59	48.97	-37.7	-38.7	23.4	0.00e+00	87	29	0	722468864	48	6184
2026-01-14 23:26:01.73	60.97	49.01	-36.9	-37.8	23.9	0.00e+00	0	29	0	724566016	48	5603
2026-01-14 23:26:02.74	60.35	49.05	-36.1	-36.9	24.4	0.00e+00	29	29	0	725614592	46	5658
2026-01-14 23:26:03.75	59.73	49.08	-35.7	-36.4	24.7	0.00e+00	0	29	0	727711744	44	6033
2026-01-14 23:26:04.76	59.10	49.11	-36.3	-37.2	24.1	0.00e+00	88	29	0	729808896	44	6544
2026-01-14 23:26:05.77	58.48	49.14	-37.4	-38.4	23.3	0.00e+00	0	29	0	731906048	46	6719
2026-01-14 23:26:06.78	57.85	49.16	-38.2	-39.3	22.8	0.00e+00	91	29	0	734003200	48	6620
2026-01-14 23:26:07.79	57.23	49.18	-38.0	-39.0	22.8	0.00e+00	90	29	0	735051776	48	6445
2026-01-14 23:26:08.79	56.61	49.19	-39.1	-40.3	21.9	0.00e+00	0	29	0	737148928	50	6683
2026-01-14 23:26:09.80	55.98	49.20	-39.2	-40.4	21.7	7.00e-07	92	29	0	739246080	50	6761
2026-01-14 23:26:10.81	55.35	49.21	-38.4	-39.5	22.6	0.00e+00	0	29	0	741343232	50	6061
2026-01-14 23:26:11.82	54.72	49.21	-37.8	-38.7	23.1	0.00e+00	80	29	0	743440384	50	5557
2026-01-14 23:26:12.82	54.10	49.21	-38.5	-39.6	22.6	0.00e+00	0	29	0	744488960	50	6149
2026-01-14 23:26:13.83	53.47	49.21	-38.9	-40.1	21.8	0.00e+00	89	29	0	746586112	50	6523
2026-01-14 23:26:14.84	52.84	49.20	-39.1	-40.4	21.6	0.00e+00	0	29	0	748683264	50	6722
2026-01-14 23:26:15.84	52.22	49.19	-38.4	-39.4	22.5	0.00e+00	0	29	0	750780416	50	6024
2026-01-14 23:26:16.85	51.60	49.18	-37.6	-38.6	23.2	0.00e+00	88	29	0	752877568	48	6142
2026-01-14 23:26:17.86	50.97	49.16	-37.2	-38.1	23.6	0.00e+00	0	29	0	753926144	48	5798
2026-01-14 23:26:18.87	50.35	49.14	-37.3	-38.3	23.6	0.00e+00	91	29	0	756023296	48	5917
2026-01-14 23:26:19.88	49.72	49.11	-37.0	-37.9	23.2	0.00e+00	0	29	0	758120448	48	5649
2026-01-14 23:26:20.89	49.10	49.08	-37.1	-38.0	23.8	0.00e+00	90	29	0	760217600	48	5751
2026-01-14 23:26:21.90	48.48	49.05	-36.2	-37.0	24.3	0.00e+00	0	29	0	762314752	46	5726
2026-01-14 23:26:22.91	47.86	49.02	-36.5	-37.3	24.0	0.00e+00	0	29	0	764411904	46	5936
2026-01-14 23:26:23.92	47.24	48.98	-37.4	-38.4	23.0	0.00e+00	92	29	0	765460480	46	6734
2026-01-14 23:26:24.93	46.62	48.93	-37.9	-38.9	22.9	0.00e+00	0	29	0	767557632	48	6349
2026-01-14 23:26:25.94	46.00	48.88	-38.1	-39.1	22.8	0.00e+00	31	29	0	769654784	48	6520
2026-01-14 23:26:26.95	45.39	48.83	-38.5	-39.5	22.5	0.00e+00	0	29	0	771751936	48	6830
2026-01-14 23:26:27.95	44.78	48.78	-39.3	-40.6	21.7	0.00e+00	92	29	0	772800512	50	6861
2026-01-14 23:26:28.96	44.18	48.72	-38.9	-40.0	22.4	0.00e+00	0	29	0	774897664	50	6429
2026-01-14 23:26:29.97	43.57	48.66	-38.0	-39.0	23.0	0.00e+00	91	29	0	776994816	50	5740
2026-01-14 23:26:30.98	42.96	48.60	-37.8	-38.8	23.0	0.00e+00	90	29	0	779091968	48	6295
2026-01-14 23:26:31.99	42.36	48.53	-38.6	-39.7	22.3	0.00e+00	0	29	0	781189120	48	6961
2026-01-14 23:26:33.00	41.76	48.46	-39.1	-40.3	21.8	0.00e+00	92	29	0	782237696	50	6653
2026-01-14 23:26:34.00	41.17	48.39	-38.9	-40.0	22.3	0.00e+00	0	29	0	784334848	50	6398
2026-01-14 23:26:35.01	40.58	48.31	-38.8	-39.9	22.2	0.00e+00	92	29	0	786432000	50	6323
2026-01-14 23:26:36.02	39.99	48.23	-38.9	-39.9	22.2	0.00e+00	0	29	0	788529152	50	6377
2026-01-14 23:26:37.03	39.40	48.15	-38.4	-39.4	22.6	0.00e+00	75	29	0	790626304	50	6008
2026-01-14 23:26:38.04	38.82	48.06	-38.6	-39.6	22.3	0.00e+00	57	29	0	792723456	50	6157
2026-01-14 23:26:39.05	38.24	47.97	-38.2	-39.2	22.8	0.00e+00	0	29	0	793772032	50	5880
2026-01-14 23:26:40.06	37.66	47.88	-39.5	-40.6	21.6	0.00e+00	92	29	0	795869184	50	6916
2026-01-14 23:26:41.07	37.09	47.78	-39.7	-40.9	21.3	0.00e+00	0	29	0	797966336	52	6346
2026-01-14 23:26:42.08	36.52	47.68	-40.4	-41.7	20.4	0.00e+00	58	29	0	800063488	52	6964
2026-01-14 23:26:43.09	35.95	47.58	-39.4	-40.5	21.7	0.00e+00	0	29	0	802160640	52	6055
2026-01-14 23:26:44.09	35.39	47.48	-39.1	-40.2	22.0	0.00e+00	57	29	0	803209216	52	5850
2026-01-14 23:26:45.10	34.84	47.37	-38.9	-39.9	22.2	0.00e+00	49	29	0	805306368	52	5631
2026-01-14 23:26:46.11	34.28	47.26	-39.2	-40.3	22.0	0.00e+00	0	29	0	807403520	52	5907
2026-01-14 23:26:47.12	33.73	47.15	-39.5	-40.7	21.6	0.00e+00	65	29	0	809500672	52	6185
2026-01-14 23:26:48.13	33.18	47.04	-38.9	-40.0	22.0	0.00e+00	0	29	0	811597824	50	6416
2026-01-14 23:26:49.14	32.64	46.92	-39.3	-40.4	21.7	0.00e+00	58	29	0	812646400	50	6719
2026-01-14 23:26:50.15	32.10	46.80	-40.0	-41.2	20.9	0.00e+00	0	29	0	814743552	52	6586
2026-01-14 23:26:51.16	31.57	46.68	-40.3	-41.7	20.8	0.00e+00	91	29	0	816840704	52	6952
2026-01-14 23:26:52.17	31.04	46.55	-40.0	-41.3	21.1	0.00e+00	0	29	0	818937856	52	6616
2026-01-14 23:26:53.18	30.51	46.43	-39.8	-41.0	21.4	0.00e+00	2	29	0	821035008	52	6408
2026-01-14 23:26:54.19	29.99	46.30	-40.3	-41.6	20.8	0.00e+00	92	29	0	822083584	52	6879
2026-01-14 23:26:55.20	29.47	46.17	-40.5	-41.8	20.6	0.00e+00	0	29	0	824180736	52	7078
2026-01-14 23:26:56.21	28.96	46.03	-40.2	-41.6	21.0	0.00e+00	38	29	0	826277888	52	6855
2026-01-14 23:26:57.21	28.45	45.90	-39.8	-41.0	21.5	0.00e+00	0	29	0	828375040	52	6423
2026-01-14 23:26:58.22	27.95	45.76	-39.0	-40.0	22.0	0.00e+00	91	29	0	830472192	52	5755
2026-01-14 23:26:59.23	27.45	45.62	-38.5	-39.5	22.6	0.00e+00	0	29	0	831520768	50	6068
2026-01-14 23:27:00.24	26.96	45.48	-39.0	-40.0	22.1	0.00e+00	92	29	0	833617920	50	6463
2026-01-14 23:27:01.25	26.46	45.34	-39.0	-40.2	22.1	0.00e+00	86	29	0	835715072	50	6548
2026-01-14 23:27:02.26	25.98	45.19	-38.7	-39.8	22.3	0.00e+00	0	29	0	837812224	50	6262
2026-01-14 23:27:03.26	25.50	45.05	-38.2	-39.2	22.9	0.00e+00	86	29	0	839909376	50	5893
2026-01-14 23:27:04.27	25.02	44.90	-38.3	-39.4	22.2	0.00e+00	0	29	0	840957952	50	6001
2026-01-14 23:27:05.28	24.55	44.75	-39.3	-40.5	21.7	0.00e+00	90	29	0	843055104	50	6807
2026-01-14 23:27:06.29	24.08	44.60	-39.9	-41.2	21.1	0.00e+00	0	29	0	845152256	52	6554
2026-01-14 23:27:07.30	23.62	44.45	-39.7	-40.9	21.4	0.00e+00	92	29	0	847249408	52	6333
2026-01-14 23:27:08.30	23.16	44.29	-38.7	-39.7	22.4	0.00e+00	92	29	0	849346560	50	6204
2026-01-14 23:27:09.31	22.71	44.14	-38.8	-39.9	22.3	0.00e+00	0	29	0	850395136	50	6337
2026-01-14 23:27:10.32	22.26	43.98	-39.3	-40.4	21.7	0.00e+00	29	29	0	852492288	50	6764
2026-01-14 23:27:11.33	21.81	43.82	-40.5	-41.9	20.4	0.00e+00	0	29	0	854589440	52	7169
2026-01-14 23:27:12.34	21.37	43.66	-39.6	-40.8	21.5	0.00e+00	67	29	0	856686592	52	6285
2026-01-14 23:27:13.35	20.93	43.50	-38.4	-39.4	22.5	0.00e+00	0	29	0	858783744	50	6002
2026-01-14 23:27:14.36	20.50	43.34	-37.8	-38.7	23.1	0.00e+00	91	29	0	859832320	48	6224
2026-01-14 23:27:15.37	20.07	43.17	-37.8	-38.8	23.2	0.00e+00	90	29	0	861929472	48	6247
2026-01-14 23:27:16.38	19.65	43.01	-38.0	-39.0	23.0	0.00e+00	0	29	0	864026624	48	6437
2026-01-14 23:27:17.39	19.23	42.84	-37.4	-38.3	23.5	0.00e+00	91	29	0	866123776	48	5958
2026-01-14 23:27:18.40	18.81	42.68	-36.8	-37.7	24.0	0.00e+00	0	29	0	868220928	48	5512
2026-01-14 23:27:19.40	18.40	42.51	-36.7	-37.6	24.1	0.00e+00	90	29	0	869269504	46	6132
2026-01-14 23:27:20.41	18.00	42.34	-37.2	-38.1	23.7	0.00e+00	0	29	0	871366656	46	6472
2026-01-14 23:27:21.42	17.60	42.17	-37.6	-38.5	23.3	0.00e+00	92	29	0	873463808	46	6829
2026-01-14 23:27:22.43	17.20	42.00	-38.0	-39.0	22.9	0.00e+00	0	29	0	875560960	48	6420
2026-01-14 23:27:23.44	16.80	41.83	-37.8	-38.7	23.2	0.00e+00	0	29	0	877658112	48	6242
2026-01-14 23:27:24.45	16.41	41.66	-37.5	-38.5	23.4	0.00e+00	92	29	0	878706688	48	6038
2026-01-14 23:27:25.46	16.03	41.49	-38.2	-39.2	23.0	0.00e+00	0	29	0	880803840	48	6575
2026-01-14 23:27:26.47	15.65	41.32	-38.5	-39.6	22.5	0.00e+00	85	29	0	882900992	48	6859
2026-01-14 23:27:27.48	15.27	41.14	-39.5	-40.7	21.4	0.00e+00	0	29	0	884998144	50	6929
2026-01-14 23:27:28.49	14.90	40.97	-40.5	-41.8	20.3	0.00e+00	83	29	0	887095296	52	7038
2026-01-14 23:27:29.50	14.53	40.80	-41.4	-42.9	19.6	0.00e+00	0	29	0	889192448	54	7160
2026-01-14 23:27:30.51	14.16	40.62	-41.9	-43.5	19.1	0.00e+00	0	29	0	890241024	56	6816
2026-01-14 23:27:31.51	13.80	40.45	-40.5	-41.8	20.6	0.00e+00	86	29	0	892338176	54	6276
2026-01-14 23:27:32.52	13.45	40.27	-39.7	-40.9	21.4	0.00e+00	0	29	0	894435328	52	6331
2026-01-14 23:27:33.53	13.09	40.09	-39.2	-40.3	21.9	0.00e+00	32	29	0	896532480	52	5919
2026-01-14 23:27:34.55	12.74	39.92	-39.0	-40.1	22.1	0.00e+00	0	29	0	898629632	52	5775
2026-01-14 23:27:35.55	12.40	39.74	-39.1	-40.1	22.3	0.00e+00	92	29	0	899678208	52	5824
2026-01-14 23:27:36.56	12.06	39.56	-39.3	-40.4	21.9	0.00e+00	0	29	0	901775360	52	5999
2026-01-14 23:27:37.57	11.72	39.39	-39.6	-40.7	21.4	0.00e+00	0	29	0	903872512	52	6242
2026-01-14 23:27:38.58	11.38	39.21	-40.0	-41.3	21.1	0.00e+00	23	29	0	905969664	52	6627
2026-01-14 23:27:39.59	11.05	39.03	-40.1	-41.4	21.0	0.00e+00	0	29	0	908066816	52	6713
2026-01-14 23:27:40.60	10.73	38.85	-40.2	-41.5	21.0	0.00e+00	10	29	0	909115392	52	6819
2026-01-14 23:27:41.61	10.40	38.68	-40.2	-41.5	21.1	0.00e+00	0	29	0	911212544	52	6783
2026-01-14 23:27:42.62	10.08	38.50	-39.7	-40.8	21.5	0.00e+00	92	29	0	913309696	52	6300
2026-01-14 23:27:43.63	9.77	38.32	-39.5	-40.7	21.5	0.00e+00	0	29	0	915406848	52	6228
2026-01-14 23:27:44.63	9.46	38.14	-39.5	-40.8	21.5	0.00e+00	86	29	0	917504000	52	6250
2026-01-14 23:27:45.64	9.15	37.96	-40.5	-41.9	20.4	0.00e+00	73	29	0	918552576	52	7142
2026-01-14 23:27:46.65	8.84	37.79	-41.3	-42.9	19.6	0.00e+00	0	29	0	920649728	54	7133
2026-01-14 23:27:47.66	8.54	37.61	-42.4	-44.2	18.5	0.00e+00	92	29	0	922746880	56	7366
2026-01-14 23:27:48.67	8.24	37.43	-42.0	-43.6	19.0	0.00e+00	0	29	0	924844032	56	6924
2026-01-14 23:27:49.68	7.94	37.25	-42.0	-43.6	19.1	0.00e+00	91	29	0	926941184	56	6896
2026-01-14 23:27:50.69	7.65	37.07	-41.6	-43.1	19.2	0.00e+00	0	29	0	927989760	56	6537
2026-01-14 23:27:51.70	7.36	36.89	-42.5	-44.3	17.8	0.00e+00	70	29	0	930086912	56	7430
2026-01-14 23:27:52.71	7.07	36.72	-43.0	-45.0	17.6	0.00e+00	49	29	0	932184064	58	7181
2026-01-14 23:27:53.72	6.79	36.54	-43.1	-45.1	17.8	0.00e+00	0	29	0	934281216	58	7295
2026-01-14 23:27:54.73	6.51	36.36	-41.5	-43.0	19.7	0.00e+00	28	29	0	936378368	56	6455
2026-01-14 23:27:55.74	6.23	36.18	-40.3	-41.6	20.7	0.00e+00	0	29	0	937426944	54	6129
2026-01-14 23:27:56.74	5.96	36.01	-40.5	-41.7	20.7	0.00e+00	86	29	0	939524096	54	6199
2026-01-14 23:27:57.75	5.69	35.83	-39.9	-41.1	21.3	0.00e+00	0	29	0	941621248	52	6474
2026-01-14 23:27:58.76	5.42	35.66	-39.3	-40.4	21.8	0.00e+00	92	29	0	943718400	52	5992
2026-01-14 23:27:59.77	5.15	35.48	-39.0	-40.1	22.1	0.00e+00	0	29	0	945815552	50	6472
2026-01-14 23:28:00.78	4.89	35.30	-39.1	-40.1	21.9	0.00e+00	0	29	0	946864128	50	6505
2026-01-14 23:28:01.79	4.63	35.13	-39.0	-40.1	21.9	0.00e+00	85	29	0	948961280	50	6468
2026-01-14 23:28:02.80	4.38	34.95	-39.5	-40.6	21.7	0.00e+00	0	29	0	951058432	52	6120
2026-01-14 23:28:03.80	4.12	34.78	-39.6	-40.7	21.6	0.00e+00	1	29	0	953155584	52	6243
2026-01-14 23:28:04.81	3.87	34.60	-39.7	-40.8	21.5	0.00e+00	0	29	0	955252736	52	6293
2026-01-14 23:28:05.82	3.62	34.43	-39.8	-41.0	21.4	0.00e+00	92	29	0	957349888	52	6394
2026-01-14 23:28:06.83	3.38	34.25	-40.6	-41.9	20.3	0.00e+00	0	29	0	958398464	52	7166
2026-01-14 23:28:07.84	3.13	34.08	-41.1	-42.6	19.7	0.00e+00	0	29	0	960495616	54	6890
2026-01-14 23:28:08.85	2.89	33.91	-41.5	-43.0	19.7	0.00e+00	80	29	0	962592768	56	6416
2026-01-14 23:28:09.86	2.66	33.73	-41.5	-43.1	19.4	0.00e+00	0	29	0	964689920	56	6486
2026-01-14 23:28:10.87	2.42	33.56	-41.2	-42.6	19.9	0.00e+00	89	29	0	966787072	56	6131
2026-01-14 23:28:11.88	2.19	33.39	-40.7	-42.0	20.4	0.00e+00	0	29	0	967835648	54	6429
2026-01-14 23:28:12.89	1.96	33.22	-40.0	-41.1	21.3	0.00e+00	91	29	0	969932800	54	5799
2026-01-14 23:28:13.90	1.73	33.05	-39.6	-40.7	21.5	0.00e+00	0	29	0	972029952	52	6195
2026-01-14 23:28:14.90	1.51	32.88	-39.4	-40.5	21.7	0.00e+00	25	29	0	974127104	52	6044
2026-01-14 23:28:15.91	1.28	32.71	-38.8	-39.8	22.3	0.00e+00	88	29	0	975175680	52	5607
2026-01-14 23:28:16.92	1.06	32.54	-38.3	-39.3	22.7	0.00e+00	0	29	0	977272832	50	5918
2026-01-14 23:28:17.93	0.84	32.37	-38.4	-39.4	22.6	0.00e+00	57	29	0	979369984	50	5968
2026-01-14 23:28:18.94	0.63	32.20	-39.1	-40.2	21.9	0.00e+00	0	29	0	981467136	50	6552
2026-01-14 23:28:19.95	0.41	32.03	-39.7	-40.8	21.3	0.00e+00	81	29	0	983564288	50	7033
2026-01-14 23:28:20.95	0.20	31.87	-40.6	-41.9	20.4	0.00e+00	0	29	0	984612864	52	7104
2026-01-14 23:28:21.96	359.99	31.70	-41.3	-42.8	19.4	0.00e+00	0	29	0	986710016	54	7012
2026-01-14 23:28:22.97	359.79	31.53	-41.8	-43.4	18.9	0.00e+00	86	29	0	988807168	56	6720
2026-01-14 23:28:23.98	359.58	31.36	-40.6	-41.9	20.7	0.00e+00	0	29	0	990904320	56	5658
2026-01-14 23:28:24.99	359.38	31.20	-39.7	-40.9	21.4	0.00e+00	82	29	0	993001472	52	6325
2026-01-14 23:28:26.00	359.18	31.03	-38.8	-39.9	22.2	0.00e+00	0	29	0	995098624	52	5652
2026-01-14 23:28:27.01	358.98	30.87	-38.2	-39.1	22.7	0.00e+00	27	29	0	996147200	50	5818
2026-01-14 23:28:28.02	358.78	30.70	-37.9	-38.8	23.0	0.00e+00	0	29	0	998244352	50	5626
2026-01-14 23:28:29.03	358.59	30.54	-38.2	-39.2	22.8	0.00e+00	0	29	0	1000341504	50	5863
2026-01-14 23:28:30.04	358.39	30.38	-38.7	-39.7	22.3	0.00e+00	0	29	0	1002438656	50	6224
2026-01-14 23:28:31.05	358.20	30.21	-39.4	-40.6	21.5	0.00e+00	0	29	0	1004535808	50	6870
2026-01-14 23:28:32.06	358.01	30.05	-40.2	-41.5	20.7	0.00e+00	88	29	0	1005584384	52	6778
2026-01-14 23:28:33.06	357.83	29.89	-40.7	-42.1	20.2	0.00e+00	0	29	0	1007681536	54	6514
2026-01-14 23:28:34.07	357.64	29.73	-41.0	-42.4	20.1	0.00e+00	92	29	0	1009778688	54	6727
2026-01-14 23:28:35.08	357.46	29.57	-40.8	-42.2	20.2	0.00e+00	0	29	0	1011875840	54	6615
2026-01-14 23:28:36.09	357.28	29.41	-40.4	-41.7	20.6	0.00e+00	0	29	0	1013972992	54	6214
2026-01-14 23:28:37.10	357.10	29.25	-40.1	-41.3	20.9	0.00e+00	0	29	0	1015021568	54	5936
2026-01-14 23:28:38.10	356.92	29.10	-39.5	-40.6	21.5	0.00e+00	0	29	0	1017118720	52	6156
2026-01-14 23:28:39.11	356.75	28.94	-39.4	-40.5	21.7	0.00e+00	52	29	0	1019215872	52	6074
2026-01-14 23:28:40.12	356.57	28.78	-39.9	-41.1	21.0	0.00e+00	0	29	0	1021313024	52	6526
2026-01-14 23:28:41.13	356.40	28.62	-40.1	-41.3	21.1	0.00e+00	92	29	0	1023410176	52	6678
2026-01-14 23:28:42.14	356.23	28.47	-39.9	-41.2	21.2	0.00e+00	0	29	0	1024458752	52	6540
2026-01-14 23:28:43.15	356.06	28.31	-39.5	-40.7	21.5	0.00e+00	0	29	0	1026555904	52	6185
2026-01-14 23:28:44.16	355.89	28.16	-39.4	-40.5	21.4	0.00e+00	0	29	0	1028653056	52	6098
2026-01-14 23:28:45.17	355.73	28.00	-39.4	-40.5	21.9	0.00e+00	0	29	0	1030750208	52	6083
2026-01-14 23:28:46.18	355.56	27.85	-39.6	-40.7	21.5	0.00e+00	15	29	0	1032847360	52	6228
2026-01-14 23:28:47.19	355.40	27.70	-38.9	-39.9	22.3	0.00e+00	0	29	0	1033895936	52	5695
2026-01-14 23:28:48.19	355.24	27.54	-38.5	-39.5	22.4	0.00e+00	91	29	0	1035993088	50	6073
2026-01-14 23:28:49.20	355.08	27.39	-37.9	-38.8	22.9	0.00e+00	0	29	0	1038090240	50	5630
2026-01-14 23:28:50.21	354.92	27.24	-37.8	-38.7	22.9	0.00e+00	12	29	0	1040187392	50	5527
2026-01-14 23:28:51.22	354.77	27.09	-37.8	-38.7	23.0	0.00e+00	0	29	0	1042284544	50	5560
2026-01-14 23:28:52.23	354.61	26.94	-38.1	-39.1	22.7	0.00e+00	0	29	0	1043333120	50	5782
2026-01-14 23:28:53.24	354.46	26.79	-38.8	-39.9	22.1	0.00e+00	0	29	0	1045430272	50	6362
2026-01-14 23:28:54.25	354.31	26.64	-39.3	-40.5	21.6	0.00e+00	0	29	0	1047527424	50	6844
2026-01-14 23:28:55.26	354.16	26.49	-40.4	-41.8	20.4	0.00e+00	83	29	0	1049624576	52	7069
2026-01-14 23:28:56.26	354.01	26.35	-40.8	-42.3	19.9	0.00e+00	0	29	0	1051721728	54	6638
2026-01-14 23:28:57.27	353.86	26.20	-41.3	-42.9	19.5	0.00e+00	0	29	0	1052770304	54	7124
2026-01-14 23:28:58.28	353.71	26.05	-40.7	-42.2	20.1	0.00e+00	0	29	0	1054867456	54	6565
2026-01-14 23:28:59.29	353.57	25.90	-40.5	-41.9	20.4	0.00e+00	0	29	0	1056964608	54	6338
2026-01-14 23:29:00.30	353.43	25.76	-40.3	-41.6	20.6	0.00e+00	73	29	0	1059061760	54	6116
2026-01-14 23:29:01.31	353.28	25.61	-39.9	-41.1	21.1	0.00e+00	0	29	0	1061158912	54	5794
2026-01-14 23:29:02.32	353.14	25.47	-39.5	-40.7	21.4	0.00e+00	85	29	0	1063256064	52	6215
2026-01-14 23:29:03.33	353.00	25.33	-39.3	-40.4	21.8	0.00e+00	0	29	0	1064304640	52	6007
2026-01-14 23:29:04.34	352.86	25.18	-39.0	-40.1	22.1	0.00e+00	18	29	0	1066401792	52	5808
2026-01-14 23:29:05.35	352.73	25.04	-38.8	-39.8	22.2	0.00e+00	0	29	0	1068498944	50	6313
2026-01-14 23:29:06.36	352.59	24.90	-38.4	-39.4	22.6	0.00e+00	0	29	0	1070596096	50	6008
2026-01-14 23:29:07.37	352.46	24.76	-38.1	-39.1	22.9	0.00e+00	0	29	0	1072693248	50	5803
2026-01-14 23:29:08.38	352.32	24.62	-37.9	-38.9	23.0	0.00e+00	0	29	0	1073741824	50	5648
2026-01-14 23:29:09.39	352.19	24.48	-38.1	-39.1	22.8	0.00e+00	78	29	0	1075838976	50	5774
2026-01-14 23:29:10.40	352.06	24.34	-38.1	-39.1	22.8	0.00e+00	0	29	0	1077936128	50	5779
2026-01-14 23:29:11.41	351.93	24.20	-38.5	-39.6	22.3	0.00e+00	88	29	0	1080033280	50	6129
2026-01-14 23:29:12.42	351.80	24.06	-39.1	-40.3	21.8	0.00e+00	0	29	0	1082130432	50	6629
2026-01-14 23:29:13.43	351.68	23.92	-39.2	-40.5	21.6	0.00e+00	0	29	0	1083179008	50	6782
2026-01-14 23:29:14.43	351.55	23.78	-39.4	-40.6	21.5	0.00e+00	0	29	0	1085276160	50	6915
2026-01-14 23:29:15.44	351.43	23.65	-39.3	-40.5	21.6	0.00e+00	0	29	0	1087373312	50	6822
2026-01-14 23:29:16.44	351.30	23.51	-39.2	-40.4	21.6	0.00e+00	0	29	0	1089470464	50	6756
2026-01-14 23:29:17.45	351.18	23.38	-39.1	-40.3	21.8	0.00e+00	0	29	0	1091567616	50	6627
2026-01-14 23:29:18.46	351.06	23.24	-38.5	-39.6	22.3	0.00e+00	51	29	0	1092616192	50	6133
2026-01-14 23:29:19.46	350.94	23.11	-38.7	-39.8	22.3	0.00e+00	0	29	0	1094713344	50	6249
2026-01-14 23:29:20.47	350.82	22.97	-38.3	-39.3	22.6	0.00e+00	0	29	0	1096810496	50	5932
2026-01-14 23:29:21.48	350.70	22.84	-38.3	-39.3	22.6	0.00e+00	0	29	0	1098907648	50	5907
2026-01-14 23:29:22.49	350.58	22.71	-38.1	-39.0	22.9	0.00e+00	0	29	0	1101004800	50	5744
2026-01-14 23:29:23.50	350.47	22.58	-38.1	-39.0	22.8	0.00e+00	79	29	0	1102053376	50	5761
2026-01-14 23:29:24.50	350.35	22.45	-38.0	-38.9	22.8	0.00e+00	0	29	0	1104150528	50	5676
2026-01-14 23:29:25.52	350.24	22.31	-37.9	-38.8	23.1	0.00e+00	80	29	0	1106247680	50	5591
2026-01-14 23:29:26.52	350.12	22.18	-37.9	-38.8	23.0	0.00e+00	0	29	0	1108344832	48	6310
2026-01-14 23:29:27.53	350.01	22.05	-37.9	-38.8	23.1	0.00e+00	0	29	0	1110441984	48	6269
2026-01-14 23:29:28.54	349.90	21.92	-38.0	-38.9	23.0	0.00e+00	0	29	0	1111490560	48	6378
2026-01-14 23:29:29.55	349.79	21.79	-38.1	-39.0	22.8	0.00e+00	0	29	0	1113587712	48	6444
2026-01-14 23:29:30.56	349.68	21.67	-38.4	-39.4	22.5	0.00e+00	0	29	0	1115684864	48	6727
2026-01-14 23:29:31.57	349.57	21.54	-38.8	-39.9	22.1	0.00e+00	0	29	0	1117782016	48	7108
2026-01-14 23:29:32.58	349.46	21.41	-38.9	-40.0	22.0	0.00e+00	79	29	0	1119879168	50	6436
2026-01-14 23:29:33.59	349.36	21.28	-39.3	-40.4	21.7	0.00e+00	0	29	0	1120927744	50	6756
2026-01-14 23:29:34.60	349.25	21.16	-39.4	-40.6	21.5	0.00e+00	30	29	0	1123024896	50	6856
2026-01-14 23:29:35.61	349.15	21.03	-39.3	-40.4	21.7	0.00e+00	0	29	0	1125122048	50	6707
2026-01-14 23:29:36.62	349.04	20.91	-39.0	-40.1	21.9	0.00e+00	0	29	0	1127219200	50	6518
2026-01-14 23:29:37.62	348.94	20.78	-39.2	-40.3	21.7	0.00e+00	0	29	0	1129316352	50	6646
2026-01-14 23:29:38.63	348.84	20.66	-38.9	-40.0	21.9	0.00e+00	0	29	0	1130364928	50	6415
2026-01-14 23:29:39.64	348.74	20.53	-39.0	-40.0	22.0	0.00e+00	54	29	0	1132462080	50	6435
2026-01-14 23:29:40.65	348.63	20.41	-38.5	-39.5	22.3	0.00e+00	0	29	0	1134559232	50	6086
2026-01-14 23:29:41.66	348.53	20.29	-38.5	-39.5	22.4	0.00e+00	83	29	0	1136656384	50	6087
2026-01-14 23:29:42.67	348.44	20.17	-38.4	-39.4	22.4	0.00e+00	0	29	0	1138753536	50	5974
2026-01-14 23:29:43.68	348.34	20.04	-38.7	-39.8	22.3	0.00e+00	0	29	0	1139802112	50	6254
2026-01-14 23:29:44.69	348.24	19.92	-38.4	-39.5	22.3	0.00e+00	0	29	0	1141899264	50	6034
2026-01-14 23:29:45.70	348.14	19.80	-38.7	-39.7	22.2	0.00e+00	0	29	0	1143996416	50	6222
2026-01-14 23:29:46.71	348.05	19.68	-38.8	-39.9	22.0	0.00e+00	1	29	0	1146093568	50	6333
2026-01-14 23:29:47.72	347.95	19.56	-38.8	-39.8	22.0	0.00e+00	0	29	0	1148190720	50	6282
2026-01-14 23:29:48.73	347.86	19.44	-38.9	-40.0	21.9	0.00e+00	90	29	0	1149239296	50	6395
2026-01-14 23:29:49.74	347.76	19.32	-38.8	-39.8	22.1	0.00e+00	0	29	0	1151336448	50	6307
2026-01-14 23:29:50.74	347.67	19.21	-38.8	-39.9	22.1	0.00e+00	0	29	0	1153433600	50	6341
2026-01-14 23:29:51.75	347.58	19.09	-38.9	-39.9	22.0	0.00e+00	0	29	0	1155530752	50	6357
2026-01-14 23:29:52.76	347.49	18.97	-39.1	-40.2	21.8	0.00e+00	0	29	0	1157627904	50	6544
2026-01-14 23:29:53.77	347.40	18.85	-38.7	-39.8	22.1	0.00e+00	83	29	0	1159725056	50	6290
2026-01-14 23:29:54.78	347.31	18.74	-38.5	-39.6	22.3	0.00e+00	0	29	0	1160773632	50	6104
2026-01-14 23:29:55.78	347.22	18.62	-38.6	-39.6	22.2	0.00e+00	83	29	0	1162870784	50	6143
2026-01-14 23:29:56.79	347.13	18.51	-38.3	-39.3	22.6	0.00e+00	0	29	0	1164967936	50	5925
2026-01-14 23:29:57.80	347.04	18.39	-38.1	-39.1	22.6	0.00e+00	0	29	0	1167065088	50	5814
2026-01-14 23:29:58.81	346.96	18.28	-38.1	-39.1	22.7	0.00e+00	0	29	0	1169162240	50	5797
2026-01-14 23:29:59.82	346.87	18.16	-38.0	-39.0	22.8	0.00e+00	0	29	0	1170210816	50	5696
2026-01-14 23:30:00.83	346.78	18.05	-37.7	-38.7	23.0	0.00e+00	0	29	0	1172307968	50	5516
2026-01-14 23:30:01.84	346.70	17.94	-37.2	-38.1	23.5	0.00e+00	0	29	0	1174405120	48	5813
2026-01-14 23:30:02.85	346.61	17.82	-37.2	-38.1	23.3	0.00e+00	72	29	0	1176502272	48	5804
2026-01-14 23:30:03.86	346.53	17.71	-37.0	-37.9	23.6	0.00e+00	0	29	0	1177550848	48	5668
2026-01-14 23:30:04.87	346.45	17.60	-37.3	-38.3	23.4	0.00e+00	0	29	0	1179648000	48	5902
2026-01-14 23:30:05.88	346.36	17.49	-37.3	-38.2	23.5	0.00e+00	0	29	0	1181745152	48	5844
2026-01-14 23:30:06.89	346.28	17.38	-37.2	-38.1	23.3	0.00e+00	0	29	0	1183842304	48	5764
2026-01-14 23:30:07.90	346.20	17.27	-37.6	-38.5	23.1	0.00e+00	65	29	0	1185939456	48	6071
2026-01-14 23:30:08.91	346.12	17.16	-37.6	-38.6	23.0	0.00e+00	0	29	0	1188036608	48	6121
2026-01-14 23:30:09.92	346.04	17.05	-37.8	-38.7	22.9	0.00e+00	80	29	0	1189085184	48	6242
2026-01-14 23:30:10.92	345.96	16.94	-38.2	-39.2	22.5	0.00e+00	0	29	0	1191182336	48	6543
2026-01-14 23:30:11.93	345.88	16.83	-38.4	-39.5	22.3	0.00e+00	53	29	0	1193279488	48	6807
2026-01-14 23:30:12.94	345.80	16.72	-38.8	-39.9	22.0	0.00e+00	0	29	0	1195376640	50	6346
2026-01-14 23:30:13.95	345.73	16.61	-39.2	-40.3	21.6	0.00e+00	0	29	0	1197473792	50	6682
