passes_logs/2026/01/14/R4.6S_Anadyr/R4.6S_Anadyr__20260114_032231_NOAA_20_JPSS-1_rec.log

#Pass ID: 20260114_032231_NOAA 20 (JPSS-1)
#Satellite: NOAA 20 (JPSS-1)
#Configuration: NOAA 20
#almurnet v.1.7.20251203
#Start time: 2026-01-14 03:22:34

#Version: 2.2.20231116
#Station: R4.6S_Anadyr
#Location: 177.4865 lon 64.73178 lat
#TLE: 1 43013U 17073A   26013.56788096  .00000060  00000+0  49292-4 0  9995
#TLE: 2 43013  98.7633 314.5224 0001558  41.3934 318.7360 14.19535692422532

#Time	Az	El	Level	Level2	SNR	BER	BlckErr	Temp	State	Recorded	gain1	gain2
2026-01-14 03:22:34.28	242.07	0.13	-48.6	-62.4	3.3	1.54e+00	0	29	0	0	60	47581
2026-01-14 03:22:35.29	242.17	0.17	-48.6	-63.8	3.6	1.51e+00	0	29	104	0	60	55959
2026-01-14 03:22:36.30	242.26	0.21	-48.6	-63.8	3.6	1.51e+00	0	29	104	0	60	55715
2026-01-14 03:22:37.31	242.36	0.25	-48.6	-63.8	3.6	1.51e+00	0	29	104	0	60	55898
2026-01-14 03:22:38.32	242.46	0.29	-48.7	-63.9	3.6	1.51e+00	0	29	104	0	60	56466
2026-01-14 03:22:39.33	242.55	0.33	-48.7	-63.9	3.6	1.51e+00	0	29	104	0	60	56614
2026-01-14 03:22:40.34	242.65	0.38	-48.8	-63.9	3.6	1.51e+00	0	29	104	0	60	56883
2026-01-14 03:22:41.35	242.75	0.42	-48.9	-64.0	3.6	1.51e+00	0	29	104	0	60	57355
2026-01-14 03:22:42.36	242.85	0.46	-48.8	-63.9	3.6	1.51e+00	0	29	104	0	60	56929
2026-01-14 03:22:43.37	242.95	0.50	-48.7	-63.9	3.6	1.51e+00	0	29	104	0	60	56649
2026-01-14 03:22:44.38	243.04	0.54	-48.7	-63.8	3.6	1.51e+00	0	29	104	0	60	56167
2026-01-14 03:22:45.39	243.14	0.58	-48.6	-63.7	3.6	1.51e+00	0	29	104	0	60	55612
2026-01-14 03:22:46.40	243.24	0.62	-48.4	-63.6	3.6	1.51e+00	0	29	104	0	60	54683
2026-01-14 03:22:47.41	243.34	0.66	-48.1	-63.3	3.6	1.51e+00	0	29	104	0	60	52713
2026-01-14 03:22:48.42	243.44	0.70	-47.4	-62.5	3.6	1.51e+00	0	29	104	0	60	48413
2026-01-14 03:22:49.43	243.54	0.75	-47.1	-62.2	3.6	1.51e+00	0	29	104	0	60	46574
2026-01-14 03:22:50.44	243.64	0.79	-47.1	-62.2	3.6	1.51e+00	0	29	104	0	60	46487
2026-01-14 03:22:51.45	243.74	0.83	-47.1	-62.2	3.6	1.51e+00	0	29	104	0	60	46513
2026-01-14 03:22:52.46	243.84	0.87	-47.1	-62.2	3.6	1.51e+00	0	29	104	0	60	46726
2026-01-14 03:22:53.47	243.94	0.91	-47.1	-62.2	3.6	1.51e+00	0	29	104	0	60	46549
2026-01-14 03:22:54.48	244.04	0.95	-47.1	-62.2	3.6	1.51e+00	0	29	104	0	60	46632
2026-01-14 03:22:55.49	244.14	0.99	-47.1	-62.2	3.6	1.51e+00	0	29	104	0	60	46447
2026-01-14 03:22:56.50	244.24	1.03	-47.1	-62.2	3.6	1.51e+00	0	29	104	0	60	46490
2026-01-14 03:22:57.51	244.34	1.07	-47.1	-62.2	3.6	1.51e+00	0	29	104	0	60	46320
2026-01-14 03:22:58.52	244.45	1.12	-47.1	-62.1	3.6	1.51e+00	0	29	104	0	60	46193
2026-01-14 03:22:59.53	244.55	1.16	-47.1	-62.1	3.6	1.51e+00	0	29	104	0	60	45973
2026-01-14 03:23:00.54	244.65	1.20	-47.0	-62.2	3.5	1.51e+00	0	29	104	0	60	46358
2026-01-14 03:23:01.55	244.75	1.24	-47.0	-62.1	3.6	1.51e+00	0	29	104	0	60	46275
2026-01-14 03:23:02.56	244.86	1.28	-47.0	-62.2	3.6	1.51e+00	0	29	104	0	60	46412
2026-01-14 03:23:03.57	244.96	1.32	-47.0	-62.2	3.6	1.51e+00	0	29	104	0	60	46459
2026-01-14 03:23:04.58	245.06	1.36	-47.1	-62.2	3.6	1.51e+00	0	29	104	0	60	46516
2026-01-14 03:23:05.59	245.17	1.40	-47.0	-62.1	3.6	1.51e+00	0	29	104	0	60	46141
2026-01-14 03:23:06.60	245.27	1.44	-47.1	-62.2	3.6	1.51e+00	0	29	104	0	60	46380
2026-01-14 03:23:07.61	245.38	1.48	-47.0	-62.2	3.6	1.51e+00	0	29	104	0	60	46382
2026-01-14 03:23:08.62	245.48	1.52	-47.0	-62.2	3.6	1.51e+00	0	29	104	0	60	46410
2026-01-14 03:23:09.62	245.58	1.56	-47.0	-62.2	3.6	1.51e+00	0	29	104	0	60	46447
2026-01-14 03:23:10.63	245.69	1.61	-47.0	-62.2	3.6	1.51e+00	0	29	104	0	60	46305
2026-01-14 03:23:11.65	245.80	1.65	-47.0	-62.2	3.6	1.51e+00	0	29	104	0	60	46358
2026-01-14 03:23:12.66	245.90	1.69	-47.0	-62.1	3.6	1.51e+00	0	29	104	0	60	45800
2026-01-14 03:23:13.67	246.01	1.73	-47.0	-62.1	3.6	1.51e+00	0	29	104	0	60	46193
2026-01-14 03:23:14.67	246.11	1.77	-47.0	-62.2	3.6	1.51e+00	0	29	104	0	60	46359
2026-01-14 03:23:15.69	246.22	1.81	-47.0	-62.1	3.6	1.51e+00	0	29	104	0	60	46227
2026-01-14 03:23:16.70	246.33	1.85	-47.0	-62.2	3.6	1.51e+00	0	29	104	0	60	46409
2026-01-14 03:23:17.70	246.43	1.89	-47.0	-62.2	3.6	1.51e+00	0	29	104	0	60	46632
2026-01-14 03:23:18.71	246.54	1.93	-47.0	-62.2	3.6	1.51e+00	0	29	104	0	60	46336
2026-01-14 03:23:19.72	246.65	1.97	-47.0	-62.1	3.6	1.51e+00	0	29	104	0	60	46074
2026-01-14 03:23:20.73	246.76	2.01	-47.0	-62.1	3.6	1.51e+00	0	29	104	0	60	45942
2026-01-14 03:23:21.74	246.86	2.05	-47.0	-62.0	3.6	1.51e+00	0	30	104	0	60	45433
2026-01-14 03:23:22.75	246.97	2.09	-47.0	-62.1	3.6	1.51e+00	0	29	104	0	60	46022
2026-01-14 03:23:23.76	247.08	2.13	-47.0	-62.0	3.6	1.51e+00	0	29	104	0	60	45304
2026-01-14 03:23:24.77	247.19	2.17	-47.0	-62.1	3.6	1.51e+00	0	30	104	0	60	45808
2026-01-14 03:23:25.78	247.30	2.22	-47.0	-62.1	3.6	1.51e+00	0	29	104	0	60	46047
2026-01-14 03:23:26.79	247.41	2.26	-47.0	-62.1	3.6	1.51e+00	0	29	104	0	60	46077
2026-01-14 03:23:27.80	247.52	2.30	-47.0	-62.1	3.6	1.51e+00	0	29	104	0	60	45965
2026-01-14 03:23:28.81	247.63	2.34	-47.0	-62.1	3.6	1.51e+00	0	30	104	0	60	46001
2026-01-14 03:23:29.82	247.74	2.38	-47.0	-61.9	3.6	1.51e+00	0	29	104	0	60	45119
2026-01-14 03:23:30.83	247.85	2.42	-47.0	-61.8	3.6	1.51e+00	0	29	104	0	60	44427
2026-01-14 03:23:31.84	247.96	2.46	-47.0	-61.8	3.6	1.51e+00	0	29	104	0	60	44500
2026-01-14 03:23:32.85	248.07	2.50	-47.0	-61.8	3.6	1.51e+00	0	29	104	0	60	44603
2026-01-14 03:23:33.86	248.19	2.54	-47.0	-62.0	3.6	1.51e+00	0	29	104	0	60	45517
2026-01-14 03:23:34.87	248.30	2.58	-47.0	-61.8	3.6	1.51e+00	0	29	104	0	60	44352
2026-01-14 03:23:35.88	248.41	2.62	-47.0	-61.0	3.6	1.51e+00	0	29	104	0	60	40763
2026-01-14 03:23:36.89	248.52	2.66	-47.0	-60.3	3.6	1.51e+00	0	29	104	0	60	37596
2026-01-14 03:23:37.91	248.64	2.70	-46.9	-60.0	3.7	1.51e+00	0	29	104	0	60	36125
2026-01-14 03:23:38.92	248.75	2.74	-47.0	-61.5	3.6	1.51e+00	0	29	104	0	60	42932
2026-01-14 03:23:39.93	248.86	2.78	-47.0	-62.0	3.6	1.51e+00	0	29	104	0	60	45299
2026-01-14 03:23:40.94	248.98	2.82	-46.8	-58.3	3.8	1.50e+00	0	29	104	0	60	29684
2026-01-14 03:23:41.95	249.09	2.86	-46.2	-53.3	7.3	2.37e-01	91	29	0	0	60	16718
2026-01-14 03:23:42.96	249.21	2.90	-45.5	-50.6	10.1	2.37e-02	92	29	0	2097152	60	12207
2026-01-14 03:23:43.97	249.32	2.94	-44.9	-49.1	11.8	2.53e-03	91	29	0	3145728	60	10324
2026-01-14 03:23:44.98	249.44	2.98	-44.6	-48.4	12.4	1.85e-04	30	29	0	5242880	60	9467
2026-01-14 03:23:45.98	249.55	3.02	-44.8	-48.7	12.2	1.69e-04	90	29	0	7340032	60	9898
2026-01-14 03:23:46.99	249.67	3.06	-47.4	-61.8	3.6	5.08e-01	0	30	104	8388608	60	44503
2026-01-14 03:23:48.00	249.78	3.10	-45.8	-51.6	9.4	1.49e+00	90	29	104	8388608	60	13715
2026-01-14 03:23:49.01	249.90	3.14	-46.8	-57.5	3.9	1.97e-01	91	29	0	8388608	60	27132
2026-01-14 03:23:50.02	250.01	3.18	-46.8	-60.1	3.7	1.49e+00	0	29	104	8388608	60	36714
2026-01-14 03:23:51.03	250.13	3.22	-41.3	-43.0	17.5	6.76e-01	91	29	104	8388608	54	7228
2026-01-14 03:23:52.04	250.25	3.26	-40.7	-42.2	19.1	0.00e+00	91	29	0	9437184	54	6606
2026-01-14 03:23:53.05	250.37	3.30	-40.7	-42.2	19.1	0.00e+00	92	29	0	11534336	54	6559
2026-01-14 03:23:54.06	250.48	3.34	-40.8	-42.4	19.0	0.00e+00	0	29	0	13631488	54	6700
2026-01-14 03:23:55.07	250.60	3.38	-40.4	-41.9	19.5	0.00e+00	90	29	0	15728640	54	6329
2026-01-14 03:23:56.08	250.72	3.42	-40.4	-41.8	19.5	0.00e+00	92	29	0	16777216	54	6306
2026-01-14 03:23:57.09	250.84	3.46	-40.6	-42.1	19.2	0.00e+00	92	29	0	18874368	54	6477
2026-01-14 03:23:58.10	250.96	3.49	-40.5	-42.0	19.4	0.00e+00	92	29	0	20971520	54	6396
2026-01-14 03:23:59.11	251.08	3.53	-40.5	-41.9	19.2	0.00e+00	92	29	0	23068672	54	6386
2026-01-14 03:24:00.12	251.20	3.57	-40.6	-42.0	19.4	0.00e+00	92	29	0	25165824	54	6459
2026-01-14 03:24:01.13	251.31	3.61	-40.6	-42.1	19.2	0.00e+00	0	29	0	26214400	54	6532
2026-01-14 03:24:02.13	251.43	3.65	-40.6	-42.1	19.4	0.00e+00	92	29	0	28311552	54	6487
2026-01-14 03:24:03.14	251.55	3.69	-40.5	-42.0	19.3	0.00e+00	6	29	0	30408704	54	6410
2026-01-14 03:24:04.15	251.68	3.73	-40.2	-41.5	19.8	0.00e+00	92	29	0	32505856	54	6097
2026-01-14 03:24:05.16	251.80	3.77	-40.3	-41.7	19.8	0.00e+00	92	29	0	34603008	54	6179
2026-01-14 03:24:06.17	251.92	3.81	-40.4	-41.8	19.6	0.00e+00	90	29	0	35651584	54	6280
2026-01-14 03:24:07.18	252.04	3.85	-40.2	-41.6	19.8	0.00e+00	92	29	0	37748736	54	6143
2026-01-14 03:24:08.20	252.16	3.89	-40.3	-41.7	19.6	0.00e+00	30	29	0	39845888	54	6241
2026-01-14 03:24:09.21	252.28	3.93	-40.4	-41.8	19.6	0.00e+00	92	29	0	41943040	54	6284
2026-01-14 03:24:10.21	252.41	3.96	-40.4	-41.9	19.4	0.00e+00	0	29	0	44040192	54	6351
2026-01-14 03:24:11.22	252.53	4.00	-40.5	-41.9	19.4	0.00e+00	92	29	0	45088768	54	6387
2026-01-14 03:24:12.23	252.65	4.04	-40.3	-41.7	19.8	0.00e+00	92	29	0	47185920	54	6182
2026-01-14 03:24:13.24	252.78	4.08	-40.2	-41.6	19.8	0.00e+00	90	29	0	49283072	54	6111
2026-01-14 03:24:14.25	252.90	4.12	-40.4	-41.8	19.7	0.00e+00	92	29	0	51380224	54	6300
2026-01-14 03:24:15.26	253.02	4.16	-40.3	-41.7	19.9	0.00e+00	0	29	0	53477376	54	6205
2026-01-14 03:24:16.27	253.15	4.20	-40.2	-41.5	19.9	0.00e+00	92	29	0	54525952	54	6101
2026-01-14 03:24:17.29	253.27	4.23	-40.1	-41.5	19.9	0.00e+00	0	29	0	56623104	54	6066
2026-01-14 03:24:18.29	253.40	4.27	-40.2	-41.6	19.9	0.00e+00	92	29	0	58720256	54	6119
2026-01-14 03:24:19.31	253.52	4.31	-40.1	-41.4	20.1	0.00e+00	92	29	0	60817408	54	6010
2026-01-14 03:24:20.31	253.65	4.35	-40.0	-41.3	20.1	0.00e+00	92	29	0	62914560	54	5924
2026-01-14 03:24:21.32	253.77	4.39	-40.0	-41.3	20.1	0.00e+00	91	29	0	63963136	54	5948
2026-01-14 03:24:22.33	253.90	4.43	-40.0	-41.3	20.2	0.00e+00	92	29	0	66060288	54	5957
2026-01-14 03:24:23.34	254.03	4.46	-40.1	-41.5	20.0	0.00e+00	91	29	0	68157440	54	6069
2026-01-14 03:24:24.35	254.15	4.50	-40.1	-41.4	20.0	0.00e+00	62	29	0	70254592	54	6009
2026-01-14 03:24:25.36	254.28	4.54	-40.2	-41.6	19.9	0.00e+00	91	29	0	72351744	54	6110
2026-01-14 03:24:26.37	254.41	4.58	-40.2	-41.5	20.0	0.00e+00	0	29	0	73400320	54	6064
2026-01-14 03:24:27.38	254.54	4.62	-40.2	-41.6	19.9	0.00e+00	92	29	0	75497472	54	6128
2026-01-14 03:24:28.39	254.67	4.65	-40.1	-41.4	20.1	0.00e+00	91	29	0	77594624	54	6017
2026-01-14 03:24:29.40	254.79	4.69	-40.1	-41.4	20.2	0.00e+00	91	29	0	79691776	54	6028
2026-01-14 03:24:30.41	254.92	4.73	-40.1	-41.4	20.2	0.00e+00	91	29	0	81788928	54	5989
2026-01-14 03:24:31.42	255.05	4.77	-40.0	-41.3	20.3	0.00e+00	18	29	0	83886080	54	5955
2026-01-14 03:24:32.43	255.18	4.80	-40.0	-41.3	20.3	0.00e+00	92	29	0	84934656	54	5902
2026-01-14 03:24:33.44	255.31	4.84	-40.0	-41.3	20.3	0.00e+00	31	29	0	87031808	54	5934
2026-01-14 03:24:34.45	255.44	4.88	-40.1	-41.4	20.2	0.00e+00	92	29	0	89128960	54	6007
2026-01-14 03:24:35.46	255.57	4.92	-39.9	-41.2	20.4	0.00e+00	90	29	0	91226112	54	5868
2026-01-14 03:24:36.47	255.70	4.95	-39.9	-41.2	20.4	0.00e+00	92	29	0	93323264	54	5855
2026-01-14 03:24:37.48	255.83	4.99	-40.0	-41.3	20.3	0.00e+00	92	29	0	94371840	54	5911
2026-01-14 03:24:38.49	255.97	5.03	-40.0	-41.3	20.4	0.00e+00	32	29	0	96468992	54	5937
2026-01-14 03:24:39.50	256.10	5.07	-39.7	-41.0	20.6	0.00e+00	90	29	0	98566144	52	6438
2026-01-14 03:24:40.51	256.23	5.10	-39.8	-41.1	20.5	0.00e+00	23	29	0	100663296	52	6504
2026-01-14 03:24:41.52	256.36	5.14	-39.8	-41.0	20.6	0.00e+00	92	29	0	102760448	52	6434
2026-01-14 03:24:42.53	256.49	5.18	-39.8	-41.0	20.6	0.00e+00	5	29	0	103809024	52	6445
2026-01-14 03:24:43.54	256.63	5.21	-39.7	-41.0	20.7	0.00e+00	92	29	0	105906176	52	6401
2026-01-14 03:24:44.55	256.76	5.25	-39.8	-41.1	20.4	0.00e+00	92	29	0	108003328	52	6506
2026-01-14 03:24:45.56	256.90	5.29	-39.9	-41.2	20.5	0.00e+00	92	29	0	110100480	52	6548
2026-01-14 03:24:46.57	257.03	5.32	-39.8	-41.0	20.6	0.00e+00	90	29	0	112197632	52	6439
2026-01-14 03:24:47.58	257.16	5.36	-39.8	-41.0	20.7	0.00e+00	56	29	0	113246208	52	6420
2026-01-14 03:24:48.59	257.30	5.40	-39.9	-41.2	20.5	0.00e+00	90	29	0	115343360	52	6553
2026-01-14 03:24:49.60	257.43	5.43	-39.9	-41.2	20.5	0.00e+00	40	29	0	117440512	52	6587
2026-01-14 03:24:50.61	257.57	5.47	-40.1	-41.4	20.3	0.00e+00	92	29	0	119537664	52	6701
2026-01-14 03:24:51.62	257.70	5.50	-40.1	-41.4	20.3	0.00e+00	92	29	0	121634816	52	6716
2026-01-14 03:24:52.63	257.84	5.54	-40.2	-41.5	20.3	0.00e+00	92	29	0	122683392	52	6828
2026-01-14 03:24:53.64	257.98	5.58	-40.1	-41.4	20.2	0.00e+00	92	29	0	124780544	52	6767
2026-01-14 03:24:54.65	258.11	5.61	-40.3	-41.6	20.2	0.00e+00	0	29	0	126877696	52	6889
2026-01-14 03:24:55.66	258.25	5.65	-40.3	-41.7	20.1	0.00e+00	92	29	0	128974848	52	6928
2026-01-14 03:24:56.67	258.39	5.68	-40.0	-41.3	20.4	0.00e+00	0	29	0	131072000	52	6652
2026-01-14 03:24:57.68	258.52	5.72	-40.1	-41.4	20.3	0.00e+00	92	29	0	132120576	52	6746
2026-01-14 03:24:58.69	258.66	5.76	-40.2	-41.5	20.2	0.00e+00	92	29	0	134217728	52	6844
2026-01-14 03:24:59.70	258.80	5.79	-40.4	-41.8	19.9	0.00e+00	90	29	0	136314880	52	7011
2026-01-14 03:25:00.71	258.94	5.83	-40.4	-41.8	20.0	0.00e+00	90	29	0	138412032	52	7038
2026-01-14 03:25:01.72	259.08	5.86	-40.5	-41.9	19.7	0.00e+00	92	29	0	140509184	52	7146
2026-01-14 03:25:02.73	259.22	5.90	-40.4	-41.8	19.9	0.00e+00	90	29	0	141557760	52	7058
2026-01-14 03:25:03.74	259.36	5.93	-40.3	-41.7	20.2	0.00e+00	0	29	0	143654912	52	6931
2026-01-14 03:25:04.75	259.50	5.97	-40.2	-41.6	20.2	0.00e+00	92	29	0	145752064	52	6854
2026-01-14 03:25:05.76	259.64	6.00	-40.2	-41.5	20.3	0.00e+00	92	29	0	147849216	52	6820
2026-01-14 03:25:06.77	259.78	6.04	-40.1	-41.5	20.3	0.00e+00	92	29	0	149946368	52	6772
2026-01-14 03:25:07.78	259.92	6.07	-40.2	-41.5	20.2	0.00e+00	92	29	0	152043520	52	6839
2026-01-14 03:25:08.78	260.06	6.11	-40.3	-41.6	20.2	0.00e+00	92	29	0	153092096	52	6892
2026-01-14 03:25:09.79	260.20	6.14	-40.1	-41.4	20.4	0.00e+00	92	29	0	155189248	52	6734
2026-01-14 03:25:10.80	260.34	6.17	-40.2	-41.5	20.1	0.00e+00	29	29	0	157286400	52	6783
2026-01-14 03:25:11.81	260.48	6.21	-40.1	-41.3	20.4	0.00e+00	90	29	0	159383552	52	6692
2026-01-14 03:25:12.82	260.62	6.24	-40.2	-41.5	20.3	0.00e+00	48	29	0	161480704	52	6773
2026-01-14 03:25:13.83	260.77	6.28	-40.2	-41.5	20.3	0.00e+00	92	29	0	162529280	52	6826
2026-01-14 03:25:14.84	260.91	6.31	-40.1	-41.4	20.5	0.00e+00	92	29	0	164626432	52	6699
2026-01-14 03:25:15.85	261.05	6.34	-40.1	-41.3	20.4	0.00e+00	0	29	0	166723584	52	6691
2026-01-14 03:25:16.86	261.20	6.38	-40.1	-41.4	20.5	0.00e+00	90	29	0	168820736	52	6697
2026-01-14 03:25:17.87	261.34	6.41	-40.2	-41.5	20.3	0.00e+00	0	29	0	170917888	52	6771
2026-01-14 03:25:18.88	261.49	6.45	-40.2	-41.5	20.4	0.00e+00	92	29	0	171966464	52	6783
2026-01-14 03:25:19.89	261.63	6.48	-40.0	-41.2	20.5	0.00e+00	0	29	0	174063616	52	6612
2026-01-14 03:25:20.90	261.78	6.51	-39.9	-41.2	20.7	0.00e+00	92	29	0	176160768	52	6573
2026-01-14 03:25:21.91	261.92	6.55	-39.9	-41.2	20.6	0.00e+00	92	29	0	178257920	52	6552
2026-01-14 03:25:22.92	262.07	6.58	-39.9	-41.2	20.6	0.00e+00	92	29	0	180355072	52	6566
2026-01-14 03:25:23.93	262.21	6.61	-40.1	-41.4	20.4	0.00e+00	90	29	0	181403648	52	6722
2026-01-14 03:25:24.94	262.36	6.64	-40.1	-41.4	20.4	0.00e+00	58	29	0	183500800	52	6711
2026-01-14 03:25:25.95	262.50	6.68	-40.2	-41.5	20.3	0.00e+00	92	29	0	185597952	52	6792
2026-01-14 03:25:26.96	262.65	6.71	-40.0	-41.3	20.6	0.00e+00	20	29	0	187695104	52	6653
2026-01-14 03:25:27.97	262.80	6.74	-39.9	-41.1	20.7	0.00e+00	92	29	0	189792256	52	6517
2026-01-14 03:25:28.98	262.95	6.78	-39.9	-41.2	20.7	0.00e+00	74	29	0	190840832	52	6547
2026-01-14 03:25:29.99	263.09	6.81	-39.9	-41.2	20.6	0.00e+00	92	29	0	192937984	52	6554
2026-01-14 03:25:31.00	263.24	6.84	-39.8	-41.0	20.8	0.00e+00	91	29	0	195035136	52	6443
2026-01-14 03:25:32.01	263.39	6.87	-39.8	-41.0	20.7	0.00e+00	19	29	0	197132288	52	6420
2026-01-14 03:25:33.02	263.54	6.90	-39.7	-40.9	20.9	0.00e+00	92	29	0	199229440	52	6340
2026-01-14 03:25:34.03	263.69	6.94	-39.7	-40.9	21.0	0.00e+00	0	29	0	200278016	52	6344
2026-01-14 03:25:35.04	263.84	6.97	-39.7	-40.9	21.0	0.00e+00	90	29	0	202375168	52	6360
2026-01-14 03:25:36.05	263.99	7.00	-39.7	-40.9	20.9	0.00e+00	75	29	0	204472320	52	6362
2026-01-14 03:25:37.06	264.14	7.03	-39.8	-41.0	20.8	0.00e+00	90	29	0	206569472	52	6435
2026-01-14 03:25:38.07	264.29	7.06	-39.9	-41.1	20.8	0.00e+00	92	29	0	208666624	52	6493
2026-01-14 03:25:39.08	264.44	7.09	-39.9	-41.2	20.6	0.00e+00	0	29	0	209715200	52	6572
2026-01-14 03:25:40.09	264.59	7.12	-45.5	-49.0	17.5	2.66e-01	90	29	0	211812352	60	10229
2026-01-14 03:25:41.09	264.74	7.15	-40.5	-41.8	19.6	3.00e-06	0	29	0	213909504	54	6290
2026-01-14 03:25:42.10	264.89	7.19	-40.2	-41.5	20.6	0.00e+00	92	29	0	216006656	54	6060
2026-01-14 03:25:43.11	265.04	7.22	-40.1	-41.4	20.5	0.00e+00	0	29	0	218103808	54	5981
2026-01-14 03:25:44.12	265.19	7.25	-40.1	-41.4	20.6	0.00e+00	92	29	0	219152384	54	5971
2026-01-14 03:25:45.13	265.35	7.28	-39.9	-41.2	20.7	0.00e+00	90	29	0	221249536	54	5831
2026-01-14 03:25:46.14	265.50	7.31	-40.0	-41.3	20.6	0.00e+00	92	29	0	223346688	54	5910
2026-01-14 03:25:47.15	265.65	7.34	-39.9	-41.2	20.7	0.00e+00	92	29	0	225443840	54	5829
2026-01-14 03:25:48.16	265.81	7.37	-39.9	-41.1	20.8	0.00e+00	58	29	0	227540992	54	5821
2026-01-14 03:25:49.17	265.96	7.40	-40.0	-41.2	20.6	0.00e+00	92	29	0	228589568	54	5884
2026-01-14 03:25:50.18	266.11	7.43	-40.1	-41.4	20.6	0.00e+00	29	29	0	230686720	54	5974
2026-01-14 03:25:51.19	266.27	7.46	-40.0	-41.3	20.6	0.00e+00	92	29	0	232783872	54	5924
2026-01-14 03:25:52.19	266.42	7.49	-40.1	-41.3	20.5	0.00e+00	91	29	0	234881024	54	5947
2026-01-14 03:25:53.20	266.58	7.52	-40.1	-41.4	20.5	0.00e+00	91	29	0	236978176	54	5991
2026-01-14 03:25:54.22	266.73	7.54	-40.0	-41.2	20.7	0.00e+00	92	29	0	238026752	54	5872
2026-01-14 03:25:55.22	266.89	7.57	-39.9	-41.2	20.7	0.00e+00	7	29	0	240123904	54	5853
2026-01-14 03:25:56.23	267.04	7.60	-40.0	-41.2	20.7	0.00e+00	92	29	0	242221056	54	5862
2026-01-14 03:25:57.24	267.20	7.63	-40.0	-41.2	20.7	0.00e+00	8	29	0	244318208	54	5874
2026-01-14 03:25:58.25	267.35	7.66	-40.1	-41.3	20.6	0.00e+00	90	29	0	246415360	54	5960
2026-01-14 03:25:59.26	267.51	7.69	-40.1	-41.4	20.5	0.00e+00	47	29	0	248512512	54	5976
2026-01-14 03:26:00.27	267.67	7.72	-40.2	-41.5	20.5	0.00e+00	92	29	0	249561088	54	6065
2026-01-14 03:26:01.28	267.82	7.74	-40.1	-41.4	20.5	0.00e+00	92	29	0	251658240	54	5995
2026-01-14 03:26:02.29	267.98	7.77	-40.2	-41.5	20.4	0.00e+00	73	29	0	253755392	54	6077
2026-01-14 03:26:03.30	268.14	7.80	-40.2	-41.4	20.5	0.00e+00	92	29	0	255852544	54	6026
2026-01-14 03:26:04.31	268.30	7.83	-40.2	-41.5	20.4	0.00e+00	0	29	0	257949696	54	6093
2026-01-14 03:26:05.32	268.46	7.85	-40.2	-41.5	20.4	0.00e+00	92	29	0	258998272	54	6080
2026-01-14 03:26:06.33	268.62	7.88	-40.3	-41.6	20.4	0.00e+00	0	29	0	261095424	54	6105
2026-01-14 03:26:07.34	268.77	7.91	-40.3	-41.6	20.4	0.00e+00	90	29	0	263192576	54	6131
2026-01-14 03:26:08.35	268.93	7.94	-40.3	-41.6	20.3	0.00e+00	92	29	0	265289728	54	6154
2026-01-14 03:26:09.36	269.09	7.96	-40.4	-41.7	20.3	0.00e+00	92	29	0	267386880	54	6180
2026-01-14 03:26:10.37	269.25	7.99	-40.4	-41.7	20.2	0.00e+00	92	29	0	268435456	54	6188
2026-01-14 03:26:11.38	269.41	8.02	-40.4	-41.7	20.0	0.00e+00	0	29	0	270532608	54	6226
2026-01-14 03:26:12.39	269.57	8.04	-40.3	-41.6	20.3	0.00e+00	90	29	0	272629760	54	6158
2026-01-14 03:26:13.40	269.73	8.07	-40.4	-41.7	20.2	0.00e+00	24	29	0	274726912	54	6239
2026-01-14 03:26:14.40	269.89	8.09	-40.3	-41.6	20.4	0.00e+00	92	29	0	276824064	54	6113
2026-01-14 03:26:15.41	270.05	8.12	-40.2	-41.5	20.5	0.00e+00	92	29	0	277872640	54	6077
2026-01-14 03:26:16.42	270.22	8.15	-40.3	-41.6	20.4	0.00e+00	92	29	0	279969792	54	6106
2026-01-14 03:26:17.43	270.38	8.17	-40.1	-41.4	20.6	0.00e+00	92	29	0	282066944	54	5972
2026-01-14 03:26:18.44	270.54	8.20	-40.1	-41.4	20.5	0.00e+00	11	29	0	284164096	54	5997
2026-01-14 03:26:19.46	270.70	8.22	-40.0	-41.3	20.7	0.00e+00	92	29	0	286261248	54	5902
2026-01-14 03:26:20.47	270.87	8.25	-40.0	-41.2	20.8	0.00e+00	0	29	0	287309824	54	5887
2026-01-14 03:26:21.48	271.03	8.27	-40.1	-41.3	20.6	0.00e+00	92	29	0	289406976	54	5933
2026-01-14 03:26:22.49	271.19	8.30	-39.9	-41.1	20.8	0.00e+00	27	29	0	291504128	54	5828
2026-01-14 03:26:23.50	271.35	8.32	-40.0	-41.2	20.7	0.00e+00	92	29	0	293601280	54	5859
2026-01-14 03:26:24.50	271.52	8.35	-40.0	-41.2	20.7	0.00e+00	92	29	0	295698432	54	5873
2026-01-14 03:26:25.51	271.68	8.37	-40.1	-41.4	20.5	0.00e+00	91	29	0	296747008	54	5992
2026-01-14 03:26:26.52	271.84	8.39	-40.2	-41.5	20.4	0.00e+00	92	29	0	298844160	54	6059
2026-01-14 03:26:27.53	272.01	8.42	-40.3	-41.6	20.4	0.00e+00	0	29	0	300941312	54	6113
2026-01-14 03:26:28.54	272.17	8.44	-40.4	-41.7	20.3	0.00e+00	92	29	0	303038464	54	6216
2026-01-14 03:26:29.55	272.34	8.47	-40.4	-41.8	20.2	0.00e+00	52	29	0	305135616	54	6257
2026-01-14 03:26:30.56	272.50	8.49	-40.4	-41.7	20.3	0.00e+00	91	29	0	306184192	54	6186
2026-01-14 03:26:31.57	272.67	8.51	-40.5	-41.8	20.2	0.00e+00	92	29	0	308281344	54	6284
2026-01-14 03:26:32.58	272.83	8.53	-40.4	-41.7	20.3	0.00e+00	92	29	0	310378496	54	6188
2026-01-14 03:26:33.59	273.00	8.56	-40.2	-41.5	20.5	0.00e+00	92	29	0	312475648	54	6044
2026-01-14 03:26:34.60	273.17	8.58	-40.0	-41.3	20.7	0.00e+00	12	29	0	314572800	54	5912
2026-01-14 03:26:35.61	273.33	8.60	-39.9	-41.1	20.8	0.00e+00	90	29	0	316669952	54	5806
2026-01-14 03:26:36.62	273.50	8.62	-39.9	-41.1	20.9	0.00e+00	22	29	0	317718528	54	5766
2026-01-14 03:26:37.63	273.67	8.65	-39.9	-41.2	20.8	0.00e+00	92	29	0	319815680	54	5845
2026-01-14 03:26:38.64	273.83	8.67	-39.9	-41.1	20.9	0.00e+00	33	29	0	321912832	54	5795
2026-01-14 03:26:39.65	274.00	8.69	-39.9	-41.1	20.9	0.00e+00	92	29	0	324009984	54	5765
2026-01-14 03:26:40.66	274.17	8.71	-39.9	-41.2	20.8	0.00e+00	92	29	0	326107136	54	5832
2026-01-14 03:26:41.67	274.34	8.73	-40.1	-41.4	20.6	0.00e+00	0	29	0	327155712	54	6004
2026-01-14 03:26:42.67	274.50	8.75	-40.1	-41.3	20.7	0.00e+00	92	29	0	329252864	54	5954
2026-01-14 03:26:43.69	274.67	8.77	-40.1	-41.3	20.7	0.00e+00	0	29	0	331350016	54	5934
2026-01-14 03:26:44.69	274.84	8.79	-40.1	-41.3	20.7	0.00e+00	92	29	0	333447168	54	5932
2026-01-14 03:26:45.70	275.01	8.81	-40.2	-41.4	20.6	0.00e+00	65	29	0	335544320	54	6017
2026-01-14 03:26:46.71	275.18	8.83	-40.0	-41.3	20.7	0.00e+00	91	29	0	336592896	54	5919
2026-01-14 03:26:47.72	275.35	8.85	-40.2	-41.4	20.6	0.00e+00	92	29	0	338690048	54	6013
2026-01-14 03:26:48.73	275.51	8.87	-40.1	-41.4	20.6	0.00e+00	91	29	0	340787200	54	5981
2026-01-14 03:26:49.74	275.68	8.89	-39.9	-41.1	20.9	0.00e+00	91	29	0	342884352	54	5825
2026-01-14 03:26:50.75	275.85	8.91	-39.9	-41.1	21.0	0.00e+00	19	29	0	344981504	54	5787
2026-01-14 03:26:51.76	276.02	8.93	-40.0	-41.2	20.7	0.00e+00	92	29	0	346030080	54	5867
2026-01-14 03:26:52.77	276.19	8.95	-39.8	-41.0	21.0	0.00e+00	56	29	0	348127232	54	5736
2026-01-14 03:26:53.78	276.36	8.97	-39.8	-41.1	20.9	0.00e+00	92	29	0	350224384	54	5767
2026-01-14 03:26:54.79	276.54	8.99	-39.9	-41.1	20.9	0.00e+00	92	29	0	352321536	54	5795
2026-01-14 03:26:55.80	276.71	9.01	-39.9	-41.1	20.9	0.00e+00	92	29	0	354418688	54	5798
2026-01-14 03:26:56.81	276.88	9.03	-39.9	-41.2	20.8	0.00e+00	92	29	0	355467264	54	5830
2026-01-14 03:26:57.82	277.05	9.04	-39.9	-41.1	20.8	0.00e+00	28	29	0	357564416	54	5828
2026-01-14 03:26:58.83	277.22	9.06	-39.8	-41.0	21.0	0.00e+00	92	29	0	359661568	54	5745
2026-01-14 03:26:59.84	277.39	9.08	-39.8	-41.0	21.0	0.00e+00	8	29	0	361758720	54	5723
2026-01-14 03:27:00.85	277.56	9.10	-39.8	-41.0	20.9	0.00e+00	92	29	0	363855872	54	5750
2026-01-14 03:27:01.86	277.74	9.11	-39.9	-41.1	21.0	0.00e+00	89	29	0	364904448	54	5776
2026-01-14 03:27:02.87	277.91	9.13	-39.8	-41.0	21.0	0.00e+00	92	29	0	367001600	54	5754
2026-01-14 03:27:03.89	278.08	9.15	-39.8	-41.0	21.0	0.00e+00	90	29	0	369098752	54	5731
2026-01-14 03:27:04.90	278.25	9.16	-39.8	-40.9	21.0	0.00e+00	0	29	0	371195904	54	5692
2026-01-14 03:27:05.90	278.43	9.18	-39.8	-41.0	21.0	0.00e+00	90	29	0	373293056	52	6443
2026-01-14 03:27:06.92	278.60	9.20	-39.7	-40.9	21.1	0.00e+00	4	29	0	374341632	52	6371
2026-01-14 03:27:07.93	278.77	9.21	-39.7	-40.9	21.1	0.00e+00	90	29	0	376438784	52	6358
2026-01-14 03:27:08.94	278.95	9.23	-39.8	-41.0	21.0	0.00e+00	64	29	0	378535936	52	6408
2026-01-14 03:27:09.95	279.12	9.24	-39.8	-41.0	21.0	0.00e+00	90	29	0	380633088	52	6411
2026-01-14 03:27:10.96	279.29	9.26	-39.8	-41.0	21.0	0.00e+00	92	29	0	382730240	52	6434
2026-01-14 03:27:11.97	279.47	9.27	-39.8	-41.0	21.1	0.00e+00	58	29	0	384827392	52	6440
2026-01-14 03:27:12.98	279.64	9.29	-39.9	-41.1	21.0	0.00e+00	92	29	0	385875968	52	6473
2026-01-14 03:27:13.99	279.82	9.30	-40.0	-41.3	20.8	0.00e+00	17	29	0	387973120	52	6635
2026-01-14 03:27:15.00	279.99	9.32	-40.0	-41.2	20.9	0.00e+00	92	29	0	390070272	52	6590
2026-01-14 03:27:16.01	280.17	9.33	-40.0	-41.2	20.8	0.00e+00	0	29	0	392167424	52	6550
2026-01-14 03:27:17.02	280.34	9.34	-40.1	-41.3	20.8	0.00e+00	92	29	0	394264576	52	6688
2026-01-14 03:27:18.03	280.51	9.36	-40.0	-41.2	20.8	0.00e+00	92	29	0	395313152	52	6582
2026-01-14 03:27:19.04	280.69	9.37	-39.9	-41.1	20.9	0.00e+00	92	29	0	397410304	52	6533
2026-01-14 03:27:20.05	280.86	9.38	-40.0	-41.3	20.8	0.00e+00	92	29	0	399507456	52	6637
2026-01-14 03:27:21.06	281.04	9.40	-40.0	-41.2	20.9	0.00e+00	0	29	0	401604608	52	6588
2026-01-14 03:27:22.07	281.22	9.41	-40.1	-41.4	20.7	0.00e+00	90	29	0	403701760	52	6699
2026-01-14 03:27:23.08	281.39	9.42	-40.1	-41.3	20.8	0.00e+00	7	29	0	404750336	52	6674
2026-01-14 03:27:24.09	281.57	9.43	-40.1	-41.3	20.7	0.00e+00	90	29	0	406847488	52	6685
2026-01-14 03:27:25.10	281.74	9.45	-40.1	-41.4	20.7	0.00e+00	92	29	0	408944640	52	6696
2026-01-14 03:27:26.11	281.92	9.46	-40.0	-41.2	20.8	0.00e+00	90	29	0	411041792	52	6610
2026-01-14 03:27:27.12	282.09	9.47	-40.0	-41.2	20.8	0.00e+00	92	29	0	413138944	52	6590
2026-01-14 03:27:28.13	282.27	9.48	-40.2	-41.4	20.7	0.00e+00	62	29	0	414187520	52	6750
2026-01-14 03:27:29.14	282.45	9.49	-40.2	-41.4	20.6	0.00e+00	90	29	0	416284672	52	6753
2026-01-14 03:27:30.16	282.63	9.50	-40.3	-41.5	20.6	0.00e+00	0	29	0	418381824	52	6838
2026-01-14 03:27:31.17	282.80	9.51	-40.3	-41.6	20.5	0.00e+00	92	29	0	420478976	52	6860
2026-01-14 03:27:32.18	282.98	9.53	-40.6	-41.9	20.2	0.00e+00	43	29	0	422576128	52	7134
2026-01-14 03:27:33.18	283.15	9.54	-40.7	-42.0	20.0	0.00e+00	92	29	0	423624704	52	7203
2026-01-14 03:27:34.19	283.33	9.55	-40.7	-42.0	20.1	0.00e+00	90	29	0	425721856	52	7204
2026-01-14 03:27:35.20	283.51	9.55	-40.7	-42.1	20.0	0.00e+00	92	29	0	427819008	54	6513
2026-01-14 03:27:36.22	283.69	9.56	-40.7	-42.1	20.0	0.00e+00	90	29	0	429916160	54	6471
2026-01-14 03:27:37.23	283.86	9.57	-40.8	-42.1	20.0	0.00e+00	8	29	0	432013312	54	6539
2026-01-14 03:27:38.24	284.04	9.58	-40.8	-42.2	19.9	0.00e+00	92	29	0	433061888	54	6572
2026-01-14 03:27:39.25	284.22	9.59	-40.9	-42.3	19.8	0.00e+00	2	29	0	435159040	54	6636
2026-01-14 03:27:40.26	284.40	9.60	-41.0	-42.4	19.6	0.00e+00	92	29	0	437256192	54	6750
2026-01-14 03:27:41.27	284.57	9.61	-41.1	-42.5	19.6	0.00e+00	90	29	0	439353344	54	6805
2026-01-14 03:27:42.28	284.75	9.62	-41.1	-42.6	19.5	0.00e+00	92	29	0	441450496	54	6869
2026-01-14 03:27:43.29	284.93	9.62	-41.0	-42.4	19.6	0.00e+00	92	29	0	442499072	54	6748
2026-01-14 03:27:44.30	285.11	9.63	-41.0	-42.4	19.7	0.00e+00	58	29	0	444596224	54	6711
2026-01-14 03:27:45.31	285.29	9.64	-41.0	-42.4	19.7	0.00e+00	92	29	0	446693376	54	6701
2026-01-14 03:27:46.32	285.46	9.65	-40.8	-42.1	20.0	0.00e+00	2	29	0	448790528	54	6535
2026-01-14 03:27:47.33	285.64	9.65	-40.6	-42.0	20.1	0.00e+00	92	29	0	450887680	54	6393
2026-01-14 03:27:48.34	285.82	9.66	-40.6	-41.9	20.2	0.00e+00	90	29	0	452984832	54	6342
2026-01-14 03:27:49.35	286.00	9.67	-40.6	-41.9	20.1	0.00e+00	92	29	0	454033408	54	6373
2026-01-14 03:27:50.36	286.18	9.67	-40.6	-41.9	20.2	0.00e+00	92	29	0	456130560	54	6358
2026-01-14 03:27:51.37	286.36	9.68	-40.6	-41.9	20.1	0.00e+00	63	29	0	458227712	54	6380
2026-01-14 03:27:52.38	286.54	9.68	-40.6	-41.9	20.2	0.00e+00	90	29	0	460324864	54	6343
2026-01-14 03:27:53.39	286.71	9.69	-40.7	-42.0	20.0	0.00e+00	19	29	0	462422016	54	6455
2026-01-14 03:27:54.40	286.89	9.69	-40.9	-42.3	19.8	0.00e+00	92	29	0	463470592	54	6639
2026-01-14 03:27:55.41	287.07	9.70	-41.0	-42.4	19.7	0.00e+00	44	28	0	465567744	54	6735
2026-01-14 03:27:56.41	287.25	9.70	-41.1	-42.6	19.5	0.00e+00	92	29	0	467664896	54	6871
2026-01-14 03:27:57.42	287.43	9.71	-41.0	-42.4	19.7	0.00e+00	92	29	0	469762048	54	6737
2026-01-14 03:27:58.43	287.61	9.71	-40.9	-42.3	19.9	0.00e+00	92	29	0	471859200	54	6639
2026-01-14 03:27:59.44	287.79	9.72	-40.8	-42.2	19.9	0.00e+00	92	29	0	472907776	54	6581
2026-01-14 03:28:00.45	287.96	9.72	-40.5	-41.8	20.3	0.00e+00	7	29	0	475004928	54	6313
2026-01-14 03:28:01.46	288.14	9.72	-40.5	-41.8	20.2	0.00e+00	92	29	0	477102080	54	6297
2026-01-14 03:28:02.47	288.32	9.73	-40.4	-41.7	20.3	0.00e+00	12	29	0	479199232	54	6238
2026-01-14 03:28:03.48	288.50	9.73	-40.4	-41.7	20.4	0.00e+00	92	29	0	481296384	54	6223
2026-01-14 03:28:04.49	288.68	9.73	-40.5	-41.8	20.3	0.00e+00	92	29	0	482344960	54	6268
2026-01-14 03:28:05.50	288.86	9.74	-40.3	-41.6	20.4	0.00e+00	91	29	0	484442112	54	6136
2026-01-14 03:28:06.51	289.04	9.74	-40.4	-41.7	20.3	0.00e+00	92	29	0	486539264	54	6232
2026-01-14 03:28:07.52	289.22	9.74	-40.4	-41.6	20.6	0.00e+00	0	29	0	488636416	54	6173
2026-01-14 03:28:08.53	289.40	9.74	-40.2	-41.5	20.6	0.00e+00	92	29	0	490733568	54	6069
2026-01-14 03:28:09.53	289.57	9.74	-40.2	-41.5	20.6	0.00e+00	0	29	0	491782144	54	6064
2026-01-14 03:28:10.54	289.75	9.74	-40.2	-41.4	20.6	0.00e+00	92	29	0	493879296	54	6013
2026-01-14 03:28:11.56	289.94	9.75	-40.2	-41.5	20.5	0.00e+00	90	29	0	495976448	54	6075
2026-01-14 03:28:12.57	290.11	9.75	-40.3	-41.6	20.4	0.00e+00	92	29	0	498073600	54	6164
2026-01-14 03:28:13.58	290.29	9.75	-40.3	-41.5	20.6	0.00e+00	90	29	0	500170752	54	6101
2026-01-14 03:28:14.58	290.47	9.75	-40.2	-41.5	20.5	0.00e+00	56	29	0	501219328	54	6080
2026-01-14 03:28:15.59	290.65	9.75	-40.3	-41.5	20.5	0.00e+00	90	29	0	503316480	54	6082
2026-01-14 03:28:16.60	290.83	9.75	-40.3	-41.5	20.6	0.00e+00	22	29	0	505413632	54	6096
2026-01-14 03:28:17.61	291.01	9.75	-40.2	-41.4	20.6	0.00e+00	92	29	0	507510784	54	6028
2026-01-14 03:28:18.62	291.19	9.75	-40.3	-41.5	20.5	0.00e+00	45	29	0	509607936	54	6103
2026-01-14 03:28:19.63	291.37	9.75	-40.2	-41.5	20.4	0.00e+00	13	29	0	510656512	54	6075
2026-01-14 03:28:20.64	291.55	9.74	-40.1	-41.4	20.7	0.00e+00	92	29	0	512753664	54	5973
2026-01-14 03:28:21.65	291.73	9.74	-39.9	-41.1	20.8	0.00e+00	7	29	0	514850816	54	5825
2026-01-14 03:28:22.66	291.91	9.74	-39.9	-41.1	21.0	0.00e+00	92	29	0	516947968	54	5772
2026-01-14 03:28:23.67	292.08	9.74	-39.7	-40.9	21.1	0.00e+00	0	29	0	519045120	52	6361
2026-01-14 03:28:24.68	292.26	9.74	-39.6	-40.8	21.3	0.00e+00	92	29	0	521142272	52	6255
2026-01-14 03:28:25.69	292.44	9.74	-39.6	-40.7	21.3	0.00e+00	0	29	0	522190848	52	6224
2026-01-14 03:28:26.70	292.62	9.73	-39.6	-40.7	21.3	0.00e+00	92	29	0	524288000	52	6244
2026-01-14 03:28:27.71	292.80	9.73	-39.4	-40.6	21.4	0.00e+00	90	28	0	526385152	52	6130
2026-01-14 03:28:28.72	292.98	9.73	-39.4	-40.6	21.5	0.00e+00	0	29	0	528482304	52	6106
2026-01-14 03:28:29.73	293.16	9.72	-39.5	-40.7	21.4	0.00e+00	92	29	0	530579456	52	6190
2026-01-14 03:28:30.74	293.34	9.72	-39.4	-40.6	21.4	0.00e+00	0	29	0	531628032	52	6112
2026-01-14 03:28:31.75	293.52	9.72	-39.6	-40.8	21.3	0.00e+00	92	29	0	533725184	52	6268
2026-01-14 03:28:32.77	293.70	9.71	-39.6	-40.7	21.4	0.00e+00	55	29	0	535822336	52	6217
2026-01-14 03:28:33.77	293.87	9.71	-39.6	-40.7	21.3	0.00e+00	92	29	0	537919488	52	6236
2026-01-14 03:28:34.79	294.06	9.70	-39.5	-40.6	21.4	0.00e+00	92	29	0	540016640	52	6154
2026-01-14 03:28:35.80	294.23	9.70	-39.4	-40.6	21.5	0.00e+00	0	29	0	541065216	52	6108
2026-01-14 03:28:36.81	294.41	9.69	-39.3	-40.4	21.7	0.00e+00	90	29	0	543162368	52	5980
2026-01-14 03:28:37.82	294.59	9.69	-39.3	-40.4	21.6	0.00e+00	7	29	0	545259520	52	6003
2026-01-14 03:28:38.83	294.77	9.68	-39.2	-40.3	21.8	0.00e+00	90	29	0	547356672	52	5912
2026-01-14 03:28:39.84	294.95	9.68	-38.9	-39.9	22.1	0.00e+00	30	29	0	549453824	52	5695
2026-01-14 03:28:40.85	295.13	9.67	-38.9	-40.0	22.1	0.00e+00	92	29	0	550502400	52	5699
2026-01-14 03:28:41.86	295.30	9.66	-38.8	-39.8	22.1	0.00e+00	67	29	0	552599552	52	5617
2026-01-14 03:28:42.87	295.48	9.66	-38.9	-39.9	22.1	0.00e+00	6	29	0	554696704	52	5691
2026-01-14 03:28:43.88	295.66	9.65	-39.0	-40.0	22.0	0.00e+00	91	29	0	556793856	52	5746
2026-01-14 03:28:44.89	295.84	9.64	-39.0	-40.0	22.0	0.00e+00	7	29	0	558891008	52	5744
2026-01-14 03:28:45.89	296.01	9.64	-39.0	-40.1	21.9	0.00e+00	92	29	0	560988160	52	5780
2026-01-14 03:28:46.90	296.19	9.63	-39.2	-40.3	21.7	0.00e+00	0	29	0	562036736	52	5919
2026-01-14 03:28:47.91	296.37	9.62	-39.1	-40.2	21.8	0.00e+00	92	29	0	564133888	52	5837
2026-01-14 03:28:48.92	296.55	9.61	-39.0	-40.1	21.9	0.00e+00	0	29	0	566231040	52	5812
2026-01-14 03:28:49.93	296.73	9.61	-39.1	-40.2	21.9	0.00e+00	92	29	0	568328192	52	5831
2026-01-14 03:28:50.95	296.90	9.60	-39.1	-40.1	21.9	0.00e+00	92	29	0	570425344	52	5826
2026-01-14 03:28:51.96	297.08	9.59	-39.0	-40.0	21.9	0.00e+00	56	29	0	571473920	52	5745
2026-01-14 03:28:52.96	297.26	9.58	-39.0	-40.1	21.9	0.00e+00	92	28	0	573571072	52	5812
2026-01-14 03:28:53.97	297.43	9.57	-39.0	-40.1	21.9	0.00e+00	19	29	0	575668224	52	5781
2026-01-14 03:28:54.98	297.61	9.56	-39.0	-40.1	21.9	0.00e+00	90	28	0	577765376	52	5780
2026-01-14 03:28:55.99	297.79	9.55	-39.0	-40.1	21.8	0.00e+00	63	29	0	578813952	52	5796
2026-01-14 03:28:57.00	297.97	9.54	-39.0	-40.0	22.0	0.00e+00	92	29	0	580911104	52	5754
2026-01-14 03:28:58.01	298.14	9.53	-38.8	-39.8	22.1	0.00e+00	90	29	0	583008256	52	5614
2026-01-14 03:28:59.02	298.32	9.52	-38.8	-39.9	22.0	0.00e+00	0	29	0	585105408	52	5659
2026-01-14 03:29:00.03	298.50	9.51	-38.9	-40.0	22.0	0.00e+00	90	29	0	587202560	52	5699
2026-01-14 03:29:01.04	298.67	9.50	-39.0	-40.0	22.0	0.00e+00	0	29	0	589299712	52	5750
2026-01-14 03:29:02.05	298.85	9.49	-39.1	-40.2	21.8	0.00e+00	92	29	0	590348288	52	5878
2026-01-14 03:29:03.06	299.02	9.48	-39.0	-40.0	22.0	0.00e+00	0	29	0	592445440	52	5745
2026-01-14 03:29:04.07	299.20	9.47	-39.1	-40.1	21.8	0.00e+00	92	29	0	594542592	52	5826
2026-01-14 03:29:05.08	299.38	9.46	-39.0	-40.0	21.9	0.00e+00	0	29	0	596639744	52	5753
2026-01-14 03:29:06.09	299.55	9.44	-39.0	-40.1	21.9	0.00e+00	0	29	0	598736896	52	5766
2026-01-14 03:29:07.10	299.73	9.43	-39.0	-40.1	21.9	0.00e+00	92	29	0	599785472	52	5777
2026-01-14 03:29:08.11	299.90	9.42	-38.9	-39.9	22.0	0.00e+00	63	29	0	601882624	52	5684
2026-01-14 03:29:09.12	300.08	9.41	-38.9	-39.9	22.0	0.00e+00	92	29	0	603979776	52	5688
2026-01-14 03:29:10.13	300.25	9.39	-38.9	-40.0	22.0	0.00e+00	0	28	0	606076928	52	5707
2026-01-14 03:29:11.14	300.43	9.38	-39.0	-40.0	22.0	0.00e+00	92	29	0	608174080	52	5742
2026-01-14 03:29:12.15	300.60	9.37	-39.0	-40.1	21.9	0.00e+00	0	29	0	609222656	52	5788
2026-01-14 03:29:13.16	300.78	9.36	-38.9	-40.0	22.0	0.00e+00	91	29	0	611319808	52	5742
2026-01-14 03:29:14.17	300.95	9.34	-39.1	-40.2	21.7	0.00e+00	91	29	0	613416960	52	5850
2026-01-14 03:29:15.18	301.13	9.33	-39.1	-40.2	21.9	0.00e+00	0	29	0	615514112	52	5850
2026-01-14 03:29:16.19	301.30	9.31	-39.2	-40.3	21.7	0.00e+00	91	29	0	617611264	52	5956
2026-01-14 03:29:17.20	301.47	9.30	-39.2	-40.3	21.7	0.00e+00	0	29	0	618659840	52	5902
2026-01-14 03:29:18.21	301.65	9.28	-39.3	-40.4	21.6	0.00e+00	92	29	0	620756992	52	6001
2026-01-14 03:29:19.22	301.82	9.27	-39.2	-40.3	21.7	0.00e+00	0	29	0	622854144	52	5948
2026-01-14 03:29:20.23	301.99	9.26	-39.3	-40.4	21.5	0.00e+00	92	29	0	624951296	52	6032
2026-01-14 03:29:21.24	302.17	9.24	-39.3	-40.4	21.6	0.00e+00	90	29	0	627048448	52	6008
2026-01-14 03:29:22.24	302.34	9.22	-39.4	-40.5	21.4	0.00e+00	0	29	0	629145600	52	6085
2026-01-14 03:29:23.26	302.51	9.21	-39.4	-40.6	21.4	0.00e+00	92	29	0	630194176	52	6129
2026-01-14 03:29:24.27	302.69	9.19	-39.5	-40.6	21.4	0.00e+00	0	29	0	632291328	52	6153
2026-01-14 03:29:25.28	302.86	9.18	-39.5	-40.6	21.4	0.00e+00	92	29	0	634388480	52	6160
2026-01-14 03:29:26.29	303.03	9.16	-39.6	-40.7	21.3	0.00e+00	0	29	0	636485632	52	6221
2026-01-14 03:29:27.30	303.20	9.14	-39.5	-40.6	21.4	0.00e+00	92	28	0	638582784	52	6155
2026-01-14 03:29:28.31	303.37	9.13	-39.4	-40.5	21.5	0.00e+00	6	28	0	639631360	52	6099
2026-01-14 03:29:29.32	303.55	9.11	-39.3	-40.5	21.5	0.00e+00	0	28	0	641728512	52	6044
2026-01-14 03:29:30.33	303.72	9.09	-39.4	-40.5	21.5	0.00e+00	90	29	0	643825664	52	6097
2026-01-14 03:29:31.34	303.89	9.08	-39.4	-40.6	21.4	0.00e+00	0	29	0	645922816	52	6125
2026-01-14 03:29:32.35	304.06	9.06	-39.5	-40.7	21.4	0.00e+00	92	29	0	648019968	52	6184
2026-01-14 03:29:33.36	304.23	9.04	-39.1	-40.2	21.9	0.00e+00	63	28	0	649068544	52	5839
2026-01-14 03:29:34.37	304.40	9.02	-39.2	-40.3	21.6	0.00e+00	92	28	0	651165696	52	5964
2026-01-14 03:29:35.38	304.57	9.00	-39.2	-40.3	21.6	0.00e+00	0	28	0	653262848	52	5922
2026-01-14 03:29:36.39	304.74	8.99	-39.3	-40.4	21.6	0.00e+00	71	28	0	655360000	52	5976
2026-01-14 03:29:37.40	304.91	8.97	-39.3	-40.4	21.6	0.00e+00	90	28	0	657457152	52	5989
2026-01-14 03:29:38.41	305.08	8.95	-39.3	-40.4	21.6	0.00e+00	5	29	0	658505728	52	6014
2026-01-14 03:29:39.42	305.25	8.93	-39.3	-40.4	21.5	0.00e+00	92	29	0	660602880	52	6012
2026-01-14 03:29:40.43	305.42	8.91	-39.4	-40.6	21.4	0.00e+00	6	29	0	662700032	52	6117
2026-01-14 03:29:41.44	305.59	8.89	-39.3	-40.5	21.5	0.00e+00	92	29	0	664797184	52	6053
2026-01-14 03:29:42.45	305.76	8.87	-39.4	-40.5	21.4	0.00e+00	0	29	0	666894336	52	6102
2026-01-14 03:29:43.46	305.93	8.85	-39.3	-40.4	21.5	0.00e+00	92	28	0	667942912	52	6005
2026-01-14 03:29:44.47	306.10	8.83	-39.2	-40.3	21.6	0.00e+00	92	29	0	670040064	52	5943
2026-01-14 03:29:45.48	306.27	8.81	-39.2	-40.3	21.7	0.00e+00	0	29	0	672137216	52	5949
2026-01-14 03:29:46.49	306.43	8.79	-39.1	-40.2	21.7	0.00e+00	92	28	0	674234368	52	5839
2026-01-14 03:29:47.50	306.60	8.77	-39.1	-40.2	21.8	0.00e+00	59	29	0	676331520	52	5833
2026-01-14 03:29:48.51	306.77	8.75	-39.0	-40.1	21.8	0.00e+00	92	28	0	677380096	52	5791
2026-01-14 03:29:49.51	306.94	8.73	-38.9	-40.0	21.9	0.00e+00	61	29	0	679477248	52	5726
2026-01-14 03:29:50.53	307.10	8.71	-38.8	-39.9	22.0	0.00e+00	92	28	0	681574400	52	5661
2026-01-14 03:29:51.54	307.27	8.69	-38.9	-40.0	21.9	0.00e+00	13	28	0	683671552	52	5720
2026-01-14 03:29:52.55	307.44	8.67	-38.8	-39.8	22.1	0.00e+00	61	28	0	685768704	52	5626
2026-01-14 03:29:53.56	307.60	8.64	-38.8	-39.8	22.0	0.00e+00	92	28	0	686817280	50	6303
2026-01-14 03:29:54.57	307.77	8.62	-38.7	-39.7	22.1	0.00e+00	61	28	0	688914432	50	6236
2026-01-14 03:29:55.58	307.94	8.60	-38.8	-39.8	22.0	0.00e+00	92	28	0	691011584	50	6292
2026-01-14 03:29:56.59	308.10	8.58	-38.7	-39.8	22.1	0.00e+00	25	28	0	693108736	50	6261
2026-01-14 03:29:57.60	308.27	8.56	-38.8	-39.9	22.0	0.00e+00	92	28	0	695205888	50	6348
2026-01-14 03:29:58.61	308.43	8.53	-38.7	-39.7	22.2	0.00e+00	0	29	0	697303040	50	6226
2026-01-14 03:29:59.62	308.60	8.51	-38.6	-39.6	22.2	0.00e+00	56	28	0	698351616	50	6138
2026-01-14 03:30:00.63	308.76	8.49	-38.8	-39.8	22.0	0.00e+00	92	28	0	700448768	50	6288
2026-01-14 03:30:01.64	308.93	8.46	-38.8	-39.8	22.1	0.00e+00	7	28	0	702545920	50	6292
2026-01-14 03:30:02.64	309.09	8.44	-38.8	-39.9	22.0	0.00e+00	96	28	0	704643072	50	6324
2026-01-14 03:30:03.65	309.25	8.42	-38.9	-40.0	21.9	0.00e+00	7	28	0	706740224	50	6420
2026-01-14 03:30:04.66	309.42	8.39	-38.9	-40.0	21.8	0.00e+00	90	28	0	707788800	50	6424
2026-01-14 03:30:05.67	309.58	8.37	-39.0	-40.0	21.8	0.00e+00	0	28	0	709885952	50	6459
2026-01-14 03:30:06.68	309.74	8.35	-38.8	-39.9	22.0	0.00e+00	9	28	0	711983104	50	6343
2026-01-14 03:30:07.69	309.91	8.32	-38.9	-40.0	21.9	0.00e+00	92	28	0	714080256	50	6424
2026-01-14 03:30:08.70	310.07	8.30	-39.0	-40.1	21.8	0.00e+00	62	28	0	716177408	50	6480
2026-01-14 03:30:09.71	310.23	8.27	-39.0	-40.1	21.7	0.00e+00	91	28	0	717225984	50	6495
2026-01-14 03:30:10.72	310.39	8.25	-39.1	-40.2	21.6	0.00e+00	0	28	0	719323136	50	6606
2026-01-14 03:30:11.73	310.56	8.22	-39.0	-40.1	21.7	0.00e+00	92	29	0	721420288	50	6522
2026-01-14 03:30:12.74	310.72	8.20	-38.9	-40.0	21.8	0.00e+00	0	28	0	723517440	50	6434
2026-01-14 03:30:13.75	310.88	8.17	-39.1	-40.2	21.6	0.00e+00	73	29	0	725614592	50	6552
2026-01-14 03:30:14.76	311.04	8.15	-38.9	-40.0	21.8	0.00e+00	61	28	0	726663168	50	6424
2026-01-14 03:30:15.77	311.20	8.12	-39.0	-40.0	21.7	0.00e+00	60	28	0	728760320	50	6464
2026-01-14 03:30:16.78	311.36	8.10	-38.8	-39.9	21.9	0.00e+00	92	28	0	730857472	50	6369
2026-01-14 03:30:17.79	311.52	8.07	-38.8	-39.9	21.9	0.00e+00	61	28	0	732954624	50	6356
2026-01-14 03:30:18.80	311.68	8.04	-38.6	-39.7	22.2	0.00e+00	92	28	0	735051776	50	6178
2026-01-14 03:30:19.82	311.84	8.02	-38.5	-39.6	22.1	0.00e+00	19	28	0	736100352	50	6111
2026-01-14 03:30:20.83	312.00	7.99	-38.5	-39.5	22.3	0.00e+00	92	28	0	738197504	50	6072
2026-01-14 03:30:21.83	312.16	7.96	-38.5	-39.5	22.2	0.00e+00	31	28	0	740294656	50	6046
2026-01-14 03:30:22.85	312.32	7.94	-38.6	-39.6	22.1	0.00e+00	0	29	0	742391808	50	6143
2026-01-14 03:30:23.86	312.48	7.91	-38.7	-39.8	22.0	0.00e+00	92	28	0	744488960	50	6255
2026-01-14 03:30:24.87	312.64	7.88	-38.9	-39.9	21.9	0.00e+00	0	29	0	745537536	50	6380
2026-01-14 03:30:25.88	312.80	7.86	-39.0	-40.1	21.8	0.00e+00	90	28	0	747634688	50	6476
2026-01-14 03:30:26.89	312.95	7.83	-39.2	-40.3	21.6	0.00e+00	0	29	0	749731840	50	6664
2026-01-14 03:30:27.90	313.11	7.80	-39.3	-40.5	21.3	0.00e+00	90	28	0	751828992	50	6795
2026-01-14 03:30:28.90	313.27	7.77	-39.5	-40.7	21.2	0.00e+00	0	28	0	753926144	50	6970
2026-01-14 03:30:29.91	313.42	7.75	-39.6	-40.8	21.1	0.00e+00	0	29	0	754974720	50	7041
2026-01-14 03:30:30.93	313.58	7.72	-39.7	-40.9	21.0	0.00e+00	92	29	0	757071872	52	6371
2026-01-14 03:30:31.94	313.74	7.69	-39.7	-40.9	21.0	0.00e+00	61	29	0	759169024	52	6319
2026-01-14 03:30:32.95	313.89	7.66	-39.7	-40.9	20.9	0.00e+00	91	29	0	761266176	52	6355
2026-01-14 03:30:33.95	314.05	7.63	-39.7	-40.9	20.8	0.00e+00	20	28	0	763363328	52	6367
2026-01-14 03:30:34.96	314.20	7.61	-39.7	-40.9	20.9	0.00e+00	90	28	0	765460480	52	6335
2026-01-14 03:30:35.97	314.36	7.58	-39.6	-40.8	21.1	0.00e+00	22	28	0	766509056	52	6297
2026-01-14 03:30:36.98	314.51	7.55	-39.4	-40.5	21.3	0.00e+00	92	28	0	768606208	52	6088
2026-01-14 03:30:37.99	314.67	7.52	-39.4	-40.6	21.3	0.00e+00	0	28	0	770703360	52	6126
2026-01-14 03:30:39.00	314.82	7.49	-39.4	-40.6	21.2	0.00e+00	2	28	0	772800512	52	6145
2026-01-14 03:30:40.01	314.97	7.46	-39.4	-40.6	21.2	0.00e+00	92	28	0	774897664	52	6135
2026-01-14 03:30:41.02	315.13	7.43	-39.6	-40.7	21.1	0.00e+00	0	28	0	775946240	52	6236
2026-01-14 03:30:42.03	315.28	7.40	-39.6	-40.8	21.0	0.00e+00	92	28	0	778043392	52	6309
2026-01-14 03:30:43.04	315.43	7.37	-39.7	-41.0	20.9	0.00e+00	0	28	0	780140544	52	6397
2026-01-14 03:30:44.05	315.59	7.34	-39.9	-41.1	20.7	0.00e+00	76	28	0	782237696	52	6522
2026-01-14 03:30:45.06	315.74	7.31	-39.9	-41.1	20.7	0.00e+00	9	28	0	784334848	52	6494
2026-01-14 03:30:46.07	315.89	7.28	-39.9	-41.2	20.7	0.00e+00	0	28	0	785383424	52	6558
2026-01-14 03:30:47.08	316.04	7.25	-39.9	-41.2	20.7	0.00e+00	92	28	0	787480576	52	6560
2026-01-14 03:30:48.09	316.19	7.22	-40.0	-41.3	20.6	0.00e+00	0	28	0	789577728	52	6650
2026-01-14 03:30:49.10	316.35	7.19	-40.2	-41.5	20.3	0.00e+00	92	28	0	791674880	52	6786
2026-01-14 03:30:50.11	316.50	7.16	-40.3	-41.6	20.3	0.00e+00	2	28	0	793772032	52	6857
2026-01-14 03:30:51.12	316.65	7.13	-40.5	-41.9	19.9	0.00e+00	92	28	0	794820608	52	7132
2026-01-14 03:30:52.13	316.80	7.10	-40.7	-42.1	19.7	0.00e+00	0	28	0	796917760	54	6534
2026-01-14 03:30:53.14	316.95	7.07	-41.0	-42.5	19.3	0.00e+00	61	28	0	799014912	54	6815
2026-01-14 03:30:54.15	317.10	7.04	-41.2	-42.8	19.1	0.00e+00	92	28	0	801112064	54	7011
2026-01-14 03:30:55.16	317.25	7.01	-41.4	-43.0	18.9	0.00e+00	20	28	0	803209216	54	7193
2026-01-14 03:30:56.17	317.39	6.97	-41.4	-42.9	18.9	0.00e+00	92	28	0	804257792	54	7166
2026-01-14 03:30:57.18	317.54	6.94	-41.3	-42.9	18.9	0.00e+00	20	28	0	806354944	54	7125
2026-01-14 03:30:58.19	317.69	6.91	-41.5	-43.1	18.8	0.00e+00	90	28	0	808452096	54	7270
2026-01-14 03:30:59.20	317.84	6.88	-41.2	-42.7	19.1	0.00e+00	0	28	0	810549248	54	7003
2026-01-14 03:31:00.21	317.99	6.85	-40.9	-42.4	19.4	0.00e+00	60	28	0	812646400	54	6750
2026-01-14 03:31:01.21	318.13	6.82	-40.9	-42.4	19.4	0.00e+00	20	28	0	813694976	54	6731
2026-01-14 03:31:02.22	318.28	6.78	-41.0	-42.5	19.3	0.00e+00	20	28	0	815792128	54	6774
2026-01-14 03:31:03.23	318.43	6.75	-40.9	-42.4	19.3	0.00e+00	92	28	0	817889280	54	6743
2026-01-14 03:31:04.24	318.57	6.72	-40.9	-42.3	19.5	0.00e+00	0	28	0	819986432	54	6663
2026-01-14 03:31:05.25	318.72	6.69	-40.8	-42.3	19.5	0.00e+00	91	28	0	822083584	54	6645
2026-01-14 03:31:06.26	318.87	6.66	-40.7	-42.1	19.6	0.00e+00	0	28	0	823132160	54	6529
2026-01-14 03:31:07.27	319.01	6.62	-40.7	-42.1	19.7	0.00e+00	0	28	0	825229312	54	6504
2026-01-14 03:31:08.28	319.16	6.59	-40.7	-42.1	19.6	0.00e+00	0	28	0	827326464	54	6520
2026-01-14 03:31:09.29	319.30	6.56	-40.5	-41.9	19.8	0.00e+00	0	28	0	829423616	54	6387
2026-01-14 03:31:10.30	319.45	6.52	-40.6	-42.0	19.7	0.00e+00	92	28	0	831520768	54	6455
2026-01-14 03:31:11.31	319.59	6.49	-40.8	-42.2	19.5	0.00e+00	0	28	0	833617920	54	6596
2026-01-14 03:31:12.32	319.73	6.46	-40.9	-42.3	19.4	0.00e+00	92	28	0	834666496	54	6691
2026-01-14 03:31:13.33	319.88	6.42	-41.1	-42.6	19.2	0.00e+00	0	29	0	836763648	54	6867
2026-01-14 03:31:14.34	320.02	6.39	-41.3	-42.9	18.9	0.00e+00	2	28	0	838860800	54	7099
2026-01-14 03:31:15.35	320.16	6.36	-41.6	-43.3	18.4	0.00e+00	0	28	0	840957952	54	7447
2026-01-14 03:31:16.36	320.31	6.32	-41.9	-43.6	18.3	0.00e+00	60	28	0	843055104	56	6879
2026-01-14 03:31:17.37	320.45	6.29	-42.1	-43.9	18.0	0.00e+00	92	28	0	844103680	56	7117
2026-01-14 03:31:18.38	320.59	6.26	-42.3	-44.1	17.8	0.00e+00	60	28	0	846200832	56	7333
2026-01-14 03:31:19.39	320.73	6.22	-42.3	-44.2	17.5	0.00e+00	92	28	0	848297984	56	7406
2026-01-14 03:31:20.40	320.87	6.19	-42.5	-44.4	17.4	0.00e+00	22	28	0	850395136	56	7563
2026-01-14 03:31:21.41	321.02	6.15	-42.6	-44.6	17.2	0.00e+00	5	28	0	852492288	56	7730
2026-01-14 03:31:22.42	321.16	6.12	-42.5	-44.4	17.4	0.00e+00	6	29	0	853540864	56	7578
2026-01-14 03:31:23.43	321.30	6.09	-42.5	-44.4	17.4	0.00e+00	0	28	0	855638016	56	7546
2026-01-14 03:31:24.44	321.44	6.05	-42.5	-44.4	17.3	0.00e+00	22	28	0	857735168	56	7588
2026-01-14 03:31:25.45	321.58	6.02	-42.5	-44.5	17.3	0.00e+00	5	28	0	859832320	56	7648
2026-01-14 03:31:26.46	321.72	5.98	-42.4	-44.3	17.5	0.00e+00	92	28	0	861929472	56	7464
2026-01-14 03:31:27.47	321.86	5.95	-42.4	-44.3	17.5	0.00e+00	6	28	0	862978048	56	7439
2026-01-14 03:31:28.48	321.99	5.91	-42.2	-44.0	17.7	0.00e+00	92	28	0	865075200	56	7237
2026-01-14 03:31:29.49	322.13	5.88	-42.1	-43.9	17.8	0.00e+00	7	28	0	867172352	56	7137
2026-01-14 03:31:30.50	322.27	5.84	-42.1	-43.9	17.9	0.00e+00	59	28	0	869269504	56	7133
2026-01-14 03:31:31.51	322.41	5.81	-42.0	-43.9	17.9	0.00e+00	5	28	0	871366656	56	7094
2026-01-14 03:31:32.52	322.55	5.77	-42.0	-43.7	18.0	0.00e+00	0	28	0	872415232	56	6990
2026-01-14 03:31:33.53	322.68	5.74	-41.9	-43.7	18.1	0.00e+00	91	28	0	874512384	56	6931
2026-01-14 03:31:34.54	322.82	5.70	-41.9	-43.6	18.1	0.00e+00	58	28	0	876609536	56	6888
2026-01-14 03:31:35.55	322.96	5.67	-41.8	-43.6	18.1	0.00e+00	91	28	0	878706688	56	6878
2026-01-14 03:31:36.56	323.09	5.63	-41.9	-43.7	18.1	0.00e+00	59	28	0	880803840	56	6938
2026-01-14 03:31:37.57	323.23	5.60	-41.9	-43.7	18.0	0.00e+00	5	28	0	881852416	56	6964
2026-01-14 03:31:38.58	323.36	5.56	-42.0	-43.8	18.0	0.00e+00	53	28	0	883949568	56	7032
2026-01-14 03:31:39.59	323.50	5.52	-42.0	-43.8	17.9	0.00e+00	59	28	0	886046720	56	7072
2026-01-14 03:31:40.60	323.63	5.49	-42.0	-43.8	17.9	0.00e+00	92	28	0	888143872	56	7076
2026-01-14 03:31:41.61	323.77	5.45	-42.0	-43.8	17.8	0.00e+00	26	28	0	890241024	56	7080
2026-01-14 03:31:42.62	323.90	5.42	-41.9	-43.7	18.0	0.00e+00	92	28	0	891289600	56	6955
2026-01-14 03:31:43.63	324.04	5.38	-41.9	-43.7	17.8	0.00e+00	29	28	0	893386752	56	6997
2026-01-14 03:31:44.64	324.17	5.34	-41.8	-43.6	18.0	0.00e+00	28	28	0	895483904	56	6885
2026-01-14 03:31:45.65	324.31	5.31	-41.8	-43.5	18.1	0.00e+00	7	28	0	897581056	56	6836
2026-01-14 03:31:46.66	324.44	5.27	-41.6	-43.3	18.3	0.00e+00	6	28	0	899678208	56	6682
2026-01-14 03:31:47.67	324.57	5.24	-41.6	-43.3	18.4	0.00e+00	90	28	0	900726784	56	6626
2026-01-14 03:31:48.68	324.70	5.20	-41.5	-43.1	18.5	0.00e+00	5	28	0	902823936	56	6516
2026-01-14 03:31:49.69	324.84	5.16	-41.5	-43.2	18.4	0.00e+00	92	28	0	904921088	56	6563
2026-01-14 03:31:50.70	324.97	5.13	-41.6	-43.2	18.4	0.00e+00	59	28	0	907018240	56	6614
2026-01-14 03:31:51.72	325.10	5.09	-41.7	-43.4	18.3	0.00e+00	74	28	0	909115392	56	6702
2026-01-14 03:31:52.72	325.23	5.05	-41.8	-43.6	18.0	0.00e+00	0	28	0	911212544	56	6868
2026-01-14 03:31:53.73	325.36	5.02	-42.0	-43.9	17.7	0.00e+00	0	28	0	912261120	56	7119
2026-01-14 03:31:54.74	325.49	4.98	-42.2	-44.1	17.5	0.00e+00	0	28	0	914358272	56	7288
2026-01-14 03:31:55.75	325.62	4.94	-42.3	-44.3	17.3	0.00e+00	22	28	0	916455424	56	7432
2026-01-14 03:31:56.76	325.75	4.91	-42.4	-44.4	17.3	0.00e+00	92	28	0	918552576	56	7533
2026-01-14 03:31:57.77	325.88	4.87	-42.4	-44.3	17.2	0.00e+00	60	28	0	920649728	56	7496
2026-01-14 03:31:58.78	326.01	4.83	-42.3	-44.3	17.4	0.00e+00	92	28	0	921698304	56	7423
2026-01-14 03:31:59.80	326.14	4.79	-42.1	-44.0	17.6	0.00e+00	23	28	0	923795456	56	7236
2026-01-14 03:32:00.81	326.27	4.76	-41.8	-43.6	17.9	0.00e+00	2	28	0	925892608	56	6922
2026-01-14 03:32:01.82	326.40	4.72	-41.6	-43.3	18.3	0.00e+00	23	28	0	927989760	56	6622
2026-01-14 03:32:02.82	326.52	4.68	-41.3	-43.0	18.5	0.00e+00	23	28	0	930086912	56	6431
2026-01-14 03:32:03.83	326.65	4.64	-41.4	-43.0	18.5	0.00e+00	90	28	0	931135488	56	6460
2026-01-14 03:32:04.85	326.78	4.61	-41.4	-43.0	18.6	0.00e+00	0	28	0	933232640	56	6439
2026-01-14 03:32:05.86	326.91	4.57	-41.1	-42.8	18.7	0.00e+00	90	28	0	935329792	56	6247
2026-01-14 03:32:06.87	327.03	4.53	-41.1	-42.8	18.7	0.00e+00	2	28	0	937426944	56	6257
2026-01-14 03:32:07.88	327.16	4.49	-41.2	-42.9	18.6	0.00e+00	0	28	0	939524096	56	6339
2026-01-14 03:32:08.88	327.29	4.46	-41.4	-43.1	18.5	0.00e+00	0	28	0	940572672	56	6465
2026-01-14 03:32:09.89	327.41	4.42	-41.4	-43.1	18.5	0.00e+00	0	28	0	942669824	56	6474
2026-01-14 03:32:10.90	327.54	4.38	-41.4	-43.0	18.4	0.00e+00	92	28	0	944766976	56	6463
2026-01-14 03:32:11.91	327.66	4.34	-41.3	-42.9	18.6	0.00e+00	57	28	0	946864128	56	6374
2026-01-14 03:32:12.92	327.79	4.30	-41.3	-43.0	18.5	0.00e+00	90	28	0	948961280	56	6432
2026-01-14 03:32:13.93	327.91	4.27	-41.3	-43.0	18.5	0.00e+00	59	28	0	950009856	56	6426
2026-01-14 03:32:14.94	328.04	4.23	-41.3	-43.0	18.4	0.00e+00	37	28	0	952107008	56	6413
2026-01-14 03:32:15.95	328.16	4.19	-41.3	-43.0	18.4	0.00e+00	58	28	0	954204160	56	6426
2026-01-14 03:32:16.96	328.28	4.15	-41.3	-43.0	18.4	0.00e+00	24	28	0	956301312	56	6450
2026-01-14 03:32:17.97	328.41	4.11	-41.3	-43.0	18.4	0.00e+00	0	28	0	958398464	56	6430
2026-01-14 03:32:18.97	328.53	4.08	-41.4	-43.1	18.3	0.00e+00	4	28	0	959447040	56	6511
2026-01-14 03:32:19.98	328.65	4.04	-41.1	-42.8	18.6	0.00e+00	92	28	0	961544192	56	6284
2026-01-14 03:32:21.00	328.78	4.00	-41.4	-43.1	18.3	0.00e+00	0	28	0	963641344	56	6498
2026-01-14 03:32:22.00	328.90	3.96	-41.3	-43.0	18.3	0.00e+00	92	28	0	965738496	56	6448
2026-01-14 03:32:23.02	329.02	3.92	-41.3	-43.0	18.4	0.00e+00	0	28	0	967835648	56	6432
2026-01-14 03:32:24.03	329.14	3.88	-41.3	-43.1	18.2	0.00e+00	0	28	0	968884224	56	6482
2026-01-14 03:32:25.03	329.26	3.84	-41.4	-43.1	18.1	0.00e+00	0	28	0	970981376	56	6524
2026-01-14 03:32:26.04	329.38	3.81	-41.4	-43.2	18.0	0.00e+00	0	28	0	973078528	56	6608
2026-01-14 03:32:27.06	329.50	3.77	-41.3	-43.1	18.1	0.00e+00	92	28	0	975175680	56	6477
2026-01-14 03:32:28.06	329.62	3.73	-41.3	-43.0	18.0	0.00e+00	0	28	0	977272832	56	6463
2026-01-14 03:32:29.07	329.74	3.69	-41.3	-43.1	17.9	0.00e+00	92	28	0	979369984	56	6529
2026-01-14 03:32:30.08	329.86	3.65	-41.2	-42.9	18.1	0.00e+00	0	28	0	980418560	56	6356
2026-01-14 03:32:31.09	329.98	3.61	-41.2	-42.9	18.1	0.00e+00	0	28	0	982515712	56	6381
2026-01-14 03:32:32.10	330.10	3.57	-41.0	-42.8	18.1	0.00e+00	49	28	0	984612864	56	6299
2026-01-14 03:32:33.11	330.22	3.53	-41.0	-42.7	18.2	0.00e+00	0	28	0	986710016	56	6245
2026-01-14 03:32:34.12	330.34	3.50	-41.0	-42.8	17.9	0.00e+00	92	28	0	988807168	56	6317
2026-01-14 03:32:35.13	330.46	3.46	-41.2	-43.1	17.6	0.00e+00	0	28	0	989855744	56	6496
2026-01-14 03:32:36.14	330.57	3.42	-41.3	-43.3	17.3	0.00e+00	92	28	0	991952896	56	6660
2026-01-14 03:32:37.15	330.69	3.38	-41.6	-43.7	16.8	0.00e+00	57	28	0	994050048	56	6942
2026-01-14 03:32:38.16	330.81	3.34	-41.9	-44.3	16.1	0.00e+00	23	28	0	996147200	56	7443
2026-01-14 03:32:39.17	330.93	3.30	-42.1	-44.6	15.6	0.00e+00	24	28	0	998244352	56	7742
2026-01-14 03:32:40.18	331.04	3.26	-42.4	-45.2	14.8	0.00e+00	60	28	0	999292928	56	8305
2026-01-14 03:32:41.19	331.16	3.22	-42.7	-45.8	13.8	0.00e+00	33	28	0	1001390080	56	8916
2026-01-14 03:32:42.20	331.27	3.18	-42.9	-46.6	12.8	5.03e-05	0	28	0	1003487232	58	8686
2026-01-14 03:32:43.21	331.39	3.14	-43.1	-47.3	11.7	2.97e-04	90	28	0	1005584384	58	9416
2026-01-14 03:32:44.22	331.51	3.10	-43.3	-48.2	10.3	1.70e-03	0	28	0	1007681536	58	10466
2026-01-14 03:32:45.23	331.62	3.06	-43.5	-49.1	8.8	9.85e-03	91	28	0	1008730112	58	11606
2026-01-14 03:32:46.24	331.74	3.02	-43.6	-50.5	7.5	9.17e-02	0	28	0	1010827264	58	13537
2026-01-14 03:32:47.25	331.85	2.99	-47.7	-62.8	3.6	1.51e+00	0	28	104	1011875840	60	49874
2026-01-14 03:32:48.26	331.96	2.95	-48.1	-63.3	3.6	1.51e+00	0	28	104	1011875840	60	52606
2026-01-14 03:32:49.27	332.08	2.91	-48.3	-63.5	3.6	1.51e+00	0	28	104	1011875840	60	53990
2026-01-14 03:32:50.28	332.19	2.87	-48.5	-63.6	3.6	1.51e+00	0	29	104	1011875840	60	54913
2026-01-14 03:32:51.29	332.31	2.83	-48.6	-63.7	3.6	1.51e+00	0	28	104	1011875840	60	55569
2026-01-14 03:32:52.30	332.42	2.79	-48.7	-63.8	3.6	1.51e+00	0	29	104	1011875840	60	55707
2026-01-14 03:32:53.31	332.53	2.75	-48.7	-63.9	3.6	1.51e+00	0	29	104	1011875840	60	56542
2026-01-14 03:32:54.32	332.64	2.71	-48.7	-63.9	3.6	1.51e+00	0	28	104	1011875840	60	56545
2026-01-14 03:32:55.33	332.76	2.67	-48.7	-63.9	3.6	1.51e+00	0	28	104	1011875840	60	56347
2026-01-14 03:32:56.34	332.87	2.63	-48.7	-63.9	3.6	1.51e+00	0	28	104	1011875840	60	56405
2026-01-14 03:32:57.35	332.98	2.59	-48.6	-63.8	3.6	1.51e+00	0	28	104	1011875840	60	56005
2026-01-14 03:32:58.36	333.09	2.55	-48.7	-63.9	3.6	1.51e+00	0	29	104	1011875840	60	56565
2026-01-14 03:32:59.37	333.20	2.51	-48.6	-63.8	3.6	1.51e+00	0	28	104	1011875840	60	56198
2026-01-14 03:33:00.38	333.31	2.47	-48.6	-63.7	3.6	1.51e+00	0	29	104	1011875840	60	55472
2026-01-14 03:33:01.39	333.42	2.43	-48.6	-63.7	3.6	1.51e+00	0	28	104	1011875840	60	55469
2026-01-14 03:33:02.40	333.53	2.39	-48.6	-63.8	3.6	1.51e+00	0	28	104	1011875840	60	55978
2026-01-14 03:33:03.41	333.64	2.35	-48.7	-63.9	3.6	1.51e+00	0	28	104	1011875840	60	56566
2026-01-14 03:33:04.42	333.75	2.31	-48.7	-63.8	3.6	1.51e+00	0	29	104	1011875840	60	56302
2026-01-14 03:33:05.43	333.86	2.27	-48.7	-63.8	3.6	1.51e+00	0	28	104	1011875840	60	56275
2026-01-14 03:33:06.44	333.97	2.23	-48.7	-63.8	3.6	1.51e+00	0	28	104	1011875840	60	56194
2026-01-14 03:33:07.45	334.08	2.19	-48.6	-63.8	3.6	1.51e+00	0	28	104	1011875840	60	56222
2026-01-14 03:33:08.47	334.19	2.15	-48.6	-63.8	3.6	1.51e+00	0	28	104	1011875840	60	56083
2026-01-14 03:33:09.48	334.30	2.11	-48.6	-63.8	3.6	1.51e+00	0	29	104	1011875840	60	56071
2026-01-14 03:33:10.49	334.41	2.07	-48.6	-63.8	3.6	1.51e+00	0	28	104	1011875840	60	56062
2026-01-14 03:33:11.49	334.51	2.03	-48.6	-63.8	3.6	1.51e+00	0	28	104	1011875840	60	56032
2026-01-14 03:33:12.50	334.62	1.99	-48.6	-63.8	3.6	1.51e+00	0	28	104	1011875840	60	55943
2026-01-14 03:33:13.51	334.73	1.95	-48.6	-63.8	3.6	1.51e+00	0	28	104	1011875840	60	55878
2026-01-14 03:33:14.52	334.84	1.91	-48.6	-63.8	3.6	1.51e+00	0	28	104	1011875840	60	55670
2026-01-14 03:33:15.53	334.94	1.87	-48.6	-63.7	3.6	1.51e+00	0	28	104	1011875840	60	55438
2026-01-14 03:33:16.54	335.05	1.83	-48.6	-63.8	3.6	1.51e+00	0	28	104	1011875840	60	56018
2026-01-14 03:33:17.55	335.15	1.79	-48.6	-63.7	3.6	1.51e+00	0	28	104	1011875840	60	55564
2026-01-14 03:33:18.56	335.26	1.75	-48.6	-63.8	3.6	1.51e+00	0	28	104	1011875840	60	55761
2026-01-14 03:33:19.57	335.37	1.71	-48.6	-63.7	3.6	1.51e+00	0	28	104	1011875840	60	55544
2026-01-14 03:33:20.58	335.47	1.67	-48.6	-63.7	3.6	1.51e+00	0	28	104	1011875840	60	55635
2026-01-14 03:33:21.59	335.58	1.63	-48.6	-63.8	3.6	1.51e+00	0	29	104	1011875840	60	55902
2026-01-14 03:33:22.60	335.68	1.59	-48.6	-63.7	3.6	1.51e+00	0	28	104	1011875840	60	55487
2026-01-14 03:33:23.61	335.78	1.55	-48.6	-63.7	3.6	1.51e+00	0	28	104	1011875840	60	55651
2026-01-14 03:33:24.62	335.89	1.50	-48.6	-63.8	3.6	1.51e+00	0	28	104	1011875840	60	55689
2026-01-14 03:33:25.63	335.99	1.46	-48.6	-63.7	3.6	1.51e+00	0	28	104	1011875840	60	55452
2026-01-14 03:33:26.64	336.10	1.42	-48.6	-63.8	3.6	1.51e+00	0	28	104	1011875840	60	55851
2026-01-14 03:33:27.65	336.20	1.38	-48.6	-63.8	3.6	1.51e+00	0	29	104	1011875840	60	55830
2026-01-14 03:33:28.66	336.30	1.34	-48.6	-63.8	3.6	1.51e+00	0	29	104	1011875840	60	55777
2026-01-14 03:33:29.67	336.41	1.30	-48.6	-63.8	3.6	1.51e+00	0	28	104	1011875840	60	55793
2026-01-14 03:33:30.68	336.51	1.26	-48.6	-63.8	3.6	1.51e+00	0	28	104	1011875840	60	55671
2026-01-14 03:33:31.69	336.61	1.22	-48.6	-63.8	3.6	1.51e+00	0	28	104	1011875840	60	55881
2026-01-14 03:33:32.70	336.71	1.18	-48.6	-63.7	3.6	1.51e+00	0	29	104	1011875840	60	55643
2026-01-14 03:33:33.71	336.81	1.14	-48.6	-63.7	3.6	1.51e+00	0	28	104	1011875840	60	55633
2026-01-14 03:33:34.72	336.92	1.10	-48.6	-63.7	3.6	1.51e+00	0	28	104	1011875840	60	55625
2026-01-14 03:33:35.73	337.02	1.06	-48.6	-63.7	3.6	1.51e+00	0	29	104	1011875840	60	55653
2026-01-14 03:33:36.74	337.12	1.02	-48.6	-63.7	3.6	1.51e+00	0	29	104	1011875840	60	55218
2026-01-14 03:33:37.75	337.22	0.98	-48.6	-63.7	3.6	1.51e+00	0	28	104	1011875840	60	55495
2026-01-14 03:33:38.76	337.32	0.94	-48.6	-63.7	3.6	1.51e+00	0	29	104	1011875840	60	55384
2026-01-14 03:33:39.77	337.42	0.90	-48.6	-63.7	3.6	1.51e+00	0	28	104	1011875840	60	55623
2026-01-14 03:33:40.78	337.52	0.86	-48.6	-63.7	3.6	1.51e+00	0	29	104	1011875840	60	55453
2026-01-14 03:33:41.79	337.62	0.82	-48.6	-63.7	3.6	1.51e+00	0	28	104	1011875840	60	55472
2026-01-14 03:33:42.80	337.72	0.78	-48.6	-63.7	3.6	1.51e+00	0	28	104	1011875840	60	55537
2026-01-14 03:33:43.81	337.82	0.73	-48.6	-63.7	3.6	1.51e+00	0	28	104	1011875840	60	55358
2026-01-14 03:33:44.82	337.92	0.69	-48.6	-63.7	3.6	1.51e+00	0	28	104	1011875840	60	55420
2026-01-14 03:33:45.83	338.02	0.65	-48.6	-63.7	3.6	1.51e+00	0	28	104	1011875840	60	55637
2026-01-14 03:33:46.84	338.11	0.61	-48.6	-63.7	3.6	1.51e+00	0	28	104	1011875840	60	55177
2026-01-14 03:33:47.85	338.21	0.57	-48.6	-63.7	3.6	1.51e+00	0	28	104	1011875840	60	55365
2026-01-14 03:33:48.86	338.31	0.53	-48.6	-63.7	3.6	1.51e+00	0	28	104	1011875840	60	55347
2026-01-14 03:33:49.87	338.41	0.49	-48.6	-63.7	3.6	1.51e+00	0	28	104	1011875840	60	55445
2026-01-14 03:33:50.88	338.50	0.45	-48.6	-63.7	3.6	1.51e+00	0	28	104	1011875840	60	55447
2026-01-14 03:33:51.89	338.60	0.41	-48.6	-63.7	3.6	1.51e+00	0	28	104	1011875840	60	55486
2026-01-14 03:33:52.90	338.70	0.37	-48.6	-63.7	3.6	1.51e+00	0	29	104	1011875840	60	55483
2026-01-14 03:33:53.91	338.80	0.33	-48.5	-63.7	3.6	1.51e+00	0	28	104	1011875840	60	55641
2026-01-14 03:33:54.92	338.89	0.29	-48.5	-63.7	3.6	1.51e+00	0	28	104	1011875840	60	55653
2026-01-14 03:33:55.93	338.99	0.25	-48.5	-63.7	3.6	1.51e+00	0	28	104	1011875840	60	55548
2026-01-14 03:33:56.94	339.08	0.21	-48.6	-63.7	3.6	1.51e+00	0	28	104	1011875840	60	55625
2026-01-14 03:33:57.95	339.18	0.16	-48.5	-63.7	3.6	1.51e+00	0	28	104	1011875840	60	55434
2026-01-14 03:33:58.96	339.28	0.12	-48.6	-63.7	3.6	1.51e+00	0	28	104	1011875840	60	55386
2026-01-14 03:33:59.97	339.37	0.08	-48.6	-63.7	3.6	1.51e+00	0	28	104	1011875840	60	55448
2026-01-14 03:34:00.98	339.47	0.04	-48.6	-63.7	3.6	1.51e+00	0	28	104	1011875840	60	55547
2026-01-14 03:34:01.99	339.56	0.00	-48.5	-63.7	3.6	1.51e+00	0	28	104	1011875840	60	55362

#Closed at: 2026-01-14 03:34:02
#Recorded file [1011 MB]: D:/lorett/data/35029_260114_152234.dat