passes_logs/2026/01/14/R4.6S_Anadyr/R4.6S_Anadyr__20260114_192251_FENGYUN_3D_rec.log

#Pass ID: 20260114_192251_FENGYUN 3D
#Satellite: FENGYUN 3D
#Configuration: FENGYUN 3D
#almurnet v.1.7.20251203
#Start time: 2026-01-14 19:22:53

#Version: 2.2.20231116
#Station: R4.6S_Anadyr
#Location: 177.4865 lon 64.73178 lat
#TLE: 1 43010U 17072A   26013.94640698 -.00000044  00000+0  88349-6 0  9999
#TLE: 2 43010  98.9934 345.7464 0002313 110.9627 249.1796 14.19695403423100

#Time	Az	El	Level	Level2	SNR	BER	BlckErr	Temp	State	Recorded	gain1	gain2
2026-01-14 19:22:53.51	31.57	0.12	-48.8	-63.7	3.5	1.51e+00	0	26	0	0	60	55261
2026-01-14 19:22:54.52	31.52	0.17	-48.7	-60.8	3.6	8.45e-01	0	27	104	0	60	39741
2026-01-14 19:22:55.53	31.46	0.22	-48.7	-60.9	3.6	8.46e-01	0	28	104	0	60	40039
2026-01-14 19:22:56.54	31.40	0.28	-48.7	-60.9	3.6	8.46e-01	0	27	104	0	60	39996
2026-01-14 19:22:57.55	31.35	0.33	-48.8	-60.9	3.6	8.46e-01	0	27	104	0	60	40200
2026-01-14 19:22:58.55	31.29	0.39	-48.8	-60.9	3.6	8.45e-01	0	27	104	0	60	39873
2026-01-14 19:22:59.57	31.23	0.44	-48.8	-60.9	3.6	8.46e-01	0	28	104	0	60	39983
2026-01-14 19:23:00.57	31.17	0.50	-48.7	-60.8	3.6	8.45e-01	0	28	104	0	60	39799
2026-01-14 19:23:01.59	31.12	0.55	-48.6	-60.7	3.6	8.45e-01	0	28	104	0	60	39247
2026-01-14 19:23:02.59	31.06	0.61	-48.5	-60.7	3.6	8.45e-01	0	28	104	0	60	39021
2026-01-14 19:23:03.60	31.00	0.66	-48.4	-60.5	3.6	8.45e-01	0	28	104	0	60	38380
2026-01-14 19:23:04.61	30.94	0.72	-48.3	-60.4	3.6	8.45e-01	0	28	104	0	60	37898
2026-01-14 19:23:05.62	30.88	0.77	-48.2	-60.3	3.6	8.46e-01	0	28	104	0	60	37517
2026-01-14 19:23:06.63	30.82	0.83	-48.0	-60.1	3.6	8.44e-01	0	28	104	0	60	36656
2026-01-14 19:23:07.64	30.76	0.88	-47.8	-59.8	3.6	8.45e-01	0	28	104	0	60	35393
2026-01-14 19:23:08.65	30.70	0.94	-47.4	-59.5	3.6	8.45e-01	0	28	104	0	60	33952
2026-01-14 19:23:09.66	30.64	1.00	-47.1	-59.1	3.6	8.45e-01	0	28	104	0	60	32553
2026-01-14 19:23:10.67	30.58	1.05	-47.1	-59.0	3.6	8.45e-01	0	28	104	0	60	32249
2026-01-14 19:23:11.68	30.52	1.11	-47.1	-59.0	3.6	8.45e-01	0	28	104	0	60	32395
2026-01-14 19:23:12.69	30.46	1.16	-47.1	-59.0	3.6	8.46e-01	0	28	104	0	60	32291
2026-01-14 19:23:13.70	30.40	1.22	-47.1	-59.0	3.6	8.45e-01	0	28	104	0	60	32267
2026-01-14 19:23:14.71	30.34	1.27	-47.1	-59.1	3.6	8.46e-01	0	28	104	0	60	32431
2026-01-14 19:23:15.72	30.28	1.33	-47.1	-59.0	3.6	8.46e-01	0	28	104	0	60	32320
2026-01-14 19:23:16.73	30.22	1.39	-47.0	-59.0	3.6	8.44e-01	0	28	104	0	60	32306
2026-01-14 19:23:17.74	30.16	1.44	-47.0	-59.0	3.5	8.46e-01	0	28	104	0	60	32155
2026-01-14 19:23:18.75	30.09	1.50	-47.0	-59.0	3.6	8.45e-01	0	28	104	0	60	32142
2026-01-14 19:23:19.76	30.03	1.56	-47.1	-59.0	3.6	8.45e-01	0	28	104	0	60	32365
2026-01-14 19:23:20.77	29.97	1.61	-47.0	-59.1	3.6	8.45e-01	0	28	104	0	60	32430
2026-01-14 19:23:21.77	29.91	1.67	-47.1	-59.1	3.6	8.46e-01	0	28	104	0	60	32654
2026-01-14 19:23:22.78	29.84	1.72	-47.0	-59.1	3.6	8.46e-01	0	28	104	0	60	32724
2026-01-14 19:23:23.79	29.78	1.78	-47.1	-59.1	3.6	8.45e-01	0	28	104	0	60	32743
2026-01-14 19:23:24.81	29.72	1.84	-47.0	-59.1	3.6	8.46e-01	0	28	104	0	60	32572
2026-01-14 19:23:25.82	29.65	1.89	-47.0	-59.1	3.6	8.46e-01	0	28	104	0	60	32734
2026-01-14 19:23:26.83	29.59	1.95	-47.0	-59.1	3.6	8.46e-01	0	28	104	0	60	32450
2026-01-14 19:23:27.84	29.52	2.01	-47.0	-58.9	3.6	8.45e-01	0	28	104	0	60	31934
2026-01-14 19:23:28.85	29.46	2.07	-47.0	-58.6	3.6	8.46e-01	0	28	104	0	60	30723
2026-01-14 19:23:29.86	29.39	2.12	-47.0	-58.2	3.6	8.46e-01	0	28	104	0	60	29380
2026-01-14 19:23:30.87	29.33	2.18	-47.0	-58.3	3.6	8.45e-01	0	28	104	0	60	29581
2026-01-14 19:23:31.88	29.26	2.24	-47.0	-58.5	3.5	8.43e-01	0	28	104	0	60	30394
2026-01-14 19:23:32.89	29.20	2.29	-47.0	-58.8	3.6	8.44e-01	0	28	104	0	60	31405
2026-01-14 19:23:33.90	29.13	2.35	-47.0	-59.0	3.6	8.45e-01	0	28	104	0	60	32304
2026-01-14 19:23:34.91	29.07	2.41	-47.0	-59.1	3.5	8.45e-01	0	28	104	0	60	32640
2026-01-14 19:23:35.92	29.00	2.47	-47.0	-59.1	3.6	8.46e-01	0	28	104	0	60	32543
2026-01-14 19:23:36.93	28.93	2.53	-47.0	-59.1	3.6	8.47e-01	0	28	104	0	60	32501
2026-01-14 19:23:37.94	28.87	2.58	-47.0	-59.1	3.6	8.45e-01	0	28	104	0	60	32627
2026-01-14 19:23:38.95	28.80	2.64	-47.0	-59.0	3.6	8.46e-01	0	28	104	0	60	32324
2026-01-14 19:23:39.96	28.73	2.70	-47.0	-58.6	3.6	8.45e-01	0	28	104	0	60	30679
2026-01-14 19:23:40.97	28.66	2.76	-46.9	-58.1	3.6	8.45e-01	0	28	104	0	60	29055
2026-01-14 19:23:41.98	28.59	2.81	-46.9	-57.6	3.6	8.44e-01	0	28	104	0	60	27289
2026-01-14 19:23:42.99	28.53	2.87	-46.9	-57.6	3.6	8.45e-01	0	28	104	0	60	27339
2026-01-14 19:23:44.00	28.46	2.93	-47.0	-58.4	3.5	8.46e-01	0	28	104	0	60	30230
2026-01-14 19:23:45.01	28.39	2.99	-47.0	-58.3	3.6	8.45e-01	0	28	104	0	60	29579
2026-01-14 19:23:46.02	28.32	3.05	-46.4	-54.2	4.8	8.33e-01	0	28	104	0	60	18496
2026-01-14 19:23:47.02	28.25	3.11	-45.4	-49.7	7.7	2.30e-01	0	28	0	2097152	60	11029
2026-01-14 19:23:48.03	28.18	3.16	-44.0	-46.8	11.0	9.45e-03	0	28	0	8388608	60	7905
2026-01-14 19:23:49.04	28.11	3.22	-42.6	-44.8	13.3	1.35e-04	0	28	0	13631488	60	6269
2026-01-14 19:23:50.05	28.04	3.28	-41.7	-43.4	14.7	1.10e-06	0	28	0	18874368	56	6752
2026-01-14 19:23:51.05	27.97	3.34	-41.1	-42.7	15.2	0.00e+00	0	28	0	25165824	56	6242
2026-01-14 19:23:52.06	27.90	3.40	-43.4	-45.8	12.1	2.14e-04	0	28	0	30408704	58	7919
2026-01-14 19:23:53.07	27.83	3.46	-46.6	-53.0	5.1	6.38e-01	0	28	0	34603008	60	16230
2026-01-14 19:23:54.08	27.75	3.52	-44.7	-48.3	10.1	1.34e-02	0	28	0	39845888	60	9382
2026-01-14 19:23:55.09	27.68	3.58	-36.1	-36.9	21.4	0.00e+00	0	28	0	46137344	46	5670
2026-01-14 19:23:56.10	27.61	3.64	-46.8	-57.7	3.6	7.05e-01	0	28	104	48234496	60	27754
2026-01-14 19:23:57.11	27.54	3.69	-36.3	-37.2	19.4	4.90e-01	0	28	104	48234496	46	5849
2026-01-14 19:23:58.12	27.46	3.75	-36.0	-36.9	21.4	0.00e+00	0	28	0	50331648	46	5637
2026-01-14 19:23:59.13	27.39	3.81	-35.4	-36.2	21.9	0.00e+00	0	28	0	56623104	44	5877
2026-01-14 19:24:00.14	27.32	3.87	-35.6	-36.4	21.8	0.00e+00	0	28	0	61865984	44	6015
2026-01-14 19:24:01.15	27.24	3.93	-35.6	-36.4	21.9	0.00e+00	0	28	0	68157440	44	5977
2026-01-14 19:24:02.16	27.17	3.99	-35.5	-36.3	21.9	0.00e+00	0	28	0	73400320	44	5915
2026-01-14 19:24:03.17	27.09	4.05	-35.6	-36.5	21.7	0.00e+00	0	28	0	78643200	44	6038
2026-01-14 19:24:04.18	27.02	4.11	-35.4	-36.2	22.0	0.00e+00	0	28	0	84934656	44	5875
2026-01-14 19:24:05.19	26.94	4.17	-35.6	-36.4	21.7	0.00e+00	0	28	0	90177536	44	6029
2026-01-14 19:24:06.20	26.87	4.23	-35.8	-36.7	21.6	0.00e+00	0	28	0	96468992	44	6189
2026-01-14 19:24:07.21	26.79	4.29	-35.6	-36.5	21.7	0.00e+00	0	28	0	101711872	44	6047
2026-01-14 19:24:08.22	26.72	4.35	-35.7	-36.6	21.7	0.00e+00	0	28	0	108003328	44	6119
2026-01-14 19:24:09.23	26.64	4.41	-35.7	-36.5	21.8	0.00e+00	0	28	0	113246208	44	6071
2026-01-14 19:24:10.24	26.56	4.47	-35.7	-36.5	21.8	0.00e+00	0	28	0	119537664	44	6080
2026-01-14 19:24:11.25	26.49	4.53	-35.8	-36.6	21.8	0.00e+00	0	28	0	124780544	44	6123
2026-01-14 19:24:12.26	26.41	4.59	-35.7	-36.5	21.7	0.00e+00	0	28	0	130023424	44	6091
2026-01-14 19:24:13.27	26.33	4.66	-35.6	-36.4	21.9	0.00e+00	0	28	0	136314880	44	6016
2026-01-14 19:24:14.28	26.25	4.72	-35.7	-36.5	21.8	0.00e+00	0	28	0	141557760	44	6096
2026-01-14 19:24:15.29	26.17	4.78	-35.6	-36.4	21.9	0.00e+00	0	28	0	147849216	44	5994
2026-01-14 19:24:16.30	26.09	4.84	-35.5	-36.3	22.0	0.00e+00	0	28	0	153092096	44	5939
2026-01-14 19:24:17.31	26.02	4.90	-35.5	-36.4	22.0	0.00e+00	0	28	0	158334976	44	5976
2026-01-14 19:24:18.32	25.94	4.96	-35.6	-36.4	22.0	0.00e+00	0	28	0	164626432	44	5992
2026-01-14 19:24:19.33	25.86	5.02	-35.5	-36.3	22.1	0.00e+00	0	28	0	169869312	44	5953
2026-01-14 19:24:20.33	25.78	5.08	-35.3	-36.1	22.3	0.00e+00	0	28	0	176160768	44	5781
2026-01-14 19:24:21.34	25.70	5.14	-35.2	-36.0	22.4	0.00e+00	0	28	0	181403648	44	5727
2026-01-14 19:24:22.35	25.61	5.20	-35.4	-36.2	22.2	0.00e+00	0	28	0	186646528	44	5832
2026-01-14 19:24:23.36	25.53	5.27	-35.4	-36.2	22.2	0.00e+00	0	28	0	192937984	44	5895
2026-01-14 19:24:24.37	25.45	5.33	-35.2	-36.0	22.5	0.00e+00	0	28	0	198180864	44	5716
2026-01-14 19:24:25.38	25.37	5.39	-35.3	-36.1	22.3	0.00e+00	0	28	0	204472320	44	5784
2026-01-14 19:24:26.39	25.29	5.45	-35.0	-35.8	22.6	0.00e+00	0	28	0	209715200	44	5579
2026-01-14 19:24:27.40	25.20	5.51	-35.2	-35.9	22.5	0.00e+00	0	28	0	216006656	44	5688
2026-01-14 19:24:28.40	25.12	5.57	-35.0	-35.7	22.7	0.00e+00	0	28	0	221249536	44	5557
2026-01-14 19:24:29.42	25.04	5.64	-35.2	-35.9	22.6	0.00e+00	0	28	0	226492416	44	5690
2026-01-14 19:24:30.42	24.95	5.70	-35.1	-35.9	22.6	0.00e+00	0	28	0	232783872	44	5649
2026-01-14 19:24:31.43	24.87	5.76	-35.1	-35.9	22.6	0.00e+00	0	28	0	238026752	44	5654
2026-01-14 19:24:32.44	24.79	5.82	-35.1	-35.8	22.7	0.00e+00	0	28	0	244318208	44	5623
2026-01-14 19:24:33.45	24.70	5.89	-35.1	-35.8	22.6	0.00e+00	0	28	0	249561088	44	5614
2026-01-14 19:24:34.45	24.62	5.95	-35.0	-35.8	22.7	0.00e+00	0	28	0	254803968	44	5597
2026-01-14 19:24:35.46	24.53	6.01	-35.0	-35.7	22.7	0.00e+00	0	28	0	261095424	44	5559
2026-01-14 19:24:36.47	24.44	6.07	-35.1	-35.9	22.5	0.00e+00	0	28	0	266338304	44	5672
2026-01-14 19:24:37.49	24.36	6.14	-35.0	-35.8	22.7	0.00e+00	0	28	0	272629760	44	5571
2026-01-14 19:24:38.50	24.27	6.20	-35.0	-35.8	22.7	0.00e+00	0	28	0	277872640	44	5610
2026-01-14 19:24:39.51	24.18	6.26	-35.0	-35.8	22.7	0.00e+00	0	28	0	283115520	44	5572
2026-01-14 19:24:40.51	24.09	6.32	-34.8	-35.5	22.9	0.00e+00	0	28	0	289406976	44	5434
2026-01-14 19:24:41.52	24.01	6.39	-34.8	-35.6	23.0	0.00e+00	0	28	0	294649856	42	6127
2026-01-14 19:24:42.53	23.92	6.45	-34.9	-35.7	22.9	0.00e+00	0	28	0	300941312	42	6184
2026-01-14 19:24:43.54	23.83	6.51	-34.8	-35.6	23.0	0.00e+00	0	28	0	306184192	42	6108
2026-01-14 19:24:44.55	23.74	6.58	-34.8	-35.6	23.0	0.00e+00	0	28	0	312475648	42	6127
2026-01-14 19:24:45.56	23.65	6.64	-34.9	-35.7	22.9	0.00e+00	0	28	0	317718528	42	6181
2026-01-14 19:24:46.57	23.56	6.71	-35.1	-35.8	22.7	0.00e+00	0	29	0	322961408	42	6313
2026-01-14 19:24:47.58	23.47	6.77	-34.9	-35.6	23.0	0.00e+00	0	28	0	329252864	42	6166
2026-01-14 19:24:48.59	23.38	6.83	-35.0	-35.7	22.9	0.00e+00	0	28	0	334495744	42	6223
2026-01-14 19:24:49.60	23.29	6.90	-35.0	-35.7	22.9	0.00e+00	0	29	0	340787200	42	6237
2026-01-14 19:24:50.61	23.20	6.96	-34.9	-35.7	22.9	0.00e+00	0	28	0	346030080	42	6204
2026-01-14 19:24:51.62	23.10	7.02	-34.9	-35.7	22.9	0.00e+00	0	28	0	351272960	42	6226
2026-01-14 19:24:52.62	23.01	7.09	-35.0	-35.8	22.9	0.00e+00	0	28	0	357564416	42	6248
2026-01-14 19:24:53.63	22.92	7.15	-34.9	-35.6	23.0	0.00e+00	0	29	0	362807296	42	6164
2026-01-14 19:24:54.64	22.82	7.22	-34.9	-35.6	23.0	0.00e+00	0	29	0	369098752	42	6159
2026-01-14 19:24:55.65	22.73	7.28	-35.0	-35.8	22.9	0.00e+00	0	29	0	374341632	42	6286
2026-01-14 19:24:56.66	22.64	7.35	-35.0	-35.8	22.9	0.00e+00	0	29	0	379584512	42	6288
2026-01-14 19:24:57.67	22.54	7.41	-35.0	-35.8	23.0	0.00e+00	0	29	0	385875968	42	6261
2026-01-14 19:24:58.68	22.45	7.47	-34.9	-35.6	23.0	0.00e+00	0	29	0	391118848	42	6138
2026-01-14 19:24:59.69	22.35	7.54	-34.9	-35.7	23.0	0.00e+00	0	29	0	397410304	42	6196
2026-01-14 19:25:00.68	22.26	7.60	-34.9	-35.6	23.1	0.00e+00	0	28	0	402653184	42	6146
2026-01-14 19:25:01.68	22.16	7.67	-34.9	-35.7	23.0	0.00e+00	0	29	0	408944640	42	6190
2026-01-14 19:25:02.69	22.06	7.73	-34.7	-35.4	23.2	0.00e+00	0	29	0	414187520	42	6031
2026-01-14 19:25:03.69	21.97	7.80	-34.7	-35.5	23.2	0.00e+00	0	29	0	419430400	42	6046
2026-01-14 19:25:04.70	21.87	7.86	-34.7	-35.5	23.3	0.00e+00	0	29	0	425721856	42	6050
2026-01-14 19:25:05.71	21.77	7.93	-34.4	-35.2	23.5	0.00e+00	0	29	0	430964736	42	5843
2026-01-14 19:25:06.72	21.67	7.99	-34.5	-35.3	23.5	0.00e+00	0	29	0	436207616	42	5908
2026-01-14 19:25:07.73	21.57	8.06	-34.4	-35.1	23.6	0.00e+00	0	29	0	442499072	42	5794
2026-01-14 19:25:08.74	21.47	8.12	-34.4	-35.1	23.6	0.00e+00	0	29	0	447741952	42	5812
2026-01-14 19:25:09.75	21.37	8.19	-34.4	-35.1	23.6	0.00e+00	0	29	0	454033408	42	5792
2026-01-14 19:25:10.76	21.27	8.25	-34.2	-35.0	23.7	0.00e+00	0	29	0	459276288	42	5697
2026-01-14 19:25:11.77	21.17	8.32	-34.3	-35.0	23.7	0.00e+00	0	29	0	464519168	42	5720
2026-01-14 19:25:12.78	21.07	8.39	-34.1	-34.8	23.9	0.00e+00	0	28	0	470810624	42	5585
2026-01-14 19:25:13.79	20.97	8.45	-34.1	-34.8	23.9	0.00e+00	0	28	0	476053504	42	5605
2026-01-14 19:25:14.80	20.86	8.52	-34.1	-34.8	24.0	0.00e+00	0	29	0	482344960	42	5572
2026-01-14 19:25:15.81	20.76	8.58	-34.1	-34.8	23.9	0.00e+00	0	28	0	487587840	42	5612
2026-01-14 19:25:16.82	20.66	8.65	-34.1	-34.9	23.9	0.00e+00	0	29	0	493879296	42	5644
2026-01-14 19:25:17.83	20.55	8.72	-34.2	-34.9	23.8	0.00e+00	0	29	0	499122176	42	5689
2026-01-14 19:25:18.84	20.45	8.78	-34.2	-34.9	23.8	0.00e+00	0	29	0	505413632	42	5687
2026-01-14 19:25:19.85	20.34	8.85	-34.2	-34.9	23.8	0.00e+00	0	29	0	510656512	42	5694
2026-01-14 19:25:20.86	20.24	8.92	-34.2	-34.9	23.8	0.00e+00	0	29	0	515899392	42	5683
2026-01-14 19:25:21.87	20.13	8.98	-34.1	-34.9	23.9	0.00e+00	0	29	0	522190848	42	5644
2026-01-14 19:25:22.88	20.03	9.05	-34.2	-34.9	23.8	0.00e+00	0	29	0	527433728	42	5673
2026-01-14 19:25:23.88	19.92	9.11	-34.1	-34.9	23.9	0.00e+00	0	29	0	533725184	42	5641
2026-01-14 19:25:24.89	19.81	9.18	-34.2	-34.9	23.9	0.00e+00	0	29	0	538968064	42	5691
2026-01-14 19:25:25.90	19.70	9.25	-34.1	-34.8	23.9	0.00e+00	0	29	0	544210944	42	5596
2026-01-14 19:25:26.91	19.59	9.32	-33.9	-34.7	24.1	0.00e+00	0	29	0	550502400	42	5510
2026-01-14 19:25:27.92	19.49	9.38	-34.2	-34.9	23.9	0.00e+00	0	29	0	555745280	42	5678
2026-01-14 19:25:28.93	19.38	9.45	-33.9	-34.7	24.1	0.00e+00	0	29	0	562036736	42	5512
2026-01-14 19:25:29.94	19.27	9.52	-34.0	-34.7	24.0	0.00e+00	0	29	0	567279616	42	5545
2026-01-14 19:25:30.95	19.16	9.58	-34.1	-34.8	23.9	0.00e+00	0	29	0	572522496	42	5626
2026-01-14 19:25:31.96	19.04	9.65	-34.0	-34.8	24.0	0.00e+00	0	29	0	578813952	42	5582
2026-01-14 19:25:32.97	18.93	9.72	-34.1	-34.8	23.9	0.00e+00	0	29	0	584056832	42	5626
2026-01-14 19:25:33.98	18.82	9.79	-34.2	-34.9	23.9	0.00e+00	0	29	0	590348288	42	5656
2026-01-14 19:25:34.99	18.71	9.85	-34.2	-34.9	23.8	0.00e+00	0	29	0	595591168	42	5674
2026-01-14 19:25:36.00	18.59	9.92	-34.2	-34.9	23.9	0.00e+00	0	29	0	601882624	42	5655
2026-01-14 19:25:37.01	18.48	9.99	-34.1	-34.8	24.0	0.00e+00	0	29	0	607125504	42	5617
2026-01-14 19:25:38.02	18.37	10.06	-34.0	-34.8	24.0	0.00e+00	0	29	0	612368384	42	5571
2026-01-14 19:25:39.03	18.25	10.12	-34.1	-34.8	24.0	0.00e+00	0	29	0	618659840	42	5610
2026-01-14 19:25:40.04	18.14	10.19	-34.0	-34.7	24.1	0.00e+00	0	29	0	623902720	42	5548
2026-01-14 19:25:41.05	18.02	10.26	-34.0	-34.7	24.1	0.00e+00	0	29	0	630194176	42	5523
2026-01-14 19:25:42.06	17.90	10.33	-33.8	-34.5	24.3	0.00e+00	0	29	0	635437056	42	5429
2026-01-14 19:25:43.07	17.79	10.40	-33.8	-34.5	24.3	0.00e+00	0	29	0	640679936	42	5405
2026-01-14 19:25:44.08	17.67	10.47	-33.7	-34.4	24.4	0.00e+00	0	29	0	646971392	40	6005
2026-01-14 19:25:45.09	17.55	10.53	-33.6	-34.3	24.4	0.00e+00	0	29	0	652214272	40	5924
2026-01-14 19:25:46.10	17.43	10.60	-33.6	-34.3	24.5	0.00e+00	0	29	0	658505728	40	5918
2026-01-14 19:25:47.11	17.31	10.67	-33.4	-34.1	24.6	0.00e+00	0	29	0	663748608	40	5817
2026-01-14 19:25:48.12	17.19	10.74	-33.4	-34.2	24.6	0.00e+00	0	29	0	668991488	40	5831
2026-01-14 19:25:49.14	17.07	10.81	-33.6	-34.3	24.4	0.00e+00	0	29	0	675282944	40	5937
2026-01-14 19:25:50.15	16.95	10.88	-33.6	-34.3	24.4	0.00e+00	0	29	0	680525824	40	5948
2026-01-14 19:25:51.16	16.83	10.95	-33.6	-34.4	24.5	0.00e+00	0	29	0	686817280	40	5965
2026-01-14 19:25:52.17	16.70	11.01	-33.7	-34.4	24.4	0.00e+00	0	29	0	692060160	40	5989
2026-01-14 19:25:53.18	16.58	11.08	-33.6	-34.3	24.5	0.00e+00	0	29	0	698351616	40	5920
2026-01-14 19:25:54.19	16.46	11.15	-33.5	-34.1	24.6	0.00e+00	0	29	0	703594496	40	5825
2026-01-14 19:25:55.20	16.33	11.22	-33.5	-34.2	24.6	0.00e+00	0	29	0	709885952	40	5840
2026-01-14 19:25:56.21	16.21	11.29	-33.4	-34.1	24.6	0.00e+00	0	29	0	715128832	40	5799
2026-01-14 19:25:57.22	16.08	11.36	-33.4	-34.1	24.7	0.00e+00	0	29	0	720371712	40	5791
2026-01-14 19:25:58.23	15.96	11.43	-33.4	-34.1	24.7	0.00e+00	0	29	0	726663168	40	5777
2026-01-14 19:25:59.24	15.83	11.50	-33.3	-34.1	24.7	0.00e+00	0	29	0	731906048	40	5768
2026-01-14 19:26:00.25	15.70	11.57	-33.4	-34.1	24.7	0.00e+00	0	29	0	738197504	40	5773
2026-01-14 19:26:01.26	15.57	11.64	-33.3	-34.0	24.8	0.00e+00	0	29	0	743440384	40	5699
2026-01-14 19:26:02.27	15.45	11.71	-33.3	-34.0	24.8	0.00e+00	0	29	0	748683264	40	5725
2026-01-14 19:26:03.28	15.32	11.77	-33.3	-34.0	24.8	0.00e+00	0	29	0	754974720	40	5701
2026-01-14 19:26:04.29	15.19	11.84	-33.3	-34.0	24.8	0.00e+00	0	29	0	760217600	40	5701
2026-01-14 19:26:05.30	15.06	11.91	-33.2	-33.9	24.8	0.00e+00	0	29	0	766509056	40	5679
2026-01-14 19:26:06.31	14.93	11.98	-33.2	-33.9	24.9	0.00e+00	0	29	0	771751936	40	5680
2026-01-14 19:26:07.32	14.79	12.05	-33.1	-33.8	25.0	0.00e+00	0	29	0	776994816	40	5572
2026-01-14 19:26:08.33	14.66	12.12	-33.2	-33.9	24.8	0.00e+00	0	29	0	783286272	40	5687
2026-01-14 19:26:09.34	14.53	12.19	-33.1	-33.7	25.0	0.00e+00	0	29	0	788529152	40	5558
2026-01-14 19:26:10.35	14.40	12.26	-33.1	-33.8	24.9	0.00e+00	0	29	0	794820608	40	5601
2026-01-14 19:26:11.36	14.26	12.33	-33.2	-33.9	24.8	0.00e+00	0	29	0	800063488	40	5649
2026-01-14 19:26:12.37	14.13	12.40	-33.2	-33.9	24.9	0.00e+00	0	29	0	806354944	40	5687
2026-01-14 19:26:13.38	13.99	12.47	-33.2	-33.9	24.9	0.00e+00	0	29	0	811597824	40	5689
2026-01-14 19:26:14.39	13.85	12.54	-33.1	-33.8	25.0	0.00e+00	0	29	0	817889280	40	5618
2026-01-14 19:26:15.40	13.72	12.61	-33.1	-33.8	25.0	0.00e+00	0	29	0	823132160	40	5592
2026-01-14 19:26:16.41	13.58	12.68	-33.0	-33.7	25.1	0.00e+00	0	29	0	828375040	40	5522
2026-01-14 19:26:17.42	13.44	12.75	-33.0	-33.6	25.2	0.00e+00	0	29	0	834666496	40	5484
2026-01-14 19:26:18.43	13.30	12.82	-32.9	-33.5	25.3	0.00e+00	0	29	0	839909376	40	5439
2026-01-14 19:26:19.44	13.16	12.89	-32.8	-33.5	25.3	0.00e+00	0	29	0	846200832	38	6055
2026-01-14 19:26:20.45	13.02	12.96	-32.8	-33.5	25.3	0.00e+00	0	29	0	851443712	38	6086
2026-01-14 19:26:21.46	12.88	13.03	-32.9	-33.6	25.2	0.00e+00	0	28	0	856686592	38	6117
2026-01-14 19:26:22.47	12.74	13.10	-32.8	-33.4	25.3	0.00e+00	0	29	0	862978048	38	6026
2026-01-14 19:26:23.48	12.60	13.17	-32.8	-33.5	25.3	0.00e+00	0	29	0	868220928	38	6094
2026-01-14 19:26:24.49	12.46	13.24	-32.8	-33.5	25.3	0.00e+00	0	29	0	874512384	38	6062
2026-01-14 19:26:25.50	12.31	13.31	-32.9	-33.6	25.3	0.00e+00	0	29	0	879755264	38	6155
2026-01-14 19:26:26.51	12.17	13.38	-32.8	-33.5	25.3	0.00e+00	0	29	0	884998144	38	6058
2026-01-14 19:26:27.52	12.02	13.45	-32.7	-33.3	25.5	0.00e+00	0	29	0	891289600	38	5930
2026-01-14 19:26:28.53	11.88	13.52	-32.7	-33.3	25.5	0.00e+00	0	29	0	896532480	38	5935
2026-01-14 19:26:29.54	11.73	13.59	-32.6	-33.3	25.5	0.00e+00	0	29	0	902823936	38	5925
2026-01-14 19:26:30.55	11.58	13.66	-32.6	-33.3	25.7	0.00e+00	0	29	0	908066816	38	5900
2026-01-14 19:26:31.56	11.43	13.73	-32.7	-33.4	25.4	0.00e+00	0	29	0	914358272	38	6001
2026-01-14 19:26:32.57	11.29	13.81	-32.7	-33.3	25.5	0.00e+00	0	29	0	919601152	38	5963
2026-01-14 19:26:33.57	11.14	13.87	-32.8	-33.4	25.4	0.00e+00	0	29	0	924844032	38	6031
2026-01-14 19:26:34.58	10.99	13.95	-32.7	-33.4	25.4	0.00e+00	0	29	0	931135488	38	6022
2026-01-14 19:26:35.60	10.84	14.02	-32.7	-33.4	25.4	0.00e+00	0	29	0	936378368	38	5998
2026-01-14 19:26:36.61	10.68	14.09	-32.8	-33.5	25.4	0.00e+00	0	29	0	942669824	38	6050
2026-01-14 19:26:37.62	10.53	14.16	-32.8	-33.5	25.2	0.00e+00	0	29	0	947912704	38	6071
2026-01-14 19:26:38.63	10.38	14.23	-32.9	-33.5	25.3	0.00e+00	0	29	0	954204160	38	6097
2026-01-14 19:26:39.64	10.22	14.30	-32.7	-33.3	25.6	0.00e+00	0	29	0	959447040	38	5960
2026-01-14 19:26:40.65	10.07	14.37	-32.7	-33.3	25.5	0.00e+00	0	29	0	964689920	38	5949
2026-01-14 19:26:41.65	9.92	14.44	-32.7	-33.3	25.5	0.00e+00	0	29	0	970981376	38	5942
2026-01-14 19:26:42.66	9.76	14.51	-32.5	-33.1	25.7	0.00e+00	0	29	0	976224256	38	5828
2026-01-14 19:26:43.67	9.60	14.58	-32.4	-33.1	25.7	0.00e+00	0	29	0	981467136	38	5809
2026-01-14 19:26:44.69	9.44	14.65	-32.5	-33.1	25.6	0.00e+00	0	29	0	987758592	38	5807
2026-01-14 19:26:45.70	9.29	14.72	-32.2	-32.9	25.9	0.00e+00	0	29	0	993001472	38	5665
2026-01-14 19:26:46.71	9.13	14.79	-32.4	-33.0	25.8	0.00e+00	0	29	0	999292928	38	5737
2026-01-14 19:26:47.71	8.97	14.86	-32.3	-33.0	25.8	0.00e+00	0	29	0	1004535808	38	5721
2026-01-14 19:26:48.72	8.81	14.93	-32.4	-33.1	25.8	0.00e+00	0	29	0	1010827264	38	5767
2026-01-14 19:26:49.73	8.65	15.00	-32.4	-33.1	25.7	0.00e+00	0	29	0	1016070144	38	5782
2026-01-14 19:26:50.75	8.48	15.07	-32.2	-32.9	25.9	0.00e+00	0	29	0	1022361600	38	5634
2026-01-14 19:26:51.76	8.32	15.14	-32.4	-33.0	25.8	0.00e+00	0	29	0	1027604480	38	5756
2026-01-14 19:26:52.76	8.16	15.21	-32.2	-32.9	25.9	0.00e+00	0	29	0	1032847360	38	5653
2026-01-14 19:26:53.78	7.99	15.28	-32.2	-32.9	25.9	0.00e+00	0	29	0	1039138816	38	5675
2026-01-14 19:26:54.79	7.83	15.35	-32.2	-32.8	26.0	0.00e+00	0	29	0	1044381696	38	5629
2026-01-14 19:26:55.80	7.66	15.42	-32.2	-32.9	25.9	0.00e+00	0	29	0	1050673152	38	5656
2026-01-14 19:26:56.81	7.49	15.49	-32.3	-32.9	25.9	0.00e+00	0	29	0	1055916032	38	5692
2026-01-14 19:26:57.82	7.33	15.56	-32.3	-33.0	25.8	0.00e+00	0	29	0	1061158912	38	5713
2026-01-14 19:26:58.83	7.16	15.63	-32.3	-33.0	25.9	0.00e+00	0	29	0	1067450368	38	5712
2026-01-14 19:26:59.84	6.99	15.70	-32.3	-33.0	25.9	0.00e+00	0	29	0	1072693248	38	5697
2026-01-14 19:27:00.85	6.82	15.77	-32.1	-32.8	26.0	0.00e+00	0	29	0	1078984704	38	5609
2026-01-14 19:27:01.85	6.65	15.84	-32.2	-32.9	26.0	0.00e+00	0	29	0	1084227584	38	5640
2026-01-14 19:27:02.86	6.48	15.91	-32.1	-32.8	26.1	0.00e+00	0	29	0	1089470464	38	5587
2026-01-14 19:27:03.87	6.30	15.98	-32.1	-32.7	26.1	0.00e+00	0	29	0	1095761920	38	5521
2026-01-14 19:27:04.88	6.13	16.05	-32.0	-32.6	26.2	0.00e+00	0	29	0	1101004800	38	5483
2026-01-14 19:27:05.89	5.96	16.12	-32.1	-32.8	26.0	0.00e+00	0	29	0	1107296256	38	5576
2026-01-14 19:27:06.90	5.78	16.19	-32.1	-32.8	26.1	0.00e+00	0	29	0	1112539136	38	5597
2026-01-14 19:27:07.91	5.61	16.26	-32.1	-32.8	26.0	0.00e+00	0	29	0	1118830592	38	5567
2026-01-14 19:27:08.92	5.43	16.33	-32.3	-33.0	25.9	0.00e+00	0	29	0	1124073472	38	5706
2026-01-14 19:27:09.93	5.25	16.40	-32.3	-33.0	25.9	0.00e+00	0	29	0	1130364928	38	5714
2026-01-14 19:27:10.94	5.07	16.46	-32.4	-33.0	25.8	0.00e+00	0	29	0	1135607808	38	5759
2026-01-14 19:27:11.95	4.89	16.53	-32.3	-32.9	25.9	0.00e+00	0	29	0	1140850688	38	5681
2026-01-14 19:27:12.96	4.71	16.60	-32.4	-33.0	25.9	0.00e+00	0	29	0	1147142144	38	5745
2026-01-14 19:27:13.97	4.53	16.67	-32.2	-32.9	26.0	0.00e+00	0	29	0	1152385024	38	5640
2026-01-14 19:27:14.98	4.35	16.74	-32.0	-32.6	26.2	0.00e+00	0	29	0	1158676480	38	5491
2026-01-14 19:27:15.99	4.17	16.81	-32.0	-32.6	26.2	0.00e+00	0	29	0	1163919360	38	5495
2026-01-14 19:27:17.00	3.99	16.88	-31.9	-32.5	26.3	0.00e+00	0	29	0	1169162240	38	5419
2026-01-14 19:27:18.01	3.80	16.95	-31.9	-32.5	26.4	0.00e+00	0	29	0	1175453696	38	5431
2026-01-14 19:27:19.02	3.62	17.01	-31.8	-32.5	26.3	0.00e+00	0	29	0	1180696576	36	6034
2026-01-14 19:27:20.03	3.43	17.08	-31.8	-32.4	26.4	0.00e+00	0	29	0	1186988032	36	5993
2026-01-14 19:27:21.04	3.24	17.15	-32.0	-32.6	26.2	0.00e+00	0	29	0	1192230912	36	6145
2026-01-14 19:27:22.05	3.06	17.22	-31.8	-32.5	26.4	0.00e+00	0	29	0	1197473792	36	6040
2026-01-14 19:27:23.05	2.87	17.28	-31.8	-32.5	26.4	0.00e+00	0	29	0	1203765248	36	6057
2026-01-14 19:27:24.06	2.68	17.35	-31.8	-32.5	26.4	0.00e+00	0	29	0	1209008128	36	6042
2026-01-14 19:27:25.07	2.49	17.42	-31.8	-32.5	26.4	0.00e+00	0	29	0	1215299584	36	6056
2026-01-14 19:27:26.08	2.30	17.49	-31.7	-32.4	26.5	0.00e+00	0	29	0	1220542464	36	5967
2026-01-14 19:27:27.09	2.11	17.55	-31.7	-32.3	26.5	0.00e+00	0	29	0	1226833920	36	5949
2026-01-14 19:27:28.10	1.91	17.62	-31.6	-32.2	26.6	0.00e+00	0	29	0	1232076800	36	5877
2026-01-14 19:27:29.11	1.72	17.69	-31.6	-32.2	26.5	0.00e+00	0	29	0	1237319680	36	5892
2026-01-14 19:27:30.13	1.52	17.75	-31.6	-32.3	26.5	0.00e+00	0	29	0	1243611136	36	5916
2026-01-14 19:27:31.13	1.33	17.82	-31.6	-32.3	26.5	0.00e+00	0	29	0	1248854016	36	5933
2026-01-14 19:27:32.14	1.13	17.89	-31.7	-32.3	26.5	0.00e+00	0	29	0	1255145472	36	5952
2026-01-14 19:27:33.16	0.93	17.95	-31.5	-32.1	26.7	0.00e+00	0	29	0	1260388352	36	5803
2026-01-14 19:27:34.17	0.74	18.02	-31.6	-32.3	26.5	0.00e+00	0	29	0	1265631232	36	5900
2026-01-14 19:27:35.17	0.54	18.09	-31.4	-32.1	26.7	0.00e+00	0	29	0	1271922688	36	5772
2026-01-14 19:27:36.19	0.34	18.15	-31.6	-32.2	26.6	0.00e+00	0	29	0	1277165568	36	5876
2026-01-14 19:27:37.20	0.14	18.22	-31.4	-32.1	26.7	0.00e+00	0	29	0	1283457024	36	5784
2026-01-14 19:27:38.21	359.93	18.28	-31.4	-32.0	26.7	0.00e+00	0	29	0	1288699904	36	5756
2026-01-14 19:27:39.22	359.73	18.35	-31.4	-32.1	26.7	0.00e+00	0	29	0	1293942784	36	5782
2026-01-14 19:27:40.23	359.53	18.41	-31.5	-32.1	26.7	0.00e+00	0	29	0	1300234240	36	5788
2026-01-14 19:27:41.24	359.32	18.48	-31.4	-32.0	26.7	0.00e+00	0	29	0	1305477120	36	5736
2026-01-14 19:27:42.25	359.12	18.54	-31.4	-32.1	26.6	0.00e+00	0	29	0	1311768576	36	5780
2026-01-14 19:27:43.25	358.92	18.60	-31.5	-32.1	26.7	0.00e+00	0	29	0	1317011456	36	5800
2026-01-14 19:27:44.26	358.71	18.67	-31.6	-32.2	26.5	0.00e+00	0	29	0	1323302912	36	5889
2026-01-14 19:27:45.27	358.50	18.73	-31.5	-32.1	26.6	0.00e+00	0	29	0	1328545792	36	5813
2026-01-14 19:27:46.28	358.29	18.80	-31.6	-32.3	26.5	0.00e+00	0	29	0	1334837248	36	5920
2026-01-14 19:27:47.29	358.08	18.86	-31.5	-32.1	26.6	0.00e+00	0	29	0	1340080128	36	5817
2026-01-14 19:27:48.30	357.87	18.92	-31.5	-32.1	26.7	0.00e+00	0	29	0	1345323008	36	5794
2026-01-14 19:27:49.31	357.66	18.99	-31.4	-32.1	26.7	0.00e+00	0	29	0	1351614464	36	5772
2026-01-14 19:27:50.32	357.45	19.05	-31.3	-31.9	26.8	0.00e+00	0	29	0	1356857344	36	5692
2026-01-14 19:27:51.33	357.24	19.11	-31.1	-31.7	26.8	0.00e+00	0	29	0	1363148800	36	5544
2026-01-14 19:27:52.33	357.02	19.17	-31.2	-31.9	26.9	0.00e+00	0	29	0	1368391680	36	5638
2026-01-14 19:27:53.34	356.81	19.23	-31.1	-31.7	26.8	0.00e+00	0	29	0	1373634560	36	5539
2026-01-14 19:27:54.35	356.59	19.29	-31.2	-31.9	26.9	0.00e+00	0	29	0	1379926016	36	5656
2026-01-14 19:27:55.36	356.38	19.36	-31.1	-31.8	26.8	0.00e+00	0	29	0	1385168896	36	5615
2026-01-14 19:27:56.37	356.16	19.42	-31.3	-32.0	26.7	0.00e+00	0	29	0	1390411776	36	5697
2026-01-14 19:27:57.39	355.94	19.48	-31.3	-32.0	26.7	0.00e+00	0	29	0	1396703232	36	5719
2026-01-14 19:27:58.40	355.72	19.54	-31.2	-31.8	26.9	0.00e+00	0	29	0	1401946112	36	5620
2026-01-14 19:27:59.41	355.50	19.60	-31.2	-31.8	26.9	0.00e+00	0	29	0	1408237568	36	5608
2026-01-14 19:28:00.42	355.28	19.66	-31.2	-31.9	26.8	0.00e+00	0	29	0	1413480448	36	5647
2026-01-14 19:28:01.43	355.06	19.72	-31.1	-31.7	26.8	0.00e+00	0	29	0	1419771904	36	5565
2026-01-14 19:28:02.43	354.84	19.78	-31.1	-31.7	27.0	0.00e+00	0	29	0	1425014784	36	5550
2026-01-14 19:28:03.44	354.61	19.84	-31.3	-32.0	26.9	0.00e+00	0	29	0	1431306240	36	5697
2026-01-14 19:28:04.45	354.39	19.89	-31.1	-31.8	26.9	0.00e+00	0	29	0	1436549120	36	5568
2026-01-14 19:28:05.46	354.16	19.95	-31.1	-31.7	27.0	0.00e+00	0	29	0	1441792000	36	5532
2026-01-14 19:28:06.47	353.94	20.01	-31.2	-31.9	27.0	0.00e+00	0	29	0	1448083456	36	5662
2026-01-14 19:28:07.49	353.71	20.07	-31.3	-32.0	26.9	0.00e+00	0	29	0	1453326336	36	5732
2026-01-14 19:28:08.50	353.48	20.13	-31.1	-31.8	26.9	0.00e+00	0	29	0	1459617792	36	5581
2026-01-14 19:28:09.51	353.25	20.18	-31.2	-31.8	27.0	0.00e+00	0	29	0	1464860672	36	5612
2026-01-14 19:28:10.52	353.02	20.24	-31.2	-31.9	26.9	0.00e+00	0	29	0	1470103552	36	5670
2026-01-14 19:28:11.52	352.79	20.29	-31.0	-31.7	27.1	0.00e+00	0	29	0	1476395008	36	5506
2026-01-14 19:28:12.53	352.56	20.35	-31.0	-31.7	27.1	0.00e+00	0	29	0	1481637888	36	5520
2026-01-14 19:28:13.54	352.33	20.41	-31.0	-31.7	27.0	0.00e+00	0	29	0	1487929344	36	5512
2026-01-14 19:28:14.56	352.09	20.46	-30.9	-31.6	27.2	0.00e+00	0	29	0	1493172224	36	5444
2026-01-14 19:28:15.57	351.86	20.52	-31.0	-31.7	27.2	0.00e+00	0	29	0	1498415104	36	5525
2026-01-14 19:28:16.57	351.63	20.57	-31.0	-31.6	27.1	0.00e+00	0	29	0	1504706560	36	5482
2026-01-14 19:28:17.59	351.39	20.62	-30.9	-31.5	27.1	0.00e+00	0	29	0	1509949440	36	5427
2026-01-14 19:28:18.60	351.15	20.68	-30.7	-31.3	27.3	0.00e+00	0	29	0	1516240896	34	5935
2026-01-14 19:28:19.61	350.91	20.73	-30.6	-31.2	27.3	0.00e+00	0	29	0	1521483776	34	5895
2026-01-14 19:28:20.62	350.68	20.78	-30.6	-31.2	27.4	0.00e+00	0	29	0	1527775232	34	5850
2026-01-14 19:28:21.62	350.44	20.83	-30.6	-31.2	27.4	0.00e+00	0	29	0	1533018112	34	5889
2026-01-14 19:28:22.63	350.20	20.89	-30.7	-31.4	27.3	0.00e+00	0	29	0	1539309568	34	5983
2026-01-14 19:28:23.64	349.96	20.94	-30.8	-31.4	27.2	0.00e+00	0	29	0	1544552448	34	5995
2026-01-14 19:28:24.65	349.72	20.99	-30.7	-31.4	27.3	0.00e+00	0	29	0	1549795328	34	5997
2026-01-14 19:28:25.66	349.48	21.04	-30.8	-31.5	27.3	0.00e+00	0	29	0	1556086784	34	6034
2026-01-14 19:28:26.67	349.23	21.09	-30.7	-31.3	27.3	0.00e+00	0	29	0	1561329664	34	5941
2026-01-14 19:28:27.68	348.99	21.14	-30.7	-31.4	27.3	0.00e+00	0	29	0	1567621120	34	5984
2026-01-14 19:28:28.69	348.74	21.19	-30.7	-31.4	27.2	0.00e+00	0	29	0	1572864000	34	5978
2026-01-14 19:28:29.70	348.50	21.24	-30.7	-31.3	27.4	0.00e+00	0	29	0	1578106880	34	5903
2026-01-14 19:28:30.71	348.25	21.28	-30.7	-31.3	27.3	0.00e+00	0	29	0	1584398336	34	5937
2026-01-14 19:28:31.72	348.01	21.33	-31.0	-31.6	27.1	0.00e+00	0	29	0	1589641216	34	6151
2026-01-14 19:28:32.73	347.76	21.38	-30.8	-31.4	27.2	0.00e+00	0	29	0	1595932672	34	6021
2026-01-14 19:28:33.74	347.51	21.43	-30.7	-31.3	27.3	0.00e+00	0	29	0	1601175552	34	5932
2026-01-14 19:28:34.75	347.26	21.47	-30.6	-31.2	27.3	0.00e+00	0	29	0	1606418432	34	5856
2026-01-14 19:28:35.75	347.01	21.52	-30.4	-31.1	27.4	0.00e+00	0	29	0	1612709888	34	5784
2026-01-14 19:28:36.77	346.76	21.56	-30.5	-31.1	27.4	0.00e+00	0	29	0	1617952768	34	5824
2026-01-14 19:28:37.77	346.51	21.61	-30.5	-31.2	27.5	0.00e+00	0	29	0	1624244224	34	5830
2026-01-14 19:28:38.78	346.26	21.65	-30.7	-31.3	27.3	0.00e+00	0	29	0	1629487104	34	5962
2026-01-14 19:28:39.79	346.01	21.70	-30.6	-31.2	27.3	0.00e+00	0	29	0	1635778560	34	5888
2026-01-14 19:28:40.80	345.75	21.74	-30.5	-31.1	27.5	0.00e+00	0	29	0	1641021440	34	5809
2026-01-14 19:28:41.81	345.50	21.78	-30.5	-31.1	27.5	0.00e+00	0	29	0	1646264320	34	5788
2026-01-14 19:28:42.82	345.24	21.82	-30.5	-31.1	27.5	0.00e+00	0	29	0	1652555776	34	5797
2026-01-14 19:28:43.83	344.99	21.87	-30.5	-31.2	27.5	0.00e+00	0	29	0	1657798656	34	5846
2026-01-14 19:28:44.84	344.73	21.91	-30.5	-31.2	27.5	0.00e+00	0	29	0	1664090112	34	5853
2026-01-14 19:28:45.85	344.47	21.95	-30.6	-31.2	27.4	0.00e+00	0	29	0	1669332992	34	5891
2026-01-14 19:28:46.86	344.22	21.99	-30.5	-31.1	27.4	0.00e+00	0	29	0	1674575872	34	5802
2026-01-14 19:28:47.87	343.96	22.03	-30.5	-31.2	27.4	0.00e+00	0	29	0	1680867328	34	5850
2026-01-14 19:28:48.88	343.70	22.07	-30.6	-31.1	27.4	0.00e+00	0	29	0	1686110208	34	5821
2026-01-14 19:28:49.89	343.44	22.10	-30.6	-31.2	27.4	0.00e+00	0	29	0	1692401664	34	5863
2026-01-14 19:28:50.90	343.18	22.14	-30.7	-31.3	27.3	0.00e+00	0	29	0	1697644544	34	5940
2026-01-14 19:28:51.90	342.92	22.18	-30.6	-31.2	27.5	0.00e+00	0	29	0	1702887424	34	5850
2026-01-14 19:28:52.91	342.66	22.21	-30.4	-31.0	27.5	0.00e+00	0	29	0	1709178880	34	5739
2026-01-14 19:28:53.92	342.39	22.25	-30.4	-31.0	27.6	0.00e+00	0	29	0	1714421760	34	5742
2026-01-14 19:28:54.93	342.13	22.29	-30.3	-31.0	27.6	0.00e+00	0	29	0	1720713216	34	5706
2026-01-14 19:28:55.93	341.87	22.32	-30.5	-31.1	27.4	0.00e+00	0	29	0	1725956096	34	5794
2026-01-14 19:28:56.94	341.61	22.35	-30.3	-31.0	27.6	0.00e+00	0	29	0	1732247552	34	5718
2026-01-14 19:28:57.95	341.34	22.39	-30.3	-31.0	27.6	0.00e+00	0	29	0	1737490432	34	5722
2026-01-14 19:28:58.96	341.08	22.42	-30.5	-31.1	27.5	0.00e+00	0	29	0	1742733312	34	5771
2026-01-14 19:28:59.97	340.81	22.45	-30.4	-31.1	27.5	0.00e+00	0	29	0	1749024768	34	5777
2026-01-14 19:29:00.98	340.54	22.49	-30.6	-31.3	27.3	0.00e+00	0	29	0	1754267648	34	5909
2026-01-14 19:29:01.99	340.28	22.52	-30.6	-31.2	27.4	0.00e+00	0	29	0	1760559104	34	5884
2026-01-14 19:29:03.00	340.01	22.55	-30.6	-31.2	27.4	0.00e+00	0	29	0	1765801984	34	5893
2026-01-14 19:29:04.01	339.74	22.58	-30.6	-31.2	27.4	0.00e+00	0	29	0	1771044864	34	5854
2026-01-14 19:29:05.02	339.47	22.61	-30.7	-31.3	27.3	0.00e+00	0	29	0	1777336320	34	5926
2026-01-14 19:29:06.03	339.20	22.63	-30.7	-31.4	27.3	0.00e+00	0	29	0	1782579200	34	5976
2026-01-14 19:29:07.04	338.93	22.66	-30.7	-31.4	27.3	0.00e+00	0	29	0	1788870656	34	5990
2026-01-14 19:29:08.05	338.66	22.69	-30.6	-31.2	27.4	0.00e+00	0	29	0	1794113536	34	5879
2026-01-14 19:29:09.06	338.39	22.72	-30.5	-31.1	27.5	0.00e+00	0	29	0	1799356416	34	5811
2026-01-14 19:29:10.06	338.13	22.74	-30.4	-31.1	27.5	0.00e+00	0	29	0	1805647872	34	5783
2026-01-14 19:29:11.07	337.85	22.77	-30.5	-31.1	27.5	0.00e+00	0	29	0	1810890752	34	5803
2026-01-14 19:29:12.08	337.58	22.79	-30.4	-31.0	27.6	0.00e+00	0	29	0	1817182208	34	5752
2026-01-14 19:29:13.09	337.31	22.82	-30.5	-31.1	27.6	0.00e+00	0	29	0	1822425088	34	5815
2026-01-14 19:29:14.10	337.04	22.84	-30.5	-31.1	27.5	0.00e+00	0	29	0	1828716544	34	5820
2026-01-14 19:29:15.11	336.76	22.86	-30.3	-30.9	27.7	0.00e+00	0	29	0	1833959424	34	5661
2026-01-14 19:29:16.12	336.49	22.88	-30.0	-30.6	27.9	0.00e+00	0	29	0	1839202304	34	5499
2026-01-14 19:29:17.13	336.22	22.90	-29.9	-30.6	28.0	0.00e+00	0	29	0	1845493760	34	5460
2026-01-14 19:29:18.14	335.94	22.92	-29.9	-30.6	27.9	0.00e+00	0	29	0	1850736640	34	5450
2026-01-14 19:29:19.15	335.67	22.94	-29.8	-30.5	28.0	0.00e+00	0	29	0	1857028096	34	5399
2026-01-14 19:29:20.16	335.39	22.96	-29.9	-30.5	27.9	0.00e+00	0	29	0	1862270976	34	5430
2026-01-14 19:29:21.17	335.12	22.98	-30.0	-30.6	27.9	0.00e+00	0	29	0	1867513856	34	5495
2026-01-14 19:29:22.17	334.85	23.00	-30.1	-30.7	27.8	0.00e+00	0	29	0	1873805312	34	5526
2026-01-14 19:29:23.19	334.57	23.02	-30.2	-30.9	27.7	0.00e+00	0	29	0	1879048192	34	5657
2026-01-14 19:29:24.20	334.29	23.03	-30.1	-30.7	27.8	0.00e+00	0	29	0	1885339648	34	5539
2026-01-14 19:29:25.21	334.01	23.05	-30.1	-30.7	27.8	0.00e+00	0	29	0	1890582528	34	5549
2026-01-14 19:29:26.21	333.74	23.06	-30.1	-30.8	27.8	0.00e+00	0	29	0	1895825408	34	5571
2026-01-14 19:29:27.22	333.46	23.08	-30.3	-30.9	27.7	0.00e+00	0	29	0	1902116864	34	5667
2026-01-14 19:29:28.23	333.19	23.09	-30.1	-30.8	27.8	0.00e+00	0	29	0	1907359744	34	5586
2026-01-14 19:29:29.24	332.91	23.10	-30.1	-30.7	27.8	0.00e+00	0	29	0	1913651200	34	5529
2026-01-14 19:29:30.25	332.63	23.12	-30.1	-30.7	27.8	0.00e+00	0	29	0	1918894080	34	5540
2026-01-14 19:29:31.26	332.35	23.13	-30.1	-30.7	27.8	0.00e+00	0	29	0	1925185536	34	5550
2026-01-14 19:29:32.27	332.07	23.14	-30.0	-30.6	27.9	0.00e+00	0	29	0	1930428416	34	5481
2026-01-14 19:29:33.28	331.80	23.15	-30.1	-30.8	27.8	0.00e+00	0	29	0	1936719872	34	5589
2026-01-14 19:29:34.29	331.52	23.16	-30.1	-30.7	27.7	0.00e+00	0	29	0	1941962752	34	5544
2026-01-14 19:29:35.30	331.24	23.16	-30.2	-30.8	27.8	0.00e+00	0	29	0	1947205632	34	5623
2026-01-14 19:29:36.31	330.96	23.17	-30.2	-30.9	27.7	0.00e+00	0	29	0	1953497088	34	5631
2026-01-14 19:29:37.32	330.68	23.18	-30.2	-30.9	27.7	0.00e+00	0	29	0	1958739968	34	5689
2026-01-14 19:29:38.33	330.40	23.19	-30.3	-30.9	27.7	0.00e+00	0	29	0	1965031424	34	5651
2026-01-14 19:29:39.34	330.12	23.19	-30.2	-30.8	27.8	0.00e+00	0	29	0	1970274304	34	5614
2026-01-14 19:29:40.35	329.84	23.20	-30.1	-30.7	27.8	0.00e+00	0	29	0	1975517184	34	5537
2026-01-14 19:29:41.36	329.56	23.20	-30.0	-30.7	27.8	0.00e+00	0	29	0	1981808640	34	5515
2026-01-14 19:29:42.37	329.28	23.20	-30.0	-30.6	27.9	0.00e+00	0	29	0	1987051520	34	5492
2026-01-14 19:29:43.39	329.00	23.21	-30.0	-30.6	27.9	0.00e+00	0	29	0	1993342976	34	5454
2026-01-14 19:29:44.40	328.72	23.21	-30.1	-30.7	27.8	0.00e+00	0	29	0	1998585856	34	5508
2026-01-14 19:29:45.41	328.44	23.21	-29.9	-30.6	27.9	0.00e+00	0	29	0	2003828736	34	5450
2026-01-14 19:29:46.42	328.16	23.21	-30.1	-30.7	27.8	0.00e+00	0	29	0	2010120192	34	5562
2026-01-14 19:29:47.43	327.88	23.21	-30.1	-30.7	27.9	0.00e+00	0	29	0	2015363072	34	5557
2026-01-14 19:29:48.44	327.60	23.21	-30.1	-30.7	27.9	0.00e+00	0	29	0	2021654528	34	5561
2026-01-14 19:29:49.45	327.32	23.21	-30.2	-30.9	27.7	0.00e+00	0	29	0	2026897408	34	5651
2026-01-14 19:29:50.46	327.04	23.20	-30.3	-30.9	27.7	0.00e+00	0	29	0	2033188864	34	5663
2026-01-14 19:29:51.47	326.76	23.20	-30.1	-30.7	27.8	0.00e+00	0	29	0	2038431744	34	5551
2026-01-14 19:29:52.48	326.49	23.20	-30.0	-30.6	27.9	0.00e+00	0	29	0	2044723200	34	5493
2026-01-14 19:29:53.49	326.21	23.19	-30.1	-30.7	27.8	0.00e+00	0	29	0	2049966080	34	5538
2026-01-14 19:29:54.50	325.93	23.19	-30.2	-30.8	27.7	0.00e+00	0	29	0	2055208960	34	5573
2026-01-14 19:29:55.51	325.65	23.18	-30.2	-30.9	27.7	0.00e+00	0	29	0	2061500416	34	5648
2026-01-14 19:29:56.52	325.37	23.17	-30.2	-30.9	27.7	0.00e+00	0	29	0	2066743296	34	5635
2026-01-14 19:29:57.53	325.09	23.16	-30.3	-31.0	27.5	0.00e+00	0	29	0	2073034752	34	5709
2026-01-14 19:29:58.54	324.81	23.16	-30.2	-30.9	27.4	0.00e+00	0	29	0	2078277632	34	5652
2026-01-14 19:29:59.55	324.53	23.15	-30.2	-30.9	27.6	0.00e+00	0	29	0	2083520512	34	5658
2026-01-14 19:30:00.56	324.25	23.14	-30.2	-30.9	27.6	0.00e+00	0	29	0	2089811968	34	5641
2026-01-14 19:30:01.57	323.97	23.13	-30.4	-31.0	27.6	0.00e+00	0	29	0	2095054848	34	5759
2026-01-14 19:30:02.58	323.70	23.12	-30.2	-30.8	27.7	0.00e+00	0	29	0	2101346304	34	5616
2026-01-14 19:30:03.59	323.42	23.10	-30.1	-30.8	27.8	0.00e+00	0	29	0	2106589184	34	5613
2026-01-14 19:30:04.60	323.14	23.09	-30.1	-30.7	27.8	0.00e+00	0	29	0	2111832064	34	5551
2026-01-14 19:30:05.60	322.87	23.08	-30.0	-30.6	27.9	0.00e+00	0	29	0	2118123520	34	5468
2026-01-14 19:30:06.61	322.59	23.06	-30.1	-30.7	27.8	0.00e+00	0	29	0	2123366400	34	5519
2026-01-14 19:30:07.62	322.31	23.05	-30.2	-30.8	27.8	0.00e+00	0	29	0	2129657856	34	5594
2026-01-14 19:30:08.63	322.04	23.03	-30.2	-30.9	27.8	0.00e+00	0	29	0	2134900736	34	5659
2026-01-14 19:30:09.64	321.76	23.02	-30.2	-30.7	27.8	0.00e+00	0	29	0	2141192192	34	5556
2026-01-14 19:30:10.65	321.48	23.00	-30.1	-30.7	27.9	0.00e+00	0	29	0	2146435072	34	5518
2026-01-14 19:30:11.66	321.21	22.98	-30.2	-30.8	27.8	0.00e+00	0	29	0	2151677952	34	5608
2026-01-14 19:30:12.67	320.93	22.96	-30.2	-30.8	27.8	0.00e+00	0	29	0	2157969408	34	5593
2026-01-14 19:30:13.68	320.66	22.94	-30.2	-30.8	27.8	0.00e+00	0	29	0	2163212288	34	5589
2026-01-14 19:30:14.69	320.38	22.92	-30.2	-30.8	27.7	0.00e+00	0	29	0	2169503744	34	5625
2026-01-14 19:30:15.70	320.11	22.90	-30.1	-30.7	27.9	0.00e+00	0	29	0	2174746624	34	5539
2026-01-14 19:30:16.71	319.83	22.88	-30.1	-30.6	27.9	0.00e+00	0	29	0	2179989504	34	5492
2026-01-14 19:30:17.72	319.56	22.86	-30.2	-30.8	27.8	0.00e+00	0	29	0	2186280960	34	5578
2026-01-14 19:30:18.73	319.29	22.84	-30.2	-30.8	27.8	0.00e+00	0	29	0	2191523840	34	5605
2026-01-14 19:30:19.74	319.01	22.81	-30.2	-30.8	27.8	0.00e+00	0	29	0	2197815296	34	5609
2026-01-14 19:30:20.75	318.74	22.79	-30.2	-30.9	27.8	0.00e+00	0	29	0	2203058176	34	5643
2026-01-14 19:30:21.76	318.47	22.77	-30.2	-30.8	27.9	0.00e+00	0	29	0	2208301056	34	5625
2026-01-14 19:30:22.77	318.20	22.74	-30.1	-30.8	27.9	0.00e+00	0	29	0	2214592512	34	5567
2026-01-14 19:30:23.77	317.93	22.71	-30.1	-30.7	27.9	0.00e+00	0	29	0	2219835392	34	5503
2026-01-14 19:30:24.78	317.66	22.69	-30.1	-30.7	27.9	0.00e+00	0	29	0	2226126848	34	5526
2026-01-14 19:30:25.79	317.39	22.66	-30.3	-30.9	27.8	0.00e+00	0	29	0	2231369728	34	5682
2026-01-14 19:30:26.80	317.12	22.63	-30.3	-31.0	27.7	0.00e+00	0	29	0	2237661184	34	5699
2026-01-14 19:30:27.81	316.85	22.60	-30.3	-31.0	27.7	0.00e+00	0	29	0	2242904064	34	5735
2026-01-14 19:30:28.82	316.58	22.57	-30.3	-30.9	27.7	0.00e+00	0	29	0	2248146944	34	5672
2026-01-14 19:30:29.83	316.31	22.54	-30.2	-30.9	27.7	0.00e+00	0	29	0	2254438400	34	5657
2026-01-14 19:30:30.84	316.04	22.51	-30.3	-31.0	27.8	0.00e+00	0	29	0	2259681280	34	5696
2026-01-14 19:30:31.85	315.78	22.48	-30.3	-30.9	27.8	0.00e+00	0	29	0	2265972736	34	5678
2026-01-14 19:30:32.86	315.51	22.45	-30.4	-31.1	27.7	0.00e+00	0	29	0	2271215616	34	5764
2026-01-14 19:30:33.87	315.24	22.42	-30.3	-30.9	27.7	0.00e+00	0	29	0	2276458496	34	5666
2026-01-14 19:30:34.88	314.98	22.39	-30.2	-30.9	27.8	0.00e+00	0	29	0	2282749952	34	5660
2026-01-14 19:30:35.89	314.71	22.35	-30.1	-30.7	27.8	0.00e+00	0	29	0	2287992832	34	5551
2026-01-14 19:30:36.90	314.45	22.32	-30.2	-30.9	27.7	0.00e+00	0	29	0	2294284288	34	5644
2026-01-14 19:30:37.91	314.19	22.28	-30.2	-30.8	27.7	0.00e+00	0	29	0	2299527168	34	5597
2026-01-14 19:30:38.92	313.92	22.25	-30.3	-30.9	27.7	0.00e+00	0	29	0	2304770048	34	5675
2026-01-14 19:30:39.92	313.66	22.21	-30.3	-31.0	27.7	0.00e+00	0	29	0	2311061504	34	5703
2026-01-14 19:30:40.93	313.40	22.18	-30.5	-31.1	27.6	0.00e+00	0	29	0	2316304384	34	5787
2026-01-14 19:30:41.94	313.14	22.14	-30.5	-31.1	27.5	0.00e+00	0	29	0	2322595840	34	5768
2026-01-14 19:30:42.95	312.88	22.10	-30.4	-31.1	27.6	0.00e+00	0	29	0	2327838720	34	5793
2026-01-14 19:30:43.96	312.62	22.06	-30.3	-31.1	27.6	0.00e+00	0	29	0	2334130176	34	5765
2026-01-14 19:30:44.97	312.36	22.02	-30.3	-30.8	27.6	0.00e+00	0	29	0	2339373056	34	5604
2026-01-14 19:30:45.98	312.10	21.98	-30.3	-31.0	27.7	0.00e+00	0	29	0	2345664512	34	5704
2026-01-14 19:30:46.99	311.84	21.94	-30.3	-31.0	27.6	0.00e+00	0	29	0	2350907392	34	5698
2026-01-14 19:30:48.00	311.58	21.90	-30.3	-31.0	27.6	0.00e+00	0	29	0	2356150272	34	5727
2026-01-14 19:30:49.01	311.33	21.86	-30.4	-31.0	27.6	0.00e+00	0	29	0	2362441728	34	5754
2026-01-14 19:30:50.02	311.07	21.82	-30.4	-31.1	27.6	0.00e+00	0	29	0	2367684608	34	5766
2026-01-14 19:30:51.03	310.82	21.78	-30.4	-31.0	27.6	0.00e+00	0	29	0	2373976064	34	5714
2026-01-14 19:30:52.04	310.56	21.73	-30.3	-30.9	27.8	0.00e+00	0	29	0	2379218944	34	5668
2026-01-14 19:30:53.05	310.31	21.69	-30.2	-30.8	27.8	0.00e+00	0	29	0	2384461824	34	5589
2026-01-14 19:30:54.06	310.05	21.65	-30.3	-30.9	27.6	0.00e+00	0	29	0	2390753280	34	5662
2026-01-14 19:30:55.06	309.80	21.60	-30.4	-30.9	27.6	0.00e+00	0	29	0	2395996160	34	5691
2026-01-14 19:30:56.07	309.55	21.56	-30.3	-31.0	27.4	0.00e+00	0	29	0	2401239040	34	5737
2026-01-14 19:30:57.08	309.30	21.51	-30.5	-31.1	27.5	0.00e+00	0	29	0	2407530496	34	5815
2026-01-14 19:30:58.09	309.05	21.47	-30.4	-31.1	27.6	0.00e+00	0	29	0	2412773376	34	5776
2026-01-14 19:30:59.10	308.80	21.42	-30.3	-30.9	27.6	0.00e+00	0	29	0	2419064832	34	5684
2026-01-14 19:31:00.11	308.55	21.37	-30.3	-30.9	27.6	0.00e+00	0	29	0	2424307712	34	5639
2026-01-14 19:31:01.12	308.30	21.33	-30.3	-31.0	27.7	0.00e+00	0	29	0	2430599168	34	5753
2026-01-14 19:31:02.13	308.06	21.28	-30.4	-31.0	27.6	0.00e+00	0	29	0	2435842048	34	5705
2026-01-14 19:31:03.14	307.81	21.23	-30.4	-31.1	27.6	0.00e+00	0	29	0	2441084928	34	5766
2026-01-14 19:31:04.14	307.57	21.18	-30.5	-31.0	27.5	0.00e+00	0	29	0	2447376384	34	5753
2026-01-14 19:31:05.15	307.32	21.13	-30.5	-31.2	27.5	0.00e+00	0	29	0	2452619264	34	5881
2026-01-14 19:31:06.16	307.08	21.08	-30.5	-31.1	27.4	0.00e+00	0	29	0	2458910720	34	5785
2026-01-14 19:31:07.17	306.83	21.03	-30.5	-31.2	27.6	0.00e+00	0	29	0	2464153600	34	5843
2026-01-14 19:31:08.18	306.59	20.98	-30.5	-31.1	27.6	0.00e+00	0	29	0	2470445056	34	5767
2026-01-14 19:31:09.19	306.35	20.93	-30.6	-31.3	27.4	0.00e+00	0	29	0	2475687936	34	5918
2026-01-14 19:31:10.20	306.11	20.88	-30.7	-31.3	27.4	0.00e+00	0	29	0	2480930816	34	5944
2026-01-14 19:31:11.21	305.87	20.83	-30.7	-31.3	27.4	0.00e+00	0	29	0	2487222272	34	5913
2026-01-14 19:31:12.22	305.63	20.78	-30.6	-31.2	27.5	0.00e+00	0	29	0	2492465152	34	5894
2026-01-14 19:31:13.23	305.39	20.72	-30.5	-31.0	27.6	0.00e+00	0	29	0	2498756608	34	5748
2026-01-14 19:31:14.24	305.15	20.67	-30.4	-31.1	27.6	0.00e+00	0	29	0	2503999488	34	5762
2026-01-14 19:31:15.25	304.91	20.62	-30.5	-31.1	27.5	0.00e+00	0	29	0	2509242368	34	5807
2026-01-14 19:31:16.26	304.68	20.56	-30.6	-31.2	27.4	0.00e+00	0	29	0	2515533824	34	5857
2026-01-14 19:31:17.27	304.44	20.51	-30.6	-31.3	27.4	0.00e+00	0	29	0	2520776704	34	5932
2026-01-14 19:31:18.28	304.21	20.45	-30.6	-31.3	27.4	0.00e+00	0	29	0	2527068160	34	5932
2026-01-14 19:31:19.29	303.98	20.40	-30.5	-31.2	27.5	0.00e+00	0	29	0	2532311040	34	5844
2026-01-14 19:31:20.30	303.74	20.34	-30.5	-31.2	27.6	0.00e+00	0	29	0	2538602496	34	5860
2026-01-14 19:31:21.31	303.51	20.29	-30.5	-31.2	27.4	0.00e+00	0	29	0	2543845376	34	5886
2026-01-14 19:31:22.32	303.28	20.23	-30.6	-31.3	27.4	0.00e+00	0	29	0	2549088256	34	5918
2026-01-14 19:31:23.33	303.05	20.17	-30.7	-31.4	27.3	0.00e+00	0	29	0	2555379712	34	5974
2026-01-14 19:31:24.34	302.82	20.12	-30.7	-31.4	27.2	0.00e+00	0	29	0	2560622592	34	5989
2026-01-14 19:31:25.35	302.59	20.06	-30.7	-31.3	27.3	0.00e+00	0	29	0	2566914048	34	5959
2026-01-14 19:31:26.36	302.36	20.00	-30.8	-31.4	27.3	0.00e+00	0	29	0	2572156928	34	5974
2026-01-14 19:31:27.37	302.14	19.94	-30.8	-31.4	27.3	0.00e+00	0	29	0	2577399808	34	5984
2026-01-14 19:31:28.38	301.91	19.89	-30.8	-31.4	27.2	0.00e+00	0	29	0	2583691264	34	5991
2026-01-14 19:31:29.39	301.69	19.83	-31.0	-31.7	27.1	0.00e+00	0	29	0	2588934144	34	6199
2026-01-14 19:31:30.39	301.46	19.77	-31.0	-31.6	27.1	0.00e+00	0	29	0	2595225600	34	6108
2026-01-14 19:31:31.41	301.24	19.71	-31.0	-31.7	27.0	0.00e+00	0	29	0	2600468480	34	6200
2026-01-14 19:31:32.42	301.02	19.65	-30.9	-31.4	27.2	0.00e+00	0	29	0	2605711360	34	6015
2026-01-14 19:31:33.43	300.80	19.59	-30.8	-31.5	27.3	0.00e+00	0	29	0	2612002816	34	6053
2026-01-14 19:31:34.43	300.58	19.53	-30.9	-31.6	27.2	0.00e+00	0	29	0	2617245696	34	6170
2026-01-14 19:31:35.44	300.36	19.47	-31.1	-31.8	27.0	0.00e+00	0	29	0	2623537152	34	6281
2026-01-14 19:31:36.45	300.14	19.41	-31.1	-31.7	26.9	0.00e+00	0	29	0	2628780032	34	6219
2026-01-14 19:31:37.46	299.92	19.35	-31.1	-31.7	27.0	0.00e+00	0	29	0	2634022912	34	6237
2026-01-14 19:31:38.47	299.70	19.29	-31.1	-31.7	27.0	0.00e+00	0	29	0	2640314368	34	6216
2026-01-14 19:31:39.48	299.49	19.22	-31.0	-31.5	27.0	0.00e+00	0	29	0	2645557248	34	6090
2026-01-14 19:31:40.49	299.27	19.16	-30.9	-31.5	27.2	0.00e+00	0	29	0	2651848704	34	6077
2026-01-14 19:31:41.50	299.06	19.10	-30.9	-31.4	27.2	0.00e+00	0	29	0	2657091584	34	6033
2026-01-14 19:31:42.51	298.84	19.04	-30.9	-31.6	27.2	0.00e+00	0	29	0	2663383040	34	6114
2026-01-14 19:31:43.52	298.63	18.97	-31.0	-31.7	27.1	0.00e+00	0	29	0	2668625920	34	6227
2026-01-14 19:31:44.53	298.42	18.91	-31.1	-31.8	27.0	0.00e+00	0	29	0	2674917376	34	6284
2026-01-14 19:31:45.54	298.21	18.85	-31.0	-31.6	27.0	0.00e+00	0	29	0	2680160256	34	6133
2026-01-14 19:31:46.55	298.00	18.79	-31.0	-31.7	27.1	0.00e+00	0	29	0	2685403136	34	6242
2026-01-14 19:31:47.56	297.79	18.72	-31.0	-31.7	27.1	0.00e+00	0	29	0	2691694592	34	6222
2026-01-14 19:31:48.57	297.58	18.66	-31.1	-31.8	27.0	0.00e+00	0	29	0	2696937472	34	6250
2026-01-14 19:31:49.58	297.37	18.59	-31.2	-31.9	26.9	0.00e+00	0	29	0	2703228928	34	6338
2026-01-14 19:31:50.59	297.17	18.53	-31.3	-32.0	26.8	0.00e+00	0	29	0	2708471808	34	6447
2026-01-14 19:31:51.60	296.96	18.46	-31.3	-32.0	26.9	0.00e+00	0	29	0	2713714688	34	6420
2026-01-14 19:31:52.60	296.76	18.40	-31.3	-31.9	26.6	0.00e+00	0	29	0	2720006144	34	6352
2026-01-14 19:31:53.62	296.55	18.33	-31.5	-32.1	26.4	0.00e+00	0	29	0	2725249024	34	6503
2026-01-14 19:31:54.63	296.35	18.27	-31.7	-32.3	26.4	0.00e+00	0	29	0	2731540480	34	6685
2026-01-14 19:31:55.63	296.15	18.20	-31.8	-32.4	26.3	0.00e+00	0	29	0	2736783360	36	5989
2026-01-14 19:31:56.64	295.95	18.14	-31.7	-32.4	26.3	0.00e+00	0	29	0	2742026240	36	6016
2026-01-14 19:31:57.66	295.75	18.07	-31.7	-32.3	26.4	0.00e+00	0	29	0	2748317696	36	5963
2026-01-14 19:31:58.67	295.55	18.01	-31.7	-32.2	26.4	0.00e+00	0	29	0	2753560576	36	5882
2026-01-14 19:31:59.67	295.35	17.94	-31.6	-32.1	26.5	0.00e+00	0	29	0	2759852032	36	5814
2026-01-14 19:32:00.68	295.15	17.87	-31.5	-32.1	26.6	0.00e+00	0	29	0	2765094912	36	5780
2026-01-14 19:32:01.69	294.95	17.81	-31.6	-32.1	26.5	0.00e+00	0	29	0	2771386368	36	5817
2026-01-14 19:32:02.70	294.76	17.74	-31.7	-32.4	26.3	0.00e+00	0	29	0	2776629248	36	6007
2026-01-14 19:32:03.71	294.56	17.67	-31.8	-32.5	26.3	0.00e+00	0	29	0	2781872128	36	6093
2026-01-14 19:32:04.72	294.37	17.61	-31.6	-32.1	26.5	0.00e+00	0	29	0	2788163584	36	5824
2026-01-14 19:32:05.73	294.18	17.54	-31.4	-32.1	26.6	0.00e+00	0	29	0	2793406464	36	5799
2026-01-14 19:32:06.74	293.98	17.47	-31.3	-31.9	26.6	0.00e+00	0	29	0	2799697920	36	5659
2026-01-14 19:32:07.74	293.79	17.41	-31.4	-32.0	26.6	0.00e+00	0	29	0	2804940800	36	5714
2026-01-14 19:32:08.75	293.60	17.34	-31.3	-32.0	26.7	0.00e+00	0	29	0	2810183680	36	5746
2026-01-14 19:32:09.76	293.41	17.27	-31.4	-32.0	26.4	0.00e+00	0	29	0	2816475136	36	5731
2026-01-14 19:32:10.77	293.22	17.20	-31.6	-32.3	26.3	0.00e+00	0	29	0	2821718016	36	5960
2026-01-14 19:32:11.78	293.04	17.14	-31.7	-32.2	26.0	0.00e+00	0	29	0	2828009472	36	5889
2026-01-14 19:32:12.79	292.85	17.07	-31.8	-32.3	26.1	0.00e+00	0	29	0	2833252352	36	5959
2026-01-14 19:32:13.80	292.66	17.00	-31.6	-32.3	26.1	0.00e+00	0	29	0	2838495232	36	5934
2026-01-14 19:32:14.81	292.48	16.93	-31.4	-32.1	26.5	0.00e+00	0	29	0	2844786688	36	5770
2026-01-14 19:32:15.82	292.29	16.86	-31.4	-32.0	26.4	0.00e+00	0	29	0	2850029568	36	5752
2026-01-14 19:32:16.83	292.11	16.79	-31.4	-32.1	26.4	0.00e+00	0	29	0	2856321024	36	5828
2026-01-14 19:32:17.84	291.92	16.72	-31.6	-32.3	26.3	0.00e+00	0	29	0	2861563904	36	5943
2026-01-14 19:32:18.85	291.74	16.66	-31.7	-32.3	26.2	0.00e+00	0	29	0	2867855360	36	5932
2026-01-14 19:32:19.86	291.56	16.59	-31.8	-32.5	26.2	0.00e+00	0	29	0	2873098240	36	6036
2026-01-14 19:32:20.87	291.38	16.52	-31.7	-32.3	26.4	0.00e+00	0	29	0	2878341120	36	5919
2026-01-14 19:32:21.88	291.20	16.45	-31.7	-32.3	26.3	0.00e+00	0	29	0	2884632576	36	5940
2026-01-14 19:32:22.89	291.02	16.38	-31.6	-32.1	26.4	0.00e+00	0	29	0	2889875456	36	5823
2026-01-14 19:32:23.90	290.84	16.31	-31.5	-32.2	26.5	0.00e+00	0	29	0	2896166912	36	5891
2026-01-14 19:32:24.91	290.67	16.24	-31.6	-32.3	26.4	0.00e+00	0	29	0	2901409792	36	5954
2026-01-14 19:32:25.92	290.49	16.17	-31.6	-32.3	26.4	0.00e+00	0	29	0	2906652672	36	5899
2026-01-14 19:32:26.92	290.32	16.10	-31.6	-32.2	26.4	0.00e+00	0	29	0	2912944128	36	5864
2026-01-14 19:32:27.93	290.14	16.03	-31.6	-32.1	26.4	0.00e+00	0	29	0	2918187008	36	5816
2026-01-14 19:32:28.94	289.97	15.96	-31.5	-32.1	26.5	0.00e+00	0	29	0	2924478464	36	5788
2026-01-14 19:32:29.95	289.79	15.89	-31.6	-32.3	26.4	0.00e+00	0	29	0	2929721344	36	5903
2026-01-14 19:32:30.96	289.62	15.82	-31.6	-32.2	26.4	0.00e+00	0	29	0	2934964224	36	5857
2026-01-14 19:32:31.97	289.45	15.75	-31.6	-32.4	26.3	0.00e+00	0	29	0	2941255680	36	5986
2026-01-14 19:32:32.98	289.28	15.68	-31.7	-32.3	26.4	0.00e+00	0	29	0	2946498560	36	5918
2026-01-14 19:32:33.99	289.11	15.61	-31.8	-32.4	26.3	0.00e+00	0	29	0	2952790016	36	5997
2026-01-14 19:32:35.00	288.94	15.54	-31.7	-32.2	26.3	0.00e+00	0	29	0	2958032896	36	5892
2026-01-14 19:32:36.01	288.77	15.47	-31.8	-32.4	26.2	0.00e+00	0	29	0	2964324352	36	5986
2026-01-14 19:32:37.02	288.60	15.40	-31.9	-32.5	26.1	0.00e+00	0	29	0	2969567232	36	6058
2026-01-14 19:32:38.03	288.44	15.33	-31.8	-32.5	26.1	0.00e+00	0	29	0	2975858688	36	6053
2026-01-14 19:32:39.04	288.27	15.26	-32.0	-32.6	26.1	0.00e+00	0	29	0	2981101568	36	6124
2026-01-14 19:32:40.05	288.11	15.19	-32.1	-32.7	25.9	0.00e+00	0	29	0	2986344448	36	6176
2026-01-14 19:32:41.06	287.94	15.12	-32.1	-32.7	25.9	0.00e+00	0	29	0	2992635904	36	6241
2026-01-14 19:32:42.07	287.78	15.05	-32.2	-32.8	25.8	0.00e+00	0	29	0	2997878784	36	6317
2026-01-14 19:32:43.08	287.62	14.98	-32.3	-32.9	25.8	0.00e+00	0	29	0	3004170240	36	6356
2026-01-14 19:32:44.09	287.45	14.91	-32.3	-33.0	25.8	0.00e+00	0	29	0	3009413120	36	6428
2026-01-14 19:32:45.10	287.29	14.84	-32.4	-33.0	25.7	0.00e+00	0	29	0	3014656000	36	6446
2026-01-14 19:32:46.11	287.13	14.77	-32.5	-33.1	25.6	0.00e+00	0	29	0	3020947456	36	6536
2026-01-14 19:32:47.12	286.97	14.70	-32.4	-33.2	25.7	0.00e+00	0	29	0	3026190336	36	6547
2026-01-14 19:32:48.13	286.81	14.63	-32.4	-33.1	25.7	0.00e+00	0	29	0	3032481792	36	6491
2026-01-14 19:32:49.13	286.66	14.56	-32.2	-32.9	25.8	0.00e+00	0	29	0	3037724672	36	6371
2026-01-14 19:32:50.14	286.50	14.49	-32.3	-32.9	25.8	0.00e+00	0	29	0	3042967552	36	6357
2026-01-14 19:32:51.15	286.34	14.42	-32.5	-33.1	25.7	0.00e+00	0	29	0	3049259008	36	6537
2026-01-14 19:32:52.16	286.19	14.35	-32.4	-33.1	25.7	0.00e+00	0	29	0	3054501888	36	6536
2026-01-14 19:32:53.17	286.03	14.28	-32.5	-33.1	25.7	0.00e+00	0	29	0	3060793344	36	6471
2026-01-14 19:32:54.18	285.88	14.21	-32.3	-33.0	25.7	0.00e+00	0	29	0	3066036224	36	6397
2026-01-14 19:32:55.19	285.72	14.14	-32.4	-32.9	25.7	0.00e+00	0	29	0	3072327680	36	6385
2026-01-14 19:32:56.20	285.57	14.07	-32.3	-33.0	25.8	0.00e+00	0	29	0	3077570560	36	6410
2026-01-14 19:32:57.21	285.42	13.99	-32.5	-33.1	25.6	0.00e+00	0	29	0	3082813440	36	6494
2026-01-14 19:32:58.22	285.27	13.92	-32.3	-32.9	25.8	0.00e+00	0	29	0	3089104896	36	6351
2026-01-14 19:32:59.23	285.12	13.85	-32.4	-33.1	25.7	0.00e+00	0	29	0	3094347776	36	6505
2026-01-14 19:33:00.24	284.97	13.78	-32.5	-33.1	25.6	0.00e+00	0	29	0	3100639232	36	6531
2026-01-14 19:33:01.25	284.82	13.71	-32.4	-33.0	25.7	0.00e+00	0	29	0	3105882112	36	6417
2026-01-14 19:33:02.25	284.67	13.64	-32.6	-33.2	25.6	0.00e+00	0	29	0	3111124992	36	6561
2026-01-14 19:33:03.26	284.52	13.57	-32.5	-33.0	25.6	0.00e+00	0	29	0	3117416448	36	6464
2026-01-14 19:33:04.27	284.38	13.50	-32.5	-33.2	25.6	0.00e+00	0	29	0	3122659328	36	6600
2026-01-14 19:33:05.28	284.23	13.43	-32.6	-33.3	25.6	0.00e+00	0	29	0	3128950784	36	6657
2026-01-14 19:33:06.29	284.08	13.36	-32.7	-33.4	25.4	0.00e+00	0	29	0	3134193664	36	6737
2026-01-14 19:33:07.30	283.94	13.29	-32.6	-33.2	25.5	0.00e+00	0	29	0	3139436544	36	6583
2026-01-14 19:33:08.31	283.80	13.22	-32.7	-33.3	25.4	0.00e+00	0	29	0	3145728000	36	6646
2026-01-14 19:33:09.32	283.65	13.15	-32.7	-33.3	25.4	0.00e+00	0	29	0	3150970880	38	5951
2026-01-14 19:33:10.33	283.51	13.08	-32.7	-33.4	25.4	0.00e+00	0	29	0	3157262336	38	5991
2026-01-14 19:33:11.34	283.37	13.01	-32.8	-33.5	25.3	0.00e+00	0	29	0	3162505216	38	6092
2026-01-14 19:33:12.35	283.23	12.94	-33.0	-33.7	25.1	0.00e+00	0	29	0	3168796672	38	6175
2026-01-14 19:33:13.35	283.09	12.87	-32.7	-33.4	25.4	0.00e+00	0	29	0	3174039552	38	6029
2026-01-14 19:33:14.36	282.95	12.80	-32.8	-33.6	25.3	0.00e+00	0	29	0	3179282432	38	6129
2026-01-14 19:33:15.37	282.81	12.73	-33.0	-33.7	25.2	0.00e+00	0	29	0	3185573888	38	6200
2026-01-14 19:33:16.39	282.67	12.66	-33.4	-34.0	25.0	0.00e+00	0	29	0	3190816768	38	6438
2026-01-14 19:33:17.40	282.53	12.59	-32.9	-33.5	25.2	0.00e+00	0	29	0	3197108224	38	6040
2026-01-14 19:33:18.41	282.39	12.52	-32.9	-33.5	25.3	0.00e+00	0	29	0	3202351104	38	6053
2026-01-14 19:33:19.41	282.25	12.45	-32.9	-33.5	25.2	0.00e+00	0	29	0	3207593984	38	6066
2026-01-14 19:33:20.42	282.12	12.38	-32.9	-33.6	25.2	0.00e+00	0	29	0	3213885440	38	6139
2026-01-14 19:33:21.43	281.98	12.31	-33.0	-33.7	25.2	0.00e+00	0	29	0	3219128320	38	6226
2026-01-14 19:33:22.44	281.85	12.24	-33.0	-33.6	25.2	0.00e+00	0	29	0	3225419776	38	6119
2026-01-14 19:33:23.45	281.71	12.17	-33.0	-33.6	25.1	0.00e+00	0	29	0	3230662656	38	6128
2026-01-14 19:33:24.46	281.58	12.10	-33.1	-33.8	25.0	0.00e+00	0	29	0	3235905536	38	6310
2026-01-14 19:33:25.47	281.45	12.03	-33.2	-34.0	24.9	0.00e+00	0	29	0	3242196992	38	6426
2026-01-14 19:33:26.48	281.32	11.96	-33.2	-33.8	25.0	0.00e+00	0	29	0	3247439872	38	6266
2026-01-14 19:33:27.49	281.18	11.89	-33.3	-34.0	24.8	0.00e+00	0	29	0	3253731328	38	6403
2026-01-14 19:33:28.50	281.05	11.82	-33.3	-33.9	24.9	0.00e+00	0	29	0	3258974208	38	6355
2026-01-14 19:33:29.51	280.92	11.75	-33.2	-33.8	24.9	0.00e+00	0	29	0	3265265664	38	6280
2026-01-14 19:33:30.52	280.79	11.68	-33.3	-34.1	24.8	0.00e+00	0	29	0	3270508544	38	6475
2026-01-14 19:33:31.53	280.66	11.61	-33.3	-34.0	24.9	0.00e+00	0	29	0	3276800000	38	6447
2026-01-14 19:33:32.54	280.54	11.54	-33.4	-34.1	24.8	0.00e+00	0	29	0	3282042880	38	6485
2026-01-14 19:33:33.54	280.41	11.47	-33.4	-34.0	24.7	0.00e+00	0	29	0	3287285760	38	6454
2026-01-14 19:33:34.55	280.28	11.40	-33.4	-34.2	24.8	0.00e+00	0	29	0	3293577216	38	6558
2026-01-14 19:33:35.56	280.16	11.33	-33.5	-34.1	24.6	0.00e+00	0	29	0	3298820096	38	6533
2026-01-14 19:33:36.57	280.03	11.26	-33.5	-34.1	24.7	0.00e+00	0	29	0	3304062976	38	6481
2026-01-14 19:33:37.58	279.90	11.19	-33.7	-34.5	24.4	0.00e+00	0	29	0	3310354432	40	6047
2026-01-14 19:33:38.59	279.78	11.13	-33.5	-34.1	24.6	0.00e+00	0	29	0	3315597312	40	5806
2026-01-14 19:33:39.59	279.66	11.06	-33.7	-34.3	24.5	0.00e+00	0	29	0	3321888768	40	5913
2026-01-14 19:33:40.60	279.53	10.99	-33.5	-34.2	24.6	0.00e+00	0	29	0	3327131648	40	5887
2026-01-14 19:33:41.61	279.41	10.92	-33.6	-34.3	24.6	0.00e+00	0	29	0	3332374528	40	5964
2026-01-14 19:33:42.62	279.29	10.85	-33.5	-34.2	24.7	0.00e+00	0	29	0	3338665984	40	5879
2026-01-14 19:33:43.63	279.17	10.78	-33.5	-34.3	24.6	0.00e+00	0	29	0	3343908864	40	5919
2026-01-14 19:33:44.64	279.04	10.71	-33.5	-34.1	24.6	0.00e+00	0	29	0	3350200320	40	5816
2026-01-14 19:33:45.65	278.92	10.64	-33.7	-34.3	24.4	0.00e+00	0	29	0	3355443200	40	5931
2026-01-14 19:33:46.66	278.80	10.58	-33.5	-34.3	24.6	0.00e+00	0	29	0	3361734656	40	5906
2026-01-14 19:33:47.67	278.68	10.51	-33.6	-34.3	24.6	0.00e+00	0	29	0	3366977536	40	5944
2026-01-14 19:33:48.68	278.57	10.44	-33.7	-34.3	24.5	0.00e+00	0	29	0	3373268992	40	5926
2026-01-14 19:33:49.69	278.45	10.37	-33.6	-34.3	24.5	0.00e+00	0	29	0	3378511872	40	5906
2026-01-14 19:33:50.70	278.33	10.30	-33.7	-34.4	24.4	0.00e+00	0	29	0	3383754752	40	6033
2026-01-14 19:33:51.71	278.21	10.23	-33.7	-34.5	24.4	0.00e+00	0	29	0	3390046208	40	6045
2026-01-14 19:33:52.72	278.10	10.16	-33.6	-34.3	24.5	0.00e+00	0	29	0	3395289088	40	5963
2026-01-14 19:33:53.73	277.98	10.10	-33.7	-34.3	24.3	0.00e+00	0	29	0	3401580544	40	5928
2026-01-14 19:33:54.74	277.86	10.03	-33.7	-34.4	24.4	0.00e+00	0	29	0	3406823424	40	5968
2026-01-14 19:33:55.75	277.75	9.96	-33.7	-34.4	24.4	0.00e+00	0	29	0	3412066304	40	5984
2026-01-14 19:33:56.76	277.63	9.89	-33.8	-34.5	24.3	0.00e+00	0	29	0	3418357760	40	6079
2026-01-14 19:33:57.77	277.52	9.83	-33.9	-34.7	24.2	0.00e+00	0	29	0	3423600640	40	6193
2026-01-14 19:33:58.78	277.41	9.76	-33.9	-34.5	24.2	0.00e+00	0	29	0	3429892096	40	6095
2026-01-14 19:33:59.79	277.29	9.69	-33.9	-34.5	24.2	0.00e+00	0	29	0	3435134976	40	6090
2026-01-14 19:34:00.80	277.18	9.62	-34.0	-34.6	24.1	0.00e+00	0	29	0	3440377856	40	6146
2026-01-14 19:34:01.81	277.07	9.55	-34.0	-34.6	24.1	0.00e+00	0	29	0	3446669312	40	6169
2026-01-14 19:34:02.82	276.96	9.49	-34.0	-34.7	24.1	0.00e+00	0	29	0	3451912192	40	6187
2026-01-14 19:34:03.83	276.85	9.42	-34.0	-34.8	24.1	0.00e+00	0	29	0	3458203648	40	6290
2026-01-14 19:34:04.84	276.74	9.35	-34.2	-35.0	23.8	0.00e+00	0	29	0	3463446528	40	6432
2026-01-14 19:34:05.85	276.63	9.29	-34.1	-34.7	23.9	0.00e+00	0	29	0	3469737984	40	6237
2026-01-14 19:34:06.86	276.52	9.22	-34.3	-34.9	23.8	0.00e+00	0	29	0	3474980864	40	6361
2026-01-14 19:34:07.87	276.41	9.15	-34.2	-34.8	23.9	0.00e+00	0	29	0	3480223744	40	6283
2026-01-14 19:34:08.88	276.30	9.08	-34.2	-34.9	23.9	0.00e+00	0	29	0	3486515200	40	6341
2026-01-14 19:34:09.89	276.19	9.02	-34.3	-34.9	23.8	0.00e+00	0	29	0	3491758080	40	6361
2026-01-14 19:34:10.90	276.09	8.95	-34.5	-35.3	23.5	0.00e+00	0	29	0	3498049536	40	6635
2026-01-14 19:34:11.91	275.98	8.88	-34.4	-35.1	23.7	0.00e+00	0	29	0	3503292416	40	6516
2026-01-14 19:34:12.92	275.87	8.82	-34.2	-34.9	23.8	0.00e+00	0	29	0	3508535296	40	6330
2026-01-14 19:34:13.93	275.77	8.75	-34.4	-35.2	23.7	0.00e+00	0	29	0	3514826752	40	6561
2026-01-14 19:34:14.94	275.66	8.68	-34.6	-35.4	23.4	0.00e+00	0	29	0	3520069632	40	6743
2026-01-14 19:34:15.95	275.56	8.62	-34.2	-34.9	23.8	0.00e+00	0	29	0	3526361088	40	6328
2026-01-14 19:34:16.96	275.45	8.55	-34.2	-35.0	23.8	0.00e+00	0	29	0	3531603968	40	6392
2026-01-14 19:34:17.97	275.35	8.49	-34.4	-35.0	23.6	0.00e+00	0	29	0	3536846848	40	6459
2026-01-14 19:34:18.98	275.25	8.42	-34.4	-35.2	23.6	0.00e+00	0	29	0	3543138304	40	6580
2026-01-14 19:34:19.99	275.14	8.35	-34.5	-35.3	23.5	0.00e+00	0	29	0	3548381184	40	6679
2026-01-14 19:34:20.99	275.04	8.29	-34.4	-35.1	23.6	0.00e+00	0	29	0	3554672640	40	6465
2026-01-14 19:34:22.00	274.94	8.22	-34.2	-35.0	23.8	0.00e+00	0	29	0	3559915520	40	6408
2026-01-14 19:34:23.01	274.84	8.16	-34.3	-35.1	23.7	4.50e-06	0	29	0	3566206976	40	6515
2026-01-14 19:34:24.01	274.74	8.09	-34.2	-34.8	23.8	0.00e+00	0	29	0	3571449856	40	6312
2026-01-14 19:34:25.02	274.64	8.03	-34.3	-34.9	23.7	0.00e+00	0	29	0	3576692736	40	6390
2026-01-14 19:34:26.03	274.54	7.96	-34.4	-35.1	23.7	0.00e+00	0	29	0	3582984192	40	6471
2026-01-14 19:34:27.04	274.44	7.89	-34.5	-35.1	23.5	0.00e+00	0	29	0	3588227072	40	6514
2026-01-14 19:34:28.05	274.34	7.83	-34.5	-35.1	23.5	0.00e+00	0	29	0	3594518528	40	6537
