passes_logs/2026/01/14/R4.6S_Anadyr/R4.6S_Anadyr__20260114_162926_AQUA_rec.log

#Pass ID: 20260114_162926_AQUA
#Satellite: AQUA
#Configuration: AQUA
#almurnet v.1.7.20251203
#Start time: 2026-01-14 16:29:29

#Version: 2.2.20231116
#Station: R4.6S_Anadyr
#Location: 177.4865 lon 64.73178 lat
#TLE: 1 27424U 02022A   26013.85306262  .00000759  00000+0  16188-3 0  9996
#TLE: 2 27424  98.4079 340.2612 0002043  79.8220 301.8652 14.61819210260728

#Time	Az	El	Level	Level2	SNR	BER	BlckErr	Temp	State	Recorded	gain1	gain2
2026-01-14 16:29:29.57	19.92	0.21	-49.1	-65.6	3.3	3.02e+01	0	28	0	0	60	72911
2026-01-14 16:29:30.58	19.92	0.27	-49.1	-67.0	3.5	3.02e+01	0	28	104	0	60	86158
2026-01-14 16:29:31.59	19.92	0.33	-49.1	-67.1	3.5	3.02e+01	0	28	104	0	60	87359
2026-01-14 16:29:32.60	19.92	0.39	-49.2	-67.1	3.5	3.02e+01	0	28	104	0	60	86707
2026-01-14 16:29:33.61	19.92	0.46	-49.1	-67.0	3.5	3.02e+01	0	28	104	0	60	86574
2026-01-14 16:29:34.62	19.92	0.52	-49.1	-66.9	3.5	3.02e+01	0	28	104	0	60	85573
2026-01-14 16:29:35.63	19.92	0.58	-48.9	-66.9	3.5	3.02e+01	0	28	104	0	60	85244
2026-01-14 16:29:36.64	19.92	0.65	-49.0	-66.9	3.5	3.02e+01	0	28	104	0	60	84846
2026-01-14 16:29:37.65	19.92	0.71	-48.8	-66.7	3.5	3.02e+01	0	28	104	0	60	82905
2026-01-14 16:29:38.66	19.92	0.77	-48.6	-66.5	3.5	3.02e+01	0	28	104	0	60	81597
2026-01-14 16:29:39.67	19.93	0.84	-48.5	-66.2	3.5	3.02e+01	0	28	104	0	60	78903
2026-01-14 16:29:40.68	19.93	0.90	-48.2	-66.2	3.5	3.02e+01	0	28	104	0	60	78193
2026-01-14 16:29:41.69	19.93	0.96	-48.0	-65.9	3.5	3.02e+01	0	28	104	0	60	75808
2026-01-14 16:29:42.70	19.93	1.03	-47.6	-65.2	3.5	3.02e+01	0	29	104	0	60	69753
2026-01-14 16:29:43.71	19.93	1.09	-47.6	-65.3	3.5	3.02e+01	0	29	104	0	60	70531
2026-01-14 16:29:44.72	19.93	1.16	-47.6	-65.3	3.5	3.02e+01	0	28	104	0	60	71134
2026-01-14 16:29:45.73	19.93	1.22	-47.6	-65.5	3.5	3.02e+01	0	29	104	0	60	72447
2026-01-14 16:29:46.74	19.93	1.29	-47.6	-65.5	3.5	3.02e+01	0	29	104	0	60	72637
2026-01-14 16:29:47.76	19.93	1.35	-47.6	-65.4	3.5	3.02e+01	0	29	104	0	60	71607
2026-01-14 16:29:48.77	19.93	1.42	-47.6	-65.1	3.5	3.02e+01	0	29	104	0	60	69511
2026-01-14 16:29:49.78	19.93	1.48	-47.6	-64.9	3.5	3.02e+01	0	29	104	0	60	67630
2026-01-14 16:29:50.79	19.93	1.55	-47.6	-64.5	3.5	3.02e+01	0	29	104	0	60	64933
2026-01-14 16:29:51.80	19.93	1.61	-47.6	-64.4	3.5	3.02e+01	0	29	104	0	60	63857
2026-01-14 16:29:52.81	19.93	1.68	-47.6	-64.4	3.5	3.02e+01	0	29	104	0	60	64001
2026-01-14 16:29:53.82	19.93	1.75	-47.6	-64.5	3.5	3.02e+01	0	29	104	0	60	64582
2026-01-14 16:29:54.83	19.93	1.81	-47.6	-65.0	3.5	3.02e+01	0	29	104	0	60	68052
2026-01-14 16:29:55.84	19.93	1.88	-47.6	-65.0	3.5	3.02e+01	0	29	104	0	60	68382
2026-01-14 16:29:56.85	19.93	1.95	-47.6	-65.2	3.5	3.02e+01	0	29	104	0	60	70030
2026-01-14 16:29:57.86	19.93	2.01	-47.6	-65.3	3.5	3.02e+01	0	29	104	0	60	71005
2026-01-14 16:29:58.87	19.93	2.08	-47.6	-65.3	3.5	3.02e+01	0	29	104	0	60	71043
2026-01-14 16:29:59.88	19.93	2.15	-47.6	-65.4	3.5	3.02e+01	0	29	104	0	60	71611
2026-01-14 16:30:00.89	19.94	2.21	-47.6	-65.4	3.5	3.02e+01	0	29	104	0	60	71466
2026-01-14 16:30:01.90	19.94	2.28	-47.6	-65.0	3.5	3.02e+01	0	29	104	0	60	68685
2026-01-14 16:30:02.91	19.94	2.35	-47.6	-64.1	3.6	3.02e+01	0	29	104	0	60	61367
2026-01-14 16:30:03.92	19.94	2.42	-47.5	-62.5	3.6	3.02e+01	0	29	104	0	60	51238
2026-01-14 16:30:04.93	19.94	2.48	-47.4	-61.1	4.6	3.02e+01	0	29	104	0	60	43656
2026-01-14 16:30:05.94	19.94	2.55	-47.3	-59.2	5.3	3.02e+01	25	29	0	0	60	34979
2026-01-14 16:30:06.95	19.94	2.62	-47.2	-57.5	6.4	3.02e+01	92	29	0	1048576	60	28724
2026-01-14 16:30:07.96	19.94	2.69	-47.3	-57.6	6.2	3.02e+01	92	29	0	2621440	60	29054
2026-01-14 16:30:08.97	19.94	2.76	-47.3	-57.6	6.2	3.02e+01	90	29	0	4718592	60	29292
2026-01-14 16:30:09.98	19.94	2.83	-47.2	-57.3	6.6	3.02e+01	90	29	0	6291456	60	28152
2026-01-14 16:30:10.99	19.94	2.90	-47.0	-55.8	8.4	3.02e+01	65	29	0	8388608	60	23760
2026-01-14 16:30:12.00	19.94	2.96	-46.5	-53.3	11.3	3.02e+01	45	29	0	10485760	60	17856
2026-01-14 16:30:13.01	19.94	3.03	-45.7	-50.9	14.1	3.02e+01	57	29	0	12058624	60	13464
2026-01-14 16:30:14.02	19.94	3.10	-44.5	-48.3	16.8	3.02e+01	62	29	0	14155776	60	10023
2026-01-14 16:30:15.03	19.94	3.17	-43.4	-46.5	18.7	3.02e+01	59	29	0	15728640	60	8098
2026-01-14 16:30:16.04	19.94	3.24	-42.4	-44.9	20.3	3.02e+01	60	29	0	17825792	60	6776
2026-01-14 16:30:17.05	19.94	3.31	-41.4	-43.5	21.6	3.02e+01	58	29	0	19922944	58	6473
2026-01-14 16:30:18.06	19.94	3.38	-41.1	-43.2	21.9	3.02e+01	54	29	0	21495808	58	6217
2026-01-14 16:30:19.07	19.94	3.45	-40.6	-42.6	22.5	3.02e+01	59	29	0	23592960	56	6539
2026-01-14 16:30:20.08	19.94	3.53	-40.6	-42.6	22.5	3.02e+01	52	29	0	25165824	56	6510
2026-01-14 16:30:21.09	19.94	3.60	-40.7	-42.7	22.3	3.02e+01	60	29	0	27262976	56	6602
2026-01-14 16:30:22.10	19.94	3.67	-41.3	-43.4	21.6	3.02e+01	58	29	0	29360128	56	7159
2026-01-14 16:30:23.11	19.94	3.74	-42.0	-44.3	20.7	3.02e+01	59	29	0	30932992	56	7986
2026-01-14 16:30:24.12	19.94	3.81	-42.9	-45.7	19.4	3.02e+01	57	29	0	33030144	58	8341
2026-01-14 16:30:25.13	19.93	3.88	-37.7	-39.2	25.7	3.02e+01	45	29	0	34603008	50	6253
2026-01-14 16:30:26.14	19.93	3.95	-40.5	-42.4	22.7	3.02e+01	58	29	0	36700160	54	7191
2026-01-14 16:30:27.15	19.93	4.03	-47.6	-61.9	3.6	3.02e+01	0	29	104	38273024	60	47683
2026-01-14 16:30:28.16	19.93	4.10	-40.1	-42.0	24.1	3.02e+01	46	29	0	38273024	54	6829
2026-01-14 16:30:29.17	19.93	4.17	-47.3	-60.7	3.8	3.02e+01	0	29	104	39845888	60	41531
2026-01-14 16:30:30.17	19.93	4.24	-39.2	-40.9	24.0	3.02e+01	50	29	0	39845888	54	6007
2026-01-14 16:30:31.18	19.93	4.32	-39.8	-41.6	23.9	3.02e+01	56	29	0	41943040	54	6506
2026-01-14 16:30:32.19	19.93	4.39	-39.9	-41.6	23.1	3.02e+01	56	29	0	44040192	54	6570
2026-01-14 16:30:33.20	19.93	4.46	-39.8	-41.6	23.7	3.02e+01	51	29	0	45613056	54	6516
2026-01-14 16:30:34.21	19.93	4.54	-39.2	-40.8	24.1	3.02e+01	56	29	0	47710208	54	5980
2026-01-14 16:30:35.22	19.93	4.61	-38.9	-40.5	24.8	3.02e+01	61	29	0	49283072	52	6439
2026-01-14 16:30:36.23	19.93	4.69	-37.7	-39.1	26.0	3.02e+01	60	29	0	51380224	50	6184
2026-01-14 16:30:37.24	19.93	4.76	-37.4	-38.8	26.2	3.02e+01	51	29	0	53477376	50	5949
2026-01-14 16:30:38.25	19.93	4.84	-37.3	-38.8	26.3	3.02e+01	53	29	0	55050240	50	5930
2026-01-14 16:30:39.26	19.93	4.91	-37.6	-39.0	26.1	3.02e+01	59	29	0	57147392	50	6104
2026-01-14 16:30:40.27	19.93	4.99	-37.3	-38.7	26.4	3.02e+01	59	29	0	58720256	50	5881
2026-01-14 16:30:41.27	19.93	5.06	-37.3	-38.8	26.3	3.02e+01	46	29	0	60817408	50	5932
2026-01-14 16:30:42.28	19.93	5.14	-37.7	-39.1	26.0	3.02e+01	59	29	0	62914560	50	6182
2026-01-14 16:30:43.29	19.93	5.21	-37.4	-38.8	26.4	3.02e+01	56	29	0	64487424	50	5946
2026-01-14 16:30:44.30	19.92	5.29	-37.0	-38.4	26.7	3.02e+01	60	29	0	66584576	50	5668
2026-01-14 16:30:45.31	19.92	5.36	-37.2	-38.6	26.5	3.02e+01	59	29	0	68681728	50	5811
2026-01-14 16:30:46.32	19.92	5.44	-36.9	-38.3	26.8	3.02e+01	59	29	0	70254592	48	6294
2026-01-14 16:30:47.33	19.92	5.52	-36.9	-38.3	26.7	3.02e+01	60	29	0	72351744	48	6335
2026-01-14 16:30:48.33	19.92	5.59	-37.1	-38.5	26.6	3.02e+01	59	29	0	73924608	48	6440
2026-01-14 16:30:49.34	19.92	5.67	-37.2	-38.6	26.6	3.02e+01	48	29	0	76021760	48	6509
2026-01-14 16:30:50.35	19.92	5.75	-37.0	-38.4	26.7	3.02e+01	62	29	0	78118912	48	6407
2026-01-14 16:30:51.36	19.92	5.83	-37.1	-38.5	26.6	3.02e+01	61	29	0	79691776	48	6427
2026-01-14 16:30:52.37	19.92	5.91	-37.0	-38.4	26.8	3.02e+01	57	29	0	81788928	48	6392
2026-01-14 16:30:53.38	19.92	5.98	-37.1	-38.5	26.7	3.02e+01	60	29	0	83361792	48	6437
2026-01-14 16:30:54.39	19.91	6.06	-36.7	-38.1	27.0	3.02e+01	50	29	0	85458944	48	6152
2026-01-14 16:30:55.40	19.91	6.14	-36.7	-38.0	27.1	3.02e+01	60	29	0	87556096	48	6099
2026-01-14 16:30:56.41	19.91	6.22	-36.8	-38.1	27.0	3.02e+01	51	29	0	89128960	48	6190
2026-01-14 16:30:57.43	19.91	6.30	-36.9	-38.2	27.0	3.02e+01	45	29	0	91226112	48	6260
2026-01-14 16:30:58.43	19.91	6.38	-36.7	-38.0	27.1	3.02e+01	59	29	0	93323264	48	6113
2026-01-14 16:30:59.45	19.91	6.46	-36.6	-38.0	27.2	3.02e+01	58	29	0	94896128	48	6083
2026-01-14 16:31:00.46	19.91	6.54	-36.7	-38.0	27.1	3.02e+01	61	29	0	96993280	48	6103
2026-01-14 16:31:01.47	19.91	6.62	-36.6	-38.0	27.2	3.02e+01	58	29	0	98566144	48	6078
2026-01-14 16:31:02.48	19.90	6.70	-36.7	-38.0	27.2	3.02e+01	54	29	0	100663296	48	6108
2026-01-14 16:31:03.49	19.90	6.78	-36.6	-37.9	27.3	3.02e+01	59	29	0	102760448	48	6031
2026-01-14 16:31:04.50	19.90	6.86	-36.5	-37.8	27.4	3.02e+01	56	29	0	104333312	48	5972
2026-01-14 16:31:05.51	19.90	6.95	-36.4	-37.7	27.5	3.02e+01	51	29	0	106430464	48	5871
2026-01-14 16:31:06.52	19.90	7.03	-36.4	-37.7	27.5	3.02e+01	58	29	0	108003328	48	5905
2026-01-14 16:31:07.53	19.90	7.11	-36.4	-37.8	27.4	3.02e+01	44	29	0	110100480	48	5942
2026-01-14 16:31:08.54	19.90	7.19	-36.5	-37.8	27.4	3.02e+01	60	29	0	112197632	48	5952
2026-01-14 16:31:09.55	19.89	7.28	-36.4	-37.7	27.5	3.02e+01	61	29	0	113770496	48	5911
2026-01-14 16:31:10.56	19.89	7.36	-36.5	-37.8	27.5	3.02e+01	50	29	0	115867648	48	5969
2026-01-14 16:31:11.57	19.89	7.44	-36.4	-37.7	27.5	3.02e+01	60	29	0	117440512	48	5922
2026-01-14 16:31:12.58	19.89	7.53	-36.5	-37.8	27.4	3.02e+01	59	29	0	119537664	48	5987
2026-01-14 16:31:13.59	19.89	7.61	-36.6	-37.9	27.4	3.02e+01	60	29	0	121634816	48	6019
2026-01-14 16:31:14.60	19.88	7.70	-36.3	-37.6	27.6	3.02e+01	64	29	0	123207680	48	5838
2026-01-14 16:31:15.61	19.88	7.78	-36.3	-37.6	27.7	3.02e+01	46	29	0	125304832	48	5816
2026-01-14 16:31:16.61	19.88	7.86	-36.5	-37.8	27.5	3.02e+01	57	29	0	126877696	48	5946
2026-01-14 16:31:17.62	19.88	7.95	-36.2	-37.5	27.8	3.02e+01	59	29	0	128974848	48	5760
2026-01-14 16:31:18.63	19.88	8.04	-36.2	-37.5	27.7	3.02e+01	53	29	0	131072000	48	5780
2026-01-14 16:31:19.64	19.88	8.12	-36.2	-37.5	27.7	3.02e+01	58	29	0	132644864	48	5790
2026-01-14 16:31:20.65	19.87	8.21	-36.4	-37.7	27.6	3.02e+01	58	29	0	134742016	48	5868
2026-01-14 16:31:21.66	19.87	8.29	-36.2	-37.6	27.8	3.02e+01	61	29	0	136839168	48	5798
2026-01-14 16:31:22.67	19.87	8.38	-36.1	-37.5	27.8	3.02e+01	57	29	0	138412032	48	5726
2026-01-14 16:31:23.68	19.87	8.47	-36.3	-37.6	27.7	3.02e+01	55	29	0	140509184	48	5807
2026-01-14 16:31:24.69	19.86	8.56	-36.1	-37.4	27.9	3.02e+01	59	29	0	142082048	48	5698
2026-01-14 16:31:25.70	19.86	8.64	-36.3	-37.6	27.7	3.02e+01	56	29	0	144179200	48	5799
2026-01-14 16:31:26.71	19.86	8.73	-36.3	-37.6	27.7	3.02e+01	51	29	0	146276352	48	5812
2026-01-14 16:31:27.72	19.86	8.82	-36.2	-37.5	27.8	3.02e+01	58	29	0	147849216	48	5788
2026-01-14 16:31:28.73	19.86	8.91	-36.1	-37.4	27.9	3.02e+01	61	29	0	149946368	48	5689
2026-01-14 16:31:29.74	19.85	9.00	-36.1	-37.4	27.9	3.02e+01	57	29	0	151519232	48	5693
2026-01-14 16:31:30.75	19.85	9.09	-36.1	-37.4	27.9	3.02e+01	61	29	0	153616384	48	5716
2026-01-14 16:31:31.76	19.85	9.18	-36.2	-37.5	27.8	3.02e+01	54	29	0	155713536	48	5755
2026-01-14 16:31:32.77	19.84	9.27	-36.0	-37.3	28.0	3.02e+01	58	29	0	157286400	48	5646
2026-01-14 16:31:33.78	19.84	9.36	-36.2	-37.5	27.8	3.02e+01	58	29	0	159383552	48	5781
2026-01-14 16:31:34.79	19.84	9.45	-36.0	-37.3	28.1	3.02e+01	51	29	0	161480704	46	6312
2026-01-14 16:31:35.79	19.84	9.54	-35.9	-37.2	28.1	3.02e+01	60	29	0	163053568	46	6257
2026-01-14 16:31:36.80	19.83	9.64	-36.0	-37.2	28.1	3.02e+01	58	29	0	165150720	46	6267
2026-01-14 16:31:37.81	19.83	9.73	-36.1	-37.3	28.0	3.02e+01	55	29	0	166723584	46	6340
2026-01-14 16:31:38.82	19.83	9.82	-36.0	-37.2	28.1	3.02e+01	60	29	0	168820736	46	6277
2026-01-14 16:31:39.83	19.83	9.91	-36.2	-37.5	28.0	3.02e+01	45	29	0	170917888	46	6452
2026-01-14 16:31:40.84	19.82	10.01	-35.8	-37.0	28.4	3.02e+01	57	29	0	172490752	46	6123
2026-01-14 16:31:41.85	19.82	10.10	-35.6	-36.9	28.4	3.02e+01	61	29	0	174587904	46	6005
2026-01-14 16:31:42.86	19.82	10.20	-35.7	-36.9	28.4	3.02e+01	60	29	0	176160768	46	6052
2026-01-14 16:31:43.87	19.81	10.29	-35.6	-36.9	28.4	3.02e+01	59	29	0	178257920	46	6026
2026-01-14 16:31:44.88	19.81	10.39	-35.6	-36.8	28.6	3.02e+01	55	29	0	179830784	46	5986
2026-01-14 16:31:45.89	19.81	10.48	-35.6	-36.9	28.4	3.02e+01	57	29	0	181927936	46	6049
2026-01-14 16:31:46.90	19.80	10.58	-35.6	-36.9	28.5	3.02e+01	60	29	0	184025088	46	5998
2026-01-14 16:31:47.91	19.80	10.67	-35.4	-36.7	28.6	3.02e+01	45	29	0	185597952	46	5886
2026-01-14 16:31:48.91	19.80	10.77	-35.3	-36.6	28.7	3.02e+01	60	29	0	187695104	46	5800
2026-01-14 16:31:49.92	19.79	10.87	-35.4	-36.7	28.6	3.02e+01	57	29	0	189792256	46	5924
2026-01-14 16:31:50.93	19.79	10.97	-35.3	-36.5	28.8	3.02e+01	61	29	0	191365120	46	5782
2026-01-14 16:31:51.94	19.79	11.06	-35.2	-36.5	28.8	3.02e+01	59	29	0	193462272	46	5756
2026-01-14 16:31:52.95	19.78	11.16	-35.2	-36.4	28.9	3.02e+01	46	29	0	195035136	46	5690
2026-01-14 16:31:53.96	19.78	11.26	-35.2	-36.4	28.8	3.02e+01	61	29	0	197132288	46	5725
2026-01-14 16:31:54.97	19.78	11.36	-35.1	-36.4	29.0	3.02e+01	59	29	0	199229440	46	5661
2026-01-14 16:31:55.98	19.77	11.46	-35.1	-36.3	29.0	3.02e+01	48	29	0	200802304	46	5630
2026-01-14 16:31:56.99	19.77	11.56	-35.1	-36.3	29.0	3.02e+01	59	29	0	202899456	46	5631
2026-01-14 16:31:58.00	19.76	11.66	-35.0	-36.2	29.1	3.02e+01	63	29	0	204996608	46	5582
2026-01-14 16:31:59.01	19.76	11.76	-35.1	-36.3	29.1	3.02e+01	59	29	0	206569472	46	5638
2026-01-14 16:32:00.02	19.76	11.86	-35.0	-36.2	29.1	3.02e+01	59	29	0	208666624	46	5571
2026-01-14 16:32:01.03	19.75	11.97	-35.1	-36.3	29.1	3.02e+01	60	29	0	210239488	46	5623
2026-01-14 16:32:02.04	19.75	12.07	-34.9	-36.1	29.1	3.02e+01	60	29	0	212336640	44	6203
2026-01-14 16:32:03.05	19.74	12.17	-35.0	-36.3	29.0	3.02e+01	60	29	0	214433792	44	6289
2026-01-14 16:32:04.06	19.74	12.28	-34.9	-36.1	29.2	3.02e+01	46	29	0	216006656	44	6199
2026-01-14 16:32:05.07	19.73	12.38	-35.1	-36.4	29.1	3.02e+01	62	29	0	218103808	44	6352
2026-01-14 16:32:06.08	19.73	12.49	-35.3	-36.6	28.9	3.02e+01	60	29	0	219676672	44	6520
2026-01-14 16:32:07.09	19.73	12.59	-35.0	-36.2	29.1	3.02e+01	56	29	0	221773824	44	6227
2026-01-14 16:32:08.10	19.72	12.70	-35.1	-36.3	29.1	3.02e+01	56	29	0	223870976	44	6321
2026-01-14 16:32:09.10	19.72	12.80	-35.2	-36.4	29.0	3.02e+01	46	29	0	225443840	44	6401
2026-01-14 16:32:10.11	19.71	12.91	-34.9	-36.1	29.2	3.02e+01	57	29	0	227540992	44	6173
2026-01-14 16:32:11.12	19.71	13.01	-35.0	-36.3	29.1	3.02e+01	60	29	0	229113856	44	6282
2026-01-14 16:32:12.13	19.70	13.12	-35.1	-36.3	29.1	3.02e+01	46	29	0	231211008	44	6306
2026-01-14 16:32:13.14	19.70	13.23	-35.1	-36.3	29.1	3.02e+01	60	29	0	233308160	44	6338
2026-01-14 16:32:14.15	19.69	13.34	-34.9	-36.1	29.3	3.02e+01	51	29	0	234881024	44	6141
2026-01-14 16:32:15.16	19.69	13.45	-35.0	-36.2	29.1	3.02e+01	58	29	0	236978176	44	6236
2026-01-14 16:32:16.17	19.68	13.56	-35.0	-36.2	29.2	3.02e+01	53	29	0	238551040	44	6225
2026-01-14 16:32:17.18	19.68	13.67	-35.0	-36.2	29.2	3.02e+01	51	29	0	240648192	44	6219
2026-01-14 16:32:18.19	19.67	13.78	-35.0	-36.2	29.2	3.02e+01	57	29	0	242745344	44	6243
2026-01-14 16:32:19.20	19.67	13.89	-34.9	-36.1	29.3	3.02e+01	59	29	0	244318208	44	6176
2026-01-14 16:32:20.21	19.66	14.00	-35.0	-36.2	29.2	3.02e+01	60	29	0	246415360	44	6238
2026-01-14 16:32:21.22	19.66	14.12	-35.0	-36.3	29.1	3.02e+01	58	29	0	247988224	44	6279
2026-01-14 16:32:22.23	19.65	14.23	-35.0	-36.2	29.2	3.02e+01	47	29	0	250085376	44	6274
2026-01-14 16:32:23.24	19.64	14.34	-34.9	-36.1	29.3	3.02e+01	61	29	0	252182528	44	6175
2026-01-14 16:32:24.25	19.64	14.46	-35.0	-36.2	29.2	3.02e+01	56	29	0	253755392	44	6265
2026-01-14 16:32:25.26	19.63	14.57	-34.9	-36.1	29.2	3.02e+01	46	29	0	255852544	44	6194
2026-01-14 16:32:26.26	19.63	14.69	-34.9	-36.1	29.3	3.02e+01	58	29	0	257949696	44	6158
2026-01-14 16:32:27.27	19.62	14.80	-34.8	-36.0	29.4	3.02e+01	57	29	0	259522560	44	6084
2026-01-14 16:32:28.28	19.61	14.92	-34.8	-36.0	29.4	3.02e+01	58	29	0	261619712	44	6095
2026-01-14 16:32:29.29	19.61	15.04	-34.8	-36.0	29.4	3.02e+01	59	29	0	263192576	44	6071
2026-01-14 16:32:30.30	19.60	15.16	-34.8	-36.0	29.5	3.02e+01	53	29	0	265289728	44	6105
2026-01-14 16:32:31.31	19.60	15.28	-34.8	-36.0	29.4	3.02e+01	60	29	0	267386880	44	6087
2026-01-14 16:32:32.32	19.59	15.40	-34.8	-36.0	29.4	3.02e+01	58	29	0	268959744	44	6066
2026-01-14 16:32:33.33	19.58	15.52	-34.8	-36.0	29.4	3.02e+01	50	29	0	271056896	44	6091
2026-01-14 16:32:34.34	19.58	15.64	-34.8	-36.0	29.4	3.02e+01	57	29	0	273154048	44	6068
2026-01-14 16:32:35.35	19.57	15.76	-34.6	-35.8	29.6	3.02e+01	60	29	0	274726912	44	5962
2026-01-14 16:32:36.36	19.56	15.88	-34.7	-35.9	29.4	3.02e+01	60	29	0	276824064	44	6015
2026-01-14 16:32:37.37	19.56	16.00	-34.7	-35.9	29.5	3.02e+01	58	29	0	278396928	44	6056
2026-01-14 16:32:38.38	19.55	16.13	-34.6	-35.8	29.6	3.02e+01	52	29	0	280494080	44	5962
2026-01-14 16:32:39.38	19.54	16.25	-34.6	-35.8	29.5	3.02e+01	58	29	0	282591232	44	5972
2026-01-14 16:32:40.39	19.53	16.37	-34.6	-35.8	29.6	3.02e+01	63	29	0	284164096	44	5964
2026-01-14 16:32:41.40	19.53	16.50	-34.7	-35.9	29.5	3.02e+01	47	29	0	286261248	44	6064
2026-01-14 16:32:42.41	19.52	16.63	-34.8	-36.0	29.5	3.02e+01	58	29	0	287834112	44	6070
2026-01-14 16:32:43.42	19.51	16.75	-34.7	-35.9	29.5	3.02e+01	62	29	0	289931264	44	6012
2026-01-14 16:32:44.43	19.50	16.88	-34.8	-36.0	29.4	3.02e+01	61	29	0	291504128	44	6106
2026-01-14 16:32:45.44	19.50	17.01	-34.8	-36.0	29.5	3.02e+01	61	29	0	293601280	44	6065
2026-01-14 16:32:46.44	19.49	17.14	-34.9	-36.1	29.4	3.02e+01	51	29	0	295698432	44	6137
2026-01-14 16:32:47.45	19.48	17.27	-35.0	-36.2	29.3	3.02e+01	58	29	0	297271296	44	6253
2026-01-14 16:32:48.46	19.47	17.40	-34.9	-36.1	29.4	3.02e+01	58	29	0	299368448	44	6139
2026-01-14 16:32:49.47	19.46	17.53	-34.8	-36.0	29.6	3.02e+01	44	29	0	301465600	44	6070
2026-01-14 16:32:50.48	19.46	17.66	-34.8	-36.0	29.4	3.02e+01	57	29	0	303038464	44	6125
2026-01-14 16:32:51.49	19.45	17.80	-34.7	-35.9	29.5	3.02e+01	59	29	0	305135616	44	6046
2026-01-14 16:32:52.50	19.44	17.93	-34.7	-35.9	29.5	3.02e+01	60	29	0	306708480	44	6032
2026-01-14 16:32:53.51	19.43	18.06	-34.7	-35.9	29.6	3.02e+01	58	29	0	308805632	44	6024
2026-01-14 16:32:54.52	19.42	18.20	-34.8	-36.0	29.4	3.02e+01	52	29	0	310902784	44	6107
2026-01-14 16:32:55.53	19.41	18.34	-34.6	-35.8	29.7	3.02e+01	63	29	0	312475648	44	5929
2026-01-14 16:32:56.54	19.40	18.47	-34.6	-35.7	29.7	3.02e+01	61	29	0	314572800	44	5926
2026-01-14 16:32:57.55	19.40	18.61	-34.7	-35.8	29.6	3.02e+01	60	29	0	316145664	44	5992
2026-01-14 16:32:58.55	19.39	18.75	-34.9	-36.1	29.6	3.02e+01	60	29	0	318242816	44	6160
2026-01-14 16:32:59.56	19.38	18.89	-34.8	-36.0	29.5	3.02e+01	46	29	0	320339968	44	6081
2026-01-14 16:33:00.57	19.37	19.03	-34.5	-35.7	29.8	3.02e+01	61	29	0	321912832	44	5907
2026-01-14 16:33:01.58	19.36	19.17	-34.6	-35.8	29.6	3.02e+01	59	29	0	324009984	44	5986
2026-01-14 16:33:02.59	19.35	19.31	-34.6	-35.8	29.7	3.02e+01	46	29	0	326107136	44	5982
2026-01-14 16:33:03.60	19.34	19.46	-34.7	-35.9	29.6	3.02e+01	59	29	0	327680000	44	6032
2026-01-14 16:33:04.61	19.33	19.60	-34.8	-36.0	29.5	3.02e+01	59	29	0	329777152	44	6093
2026-01-14 16:33:05.62	19.32	19.75	-34.9	-36.1	29.4	3.02e+01	58	29	0	331350016	44	6178
2026-01-14 16:33:06.63	19.31	19.89	-34.9	-36.2	29.4	3.02e+01	56	29	0	333447168	44	6206
2026-01-14 16:33:07.64	19.30	20.04	-34.9	-36.1	29.5	3.02e+01	56	29	0	335544320	44	6185
2026-01-14 16:33:08.65	19.29	20.19	-35.0	-36.2	29.3	3.02e+01	60	29	0	337117184	44	6264
2026-01-14 16:33:09.66	19.27	20.34	-35.0	-36.2	29.4	3.02e+01	59	29	0	339214336	44	6231
2026-01-14 16:33:10.67	19.26	20.49	-35.0	-36.2	29.3	3.02e+01	52	29	0	340787200	44	6276
2026-01-14 16:33:11.68	19.25	20.64	-35.0	-36.2	29.4	3.02e+01	58	29	0	342884352	44	6236
2026-01-14 16:33:12.68	19.24	20.79	-35.0	-36.2	29.4	3.02e+01	57	29	0	344981504	44	6248
2026-01-14 16:33:13.69	19.23	20.94	-35.2	-36.4	29.3	3.02e+01	57	29	0	346554368	44	6376
2026-01-14 16:33:14.70	19.22	21.09	-35.1	-36.3	29.3	3.02e+01	61	29	0	348651520	44	6295
2026-01-14 16:33:15.71	19.21	21.25	-35.1	-36.3	29.3	3.02e+01	57	29	0	350224384	44	6314
2026-01-14 16:33:16.72	19.19	21.41	-35.2	-36.4	29.3	3.02e+01	51	29	0	352321536	44	6357
2026-01-14 16:33:17.73	19.18	21.56	-35.2	-36.4	29.1	3.02e+01	59	29	0	354418688	44	6409
2026-01-14 16:33:18.74	19.17	21.72	-35.2	-36.5	29.2	3.02e+01	44	29	0	355991552	44	6429
2026-01-14 16:33:19.75	19.16	21.88	-35.3	-36.5	29.1	3.02e+01	61	29	0	358088704	44	6489
2026-01-14 16:33:20.76	19.15	22.04	-35.3	-36.5	29.1	3.02e+01	59	29	0	359661568	44	6460
2026-01-14 16:33:21.77	19.13	22.20	-35.3	-36.6	29.0	3.02e+01	59	29	0	361758720	44	6514
2026-01-14 16:33:22.77	19.12	22.36	-35.2	-36.4	29.2	3.02e+01	58	29	0	363855872	44	6423
2026-01-14 16:33:23.78	19.11	22.53	-35.3	-36.5	29.2	3.02e+01	57	29	0	365428736	44	6445
2026-01-14 16:33:24.79	19.09	22.69	-35.2	-36.4	29.2	3.02e+01	58	29	0	367525888	44	6389
2026-01-14 16:33:25.80	19.08	22.86	-35.2	-36.4	29.2	3.02e+01	59	29	0	369623040	44	6388
2026-01-14 16:33:26.81	19.07	23.02	-35.3	-36.5	29.2	3.02e+01	46	29	0	371195904	44	6455
2026-01-14 16:33:27.82	19.05	23.19	-35.4	-36.7	29.0	3.02e+01	57	29	0	373293056	44	6596
2026-01-14 16:33:28.82	19.04	23.36	-35.4	-36.6	29.0	3.02e+01	62	29	0	374865920	44	6555
2026-01-14 16:33:29.83	19.02	23.53	-35.4	-36.6	29.1	3.02e+01	60	29	0	376963072	44	6570
2026-01-14 16:33:30.84	19.01	23.70	-35.3	-36.5	29.2	3.02e+01	61	29	0	379060224	44	6464
2026-01-14 16:33:31.85	18.99	23.88	-35.4	-36.6	29.1	3.02e+01	46	29	0	380633088	44	6514
2026-01-14 16:33:32.86	18.98	24.05	-35.3	-36.6	29.1	3.02e+01	59	29	0	382730240	44	6504
2026-01-14 16:33:33.87	18.96	24.23	-35.4	-36.6	29.1	3.02e+01	61	29	0	384303104	44	6536
2026-01-14 16:33:34.88	18.95	24.40	-35.4	-36.6	29.1	3.02e+01	59	29	0	386400256	44	6514
2026-01-14 16:33:35.88	18.93	24.58	-35.5	-36.8	28.9	3.02e+01	59	29	0	388497408	44	6661
2026-01-14 16:33:36.89	18.92	24.76	-35.4	-36.7	29.0	3.02e+01	46	29	0	390070272	44	6575
2026-01-14 16:33:37.90	18.90	24.94	-35.4	-36.7	29.0	3.02e+01	59	29	0	392167424	44	6587
2026-01-14 16:33:38.91	18.88	25.12	-35.4	-36.7	29.1	3.02e+01	59	29	0	393740288	44	6577
2026-01-14 16:33:39.92	18.87	25.31	-35.3	-36.5	29.2	3.02e+01	44	29	0	395837440	44	6467
2026-01-14 16:33:40.93	18.85	25.49	-35.2	-36.5	29.2	3.02e+01	63	29	0	397934592	44	6435
2026-01-14 16:33:41.94	18.83	25.68	-35.2	-36.4	29.3	3.02e+01	60	29	0	399507456	44	6376
2026-01-14 16:33:42.95	18.82	25.87	-35.1	-36.3	29.4	3.02e+01	56	29	0	401604608	44	6293
2026-01-14 16:33:43.96	18.80	26.06	-35.0	-36.3	29.4	3.02e+01	60	29	0	403177472	44	6279
2026-01-14 16:33:44.97	18.78	26.25	-35.1	-36.3	29.4	3.02e+01	45	29	0	405274624	44	6330
2026-01-14 16:33:45.98	18.76	26.44	-35.0	-36.2	29.4	3.02e+01	57	29	0	407371776	44	6272
2026-01-14 16:33:46.99	18.74	26.63	-35.1	-36.3	29.4	3.02e+01	57	29	0	408944640	44	6302
2026-01-14 16:33:48.00	18.72	26.83	-34.9	-36.1	29.5	3.02e+01	48	29	0	411041792	44	6196
2026-01-14 16:33:49.01	18.71	27.03	-34.9	-36.1	29.5	3.02e+01	61	29	0	412614656	44	6187
2026-01-14 16:33:50.02	18.69	27.22	-34.9	-36.1	29.5	3.02e+01	61	29	0	414711808	44	6173
2026-01-14 16:33:51.03	18.67	27.42	-34.9	-36.0	29.6	3.02e+01	60	29	0	416808960	44	6131
2026-01-14 16:33:52.04	18.65	27.63	-34.8	-36.0	29.7	3.02e+01	59	29	0	418381824	44	6090
2026-01-14 16:33:53.05	18.63	27.83	-34.9	-36.1	29.5	3.02e+01	48	29	0	420478976	44	6200
2026-01-14 16:33:54.06	18.60	28.03	-34.8	-36.0	29.6	3.02e+01	59	29	0	422576128	44	6111
2026-01-14 16:33:55.07	18.58	28.24	-34.9	-36.1	29.7	3.02e+01	60	29	0	424148992	44	6193
2026-01-14 16:33:56.07	18.56	28.45	-34.9	-36.1	29.6	3.02e+01	46	29	0	426246144	44	6179
2026-01-14 16:33:57.08	18.54	28.66	-34.8	-35.9	29.7	3.02e+01	61	29	0	427819008	44	6062
2026-01-14 16:33:58.09	18.52	28.87	-34.8	-36.0	29.7	3.02e+01	55	29	0	429916160	44	6113
2026-01-14 16:33:59.10	18.50	29.08	-34.8	-36.0	29.7	3.02e+01	62	29	0	432013312	44	6087
2026-01-14 16:34:00.11	18.47	29.30	-35.0	-36.2	29.5	3.02e+01	61	29	0	433586176	44	6242
2026-01-14 16:34:01.12	18.45	29.51	-34.9	-36.1	29.5	3.02e+01	61	29	0	435683328	44	6203
2026-01-14 16:34:02.13	18.43	29.73	-35.0	-36.2	29.5	3.02e+01	59	29	0	437256192	44	6214
2026-01-14 16:34:03.13	18.40	29.95	-34.7	-35.9	29.7	3.02e+01	58	29	0	439353344	44	6058
2026-01-14 16:34:04.14	18.38	30.17	-34.6	-35.8	29.8	3.02e+01	46	29	0	441450496	44	5975
2026-01-14 16:34:05.15	18.35	30.40	-34.6	-35.8	29.9	3.02e+01	58	29	0	443023360	44	5969
2026-01-14 16:34:06.16	18.33	30.62	-34.3	-35.5	30.1	3.02e+01	47	29	0	445120512	44	5759
2026-01-14 16:34:07.17	18.30	30.85	-34.5	-35.6	29.9	3.02e+01	58	29	0	446693376	44	5854
2026-01-14 16:34:08.18	18.28	31.08	-34.6	-35.8	29.8	3.02e+01	58	29	0	448790528	44	5956
2026-01-14 16:34:09.19	18.25	31.31	-34.7	-35.9	29.8	3.02e+01	52	29	0	450887680	44	6036
2026-01-14 16:34:10.20	18.22	31.54	-34.8	-36.0	29.7	3.02e+01	56	29	0	452460544	44	6107
2026-01-14 16:34:11.21	18.20	31.78	-34.9	-36.1	29.6	3.02e+01	59	29	0	454557696	44	6176
2026-01-14 16:34:12.22	18.17	32.02	-34.9	-36.1	29.6	3.02e+01	61	29	0	456130560	44	6155
2026-01-14 16:34:13.23	18.14	32.26	-34.7	-35.9	29.7	3.02e+01	58	29	0	458227712	44	6040
2026-01-14 16:34:14.24	18.11	32.50	-34.6	-35.8	29.8	3.02e+01	53	29	0	460324864	44	5955
2026-01-14 16:34:15.25	18.08	32.74	-34.8	-35.9	29.7	3.02e+01	58	29	0	461897728	44	6064
2026-01-14 16:34:16.26	18.05	32.99	-34.8	-36.0	29.8	3.02e+01	57	29	0	463994880	44	6069
2026-01-14 16:34:17.27	18.02	33.24	-34.8	-36.0	29.7	3.02e+01	37	29	0	466092032	44	6071
2026-01-14 16:34:18.27	17.99	33.48	-34.9	-36.1	29.6	3.02e+01	58	29	0	467664896	44	6162
2026-01-14 16:34:19.28	17.96	33.74	-35.0	-36.2	29.5	3.02e+01	59	29	0	469762048	44	6276
2026-01-14 16:34:20.29	17.93	33.99	-35.2	-36.4	29.3	3.02e+01	58	29	0	471334912	44	6366
2026-01-14 16:34:21.30	17.90	34.25	-35.1	-36.3	29.4	3.02e+01	59	29	0	473432064	44	6306
2026-01-14 16:34:22.31	17.86	34.51	-35.2	-36.5	29.3	3.02e+01	58	29	0	475529216	44	6425
2026-01-14 16:34:23.32	17.83	34.77	-35.2	-36.5	29.3	3.02e+01	59	29	0	477102080	44	6426
2026-01-14 16:34:24.33	17.79	35.03	-35.4	-36.6	29.2	3.02e+01	59	29	0	479199232	44	6551
2026-01-14 16:34:25.34	17.76	35.30	-35.7	-36.9	28.9	3.02e+01	48	29	0	480772096	44	6783
2026-01-14 16:34:26.35	17.72	35.57	-35.9	-37.2	28.7	3.02e+01	57	29	0	482869248	44	6972
2026-01-14 16:34:27.36	17.69	35.84	-36.1	-37.3	28.7	3.02e+01	59	29	0	484966400	46	6334
2026-01-14 16:34:28.37	17.65	36.11	-36.3	-37.5	28.4	3.02e+01	55	29	0	486539264	46	6475
2026-01-14 16:34:29.37	17.61	36.39	-36.4	-37.7	28.4	3.02e+01	61	29	0	488636416	46	6582
2026-01-14 16:34:30.38	17.57	36.66	-36.4	-37.7	28.3	3.02e+01	55	29	0	490733568	46	6611
2026-01-14 16:34:31.39	17.53	36.95	-36.4	-37.7	28.3	3.02e+01	60	29	0	492306432	46	6595
2026-01-14 16:34:32.40	17.49	37.23	-36.6	-37.9	28.2	3.02e+01	61	29	0	494403584	46	6731
2026-01-14 16:34:33.41	17.45	37.52	-36.6	-37.9	28.1	3.02e+01	47	29	0	495976448	46	6735
2026-01-14 16:34:34.42	17.41	37.80	-36.8	-38.1	27.9	3.02e+01	60	29	0	498073600	46	6934
2026-01-14 16:34:35.43	17.37	38.10	-37.1	-38.4	27.7	3.02e+01	60	29	0	499646464	48	6399
2026-01-14 16:34:36.44	17.32	38.39	-37.1	-38.4	27.7	3.02e+01	55	29	0	501743616	48	6410
2026-01-14 16:34:37.45	17.28	38.69	-36.8	-38.1	28.0	3.02e+01	61	29	0	503840768	48	6173
2026-01-14 16:34:38.46	17.23	38.99	-37.0	-38.4	27.7	3.02e+01	55	29	0	505413632	48	6354
2026-01-14 16:34:39.47	17.19	39.29	-37.0	-38.3	27.8	3.02e+01	55	29	0	507510784	48	6307
2026-01-14 16:34:40.48	17.14	39.59	-36.9	-38.2	27.9	3.02e+01	59	29	0	509083648	48	6214
2026-01-14 16:34:41.49	17.09	39.90	-37.0	-38.3	27.8	3.02e+01	50	29	0	511180800	48	6308
2026-01-14 16:34:42.50	17.04	40.21	-36.8	-38.1	27.9	3.02e+01	60	29	0	513277952	48	6154
2026-01-14 16:34:43.50	16.99	40.52	-36.4	-37.7	28.4	3.02e+01	45	29	0	514850816	48	5877
2026-01-14 16:34:44.52	16.94	40.84	-36.4	-37.6	28.3	3.02e+01	60	29	0	516947968	48	5844
2026-01-14 16:34:45.52	16.89	41.16	-36.5	-37.8	28.3	3.02e+01	61	29	0	519045120	48	5946
2026-01-14 16:34:46.53	16.84	41.48	-36.7	-38.0	28.0	3.02e+01	54	29	0	520617984	48	6079
2026-01-14 16:34:47.54	16.78	41.81	-36.7	-38.0	28.1	3.02e+01	61	29	0	522715136	48	6081
2026-01-14 16:34:48.55	16.73	42.13	-36.6	-37.8	28.2	3.02e+01	62	29	0	524288000	48	5987
2026-01-14 16:34:49.56	16.67	42.47	-36.8	-38.1	28.1	3.02e+01	60	29	0	526385152	48	6183
2026-01-14 16:34:50.57	16.61	42.80	-36.6	-37.9	28.0	3.02e+01	59	29	0	528482304	48	6047
2026-01-14 16:34:51.58	16.55	43.14	-36.7	-38.0	28.0	3.02e+01	45	29	0	530055168	48	6086
2026-01-14 16:34:52.58	16.49	43.48	-35.9	-37.1	28.8	3.02e+01	61	29	0	532152320	46	6185
2026-01-14 16:34:53.59	16.43	43.82	-36.1	-37.4	28.6	3.02e+01	61	29	0	534249472	46	6391
2026-01-14 16:34:54.60	16.36	44.17	-35.4	-36.7	29.2	3.02e+01	44	29	0	535822336	46	5871
2026-01-14 16:34:55.61	16.30	44.52	-35.3	-36.5	29.4	3.02e+01	58	29	0	537919488	46	5740
2026-01-14 16:34:56.61	16.23	44.87	-35.1	-36.3	29.5	3.02e+01	60	29	0	539492352	46	5658
2026-01-14 16:34:57.63	16.16	45.23	-35.1	-36.3	29.5	3.02e+01	61	29	0	541589504	46	5628
2026-01-14 16:34:58.63	16.09	45.59	-35.3	-36.5	29.3	3.02e+01	56	29	0	543686656	46	5763
2026-01-14 16:34:59.64	16.02	45.95	-35.1	-36.3	29.5	3.02e+01	57	29	0	545259520	46	5609
2026-01-14 16:35:00.65	15.95	46.32	-35.1	-36.3	29.5	3.02e+01	58	29	0	547356672	44	6305
2026-01-14 16:35:01.66	15.87	46.69	-35.4	-36.6	29.2	3.02e+01	50	29	0	548929536	44	6558
2026-01-14 16:35:02.67	15.79	47.06	-35.4	-36.6	29.2	3.02e+01	45	29	0	551026688	44	6562
2026-01-14 16:35:03.67	15.71	47.44	-35.2	-36.5	29.4	3.02e+01	60	29	0	552599552	44	6426
2026-01-14 16:35:04.68	15.63	47.82	-35.4	-36.7	29.2	3.02e+01	58	29	0	554696704	44	6575
2026-01-14 16:35:05.69	15.55	48.20	-35.2	-36.4	29.4	3.02e+01	61	29	0	556793856	44	6377
2026-01-14 16:35:06.70	15.46	48.59	-35.2	-36.4	29.3	3.02e+01	58	29	0	558366720	44	6394
2026-01-14 16:35:07.70	15.37	48.98	-35.0	-36.2	29.5	3.02e+01	59	29	0	560463872	44	6252
2026-01-14 16:35:08.71	15.28	49.37	-35.1	-36.3	29.4	3.02e+01	59	29	0	562561024	44	6299
2026-01-14 16:35:09.72	15.19	49.77	-35.3	-36.5	29.3	3.02e+01	59	29	0	564133888	44	6476
2026-01-14 16:35:10.73	15.09	50.17	-35.0	-36.2	29.5	3.02e+01	49	29	0	566231040	44	6270
2026-01-14 16:35:11.74	14.99	50.58	-34.8	-36.0	29.7	3.02e+01	56	29	0	567803904	44	6091
2026-01-14 16:35:12.75	14.89	50.99	-35.1	-36.3	29.4	3.02e+01	63	29	0	569901056	44	6320
2026-01-14 16:35:13.76	14.78	51.40	-35.0	-36.2	29.4	3.02e+01	57	29	0	571998208	44	6270
2026-01-14 16:35:14.77	14.68	51.82	-34.2	-35.4	30.2	3.02e+01	60	29	0	573571072	44	5699
2026-01-14 16:35:15.78	14.56	52.24	-34.3	-35.5	30.0	3.02e+01	45	29	0	575668224	44	5757
2026-01-14 16:35:16.79	14.45	52.67	-34.3	-35.5	30.1	3.02e+01	61	29	0	577241088	44	5753
2026-01-14 16:35:17.79	14.33	53.09	-34.3	-35.5	30.2	3.02e+01	61	29	0	579338240	44	5729
2026-01-14 16:35:18.80	14.21	53.52	-34.2	-35.4	30.2	3.02e+01	56	29	0	581435392	44	5667
2026-01-14 16:35:19.81	14.09	53.96	-34.3	-35.4	30.2	3.02e+01	59	29	0	583008256	44	5719
2026-01-14 16:35:20.82	13.96	54.40	-34.3	-35.5	30.1	3.02e+01	60	29	0	585105408	44	5752
2026-01-14 16:35:21.83	13.82	54.84	-34.4	-35.5	30.1	3.02e+01	60	29	0	586678272	44	5783
2026-01-14 16:35:22.84	13.68	55.29	-34.5	-35.7	29.9	3.02e+01	57	29	0	588775424	44	5877
2026-01-14 16:35:23.85	13.54	55.74	-34.4	-35.6	29.9	3.02e+01	55	29	0	590872576	44	5804
2026-01-14 16:35:24.86	13.39	56.19	-34.5	-35.7	29.9	3.02e+01	61	29	0	592445440	44	5882
2026-01-14 16:35:25.86	13.24	56.64	-34.9	-36.1	29.6	3.02e+01	59	29	0	594542592	44	6172
2026-01-14 16:35:26.87	13.08	57.11	-35.0	-36.2	29.5	3.02e+01	60	29	0	596115456	44	6228
2026-01-14 16:35:27.88	12.92	57.57	-35.3	-36.5	29.2	3.02e+01	62	29	0	598212608	44	6485
2026-01-14 16:35:28.89	12.75	58.04	-35.4	-36.6	29.0	3.02e+01	45	29	0	600309760	44	6557
2026-01-14 16:35:29.90	12.57	58.51	-35.7	-36.9	28.8	3.02e+01	60	29	0	601882624	44	6788
2026-01-14 16:35:30.91	12.39	58.99	-36.1	-37.4	28.5	3.02e+01	58	29	0	603979776	46	6372
2026-01-14 16:35:31.92	12.20	59.47	-35.8	-37.0	28.8	3.02e+01	46	29	0	605552640	46	6106
2026-01-14 16:35:32.93	12.01	59.95	-36.0	-37.3	28.6	3.02e+01	60	29	0	607649792	46	6295
2026-01-14 16:35:33.94	11.80	60.44	-36.5	-37.8	28.2	3.02e+01	58	29	0	609746944	46	6660
2026-01-14 16:35:34.95	11.59	60.93	-36.7	-38.0	27.9	3.02e+01	60	29	0	611319808	46	6829
2026-01-14 16:35:35.96	11.37	61.43	-37.1	-38.4	27.7	3.02e+01	61	29	0	613416960	48	6369
2026-01-14 16:35:36.97	11.14	61.93	-37.0	-38.3	27.7	3.02e+01	60	29	0	615514112	48	6282
2026-01-14 16:35:37.98	10.90	62.43	-36.9	-38.2	27.8	3.02e+01	59	29	0	617086976	48	6227
2026-01-14 16:35:38.99	10.64	62.93	-37.2	-38.5	27.5	3.02e+01	60	29	0	619184128	48	6480
2026-01-14 16:35:39.99	10.39	63.44	-37.0	-38.3	27.6	3.02e+01	41	29	0	620756992	48	6301
2026-01-14 16:35:41.00	10.11	63.95	-37.6	-38.9	27.1	3.02e+01	60	29	0	622854144	48	6793
2026-01-14 16:35:42.01	9.83	64.46	-37.9	-39.2	26.8	3.02e+01	62	29	0	624951296	50	6258
2026-01-14 16:35:43.02	9.53	64.98	-38.1	-39.4	26.7	3.02e+01	60	29	0	626524160	50	6414
2026-01-14 16:35:44.03	9.21	65.50	-38.7	-40.2	25.9	3.02e+01	56	29	0	628621312	50	6981
2026-01-14 16:35:45.04	8.88	66.02	-38.6	-40.1	26.1	3.02e+01	45	29	0	630718464	50	6890
2026-01-14 16:35:46.05	8.54	66.55	-39.2	-40.7	25.4	3.02e+01	60	29	0	632291328	52	6598
2026-01-14 16:35:47.06	8.17	67.08	-39.3	-40.8	25.5	3.02e+01	58	29	0	634388480	52	6718
2026-01-14 16:35:48.06	7.79	67.60	-39.5	-41.0	25.2	3.02e+01	47	29	0	635961344	52	6876
2026-01-14 16:35:49.07	7.39	68.14	-39.6	-41.1	25.1	3.02e+01	60	29	0	638058496	52	6957
2026-01-14 16:35:50.08	6.96	68.67	-39.6	-41.2	25.0	3.02e+01	62	29	0	639631360	52	6969
2026-01-14 16:35:51.09	6.51	69.21	-39.9	-41.5	24.8	3.02e+01	58	29	0	641728512	52	7230
2026-01-14 16:35:52.10	6.04	69.75	-39.6	-41.1	25.0	3.02e+01	58	29	0	643825664	54	6181
2026-01-14 16:35:53.11	5.53	70.30	-39.8	-41.4	24.8	3.02e+01	46	29	0	645398528	54	6384
2026-01-14 16:35:54.12	5.00	70.84	-40.0	-41.6	24.6	3.02e+01	59	29	0	647495680	54	6552
2026-01-14 16:35:55.13	4.43	71.39	-39.3	-40.9	25.2	3.02e+01	58	29	0	649068544	54	6005
2026-01-14 16:35:56.14	3.82	71.93	-38.8	-40.2	25.9	3.02e+01	65	29	0	651165696	52	6271
2026-01-14 16:35:57.09	3.22	72.45	-38.9	-40.4	25.8	3.02e+01	58	29	0	653262848	52	6354
2026-01-14 16:35:58.10	2.53	72.99	-38.6	-40.1	26.1	3.02e+01	48	29	0	654835712	52	6152
2026-01-14 16:35:59.11	1.79	73.54	-38.2	-39.6	26.5	3.02e+01	55	29	0	656932864	52	5792
2026-01-14 16:36:00.12	1.00	74.09	-39.0	-40.5	25.7	3.02e+01	58	29	0	659030016	52	6459
2026-01-14 16:36:01.13	0.15	74.64	-38.5	-39.9	26.2	3.02e+01	60	29	0	660602880	52	6027
2026-01-14 16:36:02.13	359.25	75.18	-38.7	-40.1	26.0	3.02e+01	60	29	0	662700032	52	6199
2026-01-14 16:36:03.15	358.25	75.73	-38.6	-40.0	26.2	3.02e+01	59	29	0	664272896	52	6112
2026-01-14 16:36:04.16	357.18	76.27	-38.7	-40.1	26.0	3.02e+01	60	29	0	666370048	52	6199
2026-01-14 16:36:05.16	356.03	76.80	-38.5	-40.0	26.2	3.02e+01	62	29	0	668467200	52	6078
2026-01-14 16:36:06.17	354.77	77.34	-38.1	-39.5	26.5	3.02e+01	47	29	0	670040064	52	5761
2026-01-14 16:36:07.18	353.39	77.87	-37.8	-39.2	27.0	3.02e+01	59	29	0	672137216	50	6206
2026-01-14 16:36:08.19	351.89	78.39	-37.4	-38.7	27.4	3.02e+01	57	29	0	673710080	50	5924
2026-01-14 16:36:09.20	350.24	78.91	-37.3	-38.6	27.4	3.02e+01	45	29	0	675807232	50	5810
2026-01-14 16:36:10.21	348.42	79.42	-36.5	-37.8	28.2	3.02e+01	59	29	0	677904384	48	5959
2026-01-14 16:36:11.22	346.42	79.92	-36.1	-37.3	28.6	3.02e+01	58	29	0	679477248	46	6310
2026-01-14 16:36:12.23	344.21	80.41	-36.0	-37.3	28.6	3.02e+01	56	29	0	681574400	46	6300
2026-01-14 16:36:13.24	341.76	80.88	-35.8	-37.0	28.8	3.02e+01	58	29	0	683671552	46	6098
2026-01-14 16:36:14.25	339.04	81.34	-35.9	-37.1	28.6	3.02e+01	49	29	0	685244416	46	6179
2026-01-14 16:36:15.25	336.06	81.77	-36.8	-38.1	27.8	3.02e+01	58	29	0	687341568	48	6145
2026-01-14 16:36:16.26	332.71	82.18	-36.0	-37.2	28.6	3.02e+01	59	29	0	688914432	46	6246
2026-01-14 16:36:17.27	329.01	82.57	-35.9	-37.1	28.6	3.02e+01	50	29	0	691011584	46	6192
2026-01-14 16:36:18.28	324.91	82.91	-36.5	-37.8	28.1	3.02e+01	59	29	0	693108736	46	6704
2026-01-14 16:36:19.29	320.41	83.22	-36.1	-37.4	28.4	3.02e+01	61	29	0	694681600	46	6385
2026-01-14 16:36:20.30	315.51	83.49	-36.1	-37.3	28.5	3.02e+01	57	29	0	696778752	46	6327
2026-01-14 16:36:21.31	310.23	83.70	-36.4	-37.7	28.1	3.02e+01	60	29	0	698351616	46	6639
2026-01-14 16:36:22.32	304.63	83.86	-36.2	-37.5	28.4	3.02e+01	60	29	0	700448768	46	6428
2026-01-14 16:36:23.33	298.79	83.96	-36.3	-37.5	28.2	3.02e+01	59	29	0	702545920	46	6479
2026-01-14 16:36:24.34	292.83	83.99	-36.6	-37.9	27.9	3.02e+01	59	29	0	704118784	46	6732
2026-01-14 16:36:25.35	286.86	83.96	-36.5	-37.8	28.1	3.02e+01	46	29	0	706215936	46	6697
2026-01-14 16:36:26.36	281.02	83.86	-36.0	-37.3	28.6	3.02e+01	60	29	0	707788800	46	6335
2026-01-14 16:36:27.36	275.48	83.70	-35.9	-37.2	28.7	3.02e+01	61	29	0	709885952	46	6242
2026-01-14 16:36:28.37	270.20	83.49	-35.9	-37.2	28.6	3.02e+01	59	29	0	711983104	46	6230
2026-01-14 16:36:29.38	265.29	83.23	-36.6	-37.9	27.9	3.02e+01	62	29	0	713555968	46	6794
2026-01-14 16:36:30.39	260.79	82.92	-36.3	-37.5	28.4	3.02e+01	54	29	0	715653120	46	6498
2026-01-14 16:36:31.40	256.69	82.57	-36.0	-37.3	28.5	3.02e+01	59	29	0	717225984	46	6309
2026-01-14 16:36:32.41	252.98	82.18	-36.7	-38.0	27.9	3.02e+01	61	29	0	719323136	46	6826
2026-01-14 16:36:33.42	249.63	81.77	-35.5	-36.7	29.0	3.02e+01	49	29	0	721420288	46	5923
2026-01-14 16:36:34.43	246.62	81.34	-36.1	-37.4	28.6	3.02e+01	57	29	0	722993152	46	6396
2026-01-14 16:36:35.43	243.92	80.88	-36.1	-37.3	28.6	3.02e+01	46	29	0	725090304	46	6318
2026-01-14 16:36:36.44	241.47	80.41	-35.8	-37.0	28.8	3.02e+01	61	29	0	727187456	46	6091
2026-01-14 16:36:37.45	239.26	79.92	-36.0	-37.3	28.7	3.02e+01	59	29	0	728760320	46	6292
2026-01-14 16:36:38.46	237.26	79.42	-36.6	-37.9	28.1	3.02e+01	52	29	0	730857472	46	6762
2026-01-14 16:36:39.47	235.44	78.91	-36.6	-37.9	28.1	3.02e+01	59	29	0	732430336	46	6734
2026-01-14 16:36:40.48	233.79	78.39	-37.3	-38.7	27.3	3.02e+01	58	29	0	734527488	48	6597
2026-01-14 16:36:41.49	232.28	77.87	-37.9	-39.3	26.6	3.02e+01	60	29	0	736624640	48	7109
2026-01-14 16:36:42.49	230.92	77.34	-38.1	-39.5	26.7	3.02e+01	58	29	0	738197504	50	6432
2026-01-14 16:36:43.50	229.65	76.81	-38.7	-40.2	26.0	3.02e+01	46	29	0	740294656	50	6963
2026-01-14 16:36:44.51	228.49	76.27	-38.7	-40.2	26.0	3.02e+01	59	29	0	741867520	50	6975
2026-01-14 16:36:45.52	227.42	75.72	-39.3	-40.9	25.3	3.02e+01	59	29	0	743964672	52	6748
2026-01-14 16:36:46.53	226.43	75.18	-38.6	-40.0	26.1	3.02e+01	46	29	0	746061824	52	6079
2026-01-14 16:36:47.54	225.52	74.63	-38.8	-40.3	25.9	3.02e+01	59	29	0	747634688	52	6338
2026-01-14 16:36:48.55	224.67	74.08	-39.5	-41.1	25.1	3.02e+01	62	29	0	749731840	52	6953
2026-01-14 16:36:49.56	223.88	73.53	-38.2	-39.6	26.5	3.02e+01	59	29	0	751304704	52	5819
2026-01-14 16:36:50.57	223.14	72.99	-39.0	-40.5	25.4	3.02e+01	59	29	0	753401856	52	6477
2026-01-14 16:36:51.58	222.45	72.44	-39.9	-41.6	24.6	3.02e+01	54	29	0	755499008	54	6523
2026-01-14 16:36:52.59	221.81	71.89	-38.4	-39.8	26.3	3.02e+01	57	29	0	757071872	52	5984
2026-01-14 16:36:53.60	221.20	71.34	-39.4	-40.9	25.2	3.02e+01	57	29	0	759169024	52	6769
2026-01-14 16:36:54.61	220.64	70.80	-39.8	-41.4	24.9	3.02e+01	45	29	0	760741888	52	7160
2026-01-14 16:36:55.62	220.10	70.25	-40.4	-42.0	24.1	3.02e+01	58	29	0	762839040	54	6874
2026-01-14 16:36:56.62	219.60	69.71	-39.9	-41.4	24.7	3.02e+01	58	29	0	764936192	56	5722
2026-01-14 16:36:57.63	219.13	69.17	-40.6	-42.3	23.8	3.02e+01	61	29	0	766509056	54	7100
2026-01-14 16:36:58.64	218.68	68.63	-41.7	-43.8	22.3	3.02e+01	60	29	0	768606208	56	7462
2026-01-14 16:36:59.65	218.26	68.10	-40.9	-42.6	23.5	3.02e+01	59	29	0	770179072	58	5854
2026-01-14 16:37:00.66	217.85	67.56	-40.7	-42.5	23.8	3.02e+01	60	29	0	772276224	56	6436
2026-01-14 16:37:01.67	217.47	67.03	-41.0	-42.8	23.3	3.02e+01	59	29	0	774373376	56	6675
2026-01-14 16:37:02.68	217.11	66.50	-40.6	-42.2	24.3	3.02e+01	45	29	0	775946240	56	6254
2026-01-14 16:37:03.69	216.76	65.97	-38.9	-40.3	26.0	3.02e+01	59	29	0	778043392	52	6323
2026-01-14 16:37:04.69	216.44	65.45	-38.7	-40.1	26.1	3.02e+01	62	29	0	780140544	52	6179
2026-01-14 16:37:05.70	216.12	64.93	-39.3	-40.8	25.3	3.02e+01	57	29	0	781713408	52	6695
2026-01-14 16:37:06.71	215.82	64.41	-38.8	-40.2	26.0	3.02e+01	58	28	0	783810560	52	6266
2026-01-14 16:37:07.72	215.54	63.90	-37.8	-39.2	26.9	3.02e+01	45	28	0	785383424	50	6242
2026-01-14 16:37:08.73	215.26	63.38	-37.1	-38.4	27.6	3.02e+01	61	29	0	787480576	50	5711
2026-01-14 16:37:09.74	215.00	62.88	-36.8	-38.1	27.8	3.02e+01	59	29	0	789577728	48	6163
2026-01-14 16:37:10.75	214.75	62.37	-37.8	-39.3	26.8	3.02e+01	56	29	0	791150592	48	7054
2026-01-14 16:37:11.76	214.51	61.87	-37.3	-38.6	27.3	3.02e+01	58	29	0	793247744	48	6551
2026-01-14 16:37:12.77	214.28	61.37	-36.8	-38.1	27.7	3.02e+01	55	29	0	794820608	48	6182
2026-01-14 16:37:13.78	214.06	60.87	-37.1	-38.4	27.6	3.02e+01	59	29	0	796917760	48	6401
2026-01-14 16:37:14.79	213.85	60.38	-37.0	-38.3	27.7	3.02e+01	61	29	0	799014912	48	6328
2026-01-14 16:37:15.80	213.64	59.89	-36.7	-38.0	27.9	3.02e+01	44	29	0	800587776	48	6081
2026-01-14 16:37:16.81	213.45	59.41	-36.2	-37.5	28.3	3.02e+01	56	29	0	802684928	48	5748
2026-01-14 16:37:17.82	213.26	58.93	-36.3	-37.6	28.3	3.02e+01	58	29	0	804257792	48	5808
2026-01-14 16:37:18.83	213.08	58.45	-35.8	-37.1	28.8	3.02e+01	56	29	0	806354944	46	6147
2026-01-14 16:37:19.84	212.90	57.98	-35.5	-36.8	29.1	3.02e+01	62	29	0	808452096	46	5946
2026-01-14 16:37:20.85	212.73	57.51	-35.5	-36.7	29.0	3.02e+01	50	29	0	810024960	46	5917
2026-01-14 16:37:21.86	212.57	57.04	-35.5	-36.7	29.1	3.02e+01	59	29	0	812122112	46	5917
2026-01-14 16:37:22.87	212.41	56.58	-35.0	-36.3	29.3	3.02e+01	61	29	0	813694976	46	5595
2026-01-14 16:37:23.88	212.26	56.12	-34.7	-35.8	29.8	3.02e+01	48	29	0	815792128	44	5989
2026-01-14 16:37:24.89	212.11	55.66	-34.5	-35.7	29.9	3.02e+01	60	29	0	817889280	44	5886
2026-01-14 16:37:25.89	211.97	55.21	-34.3	-35.5	30.1	3.02e+01	60	29	0	819462144	44	5789
2026-01-14 16:37:26.91	211.83	54.76	-34.2	-35.4	30.2	3.02e+01	60	29	0	821559296	44	5664
2026-01-14 16:37:27.92	211.69	54.32	-34.0	-35.1	30.5	3.02e+01	59	29	0	823656448	42	6178
2026-01-14 16:37:28.92	211.57	53.88	-34.1	-35.2	30.4	3.02e+01	46	29	0	825229312	42	6272
2026-01-14 16:37:29.93	211.44	53.45	-34.0	-35.1	30.4	3.02e+01	61	29	0	827326464	42	6197
2026-01-14 16:37:30.94	211.32	53.01	-34.2	-35.4	30.3	3.02e+01	59	29	0	828899328	42	6378
2026-01-14 16:37:31.95	211.20	52.58	-34.2	-35.4	30.2	3.02e+01	49	29	0	830996480	42	6384
2026-01-14 16:37:32.96	211.09	52.16	-34.3	-35.5	30.1	3.02e+01	60	29	0	833093632	42	6471
2026-01-14 16:37:33.97	210.97	51.74	-34.6	-35.8	29.8	3.02e+01	59	29	0	834666496	42	6722
2026-01-14 16:37:34.98	210.87	51.32	-34.8	-36.0	29.7	3.02e+01	65	29	0	836763648	42	6830
2026-01-14 16:37:35.99	210.76	50.91	-34.8	-36.0	29.7	3.02e+01	60	28	0	838336512	42	6810
2026-01-14 16:37:37.00	210.66	50.49	-34.8	-36.0	29.6	3.02e+01	55	29	0	840433664	42	6821
2026-01-14 16:37:38.01	210.56	50.09	-34.8	-36.0	29.7	3.02e+01	61	29	0	842530816	42	6843
2026-01-14 16:37:39.02	210.46	49.68	-34.8	-36.0	29.7	3.02e+01	61	29	0	844103680	42	6862
2026-01-14 16:37:40.03	210.37	49.28	-35.0	-36.3	29.5	3.02e+01	45	29	0	846200832	44	6278
2026-01-14 16:37:41.04	210.28	48.89	-35.1	-36.3	29.3	3.02e+01	52	29	0	848297984	44	6321
2026-01-14 16:37:42.05	210.19	48.50	-35.3	-36.5	29.2	3.02e+01	59	29	0	849870848	44	6449
2026-01-14 16:37:43.06	210.10	48.11	-35.3	-36.6	29.1	3.02e+01	57	29	0	851968000	44	6509
2026-01-14 16:37:44.06	210.02	47.73	-35.3	-36.5	29.2	3.02e+01	58	29	0	853540864	44	6497
2026-01-14 16:37:45.07	209.94	47.34	-35.1	-36.3	29.3	3.02e+01	55	29	0	855638016	44	6346
2026-01-14 16:37:46.08	209.86	46.97	-35.0	-36.2	29.5	3.02e+01	58	29	0	857735168	44	6220
2026-01-14 16:37:47.10	209.78	46.59	-34.9	-36.1	29.5	3.02e+01	59	29	0	859308032	44	6162
2026-01-14 16:37:48.10	209.70	46.22	-35.0	-36.2	29.5	3.02e+01	44	28	0	861405184	44	6239
2026-01-14 16:37:49.11	209.63	45.85	-34.9	-36.1	29.6	3.02e+01	59	28	0	862978048	44	6146
2026-01-14 16:37:50.12	209.56	45.49	-35.0	-36.2	29.5	3.02e+01	48	29	0	865075200	44	6216
2026-01-14 16:37:51.13	209.49	45.13	-35.2	-36.4	29.3	3.02e+01	60	29	0	867172352	44	6404
2026-01-14 16:37:52.14	209.42	44.77	-35.0	-36.3	29.4	3.02e+01	60	29	0	868745216	44	6291
2026-01-14 16:37:53.15	209.35	44.41	-35.1	-36.3	29.3	3.02e+01	52	29	0	870842368	44	6342
2026-01-14 16:37:54.16	209.28	44.06	-35.0	-36.2	29.4	3.02e+01	56	28	0	872415232	44	6274
2026-01-14 16:37:55.17	209.22	43.71	-34.9	-36.1	29.5	3.02e+01	61	28	0	874512384	44	6140
2026-01-14 16:37:56.18	209.16	43.37	-34.9	-36.1	29.6	3.02e+01	62	28	0	876609536	44	6167
2026-01-14 16:37:57.19	209.10	43.03	-35.3	-36.5	29.2	3.02e+01	59	28	0	878182400	44	6492
2026-01-14 16:37:58.20	209.04	42.69	-35.5	-36.7	29.0	3.02e+01	51	29	0	880279552	44	6636
2026-01-14 16:37:59.21	208.98	42.35	-35.6	-36.8	29.0	3.02e+01	60	29	0	881852416	44	6711
2026-01-14 16:38:00.22	208.92	42.02	-35.7	-36.9	28.8	3.02e+01	57	28	0	883949568	44	6804
2026-01-14 16:38:01.23	208.86	41.69	-35.8	-37.0	28.8	3.02e+01	44	29	0	886046720	44	6842
2026-01-14 16:38:02.23	208.81	41.37	-35.9	-37.2	28.7	3.02e+01	57	29	0	887619584	44	6971
2026-01-14 16:38:03.24	208.76	41.05	-36.0	-37.2	28.6	3.02e+01	57	29	0	889716736	44	7020
2026-01-14 16:38:04.25	208.70	40.73	-36.2	-37.4	28.5	3.02e+01	56	29	0	891813888	46	6413
2026-01-14 16:38:05.26	208.65	40.41	-36.4	-37.7	28.2	3.02e+01	57	29	0	893386752	46	6616
2026-01-14 16:38:06.27	208.60	40.10	-36.5	-37.8	28.2	3.02e+01	50	28	0	895483904	46	6686
2026-01-14 16:38:07.28	208.55	39.78	-36.7	-38.0	28.0	3.02e+01	60	28	0	897056768	46	6869
2026-01-14 16:38:08.29	208.50	39.48	-36.8	-38.1	27.9	3.02e+01	62	28	0	899153920	46	6914
2026-01-14 16:38:09.30	208.46	39.17	-36.7	-38.0	27.9	3.02e+01	47	28	0	901251072	46	6862
2026-01-14 16:38:10.31	208.41	38.87	-36.7	-38.0	28.0	3.02e+01	59	29	0	902823936	46	6827
2026-01-14 16:38:11.32	208.37	38.57	-36.3	-37.5	28.4	3.02e+01	61	28	0	904921088	46	6494
2026-01-14 16:38:12.33	208.32	38.27	-36.4	-37.6	28.3	3.02e+01	56	29	0	906493952	46	6526
2026-01-14 16:38:13.33	208.28	37.98	-36.6	-37.9	28.2	3.02e+01	61	29	0	908591104	46	6732
2026-01-14 16:38:14.34	208.23	37.69	-36.8	-38.1	27.9	3.02e+01	53	29	0	910688256	46	6885
2026-01-14 16:38:15.35	208.19	37.40	-37.0	-38.4	27.6	3.02e+01	62	29	0	912261120	48	6384
2026-01-14 16:38:16.36	208.15	37.11	-37.1	-38.4	27.6	3.02e+01	59	29	0	914358272	48	6412
2026-01-14 16:38:17.37	208.11	36.83	-36.8	-38.1	27.8	3.02e+01	46	29	0	915931136	48	6190
2026-01-14 16:38:18.38	208.07	36.54	-36.8	-38.0	27.8	3.02e+01	60	28	0	918028288	48	6134
2026-01-14 16:38:19.38	208.03	36.27	-36.1	-37.3	28.5	3.02e+01	59	29	0	920125440	48	5649
2026-01-14 16:38:20.40	207.99	35.99	-36.0	-37.2	28.7	3.02e+01	59	29	0	921698304	46	6229
2026-01-14 16:38:21.41	207.96	35.72	-35.8	-37.1	28.7	3.02e+01	58	28	0	923795456	46	6146
2026-01-14 16:38:22.42	207.92	35.44	-35.8	-37.0	28.8	3.02e+01	54	28	0	925368320	46	6130
2026-01-14 16:38:23.42	207.89	35.18	-35.5	-36.7	29.1	3.02e+01	59	29	0	927465472	46	5916
2026-01-14 16:38:24.43	207.85	34.91	-35.2	-36.3	29.3	3.02e+01	62	29	0	929562624	46	5659
2026-01-14 16:38:25.44	207.81	34.65	-35.1	-36.3	29.4	3.02e+01	51	29	0	931135488	46	5612
2026-01-14 16:38:26.45	207.78	34.38	-35.1	-36.3	29.4	3.02e+01	63	29	0	933232640	46	5652
2026-01-14 16:38:27.46	207.75	34.12	-35.1	-36.3	29.4	3.02e+01	46	29	0	934805504	46	5631
2026-01-14 16:38:28.47	207.71	33.87	-35.3	-36.5	29.3	3.02e+01	59	29	0	936902656	46	5765
2026-01-14 16:38:29.48	207.68	33.61	-35.1	-36.3	29.4	3.02e+01	62	28	0	938999808	46	5615
2026-01-14 16:38:30.49	207.65	33.36	-35.1	-36.3	29.5	3.02e+01	47	29	0	940572672	46	5635
2026-01-14 16:38:31.50	207.62	33.11	-35.1	-36.4	29.3	3.02e+01	60	29	0	942669824	46	5671
2026-01-14 16:38:32.51	207.59	32.86	-34.9	-36.1	29.5	3.02e+01	58	28	0	944766976	46	5519
2026-01-14 16:38:33.52	207.56	32.61	-34.6	-35.8	29.8	3.02e+01	60	29	0	946339840	44	5948
2026-01-14 16:38:34.53	207.53	32.37	-34.5	-35.7	29.7	3.02e+01	58	29	0	948436992	44	5872
2026-01-14 16:38:35.54	207.50	32.13	-34.5	-35.6	29.8	3.02e+01	45	28	0	950009856	44	5856
2026-01-14 16:38:36.54	207.47	31.89	-34.2	-35.3	30.0	3.02e+01	59	28	0	952107008	44	5650
2026-01-14 16:38:37.55	207.44	31.65	-34.1	-35.2	30.1	3.02e+01	60	29	0	954204160	44	5593
2026-01-14 16:38:38.56	207.42	31.41	-34.2	-35.3	30.1	3.02e+01	46	29	0	955777024	44	5654
2026-01-14 16:38:39.57	207.39	31.18	-34.2	-35.3	30.2	3.02e+01	59	28	0	957874176	44	5642
2026-01-14 16:38:40.58	207.36	30.95	-34.0	-35.1	30.3	3.02e+01	59	29	0	959447040	44	5524
2026-01-14 16:38:41.59	207.34	30.72	-34.0	-35.2	30.4	3.02e+01	56	29	0	961544192	42	6234
2026-01-14 16:38:42.60	207.31	30.49	-34.1	-35.3	30.3	3.02e+01	56	29	0	963641344	42	6280
2026-01-14 16:38:43.61	207.28	30.26	-34.2	-35.3	30.2	3.02e+01	56	29	0	965214208	42	6347
2026-01-14 16:38:44.62	207.26	30.04	-34.2	-35.4	30.2	3.02e+01	58	29	0	967311360	42	6365
2026-01-14 16:38:45.63	207.23	29.82	-34.2	-35.3	30.2	3.02e+01	59	29	0	969408512	42	6318
2026-01-14 16:38:46.64	207.21	29.60	-34.4	-35.6	30.2	3.02e+01	44	29	0	970981376	42	6499
2026-01-14 16:38:47.64	207.19	29.38	-34.5	-35.7	29.9	3.02e+01	62	28	0	973078528	42	6611
2026-01-14 16:38:48.65	207.16	29.16	-34.6	-35.8	29.8	3.02e+01	58	28	0	974651392	42	6705
2026-01-14 16:38:49.66	207.14	28.95	-34.8	-35.9	29.7	3.02e+01	57	28	0	976748544	42	6796
2026-01-14 16:38:50.67	207.12	28.73	-34.7	-35.9	29.9	3.02e+01	61	28	0	978321408	42	6742
2026-01-14 16:38:51.68	207.09	28.52	-34.8	-36.0	29.7	3.02e+01	44	28	0	980418560	42	6841
2026-01-14 16:38:52.69	207.07	28.31	-34.8	-36.0	29.8	3.02e+01	58	28	0	982515712	42	6831
2026-01-14 16:38:53.70	207.05	28.10	-34.8	-36.0	29.7	3.02e+01	59	28	0	984088576	42	6806
2026-01-14 16:38:54.71	207.03	27.90	-34.9	-36.1	29.5	3.02e+01	45	28	0	986185728	42	6942
2026-01-14 16:38:55.72	207.01	27.69	-34.9	-36.1	29.6	3.02e+01	60	28	0	987758592	44	6140
2026-01-14 16:38:56.73	206.99	27.49	-35.0	-36.3	29.5	3.02e+01	56	28	0	989855744	44	6282
2026-01-14 16:38:57.74	206.97	27.29	-35.0	-36.2	29.5	3.02e+01	57	28	0	991952896	44	6232
2026-01-14 16:38:58.75	206.95	27.09	-35.1	-36.4	29.4	3.02e+01	60	29	0	993525760	44	6357
2026-01-14 16:38:59.76	206.93	26.89	-35.2	-36.5	29.3	3.02e+01	55	29	0	995622912	44	6427
2026-01-14 16:39:00.77	206.91	26.69	-35.2	-36.4	29.3	3.02e+01	60	29	0	997720064	44	6383
2026-01-14 16:39:01.78	206.89	26.49	-35.3	-36.5	29.2	3.02e+01	60	28	0	999292928	44	6444
2026-01-14 16:39:02.78	206.87	26.30	-35.2	-36.4	29.2	3.02e+01	57	29	0	1001390080	44	6397
2026-01-14 16:39:03.80	206.85	26.11	-35.2	-36.4	29.3	3.02e+01	55	29	0	1002962944	44	6354
2026-01-14 16:39:04.80	206.83	25.92	-35.0	-36.2	29.4	3.02e+01	45	28	0	1005060096	44	6254
2026-01-14 16:39:05.81	206.82	25.73	-34.9	-36.1	29.5	3.02e+01	58	29	0	1007157248	44	6190
2026-01-14 16:39:06.83	206.80	25.54	-35.0	-36.1	29.5	3.02e+01	60	29	0	1008730112	44	6203
2026-01-14 16:39:07.83	206.78	25.35	-35.1	-36.3	29.4	3.02e+01	45	29	0	1010827264	44	6293
2026-01-14 16:39:08.84	206.76	25.17	-35.1	-36.3	29.5	3.02e+01	58	29	0	1012924416	44	6282
2026-01-14 16:39:09.85	206.75	24.98	-35.0	-36.2	29.4	3.02e+01	59	29	0	1014497280	44	6267
2026-01-14 16:39:10.86	206.73	24.80	-35.1	-36.3	29.3	3.02e+01	57	29	0	1016594432	44	6343
2026-01-14 16:39:11.87	206.71	24.62	-35.3	-36.5	29.1	3.02e+01	59	29	0	1018167296	44	6459
2026-01-14 16:39:12.88	206.70	24.44	-35.2	-36.4	29.1	3.02e+01	45	29	0	1020264448	44	6391
2026-01-14 16:39:13.89	206.68	24.26	-35.4	-36.6	29.1	3.02e+01	58	29	0	1022361600	44	6528
2026-01-14 16:39:14.90	206.66	24.08	-35.3	-36.5	29.2	3.02e+01	58	29	0	1023934464	44	6443
2026-01-14 16:39:15.91	206.65	23.91	-35.4	-36.7	28.9	3.02e+01	49	29	0	1026031616	44	6585
2026-01-14 16:39:16.92	206.63	23.73	-35.4	-36.6	29.1	3.02e+01	59	29	0	1027604480	44	6523
2026-01-14 16:39:17.93	206.62	23.56	-35.3	-36.5	29.1	3.02e+01	60	29	0	1029701632	44	6473
2026-01-14 16:39:18.94	206.60	23.39	-35.3	-36.6	29.1	3.02e+01	59	29	0	1031798784	44	6506
2026-01-14 16:39:19.94	206.59	23.22	-35.4	-36.6	29.0	3.02e+01	59	29	0	1033371648	44	6550
2026-01-14 16:39:20.96	206.57	23.05	-35.4	-36.6	29.0	3.02e+01	59	29	0	1035468800	44	6556
2026-01-14 16:39:21.96	206.56	22.88	-35.6	-36.8	28.9	3.02e+01	61	29	0	1037041664	44	6702
2026-01-14 16:39:22.98	206.54	22.71	-35.7	-36.9	28.8	3.02e+01	61	29	0	1039138816	44	6788
2026-01-14 16:39:23.98	206.53	22.55	-35.7	-36.9	28.8	3.02e+01	49	29	0	1041235968	44	6765
2026-01-14 16:39:24.99	206.52	22.38	-35.8	-37.0	28.8	3.02e+01	61	29	0	1042808832	44	6856
2026-01-14 16:39:26.00	206.50	22.22	-35.8	-37.0	28.7	3.02e+01	55	28	0	1044905984	44	6855
2026-01-14 16:39:27.01	206.49	22.05	-35.5	-36.8	28.9	3.02e+01	62	29	0	1046478848	44	6666
2026-01-14 16:39:28.02	206.48	21.89	-35.6	-36.8	28.9	3.02e+01	57	29	0	1048576000	44	6699
2026-01-14 16:39:29.03	206.46	21.73	-35.5	-36.7	28.9	3.02e+01	46	29	0	1050673152	44	6619
2026-01-14 16:39:30.04	206.45	21.57	-35.4	-36.6	29.0	3.02e+01	58	29	0	1052246016	44	6556
2026-01-14 16:39:31.05	206.44	21.41	-35.5	-36.7	28.9	3.02e+01	60	29	0	1054343168	44	6642
2026-01-14 16:39:32.06	206.43	21.26	-35.4	-36.7	29.1	3.02e+01	45	29	0	1055916032	44	6586
2026-01-14 16:39:33.07	206.41	21.10	-35.3	-36.5	29.1	3.02e+01	58	28	0	1058013184	44	6440
2026-01-14 16:39:34.08	206.40	20.94	-35.4	-36.6	29.0	3.02e+01	58	29	0	1060110336	44	6526
2026-01-14 16:39:35.09	206.39	20.79	-35.4	-36.6	28.9	3.02e+01	57	29	0	1061683200	44	6567
2026-01-14 16:39:36.10	206.38	20.64	-35.3	-36.5	29.1	3.02e+01	60	29	0	1063780352	44	6455
2026-01-14 16:39:37.11	206.37	20.48	-35.1	-36.3	29.2	3.02e+01	57	29	0	1065877504	44	6330
2026-01-14 16:39:38.11	206.35	20.34	-35.1	-36.3	29.3	3.02e+01	56	29	0	1067450368	44	6336
2026-01-14 16:39:39.12	206.34	20.19	-35.0	-36.2	29.4	3.02e+01	57	28	0	1069547520	44	6248
2026-01-14 16:39:40.13	206.33	20.04	-35.0	-36.2	29.3	3.02e+01	59	29	0	1071120384	44	6248
2026-01-14 16:39:41.14	206.32	19.89	-35.0	-36.2	29.3	3.02e+01	58	28	0	1073217536	44	6255
2026-01-14 16:39:42.15	206.31	19.74	-35.0	-36.2	29.3	3.02e+01	45	28	0	1075314688	44	6235
2026-01-14 16:39:43.16	206.30	19.59	-34.9	-36.1	29.4	3.02e+01	57	29	0	1076887552	44	6177
2026-01-14 16:39:44.17	206.29	19.45	-35.0	-36.2	29.3	3.02e+01	61	29	0	1078984704	44	6231
2026-01-14 16:39:45.18	206.28	19.30	-35.0	-36.2	29.4	3.02e+01	46	29	0	1081081856	44	6210
2026-01-14 16:39:46.19	206.27	19.16	-34.9	-36.1	29.5	3.02e+01	60	29	0	1082654720	44	6167
2026-01-14 16:39:47.20	206.26	19.02	-35.0	-36.2	29.4	3.02e+01	59	28	0	1084751872	44	6259
2026-01-14 16:39:48.21	206.25	18.88	-35.0	-36.2	29.4	3.02e+01	59	28	0	1086324736	44	6238
2026-01-14 16:39:49.22	206.24	18.74	-35.1	-36.3	29.3	3.02e+01	57	29	0	1088421888	44	6331
2026-01-14 16:39:50.22	206.23	18.60	-35.2	-36.4	29.2	3.02e+01	45	28	0	1089994752	44	6376
2026-01-14 16:39:51.23	206.22	18.46	-35.1	-36.3	29.4	3.02e+01	58	29	0	1092091904	44	6286
2026-01-14 16:39:52.24	206.21	18.32	-35.2	-36.4	29.3	3.02e+01	57	29	0	1094189056	44	6360
2026-01-14 16:39:53.25	206.20	18.18	-35.2	-36.5	29.2	3.02e+01	50	29	0	1095761920	44	6432
2026-01-14 16:39:54.26	206.19	18.05	-35.3	-36.5	29.1	3.02e+01	60	29	0	1097859072	44	6476
2026-01-14 16:39:55.27	206.18	17.91	-35.3	-36.5	29.1	3.02e+01	59	28	0	1099431936	44	6471
2026-01-14 16:39:56.28	206.17	17.78	-35.3	-36.5	29.1	3.02e+01	60	28	0	1101529088	44	6463
2026-01-14 16:39:57.29	206.16	17.64	-35.2	-36.4	29.3	3.02e+01	61	29	0	1103626240	44	6366
2026-01-14 16:39:58.30	206.15	17.51	-35.2	-36.5	29.1	3.02e+01	56	29	0	1105199104	44	6427
2026-01-14 16:39:59.31	206.14	17.38	-35.3	-36.6	29.1	3.02e+01	58	28	0	1107296256	44	6512
2026-01-14 16:40:00.32	206.13	17.24	-35.4	-36.7	29.0	3.02e+01	59	29	0	1109393408	44	6585
2026-01-14 16:40:01.33	206.13	17.11	-35.4	-36.7	29.0	3.02e+01	47	28	0	1110966272	44	6577
2026-01-14 16:40:02.34	206.12	16.98	-35.4	-36.7	29.0	3.02e+01	60	29	0	1113063424	44	6598
2026-01-14 16:40:03.35	206.11	16.85	-35.3	-36.6	29.1	3.02e+01	64	29	0	1114636288	44	6514
2026-01-14 16:40:04.36	206.10	16.72	-35.4	-36.6	29.0	3.02e+01	53	29	0	1116733440	44	6541
2026-01-14 16:40:05.37	206.09	16.60	-35.5	-36.8	29.0	3.02e+01	60	29	0	1118830592	44	6650
2026-01-14 16:40:06.38	206.08	16.47	-35.4	-36.6	29.0	3.02e+01	51	29	0	1120403456	44	6539
2026-01-14 16:40:07.38	206.08	16.34	-35.5	-36.7	28.9	3.02e+01	58	28	0	1122500608	44	6630
2026-01-14 16:40:08.39	206.07	16.22	-35.5	-36.7	29.0	3.02e+01	58	29	0	1124073472	44	6622
2026-01-14 16:40:09.40	206.06	16.09	-35.4	-36.7	29.0	3.02e+01	45	28	0	1126170624	44	6579
2026-01-14 16:40:10.41	206.05	15.97	-35.4	-36.6	29.0	3.02e+01	60	29	0	1128267776	44	6545
2026-01-14 16:40:11.42	206.05	15.85	-35.4	-36.7	29.0	3.02e+01	58	28	0	1129840640	44	6586
2026-01-14 16:40:12.43	206.04	15.72	-35.4	-36.6	29.0	3.02e+01	61	29	0	1131937792	44	6539
2026-01-14 16:40:13.44	206.03	15.60	-35.5	-36.7	28.9	3.02e+01	59	28	0	1134034944	44	6649
2026-01-14 16:40:14.45	206.02	15.48	-35.4	-36.7	28.9	3.02e+01	53	29	0	1135607808	44	6606
2026-01-14 16:40:15.46	206.02	15.36	-35.7	-36.9	28.8	3.02e+01	62	29	0	1137704960	44	6773
2026-01-14 16:40:16.47	206.01	15.24	-35.4	-36.7	28.9	3.02e+01	59	29	0	1139277824	44	6597
2026-01-14 16:40:17.48	206.00	15.12	-35.3	-36.6	29.0	3.02e+01	58	29	0	1141374976	44	6533
2026-01-14 16:40:18.49	206.00	15.00	-35.4	-36.7	28.9	3.02e+01	62	29	0	1143472128	44	6600
2026-01-14 16:40:19.50	205.99	14.88	-35.3	-36.6	29.0	3.02e+01	44	28	0	1145044992	44	6522
2026-01-14 16:40:20.51	205.98	14.76	-35.5	-36.7	28.8	3.02e+01	58	29	0	1147142144	44	6627
2026-01-14 16:40:21.52	205.98	14.65	-35.4	-36.7	28.9	3.02e+01	62	29	0	1148715008	44	6576
2026-01-14 16:40:22.53	205.97	14.53	-35.4	-36.6	28.9	3.02e+01	44	29	0	1150812160	44	6557
2026-01-14 16:40:23.53	205.96	14.41	-35.4	-36.6	28.9	3.02e+01	51	29	0	1152909312	44	6563
2026-01-14 16:40:24.54	205.96	14.30	-35.4	-36.6	28.9	3.02e+01	59	29	0	1154482176	44	6569
2026-01-14 16:40:25.55	205.95	14.18	-35.4	-36.6	28.9	3.02e+01	60	29	0	1156579328	44	6561
2026-01-14 16:40:26.56	205.94	14.07	-35.3	-36.6	28.9	3.02e+01	55	29	0	1158152192	44	6527
2026-01-14 16:40:27.57	205.94	13.96	-35.2	-36.4	29.0	3.02e+01	56	29	0	1160249344	44	6422
2026-01-14 16:40:28.58	205.93	13.84	-35.3	-36.5	29.0	3.02e+01	58	29	0	1162346496	44	6466
2026-01-14 16:40:29.59	205.93	13.73	-35.2	-36.5	29.0	3.02e+01	58	29	0	1163919360	44	6434
2026-01-14 16:40:30.60	205.92	13.62	-35.2	-36.4	29.0	3.02e+01	44	28	0	1166016512	44	6372
2026-01-14 16:40:31.61	205.91	13.51	-35.4	-36.6	28.9	3.02e+01	58	29	0	1167589376	44	6536
2026-01-14 16:40:32.62	205.91	13.40	-35.2	-36.4	29.0	3.02e+01	57	29	0	1169686528	44	6383
2026-01-14 16:40:33.63	205.90	13.29	-35.1	-36.4	29.1	3.02e+01	58	29	0	1171783680	44	6357
2026-01-14 16:40:34.64	205.90	13.18	-35.1	-36.3	29.1	3.02e+01	58	29	0	1173356544	44	6335
2026-01-14 16:40:35.65	205.89	13.07	-35.1	-36.3	29.1	3.02e+01	58	29	0	1175453696	44	6345
2026-01-14 16:40:36.66	205.89	12.96	-35.2	-36.4	29.1	3.02e+01	60	29	0	1177550848	44	6371
2026-01-14 16:40:37.66	205.88	12.85	-35.1	-36.3	29.1	3.02e+01	56	28	0	1179123712	44	6306
2026-01-14 16:40:38.67	205.88	12.75	-35.1	-36.3	29.1	3.02e+01	44	28	0	1181220864	44	6331
2026-01-14 16:40:39.68	205.87	12.64	-35.0	-36.2	29.2	3.02e+01	59	29	0	1182793728	44	6236
2026-01-14 16:40:40.69	205.86	12.53	-35.1	-36.3	29.1	3.02e+01	59	29	0	1184890880	44	6312
2026-01-14 16:40:41.70	205.86	12.43	-35.1	-36.3	29.2	3.02e+01	58	28	0	1186988032	44	6279
2026-01-14 16:40:42.71	205.85	12.32	-35.1	-36.3	29.1	3.02e+01	61	28	0	1188560896	44	6302
2026-01-14 16:40:43.72	205.85	12.22	-35.2	-36.4	29.0	3.02e+01	46	29	0	1190658048	44	6377
2026-01-14 16:40:44.73	205.84	12.11	-35.1	-36.3	29.2	3.02e+01	59	29	0	1192230912	44	6311
2026-01-14 16:40:45.74	205.84	12.01	-35.1	-36.3	29.2	3.02e+01	61	29	0	1194328064	44	6282
2026-01-14 16:40:46.75	205.83	11.91	-35.1	-36.3	29.2	3.02e+01	46	29	0	1196425216	44	6312
2026-01-14 16:40:47.75	205.83	11.80	-35.1	-36.3	29.1	3.02e+01	58	29	0	1197998080	44	6342
2026-01-14 16:40:48.76	205.82	11.70	-35.1	-36.4	29.1	3.02e+01	57	29	0	1200095232	44	6356
2026-01-14 16:40:49.77	205.82	11.60	-35.3	-36.5	29.0	3.02e+01	60	29	0	1201668096	44	6463
2026-01-14 16:40:50.78	205.82	11.50	-35.1	-36.3	29.1	3.02e+01	59	29	0	1203765248	44	6328
2026-01-14 16:40:51.79	205.81	11.40	-35.2	-36.4	29.0	3.02e+01	55	29	0	1205862400	44	6391
2026-01-14 16:40:52.80	205.81	11.30	-35.2	-36.4	29.1	3.02e+01	54	29	0	1207435264	44	6375
2026-01-14 16:40:53.81	205.80	11.20	-35.3	-36.5	28.9	3.02e+01	62	29	0	1209532416	44	6466
2026-01-14 16:40:54.81	205.80	11.10	-35.3	-36.5	29.0	3.02e+01	53	29	0	1211105280	44	6482
2026-01-14 16:40:55.82	205.79	11.00	-35.2	-36.5	29.0	3.02e+01	58	29	0	1213202432	44	6432
2026-01-14 16:40:56.83	205.79	10.90	-35.3	-36.6	29.0	3.02e+01	43	28	0	1215299584	44	6514
2026-01-14 16:40:57.84	205.79	10.80	-35.3	-36.5	29.0	3.02e+01	57	29	0	1216872448	44	6489
2026-01-14 16:40:58.85	205.78	10.71	-35.4	-36.6	28.9	3.02e+01	56	29	0	1218969600	44	6564
2026-01-14 16:40:59.86	205.78	10.61	-35.4	-36.7	28.8	3.02e+01	46	29	0	1220542464	44	6588
