passes_logs/2026/01/14/R4.6S_Anadyr/R4.6S_Anadyr__20260114_224918_NOAA_21_JPSS-2_rec.log

#Pass ID: 20260114_224918_NOAA 21 (JPSS-2)
#Satellite: NOAA 21 (JPSS-2)
#Configuration: NOAA-21
#almurnet v.1.7.20251203
#Start time: 2026-01-14 22:49:23

#Version: 2.2.20231116
#Station: R4.6S_Anadyr
#Location: 177.4865 lon 64.73178 lat
#TLE: 1 54234U 22150A   26014.58979933  .00000039  00000+0  39403-4 0  9998
#TLE: 2 54234  98.7497 315.4945 0000653 294.6373  65.4735 14.19534652164756

#Time	Az	El	Level	Level2	SNR	BER	BlckErr	Temp	State	Recorded	gain1	gain2
2026-01-14 22:49:23.47	122.12	0.31	-48.8	-50.5	5.7	0.00e+00	0	26	0	0	60	40812
2026-01-14 22:49:24.44	122.08	0.37	-48.9	-61.8	3.5	1.52e+00	0	28	104	0	60	42955
2026-01-14 22:49:25.42	122.05	0.42	-48.9	-61.8	3.5	1.52e+00	0	28	104	0	60	43047
2026-01-14 22:49:26.40	122.02	0.48	-48.9	-61.8	3.5	1.52e+00	0	28	104	0	60	43221
2026-01-14 22:49:27.38	121.98	0.54	-48.9	-61.7	3.5	1.51e+00	0	28	104	0	60	42903
2026-01-14 22:49:28.36	121.95	0.60	-48.8	-61.7	3.5	1.52e+00	0	28	104	0	60	42741
2026-01-14 22:49:29.34	121.91	0.66	-48.8	-61.7	3.5	1.52e+00	0	28	104	0	60	42512
2026-01-14 22:49:30.32	121.88	0.71	-48.7	-61.6	3.5	1.52e+00	0	28	104	0	60	42267
2026-01-14 22:49:31.30	121.84	0.77	-48.6	-61.6	3.5	1.51e+00	0	28	104	0	60	42398
2026-01-14 22:49:32.28	121.81	0.83	-48.5	-61.5	3.5	1.52e+00	0	28	104	0	60	41572
2026-01-14 22:49:33.26	121.78	0.89	-48.2	-61.3	3.5	1.51e+00	0	28	104	0	60	40844
2026-01-14 22:49:34.25	121.74	0.95	-48.2	-61.1	3.5	1.52e+00	0	28	104	0	60	39893
2026-01-14 22:49:35.23	121.70	1.01	-47.9	-60.8	3.5	1.52e+00	0	28	104	0	60	38534
2026-01-14 22:49:36.21	121.67	1.06	-47.4	-60.2	3.5	1.52e+00	0	28	104	0	60	35796
2026-01-14 22:49:37.19	121.63	1.12	-46.7	-60.0	3.5	1.52e+00	0	28	104	0	60	35148
2026-01-14 22:49:38.17	121.60	1.18	-46.6	-60.0	3.5	1.52e+00	0	28	104	0	60	35105
2026-01-14 22:49:39.15	121.56	1.24	-46.6	-60.0	3.5	1.51e+00	0	29	104	0	60	35144
2026-01-14 22:49:40.12	121.53	1.30	-46.6	-60.0	3.5	1.52e+00	0	28	104	0	60	35276
2026-01-14 22:49:41.10	121.49	1.36	-46.6	-60.1	3.5	1.52e+00	0	29	104	0	60	35380
2026-01-14 22:49:42.08	121.46	1.42	-46.6	-60.0	3.5	1.52e+00	0	28	104	0	60	35148
2026-01-14 22:49:43.06	121.42	1.48	-46.6	-60.0	3.5	1.51e+00	0	28	104	0	60	34989
2026-01-14 22:49:44.04	121.38	1.54	-46.6	-60.0	3.5	1.52e+00	0	29	104	0	60	35050
2026-01-14 22:49:45.02	121.35	1.60	-46.6	-60.0	3.5	1.52e+00	0	28	104	0	60	34976
2026-01-14 22:49:46.00	121.31	1.66	-46.6	-60.0	3.5	1.52e+00	0	28	104	0	60	35214
2026-01-14 22:49:46.98	121.27	1.72	-46.6	-60.0	3.5	1.51e+00	0	28	104	0	60	35081
2026-01-14 22:49:47.96	121.24	1.78	-46.6	-60.0	3.5	1.52e+00	0	29	104	0	60	35148
2026-01-14 22:49:48.93	121.20	1.83	-46.6	-59.9	3.5	1.52e+00	0	28	104	0	60	34819
2026-01-14 22:49:49.91	121.16	1.89	-46.6	-60.0	3.5	1.52e+00	0	29	104	0	60	35169
2026-01-14 22:49:50.89	121.12	1.95	-46.6	-59.9	3.5	1.52e+00	0	29	104	0	60	34862
2026-01-14 22:49:51.87	121.09	2.02	-46.6	-59.9	3.5	1.52e+00	0	28	104	0	60	34652
2026-01-14 22:49:52.85	121.05	2.08	-46.6	-59.9	3.5	1.52e+00	0	29	104	0	60	34554
2026-01-14 22:49:53.82	121.01	2.14	-46.6	-59.8	3.5	1.52e+00	0	29	104	0	60	34306
2026-01-14 22:49:54.80	120.97	2.20	-46.6	-59.8	3.5	1.52e+00	0	29	104	0	60	34494
2026-01-14 22:49:55.78	120.93	2.26	-46.6	-59.9	3.5	1.52e+00	0	29	104	0	60	34677
2026-01-14 22:49:56.76	120.89	2.32	-46.6	-59.9	3.5	1.52e+00	0	29	104	0	60	34727
2026-01-14 22:49:57.74	120.86	2.38	-46.6	-60.0	3.5	1.52e+00	0	29	104	0	60	35185
2026-01-14 22:49:58.72	120.82	2.44	-46.6	-60.0	3.5	1.52e+00	0	29	104	0	60	35204
2026-01-14 22:49:59.71	120.78	2.50	-46.6	-60.0	3.5	1.52e+00	0	29	104	0	60	35082
2026-01-14 22:50:00.68	120.74	2.56	-46.6	-60.0	3.5	1.52e+00	0	29	104	0	60	35148
2026-01-14 22:50:01.67	120.70	2.63	-46.6	-60.0	3.5	1.52e+00	0	29	104	0	60	35188
2026-01-14 22:50:02.64	120.66	2.69	-46.6	-60.0	3.5	1.52e+00	0	29	104	0	60	34993
2026-01-14 22:50:03.62	120.62	2.75	-46.6	-59.8	3.5	1.52e+00	0	29	104	0	60	34487
2026-01-14 22:50:04.60	120.58	2.81	-46.7	-59.7	3.5	1.52e+00	0	29	104	0	60	34081
2026-01-14 22:50:05.58	120.54	2.87	-46.6	-59.6	3.5	1.52e+00	0	29	104	0	60	33512
2026-01-14 22:50:06.56	120.50	2.93	-46.6	-59.5	3.5	1.52e+00	0	29	104	0	60	33325
2026-01-14 22:50:07.54	120.46	3.00	-46.6	-59.7	3.5	1.51e+00	0	29	104	0	60	33743
2026-01-14 22:50:08.52	120.42	3.06	-46.6	-59.8	3.5	1.52e+00	0	29	104	0	60	34325
2026-01-14 22:50:09.50	120.38	3.12	-46.6	-59.5	3.5	1.52e+00	0	29	104	0	60	33015
2026-01-14 22:50:10.48	120.34	3.18	-46.5	-57.7	3.6	1.51e+00	0	29	104	0	60	27057
2026-01-14 22:50:11.47	120.29	3.25	-46.1	-54.4	3.9	8.45e-01	2	29	104	0	60	18416
2026-01-14 22:50:12.44	120.25	3.31	-45.3	-51.3	8.1	1.24e-01	0	29	104	0	60	12879
2026-01-14 22:50:13.42	120.21	3.37	-44.5	-48.5	10.5	6.23e-03	0	29	0	2097152	60	9342
2026-01-14 22:50:14.41	120.17	3.44	-43.3	-46.3	13.1	1.42e-04	0	29	0	5242880	60	7230
2026-01-14 22:50:15.39	120.13	3.50	-42.4	-44.9	14.4	4.50e-06	0	29	0	8388608	58	6911
2026-01-14 22:50:16.38	120.08	3.56	-41.7	-43.8	15.5	0.00e+00	0	29	0	11534336	56	6864
2026-01-14 22:50:17.39	120.04	3.63	-40.8	-42.6	16.6	0.00e+00	0	29	0	14680064	56	5985
2026-01-14 22:50:18.40	120.00	3.69	-41.8	-44.2	12.7	0.00e+00	0	29	0	17825792	54	7997
2026-01-14 22:50:19.41	119.95	3.76	-47.3	-59.8	3.5	1.52e+00	0	29	104	17825792	60	34244
2026-01-14 22:50:20.42	119.91	3.83	-38.6	-40.3	18.9	0.00e+00	0	29	104	17825792	52	5728
2026-01-14 22:50:21.42	119.86	3.89	-46.8	-56.0	3.8	1.52e+00	0	29	104	18874368	60	22168
2026-01-14 22:50:22.42	119.82	3.96	-42.3	-45.0	15.0	1.10e-01	0	29	104	18874368	60	6258
2026-01-14 22:50:23.41	119.78	4.02	-44.0	-47.6	11.8	1.77e-02	0	29	0	20971520	60	8381
2026-01-14 22:50:24.41	119.73	4.09	-41.2	-43.2	16.2	0.00e+00	0	29	0	24117248	56	6381
2026-01-14 22:50:25.40	119.69	4.15	-40.2	-41.9	17.2	0.00e+00	0	29	0	27262976	54	6199
2026-01-14 22:50:26.40	119.64	4.22	-39.4	-40.9	18.3	0.00e+00	0	29	0	30408704	52	6163
2026-01-14 22:50:27.40	119.60	4.29	-39.4	-40.9	18.8	0.00e+00	0	29	0	33554432	52	6146
2026-01-14 22:50:28.40	119.55	4.35	-38.9	-40.2	18.7	0.00e+00	0	29	0	36700160	52	5720
2026-01-14 22:50:29.39	119.50	4.42	-38.8	-40.1	19.1	0.00e+00	0	29	0	39845888	50	6327
2026-01-14 22:50:30.39	119.46	4.49	-39.2	-40.6	18.7	0.00e+00	0	29	0	42991616	50	6699
2026-01-14 22:50:31.39	119.41	4.55	-38.7	-40.1	18.9	0.00e+00	0	29	0	46137344	50	6309
2026-01-14 22:50:32.39	119.37	4.62	-39.0	-40.3	18.8	0.00e+00	0	29	0	48234496	50	6486
2026-01-14 22:50:33.39	119.32	4.69	-39.1	-40.4	19.0	0.00e+00	0	29	0	51380224	50	6559
2026-01-14 22:50:34.39	119.27	4.75	-38.7	-40.1	18.9	0.00e+00	0	29	0	54525952	50	6278
2026-01-14 22:50:35.40	119.22	4.82	-38.6	-39.9	19.7	0.00e+00	0	29	0	57671680	50	6163
2026-01-14 22:50:36.41	119.18	4.89	-38.3	-39.5	19.8	0.00e+00	0	29	0	60817408	50	5900
2026-01-14 22:50:37.42	119.13	4.96	-38.1	-39.3	20.0	0.00e+00	0	29	0	63963136	50	5766
2026-01-14 22:50:38.43	119.08	5.03	-38.1	-39.4	20.0	0.00e+00	0	29	0	68157440	50	5821
2026-01-14 22:50:39.44	119.03	5.10	-37.9	-39.1	20.2	0.00e+00	0	29	0	71303168	50	5618
2026-01-14 22:50:40.45	118.98	5.16	-37.7	-38.9	20.4	0.00e+00	0	29	0	73400320	48	6199
2026-01-14 22:50:41.46	118.93	5.23	-37.8	-39.0	20.3	0.00e+00	0	29	0	76546048	48	6247
2026-01-14 22:50:42.47	118.88	5.30	-37.7	-39.0	20.4	0.00e+00	0	29	0	79691776	48	6213
2026-01-14 22:50:43.48	118.83	5.37	-37.6	-38.9	20.5	0.00e+00	0	29	0	82837504	48	6148
2026-01-14 22:50:44.49	118.78	5.44	-37.6	-38.8	20.5	0.00e+00	0	29	0	87031808	48	6092
2026-01-14 22:50:45.50	118.73	5.51	-37.6	-38.8	20.5	0.00e+00	0	29	0	90177536	48	6126
2026-01-14 22:50:46.51	118.68	5.58	-37.4	-38.6	20.8	0.00e+00	0	29	0	93323264	48	5978
2026-01-14 22:50:47.52	118.63	5.65	-37.3	-38.5	20.8	0.00e+00	0	29	0	95420416	48	5868
2026-01-14 22:50:48.52	118.58	5.72	-37.3	-38.5	20.9	0.00e+00	0	29	0	98566144	48	5869
2026-01-14 22:50:49.53	118.53	5.79	-37.4	-38.6	20.8	0.00e+00	0	29	0	102760448	48	5944
2026-01-14 22:50:50.54	118.48	5.86	-37.3	-38.4	21.0	0.00e+00	0	29	0	105906176	48	5833
2026-01-14 22:50:51.55	118.43	5.93	-37.2	-38.3	21.1	0.00e+00	0	29	0	109051904	48	5752
2026-01-14 22:50:52.56	118.38	6.00	-37.2	-38.3	21.0	0.00e+00	0	29	0	112197632	48	5779
2026-01-14 22:50:53.57	118.32	6.07	-37.2	-38.3	21.0	0.00e+00	0	29	0	115343360	48	5775
2026-01-14 22:50:54.58	118.27	6.15	-37.2	-38.3	21.1	0.00e+00	0	29	0	118489088	48	5744
2026-01-14 22:50:55.59	118.22	6.22	-37.2	-38.3	21.1	0.00e+00	0	29	0	121634816	48	5748
2026-01-14 22:50:56.60	118.17	6.29	-36.9	-38.0	21.2	0.00e+00	0	29	0	124780544	48	5583
2026-01-14 22:50:57.61	118.11	6.36	-37.0	-38.1	21.3	0.00e+00	0	29	0	127926272	48	5604
2026-01-14 22:50:58.62	118.06	6.43	-36.8	-37.9	21.4	0.00e+00	0	29	0	131072000	48	5529
2026-01-14 22:50:59.63	118.01	6.50	-37.0	-38.1	21.3	0.00e+00	0	29	0	134217728	48	5639
2026-01-14 22:51:00.64	117.95	6.58	-37.0	-38.1	21.3	0.00e+00	0	29	0	137363456	48	5596
2026-01-14 22:51:01.65	117.90	6.65	-37.0	-38.1	21.2	0.00e+00	0	29	0	140509184	48	5607
2026-01-14 22:51:02.66	117.84	6.72	-36.8	-37.9	21.4	0.00e+00	0	29	0	143654912	48	5515
2026-01-14 22:51:03.67	117.79	6.79	-36.9	-38.0	21.4	0.00e+00	0	29	0	146800640	48	5548
2026-01-14 22:51:04.68	117.73	6.87	-36.9	-38.0	21.4	0.00e+00	0	29	0	149946368	48	5567
2026-01-14 22:51:05.69	117.68	6.94	-36.9	-38.0	21.3	0.00e+00	0	29	0	153092096	48	5566
2026-01-14 22:51:06.70	117.62	7.01	-36.9	-38.0	21.3	0.00e+00	0	29	0	156237824	48	5558
2026-01-14 22:51:07.70	117.56	7.09	-37.0	-38.1	21.3	0.00e+00	0	29	0	159383552	48	5617
2026-01-14 22:51:08.71	117.51	7.16	-36.8	-38.0	21.4	0.00e+00	0	29	0	162529280	48	5532
2026-01-14 22:51:09.72	117.45	7.23	-36.8	-37.9	21.5	0.00e+00	0	29	0	165675008	46	6155
2026-01-14 22:51:10.73	117.39	7.31	-36.8	-37.9	21.5	0.00e+00	0	29	0	168820736	46	6187
2026-01-14 22:51:11.74	117.34	7.38	-36.7	-37.8	21.6	0.00e+00	0	29	0	171966464	46	6103
2026-01-14 22:51:12.75	117.28	7.46	-36.7	-37.8	21.7	0.00e+00	0	29	0	175112192	46	6075
2026-01-14 22:51:13.76	117.22	7.53	-36.8	-37.9	21.6	0.00e+00	0	29	0	178257920	46	6173
2026-01-14 22:51:14.77	117.16	7.61	-36.7	-37.8	21.7	0.00e+00	0	29	0	181403648	46	6081
2026-01-14 22:51:15.78	117.10	7.68	-36.6	-37.7	21.7	0.00e+00	0	29	0	184549376	46	6063
2026-01-14 22:51:16.79	117.05	7.76	-36.4	-37.5	21.9	0.00e+00	0	29	0	187695104	46	5893
2026-01-14 22:51:17.80	116.99	7.83	-36.4	-37.5	22.0	0.00e+00	0	29	0	190840832	46	5891
2026-01-14 22:51:18.81	116.93	7.91	-36.4	-37.4	22.0	0.00e+00	0	29	0	193986560	46	5850
2026-01-14 22:51:19.82	116.87	7.98	-36.3	-37.4	22.2	0.00e+00	0	29	0	197132288	46	5804
2026-01-14 22:51:20.83	116.81	8.06	-36.3	-37.4	22.1	0.00e+00	0	29	0	200278016	46	5796
2026-01-14 22:51:21.84	116.75	8.14	-36.2	-37.3	22.2	0.00e+00	0	29	0	203423744	46	5751
2026-01-14 22:51:22.84	116.69	8.21	-36.4	-37.4	22.1	0.00e+00	0	29	0	206569472	46	5841
2026-01-14 22:51:23.85	116.62	8.29	-36.6	-37.6	21.9	0.00e+00	0	29	0	209715200	46	5986
2026-01-14 22:51:24.85	116.56	8.36	-36.2	-37.2	22.2	0.00e+00	0	29	0	212860928	46	5724
2026-01-14 22:51:25.86	116.50	8.44	-36.1	-37.2	22.3	0.00e+00	0	29	0	216006656	46	5674
2026-01-14 22:51:26.87	116.44	8.52	-36.2	-37.2	22.3	0.00e+00	0	29	0	219152384	46	5680
2026-01-14 22:51:27.88	116.38	8.60	-36.0	-37.0	22.5	0.00e+00	0	29	0	222298112	46	5574
2026-01-14 22:51:28.89	116.31	8.67	-35.9	-36.9	22.5	0.00e+00	0	29	0	225443840	46	5529
2026-01-14 22:51:29.89	116.25	8.75	-36.0	-37.1	22.4	0.00e+00	0	29	0	228589568	46	5606
2026-01-14 22:51:30.90	116.19	8.83	-35.7	-36.7	22.7	0.00e+00	0	29	0	231735296	44	6023
2026-01-14 22:51:31.91	116.12	8.91	-35.8	-36.8	22.5	0.00e+00	0	29	0	234881024	44	6099
2026-01-14 22:51:32.92	116.06	8.98	-35.7	-36.7	22.5	0.00e+00	0	29	0	238026752	44	6059
2026-01-14 22:51:33.93	115.99	9.06	-35.7	-36.8	22.6	0.00e+00	0	29	0	241172480	44	6066
2026-01-14 22:51:34.94	115.93	9.14	-35.7	-36.7	22.6	0.00e+00	0	29	0	244318208	44	6051
2026-01-14 22:51:35.95	115.86	9.22	-35.8	-36.9	22.4	0.00e+00	0	29	0	247463936	44	6156
2026-01-14 22:51:36.96	115.80	9.30	-35.7	-36.7	22.6	0.00e+00	0	29	0	250609664	44	6031
2026-01-14 22:51:37.97	115.73	9.38	-35.8	-36.8	22.5	0.00e+00	0	29	0	253755392	44	6124
2026-01-14 22:51:38.98	115.66	9.46	-35.6	-36.6	22.6	0.00e+00	0	29	0	256901120	44	5991
2026-01-14 22:51:39.99	115.60	9.54	-35.7	-36.7	22.6	0.00e+00	0	29	0	260046848	44	6003
2026-01-14 22:51:41.00	115.53	9.62	-35.9	-36.9	22.4	0.00e+00	0	29	0	263192576	44	6166
2026-01-14 22:51:42.01	115.46	9.70	-35.6	-36.6	22.7	0.00e+00	0	29	0	266338304	44	5985
2026-01-14 22:51:43.02	115.39	9.78	-35.7	-36.7	22.7	0.00e+00	0	29	0	269484032	44	6003
2026-01-14 22:51:44.03	115.33	9.86	-35.6	-36.7	22.7	0.00e+00	0	29	0	272629760	44	5998
2026-01-14 22:51:45.04	115.26	9.94	-35.6	-36.6	22.8	0.00e+00	0	29	0	275775488	44	5941
2026-01-14 22:51:46.05	115.19	10.02	-35.4	-36.4	22.9	0.00e+00	0	29	0	278921216	44	5851
2026-01-14 22:51:47.06	115.12	10.11	-35.3	-36.3	23.0	0.00e+00	0	29	0	282066944	44	5748
2026-01-14 22:51:48.07	115.05	10.19	-35.5	-36.5	22.9	0.00e+00	0	29	0	285212672	44	5876
2026-01-14 22:51:49.08	114.98	10.27	-35.3	-36.3	23.1	0.00e+00	0	29	0	288358400	44	5731
2026-01-14 22:51:50.09	114.91	10.35	-35.3	-36.3	23.0	0.00e+00	0	29	0	291504128	44	5780
2026-01-14 22:51:51.10	114.83	10.43	-35.3	-36.3	23.1	0.00e+00	0	29	0	294649856	44	5729
2026-01-14 22:51:52.11	114.76	10.52	-35.1	-36.1	23.2	0.00e+00	0	29	0	297795584	44	5637
2026-01-14 22:51:53.12	114.69	10.60	-35.1	-36.0	23.3	0.00e+00	0	29	0	300941312	44	5581
2026-01-14 22:51:54.13	114.62	10.68	-35.0	-35.9	23.3	0.00e+00	0	29	0	304087040	44	5529
2026-01-14 22:51:55.14	114.54	10.77	-35.0	-35.9	23.3	0.00e+00	0	29	0	307232768	44	5519
2026-01-14 22:51:56.14	114.47	10.85	-34.9	-35.9	23.4	0.00e+00	0	29	0	310378496	44	5506
2026-01-14 22:51:57.16	114.40	10.93	-34.9	-35.9	23.4	0.00e+00	0	29	0	313524224	44	5496
2026-01-14 22:51:58.17	114.32	11.02	-35.0	-36.0	23.2	0.00e+00	0	29	0	316669952	44	5570
2026-01-14 22:51:59.17	114.25	11.10	-35.0	-36.0	23.3	0.00e+00	0	29	0	319815680	44	5560
2026-01-14 22:52:00.18	114.17	11.18	-34.9	-35.9	23.3	0.00e+00	0	29	0	322961408	44	5517
2026-01-14 22:52:01.19	114.10	11.27	-35.0	-36.0	23.1	0.00e+00	0	29	0	326107136	44	5579
2026-01-14 22:52:02.21	114.02	11.35	-35.0	-35.9	23.2	0.00e+00	0	29	0	329252864	44	5516
2026-01-14 22:52:03.22	113.94	11.44	-34.9	-35.8	23.3	0.00e+00	0	29	0	332398592	44	5464
2026-01-14 22:52:04.22	113.87	11.52	-35.1	-36.1	23.1	0.00e+00	0	29	0	335544320	44	5638
2026-01-14 22:52:05.23	113.79	11.61	-34.8	-35.8	23.4	0.00e+00	0	29	0	338690048	44	5423
2026-01-14 22:52:06.24	113.71	11.70	-35.0	-36.0	23.2	0.00e+00	0	29	0	341835776	44	5560
2026-01-14 22:52:07.25	113.63	11.78	-35.0	-36.0	23.2	0.00e+00	0	29	0	344981504	44	5541
2026-01-14 22:52:08.26	113.56	11.87	-35.0	-36.0	23.3	0.00e+00	0	29	0	348127232	44	5547
2026-01-14 22:52:09.27	113.48	11.96	-34.8	-35.8	23.4	0.00e+00	0	29	0	351272960	44	5432
2026-01-14 22:52:10.28	113.40	12.04	-34.8	-35.8	23.4	0.00e+00	0	29	0	354418688	44	5457
2026-01-14 22:52:11.29	113.32	12.13	-34.7	-35.7	23.5	0.00e+00	0	29	0	357564416	42	6037
2026-01-14 22:52:12.30	113.23	12.22	-34.8	-35.8	23.5	0.00e+00	0	29	0	360710144	42	6092
2026-01-14 22:52:13.31	113.15	12.31	-34.8	-35.8	23.6	0.00e+00	0	29	0	363855872	42	6123
2026-01-14 22:52:14.32	113.07	12.39	-34.8	-35.8	23.5	0.00e+00	0	29	0	367001600	42	6099
2026-01-14 22:52:15.33	112.99	12.48	-34.8	-35.8	23.6	0.00e+00	0	29	0	370147328	42	6073
2026-01-14 22:52:16.34	112.91	12.57	-34.6	-35.6	23.7	0.00e+00	0	29	0	373293056	42	5955
2026-01-14 22:52:17.34	112.82	12.66	-34.6	-35.6	23.8	0.00e+00	0	29	0	376438784	42	5949
2026-01-14 22:52:18.35	112.74	12.75	-34.8	-35.7	23.7	0.00e+00	0	29	0	379584512	42	6044
2026-01-14 22:52:19.36	112.65	12.84	-34.5	-35.4	23.9	0.00e+00	0	29	0	382730240	42	5854
2026-01-14 22:52:20.37	112.57	12.93	-34.4	-35.4	23.9	0.00e+00	0	29	0	385875968	42	5815
2026-01-14 22:52:21.38	112.48	13.02	-34.5	-35.4	23.9	0.00e+00	0	29	0	389021696	42	5845
2026-01-14 22:52:22.39	112.40	13.11	-34.4	-35.4	23.8	0.00e+00	0	29	0	392167424	42	5797
2026-01-14 22:52:23.39	112.31	13.19	-34.4	-35.3	24.0	0.00e+00	0	29	0	395313152	42	5774
2026-01-14 22:52:24.41	112.22	13.29	-34.4	-35.3	23.9	0.00e+00	0	29	0	398458880	42	5789
2026-01-14 22:52:25.42	112.14	13.38	-34.3	-35.3	23.9	0.00e+00	0	29	0	401604608	42	5741
2026-01-14 22:52:26.42	112.05	13.47	-34.4	-35.3	23.9	0.00e+00	0	29	0	404750336	42	5784
2026-01-14 22:52:27.44	111.96	13.56	-34.4	-35.3	23.9	0.00e+00	0	29	0	407896064	42	5773
2026-01-14 22:52:28.45	111.87	13.65	-34.4	-35.3	23.9	0.00e+00	0	29	0	411041792	42	5772
2026-01-14 22:52:29.46	111.78	13.74	-34.5	-35.4	23.8	0.00e+00	0	29	0	414187520	42	5816
2026-01-14 22:52:30.46	111.69	13.83	-34.4	-35.3	23.9	0.00e+00	0	29	0	417333248	42	5785
2026-01-14 22:52:31.47	111.60	13.93	-34.6	-35.5	23.8	0.00e+00	0	29	0	420478976	42	5924
2026-01-14 22:52:32.48	111.51	14.02	-34.6	-35.5	23.9	0.00e+00	0	29	0	423624704	42	5883
2026-01-14 22:52:33.49	111.41	14.11	-34.6	-35.5	23.9	0.00e+00	0	29	0	426770432	42	5904
2026-01-14 22:52:34.50	111.32	14.21	-34.6	-35.6	23.9	0.00e+00	0	29	0	429916160	42	5930
2026-01-14 22:52:35.51	111.23	14.30	-34.6	-35.5	23.8	0.00e+00	0	29	0	433061888	42	5920
2026-01-14 22:52:36.52	111.13	14.39	-34.6	-35.5	23.9	0.00e+00	0	29	0	436207616	42	5904
2026-01-14 22:52:37.53	111.04	14.49	-34.6	-35.5	23.9	0.00e+00	0	29	0	439353344	42	5876
2026-01-14 22:52:38.54	110.94	14.58	-34.6	-35.5	23.9	0.00e+00	0	29	0	442499072	42	5891
2026-01-14 22:52:39.55	110.85	14.68	-34.7	-35.7	23.8	0.00e+00	0	29	0	445644800	42	5995
2026-01-14 22:52:40.56	110.75	14.77	-34.5	-35.4	24.0	0.00e+00	0	29	0	448790528	42	5847
2026-01-14 22:52:41.57	110.65	14.87	-34.7	-35.7	23.9	0.00e+00	0	29	0	451936256	42	5998
2026-01-14 22:52:42.58	110.56	14.96	-34.4	-35.3	24.1	0.00e+00	0	29	0	456130560	42	5738
2026-01-14 22:52:43.59	110.46	15.06	-34.4	-35.3	24.0	0.00e+00	0	29	0	459276288	42	5772
2026-01-14 22:52:44.60	110.36	15.16	-34.4	-35.3	24.0	0.00e+00	0	29	0	461373440	42	5789
2026-01-14 22:52:45.61	110.26	15.25	-34.5	-35.4	23.9	0.00e+00	0	29	0	464519168	42	5850
2026-01-14 22:52:46.62	110.16	15.35	-34.5	-35.4	24.0	0.00e+00	0	29	0	467664896	42	5822
2026-01-14 22:52:47.62	110.06	15.45	-34.6	-35.5	23.8	0.00e+00	0	29	0	470810624	42	5923
2026-01-14 22:52:48.63	109.95	15.54	-34.5	-35.4	24.0	0.00e+00	0	29	0	475004928	42	5826
2026-01-14 22:52:49.64	109.85	15.64	-34.6	-35.5	23.9	0.00e+00	0	29	0	478150656	42	5892
2026-01-14 22:52:50.65	109.75	15.74	-34.5	-35.4	24.0	0.00e+00	0	29	0	481296384	42	5850
2026-01-14 22:52:51.66	109.64	15.84	-34.7	-35.6	23.8	0.00e+00	0	29	0	483393536	42	5974
2026-01-14 22:52:52.67	109.54	15.93	-34.7	-35.6	23.8	0.00e+00	0	29	0	486539264	42	5943
2026-01-14 22:52:53.68	109.43	16.03	-34.8	-35.7	23.7	0.00e+00	0	29	0	490733568	42	6043
2026-01-14 22:52:54.68	109.33	16.13	-34.7	-35.6	23.9	0.00e+00	0	29	0	493879296	42	5941
2026-01-14 22:52:55.69	109.22	16.23	-34.7	-35.7	23.8	0.00e+00	0	29	0	497025024	42	5996
2026-01-14 22:52:56.70	109.12	16.33	-34.7	-35.6	23.8	0.00e+00	0	29	0	500170752	42	5967
2026-01-14 22:52:57.71	109.01	16.43	-34.6	-35.6	23.9	0.00e+00	0	29	0	503316480	42	5938
2026-01-14 22:52:58.72	108.90	16.53	-34.7	-35.6	23.8	0.00e+00	0	29	0	506462208	42	5952
2026-01-14 22:52:59.73	108.79	16.63	-34.8	-35.7	23.7	0.00e+00	0	29	0	509607936	42	6061
2026-01-14 22:53:00.74	108.68	16.73	-34.8	-35.7	23.8	0.00e+00	0	29	0	512753664	42	6038
2026-01-14 22:53:01.75	108.57	16.83	-34.8	-35.8	23.7	0.00e+00	0	29	0	515899392	42	6082
2026-01-14 22:53:02.76	108.45	16.94	-35.0	-35.9	23.6	0.00e+00	0	29	0	519045120	42	6160
2026-01-14 22:53:03.77	108.34	17.04	-35.0	-35.9	23.6	0.00e+00	0	29	0	522190848	42	6175
2026-01-14 22:53:04.78	108.23	17.14	-34.8	-35.7	23.8	0.00e+00	0	29	0	525336576	42	6056
2026-01-14 22:53:05.79	108.11	17.24	-34.8	-35.8	23.8	0.00e+00	0	29	0	528482304	42	6069
2026-01-14 22:53:06.80	108.00	17.35	-34.7	-35.6	23.8	0.00e+00	0	29	0	531628032	42	5993
2026-01-14 22:53:07.81	107.88	17.45	-34.8	-35.7	23.8	0.00e+00	0	29	0	534773760	42	6063
2026-01-14 22:53:08.82	107.77	17.55	-34.8	-35.7	23.8	0.00e+00	0	29	0	537919488	42	6011
2026-01-14 22:53:09.83	107.65	17.66	-34.9	-35.8	23.7	0.00e+00	0	29	0	541065216	42	6107
2026-01-14 22:53:10.83	107.53	17.76	-34.9	-35.8	23.6	0.00e+00	0	29	0	544210944	42	6087
2026-01-14 22:53:11.84	107.41	17.86	-34.8	-35.8	23.7	0.00e+00	0	29	0	547356672	42	6077
2026-01-14 22:53:12.85	107.29	17.97	-35.0	-35.9	23.6	0.00e+00	0	29	0	550502400	42	6180
2026-01-14 22:53:13.86	107.17	18.07	-34.9	-35.8	23.7	0.00e+00	0	29	0	553648128	42	6132
2026-01-14 22:53:14.87	107.05	18.18	-34.9	-35.9	23.6	0.00e+00	0	29	0	556793856	42	6147
2026-01-14 22:53:15.88	106.93	18.28	-35.0	-36.0	23.6	0.00e+00	0	29	0	559939584	42	6224
2026-01-14 22:53:16.89	106.80	18.39	-35.0	-36.0	23.6	0.00e+00	0	29	0	563085312	42	6227
2026-01-14 22:53:17.90	106.68	18.50	-34.9	-35.9	23.8	0.00e+00	0	30	0	566231040	42	6144
2026-01-14 22:53:18.90	106.55	18.60	-35.0	-35.9	23.7	0.00e+00	0	29	0	569376768	42	6183
2026-01-14 22:53:19.92	106.43	18.71	-34.8	-35.7	23.8	0.00e+00	0	30	0	572522496	42	6025
2026-01-14 22:53:20.92	106.30	18.82	-34.9	-35.8	23.8	0.00e+00	0	29	0	575668224	42	6094
2026-01-14 22:53:21.93	106.17	18.92	-34.7	-35.6	24.0	0.00e+00	0	29	0	578813952	42	5940
2026-01-14 22:53:22.94	106.04	19.03	-34.7	-35.6	23.9	0.00e+00	0	29	0	581959680	42	5951
2026-01-14 22:53:23.95	105.91	19.14	-34.8	-35.7	23.8	0.00e+00	0	29	0	585105408	42	6054
2026-01-14 22:53:24.96	105.78	19.25	-34.5	-35.4	24.0	0.00e+00	0	29	0	588251136	42	5830
2026-01-14 22:53:25.97	105.65	19.36	-34.6	-35.5	24.0	0.00e+00	0	29	0	591396864	42	5862
2026-01-14 22:53:26.98	105.52	19.47	-34.5	-35.4	24.0	0.00e+00	0	29	0	594542592	42	5851
2026-01-14 22:53:27.99	105.38	19.57	-34.6	-35.5	23.9	0.00e+00	0	29	0	597688320	42	5900
2026-01-14 22:53:29.00	105.25	19.68	-34.7	-35.6	23.8	0.00e+00	0	29	0	600834048	42	5988
2026-01-14 22:53:30.00	105.11	19.79	-34.6	-35.6	23.8	0.00e+00	0	29	0	603979776	42	5956
2026-01-14 22:53:31.01	104.98	19.90	-34.5	-35.5	23.9	0.00e+00	0	29	0	607125504	42	5891
2026-01-14 22:53:32.02	104.84	20.01	-34.4	-35.4	24.0	0.00e+00	0	30	0	610271232	42	5852
2026-01-14 22:53:33.03	104.70	20.13	-34.5	-35.4	24.0	0.00e+00	0	29	0	613416960	42	5856
2026-01-14 22:53:34.03	104.56	20.24	-34.4	-35.4	24.0	0.00e+00	0	29	0	616562688	42	5822
2026-01-14 22:53:35.04	104.42	20.35	-34.3	-35.3	24.2	0.00e+00	0	29	0	619708416	42	5746
2026-01-14 22:53:36.05	104.28	20.46	-34.2	-35.1	24.2	0.00e+00	0	29	0	622854144	42	5652
2026-01-14 22:53:37.06	104.14	20.57	-34.2	-35.1	24.4	0.00e+00	0	29	0	625999872	42	5613
2026-01-14 22:53:38.07	103.99	20.68	-34.4	-35.3	24.2	0.00e+00	0	29	0	629145600	42	5777
2026-01-14 22:53:39.08	103.85	20.80	-34.0	-34.9	24.4	0.00e+00	0	29	0	632291328	42	5519
2026-01-14 22:53:40.09	103.70	20.91	-34.1	-35.0	24.3	0.00e+00	0	29	0	635437056	42	5551
2026-01-14 22:53:41.10	103.55	21.02	-33.9	-34.8	24.3	0.00e+00	0	29	0	638582784	42	5463
2026-01-14 22:53:42.11	103.41	21.14	-34.1	-35.0	24.1	0.00e+00	0	29	0	641728512	42	5569
2026-01-14 22:53:43.12	103.26	21.25	-34.1	-35.0	24.0	0.00e+00	0	29	0	644874240	42	5538
2026-01-14 22:53:44.13	103.11	21.36	-34.0	-34.9	24.2	0.00e+00	0	29	0	648019968	42	5514
2026-01-14 22:53:45.14	102.95	21.48	-34.0	-34.9	24.3	0.00e+00	0	29	0	651165696	42	5479
2026-01-14 22:53:46.15	102.80	21.59	-34.1	-35.1	24.3	0.00e+00	0	29	0	654311424	42	5601
2026-01-14 22:53:47.16	102.65	21.71	-34.0	-34.9	24.3	0.00e+00	0	30	0	657457152	42	5492
2026-01-14 22:53:48.17	102.49	21.83	-34.0	-35.0	24.3	0.00e+00	0	29	0	660602880	42	5532
2026-01-14 22:53:49.18	102.34	21.94	-33.9	-34.8	24.5	0.00e+00	0	29	0	663748608	42	5464
2026-01-14 22:53:50.18	102.18	22.06	-33.8	-34.8	24.6	0.00e+00	0	30	0	666894336	42	5407
2026-01-14 22:53:51.19	102.02	22.17	-33.7	-34.6	24.6	0.00e+00	0	30	0	670040064	40	5963
2026-01-14 22:53:52.20	101.86	22.29	-33.7	-34.6	24.7	0.00e+00	0	30	0	673185792	40	5937
2026-01-14 22:53:53.21	101.70	22.41	-33.4	-34.3	24.8	0.00e+00	0	30	0	676331520	40	5751
2026-01-14 22:53:54.22	101.54	22.52	-33.6	-34.4	24.8	0.00e+00	0	30	0	679477248	40	5846
2026-01-14 22:53:55.23	101.37	22.64	-33.4	-34.3	25.0	0.00e+00	0	30	0	682622976	40	5759
2026-01-14 22:53:56.24	101.21	22.76	-33.4	-34.3	24.9	0.00e+00	0	30	0	685768704	40	5769
2026-01-14 22:53:57.25	101.04	22.88	-33.4	-34.3	25.0	0.00e+00	0	30	0	688914432	40	5729
2026-01-14 22:53:58.26	100.88	23.00	-33.3	-34.1	25.1	0.00e+00	0	29	0	692060160	40	5654
2026-01-14 22:53:59.27	100.71	23.11	-33.3	-34.1	25.1	0.00e+00	0	30	0	695205888	40	5653
2026-01-14 22:54:00.28	100.54	23.23	-33.3	-34.2	25.0	0.00e+00	0	30	0	698351616	40	5695
2026-01-14 22:54:01.29	100.36	23.35	-33.4	-34.2	24.9	0.00e+00	0	30	0	701497344	40	5703
2026-01-14 22:54:02.30	100.19	23.47	-33.2	-34.1	25.0	0.00e+00	0	30	0	704643072	40	5617
2026-01-14 22:54:03.31	100.02	23.59	-33.4	-34.2	24.9	0.00e+00	0	29	0	707788800	40	5719
2026-01-14 22:54:04.32	99.84	23.71	-33.4	-34.2	24.9	0.00e+00	0	30	0	710934528	40	5717
2026-01-14 22:54:05.32	99.67	23.83	-33.4	-34.2	24.9	0.00e+00	0	30	0	714080256	40	5713
2026-01-14 22:54:06.34	99.49	23.95	-33.5	-34.3	24.9	0.00e+00	0	30	0	717225984	40	5787
2026-01-14 22:54:07.35	99.31	24.07	-33.4	-34.2	25.0	0.00e+00	0	30	0	720371712	40	5719
2026-01-14 22:54:08.35	99.13	24.19	-33.4	-34.2	25.0	0.00e+00	0	30	0	723517440	40	5717
2026-01-14 22:54:09.36	98.95	24.31	-33.4	-34.3	24.9	0.00e+00	0	30	0	726663168	40	5726
2026-01-14 22:54:10.37	98.76	24.44	-33.3	-34.2	25.0	0.00e+00	0	30	0	729808896	40	5678
2026-01-14 22:54:11.38	98.58	24.56	-33.4	-34.2	25.0	0.00e+00	0	30	0	732954624	40	5705
2026-01-14 22:54:12.39	98.39	24.68	-33.5	-34.4	24.8	0.00e+00	0	29	0	736100352	40	5832
2026-01-14 22:54:13.40	98.20	24.80	-33.5	-34.3	24.8	0.00e+00	0	30	0	739246080	40	5789
2026-01-14 22:54:14.41	98.01	24.92	-33.7	-34.5	24.6	0.00e+00	0	30	0	742391808	40	5925
2026-01-14 22:54:15.41	97.82	25.05	-33.6	-34.5	24.6	0.00e+00	0	30	0	745537536	40	5894
2026-01-14 22:54:16.42	97.63	25.17	-33.7	-34.6	24.6	0.00e+00	0	30	0	748683264	40	5989
2026-01-14 22:54:17.43	97.44	25.29	-33.9	-34.8	24.5	0.00e+00	0	30	0	751828992	40	6087
2026-01-14 22:54:18.44	97.24	25.42	-34.1	-34.9	24.5	0.00e+00	0	30	0	754974720	40	6205
2026-01-14 22:54:19.45	97.04	25.54	-34.1	-35.0	24.6	0.00e+00	0	30	0	758120448	40	6256
2026-01-14 22:54:20.46	96.85	25.66	-33.9	-34.8	24.7	0.00e+00	0	30	0	761266176	40	6073
2026-01-14 22:54:21.47	96.64	25.79	-33.9	-34.8	24.7	0.00e+00	0	30	0	764411904	40	6084
2026-01-14 22:54:22.48	96.44	25.91	-33.8	-34.7	24.6	0.00e+00	0	30	0	767557632	40	6033
2026-01-14 22:54:23.49	96.24	26.03	-33.8	-34.7	24.6	0.00e+00	0	30	0	770703360	40	6038
2026-01-14 22:54:24.50	96.03	26.16	-33.8	-34.7	24.5	0.00e+00	0	30	0	773849088	40	6047
2026-01-14 22:54:25.51	95.83	26.28	-33.9	-34.8	24.4	0.00e+00	0	29	0	776994816	40	6127
2026-01-14 22:54:26.52	95.62	26.41	-34.0	-34.9	24.2	0.00e+00	0	30	0	780140544	40	6155
2026-01-14 22:54:27.52	95.41	26.53	-34.0	-34.9	24.4	0.00e+00	0	30	0	783286272	40	6188
2026-01-14 22:54:28.53	95.20	26.66	-34.1	-35.0	24.3	0.00e+00	0	30	0	786432000	40	6269
2026-01-14 22:54:29.55	94.98	26.78	-34.1	-35.0	24.3	0.00e+00	0	30	0	789577728	40	6252
2026-01-14 22:54:30.56	94.77	26.91	-34.2	-35.1	24.3	0.00e+00	0	30	0	792723456	40	6345
2026-01-14 22:54:31.57	94.55	27.03	-34.2	-35.1	24.3	0.00e+00	0	30	0	795869184	40	6348
2026-01-14 22:54:32.58	94.33	27.16	-34.2	-35.1	24.4	0.00e+00	0	30	0	799014912	40	6344
2026-01-14 22:54:33.59	94.11	27.29	-34.2	-35.1	24.5	0.00e+00	0	30	0	802160640	40	6279
2026-01-14 22:54:34.60	93.89	27.41	-34.2	-35.1	24.4	0.00e+00	0	30	0	805306368	40	6349
2026-01-14 22:54:35.61	93.67	27.54	-34.2	-35.1	24.3	0.00e+00	0	30	0	808452096	40	6303
2026-01-14 22:54:36.62	93.44	27.66	-34.2	-35.1	24.2	0.00e+00	0	30	0	811597824	40	6314
2026-01-14 22:54:37.62	93.22	27.79	-34.4	-35.4	24.1	0.00e+00	0	30	0	814743552	40	6505
2026-01-14 22:54:38.63	92.99	27.91	-34.7	-35.6	24.0	0.00e+00	0	30	0	817889280	40	6705
2026-01-14 22:54:39.64	92.75	28.04	-34.9	-35.9	23.9	0.00e+00	0	30	0	821035008	42	6166
2026-01-14 22:54:40.65	92.52	28.17	-34.9	-35.8	24.0	0.00e+00	0	30	0	824180736	42	6092
2026-01-14 22:54:41.66	92.29	28.29	-34.8	-35.7	24.1	0.00e+00	0	30	0	827326464	42	6037
2026-01-14 22:54:42.67	92.05	28.42	-34.7	-35.6	24.2	0.00e+00	0	30	0	830472192	42	5957
2026-01-14 22:54:43.68	91.81	28.54	-34.5	-35.4	24.2	0.00e+00	0	30	0	833617920	42	5847
2026-01-14 22:54:44.69	91.57	28.67	-34.3	-35.2	24.3	0.00e+00	0	30	0	836763648	42	5709
2026-01-14 22:54:45.70	91.33	28.80	-34.4	-35.3	24.2	0.00e+00	0	29	0	839909376	42	5735
2026-01-14 22:54:46.71	91.08	28.92	-34.2	-35.1	24.3	0.00e+00	0	30	0	843055104	42	5641
2026-01-14 22:54:47.72	90.84	29.05	-34.3	-35.2	24.2	0.00e+00	0	30	0	846200832	42	5721
2026-01-14 22:54:48.72	90.59	29.17	-34.5	-35.4	24.1	0.00e+00	0	30	0	849346560	42	5824
2026-01-14 22:54:49.73	90.34	29.30	-34.4	-35.3	24.2	0.00e+00	0	29	0	852492288	42	5765
2026-01-14 22:54:50.75	90.09	29.43	-34.5	-35.5	24.1	0.00e+00	0	30	0	855638016	42	5862
2026-01-14 22:54:51.76	89.83	29.55	-34.5	-35.5	24.2	0.00e+00	0	30	0	858783744	42	5873
2026-01-14 22:54:52.77	89.58	29.68	-34.7	-35.7	23.9	0.00e+00	0	30	0	861929472	42	6010
2026-01-14 22:54:53.78	89.32	29.81	-34.8	-35.7	23.9	0.00e+00	0	30	0	865075200	42	6032
2026-01-14 22:54:54.79	89.06	29.93	-34.7	-35.6	23.9	0.00e+00	0	30	0	869269504	42	5943
2026-01-14 22:54:55.80	88.80	30.06	-34.8	-35.8	23.9	0.00e+00	0	30	0	871366656	42	6085
2026-01-14 22:54:56.80	88.54	30.18	-35.0	-36.0	23.7	0.00e+00	0	30	0	874512384	42	6221
2026-01-14 22:54:57.81	88.27	30.31	-34.9	-35.8	24.0	0.00e+00	0	30	0	877658112	42	6082
2026-01-14 22:54:58.82	88.00	30.43	-34.9	-35.8	23.9	0.00e+00	0	30	0	880803840	42	6094
2026-01-14 22:54:59.83	87.73	30.56	-34.8	-35.7	24.1	0.00e+00	0	30	0	884998144	42	6030
2026-01-14 22:55:00.84	87.46	30.68	-34.9	-35.8	24.0	0.00e+00	0	30	0	888143872	42	6105
2026-01-14 22:55:01.85	87.18	30.81	-34.8	-35.8	24.0	0.00e+00	0	30	0	891289600	42	6068
2026-01-14 22:55:02.86	86.91	30.93	-34.8	-35.7	24.1	0.00e+00	0	30	0	894435328	42	6028
2026-01-14 22:55:03.87	86.63	31.05	-34.7	-35.6	24.1	0.00e+00	0	30	0	896532480	42	5957
2026-01-14 22:55:04.88	86.35	31.18	-34.8	-35.7	24.1	0.00e+00	0	30	0	900726784	42	6026
2026-01-14 22:55:05.89	86.06	31.30	-34.7	-35.6	24.3	0.00e+00	0	30	0	903872512	42	5949
2026-01-14 22:55:06.90	85.78	31.43	-34.6	-35.5	24.2	0.00e+00	0	30	0	907018240	42	5904
2026-01-14 22:55:07.90	85.49	31.55	-34.4	-35.3	24.4	0.00e+00	0	30	0	910163968	42	5755
2026-01-14 22:55:08.91	85.20	31.67	-34.4	-35.3	24.3	0.00e+00	0	30	0	913309696	42	5752
2026-01-14 22:55:09.92	84.91	31.79	-34.6	-35.5	24.1	0.00e+00	0	30	0	916455424	42	5885
2026-01-14 22:55:10.93	84.61	31.91	-34.5	-35.4	24.3	0.00e+00	0	30	0	919601152	42	5804
2026-01-14 22:55:11.94	84.32	32.04	-34.5	-35.4	24.4	0.00e+00	0	30	0	922746880	42	5804
2026-01-14 22:55:12.95	84.02	32.16	-34.4	-35.3	24.2	0.00e+00	0	30	0	925892608	42	5770
2026-01-14 22:55:13.96	83.72	32.28	-34.4	-35.3	24.3	0.00e+00	0	30	0	929038336	42	5773
2026-01-14 22:55:14.97	83.41	32.40	-34.5	-35.4	24.1	0.00e+00	0	30	0	932184064	42	5844
2026-01-14 22:55:15.98	83.11	32.52	-34.6	-35.5	24.1	0.00e+00	0	30	0	935329792	42	5893
2026-01-14 22:55:16.99	82.80	32.64	-34.6	-35.5	24.1	0.00e+00	0	30	0	938475520	42	5900
2026-01-14 22:55:18.00	82.49	32.76	-34.7	-35.6	24.0	0.00e+00	0	30	0	941621248	42	5946
2026-01-14 22:55:19.01	82.18	32.88	-34.8	-35.7	23.9	0.00e+00	0	29	0	944766976	42	6041
2026-01-14 22:55:20.02	81.86	32.99	-34.8	-35.7	23.9	0.00e+00	0	30	0	947912704	42	6053
2026-01-14 22:55:21.03	81.55	33.11	-34.7	-35.6	24.0	0.00e+00	0	29	0	951058432	42	5961
2026-01-14 22:55:22.04	81.23	33.23	-34.7	-35.6	23.8	0.00e+00	0	30	0	954204160	42	5984
2026-01-14 22:55:23.05	80.91	33.34	-34.9	-35.8	23.7	0.00e+00	0	30	0	957349888	42	6093
2026-01-14 22:55:24.06	80.58	33.46	-35.0	-36.0	23.5	0.00e+00	0	30	0	960495616	42	6235
2026-01-14 22:55:25.07	80.26	33.58	-35.0	-36.0	23.5	0.00e+00	0	29	0	963641344	42	6230
2026-01-14 22:55:26.08	79.93	33.69	-35.2	-36.1	23.6	0.00e+00	0	30	0	966787072	42	6341
2026-01-14 22:55:27.09	79.60	33.80	-35.2	-36.2	23.5	0.00e+00	0	30	0	969932800	42	6364
2026-01-14 22:55:28.10	79.26	33.92	-35.2	-36.2	23.6	0.00e+00	0	30	0	973078528	42	6378
2026-01-14 22:55:29.11	78.93	34.03	-35.0	-36.0	23.6	0.00e+00	0	30	0	976224256	42	6216
2026-01-14 22:55:30.12	78.59	34.14	-35.1	-36.0	23.6	0.00e+00	0	30	0	979369984	42	6241
2026-01-14 22:55:31.13	78.25	34.25	-35.0	-35.9	23.8	0.00e+00	0	30	0	982515712	42	6195
2026-01-14 22:55:32.14	77.91	34.36	-35.0	-35.9	23.8	0.00e+00	0	30	0	985661440	42	6203
2026-01-14 22:55:33.14	77.56	34.47	-34.9	-35.9	23.9	0.00e+00	0	30	0	988807168	42	6149
2026-01-14 22:55:34.15	77.22	34.58	-35.0	-35.9	23.9	0.00e+00	0	30	0	991952896	42	6167
2026-01-14 22:55:35.16	76.87	34.69	-35.0	-35.9	23.8	0.00e+00	0	29	0	995098624	42	6196
2026-01-14 22:55:36.17	76.52	34.79	-35.2	-36.1	23.7	0.00e+00	0	30	0	998244352	42	6325
2026-01-14 22:55:37.18	76.16	34.90	-35.4	-36.3	23.4	0.00e+00	0	29	0	1001390080	42	6466
2026-01-14 22:55:38.19	75.80	35.01	-35.6	-36.5	23.3	0.00e+00	0	30	0	1004535808	42	6635
2026-01-14 22:55:39.20	75.45	35.11	-35.6	-36.5	23.2	0.00e+00	0	30	0	1007681536	42	6625
2026-01-14 22:55:40.21	75.08	35.21	-35.4	-36.3	23.5	0.00e+00	0	29	0	1010827264	42	6494
2026-01-14 22:55:41.22	74.72	35.32	-35.4	-36.4	23.6	0.00e+00	0	29	0	1013972992	42	6500
2026-01-14 22:55:42.23	74.36	35.42	-35.2	-36.1	23.7	0.00e+00	0	30	0	1017118720	42	6304
2026-01-14 22:55:43.24	73.99	35.52	-35.2	-36.1	23.8	0.00e+00	0	30	0	1020264448	42	6350
2026-01-14 22:55:44.25	73.62	35.62	-35.0	-36.0	23.8	0.00e+00	0	29	0	1023410176	42	6212
2026-01-14 22:55:45.27	73.24	35.72	-35.1	-36.1	23.6	0.00e+00	0	30	0	1026555904	42	6299
2026-01-14 22:55:46.27	72.87	35.81	-35.3	-36.2	23.5	0.00e+00	0	30	0	1029701632	42	6423
2026-01-14 22:55:47.28	72.49	35.91	-35.6	-36.5	23.4	0.00e+00	0	30	0	1032847360	42	6642
2026-01-14 22:55:48.30	72.11	36.00	-35.7	-36.6	23.3	0.00e+00	0	30	0	1035993088	42	6708
2026-01-14 22:55:49.31	71.73	36.10	-35.8	-36.7	23.1	0.00e+00	0	30	0	1039138816	42	6791
2026-01-14 22:55:50.32	71.35	36.19	-35.7	-36.7	23.0	0.00e+00	0	29	0	1042284544	44	6011
2026-01-14 22:55:51.33	70.96	36.28	-35.9	-36.9	22.8	0.00e+00	0	30	0	1045430272	44	6184
2026-01-14 22:55:52.34	70.57	36.37	-36.2	-37.2	22.7	0.00e+00	0	29	0	1048576000	44	6371
2026-01-14 22:55:53.35	70.18	36.46	-36.0	-37.0	23.0	0.00e+00	0	30	0	1051721728	44	6252
2026-01-14 22:55:54.36	69.79	36.55	-36.1	-37.1	22.9	0.00e+00	0	30	0	1054867456	44	6331
2026-01-14 22:55:55.37	69.40	36.63	-35.8	-36.8	23.3	0.00e+00	0	30	0	1058013184	44	6088
2026-01-14 22:55:56.38	69.00	36.72	-35.7	-36.7	23.4	0.00e+00	0	30	0	1061158912	44	5998
2026-01-14 22:55:57.38	68.60	36.80	-35.7	-36.7	23.3	0.00e+00	0	29	0	1064304640	44	5996
2026-01-14 22:55:58.40	68.20	36.88	-35.8	-36.8	23.2	0.00e+00	0	30	0	1067450368	44	6074
2026-01-14 22:55:59.40	67.80	36.96	-35.9	-36.9	23.2	0.00e+00	0	30	0	1070596096	44	6140
2026-01-14 22:56:00.41	67.40	37.04	-35.9	-36.9	23.2	0.00e+00	0	30	0	1073741824	44	6138
2026-01-14 22:56:01.42	66.99	37.12	-35.8	-36.7	23.3	0.00e+00	0	30	0	1076887552	44	6062
2026-01-14 22:56:02.43	66.58	37.20	-35.6	-36.5	23.5	0.00e+00	0	30	0	1080033280	44	5888
2026-01-14 22:56:03.44	66.17	37.27	-35.5	-36.4	23.6	0.00e+00	0	30	0	1083179008	44	5850
2026-01-14 22:56:04.45	65.76	37.35	-35.6	-36.5	23.6	0.00e+00	0	30	0	1086324736	44	5891
2026-01-14 22:56:05.46	65.35	37.42	-35.7	-36.6	23.4	0.00e+00	0	30	0	1089470464	44	5994
2026-01-14 22:56:06.47	64.93	37.49	-35.6	-36.6	23.5	0.00e+00	0	30	0	1092616192	44	5931
2026-01-14 22:56:07.48	64.51	37.56	-35.7	-36.6	23.4	0.00e+00	0	30	0	1095761920	44	5985
2026-01-14 22:56:08.49	64.09	37.62	-35.8	-36.7	23.3	0.00e+00	0	30	0	1098907648	44	6046
2026-01-14 22:56:09.50	63.67	37.69	-35.8	-36.7	23.3	0.00e+00	0	30	0	1102053376	44	6047
2026-01-14 22:56:10.51	63.25	37.75	-36.0	-37.0	23.1	0.00e+00	0	30	0	1105199104	44	6241
2026-01-14 22:56:11.52	62.83	37.81	-36.3	-37.3	22.7	0.00e+00	0	30	0	1108344832	44	6448
2026-01-14 22:56:12.53	62.40	37.88	-36.4	-37.4	22.7	0.00e+00	0	29	0	1111490560	44	6512
2026-01-14 22:56:13.54	61.97	37.93	-36.3	-37.3	22.9	0.00e+00	0	30	0	1114636288	44	6442
2026-01-14 22:56:14.55	61.54	37.99	-36.1	-37.1	23.0	0.00e+00	0	30	0	1117782016	44	6285
2026-01-14 22:56:15.56	61.11	38.05	-36.3	-37.2	22.8	0.00e+00	0	30	0	1120927744	44	6416
2026-01-14 22:56:16.57	60.68	38.10	-36.3	-37.3	22.8	0.00e+00	0	30	0	1124073472	44	6476
2026-01-14 22:56:17.58	60.25	38.15	-36.3	-37.3	22.9	0.00e+00	0	30	0	1127219200	44	6468
2026-01-14 22:56:18.59	59.81	38.20	-36.2	-37.1	23.0	0.00e+00	0	30	0	1130364928	44	6342
2026-01-14 22:56:19.60	59.38	38.25	-36.0	-37.0	23.1	0.00e+00	0	30	0	1133510656	44	6230
2026-01-14 22:56:20.61	58.94	38.30	-36.1	-37.1	23.0	0.00e+00	0	30	0	1136656384	44	6283
2026-01-14 22:56:21.62	58.50	38.34	-35.9	-36.8	23.2	0.00e+00	0	30	0	1139802112	44	6134
2026-01-14 22:56:22.63	58.06	38.38	-35.9	-36.9	23.1	0.00e+00	0	30	0	1142947840	44	6143
2026-01-14 22:56:23.64	57.62	38.42	-35.7	-36.6	23.3	0.00e+00	0	30	0	1146093568	44	5955
2026-01-14 22:56:24.65	57.18	38.46	-35.7	-36.7	23.2	0.00e+00	0	30	0	1149239296	44	5998
2026-01-14 22:56:25.66	56.74	38.50	-35.8	-36.8	23.1	0.00e+00	0	30	0	1152385024	44	6102
2026-01-14 22:56:26.67	56.30	38.53	-36.2	-37.2	22.9	0.00e+00	0	30	0	1155530752	44	6368
2026-01-14 22:56:27.67	55.86	38.57	-36.4	-37.4	22.7	0.00e+00	0	30	0	1158676480	44	6505
2026-01-14 22:56:28.68	55.41	38.60	-36.4	-37.4	22.8	0.00e+00	0	30	0	1161822208	44	6506
2026-01-14 22:56:29.69	54.96	38.63	-36.6	-37.6	22.6	0.00e+00	0	30	0	1164967936	44	6658
2026-01-14 22:56:30.70	54.52	38.65	-36.6	-37.6	22.6	0.00e+00	0	30	0	1168113664	44	6700
2026-01-14 22:56:31.71	54.07	38.68	-36.5	-37.4	22.7	0.00e+00	0	30	0	1171259392	44	6572
2026-01-14 22:56:32.72	53.62	38.70	-36.2	-37.2	22.8	0.00e+00	0	30	0	1174405120	44	6359
2026-01-14 22:56:33.73	53.17	38.72	-36.4	-37.4	22.6	0.00e+00	0	30	0	1177550848	44	6521
2026-01-14 22:56:34.74	52.72	38.74	-36.2	-37.2	23.0	0.00e+00	0	30	0	1180696576	44	6405
2026-01-14 22:56:35.74	52.28	38.76	-36.2	-37.2	22.9	0.00e+00	0	30	0	1183842304	44	6391
2026-01-14 22:56:36.75	51.83	38.77	-36.4	-37.4	22.8	0.00e+00	0	30	0	1186988032	44	6555
2026-01-14 22:56:37.76	51.37	38.79	-36.3	-37.3	22.8	0.00e+00	0	30	0	1190133760	44	6438
2026-01-14 22:56:38.77	50.92	38.80	-36.3	-37.3	22.7	0.00e+00	0	30	0	1193279488	44	6444
2026-01-14 22:56:39.78	50.47	38.81	-36.6	-37.6	22.5	0.00e+00	0	30	0	1196425216	44	6717
2026-01-14 22:56:40.79	50.02	38.82	-36.6	-37.7	22.6	0.00e+00	0	30	0	1199570944	44	6727
2026-01-14 22:56:41.80	49.57	38.82	-36.4	-37.4	22.6	0.00e+00	0	30	0	1202716672	44	6522
2026-01-14 22:56:42.81	49.12	38.82	-36.8	-37.8	22.4	0.00e+00	0	30	0	1205862400	44	6852
2026-01-14 22:56:43.82	48.66	38.82	-36.7	-37.7	22.5	0.00e+00	0	30	0	1209008128	46	6061
2026-01-14 22:56:44.82	48.22	38.82	-36.5	-37.5	22.7	0.00e+00	0	30	0	1212153856	46	5883
2026-01-14 22:56:45.84	47.76	38.82	-36.6	-37.6	22.6	0.00e+00	0	30	0	1215299584	46	5931
2026-01-14 22:56:46.85	47.31	38.82	-36.2	-37.1	22.9	0.00e+00	0	30	0	1218445312	46	5652
2026-01-14 22:56:47.85	46.86	38.81	-36.0	-36.9	23.0	0.00e+00	0	30	0	1221591040	46	5520
2026-01-14 22:56:48.86	46.41	38.80	-36.0	-37.0	22.4	0.00e+00	0	30	0	1224736768	46	5591
2026-01-14 22:56:49.87	45.96	38.79	-36.3	-37.4	22.3	0.00e+00	0	30	0	1227882496	46	5828
2026-01-14 22:56:50.88	45.51	38.78	-36.1	-37.1	22.7	0.00e+00	0	30	0	1232076800	46	5633
2026-01-14 22:56:51.89	45.06	38.76	-36.2	-37.1	22.8	0.00e+00	0	30	0	1235222528	46	5650
2026-01-14 22:56:52.90	44.61	38.74	-36.4	-37.4	22.7	0.00e+00	0	30	0	1237319680	46	5798
2026-01-14 22:56:53.91	44.16	38.72	-36.4	-37.4	22.6	0.00e+00	0	30	0	1240465408	46	5799
2026-01-14 22:56:54.92	43.71	38.70	-36.6	-37.7	22.3	0.00e+00	0	30	0	1243611136	46	6001
2026-01-14 22:56:55.93	43.26	38.68	-36.6	-37.7	22.4	0.00e+00	0	30	0	1247805440	46	6007
2026-01-14 22:56:56.94	42.81	38.65	-36.4	-37.3	22.7	0.00e+00	0	30	0	1250951168	46	5791
2026-01-14 22:56:57.95	42.37	38.63	-36.1	-37.1	22.8	0.00e+00	0	30	0	1254096896	46	5634
2026-01-14 22:56:58.96	41.92	38.60	-36.1	-37.1	22.9	0.00e+00	0	30	0	1257242624	46	5632
2026-01-14 22:56:59.97	41.47	38.57	-36.1	-37.0	22.9	0.00e+00	0	30	0	1259339776	46	5585
2026-01-14 22:57:00.98	41.03	38.53	-35.8	-36.7	23.1	0.00e+00	0	30	0	1263534080	46	5384
2026-01-14 22:57:01.99	40.59	38.50	-35.8	-36.8	23.2	0.00e+00	0	30	0	1266679808	46	5422
2026-01-14 22:57:03.00	40.14	38.46	-35.6	-36.5	23.4	0.00e+00	0	30	0	1269825536	44	5896
2026-01-14 22:57:04.01	39.70	38.42	-35.6	-36.6	23.3	0.00e+00	0	30	0	1272971264	44	5950
2026-01-14 22:57:05.02	39.26	38.38	-35.7	-36.7	23.3	0.00e+00	0	30	0	1276116992	44	6010
2026-01-14 22:57:06.03	38.82	38.34	-35.8	-36.7	23.2	0.00e+00	0	30	0	1279262720	44	6051
2026-01-14 22:57:07.04	38.39	38.30	-36.0	-36.9	23.1	0.00e+00	0	30	0	1282408448	44	6197
2026-01-14 22:57:08.05	37.95	38.25	-36.1	-37.1	23.0	0.00e+00	0	30	0	1285554176	44	6326
2026-01-14 22:57:09.06	37.51	38.20	-36.1	-37.1	22.9	0.00e+00	0	30	0	1288699904	44	6313
2026-01-14 22:57:10.07	37.08	38.15	-35.9	-36.8	23.0	0.00e+00	0	30	0	1291845632	44	6129
2026-01-14 22:57:11.08	36.65	38.10	-35.9	-36.8	23.1	0.00e+00	0	30	0	1294991360	44	6131
2026-01-14 22:57:12.09	36.22	38.05	-35.8	-36.7	23.1	0.00e+00	0	30	0	1298137088	44	6042
2026-01-14 22:57:13.10	35.79	37.99	-35.6	-36.6	23.2	0.00e+00	0	30	0	1301282816	44	5928
2026-01-14 22:57:14.11	35.36	37.94	-36.1	-37.1	22.7	0.00e+00	0	30	0	1304428544	44	6328
2026-01-14 22:57:15.12	34.93	37.88	-36.7	-37.7	22.4	0.00e+00	0	30	0	1307574272	44	6801
2026-01-14 22:57:16.13	34.50	37.82	-37.0	-38.1	22.1	0.00e+00	0	30	0	1310720000	46	6297
2026-01-14 22:57:17.14	34.08	37.76	-37.0	-38.1	22.0	0.00e+00	0	30	0	1313865728	46	6316
2026-01-14 22:57:18.15	33.66	37.69	-37.2	-38.2	21.8	0.00e+00	0	30	0	1317011456	46	6420
2026-01-14 22:57:19.16	33.24	37.63	-37.0	-38.1	21.9	0.00e+00	0	30	0	1320157184	46	6308
2026-01-14 22:57:20.17	32.82	37.56	-36.6	-37.6	22.3	0.00e+00	0	30	0	1323302912	46	5990
2026-01-14 22:57:21.17	32.41	37.49	-36.2	-37.2	22.8	0.00e+00	0	30	0	1326448640	46	5701
2026-01-14 22:57:22.18	31.99	37.42	-36.1	-37.0	23.1	0.00e+00	0	29	0	1329594368	46	5575
2026-01-14 22:57:23.19	31.58	37.35	-35.6	-36.5	23.4	0.00e+00	0	30	0	1332740096	44	5893
2026-01-14 22:57:24.20	31.17	37.28	-35.9	-36.9	23.1	0.00e+00	0	30	0	1335885824	44	6169
2026-01-14 22:57:25.21	30.76	37.20	-36.6	-37.7	22.5	0.00e+00	0	30	0	1339031552	44	6728
2026-01-14 22:57:26.22	30.35	37.13	-37.2	-38.2	22.1	0.00e+00	0	30	0	1342177280	46	6421
2026-01-14 22:57:27.23	29.94	37.05	-37.3	-38.4	22.0	0.00e+00	0	30	0	1345323008	46	6499
2026-01-14 22:57:28.24	29.54	36.97	-37.2	-38.3	22.1	0.00e+00	0	30	0	1348468736	46	6449
2026-01-14 22:57:29.25	29.14	36.89	-36.7	-37.7	22.5	0.00e+00	0	30	0	1351614464	46	6020
2026-01-14 22:57:30.26	28.74	36.81	-36.6	-37.6	22.6	0.00e+00	0	30	0	1354760192	46	5972
2026-01-14 22:57:31.27	28.34	36.72	-35.7	-36.6	23.4	0.00e+00	0	30	0	1357905920	46	5338
2026-01-14 22:57:32.28	27.95	36.64	-35.6	-36.6	23.4	0.00e+00	0	30	0	1361051648	44	5952
2026-01-14 22:57:33.28	27.56	36.55	-35.8	-36.8	23.2	0.00e+00	0	30	0	1364197376	44	6071
2026-01-14 22:57:34.30	27.16	36.47	-36.1	-37.1	23.0	0.00e+00	0	30	0	1367343104	44	6321
2026-01-14 22:57:35.30	26.77	36.38	-36.3	-37.3	22.9	0.00e+00	0	30	0	1370488832	44	6459
2026-01-14 22:57:36.31	26.39	36.29	-36.1	-37.1	22.9	0.00e+00	0	30	0	1373634560	44	6329
2026-01-14 22:57:37.32	26.00	36.20	-35.8	-36.8	23.2	0.00e+00	0	30	0	1376780288	44	6108
2026-01-14 22:57:38.33	25.62	36.11	-35.7	-36.7	23.3	0.00e+00	0	30	0	1379926016	44	6021
2026-01-14 22:57:39.34	25.24	36.01	-35.5	-36.4	23.6	0.00e+00	0	30	0	1383071744	44	5814
2026-01-14 22:57:40.35	24.86	35.92	-34.9	-35.8	24.0	0.00e+00	0	30	0	1386217472	44	5448
2026-01-14 22:57:41.36	24.48	35.82	-35.3	-36.2	23.6	0.00e+00	0	30	0	1389363200	44	5708
2026-01-14 22:57:42.37	24.11	35.73	-35.6	-36.5	23.4	0.00e+00	0	30	0	1392508928	44	5919
2026-01-14 22:57:43.38	23.74	35.63	-35.7	-36.7	23.3	0.00e+00	0	30	0	1395654656	44	6003
2026-01-14 22:57:44.39	23.37	35.53	-35.6	-36.5	23.5	0.00e+00	0	30	0	1398800384	44	5904
2026-01-14 22:57:45.40	23.00	35.43	-35.3	-36.2	23.7	0.00e+00	0	30	0	1401946112	44	5718
2026-01-14 22:57:46.41	22.64	35.33	-35.3	-36.2	23.8	0.00e+00	0	30	0	1405091840	44	5695
2026-01-14 22:57:47.42	22.27	35.23	-35.2	-36.1	23.7	0.00e+00	0	30	0	1408237568	44	5636
2026-01-14 22:57:48.43	21.91	35.12	-35.5	-36.5	23.4	0.00e+00	0	30	0	1411383296	44	5873
2026-01-14 22:57:49.44	21.55	35.02	-35.9	-36.9	23.1	0.00e+00	0	30	0	1414529024	44	6139
2026-01-14 22:57:50.45	21.20	34.91	-36.1	-37.1	22.7	0.00e+00	0	30	0	1417674752	44	6297
2026-01-14 22:57:51.46	20.85	34.81	-36.1	-37.1	22.4	0.00e+00	0	30	0	1420820480	44	6289
2026-01-14 22:57:52.47	20.49	34.70	-35.8	-36.8	22.5	0.00e+00	0	30	0	1423966208	44	6109
2026-01-14 22:57:53.48	20.15	34.59	-35.5	-36.4	23.0	0.00e+00	0	30	0	1427111936	44	5847
2026-01-14 22:57:54.49	19.80	34.49	-35.4	-36.3	23.5	0.00e+00	0	30	0	1430257664	44	5754
2026-01-14 22:57:55.50	19.45	34.38	-35.0	-35.9	23.8	0.00e+00	0	30	0	1433403392	44	5513
2026-01-14 22:57:56.50	19.12	34.27	-35.2	-36.1	23.8	0.00e+00	0	30	0	1436549120	44	5635
2026-01-14 22:57:57.51	18.78	34.16	-35.6	-36.5	23.4	0.00e+00	0	30	0	1439694848	44	5882
2026-01-14 22:57:58.52	18.44	34.05	-35.7	-36.7	23.4	0.00e+00	0	30	0	1442840576	44	5999
2026-01-14 22:57:59.53	18.10	33.93	-35.7	-36.6	23.2	0.00e+00	0	30	0	1445986304	44	5980
2026-01-14 22:58:00.54	17.77	33.82	-35.5	-36.4	23.4	0.00e+00	0	30	0	1449132032	44	5847
2026-01-14 22:58:01.55	17.44	33.71	-35.5	-36.4	23.4	0.00e+00	0	29	0	1452277760	44	5851
2026-01-14 22:58:02.56	17.11	33.59	-34.8	-35.8	23.9	0.00e+00	0	30	0	1455423488	44	5417
2026-01-14 22:58:03.57	16.79	33.48	-34.8	-35.7	24.1	0.00e+00	0	30	0	1458569216	44	5358
2026-01-14 22:58:04.58	16.46	33.36	-34.7	-35.6	24.2	0.00e+00	0	30	0	1461714944	42	5994
2026-01-14 22:58:05.59	16.14	33.25	-35.1	-36.0	23.8	0.00e+00	0	30	0	1464860672	42	6270
2026-01-14 22:58:06.60	15.83	33.13	-35.4	-36.4	23.6	0.00e+00	0	30	0	1468006400	42	6501
2026-01-14 22:58:07.61	15.51	33.01	-35.6	-36.5	23.5	0.00e+00	0	30	0	1471152128	42	6638
2026-01-14 22:58:08.62	15.19	32.90	-35.1	-36.1	23.8	0.00e+00	0	30	0	1474297856	42	6292
2026-01-14 22:58:09.63	14.88	32.78	-34.4	-35.3	24.4	0.00e+00	0	30	0	1477443584	42	5756
2026-01-14 22:58:10.64	14.57	32.66	-34.1	-35.0	24.7	0.00e+00	0	30	0	1480589312	42	5543
2026-01-14 22:58:11.65	14.27	32.54	-34.1	-34.9	24.7	0.00e+00	0	30	0	1483735040	42	5519
2026-01-14 22:58:12.66	13.96	32.42	-33.9	-34.7	24.8	0.00e+00	0	30	0	1486880768	42	5386
2026-01-14 22:58:13.66	13.66	32.30	-34.2	-35.1	24.5	0.00e+00	0	29	0	1490026496	42	5610
2026-01-14 22:58:14.67	13.36	32.18	-34.5	-35.4	24.3	0.00e+00	0	30	0	1493172224	42	5827
2026-01-14 22:58:15.68	13.06	32.06	-34.7	-35.6	24.1	0.00e+00	0	30	0	1496317952	42	5966
2026-01-14 22:58:16.69	12.77	31.94	-34.8	-35.7	24.1	0.00e+00	0	30	0	1499463680	42	6048
2026-01-14 22:58:17.70	12.47	31.82	-34.6	-35.5	24.3	0.00e+00	0	30	0	1502609408	42	5913
2026-01-14 22:58:18.71	12.18	31.70	-34.3	-35.2	24.4	0.00e+00	0	30	0	1505755136	42	5701
2026-01-14 22:58:19.72	11.89	31.57	-34.0	-34.9	24.4	0.00e+00	0	30	0	1508900864	42	5495
2026-01-14 22:58:20.73	11.61	31.45	-33.8	-34.7	24.7	0.00e+00	0	30	0	1512046592	42	5387
2026-01-14 22:58:21.74	11.32	31.33	-33.9	-34.8	24.7	0.00e+00	0	30	0	1515192320	42	5409
2026-01-14 22:58:22.75	11.04	31.20	-34.2	-35.1	24.6	0.00e+00	0	30	0	1518338048	42	5625
2026-01-14 22:58:23.76	10.76	31.08	-34.6	-35.5	24.3	0.00e+00	0	30	0	1521483776	42	5860
2026-01-14 22:58:24.77	10.48	30.96	-35.0	-36.0	23.8	0.00e+00	0	29	0	1524629504	42	6216
2026-01-14 22:58:25.78	10.20	30.83	-35.4	-36.3	23.5	0.00e+00	0	30	0	1527775232	42	6479
2026-01-14 22:58:26.79	9.93	30.71	-35.4	-36.4	23.5	0.00e+00	0	30	0	1530920960	42	6532
2026-01-14 22:58:27.80	9.66	30.58	-35.1	-36.0	23.7	0.00e+00	0	30	0	1534066688	42	6247
2026-01-14 22:58:28.81	9.39	30.46	-34.4	-35.3	24.4	0.00e+00	0	30	0	1537212416	42	5789
2026-01-14 22:58:29.82	9.12	30.34	-34.2	-35.1	24.5	0.00e+00	0	30	0	1540358144	42	5633
2026-01-14 22:58:30.83	8.85	30.21	-34.1	-35.0	24.6	0.00e+00	0	30	0	1543503872	42	5551
2026-01-14 22:58:31.84	8.59	30.09	-34.2	-35.1	24.5	0.00e+00	0	29	0	1546649600	42	5645
2026-01-14 22:58:32.85	8.33	29.96	-34.2	-35.1	24.5	0.00e+00	0	30	0	1549795328	42	5621
2026-01-14 22:58:33.86	8.07	29.84	-34.3	-35.2	24.5	0.00e+00	0	30	0	1552941056	42	5672
2026-01-14 22:58:34.87	7.81	29.71	-34.4	-35.3	24.4	0.00e+00	0	30	0	1556086784	42	5733
2026-01-14 22:58:35.88	7.56	29.58	-34.4	-35.3	24.4	0.00e+00	0	30	0	1559232512	42	5734
2026-01-14 22:58:36.89	7.30	29.46	-34.2	-35.1	24.4	0.00e+00	0	30	0	1562378240	42	5600
2026-01-14 22:58:37.90	7.05	29.33	-34.3	-35.2	24.4	0.00e+00	0	30	0	1565523968	42	5675
2026-01-14 22:58:38.91	6.80	29.21	-34.4	-35.3	24.3	0.00e+00	0	30	0	1568669696	42	5776
2026-01-14 22:58:39.92	6.55	29.08	-34.5	-35.4	24.3	0.00e+00	0	30	0	1571815424	42	5837
2026-01-14 22:58:40.93	6.31	28.96	-34.4	-35.4	24.3	0.00e+00	0	29	0	1574961152	42	5806
2026-01-14 22:58:41.94	6.07	28.83	-34.5	-35.4	24.3	0.00e+00	0	30	0	1578106880	42	5833
2026-01-14 22:58:42.95	5.82	28.70	-34.6	-35.5	24.2	0.00e+00	0	30	0	1581252608	42	5875
2026-01-14 22:58:43.96	5.58	28.58	-34.5	-35.4	24.3	0.00e+00	0	29	0	1584398336	42	5805
2026-01-14 22:58:44.97	5.35	28.45	-34.5	-35.4	24.3	0.00e+00	0	30	0	1587544064	42	5798
2026-01-14 22:58:45.98	5.11	28.33	-34.2	-35.1	24.5	0.00e+00	0	30	0	1590689792	42	5610
2026-01-14 22:58:46.99	4.88	28.20	-34.1	-35.0	24.5	0.00e+00	0	30	0	1594884096	42	5547
2026-01-14 22:58:47.99	4.65	28.08	-34.0	-34.9	24.6	0.00e+00	0	30	0	1598029824	42	5469
2026-01-14 22:58:49.00	4.42	27.95	-33.9	-34.8	24.7	0.00e+00	0	30	0	1600126976	42	5414
2026-01-14 22:58:50.01	4.19	27.83	-33.9	-34.8	24.7	0.00e+00	0	30	0	1603272704	42	5419
2026-01-14 22:58:51.02	3.96	27.70	-34.0	-34.8	24.7	0.00e+00	0	30	0	1606418432	42	5461
2026-01-14 22:58:52.03	3.74	27.57	-33.9	-34.8	24.7	0.00e+00	0	30	0	1610612736	42	5432
2026-01-14 22:58:53.04	3.51	27.45	-34.1	-35.1	24.5	0.00e+00	0	30	0	1613758464	42	5595
2026-01-14 22:58:54.05	3.29	27.32	-34.3	-35.2	24.2	0.00e+00	0	30	0	1616904192	42	5712
2026-01-14 22:58:55.07	3.07	27.20	-34.4	-35.3	24.1	0.00e+00	0	30	0	1620049920	42	5787
2026-01-14 22:58:56.08	2.85	27.07	-34.4	-35.3	24.1	0.00e+00	0	30	0	1623195648	42	5766
2026-01-14 22:58:57.09	2.63	26.95	-34.3	-35.2	24.1	0.00e+00	0	30	0	1626341376	42	5723
2026-01-14 22:58:58.10	2.42	26.82	-34.1	-35.0	24.4	0.00e+00	0	30	0	1629487104	42	5531
2026-01-14 22:58:59.11	2.21	26.70	-33.9	-34.8	24.6	0.00e+00	0	30	0	1632632832	42	5426
2026-01-14 22:59:00.12	2.00	26.57	-33.7	-34.6	24.8	0.00e+00	0	30	0	1635778560	40	5962
2026-01-14 22:59:01.12	1.79	26.45	-33.6	-34.5	24.8	0.00e+00	0	29	0	1638924288	40	5905
2026-01-14 22:59:02.13	1.58	26.33	-33.7	-34.6	24.8	0.00e+00	0	29	0	1642070016	40	5956
2026-01-14 22:59:03.14	1.37	26.20	-33.7	-34.6	24.8	0.00e+00	0	29	0	1645215744	40	5966
2026-01-14 22:59:04.15	1.17	26.08	-33.9	-34.8	24.7	0.00e+00	0	30	0	1648361472	40	6085
2026-01-14 22:59:05.16	0.97	25.95	-34.0	-34.9	24.5	0.00e+00	0	29	0	1651507200	40	6178
2026-01-14 22:59:06.17	0.77	25.83	-34.1	-35.0	24.5	0.00e+00	0	30	0	1654652928	40	6219
2026-01-14 22:59:07.18	0.57	25.71	-34.2	-35.1	24.3	0.00e+00	0	29	0	1657798656	40	6310
2026-01-14 22:59:08.20	0.37	25.58	-34.3	-35.2	24.1	0.00e+00	0	30	0	1660944384	40	6408
2026-01-14 22:59:09.20	0.17	25.46	-34.3	-35.3	24.1	0.00e+00	0	29	0	1664090112	40	6432
2026-01-14 22:59:10.21	359.98	25.34	-34.3	-35.3	24.1	0.00e+00	0	30	0	1667235840	40	6439
2026-01-14 22:59:11.22	359.78	25.22	-34.5	-35.4	24.1	0.00e+00	0	30	0	1670381568	40	6540
2026-01-14 22:59:12.24	359.59	25.09	-34.3	-35.2	24.2	0.00e+00	0	29	0	1673527296	40	6393
2026-01-14 22:59:13.24	359.40	24.97	-34.4	-35.3	24.1	0.00e+00	0	29	0	1676673024	40	6473
2026-01-14 22:59:14.25	359.21	24.85	-34.3	-35.2	24.2	0.00e+00	0	29	0	1679818752	40	6419
2026-01-14 22:59:15.26	359.02	24.73	-34.4	-35.3	24.2	0.00e+00	0	30	0	1682964480	40	6450
2026-01-14 22:59:16.27	358.84	24.61	-34.2	-35.1	24.4	0.00e+00	0	29	0	1686110208	40	6347
2026-01-14 22:59:17.28	358.65	24.48	-34.2	-35.1	24.4	0.00e+00	0	29	0	1689255936	40	6312
2026-01-14 22:59:18.29	358.47	24.36	-34.2	-35.1	24.4	0.00e+00	0	30	0	1692401664	40	6325
2026-01-14 22:59:19.30	358.29	24.24	-34.2	-35.1	24.5	0.00e+00	0	30	0	1695547392	40	6284
2026-01-14 22:59:20.31	358.11	24.12	-33.8	-34.7	24.7	0.00e+00	0	30	0	1698693120	40	6007
2026-01-14 22:59:21.32	357.93	24.00	-33.8	-34.6	24.7	0.00e+00	0	30	0	1701838848	40	5983
2026-01-14 22:59:22.33	357.75	23.88	-33.8	-34.7	24.7	0.00e+00	0	30	0	1704984576	40	6024
2026-01-14 22:59:23.34	357.58	23.76	-33.6	-34.4	24.9	0.00e+00	0	30	0	1708130304	40	5848
2026-01-14 22:59:24.35	357.40	23.64	-33.6	-34.4	24.9	0.00e+00	0	30	0	1711276032	40	5841
2026-01-14 22:59:25.36	357.23	23.52	-33.6	-34.5	24.9	0.00e+00	0	30	0	1714421760	40	5890
2026-01-14 22:59:26.37	357.06	23.40	-33.5	-34.4	24.9	0.00e+00	0	30	0	1717567488	40	5822
2026-01-14 22:59:27.37	356.89	23.29	-33.5	-34.3	25.0	0.00e+00	0	30	0	1720713216	40	5790
2026-01-14 22:59:28.39	356.72	23.17	-33.6	-34.5	24.8	0.00e+00	0	30	0	1723858944	40	5875
2026-01-14 22:59:29.40	356.55	23.05	-33.8	-34.6	24.6	0.00e+00	0	29	0	1727004672	40	5986
2026-01-14 22:59:30.41	356.38	22.93	-33.8	-34.7	24.6	0.00e+00	0	30	0	1730150400	40	6022
2026-01-14 22:59:31.42	356.22	22.81	-34.0	-34.9	24.5	0.00e+00	0	30	0	1733296128	40	6153
2026-01-14 22:59:32.43	356.05	22.69	-34.0	-34.9	24.5	0.00e+00	0	30	0	1736441856	40	6171
2026-01-14 22:59:33.44	355.89	22.58	-34.2	-35.1	24.3	0.00e+00	0	30	0	1739587584	40	6289
2026-01-14 22:59:34.45	355.73	22.46	-34.0	-34.9	24.5	0.00e+00	0	30	0	1742733312	40	6183
2026-01-14 22:59:35.46	355.57	22.34	-34.1	-35.0	24.4	0.00e+00	0	30	0	1745879040	40	6240
2026-01-14 22:59:36.47	355.41	22.23	-33.9	-34.8	24.5	0.00e+00	0	30	0	1749024768	40	6132
2026-01-14 22:59:37.48	355.25	22.11	-34.1	-35.0	24.3	0.00e+00	0	30	0	1752170496	40	6209
2026-01-14 22:59:38.48	355.09	22.00	-33.7	-34.6	24.5	0.00e+00	0	30	0	1755316224	40	5978
2026-01-14 22:59:39.49	354.94	21.88	-33.7	-34.6	24.6	0.00e+00	0	30	0	1758461952	40	5964
2026-01-14 22:59:40.50	354.78	21.77	-33.8	-34.8	24.5	0.00e+00	0	30	0	1761607680	40	6071
2026-01-14 22:59:41.51	354.63	21.65	-33.8	-34.7	24.6	0.00e+00	0	30	0	1764753408	40	6031
2026-01-14 22:59:42.52	354.48	21.54	-33.9	-34.8	24.5	0.00e+00	0	30	0	1767899136	40	6067
2026-01-14 22:59:43.53	354.33	21.42	-34.0	-34.9	24.4	0.00e+00	0	30	0	1771044864	40	6170
2026-01-14 22:59:44.54	354.18	21.31	-34.0	-34.9	24.4	0.00e+00	0	30	0	1774190592	40	6172
2026-01-14 22:59:45.55	354.03	21.20	-34.1	-35.0	24.3	0.00e+00	0	30	0	1777336320	40	6254
2026-01-14 22:59:46.56	353.88	21.08	-34.2	-35.1	24.2	0.00e+00	0	30	0	1780482048	40	6328
2026-01-14 22:59:47.57	353.73	20.97	-34.0	-34.9	24.3	0.00e+00	0	30	0	1783627776	40	6196
2026-01-14 22:59:48.58	353.59	20.86	-34.0	-34.9	24.2	0.00e+00	0	30	0	1786773504	40	6167
2026-01-14 22:59:49.58	353.44	20.74	-34.0	-34.9	24.2	0.00e+00	0	30	0	1789919232	40	6155
2026-01-14 22:59:50.59	353.30	20.63	-33.8	-34.7	24.3	0.00e+00	0	30	0	1793064960	40	6058
2026-01-14 22:59:51.60	353.16	20.52	-33.7	-34.6	24.5	0.00e+00	0	30	0	1796210688	40	5976
2026-01-14 22:59:52.61	353.02	20.41	-33.8	-34.7	24.4	0.00e+00	0	30	0	1799356416	40	6001
2026-01-14 22:59:53.62	352.88	20.30	-33.8	-34.7	24.4	0.00e+00	0	30	0	1802502144	40	6019
2026-01-14 22:59:54.63	352.74	20.19	-33.8	-34.7	24.4	0.00e+00	0	30	0	1805647872	40	6041
2026-01-14 22:59:55.64	352.60	20.08	-33.9	-34.8	24.5	0.00e+00	0	30	0	1808793600	40	6084
2026-01-14 22:59:56.65	352.46	19.97	-33.9	-34.8	24.5	0.00e+00	0	30	0	1811939328	40	6080
2026-01-14 22:59:57.66	352.33	19.86	-33.9	-34.8	24.5	0.00e+00	0	30	0	1815085056	40	6109
2026-01-14 22:59:58.67	352.19	19.75	-34.1	-35.0	24.4	0.00e+00	0	30	0	1818230784	40	6218
2026-01-14 22:59:59.68	352.06	19.64	-34.2	-35.1	24.2	0.00e+00	0	30	0	1821376512	40	6344
2026-01-14 23:00:00.69	351.92	19.53	-34.2	-35.2	24.3	0.00e+00	0	30	0	1824522240	40	6356
2026-01-14 23:00:01.70	351.79	19.42	-34.5	-35.4	24.0	0.00e+00	0	30	0	1827667968	40	6539
2026-01-14 23:00:02.71	351.66	19.31	-34.4	-35.3	24.0	0.00e+00	0	30	0	1830813696	40	6498
2026-01-14 23:00:03.72	351.53	19.20	-34.4	-35.3	24.0	0.00e+00	0	30	0	1833959424	40	6495
2026-01-14 23:00:04.73	351.40	19.10	-34.2	-35.1	24.2	0.00e+00	0	30	0	1837105152	40	6323
2026-01-14 23:00:05.74	351.27	18.99	-34.2	-35.1	24.2	0.00e+00	0	30	0	1840250880	40	6296
2026-01-14 23:00:06.75	351.15	18.88	-34.1	-35.0	24.3	0.00e+00	0	30	0	1843396608	40	6209
2026-01-14 23:00:07.76	351.02	18.77	-34.0	-34.9	24.3	0.00e+00	0	30	0	1846542336	40	6172
2026-01-14 23:00:08.77	350.89	18.67	-34.1	-35.0	24.3	0.00e+00	0	30	0	1849688064	40	6229
2026-01-14 23:00:09.78	350.77	18.56	-34.0	-34.9	24.4	0.00e+00	0	30	0	1852833792	40	6166
2026-01-14 23:00:10.79	350.65	18.46	-34.0	-34.9	24.3	0.00e+00	0	30	0	1855979520	40	6184
2026-01-14 23:00:11.80	350.52	18.35	-34.2	-35.1	24.2	0.00e+00	0	30	0	1859125248	40	6278
2026-01-14 23:00:12.81	350.40	18.24	-34.0	-34.9	24.4	0.00e+00	0	30	0	1862270976	40	6185
2026-01-14 23:00:13.82	350.28	18.14	-34.1	-35.0	24.3	0.00e+00	0	30	0	1865416704	40	6256
2026-01-14 23:00:14.82	350.16	18.04	-34.2	-35.1	24.3	0.00e+00	0	30	0	1868562432	40	6289
2026-01-14 23:00:15.83	350.04	17.93	-34.3	-35.2	24.2	0.00e+00	0	30	0	1871708160	40	6388
2026-01-14 23:00:16.84	349.92	17.83	-34.3	-35.2	24.2	0.00e+00	0	30	0	1874853888	40	6380
2026-01-14 23:00:17.85	349.80	17.72	-34.2	-35.2	24.3	0.00e+00	0	30	0	1877999616	40	6352
2026-01-14 23:00:18.86	349.69	17.62	-34.3	-35.2	24.2	0.00e+00	0	29	0	1881145344	40	6395
2026-01-14 23:00:19.87	349.57	17.52	-34.4	-35.3	24.1	0.00e+00	0	30	0	1884291072	40	6475
2026-01-14 23:00:20.88	349.46	17.41	-34.6	-35.5	24.0	0.00e+00	0	30	0	1887436800	40	6614
2026-01-14 23:00:21.89	349.34	17.31	-34.7	-35.6	23.8	0.00e+00	0	30	0	1890582528	40	6708
2026-01-14 23:00:22.90	349.23	17.21	-34.8	-35.7	23.8	0.00e+00	0	30	0	1893728256	42	6060
2026-01-14 23:00:23.91	349.11	17.11	-35.0	-35.9	23.6	0.00e+00	0	30	0	1896873984	42	6187
2026-01-14 23:00:24.92	349.00	17.01	-34.7	-35.7	23.7	0.00e+00	0	30	0	1900019712	42	5997
2026-01-14 23:00:25.93	348.89	16.91	-34.8	-35.7	23.6	0.00e+00	0	29	0	1903165440	42	6055
2026-01-14 23:00:26.94	348.78	16.80	-34.6	-35.6	23.7	0.00e+00	0	30	0	1906311168	42	5940
2026-01-14 23:00:27.95	348.67	16.70	-34.6	-35.6	23.7	0.00e+00	0	30	0	1909456896	42	5954
2026-01-14 23:00:28.96	348.56	16.60	-34.5	-35.4	23.8	0.00e+00	0	30	0	1912602624	42	5843
2026-01-14 23:00:29.97	348.45	16.50	-34.3	-35.3	23.8	0.00e+00	0	30	0	1915748352	42	5729
2026-01-14 23:00:30.98	348.34	16.40	-34.3	-35.2	23.9	0.00e+00	0	30	0	1918894080	42	5670
2026-01-14 23:00:31.99	348.24	16.30	-34.2	-35.1	24.0	0.00e+00	0	30	0	1922039808	42	5609
2026-01-14 23:00:32.99	348.13	16.21	-34.0	-34.9	24.1	0.00e+00	0	30	0	1925185536	42	5519
2026-01-14 23:00:34.01	348.03	16.11	-34.1	-35.0	24.1	0.00e+00	0	30	0	1928331264	42	5548
2026-01-14 23:00:35.01	347.92	16.01	-33.9	-34.8	24.3	0.00e+00	0	30	0	1931476992	42	5422
2026-01-14 23:00:36.02	347.82	15.91	-33.9	-34.7	24.4	0.00e+00	0	30	0	1934622720	42	5404
2026-01-14 23:00:37.03	347.71	15.81	-33.9	-34.7	24.4	0.00e+00	0	30	0	1937768448	42	5399
2026-01-14 23:00:38.04	347.61	15.71	-33.9	-34.8	24.4	0.00e+00	0	30	0	1940914176	42	5423
2026-01-14 23:00:39.05	347.51	15.62	-33.9	-34.8	24.3	0.00e+00	0	30	0	1944059904	42	5449
2026-01-14 23:00:40.06	347.41	15.52	-34.0	-34.9	24.4	0.00e+00	0	30	0	1947205632	42	5479
2026-01-14 23:00:41.07	347.31	15.42	-34.1	-35.0	24.3	0.00e+00	0	30	0	1950351360	42	5550
2026-01-14 23:00:42.08	347.21	15.33	-34.2	-35.1	24.2	0.00e+00	0	29	0	1954545664	42	5629
2026-01-14 23:00:43.09	347.11	15.23	-34.2	-35.1	24.2	0.00e+00	0	29	0	1957691392	42	5656
2026-01-14 23:00:44.10	347.01	15.14	-34.4	-35.3	24.0	0.00e+00	0	30	0	1960837120	42	5770
2026-01-14 23:00:45.11	346.91	15.04	-34.4	-35.3	24.1	0.00e+00	0	29	0	1962934272	42	5740
2026-01-14 23:00:46.12	346.82	14.94	-34.5	-35.4	24.0	0.00e+00	0	30	0	1966080000	42	5811
2026-01-14 23:00:47.13	346.72	14.85	-34.5	-35.4	23.9	0.00e+00	0	29	0	1970274304	42	5817
2026-01-14 23:00:48.14	346.62	14.75	-34.6	-35.5	23.9	0.00e+00	0	30	0	1973420032	42	5900
2026-01-14 23:00:49.15	346.53	14.66	-34.7	-35.6	23.7	0.00e+00	0	30	0	1976565760	42	5961
2026-01-14 23:00:50.16	346.43	14.57	-34.7	-35.7	23.7	0.00e+00	0	30	0	1979711488	42	6015
2026-01-14 23:00:51.17	346.34	14.47	-34.7	-35.7	23.7	0.00e+00	0	30	0	1982857216	42	6011
2026-01-14 23:00:52.18	346.24	14.38	-34.7	-35.7	23.6	0.00e+00	0	30	0	1986002944	42	6006
2026-01-14 23:00:53.19	346.15	14.28	-34.6	-35.5	23.7	0.00e+00	0	30	0	1989148672	42	5909
2026-01-14 23:00:54.20	346.06	14.19	-34.7	-35.6	23.6	0.00e+00	0	30	0	1992294400	42	5975
2026-01-14 23:00:55.21	345.97	14.10	-34.6	-35.5	23.6	0.00e+00	0	30	0	1995440128	42	5901
2026-01-14 23:00:56.22	345.88	14.01	-34.6	-35.5	23.6	0.00e+00	0	30	0	1998585856	42	5897
2026-01-14 23:00:57.23	345.79	13.91	-34.5	-35.4	23.7	0.00e+00	0	30	0	2001731584	42	5825
