passes_logs/2026/01/14/R4.6S_Anadyr/R4.6S_Anadyr__20260114_132254_SUOMI_NPP_rec.log

#Pass ID: 20260114_132254_SUOMI NPP
#Satellite: SUOMI NPP
#Configuration: NPP
#almurnet v.1.7.20251203
#Start time: 2026-01-14 13:22:55

#Version: 2.2.20231116
#Station: R4.6S_Anadyr
#Location: 177.4865 lon 64.73178 lat
#TLE: 1 37849U 11061A   26013.83525404  .00000052  00000+0  45495-4 0  9990
#TLE: 2 37849  98.7808 315.8939 0002471  65.6575 294.4859 14.19524986736544

#Time	Az	El	Level	Level2	SNR	BER	BlckErr	Temp	State	Recorded	gain1	gain2
2026-01-14 13:22:55.44	18.84	0.05	-48.7	-61.2	3.4	1.52e+00	0	26	0	0	60	40070
2026-01-14 13:22:56.45	18.89	0.10	-48.7	-63.9	3.6	1.51e+00	0	27	104	0	60	56389
2026-01-14 13:22:57.46	18.94	0.16	-48.8	-64.0	3.6	1.51e+00	0	27	104	0	60	57143
2026-01-14 13:22:58.47	18.98	0.21	-48.7	-63.9	3.6	1.51e+00	0	27	104	0	60	56717
2026-01-14 13:22:59.48	19.03	0.27	-48.8	-63.9	3.6	1.51e+00	0	27	104	0	60	56843
2026-01-14 13:23:00.49	19.08	0.33	-48.8	-64.0	3.6	1.51e+00	0	27	104	0	60	57068
2026-01-14 13:23:01.50	19.13	0.38	-48.9	-64.0	3.6	1.51e+00	0	27	104	0	60	57484
2026-01-14 13:23:02.51	19.17	0.44	-48.8	-64.0	3.6	1.51e+00	0	27	104	0	60	57037
2026-01-14 13:23:03.52	19.22	0.50	-48.8	-64.0	3.6	1.51e+00	0	27	104	0	60	57047
2026-01-14 13:23:04.53	19.27	0.55	-48.7	-63.9	3.6	1.51e+00	0	27	104	0	60	56555
2026-01-14 13:23:05.54	19.32	0.61	-48.6	-63.8	3.6	1.51e+00	0	27	104	0	60	55774
2026-01-14 13:23:06.55	19.37	0.67	-48.5	-63.7	3.6	1.51e+00	0	27	104	0	60	55085
2026-01-14 13:23:07.56	19.42	0.73	-48.4	-63.6	3.6	1.51e+00	0	27	104	0	60	54411
2026-01-14 13:23:08.57	19.47	0.78	-48.1	-63.4	3.6	1.51e+00	0	27	104	0	60	53238
2026-01-14 13:23:09.58	19.51	0.84	-48.0	-63.2	3.6	1.51e+00	0	27	104	0	60	52215
2026-01-14 13:23:10.59	19.56	0.90	-47.8	-62.9	3.6	1.51e+00	0	27	104	0	60	50623
2026-01-14 13:23:11.60	19.61	0.96	-47.4	-62.6	3.6	1.51e+00	0	27	104	0	60	48592
2026-01-14 13:23:12.61	19.66	1.01	-47.1	-62.3	3.6	1.51e+00	0	27	104	0	60	46909
2026-01-14 13:23:13.62	19.71	1.07	-47.1	-62.3	3.6	1.51e+00	0	27	104	0	60	47129
2026-01-14 13:23:14.63	19.76	1.13	-47.1	-62.2	3.5	1.51e+00	0	27	104	0	60	46800
2026-01-14 13:23:15.64	19.81	1.19	-47.1	-62.3	3.6	1.51e+00	0	27	104	0	60	46862
2026-01-14 13:23:16.65	19.86	1.25	-47.1	-62.2	3.6	1.51e+00	0	27	104	0	60	46693
2026-01-14 13:23:17.66	19.91	1.30	-47.1	-62.3	3.6	1.51e+00	0	27	104	0	60	46904
2026-01-14 13:23:18.67	19.96	1.36	-47.1	-62.3	3.6	1.51e+00	0	27	104	0	60	47028
2026-01-14 13:23:19.68	20.02	1.42	-47.1	-62.2	3.6	1.51e+00	0	27	104	0	60	46547
2026-01-14 13:23:20.69	20.07	1.48	-47.1	-62.3	3.6	1.51e+00	0	27	104	0	60	46964
2026-01-14 13:23:21.70	20.12	1.54	-47.1	-62.2	3.6	1.51e+00	0	27	104	0	60	46499
2026-01-14 13:23:22.71	20.17	1.60	-47.1	-62.2	3.6	1.51e+00	0	27	104	0	60	46523
2026-01-14 13:23:23.72	20.22	1.65	-47.1	-62.2	3.6	1.51e+00	0	27	104	0	60	46379
2026-01-14 13:23:24.72	20.27	1.71	-47.1	-62.1	3.6	1.51e+00	0	27	104	0	60	46192
2026-01-14 13:23:25.73	20.32	1.77	-47.1	-62.2	3.6	1.51e+00	0	27	104	0	60	46363
2026-01-14 13:23:26.74	20.38	1.83	-47.1	-62.2	3.6	1.51e+00	0	27	104	0	60	46411
2026-01-14 13:23:27.75	20.43	1.89	-47.1	-62.2	3.6	1.51e+00	0	27	104	0	60	46735
2026-01-14 13:23:28.76	20.48	1.95	-47.1	-62.2	3.6	1.51e+00	0	27	104	0	60	46479
2026-01-14 13:23:29.77	20.53	2.01	-47.1	-62.2	3.6	1.51e+00	0	27	104	0	60	46563
2026-01-14 13:23:30.78	20.59	2.07	-47.1	-62.2	3.6	1.51e+00	0	27	104	0	60	46610
2026-01-14 13:23:31.79	20.64	2.13	-47.1	-62.2	3.6	1.51e+00	0	27	104	0	60	46598
2026-01-14 13:23:32.80	20.69	2.19	-47.1	-62.2	3.6	1.51e+00	0	27	104	0	60	46587
2026-01-14 13:23:33.81	20.75	2.25	-47.1	-62.1	3.6	1.51e+00	0	27	104	0	60	46294
2026-01-14 13:23:34.82	20.80	2.31	-47.1	-61.9	3.6	1.51e+00	0	28	104	0	60	45169
2026-01-14 13:23:35.83	20.85	2.37	-47.0	-61.6	3.6	1.51e+00	0	27	104	0	60	43244
2026-01-14 13:23:36.84	20.91	2.43	-47.0	-61.2	3.6	1.51e+00	0	28	104	0	60	41624
2026-01-14 13:23:37.85	20.96	2.49	-47.0	-61.4	3.6	1.51e+00	0	28	104	0	60	42400
2026-01-14 13:23:38.86	21.02	2.55	-47.0	-61.5	3.6	1.51e+00	0	28	104	0	60	43207
2026-01-14 13:23:39.87	21.07	2.61	-47.1	-61.8	3.6	1.51e+00	0	28	104	0	60	44522
2026-01-14 13:23:40.88	21.13	2.67	-47.0	-60.0	3.6	1.51e+00	0	28	104	0	60	35949
2026-01-14 13:23:41.89	21.18	2.73	-46.7	-55.7	5.2	1.15e+00	0	28	0	0	60	21908
2026-01-14 13:23:42.90	21.24	2.79	-46.2	-52.6	7.9	1.12e-01	0	28	0	2097152	60	15331
2026-01-14 13:23:43.91	21.29	2.85	-45.3	-50.0	11.2	6.10e-03	5	28	0	4194304	60	11409
2026-01-14 13:23:44.92	21.35	2.91	-44.3	-47.8	13.5	2.48e-04	0	28	0	5242880	60	8822
2026-01-14 13:23:45.93	21.40	2.98	-43.4	-46.2	15.1	7.00e-07	92	28	0	7340032	60	7368
2026-01-14 13:23:46.94	21.46	3.04	-42.5	-44.7	16.5	0.00e+00	0	28	0	9437184	58	6985
2026-01-14 13:23:47.95	21.52	3.10	-42.0	-44.1	17.0	0.00e+00	35	28	0	11534336	58	6487
2026-01-14 13:23:48.96	21.57	3.16	-41.9	-43.9	17.2	0.00e+00	0	27	0	13631488	58	6349
2026-01-14 13:23:49.97	21.63	3.22	-41.9	-43.9	17.1	0.00e+00	0	28	0	14680064	58	6362
2026-01-14 13:23:50.98	21.69	3.28	-42.3	-44.5	16.5	0.00e+00	0	28	0	16777216	58	6841
2026-01-14 13:23:51.99	21.75	3.34	-43.0	-45.5	15.5	0.00e+00	0	28	0	18874368	58	7667
2026-01-14 13:23:53.00	21.80	3.41	-44.0	-47.2	13.6	1.50e-06	92	28	0	20971520	60	8316
2026-01-14 13:23:54.00	21.86	3.47	-42.0	-44.1	16.9	7.60e-06	0	28	0	23068672	58	6510
2026-01-14 13:23:55.01	21.92	3.53	-46.6	-55.8	4.1	0.00e+00	0	28	0	24117248	60	22414
2026-01-14 13:23:56.03	21.98	3.59	-44.3	-47.9	12.4	1.02e-01	0	28	104	24117248	60	8954
2026-01-14 13:23:57.04	22.03	3.66	-44.2	-47.5	13.7	2.14e-03	0	28	0	25165824	60	8532
2026-01-14 13:23:58.05	22.09	3.72	-46.8	-56.2	4.1	1.50e-06	0	28	0	27262976	60	23346
2026-01-14 13:23:59.06	22.15	3.78	-44.8	-48.8	5.8	1.46e+00	0	28	104	27262976	60	9990
2026-01-14 13:24:00.06	22.21	3.84	-44.2	-47.5	13.9	3.00e-06	63	27	0	27262976	60	8603
2026-01-14 13:24:01.05	22.27	3.91	-43.5	-46.3	15.0	0.00e+00	0	28	0	28311552	60	7448
2026-01-14 13:24:02.06	22.33	3.97	-44.0	-47.1	14.3	0.00e+00	81	28	0	30408704	60	8147
2026-01-14 13:24:03.07	22.39	4.03	-43.3	-45.9	15.3	0.00e+00	0	28	0	32505856	60	7140
2026-01-14 13:24:04.08	22.45	4.10	-42.6	-44.9	16.3	0.00e+00	0	28	0	34603008	58	7112
2026-01-14 13:24:05.09	22.51	4.16	-42.5	-44.7	16.6	0.00e+00	0	27	0	36700160	58	6951
2026-01-14 13:24:06.10	22.57	4.22	-42.1	-44.1	17.2	0.00e+00	0	28	0	37748736	58	6506
2026-01-14 13:24:07.11	22.63	4.29	-41.9	-43.9	17.5	0.00e+00	33	28	0	39845888	58	6345
2026-01-14 13:24:08.11	22.69	4.35	-41.8	-43.7	17.5	0.00e+00	0	28	0	41943040	58	6192
2026-01-14 13:24:09.13	22.75	4.41	-41.6	-43.4	18.0	0.00e+00	64	28	0	44040192	56	6713
2026-01-14 13:24:10.14	22.81	4.48	-41.5	-43.2	18.1	0.00e+00	0	28	0	46137344	56	6597
2026-01-14 13:24:11.14	22.87	4.54	-41.3	-43.0	18.2	0.00e+00	0	28	0	47185920	56	6418
2026-01-14 13:24:12.15	22.94	4.61	-41.4	-43.1	18.3	0.00e+00	0	27	0	49283072	56	6535
2026-01-14 13:24:13.16	23.00	4.67	-41.4	-43.1	18.3	0.00e+00	0	28	0	51380224	56	6531
2026-01-14 13:24:14.17	23.06	4.74	-41.2	-42.9	18.5	0.00e+00	64	28	0	53477376	56	6355
2026-01-14 13:24:15.18	23.12	4.80	-41.1	-42.8	18.6	0.00e+00	0	28	0	55574528	56	6255
2026-01-14 13:24:16.19	23.19	4.87	-41.1	-42.7	18.7	0.00e+00	62	28	0	56623104	56	6226
2026-01-14 13:24:17.20	23.25	4.93	-41.0	-42.7	18.7	0.00e+00	0	28	0	58720256	56	6201
2026-01-14 13:24:18.21	23.31	5.00	-40.9	-42.5	18.8	0.00e+00	18	28	0	60817408	56	6093
2026-01-14 13:24:19.22	23.38	5.06	-41.0	-42.6	18.6	0.00e+00	0	28	0	62914560	56	6122
2026-01-14 13:24:20.23	23.44	5.13	-41.0	-42.6	18.8	0.00e+00	0	28	0	65011712	56	6162
2026-01-14 13:24:21.24	23.51	5.19	-40.9	-42.5	18.8	0.00e+00	65	28	0	66060288	56	6080
2026-01-14 13:24:22.25	23.57	5.26	-41.0	-42.6	18.9	0.00e+00	0	28	0	68157440	56	6110
2026-01-14 13:24:23.25	23.63	5.32	-41.0	-42.6	18.7	0.00e+00	60	28	0	70254592	56	6167
2026-01-14 13:24:24.26	23.70	5.39	-40.7	-42.2	19.1	0.00e+00	0	28	0	72351744	54	6590
2026-01-14 13:24:25.27	23.76	5.45	-40.9	-42.4	19.0	0.00e+00	6	28	0	74448896	54	6745
2026-01-14 13:24:26.28	23.83	5.52	-40.7	-42.2	19.3	0.00e+00	0	28	0	75497472	54	6612
2026-01-14 13:24:27.29	23.90	5.59	-40.7	-42.2	19.1	0.00e+00	0	28	0	77594624	54	6575
2026-01-14 13:24:28.30	23.96	5.65	-41.0	-42.5	18.9	0.00e+00	0	28	0	79691776	54	6844
2026-01-14 13:24:29.31	24.03	5.72	-40.6	-42.1	19.2	0.00e+00	0	28	0	81788928	54	6535
2026-01-14 13:24:30.32	24.10	5.79	-40.7	-42.2	19.2	0.00e+00	29	28	0	83886080	54	6602
2026-01-14 13:24:31.33	24.16	5.85	-40.6	-42.1	19.3	0.00e+00	0	28	0	85983232	54	6514
2026-01-14 13:24:32.34	24.23	5.92	-40.6	-42.1	19.4	0.00e+00	90	28	0	87031808	54	6477
2026-01-14 13:24:33.35	24.30	5.99	-40.5	-42.0	19.4	0.00e+00	0	28	0	89128960	54	6426
2026-01-14 13:24:34.35	24.37	6.06	-40.3	-41.7	19.7	0.00e+00	0	28	0	91226112	54	6222
2026-01-14 13:24:35.36	24.43	6.12	-40.4	-41.9	19.5	0.00e+00	0	28	0	93323264	54	6353
2026-01-14 13:24:36.37	24.50	6.19	-40.5	-42.0	19.5	0.00e+00	0	28	0	95420416	54	6395
2026-01-14 13:24:37.38	24.57	6.26	-40.4	-41.8	19.6	0.00e+00	39	28	0	96468992	54	6294
2026-01-14 13:24:38.39	24.64	6.33	-40.3	-41.6	19.7	0.00e+00	0	28	0	98566144	54	6173
2026-01-14 13:24:39.40	24.71	6.39	-40.2	-41.5	19.9	0.00e+00	92	28	0	100663296	54	6080
2026-01-14 13:24:40.41	24.78	6.46	-40.2	-41.6	19.8	0.00e+00	0	28	0	102760448	54	6121
2026-01-14 13:24:41.42	24.85	6.53	-40.3	-41.7	19.7	0.00e+00	0	28	0	104857600	54	6192
2026-01-14 13:24:42.43	24.92	6.60	-40.4	-41.8	19.7	0.00e+00	0	28	0	105906176	54	6310
2026-01-14 13:24:43.44	24.99	6.67	-40.4	-41.8	19.7	0.00e+00	33	28	0	108003328	54	6264
2026-01-14 13:24:44.45	25.06	6.74	-40.3	-41.7	19.7	0.00e+00	65	28	0	110100480	54	6190
2026-01-14 13:24:45.46	25.13	6.81	-40.4	-41.9	19.7	0.00e+00	0	28	0	112197632	54	6348
2026-01-14 13:24:46.47	25.20	6.88	-40.3	-41.7	19.7	0.00e+00	92	28	0	114294784	54	6242
2026-01-14 13:24:47.48	25.28	6.95	-40.3	-41.7	20.0	0.00e+00	0	28	0	115343360	54	6201
2026-01-14 13:24:48.49	25.35	7.01	-40.2	-41.5	20.0	0.00e+00	0	28	0	117440512	54	6092
2026-01-14 13:24:49.50	25.42	7.08	-40.3	-41.7	19.8	0.00e+00	33	28	0	119537664	54	6211
2026-01-14 13:24:50.51	25.49	7.15	-40.4	-41.8	19.7	0.00e+00	0	28	0	121634816	54	6264
2026-01-14 13:24:51.52	25.57	7.22	-40.2	-41.6	19.8	0.00e+00	0	28	0	123731968	54	6142
2026-01-14 13:24:52.53	25.64	7.29	-40.1	-41.4	20.1	0.00e+00	0	28	0	124780544	54	6000
2026-01-14 13:24:53.53	25.71	7.36	-40.3	-41.7	19.9	0.00e+00	85	28	0	126877696	54	6228
2026-01-14 13:24:54.55	25.79	7.43	-40.1	-41.5	20.0	0.00e+00	0	28	0	128974848	54	6058
2026-01-14 13:24:55.56	25.86	7.51	-40.2	-41.6	19.9	0.00e+00	0	28	0	131072000	54	6139
2026-01-14 13:24:56.57	25.94	7.58	-39.7	-41.0	20.5	0.00e+00	0	28	0	133169152	52	6413
2026-01-14 13:24:57.58	26.01	7.65	-39.7	-41.0	20.5	0.00e+00	0	28	0	134217728	52	6393
2026-01-14 13:24:58.59	26.09	7.72	-39.7	-40.9	20.5	0.00e+00	9	28	0	136314880	52	6387
2026-01-14 13:24:59.60	26.16	7.79	-39.8	-41.0	20.6	0.00e+00	0	28	0	138412032	52	6460
2026-01-14 13:25:00.61	26.24	7.86	-39.6	-40.9	20.6	0.00e+00	70	28	0	140509184	52	6328
2026-01-14 13:25:01.61	26.32	7.93	-39.3	-40.5	21.0	0.00e+00	0	28	0	142606336	52	6076
2026-01-14 13:25:02.63	26.39	8.00	-39.4	-40.6	20.8	0.00e+00	27	28	0	143654912	52	6124
2026-01-14 13:25:03.63	26.47	8.07	-39.4	-40.6	20.8	0.00e+00	0	28	0	145752064	52	6135
2026-01-14 13:25:04.64	26.55	8.15	-39.1	-40.2	21.3	0.00e+00	0	28	0	147849216	52	5882
2026-01-14 13:25:05.65	26.62	8.22	-39.0	-40.2	21.3	0.00e+00	0	28	0	149946368	52	5843
2026-01-14 13:25:06.67	26.70	8.29	-39.1	-40.2	21.2	0.00e+00	0	28	0	152043520	52	5878
2026-01-14 13:25:07.68	26.78	8.36	-39.0	-40.1	21.4	0.00e+00	66	28	0	154140672	52	5815
2026-01-14 13:25:08.69	26.86	8.44	-38.9	-40.1	21.4	0.00e+00	0	28	0	155189248	52	5778
2026-01-14 13:25:09.70	26.94	8.51	-39.0	-40.2	21.2	0.00e+00	66	28	0	157286400	52	5874
2026-01-14 13:25:10.71	27.02	8.58	-38.9	-40.0	21.5	0.00e+00	0	28	0	159383552	52	5748
2026-01-14 13:25:11.72	27.10	8.66	-38.9	-40.0	21.5	0.00e+00	0	28	0	161480704	52	5730
2026-01-14 13:25:12.72	27.18	8.73	-38.9	-40.0	21.4	0.00e+00	0	28	0	163577856	52	5756
2026-01-14 13:25:13.73	27.26	8.80	-38.8	-39.9	21.5	0.00e+00	0	28	0	164626432	52	5668
2026-01-14 13:25:14.74	27.34	8.88	-38.8	-39.9	21.5	0.00e+00	60	28	0	166723584	50	6337
2026-01-14 13:25:15.75	27.43	8.95	-38.7	-39.8	21.7	0.00e+00	0	28	0	168820736	50	6291
2026-01-14 13:25:16.75	27.51	9.02	-38.7	-39.8	21.7	0.00e+00	67	28	0	170917888	50	6255
2026-01-14 13:25:17.76	27.59	9.10	-38.8	-39.9	21.6	0.00e+00	0	28	0	173015040	50	6344
2026-01-14 13:25:18.77	27.67	9.17	-38.7	-39.8	21.6	0.00e+00	0	28	0	174063616	50	6286
2026-01-14 13:25:19.78	27.76	9.25	-38.6	-39.7	21.8	0.00e+00	0	28	0	176160768	50	6180
2026-01-14 13:25:20.79	27.84	9.32	-38.4	-39.5	22.0	0.00e+00	0	28	0	178257920	50	6048
2026-01-14 13:25:21.80	27.92	9.40	-38.4	-39.5	21.9	0.00e+00	62	28	0	180355072	50	6070
2026-01-14 13:25:22.81	28.01	9.47	-38.7	-39.8	21.7	0.00e+00	0	28	0	182452224	50	6306
2026-01-14 13:25:23.82	28.09	9.55	-38.5	-39.6	21.9	0.00e+00	92	28	0	183500800	50	6141
2026-01-14 13:25:24.83	28.18	9.62	-38.3	-39.3	22.1	0.00e+00	0	28	0	185597952	50	5943
2026-01-14 13:25:25.84	28.26	9.70	-38.1	-39.1	22.3	0.00e+00	0	28	0	187695104	50	5784
2026-01-14 13:25:26.85	28.35	9.77	-38.1	-39.1	22.3	0.00e+00	0	28	0	189792256	50	5787
2026-01-14 13:25:27.86	28.44	9.85	-37.9	-38.9	22.4	0.00e+00	0	28	0	191889408	50	5687
2026-01-14 13:25:28.86	28.52	9.92	-38.0	-39.0	22.4	0.00e+00	63	28	0	192937984	50	5756
2026-01-14 13:25:29.87	28.61	10.00	-37.9	-38.9	22.4	0.00e+00	0	28	0	195035136	50	5680
2026-01-14 13:25:30.88	28.70	10.08	-38.2	-39.2	22.2	0.00e+00	90	28	0	197132288	50	5852
2026-01-14 13:25:31.89	28.79	10.15	-38.1	-39.1	22.3	0.00e+00	0	28	0	199229440	50	5813
2026-01-14 13:25:32.91	28.88	10.23	-38.0	-39.1	22.4	0.00e+00	0	28	0	201326592	50	5765
2026-01-14 13:25:33.92	28.97	10.31	-38.0	-39.1	22.5	0.00e+00	0	28	0	202375168	50	5768
2026-01-14 13:25:34.93	29.05	10.39	-38.1	-39.1	22.4	0.00e+00	0	28	0	204472320	50	5782
2026-01-14 13:25:35.94	29.14	10.46	-38.2	-39.3	22.2	0.00e+00	0	28	0	206569472	50	5916
2026-01-14 13:25:36.95	29.24	10.54	-38.1	-39.1	22.3	0.00e+00	0	28	0	208666624	50	5792
2026-01-14 13:25:37.95	29.33	10.62	-38.5	-39.5	22.0	0.00e+00	66	28	0	210763776	50	6078
2026-01-14 13:25:38.96	29.42	10.70	-38.2	-39.2	22.2	0.00e+00	0	28	0	211812352	50	5888
2026-01-14 13:25:39.97	29.51	10.77	-38.3	-39.3	22.2	0.00e+00	52	28	0	213909504	50	5954
2026-01-14 13:25:40.98	29.60	10.85	-38.3	-39.3	22.1	0.00e+00	0	28	0	216006656	50	5963
2026-01-14 13:25:41.99	29.69	10.93	-38.3	-39.4	22.1	0.00e+00	0	28	0	218103808	50	6004
2026-01-14 13:25:42.99	29.79	11.01	-38.3	-39.4	22.2	0.00e+00	0	28	0	220200960	50	5982
2026-01-14 13:25:44.00	29.88	11.09	-38.1	-39.2	22.3	0.00e+00	0	28	0	222298112	50	5841
2026-01-14 13:25:45.02	29.98	11.17	-38.1	-39.2	22.3	0.00e+00	0	28	0	223346688	50	5850
2026-01-14 13:25:46.02	30.07	11.25	-38.0	-39.0	22.4	0.00e+00	0	28	0	225443840	50	5740
2026-01-14 13:25:47.03	30.17	11.33	-38.1	-39.1	22.3	0.00e+00	77	28	0	227540992	50	5819
2026-01-14 13:25:48.04	30.26	11.41	-37.9	-38.9	22.6	0.00e+00	0	28	0	229638144	50	5647
2026-01-14 13:25:49.05	30.36	11.49	-37.9	-38.9	22.5	0.00e+00	0	28	0	230686720	50	5636
2026-01-14 13:25:50.06	30.45	11.57	-37.8	-38.8	22.6	0.00e+00	0	28	0	232783872	48	6255
2026-01-14 13:25:51.07	30.55	11.65	-37.6	-38.5	22.9	0.00e+00	0	28	0	234881024	48	6078
2026-01-14 13:25:52.08	30.65	11.73	-37.5	-38.5	22.8	0.00e+00	66	28	0	236978176	48	6051
2026-01-14 13:25:53.09	30.75	11.81	-37.5	-38.4	22.9	0.00e+00	0	28	0	239075328	48	6024
2026-01-14 13:25:54.10	30.85	11.89	-37.6	-38.5	22.9	0.00e+00	83	28	0	240123904	48	6090
2026-01-14 13:25:55.11	30.95	11.97	-37.4	-38.4	23.0	0.00e+00	0	28	0	242221056	48	5988
2026-01-14 13:25:56.13	31.05	12.05	-37.5	-38.4	22.9	0.00e+00	0	28	0	244318208	48	6002
2026-01-14 13:25:57.14	31.15	12.13	-37.6	-38.6	22.9	0.00e+00	0	28	0	246415360	48	6132
2026-01-14 13:25:58.15	31.25	12.21	-37.4	-38.4	22.8	0.00e+00	0	28	0	248512512	48	5981
2026-01-14 13:25:59.16	31.35	12.30	-37.4	-38.3	22.9	0.00e+00	68	28	0	250609664	48	5929
2026-01-14 13:26:00.17	31.45	12.38	-37.6	-38.6	22.7	0.00e+00	0	28	0	251658240	48	6127
2026-01-14 13:26:01.17	31.55	12.46	-37.7	-38.7	22.6	0.00e+00	67	28	0	253755392	48	6188
2026-01-14 13:26:02.18	31.66	12.54	-37.5	-38.5	22.6	0.00e+00	0	28	0	255852544	48	6064
2026-01-14 13:26:03.19	31.76	12.62	-37.6	-38.5	22.6	0.00e+00	0	28	0	257949696	48	6086
2026-01-14 13:26:04.20	31.86	12.71	-37.4	-38.3	22.9	0.00e+00	0	28	0	260046848	48	5944
2026-01-14 13:26:05.21	31.97	12.79	-37.5	-38.4	22.9	0.00e+00	0	28	0	261095424	48	6032
2026-01-14 13:26:06.22	32.07	12.87	-37.7	-38.7	22.8	0.00e+00	0	28	0	263192576	48	6201
2026-01-14 13:26:07.23	32.18	12.96	-37.6	-38.5	22.9	0.00e+00	0	28	0	265289728	48	6099
2026-01-14 13:26:08.24	32.29	13.04	-37.7	-38.7	22.7	0.00e+00	64	28	0	267386880	48	6191
2026-01-14 13:26:09.25	32.39	13.12	-37.8	-38.8	22.7	0.00e+00	0	28	0	269484032	48	6314
2026-01-14 13:26:10.26	32.50	13.21	-37.7	-38.7	22.6	0.00e+00	65	28	0	270532608	48	6192
2026-01-14 13:26:11.27	32.61	13.29	-38.0	-39.0	22.4	0.00e+00	0	28	0	272629760	48	6418
2026-01-14 13:26:12.28	32.72	13.38	-37.8	-38.8	22.5	0.00e+00	0	28	0	274726912	48	6304
2026-01-14 13:26:13.29	32.83	13.46	-38.0	-39.0	22.3	0.00e+00	0	28	0	276824064	48	6437
2026-01-14 13:26:14.30	32.94	13.55	-38.2	-39.3	22.3	0.00e+00	0	28	0	278921216	48	6634
2026-01-14 13:26:15.31	33.05	13.63	-38.0	-39.0	22.6	0.00e+00	68	28	0	279969792	48	6435
2026-01-14 13:26:16.32	33.16	13.72	-38.0	-39.0	22.6	0.00e+00	0	28	0	282066944	48	6421
2026-01-14 13:26:17.33	33.27	13.80	-38.0	-39.1	22.5	0.00e+00	92	28	0	284164096	48	6478
2026-01-14 13:26:18.34	33.38	13.89	-38.0	-39.0	22.6	0.00e+00	0	28	0	286261248	48	6447
2026-01-14 13:26:19.35	33.50	13.97	-37.6	-38.5	22.9	0.00e+00	0	28	0	288358400	48	6103
2026-01-14 13:26:20.36	33.61	14.06	-37.7	-38.6	22.9	0.00e+00	0	28	0	290455552	48	6173
2026-01-14 13:26:21.37	33.72	14.15	-37.7	-38.6	22.8	0.00e+00	0	28	0	291504128	48	6166
2026-01-14 13:26:22.38	33.84	14.23	-37.4	-38.3	23.0	0.00e+00	92	28	0	293601280	48	5960
2026-01-14 13:26:23.39	33.95	14.32	-37.7	-38.6	22.9	0.00e+00	0	28	0	295698432	48	6157
2026-01-14 13:26:24.40	34.07	14.41	-37.4	-38.4	23.0	0.00e+00	33	28	0	297795584	48	5972
2026-01-14 13:26:25.41	34.19	14.49	-37.6	-38.5	22.9	0.00e+00	0	28	0	299892736	48	6066
2026-01-14 13:26:26.41	34.30	14.58	-37.8	-38.8	22.9	0.00e+00	0	28	0	300941312	48	6263
2026-01-14 13:26:27.42	34.42	14.67	-37.9	-38.9	22.7	0.00e+00	0	28	0	303038464	48	6320
2026-01-14 13:26:28.43	34.54	14.75	-38.0	-39.0	22.5	0.00e+00	0	28	0	305135616	48	6446
2026-01-14 13:26:29.44	34.66	14.84	-38.0	-39.0	22.6	0.00e+00	18	28	0	307232768	48	6427
2026-01-14 13:26:30.45	34.78	14.93	-38.4	-39.5	22.2	0.00e+00	0	28	0	308281344	48	6807
2026-01-14 13:26:31.46	34.90	15.02	-38.2	-39.2	22.4	0.00e+00	92	28	0	310378496	48	6580
2026-01-14 13:26:32.47	35.02	15.11	-38.3	-39.3	22.4	0.00e+00	0	28	0	312475648	48	6676
2026-01-14 13:26:33.48	35.15	15.20	-38.3	-39.3	22.3	0.00e+00	1	28	0	314572800	48	6679
2026-01-14 13:26:34.49	35.27	15.29	-38.2	-39.2	22.4	0.00e+00	0	28	0	316669952	48	6614
2026-01-14 13:26:35.49	35.39	15.37	-38.2	-39.2	22.3	0.00e+00	0	28	0	318767104	48	6592
2026-01-14 13:26:36.51	35.52	15.46	-38.1	-39.2	22.3	0.00e+00	0	28	0	319815680	48	6548
2026-01-14 13:26:37.51	35.64	15.55	-38.1	-39.1	22.4	0.00e+00	0	28	0	321912832	48	6539
2026-01-14 13:26:38.52	35.77	15.64	-38.3	-39.3	22.3	0.00e+00	91	28	0	324009984	48	6654
2026-01-14 13:26:39.53	35.89	15.73	-38.3	-39.3	22.3	0.00e+00	0	28	0	326107136	48	6665
2026-01-14 13:26:40.54	36.02	15.82	-38.1	-39.2	22.5	0.00e+00	11	28	0	328204288	48	6540
2026-01-14 13:26:41.55	36.15	15.91	-38.2	-39.2	22.5	0.00e+00	0	28	0	329252864	48	6584
2026-01-14 13:26:42.56	36.28	16.00	-38.2	-39.2	22.4	0.00e+00	0	28	0	331350016	48	6607
2026-01-14 13:26:43.57	36.41	16.09	-38.1	-39.1	22.5	0.00e+00	41	28	0	333447168	48	6535
2026-01-14 13:26:44.58	36.54	16.19	-38.2	-39.2	22.5	0.00e+00	0	28	0	335544320	48	6585
2026-01-14 13:26:45.59	36.67	16.28	-38.4	-39.4	22.3	0.00e+00	60	28	0	337641472	48	6734
2026-01-14 13:26:46.60	36.80	16.37	-38.4	-39.4	22.3	0.00e+00	0	28	0	338690048	48	6768
2026-01-14 13:26:47.61	36.93	16.46	-38.5	-39.5	22.2	0.00e+00	16	28	0	340787200	48	6820
2026-01-14 13:26:48.62	37.07	16.55	-38.7	-39.8	21.9	0.00e+00	0	28	0	342884352	48	7071
2026-01-14 13:26:49.63	37.20	16.64	-38.6	-39.7	22.1	0.00e+00	0	28	0	344981504	50	6193
2026-01-14 13:26:50.63	37.33	16.74	-38.7	-39.8	22.0	0.00e+00	0	28	0	347078656	50	6258
2026-01-14 13:26:51.64	37.47	16.83	-38.9	-39.9	21.8	0.00e+00	0	28	0	348127232	50	6390
2026-01-14 13:26:52.65	37.61	16.92	-38.8	-39.9	21.8	0.00e+00	67	28	0	350224384	50	6369
2026-01-14 13:26:53.66	37.74	17.01	-39.0	-40.1	21.7	0.00e+00	0	28	0	352321536	50	6523
2026-01-14 13:26:54.67	37.88	17.11	-39.0	-40.1	21.8	0.00e+00	92	28	0	354418688	50	6524
2026-01-14 13:26:55.68	38.02	17.20	-39.0	-40.1	21.8	0.00e+00	0	28	0	356515840	50	6499
2026-01-14 13:26:56.69	38.16	17.29	-38.9	-40.0	21.8	0.00e+00	0	28	0	357564416	50	6393
2026-01-14 13:26:57.70	38.30	17.39	-38.9	-40.0	21.9	0.00e+00	0	28	0	359661568	50	6398
2026-01-14 13:26:58.71	38.44	17.48	-38.8	-39.9	21.9	0.00e+00	0	28	0	361758720	50	6376
2026-01-14 13:26:59.72	38.59	17.57	-38.6	-39.7	22.2	0.00e+00	62	28	0	363855872	50	6212
2026-01-14 13:27:00.73	38.73	17.67	-38.7	-39.8	22.0	0.00e+00	0	28	0	365953024	50	6264
2026-01-14 13:27:01.73	38.87	17.76	-38.4	-39.4	22.3	0.00e+00	61	28	0	367001600	50	6003
2026-01-14 13:27:02.74	39.02	17.86	-38.4	-39.4	22.1	0.00e+00	0	28	0	369098752	50	6016
2026-01-14 13:27:03.75	39.16	17.95	-38.4	-39.4	21.8	0.00e+00	0	28	0	371195904	50	6015
2026-01-14 13:27:04.76	39.31	18.05	-38.2	-39.2	22.2	0.00e+00	0	28	0	373293056	50	5875
2026-01-14 13:27:05.77	39.46	18.14	-38.4	-39.4	22.2	0.00e+00	0	28	0	375390208	50	6008
2026-01-14 13:27:06.78	39.61	18.24	-38.3	-39.4	22.4	0.00e+00	26	28	0	376438784	50	5970
2026-01-14 13:27:07.79	39.75	18.33	-38.1	-39.1	22.5	0.00e+00	0	28	0	378535936	50	5826
2026-01-14 13:27:08.80	39.91	18.43	-38.0	-39.0	22.7	0.00e+00	87	28	0	380633088	50	5712
2026-01-14 13:27:09.81	40.06	18.52	-37.8	-38.7	22.9	0.00e+00	0	28	0	382730240	50	5555
2026-01-14 13:27:10.82	40.21	18.62	-37.7	-38.7	22.9	0.00e+00	0	28	0	384827392	48	6182
2026-01-14 13:27:11.83	40.36	18.72	-37.6	-38.5	23.2	0.00e+00	0	28	0	386924544	48	6079
2026-01-14 13:27:12.83	40.51	18.81	-37.5	-38.4	23.2	0.00e+00	0	28	0	387973120	48	5996
2026-01-14 13:27:13.84	40.67	18.91	-37.4	-38.3	23.2	0.00e+00	0	28	0	390070272	48	5916
2026-01-14 13:27:14.85	40.83	19.01	-37.5	-38.4	23.1	0.00e+00	0	28	0	392167424	48	6012
2026-01-14 13:27:15.86	40.98	19.10	-37.6	-38.5	23.0	0.00e+00	61	28	0	394264576	48	6093
2026-01-14 13:27:16.87	41.14	19.20	-37.5	-38.5	23.1	0.00e+00	0	28	0	396361728	48	6037
2026-01-14 13:27:17.88	41.30	19.30	-37.6	-38.5	23.1	0.00e+00	64	28	0	397410304	48	6073
2026-01-14 13:27:18.89	41.46	19.40	-37.7	-38.7	23.0	0.00e+00	0	28	0	399507456	48	6215
2026-01-14 13:27:19.90	41.62	19.49	-37.5	-38.4	23.0	0.00e+00	0	28	0	401604608	48	6022
2026-01-14 13:27:20.91	41.78	19.59	-37.4	-38.3	23.2	0.00e+00	57	28	0	403701760	48	5943
2026-01-14 13:27:21.92	41.95	19.69	-37.3	-38.2	23.3	0.00e+00	0	28	0	405798912	48	5871
2026-01-14 13:27:22.93	42.11	19.79	-37.3	-38.2	23.2	0.00e+00	59	28	0	406847488	48	5891
2026-01-14 13:27:23.94	42.27	19.89	-37.3	-38.2	23.3	0.00e+00	0	28	0	408944640	48	5848
2026-01-14 13:27:24.95	42.44	19.98	-37.0	-37.9	23.4	0.00e+00	85	28	0	411041792	48	5633
2026-01-14 13:27:25.96	42.61	20.08	-37.2	-38.1	23.0	0.00e+00	0	28	0	413138944	48	5822
2026-01-14 13:27:26.97	42.78	20.18	-37.3	-38.2	23.3	0.00e+00	0	28	0	415236096	48	5856
2026-01-14 13:27:27.98	42.95	20.28	-37.2	-38.1	23.4	0.00e+00	0	28	0	416284672	48	5803
2026-01-14 13:27:28.99	43.12	20.38	-37.5	-38.4	23.2	0.00e+00	0	28	0	418381824	48	6033
2026-01-14 13:27:29.99	43.28	20.48	-37.4	-38.3	23.2	0.00e+00	35	28	0	420478976	48	5958
2026-01-14 13:27:31.00	43.46	20.58	-37.6	-38.5	23.1	0.00e+00	0	28	0	422576128	48	6085
2026-01-14 13:27:32.01	43.63	20.68	-37.4	-38.3	23.2	0.00e+00	92	28	0	424673280	48	5961
2026-01-14 13:27:33.02	43.81	20.78	-37.4	-38.3	23.4	0.00e+00	0	28	0	425721856	48	5958
2026-01-14 13:27:34.03	43.98	20.88	-37.0	-37.9	23.6	0.00e+00	0	28	0	427819008	48	5656
2026-01-14 13:27:35.04	44.16	20.98	-37.1	-38.0	23.5	0.00e+00	0	28	0	429916160	48	5716
2026-01-14 13:27:36.05	44.34	21.08	-37.3	-38.2	23.4	0.00e+00	0	28	0	432013312	48	5845
2026-01-14 13:27:37.06	44.51	21.18	-37.0	-37.9	23.5	0.00e+00	68	28	0	434110464	48	5661
2026-01-14 13:27:38.07	44.69	21.28	-37.3	-38.2	23.4	0.00e+00	0	28	0	435159040	48	5863
2026-01-14 13:27:39.08	44.88	21.38	-37.1	-38.0	23.6	0.00e+00	85	28	0	437256192	48	5712
2026-01-14 13:27:40.09	45.06	21.48	-37.0	-37.8	23.6	0.00e+00	0	28	0	439353344	48	5625
2026-01-14 13:27:41.10	45.24	21.58	-37.0	-37.8	23.6	0.00e+00	0	28	0	441450496	48	5625
2026-01-14 13:27:42.11	45.43	21.68	-36.9	-37.8	23.6	0.00e+00	0	28	0	443547648	48	5616
2026-01-14 13:27:43.12	45.61	21.78	-36.7	-37.6	23.8	0.00e+00	0	28	0	444596224	46	6111
2026-01-14 13:27:44.13	45.80	21.88	-36.6	-37.5	23.9	0.00e+00	0	28	0	446693376	46	6056
2026-01-14 13:27:45.14	45.99	21.98	-36.6	-37.4	23.3	0.00e+00	0	28	0	448790528	46	6015
2026-01-14 13:27:46.15	46.18	22.09	-36.3	-37.1	24.2	0.00e+00	88	28	0	450887680	46	5808
2026-01-14 13:27:47.16	46.37	22.19	-36.2	-37.0	24.2	0.00e+00	0	28	0	452984832	46	5730
2026-01-14 13:27:48.17	46.56	22.29	-36.2	-37.0	24.2	0.00e+00	0	28	0	455081984	46	5733
2026-01-14 13:27:49.17	46.75	22.39	-35.9	-36.7	24.4	0.00e+00	0	28	0	456130560	46	5544
2026-01-14 13:27:50.18	46.95	22.49	-35.5	-36.3	24.8	0.00e+00	0	28	0	458227712	44	5925
2026-01-14 13:27:51.19	47.14	22.59	-35.2	-36.0	24.9	0.00e+00	17	28	0	460324864	44	5717
2026-01-14 13:27:52.20	47.34	22.69	-35.2	-36.0	24.9	0.00e+00	0	28	0	462422016	44	5708
2026-01-14 13:27:53.21	47.54	22.80	-35.3	-36.1	24.8	0.00e+00	71	28	0	464519168	44	5792
2026-01-14 13:27:54.22	47.74	22.90	-35.2	-36.0	25.0	0.00e+00	0	28	0	465567744	44	5698
2026-01-14 13:27:55.23	47.94	23.00	-35.3	-36.1	24.9	0.00e+00	22	28	0	467664896	44	5773
2026-01-14 13:27:56.24	48.14	23.10	-35.4	-36.1	24.8	0.00e+00	0	28	0	469762048	44	5822
2026-01-14 13:27:57.25	48.34	23.20	-35.5	-36.4	24.6	0.00e+00	0	28	0	471859200	44	5966
2026-01-14 13:27:58.26	48.55	23.31	-35.5	-36.3	24.6	0.00e+00	33	28	0	473956352	44	5952
2026-01-14 13:27:59.27	48.75	23.41	-35.8	-36.6	24.5	0.00e+00	0	28	0	475004928	44	6128
2026-01-14 13:28:00.28	48.96	23.51	-36.0	-36.8	24.4	0.00e+00	71	28	0	477102080	44	6280
2026-01-14 13:28:01.29	49.17	23.61	-35.9	-36.7	24.2	0.00e+00	0	28	0	479199232	44	6192
2026-01-14 13:28:02.30	49.38	23.72	-36.4	-37.3	23.9	0.00e+00	90	28	0	481296384	44	6651
2026-01-14 13:28:03.32	49.59	23.82	-36.3	-37.2	24.1	0.00e+00	0	28	0	483393536	44	6564
2026-01-14 13:28:04.32	49.80	23.92	-36.7	-37.5	23.8	0.00e+00	0	28	0	484442112	44	6848
2026-01-14 13:28:05.33	50.02	24.02	-36.4	-37.2	24.1	0.00e+00	0	28	0	486539264	44	6604
2026-01-14 13:28:06.34	50.23	24.12	-36.5	-37.3	24.1	0.00e+00	0	28	0	488636416	44	6662
2026-01-14 13:28:07.35	50.45	24.23	-36.3	-37.1	24.1	0.00e+00	11	28	0	490733568	44	6535
2026-01-14 13:28:08.36	50.67	24.33	-36.4	-37.3	24.0	0.00e+00	0	28	0	492830720	44	6627
2026-01-14 13:28:09.37	50.89	24.43	-36.4	-37.2	24.2	0.00e+00	92	28	0	493879296	44	6600
2026-01-14 13:28:10.38	51.11	24.53	-36.3	-37.2	24.2	0.00e+00	0	28	0	495976448	44	6547
2026-01-14 13:28:11.39	51.33	24.64	-36.5	-37.3	24.1	0.00e+00	0	28	0	498073600	44	6689
2026-01-14 13:28:12.40	51.55	24.74	-36.4	-37.3	24.1	0.00e+00	0	28	0	500170752	44	6649
2026-01-14 13:28:13.41	51.78	24.84	-36.4	-37.3	24.0	0.00e+00	0	28	0	502267904	44	6617
2026-01-14 13:28:14.41	52.00	24.94	-36.5	-37.3	24.0	0.00e+00	69	28	0	503316480	44	6679
2026-01-14 13:28:15.43	52.23	25.04	-36.5	-37.3	23.9	0.00e+00	0	28	0	505413632	44	6691
2026-01-14 13:28:16.43	52.46	25.14	-36.6	-37.4	23.8	0.00e+00	92	28	0	507510784	44	6758
2026-01-14 13:28:17.44	52.69	25.25	-36.6	-37.5	24.1	0.00e+00	0	28	0	509607936	44	6772
2026-01-14 13:28:18.45	52.92	25.35	-36.6	-37.5	23.8	0.00e+00	0	28	0	511705088	44	6789
2026-01-14 13:28:19.46	53.16	25.45	-36.8	-37.7	23.8	0.00e+00	0	28	0	512753664	46	6221
2026-01-14 13:28:20.47	53.39	25.55	-37.0	-37.9	23.7	0.00e+00	0	28	0	514850816	46	6333
2026-01-14 13:28:21.48	53.63	25.65	-36.9	-37.8	23.8	0.00e+00	0	28	0	516947968	46	6266
2026-01-14 13:28:22.49	53.87	25.75	-36.9	-37.8	23.7	0.00e+00	0	28	0	519045120	46	6286
2026-01-14 13:28:23.50	54.11	25.85	-37.0	-37.8	23.7	0.00e+00	92	28	0	521142272	46	6312
2026-01-14 13:28:24.51	54.35	25.96	-36.9	-37.7	23.8	0.00e+00	0	28	0	523239424	46	6237
2026-01-14 13:28:25.51	54.59	26.05	-36.9	-37.8	23.9	0.00e+00	0	28	0	524288000	46	6267
2026-01-14 13:28:26.52	54.83	26.16	-36.9	-37.8	23.7	0.00e+00	0	28	0	526385152	46	6250
2026-01-14 13:28:27.53	55.08	26.26	-37.0	-37.8	23.7	0.00e+00	0	28	0	528482304	46	6299
2026-01-14 13:28:28.54	55.33	26.36	-37.1	-38.0	23.1	0.00e+00	0	28	0	530579456	46	6460
2026-01-14 13:28:29.55	55.57	26.46	-37.4	-38.3	23.2	0.00e+00	0	28	0	531628032	46	6655
2026-01-14 13:28:30.56	55.82	26.56	-37.8	-38.7	22.9	0.00e+00	70	28	0	533725184	46	6980
2026-01-14 13:28:31.57	56.08	26.66	-38.1	-39.1	22.7	0.00e+00	0	28	0	535822336	48	6510
2026-01-14 13:28:32.58	56.33	26.76	-38.5	-39.6	22.3	0.00e+00	30	28	0	537919488	48	6887
2026-01-14 13:28:33.59	56.59	26.86	-38.5	-39.6	22.4	0.00e+00	0	28	0	540016640	48	6855
2026-01-14 13:28:34.60	56.84	26.95	-38.1	-39.1	22.7	0.00e+00	0	28	0	541065216	48	6525
2026-01-14 13:28:35.61	57.10	27.05	-38.0	-39.0	22.8	0.00e+00	0	28	0	543162368	48	6434
2026-01-14 13:28:36.62	57.36	27.15	-38.0	-39.0	22.8	0.00e+00	0	28	0	545259520	48	6392
2026-01-14 13:28:37.63	57.62	27.25	-38.0	-38.9	22.8	0.00e+00	69	28	0	547356672	48	6378
2026-01-14 13:28:38.63	57.88	27.35	-37.8	-38.8	23.0	0.00e+00	0	28	0	549453824	48	6267
2026-01-14 13:28:39.64	58.15	27.44	-37.8	-38.8	23.0	0.00e+00	86	28	0	551550976	48	6260
2026-01-14 13:28:40.65	58.41	27.54	-37.8	-38.7	22.7	0.00e+00	0	28	0	552599552	48	6221
2026-01-14 13:28:41.66	58.68	27.64	-37.7	-38.7	23.0	0.00e+00	0	28	0	554696704	48	6185
2026-01-14 13:28:42.67	58.95	27.74	-37.8	-38.7	23.0	0.00e+00	0	28	0	556793856	48	6218
2026-01-14 13:28:43.68	59.22	27.83	-37.9	-38.9	22.8	0.00e+00	0	28	0	558891008	48	6367
2026-01-14 13:28:44.69	59.49	27.93	-38.6	-39.7	22.4	0.00e+00	71	28	0	560988160	48	6935
2026-01-14 13:28:45.70	59.77	28.02	-38.5	-39.6	22.2	0.00e+00	0	28	0	562036736	50	6127
2026-01-14 13:28:46.70	60.04	28.12	-38.9	-40.0	22.0	0.00e+00	90	28	0	564133888	50	6431
2026-01-14 13:28:47.71	60.32	28.21	-38.6	-39.7	22.2	0.00e+00	0	28	0	566231040	50	6187
2026-01-14 13:28:48.72	60.60	28.31	-38.4	-39.4	22.4	0.00e+00	0	28	0	568328192	50	6031
2026-01-14 13:28:49.73	60.88	28.40	-38.8	-39.8	22.2	0.00e+00	0	28	0	570425344	50	6279
2026-01-14 13:28:50.74	61.16	28.50	-38.7	-39.7	22.3	0.00e+00	0	28	0	571473920	50	6219
2026-01-14 13:28:51.75	61.44	28.59	-38.6	-39.7	22.2	0.00e+00	0	28	0	573571072	50	6179
2026-01-14 13:28:52.76	61.73	28.68	-39.1	-40.2	21.8	0.00e+00	0	28	0	575668224	50	6606
2026-01-14 13:28:53.77	62.01	28.78	-39.1	-40.2	21.8	0.00e+00	70	28	0	577765376	50	6606
2026-01-14 13:28:54.78	62.30	28.87	-39.1	-40.1	21.9	0.00e+00	0	28	0	579862528	50	6528
2026-01-14 13:28:55.79	62.59	28.96	-38.8	-39.8	22.2	0.00e+00	14	28	0	580911104	50	6289
2026-01-14 13:28:56.80	62.89	29.05	-38.7	-39.7	22.4	0.00e+00	0	28	0	583008256	50	6207
2026-01-14 13:28:57.81	63.18	29.14	-38.5	-39.5	22.3	0.00e+00	0	28	0	585105408	50	6099
2026-01-14 13:28:58.82	63.47	29.23	-38.4	-39.4	22.5	0.00e+00	68	28	0	587202560	50	6006
2026-01-14 13:28:59.82	63.77	29.32	-38.5	-39.4	22.5	0.00e+00	0	28	0	589299712	50	6029
2026-01-14 13:29:00.84	64.07	29.41	-38.7	-39.7	22.2	0.00e+00	78	28	0	590348288	50	6217
2026-01-14 13:29:01.84	64.37	29.50	-38.5	-39.5	22.2	0.00e+00	0	28	0	592445440	50	6040
2026-01-14 13:29:02.85	64.67	29.59	-39.1	-40.1	21.8	0.00e+00	67	28	0	594542592	50	6521
2026-01-14 13:29:03.86	64.97	29.67	-39.4	-40.5	21.4	0.00e+00	0	28	0	596639744	50	6827
2026-01-14 13:29:04.87	65.28	29.76	-40.0	-41.2	20.9	0.00e+00	0	28	0	598736896	52	6560
2026-01-14 13:29:05.88	65.58	29.85	-40.4	-41.6	20.7	0.00e+00	0	28	0	599785472	52	6909
2026-01-14 13:29:06.89	65.89	29.93	-39.6	-40.7	21.4	0.00e+00	0	28	0	601882624	52	6239
2026-01-14 13:29:07.90	66.20	30.02	-39.3	-40.4	21.7	0.00e+00	67	28	0	603979776	52	6020
2026-01-14 13:29:08.91	66.51	30.10	-39.0	-40.0	22.0	0.00e+00	0	28	0	606076928	50	6450
2026-01-14 13:29:09.92	66.83	30.19	-38.8	-39.9	22.3	0.00e+00	90	28	0	608174080	50	6320
2026-01-14 13:29:10.93	67.14	30.27	-39.1	-40.2	21.9	0.00e+00	33	28	0	609222656	50	6608
2026-01-14 13:29:11.94	67.46	30.35	-39.5	-40.6	21.4	0.00e+00	0	28	0	611319808	50	6881
2026-01-14 13:29:12.95	67.77	30.43	-39.5	-40.7	21.6	0.00e+00	0	28	0	613416960	50	6946
2026-01-14 13:29:13.96	68.09	30.51	-39.4	-40.5	21.4	0.00e+00	0	28	0	615514112	50	6845
2026-01-14 13:29:14.97	68.41	30.59	-39.5	-40.7	21.4	0.00e+00	67	28	0	617611264	50	6934
2026-01-14 13:29:15.98	68.74	30.67	-40.1	-41.3	20.9	0.00e+00	0	28	0	619708416	52	6687
2026-01-14 13:29:16.99	69.06	30.75	-40.0	-41.2	21.0	0.00e+00	92	28	0	620756992	52	6593
2026-01-14 13:29:18.00	69.39	30.83	-39.5	-40.7	21.5	0.00e+00	0	28	0	622854144	52	6194
2026-01-14 13:29:19.01	69.71	30.91	-39.4	-40.5	21.6	0.00e+00	0	28	0	624951296	52	6103
2026-01-14 13:29:20.02	70.04	30.98	-38.8	-39.9	22.3	0.00e+00	0	28	0	627048448	52	5648
2026-01-14 13:29:21.03	70.37	31.06	-38.8	-39.8	22.0	0.00e+00	0	28	0	629145600	50	6311
2026-01-14 13:29:22.03	70.70	31.13	-39.4	-40.6	21.5	0.00e+00	0	28	0	630194176	50	6869
2026-01-14 13:29:23.04	71.04	31.21	-40.0	-41.2	21.0	0.00e+00	0	28	0	632291328	52	6565
2026-01-14 13:29:24.05	71.37	31.28	-40.4	-41.7	20.5	0.00e+00	92	28	0	634388480	52	6997
2026-01-14 13:29:25.06	71.71	31.35	-40.8	-42.1	20.4	0.00e+00	0	28	0	636485632	54	6504
2026-01-14 13:29:26.07	72.04	31.42	-40.5	-41.8	20.5	0.00e+00	0	28	0	638582784	54	6295
2026-01-14 13:29:27.08	72.38	31.49	-40.4	-41.6	20.6	0.00e+00	0	28	0	639631360	54	6166
2026-01-14 13:29:28.09	72.72	31.56	-40.0	-41.2	20.9	0.00e+00	0	28	0	641728512	54	5868
2026-01-14 13:29:29.10	73.07	31.63	-39.7	-40.8	21.3	0.00e+00	57	28	0	643825664	52	6308
2026-01-14 13:29:30.11	73.41	31.70	-39.3	-40.3	21.5	0.00e+00	0	28	0	645922816	52	5953
2026-01-14 13:29:31.12	73.75	31.76	-38.5	-39.5	22.5	0.00e+00	90	28	0	648019968	50	6034
2026-01-14 13:29:32.13	74.10	31.83	-38.5	-39.5	22.4	0.00e+00	0	28	0	649068544	50	6067
2026-01-14 13:29:33.14	74.45	31.89	-38.8	-39.9	22.2	0.00e+00	0	28	0	651165696	50	6321
2026-01-14 13:29:34.15	74.80	31.96	-39.3	-40.4	21.7	0.00e+00	0	28	0	653262848	50	6745
2026-01-14 13:29:35.16	75.15	32.02	-39.8	-41.0	21.2	0.00e+00	0	28	0	655360000	52	6418
2026-01-14 13:29:36.17	75.50	32.08	-39.7	-40.8	21.3	0.00e+00	49	28	0	657457152	52	6297
2026-01-14 13:29:37.18	75.85	32.14	-39.5	-40.6	21.6	0.00e+00	0	28	0	658505728	52	6113
2026-01-14 13:29:38.18	76.20	32.20	-39.4	-40.5	21.5	0.00e+00	68	28	0	660602880	52	6042
2026-01-14 13:29:39.20	76.56	32.26	-39.3	-40.3	21.6	0.00e+00	0	28	0	662700032	52	5944
2026-01-14 13:29:40.21	76.92	32.32	-39.4	-40.5	21.7	0.00e+00	0	28	0	664797184	52	6065
2026-01-14 13:29:41.22	77.28	32.37	-39.4	-40.5	21.7	0.00e+00	0	28	0	666894336	52	6096
2026-01-14 13:29:42.23	77.64	32.43	-39.2	-40.3	21.9	0.00e+00	0	28	0	667942912	52	5911
2026-01-14 13:29:43.24	78.00	32.48	-38.8	-39.8	22.3	0.00e+00	0	28	0	670040064	52	5616
2026-01-14 13:29:44.24	78.35	32.53	-38.9	-39.9	22.0	0.00e+00	0	28	0	672137216	50	6387
2026-01-14 13:29:45.25	78.72	32.58	-40.0	-41.2	21.0	0.00e+00	10	28	0	674234368	52	6581
2026-01-14 13:29:46.26	79.08	32.63	-41.0	-42.4	19.9	0.00e+00	0	28	0	676331520	54	6722
2026-01-14 13:29:47.27	79.45	32.68	-41.8	-43.4	18.8	0.00e+00	92	28	0	677380096	56	6739
2026-01-14 13:29:48.28	79.81	32.73	-41.9	-43.5	18.9	0.00e+00	0	28	0	679477248	56	6822
2026-01-14 13:29:49.29	80.18	32.78	-41.6	-43.2	19.3	0.00e+00	0	28	0	681574400	56	6550
2026-01-14 13:29:50.30	80.55	32.82	-41.4	-42.8	19.7	0.00e+00	0	28	0	683671552	56	6302
2026-01-14 13:29:51.31	80.92	32.87	-40.6	-41.9	20.4	0.00e+00	0	28	0	685768704	54	6327
2026-01-14 13:29:52.31	81.28	32.91	-40.1	-41.3	20.9	0.00e+00	10	28	0	687865856	54	5940
2026-01-14 13:29:53.32	81.65	32.95	-39.7	-40.9	21.3	0.00e+00	0	28	0	688914432	54	5649
2026-01-14 13:29:54.33	82.03	32.99	-39.6	-40.8	21.4	0.00e+00	83	28	0	691011584	52	6252
2026-01-14 13:29:55.34	82.40	33.03	-39.4	-40.6	21.5	0.00e+00	0	28	0	693108736	52	6112
2026-01-14 13:29:56.35	82.77	33.07	-39.5	-40.6	21.5	0.00e+00	0	28	0	695205888	52	6166
2026-01-14 13:29:57.36	83.15	33.11	-40.0	-41.2	21.1	0.00e+00	0	28	0	697303040	52	6569
2026-01-14 13:29:58.37	83.52	33.14	-40.3	-41.5	20.7	0.00e+00	0	28	0	698351616	52	6825
2026-01-14 13:29:59.38	83.90	33.18	-40.2	-41.4	20.9	0.00e+00	40	28	0	700448768	52	6736
2026-01-14 13:30:00.39	84.28	33.21	-39.9	-41.1	21.1	0.00e+00	0	28	0	702545920	52	6527
2026-01-14 13:30:01.40	84.65	33.24	-39.7	-40.9	21.3	0.00e+00	92	28	0	704643072	52	6323
2026-01-14 13:30:02.41	85.03	33.27	-39.5	-40.6	21.5	0.00e+00	0	28	0	706740224	52	6131
2026-01-14 13:30:03.42	85.41	33.30	-39.4	-40.5	21.5	0.00e+00	7	28	0	707788800	52	6067
2026-01-14 13:30:04.43	85.79	33.33	-39.0	-40.0	21.8	0.00e+00	0	28	0	709885952	52	5740
2026-01-14 13:30:05.44	86.17	33.36	-39.0	-40.1	21.9	0.00e+00	0	28	0	711983104	52	5787
2026-01-14 13:30:06.45	86.55	33.38	-39.2	-40.3	21.7	0.00e+00	0	28	0	714080256	52	5950
2026-01-14 13:30:07.46	86.94	33.40	-39.6	-40.7	21.4	0.00e+00	0	28	0	716177408	52	6230
2026-01-14 13:30:08.47	87.32	33.43	-39.9	-41.1	21.1	0.00e+00	92	28	0	717225984	52	6502
2026-01-14 13:30:09.48	87.70	33.45	-40.4	-41.7	20.4	0.00e+00	0	28	0	719323136	52	7006
2026-01-14 13:30:10.49	88.08	33.47	-40.9	-42.3	20.2	0.00e+00	92	28	0	721420288	54	6642
2026-01-14 13:30:11.50	88.47	33.48	-40.9	-42.3	20.0	0.00e+00	0	28	0	723517440	54	6619
2026-01-14 13:30:12.50	88.85	33.50	-40.8	-42.1	20.2	0.00e+00	0	28	0	725614592	54	6511
2026-01-14 13:30:13.51	89.23	33.52	-40.9	-42.2	20.1	0.00e+00	57	28	0	726663168	54	6615
2026-01-14 13:30:14.52	89.62	33.53	-40.9	-42.2	20.1	0.00e+00	0	28	0	728760320	54	6596
2026-01-14 13:30:15.53	90.00	33.54	-40.3	-41.6	20.7	0.00e+00	62	28	0	730857472	54	6154
2026-01-14 13:30:16.54	90.39	33.55	-40.1	-41.3	20.9	0.00e+00	0	28	0	732954624	54	5942
2026-01-14 13:30:17.55	90.77	33.56	-39.8	-41.0	21.1	0.00e+00	92	28	0	735051776	54	5724
2026-01-14 13:30:18.56	91.16	33.57	-39.9	-41.1	21.1	0.00e+00	33	28	0	736100352	54	5784
2026-01-14 13:30:19.57	91.54	33.58	-39.9	-41.0	20.8	0.00e+00	0	28	0	738197504	54	5756
2026-01-14 13:30:20.58	91.93	33.58	-39.4	-40.5	21.4	0.00e+00	0	28	0	740294656	52	6091
2026-01-14 13:30:21.59	92.32	33.59	-39.5	-40.7	21.5	0.00e+00	0	28	0	742391808	52	6186
2026-01-14 13:30:22.60	92.70	33.59	-40.0	-41.1	20.9	0.00e+00	70	28	0	744488960	52	6538
2026-01-14 13:30:23.61	93.09	33.59	-40.7	-42.0	20.3	0.00e+00	0	28	0	745537536	52	7203
2026-01-14 13:30:24.62	93.48	33.59	-41.0	-42.4	19.9	0.00e+00	92	28	0	747634688	54	6763
2026-01-14 13:30:25.63	93.86	33.59	-41.3	-42.7	19.8	0.00e+00	0	28	0	749731840	54	6976
2026-01-14 13:30:26.63	94.25	33.58	-41.0	-42.3	20.0	0.00e+00	0	28	0	751828992	54	6692
2026-01-14 13:30:27.64	94.63	33.58	-40.9	-42.4	20.0	0.00e+00	0	28	0	753926144	54	6705
2026-01-14 13:30:28.65	95.02	33.57	-40.5	-41.9	20.5	0.00e+00	0	28	0	756023296	54	6321
2026-01-14 13:30:29.66	95.40	33.57	-40.1	-41.3	20.8	0.00e+00	19	28	0	757071872	54	5952
2026-01-14 13:30:30.67	95.79	33.56	-39.1	-40.2	21.9	0.00e+00	0	28	0	759169024	52	5830
2026-01-14 13:30:31.68	96.18	33.55	-38.3	-39.3	22.7	0.00e+00	77	28	0	761266176	50	5944
2026-01-14 13:30:32.69	96.56	33.54	-38.3	-39.3	22.8	0.00e+00	0	28	0	763363328	50	5908
2026-01-14 13:30:33.70	96.95	33.52	-38.1	-39.1	22.9	0.00e+00	0	28	0	764411904	50	5768
2026-01-14 13:30:34.71	97.33	33.51	-39.2	-40.2	21.7	0.00e+00	0	28	0	766509056	50	6605
2026-01-14 13:30:35.71	97.71	33.49	-39.7	-40.9	21.2	0.00e+00	0	28	0	768606208	50	7119
2026-01-14 13:30:36.72	98.10	33.47	-40.2	-41.5	20.7	0.00e+00	64	28	0	770703360	52	6796
2026-01-14 13:30:37.73	98.48	33.46	-40.4	-41.6	20.7	0.00e+00	0	28	0	772800512	52	6897
2026-01-14 13:30:38.74	98.86	33.44	-41.0	-42.4	19.9	0.00e+00	92	28	0	773849088	54	6713
2026-01-14 13:30:39.75	99.25	33.41	-41.7	-43.3	19.0	0.00e+00	0	28	0	775946240	54	7463
2026-01-14 13:30:40.77	99.63	33.39	-42.3	-44.1	18.4	0.00e+00	0	28	0	778043392	56	7266
2026-01-14 13:30:41.78	100.01	33.37	-41.5	-43.0	19.4	0.00e+00	0	28	0	780140544	56	6397
2026-01-14 13:30:42.79	100.39	33.34	-40.8	-42.2	20.3	0.00e+00	0	28	0	782237696	56	5838
2026-01-14 13:30:43.79	100.77	33.31	-39.5	-40.6	21.5	0.00e+00	0	28	0	784334848	52	6144
2026-01-14 13:30:44.80	101.15	33.29	-39.4	-40.5	21.6	0.00e+00	0	28	0	785383424	52	6086
2026-01-14 13:30:45.81	101.53	33.26	-39.7	-40.8	21.5	0.00e+00	92	28	0	787480576	52	6277
2026-01-14 13:30:46.82	101.91	33.23	-39.5	-40.7	21.4	0.00e+00	0	28	0	789577728	52	6175
2026-01-14 13:30:47.83	102.29	33.19	-39.7	-40.8	21.6	0.00e+00	37	28	0	791674880	52	6292
2026-01-14 13:30:48.84	102.66	33.16	-38.7	-39.7	22.3	0.00e+00	0	28	0	793772032	50	6195
2026-01-14 13:30:49.84	103.04	33.13	-38.9	-39.9	22.0	0.00e+00	0	28	0	794820608	50	6351
2026-01-14 13:30:50.85	103.41	33.09	-38.9	-39.9	22.0	0.00e+00	0	28	0	796917760	50	6384
2026-01-14 13:30:51.86	103.79	33.05	-39.2	-40.3	21.7	0.00e+00	0	28	0	799014912	50	6668
2026-01-14 13:30:52.87	104.16	33.01	-39.4	-40.5	21.6	0.00e+00	65	28	0	801112064	50	6812
2026-01-14 13:30:53.88	104.53	32.97	-39.1	-40.1	21.8	0.00e+00	0	28	0	803209216	50	6532
2026-01-14 13:30:54.89	104.91	32.93	-38.7	-39.8	22.2	0.00e+00	84	28	0	804257792	50	6247
2026-01-14 13:30:55.90	105.28	32.89	-38.8	-39.9	22.2	0.00e+00	0	28	0	806354944	50	6333
2026-01-14 13:30:56.91	105.65	32.85	-39.2	-40.3	21.8	0.00e+00	0	28	0	808452096	50	6635
2026-01-14 13:30:57.92	106.02	32.80	-39.9	-41.0	21.2	0.00e+00	0	28	0	810549248	52	6462
2026-01-14 13:30:58.93	106.38	32.75	-40.2	-41.5	20.8	0.00e+00	0	28	0	812646400	52	6815
2026-01-14 13:30:59.94	106.75	32.71	-39.6	-40.7	21.5	0.00e+00	25	28	0	813694976	52	6236
2026-01-14 13:31:00.95	107.12	32.66	-38.7	-39.7	22.3	0.00e+00	0	28	0	815792128	52	5528
2026-01-14 13:31:01.95	107.48	32.61	-38.2	-39.2	22.6	0.00e+00	92	28	0	817889280	50	5861
2026-01-14 13:31:02.96	107.84	32.56	-38.4	-39.4	22.5	0.00e+00	0	28	0	819986432	50	6004
2026-01-14 13:31:03.97	108.21	32.50	-38.9	-39.9	22.1	0.00e+00	0	28	0	822083584	50	6365
2026-01-14 13:31:04.98	108.57	32.45	-38.8	-39.8	22.2	0.00e+00	0	28	0	823132160	50	6265
2026-01-14 13:31:05.99	108.93	32.40	-38.4	-39.4	22.7	0.00e+00	0	28	0	825229312	50	6007
2026-01-14 13:31:06.99	109.28	32.34	-38.1	-39.1	22.8	0.00e+00	60	28	0	827326464	50	5770
2026-01-14 13:31:08.00	109.64	32.29	-38.3	-39.3	22.5	0.00e+00	0	28	0	829423616	50	5927
2026-01-14 13:31:09.01	110.00	32.23	-38.6	-39.6	22.4	0.00e+00	88	28	0	831520768	50	6131
2026-01-14 13:31:10.02	110.35	32.17	-39.1	-40.2	21.9	0.00e+00	0	28	0	832569344	50	6602
2026-01-14 13:31:11.03	110.71	32.11	-39.4	-40.6	21.6	0.00e+00	0	28	0	834666496	50	6864
2026-01-14 13:31:12.04	111.06	32.05	-39.3	-40.4	21.7	0.00e+00	0	28	0	836763648	50	6767
2026-01-14 13:31:13.05	111.41	31.99	-38.7	-39.8	22.2	0.00e+00	0	28	0	838860800	50	6264
2026-01-14 13:31:14.06	111.76	31.92	-38.5	-39.5	22.6	0.00e+00	57	28	0	840957952	50	6060
2026-01-14 13:31:15.07	112.11	31.86	-38.3	-39.3	22.5	0.00e+00	0	28	0	842006528	50	5932
2026-01-14 13:31:16.08	112.46	31.79	-37.8	-38.7	23.0	0.00e+00	65	28	0	844103680	50	5559
2026-01-14 13:31:17.09	112.81	31.73	-37.4	-38.3	23.4	0.00e+00	0	28	0	846200832	48	5946
2026-01-14 13:31:18.10	113.15	31.66	-36.7	-37.5	24.0	0.00e+00	88	28	0	848297984	48	5419
2026-01-14 13:31:19.11	113.49	31.59	-36.2	-37.0	24.4	0.00e+00	0	28	0	850395136	46	5734
2026-01-14 13:31:20.12	113.84	31.52	-36.2	-37.0	24.4	0.00e+00	0	28	0	852492288	46	5723
2026-01-14 13:31:21.13	114.18	31.45	-36.9	-37.7	23.9	0.00e+00	57	28	0	853540864	46	6233
2026-01-14 13:31:22.14	114.52	31.38	-37.6	-38.5	23.2	0.00e+00	0	28	0	855638016	46	6833
2026-01-14 13:31:23.14	114.85	31.31	-37.8	-38.8	23.0	0.00e+00	66	28	0	857735168	48	6297
2026-01-14 13:31:24.15	115.19	31.24	-37.5	-38.4	23.3	0.00e+00	0	28	0	859832320	48	6019
2026-01-14 13:31:25.16	115.52	31.16	-37.0	-37.9	23.8	0.00e+00	92	28	0	861929472	48	5674
2026-01-14 13:31:26.17	115.85	31.09	-36.5	-37.3	24.2	0.00e+00	0	28	0	862978048	46	5942
2026-01-14 13:31:27.18	116.19	31.01	-36.9	-37.8	23.9	0.00e+00	0	28	0	865075200	46	6275
2026-01-14 13:31:28.19	116.52	30.94	-37.4	-38.3	23.3	0.00e+00	0	28	0	867172352	46	6661
2026-01-14 13:31:29.20	116.85	30.86	-37.6	-38.6	23.2	0.00e+00	0	28	0	869269504	46	6882
2026-01-14 13:31:30.21	117.17	30.78	-37.5	-38.4	23.2	0.00e+00	67	28	0	871366656	48	6012
2026-01-14 13:31:31.22	117.50	30.70	-37.3	-38.2	23.4	0.00e+00	0	28	0	872415232	48	5879
2026-01-14 13:31:32.22	117.82	30.63	-37.1	-38.0	23.7	0.00e+00	91	28	0	874512384	48	5748
2026-01-14 13:31:33.23	118.14	30.55	-36.8	-37.6	23.8	0.00e+00	0	28	0	876609536	46	6144
2026-01-14 13:31:34.24	118.46	30.47	-37.2	-38.1	23.0	0.00e+00	0	28	0	878706688	46	6521
2026-01-14 13:31:35.25	118.78	30.38	-37.9	-38.9	22.9	0.00e+00	0	28	0	880803840	48	6342
2026-01-14 13:31:36.26	119.10	30.30	-38.4	-39.4	22.4	0.00e+00	0	28	0	881852416	48	6727
2026-01-14 13:31:37.27	119.42	30.22	-38.2	-39.2	22.7	0.00e+00	0	28	0	883949568	48	6563
2026-01-14 13:31:38.28	119.73	30.13	-38.1	-39.1	22.7	0.00e+00	0	28	0	886046720	48	6503
2026-01-14 13:31:39.29	120.04	30.05	-38.0	-39.0	22.9	0.00e+00	92	28	0	888143872	48	6415
2026-01-14 13:31:40.30	120.36	29.97	-38.6	-39.6	22.3	0.00e+00	0	28	0	890241024	48	6871
2026-01-14 13:31:41.31	120.66	29.88	-39.0	-40.1	22.0	0.00e+00	0	28	0	891289600	50	6496
2026-01-14 13:31:42.32	120.97	29.79	-38.9	-40.0	22.1	0.00e+00	0	28	0	893386752	50	6452
2026-01-14 13:31:43.33	121.28	29.71	-38.3	-39.3	22.5	0.00e+00	0	28	0	895483904	50	5954
2026-01-14 13:31:44.34	121.58	29.62	-37.5	-38.5	23.3	0.00e+00	0	28	0	897581056	48	6046
2026-01-14 13:31:45.35	121.89	29.53	-37.3	-38.2	23.4	0.00e+00	0	28	0	899678208	48	5857
2026-01-14 13:31:46.36	122.19	29.44	-37.5	-38.4	23.4	0.00e+00	92	28	0	900726784	48	6006
2026-01-14 13:31:47.37	122.49	29.35	-37.8	-38.8	22.9	0.00e+00	0	28	0	902823936	48	6282
2026-01-14 13:31:48.37	122.79	29.26	-38.4	-39.5	22.4	0.00e+00	1	28	0	904921088	48	6774
2026-01-14 13:31:49.38	123.08	29.17	-38.7	-39.7	22.3	0.00e+00	0	28	0	907018240	48	6975
2026-01-14 13:31:50.39	123.38	29.08	-38.1	-39.1	22.8	0.00e+00	0	28	0	909115392	48	6523
2026-01-14 13:31:51.40	123.67	28.99	-37.7	-38.6	23.2	0.00e+00	17	28	0	910163968	48	6148
2026-01-14 13:31:52.41	123.96	28.90	-37.6	-38.5	23.3	0.00e+00	0	28	0	912261120	48	6046
2026-01-14 13:31:53.42	124.25	28.81	-37.6	-38.5	23.1	0.00e+00	92	28	0	914358272	48	6072
2026-01-14 13:31:54.43	124.54	28.71	-38.3	-39.3	22.5	0.00e+00	0	28	0	916455424	48	6683
2026-01-14 13:31:55.44	124.83	28.62	-38.6	-39.6	22.2	0.00e+00	92	28	0	918552576	50	6141
2026-01-14 13:31:56.45	125.11	28.53	-38.6	-39.7	22.4	0.00e+00	0	28	0	919601152	50	6187
2026-01-14 13:31:57.46	125.40	28.43	-37.7	-38.6	23.1	0.00e+00	0	28	0	921698304	48	6144
2026-01-14 13:31:58.47	125.68	28.34	-37.2	-38.1	23.5	0.00e+00	0	28	0	923795456	48	5766
2026-01-14 13:31:59.48	125.96	28.24	-37.4	-38.3	23.4	0.00e+00	0	28	0	925892608	48	5915
2026-01-14 13:32:00.49	126.24	28.15	-38.2	-39.1	22.6	0.00e+00	92	28	0	927989760	48	6538
2026-01-14 13:32:01.49	126.51	28.05	-39.5	-40.6	21.5	0.00e+00	33	28	0	929038336	50	6876
2026-01-14 13:32:02.50	126.79	27.96	-40.2	-41.5	20.7	0.00e+00	92	28	0	931135488	52	6775
2026-01-14 13:32:03.51	127.06	27.86	-39.3	-40.4	21.8	0.00e+00	0	28	0	933232640	52	6022
2026-01-14 13:32:04.52	127.34	27.76	-38.6	-39.7	22.3	0.00e+00	0	28	0	935329792	50	6180
2026-01-14 13:32:05.53	127.61	27.67	-38.0	-39.0	22.8	0.00e+00	0	28	0	937426944	50	5708
2026-01-14 13:32:06.54	127.88	27.57	-38.1	-39.1	22.9	0.00e+00	0	28	0	938475520	50	5765
2026-01-14 13:32:07.55	128.14	27.47	-38.7	-39.7	22.0	0.00e+00	38	28	0	940572672	50	6234
2026-01-14 13:32:08.56	128.41	27.37	-39.8	-41.1	21.3	0.00e+00	0	28	0	942669824	50	7256
2026-01-14 13:32:09.57	128.67	27.27	-40.9	-42.4	20.2	0.00e+00	92	28	0	944766976	52	7521
2026-01-14 13:32:10.58	128.94	27.18	-40.7	-42.1	19.9	0.00e+00	0	28	0	946864128	54	6505
2026-01-14 13:32:11.59	129.20	27.08	-40.8	-42.2	20.1	0.00e+00	0	28	0	948961280	54	6549
2026-01-14 13:32:12.59	129.46	26.98	-39.5	-40.7	21.4	0.00e+00	0	28	0	950009856	52	6188
2026-01-14 13:32:13.60	129.71	26.88	-39.3	-40.4	21.8	0.00e+00	0	28	0	952107008	52	5978
2026-01-14 13:32:14.61	129.97	26.78	-39.0	-40.0	22.0	0.00e+00	68	28	0	954204160	52	5748
2026-01-14 13:32:15.62	130.22	26.68	-39.4	-40.5	21.5	0.00e+00	0	28	0	956301312	52	6052
2026-01-14 13:32:16.63	130.48	26.58	-40.1	-41.4	20.7	0.00e+00	92	28	0	958398464	52	6718
2026-01-14 13:32:17.65	130.73	26.48	-40.3	-41.6	20.6	0.00e+00	0	28	0	959447040	52	6869
2026-01-14 13:32:18.65	130.98	26.38	-40.0	-41.3	20.9	0.00e+00	35	28	0	961544192	52	6656
2026-01-14 13:32:19.66	131.23	26.28	-39.7	-40.9	21.2	0.00e+00	0	28	0	963641344	52	6318
2026-01-14 13:32:20.68	131.48	26.17	-39.3	-40.4	21.6	0.00e+00	0	28	0	965738496	52	5997
2026-01-14 13:32:21.68	131.72	26.07	-39.4	-40.5	21.6	0.00e+00	64	28	0	967835648	52	6061
2026-01-14 13:32:22.69	131.97	25.97	-40.3	-41.5	20.6	0.00e+00	0	28	0	968884224	52	6847
2026-01-14 13:32:23.70	132.21	25.87	-41.3	-42.9	19.4	0.00e+00	64	28	0	970981376	54	7125
2026-01-14 13:32:24.71	132.45	25.77	-41.8	-43.5	19.1	0.00e+00	0	28	0	973078528	56	6805
2026-01-14 13:32:25.72	132.69	25.67	-41.5	-43.1	19.4	0.00e+00	59	28	0	975175680	56	6492
2026-01-14 13:32:26.73	132.93	25.57	-40.4	-41.7	20.5	0.00e+00	0	28	0	977272832	54	6228
2026-01-14 13:32:27.74	133.16	25.46	-39.4	-40.6	21.6	0.00e+00	0	28	0	978321408	52	6118
2026-01-14 13:32:28.75	133.40	25.36	-39.0	-40.0	21.9	0.00e+00	49	28	0	980418560	52	5761
2026-01-14 13:32:29.76	133.63	25.26	-39.0	-40.0	21.8	0.00e+00	0	28	0	982515712	52	5755
2026-01-14 13:32:30.77	133.86	25.16	-39.5	-40.7	21.3	0.00e+00	90	28	0	984612864	52	6231
2026-01-14 13:32:31.78	134.10	25.06	-39.9	-41.2	21.0	0.00e+00	0	28	0	986710016	52	6542
2026-01-14 13:32:32.79	134.32	24.95	-40.1	-41.4	20.8	0.00e+00	92	28	0	987758592	52	6752
2026-01-14 13:32:33.80	134.55	24.85	-39.3	-40.5	21.5	0.00e+00	0	28	0	989855744	52	6084
2026-01-14 13:32:34.81	134.78	24.75	-39.1	-40.2	21.6	0.00e+00	0	28	0	991952896	52	5853
2026-01-14 13:32:35.81	135.00	24.65	-38.7	-39.8	22.2	0.00e+00	17	28	0	994050048	52	5579
2026-01-14 13:32:36.82	135.22	24.54	-38.6	-39.6	22.2	0.00e+00	0	28	0	996147200	50	6132
2026-01-14 13:32:37.83	135.45	24.44	-39.1	-40.3	21.7	0.00e+00	60	28	0	997195776	50	6631
2026-01-14 13:32:38.84	135.67	24.34	-39.8	-41.0	20.9	0.00e+00	0	28	0	999292928	50	7253
2026-01-14 13:32:39.85	135.89	24.23	-40.2	-41.4	20.6	0.00e+00	87	28	0	1001390080	52	6766
2026-01-14 13:32:40.86	136.10	24.13	-40.1	-41.5	20.7	0.00e+00	0	28	0	1003487232	52	6771
2026-01-14 13:32:41.87	136.32	24.03	-39.6	-40.9	21.2	0.00e+00	0	28	0	1005584384	52	6318
2026-01-14 13:32:42.88	136.54	23.93	-38.9	-40.1	21.8	0.00e+00	0	28	0	1006632960	52	5769
2026-01-14 13:32:43.89	136.75	23.82	-38.6	-39.6	22.3	0.00e+00	0	28	0	1008730112	50	6151
2026-01-14 13:32:44.90	136.96	23.72	-38.0	-38.9	22.8	0.00e+00	35	28	0	1010827264	50	5693
2026-01-14 13:32:45.91	137.17	23.62	-38.4	-39.4	22.5	0.00e+00	0	28	0	1012924416	50	5972
2026-01-14 13:32:46.91	137.38	23.52	-38.5	-39.5	22.3	0.00e+00	64	28	0	1015021568	50	6066
2026-01-14 13:32:47.92	137.59	23.41	-38.6	-39.6	22.2	0.00e+00	0	28	0	1017118720	50	6168
2026-01-14 13:32:48.93	137.80	23.31	-38.5	-39.5	22.3	0.00e+00	0	28	0	1018167296	50	6100
2026-01-14 13:32:49.94	138.00	23.21	-38.3	-39.3	22.5	0.00e+00	0	28	0	1020264448	50	5930
2026-01-14 13:32:50.95	138.21	23.10	-38.1	-39.0	22.7	0.00e+00	0	28	0	1022361600	50	5747
2026-01-14 13:32:51.96	138.41	23.00	-36.9	-37.7	23.8	0.00e+00	10	28	0	1024458752	48	5553
2026-01-14 13:32:52.97	138.61	22.90	-36.0	-36.8	24.5	0.00e+00	0	28	0	1026555904	46	5615
2026-01-14 13:32:53.98	138.81	22.80	-35.8	-36.6	24.5	0.00e+00	85	28	0	1027604480	44	6145
2026-01-14 13:32:54.99	139.01	22.69	-35.9	-36.7	24.4	0.00e+00	0	28	0	1029701632	44	6214
2026-01-14 13:32:56.00	139.21	22.59	-36.5	-37.4	24.0	0.00e+00	92	28	0	1031798784	44	6703
2026-01-14 13:32:57.01	139.41	22.49	-37.2	-38.1	23.4	0.00e+00	0	28	0	1033895936	46	6496
2026-01-14 13:32:58.02	139.60	22.39	-37.8	-38.8	22.9	0.00e+00	0	28	0	1035993088	48	6269
2026-01-14 13:32:59.03	139.80	22.29	-38.1	-39.2	22.6	0.00e+00	62	28	0	1037041664	48	6541
2026-01-14 13:33:00.03	139.99	22.18	-38.1	-39.1	22.7	0.00e+00	0	28	0	1039138816	48	6478
2026-01-14 13:33:01.04	140.18	22.08	-37.6	-38.6	23.1	0.00e+00	92	28	0	1041235968	48	6106
2026-01-14 13:33:02.06	140.37	21.98	-37.3	-38.3	23.3	0.00e+00	0	28	0	1043333120	48	5902
2026-01-14 13:33:03.06	140.56	21.88	-37.0	-37.9	23.5	0.00e+00	59	28	0	1045430272	48	5657
2026-01-14 13:33:04.07	140.75	21.78	-37.0	-37.9	23.7	0.00e+00	0	28	0	1046478848	48	5639
2026-01-14 13:33:05.08	140.93	21.67	-36.8	-37.7	23.7	0.00e+00	0	28	0	1048576000	48	5534
2026-01-14 13:33:06.09	141.12	21.57	-36.9	-37.8	23.6	0.00e+00	0	28	0	1050673152	48	5573
2026-01-14 13:33:07.10	141.30	21.47	-37.3	-38.2	23.4	0.00e+00	0	28	0	1052770304	48	5882
2026-01-14 13:33:08.11	141.49	21.37	-37.1	-38.1	23.4	0.00e+00	63	28	0	1054867456	48	5764
2026-01-14 13:33:09.12	141.67	21.27	-37.1	-38.1	23.4	0.00e+00	0	28	0	1055916032	48	5763
2026-01-14 13:33:10.13	141.85	21.17	-37.2	-38.1	23.4	0.00e+00	88	28	0	1058013184	48	5781
2026-01-14 13:33:11.13	142.03	21.07	-37.0	-37.9	23.6	0.00e+00	0	28	0	1060110336	48	5660
2026-01-14 13:33:12.14	142.21	20.97	-36.7	-37.6	23.7	0.00e+00	0	28	0	1062207488	46	6147
2026-01-14 13:33:13.15	142.38	20.87	-36.8	-37.7	23.7	0.00e+00	0	28	0	1064304640	46	6218
2026-01-14 13:33:14.16	142.56	20.77	-36.6	-37.5	23.8	0.00e+00	0	28	0	1065353216	46	6048
2026-01-14 13:33:15.17	142.74	20.67	-36.5	-37.4	23.8	0.00e+00	72	28	0	1067450368	46	5996
2026-01-14 13:33:16.18	142.91	20.56	-36.6	-37.5	23.3	0.00e+00	0	28	0	1069547520	46	6052
2026-01-14 13:33:17.19	143.08	20.46	-36.5	-37.3	23.9	0.00e+00	92	28	0	1071644672	46	5960
2026-01-14 13:33:18.19	143.25	20.37	-36.7	-37.6	23.7	0.00e+00	0	28	0	1073741824	46	6120
2026-01-14 13:33:19.20	143.42	20.27	-36.7	-37.6	23.7	0.00e+00	0	28	0	1074790400	46	6123
2026-01-14 13:33:20.21	143.59	20.17	-36.8	-37.7	23.4	0.00e+00	0	28	0	1076887552	46	6198
2026-01-14 13:33:21.22	143.76	20.07	-37.1	-38.0	22.7	0.00e+00	0	28	0	1078984704	46	6451
2026-01-14 13:33:22.23	143.93	19.97	-37.1	-38.0	23.4	0.00e+00	0	28	0	1081081856	46	6441
2026-01-14 13:33:23.24	144.10	19.87	-37.1	-38.0	23.3	0.00e+00	0	28	0	1083179008	46	6442
2026-01-14 13:33:24.25	144.26	19.77	-37.0	-38.0	23.5	0.00e+00	92	28	0	1084227584	46	6391
2026-01-14 13:33:25.26	144.43	19.67	-37.1	-38.0	23.4	0.00e+00	0	28	0	1086324736	46	6408
2026-01-14 13:33:26.27	144.59	19.57	-36.8	-37.7	23.6	0.00e+00	0	28	0	1088421888	46	6195
2026-01-14 13:33:27.28	144.75	19.47	-36.6	-37.5	23.8	0.00e+00	0	28	0	1090519040	46	6067
2026-01-14 13:33:28.29	144.92	19.37	-36.4	-37.2	24.1	0.00e+00	0	28	0	1092616192	46	5863
2026-01-14 13:33:29.29	145.08	19.28	-36.4	-37.2	24.1	0.00e+00	57	28	0	1093664768	46	5883
2026-01-14 13:33:30.30	145.23	19.18	-36.4	-37.2	23.9	0.00e+00	0	28	0	1095761920	46	5887
2026-01-14 13:33:31.31	145.39	19.08	-36.5	-37.3	23.9	0.00e+00	92	28	0	1097859072	46	5946
2026-01-14 13:33:32.32	145.55	18.98	-36.5	-37.4	23.8	0.00e+00	0	28	0	1099956224	46	5991
2026-01-14 13:33:33.33	145.71	18.89	-36.5	-37.4	23.9	0.00e+00	90	28	0	1102053376	46	5998
2026-01-14 13:33:34.34	145.86	18.79	-36.6	-37.4	23.9	0.00e+00	0	28	0	1103101952	46	6028
2026-01-14 13:33:35.35	146.02	18.69	-36.7	-37.6	23.9	0.00e+00	0	28	0	1105199104	46	6105
2026-01-14 13:33:36.36	146.17	18.59	-36.5	-37.4	23.9	0.00e+00	34	28	0	1107296256	46	5983
2026-01-14 13:33:37.37	146.32	18.50	-36.3	-37.2	24.0	0.00e+00	0	28	0	1109393408	46	5836
2026-01-14 13:33:38.38	146.48	18.40	-36.2	-37.1	24.1	0.00e+00	92	28	0	1111490560	46	5775
2026-01-14 13:33:39.39	146.63	18.30	-36.4	-37.2	24.1	0.00e+00	0	28	0	1113587712	46	5890
2026-01-14 13:33:40.40	146.78	18.21	-36.4	-37.3	23.8	0.00e+00	49	28	0	1114636288	46	5929
2026-01-14 13:33:41.40	146.93	18.11	-36.7	-37.5	23.8	0.00e+00	0	28	0	1116733440	46	6095
2026-01-14 13:33:42.41	147.07	18.02	-36.7	-37.5	23.6	0.00e+00	0	28	0	1118830592	46	6097
2026-01-14 13:33:43.42	147.22	17.92	-37.2	-38.1	23.3	0.00e+00	0	28	0	1120927744	46	6524
2026-01-14 13:33:44.43	147.37	17.82	-37.4	-38.3	23.1	0.00e+00	0	28	0	1123024896	46	6690
2026-01-14 13:33:45.44	147.51	17.73	-37.8	-38.7	22.7	0.00e+00	61	28	0	1124073472	46	6994
2026-01-14 13:33:46.45	147.66	17.63	-38.2	-39.2	22.3	0.00e+00	0	28	0	1126170624	48	6552
2026-01-14 13:33:47.46	147.80	17.54	-38.3	-39.4	22.3	0.00e+00	92	28	0	1128267776	48	6693
2026-01-14 13:33:48.47	147.94	17.44	-38.9	-40.0	21.7	0.00e+00	0	28	0	1130364928	50	6453
2026-01-14 13:33:49.48	148.09	17.35	-39.1	-40.3	21.6	0.00e+00	0	28	0	1132462080	50	6623
2026-01-14 13:33:50.49	148.23	17.26	-39.2	-40.3	21.5	0.00e+00	0	28	0	1133510656	50	6675
2026-01-14 13:33:51.50	148.37	17.16	-39.5	-40.7	21.2	0.00e+00	0	28	0	1135607808	50	6997
2026-01-14 13:33:52.51	148.51	17.07	-39.1	-40.3	21.4	0.00e+00	62	28	0	1137704960	50	6637
2026-01-14 13:33:53.51	148.64	16.97	-39.2	-40.3	21.6	0.00e+00	0	28	0	1139802112	50	6671
2026-01-14 13:33:54.53	148.78	16.88	-39.0	-40.1	21.7	0.00e+00	92	28	0	1141899264	50	6533
2026-01-14 13:33:55.53	148.92	16.79	-38.6	-39.6	22.1	0.00e+00	0	28	0	1142947840	50	6167
2026-01-14 13:33:56.54	149.06	16.69	-38.5	-39.6	22.1	0.00e+00	0	28	0	1145044992	50	6130
2026-01-14 13:33:57.55	149.19	16.60	-38.2	-39.2	22.6	0.00e+00	0	28	0	1147142144	50	5847
2026-01-14 13:33:58.56	149.33	16.51	-37.7	-38.7	22.9	0.00e+00	0	28	0	1149239296	48	6180
2026-01-14 13:33:59.57	149.46	16.42	-37.7	-38.7	22.9	0.00e+00	64	28	0	1151336448	48	6203
2026-01-14 13:34:00.58	149.59	16.32	-37.6	-38.5	22.9	0.00e+00	0	28	0	1152385024	48	6092
2026-01-14 13:34:01.59	149.72	16.23	-38.0	-39.0	22.6	0.00e+00	92	28	0	1154482176	48	6423
2026-01-14 13:34:02.60	149.86	16.14	-38.2	-39.2	22.5	0.00e+00	0	28	0	1156579328	48	6574
2026-01-14 13:34:03.61	149.99	16.05	-38.1	-39.2	22.5	0.00e+00	31	28	0	1158676480	48	6546
2026-01-14 13:34:04.62	150.12	15.96	-38.6	-39.7	21.9	0.00e+00	0	28	0	1160773632	48	6962
2026-01-14 13:34:05.63	150.25	15.87	-38.8	-39.9	21.9	0.00e+00	0	28	0	1161822208	50	6366
2026-01-14 13:34:06.64	150.37	15.77	-38.8	-39.9	21.7	0.00e+00	63	28	0	1163919360	50	6339
2026-01-14 13:34:07.65	150.50	15.68	-38.8	-39.9	21.8	0.00e+00	0	28	0	1166016512	50	6385
2026-01-14 13:34:08.65	150.63	15.59	-38.4	-39.5	22.1	0.00e+00	74	28	0	1168113664	50	6063
2026-01-14 13:34:09.66	150.75	15.50	-38.3	-39.3	22.3	0.00e+00	0	28	0	1170210816	50	5931
2026-01-14 13:34:10.67	150.88	15.41	-38.0	-39.0	22.6	0.00e+00	90	28	0	1171259392	50	5714
2026-01-14 13:34:11.68	151.00	15.32	-37.8	-38.7	22.7	0.00e+00	0	28	0	1173356544	48	6241
2026-01-14 13:34:12.69	151.13	15.23	-37.7	-38.7	22.8	0.00e+00	0	28	0	1175453696	48	6212
2026-01-14 13:34:13.70	151.25	15.14	-37.5	-38.5	23.0	0.00e+00	0	28	0	1177550848	48	6034
2026-01-14 13:34:14.71	151.37	15.05	-37.6	-38.6	22.9	0.00e+00	0	28	0	1179648000	48	6111
2026-01-14 13:34:15.72	151.49	14.97	-37.7	-38.6	22.9	0.00e+00	74	28	0	1181745152	48	6168
2026-01-14 13:34:16.73	151.62	14.88	-37.3	-38.2	23.2	0.00e+00	0	28	0	1182793728	48	5875
2026-01-14 13:34:17.73	151.73	14.79	-37.5	-38.4	22.8	0.00e+00	92	28	0	1184890880	48	5999
2026-01-14 13:34:18.75	151.86	14.70	-37.5	-38.5	22.8	0.00e+00	0	28	0	1186988032	48	6053
2026-01-14 13:34:19.76	151.97	14.61	-37.6	-38.6	22.8	0.00e+00	0	28	0	1189085184	48	6150
2026-01-14 13:34:20.76	152.09	14.52	-38.0	-39.0	22.5	0.00e+00	0	28	0	1191182336	48	6456
2026-01-14 13:34:21.77	152.21	14.44	-37.7	-38.7	22.8	0.00e+00	0	28	0	1192230912	48	6187
2026-01-14 13:34:22.78	152.33	14.35	-37.9	-38.9	22.6	0.00e+00	81	28	0	1194328064	48	6329
2026-01-14 13:34:23.79	152.44	14.26	-37.8	-38.8	22.6	0.00e+00	0	28	0	1196425216	48	6309
2026-01-14 13:34:24.80	152.56	14.17	-37.5	-38.5	22.8	0.00e+00	92	28	0	1198522368	48	6050
2026-01-14 13:34:25.81	152.67	14.09	-37.7	-38.6	22.7	0.00e+00	0	28	0	1200619520	48	6172
2026-01-14 13:34:26.82	152.79	14.00	-37.5	-38.4	22.9	0.00e+00	0	28	0	1201668096	48	6011
2026-01-14 13:34:27.83	152.90	13.91	-37.3	-38.3	23.0	0.00e+00	0	28	0	1203765248	48	5909
2026-01-14 13:34:28.84	153.02	13.83	-37.5	-38.4	22.9	0.00e+00	0	28	0	1205862400	48	6027
2026-01-14 13:34:29.85	153.13	13.74	-37.6	-38.5	22.8	0.00e+00	14	28	0	1207959552	48	6069
2026-01-14 13:34:30.86	153.24	13.65	-37.8	-38.8	22.4	0.00e+00	0	28	0	1210056704	48	6313
2026-01-14 13:34:31.87	153.35	13.57	-38.1	-39.1	22.2	0.00e+00	92	28	0	1211105280	48	6530
2026-01-14 13:34:32.88	153.46	13.48	-38.3	-39.4	21.8	0.00e+00	0	28	0	1213202432	48	6711
