passes_logs/2026/01/14/R4.6S_Anadyr/R4.6S_Anadyr__20260114_125313_NOAA_21_JPSS-2_rec.log

#Pass ID: 20260114_125313_NOAA 21 (JPSS-2)
#Satellite: NOAA 21 (JPSS-2)
#Configuration: NOAA-21
#almurnet v.1.7.20251203
#Start time: 2026-01-14 12:53:14

#Version: 2.2.20231116
#Station: R4.6S_Anadyr
#Location: 177.4865 lon 64.73178 lat
#TLE: 1 54234U 22150A   26013.88494661  .00000045  00000+0  42271-4 0  9994
#TLE: 2 54234  98.7497 314.7982 0000672 299.1935  60.9174 14.19534564164652

#Time	Az	El	Level	Level2	SNR	BER	BlckErr	Temp	State	Recorded	gain1	gain2
2026-01-14 12:53:14.60	18.71	0.05	-48.7	-63.6	3.5	1.51e+00	0	26	0	0	60	54581
2026-01-14 12:53:15.61	18.77	0.10	-48.7	-61.6	3.5	1.51e+00	0	27	104	0	60	42025
2026-01-14 12:53:16.62	18.83	0.16	-48.7	-61.6	3.5	1.52e+00	0	27	104	0	60	42200
2026-01-14 12:53:17.63	18.89	0.21	-48.8	-61.6	3.5	1.51e+00	0	27	104	0	60	42255
2026-01-14 12:53:18.64	18.95	0.26	-48.7	-61.6	3.5	1.52e+00	0	27	104	0	60	42258
2026-01-14 12:53:19.65	19.01	0.32	-48.8	-61.7	3.5	1.52e+00	0	27	104	0	60	42445
2026-01-14 12:53:20.66	19.07	0.37	-48.8	-61.6	3.5	1.52e+00	0	27	104	0	60	42132
2026-01-14 12:53:21.67	19.13	0.43	-48.8	-61.6	3.5	1.52e+00	0	27	104	0	60	42041
2026-01-14 12:53:22.68	19.19	0.48	-48.7	-61.5	3.5	1.52e+00	0	27	104	0	60	41952
2026-01-14 12:53:23.69	19.25	0.53	-48.6	-61.5	3.5	1.51e+00	0	27	104	0	60	41535
2026-01-14 12:53:24.70	19.31	0.59	-48.6	-61.4	3.5	1.51e+00	0	27	104	0	60	41233
2026-01-14 12:53:25.71	19.37	0.64	-48.4	-61.3	3.5	1.52e+00	0	28	104	0	60	40536
2026-01-14 12:53:26.71	19.43	0.70	-48.3	-61.2	3.5	1.52e+00	0	27	104	0	60	40256
2026-01-14 12:53:27.72	19.49	0.75	-48.1	-61.0	3.5	1.52e+00	0	28	104	0	60	39171
2026-01-14 12:53:28.73	19.56	0.81	-47.9	-60.8	3.5	1.52e+00	0	28	104	0	60	38578
2026-01-14 12:53:29.74	19.62	0.86	-47.7	-60.5	3.5	1.52e+00	0	28	104	0	60	37300
2026-01-14 12:53:30.75	19.68	0.91	-47.3	-60.1	3.5	1.52e+00	0	27	104	0	60	35706
2026-01-14 12:53:31.76	19.74	0.97	-47.0	-59.7	3.5	1.52e+00	0	28	104	0	60	34031
2026-01-14 12:53:32.77	19.81	1.02	-47.0	-59.7	3.5	1.52e+00	0	28	104	0	60	34052
2026-01-14 12:53:33.78	19.87	1.08	-47.0	-59.7	3.5	1.51e+00	0	28	104	0	60	34038
2026-01-14 12:53:34.79	19.93	1.13	-47.0	-59.7	3.5	1.52e+00	0	28	104	0	60	34027
2026-01-14 12:53:35.80	20.00	1.19	-47.0	-59.7	3.5	1.52e+00	0	28	104	0	60	34094
2026-01-14 12:53:36.81	20.06	1.24	-47.0	-59.8	3.5	1.52e+00	0	28	104	0	60	34191
2026-01-14 12:53:37.82	20.12	1.30	-47.0	-59.8	3.5	1.52e+00	0	28	104	0	60	34428
2026-01-14 12:53:38.83	20.19	1.35	-47.0	-59.8	3.5	1.52e+00	0	28	104	0	60	34444
2026-01-14 12:53:39.84	20.25	1.41	-47.0	-59.9	3.5	1.52e+00	0	28	104	0	60	34498
2026-01-14 12:53:40.84	20.32	1.47	-47.0	-59.8	3.5	1.52e+00	0	28	104	0	60	34384
2026-01-14 12:53:41.86	20.38	1.52	-47.0	-59.9	3.5	1.52e+00	0	28	104	0	60	34560
2026-01-14 12:53:42.87	20.45	1.58	-47.0	-59.8	3.5	1.51e+00	0	28	104	0	60	34426
2026-01-14 12:53:43.88	20.51	1.63	-47.0	-59.8	3.5	1.52e+00	0	28	104	0	60	34234
2026-01-14 12:53:44.89	20.58	1.69	-47.0	-59.8	3.5	1.52e+00	0	28	104	0	60	34109
2026-01-14 12:53:45.89	20.64	1.74	-47.0	-59.7	3.5	1.51e+00	0	28	104	0	60	34062
2026-01-14 12:53:46.90	20.71	1.80	-47.0	-59.7	3.5	1.52e+00	0	28	104	0	60	33839
2026-01-14 12:53:47.91	20.77	1.86	-47.0	-59.7	3.5	1.51e+00	0	28	104	0	60	33894
2026-01-14 12:53:48.92	20.84	1.91	-47.0	-59.7	3.5	1.51e+00	0	28	104	0	60	34102
2026-01-14 12:53:49.93	20.91	1.97	-47.0	-59.7	3.5	1.51e+00	0	28	104	0	60	33997
2026-01-14 12:53:50.94	20.97	2.02	-47.0	-59.8	3.5	1.51e+00	0	28	104	0	60	34122
2026-01-14 12:53:51.95	21.04	2.08	-47.0	-59.7	3.5	1.52e+00	0	28	104	0	60	33861
2026-01-14 12:53:52.96	21.11	2.14	-47.0	-59.8	3.5	1.52e+00	0	28	104	0	60	34199
2026-01-14 12:53:53.97	21.17	2.19	-47.0	-59.8	3.5	1.51e+00	0	28	104	0	60	34146
2026-01-14 12:53:54.98	21.24	2.25	-47.0	-59.6	3.5	1.52e+00	0	28	104	0	60	33565
2026-01-14 12:53:55.99	21.31	2.31	-46.9	-59.3	3.5	1.52e+00	0	28	104	0	60	32232
2026-01-14 12:53:57.00	21.38	2.36	-46.9	-58.6	3.5	1.52e+00	0	28	104	0	60	29771
2026-01-14 12:53:58.01	21.45	2.42	-46.9	-58.3	3.5	1.51e+00	0	28	104	0	60	28841
2026-01-14 12:53:59.02	21.51	2.48	-46.9	-58.3	3.5	1.51e+00	0	28	104	0	60	28894
2026-01-14 12:54:00.03	21.58	2.53	-46.9	-58.5	3.5	1.51e+00	0	28	104	0	60	29381
2026-01-14 12:54:01.04	21.65	2.59	-46.7	-56.7	4.1	1.51e+00	0	28	104	0	60	23880
2026-01-14 12:54:02.05	21.72	2.65	-46.0	-52.0	6.4	3.84e-01	123	28	0	1048576	60	13920
2026-01-14 12:54:03.06	21.79	2.71	-44.8	-48.7	10.0	1.40e-02	123	28	0	4194304	60	9602
2026-01-14 12:54:04.07	21.86	2.76	-43.2	-45.9	13.4	3.39e-04	123	28	0	7340032	60	6886
2026-01-14 12:54:05.08	21.93	2.82	-41.6	-43.6	15.6	0.00e+00	124	28	0	10485760	56	6679
2026-01-14 12:54:06.09	22.00	2.88	-40.4	-42.1	17.0	0.00e+00	122	28	0	13631488	54	6297
2026-01-14 12:54:07.10	22.07	2.94	-39.5	-41.0	18.2	0.00e+00	120	28	0	16777216	52	6207
2026-01-14 12:54:08.11	22.14	2.99	-38.6	-40.0	18.8	0.00e+00	123	28	0	19922944	50	6254
2026-01-14 12:54:09.12	22.21	3.05	-39.0	-40.4	18.4	0.00e+00	122	28	0	23068672	50	6547
2026-01-14 12:54:10.13	22.29	3.11	-39.6	-41.1	17.8	0.00e+00	123	28	0	26214400	50	7076
2026-01-14 12:54:11.14	22.36	3.17	-40.3	-42.0	17.0	0.00e+00	120	28	0	29360128	52	6999
2026-01-14 12:54:12.15	22.43	3.22	-41.6	-43.6	15.0	0.00e+00	123	28	0	32505856	54	7517
2026-01-14 12:54:13.16	22.50	3.28	-40.0	-41.6	17.1	0.00e+00	122	28	0	35651584	52	6683
2026-01-14 12:54:14.16	22.57	3.34	-46.7	-57.3	3.5	5.60e-01	0	28	104	37748736	60	25581
2026-01-14 12:54:15.17	22.65	3.40	-43.2	-45.8	12.7	0.00e+00	123	28	0	37748736	56	8633
2026-01-14 12:54:16.18	22.72	3.46	-41.0	-42.8	16.4	0.00e+00	120	28	0	40894464	56	6115
2026-01-14 12:54:17.19	22.79	3.52	-46.9	-57.8	3.5	7.00e-01	0	28	104	44040192	60	27291
2026-01-14 12:54:18.20	22.87	3.57	-39.5	-41.3	5.2	1.44e+00	0	28	104	44040192	54	5772
2026-01-14 12:54:19.21	22.94	3.63	-39.2	-40.6	18.4	0.00e+00	123	28	0	44040192	52	5972
2026-01-14 12:54:20.22	23.01	3.69	-39.7	-41.2	18.4	0.00e+00	123	28	0	47185920	52	6359
2026-01-14 12:54:21.23	23.09	3.75	-39.2	-40.6	18.4	0.00e+00	123	28	0	50331648	52	5977
2026-01-14 12:54:22.24	23.16	3.81	-39.6	-41.1	18.0	0.00e+00	123	28	0	53477376	52	6297
2026-01-14 12:54:23.25	23.24	3.87	-39.4	-40.8	18.6	0.00e+00	123	28	0	56623104	52	6134
2026-01-14 12:54:24.26	23.31	3.93	-39.2	-40.7	18.4	0.00e+00	122	28	0	59768832	52	6000
2026-01-14 12:54:25.27	23.39	3.99	-39.5	-40.9	18.6	0.00e+00	123	28	0	62914560	52	6177
2026-01-14 12:54:26.27	23.46	4.04	-39.3	-40.7	18.6	0.00e+00	122	28	0	66060288	52	5998
2026-01-14 12:54:27.28	23.54	4.10	-39.4	-40.8	18.5	0.00e+00	123	28	0	69206016	52	6088
2026-01-14 12:54:28.29	23.62	4.16	-39.7	-41.1	18.4	0.00e+00	123	28	0	72351744	52	6346
2026-01-14 12:54:29.30	23.69	4.22	-39.2	-40.6	18.6	0.00e+00	122	28	0	75497472	52	5933
2026-01-14 12:54:30.31	23.77	4.28	-39.1	-40.4	18.9	0.00e+00	122	28	0	78643200	52	5856
2026-01-14 12:54:31.32	23.85	4.34	-38.5	-39.8	19.4	0.00e+00	123	28	0	81788928	50	6101
2026-01-14 12:54:32.33	23.92	4.40	-38.5	-39.8	19.3	0.00e+00	123	28	0	84934656	50	6111
2026-01-14 12:54:33.34	24.00	4.46	-38.4	-39.7	19.5	0.00e+00	122	28	0	88080384	50	6038
2026-01-14 12:54:34.35	24.08	4.52	-37.6	-38.8	20.3	0.00e+00	122	28	0	91226112	48	6124
2026-01-14 12:54:35.36	24.16	4.58	-37.7	-38.8	20.3	0.00e+00	120	28	0	94371840	48	6134
2026-01-14 12:54:36.37	24.24	4.64	-37.6	-38.8	20.4	0.00e+00	123	28	0	97517568	48	6078
2026-01-14 12:54:37.38	24.32	4.70	-37.5	-38.7	20.5	0.00e+00	122	28	0	100663296	48	6015
2026-01-14 12:54:38.39	24.40	4.76	-37.4	-38.6	20.6	0.00e+00	122	28	0	103809024	48	5956
2026-01-14 12:54:39.40	24.47	4.82	-37.4	-38.6	20.5	0.00e+00	122	28	0	106954752	48	5962
2026-01-14 12:54:40.41	24.55	4.88	-37.4	-38.5	20.6	0.00e+00	120	28	0	110100480	48	5916
2026-01-14 12:54:41.42	24.64	4.95	-37.3	-38.5	20.7	0.00e+00	123	28	0	113246208	48	5896
2026-01-14 12:54:42.43	24.72	5.01	-37.4	-38.6	20.7	0.00e+00	121	28	0	116391936	48	5934
2026-01-14 12:54:43.44	24.80	5.07	-37.3	-38.4	20.8	0.00e+00	123	28	0	119537664	48	5836
2026-01-14 12:54:44.45	24.88	5.13	-37.3	-38.4	20.8	0.00e+00	123	28	0	122683392	48	5832
2026-01-14 12:54:45.46	24.96	5.19	-37.3	-38.4	20.9	0.00e+00	120	28	0	125829120	48	5826
2026-01-14 12:54:46.47	25.04	5.25	-37.0	-38.2	21.0	0.00e+00	122	28	0	128974848	48	5672
2026-01-14 12:54:47.48	25.12	5.31	-37.0	-38.1	21.1	0.00e+00	122	28	0	132120576	48	5655
2026-01-14 12:54:48.49	25.21	5.37	-36.9	-38.0	21.2	0.00e+00	123	28	0	135266304	48	5546
2026-01-14 12:54:49.50	25.29	5.43	-36.8	-37.9	21.2	0.00e+00	123	28	0	138412032	46	6184
2026-01-14 12:54:50.51	25.37	5.50	-37.2	-38.3	21.0	0.00e+00	123	28	0	141557760	46	6453
2026-01-14 12:54:51.52	25.46	5.56	-37.0	-38.1	21.1	0.00e+00	123	28	0	144703488	46	6342
2026-01-14 12:54:52.53	25.54	5.62	-36.9	-38.0	21.2	0.00e+00	125	28	0	147849216	46	6236
2026-01-14 12:54:53.54	25.62	5.68	-37.0	-38.1	21.1	0.00e+00	123	28	0	150994944	46	6334
2026-01-14 12:54:54.55	25.71	5.74	-37.0	-38.1	21.2	0.00e+00	120	28	0	154140672	46	6326
2026-01-14 12:54:55.56	25.79	5.80	-36.8	-37.9	21.3	0.00e+00	121	28	0	157286400	46	6171
2026-01-14 12:54:56.57	25.88	5.87	-37.0	-38.1	21.4	0.00e+00	123	28	0	160432128	46	6297
2026-01-14 12:54:57.58	25.96	5.93	-36.8	-37.9	21.3	0.00e+00	120	28	0	163577856	46	6168
2026-01-14 12:54:58.59	26.05	5.99	-36.8	-37.9	21.4	0.00e+00	120	28	0	166723584	46	6165
2026-01-14 12:54:59.60	26.14	6.05	-36.7	-37.7	21.5	0.00e+00	122	28	0	169869312	46	6062
2026-01-14 12:55:00.61	26.22	6.12	-36.7	-37.8	21.5	0.00e+00	120	28	0	173015040	46	6102
2026-01-14 12:55:01.61	26.31	6.18	-36.7	-37.8	21.5	0.00e+00	123	28	0	176160768	46	6098
2026-01-14 12:55:02.62	26.39	6.24	-36.5	-37.5	21.7	0.00e+00	123	28	0	180355072	46	5926
2026-01-14 12:55:03.63	26.48	6.30	-36.4	-37.5	21.8	0.00e+00	122	28	0	183500800	46	5878
2026-01-14 12:55:04.64	26.57	6.37	-36.5	-37.6	21.7	0.00e+00	122	28	0	185597952	46	5933
2026-01-14 12:55:05.65	26.66	6.43	-36.6	-37.7	21.5	0.00e+00	123	28	0	188743680	46	6026
2026-01-14 12:55:06.66	26.75	6.49	-36.6	-37.6	21.6	0.00e+00	123	28	0	191889408	46	5988
2026-01-14 12:55:07.67	26.84	6.56	-36.5	-37.5	21.8	0.00e+00	122	28	0	195035136	46	5891
2026-01-14 12:55:08.67	26.92	6.62	-36.5	-37.6	21.7	0.00e+00	122	28	0	199229440	46	5938
2026-01-14 12:55:09.68	27.01	6.68	-36.6	-37.6	21.7	0.00e+00	123	28	0	202375168	46	5964
2026-01-14 12:55:10.69	27.10	6.75	-36.4	-37.5	21.8	0.00e+00	123	28	0	205520896	46	5859
2026-01-14 12:55:11.70	27.20	6.81	-36.4	-37.5	21.8	0.00e+00	120	28	0	207618048	46	5876
2026-01-14 12:55:12.71	27.29	6.87	-36.4	-37.5	21.8	0.00e+00	122	28	0	210763776	46	5891
2026-01-14 12:55:13.72	27.38	6.94	-36.4	-37.4	21.9	0.00e+00	122	28	0	214958080	46	5855
2026-01-14 12:55:14.73	27.47	7.00	-36.3	-37.3	22.0	0.00e+00	120	28	0	218103808	46	5787
2026-01-14 12:55:15.74	27.56	7.06	-36.4	-37.4	21.9	0.00e+00	120	28	0	221249536	46	5847
2026-01-14 12:55:16.75	27.65	7.13	-36.5	-37.6	21.8	0.00e+00	122	28	0	224395264	46	5931
2026-01-14 12:55:17.75	27.75	7.19	-36.4	-37.4	21.9	0.00e+00	122	28	0	227540992	46	5847
2026-01-14 12:55:18.77	27.84	7.26	-36.5	-37.5	21.8	0.00e+00	123	28	0	230686720	46	5916
2026-01-14 12:55:19.78	27.93	7.32	-36.4	-37.5	21.8	0.00e+00	123	28	0	233832448	46	5893
2026-01-14 12:55:20.78	28.03	7.39	-36.6	-37.7	21.8	0.00e+00	124	28	0	236978176	46	6022
2026-01-14 12:55:21.80	28.12	7.45	-36.5	-37.5	21.9	0.00e+00	120	28	0	240123904	46	5923
2026-01-14 12:55:22.80	28.21	7.51	-36.3	-37.3	22.0	0.00e+00	123	28	0	243269632	46	5768
2026-01-14 12:55:23.81	28.31	7.58	-36.3	-37.3	21.9	0.00e+00	120	28	0	246415360	46	5781
2026-01-14 12:55:24.82	28.41	7.64	-36.2	-37.2	22.1	0.00e+00	122	28	0	249561088	46	5699
2026-01-14 12:55:25.83	28.50	7.71	-36.3	-37.3	22.0	0.00e+00	123	28	0	252706816	46	5748
2026-01-14 12:55:26.84	28.60	7.77	-36.2	-37.2	22.1	0.00e+00	122	28	0	255852544	46	5713
2026-01-14 12:55:27.85	28.69	7.84	-36.2	-37.2	22.1	0.00e+00	123	28	0	258998272	46	5724
2026-01-14 12:55:28.86	28.79	7.91	-36.1	-37.1	22.2	0.00e+00	123	28	0	262144000	46	5647
2026-01-14 12:55:29.87	28.89	7.97	-36.2	-37.2	22.2	0.00e+00	123	28	0	265289728	46	5711
2026-01-14 12:55:30.88	28.99	8.04	-36.0	-37.0	22.3	0.00e+00	120	28	0	268435456	46	5563
2026-01-14 12:55:31.89	29.09	8.10	-36.0	-37.0	22.3	0.00e+00	123	28	0	271581184	46	5547
2026-01-14 12:55:32.90	29.18	8.17	-36.1	-37.1	22.3	0.00e+00	123	28	0	274726912	46	5612
2026-01-14 12:55:33.91	29.28	8.23	-36.0	-37.0	22.4	0.00e+00	123	28	0	277872640	46	5552
2026-01-14 12:55:34.92	29.38	8.30	-36.0	-37.1	22.3	0.00e+00	120	28	0	281018368	46	5606
2026-01-14 12:55:35.93	29.48	8.37	-36.0	-37.0	22.4	0.00e+00	123	29	0	284164096	46	5555
2026-01-14 12:55:36.94	29.58	8.43	-36.1	-37.1	22.3	0.00e+00	122	28	0	287309824	46	5627
2026-01-14 12:55:37.95	29.69	8.50	-36.0	-37.0	22.5	0.00e+00	120	28	0	290455552	46	5558
2026-01-14 12:55:38.95	29.79	8.56	-35.9	-37.0	22.4	0.00e+00	123	28	0	293601280	46	5538
2026-01-14 12:55:39.96	29.89	8.63	-36.0	-37.0	22.4	0.00e+00	122	29	0	296747008	46	5588
2026-01-14 12:55:40.97	29.99	8.70	-35.9	-36.9	22.5	0.00e+00	122	29	0	299892736	46	5488
2026-01-14 12:55:41.98	30.09	8.76	-36.0	-37.0	22.4	0.00e+00	122	28	0	303038464	46	5542
2026-01-14 12:55:42.99	30.20	8.83	-36.0	-37.0	22.4	0.00e+00	123	28	0	306184192	46	5578
2026-01-14 12:55:44.00	30.30	8.90	-36.0	-37.0	22.4	0.00e+00	123	28	0	309329920	46	5559
2026-01-14 12:55:45.01	30.40	8.96	-35.9	-36.9	22.5	0.00e+00	123	28	0	312475648	46	5478
2026-01-14 12:55:46.02	30.51	9.03	-35.6	-36.6	22.7	0.00e+00	122	29	0	315621376	44	5962
2026-01-14 12:55:47.03	30.61	9.10	-35.7	-36.7	22.7	0.00e+00	123	28	0	318767104	44	6018
2026-01-14 12:55:48.04	30.72	9.16	-35.6	-36.6	22.7	0.00e+00	122	28	0	321912832	44	5993
2026-01-14 12:55:49.05	30.82	9.23	-35.7	-36.7	22.6	0.00e+00	123	28	0	325058560	44	6049
2026-01-14 12:55:50.06	30.93	9.30	-35.6	-36.6	22.8	0.00e+00	123	28	0	328204288	44	5962
2026-01-14 12:55:51.07	31.04	9.37	-35.7	-36.7	22.8	0.00e+00	120	28	0	331350016	44	6001
2026-01-14 12:55:52.07	31.14	9.43	-35.5	-36.4	22.8	0.00e+00	123	28	0	334495744	44	5855
2026-01-14 12:55:53.08	31.25	9.50	-35.5	-36.5	22.8	0.00e+00	122	28	0	337641472	44	5912
2026-01-14 12:55:54.09	31.36	9.57	-35.6	-36.5	22.8	0.00e+00	122	29	0	340787200	44	5917
2026-01-14 12:55:55.10	31.47	9.64	-35.4	-36.4	22.9	0.00e+00	122	29	0	343932928	44	5805
2026-01-14 12:55:56.11	31.58	9.71	-35.6	-36.6	22.9	0.00e+00	122	29	0	347078656	44	5953
2026-01-14 12:55:57.12	31.69	9.77	-35.4	-36.4	22.9	0.00e+00	122	29	0	350224384	44	5838
2026-01-14 12:55:58.13	31.80	9.84	-35.5	-36.4	22.9	0.00e+00	122	29	0	353370112	44	5856
2026-01-14 12:55:59.14	31.91	9.91	-35.4	-36.4	22.9	0.00e+00	122	28	0	356515840	44	5841
2026-01-14 12:56:00.15	32.02	9.98	-35.4	-36.3	23.0	0.00e+00	123	28	0	359661568	44	5782
2026-01-14 12:56:01.16	32.13	10.05	-35.4	-36.3	22.9	0.00e+00	122	28	0	362807296	44	5788
2026-01-14 12:56:02.17	32.24	10.12	-35.3	-36.3	23.0	0.00e+00	122	29	0	365953024	44	5772
2026-01-14 12:56:03.17	32.36	10.18	-35.3	-36.3	23.0	0.00e+00	120	29	0	369098752	44	5752
2026-01-14 12:56:04.18	32.47	10.25	-35.2	-36.2	23.1	0.00e+00	123	29	0	372244480	44	5673
2026-01-14 12:56:05.19	32.58	10.32	-35.2	-36.2	23.1	0.00e+00	123	29	0	375390208	44	5699
2026-01-14 12:56:06.20	32.70	10.39	-35.4	-36.4	23.0	0.00e+00	122	29	0	378535936	44	5818
2026-01-14 12:56:07.21	32.81	10.46	-35.1	-36.1	23.2	0.00e+00	122	29	0	381681664	44	5624
2026-01-14 12:56:08.22	32.93	10.53	-35.2	-36.2	23.2	0.00e+00	123	28	0	384827392	44	5660
2026-01-14 12:56:09.23	33.04	10.60	-35.1	-36.1	23.2	0.00e+00	120	29	0	387973120	44	5608
2026-01-14 12:56:10.24	33.16	10.67	-35.0	-36.0	23.3	0.00e+00	123	28	0	391118848	44	5561
2026-01-14 12:56:11.25	33.28	10.74	-35.2	-36.1	23.2	0.00e+00	123	28	0	394264576	44	5639
2026-01-14 12:56:12.25	33.39	10.81	-35.0	-35.9	23.4	0.00e+00	123	28	0	397410304	44	5515
2026-01-14 12:56:13.26	33.51	10.88	-35.0	-35.9	23.3	0.00e+00	123	29	0	400556032	44	5507
2026-01-14 12:56:14.27	33.63	10.95	-34.9	-35.9	23.4	0.00e+00	123	29	0	403701760	44	5500
2026-01-14 12:56:15.28	33.75	11.02	-35.0	-35.9	23.4	0.00e+00	122	29	0	406847488	44	5523
2026-01-14 12:56:16.29	33.87	11.09	-34.9	-35.9	23.5	0.00e+00	120	29	0	409993216	44	5483
2026-01-14 12:56:17.30	33.99	11.16	-34.9	-35.9	23.4	0.00e+00	123	28	0	413138944	44	5487
2026-01-14 12:56:18.31	34.11	11.23	-34.9	-35.8	23.4	0.00e+00	123	29	0	416284672	44	5463
2026-01-14 12:56:19.32	34.23	11.30	-34.8	-35.8	23.5	0.00e+00	123	29	0	419430400	44	5417
2026-01-14 12:56:20.33	34.35	11.37	-34.9	-35.8	23.5	0.00e+00	120	29	0	422576128	44	5462
2026-01-14 12:56:21.34	34.47	11.44	-34.8	-35.7	23.6	0.00e+00	122	29	0	425721856	44	5378
2026-01-14 12:56:22.35	34.60	11.51	-34.9	-35.8	23.4	0.00e+00	122	29	0	428867584	42	6105
2026-01-14 12:56:23.36	34.72	11.58	-34.7	-35.7	23.6	0.00e+00	123	29	0	432013312	42	6010
2026-01-14 12:56:24.37	34.84	11.65	-34.7	-35.6	23.6	0.00e+00	122	28	0	435159040	42	5968
2026-01-14 12:56:25.38	34.97	11.72	-34.8	-35.7	23.5	0.00e+00	120	29	0	438304768	42	6037
2026-01-14 12:56:26.39	35.09	11.79	-34.8	-35.8	23.6	0.00e+00	123	29	0	441450496	42	6077
2026-01-14 12:56:27.40	35.22	11.86	-34.9	-35.8	23.5	0.00e+00	122	29	0	444596224	42	6110
2026-01-14 12:56:28.41	35.35	11.93	-35.1	-36.0	23.5	0.00e+00	123	28	0	447741952	42	6270
2026-01-14 12:56:29.42	35.47	12.00	-34.9	-35.8	23.4	0.00e+00	123	28	0	450887680	42	6113
2026-01-14 12:56:30.43	35.60	12.07	-34.9	-35.9	23.5	0.00e+00	123	28	0	454033408	42	6160
2026-01-14 12:56:31.44	35.73	12.15	-35.1	-36.0	23.5	0.00e+00	121	28	0	457179136	42	6252
2026-01-14 12:56:32.45	35.86	12.22	-34.8	-35.8	23.6	0.00e+00	123	29	0	460324864	42	6082
2026-01-14 12:56:33.46	35.99	12.29	-34.5	-35.4	23.9	0.00e+00	120	29	0	463470592	42	5855
2026-01-14 12:56:34.46	36.12	12.36	-34.5	-35.5	23.8	0.00e+00	122	29	0	466616320	42	5862
2026-01-14 12:56:35.47	36.25	12.43	-34.4	-35.4	23.9	0.00e+00	122	28	0	469762048	42	5795
2026-01-14 12:56:36.48	36.38	12.50	-34.5	-35.4	23.9	0.00e+00	121	29	0	472907776	42	5828
2026-01-14 12:56:37.49	36.51	12.57	-34.4	-35.3	23.9	0.00e+00	123	28	0	476053504	42	5777
2026-01-14 12:56:38.50	36.64	12.65	-34.4	-35.3	24.0	0.00e+00	120	29	0	479199232	42	5747
2026-01-14 12:56:39.51	36.77	12.72	-34.4	-35.3	24.0	0.00e+00	122	29	0	482344960	42	5734
2026-01-14 12:56:40.52	36.91	12.79	-34.5	-35.4	23.9	0.00e+00	123	29	0	485490688	42	5837
2026-01-14 12:56:41.53	37.04	12.86	-34.4	-35.3	23.9	0.00e+00	120	29	0	488636416	42	5751
2026-01-14 12:56:42.54	37.18	12.93	-34.5	-35.4	23.9	0.00e+00	122	29	0	491782144	42	5828
2026-01-14 12:56:43.55	37.31	13.01	-34.3	-35.2	24.0	0.00e+00	120	29	0	494927872	42	5723
2026-01-14 12:56:44.56	37.45	13.08	-34.3	-35.2	24.0	0.00e+00	122	29	0	498073600	42	5695
2026-01-14 12:56:45.56	37.58	13.15	-34.3	-35.2	24.1	0.00e+00	120	29	0	501219328	42	5693
2026-01-14 12:56:46.57	37.72	13.22	-34.4	-35.3	23.9	0.00e+00	122	29	0	504365056	42	5772
2026-01-14 12:56:47.58	37.86	13.30	-34.4	-35.3	24.0	0.00e+00	120	29	0	507510784	42	5781
2026-01-14 12:56:48.59	38.00	13.37	-34.5	-35.4	23.9	0.00e+00	122	28	0	510656512	42	5837
2026-01-14 12:56:49.60	38.14	13.44	-34.5	-35.4	24.0	0.00e+00	123	29	0	513802240	42	5809
2026-01-14 12:56:50.61	38.28	13.51	-34.3	-35.2	24.1	0.00e+00	120	29	0	516947968	42	5696
2026-01-14 12:56:51.62	38.42	13.59	-34.4	-35.3	23.9	0.00e+00	122	28	0	520093696	42	5760
2026-01-14 12:56:52.63	38.56	13.66	-34.3	-35.3	24.1	0.00e+00	123	28	0	523239424	42	5729
2026-01-14 12:56:53.64	38.70	13.73	-34.3	-35.2	24.2	0.00e+00	123	29	0	526385152	42	5670
2026-01-14 12:56:54.65	38.85	13.81	-34.4	-35.3	24.1	0.00e+00	122	29	0	529530880	42	5733
2026-01-14 12:56:55.66	38.99	13.88	-34.4	-35.3	24.0	0.00e+00	123	28	0	532676608	42	5745
2026-01-14 12:56:56.67	39.13	13.95	-34.4	-35.3	23.9	0.00e+00	123	29	0	535822336	42	5778
2026-01-14 12:56:57.68	39.28	14.02	-34.4	-35.4	23.9	0.00e+00	123	29	0	538968064	42	5805
2026-01-14 12:56:58.69	39.42	14.10	-34.4	-35.4	24.0	0.00e+00	123	29	0	542113792	42	5795
2026-01-14 12:56:59.70	39.57	14.17	-34.6	-35.5	23.9	0.00e+00	120	29	0	545259520	42	5882
2026-01-14 12:57:00.70	39.71	14.24	-34.6	-35.5	23.9	0.00e+00	123	29	0	548405248	42	5875
2026-01-14 12:57:01.72	39.86	14.32	-34.5	-35.5	23.9	0.00e+00	123	29	0	551550976	42	5871
2026-01-14 12:57:02.72	40.01	14.39	-34.5	-35.4	23.9	0.00e+00	122	29	0	554696704	42	5841
2026-01-14 12:57:03.73	40.16	14.46	-34.4	-35.3	24.0	0.00e+00	121	29	0	557842432	42	5765
2026-01-14 12:57:04.74	40.31	14.54	-34.4	-35.3	24.0	0.00e+00	123	29	0	560988160	42	5784
2026-01-14 12:57:05.75	40.46	14.61	-34.5	-35.4	24.0	0.00e+00	120	29	0	564133888	42	5809
2026-01-14 12:57:06.76	40.61	14.68	-34.5	-35.4	24.0	0.00e+00	122	29	0	567279616	42	5847
2026-01-14 12:57:07.77	40.76	14.76	-34.5	-35.4	24.0	0.00e+00	123	29	0	571473920	42	5825
2026-01-14 12:57:08.78	40.92	14.83	-34.4	-35.4	24.0	0.00e+00	121	29	0	573571072	42	5803
2026-01-14 12:57:09.79	41.07	14.91	-34.5	-35.4	23.9	0.00e+00	123	29	0	576716800	42	5844
2026-01-14 12:57:10.80	41.22	14.98	-34.5	-35.5	24.0	0.00e+00	120	28	0	579862528	42	5865
2026-01-14 12:57:11.81	41.38	15.05	-34.4	-35.4	24.0	0.00e+00	123	29	0	583008256	42	5801
2026-01-14 12:57:12.82	41.53	15.13	-34.5	-35.4	24.0	0.00e+00	122	28	0	586153984	42	5849
2026-01-14 12:57:13.83	41.69	15.20	-34.4	-35.4	24.0	0.00e+00	122	28	0	590348288	42	5796
2026-01-14 12:57:14.84	41.85	15.27	-34.5	-35.4	24.0	0.00e+00	120	29	0	593494016	42	5811
2026-01-14 12:57:15.84	42.00	15.35	-34.5	-35.4	24.0	0.00e+00	123	29	0	595591168	42	5797
2026-01-14 12:57:16.85	42.16	15.42	-34.5	-35.4	24.0	0.00e+00	122	29	0	598736896	42	5819
2026-01-14 12:57:17.86	42.32	15.50	-34.5	-35.4	23.9	0.00e+00	122	29	0	601882624	42	5841
2026-01-14 12:57:18.87	42.48	15.57	-34.5	-35.4	23.9	0.00e+00	122	29	0	606076928	42	5849
2026-01-14 12:57:19.88	42.64	15.64	-34.4	-35.3	24.0	0.00e+00	120	29	0	609222656	42	5779
2026-01-14 12:57:20.89	42.80	15.72	-34.4	-35.3	23.9	0.00e+00	123	29	0	612368384	42	5788
2026-01-14 12:57:21.90	42.97	15.79	-34.4	-35.3	24.0	0.00e+00	123	29	0	615514112	42	5764
2026-01-14 12:57:22.91	43.13	15.87	-34.4	-35.4	24.0	0.00e+00	123	29	0	618659840	42	5794
2026-01-14 12:57:23.92	43.29	15.94	-34.5	-35.5	23.9	0.00e+00	121	29	0	621805568	42	5866
2026-01-14 12:57:24.93	43.46	16.01	-34.6	-35.5	23.9	0.00e+00	122	29	0	624951296	42	5887
2026-01-14 12:57:25.94	43.62	16.09	-34.6	-35.6	23.9	0.00e+00	120	29	0	628097024	42	5945
2026-01-14 12:57:26.95	43.79	16.16	-34.6	-35.5	23.9	0.00e+00	123	29	0	631242752	42	5917
2026-01-14 12:57:27.96	43.96	16.24	-34.6	-35.6	23.9	0.00e+00	123	29	0	634388480	42	5935
2026-01-14 12:57:28.97	44.13	16.31	-34.6	-35.6	23.8	0.00e+00	123	29	0	637534208	42	5945
2026-01-14 12:57:29.98	44.29	16.38	-34.6	-35.6	23.9	0.00e+00	121	29	0	640679936	42	5931
2026-01-14 12:57:30.98	44.46	16.46	-34.6	-35.5	23.9	0.00e+00	122	29	0	643825664	42	5882
2026-01-14 12:57:31.99	44.63	16.53	-34.6	-35.5	23.9	0.00e+00	120	29	0	646971392	42	5919
2026-01-14 12:57:33.00	44.80	16.60	-34.6	-35.5	23.9	0.00e+00	122	29	0	650117120	42	5909
2026-01-14 12:57:34.01	44.98	16.68	-34.5	-35.4	24.0	0.00e+00	123	29	0	653262848	42	5810
2026-01-14 12:57:35.02	45.15	16.75	-34.5	-35.4	24.0	0.00e+00	123	29	0	656408576	42	5819
2026-01-14 12:57:36.03	45.32	16.83	-34.5	-35.4	23.9	0.00e+00	120	29	0	659554304	42	5858
2026-01-14 12:57:37.04	45.50	16.90	-34.5	-35.4	24.0	0.00e+00	123	29	0	662700032	42	5825
2026-01-14 12:57:38.05	45.67	16.97	-34.5	-35.4	24.1	0.00e+00	122	29	0	665845760	42	5800
2026-01-14 12:57:39.06	45.85	17.05	-34.5	-35.4	24.0	0.00e+00	123	29	0	668991488	42	5834
2026-01-14 12:57:40.07	46.03	17.12	-34.4	-35.3	24.1	0.00e+00	120	29	0	672137216	42	5757
2026-01-14 12:57:41.08	46.20	17.20	-34.4	-35.3	24.0	0.00e+00	122	29	0	675282944	42	5783
2026-01-14 12:57:42.09	46.38	17.27	-34.4	-35.4	24.0	0.00e+00	122	29	0	678428672	42	5799
2026-01-14 12:57:43.10	46.56	17.34	-34.3	-35.2	24.2	0.00e+00	120	29	0	681574400	42	5674
2026-01-14 12:57:44.11	46.74	17.42	-34.2	-35.1	24.3	0.00e+00	123	29	0	684720128	42	5614
2026-01-14 12:57:45.12	46.92	17.49	-34.2	-35.1	24.2	0.00e+00	123	29	0	687865856	42	5652
2026-01-14 12:57:46.13	47.11	17.56	-34.2	-35.1	24.2	0.00e+00	123	29	0	691011584	42	5652
2026-01-14 12:57:47.14	47.29	17.64	-34.2	-35.1	24.3	0.00e+00	122	29	0	694157312	42	5619
2026-01-14 12:57:48.15	47.47	17.71	-34.3	-35.2	24.2	0.00e+00	120	29	0	697303040	42	5706
2026-01-14 12:57:49.15	47.66	17.78	-34.4	-35.3	24.2	0.00e+00	122	29	0	700448768	42	5742
2026-01-14 12:57:50.16	47.84	17.86	-34.3	-35.3	24.2	0.00e+00	120	29	0	703594496	42	5729
2026-01-14 12:57:51.17	48.03	17.93	-34.4	-35.3	24.2	0.00e+00	123	29	0	706740224	42	5742
2026-01-14 12:57:52.18	48.22	18.00	-34.4	-35.3	24.1	0.00e+00	120	28	0	709885952	42	5763
2026-01-14 12:57:53.19	48.40	18.08	-34.5	-35.4	24.1	0.00e+00	122	29	0	713031680	42	5807
2026-01-14 12:57:54.20	48.59	18.15	-34.2	-35.1	24.2	0.00e+00	123	29	0	716177408	42	5643
2026-01-14 12:57:55.21	48.78	18.22	-34.2	-35.1	24.2	0.00e+00	123	29	0	719323136	42	5649
2026-01-14 12:57:56.22	48.97	18.30	-34.3	-35.2	24.2	0.00e+00	120	29	0	722468864	42	5673
2026-01-14 12:57:57.23	49.17	18.37	-34.2	-35.0	24.4	0.00e+00	123	29	0	725614592	42	5586
2026-01-14 12:57:58.24	49.36	18.44	-34.1	-35.0	24.3	0.00e+00	123	29	0	728760320	42	5546
2026-01-14 12:57:59.25	49.55	18.51	-34.2	-35.1	24.3	0.00e+00	122	29	0	731906048	42	5622
2026-01-14 12:58:00.26	49.75	18.59	-34.2	-35.1	24.2	0.00e+00	123	29	0	735051776	42	5635
2026-01-14 12:58:01.27	49.94	18.66	-34.2	-35.1	24.3	0.00e+00	123	29	0	738197504	42	5646
2026-01-14 12:58:02.28	50.14	18.73	-34.2	-35.2	24.2	0.00e+00	121	29	0	741343232	42	5664
2026-01-14 12:58:03.29	50.34	18.80	-34.4	-35.3	24.1	0.00e+00	122	29	0	744488960	42	5737
2026-01-14 12:58:04.30	50.53	18.87	-34.4	-35.3	24.1	0.00e+00	120	29	0	747634688	42	5768
2026-01-14 12:58:05.31	50.73	18.95	-34.3	-35.2	24.2	0.00e+00	121	29	0	750780416	42	5721
2026-01-14 12:58:06.32	50.93	19.02	-34.3	-35.2	24.2	0.00e+00	123	29	0	753926144	42	5713
2026-01-14 12:58:07.33	51.13	19.09	-34.4	-35.3	24.2	0.00e+00	122	29	0	757071872	42	5743
2026-01-14 12:58:08.34	51.34	19.16	-34.3	-35.2	24.2	0.00e+00	123	29	0	760217600	42	5715
2026-01-14 12:58:09.35	51.54	19.23	-34.4	-35.3	24.2	0.00e+00	123	29	0	763363328	42	5737
2026-01-14 12:58:10.36	51.74	19.30	-34.4	-35.3	24.1	0.00e+00	122	29	0	766509056	42	5755
2026-01-14 12:58:11.37	51.95	19.38	-34.5	-35.4	24.1	0.00e+00	123	29	0	769654784	42	5803
2026-01-14 12:58:12.38	52.15	19.45	-34.4	-35.3	24.1	0.00e+00	123	29	0	772800512	42	5743
2026-01-14 12:58:13.39	52.36	19.52	-34.6	-35.6	24.0	0.00e+00	123	29	0	775946240	42	5935
2026-01-14 12:58:14.40	52.57	19.59	-34.5	-35.4	24.0	0.00e+00	122	29	0	779091968	42	5836
2026-01-14 12:58:15.41	52.77	19.66	-34.7	-35.6	23.8	0.00e+00	122	29	0	782237696	42	5985
2026-01-14 12:58:16.42	52.98	19.73	-34.4	-35.3	24.1	0.00e+00	123	29	0	785383424	42	5790
2026-01-14 12:58:17.43	53.19	19.80	-34.5	-35.4	24.0	0.00e+00	122	29	0	788529152	42	5815
2026-01-14 12:58:18.43	53.40	19.87	-34.4	-35.4	24.1	0.00e+00	123	29	0	791674880	42	5792
2026-01-14 12:58:19.44	53.62	19.94	-34.4	-35.3	24.1	0.00e+00	123	29	0	794820608	42	5786
2026-01-14 12:58:20.45	53.83	20.01	-34.5	-35.4	24.1	0.00e+00	123	29	0	797966336	42	5813
2026-01-14 12:58:21.46	54.04	20.08	-34.3	-35.3	24.2	0.00e+00	122	29	0	801112064	42	5733
2026-01-14 12:58:22.47	54.26	20.15	-34.5	-35.4	24.1	0.00e+00	123	29	0	804257792	42	5855
2026-01-14 12:58:23.48	54.47	20.21	-34.5	-35.4	24.1	0.00e+00	123	29	0	807403520	42	5834
2026-01-14 12:58:24.49	54.69	20.28	-34.4	-35.3	24.1	0.00e+00	121	29	0	810549248	42	5768
2026-01-14 12:58:25.50	54.91	20.35	-34.4	-35.3	24.1	0.00e+00	122	29	0	813694976	42	5773
2026-01-14 12:58:26.51	55.13	20.42	-34.4	-35.3	24.1	0.00e+00	122	29	0	816840704	42	5764
2026-01-14 12:58:27.52	55.35	20.49	-34.3	-35.2	24.2	0.00e+00	122	29	0	819986432	42	5670
2026-01-14 12:58:28.53	55.57	20.56	-34.2	-35.1	24.3	0.00e+00	123	29	0	823132160	42	5600
2026-01-14 12:58:29.54	55.79	20.62	-34.2	-35.1	24.2	0.00e+00	122	29	0	826277888	42	5644
2026-01-14 12:58:30.55	56.01	20.69	-34.2	-35.1	24.3	0.00e+00	122	29	0	829423616	42	5629
2026-01-14 12:58:31.56	56.23	20.76	-34.4	-35.3	24.1	0.00e+00	123	29	0	832569344	42	5749
2026-01-14 12:58:32.57	56.46	20.83	-34.3	-35.2	24.1	0.00e+00	122	29	0	835715072	42	5712
2026-01-14 12:58:33.58	56.68	20.89	-34.4	-35.3	24.0	0.00e+00	123	29	0	838860800	42	5780
2026-01-14 12:58:34.59	56.91	20.96	-34.4	-35.3	24.1	0.00e+00	122	29	0	842006528	42	5747
2026-01-14 12:58:35.60	57.14	21.02	-34.5	-35.5	24.0	0.00e+00	123	29	0	845152256	42	5885
2026-01-14 12:58:36.60	57.36	21.09	-34.2	-35.1	24.2	0.00e+00	123	29	0	848297984	42	5656
2026-01-14 12:58:37.61	57.59	21.16	-34.2	-35.1	24.3	0.00e+00	122	29	0	851443712	42	5603
2026-01-14 12:58:38.62	57.82	21.22	-34.0	-34.9	24.4	0.00e+00	123	29	0	854589440	42	5477
2026-01-14 12:58:39.63	58.06	21.29	-34.1	-35.0	24.3	0.00e+00	123	29	0	857735168	42	5566
2026-01-14 12:58:40.64	58.29	21.35	-33.8	-34.7	24.5	0.00e+00	123	29	0	860880896	42	5390
2026-01-14 12:58:41.65	58.52	21.41	-33.7	-34.6	24.6	0.00e+00	120	29	0	864026624	42	5323
2026-01-14 12:58:42.66	58.75	21.48	-33.7	-34.5	24.6	0.00e+00	120	29	0	867172352	40	5922
2026-01-14 12:58:43.67	58.99	21.54	-33.7	-34.6	24.6	0.00e+00	123	29	0	870318080	40	5976
2026-01-14 12:58:44.68	59.23	21.61	-33.9	-34.9	24.4	0.00e+00	123	29	0	873463808	40	6137
2026-01-14 12:58:45.69	59.46	21.67	-33.9	-34.8	24.4	0.00e+00	123	29	0	876609536	40	6120
2026-01-14 12:58:46.70	59.70	21.73	-33.9	-34.8	24.5	0.00e+00	120	29	0	879755264	40	6091
2026-01-14 12:58:47.71	59.94	21.79	-34.0	-34.9	24.4	0.00e+00	123	29	0	882900992	40	6166
2026-01-14 12:58:48.72	60.18	21.86	-34.0	-34.9	24.4	0.00e+00	123	29	0	886046720	40	6137
2026-01-14 12:58:49.73	60.42	21.92	-33.9	-34.8	24.5	0.00e+00	123	29	0	889192448	40	6095
2026-01-14 12:58:50.74	60.66	21.98	-33.8	-34.6	24.7	0.00e+00	123	29	0	892338176	40	5994
2026-01-14 12:58:51.75	60.90	22.04	-33.7	-34.6	24.7	0.00e+00	120	29	0	895483904	40	5950
2026-01-14 12:58:52.76	61.15	22.10	-33.8	-34.7	24.6	0.00e+00	122	29	0	898629632	40	6002
2026-01-14 12:58:53.77	61.39	22.16	-33.8	-34.7	24.6	0.00e+00	121	28	0	901775360	40	6007
2026-01-14 12:58:54.78	61.64	22.22	-33.9	-34.8	24.5	0.00e+00	123	29	0	904921088	40	6111
2026-01-14 12:58:55.79	61.88	22.28	-33.8	-34.8	24.6	0.00e+00	120	29	0	908066816	40	6069
2026-01-14 12:58:56.79	62.13	22.34	-33.9	-34.8	24.5	0.00e+00	123	29	0	911212544	40	6089
2026-01-14 12:58:57.80	62.38	22.40	-33.9	-34.7	24.6	0.00e+00	120	29	0	914358272	40	6064
2026-01-14 12:58:58.81	62.62	22.46	-33.8	-34.7	24.7	0.00e+00	123	29	0	917504000	40	6003
2026-01-14 12:58:59.82	62.87	22.51	-33.6	-34.5	24.8	0.00e+00	122	29	0	920649728	40	5899
2026-01-14 12:59:00.83	63.13	22.57	-33.6	-34.5	24.7	0.00e+00	123	29	0	923795456	40	5873
2026-01-14 12:59:01.84	63.38	22.63	-33.6	-34.5	24.7	0.00e+00	123	29	0	926941184	40	5884
2026-01-14 12:59:02.85	63.63	22.68	-33.6	-34.5	24.7	0.00e+00	123	29	0	930086912	40	5891
2026-01-14 12:59:03.86	63.88	22.74	-33.7	-34.5	24.7	0.00e+00	123	29	0	933232640	40	5926
2026-01-14 12:59:04.87	64.14	22.80	-33.8	-34.7	24.6	0.00e+00	123	29	0	936378368	40	6022
2026-01-14 12:59:05.87	64.39	22.85	-33.7	-34.6	24.7	0.00e+00	122	29	0	939524096	40	5958
2026-01-14 12:59:06.88	64.65	22.91	-33.9	-34.8	24.7	0.00e+00	123	29	0	942669824	40	6066
2026-01-14 12:59:07.89	64.90	22.96	-33.8	-34.7	24.6	0.00e+00	120	29	0	945815552	40	6045
2026-01-14 12:59:08.90	65.16	23.01	-33.7	-34.6	24.7	0.00e+00	123	29	0	948961280	40	5973
2026-01-14 12:59:09.91	65.42	23.07	-33.8	-34.6	24.7	0.00e+00	122	29	0	952107008	40	5975
2026-01-14 12:59:10.92	65.68	23.12	-33.7	-34.6	24.7	0.00e+00	122	29	0	956301312	40	5952
2026-01-14 12:59:11.93	65.94	23.17	-33.6	-34.5	24.8	0.00e+00	120	29	0	959447040	40	5872
2026-01-14 12:59:12.94	66.20	23.22	-33.8	-34.7	24.5	0.00e+00	123	29	0	961544192	40	6016
2026-01-14 12:59:13.95	66.46	23.28	-33.9	-34.8	24.5	0.00e+00	122	29	0	964689920	40	6109
2026-01-14 12:59:14.96	66.73	23.33	-34.0	-34.8	24.4	0.00e+00	123	29	0	967835648	40	6127
2026-01-14 12:59:15.97	66.99	23.38	-34.0	-34.9	24.5	0.00e+00	122	29	0	972029952	40	6173
2026-01-14 12:59:16.98	67.26	23.43	-34.0	-34.9	24.5	0.00e+00	123	29	0	975175680	40	6193
2026-01-14 12:59:17.99	67.52	23.48	-34.1	-35.0	24.5	0.00e+00	123	29	0	978321408	40	6206
2026-01-14 12:59:19.00	67.79	23.52	-33.9	-34.7	24.6	0.00e+00	122	29	0	981467136	40	6060
2026-01-14 12:59:20.01	68.06	23.57	-33.8	-34.7	24.6	0.00e+00	120	29	0	983564288	40	6045
2026-01-14 12:59:21.02	68.32	23.62	-33.8	-34.7	24.7	0.00e+00	122	29	0	986710016	40	6034
2026-01-14 12:59:22.02	68.59	23.67	-34.0	-34.9	24.6	0.00e+00	123	29	0	990904320	40	6136
2026-01-14 12:59:23.03	68.86	23.71	-34.1	-35.0	24.3	0.00e+00	123	29	0	994050048	40	6217
2026-01-14 12:59:24.04	69.13	23.76	-34.0	-34.9	24.5	0.00e+00	123	29	0	997195776	40	6182
2026-01-14 12:59:25.05	69.40	23.81	-34.0	-34.9	24.5	0.00e+00	122	29	0	1000341504	40	6161
2026-01-14 12:59:26.06	69.67	23.85	-33.9	-34.8	24.6	0.00e+00	123	29	0	1003487232	40	6099
2026-01-14 12:59:27.07	69.95	23.89	-33.9	-34.8	24.6	0.00e+00	123	29	0	1006632960	40	6109
2026-01-14 12:59:28.08	70.22	23.94	-33.9	-34.8	24.6	0.00e+00	123	29	0	1009778688	40	6070
2026-01-14 12:59:29.09	70.49	23.98	-33.7	-34.6	24.7	0.00e+00	122	29	0	1012924416	40	5966
2026-01-14 12:59:30.10	70.77	24.02	-33.7	-34.6	24.6	0.00e+00	123	29	0	1016070144	40	5962
2026-01-14 12:59:31.11	71.04	24.07	-33.8	-34.6	24.7	0.00e+00	123	29	0	1019215872	40	5991
2026-01-14 12:59:32.12	71.32	24.11	-33.7	-34.6	24.7	0.00e+00	122	29	0	1022361600	40	5982
2026-01-14 12:59:33.13	71.60	24.15	-33.8	-34.7	24.7	0.00e+00	123	29	0	1025507328	40	6048
2026-01-14 12:59:34.14	71.88	24.19	-33.8	-34.7	24.7	0.00e+00	122	29	0	1028653056	40	6006
2026-01-14 12:59:35.15	72.15	24.23	-33.7	-34.6	24.7	0.00e+00	123	29	0	1031798784	40	5991
2026-01-14 12:59:36.15	72.43	24.27	-33.7	-34.6	24.7	0.00e+00	123	29	0	1034944512	40	5959
2026-01-14 12:59:37.16	72.71	24.30	-33.7	-34.6	24.7	0.00e+00	123	29	0	1038090240	40	5983
2026-01-14 12:59:38.17	72.99	24.34	-33.7	-34.6	24.7	0.00e+00	122	29	0	1041235968	40	5984
2026-01-14 12:59:39.18	73.27	24.38	-33.8	-34.7	24.6	0.00e+00	122	29	0	1044381696	40	6020
2026-01-14 12:59:40.19	73.55	24.41	-33.7	-34.6	24.7	0.00e+00	120	29	0	1047527424	40	5961
2026-01-14 12:59:41.20	73.84	24.45	-33.6	-34.5	24.8	0.00e+00	123	29	0	1050673152	40	5904
2026-01-14 12:59:42.21	74.12	24.48	-33.6	-34.5	24.9	0.00e+00	122	29	0	1053818880	40	5881
2026-01-14 12:59:43.22	74.40	24.52	-33.6	-34.5	24.8	0.00e+00	123	29	0	1056964608	40	5863
2026-01-14 12:59:44.23	74.69	24.55	-33.4	-34.3	24.9	0.00e+00	122	29	0	1060110336	40	5757
2026-01-14 12:59:45.24	74.97	24.58	-33.5	-34.4	24.8	0.00e+00	120	29	0	1063256064	40	5849
2026-01-14 12:59:46.25	75.26	24.62	-33.6	-34.5	24.8	0.00e+00	123	29	0	1066401792	40	5894
2026-01-14 12:59:47.26	75.55	24.65	-33.6	-34.5	24.8	0.00e+00	122	29	0	1069547520	40	5900
2026-01-14 12:59:48.27	75.83	24.68	-33.6	-34.5	24.8	0.00e+00	120	29	0	1072693248	40	5915
2026-01-14 12:59:49.28	76.12	24.71	-33.6	-34.4	24.9	0.00e+00	122	29	0	1075838976	40	5852
2026-01-14 12:59:50.29	76.41	24.74	-33.5	-34.4	24.9	0.00e+00	123	29	0	1078984704	40	5795
2026-01-14 12:59:51.30	76.70	24.77	-33.4	-34.2	25.0	0.00e+00	120	29	0	1082130432	40	5712
2026-01-14 12:59:52.31	76.98	24.79	-33.3	-34.2	25.0	0.00e+00	123	29	0	1085276160	40	5663
2026-01-14 12:59:53.32	77.27	24.82	-33.4	-34.3	24.9	0.00e+00	121	29	0	1088421888	40	5748
2026-01-14 12:59:54.33	77.56	24.85	-33.4	-34.3	25.0	0.00e+00	123	29	0	1091567616	40	5726
2026-01-14 12:59:55.34	77.85	24.87	-33.4	-34.2	25.0	0.00e+00	123	29	0	1094713344	40	5706
2026-01-14 12:59:56.35	78.14	24.90	-33.4	-34.3	25.0	0.00e+00	120	29	0	1097859072	40	5765
2026-01-14 12:59:57.36	78.44	24.92	-33.2	-34.0	25.1	0.00e+00	122	29	0	1101004800	40	5593
2026-01-14 12:59:58.37	78.73	24.95	-33.3	-34.2	24.9	0.00e+00	122	29	0	1104150528	40	5676
2026-01-14 12:59:59.38	79.02	24.97	-33.3	-34.2	24.9	0.00e+00	123	29	0	1107296256	40	5689
2026-01-14 13:00:00.39	79.31	24.99	-33.4	-34.2	24.8	0.00e+00	122	29	0	1110441984	40	5707
2026-01-14 13:00:01.39	79.60	25.01	-33.4	-34.3	24.8	0.00e+00	122	29	0	1113587712	40	5745
2026-01-14 13:00:02.40	79.89	25.03	-33.2	-34.1	25.0	0.00e+00	123	29	0	1116733440	40	5637
2026-01-14 13:00:03.41	80.19	25.05	-33.3	-34.2	25.0	0.00e+00	123	29	0	1119879168	40	5692
2026-01-14 13:00:04.42	80.48	25.07	-33.1	-34.0	25.1	0.00e+00	123	29	0	1123024896	40	5567
2026-01-14 13:00:05.43	80.78	25.09	-33.3	-34.1	25.0	0.00e+00	123	29	0	1126170624	40	5654
2026-01-14 13:00:06.44	81.07	25.11	-33.3	-34.2	24.9	0.00e+00	122	29	0	1129316352	40	5677
2026-01-14 13:00:07.45	81.37	25.12	-33.4	-34.3	24.6	0.00e+00	121	29	0	1132462080	40	5779
2026-01-14 13:00:08.46	81.66	25.14	-33.7	-34.6	24.7	0.00e+00	123	29	0	1135607808	40	5939
2026-01-14 13:00:09.47	81.96	25.15	-33.9	-34.8	24.6	0.00e+00	123	29	0	1138753536	40	6072
2026-01-14 13:00:10.48	82.25	25.17	-33.7	-34.6	24.7	0.00e+00	123	29	0	1141899264	40	5949
2026-01-14 13:00:11.49	82.55	25.18	-33.7	-34.5	24.7	0.00e+00	123	29	0	1145044992	40	5923
2026-01-14 13:00:12.50	82.85	25.19	-33.4	-34.3	24.8	0.00e+00	123	29	0	1148190720	40	5751
2026-01-14 13:00:13.51	83.14	25.21	-33.6	-34.5	24.7	0.00e+00	123	29	0	1151336448	40	5865
2026-01-14 13:00:14.52	83.44	25.22	-33.6	-34.5	24.7	0.00e+00	123	29	0	1154482176	40	5875
2026-01-14 13:00:15.53	83.74	25.23	-33.4	-34.3	24.9	0.00e+00	123	29	0	1157627904	40	5778
2026-01-14 13:00:16.54	84.03	25.24	-33.4	-34.3	25.0	0.00e+00	123	29	0	1160773632	40	5767
2026-01-14 13:00:17.55	84.33	25.25	-33.8	-34.7	24.8	0.00e+00	123	29	0	1163919360	40	6000
2026-01-14 13:00:18.55	84.62	25.25	-33.4	-34.2	25.0	0.00e+00	123	29	0	1167065088	40	5717
2026-01-14 13:00:19.56	84.92	25.26	-33.2	-34.1	25.0	0.00e+00	123	29	0	1170210816	40	5636
2026-01-14 13:00:20.57	85.22	25.27	-33.1	-34.0	25.1	0.00e+00	123	29	0	1173356544	40	5539
2026-01-14 13:00:21.58	85.52	25.27	-33.2	-34.1	24.9	0.00e+00	123	29	0	1176502272	40	5630
2026-01-14 13:00:22.59	85.82	25.28	-33.4	-34.3	24.9	0.00e+00	122	29	0	1179648000	40	5756
2026-01-14 13:00:23.60	86.11	25.28	-33.4	-34.3	24.9	0.00e+00	122	29	0	1182793728	40	5727
2026-01-14 13:00:24.61	86.41	25.28	-33.4	-34.3	24.9	0.00e+00	123	29	0	1185939456	40	5739
2026-01-14 13:00:25.62	86.71	25.29	-33.4	-34.2	24.9	0.00e+00	123	29	0	1189085184	40	5706
2026-01-14 13:00:26.63	87.01	25.29	-33.3	-34.2	24.9	0.00e+00	122	29	0	1192230912	40	5696
2026-01-14 13:00:27.64	87.31	25.29	-33.3	-34.2	25.0	0.00e+00	122	29	0	1195376640	40	5679
2026-01-14 13:00:28.65	87.61	25.29	-33.4	-34.2	24.9	0.00e+00	123	29	0	1198522368	40	5719
2026-01-14 13:00:29.66	87.90	25.29	-33.3	-34.2	24.9	0.00e+00	122	29	0	1201668096	40	5683
2026-01-14 13:00:30.67	88.20	25.29	-33.2	-34.1	25.0	0.00e+00	122	29	0	1204813824	40	5620
2026-01-14 13:00:31.68	88.50	25.28	-33.3	-34.1	24.9	0.00e+00	123	29	0	1207959552	40	5647
2026-01-14 13:00:32.69	88.80	25.28	-33.2	-34.1	25.0	0.00e+00	122	29	0	1211105280	40	5638
2026-01-14 13:00:33.70	89.10	25.28	-33.2	-34.1	25.1	0.00e+00	122	29	0	1214251008	40	5611
2026-01-14 13:00:34.71	89.39	25.27	-33.3	-34.2	25.1	0.00e+00	123	29	0	1217396736	40	5665
2026-01-14 13:00:35.71	89.69	25.26	-33.4	-34.3	25.0	0.00e+00	122	29	0	1220542464	40	5747
2026-01-14 13:00:36.72	89.99	25.26	-33.3	-34.2	25.1	0.00e+00	123	29	0	1223688192	40	5679
2026-01-14 13:00:37.73	90.29	25.25	-33.2	-34.0	25.1	0.00e+00	123	29	0	1226833920	40	5566
2026-01-14 13:00:38.74	90.58	25.24	-33.1	-34.0	25.1	0.00e+00	122	29	0	1229979648	40	5551
2026-01-14 13:00:39.76	90.88	25.23	-33.1	-34.0	25.1	0.00e+00	123	29	0	1233125376	40	5561
2026-01-14 13:00:40.77	91.18	25.22	-33.2	-34.1	25.0	0.00e+00	118	29	0	1236271104	40	5612
2026-01-14 13:00:41.77	91.47	25.21	-33.4	-34.3	25.1	0.00e+00	123	29	0	1239416832	40	5736
2026-01-14 13:00:42.78	91.77	25.20	-33.5	-34.3	24.9	0.00e+00	123	29	0	1242562560	40	5777
2026-01-14 13:00:43.79	92.07	25.19	-33.3	-34.2	25.0	0.00e+00	123	29	0	1245708288	40	5708
2026-01-14 13:00:44.80	92.37	25.18	-33.4	-34.3	25.0	0.00e+00	122	29	0	1248854016	40	5747
2026-01-14 13:00:45.81	92.66	25.16	-33.3	-34.2	25.0	0.00e+00	122	29	0	1251999744	40	5675
2026-01-14 13:00:46.82	92.96	25.15	-33.4	-34.3	24.8	0.00e+00	120	29	0	1255145472	40	5730
2026-01-14 13:00:47.83	93.25	25.13	-33.5	-34.4	24.8	0.00e+00	122	29	0	1258291200	40	5792
2026-01-14 13:00:48.84	93.55	25.12	-33.5	-34.4	24.8	0.00e+00	123	29	0	1261436928	40	5844
2026-01-14 13:00:49.85	93.84	25.10	-33.3	-34.2	25.0	0.00e+00	123	29	0	1264582656	40	5706
2026-01-14 13:00:50.86	94.14	25.08	-33.4	-34.3	25.0	0.00e+00	123	29	0	1267728384	40	5732
2026-01-14 13:00:51.87	94.43	25.06	-33.2	-34.0	25.1	0.00e+00	122	29	0	1270874112	40	5572
2026-01-14 13:00:52.88	94.73	25.05	-33.1	-34.0	25.1	0.00e+00	122	29	0	1274019840	40	5560
2026-01-14 13:00:53.89	95.02	25.03	-33.3	-34.1	24.9	0.00e+00	122	29	0	1277165568	40	5646
2026-01-14 13:00:54.90	95.31	25.00	-33.2	-34.1	25.0	0.00e+00	120	29	0	1280311296	40	5605
2026-01-14 13:00:55.90	95.60	24.98	-33.5	-34.4	24.8	0.00e+00	123	29	0	1283457024	40	5805
2026-01-14 13:00:56.91	95.90	24.96	-33.5	-34.3	24.9	0.00e+00	120	29	0	1286602752	40	5780
2026-01-14 13:00:57.92	96.19	24.94	-33.4	-34.3	24.9	0.00e+00	120	29	0	1289748480	40	5738
2026-01-14 13:00:58.93	96.48	24.91	-33.6	-34.5	24.8	0.00e+00	123	29	0	1292894208	40	5877
2026-01-14 13:00:59.94	96.77	24.89	-33.6	-34.5	24.7	0.00e+00	123	29	0	1296039936	40	5895
2026-01-14 13:01:00.95	97.06	24.86	-33.7	-34.5	24.7	0.00e+00	120	29	0	1299185664	40	5923
2026-01-14 13:01:01.96	97.35	24.84	-33.3	-34.2	24.9	0.00e+00	123	29	0	1302331392	40	5667
2026-01-14 13:01:02.97	97.65	24.81	-33.2	-34.1	25.0	0.00e+00	122	29	0	1305477120	40	5612
2026-01-14 13:01:03.98	97.93	24.78	-33.2	-34.1	25.1	0.00e+00	120	29	0	1308622848	40	5628
2026-01-14 13:01:04.98	98.22	24.76	-33.3	-34.2	25.0	0.00e+00	120	29	0	1311768576	40	5684
2026-01-14 13:01:05.99	98.51	24.73	-33.4	-34.3	24.9	0.00e+00	123	29	0	1314914304	40	5758
2026-01-14 13:01:07.01	98.80	24.70	-33.3	-34.2	25.0	0.00e+00	121	29	0	1318060032	40	5671
2026-01-14 13:01:08.01	99.09	24.67	-33.5	-34.4	24.9	0.00e+00	123	29	0	1321205760	40	5832
2026-01-14 13:01:09.02	99.37	24.64	-33.4	-34.3	24.8	0.00e+00	123	29	0	1324351488	40	5766
2026-01-14 13:01:10.03	99.66	24.61	-33.5	-34.4	24.9	0.00e+00	120	29	0	1327497216	40	5818
2026-01-14 13:01:11.04	99.94	24.57	-33.6	-34.5	24.8	0.00e+00	120	29	0	1330642944	40	5868
2026-01-14 13:01:12.05	100.23	24.54	-33.3	-34.2	25.0	0.00e+00	122	29	0	1333788672	40	5700
2026-01-14 13:01:13.06	100.51	24.51	-33.4	-34.2	24.9	0.00e+00	120	29	0	1336934400	40	5720
2026-01-14 13:01:14.07	100.80	24.47	-33.4	-34.3	25.0	0.00e+00	123	29	0	1341128704	40	5768
2026-01-14 13:01:15.08	101.08	24.44	-33.5	-34.4	24.9	0.00e+00	123	29	0	1344274432	40	5825
2026-01-14 13:01:16.09	101.37	24.40	-33.4	-34.3	24.9	0.00e+00	120	29	0	1347420160	40	5765
2026-01-14 13:01:17.10	101.65	24.36	-33.6	-34.5	24.9	0.00e+00	123	29	0	1349517312	40	5889
2026-01-14 13:01:18.12	101.93	24.33	-33.5	-34.3	25.0	0.00e+00	120	29	0	1352663040	40	5774
2026-01-14 13:01:19.13	102.21	24.29	-33.6	-34.5	24.8	0.00e+00	122	29	0	1356857344	40	5877
2026-01-14 13:01:20.13	102.49	24.25	-33.8	-34.7	24.7	0.00e+00	123	29	0	1360003072	40	5995
2026-01-14 13:01:21.14	102.77	24.21	-33.6	-34.5	24.7	0.00e+00	123	29	0	1363148800	40	5914
2026-01-14 13:01:22.15	103.05	24.17	-33.7	-34.6	24.7	0.00e+00	121	29	0	1366294528	40	5950
2026-01-14 13:01:23.16	103.33	24.13	-33.7	-34.6	24.8	0.00e+00	123	29	0	1369440256	40	5934
2026-01-14 13:01:24.17	103.61	24.09	-33.7	-34.6	24.7	0.00e+00	122	29	0	1372585984	40	5933
2026-01-14 13:01:25.18	103.88	24.05	-33.5	-34.4	24.8	0.00e+00	123	29	0	1375731712	40	5839
2026-01-14 13:01:26.19	104.16	24.01	-33.6	-34.4	24.8	0.00e+00	123	29	0	1378877440	40	5848
2026-01-14 13:01:27.20	104.43	23.96	-33.6	-34.5	24.8	0.00e+00	122	29	0	1382023168	40	5895
2026-01-14 13:01:28.21	104.71	23.92	-33.5	-34.4	24.9	0.00e+00	120	29	0	1385168896	40	5831
2026-01-14 13:01:29.22	104.98	23.88	-33.7	-34.6	24.7	0.00e+00	123	29	0	1388314624	40	5935
2026-01-14 13:01:30.22	105.25	23.83	-33.7	-34.6	24.8	0.00e+00	123	29	0	1391460352	40	5950
2026-01-14 13:01:31.23	105.53	23.79	-33.5	-34.4	24.9	0.00e+00	123	29	0	1394606080	40	5837
2026-01-14 13:01:32.24	105.80	23.74	-33.7	-34.6	24.7	0.00e+00	122	29	0	1397751808	40	5970
2026-01-14 13:01:33.25	106.07	23.70	-33.7	-34.6	24.8	0.00e+00	122	29	0	1400897536	40	5931
2026-01-14 13:01:34.26	106.34	23.65	-33.5	-34.4	24.8	0.00e+00	123	29	0	1404043264	40	5821
2026-01-14 13:01:35.27	106.61	23.60	-33.6	-34.5	24.9	0.00e+00	123	29	0	1407188992	40	5860
2026-01-14 13:01:36.29	106.88	23.55	-33.6	-34.5	24.8	0.00e+00	123	29	0	1410334720	40	5889
2026-01-14 13:01:37.29	107.14	23.50	-33.7	-34.6	24.8	0.00e+00	122	29	0	1413480448	40	5932
2026-01-14 13:01:38.30	107.41	23.45	-33.7	-34.5	24.8	0.00e+00	122	29	0	1416626176	40	5911
2026-01-14 13:01:39.32	107.68	23.40	-33.6	-34.5	24.8	0.00e+00	123	29	0	1419771904	40	5918
2026-01-14 13:01:40.33	107.95	23.35	-33.7	-34.6	24.7	0.00e+00	123	29	0	1422917632	40	5984
2026-01-14 13:01:41.34	108.21	23.30	-33.9	-34.7	24.6	0.00e+00	123	29	0	1426063360	40	6063
2026-01-14 13:01:42.35	108.47	23.25	-33.9	-34.8	24.5	0.00e+00	124	29	0	1429209088	40	6088
2026-01-14 13:01:43.36	108.74	23.20	-33.9	-34.8	24.5	0.00e+00	122	29	0	1432354816	40	6113
2026-01-14 13:01:44.37	109.00	23.15	-33.7	-34.6	24.7	0.00e+00	122	29	0	1435500544	40	5951
2026-01-14 13:01:45.38	109.26	23.10	-33.8	-34.7	24.6	0.00e+00	123	29	0	1438646272	40	6023
2026-01-14 13:01:46.39	109.52	23.04	-33.7	-34.5	24.6	0.00e+00	123	29	0	1441792000	40	5910
2026-01-14 13:01:47.40	109.78	22.99	-33.6	-34.5	24.7	0.00e+00	122	29	0	1444937728	40	5864
2026-01-14 13:01:48.41	110.04	22.93	-33.7	-34.6	24.7	0.00e+00	123	29	0	1448083456	40	5932
2026-01-14 13:01:49.42	110.29	22.88	-33.7	-34.6	24.7	0.00e+00	122	29	0	1451229184	40	5994
2026-01-14 13:01:50.43	110.55	22.82	-33.6	-34.5	24.7	0.00e+00	122	29	0	1454374912	40	5876
2026-01-14 13:01:51.44	110.81	22.77	-33.7	-34.5	24.7	0.00e+00	122	29	0	1457520640	40	5923
2026-01-14 13:01:52.45	111.06	22.71	-33.4	-34.3	24.8	0.00e+00	121	29	0	1460666368	40	5760
2026-01-14 13:01:53.46	111.32	22.66	-33.6	-34.5	24.7	0.00e+00	123	29	0	1463812096	40	5862
2026-01-14 13:01:54.47	111.57	22.60	-33.5	-34.4	24.8	0.00e+00	120	29	0	1466957824	40	5797
2026-01-14 13:01:55.48	111.82	22.54	-33.6	-34.5	24.6	0.00e+00	122	29	0	1470103552	40	5905
2026-01-14 13:01:56.49	112.07	22.48	-33.7	-34.6	24.6	0.00e+00	122	29	0	1473249280	40	5976
2026-01-14 13:01:57.49	112.32	22.43	-33.7	-34.6	24.6	0.00e+00	122	29	0	1476395008	40	5947
2026-01-14 13:01:58.50	112.57	22.37	-33.7	-34.5	24.7	0.00e+00	123	29	0	1479540736	40	5926
2026-01-14 13:01:59.51	112.82	22.31	-33.8	-34.7	24.6	0.00e+00	122	29	0	1482686464	40	6028
2026-01-14 13:02:00.52	113.07	22.25	-33.8	-34.7	24.5	0.00e+00	122	29	0	1485832192	40	6050
2026-01-14 13:02:01.53	113.31	22.19	-34.0	-34.9	24.4	0.00e+00	123	29	0	1488977920	40	6141
2026-01-14 13:02:02.54	113.56	22.13	-33.9	-34.7	24.5	0.00e+00	122	29	0	1492123648	40	6062
2026-01-14 13:02:03.55	113.80	22.07	-34.0	-34.8	24.5	0.00e+00	122	29	0	1495269376	40	6131
2026-01-14 13:02:04.56	114.05	22.01	-33.8	-34.7	24.5	0.00e+00	123	29	0	1498415104	40	6032
2026-01-14 13:02:05.57	114.29	21.94	-33.9	-34.8	24.5	0.00e+00	121	29	0	1501560832	40	6104
2026-01-14 13:02:06.58	114.53	21.88	-33.8	-34.7	24.5	0.00e+00	123	29	0	1504706560	40	5996
2026-01-14 13:02:07.59	114.77	21.82	-33.7	-34.6	24.5	0.00e+00	123	29	0	1507852288	40	5970
2026-01-14 13:02:08.60	115.01	21.76	-33.6	-34.4	24.7	0.00e+00	120	29	0	1510998016	40	5850
2026-01-14 13:02:09.61	115.25	21.69	-33.5	-34.4	24.8	0.00e+00	122	29	0	1514143744	40	5810
2026-01-14 13:02:10.62	115.49	21.63	-33.5	-34.4	24.8	0.00e+00	120	29	0	1517289472	40	5817
2026-01-14 13:02:11.63	115.73	21.57	-33.6	-34.5	24.7	0.00e+00	121	29	0	1520435200	40	5893
2026-01-14 13:02:12.64	115.97	21.50	-33.7	-34.6	24.7	0.00e+00	122	29	0	1523580928	40	5957
2026-01-14 13:02:13.65	116.20	21.44	-33.7	-34.6	24.7	0.00e+00	122	29	0	1526726656	40	5963
2026-01-14 13:02:14.66	116.44	21.37	-33.8	-34.7	24.6	0.00e+00	123	29	0	1529872384	40	6026
2026-01-14 13:02:15.67	116.67	21.31	-33.9	-34.8	24.5	0.00e+00	122	29	0	1533018112	40	6134
2026-01-14 13:02:16.68	116.90	21.24	-34.0	-34.9	24.4	0.00e+00	122	29	0	1536163840	40	6153
2026-01-14 13:02:17.69	117.13	21.18	-34.1	-35.0	24.4	0.00e+00	121	29	0	1539309568	40	6247
2026-01-14 13:02:18.70	117.36	21.11	-34.2	-35.1	24.2	0.00e+00	123	29	0	1542455296	40	6328
2026-01-14 13:02:19.71	117.59	21.05	-33.9	-34.8	24.3	0.00e+00	122	29	0	1545601024	40	6120
2026-01-14 13:02:20.72	117.82	20.98	-33.6	-34.5	24.6	0.00e+00	123	29	0	1548746752	40	5923
2026-01-14 13:02:21.73	118.05	20.91	-33.5	-34.4	24.7	0.00e+00	120	29	0	1551892480	40	5833
2026-01-14 13:02:22.74	118.28	20.85	-33.5	-34.4	24.7	0.00e+00	123	29	0	1555038208	40	5835
2026-01-14 13:02:23.75	118.50	20.78	-33.6	-34.5	24.6	0.00e+00	120	29	0	1558183936	40	5865
2026-01-14 13:02:24.76	118.73	20.71	-33.6	-34.5	24.5	0.00e+00	122	29	0	1561329664	40	5880
2026-01-14 13:02:25.77	118.95	20.65	-33.6	-34.5	24.6	0.00e+00	120	29	0	1564475392	40	5881
2026-01-14 13:02:26.78	119.18	20.58	-33.7	-34.6	24.7	0.00e+00	123	29	0	1567621120	40	5943
2026-01-14 13:02:27.79	119.40	20.51	-33.7	-34.5	24.7	0.00e+00	122	29	0	1570766848	40	5913
2026-01-14 13:02:28.80	119.62	20.44	-33.8	-34.7	24.7	0.00e+00	123	29	0	1573912576	40	6026
2026-01-14 13:02:29.81	119.84	20.37	-33.7	-34.6	24.7	0.00e+00	123	29	0	1577058304	40	5952
2026-01-14 13:02:30.82	120.06	20.30	-33.9	-34.8	24.6	0.00e+00	122	29	0	1580204032	40	6105
2026-01-14 13:02:31.83	120.28	20.23	-33.8	-34.7	24.6	0.00e+00	123	29	0	1583349760	40	6050
2026-01-14 13:02:32.84	120.49	20.16	-33.8	-34.7	24.6	0.00e+00	122	29	0	1586495488	40	6043
2026-01-14 13:02:33.85	120.71	20.10	-33.8	-34.7	24.6	0.00e+00	123	29	0	1589641216	40	6040
2026-01-14 13:02:34.86	120.93	20.03	-33.8	-34.6	24.6	0.00e+00	120	29	0	1592786944	40	5986
2026-01-14 13:02:35.87	121.14	19.96	-33.8	-34.7	24.7	0.00e+00	123	29	0	1595932672	40	5999
2026-01-14 13:02:36.88	121.35	19.89	-33.9	-34.8	24.5	0.00e+00	120	29	0	1599078400	40	6089
2026-01-14 13:02:37.89	121.57	19.82	-33.8	-34.7	24.6	0.00e+00	122	29	0	1602224128	40	6042
2026-01-14 13:02:38.90	121.78	19.74	-33.9	-34.8	24.6	0.00e+00	120	29	0	1605369856	40	6098
2026-01-14 13:02:39.91	121.99	19.67	-33.9	-34.8	24.5	0.00e+00	122	29	0	1608515584	40	6088
2026-01-14 13:02:40.91	122.20	19.60	-33.8	-34.6	24.6	0.00e+00	122	29	0	1611661312	40	5989
2026-01-14 13:02:41.92	122.40	19.53	-33.7	-34.6	24.6	0.00e+00	123	29	0	1614807040	40	5975
2026-01-14 13:02:42.93	122.61	19.46	-33.8	-34.7	24.6	0.00e+00	123	29	0	1617952768	40	5999
2026-01-14 13:02:43.94	122.82	19.39	-33.7	-34.5	24.7	0.00e+00	122	29	0	1621098496	40	5918
2026-01-14 13:02:44.95	123.03	19.32	-33.8	-34.7	24.5	0.00e+00	123	29	0	1624244224	40	6029
2026-01-14 13:02:45.96	123.23	19.25	-33.8	-34.7	24.6	0.00e+00	120	29	0	1627389952	40	6033
2026-01-14 13:02:46.97	123.43	19.18	-33.9	-34.8	24.5	0.00e+00	123	29	0	1630535680	40	6086
2026-01-14 13:02:47.98	123.64	19.10	-34.0	-34.9	24.5	0.00e+00	123	29	0	1633681408	40	6144
2026-01-14 13:02:48.99	123.84	19.03	-33.9	-34.8	24.5	0.00e+00	123	29	0	1636827136	40	6092
2026-01-14 13:02:50.00	124.04	18.96	-34.0	-34.9	24.4	0.00e+00	122	29	0	1639972864	40	6195
2026-01-14 13:02:51.01	124.24	18.89	-34.0	-34.9	24.3	0.00e+00	123	29	0	1643118592	40	6189
2026-01-14 13:02:52.03	124.44	18.81	-34.0	-34.9	24.4	0.00e+00	120	29	0	1646264320	40	6144
2026-01-14 13:02:53.04	124.64	18.74	-34.1	-35.0	24.3	0.00e+00	123	29	0	1649410048	40	6228
2026-01-14 13:02:54.05	124.84	18.67	-34.0	-34.9	24.4	0.00e+00	120	29	0	1652555776	40	6154
2026-01-14 13:02:55.06	125.04	18.59	-33.9	-34.8	24.5	0.00e+00	122	29	0	1655701504	40	6092
2026-01-14 13:02:56.07	125.23	18.52	-33.9	-34.8	24.5	0.00e+00	123	29	0	1659895808	40	6110
2026-01-14 13:02:57.08	125.43	18.45	-33.9	-34.8	24.5	0.00e+00	123	29	0	1663041536	40	6085
2026-01-14 13:02:58.09	125.62	18.38	-33.9	-34.8	24.4	0.00e+00	123	29	0	1665138688	40	6102
2026-01-14 13:02:59.10	125.81	18.30	-33.8	-34.7	24.4	0.00e+00	122	29	0	1668284416	40	6046
2026-01-14 13:03:00.11	126.01	18.23	-33.9	-34.8	24.4	0.00e+00	123	29	0	1671430144	40	6125
2026-01-14 13:03:01.12	126.20	18.16	-34.0	-34.9	24.3	0.00e+00	120	29	0	1674575872	40	6155
2026-01-14 13:03:02.12	126.39	18.08	-34.0	-34.9	24.4	0.00e+00	122	29	0	1678770176	40	6175
2026-01-14 13:03:03.13	126.58	18.01	-33.9	-34.8	24.4	0.00e+00	123	29	0	1681915904	40	6119
2026-01-14 13:03:04.14	126.76	17.94	-34.0	-34.9	24.3	0.00e+00	122	29	0	1685061632	40	6200
2026-01-14 13:03:05.16	126.95	17.86	-34.2	-35.1	24.3	0.00e+00	122	29	0	1687158784	40	6300
2026-01-14 13:03:06.16	127.14	17.79	-34.0	-34.9	24.4	0.00e+00	123	29	0	1690304512	40	6161
2026-01-14 13:03:07.17	127.32	17.71	-34.1	-35.0	24.3	0.00e+00	122	29	0	1694498816	40	6242
2026-01-14 13:03:08.17	127.51	17.64	-34.0	-34.9	24.4	0.00e+00	123	29	0	1697644544	40	6196
2026-01-14 13:03:09.18	127.69	17.57	-34.2	-35.1	24.3	0.00e+00	120	29	0	1700790272	40	6285
2026-01-14 13:03:10.19	127.87	17.49	-34.2	-35.1	24.2	0.00e+00	122	29	0	1703936000	40	6301
2026-01-14 13:03:11.20	128.06	17.42	-34.1	-35.0	24.3	0.00e+00	123	29	0	1707081728	40	6256
2026-01-14 13:03:12.21	128.24	17.34	-34.2	-35.1	24.1	0.00e+00	123	29	0	1710227456	40	6328
2026-01-14 13:03:13.22	128.42	17.27	-34.4	-35.3	24.0	0.00e+00	123	29	0	1713373184	40	6441
2026-01-14 13:03:14.23	128.60	17.20	-34.5	-35.4	23.9	0.00e+00	122	29	0	1716518912	40	6551
2026-01-14 13:03:15.24	128.78	17.12	-34.5	-35.4	23.9	0.00e+00	123	29	0	1719664640	40	6571
2026-01-14 13:03:16.25	128.96	17.05	-34.5	-35.4	23.9	0.00e+00	123	29	0	1722810368	40	6543
2026-01-14 13:03:17.26	129.13	16.97	-34.6	-35.5	23.9	0.00e+00	123	29	0	1725956096	40	6639
2026-01-14 13:03:18.27	129.31	16.90	-34.5	-35.4	24.0	0.00e+00	123	29	0	1729101824	40	6530
2026-01-14 13:03:19.28	129.49	16.82	-34.6	-35.5	23.9	0.00e+00	123	29	0	1732247552	40	6616
2026-01-14 13:03:20.29	129.66	16.75	-34.6	-35.5	23.8	0.00e+00	123	29	0	1735393280	40	6645
2026-01-14 13:03:21.30	129.83	16.67	-34.8	-35.7	23.7	0.00e+00	123	29	0	1738539008	42	6039
2026-01-14 13:03:22.31	130.01	16.60	-34.6	-35.6	23.9	0.00e+00	122	29	0	1741684736	42	5929
2026-01-14 13:03:23.32	130.18	16.53	-34.6	-35.6	23.9	0.00e+00	123	29	0	1744830464	42	5947
2026-01-14 13:03:24.32	130.35	16.45	-34.5	-35.5	24.0	0.00e+00	121	29	0	1747976192	42	5871
2026-01-14 13:03:25.33	130.52	16.38	-34.5	-35.4	24.0	0.00e+00	123	29	0	1751121920	42	5831
2026-01-14 13:03:26.34	130.69	16.30	-34.5	-35.5	23.9	0.00e+00	122	29	0	1754267648	42	5871
2026-01-14 13:03:27.35	130.86	16.23	-34.5	-35.4	23.9	0.00e+00	123	29	0	1757413376	42	5834
2026-01-14 13:03:28.36	131.03	16.15	-34.5	-35.5	23.9	0.00e+00	122	29	0	1760559104	42	5866
2026-01-14 13:03:29.37	131.19	16.08	-34.5	-35.5	23.8	0.00e+00	120	29	0	1763704832	42	5861
2026-01-14 13:03:30.38	131.36	16.00	-34.7	-35.6	23.8	0.00e+00	123	29	0	1766850560	42	5962
2026-01-14 13:03:31.39	131.53	15.93	-34.6	-35.5	23.8	0.00e+00	120	29	0	1769996288	42	5925
2026-01-14 13:03:32.40	131.69	15.85	-34.5	-35.4	24.0	0.00e+00	122	29	0	1773142016	42	5829
2026-01-14 13:03:33.41	131.86	15.78	-34.5	-35.5	23.9	0.00e+00	122	29	0	1776287744	42	5863
2026-01-14 13:03:34.42	132.02	15.71	-34.4	-35.3	24.1	0.00e+00	123	29	0	1779433472	42	5740
2026-01-14 13:03:35.43	132.18	15.63	-34.5	-35.4	23.9	0.00e+00	122	29	0	1782579200	42	5839
2026-01-14 13:03:36.44	132.34	15.56	-34.5	-35.4	23.9	0.00e+00	122	29	0	1785724928	42	5819
2026-01-14 13:03:37.45	132.51	15.48	-34.7	-35.6	23.8	0.00e+00	120	29	0	1788870656	42	5962
2026-01-14 13:03:38.46	132.67	15.41	-34.6	-35.5	23.8	0.00e+00	123	29	0	1792016384	42	5903
2026-01-14 13:03:39.47	132.82	15.33	-34.8	-35.7	23.7	0.00e+00	122	29	0	1795162112	42	6055
2026-01-14 13:03:40.48	132.98	15.26	-34.9	-35.8	23.5	0.00e+00	122	29	0	1798307840	42	6096
2026-01-14 13:03:41.49	133.14	15.18	-35.0	-36.0	23.4	0.00e+00	122	29	0	1801453568	42	6227
2026-01-14 13:03:42.50	133.30	15.11	-35.1	-36.0	23.4	0.00e+00	123	29	0	1804599296	42	6264
2026-01-14 13:03:43.51	133.46	15.03	-34.9	-35.9	23.5	0.00e+00	123	29	0	1807745024	42	6140
2026-01-14 13:03:44.52	133.61	14.96	-35.0	-36.0	23.4	0.00e+00	123	29	0	1810890752	42	6235
2026-01-14 13:03:45.53	133.77	14.89	-35.0	-36.0	23.4	0.00e+00	123	29	0	1814036480	42	6232
2026-01-14 13:03:46.54	133.92	14.81	-35.0	-36.0	23.4	0.00e+00	123	29	0	1817182208	42	6241
2026-01-14 13:03:47.55	134.07	14.74	-35.1	-36.0	23.4	0.00e+00	121	29	0	1820327936	42	6242
2026-01-14 13:03:48.56	134.23	14.66	-35.1	-36.0	23.4	0.00e+00	123	29	0	1823473664	42	6247
2026-01-14 13:03:49.57	134.38	14.59	-35.0	-35.9	23.5	0.00e+00	123	29	0	1826619392	42	6172
2026-01-14 13:03:50.58	134.53	14.51	-34.9	-35.9	23.5	0.00e+00	124	29	0	1829765120	42	6148
2026-01-14 13:03:51.59	134.68	14.44	-34.8	-35.7	23.6	0.00e+00	122	29	0	1832910848	42	6037
2026-01-14 13:03:52.60	134.83	14.37	-34.9	-35.8	23.6	0.00e+00	123	29	0	1836056576	42	6086
2026-01-14 13:03:53.61	134.98	14.29	-34.9	-35.8	23.6	0.00e+00	121	29	0	1839202304	42	6119
2026-01-14 13:03:54.62	135.13	14.22	-34.8	-35.8	23.6	0.00e+00	123	29	0	1842348032	42	6086
2026-01-14 13:03:55.63	135.27	14.14	-34.8	-35.7	23.7	0.00e+00	123	29	0	1845493760	42	6029
2026-01-14 13:03:56.64	135.42	14.07	-34.8	-35.7	23.7	0.00e+00	123	29	0	1848639488	42	6041
2026-01-14 13:03:57.65	135.57	14.00	-34.7	-35.6	23.8	0.00e+00	123	29	0	1851785216	42	5953
2026-01-14 13:03:58.65	135.71	13.92	-34.8	-35.8	23.6	0.00e+00	123	29	0	1854930944	42	6073
2026-01-14 13:03:59.66	135.86	13.85	-35.0	-36.0	23.5	0.00e+00	122	29	0	1858076672	42	6224
2026-01-14 13:04:00.68	136.00	13.78	-35.1	-36.0	23.4	0.00e+00	123	29	0	1861222400	42	6241
2026-01-14 13:04:01.69	136.15	13.70	-35.2	-36.2	23.3	0.00e+00	122	29	0	1864368128	42	6376
2026-01-14 13:04:02.69	136.29	13.63	-35.3	-36.3	23.2	0.00e+00	123	29	0	1867513856	42	6436
2026-01-14 13:04:03.70	136.43	13.56	-35.2	-36.2	23.3	0.00e+00	123	29	0	1870659584	42	6388
2026-01-14 13:04:04.71	136.57	13.48	-35.3	-36.2	23.2	0.00e+00	123	29	0	1873805312	42	6411
2026-01-14 13:04:05.72	136.71	13.41	-35.2	-36.1	23.4	0.00e+00	123	29	0	1876951040	42	6346
2026-01-14 13:04:06.73	136.85	13.34	-35.2	-36.2	23.3	0.00e+00	120	29	0	1880096768	42	6377
2026-01-14 13:04:07.74	136.99	13.26	-35.2	-36.2	23.2	0.00e+00	123	29	0	1883242496	42	6360
2026-01-14 13:04:08.75	137.13	13.19	-35.2	-36.2	23.2	0.00e+00	122	29	0	1886388224	42	6370
2026-01-14 13:04:09.76	137.27	13.12	-35.2	-36.1	23.2	0.00e+00	122	29	0	1889533952	42	6329
2026-01-14 13:04:10.76	137.40	13.04	-35.1	-36.1	23.2	0.00e+00	123	29	0	1892679680	42	6321
2026-01-14 13:04:11.77	137.54	12.97	-35.3	-36.3	23.0	0.00e+00	122	29	0	1895825408	42	6476
2026-01-14 13:04:12.78	137.68	12.90	-35.1	-36.1	23.2	0.00e+00	122	29	0	1898971136	42	6298
2026-01-14 13:04:13.79	137.81	12.83	-35.3	-36.3	23.1	0.00e+00	120	29	0	1902116864	42	6452
2026-01-14 13:04:14.80	137.95	12.75	-35.2	-36.2	23.1	0.00e+00	122	29	0	1905262592	42	6380
2026-01-14 13:04:15.81	138.08	12.68	-35.3	-36.3	23.1	0.00e+00	120	29	0	1908408320	42	6455
2026-01-14 13:04:16.82	138.21	12.61	-35.4	-36.4	23.0	0.00e+00	123	29	0	1911554048	42	6505
2026-01-14 13:04:17.83	138.35	12.53	-35.3	-36.3	23.1	0.00e+00	122	29	0	1914699776	42	6432
2026-01-14 13:04:18.84	138.48	12.46	-35.4	-36.4	23.0	0.00e+00	120	29	0	1917845504	42	6519
2026-01-14 13:04:19.85	138.61	12.39	-35.5	-36.4	22.9	0.00e+00	122	29	0	1920991232	42	6568
2026-01-14 13:04:20.86	138.74	12.32	-35.5	-36.5	22.9	0.00e+00	122	29	0	1924136960	42	6643
2026-01-14 13:04:21.86	138.87	12.25	-35.7	-36.7	22.7	0.00e+00	122	29	0	1927282688	42	6752
2026-01-14 13:04:22.87	139.00	12.17	-35.7	-36.7	22.7	0.00e+00	123	29	0	1930428416	44	6047
2026-01-14 13:04:23.88	139.13	12.10	-35.7	-36.7	22.7	0.00e+00	122	29	0	1933574144	44	6045
2026-01-14 13:04:24.89	139.26	12.03	-35.9	-36.9	22.5	0.00e+00	123	29	0	1936719872	44	6183
2026-01-14 13:04:25.90	139.39	11.96	-36.0	-37.0	22.4	0.00e+00	122	29	0	1939865600	44	6238
2026-01-14 13:04:26.91	139.52	11.89	-36.2	-37.2	22.2	0.00e+00	123	29	0	1943011328	44	6406
2026-01-14 13:04:27.92	139.64	11.82	-36.3	-37.4	22.0	0.00e+00	120	29	0	1946157056	44	6536
2026-01-14 13:04:28.93	139.77	11.74	-36.6	-37.6	21.7	0.00e+00	122	29	0	1949302784	44	6723
2026-01-14 13:04:29.94	139.89	11.67	-36.6	-37.7	21.5	0.00e+00	120	29	0	1952448512	44	6785
2026-01-14 13:04:30.95	140.02	11.60	-36.9	-38.0	21.3	0.00e+00	123	29	0	1955594240	46	6236
2026-01-14 13:04:31.96	140.14	11.53	-37.2	-38.3	21.0	0.00e+00	123	29	0	1958739968	46	6480
2026-01-14 13:04:32.97	140.27	11.46	-37.3	-38.5	20.7	0.00e+00	123	29	0	1961885696	46	6610
2026-01-14 13:04:33.98	140.39	11.39	-37.5	-38.6	20.5	0.00e+00	122	29	0	1965031424	46	6714
2026-01-14 13:04:34.99	140.51	11.32	-37.7	-38.9	20.1	0.00e+00	123	29	0	1968177152	46	6940
2026-01-14 13:04:36.00	140.64	11.24	-37.8	-39.0	20.0	0.00e+00	122	29	0	1971322880	48	6248
2026-01-14 13:04:37.01	140.76	11.17	-38.0	-39.3	19.7	0.00e+00	123	29	0	1974468608	48	6437
