passes_logs/2026/01/14/R4.6S_Anadyr/R4.6S_Anadyr__20260114_030736_AQUA_rec.log

#Pass ID: 20260114_030736_AQUA
#Satellite: AQUA
#Configuration: AQUA
#almurnet v.1.7.20251203
#Start time: 2026-01-14 03:07:38

#Version: 2.2.20231116
#Station: R4.6S_Anadyr
#Location: 177.4865 lon 64.73178 lat
#TLE: 1 27424U 02022A   26013.58555111  .00000773  00000+0  16469-3 0  9993
#TLE: 2 27424  98.4079 339.9892 0002045  80.0365 334.6894 14.61818766260681

#Time	Az	El	Level	Level2	SNR	BER	BlckErr	Temp	State	Recorded	gain1	gain2
2026-01-14 03:07:38.15	187.91	0.08	-48.3	-60.0	3.5	8.45e-01	0	24	0	0	60	36100
2026-01-14 03:07:39.15	187.95	0.14	-48.7	-66.8	3.5	3.04e+01	0	25	104	0	60	83949
2026-01-14 03:07:40.16	188.00	0.20	-48.5	-66.8	3.5	3.04e+01	0	25	104	0	60	84420
2026-01-14 03:07:41.17	188.04	0.26	-48.8	-66.8	3.5	3.04e+01	0	25	104	0	60	83827
2026-01-14 03:07:42.18	188.09	0.32	-48.7	-66.9	3.5	3.04e+01	0	25	104	0	60	84780
2026-01-14 03:07:43.19	188.13	0.38	-48.6	-66.8	3.5	3.04e+01	0	25	104	0	60	84410
2026-01-14 03:07:44.20	188.18	0.44	-48.9	-66.9	3.5	3.04e+01	0	25	104	0	60	84730
2026-01-14 03:07:45.21	188.23	0.50	-49.0	-66.9	3.5	3.04e+01	0	25	104	0	60	84744
2026-01-14 03:07:46.22	188.27	0.56	-48.9	-66.9	3.5	3.04e+01	0	25	104	0	60	84880
2026-01-14 03:07:47.23	188.32	0.62	-48.9	-66.8	3.5	3.04e+01	0	25	104	0	60	84646
2026-01-14 03:07:48.25	188.37	0.68	-48.9	-66.7	3.5	3.04e+01	0	25	104	0	60	83620
2026-01-14 03:07:49.26	188.41	0.75	-48.6	-66.6	3.5	3.04e+01	0	25	104	0	60	81998
2026-01-14 03:07:50.27	188.46	0.81	-48.4	-66.4	3.5	3.04e+01	0	25	104	0	60	80466
2026-01-14 03:07:51.28	188.51	0.87	-48.0	-66.0	3.5	3.04e+01	0	26	104	0	60	77155
2026-01-14 03:07:52.29	188.56	0.93	-47.8	-65.6	3.5	3.04e+01	0	26	104	0	60	73621
2026-01-14 03:07:53.30	188.60	0.99	-47.6	-65.4	3.5	3.04e+01	0	26	104	0	60	71968
2026-01-14 03:07:54.31	188.65	1.05	-47.6	-65.4	3.5	3.04e+01	0	26	104	0	60	71284
2026-01-14 03:07:55.32	188.70	1.11	-47.6	-65.3	3.5	3.04e+01	0	25	104	0	60	71190
2026-01-14 03:07:56.33	188.75	1.17	-47.6	-65.0	3.5	3.04e+01	0	26	104	0	60	68598
2026-01-14 03:07:57.34	188.80	1.24	-47.6	-65.0	3.5	3.04e+01	0	26	104	0	60	68555
2026-01-14 03:07:58.35	188.85	1.30	-47.6	-65.1	3.5	3.04e+01	0	25	104	0	60	69520
2026-01-14 03:07:59.36	188.90	1.36	-47.6	-64.8	3.5	3.04e+01	0	26	104	0	60	67028
2026-01-14 03:08:00.37	188.95	1.42	-47.6	-65.2	3.5	3.04e+01	0	26	104	0	60	69704
2026-01-14 03:08:01.38	189.00	1.48	-47.6	-65.3	3.5	3.04e+01	0	26	104	0	60	70843
2026-01-14 03:08:02.39	189.05	1.55	-47.6	-65.5	3.5	3.04e+01	0	26	104	0	60	72282
2026-01-14 03:08:03.40	189.10	1.61	-47.6	-65.5	3.5	3.04e+01	0	26	104	0	60	72199
2026-01-14 03:08:04.41	189.15	1.67	-47.6	-65.5	3.5	3.04e+01	0	26	104	0	60	72726
2026-01-14 03:08:05.42	189.20	1.74	-47.6	-65.5	3.5	3.04e+01	0	26	104	0	60	72613
2026-01-14 03:08:06.43	189.25	1.80	-47.6	-65.5	3.5	3.04e+01	0	26	104	0	60	72414
2026-01-14 03:08:07.44	189.30	1.86	-47.6	-65.5	3.5	3.04e+01	0	26	104	0	60	72567
2026-01-14 03:08:08.45	189.35	1.92	-47.6	-65.5	3.5	3.04e+01	0	26	104	0	60	72788
2026-01-14 03:08:09.46	189.40	1.99	-47.6	-65.4	3.5	3.04e+01	0	26	104	0	60	71463
2026-01-14 03:08:10.47	189.45	2.05	-47.6	-65.3	3.5	3.04e+01	0	26	104	0	60	70524
2026-01-14 03:08:11.48	189.50	2.12	-47.6	-65.2	3.5	3.04e+01	0	26	104	0	60	69966
2026-01-14 03:08:12.49	189.56	2.18	-47.6	-65.2	3.5	3.04e+01	0	26	104	0	60	69849
2026-01-14 03:08:13.50	189.61	2.24	-47.6	-65.1	3.5	3.04e+01	0	26	104	0	60	69395
2026-01-14 03:08:14.50	189.66	2.31	-47.6	-65.4	3.5	3.04e+01	0	26	104	0	60	72050
2026-01-14 03:08:15.51	189.71	2.37	-47.6	-65.6	3.5	3.04e+01	0	26	104	0	60	73006
2026-01-14 03:08:16.52	189.77	2.44	-47.6	-65.4	3.5	3.04e+01	0	26	104	0	60	71877
2026-01-14 03:08:17.53	189.82	2.50	-47.6	-65.4	3.5	3.04e+01	0	26	104	0	60	71587
2026-01-14 03:08:18.54	189.87	2.56	-47.6	-65.4	3.5	3.04e+01	0	26	104	0	60	71580
2026-01-14 03:08:19.55	189.93	2.63	-47.6	-65.5	3.5	3.04e+01	0	26	104	0	60	72479
2026-01-14 03:08:20.56	189.98	2.69	-47.6	-65.4	3.5	3.04e+01	0	26	104	0	60	71858
2026-01-14 03:08:21.57	190.03	2.76	-47.5	-64.3	3.5	3.04e+01	0	26	104	0	60	63260
2026-01-14 03:08:22.58	190.09	2.82	-47.5	-63.1	3.6	3.04e+01	0	26	104	0	60	55069
2026-01-14 03:08:23.59	190.14	2.89	-47.5	-62.4	3.6	3.04e+01	0	26	104	0	60	50994
2026-01-14 03:08:24.60	190.20	2.96	-47.5	-62.2	4.1	3.04e+01	0	26	104	0	60	49707
2026-01-14 03:08:25.61	190.25	3.02	-47.5	-62.8	3.9	3.04e+01	0	26	104	0	60	53058
2026-01-14 03:08:26.62	190.31	3.09	-47.4	-61.3	4.8	3.04e+01	0	26	104	0	60	44869
2026-01-14 03:08:27.63	190.36	3.15	-46.9	-55.3	9.3	3.04e+01	91	26	0	1048576	60	22433
2026-01-14 03:08:28.64	190.42	3.22	-45.9	-51.3	13.9	3.04e+01	92	26	0	2621440	60	14199
2026-01-14 03:08:29.65	190.48	3.29	-44.2	-47.8	17.5	3.04e+01	92	26	0	4718592	60	9421
2026-01-14 03:08:30.66	190.53	3.35	-42.6	-45.2	19.8	3.04e+01	92	26	0	6815744	60	7027
2026-01-14 03:08:31.67	190.59	3.42	-41.1	-43.2	21.8	3.04e+01	92	26	0	8388608	58	6209
2026-01-14 03:08:32.68	190.65	3.49	-40.2	-42.0	22.9	3.04e+01	92	26	0	10485760	56	6117
2026-01-14 03:08:33.69	190.70	3.55	-39.4	-41.1	23.7	3.04e+01	92	26	0	12058624	54	6172
2026-01-14 03:08:34.70	190.76	3.62	-39.3	-41.0	23.8	3.04e+01	92	26	0	14155776	54	6111
2026-01-14 03:08:35.71	190.82	3.69	-39.8	-41.6	23.2	3.04e+01	92	26	0	16252928	54	6517
2026-01-14 03:08:36.72	190.88	3.76	-40.1	-42.0	22.8	3.04e+01	92	26	0	17825792	54	6815
2026-01-14 03:08:37.73	190.94	3.82	-47.0	-57.2	6.3	3.04e+01	91	26	0	19922944	60	28034
2026-01-14 03:08:38.74	190.99	3.89	-38.5	-40.4	22.7	3.04e+01	85	26	104	19922944	52	6379
2026-01-14 03:08:39.75	191.05	3.96	-44.5	-48.1	16.8	3.04e+01	92	26	0	20971520	60	9780
2026-01-14 03:08:40.76	191.11	4.03	-41.8	-44.1	19.9	3.04e+01	91	26	0	23068672	54	8762
2026-01-14 03:08:41.77	191.17	4.10	-41.9	-44.1	21.4	3.04e+01	92	26	0	25165824	60	6202
2026-01-14 03:08:42.78	191.23	4.16	-40.4	-42.3	22.7	3.04e+01	92	26	0	26738688	56	6286
2026-01-14 03:08:43.79	191.29	4.23	-39.4	-41.1	23.9	3.04e+01	92	26	0	28835840	54	6195
2026-01-14 03:08:44.80	191.35	4.30	-39.5	-41.2	23.9	3.04e+01	92	26	0	30932992	54	6244
2026-01-14 03:08:45.81	191.41	4.37	-39.3	-40.9	24.2	3.04e+01	92	26	0	32505856	54	6051
2026-01-14 03:08:46.82	191.47	4.44	-39.1	-40.7	24.3	3.04e+01	92	26	0	34603008	54	5914
2026-01-14 03:08:47.83	191.53	4.51	-38.4	-39.9	25.1	3.04e+01	91	26	0	36175872	52	6044
2026-01-14 03:08:48.84	191.60	4.58	-38.2	-39.8	25.2	3.04e+01	92	26	0	38273024	52	5952
2026-01-14 03:08:49.85	191.66	4.65	-37.7	-39.2	25.9	3.04e+01	92	26	0	40370176	50	6215
2026-01-14 03:08:50.86	191.72	4.72	-37.8	-39.3	25.7	3.04e+01	88	26	0	41943040	50	6300
2026-01-14 03:08:51.87	191.78	4.79	-37.9	-39.3	25.8	3.04e+01	91	26	0	44040192	50	6343
2026-01-14 03:08:52.88	191.84	4.86	-37.8	-39.2	25.8	3.04e+01	92	26	0	45613056	50	6277
2026-01-14 03:08:53.89	191.91	4.93	-37.8	-39.3	25.8	3.04e+01	92	26	0	47710208	50	6286
2026-01-14 03:08:54.90	191.97	5.00	-37.8	-39.2	25.7	3.04e+01	91	26	0	49807360	50	6266
2026-01-14 03:08:55.91	192.03	5.07	-37.9	-39.4	25.6	3.04e+01	90	26	0	51380224	50	6377
2026-01-14 03:08:56.92	192.10	5.14	-37.4	-38.8	26.3	3.04e+01	91	26	0	53477376	50	5952
2026-01-14 03:08:57.93	192.16	5.21	-37.3	-38.7	26.3	3.04e+01	90	26	0	55574528	50	5903
2026-01-14 03:08:58.94	192.23	5.28	-37.2	-38.6	26.5	3.04e+01	92	26	0	57147392	50	5822
2026-01-14 03:08:59.95	192.29	5.36	-37.2	-38.7	26.5	3.04e+01	92	26	0	59244544	50	5863
2026-01-14 03:09:00.96	192.36	5.43	-37.1	-38.5	26.6	3.04e+01	90	26	0	60817408	50	5733
2026-01-14 03:09:01.97	192.42	5.50	-37.1	-38.5	26.6	3.04e+01	92	26	0	62914560	50	5768
2026-01-14 03:09:02.98	192.49	5.57	-37.1	-38.5	26.6	3.04e+01	92	26	0	65011712	50	5765
2026-01-14 03:09:03.99	192.56	5.64	-37.0	-38.4	26.7	3.04e+01	91	26	0	66584576	50	5708
2026-01-14 03:09:05.00	192.62	5.72	-36.9	-38.3	26.7	3.04e+01	90	26	0	68681728	48	6302
2026-01-14 03:09:06.01	192.69	5.79	-37.0	-38.4	26.7	3.04e+01	91	26	0	70254592	48	6399
2026-01-14 03:09:07.02	192.76	5.86	-37.2	-38.6	26.5	3.04e+01	91	26	0	72351744	48	6553
2026-01-14 03:09:08.03	192.82	5.94	-37.2	-38.7	26.5	3.04e+01	91	26	0	74448896	48	6582
2026-01-14 03:09:09.04	192.89	6.01	-37.1	-38.5	26.6	3.04e+01	92	26	0	76021760	48	6487
2026-01-14 03:09:10.05	192.96	6.08	-37.0	-38.4	26.7	3.04e+01	90	26	0	78118912	48	6363
2026-01-14 03:09:11.06	193.03	6.16	-36.9	-38.3	26.8	3.04e+01	92	26	0	79691776	48	6347
2026-01-14 03:09:12.07	193.10	6.23	-37.0	-38.4	26.7	3.04e+01	92	26	0	81788928	48	6353
2026-01-14 03:09:13.08	193.17	6.31	-36.9	-38.3	26.9	3.04e+01	90	26	0	83886080	48	6295
2026-01-14 03:09:14.09	193.24	6.38	-36.9	-38.3	26.8	3.04e+01	90	26	0	85458944	48	6282
2026-01-14 03:09:15.10	193.31	6.45	-36.8	-38.2	26.9	3.04e+01	92	26	0	87556096	48	6249
2026-01-14 03:09:16.11	193.38	6.53	-36.7	-38.1	27.0	3.04e+01	92	26	0	89128960	48	6166
2026-01-14 03:09:17.12	193.45	6.60	-36.8	-38.2	27.0	3.04e+01	92	26	0	91226112	48	6229
2026-01-14 03:09:18.13	193.52	6.68	-36.8	-38.1	27.0	3.04e+01	92	26	0	93323264	48	6194
2026-01-14 03:09:19.14	193.59	6.75	-36.7	-38.1	27.0	3.04e+01	91	26	0	94896128	48	6169
2026-01-14 03:09:20.15	193.67	6.83	-36.7	-38.0	27.1	3.04e+01	89	26	0	96993280	48	6127
2026-01-14 03:09:21.16	193.74	6.91	-36.7	-38.1	27.1	3.04e+01	92	26	0	99090432	48	6150
2026-01-14 03:09:22.17	193.81	6.98	-36.7	-38.1	27.1	3.04e+01	92	26	0	100663296	48	6175
2026-01-14 03:09:23.18	193.88	7.06	-36.7	-38.0	27.2	3.04e+01	92	26	0	102760448	48	6115
2026-01-14 03:09:24.19	193.96	7.13	-36.7	-38.1	27.1	3.04e+01	92	26	0	104333312	48	6147
2026-01-14 03:09:25.20	194.03	7.21	-36.7	-38.1	27.2	3.04e+01	92	26	0	106430464	48	6156
2026-01-14 03:09:26.21	194.11	7.29	-36.7	-38.1	27.1	3.04e+01	92	26	0	108527616	48	6143
2026-01-14 03:09:27.22	194.18	7.37	-36.9	-38.3	27.0	3.04e+01	92	26	0	110100480	48	6280
2026-01-14 03:09:28.23	194.26	7.44	-36.8	-38.1	27.1	3.04e+01	92	26	0	112197632	48	6175
2026-01-14 03:09:29.24	194.33	7.52	-36.9	-38.2	27.1	3.04e+01	92	26	0	113770496	48	6257
2026-01-14 03:09:30.25	194.41	7.60	-36.7	-38.1	27.1	3.04e+01	92	26	0	115867648	48	6147
2026-01-14 03:09:31.26	194.49	7.68	-36.8	-38.1	27.1	3.04e+01	92	26	0	117964800	48	6204
2026-01-14 03:09:32.27	194.56	7.75	-36.6	-38.0	27.2	3.04e+01	92	26	0	119537664	48	6095
2026-01-14 03:09:33.28	194.64	7.83	-36.6	-38.0	27.3	3.04e+01	92	26	0	121634816	48	6101
2026-01-14 03:09:34.29	194.72	7.91	-36.5	-37.8	27.5	3.04e+01	91	26	0	123731968	48	5965
2026-01-14 03:09:35.30	194.80	7.99	-36.4	-37.8	27.5	3.04e+01	91	26	0	125304832	48	5939
2026-01-14 03:09:36.31	194.87	8.07	-36.5	-37.8	27.5	3.04e+01	85	26	0	127401984	48	5949
2026-01-14 03:09:37.32	194.95	8.15	-36.5	-37.8	27.4	3.04e+01	91	26	0	128974848	48	5954
2026-01-14 03:09:38.33	195.03	8.23	-36.4	-37.8	27.4	3.04e+01	92	26	0	131072000	48	5951
2026-01-14 03:09:39.34	195.11	8.31	-36.5	-37.8	27.4	3.04e+01	88	26	0	133169152	48	5979
2026-01-14 03:09:40.35	195.19	8.39	-36.4	-37.7	27.6	3.04e+01	90	26	0	134742016	48	5922
2026-01-14 03:09:41.36	195.27	8.47	-36.4	-37.7	27.5	3.04e+01	91	26	0	136839168	48	5919
2026-01-14 03:09:42.37	195.36	8.55	-36.4	-37.7	27.5	3.04e+01	88	26	0	138936320	48	5915
2026-01-14 03:09:43.38	195.44	8.63	-36.5	-37.8	27.5	3.04e+01	91	26	0	140509184	48	5959
2026-01-14 03:09:44.39	195.52	8.71	-36.3	-37.7	27.6	3.04e+01	89	26	0	142606336	48	5863
2026-01-14 03:09:45.40	195.60	8.79	-36.4	-37.7	27.6	3.04e+01	92	26	0	144179200	48	5899
2026-01-14 03:09:46.41	195.69	8.88	-36.4	-37.7	27.6	3.04e+01	92	26	0	146276352	48	5897
2026-01-14 03:09:47.42	195.77	8.96	-36.2	-37.5	27.8	3.04e+01	92	26	0	148373504	48	5768
2026-01-14 03:09:48.43	195.85	9.04	-36.2	-37.5	27.7	3.04e+01	92	26	0	149946368	48	5777
2026-01-14 03:09:49.44	195.94	9.12	-36.4	-37.7	27.6	3.04e+01	92	26	0	152043520	48	5882
2026-01-14 03:09:50.45	196.02	9.20	-36.2	-37.5	27.8	3.04e+01	92	26	0	153616384	48	5739
2026-01-14 03:09:51.46	196.11	9.29	-36.1	-37.4	27.8	3.04e+01	92	26	0	155713536	48	5698
2026-01-14 03:09:52.47	196.20	9.37	-36.2	-37.5	27.9	3.04e+01	92	26	0	157810688	48	5730
2026-01-14 03:09:53.48	196.28	9.45	-36.0	-37.3	28.0	3.04e+01	92	26	0	159383552	48	5617
2026-01-14 03:09:54.49	196.37	9.54	-36.1	-37.4	27.9	3.04e+01	90	26	0	161480704	48	5683
2026-01-14 03:09:55.50	196.46	9.62	-35.8	-37.1	28.2	3.04e+01	92	26	0	163053568	46	6183
2026-01-14 03:09:56.51	196.55	9.71	-36.0	-37.2	28.1	3.04e+01	91	26	0	165150720	46	6258
2026-01-14 03:09:57.52	196.64	9.79	-36.0	-37.3	28.0	3.04e+01	91	26	0	167247872	46	6309
2026-01-14 03:09:58.54	196.73	9.88	-36.0	-37.3	28.0	3.04e+01	84	26	0	168820736	46	6315
2026-01-14 03:09:59.54	196.82	9.96	-36.0	-37.2	28.0	3.04e+01	90	26	0	170917888	46	6269
2026-01-14 03:10:00.55	196.91	10.05	-36.0	-37.3	28.0	3.04e+01	92	26	0	172490752	46	6332
2026-01-14 03:10:01.56	197.00	10.13	-36.0	-37.3	28.0	3.04e+01	89	26	0	174587904	46	6296
2026-01-14 03:10:02.57	197.09	10.22	-36.1	-37.4	28.0	3.04e+01	92	26	0	176685056	46	6382
2026-01-14 03:10:03.58	197.18	10.30	-36.0	-37.3	28.1	3.04e+01	92	26	0	178257920	46	6282
2026-01-14 03:10:04.59	197.27	10.39	-36.1	-37.4	28.0	3.04e+01	92	26	0	180355072	46	6366
2026-01-14 03:10:05.61	197.37	10.48	-36.0	-37.2	28.1	3.04e+01	92	26	0	181927936	46	6271
2026-01-14 03:10:06.62	197.46	10.56	-35.9	-37.2	28.1	3.04e+01	92	26	0	184025088	46	6215
2026-01-14 03:10:07.63	197.56	10.65	-35.8	-37.1	28.2	3.04e+01	92	26	0	186122240	46	6155
2026-01-14 03:10:08.64	197.65	10.74	-35.9	-37.2	28.2	3.04e+01	92	26	0	187695104	46	6230
2026-01-14 03:10:09.65	197.75	10.83	-35.8	-37.0	28.3	3.04e+01	92	26	0	189792256	46	6126
2026-01-14 03:10:10.66	197.84	10.91	-35.7	-37.0	28.3	3.04e+01	92	26	0	191889408	46	6074
2026-01-14 03:10:11.67	197.94	11.00	-35.9	-37.2	28.1	3.04e+01	92	26	0	193462272	46	6229
2026-01-14 03:10:12.68	198.04	11.09	-35.6	-36.9	28.4	3.04e+01	92	26	0	195559424	46	5997
2026-01-14 03:10:13.69	198.14	11.18	-35.7	-36.9	28.4	3.04e+01	92	26	0	197132288	46	6052
2026-01-14 03:10:14.70	198.23	11.27	-35.6	-36.8	28.5	3.04e+01	92	26	0	199229440	46	5989
2026-01-14 03:10:15.71	198.33	11.36	-35.7	-36.9	28.3	3.04e+01	92	26	0	201326592	46	6045
2026-01-14 03:10:16.72	198.43	11.45	-35.6	-36.9	28.5	3.04e+01	92	26	0	202899456	46	6009
2026-01-14 03:10:17.73	198.53	11.54	-35.6	-36.9	28.4	3.04e+01	90	26	0	204996608	46	6018
2026-01-14 03:10:18.74	198.64	11.63	-35.7	-36.9	28.4	3.04e+01	92	26	0	207093760	46	6057
2026-01-14 03:10:19.75	198.74	11.72	-35.6	-36.8	28.5	3.04e+01	92	26	0	208666624	46	5982
2026-01-14 03:10:20.76	198.84	11.81	-35.6	-36.8	28.5	3.04e+01	92	26	0	210763776	46	5979
2026-01-14 03:10:21.77	198.94	11.90	-35.5	-36.8	28.6	3.04e+01	92	26	0	212336640	46	5957
2026-01-14 03:10:22.78	199.05	11.99	-35.5	-36.7	28.6	3.04e+01	90	26	0	214433792	46	5910
2026-01-14 03:10:23.79	199.15	12.09	-35.5	-36.7	28.6	3.04e+01	92	26	0	216530944	46	5913
2026-01-14 03:10:24.79	199.26	12.18	-35.4	-36.7	28.7	3.04e+01	92	26	0	218103808	46	5863
2026-01-14 03:10:25.80	199.36	12.27	-35.5	-36.7	28.6	3.04e+01	92	26	0	220200960	46	5915
2026-01-14 03:10:26.81	199.47	12.36	-35.6	-36.8	28.5	3.04e+01	91	26	0	221773824	46	5976
2026-01-14 03:10:27.82	199.58	12.46	-35.6	-36.9	28.4	3.04e+01	89	26	0	223870976	46	6033
2026-01-14 03:10:28.83	199.68	12.55	-35.4	-36.6	28.8	3.04e+01	92	26	0	225968128	46	5826
2026-01-14 03:10:29.84	199.79	12.64	-35.4	-36.6	28.6	3.04e+01	92	26	0	227540992	46	5839
2026-01-14 03:10:30.85	199.90	12.74	-35.3	-36.5	28.8	3.04e+01	91	26	0	229638144	46	5782
2026-01-14 03:10:31.86	200.01	12.83	-35.4	-36.6	28.7	3.04e+01	90	26	0	231735296	46	5836
2026-01-14 03:10:32.87	200.12	12.93	-35.3	-36.6	28.7	3.04e+01	91	26	0	233308160	46	5814
2026-01-14 03:10:33.88	200.23	13.02	-35.5	-36.8	28.7	3.04e+01	90	26	0	235405312	46	5927
2026-01-14 03:10:34.89	200.35	13.12	-35.3	-36.5	28.8	3.04e+01	90	26	0	236978176	46	5772
2026-01-14 03:10:35.91	200.46	13.21	-35.3	-36.6	28.8	3.04e+01	90	26	0	239075328	46	5813
2026-01-14 03:10:36.91	200.57	13.31	-35.3	-36.5	28.9	3.04e+01	89	26	0	241172480	46	5763
2026-01-14 03:10:37.92	200.69	13.40	-35.4	-36.6	28.7	3.04e+01	90	26	0	242745344	46	5842
2026-01-14 03:10:38.94	200.80	13.50	-35.3	-36.6	28.8	3.04e+01	92	26	0	244842496	46	5821
2026-01-14 03:10:39.95	200.92	13.60	-35.5	-36.8	28.7	3.04e+01	92	26	0	246415360	46	5928
2026-01-14 03:10:40.96	201.04	13.70	-35.2	-36.4	28.9	3.04e+01	92	26	0	248512512	46	5711
2026-01-14 03:10:41.96	201.15	13.79	-35.1	-36.4	29.0	3.04e+01	91	26	0	250609664	46	5672
2026-01-14 03:10:42.97	201.27	13.89	-35.1	-36.3	29.0	3.04e+01	91	26	0	252182528	46	5646
2026-01-14 03:10:43.99	201.39	13.99	-35.0	-36.2	29.0	3.04e+01	91	26	0	254279680	46	5583
2026-01-14 03:10:45.00	201.51	14.09	-35.1	-36.3	29.0	3.04e+01	92	26	0	255852544	46	5635
2026-01-14 03:10:46.01	201.63	14.19	-35.2	-36.4	28.9	3.04e+01	92	26	0	257949696	46	5712
2026-01-14 03:10:47.02	201.76	14.29	-35.0	-36.3	29.0	3.04e+01	90	26	0	260046848	46	5613
2026-01-14 03:10:48.03	201.88	14.39	-35.1	-36.4	28.9	3.04e+01	89	26	0	261619712	46	5672
2026-01-14 03:10:49.04	202.00	14.49	-34.9	-36.1	29.2	3.04e+01	90	26	0	263716864	44	6165
2026-01-14 03:10:50.05	202.13	14.59	-34.9	-36.1	29.2	3.04e+01	91	26	0	265289728	44	6184
2026-01-14 03:10:51.06	202.25	14.69	-35.0	-36.2	29.2	3.04e+01	92	26	0	267386880	44	6243
2026-01-14 03:10:52.07	202.38	14.79	-35.0	-36.3	29.0	3.04e+01	92	26	0	269484032	44	6296
2026-01-14 03:10:53.08	202.50	14.89	-35.0	-36.2	29.0	3.04e+01	91	26	0	271056896	44	6252
2026-01-14 03:10:54.09	202.63	14.99	-35.2	-36.5	29.0	3.04e+01	91	26	0	273154048	44	6440
2026-01-14 03:10:55.10	202.76	15.09	-35.0	-36.2	29.1	3.04e+01	90	26	0	275251200	44	6256
2026-01-14 03:10:56.11	202.89	15.20	-35.0	-36.2	29.1	3.04e+01	86	26	0	276824064	44	6228
2026-01-14 03:10:57.12	203.02	15.30	-34.9	-36.1	29.3	3.04e+01	90	26	0	278921216	44	6170
2026-01-14 03:10:58.13	203.15	15.40	-34.9	-36.1	29.1	3.04e+01	92	26	0	280494080	44	6178
2026-01-14 03:10:59.14	203.29	15.51	-34.8	-36.0	29.3	3.04e+01	90	26	0	282591232	44	6119
2026-01-14 03:11:00.15	203.42	15.61	-34.9	-36.1	29.1	3.04e+01	92	26	0	284688384	44	6198
2026-01-14 03:11:01.16	203.55	15.71	-34.9	-36.1	29.2	3.04e+01	92	26	0	286261248	44	6197
2026-01-14 03:11:02.17	203.69	15.82	-35.0	-36.2	29.1	3.04e+01	92	26	0	288358400	44	6275
2026-01-14 03:11:03.18	203.83	15.92	-34.8	-36.0	29.2	3.04e+01	92	26	0	289931264	44	6116
2026-01-14 03:11:04.19	203.96	16.03	-34.8	-36.0	29.3	3.04e+01	92	26	0	292028416	44	6108
2026-01-14 03:11:05.20	204.10	16.13	-34.9	-36.2	29.2	3.04e+01	92	26	0	294125568	44	6206
2026-01-14 03:11:06.21	204.24	16.24	-34.9	-36.1	29.2	3.04e+01	90	26	0	295698432	44	6192
2026-01-14 03:11:07.22	204.38	16.35	-35.0	-36.2	29.2	3.04e+01	92	26	0	297795584	44	6221
2026-01-14 03:11:08.23	204.52	16.45	-34.9	-36.2	29.2	3.04e+01	92	26	0	299892736	44	6210
2026-01-14 03:11:09.24	204.66	16.56	-35.0	-36.2	29.1	3.04e+01	92	26	0	301465600	44	6266
2026-01-14 03:11:10.25	204.81	16.67	-34.9	-36.1	29.3	3.04e+01	92	26	0	303562752	44	6190
2026-01-14 03:11:11.26	204.95	16.77	-34.8	-36.1	29.3	3.04e+01	92	26	0	305135616	44	6140
2026-01-14 03:11:12.27	205.10	16.88	-35.0	-36.2	29.1	3.04e+01	92	26	0	307232768	44	6232
2026-01-14 03:11:13.28	205.24	16.99	-34.8	-36.0	29.4	3.04e+01	92	26	0	309329920	44	6078
2026-01-14 03:11:14.29	205.39	17.10	-34.8	-36.0	29.3	3.04e+01	92	26	0	310902784	44	6091
2026-01-14 03:11:15.30	205.54	17.21	-34.8	-36.0	29.3	3.04e+01	87	26	0	312999936	44	6092
2026-01-14 03:11:16.31	205.69	17.32	-34.8	-36.0	29.4	3.04e+01	92	26	0	314572800	44	6081
2026-01-14 03:11:17.32	205.84	17.43	-34.8	-36.1	29.3	3.04e+01	91	26	0	316669952	44	6138
2026-01-14 03:11:18.33	206.00	17.54	-34.8	-36.1	29.3	3.04e+01	92	26	0	318767104	44	6142
2026-01-14 03:11:19.34	206.15	17.65	-34.8	-36.1	29.2	3.04e+01	91	26	0	320339968	44	6142
2026-01-14 03:11:20.35	206.30	17.76	-34.8	-36.0	29.3	3.04e+01	92	26	0	322437120	44	6099
2026-01-14 03:11:21.36	206.46	17.87	-34.8	-36.0	29.4	3.04e+01	91	26	0	324009984	44	6115
2026-01-14 03:11:22.36	206.61	17.98	-34.7	-35.9	29.5	3.04e+01	91	26	0	326107136	44	6028
2026-01-14 03:11:23.37	206.77	18.09	-34.8	-36.0	29.4	3.04e+01	92	26	0	328204288	44	6117
2026-01-14 03:11:24.38	206.93	18.21	-34.9	-36.1	29.2	3.04e+01	92	26	0	329777152	44	6147
2026-01-14 03:11:25.39	207.09	18.32	-35.1	-36.3	29.1	3.04e+01	90	26	0	331874304	44	6309
2026-01-14 03:11:26.40	207.25	18.43	-35.0	-36.2	29.3	3.04e+01	91	26	0	333447168	44	6247
2026-01-14 03:11:27.41	207.42	18.55	-34.8	-36.1	29.4	3.04e+01	92	26	0	335544320	44	6151
2026-01-14 03:11:28.42	207.58	18.66	-34.8	-36.0	29.3	3.04e+01	92	26	0	337641472	44	6081
2026-01-14 03:11:29.43	207.75	18.78	-34.8	-36.1	29.3	3.04e+01	92	26	0	339214336	44	6142
2026-01-14 03:11:30.44	207.91	18.89	-34.9	-36.1	29.3	3.04e+01	92	26	0	341311488	44	6165
2026-01-14 03:11:31.45	208.08	19.00	-35.0	-36.2	29.2	3.04e+01	90	26	0	343408640	44	6221
2026-01-14 03:11:32.46	208.25	19.12	-34.9	-36.1	29.3	3.04e+01	91	26	0	344981504	44	6195
2026-01-14 03:11:33.47	208.42	19.24	-34.9	-36.1	29.2	3.04e+01	92	26	0	347078656	44	6184
2026-01-14 03:11:34.48	208.59	19.35	-34.9	-36.1	29.3	3.04e+01	91	26	0	348651520	44	6144
2026-01-14 03:11:35.49	208.77	19.47	-34.8	-36.0	29.3	3.04e+01	91	26	0	350748672	44	6119
2026-01-14 03:11:36.49	208.94	19.58	-34.8	-36.0	29.4	3.04e+01	91	26	0	352845824	44	6108
2026-01-14 03:11:37.50	209.12	19.70	-34.9	-36.1	29.3	3.04e+01	85	26	0	354418688	44	6174
2026-01-14 03:11:38.51	209.29	19.82	-34.9	-36.1	29.3	3.04e+01	92	26	0	356515840	44	6200
2026-01-14 03:11:39.52	209.47	19.94	-35.0	-36.2	29.2	3.04e+01	91	26	0	358088704	44	6265
2026-01-14 03:11:40.53	209.65	20.05	-34.8	-36.1	29.3	3.04e+01	90	26	0	360185856	44	6146
2026-01-14 03:11:41.54	209.84	20.17	-34.9	-36.1	29.3	3.04e+01	91	26	0	362283008	44	6174
2026-01-14 03:11:42.56	210.02	20.29	-34.9	-36.1	29.3	3.04e+01	90	26	0	363855872	44	6171
2026-01-14 03:11:43.56	210.20	20.41	-35.0	-36.3	29.2	3.04e+01	90	26	0	365953024	44	6295
2026-01-14 03:11:44.57	210.39	20.53	-35.0	-36.2	29.2	3.04e+01	91	26	0	368050176	44	6234
2026-01-14 03:11:45.58	210.58	20.65	-34.7	-35.9	29.4	3.04e+01	91	26	0	369623040	44	6055
2026-01-14 03:11:46.59	210.77	20.77	-34.9	-36.1	29.2	3.04e+01	92	26	0	371720192	44	6183
2026-01-14 03:11:47.60	210.96	20.89	-34.9	-36.1	29.2	3.04e+01	91	26	0	373293056	44	6183
2026-01-14 03:11:48.61	211.15	21.01	-35.1	-36.3	29.1	3.04e+01	94	26	0	375390208	44	6326
2026-01-14 03:11:49.62	211.34	21.13	-35.0	-36.2	29.2	3.04e+01	92	26	0	377487360	44	6262
2026-01-14 03:11:50.63	211.54	21.25	-34.9	-36.1	29.3	3.04e+01	90	26	0	379060224	44	6173
2026-01-14 03:11:51.64	211.74	21.38	-35.0	-36.2	29.2	3.04e+01	92	26	0	381157376	44	6271
2026-01-14 03:11:52.65	211.93	21.50	-35.1	-36.4	29.1	3.04e+01	92	26	0	382730240	44	6359
2026-01-14 03:11:53.66	212.13	21.62	-35.1	-36.3	29.1	3.04e+01	92	26	0	384827392	44	6337
2026-01-14 03:11:54.67	212.34	21.74	-35.2	-36.4	29.1	3.04e+01	92	26	0	386924544	44	6407
2026-01-14 03:11:55.68	212.54	21.87	-34.9	-36.1	29.3	3.04e+01	92	26	0	388497408	44	6204
2026-01-14 03:11:56.69	212.74	21.99	-34.8	-36.0	29.4	3.04e+01	92	26	0	390594560	44	6118
2026-01-14 03:11:57.70	212.95	22.11	-35.0	-36.2	29.2	3.04e+01	91	26	0	392167424	44	6241
2026-01-14 03:11:58.71	213.16	22.24	-35.0	-36.2	29.2	3.04e+01	92	26	0	394264576	44	6237
2026-01-14 03:11:59.72	213.37	22.36	-35.0	-36.2	29.3	3.04e+01	92	26	0	396361728	44	6258
2026-01-14 03:12:00.73	213.58	22.49	-34.9	-36.1	29.3	3.04e+01	92	26	0	397934592	44	6174
2026-01-14 03:12:01.74	213.80	22.61	-34.9	-36.1	29.3	3.04e+01	90	26	0	400031744	44	6147
2026-01-14 03:12:02.75	214.01	22.74	-35.2	-36.4	29.1	3.04e+01	92	26	0	401604608	44	6368
2026-01-14 03:12:03.76	214.23	22.86	-35.2	-36.4	29.1	3.04e+01	92	26	0	403701760	44	6391
2026-01-14 03:12:04.77	214.45	22.99	-35.2	-36.4	29.1	3.04e+01	92	26	0	405798912	44	6374
2026-01-14 03:12:05.77	214.67	23.11	-35.0	-36.3	29.2	3.04e+01	90	26	0	407371776	44	6279
2026-01-14 03:12:06.78	214.89	23.24	-35.0	-36.3	29.2	3.04e+01	92	26	0	409468928	44	6286
2026-01-14 03:12:07.79	215.11	23.36	-35.1	-36.3	29.1	3.04e+01	90	26	0	411566080	44	6350
2026-01-14 03:12:08.80	215.34	23.49	-35.1	-36.3	29.2	3.04e+01	90	26	0	413138944	44	6333
2026-01-14 03:12:09.81	215.57	23.62	-35.1	-36.4	29.1	3.04e+01	92	27	0	415236096	44	6364
2026-01-14 03:12:10.82	215.80	23.74	-35.0	-36.3	29.2	3.04e+01	90	26	0	416808960	44	6296
2026-01-14 03:12:11.83	216.03	23.87	-35.0	-36.2	29.3	3.04e+01	91	26	0	418906112	44	6235
2026-01-14 03:12:12.84	216.26	24.00	-35.2	-36.4	29.1	3.04e+01	91	26	0	421003264	44	6386
2026-01-14 03:12:13.85	216.50	24.13	-35.3	-36.5	28.9	3.04e+01	92	27	0	422576128	44	6491
2026-01-14 03:12:14.85	216.73	24.25	-35.4	-36.6	28.9	3.04e+01	90	26	0	424673280	44	6531
2026-01-14 03:12:15.86	216.97	24.38	-35.2	-36.4	29.1	3.04e+01	92	26	0	426246144	44	6414
2026-01-14 03:12:16.87	217.22	24.51	-35.3	-36.6	29.0	3.04e+01	90	26	0	428343296	44	6505
2026-01-14 03:12:17.88	217.46	24.64	-35.6	-36.8	28.8	3.04e+01	92	26	0	430440448	44	6710
2026-01-14 03:12:18.89	217.71	24.77	-35.3	-36.5	29.0	3.04e+01	90	27	0	432013312	44	6488
2026-01-14 03:12:19.90	217.95	24.89	-35.3	-36.5	29.0	3.04e+01	91	26	0	434110464	44	6452
2026-01-14 03:12:20.91	218.20	25.02	-35.1	-36.3	29.2	3.04e+01	92	26	0	436207616	44	6348
2026-01-14 03:12:21.92	218.46	25.15	-35.2	-36.5	29.1	3.04e+01	92	26	0	437780480	44	6426
2026-01-14 03:12:22.93	218.71	25.28	-35.3	-36.6	29.0	3.04e+01	90	26	0	439877632	44	6514
2026-01-14 03:12:23.94	218.97	25.41	-35.2	-36.4	29.1	3.04e+01	92	26	0	441450496	44	6398
2026-01-14 03:12:24.95	219.22	25.54	-35.3	-36.6	29.0	3.04e+01	90	26	0	443547648	44	6511
2026-01-14 03:12:25.96	219.48	25.67	-35.3	-36.6	28.9	3.04e+01	92	27	0	445644800	44	6519
2026-01-14 03:12:26.97	219.75	25.80	-35.3	-36.5	29.0	3.04e+01	91	26	0	447217664	44	6473
2026-01-14 03:12:27.98	220.01	25.93	-35.2	-36.5	29.1	3.04e+01	90	26	0	449314816	44	6448
2026-01-14 03:12:28.99	220.28	26.06	-35.4	-36.6	28.9	3.04e+01	91	27	0	450887680	44	6531
2026-01-14 03:12:30.00	220.55	26.19	-35.4	-36.6	29.0	3.04e+01	90	26	0	452984832	44	6548
2026-01-14 03:12:31.01	220.82	26.32	-35.1	-36.4	29.1	3.04e+01	92	27	0	455081984	44	6368
2026-01-14 03:12:32.02	221.09	26.45	-35.3	-36.5	29.0	3.04e+01	91	26	0	456654848	44	6484
2026-01-14 03:12:33.03	221.37	26.58	-35.1	-36.3	29.2	3.04e+01	92	26	0	458752000	44	6334
2026-01-14 03:12:34.04	221.65	26.70	-35.2	-36.5	29.1	3.04e+01	92	26	0	460324864	44	6451
2026-01-14 03:12:35.06	221.93	26.84	-35.4	-36.6	28.8	3.04e+01	88	26	0	462422016	44	6532
2026-01-14 03:12:36.06	222.21	26.96	-35.3	-36.5	29.0	3.04e+01	91	26	0	464519168	44	6468
2026-01-14 03:12:37.07	222.50	27.09	-35.1	-36.3	29.2	3.04e+01	92	26	0	466092032	44	6344
2026-01-14 03:12:38.08	222.79	27.22	-35.2	-36.4	29.1	3.04e+01	90	26	0	468189184	44	6397
2026-01-14 03:12:39.09	223.08	27.35	-35.2	-36.5	29.1	3.04e+01	92	26	0	469762048	44	6441
2026-01-14 03:12:40.10	223.37	27.48	-35.3	-36.5	29.0	3.04e+01	92	26	0	471859200	44	6469
2026-01-14 03:12:41.12	223.67	27.61	-35.2	-36.4	29.1	3.04e+01	92	26	0	473956352	44	6381
2026-01-14 03:12:42.13	223.96	27.74	-35.2	-36.4	29.1	3.04e+01	92	26	0	475529216	44	6415
2026-01-14 03:12:43.14	224.26	27.87	-35.4	-36.6	29.0	3.04e+01	92	26	0	477626368	44	6572
2026-01-14 03:12:44.15	224.57	28.00	-35.3	-36.6	29.0	3.04e+01	92	26	0	479723520	44	6501
2026-01-14 03:12:45.16	224.87	28.13	-35.3	-36.6	29.0	3.04e+01	90	26	0	481296384	44	6510
2026-01-14 03:12:46.17	225.18	28.25	-35.1	-36.3	29.2	3.04e+01	92	26	0	483393536	44	6338
2026-01-14 03:12:47.18	225.49	28.38	-35.2	-36.4	29.2	3.04e+01	92	27	0	484966400	44	6384
2026-01-14 03:12:48.19	225.80	28.51	-35.1	-36.3	29.2	3.04e+01	92	26	0	487063552	44	6316
2026-01-14 03:12:49.20	226.12	28.64	-35.2	-36.4	29.1	3.04e+01	92	26	0	489160704	44	6407
2026-01-14 03:12:50.21	226.43	28.76	-35.3	-36.5	29.0	3.04e+01	92	26	0	490733568	44	6487
2026-01-14 03:12:51.22	226.75	28.89	-35.4	-36.6	29.0	3.04e+01	90	26	0	492830720	44	6538
2026-01-14 03:12:52.23	227.08	29.02	-35.2	-36.4	29.1	3.04e+01	92	26	0	494403584	44	6417
2026-01-14 03:12:53.24	227.40	29.14	-35.3	-36.5	29.1	3.04e+01	92	26	0	496500736	44	6471
2026-01-14 03:12:54.25	227.73	29.27	-35.3	-36.6	28.9	3.04e+01	88	26	0	498597888	44	6508
2026-01-14 03:12:55.26	228.06	29.40	-35.5	-36.8	28.9	3.04e+01	92	26	0	500170752	44	6663
2026-01-14 03:12:56.27	228.39	29.52	-35.3	-36.6	29.0	3.04e+01	92	26	0	502267904	44	6505
2026-01-14 03:12:57.28	228.73	29.65	-35.2	-36.4	29.1	3.04e+01	92	26	0	504365056	44	6421
2026-01-14 03:12:58.29	229.07	29.77	-35.1	-36.3	29.1	3.04e+01	92	26	0	505937920	44	6344
2026-01-14 03:12:59.30	229.41	29.89	-35.2	-36.4	29.1	3.04e+01	92	26	0	508035072	44	6382
2026-01-14 03:13:00.31	229.75	30.02	-35.2	-36.4	29.1	3.04e+01	92	26	0	509607936	44	6414
2026-01-14 03:13:01.32	230.10	30.14	-35.3	-36.5	29.2	3.04e+01	92	26	0	511705088	44	6435
2026-01-14 03:13:02.33	230.45	30.26	-35.2	-36.4	29.2	3.04e+01	91	26	0	513802240	44	6398
2026-01-14 03:13:03.34	230.80	30.38	-35.3	-36.5	29.0	3.04e+01	91	26	0	515375104	44	6487
2026-01-14 03:13:04.35	231.15	30.50	-35.1	-36.3	29.2	3.04e+01	91	26	0	517472256	44	6317
2026-01-14 03:13:05.36	231.51	30.62	-35.3	-36.5	29.1	3.04e+01	91	26	0	519045120	44	6444
2026-01-14 03:13:06.37	231.87	30.74	-35.1	-36.4	29.2	3.04e+01	92	26	0	521142272	44	6358
2026-01-14 03:13:07.38	232.23	30.86	-35.1	-36.3	29.2	3.04e+01	92	26	0	523239424	44	6305
2026-01-14 03:13:08.39	232.60	30.98	-35.0	-36.2	29.3	3.04e+01	91	26	0	524812288	44	6219
2026-01-14 03:13:09.40	232.96	31.10	-35.3	-36.5	29.1	3.04e+01	92	26	0	526909440	44	6457
2026-01-14 03:13:10.41	233.34	31.22	-35.2	-36.4	29.2	3.04e+01	90	27	0	528482304	44	6386
2026-01-14 03:13:11.42	233.71	31.33	-34.8	-36.0	29.5	3.04e+01	90	26	0	530579456	44	6122
2026-01-14 03:13:12.43	234.08	31.45	-35.1	-36.4	29.1	3.04e+01	92	27	0	532676608	44	6366
2026-01-14 03:13:13.44	234.46	31.56	-35.2	-36.5	29.1	3.04e+01	88	27	0	534249472	44	6424
2026-01-14 03:13:14.45	234.84	31.68	-35.3	-36.5	29.1	3.04e+01	92	27	0	536346624	44	6490
2026-01-14 03:13:15.46	235.23	31.79	-35.2	-36.4	29.1	3.04e+01	91	27	0	538443776	44	6402
2026-01-14 03:13:16.47	235.62	31.90	-35.3	-36.5	29.0	3.04e+01	90	27	0	540016640	44	6495
2026-01-14 03:13:17.48	236.00	32.01	-35.0	-36.2	29.3	3.04e+01	92	26	0	542113792	44	6251
2026-01-14 03:13:18.49	236.40	32.12	-35.2	-36.4	29.1	3.04e+01	90	26	0	543686656	44	6405
2026-01-14 03:13:19.50	236.79	32.23	-35.1	-36.3	29.2	3.04e+01	92	26	0	545783808	44	6342
2026-01-14 03:13:20.51	237.19	32.34	-35.3	-36.5	29.1	3.04e+01	91	26	0	547880960	44	6495
2026-01-14 03:13:21.52	237.59	32.44	-35.1	-36.3	29.2	3.04e+01	91	26	0	549453824	44	6327
2026-01-14 03:13:22.53	237.99	32.55	-35.3	-36.5	29.1	3.04e+01	92	27	0	551550976	44	6432
2026-01-14 03:13:23.54	238.40	32.65	-35.4	-36.6	29.0	3.04e+01	92	27	0	553123840	44	6536
2026-01-14 03:13:24.56	238.81	32.76	-35.1	-36.4	29.3	3.04e+01	91	26	0	555220992	44	6360
2026-01-14 03:13:25.57	239.22	32.86	-35.0	-36.2	29.3	3.04e+01	92	26	0	557318144	44	6249
2026-01-14 03:13:26.57	239.63	32.96	-35.1	-36.4	29.2	3.04e+01	92	27	0	558891008	44	6359
2026-01-14 03:13:27.58	240.05	33.06	-35.2	-36.5	29.1	3.04e+01	92	26	0	560988160	44	6431
2026-01-14 03:13:28.59	240.46	33.16	-35.1	-36.3	29.2	3.04e+01	92	26	0	562561024	44	6323
2026-01-14 03:13:29.60	240.88	33.26	-35.2	-36.4	29.1	3.04e+01	92	26	0	564658176	44	6398
2026-01-14 03:13:30.61	241.31	33.35	-35.2	-36.4	29.1	3.04e+01	92	26	0	566755328	44	6413
2026-01-14 03:13:31.63	241.74	33.45	-35.4	-36.6	29.1	3.04e+01	92	27	0	568328192	44	6544
2026-01-14 03:13:32.63	242.16	33.54	-35.2	-36.4	29.1	3.04e+01	86	26	0	570425344	44	6371
2026-01-14 03:13:33.65	242.60	33.63	-35.3	-36.5	28.9	3.04e+01	92	26	0	572522496	44	6472
2026-01-14 03:13:34.66	243.03	33.72	-35.5	-36.7	29.1	3.04e+01	92	27	0	574095360	44	6626
2026-01-14 03:13:35.66	243.46	33.81	-35.5	-36.7	29.0	3.04e+01	92	26	0	576192512	44	6619
2026-01-14 03:13:36.67	243.90	33.90	-35.4	-36.7	29.0	3.04e+01	92	27	0	577765376	44	6575
2026-01-14 03:13:37.68	244.34	33.98	-35.0	-36.2	29.3	3.04e+01	92	27	0	579862528	44	6270
2026-01-14 03:13:38.69	244.78	34.07	-34.8	-36.0	29.5	3.04e+01	91	27	0	581959680	44	6074
2026-01-14 03:13:39.70	245.23	34.15	-35.1	-36.3	29.3	3.04e+01	92	27	0	583532544	44	6308
2026-01-14 03:13:40.71	245.68	34.23	-34.8	-36.0	29.5	3.04e+01	91	26	0	585629696	44	6083
2026-01-14 03:13:41.72	246.13	34.31	-34.7	-35.9	29.6	3.04e+01	92	26	0	587726848	44	6025
2026-01-14 03:13:42.73	246.58	34.39	-34.9	-36.1	29.4	3.04e+01	90	27	0	589299712	44	6203
2026-01-14 03:13:43.74	247.03	34.46	-35.0	-36.2	29.3	3.04e+01	90	27	0	591396864	44	6252
2026-01-14 03:13:44.75	247.49	34.53	-34.8	-36.0	29.5	3.04e+01	92	26	0	592969728	44	6095
2026-01-14 03:13:45.76	247.95	34.61	-34.7	-35.9	29.6	3.04e+01	90	27	0	595066880	44	6016
2026-01-14 03:13:46.77	248.41	34.68	-34.8	-36.0	29.5	3.04e+01	92	26	0	597164032	44	6117
2026-01-14 03:13:47.78	248.87	34.75	-34.9	-36.1	29.4	3.04e+01	92	26	0	598736896	44	6158
2026-01-14 03:13:48.79	249.33	34.81	-34.9	-36.1	29.4	3.04e+01	92	27	0	600834048	44	6166
2026-01-14 03:13:49.80	249.80	34.88	-35.0	-36.2	29.4	3.04e+01	90	26	0	602406912	44	6208
2026-01-14 03:13:50.81	250.27	34.94	-34.6	-35.8	29.7	3.04e+01	92	26	0	604504064	44	5987
2026-01-14 03:13:51.82	250.74	35.00	-34.8	-36.0	29.5	3.04e+01	90	27	0	606601216	44	6133
2026-01-14 03:13:52.83	251.21	35.06	-34.8	-36.1	29.4	3.04e+01	92	26	0	608174080	44	6137
2026-01-14 03:13:53.84	251.68	35.12	-34.8	-36.0	29.5	3.04e+01	88	26	0	610271232	44	6088
2026-01-14 03:13:54.85	252.15	35.17	-34.7	-35.9	29.5	3.04e+01	86	27	0	611844096	44	6037
2026-01-14 03:13:55.86	252.63	35.22	-34.7	-35.9	29.6	3.04e+01	92	26	0	613941248	44	6007
2026-01-14 03:13:56.87	253.11	35.27	-34.9	-36.1	29.4	3.04e+01	91	26	0	616038400	44	6190
2026-01-14 03:13:57.88	253.59	35.32	-34.8	-36.0	29.5	3.04e+01	91	27	0	617611264	44	6087
2026-01-14 03:13:58.89	254.07	35.37	-34.6	-35.8	29.6	3.04e+01	92	27	0	619708416	44	5984
2026-01-14 03:13:59.90	254.55	35.41	-34.6	-35.8	29.6	3.04e+01	89	27	0	621281280	44	5981
2026-01-14 03:14:00.91	255.03	35.46	-34.8	-36.0	29.5	3.04e+01	91	27	0	623378432	44	6088
2026-01-14 03:14:01.92	255.52	35.50	-34.6	-35.8	29.7	3.04e+01	92	27	0	625475584	44	5938
2026-01-14 03:14:02.93	256.00	35.53	-34.7	-35.9	29.7	3.04e+01	92	26	0	627048448	44	6002
2026-01-14 03:14:03.94	256.49	35.57	-34.6	-35.8	29.8	3.04e+01	90	27	0	629145600	44	5927
2026-01-14 03:14:04.95	256.98	35.60	-34.8	-36.0	29.5	3.04e+01	92	26	0	630718464	44	6085
2026-01-14 03:14:05.96	257.47	35.64	-34.8	-36.0	29.5	3.04e+01	90	27	0	632815616	44	6100
2026-01-14 03:14:06.97	257.96	35.66	-34.8	-36.0	29.6	3.04e+01	92	27	0	634912768	44	6068
2026-01-14 03:14:07.98	258.45	35.69	-35.0	-36.2	29.5	3.04e+01	90	26	0	636485632	44	6242
2026-01-14 03:14:08.99	258.94	35.72	-34.6	-35.8	29.7	3.04e+01	92	26	0	638582784	44	5928
2026-01-14 03:14:10.00	259.43	35.74	-34.7	-35.9	29.6	3.04e+01	90	27	0	640679936	44	6035
2026-01-14 03:14:11.01	259.92	35.76	-34.6	-35.8	29.7	3.04e+01	89	26	0	642252800	44	5945
2026-01-14 03:14:12.02	260.41	35.78	-34.6	-35.8	29.6	3.04e+01	92	26	0	644349952	44	5947
2026-01-14 03:14:13.03	260.91	35.79	-34.6	-35.8	29.7	3.04e+01	92	26	0	645922816	44	5978
2026-01-14 03:14:14.04	261.40	35.81	-34.7	-35.8	29.6	3.04e+01	88	27	0	648019968	44	5991
2026-01-14 03:14:15.05	261.90	35.82	-34.7	-35.8	29.6	3.04e+01	92	26	0	650117120	44	5994
2026-01-14 03:14:16.06	262.39	35.83	-34.6	-35.8	29.7	3.04e+01	92	27	0	651689984	44	5973
2026-01-14 03:14:17.07	262.89	35.83	-34.5	-35.7	29.7	3.04e+01	92	27	0	653787136	44	5870
2026-01-14 03:14:18.09	263.39	35.84	-34.4	-35.6	29.8	3.04e+01	92	27	0	655884288	44	5792
2026-01-14 03:14:19.10	263.88	35.84	-34.4	-35.6	29.9	3.04e+01	92	27	0	657457152	44	5820
2026-01-14 03:14:20.10	264.37	35.84	-34.5	-35.7	29.8	3.04e+01	92	27	0	659554304	44	5899
2026-01-14 03:14:21.11	264.87	35.83	-34.5	-35.7	29.8	3.04e+01	92	27	0	661127168	44	5890
2026-01-14 03:14:22.13	265.37	35.83	-34.5	-35.6	29.8	3.04e+01	92	27	0	663224320	44	5847
2026-01-14 03:14:23.14	265.86	35.82	-34.4	-35.6	29.9	3.04e+01	92	27	0	665321472	44	5803
2026-01-14 03:14:24.15	266.35	35.81	-34.4	-35.6	29.7	3.04e+01	90	27	0	666894336	44	5827
2026-01-14 03:14:25.16	266.85	35.80	-34.4	-35.6	29.8	3.04e+01	92	27	0	668991488	44	5836
2026-01-14 03:14:26.17	267.34	35.79	-34.5	-35.7	29.8	3.04e+01	91	27	0	670564352	44	5864
2026-01-14 03:14:27.18	267.84	35.77	-34.4	-35.6	29.9	3.04e+01	91	27	0	672661504	44	5820
2026-01-14 03:14:28.18	268.32	35.75	-34.3	-35.4	29.9	3.04e+01	88	27	0	674758656	44	5716
2026-01-14 03:14:29.20	268.82	35.73	-34.4	-35.5	29.9	3.04e+01	92	27	0	676331520	44	5791
2026-01-14 03:14:30.20	269.31	35.71	-34.5	-35.7	29.8	3.04e+01	92	27	0	678428672	44	5878
2026-01-14 03:14:31.21	269.80	35.68	-34.3	-35.5	29.9	3.04e+01	91	27	0	680525824	44	5762
2026-01-14 03:14:32.22	270.29	35.65	-34.4	-35.6	29.8	3.04e+01	92	27	0	682098688	44	5850
2026-01-14 03:14:33.23	270.78	35.62	-34.4	-35.6	29.8	3.04e+01	90	27	0	684195840	44	5820
2026-01-14 03:14:34.24	271.26	35.59	-34.4	-35.6	29.8	3.04e+01	92	27	0	685768704	44	5836
2026-01-14 03:14:35.25	271.75	35.55	-34.2	-35.4	30.1	3.04e+01	92	27	0	687865856	44	5664
2026-01-14 03:14:36.26	272.24	35.52	-34.3	-35.5	29.9	3.04e+01	90	27	0	689963008	44	5755
2026-01-14 03:14:37.28	272.72	35.48	-34.2	-35.3	30.1	3.04e+01	92	27	0	691535872	44	5641
2026-01-14 03:14:38.29	273.21	35.44	-34.3	-35.5	30.0	3.04e+01	92	27	0	693633024	44	5755
2026-01-14 03:14:39.30	273.69	35.39	-34.2	-35.4	30.0	3.04e+01	92	27	0	695205888	44	5687
2026-01-14 03:14:40.31	274.17	35.35	-34.3	-35.4	30.0	3.04e+01	92	27	0	697303040	44	5722
2026-01-14 03:14:41.32	274.65	35.30	-34.3	-35.4	30.0	3.04e+01	91	27	0	699400192	44	5714
2026-01-14 03:14:42.33	275.13	35.25	-34.2	-35.4	30.0	3.04e+01	91	27	0	700973056	44	5710
2026-01-14 03:14:43.34	275.60	35.20	-34.3	-35.5	29.9	3.04e+01	92	27	0	703070208	44	5756
2026-01-14 03:14:44.35	276.08	35.15	-34.1	-35.2	30.2	3.04e+01	92	27	0	704643072	44	5588
2026-01-14 03:14:45.36	276.55	35.09	-34.2	-35.4	30.1	3.04e+01	90	27	0	706740224	44	5678
2026-01-14 03:14:46.37	277.02	35.03	-34.0	-35.1	30.3	3.04e+01	91	27	0	708837376	44	5525
2026-01-14 03:14:47.38	277.49	34.97	-34.1	-35.2	30.1	3.04e+01	92	27	0	710410240	44	5586
2026-01-14 03:14:48.39	277.96	34.91	-34.0	-35.2	30.3	3.04e+01	91	27	0	712507392	44	5547
2026-01-14 03:14:49.40	278.43	34.85	-34.0	-35.2	30.2	3.04e+01	92	27	0	714080256	42	6242
2026-01-14 03:14:50.41	278.89	34.78	-33.9	-35.1	30.3	3.04e+01	92	27	0	716177408	42	6139
2026-01-14 03:14:51.42	279.35	34.72	-33.9	-35.1	30.3	3.04e+01	91	27	0	718274560	42	6138
2026-01-14 03:14:52.43	279.81	34.65	-33.9	-35.1	30.3	3.04e+01	87	27	0	719847424	42	6175
2026-01-14 03:14:53.44	280.27	34.58	-34.1	-35.3	30.1	3.04e+01	90	27	0	721944576	42	6289
2026-01-14 03:14:54.45	280.73	34.50	-33.8	-35.0	30.4	3.04e+01	92	27	0	724041728	42	6077
2026-01-14 03:14:55.46	281.18	34.43	-33.7	-34.9	30.5	3.04e+01	87	27	0	725614592	42	5999
2026-01-14 03:14:56.47	281.63	34.35	-33.9	-35.1	30.3	3.04e+01	92	27	0	727711744	42	6154
2026-01-14 03:14:57.48	282.08	34.28	-33.9	-35.1	30.3	3.04e+01	92	27	0	729284608	42	6156
2026-01-14 03:14:58.49	282.53	34.20	-33.8	-35.0	30.4	3.04e+01	92	27	0	731381760	42	6107
2026-01-14 03:14:59.50	282.98	34.11	-33.9	-35.1	30.3	3.04e+01	91	27	0	733478912	42	6167
2026-01-14 03:15:00.51	283.42	34.03	-33.7	-34.8	30.5	3.04e+01	90	27	0	735051776	42	5979
2026-01-14 03:15:01.52	283.86	33.95	-33.7	-34.9	30.5	3.04e+01	90	27	0	737148928	42	6012
2026-01-14 03:15:02.53	284.30	33.86	-33.8	-34.9	30.4	3.04e+01	91	27	0	738721792	42	6052
2026-01-14 03:15:03.54	284.74	33.77	-33.7	-34.8	30.5	3.04e+01	92	27	0	740818944	42	5984
2026-01-14 03:15:04.55	285.17	33.69	-33.7	-34.8	30.6	3.04e+01	91	27	0	742916096	42	5970
2026-01-14 03:15:05.56	285.60	33.59	-33.8	-35.0	30.4	3.04e+01	92	27	0	744488960	42	6085
2026-01-14 03:15:06.57	286.03	33.50	-33.7	-34.8	30.5	3.04e+01	92	27	0	746586112	42	5966
2026-01-14 03:15:07.58	286.46	33.41	-33.6	-34.8	30.5	3.04e+01	91	27	0	748683264	42	5970
2026-01-14 03:15:08.59	286.88	33.31	-33.6	-34.7	30.6	3.04e+01	89	27	0	750256128	42	5916
2026-01-14 03:15:09.60	287.30	33.22	-33.7	-34.9	30.5	3.04e+01	91	27	0	752353280	42	6032
2026-01-14 03:15:10.61	287.72	33.12	-33.9	-35.1	30.4	3.04e+01	89	27	0	753926144	42	6147
2026-01-14 03:15:11.62	288.14	33.02	-33.9	-35.1	30.3	3.04e+01	88	27	0	756023296	42	6188
2026-01-14 03:15:12.63	288.55	32.92	-33.5	-34.7	30.6	3.04e+01	90	27	0	758120448	42	5884
2026-01-14 03:15:13.64	288.96	32.82	-33.4	-34.5	30.7	3.04e+01	92	27	0	759693312	42	5786
2026-01-14 03:15:14.64	289.36	32.72	-33.4	-34.6	30.8	3.04e+01	92	27	0	761790464	42	5823
2026-01-14 03:15:15.65	289.77	32.62	-33.5	-34.6	30.7	3.04e+01	92	27	0	763363328	42	5837
2026-01-14 03:15:16.66	290.17	32.51	-33.5	-34.6	30.6	3.04e+01	92	27	0	765460480	42	5850
2026-01-14 03:15:17.67	290.57	32.41	-33.6	-34.8	30.6	3.04e+01	90	27	0	767557632	42	5954
2026-01-14 03:15:18.68	290.97	32.30	-33.4	-34.5	30.8	3.04e+01	92	27	0	769130496	42	5758
2026-01-14 03:15:19.69	291.37	32.19	-33.5	-34.7	30.7	3.04e+01	90	27	0	771227648	42	5874
2026-01-14 03:15:20.70	291.76	32.08	-33.3	-34.5	30.8	3.04e+01	92	27	0	772800512	42	5734
2026-01-14 03:15:21.71	292.15	31.97	-33.5	-34.6	30.6	3.04e+01	92	27	0	774897664	42	5848
2026-01-14 03:15:22.72	292.54	31.86	-33.5	-34.6	30.6	3.04e+01	91	27	0	776994816	42	5851
2026-01-14 03:15:23.74	292.93	31.75	-33.4	-34.6	30.7	3.04e+01	91	27	0	778567680	42	5814
2026-01-14 03:15:24.74	293.30	31.64	-33.4	-34.6	30.7	3.04e+01	91	27	0	780664832	42	5823
2026-01-14 03:15:25.75	293.68	31.53	-33.3	-34.5	30.7	3.04e+01	91	27	0	782237696	42	5750
2026-01-14 03:15:26.76	294.06	31.41	-33.5	-34.7	30.6	3.04e+01	92	27	0	784334848	42	5889
2026-01-14 03:15:27.77	294.43	31.30	-33.3	-34.4	30.8	3.04e+01	92	27	0	786432000	42	5688
2026-01-14 03:15:28.78	294.80	31.18	-33.3	-34.5	30.8	3.04e+01	92	27	0	788004864	42	5747
2026-01-14 03:15:29.79	295.17	31.06	-33.5	-34.6	30.6	3.04e+01	92	27	0	790102016	42	5843
2026-01-14 03:15:30.80	295.54	30.95	-33.4	-34.5	30.7	3.04e+01	91	27	0	792199168	42	5781
2026-01-14 03:15:31.81	295.90	30.83	-33.2	-34.4	30.9	3.04e+01	52	27	0	793772032	42	5680
2026-01-14 03:15:32.82	296.26	30.71	-33.3	-34.5	30.7	3.04e+01	58	27	0	795869184	42	5748
2026-01-14 03:15:33.83	296.62	30.59	-33.4	-34.6	30.7	3.04e+01	58	27	0	797442048	42	5809
2026-01-14 03:15:34.84	296.97	30.47	-33.4	-34.6	30.6	3.04e+01	57	27	0	799539200	42	5825
2026-01-14 03:15:35.85	297.32	30.35	-33.5	-34.6	30.6	3.04e+01	59	27	0	801636352	42	5852
2026-01-14 03:15:36.86	297.67	30.23	-33.5	-34.7	30.6	3.04e+01	48	27	0	803209216	42	5861
2026-01-14 03:15:37.87	298.02	30.11	-33.7	-34.8	30.5	3.04e+01	56	27	0	805306368	42	5990
2026-01-14 03:15:38.88	298.36	29.99	-33.7	-34.8	30.5	3.04e+01	62	27	0	806879232	42	5991
2026-01-14 03:15:39.89	298.71	29.86	-33.5	-34.6	30.7	3.04e+01	46	27	0	808976384	42	5843
2026-01-14 03:15:40.90	299.04	29.74	-33.4	-34.6	30.7	3.04e+01	61	27	0	811073536	42	5823
2026-01-14 03:15:41.91	299.38	29.62	-33.5	-34.7	30.6	3.04e+01	61	27	0	812646400	42	5887
2026-01-14 03:15:42.92	299.71	29.49	-33.7	-34.9	30.4	3.04e+01	58	27	0	814743552	42	6015
2026-01-14 03:15:43.93	300.04	29.37	-33.6	-34.8	30.5	3.04e+01	58	27	0	816840704	42	5960
2026-01-14 03:15:44.94	300.37	29.24	-33.5	-34.7	30.6	3.04e+01	60	27	0	818413568	42	5886
2026-01-14 03:15:45.95	300.70	29.12	-33.5	-34.7	30.7	3.04e+01	60	27	0	820510720	42	5865
2026-01-14 03:15:46.96	301.02	28.99	-33.6	-34.8	30.6	3.04e+01	57	27	0	822083584	42	5934
2026-01-14 03:15:47.97	301.34	28.86	-33.6	-34.7	30.5	3.04e+01	53	27	0	824180736	42	5924
2026-01-14 03:15:48.98	301.66	28.74	-33.6	-34.8	30.5	3.04e+01	58	27	0	826277888	42	5942
2026-01-14 03:15:49.99	301.98	28.61	-33.6	-34.8	30.5	3.04e+01	58	27	0	827850752	42	5943
2026-01-14 03:15:51.00	302.29	28.48	-33.7	-34.9	30.5	3.04e+01	58	27	0	829947904	42	6003
2026-01-14 03:15:52.01	302.60	28.36	-33.9	-35.0	30.3	3.04e+01	61	27	0	831520768	42	6119
2026-01-14 03:15:53.02	302.91	28.23	-33.7	-34.9	30.4	3.04e+01	50	27	0	833617920	42	6017
2026-01-14 03:15:54.03	303.21	28.10	-33.7	-34.9	30.5	3.04e+01	59	27	0	835715072	42	5997
2026-01-14 03:15:55.04	303.51	27.98	-33.7	-34.9	30.4	3.04e+01	59	27	0	837287936	42	6029
2026-01-14 03:15:56.04	303.81	27.85	-33.8	-35.0	30.4	3.04e+01	46	27	0	839385088	42	6089
2026-01-14 03:15:57.06	304.11	27.72	-33.9	-35.1	30.3	3.04e+01	58	27	0	840957952	42	6139
2026-01-14 03:15:58.06	304.41	27.59	-34.0	-35.1	30.1	3.04e+01	61	27	0	843055104	42	6202
2026-01-14 03:15:59.08	304.70	27.46	-33.8	-34.9	30.4	3.04e+01	57	27	0	845152256	42	6042
2026-01-14 03:16:00.09	304.99	27.33	-33.9	-35.1	30.3	3.04e+01	60	27	0	846725120	42	6141
2026-01-14 03:16:01.10	305.28	27.21	-33.9	-35.1	30.3	3.04e+01	54	27	0	848822272	42	6164
2026-01-14 03:16:02.11	305.57	27.08	-33.9	-35.1	30.2	3.04e+01	58	28	0	850395136	42	6189
2026-01-14 03:16:03.12	305.85	26.95	-34.0	-35.2	30.2	3.04e+01	60	28	0	852492288	42	6238
2026-01-14 03:16:04.13	306.13	26.82	-34.1	-35.3	30.1	3.04e+01	52	28	0	854589440	42	6294
2026-01-14 03:16:05.14	306.41	26.69	-34.1	-35.2	30.1	3.04e+01	62	28	0	856162304	42	6271
2026-01-14 03:16:06.15	306.69	26.56	-34.0	-35.1	30.2	3.04e+01	56	28	0	858259456	42	6191
2026-01-14 03:16:07.16	306.96	26.43	-34.0	-35.2	30.1	3.04e+01	60	28	0	860356608	42	6246
2026-01-14 03:16:08.17	307.23	26.30	-34.1	-35.3	30.1	3.04e+01	59	28	0	861929472	42	6312
2026-01-14 03:16:09.18	307.50	26.18	-34.0	-35.2	30.2	3.04e+01	54	28	0	864026624	42	6246
2026-01-14 03:16:10.19	307.77	26.05	-34.2	-35.4	30.0	3.04e+01	60	28	0	865599488	42	6399
2026-01-14 03:16:11.20	308.04	25.92	-34.2	-35.4	30.0	3.04e+01	62	28	0	867696640	42	6351
2026-01-14 03:16:12.21	308.30	25.79	-34.3	-35.5	29.9	3.04e+01	52	28	0	869793792	42	6453
2026-01-14 03:16:13.21	308.56	25.66	-34.2	-35.3	30.1	3.04e+01	60	28	0	871366656	42	6337
2026-01-14 03:16:14.22	308.82	25.53	-33.9	-35.1	30.2	3.04e+01	44	28	0	873463808	42	6182
2026-01-14 03:16:15.24	309.08	25.40	-34.0	-35.2	30.2	3.04e+01	59	28	0	875036672	42	6218
2026-01-14 03:16:16.24	309.33	25.28	-34.2	-35.4	30.1	3.04e+01	60	28	0	877133824	42	6365
2026-01-14 03:16:17.25	309.58	25.15	-34.3	-35.5	29.9	3.04e+01	44	28	0	879230976	42	6461
2026-01-14 03:16:18.26	309.83	25.02	-34.5	-35.7	29.8	3.04e+01	59	28	0	880803840	42	6599
2026-01-14 03:16:19.27	310.08	24.89	-34.5	-35.7	29.7	3.04e+01	58	28	0	882900992	42	6606
2026-01-14 03:16:20.28	310.33	24.77	-34.4	-35.6	29.8	3.04e+01	59	28	0	884998144	42	6534
2026-01-14 03:16:21.29	310.57	24.64	-34.2	-35.4	29.9	3.04e+01	62	28	0	886571008	42	6406
2026-01-14 03:16:22.30	310.81	24.51	-34.4	-35.6	29.9	3.04e+01	57	28	0	888668160	42	6508
2026-01-14 03:16:23.31	311.05	24.38	-34.2	-35.4	30.0	3.04e+01	57	28	0	890241024	42	6391
2026-01-14 03:16:24.32	311.29	24.26	-34.3	-35.5	29.9	3.04e+01	58	28	0	892338176	42	6477
2026-01-14 03:16:25.33	311.53	24.13	-34.2	-35.4	30.0	3.04e+01	46	28	0	894435328	42	6405
2026-01-14 03:16:26.34	311.76	24.00	-34.1	-35.3	30.1	3.04e+01	60	28	0	896008192	42	6294
2026-01-14 03:16:27.35	311.99	23.88	-34.3	-35.5	29.9	3.04e+01	60	28	0	898105344	42	6441
2026-01-14 03:16:28.36	312.22	23.75	-34.1	-35.3	30.0	3.04e+01	59	28	0	899678208	42	6328
2026-01-14 03:16:29.37	312.45	23.62	-34.1	-35.3	30.1	3.04e+01	58	28	0	901775360	42	6293
2026-01-14 03:16:30.38	312.68	23.50	-34.1	-35.3	30.1	3.04e+01	47	28	0	903872512	42	6300
2026-01-14 03:16:31.39	312.90	23.37	-34.2	-35.3	30.0	3.04e+01	52	28	0	905445376	42	6336
2026-01-14 03:16:32.40	313.13	23.25	-34.1	-35.3	30.0	3.04e+01	61	28	0	907542528	42	6321
2026-01-14 03:16:33.41	313.35	23.12	-34.1	-35.3	30.0	3.04e+01	45	28	0	909115392	42	6324
2026-01-14 03:16:34.42	313.57	23.00	-34.2	-35.4	30.0	3.04e+01	60	28	0	911212544	42	6401
2026-01-14 03:16:35.43	313.79	22.87	-34.3	-35.5	29.9	3.04e+01	58	28	0	913309696	42	6462
2026-01-14 03:16:36.44	314.00	22.75	-34.2	-35.4	30.0	3.04e+01	61	28	0	914882560	42	6375
2026-01-14 03:16:37.45	314.22	22.62	-34.3	-35.5	29.9	3.04e+01	60	28	0	916979712	42	6451
2026-01-14 03:16:38.46	314.43	22.50	-34.1	-35.3	30.0	3.04e+01	51	28	0	919076864	42	6304
2026-01-14 03:16:39.47	314.64	22.38	-34.2	-35.4	30.0	3.04e+01	59	28	0	920649728	42	6371
2026-01-14 03:16:40.48	314.85	22.25	-34.3	-35.5	29.9	3.04e+01	59	28	0	922746880	42	6455
2026-01-14 03:16:41.49	315.06	22.13	-34.3	-35.5	29.8	3.04e+01	56	28	0	924319744	42	6493
2026-01-14 03:16:42.50	315.26	22.01	-34.5	-35.8	29.7	3.04e+01	59	28	0	926416896	42	6653
2026-01-14 03:16:43.51	315.47	21.88	-34.2	-35.4	29.9	3.04e+01	45	28	0	927989760	42	6387
2026-01-14 03:16:44.52	315.67	21.76	-34.3	-35.5	29.9	3.04e+01	61	28	0	930086912	42	6480
2026-01-14 03:16:45.53	315.87	21.64	-34.1	-35.3	29.9	3.04e+01	60	28	0	932184064	42	6323
2026-01-14 03:16:46.54	316.07	21.52	-34.1	-35.3	30.1	3.04e+01	47	28	0	933756928	42	6294
2026-01-14 03:16:47.55	316.26	21.40	-34.1	-35.3	30.0	3.04e+01	59	28	0	935854080	42	6280
2026-01-14 03:16:48.56	316.46	21.28	-34.1	-35.2	30.1	3.04e+01	60	28	0	937951232	42	6271
2026-01-14 03:16:49.57	316.65	21.16	-34.1	-35.3	30.1	3.04e+01	60	28	0	939524096	42	6321
2026-01-14 03:16:50.58	316.85	21.04	-34.1	-35.2	30.0	3.04e+01	53	28	0	941621248	42	6271
2026-01-14 03:16:51.59	317.04	20.92	-34.0	-35.2	30.1	3.04e+01	57	28	0	943194112	42	6230
2026-01-14 03:16:52.60	317.23	20.80	-34.1	-35.3	30.0	3.04e+01	61	28	0	945291264	42	6311
2026-01-14 03:16:53.61	317.42	20.68	-34.1	-35.3	30.0	3.04e+01	58	28	0	947388416	42	6282
2026-01-14 03:16:54.62	317.60	20.56	-34.1	-35.3	30.0	3.04e+01	49	28	0	948961280	42	6312
2026-01-14 03:16:55.63	317.79	20.44	-34.1	-35.3	30.1	3.04e+01	59	28	0	951058432	42	6280
2026-01-14 03:16:56.64	317.97	20.32	-34.1	-35.3	30.0	3.04e+01	56	28	0	953155584	42	6300
2026-01-14 03:16:57.65	318.15	20.20	-34.1	-35.3	29.9	3.04e+01	57	28	0	954728448	42	6315
2026-01-14 03:16:58.66	318.34	20.09	-34.1	-35.3	30.0	3.04e+01	58	28	0	956825600	42	6334
2026-01-14 03:16:59.67	318.52	19.97	-34.1	-35.3	30.0	3.04e+01	44	28	0	958398464	42	6292
2026-01-14 03:17:00.68	318.69	19.85	-34.3	-35.4	29.9	3.04e+01	57	28	0	960495616	42	6421
2026-01-14 03:17:01.69	318.87	19.74	-34.1	-35.3	30.0	3.04e+01	59	28	0	962592768	42	6288
2026-01-14 03:17:02.70	319.05	19.62	-34.0	-35.2	30.1	3.04e+01	46	28	0	964165632	42	6214
2026-01-14 03:17:03.71	319.22	19.50	-33.9	-35.1	30.2	3.04e+01	58	28	0	966262784	42	6186
2026-01-14 03:17:04.72	319.39	19.39	-34.0	-35.1	30.1	3.04e+01	59	28	0	967835648	42	6191
2026-01-14 03:17:05.73	319.56	19.27	-34.0	-35.2	30.2	3.04e+01	56	28	0	969932800	42	6241
2026-01-14 03:17:06.74	319.73	19.16	-34.0	-35.2	30.1	3.04e+01	60	28	0	972029952	42	6212
2026-01-14 03:17:07.75	319.90	19.04	-33.8	-35.0	30.2	3.04e+01	47	28	0	973602816	42	6103
2026-01-14 03:17:08.76	320.07	18.93	-33.8	-35.0	30.3	3.04e+01	59	28	0	975699968	42	6092
2026-01-14 03:17:09.77	320.24	18.82	-34.0	-35.2	30.1	3.04e+01	52	28	0	977797120	42	6211
2026-01-14 03:17:10.78	320.40	18.70	-33.9	-35.1	30.2	3.04e+01	49	28	0	979369984	42	6150
2026-01-14 03:17:11.79	320.56	18.59	-34.0	-35.2	30.1	3.04e+01	58	28	0	981467136	42	6213
2026-01-14 03:17:12.80	320.73	18.48	-34.1	-35.3	30.0	3.04e+01	54	28	0	983040000	42	6302
2026-01-14 03:17:13.80	320.89	18.36	-34.1	-35.3	30.0	3.04e+01	60	28	0	985137152	42	6293
2026-01-14 03:17:14.81	321.05	18.25	-34.3	-35.5	29.9	3.04e+01	58	28	0	987234304	42	6446
2026-01-14 03:17:15.82	321.20	18.14	-34.1	-35.3	29.9	3.04e+01	56	28	0	988807168	42	6328
2026-01-14 03:17:16.83	321.36	18.03	-34.2	-35.3	29.8	3.04e+01	61	28	0	990904320	42	6347
2026-01-14 03:17:17.84	321.52	17.92	-34.1	-35.3	29.9	3.04e+01	60	28	0	992477184	42	6303
2026-01-14 03:17:18.85	321.67	17.81	-34.4	-35.6	29.7	3.04e+01	63	28	0	994574336	42	6501
2026-01-14 03:17:19.86	321.83	17.70	-34.1	-35.2	30.0	3.04e+01	58	28	0	996671488	42	6268
2026-01-14 03:17:20.88	321.98	17.59	-34.1	-35.2	30.0	3.04e+01	53	28	0	998244352	42	6271
2026-01-14 03:17:21.89	322.13	17.48	-33.9	-35.0	30.2	3.04e+01	62	28	0	1000341504	42	6128
2026-01-14 03:17:22.90	322.28	17.37	-34.0	-35.1	30.1	3.04e+01	58	28	0	1001914368	42	6187
2026-01-14 03:17:23.90	322.43	17.26	-34.1	-35.3	30.1	3.04e+01	47	28	0	1004011520	42	6319
2026-01-14 03:17:24.91	322.58	17.15	-34.0	-35.1	30.0	3.04e+01	60	28	0	1006108672	42	6202
2026-01-14 03:17:25.92	322.73	17.05	-34.1	-35.3	30.0	3.04e+01	59	28	0	1007681536	42	6329
2026-01-14 03:17:26.93	322.87	16.94	-34.0	-35.2	30.0	3.04e+01	61	28	0	1009778688	42	6254
2026-01-14 03:17:27.94	323.02	16.83	-34.0	-35.2	30.0	3.04e+01	60	28	0	1011351552	42	6234
2026-01-14 03:17:28.95	323.16	16.72	-34.1	-35.3	29.9	3.04e+01	60	28	0	1013448704	42	6302
2026-01-14 03:17:29.96	323.31	16.62	-34.1	-35.3	29.9	3.04e+01	60	28	0	1015545856	42	6287
2026-01-14 03:17:30.97	323.45	16.51	-34.1	-35.3	29.9	3.04e+01	62	28	0	1017118720	42	6295
2026-01-14 03:17:31.99	323.59	16.40	-34.2	-35.4	29.9	3.04e+01	45	28	0	1019215872	42	6380
2026-01-14 03:17:33.00	323.73	16.30	-34.0	-35.2	30.1	3.04e+01	59	28	0	1021313024	42	6226
2026-01-14 03:17:34.00	323.87	16.19	-34.2	-35.3	29.9	3.04e+01	61	28	0	1022885888	42	6347
2026-01-14 03:17:35.02	324.01	16.09	-34.0	-35.1	30.0	3.04e+01	59	28	0	1024983040	42	6198
2026-01-14 03:17:36.03	324.14	15.98	-33.9	-35.1	30.1	3.04e+01	59	28	0	1026555904	42	6167
2026-01-14 03:17:37.04	324.28	15.88	-33.9	-35.1	30.1	3.04e+01	50	28	0	1028653056	42	6159
2026-01-14 03:17:38.05	324.41	15.78	-34.1	-35.2	30.0	3.04e+01	61	28	0	1030750208	42	6276
2026-01-14 03:17:39.06	324.55	15.67	-34.0	-35.2	30.0	3.04e+01	56	28	0	1032323072	42	6221
2026-01-14 03:17:40.07	324.68	15.57	-34.1	-35.3	29.9	3.04e+01	43	28	0	1034420224	42	6282
2026-01-14 03:17:41.08	324.81	15.47	-34.0	-35.2	30.0	3.04e+01	59	28	0	1035993088	42	6228
2026-01-14 03:17:42.09	324.95	15.36	-34.1	-35.2	30.0	3.04e+01	57	28	0	1038090240	42	6274
2026-01-14 03:17:43.10	325.08	15.26	-34.0	-35.2	29.9	3.04e+01	63	28	0	1040187392	42	6243
2026-01-14 03:17:44.11	325.20	15.16	-34.1	-35.3	29.8	3.04e+01	60	28	0	1041760256	42	6322
2026-01-14 03:17:45.12	325.33	15.06	-34.1	-35.3	29.9	3.04e+01	53	28	0	1043857408	42	6342
2026-01-14 03:17:46.13	325.46	14.96	-34.2	-35.4	29.8	3.04e+01	59	28	0	1045954560	42	6401
2026-01-14 03:17:47.14	325.59	14.86	-34.3	-35.5	29.8	3.04e+01	60	28	0	1047527424	42	6447
2026-01-14 03:17:48.15	325.71	14.76	-34.3	-35.5	29.7	3.04e+01	54	28	0	1049624576	42	6444
2026-01-14 03:17:49.16	325.84	14.66	-34.2	-35.4	29.8	3.04e+01	60	28	0	1051197440	42	6370
2026-01-14 03:17:50.17	325.96	14.56	-34.5	-35.7	29.5	3.04e+01	45	28	0	1053294592	42	6580
2026-01-14 03:17:51.18	326.09	14.46	-34.2	-35.4	29.8	3.04e+01	51	28	0	1055391744	42	6360
2026-01-14 03:17:52.19	326.21	14.36	-34.3	-35.5	29.7	3.04e+01	60	28	0	1056964608	42	6426
2026-01-14 03:17:53.20	326.33	14.26	-34.1	-35.3	29.8	3.04e+01	45	28	0	1059061760	42	6337
2026-01-14 03:17:54.21	326.45	14.16	-34.2	-35.4	29.8	3.04e+01	59	28	0	1061158912	42	6389
2026-01-14 03:17:55.22	326.57	14.06	-34.2	-35.4	29.8	3.04e+01	56	28	0	1062731776	42	6355
2026-01-14 03:17:56.23	326.69	13.97	-34.2	-35.3	29.8	3.04e+01	57	28	0	1064828928	42	6337
2026-01-14 03:17:57.24	326.81	13.87	-34.2	-35.4	29.8	3.04e+01	58	28	0	1066401792	42	6401
2026-01-14 03:17:58.25	326.93	13.77	-34.3	-35.5	29.7	3.04e+01	59	28	0	1068498944	42	6452
2026-01-14 03:17:59.26	327.04	13.68	-34.2	-35.4	29.8	3.04e+01	59	28	0	1070596096	42	6400
2026-01-14 03:18:00.27	327.16	13.58	-34.3	-35.5	29.7	3.04e+01	57	28	0	1072168960	42	6449
2026-01-14 03:18:01.28	327.27	13.48	-34.3	-35.5	29.7	3.04e+01	52	28	0	1074266112	42	6431
2026-01-14 03:18:02.29	327.39	13.39	-34.3	-35.5	29.6	3.04e+01	59	28	0	1075838976	42	6477
2026-01-14 03:18:03.30	327.50	13.29	-34.2	-35.4	29.7	3.04e+01	60	28	0	1077936128	42	6392
2026-01-14 03:18:04.31	327.61	13.20	-34.3	-35.4	29.7	3.04e+01	61	28	0	1079508992	42	6417
2026-01-14 03:18:05.32	327.73	13.10	-34.4	-35.6	29.6	3.04e+01	60	29	0	1081606144	42	6522
2026-01-14 03:18:06.33	327.84	13.01	-34.4	-35.6	29.6	3.04e+01	44	28	0	1083703296	42	6525
2026-01-14 03:18:07.34	327.95	12.92	-34.4	-35.5	29.6	3.04e+01	62	28	0	1085276160	42	6495
2026-01-14 03:18:08.34	328.06	12.82	-34.4	-35.6	29.6	3.04e+01	61	28	0	1087373312	42	6513
2026-01-14 03:18:09.35	328.17	12.73	-34.4	-35.6	29.6	3.04e+01	44	29	0	1089470464	42	6522
2026-01-14 03:18:10.36	328.28	12.64	-34.5	-35.7	29.4	3.04e+01	52	29	0	1091043328	42	6631
2026-01-14 03:18:11.37	328.38	12.54	-34.5	-35.7	29.5	3.04e+01	61	28	0	1093140480	42	6583
2026-01-14 03:18:12.38	328.49	12.45	-34.5	-35.7	29.5	3.04e+01	60	29	0	1094713344	42	6635
2026-01-14 03:18:13.39	328.60	12.36	-34.5	-35.8	29.5	3.04e+01	57	29	0	1096810496	42	6664
2026-01-14 03:18:14.40	328.70	12.27	-34.5	-35.8	29.4	3.04e+01	55	29	0	1098907648	42	6655
2026-01-14 03:18:15.41	328.81	12.17	-34.7	-35.9	29.3	3.04e+01	60	29	0	1100480512	42	6762
2026-01-14 03:18:16.42	328.91	12.08	-34.8	-36.0	29.2	3.04e+01	58	29	0	1102577664	42	6843
2026-01-14 03:18:17.43	329.02	11.99	-34.6	-35.9	29.3	3.04e+01	55	29	0	1104150528	42	6740
2026-01-14 03:18:18.44	329.12	11.90	-34.7	-36.0	29.2	3.04e+01	55	28	0	1106247680	42	6811
2026-01-14 03:18:19.45	329.22	11.81	-34.8	-36.0	29.1	3.04e+01	62	28	0	1108344832	42	6882
2026-01-14 03:18:20.46	329.32	11.72	-34.8	-36.0	29.1	3.04e+01	60	28	0	1109917696	44	6116
2026-01-14 03:18:21.47	329.43	11.63	-34.8	-36.0	29.1	3.04e+01	60	28	0	1112014848	44	6101
2026-01-14 03:18:22.48	329.53	11.54	-35.0	-36.2	29.0	3.04e+01	52	28	0	1114112000	44	6259
2026-01-14 03:18:23.49	329.63	11.45	-35.1	-36.3	28.9	3.04e+01	58	28	0	1115684864	44	6324
2026-01-14 03:18:24.50	329.73	11.36	-34.7	-35.9	29.2	3.04e+01	57	29	0	1117782016	44	6063
2026-01-14 03:18:25.51	329.82	11.28	-34.8	-36.0	29.0	3.04e+01	58	29	0	1119354880	44	6123
2026-01-14 03:18:26.52	329.92	11.19	-34.9	-36.1	29.0	3.04e+01	60	29	0	1121452032	44	6192
2026-01-14 03:18:27.53	330.02	11.10	-34.9	-36.1	29.0	3.04e+01	48	29	0	1123549184	44	6200
2026-01-14 03:18:28.54	330.12	11.01	-34.8	-36.1	29.0	3.04e+01	60	29	0	1125122048	44	6140
2026-01-14 03:18:29.56	330.21	10.92	-34.9	-36.1	29.0	3.04e+01	56	28	0	1127219200	44	6160
2026-01-14 03:18:30.57	330.31	10.84	-34.9	-36.2	28.9	3.04e+01	49	29	0	1129316352	44	6221
2026-01-14 03:18:31.57	330.40	10.75	-35.0	-36.2	28.9	3.04e+01	58	29	0	1130889216	44	6246
2026-01-14 03:18:32.59	330.50	10.66	-34.9	-36.1	29.0	3.04e+01	61	29	0	1132986368	44	6172
2026-01-14 03:18:33.60	330.59	10.58	-35.0	-36.2	28.8	3.04e+01	57	28	0	1134559232	44	6254
2026-01-14 03:18:34.61	330.69	10.49	-34.9	-36.1	28.9	3.04e+01	60	29	0	1136656384	44	6185
2026-01-14 03:18:35.62	330.78	10.40	-35.0	-36.3	28.9	3.04e+01	60	29	0	1138753536	44	6290
2026-01-14 03:18:36.63	330.87	10.32	-34.9	-36.2	28.8	3.04e+01	58	29	0	1140326400	44	6222
2026-01-14 03:18:37.64	330.96	10.23	-35.0	-36.2	28.8	3.04e+01	56	29	0	1142423552	44	6256
2026-01-14 03:18:38.65	331.06	10.15	-35.0	-36.2	28.9	3.04e+01	47	29	0	1143996416	44	6268
2026-01-14 03:18:39.66	331.15	10.06	-34.9	-36.2	28.9	3.04e+01	60	29	0	1146093568	44	6229
2026-01-14 03:18:40.67	331.24	9.98	-35.0	-36.3	28.8	3.04e+01	56	29	0	1148190720	44	6281
2026-01-14 03:18:41.68	331.33	9.89	-35.0	-36.2	28.8	3.04e+01	60	29	0	1149763584	44	6270
2026-01-14 03:18:42.69	331.41	9.81	-35.1	-36.3	28.7	3.04e+01	61	29	0	1151860736	44	6346
2026-01-14 03:18:43.70	331.50	9.73	-35.1	-36.3	28.7	3.04e+01	51	29	0	1153433600	44	6338
2026-01-14 03:18:44.71	331.59	9.64	-35.2	-36.4	28.7	3.04e+01	60	29	0	1155530752	44	6394
2026-01-14 03:18:45.72	331.68	9.56	-35.2	-36.4	28.7	3.04e+01	58	29	0	1157627904	44	6399
2026-01-14 03:18:46.73	331.77	9.48	-35.2	-36.4	28.6	3.04e+01	45	29	0	1159200768	44	6400
2026-01-14 03:18:47.74	331.85	9.40	-35.2	-36.5	28.6	3.04e+01	59	29	0	1161297920	44	6452
2026-01-14 03:18:48.75	331.94	9.31	-35.6	-45.8	3.6	3.04e+01	0	29	104	1162346496	44	18906
2026-01-14 03:18:49.76	332.02	9.23	-35.7	-45.9	3.6	3.04e+01	0	29	104	1162346496	44	18988
2026-01-14 03:18:50.77	332.11	9.15	-35.7	-46.0	3.6	3.04e+01	0	29	104	1162346496	44	19183
2026-01-14 03:18:51.78	332.19	9.07	-35.6	-45.9	3.6	3.04e+01	0	29	104	1162346496	44	18966
2026-01-14 03:18:52.79	332.28	8.99	-38.2	-48.7	3.4	3.04e+01	0	29	104	1162346496	48	20999
2026-01-14 03:18:53.80	332.36	8.90	-45.9	-59.1	3.5	3.04e+01	0	29	104	1162346496	60	34829
2026-01-14 03:18:54.81	332.44	8.82	-47.3	-62.5	3.5	3.04e+01	0	29	104	1162346496	60	51249
2026-01-14 03:18:55.82	332.53	8.74	-38.2	-48.6	3.5	3.04e+01	0	29	104	1162346496	46	23058
2026-01-14 03:18:56.83	332.61	8.66	-37.2	-47.4	3.6	3.04e+01	0	29	104	1162346496	50	16094
2026-01-14 03:18:57.84	332.69	8.58	-36.6	-46.8	3.4	3.04e+01	0	29	104	1162346496	48	16832
2026-01-14 03:18:58.85	332.77	8.50	-36.9	-47.2	3.6	3.04e+01	0	29	104	1162346496	48	17692
2026-01-14 03:18:59.86	332.85	8.42	-37.0	-47.3	3.6	3.04e+01	0	29	104	1162346496	48	17753
2026-01-14 03:19:00.87	332.93	8.34	-36.5	-46.6	3.6	3.04e+01	0	29	104	1162346496	48	16498
2026-01-14 03:19:01.88	333.01	8.26	-40.8	-51.5	3.4	3.04e+01	0	29	104	1162346496	54	20347
2026-01-14 03:19:02.89	333.09	8.19	-47.3	-62.7	3.5	3.04e+01	0	29	104	1162346496	60	52637
2026-01-14 03:19:03.90	333.17	8.11	-47.6	-64.3	3.5	3.04e+01	0	29	104	1162346496	60	63220
2026-01-14 03:19:04.91	333.25	8.03	-37.7	-48.1	3.8	3.04e+01	0	29	104	1162346496	48	19428
