passes_logs/2026/01/14/R4.6S_Anadyr/R4.6S_Anadyr__20260114_174249_FENGYUN_3D_rec.log

#Pass ID: 20260114_174249_FENGYUN 3D
#Satellite: FENGYUN 3D
#Configuration: FENGYUN 3D
#almurnet v.1.7.20251203
#Start time: 2026-01-14 17:42:50

#Version: 2.2.20231116
#Station: R4.6S_Anadyr
#Location: 177.4865 lon 64.73178 lat
#TLE: 1 43010U 17072A   26013.94640698 -.00000044  00000+0  88349-6 0  9999
#TLE: 2 43010  98.9934 345.7464 0002313 110.9627 249.1796 14.19695403423100

#Time	Az	El	Level	Level2	SNR	BER	BlckErr	Temp	State	Recorded	gain1	gain2
2026-01-14 17:42:50.36	23.48	0.05	-48.6	-60.8	3.6	8.45e-01	0	27	104	0	60	39423
2026-01-14 17:42:51.87	23.45	0.14	-48.6	-60.7	3.6	8.45e-01	0	27	104	0	60	39390
2026-01-14 17:42:52.59	23.43	0.18	-48.6	-60.7	3.6	8.45e-01	0	27	104	0	60	39113
2026-01-14 17:42:53.89	23.41	0.26	-48.7	-60.8	3.6	8.46e-01	0	27	104	0	60	39564
2026-01-14 17:42:54.61	23.39	0.30	-48.7	-60.8	3.6	8.45e-01	0	27	104	0	60	39717
2026-01-14 17:42:55.91	23.37	0.38	-48.8	-60.9	3.6	8.45e-01	0	27	104	0	60	40088
2026-01-14 17:42:56.63	23.35	0.42	-48.8	-60.9	3.6	8.45e-01	0	27	104	0	60	40022
2026-01-14 17:42:57.92	23.32	0.50	-48.7	-60.9	3.6	8.45e-01	0	27	104	0	60	40044
2026-01-14 17:42:58.65	23.31	0.54	-48.8	-60.9	3.6	8.45e-01	0	27	104	0	60	40155
2026-01-14 17:42:59.94	23.28	0.62	-48.8	-60.9	3.6	8.44e-01	0	27	104	0	60	40097
2026-01-14 17:43:00.67	23.27	0.66	-48.7	-60.9	3.6	8.45e-01	0	27	104	0	60	39866
2026-01-14 17:43:01.96	23.24	0.74	-48.6	-60.8	3.6	8.46e-01	0	27	104	0	60	39735
2026-01-14 17:43:02.69	23.23	0.78	-48.7	-60.8	3.6	8.45e-01	0	27	104	0	60	39428
2026-01-14 17:43:03.98	23.20	0.86	-48.6	-60.7	3.6	8.47e-01	0	27	104	0	60	39062
2026-01-14 17:43:04.71	23.18	0.91	-48.5	-60.5	3.6	8.46e-01	0	27	104	0	60	38477
2026-01-14 17:43:06.01	23.16	0.99	-48.2	-60.3	3.6	8.46e-01	0	27	104	0	60	37450
2026-01-14 17:43:06.73	23.14	1.03	-48.0	-60.2	3.6	8.45e-01	0	28	104	0	60	37004
2026-01-14 17:43:08.02	23.11	1.11	-47.9	-60.0	3.6	8.45e-01	0	28	104	0	60	36125
2026-01-14 17:43:08.75	23.10	1.15	-47.7	-59.8	3.6	8.45e-01	0	28	104	0	60	35277
2026-01-14 17:43:10.04	23.07	1.23	-47.2	-59.3	3.5	8.44e-01	0	27	104	0	60	33276
2026-01-14 17:43:10.76	23.05	1.28	-47.2	-59.3	3.6	8.44e-01	0	28	104	0	60	33214
2026-01-14 17:43:12.06	23.02	1.36	-47.2	-59.3	3.6	8.47e-01	0	28	104	0	60	33165
2026-01-14 17:43:12.78	23.01	1.40	-47.2	-59.3	3.6	8.45e-01	0	28	104	0	60	33179
2026-01-14 17:43:14.08	22.98	1.48	-47.2	-59.1	3.6	8.46e-01	0	28	104	0	60	32750
2026-01-14 17:43:14.80	22.96	1.52	-47.2	-59.0	3.6	8.45e-01	0	28	104	0	60	32302
2026-01-14 17:43:16.10	22.94	1.60	-47.2	-58.8	3.6	8.46e-01	0	28	104	0	60	31644
2026-01-14 17:43:16.82	22.92	1.65	-47.2	-58.7	3.6	8.45e-01	0	28	104	0	60	31011
2026-01-14 17:43:18.12	22.89	1.73	-47.1	-58.6	3.6	8.44e-01	0	28	104	0	60	30620
2026-01-14 17:43:18.84	22.87	1.78	-47.1	-58.7	3.6	8.44e-01	0	28	104	0	60	31058
2026-01-14 17:43:20.14	22.84	1.86	-47.2	-58.9	3.6	8.43e-01	0	28	104	0	60	31935
2026-01-14 17:43:20.86	22.83	1.90	-47.2	-59.0	3.6	8.45e-01	0	28	104	0	60	32231
2026-01-14 17:43:22.15	22.80	1.98	-47.2	-59.2	3.6	8.46e-01	0	28	104	0	60	32936
2026-01-14 17:43:22.87	22.78	2.03	-47.2	-59.2	3.6	8.45e-01	0	28	104	0	60	33139
2026-01-14 17:43:24.17	22.75	2.11	-47.2	-59.3	3.6	8.45e-01	0	28	104	0	60	33274
2026-01-14 17:43:24.90	22.73	2.16	-47.2	-59.2	3.6	8.45e-01	0	28	104	0	60	32865
2026-01-14 17:43:26.19	22.70	2.24	-47.2	-59.0	3.6	8.45e-01	0	28	104	0	60	32190
2026-01-14 17:43:26.92	22.69	2.28	-47.2	-58.8	3.6	8.45e-01	0	28	104	0	60	31596
2026-01-14 17:43:28.21	22.65	2.37	-47.1	-58.5	3.6	8.45e-01	0	28	104	0	60	30563
2026-01-14 17:43:28.93	22.64	2.41	-47.1	-58.4	3.6	8.45e-01	0	28	104	0	60	30177
2026-01-14 17:43:30.23	22.61	2.50	-47.1	-58.0	3.6	8.45e-01	0	28	104	0	60	28618
2026-01-14 17:43:30.95	22.59	2.54	-47.1	-57.6	3.6	8.45e-01	0	28	104	0	60	27572
2026-01-14 17:43:32.25	22.56	2.62	-47.0	-57.2	3.7	8.43e-01	0	28	104	0	60	26260
2026-01-14 17:43:32.97	22.54	2.67	-47.0	-57.5	3.6	8.44e-01	0	28	104	0	60	27135
2026-01-14 17:43:34.27	22.51	2.75	-47.1	-58.0	3.6	8.45e-01	0	28	104	0	60	28583
2026-01-14 17:43:34.99	22.49	2.80	-47.1	-58.2	3.6	8.46e-01	0	28	104	0	60	29446
2026-01-14 17:43:36.28	22.46	2.88	-47.0	-57.6	3.6	8.46e-01	0	28	104	0	60	27287
2026-01-14 17:43:37.00	22.44	2.93	-46.9	-56.0	4.0	8.43e-01	0	28	104	0	60	22874
2026-01-14 17:43:38.30	22.41	3.02	-46.1	-51.3	6.0	7.17e-01	0	28	0	1048576	60	13211
2026-01-14 17:43:39.02	22.39	3.06	-45.6	-49.8	8.0	1.72e-01	0	28	0	5242880	60	11109
2026-01-14 17:43:40.32	22.36	3.15	-44.0	-46.8	11.4	5.54e-03	0	28	0	12582912	60	7890
2026-01-14 17:43:41.04	22.34	3.19	-43.3	-45.6	12.7	3.71e-04	0	28	0	15728640	60	6885
2026-01-14 17:43:42.34	22.31	3.28	-42.1	-44.0	14.2	1.14e-05	0	28	0	23068672	58	6432
2026-01-14 17:43:43.06	22.29	3.33	-41.7	-43.4	15.0	1.10e-06	0	28	0	27262976	56	6700
2026-01-14 17:43:44.36	22.25	3.41	-40.9	-42.4	16.0	0.00e+00	0	28	0	34603008	56	5987
2026-01-14 17:43:45.08	22.23	3.46	-40.7	-42.2	16.0	0.00e+00	0	28	0	38797312	54	6564
2026-01-14 17:43:46.37	22.20	3.55	-40.7	-42.1	16.1	0.00e+00	0	28	0	46137344	54	6532
2026-01-14 17:43:47.10	22.18	3.59	-40.7	-42.2	15.9	0.00e+00	0	28	0	49283072	54	6583
2026-01-14 17:43:48.39	22.15	3.68	-42.0	-43.8	13.1	0.00e+00	0	28	0	56623104	54	7909
2026-01-14 17:43:49.11	22.13	3.73	-47.2	-58.2	3.7	4.63e-01	0	28	104	58720256	60	29356
2026-01-14 17:43:50.41	22.09	3.82	-36.8	-37.8	18.5	0.00e+00	0	28	0	60817408	44	7008
2026-01-14 17:43:51.13	22.07	3.86	-47.0	-57.5	3.6	7.11e-01	0	28	104	62914560	60	27066
2026-01-14 17:43:52.43	22.04	3.95	-36.3	-37.1	19.6	1.48e-05	0	28	104	62914560	48	5188
2026-01-14 17:43:53.15	22.02	4.00	-45.4	-49.3	8.7	4.37e-03	0	28	0	65011712	60	10541
2026-01-14 17:43:54.45	21.98	4.09	-37.3	-38.2	20.2	0.00e+00	0	28	0	72351744	48	5853
2026-01-14 17:43:55.17	21.97	4.14	-37.3	-38.2	20.3	0.00e+00	0	28	0	76546048	48	5862
2026-01-14 17:43:56.46	21.93	4.22	-37.7	-38.6	19.8	0.00e+00	0	28	0	83886080	48	6167
2026-01-14 17:43:57.19	21.91	4.27	-37.3	-38.2	20.3	0.00e+00	0	28	0	88080384	48	5871
2026-01-14 17:43:58.48	21.87	4.36	-36.9	-37.8	20.8	0.00e+00	0	28	0	95420416	46	6317
2026-01-14 17:43:59.20	21.85	4.41	-36.3	-37.1	21.4	0.00e+00	0	28	0	99614720	46	5828
2026-01-14 17:44:00.49	21.82	4.50	-35.8	-36.6	21.7	0.00e+00	0	28	0	106954752	46	5474
2026-01-14 17:44:01.22	21.80	4.55	-35.8	-36.7	21.7	0.00e+00	0	28	0	111149056	44	6182
2026-01-14 17:44:02.51	21.76	4.64	-35.7	-36.5	21.8	0.00e+00	0	28	0	117440512	44	6096
2026-01-14 17:44:03.23	21.74	4.69	-35.6	-36.4	21.9	0.00e+00	0	28	0	122683392	44	6006
2026-01-14 17:44:04.53	21.70	4.78	-35.7	-36.6	21.8	0.00e+00	0	28	0	128974848	44	6125
2026-01-14 17:44:05.25	21.68	4.83	-35.9	-36.7	21.8	0.00e+00	0	28	0	133169152	44	6191
2026-01-14 17:44:06.55	21.64	4.92	-35.6	-36.4	22.0	0.00e+00	0	28	0	140509184	44	6025
2026-01-14 17:44:07.27	21.62	4.97	-35.5	-36.3	22.1	0.00e+00	0	28	0	144703488	44	5942
2026-01-14 17:44:08.57	21.58	5.06	-35.6	-36.4	22.0	0.00e+00	0	28	0	152043520	44	6000
2026-01-14 17:44:09.29	21.56	5.11	-35.7	-36.5	21.9	0.00e+00	0	28	0	156237824	44	6094
2026-01-14 17:44:10.59	21.52	5.20	-35.5	-36.3	22.2	0.00e+00	0	28	0	163577856	44	5956
2026-01-14 17:44:11.31	21.50	5.25	-35.4	-36.2	22.2	0.00e+00	0	28	0	167772160	44	5883
2026-01-14 17:44:12.61	21.46	5.34	-35.5	-36.3	22.1	0.00e+00	0	28	0	175112192	44	5955
2026-01-14 17:44:13.32	21.44	5.39	-35.4	-36.2	22.2	0.00e+00	0	28	0	179306496	44	5879
2026-01-14 17:44:14.62	21.40	5.48	-35.4	-36.3	22.3	0.00e+00	0	28	0	186646528	44	5905
2026-01-14 17:44:15.34	21.38	5.54	-35.4	-36.2	22.3	0.00e+00	0	28	0	189792256	44	5857
2026-01-14 17:44:16.64	21.34	5.63	-35.5	-36.3	22.2	0.00e+00	0	28	0	197132288	44	5915
2026-01-14 17:44:17.37	21.32	5.68	-35.6	-36.4	22.1	0.00e+00	0	28	0	201326592	44	6002
2026-01-14 17:44:18.66	21.28	5.77	-35.4	-36.2	22.3	0.00e+00	0	28	0	208666624	44	5884
2026-01-14 17:44:19.38	21.26	5.82	-35.4	-36.3	22.2	0.00e+00	0	28	0	212860928	44	5900
2026-01-14 17:44:20.68	21.21	5.92	-35.4	-36.2	22.3	0.00e+00	0	28	0	220200960	44	5859
2026-01-14 17:44:21.40	21.19	5.97	-35.3	-36.1	22.4	0.00e+00	0	28	0	224395264	44	5782
2026-01-14 17:44:22.70	21.15	6.06	-35.4	-36.2	22.4	0.00e+00	0	28	0	231735296	44	5854
2026-01-14 17:44:23.42	21.13	6.12	-35.3	-36.1	22.4	0.00e+00	0	28	0	235929600	44	5802
2026-01-14 17:44:24.72	21.09	6.21	-35.3	-36.0	22.4	0.00e+00	0	28	0	243269632	44	5750
2026-01-14 17:44:25.44	21.06	6.26	-35.2	-36.0	22.5	0.00e+00	0	28	0	247463936	44	5751
2026-01-14 17:44:26.73	21.02	6.36	-35.1	-35.9	22.7	0.00e+00	0	28	0	254803968	44	5638
2026-01-14 17:44:27.46	21.00	6.41	-35.3	-36.1	22.5	0.00e+00	0	28	0	257949696	44	5787
2026-01-14 17:44:28.75	20.95	6.51	-35.0	-35.8	22.7	0.00e+00	0	28	0	265289728	44	5627
2026-01-14 17:44:29.48	20.93	6.56	-35.0	-35.8	22.8	0.00e+00	0	28	0	269484032	44	5595
2026-01-14 17:44:30.77	20.89	6.66	-35.1	-35.9	22.6	0.00e+00	0	28	0	276824064	44	5675
2026-01-14 17:44:31.50	20.86	6.71	-35.2	-35.9	22.6	0.00e+00	0	28	0	281018368	44	5685
2026-01-14 17:44:32.80	20.82	6.81	-34.9	-35.7	22.9	0.00e+00	0	28	0	288358400	44	5528
2026-01-14 17:44:33.52	20.79	6.86	-35.1	-35.9	22.7	0.00e+00	0	28	0	292552704	44	5637
2026-01-14 17:44:34.81	20.75	6.96	-34.9	-35.7	23.0	0.00e+00	0	28	0	299892736	44	5537
2026-01-14 17:44:35.54	20.72	7.01	-35.0	-35.8	22.9	0.00e+00	0	28	0	304087040	44	5595
2026-01-14 17:44:36.84	20.68	7.11	-35.0	-35.8	22.9	0.00e+00	0	28	0	311427072	44	5595
2026-01-14 17:44:37.56	20.66	7.16	-35.0	-35.8	22.9	0.00e+00	0	28	0	315621376	44	5593
2026-01-14 17:44:38.86	20.61	7.26	-34.8	-35.6	23.0	0.00e+00	0	28	0	321912832	44	5454
2026-01-14 17:44:39.58	20.58	7.32	-34.8	-35.6	23.2	0.00e+00	0	28	0	327155712	42	6106
2026-01-14 17:44:40.88	20.54	7.42	-34.8	-35.5	23.1	0.00e+00	0	28	0	333447168	42	6087
2026-01-14 17:44:41.60	20.51	7.47	-34.8	-35.5	23.1	0.00e+00	0	28	0	337641472	42	6084
2026-01-14 17:44:42.89	20.47	7.57	-34.8	-35.6	23.1	0.00e+00	0	28	0	344981504	42	6106
2026-01-14 17:44:43.61	20.44	7.63	-35.1	-35.8	23.0	0.00e+00	0	28	0	349175808	42	6292
2026-01-14 17:44:44.91	20.39	7.73	-35.0	-35.7	23.0	0.00e+00	0	28	0	356515840	42	6236
2026-01-14 17:44:45.63	20.37	7.78	-35.0	-35.8	23.0	0.00e+00	0	28	0	360710144	42	6254
2026-01-14 17:44:46.93	20.32	7.88	-34.6	-35.3	23.4	0.00e+00	0	28	0	368050176	42	5944
2026-01-14 17:44:47.65	20.29	7.94	-34.6	-35.3	23.5	0.00e+00	0	28	0	372244480	42	5921
2026-01-14 17:44:48.95	20.25	8.04	-34.6	-35.3	23.4	0.00e+00	0	28	0	379584512	42	5928
2026-01-14 17:44:49.67	20.22	8.10	-34.4	-35.2	23.5	0.00e+00	0	28	0	383778816	42	5843
2026-01-14 17:44:50.97	20.17	8.20	-34.5	-35.2	23.5	0.00e+00	0	28	0	391118848	42	5851
2026-01-14 17:44:51.70	20.14	8.25	-34.5	-35.3	23.4	0.00e+00	0	28	0	394264576	42	5924
2026-01-14 17:44:52.99	20.09	8.36	-34.3	-35.1	23.6	0.00e+00	0	28	0	401604608	42	5775
2026-01-14 17:44:53.72	20.07	8.41	-34.4	-35.1	23.6	0.00e+00	0	28	0	405798912	42	5785
2026-01-14 17:44:55.01	20.02	8.52	-34.3	-35.0	23.7	0.00e+00	0	28	0	413138944	42	5702
2026-01-14 17:44:55.73	19.99	8.57	-34.3	-35.0	23.8	0.00e+00	0	28	0	417333248	42	5727
2026-01-14 17:44:57.03	19.94	8.68	-34.2	-35.0	23.8	0.00e+00	0	28	0	424673280	42	5708
2026-01-14 17:44:57.75	19.91	8.73	-34.2	-34.8	23.9	0.00e+00	0	28	0	428867584	42	5629
2026-01-14 17:44:59.05	19.86	8.84	-34.2	-34.9	24.0	0.00e+00	0	28	0	436207616	42	5672
2026-01-14 17:44:59.77	19.83	8.90	-34.1	-34.8	23.9	0.00e+00	0	28	0	440401920	42	5603
2026-01-14 17:45:01.07	19.78	9.00	-34.1	-34.8	24.0	0.00e+00	0	28	0	447741952	42	5580
2026-01-14 17:45:01.79	19.75	9.06	-34.0	-34.7	23.9	0.00e+00	0	28	0	451936256	42	5524
2026-01-14 17:45:03.09	19.70	9.17	-34.1	-34.8	23.9	0.00e+00	0	28	0	459276288	42	5615
2026-01-14 17:45:03.81	19.67	9.22	-34.1	-34.8	23.9	0.00e+00	0	28	0	462422016	42	5622
2026-01-14 17:45:05.11	19.62	9.33	-33.9	-34.6	24.1	0.00e+00	0	28	0	469762048	42	5489
2026-01-14 17:45:05.84	19.59	9.39	-34.0	-34.7	24.1	0.00e+00	0	28	0	473956352	42	5546
2026-01-14 17:45:07.13	19.53	9.50	-33.9	-34.6	24.2	0.00e+00	0	28	0	481296384	42	5452
2026-01-14 17:45:07.85	19.50	9.56	-33.8	-34.5	24.3	0.00e+00	0	28	0	485490688	42	5390
2026-01-14 17:45:09.15	19.45	9.66	-33.8	-34.5	24.3	0.00e+00	0	28	0	492830720	42	5387
2026-01-14 17:45:09.87	19.42	9.72	-33.7	-34.4	24.3	0.00e+00	0	28	0	497025024	40	6029
2026-01-14 17:45:11.17	19.36	9.83	-33.8	-34.5	24.2	0.00e+00	0	28	0	504365056	40	6090
2026-01-14 17:45:11.89	19.33	9.89	-33.8	-34.5	24.2	0.00e+00	0	28	0	508559360	40	6086
2026-01-14 17:45:13.19	19.28	10.00	-33.7	-34.4	24.3	0.00e+00	0	28	0	515899392	40	5993
2026-01-14 17:45:13.91	19.24	10.06	-33.8	-34.5	24.1	0.00e+00	0	28	0	520093696	40	6047
2026-01-14 17:45:15.21	19.19	10.17	-33.9	-34.6	24.1	0.00e+00	0	28	0	526385152	40	6166
2026-01-14 17:45:15.93	19.16	10.23	-33.6	-34.3	24.4	0.00e+00	0	28	0	531628032	40	5947
2026-01-14 17:45:17.23	19.10	10.34	-33.8	-34.5	24.2	0.00e+00	0	28	0	537919488	40	6084
2026-01-14 17:45:17.95	19.07	10.41	-33.7	-34.4	24.3	0.00e+00	0	28	0	542113792	40	6033
2026-01-14 17:45:19.24	19.01	10.52	-33.5	-34.3	24.5	0.00e+00	0	28	0	549453824	40	5915
2026-01-14 17:45:19.97	18.98	10.58	-33.6	-34.3	24.5	0.00e+00	0	28	0	553648128	40	5943
2026-01-14 17:45:21.26	18.92	10.69	-33.6	-34.3	24.5	0.00e+00	0	28	0	560988160	40	5919
2026-01-14 17:45:21.99	18.89	10.75	-33.5	-34.2	24.6	0.00e+00	0	28	0	565182464	40	5865
2026-01-14 17:45:23.28	18.83	10.86	-33.6	-34.3	24.5	0.00e+00	0	28	0	572522496	40	5963
2026-01-14 17:45:24.01	18.79	10.93	-33.5	-34.2	24.5	0.00e+00	0	28	0	576716800	40	5873
2026-01-14 17:45:25.30	18.73	11.04	-33.5	-34.2	24.6	0.00e+00	0	28	0	584056832	40	5888
2026-01-14 17:45:26.02	18.70	11.10	-33.5	-34.3	24.6	0.00e+00	0	28	0	588251136	40	5908
2026-01-14 17:45:27.32	18.64	11.22	-33.5	-34.2	24.5	0.00e+00	0	28	0	595591168	40	5860
2026-01-14 17:45:28.04	18.60	11.28	-33.6	-34.3	24.6	0.00e+00	0	28	0	598736896	40	5904
2026-01-14 17:45:29.33	18.54	11.39	-33.5	-34.2	24.7	0.00e+00	0	28	0	606076928	40	5856
2026-01-14 17:45:30.06	18.51	11.46	-33.5	-34.3	24.6	0.00e+00	0	28	0	610271232	40	5905
2026-01-14 17:45:31.35	18.45	11.57	-33.5	-34.2	24.6	0.00e+00	0	28	0	617611264	40	5866
2026-01-14 17:45:32.08	18.41	11.64	-33.5	-34.2	24.6	0.00e+00	0	28	0	621805568	40	5872
2026-01-14 17:45:33.37	18.35	11.76	-33.4	-34.1	24.7	0.00e+00	0	29	0	629145600	40	5816
2026-01-14 17:45:34.09	18.31	11.82	-33.5	-34.2	24.7	0.00e+00	0	28	0	633339904	40	5865
2026-01-14 17:45:35.39	18.25	11.94	-33.4	-34.1	24.7	0.00e+00	0	28	0	640679936	40	5793
2026-01-14 17:45:36.11	18.21	12.00	-33.3	-34.0	24.8	0.00e+00	0	28	0	644874240	40	5727
2026-01-14 17:45:37.41	18.15	12.12	-33.4	-34.1	24.7	0.00e+00	0	28	0	652214272	40	5817
2026-01-14 17:45:38.13	18.11	12.19	-33.5	-34.1	24.7	0.00e+00	0	28	0	656408576	40	5827
2026-01-14 17:45:39.43	18.04	12.31	-33.4	-34.1	24.8	0.00e+00	0	28	0	663748608	40	5776
2026-01-14 17:45:40.15	18.01	12.37	-33.6	-34.3	24.6	0.00e+00	0	28	0	666894336	40	5915
2026-01-14 17:45:41.45	17.94	12.49	-33.2	-33.9	25.0	0.00e+00	0	28	0	674234368	40	5660
2026-01-14 17:45:42.17	17.90	12.56	-33.3	-33.9	24.9	0.00e+00	0	28	0	678428672	40	5684
2026-01-14 17:45:43.47	17.83	12.68	-33.3	-33.9	24.9	0.00e+00	0	28	0	685768704	40	5693
2026-01-14 17:45:44.19	17.80	12.75	-33.2	-33.8	25.0	0.00e+00	0	28	0	689963008	40	5613
2026-01-14 17:45:45.49	17.73	12.87	-33.2	-33.9	24.9	0.00e+00	0	28	0	697303040	40	5669
2026-01-14 17:45:46.21	17.69	12.94	-33.2	-33.9	25.0	0.00e+00	0	28	0	701497344	40	5660
2026-01-14 17:45:47.51	17.62	13.06	-33.1	-33.7	25.1	0.00e+00	0	28	0	708837376	40	5553
2026-01-14 17:45:48.23	17.58	13.13	-33.1	-33.8	25.1	0.00e+00	0	28	0	713031680	40	5605
2026-01-14 17:45:49.53	17.51	13.25	-33.0	-33.6	25.2	0.00e+00	0	28	0	720371712	40	5493
2026-01-14 17:45:50.25	17.47	13.32	-32.9	-33.6	25.2	0.00e+00	0	28	0	724566016	40	5456
2026-01-14 17:45:51.55	17.40	13.44	-32.9	-33.6	25.2	0.00e+00	0	28	0	730857472	40	5458
2026-01-14 17:45:52.27	17.36	13.51	-32.9	-33.5	25.3	0.00e+00	0	29	0	736100352	40	5428
2026-01-14 17:45:53.57	17.29	13.64	-32.9	-33.5	25.3	0.00e+00	0	28	0	742391808	40	5424
2026-01-14 17:45:54.29	17.24	13.71	-33.0	-33.7	25.1	0.00e+00	0	28	0	746586112	40	5517
2026-01-14 17:45:55.58	17.17	13.83	-32.8	-33.5	25.4	0.00e+00	0	28	0	753926144	40	5397
2026-01-14 17:45:56.31	17.13	13.90	-33.0	-33.6	25.3	0.00e+00	0	28	0	758120448	40	5499
2026-01-14 17:45:57.60	17.06	14.03	-32.8	-33.5	25.4	0.00e+00	0	28	0	765460480	40	5385
2026-01-14 17:45:58.33	17.01	14.10	-32.8	-33.5	25.4	0.00e+00	0	28	0	769654784	40	5407
2026-01-14 17:45:59.62	16.94	14.23	-32.9	-33.6	25.3	0.00e+00	0	28	0	776994816	40	5461
2026-01-14 17:46:00.35	16.89	14.30	-32.8	-33.5	25.4	0.00e+00	0	28	0	781189120	40	5383
2026-01-14 17:46:01.65	16.82	14.43	-32.7	-33.4	25.5	0.00e+00	0	28	0	788529152	40	5339
2026-01-14 17:46:02.37	16.77	14.50	-32.8	-33.5	25.4	0.00e+00	0	28	0	792723456	38	6100
2026-01-14 17:46:03.66	16.70	14.63	-32.8	-33.4	25.5	0.00e+00	0	28	0	799014912	38	6019
2026-01-14 17:46:04.39	16.65	14.70	-32.9	-33.6	25.4	0.00e+00	0	28	0	803209216	38	6108
2026-01-14 17:46:05.69	16.57	14.83	-32.8	-33.5	25.4	0.00e+00	0	28	0	810549248	38	6049
2026-01-14 17:46:06.41	16.53	14.91	-32.7	-33.4	25.5	0.00e+00	0	28	0	814743552	38	5967
2026-01-14 17:46:07.71	16.45	15.04	-32.7	-33.3	25.6	0.00e+00	0	28	0	822083584	38	5954
2026-01-14 17:46:08.43	16.40	15.11	-32.7	-33.3	25.6	0.00e+00	0	28	0	826277888	38	5960
2026-01-14 17:46:09.73	16.32	15.24	-32.8	-33.4	25.5	0.00e+00	0	28	0	833617920	38	6019
2026-01-14 17:46:10.45	16.28	15.32	-32.7	-33.4	25.6	0.00e+00	0	28	0	837812224	38	5965
2026-01-14 17:46:11.74	16.19	15.45	-32.7	-33.4	25.6	0.00e+00	0	28	0	845152256	38	5975
2026-01-14 17:46:12.46	16.15	15.53	-32.6	-33.3	25.6	0.00e+00	0	28	0	849346560	38	5925
2026-01-14 17:46:13.77	16.06	15.66	-32.5	-33.1	25.7	0.00e+00	0	28	0	856686592	38	5828
2026-01-14 17:46:14.49	16.02	15.74	-32.6	-33.2	25.7	0.00e+00	0	28	0	860880896	38	5895
2026-01-14 17:46:15.78	15.93	15.87	-32.4	-33.1	25.7	0.00e+00	0	28	0	868220928	38	5791
2026-01-14 17:46:16.50	15.88	15.95	-32.5	-33.2	25.8	0.00e+00	0	28	0	871366656	38	5835
2026-01-14 17:46:17.80	15.80	16.09	-32.1	-32.8	26.1	0.00e+00	0	28	0	878706688	38	5580
2026-01-14 17:46:18.52	15.75	16.16	-32.2	-32.9	26.0	0.00e+00	0	28	0	882900992	38	5658
2026-01-14 17:46:19.82	15.66	16.30	-32.0	-32.6	26.2	0.00e+00	0	29	0	890241024	38	5494
2026-01-14 17:46:20.54	15.61	16.38	-31.9	-32.5	26.3	0.00e+00	0	28	0	894435328	38	5417
2026-01-14 17:46:21.84	15.52	16.52	-32.0	-32.7	26.2	0.00e+00	0	29	0	901775360	38	5509
2026-01-14 17:46:22.56	15.47	16.59	-32.0	-32.6	26.2	0.00e+00	0	29	0	905969664	38	5502
2026-01-14 17:46:23.85	15.38	16.73	-31.7	-32.4	26.4	0.00e+00	0	28	0	913309696	36	5977
2026-01-14 17:46:24.58	15.33	16.81	-31.7	-32.3	26.5	0.00e+00	0	28	0	917504000	36	5946
2026-01-14 17:46:25.87	15.24	16.95	-31.7	-32.4	26.4	0.00e+00	0	28	0	924844032	36	5983
2026-01-14 17:46:26.59	15.19	17.03	-31.8	-32.5	26.3	0.00e+00	0	28	0	929038336	36	6035
2026-01-14 17:46:27.89	15.09	17.18	-31.7	-32.4	26.4	0.00e+00	0	29	0	936378368	36	5997
2026-01-14 17:46:28.62	15.04	17.26	-31.6	-32.2	26.6	0.00e+00	0	28	0	939524096	36	5873
2026-01-14 17:46:29.91	14.95	17.40	-31.6	-32.3	26.5	0.00e+00	0	28	0	946864128	36	5909
2026-01-14 17:46:30.63	14.89	17.48	-31.7	-32.3	26.5	0.00e+00	0	28	0	951058432	36	5952
2026-01-14 17:46:31.93	14.80	17.62	-31.5	-32.2	26.7	0.00e+00	0	28	0	958398464	36	5829
2026-01-14 17:46:32.65	14.74	17.71	-31.6	-32.2	26.6	0.00e+00	0	28	0	962592768	36	5883
2026-01-14 17:46:33.95	14.64	17.85	-31.7	-32.4	26.5	0.00e+00	0	28	0	969932800	36	5967
2026-01-14 17:46:34.67	14.59	17.93	-31.9	-32.5	26.4	0.00e+00	0	28	0	974127104	36	6077
2026-01-14 17:46:35.97	14.49	18.08	-31.8	-32.5	26.3	0.00e+00	0	29	0	981467136	36	6042
2026-01-14 17:46:36.69	14.43	18.16	-31.7	-32.4	26.5	0.00e+00	0	28	0	985661440	36	5968
2026-01-14 17:46:37.99	14.33	18.31	-31.7	-32.4	26.5	0.00e+00	0	28	0	993001472	36	5984
2026-01-14 17:46:38.71	14.28	18.40	-31.6	-32.3	26.5	0.00e+00	0	28	0	996147200	36	5901
2026-01-14 17:46:40.01	14.17	18.55	-31.7	-32.4	26.5	0.00e+00	0	29	0	1003487232	36	5967
2026-01-14 17:46:40.73	14.11	18.63	-31.7	-32.3	26.6	0.00e+00	0	28	0	1007681536	36	5936
2026-01-14 17:46:42.03	14.01	18.78	-31.5	-32.1	26.7	0.00e+00	0	29	0	1015021568	36	5825
2026-01-14 17:46:42.75	13.95	18.87	-31.5	-32.1	26.7	0.00e+00	0	29	0	1019215872	36	5801
2026-01-14 17:46:44.05	13.85	19.02	-31.5	-32.1	26.8	0.00e+00	0	29	0	1026555904	36	5805
2026-01-14 17:46:44.77	13.79	19.10	-31.4	-32.1	26.8	0.00e+00	0	29	0	1030750208	36	5775
2026-01-14 17:46:46.07	13.68	19.26	-31.5	-32.1	26.6	0.00e+00	0	29	0	1038090240	36	5807
2026-01-14 17:46:46.79	13.62	19.34	-31.5	-32.1	26.7	0.00e+00	0	29	0	1042284544	36	5783
2026-01-14 17:46:48.09	13.51	19.50	-31.4	-32.0	26.8	0.00e+00	0	29	0	1049624576	36	5733
2026-01-14 17:46:48.81	13.45	19.58	-31.4	-32.1	26.8	0.00e+00	0	28	0	1053818880	36	5784
2026-01-14 17:46:50.11	13.33	19.74	-31.3	-31.9	26.9	0.00e+00	0	29	0	1061158912	36	5671
2026-01-14 17:46:50.83	13.27	19.83	-31.3	-31.9	26.7	0.00e+00	0	28	0	1065353216	36	5684
2026-01-14 17:46:52.13	13.16	19.99	-31.2	-31.8	27.0	0.00e+00	0	29	0	1072693248	36	5603
2026-01-14 17:46:52.85	13.10	20.07	-31.2	-31.8	27.0	0.00e+00	0	28	0	1075838976	36	5616
2026-01-14 17:46:54.15	12.98	20.23	-31.1	-31.8	27.0	0.00e+00	0	29	0	1083179008	36	5583
2026-01-14 17:46:54.87	12.92	20.32	-31.1	-31.8	27.0	0.00e+00	0	29	0	1087373312	36	5587
2026-01-14 17:46:56.17	12.80	20.48	-31.2	-31.8	27.1	0.00e+00	0	29	0	1094713344	36	5596
2026-01-14 17:46:56.89	12.73	20.57	-31.0	-31.6	27.1	0.00e+00	0	29	0	1098907648	36	5497
2026-01-14 17:46:58.19	12.61	20.74	-31.1	-31.7	27.0	0.00e+00	0	29	0	1106247680	36	5544
2026-01-14 17:46:58.91	12.55	20.83	-30.9	-31.6	27.2	0.00e+00	0	28	0	1110441984	36	5472
2026-01-14 17:47:00.21	12.42	20.99	-30.9	-31.5	27.2	0.00e+00	0	29	0	1117782016	36	5428
2026-01-14 17:47:00.93	12.36	21.08	-30.9	-31.5	27.2	0.00e+00	0	29	0	1121976320	36	5414
2026-01-14 17:47:02.23	12.23	21.25	-30.9	-31.5	27.3	0.00e+00	0	29	0	1129316352	36	5415
2026-01-14 17:47:02.95	12.16	21.34	-30.9	-31.5	27.3	0.00e+00	0	29	0	1133510656	36	5418
2026-01-14 17:47:04.25	12.04	21.51	-30.7	-31.3	27.4	0.00e+00	0	28	0	1139802112	34	5944
2026-01-14 17:47:04.97	11.97	21.60	-30.9	-31.5	27.2	0.00e+00	0	29	0	1145044992	34	6051
2026-01-14 17:47:06.27	11.84	21.77	-30.6	-31.3	27.4	0.00e+00	0	29	0	1151336448	34	5901
2026-01-14 17:47:06.99	11.77	21.86	-30.6	-31.3	27.4	0.00e+00	0	29	0	1155530752	34	5910
2026-01-14 17:47:08.29	11.64	22.03	-30.7	-31.3	27.4	0.00e+00	0	29	0	1162870784	34	5951
2026-01-14 17:47:09.01	11.56	22.12	-30.6	-31.3	27.4	0.00e+00	0	29	0	1167065088	34	5926
2026-01-14 17:47:10.31	11.43	22.29	-30.7	-31.4	27.3	0.00e+00	0	29	0	1174405120	34	5996
2026-01-14 17:47:11.03	11.36	22.39	-30.8	-31.4	27.3	0.00e+00	0	29	0	1178599424	34	6016
2026-01-14 17:47:12.33	11.22	22.56	-30.7	-31.4	27.3	0.00e+00	0	29	0	1185939456	34	5966
2026-01-14 17:47:13.05	11.15	22.66	-30.8	-31.4	27.4	0.00e+00	0	29	0	1190133760	34	6005
2026-01-14 17:47:14.34	11.01	22.83	-30.6	-31.3	27.4	0.00e+00	0	29	0	1197473792	34	5911
2026-01-14 17:47:15.07	10.93	22.93	-30.6	-31.2	27.5	0.00e+00	0	29	0	1200619520	34	5896
2026-01-14 17:47:16.36	10.79	23.10	-30.5	-31.1	27.5	0.00e+00	0	28	0	1207959552	34	5827
2026-01-14 17:47:17.08	10.72	23.20	-30.4	-31.0	27.6	0.00e+00	0	29	0	1212153856	34	5744
2026-01-14 17:47:18.38	10.57	23.38	-30.4	-31.0	27.6	0.00e+00	0	29	0	1219493888	34	5749
2026-01-14 17:47:19.10	10.49	23.48	-30.4	-31.0	27.6	0.00e+00	0	29	0	1223688192	34	5743
2026-01-14 17:47:20.40	10.35	23.66	-30.3	-31.0	27.7	0.00e+00	0	29	0	1231028224	34	5700
2026-01-14 17:47:21.12	10.27	23.76	-30.3	-30.9	27.7	0.00e+00	0	29	0	1235222528	34	5654
2026-01-14 17:47:22.42	10.12	23.94	-30.3	-30.9	27.7	0.00e+00	0	29	0	1242562560	34	5657
2026-01-14 17:47:23.14	10.04	24.04	-30.4	-31.0	27.7	0.00e+00	0	29	0	1246756864	34	5757
2026-01-14 17:47:24.44	9.89	24.22	-30.3	-30.9	27.7	0.00e+00	0	29	0	1254096896	34	5680
2026-01-14 17:47:25.16	9.80	24.32	-30.3	-31.0	27.7	0.00e+00	0	29	0	1258291200	34	5696
2026-01-14 17:47:26.45	9.65	24.50	-30.3	-30.9	27.8	0.00e+00	0	29	0	1265631232	34	5669
2026-01-14 17:47:27.17	9.56	24.61	-30.3	-31.0	27.6	0.00e+00	0	29	0	1269825536	34	5714
2026-01-14 17:47:28.47	9.41	24.79	-30.2	-30.8	27.8	0.00e+00	0	29	0	1277165568	34	5611
2026-01-14 17:47:29.19	9.32	24.90	-30.2	-30.8	27.7	0.00e+00	0	29	0	1280311296	34	5601
2026-01-14 17:47:30.49	9.16	25.08	-30.2	-30.9	27.7	0.00e+00	0	29	0	1287651328	34	5646
2026-01-14 17:47:31.21	9.07	25.19	-30.4	-31.0	27.6	0.00e+00	0	29	0	1291845632	34	5751
2026-01-14 17:47:32.51	8.91	25.38	-30.2	-30.8	27.8	0.00e+00	0	29	0	1299185664	34	5597
2026-01-14 17:47:33.23	8.82	25.48	-30.3	-30.9	27.8	0.00e+00	0	29	0	1303379968	34	5671
2026-01-14 17:47:34.53	8.65	25.67	-30.2	-30.9	27.8	0.00e+00	0	29	0	1310720000	34	5636
2026-01-14 17:47:35.25	8.56	25.78	-30.3	-31.0	27.7	0.00e+00	0	29	0	1314914304	34	5710
2026-01-14 17:47:36.55	8.39	25.97	-30.4	-31.1	27.8	0.00e+00	0	29	0	1322254336	34	5777
2026-01-14 17:47:37.27	8.30	26.08	-30.6	-31.2	27.6	0.00e+00	0	29	0	1326448640	34	5853
2026-01-14 17:47:38.57	8.12	26.27	-30.4	-31.0	27.7	0.00e+00	0	28	0	1333788672	34	5729
2026-01-14 17:47:39.29	8.03	26.38	-30.5	-31.2	27.7	0.00e+00	0	29	0	1337982976	34	5837
2026-01-14 17:47:40.58	7.85	26.57	-30.3	-30.9	27.8	0.00e+00	0	29	0	1344274432	34	5670
2026-01-14 17:47:41.31	7.75	26.68	-30.4	-31.1	27.7	0.00e+00	0	29	0	1348468736	34	5781
2026-01-14 17:47:42.60	7.58	26.88	-30.3	-31.0	27.7	0.00e+00	0	29	0	1355808768	34	5737
2026-01-14 17:47:43.32	7.48	26.99	-30.3	-30.9	27.7	0.00e+00	0	29	0	1360003072	34	5674
2026-01-14 17:47:44.61	7.30	27.19	-30.4	-31.0	27.7	0.00e+00	0	29	0	1367343104	34	5713
2026-01-14 17:47:45.33	7.19	27.30	-30.2	-30.9	27.9	0.00e+00	0	29	0	1371537408	34	5632
2026-01-14 17:47:46.63	7.01	27.50	-30.1	-30.7	28.0	0.00e+00	0	29	0	1378877440	34	5558
2026-01-14 17:47:47.35	6.90	27.61	-30.1	-30.7	27.9	0.00e+00	0	28	0	1383071744	34	5556
2026-01-14 17:47:48.65	6.71	27.81	-30.2	-30.8	27.9	0.00e+00	0	29	0	1390411776	34	5617
2026-01-14 17:47:49.37	6.61	27.93	-30.1	-30.8	28.0	0.00e+00	0	29	0	1394606080	34	5572
2026-01-14 17:47:50.67	6.41	28.13	-30.2	-30.8	27.9	0.00e+00	0	29	0	1401946112	34	5579
2026-01-14 17:47:51.39	6.30	28.25	-30.1	-30.8	27.9	0.00e+00	0	29	0	1405091840	34	5570
2026-01-14 17:47:52.69	6.11	28.45	-30.2	-30.8	27.8	0.00e+00	0	29	0	1412431872	34	5614
2026-01-14 17:47:53.41	6.00	28.57	-30.3	-30.9	27.8	0.00e+00	0	29	0	1416626176	34	5672
2026-01-14 17:47:54.71	5.79	28.77	-30.4	-31.1	27.7	0.00e+00	0	29	0	1423966208	34	5782
2026-01-14 17:47:55.43	5.68	28.89	-30.3	-30.9	27.8	0.00e+00	0	29	0	1428160512	34	5673
2026-01-14 17:47:56.72	5.48	29.10	-30.0	-30.6	28.1	0.00e+00	0	29	0	1435500544	34	5452
2026-01-14 17:47:57.44	5.36	29.22	-29.9	-30.5	28.1	0.00e+00	0	29	0	1439694848	34	5405
2026-01-14 17:47:58.74	5.15	29.43	-29.8	-30.5	28.1	0.00e+00	0	29	0	1447034880	34	5388
2026-01-14 17:47:59.46	5.03	29.54	-29.7	-30.3	28.3	0.00e+00	0	29	0	1451229184	32	5913
2026-01-14 17:48:00.75	4.82	29.76	-29.7	-30.3	28.3	0.00e+00	0	29	0	1458569216	32	5914
2026-01-14 17:48:01.47	4.70	29.88	-29.8	-30.4	28.2	0.00e+00	0	29	0	1462763520	32	5992
2026-01-14 17:48:02.77	4.48	30.09	-29.7	-30.3	28.3	0.00e+00	0	29	0	1470103552	32	5928
2026-01-14 17:48:03.49	4.36	30.21	-29.7	-30.3	28.2	0.00e+00	0	29	0	1473249280	32	5960
2026-01-14 17:48:04.79	4.13	30.43	-29.6	-30.3	28.3	0.00e+00	0	29	0	1480589312	32	5907
2026-01-14 17:48:05.51	4.01	30.55	-29.8	-30.4	28.2	0.00e+00	0	29	0	1484783616	32	6032
2026-01-14 17:48:06.81	3.78	30.77	-29.8	-30.5	28.2	0.00e+00	0	29	0	1492123648	32	6037
2026-01-14 17:48:07.53	3.65	30.89	-29.8	-30.4	28.1	0.00e+00	0	29	0	1496317952	32	5984
2026-01-14 17:48:08.83	3.41	31.11	-29.7	-30.4	28.3	0.00e+00	0	29	0	1503657984	32	5982
2026-01-14 17:48:09.55	3.28	31.23	-29.6	-30.3	28.3	0.00e+00	0	29	0	1507852288	32	5900
2026-01-14 17:48:10.85	3.04	31.45	-29.5	-30.2	28.3	0.00e+00	0	29	0	1515192320	32	5832
2026-01-14 17:48:11.56	2.91	31.58	-29.7	-30.3	28.2	0.00e+00	0	28	0	1519386624	32	5902
2026-01-14 17:48:12.86	2.67	31.80	-29.4	-30.0	28.5	0.00e+00	0	29	0	1526726656	32	5733
2026-01-14 17:48:13.58	2.53	31.92	-29.6	-30.3	28.3	0.00e+00	0	29	0	1530920960	32	5897
2026-01-14 17:48:14.88	2.28	32.15	-29.4	-30.0	28.5	0.00e+00	0	29	0	1538260992	32	5696
2026-01-14 17:48:15.60	2.14	32.28	-29.5	-30.1	28.3	0.00e+00	0	29	0	1541406720	32	5772
2026-01-14 17:48:16.89	1.89	32.50	-29.4	-30.0	28.5	0.00e+00	0	29	0	1548746752	32	5746
2026-01-14 17:48:17.61	1.74	32.63	-29.5	-30.2	28.4	0.00e+00	0	29	0	1552941056	32	5834
2026-01-14 17:48:18.91	1.48	32.86	-29.5	-30.1	28.5	0.00e+00	0	29	0	1560281088	32	5805
2026-01-14 17:48:19.64	1.33	32.99	-29.6	-30.2	28.4	0.00e+00	0	29	0	1564475392	32	5844
2026-01-14 17:48:20.93	1.07	33.21	-29.4	-30.0	28.5	0.00e+00	0	29	0	1571815424	32	5724
2026-01-14 17:48:21.66	0.92	33.34	-29.3	-29.9	28.6	0.00e+00	0	29	0	1576009728	32	5652
2026-01-14 17:48:22.96	0.64	33.58	-29.0	-29.7	28.7	0.00e+00	0	29	0	1583349760	32	5505
2026-01-14 17:48:23.68	0.49	33.71	-29.0	-29.6	28.7	0.00e+00	0	29	0	1587544064	32	5499
2026-01-14 17:48:24.97	0.21	33.94	-29.0	-29.6	28.8	0.00e+00	0	29	0	1594884096	32	5498
2026-01-14 17:48:25.69	0.06	34.07	-29.1	-29.7	28.8	0.00e+00	0	29	0	1598029824	32	5503
2026-01-14 17:48:26.99	359.77	34.30	-29.3	-29.9	28.5	0.00e+00	0	28	0	1605369856	32	5686
2026-01-14 17:48:27.71	359.61	34.43	-29.2	-29.8	28.6	0.00e+00	0	29	0	1609564160	32	5611
2026-01-14 17:48:29.01	359.32	34.67	-29.4	-30.0	28.5	0.00e+00	0	29	0	1616904192	32	5725
2026-01-14 17:48:29.72	359.16	34.80	-29.4	-30.0	28.4	0.00e+00	0	29	0	1621098496	32	5731
2026-01-14 17:48:31.02	358.86	35.04	-29.3	-30.0	28.5	0.00e+00	0	29	0	1628438528	32	5705
2026-01-14 17:48:31.74	358.69	35.17	-29.5	-30.1	28.4	0.00e+00	0	29	0	1632632832	32	5787
2026-01-14 17:48:33.04	358.38	35.41	-29.6	-30.2	28.4	0.00e+00	0	29	0	1639972864	32	5853
2026-01-14 17:48:33.76	358.21	35.54	-29.6	-30.3	28.4	0.00e+00	0	29	0	1644167168	32	5901
2026-01-14 17:48:35.06	357.90	35.79	-29.3	-29.9	28.5	0.00e+00	0	29	0	1651507200	32	5689
2026-01-14 17:48:35.78	357.72	35.92	-29.5	-30.1	28.5	0.00e+00	0	29	0	1655701504	32	5792
2026-01-14 17:48:37.08	357.40	36.16	-29.6	-30.3	28.3	0.00e+00	0	29	0	1663041536	32	5916
2026-01-14 17:48:37.80	357.22	36.30	-29.7	-30.4	28.2	0.00e+00	0	29	0	1666187264	32	5976
2026-01-14 17:48:39.10	356.89	36.54	-29.8	-30.4	28.2	0.00e+00	0	29	0	1673527296	32	5986
2026-01-14 17:48:39.82	356.71	36.67	-29.9	-30.5	28.1	0.00e+00	0	29	0	1677721600	32	6067
2026-01-14 17:48:41.12	356.37	36.92	-29.5	-30.1	28.4	0.00e+00	0	29	0	1685061632	32	5808
2026-01-14 17:48:41.84	356.19	37.06	-29.6	-30.2	28.4	0.00e+00	0	29	0	1689255936	32	5876
2026-01-14 17:48:43.14	355.84	37.30	-29.5	-30.1	28.5	0.00e+00	0	29	0	1696595968	32	5795
2026-01-14 17:48:43.86	355.65	37.44	-29.6	-30.2	28.3	0.00e+00	0	29	0	1700790272	32	5860
2026-01-14 17:48:45.16	355.30	37.68	-29.6	-30.2	28.3	0.00e+00	0	29	0	1708130304	32	5896
2026-01-14 17:48:45.88	355.10	37.82	-29.5	-30.2	28.4	0.00e+00	0	29	0	1712324608	32	5836
2026-01-14 17:48:47.17	354.74	38.07	-29.7	-30.3	28.3	0.00e+00	0	29	0	1719664640	32	5925
2026-01-14 17:48:47.90	354.53	38.21	-29.7	-30.4	28.3	0.00e+00	0	29	0	1723858944	32	5982
2026-01-14 17:48:49.19	354.17	38.45	-29.7	-30.3	28.3	0.00e+00	0	29	0	1731198976	32	5939
2026-01-14 17:48:49.91	353.96	38.59	-29.8	-30.4	28.2	0.00e+00	0	29	0	1734344704	32	5979
2026-01-14 17:48:51.22	353.58	38.84	-29.5	-30.2	28.5	0.00e+00	0	29	0	1741684736	32	5831
2026-01-14 17:48:51.94	353.37	38.98	-29.6	-30.2	28.3	0.00e+00	0	29	0	1745879040	32	5835
2026-01-14 17:48:53.23	352.98	39.23	-29.7	-30.3	28.3	0.00e+00	0	29	0	1753219072	32	5961
2026-01-14 17:48:53.95	352.76	39.36	-29.6	-30.2	28.4	0.00e+00	0	29	0	1757413376	32	5858
2026-01-14 17:48:55.25	352.37	39.61	-29.7	-30.3	28.4	0.00e+00	0	29	0	1764753408	32	5897
2026-01-14 17:48:55.97	352.14	39.75	-29.5	-30.1	28.5	0.00e+00	0	29	0	1768947712	32	5785
2026-01-14 17:48:57.26	351.74	40.00	-29.7	-30.3	28.3	0.00e+00	0	29	0	1776287744	32	5903
2026-01-14 17:48:57.99	351.51	40.14	-29.6	-30.3	28.4	0.00e+00	0	29	0	1780482048	32	5903
2026-01-14 17:48:59.28	351.09	40.39	-29.6	-30.2	28.4	0.00e+00	0	29	0	1787822080	32	5847
2026-01-14 17:49:00.00	350.86	40.53	-29.6	-30.2	28.3	0.00e+00	0	29	0	1790967808	32	5883
2026-01-14 17:49:01.30	350.43	40.78	-29.5	-30.1	28.3	0.00e+00	0	29	0	1798307840	32	5820
2026-01-14 17:49:02.02	350.19	40.92	-29.6	-30.2	28.4	0.00e+00	0	29	0	1802502144	32	5862
2026-01-14 17:49:03.32	349.75	41.17	-29.8	-30.4	28.2	0.00e+00	0	29	0	1809842176	32	6032
2026-01-14 17:49:04.04	349.51	41.30	-29.5	-30.1	28.5	0.00e+00	0	29	0	1814036480	32	5816
2026-01-14 17:49:05.34	349.06	41.55	-29.4	-30.0	28.5	0.00e+00	0	29	0	1821376512	32	5738
2026-01-14 17:49:06.06	348.81	41.69	-29.4	-30.1	28.5	0.00e+00	0	29	0	1825570816	32	5763
2026-01-14 17:49:07.35	348.35	41.94	-29.4	-30.0	28.5	0.00e+00	0	29	0	1832910848	32	5752
2026-01-14 17:49:08.07	348.09	42.08	-29.4	-30.0	28.5	0.00e+00	0	29	0	1837105152	32	5732
2026-01-14 17:49:09.37	347.62	42.33	-29.6	-30.2	28.4	0.00e+00	0	29	0	1844445184	32	5879
2026-01-14 17:49:10.09	347.36	42.46	-29.7	-30.3	28.3	0.00e+00	0	29	0	1848639488	32	5900
2026-01-14 17:49:11.39	346.88	42.71	-29.8	-30.5	28.2	0.00e+00	0	29	0	1855979520	32	6041
2026-01-14 17:49:12.11	346.61	42.85	-29.6	-30.2	28.3	0.00e+00	0	29	0	1859125248	32	5887
2026-01-14 17:49:13.41	346.11	43.09	-29.4	-30.0	28.4	0.00e+00	0	29	0	1866465280	32	5738
2026-01-14 17:49:14.13	345.83	43.23	-29.4	-30.1	28.6	0.00e+00	0	29	0	1870659584	32	5771
2026-01-14 17:49:15.43	345.33	43.48	-29.6	-30.2	28.3	0.00e+00	0	29	0	1877999616	32	5879
2026-01-14 17:49:16.15	345.04	43.61	-29.6	-30.2	28.3	0.00e+00	0	29	0	1882193920	32	5862
2026-01-14 17:49:17.44	344.53	43.85	-29.7	-30.3	28.2	0.00e+00	0	29	0	1889533952	32	5932
2026-01-14 17:49:18.17	344.24	43.99	-29.6	-30.2	28.3	0.00e+00	0	29	0	1893728256	32	5839
2026-01-14 17:49:19.46	343.71	44.23	-29.6	-30.3	28.3	0.00e+00	0	29	0	1901068288	32	5908
2026-01-14 17:49:20.18	343.41	44.36	-29.7	-30.4	28.2	0.00e+00	0	29	0	1905262592	32	5995
2026-01-14 17:49:21.48	342.87	44.60	-29.9	-30.5	28.0	0.00e+00	0	29	0	1912602624	32	6074
2026-01-14 17:49:22.20	342.56	44.73	-29.9	-30.5	28.2	0.00e+00	0	29	0	1916796928	32	6062
2026-01-14 17:49:23.50	342.01	44.97	-29.8	-30.4	28.2	0.00e+00	0	29	0	1924136960	32	6018
2026-01-14 17:49:24.22	341.69	45.10	-29.6	-30.3	28.3	0.00e+00	0	29	0	1928331264	32	5915
2026-01-14 17:49:25.52	341.12	45.34	-29.7	-30.3	28.3	0.00e+00	0	29	0	1935671296	32	5908
2026-01-14 17:49:26.24	340.81	45.46	-29.9	-30.4	28.2	0.00e+00	0	29	0	1938817024	32	6026
2026-01-14 17:49:27.54	340.22	45.70	-30.2	-30.8	27.9	0.00e+00	0	29	0	1946157056	32	6315
2026-01-14 17:49:28.26	339.90	45.82	-30.2	-30.9	27.9	0.00e+00	0	29	0	1950351360	32	6330
2026-01-14 17:49:29.56	339.30	46.05	-30.0	-30.6	28.2	0.00e+00	0	29	0	1957691392	32	6126
2026-01-14 17:49:30.28	338.97	46.18	-29.8	-30.4	28.2	0.00e+00	0	29	0	1961885696	32	6020
2026-01-14 17:49:31.57	338.36	46.40	-29.9	-30.5	28.2	0.00e+00	0	29	0	1969225728	32	6077
2026-01-14 17:49:32.30	338.01	46.53	-30.0	-30.6	28.1	0.00e+00	0	29	0	1973420032	32	6146
2026-01-14 17:49:33.59	337.39	46.75	-30.0	-30.6	28.0	0.00e+00	0	29	0	1980760064	32	6126
2026-01-14 17:49:34.31	337.05	46.87	-30.0	-30.6	28.1	0.00e+00	0	29	0	1983905792	32	6110
2026-01-14 17:49:35.61	336.41	47.08	-29.9	-30.5	28.1	0.00e+00	0	29	0	1991245824	32	6083
2026-01-14 17:49:36.33	336.05	47.20	-30.1	-30.7	28.0	0.00e+00	0	29	0	1995440128	32	6177
2026-01-14 17:49:37.63	335.40	47.42	-30.4	-31.1	27.8	0.00e+00	0	29	0	2002780160	32	6479
2026-01-14 17:49:38.35	335.03	47.53	-30.6	-31.2	27.6	0.00e+00	0	29	0	2006974464	32	6600
2026-01-14 17:49:39.65	334.37	47.74	-30.6	-31.2	27.7	0.00e+00	0	29	0	2014314496	32	6588
2026-01-14 17:49:40.37	334.00	47.85	-30.7	-31.3	27.5	0.00e+00	0	29	0	2018508800	32	6657
2026-01-14 17:49:41.67	333.32	48.06	-30.5	-31.1	27.5	0.00e+00	0	29	0	2025848832	34	5815
2026-01-14 17:49:42.39	332.94	48.17	-30.6	-31.2	27.6	0.00e+00	0	29	0	2030043136	34	5894
2026-01-14 17:49:43.69	332.24	48.36	-30.8	-31.4	27.5	0.00e+00	0	29	0	2037383168	34	5990
2026-01-14 17:49:44.41	331.86	48.47	-30.7	-31.4	27.5	0.00e+00	0	29	0	2041577472	34	5999
2026-01-14 17:49:45.71	331.15	48.66	-30.6	-31.2	27.6	0.00e+00	0	29	0	2048917504	34	5878
2026-01-14 17:49:46.43	330.75	48.77	-30.7	-31.4	27.5	0.00e+00	0	29	0	2053111808	34	5978
2026-01-14 17:49:47.73	330.03	48.95	-30.7	-31.3	27.5	0.00e+00	0	29	0	2060451840	34	5929
2026-01-14 17:49:48.45	329.63	49.05	-30.8	-31.5	27.4	0.00e+00	0	29	0	2063597568	34	6044
2026-01-14 17:49:49.75	328.90	49.23	-30.8	-31.5	27.4	0.00e+00	0	29	0	2070937600	34	6080
2026-01-14 17:49:50.47	328.49	49.33	-30.8	-31.4	27.4	0.00e+00	0	29	0	2075131904	34	6010
2026-01-14 17:49:51.76	327.75	49.50	-30.9	-31.5	27.3	0.00e+00	0	29	0	2082471936	34	6095
2026-01-14 17:49:52.49	327.32	49.59	-30.6	-31.2	27.6	0.00e+00	0	29	0	2086666240	34	5858
2026-01-14 17:49:53.79	326.56	49.76	-31.0	-31.6	27.4	0.00e+00	0	29	0	2094006272	34	6163
2026-01-14 17:49:54.51	326.14	49.84	-31.1	-31.8	27.2	0.00e+00	0	29	0	2098200576	34	6268
2026-01-14 17:49:55.80	325.37	50.00	-30.9	-31.6	27.4	0.00e+00	0	29	0	2105540608	34	6122
2026-01-14 17:49:56.52	324.94	50.08	-31.0	-31.7	27.4	0.00e+00	0	29	0	2109734912	34	6203
2026-01-14 17:49:57.83	324.15	50.23	-30.8	-31.5	27.5	0.00e+00	0	29	0	2117074944	34	6041
2026-01-14 17:49:58.55	323.71	50.31	-30.7	-31.4	27.5	0.00e+00	0	29	0	2121269248	34	5985
2026-01-14 17:49:59.84	322.92	50.45	-30.9	-31.6	27.4	0.00e+00	0	29	0	2128609280	34	6114
2026-01-14 17:50:00.56	322.47	50.53	-30.9	-31.6	27.3	0.00e+00	0	29	0	2131755008	34	6138
2026-01-14 17:50:01.86	321.67	50.66	-30.8	-31.4	27.4	0.00e+00	0	29	0	2139095040	34	6025
2026-01-14 17:50:02.58	321.22	50.73	-30.4	-31.0	27.8	0.00e+00	0	29	0	2143289344	34	5732
2026-01-14 17:50:03.88	320.40	50.85	-30.5	-31.1	27.7	0.00e+00	0	29	0	2150629376	34	5808
2026-01-14 17:50:04.60	319.94	50.92	-30.8	-31.4	27.4	0.00e+00	0	29	0	2154823680	34	5988
2026-01-14 17:50:05.90	319.11	51.03	-30.8	-31.5	27.4	0.00e+00	0	29	0	2162163712	34	6084
2026-01-14 17:50:06.62	318.65	51.09	-30.8	-31.5	27.4	0.00e+00	0	29	0	2166358016	34	6063
2026-01-14 17:50:07.91	317.82	51.20	-30.4	-31.0	27.8	0.00e+00	0	29	0	2173698048	34	5747
2026-01-14 17:50:08.63	317.35	51.25	-30.5	-31.1	27.5	0.00e+00	0	29	0	2177892352	34	5806
2026-01-14 17:50:09.93	316.50	51.35	-30.5	-31.2	27.6	0.00e+00	0	29	0	2185232384	34	5835
2026-01-14 17:50:10.66	316.02	51.40	-30.6	-31.2	27.5	0.00e+00	0	29	0	2188378112	34	5873
2026-01-14 17:50:11.95	315.18	51.48	-30.5	-31.1	27.6	0.00e+00	0	29	0	2195718144	34	5798
2026-01-14 17:50:12.68	314.69	51.52	-30.3	-31.0	27.7	0.00e+00	0	29	0	2199912448	34	5719
2026-01-14 17:50:13.97	313.84	51.60	-30.5	-31.2	27.7	0.00e+00	0	29	0	2207252480	34	5855
2026-01-14 17:50:14.69	313.36	51.63	-30.5	-31.2	27.6	0.00e+00	0	29	0	2211446784	34	5851
2026-01-14 17:50:15.99	312.49	51.70	-30.7	-31.4	27.5	0.00e+00	0	29	0	2218786816	34	5969
2026-01-14 17:50:16.71	312.01	51.73	-30.9	-31.5	27.3	0.00e+00	0	29	0	2222981120	34	6095
2026-01-14 17:50:18.01	311.13	51.78	-31.0	-31.7	27.3	0.00e+00	0	29	0	2230321152	34	6179
2026-01-14 17:50:18.73	310.65	51.81	-30.9	-31.5	27.3	0.00e+00	0	29	0	2234515456	34	6041
2026-01-14 17:50:20.03	309.77	51.85	-30.4	-31.1	27.7	0.00e+00	0	29	0	2241855488	34	5790
2026-01-14 17:50:20.75	309.28	51.87	-30.4	-31.0	27.8	0.00e+00	0	29	0	2246049792	34	5728
2026-01-14 17:50:22.04	308.41	51.90	-30.4	-31.0	27.8	0.00e+00	0	29	0	2253389824	34	5750
2026-01-14 17:50:22.77	307.91	51.92	-30.4	-31.1	27.8	0.00e+00	0	29	0	2256535552	34	5792
2026-01-14 17:50:24.06	307.03	51.94	-30.4	-31.1	27.8	0.00e+00	0	29	0	2263875584	34	5786
2026-01-14 17:50:24.79	306.54	51.94	-30.5	-31.1	27.7	0.00e+00	0	29	0	2268069888	34	5768
2026-01-14 17:50:26.08	305.66	51.95	-30.4	-31.1	27.7	0.00e+00	0	29	0	2275409920	34	5784
2026-01-14 17:50:26.80	305.17	51.96	-30.6	-31.3	27.5	0.00e+00	0	29	0	2279604224	34	5906
2026-01-14 17:50:28.10	304.28	51.95	-30.5	-31.2	27.7	0.00e+00	0	29	0	2286944256	34	5832
2026-01-14 17:50:28.82	303.79	51.95	-30.4	-31.0	27.7	0.00e+00	0	29	0	2291138560	34	5741
2026-01-14 17:50:30.12	302.91	51.94	-30.8	-31.4	27.4	0.00e+00	0	29	0	2298478592	34	6033
2026-01-14 17:50:30.84	302.42	51.93	-31.0	-31.7	27.3	0.00e+00	0	29	0	2302672896	34	6178
2026-01-14 17:50:32.14	301.53	51.90	-30.8	-31.4	27.4	0.00e+00	0	29	0	2310012928	34	6027
2026-01-14 17:50:32.86	301.04	51.89	-30.9	-31.5	27.2	0.00e+00	0	29	0	2314207232	34	6040
2026-01-14 17:50:34.16	300.16	51.85	-30.7	-31.3	27.3	0.00e+00	0	29	0	2321547264	34	5926
2026-01-14 17:50:34.88	299.68	51.83	-30.5	-31.2	27.5	0.00e+00	0	29	0	2325741568	34	5856
2026-01-14 17:50:36.17	298.80	51.78	-30.4	-31.0	27.5	0.00e+00	0	29	0	2332033024	34	5748
2026-01-14 17:50:36.90	298.31	51.75	-30.4	-31.0	27.7	0.00e+00	0	29	0	2336227328	34	5756
2026-01-14 17:50:38.19	297.45	51.70	-30.5	-31.1	27.7	0.00e+00	0	29	0	2343567360	34	5813
2026-01-14 17:50:38.91	296.97	51.66	-30.4	-31.0	27.7	0.00e+00	0	29	0	2347761664	34	5732
2026-01-14 17:50:40.21	296.10	51.60	-30.4	-31.1	27.7	0.00e+00	0	29	0	2355101696	34	5802
2026-01-14 17:50:40.93	295.62	51.55	-30.3	-31.0	27.8	0.00e+00	0	29	0	2359296000	34	5709
2026-01-14 17:50:42.23	294.76	51.48	-30.2	-30.9	27.9	0.00e+00	0	29	0	2366636032	34	5635
2026-01-14 17:50:42.95	294.29	51.43	-30.4	-30.9	27.8	0.00e+00	0	29	0	2370830336	34	5687
2026-01-14 17:50:44.24	293.44	51.34	-30.7	-31.2	27.5	0.00e+00	0	29	0	2378170368	34	5882
2026-01-14 17:50:44.97	292.96	51.29	-30.6	-31.2	27.6	0.00e+00	0	29	0	2381316096	34	5883
2026-01-14 17:50:46.26	292.12	51.19	-30.3	-31.0	27.8	0.00e+00	0	29	0	2388656128	34	5697
2026-01-14 17:50:46.99	291.65	51.14	-30.2	-30.8	28.0	0.00e+00	0	29	0	2392850432	34	5623
2026-01-14 17:50:48.28	290.82	51.03	-30.2	-30.9	27.9	0.00e+00	0	29	0	2400190464	34	5634
2026-01-14 17:50:49.01	290.36	50.97	-30.3	-31.0	27.8	0.00e+00	0	29	0	2404384768	34	5714
2026-01-14 17:50:50.30	289.54	50.85	-30.5	-31.1	27.7	0.00e+00	0	29	0	2411724800	34	5814
2026-01-14 17:50:51.03	289.07	50.78	-30.4	-31.0	27.8	0.00e+00	0	29	0	2415919104	34	5739
2026-01-14 17:50:52.32	288.27	50.66	-30.1	-30.7	28.0	0.00e+00	0	29	0	2423259136	34	5521
2026-01-14 17:50:53.04	287.82	50.59	-30.1	-30.7	28.0	0.00e+00	0	29	0	2427453440	34	5537
2026-01-14 17:50:54.33	287.02	50.45	-30.5	-31.2	27.6	0.00e+00	0	29	0	2434793472	34	5849
2026-01-14 17:50:55.06	286.57	50.37	-30.6	-31.3	27.6	0.00e+00	0	29	0	2438987776	34	5904
2026-01-14 17:50:56.35	285.78	50.23	-30.2	-30.9	27.9	0.00e+00	0	29	0	2446327808	34	5669
2026-01-14 17:50:57.08	285.34	50.15	-30.2	-30.8	28.0	0.00e+00	0	29	0	2450522112	34	5623
2026-01-14 17:50:58.38	284.56	50.00	-30.3	-31.0	27.9	0.00e+00	0	29	0	2457862144	34	5734
2026-01-14 17:50:59.10	284.13	49.91	-30.4	-31.0	27.9	0.00e+00	0	29	0	2461007872	34	5712
2026-01-14 17:51:00.39	283.36	49.75	-30.4	-31.0	27.7	0.00e+00	0	29	0	2468347904	34	5719
2026-01-14 17:51:01.12	282.94	49.66	-30.4	-31.0	27.6	0.00e+00	0	29	0	2472542208	34	5713
2026-01-14 17:51:02.42	282.18	49.49	-30.3	-30.8	27.9	0.00e+00	0	29	0	2479882240	34	5608
2026-01-14 17:51:03.14	281.76	49.40	-30.2	-30.7	27.9	0.00e+00	0	29	0	2484076544	34	5539
2026-01-14 17:51:04.44	281.02	49.22	-30.3	-30.8	27.8	0.00e+00	0	29	0	2491416576	34	5610
2026-01-14 17:51:05.16	280.61	49.12	-30.0	-30.6	28.0	0.00e+00	0	29	0	2495610880	34	5502
2026-01-14 17:51:06.46	279.88	48.94	-29.9	-30.4	28.2	0.00e+00	0	29	0	2502950912	34	5372
2026-01-14 17:51:07.18	279.48	48.84	-29.8	-30.4	28.2	0.00e+00	0	29	0	2507145216	34	5348
2026-01-14 17:51:08.48	278.77	48.65	-30.0	-30.6	28.1	0.00e+00	0	29	0	2514485248	34	5479
2026-01-14 17:51:09.20	278.37	48.55	-30.1	-30.8	28.0	0.00e+00	0	29	0	2518679552	34	5601
2026-01-14 17:51:10.49	277.67	48.35	-30.1	-30.8	27.9	0.00e+00	0	29	0	2526019584	34	5571
2026-01-14 17:51:11.21	277.29	48.25	-30.2	-30.8	27.9	0.00e+00	0	29	0	2529165312	34	5627
2026-01-14 17:51:12.51	276.60	48.05	-30.4	-31.0	27.8	0.00e+00	0	29	0	2536505344	34	5734
2026-01-14 17:51:13.23	276.22	47.93	-30.2	-30.9	27.8	0.00e+00	0	29	0	2540699648	34	5669
2026-01-14 17:51:14.53	275.55	47.73	-30.4	-31.1	27.7	0.00e+00	0	29	0	2548039680	34	5762
2026-01-14 17:51:15.25	275.18	47.61	-30.3	-31.0	27.8	0.00e+00	0	29	0	2552233984	34	5749
2026-01-14 17:51:16.54	274.52	47.41	-30.2	-30.8	28.0	0.00e+00	0	29	0	2559574016	34	5609
2026-01-14 17:51:17.26	274.16	47.29	-29.9	-30.4	28.2	0.00e+00	0	29	0	2563768320	34	5375
2026-01-14 17:51:18.56	273.51	47.07	-29.7	-30.3	28.3	0.00e+00	0	29	0	2571108352	34	5306
2026-01-14 17:51:19.28	273.16	46.95	-29.8	-30.4	28.3	0.00e+00	0	29	0	2575302656	32	6000
2026-01-14 17:51:20.58	272.52	46.73	-29.5	-30.0	28.4	0.00e+00	0	29	0	2582642688	32	5740
2026-01-14 17:51:21.30	272.17	46.61	-29.5	-30.2	28.5	0.00e+00	0	29	0	2585788416	32	5830
2026-01-14 17:51:22.60	271.55	46.39	-29.6	-30.2	28.3	0.00e+00	0	29	0	2593128448	32	5869
2026-01-14 17:51:23.32	271.21	46.26	-29.7	-30.4	28.4	0.00e+00	0	29	0	2597322752	32	5965
2026-01-14 17:51:24.62	270.61	46.04	-29.9	-30.5	28.2	0.00e+00	0	29	0	2604662784	32	6050
2026-01-14 17:51:25.34	270.28	45.91	-30.2	-30.8	28.0	0.00e+00	0	29	0	2608857088	32	6276
2026-01-14 17:51:26.63	269.69	45.68	-30.2	-30.9	28.0	0.00e+00	0	29	0	2616197120	32	6351
2026-01-14 17:51:27.35	269.36	45.55	-30.2	-30.8	28.1	0.00e+00	0	29	0	2620391424	32	6308
2026-01-14 17:51:28.65	268.78	45.32	-29.6	-30.3	28.4	0.00e+00	0	29	0	2627731456	32	5943
2026-01-14 17:51:29.37	268.47	45.19	-29.6	-30.2	28.5	0.00e+00	0	29	0	2631925760	32	5876
2026-01-14 17:51:30.67	267.90	44.95	-29.4	-29.9	28.5	0.00e+00	0	29	0	2639265792	32	5676
2026-01-14 17:51:31.39	267.59	44.82	-29.3	-29.9	28.6	0.00e+00	0	29	0	2643460096	32	5667
2026-01-14 17:51:32.69	267.04	44.58	-29.5	-30.1	28.4	0.00e+00	0	29	0	2650800128	32	5774
2026-01-14 17:51:33.41	266.74	44.45	-29.7	-30.4	28.4	0.00e+00	0	29	0	2653945856	32	5972
2026-01-14 17:51:34.71	266.20	44.21	-29.4	-29.9	28.6	0.00e+00	0	29	0	2661285888	32	5662
2026-01-14 17:51:35.43	265.90	44.08	-29.4	-29.9	28.5	0.00e+00	0	29	0	2665480192	32	5668
2026-01-14 17:51:36.73	265.37	43.83	-29.3	-30.0	28.6	0.00e+00	0	29	0	2672820224	32	5710
2026-01-14 17:51:37.44	265.09	43.70	-29.3	-29.9	28.6	0.00e+00	0	29	0	2677014528	32	5634
2026-01-14 17:51:38.74	264.57	43.45	-30.5	-31.0	28.2	0.00e+00	0	29	0	2684354560	32	6444
2026-01-14 17:51:39.46	264.29	43.32	-29.6	-30.1	28.5	0.00e+00	0	29	0	2688548864	32	5799
2026-01-14 17:51:40.76	263.79	43.07	-29.4	-29.9	28.5	0.00e+00	0	29	0	2695888896	32	5680
2026-01-14 17:51:41.48	263.51	42.94	-29.4	-30.1	28.6	0.00e+00	0	29	0	2700083200	32	5785
2026-01-14 17:51:42.78	263.02	42.69	-29.3	-29.9	28.5	0.00e+00	0	29	0	2707423232	32	5692
2026-01-14 17:51:43.50	262.75	42.55	-29.2	-29.9	28.7	0.00e+00	0	29	0	2711617536	32	5632
2026-01-14 17:51:44.80	262.27	42.30	-29.2	-29.7	28.6	0.00e+00	0	29	0	2717908992	32	5544
2026-01-14 17:51:45.52	262.01	42.16	-29.1	-29.8	28.6	0.00e+00	0	29	0	2723151872	32	5583
2026-01-14 17:51:46.82	261.54	41.91	-29.1	-29.7	28.8	0.00e+00	0	29	0	2729443328	32	5527
2026-01-14 17:51:47.54	261.29	41.78	-29.3	-29.9	28.6	0.00e+00	0	29	0	2733637632	32	5650
2026-01-14 17:51:48.84	260.83	41.53	-29.4	-30.1	28.5	0.00e+00	0	29	0	2740977664	32	5811
2026-01-14 17:51:49.55	260.58	41.39	-29.6	-30.3	28.4	0.00e+00	0	29	0	2745171968	32	5903
2026-01-14 17:51:50.85	260.14	41.14	-29.7	-30.2	28.3	0.00e+00	0	29	0	2752512000	32	5883
2026-01-14 17:51:51.57	259.89	41.00	-29.8	-30.4	28.2	0.00e+00	0	29	0	2756706304	32	5990
2026-01-14 17:51:52.87	259.46	40.75	-29.7	-30.4	28.2	0.00e+00	0	29	0	2764046336	32	6003
2026-01-14 17:51:53.59	259.22	40.61	-29.7	-30.4	28.2	0.00e+00	0	29	0	2768240640	32	6021
2026-01-14 17:51:54.89	258.80	40.36	-29.7	-30.2	28.3	0.00e+00	0	29	0	2775580672	32	5861
2026-01-14 17:51:55.61	258.56	40.22	-29.6	-30.3	28.3	0.00e+00	0	29	0	2778726400	32	5909
2026-01-14 17:51:56.91	258.15	39.97	-29.6	-30.1	28.2	0.00e+00	0	29	0	2786066432	32	5802
2026-01-14 17:51:57.63	257.92	39.83	-29.5	-30.0	28.3	0.00e+00	0	29	0	2790260736	32	5730
2026-01-14 17:51:58.93	257.52	39.58	-29.3	-30.0	28.4	0.00e+00	0	29	0	2797600768	32	5717
2026-01-14 17:51:59.65	257.30	39.44	-29.3	-29.9	28.5	0.00e+00	0	29	0	2801795072	32	5633
2026-01-14 17:52:00.95	256.90	39.19	-29.6	-30.2	28.4	0.00e+00	0	29	0	2809135104	32	5894
2026-01-14 17:52:01.67	256.68	39.05	-29.4	-30.1	28.5	0.00e+00	0	29	0	2813329408	32	5764
2026-01-14 17:52:02.97	256.30	38.80	-29.4	-29.9	28.4	0.00e+00	0	29	0	2820669440	32	5679
2026-01-14 17:52:03.69	256.09	38.66	-29.5	-30.1	28.4	0.00e+00	0	29	0	2824863744	32	5777
2026-01-14 17:52:04.99	255.71	38.41	-29.4	-30.1	28.4	0.00e+00	0	29	0	2832203776	32	5790
2026-01-14 17:52:05.71	255.51	38.27	-29.4	-29.9	28.5	0.00e+00	0	29	0	2836398080	32	5668
2026-01-14 17:52:07.00	255.14	38.03	-29.3	-30.0	28.6	0.00e+00	0	29	0	2843738112	32	5737
2026-01-14 17:52:07.72	254.94	37.89	-29.5	-30.0	28.3	0.00e+00	0	29	0	2847932416	32	5726
2026-01-14 17:52:09.02	254.58	37.64	-29.5	-30.0	28.5	0.00e+00	0	29	0	2855272448	32	5735
2026-01-14 17:52:09.74	254.38	37.51	-29.6	-30.2	28.3	0.00e+00	0	29	0	2858418176	32	5832
2026-01-14 17:52:11.04	254.03	37.26	-29.6	-30.2	28.4	0.00e+00	0	29	0	2865758208	32	5894
2026-01-14 17:52:11.76	253.84	37.12	-29.5	-30.2	28.4	0.00e+00	0	29	0	2869952512	32	5845
2026-01-14 17:52:13.06	253.50	36.88	-29.5	-30.2	28.5	0.00e+00	0	29	0	2877292544	32	5834
2026-01-14 17:52:13.78	253.31	36.74	-29.2	-29.8	28.5	0.00e+00	0	29	0	2881486848	32	5577
2026-01-14 17:52:15.08	252.98	36.49	-29.2	-29.7	28.5	0.00e+00	0	29	0	2888826880	32	5561
2026-01-14 17:52:15.80	252.80	36.36	-29.2	-29.9	28.6	0.00e+00	0	29	0	2893021184	32	5675
2026-01-14 17:52:17.10	252.47	36.11	-29.3	-29.8	28.6	0.00e+00	0	29	0	2900361216	32	5607
2026-01-14 17:52:17.82	252.29	35.98	-29.3	-30.0	28.6	0.00e+00	0	29	0	2904555520	32	5708
2026-01-14 17:52:19.12	251.97	35.74	-29.3	-29.9	28.6	0.00e+00	0	29	0	2910846976	32	5641
2026-01-14 17:52:19.84	251.80	35.60	-29.3	-29.8	28.5	0.00e+00	0	29	0	2916089856	32	5607
2026-01-14 17:52:21.14	251.48	35.36	-29.2	-29.8	28.7	0.00e+00	0	29	0	2922381312	32	5572
2026-01-14 17:52:21.86	251.31	35.23	-29.3	-29.9	28.5	0.00e+00	0	29	0	2926575616	32	5638
2026-01-14 17:52:23.16	251.01	34.99	-29.2	-29.9	28.6	0.00e+00	0	29	0	2933915648	32	5694
2026-01-14 17:52:23.88	250.84	34.86	-29.1	-29.8	28.7	0.00e+00	0	29	0	2938109952	32	5608
2026-01-14 17:52:25.17	250.55	34.62	-29.0	-29.7	28.7	0.00e+00	0	29	0	2945449984	32	5558
2026-01-14 17:52:25.89	250.38	34.49	-29.2	-29.8	28.7	0.00e+00	0	29	0	2949644288	32	5628
2026-01-14 17:52:27.19	250.09	34.25	-29.0	-29.6	28.7	0.00e+00	0	29	0	2956984320	32	5449
2026-01-14 17:52:27.91	249.93	34.12	-29.1	-29.6	28.7	0.00e+00	0	29	0	2961178624	32	5472
2026-01-14 17:52:29.21	249.65	33.88	-29.2	-29.8	28.6	0.00e+00	0	29	0	2968518656	32	5577
2026-01-14 17:52:29.93	249.49	33.75	-29.1	-29.7	28.7	0.00e+00	0	29	0	2972712960	32	5559
2026-01-14 17:52:31.23	249.22	33.52	-29.2	-29.9	28.6	0.00e+00	0	29	0	2980052992	32	5655
2026-01-14 17:52:31.95	249.06	33.39	-29.2	-29.9	28.6	0.00e+00	0	29	0	2983198720	32	5663
2026-01-14 17:52:33.25	248.79	33.16	-29.5	-30.2	28.4	0.00e+00	0	29	0	2990538752	32	5841
2026-01-14 17:52:33.97	248.64	33.03	-29.5	-30.2	28.5	0.00e+00	0	29	0	2994733056	32	5835
2026-01-14 17:52:35.27	248.38	32.80	-29.6	-30.1	28.4	0.00e+00	0	29	0	3002073088	32	5826
2026-01-14 17:52:35.99	248.23	32.67	-29.6	-30.3	28.3	0.00e+00	0	29	0	3006267392	32	5963
2026-01-14 17:52:37.28	247.98	32.44	-29.7	-30.4	28.3	0.00e+00	0	29	0	3013607424	32	5978
2026-01-14 17:52:38.00	247.83	32.32	-29.3	-29.9	28.4	0.00e+00	0	29	0	3017801728	32	5662
2026-01-14 17:52:39.30	247.58	32.09	-29.3	-30.0	28.6	0.00e+00	0	29	0	3025141760	32	5711
2026-01-14 17:52:40.02	247.44	31.96	-29.1	-29.6	28.7	0.00e+00	0	29	0	3029336064	32	5494
2026-01-14 17:52:41.32	247.19	31.74	-29.2	-29.9	28.7	0.00e+00	0	29	0	3036676096	32	5652
2026-01-14 17:52:42.04	247.05	31.61	-29.4	-30.0	28.5	0.00e+00	0	29	0	3040870400	32	5759
2026-01-14 17:52:43.34	246.81	31.39	-29.6	-30.3	28.3	0.00e+00	0	29	0	3048210432	32	5916
2026-01-14 17:52:44.06	246.68	31.27	-29.7	-30.4	28.3	0.00e+00	0	29	0	3051356160	32	6028
2026-01-14 17:52:45.36	246.44	31.04	-29.9	-30.5	27.9	0.00e+00	0	29	0	3058696192	32	6071
2026-01-14 17:52:46.08	246.31	30.92	-29.8	-30.5	28.0	0.00e+00	0	29	0	3062890496	32	6050
2026-01-14 17:52:47.38	246.08	30.70	-29.9	-30.6	27.9	0.00e+00	0	29	0	3070230528	32	6159
2026-01-14 17:52:48.10	245.95	30.58	-29.9	-30.6	27.9	0.00e+00	0	29	0	3074424832	32	6162
2026-01-14 17:52:49.39	245.72	30.36	-29.9	-30.6	27.8	0.00e+00	0	29	0	3081764864	32	6112
2026-01-14 17:52:50.12	245.60	30.24	-30.0	-30.7	27.8	0.00e+00	0	29	0	3085959168	32	6199
2026-01-14 17:52:51.42	245.37	30.02	-30.0	-30.7	27.8	0.00e+00	0	29	0	3093299200	32	6215
2026-01-14 17:52:52.14	245.25	29.90	-30.0	-30.7	27.8	0.00e+00	0	29	0	3097493504	32	6220
2026-01-14 17:52:53.44	245.03	29.69	-30.1	-30.8	27.6	0.00e+00	0	29	0	3104833536	32	6292
2026-01-14 17:52:54.16	244.91	29.57	-30.1	-30.8	27.8	0.00e+00	0	29	0	3109027840	32	6255
2026-01-14 17:52:55.46	244.70	29.35	-30.0	-30.5	27.8	0.00e+00	0	29	0	3115319296	32	6103
2026-01-14 17:52:56.18	244.58	29.24	-30.1	-30.6	27.7	0.00e+00	0	29	0	3120562176	32	6164
2026-01-14 17:52:57.48	244.37	29.02	-30.3	-30.8	27.6	0.00e+00	0	29	0	3126853632	32	6293
2026-01-14 17:52:58.19	244.26	28.91	-30.1	-30.7	27.7	0.00e+00	0	29	0	3131047936	32	6183
2026-01-14 17:52:59.49	244.05	28.70	-30.3	-30.8	27.6	0.00e+00	0	29	0	3138387968	32	6287
2026-01-14 17:53:00.21	243.94	28.58	-30.0	-30.6	27.8	0.00e+00	0	29	0	3142582272	32	6127
2026-01-14 17:53:01.51	243.74	28.38	-30.2	-30.8	27.6	0.00e+00	0	29	0	3149922304	32	6270
2026-01-14 17:53:02.23	243.63	28.26	-30.2	-30.7	27.6	0.00e+00	0	29	0	3154116608	32	6237
2026-01-14 17:53:03.53	243.43	28.05	-30.1	-30.6	27.8	0.00e+00	0	29	0	3161456640	32	6152
2026-01-14 17:53:04.25	243.32	27.94	-30.1	-30.7	27.7	0.00e+00	0	29	0	3165650944	32	6192
2026-01-14 17:53:05.55	243.13	27.74	-30.1	-30.6	27.7	0.00e+00	0	29	0	3172990976	32	6156
2026-01-14 17:53:06.27	243.02	27.62	-30.2	-30.8	27.6	0.00e+00	0	29	0	3177185280	32	6271
2026-01-14 17:53:07.57	242.83	27.42	-30.1	-30.7	27.7	0.00e+00	0	29	0	3184525312	32	6198
2026-01-14 17:53:08.29	242.73	27.31	-30.1	-30.7	27.6	0.00e+00	0	29	0	3187671040	32	6208
2026-01-14 17:53:09.59	242.55	27.11	-30.2	-30.8	27.6	0.00e+00	0	29	0	3195011072	32	6263
2026-01-14 17:53:10.31	242.44	27.00	-30.3	-30.9	27.5	0.00e+00	0	29	0	3199205376	32	6325
2026-01-14 17:53:11.61	242.26	26.80	-30.0	-30.7	27.8	0.00e+00	0	29	0	3206545408	32	6185
2026-01-14 17:53:12.33	242.16	26.69	-30.0	-30.6	27.7	0.00e+00	0	29	0	3210739712	32	6168
2026-01-14 17:53:13.63	241.98	26.49	-30.0	-30.5	27.8	0.00e+00	0	29	0	3218079744	32	6095
2026-01-14 17:53:14.35	241.89	26.38	-30.0	-30.5	27.8	0.00e+00	0	29	0	3222274048	32	6061
2026-01-14 17:53:15.65	241.71	26.19	-30.1	-30.7	27.7	0.00e+00	0	29	0	3229614080	32	6191
2026-01-14 17:53:16.37	241.61	26.08	-30.1	-30.6	27.7	0.00e+00	0	29	0	3233808384	32	6150
2026-01-14 17:53:17.66	241.44	25.88	-30.3	-31.0	27.6	0.00e+00	0	29	0	3241148416	32	6399
2026-01-14 17:53:18.39	241.35	25.78	-30.4	-31.1	27.5	0.00e+00	0	29	0	3245342720	32	6480
2026-01-14 17:53:19.69	241.18	25.58	-30.1	-30.8	27.6	0.00e+00	0	29	0	3252682752	32	6302
2026-01-14 17:53:20.41	241.09	25.48	-30.3	-31.0	27.6	0.00e+00	0	29	0	3255828480	32	6433
2026-01-14 17:53:21.70	240.92	25.29	-30.2	-30.9	27.6	0.00e+00	0	29	0	3263168512	32	6380
2026-01-14 17:53:22.42	240.83	25.18	-30.2	-30.9	27.6	0.00e+00	0	29	0	3267362816	32	6383
2026-01-14 17:53:23.72	240.67	25.00	-30.3	-30.9	27.5	0.00e+00	0	29	0	3274702848	32	6346
2026-01-14 17:53:24.44	240.58	24.89	-30.2	-30.7	27.6	0.00e+00	0	29	0	3278897152	32	6233
2026-01-14 17:53:25.74	240.42	24.70	-30.3	-30.8	27.6	0.00e+00	0	29	0	3286237184	32	6294
2026-01-14 17:53:26.46	240.34	24.60	-30.3	-30.8	27.6	0.00e+00	0	29	0	3290431488	32	6293
2026-01-14 17:53:27.76	240.18	24.42	-30.3	-31.0	27.5	0.00e+00	0	29	0	3297771520	32	6433
2026-01-14 17:53:28.48	240.10	24.31	-30.3	-31.0	27.6	0.00e+00	0	29	0	3301965824	32	6426
2026-01-14 17:53:29.78	239.94	24.13	-30.4	-30.9	27.5	0.00e+00	0	29	0	3309305856	32	6367
2026-01-14 17:53:30.50	239.86	24.03	-30.4	-30.9	27.4	0.00e+00	0	29	0	3313500160	32	6365
2026-01-14 17:53:31.80	239.71	23.85	-30.4	-31.1	27.5	0.00e+00	0	29	0	3319791616	32	6494
2026-01-14 17:53:32.52	239.63	23.74	-30.3	-31.0	27.5	0.00e+00	0	29	0	3325034496	32	6446
2026-01-14 17:53:33.81	239.48	23.57	-30.4	-31.1	27.5	0.00e+00	0	29	0	3331325952	32	6482
2026-01-14 17:53:34.54	239.40	23.46	-30.4	-31.1	27.5	0.00e+00	0	29	0	3335520256	32	6474
2026-01-14 17:53:35.84	239.25	23.29	-30.4	-30.9	27.4	0.00e+00	0	29	0	3342860288	32	6377
2026-01-14 17:53:36.56	239.17	23.19	-30.3	-30.9	27.5	0.00e+00	0	29	0	3347054592	32	6338
2026-01-14 17:53:37.85	239.03	23.01	-30.3	-30.9	27.5	0.00e+00	0	29	0	3354394624	32	6325
2026-01-14 17:53:38.57	238.95	22.91	-30.3	-30.8	27.6	0.00e+00	0	29	0	3358588928	32	6300
2026-01-14 17:53:39.88	238.81	22.74	-30.4	-31.1	27.5	0.00e+00	0	29	0	3365928960	32	6484
2026-01-14 17:53:40.60	238.74	22.64	-30.3	-30.9	27.6	0.00e+00	0	29	0	3370123264	32	6390
2026-01-14 17:53:41.90	238.60	22.47	-30.2	-30.9	27.7	0.00e+00	0	29	0	3377463296	32	6360
2026-01-14 17:53:42.62	238.52	22.37	-30.2	-30.9	27.7	0.00e+00	0	29	0	3380609024	32	6323
2026-01-14 17:53:43.91	238.39	22.20	-30.1	-30.8	27.6	0.00e+00	0	29	0	3387949056	32	6285
2026-01-14 17:53:44.64	238.32	22.10	-30.1	-30.8	27.7	0.00e+00	0	29	0	3392143360	32	6301
2026-01-14 17:53:45.94	238.18	21.93	-30.1	-30.6	27.7	0.00e+00	0	29	0	3399483392	32	6158
2026-01-14 17:53:46.66	238.11	21.84	-30.1	-30.6	27.7	0.00e+00	0	29	0	3403677696	32	6161
2026-01-14 17:53:47.96	237.98	21.67	-30.2	-30.8	27.6	0.00e+00	0	29	0	3411017728	32	6261
2026-01-14 17:53:48.68	237.91	21.57	-30.3	-31.0	27.6	0.00e+00	0	29	0	3415212032	32	6443
2026-01-14 17:53:49.98	237.78	21.40	-30.4	-31.1	27.4	0.00e+00	0	29	0	3422552064	32	6499
2026-01-14 17:53:50.70	237.71	21.31	-30.3	-30.9	27.5	0.00e+00	0	29	0	3426746368	32	6340
2026-01-14 17:53:52.00	237.58	21.15	-30.5	-31.0	27.4	0.00e+00	0	29	0	3434086400	32	6453
2026-01-14 17:53:52.72	237.52	21.05	-30.5	-31.0	27.5	0.00e+00	0	29	0	3438280704	32	6463
2026-01-14 17:53:54.02	237.39	20.89	-30.6	-31.2	27.3	0.00e+00	0	29	0	3445620736	32	6559
2026-01-14 17:53:54.74	237.32	20.80	-30.7	-31.3	27.1	0.00e+00	0	29	0	3449815040	34	5926
2026-01-14 17:53:56.04	237.20	20.63	-31.0	-31.7	27.0	0.00e+00	0	29	0	3457155072	34	6215
2026-01-14 17:53:56.76	237.14	20.54	-30.9	-31.6	27.1	0.00e+00	0	29	0	3460300800	34	6119
2026-01-14 17:53:58.06	237.02	20.38	-31.1	-31.8	27.0	0.00e+00	0	29	0	3467640832	34	6279
2026-01-14 17:53:58.78	236.95	20.29	-31.1	-31.8	26.9	0.00e+00	0	29	0	3471835136	34	6275
2026-01-14 17:54:00.08	236.83	20.13	-31.2	-31.9	26.7	0.00e+00	0	29	0	3479175168	34	6353
2026-01-14 17:54:00.80	236.77	20.04	-31.2	-31.9	26.8	0.00e+00	0	29	0	3483369472	34	6382
2026-01-14 17:54:02.10	236.65	19.88	-31.2	-32.0	26.8	0.00e+00	0	29	0	3490709504	34	6394
2026-01-14 17:54:02.82	236.59	19.79	-31.3	-32.0	26.7	0.00e+00	0	29	0	3494903808	34	6451
2026-01-14 17:54:04.12	236.48	19.64	-31.2	-31.9	26.8	0.00e+00	0	29	0	3502243840	34	6383
2026-01-14 17:54:04.84	236.41	19.55	-31.2	-31.8	26.8	0.00e+00	0	29	0	3506438144	34	6267
2026-01-14 17:54:06.14	236.30	19.39	-31.1	-31.7	26.8	0.00e+00	0	29	0	3513778176	34	6220
2026-01-14 17:54:06.86	236.24	19.31	-31.2	-31.8	26.9	0.00e+00	0	29	0	3516923904	34	6256
2026-01-14 17:54:08.16	236.13	19.15	-31.1	-31.7	26.9	0.00e+00	0	29	0	3524263936	34	6189
2026-01-14 17:54:08.88	236.07	19.07	-31.2	-31.9	26.8	0.00e+00	0	29	0	3528458240	34	6368
2026-01-14 17:54:10.18	235.96	18.91	-31.3	-31.8	26.7	0.00e+00	0	29	0	3535798272	34	6304
2026-01-14 17:54:10.90	235.90	18.83	-31.3	-32.0	26.8	0.00e+00	0	29	0	3539992576	34	6426
2026-01-14 17:54:12.20	235.80	18.67	-31.5	-32.1	26.7	0.00e+00	0	29	0	3547332608	34	6472
2026-01-14 17:54:12.92	235.74	18.59	-31.6	-32.2	26.5	0.00e+00	0	29	0	3551526912	34	6572
2026-01-14 17:54:14.22	235.63	18.44	-31.4	-32.0	26.6	0.00e+00	0	29	0	3558866944	34	6399
2026-01-14 17:54:14.94	235.58	18.35	-31.6	-32.2	26.5	0.00e+00	0	29	0	3563061248	34	6562
2026-01-14 17:54:16.24	235.47	18.20	-31.4	-32.0	26.6	0.00e+00	0	29	0	3570401280	34	6409
2026-01-14 17:54:16.96	235.42	18.12	-31.5	-32.1	26.5	0.00e+00	0	29	0	3574595584	34	6491
2026-01-14 17:54:18.25	235.32	17.97	-31.7	-32.4	26.4	0.00e+00	0	29	0	3581935616	36	5991
2026-01-14 17:54:18.97	235.26	17.89	-31.6	-32.3	26.5	0.00e+00	0	29	0	3586129920	36	5957
2026-01-14 17:54:20.27	235.16	17.74	-31.6	-32.1	26.6	0.00e+00	0	29	0	3593469952	36	5810
2026-01-14 17:54:20.99	235.11	17.66	-31.7	-32.2	26.5	0.00e+00	0	29	0	3596615680	36	5894
2026-01-14 17:54:22.29	235.01	17.52	-31.6	-32.1	26.6	0.00e+00	0	29	0	3603955712	36	5808
2026-01-14 17:54:23.01	234.95	17.44	-31.6	-32.1	26.5	0.00e+00	0	29	0	3608150016	36	5827
2026-01-14 17:54:24.31	234.86	17.29	-31.6	-32.2	26.5	0.00e+00	0	29	0	3615490048	36	5835
