passes_logs/2026/01/14/R4.6S_Anadyr/R4.6S_Anadyr__20260114_073740_TY-42_rec.log

#Pass ID: 20260114_073740_TY-42
#Satellite: TY-42
#Configuration: TY-42_900M
#almurnet v.1.7.20251203
#Start time: 2026-01-14 07:38:13

#Version: 2.2.20231116
#Station: R4.6S_Anadyr
#Location: 177.4865 lon 64.73178 lat
#TLE: 1 64048U 25103A   26014.26833333  .00008011  00000-0  38191-3 0 09992
#TLE: 2 64048 097.4118 089.6996 0001685 091.1025 050.2393 15.19172418 36706

#Time	Az	El	Level	Level2	SNR	BER	BlckErr	Temp	State	Recorded	gain1	gain2
2026-01-14 07:38:13.26	107.50	1.96	-49.0	-66.8	3.5	3.02e+01	0	26	0	0	60	83744
2026-01-14 07:38:14.26	107.41	2.02	-46.6	-49.3	6.1	0.00e+00	0	27	104	0	60	35718
2026-01-14 07:38:15.27	107.33	2.08	-46.6	-49.3	6.1	0.00e+00	0	27	104	0	60	35851
2026-01-14 07:38:16.28	107.24	2.14	-46.6	-49.3	6.1	0.00e+00	0	27	104	0	60	35568
2026-01-14 07:38:17.29	107.15	2.21	-46.6	-49.3	6.1	0.00e+00	0	27	104	0	60	35658
2026-01-14 07:38:18.30	107.06	2.27	-46.6	-49.3	6.1	0.00e+00	0	27	104	0	60	35665
2026-01-14 07:38:19.31	106.97	2.33	-46.6	-49.3	6.1	0.00e+00	0	27	104	0	60	35594
2026-01-14 07:38:20.32	106.88	2.39	-46.6	-49.2	6.1	0.00e+00	0	27	104	0	60	35502
2026-01-14 07:38:21.33	106.78	2.46	-46.6	-49.3	6.1	0.00e+00	0	27	104	0	60	35643
2026-01-14 07:38:22.34	106.69	2.52	-46.6	-49.2	6.1	0.00e+00	0	27	104	0	60	35433
2026-01-14 07:38:23.35	106.60	2.58	-46.6	-49.3	6.1	0.00e+00	0	27	104	0	60	35718
2026-01-14 07:38:24.36	106.51	2.65	-46.6	-49.3	6.1	0.00e+00	0	27	104	0	60	35636
2026-01-14 07:38:25.36	106.41	2.71	-46.6	-49.2	6.1	0.00e+00	0	27	104	0	60	35480
2026-01-14 07:38:26.37	106.32	2.77	-46.6	-49.3	6.1	0.00e+00	0	27	104	0	60	35765
2026-01-14 07:38:27.38	106.22	2.84	-46.6	-49.2	6.1	0.00e+00	0	27	104	0	60	35416
2026-01-14 07:38:28.39	106.13	2.90	-46.6	-49.3	6.1	0.00e+00	0	28	104	0	60	35623
2026-01-14 07:38:29.40	106.03	2.97	-46.6	-49.3	6.1	0.00e+00	0	28	104	0	60	35554
2026-01-14 07:38:30.41	105.94	3.03	-46.6	-49.3	6.1	0.00e+00	0	28	104	0	60	35638
2026-01-14 07:38:31.42	105.84	3.09	-46.6	-49.3	6.1	0.00e+00	0	28	104	0	60	35628
2026-01-14 07:38:32.43	105.74	3.16	-46.6	-49.3	6.1	0.00e+00	0	28	104	0	60	35608
2026-01-14 07:38:33.44	105.64	3.22	-46.6	-49.3	6.1	0.00e+00	0	28	104	0	60	35726
2026-01-14 07:38:34.45	105.55	3.29	-46.6	-49.3	6.1	0.00e+00	0	28	104	0	60	35644
2026-01-14 07:38:35.46	105.45	3.35	-46.6	-49.3	6.1	0.00e+00	0	28	104	0	60	35625
2026-01-14 07:38:36.47	105.35	3.42	-46.6	-49.3	6.1	0.00e+00	0	28	104	0	60	35554
2026-01-14 07:38:37.48	105.25	3.48	-46.6	-49.3	6.1	0.00e+00	0	28	104	0	60	35580
2026-01-14 07:38:38.48	105.15	3.55	-46.6	-49.3	6.1	0.00e+00	0	28	104	0	60	35538
2026-01-14 07:38:39.49	105.05	3.61	-46.6	-49.3	6.1	0.00e+00	0	28	104	0	60	35529
2026-01-14 07:38:40.50	104.94	3.68	-46.6	-49.3	6.1	0.00e+00	0	28	104	0	60	35593
2026-01-14 07:38:41.51	104.84	3.74	-46.9	-49.6	6.1	0.00e+00	0	28	104	0	60	36900
2026-01-14 07:38:42.52	104.74	3.81	-46.9	-49.6	6.1	0.00e+00	0	28	104	0	60	36832
2026-01-14 07:38:43.53	104.63	3.88	-46.6	-49.3	6.1	0.00e+00	0	28	104	0	60	35725
2026-01-14 07:38:44.53	104.53	3.94	-47.0	-49.6	6.1	0.00e+00	0	28	104	0	60	36803
2026-01-14 07:38:45.54	104.43	4.01	-46.9	-49.5	6.1	0.00e+00	0	28	104	0	60	36684
2026-01-14 07:38:46.55	104.32	4.07	-46.6	-49.3	6.1	0.00e+00	0	28	104	0	60	35850
2026-01-14 07:38:47.56	104.21	4.14	-46.7	-49.4	6.1	0.00e+00	0	28	104	0	60	35979
2026-01-14 07:38:48.57	104.11	4.21	-46.8	-49.5	6.1	0.00e+00	0	28	104	0	60	36393
2026-01-14 07:38:49.58	104.00	4.27	-47.0	-49.6	6.1	0.00e+00	0	28	104	0	60	36908
2026-01-14 07:38:50.59	103.89	4.34	-46.9	-49.5	6.1	0.00e+00	0	28	104	0	60	36471
2026-01-14 07:38:51.60	103.78	4.41	-46.8	-49.4	6.1	0.00e+00	0	28	104	0	60	36247
2026-01-14 07:38:52.60	103.67	4.47	-47.1	-49.7	6.1	0.00e+00	0	28	104	0	60	37432
2026-01-14 07:38:53.61	103.56	4.54	-46.8	-49.5	6.1	0.00e+00	0	28	104	0	60	36640
2026-01-14 07:38:54.62	103.45	4.61	-47.1	-49.8	6.1	0.00e+00	0	28	104	0	60	37683
2026-01-14 07:38:55.63	103.34	4.68	-46.9	-49.5	6.1	0.00e+00	0	28	104	0	60	36629
2026-01-14 07:38:56.64	103.23	4.74	-47.4	-49.9	6.1	0.00e+00	0	28	104	0	60	38373
2026-01-14 07:38:57.65	103.12	4.81	-47.3	-49.9	6.1	0.00e+00	0	28	104	0	60	38161
2026-01-14 07:38:58.66	103.00	4.88	-46.9	-49.6	6.1	0.00e+00	0	28	104	0	60	37012
2026-01-14 07:38:59.67	102.89	4.95	-47.0	-49.6	6.1	0.00e+00	0	28	104	0	60	37178
2026-01-14 07:39:00.68	102.77	5.02	-47.2	-49.8	6.1	0.00e+00	0	28	104	0	60	38032
2026-01-14 07:39:01.69	102.66	5.08	-47.4	-50.0	6.1	0.00e+00	0	28	104	0	60	38627
2026-01-14 07:39:02.70	102.54	5.15	-47.2	-49.9	6.1	0.00e+00	0	29	104	0	60	38072
2026-01-14 07:39:03.71	102.42	5.22	-47.6	-50.1	6.1	0.00e+00	0	28	104	0	60	39184
2026-01-14 07:39:04.72	102.31	5.29	-47.3	-49.9	6.1	0.00e+00	0	28	104	0	60	38410
2026-01-14 07:39:05.73	102.19	5.36	-47.2	-49.9	6.1	0.00e+00	0	29	104	0	60	38072
2026-01-14 07:39:06.73	102.07	5.43	-46.9	-49.5	6.1	0.00e+00	0	29	104	0	60	36506
2026-01-14 07:39:07.74	101.95	5.50	-47.1	-49.7	6.1	0.00e+00	0	29	104	0	60	37456
2026-01-14 07:39:08.75	101.83	5.57	-47.1	-49.7	6.1	0.00e+00	0	28	104	0	60	37550
2026-01-14 07:39:09.76	101.71	5.64	-46.9	-49.5	6.1	0.00e+00	0	29	104	0	60	36460
2026-01-14 07:39:10.77	101.59	5.70	-47.0	-49.6	6.1	0.00e+00	0	29	104	0	60	36977
2026-01-14 07:39:11.78	101.46	5.77	-47.0	-49.6	6.1	0.00e+00	0	28	104	0	60	36911
2026-01-14 07:39:12.79	101.34	5.84	-46.6	-49.0	6.1	0.00e+00	0	29	104	0	60	34670
2026-01-14 07:39:13.79	101.22	5.91	-33.0	-33.4	10.4	0.00e+00	579	29	104	0	38	20252
2026-01-14 07:39:14.80	101.09	5.98	-47.4	-49.9	6.1	0.00e+00	0	29	104	0	60	38299
2026-01-14 07:39:15.81	100.97	6.05	-28.5	-29.0	15.8	0.00e+00	0	29	0	8388608	36	13690
2026-01-14 07:39:16.82	100.84	6.13	-28.0	-28.5	15.8	3.47e-03	0	29	0	125829120	32	16393
2026-01-14 07:39:17.83	100.71	6.20	-27.8	-28.3	15.8	3.47e-03	0	29	0	243269632	30	17992
2026-01-14 07:39:18.84	100.58	6.27	-27.4	-27.9	16.0	1.13e-03	0	29	0	352321536	30	17172
2026-01-14 07:39:19.85	100.46	6.34	-27.6	-28.2	16.0	1.13e-03	0	29	0	469762048	30	17606
2026-01-14 07:39:20.86	100.33	6.41	-27.5	-28.0	16.1	9.10e-04	0	29	0	578813952	30	17326
2026-01-14 07:39:21.87	100.20	6.48	-27.5	-28.0	16.0	5.78e-04	0	29	0	687865856	30	17276
2026-01-14 07:39:22.87	100.07	6.55	-27.4	-27.9	16.1	5.78e-04	0	29	0	805306368	30	17159
2026-01-14 07:39:23.89	99.93	6.62	-27.2	-27.7	16.1	4.03e-04	0	29	0	922746880	30	16725
2026-01-14 07:39:24.89	99.80	6.69	-27.4	-27.9	16.1	4.03e-04	0	29	0	1031798784	30	17134
2026-01-14 07:39:25.90	99.67	6.77	-27.5	-27.9	16.0	6.76e-04	0	29	0	1149239296	30	17185
2026-01-14 07:39:26.91	99.53	6.84	-27.1	-27.5	16.3	6.76e-04	0	29	0	1258291200	30	16415
2026-01-14 07:39:27.92	99.40	6.91	-26.9	-27.4	16.5	3.16e-04	0	29	0	1375731712	30	16176
2026-01-14 07:39:28.93	99.26	6.98	-27.1	-27.6	16.4	3.16e-04	0	29	0	1493172224	30	16441
2026-01-14 07:39:29.94	99.12	7.05	-26.8	-27.3	16.4	1.09e-04	0	29	0	1602224128	30	16025
2026-01-14 07:39:30.95	98.98	7.13	-26.8	-27.3	16.3	1.09e-04	0	29	0	1711276032	30	16005
2026-01-14 07:39:31.96	98.84	7.20	-26.8	-27.3	16.3	2.62e-04	0	29	0	1828716544	30	15963
2026-01-14 07:39:32.97	98.70	7.27	-26.9	-27.3	16.3	2.62e-04	0	29	0	1937768448	30	16002
2026-01-14 07:39:33.97	98.57	7.34	-26.7	-27.1	16.5	3.11e-04	0	29	0	2055208960	28	17556
2026-01-14 07:39:34.98	98.42	7.42	-26.8	-27.2	16.5	3.11e-04	0	29	0	2172649472	28	17800
2026-01-14 07:39:35.99	98.28	7.49	-26.7	-27.2	16.5	1.25e-04	0	29	0	2281701376	28	17785
2026-01-14 07:39:37.00	98.14	7.56	-26.9	-27.4	16.4	1.25e-04	0	29	0	2399141888	28	18029
2026-01-14 07:39:38.01	97.99	7.64	-26.7	-27.2	16.4	1.91e-04	0	29	0	2508193792	28	17750
2026-01-14 07:39:39.02	97.85	7.71	-26.7	-27.1	16.3	1.91e-04	0	29	0	2625634304	28	17597
2026-01-14 07:39:40.03	97.70	7.79	-26.6	-27.1	16.3	2.40e-04	0	29	0	2734686208	28	17513
2026-01-14 07:39:41.04	97.55	7.86	-26.6	-27.1	16.3	2.40e-04	0	29	0	2852126720	28	17550
2026-01-14 07:39:42.05	97.41	7.93	-26.6	-27.1	16.4	2.23e-04	0	29	0	2961178624	28	17464
2026-01-14 07:39:43.06	97.26	8.01	-26.6	-27.1	16.6	2.23e-04	0	29	0	3078619136	28	17418
2026-01-14 07:39:44.07	97.11	8.08	-26.6	-27.1	16.6	1.69e-04	0	29	0	3196059648	28	17493
2026-01-14 07:39:45.08	96.96	8.16	-26.6	-27.1	16.5	1.69e-04	0	29	0	3305111552	28	17529
2026-01-14 07:39:46.09	96.80	8.23	-26.6	-27.1	16.5	1.47e-04	0	30	0	3422552064	28	17550
2026-01-14 07:39:47.10	96.65	8.31	-26.4	-26.9	16.5	1.74e-04	0	30	0	3531603968	28	17131
2026-01-14 07:39:48.10	96.50	8.38	-26.6	-27.1	16.5	1.74e-04	0	30	0	3640655872	28	17461
2026-01-14 07:39:49.11	96.34	8.45	-26.5	-26.9	16.4	1.47e-04	0	29	0	3758096384	28	17181
2026-01-14 07:39:50.13	96.19	8.53	-26.4	-26.8	16.5	1.47e-04	0	30	0	3875536896	28	16948
2026-01-14 07:39:51.14	96.03	8.60	-26.4	-26.8	16.7	1.42e-04	0	30	0	3984588800	28	16996
2026-01-14 07:39:52.15	95.87	8.68	-26.3	-26.8	16.6	1.42e-04	0	29	0	4102029312	28	16882
2026-01-14 07:39:53.16	95.71	8.76	-26.3	-26.8	16.6	8.71e-05	0	30	0	4211081216	28	16899
2026-01-14 07:39:54.17	95.55	8.83	-26.4	-26.8	16.7	8.71e-05	0	30	0	4328521728	28	16981
2026-01-14 07:39:55.18	95.39	8.91	-26.4	-26.9	16.7	1.25e-04	0	30	0	4445962240	28	17166
2026-01-14 07:39:56.18	95.23	8.98	-26.3	-26.8	16.7	1.25e-04	0	30	0	4555014144	28	16854
2026-01-14 07:39:57.19	95.07	9.06	-26.2	-26.7	16.6	6.53e-05	0	30	0	4664066048	28	16712
2026-01-14 07:39:58.20	94.90	9.13	-26.2	-26.7	16.5	6.53e-05	0	30	0	4781506560	28	16778
2026-01-14 07:39:59.21	94.74	9.21	-26.1	-26.6	16.5	6.53e-05	0	30	0	4890558464	28	16482
2026-01-14 07:40:00.22	94.57	9.29	-26.2	-26.7	16.6	1.09e-04	0	30	0	5007998976	28	16662
2026-01-14 07:40:01.23	94.40	9.36	-26.0	-26.5	16.6	1.09e-04	0	30	0	5125439488	28	16335
2026-01-14 07:40:02.24	94.23	9.44	-25.9	-26.4	16.5	9.80e-05	0	30	0	5234491392	28	16116
2026-01-14 07:40:03.25	94.06	9.52	-25.9	-26.4	16.5	9.80e-05	0	30	0	5351931904	28	16187
2026-01-14 07:40:04.26	93.89	9.59	-25.8	-26.3	16.6	1.09e-04	0	30	0	5460983808	28	15935
2026-01-14 07:40:05.27	93.72	9.67	-25.8	-26.3	16.7	1.09e-04	0	30	0	5570035712	28	15965
2026-01-14 07:40:06.28	93.55	9.75	-25.8	-26.2	16.9	8.17e-05	0	30	0	5687476224	28	15858
2026-01-14 07:40:07.29	93.37	9.82	-25.7	-26.2	16.8	5.44e-05	0	30	0	5804916736	26	17706
2026-01-14 07:40:08.30	93.20	9.90	-25.9	-26.4	16.7	5.44e-05	0	30	0	5913968640	26	18040
2026-01-14 07:40:09.31	93.02	9.98	-25.7	-26.2	16.7	3.81e-05	0	30	0	6031409152	26	17775
2026-01-14 07:40:10.32	92.84	10.05	-25.7	-26.2	16.8	3.81e-05	0	30	0	6148849664	26	17611
2026-01-14 07:40:11.33	92.67	10.13	-25.5	-26.0	16.9	3.26e-05	0	30	0	6257901568	26	17276
2026-01-14 07:40:12.34	92.49	10.21	-25.6	-26.1	16.9	3.26e-05	0	30	0	6375342080	26	17479
2026-01-14 07:40:13.35	92.31	10.29	-25.5	-26.0	17.0	2.17e-05	0	30	0	6484393984	26	17393
2026-01-14 07:40:14.36	92.12	10.36	-25.6	-26.1	17.0	2.17e-05	0	30	0	6593445888	26	17578
2026-01-14 07:40:15.37	91.94	10.44	-25.4	-25.9	16.9	0.00e+00	0	30	0	6719275008	26	17091
2026-01-14 07:40:16.38	91.75	10.52	-25.3	-25.8	17.0	0.00e+00	0	30	0	6828326912	26	16958
2026-01-14 07:40:17.39	91.57	10.60	-25.5	-25.9	17.0	5.40e-06	0	30	0	6937378816	26	17192
2026-01-14 07:40:18.40	91.38	10.68	-25.4	-25.9	16.9	5.40e-06	0	30	0	7054819328	26	17046
2026-01-14 07:40:19.41	91.19	10.75	-25.2	-25.7	16.9	2.17e-05	0	30	0	7163871232	26	16754
2026-01-14 07:40:20.42	91.00	10.83	-25.3	-25.8	16.9	2.17e-05	0	30	0	7281311744	26	16833
2026-01-14 07:40:21.43	90.81	10.91	-25.2	-25.7	17.0	2.17e-05	0	30	0	7398752256	26	16656
2026-01-14 07:40:22.44	90.62	10.99	-25.2	-25.7	17.0	1.08e-05	0	30	0	7507804160	26	16735
2026-01-14 07:40:23.45	90.43	11.07	-25.1	-25.6	16.9	5.40e-06	0	30	0	7616856064	26	16540
2026-01-14 07:40:24.46	90.23	11.14	-25.1	-25.6	16.9	5.40e-06	0	30	0	7734296576	26	16568
2026-01-14 07:40:25.47	90.04	11.22	-25.0	-25.5	17.1	5.40e-06	0	30	0	7843348480	26	16331
2026-01-14 07:40:26.48	89.84	11.30	-25.1	-25.6	17.0	5.40e-06	0	30	0	7960788992	26	16567
2026-01-14 07:40:27.49	89.64	11.38	-24.9	-25.3	16.9	5.40e-06	0	30	0	8078229504	26	16038
2026-01-14 07:40:28.50	89.44	11.46	-25.0	-25.5	16.9	5.40e-06	0	30	0	8187281408	26	16270
2026-01-14 07:40:29.50	89.24	11.54	-24.9	-25.4	17.0	1.08e-05	0	30	0	8304721920	26	16144
2026-01-14 07:40:30.51	89.04	11.61	-24.7	-25.2	17.1	1.08e-05	0	30	0	8413773824	24	17720
2026-01-14 07:40:31.52	88.84	11.69	-24.9	-25.4	17.0	0.00e+00	0	30	0	8531214336	24	18197
2026-01-14 07:40:32.53	88.63	11.77	-24.6	-25.1	17.1	0.00e+00	0	30	0	8648654848	24	17528
2026-01-14 07:40:33.54	88.42	11.85	-24.7	-25.1	17.1	1.08e-05	0	30	0	8757706752	24	17572
2026-01-14 07:40:34.55	88.22	11.93	-24.6	-25.1	17.0	1.08e-05	0	30	0	8866758656	24	17542
2026-01-14 07:40:35.56	88.01	12.01	-24.7	-25.2	17.0	0.00e+00	0	30	0	8984199168	24	17731
2026-01-14 07:40:36.57	87.80	12.09	-24.7	-25.2	17.0	0.00e+00	0	30	0	9093251072	24	17736
2026-01-14 07:40:37.58	87.58	12.16	-24.5	-25.0	17.1	5.40e-06	0	30	0	9210691584	24	17316
2026-01-14 07:40:38.59	87.37	12.24	-24.6	-25.1	17.0	5.40e-06	0	30	0	9328132096	24	17516
2026-01-14 07:40:39.60	87.16	12.32	-24.4	-24.9	17.0	0.00e+00	0	30	0	9437184000	24	17068
2026-01-14 07:40:40.60	86.94	12.40	-24.5	-25.0	17.0	0.00e+00	0	30	0	9546235904	24	17210
2026-01-14 07:40:41.61	86.73	12.48	-24.4	-24.9	17.1	1.08e-05	0	30	0	9663676416	24	17070
2026-01-14 07:40:42.62	86.51	12.56	-24.4	-24.9	17.1	1.08e-05	0	30	0	9781116928	24	17070
2026-01-14 07:40:43.63	86.29	12.64	-24.4	-24.9	17.1	1.08e-05	0	30	0	9890168832	24	17022
2026-01-14 07:40:44.64	86.06	12.71	-24.3	-24.8	17.1	1.08e-05	0	30	0	10007609344	24	16871
2026-01-14 07:40:45.65	85.84	12.79	-24.3	-24.8	17.1	0.00e+00	0	30	0	10116661248	24	16912
2026-01-14 07:40:46.66	85.62	12.87	-24.2	-24.7	17.1	5.40e-06	0	30	0	10234101760	24	16708
2026-01-14 07:40:47.67	85.39	12.95	-24.4	-24.8	17.1	5.40e-06	0	30	0	10351542272	24	16959
2026-01-14 07:40:48.68	85.16	13.03	-24.3	-24.7	17.1	0.00e+00	0	30	0	10460594176	24	16784
2026-01-14 07:40:49.69	84.93	13.11	-24.3	-24.8	17.0	0.00e+00	0	30	0	10578034688	24	16832
2026-01-14 07:40:50.70	84.70	13.18	-24.2	-24.6	17.1	0.00e+00	0	30	0	10687086592	24	16607
2026-01-14 07:40:51.71	84.47	13.26	-24.3	-24.7	17.1	0.00e+00	0	30	0	10796138496	24	16764
2026-01-14 07:40:52.72	84.24	13.34	-24.3	-24.7	17.1	5.40e-06	0	30	0	10913579008	24	16735
2026-01-14 07:40:53.73	84.00	13.42	-24.1	-24.5	17.1	0.00e+00	0	30	0	11031019520	24	16426
2026-01-14 07:40:54.74	83.77	13.50	-24.6	-25.0	17.1	0.00e+00	0	30	0	11140071424	24	17376
2026-01-14 07:40:55.75	83.53	13.57	-24.1	-24.5	17.0	0.00e+00	0	30	0	11257511936	24	16398
2026-01-14 07:40:56.75	83.29	13.65	-24.3	-24.8	17.1	0.00e+00	0	30	0	11366563840	24	16906
2026-01-14 07:40:57.76	83.05	13.73	-24.1	-24.5	17.1	1.08e-05	0	30	0	11475615744	24	16358
2026-01-14 07:40:58.77	82.81	13.81	-24.2	-24.6	17.1	1.08e-05	0	30	0	11601444864	24	16559
2026-01-14 07:40:59.78	82.57	13.88	-24.1	-24.5	17.2	0.00e+00	0	30	0	11710496768	24	16384
2026-01-14 07:41:00.79	82.32	13.96	-24.2	-24.7	17.2	0.00e+00	0	30	0	11819548672	24	16651
2026-01-14 07:41:01.80	82.07	14.04	-24.2	-24.7	17.1	0.00e+00	0	30	0	11936989184	24	16627
2026-01-14 07:41:02.81	81.83	14.11	-24.4	-24.8	17.1	0.00e+00	0	30	0	12046041088	24	16923
2026-01-14 07:41:03.82	81.58	14.19	-24.2	-24.6	17.1	0.00e+00	0	30	0	12163481600	24	16499
2026-01-14 07:41:04.83	81.32	14.27	-24.4	-24.8	17.2	0.00e+00	0	30	0	12280922112	24	16874
2026-01-14 07:41:05.84	81.07	14.34	-24.4	-24.9	17.1	5.40e-06	0	30	0	12389974016	24	17074
2026-01-14 07:41:06.85	80.82	14.42	-24.4	-24.8	17.1	0.00e+00	0	30	0	12507414528	24	16910
2026-01-14 07:41:07.86	80.56	14.50	-23.9	-24.4	17.1	0.00e+00	0	30	0	12616466432	24	16064
2026-01-14 07:41:08.87	80.30	14.57	-24.0	-24.4	17.0	0.00e+00	0	30	0	12725518336	24	16222
2026-01-14 07:41:09.88	80.04	14.65	-23.7	-24.1	16.9	0.00e+00	0	30	0	12842958848	22	17523
2026-01-14 07:41:10.89	79.78	14.72	-23.8	-24.2	16.7	5.40e-06	0	30	0	12960399360	22	17657
2026-01-14 07:41:11.90	79.52	14.80	-23.6	-24.1	16.7	5.40e-06	0	30	0	13069451264	22	17429
2026-01-14 07:41:12.91	79.26	14.87	-23.7	-24.2	16.9	5.40e-06	0	30	0	13186891776	22	17675
2026-01-14 07:41:13.92	78.99	14.95	-23.8	-24.2	16.9	3.26e-05	0	30	0	13295943680	22	17741
2026-01-14 07:41:14.93	78.72	15.02	-23.6	-24.1	17.1	0.00e+00	0	30	0	13413384192	22	17425
2026-01-14 07:41:15.94	78.45	15.10	-23.8	-24.2	17.2	0.00e+00	0	30	0	13530824704	22	17777
2026-01-14 07:41:16.95	78.18	15.17	-23.7	-24.1	17.2	0.00e+00	0	30	0	13639876608	22	17585
2026-01-14 07:41:17.96	77.91	15.25	-23.6	-24.0	17.2	0.00e+00	0	30	0	13748928512	22	17378
2026-01-14 07:41:18.97	77.64	15.32	-23.7	-24.1	17.0	5.40e-06	0	30	0	13866369024	22	17573
2026-01-14 07:41:19.98	77.36	15.39	-23.6	-24.1	16.7	5.40e-06	0	30	0	13983809536	22	17409
2026-01-14 07:41:20.99	77.09	15.47	-23.4	-23.9	16.6	5.40e-06	0	30	0	14092861440	22	17040
2026-01-14 07:41:22.00	76.81	15.54	-23.4	-23.8	16.3	5.40e-06	0	31	0	14210301952	22	16986
2026-01-14 07:41:23.01	76.53	15.61	-23.5	-23.9	16.2	1.63e-05	0	31	0	14319353856	22	17060
2026-01-14 07:41:24.02	76.25	15.68	-23.4	-23.9	16.6	1.63e-05	0	30	0	14436794368	22	17036
2026-01-14 07:41:25.03	75.96	15.75	-23.5	-23.9	17.2	2.17e-05	0	31	0	14554234880	22	17103
2026-01-14 07:41:26.04	75.68	15.82	-23.4	-23.9	17.3	2.17e-05	0	31	0	14663286784	22	17046
2026-01-14 07:41:27.05	75.39	15.90	-23.4	-23.8	17.2	5.40e-06	0	31	0	14772338688	22	16948
2026-01-14 07:41:28.06	75.11	15.97	-23.5	-23.9	17.2	5.40e-06	0	31	0	14889779200	22	17100
2026-01-14 07:41:29.07	74.82	16.04	-23.4	-23.9	17.2	5.40e-06	0	31	0	15007219712	22	17039
2026-01-14 07:41:30.08	74.53	16.11	-23.4	-23.8	17.2	5.40e-06	0	31	0	15116271616	22	16947
2026-01-14 07:41:31.09	74.23	16.18	-23.3	-23.7	17.2	5.40e-06	0	31	0	15233712128	22	16804
2026-01-14 07:41:32.10	73.94	16.24	-23.2	-23.7	17.3	5.40e-06	0	31	0	15342764032	22	16673
2026-01-14 07:41:33.11	73.64	16.31	-23.2	-23.7	17.3	0.00e+00	0	31	0	15460204544	22	16653
2026-01-14 07:41:34.12	73.35	16.38	-23.2	-23.6	17.2	0.00e+00	0	31	0	15577645056	22	16529
2026-01-14 07:41:35.13	73.05	16.45	-23.2	-23.7	17.2	0.00e+00	0	31	0	15686696960	22	16624
2026-01-14 07:41:36.14	72.75	16.52	-23.1	-23.5	17.1	0.00e+00	0	31	0	15795748864	22	16346
2026-01-14 07:41:37.15	72.44	16.58	-23.2	-23.7	17.1	0.00e+00	0	31	0	15913189376	22	16647
2026-01-14 07:41:38.16	72.14	16.65	-23.1	-23.6	17.2	0.00e+00	0	31	0	16022241280	22	16490
2026-01-14 07:41:39.17	71.84	16.71	-23.1	-23.5	16.8	0.00e+00	0	31	0	16139681792	22	16374
2026-01-14 07:41:40.18	71.53	16.78	-23.1	-23.5	16.3	1.63e-05	0	31	0	16257122304	22	16351
2026-01-14 07:41:41.18	71.22	16.84	-22.9	-23.3	16.3	1.63e-05	0	30	0	16366174208	22	16014
2026-01-14 07:41:42.19	70.91	16.91	-22.9	-23.4	16.8	1.63e-05	0	31	0	16483614720	22	16102
2026-01-14 07:41:43.20	70.60	16.97	-22.9	-23.3	17.1	1.63e-05	0	31	0	16592666624	22	16005
2026-01-14 07:41:44.21	70.29	17.03	-22.9	-23.4	17.2	0.00e+00	0	31	0	16701718528	22	16116
2026-01-14 07:41:45.22	69.97	17.10	-23.1	-23.5	17.2	0.00e+00	0	31	0	16827547648	22	16375
2026-01-14 07:41:46.23	69.66	17.16	-22.9	-23.3	17.2	0.00e+00	0	31	0	16936599552	22	16048
2026-01-14 07:41:47.24	69.34	17.22	-22.9	-23.3	17.1	0.00e+00	0	31	0	17045651456	22	16038
2026-01-14 07:41:48.25	69.02	17.28	-23.0	-23.4	17.1	0.00e+00	0	31	0	17163091968	22	16186
2026-01-14 07:41:49.26	68.70	17.34	-22.8	-23.3	17.2	0.00e+00	0	31	0	17272143872	22	15918
2026-01-14 07:41:50.27	68.38	17.40	-22.7	-23.1	17.2	0.00e+00	0	31	0	17389584384	20	17543
2026-01-14 07:41:51.28	68.06	17.46	-22.8	-23.2	17.2	0.00e+00	0	31	0	17507024896	20	17701
2026-01-14 07:41:52.28	67.74	17.51	-22.7	-23.2	17.2	0.00e+00	0	31	0	17616076800	20	17684
2026-01-14 07:41:53.29	67.41	17.57	-22.6	-23.1	17.2	0.00e+00	0	31	0	17725128704	20	17405
2026-01-14 07:41:54.30	67.08	17.63	-22.6	-23.0	17.1	0.00e+00	0	31	0	17842569216	20	17337
2026-01-14 07:41:55.31	66.75	17.68	-22.5	-23.0	17.0	0.00e+00	0	31	0	17951621120	20	17289
2026-01-14 07:41:56.32	66.42	17.74	-22.6	-23.1	16.4	0.00e+00	0	31	0	18069061632	20	17471
2026-01-14 07:41:57.33	66.09	17.79	-22.8	-23.3	16.6	0.00e+00	0	31	0	18186502144	20	17837
2026-01-14 07:41:58.34	65.76	17.85	-22.6	-23.0	17.1	5.40e-06	0	31	0	18295554048	20	17383
2026-01-14 07:41:59.35	65.42	17.90	-22.6	-23.1	17.0	5.40e-06	0	31	0	18412994560	20	17514
2026-01-14 07:42:00.36	65.09	17.95	-22.7	-23.1	17.0	0.00e+00	0	31	0	18522046464	20	17576
2026-01-14 07:42:01.37	64.75	18.01	-22.6	-23.1	17.1	0.00e+00	0	31	0	18631098368	20	17437
2026-01-14 07:42:02.38	64.41	18.06	-22.6	-23.1	17.1	0.00e+00	0	31	0	18756927488	20	17441
2026-01-14 07:42:03.39	64.07	18.11	-22.5	-23.0	17.1	0.00e+00	0	31	0	18865979392	20	17311
2026-01-14 07:42:04.39	63.73	18.16	-22.6	-23.1	17.1	0.00e+00	0	31	0	18975031296	20	17486
2026-01-14 07:42:05.40	63.39	18.20	-22.7	-23.1	17.1	0.00e+00	0	31	0	19092471808	20	17575
2026-01-14 07:42:06.41	63.05	18.25	-22.7	-23.2	17.1	0.00e+00	0	31	0	19201523712	20	17636
2026-01-14 07:42:07.42	62.70	18.30	-22.7	-23.1	17.1	0.00e+00	0	31	0	19318964224	20	17512
2026-01-14 07:42:08.43	62.36	18.34	-22.6	-23.1	17.1	0.00e+00	0	31	0	19436404736	20	17452
2026-01-14 07:42:09.44	62.01	18.39	-22.5	-22.9	17.0	0.00e+00	0	31	0	19545456640	20	17177
2026-01-14 07:42:10.45	61.66	18.43	-22.7	-23.1	17.0	0.00e+00	0	31	0	19654508544	20	17555
2026-01-14 07:42:11.46	61.31	18.48	-22.5	-22.9	17.0	0.00e+00	0	31	0	19771949056	20	17113
2026-01-14 07:42:12.47	60.96	18.52	-22.5	-22.9	16.6	0.00e+00	0	31	0	19881000960	20	17079
2026-01-14 07:42:13.48	60.61	18.56	-22.6	-23.0	16.5	0.00e+00	0	31	0	19998441472	20	17243
2026-01-14 07:42:14.49	60.25	18.60	-22.5	-22.9	16.2	0.00e+00	0	31	0	20115881984	20	17065
2026-01-14 07:42:15.50	59.90	18.64	-22.5	-22.9	16.1	0.00e+00	0	31	0	20224933888	20	17051
2026-01-14 07:42:16.50	59.55	18.68	-22.7	-23.1	16.6	2.17e-05	0	31	0	20342374400	20	17541
2026-01-14 07:42:17.52	59.19	18.72	-22.4	-22.8	17.0	5.40e-06	0	31	0	20451426304	20	16977
2026-01-14 07:42:18.52	58.84	18.76	-22.4	-22.9	16.9	5.40e-06	0	31	0	20568866816	20	17109
2026-01-14 07:42:19.53	58.48	18.79	-22.4	-22.9	16.9	0.00e+00	0	31	0	20686307328	20	17060
2026-01-14 07:42:20.54	58.12	18.83	-22.4	-22.8	16.9	0.00e+00	0	31	0	20795359232	20	16967
2026-01-14 07:42:21.55	57.76	18.86	-22.5	-22.9	16.6	0.00e+00	0	31	0	20904411136	20	17137
2026-01-14 07:42:22.56	57.40	18.89	-22.4	-22.8	16.4	0.00e+00	0	31	0	21021851648	20	16942
2026-01-14 07:42:23.57	57.04	18.93	-22.6	-23.0	16.4	5.40e-06	0	31	0	21130903552	20	17400
2026-01-14 07:42:24.58	56.67	18.96	-22.5	-23.0	16.6	5.40e-06	0	31	0	21248344064	20	17215
2026-01-14 07:42:25.59	56.31	18.99	-22.5	-22.9	16.6	0.00e+00	0	31	0	21365784576	20	17165
2026-01-14 07:42:26.60	55.94	19.02	-22.5	-22.9	16.8	5.40e-06	0	31	0	21474836480	20	17196
2026-01-14 07:42:27.61	55.58	19.04	-22.6	-23.1	16.8	5.40e-06	0	31	0	21583888384	20	17435
2026-01-14 07:42:28.62	55.21	19.07	-22.5	-22.9	16.8	0.00e+00	0	31	0	21701328896	20	17133
2026-01-14 07:42:29.63	54.85	19.10	-22.7	-23.1	16.7	0.00e+00	0	31	0	21818769408	20	17497
2026-01-14 07:42:30.63	54.48	19.12	-22.5	-23.0	16.8	0.00e+00	0	31	0	21927821312	20	17209
2026-01-14 07:42:31.64	54.12	19.14	-22.5	-23.0	16.8	0.00e+00	0	31	0	22045261824	20	17221
2026-01-14 07:42:32.65	53.75	19.17	-22.6	-23.1	16.7	5.40e-06	0	31	0	22154313728	20	17415
2026-01-14 07:42:33.66	53.38	19.19	-22.5	-23.0	16.7	5.40e-06	0	31	0	22271754240	20	17217
2026-01-14 07:42:34.67	53.01	19.21	-22.7	-23.1	16.7	0.00e+00	0	31	0	22389194752	20	17533
2026-01-14 07:42:35.68	52.64	19.23	-22.7	-23.1	16.6	0.00e+00	0	31	0	22498246656	20	17461
2026-01-14 07:42:36.68	52.27	19.25	-22.9	-23.3	16.6	0.00e+00	0	31	0	22615687168	20	17943
2026-01-14 07:42:37.69	51.90	19.26	-23.1	-23.5	16.6	0.00e+00	0	31	0	22724739072	20	18261
2026-01-14 07:42:38.70	51.53	19.28	-22.7	-23.2	16.7	0.00e+00	0	31	0	22833790976	20	17616
2026-01-14 07:42:39.71	51.16	19.30	-22.9	-23.3	16.7	0.00e+00	0	31	0	22951231488	20	17821
2026-01-14 07:42:40.72	50.78	19.31	-22.8	-23.2	16.7	0.00e+00	0	31	0	23060283392	20	17775
2026-01-14 07:42:41.73	50.41	19.32	-22.8	-23.2	16.6	0.00e+00	0	31	0	23177723904	20	17709
2026-01-14 07:42:42.74	50.04	19.33	-22.7	-23.1	16.7	0.00e+00	0	31	0	23295164416	20	17573
2026-01-14 07:42:43.75	49.66	19.35	-22.6	-23.1	16.7	0.00e+00	0	31	0	23404216320	20	17415
2026-01-14 07:42:44.76	49.29	19.35	-22.7	-23.1	16.7	0.00e+00	0	31	0	23513268224	20	17534
2026-01-14 07:42:45.77	48.92	19.36	-22.7	-23.1	16.7	0.00e+00	0	31	0	23630708736	20	17532
2026-01-14 07:42:46.78	48.54	19.37	-22.8	-23.2	16.7	0.00e+00	0	31	0	23748149248	20	17615
2026-01-14 07:42:47.79	48.17	19.38	-22.8	-23.2	16.7	0.00e+00	0	31	0	23857201152	20	17692
2026-01-14 07:42:48.79	47.80	19.38	-22.7	-23.1	16.8	0.00e+00	0	31	0	23974641664	20	17500
2026-01-14 07:42:49.80	47.42	19.39	-22.7	-23.1	16.7	0.00e+00	0	31	0	24083693568	20	17448
2026-01-14 07:42:50.81	47.05	19.39	-22.6	-23.0	16.9	0.00e+00	0	31	0	24201134080	20	17233
2026-01-14 07:42:51.82	46.67	19.39	-22.8	-23.2	16.8	0.00e+00	0	31	0	24310185984	20	17654
2026-01-14 07:42:52.83	46.30	19.39	-22.7	-23.1	16.8	0.00e+00	0	31	0	24427626496	20	17502
2026-01-14 07:42:53.84	45.92	19.39	-22.6	-23.1	16.8	0.00e+00	0	31	0	24545067008	20	17420
2026-01-14 07:42:54.85	45.55	19.39	-22.5	-22.9	16.9	0.00e+00	0	31	0	24654118912	20	17168
2026-01-14 07:42:55.86	45.17	19.38	-22.5	-22.9	16.9	0.00e+00	0	31	0	24763170816	20	17182
2026-01-14 07:42:56.87	44.80	19.38	-22.5	-22.9	16.9	0.00e+00	0	31	0	24880611328	20	17165
2026-01-14 07:42:57.88	44.42	19.38	-22.5	-22.9	16.9	0.00e+00	0	31	0	24998051840	20	17100
2026-01-14 07:42:58.89	44.05	19.37	-22.6	-23.0	16.9	0.00e+00	0	31	0	25107103744	20	17288
2026-01-14 07:42:59.90	43.67	19.36	-22.6	-23.0	16.9	0.00e+00	0	31	0	25224544256	20	17252
2026-01-14 07:43:00.91	43.30	19.35	-22.5	-22.9	17.0	0.00e+00	0	31	0	25333596160	20	17179
2026-01-14 07:43:01.92	42.93	19.34	-22.5	-22.9	16.9	0.00e+00	0	31	0	25442648064	20	17107
2026-01-14 07:43:02.93	42.55	19.33	-22.5	-22.9	16.9	1.08e-05	0	31	0	25568477184	20	17194
2026-01-14 07:43:03.94	42.18	19.32	-22.5	-22.9	17.1	1.08e-05	0	31	0	25677529088	20	17110
2026-01-14 07:43:04.95	41.81	19.31	-22.5	-22.9	17.0	0.00e+00	0	31	0	25786580992	20	17196
2026-01-14 07:43:05.96	41.44	19.29	-22.5	-23.0	17.0	0.00e+00	0	31	0	25904021504	20	17236
2026-01-14 07:43:06.97	41.06	19.28	-22.6	-23.1	17.0	0.00e+00	0	31	0	26021462016	20	17414
2026-01-14 07:43:07.98	40.69	19.26	-22.5	-23.0	17.0	0.00e+00	0	31	0	26130513920	20	17280
2026-01-14 07:43:08.99	40.32	19.24	-22.5	-23.0	17.0	0.00e+00	0	31	0	26247954432	20	17276
2026-01-14 07:43:10.00	39.95	19.22	-22.6	-23.0	17.0	0.00e+00	0	31	0	26357006336	20	17341
2026-01-14 07:43:11.01	39.58	19.20	-22.5	-23.0	17.1	0.00e+00	0	31	0	26474446848	20	17295
2026-01-14 07:43:12.02	39.21	19.18	-22.6	-23.1	17.1	0.00e+00	0	31	0	26583498752	20	17432
2026-01-14 07:43:13.03	38.84	19.16	-22.6	-23.1	17.0	0.00e+00	0	31	0	26700939264	20	17555
2026-01-14 07:43:14.04	38.48	19.14	-22.5	-23.0	17.1	0.00e+00	0	31	0	26809991168	20	17321
2026-01-14 07:43:15.05	38.11	19.11	-22.5	-23.1	17.1	0.00e+00	0	31	0	26927431680	20	17403
2026-01-14 07:43:16.06	37.74	19.09	-22.5	-23.0	17.2	0.00e+00	0	31	0	27036483584	20	17309
2026-01-14 07:43:17.07	37.38	19.06	-22.6	-23.1	17.1	0.00e+00	0	31	0	27153924096	20	17415
2026-01-14 07:43:18.07	37.01	19.04	-22.5	-23.0	17.2	0.00e+00	0	31	0	27271364608	20	17361
2026-01-14 07:43:19.08	36.65	19.01	-22.7	-23.2	17.0	0.00e+00	0	31	0	27380416512	20	17688
2026-01-14 07:43:20.09	36.29	18.98	-22.6	-23.1	17.1	0.00e+00	0	31	0	27497857024	20	17562
2026-01-14 07:43:21.10	35.92	18.95	-22.5	-23.1	17.1	0.00e+00	0	31	0	27606908928	20	17409
2026-01-14 07:43:22.11	35.56	18.92	-22.5	-23.1	17.2	0.00e+00	0	31	0	27715960832	20	17407
2026-01-14 07:43:23.12	35.20	18.89	-22.5	-23.0	17.1	5.40e-06	0	31	0	27833401344	20	17313
2026-01-14 07:43:24.13	34.84	18.85	-22.5	-23.0	17.0	5.40e-06	0	31	0	27950841856	20	17330
2026-01-14 07:43:25.14	34.48	18.82	-22.5	-23.0	17.0	0.00e+00	0	31	0	28059893760	20	17354
2026-01-14 07:43:26.14	34.13	18.78	-22.5	-23.1	17.1	0.00e+00	0	31	0	28177334272	20	17457
2026-01-14 07:43:27.15	33.77	18.75	-22.5	-23.1	17.2	0.00e+00	0	31	0	28286386176	20	17490
2026-01-14 07:43:28.16	33.41	18.71	-22.6	-23.1	17.2	0.00e+00	0	31	0	28395438080	20	17583
2026-01-14 07:43:29.17	33.06	18.67	-22.6	-23.2	17.2	0.00e+00	0	31	0	28521267200	20	17616
2026-01-14 07:43:30.18	32.70	18.63	-22.6	-23.1	17.2	0.00e+00	0	31	0	28630319104	20	17589
2026-01-14 07:43:31.19	32.35	18.59	-22.7	-23.2	17.2	0.00e+00	0	31	0	28739371008	20	17779
2026-01-14 07:43:32.20	32.00	18.55	-22.7	-23.2	17.2	0.00e+00	0	31	0	28856811520	20	17772
2026-01-14 07:43:33.21	31.65	18.51	-22.6	-23.2	17.2	0.00e+00	0	31	0	28965863424	20	17622
2026-01-14 07:43:34.22	31.30	18.47	-22.6	-23.1	17.2	0.00e+00	0	31	0	29083303936	20	17504
2026-01-14 07:43:35.23	30.95	18.42	-22.7	-23.2	17.1	0.00e+00	0	31	0	29200744448	20	17766
2026-01-14 07:43:36.24	30.60	18.38	-22.7	-23.2	17.1	0.00e+00	0	31	0	29309796352	20	17697
2026-01-14 07:43:37.25	30.26	18.33	-22.7	-23.2	17.1	0.00e+00	0	31	0	29427236864	20	17785
2026-01-14 07:43:38.26	29.91	18.29	-22.7	-23.2	17.1	0.00e+00	0	31	0	29536288768	20	17706
2026-01-14 07:43:39.27	29.57	18.24	-22.7	-23.2	17.1	0.00e+00	0	31	0	29645340672	20	17776
2026-01-14 07:43:40.28	29.22	18.19	-22.7	-23.2	17.1	0.00e+00	0	31	0	29762781184	20	17725
2026-01-14 07:43:41.29	28.88	18.14	-22.7	-23.2	17.1	0.00e+00	0	31	0	29880221696	20	17743
2026-01-14 07:43:42.30	28.54	18.10	-22.8	-23.3	17.1	0.00e+00	0	31	0	29989273600	20	17887
2026-01-14 07:43:43.30	28.21	18.05	-22.8	-23.3	17.1	0.00e+00	0	31	0	30106714112	20	17865
2026-01-14 07:43:44.32	27.87	17.99	-22.9	-23.5	17.1	0.00e+00	0	31	0	30215766016	20	18225
2026-01-14 07:43:45.33	27.53	17.94	-22.9	-23.5	17.1	0.00e+00	0	31	0	30333206528	20	18240
2026-01-14 07:43:46.34	27.20	17.89	-22.8	-23.4	17.1	0.00e+00	0	31	0	30450647040	20	18046
2026-01-14 07:43:47.35	26.86	17.84	-23.0	-23.5	17.1	0.00e+00	0	31	0	30559698944	20	18327
2026-01-14 07:43:48.36	26.53	17.78	-23.0	-23.6	17.1	0.00e+00	0	31	0	30668750848	20	18446
2026-01-14 07:43:49.37	26.20	17.73	-23.0	-23.5	17.1	0.00e+00	0	31	0	30786191360	20	18370
2026-01-14 07:43:50.38	25.87	17.67	-23.0	-23.5	17.1	0.00e+00	0	31	0	30903631872	20	18421
2026-01-14 07:43:51.39	25.54	17.62	-22.8	-23.3	17.2	0.00e+00	0	31	0	31012683776	20	17980
2026-01-14 07:43:52.40	25.22	17.56	-23.0	-23.5	17.2	0.00e+00	0	31	0	31130124288	20	18252
2026-01-14 07:43:53.41	24.89	17.50	-22.9	-23.4	17.1	0.00e+00	0	31	0	31239176192	20	18167
2026-01-14 07:43:54.42	24.57	17.44	-23.0	-23.5	17.1	0.00e+00	0	31	0	31356616704	20	18296
2026-01-14 07:43:55.43	24.25	17.39	-23.0	-23.5	17.1	0.00e+00	0	31	0	31474057216	20	18321
2026-01-14 07:43:56.44	23.93	17.33	-23.1	-23.6	17.1	0.00e+00	0	31	0	31583109120	20	18538
2026-01-14 07:43:57.45	23.61	17.27	-22.9	-23.4	17.2	0.00e+00	0	31	0	31692161024	20	18106
2026-01-14 07:43:58.46	23.29	17.21	-22.9	-23.4	17.2	0.00e+00	0	31	0	31809601536	20	18132
2026-01-14 07:43:59.47	22.97	17.14	-22.9	-23.4	17.2	0.00e+00	0	31	0	31927042048	20	18060
2026-01-14 07:44:00.47	22.66	17.08	-22.9	-23.5	17.3	0.00e+00	0	31	0	32036093952	20	18235
2026-01-14 07:44:01.48	22.35	17.02	-22.9	-23.4	17.3	0.00e+00	0	31	0	32153534464	20	18120
2026-01-14 07:44:02.49	22.04	16.96	-22.9	-23.3	17.3	0.00e+00	0	31	0	32262586368	20	18005
2026-01-14 07:44:03.51	21.73	16.89	-22.9	-23.4	17.3	0.00e+00	0	31	0	32380026880	20	18169
2026-01-14 07:44:04.51	21.42	16.83	-22.9	-23.4	17.2	0.00e+00	0	31	0	32489078784	20	18047
2026-01-14 07:44:05.52	21.11	16.77	-22.9	-23.4	17.2	0.00e+00	0	31	0	32606519296	20	18035
2026-01-14 07:44:06.53	20.81	16.70	-23.0	-23.5	17.2	0.00e+00	0	31	0	32715571200	20	18259
2026-01-14 07:44:07.54	20.50	16.64	-23.1	-23.6	17.2	0.00e+00	0	31	0	32833011712	20	18572
2026-01-14 07:44:08.55	20.20	16.57	-23.0	-23.5	17.2	0.00e+00	0	31	0	32942063616	20	18267
2026-01-14 07:44:09.56	19.90	16.50	-23.0	-23.5	17.3	0.00e+00	0	31	0	33059504128	20	18410
2026-01-14 07:44:10.57	19.60	16.44	-22.9	-23.4	17.3	0.00e+00	0	31	0	33168556032	20	18113
2026-01-14 07:44:11.58	19.31	16.37	-23.0	-23.5	17.3	0.00e+00	0	31	0	33285996544	20	18407
2026-01-14 07:44:12.59	19.01	16.30	-23.1	-23.6	17.2	0.00e+00	0	31	0	33403437056	20	18586
2026-01-14 07:44:13.60	18.72	16.23	-23.0	-23.5	17.3	0.00e+00	0	31	0	33512488960	20	18373
2026-01-14 07:44:14.61	18.42	16.16	-23.1	-23.6	17.3	0.00e+00	0	31	0	33621540864	20	18642
2026-01-14 07:44:15.62	18.13	16.09	-23.1	-23.6	17.3	0.00e+00	0	31	0	33747369984	20	18638
2026-01-14 07:44:16.63	17.84	16.03	-23.1	-23.7	17.3	0.00e+00	0	31	0	33856421888	20	18660
2026-01-14 07:44:17.64	17.55	15.96	-23.1	-23.7	17.3	0.00e+00	0	31	0	33965473792	20	18683
2026-01-14 07:44:18.65	17.27	15.89	-23.1	-23.7	17.3	0.00e+00	0	31	0	34082914304	20	18717
2026-01-14 07:44:19.66	16.98	15.81	-23.3	-23.8	17.3	0.00e+00	0	31	0	34191966208	20	18902
2026-01-14 07:44:20.66	16.70	15.74	-23.1	-23.6	17.3	0.00e+00	0	31	0	34309406720	20	18605
2026-01-14 07:44:21.67	16.42	15.67	-23.3	-23.8	17.3	0.00e+00	0	31	0	34426847232	20	18904
2026-01-14 07:44:22.68	16.14	15.60	-23.2	-23.8	17.3	0.00e+00	0	31	0	34535899136	20	18895
2026-01-14 07:44:23.69	15.86	15.53	-23.3	-23.8	17.3	0.00e+00	0	31	0	34644951040	20	19046
2026-01-14 07:44:24.70	15.59	15.46	-23.3	-23.9	17.3	0.00e+00	0	31	0	34762391552	20	19127
2026-01-14 07:44:25.71	15.31	15.38	-23.3	-23.8	17.3	0.00e+00	0	31	0	34871443456	20	19044
2026-01-14 07:44:26.72	15.04	15.31	-23.4	-23.9	17.4	0.00e+00	0	31	0	34988883968	20	19262
2026-01-14 07:44:27.73	14.77	15.24	-23.4	-24.0	17.4	0.00e+00	0	31	0	35106324480	20	19324
2026-01-14 07:44:28.74	14.50	15.16	-23.4	-23.9	17.3	0.00e+00	0	31	0	35215376384	20	19290
2026-01-14 07:44:29.75	14.23	15.09	-23.5	-24.0	17.3	0.00e+00	0	31	0	35332816896	20	19388
2026-01-14 07:44:30.76	13.96	15.02	-23.6	-24.1	17.3	0.00e+00	0	31	0	35441868800	20	19573
2026-01-14 07:44:31.77	13.69	14.94	-23.6	-24.1	17.3	0.00e+00	0	31	0	35550920704	20	19574
2026-01-14 07:44:32.78	13.43	14.87	-23.7	-24.2	17.3	0.00e+00	0	31	0	35676749824	20	19788
2026-01-14 07:44:33.78	13.17	14.79	-23.6	-24.1	17.3	1.08e-05	0	31	0	35785801728	20	19699
2026-01-14 07:44:34.79	12.91	14.72	-23.8	-24.3	17.3	5.40e-06	0	31	0	35894853632	20	20066
2026-01-14 07:44:35.80	12.65	14.64	-23.9	-24.4	17.3	5.40e-06	0	31	0	36012294144	22	18080
2026-01-14 07:44:36.81	12.39	14.57	-23.9	-24.4	17.3	5.40e-06	0	31	0	36121346048	22	18155
2026-01-14 07:44:37.82	12.14	14.49	-23.9	-24.4	17.3	0.00e+00	0	31	0	36238786560	22	18100
2026-01-14 07:44:38.83	11.88	14.42	-24.0	-24.5	17.2	0.00e+00	0	31	0	36356227072	22	18289
2026-01-14 07:44:39.84	11.63	14.34	-24.0	-24.5	17.3	0.00e+00	0	31	0	36465278976	22	18294
2026-01-14 07:44:40.85	11.38	14.26	-23.9	-24.4	17.2	0.00e+00	0	31	0	36574330880	22	18169
2026-01-14 07:44:41.86	11.13	14.19	-24.0	-24.5	17.3	0.00e+00	0	31	0	36691771392	22	18257
2026-01-14 07:44:42.87	10.88	14.11	-24.1	-24.6	17.2	0.00e+00	0	31	0	36809211904	22	18584
2026-01-14 07:44:43.88	10.63	14.04	-24.0	-24.5	17.2	0.00e+00	0	31	0	36918263808	22	18307
2026-01-14 07:44:44.89	10.39	13.96	-24.1	-24.5	17.2	5.40e-06	0	31	0	37035704320	22	18430
2026-01-14 07:44:45.90	10.14	13.88	-24.2	-24.7	17.3	5.40e-06	0	31	0	37144756224	22	18650
2026-01-14 07:44:46.90	9.90	13.81	-24.1	-24.6	17.3	0.00e+00	0	31	0	37262196736	22	18600
2026-01-14 07:44:47.91	9.66	13.73	-24.2	-24.7	17.3	0.00e+00	0	31	0	37371248640	22	18689
2026-01-14 07:44:48.92	9.42	13.65	-24.1	-24.6	17.3	1.08e-05	0	31	0	37488689152	22	18587
2026-01-14 07:44:49.93	9.19	13.57	-24.2	-24.7	17.3	0.00e+00	0	31	0	37606129664	22	18752
2026-01-14 07:44:50.94	8.95	13.50	-24.3	-24.8	17.3	0.00e+00	0	31	0	37715181568	22	19014
2026-01-14 07:44:51.95	8.71	13.42	-24.2	-24.7	17.3	0.00e+00	0	31	0	37824233472	22	18800
2026-01-14 07:44:52.96	8.48	13.34	-24.2	-24.7	17.2	0.00e+00	0	31	0	37941673984	22	18824
2026-01-14 07:44:53.97	8.25	13.26	-24.2	-24.7	17.2	0.00e+00	0	31	0	38050725888	22	18750
2026-01-14 07:44:54.98	8.02	13.18	-24.3	-24.8	17.2	0.00e+00	0	31	0	38168166400	22	19040
2026-01-14 07:44:55.99	7.79	13.11	-24.4	-24.8	17.2	0.00e+00	0	31	0	38285606912	22	19069
2026-01-14 07:44:57.00	7.56	13.03	-24.3	-24.8	17.3	0.00e+00	0	31	0	38394658816	22	19033
2026-01-14 07:44:58.00	7.34	12.95	-24.4	-24.9	17.3	0.00e+00	0	31	0	38503710720	22	19176
2026-01-14 07:44:59.02	7.11	12.87	-24.4	-24.8	17.3	0.00e+00	0	31	0	38621151232	22	19060
2026-01-14 07:45:00.03	6.89	12.79	-24.5	-25.0	17.2	0.00e+00	0	31	0	38738591744	22	19379
2026-01-14 07:45:01.03	6.67	12.72	-24.5	-24.9	17.2	5.40e-06	0	31	0	38847643648	22	19296
2026-01-14 07:45:02.04	6.45	12.64	-24.5	-24.9	17.3	5.40e-06	0	31	0	38965084160	22	19289
2026-01-14 07:45:03.06	6.23	12.56	-24.6	-25.1	17.2	1.63e-05	0	31	0	39074136064	22	19654
2026-01-14 07:45:04.07	6.01	12.48	-24.6	-25.0	17.2	1.63e-05	0	31	0	39191576576	22	19514
2026-01-14 07:45:05.08	5.80	12.40	-24.6	-25.1	17.3	0.00e+00	0	31	0	39309017088	22	19662
2026-01-14 07:45:06.08	5.58	12.33	-24.7	-25.2	17.2	1.63e-05	0	31	0	39418068992	22	19828
2026-01-14 07:45:07.09	5.37	12.25	-24.7	-25.2	17.2	1.63e-05	0	31	0	39535509504	22	19813
2026-01-14 07:45:08.10	5.16	12.17	-24.5	-25.0	17.3	1.63e-05	0	31	0	39644561408	22	19442
2026-01-14 07:45:09.11	4.95	12.09	-24.6	-25.1	17.2	5.40e-06	0	31	0	39753613312	22	19618
2026-01-14 07:45:10.12	4.74	12.01	-24.7	-25.2	17.2	0.00e+00	0	31	0	39871053824	22	19814
2026-01-14 07:45:11.13	4.53	11.93	-24.6	-25.1	17.2	0.00e+00	0	31	0	39988494336	22	19553
2026-01-14 07:45:12.14	4.32	11.86	-24.8	-25.3	17.2	0.00e+00	0	31	0	40097546240	24	17831
2026-01-14 07:45:13.15	4.12	11.78	-24.7	-25.2	17.2	0.00e+00	0	31	0	40214986752	24	17670
2026-01-14 07:45:14.16	3.92	11.70	-24.8	-25.2	17.2	0.00e+00	0	31	0	40324038656	24	17789
2026-01-14 07:45:15.17	3.71	11.62	-24.9	-25.4	17.2	0.00e+00	0	31	0	40433090560	24	18069
2026-01-14 07:45:16.18	3.51	11.54	-24.9	-25.4	17.2	0.00e+00	0	31	0	40558919680	24	18087
2026-01-14 07:45:17.19	3.31	11.47	-24.9	-25.3	17.2	0.00e+00	0	31	0	40667971584	24	17991
2026-01-14 07:45:18.20	3.11	11.39	-25.0	-25.4	17.2	5.40e-06	0	31	0	40777023488	24	18218
2026-01-14 07:45:19.21	2.92	11.31	-25.0	-25.5	17.1	5.40e-06	0	31	0	40894464000	24	18257
2026-01-14 07:45:20.22	2.72	11.23	-25.0	-25.4	17.2	0.00e+00	0	31	0	41003515904	24	18180
2026-01-14 07:45:21.23	2.53	11.15	-25.0	-25.4	17.1	0.00e+00	0	31	0	41120956416	24	18187
2026-01-14 07:45:22.24	2.33	11.08	-25.2	-25.6	17.1	5.40e-06	0	31	0	41238396928	24	18583
2026-01-14 07:45:23.25	2.14	11.00	-25.3	-25.7	17.1	5.40e-06	0	31	0	41347448832	24	18852
2026-01-14 07:45:24.26	1.95	10.92	-25.3	-25.7	17.1	5.40e-06	0	31	0	41456500736	24	18817
2026-01-14 07:45:25.27	1.76	10.84	-25.4	-25.8	17.1	0.00e+00	0	31	0	41573941248	24	19027
2026-01-14 07:45:26.28	1.57	10.76	-25.5	-25.9	17.0	0.00e+00	0	31	0	41691381760	24	19230
2026-01-14 07:45:27.29	1.39	10.69	-25.6	-26.0	17.0	1.08e-05	0	31	0	41800433664	24	19512
2026-01-14 07:45:28.30	1.20	10.61	-25.3	-25.7	17.1	1.08e-05	0	31	0	41917874176	24	18738
2026-01-14 07:45:29.31	1.02	10.53	-25.4	-25.8	17.0	0.00e+00	0	31	0	42026926080	24	18998
2026-01-14 07:45:30.32	0.83	10.45	-25.3	-25.8	17.1	0.00e+00	0	31	0	42144366592	24	18876
2026-01-14 07:45:31.33	0.65	10.38	-25.4	-25.9	17.1	2.17e-05	0	31	0	42261807104	24	19098
2026-01-14 07:45:32.33	0.47	10.30	-25.4	-25.8	17.1	2.17e-05	0	31	0	42370859008	24	18988
2026-01-14 07:45:33.34	0.29	10.22	-25.5	-25.9	17.1	1.08e-05	0	31	0	42488299520	24	19150
2026-01-14 07:45:34.35	0.11	10.15	-25.5	-26.0	17.0	1.08e-05	0	31	0	42597351424	24	19309
2026-01-14 07:45:35.36	359.93	10.07	-25.4	-25.9	17.1	1.08e-05	0	31	0	42706403328	24	19138
2026-01-14 07:45:36.37	359.76	9.99	-25.7	-26.1	17.0	1.08e-05	0	31	0	42823843840	24	19681
2026-01-14 07:45:37.38	359.58	9.92	-25.5	-26.0	17.0	1.63e-05	0	31	0	42941284352	24	19353
2026-01-14 07:45:38.38	359.41	9.84	-25.7	-26.1	17.0	1.63e-05	0	31	0	43050336256	24	19722
2026-01-14 07:45:39.39	359.24	9.76	-25.6	-26.1	17.0	1.08e-05	0	31	0	43167776768	24	19641
2026-01-14 07:45:40.40	359.07	9.69	-25.8	-26.2	17.0	1.08e-05	0	31	0	43276828672	26	17690
2026-01-14 07:45:41.41	358.90	9.61	-25.7	-26.1	17.0	1.08e-05	0	31	0	43385880576	26	17547
2026-01-14 07:45:42.43	358.72	9.53	-25.8	-26.2	17.0	1.08e-05	0	31	0	43511709696	26	17650
2026-01-14 07:45:43.44	358.56	9.46	-25.7	-26.1	17.0	2.17e-05	0	31	0	43620761600	26	17569
2026-01-14 07:45:44.44	358.39	9.38	-25.9	-26.3	17.0	4.35e-05	0	31	0	43729813504	26	17946
2026-01-14 07:45:45.45	358.22	9.31	-25.9	-26.4	16.9	4.35e-05	0	31	0	43847254016	26	18031
2026-01-14 07:45:46.46	358.06	9.23	-26.1	-26.5	16.9	2.17e-05	0	31	0	43956305920	26	18319
2026-01-14 07:45:47.47	357.89	9.15	-26.0	-26.5	16.9	2.17e-05	0	31	0	44073746432	26	18226
2026-01-14 07:45:48.48	357.73	9.08	-48.1	-50.0	6.1	2.17e-05	0	31	104	44174409728	26	274444
2026-01-14 07:45:49.49	357.57	9.00	-48.2	-50.7	6.1	2.17e-05	0	31	104	44174409728	60	41848
2026-01-14 07:45:50.50	357.41	8.93	-48.1	-50.6	6.1	2.17e-05	0	31	104	44174409728	60	41539
2026-01-14 07:45:51.51	357.25	8.85	-48.2	-50.7	6.1	2.17e-05	0	31	104	44174409728	60	41794
2026-01-14 07:45:52.52	357.09	8.78	-48.1	-50.6	6.1	2.17e-05	0	31	104	44174409728	60	41706
2026-01-14 07:45:53.53	356.93	8.70	-48.1	-50.6	6.1	2.17e-05	0	31	104	44174409728	60	41501
2026-01-14 07:45:54.54	356.78	8.63	-48.1	-50.6	6.1	2.17e-05	0	31	104	44174409728	60	41520
2026-01-14 07:45:55.55	356.62	8.55	-48.1	-50.6	6.1	0.00e+00	0	31	104	44174409728	60	41416
2026-01-14 07:45:56.56	356.47	8.48	-48.1	-50.5	6.1	0.00e+00	0	31	104	44174409728	60	41147
2026-01-14 07:45:57.57	356.31	8.40	-48.1	-50.6	6.1	0.00e+00	0	31	104	44174409728	60	41587
2026-01-14 07:45:58.58	356.16	8.33	-48.2	-50.6	6.1	0.00e+00	0	31	104	44174409728	60	41604
2026-01-14 07:45:59.59	356.01	8.25	-48.1	-50.6	6.1	0.00e+00	0	31	104	44174409728	60	41609
2026-01-14 07:46:00.60	355.86	8.18	-48.1	-50.6	6.1	0.00e+00	0	31	104	44174409728	60	41310
2026-01-14 07:46:01.61	355.71	8.11	-48.1	-50.6	6.1	0.00e+00	0	31	104	44174409728	60	41481
2026-01-14 07:46:02.62	355.56	8.03	-48.1	-50.6	6.1	0.00e+00	0	31	104	44174409728	60	41497
2026-01-14 07:46:03.63	355.41	7.96	-48.1	-50.6	6.1	0.00e+00	0	31	104	44174409728	60	41585
2026-01-14 07:46:04.64	355.26	7.88	-48.0	-50.5	6.1	0.00e+00	0	31	104	44174409728	60	41248
2026-01-14 07:46:05.65	355.12	7.81	-48.1	-50.6	6.1	0.00e+00	0	31	104	44174409728	60	41428
2026-01-14 07:46:06.66	354.97	7.74	-48.1	-50.6	6.1	0.00e+00	0	31	104	44174409728	60	41349
2026-01-14 07:46:07.66	354.83	7.66	-47.6	-50.2	6.1	0.00e+00	0	31	104	44174409728	60	39460
2026-01-14 07:46:08.67	354.68	7.59	-48.0	-50.5	6.1	0.00e+00	0	31	104	44174409728	60	40956
2026-01-14 07:46:09.68	354.54	7.52	-48.0	-50.6	6.1	0.00e+00	0	31	104	44174409728	60	41358
2026-01-14 07:46:10.69	354.40	7.45	-48.1	-50.6	6.1	0.00e+00	0	31	104	44174409728	60	41440
2026-01-14 07:46:11.70	354.26	7.37	-48.0	-50.5	6.1	0.00e+00	0	31	104	44174409728	60	40905
2026-01-14 07:46:12.71	354.12	7.30	-48.0	-50.5	6.1	0.00e+00	0	31	104	44174409728	60	41022
2026-01-14 07:46:13.72	353.98	7.23	-48.1	-50.6	6.1	0.00e+00	0	31	104	44174409728	60	41477
2026-01-14 07:46:14.73	353.84	7.16	-48.2	-50.7	6.1	0.00e+00	0	31	104	44174409728	60	41781
2026-01-14 07:46:15.74	353.71	7.08	-48.0	-50.5	6.1	0.00e+00	0	31	104	44174409728	60	41218
2026-01-14 07:46:16.75	353.57	7.01	-48.0	-50.5	6.1	0.00e+00	0	31	104	44174409728	60	41133
2026-01-14 07:46:17.76	353.44	6.94	-48.1	-50.6	6.1	0.00e+00	0	31	104	44174409728	60	41686
2026-01-14 07:46:18.77	353.30	6.87	-48.2	-50.7	6.1	0.00e+00	0	31	104	44174409728	60	41991
2026-01-14 07:46:19.78	353.17	6.80	-47.9	-50.3	6.1	0.00e+00	0	31	104	44174409728	60	40243
2026-01-14 07:46:20.78	353.04	6.72	-47.9	-50.4	6.1	0.00e+00	0	31	104	44174409728	60	40594
2026-01-14 07:46:21.79	352.90	6.65	-48.0	-50.5	6.1	0.00e+00	0	31	104	44174409728	60	41211
2026-01-14 07:46:22.80	352.77	6.58	-48.1	-50.6	6.1	0.00e+00	0	31	104	44174409728	60	41457
2026-01-14 07:46:23.81	352.64	6.51	-47.8	-50.3	6.1	0.00e+00	0	31	104	44174409728	60	40119
2026-01-14 07:46:24.82	352.51	6.44	-47.9	-50.4	6.1	0.00e+00	0	31	104	44174409728	60	40579
2026-01-14 07:46:25.83	352.38	6.37	-48.0	-50.4	6.1	0.00e+00	0	31	104	44174409728	60	40775
2026-01-14 07:46:26.84	352.26	6.30	-48.0	-50.5	6.1	0.00e+00	0	31	104	44174409728	60	41111
2026-01-14 07:46:27.85	352.13	6.23	-47.8	-50.3	6.1	0.00e+00	0	31	104	44174409728	60	39882
2026-01-14 07:46:28.86	352.00	6.16	-47.8	-50.3	6.0	0.00e+00	0	31	104	44174409728	60	40292
2026-01-14 07:46:29.87	351.88	6.09	-47.9	-50.4	6.1	0.00e+00	0	31	104	44174409728	60	40720
2026-01-14 07:46:30.88	351.75	6.02	-47.9	-50.4	6.1	0.00e+00	0	31	104	44174409728	60	40730
2026-01-14 07:46:31.89	351.63	5.95	-47.8	-50.2	6.1	0.00e+00	0	31	104	44174409728	60	39834
2026-01-14 07:46:32.89	351.51	5.88	-47.8	-50.3	6.1	0.00e+00	0	31	104	44174409728	60	40090
2026-01-14 07:46:33.90	351.38	5.81	-47.9	-50.4	6.1	0.00e+00	0	31	104	44174409728	60	40592
2026-01-14 07:46:34.91	351.26	5.74	-47.9	-50.4	6.1	0.00e+00	0	31	104	44174409728	60	40754
2026-01-14 07:46:35.92	351.14	5.67	-47.7	-50.2	6.1	0.00e+00	0	31	104	44174409728	60	39760
2026-01-14 07:46:36.93	351.02	5.60	-47.8	-50.3	6.1	0.00e+00	0	31	104	44174409728	60	40058
2026-01-14 07:46:37.94	350.90	5.53	-48.0	-50.5	6.1	0.00e+00	0	31	104	44174409728	60	40843
2026-01-14 07:46:38.95	350.78	5.46	-47.9	-50.4	6.1	0.00e+00	0	31	104	44174409728	60	40680
2026-01-14 07:46:39.96	350.67	5.39	-47.7	-50.2	6.1	0.00e+00	0	31	104	44174409728	60	39421
2026-01-14 07:46:40.97	350.55	5.32	-47.8	-50.3	6.1	0.00e+00	0	31	104	44174409728	60	40023
2026-01-14 07:46:41.98	350.43	5.26	-47.9	-50.4	6.1	0.00e+00	0	31	104	44174409728	60	40444
2026-01-14 07:46:42.98	350.32	5.19	-47.9	-50.4	6.1	0.00e+00	0	31	104	44174409728	60	40335
2026-01-14 07:46:43.99	350.20	5.12	-47.7	-50.2	6.1	0.00e+00	0	31	104	44174409728	60	39752
2026-01-14 07:46:45.00	350.09	5.05	-47.8	-50.3	6.1	0.00e+00	0	31	104	44174409728	60	40029
2026-01-14 07:46:46.01	349.97	4.98	-47.8	-50.3	6.1	0.00e+00	0	31	104	44174409728	60	40161
2026-01-14 07:46:47.02	349.86	4.92	-47.7	-50.2	6.1	0.00e+00	0	31	104	44174409728	60	39757
2026-01-14 07:46:48.03	349.75	4.85	-47.8	-50.2	6.1	0.00e+00	0	31	104	44174409728	60	39632
2026-01-14 07:46:49.04	349.64	4.78	-47.5	-50.0	6.1	0.00e+00	0	31	104	44174409728	60	38935
2026-01-14 07:46:50.05	349.52	4.71	-47.8	-50.3	6.0	0.00e+00	0	31	104	44174409728	60	40127
2026-01-14 07:46:51.06	349.41	4.65	-47.8	-50.3	6.1	0.00e+00	0	31	104	44174409728	60	40324
2026-01-14 07:46:52.06	349.31	4.58	-47.6	-50.2	6.1	0.00e+00	0	31	104	44174409728	60	39518
2026-01-14 07:46:53.07	349.20	4.51	-47.3	-49.9	6.1	0.00e+00	0	31	104	44174409728	60	38156
2026-01-14 07:46:54.08	349.09	4.45	-47.7	-50.2	6.1	0.00e+00	0	31	104	44174409728	60	39727
2026-01-14 07:46:55.09	348.98	4.38	-47.4	-50.0	6.1	0.00e+00	0	31	104	44174409728	60	38578
2026-01-14 07:46:56.10	348.87	4.31	-47.4	-49.9	6.1	0.00e+00	0	31	104	44174409728	60	38298
2026-01-14 07:46:57.11	348.77	4.25	-47.1	-49.6	6.1	0.00e+00	0	31	104	44174409728	60	36840
2026-01-14 07:46:58.12	348.66	4.18	-47.6	-50.1	6.1	0.00e+00	0	31	104	44174409728	60	39314
2026-01-14 07:46:59.13	348.55	4.11	-47.1	-49.6	6.1	0.00e+00	0	31	104	44174409728	60	36862
2026-01-14 07:47:00.14	348.45	4.05	-46.6	-49.1	6.1	0.00e+00	0	31	104	44174409728	60	34864
2026-01-14 07:47:01.15	348.35	3.98	-46.3	-48.8	6.1	0.00e+00	0	31	104	44174409728	60	33806
2026-01-14 07:47:02.16	348.24	3.92	-46.0	-48.5	6.1	0.00e+00	0	31	104	44174409728	60	32469
2026-01-14 07:47:03.17	348.14	3.85	-45.7	-48.2	6.1	0.00e+00	0	31	104	44174409728	60	31619
2026-01-14 07:47:04.18	348.04	3.78	-45.4	-47.9	6.1	0.00e+00	0	31	104	44174409728	60	30403
2026-01-14 07:47:05.19	347.94	3.72	-44.6	-47.1	6.1	0.00e+00	0	31	104	44174409728	60	27614
2026-01-14 07:47:06.20	347.83	3.65	-45.0	-47.5	6.1	0.00e+00	0	30	104	44174409728	60	28892
2026-01-14 07:47:07.21	347.73	3.59	-46.5	-49.0	6.1	0.00e+00	0	31	104	44174409728	60	34350
2026-01-14 07:47:08.21	347.64	3.52	-45.1	-47.6	6.1	0.00e+00	0	31	104	44174409728	60	29246
2026-01-14 07:47:09.22	347.54	3.46	-44.6	-47.1	6.1	0.00e+00	0	31	104	44174409728	60	27706
2026-01-14 07:47:10.23	347.44	3.40	-44.4	-46.9	6.1	0.00e+00	0	31	104	44174409728	60	26989
2026-01-14 07:47:11.24	347.34	3.33	-44.2	-46.6	6.1	0.00e+00	0	31	104	44174409728	60	26270
2026-01-14 07:47:12.25	347.24	3.27	-44.1	-46.6	6.1	0.00e+00	0	31	104	44174409728	60	26309
2026-01-14 07:47:13.26	347.14	3.20	-44.0	-46.5	6.1	0.00e+00	0	31	104	44174409728	60	25993
2026-01-14 07:47:14.27	347.05	3.14	-44.0	-46.5	6.1	0.00e+00	0	31	104	44174409728	60	25869
2026-01-14 07:47:15.28	346.95	3.07	-44.2	-46.7	6.1	0.00e+00	0	31	104	44174409728	60	26396
2026-01-14 07:47:16.29	346.86	3.01	-44.5	-47.0	6.1	0.00e+00	0	31	104	44174409728	60	27405
2026-01-14 07:47:17.29	346.76	2.95	-47.6	-50.1	6.1	0.00e+00	0	31	104	44174409728	60	39079
2026-01-14 07:47:18.30	346.67	2.88	-47.7	-50.3	6.1	0.00e+00	0	31	104	44174409728	60	40266
2026-01-14 07:47:19.31	346.58	2.82	-48.4	-51.0	6.1	0.00e+00	0	31	104	44174409728	60	43396
2026-01-14 07:47:20.32	346.48	2.76	-48.7	-51.2	6.1	0.00e+00	0	31	104	44174409728	60	44455
2026-01-14 07:47:21.33	346.39	2.69	-48.8	-51.3	6.1	0.00e+00	0	31	104	44174409728	60	45139
2026-01-14 07:47:22.34	346.30	2.63	-48.8	-51.4	6.1	0.00e+00	0	31	104	44174409728	60	45394
2026-01-14 07:47:23.35	346.21	2.57	-49.0	-51.5	6.1	0.00e+00	0	31	104	44174409728	60	46182
2026-01-14 07:47:24.36	346.11	2.50	-49.1	-51.6	6.1	0.00e+00	0	31	104	44174409728	60	46747
2026-01-14 07:47:25.37	346.02	2.44	-48.9	-51.4	6.1	0.00e+00	0	31	104	44174409728	60	45287
2026-01-14 07:47:26.38	345.93	2.38	-49.0	-51.4	6.1	0.00e+00	0	31	104	44174409728	60	45733
2026-01-14 07:47:27.39	345.84	2.32	-48.9	-51.4	6.1	0.00e+00	0	31	104	44174409728	60	45459
2026-01-14 07:47:28.40	345.76	2.25	-48.9	-51.4	6.1	0.00e+00	0	30	104	44174409728	60	45523
2026-01-14 07:47:29.40	345.67	2.19	-49.2	-51.7	6.1	0.00e+00	0	31	104	44174409728	60	47075
2026-01-14 07:47:30.41	345.58	2.13	-49.0	-51.5	6.1	0.00e+00	0	31	104	44174409728	60	46061
2026-01-14 07:47:31.42	345.49	2.07	-49.0	-51.4	6.1	0.00e+00	0	30	104	44174409728	60	45744
2026-01-14 07:47:32.43	345.40	2.01	-49.0	-51.5	6.1	0.00e+00	0	31	104	44174409728	60	45914
2026-01-14 07:47:33.44	345.32	1.94	-49.0	-51.5	6.1	0.00e+00	0	31	104	44174409728	60	46076
2026-01-14 07:47:34.45	345.23	1.88	-49.0	-51.5	6.1	0.00e+00	0	31	104	44174409728	60	45933
2026-01-14 07:47:35.46	345.15	1.82	-49.0	-51.5	6.1	0.00e+00	0	31	104	44174409728	60	45914
2026-01-14 07:47:36.47	345.06	1.76	-49.0	-51.4	6.1	0.00e+00	0	31	104	44174409728	60	45651
2026-01-14 07:47:37.48	344.98	1.70	-49.0	-51.4	6.1	0.00e+00	0	31	104	44174409728	60	45666
2026-01-14 07:47:38.49	344.89	1.64	-49.0	-51.4	6.1	0.00e+00	0	31	104	44174409728	60	45631
2026-01-14 07:47:39.50	344.81	1.58	-48.9	-51.4	6.1	0.00e+00	0	31	104	44174409728	60	45527
2026-01-14 07:47:40.51	344.72	1.52	-49.0	-51.5	6.1	0.00e+00	0	31	104	44174409728	60	45779
2026-01-14 07:47:41.52	344.64	1.45	-49.0	-51.5	6.1	0.00e+00	0	31	104	44174409728	60	45888
2026-01-14 07:47:42.53	344.56	1.39	-49.0	-51.4	6.1	0.00e+00	0	31	104	44174409728	60	45534
2026-01-14 07:47:43.54	344.48	1.33	-49.0	-51.5	6.1	0.00e+00	0	31	104	44174409728	60	45793
2026-01-14 07:47:44.55	344.40	1.27	-49.0	-51.4	6.1	0.00e+00	0	31	104	44174409728	60	45644
2026-01-14 07:47:45.56	344.31	1.21	-49.0	-51.4	6.1	0.00e+00	0	31	104	44174409728	60	45476
2026-01-14 07:47:46.57	344.23	1.15	-49.0	-51.4	6.1	0.00e+00	0	31	104	44174409728	60	45575
2026-01-14 07:47:47.58	344.15	1.09	-49.0	-51.4	6.1	0.00e+00	0	31	104	44174409728	60	45583
2026-01-14 07:47:48.59	344.07	1.03	-49.0	-51.4	6.1	0.00e+00	0	31	104	44174409728	60	45637
2026-01-14 07:47:49.60	343.99	0.97	-49.0	-51.4	6.1	0.00e+00	0	31	104	44174409728	60	45697
2026-01-14 07:47:50.60	343.92	0.91	-49.0	-51.4	6.1	0.00e+00	0	31	104	44174409728	60	45640
2026-01-14 07:47:51.61	343.84	0.85	-48.9	-51.5	6.1	0.00e+00	0	31	104	44174409728	60	45873
2026-01-14 07:47:52.62	343.76	0.79	-48.9	-51.4	6.1	0.00e+00	0	31	104	44174409728	60	45701
2026-01-14 07:47:53.63	343.68	0.73	-48.9	-51.4	6.1	0.00e+00	0	30	104	44174409728	60	45619
2026-01-14 07:47:54.64	343.61	0.68	-48.9	-51.4	6.1	0.00e+00	0	30	104	44174409728	60	45750
2026-01-14 07:47:55.65	343.53	0.62	-49.0	-51.4	6.1	0.00e+00	0	31	104	44174409728	60	45618
2026-01-14 07:47:56.66	343.45	0.56	-48.9	-51.4	6.1	0.00e+00	0	31	104	44174409728	60	45662
2026-01-14 07:47:57.67	343.38	0.50	-49.0	-51.4	6.1	0.00e+00	0	30	104	44174409728	60	45745
2026-01-14 07:47:58.68	343.30	0.44	-48.9	-51.4	6.1	0.00e+00	0	31	104	44174409728	60	45458
2026-01-14 07:47:59.69	343.22	0.38	-48.9	-51.4	6.1	0.00e+00	0	31	104	44174409728	60	45532
2026-01-14 07:48:00.69	343.15	0.32	-49.0	-51.4	6.1	0.00e+00	0	31	104	44174409728	60	45569
2026-01-14 07:48:01.71	343.08	0.26	-48.9	-51.4	6.1	0.00e+00	0	31	104	44174409728	60	45466
2026-01-14 07:48:02.72	343.00	0.20	-48.9	-51.4	6.1	0.00e+00	0	31	104	44174409728	60	45542
2026-01-14 07:48:03.73	342.93	0.15	-48.9	-51.4	6.1	0.00e+00	0	31	104	44174409728	60	45471
2026-01-14 07:48:04.73	342.86	0.09	-48.9	-51.4	6.1	0.00e+00	0	31	104	44174409728	60	45567
2026-01-14 07:48:05.74	342.78	0.03	-48.9	-51.4	6.1	0.00e+00	0	31	104	44174409728	60	45587
2026-01-14 07:48:06.76	342.71	-0.03	-48.9	-51.4	6.1	0.00e+00	0	31	104	44174409728	60	45643

#Closed at: 2026-01-14 07:48:07
#Recorded file [44174 MB]: D:/lorett/data/35029_260114_193813.dat