passes_logs/2026/01/14/R4.6S_Anadyr/R4.6S_Anadyr__20260114_035802_FENGYUN_3D_rec.log

#Pass ID: 20260114_035802_FENGYUN 3D
#Satellite: FENGYUN 3D
#Configuration: FENGYUN 3D
#almurnet v.1.7.20251203
#Start time: 2026-01-14 03:58:04

#Version: 2.2.20231116
#Station: R4.6S_Anadyr
#Location: 177.4865 lon 64.73178 lat
#TLE: 1 43010U 17072A   26013.59402220  .00000029  00000+0  35477-4 0  9991
#TLE: 2 43010  98.9934 345.3884 0002280 110.7757 249.3663 14.19695359423056

#Time	Az	El	Level	Level2	SNR	BER	BlckErr	Temp	State	Recorded	gain1	gain2
2026-01-14 03:58:04.32	200.18	0.09	-48.5	-63.5	3.6	1.51e+00	0	25	0	0	60	53926
2026-01-14 03:58:05.32	200.24	0.14	-48.8	-60.9	3.6	8.44e-01	0	26	104	0	60	40196
2026-01-14 03:58:06.33	200.29	0.20	-48.7	-60.8	3.6	8.45e-01	0	26	104	0	60	39619
2026-01-14 03:58:07.34	200.35	0.25	-48.7	-60.9	3.6	8.46e-01	0	26	104	0	60	39863
2026-01-14 03:58:08.35	200.40	0.31	-48.7	-60.8	3.6	8.46e-01	0	26	104	0	60	39822
2026-01-14 03:58:09.36	200.46	0.36	-48.7	-60.8	3.6	8.45e-01	0	26	104	0	60	39534
2026-01-14 03:58:10.37	200.52	0.42	-48.8	-60.9	3.6	8.45e-01	0	26	104	0	60	40049
2026-01-14 03:58:11.38	200.57	0.47	-48.7	-60.9	3.6	8.45e-01	0	26	104	0	60	39979
2026-01-14 03:58:12.38	200.63	0.53	-48.7	-60.8	3.6	8.46e-01	0	26	104	0	60	39583
2026-01-14 03:58:13.39	200.69	0.58	-48.7	-60.8	3.6	8.44e-01	0	26	104	0	60	39858
2026-01-14 03:58:14.40	200.75	0.64	-48.6	-60.7	3.6	8.46e-01	0	26	104	0	60	39159
2026-01-14 03:58:15.41	200.80	0.70	-48.4	-60.5	3.6	8.47e-01	0	26	104	0	60	38391
2026-01-14 03:58:16.42	200.86	0.75	-48.3	-60.4	3.6	8.45e-01	0	26	104	0	60	37914
2026-01-14 03:58:17.43	200.92	0.81	-48.2	-60.4	3.5	8.45e-01	0	26	104	0	60	37690
2026-01-14 03:58:18.44	200.98	0.86	-48.0	-60.1	3.6	8.46e-01	0	26	104	0	60	36381
2026-01-14 03:58:19.45	201.04	0.92	-47.6	-59.6	3.6	8.44e-01	0	26	104	0	60	34558
2026-01-14 03:58:20.46	201.09	0.98	-47.3	-59.4	3.6	8.45e-01	0	26	104	0	60	33680
2026-01-14 03:58:21.48	201.15	1.03	-47.3	-59.2	3.6	8.45e-01	0	26	104	0	60	33132
2026-01-14 03:58:22.49	201.21	1.09	-47.3	-59.2	3.6	8.45e-01	0	26	104	0	60	32931
2026-01-14 03:58:23.49	201.27	1.15	-47.3	-59.1	3.6	8.45e-01	0	26	104	0	60	32776
2026-01-14 03:58:24.51	201.33	1.20	-47.3	-59.1	3.6	8.44e-01	0	27	104	0	60	32728
2026-01-14 03:58:25.52	201.39	1.26	-47.3	-59.1	3.6	8.45e-01	0	27	104	0	60	32702
2026-01-14 03:58:26.53	201.45	1.32	-47.3	-59.1	3.6	8.45e-01	0	27	104	0	60	32641
2026-01-14 03:58:27.53	201.51	1.37	-47.3	-59.2	3.6	8.45e-01	0	26	104	0	60	33060
2026-01-14 03:58:28.54	201.57	1.43	-47.3	-59.3	3.6	8.45e-01	0	27	104	0	60	33427
2026-01-14 03:58:29.55	201.63	1.49	-47.3	-59.4	3.6	8.46e-01	0	27	104	0	60	33693
2026-01-14 03:58:30.56	201.69	1.55	-47.3	-59.4	3.6	8.45e-01	0	27	104	0	60	33856
2026-01-14 03:58:31.57	201.75	1.60	-47.3	-59.4	3.6	8.44e-01	0	27	104	0	60	33799
2026-01-14 03:58:32.58	201.81	1.66	-47.3	-59.4	3.6	8.44e-01	0	27	104	0	60	33694
2026-01-14 03:58:33.59	201.88	1.72	-47.3	-59.4	3.6	8.45e-01	0	27	104	0	60	33619
2026-01-14 03:58:34.60	201.94	1.77	-47.3	-59.3	3.6	8.46e-01	0	27	104	0	60	33428
2026-01-14 03:58:35.61	202.00	1.83	-47.3	-59.2	3.6	8.45e-01	0	27	104	0	60	33155
2026-01-14 03:58:36.62	202.06	1.89	-47.3	-59.2	3.6	8.45e-01	0	27	104	0	60	32847
2026-01-14 03:58:37.63	202.12	1.95	-47.3	-59.1	3.6	8.46e-01	0	27	104	0	60	32678
2026-01-14 03:58:38.64	202.19	2.01	-47.3	-59.1	3.6	8.46e-01	0	27	104	0	60	32443
2026-01-14 03:58:39.65	202.25	2.06	-47.3	-59.1	3.6	8.45e-01	0	27	104	0	60	32504
2026-01-14 03:58:40.66	202.31	2.12	-47.3	-59.2	3.6	8.45e-01	0	27	104	0	60	33104
2026-01-14 03:58:41.67	202.38	2.18	-47.3	-59.2	3.6	8.46e-01	0	27	104	0	60	33044
2026-01-14 03:58:42.68	202.44	2.24	-47.3	-59.2	3.6	8.44e-01	0	27	104	0	60	32797
2026-01-14 03:58:43.69	202.50	2.30	-47.3	-59.2	3.6	8.45e-01	0	27	104	0	60	32800
2026-01-14 03:58:44.70	202.57	2.36	-47.3	-59.4	3.6	8.45e-01	0	27	104	0	60	33556
2026-01-14 03:58:45.71	202.63	2.41	-47.3	-59.4	3.6	8.45e-01	0	27	104	0	60	33773
2026-01-14 03:58:46.72	202.69	2.47	-47.3	-59.0	3.6	8.44e-01	0	27	104	0	60	32397
2026-01-14 03:58:47.73	202.76	2.53	-47.2	-57.7	3.6	8.44e-01	0	27	104	0	60	27873
2026-01-14 03:58:48.74	202.82	2.59	-47.0	-56.3	3.9	8.41e-01	0	27	104	0	60	23518
2026-01-14 03:58:49.75	202.89	2.65	-46.9	-54.1	3.9	8.29e-01	0	27	0	0	60	18301
2026-01-14 03:58:50.76	202.96	2.71	-46.9	-54.2	3.8	8.31e-01	0	27	0	0	60	18633
2026-01-14 03:58:51.77	203.02	2.77	-47.1	-57.2	3.6	8.42e-01	0	27	104	0	60	26167
2026-01-14 03:58:52.78	203.09	2.83	-47.3	-58.9	3.6	8.45e-01	0	27	104	0	60	31702
2026-01-14 03:58:53.79	203.15	2.89	-46.9	-55.4	3.9	8.43e-01	0	27	104	0	60	21301
2026-01-14 03:58:54.80	203.22	2.95	-45.4	-49.8	8.8	1.09e-01	0	27	104	0	60	11128
2026-01-14 03:58:55.81	203.29	3.01	-43.5	-45.8	12.5	1.30e-03	0	27	0	4194304	60	7071
2026-01-14 03:58:56.82	203.35	3.06	-41.4	-43.0	15.5	1.10e-06	0	27	0	10485760	56	6439
2026-01-14 03:58:57.83	203.42	3.12	-39.8	-41.0	17.3	0.00e+00	0	27	0	15728640	54	5758
2026-01-14 03:58:58.84	203.49	3.18	-38.6	-39.7	18.7	0.00e+00	0	27	0	22020096	52	5535
2026-01-14 03:58:59.85	203.56	3.24	-38.1	-39.1	19.2	0.00e+00	0	27	0	27262976	50	5806
2026-01-14 03:59:00.87	203.62	3.30	-38.1	-39.1	19.2	0.00e+00	0	27	0	33554432	50	5825
2026-01-14 03:59:01.88	203.69	3.36	-38.5	-39.6	18.6	0.00e+00	0	27	0	38797312	50	6147
2026-01-14 03:59:02.89	203.76	3.43	-39.0	-40.1	18.2	0.00e+00	0	27	0	45088768	50	6525
2026-01-14 03:59:03.90	203.83	3.49	-46.9	-56.7	3.7	7.00e-01	0	27	104	48234496	60	24703
2026-01-14 03:59:04.91	203.90	3.55	-37.2	-38.2	20.0	1.48e-05	0	27	0	49283072	44	7341
2026-01-14 03:59:05.92	203.97	3.61	-42.4	-44.2	14.2	0.00e+00	0	27	0	54525952	56	7397
2026-01-14 03:59:06.93	204.04	3.67	-42.1	-44.0	13.7	0.00e+00	0	27	0	59768832	54	8093
2026-01-14 03:59:07.94	204.11	3.73	-36.8	-37.7	20.7	0.00e+00	0	27	0	66060288	48	5548
2026-01-14 03:59:08.95	204.18	3.79	-36.4	-37.3	21.2	0.00e+00	0	27	0	71303168	46	5919
2026-01-14 03:59:09.96	204.25	3.85	-36.2	-37.0	21.4	0.00e+00	0	27	0	77594624	46	5760
2026-01-14 03:59:10.96	204.32	3.91	-35.9	-36.7	21.7	0.00e+00	0	27	0	82837504	46	5528
2026-01-14 03:59:11.97	204.39	3.97	-35.6	-36.4	22.0	0.00e+00	0	27	0	89128960	44	5983
2026-01-14 03:59:12.99	204.46	4.03	-35.6	-36.4	22.0	0.00e+00	0	27	0	94371840	44	5989
2026-01-14 03:59:14.00	204.53	4.09	-35.4	-36.2	22.3	0.00e+00	0	27	0	100663296	44	5884
2026-01-14 03:59:15.01	204.60	4.16	-35.3	-36.1	22.3	0.00e+00	0	27	0	105906176	44	5783
2026-01-14 03:59:16.02	204.68	4.22	-35.4	-36.2	22.2	0.00e+00	0	27	0	111149056	44	5842
2026-01-14 03:59:17.03	204.75	4.28	-35.3	-36.1	22.4	0.00e+00	0	27	0	117440512	44	5803
2026-01-14 03:59:18.03	204.82	4.34	-35.5	-36.3	22.2	0.00e+00	0	27	0	122683392	44	5911
2026-01-14 03:59:19.04	204.89	4.40	-35.2	-36.0	22.5	0.00e+00	0	27	0	128974848	44	5711
2026-01-14 03:59:20.05	204.97	4.46	-35.2	-36.0	22.5	0.00e+00	0	27	0	134217728	44	5715
2026-01-14 03:59:21.06	205.04	4.53	-35.4	-36.1	22.4	0.00e+00	0	27	0	139460608	44	5812
2026-01-14 03:59:22.07	205.11	4.59	-35.2	-36.0	22.5	0.00e+00	0	27	0	145752064	44	5730
2026-01-14 03:59:23.08	205.19	4.65	-35.2	-36.0	22.6	0.00e+00	0	27	0	150994944	44	5710
2026-01-14 03:59:24.09	205.26	4.71	-35.1	-35.9	22.6	0.00e+00	0	27	0	157286400	44	5651
2026-01-14 03:59:25.10	205.34	4.78	-35.2	-35.9	22.6	0.00e+00	0	27	0	162529280	44	5688
2026-01-14 03:59:26.11	205.41	4.84	-35.1	-35.9	22.7	0.00e+00	0	27	0	167772160	44	5642
2026-01-14 03:59:27.12	205.49	4.90	-35.1	-35.9	22.7	0.00e+00	0	27	0	174063616	44	5651
2026-01-14 03:59:28.13	205.56	4.96	-35.1	-35.9	22.7	0.00e+00	0	27	0	179306496	44	5675
2026-01-14 03:59:29.14	205.64	5.03	-35.3	-36.0	22.5	0.00e+00	0	27	0	185597952	44	5748
2026-01-14 03:59:30.15	205.72	5.09	-35.1	-35.9	22.8	0.00e+00	0	27	0	190840832	44	5636
2026-01-14 03:59:31.16	205.79	5.15	-35.2	-36.0	22.7	0.00e+00	0	27	0	197132288	44	5706
2026-01-14 03:59:32.17	205.87	5.22	-35.2	-36.0	22.6	0.00e+00	0	27	0	202375168	44	5729
2026-01-14 03:59:33.18	205.95	5.28	-35.1	-35.8	22.7	0.00e+00	0	27	0	207618048	44	5621
2026-01-14 03:59:34.19	206.03	5.34	-35.2	-36.0	22.6	0.00e+00	0	27	0	213909504	44	5735
2026-01-14 03:59:35.20	206.10	5.41	-35.2	-36.0	22.7	0.00e+00	0	27	0	219152384	44	5700
2026-01-14 03:59:36.21	206.18	5.47	-35.1	-35.9	22.8	0.00e+00	0	27	0	225443840	44	5631
2026-01-14 03:59:37.22	206.26	5.53	-35.1	-35.9	22.7	0.00e+00	0	27	0	230686720	44	5679
2026-01-14 03:59:38.23	206.34	5.60	-35.1	-35.9	22.7	0.00e+00	0	27	0	235929600	44	5681
2026-01-14 03:59:39.24	206.42	5.66	-35.0	-35.7	22.9	0.00e+00	0	27	0	242221056	44	5562
2026-01-14 03:59:40.25	206.50	5.73	-35.0	-35.7	22.9	0.00e+00	0	27	0	247463936	44	5564
2026-01-14 03:59:41.26	206.58	5.79	-35.0	-35.8	22.9	0.00e+00	0	27	0	253755392	44	5569
2026-01-14 03:59:42.27	206.66	5.86	-35.0	-35.8	22.9	0.00e+00	0	27	0	258998272	44	5600
2026-01-14 03:59:43.28	206.74	5.92	-34.9	-35.7	23.1	0.00e+00	0	27	0	265289728	44	5519
2026-01-14 03:59:44.29	206.82	5.98	-34.9	-35.7	23.1	0.00e+00	0	27	0	270532608	42	6186
2026-01-14 03:59:45.30	206.90	6.05	-34.9	-35.6	23.1	0.00e+00	0	27	0	275775488	42	6153
2026-01-14 03:59:46.31	206.98	6.11	-34.8	-35.5	23.3	0.00e+00	0	27	0	282066944	42	6088
2026-01-14 03:59:47.32	207.06	6.18	-34.8	-35.5	23.2	0.00e+00	0	27	0	287309824	42	6054
2026-01-14 03:59:48.34	207.15	6.24	-34.8	-35.5	23.3	0.00e+00	0	27	0	293601280	42	6091
2026-01-14 03:59:49.35	207.23	6.31	-34.7	-35.4	23.3	0.00e+00	0	27	0	298844160	42	6015
2026-01-14 03:59:50.35	207.31	6.37	-34.7	-35.5	23.3	0.00e+00	0	27	0	305135616	42	6071
2026-01-14 03:59:51.36	207.39	6.44	-34.6	-35.4	23.4	0.00e+00	0	27	0	310378496	42	5986
2026-01-14 03:59:52.38	207.48	6.51	-34.8	-35.5	23.3	0.00e+00	0	27	0	315621376	42	6079
2026-01-14 03:59:53.38	207.56	6.57	-34.9	-35.6	23.2	0.00e+00	0	27	0	321912832	42	6139
2026-01-14 03:59:54.39	207.65	6.64	-34.9	-35.7	23.1	0.00e+00	0	27	0	327155712	42	6196
2026-01-14 03:59:55.41	207.73	6.70	-34.7	-35.5	23.3	0.00e+00	0	27	0	333447168	42	6088
2026-01-14 03:59:56.41	207.82	6.77	-34.9	-35.6	23.1	0.00e+00	0	27	0	338690048	42	6163
2026-01-14 03:59:57.43	207.90	6.84	-34.7	-35.5	23.3	0.00e+00	0	27	0	343932928	42	6035
2026-01-14 03:59:58.44	207.99	6.90	-34.9	-35.6	23.3	0.00e+00	0	27	0	350224384	42	6147
2026-01-14 03:59:59.45	208.08	6.97	-34.7	-35.4	23.4	0.00e+00	0	27	0	355467264	42	6012
2026-01-14 04:00:00.46	208.16	7.03	-34.7	-35.5	23.4	0.00e+00	0	27	0	361758720	42	6047
2026-01-14 04:00:01.47	208.25	7.10	-34.8	-35.5	23.3	0.00e+00	0	27	0	367001600	42	6069
2026-01-14 04:00:02.48	208.34	7.17	-34.5	-35.2	23.6	0.00e+00	0	27	0	372244480	42	5867
2026-01-14 04:00:03.49	208.42	7.23	-34.4	-35.1	23.7	0.00e+00	0	27	0	378535936	42	5824
2026-01-14 04:00:04.50	208.51	7.30	-34.4	-35.1	23.7	0.00e+00	0	27	0	383778816	42	5823
2026-01-14 04:00:05.51	208.60	7.37	-34.2	-35.0	23.8	0.00e+00	0	27	0	390070272	42	5715
2026-01-14 04:00:06.52	208.69	7.44	-34.2	-34.9	23.9	0.00e+00	0	27	0	395313152	42	5653
2026-01-14 04:00:07.53	208.78	7.50	-34.1	-34.8	24.0	0.00e+00	0	27	0	401604608	42	5618
2026-01-14 04:00:08.54	208.87	7.57	-34.2	-34.9	23.9	0.00e+00	0	27	0	406847488	42	5689
2026-01-14 04:00:09.55	208.96	7.64	-34.1	-34.8	24.0	0.00e+00	0	27	0	413138944	42	5599
2026-01-14 04:00:10.56	209.05	7.71	-34.1	-34.8	24.0	0.00e+00	0	27	0	418381824	42	5578
2026-01-14 04:00:11.57	209.14	7.77	-34.1	-34.8	24.0	0.00e+00	0	27	0	423624704	42	5616
2026-01-14 04:00:12.58	209.23	7.84	-34.0	-34.7	24.1	0.00e+00	0	27	0	429916160	42	5539
2026-01-14 04:00:13.59	209.32	7.91	-34.1	-34.8	24.1	0.00e+00	0	27	0	435159040	42	5615
2026-01-14 04:00:14.60	209.42	7.98	-33.9	-34.6	24.2	0.00e+00	0	27	0	441450496	42	5483
2026-01-14 04:00:15.62	209.51	8.05	-34.1	-34.8	24.1	0.00e+00	0	27	0	446693376	42	5586
2026-01-14 04:00:16.62	209.60	8.11	-34.1	-34.8	24.1	0.00e+00	0	27	0	451936256	42	5571
2026-01-14 04:00:17.64	209.70	8.18	-33.9	-34.6	24.2	0.00e+00	0	27	0	458227712	42	5476
2026-01-14 04:00:18.65	209.79	8.25	-34.0	-34.7	24.2	0.00e+00	0	27	0	463470592	42	5531
2026-01-14 04:00:19.66	209.88	8.32	-34.0	-34.7	24.2	0.00e+00	0	27	0	469762048	42	5524
2026-01-14 04:00:20.67	209.98	8.39	-34.0	-34.7	24.2	0.00e+00	0	27	0	475004928	42	5554
2026-01-14 04:00:21.68	210.07	8.46	-33.9	-34.6	24.2	0.00e+00	0	27	0	481296384	42	5480
2026-01-14 04:00:22.69	210.17	8.53	-33.9	-34.6	24.2	0.00e+00	0	27	0	486539264	42	5488
2026-01-14 04:00:23.70	210.27	8.60	-34.0	-34.7	24.2	0.00e+00	0	27	0	491782144	42	5529
2026-01-14 04:00:24.71	210.36	8.67	-34.0	-34.7	24.2	0.00e+00	0	27	0	498073600	42	5562
2026-01-14 04:00:25.72	210.46	8.74	-33.9	-34.6	24.2	0.00e+00	0	27	0	503316480	42	5489
2026-01-14 04:00:26.73	210.56	8.81	-33.9	-34.6	24.2	0.00e+00	0	27	0	509607936	42	5495
2026-01-14 04:00:27.74	210.65	8.88	-34.0	-34.7	24.2	0.00e+00	0	27	0	514850816	42	5559
2026-01-14 04:00:28.75	210.75	8.95	-34.1	-34.7	24.1	0.00e+00	0	27	0	521142272	42	5565
2026-01-14 04:00:29.76	210.85	9.02	-33.9	-34.7	24.3	0.00e+00	0	27	0	526385152	42	5514
2026-01-14 04:00:30.77	210.95	9.09	-33.9	-34.6	24.2	0.00e+00	0	27	0	531628032	42	5491
2026-01-14 04:00:31.78	211.05	9.16	-33.9	-34.6	24.2	0.00e+00	0	27	0	537919488	42	5492
2026-01-14 04:00:32.79	211.15	9.23	-33.9	-34.6	24.3	0.00e+00	0	27	0	543162368	42	5498
2026-01-14 04:00:33.80	211.25	9.30	-33.8	-34.5	24.4	0.00e+00	0	27	0	549453824	42	5388
2026-01-14 04:00:34.81	211.35	9.37	-33.7	-34.4	24.5	0.00e+00	0	27	0	554696704	40	6008
2026-01-14 04:00:35.82	211.45	9.44	-33.7	-34.4	24.5	0.00e+00	0	27	0	559939584	40	6007
2026-01-14 04:00:36.83	211.55	9.51	-33.6	-34.4	24.6	0.00e+00	0	27	0	566231040	40	5967
2026-01-14 04:00:37.84	211.66	9.58	-33.6	-34.3	24.6	0.00e+00	0	27	0	571473920	40	5917
2026-01-14 04:00:38.85	211.76	9.65	-33.7	-34.4	24.5	0.00e+00	0	27	0	577765376	40	6002
2026-01-14 04:00:39.86	211.86	9.72	-33.6	-34.3	24.6	0.00e+00	0	27	0	583008256	40	5910
2026-01-14 04:00:40.87	211.97	9.80	-33.6	-34.4	24.5	0.00e+00	0	27	0	588251136	40	5970
2026-01-14 04:00:41.88	212.07	9.87	-33.7	-34.4	24.5	0.00e+00	0	27	0	594542592	40	5988
2026-01-14 04:00:42.89	212.18	9.94	-33.5	-34.2	24.7	0.00e+00	0	27	0	599785472	40	5872
2026-01-14 04:00:43.90	212.28	10.01	-33.6	-34.3	24.6	0.00e+00	0	27	0	606076928	40	5921
2026-01-14 04:00:44.91	212.39	10.08	-33.8	-34.5	24.5	0.00e+00	0	27	0	611319808	40	6042
2026-01-14 04:00:45.92	212.49	10.15	-33.5	-34.2	24.7	0.00e+00	0	27	0	617611264	40	5864
2026-01-14 04:00:46.93	212.60	10.23	-33.7	-34.4	24.6	0.00e+00	0	27	0	622854144	40	5997
2026-01-14 04:00:47.94	212.71	10.30	-33.5	-34.2	24.7	0.00e+00	0	27	0	629145600	40	5864
2026-01-14 04:00:48.95	212.82	10.37	-33.4	-34.1	24.8	0.00e+00	0	27	0	634388480	40	5813
2026-01-14 04:00:49.96	212.92	10.44	-33.3	-34.0	24.9	0.00e+00	0	27	0	639631360	40	5727
2026-01-14 04:00:50.97	213.03	10.52	-33.4	-34.1	24.8	0.00e+00	0	27	0	645922816	40	5786
2026-01-14 04:00:51.98	213.14	10.59	-33.4	-34.1	24.8	0.00e+00	0	27	0	651165696	40	5802
2026-01-14 04:00:52.99	213.25	10.66	-33.3	-33.9	25.0	0.00e+00	0	27	0	657457152	40	5686
2026-01-14 04:00:54.00	213.36	10.74	-33.3	-34.0	24.9	0.00e+00	0	27	0	662700032	40	5722
2026-01-14 04:00:55.01	213.47	10.81	-33.1	-33.8	25.0	0.00e+00	0	27	0	667942912	40	5613
2026-01-14 04:00:56.02	213.58	10.88	-33.2	-33.9	25.1	0.00e+00	0	27	0	674234368	40	5633
2026-01-14 04:00:57.03	213.70	10.96	-33.1	-33.8	25.1	0.00e+00	0	27	0	679477248	40	5612
2026-01-14 04:00:58.04	213.81	11.03	-33.1	-33.8	25.1	0.00e+00	0	27	0	685768704	40	5596
2026-01-14 04:00:59.05	213.92	11.10	-33.2	-33.9	25.0	0.00e+00	0	27	0	691011584	40	5648
2026-01-14 04:01:00.06	214.04	11.18	-33.1	-33.8	25.1	0.00e+00	0	27	0	696254464	40	5567
2026-01-14 04:01:01.07	214.15	11.25	-33.1	-33.8	25.1	0.00e+00	0	27	0	702545920	40	5572
2026-01-14 04:01:02.08	214.27	11.32	-33.0	-33.7	25.2	0.00e+00	0	27	0	707788800	40	5527
2026-01-14 04:01:03.09	214.38	11.40	-33.1	-33.7	25.1	0.00e+00	0	27	0	714080256	40	5546
2026-01-14 04:01:04.10	214.50	11.47	-33.0	-33.7	25.2	0.00e+00	0	27	0	719323136	40	5516
2026-01-14 04:01:05.11	214.61	11.55	-33.1	-33.8	25.2	0.00e+00	0	27	0	725614592	40	5577
2026-01-14 04:01:06.12	214.73	11.62	-33.0	-33.6	25.3	0.00e+00	0	27	0	730857472	40	5491
2026-01-14 04:01:07.13	214.85	11.70	-32.9	-33.6	25.3	0.00e+00	0	27	0	737148928	40	5442
2026-01-14 04:01:08.14	214.97	11.77	-33.0	-33.7	25.2	0.00e+00	0	27	0	742391808	40	5538
2026-01-14 04:01:09.15	215.08	11.85	-32.9	-33.6	25.4	0.00e+00	0	27	0	747634688	40	5440
2026-01-14 04:01:10.16	215.20	11.92	-33.0	-33.6	25.3	0.00e+00	0	27	0	753926144	40	5493
2026-01-14 04:01:11.17	215.32	12.00	-33.2	-33.8	25.1	0.00e+00	0	27	0	759169024	40	5622
2026-01-14 04:01:12.18	215.44	12.07	-32.9	-33.6	25.3	0.00e+00	0	27	0	765460480	40	5487
2026-01-14 04:01:13.19	215.57	12.15	-33.1	-33.8	25.1	0.00e+00	0	27	0	770703360	40	5580
2026-01-14 04:01:14.20	215.69	12.22	-33.0	-33.7	25.2	0.00e+00	0	27	0	775946240	40	5533
2026-01-14 04:01:15.21	215.81	12.30	-33.0	-33.7	25.2	0.00e+00	0	27	0	782237696	40	5551
2026-01-14 04:01:16.22	215.93	12.37	-33.0	-33.7	25.2	0.00e+00	0	27	0	787480576	40	5524
2026-01-14 04:01:17.23	216.06	12.45	-33.2	-33.9	25.0	0.00e+00	0	27	0	793772032	40	5641
2026-01-14 04:01:18.24	216.18	12.53	-32.9	-33.6	25.4	0.00e+00	0	27	0	799014912	40	5463
2026-01-14 04:01:19.25	216.31	12.60	-32.9	-33.6	25.4	0.00e+00	0	27	0	804257792	40	5447
2026-01-14 04:01:20.26	216.43	12.68	-32.9	-33.6	25.3	0.00e+00	0	27	0	810549248	40	5446
2026-01-14 04:01:21.27	216.56	12.75	-32.9	-33.6	25.4	0.00e+00	0	27	0	815792128	40	5441
2026-01-14 04:01:22.28	216.68	12.83	-32.9	-33.5	25.4	0.00e+00	0	27	0	822083584	40	5437
2026-01-14 04:01:23.29	216.81	12.91	-32.9	-33.6	25.4	0.00e+00	0	27	0	827326464	40	5452
2026-01-14 04:01:24.31	216.94	12.98	-32.9	-33.5	25.4	0.00e+00	0	27	0	833617920	40	5435
2026-01-14 04:01:25.31	217.07	13.06	-32.9	-33.6	25.3	0.00e+00	0	27	0	838860800	40	5487
2026-01-14 04:01:26.32	217.20	13.14	-32.8	-33.5	25.4	0.00e+00	0	27	0	844103680	40	5421
2026-01-14 04:01:27.33	217.33	13.21	-32.7	-33.4	25.5	0.00e+00	0	27	0	850395136	40	5355
2026-01-14 04:01:28.34	217.46	13.29	-32.9	-33.6	25.4	0.00e+00	0	27	0	855638016	38	6106
2026-01-14 04:01:29.35	217.59	13.37	-32.9	-33.5	25.5	0.00e+00	0	27	0	861929472	38	6072
2026-01-14 04:01:30.36	217.72	13.45	-32.8	-33.5	25.5	0.00e+00	0	27	0	867172352	38	6039
2026-01-14 04:01:31.37	217.85	13.52	-32.5	-33.2	25.8	0.00e+00	0	27	0	872415232	38	5832
2026-01-14 04:01:32.39	217.99	13.60	-32.4	-33.1	25.8	0.00e+00	0	27	0	878706688	38	5784
2026-01-14 04:01:33.40	218.12	13.68	-32.3	-33.0	25.8	0.00e+00	0	27	0	883949568	38	5740
2026-01-14 04:01:34.41	218.26	13.76	-32.3	-33.0	26.0	0.00e+00	0	27	0	890241024	38	5732
2026-01-14 04:01:35.41	218.39	13.83	-32.4	-33.0	25.9	0.00e+00	0	27	0	895483904	38	5725
2026-01-14 04:01:36.42	218.53	13.91	-32.5	-33.2	25.7	0.00e+00	0	27	0	900726784	38	5847
2026-01-14 04:01:37.44	218.66	13.99	-32.6	-33.2	25.8	0.00e+00	0	27	0	907018240	38	5875
2026-01-14 04:01:38.45	218.80	14.07	-32.5	-33.2	25.7	0.00e+00	0	27	0	912261120	38	5837
2026-01-14 04:01:39.45	218.94	14.15	-32.5	-33.2	25.7	0.00e+00	0	27	0	918552576	38	5860
2026-01-14 04:01:40.46	219.08	14.23	-32.5	-33.2	25.7	0.00e+00	0	27	0	923795456	38	5836
2026-01-14 04:01:41.47	219.22	14.30	-32.5	-33.1	25.8	0.00e+00	0	27	0	930086912	38	5817
2026-01-14 04:01:42.48	219.36	14.38	-32.5	-33.1	25.8	0.00e+00	0	27	0	935329792	38	5828
2026-01-14 04:01:43.49	219.50	14.46	-32.4	-33.1	25.9	0.00e+00	0	27	0	941621248	38	5762
2026-01-14 04:01:44.50	219.64	14.54	-32.4	-33.1	25.9	0.00e+00	0	27	0	946864128	38	5788
2026-01-14 04:01:45.51	219.78	14.62	-32.3	-32.9	26.0	0.00e+00	0	27	0	952107008	38	5663
2026-01-14 04:01:46.52	219.92	14.70	-32.3	-32.9	26.0	0.00e+00	0	27	0	958398464	38	5692
2026-01-14 04:01:47.53	220.07	14.78	-32.2	-32.9	26.0	0.00e+00	0	27	0	963641344	38	5640
2026-01-14 04:01:48.54	220.21	14.86	-32.4	-33.0	25.9	0.00e+00	0	27	0	969932800	38	5753
2026-01-14 04:01:49.55	220.36	14.94	-32.2	-32.9	26.0	0.00e+00	0	27	0	975175680	38	5655
2026-01-14 04:01:50.56	220.50	15.02	-32.3	-32.9	25.9	0.00e+00	0	28	0	980418560	38	5671
2026-01-14 04:01:51.57	220.65	15.09	-32.1	-32.8	26.2	0.00e+00	0	27	0	986710016	38	5583
2026-01-14 04:01:52.58	220.80	15.17	-32.1	-32.8	26.1	0.00e+00	0	27	0	991952896	38	5569
2026-01-14 04:01:53.59	220.95	15.25	-31.9	-32.6	26.3	0.00e+00	0	27	0	998244352	38	5472
2026-01-14 04:01:54.60	221.10	15.33	-32.0	-32.6	26.2	0.00e+00	0	27	0	1003487232	38	5475
2026-01-14 04:01:55.61	221.24	15.41	-31.9	-32.5	26.4	0.00e+00	0	27	0	1008730112	38	5436
2026-01-14 04:01:56.62	221.40	15.49	-31.8	-32.5	26.4	0.00e+00	0	27	0	1015021568	38	5379
2026-01-14 04:01:57.63	221.55	15.57	-31.9	-32.6	26.3	0.00e+00	0	28	0	1020264448	38	5449
2026-01-14 04:01:58.64	221.70	15.65	-32.1	-32.7	26.2	0.00e+00	0	28	0	1026555904	38	5548
2026-01-14 04:01:59.66	221.85	15.73	-32.0	-32.7	26.2	0.00e+00	0	27	0	1031798784	38	5504
2026-01-14 04:02:00.67	222.01	15.81	-32.0	-32.7	26.2	0.00e+00	0	27	0	1038090240	38	5507
2026-01-14 04:02:01.68	222.16	15.89	-32.2	-32.8	26.2	0.00e+00	0	27	0	1043333120	38	5624
2026-01-14 04:02:02.69	222.32	15.97	-32.0	-32.6	26.3	0.00e+00	0	27	0	1049624576	38	5469
2026-01-14 04:02:03.70	222.47	16.05	-31.9	-32.5	26.3	0.00e+00	0	28	0	1054867456	38	5412
2026-01-14 04:02:04.71	222.63	16.14	-32.0	-32.7	26.2	0.00e+00	0	27	0	1060110336	38	5531
2026-01-14 04:02:05.72	222.79	16.22	-31.8	-32.4	26.4	0.00e+00	0	28	0	1066401792	38	5353
2026-01-14 04:02:06.73	222.95	16.30	-31.7	-32.4	26.5	0.00e+00	0	27	0	1071644672	36	5973
2026-01-14 04:02:07.74	223.11	16.38	-31.8	-32.4	26.5	0.00e+00	0	27	0	1077936128	36	6014
2026-01-14 04:02:08.75	223.27	16.46	-31.7	-32.3	26.5	0.00e+00	0	27	0	1083179008	36	5952
2026-01-14 04:02:09.76	223.43	16.54	-31.8	-32.5	26.4	0.00e+00	0	27	0	1088421888	36	6058
2026-01-14 04:02:10.77	223.59	16.62	-31.6	-32.2	26.6	0.00e+00	0	27	0	1094713344	36	5896
2026-01-14 04:02:11.78	223.75	16.70	-31.6	-32.2	26.6	0.00e+00	0	27	0	1099956224	36	5894
2026-01-14 04:02:12.79	223.92	16.78	-31.6	-32.2	26.6	0.00e+00	0	28	0	1106247680	36	5890
2026-01-14 04:02:13.80	224.08	16.86	-31.5	-32.1	26.7	0.00e+00	0	28	0	1111490560	36	5826
2026-01-14 04:02:14.81	224.25	16.94	-31.6	-32.3	26.7	0.00e+00	0	27	0	1116733440	36	5911
2026-01-14 04:02:15.82	224.41	17.02	-31.6	-32.2	26.6	0.00e+00	0	27	0	1123024896	36	5880
2026-01-14 04:02:16.83	224.58	17.10	-31.6	-32.2	26.6	0.00e+00	0	27	0	1128267776	36	5864
2026-01-14 04:02:17.84	224.75	17.19	-31.7	-32.3	26.5	0.00e+00	0	28	0	1134559232	36	5931
2026-01-14 04:02:18.86	224.92	17.27	-31.6	-32.3	26.6	0.00e+00	0	27	0	1139802112	36	5935
2026-01-14 04:02:19.87	225.09	17.35	-31.6	-32.2	26.6	0.00e+00	0	27	0	1146093568	36	5891
2026-01-14 04:02:20.88	225.26	17.43	-31.6	-32.2	26.7	0.00e+00	0	27	0	1151336448	36	5863
2026-01-14 04:02:21.89	225.43	17.51	-31.6	-32.2	26.7	0.00e+00	0	27	0	1157627904	36	5881
2026-01-14 04:02:22.90	225.60	17.59	-31.6	-32.3	26.6	0.00e+00	0	27	0	1162870784	36	5926
2026-01-14 04:02:23.91	225.78	17.67	-31.5	-32.1	26.7	0.00e+00	0	27	0	1168113664	36	5795
2026-01-14 04:02:24.92	225.95	17.76	-31.5	-32.2	26.7	0.00e+00	0	27	0	1174405120	36	5832
2026-01-14 04:02:25.93	226.13	17.84	-31.4	-32.0	26.8	0.00e+00	0	27	0	1179648000	36	5743
2026-01-14 04:02:26.94	226.30	17.92	-31.4	-32.0	26.8	0.00e+00	0	27	0	1185939456	36	5748
2026-01-14 04:02:27.95	226.48	18.00	-31.4	-32.0	26.8	0.00e+00	0	27	0	1191182336	36	5749
2026-01-14 04:02:28.96	226.66	18.08	-31.5	-32.1	26.7	0.00e+00	0	27	0	1196425216	36	5772
2026-01-14 04:02:29.97	226.84	18.16	-31.4	-32.0	26.8	0.00e+00	0	27	0	1202716672	36	5717
2026-01-14 04:02:30.98	227.02	18.24	-31.4	-32.1	26.8	0.00e+00	0	27	0	1207959552	36	5783
2026-01-14 04:02:31.99	227.20	18.32	-31.3	-32.0	26.9	0.00e+00	0	27	0	1214251008	36	5699
2026-01-14 04:02:33.00	227.38	18.41	-31.5	-32.1	26.7	0.00e+00	0	27	0	1219493888	36	5798
2026-01-14 04:02:34.01	227.56	18.49	-31.3	-31.9	26.9	0.00e+00	0	27	0	1224736768	36	5678
2026-01-14 04:02:35.02	227.74	18.57	-31.4	-32.0	26.9	0.00e+00	0	27	0	1231028224	36	5714
2026-01-14 04:02:36.03	227.93	18.65	-31.3	-32.0	26.9	0.00e+00	0	27	0	1236271104	36	5716
2026-01-14 04:02:37.04	228.11	18.73	-31.1	-31.8	27.1	0.00e+00	0	27	0	1242562560	36	5583
2026-01-14 04:02:38.05	228.30	18.81	-31.0	-31.6	27.1	0.00e+00	0	27	0	1247805440	36	5489
2026-01-14 04:02:39.06	228.49	18.89	-31.2	-31.8	27.0	0.00e+00	0	28	0	1254096896	36	5630
2026-01-14 04:02:40.07	228.68	18.97	-31.3	-31.9	26.9	0.00e+00	0	27	0	1259339776	36	5654
2026-01-14 04:02:41.08	228.87	19.06	-31.2	-31.8	27.0	0.00e+00	0	27	0	1264582656	36	5620
2026-01-14 04:02:42.09	229.06	19.14	-31.2	-31.9	27.0	0.00e+00	0	28	0	1270874112	36	5653
2026-01-14 04:02:43.10	229.25	19.22	-31.2	-31.8	27.0	0.00e+00	0	27	0	1276116992	36	5600
2026-01-14 04:02:44.11	229.44	19.30	-31.2	-31.8	27.0	0.00e+00	0	27	0	1282408448	36	5606
2026-01-14 04:02:45.12	229.63	19.38	-31.2	-31.8	27.1	0.00e+00	0	27	0	1287651328	36	5603
2026-01-14 04:02:46.13	229.83	19.46	-31.2	-31.9	27.0	0.00e+00	0	27	0	1293942784	36	5652
2026-01-14 04:02:47.14	230.02	19.54	-31.0	-31.6	27.1	0.00e+00	0	28	0	1299185664	36	5446
2026-01-14 04:02:48.15	230.22	19.62	-31.0	-31.6	27.2	0.00e+00	0	28	0	1304428544	36	5481
2026-01-14 04:02:49.16	230.42	19.70	-30.8	-31.5	27.3	0.00e+00	0	27	0	1310720000	36	5389
2026-01-14 04:02:50.17	230.61	19.78	-30.9	-31.5	27.2	0.00e+00	0	28	0	1315962880	36	5413
2026-01-14 04:02:51.18	230.81	19.86	-30.9	-31.5	27.2	0.00e+00	0	27	0	1322254336	36	5388
2026-01-14 04:02:52.19	231.01	19.94	-30.9	-31.5	27.3	0.00e+00	0	28	0	1327497216	36	5427
2026-01-14 04:02:53.20	231.22	20.02	-31.0	-31.6	27.2	0.00e+00	0	28	0	1332740096	36	5452
2026-01-14 04:02:54.21	231.42	20.10	-31.0	-31.6	27.2	0.00e+00	0	27	0	1339031552	36	5493
2026-01-14 04:02:55.22	231.62	20.18	-30.9	-31.5	27.3	0.00e+00	0	27	0	1344274432	36	5424
2026-01-14 04:02:56.23	231.83	20.26	-31.1	-31.8	27.1	0.00e+00	0	27	0	1350565888	36	5587
2026-01-14 04:02:57.25	232.03	20.35	-31.0	-31.6	27.2	0.00e+00	0	28	0	1355808768	36	5463
2026-01-14 04:02:58.26	232.24	20.43	-31.1	-31.7	27.1	0.00e+00	0	27	0	1362100224	36	5549
2026-01-14 04:02:59.26	232.45	20.50	-31.1	-31.7	27.1	0.00e+00	0	27	0	1367343104	36	5528
2026-01-14 04:03:00.27	232.65	20.58	-30.9	-31.6	27.2	0.00e+00	0	27	0	1372585984	36	5459
2026-01-14 04:03:01.29	232.87	20.66	-31.0	-31.7	27.2	0.00e+00	0	27	0	1378877440	36	5506
2026-01-14 04:03:02.30	233.08	20.74	-30.8	-31.4	27.3	0.00e+00	0	27	0	1384120320	36	5361
2026-01-14 04:03:03.31	233.29	20.82	-30.7	-31.3	27.5	0.00e+00	0	27	0	1390411776	34	5956
2026-01-14 04:03:04.32	233.50	20.90	-30.7	-31.4	27.4	0.00e+00	0	27	0	1395654656	34	5976
2026-01-14 04:03:05.33	233.72	20.98	-30.7	-31.3	27.4	0.00e+00	0	27	0	1400897536	34	5935
2026-01-14 04:03:06.34	233.93	21.06	-30.7	-31.3	27.4	0.00e+00	0	27	0	1407188992	34	5934
2026-01-14 04:03:07.35	234.15	21.14	-30.8	-31.4	27.4	0.00e+00	0	27	0	1412431872	34	5992
2026-01-14 04:03:08.36	234.36	21.22	-30.9	-31.5	27.3	0.00e+00	0	27	0	1418723328	34	6075
2026-01-14 04:03:09.37	234.58	21.30	-30.9	-31.5	27.2	0.00e+00	0	27	0	1423966208	34	6082
2026-01-14 04:03:10.38	234.80	21.37	-30.9	-31.5	27.2	0.00e+00	0	27	0	1429209088	34	6098
2026-01-14 04:03:11.39	235.02	21.45	-30.9	-31.6	27.3	0.00e+00	0	27	0	1435500544	34	6104
2026-01-14 04:03:12.40	235.24	21.53	-30.9	-31.6	27.3	0.00e+00	0	27	0	1440743424	34	6114
2026-01-14 04:03:13.41	235.47	21.61	-30.9	-31.5	27.3	0.00e+00	0	27	0	1447034880	34	6062
2026-01-14 04:03:14.42	235.69	21.68	-30.7	-31.4	27.4	0.00e+00	0	27	0	1452277760	34	5978
2026-01-14 04:03:15.43	235.92	21.76	-30.5	-31.2	27.5	0.00e+00	0	28	0	1458569216	34	5840
2026-01-14 04:03:16.44	236.14	21.84	-30.4	-31.1	27.6	0.00e+00	0	28	0	1463812096	34	5768
2026-01-14 04:03:17.45	236.37	21.91	-30.2	-30.7	27.9	0.00e+00	0	27	0	1470103552	34	5562
2026-01-14 04:03:18.46	236.60	21.99	-30.4	-31.0	27.7	0.00e+00	0	27	0	1475346432	34	5746
2026-01-14 04:03:19.47	236.83	22.07	-30.4	-31.0	27.7	0.00e+00	0	27	0	1480589312	34	5748
2026-01-14 04:03:20.48	237.06	22.14	-30.6	-31.2	27.5	0.00e+00	0	27	0	1486880768	34	5882
2026-01-14 04:03:21.49	237.29	22.22	-30.6	-31.2	27.5	0.00e+00	0	27	0	1492123648	34	5893
2026-01-14 04:03:22.50	237.52	22.30	-30.6	-31.2	27.5	0.00e+00	0	27	0	1498415104	34	5862
2026-01-14 04:03:23.51	237.75	22.37	-30.3	-30.9	27.8	0.00e+00	0	27	0	1503657984	34	5656
2026-01-14 04:03:24.52	237.99	22.45	-30.3	-30.9	27.7	0.00e+00	0	27	0	1508900864	34	5648
2026-01-14 04:03:25.53	238.22	22.52	-30.4	-31.0	27.7	0.00e+00	0	27	0	1515192320	34	5707
2026-01-14 04:03:26.54	238.46	22.60	-30.4	-31.1	27.6	0.00e+00	0	27	0	1520435200	34	5773
2026-01-14 04:03:27.55	238.70	22.67	-30.5	-31.2	27.6	0.00e+00	0	28	0	1526726656	34	5853
2026-01-14 04:03:28.56	238.94	22.74	-30.6	-31.3	27.5	0.00e+00	0	27	0	1531969536	34	5900
2026-01-14 04:03:29.57	239.18	22.82	-30.6	-31.3	27.5	0.00e+00	0	27	0	1537212416	34	5930
2026-01-14 04:03:30.58	239.42	22.89	-30.7	-31.3	27.5	0.00e+00	0	27	0	1543503872	34	5936
2026-01-14 04:03:31.59	239.66	22.96	-30.6	-31.3	27.4	0.00e+00	0	27	0	1548746752	34	5914
2026-01-14 04:03:32.60	239.90	23.04	-30.5	-31.2	27.5	0.00e+00	0	27	0	1555038208	34	5844
2026-01-14 04:03:33.62	240.15	23.11	-30.3	-30.9	27.7	0.00e+00	0	27	0	1560281088	34	5672
2026-01-14 04:03:34.63	240.40	23.18	-30.2	-30.8	27.8	0.00e+00	0	27	0	1566572544	34	5609
2026-01-14 04:03:35.64	240.64	23.25	-30.1	-30.8	27.8	0.00e+00	0	27	0	1571815424	34	5592
2026-01-14 04:03:36.65	240.89	23.32	-30.0	-30.6	28.0	0.00e+00	0	27	0	1578106880	34	5479
2026-01-14 04:03:37.66	241.14	23.40	-30.1	-30.8	27.8	0.00e+00	0	27	0	1583349760	34	5568
2026-01-14 04:03:38.67	241.39	23.47	-30.4	-31.1	27.6	0.00e+00	0	27	0	1588592640	34	5786
2026-01-14 04:03:39.68	241.64	23.54	-30.4	-31.1	27.6	0.00e+00	0	27	0	1594884096	34	5785
2026-01-14 04:03:40.69	241.90	23.61	-30.5	-31.1	27.6	0.00e+00	0	27	0	1600126976	34	5799
2026-01-14 04:03:41.70	242.15	23.68	-30.2	-30.8	27.9	0.00e+00	0	27	0	1606418432	34	5602
2026-01-14 04:03:42.71	242.40	23.75	-30.0	-30.6	27.9	0.00e+00	0	27	0	1611661312	34	5469
2026-01-14 04:03:43.72	242.66	23.81	-30.0	-30.6	28.0	0.00e+00	0	27	0	1616904192	34	5487
2026-01-14 04:03:44.73	242.92	23.88	-30.0	-30.6	27.9	0.00e+00	0	27	0	1623195648	34	5488
2026-01-14 04:03:45.74	243.17	23.95	-30.0	-30.6	28.0	0.00e+00	0	27	0	1628438528	34	5456
2026-01-14 04:03:46.75	243.43	24.02	-30.0	-30.6	28.0	0.00e+00	0	27	0	1634729984	34	5487
2026-01-14 04:03:47.76	243.69	24.08	-30.0	-30.7	27.9	0.00e+00	0	27	0	1639972864	34	5517
2026-01-14 04:03:48.77	243.95	24.15	-30.1	-30.7	27.9	0.00e+00	0	27	0	1645215744	34	5538
2026-01-14 04:03:49.78	244.22	24.22	-29.9	-30.5	28.0	0.00e+00	0	27	0	1651507200	34	5410
2026-01-14 04:03:50.79	244.48	24.28	-29.8	-30.4	28.1	0.00e+00	0	27	0	1656750080	32	6014
2026-01-14 04:03:51.80	244.74	24.35	-29.6	-30.3	28.2	0.00e+00	0	27	0	1663041536	32	5914
2026-01-14 04:03:52.81	245.01	24.41	-29.7	-30.3	28.2	0.00e+00	0	27	0	1668284416	32	5902
2026-01-14 04:03:53.82	245.28	24.48	-29.7	-30.3	28.1	0.00e+00	0	28	0	1674575872	32	5908
2026-01-14 04:03:54.83	245.54	24.54	-29.8	-30.4	28.1	0.00e+00	0	27	0	1679818752	32	6023
2026-01-14 04:03:55.84	245.81	24.61	-30.0	-30.6	28.0	0.00e+00	0	27	0	1686110208	32	6149
2026-01-14 04:03:56.85	246.08	24.67	-30.0	-30.7	27.9	0.00e+00	0	28	0	1691353088	32	6220
2026-01-14 04:03:57.86	246.35	24.73	-30.0	-30.7	28.0	0.00e+00	0	27	0	1696595968	32	6196
2026-01-14 04:03:58.87	246.62	24.79	-30.0	-30.6	28.0	0.00e+00	0	27	0	1702887424	32	6140
2026-01-14 04:03:59.88	246.90	24.85	-29.9	-30.5	28.0	0.00e+00	0	28	0	1708130304	32	6079
2026-01-14 04:04:00.89	247.17	24.91	-29.7	-30.3	28.2	0.00e+00	0	27	0	1714421760	32	5958
2026-01-14 04:04:01.90	247.44	24.98	-29.7	-30.3	28.2	0.00e+00	0	27	0	1719664640	32	5957
2026-01-14 04:04:02.91	247.72	25.03	-29.7	-30.4	28.1	0.00e+00	0	27	0	1724907520	32	5977
2026-01-14 04:04:03.92	248.00	25.09	-29.8	-30.4	28.1	0.00e+00	0	27	0	1731198976	32	6027
2026-01-14 04:04:04.93	248.28	25.15	-29.8	-30.5	28.1	0.00e+00	0	27	0	1736441856	32	6039
2026-01-14 04:04:05.94	248.55	25.21	-29.7	-30.4	28.3	0.00e+00	0	27	0	1742733312	32	5974
2026-01-14 04:04:06.95	248.83	25.27	-29.7	-30.4	28.2	0.00e+00	0	27	0	1747976192	32	5993
2026-01-14 04:04:07.96	249.11	25.32	-29.9	-30.5	28.1	0.00e+00	0	28	0	1753219072	32	6065
2026-01-14 04:04:08.97	249.40	25.38	-29.9	-30.5	28.0	0.00e+00	0	27	0	1759510528	32	6095
2026-01-14 04:04:09.98	249.68	25.44	-29.9	-30.5	28.1	0.00e+00	0	27	0	1764753408	32	6097
2026-01-14 04:04:10.99	249.96	25.49	-29.9	-30.5	28.1	0.00e+00	0	27	0	1771044864	32	6089
2026-01-14 04:04:12.00	250.25	25.55	-29.9	-30.5	28.1	0.00e+00	0	27	0	1776287744	32	6100
2026-01-14 04:04:13.01	250.53	25.60	-29.9	-30.6	28.1	0.00e+00	0	27	0	1782579200	32	6109
2026-01-14 04:04:14.02	250.82	25.65	-29.9	-30.5	28.1	0.00e+00	0	27	0	1787822080	32	6059
2026-01-14 04:04:15.03	251.11	25.71	-29.8	-30.4	28.2	0.00e+00	0	27	0	1794113536	32	6028
2026-01-14 04:04:16.05	251.40	25.76	-29.7	-30.3	28.2	0.00e+00	0	27	0	1799356416	32	5928
2026-01-14 04:04:17.06	251.69	25.81	-29.9	-30.5	28.0	0.00e+00	0	27	0	1804599296	32	6071
2026-01-14 04:04:18.07	251.98	25.86	-29.7	-30.3	28.2	0.00e+00	0	27	0	1810890752	32	5930
2026-01-14 04:04:19.08	252.27	25.91	-29.5	-30.2	28.4	0.00e+00	0	27	0	1816133632	32	5842
2026-01-14 04:04:20.09	252.56	25.96	-29.6	-30.2	28.3	0.00e+00	0	27	0	1822425088	32	5854
2026-01-14 04:04:21.10	252.86	26.01	-29.7	-30.3	28.2	0.00e+00	0	27	0	1827667968	32	5939
2026-01-14 04:04:22.11	253.15	26.06	-29.7	-30.3	28.3	0.00e+00	0	27	0	1832910848	32	5921
2026-01-14 04:04:23.12	253.44	26.10	-29.7	-30.3	28.2	0.00e+00	0	28	0	1839202304	32	5935
2026-01-14 04:04:24.13	253.74	26.15	-29.6	-30.2	28.3	0.00e+00	0	27	0	1844445184	32	5887
2026-01-14 04:04:25.14	254.04	26.19	-29.6	-30.2	28.3	0.00e+00	0	28	0	1850736640	32	5875
2026-01-14 04:04:26.15	254.33	26.24	-29.7	-30.4	28.2	0.00e+00	0	27	0	1855979520	32	5979
2026-01-14 04:04:27.16	254.63	26.28	-29.7	-30.3	28.1	0.00e+00	0	27	0	1861222400	32	5953
2026-01-14 04:04:28.16	254.93	26.33	-29.7	-30.3	28.2	0.00e+00	0	27	0	1867513856	32	5940
2026-01-14 04:04:29.17	255.23	26.37	-29.9	-30.5	28.1	0.00e+00	0	28	0	1872756736	32	6091
2026-01-14 04:04:30.18	255.53	26.41	-29.8	-30.4	28.2	0.00e+00	0	27	0	1879048192	32	6011
2026-01-14 04:04:31.20	255.83	26.45	-29.8	-30.5	28.2	0.00e+00	0	28	0	1884291072	32	6054
2026-01-14 04:04:32.20	256.13	26.49	-29.7	-30.3	28.2	0.00e+00	0	27	0	1890582528	32	5951
2026-01-14 04:04:33.21	256.43	26.53	-29.7	-30.3	28.3	0.00e+00	0	27	0	1895825408	32	5963
2026-01-14 04:04:34.22	256.74	26.57	-29.6	-30.3	28.3	0.00e+00	0	28	0	1901068288	32	5900
2026-01-14 04:04:35.23	257.04	26.61	-29.6	-30.2	28.3	0.00e+00	0	27	0	1907359744	32	5892
2026-01-14 04:04:36.24	257.34	26.65	-29.6	-30.2	28.2	0.00e+00	0	28	0	1912602624	32	5892
2026-01-14 04:04:37.25	257.65	26.68	-29.5	-30.1	28.4	0.00e+00	0	27	0	1918894080	32	5788
2026-01-14 04:04:38.26	257.96	26.72	-29.7	-30.3	28.3	0.00e+00	0	27	0	1924136960	32	5909
2026-01-14 04:04:39.27	258.26	26.75	-29.6	-30.3	28.3	0.00e+00	0	28	0	1929379840	32	5911
2026-01-14 04:04:40.28	258.57	26.79	-29.8	-30.4	28.2	0.00e+00	0	27	0	1935671296	32	5981
2026-01-14 04:04:41.30	258.88	26.82	-29.8	-30.4	28.1	0.00e+00	0	27	0	1940914176	32	6031
2026-01-14 04:04:42.30	259.19	26.85	-29.7	-30.4	28.2	0.00e+00	0	28	0	1947205632	32	5985
2026-01-14 04:04:43.31	259.50	26.89	-29.6	-30.2	28.3	0.00e+00	0	27	0	1952448512	32	5896
2026-01-14 04:04:44.32	259.81	26.92	-29.5	-30.1	28.3	0.00e+00	0	28	0	1957691392	32	5824
2026-01-14 04:04:45.33	260.12	26.95	-29.7	-30.3	28.3	0.00e+00	0	28	0	1963982848	32	5954
2026-01-14 04:04:46.34	260.43	26.97	-29.6	-30.3	28.3	0.00e+00	0	27	0	1969225728	32	5925
2026-01-14 04:04:47.35	260.74	27.00	-29.4	-30.1	28.4	0.00e+00	0	28	0	1975517184	32	5772
2026-01-14 04:04:48.36	261.05	27.03	-29.3	-29.9	28.5	0.00e+00	0	27	0	1980760064	32	5661
2026-01-14 04:04:49.37	261.36	27.06	-29.3	-29.9	28.5	0.00e+00	0	27	0	1987051520	32	5645
2026-01-14 04:04:50.38	261.68	27.08	-29.4	-29.9	28.4	0.00e+00	0	27	0	1992294400	32	5675
2026-01-14 04:04:51.39	261.99	27.11	-29.4	-30.1	28.6	0.00e+00	0	27	0	1998585856	32	5769
2026-01-14 04:04:52.40	262.31	27.13	-29.4	-30.0	28.5	0.00e+00	0	27	0	2003828736	32	5696
2026-01-14 04:04:53.41	262.62	27.15	-29.2	-29.8	28.6	0.00e+00	0	28	0	2009071616	32	5592
2026-01-14 04:04:54.42	262.94	27.18	-29.2	-29.9	28.5	0.00e+00	0	28	0	2015363072	32	5638
2026-01-14 04:04:55.43	263.25	27.20	-29.4	-30.0	28.5	0.00e+00	0	28	0	2020605952	32	5761
2026-01-14 04:04:56.44	263.57	27.22	-29.5	-30.2	28.4	0.00e+00	0	27	0	2026897408	32	5834
2026-01-14 04:04:57.45	263.88	27.24	-29.6	-30.3	28.2	0.00e+00	0	28	0	2032140288	32	5930
2026-01-14 04:04:58.47	264.20	27.25	-29.7	-30.3	28.3	0.00e+00	0	28	0	2037383168	32	5926
2026-01-14 04:04:59.47	264.52	27.27	-29.5	-30.1	22.8	0.00e+00	0	27	0	2043674624	32	5785
2026-01-14 04:05:00.49	264.84	27.29	-31.3	-31.9	27.9	1.10e-06	0	28	0	2048917504	36	5681
2026-01-14 04:05:01.50	265.15	27.30	-29.7	-30.4	28.2	0.00e+00	0	27	0	2055208960	32	5976
2026-01-14 04:05:02.51	265.47	27.32	-29.8	-30.4	28.2	0.00e+00	0	28	0	2060451840	32	5990
2026-01-14 04:05:03.52	265.79	27.33	-29.8	-30.4	28.3	0.00e+00	0	28	0	2065694720	32	6017
2026-01-14 04:05:04.53	266.11	27.35	-29.7	-30.4	28.2	0.00e+00	0	28	0	2071986176	32	5979
2026-01-14 04:05:05.54	266.43	27.36	-29.7	-30.3	28.2	0.00e+00	0	28	0	2077229056	32	5948
2026-01-14 04:05:06.55	266.74	27.37	-29.7	-30.4	28.2	0.00e+00	0	28	0	2083520512	32	5968
2026-01-14 04:05:07.56	267.06	27.38	-29.8	-30.5	28.2	0.00e+00	0	28	0	2088763392	32	6039
2026-01-14 04:05:08.57	267.38	27.39	-29.6	-30.2	28.3	0.00e+00	0	28	0	2095054848	32	5868
2026-01-14 04:05:09.58	267.70	27.40	-29.6	-30.2	28.3	0.00e+00	0	27	0	2100297728	32	5860
2026-01-14 04:05:10.58	268.02	27.40	-29.6	-30.2	28.3	0.00e+00	0	27	0	2106589184	32	5896
2026-01-14 04:05:11.60	268.34	27.41	-29.5	-30.2	28.4	0.00e+00	0	28	0	2111832064	32	5863
2026-01-14 04:05:12.60	268.66	27.41	-29.6	-30.1	28.4	0.00e+00	0	27	0	2117074944	32	5810
2026-01-14 04:05:13.61	268.98	27.42	-29.6	-30.1	28.3	0.00e+00	0	27	0	2123366400	32	5828
2026-01-14 04:05:14.62	269.30	27.42	-29.6	-30.2	28.3	0.00e+00	0	27	0	2128609280	32	5868
2026-01-14 04:05:15.63	269.62	27.42	-29.8	-30.4	28.2	0.00e+00	0	28	0	2134900736	32	6011
2026-01-14 04:05:16.64	269.94	27.43	-29.4	-30.0	28.5	0.00e+00	0	28	0	2140143616	32	5713
2026-01-14 04:05:17.65	270.26	27.43	-29.3	-29.9	28.6	0.00e+00	0	28	0	2145386496	32	5688
2026-01-14 04:05:18.66	270.58	27.43	-29.3	-29.8	28.6	0.00e+00	0	27	0	2151677952	32	5619
2026-01-14 04:05:19.67	270.90	27.43	-29.3	-29.9	28.5	0.00e+00	0	28	0	2156920832	32	5688
2026-01-14 04:05:20.68	271.22	27.42	-29.4	-30.0	28.5	0.00e+00	0	28	0	2163212288	32	5732
2026-01-14 04:05:21.69	271.54	27.42	-29.5	-30.2	28.4	0.00e+00	0	27	0	2168455168	32	5859
2026-01-14 04:05:22.71	271.86	27.42	-29.7	-30.3	28.2	0.00e+00	0	28	0	2173698048	32	5940
2026-01-14 04:05:23.71	272.17	27.41	-29.6	-30.2	28.2	0.00e+00	0	28	0	2179989504	32	5879
2026-01-14 04:05:24.73	272.50	27.41	-29.6	-30.2	28.3	0.00e+00	0	27	0	2185232384	32	5863
2026-01-14 04:05:25.74	272.82	27.40	-29.6	-30.2	28.1	0.00e+00	0	27	0	2191523840	32	5850
2026-01-14 04:05:26.74	273.13	27.39	-29.5	-30.1	28.2	0.00e+00	0	27	0	2196766720	32	5790
2026-01-14 04:05:27.76	273.46	27.38	-29.6	-30.2	28.1	0.00e+00	0	27	0	2203058176	32	5861
2026-01-14 04:05:28.77	273.77	27.37	-29.5	-30.1	27.9	0.00e+00	0	28	0	2208301056	32	5777
2026-01-14 04:05:29.78	274.09	27.36	-29.6	-30.3	28.3	0.00e+00	0	27	0	2213543936	32	5898
2026-01-14 04:05:30.79	274.41	27.35	-29.7	-30.3	28.1	0.00e+00	0	28	0	2219835392	32	5964
2026-01-14 04:05:31.79	274.73	27.34	-29.6	-30.3	28.3	0.00e+00	0	27	0	2225078272	32	5910
2026-01-14 04:05:32.81	275.05	27.32	-29.6	-30.1	28.2	0.00e+00	0	28	0	2231369728	32	5796
2026-01-14 04:05:33.82	275.36	27.31	-29.4	-30.0	28.4	0.00e+00	0	27	0	2236612608	32	5757
2026-01-14 04:05:34.83	275.68	27.30	-29.5	-30.1	28.4	0.00e+00	0	28	0	2241855488	32	5790
2026-01-14 04:05:35.84	276.00	27.28	-29.5	-30.2	28.2	0.00e+00	0	28	0	2248146944	32	5842
2026-01-14 04:05:36.85	276.32	27.26	-29.3	-29.9	28.5	0.00e+00	0	28	0	2253389824	32	5645
2026-01-14 04:05:37.86	276.63	27.24	-29.4	-30.0	28.4	0.00e+00	0	28	0	2259681280	32	5720
2026-01-14 04:05:38.87	276.95	27.23	-29.5	-30.1	28.3	0.00e+00	0	28	0	2264924160	32	5798
2026-01-14 04:05:39.88	277.26	27.21	-29.6	-30.3	28.2	0.00e+00	0	28	0	2270167040	32	5916
2026-01-14 04:05:40.89	277.58	27.18	-29.8	-30.4	28.1	0.00e+00	0	28	0	2276458496	32	5997
2026-01-14 04:05:41.90	277.89	27.16	-29.9	-30.5	28.1	0.00e+00	0	28	0	2281701376	32	6092
2026-01-14 04:05:42.91	278.21	27.14	-29.7	-30.3	28.2	0.00e+00	0	27	0	2287992832	32	5923
2026-01-14 04:05:43.92	278.52	27.12	-29.8	-30.4	28.1	0.00e+00	0	28	0	2293235712	32	6001
2026-01-14 04:05:44.93	278.84	27.09	-29.9	-30.5	28.2	0.00e+00	0	27	0	2299527168	32	6085
2026-01-14 04:05:45.94	279.15	27.07	-29.9	-30.5	28.2	0.00e+00	0	27	0	2304770048	32	6078
2026-01-14 04:05:46.95	279.46	27.04	-30.1	-30.8	27.8	0.00e+00	0	27	0	2311061504	32	6276
2026-01-14 04:05:47.96	279.77	27.02	-29.8	-30.5	28.2	0.00e+00	0	28	0	2316304384	32	6050
2026-01-14 04:05:48.97	280.08	26.99	-29.7	-30.3	28.2	0.00e+00	0	27	0	2321547264	32	5909
2026-01-14 04:05:49.98	280.40	26.96	-29.5	-30.1	28.3	0.00e+00	0	28	0	2327838720	32	5787
2026-01-14 04:05:50.99	280.71	26.93	-29.6	-30.2	28.3	0.00e+00	0	28	0	2333081600	32	5877
2026-01-14 04:05:52.00	281.02	26.90	-29.4	-30.0	28.4	0.00e+00	0	27	0	2339373056	32	5754
2026-01-14 04:05:53.01	281.32	26.87	-29.7	-30.3	28.2	0.00e+00	0	28	0	2344615936	32	5952
2026-01-14 04:05:54.02	281.63	26.84	-29.6	-30.2	28.3	0.00e+00	0	28	0	2349858816	32	5846
2026-01-14 04:05:55.03	281.94	26.80	-29.7	-30.3	28.2	0.00e+00	0	28	0	2356150272	32	5924
2026-01-14 04:05:56.04	282.25	26.77	-29.7	-30.3	28.2	0.00e+00	0	28	0	2361393152	32	5911
2026-01-14 04:05:57.05	282.55	26.74	-29.7	-30.3	28.2	0.00e+00	0	28	0	2367684608	32	5962
2026-01-14 04:05:58.07	282.86	26.70	-29.7	-30.3	28.3	0.00e+00	0	28	0	2372927488	32	5918
2026-01-14 04:05:59.07	283.17	26.66	-29.7	-30.3	28.1	0.00e+00	0	28	0	2378170368	32	5920
2026-01-14 04:06:00.09	283.47	26.63	-29.6	-30.2	28.2	0.00e+00	0	28	0	2384461824	32	5862
2026-01-14 04:06:01.09	283.77	26.59	-29.7	-30.3	28.2	0.00e+00	0	28	0	2389704704	32	5935
2026-01-14 04:06:02.10	284.08	26.55	-29.7	-30.3	28.2	0.00e+00	0	28	0	2395996160	32	5942
2026-01-14 04:06:03.12	284.38	26.51	-29.7	-30.4	28.1	0.00e+00	0	28	0	2401239040	32	5967
2026-01-14 04:06:04.12	284.68	26.47	-29.6	-30.2	28.2	0.00e+00	0	28	0	2407530496	32	5851
2026-01-14 04:06:05.14	284.99	26.43	-29.5	-30.1	28.3	0.00e+00	0	28	0	2412773376	32	5805
2026-01-14 04:06:06.14	285.28	26.39	-29.5	-30.1	28.3	0.00e+00	0	28	0	2419064832	32	5787
2026-01-14 04:06:07.16	285.59	26.35	-29.7	-30.3	28.2	0.00e+00	0	28	0	2424307712	32	5931
2026-01-14 04:06:08.17	285.88	26.30	-29.7	-30.3	28.2	0.00e+00	0	28	0	2429550592	32	5946
2026-01-14 04:06:09.18	286.18	26.26	-29.9	-30.5	28.1	0.00e+00	0	28	0	2435842048	32	6087
2026-01-14 04:06:10.19	286.48	26.22	-30.0	-30.6	28.0	0.00e+00	0	28	0	2441084928	32	6121
2026-01-14 04:06:11.20	286.77	26.17	-30.0	-30.6	28.0	0.00e+00	0	28	0	2447376384	32	6166
2026-01-14 04:06:12.21	287.07	26.13	-30.0	-30.7	27.9	0.00e+00	0	28	0	2452619264	32	6233
2026-01-14 04:06:13.22	287.36	26.08	-29.9	-30.6	27.9	0.00e+00	0	27	0	2457862144	32	6148
2026-01-14 04:06:14.23	287.66	26.03	-30.0	-30.6	27.9	0.00e+00	0	28	0	2464153600	32	6123
2026-01-14 04:06:15.24	287.95	25.98	-30.0	-30.6	27.9	0.00e+00	0	28	0	2469396480	32	6118
2026-01-14 04:06:16.25	288.24	25.93	-30.1	-30.7	27.9	0.00e+00	0	28	0	2475687936	32	6192
2026-01-14 04:06:17.26	288.53	25.89	-29.9	-30.4	28.0	0.00e+00	0	28	0	2480930816	32	6031
2026-01-14 04:06:18.27	288.82	25.84	-30.0	-30.5	28.0	0.00e+00	0	28	0	2486173696	32	6078
2026-01-14 04:06:19.28	289.11	25.78	-29.8	-30.4	28.1	0.00e+00	0	27	0	2492465152	32	5985
2026-01-14 04:06:20.29	289.40	25.73	-29.8	-30.4	28.2	0.00e+00	0	28	0	2497708032	32	6033
2026-01-14 04:06:21.30	289.69	25.68	-29.6	-30.2	28.2	0.00e+00	0	28	0	2503999488	32	5874
2026-01-14 04:06:22.31	289.97	25.63	-29.6	-30.3	28.2	0.00e+00	0	28	0	2509242368	32	5935
2026-01-14 04:06:23.32	290.26	25.57	-29.6	-30.2	28.3	0.00e+00	0	28	0	2515533824	32	5869
2026-01-14 04:06:24.33	290.54	25.52	-29.8	-30.3	28.2	0.00e+00	0	28	0	2520776704	32	5944
2026-01-14 04:06:25.34	290.83	25.47	-29.9	-30.5	28.0	0.00e+00	0	28	0	2527068160	32	6100
2026-01-14 04:06:26.35	291.11	25.41	-30.1	-30.7	27.9	0.00e+00	0	28	0	2532311040	32	6216
2026-01-14 04:06:27.36	291.39	25.36	-30.0	-30.7	27.9	0.00e+00	0	28	0	2537553920	32	6206
2026-01-14 04:06:28.37	291.67	25.30	-30.0	-30.6	27.9	0.00e+00	0	28	0	2543845376	32	6145
2026-01-14 04:06:29.38	291.95	25.24	-30.0	-30.6	28.0	0.00e+00	0	27	0	2549088256	32	6164
2026-01-14 04:06:30.39	292.23	25.18	-30.0	-30.6	27.9	0.00e+00	0	28	0	2555379712	32	6104
2026-01-14 04:06:31.40	292.51	25.13	-29.9	-30.5	28.1	0.00e+00	0	28	0	2560622592	32	6092
2026-01-14 04:06:32.41	292.78	25.07	-29.9	-30.4	28.1	0.00e+00	0	28	0	2565865472	32	6004
2026-01-14 04:06:33.42	293.06	25.01	-29.9	-30.6	28.0	0.00e+00	0	27	0	2572156928	32	6138
2026-01-14 04:06:34.43	293.33	24.95	-30.1	-30.6	27.9	0.00e+00	0	28	0	2577399808	32	6166
2026-01-14 04:06:35.44	293.61	24.89	-30.1	-30.7	27.8	0.00e+00	0	28	0	2583691264	32	6236
2026-01-14 04:06:36.45	293.88	24.83	-30.2	-30.8	27.8	0.00e+00	0	28	0	2588934144	32	6258
2026-01-14 04:06:37.46	294.15	24.77	-30.2	-30.8	27.8	0.00e+00	0	27	0	2594177024	32	6316
2026-01-14 04:06:38.47	294.42	24.70	-30.2	-30.9	27.8	0.00e+00	0	27	0	2600468480	32	6389
2026-01-14 04:06:39.48	294.69	24.64	-29.9	-30.4	28.0	0.00e+00	0	27	0	2605711360	32	6032
2026-01-14 04:06:40.49	294.96	24.58	-29.9	-30.6	28.0	0.00e+00	0	28	0	2612002816	32	6150
2026-01-14 04:06:41.50	295.23	24.52	-30.0	-30.7	27.9	0.00e+00	0	28	0	2617245696	32	6189
2026-01-14 04:06:42.51	295.49	24.45	-30.1	-30.8	27.8	0.00e+00	0	28	0	2623537152	32	6302
2026-01-14 04:06:43.52	295.76	24.39	-30.1	-30.8	27.9	0.00e+00	0	27	0	2628780032	32	6274
2026-01-14 04:06:44.53	296.02	24.32	-30.1	-30.8	27.9	0.00e+00	0	28	0	2635071488	32	6292
2026-01-14 04:06:45.54	296.29	24.26	-30.1	-30.7	27.9	0.00e+00	0	27	0	2640314368	32	6223
2026-01-14 04:06:46.55	296.55	24.19	-30.1	-30.7	27.9	0.00e+00	0	28	0	2645557248	32	6238
2026-01-14 04:06:47.57	296.81	24.13	-30.1	-30.6	27.9	0.00e+00	0	28	0	2651848704	32	6158
2026-01-14 04:06:48.58	297.07	24.06	-30.2	-30.7	27.9	0.00e+00	0	28	0	2657091584	32	6244
2026-01-14 04:06:49.59	297.33	23.99	-30.3	-30.8	27.7	0.00e+00	0	27	0	2663383040	32	6301
2026-01-14 04:06:50.60	297.59	23.92	-30.4	-31.1	27.5	0.00e+00	0	28	0	2668625920	32	6481
2026-01-14 04:06:51.61	297.84	23.86	-30.4	-31.0	27.7	0.00e+00	0	28	0	2673868800	32	6392
2026-01-14 04:06:52.62	298.10	23.79	-30.4	-31.0	27.6	0.00e+00	0	27	0	2680160256	32	6413
2026-01-14 04:06:53.63	298.35	23.72	-30.4	-31.0	27.7	0.00e+00	0	28	0	2685403136	32	6407
2026-01-14 04:06:54.64	298.61	23.65	-30.3	-30.9	27.7	0.00e+00	0	28	0	2691694592	32	6330
2026-01-14 04:06:55.65	298.86	23.58	-30.2	-30.9	27.7	0.00e+00	0	28	0	2696937472	32	6363
2026-01-14 04:06:56.66	299.11	23.51	-30.1	-30.7	27.9	0.00e+00	0	27	0	2702180352	32	6189
2026-01-14 04:06:57.67	299.36	23.44	-30.1	-30.8	27.9	0.00e+00	0	28	0	2708471808	32	6256
2026-01-14 04:06:58.68	299.61	23.37	-30.2	-30.9	27.8	0.00e+00	0	27	0	2713714688	32	6332
2026-01-14 04:06:59.69	299.86	23.30	-30.3	-31.0	27.7	0.00e+00	0	28	0	2720006144	32	6425
2026-01-14 04:07:00.70	300.10	23.23	-30.3	-30.8	27.8	0.00e+00	0	27	0	2725249024	32	6303
2026-01-14 04:07:01.71	300.35	23.16	-30.4	-31.0	27.6	0.00e+00	0	27	0	2731540480	32	6462
2026-01-14 04:07:02.72	300.59	23.09	-30.5	-31.0	27.6	0.00e+00	0	28	0	2736783360	32	6445
2026-01-14 04:07:03.73	300.83	23.01	-30.5	-31.1	27.6	0.00e+00	0	27	0	2742026240	32	6481
2026-01-14 04:07:04.73	301.07	22.94	-30.5	-31.1	27.5	0.00e+00	0	27	0	2748317696	32	6498
2026-01-14 04:07:05.74	301.32	22.87	-30.6	-31.2	27.4	0.00e+00	0	27	0	2753560576	32	6557
2026-01-14 04:07:06.75	301.56	22.80	-30.6	-31.2	27.5	0.00e+00	0	27	0	2759852032	32	6542
2026-01-14 04:07:07.76	301.79	22.72	-30.6	-31.3	27.4	0.00e+00	0	27	0	2765094912	32	6657
2026-01-14 04:07:08.77	302.03	22.65	-30.7	-31.3	27.4	0.00e+00	0	28	0	2770337792	32	6663
2026-01-14 04:07:09.78	302.27	22.57	-30.6	-31.3	27.4	0.00e+00	0	27	0	2776629248	32	6672
2026-01-14 04:07:10.79	302.50	22.50	-30.6	-31.2	27.4	0.00e+00	0	27	0	2781872128	32	6588
2026-01-14 04:07:11.80	302.74	22.43	-30.7	-31.3	27.4	0.00e+00	0	28	0	2788163584	32	6692
2026-01-14 04:07:12.81	302.97	22.35	-30.6	-31.3	27.5	0.00e+00	0	28	0	2793406464	32	6636
2026-01-14 04:07:13.82	303.20	22.28	-30.6	-31.2	27.5	0.00e+00	0	27	0	2798649344	32	6615
2026-01-14 04:07:14.83	303.44	22.20	-30.6	-31.2	27.4	0.00e+00	0	27	0	2804940800	32	6561
2026-01-14 04:07:15.84	303.67	22.13	-30.7	-31.2	27.4	0.00e+00	0	28	0	2810183680	32	6594
2026-01-14 04:07:16.85	303.89	22.05	-30.8	-31.5	27.3	0.00e+00	0	28	0	2816475136	34	6056
2026-01-14 04:07:17.86	304.12	21.97	-30.7	-31.4	27.4	0.00e+00	0	28	0	2821718016	34	5977
2026-01-14 04:07:18.87	304.35	21.90	-30.7	-31.2	27.5	0.00e+00	0	28	0	2828009472	34	5875
2026-01-14 04:07:19.88	304.58	21.82	-30.6	-31.2	27.4	0.00e+00	0	27	0	2833252352	34	5886
2026-01-14 04:07:20.89	304.80	21.74	-30.5	-31.1	27.5	0.00e+00	0	28	0	2839543808	34	5762
2026-01-14 04:07:21.91	305.03	21.67	-30.4	-31.1	27.6	0.00e+00	0	28	0	2844786688	34	5786
2026-01-14 04:07:22.92	305.25	21.59	-30.5	-31.0	27.4	0.00e+00	0	27	0	2850029568	34	5724
2026-01-14 04:07:23.93	305.47	21.51	-30.5	-31.1	27.5	0.00e+00	0	27	0	2856321024	34	5770
2026-01-14 04:07:24.94	305.69	21.44	-30.6	-31.3	27.4	0.00e+00	0	28	0	2861563904	34	5928
2026-01-14 04:07:25.95	305.91	21.36	-30.7	-31.3	27.2	0.00e+00	0	28	0	2867855360	34	5935
2026-01-14 04:07:26.96	306.13	21.28	-30.8	-31.4	27.2	0.00e+00	0	28	0	2873098240	34	5993
2026-01-14 04:07:27.97	306.34	21.20	-30.8	-31.5	27.2	0.00e+00	0	27	0	2878341120	34	6034
2026-01-14 04:07:28.98	306.56	21.12	-30.8	-31.4	27.2	0.00e+00	0	28	0	2884632576	34	6013
2026-01-14 04:07:29.99	306.77	21.05	-30.9	-31.6	27.2	0.00e+00	0	28	0	2889875456	34	6113
2026-01-14 04:07:31.00	306.99	20.97	-30.9	-31.6	27.0	0.00e+00	0	28	0	2896166912	34	6148
2026-01-14 04:07:32.01	307.20	20.89	-31.0	-31.6	27.0	0.00e+00	0	27	0	2901409792	34	6136
2026-01-14 04:07:33.02	307.41	20.81	-31.1	-31.8	26.8	0.00e+00	0	28	0	2906652672	34	6295
2026-01-14 04:07:34.03	307.62	20.73	-31.2	-31.8	26.7	0.00e+00	0	28	0	2912944128	34	6246
2026-01-14 04:07:35.04	307.83	20.65	-31.2	-31.8	26.9	0.00e+00	0	27	0	2918187008	34	6269
2026-01-14 04:07:36.05	308.04	20.57	-31.2	-31.9	26.7	0.00e+00	0	27	0	2924478464	34	6378
2026-01-14 04:07:37.06	308.25	20.49	-31.3	-31.9	26.7	0.00e+00	0	27	0	2929721344	34	6354
2026-01-14 04:07:38.07	308.46	20.42	-31.4	-32.0	26.6	0.00e+00	0	28	0	2934964224	34	6396
2026-01-14 04:07:39.08	308.66	20.34	-31.6	-32.2	26.6	0.00e+00	0	27	0	2941255680	34	6614
2026-01-14 04:07:40.09	308.87	20.26	-31.4	-32.2	26.5	0.00e+00	0	28	0	2946498560	34	6551
2026-01-14 04:07:41.10	309.07	20.18	-31.5	-32.1	26.5	0.00e+00	0	28	0	2952790016	34	6497
2026-01-14 04:07:42.11	309.27	20.10	-31.5	-32.1	26.5	0.00e+00	0	28	0	2958032896	34	6489
2026-01-14 04:07:43.12	309.47	20.02	-31.4	-31.9	26.8	0.00e+00	0	28	0	2964324352	34	6378
2026-01-14 04:07:44.13	309.67	19.94	-31.2	-31.9	26.7	0.00e+00	0	28	0	2969567232	34	6375
2026-01-14 04:07:45.14	309.87	19.86	-31.1	-31.7	26.8	0.00e+00	0	28	0	2975858688	34	6228
2026-01-14 04:07:46.15	310.07	19.78	-31.0	-31.6	26.9	0.00e+00	0	27	0	2981101568	34	6121
2026-01-14 04:07:47.16	310.27	19.70	-31.0	-31.7	27.0	0.00e+00	0	28	0	2986344448	34	6205
2026-01-14 04:07:48.17	310.46	19.62	-31.0	-31.7	27.0	0.00e+00	0	28	0	2992635904	34	6225
2026-01-14 04:07:49.18	310.66	19.54	-31.2	-31.7	26.9	0.00e+00	0	28	0	2997878784	34	6216
2026-01-14 04:07:50.19	310.85	19.46	-31.1	-31.9	26.8	0.00e+00	0	28	0	3004170240	34	6319
2026-01-14 04:07:51.20	311.05	19.38	-31.3	-31.9	26.8	0.00e+00	0	28	0	3009413120	34	6344
2026-01-14 04:07:52.21	311.24	19.30	-31.4	-32.0	26.8	0.00e+00	0	28	0	3014656000	34	6427
2026-01-14 04:07:53.22	311.43	19.22	-31.5	-32.1	26.6	0.00e+00	0	28	0	3020947456	34	6520
2026-01-14 04:07:54.23	311.62	19.13	-31.6	-32.2	26.5	0.00e+00	0	28	0	3026190336	34	6562
2026-01-14 04:07:55.24	311.81	19.05	-31.6	-32.2	26.5	0.00e+00	0	28	0	3032481792	34	6589
2026-01-14 04:07:56.25	312.00	18.97	-31.6	-32.4	26.5	0.00e+00	0	28	0	3037724672	34	6707
2026-01-14 04:07:57.26	312.19	18.89	-31.5	-32.3	26.5	0.00e+00	0	27	0	3042967552	34	6622
2026-01-14 04:07:58.27	312.37	18.81	-31.7	-32.3	26.4	0.00e+00	0	28	0	3049259008	34	6658
2026-01-14 04:07:59.28	312.56	18.73	-31.5	-32.0	26.7	0.00e+00	0	27	0	3054501888	34	6443
2026-01-14 04:08:00.29	312.74	18.65	-31.7	-32.3	26.5	0.00e+00	0	28	0	3060793344	34	6690
2026-01-14 04:08:01.30	312.92	18.57	-31.6	-32.2	26.5	0.00e+00	0	28	0	3066036224	34	6589
2026-01-14 04:08:02.31	313.11	18.49	-31.7	-32.3	26.4	0.00e+00	0	27	0	3072327680	34	6631
2026-01-14 04:08:03.32	313.29	18.41	-31.8	-32.5	26.4	0.00e+00	0	28	0	3077570560	36	6092
2026-01-14 04:08:04.33	313.47	18.33	-31.9	-32.6	26.3	0.00e+00	0	28	0	3083862016	36	6144
2026-01-14 04:08:05.34	313.65	18.25	-31.8	-32.4	26.3	0.00e+00	0	28	0	3089104896	36	5980
2026-01-14 04:08:06.35	313.83	18.17	-31.8	-32.5	26.4	0.00e+00	0	27	0	3094347776	36	6043
2026-01-14 04:08:07.36	314.01	18.09	-31.7	-32.5	26.5	0.00e+00	0	27	0	3100639232	36	6037
2026-01-14 04:08:08.37	314.18	18.01	-31.7	-32.3	26.4	0.00e+00	0	27	0	3105882112	36	5927
2026-01-14 04:08:09.38	314.36	17.92	-31.8	-32.4	26.3	0.00e+00	0	27	0	3112173568	36	5998
2026-01-14 04:08:10.39	314.53	17.84	-31.8	-32.4	26.4	0.00e+00	0	28	0	3117416448	36	5991
2026-01-14 04:08:11.41	314.71	17.76	-31.9	-32.6	26.4	0.00e+00	0	28	0	3122659328	36	6125
2026-01-14 04:08:12.42	314.88	17.68	-32.0	-32.5	26.2	0.00e+00	0	27	0	3128950784	36	6102
2026-01-14 04:08:13.42	315.05	17.60	-31.9	-32.5	26.3	0.00e+00	0	28	0	3134193664	36	6068
2026-01-14 04:08:14.44	315.23	17.52	-32.0	-32.7	26.2	0.00e+00	0	28	0	3140485120	36	6209
2026-01-14 04:08:15.45	315.40	17.44	-32.0	-32.6	26.2	0.00e+00	0	28	0	3145728000	36	6141
2026-01-14 04:08:16.46	315.57	17.36	-32.0	-32.6	26.2	0.00e+00	0	28	0	3150970880	36	6126
2026-01-14 04:08:17.47	315.74	17.28	-32.2	-32.9	26.0	0.00e+00	0	28	0	3157262336	36	6378
2026-01-14 04:08:18.48	315.91	17.20	-32.4	-33.0	25.9	0.00e+00	0	28	0	3162505216	36	6446
2026-01-14 04:08:19.49	316.07	17.12	-32.3	-32.9	26.0	0.00e+00	0	27	0	3168796672	36	6380
2026-01-14 04:08:20.50	316.24	17.04	-32.2	-32.8	26.0	0.00e+00	0	28	0	3174039552	36	6292
2026-01-14 04:08:21.51	316.40	16.96	-32.3	-32.9	25.9	0.00e+00	0	28	0	3180331008	36	6376
2026-01-14 04:08:22.52	316.57	16.88	-32.3	-33.0	26.0	0.00e+00	0	28	0	3185573888	36	6409
2026-01-14 04:08:23.53	316.73	16.80	-32.1	-32.7	26.1	0.00e+00	0	28	0	3190816768	36	6181
2026-01-14 04:08:24.54	316.90	16.72	-32.0	-32.7	26.3	0.00e+00	0	27	0	3197108224	36	6235
2026-01-14 04:08:25.55	317.06	16.64	-31.9	-32.6	26.3	0.00e+00	0	28	0	3202351104	36	6165
2026-01-14 04:08:26.56	317.22	16.56	-31.8	-32.4	26.3	0.00e+00	0	28	0	3208642560	36	5984
2026-01-14 04:08:27.57	317.38	16.48	-31.8	-32.4	26.3	0.00e+00	0	27	0	3213885440	36	6007
2026-01-14 04:08:28.57	317.54	16.40	-32.1	-32.8	26.1	0.00e+00	0	28	0	3219128320	36	6251
2026-01-14 04:08:29.58	317.70	16.32	-32.0	-32.7	26.2	0.00e+00	0	28	0	3225419776	36	6194
2026-01-14 04:08:30.59	317.85	16.24	-32.0	-32.7	26.1	0.00e+00	0	28	0	3230662656	36	6228
2026-01-14 04:08:31.60	318.01	16.16	-32.2	-32.8	25.9	0.00e+00	0	27	0	3236954112	36	6287
2026-01-14 04:08:32.61	318.17	16.08	-32.2	-32.9	25.9	0.00e+00	0	27	0	3242196992	36	6325
2026-01-14 04:08:33.62	318.32	16.00	-32.3	-33.1	25.9	0.00e+00	0	27	0	3247439872	36	6484
2026-01-14 04:08:34.63	318.48	15.92	-32.4	-33.1	25.8	0.00e+00	0	28	0	3253731328	36	6503
2026-01-14 04:08:35.64	318.63	15.84	-32.5	-33.1	25.8	0.00e+00	0	28	0	3258974208	36	6480
2026-01-14 04:08:36.65	318.79	15.76	-32.3	-33.1	25.9	0.00e+00	0	28	0	3265265664	36	6466
2026-01-14 04:08:37.67	318.94	15.68	-32.3	-33.0	25.9	0.00e+00	0	28	0	3270508544	36	6435
2026-01-14 04:08:38.68	319.09	15.60	-32.2	-32.9	26.0	0.00e+00	0	27	0	3276800000	36	6390
2026-01-14 04:08:39.68	319.24	15.52	-32.2	-32.8	26.0	0.00e+00	0	28	0	3282042880	36	6310
2026-01-14 04:08:40.70	319.39	15.44	-32.2	-32.8	26.0	0.00e+00	0	28	0	3288334336	36	6247
2026-01-14 04:08:41.71	319.54	15.36	-32.3	-33.0	25.9	0.00e+00	0	28	0	3293577216	36	6431
2026-01-14 04:08:42.72	319.69	15.28	-32.2	-32.8	26.0	0.00e+00	0	28	0	3298820096	36	6305
2026-01-14 04:08:43.73	319.84	15.20	-32.4	-32.9	25.8	0.00e+00	0	27	0	3305111552	36	6384
2026-01-14 04:08:44.74	319.98	15.12	-32.4	-33.1	25.8	0.00e+00	0	27	0	3310354432	36	6492
2026-01-14 04:08:45.75	320.13	15.04	-32.5	-33.1	25.7	0.00e+00	0	28	0	3316645888	36	6516
2026-01-14 04:08:46.76	320.28	14.97	-32.5	-33.2	25.7	0.00e+00	0	27	0	3321888768	36	6597
2026-01-14 04:08:47.77	320.42	14.89	-32.5	-33.2	25.7	0.00e+00	0	28	0	3327131648	36	6612
2026-01-14 04:08:48.78	320.56	14.81	-32.5	-33.1	25.7	0.00e+00	0	27	0	3333423104	36	6497
2026-01-14 04:08:49.79	320.71	14.73	-32.6	-33.3	25.7	0.00e+00	0	28	0	3338665984	36	6680
2026-01-14 04:08:50.80	320.85	14.65	-32.8	-33.5	25.5	0.00e+00	0	28	0	3344957440	36	6818
2026-01-14 04:08:51.81	320.99	14.57	-32.7	-33.4	25.6	0.00e+00	0	28	0	3350200320	38	6000
2026-01-14 04:08:52.82	321.13	14.50	-32.7	-33.3	25.5	0.00e+00	0	28	0	3355443200	38	5908
2026-01-14 04:08:53.84	321.27	14.42	-32.7	-33.3	25.5	0.00e+00	0	28	0	3361734656	38	5932
2026-01-14 04:08:54.85	321.41	14.34	-32.7	-33.3	25.5	0.00e+00	0	28	0	3366977536	38	5957
2026-01-14 04:08:55.86	321.55	14.26	-32.7	-33.3	25.5	0.00e+00	0	27	0	3373268992	38	5919
2026-01-14 04:08:56.87	321.69	14.18	-32.7	-33.3	25.5	0.00e+00	0	28	0	3378511872	38	5949
2026-01-14 04:08:57.88	321.83	14.11	-32.9	-33.5	25.4	0.00e+00	0	27	0	3384803328	38	6069
2026-01-14 04:08:58.89	321.97	14.03	-32.8	-33.4	25.4	0.00e+00	0	28	0	3390046208	38	5981
2026-01-14 04:08:59.90	322.10	13.95	-32.7	-33.4	25.5	0.00e+00	0	28	0	3396337664	38	6032
2026-01-14 04:09:00.91	322.24	13.87	-32.8	-33.5	25.3	0.00e+00	0	28	0	3401580544	38	6095
2026-01-14 04:09:01.92	322.37	13.80	-32.9	-33.5	25.4	0.00e+00	0	27	0	3406823424	38	6090
2026-01-14 04:09:02.93	322.51	13.72	-32.8	-33.5	25.4	0.00e+00	0	28	0	3413114880	38	6065
2026-01-14 04:09:03.94	322.64	13.64	-32.9	-33.5	25.2	0.00e+00	0	28	0	3418357760	38	6098
2026-01-14 04:09:04.95	322.77	13.56	-33.0	-33.6	25.3	0.00e+00	0	28	0	3424649216	38	6148
2026-01-14 04:09:05.96	322.90	13.49	-33.1	-33.7	25.2	0.00e+00	0	28	0	3429892096	38	6186
2026-01-14 04:09:06.97	323.04	13.41	-33.2	-33.8	25.0	0.00e+00	0	27	0	3435134976	38	6255
2026-01-14 04:09:07.98	323.17	13.33	-33.1	-33.9	25.1	0.00e+00	0	28	0	3441426432	38	6333
2026-01-14 04:09:08.99	323.30	13.26	-33.2	-34.0	25.0	0.00e+00	0	28	0	3446669312	38	6399
2026-01-14 04:09:10.00	323.43	13.18	-33.1	-33.7	25.1	0.00e+00	0	28	0	3452960768	38	6217
2026-01-14 04:09:11.01	323.56	13.11	-33.2	-33.9	25.0	0.00e+00	0	28	0	3458203648	38	6365
2026-01-14 04:09:12.02	323.68	13.03	-33.1	-33.9	25.1	0.00e+00	0	28	0	3463446528	38	6346
2026-01-14 04:09:13.03	323.81	12.95	-33.2	-33.9	25.0	0.00e+00	0	28	0	3469737984	38	6378
2026-01-14 04:09:14.04	323.94	12.88	-33.1	-33.7	25.0	0.00e+00	0	27	0	3474980864	38	6240
2026-01-14 04:09:15.05	324.07	12.80	-33.2	-33.9	25.0	0.00e+00	0	27	0	3481272320	38	6371
2026-01-14 04:09:16.06	324.19	12.73	-33.3	-33.9	25.0	0.00e+00	0	28	0	3486515200	38	6350
2026-01-14 04:09:17.07	324.32	12.65	-33.2	-33.9	25.0	0.00e+00	0	27	0	3492806656	38	6388
2026-01-14 04:09:18.08	324.44	12.57	-33.2	-33.8	25.0	0.00e+00	0	28	0	3498049536	38	6304
2026-01-14 04:09:19.10	324.57	12.50	-33.1	-33.7	25.2	0.00e+00	0	28	0	3504340992	38	6222
2026-01-14 04:09:20.11	324.69	12.42	-33.2	-33.8	25.0	0.00e+00	0	28	0	3509583872	38	6263
2026-01-14 04:09:21.12	324.81	12.35	-33.0	-33.8	25.2	0.00e+00	0	27	0	3514826752	38	6264
2026-01-14 04:09:22.13	324.93	12.27	-33.1	-33.7	25.0	0.00e+00	0	27	0	3521118208	38	6228
2026-01-14 04:09:23.14	325.06	12.20	-33.2	-33.8	25.0	0.00e+00	0	27	0	3526361088	38	6278
2026-01-14 04:09:24.15	325.18	12.12	-33.0	-33.6	25.2	0.00e+00	0	28	0	3532652544	38	6142
2026-01-14 04:09:25.16	325.30	12.05	-33.0	-33.7	25.2	0.00e+00	0	27	0	3537895424	38	6238
2026-01-14 04:09:26.17	325.42	11.97	-33.0	-33.6	25.1	0.00e+00	0	28	0	3543138304	38	6158
2026-01-14 04:09:27.18	325.54	11.90	-33.0	-33.7	25.1	0.00e+00	0	27	0	3549429760	38	6232
2026-01-14 04:09:28.19	325.65	11.82	-33.2	-33.9	25.0	0.00e+00	0	28	0	3554672640	38	6364
2026-01-14 04:09:29.20	325.77	11.75	-33.1	-33.7	25.0	0.00e+00	0	27	0	3560964096	38	6240
2026-01-14 04:09:30.21	325.89	11.68	-33.3	-33.9	24.8	0.00e+00	0	28	0	3566206976	38	6366
2026-01-14 04:09:31.22	326.01	11.60	-33.3	-34.1	24.8	0.00e+00	0	27	0	3571449856	38	6499
2026-01-14 04:09:32.23	326.12	11.53	-33.4	-34.1	24.8	0.00e+00	0	27	0	3577741312	38	6468
2026-01-14 04:09:33.24	326.24	11.46	-33.4	-34.1	24.7	0.00e+00	0	27	0	3582984192	38	6475
2026-01-14 04:09:34.25	326.35	11.38	-33.4	-34.2	24.7	0.00e+00	0	28	0	3589275648	38	6591
