passes_logs/2026/01/14/R4.6S_Anadyr/R4.6S_Anadyr__20260114_184338_NOAA_20_JPSS-1_rec.log

#Pass ID: 20260114_184338_NOAA 20 (JPSS-1)
#Satellite: NOAA 20 (JPSS-1)
#Configuration: NOAA 20
#almurnet v.1.7.20251203
#Start time: 2026-01-14 18:43:39

#Version: 2.2.20231116
#Station: R4.6S_Anadyr
#Location: 177.4865 lon 64.73178 lat
#TLE: 1 43013U 17073A   26013.84982170  .00000053  00000+0  46215-4 0  9999
#TLE: 2 43013  98.7633 314.8013 0001544  40.9009 319.2282 14.19535753422575

#Time	Az	El	Level	Level2	SNR	BER	BlckErr	Temp	State	Recorded	gain1	gain2
2026-01-14 18:43:39.89	43.81	0.09	-48.8	-63.7	3.5	1.51e+00	0	26	0	0	60	55590
2026-01-14 18:43:40.90	43.74	0.14	-48.8	-64.0	3.6	1.51e+00	0	28	104	0	60	57162
2026-01-14 18:43:41.91	43.67	0.19	-48.8	-64.0	3.5	1.51e+00	0	28	104	0	60	57568
2026-01-14 18:43:42.92	43.59	0.24	-48.8	-64.0	3.6	1.51e+00	0	28	104	0	60	57310
2026-01-14 18:43:43.93	43.52	0.28	-48.8	-64.0	3.6	1.51e+00	0	28	104	0	60	57440
2026-01-14 18:43:44.94	43.44	0.33	-48.9	-64.0	3.5	1.51e+00	0	28	104	0	60	57568
2026-01-14 18:43:45.95	43.37	0.38	-48.9	-64.1	3.6	1.51e+00	0	28	104	0	60	57932
2026-01-14 18:43:46.96	43.29	0.43	-48.8	-64.0	3.6	1.51e+00	0	28	104	0	60	57401
2026-01-14 18:43:47.97	43.22	0.48	-48.7	-63.9	3.6	1.51e+00	0	28	104	0	60	56624
2026-01-14 18:43:48.98	43.14	0.53	-48.7	-63.9	3.6	1.51e+00	0	28	104	0	60	56834
2026-01-14 18:43:49.98	43.06	0.58	-48.7	-63.9	3.6	1.51e+00	0	28	104	0	60	56567
2026-01-14 18:43:50.99	42.99	0.63	-48.8	-63.9	3.6	1.51e+00	0	28	104	0	60	56837
2026-01-14 18:43:52.01	42.91	0.68	-48.5	-63.8	3.6	1.51e+00	0	28	104	0	60	55666
2026-01-14 18:43:53.01	42.83	0.73	-48.4	-63.6	3.6	1.51e+00	0	28	104	0	60	54459
2026-01-14 18:43:54.02	42.76	0.78	-48.2	-63.5	3.6	1.51e+00	0	28	104	0	60	53861
2026-01-14 18:43:55.03	42.68	0.83	-48.0	-63.1	3.6	1.51e+00	0	28	104	0	60	51921
2026-01-14 18:43:56.04	42.60	0.88	-47.4	-62.6	3.6	1.51e+00	0	28	104	0	60	48852
2026-01-14 18:43:57.05	42.52	0.94	-47.1	-62.3	3.6	1.51e+00	0	28	104	0	60	47272
2026-01-14 18:43:58.06	42.45	0.99	-47.1	-62.2	3.6	1.51e+00	0	28	104	0	60	46792
2026-01-14 18:43:59.07	42.37	1.04	-47.1	-62.2	3.6	1.51e+00	0	28	104	0	60	46567
2026-01-14 18:44:00.08	42.29	1.09	-47.1	-62.2	3.6	1.51e+00	0	28	104	0	60	46679
2026-01-14 18:44:01.09	42.21	1.14	-47.1	-62.2	3.6	1.51e+00	0	28	104	0	60	46596
2026-01-14 18:44:02.10	42.13	1.19	-47.1	-62.2	3.6	1.51e+00	0	28	104	0	60	46605
2026-01-14 18:44:03.11	42.05	1.24	-47.1	-62.2	3.6	1.51e+00	0	28	104	0	60	46727
2026-01-14 18:44:04.12	41.97	1.29	-47.1	-62.2	3.6	1.51e+00	0	28	104	0	60	46734
2026-01-14 18:44:05.13	41.89	1.34	-47.1	-62.3	3.6	1.51e+00	0	28	104	0	60	46855
2026-01-14 18:44:06.14	41.81	1.39	-47.1	-62.2	3.6	1.51e+00	0	28	104	0	60	46409
2026-01-14 18:44:07.15	41.73	1.44	-47.1	-62.2	3.6	1.51e+00	0	28	104	0	60	46528
2026-01-14 18:44:08.16	41.65	1.49	-47.1	-62.2	3.6	1.51e+00	0	28	104	0	60	46444
2026-01-14 18:44:09.17	41.56	1.54	-47.1	-62.2	3.6	1.51e+00	0	28	104	0	60	46496
2026-01-14 18:44:10.18	41.48	1.59	-47.1	-62.2	3.6	1.51e+00	0	28	104	0	60	46489
2026-01-14 18:44:11.19	41.40	1.64	-47.1	-62.2	3.6	1.51e+00	0	28	104	0	60	46565
2026-01-14 18:44:12.20	41.32	1.69	-47.1	-62.2	3.6	1.51e+00	0	28	104	0	60	46569
2026-01-14 18:44:13.21	41.24	1.74	-47.0	-62.2	3.6	1.51e+00	0	28	104	0	60	46703
2026-01-14 18:44:14.22	41.15	1.80	-47.0	-62.2	3.6	1.51e+00	0	28	104	0	60	46470
2026-01-14 18:44:15.23	41.07	1.85	-47.1	-62.2	3.6	1.51e+00	0	28	104	0	60	46577
2026-01-14 18:44:16.24	40.99	1.90	-47.0	-62.1	3.6	1.51e+00	0	28	104	0	60	45977
2026-01-14 18:44:17.25	40.90	1.95	-47.0	-62.0	3.6	1.51e+00	0	28	104	0	60	45688
2026-01-14 18:44:18.25	40.82	2.00	-47.0	-61.9	3.6	1.51e+00	0	28	104	0	60	44996
2026-01-14 18:44:19.26	40.73	2.05	-47.0	-61.8	3.6	1.51e+00	0	28	104	0	60	44617
2026-01-14 18:44:20.27	40.65	2.10	-47.0	-61.8	3.6	1.51e+00	0	28	104	0	60	44313
2026-01-14 18:44:21.28	40.56	2.15	-47.0	-61.9	3.6	1.51e+00	0	28	104	0	60	45023
2026-01-14 18:44:22.29	40.48	2.20	-47.0	-62.1	3.6	1.51e+00	0	28	104	0	60	45927
2026-01-14 18:44:23.30	40.39	2.25	-47.1	-62.2	3.6	1.51e+00	0	28	104	0	60	46383
2026-01-14 18:44:24.31	40.31	2.31	-47.0	-62.2	3.6	1.51e+00	0	28	104	0	60	46624
2026-01-14 18:44:25.32	40.22	2.36	-47.0	-62.2	3.6	1.51e+00	0	28	104	0	60	46408
2026-01-14 18:44:26.33	40.13	2.41	-47.0	-62.2	3.6	1.51e+00	0	28	104	0	60	46373
2026-01-14 18:44:27.34	40.05	2.46	-47.0	-62.2	3.6	1.51e+00	0	28	104	0	60	46539
2026-01-14 18:44:28.35	39.96	2.51	-47.0	-62.1	3.6	1.51e+00	0	28	104	0	60	46056
2026-01-14 18:44:29.36	39.87	2.56	-47.0	-61.7	3.6	1.51e+00	0	28	104	0	60	43985
2026-01-14 18:44:30.37	39.78	2.61	-47.0	-61.2	3.6	1.51e+00	0	28	104	0	60	41638
2026-01-14 18:44:31.37	39.70	2.66	-47.0	-61.2	3.6	1.51e+00	0	28	104	0	60	41560
2026-01-14 18:44:32.38	39.61	2.72	-47.0	-61.8	3.6	1.51e+00	0	28	104	0	60	44537
2026-01-14 18:44:33.39	39.52	2.77	-47.0	-61.7	3.6	1.51e+00	0	28	104	0	60	43807
2026-01-14 18:44:34.40	39.43	2.82	-46.9	-58.8	4.1	1.48e+00	0	28	104	0	60	31654
2026-01-14 18:44:35.41	39.34	2.87	-46.5	-54.1	6.0	6.71e-01	0	29	0	1048576	60	18368
2026-01-14 18:44:36.42	39.25	2.92	-46.0	-52.0	8.5	1.38e-01	6	28	0	3145728	60	14454
2026-01-14 18:44:37.43	39.16	2.97	-45.6	-50.9	10.1	1.24e-02	92	28	0	5242880	60	12660
2026-01-14 18:44:38.44	39.07	3.02	-44.8	-48.7	11.8	2.76e-03	6	28	0	6291456	60	9811
2026-01-14 18:44:39.45	38.98	3.08	-47.0	-57.6	4.5	1.22e+00	92	28	104	7340032	60	27411
2026-01-14 18:44:40.46	38.89	3.13	-45.4	-50.4	11.0	8.22e-01	5	28	104	7340032	60	11922
2026-01-14 18:44:41.47	38.80	3.18	-43.3	-45.8	16.0	4.84e-02	92	28	0	8388608	60	7025
2026-01-14 18:44:42.48	38.71	3.23	-44.7	-48.7	10.2	0.00e+00	3	28	0	9437184	58	11018
2026-01-14 18:44:43.49	38.61	3.28	-46.8	-58.0	4.2	1.51e+00	0	29	104	10485760	60	28819
2026-01-14 18:44:44.50	38.52	3.34	-43.1	-45.7	15.3	0.00e+00	92	29	104	10485760	60	6984
2026-01-14 18:44:45.51	38.43	3.39	-42.7	-45.0	16.4	0.00e+00	14	28	0	11534336	60	6454
2026-01-14 18:44:46.52	38.33	3.44	-42.5	-44.7	16.5	0.00e+00	92	28	0	13631488	58	6969
2026-01-14 18:44:47.53	38.24	3.49	-42.4	-44.5	16.8	0.00e+00	15	29	0	15728640	58	6784
2026-01-14 18:44:48.53	38.15	3.54	-42.4	-44.6	16.8	0.00e+00	13	28	0	17825792	58	6877
2026-01-14 18:44:49.54	38.05	3.59	-42.3	-44.3	17.1	0.00e+00	6	29	0	18874368	58	6679
2026-01-14 18:44:50.55	37.96	3.65	-42.4	-44.4	17.0	0.00e+00	17	28	0	20971520	58	6759
2026-01-14 18:44:51.56	37.86	3.70	-42.3	-44.4	16.9	0.00e+00	0	29	0	23068672	58	6735
2026-01-14 18:44:52.57	37.77	3.75	-42.5	-44.6	16.8	0.00e+00	71	29	0	25165824	58	6885
2026-01-14 18:44:53.58	37.67	3.80	-42.3	-44.3	17.1	0.00e+00	91	29	0	27262976	58	6667
2026-01-14 18:44:54.59	37.58	3.85	-42.3	-44.3	17.1	0.00e+00	2	28	0	28311552	58	6676
2026-01-14 18:44:55.60	37.48	3.91	-42.2	-44.2	17.3	0.00e+00	92	29	0	30408704	58	6615
2026-01-14 18:44:56.61	37.38	3.96	-42.6	-44.7	16.8	0.00e+00	2	29	0	32505856	58	6953
2026-01-14 18:44:57.62	37.29	4.01	-42.6	-44.7	16.7	0.00e+00	3	28	0	34603008	58	6973
2026-01-14 18:44:58.63	37.19	4.06	-42.4	-44.5	17.0	0.00e+00	0	29	0	36700160	58	6808
2026-01-14 18:44:59.64	37.09	4.11	-42.6	-44.7	16.8	0.00e+00	5	29	0	37748736	58	7005
2026-01-14 18:45:00.65	36.99	4.17	-42.4	-44.4	17.1	0.00e+00	92	29	0	39845888	58	6721
2026-01-14 18:45:01.66	36.90	4.22	-42.7	-44.9	16.7	0.00e+00	4	29	0	41943040	58	7116
2026-01-14 18:45:02.67	36.80	4.27	-42.2	-44.2	17.3	0.00e+00	92	29	0	44040192	58	6578
2026-01-14 18:45:03.68	36.70	4.32	-42.3	-44.3	17.3	0.00e+00	16	29	0	46137344	58	6673
2026-01-14 18:45:04.69	36.60	4.38	-42.4	-44.4	17.3	0.00e+00	4	29	0	47185920	58	6730
2026-01-14 18:45:05.70	36.50	4.43	-42.4	-44.4	17.2	0.00e+00	5	29	0	49283072	58	6701
2026-01-14 18:45:06.71	36.40	4.48	-42.2	-44.2	17.5	0.00e+00	16	29	0	51380224	58	6570
2026-01-14 18:45:07.72	36.30	4.53	-42.3	-44.3	17.4	0.00e+00	92	29	0	53477376	58	6679
2026-01-14 18:45:08.73	36.20	4.59	-42.2	-44.1	17.4	0.00e+00	16	28	0	55574528	58	6529
2026-01-14 18:45:09.74	36.10	4.64	-42.3	-44.3	17.4	0.00e+00	92	29	0	57671680	58	6649
2026-01-14 18:45:10.74	35.99	4.69	-42.2	-44.1	17.3	0.00e+00	64	29	0	58720256	58	6530
2026-01-14 18:45:11.75	35.89	4.74	-42.6	-44.6	17.1	0.00e+00	64	29	0	60817408	58	6909
2026-01-14 18:45:12.76	35.79	4.79	-42.6	-44.7	17.1	0.00e+00	64	29	0	62914560	58	6957
2026-01-14 18:45:13.77	35.69	4.85	-42.5	-44.5	17.2	0.00e+00	0	29	0	65011712	58	6791
2026-01-14 18:45:14.77	35.58	4.90	-42.6	-44.7	17.0	0.00e+00	12	29	0	67108864	58	6972
2026-01-14 18:45:15.79	35.48	4.95	-42.4	-44.4	17.3	0.00e+00	64	29	0	68157440	58	6743
2026-01-14 18:45:16.79	35.38	5.00	-42.5	-44.6	17.1	0.00e+00	92	29	0	70254592	58	6865
2026-01-14 18:45:17.80	35.27	5.06	-42.4	-44.3	17.4	0.00e+00	0	29	0	72351744	58	6692
2026-01-14 18:45:18.82	35.17	5.11	-42.5	-44.5	17.3	0.00e+00	41	29	0	74448896	58	6820
2026-01-14 18:45:19.82	35.06	5.16	-42.5	-44.5	17.1	0.00e+00	0	29	0	76546048	58	6792
2026-01-14 18:45:20.84	34.96	5.21	-42.3	-44.2	17.7	0.00e+00	0	29	0	77594624	58	6586
2026-01-14 18:45:21.84	34.85	5.27	-41.9	-43.7	17.9	0.00e+00	0	29	0	79691776	58	6228
2026-01-14 18:45:22.86	34.74	5.32	-41.8	-43.6	18.1	0.00e+00	2	29	0	81788928	58	6114
2026-01-14 18:45:23.86	34.64	5.37	-41.7	-43.5	18.3	0.00e+00	92	29	0	83886080	56	6770
2026-01-14 18:45:24.88	34.53	5.42	-41.5	-43.1	18.7	0.00e+00	0	29	0	85983232	56	6512
2026-01-14 18:45:25.89	34.42	5.48	-41.5	-43.2	18.6	0.00e+00	91	29	0	87031808	56	6566
2026-01-14 18:45:26.89	34.31	5.53	-41.5	-43.2	18.6	0.00e+00	16	29	0	89128960	56	6558
2026-01-14 18:45:27.90	34.21	5.58	-41.4	-43.0	18.8	0.00e+00	16	29	0	91226112	56	6407
2026-01-14 18:45:28.91	34.10	5.63	-41.5	-43.1	18.6	0.00e+00	0	29	0	93323264	56	6514
2026-01-14 18:45:29.92	33.99	5.69	-41.3	-42.8	18.9	0.00e+00	16	29	0	95420416	56	6316
2026-01-14 18:45:30.93	33.88	5.74	-41.3	-42.9	18.9	0.00e+00	92	29	0	96468992	56	6383
2026-01-14 18:45:31.94	33.77	5.79	-41.3	-42.9	18.7	0.00e+00	16	29	0	98566144	56	6337
2026-01-14 18:45:32.95	33.66	5.84	-41.4	-43.0	18.8	0.00e+00	91	29	0	100663296	56	6426
2026-01-14 18:45:33.96	33.55	5.90	-41.3	-42.8	18.5	0.00e+00	65	29	0	102760448	56	6304
2026-01-14 18:45:34.97	33.44	5.95	-41.2	-42.8	18.9	0.00e+00	64	29	0	104857600	56	6246
2026-01-14 18:45:35.98	33.32	6.00	-41.2	-42.7	19.1	0.00e+00	2	29	0	105906176	56	6218
2026-01-14 18:45:36.99	33.21	6.06	-41.2	-42.8	19.0	0.00e+00	2	29	0	108003328	56	6294
2026-01-14 18:45:38.00	33.10	6.11	-41.3	-42.9	18.9	0.00e+00	2	28	0	110100480	56	6374
2026-01-14 18:45:39.00	32.99	6.16	-41.4	-43.1	18.8	0.00e+00	0	29	0	112197632	56	6473
2026-01-14 18:45:40.02	32.87	6.21	-41.4	-43.0	18.9	0.00e+00	91	29	0	114294784	56	6397
2026-01-14 18:45:41.03	32.76	6.27	-41.5	-43.1	18.7	0.00e+00	0	29	0	115343360	56	6519
2026-01-14 18:45:42.04	32.65	6.32	-41.2	-42.7	19.2	0.00e+00	90	29	0	117440512	56	6200
2026-01-14 18:45:43.04	32.53	6.37	-41.2	-42.7	19.1	0.00e+00	0	29	0	119537664	56	6240
2026-01-14 18:45:44.05	32.42	6.42	-41.0	-42.5	19.4	0.00e+00	0	29	0	121634816	56	6064
2026-01-14 18:45:45.06	32.30	6.48	-41.0	-42.5	19.5	0.00e+00	0	29	0	123731968	56	6054
2026-01-14 18:45:46.07	32.19	6.53	-41.0	-42.5	19.4	0.00e+00	0	29	0	125829120	56	6076
2026-01-14 18:45:47.07	32.07	6.58	-41.1	-42.6	19.3	0.00e+00	92	29	0	126877696	56	6124
2026-01-14 18:45:48.08	31.95	6.63	-40.9	-42.4	19.5	0.00e+00	17	29	0	128974848	56	5986
2026-01-14 18:45:49.09	31.84	6.69	-40.9	-42.3	19.6	0.00e+00	92	29	0	131072000	56	5947
2026-01-14 18:45:50.10	31.72	6.74	-40.7	-42.1	19.7	0.00e+00	18	29	0	133169152	54	6487
2026-01-14 18:45:51.11	31.60	6.79	-40.8	-42.2	19.6	0.00e+00	63	29	0	135266304	54	6570
2026-01-14 18:45:52.12	31.48	6.84	-40.7	-42.1	19.7	0.00e+00	65	29	0	136314880	54	6515
2026-01-14 18:45:53.13	31.36	6.90	-40.6	-42.0	19.8	0.00e+00	66	29	0	138412032	54	6447
2026-01-14 18:45:54.14	31.24	6.95	-40.6	-42.0	19.8	0.00e+00	63	29	0	140509184	54	6454
2026-01-14 18:45:55.15	31.12	7.00	-40.7	-42.1	19.8	0.00e+00	0	29	0	142606336	54	6475
2026-01-14 18:45:56.16	31.00	7.05	-40.9	-42.3	19.6	0.00e+00	92	29	0	143654912	54	6648
2026-01-14 18:45:57.17	30.88	7.11	-40.8	-42.2	19.7	0.00e+00	0	29	0	145752064	54	6561
2026-01-14 18:45:58.17	30.76	7.16	-40.9	-42.4	19.5	0.00e+00	63	29	0	147849216	54	6718
2026-01-14 18:45:59.18	30.64	7.21	-40.9	-42.3	19.5	0.00e+00	0	29	0	149946368	54	6681
2026-01-14 18:46:00.19	30.52	7.26	-40.8	-42.2	19.7	0.00e+00	0	29	0	152043520	54	6599
2026-01-14 18:46:01.21	30.40	7.32	-40.8	-42.3	19.6	0.00e+00	84	29	0	154140672	54	6633
2026-01-14 18:46:02.21	30.27	7.37	-41.0	-42.4	19.5	0.00e+00	0	29	0	155189248	54	6755
2026-01-14 18:46:03.22	30.15	7.42	-40.8	-42.3	19.6	0.00e+00	92	29	0	157286400	54	6625
2026-01-14 18:46:04.23	30.03	7.47	-40.9	-42.3	19.6	0.00e+00	0	29	0	159383552	54	6664
2026-01-14 18:46:05.24	29.90	7.53	-40.9	-42.3	19.6	0.00e+00	60	29	0	161480704	54	6689
2026-01-14 18:46:06.25	29.78	7.58	-40.8	-42.2	19.8	0.00e+00	0	29	0	163577856	54	6564
2026-01-14 18:46:07.26	29.65	7.63	-40.7	-42.2	19.8	0.00e+00	0	29	0	164626432	54	6540
2026-01-14 18:46:08.26	29.53	7.68	-40.6	-41.9	20.0	0.00e+00	0	29	0	166723584	54	6380
2026-01-14 18:46:09.27	29.40	7.73	-40.6	-42.0	19.9	0.00e+00	16	29	0	168820736	54	6434
2026-01-14 18:46:10.28	29.28	7.79	-40.6	-41.9	19.9	0.00e+00	90	29	0	170917888	54	6384
2026-01-14 18:46:11.29	29.15	7.84	-40.6	-41.9	20.0	0.00e+00	0	29	0	173015040	54	6389
2026-01-14 18:46:12.30	29.02	7.89	-40.5	-41.9	20.0	0.00e+00	92	29	0	174063616	54	6347
2026-01-14 18:46:13.31	28.89	7.94	-40.5	-41.9	20.1	0.00e+00	16	29	0	176160768	54	6335
2026-01-14 18:46:14.32	28.76	8.00	-40.3	-41.6	20.3	0.00e+00	16	29	0	178257920	54	6139
2026-01-14 18:46:15.33	28.64	8.05	-40.3	-41.6	20.3	0.00e+00	64	29	0	180355072	54	6168
2026-01-14 18:46:16.34	28.51	8.10	-40.3	-41.7	20.3	0.00e+00	63	29	0	182452224	54	6181
2026-01-14 18:46:17.35	28.38	8.15	-40.5	-41.8	20.2	0.00e+00	18	29	0	183500800	54	6278
2026-01-14 18:46:18.36	28.25	8.20	-40.5	-41.9	20.1	0.00e+00	0	29	0	185597952	54	6324
2026-01-14 18:46:19.37	28.11	8.26	-40.5	-41.8	20.2	0.00e+00	92	29	0	187695104	54	6278
2026-01-14 18:46:20.38	27.98	8.31	-40.4	-41.7	20.3	0.00e+00	0	29	0	189792256	54	6212
2026-01-14 18:46:21.39	27.85	8.36	-40.4	-41.7	20.3	0.00e+00	1	29	0	191889408	54	6221
2026-01-14 18:46:22.39	27.72	8.41	-40.3	-41.6	20.3	0.00e+00	67	29	0	192937984	54	6136
2026-01-14 18:46:23.40	27.59	8.46	-40.5	-41.8	20.3	0.00e+00	0	29	0	195035136	54	6283
2026-01-14 18:46:24.41	27.45	8.51	-40.4	-41.8	20.2	0.00e+00	12	29	0	197132288	54	6263
2026-01-14 18:46:25.42	27.32	8.57	-40.4	-41.7	20.3	0.00e+00	0	29	0	199229440	54	6195
2026-01-14 18:46:26.43	27.19	8.62	-40.3	-41.7	20.3	0.00e+00	92	29	0	201326592	54	6178
2026-01-14 18:46:27.44	27.05	8.67	-40.4	-41.7	20.3	0.00e+00	0	29	0	202375168	54	6186
2026-01-14 18:46:28.45	26.92	8.72	-40.4	-41.7	20.2	0.00e+00	56	29	0	204472320	54	6214
2026-01-14 18:46:29.45	26.78	8.77	-40.3	-41.6	20.3	0.00e+00	2	29	0	206569472	54	6168
2026-01-14 18:46:30.47	26.64	8.82	-40.4	-41.7	20.3	0.00e+00	16	29	0	208666624	54	6232
2026-01-14 18:46:31.47	26.51	8.88	-40.4	-41.7	20.2	0.00e+00	0	29	0	210763776	54	6210
2026-01-14 18:46:32.48	26.37	8.93	-40.5	-41.8	20.2	0.00e+00	16	29	0	211812352	54	6306
2026-01-14 18:46:33.49	26.23	8.98	-40.4	-41.7	20.3	0.00e+00	92	29	0	213909504	54	6218
2026-01-14 18:46:34.50	26.10	9.03	-40.3	-41.6	20.4	0.00e+00	5	29	0	216006656	54	6135
2026-01-14 18:46:35.51	25.96	9.08	-40.6	-41.9	20.2	0.00e+00	82	29	0	218103808	54	6375
2026-01-14 18:46:36.52	25.82	9.13	-40.2	-41.5	20.5	0.00e+00	16	29	0	220200960	54	6083
2026-01-14 18:46:37.53	25.68	9.18	-40.3	-41.6	20.4	0.00e+00	69	29	0	222298112	54	6168
2026-01-14 18:46:38.54	25.54	9.23	-40.2	-41.4	20.6	0.00e+00	72	29	0	223346688	54	6031
2026-01-14 18:46:39.55	25.40	9.29	-40.1	-41.4	20.7	0.00e+00	17	29	0	225443840	54	5975
2026-01-14 18:46:40.56	25.26	9.34	-40.3	-41.6	20.5	0.00e+00	92	29	0	227540992	54	6127
2026-01-14 18:46:41.57	25.11	9.39	-40.1	-41.4	20.7	0.00e+00	3	29	0	229638144	54	5978
2026-01-14 18:46:42.58	24.97	9.44	-40.2	-41.5	20.6	0.00e+00	92	29	0	231735296	54	6062
2026-01-14 18:46:43.59	24.83	9.49	-40.1	-41.4	20.6	0.00e+00	71	29	0	232783872	54	5987
2026-01-14 18:46:44.59	24.69	9.54	-40.2	-41.4	20.7	0.00e+00	37	29	0	234881024	54	6027
2026-01-14 18:46:45.60	24.54	9.59	-40.2	-41.5	20.5	0.00e+00	69	29	0	236978176	54	6057
2026-01-14 18:46:46.61	24.40	9.64	-40.2	-41.4	20.5	0.00e+00	2	29	0	239075328	54	6013
2026-01-14 18:46:47.62	24.25	9.69	-40.3	-41.5	20.4	0.00e+00	0	29	0	241172480	54	6092
2026-01-14 18:46:48.63	24.11	9.74	-40.1	-41.3	20.7	0.00e+00	1	29	0	242221056	54	5930
2026-01-14 18:46:49.64	23.96	9.79	-40.2	-41.5	20.6	0.00e+00	92	29	0	244318208	54	6036
2026-01-14 18:46:50.65	23.82	9.84	-40.2	-41.4	20.6	0.00e+00	4	29	0	246415360	54	6016
2026-01-14 18:46:51.66	23.67	9.89	-40.2	-41.4	20.6	0.00e+00	18	29	0	248512512	54	6015
2026-01-14 18:46:52.67	23.52	9.94	-40.3	-41.6	20.4	0.00e+00	17	29	0	250609664	54	6120
2026-01-14 18:46:53.68	23.38	9.99	-40.2	-41.5	20.6	0.00e+00	14	29	0	251658240	54	6079
2026-01-14 18:46:54.69	23.23	10.04	-40.3	-41.5	20.6	0.00e+00	0	29	0	253755392	54	6085
2026-01-14 18:46:55.70	23.08	10.09	-40.1	-41.4	20.7	0.00e+00	14	29	0	255852544	54	5991
2026-01-14 18:46:56.71	22.93	10.14	-40.1	-41.4	20.6	0.00e+00	92	29	0	257949696	54	5995
2026-01-14 18:46:57.72	22.78	10.19	-40.1	-41.3	20.8	0.00e+00	13	29	0	260046848	54	5949
2026-01-14 18:46:58.73	22.63	10.24	-40.2	-41.4	20.8	0.00e+00	92	29	0	261095424	54	6017
2026-01-14 18:46:59.73	22.48	10.29	-40.0	-41.2	20.9	0.00e+00	12	29	0	263192576	54	5858
2026-01-14 18:47:00.74	22.33	10.34	-40.0	-41.3	20.8	0.00e+00	69	29	0	265289728	54	5913
2026-01-14 18:47:01.75	22.18	10.39	-39.8	-41.0	21.1	0.00e+00	68	29	0	267386880	52	6436
2026-01-14 18:47:02.76	22.02	10.44	-39.8	-41.0	21.1	0.00e+00	63	29	0	269484032	52	6434
2026-01-14 18:47:03.77	21.87	10.49	-39.8	-41.0	21.0	0.00e+00	16	29	0	270532608	52	6450
2026-01-14 18:47:04.77	21.72	10.54	-39.8	-41.0	21.1	0.00e+00	62	29	0	272629760	52	6431
2026-01-14 18:47:05.78	21.56	10.58	-39.8	-41.0	21.1	0.00e+00	91	29	0	274726912	52	6436
2026-01-14 18:47:06.79	21.41	10.63	-39.6	-40.8	21.3	0.00e+00	2	29	0	276824064	52	6247
2026-01-14 18:47:07.80	21.25	10.68	-39.5	-40.6	21.4	0.00e+00	62	29	0	278921216	52	6144
2026-01-14 18:47:08.81	21.10	10.73	-39.5	-40.7	21.4	0.00e+00	0	29	0	279969792	52	6190
2026-01-14 18:47:09.82	20.94	10.78	-39.3	-40.4	21.7	0.00e+00	0	29	0	282066944	52	6015
2026-01-14 18:47:10.83	20.79	10.83	-39.4	-40.5	21.6	0.00e+00	0	29	0	284164096	52	6091
2026-01-14 18:47:11.84	20.63	10.88	-39.4	-40.5	21.6	0.00e+00	0	29	0	286261248	52	6057
2026-01-14 18:47:12.85	20.47	10.92	-39.4	-40.5	21.5	0.00e+00	92	29	0	288358400	52	6093
2026-01-14 18:47:13.86	20.31	10.97	-39.3	-40.4	21.5	0.00e+00	0	29	0	290455552	52	6010
2026-01-14 18:47:14.87	20.15	11.02	-39.2	-40.3	21.7	0.00e+00	92	29	0	291504128	52	5953
2026-01-14 18:47:15.88	19.99	11.07	-39.2	-40.3	21.7	0.00e+00	0	29	0	293601280	52	5950
2026-01-14 18:47:16.88	19.84	11.11	-39.1	-40.2	21.9	0.00e+00	0	29	0	295698432	52	5834
2026-01-14 18:47:17.89	19.68	11.16	-39.1	-40.2	21.9	0.00e+00	0	29	0	297795584	52	5870
2026-01-14 18:47:18.90	19.51	11.21	-39.1	-40.2	21.8	0.00e+00	18	29	0	298844160	52	5875
2026-01-14 18:47:19.91	19.35	11.26	-39.1	-40.1	21.9	0.00e+00	92	29	0	300941312	52	5824
2026-01-14 18:47:20.92	19.19	11.30	-38.8	-39.8	22.3	0.00e+00	64	29	0	303038464	52	5594
2026-01-14 18:47:21.92	19.03	11.35	-38.8	-39.8	22.2	0.00e+00	92	29	0	305135616	50	6304
2026-01-14 18:47:22.93	18.87	11.40	-38.8	-39.8	22.3	0.00e+00	4	29	0	307232768	50	6294
2026-01-14 18:47:23.94	18.70	11.44	-38.6	-39.6	22.4	0.00e+00	13	29	0	308281344	50	6140
2026-01-14 18:47:24.95	18.54	11.49	-38.6	-39.7	22.3	0.00e+00	67	29	0	310378496	50	6191
2026-01-14 18:47:25.96	18.38	11.54	-38.7	-39.7	22.4	0.00e+00	0	29	0	312475648	50	6221
2026-01-14 18:47:26.97	18.21	11.58	-38.6	-39.6	22.4	0.00e+00	2	29	0	314572800	50	6173
2026-01-14 18:47:27.98	18.04	11.63	-38.5	-39.6	22.5	0.00e+00	67	29	0	316669952	50	6107
2026-01-14 18:47:28.99	17.88	11.67	-38.5	-39.5	22.4	0.00e+00	92	29	0	318767104	50	6103
2026-01-14 18:47:30.00	17.71	11.72	-38.6	-39.6	22.5	0.00e+00	0	29	0	319815680	50	6140
2026-01-14 18:47:31.01	17.54	11.77	-38.5	-39.5	22.5	0.00e+00	51	29	0	321912832	50	6063
2026-01-14 18:47:32.02	17.38	11.81	-38.5	-39.6	22.5	0.00e+00	2	29	0	324009984	50	6109
2026-01-14 18:47:33.03	17.21	11.86	-38.4	-39.4	22.7	0.00e+00	0	29	0	326107136	50	5980
2026-01-14 18:47:34.04	17.04	11.90	-38.2	-39.2	22.8	0.00e+00	0	29	0	328204288	50	5869
2026-01-14 18:47:35.05	16.87	11.95	-38.3	-39.3	22.7	0.00e+00	0	29	0	329252864	50	5928
2026-01-14 18:47:36.05	16.70	11.99	-38.4	-39.4	22.7	0.00e+00	90	29	0	331350016	50	5975
2026-01-14 18:47:37.06	16.53	12.04	-38.4	-39.4	22.7	0.00e+00	19	29	0	333447168	50	6006
2026-01-14 18:47:38.07	16.36	12.08	-38.3	-39.3	22.7	0.00e+00	92	29	0	335544320	50	5926
2026-01-14 18:47:39.08	16.19	12.13	-38.5	-39.5	22.6	0.00e+00	0	29	0	337641472	50	6059
2026-01-14 18:47:40.09	16.02	12.17	-38.1	-39.1	22.9	0.00e+00	0	29	0	338690048	50	5779
2026-01-14 18:47:41.10	15.84	12.21	-37.9	-38.8	23.1	0.00e+00	0	29	0	340787200	50	5604
2026-01-14 18:47:42.11	15.67	12.26	-37.8	-38.8	23.2	0.00e+00	19	29	0	342884352	50	5567
2026-01-14 18:47:43.12	15.50	12.30	-37.9	-38.8	23.1	0.00e+00	82	29	0	344981504	50	5627
2026-01-14 18:47:44.13	15.32	12.34	-38.1	-39.1	22.9	0.00e+00	61	29	0	347078656	50	5796
2026-01-14 18:47:45.14	15.15	12.39	-37.7	-38.6	23.3	0.00e+00	92	29	0	348127232	50	5495
2026-01-14 18:47:46.15	14.97	12.43	-37.8	-38.8	23.2	0.00e+00	0	29	0	350224384	48	6263
2026-01-14 18:47:47.16	14.80	12.47	-37.8	-38.7	23.3	0.00e+00	0	29	0	352321536	48	6208
2026-01-14 18:47:48.17	14.62	12.52	-37.8	-38.7	23.3	0.00e+00	63	29	0	354418688	48	6207
2026-01-14 18:47:49.18	14.45	12.56	-37.8	-38.7	23.3	0.00e+00	62	29	0	356515840	48	6231
2026-01-14 18:47:50.18	14.27	12.60	-37.8	-38.7	23.2	0.00e+00	2	29	0	357564416	48	6218
2026-01-14 18:47:51.19	14.09	12.64	-37.8	-38.7	23.3	0.00e+00	2	29	0	359661568	48	6221
2026-01-14 18:47:52.20	13.91	12.69	-37.9	-38.9	23.1	0.00e+00	91	29	0	361758720	48	6326
2026-01-14 18:47:53.21	13.74	12.73	-38.1	-39.1	23.0	0.00e+00	0	29	0	363855872	48	6479
2026-01-14 18:47:54.22	13.56	12.77	-38.0	-39.0	23.0	0.00e+00	47	29	0	365953024	48	6433
2026-01-14 18:47:55.23	13.38	12.81	-38.0	-39.0	23.0	0.00e+00	0	29	0	367001600	48	6395
2026-01-14 18:47:56.24	13.20	12.85	-37.9	-38.8	22.9	0.00e+00	0	29	0	369098752	48	6267
2026-01-14 18:47:57.25	13.02	12.89	-38.0	-39.0	23.1	0.00e+00	0	29	0	371195904	48	6408
2026-01-14 18:47:58.26	12.83	12.93	-38.0	-39.0	23.1	0.00e+00	11	29	0	373293056	48	6396
2026-01-14 18:47:59.27	12.65	12.97	-38.0	-39.0	23.0	0.00e+00	91	29	0	375390208	48	6426
2026-01-14 18:48:00.27	12.47	13.01	-38.1	-39.1	22.9	0.00e+00	12	29	0	376438784	48	6500
2026-01-14 18:48:01.29	12.29	13.05	-38.2	-39.2	22.8	0.00e+00	92	29	0	378535936	48	6555
2026-01-14 18:48:02.29	12.11	13.09	-38.3	-39.3	22.8	0.00e+00	2	29	0	380633088	48	6674
2026-01-14 18:48:03.30	11.92	13.13	-38.4	-39.4	22.8	0.00e+00	0	29	0	382730240	48	6743
2026-01-14 18:48:04.31	11.74	13.17	-38.2	-39.2	22.8	0.00e+00	63	29	0	384827392	48	6563
2026-01-14 18:48:05.32	11.55	13.21	-38.3	-39.3	22.9	0.00e+00	63	29	0	386924544	48	6649
2026-01-14 18:48:06.33	11.37	13.25	-38.4	-39.4	22.7	0.00e+00	91	29	0	387973120	48	6744
2026-01-14 18:48:07.34	11.18	13.29	-38.1	-39.1	22.9	0.00e+00	63	29	0	390070272	48	6512
2026-01-14 18:48:08.35	11.00	13.33	-38.2	-39.2	22.9	0.00e+00	92	29	0	392167424	48	6544
2026-01-14 18:48:09.36	10.81	13.36	-38.1	-39.1	23.0	0.00e+00	63	29	0	394264576	48	6514
2026-01-14 18:48:10.37	10.62	13.40	-38.3	-39.3	22.7	0.00e+00	0	29	0	396361728	48	6648
2026-01-14 18:48:11.38	10.43	13.44	-37.9	-38.9	23.0	0.00e+00	5	29	0	397410304	48	6322
2026-01-14 18:48:12.39	10.24	13.48	-38.1	-39.1	22.9	0.00e+00	1	29	0	399507456	48	6470
2026-01-14 18:48:13.40	10.06	13.51	-38.0	-38.9	23.1	0.00e+00	14	29	0	401604608	48	6359
2026-01-14 18:48:14.41	9.87	13.55	-38.1	-39.0	23.0	0.00e+00	6	29	0	403701760	48	6440
2026-01-14 18:48:15.42	9.68	13.59	-38.2	-39.1	23.0	0.00e+00	92	29	0	405798912	48	6516
2026-01-14 18:48:16.43	9.49	13.62	-38.3	-39.3	22.8	0.00e+00	6	29	0	406847488	48	6629
2026-01-14 18:48:17.44	9.30	13.66	-38.2	-39.2	23.0	0.00e+00	45	29	0	408944640	48	6576
2026-01-14 18:48:18.45	9.11	13.70	-38.0	-39.0	23.1	0.00e+00	6	29	0	411041792	48	6400
2026-01-14 18:48:19.46	8.91	13.73	-38.0	-39.0	23.1	0.00e+00	15	29	0	413138944	48	6413
2026-01-14 18:48:20.47	8.72	13.77	-38.0	-38.9	23.1	0.00e+00	0	29	0	415236096	48	6362
2026-01-14 18:48:21.48	8.53	13.80	-38.0	-39.0	23.0	0.00e+00	5	29	0	416284672	48	6410
2026-01-14 18:48:22.49	8.34	13.84	-38.1	-39.0	22.9	0.00e+00	91	29	0	418381824	48	6457
2026-01-14 18:48:23.50	8.14	13.87	-38.2	-39.2	22.8	0.00e+00	7	29	0	420478976	48	6568
2026-01-14 18:48:24.51	7.95	13.91	-38.1	-39.0	23.0	0.00e+00	92	29	0	422576128	48	6447
2026-01-14 18:48:25.51	7.76	13.94	-38.1	-39.1	22.9	0.00e+00	4	29	0	424673280	48	6469
2026-01-14 18:48:26.52	7.56	13.97	-38.0	-38.9	23.1	0.00e+00	73	29	0	425721856	48	6364
2026-01-14 18:48:27.53	7.37	14.01	-37.8	-38.7	23.3	0.00e+00	11	29	0	427819008	48	6213
2026-01-14 18:48:28.54	7.17	14.04	-37.9	-38.8	23.2	0.00e+00	11	29	0	429916160	48	6304
2026-01-14 18:48:29.55	6.97	14.07	-37.9	-38.8	23.3	0.00e+00	19	29	0	432013312	48	6293
2026-01-14 18:48:30.56	6.78	14.11	-38.0	-38.9	23.1	0.00e+00	75	29	0	434110464	48	6362
2026-01-14 18:48:31.57	6.58	14.14	-37.9	-38.8	23.2	0.00e+00	90	29	0	435159040	48	6284
2026-01-14 18:48:32.58	6.38	14.17	-37.8	-38.8	23.3	0.00e+00	68	29	0	437256192	48	6253
2026-01-14 18:48:33.59	6.19	14.20	-37.9	-38.8	23.4	0.00e+00	4	29	0	439353344	48	6271
2026-01-14 18:48:34.60	5.99	14.23	-37.7	-38.6	23.4	0.00e+00	5	29	0	441450496	48	6164
2026-01-14 18:48:35.61	5.79	14.26	-37.7	-38.6	23.5	0.00e+00	69	29	0	443547648	48	6136
2026-01-14 18:48:36.62	5.59	14.29	-37.8	-38.7	23.4	0.00e+00	2	29	0	444596224	48	6192
2026-01-14 18:48:37.63	5.39	14.33	-37.9	-38.8	23.2	0.00e+00	4	29	0	446693376	48	6302
2026-01-14 18:48:38.64	5.19	14.36	-37.8	-38.7	23.3	0.00e+00	92	29	0	448790528	48	6221
2026-01-14 18:48:39.65	4.99	14.38	-37.7	-38.6	23.5	0.00e+00	3	29	0	450887680	48	6123
2026-01-14 18:48:40.66	4.79	14.41	-37.8	-38.8	23.3	0.00e+00	92	29	0	452984832	48	6260
2026-01-14 18:48:41.66	4.59	14.44	-37.7	-38.6	23.4	0.00e+00	3	29	0	455081984	48	6155
2026-01-14 18:48:42.67	4.39	14.47	-37.9	-38.9	23.2	0.00e+00	2	29	0	456130560	48	6322
2026-01-14 18:48:43.68	4.19	14.50	-37.7	-38.7	23.5	0.00e+00	0	29	0	458227712	48	6174
2026-01-14 18:48:44.69	3.98	14.53	-37.8	-38.8	23.3	0.00e+00	19	29	0	460324864	48	6269
2026-01-14 18:48:45.70	3.78	14.56	-37.8	-38.7	23.4	0.00e+00	90	29	0	462422016	48	6219
2026-01-14 18:48:46.71	3.58	14.58	-37.9	-38.8	23.3	0.00e+00	4	29	0	463470592	48	6275
2026-01-14 18:48:47.72	3.38	14.61	-37.7	-38.6	23.4	0.00e+00	92	29	0	465567744	48	6121
2026-01-14 18:48:48.73	3.17	14.64	-37.7	-38.6	23.6	0.00e+00	63	29	0	467664896	48	6116
2026-01-14 18:48:49.74	2.97	14.66	-37.6	-38.5	23.5	0.00e+00	62	29	0	469762048	48	6078
2026-01-14 18:48:50.75	2.76	14.69	-37.6	-38.5	23.1	0.00e+00	19	29	0	471859200	48	6088
2026-01-14 18:48:51.75	2.56	14.72	-37.7	-38.6	23.4	0.00e+00	19	29	0	472907776	48	6127
2026-01-14 18:48:52.76	2.35	14.74	-37.8	-38.7	23.4	0.00e+00	92	29	0	475004928	48	6241
2026-01-14 18:48:53.77	2.15	14.77	-38.0	-38.9	23.2	0.00e+00	67	29	0	477102080	48	6377
2026-01-14 18:48:54.78	1.94	14.79	-38.0	-39.0	23.2	0.00e+00	92	29	0	479199232	48	6399
2026-01-14 18:48:55.79	1.74	14.82	-37.9	-38.9	23.4	0.00e+00	69	29	0	481296384	48	6320
2026-01-14 18:48:56.80	1.53	14.84	-38.0	-38.9	23.3	0.00e+00	92	29	0	483393536	48	6358
2026-01-14 18:48:57.81	1.32	14.86	-38.0	-39.0	23.3	0.00e+00	69	29	0	484442112	48	6401
2026-01-14 18:48:58.81	1.12	14.89	-37.8	-38.7	23.5	0.00e+00	0	29	0	486539264	48	6202
2026-01-14 18:48:59.82	0.91	14.91	-38.0	-38.9	23.2	0.00e+00	0	29	0	488636416	48	6389
2026-01-14 18:49:00.83	0.70	14.93	-38.0	-38.9	23.3	0.00e+00	0	29	0	490733568	48	6366
2026-01-14 18:49:01.84	0.49	14.96	-38.1	-39.0	23.1	0.00e+00	92	29	0	492830720	48	6458
2026-01-14 18:49:02.85	0.28	14.98	-38.2	-39.2	22.9	0.00e+00	0	29	0	493879296	48	6582
2026-01-14 18:49:03.86	0.08	15.00	-38.3	-39.2	23.0	0.00e+00	92	29	0	495976448	48	6606
2026-01-14 18:49:04.87	359.87	15.02	-38.1	-39.0	23.1	0.00e+00	18	29	0	498073600	48	6452
2026-01-14 18:49:05.87	359.66	15.04	-38.1	-39.1	23.0	0.00e+00	0	29	0	500170752	48	6499
2026-01-14 18:49:06.88	359.45	15.06	-38.2	-39.1	23.1	0.00e+00	0	29	0	502267904	48	6523
2026-01-14 18:49:07.89	359.24	15.08	-38.4	-39.3	22.8	0.00e+00	20	29	0	503316480	48	6688
2026-01-14 18:49:08.90	359.03	15.10	-38.5	-39.5	22.7	0.00e+00	92	29	0	505413632	48	6778
2026-01-14 18:49:09.91	358.82	15.12	-38.6	-39.6	22.6	0.00e+00	63	29	0	507510784	48	6919
2026-01-14 18:49:10.92	358.61	15.14	-38.5	-39.5	22.7	0.00e+00	91	29	0	509607936	48	6805
2026-01-14 18:49:11.93	358.39	15.16	-38.5	-39.5	22.8	0.00e+00	63	29	0	511705088	48	6798
2026-01-14 18:49:12.94	358.18	15.18	-38.6	-39.6	22.6	0.00e+00	19	29	0	512753664	48	6899
2026-01-14 18:49:13.95	357.97	15.20	-38.4	-39.4	22.8	0.00e+00	62	29	0	514850816	48	6750
2026-01-14 18:49:14.96	357.76	15.21	-38.2	-39.2	22.9	0.00e+00	0	29	0	516947968	48	6556
2026-01-14 18:49:15.97	357.55	15.23	-38.0	-39.0	23.1	0.00e+00	87	29	0	519045120	48	6396
2026-01-14 18:49:16.98	357.33	15.25	-38.1	-39.1	23.1	0.00e+00	64	29	0	521142272	48	6488
2026-01-14 18:49:17.99	357.12	15.26	-38.1	-39.1	23.1	0.00e+00	91	29	0	522190848	48	6473
2026-01-14 18:49:19.00	356.91	15.28	-38.0	-39.0	23.2	0.00e+00	0	29	0	524288000	48	6403
2026-01-14 18:49:20.01	356.70	15.30	-38.0	-39.0	23.2	0.00e+00	92	29	0	526385152	48	6412
2026-01-14 18:49:21.01	356.48	15.31	-38.0	-38.9	23.3	0.00e+00	0	29	0	528482304	48	6379
2026-01-14 18:49:22.02	356.27	15.33	-37.8	-38.7	23.4	0.00e+00	0	29	0	530579456	48	6216
2026-01-14 18:49:23.03	356.06	15.34	-37.9	-38.8	23.4	0.00e+00	0	29	0	531628032	48	6270
2026-01-14 18:49:24.04	355.84	15.35	-37.8	-38.7	23.5	0.00e+00	0	29	0	533725184	48	6193
2026-01-14 18:49:25.05	355.63	15.37	-37.9	-38.8	23.3	0.00e+00	92	29	0	535822336	48	6307
2026-01-14 18:49:26.06	355.41	15.38	-38.0	-38.9	23.2	0.00e+00	19	29	0	537919488	48	6382
2026-01-14 18:49:27.07	355.20	15.39	-38.2	-39.2	23.0	0.00e+00	92	29	0	540016640	48	6558
2026-01-14 18:49:28.08	354.98	15.41	-38.3	-39.3	22.9	0.00e+00	20	29	0	541065216	48	6630
2026-01-14 18:49:29.09	354.77	15.42	-38.1	-39.1	23.0	0.00e+00	20	29	0	543162368	48	6495
2026-01-14 18:49:30.10	354.55	15.43	-38.2	-39.1	23.1	0.00e+00	0	29	0	545259520	48	6518
2026-01-14 18:49:31.11	354.34	15.44	-38.1	-39.0	23.2	0.00e+00	0	29	0	547356672	48	6420
2026-01-14 18:49:32.12	354.12	15.45	-38.0	-38.9	23.2	0.00e+00	92	29	0	549453824	48	6364
2026-01-14 18:49:33.13	353.91	15.46	-38.1	-39.1	23.1	0.00e+00	67	29	0	551550976	48	6476
2026-01-14 18:49:34.13	353.69	15.47	-38.2	-39.2	23.0	0.00e+00	92	29	0	552599552	48	6546
2026-01-14 18:49:35.14	353.48	15.48	-38.3	-39.2	23.0	0.00e+00	64	29	0	554696704	48	6596
2026-01-14 18:49:36.15	353.26	15.49	-38.3	-39.3	22.9	0.00e+00	61	29	0	556793856	48	6647
2026-01-14 18:49:37.16	353.04	15.50	-38.3	-39.3	23.0	0.00e+00	64	29	0	558891008	48	6625
2026-01-14 18:49:38.17	352.83	15.51	-38.3	-39.3	23.0	0.00e+00	0	29	0	560988160	48	6642
2026-01-14 18:49:39.18	352.61	15.52	-38.2	-39.2	22.9	0.00e+00	18	29	0	562036736	48	6582
2026-01-14 18:49:40.19	352.40	15.52	-38.2	-39.1	23.1	0.00e+00	0	29	0	564133888	48	6530
2026-01-14 18:49:41.20	352.18	15.53	-38.1	-39.1	23.1	0.00e+00	91	29	0	566231040	48	6490
2026-01-14 18:49:42.21	351.96	15.54	-38.1	-39.1	23.1	0.00e+00	2	29	0	568328192	48	6490
2026-01-14 18:49:43.22	351.74	15.54	-38.2	-39.2	23.0	0.00e+00	47	29	0	570425344	48	6592
2026-01-14 18:49:44.23	351.53	15.55	-38.5	-39.4	22.9	0.00e+00	0	29	0	571473920	48	6753
2026-01-14 18:49:45.24	351.31	15.56	-38.3	-39.3	22.9	0.00e+00	0	29	0	573571072	48	6638
2026-01-14 18:49:46.25	351.09	15.56	-38.5	-39.4	22.8	0.00e+00	0	29	0	575668224	48	6760
2026-01-14 18:49:47.26	350.88	15.56	-38.2	-39.2	23.0	0.00e+00	0	29	0	577765376	48	6570
2026-01-14 18:49:48.27	350.66	15.57	-38.2	-39.1	23.0	0.00e+00	90	29	0	579862528	48	6519
2026-01-14 18:49:49.28	350.44	15.57	-38.2	-39.2	23.0	0.00e+00	1	29	0	580911104	48	6557
2026-01-14 18:49:50.29	350.22	15.58	-38.0	-38.9	23.2	0.00e+00	90	29	0	583008256	48	6387
2026-01-14 18:49:51.30	350.01	15.58	-38.0	-39.0	23.2	0.00e+00	0	29	0	585105408	48	6433
2026-01-14 18:49:52.31	349.79	15.58	-38.1	-39.0	23.1	0.00e+00	17	29	0	587202560	48	6433
2026-01-14 18:49:53.32	349.57	15.58	-38.0	-39.0	23.2	0.00e+00	10	29	0	589299712	48	6408
2026-01-14 18:49:54.33	349.35	15.59	-37.9	-38.9	23.2	0.00e+00	2	29	0	590348288	48	6349
2026-01-14 18:49:55.34	349.14	15.59	-38.1	-39.1	23.1	0.00e+00	92	29	0	592445440	48	6503
2026-01-14 18:49:56.35	348.92	15.59	-38.4	-39.3	22.8	0.00e+00	71	29	0	594542592	48	6687
2026-01-14 18:49:57.36	348.70	15.59	-38.3	-39.3	22.8	0.00e+00	92	29	0	596639744	48	6624
2026-01-14 18:49:58.37	348.48	15.59	-38.2	-39.1	23.0	0.00e+00	0	29	0	598736896	48	6509
2026-01-14 18:49:59.38	348.27	15.59	-38.3	-39.3	22.9	0.00e+00	0	29	0	599785472	48	6638
2026-01-14 18:50:00.39	348.05	15.59	-38.2	-39.2	23.0	0.00e+00	63	29	0	601882624	48	6556
2026-01-14 18:50:01.40	347.83	15.59	-38.3	-39.3	22.9	0.00e+00	63	29	0	603979776	48	6648
2026-01-14 18:50:02.41	347.61	15.58	-38.3	-39.3	22.8	0.00e+00	6	29	0	606076928	48	6625
2026-01-14 18:50:03.42	347.39	15.58	-38.0	-39.0	22.9	0.00e+00	0	29	0	608174080	48	6427
2026-01-14 18:50:04.43	347.18	15.58	-38.0	-38.9	23.2	0.00e+00	91	29	0	609222656	48	6383
2026-01-14 18:50:05.44	346.96	15.58	-38.0	-38.9	23.1	0.00e+00	5	29	0	611319808	48	6363
2026-01-14 18:50:06.45	346.74	15.57	-38.0	-39.0	23.1	0.00e+00	65	29	0	613416960	48	6397
2026-01-14 18:50:07.46	346.52	15.57	-38.1	-39.0	23.1	0.00e+00	6	29	0	615514112	48	6456
2026-01-14 18:50:08.47	346.31	15.57	-38.3	-39.2	23.0	0.00e+00	16	29	0	617611264	48	6609
2026-01-14 18:50:09.48	346.09	15.56	-38.2	-39.2	23.0	0.00e+00	5	29	0	619708416	48	6573
2026-01-14 18:50:10.49	345.87	15.56	-38.3	-39.3	22.9	0.00e+00	6	29	0	620756992	48	6624
2026-01-14 18:50:11.50	345.66	15.55	-38.3	-39.3	22.8	0.00e+00	86	29	0	622854144	48	6666
2026-01-14 18:50:12.51	345.44	15.55	-38.3	-39.3	22.9	0.00e+00	74	29	0	624951296	48	6650
2026-01-14 18:50:13.52	345.22	15.54	-38.4	-39.4	22.7	0.00e+00	90	29	0	627048448	48	6715
2026-01-14 18:50:14.53	345.00	15.53	-38.4	-39.4	22.8	0.00e+00	69	29	0	629145600	48	6716
2026-01-14 18:50:15.54	344.79	15.53	-38.3	-39.3	22.9	0.00e+00	69	29	0	630194176	48	6682
2026-01-14 18:50:16.55	344.57	15.52	-38.5	-39.5	22.6	0.00e+00	17	29	0	632291328	48	6825
2026-01-14 18:50:17.56	344.35	15.51	-38.5	-39.5	22.7	0.00e+00	0	29	0	634388480	48	6826
2026-01-14 18:50:18.57	344.14	15.50	-38.6	-39.6	22.6	0.00e+00	91	29	0	636485632	48	6870
2026-01-14 18:50:19.58	343.92	15.49	-38.4	-39.4	22.8	0.00e+00	75	29	0	638582784	48	6760
2026-01-14 18:50:20.59	343.71	15.49	-38.4	-39.4	22.7	0.00e+00	92	29	0	639631360	48	6754
2026-01-14 18:50:21.60	343.49	15.48	-38.4	-39.4	22.8	0.00e+00	72	29	0	641728512	48	6702
2026-01-14 18:50:22.61	343.27	15.47	-38.3	-39.3	22.9	0.00e+00	2	29	0	643825664	48	6635
2026-01-14 18:50:23.62	343.06	15.46	-38.5	-39.5	22.7	0.00e+00	0	29	0	645922816	48	6843
2026-01-14 18:50:24.63	342.84	15.45	-38.3	-39.3	22.9	0.00e+00	2	29	0	648019968	48	6621
2026-01-14 18:50:25.64	342.63	15.43	-38.1	-39.1	23.1	0.00e+00	0	29	0	649068544	48	6465
2026-01-14 18:50:26.65	342.41	15.42	-38.1	-39.1	22.9	0.00e+00	1	29	0	651165696	48	6526
2026-01-14 18:50:27.65	342.20	15.41	-38.1	-39.1	23.0	0.00e+00	90	29	0	653262848	48	6521
2026-01-14 18:50:28.66	341.98	15.40	-38.3	-39.3	22.8	0.00e+00	14	29	0	655360000	48	6630
2026-01-14 18:50:29.67	341.77	15.39	-38.2	-39.2	22.8	0.00e+00	72	29	0	657457152	48	6604
2026-01-14 18:50:30.68	341.55	15.37	-38.4	-39.4	22.8	0.00e+00	19	29	0	658505728	48	6744
2026-01-14 18:50:31.69	341.34	15.36	-38.4	-39.4	22.8	0.00e+00	4	29	0	660602880	48	6724
2026-01-14 18:50:32.70	341.12	15.35	-38.5	-39.5	22.7	0.00e+00	0	29	0	662700032	48	6817
2026-01-14 18:50:33.71	340.91	15.33	-38.3	-39.4	22.8	0.00e+00	63	29	0	664797184	48	6703
2026-01-14 18:50:34.72	340.70	15.32	-38.4	-39.5	22.6	0.00e+00	90	29	0	666894336	48	6771
2026-01-14 18:50:35.73	340.48	15.30	-38.2	-39.2	23.0	0.00e+00	69	29	0	667942912	48	6585
2026-01-14 18:50:36.74	340.27	15.29	-38.0	-39.0	23.2	0.00e+00	92	29	0	670040064	48	6432
2026-01-14 18:50:37.75	340.06	15.27	-38.1	-39.1	23.0	0.00e+00	69	29	0	672137216	48	6513
2026-01-14 18:50:38.76	339.84	15.25	-38.0	-38.9	23.1	0.00e+00	0	29	0	674234368	48	6389
2026-01-14 18:50:39.77	339.63	15.24	-38.1	-39.1	23.1	0.00e+00	0	29	0	676331520	48	6516
2026-01-14 18:50:40.78	339.42	15.22	-38.0	-39.0	23.1	0.00e+00	0	29	0	677380096	48	6455
2026-01-14 18:50:41.79	339.21	15.20	-38.0	-39.0	23.1	0.00e+00	92	29	0	679477248	48	6414
2026-01-14 18:50:42.80	338.99	15.19	-38.1	-39.0	23.1	0.00e+00	0	29	0	681574400	48	6455
2026-01-14 18:50:43.81	338.78	15.17	-37.9	-38.8	23.3	0.00e+00	92	29	0	683671552	48	6304
2026-01-14 18:50:44.82	338.57	15.15	-37.9	-38.8	23.3	0.00e+00	0	29	0	685768704	48	6292
2026-01-14 18:50:45.83	338.36	15.13	-37.9	-38.8	23.3	0.00e+00	42	29	0	687865856	48	6311
2026-01-14 18:50:46.84	338.15	15.11	-37.8	-38.8	23.4	0.00e+00	0	29	0	688914432	48	6255
2026-01-14 18:50:47.85	337.94	15.09	-37.8	-38.8	23.4	0.00e+00	0	29	0	691011584	48	6249
2026-01-14 18:50:48.86	337.73	15.07	-38.0	-38.9	23.3	0.00e+00	0	29	0	693108736	48	6378
2026-01-14 18:50:49.87	337.52	15.05	-37.8	-38.8	23.4	0.00e+00	16	29	0	695205888	48	6256
2026-01-14 18:50:50.88	337.31	15.03	-37.9	-38.9	23.2	0.00e+00	91	29	0	697303040	48	6351
2026-01-14 18:50:51.89	337.10	15.01	-38.1	-39.1	23.1	0.00e+00	12	29	0	698351616	48	6475
2026-01-14 18:50:52.90	336.89	14.99	-38.2	-39.1	23.0	0.00e+00	82	29	0	700448768	48	6536
2026-01-14 18:50:53.91	336.68	14.96	-38.2	-39.2	23.0	0.00e+00	0	29	0	702545920	48	6548
2026-01-14 18:50:54.92	336.47	14.94	-38.1	-39.1	23.1	0.00e+00	18	29	0	704643072	48	6495
2026-01-14 18:50:55.93	336.26	14.92	-38.2	-39.1	23.0	0.00e+00	0	29	0	706740224	48	6524
2026-01-14 18:50:56.94	336.06	14.90	-38.2	-39.2	23.0	0.00e+00	18	29	0	707788800	48	6541
2026-01-14 18:50:57.95	335.85	14.87	-38.1	-39.1	23.0	0.00e+00	90	29	0	709885952	48	6511
2026-01-14 18:50:58.96	335.64	14.85	-38.2	-39.1	23.1	0.00e+00	4	29	0	711983104	48	6519
2026-01-14 18:50:59.97	335.43	14.83	-38.2	-39.2	23.0	0.00e+00	92	29	0	714080256	48	6590
2026-01-14 18:51:00.98	335.23	14.80	-38.0	-39.0	23.2	0.00e+00	0	29	0	716177408	48	6415
2026-01-14 18:51:01.99	335.02	14.78	-38.2	-39.1	23.0	0.00e+00	0	29	0	717225984	48	6515
2026-01-14 18:51:03.00	334.82	14.75	-38.1	-39.0	23.0	0.00e+00	63	29	0	719323136	48	6460
2026-01-14 18:51:04.01	334.61	14.73	-38.0	-39.0	23.2	0.00e+00	65	29	0	721420288	48	6424
2026-01-14 18:51:05.01	334.41	14.70	-38.1	-39.1	23.0	0.00e+00	92	29	0	723517440	48	6474
2026-01-14 18:51:06.02	334.20	14.68	-38.2	-39.1	22.9	0.00e+00	0	29	0	725614592	48	6539
2026-01-14 18:51:07.03	334.00	14.65	-38.3	-39.3	22.9	0.00e+00	92	29	0	726663168	48	6672
2026-01-14 18:51:08.04	333.79	14.62	-38.3	-39.3	22.8	0.00e+00	0	29	0	728760320	48	6645
2026-01-14 18:51:09.05	333.59	14.59	-38.3	-39.3	22.8	0.00e+00	0	29	0	730857472	48	6656
2026-01-14 18:51:10.06	333.39	14.57	-38.5	-39.5	22.8	0.00e+00	2	29	0	732954624	48	6786
2026-01-14 18:51:11.07	333.18	14.54	-38.5	-39.5	22.6	0.00e+00	19	29	0	735051776	48	6825
2026-01-14 18:51:12.08	332.98	14.51	-38.6	-39.6	22.6	0.00e+00	39	29	0	736100352	48	6893
2026-01-14 18:51:13.09	332.78	14.48	-38.6	-39.6	22.6	0.00e+00	17	29	0	738197504	48	6882
2026-01-14 18:51:14.10	332.58	14.45	-38.7	-39.7	22.5	0.00e+00	92	29	0	740294656	48	6969
2026-01-14 18:51:15.11	332.38	14.43	-38.7	-39.7	22.6	0.00e+00	0	29	0	742391808	50	6220
2026-01-14 18:51:16.11	332.18	14.40	-38.6	-39.6	22.6	0.00e+00	90	29	0	744488960	50	6140
2026-01-14 18:51:17.12	331.98	14.37	-38.6	-39.5	22.7	0.00e+00	67	29	0	745537536	50	6101
2026-01-14 18:51:18.13	331.78	14.34	-38.6	-39.6	22.6	0.00e+00	65	29	0	747634688	50	6161
2026-01-14 18:51:19.14	331.58	14.31	-38.6	-39.6	22.6	0.00e+00	7	29	0	749731840	50	6172
2026-01-14 18:51:20.15	331.38	14.28	-38.6	-39.6	22.7	0.00e+00	62	29	0	751828992	50	6132
2026-01-14 18:51:21.16	331.18	14.24	-38.6	-39.6	22.7	0.00e+00	95	29	0	753926144	50	6125
2026-01-14 18:51:22.17	330.98	14.21	-38.5	-39.5	22.7	0.00e+00	0	29	0	756023296	50	6089
2026-01-14 18:51:23.18	330.78	14.18	-38.5	-39.5	22.8	0.00e+00	68	29	0	757071872	50	6066
2026-01-14 18:51:24.19	330.58	14.15	-38.5	-39.5	22.8	0.00e+00	0	29	0	759169024	50	6040
2026-01-14 18:51:25.20	330.39	14.12	-38.4	-39.4	22.9	0.00e+00	0	29	0	761266176	50	5966
2026-01-14 18:51:26.21	330.19	14.09	-38.3	-39.2	23.0	0.00e+00	0	29	0	763363328	50	5892
2026-01-14 18:51:27.22	329.99	14.05	-38.3	-39.3	22.9	0.00e+00	0	29	0	765460480	50	5932
2026-01-14 18:51:28.23	329.80	14.02	-38.2	-39.2	23.1	0.00e+00	92	29	0	766509056	50	5832
2026-01-14 18:51:29.24	329.60	13.99	-38.1	-39.1	23.0	0.00e+00	0	29	0	768606208	50	5773
2026-01-14 18:51:30.25	329.41	13.95	-38.1	-39.1	23.0	0.00e+00	89	29	0	770703360	50	5772
2026-01-14 18:51:31.26	329.21	13.92	-38.2	-39.2	22.9	0.00e+00	0	29	0	772800512	50	5833
2026-01-14 18:51:32.27	329.02	13.88	-38.1	-39.0	23.1	0.00e+00	29	29	0	774897664	50	5754
2026-01-14 18:51:33.28	328.82	13.85	-38.2	-39.2	23.0	0.00e+00	10	29	0	775946240	50	5854
2026-01-14 18:51:34.29	328.63	13.82	-38.2	-39.2	23.0	0.00e+00	15	29	0	778043392	50	5855
2026-01-14 18:51:35.29	328.44	13.78	-38.4	-39.3	22.8	0.00e+00	16	29	0	780140544	50	5964
2026-01-14 18:51:36.30	328.25	13.75	-38.4	-39.4	22.9	0.00e+00	16	29	0	782237696	50	5979
2026-01-14 18:51:37.31	328.06	13.71	-38.2	-39.1	23.0	0.00e+00	92	29	0	784334848	50	5823
2026-01-14 18:51:38.32	327.86	13.67	-38.1	-39.1	23.1	0.00e+00	0	29	0	785383424	50	5801
2026-01-14 18:51:39.33	327.67	13.64	-38.1	-39.1	23.1	0.00e+00	0	29	0	787480576	50	5792
2026-01-14 18:51:40.34	327.48	13.60	-38.2	-39.1	23.1	0.00e+00	10	29	0	789577728	50	5810
2026-01-14 18:51:41.35	327.29	13.57	-38.2	-39.2	23.0	0.00e+00	70	29	0	791674880	50	5853
2026-01-14 18:51:42.36	327.10	13.53	-38.2	-39.2	22.7	0.00e+00	81	29	0	793772032	50	5850
2026-01-14 18:51:43.37	326.91	13.49	-38.3	-39.3	22.8	0.00e+00	0	29	0	794820608	50	5947
2026-01-14 18:51:44.38	326.73	13.45	-38.2	-39.2	22.9	0.00e+00	92	29	0	796917760	50	5869
2026-01-14 18:51:45.39	326.54	13.42	-38.3	-39.2	22.9	0.00e+00	66	29	0	799014912	50	5880
2026-01-14 18:51:46.40	326.35	13.38	-38.4	-39.3	22.7	0.00e+00	55	29	0	801112064	50	5961
2026-01-14 18:51:47.41	326.16	13.34	-38.2	-39.2	22.9	0.00e+00	0	29	0	803209216	50	5859
2026-01-14 18:51:48.42	325.98	13.30	-38.2	-39.1	23.0	0.00e+00	0	29	0	804257792	50	5811
2026-01-14 18:51:49.42	325.79	13.26	-38.3	-39.3	22.9	0.00e+00	0	29	0	806354944	50	5907
2026-01-14 18:51:50.43	325.61	13.23	-38.3	-39.3	23.0	0.00e+00	6	29	0	808452096	50	5897
2026-01-14 18:51:51.44	325.42	13.19	-38.0	-39.0	23.2	0.00e+00	70	29	0	810549248	50	5709
2026-01-14 18:51:52.45	325.24	13.15	-38.1	-39.1	23.1	0.00e+00	5	29	0	812646400	50	5773
2026-01-14 18:51:53.47	325.05	13.11	-38.1	-39.1	23.1	0.00e+00	90	29	0	813694976	50	5775
2026-01-14 18:51:54.48	324.87	13.07	-38.2	-39.2	23.0	0.00e+00	5	29	0	815792128	50	5834
2026-01-14 18:51:55.49	324.68	13.03	-38.3	-39.3	22.9	0.00e+00	8	29	0	817889280	50	5898
2026-01-14 18:51:56.50	324.50	12.99	-38.1	-39.1	23.1	0.00e+00	6	29	0	819986432	50	5782
2026-01-14 18:51:57.51	324.32	12.95	-38.1	-39.1	23.0	0.00e+00	5	29	0	822083584	50	5788
2026-01-14 18:51:58.52	324.14	12.91	-38.2	-39.2	23.0	0.00e+00	10	29	0	824180736	50	5839
2026-01-14 18:51:59.52	323.96	12.87	-38.1	-39.1	23.1	0.00e+00	72	29	0	825229312	50	5765
2026-01-14 18:52:00.54	323.78	12.82	-38.1	-39.0	23.1	0.00e+00	91	29	0	827326464	50	5750
2026-01-14 18:52:01.55	323.60	12.78	-38.1	-39.1	23.1	0.00e+00	0	29	0	829423616	50	5784
2026-01-14 18:52:02.56	323.42	12.74	-38.2	-39.2	23.0	0.00e+00	69	29	0	831520768	50	5841
2026-01-14 18:52:03.56	323.24	12.70	-38.3	-39.3	22.9	0.00e+00	0	29	0	833617920	50	5942
2026-01-14 18:52:04.57	323.06	12.66	-38.4	-39.4	22.8	0.00e+00	0	29	0	834666496	50	5988
2026-01-14 18:52:05.58	322.88	12.62	-38.6	-39.6	22.6	0.00e+00	0	29	0	836763648	50	6157
2026-01-14 18:52:06.59	322.71	12.57	-38.7	-39.7	22.5	0.00e+00	1	29	0	838860800	50	6244
2026-01-14 18:52:07.60	322.53	12.53	-38.8	-39.8	22.4	0.00e+00	92	29	0	840957952	50	6314
2026-01-14 18:52:08.61	322.35	12.49	-38.9	-39.9	22.3	0.00e+00	1	29	0	843055104	50	6372
2026-01-14 18:52:09.61	322.18	12.45	-38.9	-40.0	22.3	0.00e+00	87	29	0	844103680	50	6401
2026-01-14 18:52:10.63	322.00	12.40	-38.9	-40.0	22.3	0.00e+00	4	29	0	846200832	50	6392
2026-01-14 18:52:11.64	321.83	12.36	-39.0	-40.1	22.2	0.00e+00	0	29	0	848297984	50	6470
2026-01-14 18:52:12.65	321.65	12.32	-39.0	-40.1	22.1	0.00e+00	3	29	0	850395136	50	6498
2026-01-14 18:52:13.66	321.48	12.27	-39.2	-40.2	22.0	0.00e+00	4	29	0	852492288	50	6592
2026-01-14 18:52:14.66	321.31	12.23	-39.1	-40.1	22.1	0.00e+00	92	29	0	853540864	50	6516
2026-01-14 18:52:15.68	321.13	12.19	-39.1	-40.2	22.0	0.00e+00	5	29	0	855638016	50	6556
2026-01-14 18:52:16.69	320.96	12.14	-39.3	-40.4	21.9	0.00e+00	92	29	0	857735168	50	6696
2026-01-14 18:52:17.69	320.79	12.10	-39.2	-40.2	22.0	0.00e+00	4	29	0	859832320	50	6611
2026-01-14 18:52:18.70	320.62	12.05	-39.3	-40.4	21.9	0.00e+00	6	29	0	861929472	50	6702
2026-01-14 18:52:19.71	320.45	12.01	-39.3	-40.4	21.9	0.00e+00	17	29	0	862978048	50	6709
2026-01-14 18:52:20.72	320.28	11.96	-39.5	-40.6	21.7	0.00e+00	67	29	0	865075200	50	6857
2026-01-14 18:52:21.74	320.10	11.92	-39.5	-40.6	21.6	0.00e+00	12	29	0	867172352	50	6922
2026-01-14 18:52:22.74	319.94	11.87	-39.6	-40.7	21.5	0.00e+00	67	29	0	869269504	50	6975
2026-01-14 18:52:23.75	319.77	11.83	-39.7	-40.9	21.4	0.00e+00	92	29	0	871366656	50	7119
2026-01-14 18:52:24.76	319.60	11.78	-39.9	-41.1	21.2	0.00e+00	66	29	0	872415232	52	6508
2026-01-14 18:52:25.77	319.43	11.74	-40.0	-41.1	21.2	0.00e+00	0	29	0	874512384	52	6535
2026-01-14 18:52:26.78	319.27	11.69	-40.1	-41.3	21.1	0.00e+00	2	29	0	876609536	52	6669
2026-01-14 18:52:27.79	319.10	11.65	-40.1	-41.3	21.0	0.00e+00	0	29	0	878706688	52	6664
2026-01-14 18:52:28.80	318.93	11.60	-40.3	-41.5	20.8	0.00e+00	67	29	0	880803840	52	6799
2026-01-14 18:52:29.81	318.77	11.55	-40.3	-41.6	20.8	0.00e+00	0	29	0	881852416	52	6854
2026-01-14 18:52:30.82	318.60	11.51	-40.3	-41.5	20.8	0.00e+00	91	29	0	883949568	52	6831
2026-01-14 18:52:31.83	318.44	11.46	-40.5	-41.7	20.6	0.00e+00	0	29	0	886046720	52	6987
2026-01-14 18:52:32.84	318.27	11.41	-40.3	-41.5	20.9	0.00e+00	91	29	0	888143872	52	6797
2026-01-14 18:52:33.85	318.11	11.37	-40.2	-41.4	21.0	0.00e+00	0	29	0	890241024	52	6721
2026-01-14 18:52:34.86	317.95	11.32	-40.2	-41.4	20.9	0.00e+00	0	29	0	892338176	52	6769
2026-01-14 18:52:35.87	317.79	11.27	-40.4	-41.6	20.8	0.00e+00	0	29	0	893386752	52	6895
2026-01-14 18:52:36.88	317.62	11.23	-40.3	-41.5	20.9	0.00e+00	0	29	0	895483904	52	6799
2026-01-14 18:52:37.89	317.46	11.18	-40.3	-41.6	20.7	0.00e+00	92	29	0	897581056	52	6867
2026-01-14 18:52:38.90	317.30	11.13	-40.5	-41.8	20.6	0.00e+00	0	29	0	899678208	52	7043
2026-01-14 18:52:39.91	317.14	11.08	-40.7	-42.0	20.3	0.00e+00	92	29	0	900726784	52	7249
2026-01-14 18:52:40.92	316.98	11.04	-40.8	-42.1	20.2	0.00e+00	67	29	0	902823936	54	6533
2026-01-14 18:52:41.92	316.83	10.99	-40.8	-42.2	20.2	0.00e+00	13	29	0	904921088	54	6544
2026-01-14 18:52:42.93	316.67	10.94	-40.8	-42.2	20.2	0.00e+00	0	29	0	907018240	54	6577
2026-01-14 18:52:43.94	316.51	10.89	-40.8	-42.1	20.2	0.00e+00	14	29	0	909115392	54	6520
2026-01-14 18:52:44.95	316.35	10.84	-40.8	-42.2	20.2	0.00e+00	0	29	0	910163968	54	6547
2026-01-14 18:52:45.96	316.19	10.80	-40.9	-42.2	20.1	0.00e+00	0	29	0	912261120	54	6606
2026-01-14 18:52:46.97	316.04	10.75	-40.9	-42.3	20.1	0.00e+00	92	29	0	914358272	54	6648
2026-01-14 18:52:47.98	315.88	10.70	-41.2	-42.6	19.7	0.00e+00	69	29	0	916455424	54	6919
2026-01-14 18:52:48.98	315.73	10.65	-40.9	-42.3	20.1	0.00e+00	92	29	0	918552576	54	6636
2026-01-14 18:52:49.99	315.57	10.60	-40.9	-42.3	20.0	0.00e+00	0	29	0	920649728	54	6632
2026-01-14 18:52:51.00	315.42	10.55	-40.9	-42.2	20.0	0.00e+00	0	29	0	921698304	54	6614
2026-01-14 18:52:52.01	315.26	10.50	-40.9	-42.3	20.0	0.00e+00	0	29	0	923795456	54	6651
2026-01-14 18:52:53.02	315.11	10.45	-40.9	-42.3	20.0	0.00e+00	0	29	0	925892608	54	6660
2026-01-14 18:52:54.03	314.96	10.41	-41.0	-42.4	19.9	0.00e+00	92	29	0	927989760	54	6756
2026-01-14 18:52:55.04	314.81	10.36	-41.0	-42.4	20.0	0.00e+00	2	29	0	930086912	54	6700
2026-01-14 18:52:56.04	314.66	10.31	-41.1	-42.5	19.9	0.00e+00	92	29	0	931135488	54	6774
2026-01-14 18:52:57.06	314.50	10.26	-41.1	-42.5	19.9	0.00e+00	2	29	0	933232640	54	6802
2026-01-14 18:52:58.06	314.35	10.21	-40.9	-42.3	20.0	0.00e+00	0	29	0	935329792	54	6671
2026-01-14 18:52:59.07	314.20	10.16	-41.1	-42.5	19.9	0.00e+00	0	29	0	937426944	54	6787
2026-01-14 18:53:00.08	314.05	10.11	-40.9	-42.3	20.0	0.00e+00	2	29	0	939524096	54	6660
2026-01-14 18:53:01.09	313.90	10.06	-41.0	-42.4	19.9	0.00e+00	1	29	0	940572672	54	6740
2026-01-14 18:53:02.10	313.76	10.01	-40.9	-42.3	20.0	0.00e+00	15	29	0	942669824	54	6647
2026-01-14 18:53:03.11	313.61	9.96	-41.0	-42.3	20.0	0.00e+00	91	29	0	944766976	54	6686
2026-01-14 18:53:04.12	313.46	9.91	-40.9	-42.3	20.0	0.00e+00	15	29	0	946864128	54	6661
2026-01-14 18:53:05.13	313.31	9.86	-41.1	-42.5	19.7	0.00e+00	67	29	0	948961280	54	6774
2026-01-14 18:53:06.14	313.17	9.81	-41.2	-42.6	19.7	0.00e+00	0	29	0	950009856	54	6894
2026-01-14 18:53:07.15	313.02	9.76	-41.1	-42.5	19.8	0.00e+00	0	29	0	952107008	54	6791
2026-01-14 18:53:08.16	312.87	9.71	-41.4	-42.9	19.5	0.00e+00	84	29	0	954204160	54	7141
2026-01-14 18:53:09.17	312.73	9.66	-41.2	-42.6	19.6	0.00e+00	0	29	0	956301312	54	6903
2026-01-14 18:53:10.18	312.58	9.61	-41.2	-42.6	19.8	0.00e+00	92	29	0	958398464	54	6878
2026-01-14 18:53:11.19	312.44	9.56	-41.1	-42.5	19.9	0.00e+00	67	29	0	959447040	54	6836
2026-01-14 18:53:12.20	312.30	9.51	-40.6	-41.9	20.3	0.00e+00	91	29	0	961544192	54	6383
2026-01-14 18:53:13.21	312.15	9.46	-40.5	-41.8	20.4	0.00e+00	0	29	0	963641344	54	6305
2026-01-14 18:53:14.21	312.01	9.40	-40.7	-42.0	20.3	0.00e+00	0	29	0	965738496	54	6404
2026-01-14 18:53:15.22	311.87	9.35	-40.6	-41.9	20.4	0.00e+00	0	29	0	967835648	54	6363
2026-01-14 18:53:16.23	311.73	9.30	-40.4	-41.6	20.6	0.00e+00	2	29	0	968884224	54	6172
2026-01-14 18:53:17.24	311.59	9.25	-40.5	-41.8	20.4	0.00e+00	92	29	0	970981376	54	6279
2026-01-14 18:53:18.25	311.45	9.20	-40.4	-41.7	20.5	0.00e+00	0	29	0	973078528	54	6199
2026-01-14 18:53:19.26	311.31	9.15	-40.5	-41.8	20.5	0.00e+00	90	29	0	975175680	54	6258
2026-01-14 18:53:20.27	311.17	9.10	-40.5	-41.8	20.5	0.00e+00	0	29	0	977272832	54	6261
2026-01-14 18:53:21.28	311.03	9.05	-40.4	-41.6	20.6	0.00e+00	11	29	0	978321408	54	6155
2026-01-14 18:53:22.28	310.89	9.00	-40.4	-41.7	20.5	0.00e+00	0	29	0	980418560	54	6237
2026-01-14 18:53:23.29	310.75	8.95	-40.3	-41.6	20.7	0.00e+00	0	29	0	982515712	54	6135
2026-01-14 18:53:24.30	310.62	8.89	-40.3	-41.5	20.7	0.00e+00	0	29	0	984612864	54	6085
2026-01-14 18:53:25.31	310.48	8.84	-40.2	-41.5	20.7	0.00e+00	8	29	0	986710016	54	6045
2026-01-14 18:53:26.32	310.34	8.79	-40.2	-41.5	20.7	0.00e+00	92	29	0	988807168	54	6054
2026-01-14 18:53:27.33	310.21	8.74	-40.3	-41.5	20.7	0.00e+00	73	29	0	989855744	54	6076
2026-01-14 18:53:28.34	310.07	8.69	-40.3	-41.5	20.6	0.00e+00	75	29	0	991952896	54	6076
2026-01-14 18:53:29.34	309.94	8.64	-40.2	-41.4	20.8	0.00e+00	7	29	0	994050048	54	5991
2026-01-14 18:53:30.35	309.80	8.58	-40.3	-41.5	20.7	0.00e+00	2	29	0	996147200	54	6079
2026-01-14 18:53:31.36	309.67	8.53	-40.1	-41.3	20.8	0.00e+00	0	29	0	998244352	54	5934
2026-01-14 18:53:32.37	309.54	8.48	-40.1	-41.4	20.8	0.00e+00	0	29	0	999292928	54	5978
2026-01-14 18:53:33.38	309.40	8.43	-40.1	-41.3	20.8	0.00e+00	90	29	0	1001390080	54	5924
2026-01-14 18:53:34.39	309.27	8.38	-39.8	-40.9	21.3	0.00e+00	70	29	0	1003487232	52	6388
2026-01-14 18:53:35.40	309.14	8.33	-39.8	-40.9	21.3	0.00e+00	91	29	0	1005584384	52	6384
2026-01-14 18:53:36.41	309.01	8.27	-39.7	-40.9	21.3	0.00e+00	6	29	0	1007681536	52	6334
2026-01-14 18:53:37.42	308.87	8.22	-39.7	-40.9	21.2	0.00e+00	7	29	0	1008730112	52	6319
2026-01-14 18:53:38.43	308.74	8.17	-39.5	-40.7	21.5	0.00e+00	6	29	0	1010827264	52	6176
2026-01-14 18:53:39.44	308.61	8.12	-39.4	-40.6	21.6	0.00e+00	0	29	0	1012924416	52	6120
2026-01-14 18:53:40.45	308.48	8.07	-39.5	-40.6	21.4	0.00e+00	76	29	0	1015021568	52	6164
2026-01-14 18:53:41.45	308.36	8.01	-39.4	-40.5	21.6	0.00e+00	5	29	0	1017118720	52	6068
2026-01-14 18:53:42.46	308.23	7.96	-39.4	-40.5	21.6	0.00e+00	91	29	0	1018167296	52	6056
2026-01-14 18:53:43.47	308.10	7.91	-39.4	-40.5	21.5	0.00e+00	6	29	0	1020264448	52	6070
2026-01-14 18:53:44.48	307.97	7.86	-39.2	-40.3	21.8	0.00e+00	54	29	0	1022361600	52	5948
2026-01-14 18:53:45.49	307.84	7.80	-39.2	-40.3	21.8	0.00e+00	6	29	0	1024458752	52	5900
2026-01-14 18:53:46.50	307.72	7.75	-39.2	-40.3	21.8	0.00e+00	11	29	0	1026555904	52	5960
2026-01-14 18:53:47.51	307.59	7.70	-39.2	-40.3	21.8	0.00e+00	16	29	0	1027604480	52	5905
2026-01-14 18:53:48.52	307.46	7.65	-39.1	-40.2	21.8	0.00e+00	9	29	0	1029701632	52	5844
2026-01-14 18:53:49.53	307.34	7.60	-39.0	-40.1	21.9	0.00e+00	91	29	0	1031798784	52	5795
2026-01-14 18:53:50.54	307.21	7.54	-39.0	-40.1	21.9	0.00e+00	12	29	0	1033895936	52	5771
2026-01-14 18:53:51.55	307.09	7.49	-39.0	-40.1	22.0	0.00e+00	92	29	0	1035993088	52	5792
2026-01-14 18:53:52.55	306.97	7.44	-39.0	-40.1	21.9	0.00e+00	11	29	0	1037041664	52	5795
2026-01-14 18:53:53.56	306.84	7.39	-39.0	-40.0	21.9	0.00e+00	2	29	0	1039138816	52	5750
2026-01-14 18:53:54.57	306.72	7.33	-38.9	-40.0	21.8	0.00e+00	0	29	0	1041235968	52	5719
2026-01-14 18:53:55.58	306.60	7.28	-38.9	-40.0	21.8	0.00e+00	82	29	0	1043333120	52	5698
2026-01-14 18:53:56.59	306.47	7.23	-38.8	-39.9	22.1	0.00e+00	92	29	0	1045430272	52	5632
2026-01-14 18:53:57.60	306.35	7.18	-38.9	-40.0	22.0	0.00e+00	81	29	0	1046478848	52	5704
2026-01-14 18:53:58.61	306.23	7.12	-38.9	-40.0	22.0	0.00e+00	92	29	0	1048576000	52	5725
2026-01-14 18:53:59.62	306.11	7.07	-39.0	-40.0	22.0	0.00e+00	0	29	0	1050673152	52	5761
2026-01-14 18:54:00.62	305.99	7.02	-39.0	-40.0	21.9	0.00e+00	0	29	0	1052770304	52	5747
2026-01-14 18:54:01.64	305.87	6.97	-39.0	-40.1	21.8	0.00e+00	0	29	0	1054867456	52	5795
2026-01-14 18:54:02.65	305.75	6.91	-38.9	-39.9	22.0	0.00e+00	7	29	0	1055916032	52	5687
2026-01-14 18:54:03.66	305.63	6.86	-38.9	-40.0	21.9	0.00e+00	91	29	0	1058013184	52	5737
2026-01-14 18:54:04.67	305.51	6.81	-38.9	-40.0	21.9	0.00e+00	6	29	0	1060110336	52	5740
2026-01-14 18:54:05.68	305.39	6.76	-39.0	-40.1	21.9	0.00e+00	92	29	0	1062207488	52	5806
2026-01-14 18:54:06.69	305.27	6.70	-39.2	-40.3	21.7	0.00e+00	12	29	0	1064304640	52	5936
2026-01-14 18:54:07.70	305.16	6.65	-39.1	-40.2	21.7	0.00e+00	10	29	0	1065353216	52	5871
2026-01-14 18:54:08.71	305.04	6.60	-39.2	-40.3	21.6	0.00e+00	6	29	0	1067450368	52	5935
2026-01-14 18:54:09.71	304.92	6.55	-39.0	-40.1	21.9	0.00e+00	11	29	0	1069547520	52	5788
2026-01-14 18:54:10.72	304.81	6.49	-39.0	-40.1	21.8	0.00e+00	11	29	0	1071644672	52	5806
2026-01-14 18:54:11.73	304.69	6.44	-39.0	-40.1	21.9	0.00e+00	71	29	0	1073741824	52	5776
2026-01-14 18:54:12.74	304.58	6.39	-39.0	-40.1	21.7	0.00e+00	92	29	0	1074790400	52	5764
2026-01-14 18:54:13.75	304.46	6.33	-39.1	-40.2	21.7	0.00e+00	11	29	0	1076887552	52	5860
2026-01-14 18:54:14.76	304.35	6.28	-39.0	-40.2	21.7	0.00e+00	62	29	0	1078984704	52	5832
2026-01-14 18:54:15.77	304.23	6.23	-39.1	-40.2	21.7	0.00e+00	0	29	0	1081081856	52	5894
2026-01-14 18:54:16.78	304.12	6.18	-39.1	-40.2	21.7	0.00e+00	70	29	0	1083179008	52	5894
2026-01-14 18:54:17.79	304.01	6.12	-39.3	-40.4	21.5	0.00e+00	71	29	0	1085276160	52	6010
2026-01-14 18:54:18.80	303.89	6.07	-39.3	-40.4	21.5	0.00e+00	71	29	0	1086324736	52	6012
2026-01-14 18:54:19.81	303.78	6.02	-39.3	-40.5	21.5	0.00e+00	92	29	0	1088421888	52	6036
2026-01-14 18:54:20.82	303.67	5.97	-39.4	-40.6	21.4	0.00e+00	0	29	0	1090519040	52	6113
2026-01-14 18:54:21.83	303.56	5.91	-39.5	-40.6	21.3	0.00e+00	92	29	0	1092616192	52	6171
2026-01-14 18:54:22.84	303.45	5.86	-39.5	-40.6	21.2	0.00e+00	0	29	0	1094713344	52	6159
2026-01-14 18:54:23.84	303.34	5.81	-39.5	-40.7	21.2	0.00e+00	2	29	0	1095761920	52	6203
2026-01-14 18:54:24.86	303.22	5.76	-39.7	-40.9	21.1	0.00e+00	0	29	0	1097859072	52	6351
2026-01-14 18:54:25.87	303.11	5.70	-39.8	-41.1	20.8	0.00e+00	2	29	0	1099956224	52	6474
2026-01-14 18:54:26.87	303.01	5.65	-39.8	-41.0	20.8	0.00e+00	90	29	0	1102053376	52	6414
2026-01-14 18:54:27.88	302.90	5.60	-39.4	-40.6	21.2	0.00e+00	5	29	0	1104150528	52	6134
2026-01-14 18:54:28.89	302.79	5.55	-39.5	-40.7	21.2	0.00e+00	91	29	0	1105199104	52	6184
2026-01-14 18:54:29.90	302.68	5.49	-39.5	-40.6	21.3	0.00e+00	0	29	0	1107296256	52	6160
2026-01-14 18:54:30.91	302.57	5.44	-39.4	-40.6	21.2	0.00e+00	6	29	0	1109393408	52	6150
2026-01-14 18:54:31.92	302.46	5.39	-39.5	-40.7	21.2	0.00e+00	73	29	0	1111490560	52	6188
2026-01-14 18:54:32.93	302.36	5.34	-39.3	-40.5	21.4	0.00e+00	72	29	0	1113587712	52	6046
2026-01-14 18:54:33.94	302.25	5.28	-39.4	-40.6	21.2	0.00e+00	0	29	0	1114636288	52	6132
2026-01-14 18:54:34.95	302.14	5.23	-39.4	-40.6	21.2	0.00e+00	0	29	0	1116733440	52	6142
2026-01-14 18:54:35.96	302.04	5.18	-39.6	-40.8	21.0	0.00e+00	92	29	0	1118830592	52	6301
2026-01-14 18:54:36.97	301.93	5.13	-39.7	-40.9	21.0	0.00e+00	71	29	0	1120927744	52	6337
2026-01-14 18:54:37.98	301.83	5.07	-39.8	-41.1	20.7	0.00e+00	92	29	0	1123024896	52	6492
2026-01-14 18:54:38.99	301.72	5.02	-39.8	-41.0	20.7	0.00e+00	0	29	0	1124073472	52	6456
2026-01-14 18:54:39.99	301.62	4.97	-40.1	-41.4	20.4	0.00e+00	71	29	0	1126170624	52	6745
2026-01-14 18:54:41.00	301.52	4.92	-39.9	-41.1	20.7	0.00e+00	0	29	0	1128267776	52	6534
2026-01-14 18:54:42.01	301.41	4.86	-40.0	-41.3	20.6	0.00e+00	2	29	0	1130364928	52	6640
2026-01-14 18:54:43.02	301.31	4.81	-40.0	-41.3	20.5	0.00e+00	91	29	0	1132462080	52	6624
2026-01-14 18:54:44.03	301.21	4.76	-40.1	-41.4	20.3	0.00e+00	0	29	0	1133510656	52	6744
2026-01-14 18:54:45.04	301.10	4.71	-40.3	-41.7	20.3	0.00e+00	92	29	0	1135607808	52	6954
2026-01-14 18:54:46.05	301.00	4.65	-40.3	-41.6	20.1	0.00e+00	0	29	0	1137704960	52	6890
2026-01-14 18:54:47.06	300.90	4.60	-40.2	-41.5	20.2	0.00e+00	2	29	0	1139802112	52	6847
2026-01-14 18:54:48.07	300.80	4.55	-40.3	-41.7	20.0	0.00e+00	0	29	0	1141899264	52	6958
2026-01-14 18:54:49.08	300.70	4.50	-40.3	-41.7	20.1	0.00e+00	0	29	0	1142947840	52	6955
2026-01-14 18:54:50.09	300.60	4.44	-40.3	-41.7	20.0	0.00e+00	0	29	0	1145044992	52	6958
2026-01-14 18:54:51.09	300.50	4.39	-40.6	-42.0	19.7	0.00e+00	0	29	0	1147142144	52	7234
2026-01-14 18:54:52.10	300.40	4.34	-40.7	-42.2	19.5	0.00e+00	92	29	0	1149239296	54	6576
2026-01-14 18:54:53.11	300.30	4.29	-40.7	-42.1	19.6	0.00e+00	77	29	0	1151336448	54	6498
2026-01-14 18:54:54.11	300.20	4.24	-40.5	-42.0	19.7	0.00e+00	78	29	0	1153433600	54	6397
2026-01-14 18:54:55.12	300.10	4.18	-40.5	-42.0	19.7	0.00e+00	77	29	0	1154482176	54	6406
2026-01-14 18:54:56.13	300.00	4.13	-40.9	-42.5	19.2	0.00e+00	6	29	0	1156579328	54	6771
2026-01-14 18:54:57.14	299.90	4.08	-40.5	-41.9	19.7	0.00e+00	0	29	0	1158676480	54	6352
2026-01-14 18:54:58.15	299.81	4.03	-40.6	-42.0	19.6	0.00e+00	0	29	0	1160773632	54	6458
2026-01-14 18:54:59.16	299.71	3.98	-40.6	-42.0	19.5	0.00e+00	90	29	0	1161822208	54	6447
2026-01-14 18:55:00.17	299.61	3.92	-40.6	-42.0	19.6	0.00e+00	0	29	0	1163919360	54	6462
2026-01-14 18:55:01.17	299.52	3.87	-40.8	-42.3	19.4	0.00e+00	90	29	0	1166016512	54	6623
2026-01-14 18:55:02.19	299.42	3.82	-40.8	-42.4	19.3	0.00e+00	0	29	0	1168113664	54	6695
2026-01-14 18:55:03.19	299.32	3.77	-40.8	-42.3	19.3	0.00e+00	72	29	0	1170210816	54	6668
2026-01-14 18:55:04.20	299.23	3.72	-41.0	-42.5	19.2	0.00e+00	0	29	0	1171259392	54	6810
2026-01-14 18:55:05.21	299.13	3.66	-41.0	-42.5	19.1	0.00e+00	2	29	0	1173356544	54	6809
2026-01-14 18:55:06.22	299.04	3.61	-41.0	-42.6	19.1	0.00e+00	90	29	0	1175453696	54	6880
2026-01-14 18:55:07.23	298.94	3.56	-41.2	-42.9	18.7	0.00e+00	0	29	0	1177550848	54	7113
2026-01-14 18:55:08.24	298.85	3.51	-41.2	-42.8	18.7	0.00e+00	92	29	0	1179648000	54	7065
2026-01-14 18:55:09.25	298.76	3.46	-41.2	-42.8	18.7	0.00e+00	0	29	0	1181745152	54	7048
2026-01-14 18:55:10.26	298.66	3.40	-41.3	-43.0	18.5	0.00e+00	2	29	0	1182793728	54	7218
2026-01-14 18:55:11.27	298.57	3.35	-41.3	-43.0	18.5	0.00e+00	2	29	0	1184890880	54	7175
2026-01-14 18:55:12.28	298.48	3.30	-41.5	-43.2	18.4	0.00e+00	8	29	0	1186988032	54	7354
2026-01-14 18:55:13.29	298.38	3.25	-41.4	-43.1	18.4	0.00e+00	0	29	0	1189085184	54	7317
2026-01-14 18:55:14.30	298.29	3.20	-41.3	-42.9	18.5	0.00e+00	2	29	0	1191182336	54	7155
2026-01-14 18:55:15.31	298.20	3.15	-41.2	-42.8	18.6	0.00e+00	92	29	0	1192230912	54	7056
2026-01-14 18:55:16.32	298.11	3.09	-41.4	-43.1	18.4	0.00e+00	8	29	0	1194328064	54	7308
