passes_logs/2026/01/14/R4.6S_Anadyr/R4.6S_Anadyr__20260114_180656_AQUA_rec.log

#Pass ID: 20260114_180656_AQUA
#Satellite: AQUA
#Configuration: AQUA
#almurnet v.1.7.20251203
#Start time: 2026-01-14 18:06:57

#Version: 2.2.20231116
#Station: R4.6S_Anadyr
#Location: 177.4865 lon 64.73178 lat
#TLE: 1 27424U 02022A   26013.85306262  .00000759  00000+0  16188-3 0  9996
#TLE: 2 27424  98.4079 340.2612 0002043  79.8220 301.8652 14.61819210260728

#Time	Az	El	Level	Level2	SNR	BER	BlckErr	Temp	State	Recorded	gain1	gain2
2026-01-14 18:06:57.74	23.39	0.08	-48.7	-60.4	3.5	8.44e-01	0	26	0	0	60	37726
2026-01-14 18:06:58.75	23.34	0.14	-49.1	-67.0	3.5	3.02e+01	0	27	104	0	60	86004
2026-01-14 18:06:59.76	23.29	0.20	-49.2	-67.1	3.5	3.02e+01	0	27	104	0	60	86768
2026-01-14 18:07:00.77	23.24	0.26	-49.1	-67.0	3.5	3.02e+01	0	27	104	0	60	86083
2026-01-14 18:07:01.78	23.19	0.32	-49.2	-67.0	3.5	3.02e+01	0	27	104	0	60	86246
2026-01-14 18:07:02.79	23.14	0.38	-49.2	-67.1	3.5	3.02e+01	0	28	104	0	60	86804
2026-01-14 18:07:03.80	23.09	0.43	-49.2	-67.1	3.5	3.02e+01	0	28	104	0	60	87135
2026-01-14 18:07:04.81	23.04	0.49	-49.1	-67.0	3.5	3.02e+01	0	28	104	0	60	86458
2026-01-14 18:07:05.82	22.98	0.55	-49.1	-67.0	3.5	3.02e+01	0	27	104	0	60	85852
2026-01-14 18:07:06.83	22.93	0.61	-49.1	-67.0	3.5	3.02e+01	0	28	104	0	60	85687
2026-01-14 18:07:07.84	22.88	0.67	-49.0	-66.9	3.5	3.02e+01	0	28	104	0	60	85054
2026-01-14 18:07:08.85	22.83	0.73	-48.8	-66.7	3.5	3.02e+01	0	28	104	0	60	83554
2026-01-14 18:07:09.86	22.78	0.79	-48.5	-66.5	3.5	3.02e+01	0	28	104	0	60	81770
2026-01-14 18:07:10.87	22.72	0.85	-48.4	-66.4	3.5	3.02e+01	0	28	104	0	60	79988
2026-01-14 18:07:11.88	22.67	0.91	-48.2	-66.2	3.5	3.02e+01	0	28	104	0	60	78230
2026-01-14 18:07:12.89	22.62	0.97	-48.0	-65.9	3.5	3.02e+01	0	28	104	0	60	75899
2026-01-14 18:07:13.90	22.56	1.03	-47.5	-65.5	3.5	3.02e+01	0	28	104	0	60	72683
2026-01-14 18:07:14.91	22.51	1.09	-47.5	-65.5	3.5	3.02e+01	0	28	104	0	60	72594
2026-01-14 18:07:15.93	22.45	1.15	-47.5	-65.5	3.5	3.02e+01	0	28	104	0	60	72512
2026-01-14 18:07:16.94	22.40	1.21	-47.5	-65.5	3.5	3.02e+01	0	28	104	0	60	72422
2026-01-14 18:07:17.95	22.35	1.27	-47.5	-65.5	3.5	3.02e+01	0	28	104	0	60	72484
2026-01-14 18:07:18.96	22.29	1.33	-47.5	-65.5	3.5	3.02e+01	0	28	104	0	60	72211
2026-01-14 18:07:19.97	22.24	1.39	-47.5	-65.5	3.5	3.02e+01	0	28	104	0	60	72365
2026-01-14 18:07:20.98	22.18	1.45	-47.5	-65.5	3.5	3.02e+01	0	28	104	0	60	72794
2026-01-14 18:07:21.99	22.12	1.51	-47.5	-65.5	3.5	3.02e+01	0	28	104	0	60	72775
2026-01-14 18:07:23.00	22.07	1.57	-47.5	-65.4	3.5	3.02e+01	0	28	104	0	60	72020
2026-01-14 18:07:24.01	22.01	1.64	-47.5	-65.5	3.5	3.02e+01	0	28	104	0	60	72239
2026-01-14 18:07:25.02	21.96	1.70	-47.5	-65.5	3.5	3.02e+01	0	28	104	0	60	72513
2026-01-14 18:07:26.03	21.90	1.76	-47.5	-65.5	3.5	3.02e+01	0	28	104	0	60	72654
2026-01-14 18:07:27.04	21.84	1.82	-47.5	-65.5	3.5	3.02e+01	0	28	104	0	60	72416
2026-01-14 18:07:28.04	21.79	1.88	-47.5	-65.5	3.5	3.02e+01	0	28	104	0	60	72210
2026-01-14 18:07:29.05	21.73	1.94	-47.5	-65.5	3.5	3.02e+01	0	28	104	0	60	72577
2026-01-14 18:07:30.07	21.67	2.00	-47.5	-65.5	3.5	3.02e+01	0	28	104	0	60	72497
2026-01-14 18:07:31.07	21.61	2.07	-47.5	-65.5	3.5	3.02e+01	0	28	104	0	60	72733
2026-01-14 18:07:32.09	21.55	2.13	-47.5	-65.4	3.5	3.02e+01	0	28	104	0	60	71824
2026-01-14 18:07:33.10	21.49	2.19	-47.5	-65.4	3.5	3.02e+01	0	28	104	0	60	71491
2026-01-14 18:07:34.11	21.43	2.25	-47.5	-65.3	3.5	3.02e+01	0	28	104	0	60	71030
2026-01-14 18:07:35.11	21.38	2.31	-47.5	-65.3	3.5	3.02e+01	0	28	104	0	60	70993
2026-01-14 18:07:36.12	21.32	2.38	-47.5	-65.4	3.5	3.02e+01	0	28	104	0	60	71317
2026-01-14 18:07:37.13	21.26	2.44	-47.5	-65.4	3.5	3.02e+01	0	28	104	0	60	71610
2026-01-14 18:07:38.14	21.20	2.50	-47.5	-65.5	3.5	3.02e+01	0	28	104	0	60	72729
2026-01-14 18:07:39.15	21.14	2.57	-47.5	-65.5	3.5	3.02e+01	0	28	104	0	60	72518
2026-01-14 18:07:40.16	21.08	2.63	-47.5	-65.5	3.5	3.02e+01	0	28	104	0	60	72260
2026-01-14 18:07:41.17	21.01	2.69	-47.5	-65.5	3.5	3.02e+01	0	28	104	0	60	72117
2026-01-14 18:07:42.18	20.95	2.75	-47.5	-65.5	3.5	3.02e+01	0	28	104	0	60	72633
2026-01-14 18:07:43.19	20.89	2.82	-47.5	-65.4	3.5	3.02e+01	0	28	104	0	60	71701
2026-01-14 18:07:44.20	20.83	2.88	-47.5	-65.1	3.5	3.02e+01	0	28	104	0	60	69577
2026-01-14 18:07:45.21	20.77	2.95	-47.4	-64.9	3.5	3.02e+01	0	28	104	0	60	67724
2026-01-14 18:07:46.22	20.70	3.01	-47.4	-64.9	3.5	3.02e+01	0	28	104	0	60	67647
2026-01-14 18:07:47.23	20.64	3.07	-47.4	-65.0	3.5	3.02e+01	0	28	104	0	60	68746
2026-01-14 18:07:48.24	20.58	3.14	-47.5	-65.4	3.5	3.02e+01	0	28	104	0	60	71859
2026-01-14 18:07:49.25	20.51	3.20	-47.4	-64.8	3.5	3.02e+01	0	28	104	0	60	67052
2026-01-14 18:07:50.26	20.45	3.27	-46.9	-62.4	3.5	3.02e+01	0	28	104	0	60	50717
2026-01-14 18:07:51.27	20.39	3.33	-46.0	-59.9	3.5	3.02e+01	0	28	104	0	60	37916
2026-01-14 18:07:52.28	20.32	3.40	-44.9	-57.5	3.5	3.02e+01	0	28	104	0	60	28811
2026-01-14 18:07:53.29	20.26	3.46	-44.0	-56.0	3.5	3.02e+01	0	28	104	0	60	24392
2026-01-14 18:07:54.30	20.19	3.52	-43.6	-55.3	3.5	3.02e+01	0	28	104	0	60	22418
2026-01-14 18:07:55.31	20.13	3.59	-43.5	-55.3	3.5	3.02e+01	0	28	104	0	60	22388
2026-01-14 18:07:56.32	20.06	3.65	-42.4	-53.6	3.5	3.02e+01	0	28	104	0	60	18519
2026-01-14 18:07:57.32	19.99	3.72	-38.5	-49.1	3.5	3.02e+01	0	28	104	0	52	17312
2026-01-14 18:07:58.33	19.93	3.78	-47.6	-65.3	3.5	3.02e+01	0	28	104	0	60	70475
2026-01-14 18:07:59.34	19.86	3.85	-42.7	-54.1	3.6	3.02e+01	0	28	104	0	60	19407
2026-01-14 18:08:00.35	19.79	3.92	-43.4	-55.1	3.5	3.02e+01	0	28	104	0	60	21902
2026-01-14 18:08:01.36	19.72	3.98	-40.3	-51.0	3.5	3.02e+01	0	28	104	0	56	17220
2026-01-14 18:08:02.37	19.66	4.05	-39.0	-49.6	3.5	3.02e+01	0	28	104	0	54	16426
2026-01-14 18:08:03.38	19.59	4.11	-38.2	-48.7	3.5	3.02e+01	0	28	104	0	52	16553
2026-01-14 18:08:04.39	19.52	4.18	-38.0	-48.4	3.5	3.02e+01	0	28	104	0	52	15978
2026-01-14 18:08:05.40	19.45	4.25	-38.8	-49.3	3.5	3.02e+01	0	28	104	0	50	19953
2026-01-14 18:08:06.41	19.38	4.31	-40.4	-51.1	3.6	3.02e+01	0	28	104	0	52	21953
2026-01-14 18:08:07.42	19.31	4.38	-47.5	-64.0	3.5	3.02e+01	0	28	104	0	60	61198
2026-01-14 18:08:08.43	19.24	4.45	-39.9	-50.6	3.5	3.02e+01	0	28	104	0	58	14628
2026-01-14 18:08:09.44	19.17	4.51	-42.5	-53.8	3.5	3.02e+01	0	28	104	0	60	18805
2026-01-14 18:08:10.45	19.10	4.58	-40.1	-50.9	3.5	3.02e+01	0	28	104	0	54	19038
2026-01-14 18:08:11.46	19.03	4.65	-39.7	-50.4	3.5	3.02e+01	0	28	104	0	54	17956
2026-01-14 18:08:12.47	18.96	4.72	-38.5	-49.1	3.5	3.02e+01	0	28	104	0	52	17329
2026-01-14 18:08:13.47	18.89	4.78	-37.8	-48.3	3.5	3.02e+01	0	28	104	0	50	17798
2026-01-14 18:08:14.48	18.81	4.85	-38.5	-49.0	3.5	3.02e+01	0	28	104	0	50	19351
2026-01-14 18:08:15.49	18.74	4.92	-41.4	-52.4	3.5	3.02e+01	0	28	104	0	52	25352
2026-01-14 18:08:16.50	18.67	4.99	-47.2	-62.5	3.5	3.02e+01	0	28	104	0	60	51370
2026-01-14 18:08:17.51	18.59	5.05	-39.3	-49.9	3.5	3.02e+01	0	28	104	0	56	15075
2026-01-14 18:08:18.52	18.52	5.12	-41.4	-52.3	3.5	3.02e+01	0	28	104	0	58	17856
2026-01-14 18:08:19.53	18.44	5.19	-39.0	-49.6	3.5	3.02e+01	0	28	104	0	54	16327
2026-01-14 18:08:20.54	18.37	5.26	-38.7	-49.2	3.5	3.02e+01	0	28	104	0	52	17609
2026-01-14 18:08:21.55	18.29	5.33	-38.1	-48.6	3.5	3.02e+01	0	28	104	0	52	16447
2026-01-14 18:08:22.56	18.22	5.40	-37.8	-48.2	3.5	3.02e+01	0	28	104	0	50	17674
2026-01-14 18:08:23.57	18.14	5.47	-39.0	-49.5	3.5	3.02e+01	0	28	104	0	52	18271
2026-01-14 18:08:24.58	18.07	5.54	-42.4	-53.6	3.5	3.02e+01	0	28	104	0	50	32628
2026-01-14 18:08:25.59	17.99	5.61	-47.6	-64.2	3.5	3.02e+01	0	28	104	0	60	62606
2026-01-14 18:08:26.60	17.91	5.67	-41.4	-52.3	3.5	3.02e+01	0	28	104	0	60	15859
2026-01-14 18:08:27.60	17.83	5.74	-44.1	-55.9	3.5	3.02e+01	0	28	104	0	60	24060
2026-01-14 18:08:28.62	17.76	5.81	-42.4	-53.5	3.5	3.02e+01	0	28	104	0	58	20395
2026-01-14 18:08:29.62	17.68	5.88	-41.1	-51.9	3.5	3.02e+01	0	28	104	0	58	17052
2026-01-14 18:08:30.63	17.60	5.95	-41.8	-52.8	3.5	3.02e+01	0	28	104	0	58	18873
2026-01-14 18:08:31.64	17.52	6.02	-39.3	-49.8	3.5	3.02e+01	0	28	104	0	54	16848
2026-01-14 18:08:32.65	17.44	6.10	-43.2	-54.6	3.7	3.02e+01	0	28	104	0	56	26129
2026-01-14 18:08:33.66	17.36	6.17	-43.8	-55.5	3.5	3.02e+01	0	28	104	0	58	25584
2026-01-14 18:08:34.67	17.28	6.24	-42.3	-53.4	3.5	3.02e+01	0	28	104	0	60	17981
2026-01-14 18:08:35.68	17.20	6.31	-47.6	-63.5	3.5	3.02e+01	0	28	104	0	60	57450
2026-01-14 18:08:36.69	17.12	6.38	-45.5	-58.1	3.5	3.02e+01	0	28	104	0	60	31014
2026-01-14 18:08:37.70	17.03	6.45	-41.2	-52.0	3.5	3.02e+01	0	28	104	0	58	17159
2026-01-14 18:08:38.71	16.95	6.52	-40.0	-50.6	3.6	3.02e+01	0	28	104	0	56	16506
2026-01-14 18:08:39.71	16.87	6.59	-39.4	-49.9	3.6	3.02e+01	0	28	104	0	54	17045
2026-01-14 18:08:40.72	16.78	6.66	-45.6	-58.3	3.5	3.02e+01	0	28	104	0	60	31493
2026-01-14 18:08:41.73	16.70	6.74	-41.3	-52.1	3.5	3.02e+01	0	28	104	0	60	15565
2026-01-14 18:08:42.74	16.62	6.81	-47.8	-64.5	3.5	3.02e+01	0	28	104	0	60	64625
2026-01-14 18:08:43.75	16.53	6.88	-46.0	-59.3	3.5	3.02e+01	0	28	104	0	60	35308
2026-01-14 18:08:44.76	16.45	6.95	-39.3	-49.9	3.5	3.02e+01	0	28	104	0	50	21321
2026-01-14 18:08:45.76	16.36	7.03	-38.2	-48.6	3.5	3.02e+01	0	28	104	0	52	16472
2026-01-14 18:08:46.77	16.27	7.10	-38.1	-48.5	3.5	3.02e+01	0	28	104	0	50	18197
2026-01-14 18:08:47.78	16.19	7.17	-37.8	-48.2	3.6	3.02e+01	0	28	104	0	50	17569
2026-01-14 18:08:48.79	16.10	7.24	-37.3	-47.7	3.5	3.02e+01	0	28	104	0	50	16514
2026-01-14 18:08:49.80	16.01	7.32	-41.9	-52.9	3.4	3.02e+01	0	28	104	0	56	21358
2026-01-14 18:08:50.81	15.92	7.39	-45.2	-57.8	3.5	3.02e+01	0	29	104	0	60	29803
2026-01-14 18:08:51.82	15.83	7.46	-46.8	-60.8	3.5	3.02e+01	0	29	104	0	60	42428
2026-01-14 18:08:52.83	15.74	7.54	-44.8	-57.1	3.5	3.02e+01	0	29	104	0	60	27496
2026-01-14 18:08:53.83	15.66	7.61	-47.7	-63.9	3.5	3.02e+01	0	28	104	0	60	60272
2026-01-14 18:08:54.85	15.56	7.69	-45.1	-57.4	3.5	3.02e+01	0	29	104	0	60	28563
2026-01-14 18:08:55.86	15.47	7.76	-44.5	-56.4	3.5	3.02e+01	0	28	104	0	60	25333
2026-01-14 18:08:56.87	15.38	7.84	-43.8	-55.4	3.5	3.02e+01	0	28	104	0	60	22611
2026-01-14 18:08:57.88	15.29	7.91	-42.5	-53.6	3.5	3.02e+01	0	28	104	0	60	18409
2026-01-14 18:08:58.88	15.20	7.99	-48.1	-65.2	3.5	3.02e+01	0	29	104	0	60	70338
2026-01-14 18:08:59.90	15.10	8.06	-48.0	-65.0	3.5	3.02e+01	0	28	104	0	60	68587
2026-01-14 18:09:00.91	15.01	8.14	-44.2	-56.0	3.5	3.02e+01	0	28	104	0	60	24226
2026-01-14 18:09:01.92	14.92	8.21	-37.4	-47.7	3.5	3.02e+01	0	29	104	0	48	18674
2026-01-14 18:09:02.92	14.82	8.29	-48.2	-65.8	3.5	3.02e+01	0	28	104	0	60	74930
2026-01-14 18:09:03.93	14.73	8.36	-38.2	-48.6	3.6	3.02e+01	0	29	104	0	54	14670
2026-01-14 18:09:04.94	14.63	8.44	-37.9	-48.3	3.5	3.02e+01	0	28	104	0	50	17860
2026-01-14 18:09:05.95	14.53	8.51	-37.8	-48.2	3.5	3.02e+01	0	28	104	0	50	17659
2026-01-14 18:09:06.96	14.44	8.59	-37.7	-48.0	3.6	3.02e+01	0	28	104	0	50	17200
2026-01-14 18:09:07.97	14.34	8.67	-46.4	-59.7	3.5	3.02e+01	0	28	104	0	60	37236
2026-01-14 18:09:08.98	14.24	8.74	-45.1	-57.4	3.5	3.02e+01	0	29	104	0	60	28454
2026-01-14 18:09:09.99	14.14	8.82	-47.9	-64.0	3.5	3.02e+01	0	28	104	0	60	61247
2026-01-14 18:09:11.00	14.04	8.90	-41.7	-52.6	3.5	3.02e+01	0	28	104	0	58	18475
2026-01-14 18:09:12.01	13.94	8.98	-47.8	-64.1	3.5	3.02e+01	0	29	104	0	60	61555
2026-01-14 18:09:13.02	13.84	9.05	-41.4	-52.3	3.5	3.02e+01	0	29	104	0	60	15787
2026-01-14 18:09:14.02	13.74	9.13	-40.8	-51.6	3.5	3.02e+01	0	29	104	0	56	18358
2026-01-14 18:09:15.03	13.64	9.21	-40.6	-51.3	3.5	3.02e+01	0	28	104	0	56	17793
2026-01-14 18:09:16.04	13.54	9.29	-40.9	-51.7	3.5	3.02e+01	0	28	104	0	56	18617
2026-01-14 18:09:17.05	13.44	9.36	-41.6	-52.6	3.6	3.02e+01	0	28	104	0	56	20681
2026-01-14 18:09:18.06	13.33	9.44	-47.9	-63.9	3.5	3.02e+01	0	28	104	0	60	60636
2026-01-14 18:09:19.07	13.23	9.52	-45.1	-57.3	3.6	3.02e+01	0	29	104	0	60	28363
2026-01-14 18:09:20.08	13.12	9.60	-37.2	-47.5	3.5	3.02e+01	0	28	104	0	46	20367
2026-01-14 18:09:21.09	13.02	9.68	-48.3	-65.8	3.5	3.02e+01	0	29	104	0	60	74993
2026-01-14 18:09:22.10	12.91	9.76	-40.5	-51.2	3.6	3.02e+01	0	29	104	0	58	15680
2026-01-14 18:09:23.11	12.80	9.84	-41.1	-51.9	3.5	3.02e+01	0	29	104	0	56	19011
2026-01-14 18:09:24.12	12.70	9.92	-40.8	-51.5	3.5	3.02e+01	0	29	104	0	56	18258
2026-01-14 18:09:25.13	12.59	10.00	-41.1	-51.8	3.6	3.02e+01	0	29	104	0	56	18925
2026-01-14 18:09:26.14	12.48	10.08	-41.4	-52.3	3.5	3.02e+01	0	29	104	0	56	19981
2026-01-14 18:09:27.15	12.37	10.16	-44.1	-55.8	3.6	3.02e+01	0	29	104	0	60	23658
2026-01-14 18:09:28.15	12.26	10.24	-47.2	-61.7	3.6	3.02e+01	0	28	104	0	60	46541
2026-01-14 18:09:29.16	12.15	10.32	-40.0	-50.5	3.5	3.02e+01	0	29	104	0	58	14499
2026-01-14 18:09:30.17	12.04	10.40	-47.5	-63.8	3.5	3.02e+01	0	29	104	0	60	59272
2026-01-14 18:09:31.18	11.93	10.48	-41.0	-51.7	3.5	3.02e+01	0	29	104	0	56	18729
2026-01-14 18:09:32.19	11.81	10.56	-40.3	-50.9	3.6	3.02e+01	0	29	104	0	56	16942
2026-01-14 18:09:33.20	11.70	10.64	-39.0	-49.5	3.5	3.02e+01	0	29	104	0	54	16171
2026-01-14 18:09:34.21	11.59	10.72	-39.0	-49.5	3.5	3.02e+01	0	29	104	0	52	18140
2026-01-14 18:09:35.22	11.47	10.80	-48.4	-65.6	3.6	3.02e+01	0	29	104	0	60	73728
2026-01-14 18:09:36.23	11.36	10.89	-37.3	-47.7	3.5	3.02e+01	0	29	104	0	52	14738
2026-01-14 18:09:37.24	11.24	10.97	-47.9	-63.9	3.5	3.02e+01	0	29	104	0	60	60376
2026-01-14 18:09:38.24	11.12	11.05	-44.7	-56.6	3.5	3.02e+01	0	29	104	0	60	26149
2026-01-14 18:09:39.25	11.01	11.13	-39.9	-50.6	3.5	3.02e+01	0	29	104	0	54	18323
2026-01-14 18:09:40.26	10.89	11.21	-36.7	-47.0	3.5	3.02e+01	0	28	104	0	48	17147
2026-01-14 18:09:41.27	10.77	11.30	-36.4	-46.7	3.5	3.02e+01	0	29	104	0	48	16587
2026-01-14 18:09:42.28	10.65	11.38	-35.9	-46.2	3.4	3.02e+01	0	29	104	0	48	15595
2026-01-14 18:09:43.29	10.53	11.46	-35.7	-45.9	3.5	3.02e+01	0	29	104	0	46	17044
2026-01-14 18:09:44.30	10.40	11.55	-36.1	-46.4	3.6	3.02e+01	0	29	104	0	48	15969
2026-01-14 18:09:45.31	10.28	11.63	-41.6	-52.4	3.5	3.02e+01	0	29	104	0	60	16061
2026-01-14 18:09:46.31	10.16	11.71	-45.5	-57.9	3.6	3.02e+01	0	29	104	0	60	30236
2026-01-14 18:09:47.32	10.04	11.80	-38.0	-48.3	3.5	3.02e+01	0	29	104	0	52	15934
2026-01-14 18:09:48.33	9.91	11.88	-48.0	-64.1	3.5	3.02e+01	0	29	104	0	60	61578
2026-01-14 18:09:49.34	9.79	11.97	-40.3	-50.8	3.5	3.02e+01	0	29	104	0	56	16877
2026-01-14 18:09:50.35	9.66	12.05	-38.9	-49.3	3.5	3.02e+01	0	29	104	0	54	15881
2026-01-14 18:09:51.36	9.53	12.14	-38.2	-48.6	3.5	3.02e+01	0	29	104	0	52	16376
2026-01-14 18:09:52.37	9.40	12.22	-39.1	-49.7	3.5	3.02e+01	0	29	104	0	52	18554
2026-01-14 18:09:53.38	9.28	12.31	-46.6	-59.8	3.5	3.02e+01	0	29	104	0	60	37746
2026-01-14 18:09:54.39	9.15	12.39	-36.0	-46.3	3.5	3.02e+01	0	29	104	0	48	15918
2026-01-14 18:09:55.40	9.02	12.48	-48.2	-64.5	3.5	3.02e+01	0	29	104	0	60	64499
2026-01-14 18:09:56.41	8.88	12.56	-39.9	-50.5	3.4	3.02e+01	0	29	104	0	58	14433
2026-01-14 18:09:57.42	8.75	12.65	-43.0	-54.2	3.5	3.02e+01	0	29	104	0	60	19681
2026-01-14 18:09:58.43	8.62	12.73	-39.9	-50.4	3.5	3.02e+01	0	29	104	0	54	18045
2026-01-14 18:09:59.44	8.49	12.82	-37.7	-48.0	3.5	3.02e+01	0	29	104	0	50	17239
2026-01-14 18:10:00.45	8.35	12.91	-36.3	-46.6	3.6	3.02e+01	0	29	104	0	48	16344
2026-01-14 18:10:01.46	8.22	12.99	-35.3	-45.5	3.5	3.02e+01	0	29	104	0	46	16227
2026-01-14 18:10:02.47	8.08	13.08	-35.7	-46.0	3.5	3.02e+01	0	29	104	0	46	17202
2026-01-14 18:10:03.48	7.94	13.17	-39.4	-49.9	3.5	3.02e+01	0	29	104	0	54	17033
2026-01-14 18:10:04.49	7.80	13.26	-42.4	-53.5	3.5	3.02e+01	0	29	104	0	60	18128
2026-01-14 18:10:05.50	7.66	13.34	-40.1	-50.6	3.6	3.02e+01	0	29	104	0	50	23155
2026-01-14 18:10:06.51	7.52	13.43	-46.4	-59.4	3.5	3.02e+01	0	29	104	0	60	36092
2026-01-14 18:10:07.52	7.38	13.52	-37.7	-48.0	3.5	3.02e+01	0	29	104	0	50	17174
2026-01-14 18:10:08.53	7.24	13.61	-36.7	-47.0	3.5	3.02e+01	0	29	104	0	48	17115
2026-01-14 18:10:09.54	7.10	13.69	-35.8	-46.0	3.5	3.02e+01	0	29	104	0	46	17281
2026-01-14 18:10:10.54	6.96	13.78	-39.9	-50.5	3.5	3.02e+01	0	29	104	0	48	25650
2026-01-14 18:10:11.55	6.81	13.87	-39.0	-49.4	3.5	3.02e+01	0	29	104	0	56	14374
2026-01-14 18:10:12.56	6.67	13.96	-40.0	-50.5	3.3	3.02e+01	0	29	104	0	46	28911
2026-01-14 18:10:13.57	6.52	14.05	-48.2	-64.2	3.5	3.02e+01	0	29	104	0	60	62469
2026-01-14 18:10:14.58	6.37	14.14	-38.7	-49.1	3.5	3.02e+01	0	29	104	0	54	15581
2026-01-14 18:10:15.59	6.22	14.23	-42.0	-52.9	3.5	3.02e+01	0	29	104	0	60	16961
2026-01-14 18:10:16.60	6.07	14.32	-40.6	-51.2	3.5	3.02e+01	0	29	104	0	56	17647
2026-01-14 18:10:17.61	5.92	14.41	-40.1	-50.7	3.5	3.02e+01	0	29	104	0	54	18697
2026-01-14 18:10:18.62	5.77	14.50	-39.9	-50.5	3.5	3.02e+01	0	29	104	0	54	18116
2026-01-14 18:10:19.63	5.62	14.59	-39.7	-50.2	3.5	3.02e+01	0	29	104	0	54	17687
2026-01-14 18:10:20.63	5.47	14.67	-42.4	-53.4	3.6	3.02e+01	0	28	104	0	56	22553
2026-01-14 18:10:21.64	5.31	14.76	-41.9	-52.7	3.8	3.02e+01	0	29	104	0	52	26330
2026-01-14 18:10:22.65	5.16	14.86	-40.3	-50.9	3.5	3.02e+01	0	29	104	0	56	17023
2026-01-14 18:10:23.66	5.00	14.95	-47.6	-62.0	3.5	3.02e+01	0	29	104	0	60	48449
2026-01-14 18:10:24.67	4.84	15.04	-44.4	-56.0	3.5	3.02e+01	0	29	104	0	60	24249
2026-01-14 18:10:25.68	4.69	15.13	-39.6	-50.1	3.5	3.02e+01	0	29	104	0	54	17442
2026-01-14 18:10:26.68	4.53	15.22	-39.4	-49.9	3.5	3.02e+01	0	29	104	0	54	17068
2026-01-14 18:10:27.69	4.37	15.31	-39.7	-50.2	3.5	3.02e+01	0	29	104	0	54	17502
2026-01-14 18:10:28.70	4.20	15.40	-39.3	-49.8	3.5	3.02e+01	0	29	104	0	50	21116
2026-01-14 18:10:29.71	4.04	15.49	-45.2	-57.4	3.5	3.02e+01	0	29	104	0	60	28446
2026-01-14 18:10:30.72	3.88	15.58	-40.5	-51.1	3.5	3.02e+01	0	29	104	0	54	19546
2026-01-14 18:10:31.73	3.71	15.68	-36.1	-46.3	3.5	3.02e+01	0	29	104	0	48	15933
2026-01-14 18:10:32.74	3.55	15.77	-48.3	-65.0	3.5	3.02e+01	0	29	104	0	60	68734
2026-01-14 18:10:33.75	3.38	15.86	-40.0	-50.6	3.5	3.02e+01	0	29	104	0	60	12989
2026-01-14 18:10:34.76	3.21	15.95	-36.1	-46.4	3.5	3.02e+01	0	29	104	0	48	15953
2026-01-14 18:10:35.77	3.04	16.05	-35.7	-46.0	3.5	3.02e+01	0	29	104	0	46	17203
2026-01-14 18:10:36.78	2.87	16.14	-35.2	-45.4	3.5	3.02e+01	0	29	104	0	46	16060
2026-01-14 18:10:37.78	2.70	16.23	-44.5	-56.2	3.6	3.02e+01	0	29	104	0	58	27925
2026-01-14 18:10:38.79	2.53	16.32	-39.7	-50.2	3.6	3.02e+01	0	29	104	0	54	17512
2026-01-14 18:10:39.80	2.35	16.42	-48.5	-65.4	3.5	3.02e+01	0	29	104	0	60	72064
2026-01-14 18:10:40.81	2.18	16.51	-46.7	-60.3	3.5	3.02e+01	0	29	104	0	60	39787
2026-01-14 18:10:41.82	2.00	16.60	-42.5	-53.5	3.5	3.02e+01	0	29	104	0	54	25679
2026-01-14 18:10:42.83	1.82	16.70	-40.3	-50.9	3.5	3.02e+01	0	29	104	0	56	16946
2026-01-14 18:10:43.84	1.64	16.79	-38.9	-49.5	3.5	3.02e+01	0	29	104	0	52	18130
2026-01-14 18:10:44.85	1.46	16.88	-39.2	-49.7	3.5	3.02e+01	0	29	104	0	52	18532
2026-01-14 18:10:45.86	1.28	16.98	-38.3	-48.7	3.5	3.02e+01	0	29	104	0	52	16608
2026-01-14 18:10:46.87	1.10	17.07	-35.7	-45.9	3.6	3.02e+01	0	29	104	0	46	17056
2026-01-14 18:10:47.88	0.92	17.16	-44.2	-55.8	3.5	3.02e+01	0	29	104	0	60	23739
2026-01-14 18:10:48.89	0.73	17.26	-45.7	-58.0	3.5	3.02e+01	0	29	104	0	60	30586
2026-01-14 18:10:49.90	0.54	17.35	-43.1	-54.2	3.5	3.02e+01	0	29	104	0	60	19820
2026-01-14 18:10:50.91	0.36	17.45	-48.6	-65.6	3.5	3.02e+01	0	29	104	0	60	73156
2026-01-14 18:10:51.92	0.17	17.54	-42.5	-53.5	3.6	3.02e+01	0	29	104	0	60	18133
2026-01-14 18:10:52.93	359.98	17.64	-41.3	-52.0	3.5	3.02e+01	0	29	104	0	56	19272
2026-01-14 18:10:53.94	359.79	17.73	-40.2	-50.7	3.5	3.02e+01	0	29	104	0	56	16662
2026-01-14 18:10:54.95	359.59	17.83	-40.5	-51.1	3.5	3.02e+01	0	29	104	0	56	17372
2026-01-14 18:10:55.96	359.40	17.92	-45.6	-58.0	3.5	3.02e+01	0	29	104	0	60	30526
2026-01-14 18:10:56.96	359.21	18.01	-46.4	-59.3	3.5	3.02e+01	0	29	104	0	60	35567
2026-01-14 18:10:57.97	359.01	18.11	-46.1	-58.7	3.5	3.02e+01	0	29	104	0	60	33261
2026-01-14 18:10:58.98	358.81	18.20	-37.1	-47.5	3.5	3.02e+01	0	29	104	0	46	20322
2026-01-14 18:10:59.99	358.61	18.30	-48.4	-64.1	3.5	3.02e+01	0	29	104	0	60	61794
2026-01-14 18:11:01.00	358.41	18.39	-35.9	-46.1	3.5	3.02e+01	0	29	104	0	48	15483
2026-01-14 18:11:02.01	358.21	18.49	-35.6	-45.8	3.5	3.02e+01	0	29	104	0	46	16725
2026-01-14 18:11:03.02	358.01	18.58	-35.3	-45.5	3.5	3.02e+01	0	29	104	0	46	16251
2026-01-14 18:11:04.03	357.80	18.68	-35.3	-45.5	3.5	3.02e+01	0	29	104	0	46	16174
2026-01-14 18:11:05.04	357.59	18.78	-46.7	-59.8	3.5	3.02e+01	0	29	104	0	60	37660
2026-01-14 18:11:06.05	357.39	18.87	-38.0	-48.3	3.5	3.02e+01	0	29	104	0	52	15941
2026-01-14 18:11:07.06	357.18	18.97	-48.5	-65.0	3.5	3.02e+01	0	29	104	0	60	68677
2026-01-14 18:11:08.07	356.97	19.06	-45.8	-58.2	3.5	3.02e+01	0	29	104	0	60	31218
2026-01-14 18:11:09.08	356.76	19.16	-46.0	-58.6	3.5	3.02e+01	0	29	104	0	60	32854
2026-01-14 18:11:10.09	356.54	19.25	-40.5	-51.1	3.5	3.02e+01	0	29	104	0	56	17448
2026-01-14 18:11:11.10	356.33	19.35	-41.2	-51.8	3.5	3.02e+01	0	29	104	0	56	18935
2026-01-14 18:11:12.11	356.11	19.44	-39.1	-49.6	3.6	3.02e+01	0	29	104	0	54	16366
2026-01-14 18:11:13.12	355.89	19.54	-37.7	-48.0	3.5	3.02e+01	0	29	104	0	50	17261
2026-01-14 18:11:14.12	355.68	19.63	-35.4	-45.6	3.5	3.02e+01	0	29	104	0	46	16484
2026-01-14 18:11:15.13	355.46	19.73	-46.0	-58.6	3.5	3.02e+01	0	29	104	0	60	32723
2026-01-14 18:11:16.14	355.24	19.82	-44.6	-56.4	3.5	3.02e+01	0	29	104	0	60	25284
2026-01-14 18:11:17.15	355.01	19.92	-40.8	-51.6	3.4	3.02e+01	0	29	104	0	58	16334
2026-01-14 18:11:18.16	354.79	20.01	-48.8	-66.0	3.5	3.02e+01	0	29	104	0	60	77066
2026-01-14 18:11:19.17	354.56	20.11	-40.5	-51.1	3.5	3.02e+01	0	29	104	0	56	17341
2026-01-14 18:11:20.18	354.33	20.20	-39.9	-50.5	3.5	3.02e+01	0	29	104	0	54	18161
2026-01-14 18:11:21.19	354.10	20.30	-40.3	-50.9	3.5	3.02e+01	0	29	104	0	54	18987
2026-01-14 18:11:22.19	353.87	20.39	-40.4	-51.0	3.5	3.02e+01	0	29	104	0	56	17100
2026-01-14 18:11:23.20	353.64	20.49	-48.8	-66.7	3.5	3.02e+01	0	29	104	0	60	82864
2026-01-14 18:11:24.22	353.41	20.58	-43.3	-54.5	3.5	3.02e+01	0	29	104	0	60	20393
2026-01-14 18:11:25.22	353.17	20.68	-46.0	-58.7	3.5	3.02e+01	0	29	104	0	60	33034
2026-01-14 18:11:26.24	352.93	20.77	-36.8	-47.1	3.5	3.02e+01	0	29	104	0	50	15435
2026-01-14 18:11:27.24	352.70	20.87	-48.6	-65.2	3.5	3.02e+01	0	29	104	0	60	70035
2026-01-14 18:11:28.25	352.46	20.96	-36.0	-46.2	3.5	3.02e+01	0	29	104	0	48	15727
2026-01-14 18:11:29.27	352.21	21.06	-36.2	-46.5	3.5	3.02e+01	0	29	104	0	48	16241
2026-01-14 18:11:30.28	351.97	21.15	-35.8	-46.0	3.5	3.02e+01	0	29	104	0	46	17152
2026-01-14 18:11:31.28	351.73	21.24	-35.7	-45.9	3.5	3.02e+01	0	29	104	0	46	16964
2026-01-14 18:11:32.29	351.48	21.34	-44.3	-55.8	3.5	3.02e+01	0	29	104	0	60	23857
2026-01-14 18:11:33.30	351.23	21.43	-36.6	-46.9	3.6	3.02e+01	0	29	104	0	50	15078
2026-01-14 18:11:34.31	350.98	21.52	-48.9	-66.5	3.5	3.02e+01	0	29	104	0	60	81014
2026-01-14 18:11:35.32	350.73	21.62	-39.8	-50.3	3.5	3.02e+01	0	29	104	0	58	14211
2026-01-14 18:11:36.33	350.48	21.71	-46.2	-58.9	3.5	3.02e+01	0	29	104	0	60	33995
2026-01-14 18:11:37.34	350.22	21.80	-41.0	-51.6	3.5	3.02e+01	0	29	104	0	56	18514
2026-01-14 18:11:38.35	349.97	21.89	-40.2	-50.7	3.5	3.02e+01	0	29	104	0	56	16615
2026-01-14 18:11:39.36	349.71	21.99	-38.7	-49.1	3.6	3.02e+01	0	29	104	0	52	17394
2026-01-14 18:11:40.36	349.45	22.08	-37.9	-48.2	3.5	3.02e+01	0	29	104	0	50	17680
2026-01-14 18:11:41.37	349.19	22.17	-38.3	-48.7	3.5	3.02e+01	0	29	104	0	54	14825
2026-01-14 18:11:42.38	348.93	22.26	-41.6	-52.4	3.6	3.02e+01	0	29	104	0	60	15979
2026-01-14 18:11:43.39	348.67	22.35	-42.0	-52.9	3.5	3.02e+01	0	29	104	0	60	16934
2026-01-14 18:11:44.40	348.40	22.44	-38.0	-48.3	3.5	3.02e+01	0	29	104	0	52	15863
2026-01-14 18:11:45.40	348.13	22.53	-48.6	-65.1	3.6	3.02e+01	0	29	104	0	60	68940
2026-01-14 18:11:46.41	347.87	22.62	-40.0	-50.5	3.5	3.02e+01	0	29	104	0	52	20448
2026-01-14 18:11:47.42	347.59	22.71	-39.8	-50.3	3.5	3.02e+01	0	29	104	0	54	17888
2026-01-14 18:11:48.43	347.32	22.80	-40.4	-51.0	3.5	3.02e+01	0	29	104	0	54	19336
2026-01-14 18:11:49.43	347.05	22.89	-40.9	-51.6	3.5	3.02e+01	0	29	104	0	54	20644
2026-01-14 18:11:50.44	346.77	22.98	-47.7	-62.1	3.5	3.02e+01	0	29	104	0	60	49146
2026-01-14 18:11:51.45	346.50	23.07	-38.8	-49.2	3.5	3.02e+01	0	29	104	0	56	14031
2026-01-14 18:11:52.46	346.22	23.16	-39.6	-50.1	3.5	3.02e+01	0	29	104	0	60	12317
2026-01-14 18:11:53.47	345.94	23.25	-38.0	-48.3	3.5	3.02e+01	0	29	104	0	48	20070
2026-01-14 18:11:54.48	345.65	23.34	-47.5	-61.5	3.6	3.02e+01	0	29	104	0	60	45922
2026-01-14 18:11:55.49	345.37	23.42	-37.5	-47.8	3.5	3.02e+01	0	29	104	0	50	16883
2026-01-14 18:11:56.50	345.08	23.51	-36.4	-46.6	3.5	3.02e+01	0	29	104	0	48	16406
2026-01-14 18:11:57.51	344.80	23.60	-36.1	-46.3	3.5	3.02e+01	0	29	104	0	48	15845
2026-01-14 18:11:58.52	344.51	23.68	-36.9	-47.2	3.5	3.02e+01	0	29	104	0	46	19757
2026-01-14 18:11:59.53	344.22	23.77	-40.7	-51.3	3.5	3.02e+01	0	29	104	0	58	15892
2026-01-14 18:12:00.53	343.93	23.85	-37.4	-47.7	3.5	3.02e+01	0	29	104	0	46	20825
2026-01-14 18:12:01.54	343.63	23.94	-47.7	-62.0	3.5	3.02e+01	0	29	104	0	60	48721
2026-01-14 18:12:02.55	343.34	24.02	-41.7	-52.4	3.5	3.02e+01	0	29	104	0	58	18015
2026-01-14 18:12:03.56	343.04	24.10	-47.5	-61.7	3.5	3.02e+01	0	29	104	0	60	46600
2026-01-14 18:12:04.57	342.74	24.19	-44.4	-55.9	3.5	3.02e+01	0	29	104	0	60	24122
2026-01-14 18:12:05.58	342.44	24.27	-43.0	-54.0	3.5	3.02e+01	0	29	104	0	60	19333
2026-01-14 18:12:06.59	342.13	24.35	-41.9	-52.7	3.5	3.02e+01	0	29	104	0	60	16524
2026-01-14 18:12:07.60	341.83	24.43	-42.4	-53.3	3.5	3.02e+01	0	29	104	0	58	20009
2026-01-14 18:12:08.61	341.52	24.51	-48.1	-63.2	3.5	3.02e+01	0	29	104	0	60	55828
2026-01-14 18:12:09.62	341.22	24.59	-35.4	-45.6	3.4	3.02e+01	0	29	104	0	48	14650
2026-01-14 18:12:10.62	340.91	24.67	-43.1	-54.3	3.7	3.02e+01	0	29	104	0	56	25087
2026-01-14 18:12:11.63	340.60	24.75	-38.3	-48.7	3.6	3.02e+01	0	29	104	0	48	21004
2026-01-14 18:12:12.64	340.29	24.83	-40.0	-50.6	3.5	3.02e+01	0	29	104	0	56	16328
2026-01-14 18:12:13.65	339.97	24.91	-38.9	-49.3	3.5	3.02e+01	0	29	104	0	54	15874
2026-01-14 18:12:14.66	339.66	24.98	-38.6	-49.1	3.5	3.02e+01	0	29	104	0	52	17415
2026-01-14 18:12:15.67	339.34	25.06	-39.0	-49.4	3.5	3.02e+01	0	29	104	0	52	18091
2026-01-14 18:12:16.68	339.02	25.14	-36.2	-46.4	3.5	3.02e+01	0	29	104	0	48	16083
2026-01-14 18:12:17.69	338.70	25.21	-38.5	-48.9	3.5	3.02e+01	0	29	104	0	48	21426
2026-01-14 18:12:18.70	338.38	25.29	-45.6	-57.7	3.4	3.02e+01	0	29	104	0	54	41619
2026-01-14 18:12:19.71	338.05	25.36	-44.4	-55.9	3.5	3.02e+01	0	29	104	0	60	23960
2026-01-14 18:12:20.72	337.73	25.43	-39.3	-49.7	3.5	3.02e+01	0	29	104	0	48	23491
2026-01-14 18:12:21.73	337.40	25.50	-38.6	-49.0	3.6	3.02e+01	0	29	104	0	54	15334
2026-01-14 18:12:22.74	337.07	25.57	-37.7	-48.1	3.5	3.02e+01	0	29	104	0	50	17332
2026-01-14 18:12:23.75	336.74	25.64	-36.9	-47.2	3.5	3.02e+01	0	29	104	0	48	17535
2026-01-14 18:12:24.76	336.41	25.71	-36.5	-46.8	3.5	3.02e+01	0	29	104	0	48	16732
2026-01-14 18:12:25.77	336.08	25.78	-41.5	-52.4	3.6	3.02e+01	0	29	104	0	54	22583
2026-01-14 18:12:26.78	335.74	25.85	-39.2	-49.6	3.4	3.02e+01	0	29	104	0	50	20678
2026-01-14 18:12:27.79	335.41	25.92	-46.7	-59.6	3.5	3.02e+01	0	29	104	0	58	41124
2026-01-14 18:12:28.80	335.07	25.98	-47.1	-60.5	3.5	3.02e+01	0	29	104	0	60	40625
2026-01-14 18:12:29.80	334.73	26.05	-44.5	-56.0	3.5	3.02e+01	0	29	104	0	58	27281
2026-01-14 18:12:30.81	334.39	26.11	-44.4	-55.8	3.5	3.02e+01	0	29	104	0	60	23763
2026-01-14 18:12:31.82	334.05	26.18	-43.4	-54.6	3.5	3.02e+01	0	29	104	0	60	20668
2026-01-14 18:12:32.83	333.71	26.24	-42.0	-52.9	3.5	3.02e+01	0	29	104	0	60	16940
2026-01-14 18:12:33.84	333.36	26.30	-41.0	-51.6	3.5	3.02e+01	0	29	104	0	58	16323
2026-01-14 18:12:34.85	333.01	26.36	-45.0	-56.9	3.5	3.02e+01	0	29	104	0	60	26857
2026-01-14 18:12:35.86	332.67	26.42	-48.8	-65.4	3.5	3.02e+01	0	29	104	0	60	71452
2026-01-14 18:12:36.87	332.32	26.48	-38.1	-48.4	3.5	3.02e+01	0	29	104	0	46	22789
2026-01-14 18:12:37.88	331.97	26.54	-45.5	-57.7	3.5	3.02e+01	0	29	104	0	60	29396
2026-01-14 18:12:38.89	331.62	26.59	-42.9	-54.1	3.5	3.02e+01	0	29	104	0	54	27573
2026-01-14 18:12:39.90	331.26	26.65	-39.3	-49.7	3.5	3.02e+01	0	29	104	0	54	16548
2026-01-14 18:12:40.91	330.91	26.70	-40.1	-50.6	3.5	3.02e+01	0	29	104	0	54	18433
2026-01-14 18:12:41.92	330.55	26.76	-39.9	-50.5	3.5	3.02e+01	0	29	104	0	54	18130
2026-01-14 18:12:42.93	330.20	26.81	-39.4	-49.9	3.5	3.02e+01	0	29	104	0	54	17000
2026-01-14 18:12:43.94	329.84	26.86	-39.8	-50.2	3.5	3.02e+01	0	29	104	0	52	19762
2026-01-14 18:12:44.95	329.48	26.91	-40.1	-50.6	3.5	3.02e+01	0	29	104	0	54	18458
2026-01-14 18:12:45.96	329.12	26.96	-48.7	-65.4	3.5	3.02e+01	0	29	104	0	60	72073
2026-01-14 18:12:46.97	328.76	27.01	-45.0	-56.8	3.6	3.02e+01	0	29	104	0	60	26674
2026-01-14 18:12:47.98	328.39	27.05	-45.6	-57.8	3.5	3.02e+01	0	29	104	0	60	30032
2026-01-14 18:12:48.99	328.03	27.10	-37.2	-47.5	3.5	3.02e+01	0	29	104	0	50	16184
2026-01-14 18:12:50.00	327.67	27.14	-36.5	-46.7	3.5	3.02e+01	0	29	104	0	48	16628
2026-01-14 18:12:51.01	327.30	27.19	-36.1	-46.3	3.5	3.02e+01	0	29	104	0	48	15897
2026-01-14 18:12:52.01	326.94	27.23	-36.2	-46.4	3.5	3.02e+01	0	29	104	0	48	16000
2026-01-14 18:12:53.02	326.57	27.27	-38.5	-48.9	3.5	3.02e+01	0	29	104	0	50	19106
2026-01-14 18:12:54.03	326.20	27.31	-40.2	-50.7	3.5	3.02e+01	0	29	104	0	52	20995
2026-01-14 18:12:55.04	325.83	27.35	-48.8	-65.4	3.5	3.02e+01	0	29	104	0	60	71292
2026-01-14 18:12:56.05	325.46	27.39	-47.3	-61.0	3.5	3.02e+01	0	29	104	0	60	43286
2026-01-14 18:12:57.06	325.09	27.42	-48.4	-64.3	3.5	3.02e+01	0	29	104	0	60	63009
2026-01-14 18:12:58.07	324.71	27.46	-43.7	-54.9	3.5	3.02e+01	0	29	104	0	60	21353
2026-01-14 18:12:59.08	324.34	27.49	-44.0	-55.4	3.5	3.02e+01	0	29	104	0	60	22585
2026-01-14 18:13:00.09	323.97	27.52	-43.1	-54.1	3.6	3.02e+01	0	29	104	0	60	19553
2026-01-14 18:13:01.10	323.59	27.55	-42.8	-45.3	5.1	3.02e+01	29	29	104	0	60	7054
2026-01-14 18:13:02.11	323.22	27.58	-42.2	-44.1	22.7	3.02e+01	45	29	0	0	60	6198
2026-01-14 18:13:03.12	322.84	27.61	-45.6	-49.0	18.3	3.02e+01	59	29	0	2097152	60	10824
2026-01-14 18:13:04.13	322.46	27.64	-43.6	-45.9	21.0	3.02e+01	57	29	0	4194304	60	7634
2026-01-14 18:13:05.14	322.08	27.67	-40.7	-42.3	22.6	3.02e+01	56	29	0	5767168	60	5022
2026-01-14 18:13:06.14	321.71	27.69	-48.3	-55.9	10.2	3.02e+01	59	29	0	7864320	60	24071
2026-01-14 18:13:07.15	321.33	27.71	-38.9	-40.3	26.0	3.02e+01	62	29	0	9437184	52	6342
2026-01-14 18:13:08.16	320.95	27.73	-39.2	-40.7	25.6	3.02e+01	59	29	0	11534336	52	6632
2026-01-14 18:13:09.17	320.57	27.76	-38.7	-40.2	26.0	3.02e+01	58	29	0	13631488	52	6209
2026-01-14 18:13:10.18	320.19	27.77	-38.3	-39.6	26.5	3.02e+01	44	29	0	15204352	52	5852
2026-01-14 18:13:11.19	319.81	27.79	-38.6	-40.0	26.0	3.02e+01	58	29	0	17301504	52	6098
2026-01-14 18:13:12.20	319.43	27.81	-37.8	-39.1	27.2	3.02e+01	60	29	0	18874368	50	6196
2026-01-14 18:13:13.22	319.04	27.82	-36.8	-38.1	28.1	3.02e+01	44	29	0	20971520	50	5492
2026-01-14 18:13:14.22	318.66	27.84	-36.3	-37.5	28.5	3.02e+01	60	29	0	23068672	48	5776
2026-01-14 18:13:15.23	318.28	27.85	-36.1	-37.3	28.7	3.02e+01	52	29	0	24641536	48	5634
2026-01-14 18:13:16.25	317.89	27.86	-36.1	-37.4	28.6	3.02e+01	59	29	0	26738688	48	5661
2026-01-14 18:13:17.26	317.51	27.87	-36.1	-37.3	28.8	3.02e+01	59	29	0	28311552	46	6342
2026-01-14 18:13:18.27	317.13	27.88	-36.5	-37.7	28.3	3.02e+01	58	29	0	30408704	46	6649
2026-01-14 18:13:19.27	316.75	27.89	-36.1	-37.3	28.8	3.02e+01	58	29	0	32505856	46	6320
2026-01-14 18:13:20.28	316.36	27.89	-35.2	-36.4	29.5	3.02e+01	57	29	0	34078720	46	5679
2026-01-14 18:13:21.29	315.98	27.90	-35.0	-36.2	29.6	3.02e+01	45	29	0	36175872	46	5552
2026-01-14 18:13:22.30	315.59	27.90	-35.2	-36.4	29.6	3.02e+01	59	29	0	38273024	46	5664
2026-01-14 18:13:23.31	315.21	27.90	-35.3	-36.5	29.4	3.02e+01	58	29	0	39845888	46	5756
2026-01-14 18:13:24.32	314.83	27.90	-35.1	-36.3	29.6	3.02e+01	60	29	0	41943040	46	5644
2026-01-14 18:13:25.33	314.44	27.90	-35.5	-36.7	29.3	3.02e+01	61	29	0	43515904	46	5887
2026-01-14 18:13:26.34	314.06	27.90	-35.4	-36.6	29.3	3.02e+01	62	29	0	45613056	46	5826
2026-01-14 18:13:27.35	313.67	27.89	-35.8	-37.0	28.9	3.02e+01	60	29	0	47710208	46	6123
2026-01-14 18:13:28.36	313.29	27.89	-36.0	-37.2	28.7	3.02e+01	61	29	0	49283072	46	6274
2026-01-14 18:13:29.37	312.90	27.88	-35.6	-36.8	29.2	3.02e+01	46	29	0	51380224	46	5944
2026-01-14 18:13:30.38	312.52	27.87	-35.1	-36.3	29.7	3.02e+01	58	29	0	53477376	46	5598
2026-01-14 18:13:31.39	312.14	27.86	-35.2	-36.4	29.4	3.02e+01	63	29	0	55050240	46	5711
2026-01-14 18:13:32.40	311.75	27.85	-35.4	-36.6	29.3	3.02e+01	58	29	0	57147392	46	5832
2026-01-14 18:13:33.41	311.37	27.84	-35.6	-36.9	29.1	3.02e+01	58	29	0	58720256	46	6001
2026-01-14 18:13:34.42	310.99	27.82	-36.0	-37.3	28.7	3.02e+01	44	29	0	60817408	46	6315
2026-01-14 18:13:35.43	310.61	27.81	-35.6	-36.8	29.0	3.02e+01	58	29	0	62914560	46	5990
2026-01-14 18:13:36.44	310.23	27.79	-35.2	-36.4	29.4	3.02e+01	60	29	0	64487424	46	5703
2026-01-14 18:13:37.45	309.84	27.77	-35.3	-36.5	29.3	3.02e+01	55	29	0	66584576	46	5777
2026-01-14 18:13:38.46	309.46	27.75	-36.0	-37.2	28.7	3.02e+01	61	29	0	68157440	46	6277
2026-01-14 18:13:39.47	309.08	27.73	-36.6	-37.9	28.1	3.02e+01	44	29	0	70254592	46	6777
2026-01-14 18:13:40.48	308.70	27.71	-35.4	-36.6	29.1	3.02e+01	59	29	0	72351744	46	5843
2026-01-14 18:13:41.49	308.32	27.69	-35.4	-36.6	29.1	3.02e+01	56	29	0	73924608	46	5828
2026-01-14 18:13:42.50	307.94	27.66	-36.6	-37.9	27.9	3.02e+01	51	29	0	76021760	46	6781
2026-01-14 18:13:43.50	307.57	27.64	-36.4	-37.7	28.1	3.02e+01	60	29	0	77594624	46	6620
2026-01-14 18:13:44.51	307.19	27.61	-34.8	-35.9	29.5	3.02e+01	58	29	0	79691776	44	6035
2026-01-14 18:13:45.52	306.82	27.58	-35.0	-36.2	29.5	3.02e+01	61	29	0	81788928	46	5549
2026-01-14 18:13:46.53	306.44	27.55	-36.3	-37.6	28.1	3.02e+01	61	29	0	83361792	46	6539
2026-01-14 18:13:47.54	306.06	27.52	-36.2	-37.6	28.3	3.02e+01	49	29	0	85458944	44	7314
2026-01-14 18:13:48.55	305.69	27.49	-35.4	-36.6	29.1	3.02e+01	60	29	0	87031808	46	5796
2026-01-14 18:13:49.56	305.32	27.46	-35.5	-36.7	29.4	3.02e+01	60	29	0	89128960	46	5873
2026-01-14 18:13:50.57	304.94	27.42	-35.8	-37.1	28.9	3.02e+01	46	29	0	91226112	46	6175
2026-01-14 18:13:51.58	304.57	27.38	-35.7	-37.0	28.6	3.02e+01	59	29	0	92798976	46	6083
2026-01-14 18:13:52.59	304.20	27.35	-34.9	-36.1	29.7	3.02e+01	61	29	0	94896128	46	5490
2026-01-14 18:13:53.60	303.83	27.31	-35.7	-37.0	28.5	3.02e+01	57	29	0	96468992	46	6079
2026-01-14 18:13:54.61	303.46	27.27	-36.6	-38.0	27.8	3.02e+01	58	29	0	98566144	46	6854
2026-01-14 18:13:55.62	303.09	27.23	-36.1	-37.4	28.5	3.02e+01	52	29	0	100663296	46	6396
2026-01-14 18:13:56.63	302.72	27.19	-36.0	-37.3	28.7	3.02e+01	59	29	0	102236160	46	6284
2026-01-14 18:13:57.64	302.36	27.14	-37.0	-38.4	27.6	3.02e+01	59	29	0	104333312	46	7169
2026-01-14 18:13:58.65	301.99	27.10	-36.0	-37.2	28.3	3.02e+01	47	29	0	106430464	46	6250
2026-01-14 18:13:59.66	301.63	27.05	-35.3	-36.4	29.2	3.02e+01	60	29	0	108003328	46	5724
2026-01-14 18:14:00.67	301.26	27.00	-35.6	-36.8	29.1	3.02e+01	57	29	0	110100480	46	5951
2026-01-14 18:14:01.67	300.91	26.96	-35.1	-36.3	29.6	3.02e+01	59	29	0	111673344	46	5607
2026-01-14 18:14:02.68	300.55	26.91	-35.7	-36.9	28.9	3.02e+01	60	29	0	113770496	46	6036
2026-01-14 18:14:03.69	300.19	26.86	-36.2	-37.5	28.5	3.02e+01	51	29	0	115867648	46	6494
2026-01-14 18:14:04.70	299.83	26.81	-35.7	-36.9	28.9	3.02e+01	60	29	0	117440512	46	6056
2026-01-14 18:14:05.71	299.47	26.75	-35.6	-36.8	29.1	3.02e+01	60	29	0	119537664	46	5956
2026-01-14 18:14:06.72	299.11	26.70	-35.8	-37.0	28.9	3.02e+01	47	29	0	121634816	46	6131
2026-01-14 18:14:07.73	298.76	26.65	-35.7	-36.9	29.1	3.02e+01	62	29	0	123207680	46	6030
2026-01-14 18:14:08.74	298.41	26.59	-36.2	-37.5	28.5	3.02e+01	60	29	0	125304832	46	6424
2026-01-14 18:14:09.75	298.05	26.53	-35.9	-37.1	28.8	3.02e+01	57	29	0	126877696	46	6186
2026-01-14 18:14:10.76	297.70	26.48	-35.7	-36.9	28.9	3.02e+01	59	29	0	128974848	46	6050
2026-01-14 18:14:11.77	297.35	26.42	-36.3	-37.6	28.4	3.02e+01	55	29	0	131072000	46	6547
2026-01-14 18:14:12.78	297.00	26.36	-35.5	-36.7	29.1	3.02e+01	58	29	0	132644864	46	5912
2026-01-14 18:14:13.79	296.66	26.30	-35.4	-36.6	29.1	3.02e+01	60	29	0	134742016	46	5848
2026-01-14 18:14:14.80	296.31	26.23	-36.3	-37.6	28.3	3.02e+01	61	29	0	136314880	46	6569
2026-01-14 18:14:15.80	295.97	26.17	-35.5	-36.7	29.0	3.02e+01	55	29	0	138412032	46	5893
2026-01-14 18:14:16.81	295.63	26.11	-35.7	-36.9	29.0	3.02e+01	44	29	0	140509184	46	6008
2026-01-14 18:14:17.82	295.29	26.04	-36.0	-37.3	28.6	3.02e+01	59	29	0	142082048	46	6317
2026-01-14 18:14:18.83	294.95	25.98	-35.6	-36.8	29.0	3.02e+01	58	29	0	144179200	46	5966
2026-01-14 18:14:19.84	294.61	25.91	-35.6	-36.8	29.1	3.02e+01	44	29	0	145752064	46	5928
2026-01-14 18:14:20.85	294.27	25.85	-36.4	-37.7	28.0	3.02e+01	60	29	0	147849216	46	6645
2026-01-14 18:14:21.86	293.94	25.78	-35.5	-36.7	28.6	3.02e+01	59	29	0	149946368	46	5913
2026-01-14 18:14:22.87	293.60	25.71	-35.5	-36.7	29.0	3.02e+01	57	29	0	151519232	46	5919
2026-01-14 18:14:23.88	293.27	25.64	-36.9	-38.3	27.6	3.02e+01	58	29	0	153616384	46	7069
2026-01-14 18:14:24.89	292.94	25.57	-35.0	-36.1	29.3	3.02e+01	51	29	0	155189248	46	5519
2026-01-14 18:14:25.90	292.61	25.50	-36.4	-37.7	27.7	3.02e+01	59	29	0	157286400	48	5869
2026-01-14 18:14:26.91	292.28	25.43	-36.4	-37.8	28.0	3.02e+01	60	29	0	159383552	46	6650
2026-01-14 18:14:27.92	291.96	25.35	-35.4	-36.5	29.1	3.02e+01	47	29	0	160956416	46	5769
2026-01-14 18:14:28.93	291.63	25.28	-36.6	-37.9	27.9	3.02e+01	62	29	0	163053568	46	6756
2026-01-14 18:14:29.94	291.31	25.20	-35.4	-36.6	29.0	3.02e+01	59	29	0	164626432	46	5812
2026-01-14 18:14:30.95	290.99	25.13	-35.9	-37.2	28.7	3.02e+01	61	29	0	166723584	46	6211
2026-01-14 18:14:31.96	290.67	25.05	-36.6	-38.0	28.0	3.02e+01	60	29	0	168820736	46	6818
2026-01-14 18:14:32.97	290.35	24.98	-35.7	-36.9	29.0	3.02e+01	49	29	0	170393600	46	6026
2026-01-14 18:14:33.98	290.03	24.90	-36.5	-37.8	28.0	3.02e+01	60	29	0	172490752	46	6709
2026-01-14 18:14:34.99	289.72	24.82	-35.7	-36.9	28.7	3.02e+01	53	29	0	174587904	46	6019
2026-01-14 18:14:36.00	289.40	24.74	-35.9	-37.2	28.3	3.02e+01	52	29	0	176160768	46	6215
2026-01-14 18:14:37.01	289.09	24.66	-35.9	-37.1	28.2	3.02e+01	60	29	0	178257920	46	6187
2026-01-14 18:14:38.02	288.78	24.58	-35.8	-37.0	28.6	3.02e+01	61	29	0	179830784	46	6082
2026-01-14 18:14:39.03	288.47	24.50	-36.2	-37.4	28.4	3.02e+01	60	29	0	181927936	46	6422
2026-01-14 18:14:40.04	288.17	24.42	-36.0	-37.3	28.7	3.02e+01	60	29	0	184025088	46	6286
2026-01-14 18:14:41.05	287.86	24.34	-36.8	-38.1	28.2	3.02e+01	49	29	0	185597952	46	6917
2026-01-14 18:14:42.06	287.56	24.26	-36.4	-37.7	28.3	3.02e+01	59	29	0	187695104	48	5871
2026-01-14 18:14:43.07	287.26	24.18	-35.9	-37.1	28.8	3.02e+01	59	29	0	189792256	46	6189
2026-01-14 18:14:44.08	286.96	24.09	-35.7	-36.9	29.0	3.02e+01	50	29	0	191365120	46	6020
2026-01-14 18:14:45.09	286.66	24.01	-36.6	-37.9	28.3	3.02e+01	58	29	0	193462272	46	6731
2026-01-14 18:14:46.09	286.36	23.93	-36.4	-37.7	28.3	3.02e+01	59	29	0	195035136	46	6590
2026-01-14 18:14:47.11	286.07	23.84	-36.4	-37.7	28.2	3.02e+01	61	29	0	197132288	46	6609
2026-01-14 18:14:48.11	285.78	23.76	-37.0	-38.3	27.8	3.02e+01	59	29	0	199229440	48	6339
2026-01-14 18:14:49.12	285.48	23.67	-35.8	-37.0	28.6	3.02e+01	54	29	0	200802304	48	5419
2026-01-14 18:14:50.13	285.19	23.58	-35.5	-36.7	28.9	3.02e+01	59	29	0	202899456	46	5904
2026-01-14 18:14:51.14	284.91	23.50	-36.5	-37.8	27.9	3.02e+01	61	29	0	204472320	46	6692
2026-01-14 18:14:52.15	284.62	23.41	-35.7	-36.9	28.9	3.02e+01	58	29	0	206569472	46	6031
2026-01-14 18:14:53.16	284.33	23.32	-36.2	-37.4	28.4	3.02e+01	60	29	0	208666624	46	6411
2026-01-14 18:14:54.17	284.05	23.23	-36.3	-37.6	28.3	3.02e+01	45	29	0	210239488	46	6553
2026-01-14 18:14:55.18	283.77	23.15	-36.4	-37.7	28.5	3.02e+01	60	29	0	212336640	46	6596
2026-01-14 18:14:56.19	283.49	23.06	-35.9	-37.1	28.8	3.02e+01	59	29	0	213909504	46	6204
2026-01-14 18:14:57.20	283.21	22.97	-35.9	-37.1	28.8	3.02e+01	48	29	0	216006656	46	6195
2026-01-14 18:14:58.21	282.93	22.88	-36.2	-37.4	28.5	3.02e+01	59	29	0	218103808	46	6409
2026-01-14 18:14:59.22	282.66	22.79	-35.8	-37.0	28.8	3.02e+01	60	29	0	219676672	46	6099
2026-01-14 18:15:00.23	282.39	22.70	-36.2	-37.4	28.3	3.02e+01	59	29	0	221773824	46	6418
2026-01-14 18:15:01.24	282.11	22.61	-36.1	-37.3	28.7	3.02e+01	60	29	0	223346688	46	6347
2026-01-14 18:15:02.24	281.85	22.52	-35.9	-37.1	28.8	3.02e+01	44	29	0	225443840	46	6199
2026-01-14 18:15:03.25	281.58	22.43	-36.3	-37.5	28.4	3.02e+01	60	29	0	227540992	46	6486
2026-01-14 18:15:04.26	281.31	22.34	-36.8	-38.1	27.9	3.02e+01	62	29	0	229113856	46	6889
2026-01-14 18:15:05.27	281.05	22.24	-36.2	-37.5	28.4	3.02e+01	53	29	0	231211008	46	6437
2026-01-14 18:15:06.28	280.78	22.15	-35.7	-36.9	29.0	3.02e+01	63	29	0	232783872	46	6041
2026-01-14 18:15:07.29	280.52	22.06	-36.1	-37.4	28.6	3.02e+01	58	29	0	234881024	46	6399
2026-01-14 18:15:08.30	280.26	21.97	-35.8	-37.1	28.7	3.02e+01	59	29	0	236978176	46	6137
2026-01-14 18:15:09.31	280.00	21.87	-35.8	-37.0	28.9	3.02e+01	61	29	0	238551040	46	6100
2026-01-14 18:15:10.32	279.75	21.78	-36.0	-37.3	28.6	3.02e+01	58	29	0	240648192	46	6324
2026-01-14 18:15:11.33	279.49	21.69	-36.0	-37.3	28.6	3.02e+01	60	29	0	242745344	46	6283
2026-01-14 18:15:12.34	279.24	21.60	-35.9	-37.1	28.7	3.02e+01	59	29	0	244318208	46	6167
2026-01-14 18:15:13.35	278.99	21.50	-36.3	-37.6	28.3	3.02e+01	55	29	0	246415360	46	6568
2026-01-14 18:15:14.36	278.73	21.41	-36.1	-37.3	28.4	3.02e+01	61	29	0	247988224	46	6338
2026-01-14 18:15:15.37	278.49	21.31	-36.2	-37.4	28.6	3.02e+01	60	29	0	250085376	46	6400
2026-01-14 18:15:16.38	278.24	21.22	-35.9	-37.2	28.7	3.02e+01	58	29	0	252182528	46	6235
2026-01-14 18:15:17.39	277.99	21.13	-36.2	-37.4	28.4	3.02e+01	59	29	0	253755392	46	6398
2026-01-14 18:15:18.40	277.75	21.03	-35.8	-37.0	28.8	3.02e+01	57	29	0	255852544	46	6076
2026-01-14 18:15:19.40	277.51	20.94	-35.7	-36.9	29.0	3.02e+01	56	29	0	257425408	46	6011
2026-01-14 18:15:20.41	277.27	20.84	-36.0	-37.3	28.7	3.02e+01	60	29	0	259522560	46	6294
2026-01-14 18:15:21.42	277.03	20.75	-35.8	-37.0	28.7	3.02e+01	54	29	0	261619712	46	6117
2026-01-14 18:15:22.43	276.79	20.65	-35.7	-36.9	28.9	3.02e+01	57	29	0	263192576	46	6037
2026-01-14 18:15:23.44	276.55	20.56	-35.8	-37.1	28.8	3.02e+01	62	29	0	265289728	46	6138
2026-01-14 18:15:24.45	276.32	20.46	-36.0	-37.3	28.6	3.02e+01	61	29	0	266862592	46	6287
2026-01-14 18:15:25.46	276.09	20.37	-35.5	-36.7	29.0	3.02e+01	58	29	0	268959744	46	5912
2026-01-14 18:15:26.47	275.86	20.27	-35.6	-36.7	29.0	3.02e+01	52	29	0	271056896	46	5921
2026-01-14 18:15:27.48	275.63	20.18	-36.1	-37.3	28.6	3.02e+01	60	29	0	272629760	46	6332
2026-01-14 18:15:28.49	275.40	20.08	-36.4	-37.7	28.1	3.02e+01	58	29	0	274726912	46	6601
2026-01-14 18:15:29.50	275.17	19.99	-36.0	-37.2	28.3	3.02e+01	59	29	0	276299776	46	6239
2026-01-14 18:15:30.51	274.94	19.89	-35.7	-36.9	28.8	3.02e+01	62	29	0	278396928	46	6042
2026-01-14 18:15:31.52	274.72	19.80	-36.0	-37.2	28.7	3.02e+01	50	29	0	280494080	46	6220
2026-01-14 18:15:32.53	274.50	19.70	-36.5	-37.8	28.2	3.02e+01	59	29	0	282066944	46	6663
2026-01-14 18:15:33.54	274.28	19.60	-36.7	-38.0	27.9	3.02e+01	59	29	0	284164096	46	6872
2026-01-14 18:15:34.55	274.06	19.51	-35.6	-36.8	28.7	3.02e+01	45	29	0	286261248	46	5968
2026-01-14 18:15:35.56	273.84	19.41	-35.1	-36.3	29.4	3.02e+01	54	29	0	287834112	46	5634
2026-01-14 18:15:36.57	273.62	19.32	-35.4	-36.6	29.1	3.02e+01	63	29	0	289931264	46	5824
2026-01-14 18:15:37.58	273.41	19.22	-35.9	-37.2	28.7	3.02e+01	59	29	0	291504128	46	6219
2026-01-14 18:15:38.59	273.19	19.13	-36.0	-37.3	28.5	3.02e+01	54	29	0	293601280	46	6333
2026-01-14 18:15:39.60	272.98	19.03	-36.0	-37.2	28.3	3.02e+01	56	29	0	295698432	46	6267
2026-01-14 18:15:40.61	272.77	18.93	-36.0	-37.2	28.5	3.02e+01	59	29	0	297271296	46	6234
2026-01-14 18:15:41.62	272.56	18.84	-35.8	-36.9	28.9	3.02e+01	57	29	0	299368448	46	6061
2026-01-14 18:15:42.63	272.35	18.74	-35.8	-37.1	28.7	3.02e+01	49	29	0	300941312	46	6141
2026-01-14 18:15:43.64	272.14	18.65	-36.0	-37.3	28.5	3.02e+01	60	29	0	303038464	46	6304
2026-01-14 18:15:44.65	271.94	18.55	-36.1	-37.4	28.5	3.02e+01	58	29	0	305135616	46	6361
2026-01-14 18:15:45.66	271.73	18.46	-35.9	-37.2	28.6	3.02e+01	61	29	0	306708480	46	6220
2026-01-14 18:15:46.67	271.53	18.36	-35.9	-37.1	28.6	3.02e+01	59	29	0	308805632	46	6166
2026-01-14 18:15:47.68	271.33	18.27	-35.7	-36.9	28.9	3.02e+01	54	29	0	310902784	46	6064
2026-01-14 18:15:48.69	271.13	18.17	-35.6	-36.8	29.0	3.02e+01	58	29	0	312475648	46	5972
2026-01-14 18:15:49.70	270.93	18.08	-35.8	-37.1	28.8	3.02e+01	61	29	0	314572800	46	6169
2026-01-14 18:15:50.71	270.73	17.98	-35.8	-37.0	28.8	3.02e+01	44	29	0	316145664	46	6129
2026-01-14 18:15:51.72	270.54	17.88	-35.7	-36.9	28.8	3.02e+01	60	29	0	318242816	46	6053
2026-01-14 18:15:52.73	270.34	17.79	-35.6	-36.8	29.0	3.02e+01	60	29	0	320339968	46	5980
2026-01-14 18:15:53.74	270.15	17.69	-35.6	-36.9	29.0	3.02e+01	61	29	0	321912832	46	5998
2026-01-14 18:15:54.75	269.96	17.60	-35.4	-36.6	29.2	3.02e+01	62	29	0	324009984	46	5832
2026-01-14 18:15:55.76	269.77	17.50	-35.6	-36.8	29.0	3.02e+01	52	29	0	326107136	46	5945
2026-01-14 18:15:56.77	269.58	17.41	-35.7	-37.0	28.9	3.02e+01	59	29	0	327680000	46	6065
2026-01-14 18:15:57.78	269.39	17.32	-35.7	-37.0	28.9	3.02e+01	64	29	0	329777152	46	6073
2026-01-14 18:15:58.79	269.20	17.22	-35.8	-37.1	28.7	3.02e+01	59	29	0	331350016	46	6159
2026-01-14 18:15:59.80	269.02	17.13	-35.7	-36.9	28.8	3.02e+01	60	29	0	333447168	46	6063
2026-01-14 18:16:00.81	268.83	17.03	-35.8	-37.0	28.8	3.02e+01	53	29	0	335020032	46	6096
2026-01-14 18:16:01.81	268.65	16.94	-35.6	-36.8	28.9	3.02e+01	58	29	0	337117184	46	5982
2026-01-14 18:16:02.82	268.47	16.84	-35.7	-36.9	28.8	3.02e+01	57	29	0	339214336	46	6016
2026-01-14 18:16:03.83	268.29	16.75	-35.5	-36.7	29.0	3.02e+01	52	29	0	340787200	46	5909
2026-01-14 18:16:04.84	268.11	16.66	-35.6	-36.8	28.9	3.02e+01	60	29	0	342884352	46	5940
2026-01-14 18:16:05.85	267.93	16.56	-35.5	-36.8	29.0	3.02e+01	62	29	0	344457216	46	5934
2026-01-14 18:16:06.86	267.75	16.47	-35.7	-36.9	29.0	3.02e+01	62	29	0	346554368	46	6048
2026-01-14 18:16:07.87	267.58	16.38	-35.8	-37.0	28.7	3.02e+01	61	29	0	348651520	46	6102
2026-01-14 18:16:08.88	267.40	16.28	-35.8	-37.0	28.7	3.02e+01	45	29	0	350224384	46	6109
2026-01-14 18:16:09.89	267.23	16.19	-35.8	-37.0	28.7	3.02e+01	59	29	0	352321536	46	6103
2026-01-14 18:16:10.90	267.05	16.10	-35.7	-36.9	28.8	3.02e+01	58	29	0	354418688	46	6061
2026-01-14 18:16:11.91	266.88	16.00	-35.9	-37.1	28.6	3.02e+01	53	29	0	355991552	46	6203
2026-01-14 18:16:12.92	266.71	15.91	-35.7	-36.9	28.8	3.02e+01	58	29	0	358088704	46	6062
2026-01-14 18:16:13.93	266.54	15.82	-35.8	-37.0	28.7	3.02e+01	60	29	0	359661568	46	6110
2026-01-14 18:16:14.94	266.38	15.73	-35.7	-37.0	28.8	3.02e+01	60	29	0	361758720	46	6072
2026-01-14 18:16:15.95	266.21	15.63	-35.7	-37.0	28.8	3.02e+01	59	29	0	363855872	46	6082
2026-01-14 18:16:16.96	266.04	15.54	-35.7	-36.9	28.9	3.02e+01	50	29	0	365428736	46	6026
2026-01-14 18:16:17.96	265.88	15.45	-35.7	-36.9	28.8	3.02e+01	59	29	0	367525888	46	6023
2026-01-14 18:16:18.97	265.72	15.36	-35.7	-36.9	28.9	3.02e+01	61	29	0	369098752	46	6044
2026-01-14 18:16:19.98	265.55	15.27	-36.0	-37.2	28.6	3.02e+01	45	29	0	371195904	46	6246
2026-01-14 18:16:20.99	265.39	15.17	-35.6	-36.9	28.8	3.02e+01	61	29	0	373293056	46	6013
2026-01-14 18:16:22.00	265.23	15.08	-35.7	-36.9	28.8	3.02e+01	61	29	0	374865920	46	6058
2026-01-14 18:16:23.01	265.07	14.99	-35.7	-36.9	28.8	3.02e+01	61	29	0	376963072	46	6033
2026-01-14 18:16:24.02	264.91	14.90	-35.7	-37.0	28.7	3.02e+01	57	29	0	379060224	46	6074
2026-01-14 18:16:25.03	264.76	14.81	-35.9	-37.1	28.6	3.02e+01	53	29	0	380633088	46	6196
2026-01-14 18:16:26.04	264.60	14.72	-35.9	-37.2	28.6	3.02e+01	60	29	0	382730240	46	6237
2026-01-14 18:16:27.05	264.45	14.63	-36.0	-37.2	28.6	3.02e+01	59	29	0	384303104	46	6251
2026-01-14 18:16:28.06	264.29	14.54	-36.1	-37.4	28.5	3.02e+01	45	29	0	386400256	46	6378
2026-01-14 18:16:29.07	264.14	14.45	-35.9	-37.1	28.6	3.02e+01	58	29	0	388497408	46	6175
2026-01-14 18:16:30.08	263.99	14.36	-35.7	-36.9	28.7	3.02e+01	62	29	0	390070272	46	6045
2026-01-14 18:16:31.09	263.84	14.27	-35.7	-37.0	28.7	3.02e+01	56	29	0	392167424	46	6079
2026-01-14 18:16:32.10	263.69	14.18	-35.6	-36.9	28.8	3.02e+01	59	29	0	393740288	46	6011
2026-01-14 18:16:33.11	263.54	14.09	-35.7	-36.9	28.7	3.02e+01	54	29	0	395837440	46	6012
2026-01-14 18:16:34.12	263.39	14.00	-35.7	-36.9	28.7	3.02e+01	58	29	0	397934592	46	6061
2026-01-14 18:16:35.13	263.24	13.91	-35.9	-37.1	28.5	3.02e+01	60	29	0	399507456	46	6174
2026-01-14 18:16:36.13	263.10	13.82	-35.9	-37.2	28.4	3.02e+01	51	29	0	401604608	46	6231
2026-01-14 18:16:37.14	262.95	13.73	-35.9	-37.2	28.5	3.02e+01	59	29	0	403177472	46	6206
2026-01-14 18:16:38.15	262.81	13.64	-35.9	-37.2	28.5	3.02e+01	56	29	0	405274624	46	6217
2026-01-14 18:16:39.16	262.66	13.56	-35.9	-37.2	28.5	3.02e+01	58	29	0	407371776	46	6227
2026-01-14 18:16:40.17	262.52	13.47	-35.9	-37.1	28.5	3.02e+01	58	29	0	408944640	46	6194
2026-01-14 18:16:41.18	262.38	13.38	-35.9	-37.1	28.4	3.02e+01	45	29	0	411041792	46	6202
2026-01-14 18:16:42.19	262.24	13.29	-35.7	-36.9	28.7	3.02e+01	58	29	0	412614656	46	6021
2026-01-14 18:16:43.20	262.10	13.20	-35.8	-37.0	28.6	3.02e+01	60	29	0	414711808	46	6094
2026-01-14 18:16:44.21	261.96	13.12	-35.7	-36.9	28.7	3.02e+01	60	29	0	416808960	46	6047
2026-01-14 18:16:45.22	261.82	13.03	-35.8	-37.1	28.6	3.02e+01	57	29	0	418381824	46	6136
2026-01-14 18:16:46.23	261.68	12.94	-35.9	-37.2	28.4	3.02e+01	57	29	0	420478976	46	6233
2026-01-14 18:16:47.24	261.55	12.85	-36.0	-37.3	28.4	3.02e+01	58	29	0	422576128	46	6308
2026-01-14 18:16:48.25	261.41	12.77	-36.2	-37.5	28.1	3.02e+01	56	29	0	424148992	46	6442
2026-01-14 18:16:49.25	261.28	12.68	-36.1	-37.4	28.2	3.02e+01	45	29	0	426246144	46	6365
2026-01-14 18:16:50.26	261.15	12.60	-36.0	-37.3	28.2	3.02e+01	57	29	0	427819008	46	6313
2026-01-14 18:16:51.27	261.01	12.51	-36.2	-37.4	28.2	3.02e+01	57	29	0	429916160	46	6417
2026-01-14 18:16:52.27	260.88	12.42	-35.8	-37.0	28.5	3.02e+01	61	29	0	432013312	46	6131
2026-01-14 18:16:53.28	260.75	12.34	-35.9	-37.1	28.5	3.02e+01	56	29	0	433586176	46	6181
2026-01-14 18:16:54.29	260.62	12.25	-35.9	-37.2	28.4	3.02e+01	55	29	0	435683328	46	6210
2026-01-14 18:16:55.30	260.49	12.17	-35.9	-37.1	28.4	3.02e+01	59	29	0	437256192	46	6193
2026-01-14 18:16:56.31	260.36	12.08	-36.0	-37.2	28.4	3.02e+01	61	29	0	439353344	46	6271
2026-01-14 18:16:57.32	260.24	12.00	-36.0	-37.3	28.4	3.02e+01	44	29	0	441450496	46	6300
2026-01-14 18:16:58.33	260.11	11.91	-36.0	-37.3	28.3	3.02e+01	54	29	0	443023360	46	6312
2026-01-14 18:16:59.34	259.98	11.83	-36.0	-37.2	28.4	3.02e+01	61	29	0	445120512	46	6255
2026-01-14 18:17:00.35	259.86	11.74	-36.0	-37.3	28.2	3.02e+01	59	29	0	446693376	46	6304
2026-01-14 18:17:01.35	259.73	11.66	-36.2	-37.5	28.1	3.02e+01	58	29	0	448790528	46	6459
2026-01-14 18:17:02.36	259.61	11.58	-36.1	-37.3	28.3	3.02e+01	45	29	0	450887680	46	6348
2026-01-14 18:17:03.37	259.49	11.49	-36.1	-37.4	28.2	3.02e+01	59	29	0	452460544	46	6360
2026-01-14 18:17:04.38	259.36	11.41	-36.2	-37.4	28.2	3.02e+01	59	29	0	454557696	46	6420
2026-01-14 18:17:05.39	259.24	11.33	-36.2	-37.5	28.1	3.02e+01	46	29	0	456130560	46	6470
2026-01-14 18:17:06.40	259.12	11.24	-36.2	-37.4	28.1	3.02e+01	60	29	0	458227712	46	6408
2026-01-14 18:17:07.41	259.00	11.16	-36.2	-37.5	28.2	3.02e+01	54	29	0	460324864	46	6425
2026-01-14 18:17:08.42	258.88	11.08	-36.2	-37.5	28.2	3.02e+01	58	29	0	461897728	46	6434
2026-01-14 18:17:09.43	258.76	10.99	-36.3	-37.6	28.1	3.02e+01	55	29	0	463994880	46	6507
2026-01-14 18:17:10.44	258.65	10.91	-36.3	-37.6	28.0	3.02e+01	56	29	0	465567744	46	6530
2026-01-14 18:17:11.45	258.53	10.83	-36.3	-37.6	28.1	3.02e+01	59	29	0	467664896	46	6533
2026-01-14 18:17:12.46	258.41	10.75	-36.4	-37.7	28.0	3.02e+01	59	29	0	469762048	46	6583
2026-01-14 18:17:13.47	258.30	10.66	-36.4	-37.7	28.0	3.02e+01	55	29	0	471334912	46	6578
2026-01-14 18:17:14.47	258.18	10.58	-36.5	-37.8	27.8	3.02e+01	60	29	0	473432064	46	6668
2026-01-14 18:17:15.48	258.07	10.50	-36.5	-37.8	27.9	3.02e+01	48	29	0	475529216	46	6676
2026-01-14 18:17:16.49	257.96	10.42	-36.4	-37.7	27.9	3.02e+01	59	29	0	477102080	46	6623
2026-01-14 18:17:17.50	257.84	10.34	-36.4	-37.7	27.9	3.02e+01	52	29	0	479199232	46	6647
2026-01-14 18:17:18.51	257.73	10.26	-36.4	-37.7	28.0	3.02e+01	47	29	0	480772096	46	6594
2026-01-14 18:17:19.52	257.62	10.18	-36.4	-37.7	27.9	3.02e+01	61	29	0	482869248	46	6634
2026-01-14 18:17:20.53	257.51	10.10	-36.4	-37.7	27.9	3.02e+01	57	29	0	484966400	46	6620
2026-01-14 18:17:21.54	257.40	10.02	-36.5	-37.8	27.8	3.02e+01	60	29	0	486539264	46	6659
2026-01-14 18:17:22.55	257.29	9.94	-36.4	-37.7	27.8	3.02e+01	62	29	0	488636416	46	6622
2026-01-14 18:17:23.56	257.18	9.86	-36.5	-37.8	27.8	3.02e+01	49	29	0	490733568	46	6694
2026-01-14 18:17:24.57	257.07	9.78	-36.7	-38.0	27.6	3.02e+01	61	29	0	492306432	46	6855
2026-01-14 18:17:25.58	256.97	9.70	-36.5	-37.8	27.7	3.02e+01	59	29	0	494403584	46	6717
2026-01-14 18:17:26.59	256.86	9.62	-36.6	-37.9	27.7	3.02e+01	49	29	0	495976448	46	6746
2026-01-14 18:17:27.60	256.75	9.54	-36.6	-37.9	27.6	3.02e+01	57	29	0	498073600	46	6730
2026-01-14 18:17:28.61	256.65	9.46	-36.5	-37.8	27.7	3.02e+01	63	29	0	499646464	46	6707
2026-01-14 18:17:29.62	256.54	9.38	-36.5	-37.8	27.6	3.02e+01	59	29	0	501743616	46	6711
2026-01-14 18:17:30.62	256.44	9.30	-36.6	-37.9	27.7	3.02e+01	58	29	0	503840768	46	6754
2026-01-14 18:17:31.63	256.34	9.23	-36.6	-37.9	27.6	3.02e+01	59	29	0	505413632	46	6765
2026-01-14 18:17:32.64	256.23	9.15	-36.6	-37.9	27.6	3.02e+01	59	29	0	507510784	46	6794
2026-01-14 18:17:33.65	256.13	9.07	-36.7	-38.0	27.5	3.02e+01	59	29	0	509083648	46	6845
2026-01-14 18:17:34.66	256.03	8.99	-36.9	-38.3	27.2	3.02e+01	49	29	0	511180800	48	6298
2026-01-14 18:17:35.67	255.93	8.91	-36.8	-38.2	27.3	3.02e+01	61	29	0	513277952	48	6233
2026-01-14 18:17:36.68	255.83	8.84	-37.0	-38.3	27.3	3.02e+01	51	29	0	514850816	48	6313
2026-01-14 18:17:37.69	255.73	8.76	-36.9	-38.3	27.2	3.02e+01	60	29	0	516947968	48	6293
2026-01-14 18:17:38.70	255.63	8.68	-37.0	-38.3	27.2	3.02e+01	59	29	0	519045120	48	6323
2026-01-14 18:17:39.71	255.53	8.60	-36.9	-38.3	27.2	3.02e+01	56	29	0	520617984	48	6289
2026-01-14 18:17:40.72	255.43	8.53	-36.9	-38.2	27.2	3.02e+01	61	29	0	522715136	48	6267
2026-01-14 18:17:41.73	255.33	8.45	-36.8	-38.1	27.4	3.02e+01	60	29	0	524288000	48	6172
2026-01-14 18:17:42.74	255.23	8.37	-36.8	-38.1	27.3	3.02e+01	46	29	0	526385152	48	6159
2026-01-14 18:17:43.75	255.14	8.30	-36.9	-38.2	27.2	3.02e+01	61	29	0	528482304	48	6226
2026-01-14 18:17:44.76	255.04	8.22	-37.0	-38.3	27.2	3.02e+01	51	29	0	530055168	48	6300
2026-01-14 18:17:45.77	254.95	8.15	-36.7	-38.0	27.4	3.02e+01	60	29	0	532152320	48	6077
2026-01-14 18:17:46.78	254.85	8.07	-36.9	-38.2	27.3	3.02e+01	59	29	0	533725184	48	6233
2026-01-14 18:17:47.79	254.76	8.00	-36.7	-38.0	27.4	3.02e+01	53	29	0	535822336	48	6106
2026-01-14 18:17:48.80	254.66	7.92	-36.9	-38.2	27.2	3.02e+01	57	29	0	537919488	48	6257
2026-01-14 18:17:49.81	254.57	7.85	-36.8	-38.2	27.2	3.02e+01	63	29	0	539492352	48	6226
2026-01-14 18:17:50.82	254.48	7.77	-37.2	-38.6	26.9	3.02e+01	59	29	0	541589504	48	6501
2026-01-14 18:17:51.83	254.39	7.70	-37.1	-38.5	27.0	3.02e+01	57	29	0	543686656	48	6430
2026-01-14 18:17:52.84	254.29	7.62	-37.2	-38.5	26.9	3.02e+01	45	29	0	545259520	48	6493
2026-01-14 18:17:53.85	254.20	7.55	-37.2	-38.6	26.8	3.02e+01	57	29	0	547356672	48	6528
2026-01-14 18:17:54.86	254.11	7.47	-37.3	-38.6	26.8	3.02e+01	62	29	0	548929536	48	6564
2026-01-14 18:17:55.86	254.02	7.40	-37.1	-38.5	26.9	3.02e+01	44	29	0	551026688	48	6459
2026-01-14 18:17:56.87	253.93	7.32	-37.2	-38.6	26.9	3.02e+01	59	29	0	553123840	48	6541
2026-01-14 18:17:57.88	253.84	7.25	-37.1	-38.5	26.9	3.02e+01	59	29	0	554696704	48	6472
2026-01-14 18:17:58.89	253.76	7.18	-37.2	-38.5	26.9	3.02e+01	54	29	0	556793856	48	6480
2026-01-14 18:17:59.90	253.67	7.10	-37.2	-38.5	26.9	3.02e+01	57	29	0	558366720	48	6478
2026-01-14 18:18:00.91	253.58	7.03	-37.3	-38.6	26.8	3.02e+01	54	29	0	560463872	48	6560
2026-01-14 18:18:01.92	253.49	6.96	-37.4	-38.8	26.6	3.02e+01	58	29	0	562561024	48	6692
2026-01-14 18:18:02.93	253.41	6.89	-37.4	-38.8	26.6	3.02e+01	58	29	0	564133888	48	6655
2026-01-14 18:18:03.94	253.32	6.81	-37.4	-38.8	26.6	3.02e+01	45	29	0	566231040	48	6662
2026-01-14 18:18:04.95	253.23	6.74	-37.4	-38.8	26.7	3.02e+01	61	29	0	567803904	48	6652
2026-01-14 18:18:05.96	253.15	6.67	-37.5	-38.9	26.6	3.02e+01	58	29	0	569901056	48	6738
2026-01-14 18:18:06.97	253.06	6.60	-37.5	-38.9	26.5	3.02e+01	60	29	0	571998208	48	6735
2026-01-14 18:18:07.98	252.98	6.52	-37.4	-38.8	26.6	3.02e+01	59	29	0	573571072	48	6660
2026-01-14 18:18:08.99	252.90	6.45	-37.2	-38.6	26.7	3.02e+01	52	29	0	575668224	48	6551
2026-01-14 18:18:10.00	252.81	6.38	-37.4	-38.8	26.5	3.02e+01	60	29	0	577241088	48	6674
2026-01-14 18:18:11.01	252.73	6.31	-37.2	-38.6	26.8	3.02e+01	58	29	0	579338240	48	6506
2026-01-14 18:18:12.02	252.65	6.24	-37.5	-38.9	26.5	3.02e+01	44	29	0	581435392	48	6752
2026-01-14 18:18:13.03	252.57	6.17	-37.5	-38.8	26.5	3.02e+01	62	29	0	583008256	48	6717
2026-01-14 18:18:14.03	252.49	6.10	-37.3	-38.7	26.6	3.02e+01	59	29	0	585105408	48	6617
2026-01-14 18:18:15.04	252.40	6.03	-37.4	-38.8	26.5	3.02e+01	59	29	0	586678272	48	6663
2026-01-14 18:18:16.05	252.32	5.95	-37.4	-38.8	26.5	3.02e+01	59	29	0	588775424	48	6711
2026-01-14 18:18:17.06	252.24	5.88	-37.5	-38.9	26.5	3.02e+01	51	29	0	590872576	48	6752
2026-01-14 18:18:18.07	252.16	5.81	-37.5	-38.9	26.4	3.02e+01	59	29	0	592445440	48	6754
2026-01-14 18:18:19.08	252.08	5.74	-37.7	-39.1	26.2	3.02e+01	60	29	0	594542592	48	6925
2026-01-14 18:18:20.08	252.01	5.67	-37.6	-39.0	26.3	3.02e+01	51	29	0	596639744	48	6823
2026-01-14 18:18:21.09	251.93	5.60	-37.6	-39.0	26.3	3.02e+01	57	29	0	598212608	48	6861
2026-01-14 18:18:22.10	251.85	5.53	-37.8	-39.2	26.2	3.02e+01	60	29	0	600309760	48	6994
2026-01-14 18:18:23.11	251.77	5.46	-38.0	-39.4	26.0	3.02e+01	58	29	0	601882624	50	6422
2026-01-14 18:18:24.12	251.70	5.40	-37.9	-39.3	26.0	3.02e+01	58	29	0	603979776	50	6346
2026-01-14 18:18:25.13	251.62	5.33	-37.7	-39.1	26.2	3.02e+01	53	29	0	606076928	50	6192
2026-01-14 18:18:26.14	251.54	5.26	-37.8	-39.2	26.1	3.02e+01	61	29	0	607649792	50	6228
2026-01-14 18:18:27.15	251.47	5.19	-37.7	-39.1	26.1	3.02e+01	59	29	0	609746944	50	6174
2026-01-14 18:18:28.16	251.39	5.12	-37.7	-39.1	26.2	3.02e+01	49	29	0	611319808	50	6193
2026-01-14 18:18:29.16	251.32	5.05	-37.8	-39.3	26.1	3.02e+01	59	29	0	613416960	50	6300
2026-01-14 18:18:30.18	251.24	4.98	-38.0	-39.5	25.8	3.02e+01	44	29	0	615514112	50	6470
2026-01-14 18:18:31.19	251.17	4.91	-37.9	-39.4	25.9	3.02e+01	61	29	0	617086976	50	6353
2026-01-14 18:18:32.20	251.09	4.85	-37.9	-39.4	25.9	3.02e+01	60	29	0	619184128	50	6387
2026-01-14 18:18:33.21	251.02	4.78	-38.2	-39.7	25.6	3.02e+01	55	29	0	620756992	50	6593
2026-01-14 18:18:34.21	250.95	4.71	-37.9	-39.4	25.8	3.02e+01	58	29	0	622854144	50	6400
2026-01-14 18:18:35.22	250.87	4.64	-38.2	-39.7	25.5	3.02e+01	58	29	0	624951296	50	6610
2026-01-14 18:18:36.23	250.80	4.58	-38.1	-39.6	25.6	3.02e+01	62	29	0	626524160	50	6516
2026-01-14 18:18:37.24	250.73	4.51	-37.9	-39.4	25.8	3.02e+01	60	29	0	628621312	50	6377
2026-01-14 18:18:38.25	250.66	4.44	-38.0	-39.5	25.6	3.02e+01	45	29	0	630194176	50	6431
2026-01-14 18:18:39.26	250.59	4.37	-37.9	-39.4	25.7	3.02e+01	57	29	0	632291328	50	6390
2026-01-14 18:18:40.27	250.52	4.31	-38.1	-39.6	25.5	3.02e+01	59	29	0	634388480	50	6536
2026-01-14 18:18:41.28	250.44	4.24	-38.2	-39.7	25.5	3.02e+01	46	29	0	635961344	50	6600
2026-01-14 18:18:42.29	250.37	4.17	-38.0	-39.4	25.7	3.02e+01	62	29	0	638058496	50	6400
2026-01-14 18:18:43.30	250.30	4.11	-37.9	-39.4	25.7	3.02e+01	59	29	0	640155648	50	6379
2026-01-14 18:18:44.31	250.24	4.04	-38.1	-39.6	25.5	3.02e+01	59	29	0	641728512	50	6506
2026-01-14 18:18:45.31	250.17	3.97	-38.1	-39.5	25.7	3.02e+01	61	29	0	643825664	50	6482
2026-01-14 18:18:46.32	250.10	3.91	-38.1	-39.6	25.4	3.02e+01	61	29	0	645398528	50	6549
2026-01-14 18:18:47.33	250.03	3.84	-38.2	-39.7	25.4	3.02e+01	59	29	0	647495680	50	6649
2026-01-14 18:18:48.34	249.96	3.78	-38.2	-39.8	25.3	3.02e+01	61	29	0	649592832	50	6664
2026-01-14 18:18:49.35	249.89	3.71	-38.3	-39.8	25.2	3.02e+01	45	29	0	651165696	50	6689
2026-01-14 18:18:50.36	249.83	3.65	-38.6	-40.2	24.8	3.02e+01	59	29	0	653262848	50	7028
2026-01-14 18:18:51.37	249.76	3.58	-38.5	-40.0	25.0	3.02e+01	62	29	0	654835712	50	6870
2026-01-14 18:18:52.38	249.69	3.51	-38.6	-40.2	24.7	3.02e+01	57	29	0	656932864	50	7029
2026-01-14 18:18:53.39	249.63	3.45	-39.0	-40.6	24.4	3.02e+01	61	29	0	659030016	52	6532
2026-01-14 18:18:54.40	249.56	3.38	-39.0	-40.7	24.3	3.02e+01	46	29	0	660602880	52	6579
2026-01-14 18:18:55.41	249.50	3.32	-38.8	-40.4	24.6	3.02e+01	64	29	0	662700032	52	6385
