passes_logs/2026/01/30/R4.6S_Anadyr/R4.6S_Anadyr__20260130_125324_NOAA_21_JPSS-2_rec.log

#Pass ID: 20260130_125324_NOAA 21 (JPSS-2)
#Satellite: NOAA 21 (JPSS-2)
#Configuration: NOAA-21
#almurnet v.1.7.20251203
#Start time: 2026-01-30 12:53:25

#Version: 2.2.20231116
#Station: R4.6S_Anadyr
#Location: 177.4865 lon 64.73178 lat
#TLE: 1 54234U 22150A   26029.46216196  .00000141  00000+0  87503-4 0  9994
#TLE: 2 54234  98.7512 330.1880 0000955 196.3413 163.7732 14.19540905166865

#Time	Az	El	Level	Level2	SNR	BER	BlckErr	Temp	State	Recorded	gain1	gain2
2026-01-30 12:53:25.97	18.75	0.08	-49.5	-64.5	3.5	1.51e+00	0	38	0	0	60	60704
2026-01-30 12:53:26.98	18.81	0.13	-49.6	-62.5	3.5	1.52e+00	0	40	104	0	60	47015
2026-01-30 12:53:27.99	18.87	0.19	-49.6	-62.6	3.5	1.52e+00	0	39	104	0	60	47077
2026-01-30 12:53:28.99	18.93	0.24	-49.7	-62.6	3.5	1.52e+00	0	40	104	0	60	47233
2026-01-30 12:53:30.01	18.99	0.29	-49.7	-62.6	3.5	1.51e+00	0	40	104	0	60	47142
2026-01-30 12:53:31.02	19.05	0.35	-49.7	-62.6	3.5	1.52e+00	0	40	104	0	60	47191
2026-01-30 12:53:32.03	19.11	0.40	-49.7	-62.6	3.5	1.51e+00	0	40	104	0	60	47211
2026-01-30 12:53:33.04	19.17	0.46	-49.8	-62.6	3.5	1.52e+00	0	40	104	0	60	47220
2026-01-30 12:53:34.05	19.23	0.51	-49.7	-62.6	3.5	1.52e+00	0	40	104	0	60	47570
2026-01-30 12:53:35.06	19.29	0.56	-49.8	-62.6	3.5	1.52e+00	0	40	104	0	60	47580
2026-01-30 12:53:36.07	19.35	0.62	-49.8	-62.7	3.5	1.52e+00	0	40	104	0	60	47805
2026-01-30 12:53:37.08	19.42	0.67	-49.7	-62.7	3.5	1.52e+00	0	40	104	0	60	47746
2026-01-30 12:53:38.09	19.48	0.73	-49.7	-62.6	3.5	1.52e+00	0	40	104	0	60	47172
2026-01-30 12:53:39.10	19.54	0.78	-49.6	-62.6	3.5	1.51e+00	0	40	104	0	60	47158
2026-01-30 12:53:40.11	19.60	0.84	-49.6	-62.5	3.5	1.51e+00	0	40	104	0	60	46982
2026-01-30 12:53:41.12	19.66	0.89	-49.6	-62.5	3.5	1.52e+00	0	40	104	0	60	46871
2026-01-30 12:53:42.13	19.73	0.95	-49.5	-62.4	3.5	1.52e+00	0	40	104	0	60	46398
2026-01-30 12:53:43.14	19.79	1.00	-49.4	-62.3	3.5	1.51e+00	0	40	104	0	60	45739
2026-01-30 12:53:44.15	19.85	1.06	-49.3	-62.2	3.5	1.52e+00	0	40	104	0	60	45443
2026-01-30 12:53:45.16	19.91	1.11	-49.3	-62.1	3.5	1.52e+00	0	40	104	0	60	44676
2026-01-30 12:53:46.17	19.98	1.17	-49.1	-62.0	3.5	1.52e+00	0	40	104	0	60	44290
2026-01-30 12:53:47.18	20.04	1.22	-49.0	-61.9	3.5	1.52e+00	0	40	104	0	60	43908
2026-01-30 12:53:48.19	20.10	1.28	-48.9	-61.8	3.5	1.52e+00	0	40	104	0	60	43119
2026-01-30 12:53:49.20	20.17	1.33	-48.8	-61.6	3.5	1.52e+00	0	40	104	0	60	42337
2026-01-30 12:53:50.21	20.23	1.39	-48.5	-61.4	3.5	1.52e+00	0	40	104	0	60	41168
2026-01-30 12:53:51.22	20.30	1.44	-48.2	-61.1	3.5	1.51e+00	0	40	104	0	60	39754
2026-01-30 12:53:52.23	20.36	1.50	-48.2	-61.0	3.5	1.52e+00	0	40	104	0	60	39471
2026-01-30 12:53:53.24	20.43	1.55	-48.2	-61.0	3.5	1.52e+00	0	40	104	0	60	39608
2026-01-30 12:53:54.25	20.49	1.61	-48.2	-61.1	3.5	1.52e+00	0	40	104	0	60	39676
2026-01-30 12:53:55.26	20.56	1.66	-48.2	-61.0	3.5	1.52e+00	0	40	104	0	60	39388
2026-01-30 12:53:56.27	20.62	1.72	-48.2	-61.0	3.5	1.52e+00	0	40	104	0	60	39193
2026-01-30 12:53:57.28	20.69	1.78	-48.2	-60.9	3.5	1.52e+00	0	40	104	0	60	38730
2026-01-30 12:53:58.29	20.75	1.83	-48.2	-60.8	3.5	1.51e+00	0	40	104	0	60	38485
2026-01-30 12:53:59.30	20.82	1.89	-48.2	-60.8	3.5	1.52e+00	0	40	104	0	60	38417
2026-01-30 12:54:00.31	20.89	1.94	-48.2	-60.8	3.5	1.52e+00	0	40	104	0	60	38669
2026-01-30 12:54:01.32	20.95	2.00	-48.2	-60.9	3.5	1.52e+00	0	41	104	0	60	38965
2026-01-30 12:54:02.33	21.02	2.06	-48.2	-60.9	3.5	1.52e+00	0	40	104	0	60	39046
2026-01-30 12:54:03.34	21.09	2.11	-48.2	-60.9	3.5	1.52e+00	0	40	104	0	60	39003
2026-01-30 12:54:04.35	21.15	2.17	-48.2	-60.9	3.5	1.52e+00	0	40	104	0	60	39045
2026-01-30 12:54:05.36	21.22	2.23	-48.2	-61.0	3.6	1.52e+00	0	40	104	0	60	39179
2026-01-30 12:54:06.37	21.29	2.28	-48.2	-60.9	3.5	1.51e+00	0	40	104	0	60	38980
2026-01-30 12:54:07.38	21.36	2.34	-48.2	-60.6	3.5	1.51e+00	0	40	104	0	60	37592
2026-01-30 12:54:08.39	21.43	2.40	-48.1	-60.0	3.5	1.51e+00	0	40	104	0	60	35260
2026-01-30 12:54:09.40	21.49	2.45	-48.1	-59.9	3.5	1.51e+00	0	40	104	0	60	34508
2026-01-30 12:54:10.41	21.56	2.51	-48.1	-60.3	3.5	1.52e+00	0	40	104	0	60	36183
2026-01-30 12:54:11.42	21.63	2.57	-48.2	-60.7	3.5	1.52e+00	0	40	104	0	60	38001
2026-01-30 12:54:12.43	21.70	2.62	-48.0	-59.2	3.6	1.52e+00	0	40	104	0	60	31890
2026-01-30 12:54:13.43	21.77	2.68	-47.4	-54.9	6.2	1.34e+00	0	40	104	0	60	19522
2026-01-30 12:54:14.45	21.84	2.74	-46.0	-50.0	10.1	2.44e-02	0	40	0	1048576	60	11101
2026-01-30 12:54:15.46	21.91	2.80	-44.1	-46.6	14.0	5.34e-05	0	40	0	4194304	60	7527
2026-01-30 12:54:16.47	21.98	2.85	-42.3	-44.2	16.1	0.00e+00	0	40	0	7340032	58	6391
2026-01-30 12:54:17.47	22.05	2.91	-41.1	-42.7	17.7	0.00e+00	0	41	0	10485760	56	6009
2026-01-30 12:54:18.48	22.12	2.97	-40.2	-41.6	18.5	0.00e+00	0	41	0	13631488	54	5946
2026-01-30 12:54:19.49	22.19	3.03	-39.4	-40.7	19.3	0.00e+00	0	41	0	16777216	52	6016
2026-01-30 12:54:20.50	22.26	3.08	-39.4	-40.6	19.4	0.00e+00	0	40	0	19922944	52	5990
2026-01-30 12:54:21.51	22.34	3.14	-39.4	-40.7	19.4	0.00e+00	0	40	0	23068672	52	6025
2026-01-30 12:54:22.52	22.41	3.20	-40.8	-42.3	17.8	0.00e+00	0	40	0	26214400	54	6482
2026-01-30 12:54:23.53	22.48	3.26	-41.8	-43.6	16.4	0.00e+00	0	40	0	29360128	54	7479
2026-01-30 12:54:24.54	22.55	3.32	-40.6	-42.0	18.3	0.00e+00	0	40	0	32505856	54	6270
2026-01-30 12:54:25.55	22.62	3.37	-39.3	-40.6	19.6	0.00e+00	0	40	0	35651584	52	5946
2026-01-30 12:54:26.56	22.70	3.43	-44.2	-46.9	10.7	0.00e+00	0	40	0	38797312	56	9804
2026-01-30 12:54:27.57	22.77	3.49	-47.4	-55.7	4.0	1.52e+00	0	41	104	39845888	60	21276
2026-01-30 12:54:28.58	22.84	3.55	-40.2	-41.9	17.6	7.39e-04	0	41	104	39845888	54	6195
2026-01-30 12:54:29.59	22.92	3.61	-44.1	-46.5	14.7	2.82e-03	0	41	0	41943040	60	7418
2026-01-30 12:54:30.60	22.99	3.67	-42.4	-44.3	16.4	0.00e+00	0	41	0	45088768	58	6426
2026-01-30 12:54:31.61	23.07	3.72	-42.3	-44.1	15.6	0.00e+00	0	41	0	48234496	58	6318
2026-01-30 12:54:32.62	23.14	3.78	-42.5	-44.3	16.5	0.00e+00	0	41	0	51380224	58	6494
2026-01-30 12:54:33.63	23.22	3.84	-42.6	-44.5	16.2	0.00e+00	0	41	0	54525952	58	6593
2026-01-30 12:54:34.64	23.29	3.90	-42.8	-44.8	15.6	0.00e+00	0	41	0	57671680	58	6862
2026-01-30 12:54:35.65	23.37	3.96	-42.7	-44.6	15.7	0.00e+00	0	41	0	60817408	58	6714
2026-01-30 12:54:36.66	23.44	4.02	-42.8	-44.8	16.4	0.00e+00	0	41	0	63963136	58	6807
2026-01-30 12:54:37.67	23.52	4.08	-42.0	-43.8	16.4	0.00e+00	0	41	0	67108864	58	6076
2026-01-30 12:54:38.67	23.59	4.14	-41.6	-43.2	17.1	0.00e+00	0	40	0	70254592	56	6361
2026-01-30 12:54:39.68	23.67	4.20	-41.8	-43.4	17.1	0.00e+00	0	41	0	74448896	56	6545
2026-01-30 12:54:40.69	23.75	4.26	-41.1	-42.6	18.0	0.00e+00	0	41	0	76546048	56	5949
2026-01-30 12:54:41.70	23.82	4.32	-39.8	-41.1	19.3	0.00e+00	0	41	0	79691776	54	5626
2026-01-30 12:54:42.71	23.90	4.38	-39.7	-41.0	19.3	0.00e+00	0	41	0	82837504	52	6251
2026-01-30 12:54:43.72	23.98	4.44	-39.5	-40.8	19.6	0.00e+00	0	41	0	85983232	52	6105
2026-01-30 12:54:44.73	24.06	4.50	-39.2	-40.4	20.0	0.00e+00	0	41	0	90177536	52	5820
2026-01-30 12:54:45.74	24.14	4.56	-38.7	-39.9	20.4	0.00e+00	0	41	0	93323264	52	5501
2026-01-30 12:54:46.75	24.21	4.62	-38.6	-39.8	20.4	0.00e+00	0	41	0	96468992	50	6117
2026-01-30 12:54:47.76	24.29	4.68	-38.4	-39.6	20.8	0.00e+00	0	41	0	99614720	50	5935
2026-01-30 12:54:48.77	24.37	4.74	-38.4	-39.5	20.7	0.00e+00	0	41	0	101711872	50	5916
2026-01-30 12:54:49.78	24.45	4.80	-38.3	-39.5	20.8	0.00e+00	0	41	0	104857600	50	5893
2026-01-30 12:54:50.79	24.53	4.86	-38.0	-39.1	21.2	0.00e+00	0	41	0	109051904	50	5648
2026-01-30 12:54:51.80	24.61	4.92	-38.3	-39.4	20.8	0.00e+00	0	41	0	112197632	50	5851
2026-01-30 12:54:52.81	24.69	4.98	-38.4	-39.5	20.9	0.00e+00	0	41	0	115343360	50	5910
2026-01-30 12:54:53.82	24.77	5.04	-38.0	-39.1	21.3	0.00e+00	0	41	0	118489088	50	5628
2026-01-30 12:54:54.83	24.85	5.10	-37.9	-39.0	21.2	0.00e+00	0	41	0	121634816	50	5563
2026-01-30 12:54:55.84	24.94	5.16	-37.8	-38.9	21.4	0.00e+00	0	41	0	124780544	50	5508
2026-01-30 12:54:56.85	25.02	5.22	-37.7	-38.8	21.4	0.00e+00	0	41	0	127926272	48	6130
2026-01-30 12:54:57.86	25.10	5.28	-38.0	-39.1	21.2	0.00e+00	0	41	0	131072000	48	6306
2026-01-30 12:54:58.87	25.18	5.35	-37.9	-38.9	21.3	0.00e+00	0	41	0	134217728	48	6201
2026-01-30 12:54:59.88	25.26	5.41	-37.9	-39.0	21.2	0.00e+00	0	41	0	137363456	48	6233
2026-01-30 12:55:00.89	25.35	5.47	-38.1	-39.2	21.2	0.00e+00	0	41	0	140509184	48	6404
2026-01-30 12:55:01.90	25.43	5.53	-38.4	-39.5	20.8	0.00e+00	0	41	0	143654912	48	6649
2026-01-30 12:55:02.90	25.51	5.59	-38.0	-39.1	21.2	0.00e+00	0	41	0	146800640	48	6334
2026-01-30 12:55:03.91	25.60	5.65	-37.9	-39.0	21.4	0.00e+00	0	41	0	149946368	48	6220
2026-01-30 12:55:04.92	25.68	5.72	-38.2	-39.3	21.2	0.00e+00	0	41	0	153092096	48	6436
2026-01-30 12:55:05.93	25.77	5.78	-37.8	-38.9	21.6	0.00e+00	0	41	0	156237824	48	6136
2026-01-30 12:55:06.94	25.85	5.84	-37.4	-38.5	21.8	0.00e+00	0	41	0	159383552	48	5901
2026-01-30 12:55:07.95	25.94	5.90	-37.6	-38.6	21.7	0.00e+00	0	41	0	162529280	48	5986
2026-01-30 12:55:08.96	26.02	5.96	-37.7	-38.8	21.6	0.00e+00	0	41	0	165675008	48	6092
2026-01-30 12:55:09.97	26.11	6.03	-37.5	-38.5	21.8	0.00e+00	0	41	0	168820736	48	5905
2026-01-30 12:55:10.98	26.20	6.09	-37.5	-38.6	21.8	0.00e+00	0	41	0	171966464	48	5962
2026-01-30 12:55:11.98	26.28	6.15	-37.4	-38.5	21.8	0.00e+00	0	41	0	175112192	48	5895
2026-01-30 12:55:12.99	26.37	6.21	-37.5	-38.6	21.8	0.00e+00	0	41	0	178257920	48	5930
2026-01-30 12:55:14.00	26.46	6.28	-37.4	-38.5	21.9	0.00e+00	0	41	0	181403648	48	5876
2026-01-30 12:55:15.01	26.54	6.34	-37.2	-38.3	22.0	0.00e+00	0	41	0	184549376	48	5743
2026-01-30 12:55:16.02	26.63	6.40	-37.2	-38.2	22.0	0.00e+00	0	41	0	187695104	48	5696
2026-01-30 12:55:17.03	26.72	6.46	-37.3	-38.4	21.9	0.00e+00	0	41	0	190840832	48	5816
2026-01-30 12:55:18.04	26.81	6.53	-37.4	-38.4	21.8	0.00e+00	0	41	0	193986560	48	5827
2026-01-30 12:55:19.05	26.90	6.59	-37.0	-38.0	22.3	0.00e+00	0	41	0	197132288	48	5588
2026-01-30 12:55:20.06	26.99	6.65	-37.3	-38.4	22.0	0.00e+00	0	41	0	200278016	48	5801
2026-01-30 12:55:21.07	27.08	6.72	-37.3	-38.3	22.1	0.00e+00	0	41	0	203423744	48	5787
2026-01-30 12:55:22.08	27.17	6.78	-37.2	-38.2	22.1	0.00e+00	0	41	0	206569472	48	5722
2026-01-30 12:55:23.09	27.26	6.85	-37.5	-38.5	21.9	0.00e+00	0	41	0	209715200	48	5915
2026-01-30 12:55:24.10	27.35	6.91	-37.7	-38.7	21.8	0.00e+00	0	41	0	212860928	48	6055
2026-01-30 12:55:25.11	27.44	6.97	-37.4	-38.4	22.0	0.00e+00	0	41	0	216006656	48	5850
2026-01-30 12:55:26.12	27.53	7.04	-37.5	-38.6	21.8	0.00e+00	0	41	0	219152384	48	5931
2026-01-30 12:55:27.13	27.63	7.10	-37.3	-38.3	22.0	0.00e+00	0	41	0	222298112	48	5771
2026-01-30 12:55:28.14	27.72	7.16	-37.5	-38.5	22.0	0.00e+00	0	41	0	225443840	48	5886
2026-01-30 12:55:29.15	27.81	7.23	-37.4	-38.4	22.0	0.00e+00	0	41	0	228589568	48	5842
2026-01-30 12:55:30.16	27.90	7.29	-37.2	-38.2	22.2	0.00e+00	0	41	0	231735296	48	5697
2026-01-30 12:55:31.17	28.00	7.36	-37.2	-38.3	22.1	0.00e+00	0	41	0	234881024	48	5732
2026-01-30 12:55:32.18	28.09	7.42	-37.3	-38.3	22.1	0.00e+00	0	41	0	238026752	48	5788
2026-01-30 12:55:33.19	28.19	7.49	-36.9	-38.0	22.4	0.00e+00	0	41	0	241172480	48	5543
2026-01-30 12:55:34.20	28.28	7.55	-37.1	-38.1	22.2	0.00e+00	0	41	0	244318208	48	5609
2026-01-30 12:55:35.21	28.38	7.62	-36.9	-38.0	22.4	0.00e+00	0	41	0	247463936	48	5541
2026-01-30 12:55:36.22	28.47	7.68	-37.3	-38.3	22.1	0.00e+00	0	41	0	250609664	48	5760
2026-01-30 12:55:37.23	28.57	7.75	-37.0	-38.0	22.3	0.00e+00	0	41	0	253755392	48	5586
2026-01-30 12:55:38.24	28.67	7.81	-36.9	-37.9	22.4	0.00e+00	0	41	0	256901120	48	5530
2026-01-30 12:55:39.25	28.76	7.88	-36.7	-37.7	22.6	0.00e+00	0	41	0	260046848	48	5397
2026-01-30 12:55:40.26	28.86	7.94	-36.9	-37.9	22.4	0.00e+00	0	41	0	263192576	46	6205
2026-01-30 12:55:41.27	28.96	8.01	-36.9	-37.9	22.5	0.00e+00	0	41	0	266338304	46	6200
2026-01-30 12:55:42.28	29.06	8.07	-37.1	-38.1	22.4	0.00e+00	0	41	0	269484032	46	6297
2026-01-30 12:55:43.29	29.16	8.14	-37.0	-38.0	22.4	0.00e+00	0	41	0	272629760	46	6216
2026-01-30 12:55:44.30	29.26	8.21	-36.8	-37.8	22.6	0.00e+00	0	41	0	275775488	46	6097
2026-01-30 12:55:45.31	29.35	8.27	-37.0	-38.0	22.5	0.00e+00	0	41	0	278921216	46	6235
2026-01-30 12:55:46.32	29.45	8.34	-37.1	-38.1	22.3	0.00e+00	0	41	0	282066944	46	6294
2026-01-30 12:55:47.33	29.55	8.40	-36.9	-37.9	22.5	0.00e+00	0	41	0	285212672	46	6185
2026-01-30 12:55:48.34	29.66	8.47	-37.2	-38.2	22.3	0.00e+00	0	41	0	288358400	46	6373
2026-01-30 12:55:49.35	29.76	8.54	-37.3	-38.3	22.2	0.00e+00	0	41	0	291504128	46	6450
2026-01-30 12:55:50.36	29.86	8.60	-36.8	-37.8	22.6	0.00e+00	0	41	0	294649856	46	6122
2026-01-30 12:55:51.36	29.96	8.67	-36.7	-37.7	22.6	0.00e+00	0	41	0	297795584	46	6057
2026-01-30 12:55:52.37	30.06	8.73	-36.8	-37.8	22.7	0.00e+00	0	41	0	300941312	46	6109
2026-01-30 12:55:53.38	30.17	8.80	-37.0	-38.0	22.4	0.00e+00	0	41	0	304087040	46	6219
2026-01-30 12:55:54.39	30.27	8.87	-36.8	-37.8	22.6	0.00e+00	0	41	0	307232768	46	6107
2026-01-30 12:55:55.40	30.37	8.93	-36.5	-37.5	22.8	0.00e+00	0	41	0	310378496	46	5898
2026-01-30 12:55:56.41	30.48	9.00	-36.5	-37.5	22.9	0.00e+00	0	41	0	313524224	46	5907
2026-01-30 12:55:57.43	30.58	9.07	-36.7	-37.7	22.8	0.00e+00	0	41	0	316669952	46	6031
2026-01-30 12:55:58.44	30.69	9.14	-36.5	-37.4	22.9	0.00e+00	0	41	0	319815680	46	5855
2026-01-30 12:55:59.45	30.79	9.20	-36.4	-37.4	23.0	0.00e+00	0	41	0	322961408	46	5827
2026-01-30 12:56:00.46	30.90	9.27	-36.5	-37.5	22.9	0.00e+00	0	41	0	326107136	46	5904
2026-01-30 12:56:01.46	31.01	9.34	-36.6	-37.5	22.9	0.00e+00	0	41	0	329252864	46	5922
2026-01-30 12:56:02.47	31.11	9.41	-36.5	-37.5	22.9	0.00e+00	0	41	0	332398592	46	5880
2026-01-30 12:56:03.48	31.22	9.47	-36.4	-37.4	23.0	0.00e+00	0	41	0	335544320	46	5835
2026-01-30 12:56:04.49	31.33	9.54	-36.4	-37.4	23.0	0.00e+00	0	41	0	338690048	46	5819
2026-01-30 12:56:05.50	31.44	9.61	-36.3	-37.2	23.1	0.00e+00	0	41	0	341835776	46	5725
2026-01-30 12:56:06.51	31.55	9.68	-36.3	-37.3	23.1	0.00e+00	0	41	0	344981504	46	5753
2026-01-30 12:56:07.52	31.66	9.75	-36.3	-37.3	23.1	0.00e+00	0	41	0	348127232	46	5765
2026-01-30 12:56:08.53	31.77	9.81	-36.3	-37.2	23.1	0.00e+00	0	41	0	351272960	46	5710
2026-01-30 12:56:09.54	31.88	9.88	-36.4	-37.4	23.0	0.00e+00	0	41	0	354418688	46	5803
2026-01-30 12:56:10.54	31.99	9.95	-36.3	-37.3	23.1	0.00e+00	0	41	0	357564416	46	5730
2026-01-30 12:56:11.55	32.10	10.02	-36.3	-37.2	23.2	0.00e+00	0	41	0	360710144	46	5702
2026-01-30 12:56:12.56	32.21	10.09	-36.3	-37.2	23.2	0.00e+00	0	41	0	363855872	46	5720
2026-01-30 12:56:13.57	32.32	10.16	-36.3	-37.2	23.1	0.00e+00	0	41	0	367001600	46	5704
2026-01-30 12:56:14.58	32.44	10.22	-36.3	-37.3	23.2	0.00e+00	0	41	0	370147328	46	5761
2026-01-30 12:56:15.59	32.55	10.29	-36.1	-37.0	23.3	0.00e+00	0	41	0	373293056	46	5587
2026-01-30 12:56:16.61	32.67	10.36	-36.1	-37.1	23.2	0.00e+00	0	41	0	376438784	46	5622
2026-01-30 12:56:17.62	32.78	10.43	-36.1	-37.0	23.3	0.00e+00	0	41	0	379584512	46	5577
2026-01-30 12:56:18.63	32.90	10.50	-36.1	-37.0	23.3	0.00e+00	0	41	0	382730240	46	5575
2026-01-30 12:56:19.64	33.01	10.57	-36.0	-36.9	23.4	0.00e+00	0	41	0	385875968	46	5520
2026-01-30 12:56:20.65	33.13	10.64	-36.0	-37.0	23.3	0.00e+00	0	41	0	389021696	46	5540
2026-01-30 12:56:21.66	33.24	10.71	-36.1	-37.1	23.3	0.00e+00	0	41	0	392167424	46	5612
2026-01-30 12:56:22.67	33.36	10.78	-36.0	-36.9	23.5	0.00e+00	0	41	0	395313152	46	5501
2026-01-30 12:56:23.68	33.48	10.85	-36.2	-37.2	23.3	0.00e+00	0	41	0	398458880	46	5661
2026-01-30 12:56:24.69	33.60	10.92	-36.0	-37.0	23.4	0.00e+00	0	41	0	401604608	46	5552
2026-01-30 12:56:25.70	33.72	10.99	-35.9	-36.8	23.6	0.00e+00	0	41	0	404750336	46	5453
2026-01-30 12:56:26.71	33.84	11.06	-35.8	-36.7	23.6	0.00e+00	0	41	0	407896064	44	6022
2026-01-30 12:56:27.72	33.96	11.13	-35.7	-36.6	23.7	0.00e+00	0	41	0	411041792	44	5989
2026-01-30 12:56:28.73	34.08	11.20	-35.7	-36.7	23.6	0.00e+00	0	41	0	415236096	44	6020
2026-01-30 12:56:29.74	34.20	11.27	-35.7	-36.7	23.6	0.00e+00	0	41	0	417333248	44	6005
2026-01-30 12:56:30.75	34.32	11.34	-35.7	-36.6	23.6	0.00e+00	0	41	0	420478976	44	5977
2026-01-30 12:56:31.76	34.44	11.41	-35.6	-36.6	23.7	0.00e+00	0	41	0	423624704	44	5943
2026-01-30 12:56:32.77	34.56	11.48	-35.6	-36.6	23.7	0.00e+00	0	41	0	426770432	44	5953
2026-01-30 12:56:33.78	34.69	11.55	-35.7	-36.7	23.6	0.00e+00	0	41	0	430964736	44	6000
2026-01-30 12:56:34.79	34.81	11.62	-35.5	-36.4	23.7	0.00e+00	0	41	0	434110464	44	5851
2026-01-30 12:56:35.80	34.94	11.69	-35.6	-36.5	23.7	0.00e+00	0	41	0	437256192	44	5912
2026-01-30 12:56:36.81	35.06	11.76	-35.7	-36.6	23.6	0.00e+00	0	41	0	440401920	44	5960
2026-01-30 12:56:37.82	35.19	11.83	-35.5	-36.5	23.8	0.00e+00	0	41	0	442499072	44	5866
2026-01-30 12:56:38.83	35.31	11.90	-35.7	-36.7	23.6	0.00e+00	0	41	0	445644800	44	6018
2026-01-30 12:56:39.84	35.44	11.97	-35.6	-36.5	23.8	0.00e+00	0	41	0	449839104	44	5886
2026-01-30 12:56:40.85	35.57	12.05	-35.9	-36.8	23.7	0.00e+00	0	41	0	452984832	44	6128
2026-01-30 12:56:41.86	35.69	12.12	-35.8	-36.7	23.7	0.00e+00	0	41	0	456130560	44	6038
2026-01-30 12:56:42.87	35.82	12.19	-35.5	-36.4	23.9	0.00e+00	0	41	0	459276288	44	5819
2026-01-30 12:56:43.88	35.95	12.26	-35.3	-36.3	24.0	0.00e+00	0	41	0	462422016	44	5739
2026-01-30 12:56:44.88	36.08	12.33	-35.3	-36.3	23.9	0.00e+00	0	41	0	465567744	44	5730
2026-01-30 12:56:45.89	36.21	12.40	-35.1	-36.1	24.1	0.00e+00	0	41	0	468713472	44	5607
2026-01-30 12:56:46.90	36.34	12.47	-35.3	-36.3	24.0	0.00e+00	0	41	0	471859200	44	5737
2026-01-30 12:56:47.91	36.47	12.55	-35.2	-36.1	24.1	0.00e+00	0	41	0	475004928	44	5620
2026-01-30 12:56:48.93	36.61	12.62	-35.2	-36.1	24.1	0.00e+00	0	41	0	478150656	44	5646
2026-01-30 12:56:49.94	36.74	12.69	-35.1	-36.0	24.2	0.00e+00	0	41	0	481296384	44	5587
2026-01-30 12:56:50.95	36.87	12.76	-35.3	-36.2	24.1	0.00e+00	0	41	0	484442112	44	5708
2026-01-30 12:56:51.96	37.01	12.83	-35.2	-36.1	24.2	0.00e+00	0	41	0	487587840	44	5621
2026-01-30 12:56:52.96	37.14	12.91	-35.2	-36.1	24.1	0.00e+00	0	41	0	490733568	44	5629
2026-01-30 12:56:53.97	37.28	12.98	-35.1	-36.0	24.2	0.00e+00	0	41	0	493879296	44	5569
2026-01-30 12:56:54.98	37.41	13.05	-35.2	-36.1	24.2	0.00e+00	0	41	0	497025024	44	5607
2026-01-30 12:56:55.99	37.55	13.12	-35.3	-36.2	24.1	0.00e+00	0	41	0	500170752	44	5686
2026-01-30 12:56:57.00	37.69	13.19	-35.3	-36.2	24.1	0.00e+00	0	41	0	503316480	44	5703
2026-01-30 12:56:58.01	37.82	13.27	-35.2	-36.1	24.1	0.00e+00	0	41	0	506462208	44	5649
2026-01-30 12:56:59.02	37.96	13.34	-35.2	-36.1	24.2	0.00e+00	0	41	0	509607936	44	5613
2026-01-30 12:57:00.03	38.10	13.41	-35.1	-36.0	24.2	0.00e+00	0	41	0	512753664	44	5549
2026-01-30 12:57:01.04	38.24	13.48	-35.1	-36.0	24.2	0.00e+00	0	41	0	515899392	44	5541
2026-01-30 12:57:02.05	38.38	13.56	-35.0	-35.9	24.3	0.00e+00	0	41	0	519045120	44	5508
2026-01-30 12:57:03.06	38.52	13.63	-35.1	-36.0	24.2	0.00e+00	0	41	0	522190848	44	5539
2026-01-30 12:57:04.07	38.67	13.70	-35.1	-36.0	24.2	0.00e+00	0	41	0	525336576	44	5545
2026-01-30 12:57:05.08	38.81	13.78	-35.1	-36.0	24.2	0.00e+00	0	41	0	528482304	44	5586
2026-01-30 12:57:06.09	38.95	13.85	-35.4	-36.3	24.1	0.00e+00	0	41	0	531628032	44	5728
2026-01-30 12:57:07.10	39.10	13.92	-35.3	-36.2	24.1	0.00e+00	0	41	0	534773760	44	5710
2026-01-30 12:57:08.12	39.24	14.00	-35.4	-36.3	24.1	0.00e+00	0	41	0	537919488	44	5740
2026-01-30 12:57:09.13	39.39	14.07	-35.2	-36.2	24.1	0.00e+00	0	41	0	541065216	44	5662
2026-01-30 12:57:10.14	39.53	14.14	-35.3	-36.2	24.1	0.00e+00	0	41	0	544210944	44	5680
2026-01-30 12:57:11.14	39.68	14.22	-35.3	-36.3	24.1	0.00e+00	0	41	0	547356672	44	5730
2026-01-30 12:57:12.16	39.83	14.29	-35.3	-36.2	24.2	0.00e+00	0	41	0	550502400	44	5676
2026-01-30 12:57:13.17	39.98	14.36	-35.1	-36.0	24.2	0.00e+00	0	41	0	553648128	44	5592
2026-01-30 12:57:14.18	40.12	14.44	-35.2	-36.1	24.2	0.00e+00	0	41	0	556793856	44	5628
2026-01-30 12:57:15.18	40.27	14.51	-35.3	-36.1	24.1	0.00e+00	0	41	0	559939584	44	5656
2026-01-30 12:57:16.20	40.42	14.58	-35.2	-36.1	24.2	0.00e+00	0	41	0	563085312	44	5641
2026-01-30 12:57:17.20	40.57	14.66	-35.3	-36.2	24.0	0.00e+00	0	41	0	566231040	44	5670
2026-01-30 12:57:18.21	40.73	14.73	-35.2	-36.1	24.1	0.00e+00	0	41	0	569376768	44	5650
2026-01-30 12:57:19.23	40.88	14.80	-35.2	-36.1	24.2	0.00e+00	0	41	0	572522496	44	5622
2026-01-30 12:57:20.23	41.03	14.88	-35.3	-36.2	24.1	0.00e+00	0	41	0	575668224	44	5685
2026-01-30 12:57:21.24	41.19	14.95	-35.2	-36.1	24.2	0.00e+00	0	41	0	578813952	44	5625
2026-01-30 12:57:22.25	41.34	15.02	-35.3	-36.2	24.1	0.00e+00	0	41	0	581959680	44	5693
2026-01-30 12:57:23.26	41.50	15.10	-35.3	-36.2	24.1	0.00e+00	0	41	0	585105408	44	5669
2026-01-30 12:57:24.27	41.65	15.17	-35.4	-36.3	24.1	0.00e+00	0	41	0	588251136	44	5740
2026-01-30 12:57:25.28	41.81	15.25	-35.3	-36.2	24.1	0.00e+00	0	41	0	591396864	44	5690
2026-01-30 12:57:26.29	41.97	15.32	-35.3	-36.2	24.1	0.00e+00	0	41	0	594542592	44	5669
2026-01-30 12:57:27.30	42.12	15.39	-35.3	-36.2	24.1	0.00e+00	0	41	0	597688320	44	5702
2026-01-30 12:57:28.31	42.28	15.47	-35.4	-36.3	24.0	0.00e+00	0	41	0	600834048	44	5773
2026-01-30 12:57:29.32	42.44	15.54	-35.5	-36.4	24.0	0.00e+00	0	41	0	603979776	44	5809
2026-01-30 12:57:30.33	42.60	15.61	-35.3	-36.2	24.1	0.00e+00	0	41	0	607125504	44	5702
2026-01-30 12:57:31.34	42.77	15.69	-35.4	-36.3	24.0	0.00e+00	0	41	0	610271232	44	5740
2026-01-30 12:57:32.35	42.93	15.76	-35.2	-36.1	24.2	0.00e+00	0	41	0	613416960	44	5627
2026-01-30 12:57:33.36	43.09	15.84	-35.3	-36.2	24.1	0.00e+00	0	41	0	616562688	44	5722
2026-01-30 12:57:34.36	43.25	15.91	-35.3	-36.2	24.1	0.00e+00	0	41	0	619708416	44	5704
2026-01-30 12:57:35.37	43.42	15.98	-35.4	-36.4	24.1	0.00e+00	0	41	0	622854144	44	5805
2026-01-30 12:57:36.38	43.58	16.06	-35.4	-36.3	24.0	0.00e+00	0	41	0	625999872	44	5786
2026-01-30 12:57:37.39	43.75	16.13	-35.4	-36.3	24.0	0.00e+00	0	41	0	629145600	44	5776
2026-01-30 12:57:38.40	43.92	16.21	-35.5	-36.4	24.0	0.00e+00	0	41	0	632291328	44	5816
2026-01-30 12:57:39.41	44.08	16.28	-35.4	-36.4	24.0	0.00e+00	0	41	0	635437056	44	5801
2026-01-30 12:57:40.42	44.25	16.35	-35.5	-36.4	23.9	0.00e+00	0	41	0	638582784	44	5836
2026-01-30 12:57:41.44	44.42	16.43	-35.4	-36.3	24.1	0.00e+00	0	41	0	641728512	44	5753
2026-01-30 12:57:42.44	44.59	16.50	-35.4	-36.3	24.1	0.00e+00	0	41	0	644874240	44	5777
2026-01-30 12:57:43.45	44.76	16.58	-35.3	-36.2	24.2	0.00e+00	0	41	0	648019968	44	5673
2026-01-30 12:57:44.46	44.94	16.65	-35.3	-36.2	24.1	0.00e+00	0	41	0	651165696	44	5701
2026-01-30 12:57:45.48	45.11	16.72	-35.5	-36.4	24.1	0.00e+00	0	41	0	654311424	44	5792
2026-01-30 12:57:46.48	45.28	16.80	-35.3	-36.2	24.1	0.00e+00	0	41	0	657457152	44	5680
2026-01-30 12:57:47.49	45.46	16.87	-35.3	-36.2	24.1	0.00e+00	0	41	0	660602880	44	5670
2026-01-30 12:57:48.50	45.63	16.95	-35.2	-36.2	24.1	0.00e+00	0	41	0	663748608	44	5667
2026-01-30 12:57:49.51	45.81	17.02	-35.2	-36.1	24.1	0.00e+00	0	41	0	666894336	44	5645
2026-01-30 12:57:50.52	45.98	17.09	-35.3	-36.2	24.2	0.00e+00	0	41	0	670040064	44	5694
2026-01-30 12:57:51.53	46.16	17.17	-35.3	-36.3	24.2	0.00e+00	0	41	0	673185792	44	5728
2026-01-30 12:57:52.54	46.34	17.24	-35.1	-36.0	24.3	0.00e+00	0	41	0	676331520	44	5570
2026-01-30 12:57:53.55	46.52	17.31	-35.1	-36.0	24.3	0.00e+00	0	41	0	679477248	44	5592
2026-01-30 12:57:54.55	46.70	17.39	-35.2	-36.1	24.3	0.00e+00	0	41	0	682622976	44	5650
2026-01-30 12:57:55.56	46.88	17.46	-35.1	-36.0	24.3	0.00e+00	0	41	0	685768704	44	5569
2026-01-30 12:57:56.57	47.06	17.53	-35.1	-36.0	24.3	0.00e+00	0	41	0	688914432	44	5550
2026-01-30 12:57:57.59	47.25	17.61	-35.0	-35.9	24.4	0.00e+00	0	41	0	692060160	44	5499
2026-01-30 12:57:58.60	47.43	17.68	-35.1	-35.9	24.4	0.00e+00	0	41	0	695205888	44	5527
2026-01-30 12:57:59.61	47.61	17.76	-35.0	-35.9	24.4	0.00e+00	0	41	0	698351616	44	5504
2026-01-30 12:58:00.62	47.80	17.83	-35.1	-36.0	24.4	0.00e+00	0	41	0	701497344	44	5551
2026-01-30 12:58:01.63	47.99	17.90	-35.1	-36.0	24.4	0.00e+00	0	41	0	704643072	44	5576
2026-01-30 12:58:02.64	48.17	17.98	-35.2	-36.1	24.3	0.00e+00	0	41	0	707788800	44	5604
2026-01-30 12:58:03.65	48.36	18.05	-35.1	-35.9	24.4	0.00e+00	0	41	0	710934528	44	5527
2026-01-30 12:58:04.66	48.55	18.12	-35.0	-35.9	24.3	0.00e+00	0	41	0	714080256	44	5479
2026-01-30 12:58:05.67	48.74	18.19	-35.0	-35.9	24.4	0.00e+00	0	41	0	717225984	44	5505
2026-01-30 12:58:06.68	48.93	18.27	-34.9	-35.8	24.5	0.00e+00	0	41	0	720371712	44	5458
2026-01-30 12:58:07.69	49.12	18.34	-35.0	-35.9	24.4	0.00e+00	0	41	0	723517440	44	5480
2026-01-30 12:58:08.70	49.32	18.41	-35.2	-36.0	24.4	0.00e+00	0	41	0	726663168	44	5590
2026-01-30 12:58:09.71	49.51	18.49	-34.9	-35.8	24.5	0.00e+00	0	41	0	729808896	44	5460
2026-01-30 12:58:10.72	49.70	18.56	-35.0	-35.9	24.5	0.00e+00	0	41	0	732954624	44	5492
2026-01-30 12:58:11.73	49.90	18.63	-35.2	-36.1	24.3	0.00e+00	0	41	0	736100352	44	5604
2026-01-30 12:58:12.74	50.10	18.70	-35.2	-36.1	24.3	0.00e+00	0	41	0	739246080	44	5652
2026-01-30 12:58:13.75	50.29	18.77	-35.2	-36.2	24.2	0.00e+00	0	41	0	742391808	44	5660
2026-01-30 12:58:14.76	50.49	18.85	-35.3	-36.2	24.2	0.00e+00	0	41	0	745537536	44	5698
2026-01-30 12:58:15.77	50.69	18.92	-35.1	-36.0	24.3	0.00e+00	0	41	0	748683264	44	5565
2026-01-30 12:58:16.78	50.89	18.99	-35.3	-36.2	24.3	0.00e+00	0	41	0	751828992	44	5684
2026-01-30 12:58:17.79	51.09	19.06	-35.2	-36.1	24.4	0.00e+00	0	41	0	756023296	44	5601
2026-01-30 12:58:18.80	51.29	19.13	-35.2	-36.1	24.4	0.00e+00	0	41	0	758120448	44	5628
2026-01-30 12:58:19.81	51.49	19.21	-35.2	-36.1	24.4	0.00e+00	0	41	0	761266176	44	5610
2026-01-30 12:58:20.82	51.70	19.28	-35.1	-36.0	24.4	0.00e+00	0	41	0	764411904	44	5585
2026-01-30 12:58:21.83	51.90	19.35	-35.2	-36.2	24.3	0.00e+00	0	41	0	767557632	44	5661
2026-01-30 12:58:22.84	52.11	19.42	-35.1	-36.0	24.4	0.00e+00	0	41	0	771751936	44	5546
2026-01-30 12:58:23.85	52.31	19.49	-35.2	-36.1	24.3	0.00e+00	0	41	0	774897664	44	5608
2026-01-30 12:58:24.86	52.52	19.56	-35.2	-36.1	24.2	0.00e+00	0	41	0	778043392	44	5610
2026-01-30 12:58:25.87	52.73	19.63	-35.2	-36.1	24.3	0.00e+00	0	41	0	781189120	44	5633
2026-01-30 12:58:26.88	52.94	19.70	-35.3	-36.2	24.2	0.00e+00	0	41	0	783286272	44	5721
2026-01-30 12:58:27.89	53.15	19.77	-35.3	-36.2	24.2	0.00e+00	0	41	0	787480576	44	5680
2026-01-30 12:58:28.90	53.36	19.84	-35.2	-36.1	24.3	0.00e+00	0	41	0	790626304	44	5628
2026-01-30 12:58:29.91	53.57	19.91	-35.4	-36.3	24.3	0.00e+00	0	41	0	793772032	44	5779
2026-01-30 12:58:30.92	53.78	19.98	-35.3	-36.3	24.1	0.00e+00	0	41	0	796917760	44	5731
2026-01-30 12:58:31.93	54.00	20.05	-35.7	-36.6	24.0	0.00e+00	0	41	0	800063488	44	5982
2026-01-30 12:58:32.94	54.21	20.12	-35.4	-36.3	24.2	0.00e+00	0	41	0	803209216	44	5734
2026-01-30 12:58:33.95	54.43	20.19	-35.4	-36.3	24.1	0.00e+00	0	41	0	806354944	44	5749
2026-01-30 12:58:34.96	54.65	20.26	-35.3	-36.2	24.2	0.00e+00	0	41	0	809500672	44	5693
2026-01-30 12:58:35.97	54.86	20.33	-35.2	-36.1	24.3	0.00e+00	0	41	0	812646400	44	5609
2026-01-30 12:58:36.98	55.08	20.39	-35.1	-36.0	24.3	0.00e+00	0	41	0	815792128	44	5587
2026-01-30 12:58:37.99	55.30	20.46	-35.0	-35.9	24.4	0.00e+00	0	41	0	818937856	44	5471
2026-01-30 12:58:39.00	55.52	20.53	-35.0	-35.9	24.3	0.00e+00	0	41	0	822083584	44	5477
2026-01-30 12:58:40.01	55.74	20.60	-35.0	-35.9	24.3	0.00e+00	0	41	0	825229312	44	5506
2026-01-30 12:58:41.02	55.97	20.66	-35.0	-35.9	24.3	0.00e+00	0	41	0	828375040	44	5493
2026-01-30 12:58:42.03	56.19	20.73	-35.1	-36.0	24.2	0.00e+00	0	41	0	831520768	44	5577
2026-01-30 12:58:43.04	56.41	20.80	-35.2	-36.1	24.2	0.00e+00	0	41	0	834666496	44	5604
2026-01-30 12:58:44.05	56.64	20.87	-35.3	-36.2	24.1	0.00e+00	0	41	0	837812224	44	5712
2026-01-30 12:58:45.06	56.86	20.93	-35.3	-36.3	24.1	0.00e+00	0	41	0	840957952	44	5740
2026-01-30 12:58:46.07	57.09	21.00	-35.2	-36.2	24.2	0.00e+00	0	41	0	844103680	44	5661
2026-01-30 12:58:47.08	57.32	21.06	-35.2	-36.1	24.1	0.00e+00	0	41	0	847249408	44	5628
2026-01-30 12:58:48.09	57.55	21.13	-35.2	-36.1	24.2	0.00e+00	0	41	0	850395136	44	5618
2026-01-30 12:58:49.10	57.78	21.19	-35.0	-35.9	24.3	0.00e+00	0	41	0	853540864	44	5483
2026-01-30 12:58:50.11	58.01	21.26	-34.8	-35.8	24.4	0.00e+00	0	41	0	856686592	44	5408
2026-01-30 12:58:51.12	58.24	21.32	-34.8	-35.7	24.5	0.00e+00	0	41	0	859832320	42	6020
2026-01-30 12:58:52.13	58.48	21.39	-34.6	-35.5	24.7	0.00e+00	0	41	0	862978048	42	5865
2026-01-30 12:58:53.14	58.71	21.45	-34.5	-35.3	24.7	0.00e+00	0	41	0	866123776	42	5776
2026-01-30 12:58:54.15	58.94	21.52	-34.6	-35.5	24.6	0.00e+00	0	41	0	869269504	42	5894
2026-01-30 12:58:55.16	59.18	21.58	-34.7	-35.6	24.6	0.00e+00	0	41	0	872415232	42	5947
2026-01-30 12:58:56.17	59.42	21.64	-34.8	-35.7	24.5	0.00e+00	0	41	0	875560960	42	6026
2026-01-30 12:58:57.18	59.65	21.71	-34.8	-35.8	24.5	0.00e+00	0	41	0	878706688	42	6080
2026-01-30 12:58:58.19	59.89	21.77	-34.8	-35.7	24.7	0.00e+00	0	41	0	881852416	42	6032
2026-01-30 12:58:59.20	60.13	21.83	-34.8	-35.7	24.6	0.00e+00	0	41	0	884998144	42	6049
2026-01-30 12:59:00.21	60.37	21.89	-34.7	-35.6	24.7	0.00e+00	0	41	0	888143872	42	5957
2026-01-30 12:59:01.22	60.61	21.95	-34.7	-35.6	24.8	0.00e+00	0	41	0	891289600	42	5976
2026-01-30 12:59:02.23	60.86	22.02	-35.0	-35.9	24.6	0.00e+00	0	41	0	894435328	42	6139
2026-01-30 12:59:03.23	61.10	22.08	-34.7	-35.6	24.7	0.00e+00	0	41	0	897581056	42	5927
2026-01-30 12:59:04.24	61.34	22.14	-34.9	-35.8	24.6	0.00e+00	0	41	0	900726784	42	6072
2026-01-30 12:59:05.25	61.59	22.20	-34.9	-35.8	24.5	0.00e+00	0	41	0	903872512	42	6099
2026-01-30 12:59:06.26	61.83	22.26	-34.9	-35.8	24.6	0.00e+00	0	41	0	907018240	42	6118
2026-01-30 12:59:07.27	62.08	22.31	-34.7	-35.6	24.8	0.00e+00	0	41	0	910163968	42	5950
2026-01-30 12:59:08.28	62.33	22.37	-34.8	-35.7	24.7	0.00e+00	0	41	0	913309696	42	6031
2026-01-30 12:59:09.29	62.58	22.43	-34.6	-35.5	24.8	0.00e+00	0	41	0	916455424	42	5909
2026-01-30 12:59:10.30	62.83	22.49	-34.7	-35.6	24.8	0.00e+00	0	41	0	919601152	42	5951
2026-01-30 12:59:11.31	63.08	22.55	-34.6	-35.5	24.8	0.00e+00	0	41	0	922746880	42	5894
2026-01-30 12:59:12.32	63.33	22.60	-34.4	-35.3	24.9	0.00e+00	0	41	0	925892608	42	5729
2026-01-30 12:59:13.33	63.58	22.66	-34.6	-35.4	24.8	0.00e+00	0	41	0	929038336	42	5840
2026-01-30 12:59:14.34	63.83	22.72	-34.5	-35.4	24.8	0.00e+00	0	41	0	932184064	42	5811
2026-01-30 12:59:15.34	64.09	22.77	-34.6	-35.5	24.8	0.00e+00	0	41	0	935329792	42	5860
2026-01-30 12:59:16.35	64.34	22.83	-34.6	-35.4	24.9	0.00e+00	0	41	0	938475520	42	5854
2026-01-30 12:59:17.36	64.60	22.88	-34.7	-35.5	24.8	0.00e+00	0	41	0	941621248	42	5910
2026-01-30 12:59:18.37	64.86	22.94	-34.6	-35.5	24.8	0.00e+00	0	41	0	944766976	42	5895
2026-01-30 12:59:19.39	65.12	22.99	-34.6	-35.5	24.8	0.00e+00	0	41	0	947912704	42	5862
2026-01-30 12:59:20.39	65.37	23.04	-34.6	-35.4	24.9	0.00e+00	0	41	0	951058432	42	5842
2026-01-30 12:59:21.40	65.63	23.10	-34.5	-35.4	24.8	0.00e+00	0	41	0	954204160	42	5802
2026-01-30 12:59:22.42	65.89	23.15	-34.6	-35.5	24.8	0.00e+00	0	41	0	957349888	42	5887
2026-01-30 12:59:23.42	66.15	23.20	-34.6	-35.5	24.8	0.00e+00	0	41	0	960495616	42	5888
2026-01-30 12:59:24.44	66.42	23.25	-34.7	-35.6	24.6	0.00e+00	0	41	0	963641344	42	5968
2026-01-30 12:59:25.45	66.68	23.30	-34.8	-35.7	24.6	0.00e+00	0	41	0	966787072	42	6027
2026-01-30 12:59:26.46	66.94	23.35	-34.9	-35.8	24.6	0.00e+00	0	41	0	969932800	42	6122
2026-01-30 12:59:27.47	67.21	23.40	-34.9	-35.8	24.6	0.00e+00	0	41	0	973078528	42	6111
2026-01-30 12:59:28.48	67.47	23.45	-34.9	-35.7	24.7	0.00e+00	0	41	0	976224256	42	6051
2026-01-30 12:59:29.49	67.74	23.50	-34.8	-35.7	24.8	0.00e+00	0	41	0	979369984	42	5999
2026-01-30 12:59:30.50	68.01	23.55	-34.9	-35.8	24.6	0.00e+00	0	41	0	982515712	42	6068
2026-01-30 12:59:31.51	68.28	23.60	-34.8	-35.7	24.6	0.00e+00	0	41	0	985661440	42	6043
2026-01-30 12:59:32.52	68.55	23.65	-34.7	-35.6	24.6	0.00e+00	0	41	0	988807168	42	5985
2026-01-30 12:59:33.53	68.81	23.69	-34.8	-35.7	24.5	0.00e+00	0	41	0	991952896	42	6038
2026-01-30 12:59:34.54	69.09	23.74	-34.8	-35.7	24.6	0.00e+00	0	41	0	995098624	42	6044
2026-01-30 12:59:35.55	69.36	23.78	-34.9	-35.8	24.5	0.00e+00	0	41	0	998244352	42	6132
2026-01-30 12:59:36.56	69.63	23.83	-34.7	-35.6	24.7	0.00e+00	0	41	0	1001390080	42	5958
2026-01-30 12:59:37.57	69.90	23.87	-34.7	-35.5	24.8	0.00e+00	0	41	0	1004535808	42	5915
2026-01-30 12:59:38.58	70.17	23.92	-34.7	-35.6	24.7	0.00e+00	0	41	0	1007681536	42	5927
2026-01-30 12:59:39.59	70.45	23.96	-34.6	-35.4	24.7	0.00e+00	0	41	0	1010827264	42	5855
2026-01-30 12:59:40.60	70.72	24.00	-34.7	-35.5	24.6	0.00e+00	0	41	0	1013972992	42	5920
2026-01-30 12:59:41.61	71.00	24.05	-34.7	-35.6	24.7	0.00e+00	0	41	0	1017118720	42	5944
2026-01-30 12:59:42.62	71.28	24.09	-34.7	-35.5	24.7	0.00e+00	0	41	0	1020264448	42	5912
2026-01-30 12:59:43.63	71.55	24.13	-34.6	-35.4	24.8	0.00e+00	0	41	0	1023410176	42	5851
2026-01-30 12:59:44.64	71.83	24.17	-34.6	-35.4	24.8	0.00e+00	0	41	0	1026555904	42	5856
2026-01-30 12:59:45.65	72.11	24.21	-34.7	-35.5	24.8	0.00e+00	0	41	0	1029701632	42	5919
2026-01-30 12:59:46.66	72.39	24.25	-34.7	-35.5	24.7	0.00e+00	0	41	0	1032847360	42	5925
2026-01-30 12:59:47.67	72.67	24.28	-34.6	-35.5	24.7	0.00e+00	0	41	0	1035993088	42	5883
2026-01-30 12:59:48.67	72.95	24.32	-34.5	-35.4	24.7	0.00e+00	0	41	0	1039138816	42	5843
2026-01-30 12:59:49.68	73.23	24.36	-34.5	-35.4	24.7	0.00e+00	0	41	0	1042284544	42	5849
2026-01-30 12:59:50.69	73.51	24.39	-34.5	-35.4	24.8	0.00e+00	0	41	0	1045430272	42	5844
2026-01-30 12:59:51.70	73.79	24.43	-34.5	-35.4	24.8	0.00e+00	0	41	0	1048576000	42	5848
2026-01-30 12:59:52.72	74.08	24.47	-34.4	-35.3	25.0	0.00e+00	0	41	0	1051721728	42	5735
2026-01-30 12:59:53.73	74.36	24.50	-34.3	-35.1	25.1	0.00e+00	0	41	0	1054867456	42	5648
2026-01-30 12:59:54.74	74.65	24.53	-34.3	-35.2	24.9	0.00e+00	0	41	0	1058013184	42	5685
2026-01-30 12:59:55.75	74.93	24.57	-34.5	-35.4	24.9	0.00e+00	0	41	0	1061158912	42	5823
2026-01-30 12:59:56.76	75.22	24.60	-34.4	-35.3	24.9	0.00e+00	0	41	0	1064304640	42	5756
2026-01-30 12:59:57.76	75.50	24.63	-34.5	-35.3	24.8	0.00e+00	0	41	0	1067450368	42	5788
2026-01-30 12:59:58.77	75.79	24.66	-34.3	-35.2	25.1	0.00e+00	0	41	0	1070596096	42	5668
2026-01-30 12:59:59.78	76.07	24.69	-34.4	-35.2	25.0	0.00e+00	0	41	0	1074790400	42	5712
2026-01-30 13:00:00.79	76.36	24.72	-34.3	-35.2	25.0	0.00e+00	0	41	0	1076887552	42	5661
2026-01-30 13:00:01.80	76.65	24.75	-34.2	-35.1	25.0	0.00e+00	0	41	0	1080033280	42	5607
2026-01-30 13:00:02.81	76.94	24.78	-34.4	-35.2	24.9	0.00e+00	0	41	0	1083179008	42	5704
2026-01-30 13:00:03.82	77.23	24.80	-34.2	-35.1	25.0	0.00e+00	0	41	0	1086324736	42	5623
2026-01-30 13:00:04.83	77.52	24.83	-34.3	-35.2	25.0	0.00e+00	0	41	0	1089470464	42	5677
2026-01-30 13:00:05.84	77.81	24.86	-34.3	-35.2	25.1	0.00e+00	0	41	0	1093664768	42	5669
2026-01-30 13:00:06.85	78.10	24.88	-34.2	-35.0	25.2	0.00e+00	0	41	0	1096810496	42	5590
2026-01-30 13:00:07.86	78.39	24.91	-34.1	-35.0	25.1	0.00e+00	0	41	0	1098907648	42	5544
2026-01-30 13:00:08.87	78.68	24.93	-34.2	-35.1	24.9	0.00e+00	0	41	0	1102053376	42	5624
2026-01-30 13:00:09.88	78.97	24.95	-34.1	-35.0	24.9	0.00e+00	0	41	0	1105199104	42	5572
2026-01-30 13:00:10.89	79.27	24.97	-34.1	-35.0	25.1	0.00e+00	0	41	0	1109393408	42	5566
2026-01-30 13:00:11.90	79.56	24.99	-34.1	-35.0	25.0	0.00e+00	0	41	0	1112539136	42	5570
2026-01-30 13:00:12.91	79.85	25.02	-34.2	-35.0	24.9	0.00e+00	0	41	0	1115684864	42	5588
2026-01-30 13:00:13.92	80.15	25.03	-34.1	-35.0	25.1	0.00e+00	0	41	0	1118830592	42	5556
2026-01-30 13:00:14.92	80.44	25.05	-34.1	-34.9	25.2	0.00e+00	0	41	0	1121976320	42	5521
2026-01-30 13:00:15.94	80.73	25.07	-34.0	-34.8	25.1	0.00e+00	0	41	0	1125122048	42	5450
2026-01-30 13:00:16.95	81.03	25.09	-34.1	-35.0	25.0	0.00e+00	0	41	0	1128267776	42	5570
2026-01-30 13:00:17.95	81.32	25.11	-34.2	-35.1	24.8	0.00e+00	0	41	0	1131413504	42	5624
2026-01-30 13:00:18.96	81.62	25.12	-34.3	-35.2	24.9	0.00e+00	0	41	0	1134559232	42	5683
2026-01-30 13:00:19.97	81.91	25.14	-34.4	-35.3	24.8	0.00e+00	0	41	0	1137704960	42	5778
2026-01-30 13:00:20.98	82.21	25.15	-34.4	-35.3	24.9	0.00e+00	0	41	0	1140850688	42	5760
2026-01-30 13:00:21.99	82.50	25.17	-34.3	-35.2	24.9	0.00e+00	0	41	0	1143996416	42	5676
2026-01-30 13:00:23.00	82.80	25.18	-34.3	-35.2	24.8	0.00e+00	0	41	0	1147142144	42	5664
2026-01-30 13:00:24.01	83.10	25.19	-34.5	-35.4	24.6	0.00e+00	0	41	0	1150287872	42	5827
2026-01-30 13:00:25.02	83.39	25.20	-34.4	-35.3	24.8	0.00e+00	0	41	0	1153433600	42	5736
2026-01-30 13:00:26.03	83.69	25.21	-34.4	-35.3	24.9	0.00e+00	0	41	0	1156579328	42	5729
2026-01-30 13:00:27.04	83.99	25.22	-34.1	-35.0	25.1	0.00e+00	0	41	0	1159725056	42	5563
2026-01-30 13:00:28.04	84.28	25.23	-34.1	-34.9	25.0	0.00e+00	0	41	0	1162870784	42	5523
2026-01-30 13:00:29.06	84.58	25.24	-34.0	-34.9	25.2	0.00e+00	0	41	0	1166016512	42	5472
2026-01-30 13:00:30.07	84.88	25.25	-34.0	-34.9	25.1	0.00e+00	0	41	0	1169162240	42	5476
2026-01-30 13:00:31.08	85.18	25.25	-33.9	-34.8	25.2	0.00e+00	0	41	0	1172307968	42	5418
2026-01-30 13:00:32.09	85.48	25.26	-34.1	-34.9	25.1	0.00e+00	0	41	0	1175453696	42	5521
2026-01-30 13:00:33.10	85.77	25.26	-34.1	-35.0	25.1	0.00e+00	0	41	0	1178599424	42	5549
2026-01-30 13:00:34.11	86.07	25.27	-34.2	-35.1	25.0	0.00e+00	0	41	0	1181745152	42	5608
2026-01-30 13:00:35.12	86.37	25.27	-34.1	-35.0	25.1	0.00e+00	0	41	0	1184890880	42	5547
2026-01-30 13:00:36.13	86.67	25.27	-34.2	-35.1	24.9	0.00e+00	0	41	0	1188036608	42	5597
2026-01-30 13:00:37.14	86.97	25.27	-34.2	-35.1	24.9	0.00e+00	0	41	0	1191182336	42	5602
2026-01-30 13:00:38.15	87.27	25.27	-34.3	-35.2	24.9	0.00e+00	0	41	0	1194328064	42	5676
2026-01-30 13:00:39.16	87.56	25.27	-34.0	-34.9	25.2	0.00e+00	0	41	0	1197473792	42	5500
2026-01-30 13:00:40.17	87.86	25.27	-34.0	-34.8	25.1	0.00e+00	0	41	0	1200619520	42	5465
2026-01-30 13:00:41.18	88.16	25.27	-34.0	-34.8	25.1	0.00e+00	0	41	0	1203765248	42	5462
2026-01-30 13:00:42.19	88.46	25.27	-34.0	-34.9	25.1	0.00e+00	0	41	0	1206910976	42	5472
2026-01-30 13:00:43.20	88.76	25.27	-34.1	-35.0	25.1	0.00e+00	0	41	0	1210056704	42	5550
2026-01-30 13:00:44.21	89.06	25.26	-34.1	-34.9	25.2	0.00e+00	0	41	0	1213202432	42	5522
2026-01-30 13:00:45.22	89.35	25.26	-34.1	-34.9	25.1	0.00e+00	0	41	0	1216348160	42	5529
2026-01-30 13:00:46.23	89.65	25.25	-34.0	-34.9	25.2	0.00e+00	0	41	0	1219493888	42	5488
2026-01-30 13:00:47.24	89.95	25.24	-34.1	-35.0	25.1	0.00e+00	0	41	0	1222639616	42	5543
2026-01-30 13:00:48.25	90.25	25.24	-34.1	-34.9	25.2	0.00e+00	0	41	0	1225785344	42	5522
2026-01-30 13:00:49.26	90.55	25.23	-34.0	-34.9	25.1	0.00e+00	0	41	0	1228931072	42	5479
2026-01-30 13:00:50.27	90.84	25.22	-34.0	-34.9	25.1	0.00e+00	0	41	0	1232076800	42	5495
2026-01-30 13:00:51.28	91.14	25.21	-34.0	-34.9	25.2	0.00e+00	0	41	0	1235222528	42	5490
2026-01-30 13:00:52.29	91.44	25.20	-34.2	-35.1	25.1	0.00e+00	0	41	0	1238368256	42	5604
2026-01-30 13:00:53.30	91.74	25.19	-34.0	-34.9	25.2	0.00e+00	0	41	0	1241513984	42	5500
2026-01-30 13:00:54.31	92.03	25.18	-34.2	-35.0	25.2	0.00e+00	0	41	0	1244659712	42	5590
2026-01-30 13:00:55.32	92.33	25.16	-34.2	-35.0	25.2	0.00e+00	0	41	0	1247805440	42	5579
2026-01-30 13:00:56.33	92.63	25.15	-34.3	-35.1	25.0	0.00e+00	0	41	0	1250951168	42	5659
2026-01-30 13:00:57.34	92.92	25.14	-34.3	-35.1	24.9	0.00e+00	0	41	0	1254096896	42	5646
2026-01-30 13:00:58.35	93.22	25.12	-34.3	-35.2	24.9	0.00e+00	0	41	0	1257242624	42	5673
2026-01-30 13:00:59.36	93.51	25.11	-34.3	-35.2	24.9	0.00e+00	0	41	0	1260388352	42	5704
2026-01-30 13:01:00.37	93.81	25.09	-34.2	-35.1	25.1	0.00e+00	0	41	0	1263534080	42	5602
2026-01-30 13:01:01.39	94.11	25.07	-34.1	-35.0	25.1	0.00e+00	0	41	0	1266679808	42	5540
2026-01-30 13:01:02.39	94.40	25.05	-34.0	-34.9	25.2	0.00e+00	0	41	0	1269825536	42	5471
2026-01-30 13:01:03.40	94.69	25.03	-34.1	-35.0	25.1	0.00e+00	0	41	0	1272971264	42	5532
2026-01-30 13:01:04.42	94.99	25.01	-34.0	-34.9	25.1	0.00e+00	0	41	0	1276116992	42	5490
2026-01-30 13:01:05.42	95.28	24.99	-34.1	-34.9	25.0	0.00e+00	0	41	0	1279262720	42	5506
2026-01-30 13:01:06.43	95.57	24.97	-34.0	-34.9	25.2	0.00e+00	0	41	0	1282408448	42	5495
2026-01-30 13:01:07.44	95.87	24.95	-34.1	-34.9	25.1	0.00e+00	0	41	0	1285554176	42	5522
2026-01-30 13:01:08.45	96.16	24.93	-34.2	-35.1	25.1	0.00e+00	0	41	0	1288699904	42	5610
2026-01-30 13:01:09.47	96.45	24.90	-34.2	-35.0	25.0	0.00e+00	0	41	0	1291845632	42	5572
2026-01-30 13:01:10.48	96.75	24.88	-34.2	-35.0	25.0	0.00e+00	0	41	0	1294991360	42	5576
2026-01-30 13:01:11.49	97.04	24.85	-34.1	-35.0	25.0	0.00e+00	0	41	0	1298137088	42	5566
2026-01-30 13:01:12.50	97.33	24.83	-34.1	-34.9	25.0	0.00e+00	0	41	0	1301282816	42	5519
2026-01-30 13:01:13.51	97.62	24.80	-34.2	-35.1	25.0	0.00e+00	0	41	0	1304428544	42	5613
2026-01-30 13:01:14.52	97.91	24.77	-34.2	-35.1	25.1	0.00e+00	0	41	0	1307574272	42	5614
2026-01-30 13:01:15.53	98.20	24.75	-34.1	-34.9	25.1	0.00e+00	0	41	0	1310720000	42	5529
2026-01-30 13:01:16.54	98.49	24.72	-34.2	-35.0	25.0	0.00e+00	0	41	0	1313865728	42	5593
2026-01-30 13:01:17.55	98.77	24.69	-34.1	-35.0	25.1	0.00e+00	0	41	0	1317011456	42	5557
2026-01-30 13:01:18.56	99.06	24.66	-34.3	-35.1	25.1	0.00e+00	0	41	0	1320157184	42	5640
2026-01-30 13:01:19.57	99.35	24.63	-34.4	-35.2	24.9	0.00e+00	0	41	0	1323302912	42	5717
2026-01-30 13:01:20.58	99.64	24.59	-34.3	-35.2	24.9	0.00e+00	0	41	0	1326448640	42	5721
2026-01-30 13:01:21.59	99.92	24.56	-34.3	-35.2	24.9	0.00e+00	0	41	0	1329594368	42	5714
2026-01-30 13:01:22.60	100.21	24.53	-34.3	-35.1	25.0	0.00e+00	0	41	0	1332740096	42	5655
2026-01-30 13:01:23.61	100.49	24.50	-34.3	-35.1	25.1	0.00e+00	0	41	0	1335885824	42	5650
2026-01-30 13:01:24.62	100.78	24.46	-34.2	-35.1	25.0	0.00e+00	0	41	0	1339031552	42	5626
2026-01-30 13:01:25.63	101.06	24.43	-34.2	-35.1	25.1	0.00e+00	0	41	0	1342177280	42	5628
2026-01-30 13:01:26.64	101.34	24.39	-34.3	-35.2	25.1	0.00e+00	0	41	0	1345323008	42	5660
2026-01-30 13:01:27.65	101.63	24.35	-34.2	-35.0	25.2	0.00e+00	0	41	0	1348468736	42	5582
2026-01-30 13:01:28.66	101.91	24.32	-34.3	-35.2	25.0	0.00e+00	0	41	0	1351614464	42	5661
2026-01-30 13:01:29.67	102.19	24.28	-34.2	-35.1	25.1	0.00e+00	0	41	0	1354760192	42	5636
2026-01-30 13:01:30.68	102.47	24.24	-34.4	-35.3	25.0	0.00e+00	0	41	0	1357905920	42	5773
2026-01-30 13:01:31.69	102.75	24.20	-34.5	-35.4	24.9	0.00e+00	0	41	0	1361051648	42	5851
2026-01-30 13:01:32.70	103.03	24.16	-34.5	-35.4	24.9	0.00e+00	0	41	0	1364197376	42	5794
2026-01-30 13:01:33.71	103.31	24.12	-34.6	-35.5	24.8	0.00e+00	0	41	0	1367343104	42	5875
2026-01-30 13:01:34.72	103.58	24.08	-34.5	-35.4	24.8	0.00e+00	0	41	0	1370488832	42	5811
2026-01-30 13:01:35.73	103.86	24.04	-34.5	-35.3	25.0	0.00e+00	0	41	0	1373634560	42	5779
2026-01-30 13:01:36.74	104.14	24.00	-34.4	-35.2	25.1	0.00e+00	0	41	0	1376780288	42	5718
2026-01-30 13:01:37.75	104.41	23.95	-34.4	-35.2	25.1	0.00e+00	0	41	0	1379926016	42	5720
2026-01-30 13:01:38.76	104.69	23.91	-34.5	-35.4	24.9	0.00e+00	0	41	0	1383071744	42	5807
2026-01-30 13:01:39.77	104.96	23.87	-34.5	-35.4	25.0	0.00e+00	0	41	0	1386217472	42	5800
2026-01-30 13:01:40.78	105.24	23.82	-34.4	-35.3	25.0	0.00e+00	0	41	0	1390411776	42	5753
2026-01-30 13:01:41.79	105.51	23.78	-34.3	-35.2	25.0	0.00e+00	0	41	0	1392508928	42	5707
2026-01-30 13:01:42.80	105.78	23.73	-34.4	-35.3	24.9	0.00e+00	0	41	0	1395654656	42	5759
2026-01-30 13:01:43.81	106.05	23.68	-34.5	-35.4	24.8	0.00e+00	0	41	0	1398800384	42	5822
2026-01-30 13:01:44.82	106.32	23.64	-34.5	-35.4	24.8	0.00e+00	0	41	0	1401946112	42	5810
2026-01-30 13:01:45.83	106.59	23.59	-34.4	-35.3	24.9	0.00e+00	0	41	0	1406140416	42	5763
2026-01-30 13:01:46.85	106.86	23.54	-34.5	-35.4	25.0	0.00e+00	0	41	0	1409286144	42	5794
2026-01-30 13:01:47.86	107.13	23.49	-34.6	-35.5	24.9	0.00e+00	0	41	0	1412431872	42	5876
2026-01-30 13:01:48.87	107.40	23.44	-34.6	-35.5	24.9	0.00e+00	0	41	0	1414529024	42	5882
2026-01-30 13:01:49.88	107.66	23.39	-34.6	-35.5	24.8	0.00e+00	0	41	0	1417674752	42	5895
2026-01-30 13:01:50.88	107.93	23.34	-34.8	-35.7	24.6	0.00e+00	0	41	0	1421869056	42	6012
2026-01-30 13:01:51.90	108.19	23.29	-34.9	-35.8	24.5	0.00e+00	0	41	0	1425014784	42	6093
2026-01-30 13:01:52.90	108.45	23.24	-34.8	-35.7	24.6	0.00e+00	0	41	0	1428160512	42	6024
2026-01-30 13:01:53.91	108.72	23.19	-34.8	-35.7	24.5	0.00e+00	0	41	0	1431306240	42	6045
2026-01-30 13:01:54.92	108.98	23.14	-34.8	-35.6	24.6	0.00e+00	0	41	0	1434451968	42	5992
2026-01-30 13:01:55.93	109.24	23.09	-34.5	-35.4	24.7	0.00e+00	0	41	0	1437597696	42	5815
2026-01-30 13:01:56.94	109.50	23.03	-34.4	-35.3	24.8	0.00e+00	0	41	0	1440743424	42	5772
2026-01-30 13:01:57.95	109.76	22.98	-34.5	-35.4	24.7	0.00e+00	0	41	0	1443889152	42	5828
2026-01-30 13:01:58.96	110.02	22.92	-34.6	-35.4	24.7	0.00e+00	0	41	0	1447034880	42	5858
2026-01-30 13:01:59.97	110.28	22.87	-34.6	-35.5	24.7	0.00e+00	0	41	0	1450180608	42	5864
2026-01-30 13:02:00.98	110.53	22.81	-34.5	-35.3	24.8	0.00e+00	0	41	0	1453326336	42	5790
2026-01-30 13:02:01.99	110.79	22.76	-34.5	-35.3	24.7	0.00e+00	0	41	0	1456472064	42	5788
2026-01-30 13:02:03.00	111.05	22.70	-34.3	-35.2	24.9	0.00e+00	0	41	0	1459617792	42	5676
2026-01-30 13:02:04.01	111.30	22.65	-34.4	-35.3	24.7	0.00e+00	0	41	0	1462763520	42	5748
2026-01-30 13:02:05.02	111.55	22.59	-34.3	-35.2	24.8	0.00e+00	0	41	0	1465909248	42	5702
2026-01-30 13:02:06.03	111.81	22.53	-34.3	-35.2	24.8	0.00e+00	0	41	0	1469054976	42	5700
2026-01-30 13:02:07.04	112.06	22.47	-34.4	-35.2	24.8	0.00e+00	0	41	0	1472200704	42	5717
2026-01-30 13:02:08.05	112.31	22.41	-34.4	-35.3	24.8	0.00e+00	0	41	0	1475346432	42	5761
2026-01-30 13:02:09.06	112.56	22.36	-34.5	-35.4	24.7	0.00e+00	0	41	0	1478492160	42	5840
2026-01-30 13:02:10.07	112.81	22.30	-34.5	-35.4	24.8	0.00e+00	0	41	0	1481637888	42	5844
2026-01-30 13:02:11.08	113.05	22.24	-34.6	-35.5	24.8	0.00e+00	0	41	0	1484783616	42	5869
2026-01-30 13:02:12.09	113.30	22.18	-34.7	-35.6	24.5	0.00e+00	0	41	0	1487929344	42	5990
2026-01-30 13:02:13.10	113.55	22.12	-34.7	-35.6	24.6	0.00e+00	0	41	0	1491075072	42	5969
2026-01-30 13:02:14.11	113.79	22.06	-34.8	-35.7	24.6	0.00e+00	0	41	0	1494220800	42	6015
2026-01-30 13:02:15.12	114.04	22.00	-34.7	-35.6	24.6	0.00e+00	0	41	0	1497366528	42	5979
2026-01-30 13:02:16.13	114.28	21.93	-34.6	-35.5	24.6	0.00e+00	0	41	0	1500512256	42	5895
2026-01-30 13:02:17.14	114.52	21.87	-34.5	-35.4	24.6	0.00e+00	0	41	0	1503657984	42	5854
2026-01-30 13:02:18.15	114.76	21.81	-34.4	-35.3	24.7	0.00e+00	0	41	0	1506803712	42	5763
2026-01-30 13:02:19.16	115.00	21.75	-34.3	-35.2	24.9	0.00e+00	0	41	0	1509949440	42	5670
2026-01-30 13:02:20.17	115.24	21.68	-34.3	-35.2	24.9	0.00e+00	0	41	0	1513095168	42	5692
2026-01-30 13:02:21.18	115.48	21.62	-34.4	-35.3	24.9	0.00e+00	0	41	0	1516240896	42	5735
2026-01-30 13:02:22.19	115.72	21.56	-34.5	-35.3	24.9	0.00e+00	0	41	0	1519386624	42	5770
2026-01-30 13:02:23.20	115.95	21.49	-34.5	-35.3	24.8	0.00e+00	0	41	0	1522532352	42	5788
2026-01-30 13:02:24.21	116.19	21.43	-34.6	-35.5	24.7	0.00e+00	0	41	0	1525678080	42	5894
2026-01-30 13:02:25.22	116.43	21.36	-34.7	-35.6	24.7	0.00e+00	0	41	0	1528823808	42	5969
2026-01-30 13:02:26.23	116.66	21.30	-34.7	-35.6	24.6	0.00e+00	0	41	0	1531969536	42	5971
2026-01-30 13:02:27.24	116.89	21.23	-34.7	-35.6	24.5	0.00e+00	0	41	0	1535115264	42	5982
2026-01-30 13:02:28.24	117.12	21.17	-34.7	-35.6	24.5	0.00e+00	0	41	0	1538260992	42	5978
2026-01-30 13:02:29.25	117.35	21.10	-34.8	-35.7	24.4	0.00e+00	0	41	0	1541406720	42	6048
2026-01-30 13:02:30.26	117.58	21.04	-34.6	-35.5	24.6	0.00e+00	0	41	0	1544552448	42	5923
2026-01-30 13:02:31.28	117.81	20.97	-34.4	-35.3	24.7	0.00e+00	0	41	0	1547698176	42	5742
2026-01-30 13:02:32.28	118.04	20.90	-34.4	-35.3	24.6	0.00e+00	0	41	0	1550843904	42	5746
2026-01-30 13:02:33.29	118.27	20.84	-34.3	-35.2	24.7	0.00e+00	0	41	0	1553989632	42	5694
2026-01-30 13:02:34.31	118.49	20.77	-34.3	-35.2	24.6	0.00e+00	0	41	0	1557135360	42	5670
2026-01-30 13:02:35.32	118.72	20.70	-34.4	-35.2	24.6	0.00e+00	0	41	0	1560281088	42	5716
2026-01-30 13:02:36.33	118.94	20.64	-34.4	-35.3	24.7	0.00e+00	0	41	0	1563426816	42	5774
2026-01-30 13:02:37.34	119.17	20.57	-34.4	-35.3	24.8	0.00e+00	0	41	0	1566572544	42	5770
2026-01-30 13:02:38.35	119.39	20.50	-34.7	-35.5	24.7	0.00e+00	0	41	0	1569718272	42	5923
2026-01-30 13:02:39.36	119.61	20.43	-34.5	-35.4	24.8	0.00e+00	0	41	0	1572864000	42	5813
2026-01-30 13:02:40.37	119.83	20.36	-34.5	-35.4	24.8	0.00e+00	0	41	0	1576009728	42	5842
2026-01-30 13:02:41.38	120.05	20.29	-34.6	-35.5	24.8	0.00e+00	0	41	0	1579155456	42	5861
2026-01-30 13:02:42.39	120.27	20.22	-34.7	-35.6	24.7	0.00e+00	0	41	0	1582301184	42	5977
2026-01-30 13:02:43.40	120.49	20.15	-34.8	-35.7	24.6	0.00e+00	0	41	0	1585446912	42	6033
2026-01-30 13:02:44.41	120.70	20.09	-34.8	-35.7	24.6	0.00e+00	0	41	0	1588592640	42	6015
2026-01-30 13:02:45.42	120.92	20.02	-34.7	-35.6	24.6	0.00e+00	0	41	0	1591738368	42	5973
2026-01-30 13:02:46.43	121.13	19.95	-34.5	-35.4	24.8	0.00e+00	0	41	0	1594884096	42	5820
2026-01-30 13:02:47.44	121.35	19.88	-34.6	-35.5	24.7	0.00e+00	0	41	0	1598029824	42	5901
2026-01-30 13:02:48.45	121.56	19.80	-34.5	-35.4	24.8	0.00e+00	0	41	0	1601175552	42	5857
2026-01-30 13:02:49.46	121.77	19.73	-34.7	-35.6	24.7	0.00e+00	0	41	0	1604321280	42	5946
2026-01-30 13:02:50.47	121.98	19.66	-34.7	-35.6	24.7	0.00e+00	0	41	0	1607467008	42	5948
2026-01-30 13:02:51.48	122.19	19.59	-34.7	-35.5	24.8	0.00e+00	0	41	0	1610612736	42	5915
2026-01-30 13:02:52.49	122.40	19.52	-34.7	-35.6	24.8	0.00e+00	0	41	0	1613758464	42	5945
2026-01-30 13:02:53.50	122.61	19.45	-34.7	-35.6	24.7	0.00e+00	0	41	0	1616904192	42	5936
2026-01-30 13:02:54.51	122.82	19.38	-34.5	-35.4	24.8	0.00e+00	0	41	0	1620049920	42	5843
2026-01-30 13:02:55.52	123.02	19.31	-34.7	-35.6	24.7	0.00e+00	0	41	0	1623195648	42	5946
2026-01-30 13:02:56.53	123.23	19.24	-34.6	-35.4	24.8	0.00e+00	0	41	0	1626341376	42	5849
2026-01-30 13:02:57.53	123.43	19.16	-34.7	-35.6	24.7	0.00e+00	0	41	0	1629487104	42	5929
2026-01-30 13:02:58.55	123.63	19.09	-34.7	-35.6	24.7	0.00e+00	0	41	0	1632632832	42	5975
2026-01-30 13:02:59.56	123.84	19.02	-34.8	-35.7	24.7	0.00e+00	0	41	0	1635778560	42	6007
2026-01-30 13:03:00.57	124.04	18.95	-34.8	-35.7	24.6	0.00e+00	0	41	0	1638924288	42	6035
2026-01-30 13:03:01.57	124.24	18.88	-34.8	-35.7	24.7	0.00e+00	0	41	0	1642070016	42	6000
2026-01-30 13:03:02.58	124.44	18.80	-34.9	-35.8	24.6	0.00e+00	0	41	0	1645215744	42	6096
2026-01-30 13:03:03.59	124.63	18.73	-34.9	-35.8	24.5	0.00e+00	0	41	0	1648361472	42	6104
2026-01-30 13:03:04.60	124.83	18.66	-34.8	-35.7	24.6	0.00e+00	0	41	0	1651507200	42	6049
2026-01-30 13:03:05.61	125.03	18.59	-34.7	-35.5	24.7	0.00e+00	0	41	0	1654652928	42	5913
2026-01-30 13:03:06.62	125.22	18.51	-34.7	-35.6	24.6	0.00e+00	0	41	0	1657798656	42	5947
2026-01-30 13:03:07.63	125.42	18.44	-34.9	-35.7	24.5	0.00e+00	0	41	0	1660944384	42	6058
2026-01-30 13:03:08.63	125.61	18.37	-34.7	-35.6	24.5	0.00e+00	0	41	0	1664090112	42	5980
2026-01-30 13:03:09.65	125.81	18.29	-34.8	-35.7	24.5	0.00e+00	0	41	0	1667235840	42	6038
2026-01-30 13:03:10.66	126.00	18.22	-34.9	-35.8	24.5	0.00e+00	0	41	0	1670381568	42	6099
2026-01-30 13:03:11.67	126.19	18.15	-34.7	-35.6	24.6	0.00e+00	0	41	0	1673527296	42	5966
2026-01-30 13:03:12.68	126.38	18.07	-34.8	-35.7	24.5	0.00e+00	0	41	0	1676673024	42	6052
2026-01-30 13:03:13.69	126.57	18.00	-34.9	-35.8	24.4	0.00e+00	0	41	0	1679818752	42	6070
2026-01-30 13:03:14.70	126.76	17.93	-34.8	-35.6	24.5	0.00e+00	0	41	0	1682964480	42	5989
2026-01-30 13:03:15.71	126.95	17.85	-34.9	-35.8	24.5	0.00e+00	0	41	0	1686110208	42	6074
2026-01-30 13:03:16.72	127.13	17.78	-34.9	-35.8	24.5	0.00e+00	0	41	0	1689255936	42	6088
2026-01-30 13:03:17.73	127.32	17.70	-35.0	-35.9	24.4	0.00e+00	0	41	0	1692401664	42	6155
2026-01-30 13:03:18.74	127.51	17.63	-34.9	-35.8	24.4	0.00e+00	0	41	0	1695547392	42	6087
2026-01-30 13:03:19.75	127.69	17.56	-34.9	-35.8	24.4	0.00e+00	0	41	0	1698693120	42	6073
2026-01-30 13:03:20.76	127.87	17.48	-35.0	-35.9	24.3	0.00e+00	0	41	0	1701838848	42	6151
2026-01-30 13:03:21.77	128.06	17.41	-35.0	-36.0	24.2	0.00e+00	0	41	0	1704984576	42	6209
2026-01-30 13:03:22.78	128.24	17.33	-35.1	-36.0	24.1	0.00e+00	0	41	0	1708130304	42	6217
2026-01-30 13:03:23.79	128.42	17.26	-35.1	-36.0	24.1	0.00e+00	0	41	0	1711276032	42	6259
2026-01-30 13:03:24.80	128.60	17.18	-35.3	-36.3	23.9	0.00e+00	0	41	0	1714421760	42	6435
2026-01-30 13:03:25.81	128.78	17.11	-35.4	-36.3	23.9	0.00e+00	0	41	0	1717567488	42	6498
2026-01-30 13:03:26.82	128.96	17.04	-35.4	-36.3	24.0	0.00e+00	0	41	0	1720713216	42	6481
2026-01-30 13:03:27.83	129.13	16.96	-35.4	-36.3	24.0	0.00e+00	0	41	0	1723858944	42	6442
2026-01-30 13:03:28.84	129.31	16.89	-35.3	-36.3	24.1	0.00e+00	0	41	0	1728053248	42	6431
2026-01-30 13:03:29.85	129.49	16.81	-35.3	-36.2	24.1	0.00e+00	0	41	0	1731198976	42	6403
2026-01-30 13:03:30.86	129.66	16.74	-35.4	-36.3	24.0	0.00e+00	0	41	0	1733296128	42	6465
2026-01-30 13:03:31.87	129.83	16.66	-35.4	-36.4	24.0	0.00e+00	0	41	0	1736441856	42	6501
2026-01-30 13:03:32.88	130.01	16.59	-35.5	-36.4	23.9	0.00e+00	0	41	0	1740636160	42	6533
2026-01-30 13:03:33.89	130.18	16.51	-35.5	-36.4	24.0	0.00e+00	0	41	0	1743781888	42	6522
2026-01-30 13:03:34.90	130.35	16.44	-35.4	-36.3	24.0	0.00e+00	0	41	0	1746927616	42	6474
2026-01-30 13:03:35.92	130.52	16.36	-35.4	-36.3	24.0	0.00e+00	0	41	0	1750073344	42	6443
2026-01-30 13:03:36.93	130.69	16.29	-35.2	-36.1	24.1	0.00e+00	0	41	0	1753219072	42	6334
2026-01-30 13:03:37.94	130.86	16.21	-35.3	-36.2	24.0	0.00e+00	0	41	0	1756364800	42	6376
2026-01-30 13:03:38.95	131.03	16.14	-35.4	-36.3	23.9	0.00e+00	0	41	0	1759510528	42	6479
2026-01-30 13:03:39.96	131.20	16.07	-35.3	-36.3	23.9	0.00e+00	0	41	0	1762656256	42	6444
2026-01-30 13:03:40.97	131.36	15.99	-35.4	-36.3	23.9	0.00e+00	0	41	0	1765801984	42	6498
2026-01-30 13:03:41.98	131.53	15.92	-35.4	-36.4	24.0	0.00e+00	0	41	0	1768947712	42	6513
2026-01-30 13:03:42.99	131.70	15.84	-35.6	-36.5	24.0	0.00e+00	0	41	0	1772093440	42	6590
2026-01-30 13:03:44.00	131.86	15.77	-35.3	-36.2	24.1	0.00e+00	0	41	0	1775239168	42	6383
2026-01-30 13:03:45.01	132.02	15.69	-35.3	-36.2	24.1	0.00e+00	0	41	0	1778384896	42	6377
2026-01-30 13:03:46.02	132.19	15.62	-35.2	-36.1	24.1	0.00e+00	0	41	0	1781530624	42	6345
2026-01-30 13:03:47.03	132.35	15.54	-35.3	-36.2	24.0	0.00e+00	0	41	0	1784676352	42	6407
2026-01-30 13:03:48.04	132.51	15.47	-35.4	-36.3	23.9	0.00e+00	0	41	0	1787822080	42	6492
2026-01-30 13:03:49.05	132.67	15.39	-35.4	-36.4	23.8	0.00e+00	0	41	0	1790967808	42	6517
2026-01-30 13:03:50.06	132.83	15.32	-35.5	-36.4	23.8	0.00e+00	0	41	0	1794113536	42	6548
2026-01-30 13:03:51.07	132.99	15.24	-35.6	-36.5	23.7	0.00e+00	0	41	0	1797259264	42	6618
2026-01-30 13:03:52.07	133.14	15.17	-35.7	-36.6	23.6	0.00e+00	0	41	0	1800404992	42	6689
2026-01-30 13:03:53.09	133.30	15.10	-35.8	-36.7	23.6	0.00e+00	0	41	0	1803550720	44	6062
2026-01-30 13:03:54.10	133.46	15.02	-36.0	-36.9	23.4	0.00e+00	0	41	0	1806696448	44	6169
2026-01-30 13:03:55.11	133.62	14.95	-35.8	-36.8	23.5	0.00e+00	0	41	0	1809842176	44	6072
2026-01-30 13:03:56.12	133.77	14.87	-35.9	-36.9	23.5	0.00e+00	0	41	0	1812987904	44	6136
2026-01-30 13:03:57.13	133.92	14.80	-35.8	-36.7	23.5	0.00e+00	0	41	0	1816133632	44	6030
2026-01-30 13:03:58.14	134.08	14.72	-35.8	-36.8	23.5	0.00e+00	0	41	0	1819279360	44	6066
2026-01-30 13:03:59.15	134.23	14.65	-35.6	-36.5	23.7	0.00e+00	0	41	0	1822425088	44	5918
2026-01-30 13:04:00.16	134.38	14.58	-35.8	-36.7	23.6	0.00e+00	0	41	0	1825570816	44	6047
2026-01-30 13:04:01.16	134.53	14.50	-35.6	-36.5	23.7	0.00e+00	0	41	0	1828716544	44	5869
2026-01-30 13:04:02.17	134.68	14.43	-35.6	-36.6	23.7	0.00e+00	0	41	0	1831862272	44	5951
2026-01-30 13:04:03.18	134.83	14.35	-35.6	-36.6	23.8	0.00e+00	0	41	0	1835008000	44	5950
2026-01-30 13:04:04.19	134.98	14.28	-35.5	-36.4	23.9	0.00e+00	0	41	0	1838153728	44	5841
2026-01-30 13:04:05.20	135.13	14.21	-35.5	-36.4	23.9	0.00e+00	0	41	0	1841299456	44	5813
2026-01-30 13:04:06.21	135.28	14.13	-35.4	-36.4	23.8	0.00e+00	0	41	0	1844445184	44	5811
2026-01-30 13:04:07.22	135.43	14.06	-35.6	-36.5	23.8	0.00e+00	0	41	0	1847590912	44	5907
2026-01-30 13:04:08.23	135.57	13.98	-35.5	-36.4	23.8	0.00e+00	0	41	0	1850736640	44	5850
2026-01-30 13:04:09.24	135.72	13.91	-35.7	-36.6	23.7	0.00e+00	0	41	0	1853882368	44	5960
2026-01-30 13:04:10.25	135.86	13.84	-35.8	-36.8	23.6	0.00e+00	0	41	0	1857028096	44	6074
2026-01-30 13:04:11.26	136.01	13.76	-35.8	-36.8	23.6	0.00e+00	0	42	0	1860173824	44	6103
2026-01-30 13:04:12.27	136.15	13.69	-36.0	-36.9	23.5	0.00e+00	0	41	0	1863319552	44	6174
2026-01-30 13:04:13.28	136.29	13.62	-36.0	-36.9	23.5	0.00e+00	0	41	0	1866465280	44	6175
2026-01-30 13:04:14.29	136.44	13.54	-36.0	-37.0	23.4	0.00e+00	0	41	0	1869611008	44	6243
2026-01-30 13:04:15.30	136.58	13.47	-36.0	-37.0	23.4	0.00e+00	0	41	0	1872756736	44	6216
2026-01-30 13:04:16.31	136.72	13.40	-35.9	-36.8	23.6	0.00e+00	0	41	0	1875902464	44	6121
2026-01-30 13:04:17.31	136.86	13.32	-35.9	-36.8	23.6	0.00e+00	0	41	0	1879048192	44	6108
2026-01-30 13:04:18.32	137.00	13.25	-35.9	-36.9	23.4	0.00e+00	0	41	0	1882193920	44	6159
2026-01-30 13:04:19.33	137.13	13.18	-36.0	-36.9	23.4	0.00e+00	0	41	0	1885339648	44	6179
2026-01-30 13:04:20.34	137.27	13.10	-35.9	-36.9	23.4	0.00e+00	0	41	0	1888485376	44	6152
2026-01-30 13:04:21.35	137.41	13.03	-35.9	-36.9	23.3	0.00e+00	0	41	0	1891631104	44	6141
2026-01-30 13:04:22.36	137.55	12.96	-36.0	-36.9	23.4	0.00e+00	0	41	0	1894776832	44	6182
2026-01-30 13:04:23.37	137.68	12.88	-36.0	-36.9	23.3	0.00e+00	0	41	0	1897922560	44	6182
2026-01-30 13:04:24.38	137.82	12.81	-35.9	-36.9	23.2	0.00e+00	0	41	0	1901068288	44	6138
2026-01-30 13:04:25.39	137.95	12.74	-36.0	-37.0	23.2	0.00e+00	0	42	0	1904214016	44	6239
2026-01-30 13:04:26.40	138.09	12.67	-35.9	-36.8	23.3	0.00e+00	0	41	0	1907359744	44	6126
2026-01-30 13:04:27.41	138.22	12.59	-35.9	-36.9	23.2	0.00e+00	0	41	0	1910505472	44	6151
2026-01-30 13:04:28.42	138.35	12.52	-36.0	-37.0	23.2	0.00e+00	0	41	0	1913651200	44	6243
2026-01-30 13:04:29.43	138.49	12.45	-36.2	-37.1	23.1	0.00e+00	0	41	0	1916796928	44	6349
2026-01-30 13:04:30.43	138.62	12.38	-36.3	-37.3	23.0	0.00e+00	0	41	0	1919942656	44	6471
2026-01-30 13:04:31.45	138.75	12.30	-36.4	-37.4	23.0	0.00e+00	0	41	0	1923088384	44	6513
2026-01-30 13:04:32.46	138.88	12.23	-36.5	-37.5	23.0	0.00e+00	0	41	0	1926234112	44	6577
2026-01-30 13:04:33.47	139.01	12.16	-36.6	-37.5	22.9	0.00e+00	0	41	0	1929379840	44	6631
2026-01-30 13:04:34.47	139.14	12.09	-36.5	-37.5	22.9	0.00e+00	0	41	0	1932525568	44	6629
2026-01-30 13:04:35.48	139.27	12.02	-36.7	-37.7	22.6	0.00e+00	0	41	0	1935671296	44	6777
2026-01-30 13:04:36.49	139.39	11.95	-36.7	-37.7	22.6	0.00e+00	0	41	0	1938817024	44	6783
2026-01-30 13:04:37.50	139.52	11.87	-36.9	-37.9	22.4	0.00e+00	0	41	0	1941962752	46	6177
2026-01-30 13:04:38.51	139.65	11.80	-37.2	-38.2	22.2	0.00e+00	0	41	0	1945108480	46	6388
2026-01-30 13:04:39.52	139.77	11.73	-37.3	-38.4	22.0	0.00e+00	0	41	0	1948254208	46	6500
2026-01-30 13:04:40.53	139.90	11.66	-37.5	-38.6	21.7	0.00e+00	0	41	0	1951399936	46	6700
2026-01-30 13:04:41.54	140.03	11.59	-37.7	-38.8	21.4	0.00e+00	0	41	0	1954545664	46	6837
2026-01-30 13:04:42.55	140.15	11.52	-37.9	-39.0	21.2	0.00e+00	0	41	0	1957691392	48	6224
2026-01-30 13:04:43.56	140.27	11.44	-38.1	-39.2	20.6	0.00e+00	0	41	0	1960837120	48	6423
2026-01-30 13:04:44.57	140.40	11.37	-38.2	-39.4	20.7	0.00e+00	0	41	0	1963982848	48	6515
2026-01-30 13:04:45.58	140.52	11.30	-38.4	-39.5	20.4	0.00e+00	0	41	0	1967128576	48	6644
2026-01-30 13:04:46.59	140.64	11.23	-38.6	-39.8	20.0	0.00e+00	0	41	0	1970274304	48	6863
2026-01-30 13:04:47.60	140.76	11.16	-38.7	-40.0	19.8	5.30e-06	0	41	0	1973420032	48	6967
2026-01-30 13:04:48.61	140.89	11.09	-38.8	-40.0	18.0	1.22e-05	0	41	0	1976565760	48	7004
2026-01-30 13:04:49.62	141.01	11.02	-38.9	-40.2	19.5	1.06e-05	0	41	0	1979711488	50	6358
2026-01-30 13:04:50.63	141.13	10.95	-38.9	-40.2	19.6	7.00e-07	0	41	0	1982857216	50	6370
2026-01-30 13:04:51.64	141.25	10.88	-39.0	-40.3	19.5	7.00e-07	0	41	0	1986002944	50	6439
2026-01-30 13:04:52.65	141.36	10.81	-38.9	-40.1	19.6	7.00e-07	0	41	0	1989148672	50	6347
2026-01-30 13:04:53.66	141.48	10.74	-39.0	-40.2	19.4	0.00e+00	0	41	0	1992294400	50	6413
2026-01-30 13:04:54.67	141.60	10.67	-38.9	-40.1	19.8	4.50e-06	0	41	0	1995440128	50	6339
2026-01-30 13:04:55.68	141.72	10.60	-39.0	-40.3	19.7	0.00e+00	0	41	0	1998585856	50	6447
2026-01-30 13:04:56.69	141.83	10.53	-38.8	-40.1	20.0	0.00e+00	0	41	0	2001731584	50	6293
2026-01-30 13:04:57.70	141.95	10.46	-38.6	-39.8	20.2	0.00e+00	0	41	0	2004877312	50	6108
2026-01-30 13:04:58.71	142.07	10.39	-38.5	-39.7	20.4	0.00e+00	0	41	0	2008023040	50	6054
2026-01-30 13:04:59.72	142.18	10.32	-38.5	-39.7	20.4	0.00e+00	0	41	0	2011168768	50	6054
2026-01-30 13:05:00.73	142.30	10.25	-38.5	-39.6	20.3	0.00e+00	0	41	0	2014314496	50	5993
2026-01-30 13:05:01.74	142.41	10.18	-38.2	-39.3	20.8	0.00e+00	0	41	0	2017460224	50	5773
2026-01-30 13:05:02.75	142.52	10.11	-38.1	-39.2	20.8	0.00e+00	0	41	0	2020605952	50	5724
