passes_logs/2026/01/30/R4.6S_Anadyr/R4.6S_Anadyr__20260130_155957_FENGYUN_3D_rec.log

#Pass ID: 20260130_155957_FENGYUN 3D
#Satellite: FENGYUN 3D
#Configuration: FENGYUN 3D
#almurnet v.1.7.20251203
#Start time: 2026-01-30 15:59:57

#Version: 2.2.20231116
#Station: R4.6S_Anadyr
#Location: 177.4865 lon 64.73178 lat
#TLE: 1 43010U 17072A   26029.52179110  .00000394  00000+0  20818-3 0  9997
#TLE: 2 43010  98.9957   1.5649 0002507  83.7772 276.3689 14.19703315425310

#Time	Az	El	Level	Level2	SNR	BER	BlckErr	Temp	State	Recorded	gain1	gain2
2026-01-30 15:59:57.94	19.75	0.04	-49.6	-64.5	3.5	1.51e+00	0	39	0	0	60	60596
2026-01-30 15:59:58.94	19.78	0.10	-49.6	-61.7	3.6	8.45e-01	0	40	104	0	60	44066
2026-01-30 15:59:59.95	19.81	0.15	-49.6	-61.8	3.6	8.44e-01	0	40	104	0	60	44301
2026-01-30 16:00:00.96	19.84	0.21	-49.6	-61.7	3.6	8.44e-01	0	40	104	0	60	44184
2026-01-30 16:00:01.97	19.87	0.27	-49.6	-61.8	3.6	8.47e-01	0	40	104	0	60	44321
2026-01-30 16:00:02.98	19.90	0.33	-49.6	-61.8	3.6	8.46e-01	0	40	104	0	60	44297
2026-01-30 16:00:03.99	19.93	0.39	-49.7	-61.8	3.6	8.45e-01	0	40	104	0	60	44276
2026-01-30 16:00:05.00	19.96	0.45	-49.6	-61.8	3.6	8.45e-01	0	40	104	0	60	44231
2026-01-30 16:00:06.01	19.99	0.51	-49.7	-61.8	3.6	8.46e-01	0	40	104	0	60	44405
2026-01-30 16:00:07.02	20.02	0.57	-49.7	-61.9	3.6	8.45e-01	0	40	104	0	60	44749
2026-01-30 16:00:08.03	20.05	0.63	-49.7	-61.8	3.6	8.46e-01	0	40	104	0	60	44536
2026-01-30 16:00:09.04	20.08	0.69	-49.6	-61.8	3.6	8.45e-01	0	40	104	0	60	44543
2026-01-30 16:00:10.05	20.11	0.75	-49.7	-61.7	3.6	8.44e-01	0	40	104	0	60	44170
2026-01-30 16:00:11.05	20.14	0.81	-49.6	-61.7	3.6	8.46e-01	0	40	104	0	60	44123
2026-01-30 16:00:12.06	20.17	0.87	-49.5	-61.7	3.6	8.44e-01	0	40	104	0	60	43877
2026-01-30 16:00:13.08	20.21	0.93	-49.5	-61.6	3.6	8.45e-01	0	40	104	0	60	43702
2026-01-30 16:00:14.08	20.24	0.99	-49.4	-61.6	3.6	8.44e-01	0	40	104	0	60	43225
2026-01-30 16:00:15.10	20.27	1.05	-49.3	-61.5	3.6	8.46e-01	0	40	104	0	60	42745
2026-01-30 16:00:16.11	20.30	1.11	-49.2	-61.3	3.6	8.45e-01	0	40	104	0	60	42028
2026-01-30 16:00:17.12	20.33	1.17	-49.1	-61.1	3.6	8.45e-01	0	40	104	0	60	41255
2026-01-30 16:00:18.13	20.36	1.23	-49.0	-61.1	3.6	8.45e-01	0	40	104	0	60	40921
2026-01-30 16:00:19.14	20.40	1.29	-48.9	-61.0	3.6	8.45e-01	0	40	104	0	60	40705
2026-01-30 16:00:20.15	20.43	1.35	-48.7	-60.8	3.6	8.45e-01	0	40	104	0	60	39814
2026-01-30 16:00:21.16	20.46	1.42	-48.5	-60.6	3.6	8.45e-01	0	40	104	0	60	38609
2026-01-30 16:00:22.17	20.49	1.48	-48.2	-60.3	3.6	8.45e-01	0	40	104	0	60	37264
2026-01-30 16:00:23.18	20.52	1.54	-48.2	-60.2	3.6	8.47e-01	0	40	104	0	60	36816
2026-01-30 16:00:24.19	20.56	1.60	-48.2	-60.1	3.6	8.45e-01	0	40	104	0	60	36427
2026-01-30 16:00:25.20	20.59	1.66	-48.2	-60.1	3.6	8.45e-01	0	40	104	0	60	36696
2026-01-30 16:00:26.21	20.62	1.72	-48.2	-60.1	3.6	8.45e-01	0	40	104	0	60	36653
2026-01-30 16:00:27.22	20.65	1.79	-48.2	-60.3	3.6	8.46e-01	0	40	104	0	60	37304
2026-01-30 16:00:28.23	20.69	1.85	-48.2	-60.2	3.6	8.44e-01	0	40	104	0	60	37192
2026-01-30 16:00:29.24	20.72	1.91	-48.2	-60.3	3.6	8.46e-01	0	40	104	0	60	37336
2026-01-30 16:00:30.25	20.75	1.97	-48.2	-60.3	3.6	8.47e-01	0	40	104	0	60	37305
2026-01-30 16:00:31.26	20.79	2.04	-48.2	-60.3	3.6	8.45e-01	0	40	104	0	60	37516
2026-01-30 16:00:32.27	20.82	2.10	-48.2	-60.4	3.6	8.45e-01	0	40	104	0	60	37786
2026-01-30 16:00:33.28	20.85	2.16	-48.2	-60.3	3.6	8.45e-01	0	40	104	0	60	37541
2026-01-30 16:00:34.29	20.89	2.22	-48.2	-60.3	3.6	8.44e-01	0	40	104	0	60	37392
2026-01-30 16:00:35.30	20.92	2.29	-48.1	-59.7	3.6	8.45e-01	0	40	104	0	60	34922
2026-01-30 16:00:36.31	20.96	2.35	-48.1	-59.1	3.6	8.45e-01	0	40	104	0	60	32470
2026-01-30 16:00:37.32	20.99	2.41	-48.0	-58.5	3.6	8.44e-01	0	40	104	0	60	30424
2026-01-30 16:00:38.33	21.02	2.48	-48.0	-58.1	3.6	8.43e-01	0	40	104	0	60	28919
2026-01-30 16:00:39.34	21.06	2.54	-48.0	-58.0	3.6	8.42e-01	0	40	104	0	60	28765
2026-01-30 16:00:40.35	21.09	2.60	-48.1	-58.7	3.6	8.44e-01	0	40	104	0	60	31176
2026-01-30 16:00:41.36	21.13	2.67	-48.1	-59.5	3.6	8.45e-01	0	40	104	0	60	34247
2026-01-30 16:00:42.37	21.16	2.73	-47.9	-57.4	3.9	8.45e-01	0	40	104	0	60	26858
2026-01-30 16:00:43.38	21.20	2.80	-47.1	-52.1	6.2	3.53e-01	0	40	0	1048576	60	14544
2026-01-30 16:00:44.39	21.23	2.86	-45.9	-49.3	9.5	3.80e-02	0	40	0	7340032	60	10516
2026-01-30 16:00:45.40	21.27	2.93	-44.2	-46.5	13.2	2.29e-04	0	40	0	12582912	60	7635
2026-01-30 16:00:46.41	21.30	2.99	-42.3	-43.9	15.6	0.00e+00	0	40	0	18874368	58	6381
2026-01-30 16:00:47.42	21.34	3.06	-41.2	-42.6	17.0	0.00e+00	0	40	0	24117248	56	6107
2026-01-30 16:00:48.43	21.37	3.12	-39.5	-40.6	18.9	0.00e+00	0	40	0	29360128	52	6172
2026-01-30 16:00:49.44	21.41	3.19	-38.5	-39.5	20.0	0.00e+00	0	40	0	35651584	50	6065
2026-01-30 16:00:50.45	21.44	3.25	-37.8	-38.7	20.5	0.00e+00	0	40	0	40894464	48	6226
2026-01-30 16:00:51.46	21.48	3.32	-37.6	-38.6	20.7	0.00e+00	0	40	0	47185920	48	6105
2026-01-30 16:00:52.47	21.51	3.38	-37.4	-38.3	20.9	0.00e+00	0	40	0	52428800	48	5935
2026-01-30 16:00:53.48	21.55	3.45	-37.9	-38.8	20.4	0.00e+00	0	40	0	57671680	48	6282
2026-01-30 16:00:54.49	21.59	3.51	-38.7	-39.7	19.5	0.00e+00	0	40	0	63963136	48	7000
2026-01-30 16:00:55.51	21.62	3.58	-39.8	-40.9	18.3	0.00e+00	0	40	0	69206016	50	7125
2026-01-30 16:00:56.52	21.66	3.65	-36.9	-37.7	21.9	0.00e+00	0	40	0	75497472	48	5539
2026-01-30 16:00:57.52	21.70	3.71	-37.6	-38.5	20.4	0.00e+00	0	40	0	80740352	48	6059
2026-01-30 16:00:58.53	21.73	3.78	-40.2	-41.3	18.2	1.25e-05	0	40	0	87031808	56	5294
2026-01-30 16:00:59.54	21.77	3.84	-44.3	-46.4	13.6	1.99e-01	0	40	0	92274688	60	7572
2026-01-30 16:01:00.55	21.81	3.91	-39.9	-41.0	15.9	0.00e+00	0	41	0	97517568	52	6460
2026-01-30 16:01:01.56	21.84	3.98	-47.3	-53.7	5.3	8.44e-01	0	41	104	98566144	60	17581
2026-01-30 16:01:02.57	21.88	4.04	-41.0	-42.4	16.3	1.07e-01	0	41	104	98566144	56	5990
2026-01-30 16:01:03.58	21.92	4.11	-40.8	-42.1	17.5	0.00e+00	0	40	0	102760448	54	6465
2026-01-30 16:01:04.59	21.96	4.18	-40.4	-41.6	17.8	0.00e+00	0	41	0	108003328	54	6146
2026-01-30 16:01:05.60	22.00	4.25	-40.6	-41.9	17.5	0.00e+00	0	41	0	114294784	54	6330
2026-01-30 16:01:06.61	22.03	4.31	-39.3	-40.3	19.1	0.00e+00	0	41	0	119537664	52	5964
2026-01-30 16:01:07.62	22.07	4.38	-38.5	-39.4	20.0	0.00e+00	0	41	0	125829120	50	6020
2026-01-30 16:01:08.63	22.11	4.45	-37.5	-38.4	21.0	0.00e+00	0	41	0	131072000	48	6032
2026-01-30 16:01:09.64	22.15	4.52	-37.8	-38.7	20.6	0.00e+00	0	41	0	136314880	48	6201
2026-01-30 16:01:10.65	22.19	4.59	-37.4	-38.2	21.2	0.00e+00	0	41	0	142606336	48	5884
2026-01-30 16:01:11.66	22.23	4.65	-36.5	-37.3	22.0	0.00e+00	0	41	0	147849216	46	5928
2026-01-30 16:01:12.67	22.26	4.72	-36.7	-37.5	21.9	0.00e+00	0	40	0	154140672	46	6074
2026-01-30 16:01:13.68	22.30	4.79	-36.0	-36.7	22.7	0.00e+00	0	41	0	159383552	46	5556
2026-01-30 16:01:14.69	22.34	4.86	-36.3	-37.1	22.3	0.00e+00	0	41	0	164626432	46	5772
2026-01-30 16:01:15.70	22.38	4.93	-36.0	-36.8	22.7	0.00e+00	0	41	0	170917888	46	5580
2026-01-30 16:01:16.71	22.42	5.00	-36.0	-36.8	22.5	0.00e+00	0	41	0	176160768	46	5620
2026-01-30 16:01:17.72	22.46	5.07	-36.1	-36.9	22.7	0.00e+00	0	41	0	182452224	46	5633
2026-01-30 16:01:18.73	22.50	5.14	-36.0	-36.7	22.7	0.00e+00	0	41	0	187695104	46	5562
2026-01-30 16:01:19.74	22.54	5.21	-36.0	-36.7	22.8	0.00e+00	0	41	0	193986560	46	5544
2026-01-30 16:01:20.75	22.58	5.28	-35.5	-36.2	23.1	0.00e+00	0	41	0	199229440	44	5873
2026-01-30 16:01:21.76	22.62	5.35	-35.8	-36.6	22.9	0.00e+00	0	41	0	205520896	44	6134
2026-01-30 16:01:22.77	22.66	5.42	-35.8	-36.6	23.0	0.00e+00	0	41	0	210763776	44	6106
2026-01-30 16:01:23.78	22.70	5.49	-35.9	-36.6	22.8	0.00e+00	0	41	0	216006656	44	6155
2026-01-30 16:01:24.79	22.74	5.56	-35.9	-36.6	22.9	0.00e+00	0	41	0	222298112	44	6164
2026-01-30 16:01:25.80	22.79	5.63	-35.8	-36.6	22.9	0.00e+00	0	41	0	227540992	44	6128
2026-01-30 16:01:26.81	22.83	5.70	-35.6	-36.4	23.2	0.00e+00	0	41	0	233832448	44	5976
2026-01-30 16:01:27.82	22.87	5.77	-35.6	-36.4	23.1	0.00e+00	0	41	0	239075328	44	5970
2026-01-30 16:01:28.83	22.91	5.84	-35.6	-36.4	23.1	0.00e+00	0	41	0	244318208	44	5975
2026-01-30 16:01:29.84	22.95	5.92	-35.7	-36.4	23.1	0.00e+00	0	41	0	250609664	44	6003
2026-01-30 16:01:30.85	22.99	5.99	-35.4	-36.2	23.3	0.00e+00	0	41	0	255852544	44	5844
2026-01-30 16:01:31.86	23.04	6.06	-35.5	-36.2	23.2	0.00e+00	0	41	0	262144000	44	5894
2026-01-30 16:01:32.87	23.08	6.13	-35.4	-36.2	23.4	0.00e+00	0	41	0	267386880	44	5833
2026-01-30 16:01:33.88	23.12	6.20	-35.4	-36.2	23.3	0.00e+00	0	41	0	272629760	44	5833
2026-01-30 16:01:34.89	23.16	6.28	-35.5	-36.2	23.3	0.00e+00	0	41	0	278921216	44	5885
2026-01-30 16:01:35.89	23.21	6.35	-35.3	-36.1	23.5	0.00e+00	0	41	0	284164096	44	5769
2026-01-30 16:01:36.90	23.25	6.42	-35.4	-36.1	23.5	0.00e+00	0	41	0	290455552	44	5790
2026-01-30 16:01:37.92	23.29	6.50	-35.2	-35.9	23.6	0.00e+00	0	41	0	295698432	44	5654
2026-01-30 16:01:38.93	23.34	6.57	-35.1	-35.9	23.6	0.00e+00	0	41	0	301989888	44	5637
2026-01-30 16:01:39.94	23.38	6.64	-35.3	-36.1	23.6	0.00e+00	0	41	0	307232768	44	5764
2026-01-30 16:01:40.95	23.43	6.72	-35.1	-35.8	23.7	0.00e+00	0	41	0	312475648	44	5598
2026-01-30 16:01:41.96	23.47	6.79	-35.0	-35.7	23.8	0.00e+00	0	41	0	318767104	44	5529
2026-01-30 16:01:42.97	23.51	6.86	-35.2	-35.9	23.7	0.00e+00	0	41	0	324009984	44	5638
2026-01-30 16:01:43.98	23.56	6.94	-34.9	-35.6	23.9	0.00e+00	0	41	0	330301440	44	5460
2026-01-30 16:01:44.99	23.60	7.01	-35.1	-35.8	23.7	0.00e+00	0	41	0	335544320	44	5600
2026-01-30 16:01:46.00	23.65	7.09	-34.9	-35.6	24.0	0.00e+00	0	41	0	340787200	44	5479
2026-01-30 16:01:47.01	23.69	7.16	-34.8	-35.5	24.0	0.00e+00	0	41	0	347078656	44	5412
2026-01-30 16:01:48.02	23.74	7.24	-34.9	-35.6	24.1	0.00e+00	0	41	0	352321536	44	5479
2026-01-30 16:01:49.03	23.78	7.31	-34.9	-35.6	23.9	0.00e+00	0	41	0	358612992	44	5484
2026-01-30 16:01:50.04	23.83	7.39	-34.8	-35.5	24.1	0.00e+00	0	41	0	363855872	44	5423
2026-01-30 16:01:51.05	23.88	7.47	-34.8	-35.5	24.0	0.00e+00	0	41	0	370147328	44	5410
2026-01-30 16:01:52.06	23.92	7.54	-34.9	-35.6	24.0	0.00e+00	0	41	0	375390208	44	5495
2026-01-30 16:01:53.07	23.97	7.62	-34.7	-35.4	24.2	0.00e+00	0	41	0	380633088	42	6012
2026-01-30 16:01:54.08	24.02	7.69	-34.9	-35.6	24.0	0.00e+00	0	41	0	386924544	42	6157
2026-01-30 16:01:55.09	24.06	7.77	-34.9	-35.6	24.1	0.00e+00	0	41	0	392167424	42	6172
2026-01-30 16:01:56.10	24.11	7.85	-34.9	-35.6	24.1	0.00e+00	0	41	0	398458880	42	6119
2026-01-30 16:01:57.10	24.16	7.92	-34.8	-35.5	24.1	0.00e+00	0	41	0	403701760	42	6098
2026-01-30 16:01:58.11	24.20	8.00	-34.9	-35.6	24.2	0.00e+00	0	41	0	409993216	42	6115
2026-01-30 16:01:59.12	24.25	8.08	-34.7	-35.4	24.3	0.00e+00	0	41	0	415236096	42	5984
2026-01-30 16:02:00.13	24.30	8.16	-34.8	-35.4	24.2	0.00e+00	0	41	0	420478976	42	6028
2026-01-30 16:02:01.14	24.35	8.23	-34.8	-35.5	24.2	0.00e+00	0	41	0	426770432	42	6052
2026-01-30 16:02:02.15	24.40	8.31	-34.6	-35.3	24.4	0.00e+00	0	41	0	432013312	42	5918
2026-01-30 16:02:03.16	24.45	8.39	-34.6	-35.3	24.3	0.00e+00	0	41	0	438304768	42	5964
2026-01-30 16:02:04.17	24.49	8.47	-34.7	-35.4	24.3	0.00e+00	0	41	0	443547648	42	5990
2026-01-30 16:02:05.18	24.54	8.55	-34.6	-35.3	24.4	0.00e+00	0	41	0	448790528	42	5963
2026-01-30 16:02:06.19	24.59	8.63	-34.6	-35.3	24.5	0.00e+00	0	41	0	455081984	42	5934
2026-01-30 16:02:07.20	24.64	8.71	-34.6	-35.3	24.4	0.00e+00	0	41	0	460324864	42	5899
2026-01-30 16:02:08.21	24.69	8.79	-34.6	-35.3	24.5	0.00e+00	0	41	0	466616320	42	5899
2026-01-30 16:02:09.22	24.74	8.87	-34.6	-35.3	24.4	0.00e+00	0	41	0	471859200	42	5962
2026-01-30 16:02:10.23	24.79	8.95	-34.5	-35.2	24.4	0.00e+00	0	41	0	477102080	42	5885
2026-01-30 16:02:11.24	24.84	9.03	-34.4	-35.1	24.6	0.00e+00	0	41	0	483393536	42	5809
2026-01-30 16:02:12.25	24.89	9.11	-34.5	-35.2	24.5	0.00e+00	0	41	0	488636416	42	5848
2026-01-30 16:02:13.26	24.95	9.19	-34.7	-35.4	24.4	0.00e+00	0	41	0	494927872	42	5973
2026-01-30 16:02:14.27	25.00	9.27	-34.4	-35.1	24.7	0.00e+00	0	41	0	500170752	42	5781
2026-01-30 16:02:15.28	25.05	9.35	-34.5	-35.2	24.6	0.00e+00	0	41	0	506462208	42	5858
2026-01-30 16:02:16.29	25.10	9.43	-34.4	-35.1	24.6	0.00e+00	0	41	0	511705088	42	5828
2026-01-30 16:02:17.30	25.15	9.52	-34.6	-35.3	24.6	0.00e+00	0	41	0	517996544	42	5908
2026-01-30 16:02:18.31	25.21	9.60	-34.5	-35.2	24.6	0.00e+00	0	41	0	523239424	42	5837
2026-01-30 16:02:19.33	25.26	9.68	-34.2	-34.9	24.8	0.00e+00	0	41	0	528482304	42	5684
2026-01-30 16:02:20.33	25.31	9.76	-34.4	-35.1	24.6	0.00e+00	0	41	0	534773760	42	5820
2026-01-30 16:02:21.34	25.37	9.84	-34.3	-35.0	24.8	0.00e+00	0	41	0	540016640	42	5707
2026-01-30 16:02:22.35	25.42	9.93	-34.5	-35.2	24.5	0.00e+00	0	41	0	546308096	42	5856
2026-01-30 16:02:23.36	25.47	10.01	-34.2	-34.9	24.8	0.00e+00	0	41	0	551550976	42	5661
2026-01-30 16:02:24.37	25.53	10.10	-34.0	-34.7	25.0	0.00e+00	0	41	0	556793856	42	5535
2026-01-30 16:02:25.38	25.58	10.18	-34.0	-34.7	25.1	0.00e+00	0	41	0	563085312	42	5545
2026-01-30 16:02:26.39	25.64	10.26	-34.0	-34.7	25.1	0.00e+00	0	41	0	568328192	42	5550
2026-01-30 16:02:27.40	25.69	10.35	-34.0	-34.7	25.1	0.00e+00	0	41	0	573571072	42	5503
2026-01-30 16:02:28.41	25.75	10.43	-33.9	-34.5	25.2	0.00e+00	0	41	0	579862528	42	5430
2026-01-30 16:02:29.42	25.80	10.52	-33.9	-34.6	25.2	0.00e+00	0	41	0	585105408	40	6123
2026-01-30 16:02:30.43	25.86	10.60	-33.8	-34.4	25.3	0.00e+00	0	41	0	591396864	40	6026
2026-01-30 16:02:31.44	25.91	10.69	-33.8	-34.5	25.2	0.00e+00	0	41	0	596639744	40	6087
2026-01-30 16:02:32.44	25.97	10.77	-33.7	-34.4	25.3	0.00e+00	0	41	0	602931200	40	6000
2026-01-30 16:02:33.45	26.03	10.86	-33.7	-34.4	25.3	0.00e+00	0	41	0	608174080	40	5977
2026-01-30 16:02:34.46	26.08	10.95	-33.7	-34.4	25.3	0.00e+00	0	41	0	614465536	40	5989
2026-01-30 16:02:35.47	26.14	11.03	-33.8	-34.4	25.3	0.00e+00	0	41	0	619708416	40	6012
2026-01-30 16:02:36.48	26.20	11.12	-33.7	-34.4	25.3	0.00e+00	0	41	0	624951296	40	5987
2026-01-30 16:02:37.49	26.26	11.21	-33.8	-34.4	25.4	0.00e+00	0	41	0	631242752	40	6003
2026-01-30 16:02:38.50	26.32	11.29	-33.8	-34.4	25.3	0.00e+00	0	41	0	636485632	40	6025
2026-01-30 16:02:39.51	26.37	11.38	-33.7	-34.4	25.4	0.00e+00	0	41	0	642777088	40	5978
2026-01-30 16:02:40.52	26.43	11.47	-33.8	-34.4	25.3	0.00e+00	0	41	0	648019968	40	6028
2026-01-30 16:02:41.53	26.49	11.56	-33.7	-34.4	25.4	0.00e+00	0	41	0	653262848	40	5983
2026-01-30 16:02:42.54	26.55	11.65	-33.6	-34.3	25.5	0.00e+00	0	41	0	659554304	40	5913
2026-01-30 16:02:43.55	26.61	11.74	-33.6	-34.3	25.5	0.00e+00	0	41	0	664797184	40	5901
2026-01-30 16:02:44.56	26.67	11.83	-33.6	-34.3	25.5	0.00e+00	0	41	0	671088640	40	5925
2026-01-30 16:02:45.57	26.73	11.91	-33.8	-34.4	25.3	0.00e+00	0	41	0	676331520	40	6010
2026-01-30 16:02:46.58	26.80	12.00	-33.6	-34.3	25.4	0.00e+00	0	41	0	681574400	40	5928
2026-01-30 16:02:47.59	26.86	12.09	-33.6	-34.2	25.5	0.00e+00	0	41	0	687865856	40	5895
2026-01-30 16:02:48.60	26.92	12.19	-33.6	-34.3	25.5	0.00e+00	0	41	0	693108736	40	5902
2026-01-30 16:02:49.61	26.98	12.28	-33.8	-34.5	25.3	0.00e+00	0	41	0	699400192	40	6037
2026-01-30 16:02:50.62	27.04	12.37	-33.5	-34.2	25.6	0.00e+00	0	41	0	704643072	40	5849
2026-01-30 16:02:51.63	27.11	12.46	-33.6	-34.2	25.5	0.00e+00	0	41	0	710934528	40	5881
2026-01-30 16:02:52.64	27.17	12.55	-33.6	-34.2	25.6	0.00e+00	0	41	0	716177408	40	5859
2026-01-30 16:02:53.65	27.23	12.64	-33.6	-34.3	25.5	0.00e+00	0	41	0	722468864	40	5920
2026-01-30 16:02:54.66	27.30	12.73	-33.8	-34.4	25.3	0.00e+00	0	41	0	727711744	40	6005
2026-01-30 16:02:55.67	27.36	12.83	-33.5	-34.1	25.6	0.00e+00	0	41	0	732954624	40	5828
2026-01-30 16:02:56.68	27.43	12.92	-33.6	-34.3	25.5	0.00e+00	0	41	0	739246080	40	5899
2026-01-30 16:02:57.69	27.49	13.01	-33.5	-34.2	25.6	0.00e+00	0	41	0	744488960	40	5831
2026-01-30 16:02:58.70	27.56	13.11	-33.5	-34.1	25.7	0.00e+00	0	41	0	750780416	40	5827
2026-01-30 16:02:59.71	27.62	13.20	-33.4	-34.1	25.7	0.00e+00	0	41	0	756023296	40	5778
2026-01-30 16:03:00.72	27.69	13.30	-33.4	-34.1	25.7	0.00e+00	0	41	0	761266176	40	5789
2026-01-30 16:03:01.73	27.75	13.39	-33.4	-34.1	25.7	0.00e+00	0	41	0	767557632	40	5762
2026-01-30 16:03:02.74	27.82	13.49	-33.4	-34.1	25.7	0.00e+00	0	41	0	772800512	40	5801
2026-01-30 16:03:03.74	27.89	13.58	-33.6	-34.3	25.6	0.00e+00	0	41	0	778043392	40	5898
2026-01-30 16:03:04.76	27.96	13.68	-33.5	-34.2	25.7	0.00e+00	0	41	0	784334848	40	5878
2026-01-30 16:03:05.76	28.02	13.77	-33.4	-34.1	25.7	0.00e+00	0	41	0	789577728	40	5800
2026-01-30 16:03:06.77	28.09	13.87	-33.4	-34.1	25.7	0.00e+00	0	41	0	795869184	40	5813
2026-01-30 16:03:07.78	28.16	13.97	-33.5	-34.2	25.6	0.00e+00	0	41	0	801112064	40	5889
2026-01-30 16:03:08.79	28.23	14.06	-33.4	-34.1	25.7	0.00e+00	0	41	0	807403520	40	5772
2026-01-30 16:03:09.80	28.30	14.16	-33.5	-34.2	25.7	0.00e+00	0	41	0	812646400	40	5843
2026-01-30 16:03:10.81	28.37	14.26	-33.2	-33.9	25.9	0.00e+00	0	41	0	818937856	40	5642
2026-01-30 16:03:11.82	28.44	14.36	-33.4	-34.1	25.8	0.00e+00	0	41	0	824180736	40	5780
2026-01-30 16:03:12.83	28.51	14.45	-33.0	-33.7	26.1	0.00e+00	0	41	0	829423616	40	5509
2026-01-30 16:03:13.84	28.59	14.55	-32.9	-33.6	26.2	0.00e+00	0	41	0	835715072	40	5460
2026-01-30 16:03:14.85	28.66	14.65	-33.1	-33.7	26.0	0.00e+00	0	41	0	840957952	40	5543
2026-01-30 16:03:15.86	28.73	14.75	-32.9	-33.5	26.2	0.00e+00	0	41	0	847249408	40	5419
2026-01-30 16:03:16.87	28.80	14.85	-32.8	-33.5	26.2	0.00e+00	0	41	0	852492288	38	6076
2026-01-30 16:03:17.88	28.88	14.95	-32.9	-33.5	26.2	0.00e+00	0	41	0	857735168	38	6067
2026-01-30 16:03:18.89	28.95	15.05	-32.8	-33.4	26.3	0.00e+00	0	41	0	864026624	38	6025
2026-01-30 16:03:19.90	29.02	15.16	-32.6	-33.2	26.6	0.00e+00	0	41	0	869269504	38	5853
2026-01-30 16:03:20.91	29.10	15.26	-32.7	-33.3	26.4	0.00e+00	0	41	0	875560960	38	5948
2026-01-30 16:03:21.92	29.18	15.36	-32.6	-33.2	26.5	0.00e+00	0	41	0	880803840	38	5881
2026-01-30 16:03:22.93	29.25	15.46	-32.6	-33.2	26.5	0.00e+00	0	41	0	886046720	38	5865
2026-01-30 16:03:23.94	29.33	15.56	-32.7	-33.3	26.4	0.00e+00	0	41	0	892338176	38	5960
2026-01-30 16:03:24.95	29.40	15.67	-32.6	-33.3	26.4	0.00e+00	0	41	0	897581056	38	5916
2026-01-30 16:03:25.96	29.48	15.77	-32.7	-33.3	26.5	0.00e+00	0	41	0	903872512	38	5931
2026-01-30 16:03:26.97	29.56	15.87	-32.6	-33.3	26.5	0.00e+00	0	41	0	909115392	38	5897
2026-01-30 16:03:27.98	29.64	15.98	-32.7	-33.3	26.4	0.00e+00	0	41	0	915406848	38	5939
2026-01-30 16:03:28.99	29.72	16.08	-32.6	-33.2	26.6	0.00e+00	0	41	0	920649728	38	5885
2026-01-30 16:03:30.00	29.80	16.19	-32.6	-33.3	26.5	0.00e+00	0	41	0	926941184	38	5913
2026-01-30 16:03:31.01	29.88	16.29	-32.5	-33.2	26.6	0.00e+00	0	41	0	932184064	38	5845
2026-01-30 16:03:32.02	29.96	16.40	-32.6	-33.3	26.5	0.00e+00	0	41	0	937426944	38	5913
2026-01-30 16:03:33.03	30.04	16.51	-32.6	-33.2	26.6	0.00e+00	0	41	0	943718400	38	5869
2026-01-30 16:03:34.04	30.12	16.61	-32.4	-33.0	26.7	0.00e+00	0	41	0	948961280	38	5722
2026-01-30 16:03:35.05	30.20	16.72	-32.4	-33.0	26.7	0.00e+00	0	41	0	955252736	38	5706
2026-01-30 16:03:36.06	30.28	16.83	-32.2	-32.9	26.8	0.00e+00	0	41	0	960495616	38	5639
2026-01-30 16:03:37.07	30.37	16.94	-32.2	-32.9	26.9	0.00e+00	0	41	0	965738496	38	5644
2026-01-30 16:03:38.08	30.45	17.04	-32.3	-33.0	26.8	0.00e+00	0	41	0	972029952	38	5696
2026-01-30 16:03:39.09	30.54	17.15	-32.3	-32.9	26.8	0.00e+00	0	41	0	977272832	38	5692
2026-01-30 16:03:40.10	30.62	17.26	-32.3	-32.9	26.7	0.00e+00	0	41	0	983564288	38	5678
2026-01-30 16:03:41.11	30.71	17.37	-32.3	-32.9	26.8	0.00e+00	0	41	0	988807168	38	5684
2026-01-30 16:03:42.12	30.79	17.48	-32.3	-33.0	26.8	0.00e+00	0	41	0	994050048	38	5715
2026-01-30 16:03:43.13	30.88	17.59	-32.3	-33.0	26.8	0.00e+00	0	41	0	1000341504	38	5707
2026-01-30 16:03:44.14	30.97	17.70	-32.2	-32.9	26.8	0.00e+00	0	41	0	1005584384	38	5648
2026-01-30 16:03:45.15	31.05	17.82	-32.2	-32.8	26.9	0.00e+00	0	41	0	1011875840	38	5591
2026-01-30 16:03:46.16	31.14	17.93	-32.1	-32.7	27.0	0.00e+00	0	41	0	1017118720	38	5523
2026-01-30 16:03:47.17	31.23	18.04	-32.2	-32.8	26.9	0.00e+00	0	41	0	1023410176	38	5604
2026-01-30 16:03:48.18	31.32	18.15	-32.1	-32.7	27.0	0.00e+00	0	41	0	1028653056	38	5541
2026-01-30 16:03:49.19	31.41	18.27	-32.0	-32.6	27.0	0.00e+00	0	41	0	1033895936	38	5495
2026-01-30 16:03:50.20	31.50	18.38	-31.9	-32.5	27.2	0.00e+00	0	41	0	1040187392	38	5411
2026-01-30 16:03:51.21	31.59	18.49	-32.1	-32.7	27.0	0.00e+00	0	41	0	1045430272	38	5518
2026-01-30 16:03:52.22	31.69	18.61	-31.8	-32.5	27.2	0.00e+00	0	41	0	1051721728	38	5394
2026-01-30 16:03:53.23	31.78	18.72	-31.8	-32.5	27.2	0.00e+00	0	41	0	1056964608	38	5398
2026-01-30 16:03:54.24	31.87	18.84	-31.8	-32.5	27.2	0.00e+00	0	41	0	1062207488	38	5400
2026-01-30 16:03:55.25	31.97	18.96	-32.0	-32.6	27.1	0.00e+00	0	41	0	1068498944	38	5493
2026-01-30 16:03:56.26	32.06	19.07	-32.0	-32.7	27.1	0.00e+00	0	41	0	1073741824	38	5520
2026-01-30 16:03:57.27	32.16	19.19	-32.2	-32.8	26.9	0.00e+00	0	41	0	1080033280	38	5620
2026-01-30 16:03:58.28	32.25	19.31	-32.0	-32.6	27.1	0.00e+00	0	41	0	1085276160	38	5491
2026-01-30 16:03:59.29	32.35	19.43	-32.0	-32.7	27.0	0.00e+00	0	41	0	1090519040	38	5515
2026-01-30 16:04:00.30	32.45	19.54	-31.9	-32.6	27.1	0.00e+00	0	41	0	1096810496	38	5447
2026-01-30 16:04:01.31	32.55	19.66	-31.9	-32.5	27.1	0.00e+00	0	41	0	1102053376	38	5438
2026-01-30 16:04:02.32	32.65	19.78	-31.8	-32.5	27.2	0.00e+00	0	41	0	1108344832	38	5379
2026-01-30 16:04:03.32	32.75	19.90	-31.7	-32.3	27.2	0.00e+00	0	41	0	1113587712	36	5927
2026-01-30 16:04:04.34	32.85	20.02	-31.7	-32.3	27.3	0.00e+00	0	41	0	1119879168	36	5933
2026-01-30 16:04:05.34	32.95	20.14	-31.7	-32.3	27.3	0.00e+00	0	41	0	1125122048	36	5952
2026-01-30 16:04:06.35	33.05	20.26	-31.8	-32.4	27.3	0.00e+00	0	41	0	1131413504	36	6010
2026-01-30 16:04:07.36	33.16	20.39	-31.6	-32.2	27.4	0.00e+00	0	41	0	1136656384	36	5891
2026-01-30 16:04:08.37	33.26	20.51	-31.6	-32.2	27.4	0.00e+00	0	41	0	1141899264	36	5860
2026-01-30 16:04:09.38	33.36	20.63	-31.6	-32.2	27.5	0.00e+00	0	41	0	1148190720	36	5858
2026-01-30 16:04:10.39	33.47	20.76	-31.7	-32.3	27.4	0.00e+00	0	41	0	1153433600	36	5927
2026-01-30 16:04:11.40	33.58	20.88	-31.7	-32.3	27.4	0.00e+00	0	41	0	1159725056	36	5923
2026-01-30 16:04:12.41	33.68	21.00	-31.6	-32.3	27.4	0.00e+00	0	41	0	1164967936	36	5901
2026-01-30 16:04:13.42	33.79	21.13	-31.8	-32.5	27.3	0.00e+00	0	41	0	1170210816	36	6040
2026-01-30 16:04:14.43	33.90	21.26	-31.6	-32.2	27.4	0.00e+00	0	41	0	1176502272	36	5882
2026-01-30 16:04:15.44	34.01	21.38	-31.6	-32.2	27.4	0.00e+00	0	41	0	1181745152	36	5871
2026-01-30 16:04:16.45	34.12	21.51	-31.6	-32.3	27.4	0.00e+00	0	41	0	1188036608	36	5899
2026-01-30 16:04:17.46	34.23	21.64	-31.5	-32.1	27.6	0.00e+00	0	41	0	1193279488	36	5777
2026-01-30 16:04:18.47	34.34	21.76	-31.5	-32.1	27.5	0.00e+00	0	41	0	1198522368	36	5790
2026-01-30 16:04:19.48	34.46	21.89	-31.3	-32.0	27.6	0.00e+00	0	41	0	1204813824	36	5707
2026-01-30 16:04:20.49	34.57	22.02	-31.4	-32.0	27.7	0.00e+00	0	41	0	1210056704	36	5725
2026-01-30 16:04:21.50	34.69	22.15	-31.2	-31.8	27.8	0.00e+00	0	41	0	1216348160	36	5622
2026-01-30 16:04:22.51	34.80	22.28	-31.2	-31.9	27.8	0.00e+00	0	41	0	1221591040	36	5641
2026-01-30 16:04:23.52	34.92	22.41	-31.3	-31.9	27.7	0.00e+00	0	41	0	1227882496	36	5661
2026-01-30 16:04:24.53	35.04	22.54	-31.2	-31.9	27.7	0.00e+00	0	41	0	1233125376	36	5635
2026-01-30 16:04:25.54	35.16	22.67	-31.1	-31.8	27.8	0.00e+00	0	41	0	1238368256	36	5579
2026-01-30 16:04:26.55	35.28	22.81	-31.2	-31.9	27.7	0.00e+00	0	41	0	1244659712	36	5645
2026-01-30 16:04:27.56	35.40	22.94	-31.1	-31.7	27.9	0.00e+00	0	41	0	1249902592	36	5563
2026-01-30 16:04:28.58	35.52	23.07	-31.1	-31.8	27.8	0.00e+00	0	41	0	1256194048	36	5572
2026-01-30 16:04:29.58	35.64	23.21	-31.0	-31.6	27.9	0.00e+00	0	41	0	1261436928	36	5484
2026-01-30 16:04:30.59	35.77	23.34	-31.0	-31.6	27.8	0.00e+00	0	41	0	1266679808	36	5494
2026-01-30 16:04:31.60	35.89	23.48	-31.1	-31.7	27.8	0.00e+00	0	41	0	1272971264	36	5558
2026-01-30 16:04:32.61	36.02	23.61	-31.0	-31.6	27.9	0.00e+00	0	41	0	1278214144	36	5490
2026-01-30 16:04:33.62	36.14	23.75	-31.1	-31.7	27.9	0.00e+00	0	41	0	1284505600	36	5537
2026-01-30 16:04:34.63	36.27	23.88	-31.2	-31.8	27.8	0.00e+00	0	41	0	1289748480	36	5583
2026-01-30 16:04:35.64	36.40	24.02	-31.1	-31.7	27.9	0.00e+00	0	41	0	1294991360	36	5541
2026-01-30 16:04:36.65	36.53	24.16	-31.1	-31.7	27.8	0.00e+00	0	41	0	1301282816	36	5532
2026-01-30 16:04:37.66	36.66	24.30	-30.9	-31.6	27.9	0.00e+00	0	41	0	1306525696	36	5457
2026-01-30 16:04:38.67	36.79	24.44	-30.9	-31.5	28.1	0.00e+00	0	41	0	1312817152	36	5433
2026-01-30 16:04:39.68	36.93	24.58	-31.0	-31.6	28.0	0.00e+00	0	41	0	1318060032	36	5455
2026-01-30 16:04:40.70	37.06	24.72	-30.9	-31.5	27.9	0.00e+00	0	41	0	1324351488	36	5428
2026-01-30 16:04:41.71	37.20	24.86	-30.7	-31.3	28.2	0.00e+00	0	41	0	1329594368	34	5954
2026-01-30 16:04:42.72	37.34	25.00	-30.9	-31.5	28.0	0.00e+00	0	41	0	1335885824	34	6074
2026-01-30 16:04:43.73	37.48	25.14	-30.6	-31.2	28.2	0.00e+00	0	41	0	1341128704	34	5896
2026-01-30 16:04:44.74	37.61	25.29	-30.7	-31.3	28.1	0.00e+00	0	41	0	1346371584	34	5959
2026-01-30 16:04:45.75	37.76	25.43	-30.7	-31.3	28.2	0.00e+00	0	41	0	1352663040	34	5929
2026-01-30 16:04:46.76	37.90	25.57	-30.7	-31.3	28.2	0.00e+00	0	41	0	1357905920	34	5939
2026-01-30 16:04:47.77	38.04	25.72	-30.6	-31.2	28.2	0.00e+00	0	41	0	1364197376	34	5891
2026-01-30 16:04:48.78	38.19	25.86	-30.8	-31.4	28.1	0.00e+00	0	41	0	1369440256	34	5988
2026-01-30 16:04:49.79	38.33	26.01	-30.8	-31.4	28.0	0.00e+00	0	41	0	1374683136	34	5995
2026-01-30 16:04:50.80	38.48	26.16	-30.8	-31.4	28.0	0.00e+00	0	41	0	1380974592	34	5986
2026-01-30 16:04:51.81	38.63	26.30	-30.9	-31.5	28.0	0.00e+00	0	41	0	1386217472	34	6083
2026-01-30 16:04:52.82	38.78	26.45	-30.8	-31.4	28.1	0.00e+00	0	41	0	1392508928	34	6022
2026-01-30 16:04:53.83	38.93	26.60	-30.7	-31.3	28.2	0.00e+00	0	41	0	1397751808	34	5963
2026-01-30 16:04:54.84	39.08	26.75	-30.6	-31.2	28.2	0.00e+00	0	41	0	1402994688	34	5874
2026-01-30 16:04:55.85	39.23	26.90	-30.5	-31.1	28.3	0.00e+00	0	41	0	1409286144	34	5806
2026-01-30 16:04:56.87	39.39	27.05	-30.6	-31.2	28.2	0.00e+00	0	41	0	1414529024	34	5858
2026-01-30 16:04:57.88	39.55	27.20	-30.5	-31.1	28.3	0.00e+00	0	41	0	1420820480	34	5800
2026-01-30 16:04:58.89	39.71	27.35	-30.5	-31.1	28.3	0.00e+00	0	41	0	1426063360	34	5818
2026-01-30 16:04:59.90	39.87	27.50	-30.5	-31.1	28.3	0.00e+00	0	41	0	1432354816	34	5796
2026-01-30 16:05:00.91	40.03	27.66	-30.4	-31.0	28.4	0.00e+00	0	41	0	1437597696	34	5752
2026-01-30 16:05:01.92	40.19	27.81	-30.5	-31.1	28.3	0.00e+00	0	41	0	1443889152	34	5784
2026-01-30 16:05:02.93	40.35	27.96	-30.5	-31.1	28.4	0.00e+00	0	41	0	1449132032	34	5809
2026-01-30 16:05:03.94	40.52	28.12	-30.6	-31.2	28.2	0.00e+00	0	41	0	1454374912	34	5880
2026-01-30 16:05:04.95	40.69	28.27	-30.7	-31.3	28.2	0.00e+00	0	41	0	1460666368	34	5932
2026-01-30 16:05:05.95	40.85	28.43	-30.6	-31.3	28.2	0.00e+00	0	41	0	1465909248	34	5912
2026-01-30 16:05:06.96	41.02	28.58	-30.7	-31.3	28.2	0.00e+00	0	41	0	1472200704	34	5943
2026-01-30 16:05:07.97	41.20	28.74	-30.6	-31.2	28.3	0.00e+00	0	41	0	1477443584	34	5881
2026-01-30 16:05:08.98	41.37	28.90	-30.6	-31.3	28.2	0.00e+00	0	41	0	1482686464	34	5925
2026-01-30 16:05:09.99	41.55	29.06	-30.7	-31.3	28.1	0.00e+00	0	41	0	1488977920	34	5937
2026-01-30 16:05:11.00	41.72	29.22	-30.7	-31.3	28.2	0.00e+00	0	41	0	1494220800	34	5922
2026-01-30 16:05:12.02	41.90	29.38	-30.7	-31.3	28.1	0.00e+00	0	41	0	1500512256	34	5951
2026-01-30 16:05:13.02	42.08	29.53	-30.8	-31.5	28.1	0.00e+00	0	41	0	1505755136	34	6034
2026-01-30 16:05:14.03	42.26	29.70	-30.8	-31.4	28.1	0.00e+00	0	41	0	1510998016	34	6028
2026-01-30 16:05:15.04	42.45	29.86	-30.7	-31.3	28.2	0.00e+00	0	41	0	1517289472	34	5910
2026-01-30 16:05:16.05	42.63	30.02	-30.6	-31.2	28.2	0.00e+00	0	41	0	1522532352	34	5888
2026-01-30 16:05:17.06	42.82	30.18	-30.6	-31.3	28.2	0.00e+00	0	41	0	1528823808	34	5908
2026-01-30 16:05:18.07	43.01	30.34	-30.7	-31.4	28.2	0.00e+00	0	41	0	1534066688	34	5974
2026-01-30 16:05:19.08	43.20	30.51	-30.8	-31.5	28.1	0.00e+00	0	41	0	1540358144	34	6036
2026-01-30 16:05:20.09	43.40	30.67	-30.6	-31.2	28.3	0.00e+00	0	41	0	1545601024	34	5868
2026-01-30 16:05:21.10	43.59	30.84	-30.8	-31.4	28.1	0.00e+00	0	41	0	1551892480	34	6022
2026-01-30 16:05:22.11	43.79	31.00	-30.5	-31.1	28.3	0.00e+00	0	41	0	1557135360	34	5806
2026-01-30 16:05:23.12	43.99	31.17	-30.6	-31.2	28.3	0.00e+00	0	41	0	1562378240	34	5847
2026-01-30 16:05:24.13	44.19	31.33	-30.5	-31.2	28.3	0.00e+00	0	41	0	1568669696	34	5836
2026-01-30 16:05:25.14	44.39	31.50	-30.5	-31.1	28.4	0.00e+00	0	41	0	1573912576	34	5777
2026-01-30 16:05:26.15	44.60	31.67	-30.5	-31.1	28.4	0.00e+00	0	41	0	1579155456	34	5776
2026-01-30 16:05:27.16	44.81	31.84	-30.1	-30.7	28.5	0.00e+00	0	41	0	1585446912	34	5548
2026-01-30 16:05:28.17	45.02	32.01	-30.2	-30.8	28.5	0.00e+00	0	41	0	1590689792	34	5577
2026-01-30 16:05:29.18	45.23	32.18	-30.1	-30.7	28.5	0.00e+00	0	41	0	1596981248	34	5560
2026-01-30 16:05:30.19	45.44	32.35	-30.4	-31.0	28.5	0.00e+00	0	41	0	1602224128	34	5734
2026-01-30 16:05:31.20	45.66	32.52	-30.3	-30.9	28.4	0.00e+00	0	41	0	1608515584	34	5695
2026-01-30 16:05:32.21	45.88	32.69	-30.3	-31.0	28.5	0.00e+00	0	41	0	1613758464	34	5696
2026-01-30 16:05:33.22	46.10	32.86	-30.5	-31.1	28.3	0.00e+00	0	41	0	1619001344	34	5795
2026-01-30 16:05:34.23	46.32	33.03	-30.5	-31.1	28.4	0.00e+00	0	41	0	1625292800	34	5805
2026-01-30 16:05:35.24	46.54	33.20	-30.6	-31.2	28.3	0.00e+00	0	41	0	1630535680	34	5854
2026-01-30 16:05:36.25	46.77	33.38	-30.6	-31.2	28.3	0.00e+00	0	41	0	1636827136	34	5862
2026-01-30 16:05:37.26	47.00	33.55	-30.6	-31.2	28.3	0.00e+00	0	41	0	1642070016	34	5837
2026-01-30 16:05:38.27	47.23	33.72	-30.2	-30.9	28.5	0.00e+00	0	41	0	1648361472	34	5642
2026-01-30 16:05:39.28	47.47	33.90	-30.2	-30.8	28.6	0.00e+00	0	41	0	1653604352	34	5572
2026-01-30 16:05:40.29	47.71	34.07	-30.1	-30.7	28.5	0.00e+00	0	41	0	1658847232	34	5534
2026-01-30 16:05:41.30	47.95	34.25	-30.0	-30.7	28.8	0.00e+00	0	41	0	1665138688	34	5503
2026-01-30 16:05:42.31	48.19	34.43	-30.2	-30.8	28.6	0.00e+00	0	41	0	1670381568	34	5592
2026-01-30 16:05:43.32	48.43	34.60	-30.2	-30.8	28.4	0.00e+00	0	41	0	1676673024	34	5598
2026-01-30 16:05:44.32	48.68	34.78	-30.5	-31.1	28.3	0.00e+00	0	41	0	1681915904	34	5795
2026-01-30 16:05:45.33	48.93	34.95	-30.5	-31.2	28.2	0.00e+00	0	41	0	1687158784	34	5849
2026-01-30 16:05:46.34	49.18	35.13	-30.5	-31.2	28.2	0.00e+00	0	41	0	1693450240	34	5832
2026-01-30 16:05:47.36	49.44	35.31	-30.6	-31.2	28.2	0.00e+00	0	41	0	1698693120	34	5878
2026-01-30 16:05:48.36	49.70	35.49	-30.6	-31.2	28.3	0.00e+00	0	41	0	1704984576	34	5874
2026-01-30 16:05:49.37	49.96	35.67	-30.2	-30.8	28.6	0.00e+00	0	41	0	1710227456	34	5590
2026-01-30 16:05:50.38	50.22	35.85	-29.9	-30.5	28.8	0.00e+00	0	41	0	1715470336	34	5418
2026-01-30 16:05:51.39	50.49	36.03	-29.9	-30.5	28.8	0.00e+00	0	41	0	1721761792	34	5382
2026-01-30 16:05:52.40	50.76	36.21	-29.8	-30.4	28.8	0.00e+00	0	41	0	1727004672	34	5355
2026-01-30 16:05:53.41	51.03	36.39	-30.0	-30.6	28.7	0.00e+00	0	41	0	1733296128	34	5455
2026-01-30 16:05:54.42	51.31	36.57	-30.0	-30.6	28.5	0.00e+00	0	41	0	1738539008	34	5464
2026-01-30 16:05:55.43	51.59	36.75	-30.1	-30.7	28.5	0.00e+00	0	41	0	1744830464	34	5512
2026-01-30 16:05:56.44	51.87	36.93	-30.2	-30.8	28.5	0.00e+00	0	41	0	1750073344	34	5602
2026-01-30 16:05:57.45	52.15	37.11	-30.3	-30.9	28.6	0.00e+00	0	41	0	1756364800	34	5644
2026-01-30 16:05:58.46	52.44	37.29	-30.3	-30.9	28.5	0.00e+00	0	41	0	1761607680	34	5679
2026-01-30 16:05:59.48	52.74	37.47	-30.1	-30.8	28.7	0.00e+00	0	41	0	1766850560	34	5567
2026-01-30 16:06:00.49	53.03	37.66	-29.8	-30.4	28.8	0.00e+00	0	41	0	1773142016	34	5359
2026-01-30 16:06:01.50	53.33	37.84	-29.9	-30.5	28.8	0.00e+00	0	41	0	1778384896	34	5408
2026-01-30 16:06:02.51	53.63	38.02	-29.9	-30.5	28.8	0.00e+00	0	41	0	1784676352	34	5395
2026-01-30 16:06:03.52	53.93	38.20	-30.0	-30.6	28.7	0.00e+00	0	41	0	1789919232	34	5462
2026-01-30 16:06:04.53	54.24	38.39	-30.3	-30.9	28.5	0.00e+00	0	41	0	1795162112	34	5682
2026-01-30 16:06:05.54	54.55	38.57	-30.3	-31.0	28.5	0.00e+00	0	41	0	1801453568	34	5719
2026-01-30 16:06:06.54	54.86	38.75	-30.3	-30.9	28.6	0.00e+00	0	41	0	1806696448	34	5682
2026-01-30 16:06:07.55	55.18	38.93	-30.1	-30.7	28.7	0.00e+00	0	41	0	1812987904	34	5523
2026-01-30 16:06:08.56	55.50	39.11	-29.9	-30.6	28.6	0.00e+00	0	41	0	1818230784	34	5443
2026-01-30 16:06:09.57	55.83	39.30	-29.9	-30.5	28.7	0.00e+00	0	41	0	1823473664	34	5392
2026-01-30 16:06:10.58	56.16	39.48	-30.1	-30.7	28.8	0.00e+00	0	41	0	1829765120	34	5527
2026-01-30 16:06:11.59	56.49	39.66	-29.8	-30.4	29.0	0.00e+00	0	41	0	1835008000	34	5361
2026-01-30 16:06:12.60	56.83	39.84	-30.1	-30.7	28.7	0.00e+00	0	41	0	1841299456	34	5506
2026-01-30 16:06:13.61	57.17	40.03	-30.3	-31.0	28.5	0.00e+00	0	41	0	1846542336	34	5700
2026-01-30 16:06:14.61	57.51	40.21	-30.6	-31.2	28.4	0.00e+00	0	41	0	1852833792	34	5883
2026-01-30 16:06:15.62	57.85	40.39	-30.4	-31.1	28.5	0.00e+00	0	41	0	1858076672	34	5763
2026-01-30 16:06:16.63	58.21	40.57	-30.3	-30.9	28.6	0.00e+00	0	41	0	1863319552	34	5656
2026-01-30 16:06:17.64	58.56	40.75	-30.3	-30.9	28.5	0.00e+00	0	41	0	1869611008	34	5656
2026-01-30 16:06:18.66	58.92	40.93	-30.1	-30.7	28.7	0.00e+00	0	41	0	1874853888	34	5544
2026-01-30 16:06:19.67	59.29	41.11	-30.0	-30.6	28.7	0.00e+00	0	41	0	1881145344	34	5489
2026-01-30 16:06:20.68	59.66	41.29	-30.2	-30.8	28.5	0.00e+00	0	41	0	1886388224	34	5629
2026-01-30 16:06:21.69	60.03	41.47	-30.3	-30.9	28.5	0.00e+00	0	41	0	1891631104	34	5669
2026-01-30 16:06:22.69	60.40	41.65	-30.4	-31.0	28.5	0.00e+00	0	41	0	1897922560	34	5728
2026-01-30 16:06:23.71	60.78	41.83	-30.1	-30.8	28.6	0.00e+00	0	41	0	1903165440	34	5572
2026-01-30 16:06:24.72	61.17	42.01	-30.1	-30.7	28.6	0.00e+00	0	41	0	1909456896	34	5540
2026-01-30 16:06:25.73	61.55	42.19	-30.2	-30.8	28.6	0.00e+00	0	41	0	1914699776	34	5575
2026-01-30 16:06:26.74	61.95	42.37	-30.2	-30.8	28.6	0.00e+00	0	41	0	1919942656	34	5587
2026-01-30 16:06:27.75	62.34	42.54	-30.0	-30.6	28.7	0.00e+00	0	41	0	1926234112	34	5483
2026-01-30 16:06:28.76	62.74	42.72	-30.1	-30.6	28.6	0.00e+00	0	41	0	1931476992	34	5494
2026-01-30 16:06:29.77	63.15	42.89	-30.2	-30.8	28.4	0.00e+00	0	41	0	1937768448	34	5576
2026-01-30 16:06:30.78	63.56	43.07	-30.1	-30.8	28.4	0.00e+00	0	41	0	1943011328	34	5567
2026-01-30 16:06:31.79	63.97	43.24	-30.3	-30.9	28.5	0.00e+00	0	41	0	1949302784	34	5639
2026-01-30 16:06:32.80	64.39	43.41	-30.4	-31.0	28.4	0.00e+00	0	41	0	1954545664	34	5721
2026-01-30 16:06:33.81	64.81	43.59	-30.4	-31.0	28.4	0.00e+00	0	41	0	1960837120	34	5716
2026-01-30 16:06:34.82	65.24	43.76	-30.2	-30.9	28.6	0.00e+00	0	41	0	1966080000	34	5635
2026-01-30 16:06:35.83	65.67	43.93	-30.2	-30.8	28.5	0.00e+00	0	41	0	1971322880	34	5608
2026-01-30 16:06:36.84	66.11	44.10	-30.2	-30.8	28.6	0.00e+00	0	41	0	1977614336	34	5586
2026-01-30 16:06:37.85	66.55	44.26	-30.3	-31.0	28.4	0.00e+00	0	41	0	1982857216	34	5724
2026-01-30 16:06:38.86	67.00	44.43	-30.5	-31.1	28.4	0.00e+00	0	41	0	1989148672	34	5785
2026-01-30 16:06:39.87	67.45	44.60	-30.8	-31.4	28.2	0.00e+00	0	41	0	1994391552	34	5975
2026-01-30 16:06:40.88	67.90	44.76	-30.6	-31.2	28.3	0.00e+00	0	41	0	1999634432	34	5875
2026-01-30 16:06:41.89	68.36	44.92	-30.5	-31.1	28.4	0.00e+00	0	41	0	2005925888	34	5791
2026-01-30 16:06:42.90	68.83	45.09	-30.5	-31.1	28.4	0.00e+00	0	41	0	2011168768	34	5781
2026-01-30 16:06:43.91	69.30	45.25	-30.5	-31.2	28.4	0.00e+00	0	41	0	2017460224	34	5843
2026-01-30 16:06:44.92	69.77	45.41	-30.7	-31.3	28.3	0.00e+00	0	41	0	2022703104	34	5920
2026-01-30 16:06:45.93	70.25	45.56	-30.7	-31.3	28.2	0.00e+00	0	41	0	2027945984	34	5920
2026-01-30 16:06:46.94	70.73	45.72	-30.8	-31.4	28.2	0.00e+00	0	41	0	2034237440	34	6013
2026-01-30 16:06:47.96	71.23	45.87	-30.5	-31.1	28.4	0.00e+00	0	41	0	2039480320	34	5808
2026-01-30 16:06:48.97	71.72	46.03	-30.5	-31.1	28.4	0.00e+00	0	41	0	2045771776	34	5803
2026-01-30 16:06:49.98	72.22	46.18	-30.5	-31.1	28.4	0.00e+00	0	41	0	2051014656	34	5826
2026-01-30 16:06:50.99	72.72	46.33	-30.6	-31.2	28.3	0.00e+00	0	41	0	2057306112	34	5849
2026-01-30 16:06:52.00	73.23	46.47	-30.4	-31.1	28.5	0.00e+00	0	41	0	2062548992	34	5764
2026-01-30 16:06:53.01	73.74	46.62	-30.2	-30.8	28.6	0.00e+00	0	41	0	2068840448	34	5567
2026-01-30 16:06:54.02	74.26	46.76	-30.2	-30.7	28.6	0.00e+00	0	41	0	2074083328	34	5557
2026-01-30 16:06:55.03	74.78	46.90	-30.3	-30.9	28.6	0.00e+00	0	41	0	2079326208	34	5681
2026-01-30 16:06:56.04	75.30	47.04	-30.5	-31.2	28.3	0.00e+00	0	41	0	2085617664	34	5835
2026-01-30 16:06:57.05	75.83	47.18	-30.5	-31.1	28.3	0.00e+00	0	41	0	2090860544	34	5815
2026-01-30 16:06:58.07	76.37	47.32	-30.5	-31.1	28.4	0.00e+00	0	41	0	2097152000	34	5808
2026-01-30 16:06:59.08	76.91	47.45	-30.6	-31.2	28.3	0.00e+00	0	41	0	2102394880	34	5858
2026-01-30 16:07:00.09	77.46	47.58	-30.6	-31.2	28.4	0.00e+00	0	41	0	2107637760	34	5845
2026-01-30 16:07:01.10	78.01	47.71	-30.4	-31.0	28.5	0.00e+00	0	41	0	2113929216	34	5728
2026-01-30 16:07:02.10	78.55	47.83	-30.4	-31.0	28.5	0.00e+00	0	41	0	2119172096	34	5700
2026-01-30 16:07:03.11	79.11	47.95	-30.4	-31.0	28.4	0.00e+00	0	41	0	2125463552	34	5699
2026-01-30 16:07:04.12	79.67	48.07	-30.4	-31.1	28.3	0.00e+00	0	41	0	2130706432	34	5776
2026-01-30 16:07:05.13	80.24	48.19	-30.3	-30.9	28.5	0.00e+00	0	41	0	2135949312	34	5685
2026-01-30 16:07:06.14	80.81	48.31	-30.4	-31.0	28.5	0.00e+00	0	41	0	2142240768	34	5705
2026-01-30 16:07:07.15	81.38	48.42	-30.4	-31.0	28.5	0.00e+00	0	41	0	2147483648	34	5707
2026-01-30 16:07:08.16	81.96	48.53	-30.4	-31.0	28.4	0.00e+00	0	41	0	2153775104	34	5748
2026-01-30 16:07:09.17	82.55	48.64	-30.5	-31.1	28.3	0.00e+00	0	41	0	2159017984	34	5813
2026-01-30 16:07:10.18	83.13	48.74	-30.5	-31.2	28.3	0.00e+00	0	41	0	2165309440	34	5835
2026-01-30 16:07:11.19	83.72	48.84	-30.5	-31.1	28.3	0.00e+00	0	41	0	2170552320	34	5810
2026-01-30 16:07:12.20	84.32	48.94	-30.5	-31.2	28.3	0.00e+00	0	41	0	2176843776	34	5831
2026-01-30 16:07:13.21	84.92	49.03	-30.4	-31.0	28.4	0.00e+00	0	41	0	2182086656	34	5742
2026-01-30 16:07:14.22	85.52	49.13	-30.6	-31.2	28.3	0.00e+00	0	41	0	2187329536	34	5865
2026-01-30 16:07:15.23	86.12	49.21	-30.6	-31.3	28.3	0.00e+00	0	41	0	2193620992	34	5909
2026-01-30 16:07:16.24	86.73	49.30	-30.7	-31.3	28.2	0.00e+00	0	41	0	2198863872	34	5924
2026-01-30 16:07:17.25	87.35	49.38	-30.6	-31.2	28.3	0.00e+00	0	41	0	2205155328	34	5889
2026-01-30 16:07:18.26	87.96	49.46	-30.5	-31.1	28.4	0.00e+00	0	41	0	2210398208	34	5820
2026-01-30 16:07:19.27	88.58	49.54	-30.5	-31.1	28.3	0.00e+00	0	41	0	2215641088	34	5808
2026-01-30 16:07:20.28	89.20	49.61	-30.7	-31.4	28.2	0.00e+00	0	41	0	2221932544	34	5995
2026-01-30 16:07:21.29	89.83	49.68	-30.9	-31.5	28.2	0.00e+00	0	41	0	2227175424	34	6074
2026-01-30 16:07:22.31	90.46	49.74	-30.5	-31.1	28.3	0.00e+00	0	41	0	2233466880	34	5776
2026-01-30 16:07:23.32	91.09	49.80	-30.5	-31.1	28.4	0.00e+00	0	41	0	2238709760	34	5795
2026-01-30 16:07:24.33	91.72	49.86	-30.2	-30.9	28.6	0.00e+00	0	41	0	2243952640	34	5633
2026-01-30 16:07:25.34	92.36	49.92	-30.5	-31.1	28.4	0.00e+00	0	41	0	2250244096	34	5812
2026-01-30 16:07:26.34	92.99	49.97	-30.7	-31.3	28.3	0.00e+00	0	41	0	2255486976	34	5951
2026-01-30 16:07:27.35	93.63	50.02	-30.6	-31.2	28.3	0.00e+00	0	41	0	2261778432	34	5886
2026-01-30 16:07:28.37	94.27	50.06	-30.5	-31.2	28.3	0.00e+00	0	41	0	2267021312	34	5838
2026-01-30 16:07:29.38	94.92	50.10	-30.8	-31.4	28.1	0.00e+00	0	41	0	2273312768	34	5992
2026-01-30 16:07:30.38	95.55	50.14	-30.9	-31.5	28.1	0.00e+00	0	41	0	2278555648	34	6063
2026-01-30 16:07:31.39	96.20	50.17	-30.7	-31.3	28.3	0.00e+00	0	41	0	2283798528	34	5903
2026-01-30 16:07:32.41	96.85	50.20	-30.5	-31.1	28.4	0.00e+00	0	41	0	2290089984	34	5767
2026-01-30 16:07:33.41	97.49	50.22	-30.5	-31.1	28.3	0.00e+00	0	41	0	2295332864	34	5807
2026-01-30 16:07:34.43	98.15	50.24	-30.5	-31.1	28.4	0.00e+00	0	41	0	2301624320	34	5828
2026-01-30 16:07:35.44	98.80	50.26	-30.8	-31.5	28.1	0.00e+00	0	41	0	2306867200	34	6067
2026-01-30 16:07:36.45	99.45	50.27	-31.0	-31.7	27.9	0.00e+00	0	41	0	2312110080	34	6208
2026-01-30 16:07:37.46	100.10	50.28	-30.7	-31.4	28.2	0.00e+00	0	41	0	2318401536	34	6003
2026-01-30 16:07:38.47	100.75	50.29	-30.8	-31.4	28.1	0.00e+00	0	41	0	2323644416	34	6030
2026-01-30 16:07:39.48	101.40	50.29	-30.6	-31.3	28.2	0.00e+00	0	41	0	2329935872	34	5899
2026-01-30 16:07:40.49	102.06	50.29	-30.9	-31.6	28.1	0.00e+00	0	41	0	2335178752	34	6129
2026-01-30 16:07:41.50	102.71	50.28	-30.8	-31.4	28.1	0.00e+00	0	41	0	2341470208	34	6010
2026-01-30 16:07:42.51	103.36	50.28	-30.7	-31.3	28.1	0.00e+00	0	41	0	2346713088	34	5936
2026-01-30 16:07:43.52	104.01	50.26	-30.6	-31.2	28.3	0.00e+00	0	41	0	2351955968	34	5889
2026-01-30 16:07:44.53	104.66	50.24	-30.6	-31.2	28.3	0.00e+00	0	41	0	2358247424	34	5860
2026-01-30 16:07:45.54	105.31	50.22	-30.7	-31.3	28.1	0.00e+00	0	41	0	2363490304	34	5912
2026-01-30 16:07:46.55	105.96	50.20	-30.9	-31.5	27.9	0.00e+00	0	41	0	2369781760	34	6057
2026-01-30 16:07:47.56	106.61	50.17	-31.0	-31.6	27.8	0.00e+00	0	41	0	2375024640	34	6169
2026-01-30 16:07:48.57	107.25	50.14	-30.9	-31.5	27.9	0.00e+00	0	41	0	2381316096	34	6093
2026-01-30 16:07:49.58	107.90	50.10	-30.7	-31.4	28.1	0.00e+00	0	41	0	2386558976	34	5969
2026-01-30 16:07:50.59	108.54	50.06	-30.6	-31.2	28.3	0.00e+00	0	41	0	2391801856	34	5870
2026-01-30 16:07:51.60	109.18	50.02	-30.9	-31.5	28.0	0.00e+00	0	41	0	2398093312	34	6051
2026-01-30 16:07:52.61	109.82	49.97	-31.3	-31.9	27.7	0.00e+00	0	41	0	2403336192	34	6349
2026-01-30 16:07:53.62	110.46	49.92	-30.7	-31.4	28.1	0.00e+00	0	41	0	2409627648	34	5981
2026-01-30 16:07:54.63	111.09	49.87	-30.8	-31.4	28.2	0.00e+00	0	41	0	2414870528	34	5988
2026-01-30 16:07:55.64	111.73	49.81	-31.0	-31.6	28.0	0.00e+00	0	41	0	2420113408	34	6152
2026-01-30 16:07:56.65	112.36	49.75	-30.9	-31.5	28.1	0.00e+00	0	41	0	2426404864	34	6045
2026-01-30 16:07:57.66	112.98	49.68	-30.8	-31.4	28.1	0.00e+00	0	41	0	2431647744	34	6016
2026-01-30 16:07:58.67	113.61	49.61	-30.6	-31.2	28.3	0.00e+00	0	41	0	2437939200	34	5831
2026-01-30 16:07:59.68	114.23	49.54	-30.6	-31.2	28.3	0.00e+00	0	41	0	2443182080	34	5841
2026-01-30 16:08:00.68	114.85	49.47	-30.4	-31.0	28.4	0.00e+00	0	41	0	2448424960	34	5728
2026-01-30 16:08:01.70	115.47	49.39	-30.4	-31.1	28.5	0.00e+00	0	41	0	2454716416	34	5764
2026-01-30 16:08:02.71	116.08	49.30	-30.5	-31.1	28.3	0.00e+00	0	41	0	2459959296	34	5799
2026-01-30 16:08:03.72	116.69	49.22	-30.8	-31.4	28.1	0.00e+00	0	41	0	2466250752	34	6004
2026-01-30 16:08:04.73	117.30	49.13	-31.1	-31.7	27.9	0.00e+00	0	41	0	2471493632	34	6237
2026-01-30 16:08:05.74	117.90	49.04	-31.2	-31.9	27.8	0.00e+00	0	41	0	2477785088	34	6342
2026-01-30 16:08:06.75	118.50	48.94	-31.1	-31.6	27.9	0.00e+00	0	41	0	2483027968	34	6168
2026-01-30 16:08:07.76	119.09	48.85	-31.0	-31.6	28.0	0.00e+00	0	41	0	2489319424	34	6134
2026-01-30 16:08:08.77	119.69	48.74	-30.8	-31.4	28.2	0.00e+00	0	41	0	2494562304	34	5974
2026-01-30 16:08:09.78	120.27	48.64	-30.8	-31.5	28.2	0.00e+00	0	41	0	2499805184	34	6058
2026-01-30 16:08:10.79	120.86	48.53	-31.0	-31.5	27.9	0.00e+00	0	41	0	2506096640	34	6085
2026-01-30 16:08:11.80	121.44	48.42	-31.0	-31.6	28.0	0.00e+00	0	41	0	2511339520	34	6163
2026-01-30 16:08:12.81	122.01	48.31	-31.0	-31.6	28.0	0.00e+00	0	41	0	2517630976	34	6166
2026-01-30 16:08:13.82	122.59	48.20	-30.9	-31.4	28.0	0.00e+00	0	41	0	2522873856	34	6009
2026-01-30 16:08:14.83	123.15	48.08	-30.8	-31.5	28.1	0.00e+00	0	41	0	2528116736	34	6043
2026-01-30 16:08:15.84	123.72	47.96	-31.1	-31.6	27.9	0.00e+00	0	41	0	2534408192	34	6149
2026-01-30 16:08:16.85	124.27	47.83	-31.4	-32.1	27.7	0.00e+00	0	41	0	2539651072	34	6521
2026-01-30 16:08:17.86	124.83	47.71	-31.4	-32.0	27.6	0.00e+00	0	41	0	2545942528	34	6447
2026-01-30 16:08:18.87	125.38	47.58	-31.1	-31.7	27.8	0.00e+00	0	41	0	2551185408	34	6212
2026-01-30 16:08:19.88	125.92	47.45	-30.7	-31.3	28.2	0.00e+00	0	41	0	2556428288	34	5912
2026-01-30 16:08:20.89	126.46	47.32	-30.6	-31.3	28.2	0.00e+00	0	41	0	2562719744	34	5944
2026-01-30 16:08:21.90	127.00	47.18	-30.7	-31.2	28.2	0.00e+00	0	41	0	2567962624	34	5896
2026-01-30 16:08:22.91	127.53	47.05	-30.7	-31.3	28.2	0.00e+00	0	41	0	2574254080	34	5952
2026-01-30 16:08:23.92	128.06	46.91	-30.5	-31.2	28.4	0.00e+00	0	41	0	2579496960	34	5832
2026-01-30 16:08:24.93	128.58	46.76	-30.5	-31.1	28.3	0.00e+00	0	41	0	2585788416	34	5809
2026-01-30 16:08:25.94	129.10	46.62	-30.7	-31.4	28.2	0.00e+00	0	41	0	2591031296	34	6001
2026-01-30 16:08:26.95	129.61	46.48	-30.9	-31.5	28.0	0.00e+00	0	41	0	2597322752	34	6102
2026-01-30 16:08:27.96	130.12	46.33	-30.9	-31.6	28.1	0.00e+00	0	41	0	2602565632	34	6170
2026-01-30 16:08:28.97	130.62	46.18	-30.9	-31.5	28.0	0.00e+00	0	41	0	2607808512	34	6088
2026-01-30 16:08:29.98	131.12	46.03	-30.9	-31.4	28.0	0.00e+00	0	41	0	2614099968	34	6031
2026-01-30 16:08:30.99	131.62	45.87	-30.7	-31.3	28.2	0.00e+00	0	41	0	2619342848	34	5927
2026-01-30 16:08:32.00	132.11	45.72	-30.5	-31.1	28.4	0.00e+00	0	41	0	2625634304	34	5825
2026-01-30 16:08:33.02	132.60	45.56	-30.5	-31.0	28.4	0.00e+00	0	41	0	2630877184	34	5738
2026-01-30 16:08:34.03	133.08	45.40	-30.3	-31.0	28.4	0.00e+00	0	41	0	2636120064	34	5723
2026-01-30 16:08:35.04	133.55	45.24	-30.4	-30.9	28.4	0.00e+00	0	41	0	2642411520	34	5658
2026-01-30 16:08:36.05	134.02	45.08	-30.4	-31.0	28.4	0.00e+00	0	41	0	2647654400	34	5713
2026-01-30 16:08:37.06	134.49	44.92	-30.6	-31.2	28.3	0.00e+00	0	41	0	2653945856	34	5856
2026-01-30 16:08:38.07	134.95	44.76	-30.5	-31.2	28.2	0.00e+00	0	41	0	2659188736	34	5870
2026-01-30 16:08:39.08	135.40	44.59	-30.4	-31.1	28.4	0.00e+00	0	41	0	2664431616	34	5791
2026-01-30 16:08:40.09	135.86	44.43	-30.4	-31.1	28.4	0.00e+00	0	41	0	2670723072	34	5776
2026-01-30 16:08:41.10	136.30	44.26	-30.6	-31.2	28.3	0.00e+00	0	41	0	2675965952	34	5868
2026-01-30 16:08:42.11	136.75	44.09	-30.6	-31.3	28.3	0.00e+00	0	41	0	2682257408	34	5954
2026-01-30 16:08:43.12	137.18	43.92	-30.7	-31.4	28.3	0.00e+00	0	41	0	2687500288	34	5972
2026-01-30 16:08:44.13	137.62	43.75	-30.4	-30.9	28.4	0.00e+00	0	41	0	2693791744	34	5680
2026-01-30 16:08:45.14	138.05	43.58	-30.4	-31.0	28.4	0.00e+00	0	41	0	2699034624	34	5713
2026-01-30 16:08:46.15	138.47	43.41	-30.3	-30.9	28.5	0.00e+00	0	41	0	2705326080	34	5635
2026-01-30 16:08:47.16	138.89	43.23	-30.0	-30.6	28.7	0.00e+00	0	41	0	2710568960	34	5448
2026-01-30 16:08:48.17	139.30	43.06	-29.9	-30.5	28.7	0.00e+00	0	41	0	2715811840	34	5420
2026-01-30 16:08:49.18	139.72	42.88	-30.0	-30.7	28.8	0.00e+00	0	41	0	2722103296	34	5514
2026-01-30 16:08:50.19	140.12	42.71	-30.3	-30.8	28.4	0.00e+00	0	41	0	2727346176	34	5609
2026-01-30 16:08:51.20	140.52	42.53	-30.3	-31.0	28.4	0.00e+00	0	41	0	2733637632	34	5738
2026-01-30 16:08:52.21	140.92	42.35	-30.4	-31.1	28.4	0.00e+00	0	41	0	2738880512	34	5781
2026-01-30 16:08:53.22	141.31	42.18	-30.3	-31.0	28.5	0.00e+00	0	41	0	2744123392	34	5723
2026-01-30 16:08:54.23	141.70	42.00	-30.0	-30.6	28.8	0.00e+00	0	41	0	2750414848	34	5479
2026-01-30 16:08:55.24	142.09	41.82	-29.9	-30.5	28.8	0.00e+00	0	41	0	2755657728	34	5401
2026-01-30 16:08:56.25	142.47	41.64	-30.0	-30.6	28.7	0.00e+00	0	41	0	2761949184	34	5494
2026-01-30 16:08:57.26	142.85	41.46	-30.1	-30.7	28.6	0.00e+00	0	41	0	2767192064	34	5566
2026-01-30 16:08:58.27	143.22	41.28	-30.2	-30.8	28.5	0.00e+00	0	41	0	2772434944	34	5571
2026-01-30 16:08:59.29	143.59	41.10	-30.2	-30.9	28.6	0.00e+00	0	41	0	2778726400	34	5663
2026-01-30 16:09:00.30	143.95	40.91	-30.0	-30.6	28.6	0.00e+00	0	41	0	2783969280	34	5480
2026-01-30 16:09:01.31	144.31	40.73	-29.8	-30.3	28.8	0.00e+00	0	41	0	2790260736	34	5315
2026-01-30 16:09:02.31	144.67	40.55	-30.0	-30.6	28.7	0.00e+00	0	41	0	2795503616	34	5480
2026-01-30 16:09:03.32	145.02	40.37	-29.8	-30.3	28.8	0.00e+00	0	41	0	2801795072	34	5278
2026-01-30 16:09:04.33	145.37	40.19	-30.1	-30.6	28.6	0.00e+00	0	41	0	2807037952	34	5478
2026-01-30 16:09:05.34	145.71	40.00	-29.9	-30.5	28.7	0.00e+00	0	41	0	2812280832	34	5406
2026-01-30 16:09:06.35	146.05	39.82	-30.1	-30.7	28.5	0.00e+00	0	41	0	2818572288	34	5516
2026-01-30 16:09:07.36	146.39	39.64	-29.8	-30.5	28.7	0.00e+00	0	41	0	2823815168	34	5399
2026-01-30 16:09:08.37	146.72	39.46	-29.8	-30.3	28.6	0.00e+00	0	41	0	2830106624	32	5911
2026-01-30 16:09:09.38	147.05	39.27	-29.8	-30.3	28.8	0.00e+00	0	41	0	2835349504	32	5959
2026-01-30 16:09:10.39	147.38	39.09	-30.0	-30.5	28.5	0.00e+00	0	41	0	2840592384	32	6056
2026-01-30 16:09:11.40	147.70	38.91	-30.1	-30.8	28.3	0.00e+00	0	41	0	2846883840	32	6255
2026-01-30 16:09:12.41	148.02	38.72	-30.1	-30.6	28.1	0.00e+00	0	41	0	2852126720	32	6141
2026-01-30 16:09:13.42	148.34	38.54	-30.0	-30.6	28.3	0.00e+00	0	41	0	2858418176	32	6131
2026-01-30 16:09:14.43	148.65	38.36	-30.0	-30.5	28.6	0.00e+00	0	41	0	2863661056	32	6091
2026-01-30 16:09:15.44	148.96	38.17	-29.9	-30.5	28.5	0.00e+00	0	41	0	2868903936	32	6056
2026-01-30 16:09:16.45	149.26	37.99	-29.9	-30.6	28.5	0.00e+00	0	41	0	2875195392	32	6147
2026-01-30 16:09:17.46	149.56	37.81	-29.9	-30.5	28.5	0.00e+00	0	41	0	2880438272	32	6049
2026-01-30 16:09:18.47	149.86	37.62	-29.9	-30.4	28.8	0.00e+00	0	41	0	2886729728	32	5987
2026-01-30 16:09:19.48	150.16	37.44	-29.8	-30.5	28.7	0.00e+00	0	41	0	2891972608	32	6052
2026-01-30 16:09:20.49	150.45	37.26	-29.9	-30.4	28.7	0.00e+00	0	41	0	2898264064	32	6018
2026-01-30 16:09:21.49	150.74	37.08	-29.9	-30.5	28.8	0.00e+00	0	41	0	2903506944	32	6096
2026-01-30 16:09:22.50	151.02	36.90	-30.0	-30.7	28.7	0.00e+00	0	41	0	2909798400	32	6218
2026-01-30 16:09:23.52	151.31	36.71	-30.1	-30.8	28.6	0.00e+00	0	41	0	2915041280	32	6283
2026-01-30 16:09:24.52	151.58	36.53	-30.2	-30.8	28.5	0.00e+00	0	41	0	2920284160	32	6262
2026-01-30 16:09:25.53	151.86	36.35	-30.2	-30.7	28.5	0.00e+00	0	41	0	2926575616	32	6227
2026-01-30 16:09:26.54	152.13	36.17	-30.1	-30.7	28.7	0.00e+00	0	41	0	2931818496	32	6243
2026-01-30 16:09:27.56	152.41	35.99	-30.1	-30.7	28.7	0.00e+00	0	41	0	2938109952	32	6229
2026-01-30 16:09:28.56	152.67	35.81	-29.8	-30.4	28.7	0.00e+00	0	41	0	2943352832	32	5978
2026-01-30 16:09:29.58	152.94	35.63	-29.8	-30.5	28.8	0.00e+00	0	41	0	2948595712	32	6072
2026-01-30 16:09:30.58	153.20	35.45	-29.8	-30.5	28.7	0.00e+00	0	41	0	2954887168	32	6058
2026-01-30 16:09:31.59	153.46	35.27	-29.9	-30.6	28.7	0.00e+00	0	41	0	2960130048	32	6147
2026-01-30 16:09:32.60	153.71	35.09	-30.1	-30.8	28.6	0.00e+00	0	41	0	2966421504	32	6260
2026-01-30 16:09:33.62	153.97	34.91	-30.2	-30.7	28.5	0.00e+00	0	41	0	2971664384	32	6232
2026-01-30 16:09:34.63	154.22	34.73	-30.2	-30.9	28.6	0.00e+00	0	41	0	2976907264	32	6337
2026-01-30 16:09:35.64	154.47	34.55	-30.4	-30.9	28.4	0.00e+00	0	41	0	2983198720	32	6365
2026-01-30 16:09:36.65	154.71	34.38	-30.2	-30.8	28.5	0.00e+00	0	41	0	2988441600	32	6252
2026-01-30 16:09:37.66	154.95	34.20	-30.3	-30.8	28.4	0.00e+00	0	41	0	2994733056	32	6298
2026-01-30 16:09:38.67	155.20	34.02	-30.0	-30.7	28.7	0.00e+00	0	41	0	2999975936	32	6197
2026-01-30 16:09:39.68	155.43	33.85	-30.0	-30.5	28.6	0.00e+00	0	41	0	3006267392	32	6072
2026-01-30 16:09:40.69	155.67	33.67	-30.1	-30.6	28.6	0.00e+00	0	41	0	3011510272	32	6136
2026-01-30 16:09:41.70	155.90	33.50	-30.1	-30.6	28.6	0.00e+00	0	41	0	3016753152	32	6157
2026-01-30 16:09:42.71	156.13	33.32	-30.1	-30.7	28.6	0.00e+00	0	41	0	3023044608	32	6184
2026-01-30 16:09:43.72	156.36	33.15	-30.2	-30.8	28.5	0.00e+00	0	41	0	3028287488	32	6275
2026-01-30 16:09:44.73	156.58	32.98	-30.0	-30.7	28.6	0.00e+00	0	41	0	3034578944	32	6215
2026-01-30 16:09:45.74	156.81	32.80	-30.1	-30.6	28.6	0.00e+00	0	41	0	3039821824	32	6133
2026-01-30 16:09:46.75	157.03	32.63	-30.0	-30.5	28.6	0.00e+00	0	41	0	3046113280	32	6103
2026-01-30 16:09:47.76	157.25	32.46	-30.1	-30.7	28.5	0.00e+00	0	41	0	3051356160	32	6192
2026-01-30 16:09:48.77	157.46	32.29	-30.0	-30.7	28.5	0.00e+00	0	41	0	3056599040	32	6230
2026-01-30 16:09:49.77	157.68	32.12	-30.1	-30.6	28.6	0.00e+00	0	41	0	3062890496	32	6158
2026-01-30 16:09:50.78	157.89	31.95	-30.2	-30.9	28.6	0.00e+00	0	41	0	3068133376	32	6328
2026-01-30 16:09:51.79	158.10	31.78	-30.3	-31.0	28.5	0.00e+00	0	41	0	3073376256	32	6419
2026-01-30 16:09:52.80	158.31	31.61	-30.4	-31.1	28.4	0.00e+00	0	41	0	3079667712	32	6518
2026-01-30 16:09:53.81	158.51	31.44	-30.6	-31.1	28.2	0.00e+00	0	41	0	3084910592	32	6527
2026-01-30 16:09:54.82	158.71	31.27	-30.6	-31.1	28.2	0.00e+00	0	41	0	3091202048	32	6511
2026-01-30 16:09:55.83	158.92	31.11	-30.6	-31.2	28.1	0.00e+00	0	41	0	3096444928	32	6587
2026-01-30 16:09:56.84	159.12	30.94	-30.7	-31.5	28.0	0.00e+00	0	41	0	3102736384	32	6774
2026-01-30 16:09:57.86	159.32	30.77	-30.7	-31.3	28.1	0.00e+00	0	41	0	3107979264	34	5923
2026-01-30 16:09:58.86	159.51	30.61	-30.8	-31.3	28.1	0.00e+00	0	41	0	3114270720	34	5931
2026-01-30 16:09:59.88	159.70	30.44	-30.6	-31.2	28.2	0.00e+00	0	41	0	3119513600	34	5844
2026-01-30 16:10:00.89	159.90	30.28	-30.6	-31.2	28.2	0.00e+00	0	41	0	3124756480	34	5830
2026-01-30 16:10:01.90	160.09	30.11	-30.5	-31.0	28.3	0.00e+00	0	41	0	3131047936	34	5759
2026-01-30 16:10:02.91	160.27	29.95	-30.5	-31.2	28.4	0.00e+00	0	41	0	3136290816	34	5847
2026-01-30 16:10:03.92	160.46	29.79	-30.5	-31.1	28.2	0.00e+00	0	41	0	3142582272	34	5799
2026-01-30 16:10:04.93	160.64	29.62	-30.6	-31.2	28.2	0.00e+00	0	41	0	3147825152	34	5839
2026-01-30 16:10:05.94	160.83	29.46	-30.6	-31.3	28.2	0.00e+00	0	41	0	3153068032	34	5926
2026-01-30 16:10:06.95	161.01	29.30	-30.7	-31.3	28.1	0.00e+00	0	41	0	3159359488	34	5934
2026-01-30 16:10:07.96	161.19	29.14	-30.6	-31.2	28.2	0.00e+00	0	41	0	3164602368	34	5861
2026-01-30 16:10:08.97	161.36	28.98	-30.6	-31.3	28.1	0.00e+00	0	41	0	3170893824	34	5914
2026-01-30 16:10:09.98	161.54	28.82	-30.6	-31.3	28.3	0.00e+00	0	41	0	3176136704	34	5935
2026-01-30 16:10:10.99	161.71	28.66	-30.6	-31.3	28.1	0.00e+00	0	41	0	3181379584	34	5960
2026-01-30 16:10:11.99	161.88	28.51	-30.6	-31.3	28.1	0.00e+00	0	41	0	3187671040	34	5961
2026-01-30 16:10:13.00	162.05	28.35	-30.5	-31.1	28.2	0.00e+00	0	41	0	3192913920	34	5798
2026-01-30 16:10:14.02	162.22	28.19	-30.5	-31.1	28.2	0.00e+00	0	41	0	3199205376	34	5787
2026-01-30 16:10:15.03	162.39	28.04	-30.4	-31.0	28.3	0.00e+00	0	41	0	3204448256	34	5722
2026-01-30 16:10:16.04	162.56	27.88	-30.4	-31.1	28.3	0.00e+00	0	41	0	3210739712	34	5824
2026-01-30 16:10:17.05	162.72	27.73	-30.4	-31.1	28.3	0.00e+00	0	41	0	3215982592	34	5798
2026-01-30 16:10:18.06	162.88	27.57	-30.5	-31.1	28.1	0.00e+00	0	41	0	3222274048	34	5791
2026-01-30 16:10:19.07	163.05	27.42	-30.4	-31.0	28.3	0.00e+00	0	41	0	3227516928	34	5728
2026-01-30 16:10:20.08	163.20	27.27	-30.5	-31.0	28.3	0.00e+00	0	41	0	3232759808	34	5748
2026-01-30 16:10:21.09	163.36	27.12	-30.4	-31.0	28.3	0.00e+00	0	41	0	3239051264	34	5736
2026-01-30 16:10:22.10	163.52	26.96	-30.5	-31.0	28.2	0.00e+00	0	41	0	3244294144	34	5757
2026-01-30 16:10:23.11	163.68	26.81	-30.6	-31.1	28.2	0.00e+00	0	41	0	3250585600	34	5823
2026-01-30 16:10:24.12	163.83	26.66	-30.4	-31.0	28.3	0.00e+00	0	41	0	3255828480	34	5713
2026-01-30 16:10:25.13	163.98	26.51	-30.5	-31.2	28.3	0.00e+00	0	41	0	3261071360	34	5853
2026-01-30 16:10:26.14	164.13	26.36	-30.5	-31.0	28.2	0.00e+00	0	41	0	3267362816	34	5756
2026-01-30 16:10:27.15	164.28	26.22	-30.4	-30.9	28.4	0.00e+00	0	41	0	3272605696	34	5669
2026-01-30 16:10:28.16	164.43	26.07	-30.3	-31.0	28.3	0.00e+00	0	41	0	3278897152	34	5728
2026-01-30 16:10:29.17	164.58	25.92	-30.3	-30.8	28.3	0.00e+00	0	41	0	3284140032	34	5621
2026-01-30 16:10:30.18	164.72	25.77	-30.4	-31.0	28.3	0.00e+00	0	41	0	3289382912	34	5697
2026-01-30 16:10:31.19	164.87	25.63	-30.4	-30.9	28.4	0.00e+00	0	41	0	3295674368	34	5679
2026-01-30 16:10:32.20	165.01	25.48	-30.5	-31.2	28.3	0.00e+00	0	41	0	3300917248	34	5835
2026-01-30 16:10:33.21	165.15	25.34	-30.5	-31.1	28.2	0.00e+00	0	41	0	3307208704	34	5787
2026-01-30 16:10:34.22	165.29	25.19	-30.6	-31.1	28.1	0.00e+00	0	41	0	3312451584	34	5811
2026-01-30 16:10:35.23	165.43	25.05	-30.6	-31.2	28.1	0.00e+00	0	41	0	3318743040	34	5861
2026-01-30 16:10:36.24	165.57	24.91	-30.7	-31.5	28.0	0.00e+00	0	41	0	3323985920	34	6042
2026-01-30 16:10:37.25	165.71	24.77	-30.9	-31.6	27.9	0.00e+00	0	41	0	3330277376	34	6128
2026-01-30 16:10:38.26	165.84	24.62	-30.8	-31.6	28.0	0.00e+00	0	41	0	3335520256	34	6104
2026-01-30 16:10:39.27	165.98	24.48	-30.8	-31.5	28.0	0.00e+00	0	41	0	3340763136	34	6070
2026-01-30 16:10:40.28	166.11	24.34	-30.8	-31.3	28.1	0.00e+00	0	41	0	3347054592	34	5945
2026-01-30 16:10:41.29	166.24	24.20	-30.7	-31.4	28.0	0.00e+00	0	41	0	3352297472	34	5994
2026-01-30 16:10:42.30	166.38	24.06	-30.7	-31.4	28.0	0.00e+00	0	41	0	3358588928	34	6024
2026-01-30 16:10:43.32	166.51	23.92	-30.6	-31.3	28.1	0.00e+00	0	41	0	3363831808	34	5931
2026-01-30 16:10:44.33	166.64	23.79	-30.6	-31.3	28.2	0.00e+00	0	41	0	3369074688	34	5902
2026-01-30 16:10:45.34	166.76	23.65	-30.6	-31.1	28.1	0.00e+00	0	41	0	3375366144	34	5821
2026-01-30 16:10:46.35	166.89	23.51	-30.6	-31.1	28.2	0.00e+00	0	41	0	3380609024	34	5812
2026-01-30 16:10:47.36	167.02	23.38	-30.7	-31.2	28.0	0.00e+00	0	41	0	3386900480	34	5887
2026-01-30 16:10:48.37	167.14	23.24	-30.7	-31.3	28.0	0.00e+00	0	41	0	3392143360	34	5925
2026-01-30 16:10:49.38	167.26	23.10	-30.9	-31.5	27.8	0.00e+00	0	41	0	3397386240	34	6053
2026-01-30 16:10:50.39	167.39	22.97	-31.0	-31.7	27.9	0.00e+00	0	41	0	3403677696	34	6200
2026-01-30 16:10:51.40	167.51	22.84	-31.2	-31.9	27.7	0.00e+00	0	41	0	3408920576	34	6357
2026-01-30 16:10:52.41	167.63	22.70	-31.2	-32.0	27.6	0.00e+00	0	41	0	3415212032	34	6407
2026-01-30 16:10:53.42	167.75	22.57	-31.4	-32.2	27.4	0.00e+00	0	41	0	3420454912	34	6551
2026-01-30 16:10:54.43	167.87	22.44	-31.4	-32.0	27.4	0.00e+00	0	41	0	3426746368	34	6438
2026-01-30 16:10:55.44	167.99	22.31	-31.5	-32.1	27.4	0.00e+00	0	41	0	3431989248	34	6494
2026-01-30 16:10:56.44	168.10	22.18	-31.5	-32.1	27.4	0.00e+00	0	41	0	3437232128	34	6515
2026-01-30 16:10:57.46	168.22	22.04	-31.5	-32.2	27.4	0.00e+00	0	41	0	3443523584	34	6598
2026-01-30 16:10:58.47	168.33	21.91	-31.4	-32.0	27.4	0.00e+00	0	41	0	3448766464	34	6443
2026-01-30 16:10:59.48	168.45	21.78	-31.5	-32.2	27.4	0.00e+00	0	41	0	3455057920	34	6596
2026-01-30 16:11:00.49	168.56	21.66	-31.4	-32.1	27.5	0.00e+00	0	41	0	3460300800	34	6525
2026-01-30 16:11:01.50	168.67	21.53	-31.5	-32.0	27.5	0.00e+00	0	41	0	3465543680	34	6445
2026-01-30 16:11:02.51	168.78	21.40	-31.4	-32.0	27.5	0.00e+00	0	41	0	3471835136	34	6411
2026-01-30 16:11:03.52	168.89	21.27	-31.2	-31.9	27.6	0.00e+00	0	41	0	3477078016	34	6387
2026-01-30 16:11:04.53	169.00	21.14	-31.4	-32.0	27.5	0.00e+00	0	41	0	3483369472	34	6433
2026-01-30 16:11:05.54	169.11	21.02	-31.4	-32.0	27.5	0.00e+00	0	41	0	3488612352	34	6418
2026-01-30 16:11:06.55	169.22	20.89	-31.5	-32.2	27.3	0.00e+00	0	41	0	3494903808	34	6601
2026-01-30 16:11:07.56	169.33	20.77	-31.5	-32.1	27.4	0.00e+00	0	41	0	3500146688	34	6476
2026-01-30 16:11:08.57	169.43	20.64	-31.8	-32.3	27.3	0.00e+00	0	41	0	3505389568	36	5954
2026-01-30 16:11:09.58	169.54	20.52	-31.5	-32.0	27.4	0.00e+00	0	41	0	3511681024	36	5752
2026-01-30 16:11:10.59	169.64	20.40	-31.6	-32.2	27.3	0.00e+00	0	41	0	3516923904	36	5852
2026-01-30 16:11:11.60	169.75	20.27	-31.5	-32.1	27.3	0.00e+00	0	41	0	3523215360	36	5784
2026-01-30 16:11:12.61	169.85	20.15	-31.8	-32.3	27.3	0.00e+00	0	41	0	3528458240	36	5948
2026-01-30 16:11:13.62	169.95	20.03	-31.7	-32.3	27.2	0.00e+00	0	41	0	3534749696	36	5898
2026-01-30 16:11:14.62	170.05	19.91	-31.6	-32.2	27.3	0.00e+00	0	41	0	3539992576	36	5866
2026-01-30 16:11:15.64	170.15	19.78	-31.6	-32.1	27.3	0.00e+00	0	41	0	3545235456	36	5828
2026-01-30 16:11:16.65	170.25	19.66	-31.6	-32.2	27.3	0.00e+00	0	41	0	3551526912	36	5836
2026-01-30 16:11:17.66	170.35	19.54	-31.6	-32.3	27.2	0.00e+00	0	41	0	3556769792	36	5919
2026-01-30 16:11:18.66	170.45	19.43	-31.6	-32.3	27.3	0.00e+00	0	41	0	3563061248	36	5933
2026-01-30 16:11:19.68	170.55	19.31	-31.7	-32.2	27.3	0.00e+00	0	41	0	3568304128	36	5887
2026-01-30 16:11:20.69	170.64	19.19	-31.6	-32.2	27.3	0.00e+00	0	41	0	3573547008	36	5846
2026-01-30 16:11:21.70	170.74	19.07	-31.7	-32.2	27.2	0.00e+00	0	41	0	3579838464	36	5887
2026-01-30 16:11:22.70	170.83	18.95	-31.7	-32.2	27.3	0.00e+00	0	41	0	3585081344	36	5873
2026-01-30 16:11:23.71	170.93	18.84	-31.8	-32.5	27.2	0.00e+00	0	41	0	3591372800	36	6064
2026-01-30 16:11:24.72	171.02	18.72	-31.8	-32.4	27.2	0.00e+00	0	41	0	3596615680	36	5975
2026-01-30 16:11:25.73	171.12	18.60	-31.9	-32.6	27.0	0.00e+00	0	41	0	3601858560	36	6134
2026-01-30 16:11:26.74	171.21	18.49	-32.1	-32.6	26.9	0.00e+00	0	41	0	3608150016	36	6151
2026-01-30 16:11:27.75	171.30	18.37	-32.0	-32.5	26.9	0.00e+00	0	41	0	3613392896	36	6089
2026-01-30 16:11:28.76	171.39	18.26	-32.1	-32.7	26.9	0.00e+00	0	41	0	3619684352	36	6176
2026-01-30 16:11:29.77	171.48	18.14	-32.1	-32.7	26.8	0.00e+00	0	41	0	3624927232	36	6202
2026-01-30 16:11:30.78	171.57	18.03	-32.2	-32.7	26.9	0.00e+00	0	41	0	3631218688	36	6231
2026-01-30 16:11:31.79	171.66	17.92	-32.2	-32.9	26.7	0.00e+00	0	41	0	3636461568	36	6381
2026-01-30 16:11:32.80	171.75	17.80	-32.2	-32.9	26.8	0.00e+00	0	41	0	3642753024	36	6355
