passes_logs/2026/01/30/R4.6S_Anadyr/R4.6S_Anadyr__20260130_093855_KOSAR1-5_rec.log

#Pass ID: 20260130_093855_KOSAR1-5
#Satellite: KOSAR1-5
#Configuration: KOSAR1-5
#almurnet v.1.7.20251203
#Start time: 2026-01-30 09:38:58

#Version: 2.2.20231116
#Station: R4.6S_Anadyr
#Location: 177.4865 lon 64.73178 lat
#TLE: 1 67264U 25313S   26028.94615568  .00012050  00000+0  55467-3 0  9998
#TLE: 2 67264  97.4180 105.8864 0016576 134.5684 225.6907 15.20338860  4779

#Time	Az	El	Level	Level2	SNR	BER	BlckErr	Temp	State	Recorded	gain1	gain2
2026-01-30 09:38:58.33	163.37	0.16	-46.4	-60.8	3.5	1.51e+00	0	39	0	0	60	44511
2026-01-30 09:38:59.34	163.38	0.23	-46.2	-61.0	3.6	1.51e+00	0	40	104	0	60	45609
2026-01-30 09:39:00.35	163.39	0.29	-46.4	-61.1	3.6	1.51e+00	0	40	104	0	60	45784
2026-01-30 09:39:01.36	163.40	0.36	-46.3	-61.0	3.6	1.51e+00	0	40	104	0	60	45617
2026-01-30 09:39:02.37	163.41	0.43	-46.3	-61.0	3.6	1.51e+00	0	40	104	0	60	45456
2026-01-30 09:39:03.38	163.42	0.49	-46.3	-61.0	3.6	1.51e+00	0	40	104	0	60	45365
2026-01-30 09:39:04.39	163.43	0.56	-46.3	-61.1	3.6	1.51e+00	0	40	104	0	60	45884
2026-01-30 09:39:05.40	163.44	0.62	-46.5	-61.1	3.6	1.51e+00	0	40	104	0	60	46276
2026-01-30 09:39:06.41	163.45	0.69	-46.4	-61.1	3.6	1.51e+00	0	40	104	0	60	45922
2026-01-30 09:39:07.42	163.46	0.76	-46.5	-61.1	3.6	1.51e+00	0	40	104	0	60	46296
2026-01-30 09:39:08.43	163.47	0.82	-46.4	-61.1	3.5	1.51e+00	0	40	104	0	60	46037
2026-01-30 09:39:09.44	163.48	0.89	-46.3	-61.1	3.6	1.51e+00	0	40	104	0	60	45936
2026-01-30 09:39:10.45	163.49	0.96	-46.4	-61.1	3.6	1.51e+00	0	40	104	0	60	46034
2026-01-30 09:39:11.46	163.50	1.02	-46.4	-61.1	3.6	1.51e+00	0	40	104	0	60	45776
2026-01-30 09:39:12.47	163.51	1.09	-46.3	-61.0	3.6	1.51e+00	0	40	104	0	60	45678
2026-01-30 09:39:13.48	163.52	1.16	-46.3	-61.0	3.6	1.51e+00	0	40	104	0	60	45532
2026-01-30 09:39:14.48	163.53	1.23	-46.0	-60.9	3.6	1.51e+00	0	40	104	0	60	45201
2026-01-30 09:39:15.49	163.54	1.30	-46.3	-60.9	3.6	1.51e+00	0	40	104	0	60	45153
2026-01-30 09:39:16.50	163.55	1.36	-46.0	-60.8	3.6	1.51e+00	0	40	104	0	60	44487
2026-01-30 09:39:17.51	163.56	1.43	-46.0	-60.7	3.6	1.51e+00	0	40	104	0	60	43794
2026-01-30 09:39:18.52	163.57	1.50	-45.2	-59.9	3.6	1.51e+00	0	40	104	0	60	40052
2026-01-30 09:39:19.53	163.58	1.57	-45.4	-60.2	3.6	1.51e+00	0	40	104	0	60	41278
2026-01-30 09:39:20.54	163.59	1.64	-45.5	-60.2	3.6	1.51e+00	0	40	104	0	60	41397
2026-01-30 09:39:21.55	163.60	1.71	-45.3	-60.0	3.6	1.51e+00	0	40	104	0	60	40424
2026-01-30 09:39:22.56	163.61	1.78	-45.2	-59.9	3.6	1.51e+00	0	41	104	0	60	40247
2026-01-30 09:39:23.57	163.62	1.85	-45.1	-59.9	3.6	1.51e+00	0	40	104	0	60	39925
2026-01-30 09:39:24.58	163.63	1.92	-45.1	-59.8	3.6	1.51e+00	0	40	104	0	60	39778
2026-01-30 09:39:25.59	163.65	1.99	-45.1	-59.8	3.6	1.51e+00	0	40	104	0	60	39774
2026-01-30 09:39:26.60	163.66	2.06	-45.1	-59.9	3.6	1.51e+00	0	40	104	0	60	39966
2026-01-30 09:39:27.61	163.67	2.13	-45.1	-59.9	3.6	1.51e+00	0	40	104	0	60	39887
2026-01-30 09:39:28.62	163.68	2.20	-45.1	-59.8	3.6	1.51e+00	0	40	104	0	60	39820
2026-01-30 09:39:29.63	163.69	2.27	-45.1	-59.8	3.6	1.51e+00	0	40	104	0	60	39750
2026-01-30 09:39:30.64	163.70	2.34	-45.1	-59.8	3.6	1.51e+00	0	40	104	0	60	39778
2026-01-30 09:39:31.65	163.71	2.42	-45.1	-59.8	3.6	1.51e+00	0	40	104	0	60	39803
2026-01-30 09:39:32.66	163.72	2.49	-45.1	-59.9	3.6	1.51e+00	0	40	104	0	60	39874
2026-01-30 09:39:33.68	163.73	2.56	-45.1	-59.8	3.6	1.51e+00	0	40	104	0	60	39707
2026-01-30 09:39:34.69	163.74	2.63	-45.1	-59.8	3.6	1.51e+00	0	41	104	0	60	39653
2026-01-30 09:39:35.70	163.75	2.71	-45.1	-59.8	3.6	1.51e+00	0	40	104	0	60	39809
2026-01-30 09:39:36.71	163.77	2.78	-45.1	-59.8	3.6	1.51e+00	0	40	104	0	60	39642
2026-01-30 09:39:37.72	163.78	2.85	-45.1	-59.8	3.6	1.51e+00	0	40	104	0	60	39577
2026-01-30 09:39:38.73	163.79	2.93	-45.1	-59.8	3.6	1.51e+00	0	40	104	0	60	39614
2026-01-30 09:39:39.73	163.80	3.00	-45.1	-59.8	3.6	1.51e+00	0	40	104	0	60	39584
2026-01-30 09:39:40.75	163.81	3.07	-45.1	-59.8	3.6	1.51e+00	0	41	104	0	60	39747
2026-01-30 09:39:41.76	163.82	3.15	-45.1	-59.7	3.6	1.51e+00	0	40	104	0	60	39269
2026-01-30 09:39:42.77	163.83	3.22	-45.1	-59.8	3.6	1.51e+00	0	41	104	0	60	39502
2026-01-30 09:39:43.78	163.85	3.30	-45.1	-59.8	3.6	1.51e+00	0	41	104	0	60	39633
2026-01-30 09:39:44.79	163.86	3.37	-45.1	-59.8	3.6	1.51e+00	0	41	104	0	60	39418
2026-01-30 09:39:45.80	163.87	3.45	-45.1	-59.8	3.6	1.51e+00	0	41	104	0	60	39546
2026-01-30 09:39:46.81	163.88	3.52	-45.1	-59.8	3.6	1.51e+00	0	41	104	0	60	39530
2026-01-30 09:39:47.82	163.89	3.60	-45.1	-59.8	3.6	1.51e+00	0	41	104	0	60	39450
2026-01-30 09:39:48.83	163.90	3.68	-45.1	-59.8	3.6	1.51e+00	0	41	104	0	60	39722
2026-01-30 09:39:49.84	163.92	3.75	-45.1	-59.8	3.6	1.51e+00	0	41	104	0	60	39532
2026-01-30 09:39:50.86	163.93	3.83	-45.1	-59.8	3.6	1.51e+00	0	41	104	0	60	39814
2026-01-30 09:39:51.87	163.94	3.91	-45.1	-59.8	3.6	1.51e+00	0	41	104	0	60	39478
2026-01-30 09:39:52.88	163.95	3.98	-45.1	-59.8	3.6	1.51e+00	0	41	104	0	60	39512
2026-01-30 09:39:53.89	163.97	4.06	-45.1	-59.8	3.6	1.51e+00	0	41	104	0	60	39564
2026-01-30 09:39:54.90	163.98	4.14	-45.1	-59.8	3.6	1.51e+00	0	41	104	0	60	39733
2026-01-30 09:39:55.91	163.99	4.22	-45.1	-59.8	3.6	1.51e+00	0	41	104	0	60	39560
2026-01-30 09:39:56.92	164.00	4.30	-45.2	-60.0	3.6	1.51e+00	0	41	104	0	60	40362
2026-01-30 09:39:57.93	164.01	4.38	-45.1	-59.8	3.6	1.51e+00	0	41	104	0	60	39454
2026-01-30 09:39:58.93	164.03	4.45	-45.2	-59.9	3.6	1.51e+00	0	41	104	0	60	40285
2026-01-30 09:39:59.94	164.04	4.53	-45.3	-60.0	3.6	1.51e+00	0	41	104	0	60	40633
2026-01-30 09:40:00.95	164.05	4.61	-45.1	-59.9	3.6	1.51e+00	0	41	104	0	60	40017
2026-01-30 09:40:01.96	164.06	4.69	-45.3	-60.0	3.6	1.51e+00	0	41	104	0	60	40388
2026-01-30 09:40:02.97	164.08	4.77	-45.3	-60.0	3.6	1.51e+00	0	41	104	0	60	40628
2026-01-30 09:40:03.97	164.09	4.85	-45.4	-60.1	3.6	1.51e+00	0	41	104	0	60	40900
2026-01-30 09:40:04.99	164.10	4.93	-45.3	-60.0	3.6	1.51e+00	0	41	104	0	60	40327
2026-01-30 09:40:06.00	164.12	5.02	-45.3	-60.0	3.6	1.51e+00	0	41	104	0	60	40638
2026-01-30 09:40:07.01	164.13	5.10	-45.2	-60.0	3.6	1.51e+00	0	41	104	0	60	40690
2026-01-30 09:40:08.02	164.14	5.18	-45.5	-60.2	3.6	1.51e+00	0	41	104	0	60	41364
2026-01-30 09:40:09.03	164.16	5.26	-45.4	-60.1	3.6	1.51e+00	0	41	104	0	60	41008
2026-01-30 09:40:10.04	164.17	5.35	-45.4	-60.1	3.6	1.51e+00	0	41	104	0	60	41095
2026-01-30 09:40:11.05	164.18	5.43	-45.4	-60.1	3.6	1.51e+00	0	41	104	0	60	41035
2026-01-30 09:40:12.06	164.20	5.51	-45.5	-60.2	3.6	1.51e+00	0	41	104	0	60	41598
2026-01-30 09:40:13.07	164.21	5.60	-45.4	-60.1	3.6	1.51e+00	0	41	104	0	60	40985
2026-01-30 09:40:14.08	164.22	5.68	-45.4	-60.2	3.6	1.51e+00	0	41	104	0	60	41309
2026-01-30 09:40:15.09	164.24	5.76	-45.4	-60.2	3.6	1.51e+00	0	41	104	0	60	41276
2026-01-30 09:40:16.10	164.25	5.85	-45.4	-60.2	3.6	1.51e+00	0	41	104	0	60	41569
2026-01-30 09:40:17.11	164.26	5.93	-45.4	-60.2	3.6	1.51e+00	0	41	104	0	60	41668
2026-01-30 09:40:18.12	164.28	6.02	-45.6	-60.2	3.6	1.51e+00	0	41	104	0	60	41620
2026-01-30 09:40:19.13	164.29	6.11	-45.5	-60.1	3.6	1.51e+00	0	41	104	0	60	41237
2026-01-30 09:40:20.14	164.30	6.19	-45.6	-60.3	3.6	1.51e+00	0	41	104	0	60	41879
2026-01-30 09:40:21.15	164.32	6.28	-45.7	-60.3	3.6	1.51e+00	0	41	104	0	60	42111
2026-01-30 09:40:22.16	164.33	6.37	-45.5	-60.3	3.6	1.51e+00	0	41	104	0	60	41823
2026-01-30 09:40:23.17	164.35	6.45	-45.4	-60.2	3.6	1.51e+00	0	41	104	0	60	41508
2026-01-30 09:40:24.18	164.36	6.54	-45.6	-60.3	3.6	1.51e+00	0	41	104	0	60	42184
2026-01-30 09:40:25.19	164.38	6.63	-45.6	-60.3	3.6	1.51e+00	0	41	104	0	60	42079
2026-01-30 09:40:26.20	164.39	6.72	-45.6	-60.3	3.6	1.51e+00	0	41	104	0	60	42122
2026-01-30 09:40:27.21	164.40	6.81	-45.5	-60.2	3.6	1.51e+00	0	41	104	0	60	41703
2026-01-30 09:40:28.22	164.42	6.90	-45.7	-60.4	3.6	1.51e+00	0	41	104	0	60	42499
2026-01-30 09:40:29.23	164.43	6.99	-45.5	-60.4	3.6	1.51e+00	0	41	104	0	60	42333
2026-01-30 09:40:30.24	164.45	7.08	-45.6	-60.4	3.6	1.51e+00	0	41	104	0	60	42430
2026-01-30 09:40:31.25	164.46	7.17	-45.5	-60.3	3.6	1.51e+00	0	41	104	0	60	41838
2026-01-30 09:40:32.26	164.48	7.26	-45.7	-60.3	3.6	1.51e+00	0	41	104	0	60	42118
2026-01-30 09:40:33.27	164.49	7.35	-45.6	-60.4	3.6	1.51e+00	0	41	104	0	60	42437
2026-01-30 09:40:34.28	164.51	7.44	-45.6	-60.4	3.6	1.51e+00	0	41	104	0	60	42290
2026-01-30 09:40:35.29	164.52	7.54	-45.4	-60.3	3.6	1.51e+00	0	41	104	0	60	41923
2026-01-30 09:40:36.30	164.54	7.63	-45.6	-60.4	3.6	1.51e+00	0	41	104	0	60	42330
2026-01-30 09:40:37.31	164.56	7.72	-45.6	-60.4	3.6	1.51e+00	0	41	104	0	60	42469
2026-01-30 09:40:38.32	164.57	7.82	-45.7	-60.4	3.6	1.51e+00	0	41	104	0	60	42535
2026-01-30 09:40:39.33	164.59	7.91	-45.7	-60.3	3.6	1.51e+00	0	41	104	0	60	42015
2026-01-30 09:40:40.34	164.60	8.01	-45.8	-60.5	3.6	1.51e+00	0	41	104	0	60	42809
2026-01-30 09:40:41.35	164.62	8.10	-45.9	-60.5	3.6	1.51e+00	0	41	104	0	60	43111
2026-01-30 09:40:42.36	164.63	8.20	-45.8	-60.5	3.6	1.51e+00	0	41	104	0	60	42812
2026-01-30 09:40:43.37	164.65	8.29	-45.7	-60.4	3.6	1.51e+00	0	41	104	0	60	42442
2026-01-30 09:40:44.38	164.67	8.39	-45.8	-60.5	3.6	1.51e+00	0	41	104	0	60	42853
2026-01-30 09:40:45.39	164.68	8.49	-45.8	-60.5	3.6	1.51e+00	0	41	104	0	60	42912
2026-01-30 09:40:46.40	164.70	8.59	-45.8	-60.4	3.6	1.51e+00	0	41	104	0	60	42539
2026-01-30 09:40:47.41	164.72	8.69	-45.8	-60.4	3.6	1.51e+00	0	41	104	0	60	42582
2026-01-30 09:40:48.42	164.73	8.78	-45.8	-60.4	3.6	1.51e+00	0	41	104	0	60	42585
2026-01-30 09:40:49.43	164.75	8.88	-45.8	-60.5	3.6	1.51e+00	0	41	104	0	60	42881
2026-01-30 09:40:50.44	164.77	8.98	-45.8	-60.5	3.6	1.51e+00	0	41	104	0	60	42724
2026-01-30 09:40:51.45	164.78	9.08	-45.8	-60.5	3.6	1.51e+00	0	41	104	0	60	42865
2026-01-30 09:40:52.46	164.80	9.19	-45.8	-60.5	3.6	1.51e+00	0	41	104	0	60	42917
2026-01-30 09:40:53.47	164.82	9.29	-45.8	-60.5	3.6	1.51e+00	0	41	104	0	60	42787
2026-01-30 09:40:54.48	164.83	9.39	-45.7	-60.5	3.6	1.51e+00	0	41	104	0	60	42881
2026-01-30 09:40:55.49	164.85	9.49	-45.7	-60.4	3.6	1.51e+00	0	41	104	0	60	42591
2026-01-30 09:40:56.50	164.87	9.60	-45.7	-60.5	3.6	1.51e+00	0	41	104	0	60	42804
2026-01-30 09:40:57.51	164.89	9.70	-45.7	-60.5	3.6	1.51e+00	0	41	104	0	60	43068
2026-01-30 09:40:58.52	164.90	9.80	-45.8	-60.5	3.6	1.51e+00	0	41	104	0	60	43146
2026-01-30 09:40:59.53	164.92	9.91	-45.8	-60.5	3.6	1.51e+00	0	41	104	0	60	43033
2026-01-30 09:41:00.54	164.94	10.01	-45.8	-60.5	3.6	1.51e+00	0	41	104	0	60	43023
2026-01-30 09:41:01.55	164.96	10.12	-45.8	-60.5	3.6	1.51e+00	0	41	104	0	60	42993
2026-01-30 09:41:02.55	164.98	10.23	-45.8	-60.5	3.6	1.51e+00	0	41	104	0	60	42859
2026-01-30 09:41:03.56	164.99	10.33	-45.8	-60.5	3.6	1.51e+00	0	41	104	0	60	43037
2026-01-30 09:41:04.57	165.01	10.44	-45.8	-60.5	3.6	1.51e+00	0	41	104	0	60	43204
2026-01-30 09:41:05.58	165.03	10.55	-45.9	-60.5	3.6	1.51e+00	0	41	104	0	60	43114
2026-01-30 09:41:06.59	165.05	10.66	-45.8	-60.5	3.6	1.51e+00	0	41	104	0	60	43050
2026-01-30 09:41:07.60	165.07	10.77	-45.7	-60.6	3.6	1.51e+00	0	41	104	0	60	43372
2026-01-30 09:41:08.61	165.09	10.88	-45.9	-60.6	3.6	1.51e+00	0	41	104	0	60	43552
2026-01-30 09:41:09.62	165.11	10.99	-45.9	-60.6	3.6	1.51e+00	0	41	104	0	60	43506
2026-01-30 09:41:10.63	165.13	11.10	-45.7	-60.6	3.6	1.51e+00	0	41	104	0	60	43476
2026-01-30 09:41:11.64	165.15	11.22	-45.6	-60.7	3.6	1.51e+00	0	41	104	0	60	44201
2026-01-30 09:41:12.65	165.17	11.33	-45.8	-60.6	3.6	1.51e+00	0	41	104	0	60	43451
2026-01-30 09:41:13.66	165.19	11.44	-45.8	-60.8	3.6	1.51e+00	0	41	104	0	60	44549
2026-01-30 09:41:14.67	165.21	11.56	-45.5	-60.7	3.6	1.51e+00	0	41	104	0	60	43740
2026-01-30 09:41:15.68	165.23	11.67	-45.7	-60.6	3.6	1.51e+00	0	41	104	0	60	43535
2026-01-30 09:41:16.69	165.25	11.79	-45.6	-60.6	3.6	1.51e+00	0	41	104	0	60	43664
2026-01-30 09:41:17.69	165.27	11.91	-45.6	-60.6	3.6	1.51e+00	0	41	104	0	60	43654
2026-01-30 09:41:18.70	165.29	12.02	-45.6	-60.5	3.6	1.51e+00	0	41	104	0	60	43205
2026-01-30 09:41:19.71	165.31	12.14	-45.7	-60.6	3.6	1.51e+00	0	41	104	0	60	43270
2026-01-30 09:41:20.73	165.33	12.26	-45.6	-60.6	3.6	1.51e+00	0	41	104	0	60	43276
2026-01-30 09:41:21.74	165.35	12.38	-45.6	-60.5	3.6	1.51e+00	0	41	104	0	60	43174
2026-01-30 09:41:22.74	165.37	12.50	-45.6	-60.6	3.6	1.51e+00	0	41	104	0	60	43263
2026-01-30 09:41:23.75	165.39	12.62	-45.8	-60.6	3.6	1.51e+00	0	41	104	0	60	43520
2026-01-30 09:41:24.76	165.42	12.75	-45.6	-60.5	3.6	1.51e+00	0	41	104	0	60	43185
2026-01-30 09:41:25.77	165.44	12.87	-45.8	-60.5	3.6	1.51e+00	0	41	104	0	60	43207
2026-01-30 09:41:26.78	165.46	12.99	-45.7	-60.5	3.6	1.51e+00	0	41	104	0	60	43101
2026-01-30 09:41:27.79	165.48	13.12	-45.8	-60.5	3.6	1.51e+00	0	41	104	0	60	43202
2026-01-30 09:41:28.80	165.50	13.25	-45.6	-60.6	3.6	1.51e+00	0	41	104	0	60	43443
2026-01-30 09:41:29.81	165.53	13.37	-45.9	-60.6	3.6	1.51e+00	0	41	104	0	60	43468
2026-01-30 09:41:30.82	165.55	13.50	-45.8	-60.6	3.6	1.51e+00	0	41	104	0	60	43256
2026-01-30 09:41:31.83	165.57	13.63	-45.9	-60.6	3.6	1.51e+00	0	41	104	0	60	43537
2026-01-30 09:41:32.84	165.60	13.76	-45.7	-60.6	3.6	1.51e+00	0	41	104	0	60	43506
2026-01-30 09:41:33.85	165.62	13.89	-45.9	-60.6	3.6	1.51e+00	0	41	104	0	60	43637
2026-01-30 09:41:34.86	165.64	14.02	-45.8	-60.6	3.6	1.51e+00	0	41	104	0	60	43658
2026-01-30 09:41:35.86	165.67	14.15	-45.9	-60.6	3.5	1.51e+00	0	41	104	0	60	43524
2026-01-30 09:41:36.87	165.69	14.28	-45.9	-60.6	3.6	1.51e+00	0	41	104	0	60	43390
2026-01-30 09:41:37.88	165.72	14.42	-45.9	-60.6	3.6	1.51e+00	0	41	104	0	60	43388
2026-01-30 09:41:38.89	165.74	14.55	-45.9	-60.6	3.5	1.51e+00	0	41	104	0	60	43500
2026-01-30 09:41:39.91	165.77	14.69	-46.0	-60.7	3.6	1.51e+00	0	41	104	0	60	43923
2026-01-30 09:41:40.92	165.79	14.82	-46.0	-60.6	3.6	1.51e+00	0	41	104	0	60	43582
2026-01-30 09:41:41.93	165.82	14.96	-46.0	-60.7	3.6	1.51e+00	0	41	104	0	60	43726
2026-01-30 09:41:42.94	165.84	15.10	-46.0	-60.7	3.6	1.51e+00	0	41	104	0	60	43757
2026-01-30 09:41:43.94	165.87	15.24	-46.1	-60.8	3.6	1.51e+00	0	41	104	0	60	44678
2026-01-30 09:41:44.95	165.89	15.38	-46.0	-60.7	3.6	1.51e+00	0	41	104	0	60	43920
2026-01-30 09:41:45.96	165.92	15.52	-46.2	-60.9	3.6	1.51e+00	0	41	104	0	60	44774
2026-01-30 09:41:46.97	165.95	15.66	-46.1	-60.8	3.6	1.51e+00	0	41	104	0	60	44283
2026-01-30 09:41:47.98	165.97	15.81	-46.2	-60.9	3.6	1.51e+00	0	41	104	0	60	44770
2026-01-30 09:41:48.98	166.00	15.95	-46.1	-60.9	3.6	1.51e+00	0	41	104	0	60	44731
2026-01-30 09:41:50.00	166.03	16.10	-46.2	-60.9	3.6	1.51e+00	0	41	104	0	60	44886
2026-01-30 09:41:51.01	166.05	16.25	-46.2	-60.9	3.6	1.51e+00	0	41	104	0	60	44810
2026-01-30 09:41:52.02	166.08	16.40	-46.1	-60.8	3.6	1.51e+00	0	41	104	0	60	44595
2026-01-30 09:41:53.02	166.11	16.55	-46.1	-60.8	3.6	1.51e+00	0	41	104	0	60	44238
2026-01-30 09:41:54.03	166.14	16.70	-46.1	-60.8	3.6	1.51e+00	0	42	104	0	60	44376
2026-01-30 09:41:55.04	166.17	16.85	-46.0	-60.8	3.6	1.51e+00	0	41	104	0	60	44328
2026-01-30 09:41:56.05	166.20	17.00	-46.1	-60.8	3.6	1.51e+00	0	41	104	0	60	44279
2026-01-30 09:41:57.06	166.23	17.16	-46.0	-60.7	3.6	1.51e+00	0	41	104	0	60	43868
2026-01-30 09:41:58.07	166.26	17.31	-46.0	-60.7	3.6	1.51e+00	0	41	104	0	60	44173
2026-01-30 09:41:59.08	166.29	17.47	-46.0	-60.7	3.6	1.51e+00	0	41	104	0	60	44131
2026-01-30 09:42:00.09	166.32	17.63	-46.1	-60.7	3.6	1.51e+00	0	41	104	0	60	44142
2026-01-30 09:42:01.10	166.35	17.79	-46.0	-60.7	3.6	1.51e+00	0	41	104	0	60	43926
2026-01-30 09:42:02.11	166.38	17.95	-46.1	-60.7	3.6	1.51e+00	0	41	104	0	60	44021
2026-01-30 09:42:03.12	166.41	18.11	-46.1	-60.7	3.6	1.51e+00	0	41	104	0	60	44137
2026-01-30 09:42:04.13	166.44	18.28	-46.1	-60.8	3.6	1.51e+00	0	41	104	0	60	44308
2026-01-30 09:42:05.14	166.47	18.44	-46.0	-60.7	3.6	1.51e+00	0	41	104	0	60	43891
2026-01-30 09:42:06.15	166.50	18.61	-46.1	-60.7	3.6	1.51e+00	0	41	104	0	60	44119
2026-01-30 09:42:07.16	166.54	18.78	-46.1	-60.7	3.6	1.51e+00	0	41	104	0	60	44007
2026-01-30 09:42:08.17	166.57	18.95	-46.1	-60.7	3.6	1.51e+00	0	41	104	0	60	44190
2026-01-30 09:42:09.18	166.60	19.12	-46.1	-60.7	3.6	1.51e+00	0	41	104	0	60	43996
2026-01-30 09:42:10.19	166.64	19.29	-46.0	-60.7	3.6	1.51e+00	0	41	104	0	60	44199
2026-01-30 09:42:11.20	166.67	19.46	-46.1	-60.7	3.6	1.51e+00	0	41	104	0	60	43996
2026-01-30 09:42:12.21	166.71	19.64	-46.0	-60.7	3.6	1.51e+00	0	41	104	0	60	44040
2026-01-30 09:42:13.21	166.74	19.81	-46.0	-60.7	3.6	1.51e+00	0	41	104	0	60	43982
2026-01-30 09:42:14.22	166.78	19.99	-46.1	-60.7	3.6	1.51e+00	0	41	104	0	60	44001
2026-01-30 09:42:15.23	166.81	20.17	-46.0	-60.7	3.6	1.51e+00	0	41	104	0	60	44001
2026-01-30 09:42:16.24	166.85	20.36	-46.1	-60.8	3.6	1.51e+00	0	41	104	0	60	44318
2026-01-30 09:42:17.25	166.89	20.54	-46.0	-60.7	3.6	1.51e+00	0	41	104	0	60	44121
2026-01-30 09:42:18.26	166.92	20.73	-46.0	-60.7	3.6	1.51e+00	0	41	104	0	60	44196
2026-01-30 09:42:19.27	166.96	20.91	-46.1	-60.8	3.6	1.51e+00	0	42	104	0	60	44222
2026-01-30 09:42:20.28	167.00	21.10	-46.0	-60.8	3.6	1.51e+00	0	41	104	0	60	44239
2026-01-30 09:42:21.29	167.04	21.29	-46.0	-60.7	3.6	1.51e+00	0	41	104	0	60	44067
2026-01-30 09:42:22.30	167.08	21.49	-46.0	-60.7	3.6	1.51e+00	0	41	104	0	60	44146
2026-01-30 09:42:23.31	167.12	21.68	-46.1	-60.8	3.6	1.51e+00	0	41	104	0	60	44469
2026-01-30 09:42:24.32	167.16	21.88	-46.1	-60.8	3.6	1.51e+00	0	41	104	0	60	44582
2026-01-30 09:42:25.32	167.20	22.07	-46.0	-60.7	3.6	1.51e+00	0	41	104	0	60	44143
2026-01-30 09:42:26.33	167.24	22.27	-46.1	-60.8	3.6	1.51e+00	0	41	104	0	60	44466
2026-01-30 09:42:27.34	167.28	22.47	-46.1	-60.8	3.6	1.51e+00	0	41	104	0	60	44514
2026-01-30 09:42:28.35	167.32	22.68	-46.1	-60.7	3.6	1.51e+00	0	41	104	0	60	44186
2026-01-30 09:42:29.36	167.37	22.88	-46.1	-60.7	3.6	1.51e+00	0	41	104	0	60	44201
2026-01-30 09:42:30.37	167.41	23.09	-46.1	-60.8	3.6	1.51e+00	0	42	104	0	60	44469
2026-01-30 09:42:31.38	167.45	23.30	-46.1	-60.8	3.6	1.51e+00	0	41	104	0	60	44445
2026-01-30 09:42:32.39	167.50	23.52	-46.1	-60.8	3.6	1.51e+00	0	42	104	0	60	44367
2026-01-30 09:42:33.40	167.54	23.73	-46.1	-60.8	3.6	1.51e+00	0	41	104	0	60	44443
2026-01-30 09:42:34.41	167.59	23.95	-46.1	-60.8	3.6	1.51e+00	0	41	104	0	60	44480
2026-01-30 09:42:35.42	167.64	24.17	-46.2	-60.8	3.6	1.51e+00	0	41	104	0	60	44673
2026-01-30 09:42:36.43	167.68	24.39	-46.1	-60.8	3.6	1.51e+00	0	41	104	0	60	44654
2026-01-30 09:42:37.44	167.73	24.61	-46.1	-60.8	3.6	1.51e+00	0	41	104	0	60	44284
2026-01-30 09:42:38.45	167.78	24.84	-46.1	-60.8	3.6	1.51e+00	0	41	104	0	60	44563
2026-01-30 09:42:39.46	167.83	25.06	-46.2	-60.9	3.6	1.51e+00	0	41	104	0	60	44752
2026-01-30 09:42:40.46	167.88	25.29	-46.1	-60.8	3.6	1.51e+00	0	41	104	0	60	44591
2026-01-30 09:42:41.47	167.93	25.53	-46.1	-60.8	3.6	1.51e+00	0	41	104	0	60	44663
2026-01-30 09:42:42.48	167.98	25.76	-46.1	-60.8	3.6	1.51e+00	0	41	104	0	60	44597
2026-01-30 09:42:43.49	168.04	26.00	-46.1	-60.9	3.6	1.51e+00	0	41	104	0	60	44762
2026-01-30 09:42:44.50	168.09	26.24	-46.2	-60.8	3.6	1.51e+00	0	41	104	0	60	44685
2026-01-30 09:42:45.51	168.14	26.48	-46.2	-60.8	3.6	1.51e+00	0	41	104	0	60	44680
2026-01-30 09:42:46.52	168.20	26.73	-46.1	-60.8	3.6	1.51e+00	0	41	104	0	60	44601
2026-01-30 09:42:47.53	168.25	26.98	-46.2	-60.9	3.6	1.51e+00	0	41	104	0	60	45021
2026-01-30 09:42:48.54	168.31	27.23	-46.2	-60.8	3.6	1.51e+00	0	42	104	0	60	44679
2026-01-30 09:42:49.55	168.37	27.48	-46.1	-60.9	3.6	1.51e+00	0	42	104	0	60	44737
2026-01-30 09:42:50.56	168.43	27.74	-46.2	-60.9	3.6	1.51e+00	0	41	104	0	60	44796
2026-01-30 09:42:51.56	168.49	28.00	-46.2	-60.9	3.6	1.51e+00	0	41	104	0	60	44910
2026-01-30 09:42:52.57	168.55	28.26	-46.2	-60.9	3.6	1.51e+00	0	41	104	0	60	44973
2026-01-30 09:42:53.58	168.61	28.53	-46.2	-60.9	3.6	1.51e+00	0	41	104	0	60	45051
2026-01-30 09:42:54.59	168.67	28.80	-46.2	-60.9	3.6	1.51e+00	0	42	104	0	60	44983
2026-01-30 09:42:55.60	168.74	29.07	-46.2	-61.0	3.6	1.51e+00	0	41	104	0	60	45336
2026-01-30 09:42:56.61	168.80	29.34	-46.2	-60.9	3.6	1.51e+00	0	41	104	0	60	44925
2026-01-30 09:42:57.62	168.87	29.62	-46.1	-60.8	3.6	1.51e+00	0	41	104	0	60	44639
2026-01-30 09:42:58.63	168.94	29.90	-46.2	-60.9	3.6	1.51e+00	0	41	104	0	60	45016
2026-01-30 09:42:59.64	169.00	30.19	-46.2	-60.9	3.6	1.51e+00	0	41	104	0	60	44957
2026-01-30 09:43:00.65	169.07	30.48	-46.0	-60.9	3.6	1.51e+00	0	41	104	0	60	45219
2026-01-30 09:43:01.66	169.15	30.77	-46.0	-61.0	3.6	1.51e+00	0	42	104	0	60	45285
2026-01-30 09:43:02.67	169.22	31.06	-46.1	-60.9	3.6	1.51e+00	0	41	104	0	60	44927
2026-01-30 09:43:03.68	169.29	31.36	-45.9	-60.9	3.6	1.51e+00	0	41	104	0	60	45057
2026-01-30 09:43:04.69	169.37	31.66	-46.0	-60.9	3.6	1.51e+00	0	41	104	0	60	45042
2026-01-30 09:43:05.70	169.44	31.97	-46.2	-60.9	3.6	1.51e+00	0	41	104	0	60	44869
2026-01-30 09:43:06.71	169.52	32.28	-46.0	-60.9	3.6	1.51e+00	0	41	104	0	60	45056
2026-01-30 09:43:07.72	169.60	32.59	-46.1	-60.9	3.6	1.51e+00	0	41	104	0	60	44983
2026-01-30 09:43:08.73	169.68	32.91	-46.1	-60.9	3.6	1.51e+00	0	41	104	0	60	44904
2026-01-30 09:43:09.74	169.77	33.23	-46.0	-60.9	3.6	1.51e+00	0	41	104	0	60	44874
2026-01-30 09:43:10.75	169.85	33.55	-46.1	-60.9	3.6	1.51e+00	0	41	104	0	60	45149
2026-01-30 09:43:11.76	169.94	33.88	-46.1	-60.9	3.6	1.51e+00	0	42	104	0	60	44944
2026-01-30 09:43:12.77	170.03	34.22	-46.1	-60.9	3.5	1.51e+00	0	41	104	0	60	44870
2026-01-30 09:43:13.78	170.12	34.55	-46.2	-61.0	3.6	1.51e+00	0	42	104	0	60	45336
2026-01-30 09:43:14.79	170.21	34.90	-46.2	-61.0	3.6	1.51e+00	0	41	104	0	60	45360
2026-01-30 09:43:15.80	170.30	35.24	-46.2	-60.9	3.6	1.51e+00	0	41	104	0	60	45202
2026-01-30 09:43:16.81	170.40	35.59	-46.2	-60.9	3.5	1.51e+00	0	41	104	0	60	45092
2026-01-30 09:43:17.81	170.50	35.94	-46.2	-60.9	3.6	1.51e+00	0	41	104	0	60	45025
2026-01-30 09:43:18.82	170.60	36.30	-46.1	-60.9	3.6	1.51e+00	0	42	104	0	60	45217
2026-01-30 09:43:19.83	170.70	36.67	-46.3	-61.0	3.6	1.51e+00	0	42	104	0	60	45463
2026-01-30 09:43:20.84	170.81	37.03	-46.2	-60.9	3.6	1.51e+00	0	42	104	0	60	45190
2026-01-30 09:43:21.85	170.91	37.41	-46.2	-61.0	3.5	1.51e+00	0	42	104	0	60	45250
2026-01-30 09:43:22.86	171.02	37.78	-46.2	-60.9	3.6	1.51e+00	0	42	104	0	60	45226
2026-01-30 09:43:23.87	171.14	38.17	-46.3	-60.9	3.6	1.51e+00	0	41	104	0	60	45118
2026-01-30 09:43:24.88	171.25	38.55	-46.2	-60.9	3.6	1.51e+00	0	42	104	0	60	44834
2026-01-30 09:43:25.89	171.37	38.95	-46.2	-61.0	3.6	1.51e+00	0	41	104	0	60	45479
2026-01-30 09:43:26.90	171.49	39.34	-46.2	-61.0	3.6	1.51e+00	0	42	104	0	60	45341
2026-01-30 09:43:27.91	171.62	39.75	-46.3	-61.0	3.6	1.51e+00	0	41	104	0	60	45713
2026-01-30 09:43:28.92	171.75	40.15	-46.2	-61.0	3.6	1.51e+00	0	42	104	0	60	45257
2026-01-30 09:43:29.93	171.88	40.57	-46.3	-61.0	3.6	1.51e+00	0	41	104	0	60	45322
2026-01-30 09:43:30.93	172.01	40.98	-46.3	-61.0	3.6	1.51e+00	0	41	104	0	60	45381
2026-01-30 09:43:31.94	172.15	41.41	-46.3	-60.9	3.6	1.51e+00	0	41	104	0	60	45138
2026-01-30 09:43:32.95	172.29	41.84	-46.2	-61.0	3.6	1.51e+00	0	42	104	0	60	45550
2026-01-30 09:43:33.96	172.44	42.27	-46.3	-61.0	3.6	1.51e+00	0	41	104	0	60	45355
2026-01-30 09:43:34.97	172.59	42.71	-46.3	-61.0	3.6	1.51e+00	0	42	104	0	60	45440
2026-01-30 09:43:35.98	172.74	43.16	-46.3	-61.0	3.6	1.51e+00	0	41	104	0	60	45752
2026-01-30 09:43:36.99	172.90	43.61	-46.3	-61.0	3.6	1.51e+00	0	41	104	0	60	45507
2026-01-30 09:43:37.99	173.06	44.06	-46.3	-60.9	3.5	1.51e+00	0	42	104	0	60	45127
2026-01-30 09:43:39.00	173.23	44.53	-46.3	-61.0	3.6	1.51e+00	0	42	104	0	60	45286
2026-01-30 09:43:40.01	173.40	45.00	-46.3	-61.0	3.6	1.51e+00	0	42	104	0	60	45501
2026-01-30 09:43:41.02	173.58	45.47	-46.3	-61.0	3.6	1.51e+00	0	41	104	0	60	45309
2026-01-30 09:43:42.03	173.76	45.95	-46.3	-61.0	3.6	1.51e+00	0	42	104	0	60	45301
2026-01-30 09:43:43.04	173.95	46.44	-46.3	-61.0	3.6	1.51e+00	0	42	104	0	60	45468
2026-01-30 09:43:44.05	174.15	46.94	-46.3	-61.0	3.6	1.51e+00	0	42	104	0	60	45386
2026-01-30 09:43:45.06	174.35	47.44	-46.3	-61.0	3.6	1.51e+00	0	42	104	0	60	45498
2026-01-30 09:43:46.07	174.56	47.94	-46.3	-60.9	3.6	1.51e+00	0	41	104	0	60	45158
2026-01-30 09:43:47.07	174.77	48.45	-46.2	-61.0	3.6	1.51e+00	0	41	104	0	60	45464
2026-01-30 09:43:48.08	175.00	48.97	-46.3	-61.0	3.6	1.51e+00	0	42	104	0	60	45576
2026-01-30 09:43:49.09	175.23	49.50	-46.2	-60.9	3.6	1.51e+00	0	41	104	0	60	45117
2026-01-30 09:43:50.10	175.47	50.03	-46.3	-61.0	3.6	1.51e+00	0	41	104	0	60	45489
2026-01-30 09:43:51.11	175.72	50.57	-46.3	-61.0	3.6	1.51e+00	0	41	104	0	60	45593
2026-01-30 09:43:52.12	175.97	51.11	-46.3	-61.0	3.5	1.51e+00	0	41	104	0	60	45469
2026-01-30 09:43:53.13	176.24	51.66	-46.2	-61.0	3.6	1.51e+00	0	42	104	0	60	45292
2026-01-30 09:43:54.14	176.52	52.22	-46.3	-60.9	3.6	1.51e+00	0	41	104	0	60	45225
2026-01-30 09:43:55.15	176.81	52.79	-46.2	-61.0	3.6	1.51e+00	0	41	104	0	60	45401
2026-01-30 09:43:56.16	177.10	53.36	-46.2	-61.0	3.6	1.51e+00	0	41	104	0	60	45315
2026-01-30 09:43:57.17	177.42	53.93	-46.2	-61.0	3.6	1.51e+00	0	41	104	0	60	45308
2026-01-30 09:43:58.18	177.74	54.52	-46.3	-61.0	3.6	1.51e+00	0	41	104	0	60	45628
2026-01-30 09:43:59.19	178.08	55.11	-46.3	-61.0	3.6	1.51e+00	0	41	104	0	60	45648
2026-01-30 09:44:00.20	178.43	55.71	-46.2	-61.0	3.6	1.51e+00	0	42	104	0	60	45320
2026-01-30 09:44:01.21	178.80	56.31	-46.2	-60.9	3.6	1.51e+00	0	42	104	0	60	45206
2026-01-30 09:44:02.21	179.18	56.91	-46.3	-61.0	3.6	1.51e+00	0	42	104	0	60	45488
2026-01-30 09:44:03.23	179.59	57.53	-46.3	-61.0	3.6	1.51e+00	0	42	104	0	60	45509
2026-01-30 09:44:04.24	180.01	58.15	-46.2	-61.0	3.6	1.51e+00	0	42	104	0	60	45536
2026-01-30 09:44:05.24	180.44	58.77	-46.2	-61.0	3.6	1.51e+00	0	42	104	0	60	45328
2026-01-30 09:44:06.25	180.91	59.40	-46.3	-61.0	3.6	1.51e+00	0	41	104	0	60	45745
2026-01-30 09:44:07.26	181.39	60.04	-46.3	-61.0	3.6	1.51e+00	0	42	104	0	60	45650
2026-01-30 09:44:08.27	181.90	60.68	-46.3	-61.0	3.6	1.51e+00	0	41	104	0	60	45500
2026-01-30 09:44:09.28	182.44	61.33	-46.2	-61.0	3.6	1.51e+00	0	41	104	0	60	45348
2026-01-30 09:44:10.29	183.01	61.98	-46.2	-61.0	3.6	1.51e+00	0	42	104	0	60	45505
2026-01-30 09:44:11.30	183.61	62.64	-46.3	-61.0	3.6	1.51e+00	0	42	104	0	60	45602
2026-01-30 09:44:12.31	184.24	63.30	-46.3	-61.1	3.6	1.51e+00	0	42	104	0	60	45850
2026-01-30 09:44:13.32	184.91	63.97	-46.2	-61.0	3.6	1.51e+00	0	42	104	0	60	45518
2026-01-30 09:44:14.33	185.61	64.63	-46.2	-61.0	3.6	1.51e+00	0	42	104	0	60	45606
2026-01-30 09:44:15.34	186.36	65.30	-46.3	-61.0	3.6	1.51e+00	0	41	104	0	60	45715
2026-01-30 09:44:16.35	187.16	65.98	-46.3	-61.0	3.6	1.51e+00	0	41	104	0	60	45749
2026-01-30 09:44:17.36	188.01	66.65	-46.3	-61.0	3.6	1.51e+00	0	42	104	0	60	45662
2026-01-30 09:44:18.37	188.92	67.33	-46.3	-61.0	3.6	1.51e+00	0	41	104	0	60	45623
2026-01-30 09:44:19.38	189.88	68.00	-46.1	-61.0	3.6	1.51e+00	0	42	104	0	60	45587
2026-01-30 09:44:20.39	190.91	68.68	-46.1	-61.1	3.6	1.51e+00	0	41	104	0	60	45817
2026-01-30 09:44:21.40	192.02	69.35	-46.2	-61.0	3.6	1.51e+00	0	42	104	0	60	45601
2026-01-30 09:44:22.41	193.21	70.03	-46.1	-61.0	3.6	1.51e+00	0	41	104	0	60	45577
2026-01-30 09:44:23.42	194.48	70.69	-46.1	-61.0	3.6	1.51e+00	0	41	104	0	60	45630
2026-01-30 09:44:24.43	195.85	71.36	-46.0	-61.0	3.6	1.51e+00	0	42	104	0	60	45475
2026-01-30 09:44:25.44	197.33	72.02	-45.8	-61.0	3.6	1.51e+00	0	42	104	0	60	45599
2026-01-30 09:44:26.45	198.93	72.67	-46.1	-61.1	3.6	1.51e+00	0	42	104	0	60	45828
2026-01-30 09:44:27.46	200.66	73.31	-46.1	-61.1	3.6	1.51e+00	0	42	104	0	60	45854
2026-01-30 09:44:28.47	202.53	73.93	-46.1	-61.0	3.6	1.51e+00	0	41	104	0	60	45503
2026-01-30 09:44:29.48	204.56	74.55	-46.1	-61.0	3.6	1.51e+00	0	42	104	0	60	45628
2026-01-30 09:44:30.49	206.77	75.15	-46.0	-61.0	3.6	1.51e+00	0	42	104	0	60	45646
2026-01-30 09:44:31.50	209.16	75.72	-45.8	-61.1	3.6	1.51e+00	0	42	104	0	60	45841
2026-01-30 09:44:32.50	211.73	76.27	-45.9	-61.0	3.6	1.51e+00	0	42	104	0	60	45613
2026-01-30 09:44:33.51	214.54	76.80	-45.9	-61.1	3.6	1.51e+00	0	42	104	0	60	45799
2026-01-30 09:44:34.52	217.59	77.29	-46.0	-61.1	3.6	1.51e+00	0	42	104	0	60	46051
2026-01-30 09:44:35.53	220.88	77.75	-46.1	-61.0	3.6	1.51e+00	0	42	104	0	60	45710
2026-01-30 09:44:36.54	224.42	78.17	-46.1	-61.0	3.6	1.51e+00	0	42	104	0	60	45573
2026-01-30 09:44:37.55	228.22	78.54	-46.2	-61.0	3.6	1.51e+00	0	42	104	0	60	45396
2026-01-30 09:44:38.56	232.25	78.86	-46.5	-61.3	3.6	1.51e+00	0	42	104	0	60	47126
2026-01-30 09:44:39.57	236.51	79.12	-46.4	-61.2	3.6	1.51e+00	0	42	104	0	60	46403
2026-01-30 09:44:40.58	240.96	79.33	-46.4	-61.1	3.6	1.51e+00	0	42	104	0	60	46121
2026-01-30 09:44:41.59	245.55	79.47	-46.4	-61.1	3.6	1.51e+00	0	42	104	0	60	46133
2026-01-30 09:44:42.60	250.24	79.54	-46.4	-61.1	3.6	1.51e+00	0	42	104	0	60	46283
2026-01-30 09:44:43.61	254.96	79.54	-46.4	-61.2	3.6	1.51e+00	0	42	104	0	60	46374
2026-01-30 09:44:44.62	259.65	79.47	-46.5	-61.2	3.6	1.51e+00	0	42	104	0	60	46487
2026-01-30 09:44:45.63	264.25	79.33	-46.4	-61.1	3.6	1.51e+00	0	42	104	0	60	46226
2026-01-30 09:44:46.64	268.70	79.13	-46.4	-61.2	3.6	1.51e+00	0	42	104	0	60	46428
2026-01-30 09:44:47.65	272.96	78.87	-46.4	-61.2	3.6	1.51e+00	0	42	104	0	60	46342
2026-01-30 09:44:48.66	277.01	78.55	-46.4	-61.1	3.6	1.51e+00	0	42	104	0	60	46229
2026-01-30 09:44:49.67	280.81	78.18	-46.4	-61.1	3.6	1.51e+00	0	42	104	0	60	46173
2026-01-30 09:44:50.68	284.35	77.76	-46.5	-61.2	3.6	1.51e+00	0	42	104	0	60	46392
2026-01-30 09:44:51.69	287.65	77.30	-46.4	-61.2	3.6	1.51e+00	0	41	104	0	60	46381
2026-01-30 09:44:52.70	290.71	76.81	-46.4	-61.1	3.6	1.51e+00	0	42	104	0	60	46092
2026-01-30 09:44:53.71	293.52	76.28	-46.5	-61.2	3.6	1.51e+00	0	41	104	0	60	46500
2026-01-30 09:44:54.72	296.12	75.73	-46.5	-61.2	3.6	1.51e+00	0	42	104	0	60	46517
2026-01-30 09:44:55.73	298.52	75.15	-46.4	-61.1	3.6	1.51e+00	0	42	104	0	60	46233
2026-01-30 09:44:56.74	300.72	74.56	-46.4	-61.1	3.6	1.51e+00	0	42	104	0	60	45903
2026-01-30 09:44:57.75	302.76	73.94	-46.4	-61.1	3.6	1.51e+00	0	41	104	0	60	46264
2026-01-30 09:44:58.76	304.63	73.32	-46.4	-61.1	3.6	1.51e+00	0	42	104	0	60	46203
2026-01-30 09:44:59.77	306.36	72.68	-46.4	-61.1	3.6	1.51e+00	0	42	104	0	60	46022
2026-01-30 09:45:00.78	307.96	72.03	-46.3	-61.1	3.6	1.51e+00	0	42	104	0	60	45912
2026-01-30 09:45:01.79	309.44	71.37	-46.4	-61.1	3.6	1.51e+00	0	42	104	0	60	46016
2026-01-30 09:45:02.80	310.82	70.71	-46.3	-61.0	3.6	1.51e+00	0	42	104	0	60	45707
2026-01-30 09:45:03.81	312.09	70.04	-46.3	-61.1	3.6	1.51e+00	0	42	104	0	60	45798
2026-01-30 09:45:04.81	313.27	69.37	-46.2	-61.1	3.6	1.51e+00	0	42	104	0	60	45775
2026-01-30 09:45:05.83	314.39	68.69	-46.2	-61.1	3.6	1.51e+00	0	42	104	0	60	46064
2026-01-30 09:45:06.83	315.41	68.02	-46.4	-61.0	3.6	1.51e+00	0	42	104	0	60	45598
2026-01-30 09:45:07.85	316.39	67.34	-46.3	-61.0	3.6	1.51e+00	0	42	104	0	60	45605
2026-01-30 09:45:08.86	317.29	66.66	-46.2	-61.0	3.6	1.51e+00	0	42	104	0	60	45521
2026-01-30 09:45:09.87	318.14	65.99	-46.3	-61.1	3.6	1.51e+00	0	42	104	0	60	45798
2026-01-30 09:45:10.88	318.94	65.32	-46.3	-61.1	3.6	1.51e+00	0	42	104	0	60	45798
2026-01-30 09:45:11.89	319.69	64.64	-46.3	-61.1	3.6	1.51e+00	0	42	104	0	60	46066
2026-01-30 09:45:12.90	320.40	63.98	-46.3	-61.0	3.6	1.51e+00	0	42	104	0	60	45697
2026-01-30 09:45:13.91	321.07	63.31	-46.2	-61.1	3.6	1.51e+00	0	42	104	0	60	45974
2026-01-30 09:45:14.92	321.70	62.65	-46.4	-61.1	3.6	1.51e+00	0	42	104	0	60	45933
2026-01-30 09:45:15.93	322.30	61.99	-46.3	-61.1	3.6	1.51e+00	0	42	104	0	60	45876
2026-01-30 09:45:16.94	322.87	61.34	-46.3	-61.1	3.6	1.51e+00	0	42	104	0	60	45776
2026-01-30 09:45:17.94	323.40	60.70	-46.3	-61.0	3.6	1.51e+00	0	42	104	0	60	45710
2026-01-30 09:45:18.96	323.92	60.05	-46.3	-61.1	3.6	1.51e+00	0	42	104	0	60	45881
2026-01-30 09:45:19.96	324.40	59.42	-46.3	-61.1	3.6	1.51e+00	0	42	104	0	60	46285
2026-01-30 09:45:20.97	324.87	58.79	-46.3	-61.1	3.6	1.51e+00	0	42	104	0	60	45893
2026-01-30 09:45:21.98	325.31	58.16	-46.3	-61.0	3.6	1.51e+00	0	42	104	0	60	45578
2026-01-30 09:45:22.99	325.73	57.54	-46.4	-61.1	3.6	1.51e+00	0	42	104	0	60	46015
2026-01-30 09:45:24.00	326.13	56.93	-46.4	-61.1	3.6	1.51e+00	0	42	104	0	60	46049
2026-01-30 09:45:25.01	326.52	56.32	-46.3	-61.1	3.6	1.51e+00	0	42	104	0	60	46027
2026-01-30 09:45:26.02	326.88	55.72	-46.4	-61.1	3.6	1.51e+00	0	42	104	0	60	46070
2026-01-30 09:45:27.03	327.24	55.12	-46.4	-61.2	3.6	1.51e+00	0	42	104	0	60	46342
2026-01-30 09:45:28.04	327.58	54.53	-46.5	-61.1	3.6	1.51e+00	0	41	104	0	60	46229
2026-01-30 09:45:29.04	327.90	53.95	-46.4	-61.1	3.6	1.51e+00	0	42	104	0	60	46149
2026-01-30 09:45:30.05	328.21	53.37	-46.4	-61.1	3.6	1.51e+00	0	42	104	0	60	46155
2026-01-30 09:45:31.06	328.51	52.80	-46.5	-61.2	3.6	1.51e+00	0	42	104	0	60	46346
2026-01-30 09:45:32.07	328.80	52.24	-46.4	-61.2	3.6	1.51e+00	0	42	104	0	60	46470
2026-01-30 09:45:33.08	329.07	51.68	-46.4	-61.1	3.6	1.51e+00	0	42	104	0	60	45986
2026-01-30 09:45:34.09	329.34	51.13	-46.4	-61.1	3.6	1.51e+00	0	42	104	0	60	46058
2026-01-30 09:45:35.10	329.60	50.58	-46.4	-61.2	3.6	1.51e+00	0	41	104	0	60	46443
2026-01-30 09:45:36.11	329.85	50.04	-46.4	-61.2	3.6	1.51e+00	0	42	104	0	60	46410
2026-01-30 09:45:37.12	330.09	49.51	-46.4	-61.1	3.6	1.51e+00	0	42	104	0	60	46182
2026-01-30 09:45:38.13	330.32	48.99	-46.4	-61.2	3.6	1.51e+00	0	42	104	0	60	46402
2026-01-30 09:45:39.14	330.54	48.47	-46.4	-61.1	3.6	1.51e+00	0	42	104	0	60	46192
2026-01-30 09:45:40.15	330.76	47.95	-46.5	-61.2	3.6	1.51e+00	0	42	104	0	60	46416
2026-01-30 09:45:41.16	330.97	47.45	-46.4	-61.1	3.6	1.51e+00	0	42	104	0	60	45931
2026-01-30 09:45:42.17	331.17	46.95	-46.4	-61.1	3.6	1.51e+00	0	42	104	0	60	46284
2026-01-30 09:45:43.18	331.37	46.45	-46.5	-61.2	3.6	1.51e+00	0	42	104	0	60	46557
2026-01-30 09:45:44.18	331.56	45.97	-46.5	-61.2	3.6	1.51e+00	0	42	104	0	60	46319
2026-01-30 09:45:45.19	331.74	45.49	-46.4	-61.1	3.6	1.51e+00	0	42	104	0	60	46145
2026-01-30 09:45:46.20	331.92	45.01	-46.4	-61.1	3.5	1.51e+00	0	42	104	0	60	46273
2026-01-30 09:45:47.21	332.09	44.54	-46.4	-61.2	3.6	1.51e+00	0	42	104	0	60	46570
2026-01-30 09:45:48.22	332.26	44.08	-46.5	-61.2	3.6	1.51e+00	0	42	104	0	60	46545
2026-01-30 09:45:49.23	332.42	43.62	-46.5	-61.1	3.6	1.51e+00	0	42	104	0	60	46153
2026-01-30 09:45:50.24	332.58	43.17	-46.4	-61.1	3.6	1.51e+00	0	42	104	0	60	46114
2026-01-30 09:45:51.25	332.74	42.72	-46.4	-61.1	3.6	1.51e+00	0	42	104	0	60	46247
2026-01-30 09:45:52.26	332.89	42.28	-46.3	-61.2	3.6	1.51e+00	0	42	104	0	60	46449
2026-01-30 09:45:53.27	333.03	41.85	-46.4	-61.1	3.6	1.51e+00	0	42	104	0	60	46154
2026-01-30 09:45:54.28	333.18	41.42	-46.4	-61.2	3.6	1.51e+00	0	42	104	0	60	46467
2026-01-30 09:45:55.28	333.31	41.00	-46.4	-61.2	3.6	1.51e+00	0	42	104	0	60	46338
2026-01-30 09:45:56.29	333.45	40.58	-46.3	-61.2	3.6	1.51e+00	0	42	104	0	60	46635
2026-01-30 09:45:57.30	333.58	40.16	-46.2	-61.1	3.6	1.51e+00	0	42	104	0	60	46002
2026-01-30 09:45:58.31	333.71	39.76	-46.4	-61.2	3.5	1.51e+00	0	42	104	0	60	46484
2026-01-30 09:45:59.32	333.83	39.35	-46.3	-61.1	3.6	1.51e+00	0	42	104	0	60	46016
2026-01-30 09:46:00.33	333.95	38.96	-46.4	-61.1	3.6	1.51e+00	0	42	104	0	60	46216
2026-01-30 09:46:01.34	334.07	38.56	-46.4	-61.2	3.6	1.51e+00	0	42	104	0	60	46403
2026-01-30 09:46:02.35	334.19	38.18	-46.4	-61.2	3.6	1.51e+00	0	42	104	0	60	46358
2026-01-30 09:46:03.36	334.30	37.79	-46.5	-61.1	3.6	1.51e+00	0	41	104	0	60	46097
2026-01-30 09:46:04.37	334.41	37.42	-46.4	-61.1	3.6	1.51e+00	0	42	104	0	60	46142
2026-01-30 09:46:05.38	334.52	37.04	-46.4	-61.1	3.6	1.51e+00	0	41	104	0	60	46213
2026-01-30 09:46:06.39	334.63	36.67	-46.4	-61.2	3.6	1.51e+00	0	42	104	0	60	46434
2026-01-30 09:46:07.39	334.73	36.31	-46.4	-61.2	3.6	1.51e+00	0	42	104	0	60	46304
2026-01-30 09:46:08.40	334.83	35.96	-46.3	-61.1	3.6	1.51e+00	0	42	104	0	60	46224
2026-01-30 09:46:09.41	334.93	35.60	-46.3	-61.1	3.6	1.51e+00	0	42	104	0	60	45840
2026-01-30 09:46:10.42	335.02	35.25	-46.5	-61.1	3.6	1.51e+00	0	41	104	0	60	46236
2026-01-30 09:46:11.44	335.12	34.90	-46.3	-61.1	3.6	1.51e+00	0	42	104	0	60	46064
2026-01-30 09:46:12.44	335.21	34.56	-46.4	-61.1	3.6	1.51e+00	0	42	104	0	60	46045
2026-01-30 09:46:13.46	335.30	34.22	-46.4	-61.1	3.6	1.51e+00	0	42	104	0	60	45968
2026-01-30 09:46:14.47	335.39	33.89	-46.4	-61.2	3.6	1.51e+00	0	42	104	0	60	46359
2026-01-30 09:46:15.48	335.48	33.56	-46.4	-61.1	3.6	1.51e+00	0	42	104	0	60	46174
2026-01-30 09:46:16.49	335.56	33.24	-46.4	-61.1	3.6	1.51e+00	0	42	104	0	60	45919
2026-01-30 09:46:17.50	335.65	32.91	-46.4	-61.1	3.6	1.51e+00	0	42	104	0	60	46200
2026-01-30 09:46:18.50	335.73	32.60	-46.4	-61.1	3.6	1.51e+00	0	42	104	0	60	46065
2026-01-30 09:46:19.51	335.81	32.29	-46.4	-61.2	3.6	1.51e+00	0	42	104	0	60	46343
2026-01-30 09:46:20.52	335.89	31.98	-46.3	-61.1	3.6	1.51e+00	0	42	104	0	60	46075
2026-01-30 09:46:21.53	335.96	31.67	-46.3	-61.1	3.6	1.51e+00	0	42	104	0	60	45953
2026-01-30 09:46:22.54	336.04	31.37	-46.4	-61.1	3.6	1.51e+00	0	42	104	0	60	46041
2026-01-30 09:46:23.55	336.11	31.07	-46.4	-61.1	3.6	1.51e+00	0	42	104	0	60	46052
2026-01-30 09:46:24.56	336.19	30.78	-46.3	-61.0	3.6	1.51e+00	0	42	104	0	60	45592
2026-01-30 09:46:25.57	336.26	30.48	-46.3	-61.0	3.6	1.51e+00	0	42	104	0	60	45725
2026-01-30 09:46:26.58	336.33	30.20	-46.3	-61.1	3.5	1.51e+00	0	42	104	0	60	46009
2026-01-30 09:46:27.59	336.40	29.91	-46.4	-61.1	3.6	1.51e+00	0	42	104	0	60	46206
2026-01-30 09:46:28.60	336.46	29.63	-46.3	-61.0	3.6	1.51e+00	0	42	104	0	60	45685
2026-01-30 09:46:29.61	336.53	29.35	-46.4	-61.1	3.6	1.51e+00	0	42	104	0	60	45824
2026-01-30 09:46:30.62	336.60	29.08	-46.4	-61.1	3.6	1.51e+00	0	42	104	0	60	45939
2026-01-30 09:46:31.63	336.66	28.80	-46.3	-61.0	3.6	1.51e+00	0	42	104	0	60	45479
2026-01-30 09:46:32.64	336.72	28.54	-46.3	-61.0	3.6	1.51e+00	0	41	104	0	60	45486
2026-01-30 09:46:33.65	336.79	28.27	-46.3	-61.0	3.6	1.51e+00	0	42	104	0	60	45388
2026-01-30 09:46:34.66	336.85	28.01	-46.4	-61.1	3.6	1.51e+00	0	42	104	0	60	45930
2026-01-30 09:46:35.67	336.91	27.75	-46.4	-61.0	3.6	1.51e+00	0	42	104	0	60	45605
2026-01-30 09:46:36.67	336.97	27.49	-46.3	-61.0	3.6	1.51e+00	0	42	104	0	60	45506
2026-01-30 09:46:37.68	337.02	27.24	-46.3	-61.0	3.6	1.51e+00	0	42	104	0	60	45719
2026-01-30 09:46:38.69	337.08	26.99	-46.3	-61.0	3.6	1.51e+00	0	42	104	0	60	45573
2026-01-30 09:46:39.70	337.14	26.74	-46.2	-61.0	3.6	1.51e+00	0	42	104	0	60	45713
2026-01-30 09:46:40.71	337.19	26.49	-46.2	-61.0	3.6	1.51e+00	0	41	104	0	60	45473
2026-01-30 09:46:41.72	337.25	26.25	-46.4	-61.0	3.6	1.51e+00	0	41	104	0	60	45686
2026-01-30 09:46:42.73	337.30	26.01	-46.3	-61.0	3.6	1.51e+00	0	42	104	0	60	45686
2026-01-30 09:46:43.74	337.35	25.77	-46.3	-61.1	3.6	1.51e+00	0	42	104	0	60	45804
2026-01-30 09:46:44.75	337.41	25.53	-46.3	-61.0	3.6	1.51e+00	0	42	104	0	60	45700
2026-01-30 09:46:45.76	337.46	25.30	-46.3	-61.0	3.6	1.51e+00	0	42	104	0	60	45473
2026-01-30 09:46:46.77	337.51	25.07	-46.3	-61.0	3.6	1.51e+00	0	42	104	0	60	45727
2026-01-30 09:46:47.78	337.56	24.84	-46.4	-61.0	3.6	1.51e+00	0	42	104	0	60	45676
2026-01-30 09:46:48.79	337.61	24.62	-46.3	-61.0	3.6	1.51e+00	0	42	104	0	60	45665
2026-01-30 09:46:49.80	337.66	24.39	-46.3	-61.0	3.5	1.51e+00	0	42	104	0	60	45619
2026-01-30 09:46:50.81	337.70	24.17	-46.3	-61.1	3.6	1.51e+00	0	42	104	0	60	45775
2026-01-30 09:46:51.82	337.75	23.95	-46.3	-61.0	3.6	1.51e+00	0	42	104	0	60	45579
2026-01-30 09:46:52.83	337.80	23.74	-46.3	-61.0	3.6	1.51e+00	0	42	104	0	60	45550
2026-01-30 09:46:53.84	337.84	23.52	-46.2	-61.0	3.6	1.51e+00	0	42	104	0	60	45461
2026-01-30 09:46:54.85	337.89	23.31	-46.3	-61.0	3.6	1.51e+00	0	42	104	0	60	45626
2026-01-30 09:46:55.85	337.93	23.10	-46.2	-61.0	3.6	1.51e+00	0	42	104	0	60	45488
2026-01-30 09:46:56.86	337.98	22.89	-46.3	-61.0	3.6	1.51e+00	0	42	104	0	60	45390
2026-01-30 09:46:57.87	338.02	22.69	-46.2	-61.0	3.5	1.51e+00	0	42	104	0	60	45316
2026-01-30 09:46:58.88	338.06	22.48	-46.1	-61.0	3.6	1.51e+00	0	42	104	0	60	45559
2026-01-30 09:46:59.89	338.10	22.28	-46.3	-61.0	3.6	1.51e+00	0	42	104	0	60	45447
2026-01-30 09:47:00.90	338.15	22.08	-46.2	-61.0	3.6	1.51e+00	0	42	104	0	60	45379
2026-01-30 09:47:01.91	338.19	21.88	-46.2	-61.0	3.6	1.51e+00	0	42	104	0	60	45479
2026-01-30 09:47:02.92	338.23	21.69	-46.2	-61.0	3.6	1.51e+00	0	42	104	0	60	45514
2026-01-30 09:47:03.93	338.27	21.49	-46.2	-61.0	3.5	1.51e+00	0	42	104	0	60	45397
2026-01-30 09:47:04.94	338.31	21.30	-46.3	-61.0	3.6	1.51e+00	0	42	104	0	60	45394
2026-01-30 09:47:05.95	338.35	21.11	-46.3	-61.0	3.6	1.51e+00	0	42	104	0	60	45387
2026-01-30 09:47:06.96	338.38	20.92	-46.3	-60.9	3.6	1.51e+00	0	42	104	0	60	45165
2026-01-30 09:47:07.96	338.42	20.73	-46.1	-61.0	3.6	1.51e+00	0	42	104	0	60	45367
2026-01-30 09:47:08.97	338.46	20.55	-46.2	-61.0	3.6	1.51e+00	0	42	104	0	60	45464
2026-01-30 09:47:09.98	338.50	20.37	-46.1	-61.0	3.6	1.51e+00	0	42	104	0	60	45333
2026-01-30 09:47:11.00	338.53	20.18	-46.2	-61.0	3.6	1.51e+00	0	42	104	0	60	45350
2026-01-30 09:47:12.00	338.57	20.00	-46.2	-61.0	3.6	1.51e+00	0	41	104	0	60	45349
2026-01-30 09:47:13.01	338.61	19.82	-46.2	-60.9	3.6	1.51e+00	0	42	104	0	60	45096
2026-01-30 09:47:14.02	338.64	19.65	-46.2	-60.9	3.6	1.51e+00	0	42	104	0	60	45127
2026-01-30 09:47:15.03	338.68	19.47	-46.1	-60.9	3.6	1.51e+00	0	42	104	0	60	45128
2026-01-30 09:47:16.04	338.71	19.30	-46.2	-60.9	3.6	1.51e+00	0	42	104	0	60	44954
2026-01-30 09:47:17.05	338.74	19.12	-46.1	-60.9	3.6	1.51e+00	0	42	104	0	60	45139
2026-01-30 09:47:18.06	338.78	18.95	-46.1	-60.9	3.6	1.51e+00	0	42	104	0	60	44768
2026-01-30 09:47:19.06	338.81	18.78	-46.0	-60.9	3.6	1.51e+00	0	42	104	0	60	45056
2026-01-30 09:47:20.08	338.85	18.62	-46.2	-60.9	3.6	1.51e+00	0	42	104	0	60	45118
2026-01-30 09:47:21.09	338.88	18.45	-46.1	-60.9	3.5	1.51e+00	0	42	104	0	60	45062
2026-01-30 09:47:22.10	338.91	18.28	-46.1	-60.9	3.6	1.51e+00	0	42	104	0	60	45024
2026-01-30 09:47:23.11	338.94	18.12	-46.2	-60.9	3.6	1.51e+00	0	42	104	0	60	45045
2026-01-30 09:47:24.12	338.97	17.96	-46.1	-60.9	3.6	1.51e+00	0	42	104	0	60	44897
2026-01-30 09:47:25.12	339.01	17.80	-46.2	-60.9	3.6	1.51e+00	0	42	104	0	60	44781
2026-01-30 09:47:26.13	339.04	17.64	-46.2	-60.9	3.6	1.51e+00	0	42	104	0	60	45147
2026-01-30 09:47:27.14	339.07	17.48	-46.1	-60.9	3.6	1.51e+00	0	42	104	0	60	44934
2026-01-30 09:47:28.15	339.10	17.32	-46.2	-60.9	3.6	1.51e+00	0	42	104	0	60	45008
2026-01-30 09:47:29.16	339.13	17.17	-46.1	-60.9	3.6	1.51e+00	0	42	104	0	60	44965
2026-01-30 09:47:30.17	339.16	17.01	-46.1	-60.8	3.6	1.51e+00	0	42	104	0	60	44713
2026-01-30 09:47:31.18	339.19	16.86	-46.1	-60.9	3.6	1.51e+00	0	42	104	0	60	44924
2026-01-30 09:47:32.19	339.22	16.71	-46.1	-60.9	3.6	1.51e+00	0	42	104	0	60	44896
2026-01-30 09:47:33.20	339.24	16.55	-46.2	-60.9	3.6	1.51e+00	0	42	104	0	60	44872
2026-01-30 09:47:34.21	339.27	16.40	-46.1	-60.9	3.6	1.51e+00	0	42	104	0	60	44800
2026-01-30 09:47:35.22	339.30	16.26	-46.0	-60.9	3.6	1.51e+00	0	42	104	0	60	44775
2026-01-30 09:47:36.23	339.33	16.11	-46.1	-60.8	3.6	1.51e+00	0	42	104	0	60	44665
2026-01-30 09:47:37.24	339.36	15.96	-46.0	-60.8	3.6	1.51e+00	0	42	104	0	60	44552
2026-01-30 09:47:38.25	339.38	15.82	-46.1	-60.8	3.6	1.51e+00	0	42	104	0	60	44654
2026-01-30 09:47:39.26	339.41	15.67	-46.1	-60.8	3.6	1.51e+00	0	42	104	0	60	44596
2026-01-30 09:47:40.27	339.44	15.53	-46.1	-60.8	3.6	1.51e+00	0	42	104	0	60	44567
2026-01-30 09:47:41.28	339.47	15.39	-46.1	-60.8	3.6	1.51e+00	0	42	104	0	60	44634
2026-01-30 09:47:42.29	339.49	15.25	-46.1	-60.9	3.6	1.51e+00	0	42	104	0	60	44768
2026-01-30 09:47:43.29	339.52	15.11	-46.1	-60.9	3.6	1.51e+00	0	42	104	0	60	44796
2026-01-30 09:47:44.30	339.54	14.97	-46.1	-60.8	3.6	1.51e+00	0	42	104	0	60	44347
2026-01-30 09:47:45.31	339.57	14.83	-46.1	-60.8	3.6	1.51e+00	0	42	104	0	60	44574
2026-01-30 09:47:46.32	339.60	14.69	-46.1	-60.8	3.6	1.51e+00	0	42	104	0	60	44490
2026-01-30 09:47:47.33	339.62	14.56	-46.1	-60.8	3.6	1.51e+00	0	42	104	0	60	44314
2026-01-30 09:47:48.34	339.65	14.42	-46.1	-60.8	3.6	1.51e+00	0	42	104	0	60	44402
2026-01-30 09:47:49.35	339.67	14.29	-46.1	-60.8	3.6	1.51e+00	0	42	104	0	60	44441
2026-01-30 09:47:50.36	339.69	14.16	-46.1	-60.9	3.6	1.51e+00	0	42	104	0	60	44872
2026-01-30 09:47:51.37	339.72	14.03	-46.1	-60.8	3.6	1.51e+00	0	42	104	0	60	44636
2026-01-30 09:47:52.38	339.74	13.89	-46.1	-60.8	3.6	1.51e+00	0	42	104	0	60	44692
2026-01-30 09:47:53.39	339.77	13.76	-46.1	-60.9	3.6	1.51e+00	0	42	104	0	60	44783
2026-01-30 09:47:54.40	339.79	13.64	-46.1	-60.8	3.6	1.51e+00	0	42	104	0	60	44598
2026-01-30 09:47:55.40	339.81	13.51	-46.1	-60.8	3.6	1.51e+00	0	42	104	0	60	44670
2026-01-30 09:47:56.41	339.84	13.38	-46.1	-60.8	3.6	1.51e+00	0	42	104	0	60	44471
2026-01-30 09:47:57.42	339.86	13.25	-46.1	-60.8	3.6	1.51e+00	0	42	104	0	60	44710
2026-01-30 09:47:58.43	339.88	13.13	-46.0	-60.8	3.6	1.51e+00	0	42	104	0	60	44262
2026-01-30 09:47:59.44	339.91	13.00	-46.0	-60.8	3.6	1.51e+00	0	42	104	0	60	44423
2026-01-30 09:48:00.45	339.93	12.88	-46.0	-60.8	3.6	1.51e+00	0	42	104	0	60	44512
2026-01-30 09:48:01.46	339.95	12.76	-46.0	-60.8	3.6	1.51e+00	0	42	104	0	60	44536
2026-01-30 09:48:02.47	339.97	12.63	-46.0	-60.7	3.6	1.51e+00	0	42	104	0	60	44135
2026-01-30 09:48:03.48	340.00	12.51	-46.0	-60.8	3.6	1.51e+00	0	42	104	0	60	44320
2026-01-30 09:48:04.49	340.02	12.39	-46.2	-60.9	3.6	1.51e+00	0	42	104	0	60	45006
2026-01-30 09:48:05.50	340.04	12.27	-46.2	-60.9	3.6	1.51e+00	0	42	104	0	60	44931
2026-01-30 09:48:06.51	340.06	12.15	-46.1	-60.8	3.6	1.51e+00	0	42	104	0	60	44497
2026-01-30 09:48:07.52	340.08	12.03	-46.1	-60.8	3.6	1.51e+00	0	42	104	0	60	44500
2026-01-30 09:48:08.53	340.10	11.92	-46.1	-60.8	3.5	1.51e+00	0	42	104	0	60	44511
2026-01-30 09:48:09.54	340.12	11.80	-46.1	-60.8	3.6	1.51e+00	0	42	104	0	60	44366
2026-01-30 09:48:10.55	340.15	11.68	-46.1	-60.7	3.6	1.51e+00	0	42	104	0	60	44195
2026-01-30 09:48:11.56	340.17	11.57	-46.0	-60.7	3.6	1.51e+00	0	42	104	0	60	44186
2026-01-30 09:48:12.57	340.19	11.45	-46.0	-60.7	3.6	1.51e+00	0	42	104	0	60	44088
2026-01-30 09:48:13.58	340.21	11.34	-46.1	-60.8	3.6	1.51e+00	0	42	104	0	60	44406
2026-01-30 09:48:14.59	340.23	11.23	-46.0	-60.7	3.6	1.51e+00	0	42	104	0	60	43972
2026-01-30 09:48:15.60	340.25	11.11	-45.9	-60.6	3.6	1.51e+00	0	42	104	0	60	43672
2026-01-30 09:48:16.61	340.27	11.00	-46.0	-60.7	3.6	1.51e+00	0	42	104	0	60	44202
2026-01-30 09:48:17.62	340.29	10.89	-46.0	-60.7	3.6	1.51e+00	0	42	104	0	60	43830
2026-01-30 09:48:18.63	340.31	10.78	-46.0	-60.7	3.6	1.51e+00	0	42	104	0	60	44027
2026-01-30 09:48:19.64	340.33	10.67	-45.9	-60.7	3.6	1.51e+00	0	42	104	0	60	43905
2026-01-30 09:48:20.65	340.35	10.56	-45.9	-60.7	3.6	1.51e+00	0	42	104	0	60	44034
2026-01-30 09:48:21.66	340.37	10.45	-45.9	-60.7	3.6	1.51e+00	0	42	104	0	60	43794
2026-01-30 09:48:22.67	340.38	10.34	-46.0	-60.6	3.6	1.51e+00	0	42	104	0	60	43699
2026-01-30 09:48:23.67	340.40	10.24	-45.7	-60.6	3.6	1.51e+00	0	42	104	0	60	43453
2026-01-30 09:48:24.68	340.42	10.13	-46.0	-60.7	3.6	1.51e+00	0	42	104	0	60	43820
2026-01-30 09:48:25.69	340.44	10.02	-45.7	-60.7	3.6	1.51e+00	0	42	104	0	60	43733
2026-01-30 09:48:26.70	340.46	9.92	-45.8	-60.7	3.6	1.51e+00	0	42	104	0	60	43782
2026-01-30 09:48:27.71	340.48	9.81	-45.8	-60.5	3.6	1.51e+00	0	42	104	0	60	43171
2026-01-30 09:48:28.72	340.50	9.71	-45.8	-60.6	3.6	1.51e+00	0	42	104	0	60	43647
2026-01-30 09:48:29.73	340.51	9.60	-45.8	-60.6	3.6	1.51e+00	0	42	104	0	60	43643
2026-01-30 09:48:30.74	340.53	9.50	-45.7	-60.6	3.6	1.51e+00	0	42	104	0	60	43510
2026-01-30 09:48:31.75	340.55	9.40	-45.8	-60.6	3.6	1.51e+00	0	42	104	0	60	43437
2026-01-30 09:48:32.76	340.57	9.30	-45.8	-60.6	3.6	1.51e+00	0	42	104	0	60	43437
2026-01-30 09:48:33.77	340.59	9.19	-45.8	-60.5	3.6	1.51e+00	0	42	104	0	60	43196
2026-01-30 09:48:34.78	340.60	9.09	-45.5	-60.5	3.6	1.51e+00	0	42	104	0	60	43013
2026-01-30 09:48:35.79	340.62	8.99	-45.7	-60.5	3.6	1.51e+00	0	42	104	0	60	42739
2026-01-30 09:48:36.80	340.64	8.89	-45.8	-60.6	3.6	1.51e+00	0	42	104	0	60	43539
2026-01-30 09:48:37.81	340.66	8.79	-45.8	-60.5	3.6	1.51e+00	0	42	104	0	60	42958
2026-01-30 09:48:38.82	340.67	8.69	-45.7	-60.5	3.6	1.51e+00	0	42	104	0	60	43045
2026-01-30 09:48:39.83	340.69	8.60	-45.7	-60.4	3.6	1.51e+00	0	42	104	0	60	42548
2026-01-30 09:48:40.84	340.71	8.50	-45.9	-60.6	3.6	1.51e+00	0	42	104	0	60	43236
2026-01-30 09:48:41.84	340.72	8.40	-45.8	-60.5	3.6	1.51e+00	0	42	104	0	60	42958
2026-01-30 09:48:42.85	340.74	8.30	-45.8	-60.5	3.6	1.51e+00	0	42	104	0	60	42886
2026-01-30 09:48:43.86	340.76	8.21	-45.7	-60.5	3.6	1.51e+00	0	42	104	0	60	42735
2026-01-30 09:48:44.87	340.77	8.11	-45.8	-60.5	3.6	1.51e+00	0	42	104	0	60	43032
2026-01-30 09:48:45.88	340.79	8.02	-45.7	-60.5	3.6	1.51e+00	0	42	104	0	60	42742
2026-01-30 09:48:46.89	340.81	7.92	-45.7	-60.5	3.6	1.51e+00	0	42	104	0	60	42831
2026-01-30 09:48:47.90	340.82	7.83	-45.7	-60.4	3.6	1.51e+00	0	42	104	0	60	42432
2026-01-30 09:48:48.91	340.84	7.73	-45.8	-60.5	3.6	1.51e+00	0	42	104	0	60	42824
2026-01-30 09:48:49.92	340.86	7.64	-45.7	-60.4	3.6	1.51e+00	0	42	104	0	60	42627
2026-01-30 09:48:50.93	340.87	7.55	-45.7	-60.4	3.6	1.51e+00	0	42	104	0	60	42380
2026-01-30 09:48:51.94	340.89	7.45	-45.6	-60.3	3.6	1.51e+00	0	42	104	0	60	42084
2026-01-30 09:48:52.95	340.90	7.36	-45.8	-60.4	3.6	1.51e+00	0	42	104	0	60	42516
2026-01-30 09:48:53.96	340.92	7.27	-45.7	-60.4	3.6	1.51e+00	0	42	104	0	60	42321
2026-01-30 09:48:54.96	340.93	7.18	-45.7	-60.4	3.6	1.51e+00	0	42	104	0	60	42448
2026-01-30 09:48:55.97	340.95	7.09	-45.4	-60.2	3.6	1.51e+00	0	42	104	0	60	41368
2026-01-30 09:48:56.98	340.97	7.00	-45.8	-60.5	3.6	1.51e+00	0	42	104	0	60	42726
2026-01-30 09:48:57.99	340.98	6.91	-45.6	-60.3	3.6	1.51e+00	0	42	104	0	60	42027
2026-01-30 09:48:59.00	341.00	6.82	-45.6	-60.3	3.6	1.51e+00	0	42	104	0	60	42087
2026-01-30 09:49:00.01	341.01	6.73	-45.2	-59.9	3.6	1.51e+00	0	42	104	0	60	39935
2026-01-30 09:49:01.02	341.03	6.64	-45.7	-60.4	3.6	1.51e+00	0	42	104	0	60	42424
2026-01-30 09:49:02.03	341.04	6.55	-45.4	-60.2	3.6	1.51e+00	0	42	104	0	60	41346
2026-01-30 09:49:03.04	341.06	6.46	-45.4	-60.2	3.6	1.51e+00	0	42	104	0	60	41432
2026-01-30 09:49:04.05	341.07	6.38	-44.6	-59.4	3.6	1.51e+00	0	42	104	0	60	37845
2026-01-30 09:49:05.06	341.09	6.29	-45.6	-60.3	3.6	1.51e+00	0	42	104	0	60	41911
2026-01-30 09:49:06.07	341.10	6.20	-44.5	-59.2	3.6	1.51e+00	0	42	104	0	60	37183
2026-01-30 09:49:07.08	341.12	6.12	-44.3	-59.0	3.6	1.51e+00	0	42	104	0	60	36141
2026-01-30 09:49:08.09	341.13	6.03	-44.0	-58.7	3.6	1.51e+00	0	42	104	0	60	34867
2026-01-30 09:49:09.10	341.14	5.95	-42.3	-57.0	3.6	1.51e+00	0	42	104	0	60	28861
2026-01-30 09:49:10.11	341.16	5.86	-43.5	-58.3	3.6	1.51e+00	0	42	104	0	60	33166
2026-01-30 09:49:11.12	341.17	5.78	-45.3	-60.1	3.6	1.51e+00	0	42	104	0	60	40848
2026-01-30 09:49:12.13	341.19	5.69	-43.0	-57.6	3.6	1.51e+00	0	42	104	0	60	30741
2026-01-30 09:49:13.14	341.20	5.61	-43.2	-57.9	3.6	1.51e+00	0	42	104	0	60	31771
2026-01-30 09:49:14.15	341.22	5.52	-42.7	-57.4	3.6	1.51e+00	0	42	104	0	60	30125
2026-01-30 09:49:15.16	341.23	5.44	-42.6	-57.3	3.6	1.51e+00	0	42	104	0	60	29593
2026-01-30 09:49:16.17	341.24	5.36	-42.4	-57.0	3.6	1.51e+00	0	42	104	0	60	28793
2026-01-30 09:49:17.18	341.26	5.27	-42.1	-56.8	3.6	1.51e+00	0	42	104	0	60	27965
2026-01-30 09:49:18.19	341.27	5.19	-42.3	-57.0	3.6	1.51e+00	0	42	104	0	60	28787
2026-01-30 09:49:19.20	341.29	5.11	-44.3	-58.9	3.6	1.51e+00	0	42	104	0	60	35913
2026-01-30 09:49:20.21	341.30	5.03	-42.3	-56.9	3.6	1.51e+00	0	42	104	0	60	28374
2026-01-30 09:49:21.22	341.31	4.95	-42.3	-57.0	3.6	1.51e+00	0	42	104	0	60	28824
2026-01-30 09:49:22.23	341.33	4.87	-42.1	-56.8	3.6	1.51e+00	0	42	104	0	60	28099
2026-01-30 09:49:23.24	341.34	4.78	-42.0	-56.7	3.6	1.51e+00	0	42	104	0	60	27808
2026-01-30 09:49:24.25	341.35	4.70	-42.0	-56.7	3.6	1.51e+00	0	42	104	0	60	27787
2026-01-30 09:49:25.26	341.37	4.62	-42.1	-56.8	3.6	1.51e+00	0	42	104	0	60	27912
2026-01-30 09:49:26.27	341.38	4.54	-42.0	-56.8	3.6	1.51e+00	0	42	104	0	60	27911
2026-01-30 09:49:27.28	341.39	4.46	-42.7	-57.4	3.6	1.51e+00	0	42	104	0	60	30055
2026-01-30 09:49:28.29	341.41	4.39	-42.1	-56.8	3.6	1.51e+00	0	42	104	0	60	28092
2026-01-30 09:49:29.30	341.42	4.31	-42.0	-56.8	3.6	1.51e+00	0	42	104	0	60	27984
2026-01-30 09:49:30.30	341.43	4.23	-42.0	-56.6	3.6	1.51e+00	0	42	104	0	60	27538
2026-01-30 09:49:31.31	341.45	4.15	-41.9	-56.6	3.6	1.51e+00	0	42	104	0	60	27371
2026-01-30 09:49:32.32	341.46	4.07	-41.9	-56.6	3.6	1.51e+00	0	42	104	0	60	27291
2026-01-30 09:49:33.32	341.47	4.00	-41.8	-56.5	3.6	1.51e+00	0	42	104	0	60	27000
2026-01-30 09:49:34.33	341.48	3.92	-41.9	-56.6	3.6	1.51e+00	0	42	104	0	60	27306
2026-01-30 09:49:35.34	341.50	3.84	-42.2	-56.9	3.6	1.51e+00	0	42	104	0	60	28437
2026-01-30 09:49:36.35	341.51	3.77	-42.1	-56.7	3.6	1.51e+00	0	42	104	0	60	27823
2026-01-30 09:49:37.36	341.52	3.69	-41.9	-56.7	3.6	1.51e+00	0	42	104	0	60	27693
2026-01-30 09:49:38.37	341.54	3.61	-41.9	-56.6	3.6	1.51e+00	0	42	104	0	60	27266
2026-01-30 09:49:39.38	341.55	3.54	-42.2	-56.9	3.6	1.51e+00	0	42	104	0	60	28311
2026-01-30 09:49:40.39	341.56	3.46	-42.0	-56.7	3.6	1.51e+00	0	42	104	0	60	27643
2026-01-30 09:49:41.40	341.57	3.39	-41.9	-56.6	3.6	1.51e+00	0	42	104	0	60	27322
2026-01-30 09:49:42.41	341.59	3.31	-41.8	-56.5	3.6	1.51e+00	0	42	104	0	58	30321
2026-01-30 09:49:43.42	341.60	3.24	-42.1	-56.8	3.6	1.51e+00	0	42	104	0	58	31346
2026-01-30 09:49:44.43	341.61	3.16	-41.9	-56.6	3.6	1.51e+00	0	42	104	0	58	30634
2026-01-30 09:49:45.44	341.62	3.09	-41.7	-56.4	3.5	1.51e+00	0	42	104	0	58	30156
2026-01-30 09:49:46.45	341.63	3.01	-41.8	-56.5	3.6	1.51e+00	0	42	104	0	58	30352
2026-01-30 09:49:47.46	341.65	2.94	-42.1	-56.8	3.6	1.51e+00	0	42	104	0	58	31321
2026-01-30 09:49:48.47	341.66	2.87	-44.8	-59.6	3.6	1.51e+00	0	42	104	0	60	38549
2026-01-30 09:49:49.48	341.67	2.79	-45.9	-60.6	3.6	1.51e+00	0	42	104	0	60	43258
2026-01-30 09:49:50.49	341.68	2.72	-45.9	-60.7	3.6	1.51e+00	0	42	104	0	60	44151
2026-01-30 09:49:51.50	341.70	2.65	-46.1	-60.9	3.6	1.51e+00	0	42	104	0	60	44807
2026-01-30 09:49:52.51	341.71	2.57	-46.0	-61.0	3.6	1.51e+00	0	42	104	0	60	45356
2026-01-30 09:49:53.52	341.72	2.50	-46.4	-61.1	3.6	1.51e+00	0	42	104	0	60	46118
2026-01-30 09:49:54.53	341.73	2.43	-46.4	-61.2	3.6	1.51e+00	0	42	104	0	60	46625
2026-01-30 09:49:55.54	341.74	2.36	-46.5	-61.2	3.6	1.51e+00	0	42	104	0	60	46654
2026-01-30 09:49:56.55	341.75	2.29	-46.6	-61.3	3.6	1.51e+00	0	42	104	0	60	46978
2026-01-30 09:49:57.56	341.77	2.22	-46.6	-61.3	3.6	1.51e+00	0	42	104	0	60	47272
2026-01-30 09:49:58.57	341.78	2.14	-46.6	-61.3	3.6	1.51e+00	0	42	104	0	60	47187
2026-01-30 09:49:59.58	341.79	2.07	-46.8	-61.5	3.6	1.51e+00	0	42	104	0	60	48231
2026-01-30 09:50:00.59	341.80	2.00	-46.7	-61.4	3.6	1.51e+00	0	42	104	0	60	47395
2026-01-30 09:50:01.60	341.81	1.93	-46.6	-61.3	3.6	1.51e+00	0	42	104	0	60	47111
2026-01-30 09:50:02.61	341.82	1.86	-46.2	-61.2	3.6	1.51e+00	0	42	104	0	60	46379
2026-01-30 09:50:03.62	341.84	1.79	-46.4	-61.1	3.6	1.51e+00	0	42	104	0	60	46266
2026-01-30 09:50:04.63	341.85	1.72	-46.5	-61.3	3.6	1.51e+00	0	42	104	0	60	46982
2026-01-30 09:50:05.64	341.86	1.65	-46.5	-61.2	3.6	1.51e+00	0	42	104	0	60	46377
2026-01-30 09:50:06.65	341.87	1.58	-46.4	-61.1	3.6	1.51e+00	0	42	104	0	60	46135
2026-01-30 09:50:07.66	341.88	1.52	-46.2	-61.0	3.6	1.51e+00	0	42	104	0	60	45762
2026-01-30 09:50:08.67	341.89	1.45	-46.4	-61.1	3.6	1.51e+00	0	42	104	0	60	46193
2026-01-30 09:50:09.68	341.90	1.38	-46.4	-61.0	3.6	1.51e+00	0	42	104	0	60	45597
2026-01-30 09:50:10.69	341.91	1.31	-46.4	-61.1	3.6	1.51e+00	0	42	104	0	60	45921
2026-01-30 09:50:11.70	341.93	1.24	-46.4	-61.1	3.6	1.51e+00	0	42	104	0	60	45831
2026-01-30 09:50:12.71	341.94	1.17	-46.4	-61.1	3.6	1.51e+00	0	42	104	0	60	45871
2026-01-30 09:50:13.72	341.95	1.11	-46.4	-61.0	3.6	1.51e+00	0	42	104	0	60	45707
2026-01-30 09:50:14.73	341.96	1.04	-46.3	-61.0	3.6	1.51e+00	0	42	104	0	60	45529
2026-01-30 09:50:15.74	341.97	0.97	-46.3	-61.0	3.6	1.51e+00	0	42	104	0	60	45618
2026-01-30 09:50:16.75	341.98	0.90	-46.3	-61.0	3.6	1.51e+00	0	42	104	0	60	45671
2026-01-30 09:50:17.76	341.99	0.84	-46.3	-61.0	3.6	1.51e+00	0	42	104	0	60	45575
2026-01-30 09:50:18.77	342.00	0.77	-46.3	-61.0	3.6	1.51e+00	0	42	104	0	60	45533
2026-01-30 09:50:19.78	342.01	0.70	-46.3	-61.0	3.6	1.51e+00	0	42	104	0	60	45523
2026-01-30 09:50:20.79	342.02	0.64	-46.3	-61.0	3.6	1.51e+00	0	42	104	0	60	45508
2026-01-30 09:50:21.81	342.03	0.57	-46.3	-61.0	3.6	1.51e+00	0	42	104	0	60	45501
2026-01-30 09:50:22.81	342.05	0.51	-46.3	-61.0	3.6	1.51e+00	0	42	104	0	60	45502
2026-01-30 09:50:23.83	342.06	0.44	-46.3	-61.0	3.6	1.51e+00	0	42	104	0	60	45574
2026-01-30 09:50:24.83	342.07	0.37	-46.3	-61.0	3.6	1.51e+00	0	42	104	0	60	45711
2026-01-30 09:50:25.85	342.08	0.31	-46.3	-61.0	3.6	1.51e+00	0	42	104	0	60	45388
2026-01-30 09:50:26.86	342.09	0.24	-46.3	-61.0	3.6	1.51e+00	0	42	104	0	60	45587
2026-01-30 09:50:27.86	342.10	0.18	-46.3	-61.0	3.6	1.51e+00	0	42	104	0	60	45582
2026-01-30 09:50:28.87	342.11	0.11	-46.3	-61.0	3.6	1.51e+00	0	42	104	0	60	45286
2026-01-30 09:50:29.88	342.12	0.05	-46.3	-61.0	3.6	1.51e+00	0	42	104	0	60	45476
2026-01-30 09:50:30.89	342.13	-0.02	-46.3	-61.0	3.6	1.51e+00	0	42	104	0	60	45342
2026-01-30 09:50:31.90	342.14	-0.08	-46.3	-61.0	3.6	1.51e+00	0	42	104	0	60	45615

#Closed at: 2026-01-30 09:50:32
#Recorded file [0 MB]: D:/lorett/data/35029_260130_213858.dat