passes_logs/2026/01/30/R4.6S_Anadyr/R4.6S_Anadyr__20260130_063403_KOSAR1-5_rec.log

#Pass ID: 20260130_063403_KOSAR1-5
#Satellite: KOSAR1-5
#Configuration: KOSAR1-5
#almurnet v.1.7.20251203
#Start time: 2026-01-30 06:34:05

#Version: 2.2.20231116
#Station: R4.6S_Anadyr
#Location: 177.4865 lon 64.73178 lat
#TLE: 1 67264U 25313S   26028.94615568  .00012050  00000+0  55467-3 0  9998
#TLE: 2 67264  97.4180 105.8864 0016576 134.5684 225.6907 15.20338860  4779

#Time	Az	El	Level	Level2	SNR	BER	BlckErr	Temp	State	Recorded	gain1	gain2
2026-01-30 06:34:05.07	78.26	0.10	-49.5	-61.2	3.5	8.46e-01	0	38	0	0	60	41270
2026-01-30 06:34:06.08	78.15	0.15	-46.5	-61.2	3.6	1.51e+00	0	39	104	0	60	46366
2026-01-30 06:34:07.09	78.03	0.20	-46.4	-61.2	3.6	1.51e+00	0	39	104	0	60	46622
2026-01-30 06:34:08.10	77.92	0.25	-46.4	-61.1	3.6	1.51e+00	0	39	104	0	60	46137
2026-01-30 06:34:09.11	77.81	0.30	-46.6	-61.2	3.6	1.51e+00	0	39	104	0	60	46818
2026-01-30 06:34:10.12	77.69	0.34	-46.4	-61.2	3.6	1.51e+00	0	39	104	0	60	46466
2026-01-30 06:34:11.13	77.58	0.39	-46.5	-61.2	3.6	1.51e+00	0	39	104	0	60	46561
2026-01-30 06:34:12.14	77.46	0.44	-46.6	-61.3	3.6	1.51e+00	0	39	104	0	60	47098
2026-01-30 06:34:13.15	77.34	0.49	-46.6	-61.3	3.6	1.51e+00	0	39	104	0	60	47025
2026-01-30 06:34:14.16	77.23	0.54	-46.6	-61.3	3.6	1.51e+00	0	39	104	0	60	46988
2026-01-30 06:34:15.17	77.11	0.59	-46.6	-61.4	3.6	1.51e+00	0	39	104	0	60	47387
2026-01-30 06:34:16.18	76.99	0.64	-46.6	-61.3	3.6	1.51e+00	0	39	104	0	60	47296
2026-01-30 06:34:17.19	76.87	0.69	-46.5	-61.3	3.6	1.51e+00	0	39	104	0	60	47199
2026-01-30 06:34:18.20	76.75	0.73	-46.6	-61.3	3.6	1.51e+00	0	39	104	0	60	47332
2026-01-30 06:34:19.21	76.63	0.78	-46.7	-61.3	3.5	1.51e+00	0	39	104	0	60	47276
2026-01-30 06:34:20.22	76.51	0.83	-46.6	-61.4	3.6	1.51e+00	0	39	104	0	60	47431
2026-01-30 06:34:21.23	76.39	0.88	-46.6	-61.3	3.6	1.51e+00	0	39	104	0	60	47332
2026-01-30 06:34:22.24	76.27	0.93	-46.6	-61.3	3.6	1.51e+00	0	39	104	0	60	47145
2026-01-30 06:34:23.25	76.15	0.98	-46.3	-61.4	3.6	1.51e+00	0	39	104	0	60	47420
2026-01-30 06:34:24.26	76.03	1.03	-46.3	-61.3	3.6	1.51e+00	0	39	104	0	60	47168
2026-01-30 06:34:25.26	75.90	1.08	-45.8	-61.2	3.6	1.51e+00	0	39	104	0	60	46640
2026-01-30 06:34:26.28	75.78	1.13	-46.5	-61.2	3.6	1.51e+00	0	39	104	0	60	46427
2026-01-30 06:34:27.28	75.66	1.17	-46.0	-61.1	3.6	1.51e+00	0	39	104	0	60	45997
2026-01-30 06:34:28.30	75.53	1.22	-43.8	-61.0	3.6	1.51e+00	0	39	104	0	60	45274
2026-01-30 06:34:29.31	75.41	1.27	-44.9	-60.8	3.6	1.51e+00	0	39	104	0	60	44372
2026-01-30 06:34:30.32	75.28	1.32	-45.7	-60.5	3.6	1.51e+00	0	39	104	0	60	43106
2026-01-30 06:34:31.33	75.15	1.37	-43.4	-59.8	3.6	1.51e+00	0	39	104	0	60	39777
2026-01-30 06:34:32.34	75.03	1.42	-41.4	-59.7	3.6	1.51e+00	0	39	104	0	58	44199
2026-01-30 06:34:33.34	74.90	1.47	-41.4	-59.8	3.6	1.51e+00	0	39	104	0	58	44267
2026-01-30 06:34:34.35	74.77	1.52	-41.4	-59.7	3.6	1.51e+00	0	40	104	0	58	44090
2026-01-30 06:34:35.36	74.64	1.57	-41.4	-59.8	3.6	1.51e+00	0	39	104	0	58	44251
2026-01-30 06:34:36.37	74.52	1.61	-41.4	-59.7	3.6	1.51e+00	0	40	104	0	58	43956
2026-01-30 06:34:37.38	74.39	1.66	-41.4	-59.8	3.6	1.51e+00	0	39	104	0	58	44219
2026-01-30 06:34:38.39	74.26	1.71	-41.4	-59.8	3.6	1.51e+00	0	40	104	0	58	44304
2026-01-30 06:34:39.39	74.13	1.76	-41.4	-59.7	3.6	1.51e+00	0	40	104	0	58	44134
2026-01-30 06:34:40.40	74.00	1.81	-41.4	-59.8	3.6	1.51e+00	0	40	104	0	58	44251
2026-01-30 06:34:41.41	73.86	1.86	-41.4	-59.7	3.6	1.51e+00	0	40	104	0	58	44209
2026-01-30 06:34:42.42	73.73	1.91	-41.4	-59.7	3.6	1.51e+00	0	40	104	0	58	44047
2026-01-30 06:34:43.43	73.60	1.96	-41.3	-59.7	3.6	1.51e+00	0	40	104	0	58	44067
2026-01-30 06:34:44.44	73.46	2.01	-41.4	-59.7	3.6	1.51e+00	0	40	104	0	58	43945
2026-01-30 06:34:45.45	73.33	2.05	-41.3	-59.7	3.6	1.51e+00	0	40	104	0	58	44115
2026-01-30 06:34:46.46	73.20	2.10	-41.3	-59.7	3.6	1.51e+00	0	40	104	0	58	44092
2026-01-30 06:34:47.47	73.06	2.15	-41.3	-59.7	3.6	1.51e+00	0	40	104	0	58	43992
2026-01-30 06:34:48.48	72.93	2.20	-41.3	-59.8	3.6	1.51e+00	0	40	104	0	58	44218
2026-01-30 06:34:49.50	72.79	2.25	-41.3	-59.7	3.6	1.51e+00	0	40	104	0	58	44173
2026-01-30 06:34:50.51	72.65	2.30	-41.3	-59.8	3.6	1.51e+00	0	40	104	0	58	44227
2026-01-30 06:34:51.52	72.51	2.35	-41.3	-59.7	3.6	1.51e+00	0	40	104	0	58	44008
2026-01-30 06:34:52.53	72.37	2.40	-41.3	-59.7	3.6	1.51e+00	0	40	104	0	58	44050
2026-01-30 06:34:53.54	72.24	2.45	-41.3	-59.7	3.6	1.51e+00	0	40	104	0	58	44025
2026-01-30 06:34:54.54	72.10	2.49	-41.3	-59.7	3.6	1.51e+00	0	40	104	0	58	43904
2026-01-30 06:34:55.55	71.96	2.54	-41.3	-59.7	3.6	1.51e+00	0	40	104	0	58	43856
2026-01-30 06:34:56.56	71.82	2.59	-41.3	-59.7	3.6	1.51e+00	0	40	104	0	58	44003
2026-01-30 06:34:57.57	71.68	2.64	-41.3	-59.7	3.6	1.51e+00	0	40	104	0	58	44123
2026-01-30 06:34:58.59	71.53	2.69	-41.3	-59.8	3.6	1.51e+00	0	40	104	0	58	44282
2026-01-30 06:34:59.60	71.39	2.74	-41.3	-59.7	3.6	1.51e+00	0	40	104	0	58	44092
2026-01-30 06:35:00.60	71.25	2.79	-41.3	-59.7	3.6	1.51e+00	0	40	104	0	58	43876
2026-01-30 06:35:01.62	71.10	2.84	-41.3	-59.7	3.6	1.51e+00	0	40	104	0	58	43752
2026-01-30 06:35:02.63	70.96	2.88	-41.3	-59.7	3.6	1.51e+00	0	40	104	0	58	43905
2026-01-30 06:35:03.64	70.81	2.93	-41.3	-59.7	3.6	1.51e+00	0	40	104	0	58	44005
2026-01-30 06:35:04.65	70.67	2.98	-41.3	-59.7	3.6	1.51e+00	0	40	104	0	58	43978
2026-01-30 06:35:05.66	70.52	3.03	-41.3	-59.7	3.6	1.51e+00	0	40	104	0	58	44119
2026-01-30 06:35:06.67	70.37	3.08	-42.3	-59.7	3.6	1.51e+00	0	40	104	0	58	44144
2026-01-30 06:35:07.68	70.23	3.13	-38.4	-59.8	3.6	1.51e+00	0	40	104	0	52	62987
2026-01-30 06:35:08.69	70.08	3.18	-40.1	-59.8	3.6	1.51e+00	0	40	104	0	52	62692
2026-01-30 06:35:09.69	69.93	3.22	-43.9	-59.9	3.6	1.51e+00	0	40	104	0	60	40146
2026-01-30 06:35:10.70	69.78	3.27	-41.2	-59.7	3.6	1.51e+00	0	40	104	0	50	69978
2026-01-30 06:35:11.71	69.63	3.32	-43.7	-59.8	3.6	1.51e+00	0	40	104	0	60	39752
2026-01-30 06:35:12.72	69.48	3.37	-38.2	-59.8	3.6	1.51e+00	0	40	104	0	52	62812
2026-01-30 06:35:13.73	69.33	3.42	-38.8	-59.9	3.6	1.51e+00	0	40	104	0	50	71605
2026-01-30 06:35:14.74	69.18	3.47	-42.0	-59.7	3.6	1.51e+00	0	40	104	0	60	39344
2026-01-30 06:35:15.75	69.03	3.51	-43.3	-59.8	3.6	1.51e+00	0	40	104	0	58	44570
2026-01-30 06:35:16.76	68.87	3.56	-44.2	-59.9	3.6	1.51e+00	0	40	104	0	60	39911
2026-01-30 06:35:17.77	68.72	3.61	-43.8	-60.0	3.6	1.51e+00	0	40	104	0	60	40655
2026-01-30 06:35:18.78	68.56	3.66	-44.5	-59.8	3.6	1.51e+00	0	40	104	0	60	39718
2026-01-30 06:35:19.79	68.41	3.71	-43.1	-59.9	3.6	1.51e+00	0	40	104	0	60	40205
2026-01-30 06:35:20.80	68.25	3.75	-45.0	-59.9	3.6	1.51e+00	0	40	104	0	60	40290
2026-01-30 06:35:21.81	68.10	3.80	-44.1	-60.0	3.6	1.51e+00	0	40	104	0	60	40532
2026-01-30 06:35:22.82	67.94	3.85	-41.6	-59.8	3.6	1.51e+00	0	40	104	0	60	39732
2026-01-30 06:35:23.83	67.78	3.90	-36.6	-59.8	3.6	1.51e+00	0	40	104	0	48	79498
2026-01-30 06:35:24.84	67.62	3.95	-41.4	-60.0	3.6	1.51e+00	0	40	104	0	56	50856
2026-01-30 06:35:25.85	67.46	3.99	-40.1	-60.1	3.6	1.51e+00	0	40	104	0	56	51415
2026-01-30 06:35:26.86	67.30	4.04	-34.3	-59.8	3.6	1.51e+00	0	40	104	0	46	89122
2026-01-30 06:35:27.87	67.14	4.09	-42.7	-60.0	3.6	1.51e+00	0	40	104	0	60	40573
2026-01-30 06:35:28.88	66.98	4.14	-37.7	-59.9	3.6	1.51e+00	0	40	104	0	52	63529
2026-01-30 06:35:29.88	66.82	4.18	-43.9	-60.1	3.6	1.51e+00	0	40	104	0	60	40926
2026-01-30 06:35:30.89	66.66	4.23	-45.0	-59.9	3.6	1.51e+00	0	40	104	0	60	40236
2026-01-30 06:35:31.90	66.49	4.28	-43.1	-59.9	3.6	1.51e+00	0	40	104	0	58	45233
2026-01-30 06:35:32.91	66.33	4.32	-42.5	-60.0	3.6	1.51e+00	0	40	104	0	60	40615
2026-01-30 06:35:33.92	66.16	4.37	-42.4	-60.1	3.6	1.51e+00	0	40	104	0	58	45821
2026-01-30 06:35:34.93	66.00	4.42	-40.7	-59.9	3.6	1.51e+00	0	40	104	0	58	44932
2026-01-30 06:35:35.94	65.83	4.47	-37.6	-60.0	3.6	1.51e+00	0	40	104	0	48	80721
2026-01-30 06:35:36.95	65.67	4.51	-45.0	-60.0	3.6	1.51e+00	0	40	104	0	60	40634
2026-01-30 06:35:37.96	65.50	4.56	-42.9	-60.1	3.6	1.51e+00	0	40	104	0	60	41171
2026-01-30 06:35:38.97	65.33	4.61	-44.5	-59.9	3.6	1.51e+00	0	40	104	0	60	40232
2026-01-30 06:35:39.97	65.16	4.65	-40.2	-60.0	3.6	1.51e+00	0	40	104	0	58	45438
2026-01-30 06:35:40.99	64.99	4.70	-38.2	-60.0	3.6	1.51e+00	0	40	104	0	52	64028
2026-01-30 06:35:41.99	64.82	4.75	-40.5	-60.1	3.6	1.51e+00	0	40	104	0	54	57834
2026-01-30 06:35:43.00	64.65	4.79	-40.0	-60.0	3.6	1.51e+00	0	40	104	0	56	50830
2026-01-30 06:35:44.01	64.48	4.84	-44.4	-60.1	3.6	1.51e+00	0	40	104	0	60	40891
2026-01-30 06:35:45.02	64.31	4.89	-39.6	-60.0	3.6	1.51e+00	0	40	104	0	54	57241
2026-01-30 06:35:46.03	64.13	4.93	-44.8	-60.2	3.6	1.51e+00	0	40	104	0	60	41486
2026-01-30 06:35:47.04	63.96	4.98	-45.0	-60.0	3.6	1.51e+00	0	40	104	0	60	40596
2026-01-30 06:35:48.05	63.79	5.02	-41.9	-60.1	3.6	1.51e+00	0	40	104	0	56	51858
2026-01-30 06:35:49.06	63.61	5.07	-43.6	-60.1	3.6	1.51e+00	0	40	104	0	60	41059
2026-01-30 06:35:50.07	63.43	5.12	-42.2	-60.2	3.6	1.51e+00	0	40	104	0	60	41563
2026-01-30 06:35:51.08	63.26	5.16	-44.4	-60.0	3.6	1.51e+00	0	40	104	0	60	40715
2026-01-30 06:35:52.09	63.08	5.21	-42.8	-60.2	3.6	1.51e+00	0	40	104	0	60	41437
2026-01-30 06:35:53.10	62.90	5.25	-43.5	-60.1	3.6	1.51e+00	0	40	104	0	60	41150
2026-01-30 06:35:54.11	62.72	5.30	-42.3	-60.3	3.6	1.51e+00	0	40	104	0	60	42028
2026-01-30 06:35:55.11	62.55	5.34	-45.0	-60.1	3.6	1.51e+00	0	40	104	0	60	40980
2026-01-30 06:35:56.12	62.36	5.39	-41.8	-60.2	3.6	1.51e+00	0	40	104	0	60	41571
2026-01-30 06:35:57.13	62.18	5.43	-43.6	-60.2	3.6	1.51e+00	0	40	104	0	60	41275
2026-01-30 06:35:58.14	62.00	5.48	-41.5	-60.3	3.5	1.51e+00	0	40	104	0	56	52605
2026-01-30 06:35:59.15	61.82	5.52	-43.2	-60.1	3.6	1.51e+00	0	40	104	0	60	40899
2026-01-30 06:36:00.16	61.64	5.57	-44.6	-60.3	3.6	1.51e+00	0	40	104	0	60	41784
2026-01-30 06:36:01.17	61.45	5.61	-44.1	-60.2	3.6	1.51e+00	0	40	104	0	60	41585
2026-01-30 06:36:02.18	61.27	5.66	-43.6	-60.3	3.6	1.51e+00	0	40	104	0	60	41858
2026-01-30 06:36:03.18	61.08	5.70	-45.4	-60.1	3.6	1.51e+00	0	40	104	0	60	41184
2026-01-30 06:36:04.19	60.90	5.74	-45.5	-60.3	3.5	1.51e+00	0	40	104	0	60	41901
2026-01-30 06:36:05.20	60.71	5.79	-44.6	-60.2	3.6	1.51e+00	0	40	104	0	60	41639
2026-01-30 06:36:06.21	60.52	5.83	-43.3	-60.3	3.6	1.51e+00	0	40	104	0	60	42097
2026-01-30 06:36:07.22	60.34	5.88	-44.9	-60.2	3.6	1.51e+00	0	40	104	0	60	41463
2026-01-30 06:36:08.23	60.15	5.92	-44.4	-60.3	3.6	1.51e+00	0	40	104	0	60	41815
2026-01-30 06:36:09.24	59.96	5.96	-43.4	-60.2	3.6	1.51e+00	0	40	104	0	60	41606
2026-01-30 06:36:10.25	59.77	6.01	-45.2	-60.3	3.6	1.51e+00	0	40	104	0	60	42041
2026-01-30 06:36:11.26	59.58	6.05	-43.4	-60.2	3.6	1.51e+00	0	40	104	0	60	41385
2026-01-30 06:36:12.27	59.38	6.09	-44.0	-60.3	3.6	1.51e+00	0	40	104	0	60	41835
2026-01-30 06:36:13.28	59.19	6.14	-44.6	-60.2	3.6	1.51e+00	0	40	104	0	60	41709
2026-01-30 06:36:14.29	59.00	6.18	-45.3	-60.4	3.6	1.51e+00	0	40	104	0	60	42299
2026-01-30 06:36:15.30	58.80	6.22	-42.9	-60.2	3.6	1.51e+00	0	40	104	0	60	41611
2026-01-30 06:36:16.31	58.61	6.26	-43.2	-60.3	3.6	1.51e+00	0	40	104	0	60	42064
2026-01-30 06:36:17.31	58.41	6.31	-45.6	-60.3	3.6	1.51e+00	0	40	104	0	60	41889
2026-01-30 06:36:18.33	58.22	6.35	-44.6	-60.3	3.6	1.51e+00	0	40	104	0	60	41895
2026-01-30 06:36:19.33	58.02	6.39	-43.6	-60.3	3.6	1.51e+00	0	40	104	0	60	41856
2026-01-30 06:36:20.34	57.82	6.43	-45.0	-60.3	3.6	1.51e+00	0	40	104	0	60	41965
2026-01-30 06:36:21.35	57.63	6.47	-45.0	-60.3	3.6	1.51e+00	0	40	104	0	60	42019
2026-01-30 06:36:22.36	57.43	6.51	-43.3	-60.4	3.6	1.51e+00	0	40	104	0	60	42389
2026-01-30 06:36:23.37	57.23	6.56	-44.0	-60.3	3.6	1.51e+00	0	40	104	0	60	41830
2026-01-30 06:36:24.38	57.03	6.60	-42.6	-60.4	3.6	1.51e+00	0	40	104	0	60	42227
2026-01-30 06:36:25.39	56.82	6.64	-43.1	-60.3	3.6	1.51e+00	0	40	104	0	60	41904
2026-01-30 06:36:26.40	56.62	6.68	-44.4	-60.3	3.6	1.51e+00	0	40	104	0	60	42204
2026-01-30 06:36:27.41	56.42	6.72	-44.9	-60.3	3.6	1.51e+00	0	40	104	0	60	42060
2026-01-30 06:36:28.42	56.22	6.76	-44.2	-60.3	3.6	1.51e+00	0	40	104	0	60	41978
2026-01-30 06:36:29.43	56.01	6.80	-43.9	-60.3	3.6	1.51e+00	0	40	104	0	60	41996
2026-01-30 06:36:30.44	55.81	6.84	-44.3	-60.3	3.6	1.51e+00	0	40	104	0	60	42088
2026-01-30 06:36:31.45	55.60	6.88	-44.7	-60.3	3.6	1.51e+00	0	40	104	0	60	42162
2026-01-30 06:36:32.46	55.39	6.92	-44.4	-60.4	3.6	1.51e+00	0	40	104	0	60	42352
2026-01-30 06:36:33.47	55.19	6.96	-43.6	-60.4	3.6	1.51e+00	0	40	104	0	60	42304
2026-01-30 06:36:34.47	54.98	7.00	-43.5	-60.4	3.6	1.51e+00	0	40	104	0	60	42338
2026-01-30 06:36:35.48	54.77	7.03	-45.5	-60.3	3.6	1.51e+00	0	40	104	0	60	42086
2026-01-30 06:36:36.49	54.56	7.07	-45.5	-60.4	3.6	1.51e+00	0	40	104	0	60	42381
2026-01-30 06:36:37.50	54.35	7.11	-45.1	-60.4	3.5	1.51e+00	0	40	104	0	60	42571
2026-01-30 06:36:38.51	54.14	7.15	-45.1	-60.4	3.6	1.51e+00	0	40	104	0	60	42602
2026-01-30 06:36:39.52	53.93	7.19	-45.6	-60.4	3.6	1.51e+00	0	40	104	0	60	42475
2026-01-30 06:36:40.53	53.72	7.22	-45.4	-60.4	3.6	1.51e+00	0	40	104	0	60	42383
2026-01-30 06:36:41.54	53.51	7.26	-44.0	-60.4	3.6	1.51e+00	0	40	104	0	60	42535
2026-01-30 06:36:42.55	53.29	7.30	-45.6	-60.5	3.6	1.51e+00	0	40	104	0	60	42756
2026-01-30 06:36:43.55	53.08	7.34	-45.6	-60.4	3.6	1.51e+00	0	40	104	0	60	42685
2026-01-30 06:36:44.56	52.87	7.37	-45.4	-60.4	3.6	1.51e+00	0	40	104	0	60	42537
2026-01-30 06:36:45.57	52.65	7.41	-45.7	-60.5	3.6	1.51e+00	0	40	104	0	60	42751
2026-01-30 06:36:46.58	52.44	7.44	-45.7	-60.4	3.6	1.51e+00	0	40	104	0	60	42528
2026-01-30 06:36:47.59	52.22	7.48	-45.2	-60.5	3.6	1.51e+00	0	40	104	0	60	42797
2026-01-30 06:36:48.60	52.00	7.52	-45.3	-60.4	3.6	1.51e+00	0	40	104	0	60	42702
2026-01-30 06:36:49.61	51.78	7.55	-45.5	-60.4	3.6	1.51e+00	0	40	104	0	60	42704
2026-01-30 06:36:50.62	51.56	7.59	-45.7	-60.4	3.6	1.51e+00	0	40	104	0	60	42593
2026-01-30 06:36:51.63	51.35	7.62	-45.6	-60.4	3.6	1.51e+00	0	40	104	0	60	42683
2026-01-30 06:36:52.64	51.13	7.66	-45.8	-60.4	3.6	1.51e+00	0	40	104	0	60	42656
2026-01-30 06:36:53.65	50.90	7.69	-45.6	-60.5	3.6	1.51e+00	0	40	104	0	60	42965
2026-01-30 06:36:54.66	50.68	7.73	-45.6	-60.5	3.6	1.51e+00	0	40	104	0	60	42814
2026-01-30 06:36:55.67	50.46	7.76	-45.3	-60.5	3.6	1.51e+00	0	40	104	0	60	42814
2026-01-30 06:36:56.67	50.24	7.79	-45.6	-60.5	3.6	1.51e+00	0	40	104	0	60	42853
2026-01-30 06:36:57.68	50.02	7.83	-45.4	-60.5	3.6	1.51e+00	0	40	104	0	60	42943
2026-01-30 06:36:58.69	49.79	7.86	-45.7	-60.5	3.6	1.51e+00	0	40	104	0	60	42920
2026-01-30 06:36:59.70	49.57	7.89	-45.4	-60.5	3.6	1.51e+00	0	40	104	0	60	43010
2026-01-30 06:37:00.71	49.34	7.92	-45.3	-60.5	3.6	1.51e+00	0	40	104	0	60	42898
2026-01-30 06:37:01.72	49.12	7.96	-45.4	-60.5	3.6	1.51e+00	0	40	104	0	60	42920
2026-01-30 06:37:02.73	48.89	7.99	-45.6	-60.5	3.5	1.51e+00	0	40	104	0	60	42848
2026-01-30 06:37:03.74	48.66	8.02	-45.6	-60.5	3.6	1.51e+00	0	40	104	0	60	42836
2026-01-30 06:37:04.74	48.44	8.05	-45.8	-60.5	3.6	1.51e+00	0	40	104	0	60	43016
2026-01-30 06:37:05.75	48.21	8.08	-45.9	-60.5	3.6	1.51e+00	0	40	104	0	60	43032
2026-01-30 06:37:06.76	47.98	8.11	-45.5	-60.5	3.6	1.51e+00	0	40	104	0	60	42823
2026-01-30 06:37:07.76	47.75	8.14	-45.5	-60.5	3.6	1.51e+00	0	40	104	0	60	43022
2026-01-30 06:37:08.77	47.52	8.17	-45.8	-60.5	3.6	1.51e+00	0	40	104	0	60	42858
2026-01-30 06:37:09.78	47.29	8.20	-45.5	-60.6	3.6	1.51e+00	0	40	104	0	60	43312
2026-01-30 06:37:10.79	47.06	8.23	-45.5	-60.5	3.6	1.51e+00	0	40	104	0	60	42958
2026-01-30 06:37:11.80	46.83	8.26	-45.4	-60.5	3.6	1.51e+00	0	40	104	0	60	42996
2026-01-30 06:37:12.81	46.59	8.29	-45.4	-60.5	3.6	1.51e+00	0	40	104	0	60	43059
2026-01-30 06:37:13.82	46.36	8.32	-45.8	-60.6	3.6	1.51e+00	0	40	104	0	60	43345
2026-01-30 06:37:14.83	46.13	8.34	-45.8	-60.4	3.6	1.51e+00	0	40	104	0	60	42626
2026-01-30 06:37:15.84	45.89	8.37	-45.8	-60.5	3.6	1.51e+00	0	40	104	0	60	43077
2026-01-30 06:37:16.85	45.66	8.40	-45.7	-60.5	3.6	1.51e+00	0	40	104	0	60	42925
2026-01-30 06:37:17.85	45.42	8.43	-45.8	-60.4	3.6	1.51e+00	0	40	104	0	60	42692
2026-01-30 06:37:18.87	45.19	8.45	-45.8	-60.5	3.6	1.51e+00	0	40	104	0	60	43038
2026-01-30 06:37:19.88	44.95	8.48	-45.7	-60.5	3.6	1.51e+00	0	40	104	0	60	43113
2026-01-30 06:37:20.88	44.72	8.50	-45.5	-60.5	3.6	1.51e+00	0	40	104	0	60	43038
2026-01-30 06:37:21.89	44.48	8.53	-45.9	-60.6	3.6	1.51e+00	0	40	104	0	60	43250
2026-01-30 06:37:22.90	44.24	8.56	-44.8	-60.5	3.6	1.51e+00	0	41	104	0	60	42813
2026-01-30 06:37:23.91	44.00	8.58	-45.9	-60.6	3.6	1.51e+00	0	40	104	0	60	43359
2026-01-30 06:37:24.92	43.76	8.60	-45.7	-60.5	3.6	1.51e+00	0	40	104	0	60	43178
2026-01-30 06:37:25.93	43.52	8.63	-45.7	-60.6	3.6	1.51e+00	0	40	104	0	60	43392
2026-01-30 06:37:26.94	43.28	8.65	-45.8	-60.5	3.6	1.51e+00	0	40	104	0	60	43085
2026-01-30 06:37:27.95	43.04	8.68	-45.8	-60.5	3.6	1.51e+00	0	40	104	0	60	43148
2026-01-30 06:37:28.96	42.80	8.70	-45.8	-60.6	3.6	1.51e+00	0	41	104	0	60	43248
2026-01-30 06:37:29.97	42.56	8.72	-45.9	-60.6	3.6	1.51e+00	0	40	104	0	60	43530
2026-01-30 06:37:30.98	42.32	8.74	-45.8	-60.5	3.6	1.51e+00	0	40	104	0	60	43137
2026-01-30 06:37:31.99	42.07	8.77	-45.8	-60.6	3.6	1.51e+00	0	41	104	0	60	43298
2026-01-30 06:37:33.00	41.83	8.79	-45.9	-60.5	3.6	1.51e+00	0	40	104	0	60	43180
2026-01-30 06:37:34.01	41.59	8.81	-45.9	-60.6	3.6	1.51e+00	0	40	104	0	60	43608
2026-01-30 06:37:35.02	41.34	8.83	-45.4	-60.5	3.5	1.51e+00	0	40	104	0	60	43166
2026-01-30 06:37:36.03	41.10	8.85	-45.6	-60.6	3.6	1.51e+00	0	40	104	0	60	43472
2026-01-30 06:37:37.04	40.85	8.87	-45.8	-60.6	3.6	1.51e+00	0	41	104	0	60	43405
2026-01-30 06:37:38.05	40.61	8.89	-46.0	-60.6	3.6	1.51e+00	0	41	104	0	60	43480
2026-01-30 06:37:39.06	40.36	8.91	-45.7	-60.5	3.6	1.51e+00	0	41	104	0	60	43207
2026-01-30 06:37:40.07	40.12	8.93	-45.6	-60.6	3.6	1.51e+00	0	41	104	0	60	43425
2026-01-30 06:37:41.08	39.87	8.94	-45.5	-60.6	3.6	1.51e+00	0	40	104	0	60	43327
2026-01-30 06:37:42.09	39.62	8.96	-45.8	-60.6	3.6	1.51e+00	0	41	104	0	60	43610
2026-01-30 06:37:43.09	39.38	8.98	-45.6	-60.6	3.6	1.51e+00	0	40	104	0	60	43224
2026-01-30 06:37:44.10	39.13	9.00	-45.9	-60.6	3.6	1.51e+00	0	41	104	0	60	43333
2026-01-30 06:37:45.11	38.88	9.01	-45.4	-60.6	3.6	1.51e+00	0	41	104	0	60	43504
2026-01-30 06:37:46.12	38.64	9.03	-45.9	-60.7	3.6	1.51e+00	0	40	104	0	60	43715
2026-01-30 06:37:47.13	38.39	9.05	-44.8	-60.5	3.6	1.51e+00	0	41	104	0	60	43119
2026-01-30 06:37:48.14	38.14	9.06	-45.7	-60.6	3.6	1.51e+00	0	40	104	0	60	43459
2026-01-30 06:37:49.15	37.89	9.08	-45.9	-60.6	3.6	1.51e+00	0	41	104	0	60	43542
2026-01-30 06:37:50.15	37.64	9.09	-45.8	-60.6	3.6	1.51e+00	0	41	104	0	60	43672
2026-01-30 06:37:51.16	37.39	9.10	-43.9	-60.6	3.6	1.51e+00	0	41	104	0	60	43282
2026-01-30 06:37:52.17	37.14	9.12	-44.9	-60.6	3.6	1.51e+00	0	40	104	0	60	43513
2026-01-30 06:37:53.18	36.89	9.13	-45.3	-60.6	3.5	1.51e+00	0	40	104	0	60	43526
2026-01-30 06:37:54.19	36.64	9.14	-45.8	-60.7	3.6	1.51e+00	0	41	104	0	60	43818
2026-01-30 06:37:55.20	36.39	9.16	-45.5	-60.6	3.6	1.51e+00	0	41	104	0	60	43412
2026-01-30 06:37:56.21	36.14	9.17	-45.3	-60.6	3.6	1.51e+00	0	41	104	0	60	43351
2026-01-30 06:37:57.22	35.89	9.18	-45.3	-60.6	3.6	1.51e+00	0	40	104	0	60	43456
2026-01-30 06:37:58.23	35.64	9.19	-45.7	-60.7	3.6	1.51e+00	0	41	104	0	60	43719
2026-01-30 06:37:59.23	35.39	9.20	-45.7	-60.6	3.6	1.51e+00	0	40	104	0	60	43292
2026-01-30 06:38:00.24	35.13	9.21	-44.7	-60.6	3.6	1.51e+00	0	41	104	0	60	43504
2026-01-30 06:38:01.25	34.88	9.22	-45.0	-60.6	3.6	1.51e+00	0	41	104	0	60	43424
2026-01-30 06:38:02.26	34.63	9.23	-45.7	-60.6	3.6	1.51e+00	0	41	104	0	60	43617
2026-01-30 06:38:03.27	34.38	9.24	-45.9	-60.6	3.6	1.51e+00	0	40	104	0	60	43213
2026-01-30 06:38:04.27	34.13	9.25	-45.4	-60.6	3.6	1.51e+00	0	41	104	0	60	43640
2026-01-30 06:38:05.28	33.87	9.26	-44.8	-60.6	3.6	1.51e+00	0	41	104	0	60	43388
2026-01-30 06:38:06.29	33.62	9.26	-45.6	-60.6	3.6	1.51e+00	0	41	104	0	60	43577
2026-01-30 06:38:07.30	33.36	9.27	-45.8	-60.7	3.6	1.51e+00	0	41	104	0	60	43718
2026-01-30 06:38:08.31	33.11	9.28	-45.6	-60.6	3.5	1.51e+00	0	41	104	0	60	43638
2026-01-30 06:38:09.32	32.86	9.29	-45.4	-60.6	3.6	1.51e+00	0	41	104	0	60	43642
2026-01-30 06:38:10.33	32.60	9.29	-45.2	-60.6	3.6	1.51e+00	0	41	104	0	60	43702
2026-01-30 06:38:11.33	32.35	9.30	-45.9	-60.6	3.6	1.51e+00	0	41	104	0	60	43600
2026-01-30 06:38:12.35	32.09	9.30	-45.8	-60.6	3.6	1.51e+00	0	41	104	0	60	43558
2026-01-30 06:38:13.36	31.84	9.31	-45.6	-60.6	3.6	1.51e+00	0	41	104	0	60	43294
2026-01-30 06:38:14.36	31.59	9.31	-45.3	-60.7	3.6	1.51e+00	0	41	104	0	60	43740
2026-01-30 06:38:15.37	31.33	9.31	-45.7	-60.6	3.6	1.51e+00	0	41	104	0	60	43269
2026-01-30 06:38:16.38	31.08	9.32	-45.9	-60.6	3.6	1.51e+00	0	41	104	0	60	43493
2026-01-30 06:38:17.39	30.82	9.32	-45.7	-60.6	3.6	1.51e+00	0	41	104	0	60	43369
2026-01-30 06:38:18.40	30.57	9.32	-45.8	-60.6	3.6	1.51e+00	0	41	104	0	60	43464
2026-01-30 06:38:19.41	30.32	9.32	-45.8	-60.6	3.6	1.51e+00	0	41	104	0	60	43466
2026-01-30 06:38:20.42	30.06	9.32	-45.7	-60.6	3.6	1.51e+00	0	40	104	0	60	43685
2026-01-30 06:38:21.43	29.81	9.33	-45.9	-60.6	3.6	1.51e+00	0	41	104	0	60	43595
2026-01-30 06:38:22.44	29.55	9.33	-45.9	-60.6	3.6	1.51e+00	0	41	104	0	60	43632
2026-01-30 06:38:23.45	29.30	9.33	-45.7	-60.6	3.6	1.51e+00	0	41	104	0	60	43621
2026-01-30 06:38:24.46	29.04	9.32	-46.0	-60.7	3.6	1.51e+00	0	41	104	0	60	43875
2026-01-30 06:38:25.47	28.79	9.32	-45.9	-60.6	3.6	1.51e+00	0	41	104	0	60	43491
2026-01-30 06:38:26.48	28.53	9.32	-45.8	-60.6	3.6	1.51e+00	0	41	104	0	60	43566
2026-01-30 06:38:27.49	28.28	9.32	-45.9	-60.6	3.6	1.51e+00	0	41	104	0	60	43653
2026-01-30 06:38:28.50	28.02	9.32	-45.6	-60.6	3.6	1.51e+00	0	41	104	0	60	43562
2026-01-30 06:38:29.51	27.77	9.32	-45.9	-60.7	3.6	1.51e+00	0	41	104	0	60	43816
2026-01-30 06:38:30.52	27.51	9.31	-45.9	-60.6	3.6	1.51e+00	0	41	104	0	60	43516
2026-01-30 06:38:31.53	27.26	9.31	-45.9	-60.6	3.6	1.51e+00	0	41	104	0	60	43279
2026-01-30 06:38:32.53	27.01	9.30	-45.9	-60.6	3.6	1.51e+00	0	41	104	0	60	43639
2026-01-30 06:38:33.54	26.75	9.30	-45.8	-60.6	3.6	1.51e+00	0	41	104	0	60	43477
2026-01-30 06:38:34.55	26.50	9.29	-45.9	-60.6	3.6	1.51e+00	0	41	104	0	60	43428
2026-01-30 06:38:35.56	26.24	9.29	-45.8	-60.6	3.6	1.51e+00	0	41	104	0	60	43542
2026-01-30 06:38:36.57	25.99	9.28	-45.8	-60.6	3.6	1.51e+00	0	41	104	0	60	43414
2026-01-30 06:38:37.57	25.74	9.28	-45.8	-60.6	3.6	1.51e+00	0	41	104	0	60	43672
2026-01-30 06:38:38.58	25.48	9.27	-45.9	-60.6	3.6	1.51e+00	0	41	104	0	60	43384
2026-01-30 06:38:39.59	25.23	9.26	-45.9	-60.6	3.6	1.51e+00	0	41	104	0	60	43557
2026-01-30 06:38:40.60	24.98	9.26	-45.8	-60.6	3.6	1.51e+00	0	41	104	0	60	43541
2026-01-30 06:38:41.61	24.72	9.25	-45.8	-60.6	3.6	1.51e+00	0	41	104	0	60	43655
2026-01-30 06:38:42.61	24.47	9.24	-46.0	-60.6	3.6	1.51e+00	0	41	104	0	60	43673
2026-01-30 06:38:43.62	24.22	9.23	-45.9	-60.6	3.6	1.51e+00	0	41	104	0	60	43385
2026-01-30 06:38:44.63	23.97	9.22	-45.9	-60.6	3.6	1.51e+00	0	41	104	0	60	43660
2026-01-30 06:38:45.64	23.71	9.21	-45.9	-60.6	3.6	1.51e+00	0	40	104	0	60	43681
2026-01-30 06:38:46.65	23.46	9.20	-45.9	-60.6	3.6	1.51e+00	0	40	104	0	60	43515
2026-01-30 06:38:47.66	23.21	9.19	-45.9	-60.6	3.6	1.51e+00	0	41	104	0	60	43495
2026-01-30 06:38:48.67	22.96	9.18	-45.8	-60.6	3.6	1.51e+00	0	41	104	0	60	43594
2026-01-30 06:38:49.68	22.71	9.17	-45.9	-60.6	3.6	1.51e+00	0	41	104	0	60	43675
2026-01-30 06:38:50.69	22.45	9.15	-45.9	-60.6	3.6	1.51e+00	0	40	104	0	60	43653
2026-01-30 06:38:51.69	22.21	9.14	-45.9	-60.6	3.6	1.51e+00	0	41	104	0	60	43486
2026-01-30 06:38:52.70	21.96	9.13	-45.9	-60.6	3.6	1.51e+00	0	41	104	0	60	43413
2026-01-30 06:38:53.71	21.70	9.11	-45.9	-60.6	3.6	1.51e+00	0	41	104	0	60	43683
2026-01-30 06:38:54.72	21.45	9.10	-45.9	-60.6	3.6	1.51e+00	0	41	104	0	60	43638
2026-01-30 06:38:55.73	21.20	9.09	-46.0	-60.6	3.6	1.51e+00	0	41	104	0	60	43463
2026-01-30 06:38:56.74	20.96	9.07	-45.9	-60.6	3.6	1.51e+00	0	40	104	0	60	43491
2026-01-30 06:38:57.75	20.71	9.06	-45.9	-60.6	3.6	1.51e+00	0	41	104	0	60	43535
2026-01-30 06:38:58.76	20.46	9.04	-45.8	-60.6	3.6	1.51e+00	0	41	104	0	60	43686
2026-01-30 06:38:59.77	20.21	9.03	-45.9	-60.6	3.6	1.51e+00	0	41	104	0	60	43556
2026-01-30 06:39:00.78	19.96	9.01	-45.8	-60.6	3.6	1.51e+00	0	40	104	0	60	43444
2026-01-30 06:39:01.79	19.71	8.99	-46.0	-60.7	3.6	1.51e+00	0	41	104	0	60	43732
2026-01-30 06:39:02.79	19.47	8.98	-45.9	-60.6	3.6	1.51e+00	0	41	104	0	60	43418
2026-01-30 06:39:03.81	19.22	8.96	-45.9	-60.6	3.6	1.51e+00	0	41	104	0	60	43444
2026-01-30 06:39:04.81	18.97	8.94	-45.8	-60.6	3.5	1.51e+00	0	41	104	0	60	43453
2026-01-30 06:39:05.82	18.73	8.92	-45.9	-60.7	3.6	1.51e+00	0	41	104	0	60	43805
2026-01-30 06:39:06.83	18.48	8.90	-45.9	-60.6	3.6	1.51e+00	0	41	104	0	60	43359
2026-01-30 06:39:07.84	18.23	8.88	-45.9	-60.6	3.6	1.51e+00	0	41	104	0	60	43525
2026-01-30 06:39:08.85	17.99	8.86	-45.9	-60.6	3.6	1.51e+00	0	41	104	0	60	43527
2026-01-30 06:39:09.86	17.74	8.84	-45.8	-60.6	3.6	1.51e+00	0	40	104	0	60	43468
2026-01-30 06:39:10.87	17.50	8.82	-45.9	-60.5	3.6	1.51e+00	0	41	104	0	60	43132
2026-01-30 06:39:11.88	17.26	8.80	-45.8	-60.6	3.6	1.51e+00	0	40	104	0	60	43455
2026-01-30 06:39:12.89	17.01	8.78	-45.7	-60.6	3.6	1.51e+00	0	40	104	0	60	43444
2026-01-30 06:39:13.90	16.77	8.76	-45.8	-60.6	3.6	1.51e+00	0	41	104	0	60	43572
2026-01-30 06:39:14.91	16.53	8.74	-45.8	-60.6	3.6	1.51e+00	0	41	104	0	60	43352
2026-01-30 06:39:15.92	16.28	8.71	-45.9	-60.6	3.6	1.51e+00	0	41	104	0	60	43535
2026-01-30 06:39:16.93	16.04	8.69	-45.9	-60.6	3.6	1.51e+00	0	41	104	0	60	43225
2026-01-30 06:39:17.93	15.80	8.67	-45.8	-60.6	3.6	1.51e+00	0	41	104	0	60	43440
2026-01-30 06:39:18.94	15.56	8.65	-45.8	-60.5	3.6	1.51e+00	0	41	104	0	60	43184
2026-01-30 06:39:19.95	15.32	8.62	-45.7	-60.6	3.6	1.51e+00	0	41	104	0	60	43234
2026-01-30 06:39:20.96	15.08	8.60	-45.8	-60.5	3.6	1.51e+00	0	41	104	0	60	43134
2026-01-30 06:39:21.97	14.84	8.57	-45.8	-60.6	3.6	1.51e+00	0	41	104	0	60	43672
2026-01-30 06:39:22.97	14.61	8.55	-45.8	-60.5	3.6	1.51e+00	0	41	104	0	60	42949
2026-01-30 06:39:23.98	14.37	8.52	-45.7	-60.6	3.6	1.51e+00	0	41	104	0	60	43271
2026-01-30 06:39:24.99	14.13	8.50	-45.8	-60.5	3.6	1.51e+00	0	41	104	0	60	43070
2026-01-30 06:39:26.00	13.89	8.47	-45.7	-60.6	3.6	1.51e+00	0	41	104	0	60	43341
2026-01-30 06:39:27.01	13.66	8.44	-45.7	-60.5	3.6	1.51e+00	0	41	104	0	60	42925
2026-01-30 06:39:28.01	13.42	8.42	-45.4	-60.6	3.6	1.51e+00	0	41	104	0	60	43225
2026-01-30 06:39:29.02	13.19	8.39	-45.6	-60.5	3.6	1.51e+00	0	41	104	0	60	43128
2026-01-30 06:39:30.03	12.95	8.36	-45.8	-60.6	3.5	1.51e+00	0	41	104	0	60	43272
2026-01-30 06:39:31.04	12.72	8.34	-45.8	-60.5	3.6	1.51e+00	0	41	104	0	60	42817
2026-01-30 06:39:32.05	12.48	8.31	-45.7	-60.6	3.6	1.51e+00	0	41	104	0	60	43325
2026-01-30 06:39:33.06	12.25	8.28	-45.6	-60.5	3.6	1.51e+00	0	41	104	0	60	42882
2026-01-30 06:39:34.07	12.02	8.25	-45.9	-60.6	3.6	1.51e+00	0	41	104	0	60	43415
2026-01-30 06:39:35.08	11.78	8.22	-45.8	-60.5	3.6	1.51e+00	0	41	104	0	60	43071
2026-01-30 06:39:36.09	11.55	8.19	-45.8	-60.5	3.6	1.51e+00	0	41	104	0	60	43007
2026-01-30 06:39:37.10	11.32	8.16	-45.8	-60.5	3.6	1.51e+00	0	41	104	0	60	42893
2026-01-30 06:39:38.11	11.09	8.13	-45.9	-60.6	3.6	1.51e+00	0	41	104	0	60	43425
2026-01-30 06:39:39.12	10.86	8.10	-45.7	-60.5	3.6	1.51e+00	0	41	104	0	60	43155
2026-01-30 06:39:40.13	10.63	8.07	-45.7	-60.5	3.6	1.51e+00	0	41	104	0	60	43165
2026-01-30 06:39:41.14	10.40	8.04	-45.8	-60.5	3.6	1.51e+00	0	41	104	0	60	42940
2026-01-30 06:39:42.15	10.18	8.01	-45.8	-60.5	3.6	1.51e+00	0	41	104	0	60	43090
2026-01-30 06:39:43.16	9.95	7.98	-45.6	-60.5	3.6	1.51e+00	0	41	104	0	60	42736
2026-01-30 06:39:44.17	9.72	7.95	-45.8	-60.5	3.6	1.51e+00	0	41	104	0	60	42839
2026-01-30 06:39:45.18	9.49	7.91	-45.8	-60.5	3.6	1.51e+00	0	40	104	0	60	42875
2026-01-30 06:39:46.19	9.27	7.88	-45.8	-60.6	3.6	1.51e+00	0	41	104	0	60	43245
2026-01-30 06:39:47.19	9.05	7.85	-45.7	-60.5	3.6	1.51e+00	0	41	104	0	60	42883
2026-01-30 06:39:48.20	8.82	7.81	-45.8	-60.5	3.6	1.51e+00	0	41	104	0	60	42856
2026-01-30 06:39:49.21	8.60	7.78	-45.7	-60.5	3.6	1.51e+00	0	41	104	0	60	42760
2026-01-30 06:39:50.22	8.38	7.75	-45.6	-60.5	3.6	1.51e+00	0	41	104	0	60	43177
2026-01-30 06:39:51.23	8.15	7.71	-45.7	-60.5	3.6	1.51e+00	0	40	104	0	60	42889
2026-01-30 06:39:52.24	7.93	7.68	-45.7	-60.5	3.6	1.51e+00	0	41	104	0	60	42722
2026-01-30 06:39:53.25	7.71	7.64	-45.8	-60.4	3.6	1.51e+00	0	40	104	0	60	42459
2026-01-30 06:39:54.26	7.49	7.61	-45.6	-60.5	3.6	1.51e+00	0	40	104	0	60	43126
2026-01-30 06:39:55.27	7.27	7.58	-45.7	-60.4	3.6	1.51e+00	0	41	104	0	60	42380
2026-01-30 06:39:56.28	7.05	7.54	-45.7	-60.4	3.6	1.51e+00	0	41	104	0	60	42628
2026-01-30 06:39:57.28	6.84	7.50	-45.8	-60.4	3.6	1.51e+00	0	40	104	0	60	42627
2026-01-30 06:39:58.29	6.62	7.47	-45.8	-60.5	3.6	1.51e+00	0	41	104	0	60	42747
2026-01-30 06:39:59.31	6.40	7.43	-45.7	-60.4	3.6	1.51e+00	0	41	104	0	60	42710
2026-01-30 06:40:00.32	6.18	7.40	-45.7	-60.4	3.5	1.51e+00	0	41	104	0	60	42475
2026-01-30 06:40:01.32	5.97	7.36	-45.7	-60.4	3.6	1.51e+00	0	40	104	0	60	42490
2026-01-30 06:40:02.33	5.75	7.32	-45.7	-60.4	3.6	1.51e+00	0	41	104	0	60	42707
2026-01-30 06:40:03.34	5.54	7.29	-45.7	-60.4	3.6	1.51e+00	0	41	104	0	60	42489
2026-01-30 06:40:04.35	5.33	7.25	-45.7	-60.4	3.5	1.51e+00	0	41	104	0	60	42689
2026-01-30 06:40:05.36	5.11	7.21	-45.7	-60.4	3.6	1.51e+00	0	41	104	0	60	42521
2026-01-30 06:40:06.37	4.90	7.17	-45.6	-60.5	3.6	1.51e+00	0	41	104	0	60	43093
2026-01-30 06:40:07.38	4.69	7.13	-45.7	-60.4	3.6	1.51e+00	0	41	104	0	60	42377
2026-01-30 06:40:08.39	4.48	7.10	-45.7	-60.4	3.6	1.51e+00	0	41	104	0	60	42369
2026-01-30 06:40:09.40	4.27	7.06	-45.7	-60.4	3.6	1.51e+00	0	41	104	0	60	42441
2026-01-30 06:40:10.41	4.06	7.02	-45.6	-60.5	3.6	1.51e+00	0	41	104	0	60	42738
2026-01-30 06:40:11.42	3.85	6.98	-45.7	-60.4	3.6	1.51e+00	0	41	104	0	60	42432
2026-01-30 06:40:12.43	3.64	6.94	-45.6	-60.4	3.6	1.51e+00	0	41	104	0	60	42543
2026-01-30 06:40:13.43	3.44	6.90	-45.4	-60.4	3.6	1.51e+00	0	41	104	0	60	42647
2026-01-30 06:40:14.44	3.23	6.86	-45.5	-60.5	3.6	1.51e+00	0	41	104	0	60	42774
2026-01-30 06:40:15.45	3.02	6.82	-45.5	-60.4	3.6	1.51e+00	0	41	104	0	60	42346
2026-01-30 06:40:16.46	2.82	6.78	-45.7	-60.4	3.6	1.51e+00	0	41	104	0	60	42598
2026-01-30 06:40:17.47	2.62	6.74	-45.7	-60.4	3.6	1.51e+00	0	41	104	0	60	42595
2026-01-30 06:40:18.48	2.41	6.70	-45.6	-60.4	3.6	1.51e+00	0	41	104	0	60	42460
2026-01-30 06:40:19.49	2.21	6.66	-45.5	-60.3	3.6	1.51e+00	0	41	104	0	60	42167
2026-01-30 06:40:20.50	2.01	6.62	-45.7	-60.3	3.6	1.51e+00	0	41	104	0	60	42136
2026-01-30 06:40:21.51	1.80	6.58	-45.7	-60.4	3.6	1.51e+00	0	41	104	0	60	42454
2026-01-30 06:40:22.52	1.60	6.54	-45.6	-60.4	3.6	1.51e+00	0	41	104	0	60	42341
2026-01-30 06:40:23.53	1.40	6.50	-45.5	-60.3	3.6	1.51e+00	0	41	104	0	60	41981
2026-01-30 06:40:24.54	1.20	6.46	-45.7	-60.3	3.6	1.51e+00	0	41	104	0	60	42168
2026-01-30 06:40:25.55	1.01	6.41	-45.7	-60.4	3.6	1.51e+00	0	41	104	0	60	42553
2026-01-30 06:40:26.55	0.81	6.37	-45.7	-60.3	3.6	1.51e+00	0	41	104	0	60	41898
2026-01-30 06:40:27.56	0.61	6.33	-45.6	-60.3	3.6	1.51e+00	0	41	104	0	60	42004
2026-01-30 06:40:28.57	0.42	6.29	-45.6	-60.3	3.6	1.51e+00	0	41	104	0	60	42095
2026-01-30 06:40:29.58	0.22	6.25	-45.6	-60.4	3.6	1.51e+00	0	41	104	0	60	42402
2026-01-30 06:40:30.59	0.03	6.20	-45.6	-60.3	3.6	1.51e+00	0	41	104	0	60	42106
2026-01-30 06:40:31.60	359.83	6.16	-45.5	-60.3	3.6	1.51e+00	0	41	104	0	60	41991
2026-01-30 06:40:32.61	359.64	6.12	-45.7	-60.4	3.6	1.51e+00	0	41	104	0	60	42441
2026-01-30 06:40:33.62	359.45	6.07	-45.7	-60.4	3.6	1.51e+00	0	41	104	0	60	42380
2026-01-30 06:40:34.63	359.25	6.03	-45.6	-60.3	3.6	1.51e+00	0	41	104	0	60	41976
2026-01-30 06:40:35.65	359.06	5.99	-45.7	-60.4	3.6	1.51e+00	0	41	104	0	60	42320
2026-01-30 06:40:36.65	358.87	5.94	-45.6	-60.3	3.6	1.51e+00	0	41	104	0	60	42169
2026-01-30 06:40:37.66	358.68	5.90	-45.7	-60.4	3.6	1.51e+00	0	41	104	0	60	42325
2026-01-30 06:40:38.67	358.49	5.86	-45.6	-60.3	3.6	1.51e+00	0	41	104	0	60	41894
2026-01-30 06:40:39.68	358.30	5.81	-45.6	-60.3	3.6	1.51e+00	0	41	104	0	60	41857
2026-01-30 06:40:40.68	358.12	5.77	-45.6	-60.3	3.6	1.51e+00	0	41	104	0	60	42051
2026-01-30 06:40:41.69	357.93	5.73	-45.5	-60.4	3.6	1.51e+00	0	41	104	0	60	42324
2026-01-30 06:40:42.70	357.74	5.68	-45.6	-60.3	3.6	1.51e+00	0	41	104	0	60	42111
2026-01-30 06:40:43.71	357.56	5.64	-45.8	-60.4	3.6	1.51e+00	0	41	104	0	60	42713
2026-01-30 06:40:44.72	357.37	5.59	-45.6	-60.4	3.6	1.51e+00	0	41	104	0	60	42654
2026-01-30 06:40:45.73	357.19	5.55	-45.9	-60.6	3.6	1.51e+00	0	41	104	0	60	43456
2026-01-30 06:40:46.74	357.01	5.50	-45.6	-60.3	3.6	1.51e+00	0	41	104	0	60	42079
2026-01-30 06:40:47.75	356.82	5.46	-45.3	-60.3	3.6	1.51e+00	0	41	104	0	60	41835
2026-01-30 06:40:48.76	356.64	5.41	-45.5	-60.3	3.6	1.51e+00	0	41	104	0	60	42079
2026-01-30 06:40:49.77	356.46	5.37	-45.7	-60.4	3.6	1.51e+00	0	41	104	0	60	42284
2026-01-30 06:40:50.78	356.28	5.32	-45.3	-60.2	3.6	1.51e+00	0	41	104	0	60	41344
2026-01-30 06:40:51.79	356.10	5.28	-45.5	-60.2	3.6	1.51e+00	0	41	104	0	60	41643
2026-01-30 06:40:52.79	355.92	5.23	-45.6	-60.3	3.6	1.51e+00	0	41	104	0	60	41995
2026-01-30 06:40:53.80	355.75	5.19	-45.6	-60.3	3.6	1.51e+00	0	41	104	0	60	42176
2026-01-30 06:40:54.81	355.57	5.14	-45.4	-60.1	3.6	1.51e+00	0	41	104	0	60	41149
2026-01-30 06:40:55.82	355.39	5.09	-45.5	-60.2	3.6	1.51e+00	0	41	104	0	60	41601
2026-01-30 06:40:56.83	355.21	5.05	-45.6	-60.3	3.6	1.51e+00	0	41	104	0	60	41747
2026-01-30 06:40:57.84	355.04	5.00	-45.6	-60.3	3.6	1.51e+00	0	41	104	0	60	42044
2026-01-30 06:40:58.85	354.86	4.96	-45.4	-60.1	3.6	1.51e+00	0	41	104	0	60	41037
2026-01-30 06:40:59.86	354.69	4.91	-45.5	-60.2	3.6	1.51e+00	0	41	104	0	60	41712
2026-01-30 06:41:00.87	354.52	4.86	-45.5	-60.3	3.6	1.51e+00	0	41	104	0	60	41837
2026-01-30 06:41:01.88	354.34	4.82	-45.6	-60.3	3.6	1.51e+00	0	41	104	0	60	41924
2026-01-30 06:41:02.89	354.17	4.77	-45.4	-60.1	3.6	1.51e+00	0	41	104	0	60	40990
2026-01-30 06:41:03.89	354.00	4.72	-45.5	-60.2	3.6	1.51e+00	0	41	104	0	60	41279
2026-01-30 06:41:04.90	353.83	4.68	-45.7	-60.4	3.6	1.51e+00	0	41	104	0	60	42269
2026-01-30 06:41:05.91	353.66	4.63	-45.7	-60.4	3.6	1.51e+00	0	41	104	0	60	42394
2026-01-30 06:41:06.92	353.49	4.58	-45.5	-60.2	3.6	1.51e+00	0	41	104	0	60	41527
2026-01-30 06:41:07.93	353.33	4.54	-45.3	-60.1	3.6	1.51e+00	0	41	104	0	60	40804
2026-01-30 06:41:08.94	353.16	4.49	-45.3	-59.9	3.6	1.51e+00	0	41	104	0	60	40209
2026-01-30 06:41:09.95	352.99	4.44	-45.3	-60.0	3.6	1.51e+00	0	41	104	0	60	40413
2026-01-30 06:41:10.96	352.82	4.39	-45.1	-59.9	3.6	1.51e+00	0	41	104	0	60	40033
2026-01-30 06:41:11.97	352.66	4.35	-45.2	-59.9	3.6	1.51e+00	0	41	104	0	60	39992
2026-01-30 06:41:12.98	352.49	4.30	-45.3	-60.3	3.6	1.51e+00	0	41	104	0	60	41856
2026-01-30 06:41:13.99	352.33	4.25	-45.4	-60.1	3.6	1.51e+00	0	41	104	0	60	41060
2026-01-30 06:41:14.99	352.17	4.21	-45.6	-60.3	3.6	1.51e+00	0	41	104	0	60	41916
2026-01-30 06:41:16.00	352.00	4.16	-45.5	-60.3	3.6	1.51e+00	0	41	104	0	60	42031
2026-01-30 06:41:17.01	351.84	4.11	-45.3	-60.0	3.6	1.51e+00	0	41	104	0	60	40551
2026-01-30 06:41:18.02	351.68	4.06	-45.4	-60.1	3.6	1.51e+00	0	41	104	0	60	41078
2026-01-30 06:41:19.03	351.52	4.01	-45.6	-60.3	3.6	1.51e+00	0	41	104	0	60	41964
2026-01-30 06:41:20.04	351.36	3.97	-45.6	-60.4	3.6	1.51e+00	0	41	104	0	60	42305
2026-01-30 06:41:21.05	351.20	3.92	-45.3	-60.0	3.6	1.51e+00	0	41	104	0	60	40432
2026-01-30 06:41:22.06	351.04	3.87	-45.3	-60.0	3.6	1.51e+00	0	41	104	0	60	40605
2026-01-30 06:41:23.07	350.88	3.82	-45.6	-60.3	3.6	1.51e+00	0	41	104	0	60	41750
2026-01-30 06:41:24.08	350.73	3.77	-45.6	-60.3	3.6	1.51e+00	0	41	104	0	60	42043
2026-01-30 06:41:25.09	350.57	3.73	-45.2	-60.0	3.6	1.51e+00	0	41	104	0	60	40700
2026-01-30 06:41:26.09	350.42	3.68	-45.2	-59.9	3.6	1.51e+00	0	41	104	0	60	40301
2026-01-30 06:41:27.10	350.26	3.63	-45.5	-60.2	3.6	1.51e+00	0	41	104	0	60	41633
2026-01-30 06:41:28.11	350.11	3.58	-45.5	-60.3	3.6	1.51e+00	0	41	104	0	60	41819
2026-01-30 06:41:29.12	349.95	3.53	-45.1	-59.8	3.6	1.51e+00	0	41	104	0	60	39744
2026-01-30 06:41:30.13	349.80	3.49	-45.1	-59.9	3.6	1.51e+00	0	41	104	0	60	40033
2026-01-30 06:41:31.13	349.65	3.44	-45.3	-60.1	3.6	1.51e+00	0	41	104	0	60	40931
2026-01-30 06:41:32.14	349.49	3.39	-45.5	-60.2	3.6	1.51e+00	0	41	104	0	60	41333
2026-01-30 06:41:33.15	349.34	3.34	-45.0	-59.7	3.6	1.51e+00	0	41	104	0	60	39145
2026-01-30 06:41:34.16	349.19	3.29	-44.8	-59.6	3.6	1.51e+00	0	41	104	0	60	38884
2026-01-30 06:41:35.17	349.04	3.24	-45.2	-59.9	3.6	1.51e+00	0	41	104	0	60	40083
2026-01-30 06:41:36.18	348.89	3.20	-45.2	-59.9	3.5	1.51e+00	0	41	104	0	60	39916
2026-01-30 06:41:37.19	348.74	3.15	-44.5	-59.2	3.6	1.51e+00	0	41	104	0	60	36938
2026-01-30 06:41:38.20	348.60	3.10	-43.6	-58.4	3.6	1.51e+00	0	41	104	0	60	33591
2026-01-30 06:41:39.21	348.45	3.05	-44.6	-59.3	3.6	1.51e+00	0	41	104	0	60	37312
2026-01-30 06:41:40.22	348.30	3.00	-43.0	-57.7	3.6	1.51e+00	0	41	104	0	60	31120
2026-01-30 06:41:41.23	348.15	2.95	-42.1	-56.9	3.6	1.51e+00	0	41	104	0	60	28257
2026-01-30 06:41:42.24	348.01	2.90	-44.4	-59.1	3.6	1.51e+00	0	41	104	0	60	36616
2026-01-30 06:41:43.25	347.86	2.85	-45.9	-60.7	3.6	1.51e+00	0	41	104	0	60	43753
2026-01-30 06:41:44.26	347.72	2.81	-46.1	-60.9	3.6	1.51e+00	0	41	104	0	60	44991
2026-01-30 06:41:45.27	347.58	2.76	-46.2	-61.0	3.6	1.51e+00	0	41	104	0	60	45731
2026-01-30 06:41:46.28	347.43	2.71	-46.4	-61.2	3.6	1.51e+00	0	41	104	0	60	46357
2026-01-30 06:41:47.28	347.29	2.66	-46.6	-61.3	3.6	1.51e+00	0	41	104	0	60	47236
2026-01-30 06:41:48.30	347.15	2.61	-46.6	-61.4	3.6	1.51e+00	0	41	104	0	60	47430
2026-01-30 06:41:49.31	347.01	2.56	-46.6	-61.4	3.6	1.51e+00	0	41	104	0	60	47730
2026-01-30 06:41:50.32	346.87	2.51	-46.6	-61.5	3.6	1.51e+00	0	41	104	0	60	48267
2026-01-30 06:41:51.33	346.73	2.46	-46.6	-61.5	3.6	1.51e+00	0	41	104	0	60	48237
2026-01-30 06:41:52.33	346.59	2.42	-46.7	-61.5	3.6	1.51e+00	0	41	104	0	60	48177
2026-01-30 06:41:53.34	346.45	2.37	-46.8	-61.5	3.6	1.51e+00	0	41	104	0	60	48119
2026-01-30 06:41:54.35	346.31	2.32	-47.1	-61.8	3.6	1.51e+00	0	41	104	0	60	49851
2026-01-30 06:41:55.36	346.17	2.27	-46.8	-61.6	3.6	1.51e+00	0	41	104	0	60	48620
2026-01-30 06:41:56.37	346.04	2.22	-46.7	-61.5	3.6	1.51e+00	0	41	104	0	60	48258
2026-01-30 06:41:57.38	345.90	2.17	-46.7	-61.4	3.6	1.51e+00	0	41	104	0	60	47722
2026-01-30 06:41:58.39	345.76	2.12	-46.6	-61.3	3.6	1.51e+00	0	41	104	0	60	47221
2026-01-30 06:41:59.40	345.63	2.07	-46.5	-61.2	3.6	1.51e+00	0	41	104	0	60	46753
2026-01-30 06:42:00.41	345.49	2.02	-46.6	-61.3	3.5	1.51e+00	0	41	104	0	60	47023
2026-01-30 06:42:01.42	345.36	1.97	-46.6	-61.3	3.6	1.51e+00	0	41	104	0	60	47268
2026-01-30 06:42:02.43	345.23	1.92	-46.6	-61.3	3.6	1.51e+00	0	41	104	0	60	47272
2026-01-30 06:42:03.44	345.09	1.88	-46.6	-61.3	3.6	1.51e+00	0	41	104	0	60	47158
2026-01-30 06:42:04.45	344.96	1.83	-46.5	-61.3	3.6	1.51e+00	0	41	104	0	60	46950
2026-01-30 06:42:05.46	344.83	1.78	-46.6	-61.3	3.6	1.51e+00	0	41	104	0	60	47218
2026-01-30 06:42:06.47	344.70	1.73	-46.6	-61.3	3.6	1.51e+00	0	41	104	0	60	46957
2026-01-30 06:42:07.48	344.57	1.68	-46.6	-61.3	3.6	1.51e+00	0	41	104	0	60	46907
2026-01-30 06:42:08.48	344.44	1.63	-46.6	-61.3	3.6	1.51e+00	0	41	104	0	60	47008
2026-01-30 06:42:09.50	344.31	1.58	-46.6	-61.2	3.6	1.51e+00	0	41	104	0	60	46832
2026-01-30 06:42:10.51	344.18	1.53	-46.6	-61.3	3.6	1.51e+00	0	41	104	0	60	46839
2026-01-30 06:42:11.52	344.05	1.48	-46.6	-61.3	3.6	1.51e+00	0	41	104	0	60	46899
2026-01-30 06:42:12.53	343.92	1.43	-46.6	-61.2	3.6	1.51e+00	0	41	104	0	60	46732
2026-01-30 06:42:13.54	343.80	1.38	-46.6	-61.3	3.6	1.51e+00	0	41	104	0	60	46998
2026-01-30 06:42:14.55	343.67	1.34	-46.6	-61.2	3.6	1.51e+00	0	41	104	0	60	46628
2026-01-30 06:42:15.56	343.54	1.29	-46.6	-61.3	3.6	1.51e+00	0	41	104	0	60	46840
2026-01-30 06:42:16.57	343.42	1.24	-46.6	-61.3	3.6	1.51e+00	0	41	104	0	60	46972
2026-01-30 06:42:17.58	343.29	1.19	-46.5	-61.2	3.6	1.51e+00	0	41	104	0	60	46741
2026-01-30 06:42:18.59	343.17	1.14	-46.6	-61.2	3.6	1.51e+00	0	41	104	0	60	46635
2026-01-30 06:42:19.60	343.04	1.09	-46.5	-61.2	3.6	1.51e+00	0	41	104	0	60	46620
2026-01-30 06:42:20.61	342.92	1.04	-46.5	-61.3	3.6	1.51e+00	0	41	104	0	60	46931
2026-01-30 06:42:21.62	342.80	0.99	-46.5	-61.2	3.6	1.51e+00	0	41	104	0	60	46787
2026-01-30 06:42:22.63	342.68	0.94	-46.5	-61.2	3.6	1.51e+00	0	41	104	0	60	46749
2026-01-30 06:42:23.64	342.55	0.89	-46.5	-61.3	3.5	1.51e+00	0	41	104	0	60	46931
2026-01-30 06:42:24.65	342.43	0.84	-46.5	-61.2	3.6	1.51e+00	0	41	104	0	60	46737
2026-01-30 06:42:25.66	342.31	0.80	-46.5	-61.2	3.6	1.51e+00	0	41	104	0	60	46674
2026-01-30 06:42:26.67	342.19	0.75	-46.5	-61.3	3.6	1.51e+00	0	41	104	0	60	46856
2026-01-30 06:42:27.67	342.07	0.70	-46.5	-61.2	3.6	1.51e+00	0	41	104	0	60	46791
2026-01-30 06:42:28.68	341.95	0.65	-46.5	-61.2	3.6	1.51e+00	0	41	104	0	60	46780
2026-01-30 06:42:29.70	341.83	0.60	-46.5	-61.2	3.6	1.51e+00	0	41	104	0	60	46632
2026-01-30 06:42:30.71	341.72	0.55	-46.5	-61.2	3.6	1.51e+00	0	41	104	0	60	46770
2026-01-30 06:42:31.72	341.60	0.50	-46.5	-61.2	3.6	1.51e+00	0	41	104	0	60	46520
2026-01-30 06:42:32.72	341.48	0.45	-46.5	-61.2	3.6	1.51e+00	0	41	104	0	60	46670
2026-01-30 06:42:33.73	341.37	0.40	-46.5	-61.2	3.6	1.51e+00	0	41	104	0	60	46727
2026-01-30 06:42:34.74	341.25	0.35	-46.5	-61.2	3.6	1.51e+00	0	41	104	0	60	46806
2026-01-30 06:42:35.75	341.13	0.31	-46.5	-61.2	3.6	1.51e+00	0	41	104	0	60	46731
2026-01-30 06:42:36.76	341.02	0.26	-46.5	-61.2	3.6	1.51e+00	0	41	104	0	60	46779
2026-01-30 06:42:37.77	340.90	0.21	-46.5	-61.2	3.6	1.51e+00	0	41	104	0	60	46562
2026-01-30 06:42:38.78	340.79	0.16	-46.5	-61.3	3.6	1.51e+00	0	41	104	0	60	46932
2026-01-30 06:42:39.79	340.68	0.11	-46.5	-61.2	3.6	1.51e+00	0	41	104	0	60	46682
2026-01-30 06:42:40.80	340.56	0.06	-46.5	-61.2	3.6	1.51e+00	0	41	104	0	60	46652
2026-01-30 06:42:41.81	340.45	0.01	-46.5	-61.3	3.6	1.51e+00	0	41	104	0	60	46891
2026-01-30 06:42:42.82	340.34	-0.04	-46.5	-61.3	3.6	1.51e+00	0	41	104	0	60	46837

#Closed at: 2026-01-30 06:42:43
#Recorded file [0 MB]: D:/lorett/data/35029_260130_183405.dat