passes_logs/2026/01/30/R4.6S_Anadyr/R4.6S_Anadyr__20260130_033142_AQUA_rec.log

#Pass ID: 20260130_033142_AQUA
#Satellite: AQUA
#Configuration: AQUA
#almurnet v.1.7.20251203
#Start time: 2026-01-30 03:31:44

#Version: 2.2.20231116
#Station: R4.6S_Anadyr
#Location: 177.4865 lon 64.73178 lat
#TLE: 1 27424U 02022A   26029.54575153  .00001738  00000+0  35736-3 0  9994
#TLE: 2 27424  98.4104 356.2197 0001804  61.7823  56.0643 14.61874165263019

#Time	Az	El	Level	Level2	SNR	BER	BlckErr	Temp	State	Recorded	gain1	gain2
2026-01-30 03:31:44.69	198.21	0.15	-49.6	-64.6	3.6	1.51e+00	0	36	0	0	60	61293
2026-01-30 03:31:45.69	198.27	0.20	-50.1	-67.9	3.5	3.02e+01	0	37	104	0	60	96107
2026-01-30 03:31:46.70	198.32	0.26	-50.1	-67.9	3.5	3.02e+01	0	37	104	0	60	95644
2026-01-30 03:31:47.71	198.38	0.32	-50.1	-67.9	3.5	3.02e+01	0	38	104	0	60	95783
2026-01-30 03:31:48.73	198.44	0.38	-50.1	-67.9	3.5	3.02e+01	0	38	104	0	60	95472
2026-01-30 03:31:49.73	198.50	0.43	-50.1	-67.9	3.5	3.02e+01	0	38	104	0	60	96056
2026-01-30 03:31:50.75	198.56	0.49	-50.1	-67.9	3.5	3.02e+01	0	38	104	0	60	95651
2026-01-30 03:31:51.75	198.62	0.55	-50.1	-67.9	3.5	3.02e+01	0	38	104	0	60	96040
2026-01-30 03:31:52.76	198.68	0.61	-50.1	-67.9	3.5	3.02e+01	0	38	104	0	60	95718
2026-01-30 03:31:53.77	198.75	0.67	-50.1	-68.0	3.5	3.02e+01	0	38	104	0	60	96170
2026-01-30 03:31:54.79	198.81	0.73	-50.1	-67.9	3.5	3.02e+01	0	38	104	0	60	95620
2026-01-30 03:31:55.80	198.87	0.78	-50.1	-67.9	3.5	3.02e+01	0	38	104	0	60	96059
2026-01-30 03:31:56.81	198.93	0.84	-50.1	-67.9	3.5	3.02e+01	0	38	104	0	60	95907
2026-01-30 03:31:57.82	198.99	0.90	-50.1	-67.9	3.5	3.02e+01	0	38	104	0	60	95974
2026-01-30 03:31:58.83	199.05	0.96	-50.1	-67.9	3.5	3.02e+01	0	38	104	0	60	95679
2026-01-30 03:31:59.84	199.12	1.02	-50.1	-67.9	3.5	3.02e+01	0	38	104	0	60	96095
2026-01-30 03:32:00.84	199.18	1.08	-50.1	-67.9	3.5	3.02e+01	0	38	104	0	60	96016
2026-01-30 03:32:01.85	199.24	1.14	-50.1	-67.9	3.5	3.02e+01	0	38	104	0	60	95998
2026-01-30 03:32:02.86	199.30	1.20	-50.1	-68.0	3.5	3.02e+01	0	38	104	0	60	96199
2026-01-30 03:32:03.87	199.37	1.25	-50.1	-68.0	3.5	3.02e+01	0	38	104	0	60	96458
2026-01-30 03:32:04.88	199.43	1.31	-50.1	-67.9	3.5	3.02e+01	0	38	104	0	60	95785
2026-01-30 03:32:05.89	199.50	1.37	-50.1	-67.9	3.5	3.02e+01	0	38	104	0	60	95941
2026-01-30 03:32:06.90	199.56	1.43	-50.1	-67.9	3.5	3.02e+01	0	38	104	0	60	95643
2026-01-30 03:32:07.91	199.62	1.49	-50.1	-68.0	3.5	3.02e+01	0	38	104	0	60	96313
2026-01-30 03:32:08.92	199.69	1.55	-50.1	-67.9	3.5	3.02e+01	0	38	104	0	60	96067
2026-01-30 03:32:09.94	199.75	1.61	-50.1	-67.9	3.5	3.02e+01	0	38	104	0	60	95943
2026-01-30 03:32:10.95	199.82	1.67	-50.1	-67.9	3.5	3.02e+01	0	38	104	0	60	95548
2026-01-30 03:32:11.96	199.88	1.73	-50.1	-67.9	3.5	3.02e+01	0	38	104	0	60	96019
2026-01-30 03:32:12.97	199.95	1.79	-50.1	-67.9	3.5	3.02e+01	0	38	104	0	60	95621
2026-01-30 03:32:13.98	200.02	1.85	-50.1	-67.9	3.5	3.02e+01	0	38	104	0	60	96082
2026-01-30 03:32:14.99	200.08	1.92	-50.1	-67.9	3.5	3.02e+01	0	38	104	0	60	95833
2026-01-30 03:32:16.00	200.15	1.98	-50.1	-67.9	3.5	3.02e+01	0	38	104	0	60	95888
2026-01-30 03:32:17.01	200.22	2.04	-50.1	-67.9	3.5	3.02e+01	0	38	104	0	60	95812
2026-01-30 03:32:18.02	200.28	2.10	-50.1	-68.0	3.5	3.02e+01	0	38	104	0	60	96223
2026-01-30 03:32:19.03	200.35	2.16	-50.1	-67.9	3.5	3.02e+01	0	38	104	0	60	95887
2026-01-30 03:32:20.04	200.42	2.22	-50.1	-67.9	3.5	3.02e+01	0	38	104	0	60	96011
2026-01-30 03:32:21.05	200.49	2.28	-50.1	-67.9	3.5	3.02e+01	0	38	104	0	60	95851
2026-01-30 03:32:22.06	200.56	2.34	-50.1	-68.0	3.5	3.02e+01	0	38	104	0	60	96350
2026-01-30 03:32:23.07	200.62	2.40	-50.1	-68.0	3.5	3.02e+01	0	38	104	0	60	96165
2026-01-30 03:32:24.08	200.69	2.47	-50.1	-67.9	3.5	3.02e+01	0	38	104	0	60	96018
2026-01-30 03:32:25.09	200.76	2.53	-50.1	-68.0	3.5	3.02e+01	0	38	104	0	60	96208
2026-01-30 03:32:26.10	200.83	2.59	-50.1	-68.0	3.5	3.02e+01	0	38	104	0	60	96131
2026-01-30 03:32:27.11	200.90	2.65	-50.1	-67.9	3.5	3.02e+01	0	38	104	0	60	95834
2026-01-30 03:32:28.12	200.97	2.71	-50.1	-67.9	3.5	3.02e+01	0	38	104	0	60	95959
2026-01-30 03:32:29.13	201.04	2.78	-50.1	-68.0	3.5	3.02e+01	0	38	104	0	60	96417
2026-01-30 03:32:30.14	201.11	2.84	-50.1	-68.0	3.5	3.02e+01	0	38	104	0	60	96256
2026-01-30 03:32:31.15	201.19	2.90	-50.1	-67.9	3.5	3.02e+01	0	38	104	0	60	95691
2026-01-30 03:32:32.16	201.26	2.96	-50.1	-67.9	3.5	3.02e+01	0	38	104	0	60	96073
2026-01-30 03:32:33.17	201.33	3.03	-50.1	-67.9	3.5	3.02e+01	0	38	104	0	60	95625
2026-01-30 03:32:34.18	201.40	3.09	-50.1	-68.0	3.5	3.02e+01	0	38	104	0	60	96121
2026-01-30 03:32:35.19	201.47	3.15	-50.1	-68.0	3.5	3.02e+01	0	39	104	0	60	96148
2026-01-30 03:32:36.20	201.55	3.21	-50.1	-68.0	3.5	3.02e+01	0	38	104	0	60	96316
2026-01-30 03:32:37.21	201.62	3.28	-50.1	-68.0	3.5	3.02e+01	0	38	104	0	60	96597
2026-01-30 03:32:38.23	201.69	3.34	-50.1	-67.9	3.5	3.02e+01	0	39	104	0	60	95921
2026-01-30 03:32:39.23	201.77	3.40	-50.1	-67.9	3.5	3.02e+01	0	38	104	0	60	95701
2026-01-30 03:32:40.25	201.84	3.47	-50.1	-67.9	3.5	3.02e+01	0	38	104	0	60	95694
2026-01-30 03:32:41.26	201.92	3.53	-50.1	-68.0	3.5	3.02e+01	0	38	104	0	60	96196
2026-01-30 03:32:42.27	201.99	3.60	-50.1	-68.0	3.5	3.02e+01	0	38	104	0	60	96211
2026-01-30 03:32:43.28	202.06	3.66	-50.1	-68.0	3.5	3.02e+01	0	38	104	0	60	96483
2026-01-30 03:32:44.29	202.14	3.72	-50.1	-68.0	3.5	3.02e+01	0	38	104	0	60	96232
2026-01-30 03:32:45.30	202.22	3.79	-50.1	-68.0	3.5	3.02e+01	0	38	104	0	60	96144
2026-01-30 03:32:46.31	202.29	3.85	-50.1	-67.9	3.5	3.02e+01	0	38	104	0	60	95985
2026-01-30 03:32:47.32	202.37	3.92	-50.1	-68.0	3.5	3.02e+01	0	38	104	0	60	96276
2026-01-30 03:32:48.33	202.45	3.98	-50.1	-68.0	3.5	3.02e+01	0	38	104	0	60	96170
2026-01-30 03:32:49.34	202.52	4.05	-50.1	-67.9	3.5	3.02e+01	0	39	104	0	60	95941
2026-01-30 03:32:50.35	202.60	4.11	-50.1	-67.9	3.5	3.02e+01	0	38	104	0	60	95434
2026-01-30 03:32:51.36	202.68	4.18	-50.1	-67.9	3.5	3.02e+01	0	38	104	0	60	95479
2026-01-30 03:32:52.37	202.76	4.24	-50.1	-68.0	3.5	3.02e+01	0	39	104	0	60	96418
2026-01-30 03:32:53.38	202.83	4.31	-50.1	-67.9	3.5	3.02e+01	0	38	104	0	60	95943
2026-01-30 03:32:54.39	202.91	4.37	-50.1	-67.9	3.5	3.02e+01	0	39	104	0	60	95415
2026-01-30 03:32:55.40	202.99	4.44	-50.1	-68.0	3.5	3.02e+01	0	38	104	0	60	96299
2026-01-30 03:32:56.41	203.07	4.50	-50.1	-68.0	3.5	3.02e+01	0	38	104	0	60	96149
2026-01-30 03:32:57.42	203.15	4.57	-50.1	-68.0	3.5	3.02e+01	0	39	104	0	60	96626
2026-01-30 03:32:58.43	203.23	4.64	-50.1	-68.0	3.5	3.02e+01	0	38	104	0	60	96389
2026-01-30 03:32:59.44	203.31	4.70	-50.1	-67.9	3.5	3.02e+01	0	38	104	0	60	95950
2026-01-30 03:33:00.45	203.40	4.77	-50.1	-67.9	3.5	3.02e+01	0	38	104	0	60	95971
2026-01-30 03:33:01.46	203.48	4.83	-50.1	-67.9	3.5	3.02e+01	0	39	104	0	60	95607
2026-01-30 03:33:02.47	203.56	4.90	-50.1	-67.9	3.5	3.02e+01	0	38	104	0	60	95957
2026-01-30 03:33:03.48	203.64	4.97	-50.1	-68.0	3.5	3.02e+01	0	38	104	0	60	96184
2026-01-30 03:33:04.49	203.72	5.03	-50.1	-67.9	3.5	3.02e+01	0	38	104	0	60	95691
2026-01-30 03:33:05.50	203.81	5.10	-50.1	-68.0	3.5	3.02e+01	0	38	104	0	60	96814
2026-01-30 03:33:06.51	203.89	5.17	-50.1	-67.9	3.5	3.02e+01	0	39	104	0	60	95743
2026-01-30 03:33:07.52	203.98	5.24	-50.1	-67.9	3.5	3.02e+01	0	39	104	0	60	95824
2026-01-30 03:33:08.53	204.06	5.30	-50.1	-68.0	3.5	3.02e+01	0	38	104	0	60	96143
2026-01-30 03:33:09.54	204.14	5.37	-50.1	-67.9	3.5	3.02e+01	0	38	104	0	60	96084
2026-01-30 03:33:10.55	204.23	5.44	-50.1	-68.0	3.5	3.02e+01	0	39	104	0	60	96625
2026-01-30 03:33:11.56	204.32	5.51	-50.1	-67.9	3.5	3.02e+01	0	38	104	0	60	96029
2026-01-30 03:33:12.57	204.40	5.57	-50.1	-68.0	3.5	3.02e+01	0	39	104	0	60	96130
2026-01-30 03:33:13.58	204.49	5.64	-50.1	-68.0	3.5	3.02e+01	0	39	104	0	60	96916
2026-01-30 03:33:14.59	204.57	5.71	-50.1	-67.9	3.5	3.02e+01	0	39	104	0	60	95961
2026-01-30 03:33:15.60	204.66	5.78	-50.1	-67.9	3.5	3.02e+01	0	39	104	0	60	95972
2026-01-30 03:33:16.61	204.75	5.85	-50.1	-67.9	3.5	3.02e+01	0	39	104	0	60	95942
2026-01-30 03:33:17.63	204.84	5.92	-50.1	-67.9	3.5	3.02e+01	0	39	104	0	60	96019
2026-01-30 03:33:18.64	204.93	5.99	-50.1	-68.0	3.5	3.02e+01	0	39	104	0	60	96173
2026-01-30 03:33:19.65	205.02	6.05	-50.1	-67.9	3.5	3.02e+01	0	39	104	0	60	95984
2026-01-30 03:33:20.66	205.11	6.12	-50.1	-68.0	3.5	3.02e+01	0	39	104	0	60	96349
2026-01-30 03:33:21.67	205.20	6.19	-50.1	-68.0	3.5	3.02e+01	0	39	104	0	60	96374
2026-01-30 03:33:22.68	205.29	6.26	-50.1	-67.9	3.5	3.02e+01	0	39	104	0	60	95888
2026-01-30 03:33:23.69	205.38	6.33	-50.1	-67.9	3.5	3.02e+01	0	39	104	0	60	95815
2026-01-30 03:33:24.70	205.47	6.40	-50.1	-67.9	3.5	3.02e+01	0	39	104	0	60	96065
2026-01-30 03:33:25.71	205.56	6.47	-50.1	-68.0	3.5	3.02e+01	0	39	104	0	60	96510
2026-01-30 03:33:26.72	205.65	6.54	-50.1	-67.9	3.5	3.02e+01	0	39	104	0	60	95920
2026-01-30 03:33:27.73	205.74	6.61	-50.1	-68.0	3.5	3.02e+01	0	39	104	0	60	96490
2026-01-30 03:33:28.74	205.84	6.68	-50.1	-67.9	3.5	3.02e+01	0	39	104	0	60	95723
2026-01-30 03:33:29.75	205.93	6.75	-50.1	-68.0	3.5	3.02e+01	0	39	104	0	60	96407
2026-01-30 03:33:30.76	206.03	6.82	-50.1	-67.9	3.5	3.02e+01	0	39	104	0	60	95835
2026-01-30 03:33:31.77	206.12	6.90	-50.1	-68.0	3.5	3.02e+01	0	39	104	0	60	96142
2026-01-30 03:33:32.78	206.21	6.97	-50.1	-68.0	3.5	3.02e+01	0	39	104	0	60	96150
2026-01-30 03:33:33.79	206.31	7.04	-50.1	-68.0	3.5	3.02e+01	0	39	104	0	60	96351
2026-01-30 03:33:34.80	206.41	7.11	-50.1	-67.9	3.5	3.02e+01	0	39	104	0	60	95639
2026-01-30 03:33:35.81	206.50	7.18	-50.1	-68.0	3.5	3.02e+01	0	39	104	0	60	96142
2026-01-30 03:33:36.82	206.60	7.25	-50.1	-67.9	3.5	3.02e+01	0	39	104	0	60	95835
2026-01-30 03:33:37.83	206.70	7.32	-50.1	-67.9	3.5	3.02e+01	0	39	104	0	60	95756
2026-01-30 03:33:38.84	206.80	7.40	-50.1	-67.9	3.5	3.02e+01	0	39	104	0	60	95786
2026-01-30 03:33:39.85	206.89	7.47	-50.1	-67.9	3.5	3.02e+01	0	39	104	0	60	96084
2026-01-30 03:33:40.86	206.99	7.54	-50.1	-67.9	3.5	3.02e+01	0	39	104	0	60	95956
2026-01-30 03:33:41.87	207.09	7.61	-50.1	-68.0	3.5	3.02e+01	0	39	104	0	60	96489
2026-01-30 03:33:42.88	207.19	7.69	-50.1	-68.0	3.5	3.02e+01	0	39	104	0	60	96264
2026-01-30 03:33:43.89	207.29	7.76	-50.1	-67.9	3.5	3.02e+01	0	39	104	0	60	95912
2026-01-30 03:33:44.90	207.39	7.83	-50.1	-67.9	3.5	3.02e+01	0	39	104	0	60	95900
2026-01-30 03:33:45.91	207.50	7.90	-50.1	-68.0	3.5	3.02e+01	0	39	104	0	60	96365
2026-01-30 03:33:46.92	207.60	7.98	-50.1	-67.9	3.5	3.02e+01	0	39	104	0	60	95955
2026-01-30 03:33:47.93	207.70	8.05	-50.1	-68.0	3.5	3.02e+01	0	39	104	0	60	96189
2026-01-30 03:33:48.94	207.80	8.13	-50.1	-67.9	3.5	3.02e+01	0	39	104	0	60	96066
2026-01-30 03:33:49.95	207.91	8.20	-50.1	-67.9	3.5	3.02e+01	0	39	104	0	60	96028
2026-01-30 03:33:50.96	208.01	8.27	-50.1	-68.0	3.5	3.02e+01	0	39	104	0	60	96426
2026-01-30 03:33:51.98	208.12	8.35	-50.1	-67.9	3.5	3.02e+01	0	39	104	0	60	95989
2026-01-30 03:33:52.99	208.22	8.42	-50.1	-67.9	3.5	3.02e+01	0	39	104	0	60	96091
2026-01-30 03:33:54.00	208.33	8.50	-50.1	-67.9	3.5	3.02e+01	0	39	104	0	60	95778
2026-01-30 03:33:55.01	208.44	8.57	-50.1	-67.9	3.5	3.02e+01	0	39	104	0	60	95960
2026-01-30 03:33:56.02	208.54	8.65	-50.1	-67.9	3.5	3.02e+01	0	39	104	0	60	96081
2026-01-30 03:33:57.03	208.65	8.72	-50.1	-67.9	3.5	3.02e+01	0	39	104	0	60	95939
2026-01-30 03:33:58.04	208.76	8.80	-50.1	-67.9	3.5	3.02e+01	0	39	104	0	60	96016
2026-01-30 03:33:59.05	208.87	8.87	-50.1	-68.0	3.5	3.02e+01	0	39	104	0	60	96250
2026-01-30 03:34:00.06	208.98	8.95	-50.1	-68.0	3.5	3.02e+01	0	39	104	0	60	96321
2026-01-30 03:34:01.07	209.09	9.02	-50.1	-67.9	3.5	3.02e+01	0	39	104	0	60	95736
2026-01-30 03:34:02.08	209.20	9.10	-50.1	-68.0	3.5	3.02e+01	0	39	104	0	60	96321
2026-01-30 03:34:03.09	209.31	9.17	-50.1	-68.0	3.5	3.02e+01	0	39	104	0	60	96296
2026-01-30 03:34:04.10	209.42	9.25	-50.1	-68.0	3.5	3.02e+01	0	39	104	0	60	96357
2026-01-30 03:34:05.11	209.53	9.33	-50.1	-67.9	3.5	3.02e+01	0	39	104	0	60	95790
2026-01-30 03:34:06.12	209.65	9.40	-50.1	-67.9	3.5	3.02e+01	0	39	104	0	60	95878
2026-01-30 03:34:07.13	209.76	9.48	-50.1	-67.9	3.5	3.02e+01	0	39	104	0	60	95800
2026-01-30 03:34:08.14	209.87	9.56	-50.1	-67.9	3.5	3.02e+01	0	39	104	0	60	95934
2026-01-30 03:34:09.15	209.99	9.63	-50.1	-68.0	3.5	3.02e+01	0	39	104	0	60	96341
2026-01-30 03:34:10.16	210.11	9.71	-50.1	-68.0	3.5	3.02e+01	0	39	104	0	60	96174
2026-01-30 03:34:11.17	210.22	9.79	-50.1	-68.0	3.5	3.02e+01	0	39	104	0	60	96262
2026-01-30 03:34:12.18	210.34	9.87	-50.1	-67.9	3.5	3.02e+01	0	39	104	0	60	95998
2026-01-30 03:34:13.19	210.46	9.94	-50.1	-68.0	3.5	3.02e+01	0	39	104	0	60	96200
2026-01-30 03:34:14.20	210.57	10.02	-50.1	-67.9	3.5	3.02e+01	0	39	104	0	60	95873
2026-01-30 03:34:15.21	210.69	10.10	-50.1	-68.0	3.5	3.02e+01	0	39	104	0	60	96242
2026-01-30 03:34:16.22	210.81	10.18	-50.1	-67.9	3.5	3.02e+01	0	39	104	0	60	96084
2026-01-30 03:34:17.23	210.93	10.26	-50.1	-67.9	3.5	3.02e+01	0	39	104	0	60	95918
2026-01-30 03:34:18.24	211.05	10.34	-50.1	-67.9	3.5	3.02e+01	0	39	104	0	60	95778
2026-01-30 03:34:19.25	211.17	10.41	-50.1	-68.0	3.5	3.02e+01	0	39	104	0	60	96318
2026-01-30 03:34:20.26	211.30	10.49	-50.1	-68.0	3.5	3.02e+01	0	39	104	0	60	96256
2026-01-30 03:34:21.27	211.42	10.57	-50.1	-67.9	3.5	3.02e+01	0	39	104	0	60	96101
2026-01-30 03:34:22.28	211.54	10.65	-50.1	-67.9	3.5	3.02e+01	0	39	104	0	60	95930
2026-01-30 03:34:23.29	211.67	10.73	-50.1	-68.0	3.5	3.02e+01	0	39	104	0	60	96295
2026-01-30 03:34:24.30	211.79	10.81	-50.1	-68.0	3.5	3.02e+01	0	39	104	0	60	96441
2026-01-30 03:34:25.31	211.92	10.89	-50.1	-67.9	3.5	3.02e+01	0	39	104	0	60	95942
2026-01-30 03:34:26.32	212.04	10.97	-50.1	-67.9	3.5	3.02e+01	0	39	104	0	60	95913
2026-01-30 03:34:27.33	212.17	11.05	-50.1	-67.9	3.5	3.02e+01	0	39	104	0	60	95840
2026-01-30 03:34:28.34	212.30	11.13	-50.1	-67.9	3.5	3.02e+01	0	39	104	0	60	95528
2026-01-30 03:34:29.35	212.43	11.21	-50.1	-68.0	3.5	3.02e+01	0	39	104	0	60	96193
2026-01-30 03:34:30.36	212.56	11.29	-50.1	-68.0	3.5	3.02e+01	0	39	104	0	60	96278
2026-01-30 03:34:31.37	212.69	11.37	-50.1	-68.0	3.5	3.02e+01	0	39	104	0	60	96410
2026-01-30 03:34:32.39	212.82	11.46	-50.1	-68.0	3.5	3.02e+01	0	39	104	0	60	96127
2026-01-30 03:34:33.40	212.95	11.54	-50.1	-67.9	3.5	3.02e+01	0	39	104	0	60	95402
2026-01-30 03:34:34.41	213.08	11.62	-50.1	-67.9	3.5	3.02e+01	0	39	104	0	60	95740
2026-01-30 03:34:35.42	213.22	11.70	-50.1	-68.0	3.5	3.02e+01	0	39	104	0	60	96302
2026-01-30 03:34:36.43	213.35	11.78	-50.1	-68.0	3.5	3.02e+01	0	39	104	0	60	96571
2026-01-30 03:34:37.44	213.49	11.86	-50.1	-68.0	3.5	3.02e+01	0	39	104	0	60	96338
2026-01-30 03:34:38.45	213.62	11.95	-50.1	-67.9	3.5	3.02e+01	0	39	104	0	60	95729
2026-01-30 03:34:39.46	213.76	12.03	-50.1	-67.9	3.5	3.02e+01	0	39	104	0	60	95905
2026-01-30 03:34:40.47	213.89	12.11	-50.1	-68.0	3.5	3.02e+01	0	39	104	0	60	96299
2026-01-30 03:34:41.48	214.03	12.19	-50.1	-68.0	3.5	3.02e+01	0	39	104	0	60	96240
2026-01-30 03:34:42.49	214.17	12.28	-50.1	-68.0	3.5	3.02e+01	0	39	104	0	60	96346
2026-01-30 03:34:43.50	214.31	12.36	-50.1	-67.9	3.5	3.02e+01	0	39	104	0	60	95972
2026-01-30 03:34:44.51	214.45	12.44	-50.1	-68.0	3.5	3.02e+01	0	39	104	0	60	96604
2026-01-30 03:34:45.52	214.59	12.53	-50.1	-68.0	3.5	3.02e+01	0	39	104	0	60	96128
2026-01-30 03:34:46.53	214.73	12.61	-50.1	-67.9	3.5	3.02e+01	0	39	104	0	60	96066
2026-01-30 03:34:47.54	214.88	12.69	-50.1	-67.9	3.5	3.02e+01	0	39	104	0	60	95930
2026-01-30 03:34:48.55	215.02	12.78	-50.1	-68.0	3.5	3.02e+01	0	39	104	0	60	96260
2026-01-30 03:34:49.56	215.16	12.86	-50.1	-67.9	3.5	3.02e+01	0	39	104	0	60	95898
2026-01-30 03:34:50.57	215.31	12.94	-50.1	-68.0	3.5	3.02e+01	0	39	104	0	60	96245
2026-01-30 03:34:51.58	215.46	13.03	-50.1	-68.0	3.5	3.02e+01	0	39	104	0	60	96472
2026-01-30 03:34:52.59	215.60	13.11	-50.1	-67.9	3.5	3.02e+01	0	39	104	0	60	96071
2026-01-30 03:34:53.60	215.75	13.20	-50.1	-68.0	3.5	3.02e+01	0	39	104	0	60	96335
2026-01-30 03:34:54.61	215.90	13.28	-50.1	-68.0	3.5	3.02e+01	0	39	104	0	60	96174
2026-01-30 03:34:55.62	216.05	13.37	-50.1	-67.9	3.5	3.02e+01	0	39	104	0	60	96002
2026-01-30 03:34:56.63	216.20	13.45	-50.1	-67.9	3.5	3.02e+01	0	39	104	0	60	95675
2026-01-30 03:34:57.64	216.35	13.54	-50.1	-68.0	3.5	3.02e+01	0	39	104	0	60	96305
2026-01-30 03:34:58.65	216.50	13.62	-50.1	-67.9	3.5	3.02e+01	0	39	104	0	60	95847
2026-01-30 03:34:59.66	216.66	13.71	-50.1	-67.9	3.5	3.02e+01	0	39	104	0	60	95888
2026-01-30 03:35:00.67	216.81	13.79	-50.1	-68.0	3.5	3.02e+01	0	39	104	0	60	96270
2026-01-30 03:35:01.68	216.97	13.88	-50.1	-67.9	3.5	3.02e+01	0	39	104	0	60	96087
2026-01-30 03:35:02.70	217.12	13.97	-50.1	-67.9	3.5	3.02e+01	0	39	104	0	60	96001
2026-01-30 03:35:03.70	217.28	14.05	-50.1	-67.9	3.5	3.02e+01	0	39	104	0	60	96038
2026-01-30 03:35:04.71	217.44	14.14	-50.1	-67.9	3.5	3.02e+01	0	39	104	0	60	95735
2026-01-30 03:35:05.72	217.60	14.23	-50.1	-67.9	3.5	3.02e+01	0	39	104	0	60	95868
2026-01-30 03:35:06.73	217.76	14.31	-50.1	-67.9	3.5	3.02e+01	0	39	104	0	60	96068
2026-01-30 03:35:07.74	217.92	14.40	-50.1	-68.0	3.5	3.02e+01	0	39	104	0	60	96191
2026-01-30 03:35:08.75	218.08	14.49	-50.1	-67.9	3.5	3.02e+01	0	39	104	0	60	95927
2026-01-30 03:35:09.76	218.24	14.57	-50.1	-67.9	3.5	3.02e+01	0	39	104	0	60	95752
2026-01-30 03:35:10.77	218.41	14.66	-50.1	-67.9	3.5	3.02e+01	0	39	104	0	60	95839
2026-01-30 03:35:11.78	218.57	14.75	-50.1	-67.9	3.5	3.02e+01	0	39	104	0	60	96071
2026-01-30 03:35:12.79	218.74	14.83	-50.1	-68.0	3.5	3.02e+01	0	39	104	0	60	96509
2026-01-30 03:35:13.80	218.90	14.92	-50.1	-67.9	3.5	3.02e+01	0	39	104	0	60	96034
2026-01-30 03:35:14.81	219.07	15.01	-50.1	-67.9	3.5	3.02e+01	0	39	104	0	60	96015
2026-01-30 03:35:15.82	219.24	15.10	-50.1	-68.0	3.5	3.02e+01	0	39	104	0	60	96160
2026-01-30 03:35:16.83	219.41	15.19	-50.1	-67.9	3.5	3.02e+01	0	39	104	0	60	96094
2026-01-30 03:35:17.84	219.58	15.27	-50.1	-68.0	3.5	3.02e+01	0	39	104	0	60	96292
2026-01-30 03:35:18.85	219.75	15.36	-50.1	-67.9	3.5	3.02e+01	0	39	104	0	60	95767
2026-01-30 03:35:19.86	219.93	15.45	-50.1	-68.0	3.5	3.02e+01	0	39	104	0	60	96149
2026-01-30 03:35:20.87	220.10	15.54	-50.1	-67.9	3.5	3.02e+01	0	39	104	0	60	95904
2026-01-30 03:35:21.89	220.28	15.63	-50.1	-68.0	3.5	3.02e+01	0	39	104	0	60	96331
2026-01-30 03:35:22.89	220.45	15.72	-50.1	-67.9	3.5	3.02e+01	0	39	104	0	60	96033
2026-01-30 03:35:23.90	220.63	15.81	-50.1	-67.9	3.5	3.02e+01	0	39	104	0	60	95829
2026-01-30 03:35:24.91	220.81	15.89	-50.1	-67.9	3.5	3.02e+01	0	39	104	0	60	95950
2026-01-30 03:35:25.92	220.99	15.98	-50.1	-67.9	3.5	3.02e+01	0	39	104	0	60	95907
2026-01-30 03:35:26.94	221.17	16.07	-50.1	-68.0	3.5	3.02e+01	0	39	104	0	60	96125
2026-01-30 03:35:27.95	221.35	16.16	-50.1	-67.9	3.5	3.02e+01	0	39	104	0	60	95493
2026-01-30 03:35:28.96	221.53	16.25	-50.1	-67.9	3.5	3.02e+01	0	39	104	0	60	95567
2026-01-30 03:35:29.97	221.72	16.34	-50.1	-68.0	3.5	3.02e+01	0	39	104	0	60	96134
2026-01-30 03:35:30.98	221.90	16.43	-50.1	-67.9	3.5	3.02e+01	0	39	104	0	60	95841
2026-01-30 03:35:31.99	222.09	16.52	-50.1	-67.9	3.5	3.02e+01	0	39	104	0	60	96105
2026-01-30 03:35:33.00	222.28	16.61	-50.1	-67.9	3.5	3.02e+01	0	39	104	0	60	95893
2026-01-30 03:35:34.01	222.47	16.70	-50.1	-68.0	3.5	3.02e+01	0	39	104	0	60	96211
2026-01-30 03:35:35.02	222.66	16.79	-50.1	-67.9	3.5	3.02e+01	0	39	104	0	60	96058
2026-01-30 03:35:36.03	222.85	16.88	-50.1	-67.9	3.5	3.02e+01	0	39	104	0	60	96052
2026-01-30 03:35:37.04	223.04	16.97	-50.1	-68.0	3.5	3.02e+01	0	39	104	0	60	96273
2026-01-30 03:35:38.05	223.23	17.06	-50.1	-68.0	3.5	3.02e+01	0	39	104	0	60	96291
2026-01-30 03:35:39.06	223.43	17.15	-50.1	-68.0	3.5	3.02e+01	0	39	104	0	60	96302
2026-01-30 03:35:40.07	223.62	17.24	-50.1	-68.0	3.5	3.02e+01	0	39	104	0	60	96470
2026-01-30 03:35:41.08	223.82	17.33	-50.1	-67.9	3.5	3.02e+01	0	39	104	0	60	95337
2026-01-30 03:35:42.09	224.02	17.42	-50.1	-67.9	3.5	3.02e+01	0	39	104	0	60	95829
2026-01-30 03:35:43.10	224.22	17.51	-50.1	-67.9	3.5	3.02e+01	0	39	104	0	60	95977
2026-01-30 03:35:44.11	224.42	17.60	-50.1	-68.0	3.5	3.02e+01	0	39	104	0	60	96460
2026-01-30 03:35:45.12	224.62	17.69	-50.1	-68.0	3.5	3.02e+01	0	39	104	0	60	96206
2026-01-30 03:35:46.13	224.82	17.79	-50.1	-67.9	3.5	3.02e+01	0	39	104	0	60	95744
2026-01-30 03:35:47.14	225.03	17.88	-50.1	-67.9	3.5	3.02e+01	0	39	104	0	60	95908
2026-01-30 03:35:48.15	225.23	17.97	-50.1	-67.9	3.5	3.02e+01	0	39	104	0	60	95681
2026-01-30 03:35:49.16	225.44	18.06	-50.1	-67.9	3.5	3.02e+01	0	39	104	0	60	95840
2026-01-30 03:35:50.17	225.65	18.15	-50.1	-68.0	3.5	3.02e+01	0	39	104	0	60	96329
2026-01-30 03:35:51.18	225.86	18.24	-50.1	-68.0	3.5	3.02e+01	0	39	104	0	60	96219
2026-01-30 03:35:52.19	226.07	18.33	-50.1	-67.9	3.5	3.02e+01	0	39	104	0	60	95602
2026-01-30 03:35:53.20	226.28	18.42	-50.1	-67.9	3.5	3.02e+01	0	39	104	0	60	96029
2026-01-30 03:35:54.21	226.50	18.51	-50.1	-67.9	3.5	3.02e+01	0	39	104	0	60	95850
2026-01-30 03:35:55.22	226.71	18.60	-50.1	-67.9	3.5	3.02e+01	0	39	104	0	60	95413
2026-01-30 03:35:56.23	226.93	18.69	-50.1	-67.9	3.5	3.02e+01	0	39	104	0	60	96042
2026-01-30 03:35:57.24	227.14	18.78	-50.1	-67.9	3.5	3.02e+01	0	39	104	0	60	96103
2026-01-30 03:35:58.25	227.36	18.87	-50.1	-67.9	3.5	3.02e+01	0	39	104	0	60	95722
2026-01-30 03:35:59.26	227.58	18.96	-50.1	-67.9	3.5	3.02e+01	0	39	104	0	60	95852
2026-01-30 03:36:00.27	227.80	19.05	-50.1	-67.9	3.5	3.02e+01	0	39	104	0	60	95505
2026-01-30 03:36:01.28	228.03	19.15	-50.1	-67.9	3.5	3.02e+01	0	39	104	0	60	95769
2026-01-30 03:36:02.29	228.25	19.24	-50.1	-68.0	3.5	3.02e+01	0	39	104	0	60	96374
2026-01-30 03:36:03.30	228.48	19.33	-50.1	-67.9	3.5	3.02e+01	0	39	104	0	60	95835
2026-01-30 03:36:04.31	228.70	19.42	-50.1	-67.9	3.5	3.02e+01	0	39	104	0	60	95816
2026-01-30 03:36:05.32	228.93	19.51	-50.1	-67.9	3.5	3.02e+01	0	39	104	0	60	95934
2026-01-30 03:36:06.33	229.16	19.60	-50.1	-67.9	3.5	3.02e+01	0	39	104	0	60	95829
2026-01-30 03:36:07.34	229.39	19.69	-50.1	-67.9	3.5	3.02e+01	0	39	104	0	60	95377
2026-01-30 03:36:08.35	229.63	19.78	-50.1	-67.9	3.5	3.02e+01	0	39	104	0	60	95680
2026-01-30 03:36:09.36	229.86	19.87	-50.1	-68.0	3.5	3.02e+01	0	39	104	0	60	96140
2026-01-30 03:36:10.37	230.09	19.96	-50.1	-67.9	3.5	3.02e+01	0	39	104	0	60	95475
2026-01-30 03:36:11.38	230.33	20.05	-50.1	-68.0	3.5	3.02e+01	0	39	104	0	60	96310
2026-01-30 03:36:12.39	230.57	20.14	-50.1	-67.9	3.5	3.02e+01	0	39	104	0	60	95289
2026-01-30 03:36:13.40	230.81	20.23	-50.1	-67.9	3.5	3.02e+01	0	39	104	0	60	95879
2026-01-30 03:36:14.41	231.05	20.32	-50.1	-68.0	3.5	3.02e+01	0	39	104	0	60	96154
2026-01-30 03:36:15.42	231.29	20.41	-50.1	-67.9	3.5	3.02e+01	0	39	104	0	60	95713
2026-01-30 03:36:16.43	231.54	20.50	-50.1	-67.9	3.5	3.02e+01	0	39	104	0	60	95671
2026-01-30 03:36:17.44	231.78	20.58	-50.1	-67.9	3.5	3.02e+01	0	39	104	0	60	96109
2026-01-30 03:36:18.45	232.03	20.67	-50.1	-67.9	3.5	3.02e+01	0	39	104	0	60	95839
2026-01-30 03:36:19.46	232.28	20.76	-50.1	-68.0	3.5	3.02e+01	0	39	104	0	60	96220
2026-01-30 03:36:20.47	232.53	20.85	-50.1	-68.0	3.5	3.02e+01	0	39	104	0	60	96193
2026-01-30 03:36:21.48	232.78	20.94	-50.1	-67.9	3.5	3.02e+01	0	39	104	0	60	96086
2026-01-30 03:36:22.49	233.03	21.03	-50.1	-67.9	3.5	3.02e+01	0	39	104	0	60	95982
2026-01-30 03:36:23.50	233.29	21.11	-50.1	-67.9	3.5	3.02e+01	0	39	104	0	60	96033
2026-01-30 03:36:24.51	233.54	21.20	-50.1	-67.9	3.5	3.02e+01	0	39	104	0	60	96055
2026-01-30 03:36:25.52	233.80	21.29	-50.1	-67.9	3.5	3.02e+01	0	39	104	0	60	95635
2026-01-30 03:36:26.53	234.06	21.38	-50.1	-67.9	3.5	3.02e+01	0	39	104	0	60	95987
2026-01-30 03:36:27.54	234.32	21.46	-50.1	-68.0	3.5	3.02e+01	0	39	104	0	60	96138
2026-01-30 03:36:28.55	234.58	21.55	-50.1	-67.9	3.5	3.02e+01	0	39	104	0	60	96098
2026-01-30 03:36:29.56	234.84	21.64	-50.1	-67.9	3.5	3.02e+01	0	39	104	0	60	95702
2026-01-30 03:36:30.57	235.11	21.72	-50.1	-67.9	3.5	3.02e+01	0	39	104	0	60	95465
2026-01-30 03:36:31.58	235.37	21.81	-50.1	-67.9	3.5	3.02e+01	0	39	104	0	60	95912
2026-01-30 03:36:32.59	235.64	21.90	-50.1	-67.9	3.5	3.02e+01	0	39	104	0	60	95901
2026-01-30 03:36:33.60	235.91	21.98	-50.1	-67.9	3.5	3.02e+01	0	39	104	0	60	96099
2026-01-30 03:36:34.61	236.18	22.07	-50.1	-67.9	3.5	3.02e+01	0	39	104	0	60	95621
2026-01-30 03:36:35.62	236.45	22.15	-50.1	-67.9	3.5	3.02e+01	0	39	104	0	60	95912
2026-01-30 03:36:36.63	236.73	22.24	-50.1	-67.9	3.5	3.02e+01	0	39	104	0	60	96050
2026-01-30 03:36:37.64	237.00	22.32	-50.1	-67.9	3.5	3.02e+01	0	39	104	0	60	95690
2026-01-30 03:36:38.65	237.28	22.40	-50.1	-68.0	3.5	3.02e+01	0	39	104	0	60	96260
2026-01-30 03:36:39.66	237.56	22.49	-50.1	-67.9	3.5	3.02e+01	0	39	104	0	60	95864
2026-01-30 03:36:40.67	237.84	22.57	-50.1	-68.0	3.5	3.02e+01	0	39	104	0	60	96240
2026-01-30 03:36:41.68	238.12	22.65	-50.1	-67.9	3.5	3.02e+01	0	39	104	0	60	95819
2026-01-30 03:36:42.69	238.40	22.73	-50.1	-67.9	3.5	3.02e+01	0	39	104	0	60	95880
2026-01-30 03:36:43.70	238.69	22.82	-50.1	-67.9	3.5	3.02e+01	0	39	104	0	60	95833
2026-01-30 03:36:44.71	238.97	22.90	-50.1	-67.9	3.5	3.02e+01	0	39	104	0	60	95695
2026-01-30 03:36:45.72	239.26	22.98	-50.1	-67.9	3.5	3.02e+01	0	39	104	0	60	95647
2026-01-30 03:36:46.73	239.55	23.06	-50.1	-67.9	3.5	3.02e+01	0	39	104	0	60	95797
2026-01-30 03:36:47.74	239.84	23.14	-50.1	-67.9	3.5	3.02e+01	0	39	104	0	60	95713
2026-01-30 03:36:48.75	240.13	23.22	-50.1	-67.9	3.5	3.02e+01	0	39	104	0	60	96013
2026-01-30 03:36:49.76	240.43	23.30	-50.1	-67.9	3.5	3.02e+01	0	39	104	0	60	95764
2026-01-30 03:36:50.77	240.72	23.38	-50.1	-68.0	3.5	3.02e+01	0	39	104	0	60	96225
2026-01-30 03:36:51.78	241.02	23.46	-50.1	-67.9	3.5	3.02e+01	0	39	104	0	60	96109
2026-01-30 03:36:52.79	241.32	23.53	-50.1	-67.9	3.5	3.02e+01	0	39	104	0	60	95403
2026-01-30 03:36:53.80	241.62	23.61	-50.1	-68.0	3.5	3.02e+01	0	39	104	0	60	96464
2026-01-30 03:36:54.81	241.92	23.69	-50.1	-67.9	3.5	3.02e+01	0	39	104	0	60	95698
2026-01-30 03:36:55.82	242.22	23.76	-50.1	-67.9	3.5	3.02e+01	0	39	104	0	60	95343
2026-01-30 03:36:56.83	242.53	23.84	-50.1	-67.9	3.5	3.02e+01	0	39	104	0	60	95862
2026-01-30 03:36:57.84	242.83	23.91	-50.1	-67.9	3.5	3.02e+01	0	39	104	0	60	95773
2026-01-30 03:36:58.85	243.14	23.99	-50.1	-67.9	3.5	3.02e+01	0	39	104	0	60	95827
2026-01-30 03:36:59.86	243.45	24.06	-50.1	-68.0	3.5	3.02e+01	0	39	104	0	60	96225
2026-01-30 03:37:00.87	243.76	24.13	-50.1	-67.9	3.5	3.02e+01	0	39	104	0	60	96093
2026-01-30 03:37:01.88	244.07	24.21	-50.1	-67.9	3.5	3.02e+01	0	39	104	0	60	95522
2026-01-30 03:37:02.89	244.38	24.28	-50.1	-67.9	3.5	3.02e+01	0	39	104	0	60	95995
2026-01-30 03:37:03.89	244.69	24.35	-50.1	-68.0	3.5	3.02e+01	0	39	104	0	60	96134
2026-01-30 03:37:04.90	245.01	24.42	-50.1	-68.0	3.5	3.02e+01	0	39	104	0	60	96125
2026-01-30 03:37:05.91	245.33	24.49	-50.1	-68.0	3.5	3.02e+01	0	39	104	0	60	96222
2026-01-30 03:37:06.92	245.65	24.56	-50.1	-67.9	3.5	3.02e+01	0	39	104	0	60	95790
2026-01-30 03:37:07.93	245.97	24.63	-50.1	-68.0	3.5	3.02e+01	0	39	104	0	60	96160
2026-01-30 03:37:08.94	246.29	24.70	-50.1	-67.9	3.5	3.02e+01	0	39	104	0	60	95570
2026-01-30 03:37:09.95	246.61	24.76	-50.1	-67.9	3.5	3.02e+01	0	39	104	0	60	95632
2026-01-30 03:37:10.97	246.94	24.83	-50.1	-67.9	3.5	3.02e+01	0	39	104	0	60	95905
2026-01-30 03:37:11.98	247.27	24.90	-50.1	-67.9	3.5	3.02e+01	0	39	104	0	60	95737
2026-01-30 03:37:12.99	247.59	24.96	-50.1	-67.9	3.5	3.02e+01	0	39	104	0	60	95577
2026-01-30 03:37:14.00	247.92	25.02	-50.1	-67.9	3.5	3.02e+01	0	39	104	0	60	95585
2026-01-30 03:37:15.01	248.25	25.09	-50.1	-67.9	3.5	3.02e+01	0	39	104	0	60	95782
2026-01-30 03:37:16.02	248.58	25.15	-50.1	-67.9	3.5	3.02e+01	0	39	104	0	60	95529
2026-01-30 03:37:17.03	248.92	25.21	-50.1	-67.9	3.5	3.02e+01	0	39	104	0	60	95572
2026-01-30 03:37:18.04	249.25	25.27	-50.1	-67.9	3.5	3.02e+01	0	39	104	0	60	96103
2026-01-30 03:37:19.05	249.59	25.33	-50.1	-67.9	3.5	3.02e+01	0	39	104	0	60	95767
2026-01-30 03:37:20.05	249.92	25.39	-50.1	-68.0	3.5	3.02e+01	0	39	104	0	60	96141
2026-01-30 03:37:21.07	250.26	25.45	-50.1	-67.9	3.6	3.02e+01	0	39	104	0	60	95733
2026-01-30 03:37:22.08	250.60	25.51	-50.1	-67.9	3.5	3.02e+01	0	39	104	0	60	95621
2026-01-30 03:37:23.09	250.94	25.56	-50.1	-67.9	3.5	3.02e+01	0	39	104	0	60	95457
2026-01-30 03:37:24.10	251.28	25.62	-50.1	-67.9	3.5	3.02e+01	0	39	104	0	60	95522
2026-01-30 03:37:25.11	251.63	25.67	-50.1	-67.9	3.5	3.02e+01	0	39	104	0	60	95650
2026-01-30 03:37:26.12	251.97	25.73	-50.1	-67.9	3.5	3.02e+01	0	39	104	0	60	95661
2026-01-30 03:37:27.13	252.31	25.78	-50.1	-67.9	3.5	3.02e+01	0	39	104	0	60	96099
2026-01-30 03:37:28.14	252.66	25.83	-50.1	-67.9	3.5	3.02e+01	0	39	104	0	60	95662
2026-01-30 03:37:29.15	253.01	25.88	-50.1	-67.9	3.5	3.02e+01	0	39	104	0	60	95573
2026-01-30 03:37:30.16	253.36	25.93	-50.1	-67.9	3.5	3.02e+01	0	39	104	0	60	95538
2026-01-30 03:37:31.17	253.71	25.98	-50.1	-67.9	3.5	3.02e+01	0	39	104	0	60	95653
2026-01-30 03:37:32.18	254.06	26.03	-50.1	-67.9	3.5	3.02e+01	0	39	104	0	60	95787
2026-01-30 03:37:33.19	254.41	26.08	-50.1	-67.9	3.5	3.02e+01	0	39	104	0	60	95663
2026-01-30 03:37:34.20	254.76	26.12	-50.1	-67.9	3.5	3.02e+01	0	39	104	0	60	96054
2026-01-30 03:37:35.21	255.12	26.17	-50.1	-67.9	3.5	3.02e+01	0	39	104	0	60	95780
2026-01-30 03:37:36.22	255.47	26.21	-50.1	-67.9	3.5	3.02e+01	0	39	104	0	60	95759
2026-01-30 03:37:37.24	255.83	26.26	-50.1	-67.9	3.5	3.02e+01	0	39	104	0	60	95761
2026-01-30 03:37:38.25	256.19	26.30	-50.1	-67.9	3.5	3.02e+01	0	39	104	0	60	96096
2026-01-30 03:37:39.26	256.55	26.34	-50.1	-67.9	3.4	3.02e+01	0	39	104	0	60	95763
2026-01-30 03:37:40.26	256.90	26.38	-50.1	-67.9	3.5	3.02e+01	0	39	104	0	60	95614
2026-01-30 03:37:41.27	257.26	26.42	-50.1	-67.9	3.5	3.02e+01	0	39	104	0	60	95761
2026-01-30 03:37:42.28	257.62	26.45	-50.1	-67.9	3.5	3.02e+01	0	39	104	0	60	95941
2026-01-30 03:37:43.30	257.99	26.49	-50.1	-67.9	3.5	3.02e+01	0	39	104	0	60	95997
2026-01-30 03:37:44.30	258.35	26.53	-50.1	-67.9	3.5	3.02e+01	0	39	104	0	60	95711
2026-01-30 03:37:45.32	258.71	26.56	-50.1	-67.9	3.5	3.02e+01	0	39	104	0	60	95991
2026-01-30 03:37:46.33	259.08	26.59	-50.1	-67.9	3.5	3.02e+01	0	39	104	0	60	95604
2026-01-30 03:37:47.34	259.44	26.62	-50.1	-67.9	3.5	3.02e+01	0	39	104	0	60	95737
2026-01-30 03:37:48.35	259.81	26.66	-50.1	-67.9	3.5	3.02e+01	0	39	104	0	60	95463
2026-01-30 03:37:49.36	260.17	26.69	-50.1	-67.9	3.5	3.02e+01	0	39	104	0	60	95979
2026-01-30 03:37:50.37	260.54	26.71	-50.1	-67.9	3.5	3.02e+01	0	39	104	0	60	95605
2026-01-30 03:37:51.38	260.91	26.74	-50.1	-67.9	3.5	3.02e+01	0	39	104	0	60	95682
2026-01-30 03:37:52.39	261.28	26.77	-50.1	-67.9	3.5	3.02e+01	0	39	104	0	60	95572
2026-01-30 03:37:53.40	261.64	26.79	-50.1	-67.9	3.5	3.02e+01	0	39	104	0	60	95728
2026-01-30 03:37:54.41	262.01	26.82	-50.1	-67.9	3.5	3.02e+01	0	39	104	0	60	95811
2026-01-30 03:37:55.42	262.38	26.84	-50.1	-67.9	3.5	3.02e+01	0	39	104	0	60	95859
2026-01-30 03:37:56.43	262.75	26.86	-50.1	-67.9	3.5	3.02e+01	0	39	104	0	60	95433
2026-01-30 03:37:57.44	263.12	26.88	-50.1	-67.9	3.5	3.02e+01	0	39	104	0	60	95400
2026-01-30 03:37:58.45	263.49	26.90	-50.1	-67.9	3.5	3.02e+01	0	39	104	0	60	95745
2026-01-30 03:37:59.46	263.87	26.92	-50.1	-67.9	3.5	3.02e+01	0	39	104	0	60	96056
2026-01-30 03:38:00.47	264.24	26.93	-50.1	-67.9	3.5	3.02e+01	0	39	104	0	60	95751
2026-01-30 03:38:01.48	264.61	26.95	-50.1	-67.9	3.5	3.02e+01	0	39	104	0	60	96063
2026-01-30 03:38:02.49	264.98	26.96	-50.1	-67.9	3.5	3.02e+01	0	39	104	0	60	95808
2026-01-30 03:38:03.50	265.36	26.97	-50.1	-67.9	3.5	3.02e+01	0	39	104	0	60	95986
2026-01-30 03:38:04.51	265.73	26.98	-50.1	-67.9	3.5	3.02e+01	0	39	104	0	60	95678
2026-01-30 03:38:05.52	266.10	27.00	-50.1	-67.9	3.5	3.02e+01	0	39	104	0	60	96048
2026-01-30 03:38:06.53	266.48	27.00	-50.1	-67.9	3.5	3.02e+01	0	39	104	0	60	95564
2026-01-30 03:38:07.54	266.85	27.01	-50.1	-67.9	3.5	3.02e+01	0	39	104	0	60	95682
2026-01-30 03:38:08.55	267.22	27.02	-50.1	-67.9	3.5	3.02e+01	0	39	104	0	60	95345
2026-01-30 03:38:09.56	267.60	27.02	-50.1	-67.9	3.5	3.02e+01	0	39	104	0	60	95877
2026-01-30 03:38:10.57	267.97	27.03	-50.1	-67.9	3.5	3.02e+01	0	39	104	0	60	95351
2026-01-30 03:38:11.58	268.35	27.03	-50.1	-68.0	3.5	3.02e+01	0	39	104	0	60	96299
2026-01-30 03:38:12.59	268.72	27.03	-50.1	-67.9	3.5	3.02e+01	0	39	104	0	60	95958
2026-01-30 03:38:13.60	269.10	27.03	-50.1	-67.9	3.5	3.02e+01	0	39	104	0	60	95723
2026-01-30 03:38:14.61	269.47	27.03	-50.1	-67.9	3.5	3.02e+01	0	39	104	0	60	95877
2026-01-30 03:38:15.62	269.84	27.03	-50.1	-67.9	3.5	3.02e+01	0	39	104	0	60	95429
2026-01-30 03:38:16.63	270.22	27.02	-50.1	-67.9	3.5	3.02e+01	0	39	104	0	60	95622
2026-01-30 03:38:17.64	270.59	27.02	-50.1	-67.9	3.5	3.02e+01	0	39	104	0	60	95666
2026-01-30 03:38:18.65	270.97	27.01	-50.1	-67.9	3.5	3.02e+01	0	39	104	0	60	95455
2026-01-30 03:38:19.66	271.34	27.01	-50.1	-67.9	3.5	3.02e+01	0	39	104	0	60	95822
2026-01-30 03:38:20.67	271.71	27.00	-50.1	-68.0	3.5	3.02e+01	0	39	104	0	60	96169
2026-01-30 03:38:21.68	272.09	26.99	-50.1	-67.9	3.5	3.02e+01	0	39	104	0	60	95353
2026-01-30 03:38:22.70	272.46	26.98	-50.1	-67.9	3.5	3.02e+01	0	39	104	0	60	95068
2026-01-30 03:38:23.70	272.83	26.96	-50.1	-68.0	3.5	3.02e+01	0	39	104	0	60	96562
2026-01-30 03:38:24.71	273.21	26.95	-50.1	-67.9	3.5	3.02e+01	0	39	104	0	60	95367
2026-01-30 03:38:25.73	273.58	26.94	-50.1	-67.9	3.5	3.02e+01	0	39	104	0	60	95616
2026-01-30 03:38:26.74	273.95	26.92	-50.1	-67.9	3.5	3.02e+01	0	39	104	0	60	95971
2026-01-30 03:38:27.74	274.32	26.90	-50.1	-67.9	3.5	3.02e+01	0	39	104	0	60	95085
2026-01-30 03:38:28.75	274.69	26.88	-50.1	-67.9	3.5	3.02e+01	0	39	104	0	60	95644
2026-01-30 03:38:29.76	275.06	26.86	-50.1	-67.9	3.5	3.02e+01	0	39	104	0	60	96086
2026-01-30 03:38:30.77	275.43	26.84	-50.1	-67.9	3.5	3.02e+01	0	39	104	0	60	95352
2026-01-30 03:38:31.79	275.81	26.82	-50.1	-67.9	3.5	3.02e+01	0	39	104	0	60	95873
2026-01-30 03:38:32.79	276.17	26.80	-50.1	-67.9	3.5	3.02e+01	0	39	104	0	60	95873
2026-01-30 03:38:33.81	276.54	26.77	-50.1	-67.9	3.5	3.02e+01	0	39	104	0	60	95729
2026-01-30 03:38:34.82	276.91	26.75	-50.1	-67.9	3.5	3.02e+01	0	39	104	0	60	95087
2026-01-30 03:38:35.83	277.28	26.72	-50.1	-67.9	3.5	3.02e+01	0	39	104	0	60	95771
2026-01-30 03:38:36.84	277.64	26.69	-50.1	-67.9	3.5	3.02e+01	0	39	104	0	60	95806
2026-01-30 03:38:37.85	278.01	26.66	-50.1	-68.0	3.5	3.02e+01	0	39	104	0	60	96183
2026-01-30 03:38:38.86	278.37	26.63	-50.1	-67.9	3.5	3.02e+01	0	39	104	0	60	95908
2026-01-30 03:38:39.87	278.74	26.60	-50.1	-67.9	3.5	3.02e+01	0	39	104	0	60	95774
2026-01-30 03:38:40.88	279.10	26.57	-50.1	-67.9	3.5	3.02e+01	0	39	104	0	60	95700
2026-01-30 03:38:41.89	279.46	26.54	-50.1	-67.9	3.5	3.02e+01	0	39	104	0	60	95914
2026-01-30 03:38:42.90	279.83	26.50	-50.1	-67.9	3.5	3.02e+01	0	39	104	0	60	95817
2026-01-30 03:38:43.91	280.19	26.47	-50.1	-68.0	3.5	3.02e+01	0	39	104	0	60	96115
2026-01-30 03:38:44.92	280.55	26.43	-50.1	-67.9	3.5	3.02e+01	0	39	104	0	60	95222
2026-01-30 03:38:45.93	280.91	26.39	-50.1	-67.9	3.5	3.02e+01	0	39	104	0	60	95986
2026-01-30 03:38:46.94	281.27	26.35	-50.1	-67.9	3.5	3.02e+01	0	39	104	0	60	95167
2026-01-30 03:38:47.95	281.62	26.31	-50.1	-67.9	3.5	3.02e+01	0	39	104	0	60	95833
2026-01-30 03:38:48.96	281.98	26.27	-50.1	-67.9	3.5	3.02e+01	0	39	104	0	60	95577
2026-01-30 03:38:49.97	282.34	26.23	-50.1	-67.9	3.5	3.02e+01	0	39	104	0	60	95581
2026-01-30 03:38:50.98	282.69	26.18	-50.1	-67.8	3.5	3.02e+01	0	39	104	0	60	94804
2026-01-30 03:38:51.99	283.04	26.14	-50.1	-67.9	3.5	3.02e+01	0	39	104	0	60	95974
2026-01-30 03:38:53.00	283.40	26.09	-50.1	-67.9	3.5	3.02e+01	0	39	104	0	60	95788
2026-01-30 03:38:54.01	283.75	26.05	-50.1	-67.9	3.5	3.02e+01	0	39	104	0	60	95580
2026-01-30 03:38:55.02	284.10	26.00	-50.1	-67.9	3.5	3.02e+01	0	39	104	0	60	95275
2026-01-30 03:38:56.03	284.45	25.95	-50.1	-67.9	3.5	3.02e+01	0	39	104	0	60	95684
2026-01-30 03:38:57.04	284.80	25.90	-50.1	-67.9	3.5	3.02e+01	0	39	104	0	60	95525
2026-01-30 03:38:58.05	285.14	25.85	-50.1	-67.9	3.5	3.02e+01	0	39	104	0	60	95764
2026-01-30 03:38:59.06	285.49	25.80	-50.1	-67.9	3.5	3.02e+01	0	39	104	0	60	95896
2026-01-30 03:39:00.07	285.83	25.75	-50.1	-67.9	3.5	3.02e+01	0	39	104	0	60	95122
2026-01-30 03:39:01.09	286.18	25.69	-50.1	-67.9	3.5	3.02e+01	0	39	104	0	60	95536
2026-01-30 03:39:02.10	286.52	25.64	-50.1	-67.9	3.5	3.02e+01	0	39	104	0	60	95736
2026-01-30 03:39:03.10	286.86	25.58	-50.1	-67.9	3.5	3.02e+01	0	39	104	0	60	95984
2026-01-30 03:39:04.11	287.20	25.53	-50.1	-67.8	3.5	3.02e+01	0	39	104	0	60	94976
2026-01-30 03:39:05.13	287.54	25.47	-50.1	-67.9	3.5	3.02e+01	0	39	104	0	60	95371
2026-01-30 03:39:06.14	287.88	25.41	-50.1	-67.9	3.5	3.02e+01	0	39	104	0	60	95354
2026-01-30 03:39:07.15	288.22	25.35	-50.1	-67.9	3.5	3.02e+01	0	39	104	0	60	95515
2026-01-30 03:39:08.16	288.55	25.29	-50.1	-67.9	3.5	3.02e+01	0	39	104	0	60	95781
2026-01-30 03:39:09.17	288.88	25.23	-50.1	-67.9	3.5	3.02e+01	0	39	104	0	60	95422
2026-01-30 03:39:10.18	289.22	25.17	-50.1	-67.8	3.5	3.02e+01	0	39	104	0	60	95002
2026-01-30 03:39:11.19	289.55	25.11	-50.1	-67.9	3.5	3.02e+01	0	39	104	0	60	95771
2026-01-30 03:39:12.20	289.88	25.05	-50.1	-67.9	3.5	3.02e+01	0	39	104	0	60	95684
2026-01-30 03:39:13.21	290.20	24.98	-50.1	-67.9	3.5	3.02e+01	0	39	104	0	60	95317
2026-01-30 03:39:14.22	290.53	24.92	-50.1	-67.9	3.5	3.02e+01	0	39	104	0	60	95233
2026-01-30 03:39:15.23	290.86	24.85	-50.1	-67.9	3.5	3.02e+01	0	39	104	0	60	95832
2026-01-30 03:39:16.24	291.18	24.79	-50.1	-67.9	3.5	3.02e+01	0	39	104	0	60	95548
2026-01-30 03:39:17.25	291.50	24.72	-50.1	-68.0	3.5	3.02e+01	0	39	104	0	60	96409
2026-01-30 03:39:18.26	291.82	24.66	-50.1	-67.9	3.5	3.02e+01	0	39	104	0	60	95601
2026-01-30 03:39:19.27	292.14	24.59	-50.1	-67.9	3.5	3.02e+01	0	39	104	0	60	95676
2026-01-30 03:39:20.28	292.46	24.52	-50.1	-67.9	3.5	3.02e+01	0	39	104	0	60	95460
2026-01-30 03:39:21.29	292.78	24.45	-50.1	-67.9	3.5	3.02e+01	0	39	104	0	60	95721
2026-01-30 03:39:22.30	293.09	24.38	-50.1	-67.9	3.5	3.02e+01	0	39	104	0	60	95661
2026-01-30 03:39:23.31	293.41	24.31	-50.1	-67.9	3.5	3.02e+01	0	39	104	0	60	96003
2026-01-30 03:39:24.32	293.72	24.24	-50.1	-67.9	3.5	3.02e+01	0	39	104	0	60	95508
2026-01-30 03:39:25.33	294.03	24.17	-50.1	-67.9	3.5	3.02e+01	0	39	104	0	60	95757
2026-01-30 03:39:26.34	294.34	24.09	-50.1	-67.9	3.5	3.02e+01	0	39	104	0	60	95540
2026-01-30 03:39:27.35	294.65	24.02	-50.1	-67.9	3.5	3.02e+01	0	39	104	0	60	95539
2026-01-30 03:39:28.36	294.96	23.95	-50.1	-68.0	3.5	3.02e+01	0	39	104	0	60	96407
2026-01-30 03:39:29.37	295.26	23.87	-50.1	-67.9	3.5	3.02e+01	0	39	104	0	60	95790
2026-01-30 03:39:30.38	295.56	23.80	-50.1	-67.9	3.5	3.02e+01	0	39	104	0	60	95687
2026-01-30 03:39:31.40	295.87	23.72	-50.1	-67.9	3.5	3.02e+01	0	39	104	0	60	95531
2026-01-30 03:39:32.41	296.17	23.64	-50.1	-67.9	3.5	3.02e+01	0	39	104	0	60	95458
2026-01-30 03:39:33.41	296.47	23.57	-50.1	-67.9	3.5	3.02e+01	0	39	104	0	60	95134
2026-01-30 03:39:34.42	296.76	23.49	-50.1	-67.9	3.5	3.02e+01	0	39	104	0	60	95708
2026-01-30 03:39:35.44	297.06	23.41	-50.1	-67.9	3.5	3.02e+01	0	39	104	0	60	95897
2026-01-30 03:39:36.45	297.36	23.33	-50.1	-67.9	3.5	3.02e+01	0	39	104	0	60	95619
2026-01-30 03:39:37.46	297.65	23.26	-50.1	-67.9	3.5	3.02e+01	0	39	104	0	60	95858
2026-01-30 03:39:38.47	297.94	23.18	-50.1	-67.9	3.5	3.02e+01	0	39	104	0	60	95430
2026-01-30 03:39:39.48	298.23	23.10	-50.1	-67.9	3.5	3.02e+01	0	39	104	0	60	95094
2026-01-30 03:39:40.49	298.52	23.02	-50.1	-67.9	3.5	3.02e+01	0	39	104	0	60	95541
2026-01-30 03:39:41.50	298.81	22.94	-50.1	-67.9	3.5	3.02e+01	0	39	104	0	60	95452
2026-01-30 03:39:42.51	299.09	22.86	-50.1	-67.9	3.5	3.02e+01	0	39	104	0	60	95326
2026-01-30 03:39:43.52	299.38	22.78	-50.1	-67.9	3.5	3.02e+01	0	39	104	0	60	95779
2026-01-30 03:39:44.53	299.66	22.69	-50.1	-67.9	3.5	3.02e+01	0	39	104	0	60	95400
2026-01-30 03:39:45.54	299.94	22.61	-50.1	-67.9	3.5	3.02e+01	0	39	104	0	60	95834
2026-01-30 03:39:46.55	300.22	22.53	-50.1	-67.9	3.5	3.02e+01	0	39	104	0	60	95832
2026-01-30 03:39:47.56	300.50	22.45	-50.1	-67.9	3.5	3.02e+01	0	39	104	0	60	95900
2026-01-30 03:39:48.57	300.77	22.36	-50.1	-67.9	3.5	3.02e+01	0	39	104	0	60	95944
2026-01-30 03:39:49.58	301.05	22.28	-50.1	-67.9	3.5	3.02e+01	0	39	104	0	60	95647
2026-01-30 03:39:50.59	301.32	22.20	-50.1	-67.9	3.5	3.02e+01	0	39	104	0	60	95917
2026-01-30 03:39:51.60	301.59	22.11	-50.1	-67.9	3.5	3.02e+01	0	39	104	0	60	95966
2026-01-30 03:39:52.61	301.86	22.03	-50.1	-67.9	3.5	3.02e+01	0	39	104	0	60	95364
2026-01-30 03:39:53.62	302.13	21.94	-50.1	-67.9	3.5	3.02e+01	0	39	104	0	60	95187
2026-01-30 03:39:54.63	302.40	21.86	-50.1	-67.9	3.5	3.02e+01	0	39	104	0	60	95483
2026-01-30 03:39:55.64	302.67	21.77	-50.1	-67.9	3.5	3.02e+01	0	39	104	0	60	95844
2026-01-30 03:39:56.65	302.93	21.69	-50.1	-67.9	3.5	3.02e+01	0	39	104	0	60	95894
2026-01-30 03:39:57.66	303.19	21.60	-50.1	-67.9	3.5	3.02e+01	0	39	104	0	60	95265
2026-01-30 03:39:58.67	303.45	21.52	-50.1	-67.9	3.5	3.02e+01	0	39	104	0	60	95309
2026-01-30 03:39:59.68	303.71	21.43	-50.1	-68.0	3.5	3.02e+01	0	39	104	0	60	96144
2026-01-30 03:40:00.69	303.97	21.34	-50.1	-67.9	3.5	3.02e+01	0	39	104	0	60	95409
2026-01-30 03:40:01.69	304.23	21.26	-50.1	-67.9	3.5	3.02e+01	0	39	104	0	60	95463
2026-01-30 03:40:02.70	304.48	21.17	-50.1	-67.9	3.5	3.02e+01	0	39	104	0	60	95917
2026-01-30 03:40:03.71	304.73	21.08	-50.1	-67.9	3.5	3.02e+01	0	39	104	0	60	95745
2026-01-30 03:40:04.72	304.99	20.99	-50.1	-67.9	3.5	3.02e+01	0	39	104	0	60	95385
2026-01-30 03:40:05.73	305.24	20.91	-50.1	-67.9	3.5	3.02e+01	0	39	104	0	60	95370
2026-01-30 03:40:06.75	305.49	20.82	-50.1	-67.9	3.5	3.02e+01	0	39	104	0	60	95914
2026-01-30 03:40:07.76	305.74	20.73	-50.1	-67.9	3.5	3.02e+01	0	39	104	0	60	95869
2026-01-30 03:40:08.76	305.98	20.64	-50.1	-67.9	3.5	3.02e+01	0	39	104	0	60	95604
2026-01-30 03:40:09.78	306.23	20.55	-50.1	-67.9	3.5	3.02e+01	0	39	104	0	60	95373
2026-01-30 03:40:10.79	306.47	20.47	-50.1	-67.9	3.5	3.02e+01	0	39	104	0	60	95719
2026-01-30 03:40:11.80	306.71	20.38	-50.1	-67.9	3.5	3.02e+01	0	39	104	0	60	95775
2026-01-30 03:40:12.81	306.95	20.29	-50.1	-67.9	3.5	3.02e+01	0	39	104	0	60	95442
2026-01-30 03:40:13.82	307.19	20.20	-50.1	-67.9	3.5	3.02e+01	0	39	104	0	60	95470
2026-01-30 03:40:14.83	307.43	20.11	-50.1	-67.9	3.5	3.02e+01	0	39	104	0	60	95315
2026-01-30 03:40:15.84	307.67	20.02	-50.1	-67.9	3.5	3.02e+01	0	39	104	0	60	95729
2026-01-30 03:40:16.85	307.90	19.93	-50.1	-67.9	3.5	3.02e+01	0	39	104	0	60	95458
2026-01-30 03:40:17.86	308.13	19.84	-50.1	-67.9	3.5	3.02e+01	0	39	104	0	60	95420
2026-01-30 03:40:18.87	308.37	19.75	-50.1	-67.9	3.5	3.02e+01	0	39	104	0	60	95660
2026-01-30 03:40:19.88	308.60	19.66	-50.1	-67.9	3.5	3.02e+01	0	39	104	0	60	95523
2026-01-30 03:40:20.89	308.83	19.57	-50.1	-67.9	3.5	3.02e+01	0	39	104	0	60	95503
2026-01-30 03:40:21.90	309.05	19.48	-50.1	-67.9	3.5	3.02e+01	0	39	104	0	60	95356
2026-01-30 03:40:22.91	309.28	19.39	-50.1	-67.9	3.5	3.02e+01	0	39	104	0	60	95148
2026-01-30 03:40:23.92	309.51	19.30	-50.1	-67.9	3.5	3.02e+01	0	39	104	0	60	96074
2026-01-30 03:40:24.93	309.73	19.21	-50.1	-67.9	3.5	3.02e+01	0	39	104	0	60	95779
2026-01-30 03:40:25.94	309.95	19.12	-50.1	-67.9	3.5	3.02e+01	0	39	104	0	60	95014
2026-01-30 03:40:26.95	310.17	19.03	-50.1	-67.8	3.5	3.02e+01	0	39	104	0	60	94956
2026-01-30 03:40:27.96	310.39	18.94	-50.1	-67.9	3.5	3.02e+01	0	39	104	0	60	95655
2026-01-30 03:40:28.97	310.61	18.85	-50.1	-67.9	3.5	3.02e+01	0	39	104	0	60	95710
2026-01-30 03:40:29.98	310.83	18.76	-50.1	-67.9	3.5	3.02e+01	0	39	104	0	60	95609
2026-01-30 03:40:30.99	311.04	18.67	-50.1	-67.9	3.5	3.02e+01	0	39	104	0	60	95912
2026-01-30 03:40:32.00	311.26	18.58	-50.1	-67.9	3.5	3.02e+01	0	39	104	0	60	95164
2026-01-30 03:40:33.01	311.47	18.49	-50.1	-67.9	3.5	3.02e+01	0	39	104	0	60	95441
2026-01-30 03:40:34.02	311.68	18.40	-50.1	-67.8	3.5	3.02e+01	0	39	104	0	60	94847
2026-01-30 03:40:35.03	311.89	18.31	-50.1	-67.9	3.5	3.02e+01	0	39	104	0	60	95081
2026-01-30 03:40:36.04	312.10	18.22	-50.1	-67.8	3.5	3.02e+01	0	39	104	0	60	95000
2026-01-30 03:40:37.05	312.31	18.13	-50.1	-67.9	3.5	3.02e+01	0	39	104	0	60	95803
2026-01-30 03:40:38.07	312.52	18.04	-50.1	-67.9	3.5	3.02e+01	0	39	104	0	60	95377
2026-01-30 03:40:39.07	312.72	17.95	-50.1	-67.9	3.5	3.02e+01	0	39	104	0	60	95924
2026-01-30 03:40:40.08	312.93	17.86	-50.1	-67.9	3.5	3.02e+01	0	39	104	0	60	95785
2026-01-30 03:40:41.09	313.13	17.77	-50.1	-67.9	3.5	3.02e+01	0	39	104	0	60	95683
2026-01-30 03:40:42.11	313.33	17.68	-50.1	-67.9	3.5	3.02e+01	0	39	104	0	60	95778
2026-01-30 03:40:43.12	313.53	17.59	-50.1	-67.9	3.5	3.02e+01	0	39	104	0	60	95526
2026-01-30 03:40:44.13	313.73	17.50	-50.1	-68.0	3.5	3.02e+01	0	39	104	0	60	96166
2026-01-30 03:40:45.14	313.93	17.41	-50.1	-67.9	3.5	3.02e+01	0	39	104	0	60	96058
2026-01-30 03:40:46.15	314.13	17.32	-50.1	-67.9	3.5	3.02e+01	0	39	104	0	60	95859
2026-01-30 03:40:47.16	314.32	17.23	-50.1	-67.9	3.5	3.02e+01	0	39	104	0	60	95910
2026-01-30 03:40:48.17	314.52	17.15	-50.1	-67.9	3.5	3.02e+01	0	39	104	0	60	95139
2026-01-30 03:40:49.18	314.71	17.06	-50.1	-67.9	3.5	3.02e+01	0	39	104	0	60	95606
2026-01-30 03:40:50.19	314.90	16.97	-50.1	-67.9	3.5	3.02e+01	0	39	104	0	60	95537
2026-01-30 03:40:51.20	315.09	16.88	-50.1	-67.9	3.6	3.02e+01	0	39	104	0	60	95471
2026-01-30 03:40:52.21	315.28	16.79	-50.1	-68.0	3.5	3.02e+01	0	39	104	0	60	96123
2026-01-30 03:40:53.22	315.47	16.70	-50.1	-67.9	3.5	3.02e+01	0	39	104	0	60	96021
2026-01-30 03:40:54.24	315.66	16.61	-50.1	-67.8	3.5	3.02e+01	0	39	104	0	60	94973
2026-01-30 03:40:55.25	315.85	16.52	-50.1	-67.9	3.5	3.02e+01	0	39	104	0	60	95168
2026-01-30 03:40:56.25	316.03	16.43	-50.1	-67.9	3.5	3.02e+01	0	39	104	0	60	95254
2026-01-30 03:40:57.27	316.21	16.34	-50.1	-67.9	3.5	3.02e+01	0	39	104	0	60	95592
2026-01-30 03:40:58.28	316.40	16.25	-50.1	-67.9	3.5	3.02e+01	0	39	104	0	60	95190
2026-01-30 03:40:59.28	316.58	16.17	-50.1	-67.9	3.5	3.02e+01	0	39	104	0	60	95326
2026-01-30 03:41:00.29	316.76	16.08	-50.1	-67.9	3.5	3.02e+01	0	39	104	0	60	95941
2026-01-30 03:41:01.30	316.94	15.99	-50.1	-67.9	3.5	3.02e+01	0	39	104	0	60	95332
2026-01-30 03:41:02.31	317.11	15.90	-50.1	-67.9	3.5	3.02e+01	0	39	104	0	60	95466
2026-01-30 03:41:03.33	317.29	15.81	-50.1	-67.9	3.5	3.02e+01	0	39	104	0	60	95326
2026-01-30 03:41:04.33	317.47	15.72	-50.1	-67.9	3.5	3.02e+01	0	39	104	0	60	95314
2026-01-30 03:41:05.35	317.64	15.63	-50.1	-67.9	3.5	3.02e+01	0	39	104	0	60	95786
2026-01-30 03:41:06.36	317.82	15.55	-50.1	-67.9	3.5	3.02e+01	0	39	104	0	60	95186
2026-01-30 03:41:07.37	317.99	15.46	-50.1	-67.9	3.5	3.02e+01	0	39	104	0	60	95249
2026-01-30 03:41:08.38	318.16	15.37	-50.1	-67.9	3.6	3.02e+01	0	39	104	0	60	95354
2026-01-30 03:41:09.39	318.33	15.28	-50.1	-67.9	3.5	3.02e+01	0	39	104	0	60	95380
2026-01-30 03:41:10.40	318.50	15.20	-50.1	-67.9	3.6	3.02e+01	0	39	104	0	60	95466
2026-01-30 03:41:11.41	318.67	15.11	-50.1	-67.9	3.5	3.02e+01	0	39	104	0	60	95865
2026-01-30 03:41:12.42	318.84	15.02	-50.1	-67.9	3.5	3.02e+01	0	39	104	0	60	95451
2026-01-30 03:41:13.43	319.01	14.94	-50.1	-67.9	3.5	3.02e+01	0	39	104	0	60	95842
2026-01-30 03:41:14.44	319.17	14.85	-50.1	-67.9	3.5	3.02e+01	0	39	104	0	60	95537
2026-01-30 03:41:15.44	319.34	14.76	-50.1	-67.9	3.5	3.02e+01	0	39	104	0	60	95299
2026-01-30 03:41:16.45	319.50	14.68	-50.1	-67.9	3.5	3.02e+01	0	39	104	0	60	95261
2026-01-30 03:41:17.46	319.66	14.59	-50.1	-67.9	3.5	3.02e+01	0	39	104	0	60	95601
2026-01-30 03:41:18.47	319.82	14.50	-50.1	-67.9	3.5	3.02e+01	0	39	104	0	60	95289
2026-01-30 03:41:19.48	319.99	14.42	-50.1	-67.9	3.5	3.02e+01	0	39	104	0	60	95875
2026-01-30 03:41:20.49	320.14	14.33	-50.1	-67.9	3.5	3.02e+01	0	39	104	0	60	95782
2026-01-30 03:41:21.50	320.30	14.25	-50.1	-67.9	3.5	3.02e+01	0	39	104	0	60	95154
2026-01-30 03:41:22.51	320.46	14.16	-50.1	-67.9	3.5	3.02e+01	0	39	104	0	60	95758
2026-01-30 03:41:23.52	320.62	14.07	-50.1	-67.9	3.5	3.02e+01	0	39	104	0	60	95858
2026-01-30 03:41:24.53	320.77	13.99	-50.1	-67.9	3.5	3.02e+01	0	39	104	0	60	95474
2026-01-30 03:41:25.54	320.93	13.90	-50.1	-67.9	3.5	3.02e+01	0	39	104	0	60	95362
2026-01-30 03:41:26.55	321.08	13.82	-50.1	-67.9	3.5	3.02e+01	0	39	104	0	60	95542
2026-01-30 03:41:27.57	321.24	13.73	-50.1	-67.9	3.5	3.02e+01	0	39	104	0	60	95292
2026-01-30 03:41:28.58	321.39	13.65	-50.1	-67.9	3.5	3.02e+01	0	39	104	0	60	95491
2026-01-30 03:41:29.59	321.54	13.56	-50.1	-67.9	3.5	3.02e+01	0	39	104	0	60	95450
2026-01-30 03:41:30.60	321.69	13.48	-50.1	-67.9	3.5	3.02e+01	0	39	104	0	60	95903
2026-01-30 03:41:31.61	321.84	13.39	-50.1	-67.9	3.5	3.02e+01	0	39	104	0	60	96020
2026-01-30 03:41:32.62	321.99	13.31	-50.1	-67.9	3.5	3.02e+01	0	39	104	0	60	95532
2026-01-30 03:41:33.63	322.14	13.23	-50.1	-67.9	3.5	3.02e+01	0	39	104	0	60	95331
2026-01-30 03:41:34.64	322.29	13.14	-50.1	-67.9	3.5	3.02e+01	0	39	104	0	60	95453
2026-01-30 03:41:35.65	322.43	13.06	-50.1	-67.9	3.5	3.02e+01	0	39	104	0	60	95689
2026-01-30 03:41:36.66	322.58	12.97	-50.1	-67.9	3.5	3.02e+01	0	39	104	0	60	95635
2026-01-30 03:41:37.67	322.72	12.89	-50.1	-67.9	3.5	3.02e+01	0	39	104	0	60	95080
2026-01-30 03:41:38.68	322.87	12.81	-50.1	-67.9	3.5	3.02e+01	0	39	104	0	60	95346
2026-01-30 03:41:39.69	323.01	12.72	-50.1	-67.9	3.5	3.02e+01	0	39	104	0	60	95740
2026-01-30 03:41:40.70	323.15	12.64	-50.1	-67.9	3.5	3.02e+01	0	39	104	0	60	95267
2026-01-30 03:41:41.71	323.29	12.56	-50.1	-67.9	3.5	3.02e+01	0	39	104	0	60	95727
2026-01-30 03:41:42.72	323.43	12.48	-50.1	-67.9	3.5	3.02e+01	0	39	104	0	60	95525
2026-01-30 03:41:43.73	323.57	12.39	-50.1	-67.9	3.5	3.02e+01	0	39	104	0	60	95572
2026-01-30 03:41:44.74	323.71	12.31	-50.1	-67.8	3.5	3.02e+01	0	39	104	0	60	94930
2026-01-30 03:41:45.75	323.85	12.23	-50.1	-67.9	3.5	3.02e+01	0	39	104	0	60	95496
2026-01-30 03:41:46.76	323.99	12.15	-50.1	-67.9	3.5	3.02e+01	0	39	104	0	60	95355
2026-01-30 03:41:47.77	324.12	12.07	-50.1	-67.9	3.5	3.02e+01	0	39	104	0	60	95289
2026-01-30 03:41:48.78	324.26	11.98	-50.1	-67.9	3.5	3.02e+01	0	39	104	0	60	95705
2026-01-30 03:41:49.79	324.39	11.90	-50.1	-67.9	3.5	3.02e+01	0	39	104	0	60	95574
2026-01-30 03:41:50.80	324.53	11.82	-50.1	-67.9	3.5	3.02e+01	0	39	104	0	60	95501
2026-01-30 03:41:51.81	324.66	11.74	-50.1	-67.9	3.5	3.02e+01	0	39	104	0	60	95659
2026-01-30 03:41:52.82	324.79	11.66	-50.1	-67.9	3.5	3.02e+01	0	39	104	0	60	95166
2026-01-30 03:41:53.83	324.92	11.58	-50.1	-67.9	3.5	3.02e+01	0	39	104	0	60	95147
2026-01-30 03:41:54.84	325.05	11.50	-50.1	-67.9	3.5	3.02e+01	0	39	104	0	60	96019
2026-01-30 03:41:55.85	325.18	11.42	-50.1	-67.9	3.5	3.02e+01	0	39	104	0	60	95241
2026-01-30 03:41:56.87	325.32	11.34	-50.1	-67.9	3.5	3.02e+01	0	39	104	0	60	95255
2026-01-30 03:41:57.87	325.44	11.26	-50.1	-67.9	3.5	3.02e+01	0	39	104	0	60	95904
2026-01-30 03:41:58.89	325.57	11.18	-50.1	-67.9	3.5	3.02e+01	0	39	104	0	60	95789
2026-01-30 03:41:59.90	325.70	11.10	-50.1	-67.9	3.5	3.02e+01	0	39	104	0	60	95436
2026-01-30 03:42:00.91	325.83	11.02	-50.1	-67.9	3.5	3.02e+01	0	39	104	0	60	95670
2026-01-30 03:42:01.92	325.95	10.94	-50.1	-67.9	3.5	3.02e+01	0	39	104	0	60	95186
2026-01-30 03:42:02.93	326.08	10.86	-50.1	-67.9	3.5	3.02e+01	0	39	104	0	60	95608
2026-01-30 03:42:03.94	326.20	10.78	-50.1	-67.9	3.5	3.02e+01	0	39	104	0	60	95015
2026-01-30 03:42:04.95	326.33	10.70	-50.1	-67.9	3.5	3.02e+01	0	39	104	0	60	95420
2026-01-30 03:42:05.96	326.45	10.62	-50.1	-67.9	3.5	3.02e+01	0	39	104	0	60	95175
2026-01-30 03:42:06.97	326.57	10.55	-50.1	-67.9	3.5	3.02e+01	0	39	104	0	60	95397
2026-01-30 03:42:07.98	326.69	10.47	-50.1	-67.9	3.5	3.02e+01	0	39	104	0	60	95613
2026-01-30 03:42:08.99	326.81	10.39	-50.1	-67.9	3.5	3.02e+01	0	39	104	0	60	95072
2026-01-30 03:42:10.00	326.93	10.31	-50.1	-67.8	3.5	3.02e+01	0	39	104	0	60	94952
2026-01-30 03:42:11.01	327.05	10.23	-50.1	-67.9	3.5	3.02e+01	0	39	104	0	60	95172
2026-01-30 03:42:12.02	327.17	10.16	-50.1	-67.9	3.5	3.02e+01	0	39	104	0	60	95559
2026-01-30 03:42:13.03	327.29	10.08	-50.1	-67.9	3.5	3.02e+01	0	39	104	0	60	95522
2026-01-30 03:42:14.04	327.41	10.00	-50.1	-67.9	3.4	3.02e+01	0	39	104	0	60	95362
2026-01-30 03:42:15.05	327.53	9.92	-50.1	-67.9	3.4	3.02e+01	0	39	104	0	60	95648
2026-01-30 03:42:16.06	327.64	9.85	-50.1	-67.9	3.5	3.02e+01	0	39	104	0	60	95165
2026-01-30 03:42:17.07	327.76	9.77	-50.1	-67.9	3.5	3.02e+01	0	39	104	0	60	95815
2026-01-30 03:42:18.08	327.87	9.69	-50.1	-67.9	3.5	3.02e+01	0	39	104	0	60	95119
2026-01-30 03:42:19.09	327.99	9.62	-50.1	-67.9	3.5	3.02e+01	0	39	104	0	60	95862
2026-01-30 03:42:20.10	328.10	9.54	-50.1	-67.9	3.5	3.02e+01	0	39	104	0	60	95435
2026-01-30 03:42:21.11	328.22	9.47	-50.1	-67.9	3.5	3.02e+01	0	39	104	0	60	95580
2026-01-30 03:42:22.12	328.33	9.39	-50.1	-67.9	3.5	3.02e+01	0	39	104	0	60	95548
2026-01-30 03:42:23.13	328.44	9.31	-50.1	-67.9	3.5	3.02e+01	0	39	104	0	60	95397
2026-01-30 03:42:24.14	328.55	9.24	-50.1	-67.9	3.5	3.02e+01	0	39	104	0	60	95428
2026-01-30 03:42:25.15	328.66	9.16	-50.1	-67.9	3.5	3.02e+01	0	39	104	0	60	95413
2026-01-30 03:42:26.16	328.77	9.09	-50.1	-67.9	3.5	3.02e+01	0	39	104	0	60	95759
2026-01-30 03:42:27.17	328.88	9.01	-50.1	-67.9	3.5	3.02e+01	0	39	104	0	60	95198
2026-01-30 03:42:28.18	328.99	8.94	-50.1	-67.9	3.5	3.02e+01	0	39	104	0	60	95907
2026-01-30 03:42:29.19	329.10	8.86	-50.1	-67.9	3.5	3.02e+01	0	39	104	0	60	95477
2026-01-30 03:42:30.20	329.21	8.79	-50.1	-67.9	3.5	3.02e+01	0	39	104	0	60	95296
2026-01-30 03:42:31.21	329.32	8.71	-50.1	-67.9	3.5	3.02e+01	0	39	104	0	60	95542
2026-01-30 03:42:32.22	329.42	8.64	-50.1	-67.9	3.5	3.02e+01	0	39	104	0	60	95311
2026-01-30 03:42:33.23	329.53	8.57	-50.1	-67.9	3.5	3.02e+01	0	39	104	0	60	95655
2026-01-30 03:42:34.24	329.64	8.49	-50.1	-67.9	3.5	3.02e+01	0	39	104	0	60	95115
2026-01-30 03:42:35.26	329.74	8.42	-50.1	-67.9	3.5	3.02e+01	0	39	104	0	60	95268
2026-01-30 03:42:36.27	329.85	8.34	-50.1	-67.9	3.5	3.02e+01	0	39	104	0	60	95697
2026-01-30 03:42:37.28	329.95	8.27	-50.1	-67.9	3.5	3.02e+01	0	39	104	0	60	95820
2026-01-30 03:42:38.29	330.05	8.20	-50.1	-67.9	3.5	3.02e+01	0	39	104	0	60	95467
2026-01-30 03:42:39.30	330.16	8.13	-50.1	-67.9	3.5	3.02e+01	0	39	104	0	60	95078
2026-01-30 03:42:40.31	330.26	8.05	-50.1	-67.9	3.5	3.02e+01	0	39	104	0	60	95448
2026-01-30 03:42:41.32	330.36	7.98	-50.1	-67.9	3.5	3.02e+01	0	39	104	0	60	95400
2026-01-30 03:42:42.33	330.46	7.91	-50.1	-67.9	3.5	3.02e+01	0	39	104	0	60	95053
2026-01-30 03:42:43.34	330.56	7.83	-50.1	-67.9	3.5	3.02e+01	0	39	104	0	60	95820
2026-01-30 03:42:44.35	330.66	7.76	-50.1	-67.9	3.5	3.02e+01	0	39	104	0	60	95830
2026-01-30 03:42:45.36	330.76	7.69	-50.1	-67.9	3.5	3.02e+01	0	39	104	0	60	95213
2026-01-30 03:42:46.37	330.86	7.62	-50.1	-67.9	3.5	3.02e+01	0	39	104	0	60	95534
2026-01-30 03:42:47.38	330.96	7.55	-50.1	-67.9	3.5	3.02e+01	0	39	104	0	60	95471
2026-01-30 03:42:48.39	331.06	7.48	-50.1	-67.9	3.5	3.02e+01	0	39	104	0	60	96068
2026-01-30 03:42:49.40	331.16	7.40	-50.1	-67.9	3.5	3.02e+01	0	39	104	0	60	95277
2026-01-30 03:42:50.41	331.26	7.33	-50.1	-67.9	3.5	3.02e+01	0	39	104	0	60	95233
2026-01-30 03:42:51.42	331.35	7.26	-50.1	-67.9	3.5	3.02e+01	0	39	104	0	60	95135
2026-01-30 03:42:52.43	331.45	7.19	-50.1	-67.9	3.5	3.02e+01	0	39	104	0	60	95439
2026-01-30 03:42:53.44	331.55	7.12	-50.1	-67.9	3.5	3.02e+01	0	39	104	0	60	95384
2026-01-30 03:42:54.45	331.64	7.05	-50.1	-67.9	3.5	3.02e+01	0	39	104	0	60	95514
2026-01-30 03:42:55.46	331.74	6.98	-50.1	-67.9	3.5	3.02e+01	0	39	104	0	60	95850
2026-01-30 03:42:56.47	331.83	6.91	-50.1	-67.9	3.5	3.02e+01	0	39	104	0	60	95460
2026-01-30 03:42:57.48	331.92	6.84	-50.1	-67.9	3.5	3.02e+01	0	39	104	0	60	95016
2026-01-30 03:42:58.49	332.02	6.77	-50.0	-67.9	3.5	3.02e+01	0	39	104	0	60	95240
2026-01-30 03:42:59.50	332.11	6.70	-50.1	-67.9	3.5	3.02e+01	0	39	104	0	60	95577
2026-01-30 03:43:00.51	332.20	6.63	-50.1	-67.9	3.5	3.02e+01	0	39	104	0	60	95120
2026-01-30 03:43:01.52	332.30	6.56	-50.1	-67.9	3.5	3.02e+01	0	39	104	0	60	95200
2026-01-30 03:43:02.53	332.39	6.49	-50.1	-67.9	3.5	3.02e+01	0	39	104	0	60	95343
2026-01-30 03:43:03.54	332.48	6.42	-50.1	-67.9	3.5	3.02e+01	0	39	104	0	60	95896
2026-01-30 03:43:04.55	332.57	6.35	-50.0	-67.9	3.5	3.02e+01	0	39	104	0	60	95465
2026-01-30 03:43:05.56	332.66	6.28	-50.1	-67.9	3.5	3.02e+01	0	39	104	0	60	96009
2026-01-30 03:43:06.57	332.75	6.21	-50.1	-67.9	3.5	3.02e+01	0	39	104	0	60	95458
2026-01-30 03:43:07.58	332.84	6.15	-50.0	-67.8	3.5	3.02e+01	0	39	104	0	60	95009
2026-01-30 03:43:08.59	332.93	6.08	-50.0	-67.9	3.5	3.02e+01	0	39	104	0	60	95610
2026-01-30 03:43:09.60	333.02	6.01	-50.1	-67.9	3.5	3.02e+01	0	39	104	0	60	95495
2026-01-30 03:43:10.61	333.11	5.94	-50.0	-67.9	3.5	3.02e+01	0	39	104	0	60	95232
2026-01-30 03:43:11.62	333.19	5.87	-50.1	-67.9	3.5	3.02e+01	0	39	104	0	60	95128
2026-01-30 03:43:12.63	333.28	5.80	-50.1	-67.9	3.5	3.02e+01	0	39	104	0	60	95449
2026-01-30 03:43:13.64	333.37	5.74	-50.0	-67.9	3.5	3.02e+01	0	39	104	0	60	95416
2026-01-30 03:43:14.65	333.45	5.67	-50.1	-67.9	3.5	3.02e+01	0	39	104	0	60	95312
2026-01-30 03:43:15.66	333.54	5.60	-50.0	-67.9	3.5	3.02e+01	0	39	104	0	60	95342
2026-01-30 03:43:16.67	333.63	5.53	-50.0	-67.9	3.5	3.02e+01	0	39	104	0	60	95696
2026-01-30 03:43:17.68	333.71	5.47	-50.0	-67.9	3.5	3.02e+01	0	39	104	0	60	95488
2026-01-30 03:43:18.69	333.80	5.40	-50.0	-67.9	3.5	3.02e+01	0	39	104	0	60	95297
2026-01-30 03:43:19.70	333.88	5.33	-50.1	-67.9	3.5	3.02e+01	0	39	104	0	60	95147
2026-01-30 03:43:20.71	333.97	5.27	-50.0	-67.9	3.5	3.02e+01	0	39	104	0	60	95602
2026-01-30 03:43:21.72	334.05	5.20	-50.1	-67.9	3.5	3.02e+01	0	39	104	0	60	95343
2026-01-30 03:43:22.73	334.13	5.13	-50.1	-67.8	3.5	3.02e+01	0	39	104	0	60	94738
2026-01-30 03:43:23.74	334.22	5.07	-50.1	-67.9	3.5	3.02e+01	0	39	104	0	60	95189
2026-01-30 03:43:24.75	334.30	5.00	-50.0	-67.9	3.5	3.02e+01	0	39	104	0	60	95573
2026-01-30 03:43:25.76	334.38	4.94	-50.0	-67.9	3.5	3.02e+01	0	39	104	0	60	95502
2026-01-30 03:43:26.77	334.46	4.87	-50.1	-67.9	3.5	3.02e+01	0	39	104	0	60	95301
2026-01-30 03:43:27.78	334.54	4.80	-50.0	-67.9	3.5	3.02e+01	0	39	104	0	60	95412
2026-01-30 03:43:28.79	334.62	4.74	-50.0	-67.9	3.5	3.02e+01	0	39	104	0	60	95487
2026-01-30 03:43:29.80	334.71	4.67	-50.0	-67.8	3.5	3.02e+01	0	39	104	0	60	94915
2026-01-30 03:43:30.81	334.79	4.61	-50.1	-67.9	3.5	3.02e+01	0	39	104	0	60	95545
2026-01-30 03:43:31.83	334.87	4.54	-50.0	-67.8	3.5	3.02e+01	0	39	104	0	60	94843
2026-01-30 03:43:32.84	334.95	4.48	-50.0	-67.9	3.5	3.02e+01	0	39	104	0	60	95254
2026-01-30 03:43:33.85	335.03	4.41	-50.1	-67.9	3.5	3.02e+01	0	39	104	0	60	95480
2026-01-30 03:43:34.86	335.10	4.35	-50.0	-67.9	3.5	3.02e+01	0	39	104	0	60	95501
2026-01-30 03:43:35.86	335.18	4.28	-50.0	-67.9	3.5	3.02e+01	0	39	104	0	60	95469
2026-01-30 03:43:36.87	335.26	4.22	-50.1	-67.9	3.5	3.02e+01	0	39	104	0	60	95467
2026-01-30 03:43:37.88	335.34	4.15	-50.0	-67.8	3.5	3.02e+01	0	39	104	0	60	94921
2026-01-30 03:43:38.90	335.42	4.09	-50.0	-67.9	3.5	3.02e+01	0	39	104	0	60	95229
2026-01-30 03:43:39.90	335.49	4.03	-50.1	-67.9	3.5	3.02e+01	0	39	104	0	60	95100
2026-01-30 03:43:40.92	335.57	3.96	-50.0	-67.8	3.5	3.02e+01	0	39	104	0	60	94932
2026-01-30 03:43:41.93	335.65	3.90	-50.0	-67.9	3.5	3.02e+01	0	39	104	0	60	95020
2026-01-30 03:43:42.94	335.72	3.83	-50.0	-67.9	3.5	3.02e+01	0	39	104	0	60	95616
2026-01-30 03:43:43.95	335.80	3.77	-50.0	-67.9	3.5	3.02e+01	0	39	104	0	60	95041
2026-01-30 03:43:44.96	335.87	3.71	-50.0	-67.9	3.5	3.02e+01	0	39	104	0	60	95186
2026-01-30 03:43:45.97	335.95	3.64	-50.0	-67.9	3.5	3.02e+01	0	39	104	0	60	95407
2026-01-30 03:43:46.98	336.02	3.58	-50.0	-67.9	3.5	3.02e+01	0	39	104	0	60	95368
2026-01-30 03:43:47.98	336.10	3.52	-50.1	-67.9	3.5	3.02e+01	0	39	104	0	60	95154
2026-01-30 03:43:49.00	336.17	3.45	-50.1	-67.9	3.5	3.02e+01	0	39	104	0	60	95978
2026-01-30 03:43:50.01	336.25	3.39	-50.0	-67.9	3.5	3.02e+01	0	39	104	0	60	95360
2026-01-30 03:43:51.02	336.32	3.33	-50.1	-67.9	3.5	3.02e+01	0	39	104	0	60	95414
2026-01-30 03:43:52.03	336.39	3.27	-50.0	-67.9	3.5	3.02e+01	0	39	104	0	60	95507
2026-01-30 03:43:53.04	336.46	3.20	-50.0	-67.9	3.5	3.02e+01	0	39	104	0	60	95151
2026-01-30 03:43:54.05	336.54	3.14	-50.1	-67.9	3.5	3.02e+01	0	39	104	0	60	95529
2026-01-30 03:43:55.06	336.61	3.08	-50.0	-67.9	3.5	3.02e+01	0	39	104	0	60	95211
2026-01-30 03:43:56.07	336.68	3.02	-50.1	-67.9	3.5	3.02e+01	0	39	104	0	60	95683
2026-01-30 03:43:57.08	336.75	2.95	-50.0	-67.9	3.5	3.02e+01	0	39	104	0	60	95303
2026-01-30 03:43:58.09	336.82	2.89	-50.0	-67.9	3.5	3.02e+01	0	39	104	0	60	95176
2026-01-30 03:43:59.10	336.90	2.83	-50.0	-67.9	3.5	3.02e+01	0	39	104	0	60	95237
2026-01-30 03:44:00.11	336.97	2.77	-50.0	-67.9	3.5	3.02e+01	0	39	104	0	60	95166
2026-01-30 03:44:01.12	337.04	2.71	-50.0	-67.9	3.5	3.02e+01	0	39	104	0	60	95645
2026-01-30 03:44:02.13	337.11	2.65	-50.1	-67.9	3.5	3.02e+01	0	39	104	0	60	95107
2026-01-30 03:44:03.14	337.18	2.59	-50.1	-67.9	3.5	3.02e+01	0	39	104	0	60	95270
2026-01-30 03:44:04.15	337.25	2.52	-50.0	-67.9	3.5	3.02e+01	0	39	104	0	60	95292
2026-01-30 03:44:05.16	337.31	2.46	-50.0	-67.9	3.5	3.02e+01	0	39	104	0	60	95298
2026-01-30 03:44:06.17	337.38	2.40	-50.0	-67.9	3.5	3.02e+01	0	39	104	0	60	95451
2026-01-30 03:44:07.18	337.45	2.34	-50.0	-67.9	3.5	3.02e+01	0	39	104	0	60	95241
2026-01-30 03:44:08.19	337.52	2.28	-50.0	-67.9	3.5	3.02e+01	0	39	104	0	60	95481
2026-01-30 03:44:09.20	337.59	2.22	-50.1	-67.9	3.5	3.02e+01	0	39	104	0	60	95522
