passes_logs/2026/01/30/R4.6S_Anadyr/R4.6S_Anadyr__20260130_030100_SUOMI_NPP_rec.log

#Pass ID: 20260130_030100_SUOMI NPP
#Satellite: SUOMI NPP
#Configuration: NPP
#almurnet v.1.7.20251203
#Start time: 2026-01-30 03:01:01

#Version: 2.2.20231116
#Station: R4.6S_Anadyr
#Location: 177.4865 lon 64.73178 lat
#TLE: 1 37849U 11061A   26029.48304708  .00000140  00000+0  87283-4 0  9999
#TLE: 2 37849  98.7824 331.4079 0002024  38.4342 321.6978 14.19531488738761

#Time	Az	El	Level	Level2	SNR	BER	BlckErr	Temp	State	Recorded	gain1	gain2
2026-01-30 03:01:01.72	228.66	0.06	-49.6	-62.1	3.5	1.52e+00	0	36	0	0	60	44879
2026-01-30 03:01:02.73	228.75	0.10	-49.6	-64.9	3.6	1.51e+00	0	37	104	0	60	63253
2026-01-30 03:01:03.74	228.83	0.15	-49.6	-64.9	3.6	1.51e+00	0	37	104	0	60	63353
2026-01-30 03:01:04.75	228.92	0.20	-49.6	-64.9	3.6	1.51e+00	0	37	104	0	60	63254
2026-01-30 03:01:05.76	229.00	0.24	-49.6	-64.9	3.6	1.51e+00	0	37	104	0	60	63220
2026-01-30 03:01:06.77	229.09	0.29	-49.6	-64.8	3.6	1.51e+00	0	38	104	0	60	62785
2026-01-30 03:01:07.78	229.17	0.34	-49.6	-64.8	3.6	1.51e+00	0	38	104	0	60	62853
2026-01-30 03:01:08.79	229.26	0.38	-49.6	-64.8	3.6	1.51e+00	0	38	104	0	60	63030
2026-01-30 03:01:09.80	229.34	0.43	-49.6	-64.8	3.6	1.51e+00	0	37	104	0	60	63130
2026-01-30 03:01:10.81	229.43	0.48	-49.6	-64.8	3.6	1.51e+00	0	38	104	0	60	62989
2026-01-30 03:01:11.82	229.52	0.52	-49.6	-64.8	3.6	1.51e+00	0	38	104	0	60	62801
2026-01-30 03:01:12.83	229.60	0.57	-49.6	-64.9	3.6	1.51e+00	0	38	104	0	60	63200
2026-01-30 03:01:13.84	229.69	0.62	-49.6	-64.8	3.6	1.51e+00	0	38	104	0	60	62853
2026-01-30 03:01:14.85	229.78	0.66	-49.6	-64.8	3.6	1.51e+00	0	38	104	0	60	63021
2026-01-30 03:01:15.86	229.87	0.71	-49.6	-64.9	3.6	1.51e+00	0	38	104	0	60	63251
2026-01-30 03:01:16.87	229.95	0.76	-49.6	-64.8	3.6	1.51e+00	0	38	104	0	60	63127
2026-01-30 03:01:17.88	230.04	0.80	-49.6	-64.8	3.6	1.51e+00	0	38	104	0	60	63013
2026-01-30 03:01:18.89	230.13	0.85	-49.6	-64.8	3.6	1.51e+00	0	38	104	0	60	63140
2026-01-30 03:01:19.90	230.22	0.90	-49.6	-64.8	3.6	1.51e+00	0	38	104	0	60	62950
2026-01-30 03:01:20.92	230.31	0.94	-49.6	-64.8	3.6	1.51e+00	0	38	104	0	60	63032
2026-01-30 03:01:21.92	230.40	0.99	-49.6	-64.9	3.6	1.51e+00	0	38	104	0	60	63287
2026-01-30 03:01:22.93	230.48	1.04	-49.6	-64.8	3.6	1.51e+00	0	38	104	0	60	63098
2026-01-30 03:01:23.94	230.57	1.08	-49.6	-64.9	3.6	1.51e+00	0	38	104	0	60	63386
2026-01-30 03:01:24.96	230.66	1.13	-49.6	-64.9	3.6	1.51e+00	0	38	104	0	60	63224
2026-01-30 03:01:25.97	230.75	1.18	-49.6	-64.8	3.6	1.51e+00	0	38	104	0	60	63096
2026-01-30 03:01:26.98	230.85	1.23	-49.6	-64.9	3.6	1.51e+00	0	38	104	0	60	63605
2026-01-30 03:01:27.99	230.94	1.27	-49.6	-64.8	3.6	1.51e+00	0	38	104	0	60	62711
2026-01-30 03:01:29.00	231.03	1.32	-49.6	-64.8	3.6	1.51e+00	0	38	104	0	60	63148
2026-01-30 03:01:30.01	231.12	1.37	-49.6	-64.8	3.6	1.51e+00	0	38	104	0	60	63171
2026-01-30 03:01:31.02	231.21	1.41	-49.6	-64.8	3.6	1.51e+00	0	38	104	0	60	62957
2026-01-30 03:01:32.03	231.30	1.46	-49.6	-64.8	3.6	1.51e+00	0	38	104	0	60	62733
2026-01-30 03:01:33.04	231.39	1.51	-49.6	-64.8	3.6	1.51e+00	0	38	104	0	60	63000
2026-01-30 03:01:34.05	231.49	1.55	-49.6	-64.9	3.6	1.51e+00	0	38	104	0	60	63294
2026-01-30 03:01:35.06	231.58	1.60	-49.6	-64.8	3.6	1.51e+00	0	38	104	0	60	62858
2026-01-30 03:01:36.07	231.67	1.65	-49.6	-64.9	3.6	1.51e+00	0	38	104	0	60	63372
2026-01-30 03:01:37.08	231.76	1.70	-49.6	-64.9	3.6	1.51e+00	0	38	104	0	60	63480
2026-01-30 03:01:38.09	231.86	1.74	-49.6	-64.9	3.6	1.51e+00	0	38	104	0	60	63304
2026-01-30 03:01:39.10	231.95	1.79	-49.6	-64.9	3.6	1.51e+00	0	38	104	0	60	63250
2026-01-30 03:01:40.11	232.04	1.84	-49.6	-64.8	3.6	1.51e+00	0	38	104	0	60	63094
2026-01-30 03:01:41.12	232.14	1.88	-49.6	-64.9	3.6	1.51e+00	0	38	104	0	60	63227
2026-01-30 03:01:42.13	232.23	1.93	-49.6	-64.8	3.6	1.51e+00	0	38	104	0	60	63050
2026-01-30 03:01:43.14	232.33	1.98	-49.6	-64.8	3.6	1.51e+00	0	38	104	0	60	63032
2026-01-30 03:01:44.15	232.42	2.03	-49.6	-64.9	3.6	1.51e+00	0	38	104	0	60	63235
2026-01-30 03:01:45.16	232.52	2.07	-49.6	-64.9	3.6	1.51e+00	0	38	104	0	60	63244
2026-01-30 03:01:46.17	232.61	2.12	-49.6	-64.9	3.6	1.51e+00	0	38	104	0	60	63369
2026-01-30 03:01:47.18	232.71	2.17	-49.6	-64.8	3.6	1.51e+00	0	38	104	0	60	63155
2026-01-30 03:01:48.19	232.81	2.22	-49.6	-64.8	3.6	1.51e+00	0	38	104	0	60	63151
2026-01-30 03:01:49.20	232.90	2.26	-49.6	-64.9	3.6	1.51e+00	0	38	104	0	60	63406
2026-01-30 03:01:50.21	233.00	2.31	-49.6	-64.8	3.6	1.51e+00	0	38	104	0	60	62848
2026-01-30 03:01:51.22	233.10	2.36	-49.6	-64.9	3.6	1.51e+00	0	38	104	0	60	63259
2026-01-30 03:01:52.23	233.20	2.40	-49.6	-64.9	3.6	1.51e+00	0	38	104	0	60	63434
2026-01-30 03:01:53.24	233.29	2.45	-49.6	-64.9	3.6	1.51e+00	0	38	104	0	60	63279
2026-01-30 03:01:54.25	233.39	2.50	-49.6	-64.8	3.6	1.51e+00	0	38	104	0	60	63140
2026-01-30 03:01:55.26	233.49	2.55	-49.6	-64.9	3.6	1.51e+00	0	38	104	0	60	63201
2026-01-30 03:01:56.27	233.59	2.59	-49.6	-64.8	3.6	1.51e+00	0	38	104	0	60	63083
2026-01-30 03:01:57.28	233.69	2.64	-49.6	-64.8	3.6	1.51e+00	0	38	104	0	60	63062
2026-01-30 03:01:58.29	233.79	2.69	-49.6	-64.8	3.6	1.51e+00	0	38	104	0	60	63116
2026-01-30 03:01:59.30	233.89	2.74	-49.6	-64.9	3.6	1.51e+00	0	38	104	0	60	63227
2026-01-30 03:02:00.31	233.99	2.78	-49.6	-64.8	3.6	1.51e+00	0	38	104	0	60	62816
2026-01-30 03:02:01.32	234.09	2.83	-49.6	-64.8	3.6	1.51e+00	0	38	104	0	60	63131
2026-01-30 03:02:02.33	234.19	2.88	-49.6	-64.9	3.6	1.51e+00	0	38	104	0	60	63392
2026-01-30 03:02:03.34	234.29	2.93	-49.6	-64.9	3.6	1.51e+00	0	38	104	0	60	63419
2026-01-30 03:02:04.35	234.39	2.97	-49.6	-64.9	3.6	1.51e+00	0	38	104	0	60	63262
2026-01-30 03:02:05.36	234.49	3.02	-49.6	-64.8	3.6	1.51e+00	0	38	104	0	60	63007
2026-01-30 03:02:06.37	234.59	3.07	-49.6	-64.8	3.6	1.51e+00	0	38	104	0	60	63139
2026-01-30 03:02:07.38	234.69	3.12	-49.6	-64.9	3.6	1.51e+00	0	38	104	0	60	63367
2026-01-30 03:02:08.39	234.80	3.16	-49.6	-64.8	3.6	1.51e+00	0	38	104	0	60	63152
2026-01-30 03:02:09.40	234.90	3.21	-49.6	-64.8	3.6	1.51e+00	0	38	104	0	60	63165
2026-01-30 03:02:10.41	235.00	3.26	-49.6	-64.8	3.6	1.51e+00	0	38	104	0	60	63133
2026-01-30 03:02:11.42	235.11	3.31	-49.6	-64.9	3.6	1.51e+00	0	38	104	0	60	63246
2026-01-30 03:02:12.43	235.21	3.35	-49.6	-64.8	3.6	1.51e+00	0	38	104	0	60	62925
2026-01-30 03:02:13.44	235.31	3.40	-49.6	-64.8	3.6	1.51e+00	0	38	104	0	60	63110
2026-01-30 03:02:14.45	235.42	3.45	-49.6	-64.9	3.6	1.51e+00	0	38	104	0	60	63565
2026-01-30 03:02:15.46	235.52	3.50	-49.6	-64.8	3.6	1.51e+00	0	38	104	0	60	63132
2026-01-30 03:02:16.47	235.63	3.55	-49.6	-64.9	3.6	1.51e+00	0	38	104	0	60	63180
2026-01-30 03:02:17.48	235.73	3.59	-49.6	-64.8	3.6	1.51e+00	0	38	104	0	60	63034
2026-01-30 03:02:18.49	235.84	3.64	-49.6	-64.8	3.5	1.51e+00	0	38	104	0	60	63148
2026-01-30 03:02:19.50	235.94	3.69	-49.6	-64.8	3.6	1.51e+00	0	38	104	0	60	63122
2026-01-30 03:02:20.51	236.05	3.74	-49.6	-64.8	3.6	1.51e+00	0	38	104	0	60	62836
2026-01-30 03:02:21.52	236.16	3.78	-49.6	-64.8	3.6	1.51e+00	0	38	104	0	60	63062
2026-01-30 03:02:22.54	236.26	3.83	-49.6	-64.8	3.6	1.51e+00	0	38	104	0	60	63152
2026-01-30 03:02:23.55	236.37	3.88	-49.6	-64.9	3.6	1.51e+00	0	38	104	0	60	63238
2026-01-30 03:02:24.56	236.48	3.93	-49.6	-64.8	3.6	1.51e+00	0	38	104	0	60	63021
2026-01-30 03:02:25.57	236.59	3.97	-49.6	-64.9	3.6	1.51e+00	0	38	104	0	60	63361
2026-01-30 03:02:26.58	236.70	4.02	-49.6	-64.9	3.6	1.51e+00	0	38	104	0	60	63340
2026-01-30 03:02:27.59	236.80	4.07	-49.6	-64.9	3.6	1.51e+00	0	38	104	0	60	63231
2026-01-30 03:02:28.60	236.91	4.12	-49.6	-64.8	3.6	1.51e+00	0	38	104	0	60	63019
2026-01-30 03:02:29.60	237.02	4.16	-49.6	-64.8	3.6	1.51e+00	0	38	104	0	60	63063
2026-01-30 03:02:30.61	237.13	4.21	-49.6	-64.8	3.6	1.51e+00	0	38	104	0	60	63116
2026-01-30 03:02:31.62	237.24	4.26	-49.6	-64.9	3.6	1.51e+00	0	38	104	0	60	63211
2026-01-30 03:02:32.63	237.35	4.31	-49.6	-64.9	3.6	1.51e+00	0	38	104	0	60	63459
2026-01-30 03:02:33.64	237.46	4.36	-49.6	-64.8	3.6	1.51e+00	0	38	104	0	60	62900
2026-01-30 03:02:34.65	237.57	4.40	-49.6	-64.9	3.6	1.51e+00	0	38	104	0	60	63213
2026-01-30 03:02:35.66	237.68	4.45	-49.6	-64.8	3.6	1.51e+00	0	39	104	0	60	63045
2026-01-30 03:02:36.67	237.80	4.50	-49.6	-64.9	3.5	1.51e+00	0	38	104	0	60	63303
2026-01-30 03:02:37.68	237.91	4.55	-49.6	-64.8	3.6	1.51e+00	0	38	104	0	60	63168
2026-01-30 03:02:38.69	238.02	4.59	-49.6	-64.8	3.6	1.51e+00	0	38	104	0	60	63130
2026-01-30 03:02:39.70	238.13	4.64	-49.6	-64.9	3.6	1.51e+00	0	39	104	0	60	63223
2026-01-30 03:02:40.71	238.25	4.69	-49.6	-64.8	3.6	1.51e+00	0	38	104	0	60	63063
2026-01-30 03:02:41.72	238.36	4.74	-49.6	-64.8	3.6	1.51e+00	0	38	104	0	60	63010
2026-01-30 03:02:42.73	238.47	4.78	-49.6	-64.8	3.6	1.51e+00	0	38	104	0	60	62946
2026-01-30 03:02:43.74	238.59	4.83	-49.6	-64.8	3.6	1.51e+00	0	38	104	0	60	63038
2026-01-30 03:02:44.75	238.70	4.88	-49.6	-64.8	3.6	1.51e+00	0	38	104	0	60	63011
2026-01-30 03:02:45.76	238.82	4.93	-49.6	-64.8	3.6	1.51e+00	0	38	104	0	60	62891
2026-01-30 03:02:46.77	238.93	4.97	-49.6	-64.9	3.6	1.51e+00	0	38	104	0	60	63192
2026-01-30 03:02:47.78	239.05	5.02	-49.6	-64.9	3.6	1.51e+00	0	38	104	0	60	63266
2026-01-30 03:02:48.79	239.16	5.07	-49.6	-64.8	3.6	1.51e+00	0	38	104	0	60	63149
2026-01-30 03:02:49.80	239.28	5.12	-49.6	-64.8	3.6	1.51e+00	0	38	104	0	60	63170
2026-01-30 03:02:50.81	239.40	5.16	-49.6	-64.8	3.6	1.51e+00	0	38	104	0	60	63059
2026-01-30 03:02:51.82	239.51	5.21	-49.6	-64.8	3.6	1.51e+00	0	38	104	0	60	62975
2026-01-30 03:02:52.83	239.63	5.26	-49.6	-64.8	3.6	1.51e+00	0	38	104	0	60	62858
2026-01-30 03:02:53.84	239.75	5.31	-49.6	-64.9	3.6	1.51e+00	0	38	104	0	60	63365
2026-01-30 03:02:54.85	239.87	5.35	-49.6	-64.8	3.6	1.51e+00	0	38	104	0	60	63002
2026-01-30 03:02:55.86	239.99	5.40	-49.6	-64.9	3.6	1.51e+00	0	38	104	0	60	63239
2026-01-30 03:02:56.87	240.11	5.45	-49.6	-64.8	3.6	1.51e+00	0	38	104	0	60	63114
2026-01-30 03:02:57.88	240.22	5.50	-49.6	-64.8	3.6	1.51e+00	0	39	104	0	60	63104
2026-01-30 03:02:58.89	240.34	5.54	-49.6	-64.8	3.6	1.51e+00	0	38	104	0	60	63000
2026-01-30 03:02:59.90	240.46	5.59	-49.6	-64.8	3.6	1.51e+00	0	38	104	0	60	63137
2026-01-30 03:03:00.92	240.59	5.64	-49.6	-64.8	3.6	1.51e+00	0	38	104	0	60	62908
2026-01-30 03:03:01.93	240.71	5.69	-49.6	-64.8	3.6	1.51e+00	0	38	104	0	60	63152
2026-01-30 03:03:02.93	240.83	5.73	-49.6	-64.8	3.6	1.51e+00	0	38	104	0	60	62970
2026-01-30 03:03:03.94	240.95	5.78	-49.6	-64.8	3.6	1.51e+00	0	38	104	0	60	63108
2026-01-30 03:03:04.95	241.07	5.83	-49.6	-64.8	3.6	1.51e+00	0	38	104	0	60	63073
2026-01-30 03:03:05.96	241.19	5.88	-49.6	-64.9	3.5	1.51e+00	0	38	104	0	60	63328
2026-01-30 03:03:06.97	241.32	5.92	-49.6	-64.9	3.6	1.51e+00	0	38	104	0	60	63468
2026-01-30 03:03:07.98	241.44	5.97	-49.6	-64.9	3.6	1.51e+00	0	39	104	0	60	63472
2026-01-30 03:03:09.00	241.56	6.02	-49.6	-64.8	3.6	1.51e+00	0	38	104	0	60	62924
2026-01-30 03:03:10.00	241.69	6.06	-49.6	-64.8	3.6	1.51e+00	0	39	104	0	60	63110
2026-01-30 03:03:11.02	241.81	6.11	-49.6	-64.8	3.6	1.51e+00	0	38	104	0	60	63006
2026-01-30 03:03:12.03	241.94	6.16	-49.6	-64.8	3.6	1.51e+00	0	39	104	0	60	62991
2026-01-30 03:03:13.04	242.06	6.21	-49.6	-64.8	3.6	1.51e+00	0	38	104	0	60	62990
2026-01-30 03:03:14.05	242.19	6.25	-49.6	-64.8	3.6	1.51e+00	0	38	104	0	60	63176
2026-01-30 03:03:15.06	242.31	6.30	-49.6	-64.8	3.6	1.51e+00	0	38	104	0	60	62843
2026-01-30 03:03:16.07	242.44	6.35	-49.6	-64.8	3.6	1.51e+00	0	38	104	0	60	62616
2026-01-30 03:03:17.08	242.56	6.39	-49.6	-64.8	3.6	1.51e+00	0	39	104	0	60	63086
2026-01-30 03:03:18.09	242.69	6.44	-49.6	-64.8	3.6	1.51e+00	0	38	104	0	60	62899
2026-01-30 03:03:19.10	242.82	6.49	-49.6	-64.8	3.6	1.51e+00	0	38	104	0	60	62535
2026-01-30 03:03:20.11	242.95	6.54	-49.6	-64.8	3.6	1.51e+00	0	38	104	0	60	62846
2026-01-30 03:03:21.12	243.07	6.58	-49.6	-64.8	3.6	1.51e+00	0	38	104	0	60	62746
2026-01-30 03:03:22.13	243.20	6.63	-49.6	-64.9	3.6	1.51e+00	0	39	104	0	60	63184
2026-01-30 03:03:23.14	243.33	6.68	-49.6	-64.8	3.6	1.51e+00	0	38	104	0	60	62991
2026-01-30 03:03:24.15	243.46	6.72	-49.6	-64.8	3.6	1.51e+00	0	38	104	0	60	62995
2026-01-30 03:03:25.16	243.59	6.77	-49.6	-64.8	3.6	1.51e+00	0	39	104	0	60	62857
2026-01-30 03:03:26.17	243.72	6.82	-49.6	-64.9	3.6	1.51e+00	0	38	104	0	60	63191
2026-01-30 03:03:27.18	243.85	6.86	-49.6	-64.8	3.6	1.51e+00	0	39	104	0	60	62970
2026-01-30 03:03:28.19	243.98	6.91	-49.6	-64.9	3.6	1.51e+00	0	38	104	0	60	63217
2026-01-30 03:03:29.20	244.11	6.96	-49.6	-64.9	3.6	1.51e+00	0	39	104	0	60	63288
2026-01-30 03:03:30.21	244.25	7.00	-49.6	-64.8	3.6	1.51e+00	0	39	104	0	60	62841
2026-01-30 03:03:31.22	244.38	7.05	-49.6	-64.9	3.6	1.51e+00	0	39	104	0	60	63274
2026-01-30 03:03:32.23	244.51	7.10	-49.6	-64.8	3.6	1.51e+00	0	39	104	0	60	62780
2026-01-30 03:03:33.24	244.64	7.14	-49.6	-64.8	3.6	1.51e+00	0	39	104	0	60	62762
2026-01-30 03:03:34.25	244.78	7.19	-49.6	-64.8	3.6	1.51e+00	0	39	104	0	60	63061
2026-01-30 03:03:35.26	244.91	7.23	-49.6	-64.9	3.6	1.51e+00	0	39	104	0	60	63317
2026-01-30 03:03:36.27	245.04	7.28	-49.6	-64.8	3.6	1.51e+00	0	39	104	0	60	63075
2026-01-30 03:03:37.28	245.18	7.33	-49.6	-64.8	3.6	1.51e+00	0	39	104	0	60	62968
2026-01-30 03:03:38.29	245.31	7.37	-49.6	-64.8	3.6	1.51e+00	0	39	104	0	60	63134
2026-01-30 03:03:39.30	245.45	7.42	-49.6	-64.8	3.6	1.51e+00	0	39	104	0	60	63151
2026-01-30 03:03:40.31	245.59	7.46	-49.6	-64.8	3.6	1.51e+00	0	39	104	0	60	63110
2026-01-30 03:03:41.32	245.72	7.51	-49.6	-64.9	3.6	1.51e+00	0	39	104	0	60	63289
2026-01-30 03:03:42.33	245.86	7.56	-49.6	-64.9	3.6	1.51e+00	0	39	104	0	60	63354
2026-01-30 03:03:43.34	246.00	7.60	-49.6	-64.8	3.6	1.51e+00	0	39	104	0	60	62801
2026-01-30 03:03:44.35	246.13	7.65	-49.6	-64.9	3.6	1.51e+00	0	38	104	0	60	63467
2026-01-30 03:03:45.36	246.27	7.69	-49.6	-64.9	3.6	1.51e+00	0	39	104	0	60	63250
2026-01-30 03:03:46.37	246.41	7.74	-49.6	-64.8	3.6	1.51e+00	0	39	104	0	60	63017
2026-01-30 03:03:47.38	246.55	7.79	-49.6	-64.8	3.6	1.51e+00	0	38	104	0	60	63099
2026-01-30 03:03:48.39	246.69	7.83	-49.6	-64.9	3.6	1.51e+00	0	39	104	0	60	63369
2026-01-30 03:03:49.40	246.83	7.88	-49.6	-64.8	3.6	1.51e+00	0	39	104	0	60	62743
2026-01-30 03:03:50.42	246.97	7.92	-49.6	-64.8	3.6	1.51e+00	0	39	104	0	60	63006
2026-01-30 03:03:51.43	247.11	7.97	-49.6	-64.8	3.6	1.51e+00	0	38	104	0	60	63118
2026-01-30 03:03:52.44	247.25	8.01	-49.6	-64.8	3.6	1.51e+00	0	39	104	0	60	62979
2026-01-30 03:03:53.45	247.39	8.06	-49.6	-64.9	3.6	1.51e+00	0	39	104	0	60	63230
2026-01-30 03:03:54.46	247.53	8.10	-49.6	-64.8	3.6	1.51e+00	0	39	104	0	60	62973
2026-01-30 03:03:55.47	247.67	8.15	-49.6	-64.9	3.6	1.51e+00	0	39	104	0	60	63315
2026-01-30 03:03:56.48	247.82	8.19	-49.6	-64.8	3.6	1.51e+00	0	39	104	0	60	63053
2026-01-30 03:03:57.49	247.96	8.24	-49.6	-64.9	3.6	1.51e+00	0	39	104	0	60	63405
2026-01-30 03:03:58.50	248.10	8.28	-49.6	-64.8	3.6	1.51e+00	0	39	104	0	60	63163
2026-01-30 03:03:59.51	248.25	8.33	-49.6	-64.8	3.6	1.51e+00	0	39	104	0	60	63006
2026-01-30 03:04:00.52	248.39	8.37	-49.6	-64.8	3.6	1.51e+00	0	38	104	0	60	63067
2026-01-30 03:04:01.53	248.54	8.42	-49.6	-64.8	3.6	1.51e+00	0	38	104	0	60	63155
2026-01-30 03:04:02.54	248.68	8.46	-49.6	-64.9	3.6	1.51e+00	0	39	104	0	60	63267
2026-01-30 03:04:03.55	248.83	8.51	-49.6	-64.8	3.6	1.51e+00	0	39	104	0	60	63042
2026-01-30 03:04:04.56	248.97	8.55	-49.6	-64.8	3.6	1.51e+00	0	39	104	0	60	63100
2026-01-30 03:04:05.57	249.12	8.60	-49.6	-64.8	3.6	1.51e+00	0	39	104	0	60	62833
2026-01-30 03:04:06.58	249.26	8.64	-49.6	-64.9	3.6	1.51e+00	0	39	104	0	60	63430
2026-01-30 03:04:07.59	249.41	8.68	-49.6	-64.8	3.6	1.51e+00	0	39	104	0	60	62626
2026-01-30 03:04:08.60	249.56	8.73	-49.6	-64.8	3.6	1.51e+00	0	39	104	0	60	62972
2026-01-30 03:04:09.61	249.71	8.77	-49.6	-64.8	3.6	1.51e+00	0	38	104	0	60	63101
2026-01-30 03:04:10.62	249.86	8.82	-49.6	-64.9	3.6	1.51e+00	0	39	104	0	60	63272
2026-01-30 03:04:11.63	250.01	8.86	-49.6	-64.9	3.6	1.51e+00	0	39	104	0	60	63349
2026-01-30 03:04:12.64	250.15	8.90	-49.6	-64.9	3.6	1.51e+00	0	39	104	0	60	63273
2026-01-30 03:04:13.65	250.30	8.95	-49.6	-64.9	3.6	1.51e+00	0	39	104	0	60	63278
2026-01-30 03:04:14.66	250.45	8.99	-49.6	-64.8	3.6	1.51e+00	0	39	104	0	60	63032
2026-01-30 03:04:15.67	250.61	9.03	-49.6	-64.8	3.6	1.51e+00	0	39	104	0	60	62847
2026-01-30 03:04:16.68	250.76	9.08	-49.6	-64.9	3.6	1.51e+00	0	39	104	0	60	63231
2026-01-30 03:04:17.69	250.91	9.12	-49.6	-64.8	3.6	1.51e+00	0	39	104	0	60	62867
2026-01-30 03:04:18.70	251.06	9.16	-49.6	-64.8	3.6	1.51e+00	0	39	104	0	60	63002
2026-01-30 03:04:19.71	251.21	9.21	-49.6	-64.9	3.6	1.51e+00	0	39	104	0	60	63218
2026-01-30 03:04:20.72	251.36	9.25	-49.6	-64.8	3.6	1.51e+00	0	39	104	0	60	63005
2026-01-30 03:04:21.73	251.52	9.29	-49.6	-64.8	3.6	1.51e+00	0	39	104	0	60	63095
2026-01-30 03:04:22.74	251.67	9.34	-49.6	-64.8	3.6	1.51e+00	0	39	104	0	60	63125
2026-01-30 03:04:23.75	251.83	9.38	-49.6	-64.8	3.6	1.51e+00	0	39	104	0	60	62892
2026-01-30 03:04:24.76	251.98	9.42	-49.6	-64.9	3.6	1.51e+00	0	39	104	0	60	63363
2026-01-30 03:04:25.77	252.14	9.46	-49.6	-64.8	3.6	1.51e+00	0	39	104	0	60	63066
2026-01-30 03:04:26.78	252.29	9.51	-49.6	-64.8	3.6	1.51e+00	0	39	104	0	60	62747
2026-01-30 03:04:27.79	252.45	9.55	-49.6	-64.8	3.6	1.51e+00	0	39	104	0	60	63031
2026-01-30 03:04:28.80	252.60	9.59	-49.6	-64.9	3.6	1.51e+00	0	39	104	0	60	63237
2026-01-30 03:04:29.82	252.76	9.63	-49.6	-64.8	3.6	1.51e+00	0	39	104	0	60	63120
2026-01-30 03:04:30.83	252.92	9.68	-49.6	-64.9	3.6	1.51e+00	0	39	104	0	60	63193
2026-01-30 03:04:31.83	253.07	9.72	-49.6	-64.8	3.6	1.51e+00	0	39	104	0	60	63045
2026-01-30 03:04:32.85	253.23	9.76	-49.6	-64.9	3.6	1.51e+00	0	39	104	0	60	63234
2026-01-30 03:04:33.85	253.39	9.80	-49.6	-64.9	3.6	1.51e+00	0	39	104	0	60	63378
2026-01-30 03:04:34.86	253.55	9.84	-49.6	-64.8	3.6	1.51e+00	0	39	104	0	60	63078
2026-01-30 03:04:35.87	253.71	9.88	-49.6	-64.8	3.6	1.51e+00	0	39	104	0	60	63080
2026-01-30 03:04:36.88	253.87	9.92	-49.6	-64.8	3.6	1.51e+00	0	39	104	0	60	63045
2026-01-30 03:04:37.89	254.03	9.96	-49.6	-64.8	3.6	1.51e+00	0	39	104	0	60	63121
2026-01-30 03:04:38.90	254.19	10.01	-49.6	-64.9	3.6	1.51e+00	0	39	104	0	60	63213
2026-01-30 03:04:39.91	254.35	10.05	-49.6	-64.8	3.6	1.51e+00	0	39	104	0	60	62728
2026-01-30 03:04:40.92	254.51	10.09	-49.6	-64.8	3.6	1.51e+00	0	39	104	0	60	63099
2026-01-30 03:04:41.93	254.67	10.13	-49.6	-64.8	3.6	1.51e+00	0	39	104	0	60	63056
2026-01-30 03:04:42.94	254.84	10.17	-49.6	-64.9	3.6	1.51e+00	0	39	104	0	60	63234
2026-01-30 03:04:43.95	255.00	10.21	-49.6	-64.8	3.6	1.51e+00	0	39	104	0	60	63158
2026-01-30 03:04:44.96	255.16	10.25	-49.6	-64.8	3.6	1.51e+00	0	39	104	0	60	62856
2026-01-30 03:04:45.97	255.33	10.29	-49.6	-64.8	3.6	1.51e+00	0	39	104	0	60	63177
2026-01-30 03:04:46.98	255.49	10.33	-49.6	-64.8	3.6	1.51e+00	0	39	104	0	60	63133
2026-01-30 03:04:48.00	255.66	10.37	-49.6	-64.8	3.6	1.51e+00	0	39	104	0	60	63112
2026-01-30 03:04:49.01	255.82	10.41	-49.6	-64.8	3.6	1.51e+00	0	39	104	0	60	62807
2026-01-30 03:04:50.02	255.99	10.45	-49.6	-64.8	3.6	1.51e+00	0	39	104	0	60	63078
2026-01-30 03:04:51.03	256.15	10.49	-49.6	-64.8	3.6	1.51e+00	0	39	104	0	60	63165
2026-01-30 03:04:52.04	256.32	10.53	-49.6	-64.8	3.6	1.51e+00	0	39	104	0	60	62959
2026-01-30 03:04:53.05	256.49	10.56	-49.6	-64.9	3.6	1.51e+00	0	39	104	0	60	63352
2026-01-30 03:04:54.06	256.65	10.60	-49.6	-64.8	3.6	1.51e+00	0	39	104	0	60	63082
2026-01-30 03:04:55.07	256.82	10.64	-49.6	-64.8	3.6	1.51e+00	0	39	104	0	60	63111
2026-01-30 03:04:56.08	256.99	10.68	-49.6	-64.8	3.6	1.51e+00	0	39	104	0	60	62872
2026-01-30 03:04:57.09	257.16	10.72	-49.6	-64.8	3.6	1.51e+00	0	39	104	0	60	63121
2026-01-30 03:04:58.10	257.33	10.76	-49.6	-64.8	3.6	1.51e+00	0	39	104	0	60	63128
2026-01-30 03:04:59.11	257.49	10.79	-49.6	-64.8	3.6	1.51e+00	0	39	104	0	60	62971
2026-01-30 03:05:00.12	257.66	10.83	-49.6	-64.8	3.6	1.51e+00	0	39	104	0	60	62989
2026-01-30 03:05:01.13	257.83	10.87	-49.6	-64.8	3.6	1.51e+00	0	39	104	0	60	62980
2026-01-30 03:05:02.14	258.00	10.91	-49.6	-64.9	3.6	1.51e+00	0	39	104	0	60	63212
2026-01-30 03:05:03.15	258.18	10.95	-49.6	-64.8	3.6	1.51e+00	0	39	104	0	60	63038
2026-01-30 03:05:04.16	258.35	10.98	-49.6	-64.9	3.6	1.51e+00	0	39	104	0	60	63196
2026-01-30 03:05:05.17	258.52	11.02	-49.6	-64.8	3.6	1.51e+00	0	39	104	0	60	62956
2026-01-30 03:05:06.18	258.69	11.06	-49.6	-64.9	3.6	1.51e+00	0	39	104	0	60	63361
2026-01-30 03:05:07.19	258.86	11.09	-49.6	-64.8	3.6	1.51e+00	0	39	104	0	60	63139
2026-01-30 03:05:08.20	259.04	11.13	-49.6	-64.8	3.6	1.51e+00	0	39	104	0	60	63015
2026-01-30 03:05:09.21	259.21	11.17	-49.6	-64.8	3.6	1.51e+00	0	39	104	0	60	63004
2026-01-30 03:05:10.22	259.38	11.20	-49.6	-64.8	3.6	1.51e+00	0	39	104	0	60	62936
2026-01-30 03:05:11.23	259.56	11.24	-49.6	-64.9	3.6	1.51e+00	0	39	104	0	60	63277
2026-01-30 03:05:12.24	259.73	11.27	-49.6	-64.8	3.6	1.51e+00	0	39	104	0	60	63075
2026-01-30 03:05:13.25	259.91	11.31	-49.6	-64.9	3.6	1.51e+00	0	39	104	0	60	63303
2026-01-30 03:05:14.26	260.08	11.34	-49.6	-64.9	3.6	1.51e+00	0	39	104	0	60	63454
2026-01-30 03:05:15.27	260.26	11.38	-49.6	-64.8	3.6	1.51e+00	0	39	104	0	60	63051
2026-01-30 03:05:16.28	260.43	11.41	-49.6	-64.8	3.6	1.51e+00	0	39	104	0	60	63076
2026-01-30 03:05:17.29	260.61	11.45	-49.6	-64.9	3.6	1.51e+00	0	39	104	0	60	63229
2026-01-30 03:05:18.30	260.79	11.48	-49.6	-64.8	3.6	1.51e+00	0	39	104	0	60	63009
2026-01-30 03:05:19.31	260.97	11.52	-49.6	-64.9	3.6	1.51e+00	0	39	104	0	60	63364
2026-01-30 03:05:20.32	261.14	11.55	-49.6	-64.8	3.6	1.51e+00	0	39	104	0	60	62898
2026-01-30 03:05:21.33	261.32	11.59	-49.6	-64.9	3.6	1.51e+00	0	39	104	0	60	63359
2026-01-30 03:05:22.34	261.50	11.62	-49.6	-64.8	3.6	1.51e+00	0	39	104	0	60	62762
2026-01-30 03:05:23.36	261.68	11.65	-49.6	-64.8	3.6	1.51e+00	0	39	104	0	60	63085
2026-01-30 03:05:24.37	261.86	11.69	-49.6	-64.8	3.6	1.51e+00	0	39	104	0	60	62967
2026-01-30 03:05:25.38	262.04	11.72	-49.6	-64.8	3.6	1.51e+00	0	39	104	0	60	62957
2026-01-30 03:05:26.39	262.22	11.75	-49.6	-64.9	3.6	1.51e+00	0	39	104	0	60	63306
2026-01-30 03:05:27.40	262.40	11.79	-49.6	-64.9	3.6	1.51e+00	0	39	104	0	60	63268
2026-01-30 03:05:28.41	262.58	11.82	-49.6	-64.9	3.6	1.51e+00	0	39	104	0	60	63307
2026-01-30 03:05:29.42	262.76	11.85	-49.6	-64.9	3.6	1.51e+00	0	39	104	0	60	63401
2026-01-30 03:05:30.43	262.95	11.88	-49.6	-64.8	3.6	1.51e+00	0	39	104	0	60	63123
2026-01-30 03:05:31.44	263.13	11.92	-49.6	-64.8	3.6	1.51e+00	0	39	104	0	60	63027
2026-01-30 03:05:32.45	263.31	11.95	-49.6	-64.9	3.6	1.51e+00	0	39	104	0	60	63382
2026-01-30 03:05:33.46	263.49	11.98	-49.6	-64.8	3.6	1.51e+00	0	39	104	0	60	63176
2026-01-30 03:05:34.47	263.68	12.01	-49.6	-64.9	3.5	1.51e+00	0	39	104	0	60	63475
2026-01-30 03:05:35.48	263.86	12.04	-49.6	-64.8	3.6	1.51e+00	0	39	104	0	60	62896
2026-01-30 03:05:36.49	264.04	12.07	-49.6	-64.8	3.6	1.51e+00	0	39	104	0	60	63054
2026-01-30 03:05:37.50	264.23	12.10	-49.6	-64.9	3.6	1.51e+00	0	39	104	0	60	63396
2026-01-30 03:05:38.51	264.41	12.13	-49.6	-64.8	3.6	1.51e+00	0	39	104	0	60	63020
2026-01-30 03:05:39.52	264.60	12.16	-49.6	-64.9	3.6	1.51e+00	0	39	104	0	60	63348
2026-01-30 03:05:40.53	264.78	12.19	-49.6	-64.9	3.6	1.51e+00	0	39	104	0	60	63613
2026-01-30 03:05:41.54	264.97	12.22	-49.6	-64.9	3.6	1.51e+00	0	39	104	0	60	63233
2026-01-30 03:05:42.55	265.16	12.25	-49.6	-64.8	3.6	1.51e+00	0	39	104	0	60	63103
2026-01-30 03:05:43.56	265.34	12.28	-49.6	-64.9	3.6	1.51e+00	0	39	104	0	60	63436
2026-01-30 03:05:44.57	265.53	12.31	-49.6	-64.8	3.6	1.51e+00	0	39	104	0	60	62963
2026-01-30 03:05:45.58	265.72	12.34	-49.6	-64.9	3.6	1.51e+00	0	39	104	0	60	63291
2026-01-30 03:05:46.59	265.91	12.37	-49.6	-64.8	3.6	1.51e+00	0	39	104	0	60	62806
2026-01-30 03:05:47.60	266.09	12.40	-49.6	-64.8	3.6	1.51e+00	0	39	104	0	60	62884
2026-01-30 03:05:48.61	266.28	12.42	-49.6	-64.8	3.6	1.51e+00	0	39	104	0	60	62963
2026-01-30 03:05:49.62	266.47	12.45	-49.6	-64.9	3.6	1.51e+00	0	39	104	0	60	63352
2026-01-30 03:05:50.63	266.66	12.48	-49.6	-64.9	3.6	1.51e+00	0	39	104	0	60	63397
2026-01-30 03:05:51.64	266.85	12.51	-49.6	-64.8	3.6	1.51e+00	0	39	104	0	60	63064
2026-01-30 03:05:52.65	267.04	12.53	-49.6	-64.8	3.6	1.51e+00	0	39	104	0	60	63122
2026-01-30 03:05:53.66	267.23	12.56	-49.6	-64.9	3.6	1.51e+00	0	39	104	0	60	63257
2026-01-30 03:05:54.67	267.42	12.59	-49.6	-64.9	3.6	1.51e+00	0	39	104	0	60	63200
2026-01-30 03:05:55.68	267.61	12.61	-49.6	-64.9	3.6	1.51e+00	0	39	104	0	60	63180
2026-01-30 03:05:56.69	267.80	12.64	-49.6	-64.9	3.6	1.51e+00	0	39	104	0	60	63210
2026-01-30 03:05:57.70	267.99	12.66	-49.6	-64.8	3.6	1.51e+00	0	39	104	0	60	62969
2026-01-30 03:05:58.71	268.18	12.69	-49.6	-64.9	3.6	1.51e+00	0	39	104	0	60	63253
2026-01-30 03:05:59.72	268.38	12.72	-49.6	-64.9	3.6	1.51e+00	0	39	104	0	60	63193
2026-01-30 03:06:00.73	268.57	12.74	-49.6	-64.9	3.6	1.51e+00	0	39	104	0	60	63278
2026-01-30 03:06:01.74	268.76	12.77	-49.6	-64.9	3.6	1.51e+00	0	39	104	0	60	63230
2026-01-30 03:06:02.75	268.95	12.79	-49.6	-64.8	3.6	1.51e+00	0	39	104	0	60	63004
2026-01-30 03:06:03.76	269.15	12.81	-49.6	-64.8	3.6	1.51e+00	0	39	104	0	60	63067
2026-01-30 03:06:04.77	269.34	12.84	-49.6	-64.8	3.6	1.51e+00	0	39	104	0	60	63061
2026-01-30 03:06:05.78	269.53	12.86	-49.6	-64.8	3.6	1.51e+00	0	39	104	0	60	62989
2026-01-30 03:06:06.79	269.73	12.88	-49.6	-64.8	3.6	1.51e+00	0	39	104	0	60	62933
2026-01-30 03:06:07.80	269.92	12.91	-49.6	-64.8	3.6	1.51e+00	0	39	104	0	60	63000
2026-01-30 03:06:08.81	270.12	12.93	-49.6	-64.8	3.6	1.51e+00	0	39	104	0	60	62839
2026-01-30 03:06:09.82	270.31	12.95	-49.6	-64.9	3.6	1.51e+00	0	39	104	0	60	63458
2026-01-30 03:06:10.83	270.51	12.97	-49.6	-64.8	3.6	1.51e+00	0	39	104	0	60	62924
2026-01-30 03:06:11.84	270.70	13.00	-49.6	-64.9	3.6	1.51e+00	0	39	104	0	60	63727
2026-01-30 03:06:12.85	270.90	13.02	-49.6	-64.9	3.6	1.51e+00	0	39	104	0	60	63245
2026-01-30 03:06:13.86	271.09	13.04	-49.6	-64.8	3.6	1.51e+00	0	39	104	0	60	62925
2026-01-30 03:06:14.87	271.29	13.06	-49.6	-64.8	3.6	1.51e+00	0	39	104	0	60	63055
2026-01-30 03:06:15.88	271.49	13.08	-49.6	-64.8	3.6	1.51e+00	0	39	104	0	60	63034
2026-01-30 03:06:16.89	271.68	13.10	-49.6	-64.9	3.6	1.51e+00	0	39	104	0	60	63472
2026-01-30 03:06:17.90	271.88	13.12	-49.6	-64.8	3.5	1.51e+00	0	39	104	0	60	62768
2026-01-30 03:06:18.91	272.08	13.14	-49.6	-64.8	3.6	1.51e+00	0	39	104	0	60	63033
2026-01-30 03:06:19.92	272.28	13.16	-49.6	-64.8	3.6	1.51e+00	0	39	104	0	60	62999
2026-01-30 03:06:20.93	272.47	13.18	-49.6	-64.8	3.6	1.51e+00	0	39	104	0	60	63123
2026-01-30 03:06:21.94	272.67	13.20	-49.6	-64.9	3.6	1.51e+00	0	39	104	0	60	63517
2026-01-30 03:06:22.95	272.87	13.22	-49.6	-64.8	3.6	1.51e+00	0	39	104	0	60	62896
2026-01-30 03:06:23.96	273.07	13.24	-49.6	-64.8	3.6	1.51e+00	0	39	104	0	60	63144
2026-01-30 03:06:24.97	273.27	13.25	-49.6	-64.8	3.6	1.51e+00	0	39	104	0	60	62876
2026-01-30 03:06:25.98	273.47	13.27	-49.6	-64.8	3.6	1.51e+00	0	39	104	0	60	63071
2026-01-30 03:06:26.99	273.67	13.29	-49.6	-64.9	3.6	1.51e+00	0	39	104	0	60	63281
2026-01-30 03:06:28.00	273.87	13.31	-49.6	-64.8	3.6	1.51e+00	0	39	104	0	60	62949
2026-01-30 03:06:29.01	274.07	13.32	-49.6	-64.8	3.6	1.51e+00	0	39	104	0	60	63152
2026-01-30 03:06:30.02	274.27	13.34	-49.6	-64.9	3.6	1.51e+00	0	39	104	0	60	63471
2026-01-30 03:06:31.03	274.47	13.36	-49.6	-64.8	3.6	1.51e+00	0	39	104	0	60	63036
2026-01-30 03:06:32.04	274.67	13.37	-49.6	-64.8	3.6	1.51e+00	0	39	104	0	60	63176
2026-01-30 03:06:33.05	274.87	13.39	-49.6	-64.8	3.6	1.51e+00	0	39	104	0	60	63038
2026-01-30 03:06:34.06	275.07	13.40	-49.6	-64.9	3.6	1.51e+00	0	39	104	0	60	63239
2026-01-30 03:06:35.07	275.27	13.42	-49.6	-64.8	3.6	1.51e+00	0	39	104	0	60	62947
2026-01-30 03:06:36.08	275.47	13.43	-49.6	-64.8	3.6	1.51e+00	0	39	104	0	60	62987
2026-01-30 03:06:37.09	275.67	13.45	-49.6	-64.9	3.6	1.51e+00	0	39	104	0	60	63220
2026-01-30 03:06:38.10	275.87	13.46	-49.6	-64.8	3.6	1.51e+00	0	39	104	0	60	63149
2026-01-30 03:06:39.11	276.08	13.48	-49.6	-64.9	3.6	1.51e+00	0	39	104	0	60	63304
2026-01-30 03:06:40.12	276.28	13.49	-49.6	-64.8	3.6	1.51e+00	0	39	104	0	60	62940
2026-01-30 03:06:41.13	276.48	13.50	-49.6	-64.8	3.6	1.51e+00	0	39	104	0	60	63044
2026-01-30 03:06:42.14	276.68	13.51	-49.6	-64.8	3.6	1.51e+00	0	39	104	0	60	63066
2026-01-30 03:06:43.15	276.88	13.53	-49.6	-64.8	3.6	1.51e+00	0	39	104	0	60	62858
2026-01-30 03:06:44.16	277.09	13.54	-49.6	-64.8	3.6	1.51e+00	0	39	104	0	60	62869
2026-01-30 03:06:45.17	277.29	13.55	-49.6	-64.9	3.6	1.51e+00	0	39	104	0	60	63391
2026-01-30 03:06:46.18	277.49	13.56	-49.6	-64.9	3.6	1.51e+00	0	39	104	0	60	63325
2026-01-30 03:06:47.20	277.70	13.57	-49.6	-64.8	3.6	1.51e+00	0	39	104	0	60	62948
2026-01-30 03:06:48.21	277.90	13.58	-49.6	-64.8	3.6	1.51e+00	0	39	104	0	60	63117
2026-01-30 03:06:49.22	278.10	13.60	-49.6	-64.8	3.6	1.51e+00	0	39	104	0	60	62577
2026-01-30 03:06:50.23	278.31	13.61	-49.6	-64.8	3.6	1.51e+00	0	39	104	0	60	63139
2026-01-30 03:06:51.24	278.51	13.62	-49.6	-64.8	3.6	1.51e+00	0	39	104	0	60	63157
2026-01-30 03:06:52.25	278.71	13.62	-49.6	-64.8	3.6	1.51e+00	0	39	104	0	60	62860
2026-01-30 03:06:53.26	278.92	13.63	-49.6	-64.8	3.6	1.51e+00	0	39	104	0	60	62989
2026-01-30 03:06:54.27	279.12	13.64	-49.6	-64.8	3.5	1.51e+00	0	39	104	0	60	63096
2026-01-30 03:06:55.28	279.33	13.65	-49.6	-64.8	3.6	1.51e+00	0	39	104	0	60	62929
2026-01-30 03:06:56.29	279.53	13.66	-49.6	-64.8	3.6	1.51e+00	0	39	104	0	60	63083
2026-01-30 03:06:57.30	279.74	13.67	-49.6	-64.9	3.6	1.51e+00	0	39	104	0	60	63304
2026-01-30 03:06:58.31	279.94	13.68	-49.6	-64.8	3.6	1.51e+00	0	39	104	0	60	63090
2026-01-30 03:06:59.32	280.14	13.68	-49.6	-64.8	3.6	1.51e+00	0	39	104	0	60	62892
2026-01-30 03:07:00.33	280.35	13.69	-49.6	-64.8	3.6	1.51e+00	0	39	104	0	60	63073
2026-01-30 03:07:01.34	280.55	13.70	-49.6	-64.8	3.6	1.51e+00	0	39	104	0	60	63025
2026-01-30 03:07:02.35	280.76	13.70	-49.6	-64.9	3.6	1.51e+00	0	39	104	0	60	63314
2026-01-30 03:07:03.36	280.96	13.71	-49.6	-64.8	3.6	1.51e+00	0	39	104	0	60	63165
2026-01-30 03:07:04.37	281.17	13.71	-49.6	-64.8	3.6	1.51e+00	0	39	104	0	60	62988
2026-01-30 03:07:05.38	281.37	13.72	-49.6	-64.9	3.6	1.51e+00	0	39	104	0	60	63248
2026-01-30 03:07:06.39	281.58	13.72	-49.6	-64.8	3.6	1.51e+00	0	39	104	0	60	63097
2026-01-30 03:07:07.40	281.78	13.73	-49.6	-64.8	3.6	1.51e+00	0	39	104	0	60	62944
2026-01-30 03:07:08.41	281.99	13.73	-49.6	-64.8	3.6	1.51e+00	0	39	104	0	60	63102
2026-01-30 03:07:09.42	282.19	13.74	-49.6	-64.8	3.6	1.51e+00	0	39	104	0	60	63006
2026-01-30 03:07:10.43	282.40	13.74	-49.6	-64.9	3.6	1.51e+00	0	39	104	0	60	63255
2026-01-30 03:07:11.44	282.60	13.74	-49.6	-64.9	3.6	1.51e+00	0	39	104	0	60	63379
2026-01-30 03:07:12.45	282.81	13.75	-49.6	-64.8	3.6	1.51e+00	0	39	104	0	60	62960
2026-01-30 03:07:13.46	283.01	13.75	-49.6	-64.8	3.6	1.51e+00	0	39	104	0	60	63054
2026-01-30 03:07:14.47	283.22	13.75	-49.6	-64.8	3.6	1.51e+00	0	39	104	0	60	62872
2026-01-30 03:07:15.48	283.42	13.75	-49.6	-64.8	3.6	1.51e+00	0	39	104	0	60	63087
2026-01-30 03:07:16.49	283.63	13.75	-49.6	-64.9	3.6	1.51e+00	0	39	104	0	60	63206
2026-01-30 03:07:17.50	283.84	13.76	-49.6	-64.9	3.6	1.51e+00	0	39	104	0	60	63420
2026-01-30 03:07:18.51	284.04	13.76	-49.6	-64.9	3.6	1.51e+00	0	39	104	0	60	63219
2026-01-30 03:07:19.52	284.25	13.76	-49.6	-64.8	3.6	1.51e+00	0	39	104	0	60	63004
2026-01-30 03:07:20.53	284.45	13.76	-49.6	-64.9	3.6	1.51e+00	0	39	104	0	60	63298
2026-01-30 03:07:21.54	284.66	13.76	-49.6	-64.8	3.6	1.51e+00	0	39	104	0	60	62956
2026-01-30 03:07:22.55	284.86	13.76	-49.6	-64.9	3.6	1.51e+00	0	39	104	0	60	63262
2026-01-30 03:07:23.56	285.07	13.76	-49.6	-64.8	3.6	1.51e+00	0	39	104	0	60	62969
2026-01-30 03:07:24.57	285.27	13.75	-49.6	-64.9	3.6	1.51e+00	0	39	104	0	60	63250
2026-01-30 03:07:25.58	285.48	13.75	-49.6	-64.8	3.6	1.51e+00	0	39	104	0	60	62686
2026-01-30 03:07:26.59	285.68	13.75	-49.6	-64.8	3.6	1.51e+00	0	39	104	0	60	63063
2026-01-30 03:07:27.60	285.89	13.75	-49.6	-64.8	3.6	1.51e+00	0	39	104	0	60	63032
2026-01-30 03:07:28.61	286.09	13.75	-49.6	-64.9	3.6	1.51e+00	0	39	104	0	60	63399
2026-01-30 03:07:29.62	286.30	13.74	-49.6	-64.9	3.6	1.51e+00	0	39	104	0	60	63259
2026-01-30 03:07:30.63	286.51	13.74	-49.6	-64.9	3.6	1.51e+00	0	39	104	0	60	63240
2026-01-30 03:07:31.64	286.71	13.74	-49.6	-64.8	3.6	1.51e+00	0	39	104	0	60	63123
2026-01-30 03:07:32.65	286.92	13.73	-49.6	-64.8	3.6	1.51e+00	0	39	104	0	60	62973
2026-01-30 03:07:33.66	287.12	13.73	-49.6	-64.9	3.6	1.51e+00	0	39	104	0	60	63344
2026-01-30 03:07:34.67	287.33	13.72	-49.6	-64.8	3.6	1.51e+00	0	39	104	0	60	62948
2026-01-30 03:07:35.69	287.53	13.72	-49.6	-64.8	3.6	1.51e+00	0	39	104	0	60	63132
2026-01-30 03:07:36.70	287.74	13.71	-49.6	-64.9	3.6	1.51e+00	0	39	104	0	60	63382
2026-01-30 03:07:37.71	287.94	13.71	-49.6	-64.8	3.6	1.51e+00	0	39	104	0	60	62899
2026-01-30 03:07:38.71	288.14	13.70	-49.6	-64.9	3.6	1.51e+00	0	39	104	0	60	63496
2026-01-30 03:07:39.73	288.35	13.70	-49.6	-64.8	3.6	1.51e+00	0	39	104	0	60	63171
2026-01-30 03:07:40.74	288.56	13.69	-49.6	-64.8	3.6	1.51e+00	0	39	104	0	60	63127
2026-01-30 03:07:41.75	288.76	13.68	-49.6	-64.8	3.6	1.51e+00	0	39	104	0	60	62950
2026-01-30 03:07:42.76	288.96	13.68	-49.6	-64.9	3.6	1.51e+00	0	39	104	0	60	63303
2026-01-30 03:07:43.77	289.17	13.67	-49.6	-64.8	3.6	1.51e+00	0	39	104	0	60	63127
2026-01-30 03:07:44.78	289.37	13.66	-49.6	-64.8	3.6	1.51e+00	0	39	104	0	60	63074
2026-01-30 03:07:45.79	289.58	13.65	-49.6	-64.8	3.6	1.51e+00	0	39	104	0	60	63091
2026-01-30 03:07:46.80	289.78	13.64	-49.6	-64.8	3.6	1.51e+00	0	39	104	0	60	63143
2026-01-30 03:07:47.81	289.98	13.64	-49.6	-64.9	3.6	1.51e+00	0	39	104	0	60	63178
2026-01-30 03:07:48.82	290.19	13.63	-49.6	-64.9	3.6	1.51e+00	0	39	104	0	60	63250
2026-01-30 03:07:49.83	290.39	13.62	-49.6	-64.9	3.6	1.51e+00	0	39	104	0	60	63437
2026-01-30 03:07:50.84	290.59	13.61	-49.6	-64.9	3.5	1.51e+00	0	39	104	0	60	63371
2026-01-30 03:07:51.85	290.80	13.60	-49.6	-64.9	3.6	1.51e+00	0	39	104	0	60	63230
2026-01-30 03:07:52.86	291.00	13.59	-49.6	-64.9	3.6	1.51e+00	0	39	104	0	60	63293
2026-01-30 03:07:53.87	291.20	13.58	-49.6	-64.8	3.6	1.51e+00	0	39	104	0	60	63119
2026-01-30 03:07:54.88	291.41	13.56	-49.6	-64.8	3.6	1.51e+00	0	39	104	0	60	62725
2026-01-30 03:07:55.89	291.61	13.55	-49.6	-64.9	3.6	1.51e+00	0	39	104	0	60	63371
2026-01-30 03:07:56.90	291.81	13.54	-49.6	-64.8	3.6	1.51e+00	0	39	104	0	60	63155
2026-01-30 03:07:57.91	292.01	13.53	-49.6	-64.8	3.6	1.51e+00	0	39	104	0	60	63019
2026-01-30 03:07:58.92	292.22	13.52	-49.6	-64.8	3.6	1.51e+00	0	39	104	0	60	62884
2026-01-30 03:07:59.93	292.42	13.50	-49.6	-64.8	3.6	1.51e+00	0	39	104	0	60	62963
2026-01-30 03:08:00.94	292.62	13.49	-49.6	-64.9	3.6	1.51e+00	0	39	104	0	60	63491
2026-01-30 03:08:01.95	292.82	13.48	-49.6	-64.8	3.6	1.51e+00	0	39	104	0	60	62944
2026-01-30 03:08:02.96	293.02	13.46	-49.6	-64.8	3.6	1.51e+00	0	39	104	0	60	63151
2026-01-30 03:08:03.97	293.22	13.45	-49.6	-64.9	3.6	1.51e+00	0	39	104	0	60	63319
2026-01-30 03:08:04.98	293.42	13.44	-49.6	-64.9	3.6	1.51e+00	0	39	104	0	60	63356
2026-01-30 03:08:05.99	293.63	13.42	-49.6	-64.9	3.6	1.51e+00	0	39	104	0	60	63347
2026-01-30 03:08:07.00	293.83	13.41	-49.6	-64.8	3.6	1.51e+00	0	39	104	0	60	63015
2026-01-30 03:08:08.01	294.03	13.39	-49.6	-64.8	3.6	1.51e+00	0	39	104	0	60	62964
2026-01-30 03:08:09.02	294.23	13.38	-49.6	-64.9	3.6	1.51e+00	0	39	104	0	60	63493
2026-01-30 03:08:10.03	294.43	13.36	-49.6	-64.9	3.6	1.51e+00	0	39	104	0	60	63322
2026-01-30 03:08:11.04	294.63	13.34	-49.6	-64.9	3.6	1.51e+00	0	39	104	0	60	63187
2026-01-30 03:08:12.05	294.83	13.33	-49.6	-64.9	3.6	1.51e+00	0	39	104	0	60	63439
2026-01-30 03:08:13.06	295.03	13.31	-49.6	-64.8	3.6	1.51e+00	0	39	104	0	60	63108
2026-01-30 03:08:14.07	295.23	13.29	-49.6	-64.9	3.6	1.51e+00	0	39	104	0	60	63198
2026-01-30 03:08:15.08	295.42	13.28	-49.6	-64.8	3.6	1.51e+00	0	39	104	0	60	63119
2026-01-30 03:08:16.09	295.62	13.26	-49.6	-64.8	3.6	1.51e+00	0	39	104	0	60	63149
2026-01-30 03:08:17.11	295.82	13.24	-49.6	-64.9	3.6	1.51e+00	0	39	104	0	60	63416
2026-01-30 03:08:18.11	296.02	13.22	-49.6	-64.8	3.6	1.51e+00	0	39	104	0	60	63063
2026-01-30 03:08:19.13	296.22	13.20	-49.6	-64.8	3.6	1.51e+00	0	39	104	0	60	62769
2026-01-30 03:08:20.14	296.42	13.18	-49.6	-64.9	3.6	1.51e+00	0	39	104	0	60	63264
2026-01-30 03:08:21.15	296.61	13.17	-49.6	-64.9	3.6	1.51e+00	0	39	104	0	60	63248
2026-01-30 03:08:22.16	296.81	13.15	-49.6	-64.8	3.6	1.51e+00	0	39	104	0	60	62915
2026-01-30 03:08:23.17	297.01	13.13	-49.6	-64.8	3.6	1.51e+00	0	39	104	0	60	62910
2026-01-30 03:08:24.18	297.21	13.11	-49.6	-64.9	3.6	1.51e+00	0	39	104	0	60	63380
2026-01-30 03:08:25.19	297.40	13.09	-49.6	-64.8	3.6	1.51e+00	0	39	104	0	60	63014
2026-01-30 03:08:26.20	297.60	13.07	-49.6	-64.9	3.6	1.51e+00	0	39	104	0	60	63520
2026-01-30 03:08:27.20	297.79	13.04	-49.6	-64.9	3.6	1.51e+00	0	39	104	0	60	63312
2026-01-30 03:08:28.21	297.99	13.02	-49.6	-64.8	3.6	1.51e+00	0	39	104	0	60	62940
2026-01-30 03:08:29.22	298.18	13.00	-49.6	-64.8	3.6	1.51e+00	0	39	104	0	60	63068
2026-01-30 03:08:30.23	298.38	12.98	-49.6	-64.8	3.6	1.51e+00	0	39	104	0	60	63047
2026-01-30 03:08:31.25	298.57	12.96	-49.6	-64.9	3.6	1.51e+00	0	39	104	0	60	63178
2026-01-30 03:08:32.26	298.77	12.94	-49.6	-64.9	3.6	1.51e+00	0	39	104	0	60	63208
2026-01-30 03:08:33.27	298.96	12.91	-49.6	-64.9	3.6	1.51e+00	0	39	104	0	60	63443
2026-01-30 03:08:34.28	299.16	12.89	-49.6	-64.9	3.6	1.51e+00	0	39	104	0	60	63179
2026-01-30 03:08:35.29	299.35	12.87	-49.6	-64.9	3.6	1.51e+00	0	39	104	0	60	63259
2026-01-30 03:08:36.30	299.54	12.84	-49.6	-64.8	3.6	1.51e+00	0	39	104	0	60	63039
2026-01-30 03:08:37.31	299.74	12.82	-49.6	-64.8	3.6	1.51e+00	0	39	104	0	60	63010
2026-01-30 03:08:38.32	299.93	12.80	-49.6	-64.8	3.6	1.51e+00	0	39	104	0	60	62871
2026-01-30 03:08:39.33	300.12	12.77	-49.6	-64.8	3.6	1.51e+00	0	39	104	0	60	62860
2026-01-30 03:08:40.34	300.31	12.75	-49.6	-64.8	3.6	1.51e+00	0	39	104	0	60	62980
2026-01-30 03:08:41.35	300.51	12.72	-49.6	-64.8	3.6	1.51e+00	0	39	104	0	60	63136
2026-01-30 03:08:42.36	300.70	12.70	-49.6	-64.8	3.6	1.51e+00	0	39	104	0	60	63032
2026-01-30 03:08:43.37	300.89	12.67	-49.6	-64.9	3.6	1.51e+00	0	39	104	0	60	63199
2026-01-30 03:08:44.38	301.08	12.65	-49.6	-64.8	3.6	1.51e+00	0	39	104	0	60	63098
2026-01-30 03:08:45.39	301.27	12.62	-49.6	-64.9	3.6	1.51e+00	0	39	104	0	60	63282
2026-01-30 03:08:46.40	301.46	12.60	-49.6	-64.8	3.6	1.51e+00	0	39	104	0	60	63134
2026-01-30 03:08:47.41	301.65	12.57	-49.6	-64.8	3.6	1.51e+00	0	39	104	0	60	62838
2026-01-30 03:08:48.42	301.84	12.54	-49.6	-64.8	3.6	1.51e+00	0	39	104	0	60	63034
2026-01-30 03:08:49.43	302.03	12.52	-49.6	-64.9	3.6	1.51e+00	0	39	104	0	60	63220
2026-01-30 03:08:50.44	302.22	12.49	-49.6	-64.8	3.6	1.51e+00	0	39	104	0	60	62928
2026-01-30 03:08:51.45	302.41	12.46	-49.6	-64.8	3.6	1.51e+00	0	39	104	0	60	63134
2026-01-30 03:08:52.46	302.59	12.43	-49.6	-64.8	3.6	1.51e+00	0	39	104	0	60	62900
2026-01-30 03:08:53.47	302.78	12.41	-49.6	-64.8	3.6	1.51e+00	0	39	104	0	60	62979
2026-01-30 03:08:54.48	302.97	12.38	-49.6	-64.8	3.6	1.51e+00	0	39	104	0	60	63019
2026-01-30 03:08:55.49	303.16	12.35	-49.6	-64.9	3.6	1.51e+00	0	39	104	0	60	63226
2026-01-30 03:08:56.50	303.34	12.32	-49.6	-64.9	3.6	1.51e+00	0	39	104	0	60	63186
2026-01-30 03:08:57.52	303.53	12.29	-49.6	-64.8	3.6	1.51e+00	0	39	104	0	60	63151
2026-01-30 03:08:58.52	303.72	12.26	-49.6	-64.9	3.6	1.51e+00	0	39	104	0	60	63207
2026-01-30 03:08:59.54	303.90	12.23	-49.6	-64.8	3.6	1.51e+00	0	39	104	0	60	63116
2026-01-30 03:09:00.55	304.09	12.20	-49.6	-64.8	3.6	1.51e+00	0	39	104	0	60	62740
2026-01-30 03:09:01.55	304.27	12.18	-49.6	-64.9	3.6	1.51e+00	0	39	104	0	60	63368
2026-01-30 03:09:02.57	304.46	12.15	-49.6	-64.8	3.6	1.51e+00	0	39	104	0	60	63034
2026-01-30 03:09:03.58	304.64	12.12	-49.6	-64.8	3.6	1.51e+00	0	39	104	0	60	62952
2026-01-30 03:09:04.59	304.83	12.08	-49.6	-64.9	3.6	1.51e+00	0	39	104	0	60	63249
2026-01-30 03:09:05.60	305.01	12.05	-49.6	-64.8	3.6	1.51e+00	0	39	104	0	60	62862
2026-01-30 03:09:06.61	305.19	12.02	-49.6	-64.8	3.6	1.51e+00	0	39	104	0	60	63128
2026-01-30 03:09:07.62	305.37	11.99	-49.6	-64.8	3.6	1.51e+00	0	39	104	0	60	63095
2026-01-30 03:09:08.63	305.56	11.96	-49.6	-64.8	3.6	1.51e+00	0	39	104	0	60	63138
2026-01-30 03:09:09.64	305.74	11.93	-49.6	-64.9	3.6	1.51e+00	0	39	104	0	60	63259
2026-01-30 03:09:10.65	305.92	11.90	-49.6	-64.8	3.6	1.51e+00	0	39	104	0	60	63087
2026-01-30 03:09:11.66	306.10	11.87	-49.6	-64.9	3.6	1.51e+00	0	39	104	0	60	63309
2026-01-30 03:09:12.67	306.28	11.83	-49.6	-64.8	3.6	1.51e+00	0	39	104	0	60	63096
2026-01-30 03:09:13.68	306.46	11.80	-49.6	-64.8	3.6	1.51e+00	0	39	104	0	60	63023
2026-01-30 03:09:14.69	306.64	11.77	-49.6	-64.8	3.6	1.51e+00	0	39	104	0	60	63090
2026-01-30 03:09:15.70	306.82	11.74	-49.6	-64.9	3.6	1.51e+00	0	39	104	0	60	63197
2026-01-30 03:09:16.71	307.00	11.70	-49.6	-64.9	3.6	1.51e+00	0	39	104	0	60	63434
2026-01-30 03:09:17.72	307.18	11.67	-49.6	-64.8	3.6	1.51e+00	0	39	104	0	60	62960
2026-01-30 03:09:18.73	307.36	11.64	-49.6	-64.9	3.6	1.51e+00	0	39	104	0	60	63264
2026-01-30 03:09:19.74	307.54	11.60	-49.6	-64.8	3.6	1.51e+00	0	39	104	0	60	62986
2026-01-30 03:09:20.75	307.71	11.57	-49.6	-64.8	3.6	1.51e+00	0	39	104	0	60	63112
2026-01-30 03:09:21.76	307.89	11.54	-49.6	-64.8	3.6	1.51e+00	0	39	104	0	60	62808
2026-01-30 03:09:22.77	308.07	11.50	-49.6	-64.9	3.5	1.51e+00	0	39	104	0	60	63213
2026-01-30 03:09:23.78	308.24	11.47	-49.6	-64.9	3.6	1.51e+00	0	39	104	0	60	63222
2026-01-30 03:09:24.79	308.42	11.43	-49.6	-64.9	3.6	1.51e+00	0	39	104	0	60	63178
2026-01-30 03:09:25.80	308.60	11.40	-49.6	-64.8	3.6	1.51e+00	0	39	104	0	60	62957
2026-01-30 03:09:26.81	308.77	11.36	-49.6	-64.9	3.6	1.51e+00	0	39	104	0	60	63266
2026-01-30 03:09:27.82	308.95	11.33	-49.6	-64.9	3.6	1.51e+00	0	39	104	0	60	63236
2026-01-30 03:09:28.83	309.12	11.29	-49.6	-64.8	3.6	1.51e+00	0	39	104	0	60	63128
2026-01-30 03:09:29.84	309.30	11.26	-49.6	-64.9	3.5	1.51e+00	0	39	104	0	60	63266
2026-01-30 03:09:30.85	309.47	11.22	-49.6	-64.9	3.6	1.51e+00	0	39	104	0	60	63303
2026-01-30 03:09:31.86	309.64	11.19	-49.6	-64.8	3.6	1.51e+00	0	39	104	0	60	63098
2026-01-30 03:09:32.87	309.81	11.15	-49.6	-64.8	3.6	1.51e+00	0	39	104	0	60	63123
2026-01-30 03:09:33.87	309.99	11.11	-49.6	-64.8	3.6	1.51e+00	0	39	104	0	60	63046
2026-01-30 03:09:34.88	310.16	11.08	-49.6	-64.9	3.6	1.51e+00	0	39	104	0	60	63328
2026-01-30 03:09:35.89	310.33	11.04	-49.6	-64.9	3.6	1.51e+00	0	39	104	0	60	63439
2026-01-30 03:09:36.90	310.50	11.00	-49.6	-64.8	3.6	1.51e+00	0	39	104	0	60	62986
2026-01-30 03:09:37.91	310.67	10.97	-49.6	-64.9	3.6	1.51e+00	0	39	104	0	60	63533
2026-01-30 03:09:38.92	310.84	10.93	-49.6	-64.9	3.6	1.51e+00	0	39	104	0	60	63204
2026-01-30 03:09:39.93	311.01	10.89	-49.6	-64.9	3.6	1.51e+00	0	39	104	0	60	63347
2026-01-30 03:09:40.94	311.18	10.86	-49.6	-64.8	3.6	1.51e+00	0	39	104	0	60	62844
2026-01-30 03:09:41.95	311.35	10.82	-49.6	-64.9	3.6	1.51e+00	0	39	104	0	60	63192
2026-01-30 03:09:42.96	311.52	10.78	-49.6	-64.8	3.6	1.51e+00	0	39	104	0	60	63019
2026-01-30 03:09:43.97	311.69	10.74	-49.6	-64.9	3.6	1.51e+00	0	39	104	0	60	63574
2026-01-30 03:09:44.99	311.86	10.70	-49.6	-64.9	3.6	1.51e+00	0	39	104	0	60	63427
2026-01-30 03:09:45.99	312.02	10.67	-49.6	-64.8	3.6	1.51e+00	0	39	104	0	60	62864
2026-01-30 03:09:47.00	312.19	10.63	-49.6	-64.9	3.6	1.51e+00	0	39	104	0	60	63461
2026-01-30 03:09:48.01	312.35	10.59	-49.6	-64.9	3.6	1.51e+00	0	39	104	0	60	63273
2026-01-30 03:09:49.03	312.52	10.55	-49.6	-64.8	3.6	1.51e+00	0	39	104	0	60	63132
2026-01-30 03:09:50.03	312.69	10.51	-49.6	-64.8	3.6	1.51e+00	0	39	104	0	60	63130
2026-01-30 03:09:51.04	312.85	10.47	-49.6	-64.8	3.6	1.51e+00	0	39	104	0	60	63114
2026-01-30 03:09:52.06	313.02	10.43	-49.6	-64.9	3.6	1.51e+00	0	39	104	0	60	63215
2026-01-30 03:09:53.07	313.18	10.40	-49.6	-64.8	3.6	1.51e+00	0	39	104	0	60	63098
2026-01-30 03:09:54.08	313.35	10.36	-49.6	-64.8	3.6	1.51e+00	0	39	104	0	60	63049
2026-01-30 03:09:55.09	313.51	10.32	-49.6	-64.8	3.6	1.51e+00	0	39	104	0	60	63170
2026-01-30 03:09:56.10	313.67	10.28	-49.6	-64.8	3.6	1.51e+00	0	39	104	0	60	62869
2026-01-30 03:09:57.11	313.83	10.24	-49.6	-64.8	3.6	1.51e+00	0	39	104	0	60	62928
2026-01-30 03:09:58.12	314.00	10.20	-49.6	-64.8	3.6	1.51e+00	0	39	104	0	60	63071
2026-01-30 03:09:59.13	314.16	10.16	-49.6	-64.9	3.6	1.51e+00	0	39	104	0	60	63343
2026-01-30 03:10:00.13	314.32	10.12	-49.6	-64.9	3.6	1.51e+00	0	39	104	0	60	63179
2026-01-30 03:10:01.12	314.48	10.08	-49.6	-64.8	3.6	1.51e+00	0	39	104	0	60	62957
2026-01-30 03:10:02.13	314.64	10.04	-49.6	-64.8	3.6	1.51e+00	0	39	104	0	60	63175
2026-01-30 03:10:03.14	314.80	10.00	-49.6	-64.8	3.6	1.51e+00	0	39	104	0	60	63108
2026-01-30 03:10:04.15	314.96	9.96	-49.6	-64.9	3.6	1.51e+00	0	39	104	0	60	63387
2026-01-30 03:10:05.16	315.12	9.92	-49.6	-64.9	3.6	1.51e+00	0	39	104	0	60	63218
2026-01-30 03:10:06.17	315.27	9.87	-49.6	-64.9	3.6	1.51e+00	0	39	104	0	60	63474
2026-01-30 03:10:07.18	315.43	9.83	-49.6	-64.8	3.6	1.51e+00	0	39	104	0	60	63151
2026-01-30 03:10:08.19	315.59	9.79	-49.6	-64.8	3.6	1.51e+00	0	39	104	0	60	63019
2026-01-30 03:10:09.20	315.75	9.75	-49.6	-64.8	3.6	1.51e+00	0	39	104	0	60	62882
2026-01-30 03:10:10.21	315.90	9.71	-49.6	-64.8	3.6	1.51e+00	0	39	104	0	60	63117
2026-01-30 03:10:11.22	316.06	9.67	-49.6	-64.9	3.6	1.51e+00	0	39	104	0	60	63320
2026-01-30 03:10:12.23	316.22	9.63	-49.6	-64.9	3.6	1.51e+00	0	39	104	0	60	63268
2026-01-30 03:10:13.24	316.37	9.58	-49.6	-64.9	3.6	1.51e+00	0	39	104	0	60	63433
2026-01-30 03:10:14.25	316.53	9.54	-49.6	-64.9	3.6	1.51e+00	0	39	104	0	60	63399
2026-01-30 03:10:15.26	316.68	9.50	-49.6	-64.9	3.6	1.51e+00	0	39	104	0	60	63268
2026-01-30 03:10:16.27	316.84	9.46	-49.6	-64.9	3.5	1.51e+00	0	39	104	0	60	63376
2026-01-30 03:10:17.28	316.99	9.42	-49.6	-64.9	3.6	1.51e+00	0	39	104	0	60	63403
2026-01-30 03:10:18.29	317.15	9.37	-49.6	-64.8	3.6	1.51e+00	0	39	104	0	60	63039
2026-01-30 03:10:19.30	317.30	9.33	-49.6	-64.9	3.6	1.51e+00	0	39	104	0	60	63340
2026-01-30 03:10:20.31	317.45	9.29	-49.6	-64.9	3.6	1.51e+00	0	39	104	0	60	63352
2026-01-30 03:10:21.32	317.60	9.25	-49.6	-64.9	3.6	1.51e+00	0	39	104	0	60	63185
2026-01-30 03:10:22.33	317.75	9.20	-49.6	-64.9	3.6	1.51e+00	0	39	104	0	60	63407
2026-01-30 03:10:23.34	317.91	9.16	-49.6	-64.9	3.6	1.51e+00	0	39	104	0	60	63401
2026-01-30 03:10:24.35	318.06	9.12	-49.6	-64.9	3.6	1.51e+00	0	39	104	0	60	63357
2026-01-30 03:10:25.36	318.21	9.08	-49.6	-64.9	3.6	1.51e+00	0	39	104	0	60	63188
2026-01-30 03:10:26.37	318.36	9.03	-49.6	-64.9	3.6	1.51e+00	0	39	104	0	60	63280
2026-01-30 03:10:27.38	318.51	8.99	-49.6	-64.8	3.6	1.51e+00	0	39	104	0	60	63175
2026-01-30 03:10:28.39	318.66	8.95	-49.6	-64.8	3.6	1.51e+00	0	39	104	0	60	62891
2026-01-30 03:10:29.40	318.81	8.90	-49.6	-64.8	3.6	1.51e+00	0	39	104	0	60	62845
2026-01-30 03:10:30.41	318.95	8.86	-49.6	-64.8	3.6	1.51e+00	0	39	104	0	60	63151
2026-01-30 03:10:31.42	319.10	8.82	-49.6	-64.8	3.6	1.51e+00	0	39	104	0	60	63113
2026-01-30 03:10:32.43	319.25	8.77	-49.6	-64.8	3.6	1.51e+00	0	39	104	0	60	63168
2026-01-30 03:10:33.44	319.40	8.73	-49.6	-64.9	3.6	1.51e+00	0	39	104	0	60	63311
2026-01-30 03:10:34.44	319.54	8.69	-49.6	-64.9	3.6	1.51e+00	0	39	104	0	60	63547
2026-01-30 03:10:35.46	319.69	8.64	-49.6	-64.9	3.6	1.51e+00	0	39	104	0	60	63252
2026-01-30 03:10:36.47	319.84	8.60	-49.6	-64.8	3.6	1.51e+00	0	39	104	0	60	63143
2026-01-30 03:10:37.48	319.98	8.55	-49.6	-64.9	3.6	1.51e+00	0	39	104	0	60	63478
2026-01-30 03:10:38.49	320.13	8.51	-49.6	-64.9	3.6	1.51e+00	0	39	104	0	60	63205
2026-01-30 03:10:39.50	320.27	8.47	-49.6	-64.8	3.6	1.51e+00	0	39	104	0	60	63155
2026-01-30 03:10:40.51	320.41	8.42	-49.6	-64.9	3.6	1.51e+00	0	39	104	0	60	63251
2026-01-30 03:10:41.52	320.56	8.38	-49.6	-64.9	3.6	1.51e+00	0	39	104	0	60	63301
2026-01-30 03:10:42.53	320.70	8.33	-49.6	-64.9	3.6	1.51e+00	0	39	104	0	60	63254
2026-01-30 03:10:43.54	320.84	8.29	-49.6	-64.9	3.6	1.51e+00	0	39	104	0	60	63456
2026-01-30 03:10:44.55	320.99	8.24	-49.6	-64.9	3.6	1.51e+00	0	39	104	0	60	63178
2026-01-30 03:10:45.56	321.13	8.20	-49.6	-64.8	3.6	1.51e+00	0	39	104	0	60	63133
2026-01-30 03:10:46.57	321.27	8.15	-49.6	-64.9	3.6	1.51e+00	0	39	104	0	60	63329
2026-01-30 03:10:47.58	321.41	8.11	-49.6	-64.9	3.6	1.51e+00	0	39	104	0	60	63248
2026-01-30 03:10:48.59	321.55	8.06	-49.6	-64.9	3.6	1.51e+00	0	39	104	0	60	63445
2026-01-30 03:10:49.60	321.69	8.02	-49.6	-64.9	3.6	1.51e+00	0	39	104	0	60	63342
2026-01-30 03:10:50.61	321.83	7.97	-49.6	-64.9	3.6	1.51e+00	0	39	104	0	60	63198
2026-01-30 03:10:51.62	321.97	7.93	-49.6	-64.9	3.6	1.51e+00	0	39	104	0	60	63386
2026-01-30 03:10:52.63	322.11	7.88	-49.6	-64.9	3.6	1.51e+00	0	39	104	0	60	63251
2026-01-30 03:10:53.64	322.25	7.84	-49.6	-64.8	3.6	1.51e+00	0	39	104	0	60	63067
2026-01-30 03:10:54.65	322.39	7.79	-49.6	-64.8	3.6	1.51e+00	0	39	104	0	60	63082
2026-01-30 03:10:55.66	322.53	7.75	-49.6	-64.8	3.6	1.51e+00	0	39	104	0	60	63175
2026-01-30 03:10:56.67	322.66	7.70	-49.6	-64.9	3.6	1.51e+00	0	39	104	0	60	63414
2026-01-30 03:10:57.68	322.80	7.66	-49.6	-64.9	3.6	1.51e+00	0	39	104	0	60	63465
2026-01-30 03:10:58.69	322.94	7.61	-49.6	-64.9	3.6	1.51e+00	0	39	104	0	60	63401
2026-01-30 03:10:59.70	323.07	7.57	-49.6	-64.9	3.6	1.51e+00	0	39	104	0	60	63795
2026-01-30 03:11:00.71	323.21	7.52	-49.6	-64.9	3.6	1.51e+00	0	39	104	0	60	63405
2026-01-30 03:11:01.72	323.35	7.48	-49.6	-64.8	3.6	1.51e+00	0	39	104	0	60	63021
2026-01-30 03:11:02.73	323.48	7.43	-49.6	-64.9	3.6	1.51e+00	0	39	104	0	60	63345
2026-01-30 03:11:03.74	323.61	7.39	-49.6	-64.8	3.6	1.51e+00	0	39	104	0	60	63118
2026-01-30 03:11:04.75	323.75	7.34	-49.6	-64.9	3.6	1.51e+00	0	39	104	0	60	63222
2026-01-30 03:11:05.76	323.88	7.29	-49.6	-64.8	3.6	1.51e+00	0	39	104	0	60	62866
2026-01-30 03:11:06.78	324.02	7.25	-49.6	-64.9	3.6	1.51e+00	0	39	104	0	60	63335
2026-01-30 03:11:07.79	324.15	7.20	-49.6	-64.9	3.6	1.51e+00	0	39	104	0	60	63265
2026-01-30 03:11:08.80	324.28	7.16	-49.6	-64.8	3.6	1.51e+00	0	39	104	0	60	62961
2026-01-30 03:11:09.81	324.42	7.11	-49.6	-64.8	3.6	1.51e+00	0	39	104	0	60	62942
2026-01-30 03:11:10.82	324.55	7.06	-49.6	-64.9	3.5	1.51e+00	0	39	104	0	60	63585
2026-01-30 03:11:11.83	324.68	7.02	-49.6	-64.9	3.6	1.51e+00	0	39	104	0	60	63296
2026-01-30 03:11:12.84	324.81	6.97	-49.6	-64.9	3.6	1.51e+00	0	39	104	0	60	63228
2026-01-30 03:11:13.85	324.94	6.93	-49.6	-64.9	3.6	1.51e+00	0	39	104	0	60	63289
2026-01-30 03:11:14.86	325.07	6.88	-49.6	-64.8	3.6	1.51e+00	0	39	104	0	60	63136
2026-01-30 03:11:15.87	325.20	6.83	-49.6	-64.8	3.6	1.51e+00	0	39	104	0	60	63166
2026-01-30 03:11:16.88	325.33	6.79	-49.6	-64.9	3.6	1.51e+00	0	39	104	0	60	63566
2026-01-30 03:11:17.89	325.46	6.74	-49.6	-64.8	3.6	1.51e+00	0	39	104	0	60	62923
2026-01-30 03:11:18.90	325.59	6.69	-49.6	-64.8	3.6	1.51e+00	0	39	104	0	60	63069
2026-01-30 03:11:19.91	325.72	6.65	-49.6	-64.8	3.6	1.51e+00	0	39	104	0	60	62944
2026-01-30 03:11:20.92	325.84	6.60	-49.6	-64.9	3.6	1.51e+00	0	39	104	0	60	63328
2026-01-30 03:11:21.93	325.97	6.56	-49.6	-64.9	3.6	1.51e+00	0	39	104	0	60	63452
2026-01-30 03:11:22.94	326.10	6.51	-49.6	-64.9	3.6	1.51e+00	0	39	104	0	60	63178
2026-01-30 03:11:23.95	326.22	6.46	-49.6	-64.8	3.6	1.51e+00	0	39	104	0	60	62902
2026-01-30 03:11:24.96	326.35	6.42	-49.6	-64.9	3.6	1.51e+00	0	39	104	0	60	63294
2026-01-30 03:11:25.97	326.48	6.37	-49.6	-64.9	3.6	1.51e+00	0	39	104	0	60	63242
2026-01-30 03:11:26.99	326.60	6.32	-49.6	-64.9	3.6	1.51e+00	0	39	104	0	60	63409
2026-01-30 03:11:28.00	326.73	6.28	-49.6	-64.9	3.6	1.51e+00	0	39	104	0	60	63444
2026-01-30 03:11:29.01	326.85	6.23	-49.6	-64.8	3.6	1.51e+00	0	39	104	0	60	63159
2026-01-30 03:11:30.02	326.98	6.18	-49.6	-64.8	3.6	1.51e+00	0	39	104	0	60	62781
2026-01-30 03:11:31.03	327.10	6.14	-49.6	-64.9	3.6	1.51e+00	0	39	104	0	60	63342
2026-01-30 03:11:32.04	327.22	6.09	-49.6	-64.9	3.6	1.51e+00	0	39	104	0	60	63346
2026-01-30 03:11:33.05	327.35	6.04	-49.6	-64.8	3.6	1.51e+00	0	39	104	0	60	63030
2026-01-30 03:11:34.06	327.47	6.00	-49.6	-64.9	3.6	1.51e+00	0	39	104	0	60	63227
2026-01-30 03:11:35.07	327.59	5.95	-49.6	-64.8	3.6	1.51e+00	0	39	104	0	60	62842
2026-01-30 03:11:36.08	327.71	5.90	-49.6	-64.9	3.6	1.51e+00	0	39	104	0	60	63178
2026-01-30 03:11:37.09	327.84	5.86	-49.6	-64.9	3.6	1.51e+00	0	39	104	0	60	63301
2026-01-30 03:11:38.10	327.96	5.81	-49.3	-64.6	3.6	1.51e+00	0	39	104	0	60	61139
2026-01-30 03:11:39.11	328.08	5.76	-49.6	-64.8	3.6	1.51e+00	0	39	104	0	60	63129
2026-01-30 03:11:40.12	328.20	5.72	-49.6	-64.8	3.6	1.51e+00	0	39	104	0	60	63005
2026-01-30 03:11:41.13	328.32	5.67	-49.6	-64.9	3.6	1.51e+00	0	39	104	0	60	63542
2026-01-30 03:11:42.14	328.44	5.62	-49.6	-64.9	3.6	1.51e+00	0	39	104	0	60	63258
2026-01-30 03:11:43.15	328.56	5.57	-49.6	-64.9	3.6	1.51e+00	0	39	104	0	60	63217
2026-01-30 03:11:44.16	328.68	5.53	-49.6	-64.8	3.6	1.51e+00	0	39	104	0	60	63102
2026-01-30 03:11:45.17	328.80	5.48	-49.6	-64.8	3.6	1.51e+00	0	39	104	0	60	63158
2026-01-30 03:11:46.18	328.91	5.43	-49.6	-64.8	3.6	1.51e+00	0	39	104	0	60	63138
2026-01-30 03:11:47.19	329.03	5.39	-49.6	-64.8	3.6	1.51e+00	0	39	104	0	60	62921
2026-01-30 03:11:48.20	329.15	5.34	-49.6	-64.8	3.6	1.51e+00	0	39	104	0	60	63002
2026-01-30 03:11:49.21	329.27	5.29	-49.6	-64.9	3.6	1.51e+00	0	39	104	0	60	63227
2026-01-30 03:11:50.22	329.38	5.25	-49.6	-64.9	3.6	1.51e+00	0	39	104	0	60	63477
2026-01-30 03:11:51.23	329.50	5.20	-49.6	-64.8	3.6	1.51e+00	0	39	104	0	60	63078
2026-01-30 03:11:52.24	329.62	5.15	-49.6	-64.9	3.6	1.51e+00	0	39	104	0	60	63341
2026-01-30 03:11:53.25	329.73	5.10	-49.6	-64.9	3.6	1.51e+00	0	39	104	0	60	63365
2026-01-30 03:11:54.26	329.85	5.06	-49.6	-64.9	3.6	1.51e+00	0	39	104	0	60	63311
2026-01-30 03:11:55.27	329.96	5.01	-49.6	-64.9	3.6	1.51e+00	0	39	104	0	60	63339
2026-01-30 03:11:56.28	330.08	4.96	-49.6	-64.8	3.6	1.51e+00	0	39	104	0	60	63176
2026-01-30 03:11:57.29	330.19	4.92	-49.6	-64.9	3.6	1.51e+00	0	39	104	0	60	63326
2026-01-30 03:11:58.31	330.31	4.87	-49.6	-64.8	3.6	1.51e+00	0	39	104	0	60	62942
2026-01-30 03:11:59.32	330.42	4.82	-49.6	-64.8	3.6	1.51e+00	0	39	104	0	60	63077
2026-01-30 03:12:00.32	330.53	4.78	-49.6	-64.9	3.6	1.51e+00	0	39	104	0	60	63335
2026-01-30 03:12:01.33	330.65	4.73	-49.6	-64.9	3.6	1.51e+00	0	39	104	0	60	63574
2026-01-30 03:12:02.34	330.76	4.68	-49.6	-64.8	3.6	1.51e+00	0	39	104	0	60	63075
2026-01-30 03:12:03.35	330.87	4.63	-49.6	-64.9	3.6	1.51e+00	0	39	104	0	60	63376
2026-01-30 03:12:04.36	330.98	4.59	-49.6	-64.9	3.6	1.51e+00	0	39	104	0	60	63666
2026-01-30 03:12:05.37	331.10	4.54	-49.6	-64.8	3.5	1.51e+00	0	39	104	0	60	63155
2026-01-30 03:12:06.38	331.21	4.49	-49.6	-64.9	3.6	1.51e+00	0	39	104	0	60	63203
2026-01-30 03:12:07.39	331.32	4.45	-49.6	-64.8	3.6	1.51e+00	0	39	104	0	60	63150
2026-01-30 03:12:08.40	331.43	4.40	-49.6	-64.8	3.6	1.51e+00	0	39	104	0	60	62988
2026-01-30 03:12:09.41	331.54	4.35	-49.6	-64.8	3.6	1.51e+00	0	39	104	0	60	62897
2026-01-30 03:12:10.42	331.65	4.30	-49.6	-64.8	3.6	1.51e+00	0	39	104	0	60	63160
2026-01-30 03:12:11.43	331.76	4.26	-49.6	-64.8	3.6	1.51e+00	0	39	104	0	60	63151
2026-01-30 03:12:12.43	331.87	4.21	-49.6	-64.8	3.6	1.51e+00	0	39	104	0	60	63100
2026-01-30 03:12:13.45	331.98	4.16	-49.6	-64.9	3.6	1.51e+00	0	39	104	0	60	63320
2026-01-30 03:12:14.46	332.09	4.12	-49.6	-64.9	3.6	1.51e+00	0	39	104	0	60	63266
2026-01-30 03:12:15.47	332.19	4.07	-49.6	-64.9	3.6	1.51e+00	0	39	104	0	60	63500
2026-01-30 03:12:16.48	332.30	4.02	-49.6	-64.9	3.6	1.51e+00	0	39	104	0	60	63272
2026-01-30 03:12:17.49	332.41	3.97	-49.6	-64.9	3.6	1.51e+00	0	39	104	0	60	63330
2026-01-30 03:12:18.50	332.52	3.93	-49.6	-64.8	3.6	1.51e+00	0	39	104	0	60	63011
2026-01-30 03:12:19.51	332.62	3.88	-49.6	-64.8	3.6	1.51e+00	0	39	104	0	60	63140
2026-01-30 03:12:20.52	332.73	3.83	-49.6	-64.9	3.6	1.51e+00	0	39	104	0	60	63252
2026-01-30 03:12:21.53	332.84	3.79	-49.6	-64.8	3.6	1.51e+00	0	39	104	0	60	63113
2026-01-30 03:12:22.54	332.94	3.74	-49.6	-64.9	3.6	1.51e+00	0	39	104	0	60	63274
2026-01-30 03:12:23.55	333.05	3.69	-49.6	-64.8	3.6	1.51e+00	0	39	104	0	60	62926
2026-01-30 03:12:24.56	333.15	3.64	-49.6	-64.9	3.6	1.51e+00	0	39	104	0	60	63608
2026-01-30 03:12:25.57	333.26	3.60	-49.6	-64.8	3.6	1.51e+00	0	39	104	0	60	63088
2026-01-30 03:12:26.58	333.36	3.55	-49.6	-64.8	3.6	1.51e+00	0	39	104	0	60	63085
2026-01-30 03:12:27.59	333.47	3.50	-49.6	-64.8	3.6	1.51e+00	0	39	104	0	60	63057
2026-01-30 03:12:28.60	333.57	3.46	-49.6	-64.8	3.6	1.51e+00	0	39	104	0	60	63064
2026-01-30 03:12:29.62	333.68	3.41	-49.6	-64.8	3.6	1.51e+00	0	39	104	0	60	63149
2026-01-30 03:12:30.63	333.78	3.36	-49.6	-64.9	3.6	1.51e+00	0	39	104	0	60	63461
2026-01-30 03:12:31.64	333.88	3.31	-49.6	-64.9	3.6	1.51e+00	0	39	104	0	60	63440
2026-01-30 03:12:32.65	333.98	3.27	-49.6	-64.9	3.6	1.51e+00	0	39	104	0	60	63284
2026-01-30 03:12:33.66	334.09	3.22	-49.6	-64.9	3.6	1.51e+00	0	39	104	0	60	63242
2026-01-30 03:12:34.67	334.19	3.17	-49.6	-64.9	3.6	1.51e+00	0	39	104	0	60	63511
2026-01-30 03:12:35.68	334.29	3.13	-49.6	-64.9	3.6	1.51e+00	0	39	104	0	60	63224
2026-01-30 03:12:36.69	334.39	3.08	-49.6	-64.9	3.6	1.51e+00	0	39	104	0	60	63258
2026-01-30 03:12:37.70	334.49	3.03	-49.6	-64.8	3.6	1.51e+00	0	39	104	0	60	63143
2026-01-30 03:12:38.71	334.59	2.98	-49.6	-64.8	3.6	1.51e+00	0	39	104	0	60	63055
2026-01-30 03:12:39.72	334.70	2.94	-49.6	-64.9	3.6	1.51e+00	0	39	104	0	60	63199
2026-01-30 03:12:40.73	334.80	2.89	-49.6	-64.8	3.6	1.51e+00	0	39	104	0	60	62935
2026-01-30 03:12:41.74	334.90	2.84	-49.6	-64.9	3.6	1.51e+00	0	39	104	0	60	63261
2026-01-30 03:12:42.75	335.00	2.80	-49.6	-64.9	3.6	1.51e+00	0	39	104	0	60	63625
2026-01-30 03:12:43.76	335.09	2.75	-49.6	-64.8	3.6	1.51e+00	0	39	104	0	60	63043
2026-01-30 03:12:44.77	335.19	2.70	-49.6	-64.9	3.6	1.51e+00	0	39	104	0	60	63199
2026-01-30 03:12:45.78	335.29	2.66	-49.6	-64.9	3.6	1.51e+00	0	39	104	0	60	63514
2026-01-30 03:12:46.79	335.39	2.61	-49.6	-64.9	3.6	1.51e+00	0	39	104	0	60	63599
2026-01-30 03:12:47.80	335.49	2.56	-49.6	-64.9	3.6	1.51e+00	0	39	104	0	60	63412
2026-01-30 03:12:48.81	335.59	2.52	-49.6	-64.8	3.6	1.51e+00	0	39	104	0	60	63098
2026-01-30 03:12:49.82	335.68	2.47	-49.6	-64.9	3.6	1.51e+00	0	39	104	0	60	63372
2026-01-30 03:12:50.83	335.78	2.42	-49.6	-64.8	3.6	1.51e+00	0	39	104	0	60	62999
2026-01-30 03:12:51.84	335.88	2.37	-49.6	-64.9	3.6	1.51e+00	0	39	104	0	60	63590
2026-01-30 03:12:52.84	335.97	2.33	-49.6	-64.9	3.6	1.51e+00	0	39	104	0	60	63362
2026-01-30 03:12:53.85	336.07	2.28	-49.6	-64.8	3.6	1.51e+00	0	39	104	0	60	62965
2026-01-30 03:12:54.86	336.17	2.23	-49.6	-64.8	3.6	1.51e+00	0	39	104	0	60	63130
2026-01-30 03:12:55.87	336.26	2.19	-49.6	-64.9	3.6	1.51e+00	0	39	104	0	60	63339
2026-01-30 03:12:56.88	336.36	2.14	-49.6	-64.9	3.6	1.51e+00	0	39	104	0	60	63499
2026-01-30 03:12:57.89	336.45	2.09	-49.6	-64.8	3.6	1.51e+00	0	39	104	0	60	63101
2026-01-30 03:12:58.90	336.55	2.05	-49.6	-64.9	3.6	1.51e+00	0	39	104	0	60	63333
2026-01-30 03:12:59.92	336.65	2.00	-49.6	-64.9	3.6	1.51e+00	0	39	104	0	60	63215
2026-01-30 03:13:00.93	336.74	1.95	-49.6	-64.9	3.6	1.51e+00	0	39	104	0	60	63780
2026-01-30 03:13:01.94	336.83	1.91	-49.6	-64.9	3.6	1.51e+00	0	39	104	0	60	63334
2026-01-30 03:13:02.95	336.93	1.86	-49.6	-64.8	3.6	1.51e+00	0	39	104	0	60	63114
2026-01-30 03:13:03.96	337.02	1.81	-49.6	-64.9	3.6	1.51e+00	0	39	104	0	60	63272
2026-01-30 03:13:04.97	337.11	1.77	-49.6	-64.9	3.6	1.51e+00	0	39	104	0	60	63485
2026-01-30 03:13:05.98	337.21	1.72	-49.6	-64.8	3.6	1.51e+00	0	39	104	0	60	63118
2026-01-30 03:13:06.99	337.30	1.67	-49.6	-64.9	3.6	1.51e+00	0	39	104	0	60	63250
2026-01-30 03:13:08.00	337.39	1.63	-49.6	-64.9	3.5	1.51e+00	0	39	104	0	60	63517
2026-01-30 03:13:09.01	337.48	1.58	-49.6	-64.9	3.6	1.51e+00	0	39	104	0	60	63277
2026-01-30 03:13:10.02	337.58	1.53	-49.6	-64.9	3.6	1.51e+00	0	39	104	0	60	63277
2026-01-30 03:13:11.03	337.67	1.49	-49.6	-64.9	3.6	1.51e+00	0	39	104	0	60	63261
2026-01-30 03:13:12.04	337.76	1.44	-49.6	-64.8	3.6	1.51e+00	0	39	104	0	60	63117
2026-01-30 03:13:13.05	337.85	1.40	-49.6	-64.9	3.6	1.51e+00	0	39	104	0	60	63233
2026-01-30 03:13:14.06	337.94	1.35	-49.6	-64.9	3.6	1.51e+00	0	39	104	0	60	63197
2026-01-30 03:13:15.07	338.03	1.30	-49.6	-64.9	3.6	1.51e+00	0	39	104	0	60	63362
2026-01-30 03:13:16.08	338.12	1.26	-49.6	-64.9	3.6	1.51e+00	0	39	104	0	60	63294
2026-01-30 03:13:17.09	338.21	1.21	-49.6	-64.8	3.6	1.51e+00	0	39	104	0	60	63132
2026-01-30 03:13:18.10	338.30	1.16	-49.6	-64.9	3.6	1.51e+00	0	39	104	0	60	63712
2026-01-30 03:13:19.11	338.39	1.12	-49.6	-64.9	3.6	1.51e+00	0	39	104	0	60	63389
2026-01-30 03:13:20.12	338.48	1.07	-49.6	-64.8	3.6	1.51e+00	0	39	104	0	60	62986
2026-01-30 03:13:21.13	338.57	1.02	-49.6	-64.9	3.6	1.51e+00	0	39	104	0	60	63299
2026-01-30 03:13:22.14	338.66	0.98	-49.6	-64.9	3.6	1.51e+00	0	39	104	0	60	63341
2026-01-30 03:13:23.15	338.75	0.93	-49.6	-64.9	3.6	1.51e+00	0	39	104	0	60	63504
2026-01-30 03:13:24.16	338.84	0.89	-49.6	-64.9	3.6	1.51e+00	0	39	104	0	60	63526
2026-01-30 03:13:25.17	338.92	0.84	-49.6	-64.9	3.6	1.51e+00	0	39	104	0	60	63398
2026-01-30 03:13:26.18	339.01	0.79	-49.6	-64.8	3.6	1.51e+00	0	39	104	0	60	63164
2026-01-30 03:13:27.19	339.10	0.75	-49.6	-64.9	3.6	1.51e+00	0	39	104	0	60	63203
2026-01-30 03:13:28.20	339.19	0.70	-49.6	-64.9	3.6	1.51e+00	0	39	104	0	60	63283
