passes_logs/2026/01/30/R4.6S_Anadyr/R4.6S_Anadyr__20260130_035528_FENGYUN_3D_rec.log

#Pass ID: 20260130_035528_FENGYUN 3D
#Satellite: FENGYUN 3D
#Configuration: FENGYUN 3D
#almurnet v.1.7.20251203
#Start time: 2026-01-30 03:55:29

#Version: 2.2.20231116
#Station: R4.6S_Anadyr
#Location: 177.4865 lon 64.73178 lat
#TLE: 1 43010U 17072A   26029.52179110  .00000394  00000+0  20818-3 0  9997
#TLE: 2 43010  98.9957   1.5649 0002507  83.7772 276.3689 14.19703315425310

#Time	Az	El	Level	Level2	SNR	BER	BlckErr	Temp	State	Recorded	gain1	gain2
2026-01-30 03:55:29.10	198.15	0.06	-50.0	-67.7	3.5	3.02e+01	0	37	0	0	60	93844
2026-01-30 03:55:30.11	198.20	0.11	-49.5	-61.7	3.6	8.45e-01	0	38	104	0	60	43797
2026-01-30 03:55:31.12	198.26	0.17	-49.5	-61.7	3.6	8.45e-01	0	38	104	0	60	43929
2026-01-30 03:55:32.13	198.31	0.22	-49.5	-61.7	3.6	8.45e-01	0	38	104	0	60	43893
2026-01-30 03:55:33.14	198.36	0.28	-49.5	-61.7	3.6	8.45e-01	0	38	104	0	60	43779
2026-01-30 03:55:34.15	198.42	0.33	-49.5	-61.7	3.6	8.45e-01	0	38	104	0	60	43924
2026-01-30 03:55:35.16	198.47	0.39	-49.5	-61.7	3.6	8.45e-01	0	38	104	0	60	43950
2026-01-30 03:55:36.17	198.53	0.45	-49.5	-61.7	3.6	8.46e-01	0	38	104	0	60	44129
2026-01-30 03:55:37.18	198.58	0.50	-49.5	-61.7	3.6	8.45e-01	0	38	104	0	60	43930
2026-01-30 03:55:38.19	198.64	0.56	-49.5	-61.7	3.6	8.46e-01	0	38	104	0	60	44111
2026-01-30 03:55:39.20	198.69	0.62	-49.5	-61.7	3.6	8.45e-01	0	38	104	0	60	43982
2026-01-30 03:55:40.21	198.75	0.67	-49.5	-61.7	3.6	8.45e-01	0	38	104	0	60	43939
2026-01-30 03:55:41.22	198.80	0.73	-49.5	-61.7	3.6	8.45e-01	0	38	104	0	60	44050
2026-01-30 03:55:42.23	198.86	0.78	-49.5	-61.7	3.6	8.45e-01	0	38	104	0	60	43994
2026-01-30 03:55:43.24	198.91	0.84	-49.5	-61.7	3.6	8.46e-01	0	38	104	0	60	43903
2026-01-30 03:55:44.25	198.97	0.90	-49.5	-61.7	3.6	8.44e-01	0	38	104	0	60	43841
2026-01-30 03:55:45.26	199.03	0.95	-49.5	-61.7	3.6	8.46e-01	0	38	104	0	60	43861
2026-01-30 03:55:46.27	199.08	1.01	-49.5	-61.7	3.6	8.46e-01	0	38	104	0	60	43737
2026-01-30 03:55:47.28	199.14	1.07	-49.5	-61.7	3.6	8.46e-01	0	38	104	0	60	44154
2026-01-30 03:55:48.29	199.20	1.13	-49.5	-61.7	3.6	8.45e-01	0	38	104	0	60	43872
2026-01-30 03:55:49.30	199.25	1.18	-49.5	-61.7	3.6	8.45e-01	0	38	104	0	60	43952
2026-01-30 03:55:50.31	199.31	1.24	-49.5	-61.7	3.6	8.45e-01	0	38	104	0	60	44001
2026-01-30 03:55:51.32	199.37	1.30	-49.5	-61.6	3.6	8.47e-01	0	38	104	0	60	43536
2026-01-30 03:55:52.33	199.42	1.36	-49.5	-61.7	3.6	8.44e-01	0	38	104	0	60	44111
2026-01-30 03:55:53.34	199.48	1.41	-49.5	-61.7	3.6	8.46e-01	0	38	104	0	60	43838
2026-01-30 03:55:54.35	199.54	1.47	-49.5	-61.7	3.6	8.45e-01	0	38	104	0	60	43946
2026-01-30 03:55:55.35	199.60	1.53	-49.5	-61.7	3.6	8.44e-01	0	38	104	0	60	43921
2026-01-30 03:55:56.36	199.66	1.59	-49.5	-61.7	3.6	8.46e-01	0	38	104	0	60	44135
2026-01-30 03:55:57.37	199.72	1.64	-49.5	-61.7	3.6	8.45e-01	0	38	104	0	60	43977
2026-01-30 03:55:58.38	199.77	1.70	-49.5	-61.7	3.6	8.45e-01	0	38	104	0	60	44043
2026-01-30 03:55:59.40	199.83	1.76	-49.5	-61.7	3.6	8.46e-01	0	38	104	0	60	44129
2026-01-30 03:56:00.40	199.89	1.82	-49.5	-61.7	3.6	8.45e-01	0	39	104	0	60	43881
2026-01-30 03:56:01.41	199.95	1.88	-49.5	-61.7	3.6	8.45e-01	0	38	104	0	60	44006
2026-01-30 03:56:02.42	200.01	1.93	-49.5	-61.7	3.6	8.47e-01	0	38	104	0	60	43941
2026-01-30 03:56:03.44	200.07	1.99	-49.5	-61.7	3.6	8.45e-01	0	38	104	0	60	43992
2026-01-30 03:56:04.44	200.13	2.05	-49.5	-61.7	3.6	8.46e-01	0	38	104	0	60	43865
2026-01-30 03:56:05.45	200.19	2.11	-49.5	-61.7	3.6	8.45e-01	0	38	104	0	60	43999
2026-01-30 03:56:06.46	200.25	2.17	-49.5	-61.7	3.6	8.45e-01	0	38	104	0	60	44065
2026-01-30 03:56:07.48	200.32	2.23	-49.5	-61.7	3.6	8.45e-01	0	38	104	0	60	44021
2026-01-30 03:56:08.48	200.38	2.29	-49.5	-61.7	3.6	8.45e-01	0	38	104	0	60	43977
2026-01-30 03:56:09.49	200.44	2.35	-49.5	-61.7	3.6	8.44e-01	0	38	104	0	60	43903
2026-01-30 03:56:10.51	200.50	2.41	-49.5	-61.7	3.6	8.46e-01	0	38	104	0	60	43871
2026-01-30 03:56:11.51	200.56	2.46	-49.5	-61.7	3.6	8.44e-01	0	38	104	0	60	43868
2026-01-30 03:56:12.52	200.62	2.52	-49.5	-61.7	3.6	8.46e-01	0	39	104	0	60	44076
2026-01-30 03:56:13.53	200.69	2.58	-49.5	-61.7	3.6	8.46e-01	0	38	104	0	60	43783
2026-01-30 03:56:14.54	200.75	2.64	-49.5	-61.7	3.6	8.46e-01	0	38	104	0	60	43781
2026-01-30 03:56:15.56	200.81	2.70	-49.5	-61.7	3.6	8.47e-01	0	38	104	0	60	43868
2026-01-30 03:56:16.57	200.87	2.76	-49.5	-61.7	3.6	8.45e-01	0	38	104	0	60	44017
2026-01-30 03:56:17.58	200.94	2.82	-49.5	-61.7	3.6	8.46e-01	0	38	104	0	60	44099
2026-01-30 03:56:18.59	201.00	2.88	-49.5	-61.7	3.6	8.45e-01	0	39	104	0	60	44005
2026-01-30 03:56:19.60	201.07	2.94	-49.5	-61.6	3.6	8.45e-01	0	39	104	0	60	43707
2026-01-30 03:56:20.61	201.13	3.00	-49.5	-61.7	3.6	8.45e-01	0	39	104	0	60	43787
2026-01-30 03:56:21.62	201.19	3.06	-49.5	-61.7	3.6	8.45e-01	0	39	104	0	60	43888
2026-01-30 03:56:22.63	201.26	3.12	-49.5	-61.6	3.6	8.46e-01	0	39	104	0	60	43544
2026-01-30 03:56:23.64	201.32	3.18	-49.5	-61.7	3.6	8.45e-01	0	39	104	0	60	43877
2026-01-30 03:56:24.65	201.39	3.24	-49.5	-61.6	3.6	8.45e-01	0	39	104	0	60	43586
2026-01-30 03:56:25.66	201.45	3.31	-49.5	-61.7	3.6	8.46e-01	0	39	104	0	60	44122
2026-01-30 03:56:26.67	201.52	3.37	-49.5	-61.7	3.6	8.46e-01	0	39	104	0	60	43958
2026-01-30 03:56:27.68	201.58	3.43	-49.5	-61.7	3.6	8.46e-01	0	38	104	0	60	44001
2026-01-30 03:56:28.69	201.65	3.49	-49.5	-61.7	3.6	8.46e-01	0	39	104	0	60	43915
2026-01-30 03:56:29.70	201.72	3.55	-49.5	-61.7	3.6	8.46e-01	0	39	104	0	60	44044
2026-01-30 03:56:30.71	201.78	3.61	-49.5	-61.7	3.6	8.45e-01	0	39	104	0	60	43888
2026-01-30 03:56:31.72	201.85	3.67	-49.5	-61.7	3.6	8.44e-01	0	39	104	0	60	43823
2026-01-30 03:56:32.73	201.92	3.73	-49.5	-61.7	3.6	8.45e-01	0	39	104	0	60	43914
2026-01-30 03:56:33.74	201.98	3.80	-49.5	-61.7	3.6	8.46e-01	0	39	104	0	60	43759
2026-01-30 03:56:34.75	202.05	3.86	-49.5	-61.7	3.6	8.45e-01	0	39	104	0	60	43870
2026-01-30 03:56:35.76	202.12	3.92	-49.5	-61.7	3.6	8.46e-01	0	39	104	0	60	43836
2026-01-30 03:56:36.77	202.19	3.98	-49.5	-61.7	3.6	8.46e-01	0	39	104	0	60	43904
2026-01-30 03:56:37.78	202.26	4.04	-49.5	-61.7	3.6	8.44e-01	0	39	104	0	60	43837
2026-01-30 03:56:38.79	202.33	4.10	-49.5	-61.7	3.6	8.45e-01	0	39	104	0	60	44055
2026-01-30 03:56:39.80	202.39	4.17	-49.5	-61.7	3.6	8.46e-01	0	39	104	0	60	44099
2026-01-30 03:56:40.81	202.46	4.23	-49.5	-61.7	3.6	8.46e-01	0	39	104	0	60	43866
2026-01-30 03:56:41.81	202.53	4.29	-49.5	-61.6	3.6	8.46e-01	0	39	104	0	60	43572
2026-01-30 03:56:42.83	202.60	4.35	-49.5	-61.7	3.6	8.44e-01	0	39	104	0	60	44043
2026-01-30 03:56:43.83	202.67	4.42	-49.5	-61.7	3.6	8.45e-01	0	39	104	0	60	43752
2026-01-30 03:56:44.84	202.74	4.48	-49.5	-61.7	3.6	8.46e-01	0	39	104	0	60	43881
2026-01-30 03:56:45.86	202.81	4.54	-49.5	-61.7	3.6	8.45e-01	0	39	104	0	60	43819
2026-01-30 03:56:46.87	202.89	4.61	-49.5	-61.7	3.6	8.45e-01	0	39	104	0	60	43975
2026-01-30 03:56:47.88	202.96	4.67	-49.5	-61.7	3.6	8.46e-01	0	39	104	0	60	43732
2026-01-30 03:56:48.89	203.03	4.73	-49.5	-61.7	3.6	8.44e-01	0	39	104	0	60	43709
2026-01-30 03:56:49.90	203.10	4.80	-49.5	-61.7	3.6	8.43e-01	0	39	104	0	60	43789
2026-01-30 03:56:50.91	203.17	4.86	-49.5	-61.7	3.6	8.45e-01	0	39	104	0	60	43951
2026-01-30 03:56:51.92	203.25	4.92	-49.5	-61.7	3.6	8.45e-01	0	39	104	0	60	43800
2026-01-30 03:56:52.93	203.32	4.99	-49.5	-61.7	3.6	8.45e-01	0	39	104	0	60	43743
2026-01-30 03:56:53.94	203.39	5.05	-49.5	-61.7	3.6	8.46e-01	0	39	104	0	60	43805
2026-01-30 03:56:54.95	203.46	5.11	-49.5	-61.7	3.6	8.45e-01	0	39	104	0	60	44024
2026-01-30 03:56:55.96	203.54	5.18	-49.5	-61.7	3.6	8.45e-01	0	39	104	0	60	43902
2026-01-30 03:56:56.97	203.61	5.24	-49.5	-61.7	3.6	8.46e-01	0	39	104	0	60	44005
2026-01-30 03:56:57.98	203.69	5.31	-49.5	-61.7	3.6	8.46e-01	0	39	104	0	60	43960
2026-01-30 03:56:58.99	203.76	5.37	-49.5	-61.7	3.6	8.45e-01	0	39	104	0	60	43907
2026-01-30 03:57:00.00	203.84	5.44	-49.5	-61.7	3.6	8.45e-01	0	39	104	0	60	43714
2026-01-30 03:57:01.01	203.91	5.50	-49.5	-61.7	3.6	8.45e-01	0	39	104	0	60	44081
2026-01-30 03:57:02.02	203.99	5.56	-49.5	-61.7	3.6	8.45e-01	0	39	104	0	60	44051
2026-01-30 03:57:03.03	204.06	5.63	-49.5	-61.7	3.6	8.45e-01	0	39	104	0	60	43939
2026-01-30 03:57:04.04	204.14	5.69	-49.5	-61.7	3.6	8.44e-01	0	39	104	0	60	43895
2026-01-30 03:57:05.05	204.22	5.76	-49.5	-61.7	3.6	8.46e-01	0	39	104	0	60	44092
2026-01-30 03:57:06.06	204.29	5.83	-49.5	-61.7	3.6	8.44e-01	0	39	104	0	60	43837
2026-01-30 03:57:07.07	204.37	5.89	-49.5	-61.7	3.6	8.46e-01	0	39	104	0	60	43880
2026-01-30 03:57:08.08	204.45	5.96	-49.5	-61.7	3.6	8.45e-01	0	39	104	0	60	43770
2026-01-30 03:57:09.09	204.53	6.02	-49.5	-61.7	3.6	8.45e-01	0	39	104	0	60	44173
2026-01-30 03:57:10.10	204.60	6.09	-49.5	-61.7	3.6	8.46e-01	0	39	104	0	60	43886
2026-01-30 03:57:11.11	204.68	6.15	-49.5	-61.6	3.6	8.46e-01	0	39	104	0	60	43658
2026-01-30 03:57:12.12	204.76	6.22	-49.5	-61.7	3.6	8.44e-01	0	39	104	0	60	43921
2026-01-30 03:57:13.13	204.84	6.29	-49.5	-61.7	3.6	8.45e-01	0	39	104	0	60	43984
2026-01-30 03:57:14.14	204.92	6.35	-49.5	-61.7	3.6	8.45e-01	0	39	104	0	60	44066
2026-01-30 03:57:15.15	205.00	6.42	-49.5	-61.7	3.6	8.47e-01	0	39	104	0	60	43749
2026-01-30 03:57:16.16	205.08	6.48	-49.5	-61.7	3.6	8.46e-01	0	39	104	0	60	43782
2026-01-30 03:57:17.17	205.16	6.55	-49.5	-61.7	3.6	8.45e-01	0	39	104	0	60	43825
2026-01-30 03:57:18.18	205.24	6.62	-49.5	-61.7	3.5	8.45e-01	0	39	104	0	60	43760
2026-01-30 03:57:19.19	205.32	6.68	-49.5	-61.7	3.6	8.45e-01	0	39	104	0	60	43758
2026-01-30 03:57:20.20	205.40	6.75	-49.5	-61.7	3.6	8.45e-01	0	39	104	0	60	43982
2026-01-30 03:57:21.21	205.49	6.82	-49.5	-61.7	3.6	8.44e-01	0	39	104	0	60	43798
2026-01-30 03:57:22.22	205.57	6.89	-49.5	-61.7	3.6	8.46e-01	0	39	104	0	60	43982
2026-01-30 03:57:23.23	205.65	6.95	-49.5	-61.7	3.6	8.45e-01	0	39	104	0	60	43767
2026-01-30 03:57:24.25	205.74	7.02	-49.5	-61.7	3.6	8.45e-01	0	39	104	0	60	44043
2026-01-30 03:57:25.26	205.82	7.09	-49.5	-61.7	3.6	8.45e-01	0	39	104	0	60	43928
2026-01-30 03:57:26.27	205.90	7.16	-49.5	-61.7	3.6	8.44e-01	0	39	104	0	60	43798
2026-01-30 03:57:27.28	205.99	7.23	-49.5	-61.7	3.6	8.46e-01	0	39	104	0	60	43738
2026-01-30 03:57:28.29	206.07	7.29	-49.5	-61.7	3.6	8.45e-01	0	39	104	0	60	43981
2026-01-30 03:57:29.30	206.16	7.36	-49.5	-61.7	3.6	8.46e-01	0	39	104	0	60	43968
2026-01-30 03:57:30.31	206.24	7.43	-49.5	-61.6	3.6	8.45e-01	0	39	104	0	60	43650
2026-01-30 03:57:31.32	206.33	7.50	-49.5	-61.7	3.6	8.45e-01	0	39	104	0	60	44066
2026-01-30 03:57:32.33	206.41	7.57	-49.5	-61.6	3.6	8.45e-01	0	39	104	0	60	43667
2026-01-30 03:57:33.33	206.50	7.63	-49.5	-61.7	3.6	8.44e-01	0	39	104	0	60	43738
2026-01-30 03:57:34.34	206.59	7.70	-49.5	-61.7	3.6	8.45e-01	0	39	104	0	60	44071
2026-01-30 03:57:35.35	206.67	7.77	-49.5	-61.7	3.6	8.44e-01	0	39	104	0	60	43823
2026-01-30 03:57:36.36	206.76	7.84	-49.5	-61.7	3.6	8.45e-01	0	39	104	0	60	44035
2026-01-30 03:57:37.37	206.85	7.91	-49.5	-61.7	3.6	8.45e-01	0	39	104	0	60	43862
2026-01-30 03:57:38.38	206.94	7.98	-49.5	-61.7	3.6	8.46e-01	0	39	104	0	60	43843
2026-01-30 03:57:39.40	207.03	8.05	-49.5	-61.7	3.6	8.46e-01	0	39	104	0	60	43805
2026-01-30 03:57:40.40	207.12	8.12	-49.5	-61.7	3.6	8.44e-01	0	39	104	0	60	44039
2026-01-30 03:57:41.42	207.21	8.19	-49.5	-61.7	3.6	8.45e-01	0	39	104	0	60	43740
2026-01-30 03:57:42.42	207.30	8.26	-49.5	-61.7	3.6	8.45e-01	0	39	104	0	60	43981
2026-01-30 03:57:43.43	207.39	8.33	-49.5	-61.7	3.6	8.44e-01	0	39	104	0	60	43954
2026-01-30 03:57:44.45	207.48	8.40	-49.5	-61.7	3.5	8.46e-01	0	39	104	0	60	43938
2026-01-30 03:57:45.46	207.57	8.47	-49.5	-61.7	3.6	8.45e-01	0	39	104	0	60	43712
2026-01-30 03:57:46.47	207.66	8.54	-49.5	-61.7	3.6	8.45e-01	0	39	104	0	60	43943
2026-01-30 03:57:47.48	207.75	8.61	-49.5	-61.7	3.6	8.45e-01	0	39	104	0	60	43833
2026-01-30 03:57:48.49	207.85	8.68	-49.5	-61.7	3.6	8.46e-01	0	39	104	0	60	43967
2026-01-30 03:57:49.50	207.94	8.75	-49.5	-61.7	3.6	8.46e-01	0	39	104	0	60	43965
2026-01-30 03:57:50.51	208.03	8.82	-49.5	-61.7	3.6	8.44e-01	0	39	104	0	60	43852
2026-01-30 03:57:51.52	208.13	8.89	-49.5	-61.7	3.6	8.44e-01	0	39	104	0	60	43729
2026-01-30 03:57:52.53	208.22	8.97	-49.5	-61.7	3.6	8.46e-01	0	39	104	0	60	43777
2026-01-30 03:57:53.54	208.32	9.04	-49.5	-61.7	3.6	8.46e-01	0	39	104	0	60	43969
2026-01-30 03:57:54.55	208.41	9.11	-49.5	-61.7	3.6	8.45e-01	0	39	104	0	60	43887
2026-01-30 03:57:55.56	208.51	9.18	-49.5	-61.7	3.6	8.45e-01	0	39	104	0	60	43786
2026-01-30 03:57:56.57	208.60	9.25	-49.5	-61.7	3.6	8.46e-01	0	39	104	0	60	43893
2026-01-30 03:57:57.58	208.70	9.32	-49.5	-61.7	3.6	8.46e-01	0	39	104	0	60	43994
2026-01-30 03:57:58.59	208.80	9.40	-49.5	-61.7	3.6	8.45e-01	0	39	104	0	60	44121
2026-01-30 03:57:59.60	208.89	9.47	-49.5	-61.7	3.6	8.45e-01	0	39	104	0	60	44027
2026-01-30 03:58:00.61	208.99	9.54	-49.5	-61.7	3.6	8.46e-01	0	39	104	0	60	43725
2026-01-30 03:58:01.62	209.09	9.61	-49.5	-61.7	3.6	8.45e-01	0	39	104	0	60	43959
2026-01-30 03:58:02.63	209.19	9.69	-49.5	-61.7	3.6	8.46e-01	0	39	104	0	60	44190
2026-01-30 03:58:03.64	209.29	9.76	-49.5	-61.7	3.6	8.45e-01	0	39	104	0	60	44033
2026-01-30 03:58:04.65	209.39	9.83	-49.5	-61.7	3.6	8.45e-01	0	39	104	0	60	43792
2026-01-30 03:58:05.66	209.49	9.90	-49.5	-61.7	3.6	8.46e-01	0	39	104	0	60	44053
2026-01-30 03:58:06.67	209.59	9.98	-49.5	-61.7	3.6	8.45e-01	0	39	104	0	60	43846
2026-01-30 03:58:07.68	209.69	10.05	-49.5	-61.7	3.6	8.46e-01	0	39	104	0	60	44066
2026-01-30 03:58:08.69	209.79	10.12	-49.5	-61.7	3.6	8.45e-01	0	39	104	0	60	44022
2026-01-30 03:58:09.70	209.90	10.20	-49.5	-61.7	3.6	8.45e-01	0	39	104	0	60	43965
2026-01-30 03:58:10.71	210.00	10.27	-49.5	-61.7	3.6	8.46e-01	0	39	104	0	60	44054
2026-01-30 03:58:11.72	210.10	10.35	-49.5	-61.7	3.6	8.45e-01	0	39	104	0	60	43795
2026-01-30 03:58:12.73	210.21	10.42	-49.5	-61.7	3.6	8.46e-01	0	39	104	0	60	43802
2026-01-30 03:58:13.74	210.31	10.49	-49.5	-61.7	3.6	8.45e-01	0	39	104	0	60	43913
2026-01-30 03:58:14.75	210.42	10.57	-49.5	-61.7	3.6	8.45e-01	0	39	104	0	60	43885
2026-01-30 03:58:15.76	210.52	10.64	-49.5	-61.7	3.6	8.45e-01	0	39	104	0	60	44006
2026-01-30 03:58:16.77	210.63	10.72	-49.5	-61.7	3.5	8.45e-01	0	39	104	0	60	43919
2026-01-30 03:58:17.78	210.73	10.79	-49.5	-61.7	3.6	8.46e-01	0	39	104	0	60	43966
2026-01-30 03:58:18.79	210.84	10.87	-49.5	-61.7	3.6	8.45e-01	0	39	104	0	60	43903
2026-01-30 03:58:19.80	210.95	10.94	-49.5	-61.7	3.6	8.45e-01	0	39	104	0	60	44063
2026-01-30 03:58:20.81	211.06	11.02	-49.5	-61.7	3.6	8.45e-01	0	39	104	0	60	43923
2026-01-30 03:58:21.82	211.16	11.09	-49.5	-61.7	3.6	8.45e-01	0	39	104	0	60	43974
2026-01-30 03:58:22.84	211.27	11.17	-49.5	-61.7	3.6	8.45e-01	0	39	104	0	60	43798
2026-01-30 03:58:23.84	211.38	11.24	-49.5	-61.7	3.6	8.46e-01	0	39	104	0	60	43874
2026-01-30 03:58:24.85	211.49	11.32	-49.5	-61.7	3.5	8.45e-01	0	39	104	0	60	44096
2026-01-30 03:58:25.86	211.60	11.40	-49.5	-61.7	3.6	8.45e-01	0	39	104	0	60	44025
2026-01-30 03:58:26.87	211.71	11.47	-49.5	-61.7	3.6	8.45e-01	0	39	104	0	60	44011
2026-01-30 03:58:27.88	211.83	11.55	-49.5	-61.7	3.6	8.44e-01	0	39	104	0	60	43929
2026-01-30 03:58:28.89	211.94	11.62	-49.5	-61.7	3.6	8.45e-01	0	39	104	0	60	44030
2026-01-30 03:58:29.90	212.05	11.70	-49.5	-61.7	3.6	8.45e-01	0	39	104	0	60	43776
2026-01-30 03:58:30.92	212.17	11.78	-49.5	-61.7	3.6	8.44e-01	0	39	104	0	60	44085
2026-01-30 03:58:31.92	212.28	11.85	-49.5	-61.7	3.6	8.45e-01	0	39	104	0	60	43814
2026-01-30 03:58:32.94	212.40	11.93	-49.5	-61.7	3.6	8.45e-01	0	39	104	0	60	43988
2026-01-30 03:58:33.94	212.51	12.01	-49.5	-61.7	3.6	8.45e-01	0	39	104	0	60	43954
2026-01-30 03:58:34.95	212.63	12.09	-49.5	-61.7	3.6	8.45e-01	0	39	104	0	60	43983
2026-01-30 03:58:35.96	212.74	12.16	-49.5	-61.7	3.6	8.45e-01	0	39	104	0	60	43886
2026-01-30 03:58:36.98	212.86	12.24	-49.5	-61.7	3.6	8.46e-01	0	39	104	0	60	43769
2026-01-30 03:58:37.98	212.98	12.32	-49.5	-61.7	3.6	8.45e-01	0	39	104	0	60	43841
2026-01-30 03:58:38.99	213.09	12.40	-49.5	-61.7	3.6	8.46e-01	0	39	104	0	60	43765
2026-01-30 03:58:40.00	213.21	12.47	-49.5	-61.7	3.6	8.46e-01	0	39	104	0	60	43812
2026-01-30 03:58:41.01	213.33	12.55	-49.5	-61.7	3.6	8.45e-01	0	39	104	0	60	43742
2026-01-30 03:58:42.02	213.45	12.63	-49.5	-61.7	3.6	8.45e-01	0	39	104	0	60	43982
2026-01-30 03:58:43.03	213.57	12.71	-49.5	-61.7	3.6	8.45e-01	0	39	104	0	60	44029
2026-01-30 03:58:44.04	213.69	12.79	-49.5	-61.7	3.6	8.46e-01	0	39	104	0	60	44020
2026-01-30 03:58:45.05	213.82	12.87	-49.5	-61.7	3.6	8.45e-01	0	39	104	0	60	43923
2026-01-30 03:58:46.06	213.94	12.94	-49.5	-61.7	3.6	8.44e-01	0	39	104	0	60	44032
2026-01-30 03:58:47.08	214.06	13.02	-49.5	-61.7	3.6	8.47e-01	0	39	104	0	60	43850
2026-01-30 03:58:48.09	214.19	13.10	-49.5	-61.7	3.6	8.44e-01	0	39	104	0	60	44214
2026-01-30 03:58:49.10	214.31	13.18	-49.5	-61.7	3.6	8.45e-01	0	39	104	0	60	43994
2026-01-30 03:58:50.11	214.44	13.26	-49.5	-61.7	3.6	8.44e-01	0	39	104	0	60	44090
2026-01-30 03:58:51.12	214.56	13.34	-49.5	-61.7	3.6	8.46e-01	0	39	104	0	60	43866
2026-01-30 03:58:52.13	214.69	13.42	-49.5	-61.7	3.6	8.45e-01	0	39	104	0	60	43746
2026-01-30 03:58:53.14	214.82	13.50	-49.5	-61.7	3.6	8.46e-01	0	39	104	0	60	43824
2026-01-30 03:58:54.15	214.94	13.58	-49.5	-61.7	3.6	8.46e-01	0	39	104	0	60	44019
2026-01-30 03:58:55.16	215.07	13.66	-49.5	-61.7	3.6	8.45e-01	0	39	104	0	60	43914
2026-01-30 03:58:56.17	215.20	13.74	-49.5	-61.7	3.6	8.45e-01	0	39	104	0	60	43936
2026-01-30 03:58:57.18	215.33	13.82	-49.5	-61.7	3.6	8.45e-01	0	39	104	0	60	43925
2026-01-30 03:58:58.19	215.46	13.90	-49.5	-61.7	3.6	8.45e-01	0	39	104	0	60	43824
2026-01-30 03:58:59.20	215.59	13.98	-49.5	-61.7	3.6	8.45e-01	0	39	104	0	60	43879
2026-01-30 03:59:00.21	215.72	14.06	-49.5	-61.7	3.6	8.45e-01	0	39	104	0	60	43804
2026-01-30 03:59:01.22	215.86	14.14	-49.5	-61.7	3.6	8.45e-01	0	39	104	0	60	43776
2026-01-30 03:59:02.23	215.99	14.22	-49.5	-61.7	3.6	8.46e-01	0	39	104	0	60	44027
2026-01-30 03:59:03.24	216.12	14.30	-49.5	-61.7	3.6	8.45e-01	0	39	104	0	60	43926
2026-01-30 03:59:04.25	216.26	14.39	-49.5	-61.7	3.6	8.45e-01	0	39	104	0	60	43939
2026-01-30 03:59:05.25	216.39	14.47	-49.5	-61.7	3.6	8.45e-01	0	39	104	0	60	44029
2026-01-30 03:59:06.27	216.53	14.55	-49.5	-61.7	3.6	8.45e-01	0	39	104	0	60	43900
2026-01-30 03:59:07.28	216.66	14.63	-49.5	-61.7	3.6	8.45e-01	0	39	104	0	60	43906
2026-01-30 03:59:08.29	216.80	14.71	-49.5	-61.7	3.6	8.44e-01	0	39	104	0	60	44003
2026-01-30 03:59:09.30	216.94	14.79	-49.5	-61.7	3.6	8.45e-01	0	39	104	0	60	43767
2026-01-30 03:59:10.31	217.08	14.87	-49.5	-61.7	3.6	8.45e-01	0	39	104	0	60	43991
2026-01-30 03:59:11.32	217.22	14.96	-49.5	-61.7	3.6	8.45e-01	0	39	104	0	60	44114
2026-01-30 03:59:12.33	217.36	15.04	-49.5	-61.7	3.6	8.45e-01	0	39	104	0	60	43857
2026-01-30 03:59:13.34	217.50	15.12	-49.5	-61.6	3.6	8.44e-01	0	39	104	0	60	43681
2026-01-30 03:59:14.35	217.64	15.20	-49.5	-61.7	3.6	8.45e-01	0	39	104	0	60	43780
2026-01-30 03:59:15.36	217.78	15.29	-49.5	-61.7	3.6	8.44e-01	0	39	104	0	60	43877
2026-01-30 03:59:16.37	217.93	15.37	-49.5	-61.7	3.6	8.45e-01	0	39	104	0	60	43766
2026-01-30 03:59:17.38	218.07	15.45	-49.5	-61.7	3.6	8.44e-01	0	39	104	0	60	43941
2026-01-30 03:59:18.39	218.22	15.53	-49.5	-61.7	3.6	8.46e-01	0	39	104	0	60	44014
2026-01-30 03:59:19.40	218.36	15.62	-49.5	-61.7	3.6	8.45e-01	0	39	104	0	60	43995
2026-01-30 03:59:20.41	218.51	15.70	-49.5	-61.7	3.6	8.45e-01	0	39	104	0	60	43927
2026-01-30 03:59:21.42	218.66	15.78	-49.5	-61.7	3.6	8.45e-01	0	39	104	0	60	43857
2026-01-30 03:59:22.43	218.80	15.87	-49.5	-61.7	3.6	8.46e-01	0	39	104	0	60	44195
2026-01-30 03:59:23.44	218.95	15.95	-49.5	-61.7	3.5	8.46e-01	0	39	104	0	60	44096
2026-01-30 03:59:24.45	219.10	16.03	-49.5	-61.7	3.6	8.45e-01	0	39	104	0	60	43851
2026-01-30 03:59:25.47	219.26	16.12	-49.5	-61.7	3.6	8.45e-01	0	39	104	0	60	43791
2026-01-30 03:59:26.48	219.41	16.20	-49.5	-61.7	3.6	8.45e-01	0	39	104	0	60	43805
2026-01-30 03:59:27.49	219.56	16.29	-49.5	-61.7	3.6	8.44e-01	0	39	104	0	60	43835
2026-01-30 03:59:28.50	219.71	16.37	-49.5	-61.7	3.6	8.46e-01	0	39	104	0	60	43956
2026-01-30 03:59:29.51	219.87	16.45	-49.5	-61.7	3.6	8.45e-01	0	39	104	0	60	43852
2026-01-30 03:59:30.52	220.02	16.54	-49.5	-61.7	3.6	8.44e-01	0	39	104	0	60	44002
2026-01-30 03:59:31.53	220.18	16.62	-49.5	-61.7	3.6	8.45e-01	0	39	104	0	60	44117
2026-01-30 03:59:32.54	220.33	16.71	-49.5	-61.7	3.5	8.44e-01	0	39	104	0	60	43950
2026-01-30 03:59:33.55	220.49	16.79	-49.5	-61.7	3.6	8.46e-01	0	39	104	0	60	43875
2026-01-30 03:59:34.56	220.65	16.87	-49.5	-61.7	3.6	8.45e-01	0	39	104	0	60	44137
2026-01-30 03:59:35.57	220.81	16.96	-49.5	-61.7	3.5	8.45e-01	0	39	104	0	60	43724
2026-01-30 03:59:36.58	220.97	17.04	-49.5	-61.7	3.6	8.45e-01	0	39	104	0	60	43808
2026-01-30 03:59:37.59	221.13	17.13	-49.5	-61.7	3.6	8.46e-01	0	39	104	0	60	43918
2026-01-30 03:59:38.60	221.29	17.21	-49.5	-61.7	3.6	8.44e-01	0	39	104	0	60	44001
2026-01-30 03:59:39.61	221.45	17.30	-49.5	-61.7	3.6	8.46e-01	0	39	104	0	60	43988
2026-01-30 03:59:40.62	221.61	17.38	-49.5	-61.7	3.6	8.45e-01	0	39	104	0	60	43840
2026-01-30 03:59:41.63	221.78	17.47	-49.5	-61.7	3.6	8.46e-01	0	39	104	0	60	43973
2026-01-30 03:59:42.64	221.94	17.55	-49.5	-61.7	3.6	8.45e-01	0	39	104	0	60	43799
2026-01-30 03:59:43.65	222.11	17.64	-49.5	-61.7	3.6	8.45e-01	0	39	104	0	60	43988
2026-01-30 03:59:44.66	222.28	17.72	-49.5	-61.6	3.6	8.45e-01	0	39	104	0	60	43672
2026-01-30 03:59:45.67	222.44	17.81	-49.5	-61.7	3.6	8.46e-01	0	39	104	0	60	44082
2026-01-30 03:59:46.68	222.61	17.89	-49.5	-61.7	3.5	8.46e-01	0	39	104	0	60	44062
2026-01-30 03:59:47.69	222.78	17.98	-49.5	-61.7	3.6	8.46e-01	0	39	104	0	60	43824
2026-01-30 03:59:48.70	222.95	18.06	-49.5	-61.7	3.6	8.45e-01	0	39	104	0	60	44088
2026-01-30 03:59:49.71	223.12	18.15	-49.5	-61.7	3.6	8.44e-01	0	39	104	0	60	44013
2026-01-30 03:59:50.72	223.30	18.24	-49.5	-61.7	3.6	8.46e-01	0	39	104	0	60	44015
2026-01-30 03:59:51.73	223.47	18.32	-49.5	-61.6	3.6	8.45e-01	0	39	104	0	60	43672
2026-01-30 03:59:52.74	223.64	18.41	-49.5	-61.7	3.6	8.45e-01	0	39	104	0	60	44088
2026-01-30 03:59:53.75	223.82	18.49	-49.5	-61.7	3.6	8.45e-01	0	39	104	0	60	43903
2026-01-30 03:59:54.76	224.00	18.58	-49.5	-61.7	3.6	8.45e-01	0	39	104	0	60	43868
2026-01-30 03:59:55.77	224.17	18.66	-49.5	-61.7	3.6	8.45e-01	0	39	104	0	60	43872
2026-01-30 03:59:56.78	224.35	18.75	-49.5	-61.7	3.6	8.45e-01	0	39	104	0	60	43947
2026-01-30 03:59:57.80	224.53	18.84	-49.5	-61.7	3.6	8.45e-01	0	39	104	0	60	43788
2026-01-30 03:59:58.81	224.71	18.92	-49.5	-61.7	3.6	8.46e-01	0	39	104	0	60	43869
2026-01-30 03:59:59.81	224.89	19.01	-49.5	-61.7	3.6	8.45e-01	0	39	104	0	60	43823
2026-01-30 04:00:00.82	225.07	19.09	-49.5	-61.7	3.6	8.45e-01	0	39	104	0	60	43941
2026-01-30 04:00:01.83	225.26	19.18	-49.5	-61.7	3.6	8.46e-01	0	39	104	0	60	43834
2026-01-30 04:00:02.84	225.44	19.27	-49.5	-61.7	3.6	8.46e-01	0	39	104	0	60	44021
2026-01-30 04:00:03.85	225.63	19.35	-49.5	-61.7	3.6	8.46e-01	0	39	104	0	60	43827
2026-01-30 04:00:04.86	225.81	19.44	-49.5	-61.7	3.6	8.44e-01	0	39	104	0	60	43789
2026-01-30 04:00:05.87	226.00	19.52	-49.5	-61.7	3.6	8.46e-01	0	39	104	0	60	44056
2026-01-30 04:00:06.88	226.19	19.61	-49.5	-61.7	3.6	8.46e-01	0	39	104	0	60	43737
2026-01-30 04:00:07.89	226.38	19.69	-49.5	-61.7	3.6	8.45e-01	0	39	104	0	60	43847
2026-01-30 04:00:08.90	226.57	19.78	-49.5	-61.7	3.6	8.44e-01	0	39	104	0	60	43884
2026-01-30 04:00:09.91	226.76	19.87	-49.5	-61.7	3.6	8.45e-01	0	39	104	0	60	43739
2026-01-30 04:00:10.92	226.95	19.95	-49.5	-61.7	3.6	8.45e-01	0	39	104	0	60	43911
2026-01-30 04:00:11.93	227.14	20.04	-49.5	-61.7	3.6	8.45e-01	0	39	104	0	60	43993
2026-01-30 04:00:12.94	227.34	20.12	-49.5	-61.7	3.6	8.45e-01	0	39	104	0	60	43995
2026-01-30 04:00:13.96	227.54	20.21	-49.5	-61.7	3.6	8.46e-01	0	39	104	0	60	43996
2026-01-30 04:00:14.97	227.73	20.30	-49.5	-61.7	3.6	8.44e-01	0	39	104	0	60	44000
2026-01-30 04:00:15.98	227.93	20.38	-49.5	-61.7	3.6	8.45e-01	0	39	104	0	60	43893
2026-01-30 04:00:16.99	228.13	20.47	-49.5	-61.7	3.6	8.45e-01	0	39	104	0	60	43863
2026-01-30 04:00:18.00	228.33	20.55	-49.5	-61.7	3.6	8.46e-01	0	39	104	0	60	43861
2026-01-30 04:00:19.01	228.53	20.64	-49.5	-61.7	3.6	8.46e-01	0	39	104	0	60	43897
2026-01-30 04:00:20.02	228.73	20.72	-49.5	-61.7	3.6	8.46e-01	0	39	104	0	60	43830
2026-01-30 04:00:21.03	228.93	20.81	-49.5	-61.7	3.6	8.46e-01	0	39	104	0	60	43978
2026-01-30 04:00:22.04	229.14	20.90	-49.5	-61.7	3.6	8.45e-01	0	39	104	0	60	43915
2026-01-30 04:00:23.05	229.34	20.98	-49.5	-61.7	3.5	8.46e-01	0	39	104	0	60	43767
2026-01-30 04:00:24.06	229.55	21.07	-49.5	-61.7	3.6	8.45e-01	0	39	104	0	60	43896
2026-01-30 04:00:25.07	229.76	21.15	-49.5	-61.7	3.6	8.46e-01	0	39	104	0	60	43928
2026-01-30 04:00:26.08	229.97	21.24	-49.5	-61.7	3.6	8.47e-01	0	39	104	0	60	43844
2026-01-30 04:00:27.09	230.18	21.32	-49.5	-61.7	3.6	8.45e-01	0	39	104	0	60	43865
2026-01-30 04:00:28.10	230.39	21.41	-49.5	-61.7	3.6	8.46e-01	0	39	104	0	60	43840
2026-01-30 04:00:29.11	230.60	21.49	-49.5	-61.7	3.6	8.46e-01	0	39	104	0	60	43950
2026-01-30 04:00:30.13	230.81	21.58	-49.5	-61.7	3.6	8.45e-01	0	39	104	0	60	43957
2026-01-30 04:00:31.14	231.03	21.66	-49.5	-61.7	3.6	8.45e-01	0	39	104	0	60	43886
2026-01-30 04:00:32.15	231.24	21.75	-49.5	-61.7	3.6	8.45e-01	0	39	104	0	60	44040
2026-01-30 04:00:33.16	231.46	21.83	-49.5	-61.7	3.6	8.45e-01	0	39	104	0	60	43856
2026-01-30 04:00:34.17	231.68	21.91	-49.5	-61.7	3.6	8.47e-01	0	39	104	0	60	44171
2026-01-30 04:00:35.17	231.90	22.00	-49.5	-61.7	3.6	8.46e-01	0	39	104	0	60	43833
2026-01-30 04:00:36.19	232.12	22.08	-49.5	-61.7	3.6	8.45e-01	0	39	104	0	60	43898
2026-01-30 04:00:37.20	232.34	22.17	-49.5	-61.7	3.6	8.46e-01	0	39	104	0	60	44138
2026-01-30 04:00:38.21	232.56	22.25	-49.5	-61.7	3.6	8.45e-01	0	39	104	0	60	44116
2026-01-30 04:00:39.22	232.78	22.33	-49.5	-61.7	3.6	8.45e-01	0	39	104	0	60	43970
2026-01-30 04:00:40.23	233.01	22.42	-49.5	-61.7	3.6	8.45e-01	0	39	104	0	60	43963
2026-01-30 04:00:41.24	233.24	22.50	-49.5	-61.7	3.6	8.46e-01	0	39	104	0	60	43890
2026-01-30 04:00:42.25	233.46	22.58	-49.5	-61.7	3.6	8.46e-01	0	39	104	0	60	43773
2026-01-30 04:00:43.26	233.69	22.66	-49.5	-61.7	3.6	8.46e-01	0	39	104	0	60	44077
2026-01-30 04:00:44.27	233.92	22.75	-49.5	-61.7	3.6	8.46e-01	0	39	104	0	60	43965
2026-01-30 04:00:45.29	234.15	22.83	-49.5	-61.7	3.6	8.45e-01	0	39	104	0	60	43803
2026-01-30 04:00:46.30	234.38	22.91	-49.5	-61.7	3.6	8.45e-01	0	39	104	0	60	43868
2026-01-30 04:00:47.31	234.62	22.99	-49.5	-61.7	3.6	8.46e-01	0	39	104	0	60	43827
2026-01-30 04:00:48.32	234.85	23.08	-49.5	-61.7	3.6	8.45e-01	0	39	104	0	60	43709
2026-01-30 04:00:49.33	235.09	23.16	-49.5	-61.7	3.6	8.45e-01	0	39	104	0	60	43830
2026-01-30 04:00:50.34	235.32	23.24	-49.5	-61.7	3.6	8.45e-01	0	39	104	0	60	43807
2026-01-30 04:00:51.35	235.56	23.32	-49.5	-61.7	3.6	8.46e-01	0	39	104	0	60	43935
2026-01-30 04:00:52.36	235.80	23.40	-49.5	-61.7	3.6	8.45e-01	0	39	104	0	60	43854
2026-01-30 04:00:53.37	236.04	23.48	-49.5	-61.7	3.6	8.44e-01	0	39	104	0	60	43810
2026-01-30 04:00:54.38	236.28	23.56	-49.5	-61.7	3.6	8.45e-01	0	39	104	0	60	43979
2026-01-30 04:00:55.39	236.52	23.64	-49.5	-61.7	3.6	8.45e-01	0	39	104	0	60	44032
2026-01-30 04:00:56.40	236.77	23.72	-49.5	-61.7	3.6	8.46e-01	0	39	104	0	60	43717
2026-01-30 04:00:57.41	237.01	23.80	-49.5	-61.7	3.6	8.46e-01	0	39	104	0	60	43968
2026-01-30 04:00:58.42	237.26	23.88	-49.5	-61.7	3.6	8.44e-01	0	39	104	0	60	43785
2026-01-30 04:00:59.43	237.51	23.96	-49.5	-61.7	3.6	8.45e-01	0	39	104	0	60	43891
2026-01-30 04:01:00.44	237.76	24.04	-49.5	-61.7	3.6	8.44e-01	0	39	104	0	60	43809
2026-01-30 04:01:01.45	238.01	24.11	-49.5	-61.7	3.6	8.45e-01	0	39	104	0	60	43852
2026-01-30 04:01:02.46	238.26	24.19	-49.5	-61.7	3.6	8.45e-01	0	39	104	0	60	43892
2026-01-30 04:01:03.47	238.51	24.27	-49.5	-61.7	3.6	8.46e-01	0	39	104	0	60	43764
2026-01-30 04:01:04.48	238.76	24.35	-49.5	-61.7	3.6	8.44e-01	0	39	104	0	60	44038
2026-01-30 04:01:05.49	239.02	24.42	-49.5	-61.7	3.6	8.45e-01	0	39	104	0	60	43730
2026-01-30 04:01:06.50	239.27	24.50	-49.5	-61.7	3.6	8.45e-01	0	39	104	0	60	43962
2026-01-30 04:01:07.51	239.53	24.57	-49.5	-61.7	3.6	8.46e-01	0	39	104	0	60	43941
2026-01-30 04:01:08.53	239.79	24.65	-49.5	-61.7	3.6	8.46e-01	0	39	104	0	60	44015
2026-01-30 04:01:09.54	240.05	24.73	-49.5	-61.7	3.6	8.45e-01	0	39	104	0	60	43774
2026-01-30 04:01:10.54	240.31	24.80	-49.5	-61.7	3.6	8.45e-01	0	39	104	0	60	44040
2026-01-30 04:01:11.56	240.57	24.88	-49.5	-61.7	3.6	8.45e-01	0	39	104	0	60	43793
2026-01-30 04:01:12.57	240.84	24.95	-49.5	-61.7	3.6	8.45e-01	0	39	104	0	60	43775
2026-01-30 04:01:13.58	241.10	25.02	-49.5	-61.7	3.6	8.45e-01	0	39	104	0	60	43853
2026-01-30 04:01:14.59	241.37	25.10	-49.5	-61.7	3.6	8.46e-01	0	39	104	0	60	44072
2026-01-30 04:01:15.60	241.63	25.17	-49.5	-61.7	3.6	8.46e-01	0	39	104	0	60	43802
2026-01-30 04:01:16.61	241.90	25.24	-49.5	-61.7	3.6	8.46e-01	0	39	104	0	60	44133
2026-01-30 04:01:17.62	242.17	25.31	-49.5	-61.7	3.6	8.46e-01	0	39	104	0	60	43840
2026-01-30 04:01:18.63	242.44	25.38	-49.5	-61.7	3.6	8.45e-01	0	39	104	0	60	44038
2026-01-30 04:01:19.64	242.71	25.46	-49.5	-61.7	3.6	8.46e-01	0	39	104	0	60	44053
2026-01-30 04:01:20.65	242.99	25.53	-49.5	-61.7	3.6	8.46e-01	0	39	104	0	60	44044
2026-01-30 04:01:21.66	243.26	25.60	-49.5	-61.7	3.6	8.47e-01	0	39	104	0	60	43949
2026-01-30 04:01:22.67	243.53	25.66	-49.5	-61.7	3.6	8.45e-01	0	39	104	0	60	43799
2026-01-30 04:01:23.68	243.81	25.73	-49.5	-61.7	3.6	8.44e-01	0	39	104	0	60	43829
2026-01-30 04:01:24.69	244.09	25.80	-49.5	-61.7	3.6	8.46e-01	0	39	104	0	60	44098
2026-01-30 04:01:25.70	244.37	25.87	-49.5	-61.7	3.6	8.45e-01	0	39	104	0	60	43910
2026-01-30 04:01:26.71	244.65	25.94	-49.5	-61.7	3.6	8.46e-01	0	39	104	0	60	43814
2026-01-30 04:01:27.72	244.93	26.00	-49.5	-61.7	3.6	8.45e-01	0	39	104	0	60	44026
2026-01-30 04:01:28.73	245.21	26.07	-49.5	-61.7	3.6	8.45e-01	0	39	104	0	60	43767
2026-01-30 04:01:29.74	245.49	26.14	-49.5	-61.7	3.6	8.45e-01	0	39	104	0	60	43783
2026-01-30 04:01:30.75	245.78	26.20	-49.5	-61.7	3.6	8.45e-01	0	40	104	0	60	43848
2026-01-30 04:01:31.76	246.06	26.27	-49.5	-61.7	3.6	8.45e-01	0	39	104	0	60	43809
2026-01-30 04:01:32.77	246.35	26.33	-49.5	-61.7	3.6	8.46e-01	0	39	104	0	60	43927
2026-01-30 04:01:33.78	246.64	26.39	-49.5	-61.7	3.6	8.45e-01	0	39	104	0	60	43789
2026-01-30 04:01:34.79	246.93	26.46	-49.5	-61.7	3.6	8.46e-01	0	39	104	0	60	43853
2026-01-30 04:01:35.80	247.22	26.52	-49.5	-61.7	3.6	8.45e-01	0	40	104	0	60	43886
2026-01-30 04:01:36.81	247.51	26.58	-49.5	-61.7	3.6	8.44e-01	0	39	104	0	60	43829
2026-01-30 04:01:37.82	247.80	26.64	-49.5	-61.7	3.6	8.45e-01	0	39	104	0	60	43730
2026-01-30 04:01:38.83	248.09	26.70	-49.5	-61.7	3.6	8.46e-01	0	39	104	0	60	43843
2026-01-30 04:01:39.84	248.39	26.76	-49.5	-61.7	3.6	8.45e-01	0	39	104	0	60	43905
2026-01-30 04:01:40.85	248.68	26.82	-49.5	-61.7	3.6	8.46e-01	0	39	104	0	60	43976
2026-01-30 04:01:41.86	248.98	26.88	-49.5	-61.7	3.6	8.46e-01	0	39	104	0	60	43959
2026-01-30 04:01:42.87	249.28	26.93	-49.5	-61.7	3.6	8.45e-01	0	39	104	0	60	43734
2026-01-30 04:01:43.88	249.58	26.99	-49.5	-61.7	3.6	8.45e-01	0	39	104	0	60	43855
2026-01-30 04:01:44.89	249.87	27.05	-49.5	-61.7	3.6	8.45e-01	0	39	104	0	60	43947
2026-01-30 04:01:45.90	250.18	27.10	-49.5	-61.7	3.6	8.45e-01	0	39	104	0	60	43879
2026-01-30 04:01:46.91	250.48	27.16	-49.5	-61.7	3.6	8.45e-01	0	39	104	0	60	43897
2026-01-30 04:01:47.92	250.78	27.21	-49.5	-61.7	3.6	8.44e-01	0	39	104	0	60	43871
2026-01-30 04:01:48.93	251.08	27.26	-49.5	-61.7	3.6	8.45e-01	0	39	104	0	60	43736
2026-01-30 04:01:49.94	251.39	27.32	-49.5	-61.7	3.6	8.44e-01	0	39	104	0	60	43910
2026-01-30 04:01:50.95	251.69	27.37	-49.5	-61.7	3.6	8.45e-01	0	39	104	0	60	43929
2026-01-30 04:01:51.96	252.00	27.42	-49.5	-61.6	3.6	8.46e-01	0	39	104	0	60	43697
2026-01-30 04:01:52.97	252.31	27.47	-49.5	-61.7	3.6	8.44e-01	0	39	104	0	60	44031
2026-01-30 04:01:53.98	252.62	27.52	-49.5	-61.7	3.6	8.46e-01	0	39	104	0	60	43796
2026-01-30 04:01:54.99	252.93	27.57	-49.5	-61.7	3.6	8.45e-01	0	40	104	0	60	43971
2026-01-30 04:01:56.00	253.24	27.61	-49.5	-61.7	3.6	8.45e-01	0	39	104	0	60	43810
2026-01-30 04:01:57.01	253.55	27.66	-49.5	-61.7	3.6	8.47e-01	0	39	104	0	60	43848
2026-01-30 04:01:58.02	253.86	27.71	-49.5	-61.7	3.6	8.45e-01	0	40	104	0	60	43867
2026-01-30 04:01:59.03	254.17	27.75	-49.5	-61.7	3.6	8.44e-01	0	40	104	0	60	43975
2026-01-30 04:02:00.04	254.49	27.80	-49.5	-61.7	3.6	8.46e-01	0	39	104	0	60	43914
2026-01-30 04:02:01.05	254.80	27.84	-49.5	-61.7	3.6	8.45e-01	0	39	104	0	60	43782
2026-01-30 04:02:02.06	255.12	27.88	-49.5	-61.7	3.6	8.44e-01	0	39	104	0	60	43911
2026-01-30 04:02:03.07	255.43	27.92	-49.5	-61.7	3.6	8.45e-01	0	40	104	0	60	43960
2026-01-30 04:02:04.08	255.75	27.97	-49.5	-61.7	3.6	8.45e-01	0	39	104	0	60	43718
2026-01-30 04:02:05.10	256.07	28.01	-49.5	-61.6	3.6	8.44e-01	0	39	104	0	60	43630
2026-01-30 04:02:06.11	256.39	28.05	-49.5	-61.6	3.6	8.45e-01	0	39	104	0	60	43644
2026-01-30 04:02:07.11	256.70	28.08	-49.5	-61.7	3.6	8.46e-01	0	39	104	0	60	43954
2026-01-30 04:02:08.13	257.03	28.12	-49.5	-61.7	3.6	8.44e-01	0	39	104	0	60	44013
2026-01-30 04:02:09.14	257.35	28.16	-49.5	-61.7	3.6	8.45e-01	0	40	104	0	60	43808
2026-01-30 04:02:10.15	257.67	28.19	-49.5	-61.7	3.6	8.45e-01	0	40	104	0	60	43829
2026-01-30 04:02:11.16	257.99	28.23	-49.5	-61.6	3.6	8.45e-01	0	39	104	0	60	43660
2026-01-30 04:02:12.17	258.32	28.26	-49.5	-61.7	3.6	8.44e-01	0	40	104	0	60	43890
2026-01-30 04:02:13.18	258.64	28.29	-49.5	-61.7	3.6	8.45e-01	0	39	104	0	60	43884
2026-01-30 04:02:14.19	258.96	28.33	-49.5	-61.7	3.6	8.46e-01	0	39	104	0	60	43837
2026-01-30 04:02:15.20	259.29	28.36	-49.5	-61.6	3.6	8.45e-01	0	39	104	0	60	43565
2026-01-30 04:02:16.20	259.61	28.39	-49.5	-61.7	3.5	8.45e-01	0	39	104	0	60	43989
2026-01-30 04:02:17.21	259.94	28.42	-49.5	-61.7	3.6	8.45e-01	0	39	104	0	60	43976
2026-01-30 04:02:18.22	260.26	28.44	-49.5	-61.7	3.6	8.45e-01	0	39	104	0	60	43765
2026-01-30 04:02:19.23	260.59	28.47	-49.5	-61.7	3.6	8.46e-01	0	39	104	0	60	43738
2026-01-30 04:02:20.24	260.92	28.50	-49.5	-61.6	3.6	8.46e-01	0	39	104	0	60	43697
2026-01-30 04:02:21.26	261.25	28.52	-49.5	-61.7	3.6	8.46e-01	0	39	104	0	60	43924
2026-01-30 04:02:22.27	261.58	28.55	-49.5	-61.7	3.6	8.46e-01	0	39	104	0	60	43849
2026-01-30 04:02:23.28	261.91	28.57	-49.5	-61.7	3.6	8.44e-01	0	39	104	0	60	43713
2026-01-30 04:02:24.29	262.24	28.59	-49.5	-61.6	3.6	8.45e-01	0	39	104	0	60	43669
2026-01-30 04:02:25.30	262.57	28.61	-49.5	-61.7	3.6	8.45e-01	0	39	104	0	60	43792
2026-01-30 04:02:26.31	262.90	28.64	-49.5	-61.7	3.6	8.45e-01	0	39	104	0	60	43879
2026-01-30 04:02:27.32	263.23	28.65	-49.5	-61.7	3.6	8.46e-01	0	39	104	0	60	43857
2026-01-30 04:02:28.32	263.56	28.67	-49.5	-61.7	3.6	8.45e-01	0	39	104	0	60	44055
2026-01-30 04:02:29.34	263.89	28.69	-49.5	-61.7	3.6	8.46e-01	0	39	104	0	60	44019
2026-01-30 04:02:30.35	264.22	28.71	-49.5	-61.7	3.6	8.45e-01	0	39	104	0	60	43742
2026-01-30 04:02:31.36	264.55	28.72	-49.5	-61.7	3.6	8.47e-01	0	39	104	0	60	43738
2026-01-30 04:02:32.37	264.89	28.74	-49.5	-61.7	3.6	8.45e-01	0	39	104	0	60	43760
2026-01-30 04:02:33.38	265.22	28.75	-49.5	-61.7	3.6	8.45e-01	0	39	104	0	60	43989
2026-01-30 04:02:34.39	265.55	28.76	-49.5	-61.7	3.6	8.46e-01	0	39	104	0	60	43842
2026-01-30 04:02:35.40	265.89	28.77	-49.5	-61.7	3.5	8.45e-01	0	39	104	0	60	43939
2026-01-30 04:02:36.41	266.22	28.78	-49.5	-61.7	3.6	8.45e-01	0	39	104	0	60	43904
2026-01-30 04:02:37.42	266.55	28.79	-49.5	-61.7	3.6	8.46e-01	0	39	104	0	60	43946
2026-01-30 04:02:38.42	266.88	28.80	-49.5	-61.7	3.6	8.44e-01	0	39	104	0	60	44150
2026-01-30 04:02:39.43	267.22	28.81	-49.5	-61.7	3.6	8.45e-01	0	40	104	0	60	43778
2026-01-30 04:02:40.44	267.55	28.81	-49.5	-61.7	3.6	8.45e-01	0	39	104	0	60	43719
2026-01-30 04:02:41.46	267.89	28.82	-49.5	-61.6	3.6	8.44e-01	0	39	104	0	60	43696
2026-01-30 04:02:42.47	268.22	28.82	-49.5	-61.7	3.6	8.45e-01	0	39	104	0	60	43846
2026-01-30 04:02:43.48	268.56	28.82	-49.5	-61.7	3.6	8.46e-01	0	40	104	0	60	44083
2026-01-30 04:02:44.49	268.89	28.83	-49.5	-61.7	3.6	8.45e-01	0	39	104	0	60	43880
2026-01-30 04:02:45.50	269.23	28.83	-49.5	-61.7	3.6	8.45e-01	0	39	104	0	60	43987
2026-01-30 04:02:46.51	269.56	28.83	-49.5	-61.7	3.6	8.45e-01	0	39	104	0	60	43843
2026-01-30 04:02:47.52	269.89	28.83	-49.5	-61.7	3.6	8.46e-01	0	39	104	0	60	43962
2026-01-30 04:02:48.53	270.23	28.82	-49.5	-61.7	3.6	8.45e-01	0	39	104	0	60	43961
2026-01-30 04:02:49.54	270.56	28.82	-49.5	-61.7	3.6	8.44e-01	0	39	104	0	60	43881
2026-01-30 04:02:50.55	270.90	28.82	-49.5	-61.7	3.6	8.45e-01	0	40	104	0	60	43778
2026-01-30 04:02:51.56	271.23	28.81	-49.5	-61.7	3.6	8.45e-01	0	39	104	0	60	44105
2026-01-30 04:02:52.57	271.57	28.80	-49.5	-61.7	3.6	8.46e-01	0	39	104	0	60	43813
2026-01-30 04:02:53.58	271.90	28.80	-49.5	-61.7	3.6	8.45e-01	0	39	104	0	60	43790
2026-01-30 04:02:54.59	272.23	28.79	-49.5	-61.7	3.6	8.45e-01	0	39	104	0	60	43912
2026-01-30 04:02:55.60	272.57	28.78	-49.5	-61.7	3.6	8.45e-01	0	39	104	0	60	43845
2026-01-30 04:02:56.61	272.90	28.77	-49.5	-61.7	3.6	8.45e-01	0	39	104	0	60	43854
2026-01-30 04:02:57.62	273.23	28.76	-49.5	-61.6	3.6	8.44e-01	0	39	104	0	60	43685
2026-01-30 04:02:58.63	273.56	28.74	-49.5	-61.7	3.6	8.44e-01	0	39	104	0	60	44022
2026-01-30 04:02:59.64	273.90	28.73	-49.5	-61.7	3.6	8.45e-01	0	39	104	0	60	43953
2026-01-30 04:03:00.65	274.23	28.72	-49.5	-61.6	3.6	8.46e-01	0	40	104	0	60	43678
2026-01-30 04:03:01.66	274.56	28.70	-49.5	-61.7	3.6	8.46e-01	0	40	104	0	60	43887
2026-01-30 04:03:02.67	274.89	28.68	-49.5	-61.7	3.6	8.45e-01	0	39	104	0	60	43958
2026-01-30 04:03:03.68	275.22	28.67	-49.5	-61.6	3.6	8.46e-01	0	39	104	0	60	43644
2026-01-30 04:03:04.69	275.55	28.65	-49.5	-61.7	3.6	8.45e-01	0	39	104	0	60	43746
2026-01-30 04:03:05.70	275.88	28.63	-49.5	-61.7	3.6	8.46e-01	0	39	104	0	60	44020
2026-01-30 04:03:06.71	276.21	28.61	-49.5	-61.7	3.6	8.44e-01	0	39	104	0	60	43769
2026-01-30 04:03:07.72	276.54	28.58	-49.5	-61.7	3.6	8.45e-01	0	39	104	0	60	43965
2026-01-30 04:03:08.73	276.87	28.56	-49.5	-61.7	3.6	8.45e-01	0	39	104	0	60	43759
2026-01-30 04:03:09.74	277.20	28.54	-49.5	-61.7	3.6	8.45e-01	0	39	104	0	60	43849
2026-01-30 04:03:10.75	277.53	28.51	-49.5	-61.7	3.6	8.45e-01	0	39	104	0	60	43840
2026-01-30 04:03:11.76	277.86	28.49	-49.5	-61.7	3.6	8.46e-01	0	39	104	0	60	43877
2026-01-30 04:03:12.77	278.18	28.46	-49.5	-61.7	3.6	8.46e-01	0	39	104	0	60	43941
2026-01-30 04:03:13.78	278.51	28.43	-49.5	-61.7	3.6	8.45e-01	0	39	104	0	60	43758
2026-01-30 04:03:14.79	278.84	28.41	-49.5	-61.7	3.6	8.44e-01	0	39	104	0	60	44141
2026-01-30 04:03:15.80	279.16	28.38	-49.5	-61.7	3.6	8.45e-01	0	39	104	0	60	43919
2026-01-30 04:03:16.81	279.49	28.35	-49.5	-61.7	3.6	8.47e-01	0	39	104	0	60	43769
2026-01-30 04:03:17.82	279.81	28.31	-49.5	-61.7	3.6	8.45e-01	0	39	104	0	60	43857
2026-01-30 04:03:18.83	280.13	28.28	-49.5	-61.7	3.6	8.46e-01	0	39	104	0	60	44000
2026-01-30 04:03:19.84	280.46	28.25	-49.5	-61.7	3.6	8.45e-01	0	39	104	0	60	43949
2026-01-30 04:03:20.85	280.78	28.21	-49.5	-61.7	3.6	8.45e-01	0	39	104	0	60	44036
2026-01-30 04:03:21.86	281.10	28.18	-49.5	-61.7	3.6	8.46e-01	0	39	104	0	60	43944
2026-01-30 04:03:22.87	281.42	28.14	-49.5	-61.7	3.6	8.44e-01	0	40	104	0	60	43897
2026-01-30 04:03:23.88	281.74	28.11	-49.5	-61.6	3.6	8.47e-01	0	39	104	0	60	43642
2026-01-30 04:03:24.90	282.06	28.07	-49.5	-61.7	3.6	8.45e-01	0	40	104	0	60	43826
2026-01-30 04:03:25.91	282.38	28.03	-49.5	-61.7	3.6	8.45e-01	0	40	104	0	60	43924
2026-01-30 04:03:26.92	282.70	27.99	-49.5	-61.6	3.6	8.46e-01	0	40	104	0	60	43683
2026-01-30 04:03:27.93	283.02	27.95	-49.5	-61.7	3.6	8.46e-01	0	40	104	0	60	44027
2026-01-30 04:03:28.94	283.33	27.91	-49.5	-61.6	3.6	8.45e-01	0	39	104	0	60	43707
2026-01-30 04:03:29.95	283.65	27.87	-49.5	-61.7	3.6	8.44e-01	0	39	104	0	60	43898
2026-01-30 04:03:30.96	283.96	27.82	-49.5	-61.7	3.6	8.45e-01	0	39	104	0	60	43841
2026-01-30 04:03:31.97	284.28	27.78	-49.5	-61.7	3.6	8.46e-01	0	40	104	0	60	43763
2026-01-30 04:03:32.98	284.59	27.74	-49.5	-61.7	3.6	8.46e-01	0	39	104	0	60	43964
2026-01-30 04:03:33.99	284.90	27.69	-49.5	-61.7	3.6	8.45e-01	0	40	104	0	60	43874
2026-01-30 04:03:35.00	285.21	27.64	-49.5	-61.6	3.6	8.44e-01	0	39	104	0	60	43665
2026-01-30 04:03:36.01	285.52	27.60	-49.5	-61.7	3.6	8.45e-01	0	39	104	0	60	43734
2026-01-30 04:03:37.02	285.83	27.55	-49.5	-61.7	3.6	8.46e-01	0	39	104	0	60	43961
2026-01-30 04:03:38.03	286.14	27.50	-49.5	-61.7	3.6	8.46e-01	0	39	104	0	60	43763
2026-01-30 04:03:39.04	286.45	27.45	-49.5	-61.7	3.6	8.45e-01	0	39	104	0	60	43924
2026-01-30 04:03:40.05	286.75	27.40	-49.5	-61.7	3.6	8.46e-01	0	39	104	0	60	44020
2026-01-30 04:03:41.06	287.06	27.35	-49.5	-61.7	3.6	8.46e-01	0	39	104	0	60	43901
2026-01-30 04:03:42.07	287.36	27.30	-49.5	-61.7	3.6	8.45e-01	0	39	104	0	60	43856
2026-01-30 04:03:43.08	287.67	27.25	-49.5	-61.7	3.6	8.46e-01	0	39	104	0	60	43795
2026-01-30 04:03:44.09	287.97	27.19	-49.5	-61.7	3.6	8.45e-01	0	39	104	0	60	43945
2026-01-30 04:03:45.10	288.27	27.14	-49.5	-61.7	3.6	8.45e-01	0	39	104	0	60	43906
2026-01-30 04:03:46.11	288.57	27.08	-49.5	-61.7	3.6	8.45e-01	0	39	104	0	60	43791
2026-01-30 04:03:47.12	288.87	27.03	-49.5	-61.7	3.6	8.45e-01	0	39	104	0	60	43884
2026-01-30 04:03:48.13	289.17	26.97	-49.5	-61.7	3.6	8.44e-01	0	39	104	0	60	43756
2026-01-30 04:03:49.14	289.47	26.92	-49.5	-61.7	3.6	8.46e-01	0	40	104	0	60	43749
2026-01-30 04:03:50.15	289.76	26.86	-49.5	-61.7	3.6	8.46e-01	0	39	104	0	60	43861
2026-01-30 04:03:51.16	290.06	26.80	-49.5	-61.7	3.6	8.46e-01	0	40	104	0	60	43933
2026-01-30 04:03:52.17	290.35	26.74	-49.5	-61.7	3.6	8.45e-01	0	39	104	0	60	43974
2026-01-30 04:03:53.18	290.65	26.68	-49.5	-61.7	3.6	8.45e-01	0	40	104	0	60	44008
2026-01-30 04:03:54.19	290.94	26.62	-49.5	-61.7	3.6	8.45e-01	0	40	104	0	60	43791
2026-01-30 04:03:55.20	291.23	26.56	-49.5	-61.7	3.6	8.46e-01	0	40	104	0	60	43962
2026-01-30 04:03:56.21	291.52	26.50	-49.5	-61.7	3.6	8.47e-01	0	39	104	0	60	44067
2026-01-30 04:03:57.22	291.81	26.44	-49.5	-61.6	3.6	8.45e-01	0	40	104	0	60	43705
2026-01-30 04:03:58.23	292.10	26.37	-49.5	-61.7	3.6	8.46e-01	0	40	104	0	60	43822
2026-01-30 04:03:59.24	292.38	26.31	-49.5	-61.7	3.6	8.45e-01	0	40	104	0	60	43916
2026-01-30 04:04:00.25	292.67	26.25	-49.5	-61.7	3.6	8.46e-01	0	39	104	0	60	44069
2026-01-30 04:04:01.25	292.95	26.18	-49.5	-61.6	3.6	8.46e-01	0	40	104	0	60	43577
2026-01-30 04:04:02.26	293.23	26.12	-49.5	-61.7	3.6	8.46e-01	0	40	104	0	60	43862
2026-01-30 04:04:03.28	293.52	26.05	-49.5	-61.7	3.6	8.46e-01	0	40	104	0	60	44004
2026-01-30 04:04:04.29	293.80	25.99	-49.5	-61.7	3.6	8.45e-01	0	39	104	0	60	43819
2026-01-30 04:04:05.29	294.07	25.92	-49.5	-61.6	3.6	8.44e-01	0	40	104	0	60	43627
2026-01-30 04:04:06.31	294.36	25.85	-49.5	-61.7	3.6	8.46e-01	0	40	104	0	60	43877
2026-01-30 04:04:07.32	294.63	25.79	-49.5	-61.7	3.6	8.46e-01	0	40	104	0	60	44043
2026-01-30 04:04:08.33	294.91	25.72	-49.5	-61.7	3.6	8.47e-01	0	40	104	0	60	44066
2026-01-30 04:04:09.34	295.18	25.65	-49.5	-61.7	3.6	8.47e-01	0	40	104	0	60	43936
2026-01-30 04:04:10.35	295.46	25.58	-49.5	-61.7	3.6	8.45e-01	0	40	104	0	60	43957
2026-01-30 04:04:11.35	295.73	25.51	-49.5	-61.7	3.6	8.45e-01	0	40	104	0	60	43780
2026-01-30 04:04:12.36	296.00	25.44	-49.5	-61.7	3.6	8.44e-01	0	40	104	0	60	43802
2026-01-30 04:04:13.37	296.27	25.37	-49.5	-61.7	3.6	8.44e-01	0	40	104	0	60	43841
2026-01-30 04:04:14.39	296.54	25.30	-49.5	-61.7	3.6	8.47e-01	0	40	104	0	60	44037
2026-01-30 04:04:15.40	296.81	25.23	-49.5	-61.7	3.6	8.45e-01	0	40	104	0	60	43902
2026-01-30 04:04:16.41	297.08	25.15	-49.5	-61.7	3.6	8.45e-01	0	39	104	0	60	43975
2026-01-30 04:04:17.42	297.34	25.08	-49.5	-61.7	3.6	8.45e-01	0	40	104	0	60	43920
2026-01-30 04:04:18.43	297.61	25.01	-49.5	-61.7	3.6	8.46e-01	0	40	104	0	60	44000
2026-01-30 04:04:19.44	297.87	24.93	-49.5	-61.6	3.6	8.46e-01	0	39	104	0	60	43696
2026-01-30 04:04:20.45	298.13	24.86	-49.5	-61.7	3.6	8.46e-01	0	40	104	0	60	44166
2026-01-30 04:04:21.46	298.39	24.79	-49.5	-61.7	3.6	8.45e-01	0	40	104	0	60	43989
2026-01-30 04:04:22.47	298.65	24.71	-49.5	-61.7	3.6	8.46e-01	0	39	104	0	60	43939
2026-01-30 04:04:23.48	298.91	24.64	-49.5	-61.6	3.6	8.44e-01	0	39	104	0	60	43667
2026-01-30 04:04:24.49	299.17	24.56	-49.5	-61.7	3.6	8.45e-01	0	39	104	0	60	43793
2026-01-30 04:04:25.50	299.42	24.49	-49.5	-61.7	3.6	8.46e-01	0	39	104	0	60	43930
2026-01-30 04:04:26.51	299.68	24.41	-49.5	-61.7	3.6	8.45e-01	0	39	104	0	60	43852
2026-01-30 04:04:27.52	299.93	24.33	-49.5	-61.7	3.6	8.43e-01	0	40	104	0	60	43776
2026-01-30 04:04:28.53	300.18	24.26	-49.5	-61.7	3.6	8.44e-01	0	40	104	0	60	43887
2026-01-30 04:04:29.54	300.43	24.18	-49.5	-61.7	3.6	8.45e-01	0	39	104	0	60	43867
2026-01-30 04:04:30.55	300.68	24.10	-49.5	-61.7	3.6	8.45e-01	0	40	104	0	60	44113
2026-01-30 04:04:31.56	300.93	24.02	-49.5	-61.7	3.6	8.45e-01	0	40	104	0	60	43762
2026-01-30 04:04:32.57	301.18	23.95	-49.5	-61.7	3.6	8.45e-01	0	39	104	0	60	43816
2026-01-30 04:04:33.58	301.42	23.87	-49.5	-61.7	3.6	8.45e-01	0	40	104	0	60	43755
2026-01-30 04:04:34.59	301.67	23.79	-49.5	-61.7	3.6	8.44e-01	0	39	104	0	60	43822
2026-01-30 04:04:35.60	301.91	23.71	-49.5	-61.7	3.6	8.43e-01	0	40	104	0	60	43840
2026-01-30 04:04:36.61	302.16	23.63	-49.5	-61.7	3.6	8.45e-01	0	40	104	0	60	44025
2026-01-30 04:04:37.62	302.40	23.55	-49.5	-61.7	3.6	8.45e-01	0	40	104	0	60	43952
2026-01-30 04:04:38.63	302.64	23.47	-49.5	-61.6	3.6	8.46e-01	0	40	104	0	60	43583
2026-01-30 04:04:39.64	302.88	23.39	-49.5	-61.7	3.6	8.46e-01	0	40	104	0	60	43902
2026-01-30 04:04:40.65	303.11	23.31	-49.5	-61.7	3.6	8.44e-01	0	40	104	0	60	44060
2026-01-30 04:04:41.66	303.35	23.23	-49.5	-61.7	3.6	8.45e-01	0	40	104	0	60	43951
2026-01-30 04:04:42.67	303.59	23.15	-49.5	-61.7	3.6	8.45e-01	0	40	104	0	60	43760
2026-01-30 04:04:43.69	303.82	23.07	-49.5	-61.7	3.6	8.45e-01	0	40	104	0	60	43903
2026-01-30 04:04:44.70	304.06	22.99	-49.5	-61.7	3.6	8.45e-01	0	40	104	0	60	43720
2026-01-30 04:04:45.71	304.29	22.91	-49.5	-61.6	3.6	8.44e-01	0	39	104	0	60	43678
2026-01-30 04:04:46.72	304.52	22.82	-49.5	-61.7	3.6	8.44e-01	0	40	104	0	60	43846
2026-01-30 04:04:47.73	304.75	22.74	-49.5	-61.7	3.6	8.45e-01	0	40	104	0	60	43820
2026-01-30 04:04:48.74	304.98	22.66	-49.5	-61.7	3.6	8.45e-01	0	39	104	0	60	44048
2026-01-30 04:04:49.75	305.20	22.58	-49.5	-61.7	3.6	8.44e-01	0	39	104	0	60	43941
2026-01-30 04:04:50.76	305.43	22.50	-49.5	-61.6	3.6	8.45e-01	0	40	104	0	60	43600
2026-01-30 04:04:51.77	305.65	22.41	-49.5	-61.7	3.6	8.46e-01	0	40	104	0	60	43863
2026-01-30 04:04:52.78	305.88	22.33	-49.5	-61.7	3.6	8.45e-01	0	40	104	0	60	43827
2026-01-30 04:04:53.79	306.10	22.25	-49.5	-61.7	3.6	8.45e-01	0	40	104	0	60	43965
2026-01-30 04:04:54.80	306.32	22.16	-49.5	-61.7	3.6	8.45e-01	0	39	104	0	60	43853
2026-01-30 04:04:55.81	306.54	22.08	-49.5	-61.7	3.6	8.45e-01	0	40	104	0	60	43816
2026-01-30 04:04:56.82	306.76	22.00	-49.5	-61.7	3.6	8.45e-01	0	40	104	0	60	43934
2026-01-30 04:04:57.83	306.98	21.91	-49.5	-61.7	3.6	8.45e-01	0	40	104	0	60	43758
2026-01-30 04:04:58.84	307.19	21.83	-49.5	-61.7	3.6	8.46e-01	0	40	104	0	60	43864
2026-01-30 04:04:59.85	307.41	21.75	-49.5	-61.7	3.6	8.45e-01	0	40	104	0	60	43940
2026-01-30 04:05:00.86	307.62	21.66	-49.5	-61.7	3.6	8.46e-01	0	40	104	0	60	43789
2026-01-30 04:05:01.87	307.84	21.58	-49.5	-61.7	3.6	8.45e-01	0	40	104	0	60	43993
2026-01-30 04:05:02.88	308.05	21.50	-49.5	-61.7	3.6	8.45e-01	0	40	104	0	60	43844
2026-01-30 04:05:03.89	308.26	21.41	-49.5	-61.7	3.6	8.45e-01	0	40	104	0	60	44116
2026-01-30 04:05:04.90	308.47	21.33	-49.5	-61.7	3.6	8.45e-01	0	39	104	0	60	43995
2026-01-30 04:05:05.91	308.68	21.24	-49.5	-61.7	3.6	8.45e-01	0	39	104	0	60	44003
2026-01-30 04:05:06.92	308.89	21.16	-49.5	-61.6	3.5	8.45e-01	0	40	104	0	60	43560
2026-01-30 04:05:07.93	309.09	21.07	-49.5	-61.7	3.6	8.45e-01	0	40	104	0	60	43982
2026-01-30 04:05:08.94	309.30	20.99	-49.5	-61.7	3.6	8.46e-01	0	40	104	0	60	43821
2026-01-30 04:05:09.95	309.50	20.90	-49.5	-61.7	3.6	8.46e-01	0	40	104	0	60	44038
2026-01-30 04:05:10.96	309.70	20.82	-49.5	-61.7	3.6	8.45e-01	0	40	104	0	60	43869
2026-01-30 04:05:11.97	309.91	20.73	-49.5	-61.7	3.6	8.44e-01	0	40	104	0	60	44069
2026-01-30 04:05:12.98	310.11	20.65	-49.5	-61.7	3.6	8.45e-01	0	40	104	0	60	43826
2026-01-30 04:05:13.99	310.31	20.56	-49.5	-61.7	3.5	8.44e-01	0	40	104	0	60	43995
2026-01-30 04:05:15.00	310.51	20.48	-49.5	-61.7	3.6	8.45e-01	0	40	104	0	60	43929
2026-01-30 04:05:16.01	310.70	20.39	-49.5	-61.7	3.6	8.45e-01	0	40	104	0	60	43913
2026-01-30 04:05:17.03	310.90	20.31	-49.5	-61.7	3.6	8.45e-01	0	40	104	0	60	43806
2026-01-30 04:05:18.04	311.10	20.22	-49.5	-61.7	3.6	8.45e-01	0	40	104	0	60	43713
2026-01-30 04:05:19.05	311.29	20.14	-49.5	-61.7	3.6	8.44e-01	0	40	104	0	60	43873
2026-01-30 04:05:20.06	311.49	20.05	-49.5	-61.7	3.6	8.45e-01	0	40	104	0	60	43868
2026-01-30 04:05:21.07	311.68	19.97	-49.5	-61.7	3.6	8.46e-01	0	40	104	0	60	43870
2026-01-30 04:05:22.08	311.87	19.88	-49.5	-61.7	3.6	8.45e-01	0	39	104	0	60	44021
2026-01-30 04:05:23.09	312.06	19.80	-49.5	-61.7	3.6	8.46e-01	0	40	104	0	60	43895
2026-01-30 04:05:24.10	312.25	19.71	-49.5	-61.7	3.6	8.46e-01	0	40	104	0	60	43783
2026-01-30 04:05:25.11	312.44	19.63	-49.5	-61.7	3.6	8.46e-01	0	40	104	0	60	43957
2026-01-30 04:05:26.12	312.63	19.54	-49.5	-61.7	3.6	8.45e-01	0	40	104	0	60	43948
2026-01-30 04:05:27.13	312.81	19.46	-49.5	-61.7	3.6	8.45e-01	0	40	104	0	60	43973
2026-01-30 04:05:28.14	313.00	19.37	-49.5	-61.7	3.6	8.45e-01	0	40	104	0	60	44152
2026-01-30 04:05:29.15	313.18	19.28	-49.5	-61.7	3.6	8.46e-01	0	40	104	0	60	43792
2026-01-30 04:05:30.16	313.37	19.20	-49.5	-61.7	3.6	8.45e-01	0	40	104	0	60	43912
2026-01-30 04:05:31.17	313.55	19.11	-49.5	-61.7	3.6	8.46e-01	0	40	104	0	60	43865
2026-01-30 04:05:32.18	313.73	19.03	-49.5	-61.7	3.6	8.46e-01	0	40	104	0	60	44099
2026-01-30 04:05:33.19	313.91	18.94	-49.5	-61.7	3.6	8.46e-01	0	40	104	0	60	43788
2026-01-30 04:05:34.20	314.09	18.86	-49.5	-61.7	3.6	8.45e-01	0	40	104	0	60	43967
2026-01-30 04:05:35.21	314.27	18.77	-49.5	-61.7	3.6	8.46e-01	0	40	104	0	60	43862
2026-01-30 04:05:36.22	314.44	18.69	-49.5	-61.7	3.6	8.46e-01	0	40	104	0	60	43951
2026-01-30 04:05:37.23	314.62	18.60	-49.5	-61.7	3.6	8.46e-01	0	40	104	0	60	43872
2026-01-30 04:05:38.24	314.80	18.52	-49.5	-61.7	3.6	8.46e-01	0	40	104	0	60	43954
2026-01-30 04:05:39.25	314.97	18.43	-49.5	-61.7	3.6	8.45e-01	0	40	104	0	60	44021
2026-01-30 04:05:40.26	315.14	18.35	-49.5	-61.7	3.6	8.45e-01	0	40	104	0	60	43894
2026-01-30 04:05:41.27	315.32	18.26	-49.5	-61.7	3.6	8.45e-01	0	40	104	0	60	43962
2026-01-30 04:05:42.28	315.49	18.18	-49.5	-61.7	3.6	8.46e-01	0	40	104	0	60	44103
2026-01-30 04:05:43.29	315.66	18.09	-49.5	-61.7	3.6	8.45e-01	0	40	104	0	60	43887
2026-01-30 04:05:44.30	315.83	18.01	-49.5	-61.7	3.6	8.45e-01	0	39	104	0	60	43954
2026-01-30 04:05:45.31	316.00	17.92	-49.5	-61.7	3.6	8.45e-01	0	40	104	0	60	44123
2026-01-30 04:05:46.32	316.17	17.84	-49.5	-61.7	3.6	8.45e-01	0	40	104	0	60	43772
2026-01-30 04:05:47.33	316.33	17.75	-49.5	-61.7	3.6	8.45e-01	0	40	104	0	60	43731
2026-01-30 04:05:48.34	316.50	17.67	-49.5	-61.7	3.6	8.44e-01	0	40	104	0	60	43878
2026-01-30 04:05:49.35	316.66	17.59	-49.5	-61.7	3.6	8.44e-01	0	40	104	0	60	43830
2026-01-30 04:05:50.36	316.83	17.50	-49.5	-61.7	3.6	8.45e-01	0	40	104	0	60	43929
2026-01-30 04:05:51.37	316.99	17.42	-49.5	-61.7	3.6	8.46e-01	0	40	104	0	60	43996
2026-01-30 04:05:52.38	317.16	17.33	-49.5	-61.7	3.6	8.45e-01	0	40	104	0	60	43987
2026-01-30 04:05:53.39	317.32	17.25	-49.5	-61.7	3.6	8.45e-01	0	40	104	0	60	43978
2026-01-30 04:05:54.40	317.48	17.16	-49.5	-61.7	3.6	8.45e-01	0	40	104	0	60	43891
2026-01-30 04:05:55.41	317.64	17.08	-49.5	-61.7	3.6	8.46e-01	0	40	104	0	60	44048
2026-01-30 04:05:56.42	317.80	17.00	-49.5	-61.7	3.6	8.45e-01	0	40	104	0	60	44110
2026-01-30 04:05:57.43	317.96	16.91	-49.5	-61.7	3.6	8.46e-01	0	40	104	0	60	43804
2026-01-30 04:05:58.44	318.11	16.83	-49.5	-61.6	3.6	8.44e-01	0	40	104	0	60	43552
2026-01-30 04:05:59.45	318.27	16.74	-49.5	-61.7	3.6	8.46e-01	0	40	104	0	60	43810
2026-01-30 04:06:00.46	318.42	16.66	-49.5	-61.7	3.6	8.45e-01	0	40	104	0	60	43852
2026-01-30 04:06:01.47	318.58	16.58	-49.5	-61.7	3.6	8.45e-01	0	40	104	0	60	44070
2026-01-30 04:06:02.48	318.73	16.49	-49.5	-61.6	3.6	8.45e-01	0	40	104	0	60	43550
2026-01-30 04:06:03.49	318.89	16.41	-49.5	-61.7	3.6	8.45e-01	0	40	104	0	60	43942
2026-01-30 04:06:04.50	319.04	16.33	-49.5	-61.7	3.6	8.46e-01	0	40	104	0	60	43805
2026-01-30 04:06:05.51	319.19	16.24	-49.5	-61.6	3.6	8.47e-01	0	40	104	0	60	43602
2026-01-30 04:06:06.52	319.34	16.16	-49.5	-61.7	3.6	8.44e-01	0	40	104	0	60	43942
2026-01-30 04:06:07.53	319.49	16.08	-49.5	-61.7	3.6	8.46e-01	0	40	104	0	60	43788
2026-01-30 04:06:08.55	319.64	15.99	-49.5	-61.7	3.6	8.45e-01	0	40	104	0	60	43808
2026-01-30 04:06:09.56	319.79	15.91	-49.5	-61.7	3.6	8.45e-01	0	40	104	0	60	43819
2026-01-30 04:06:10.57	319.94	15.83	-49.5	-61.7	3.6	8.47e-01	0	40	104	0	60	43728
2026-01-30 04:06:11.58	320.09	15.75	-49.5	-61.7	3.6	8.45e-01	0	40	104	0	60	43742
2026-01-30 04:06:12.59	320.23	15.66	-49.5	-61.7	3.6	8.47e-01	0	40	104	0	60	43994
2026-01-30 04:06:13.59	320.38	15.58	-49.5	-61.7	3.6	8.45e-01	0	40	104	0	60	43897
2026-01-30 04:06:14.61	320.52	15.50	-49.5	-61.7	3.5	8.45e-01	0	40	104	0	60	44007
2026-01-30 04:06:15.62	320.66	15.42	-49.5	-61.7	3.6	8.46e-01	0	40	104	0	60	43750
2026-01-30 04:06:16.63	320.81	15.34	-49.5	-61.6	3.6	8.45e-01	0	40	104	0	60	43704
2026-01-30 04:06:17.64	320.95	15.25	-49.5	-61.7	3.6	8.45e-01	0	40	104	0	60	43768
2026-01-30 04:06:18.65	321.09	15.17	-49.5	-61.7	3.6	8.46e-01	0	40	104	0	60	43772
2026-01-30 04:06:19.66	321.23	15.09	-49.5	-61.6	3.6	8.46e-01	0	40	104	0	60	43665
2026-01-30 04:06:20.67	321.37	15.01	-49.5	-61.7	3.6	8.45e-01	0	40	104	0	60	43878
2026-01-30 04:06:21.68	321.51	14.93	-49.5	-61.6	3.6	8.46e-01	0	40	104	0	60	43666
2026-01-30 04:06:22.69	321.65	14.85	-49.5	-61.7	3.6	8.45e-01	0	40	104	0	60	44086
2026-01-30 04:06:23.70	321.79	14.77	-49.5	-61.7	3.6	8.46e-01	0	40	104	0	60	43804
2026-01-30 04:06:24.71	321.92	14.68	-49.5	-61.7	3.6	8.46e-01	0	40	104	0	60	43998
2026-01-30 04:06:25.72	322.06	14.60	-49.5	-61.7	3.6	8.44e-01	0	40	104	0	60	43836
2026-01-30 04:06:26.73	322.20	14.52	-49.5	-61.7	3.6	8.44e-01	0	40	104	0	60	43833
2026-01-30 04:06:27.74	322.33	14.44	-49.5	-61.7	3.6	8.44e-01	0	39	104	0	60	43727
2026-01-30 04:06:28.75	322.47	14.36	-49.5	-61.7	3.6	8.44e-01	0	40	104	0	60	43904
2026-01-30 04:06:29.76	322.60	14.28	-49.5	-61.7	3.6	8.46e-01	0	40	104	0	60	43756
2026-01-30 04:06:30.77	322.73	14.20	-49.5	-61.7	3.6	8.45e-01	0	40	104	0	60	43879
2026-01-30 04:06:31.78	322.86	14.12	-49.5	-61.6	3.6	8.45e-01	0	40	104	0	60	43639
2026-01-30 04:06:32.79	323.00	14.04	-49.5	-61.7	3.6	8.44e-01	0	40	104	0	60	44088
2026-01-30 04:06:33.80	323.13	13.96	-49.5	-61.6	3.6	8.45e-01	0	40	104	0	60	43685
2026-01-30 04:06:34.81	323.26	13.88	-49.5	-61.7	3.6	8.46e-01	0	40	104	0	60	43838
2026-01-30 04:06:35.82	323.39	13.80	-49.5	-61.7	3.6	8.44e-01	0	40	104	0	60	43902
2026-01-30 04:06:36.83	323.51	13.72	-49.5	-61.7	3.6	8.45e-01	0	40	104	0	60	43796
2026-01-30 04:06:37.84	323.64	13.64	-49.5	-61.7	3.6	8.46e-01	0	40	104	0	60	43864
2026-01-30 04:06:38.85	323.77	13.56	-49.5	-61.7	3.6	8.46e-01	0	40	104	0	60	43875
2026-01-30 04:06:39.86	323.90	13.48	-49.5	-61.7	3.6	8.45e-01	0	40	104	0	60	44050
2026-01-30 04:06:40.87	324.02	13.41	-49.5	-61.7	3.6	8.45e-01	0	40	104	0	60	43914
2026-01-30 04:06:41.88	324.15	13.33	-49.5	-61.7	3.6	8.46e-01	0	40	104	0	60	44001
2026-01-30 04:06:42.89	324.27	13.25	-49.5	-61.7	3.6	8.45e-01	0	40	104	0	60	43930
2026-01-30 04:06:43.90	324.40	13.17	-49.5	-61.7	3.6	8.44e-01	0	40	104	0	60	43884
2026-01-30 04:06:44.91	324.52	13.09	-49.5	-61.6	3.6	8.46e-01	0	40	104	0	60	43640
2026-01-30 04:06:45.93	324.64	13.01	-49.5	-61.7	3.6	8.45e-01	0	40	104	0	60	44043
2026-01-30 04:06:46.94	324.77	12.93	-49.5	-61.7	3.6	8.46e-01	0	40	104	0	60	43808
2026-01-30 04:06:47.95	324.89	12.86	-49.5	-61.7	3.6	8.45e-01	0	40	104	0	60	43811
2026-01-30 04:06:48.96	325.01	12.78	-49.5	-61.7	3.6	8.46e-01	0	40	104	0	60	43803
2026-01-30 04:06:49.97	325.13	12.70	-49.5	-61.7	3.6	8.46e-01	0	40	104	0	60	43720
2026-01-30 04:06:50.98	325.25	12.62	-49.5	-61.7	3.6	8.45e-01	0	40	104	0	60	43908
2026-01-30 04:06:51.99	325.37	12.55	-49.5	-61.6	3.6	8.44e-01	0	40	104	0	60	43698
2026-01-30 04:06:53.00	325.49	12.47	-49.5	-61.7	3.6	8.46e-01	0	40	104	0	60	43951
2026-01-30 04:06:54.01	325.61	12.39	-49.5	-61.7	3.6	8.45e-01	0	40	104	0	60	43965
2026-01-30 04:06:55.02	325.72	12.31	-49.5	-61.7	3.6	8.44e-01	0	40	104	0	60	44030
2026-01-30 04:06:56.03	325.84	12.24	-49.5	-61.7	3.6	8.46e-01	0	40	104	0	60	44110
2026-01-30 04:06:57.04	325.96	12.16	-49.5	-61.7	3.6	8.45e-01	0	40	104	0	60	43953
2026-01-30 04:06:58.05	326.07	12.08	-49.5	-61.7	3.6	8.45e-01	0	40	104	0	60	43967
2026-01-30 04:06:59.06	326.19	12.01	-49.5	-61.7	3.6	8.45e-01	0	40	104	0	60	43913
2026-01-30 04:07:00.07	326.30	11.93	-49.5	-61.7	3.6	8.46e-01	0	40	104	0	60	43804
2026-01-30 04:07:01.08	326.42	11.86	-49.5	-61.7	3.6	8.46e-01	0	40	104	0	60	44113
2026-01-30 04:07:02.09	326.53	11.78	-49.5	-61.7	3.6	8.45e-01	0	40	104	0	60	43744
2026-01-30 04:07:03.10	326.64	11.70	-49.5	-61.7	3.6	8.45e-01	0	40	104	0	60	43928
2026-01-30 04:07:04.11	326.75	11.63	-49.5	-61.7	3.6	8.46e-01	0	40	104	0	60	43794
2026-01-30 04:07:05.12	326.87	11.55	-49.5	-61.7	3.6	8.44e-01	0	40	104	0	60	43818
2026-01-30 04:07:06.13	326.98	11.48	-49.5	-61.7	3.6	8.45e-01	0	40	104	0	60	43903
2026-01-30 04:07:07.14	327.09	11.40	-49.5	-61.7	3.6	8.45e-01	0	40	104	0	60	43983
2026-01-30 04:07:08.15	327.20	11.33	-49.5	-61.7	3.6	8.46e-01	0	40	104	0	60	43789
2026-01-30 04:07:09.16	327.31	11.25	-49.5	-61.7	3.6	8.46e-01	0	40	104	0	60	43758
2026-01-30 04:07:10.17	327.42	11.18	-49.5	-61.7	3.6	8.45e-01	0	40	104	0	60	44102
2026-01-30 04:07:11.18	327.53	11.10	-49.5	-61.7	3.6	8.45e-01	0	40	104	0	60	43784
2026-01-30 04:07:12.19	327.63	11.03	-49.5	-61.6	3.6	8.45e-01	0	40	104	0	60	43658
2026-01-30 04:07:13.20	327.74	10.95	-49.5	-61.7	3.6	8.46e-01	0	40	104	0	60	43985
2026-01-30 04:07:14.21	327.85	10.88	-49.5	-61.7	3.6	8.45e-01	0	40	104	0	60	43744
2026-01-30 04:07:15.22	327.95	10.80	-49.5	-61.7	3.6	8.45e-01	0	40	104	0	60	44148
2026-01-30 04:07:16.23	328.06	10.73	-49.5	-61.7	3.6	8.45e-01	0	40	104	0	60	44029
2026-01-30 04:07:17.24	328.17	10.66	-49.5	-61.7	3.6	8.45e-01	0	40	104	0	60	43865
2026-01-30 04:07:18.25	328.27	10.58	-49.5	-61.7	3.6	8.46e-01	0	40	104	0	60	43833
2026-01-30 04:07:19.26	328.38	10.51	-49.5	-61.7	3.6	8.44e-01	0	40	104	0	60	43931
2026-01-30 04:07:20.27	328.48	10.43	-49.5	-61.7	3.6	8.45e-01	0	40	104	0	60	44142
2026-01-30 04:07:21.28	328.58	10.36	-49.5	-61.7	3.6	8.44e-01	0	40	104	0	60	44014
2026-01-30 04:07:22.29	328.69	10.29	-49.5	-61.7	3.6	8.46e-01	0	40	104	0	60	43958
2026-01-30 04:07:23.30	328.79	10.22	-49.5	-61.7	3.6	8.45e-01	0	40	104	0	60	43935
2026-01-30 04:07:24.31	328.89	10.14	-49.5	-61.7	3.6	8.45e-01	0	40	104	0	60	43986
2026-01-30 04:07:25.32	328.99	10.07	-49.5	-61.7	3.6	8.44e-01	0	40	104	0	60	43907
2026-01-30 04:07:26.34	329.09	10.00	-49.5	-61.7	3.5	8.45e-01	0	40	104	0	60	43910
2026-01-30 04:07:27.34	329.19	9.92	-49.5	-61.7	3.6	8.45e-01	0	40	104	0	60	44005
2026-01-30 04:07:28.35	329.29	9.85	-49.5	-61.7	3.6	8.44e-01	0	40	104	0	60	44030
2026-01-30 04:07:29.36	329.39	9.78	-49.5	-61.7	3.6	8.47e-01	0	40	104	0	60	43867
2026-01-30 04:07:30.37	329.49	9.71	-49.5	-61.7	3.6	8.45e-01	0	40	104	0	60	43761
2026-01-30 04:07:31.38	329.59	9.64	-49.5	-61.7	3.6	8.45e-01	0	40	104	0	60	44131
2026-01-30 04:07:32.39	329.69	9.56	-49.5	-61.7	3.6	8.44e-01	0	40	104	0	60	44025
2026-01-30 04:07:33.41	329.79	9.49	-49.5	-61.7	3.6	8.46e-01	0	40	104	0	60	43750
2026-01-30 04:07:34.42	329.88	9.42	-49.5	-61.7	3.6	8.45e-01	0	40	104	0	60	43924
2026-01-30 04:07:35.43	329.98	9.35	-49.5	-61.7	3.6	8.45e-01	0	40	104	0	60	43788
2026-01-30 04:07:36.44	330.08	9.28	-49.5	-61.7	3.6	8.45e-01	0	40	104	0	60	44048
2026-01-30 04:07:37.45	330.17	9.21	-49.5	-61.7	3.6	8.46e-01	0	40	104	0	60	43913
2026-01-30 04:07:38.46	330.27	9.14	-49.5	-61.7	3.6	8.45e-01	0	40	104	0	60	43897
2026-01-30 04:07:39.47	330.36	9.06	-49.5	-61.7	3.6	8.44e-01	0	40	104	0	60	43962
2026-01-30 04:07:40.48	330.46	8.99	-49.5	-61.7	3.6	8.44e-01	0	40	104	0	60	44015
2026-01-30 04:07:41.49	330.55	8.92	-49.5	-61.7	3.6	8.46e-01	0	40	104	0	60	43924
2026-01-30 04:07:42.49	330.65	8.85	-49.5	-61.7	3.6	8.45e-01	0	40	104	0	60	44051
2026-01-30 04:07:43.50	330.74	8.78	-49.5	-61.7	3.6	8.45e-01	0	40	104	0	60	43939
2026-01-30 04:07:44.51	330.83	8.71	-49.5	-61.7	3.6	8.46e-01	0	40	104	0	60	43862
2026-01-30 04:07:45.52	330.92	8.64	-49.5	-61.7	3.6	8.46e-01	0	40	104	0	60	43949
2026-01-30 04:07:46.53	331.02	8.57	-49.5	-61.7	3.6	8.45e-01	0	40	104	0	60	43971
2026-01-30 04:07:47.54	331.11	8.50	-49.5	-61.7	3.6	8.44e-01	0	40	104	0	60	43816
2026-01-30 04:07:48.55	331.20	8.43	-49.5	-61.7	3.6	8.45e-01	0	40	104	0	60	43982
2026-01-30 04:07:49.56	331.29	8.36	-49.5	-61.7	3.6	8.46e-01	0	40	104	0	60	43924
2026-01-30 04:07:50.57	331.38	8.29	-49.5	-61.7	3.6	8.46e-01	0	40	104	0	60	43938
2026-01-30 04:07:51.58	331.47	8.23	-49.5	-61.7	3.6	8.45e-01	0	40	104	0	60	43848
2026-01-30 04:07:52.59	331.56	8.16	-49.5	-61.7	3.6	8.45e-01	0	40	104	0	60	44084
