passes_logs/2026/01/30/R4.6S_Anadyr/R4.6S_Anadyr__20260130_023017_NOAA_21_JPSS-2_rec.log

#Pass ID: 20260130_023017_NOAA 21 (JPSS-2)
#Satellite: NOAA 21 (JPSS-2)
#Configuration: NOAA-21
#almurnet v.1.7.20251203
#Start time: 2026-01-30 02:30:20

#Version: 2.2.20231116
#Station: R4.6S_Anadyr
#Location: 177.4865 lon 64.73178 lat
#TLE: 1 54234U 22150A   26029.46216196  .00000141  00000+0  87503-4 0  9994
#TLE: 2 54234  98.7512 330.1880 0000955 196.3413 163.7732 14.19540905166865

#Time	Az	El	Level	Level2	SNR	BER	BlckErr	Temp	State	Recorded	gain1	gain2
2026-01-30 02:30:20.59	216.27	0.16	-49.5	-60.9	3.2	1.54e+00	0	38	0	0	60	39063
2026-01-30 02:30:21.60	216.34	0.21	-49.5	-62.4	3.5	1.52e+00	0	38	104	0	60	46414
2026-01-30 02:30:22.61	216.41	0.26	-49.5	-62.4	3.5	1.52e+00	0	38	104	0	60	46262
2026-01-30 02:30:23.62	216.49	0.31	-49.5	-62.4	3.5	1.52e+00	0	38	104	0	60	46394
2026-01-30 02:30:24.63	216.56	0.36	-49.5	-62.4	3.5	1.52e+00	0	38	104	0	60	46289
2026-01-30 02:30:25.64	216.63	0.41	-49.5	-62.4	3.5	1.51e+00	0	38	104	0	60	46257
2026-01-30 02:30:26.65	216.71	0.46	-49.5	-62.4	3.5	1.51e+00	0	38	104	0	60	46393
2026-01-30 02:30:27.66	216.78	0.51	-49.5	-62.5	3.5	1.52e+00	0	38	104	0	60	46609
2026-01-30 02:30:28.67	216.85	0.56	-49.5	-62.4	3.5	1.52e+00	0	38	104	0	60	46467
2026-01-30 02:30:29.69	216.93	0.62	-49.5	-62.4	3.5	1.52e+00	0	38	104	0	60	46325
2026-01-30 02:30:30.69	217.00	0.67	-49.5	-62.4	3.5	1.52e+00	0	38	104	0	60	46307
2026-01-30 02:30:31.71	217.08	0.72	-49.5	-62.4	3.5	1.51e+00	0	38	104	0	60	46302
2026-01-30 02:30:32.72	217.15	0.77	-49.5	-62.4	3.5	1.52e+00	0	38	104	0	60	46336
2026-01-30 02:30:33.73	217.23	0.82	-49.5	-62.4	3.5	1.52e+00	0	38	104	0	60	46361
2026-01-30 02:30:34.74	217.30	0.87	-49.5	-62.4	3.5	1.52e+00	0	38	104	0	60	46458
2026-01-30 02:30:35.75	217.38	0.92	-49.5	-62.4	3.5	1.51e+00	0	38	104	0	60	46346
2026-01-30 02:30:36.76	217.45	0.98	-49.5	-62.4	3.5	1.51e+00	0	38	104	0	60	46479
2026-01-30 02:30:37.77	217.53	1.03	-49.5	-62.5	3.5	1.52e+00	0	38	104	0	60	46666
2026-01-30 02:30:38.78	217.61	1.08	-49.5	-62.4	3.5	1.52e+00	0	38	104	0	60	46426
2026-01-30 02:30:39.79	217.68	1.13	-49.5	-62.5	3.5	1.52e+00	0	38	104	0	60	46550
2026-01-30 02:30:40.80	217.76	1.18	-49.5	-62.4	3.5	1.52e+00	0	38	104	0	60	46358
2026-01-30 02:30:41.81	217.84	1.23	-49.5	-62.4	3.5	1.52e+00	0	38	104	0	60	46242
2026-01-30 02:30:42.83	217.92	1.29	-49.5	-62.4	3.5	1.52e+00	0	38	104	0	60	46288
2026-01-30 02:30:43.84	217.99	1.34	-49.5	-62.4	3.5	1.52e+00	0	38	104	0	60	46462
2026-01-30 02:30:44.85	218.07	1.39	-49.5	-62.4	3.5	1.52e+00	0	39	104	0	60	46497
2026-01-30 02:30:45.86	218.15	1.44	-49.5	-62.4	3.5	1.52e+00	0	39	104	0	60	46471
2026-01-30 02:30:46.87	218.23	1.50	-49.5	-62.4	3.5	1.52e+00	0	38	104	0	60	46424
2026-01-30 02:30:47.88	218.31	1.55	-49.5	-62.5	3.5	1.52e+00	0	39	104	0	60	46577
2026-01-30 02:30:48.89	218.38	1.60	-49.5	-62.5	3.5	1.52e+00	0	38	104	0	60	46743
2026-01-30 02:30:49.90	218.46	1.65	-49.5	-62.5	3.5	1.52e+00	0	38	104	0	60	46652
2026-01-30 02:30:50.91	218.54	1.70	-49.5	-62.4	3.5	1.51e+00	0	39	104	0	60	46448
2026-01-30 02:30:51.92	218.62	1.76	-49.5	-62.4	3.5	1.52e+00	0	39	104	0	60	46417
2026-01-30 02:30:52.93	218.70	1.81	-49.5	-62.4	3.5	1.52e+00	0	39	104	0	60	46378
2026-01-30 02:30:53.94	218.78	1.86	-49.5	-62.4	3.5	1.52e+00	0	39	104	0	60	46480
2026-01-30 02:30:54.95	218.86	1.91	-49.5	-62.4	3.5	1.52e+00	0	39	104	0	60	46513
2026-01-30 02:30:55.96	218.94	1.97	-49.5	-62.4	3.5	1.52e+00	0	39	104	0	60	46088
2026-01-30 02:30:56.97	219.03	2.02	-49.5	-62.4	3.5	1.52e+00	0	39	104	0	60	46243
2026-01-30 02:30:57.98	219.11	2.07	-49.5	-62.5	3.5	1.52e+00	0	39	104	0	60	46538
2026-01-30 02:30:58.99	219.19	2.12	-49.5	-62.4	3.5	1.52e+00	0	39	104	0	60	46471
2026-01-30 02:31:00.00	219.27	2.18	-49.5	-62.4	3.5	1.52e+00	0	39	104	0	60	46384
2026-01-30 02:31:01.01	219.35	2.23	-49.5	-62.5	3.5	1.52e+00	0	39	104	0	60	46544
2026-01-30 02:31:02.02	219.43	2.28	-49.5	-62.4	3.5	1.52e+00	0	39	104	0	60	46493
2026-01-30 02:31:03.03	219.52	2.34	-49.5	-62.4	3.5	1.52e+00	0	39	104	0	60	46384
2026-01-30 02:31:04.04	219.60	2.39	-49.5	-62.5	3.5	1.52e+00	0	39	104	0	60	46640
2026-01-30 02:31:05.06	219.68	2.44	-49.5	-62.4	3.5	1.52e+00	0	39	104	0	60	46430
2026-01-30 02:31:06.07	219.77	2.50	-49.5	-62.4	3.5	1.52e+00	0	39	104	0	60	46486
2026-01-30 02:31:07.08	219.85	2.55	-49.5	-62.4	3.5	1.52e+00	0	39	104	0	60	46414
2026-01-30 02:31:08.09	219.94	2.60	-49.5	-62.5	3.5	1.52e+00	0	39	104	0	60	46581
2026-01-30 02:31:09.10	220.02	2.66	-49.5	-62.4	3.5	1.52e+00	0	39	104	0	60	46420
2026-01-30 02:31:10.11	220.11	2.71	-49.5	-62.5	3.5	1.52e+00	0	39	104	0	60	46549
2026-01-30 02:31:11.12	220.19	2.76	-49.5	-62.4	3.5	1.52e+00	0	39	104	0	60	46474
2026-01-30 02:31:12.13	220.28	2.82	-49.5	-62.5	3.5	1.52e+00	0	39	104	0	60	46549
2026-01-30 02:31:13.14	220.36	2.87	-49.5	-62.5	3.5	1.52e+00	0	39	104	0	60	46571
2026-01-30 02:31:14.15	220.45	2.92	-49.5	-62.4	3.5	1.51e+00	0	39	104	0	60	46498
2026-01-30 02:31:15.16	220.53	2.98	-49.5	-62.4	3.5	1.52e+00	0	39	104	0	60	46470
2026-01-30 02:31:16.17	220.62	3.03	-49.5	-62.4	3.5	1.52e+00	0	39	104	0	60	46386
2026-01-30 02:31:17.18	220.71	3.08	-49.5	-62.4	3.5	1.52e+00	0	39	104	0	60	46463
2026-01-30 02:31:18.19	220.79	3.14	-49.5	-62.5	3.5	1.52e+00	0	39	104	0	60	46600
2026-01-30 02:31:19.20	220.88	3.19	-49.5	-62.5	3.5	1.52e+00	0	39	104	0	60	46628
2026-01-30 02:31:20.21	220.97	3.24	-49.5	-62.4	3.5	1.52e+00	0	39	104	0	60	46381
2026-01-30 02:31:21.22	221.06	3.30	-49.5	-62.4	3.5	1.52e+00	0	39	104	0	60	46336
2026-01-30 02:31:22.23	221.15	3.35	-49.5	-62.4	3.5	1.51e+00	0	39	104	0	60	46463
2026-01-30 02:31:23.24	221.23	3.41	-49.5	-62.5	3.5	1.52e+00	0	39	104	0	60	46561
2026-01-30 02:31:24.25	221.32	3.46	-49.5	-62.4	3.5	1.52e+00	0	39	104	0	60	46425
2026-01-30 02:31:25.26	221.41	3.51	-49.5	-62.5	3.5	1.51e+00	0	39	104	0	60	46573
2026-01-30 02:31:26.27	221.50	3.57	-49.5	-62.4	3.5	1.52e+00	0	39	104	0	60	46258
2026-01-30 02:31:27.28	221.59	3.62	-49.5	-62.4	3.5	1.52e+00	0	39	104	0	60	46381
2026-01-30 02:31:28.29	221.68	3.68	-49.5	-62.5	3.5	1.52e+00	0	39	104	0	60	46610
2026-01-30 02:31:29.30	221.77	3.73	-49.5	-62.4	3.5	1.52e+00	0	39	104	0	60	46432
2026-01-30 02:31:30.31	221.86	3.79	-49.5	-62.4	3.5	1.52e+00	0	39	104	0	60	46370
2026-01-30 02:31:31.32	221.95	3.84	-49.5	-62.4	3.5	1.51e+00	0	39	104	0	60	46276
2026-01-30 02:31:32.33	222.05	3.89	-49.5	-62.4	3.5	1.52e+00	0	39	104	0	60	46387
2026-01-30 02:31:33.35	222.14	3.95	-49.5	-62.5	3.5	1.52e+00	0	39	104	0	60	46544
2026-01-30 02:31:34.35	222.23	4.00	-49.5	-62.4	3.5	1.52e+00	0	39	104	0	60	46502
2026-01-30 02:31:35.37	222.32	4.06	-49.5	-62.5	3.5	1.52e+00	0	39	104	0	60	46548
2026-01-30 02:31:36.38	222.42	4.11	-49.5	-62.4	3.5	1.52e+00	0	39	104	0	60	46386
2026-01-30 02:31:37.39	222.51	4.17	-49.5	-62.4	3.5	1.52e+00	0	39	104	0	60	46421
2026-01-30 02:31:38.40	222.60	4.22	-49.5	-62.4	3.5	1.52e+00	0	39	104	0	60	46340
2026-01-30 02:31:39.41	222.70	4.28	-49.5	-62.4	3.5	1.51e+00	0	39	104	0	60	46414
2026-01-30 02:31:40.42	222.79	4.33	-49.5	-62.4	3.5	1.52e+00	0	39	104	0	60	46321
2026-01-30 02:31:41.43	222.89	4.39	-49.5	-62.5	3.5	1.52e+00	0	39	104	0	60	46676
2026-01-30 02:31:42.44	222.98	4.44	-49.5	-62.4	3.5	1.52e+00	0	39	104	0	60	46077
2026-01-30 02:31:43.45	223.07	4.50	-49.5	-62.4	3.5	1.52e+00	0	39	104	0	60	46410
2026-01-30 02:31:44.46	223.17	4.55	-49.5	-62.5	3.5	1.52e+00	0	39	104	0	60	46583
2026-01-30 02:31:45.47	223.27	4.61	-49.5	-62.4	3.5	1.52e+00	0	39	104	0	60	46507
2026-01-30 02:31:46.48	223.36	4.66	-49.5	-62.4	3.5	1.52e+00	0	39	104	0	60	46473
2026-01-30 02:31:47.49	223.46	4.72	-49.5	-62.4	3.5	1.52e+00	0	39	104	0	60	46232
2026-01-30 02:31:48.50	223.56	4.77	-49.5	-62.4	3.5	1.52e+00	0	39	104	0	60	46381
2026-01-30 02:31:49.51	223.65	4.83	-49.5	-62.4	3.5	1.52e+00	0	39	104	0	60	46373
2026-01-30 02:31:50.52	223.75	4.88	-49.5	-62.4	3.5	1.52e+00	0	39	104	0	60	46297
2026-01-30 02:31:51.53	223.85	4.94	-49.5	-62.4	3.5	1.52e+00	0	39	104	0	60	46382
2026-01-30 02:31:52.54	223.95	4.99	-49.5	-62.4	3.5	1.52e+00	0	39	104	0	60	46348
2026-01-30 02:31:53.55	224.05	5.05	-49.5	-62.4	3.5	1.52e+00	0	39	104	0	60	46528
2026-01-30 02:31:54.56	224.14	5.10	-49.5	-62.5	3.5	1.52e+00	0	39	104	0	60	46538
2026-01-30 02:31:55.57	224.24	5.16	-49.5	-62.4	3.5	1.52e+00	0	39	104	0	60	46494
2026-01-30 02:31:56.58	224.34	5.22	-49.5	-62.4	3.5	1.52e+00	0	39	104	0	60	46365
2026-01-30 02:31:57.59	224.44	5.27	-49.5	-62.4	3.5	1.52e+00	0	39	104	0	60	46383
2026-01-30 02:31:58.60	224.54	5.33	-49.5	-62.4	3.5	1.52e+00	0	39	104	0	60	46295
2026-01-30 02:31:59.61	224.65	5.38	-49.5	-62.4	3.5	1.52e+00	0	39	104	0	60	46371
2026-01-30 02:32:00.62	224.75	5.44	-49.5	-62.5	3.5	1.52e+00	0	39	104	0	60	46572
2026-01-30 02:32:01.63	224.85	5.49	-49.5	-62.4	3.5	1.52e+00	0	39	104	0	60	46531
2026-01-30 02:32:02.64	224.95	5.55	-49.5	-62.5	3.5	1.52e+00	0	39	104	0	60	46563
2026-01-30 02:32:03.65	225.05	5.61	-49.5	-62.4	3.5	1.52e+00	0	39	104	0	60	46445
2026-01-30 02:32:04.66	225.15	5.66	-49.5	-62.4	3.5	1.52e+00	0	39	104	0	60	46433
2026-01-30 02:32:05.67	225.26	5.72	-49.5	-62.4	3.5	1.52e+00	0	39	104	0	60	46368
2026-01-30 02:32:06.68	225.36	5.77	-49.5	-62.4	3.5	1.52e+00	0	39	104	0	60	46373
2026-01-30 02:32:07.69	225.47	5.83	-49.5	-62.4	3.5	1.52e+00	0	39	104	0	60	46496
2026-01-30 02:32:08.70	225.57	5.89	-49.5	-62.5	3.5	1.52e+00	0	39	104	0	60	46550
2026-01-30 02:32:09.72	225.68	5.94	-49.5	-62.5	3.5	1.52e+00	0	39	104	0	60	46553
2026-01-30 02:32:10.73	225.78	6.00	-49.5	-62.4	3.5	1.52e+00	0	39	104	0	60	46359
2026-01-30 02:32:11.73	225.88	6.05	-49.5	-62.4	3.5	1.52e+00	0	39	104	0	60	46269
2026-01-30 02:32:12.74	225.99	6.11	-49.5	-62.4	3.5	1.52e+00	0	39	104	0	60	46273
2026-01-30 02:32:13.75	226.10	6.17	-49.5	-62.4	3.5	1.52e+00	0	39	104	0	60	46411
2026-01-30 02:32:14.76	226.20	6.22	-49.5	-62.4	3.5	1.52e+00	0	39	104	0	60	46428
2026-01-30 02:32:15.78	226.31	6.28	-49.5	-62.4	3.5	1.52e+00	0	39	104	0	60	46421
2026-01-30 02:32:16.79	226.42	6.34	-49.5	-62.4	3.5	1.52e+00	0	39	104	0	60	46445
2026-01-30 02:32:17.80	226.53	6.39	-49.5	-62.4	3.5	1.52e+00	0	39	104	0	60	46387
2026-01-30 02:32:18.81	226.63	6.45	-49.5	-62.4	3.5	1.52e+00	0	39	104	0	60	46443
2026-01-30 02:32:19.82	226.74	6.51	-49.5	-62.5	3.5	1.52e+00	0	39	104	0	60	46625
2026-01-30 02:32:20.83	226.85	6.56	-49.5	-62.4	3.5	1.52e+00	0	39	104	0	60	46425
2026-01-30 02:32:21.84	226.96	6.62	-49.5	-62.4	3.5	1.52e+00	0	39	104	0	60	46445
2026-01-30 02:32:22.85	227.07	6.68	-49.5	-62.4	3.5	1.52e+00	0	39	104	0	60	46378
2026-01-30 02:32:23.86	227.18	6.73	-49.5	-62.4	3.5	1.52e+00	0	39	104	0	60	46298
2026-01-30 02:32:24.87	227.29	6.79	-49.5	-62.4	3.5	1.52e+00	0	39	104	0	60	46273
2026-01-30 02:32:25.88	227.40	6.85	-49.5	-62.4	3.5	1.52e+00	0	39	104	0	60	46442
2026-01-30 02:32:26.89	227.51	6.90	-49.5	-62.4	3.5	1.52e+00	0	39	104	0	60	46377
2026-01-30 02:32:27.90	227.63	6.96	-49.5	-62.4	3.5	1.52e+00	0	39	104	0	60	46287
2026-01-30 02:32:28.91	227.74	7.02	-49.5	-62.4	3.5	1.52e+00	0	39	104	0	60	46357
2026-01-30 02:32:29.92	227.85	7.07	-49.5	-62.4	3.5	1.52e+00	0	39	104	0	60	46395
2026-01-30 02:32:30.93	227.96	7.13	-49.5	-62.5	3.5	1.52e+00	0	39	104	0	60	46564
2026-01-30 02:32:31.94	228.08	7.19	-49.5	-62.5	3.5	1.51e+00	0	39	104	0	60	46538
2026-01-30 02:32:32.95	228.19	7.25	-49.5	-62.4	3.5	1.51e+00	0	39	104	0	60	46217
2026-01-30 02:32:33.96	228.31	7.30	-49.5	-62.4	3.5	1.51e+00	0	39	104	0	60	46192
2026-01-30 02:32:34.97	228.42	7.36	-49.5	-62.4	3.5	1.52e+00	0	39	104	0	60	46405
2026-01-30 02:32:35.98	228.54	7.42	-49.5	-62.4	3.5	1.52e+00	0	39	104	0	60	46490
2026-01-30 02:32:36.99	228.65	7.47	-49.5	-62.4	3.5	1.52e+00	0	39	104	0	60	46516
2026-01-30 02:32:38.00	228.77	7.53	-49.5	-62.4	3.5	1.52e+00	0	39	104	0	60	46446
2026-01-30 02:32:39.01	228.88	7.59	-49.5	-62.4	3.5	1.52e+00	0	39	104	0	60	46445
2026-01-30 02:32:40.02	229.00	7.65	-49.5	-62.4	3.5	1.52e+00	0	39	104	0	60	46440
2026-01-30 02:32:41.03	229.12	7.70	-49.5	-62.4	3.5	1.52e+00	0	39	104	0	60	46373
2026-01-30 02:32:42.04	229.24	7.76	-49.5	-62.4	3.5	1.52e+00	0	39	104	0	60	46428
2026-01-30 02:32:43.05	229.35	7.82	-49.5	-62.4	3.5	1.52e+00	0	39	104	0	60	46359
2026-01-30 02:32:44.07	229.47	7.88	-49.5	-62.4	3.5	1.52e+00	0	39	104	0	60	46441
2026-01-30 02:32:45.08	229.59	7.93	-49.5	-62.4	3.5	1.52e+00	0	39	104	0	60	46373
2026-01-30 02:32:46.09	229.71	7.99	-49.5	-62.4	3.5	1.52e+00	0	39	104	0	60	46285
2026-01-30 02:32:47.10	229.83	8.05	-49.5	-62.4	3.5	1.52e+00	0	39	104	0	60	46520
2026-01-30 02:32:48.11	229.95	8.11	-49.5	-62.4	3.5	1.51e+00	0	39	104	0	60	46247
2026-01-30 02:32:49.12	230.08	8.16	-49.5	-62.4	3.5	1.52e+00	0	39	104	0	60	46360
2026-01-30 02:32:50.13	230.20	8.22	-49.5	-62.4	3.5	1.52e+00	0	39	104	0	60	46465
2026-01-30 02:32:51.14	230.32	8.28	-49.5	-62.4	3.5	1.52e+00	0	39	104	0	60	46390
2026-01-30 02:32:52.15	230.44	8.34	-49.5	-62.4	3.5	1.51e+00	0	39	104	0	60	46400
2026-01-30 02:32:53.16	230.56	8.39	-49.5	-62.5	3.5	1.51e+00	0	39	104	0	60	46581
2026-01-30 02:32:54.17	230.69	8.45	-49.5	-62.4	3.5	1.52e+00	0	39	104	0	60	46480
2026-01-30 02:32:55.18	230.81	8.51	-49.5	-62.4	3.5	1.52e+00	0	39	104	0	60	46225
2026-01-30 02:32:56.19	230.94	8.57	-49.5	-62.4	3.5	1.52e+00	0	39	104	0	60	46321
2026-01-30 02:32:57.20	231.06	8.62	-49.5	-62.4	3.5	1.52e+00	0	39	104	0	60	46526
2026-01-30 02:32:58.21	231.19	8.68	-49.5	-62.4	3.4	1.52e+00	0	39	104	0	60	46380
2026-01-30 02:32:59.22	231.31	8.74	-49.5	-62.4	3.5	1.51e+00	0	39	104	0	60	46491
2026-01-30 02:33:00.23	231.44	8.80	-49.5	-62.4	3.5	1.52e+00	0	39	104	0	60	46415
2026-01-30 02:33:01.24	231.56	8.85	-49.5	-62.4	3.5	1.52e+00	0	39	104	0	60	46234
2026-01-30 02:33:02.25	231.69	8.91	-49.5	-62.5	3.5	1.52e+00	0	39	104	0	60	46696
2026-01-30 02:33:03.26	231.82	8.97	-49.5	-62.4	3.5	1.52e+00	0	39	104	0	60	46341
2026-01-30 02:33:04.27	231.95	9.03	-49.5	-62.4	3.5	1.52e+00	0	39	104	0	60	46370
2026-01-30 02:33:05.28	232.08	9.09	-49.5	-62.5	3.5	1.52e+00	0	39	104	0	60	46580
2026-01-30 02:33:06.29	232.21	9.14	-49.5	-62.4	3.5	1.52e+00	0	39	104	0	60	46484
2026-01-30 02:33:07.30	232.33	9.20	-49.5	-62.4	3.5	1.52e+00	0	39	104	0	60	46285
2026-01-30 02:33:08.31	232.46	9.26	-49.5	-62.5	3.5	1.52e+00	0	39	104	0	60	46647
2026-01-30 02:33:09.32	232.60	9.32	-49.5	-62.4	3.5	1.52e+00	0	39	104	0	60	46510
2026-01-30 02:33:10.33	232.73	9.37	-49.5	-62.5	3.5	1.52e+00	0	39	104	0	60	46689
2026-01-30 02:33:11.34	232.86	9.43	-49.5	-62.5	3.5	1.51e+00	0	39	104	0	60	46571
2026-01-30 02:33:12.35	232.99	9.49	-49.5	-62.5	3.5	1.52e+00	0	39	104	0	60	46613
2026-01-30 02:33:13.36	233.12	9.55	-49.5	-62.4	3.5	1.52e+00	0	39	104	0	60	46316
2026-01-30 02:33:14.37	233.26	9.61	-49.5	-62.4	3.5	1.52e+00	0	39	104	0	60	46352
2026-01-30 02:33:15.38	233.39	9.66	-49.5	-62.5	3.5	1.52e+00	0	39	104	0	60	46606
2026-01-30 02:33:16.39	233.52	9.72	-49.5	-62.4	3.5	1.52e+00	0	39	104	0	60	46238
2026-01-30 02:33:17.40	233.66	9.78	-49.5	-62.4	3.5	1.52e+00	0	39	104	0	60	46459
2026-01-30 02:33:18.41	233.79	9.84	-49.5	-62.4	3.5	1.52e+00	0	39	104	0	60	46514
2026-01-30 02:33:19.42	233.93	9.89	-49.5	-62.4	3.5	1.52e+00	0	39	104	0	60	46361
2026-01-30 02:33:20.43	234.07	9.95	-49.5	-62.4	3.5	1.52e+00	0	39	104	0	60	46405
2026-01-30 02:33:21.44	234.20	10.01	-49.5	-62.5	3.5	1.52e+00	0	39	104	0	60	46568
2026-01-30 02:33:22.45	234.34	10.07	-49.5	-62.4	3.5	1.52e+00	0	39	104	0	60	46490
2026-01-30 02:33:23.46	234.48	10.13	-49.5	-62.4	3.5	1.51e+00	0	39	104	0	60	46352
2026-01-30 02:33:24.47	234.62	10.18	-49.5	-62.4	3.5	1.52e+00	0	39	104	0	60	46438
2026-01-30 02:33:25.48	234.75	10.24	-49.5	-62.4	3.5	1.52e+00	0	39	104	0	60	46434
2026-01-30 02:33:26.49	234.89	10.30	-49.5	-62.4	3.5	1.52e+00	0	39	104	0	60	46457
2026-01-30 02:33:27.50	235.03	10.36	-49.5	-62.4	3.5	1.52e+00	0	39	104	0	60	46419
2026-01-30 02:33:28.51	235.17	10.41	-49.5	-62.4	3.5	1.52e+00	0	39	104	0	60	46442
2026-01-30 02:33:29.52	235.31	10.47	-49.5	-62.4	3.5	1.52e+00	0	39	104	0	60	46402
2026-01-30 02:33:30.53	235.46	10.53	-49.5	-62.4	3.5	1.52e+00	0	39	104	0	60	46268
2026-01-30 02:33:31.55	235.60	10.59	-49.5	-62.5	3.5	1.52e+00	0	39	104	0	60	46557
2026-01-30 02:33:32.56	235.74	10.64	-49.5	-62.4	3.5	1.52e+00	0	39	104	0	60	46506
2026-01-30 02:33:33.57	235.89	10.70	-49.5	-62.4	3.5	1.51e+00	0	39	104	0	60	46226
2026-01-30 02:33:34.58	236.03	10.76	-49.5	-62.4	3.5	1.52e+00	0	39	104	0	60	46416
2026-01-30 02:33:35.59	236.17	10.82	-49.5	-62.5	3.5	1.52e+00	0	39	104	0	60	46636
2026-01-30 02:33:36.60	236.32	10.88	-49.5	-62.4	3.5	1.52e+00	0	39	104	0	60	46484
2026-01-30 02:33:37.60	236.46	10.93	-49.5	-62.4	3.5	1.52e+00	0	39	104	0	60	46490
2026-01-30 02:33:38.61	236.61	10.99	-49.5	-62.4	3.5	1.52e+00	0	39	104	0	60	46436
2026-01-30 02:33:39.63	236.76	11.05	-49.6	-62.4	3.5	1.52e+00	0	39	104	0	60	46472
2026-01-30 02:33:40.64	236.90	11.10	-49.5	-62.4	3.5	1.52e+00	0	39	104	0	60	46516
2026-01-30 02:33:41.65	237.05	11.16	-49.5	-62.5	3.5	1.52e+00	0	39	104	0	60	46675
2026-01-30 02:33:42.66	237.20	11.22	-49.5	-62.4	3.5	1.52e+00	0	39	104	0	60	46501
2026-01-30 02:33:43.67	237.35	11.28	-49.5	-62.4	3.5	1.51e+00	0	39	104	0	60	46462
2026-01-30 02:33:44.68	237.50	11.33	-49.5	-62.4	3.5	1.52e+00	0	39	104	0	60	46393
2026-01-30 02:33:45.69	237.65	11.39	-49.5	-62.4	3.5	1.52e+00	0	39	104	0	60	46354
2026-01-30 02:33:46.70	237.80	11.45	-49.5	-62.4	3.5	1.52e+00	0	39	104	0	60	46525
2026-01-30 02:33:47.71	237.95	11.51	-49.5	-62.4	3.5	1.52e+00	0	39	104	0	60	46498
2026-01-30 02:33:48.72	238.10	11.56	-49.5	-62.4	3.5	1.52e+00	0	39	104	0	60	46292
2026-01-30 02:33:49.73	238.25	11.62	-49.5	-62.5	3.5	1.51e+00	0	39	104	0	60	46677
2026-01-30 02:33:50.74	238.40	11.68	-49.5	-62.4	3.5	1.52e+00	0	39	104	0	60	46378
2026-01-30 02:33:51.75	238.56	11.73	-49.5	-62.4	3.5	1.52e+00	0	39	104	0	60	46511
2026-01-30 02:33:52.76	238.71	11.79	-49.5	-62.4	3.5	1.52e+00	0	39	104	0	60	46243
2026-01-30 02:33:53.77	238.86	11.85	-49.5	-62.4	3.5	1.52e+00	0	39	104	0	60	46177
2026-01-30 02:33:54.78	239.02	11.90	-49.5	-62.4	3.5	1.51e+00	0	39	104	0	60	46410
2026-01-30 02:33:55.79	239.17	11.96	-49.5	-62.5	3.5	1.51e+00	0	39	104	0	60	46566
2026-01-30 02:33:56.80	239.33	12.02	-49.5	-62.4	3.5	1.52e+00	0	39	104	0	60	46485
2026-01-30 02:33:57.81	239.49	12.07	-49.5	-62.4	3.5	1.52e+00	0	39	104	0	60	46487
2026-01-30 02:33:58.82	239.64	12.13	-49.5	-62.4	3.5	1.52e+00	0	39	104	0	60	46435
2026-01-30 02:33:59.83	239.80	12.19	-49.5	-62.4	3.5	1.52e+00	0	39	104	0	60	46515
2026-01-30 02:34:00.84	239.96	12.24	-49.5	-62.4	3.5	1.52e+00	0	39	104	0	60	46359
2026-01-30 02:34:01.85	240.12	12.30	-49.5	-62.5	3.5	1.52e+00	0	39	104	0	60	46676
2026-01-30 02:34:02.86	240.28	12.36	-49.5	-62.5	3.5	1.51e+00	0	39	104	0	60	46647
2026-01-30 02:34:03.87	240.44	12.41	-49.5	-62.5	3.5	1.52e+00	0	39	104	0	60	46695
2026-01-30 02:34:04.88	240.60	12.47	-49.5	-62.4	3.5	1.52e+00	0	39	104	0	60	46438
2026-01-30 02:34:05.89	240.76	12.53	-49.5	-62.4	3.5	1.52e+00	0	39	104	0	60	46345
2026-01-30 02:34:06.90	240.92	12.58	-49.5	-62.5	3.5	1.51e+00	0	39	104	0	60	46536
2026-01-30 02:34:07.91	241.09	12.64	-49.5	-62.4	3.5	1.52e+00	0	39	104	0	60	46525
2026-01-30 02:34:08.93	241.25	12.69	-49.5	-62.4	3.5	1.52e+00	0	39	104	0	60	46392
2026-01-30 02:34:09.93	241.41	12.75	-49.5	-62.4	3.5	1.52e+00	0	39	104	0	60	46372
2026-01-30 02:34:10.94	241.58	12.80	-49.5	-62.4	3.5	1.51e+00	0	39	104	0	60	46399
2026-01-30 02:34:11.95	241.74	12.86	-49.5	-62.5	3.5	1.52e+00	0	39	104	0	60	46640
2026-01-30 02:34:12.97	241.91	12.92	-49.5	-62.5	3.5	1.52e+00	0	39	104	0	60	46556
2026-01-30 02:34:13.97	242.07	12.97	-49.5	-62.4	3.5	1.52e+00	0	39	104	0	60	46423
2026-01-30 02:34:14.98	242.24	13.03	-49.5	-62.4	3.5	1.52e+00	0	39	104	0	60	46373
2026-01-30 02:34:15.99	242.41	13.08	-49.5	-62.4	3.5	1.52e+00	0	39	104	0	60	46356
2026-01-30 02:34:17.00	242.57	13.14	-49.5	-62.4	3.5	1.52e+00	0	39	104	0	60	46294
2026-01-30 02:34:18.01	242.74	13.19	-49.5	-62.4	3.5	1.52e+00	0	39	104	0	60	46509
2026-01-30 02:34:19.02	242.91	13.25	-49.5	-62.4	3.5	1.52e+00	0	39	104	0	60	46393
2026-01-30 02:34:20.03	243.08	13.30	-49.5	-62.5	3.5	1.52e+00	0	39	104	0	60	46565
2026-01-30 02:34:21.04	243.25	13.36	-49.5	-62.5	3.5	1.52e+00	0	39	104	0	60	46553
2026-01-30 02:34:22.05	243.42	13.41	-49.5	-62.4	3.5	1.52e+00	0	39	104	0	60	46454
2026-01-30 02:34:23.06	243.59	13.47	-49.6	-62.4	3.5	1.52e+00	0	39	104	0	60	46406
2026-01-30 02:34:24.07	243.77	13.52	-49.6	-62.5	3.5	1.52e+00	0	39	104	0	60	46540
2026-01-30 02:34:25.09	243.94	13.57	-49.5	-62.4	3.5	1.52e+00	0	39	104	0	60	46468
2026-01-30 02:34:26.10	244.11	13.63	-49.5	-62.4	3.5	1.52e+00	0	39	104	0	60	46429
2026-01-30 02:34:27.10	244.29	13.68	-49.5	-62.4	3.5	1.52e+00	0	39	104	0	60	46487
2026-01-30 02:34:28.12	244.46	13.74	-49.5	-62.5	3.5	1.52e+00	0	39	104	0	60	46574
2026-01-30 02:34:29.13	244.64	13.79	-49.5	-62.4	3.5	1.52e+00	0	39	104	0	60	46396
2026-01-30 02:34:30.14	244.81	13.84	-49.5	-62.4	3.5	1.52e+00	0	39	104	0	60	46451
2026-01-30 02:34:31.15	244.99	13.90	-49.6	-62.5	3.5	1.52e+00	0	39	104	0	60	46590
2026-01-30 02:34:32.15	245.17	13.95	-49.5	-62.4	3.5	1.52e+00	0	39	104	0	60	46436
2026-01-30 02:34:33.17	245.35	14.00	-49.5	-62.4	3.5	1.51e+00	0	39	104	0	60	46520
2026-01-30 02:34:34.18	245.52	14.06	-49.6	-62.5	3.5	1.52e+00	0	39	104	0	60	46600
2026-01-30 02:34:35.19	245.70	14.11	-49.5	-62.4	3.5	1.52e+00	0	39	104	0	60	46257
2026-01-30 02:34:36.20	245.88	14.16	-49.5	-62.4	3.5	1.52e+00	0	39	104	0	60	46451
2026-01-30 02:34:37.21	246.06	14.22	-49.5	-62.5	3.5	1.52e+00	0	39	104	0	60	46570
2026-01-30 02:34:38.22	246.24	14.27	-49.5	-62.5	3.5	1.52e+00	0	39	104	0	60	46544
2026-01-30 02:34:39.23	246.42	14.32	-49.5	-62.4	3.5	1.52e+00	0	39	104	0	60	46384
2026-01-30 02:34:40.24	246.61	14.37	-49.5	-62.4	3.5	1.51e+00	0	39	104	0	60	46432
2026-01-30 02:34:41.25	246.79	14.43	-49.5	-62.5	3.5	1.52e+00	0	39	104	0	60	46667
2026-01-30 02:34:42.26	246.97	14.48	-49.5	-62.5	3.5	1.51e+00	0	39	104	0	60	46641
2026-01-30 02:34:43.27	247.16	14.53	-49.5	-62.4	3.5	1.52e+00	0	39	104	0	60	46327
2026-01-30 02:34:44.28	247.34	14.58	-49.5	-62.5	3.5	1.52e+00	0	39	104	0	60	46554
2026-01-30 02:34:45.29	247.53	14.63	-49.5	-62.5	3.5	1.52e+00	0	39	104	0	60	46586
2026-01-30 02:34:46.30	247.71	14.68	-49.5	-62.4	3.5	1.52e+00	0	39	104	0	60	46334
2026-01-30 02:34:47.31	247.90	14.73	-49.5	-62.5	3.5	1.52e+00	0	39	104	0	60	46791
2026-01-30 02:34:48.32	248.09	14.79	-49.5	-62.4	3.5	1.52e+00	0	39	104	0	60	46296
2026-01-30 02:34:49.33	248.27	14.84	-49.6	-62.4	3.5	1.51e+00	0	39	104	0	60	46387
2026-01-30 02:34:50.34	248.46	14.89	-49.5	-62.4	3.5	1.51e+00	0	39	104	0	60	46468
2026-01-30 02:34:51.35	248.65	14.94	-49.5	-62.4	3.5	1.51e+00	0	39	104	0	60	46291
2026-01-30 02:34:52.36	248.84	14.99	-49.5	-62.5	3.5	1.52e+00	0	39	104	0	60	46645
2026-01-30 02:34:53.37	249.03	15.04	-49.5	-62.4	3.5	1.52e+00	0	39	104	0	60	46244
2026-01-30 02:34:54.38	249.22	15.09	-49.5	-62.4	3.5	1.52e+00	0	39	104	0	60	46437
2026-01-30 02:34:55.38	249.41	15.14	-49.5	-62.5	3.5	1.52e+00	0	39	104	0	60	46605
2026-01-30 02:34:56.40	249.60	15.19	-49.5	-62.4	3.5	1.51e+00	0	39	104	0	60	46273
2026-01-30 02:34:57.40	249.79	15.23	-49.5	-62.4	3.5	1.52e+00	0	39	104	0	60	46390
2026-01-30 02:34:58.41	249.99	15.28	-49.5	-62.5	3.5	1.52e+00	0	39	104	0	60	46646
2026-01-30 02:34:59.43	250.18	15.33	-49.5	-62.4	3.5	1.52e+00	0	39	104	0	60	46511
2026-01-30 02:35:00.44	250.38	15.38	-49.5	-62.4	3.5	1.51e+00	0	39	104	0	60	46416
2026-01-30 02:35:01.45	250.57	15.43	-49.5	-62.4	3.5	1.52e+00	0	39	104	0	60	46364
2026-01-30 02:35:02.46	250.77	15.48	-49.5	-62.4	3.5	1.52e+00	0	39	104	0	60	46380
2026-01-30 02:35:03.46	250.96	15.53	-49.5	-62.4	3.5	1.52e+00	0	39	104	0	60	46421
2026-01-30 02:35:04.47	251.16	15.57	-49.6	-62.4	3.5	1.52e+00	0	39	104	0	60	46506
2026-01-30 02:35:05.48	251.36	15.62	-49.6	-62.4	3.5	1.52e+00	0	39	104	0	60	46345
2026-01-30 02:35:06.49	251.55	15.67	-49.5	-62.4	3.5	1.52e+00	0	39	104	0	60	46288
2026-01-30 02:35:07.50	251.75	15.72	-49.5	-62.4	3.5	1.51e+00	0	39	104	0	60	46351
2026-01-30 02:35:08.51	251.95	15.76	-49.5	-62.5	3.5	1.51e+00	0	39	104	0	60	46554
2026-01-30 02:35:09.52	252.15	15.81	-49.5	-62.4	3.5	1.51e+00	0	39	104	0	60	46342
2026-01-30 02:35:10.53	252.35	15.86	-49.5	-62.4	3.5	1.52e+00	0	39	104	0	60	46450
2026-01-30 02:35:11.55	252.56	15.90	-49.5	-62.4	3.5	1.52e+00	0	39	104	0	60	46345
2026-01-30 02:35:12.55	252.76	15.95	-49.5	-62.5	3.5	1.52e+00	0	39	104	0	60	46594
2026-01-30 02:35:13.57	252.96	15.99	-49.5	-62.4	3.5	1.52e+00	0	39	104	0	60	46479
2026-01-30 02:35:14.58	253.16	16.04	-49.5	-62.5	3.5	1.52e+00	0	39	104	0	60	46668
2026-01-30 02:35:15.59	253.37	16.08	-49.5	-62.4	3.5	1.52e+00	0	39	104	0	60	46477
2026-01-30 02:35:16.60	253.57	16.13	-49.5	-62.5	3.5	1.52e+00	0	39	104	0	60	46564
2026-01-30 02:35:17.61	253.77	16.17	-49.6	-62.5	3.5	1.52e+00	0	39	104	0	60	46552
2026-01-30 02:35:18.62	253.98	16.22	-49.5	-62.4	3.5	1.52e+00	0	39	104	0	60	46330
2026-01-30 02:35:19.63	254.19	16.26	-49.5	-62.4	3.5	1.52e+00	0	39	104	0	60	46509
2026-01-30 02:35:20.64	254.39	16.31	-49.5	-62.4	3.5	1.52e+00	0	39	104	0	60	46406
2026-01-30 02:35:21.65	254.60	16.35	-49.5	-62.4	3.5	1.52e+00	0	39	104	0	60	46418
2026-01-30 02:35:22.66	254.81	16.39	-49.5	-62.5	3.5	1.52e+00	0	39	104	0	60	46586
2026-01-30 02:35:23.67	255.01	16.43	-49.5	-62.4	3.5	1.52e+00	0	39	104	0	60	46420
2026-01-30 02:35:24.68	255.22	16.48	-49.5	-62.4	3.5	1.52e+00	0	39	104	0	60	46294
2026-01-30 02:35:25.69	255.43	16.52	-49.6	-62.4	3.5	1.52e+00	0	39	104	0	60	46435
2026-01-30 02:35:26.70	255.64	16.56	-49.6	-62.4	3.5	1.52e+00	0	39	104	0	60	46497
2026-01-30 02:35:27.71	255.85	16.60	-49.6	-62.5	3.5	1.52e+00	0	39	104	0	60	46597
2026-01-30 02:35:28.72	256.06	16.65	-49.5	-62.5	3.5	1.52e+00	0	39	104	0	60	46627
2026-01-30 02:35:29.73	256.27	16.69	-49.5	-62.5	3.5	1.52e+00	0	39	104	0	60	46579
2026-01-30 02:35:30.74	256.49	16.73	-49.5	-62.5	3.5	1.51e+00	0	39	104	0	60	46590
2026-01-30 02:35:31.75	256.70	16.77	-49.6	-62.5	3.5	1.52e+00	0	39	104	0	60	46609
2026-01-30 02:35:32.76	256.91	16.81	-49.5	-62.5	3.5	1.52e+00	0	39	104	0	60	46560
2026-01-30 02:35:33.77	257.13	16.85	-49.5	-62.4	3.5	1.52e+00	0	39	104	0	60	46430
2026-01-30 02:35:34.78	257.34	16.89	-49.5	-62.5	3.5	1.52e+00	0	39	104	0	60	46724
2026-01-30 02:35:35.79	257.56	16.93	-49.6	-62.5	3.5	1.51e+00	0	39	104	0	60	46662
2026-01-30 02:35:36.80	257.77	16.97	-49.6	-62.4	3.5	1.51e+00	0	39	104	0	60	46495
2026-01-30 02:35:37.81	257.99	17.00	-49.6	-62.5	3.5	1.52e+00	0	39	104	0	60	46638
2026-01-30 02:35:38.82	258.20	17.04	-49.5	-62.4	3.5	1.52e+00	0	39	104	0	60	46507
2026-01-30 02:35:39.84	258.42	17.08	-49.5	-62.4	3.5	1.51e+00	0	39	104	0	60	46320
2026-01-30 02:35:40.85	258.64	17.12	-49.6	-62.5	3.5	1.52e+00	0	39	104	0	60	46648
2026-01-30 02:35:41.86	258.86	17.16	-49.6	-62.5	3.5	1.52e+00	0	39	104	0	60	46626
2026-01-30 02:35:42.87	259.08	17.19	-49.6	-62.4	3.5	1.51e+00	0	39	104	0	60	46317
2026-01-30 02:35:43.88	259.30	17.23	-49.5	-62.5	3.5	1.52e+00	0	39	104	0	60	46582
2026-01-30 02:35:44.89	259.52	17.27	-49.6	-62.5	3.5	1.51e+00	0	39	104	0	60	46580
2026-01-30 02:35:45.90	259.74	17.30	-49.5	-62.4	3.5	1.52e+00	0	39	104	0	60	46247
2026-01-30 02:35:46.91	259.96	17.34	-49.5	-62.4	3.5	1.52e+00	0	39	104	0	60	46464
2026-01-30 02:35:47.92	260.18	17.37	-49.6	-62.5	3.5	1.52e+00	0	39	104	0	60	46599
2026-01-30 02:35:48.93	260.40	17.41	-49.6	-62.4	3.5	1.52e+00	0	39	104	0	60	46499
2026-01-30 02:35:49.94	260.62	17.44	-49.6	-62.4	3.5	1.52e+00	0	39	104	0	60	46427
2026-01-30 02:35:50.95	260.84	17.48	-49.5	-62.5	3.5	1.52e+00	0	39	104	0	60	46649
2026-01-30 02:35:51.96	261.07	17.51	-49.6	-62.4	3.5	1.52e+00	0	39	104	0	60	46465
2026-01-30 02:35:52.97	261.29	17.54	-49.5	-62.4	3.5	1.52e+00	0	39	104	0	60	46515
2026-01-30 02:35:53.98	261.51	17.58	-49.5	-62.5	3.5	1.52e+00	0	39	104	0	60	46589
2026-01-30 02:35:54.99	261.74	17.61	-49.6	-62.5	3.5	1.52e+00	0	39	104	0	60	46573
2026-01-30 02:35:56.00	261.96	17.64	-49.6	-62.4	3.5	1.51e+00	0	39	104	0	60	46344
2026-01-30 02:35:57.01	262.19	17.67	-49.6	-62.4	3.5	1.52e+00	0	39	104	0	60	46515
2026-01-30 02:35:58.02	262.41	17.71	-49.6	-62.4	3.5	1.52e+00	0	39	104	0	60	46393
2026-01-30 02:35:59.02	262.64	17.74	-49.6	-62.4	3.5	1.51e+00	0	39	104	0	60	46482
2026-01-30 02:36:00.04	262.87	17.77	-49.6	-62.4	3.5	1.52e+00	0	39	104	0	60	46452
2026-01-30 02:36:01.05	263.09	17.80	-49.6	-62.4	3.5	1.52e+00	0	39	104	0	60	46531
2026-01-30 02:36:02.06	263.32	17.83	-49.6	-62.4	3.5	1.52e+00	0	39	104	0	60	46484
2026-01-30 02:36:03.07	263.55	17.86	-49.5	-62.4	3.5	1.52e+00	0	39	104	0	60	46155
2026-01-30 02:36:04.08	263.78	17.89	-49.6	-62.4	3.5	1.51e+00	0	39	104	0	60	46291
2026-01-30 02:36:05.09	264.01	17.91	-49.6	-62.5	3.5	1.52e+00	0	39	104	0	60	46766
2026-01-30 02:36:06.10	264.24	17.94	-49.6	-62.4	3.5	1.52e+00	0	39	104	0	60	46285
2026-01-30 02:36:07.11	264.47	17.97	-49.6	-62.4	3.5	1.51e+00	0	39	104	0	60	46518
2026-01-30 02:36:08.12	264.70	18.00	-49.6	-62.4	3.5	1.52e+00	0	39	104	0	60	46504
2026-01-30 02:36:09.13	264.93	18.03	-49.5	-62.4	3.5	1.51e+00	0	39	104	0	60	46318
2026-01-30 02:36:10.14	265.16	18.05	-49.6	-62.4	3.5	1.52e+00	0	39	104	0	60	46347
2026-01-30 02:36:11.15	265.39	18.08	-49.6	-62.5	3.5	1.52e+00	0	39	104	0	60	46582
2026-01-30 02:36:12.16	265.62	18.10	-49.6	-62.4	3.5	1.51e+00	0	39	104	0	60	46434
2026-01-30 02:36:13.17	265.85	18.13	-49.6	-62.4	3.5	1.52e+00	0	39	104	0	60	46307
2026-01-30 02:36:14.18	266.09	18.15	-49.5	-62.4	3.5	1.52e+00	0	39	104	0	60	46505
2026-01-30 02:36:15.19	266.32	18.18	-49.6	-62.4	3.5	1.52e+00	0	39	104	0	60	46469
2026-01-30 02:36:16.20	266.55	18.20	-49.6	-62.4	3.5	1.52e+00	0	39	104	0	60	46520
2026-01-30 02:36:17.21	266.79	18.23	-49.6	-62.4	3.5	1.52e+00	0	39	104	0	60	46514
2026-01-30 02:36:18.22	267.02	18.25	-49.6	-62.4	3.5	1.52e+00	0	39	104	0	60	46514
2026-01-30 02:36:19.23	267.25	18.27	-49.5	-62.4	3.5	1.52e+00	0	39	104	0	60	46381
2026-01-30 02:36:20.24	267.49	18.30	-49.6	-62.4	3.5	1.51e+00	0	39	104	0	60	46470
2026-01-30 02:36:21.25	267.72	18.32	-49.6	-62.5	3.5	1.51e+00	0	39	104	0	60	46662
2026-01-30 02:36:22.26	267.96	18.34	-49.5	-62.4	3.5	1.51e+00	0	39	104	0	60	46488
2026-01-30 02:36:23.27	268.19	18.36	-49.5	-62.5	3.5	1.52e+00	0	39	104	0	60	46633
2026-01-30 02:36:24.28	268.43	18.38	-49.5	-62.4	3.5	1.52e+00	0	39	104	0	60	46318
2026-01-30 02:36:25.29	268.67	18.40	-49.6	-62.5	3.5	1.52e+00	0	39	104	0	60	46617
2026-01-30 02:36:26.30	268.90	18.42	-49.6	-62.4	3.5	1.51e+00	0	39	104	0	60	46283
2026-01-30 02:36:27.31	269.14	18.44	-49.6	-62.4	3.5	1.51e+00	0	39	104	0	60	46470
2026-01-30 02:36:28.32	269.38	18.46	-49.6	-62.4	3.5	1.52e+00	0	39	104	0	60	46401
2026-01-30 02:36:29.33	269.61	18.48	-49.6	-62.4	3.5	1.52e+00	0	39	104	0	60	46412
2026-01-30 02:36:30.34	269.85	18.49	-49.6	-62.4	3.5	1.52e+00	0	39	104	0	60	46440
2026-01-30 02:36:31.35	270.09	18.51	-49.6	-62.4	3.5	1.52e+00	0	39	104	0	60	46490
2026-01-30 02:36:32.36	270.33	18.53	-49.6	-62.4	3.5	1.52e+00	0	39	104	0	60	46519
2026-01-30 02:36:33.37	270.57	18.54	-49.6	-62.4	3.5	1.52e+00	0	39	104	0	60	46405
2026-01-30 02:36:34.38	270.80	18.56	-49.6	-62.5	3.5	1.52e+00	0	39	104	0	60	46543
2026-01-30 02:36:35.39	271.04	18.58	-49.6	-62.4	3.5	1.52e+00	0	39	104	0	60	46427
2026-01-30 02:36:36.40	271.28	18.59	-49.6	-62.4	3.5	1.52e+00	0	39	104	0	60	46400
2026-01-30 02:36:37.41	271.52	18.61	-49.5	-62.5	3.5	1.52e+00	0	39	104	0	60	46560
2026-01-30 02:36:38.42	271.76	18.62	-49.6	-62.4	3.5	1.52e+00	0	39	104	0	60	46369
2026-01-30 02:36:39.43	272.00	18.63	-49.6	-62.5	3.5	1.52e+00	0	39	104	0	60	46548
2026-01-30 02:36:40.45	272.24	18.65	-49.6	-62.4	3.5	1.52e+00	0	39	104	0	60	46285
2026-01-30 02:36:41.45	272.48	18.66	-49.6	-62.5	3.5	1.52e+00	0	39	104	0	60	46643
2026-01-30 02:36:42.47	272.72	18.67	-49.6	-62.5	3.5	1.52e+00	0	39	104	0	60	46602
2026-01-30 02:36:43.48	272.96	18.68	-49.6	-62.5	3.5	1.52e+00	0	39	104	0	60	46595
2026-01-30 02:36:44.49	273.20	18.69	-49.6	-62.5	3.5	1.51e+00	0	39	104	0	60	46613
2026-01-30 02:36:45.50	273.44	18.70	-49.5	-62.4	3.5	1.52e+00	0	39	104	0	60	46370
2026-01-30 02:36:46.51	273.69	18.71	-49.6	-62.5	3.5	1.52e+00	0	39	104	0	60	46599
2026-01-30 02:36:47.52	273.93	18.72	-49.6	-62.4	3.5	1.52e+00	0	39	104	0	60	46485
2026-01-30 02:36:48.53	274.17	18.73	-49.6	-62.4	3.5	1.52e+00	0	39	104	0	60	46455
2026-01-30 02:36:49.54	274.41	18.74	-49.6	-62.5	3.5	1.52e+00	0	39	104	0	60	46543
2026-01-30 02:36:50.55	274.65	18.75	-49.6	-62.4	3.5	1.52e+00	0	39	104	0	60	46248
2026-01-30 02:36:51.56	274.89	18.76	-49.6	-62.5	3.5	1.51e+00	0	39	104	0	60	46607
2026-01-30 02:36:52.57	275.13	18.76	-49.5	-62.4	3.5	1.52e+00	0	39	104	0	60	46496
2026-01-30 02:36:53.58	275.38	18.77	-49.6	-62.5	3.5	1.52e+00	0	39	104	0	60	46592
2026-01-30 02:36:54.59	275.62	18.78	-49.5	-62.4	3.5	1.52e+00	0	39	104	0	60	46491
2026-01-30 02:36:55.60	275.86	18.78	-49.6	-62.4	3.5	1.52e+00	0	39	104	0	60	46514
2026-01-30 02:36:56.61	276.10	18.79	-49.6	-62.4	3.5	1.52e+00	0	39	104	0	60	46505
2026-01-30 02:36:57.62	276.34	18.79	-49.6	-62.4	3.5	1.52e+00	0	39	104	0	60	46269
2026-01-30 02:36:58.63	276.59	18.80	-49.5	-62.4	3.5	1.52e+00	0	39	104	0	60	46430
2026-01-30 02:36:59.64	276.83	18.80	-49.6	-62.4	3.5	1.52e+00	0	39	104	0	60	46368
2026-01-30 02:37:00.65	277.07	18.80	-49.6	-62.4	3.5	1.52e+00	0	39	104	0	60	46371
2026-01-30 02:37:01.66	277.31	18.81	-49.6	-62.4	3.5	1.52e+00	0	39	104	0	60	46348
2026-01-30 02:37:02.67	277.56	18.81	-49.6	-62.5	3.5	1.52e+00	0	39	104	0	60	46563
2026-01-30 02:37:03.67	277.80	18.81	-49.5	-62.5	3.5	1.52e+00	0	39	104	0	60	46686
2026-01-30 02:37:04.68	278.04	18.81	-49.6	-62.4	3.5	1.51e+00	0	39	104	0	60	46382
2026-01-30 02:37:05.69	278.28	18.81	-49.6	-62.5	3.5	1.52e+00	0	39	104	0	60	46540
2026-01-30 02:37:06.70	278.52	18.81	-49.6	-62.5	3.5	1.52e+00	0	39	104	0	60	46635
2026-01-30 02:37:07.71	278.77	18.81	-49.6	-62.4	3.5	1.52e+00	0	39	104	0	60	46412
2026-01-30 02:37:08.72	279.01	18.81	-49.6	-62.5	3.5	1.52e+00	0	39	104	0	60	46600
2026-01-30 02:37:09.73	279.25	18.81	-49.6	-62.5	3.5	1.52e+00	0	39	104	0	60	46630
2026-01-30 02:37:10.74	279.49	18.81	-49.6	-62.4	3.5	1.51e+00	0	39	104	0	60	46277
2026-01-30 02:37:11.75	279.73	18.81	-49.6	-62.5	3.5	1.52e+00	0	39	104	0	60	46566
2026-01-30 02:37:12.76	279.98	18.80	-49.5	-62.5	3.5	1.52e+00	0	39	104	0	60	46569
2026-01-30 02:37:13.77	280.22	18.80	-49.6	-62.4	3.5	1.52e+00	0	39	104	0	60	46159
2026-01-30 02:37:14.78	280.46	18.80	-49.6	-62.4	3.5	1.52e+00	0	39	104	0	60	46359
2026-01-30 02:37:15.79	280.70	18.79	-49.6	-62.4	3.5	1.52e+00	0	39	104	0	60	46286
2026-01-30 02:37:16.80	280.95	18.79	-49.6	-62.4	3.5	1.52e+00	0	39	104	0	60	46525
2026-01-30 02:37:17.81	281.19	18.78	-49.6	-62.5	3.5	1.52e+00	0	39	104	0	60	46831
2026-01-30 02:37:18.82	281.43	18.78	-49.5	-62.5	3.5	1.52e+00	0	39	104	0	60	46552
2026-01-30 02:37:19.84	281.67	18.77	-49.6	-62.4	3.5	1.52e+00	0	39	104	0	60	46439
2026-01-30 02:37:20.85	281.92	18.76	-49.6	-62.4	3.5	1.52e+00	0	39	104	0	60	46423
2026-01-30 02:37:21.86	282.16	18.76	-49.6	-62.5	3.5	1.52e+00	0	39	104	0	60	46726
2026-01-30 02:37:22.87	282.40	18.75	-49.5	-62.5	3.5	1.52e+00	0	39	104	0	60	46608
2026-01-30 02:37:23.88	282.64	18.74	-49.6	-62.5	3.5	1.52e+00	0	39	104	0	60	46600
2026-01-30 02:37:24.89	282.88	18.73	-49.6	-62.4	3.5	1.52e+00	0	39	104	0	60	46315
2026-01-30 02:37:25.90	283.12	18.72	-49.6	-62.5	3.5	1.52e+00	0	39	104	0	60	46706
2026-01-30 02:37:26.91	283.36	18.71	-49.6	-62.4	3.5	1.52e+00	0	39	104	0	60	46516
2026-01-30 02:37:27.92	283.60	18.70	-49.5	-62.5	3.5	1.52e+00	0	39	104	0	60	46645
2026-01-30 02:37:28.93	283.84	18.69	-49.6	-62.4	3.5	1.52e+00	0	39	104	0	60	46334
2026-01-30 02:37:29.94	284.08	18.68	-49.5	-62.4	3.5	1.52e+00	0	39	104	0	60	46523
2026-01-30 02:37:30.95	284.32	18.67	-49.5	-62.5	3.5	1.51e+00	0	39	104	0	60	46582
2026-01-30 02:37:31.96	284.56	18.66	-49.6	-62.5	3.5	1.52e+00	0	39	104	0	60	46642
2026-01-30 02:37:32.97	284.80	18.65	-49.6	-62.5	3.5	1.52e+00	0	39	104	0	60	46598
2026-01-30 02:37:33.98	285.04	18.63	-49.6	-62.4	3.5	1.52e+00	0	39	104	0	60	46293
2026-01-30 02:37:34.99	285.28	18.62	-49.6	-62.4	3.5	1.51e+00	0	39	104	0	60	46318
2026-01-30 02:37:36.00	285.52	18.60	-49.6	-62.5	3.5	1.52e+00	0	39	104	0	60	46582
2026-01-30 02:37:37.01	285.76	18.59	-49.6	-62.5	3.5	1.52e+00	0	39	104	0	60	46562
2026-01-30 02:37:38.02	286.00	18.58	-49.6	-62.5	3.5	1.52e+00	0	39	104	0	60	46602
2026-01-30 02:37:39.03	286.24	18.56	-49.6	-62.5	3.5	1.52e+00	0	39	104	0	60	46553
2026-01-30 02:37:40.04	286.48	18.54	-49.6	-62.5	3.5	1.52e+00	0	39	104	0	60	46660
2026-01-30 02:37:41.05	286.71	18.53	-49.6	-62.5	3.5	1.52e+00	0	39	104	0	60	46673
2026-01-30 02:37:42.06	286.95	18.51	-49.6	-62.5	3.5	1.52e+00	0	39	104	0	60	46565
2026-01-30 02:37:43.07	287.19	18.49	-49.6	-62.4	3.5	1.52e+00	0	39	104	0	60	46409
2026-01-30 02:37:44.09	287.43	18.48	-49.6	-62.4	3.5	1.52e+00	0	39	104	0	60	46377
2026-01-30 02:37:45.10	287.67	18.46	-49.6	-62.4	3.5	1.52e+00	0	39	104	0	60	46465
2026-01-30 02:37:46.11	287.90	18.44	-49.6	-62.5	3.5	1.52e+00	0	39	104	0	60	46558
2026-01-30 02:37:47.12	288.14	18.42	-49.6	-62.5	3.5	1.51e+00	0	39	104	0	60	46618
2026-01-30 02:37:48.13	288.38	18.40	-49.6	-62.4	3.5	1.52e+00	0	39	104	0	60	46505
2026-01-30 02:37:49.14	288.61	18.38	-49.6	-62.4	3.5	1.52e+00	0	39	104	0	60	46430
2026-01-30 02:37:50.15	288.85	18.36	-49.6	-62.5	3.5	1.52e+00	0	39	104	0	60	46542
2026-01-30 02:37:51.16	289.08	18.34	-49.5	-62.4	3.5	1.52e+00	0	39	104	0	60	46371
2026-01-30 02:37:52.17	289.32	18.32	-49.6	-62.4	3.5	1.52e+00	0	39	104	0	60	46469
2026-01-30 02:37:53.18	289.55	18.30	-49.6	-62.5	3.5	1.52e+00	0	39	104	0	60	46666
2026-01-30 02:37:54.19	289.79	18.27	-49.6	-62.4	3.5	1.52e+00	0	39	104	0	60	46365
2026-01-30 02:37:55.21	290.02	18.25	-49.6	-62.5	3.5	1.52e+00	0	39	104	0	60	46768
2026-01-30 02:37:56.22	290.25	18.23	-49.6	-62.4	3.5	1.52e+00	0	39	104	0	60	46452
2026-01-30 02:37:57.23	290.49	18.20	-49.6	-62.4	3.5	1.52e+00	0	39	104	0	60	46474
2026-01-30 02:37:58.24	290.72	18.18	-49.6	-62.4	3.5	1.52e+00	0	39	104	0	60	46357
2026-01-30 02:37:59.25	290.95	18.15	-49.6	-62.5	3.5	1.52e+00	0	39	104	0	60	46578
2026-01-30 02:38:00.26	291.18	18.13	-49.6	-62.4	3.5	1.52e+00	0	39	104	0	60	46264
2026-01-30 02:38:01.27	291.42	18.10	-49.6	-62.4	3.5	1.52e+00	0	39	104	0	60	46530
2026-01-30 02:38:02.28	291.65	18.08	-49.5	-62.5	3.5	1.52e+00	0	39	104	0	60	46673
2026-01-30 02:38:03.29	291.88	18.05	-49.6	-62.5	3.5	1.52e+00	0	39	104	0	60	46636
2026-01-30 02:38:04.30	292.11	18.03	-49.6	-62.5	3.5	1.52e+00	0	39	104	0	60	46587
2026-01-30 02:38:05.31	292.34	18.00	-49.6	-62.4	3.5	1.52e+00	0	39	104	0	60	46109
2026-01-30 02:38:06.32	292.57	17.97	-49.6	-62.5	3.5	1.52e+00	0	39	104	0	60	46634
2026-01-30 02:38:07.33	292.80	17.94	-49.5	-62.4	3.5	1.52e+00	0	39	104	0	60	46492
2026-01-30 02:38:08.34	293.03	17.92	-49.6	-62.4	3.5	1.52e+00	0	39	104	0	60	46396
2026-01-30 02:38:09.35	293.25	17.89	-49.6	-62.5	3.5	1.52e+00	0	39	104	0	60	46569
2026-01-30 02:38:10.36	293.48	17.86	-49.6	-62.4	3.5	1.52e+00	0	39	104	0	60	46503
2026-01-30 02:38:11.37	293.71	17.83	-49.6	-62.4	3.5	1.52e+00	0	39	104	0	60	46290
2026-01-30 02:38:12.38	293.94	17.80	-49.6	-62.5	3.5	1.52e+00	0	39	104	0	60	46567
2026-01-30 02:38:13.39	294.16	17.77	-49.6	-62.5	3.5	1.51e+00	0	39	104	0	60	46595
2026-01-30 02:38:14.40	294.39	17.74	-49.6	-62.4	3.5	1.52e+00	0	39	104	0	60	46481
2026-01-30 02:38:15.41	294.62	17.71	-49.6	-62.4	3.5	1.52e+00	0	39	104	0	60	46487
2026-01-30 02:38:16.42	294.84	17.67	-49.6	-62.5	3.5	1.52e+00	0	39	104	0	60	46576
2026-01-30 02:38:17.43	295.07	17.64	-49.6	-62.5	3.5	1.52e+00	0	39	104	0	60	46778
2026-01-30 02:38:18.44	295.29	17.61	-49.6	-62.5	3.5	1.52e+00	0	39	104	0	60	46713
2026-01-30 02:38:19.45	295.51	17.58	-49.6	-62.5	3.5	1.52e+00	0	39	104	0	60	46621
2026-01-30 02:38:20.46	295.74	17.55	-49.6	-62.5	3.5	1.52e+00	0	39	104	0	60	46652
2026-01-30 02:38:21.48	295.96	17.51	-49.6	-62.5	3.5	1.52e+00	0	39	104	0	60	46568
2026-01-30 02:38:22.48	296.18	17.48	-49.6	-62.5	3.5	1.52e+00	0	39	104	0	60	46645
2026-01-30 02:38:23.49	296.40	17.44	-49.6	-62.4	3.5	1.51e+00	0	39	104	0	60	46367
2026-01-30 02:38:24.51	296.63	17.41	-49.6	-62.4	3.5	1.52e+00	0	39	104	0	60	46466
2026-01-30 02:38:25.52	296.85	17.37	-49.6	-62.5	3.5	1.52e+00	0	39	104	0	60	46622
2026-01-30 02:38:26.53	297.07	17.34	-49.6	-62.4	3.5	1.52e+00	0	39	104	0	60	46441
2026-01-30 02:38:27.54	297.29	17.30	-49.6	-62.4	3.5	1.52e+00	0	39	104	0	60	46403
2026-01-30 02:38:28.55	297.51	17.27	-49.6	-62.5	3.5	1.52e+00	0	39	104	0	60	46537
2026-01-30 02:38:29.56	297.73	17.23	-49.6	-62.4	3.5	1.52e+00	0	39	104	0	60	46449
2026-01-30 02:38:30.57	297.95	17.20	-49.6	-62.4	3.5	1.52e+00	0	39	104	0	60	46332
2026-01-30 02:38:31.58	298.16	17.16	-49.5	-62.4	3.5	1.52e+00	0	39	104	0	60	46342
2026-01-30 02:38:32.59	298.38	17.12	-49.6	-62.5	3.5	1.51e+00	0	39	104	0	60	46598
2026-01-30 02:38:33.60	298.60	17.08	-49.5	-62.4	3.5	1.52e+00	0	39	104	0	60	46311
2026-01-30 02:38:34.61	298.81	17.05	-49.6	-62.5	3.5	1.52e+00	0	39	104	0	60	46628
2026-01-30 02:38:35.62	299.03	17.01	-49.6	-62.4	3.5	1.52e+00	0	39	104	0	60	46513
2026-01-30 02:38:36.63	299.24	16.97	-49.6	-62.4	3.5	1.52e+00	0	39	104	0	60	46482
2026-01-30 02:38:37.64	299.46	16.93	-49.6	-62.5	3.5	1.52e+00	0	39	104	0	60	46546
2026-01-30 02:38:38.65	299.67	16.89	-49.6	-62.4	3.5	1.52e+00	0	39	104	0	60	46476
2026-01-30 02:38:39.66	299.89	16.85	-49.6	-62.4	3.5	1.52e+00	0	39	104	0	60	46416
2026-01-30 02:38:40.67	300.10	16.81	-49.6	-62.5	3.5	1.52e+00	0	39	104	0	60	46668
2026-01-30 02:38:41.68	300.31	16.77	-49.6	-62.5	3.5	1.51e+00	0	39	104	0	60	46582
2026-01-30 02:38:42.69	300.52	16.73	-49.6	-62.4	3.5	1.52e+00	0	39	104	0	60	46339
2026-01-30 02:38:43.70	300.74	16.69	-49.6	-62.4	3.5	1.52e+00	0	39	104	0	60	46496
2026-01-30 02:38:44.71	300.95	16.65	-49.6	-62.5	3.5	1.52e+00	0	39	104	0	60	46552
2026-01-30 02:38:45.72	301.16	16.61	-49.6	-62.4	3.5	1.51e+00	0	39	104	0	60	46438
2026-01-30 02:38:46.73	301.37	16.57	-49.6	-62.4	3.5	1.52e+00	0	39	104	0	60	46532
2026-01-30 02:38:47.74	301.58	16.53	-49.6	-62.4	3.5	1.52e+00	0	39	104	0	60	46297
2026-01-30 02:38:48.75	301.78	16.48	-49.6	-62.4	3.5	1.52e+00	0	39	104	0	60	46384
2026-01-30 02:38:49.76	301.99	16.44	-49.6	-62.4	3.5	1.52e+00	0	39	104	0	60	46448
2026-01-30 02:38:50.77	302.20	16.40	-49.6	-62.4	3.5	1.52e+00	0	39	104	0	60	46438
2026-01-30 02:38:51.78	302.41	16.36	-49.6	-62.4	3.5	1.52e+00	0	39	104	0	60	46489
2026-01-30 02:38:52.79	302.61	16.31	-49.6	-62.4	3.5	1.52e+00	0	39	104	0	60	46187
2026-01-30 02:38:53.80	302.82	16.27	-49.6	-62.4	3.5	1.52e+00	0	39	104	0	60	46466
2026-01-30 02:38:54.81	303.02	16.23	-49.6	-62.5	3.5	1.52e+00	0	39	104	0	60	46613
2026-01-30 02:38:55.82	303.23	16.18	-49.6	-62.5	3.5	1.52e+00	0	39	104	0	60	46558
2026-01-30 02:38:56.83	303.43	16.14	-49.6	-62.5	3.5	1.52e+00	0	39	104	0	60	46760
2026-01-30 02:38:57.84	303.63	16.09	-49.6	-62.4	3.5	1.52e+00	0	39	104	0	60	46508
2026-01-30 02:38:58.85	303.84	16.05	-49.6	-62.4	3.5	1.52e+00	0	39	104	0	60	46318
2026-01-30 02:38:59.86	304.04	16.00	-49.6	-62.4	3.5	1.52e+00	0	39	104	0	60	46271
2026-01-30 02:39:00.87	304.24	15.96	-49.6	-62.5	3.5	1.51e+00	0	39	104	0	60	46629
2026-01-30 02:39:01.88	304.44	15.91	-49.6	-62.5	3.5	1.52e+00	0	39	104	0	60	46536
2026-01-30 02:39:02.89	304.64	15.87	-49.6	-62.4	3.5	1.52e+00	0	39	104	0	60	46496
2026-01-30 02:39:03.90	304.84	15.82	-49.6	-62.4	3.5	1.52e+00	0	39	104	0	60	46472
2026-01-30 02:39:04.91	305.04	15.77	-49.6	-62.5	3.5	1.52e+00	0	39	104	0	60	46597
2026-01-30 02:39:05.92	305.24	15.73	-49.6	-62.4	3.5	1.52e+00	0	39	104	0	60	46502
2026-01-30 02:39:06.93	305.44	15.68	-49.5	-62.4	3.5	1.52e+00	0	39	104	0	60	46477
2026-01-30 02:39:07.94	305.63	15.63	-49.6	-62.5	3.5	1.52e+00	0	39	104	0	60	46553
2026-01-30 02:39:08.96	305.83	15.59	-49.6	-62.5	3.5	1.52e+00	0	39	104	0	60	46656
2026-01-30 02:39:09.97	306.03	15.54	-49.6	-62.5	3.5	1.51e+00	0	39	104	0	60	46586
2026-01-30 02:39:10.98	306.22	15.49	-49.6	-62.4	3.5	1.52e+00	0	39	104	0	60	46291
2026-01-30 02:39:11.99	306.42	15.44	-49.6	-62.5	3.5	1.52e+00	0	39	104	0	60	46580
2026-01-30 02:39:13.00	306.61	15.39	-49.6	-62.4	3.5	1.52e+00	0	39	104	0	60	46450
2026-01-30 02:39:14.01	306.81	15.35	-49.6	-62.4	3.5	1.52e+00	0	39	104	0	60	46406
2026-01-30 02:39:15.02	307.00	15.30	-49.6	-62.4	3.5	1.52e+00	0	39	104	0	60	46396
2026-01-30 02:39:16.03	307.19	15.25	-49.6	-62.5	3.5	1.52e+00	0	39	104	0	60	46629
2026-01-30 02:39:17.04	307.38	15.20	-49.5	-62.4	3.5	1.52e+00	0	39	104	0	60	46392
2026-01-30 02:39:18.05	307.58	15.15	-49.6	-62.4	3.5	1.52e+00	0	39	104	0	60	46493
2026-01-30 02:39:19.06	307.77	15.10	-49.6	-62.5	3.5	1.52e+00	0	39	104	0	60	46823
2026-01-30 02:39:20.07	307.96	15.05	-49.6	-62.4	3.5	1.52e+00	0	39	104	0	60	46438
2026-01-30 02:39:21.08	308.15	15.00	-49.6	-62.5	3.5	1.52e+00	0	39	104	0	60	46718
2026-01-30 02:39:22.09	308.33	14.95	-49.6	-62.5	3.5	1.52e+00	0	39	104	0	60	46639
2026-01-30 02:39:23.10	308.52	14.90	-49.6	-62.4	3.5	1.52e+00	0	39	104	0	60	46498
2026-01-30 02:39:24.11	308.71	14.85	-49.6	-62.4	3.5	1.52e+00	0	39	104	0	60	46369
2026-01-30 02:39:25.12	308.90	14.80	-49.6	-62.4	3.5	1.52e+00	0	39	104	0	60	46496
2026-01-30 02:39:26.13	309.08	14.75	-49.6	-62.4	3.5	1.52e+00	0	39	104	0	60	46449
2026-01-30 02:39:27.14	309.27	14.70	-49.6	-62.5	3.5	1.52e+00	0	39	104	0	60	46789
2026-01-30 02:39:28.15	309.45	14.65	-49.6	-62.5	3.5	1.52e+00	0	39	104	0	60	46675
2026-01-30 02:39:29.16	309.64	14.60	-49.6	-62.5	3.5	1.52e+00	0	39	104	0	60	46631
2026-01-30 02:39:30.17	309.82	14.55	-49.6	-62.5	3.5	1.52e+00	0	39	104	0	60	46624
2026-01-30 02:39:31.18	310.00	14.50	-49.6	-62.4	3.5	1.52e+00	0	39	104	0	60	46516
2026-01-30 02:39:32.19	310.19	14.44	-49.6	-62.4	3.5	1.52e+00	0	39	104	0	60	46461
2026-01-30 02:39:33.20	310.37	14.39	-49.6	-62.5	3.5	1.52e+00	0	39	104	0	60	46616
2026-01-30 02:39:34.21	310.55	14.34	-49.6	-62.4	3.5	1.51e+00	0	39	104	0	60	46399
2026-01-30 02:39:35.22	310.73	14.29	-49.5	-62.4	3.5	1.52e+00	0	39	104	0	60	46484
2026-01-30 02:39:36.23	310.91	14.24	-49.6	-62.4	3.5	1.52e+00	0	39	104	0	60	46395
2026-01-30 02:39:37.24	311.09	14.18	-49.6	-62.4	3.5	1.52e+00	0	39	104	0	60	46415
2026-01-30 02:39:38.26	311.27	14.13	-49.6	-62.4	3.5	1.51e+00	0	39	104	0	60	46389
2026-01-30 02:39:39.27	311.45	14.08	-49.6	-62.4	3.5	1.52e+00	0	39	104	0	60	46420
2026-01-30 02:39:40.28	311.63	14.03	-49.6	-62.4	3.5	1.52e+00	0	39	104	0	60	46394
2026-01-30 02:39:41.29	311.80	13.97	-49.6	-62.4	3.5	1.52e+00	0	39	104	0	60	46503
2026-01-30 02:39:42.30	311.98	13.92	-49.6	-62.5	3.5	1.52e+00	0	39	104	0	60	46544
2026-01-30 02:39:43.31	312.16	13.87	-49.6	-62.5	3.5	1.52e+00	0	39	104	0	60	46568
2026-01-30 02:39:44.31	312.33	13.81	-49.6	-62.5	3.5	1.52e+00	0	39	104	0	60	46570
2026-01-30 02:39:45.33	312.51	13.76	-49.6	-62.5	3.5	1.51e+00	0	39	104	0	60	46653
2026-01-30 02:39:46.34	312.68	13.71	-49.5	-62.5	3.5	1.52e+00	0	39	104	0	60	46662
2026-01-30 02:39:47.35	312.85	13.65	-49.6	-62.4	3.5	1.52e+00	0	39	104	0	60	46445
2026-01-30 02:39:48.36	313.03	13.60	-49.6	-62.4	3.5	1.52e+00	0	39	104	0	60	46200
2026-01-30 02:39:49.37	313.20	13.55	-49.6	-62.5	3.5	1.52e+00	0	39	104	0	60	46591
2026-01-30 02:39:50.38	313.37	13.49	-49.5	-62.5	3.5	1.52e+00	0	39	104	0	60	46659
2026-01-30 02:39:51.39	313.54	13.44	-49.6	-62.5	3.5	1.52e+00	0	39	104	0	60	46554
2026-01-30 02:39:52.40	313.71	13.38	-49.6	-62.5	3.5	1.52e+00	0	39	104	0	60	46646
2026-01-30 02:39:53.41	313.88	13.33	-49.6	-62.5	3.5	1.52e+00	0	39	104	0	60	46709
2026-01-30 02:39:54.42	314.05	13.28	-49.6	-62.4	3.5	1.52e+00	0	39	104	0	60	46434
2026-01-30 02:39:55.43	314.22	13.22	-49.6	-62.4	3.5	1.52e+00	0	39	104	0	60	46520
2026-01-30 02:39:56.44	314.39	13.17	-49.6	-62.4	3.5	1.51e+00	0	39	104	0	60	46459
2026-01-30 02:39:57.45	314.55	13.11	-49.6	-62.4	3.5	1.52e+00	0	39	104	0	60	46402
2026-01-30 02:39:58.46	314.72	13.06	-49.6	-62.5	3.5	1.52e+00	0	39	104	0	60	46560
2026-01-30 02:39:59.47	314.89	13.00	-49.6	-62.5	3.5	1.52e+00	0	39	104	0	60	46691
2026-01-30 02:40:00.48	315.05	12.95	-49.6	-62.5	3.5	1.52e+00	0	39	104	0	60	46559
2026-01-30 02:40:01.49	315.22	12.89	-49.6	-62.4	3.5	1.52e+00	0	39	104	0	60	46479
2026-01-30 02:40:02.50	315.38	12.84	-49.6	-62.5	3.5	1.52e+00	0	39	104	0	60	46543
2026-01-30 02:40:03.51	315.54	12.78	-49.6	-62.4	3.5	1.52e+00	0	39	104	0	60	46417
2026-01-30 02:40:04.52	315.71	12.73	-49.6	-62.5	3.5	1.52e+00	0	39	104	0	60	46547
2026-01-30 02:40:05.53	315.87	12.67	-49.6	-62.5	3.5	1.52e+00	0	39	104	0	60	46638
2026-01-30 02:40:06.54	316.03	12.62	-49.6	-62.5	3.5	1.52e+00	0	39	104	0	60	46571
2026-01-30 02:40:07.55	316.19	12.56	-49.6	-62.4	3.5	1.52e+00	0	39	104	0	60	46421
2026-01-30 02:40:08.56	316.35	12.50	-49.6	-62.4	3.5	1.52e+00	0	39	104	0	60	46533
2026-01-30 02:40:09.57	316.51	12.45	-49.6	-62.4	3.5	1.52e+00	0	39	104	0	60	46417
2026-01-30 02:40:10.58	316.67	12.39	-49.6	-62.4	3.5	1.52e+00	0	39	104	0	60	46425
2026-01-30 02:40:11.59	316.83	12.34	-49.6	-62.5	3.5	1.52e+00	0	39	104	0	60	46580
2026-01-30 02:40:12.60	316.99	12.28	-49.6	-62.4	3.5	1.52e+00	0	39	104	0	60	46308
2026-01-30 02:40:13.61	317.15	12.22	-49.6	-62.4	3.5	1.52e+00	0	39	104	0	60	46466
2026-01-30 02:40:14.62	317.31	12.17	-49.6	-62.4	3.5	1.52e+00	0	39	104	0	60	46461
2026-01-30 02:40:15.63	317.46	12.11	-49.5	-62.4	3.5	1.52e+00	0	39	104	0	60	46292
2026-01-30 02:40:16.64	317.62	12.06	-49.6	-62.4	3.5	1.52e+00	0	39	104	0	60	46388
2026-01-30 02:40:17.65	317.77	12.00	-49.6	-62.4	3.5	1.52e+00	0	39	104	0	60	46396
2026-01-30 02:40:18.66	317.93	11.94	-49.6	-62.5	3.5	1.51e+00	0	39	104	0	60	46656
2026-01-30 02:40:19.67	318.08	11.89	-49.6	-62.4	3.5	1.52e+00	0	39	104	0	60	46505
2026-01-30 02:40:20.68	318.24	11.83	-49.6	-62.5	3.5	1.52e+00	0	39	104	0	60	46683
2026-01-30 02:40:21.69	318.39	11.78	-49.6	-62.4	3.5	1.52e+00	0	39	104	0	60	46452
2026-01-30 02:40:22.70	318.54	11.72	-49.6	-62.5	3.5	1.52e+00	0	39	104	0	60	46626
2026-01-30 02:40:23.71	318.70	11.66	-49.6	-62.4	3.5	1.52e+00	0	39	104	0	60	46345
2026-01-30 02:40:24.72	318.85	11.61	-49.6	-62.5	3.5	1.52e+00	0	39	104	0	60	46601
2026-01-30 02:40:25.73	319.00	11.55	-49.5	-62.5	3.5	1.52e+00	0	39	104	0	60	46557
2026-01-30 02:40:26.74	319.15	11.49	-49.6	-62.4	3.5	1.52e+00	0	39	104	0	60	46494
2026-01-30 02:40:27.76	319.30	11.43	-49.6	-62.4	3.5	1.52e+00	0	39	104	0	60	46331
2026-01-30 02:40:28.77	319.45	11.38	-49.6	-62.4	3.5	1.52e+00	0	39	104	0	60	46465
2026-01-30 02:40:29.78	319.60	11.32	-49.6	-62.4	3.5	1.52e+00	0	39	104	0	60	46299
2026-01-30 02:40:30.79	319.75	11.26	-49.6	-62.4	3.5	1.52e+00	0	39	104	0	60	46492
2026-01-30 02:40:31.80	319.89	11.21	-49.6	-62.5	3.5	1.52e+00	0	39	104	0	60	46541
2026-01-30 02:40:32.81	320.04	11.15	-49.5	-62.5	3.5	1.52e+00	0	39	104	0	60	46635
2026-01-30 02:40:33.82	320.19	11.09	-49.6	-62.5	3.5	1.52e+00	0	39	104	0	60	46550
2026-01-30 02:40:34.83	320.33	11.04	-49.6	-62.4	3.5	1.52e+00	0	39	104	0	60	46258
2026-01-30 02:40:35.84	320.48	10.98	-49.5	-62.4	3.5	1.52e+00	0	39	104	0	60	46378
2026-01-30 02:40:36.85	320.62	10.92	-49.6	-62.4	3.5	1.52e+00	0	39	104	0	60	46508
2026-01-30 02:40:37.86	320.77	10.87	-49.5	-62.4	3.5	1.52e+00	0	39	104	0	60	46451
2026-01-30 02:40:38.87	320.91	10.81	-49.6	-62.4	3.5	1.52e+00	0	39	104	0	60	46530
2026-01-30 02:40:39.88	321.05	10.75	-49.6	-62.4	3.5	1.52e+00	0	39	104	0	60	46431
2026-01-30 02:40:40.89	321.20	10.69	-49.5	-62.4	3.5	1.51e+00	0	39	104	0	60	46518
2026-01-30 02:40:41.90	321.34	10.64	-49.6	-62.5	3.5	1.52e+00	0	39	104	0	60	46548
2026-01-30 02:40:42.91	321.48	10.58	-49.6	-62.4	3.5	1.52e+00	0	39	104	0	60	46411
2026-01-30 02:40:43.92	321.62	10.52	-49.6	-62.4	3.5	1.52e+00	0	39	104	0	60	46372
2026-01-30 02:40:44.93	321.76	10.47	-49.6	-62.5	3.5	1.52e+00	0	39	104	0	60	46549
2026-01-30 02:40:45.94	321.90	10.41	-49.5	-62.5	3.5	1.52e+00	0	39	104	0	60	46714
2026-01-30 02:40:46.95	322.04	10.35	-49.6	-62.4	3.5	1.51e+00	0	39	104	0	60	46284
2026-01-30 02:40:47.96	322.18	10.29	-49.6	-62.5	3.5	1.52e+00	0	39	104	0	60	46612
2026-01-30 02:40:48.97	322.32	10.24	-49.6	-62.4	3.5	1.52e+00	0	39	104	0	60	46437
2026-01-30 02:40:49.98	322.46	10.18	-49.6	-62.4	3.5	1.52e+00	0	39	104	0	60	46478
2026-01-30 02:40:50.99	322.59	10.12	-49.5	-62.5	3.5	1.52e+00	0	39	104	0	60	46715
2026-01-30 02:40:52.00	322.73	10.07	-49.6	-62.5	3.5	1.52e+00	0	39	104	0	60	46592
2026-01-30 02:40:53.01	322.87	10.01	-49.6	-62.5	3.5	1.51e+00	0	39	104	0	60	46672
2026-01-30 02:40:54.02	323.00	9.95	-49.6	-62.5	3.5	1.52e+00	0	39	104	0	60	46604
2026-01-30 02:40:55.03	323.14	9.89	-49.6	-62.4	3.5	1.52e+00	0	39	104	0	60	46401
2026-01-30 02:40:56.04	323.27	9.84	-49.6	-62.4	3.5	1.51e+00	0	39	104	0	60	46509
2026-01-30 02:40:57.05	323.41	9.78	-49.6	-62.4	3.5	1.52e+00	0	39	104	0	60	46481
2026-01-30 02:40:58.06	323.54	9.72	-49.6	-62.5	3.5	1.52e+00	0	39	104	0	60	46563
2026-01-30 02:40:59.07	323.68	9.66	-49.6	-62.4	3.5	1.52e+00	0	39	104	0	60	46483
2026-01-30 02:41:00.09	323.81	9.61	-49.6	-62.4	3.5	1.52e+00	0	39	104	0	60	46521
2026-01-30 02:41:01.10	323.94	9.55	-49.5	-62.4	3.5	1.51e+00	0	39	104	0	60	46369
2026-01-30 02:41:02.11	324.07	9.49	-49.6	-62.4	3.5	1.51e+00	0	39	104	0	60	46485
2026-01-30 02:41:03.12	324.20	9.44	-49.6	-62.4	3.5	1.52e+00	0	39	104	0	60	46202
2026-01-30 02:41:04.13	324.34	9.38	-49.6	-62.5	3.5	1.52e+00	0	39	104	0	60	46631
2026-01-30 02:41:05.14	324.47	9.32	-49.6	-62.5	3.6	1.52e+00	0	39	104	0	60	46594
2026-01-30 02:41:06.15	324.60	9.26	-49.6	-62.5	3.5	1.51e+00	0	39	104	0	60	46707
2026-01-30 02:41:07.16	324.73	9.21	-49.5	-62.4	3.5	1.52e+00	0	39	104	0	60	46266
2026-01-30 02:41:08.17	324.85	9.15	-49.6	-62.5	3.5	1.52e+00	0	39	104	0	60	46547
2026-01-30 02:41:09.18	324.98	9.09	-49.6	-62.5	3.5	1.52e+00	0	39	104	0	60	46668
2026-01-30 02:41:10.19	325.11	9.03	-49.6	-62.4	3.5	1.52e+00	0	39	104	0	60	46466
2026-01-30 02:41:11.20	325.24	8.98	-49.5	-62.5	3.5	1.52e+00	0	39	104	0	60	46616
2026-01-30 02:41:12.21	325.36	8.92	-49.6	-62.4	3.5	1.52e+00	0	39	104	0	60	46383
2026-01-30 02:41:13.22	325.49	8.86	-49.6	-62.4	3.5	1.52e+00	0	39	104	0	60	46355
2026-01-30 02:41:14.23	325.62	8.81	-49.6	-62.5	3.5	1.52e+00	0	39	104	0	60	46678
2026-01-30 02:41:15.24	325.74	8.75	-49.6	-62.4	3.5	1.52e+00	0	39	104	0	60	46429
2026-01-30 02:41:16.25	325.87	8.69	-49.6	-62.4	3.5	1.52e+00	0	39	104	0	60	46416
2026-01-30 02:41:17.26	325.99	8.63	-49.6	-62.4	3.5	1.52e+00	0	39	104	0	60	46443
2026-01-30 02:41:18.27	326.12	8.58	-49.6	-62.4	3.5	1.52e+00	0	39	104	0	60	46466
2026-01-30 02:41:19.28	326.24	8.52	-49.5	-62.5	3.5	1.52e+00	0	39	104	0	60	46541
2026-01-30 02:41:20.29	326.36	8.46	-49.6	-62.5	3.5	1.52e+00	0	39	104	0	60	46662
2026-01-30 02:41:21.30	326.49	8.41	-49.6	-62.4	3.5	1.51e+00	0	39	104	0	60	46440
2026-01-30 02:41:22.31	326.61	8.35	-49.6	-62.4	3.5	1.51e+00	0	39	104	0	60	46490
2026-01-30 02:41:23.32	326.73	8.29	-49.6	-62.4	3.5	1.52e+00	0	39	104	0	60	46411
2026-01-30 02:41:24.33	326.85	8.24	-49.6	-62.4	3.5	1.52e+00	0	39	104	0	60	46360
2026-01-30 02:41:25.34	326.97	8.18	-49.5	-62.4	3.5	1.52e+00	0	39	104	0	60	46418
2026-01-30 02:41:26.35	327.09	8.12	-49.6	-62.4	3.5	1.52e+00	0	39	104	0	60	46342
2026-01-30 02:41:27.36	327.21	8.06	-49.6	-62.4	3.5	1.52e+00	0	39	104	0	60	46364
2026-01-30 02:41:28.37	327.33	8.01	-49.6	-62.5	3.5	1.52e+00	0	39	104	0	60	46655
2026-01-30 02:41:29.38	327.45	7.95	-49.6	-62.5	3.5	1.52e+00	0	39	104	0	60	46557
2026-01-30 02:41:30.39	327.57	7.89	-49.6	-62.4	3.5	1.52e+00	0	39	104	0	60	46432
2026-01-30 02:41:31.40	327.69	7.84	-49.6	-62.4	3.5	1.52e+00	0	39	104	0	60	46319
2026-01-30 02:41:32.41	327.81	7.78	-49.6	-62.5	3.5	1.52e+00	0	39	104	0	60	46657
2026-01-30 02:41:33.42	327.92	7.72	-49.5	-62.5	3.5	1.52e+00	0	39	104	0	60	46619
2026-01-30 02:41:34.43	328.04	7.67	-49.6	-62.5	3.5	1.51e+00	0	39	104	0	60	46708
2026-01-30 02:41:35.44	328.16	7.61	-49.6	-62.4	3.5	1.52e+00	0	39	104	0	60	46482
2026-01-30 02:41:36.45	328.27	7.55	-49.5	-62.5	3.5	1.52e+00	0	39	104	0	60	46560
2026-01-30 02:41:37.46	328.39	7.50	-49.6	-62.5	3.5	1.52e+00	0	39	104	0	60	46553
2026-01-30 02:41:38.47	328.50	7.44	-49.6	-62.5	3.5	1.52e+00	0	39	104	0	60	46711
2026-01-30 02:41:39.48	328.62	7.38	-49.6	-62.5	3.5	1.52e+00	0	39	104	0	60	46846
2026-01-30 02:41:40.50	328.73	7.33	-49.6	-62.5	3.5	1.52e+00	0	39	104	0	60	46843
2026-01-30 02:41:41.51	328.85	7.27	-49.6	-62.5	3.5	1.52e+00	0	39	104	0	60	46584
2026-01-30 02:41:42.52	328.96	7.21	-49.6	-62.5	3.5	1.52e+00	0	39	104	0	60	46581
2026-01-30 02:41:43.52	329.07	7.16	-49.6	-62.5	3.5	1.52e+00	0	39	104	0	60	46613
2026-01-30 02:41:44.53	329.19	7.10	-49.6	-62.5	3.5	1.51e+00	0	39	104	0	60	46596
2026-01-30 02:41:45.54	329.30	7.04	-49.6	-62.4	3.5	1.52e+00	0	39	104	0	60	46417
2026-01-30 02:41:46.55	329.41	6.99	-49.6	-62.4	3.5	1.52e+00	0	39	104	0	60	46373
2026-01-30 02:41:47.56	329.52	6.93	-49.6	-62.5	3.5	1.52e+00	0	39	104	0	60	46571
2026-01-30 02:41:48.57	329.63	6.88	-49.6	-62.5	3.5	1.52e+00	0	39	104	0	60	46609
2026-01-30 02:41:49.58	329.74	6.82	-49.6	-62.4	3.5	1.52e+00	0	39	104	0	60	46461
2026-01-30 02:41:50.59	329.85	6.76	-49.6	-62.4	3.5	1.52e+00	0	39	104	0	60	46503
2026-01-30 02:41:51.60	329.96	6.71	-49.6	-62.5	3.5	1.52e+00	0	39	104	0	60	46651
2026-01-30 02:41:52.61	330.07	6.65	-49.6	-62.4	3.5	1.51e+00	0	39	104	0	60	46389
2026-01-30 02:41:53.62	330.18	6.59	-49.6	-62.4	3.5	1.51e+00	0	39	104	0	60	46390
2026-01-30 02:41:54.64	330.29	6.54	-49.6	-62.5	3.5	1.52e+00	0	39	104	0	60	46552
2026-01-30 02:41:55.65	330.40	6.48	-49.6	-62.5	3.5	1.52e+00	0	39	104	0	60	46547
2026-01-30 02:41:56.66	330.51	6.43	-49.6	-62.4	3.5	1.52e+00	0	39	104	0	60	46503
2026-01-30 02:41:57.67	330.61	6.37	-49.6	-62.4	3.5	1.52e+00	0	39	104	0	60	46381
2026-01-30 02:41:58.68	330.72	6.31	-49.6	-62.4	3.5	1.51e+00	0	39	104	0	60	46525
2026-01-30 02:41:59.69	330.83	6.26	-49.6	-62.4	3.5	1.52e+00	0	39	104	0	60	46392
2026-01-30 02:42:00.70	330.93	6.20	-49.6	-62.5	3.5	1.52e+00	0	39	104	0	60	46685
2026-01-30 02:42:01.71	331.04	6.15	-49.6	-62.5	3.5	1.52e+00	0	39	104	0	60	46608
2026-01-30 02:42:02.72	331.15	6.09	-49.6	-62.5	3.5	1.52e+00	0	39	104	0	60	46544
2026-01-30 02:42:03.73	331.25	6.04	-49.6	-62.5	3.5	1.52e+00	0	39	104	0	60	46591
2026-01-30 02:42:04.73	331.35	5.98	-49.6	-62.5	3.5	1.52e+00	0	39	104	0	60	46648
2026-01-30 02:42:05.75	331.46	5.92	-49.6	-62.4	3.5	1.52e+00	0	39	104	0	60	46496
2026-01-30 02:42:06.76	331.56	5.87	-49.6	-62.5	3.5	1.52e+00	0	39	104	0	60	46638
2026-01-30 02:42:07.77	331.67	5.81	-49.6	-62.5	3.5	1.52e+00	0	39	104	0	60	46627
2026-01-30 02:42:08.77	331.77	5.76	-49.6	-62.4	3.5	1.52e+00	0	39	104	0	60	46520
2026-01-30 02:42:09.78	331.87	5.70	-49.6	-62.4	3.5	1.52e+00	0	39	104	0	60	46503
2026-01-30 02:42:10.79	331.97	5.65	-49.6	-62.4	3.5	1.52e+00	0	39	104	0	60	46282
2026-01-30 02:42:11.81	332.08	5.59	-49.6	-62.4	3.5	1.52e+00	0	39	104	0	60	46474
2026-01-30 02:42:12.81	332.18	5.54	-49.6	-62.5	3.5	1.52e+00	0	39	104	0	60	46576
2026-01-30 02:42:13.83	332.28	5.48	-49.6	-62.4	3.5	1.52e+00	0	39	104	0	60	46304
2026-01-30 02:42:14.84	332.38	5.43	-49.6	-62.4	3.5	1.51e+00	0	39	104	0	60	46416
2026-01-30 02:42:15.85	332.48	5.37	-49.6	-62.5	3.5	1.52e+00	0	39	104	0	60	46647
2026-01-30 02:42:16.86	332.58	5.32	-49.6	-62.4	3.5	1.52e+00	0	39	104	0	60	46518
2026-01-30 02:42:17.87	332.68	5.26	-49.6	-62.5	3.5	1.52e+00	0	39	104	0	60	46592
2026-01-30 02:42:18.88	332.78	5.20	-49.6	-62.4	3.5	1.52e+00	0	39	104	0	60	46410
2026-01-30 02:42:19.89	332.88	5.15	-49.6	-62.5	3.5	1.51e+00	0	39	104	0	60	46709
2026-01-30 02:42:20.90	332.98	5.09	-49.6	-62.5	3.5	1.52e+00	0	39	104	0	60	46627
2026-01-30 02:42:21.91	333.08	5.04	-49.6	-62.4	3.5	1.51e+00	0	39	104	0	60	46504
2026-01-30 02:42:22.92	333.18	4.99	-49.6	-62.4	3.5	1.52e+00	0	39	104	0	60	46510
2026-01-30 02:42:23.93	333.27	4.93	-49.6	-62.4	3.5	1.52e+00	0	39	104	0	60	46472
2026-01-30 02:42:24.94	333.37	4.88	-49.6	-62.5	3.5	1.52e+00	0	39	104	0	60	46649
2026-01-30 02:42:25.95	333.47	4.82	-49.6	-62.5	3.5	1.52e+00	0	39	104	0	60	46609
2026-01-30 02:42:26.96	333.56	4.77	-49.6	-62.4	3.5	1.52e+00	0	39	104	0	60	46284
2026-01-30 02:42:27.97	333.66	4.71	-49.6	-62.4	3.5	1.52e+00	0	39	104	0	60	46497
2026-01-30 02:42:28.98	333.76	4.66	-49.6	-62.5	3.5	1.52e+00	0	39	104	0	60	46547
2026-01-30 02:42:29.99	333.85	4.60	-49.6	-62.4	3.5	1.52e+00	0	39	104	0	60	46496
2026-01-30 02:42:31.00	333.95	4.55	-49.6	-62.5	3.5	1.52e+00	0	39	104	0	60	46616
2026-01-30 02:42:32.01	334.04	4.49	-49.6	-62.5	3.5	1.52e+00	0	39	104	0	60	46702
2026-01-30 02:42:33.02	334.14	4.44	-49.6	-62.4	3.5	1.52e+00	0	39	104	0	60	46469
2026-01-30 02:42:34.03	334.23	4.38	-49.6	-62.4	3.5	1.51e+00	0	39	104	0	60	46430
2026-01-30 02:42:35.04	334.33	4.33	-49.6	-62.4	3.5	1.51e+00	0	39	104	0	60	46469
2026-01-30 02:42:36.05	334.42	4.28	-49.6	-62.4	3.5	1.52e+00	0	39	104	0	60	46416
2026-01-30 02:42:37.06	334.51	4.22	-49.6	-62.4	3.5	1.52e+00	0	39	104	0	60	46397
2026-01-30 02:42:38.07	334.61	4.17	-49.6	-62.5	3.5	1.52e+00	0	39	104	0	60	46607
2026-01-30 02:42:39.08	334.70	4.11	-49.6	-62.5	3.5	1.52e+00	0	39	104	0	60	46605
2026-01-30 02:42:40.10	334.79	4.06	-49.6	-62.5	3.5	1.52e+00	0	39	104	0	60	46574
2026-01-30 02:42:41.11	334.88	4.01	-49.6	-62.4	3.5	1.52e+00	0	39	104	0	60	46393
2026-01-30 02:42:42.12	334.98	3.95	-49.6	-62.5	3.5	1.52e+00	0	39	104	0	60	46704
2026-01-30 02:42:43.13	335.07	3.90	-49.6	-62.5	3.5	1.52e+00	0	39	104	0	60	46736
2026-01-30 02:42:44.14	335.16	3.84	-49.6	-62.5	3.5	1.51e+00	0	39	104	0	60	46680
2026-01-30 02:42:45.14	335.25	3.79	-49.6	-62.5	3.5	1.52e+00	0	39	104	0	60	46584
