passes_logs/2026/01/30/R4.6S_Anadyr/R4.6S_Anadyr__20260130_074544_TY-42_rec.log

#Pass ID: 20260130_074544_TY-42
#Satellite: TY-42
#Configuration: TY-42_900M
#almurnet v.1.7.20251203
#Start time: 2026-01-30 07:46:17

#Version: 2.2.20231116
#Station: R4.6S_Anadyr
#Location: 177.4865 lon 64.73178 lat
#TLE: 1 64048U 25103A   26029.59629630  .00008015  00000-0  38191-3 0 09991
#TLE: 2 64048 097.4120 104.7398 0001761 095.4017 301.3163 15.19189348 39031

#Time	Az	El	Level	Level2	SNR	BER	BlckErr	Temp	State	Recorded	gain1	gain2
2026-01-30 07:46:17.67	111.44	2.03	-46.5	-60.9	3.5	1.51e+00	0	38	0	0	60	45053
2026-01-30 07:46:18.67	111.36	2.09	-47.8	-50.4	6.1	0.00e+00	0	40	104	0	60	40694
2026-01-30 07:46:19.68	111.28	2.16	-47.8	-50.4	6.1	0.00e+00	0	40	104	0	60	40759
2026-01-30 07:46:20.69	111.20	2.22	-47.8	-50.4	6.1	0.00e+00	0	40	104	0	60	40445
2026-01-30 07:46:21.70	111.11	2.29	-47.8	-50.4	6.1	0.00e+00	0	40	104	0	60	40379
2026-01-30 07:46:22.71	111.03	2.35	-47.8	-50.4	6.1	0.00e+00	0	40	104	0	60	40679
2026-01-30 07:46:23.71	110.94	2.41	-47.8	-50.4	6.1	0.00e+00	0	40	104	0	60	40615
2026-01-30 07:46:24.72	110.86	2.48	-47.8	-50.4	6.1	0.00e+00	0	40	104	0	60	40528
2026-01-30 07:46:25.72	110.77	2.54	-47.8	-50.4	6.1	0.00e+00	0	40	104	0	60	40683
2026-01-30 07:46:26.73	110.69	2.61	-47.8	-50.4	6.1	0.00e+00	0	40	104	0	60	40523
2026-01-30 07:46:27.73	110.60	2.67	-47.8	-50.4	6.1	0.00e+00	0	40	104	0	60	40434
2026-01-30 07:46:28.74	110.51	2.74	-47.8	-50.4	6.1	0.00e+00	0	40	104	0	60	40520
2026-01-30 07:46:29.75	110.43	2.80	-47.8	-50.4	6.1	0.00e+00	0	40	104	0	60	40553
2026-01-30 07:46:30.76	110.34	2.87	-47.8	-50.4	6.1	0.00e+00	0	40	104	0	60	40578
2026-01-30 07:46:31.77	110.25	2.93	-47.8	-50.4	6.1	0.00e+00	0	40	104	0	60	40453
2026-01-30 07:46:32.78	110.16	3.00	-47.8	-50.4	6.1	0.00e+00	0	40	104	0	60	40608
2026-01-30 07:46:33.79	110.07	3.06	-47.8	-50.4	6.1	0.00e+00	0	40	104	0	60	40635
2026-01-30 07:46:34.80	109.98	3.13	-47.8	-50.4	6.1	0.00e+00	0	40	104	0	60	40626
2026-01-30 07:46:35.81	109.89	3.19	-47.8	-50.4	6.1	0.00e+00	0	40	104	0	60	40612
2026-01-30 07:46:36.82	109.80	3.26	-47.8	-50.4	6.1	0.00e+00	0	40	104	0	60	40734
2026-01-30 07:46:37.83	109.71	3.33	-47.8	-50.4	6.1	0.00e+00	0	40	104	0	60	40647
2026-01-30 07:46:38.83	109.61	3.39	-47.8	-50.4	6.1	0.00e+00	0	41	104	0	60	40607
2026-01-30 07:46:39.84	109.52	3.46	-47.8	-50.4	6.1	0.00e+00	0	41	104	0	60	40444
2026-01-30 07:46:40.85	109.43	3.53	-47.8	-50.4	6.1	0.00e+00	0	41	104	0	60	40698
2026-01-30 07:46:41.86	109.33	3.59	-47.8	-50.4	6.1	0.00e+00	0	41	104	0	60	40464
2026-01-30 07:46:42.86	109.24	3.66	-47.8	-50.4	6.1	0.00e+00	0	41	104	0	60	40778
2026-01-30 07:46:43.87	109.14	3.73	-47.8	-50.4	6.1	0.00e+00	0	41	104	0	60	40657
2026-01-30 07:46:44.88	109.05	3.79	-47.8	-50.4	6.1	0.00e+00	0	41	104	0	60	40495
2026-01-30 07:46:45.89	108.95	3.86	-48.7	-51.3	6.1	0.00e+00	0	41	104	0	60	44795
2026-01-30 07:46:46.90	108.85	3.93	-48.2	-50.7	6.1	0.00e+00	0	41	104	0	60	42104
2026-01-30 07:46:47.91	108.76	4.00	-47.8	-50.3	6.1	0.00e+00	0	41	104	0	60	40285
2026-01-30 07:46:48.92	108.66	4.06	-48.1	-50.7	6.1	0.00e+00	0	41	104	0	60	42205
2026-01-30 07:46:49.93	108.56	4.13	-47.6	-50.2	6.1	0.00e+00	0	41	104	0	60	39712
2026-01-30 07:46:50.94	108.46	4.20	-47.6	-50.2	6.1	0.00e+00	0	41	104	0	60	39470
2026-01-30 07:46:51.95	108.36	4.27	-47.6	-50.2	6.1	0.00e+00	0	41	104	0	60	39618
2026-01-30 07:46:52.96	108.26	4.34	-47.6	-50.2	6.1	0.00e+00	0	41	104	0	60	39678
2026-01-30 07:46:53.97	108.16	4.41	-47.6	-50.2	6.1	0.00e+00	0	41	104	0	60	39651
2026-01-30 07:46:54.97	108.06	4.47	-47.6	-50.2	6.1	0.00e+00	0	41	104	0	60	39813
2026-01-30 07:46:55.98	107.96	4.54	-48.7	-51.2	6.1	0.00e+00	0	41	104	0	60	44332
2026-01-30 07:46:56.99	107.85	4.61	-48.4	-51.0	6.1	0.00e+00	0	41	104	0	60	43371
2026-01-30 07:46:58.00	107.75	4.68	-47.6	-50.2	6.1	0.00e+00	0	41	104	0	60	39554
2026-01-30 07:46:59.01	107.64	4.75	-47.7	-50.3	6.1	0.00e+00	0	41	104	0	60	40139
2026-01-30 07:47:00.02	107.54	4.82	-47.7	-50.3	6.1	0.00e+00	0	41	104	0	60	40065
2026-01-30 07:47:01.03	107.43	4.89	-47.7	-50.3	6.1	0.00e+00	0	41	104	0	60	40274
2026-01-30 07:47:02.04	107.33	4.96	-47.6	-50.2	6.1	0.00e+00	0	41	104	0	60	39783
2026-01-30 07:47:03.05	107.22	5.03	-48.5	-51.0	6.1	0.00e+00	0	41	104	0	60	43681
2026-01-30 07:47:04.06	107.11	5.10	-48.6	-51.1	6.1	0.00e+00	0	41	104	0	60	44029
2026-01-30 07:47:05.07	107.00	5.17	-48.6	-51.2	6.1	0.00e+00	0	41	104	0	60	44502
2026-01-30 07:47:06.08	106.89	5.24	-48.3	-50.9	6.1	0.00e+00	0	41	104	0	60	43112
2026-01-30 07:47:07.09	106.79	5.31	-48.6	-51.2	6.1	0.00e+00	0	41	104	0	60	44517
2026-01-30 07:47:08.10	106.67	5.39	-48.7	-51.2	6.1	0.00e+00	0	41	104	0	60	44660
2026-01-30 07:47:09.11	106.56	5.46	-48.7	-51.3	6.1	0.00e+00	0	41	104	0	60	44799
2026-01-30 07:47:10.12	106.45	5.53	-48.5	-51.0	6.1	0.00e+00	0	41	104	0	60	43685
2026-01-30 07:47:11.13	106.34	5.60	-48.6	-51.2	6.1	0.00e+00	0	41	104	0	60	44236
2026-01-30 07:47:12.14	106.23	5.67	-48.5	-51.1	6.0	0.00e+00	0	41	104	0	60	43996
2026-01-30 07:47:13.15	106.11	5.74	-47.1	-48.9	6.2	0.00e+00	0	41	104	0	60	34000
2026-01-30 07:47:14.16	106.00	5.82	-46.6	-48.3	6.5	5.31e-02	0	41	104	0	60	31691
2026-01-30 07:47:15.17	105.88	5.89	-36.3	-36.6	10.9	0.00e+00	1050	41	104	0	48	16575
2026-01-30 07:47:16.18	105.77	5.96	-37.5	-37.9	11.4	0.00e+00	3895	42	0	41943040	48	19214
2026-01-30 07:47:17.19	105.65	6.03	-37.4	-37.8	11.1	2.67e-01	4488	42	0	159383552	50	16814
2026-01-30 07:47:18.20	105.53	6.11	-36.3	-36.7	12.0	2.67e-01	0	42	0	268435456	48	16775
2026-01-30 07:47:19.21	105.41	6.18	-33.8	-34.3	13.4	1.69e-01	0	42	0	377487360	44	15962
2026-01-30 07:47:20.22	105.29	6.25	-31.9	-32.4	14.5	1.69e-01	0	42	0	494927872	40	16058
2026-01-30 07:47:21.22	105.18	6.33	-30.4	-30.9	15.3	1.76e-02	0	42	0	603979776	36	17080
2026-01-30 07:47:22.23	105.05	6.40	-29.4	-29.9	15.6	1.76e-02	0	42	0	721420288	34	17109
2026-01-30 07:47:23.24	104.93	6.47	-28.9	-29.4	15.8	2.25e-03	0	42	0	838860800	34	16214
2026-01-30 07:47:24.25	104.81	6.55	-28.2	-28.7	16.0	2.25e-03	0	42	0	947912704	32	16759
2026-01-30 07:47:25.26	104.69	6.62	-27.9	-28.4	16.2	6.59e-04	0	42	0	1065353216	32	16193
2026-01-30 07:47:26.28	104.56	6.70	-27.9	-28.5	16.2	6.59e-04	0	42	0	1174405120	32	16314
2026-01-30 07:47:27.29	104.44	6.77	-27.7	-28.3	16.3	1.47e-04	0	42	0	1291845632	30	17826
2026-01-30 07:47:28.29	104.31	6.84	-27.8	-28.3	16.3	1.47e-04	0	42	0	1409286144	30	17990
2026-01-30 07:47:29.30	104.19	6.92	-27.9	-28.4	16.3	1.42e-04	0	42	0	1518338048	30	18204
2026-01-30 07:47:30.31	104.06	6.99	-28.1	-28.6	16.3	1.42e-04	0	42	0	1627389952	30	18478
2026-01-30 07:47:31.32	103.93	7.07	-27.8	-28.3	16.4	1.63e-04	0	42	0	1744830464	30	17864
2026-01-30 07:47:32.33	103.80	7.14	-27.6	-28.1	16.4	1.63e-04	0	42	0	1853882368	30	17453
2026-01-30 07:47:33.34	103.67	7.22	-27.6	-28.2	16.4	6.53e-05	0	42	0	1971322880	30	17645
2026-01-30 07:47:34.35	103.54	7.29	-27.7	-28.3	16.4	6.53e-05	0	42	0	2088763392	30	17815
2026-01-30 07:47:35.36	103.41	7.37	-27.6	-28.1	16.4	6.53e-05	0	42	0	2197815296	30	17446
2026-01-30 07:47:36.37	103.28	7.45	-27.4	-27.9	16.5	3.81e-05	0	42	0	2306867200	30	17071
2026-01-30 07:47:37.38	103.15	7.52	-27.4	-27.9	16.5	3.81e-05	0	42	0	2424307712	30	17155
2026-01-30 07:47:38.39	103.01	7.60	-27.5	-28.0	16.5	3.81e-05	0	42	0	2541748224	30	17231
2026-01-30 07:47:39.40	102.88	7.68	-27.2	-27.7	16.4	4.90e-05	0	42	0	2650800128	30	16771
2026-01-30 07:47:40.41	102.74	7.75	-27.5	-28.1	16.4	4.90e-05	0	42	0	2768240640	30	17415
2026-01-30 07:47:41.42	102.61	7.83	-27.3	-27.8	16.5	1.03e-04	0	42	0	2877292544	30	16919
2026-01-30 07:47:42.43	102.47	7.91	-27.2	-27.7	16.5	1.03e-04	0	42	0	2994733056	30	16667
2026-01-30 07:47:43.44	102.33	7.98	-27.2	-27.7	16.5	5.44e-05	0	42	0	3112173568	30	16809
2026-01-30 07:47:44.45	102.19	8.06	-27.3	-27.7	16.5	5.44e-05	0	42	0	3221225472	30	16794
2026-01-30 07:47:45.46	102.05	8.14	-27.1	-27.6	16.6	5.44e-05	0	42	0	3338665984	30	16527
2026-01-30 07:47:46.47	101.91	8.22	-27.0	-27.5	16.5	5.44e-05	0	42	0	3447717888	30	16347
2026-01-30 07:47:47.48	101.77	8.29	-27.2	-27.7	16.6	4.35e-05	0	42	0	3556769792	30	16650
2026-01-30 07:47:48.49	101.62	8.37	-27.1	-27.5	16.6	4.35e-05	0	42	0	3674210304	30	16426
2026-01-30 07:47:49.50	101.48	8.45	-27.1	-27.5	16.7	2.72e-05	0	42	0	3791650816	30	16383
2026-01-30 07:47:50.51	101.33	8.53	-27.0	-27.5	16.7	2.72e-05	0	42	0	3900702720	30	16396
2026-01-30 07:47:51.52	101.19	8.61	-27.1	-27.6	16.7	1.08e-05	0	42	0	4018143232	30	16434
2026-01-30 07:47:52.53	101.04	8.69	-27.1	-27.5	16.7	1.08e-05	0	42	0	4127195136	30	16411
2026-01-30 07:47:53.54	100.89	8.77	-26.9	-27.4	16.7	3.26e-05	0	42	0	4244635648	30	16133
2026-01-30 07:47:54.55	100.74	8.84	-27.0	-27.4	16.7	3.26e-05	0	42	0	4362076160	30	16208
2026-01-30 07:47:55.55	100.59	8.92	-27.0	-27.5	16.7	3.26e-05	0	42	0	4471128064	30	16345
2026-01-30 07:47:56.56	100.44	9.00	-26.7	-27.2	16.8	4.90e-05	0	42	0	4580179968	28	17687
2026-01-30 07:47:57.57	100.29	9.08	-26.7	-27.2	16.8	4.90e-05	0	42	0	4697620480	28	17750
2026-01-30 07:47:58.59	100.14	9.16	-26.8	-27.2	16.8	1.63e-05	0	42	0	4815060992	28	17788
2026-01-30 07:47:59.59	99.98	9.24	-26.8	-27.3	16.8	1.63e-05	0	43	0	4924112896	28	17822
2026-01-30 07:48:00.60	99.83	9.32	-26.8	-27.3	16.8	1.08e-05	0	42	0	5041553408	28	17829
2026-01-30 07:48:01.61	99.67	9.40	-26.8	-27.2	16.7	1.08e-05	0	42	0	5150605312	28	17779
2026-01-30 07:48:02.62	99.51	9.48	-26.8	-27.3	16.7	2.17e-05	0	42	0	5268045824	28	17851
2026-01-30 07:48:03.63	99.36	9.56	-26.6	-27.1	16.8	2.17e-05	0	42	0	5377097728	28	17430
2026-01-30 07:48:04.64	99.20	9.65	-26.6	-27.1	16.9	2.17e-05	0	43	0	5494538240	28	17533
2026-01-30 07:48:05.65	99.03	9.73	-26.6	-27.1	16.8	2.17e-05	0	43	0	5603590144	28	17494
2026-01-30 07:48:06.66	98.87	9.81	-26.6	-27.1	16.9	2.17e-05	0	43	0	5721030656	28	17448
2026-01-30 07:48:07.67	98.71	9.89	-26.5	-26.9	16.8	1.63e-05	0	43	0	5830082560	28	17166
2026-01-30 07:48:08.68	98.55	9.97	-26.5	-27.0	16.7	1.63e-05	0	43	0	5947523072	28	17260
2026-01-30 07:48:09.69	98.38	10.05	-26.6	-27.0	16.6	1.63e-05	0	43	0	6064963584	28	17366
2026-01-30 07:48:10.70	98.21	10.13	-26.5	-26.9	16.4	1.63e-05	0	43	0	6174015488	28	17129
2026-01-30 07:48:11.71	98.05	10.22	-26.4	-26.8	16.5	6.53e-05	0	43	0	6291456000	28	16951
2026-01-30 07:48:12.72	97.88	10.30	-26.4	-26.9	16.6	6.53e-05	0	43	0	6400507904	28	17022
2026-01-30 07:48:13.73	97.71	10.38	-26.4	-26.9	16.7	8.71e-05	0	43	0	6509559808	28	17120
2026-01-30 07:48:14.74	97.54	10.46	-26.3	-26.8	16.7	8.71e-05	0	43	0	6627000320	28	16877
2026-01-30 07:48:15.75	97.36	10.55	-26.3	-26.8	16.7	3.81e-05	0	43	0	6744440832	28	16928
2026-01-30 07:48:16.76	97.19	10.63	-26.4	-26.9	16.7	3.81e-05	0	43	0	6853492736	28	17010
2026-01-30 07:48:17.77	97.02	10.71	-26.3	-26.7	16.8	3.26e-05	0	43	0	6970933248	28	16740
2026-01-30 07:48:18.78	96.84	10.79	-26.2	-26.7	17.0	3.26e-05	0	43	0	7079985152	28	16637
2026-01-30 07:48:19.79	96.66	10.88	-26.3	-26.8	17.0	3.26e-05	0	43	0	7197425664	28	16894
2026-01-30 07:48:20.80	96.48	10.96	-26.1	-26.6	17.1	3.26e-05	0	43	0	7314866176	28	16445
2026-01-30 07:48:21.81	96.30	11.04	-26.1	-26.6	17.1	1.08e-05	0	43	0	7423918080	28	16502
2026-01-30 07:48:22.82	96.12	11.13	-26.0	-26.4	17.1	1.08e-05	0	43	0	7532969984	28	16229
2026-01-30 07:48:23.83	95.94	11.21	-25.8	-26.3	17.1	0.00e+00	0	43	0	7650410496	28	16011
2026-01-30 07:48:24.84	95.76	11.30	-26.0	-26.5	17.1	0.00e+00	0	43	0	7767851008	28	16296
2026-01-30 07:48:25.85	95.57	11.38	-25.9	-26.4	17.1	0.00e+00	0	43	0	7876902912	28	16175
2026-01-30 07:48:26.86	95.39	11.46	-26.1	-26.6	17.1	0.00e+00	0	43	0	7994343424	28	16501
2026-01-30 07:48:27.87	95.20	11.55	-25.9	-26.4	17.0	0.00e+00	0	43	0	8103395328	28	16223
2026-01-30 07:48:28.88	95.01	11.63	-25.7	-26.2	17.1	0.00e+00	0	43	0	8220835840	26	17745
2026-01-30 07:48:29.89	94.82	11.72	-25.7	-26.1	17.1	0.00e+00	0	43	0	8338276352	26	17597
2026-01-30 07:48:30.90	94.63	11.80	-25.6	-26.1	17.1	5.40e-06	0	43	0	8447328256	26	17489
2026-01-30 07:48:31.91	94.44	11.89	-25.7	-26.2	17.1	5.40e-06	0	43	0	8556380160	26	17631
2026-01-30 07:48:32.92	94.24	11.97	-25.6	-26.0	17.1	5.40e-06	0	43	0	8673820672	26	17384
2026-01-30 07:48:33.93	94.05	12.06	-25.5	-26.0	17.0	5.40e-06	0	43	0	8782872576	26	17358
2026-01-30 07:48:34.94	93.85	12.14	-25.5	-26.0	16.9	0.00e+00	0	43	0	8900313088	26	17236
2026-01-30 07:48:35.95	93.65	12.23	-25.7	-26.1	17.0	0.00e+00	0	43	0	9017753600	26	17592
2026-01-30 07:48:36.96	93.45	12.31	-25.3	-25.8	17.2	0.00e+00	0	43	0	9126805504	26	16964
2026-01-30 07:48:37.97	93.25	12.40	-25.4	-25.9	17.2	0.00e+00	0	43	0	9244246016	26	17095
2026-01-30 07:48:38.98	93.05	12.48	-25.4	-25.8	17.1	0.00e+00	0	43	0	9353297920	26	16989
2026-01-30 07:48:39.99	92.84	12.57	-25.3	-25.8	17.2	0.00e+00	0	43	0	9470738432	26	16851
2026-01-30 07:48:40.99	92.64	12.65	-25.4	-25.9	17.2	5.40e-06	0	43	0	9588178944	26	17156
2026-01-30 07:48:42.01	92.43	12.74	-25.2	-25.7	17.1	5.40e-06	0	43	0	9697230848	26	16656
2026-01-30 07:48:43.02	92.22	12.83	-25.2	-25.7	17.1	0.00e+00	0	43	0	9806282752	26	16690
2026-01-30 07:48:44.03	92.01	12.91	-25.4	-25.8	17.1	0.00e+00	0	43	0	9923723264	26	16984
2026-01-30 07:48:45.04	91.80	13.00	-25.2	-25.7	17.1	0.00e+00	0	43	0	10041163776	26	16715
2026-01-30 07:48:46.04	91.59	13.08	-25.3	-25.8	17.0	0.00e+00	0	43	0	10150215680	26	16879
2026-01-30 07:48:47.06	91.37	13.17	-25.3	-25.8	17.0	0.00e+00	0	43	0	10267656192	26	16871
2026-01-30 07:48:48.07	91.16	13.26	-25.1	-25.6	17.1	0.00e+00	0	43	0	10376708096	26	16512
2026-01-30 07:48:49.07	90.94	13.34	-25.0	-25.5	17.2	0.00e+00	0	43	0	10485760000	26	16240
2026-01-30 07:48:50.08	90.73	13.43	-25.0	-25.4	17.2	0.00e+00	0	43	0	10611589120	26	16191
2026-01-30 07:48:51.09	90.50	13.51	-24.9	-25.4	17.3	0.00e+00	0	43	0	10720641024	26	16085
2026-01-30 07:48:52.10	90.28	13.60	-24.9	-25.4	17.2	0.00e+00	0	43	0	10829692928	26	16137
2026-01-30 07:48:53.11	90.06	13.69	-24.9	-25.4	17.2	0.00e+00	0	43	0	10947133440	26	16094
2026-01-30 07:48:54.12	89.83	13.77	-24.8	-25.3	17.3	0.00e+00	0	43	0	11056185344	26	15967
2026-01-30 07:48:55.13	89.61	13.86	-24.9	-25.4	17.3	0.00e+00	0	43	0	11173625856	26	16062
2026-01-30 07:48:56.14	89.38	13.94	-24.7	-25.2	17.3	0.00e+00	0	43	0	11291066368	24	17713
2026-01-30 07:48:57.15	89.15	14.03	-24.9	-25.4	17.3	0.00e+00	0	43	0	11400118272	24	18045
2026-01-30 07:48:58.16	88.92	14.12	-24.8	-25.2	17.2	0.00e+00	0	43	0	11517558784	24	17746
2026-01-30 07:48:59.17	88.69	14.20	-24.7	-25.1	17.3	0.00e+00	0	43	0	11626610688	24	17594
2026-01-30 07:49:00.18	88.45	14.29	-24.6	-25.0	17.3	0.00e+00	0	43	0	11744051200	24	17375
2026-01-30 07:49:01.19	88.21	14.38	-24.6	-25.1	17.3	0.00e+00	0	43	0	11853103104	24	17414
2026-01-30 07:49:02.20	87.98	14.46	-24.4	-24.9	17.3	0.00e+00	0	43	0	11970543616	24	17105
2026-01-30 07:49:03.21	87.74	14.55	-24.5	-25.0	17.2	0.00e+00	0	43	0	12079595520	24	17239
2026-01-30 07:49:04.22	87.50	14.63	-24.4	-24.9	17.2	0.00e+00	0	43	0	12197036032	24	17065
2026-01-30 07:49:05.23	87.25	14.72	-24.5	-24.9	17.3	0.00e+00	0	43	0	12314476544	24	17157
2026-01-30 07:49:06.24	87.01	14.81	-24.4	-24.9	17.2	0.00e+00	0	43	0	12423528448	24	17067
2026-01-30 07:49:07.25	86.76	14.89	-24.4	-24.8	17.2	0.00e+00	0	43	0	12540968960	24	16924
2026-01-30 07:49:08.26	86.52	14.98	-24.4	-24.9	17.2	0.00e+00	0	43	0	12650020864	24	17073
2026-01-30 07:49:09.27	86.27	15.06	-24.5	-25.0	17.2	0.00e+00	0	43	0	12759072768	24	17261
2026-01-30 07:49:10.28	86.01	15.15	-24.3	-24.8	17.3	0.00e+00	0	43	0	12876513280	24	16906
2026-01-30 07:49:11.29	85.76	15.23	-24.2	-24.7	17.3	0.00e+00	0	43	0	12993953792	24	16659
2026-01-30 07:49:12.30	85.51	15.32	-24.3	-24.8	17.3	0.00e+00	0	43	0	13103005696	24	16861
2026-01-30 07:49:13.31	85.25	15.41	-24.3	-24.8	17.2	0.00e+00	0	43	0	13220446208	24	16891
2026-01-30 07:49:14.32	84.99	15.49	-24.2	-24.6	17.2	0.00e+00	0	43	0	13329498112	24	16612
2026-01-30 07:49:15.33	84.73	15.58	-24.0	-24.5	17.3	0.00e+00	0	43	0	13446938624	24	16317
2026-01-30 07:49:16.34	84.47	15.66	-24.1	-24.5	17.4	0.00e+00	0	43	0	13564379136	24	16382
2026-01-30 07:49:17.35	84.21	15.75	-24.1	-24.5	17.3	0.00e+00	0	43	0	13673431040	24	16376
2026-01-30 07:49:18.37	83.94	15.83	-24.0	-24.5	17.3	0.00e+00	0	43	0	13782482944	24	16324
2026-01-30 07:49:19.37	83.67	15.91	-24.0	-24.4	17.3	0.00e+00	0	43	0	13899923456	24	16196
2026-01-30 07:49:20.39	83.40	16.00	-24.0	-24.4	17.3	0.00e+00	0	43	0	14017363968	24	16203
2026-01-30 07:49:21.40	83.13	16.08	-23.9	-24.3	17.4	0.00e+00	0	43	0	14126415872	24	16050
2026-01-30 07:49:22.41	82.86	16.17	-23.9	-24.3	17.3	0.00e+00	0	43	0	14243856384	24	15964
2026-01-30 07:49:23.42	82.59	16.25	-24.0	-24.5	17.3	0.00e+00	0	43	0	14352908288	24	16264
2026-01-30 07:49:24.43	82.31	16.33	-23.8	-24.3	17.4	0.00e+00	0	43	0	14470348800	24	15874
2026-01-30 07:49:25.44	82.03	16.42	-23.8	-24.3	17.3	0.00e+00	0	43	0	14587789312	24	15925
2026-01-30 07:49:26.45	81.75	16.50	-24.0	-24.4	17.3	0.00e+00	0	43	0	14696841216	24	16153
2026-01-30 07:49:27.46	81.47	16.58	-23.8	-24.3	17.2	0.00e+00	0	43	0	14805893120	24	15930
2026-01-30 07:49:28.47	81.19	16.67	-23.7	-24.2	17.0	0.00e+00	0	43	0	14923333632	24	15746
2026-01-30 07:49:29.48	80.90	16.75	-23.8	-24.2	17.0	0.00e+00	0	43	0	15032385536	22	17734
2026-01-30 07:49:30.49	80.62	16.83	-23.7	-24.1	16.8	0.00e+00	0	43	0	15149826048	22	17527
2026-01-30 07:49:31.50	80.33	16.91	-23.7	-24.1	17.2	0.00e+00	0	43	0	15267266560	22	17491
2026-01-30 07:49:32.51	80.04	16.99	-23.7	-24.2	17.3	0.00e+00	0	43	0	15376318464	22	17631
2026-01-30 07:49:33.52	79.74	17.07	-23.7	-24.1	17.4	0.00e+00	0	43	0	15493758976	22	17481
2026-01-30 07:49:34.53	79.45	17.15	-23.7	-24.1	17.3	0.00e+00	0	43	0	15602810880	22	17557
2026-01-30 07:49:35.54	79.15	17.23	-23.6	-24.0	17.4	0.00e+00	0	43	0	15720251392	22	17370
2026-01-30 07:49:36.55	78.86	17.31	-23.6	-24.1	17.3	0.00e+00	0	43	0	15829303296	22	17432
2026-01-30 07:49:37.56	78.56	17.39	-23.8	-24.2	17.3	0.00e+00	0	43	0	15946743808	22	17662
2026-01-30 07:49:38.57	78.26	17.47	-23.6	-24.0	17.2	0.00e+00	0	43	0	16055795712	22	17377
2026-01-30 07:49:39.58	77.95	17.55	-23.6	-24.0	17.1	0.00e+00	0	43	0	16173236224	22	17371
2026-01-30 07:49:40.59	77.65	17.63	-23.6	-24.0	17.0	0.00e+00	0	43	0	16290676736	22	17353
2026-01-30 07:49:41.60	77.34	17.71	-23.6	-24.1	17.0	0.00e+00	0	43	0	16399728640	22	17406
2026-01-30 07:49:42.61	77.03	17.79	-23.6	-24.0	17.2	0.00e+00	0	43	0	16517169152	22	17376
2026-01-30 07:49:43.62	76.72	17.86	-23.7	-24.1	17.3	0.00e+00	0	43	0	16626221056	22	17527
2026-01-30 07:49:44.63	76.41	17.94	-23.6	-24.1	17.3	0.00e+00	0	43	0	16735272960	22	17408
2026-01-30 07:49:45.64	76.09	18.02	-23.3	-23.7	17.4	0.00e+00	0	43	0	16861102080	22	16809
2026-01-30 07:49:46.65	75.78	18.09	-23.4	-23.8	17.4	0.00e+00	0	43	0	16970153984	22	16917
2026-01-30 07:49:47.66	75.46	18.17	-23.2	-23.7	17.4	0.00e+00	0	43	0	17079205888	22	16624
2026-01-30 07:49:48.67	75.14	18.24	-23.3	-23.8	17.4	0.00e+00	0	43	0	17196646400	22	16848
2026-01-30 07:49:49.68	74.82	18.31	-23.4	-23.9	17.3	0.00e+00	0	43	0	17305698304	22	17048
2026-01-30 07:49:50.69	74.50	18.39	-23.3	-23.8	17.4	0.00e+00	0	43	0	17423138816	22	16832
2026-01-30 07:49:51.70	74.17	18.46	-23.3	-23.7	17.4	0.00e+00	0	43	0	17540579328	22	16712
2026-01-30 07:49:52.71	73.84	18.53	-23.3	-23.8	17.4	0.00e+00	0	43	0	17649631232	22	16886
2026-01-30 07:49:53.72	73.51	18.60	-49.1	-51.7	6.1	0.00e+00	0	43	104	17691574272	60	47324
2026-01-30 07:49:54.73	73.18	18.68	-49.2	-51.8	6.1	0.00e+00	0	43	104	17691574272	60	47404
2026-01-30 07:49:55.74	72.85	18.75	-49.5	-52.1	6.1	0.00e+00	0	43	104	17691574272	60	49193
2026-01-30 07:49:56.75	72.52	18.82	-48.3	-51.0	6.1	0.00e+00	0	43	104	17691574272	60	43290
2026-01-30 07:49:57.76	72.18	18.89	-47.6	-50.4	6.1	0.00e+00	0	43	104	17691574272	60	40338
2026-01-30 07:49:58.78	71.84	18.95	-49.2	-51.7	6.1	0.00e+00	0	43	104	17691574272	60	47313
2026-01-30 07:49:59.78	71.50	19.02	-49.5	-52.0	6.1	0.00e+00	0	43	104	17691574272	60	48773
2026-01-30 07:50:00.79	71.16	19.09	-49.2	-51.8	6.1	0.00e+00	0	43	104	17691574272	60	47625
2026-01-30 07:50:01.80	70.82	19.15	-49.1	-51.7	6.1	0.00e+00	0	43	104	17691574272	60	47029
2026-01-30 07:50:02.81	70.48	19.22	-49.0	-51.6	6.1	0.00e+00	0	43	104	17691574272	60	46431
2026-01-30 07:50:03.82	70.13	19.29	-49.3	-51.9	6.1	0.00e+00	0	43	104	17691574272	60	48032
2026-01-30 07:50:04.83	69.78	19.35	-49.5	-52.0	6.1	0.00e+00	0	43	104	17691574272	60	48904
2026-01-30 07:50:05.85	69.43	19.41	-49.7	-52.2	6.1	0.00e+00	0	43	104	17691574272	60	49871
2026-01-30 07:50:06.85	69.08	19.48	-49.2	-51.8	6.1	0.00e+00	0	43	104	17691574272	60	47543
2026-01-30 07:50:07.86	68.73	19.54	-49.5	-52.0	6.1	0.00e+00	0	43	104	17691574272	60	48836
2026-01-30 07:50:08.87	68.37	19.60	-49.1	-51.7	6.1	0.00e+00	0	43	104	17691574272	60	47112
2026-01-30 07:50:09.88	68.02	19.66	-49.2	-51.8	6.1	0.00e+00	0	43	104	17691574272	60	47733
2026-01-30 07:50:10.89	67.66	19.72	-49.5	-52.0	6.1	0.00e+00	0	43	104	17691574272	60	48641
2026-01-30 07:50:11.90	67.30	19.78	-49.4	-51.9	6.1	0.00e+00	0	43	104	17691574272	60	48466
2026-01-30 07:50:12.91	66.94	19.83	-49.4	-52.0	6.1	0.00e+00	0	43	104	17691574272	60	48537
2026-01-30 07:50:13.92	66.58	19.89	-46.7	-49.6	6.2	0.00e+00	0	43	104	17691574272	60	36861
2026-01-30 07:50:14.93	66.21	19.94	-48.8	-51.4	6.1	0.00e+00	0	43	104	17691574272	60	45693
2026-01-30 07:50:15.93	65.85	20.00	-47.2	-50.0	6.2	0.00e+00	0	43	104	17691574272	60	38594
2026-01-30 07:50:16.95	65.48	20.05	-48.4	-51.1	6.1	0.00e+00	0	43	104	17691574272	60	44063
2026-01-30 07:50:17.96	65.11	20.11	-49.0	-51.6	6.1	0.00e+00	0	43	104	17691574272	60	46516
2026-01-30 07:50:18.97	64.74	20.16	-49.6	-52.1	6.1	0.00e+00	0	43	104	17691574272	60	49077
2026-01-30 07:50:19.98	64.37	20.21	-49.7	-52.1	6.1	0.00e+00	0	43	104	17691574272	60	49379
2026-01-30 07:50:20.99	64.00	20.26	-49.6	-52.1	6.1	0.00e+00	0	43	104	17691574272	60	49584
2026-01-30 07:50:22.00	63.63	20.31	-49.7	-52.2	6.1	0.00e+00	0	43	104	17691574272	60	49988
2026-01-30 07:50:23.01	63.25	20.35	-49.8	-52.2	6.1	0.00e+00	0	43	104	17691574272	60	50066
2026-01-30 07:50:24.02	62.87	20.40	-49.5	-52.0	6.1	0.00e+00	0	43	104	17691574272	60	48627
2026-01-30 07:50:25.03	62.50	20.45	-49.1	-51.7	6.1	0.00e+00	0	43	104	17691574272	60	46929
2026-01-30 07:50:26.04	62.12	20.49	-49.6	-52.1	6.1	0.00e+00	0	43	104	17691574272	60	49248
2026-01-30 07:50:27.05	61.74	20.53	-49.8	-52.3	6.1	0.00e+00	0	43	104	17691574272	60	50250
2026-01-30 07:50:28.06	61.36	20.58	-49.7	-52.2	6.1	0.00e+00	0	43	104	17691574272	60	50094
2026-01-30 07:50:29.07	60.97	20.62	-49.2	-51.8	6.1	0.00e+00	0	43	104	17691574272	60	47605
2026-01-30 07:50:30.08	60.59	20.66	-49.4	-51.9	6.1	0.00e+00	0	43	104	17691574272	60	48335
2026-01-30 07:50:31.09	60.21	20.70	-49.8	-52.3	6.1	0.00e+00	0	43	104	17691574272	60	50251
2026-01-30 07:50:32.10	59.82	20.73	-46.2	-49.0	6.4	0.00e+00	0	43	104	17691574272	60	34426
2026-01-30 07:50:33.11	59.43	20.77	-46.6	-49.4	6.3	0.00e+00	0	43	104	17691574272	60	36132
2026-01-30 07:50:34.12	59.04	20.81	-48.7	-51.4	6.1	0.00e+00	0	43	104	17691574272	60	45275
2026-01-30 07:50:35.13	58.66	20.84	-49.6	-52.2	6.1	0.00e+00	0	43	104	17691574272	60	49706
2026-01-30 07:50:36.14	58.27	20.87	-49.4	-52.0	6.1	0.00e+00	0	43	104	17691574272	60	48714
2026-01-30 07:50:37.15	57.87	20.91	-49.6	-52.1	6.1	0.00e+00	0	43	104	17691574272	60	49137
2026-01-30 07:50:38.16	57.48	20.94	-49.5	-52.0	6.1	0.00e+00	0	43	104	17691574272	60	48815
2026-01-30 07:50:39.17	57.09	20.97	-49.5	-52.0	6.1	0.00e+00	0	43	104	17691574272	60	48868
2026-01-30 07:50:40.18	56.70	20.99	-49.4	-51.9	6.1	0.00e+00	0	43	104	17691574272	60	48418
2026-01-30 07:50:41.19	56.30	21.02	-49.2	-51.8	6.1	0.00e+00	0	43	104	17691574272	60	47797
2026-01-30 07:50:42.20	55.91	21.05	-47.7	-50.4	6.1	0.00e+00	0	43	104	17691574272	60	40721
2026-01-30 07:50:43.21	55.51	21.07	-49.6	-52.1	6.0	0.00e+00	0	43	104	17691574272	60	49475
2026-01-30 07:50:44.22	55.11	21.09	-47.9	-50.6	6.1	0.00e+00	0	43	104	17691574272	60	41519
2026-01-30 07:50:45.22	54.72	21.12	-49.6	-52.1	6.1	0.00e+00	0	43	104	17691574272	60	49542
2026-01-30 07:50:46.23	54.32	21.14	-49.2	-51.7	6.1	0.00e+00	0	43	104	17691574272	60	47369
2026-01-30 07:50:47.24	53.93	21.16	-48.8	-51.5	6.1	0.00e+00	0	43	104	17691574272	60	46109
2026-01-30 07:50:48.25	53.53	21.17	-49.6	-52.2	6.1	0.00e+00	0	43	104	17691574272	60	49886
2026-01-30 07:50:49.26	53.13	21.19	-49.7	-52.2	6.1	0.00e+00	0	43	104	17691574272	60	49814
2026-01-30 07:50:50.27	52.73	21.21	-49.5	-52.0	6.1	0.00e+00	0	43	104	17691574272	60	48654
2026-01-30 07:50:51.28	52.33	21.22	-49.2	-51.8	6.1	0.00e+00	0	43	104	17691574272	60	47613
2026-01-30 07:50:52.29	51.93	21.23	-49.7	-52.2	6.1	0.00e+00	0	43	104	17691574272	60	50014
2026-01-30 07:50:53.30	51.53	21.24	-49.3	-51.8	6.1	0.00e+00	0	43	104	17691574272	60	47849
2026-01-30 07:50:54.31	51.13	21.25	-49.6	-52.1	6.1	0.00e+00	0	43	104	17691574272	60	49220
2026-01-30 07:50:55.32	50.72	21.26	-49.8	-52.3	6.1	0.00e+00	0	43	104	17691574272	60	50511
2026-01-30 07:50:56.33	50.32	21.27	-49.0	-51.6	6.1	0.00e+00	0	43	104	17691574272	60	46496
2026-01-30 07:50:57.34	49.92	21.28	-48.6	-51.3	6.1	0.00e+00	0	43	104	17691574272	60	44924
2026-01-30 07:50:58.35	49.52	21.28	-49.5	-52.0	6.1	0.00e+00	0	43	104	17691574272	60	48713
2026-01-30 07:50:59.36	49.12	21.28	-48.9	-51.5	6.1	0.00e+00	0	43	104	17691574272	60	46092
2026-01-30 07:51:00.37	48.71	21.29	-49.3	-51.8	6.1	0.00e+00	0	43	104	17691574272	60	47769
2026-01-30 07:51:01.38	48.31	21.29	-49.2	-51.8	6.1	0.00e+00	0	43	104	17691574272	60	47448
2026-01-30 07:51:02.39	47.91	21.29	-49.0	-51.6	6.1	0.00e+00	0	43	104	17691574272	60	46679
2026-01-30 07:51:03.40	47.51	21.28	-49.6	-52.1	6.1	0.00e+00	0	43	104	17691574272	60	49149
2026-01-30 07:51:04.41	47.11	21.28	-49.7	-52.2	6.1	0.00e+00	0	43	104	17691574272	60	50077
2026-01-30 07:51:05.42	46.70	21.28	-49.8	-52.3	6.1	0.00e+00	0	43	104	17691574272	60	50249
2026-01-30 07:51:06.43	46.30	21.27	-49.7	-52.2	6.1	0.00e+00	0	43	104	17691574272	60	49801
2026-01-30 07:51:07.44	45.90	21.26	-49.7	-52.2	6.1	0.00e+00	0	43	104	17691574272	60	49797
2026-01-30 07:51:08.45	45.50	21.25	-49.6	-52.1	6.1	0.00e+00	0	43	104	17691574272	60	49498
2026-01-30 07:51:09.46	45.10	21.24	-49.8	-52.3	6.1	0.00e+00	0	43	104	17691574272	60	50517
2026-01-30 07:51:10.47	44.70	21.23	-49.2	-51.8	6.1	0.00e+00	0	43	104	17691574272	60	47806
2026-01-30 07:51:11.48	44.30	21.22	-49.5	-52.0	6.1	0.00e+00	0	43	104	17691574272	60	48905
2026-01-30 07:51:12.49	43.90	21.21	-49.0	-51.6	6.0	0.00e+00	0	43	104	17691574272	60	46697
2026-01-30 07:51:13.50	43.50	21.19	-49.8	-52.2	6.1	0.00e+00	0	43	104	17691574272	60	49885
2026-01-30 07:51:14.51	43.10	21.17	-49.3	-51.9	6.1	0.00e+00	0	43	104	17691574272	60	48131
2026-01-30 07:51:15.52	42.70	21.16	-49.7	-52.1	6.1	0.00e+00	0	43	104	17691574272	60	49577
2026-01-30 07:51:16.53	42.30	21.14	-49.8	-52.3	6.1	0.00e+00	0	43	104	17691574272	60	50302
2026-01-30 07:51:17.53	41.91	21.12	-49.6	-52.1	6.1	0.00e+00	0	43	104	17691574272	60	49297
2026-01-30 07:51:18.55	41.51	21.09	-49.6	-52.1	6.1	0.00e+00	0	43	104	17691574272	60	49568
2026-01-30 07:51:19.55	41.12	21.07	-49.6	-52.1	6.1	0.00e+00	0	43	104	17691574272	60	49507
2026-01-30 07:51:20.56	40.72	21.05	-49.5	-52.0	6.1	0.00e+00	0	43	104	17691574272	60	48644
2026-01-30 07:51:21.57	40.33	21.02	-49.5	-52.0	6.1	0.00e+00	0	43	104	17691574272	60	48661
2026-01-30 07:51:22.58	39.93	20.99	-49.6	-52.1	6.1	0.00e+00	0	43	104	17691574272	60	49419
2026-01-30 07:51:23.59	39.54	20.97	-49.6	-52.1	6.1	0.00e+00	0	43	104	17691574272	60	49308
2026-01-30 07:51:24.60	39.15	20.94	-49.5	-52.0	6.1	0.00e+00	0	43	104	17691574272	60	48817
2026-01-30 07:51:25.61	38.76	20.91	-49.6	-52.1	6.1	0.00e+00	0	43	104	17691574272	60	49210
2026-01-30 07:51:26.62	38.37	20.87	-49.4	-51.9	6.1	0.00e+00	0	43	104	17691574272	60	48310
2026-01-30 07:51:27.63	37.98	20.84	-49.7	-52.2	6.1	0.00e+00	0	43	104	17691574272	60	49836
2026-01-30 07:51:28.64	37.59	20.81	-49.6	-52.1	6.1	0.00e+00	0	43	104	17691574272	60	49264
2026-01-30 07:51:29.65	37.20	20.77	-49.5	-52.0	6.1	0.00e+00	0	43	104	17691574272	60	48942
2026-01-30 07:51:30.66	36.81	20.74	-49.3	-52.0	6.1	0.00e+00	0	43	104	17691574272	60	48514
2026-01-30 07:51:31.67	36.43	20.70	-49.4	-52.0	6.1	0.00e+00	0	43	104	17691574272	60	48642
2026-01-30 07:51:32.68	36.05	20.66	-49.8	-52.2	6.1	0.00e+00	0	43	104	17691574272	60	50028
2026-01-30 07:51:33.69	35.66	20.62	-49.7	-52.2	6.1	0.00e+00	0	43	104	17691574272	60	49736
2026-01-30 07:51:34.70	35.28	20.58	-49.8	-52.2	6.1	0.00e+00	0	43	104	17691574272	60	50171
2026-01-30 07:51:35.71	34.90	20.54	-49.7	-52.2	6.1	0.00e+00	0	43	104	17691574272	60	49626
2026-01-30 07:51:36.72	34.52	20.49	-49.8	-52.3	6.1	0.00e+00	0	43	104	17691574272	60	50589
2026-01-30 07:51:37.73	34.14	20.45	-49.5	-52.0	6.1	0.00e+00	0	43	104	17691574272	60	48659
2026-01-30 07:51:38.74	33.76	20.40	-49.8	-52.3	6.1	0.00e+00	0	43	104	17691574272	60	50225
2026-01-30 07:51:39.75	33.39	20.36	-49.8	-52.2	6.1	0.00e+00	0	43	104	17691574272	60	50072
2026-01-30 07:51:40.76	33.01	20.31	-49.7	-52.2	6.1	0.00e+00	0	43	104	17691574272	60	49983
2026-01-30 07:51:41.77	32.64	20.26	-49.6	-52.1	6.1	0.00e+00	0	43	104	17691574272	60	49252
2026-01-30 07:51:42.78	32.27	20.21	-49.7	-52.2	6.1	0.00e+00	0	43	104	17691574272	60	49902
2026-01-30 07:51:43.79	31.90	20.16	-49.5	-52.0	6.1	0.00e+00	0	43	104	17691574272	60	48754
2026-01-30 07:51:44.80	31.53	20.11	-49.7	-52.2	6.1	0.00e+00	0	43	104	17691574272	60	49856
2026-01-30 07:51:45.81	31.16	20.05	-49.6	-52.1	6.1	0.00e+00	0	43	104	17691574272	60	49094
2026-01-30 07:51:46.82	30.80	20.00	-49.7	-52.3	6.1	0.00e+00	0	43	104	17691574272	60	50199
2026-01-30 07:51:47.83	30.43	19.95	-49.4	-51.9	6.1	0.00e+00	0	43	104	17691574272	60	48308
2026-01-30 07:51:48.84	30.07	19.89	-49.8	-52.2	6.1	0.00e+00	0	43	104	17691574272	60	50083
2026-01-30 07:51:49.85	29.71	19.83	-49.3	-51.9	6.1	0.00e+00	0	43	104	17691574272	60	48120
2026-01-30 07:51:50.86	29.35	19.78	-49.5	-52.1	6.1	0.00e+00	0	43	104	17691574272	60	49044
2026-01-30 07:51:51.87	28.99	19.72	-49.4	-51.9	6.1	0.00e+00	0	43	104	17691574272	60	48391
2026-01-30 07:51:52.88	28.63	19.66	-49.6	-52.1	6.1	0.00e+00	0	43	104	17691574272	60	49559
2026-01-30 07:51:53.89	28.28	19.60	-49.8	-52.2	6.1	0.00e+00	0	43	104	17691574272	60	49919
2026-01-30 07:51:54.90	27.93	19.54	-49.6	-52.1	6.1	0.00e+00	0	43	104	17691574272	60	49523
2026-01-30 07:51:55.91	27.57	19.48	-49.6	-52.0	6.1	0.00e+00	0	43	104	17691574272	60	48932
2026-01-30 07:51:56.92	27.22	19.42	-49.6	-52.1	6.1	0.00e+00	0	43	104	17691574272	60	49600
2026-01-30 07:51:57.93	26.88	19.35	-49.7	-52.3	6.1	0.00e+00	0	43	104	17691574272	60	50266
2026-01-30 07:51:58.94	26.53	19.29	-49.8	-52.3	6.1	0.00e+00	0	43	104	17691574272	60	50237
2026-01-30 07:51:59.95	26.18	19.22	-49.8	-52.3	6.1	0.00e+00	0	43	104	17691574272	60	50254
2026-01-30 07:52:00.95	25.84	19.16	-49.7	-52.2	6.1	0.00e+00	0	43	104	17691574272	60	49825
2026-01-30 07:52:01.96	25.50	19.09	-49.6	-52.1	6.1	0.00e+00	0	43	104	17691574272	60	49312
2026-01-30 07:52:02.97	25.16	19.03	-49.7	-52.2	6.1	0.00e+00	0	43	104	17691574272	60	49707
2026-01-30 07:52:03.98	24.82	18.96	-49.7	-52.2	6.1	0.00e+00	0	43	104	17691574272	60	49786
2026-01-30 07:52:04.99	24.49	18.89	-49.8	-52.2	6.1	0.00e+00	0	43	104	17691574272	60	50036
2026-01-30 07:52:06.00	24.15	18.82	-49.5	-52.0	6.1	0.00e+00	0	43	104	17691574272	60	48845
2026-01-30 07:52:07.01	23.82	18.75	-49.6	-52.1	6.1	0.00e+00	0	43	104	17691574272	60	49244
2026-01-30 07:52:08.02	23.49	18.68	-49.7	-52.2	6.1	0.00e+00	0	43	104	17691574272	60	49629
2026-01-30 07:52:09.03	23.16	18.61	-49.7	-52.2	6.1	0.00e+00	0	43	104	17691574272	60	50101
2026-01-30 07:52:10.04	22.83	18.54	-49.5	-52.0	6.1	0.00e+00	0	43	104	17691574272	60	48981
2026-01-30 07:52:11.05	22.50	18.47	-49.6	-52.1	6.1	0.00e+00	0	43	104	17691574272	60	49390
2026-01-30 07:52:12.06	22.18	18.40	-49.7	-52.2	6.1	0.00e+00	0	43	104	17691574272	60	49653
2026-01-30 07:52:13.07	21.86	18.32	-49.6	-52.1	6.1	0.00e+00	0	43	104	17691574272	60	49093
2026-01-30 07:52:14.08	21.54	18.25	-49.3	-51.9	6.1	0.00e+00	0	43	104	17691574272	60	48037
2026-01-30 07:52:15.09	21.22	18.17	-49.6	-52.1	6.1	0.00e+00	0	43	104	17691574272	60	49521
2026-01-30 07:52:16.10	20.90	18.10	-49.7	-52.2	6.1	0.00e+00	0	43	104	17691574272	60	49792
2026-01-30 07:52:17.11	20.59	18.02	-49.7	-52.2	6.1	0.00e+00	0	43	104	17691574272	60	49996
2026-01-30 07:52:18.12	20.27	17.95	-49.6	-52.1	6.1	0.00e+00	0	43	104	17691574272	60	49173
2026-01-30 07:52:19.13	19.96	17.87	-49.7	-52.2	6.1	0.00e+00	0	43	104	17691574272	60	49825
2026-01-30 07:52:20.13	19.66	17.80	-49.6	-52.1	6.1	0.00e+00	0	43	104	17691574272	60	49299
2026-01-30 07:52:21.14	19.35	17.72	-49.7	-52.1	6.1	0.00e+00	0	43	104	17691574272	60	49595
2026-01-30 07:52:22.15	19.04	17.64	-49.5	-51.9	6.1	0.00e+00	0	43	104	17691574272	60	48415
2026-01-30 07:52:23.16	18.74	17.56	-49.7	-52.2	6.1	0.00e+00	0	43	104	17691574272	60	49875
2026-01-30 07:52:24.17	18.44	17.49	-49.7	-52.2	6.1	0.00e+00	0	43	104	17691574272	60	49902
2026-01-30 07:52:25.18	18.14	17.41	-49.7	-52.2	6.1	0.00e+00	0	43	104	17691574272	60	49651
2026-01-30 07:52:26.19	17.84	17.33	-49.7	-52.1	6.1	0.00e+00	0	43	104	17691574272	60	49343
2026-01-30 07:52:27.20	17.54	17.25	-49.6	-52.1	6.1	0.00e+00	0	43	104	17691574272	60	49141
2026-01-30 07:52:28.21	17.25	17.17	-49.6	-52.1	6.1	0.00e+00	0	43	104	17691574272	60	49460
2026-01-30 07:52:29.22	16.95	17.09	-49.6	-52.1	6.1	0.00e+00	0	43	104	17691574272	60	49462
2026-01-30 07:52:30.23	16.66	17.01	-49.5	-52.0	6.1	0.00e+00	0	43	104	17691574272	60	48643
2026-01-30 07:52:31.24	16.37	16.93	-49.6	-52.1	6.1	0.00e+00	0	43	104	17691574272	60	49498
2026-01-30 07:52:32.25	16.09	16.84	-49.7	-52.1	6.1	0.00e+00	0	43	104	17691574272	60	49419
2026-01-30 07:52:33.26	15.80	16.76	-49.7	-52.2	6.1	0.00e+00	0	43	104	17691574272	60	49706
2026-01-30 07:52:34.27	15.52	16.68	-49.6	-52.1	6.1	0.00e+00	0	43	104	17691574272	60	49344
2026-01-30 07:52:35.28	15.23	16.60	-49.6	-52.1	6.1	0.00e+00	0	43	104	17691574272	60	49046
2026-01-30 07:52:36.29	14.95	16.52	-49.6	-52.1	6.1	0.00e+00	0	43	104	17691574272	60	49534
2026-01-30 07:52:37.30	14.67	16.43	-49.7	-52.1	6.1	0.00e+00	0	43	104	17691574272	60	49470
2026-01-30 07:52:38.31	14.40	16.35	-49.6	-52.1	6.1	0.00e+00	0	43	104	17691574272	60	49157
2026-01-30 07:52:39.32	14.12	16.27	-49.4	-52.0	6.1	0.00e+00	0	43	104	17691574272	60	48543
2026-01-30 07:52:40.33	13.85	16.19	-49.6	-52.1	6.0	0.00e+00	0	43	104	17691574272	60	49075
2026-01-30 07:52:41.34	13.58	16.10	-49.6	-52.2	6.1	0.00e+00	0	43	104	17691574272	60	49699
2026-01-30 07:52:42.34	13.31	16.02	-49.5	-52.0	6.1	0.00e+00	0	43	104	17691574272	60	48639
2026-01-30 07:52:43.35	13.04	15.93	-49.6	-52.1	6.1	0.00e+00	0	43	104	17691574272	60	49362
2026-01-30 07:52:44.36	12.78	15.85	-49.6	-52.1	6.1	0.00e+00	0	43	104	17691574272	60	49568
2026-01-30 07:52:45.37	12.51	15.77	-49.6	-52.1	6.1	0.00e+00	0	43	104	17691574272	60	49420
2026-01-30 07:52:46.38	12.25	15.68	-49.4	-51.9	6.1	0.00e+00	0	43	104	17691574272	60	48162
2026-01-30 07:52:47.39	11.99	15.60	-49.7	-52.1	6.1	0.00e+00	0	43	104	17691574272	60	49405
2026-01-30 07:52:48.39	11.74	15.51	-49.7	-52.2	6.1	0.00e+00	0	43	104	17691574272	60	49658
2026-01-30 07:52:49.40	11.48	15.43	-49.6	-52.0	6.1	0.00e+00	0	43	104	17691574272	60	49039
2026-01-30 07:52:50.41	11.22	15.34	-49.4	-51.9	6.1	0.00e+00	0	43	104	17691574272	60	48457
2026-01-30 07:52:51.43	10.97	15.26	-49.7	-52.1	6.1	0.00e+00	0	43	104	17691574272	60	49380
2026-01-30 07:52:52.43	10.72	15.17	-49.6	-52.1	6.1	0.00e+00	0	43	104	17691574272	60	49307
2026-01-30 07:52:53.44	10.47	15.09	-49.6	-52.1	6.1	0.00e+00	0	43	104	17691574272	60	49292
2026-01-30 07:52:54.45	10.22	15.00	-49.6	-52.1	6.1	0.00e+00	0	43	104	17691574272	60	49295
2026-01-30 07:52:55.46	9.97	14.92	-49.6	-52.0	6.1	0.00e+00	0	43	104	17691574272	60	48996
2026-01-30 07:52:56.47	9.73	14.83	-49.6	-52.1	6.1	0.00e+00	0	43	104	17691574272	60	49343
2026-01-30 07:52:57.48	9.48	14.75	-49.6	-52.1	6.1	0.00e+00	0	43	104	17691574272	60	49350
2026-01-30 07:52:58.49	9.24	14.66	-49.5	-52.0	6.1	0.00e+00	0	43	104	17691574272	60	48752
2026-01-30 07:52:59.50	9.00	14.57	-49.5	-52.0	6.1	0.00e+00	0	43	104	17691574272	60	48856
2026-01-30 07:53:00.51	8.76	14.49	-49.6	-52.0	6.1	0.00e+00	0	43	104	17691574272	60	48961
2026-01-30 07:53:01.52	8.53	14.40	-49.6	-52.1	6.1	0.00e+00	0	43	104	17691574272	60	49426
2026-01-30 07:53:02.53	8.29	14.32	-49.6	-52.1	6.1	0.00e+00	0	43	104	17691574272	60	49114
2026-01-30 07:53:03.54	8.06	14.23	-49.4	-52.0	6.1	0.00e+00	0	43	104	17691574272	60	48578
2026-01-30 07:53:04.55	7.83	14.15	-49.6	-52.1	6.1	0.00e+00	0	43	104	17691574272	60	49198
2026-01-30 07:53:05.56	7.60	14.06	-49.5	-52.0	6.1	0.00e+00	0	43	104	17691574272	60	48960
2026-01-30 07:53:06.57	7.37	13.97	-49.6	-52.1	6.1	0.00e+00	0	43	104	17691574272	60	49374
2026-01-30 07:53:07.58	7.14	13.89	-49.6	-52.0	6.1	0.00e+00	0	43	104	17691574272	60	48994
2026-01-30 07:53:08.59	6.91	13.80	-49.6	-52.0	6.1	0.00e+00	0	43	104	17691574272	60	48877
2026-01-30 07:53:09.60	6.69	13.72	-49.6	-52.1	6.1	0.00e+00	0	43	104	17691574272	60	49067
2026-01-30 07:53:10.61	6.47	13.63	-49.5	-52.0	6.1	0.00e+00	0	43	104	17691574272	60	48830
2026-01-30 07:53:11.62	6.25	13.54	-49.6	-52.0	6.1	0.00e+00	0	43	104	17691574272	60	49029
2026-01-30 07:53:12.63	6.03	13.46	-49.6	-52.1	6.1	0.00e+00	0	43	104	17691574272	60	49217
2026-01-30 07:53:13.63	5.81	13.37	-49.6	-52.1	6.1	0.00e+00	0	43	104	17691574272	60	49098
2026-01-30 07:53:14.64	5.60	13.29	-49.5	-52.0	6.1	0.00e+00	0	43	104	17691574272	60	49036
2026-01-30 07:53:15.65	5.38	13.20	-49.5	-52.0	6.1	0.00e+00	0	43	104	17691574272	60	48766
2026-01-30 07:53:16.66	5.17	13.12	-49.6	-52.1	6.1	0.00e+00	0	43	104	17691574272	60	49397
2026-01-30 07:53:17.67	4.96	13.03	-49.5	-52.0	6.1	0.00e+00	0	43	104	17691574272	60	48765
2026-01-30 07:53:18.68	4.75	12.95	-49.6	-52.0	6.1	0.00e+00	0	43	104	17691574272	60	48903
2026-01-30 07:53:19.69	4.54	12.86	-49.6	-52.0	6.1	0.00e+00	0	43	104	17691574272	60	48914
2026-01-30 07:53:20.70	4.33	12.78	-49.6	-52.1	6.1	0.00e+00	0	43	104	17691574272	60	49042
2026-01-30 07:53:21.71	4.12	12.69	-49.6	-52.0	6.1	0.00e+00	0	43	104	17691574272	60	48778
2026-01-30 07:53:22.72	3.92	12.60	-49.5	-52.0	6.1	0.00e+00	0	43	104	17691574272	60	48717
2026-01-30 07:53:23.73	3.72	12.52	-49.5	-51.9	6.1	0.00e+00	0	43	104	17691574272	60	48379
2026-01-30 07:53:24.74	3.52	12.43	-49.6	-52.1	6.1	0.00e+00	0	43	104	17691574272	60	49061
2026-01-30 07:53:25.75	3.32	12.35	-49.5	-52.0	6.0	0.00e+00	0	43	104	17691574272	60	48806
2026-01-30 07:53:26.75	3.12	12.27	-49.5	-52.0	6.1	0.00e+00	0	43	104	17691574272	60	48762
2026-01-30 07:53:27.76	2.92	12.18	-49.6	-52.0	6.1	0.00e+00	0	43	104	17691574272	60	48867
2026-01-30 07:53:28.77	2.73	12.10	-49.6	-52.1	6.1	0.00e+00	0	43	104	17691574272	60	49294
2026-01-30 07:53:29.78	2.53	12.01	-49.5	-52.0	6.1	0.00e+00	0	43	104	17691574272	60	48879
2026-01-30 07:53:30.79	2.34	11.93	-49.5	-51.9	6.1	0.00e+00	0	43	104	17691574272	60	48294
2026-01-30 07:53:31.80	2.15	11.84	-49.5	-52.0	6.1	0.00e+00	0	43	104	17691574272	60	48652
2026-01-30 07:53:32.81	1.96	11.76	-49.5	-52.0	6.1	0.00e+00	0	43	104	17691574272	60	48626
2026-01-30 07:53:33.82	1.77	11.67	-49.5	-51.9	6.1	0.00e+00	0	43	104	17691574272	60	48357
2026-01-30 07:53:34.83	1.58	11.59	-49.5	-52.0	6.1	0.00e+00	0	43	104	17691574272	60	48611
2026-01-30 07:53:35.84	1.39	11.51	-49.5	-51.9	6.1	0.00e+00	0	43	104	17691574272	60	48440
2026-01-30 07:53:36.85	1.21	11.42	-49.5	-52.0	6.1	0.00e+00	0	43	104	17691574272	60	48933
2026-01-30 07:53:37.86	1.02	11.34	-49.5	-52.0	6.1	0.00e+00	0	43	104	17691574272	60	48631
2026-01-30 07:53:38.87	0.84	11.26	-49.5	-52.0	6.1	0.00e+00	0	43	104	17691574272	60	48616
2026-01-30 07:53:39.88	0.66	11.17	-49.5	-51.9	6.1	0.00e+00	0	43	104	17691574272	60	48358
2026-01-30 07:53:40.89	0.48	11.09	-49.6	-52.0	6.1	0.00e+00	0	43	104	17691574272	60	49027
2026-01-30 07:53:41.90	0.30	11.01	-49.4	-51.9	6.1	0.00e+00	0	43	104	17691574272	60	48460
2026-01-30 07:53:42.91	0.12	10.92	-49.5	-52.0	6.1	0.00e+00	0	43	104	17691574272	60	48692
2026-01-30 07:53:43.92	359.95	10.84	-49.6	-52.0	6.1	0.00e+00	0	43	104	17691574272	60	48643
2026-01-30 07:53:44.92	359.77	10.76	-49.5	-52.0	6.1	0.00e+00	0	43	104	17691574272	60	48892
2026-01-30 07:53:45.93	359.60	10.68	-49.5	-52.0	6.1	0.00e+00	0	43	104	17691574272	60	48770
2026-01-30 07:53:46.94	359.43	10.59	-49.4	-51.9	6.1	0.00e+00	0	43	104	17691574272	60	48206
2026-01-30 07:53:47.95	359.26	10.51	-49.5	-52.0	6.1	0.00e+00	0	43	104	17691574272	60	48583
2026-01-30 07:53:48.96	359.08	10.43	-49.4	-51.9	6.1	0.00e+00	0	43	104	17691574272	60	48301
2026-01-30 07:53:49.97	358.92	10.35	-49.4	-51.9	6.1	0.00e+00	0	43	104	17691574272	60	48060
2026-01-30 07:53:50.98	358.75	10.26	-49.3	-51.8	6.1	0.00e+00	0	43	104	17691574272	60	47571
2026-01-30 07:53:51.99	358.58	10.18	-49.4	-51.9	6.1	0.00e+00	0	43	104	17691574272	60	48074
2026-01-30 07:53:53.00	358.42	10.10	-49.5	-52.0	6.1	0.00e+00	0	43	104	17691574272	60	48487
2026-01-30 07:53:54.01	358.25	10.02	-49.1	-51.7	6.1	0.00e+00	0	43	104	17691574272	60	47046
2026-01-30 07:53:55.02	358.09	9.94	-49.4	-51.9	6.1	0.00e+00	0	43	104	17691574272	60	47939
2026-01-30 07:53:56.03	357.93	9.86	-49.3	-51.8	6.1	0.00e+00	0	43	104	17691574272	60	47583
2026-01-30 07:53:57.04	357.76	9.78	-49.4	-51.9	6.1	0.00e+00	0	43	104	17691574272	60	48094
2026-01-30 07:53:58.05	357.60	9.70	-49.3	-51.8	6.1	0.00e+00	0	43	104	17691574272	60	47625
2026-01-30 07:53:59.06	357.45	9.62	-49.4	-51.9	6.1	0.00e+00	0	43	104	17691574272	60	48079
2026-01-30 07:54:00.07	357.29	9.54	-49.3	-51.8	6.1	0.00e+00	0	43	104	17691574272	60	47423
2026-01-30 07:54:01.07	357.13	9.46	-49.4	-51.9	6.1	0.00e+00	0	43	104	17691574272	60	47992
2026-01-30 07:54:02.08	356.98	9.38	-49.3	-51.7	6.1	0.00e+00	0	43	104	17691574272	60	47241
2026-01-30 07:54:03.09	356.82	9.30	-49.4	-51.8	6.1	0.00e+00	0	43	104	17691574272	60	47843
2026-01-30 07:54:04.10	356.67	9.22	-49.4	-51.9	6.1	0.00e+00	0	43	104	17691574272	60	47938
2026-01-30 07:54:05.11	356.52	9.14	-49.4	-51.8	6.1	0.00e+00	0	43	104	17691574272	60	47828
2026-01-30 07:54:06.12	356.37	9.06	-49.3	-51.7	6.1	0.00e+00	0	43	104	17691574272	60	47192
2026-01-30 07:54:07.13	356.22	8.98	-49.2	-51.7	6.1	0.00e+00	0	43	104	17691574272	60	47071
2026-01-30 07:54:08.14	356.07	8.90	-49.3	-51.8	6.1	0.00e+00	0	43	104	17691574272	60	47823
2026-01-30 07:54:09.16	355.92	8.82	-49.4	-51.9	6.1	0.00e+00	0	43	104	17691574272	60	47939
2026-01-30 07:54:10.17	355.77	8.74	-49.3	-51.7	6.1	0.00e+00	0	43	104	17691574272	60	47084
2026-01-30 07:54:11.18	355.62	8.66	-49.3	-51.8	6.1	0.00e+00	0	43	104	17691574272	60	47561
2026-01-30 07:54:12.18	355.48	8.58	-49.3	-51.8	6.1	0.00e+00	0	43	104	17691574272	60	47747
2026-01-30 07:54:13.19	355.33	8.51	-49.3	-51.8	6.1	0.00e+00	0	43	104	17691574272	60	47639
2026-01-30 07:54:14.20	355.19	8.43	-49.2	-51.7	6.1	0.00e+00	0	43	104	17691574272	60	46873
2026-01-30 07:54:15.21	355.05	8.35	-49.3	-51.7	6.1	0.00e+00	0	43	104	17691574272	60	47272
2026-01-30 07:54:16.22	354.91	8.27	-49.3	-51.8	6.1	0.00e+00	0	43	104	17691574272	60	47377
2026-01-30 07:54:17.23	354.77	8.20	-49.3	-51.8	6.1	0.00e+00	0	43	104	17691574272	60	47719
2026-01-30 07:54:18.24	354.63	8.12	-49.2	-51.7	6.1	0.00e+00	0	43	104	17691574272	60	46854
2026-01-30 07:54:19.25	354.49	8.04	-49.2	-51.7	6.1	0.00e+00	0	43	104	17691574272	60	47275
2026-01-30 07:54:20.26	354.35	7.96	-49.3	-51.8	6.1	0.00e+00	0	43	104	17691574272	60	47477
2026-01-30 07:54:21.27	354.21	7.89	-49.2	-51.7	6.1	0.00e+00	0	43	104	17691574272	60	47183
2026-01-30 07:54:22.27	354.08	7.81	-49.1	-51.6	6.1	0.00e+00	0	43	104	17691574272	60	46532
2026-01-30 07:54:23.28	353.94	7.73	-49.3	-51.8	6.1	0.00e+00	0	43	104	17691574272	60	47474
2026-01-30 07:54:24.29	353.81	7.66	-49.2	-51.7	6.1	0.00e+00	0	43	104	17691574272	60	47225
2026-01-30 07:54:25.30	353.68	7.58	-49.3	-51.8	6.1	0.00e+00	0	43	104	17691574272	60	47661
2026-01-30 07:54:26.31	353.55	7.51	-49.2	-51.7	6.1	0.00e+00	0	43	104	17691574272	60	47027
2026-01-30 07:54:27.32	353.41	7.43	-49.3	-51.8	6.1	0.00e+00	0	43	104	17691574272	60	47616
2026-01-30 07:54:28.33	353.28	7.36	-49.3	-51.8	6.1	0.00e+00	0	43	104	17691574272	60	47686
2026-01-30 07:54:29.34	353.15	7.28	-49.3	-51.7	6.1	0.00e+00	0	43	104	17691574272	60	47331
2026-01-30 07:54:30.35	353.02	7.20	-49.1	-51.6	6.1	0.00e+00	0	43	104	17691574272	60	46707
2026-01-30 07:54:31.36	352.90	7.13	-49.2	-51.8	6.1	0.00e+00	0	43	104	17691574272	60	47398
2026-01-30 07:54:32.37	352.77	7.05	-49.3	-51.8	6.1	0.00e+00	0	43	104	17691574272	60	47514
2026-01-30 07:54:33.38	352.64	6.98	-49.2	-51.7	6.1	0.00e+00	0	43	104	17691574272	60	47057
2026-01-30 07:54:34.39	352.52	6.91	-49.1	-51.6	6.1	0.00e+00	0	43	104	17691574272	60	46681
2026-01-30 07:54:35.40	352.39	6.83	-49.1	-51.6	6.1	0.00e+00	0	43	104	17691574272	60	46529
2026-01-30 07:54:36.41	352.27	6.76	-49.3	-51.7	6.1	0.00e+00	0	43	104	17691574272	60	47331
2026-01-30 07:54:37.42	352.15	6.68	-49.2	-51.7	6.1	0.00e+00	0	43	104	17691574272	60	46888
2026-01-30 07:54:38.43	352.02	6.61	-49.1	-51.6	6.1	0.00e+00	0	43	104	17691574272	60	46306
2026-01-30 07:54:39.43	351.90	6.54	-49.1	-51.6	6.1	0.00e+00	0	43	104	17691574272	60	46812
2026-01-30 07:54:40.44	351.78	6.46	-49.2	-51.7	6.1	0.00e+00	0	43	104	17691574272	60	46874
2026-01-30 07:54:41.45	351.66	6.39	-49.1	-51.6	6.1	0.00e+00	0	43	104	17691574272	60	46387
2026-01-30 07:54:42.46	351.54	6.32	-49.1	-51.5	6.1	0.00e+00	0	43	104	17691574272	60	46271
2026-01-30 07:54:43.47	351.43	6.24	-49.1	-51.7	6.1	0.00e+00	0	43	104	17691574272	60	46846
2026-01-30 07:54:44.49	351.31	6.17	-49.2	-51.7	6.1	0.00e+00	0	43	104	17691574272	60	47039
2026-01-30 07:54:45.50	351.19	6.10	-49.1	-51.6	6.1	0.00e+00	0	43	104	17691574272	60	46409
2026-01-30 07:54:46.51	351.07	6.03	-49.0	-51.5	6.1	0.00e+00	0	43	104	17691574272	60	46115
2026-01-30 07:54:47.52	350.96	5.95	-49.1	-51.6	6.0	0.00e+00	0	43	104	17691574272	60	46550
2026-01-30 07:54:48.53	350.84	5.88	-49.2	-51.7	6.1	0.00e+00	0	43	104	17691574272	60	47038
2026-01-30 07:54:49.54	350.73	5.81	-49.1	-51.5	6.1	0.00e+00	0	43	104	17691574272	60	46281
2026-01-30 07:54:50.55	350.62	5.74	-48.9	-51.4	6.1	0.00e+00	0	43	104	17691574272	60	45453
2026-01-30 07:54:51.56	350.51	5.67	-49.0	-51.5	6.1	0.00e+00	0	43	104	17691574272	60	46228
2026-01-30 07:54:52.57	350.39	5.59	-49.1	-51.7	6.1	0.00e+00	0	43	104	17691574272	60	46862
2026-01-30 07:54:53.58	350.28	5.52	-49.1	-51.5	6.1	0.00e+00	0	43	104	17691574272	60	46102
2026-01-30 07:54:54.59	350.17	5.45	-48.9	-51.4	6.1	0.00e+00	0	43	104	17691574272	60	45694
2026-01-30 07:54:55.60	350.06	5.38	-49.1	-51.6	6.1	0.00e+00	0	43	104	17691574272	60	46425
2026-01-30 07:54:56.60	349.95	5.31	-49.2	-51.7	6.1	0.00e+00	0	43	104	17691574272	60	47013
2026-01-30 07:54:57.61	349.85	5.24	-49.0	-51.5	6.1	0.00e+00	0	43	104	17691574272	60	45968
2026-01-30 07:54:58.62	349.74	5.17	-49.0	-51.4	6.1	0.00e+00	0	43	104	17691574272	60	45632
2026-01-30 07:54:59.63	349.63	5.10	-49.0	-51.5	6.1	0.00e+00	0	43	104	17691574272	60	45982
2026-01-30 07:55:00.64	349.53	5.03	-49.1	-51.6	6.1	0.00e+00	0	43	104	17691574272	60	46503
2026-01-30 07:55:01.65	349.42	4.96	-48.9	-51.4	6.1	0.00e+00	0	43	104	17691574272	60	45641
2026-01-30 07:55:02.65	349.32	4.89	-48.9	-51.3	6.1	0.00e+00	0	43	104	17691574272	60	45207
2026-01-30 07:55:03.67	349.21	4.82	-49.0	-51.5	6.1	0.00e+00	0	43	104	17691574272	60	45869
2026-01-30 07:55:04.67	349.11	4.75	-49.0	-51.4	6.1	0.00e+00	0	43	104	17691574272	60	45757
2026-01-30 07:55:05.68	349.01	4.68	-48.8	-51.3	6.1	0.00e+00	0	43	104	17691574272	60	44889
2026-01-30 07:55:06.70	348.90	4.61	-48.6	-51.1	6.1	0.00e+00	0	43	104	17691574272	60	43792
2026-01-30 07:55:07.71	348.80	4.55	-48.9	-51.4	6.1	0.00e+00	0	43	104	17691574272	60	45330
2026-01-30 07:55:08.71	348.70	4.48	-48.9	-51.3	6.1	0.00e+00	0	43	104	17691574272	60	45165
2026-01-30 07:55:09.72	348.60	4.41	-48.5	-51.0	6.1	0.00e+00	0	43	104	17691574272	60	43511
2026-01-30 07:55:10.73	348.50	4.34	-47.9	-50.4	6.1	0.00e+00	0	43	104	17691574272	60	40673
2026-01-30 07:55:11.75	348.40	4.27	-48.7	-51.2	6.1	0.00e+00	0	43	104	17691574272	60	44268
2026-01-30 07:55:12.75	348.30	4.20	-48.0	-50.5	6.1	0.00e+00	0	43	104	17691574272	60	40855
2026-01-30 07:55:13.76	348.20	4.14	-47.4	-49.8	6.1	0.00e+00	0	43	104	17691574272	60	38061
2026-01-30 07:55:14.77	348.11	4.07	-47.1	-49.6	6.1	0.00e+00	0	43	104	17691574272	60	36986
2026-01-30 07:55:15.78	348.01	4.00	-46.3	-48.8	6.1	0.00e+00	0	43	104	17691574272	60	33694
2026-01-30 07:55:16.79	347.91	3.93	-46.4	-48.9	6.0	0.00e+00	0	43	104	17691574272	60	34016
2026-01-30 07:55:17.80	347.82	3.87	-47.8	-50.3	6.1	0.00e+00	0	43	104	17691574272	60	40178
2026-01-30 07:55:18.81	347.72	3.80	-46.7	-49.2	6.1	0.00e+00	0	43	104	17691574272	60	35180
2026-01-30 07:55:19.82	347.63	3.73	-45.8	-48.2	6.1	0.00e+00	0	43	104	17691574272	60	31627
2026-01-30 07:55:20.83	347.53	3.66	-45.6	-48.1	6.1	0.00e+00	0	43	104	17691574272	60	30957
2026-01-30 07:55:21.84	347.44	3.60	-45.4	-47.9	6.1	0.00e+00	0	43	104	17691574272	60	30563
2026-01-30 07:55:22.85	347.35	3.53	-45.3	-47.8	6.1	0.00e+00	0	43	104	17691574272	60	29937
2026-01-30 07:55:23.86	347.26	3.47	-45.2	-47.7	6.1	0.00e+00	0	43	104	17691574272	60	29762
2026-01-30 07:55:24.87	347.16	3.40	-45.5	-48.0	6.1	0.00e+00	0	43	104	17691574272	60	30747
2026-01-30 07:55:25.88	347.07	3.33	-46.0	-48.5	6.1	0.00e+00	0	43	104	17691574272	60	32453
2026-01-30 07:55:26.89	346.98	3.27	-45.2	-47.7	6.1	0.00e+00	0	43	104	17691574272	60	29703
2026-01-30 07:55:27.90	346.89	3.20	-45.8	-48.3	6.1	0.00e+00	0	43	104	17691574272	60	32005
2026-01-30 07:55:28.91	346.80	3.14	-45.2	-47.7	6.1	0.00e+00	0	43	104	17691574272	60	29753
2026-01-30 07:55:29.92	346.71	3.07	-45.1	-47.6	6.1	0.00e+00	0	43	104	17691574272	60	29367
2026-01-30 07:55:30.93	346.63	3.00	-45.0	-47.5	6.1	0.00e+00	0	43	104	17691574272	60	29044
2026-01-30 07:55:31.94	346.54	2.94	-45.4	-47.9	6.1	0.00e+00	0	43	104	17691574272	60	30477
2026-01-30 07:55:32.95	346.45	2.87	-48.3	-50.8	6.1	0.00e+00	0	43	104	17691574272	60	42416
2026-01-30 07:55:33.96	346.36	2.81	-49.4	-51.8	6.1	0.00e+00	0	43	104	17691574272	60	47919
2026-01-30 07:55:34.97	346.28	2.74	-49.6	-52.1	6.1	0.00e+00	0	43	104	17691574272	60	49290
2026-01-30 07:55:35.98	346.19	2.68	-49.7	-52.2	6.1	0.00e+00	0	43	104	17691574272	60	50128
2026-01-30 07:55:36.99	346.10	2.62	-49.9	-52.3	6.1	0.00e+00	0	43	104	17691574272	60	50549
2026-01-30 07:55:38.00	346.02	2.55	-50.0	-52.4	6.1	0.00e+00	0	43	104	17691574272	60	51216
2026-01-30 07:55:39.01	345.94	2.49	-50.0	-52.4	6.1	0.00e+00	0	43	104	17691574272	60	51345
2026-01-30 07:55:40.02	345.85	2.42	-50.0	-52.6	6.1	0.00e+00	0	43	104	17691574272	60	52020
2026-01-30 07:55:41.03	345.77	2.36	-50.1	-52.5	6.1	0.00e+00	0	43	104	17691574272	60	51831
2026-01-30 07:55:42.04	345.68	2.30	-49.5	-52.1	6.1	0.00e+00	0	43	104	17691574272	60	49442
2026-01-30 07:55:43.05	345.60	2.23	-50.1	-52.6	6.1	0.00e+00	0	43	104	17691574272	60	52066
2026-01-30 07:55:44.06	345.52	2.17	-50.2	-52.7	6.1	0.00e+00	0	43	104	17691574272	60	52750
2026-01-30 07:55:45.07	345.44	2.11	-50.1	-52.5	6.1	0.00e+00	0	43	104	17691574272	60	51913
2026-01-30 07:55:46.08	345.36	2.04	-50.1	-52.6	6.1	0.00e+00	0	43	104	17691574272	60	52329
2026-01-30 07:55:47.09	345.28	1.98	-50.1	-52.5	6.1	0.00e+00	0	43	104	17691574272	60	51901
2026-01-30 07:55:48.10	345.20	1.92	-50.0	-52.5	6.1	0.00e+00	0	43	104	17691574272	60	51845
2026-01-30 07:55:49.11	345.12	1.85	-49.9	-52.4	6.1	0.00e+00	0	43	104	17691574272	60	50785
2026-01-30 07:55:50.12	345.04	1.79	-49.8	-52.3	6.1	0.00e+00	0	43	104	17691574272	60	50220
2026-01-30 07:55:51.13	344.96	1.73	-50.0	-52.5	6.1	0.00e+00	0	43	104	17691574272	60	51637
2026-01-30 07:55:52.14	344.88	1.67	-50.1	-52.5	6.1	0.00e+00	0	43	104	17691574272	60	51730
2026-01-30 07:55:53.14	344.80	1.60	-50.0	-52.5	6.1	0.00e+00	0	43	104	17691574272	60	51624
2026-01-30 07:55:54.15	344.73	1.54	-50.1	-52.5	6.1	0.00e+00	0	43	104	17691574272	60	51548
2026-01-30 07:55:55.16	344.65	1.48	-50.0	-52.5	6.1	0.00e+00	0	43	104	17691574272	60	51530
2026-01-30 07:55:56.17	344.57	1.42	-50.0	-52.5	6.1	0.00e+00	0	43	104	17691574272	60	51815
2026-01-30 07:55:57.18	344.50	1.36	-50.0	-52.5	6.1	0.00e+00	0	43	104	17691574272	60	51668
2026-01-30 07:55:58.19	344.42	1.29	-50.0	-52.5	6.1	0.00e+00	0	43	104	17691574272	60	51659
2026-01-30 07:55:59.20	344.34	1.23	-50.0	-52.5	6.1	0.00e+00	0	43	104	17691574272	60	51581
2026-01-30 07:56:00.21	344.27	1.17	-50.0	-52.5	6.1	0.00e+00	0	43	104	17691574272	60	51534
2026-01-30 07:56:01.22	344.19	1.11	-50.0	-52.5	6.1	0.00e+00	0	43	104	17691574272	60	51460
2026-01-30 07:56:02.22	344.12	1.05	-50.0	-52.5	6.1	0.00e+00	0	43	104	17691574272	60	51602
2026-01-30 07:56:03.23	344.05	0.99	-50.0	-52.5	6.1	0.00e+00	0	43	104	17691574272	60	51514
2026-01-30 07:56:04.24	343.97	0.93	-50.0	-52.5	6.1	0.00e+00	0	43	104	17691574272	60	51552
2026-01-30 07:56:05.25	343.90	0.87	-50.0	-52.5	6.1	0.00e+00	0	43	104	17691574272	60	51394
2026-01-30 07:56:06.26	343.83	0.81	-50.0	-52.5	6.1	0.00e+00	0	43	104	17691574272	60	51565
2026-01-30 07:56:07.27	343.76	0.75	-50.0	-52.5	6.1	0.00e+00	0	43	104	17691574272	60	51430
2026-01-30 07:56:08.28	343.68	0.69	-50.0	-52.5	6.1	0.00e+00	0	43	104	17691574272	60	51555
2026-01-30 07:56:09.29	343.61	0.63	-50.0	-52.5	6.1	0.00e+00	0	43	104	17691574272	60	51512
2026-01-30 07:56:10.30	343.54	0.57	-50.0	-52.5	6.1	0.00e+00	0	43	104	17691574272	60	51510
2026-01-30 07:56:11.31	343.47	0.51	-50.0	-52.5	6.1	0.00e+00	0	43	104	17691574272	60	51495
2026-01-30 07:56:12.32	343.40	0.45	-50.0	-52.5	6.1	0.00e+00	0	43	104	17691574272	60	51422
2026-01-30 07:56:13.33	343.33	0.39	-50.0	-52.5	6.1	0.00e+00	0	43	104	17691574272	60	51410
2026-01-30 07:56:14.34	343.26	0.33	-50.0	-52.5	6.1	0.00e+00	0	43	104	17691574272	60	51556
2026-01-30 07:56:15.35	343.19	0.27	-50.0	-52.4	6.1	0.00e+00	0	43	104	17691574272	60	51314
2026-01-30 07:56:16.36	343.12	0.21	-50.0	-52.5	6.1	0.00e+00	0	43	104	17691574272	60	51365
2026-01-30 07:56:17.37	343.06	0.15	-50.0	-52.5	6.1	0.00e+00	0	43	104	17691574272	60	51765
2026-01-30 07:56:18.38	342.99	0.09	-50.0	-52.5	6.1	0.00e+00	0	43	104	17691574272	60	51506
2026-01-30 07:56:19.39	342.92	0.03	-50.0	-52.4	6.1	0.00e+00	0	43	104	17691574272	60	51094
2026-01-30 07:56:20.40	342.85	-0.03	-50.0	-52.4	6.0	0.00e+00	0	43	104	17691574272	60	51337

#Closed at: 2026-01-30 07:56:21
#Recorded file [17691 MB]: D:/lorett/data/35029_260130_194617.dat