passes_logs/2026/01/30/R4.6S_Anadyr/R4.6S_Anadyr__20260130_011804_SUOMI_NPP_rec.log

#Pass ID: 20260130_011804_SUOMI NPP
#Satellite: SUOMI NPP
#Configuration: NPP
#almurnet v.1.7.20251203
#Start time: 2026-01-30 01:18:06

#Version: 2.2.20231116
#Station: R4.6S_Anadyr
#Location: 177.4865 lon 64.73178 lat
#TLE: 1 37849U 11061A   26029.48304708  .00000140  00000+0  87283-4 0  9999
#TLE: 2 37849  98.7824 331.4079 0002024  38.4342 321.6978 14.19531488738761

#Time	Az	El	Level	Level2	SNR	BER	BlckErr	Temp	State	Recorded	gain1	gain2
2026-01-30 01:18:06.99	181.73	0.12	-49.4	-62.0	3.4	1.52e+00	0	34	0	0	60	44013
2026-01-30 01:18:07.99	181.77	0.18	-49.4	-64.6	3.6	1.51e+00	0	36	104	0	60	61660
2026-01-30 01:18:09.00	181.80	0.24	-49.4	-64.6	3.6	1.51e+00	0	36	104	0	60	61643
2026-01-30 01:18:10.01	181.83	0.30	-49.4	-64.6	3.6	1.51e+00	0	36	104	0	60	61687
2026-01-30 01:18:11.02	181.87	0.36	-49.4	-64.6	3.6	1.51e+00	0	36	104	0	60	61622
2026-01-30 01:18:12.03	181.90	0.42	-49.4	-64.6	3.6	1.51e+00	0	36	104	0	60	61449
2026-01-30 01:18:13.04	181.94	0.48	-49.4	-64.7	3.6	1.51e+00	0	36	104	0	60	61890
2026-01-30 01:18:14.05	181.97	0.54	-49.4	-64.7	3.6	1.51e+00	0	36	104	0	60	61793
2026-01-30 01:18:15.06	182.01	0.60	-49.4	-64.7	3.6	1.51e+00	0	36	104	0	60	62004
2026-01-30 01:18:16.07	182.04	0.66	-49.4	-64.7	3.6	1.51e+00	0	36	104	0	60	61747
2026-01-30 01:18:17.08	182.08	0.72	-49.4	-64.6	3.6	1.51e+00	0	36	104	0	60	61705
2026-01-30 01:18:18.09	182.11	0.78	-49.4	-64.6	3.6	1.51e+00	0	36	104	0	60	61672
2026-01-30 01:18:19.10	182.15	0.84	-49.4	-64.6	3.6	1.51e+00	0	36	104	0	60	61540
2026-01-30 01:18:20.11	182.18	0.90	-49.4	-64.7	3.6	1.51e+00	0	36	104	0	60	61936
2026-01-30 01:18:21.12	182.22	0.96	-49.4	-64.7	3.5	1.51e+00	0	36	104	0	60	61858
2026-01-30 01:18:22.14	182.25	1.02	-49.4	-64.7	3.6	1.51e+00	0	36	104	0	60	61933
2026-01-30 01:18:23.15	182.29	1.08	-49.4	-64.6	3.6	1.51e+00	0	36	104	0	60	61568
2026-01-30 01:18:24.16	182.33	1.14	-49.4	-64.7	3.6	1.51e+00	0	36	104	0	60	61747
2026-01-30 01:18:25.17	182.36	1.20	-49.4	-64.7	3.6	1.51e+00	0	36	104	0	60	61923
2026-01-30 01:18:26.18	182.40	1.26	-49.4	-64.6	3.6	1.51e+00	0	36	104	0	60	61666
2026-01-30 01:18:27.19	182.43	1.32	-49.4	-64.6	3.6	1.51e+00	0	36	104	0	60	61681
2026-01-30 01:18:28.20	182.47	1.38	-49.4	-64.7	3.6	1.51e+00	0	36	104	0	60	61824
2026-01-30 01:18:29.21	182.51	1.45	-49.4	-64.7	3.6	1.51e+00	0	36	104	0	60	61844
2026-01-30 01:18:30.22	182.54	1.51	-49.4	-64.6	3.6	1.51e+00	0	36	104	0	60	61702
2026-01-30 01:18:31.23	182.58	1.57	-49.4	-64.7	3.6	1.51e+00	0	36	104	0	60	62080
2026-01-30 01:18:32.24	182.62	1.63	-49.4	-64.7	3.6	1.51e+00	0	36	104	0	60	62020
2026-01-30 01:18:33.25	182.66	1.69	-49.4	-64.7	3.6	1.51e+00	0	36	104	0	60	62098
2026-01-30 01:18:34.26	182.69	1.75	-49.4	-64.7	3.6	1.51e+00	0	36	104	0	60	61974
2026-01-30 01:18:35.27	182.73	1.82	-49.4	-64.7	3.6	1.51e+00	0	36	104	0	60	61770
2026-01-30 01:18:36.28	182.77	1.88	-49.4	-64.6	3.6	1.51e+00	0	36	104	0	60	61572
2026-01-30 01:18:37.29	182.81	1.94	-49.4	-64.7	3.6	1.51e+00	0	36	104	0	60	61902
2026-01-30 01:18:38.30	182.84	2.00	-49.4	-64.7	3.6	1.51e+00	0	36	104	0	60	62132
2026-01-30 01:18:39.31	182.88	2.07	-49.4	-64.7	3.6	1.51e+00	0	36	104	0	60	62013
2026-01-30 01:18:40.32	182.92	2.13	-49.4	-64.6	3.6	1.51e+00	0	36	104	0	60	61568
2026-01-30 01:18:41.33	182.96	2.19	-49.4	-64.7	3.6	1.51e+00	0	36	104	0	60	61779
2026-01-30 01:18:42.35	183.00	2.25	-49.4	-64.6	3.6	1.51e+00	0	36	104	0	60	61551
2026-01-30 01:18:43.35	183.04	2.32	-49.4	-64.7	3.6	1.51e+00	0	36	104	0	60	61904
2026-01-30 01:18:44.36	183.07	2.38	-49.4	-64.7	3.6	1.51e+00	0	36	104	0	60	62153
2026-01-30 01:18:45.37	183.11	2.44	-49.4	-64.7	3.6	1.51e+00	0	36	104	0	60	61886
2026-01-30 01:18:46.39	183.15	2.51	-49.4	-64.7	3.6	1.51e+00	0	36	104	0	60	61741
2026-01-30 01:18:47.40	183.19	2.57	-49.4	-64.7	3.6	1.51e+00	0	36	104	0	60	62210
2026-01-30 01:18:48.41	183.23	2.63	-49.4	-64.7	3.6	1.51e+00	0	36	104	0	60	61831
2026-01-30 01:18:49.42	183.27	2.70	-49.4	-64.7	3.6	1.51e+00	0	36	104	0	60	61847
2026-01-30 01:18:50.43	183.31	2.76	-49.4	-64.7	3.6	1.51e+00	0	36	104	0	60	61939
2026-01-30 01:18:51.44	183.35	2.83	-49.4	-64.7	3.6	1.51e+00	0	36	104	0	60	61852
2026-01-30 01:18:52.45	183.39	2.89	-49.4	-64.7	3.6	1.51e+00	0	36	104	0	60	62006
2026-01-30 01:18:53.46	183.43	2.96	-49.4	-64.6	3.6	1.51e+00	0	37	104	0	60	61496
2026-01-30 01:18:54.47	183.47	3.02	-49.4	-64.7	3.6	1.51e+00	0	36	104	0	60	61893
2026-01-30 01:18:55.48	183.51	3.09	-49.4	-64.7	3.6	1.51e+00	0	36	104	0	60	61821
2026-01-30 01:18:56.49	183.55	3.15	-49.4	-64.7	3.6	1.51e+00	0	36	104	0	60	61785
2026-01-30 01:18:57.50	183.59	3.21	-49.4	-64.7	3.6	1.51e+00	0	36	104	0	60	62097
2026-01-30 01:18:58.51	183.64	3.28	-49.4	-64.6	3.6	1.51e+00	0	36	104	0	60	61566
2026-01-30 01:18:59.52	183.68	3.35	-49.4	-64.7	3.6	1.51e+00	0	37	104	0	60	61855
2026-01-30 01:19:00.53	183.72	3.41	-49.4	-64.6	3.6	1.51e+00	0	36	104	0	60	61605
2026-01-30 01:19:01.54	183.76	3.48	-49.4	-64.7	3.6	1.51e+00	0	37	104	0	60	61769
2026-01-30 01:19:02.55	183.80	3.54	-49.4	-64.7	3.6	1.51e+00	0	37	104	0	60	61782
2026-01-30 01:19:03.56	183.84	3.61	-49.4	-64.7	3.6	1.51e+00	0	37	104	0	60	62055
2026-01-30 01:19:04.57	183.89	3.67	-49.4	-64.7	3.6	1.51e+00	0	36	104	0	60	61958
2026-01-30 01:19:05.58	183.93	3.74	-49.4	-64.7	3.6	1.51e+00	0	37	104	0	60	61844
2026-01-30 01:19:06.59	183.97	3.81	-49.4	-64.6	3.6	1.51e+00	0	37	104	0	60	61739
2026-01-30 01:19:07.60	184.01	3.87	-49.4	-64.7	3.6	1.51e+00	0	37	104	0	60	62011
2026-01-30 01:19:08.61	184.06	3.94	-49.4	-64.7	3.6	1.51e+00	0	37	104	0	60	61977
2026-01-30 01:19:09.62	184.10	4.01	-49.4	-64.7	3.6	1.51e+00	0	36	104	0	60	61957
2026-01-30 01:19:10.63	184.14	4.07	-49.4	-64.7	3.6	1.51e+00	0	37	104	0	60	61803
2026-01-30 01:19:11.64	184.18	4.14	-49.4	-64.6	3.6	1.51e+00	0	37	104	0	60	61712
2026-01-30 01:19:12.65	184.23	4.21	-49.4	-64.7	3.6	1.51e+00	0	37	104	0	60	62120
2026-01-30 01:19:13.66	184.27	4.28	-49.4	-64.7	3.6	1.51e+00	0	37	104	0	60	62206
2026-01-30 01:19:14.67	184.32	4.34	-49.4	-64.6	3.6	1.51e+00	0	37	104	0	60	61721
2026-01-30 01:19:15.68	184.36	4.41	-49.4	-64.7	3.6	1.51e+00	0	37	104	0	60	61855
2026-01-30 01:19:16.69	184.40	4.48	-49.4	-64.7	3.6	1.51e+00	0	37	104	0	60	61883
2026-01-30 01:19:17.70	184.45	4.55	-49.4	-64.7	3.6	1.51e+00	0	37	104	0	60	61890
2026-01-30 01:19:18.71	184.49	4.61	-49.4	-64.7	3.6	1.51e+00	0	37	104	0	60	61773
2026-01-30 01:19:19.72	184.54	4.68	-49.4	-64.6	3.6	1.51e+00	0	37	104	0	60	61678
2026-01-30 01:19:20.73	184.58	4.75	-49.4	-64.6	3.6	1.51e+00	0	37	104	0	60	61714
2026-01-30 01:19:21.74	184.63	4.82	-49.4	-64.7	3.6	1.51e+00	0	37	104	0	60	62048
2026-01-30 01:19:22.75	184.67	4.89	-49.4	-64.7	3.6	1.51e+00	0	37	104	0	60	61855
2026-01-30 01:19:23.76	184.72	4.96	-49.4	-64.7	3.6	1.51e+00	0	37	104	0	60	61896
2026-01-30 01:19:24.77	184.77	5.03	-49.4	-64.7	3.6	1.51e+00	0	37	104	0	60	62125
2026-01-30 01:19:25.78	184.81	5.10	-49.4	-64.7	3.6	1.51e+00	0	37	104	0	60	61922
2026-01-30 01:19:26.79	184.86	5.17	-49.4	-64.7	3.6	1.51e+00	0	37	104	0	60	62118
2026-01-30 01:19:27.80	184.90	5.24	-49.4	-64.7	3.6	1.51e+00	0	37	104	0	60	61866
2026-01-30 01:19:28.81	184.95	5.31	-49.4	-64.7	3.6	1.51e+00	0	37	104	0	60	61896
2026-01-30 01:19:29.82	185.00	5.38	-49.4	-64.7	3.6	1.51e+00	0	37	104	0	60	61814
2026-01-30 01:19:30.83	185.04	5.45	-49.4	-64.7	3.6	1.51e+00	0	37	104	0	60	61777
2026-01-30 01:19:31.84	185.09	5.52	-49.4	-64.6	3.6	1.51e+00	0	37	104	0	60	61343
2026-01-30 01:19:32.85	185.14	5.59	-49.4	-64.7	3.6	1.51e+00	0	37	104	0	60	61797
2026-01-30 01:19:33.86	185.19	5.66	-49.4	-64.6	3.6	1.51e+00	0	37	104	0	60	61501
2026-01-30 01:19:34.87	185.23	5.73	-49.4	-64.6	3.6	1.51e+00	0	37	104	0	60	61672
2026-01-30 01:19:35.88	185.28	5.80	-49.4	-64.7	3.6	1.51e+00	0	37	104	0	60	61947
2026-01-30 01:19:36.89	185.33	5.87	-49.4	-64.7	3.6	1.51e+00	0	37	104	0	60	62064
2026-01-30 01:19:37.90	185.38	5.94	-49.4	-64.7	3.6	1.51e+00	0	37	104	0	60	61871
2026-01-30 01:19:38.91	185.43	6.01	-49.4	-64.7	3.6	1.51e+00	0	37	104	0	60	62074
2026-01-30 01:19:39.92	185.48	6.09	-49.4	-64.6	3.6	1.51e+00	0	37	104	0	60	61693
2026-01-30 01:19:40.93	185.53	6.16	-49.4	-64.7	3.6	1.51e+00	0	37	104	0	60	62145
2026-01-30 01:19:41.94	185.58	6.23	-49.4	-64.7	3.6	1.51e+00	0	37	104	0	60	61777
2026-01-30 01:19:42.95	185.63	6.30	-49.4	-64.7	3.6	1.51e+00	0	37	104	0	60	61902
2026-01-30 01:19:43.96	185.68	6.37	-49.4	-64.7	3.6	1.51e+00	0	37	104	0	60	61924
2026-01-30 01:19:44.97	185.73	6.45	-49.4	-64.7	3.6	1.51e+00	0	37	104	0	60	61778
2026-01-30 01:19:45.98	185.78	6.52	-49.4	-64.7	3.6	1.51e+00	0	37	104	0	60	62076
2026-01-30 01:19:46.99	185.83	6.59	-49.4	-64.6	3.6	1.51e+00	0	37	104	0	60	61665
2026-01-30 01:19:48.00	185.88	6.67	-49.4	-64.7	3.6	1.51e+00	0	37	104	0	60	61878
2026-01-30 01:19:49.01	185.93	6.74	-49.4	-64.7	3.6	1.51e+00	0	37	104	0	60	62007
2026-01-30 01:19:50.02	185.98	6.81	-49.4	-64.7	3.6	1.51e+00	0	37	104	0	60	61941
2026-01-30 01:19:51.03	186.03	6.89	-49.4	-64.7	3.6	1.51e+00	0	37	104	0	60	61913
2026-01-30 01:19:52.04	186.08	6.96	-49.4	-64.7	3.6	1.51e+00	0	37	104	0	60	61855
2026-01-30 01:19:53.05	186.14	7.04	-49.4	-64.7	3.6	1.51e+00	0	37	104	0	60	61983
2026-01-30 01:19:54.06	186.19	7.11	-49.4	-64.7	3.6	1.51e+00	0	37	104	0	60	61967
2026-01-30 01:19:55.07	186.24	7.18	-49.4	-64.7	3.6	1.51e+00	0	37	104	0	60	61921
2026-01-30 01:19:56.08	186.29	7.26	-49.4	-64.7	3.6	1.51e+00	0	37	104	0	60	62025
2026-01-30 01:19:57.09	186.35	7.33	-49.4	-64.7	3.6	1.51e+00	0	37	104	0	60	62190
2026-01-30 01:19:58.11	186.40	7.41	-49.4	-64.7	3.6	1.51e+00	0	37	104	0	60	61945
2026-01-30 01:19:59.12	186.45	7.49	-49.4	-64.7	3.6	1.51e+00	0	37	104	0	60	62309
2026-01-30 01:20:00.13	186.51	7.56	-49.4	-64.7	3.6	1.51e+00	0	37	104	0	60	61797
2026-01-30 01:20:01.14	186.56	7.64	-49.4	-64.7	3.6	1.51e+00	0	37	104	0	60	62170
2026-01-30 01:20:02.15	186.62	7.71	-49.4	-64.6	3.6	1.51e+00	0	37	104	0	60	61708
2026-01-30 01:20:03.16	186.67	7.79	-49.4	-64.7	3.6	1.51e+00	0	37	104	0	60	61966
2026-01-30 01:20:04.17	186.73	7.87	-49.4	-64.7	3.6	1.51e+00	0	37	104	0	60	61964
2026-01-30 01:20:05.18	186.78	7.94	-49.4	-64.7	3.6	1.51e+00	0	37	104	0	60	62249
2026-01-30 01:20:06.19	186.84	8.02	-49.4	-64.7	3.6	1.51e+00	0	37	104	0	60	62091
2026-01-30 01:20:07.20	186.89	8.10	-49.4	-64.8	3.6	1.51e+00	0	37	104	0	60	62573
2026-01-30 01:20:08.21	186.95	8.17	-49.4	-64.7	3.6	1.51e+00	0	37	104	0	60	61980
2026-01-30 01:20:09.22	187.00	8.25	-49.4	-64.7	3.6	1.51e+00	0	37	104	0	60	62287
2026-01-30 01:20:10.23	187.06	8.33	-49.4	-64.7	3.6	1.51e+00	0	37	104	0	60	61951
2026-01-30 01:20:11.24	187.12	8.41	-49.4	-64.6	3.6	1.51e+00	0	37	104	0	60	61639
2026-01-30 01:20:12.25	187.18	8.49	-49.4	-64.7	3.6	1.51e+00	0	37	104	0	60	62305
2026-01-30 01:20:13.25	187.23	8.56	-49.4	-64.7	3.6	1.51e+00	0	37	104	0	60	61970
2026-01-30 01:20:14.26	187.29	8.64	-49.4	-64.7	3.6	1.51e+00	0	37	104	0	60	61919
2026-01-30 01:20:15.28	187.35	8.72	-49.4	-64.7	3.6	1.51e+00	0	37	104	0	60	62074
2026-01-30 01:20:16.28	187.41	8.80	-49.4	-64.7	3.6	1.51e+00	0	37	104	0	60	61970
2026-01-30 01:20:17.29	187.46	8.88	-49.4	-64.7	3.6	1.51e+00	0	37	104	0	60	62192
2026-01-30 01:20:18.30	187.52	8.96	-49.4	-64.7	3.6	1.51e+00	0	37	104	0	60	62107
2026-01-30 01:20:19.31	187.58	9.04	-49.4	-64.7	3.6	1.51e+00	0	37	104	0	60	61988
2026-01-30 01:20:20.32	187.64	9.12	-49.4	-64.7	3.6	1.51e+00	0	37	104	0	60	62326
2026-01-30 01:20:21.33	187.70	9.20	-49.4	-64.7	3.6	1.51e+00	0	37	104	0	60	61875
2026-01-30 01:20:22.34	187.76	9.28	-49.4	-64.7	3.6	1.51e+00	0	37	104	0	60	62053
2026-01-30 01:20:23.35	187.82	9.36	-49.4	-64.7	3.6	1.51e+00	0	37	104	0	60	62135
2026-01-30 01:20:24.36	187.88	9.44	-49.4	-64.7	3.6	1.51e+00	0	37	104	0	60	61965
2026-01-30 01:20:25.37	187.94	9.52	-49.4	-64.7	3.6	1.51e+00	0	37	104	0	60	62091
2026-01-30 01:20:26.38	188.01	9.60	-49.4	-64.7	3.6	1.51e+00	0	37	104	0	60	61748
2026-01-30 01:20:27.39	188.07	9.69	-49.4	-64.7	3.6	1.51e+00	0	37	104	0	60	61747
2026-01-30 01:20:28.40	188.13	9.77	-49.4	-64.7	3.6	1.51e+00	0	37	104	0	60	61971
2026-01-30 01:20:29.41	188.19	9.85	-49.4	-64.7	3.6	1.51e+00	0	37	104	0	60	61795
2026-01-30 01:20:30.42	188.26	9.93	-49.4	-64.7	3.6	1.51e+00	0	37	104	0	60	62083
2026-01-30 01:20:31.43	188.32	10.01	-49.4	-64.7	3.6	1.51e+00	0	37	104	0	60	61805
2026-01-30 01:20:32.44	188.38	10.10	-49.4	-64.7	3.6	1.51e+00	0	37	104	0	60	62268
2026-01-30 01:20:33.45	188.45	10.18	-49.4	-64.7	3.6	1.51e+00	0	37	104	0	60	61881
2026-01-30 01:20:34.46	188.51	10.26	-49.4	-64.7	3.6	1.51e+00	0	37	104	0	60	61893
2026-01-30 01:20:35.47	188.57	10.35	-49.4	-64.7	3.6	1.51e+00	0	37	104	0	60	62124
2026-01-30 01:20:36.48	188.64	10.43	-49.4	-64.7	3.6	1.51e+00	0	37	104	0	60	61841
2026-01-30 01:20:37.49	188.70	10.52	-49.4	-64.7	3.6	1.51e+00	0	37	104	0	60	61984
2026-01-30 01:20:38.50	188.77	10.60	-49.4	-64.7	3.5	1.51e+00	0	37	104	0	60	61954
2026-01-30 01:20:39.51	188.83	10.69	-49.4	-64.7	3.6	1.51e+00	0	37	104	0	60	61894
2026-01-30 01:20:40.52	188.90	10.77	-49.4	-64.7	3.6	1.51e+00	0	37	104	0	60	61969
2026-01-30 01:20:41.53	188.97	10.86	-49.4	-64.7	3.6	1.51e+00	0	37	104	0	60	61891
2026-01-30 01:20:42.54	189.03	10.94	-49.4	-64.7	3.6	1.51e+00	0	37	104	0	60	62132
2026-01-30 01:20:43.55	189.10	11.03	-49.4	-64.7	3.6	1.51e+00	0	37	104	0	60	61936
2026-01-30 01:20:44.56	189.17	11.11	-49.4	-64.7	3.6	1.51e+00	0	37	104	0	60	61905
2026-01-30 01:20:45.58	189.24	11.20	-49.4	-64.7	3.6	1.51e+00	0	37	104	0	60	61807
2026-01-30 01:20:46.59	189.31	11.29	-49.4	-64.7	3.6	1.51e+00	0	37	104	0	60	61868
2026-01-30 01:20:47.59	189.37	11.37	-49.4	-64.7	3.6	1.51e+00	0	37	104	0	60	62205
2026-01-30 01:20:48.60	189.44	11.46	-49.4	-64.7	3.6	1.51e+00	0	37	104	0	60	61894
2026-01-30 01:20:49.62	189.51	11.55	-49.4	-64.7	3.6	1.51e+00	0	37	104	0	60	62025
2026-01-30 01:20:50.63	189.58	11.64	-49.4	-64.7	3.6	1.51e+00	0	37	104	0	60	62132
2026-01-30 01:20:51.64	189.65	11.72	-49.4	-64.7	3.6	1.51e+00	0	37	104	0	60	61751
2026-01-30 01:20:52.65	189.73	11.81	-49.4	-64.7	3.6	1.51e+00	0	37	104	0	60	61934
2026-01-30 01:20:53.65	189.80	11.90	-49.4	-64.6	3.6	1.51e+00	0	37	104	0	60	61738
2026-01-30 01:20:54.67	189.87	11.99	-49.4	-64.7	3.6	1.51e+00	0	37	104	0	60	61955
2026-01-30 01:20:55.68	189.94	12.08	-49.4	-64.7	3.6	1.51e+00	0	37	104	0	60	62098
2026-01-30 01:20:56.69	190.01	12.17	-49.4	-64.7	3.6	1.51e+00	0	37	104	0	60	61884
2026-01-30 01:20:57.70	190.08	12.26	-49.4	-64.7	3.6	1.51e+00	0	37	104	0	60	61964
2026-01-30 01:20:58.71	190.16	12.35	-49.4	-64.7	3.6	1.51e+00	0	37	104	0	60	61916
2026-01-30 01:20:59.72	190.23	12.44	-49.4	-64.7	3.6	1.51e+00	0	37	104	0	60	62002
2026-01-30 01:21:00.73	190.31	12.53	-49.4	-64.7	3.6	1.51e+00	0	37	104	0	60	61885
2026-01-30 01:21:01.74	190.38	12.62	-49.4	-64.7	3.6	1.51e+00	0	37	104	0	60	61937
2026-01-30 01:21:02.75	190.46	12.71	-49.4	-64.7	3.6	1.51e+00	0	37	104	0	60	61810
2026-01-30 01:21:03.76	190.53	12.80	-49.4	-64.7	3.6	1.51e+00	0	37	104	0	60	62305
2026-01-30 01:21:04.77	190.61	12.89	-49.4	-64.6	3.6	1.51e+00	0	37	104	0	60	61627
2026-01-30 01:21:05.78	190.68	12.98	-49.4	-64.7	3.6	1.51e+00	0	37	104	0	60	62040
2026-01-30 01:21:06.79	190.76	13.08	-49.4	-64.7	3.6	1.51e+00	0	37	104	0	60	62000
2026-01-30 01:21:07.80	190.84	13.17	-49.4	-64.7	3.6	1.51e+00	0	37	104	0	60	61996
2026-01-30 01:21:08.81	190.91	13.26	-49.4	-64.7	3.5	1.51e+00	0	37	104	0	60	62005
2026-01-30 01:21:09.82	190.99	13.36	-49.4	-64.7	3.6	1.51e+00	0	37	104	0	60	61753
2026-01-30 01:21:10.83	191.07	13.45	-49.4	-64.7	3.6	1.51e+00	0	37	104	0	60	62388
2026-01-30 01:21:11.84	191.15	13.54	-49.4	-64.7	3.6	1.51e+00	0	37	104	0	60	62175
2026-01-30 01:21:12.85	191.23	13.64	-49.4	-64.7	3.6	1.51e+00	0	37	104	0	60	61931
2026-01-30 01:21:13.86	191.31	13.73	-49.4	-64.7	3.6	1.51e+00	0	37	104	0	60	61869
2026-01-30 01:21:14.87	191.39	13.83	-49.4	-64.8	3.6	1.51e+00	0	37	104	0	60	62554
2026-01-30 01:21:15.88	191.47	13.92	-49.4	-64.7	3.6	1.51e+00	0	37	104	0	60	62027
2026-01-30 01:21:16.89	191.55	14.02	-49.4	-64.6	3.6	1.51e+00	0	37	104	0	60	61689
2026-01-30 01:21:17.90	191.64	14.11	-49.4	-64.7	3.6	1.51e+00	0	37	104	0	60	61753
2026-01-30 01:21:18.91	191.72	14.21	-49.4	-64.7	3.6	1.51e+00	0	37	104	0	60	62024
2026-01-30 01:21:19.92	191.80	14.31	-49.4	-64.7	3.6	1.51e+00	0	37	104	0	60	62000
2026-01-30 01:21:20.93	191.88	14.40	-49.4	-64.7	3.6	1.51e+00	0	37	104	0	60	61994
2026-01-30 01:21:21.94	191.97	14.50	-49.4	-64.7	3.6	1.51e+00	0	37	104	0	60	61898
2026-01-30 01:21:22.95	192.05	14.60	-49.4	-64.7	3.6	1.51e+00	0	37	104	0	60	61916
2026-01-30 01:21:23.97	192.14	14.70	-49.4	-64.8	3.6	1.51e+00	0	37	104	0	60	62529
2026-01-30 01:21:24.98	192.22	14.79	-49.4	-64.7	3.6	1.51e+00	0	37	104	0	60	62180
2026-01-30 01:21:25.99	192.31	14.89	-49.4	-64.7	3.6	1.51e+00	0	37	104	0	60	61981
2026-01-30 01:21:27.00	192.40	14.99	-49.4	-64.7	3.5	1.51e+00	0	37	104	0	60	62331
2026-01-30 01:21:28.00	192.48	15.09	-49.4	-64.7	3.6	1.51e+00	0	37	104	0	60	61871
2026-01-30 01:21:29.02	192.57	15.19	-49.4	-64.7	3.6	1.51e+00	0	37	104	0	60	62090
2026-01-30 01:21:30.03	192.66	15.29	-49.4	-64.7	3.6	1.51e+00	0	37	104	0	60	62201
2026-01-30 01:21:31.04	192.75	15.39	-49.4	-64.7	3.6	1.51e+00	0	37	104	0	60	61947
2026-01-30 01:21:32.05	192.84	15.49	-49.4	-64.7	3.6	1.51e+00	0	37	104	0	60	62007
2026-01-30 01:21:33.06	192.93	15.59	-49.4	-64.7	3.6	1.51e+00	0	37	104	0	60	62033
2026-01-30 01:21:34.07	193.02	15.69	-49.4	-64.7	3.6	1.51e+00	0	37	104	0	60	62095
2026-01-30 01:21:35.08	193.11	15.80	-49.4	-64.6	3.6	1.51e+00	0	37	104	0	60	61681
2026-01-30 01:21:36.09	193.20	15.90	-49.4	-64.7	3.6	1.51e+00	0	37	104	0	60	62159
2026-01-30 01:21:37.10	193.30	16.00	-49.4	-64.7	3.6	1.51e+00	0	37	104	0	60	62216
2026-01-30 01:21:38.11	193.39	16.10	-49.4	-64.7	3.6	1.51e+00	0	37	104	0	60	62082
2026-01-30 01:21:39.12	193.48	16.21	-49.4	-64.7	3.6	1.51e+00	0	37	104	0	60	62064
2026-01-30 01:21:40.13	193.58	16.31	-49.4	-64.7	3.6	1.51e+00	0	37	104	0	60	61990
2026-01-30 01:21:41.14	193.67	16.41	-49.4	-64.7	3.6	1.51e+00	0	37	104	0	60	62126
2026-01-30 01:21:42.15	193.77	16.52	-49.4	-64.7	3.6	1.51e+00	0	37	104	0	60	62167
2026-01-30 01:21:43.16	193.86	16.62	-49.4	-64.7	3.6	1.51e+00	0	37	104	0	60	62285
2026-01-30 01:21:44.17	193.96	16.73	-49.4	-64.7	3.6	1.51e+00	0	37	104	0	60	61845
2026-01-30 01:21:45.18	194.06	16.83	-49.4	-64.6	3.6	1.51e+00	0	37	104	0	60	61693
2026-01-30 01:21:46.19	194.16	16.94	-49.4	-64.7	3.6	1.51e+00	0	37	104	0	60	61847
2026-01-30 01:21:47.20	194.26	17.04	-49.4	-64.7	3.6	1.51e+00	0	37	104	0	60	61950
2026-01-30 01:21:48.21	194.36	17.15	-49.4	-64.7	3.6	1.51e+00	0	37	104	0	60	62275
2026-01-30 01:21:49.22	194.46	17.26	-49.4	-64.7	3.6	1.51e+00	0	37	104	0	60	62130
2026-01-30 01:21:50.23	194.56	17.36	-49.4	-64.7	3.6	1.51e+00	0	37	104	0	60	61931
2026-01-30 01:21:51.24	194.66	17.47	-49.4	-64.7	3.6	1.51e+00	0	37	104	0	60	61865
2026-01-30 01:21:52.25	194.76	17.58	-49.4	-64.7	3.6	1.51e+00	0	37	104	0	60	61988
2026-01-30 01:21:53.26	194.86	17.69	-49.4	-64.6	3.6	1.51e+00	0	37	104	0	60	61622
2026-01-30 01:21:54.27	194.97	17.80	-49.4	-64.7	3.6	1.51e+00	0	37	104	0	60	62217
2026-01-30 01:21:55.28	195.07	17.91	-49.4	-64.7	3.6	1.51e+00	0	37	104	0	60	61928
2026-01-30 01:21:56.29	195.18	18.02	-49.4	-64.7	3.6	1.51e+00	0	37	104	0	60	62112
2026-01-30 01:21:57.30	195.28	18.13	-49.4	-64.7	3.6	1.51e+00	0	37	104	0	60	61807
2026-01-30 01:21:58.31	195.39	18.24	-49.4	-64.7	3.6	1.51e+00	0	37	104	0	60	62110
2026-01-30 01:21:59.32	195.50	18.35	-49.4	-64.6	3.6	1.51e+00	0	37	104	0	60	61601
2026-01-30 01:22:00.33	195.60	18.46	-49.4	-64.7	3.6	1.51e+00	0	37	104	0	60	61831
2026-01-30 01:22:01.34	195.71	18.57	-49.4	-64.7	3.6	1.51e+00	0	37	104	0	60	62003
2026-01-30 01:22:02.35	195.82	18.68	-49.4	-64.7	3.6	1.51e+00	0	37	104	0	60	62198
2026-01-30 01:22:03.36	195.93	18.79	-49.4	-64.7	3.6	1.51e+00	0	37	104	0	60	61898
2026-01-30 01:22:04.37	196.04	18.91	-49.4	-64.7	3.6	1.51e+00	0	37	104	0	60	61816
2026-01-30 01:22:05.38	196.16	19.02	-49.4	-64.7	3.6	1.51e+00	0	37	104	0	60	62305
2026-01-30 01:22:06.39	196.27	19.13	-49.4	-64.7	3.6	1.51e+00	0	37	104	0	60	62108
2026-01-30 01:22:07.40	196.38	19.25	-49.4	-64.7	3.6	1.51e+00	0	37	104	0	60	62072
2026-01-30 01:22:08.41	196.50	19.36	-49.4	-64.7	3.6	1.51e+00	0	37	104	0	60	62292
2026-01-30 01:22:09.42	196.61	19.48	-49.4	-64.7	3.6	1.51e+00	0	37	104	0	60	62091
2026-01-30 01:22:10.43	196.73	19.59	-49.4	-64.7	3.6	1.51e+00	0	37	104	0	60	62098
2026-01-30 01:22:11.44	196.85	19.71	-49.4	-64.7	3.6	1.51e+00	0	37	104	0	60	62312
2026-01-30 01:22:12.45	196.96	19.83	-49.4	-64.7	3.6	1.51e+00	0	37	104	0	60	61953
2026-01-30 01:22:13.46	197.08	19.94	-49.4	-64.7	3.6	1.51e+00	0	37	104	0	60	62067
2026-01-30 01:22:14.47	197.20	20.06	-49.4	-64.7	3.6	1.51e+00	0	37	104	0	60	62221
2026-01-30 01:22:15.48	197.32	20.18	-49.4	-64.7	3.6	1.51e+00	0	37	104	0	60	62065
2026-01-30 01:22:16.49	197.44	20.29	-49.4	-64.7	3.6	1.51e+00	0	37	104	0	60	62259
2026-01-30 01:22:17.50	197.57	20.41	-49.4	-64.7	3.6	1.51e+00	0	37	104	0	60	62080
2026-01-30 01:22:18.51	197.69	20.53	-49.4	-64.7	3.6	1.51e+00	0	37	104	0	60	61991
2026-01-30 01:22:19.52	197.81	20.65	-49.4	-64.7	3.6	1.51e+00	0	37	104	0	60	61957
2026-01-30 01:22:20.53	197.94	20.77	-49.4	-64.7	3.6	1.51e+00	0	37	104	0	60	62352
2026-01-30 01:22:21.54	198.06	20.89	-49.4	-64.6	3.6	1.51e+00	0	37	104	0	60	61652
2026-01-30 01:22:22.55	198.19	21.01	-49.4	-64.7	3.6	1.51e+00	0	37	104	0	60	61953
2026-01-30 01:22:23.56	198.32	21.13	-49.4	-64.7	3.6	1.51e+00	0	37	104	0	60	61855
2026-01-30 01:22:24.57	198.45	21.25	-49.4	-64.7	3.6	1.51e+00	0	37	104	0	60	61987
2026-01-30 01:22:25.58	198.58	21.38	-49.4	-64.6	3.6	1.51e+00	0	37	104	0	60	61672
2026-01-30 01:22:26.59	198.71	21.50	-49.4	-64.7	3.6	1.51e+00	0	37	104	0	60	62070
2026-01-30 01:22:27.60	198.84	21.62	-49.4	-64.7	3.6	1.51e+00	0	37	104	0	60	62112
2026-01-30 01:22:28.61	198.97	21.74	-49.4	-64.7	3.6	1.51e+00	0	37	104	0	60	61862
2026-01-30 01:22:29.62	199.11	21.87	-49.4	-64.7	3.6	1.51e+00	0	37	104	0	60	61762
2026-01-30 01:22:30.63	199.24	21.99	-49.4	-64.6	3.6	1.51e+00	0	37	104	0	60	61686
2026-01-30 01:22:31.64	199.38	22.12	-49.4	-64.7	3.6	1.51e+00	0	37	104	0	60	62117
2026-01-30 01:22:32.65	199.51	22.24	-49.4	-64.6	3.6	1.51e+00	0	37	104	0	60	61540
2026-01-30 01:22:33.66	199.65	22.37	-49.4	-64.7	3.6	1.51e+00	0	37	104	0	60	61772
2026-01-30 01:22:34.67	199.79	22.49	-49.4	-64.7	3.6	1.51e+00	0	37	104	0	60	61874
2026-01-30 01:22:35.68	199.93	22.62	-49.4	-64.6	3.6	1.51e+00	0	37	104	0	60	61718
2026-01-30 01:22:36.69	200.07	22.75	-49.4	-64.7	3.6	1.51e+00	0	37	104	0	60	61830
2026-01-30 01:22:37.70	200.22	22.87	-49.4	-64.7	3.6	1.51e+00	0	37	104	0	60	62023
2026-01-30 01:22:38.71	200.36	23.00	-49.4	-64.7	3.6	1.51e+00	0	37	104	0	60	61865
2026-01-30 01:22:39.72	200.50	23.13	-49.4	-64.7	3.6	1.51e+00	0	37	104	0	60	62056
2026-01-30 01:22:40.73	200.65	23.26	-49.4	-64.7	3.6	1.51e+00	0	37	104	0	60	62040
2026-01-30 01:22:41.74	200.80	23.39	-49.4	-64.7	3.6	1.51e+00	0	37	104	0	60	61772
2026-01-30 01:22:42.75	200.95	23.52	-49.4	-64.7	3.6	1.51e+00	0	37	104	0	60	62186
2026-01-30 01:22:43.76	201.10	23.65	-49.4	-64.7	3.6	1.51e+00	0	37	104	0	60	62267
2026-01-30 01:22:44.77	201.25	23.78	-49.4	-64.7	3.6	1.51e+00	0	37	104	0	60	61899
2026-01-30 01:22:45.79	201.40	23.91	-49.4	-64.7	3.6	1.51e+00	0	37	104	0	60	62025
2026-01-30 01:22:46.79	201.55	24.04	-49.4	-64.7	3.6	1.51e+00	0	37	104	0	60	61892
2026-01-30 01:22:47.80	201.71	24.17	-49.4	-64.7	3.6	1.51e+00	0	37	104	0	60	61830
2026-01-30 01:22:48.82	201.86	24.31	-49.4	-64.7	3.6	1.51e+00	0	37	104	0	60	61947
2026-01-30 01:22:49.83	202.02	24.44	-49.4	-64.7	3.6	1.51e+00	0	37	104	0	60	62061
2026-01-30 01:22:50.84	202.18	24.57	-49.4	-64.7	3.6	1.51e+00	0	37	104	0	60	61976
2026-01-30 01:22:51.85	202.34	24.71	-49.4	-64.7	3.6	1.51e+00	0	37	104	0	60	61959
2026-01-30 01:22:52.86	202.50	24.84	-49.4	-64.7	3.6	1.51e+00	0	37	104	0	60	61767
2026-01-30 01:22:53.87	202.66	24.97	-49.4	-64.7	3.6	1.51e+00	0	37	104	0	60	62113
2026-01-30 01:22:54.88	202.82	25.11	-49.4	-64.7	3.6	1.51e+00	0	37	104	0	60	61888
2026-01-30 01:22:55.89	202.99	25.24	-49.4	-64.7	3.6	1.51e+00	0	37	104	0	60	62299
2026-01-30 01:22:56.90	203.16	25.38	-49.4	-64.7	3.6	1.51e+00	0	37	104	0	60	62119
2026-01-30 01:22:57.91	203.32	25.52	-49.4	-64.7	3.6	1.51e+00	0	37	104	0	60	61952
2026-01-30 01:22:58.92	203.49	25.65	-49.4	-64.7	3.6	1.51e+00	0	37	104	0	60	62378
2026-01-30 01:22:59.93	203.66	25.79	-49.4	-64.7	3.6	1.51e+00	0	37	104	0	60	61935
2026-01-30 01:23:00.94	203.83	25.93	-49.4	-64.7	3.6	1.51e+00	0	37	104	0	60	61893
2026-01-30 01:23:01.95	204.01	26.07	-49.4	-64.7	3.6	1.51e+00	0	37	104	0	60	61882
2026-01-30 01:23:02.96	204.18	26.21	-49.4	-64.6	3.6	1.51e+00	0	37	104	0	60	61461
2026-01-30 01:23:03.97	204.36	26.35	-49.4	-64.7	3.6	1.51e+00	0	37	104	0	60	61931
2026-01-30 01:23:04.98	204.54	26.48	-49.4	-64.6	3.6	1.51e+00	0	37	104	0	60	61660
2026-01-30 01:23:05.99	204.72	26.62	-49.4	-64.6	3.6	1.51e+00	0	37	104	0	60	61667
2026-01-30 01:23:07.00	204.90	26.77	-49.4	-64.6	3.6	1.51e+00	0	37	104	0	60	61737
2026-01-30 01:23:08.01	205.08	26.91	-49.4	-64.7	3.6	1.51e+00	0	37	104	0	60	62073
2026-01-30 01:23:09.02	205.26	27.05	-49.4	-64.7	3.6	1.51e+00	0	37	104	0	60	61789
2026-01-30 01:23:10.03	205.45	27.19	-49.4	-64.7	3.6	1.51e+00	0	37	104	0	60	61974
2026-01-30 01:23:11.04	205.64	27.33	-49.4	-64.7	3.6	1.51e+00	0	37	104	0	60	61843
2026-01-30 01:23:12.05	205.83	27.47	-49.4	-64.7	3.6	1.51e+00	0	37	104	0	60	61992
2026-01-30 01:23:13.06	206.02	27.62	-49.4	-64.7	3.6	1.51e+00	0	37	104	0	60	62175
2026-01-30 01:23:14.07	206.21	27.76	-49.4	-64.7	3.6	1.51e+00	0	37	104	0	60	61883
2026-01-30 01:23:15.09	206.41	27.91	-49.4	-64.7	3.6	1.51e+00	0	37	104	0	60	62271
2026-01-30 01:23:16.09	206.60	28.05	-49.4	-64.7	3.6	1.51e+00	0	37	104	0	60	62196
2026-01-30 01:23:17.10	206.80	28.19	-49.4	-64.6	3.6	1.51e+00	0	37	104	0	60	61692
2026-01-30 01:23:18.11	207.00	28.34	-49.4	-64.7	3.6	1.51e+00	0	37	104	0	60	62079
2026-01-30 01:23:19.13	207.20	28.48	-49.4	-64.7	3.6	1.51e+00	0	37	104	0	60	62118
2026-01-30 01:23:20.14	207.40	28.63	-49.4	-64.7	3.6	1.51e+00	0	37	104	0	60	61926
2026-01-30 01:23:21.14	207.60	28.77	-49.4	-64.7	3.6	1.51e+00	0	37	104	0	60	62017
2026-01-30 01:23:22.15	207.81	28.92	-49.4	-64.7	3.6	1.51e+00	0	38	104	0	60	62048
2026-01-30 01:23:23.17	208.02	29.07	-49.4	-64.7	3.6	1.51e+00	0	38	104	0	60	62110
2026-01-30 01:23:24.18	208.23	29.22	-49.4	-64.7	3.6	1.51e+00	0	37	104	0	60	61853
2026-01-30 01:23:25.19	208.44	29.36	-49.4	-64.7	3.6	1.51e+00	0	37	104	0	60	61855
2026-01-30 01:23:26.20	208.66	29.51	-49.4	-64.7	3.6	1.51e+00	0	37	104	0	60	61862
2026-01-30 01:23:27.21	208.87	29.66	-49.4	-64.7	3.6	1.51e+00	0	38	104	0	60	62013
2026-01-30 01:23:28.22	209.09	29.81	-49.4	-64.7	3.6	1.51e+00	0	37	104	0	60	61997
2026-01-30 01:23:29.23	209.31	29.96	-49.4	-64.7	3.6	1.51e+00	0	37	104	0	60	61820
2026-01-30 01:23:30.24	209.53	30.11	-49.4	-64.6	3.6	1.51e+00	0	37	104	0	60	61604
2026-01-30 01:23:31.25	209.76	30.26	-49.4	-64.7	3.6	1.51e+00	0	38	104	0	60	61948
2026-01-30 01:23:32.26	209.98	30.41	-49.4	-64.7	3.6	1.51e+00	0	38	104	0	60	62266
2026-01-30 01:23:33.27	210.21	30.56	-49.4	-64.7	3.6	1.51e+00	0	37	104	0	60	62370
2026-01-30 01:23:34.28	210.44	30.71	-49.4	-64.7	3.6	1.51e+00	0	37	104	0	60	62080
2026-01-30 01:23:35.29	210.67	30.86	-49.4	-64.7	3.6	1.51e+00	0	37	104	0	60	62421
2026-01-30 01:23:36.30	210.91	31.01	-49.4	-64.6	3.6	1.51e+00	0	37	104	0	60	61711
2026-01-30 01:23:37.31	211.14	31.16	-49.4	-64.6	3.6	1.51e+00	0	37	104	0	60	61717
2026-01-30 01:23:38.32	211.38	31.31	-49.4	-64.7	3.6	1.51e+00	0	38	104	0	60	61847
2026-01-30 01:23:39.33	211.62	31.46	-49.4	-64.7	3.6	1.51e+00	0	38	104	0	60	61949
2026-01-30 01:23:40.34	211.86	31.62	-49.4	-64.7	3.6	1.51e+00	0	38	104	0	60	62007
2026-01-30 01:23:41.35	212.11	31.77	-49.4	-64.7	3.6	1.51e+00	0	37	104	0	60	62342
2026-01-30 01:23:42.36	212.36	31.92	-49.4	-64.7	3.6	1.51e+00	0	38	104	0	60	61974
2026-01-30 01:23:43.37	212.61	32.07	-49.4	-64.7	3.6	1.51e+00	0	37	104	0	60	61913
2026-01-30 01:23:44.38	212.86	32.23	-49.4	-64.7	3.6	1.51e+00	0	38	104	0	60	62188
2026-01-30 01:23:45.39	213.11	32.38	-49.4	-64.7	3.6	1.51e+00	0	37	104	0	60	61818
2026-01-30 01:23:46.41	213.37	32.53	-49.4	-64.7	3.6	1.51e+00	0	38	104	0	60	61826
2026-01-30 01:23:47.41	213.63	32.69	-49.4	-64.7	3.6	1.51e+00	0	38	104	0	60	61910
2026-01-30 01:23:48.42	213.89	32.84	-49.4	-64.7	3.6	1.51e+00	0	37	104	0	60	62163
2026-01-30 01:23:49.44	214.16	33.00	-49.4	-64.7	3.6	1.51e+00	0	38	104	0	60	61766
2026-01-30 01:23:50.45	214.42	33.15	-49.4	-64.7	3.6	1.51e+00	0	38	104	0	60	62069
2026-01-30 01:23:51.46	214.69	33.30	-49.4	-64.7	3.6	1.51e+00	0	38	104	0	60	62089
2026-01-30 01:23:52.47	214.96	33.46	-49.4	-64.7	3.6	1.51e+00	0	38	104	0	60	62167
2026-01-30 01:23:53.47	215.23	33.61	-49.4	-64.7	3.6	1.51e+00	0	38	104	0	60	61835
2026-01-30 01:23:54.49	215.51	33.77	-49.4	-64.7	3.6	1.51e+00	0	38	104	0	60	61919
2026-01-30 01:23:55.49	215.79	33.92	-49.4	-64.7	3.6	1.51e+00	0	37	104	0	60	61994
2026-01-30 01:23:56.50	216.07	34.07	-49.4	-64.7	3.6	1.51e+00	0	38	104	0	60	61854
2026-01-30 01:23:57.52	216.36	34.23	-49.4	-64.6	3.6	1.51e+00	0	37	104	0	60	61715
2026-01-30 01:23:58.53	216.65	34.38	-49.4	-64.7	3.6	1.51e+00	0	38	104	0	60	62012
2026-01-30 01:23:59.54	216.94	34.54	-49.4	-64.7	3.6	1.51e+00	0	38	104	0	60	62151
2026-01-30 01:24:00.55	217.23	34.69	-49.4	-64.7	3.6	1.51e+00	0	37	104	0	60	61979
2026-01-30 01:24:01.56	217.52	34.84	-49.4	-64.7	3.6	1.51e+00	0	38	104	0	60	62136
2026-01-30 01:24:02.57	217.82	35.00	-49.4	-64.7	3.6	1.51e+00	0	37	104	0	60	62047
2026-01-30 01:24:03.58	218.12	35.15	-49.4	-64.7	3.6	1.51e+00	0	38	104	0	60	62077
2026-01-30 01:24:04.59	218.42	35.31	-49.4	-64.7	3.5	1.51e+00	0	38	104	0	60	61777
2026-01-30 01:24:05.60	218.73	35.46	-49.4	-64.7	3.6	1.51e+00	0	38	104	0	60	61937
2026-01-30 01:24:06.61	219.04	35.61	-49.4	-64.7	3.6	1.51e+00	0	38	104	0	60	62027
2026-01-30 01:24:07.62	219.35	35.77	-49.4	-64.8	3.6	1.51e+00	0	37	104	0	60	62485
2026-01-30 01:24:08.63	219.67	35.92	-49.4	-64.7	3.6	1.51e+00	0	37	104	0	60	62122
2026-01-30 01:24:09.64	219.98	36.07	-49.4	-64.7	3.6	1.51e+00	0	38	104	0	60	62220
2026-01-30 01:24:10.65	220.30	36.22	-49.4	-64.6	3.6	1.51e+00	0	37	104	0	60	61735
2026-01-30 01:24:11.66	220.63	36.38	-49.4	-64.7	3.6	1.51e+00	0	37	104	0	60	62064
2026-01-30 01:24:12.67	220.95	36.53	-49.4	-64.7	3.6	1.51e+00	0	37	104	0	60	61942
2026-01-30 01:24:13.68	221.28	36.68	-49.4	-64.7	3.6	1.51e+00	0	38	104	0	60	61962
2026-01-30 01:24:14.69	221.62	36.83	-49.4	-64.7	3.6	1.51e+00	0	37	104	0	60	61977
2026-01-30 01:24:15.70	221.95	36.98	-49.4	-64.7	3.6	1.51e+00	0	38	104	0	60	61806
2026-01-30 01:24:16.71	222.29	37.13	-49.4	-64.7	3.6	1.51e+00	0	37	104	0	60	62204
2026-01-30 01:24:17.72	222.63	37.28	-49.4	-64.7	3.6	1.51e+00	0	38	104	0	60	61900
2026-01-30 01:24:18.73	222.98	37.43	-49.4	-64.7	3.6	1.51e+00	0	38	104	0	60	62026
2026-01-30 01:24:19.74	223.33	37.58	-49.4	-64.7	3.6	1.51e+00	0	37	104	0	60	61838
2026-01-30 01:24:20.74	223.67	37.73	-49.4	-64.7	3.6	1.51e+00	0	38	104	0	60	61894
2026-01-30 01:24:21.75	224.03	37.88	-49.4	-64.7	3.6	1.51e+00	0	38	104	0	60	62211
2026-01-30 01:24:22.76	224.38	38.03	-49.4	-64.7	3.6	1.51e+00	0	38	104	0	60	61763
2026-01-30 01:24:23.77	224.75	38.17	-49.4	-64.7	3.6	1.51e+00	0	38	104	0	60	62012
2026-01-30 01:24:24.78	225.11	38.32	-49.4	-64.7	3.6	1.51e+00	0	37	104	0	60	61936
2026-01-30 01:24:25.80	225.48	38.47	-49.4	-64.7	3.6	1.51e+00	0	37	104	0	60	61796
2026-01-30 01:24:26.81	225.85	38.61	-49.4	-64.7	3.6	1.51e+00	0	37	104	0	60	61936
2026-01-30 01:24:27.82	226.22	38.76	-49.4	-64.7	3.6	1.51e+00	0	38	104	0	60	61974
2026-01-30 01:24:28.83	226.60	38.90	-49.4	-64.7	3.6	1.51e+00	0	38	104	0	60	61902
2026-01-30 01:24:29.84	226.98	39.04	-49.4	-64.7	3.6	1.51e+00	0	38	104	0	60	61962
2026-01-30 01:24:30.85	227.36	39.18	-49.4	-64.6	3.6	1.51e+00	0	38	104	0	60	61519
2026-01-30 01:24:31.86	227.75	39.33	-49.4	-64.7	3.6	1.51e+00	0	38	104	0	60	61879
2026-01-30 01:24:32.87	228.14	39.47	-49.4	-64.7	3.6	1.51e+00	0	38	104	0	60	62206
2026-01-30 01:24:33.88	228.53	39.61	-49.4	-64.7	3.6	1.51e+00	0	38	104	0	60	62078
2026-01-30 01:24:34.89	228.93	39.74	-49.4	-64.7	3.6	1.51e+00	0	38	104	0	60	62247
2026-01-30 01:24:35.90	229.33	39.88	-49.4	-64.7	3.6	1.51e+00	0	38	104	0	60	61762
2026-01-30 01:24:36.91	229.73	40.02	-49.4	-64.7	3.6	1.51e+00	0	37	104	0	60	61769
2026-01-30 01:24:37.92	230.14	40.15	-49.4	-64.7	3.6	1.51e+00	0	38	104	0	60	62000
2026-01-30 01:24:38.93	230.55	40.29	-49.4	-64.7	3.6	1.51e+00	0	38	104	0	60	61758
2026-01-30 01:24:39.94	230.96	40.42	-49.4	-64.6	3.6	1.51e+00	0	37	104	0	60	61625
2026-01-30 01:24:40.95	231.38	40.55	-49.4	-64.7	3.6	1.51e+00	0	38	104	0	60	61826
2026-01-30 01:24:41.96	231.80	40.68	-49.4	-64.6	3.6	1.51e+00	0	38	104	0	60	61672
2026-01-30 01:24:42.97	232.22	40.81	-49.4	-64.7	3.6	1.51e+00	0	38	104	0	60	62370
2026-01-30 01:24:43.98	232.65	40.94	-49.4	-64.7	3.6	1.51e+00	0	38	104	0	60	62286
2026-01-30 01:24:44.99	233.08	41.07	-49.4	-64.7	3.6	1.51e+00	0	38	104	0	60	62062
2026-01-30 01:24:46.00	233.52	41.19	-49.4	-64.7	3.6	1.51e+00	0	37	104	0	60	61939
2026-01-30 01:24:47.01	233.95	41.32	-49.4	-64.7	3.6	1.51e+00	0	37	104	0	60	61811
2026-01-30 01:24:48.02	234.39	41.44	-49.4	-64.7	3.6	1.51e+00	0	38	104	0	60	62101
2026-01-30 01:24:49.03	234.84	41.56	-49.4	-64.7	3.6	1.51e+00	0	37	104	0	60	62136
2026-01-30 01:24:50.04	235.28	41.68	-49.4	-64.7	3.6	1.51e+00	0	37	104	0	60	62000
2026-01-30 01:24:51.05	235.73	41.80	-49.4	-64.7	3.6	1.51e+00	0	37	104	0	60	61922
2026-01-30 01:24:52.06	236.18	41.92	-49.4	-64.7	3.6	1.51e+00	0	38	104	0	60	62019
2026-01-30 01:24:53.07	236.64	42.03	-49.4	-64.7	3.6	1.51e+00	0	37	104	0	60	61868
2026-01-30 01:24:54.08	237.10	42.15	-49.4	-64.7	3.6	1.51e+00	0	37	104	0	60	62145
2026-01-30 01:24:55.09	237.56	42.26	-49.4	-64.7	3.6	1.51e+00	0	37	104	0	60	61841
2026-01-30 01:24:56.10	238.03	42.37	-49.4	-64.7	3.6	1.51e+00	0	37	104	0	60	61999
2026-01-30 01:24:57.11	238.50	42.48	-49.4	-64.7	3.6	1.51e+00	0	37	104	0	60	62010
2026-01-30 01:24:58.12	238.97	42.58	-49.4	-64.7	3.6	1.51e+00	0	37	104	0	60	62164
2026-01-30 01:24:59.13	239.45	42.69	-49.4	-64.7	3.6	1.51e+00	0	37	104	0	60	61942
2026-01-30 01:25:00.14	239.92	42.79	-49.4	-64.6	3.6	1.51e+00	0	38	104	0	60	61719
2026-01-30 01:25:01.15	240.40	42.89	-49.4	-64.7	3.6	1.51e+00	0	37	104	0	60	61981
2026-01-30 01:25:02.16	240.89	42.99	-49.4	-64.7	3.6	1.51e+00	0	37	104	0	60	61976
2026-01-30 01:25:03.17	241.38	43.09	-49.4	-64.7	3.6	1.51e+00	0	37	104	0	60	61807
2026-01-30 01:25:04.18	241.87	43.18	-49.4	-64.6	3.6	1.51e+00	0	37	104	0	60	61585
2026-01-30 01:25:05.19	242.36	43.28	-49.4	-64.7	3.6	1.51e+00	0	37	104	0	60	61789
2026-01-30 01:25:06.20	242.85	43.37	-49.4	-64.7	3.6	1.51e+00	0	37	104	0	60	62092
2026-01-30 01:25:07.21	243.35	43.46	-49.4	-64.7	3.6	1.51e+00	0	38	104	0	60	62178
2026-01-30 01:25:08.22	243.85	43.54	-49.4	-64.6	3.6	1.51e+00	0	38	104	0	60	61437
2026-01-30 01:25:09.23	244.36	43.63	-49.4	-64.7	3.6	1.51e+00	0	38	104	0	60	62002
2026-01-30 01:25:10.25	244.87	43.71	-49.4	-64.7	3.6	1.51e+00	0	37	104	0	60	62235
2026-01-30 01:25:11.26	245.38	43.79	-49.4	-64.6	3.6	1.51e+00	0	38	104	0	60	61683
2026-01-30 01:25:12.27	245.89	43.87	-49.4	-64.7	3.6	1.51e+00	0	38	104	0	60	61767
2026-01-30 01:25:13.28	246.40	43.94	-49.4	-64.7	3.6	1.51e+00	0	38	104	0	60	62090
2026-01-30 01:25:14.29	246.92	44.02	-49.4	-64.7	3.6	1.51e+00	0	38	104	0	60	62232
2026-01-30 01:25:15.30	247.44	44.09	-49.4	-64.7	3.6	1.51e+00	0	38	104	0	60	61905
2026-01-30 01:25:16.31	247.96	44.15	-49.4	-64.7	3.6	1.51e+00	0	38	104	0	60	61875
2026-01-30 01:25:17.32	248.48	44.22	-49.4	-64.7	3.6	1.51e+00	0	38	104	0	60	61856
2026-01-30 01:25:18.32	249.00	44.28	-49.4	-64.7	3.6	1.51e+00	0	38	104	0	60	61917
2026-01-30 01:25:19.33	249.53	44.34	-49.4	-64.7	3.6	1.51e+00	0	37	104	0	60	62021
2026-01-30 01:25:20.34	250.05	44.40	-49.4	-64.7	3.6	1.51e+00	0	38	104	0	60	61968
2026-01-30 01:25:21.35	250.58	44.45	-49.4	-64.7	3.6	1.51e+00	0	38	104	0	60	62132
2026-01-30 01:25:22.36	251.12	44.51	-49.4	-64.7	3.6	1.51e+00	0	37	104	0	60	61853
2026-01-30 01:25:23.37	251.65	44.56	-49.4	-64.7	3.6	1.51e+00	0	38	104	0	60	62002
2026-01-30 01:25:24.38	252.19	44.60	-49.4	-64.6	3.6	1.51e+00	0	38	104	0	60	61638
2026-01-30 01:25:25.39	252.72	44.65	-49.4	-64.7	3.6	1.51e+00	0	38	104	0	60	62189
2026-01-30 01:25:26.40	253.26	44.69	-49.4	-64.7	3.6	1.51e+00	0	38	104	0	60	61877
2026-01-30 01:25:27.41	253.80	44.73	-49.4	-64.7	3.6	1.51e+00	0	38	104	0	60	61755
2026-01-30 01:25:28.42	254.34	44.77	-49.4	-64.7	3.6	1.51e+00	0	38	104	0	60	62127
2026-01-30 01:25:29.43	254.88	44.80	-49.4	-64.7	3.6	1.51e+00	0	37	104	0	60	61931
2026-01-30 01:25:30.44	255.43	44.83	-49.4	-64.7	3.6	1.51e+00	0	38	104	0	60	62089
2026-01-30 01:25:31.46	255.98	44.86	-49.4	-64.7	3.6	1.51e+00	0	37	104	0	60	62206
2026-01-30 01:25:32.46	256.52	44.89	-49.4	-64.7	3.6	1.51e+00	0	38	104	0	60	62070
2026-01-30 01:25:33.47	257.06	44.91	-49.4	-64.7	3.6	1.51e+00	0	37	104	0	60	61916
2026-01-30 01:25:34.48	257.61	44.93	-49.4	-64.7	3.6	1.51e+00	0	38	104	0	60	61869
2026-01-30 01:25:35.50	258.16	44.95	-49.4	-64.7	3.6	1.51e+00	0	37	104	0	60	61930
2026-01-30 01:25:36.51	258.71	44.96	-49.4	-64.7	3.6	1.51e+00	0	38	104	0	60	61849
2026-01-30 01:25:37.52	259.26	44.97	-49.4	-64.7	3.6	1.51e+00	0	38	104	0	60	61956
2026-01-30 01:25:38.53	259.81	44.98	-49.4	-64.7	3.6	1.51e+00	0	38	104	0	60	62248
2026-01-30 01:25:39.54	260.36	44.99	-49.4	-64.7	3.6	1.51e+00	0	37	104	0	60	61763
2026-01-30 01:25:40.55	260.91	44.99	-49.4	-64.7	3.6	1.51e+00	0	37	104	0	60	62001
2026-01-30 01:25:41.56	261.45	44.99	-49.4	-64.7	3.6	1.51e+00	0	38	104	0	60	61768
2026-01-30 01:25:42.57	262.00	44.99	-49.4	-64.7	3.6	1.51e+00	0	38	104	0	60	62015
2026-01-30 01:25:43.58	262.55	44.98	-49.4	-64.7	3.6	1.51e+00	0	37	104	0	60	61944
2026-01-30 01:25:44.58	263.10	44.97	-49.4	-64.6	3.6	1.51e+00	0	38	104	0	60	61734
2026-01-30 01:25:45.60	263.65	44.96	-49.4	-64.7	3.6	1.51e+00	0	38	104	0	60	61957
2026-01-30 01:25:46.61	264.20	44.95	-49.4	-64.7	3.6	1.51e+00	0	38	104	0	60	61794
2026-01-30 01:25:47.62	264.74	44.93	-49.4	-64.7	3.6	1.51e+00	0	38	104	0	60	61926
2026-01-30 01:25:48.63	265.29	44.91	-49.4	-64.7	3.6	1.51e+00	0	38	104	0	60	61755
2026-01-30 01:25:49.64	265.84	44.89	-49.4	-64.7	3.5	1.51e+00	0	37	104	0	60	61754
2026-01-30 01:25:50.65	266.38	44.86	-49.4	-64.7	3.6	1.51e+00	0	38	104	0	60	62033
2026-01-30 01:25:51.66	266.93	44.83	-49.4	-64.7	3.6	1.51e+00	0	38	104	0	60	62177
2026-01-30 01:25:52.67	267.47	44.80	-49.4	-64.7	3.6	1.51e+00	0	37	104	0	60	61741
2026-01-30 01:25:53.68	268.01	44.77	-49.4	-64.6	3.6	1.51e+00	0	38	104	0	60	61645
2026-01-30 01:25:54.69	268.55	44.73	-49.4	-64.7	3.6	1.51e+00	0	38	104	0	60	62087
2026-01-30 01:25:55.70	269.09	44.69	-49.4	-64.7	3.6	1.51e+00	0	38	104	0	60	61802
2026-01-30 01:25:56.71	269.63	44.65	-49.4	-64.7	3.6	1.51e+00	0	38	104	0	60	62167
2026-01-30 01:25:57.72	270.17	44.61	-49.4	-64.7	3.6	1.51e+00	0	38	104	0	60	61914
2026-01-30 01:25:58.73	270.70	44.56	-49.4	-64.7	3.6	1.51e+00	0	37	104	0	60	61921
2026-01-30 01:25:59.74	271.23	44.51	-49.4	-64.6	3.6	1.51e+00	0	37	104	0	60	61676
2026-01-30 01:26:00.75	271.77	44.46	-49.4	-64.6	3.6	1.51e+00	0	38	104	0	60	61596
2026-01-30 01:26:01.76	272.30	44.40	-49.4	-64.6	3.6	1.51e+00	0	37	104	0	60	61622
2026-01-30 01:26:02.77	272.82	44.35	-49.4	-64.7	3.6	1.51e+00	0	37	104	0	60	62095
2026-01-30 01:26:03.78	273.35	44.29	-49.4	-64.7	3.6	1.51e+00	0	37	104	0	60	62068
2026-01-30 01:26:04.79	273.87	44.22	-49.4	-64.7	3.5	1.51e+00	0	38	104	0	60	62121
2026-01-30 01:26:05.80	274.40	44.16	-49.4	-64.7	3.6	1.51e+00	0	37	104	0	60	62143
2026-01-30 01:26:06.81	274.92	44.09	-49.4	-64.7	3.6	1.51e+00	0	38	104	0	60	61807
2026-01-30 01:26:07.82	275.43	44.02	-49.4	-64.7	3.6	1.51e+00	0	38	104	0	60	61942
2026-01-30 01:26:08.83	275.95	43.95	-49.4	-64.7	3.6	1.51e+00	0	38	104	0	60	62186
2026-01-30 01:26:09.84	276.46	43.87	-49.4	-64.7	3.6	1.51e+00	0	38	104	0	60	61823
2026-01-30 01:26:10.85	276.97	43.80	-49.4	-64.7	3.6	1.51e+00	0	38	104	0	60	62021
2026-01-30 01:26:11.86	277.48	43.72	-49.4	-64.7	3.6	1.51e+00	0	38	104	0	60	61898
2026-01-30 01:26:12.87	277.99	43.63	-49.4	-64.7	3.6	1.51e+00	0	38	104	0	60	61900
2026-01-30 01:26:13.88	278.49	43.55	-49.4	-64.6	3.6	1.51e+00	0	38	104	0	60	61727
2026-01-30 01:26:14.89	278.99	43.46	-49.4	-64.7	3.6	1.51e+00	0	38	104	0	60	61819
2026-01-30 01:26:15.90	279.49	43.38	-49.4	-64.7	3.6	1.51e+00	0	38	104	0	60	62307
2026-01-30 01:26:16.91	279.98	43.29	-49.4	-64.7	3.6	1.51e+00	0	38	104	0	60	62079
2026-01-30 01:26:17.92	280.47	43.19	-49.4	-64.7	3.6	1.51e+00	0	38	104	0	60	61769
2026-01-30 01:26:18.93	280.96	43.10	-49.4	-64.7	3.6	1.51e+00	0	38	104	0	60	62052
2026-01-30 01:26:19.94	281.45	43.00	-49.4	-64.7	3.6	1.51e+00	0	38	104	0	60	61802
2026-01-30 01:26:20.95	281.93	42.90	-49.4	-64.7	3.6	1.51e+00	0	38	104	0	60	61840
2026-01-30 01:26:21.97	282.42	42.80	-49.4	-64.7	3.6	1.51e+00	0	38	104	0	60	61960
2026-01-30 01:26:22.97	282.89	42.70	-49.4	-64.7	3.6	1.51e+00	0	37	104	0	60	61836
2026-01-30 01:26:23.98	283.36	42.60	-49.4	-64.7	3.6	1.51e+00	0	38	104	0	60	61893
2026-01-30 01:26:24.99	283.84	42.49	-49.4	-64.6	3.6	1.51e+00	0	38	104	0	60	61722
2026-01-30 01:26:26.01	284.31	42.38	-49.4	-64.7	3.6	1.51e+00	0	38	104	0	60	61975
2026-01-30 01:26:27.02	284.77	42.27	-49.4	-64.7	3.6	1.51e+00	0	38	104	0	60	61822
2026-01-30 01:26:28.03	285.24	42.16	-49.4	-64.7	3.6	1.51e+00	0	38	104	0	60	62026
2026-01-30 01:26:29.04	285.69	42.05	-49.4	-64.7	3.6	1.51e+00	0	38	104	0	60	62235
2026-01-30 01:26:30.05	286.15	41.93	-49.4	-64.7	3.6	1.51e+00	0	38	104	0	60	61981
2026-01-30 01:26:31.06	286.60	41.82	-49.4	-64.6	3.5	1.51e+00	0	38	104	0	60	61717
2026-01-30 01:26:32.07	287.05	41.70	-49.4	-64.7	3.6	1.51e+00	0	38	104	0	60	62212
2026-01-30 01:26:33.08	287.50	41.58	-49.4	-64.7	3.6	1.51e+00	0	38	104	0	60	61765
2026-01-30 01:26:34.09	287.94	41.46	-49.4	-64.7	3.6	1.51e+00	0	38	104	0	60	61905
2026-01-30 01:26:35.10	288.38	41.33	-49.4	-64.7	3.6	1.51e+00	0	38	104	0	60	61799
2026-01-30 01:26:36.11	288.81	41.21	-49.4	-64.7	3.6	1.51e+00	0	38	104	0	60	62094
2026-01-30 01:26:37.12	289.25	41.09	-49.4	-64.7	3.6	1.51e+00	0	38	104	0	60	61814
2026-01-30 01:26:38.13	289.68	40.96	-49.4	-64.6	3.6	1.51e+00	0	38	104	0	60	61541
2026-01-30 01:26:39.14	290.10	40.83	-49.4	-64.7	3.6	1.51e+00	0	38	104	0	60	61997
2026-01-30 01:26:40.15	290.52	40.70	-49.4	-64.7	3.6	1.51e+00	0	38	104	0	60	62269
2026-01-30 01:26:41.16	290.94	40.57	-49.4	-64.7	3.6	1.51e+00	0	38	104	0	60	61752
2026-01-30 01:26:42.17	291.36	40.44	-49.4	-64.7	3.6	1.51e+00	0	38	104	0	60	62071
2026-01-30 01:26:43.18	291.77	40.31	-49.4	-64.7	3.6	1.51e+00	0	38	104	0	60	61760
2026-01-30 01:26:44.19	292.18	40.17	-49.4	-64.7	3.6	1.51e+00	0	38	104	0	60	62056
2026-01-30 01:26:45.20	292.59	40.04	-49.4	-64.7	3.6	1.51e+00	0	38	104	0	60	61799
2026-01-30 01:26:46.21	292.99	39.90	-49.4	-64.7	3.6	1.51e+00	0	38	104	0	60	61940
2026-01-30 01:26:47.22	293.39	39.77	-49.4	-64.6	3.6	1.51e+00	0	38	104	0	60	61698
2026-01-30 01:26:48.23	293.78	39.63	-49.4	-64.6	3.6	1.51e+00	0	38	104	0	60	61719
2026-01-30 01:26:49.24	294.18	39.49	-49.4	-64.6	3.6	1.51e+00	0	38	104	0	60	61556
2026-01-30 01:26:50.25	294.57	39.35	-49.4	-64.7	3.6	1.51e+00	0	38	104	0	60	61948
2026-01-30 01:26:51.27	294.96	39.21	-49.4	-64.7	3.6	1.51e+00	0	38	104	0	60	61880
2026-01-30 01:26:52.28	295.34	39.07	-49.4	-64.7	3.6	1.51e+00	0	38	104	0	60	61952
2026-01-30 01:26:53.28	295.71	38.93	-49.4	-64.7	3.6	1.51e+00	0	38	104	0	60	62074
2026-01-30 01:26:54.30	296.09	38.78	-49.4	-64.7	3.6	1.51e+00	0	38	104	0	60	61943
2026-01-30 01:26:55.31	296.47	38.64	-49.4	-64.7	3.6	1.51e+00	0	38	104	0	60	62234
2026-01-30 01:26:56.32	296.84	38.49	-49.4	-64.6	3.6	1.51e+00	0	38	104	0	60	61473
2026-01-30 01:26:57.33	297.20	38.35	-49.4	-64.7	3.6	1.51e+00	0	38	104	0	60	61824
2026-01-30 01:26:58.34	297.57	38.20	-49.4	-64.7	3.6	1.51e+00	0	38	104	0	60	62032
2026-01-30 01:26:59.35	297.93	38.06	-49.4	-64.7	3.6	1.51e+00	0	38	104	0	60	61850
2026-01-30 01:27:00.36	298.28	37.91	-49.4	-64.7	3.6	1.51e+00	0	38	104	0	60	61848
2026-01-30 01:27:01.37	298.64	37.76	-49.4	-64.7	3.6	1.51e+00	0	38	104	0	60	62116
2026-01-30 01:27:02.38	298.99	37.62	-49.4	-64.7	3.6	1.51e+00	0	38	104	0	60	61926
2026-01-30 01:27:03.39	299.33	37.47	-49.4	-64.6	3.6	1.51e+00	0	38	104	0	60	61674
2026-01-30 01:27:04.40	299.68	37.32	-49.4	-64.7	3.6	1.51e+00	0	38	104	0	60	61842
2026-01-30 01:27:05.41	300.02	37.17	-49.4	-64.7	3.6	1.51e+00	0	38	104	0	60	61985
2026-01-30 01:27:06.42	300.36	37.02	-49.4	-64.6	3.6	1.51e+00	0	38	104	0	60	61699
2026-01-30 01:27:07.43	300.69	36.87	-49.4	-64.6	3.6	1.51e+00	0	38	104	0	60	61720
2026-01-30 01:27:08.44	301.02	36.72	-49.4	-64.6	3.6	1.51e+00	0	38	104	0	60	61481
2026-01-30 01:27:09.45	301.35	36.57	-49.4	-64.7	3.6	1.51e+00	0	38	104	0	60	62074
2026-01-30 01:27:10.46	301.68	36.42	-49.4	-64.7	3.6	1.51e+00	0	38	104	0	60	61958
2026-01-30 01:27:11.47	302.00	36.27	-49.4	-64.7	3.6	1.51e+00	0	38	104	0	60	61967
2026-01-30 01:27:12.48	302.32	36.11	-49.4	-64.7	3.6	1.51e+00	0	38	104	0	60	61920
2026-01-30 01:27:13.49	302.64	35.96	-49.4	-64.7	3.6	1.51e+00	0	38	104	0	60	61820
2026-01-30 01:27:14.50	302.95	35.81	-49.4	-64.7	3.6	1.51e+00	0	38	104	0	60	62038
2026-01-30 01:27:15.51	303.26	35.66	-49.4	-64.7	3.6	1.51e+00	0	38	104	0	60	61808
2026-01-30 01:27:16.52	303.57	35.50	-49.4	-64.7	3.6	1.51e+00	0	38	104	0	60	61828
2026-01-30 01:27:17.53	303.88	35.35	-49.4	-64.7	3.6	1.51e+00	0	38	104	0	60	61887
2026-01-30 01:27:18.54	304.18	35.20	-49.4	-64.7	3.6	1.51e+00	0	38	104	0	60	61892
2026-01-30 01:27:19.55	304.48	35.05	-49.4	-64.6	3.6	1.51e+00	0	38	104	0	60	61616
2026-01-30 01:27:20.56	304.78	34.89	-49.4	-64.7	3.6	1.51e+00	0	38	104	0	60	61820
2026-01-30 01:27:21.57	305.07	34.74	-49.4	-64.6	3.6	1.51e+00	0	38	104	0	60	61707
2026-01-30 01:27:22.58	305.36	34.59	-49.4	-64.6	3.6	1.51e+00	0	38	104	0	60	61697
2026-01-30 01:27:23.59	305.65	34.43	-49.4	-64.7	3.6	1.51e+00	0	38	104	0	60	61961
2026-01-30 01:27:24.60	305.94	34.28	-49.4	-64.7	3.6	1.51e+00	0	38	104	0	60	62215
2026-01-30 01:27:25.61	306.22	34.13	-49.4	-64.6	3.6	1.51e+00	0	38	104	0	60	61615
2026-01-30 01:27:26.62	306.50	33.97	-49.4	-64.7	3.6	1.51e+00	0	38	104	0	60	61803
2026-01-30 01:27:27.64	306.78	33.82	-49.4	-64.7	3.6	1.51e+00	0	38	104	0	60	62044
2026-01-30 01:27:28.65	307.06	33.66	-49.4	-64.7	3.6	1.51e+00	0	38	104	0	60	62098
2026-01-30 01:27:29.66	307.33	33.51	-49.4	-64.7	3.6	1.51e+00	0	38	104	0	60	62010
2026-01-30 01:27:30.67	307.60	33.36	-49.4	-64.7	3.6	1.51e+00	0	38	104	0	60	61948
2026-01-30 01:27:31.67	307.87	33.21	-49.4	-64.7	3.6	1.51e+00	0	38	104	0	60	61890
2026-01-30 01:27:32.68	308.14	33.05	-49.4	-64.6	3.6	1.51e+00	0	38	104	0	60	61736
2026-01-30 01:27:33.69	308.40	32.90	-49.4	-64.7	3.6	1.51e+00	0	38	104	0	60	61762
2026-01-30 01:27:34.70	308.66	32.75	-49.4	-64.7	3.6	1.51e+00	0	38	104	0	60	62230
2026-01-30 01:27:35.72	308.92	32.59	-49.4	-64.7	3.6	1.51e+00	0	38	104	0	60	62015
2026-01-30 01:27:36.73	309.18	32.44	-49.4	-64.7	3.6	1.51e+00	0	38	104	0	60	62089
2026-01-30 01:27:37.74	309.43	32.29	-49.4	-64.7	3.6	1.51e+00	0	38	104	0	60	62012
2026-01-30 01:27:38.75	309.68	32.14	-49.4	-64.7	3.6	1.51e+00	0	38	104	0	60	61818
2026-01-30 01:27:39.76	309.93	31.99	-49.4	-64.7	3.6	1.51e+00	0	38	104	0	60	61913
2026-01-30 01:27:40.77	310.18	31.83	-49.4	-64.7	3.6	1.51e+00	0	38	104	0	60	61941
2026-01-30 01:27:41.78	310.42	31.68	-49.4	-64.7	3.6	1.51e+00	0	38	104	0	60	61775
2026-01-30 01:27:42.79	310.67	31.53	-49.4	-64.7	3.6	1.51e+00	0	38	104	0	60	62019
2026-01-30 01:27:43.80	310.91	31.38	-49.4	-64.7	3.6	1.51e+00	0	38	104	0	60	62101
2026-01-30 01:27:44.81	311.15	31.23	-49.4	-64.7	3.6	1.51e+00	0	38	104	0	60	62024
2026-01-30 01:27:45.82	311.38	31.08	-49.4	-64.6	3.6	1.51e+00	0	38	104	0	60	61705
2026-01-30 01:27:46.83	311.61	30.93	-49.4	-64.7	3.6	1.51e+00	0	38	104	0	60	61856
2026-01-30 01:27:47.84	311.85	30.78	-49.4	-64.7	3.6	1.51e+00	0	38	104	0	60	61802
2026-01-30 01:27:48.85	312.08	30.63	-49.4	-64.7	3.6	1.51e+00	0	38	104	0	60	62204
2026-01-30 01:27:49.86	312.30	30.48	-49.4	-64.7	3.6	1.51e+00	0	38	104	0	60	61952
2026-01-30 01:27:50.87	312.53	30.33	-49.4	-64.7	3.6	1.51e+00	0	38	104	0	60	61902
2026-01-30 01:27:51.88	312.75	30.18	-49.4	-64.6	3.6	1.51e+00	0	38	104	0	60	61712
2026-01-30 01:27:52.89	312.97	30.03	-49.4	-64.7	3.6	1.51e+00	0	38	104	0	60	61771
2026-01-30 01:27:53.90	313.19	29.89	-49.4	-64.7	3.6	1.51e+00	0	38	104	0	60	62245
2026-01-30 01:27:54.91	313.41	29.74	-49.4	-64.7	3.6	1.51e+00	0	38	104	0	60	61770
2026-01-30 01:27:55.92	313.63	29.59	-49.4	-64.6	3.6	1.51e+00	0	38	104	0	60	61701
2026-01-30 01:27:56.93	313.84	29.44	-49.4	-64.6	3.6	1.51e+00	0	38	104	0	60	61711
2026-01-30 01:27:57.94	314.05	29.30	-49.4	-64.7	3.6	1.51e+00	0	38	104	0	60	62143
2026-01-30 01:27:58.95	314.26	29.15	-49.4	-64.6	3.6	1.51e+00	0	38	104	0	60	61692
2026-01-30 01:27:59.96	314.47	29.00	-49.4	-64.7	3.6	1.51e+00	0	38	104	0	60	61775
2026-01-30 01:28:00.97	314.68	28.86	-49.4	-64.6	3.6	1.51e+00	0	38	104	0	60	61635
2026-01-30 01:28:01.98	314.88	28.71	-49.4	-64.7	3.6	1.51e+00	0	38	104	0	60	61957
2026-01-30 01:28:02.99	315.08	28.57	-49.4	-64.7	3.6	1.51e+00	0	38	104	0	60	61858
2026-01-30 01:28:04.00	315.28	28.42	-49.4	-64.7	3.6	1.51e+00	0	38	104	0	60	61881
2026-01-30 01:28:05.01	315.48	28.28	-49.4	-64.7	3.6	1.51e+00	0	38	104	0	60	61931
2026-01-30 01:28:06.02	315.68	28.14	-49.4	-64.7	3.6	1.51e+00	0	38	104	0	60	62099
2026-01-30 01:28:07.03	315.88	27.99	-49.4	-64.7	3.6	1.51e+00	0	38	104	0	60	61833
2026-01-30 01:28:08.05	316.07	27.85	-49.4	-64.7	3.6	1.51e+00	0	38	104	0	60	61974
2026-01-30 01:28:09.05	316.26	27.71	-49.4	-64.7	3.6	1.51e+00	0	38	104	0	60	61835
2026-01-30 01:28:10.06	316.45	27.57	-49.4	-64.6	3.6	1.51e+00	0	38	104	0	60	61561
2026-01-30 01:28:11.07	316.64	27.42	-49.4	-64.7	3.6	1.51e+00	0	38	104	0	60	61927
2026-01-30 01:28:12.09	316.83	27.28	-49.4	-64.7	3.6	1.51e+00	0	38	104	0	60	61819
2026-01-30 01:28:13.10	317.02	27.14	-49.4	-64.7	3.6	1.51e+00	0	38	104	0	60	61979
2026-01-30 01:28:14.11	317.20	27.00	-49.4	-64.7	3.6	1.51e+00	0	38	104	0	60	61860
2026-01-30 01:28:15.12	317.38	26.86	-49.4	-64.7	3.6	1.51e+00	0	38	104	0	60	61838
2026-01-30 01:28:16.13	317.56	26.72	-49.4	-64.7	3.6	1.51e+00	0	38	104	0	60	62142
2026-01-30 01:28:17.14	317.74	26.58	-49.4	-64.7	3.6	1.51e+00	0	38	104	0	60	61888
2026-01-30 01:28:18.15	317.92	26.44	-49.4	-64.6	3.6	1.51e+00	0	38	104	0	60	61676
2026-01-30 01:28:19.16	318.10	26.30	-49.4	-64.6	3.6	1.51e+00	0	38	104	0	60	61625
2026-01-30 01:28:20.17	318.27	26.17	-49.4	-64.6	3.6	1.51e+00	0	38	104	0	60	61701
2026-01-30 01:28:21.18	318.45	26.03	-49.4	-64.7	3.6	1.51e+00	0	38	104	0	60	62245
2026-01-30 01:28:22.19	318.62	25.89	-49.4	-64.7	3.6	1.51e+00	0	38	104	0	60	61871
2026-01-30 01:28:23.20	318.79	25.75	-49.4	-64.7	3.6	1.51e+00	0	38	104	0	60	62079
2026-01-30 01:28:24.21	318.96	25.62	-49.4	-64.6	3.6	1.51e+00	0	38	104	0	60	61734
2026-01-30 01:28:25.22	319.12	25.48	-49.4	-64.7	3.6	1.51e+00	0	38	104	0	60	61937
2026-01-30 01:28:26.23	319.29	25.35	-49.4	-64.7	3.6	1.51e+00	0	38	104	0	60	61795
2026-01-30 01:28:27.24	319.46	25.21	-49.4	-64.6	3.6	1.51e+00	0	38	104	0	60	61564
2026-01-30 01:28:28.25	319.62	25.08	-49.4	-64.7	3.6	1.51e+00	0	38	104	0	60	61967
2026-01-30 01:28:29.26	319.78	24.95	-49.4	-64.7	3.6	1.51e+00	0	38	104	0	60	61794
2026-01-30 01:28:30.27	319.94	24.81	-49.4	-64.7	3.6	1.51e+00	0	38	104	0	60	61919
2026-01-30 01:28:31.28	320.10	24.68	-49.4	-64.7	3.6	1.51e+00	0	38	104	0	60	62154
2026-01-30 01:28:32.29	320.26	24.55	-49.4	-64.7	3.6	1.51e+00	0	38	104	0	60	62064
2026-01-30 01:28:33.30	320.42	24.41	-49.4	-64.7	3.6	1.51e+00	0	38	104	0	60	61990
2026-01-30 01:28:34.31	320.57	24.28	-49.4	-64.7	3.6	1.51e+00	0	38	104	0	60	61907
2026-01-30 01:28:35.32	320.73	24.15	-49.4	-64.7	3.6	1.51e+00	0	38	104	0	60	62300
2026-01-30 01:28:36.33	320.88	24.02	-49.4	-64.7	3.6	1.51e+00	0	38	104	0	60	61860
2026-01-30 01:28:37.34	321.03	23.89	-49.4	-64.7	3.6	1.51e+00	0	38	104	0	60	61946
2026-01-30 01:28:38.35	321.18	23.76	-49.4	-64.7	3.6	1.51e+00	0	38	104	0	60	62096
2026-01-30 01:28:39.36	321.33	23.63	-49.4	-64.7	3.6	1.51e+00	0	38	104	0	60	62176
2026-01-30 01:28:40.37	321.48	23.50	-49.4	-64.7	3.6	1.51e+00	0	38	104	0	60	61954
2026-01-30 01:28:41.38	321.63	23.37	-49.4	-64.7	3.6	1.51e+00	0	38	104	0	60	61858
2026-01-30 01:28:42.39	321.77	23.25	-49.4	-64.7	3.6	1.51e+00	0	38	104	0	60	62090
2026-01-30 01:28:43.40	321.92	23.12	-49.4	-64.7	3.6	1.51e+00	0	38	104	0	60	61802
2026-01-30 01:28:44.41	322.06	22.99	-49.4	-64.7	3.6	1.51e+00	0	38	104	0	60	61862
2026-01-30 01:28:45.43	322.21	22.86	-49.4	-64.6	3.6	1.51e+00	0	38	104	0	60	61697
2026-01-30 01:28:46.44	322.35	22.74	-49.4	-64.6	3.6	1.51e+00	0	38	104	0	60	61729
2026-01-30 01:28:47.45	322.49	22.61	-49.4	-64.6	3.6	1.51e+00	0	38	104	0	60	61663
2026-01-30 01:28:48.46	322.63	22.49	-49.4	-64.7	3.6	1.51e+00	0	38	104	0	60	61877
2026-01-30 01:28:49.47	322.77	22.36	-49.4	-64.7	3.6	1.51e+00	0	38	104	0	60	61912
2026-01-30 01:28:50.48	322.90	22.24	-49.4	-64.7	3.6	1.51e+00	0	38	104	0	60	61828
2026-01-30 01:28:51.49	323.04	22.11	-49.4	-64.6	3.6	1.51e+00	0	38	104	0	60	61720
2026-01-30 01:28:52.50	323.17	21.99	-49.4	-64.6	3.6	1.51e+00	0	38	104	0	60	61685
2026-01-30 01:28:53.51	323.31	21.87	-49.4	-64.7	3.6	1.51e+00	0	38	104	0	60	61869
2026-01-30 01:28:54.52	323.44	21.74	-49.4	-64.7	3.6	1.51e+00	0	38	104	0	60	61963
2026-01-30 01:28:55.53	323.57	21.62	-49.4	-64.7	3.6	1.51e+00	0	38	104	0	60	61862
2026-01-30 01:28:56.54	323.70	21.50	-49.4	-64.7	3.6	1.51e+00	0	38	104	0	60	61966
2026-01-30 01:28:57.55	323.83	21.38	-49.4	-64.7	3.6	1.51e+00	0	38	104	0	60	61962
2026-01-30 01:28:58.56	323.96	21.26	-49.4	-64.7	3.6	1.51e+00	0	38	104	0	60	62102
2026-01-30 01:28:59.57	324.09	21.14	-49.4	-64.7	3.6	1.51e+00	0	38	104	0	60	61970
2026-01-30 01:29:00.58	324.22	21.02	-49.4	-64.6	3.6	1.51e+00	0	38	104	0	60	61699
2026-01-30 01:29:01.59	324.34	20.90	-49.4	-64.7	3.6	1.51e+00	0	38	104	0	60	61757
2026-01-30 01:29:02.60	324.47	20.78	-49.4	-64.7	3.6	1.51e+00	0	38	104	0	60	61927
2026-01-30 01:29:03.61	324.59	20.66	-49.4	-64.7	3.6	1.51e+00	0	38	104	0	60	61938
2026-01-30 01:29:04.62	324.72	20.54	-49.4	-64.7	3.6	1.51e+00	0	38	104	0	60	62125
2026-01-30 01:29:05.63	324.84	20.43	-49.4	-64.6	3.6	1.51e+00	0	38	104	0	60	61635
2026-01-30 01:29:06.64	324.96	20.31	-49.4	-64.6	3.6	1.51e+00	0	38	104	0	60	61667
2026-01-30 01:29:07.65	325.08	20.19	-49.4	-64.7	3.6	1.51e+00	0	38	104	0	60	62036
2026-01-30 01:29:08.66	325.20	20.07	-49.4	-64.6	3.5	1.51e+00	0	38	104	0	60	61676
2026-01-30 01:29:09.67	325.32	19.96	-49.4	-64.6	3.6	1.51e+00	0	38	104	0	60	61738
2026-01-30 01:29:10.68	325.44	19.84	-49.4	-64.7	3.6	1.51e+00	0	38	104	0	60	61902
2026-01-30 01:29:11.69	325.56	19.73	-49.4	-64.7	3.6	1.51e+00	0	38	104	0	60	61995
2026-01-30 01:29:12.70	325.67	19.61	-49.4	-64.6	3.6	1.51e+00	0	38	104	0	60	61677
2026-01-30 01:29:13.71	325.79	19.50	-49.4	-64.7	3.6	1.51e+00	0	38	104	0	60	61858
2026-01-30 01:29:14.72	325.90	19.38	-49.4	-64.7	3.6	1.51e+00	0	38	104	0	60	61879
2026-01-30 01:29:15.73	326.02	19.27	-49.4	-64.6	3.5	1.51e+00	0	38	104	0	60	61724
2026-01-30 01:29:16.74	326.13	19.16	-49.4	-64.7	3.6	1.51e+00	0	38	104	0	60	62002
2026-01-30 01:29:17.75	326.24	19.05	-49.4	-64.7	3.6	1.51e+00	0	38	104	0	60	61822
2026-01-30 01:29:18.76	326.35	18.93	-49.4	-64.7	3.6	1.51e+00	0	38	104	0	60	61810
2026-01-30 01:29:19.77	326.46	18.82	-49.4	-64.7	3.6	1.51e+00	0	38	104	0	60	62200
2026-01-30 01:29:20.78	326.57	18.71	-49.4	-64.7	3.6	1.51e+00	0	38	104	0	60	61798
2026-01-30 01:29:21.79	326.68	18.60	-49.4	-64.7	3.6	1.51e+00	0	38	104	0	60	62040
2026-01-30 01:29:22.80	326.79	18.49	-49.4	-64.6	3.6	1.51e+00	0	38	104	0	60	61636
2026-01-30 01:29:23.81	326.90	18.38	-49.4	-64.7	3.6	1.51e+00	0	38	104	0	60	61932
2026-01-30 01:29:24.82	327.01	18.27	-49.4	-64.7	3.6	1.51e+00	0	38	104	0	60	61870
2026-01-30 01:29:25.83	327.11	18.16	-49.4	-64.7	3.6	1.51e+00	0	37	104	0	60	61940
2026-01-30 01:29:26.84	327.22	18.05	-49.4	-64.7	3.6	1.51e+00	0	38	104	0	60	61875
2026-01-30 01:29:27.85	327.32	17.94	-49.4	-64.7	3.6	1.51e+00	0	38	104	0	60	61848
2026-01-30 01:29:28.86	327.43	17.83	-49.4	-64.7	3.6	1.51e+00	0	38	104	0	60	61817
2026-01-30 01:29:29.87	327.53	17.72	-49.4	-64.7	3.6	1.51e+00	0	38	104	0	60	61909
2026-01-30 01:29:30.88	327.63	17.62	-49.4	-64.7	3.6	1.51e+00	0	38	104	0	60	62410
2026-01-30 01:29:31.89	327.74	17.51	-49.4	-64.7	3.6	1.51e+00	0	38	104	0	60	61886
2026-01-30 01:29:32.91	327.84	17.40	-49.4	-64.7	3.6	1.51e+00	0	38	104	0	60	62127
2026-01-30 01:29:33.91	327.94	17.30	-49.4	-64.6	3.6	1.51e+00	0	38	104	0	60	61723
2026-01-30 01:29:34.93	328.04	17.19	-49.4	-64.7	3.6	1.51e+00	0	38	104	0	60	61867
2026-01-30 01:29:35.94	328.14	17.08	-49.4	-64.7	3.6	1.51e+00	0	38	104	0	60	61825
2026-01-30 01:29:36.95	328.24	16.98	-49.4	-64.6	3.6	1.51e+00	0	38	104	0	60	61723
2026-01-30 01:29:37.96	328.33	16.87	-49.4	-64.7	3.6	1.51e+00	0	38	104	0	60	61754
2026-01-30 01:29:38.97	328.43	16.77	-49.4	-64.7	3.6	1.51e+00	0	38	104	0	60	62003
2026-01-30 01:29:39.98	328.53	16.67	-49.4	-64.7	3.5	1.51e+00	0	38	104	0	60	61936
2026-01-30 01:29:40.99	328.62	16.56	-49.4	-64.7	3.6	1.51e+00	0	38	104	0	60	61771
2026-01-30 01:29:42.00	328.72	16.46	-49.4	-64.7	3.6	1.51e+00	0	38	104	0	60	62015
2026-01-30 01:29:43.01	328.81	16.36	-49.4	-64.7	3.6	1.51e+00	0	38	104	0	60	61742
2026-01-30 01:29:44.02	328.91	16.25	-49.4	-64.7	3.6	1.51e+00	0	37	104	0	60	61791
2026-01-30 01:29:45.03	329.00	16.15	-49.4	-64.6	3.6	1.51e+00	0	37	104	0	60	61726
2026-01-30 01:29:46.04	329.09	16.05	-49.4	-64.7	3.6	1.51e+00	0	37	104	0	60	62033
2026-01-30 01:29:47.05	329.19	15.95	-49.4	-64.6	3.6	1.51e+00	0	37	104	0	60	61723
2026-01-30 01:29:48.06	329.28	15.85	-49.4	-64.7	3.6	1.51e+00	0	38	104	0	60	61980
2026-01-30 01:29:49.07	329.37	15.75	-49.4	-64.6	3.6	1.51e+00	0	38	104	0	60	61482
2026-01-30 01:29:50.08	329.46	15.65	-49.4	-64.7	3.6	1.51e+00	0	37	104	0	60	61914
2026-01-30 01:29:51.09	329.55	15.55	-49.4	-64.7	3.6	1.51e+00	0	38	104	0	60	61792
2026-01-30 01:29:52.10	329.64	15.45	-49.4	-64.6	3.6	1.51e+00	0	38	104	0	60	61712
2026-01-30 01:29:53.11	329.73	15.35	-49.4	-64.6	3.6	1.51e+00	0	38	104	0	60	61727
2026-01-30 01:29:54.12	329.82	15.25	-49.4	-64.6	3.6	1.51e+00	0	38	104	0	60	61721
2026-01-30 01:29:55.13	329.90	15.15	-49.4	-64.7	3.6	1.51e+00	0	37	104	0	60	61877
2026-01-30 01:29:56.14	329.99	15.05	-49.4	-64.7	3.6	1.51e+00	0	38	104	0	60	62114
2026-01-30 01:29:57.15	330.08	14.95	-49.4	-64.7	3.6	1.51e+00	0	38	104	0	60	61754
2026-01-30 01:29:58.16	330.16	14.85	-49.4	-64.7	3.6	1.51e+00	0	37	104	0	60	62073
2026-01-30 01:29:59.17	330.25	14.76	-49.4	-64.6	3.6	1.51e+00	0	37	104	0	60	61698
2026-01-30 01:30:00.18	330.34	14.66	-49.4	-64.7	3.6	1.51e+00	0	38	104	0	60	62161
2026-01-30 01:30:01.19	330.42	14.56	-49.4	-64.7	3.6	1.51e+00	0	37	104	0	60	61859
2026-01-30 01:30:02.19	330.50	14.47	-49.4	-64.7	3.6	1.51e+00	0	38	104	0	60	61800
2026-01-30 01:30:03.20	330.59	14.37	-49.4	-64.7	3.6	1.51e+00	0	38	104	0	60	61844
2026-01-30 01:30:04.21	330.67	14.28	-49.4	-64.6	3.6	1.51e+00	0	38	104	0	60	61698
2026-01-30 01:30:05.23	330.75	14.18	-49.4	-64.6	3.6	1.51e+00	0	37	104	0	60	61722
2026-01-30 01:30:06.24	330.83	14.08	-49.4	-64.7	3.6	1.51e+00	0	37	104	0	60	61923
2026-01-30 01:30:07.25	330.92	13.99	-49.4	-64.6	3.6	1.51e+00	0	38	104	0	60	61509
2026-01-30 01:30:08.26	331.00	13.90	-49.4	-64.7	3.6	1.51e+00	0	38	104	0	60	62017
2026-01-30 01:30:09.27	331.08	13.80	-49.4	-64.6	3.6	1.51e+00	0	38	104	0	60	61656
2026-01-30 01:30:10.28	331.16	13.71	-49.4	-64.7	3.6	1.51e+00	0	38	104	0	60	61984
2026-01-30 01:30:11.29	331.24	13.61	-49.4	-64.7	3.6	1.51e+00	0	38	104	0	60	61826
2026-01-30 01:30:12.30	331.32	13.52	-49.4	-64.7	3.6	1.51e+00	0	38	104	0	60	61920
2026-01-30 01:30:13.31	331.40	13.43	-49.4	-64.7	3.6	1.51e+00	0	38	104	0	60	61879
2026-01-30 01:30:14.32	331.47	13.34	-49.4	-64.7	3.6	1.51e+00	0	38	104	0	60	61907
2026-01-30 01:30:15.33	331.55	13.24	-49.4	-64.7	3.6	1.51e+00	0	38	104	0	60	62231
2026-01-30 01:30:16.34	331.63	13.15	-49.4	-64.6	3.6	1.51e+00	0	38	104	0	60	61722
2026-01-30 01:30:17.35	331.71	13.06	-49.4	-64.7	3.6	1.51e+00	0	38	104	0	60	61909
2026-01-30 01:30:18.36	331.78	12.97	-49.4	-64.7	3.6	1.51e+00	0	38	104	0	60	61868
2026-01-30 01:30:19.37	331.86	12.88	-49.4	-64.7	3.6	1.51e+00	0	38	104	0	60	61740
2026-01-30 01:30:20.38	331.93	12.79	-49.4	-64.7	3.6	1.51e+00	0	38	104	0	60	61835
2026-01-30 01:30:21.39	332.01	12.70	-49.4	-64.7	3.6	1.51e+00	0	38	104	0	60	61805
2026-01-30 01:30:22.40	332.08	12.61	-49.4	-64.6	3.6	1.51e+00	0	37	104	0	60	61688
2026-01-30 01:30:23.41	332.16	12.52	-49.4	-64.6	3.6	1.51e+00	0	38	104	0	60	61704
2026-01-30 01:30:24.42	332.23	12.43	-49.4	-64.7	3.6	1.51e+00	0	38	104	0	60	61970
2026-01-30 01:30:25.43	332.30	12.34	-49.4	-64.7	3.6	1.51e+00	0	37	104	0	60	62055
2026-01-30 01:30:26.44	332.38	12.25	-49.4	-64.7	3.6	1.51e+00	0	38	104	0	60	62151
2026-01-30 01:30:27.45	332.45	12.16	-49.4	-64.7	3.6	1.51e+00	0	38	104	0	60	61950
2026-01-30 01:30:28.46	332.52	12.07	-49.4	-64.6	3.6	1.51e+00	0	38	104	0	60	61706
2026-01-30 01:30:29.47	332.59	11.98	-49.4	-64.7	3.6	1.51e+00	0	37	104	0	60	61932
2026-01-30 01:30:30.48	332.67	11.90	-49.4	-64.7	3.6	1.51e+00	0	38	104	0	60	62209
