passes_logs/2026/01/30/R4.6S_Anadyr/R4.6S_Anadyr__20260130_184349_NOAA_20_JPSS-1_rec.log

#Pass ID: 20260130_184349_NOAA 20 (JPSS-1)
#Satellite: NOAA 20 (JPSS-1)
#Configuration: NOAA 20
#almurnet v.1.7.20251203
#Start time: 2026-01-30 18:43:50

#Version: 2.2.20231116
#Station: R4.6S_Anadyr
#Location: 177.4865 lon 64.73178 lat
#TLE: 1 43013U 17073A   26030.48431242  .00000108  00000+0  72277-4 0  9995
#TLE: 2 43013  98.7650 331.2614 0000741  18.6512 341.4691 14.19525335424931

#Time	Az	El	Level	Level2	SNR	BER	BlckErr	Temp	State	Recorded	gain1	gain2
2026-01-30 18:43:50.18	43.87	0.05	-50.0	-67.7	3.5	3.02e+01	0	39	0	0	60	93438
2026-01-30 18:43:51.19	43.80	0.10	-49.6	-64.9	3.6	1.51e+00	0	40	104	0	60	63563
2026-01-30 18:43:52.20	43.72	0.15	-49.7	-64.9	3.6	1.51e+00	0	40	104	0	60	63496
2026-01-30 18:43:53.21	43.65	0.20	-49.6	-64.9	3.6	1.51e+00	0	40	104	0	60	63551
2026-01-30 18:43:54.22	43.57	0.25	-49.7	-64.9	3.6	1.51e+00	0	40	104	0	60	63723
2026-01-30 18:43:55.23	43.50	0.30	-49.7	-64.9	3.6	1.51e+00	0	40	104	0	60	63562
2026-01-30 18:43:56.24	43.43	0.35	-49.7	-65.0	3.6	1.51e+00	0	40	104	0	60	63976
2026-01-30 18:43:57.25	43.35	0.40	-49.7	-64.9	3.6	1.51e+00	0	41	104	0	60	63844
2026-01-30 18:43:58.26	43.27	0.45	-49.8	-64.9	3.6	1.51e+00	0	41	104	0	60	63860
2026-01-30 18:43:59.27	43.20	0.50	-49.8	-65.0	3.6	1.51e+00	0	41	104	0	60	63994
2026-01-30 18:44:00.28	43.12	0.55	-49.7	-65.0	3.6	1.51e+00	0	41	104	0	60	64263
2026-01-30 18:44:01.29	43.05	0.60	-49.7	-65.0	3.6	1.51e+00	0	41	104	0	60	64136
2026-01-30 18:44:02.30	42.97	0.65	-49.7	-65.0	3.6	1.51e+00	0	41	104	0	60	63911
2026-01-30 18:44:03.31	42.89	0.70	-49.6	-64.9	3.6	1.51e+00	0	41	104	0	60	63472
2026-01-30 18:44:04.32	42.82	0.75	-49.7	-64.9	3.6	1.51e+00	0	40	104	0	60	63524
2026-01-30 18:44:05.33	42.74	0.80	-49.7	-64.9	3.6	1.51e+00	0	41	104	0	60	63342
2026-01-30 18:44:06.34	42.66	0.85	-49.6	-64.9	3.6	1.51e+00	0	41	104	0	60	63332
2026-01-30 18:44:07.35	42.58	0.90	-49.7	-64.9	3.6	1.51e+00	0	41	104	0	60	63481
2026-01-30 18:44:08.36	42.51	0.95	-49.5	-64.8	3.6	1.51e+00	0	41	104	0	60	62692
2026-01-30 18:44:09.37	42.43	1.00	-49.5	-64.7	3.6	1.51e+00	0	41	104	0	60	62282
2026-01-30 18:44:10.38	42.35	1.05	-49.4	-64.6	3.6	1.51e+00	0	41	104	0	60	61732
2026-01-30 18:44:11.39	42.27	1.10	-49.4	-64.6	3.5	1.51e+00	0	41	104	0	60	61172
2026-01-30 18:44:12.40	42.19	1.15	-49.2	-64.4	3.6	1.51e+00	0	41	104	0	60	60000
2026-01-30 18:44:13.41	42.11	1.20	-49.1	-64.3	3.6	1.51e+00	0	41	104	0	60	59208
2026-01-30 18:44:14.42	42.03	1.25	-48.9	-64.0	3.6	1.51e+00	0	41	104	0	60	57499
2026-01-30 18:44:15.43	41.95	1.30	-48.5	-63.6	3.6	1.51e+00	0	41	104	0	60	54997
2026-01-30 18:44:16.44	41.87	1.36	-48.2	-63.4	3.6	1.51e+00	0	41	104	0	60	53158
2026-01-30 18:44:17.45	41.79	1.41	-48.1	-63.4	3.6	1.51e+00	0	41	104	0	60	53586
2026-01-30 18:44:18.46	41.71	1.46	-48.1	-63.3	3.6	1.51e+00	0	41	104	0	60	52989
2026-01-30 18:44:19.47	41.63	1.51	-48.1	-63.3	3.6	1.51e+00	0	41	104	0	60	53128
2026-01-30 18:44:20.48	41.55	1.56	-48.1	-63.3	3.6	1.51e+00	0	41	104	0	60	52930
2026-01-30 18:44:21.49	41.46	1.61	-48.1	-63.3	3.6	1.51e+00	0	41	104	0	60	52760
2026-01-30 18:44:22.50	41.38	1.66	-48.1	-63.3	3.6	1.51e+00	0	41	104	0	60	52786
2026-01-30 18:44:23.51	41.30	1.71	-48.1	-63.3	3.6	1.51e+00	0	41	104	0	60	53098
2026-01-30 18:44:24.52	41.22	1.76	-48.1	-63.3	3.6	1.51e+00	0	41	104	0	60	52974
2026-01-30 18:44:25.53	41.13	1.81	-48.1	-63.3	3.6	1.51e+00	0	41	104	0	60	53032
2026-01-30 18:44:26.54	41.05	1.86	-48.1	-63.3	3.6	1.51e+00	0	41	104	0	60	53033
2026-01-30 18:44:27.55	40.97	1.91	-48.1	-63.3	3.6	1.51e+00	0	41	104	0	60	52803
2026-01-30 18:44:28.56	40.88	1.97	-48.1	-63.3	3.6	1.51e+00	0	41	104	0	60	52848
2026-01-30 18:44:29.57	40.80	2.02	-48.1	-63.3	3.5	1.51e+00	0	41	104	0	60	52666
2026-01-30 18:44:30.58	40.72	2.07	-48.1	-63.3	3.6	1.51e+00	0	41	104	0	60	52552
2026-01-30 18:44:31.59	40.63	2.12	-48.1	-63.2	3.6	1.51e+00	0	41	104	0	60	52470
2026-01-30 18:44:32.60	40.55	2.17	-48.1	-63.2	3.6	1.51e+00	0	41	104	0	60	52465
2026-01-30 18:44:33.61	40.46	2.22	-48.1	-63.2	3.6	1.51e+00	0	41	104	0	60	52540
2026-01-30 18:44:34.62	40.37	2.27	-48.1	-63.3	3.6	1.51e+00	0	41	104	0	60	52784
2026-01-30 18:44:35.63	40.29	2.32	-48.1	-63.3	3.6	1.51e+00	0	41	104	0	60	52750
2026-01-30 18:44:36.64	40.20	2.37	-48.1	-63.2	3.6	1.51e+00	0	41	104	0	60	52373
2026-01-30 18:44:37.65	40.11	2.43	-48.1	-63.2	3.6	1.51e+00	0	41	104	0	60	52376
2026-01-30 18:44:38.66	40.03	2.48	-48.1	-63.3	3.6	1.51e+00	0	41	104	0	60	52715
2026-01-30 18:44:39.67	39.94	2.53	-48.1	-63.3	3.6	1.51e+00	0	41	104	0	60	53142
2026-01-30 18:44:40.68	39.85	2.58	-48.1	-63.1	3.6	1.51e+00	0	41	104	0	60	51405
2026-01-30 18:44:41.69	39.77	2.63	-48.1	-62.8	3.6	1.51e+00	0	41	104	0	60	49708
2026-01-30 18:44:42.70	39.68	2.68	-48.1	-62.7	3.6	1.51e+00	0	41	104	0	60	49484
2026-01-30 18:44:43.71	39.59	2.73	-48.1	-63.3	3.6	1.51e+00	0	41	104	0	60	52555
2026-01-30 18:44:44.72	39.50	2.79	-48.1	-62.0	3.6	1.51e+00	0	41	104	0	60	45379
2026-01-30 18:44:45.73	39.41	2.84	-47.8	-58.0	4.8	1.27e+00	92	41	104	0	60	28699
2026-01-30 18:44:46.74	39.32	2.89	-47.2	-53.7	7.7	2.28e-01	0	41	0	1048576	60	17478
2026-01-30 18:44:47.75	39.23	2.94	-46.3	-50.7	11.4	1.76e-02	92	41	0	3145728	60	12439
2026-01-30 18:44:48.76	39.14	2.99	-45.3	-48.7	13.6	3.58e-05	81	41	0	5242880	60	9888
2026-01-30 18:44:49.77	39.05	3.04	-48.2	-63.1	3.6	1.00e-01	0	41	104	6291456	60	51453
2026-01-30 18:44:50.78	38.96	3.09	-47.0	-53.0	5.3	1.50e+00	0	41	104	6291456	60	16096
2026-01-30 18:44:51.79	38.87	3.15	-48.0	-61.3	3.6	3.05e-01	0	41	104	6291456	60	41868
2026-01-30 18:44:52.80	38.78	3.20	-48.1	-60.7	3.6	1.50e+00	0	41	104	6291456	60	39383
2026-01-30 18:44:53.81	38.68	3.25	-44.4	-47.1	14.7	1.39e+00	74	41	104	6291456	60	8213
2026-01-30 18:44:54.82	38.59	3.30	-44.2	-46.7	15.5	0.00e+00	91	41	0	6291456	60	7858
2026-01-30 18:44:55.83	38.50	3.35	-44.7	-47.5	15.2	0.00e+00	0	41	0	8388608	60	8602
2026-01-30 18:44:56.84	38.41	3.41	-44.0	-46.4	16.0	0.00e+00	92	41	0	10485760	60	7578
2026-01-30 18:44:57.85	38.31	3.46	-43.5	-45.7	16.8	0.00e+00	2	41	0	12582912	60	6986
2026-01-30 18:44:58.86	38.22	3.51	-43.3	-45.4	17.1	0.00e+00	0	41	0	13631488	60	6749
2026-01-30 18:44:59.87	38.13	3.56	-43.2	-45.2	17.3	0.00e+00	92	41	0	15728640	60	6602
2026-01-30 18:45:00.88	38.03	3.61	-43.3	-45.3	17.3	0.00e+00	2	41	0	17825792	60	6629
2026-01-30 18:45:01.89	37.94	3.67	-43.3	-45.3	17.3	0.00e+00	91	41	0	19922944	60	6690
2026-01-30 18:45:02.90	37.84	3.72	-43.1	-45.1	17.5	0.00e+00	0	41	0	22020096	60	6494
2026-01-30 18:45:03.91	37.75	3.77	-43.4	-45.4	17.3	0.00e+00	90	41	0	23068672	60	6720
2026-01-30 18:45:04.91	37.65	3.82	-43.1	-45.0	17.6	0.00e+00	0	41	0	25165824	60	6461
2026-01-30 18:45:05.92	37.56	3.87	-43.1	-45.0	17.7	0.00e+00	48	41	0	27262976	60	6441
2026-01-30 18:45:06.93	37.46	3.92	-43.1	-45.0	17.7	0.00e+00	43	41	0	29360128	60	6412
2026-01-30 18:45:07.94	37.36	3.98	-43.0	-44.9	17.7	0.00e+00	0	41	0	31457280	60	6345
2026-01-30 18:45:08.95	37.27	4.03	-43.1	-45.0	17.7	0.00e+00	92	41	0	32505856	60	6454
2026-01-30 18:45:09.96	37.17	4.08	-43.2	-45.2	17.5	0.00e+00	1	41	0	34603008	60	6575
2026-01-30 18:45:10.97	37.07	4.13	-43.1	-45.1	17.6	0.00e+00	92	41	0	36700160	60	6476
2026-01-30 18:45:11.98	36.97	4.19	-43.0	-44.9	17.8	0.00e+00	0	41	0	38797312	60	6350
2026-01-30 18:45:12.99	36.88	4.24	-43.0	-44.9	17.9	0.00e+00	92	41	0	40894464	60	6319
2026-01-30 18:45:14.00	36.78	4.29	-43.0	-44.9	17.8	0.00e+00	60	41	0	41943040	60	6352
2026-01-30 18:45:15.01	36.68	4.34	-43.1	-45.0	17.7	0.00e+00	0	41	0	44040192	60	6402
2026-01-30 18:45:16.02	36.58	4.39	-43.1	-44.9	17.8	0.00e+00	92	41	0	46137344	60	6380
2026-01-30 18:45:17.03	36.48	4.45	-43.0	-44.9	17.8	0.00e+00	0	41	0	48234496	60	6360
2026-01-30 18:45:18.04	36.38	4.50	-43.1	-45.0	17.8	0.00e+00	91	41	0	50331648	60	6425
2026-01-30 18:45:19.05	36.28	4.55	-43.1	-44.9	17.8	0.00e+00	2	41	0	51380224	60	6382
2026-01-30 18:45:20.06	36.18	4.60	-43.3	-45.3	17.6	0.00e+00	91	41	0	53477376	60	6638
2026-01-30 18:45:21.07	36.07	4.66	-42.8	-44.6	18.2	0.00e+00	0	41	0	55574528	60	6120
2026-01-30 18:45:22.08	35.97	4.71	-43.2	-45.2	17.6	0.00e+00	27	41	0	57671680	60	6564
2026-01-30 18:45:23.09	35.87	4.76	-42.9	-44.7	18.1	0.00e+00	92	41	0	59768832	60	6189
2026-01-30 18:45:24.10	35.77	4.81	-42.9	-44.7	18.1	0.00e+00	0	41	0	60817408	60	6211
2026-01-30 18:45:25.11	35.67	4.87	-42.9	-44.7	18.0	0.00e+00	92	41	0	62914560	60	6226
2026-01-30 18:45:26.12	35.56	4.92	-43.0	-44.8	18.0	0.00e+00	0	41	0	65011712	60	6282
2026-01-30 18:45:27.13	35.46	4.97	-43.0	-44.9	17.9	0.00e+00	90	41	0	67108864	60	6319
2026-01-30 18:45:28.14	35.35	5.02	-42.9	-44.7	18.2	0.00e+00	81	41	0	69206016	60	6205
2026-01-30 18:45:29.15	35.25	5.08	-42.8	-44.6	18.2	0.00e+00	92	41	0	71303168	60	6139
2026-01-30 18:45:30.16	35.14	5.13	-42.6	-44.3	18.5	0.00e+00	90	41	0	72351744	58	6634
2026-01-30 18:45:31.17	35.04	5.18	-42.6	-44.3	18.4	0.00e+00	0	41	0	74448896	58	6632
2026-01-30 18:45:32.18	34.93	5.23	-42.5	-44.1	18.6	0.00e+00	92	41	0	76546048	58	6522
2026-01-30 18:45:33.19	34.83	5.29	-42.4	-44.0	18.7	0.00e+00	0	41	0	78643200	58	6439
2026-01-30 18:45:34.20	34.72	5.34	-42.7	-44.5	18.4	0.00e+00	92	41	0	80740352	58	6782
2026-01-30 18:45:35.21	34.61	5.39	-42.7	-44.4	18.4	0.00e+00	6	41	0	81788928	58	6751
2026-01-30 18:45:36.22	34.51	5.44	-42.5	-44.2	18.6	0.00e+00	90	41	0	83886080	58	6580
2026-01-30 18:45:37.23	34.40	5.50	-42.4	-44.0	18.7	0.00e+00	79	41	0	85983232	58	6453
2026-01-30 18:45:38.24	34.29	5.55	-42.3	-43.9	18.9	0.00e+00	2	41	0	88080384	58	6364
2026-01-30 18:45:39.25	34.18	5.60	-42.3	-43.9	19.0	0.00e+00	90	41	0	90177536	58	6335
2026-01-30 18:45:40.26	34.07	5.65	-42.2	-43.8	19.0	0.00e+00	0	41	0	91226112	58	6276
2026-01-30 18:45:41.27	33.96	5.71	-42.3	-43.9	18.8	0.00e+00	90	41	0	93323264	58	6354
2026-01-30 18:45:42.28	33.86	5.76	-42.4	-44.0	18.8	0.00e+00	0	41	0	95420416	58	6404
2026-01-30 18:45:43.29	33.75	5.81	-42.0	-43.5	19.4	0.00e+00	92	41	0	97517568	58	6055
2026-01-30 18:45:44.30	33.63	5.86	-42.0	-43.5	19.2	0.00e+00	0	41	0	99614720	58	6058
2026-01-30 18:45:45.31	33.52	5.92	-41.9	-43.4	19.4	0.00e+00	0	41	0	100663296	58	6029
2026-01-30 18:45:46.32	33.41	5.97	-41.9	-43.4	19.4	0.00e+00	92	41	0	102760448	58	6022
2026-01-30 18:45:47.33	33.30	6.02	-42.0	-43.6	19.3	0.00e+00	0	41	0	104857600	58	6122
2026-01-30 18:45:48.34	33.19	6.08	-41.9	-43.4	19.5	0.00e+00	90	41	0	106954752	58	6016
2026-01-30 18:45:49.35	33.08	6.13	-42.0	-43.6	19.3	0.00e+00	0	41	0	109051904	58	6108
2026-01-30 18:45:50.36	32.96	6.18	-42.0	-43.4	19.5	0.00e+00	92	41	0	110100480	58	6027
2026-01-30 18:45:51.37	32.85	6.23	-42.0	-43.5	19.4	0.00e+00	0	41	0	112197632	58	6055
2026-01-30 18:45:52.38	32.74	6.29	-41.9	-43.4	19.5	0.00e+00	90	41	0	114294784	58	5990
2026-01-30 18:45:53.39	32.62	6.34	-41.8	-43.2	19.7	0.00e+00	91	41	0	116391936	58	5870
2026-01-30 18:45:54.40	32.51	6.39	-41.8	-43.2	19.7	0.00e+00	6	41	0	118489088	56	6578
2026-01-30 18:45:55.41	32.39	6.44	-41.8	-43.2	19.7	0.00e+00	92	41	0	119537664	56	6603
2026-01-30 18:45:56.42	32.28	6.50	-41.8	-43.3	19.8	0.00e+00	6	41	0	121634816	56	6619
2026-01-30 18:45:57.43	32.16	6.55	-41.6	-43.0	20.0	0.00e+00	34	41	0	123731968	56	6421
2026-01-30 18:45:58.44	32.04	6.60	-41.5	-42.9	20.1	0.00e+00	6	41	0	125829120	56	6324
2026-01-30 18:45:59.45	31.93	6.65	-41.6	-43.0	19.9	0.00e+00	5	41	0	127926272	56	6424
2026-01-30 18:46:00.46	31.81	6.71	-41.5	-42.9	20.0	0.00e+00	0	41	0	128974848	56	6363
2026-01-30 18:46:01.47	31.69	6.76	-41.5	-42.8	20.0	0.00e+00	6	41	0	131072000	56	6301
2026-01-30 18:46:02.48	31.57	6.81	-41.5	-42.8	20.0	0.00e+00	92	41	0	133169152	56	6307
2026-01-30 18:46:03.49	31.46	6.87	-41.3	-42.6	20.3	0.00e+00	0	41	0	135266304	56	6172
2026-01-30 18:46:04.50	31.34	6.92	-41.4	-42.7	20.2	0.00e+00	13	41	0	137363456	56	6216
2026-01-30 18:46:05.51	31.22	6.97	-41.4	-42.8	20.2	0.00e+00	82	41	0	139460608	56	6254
2026-01-30 18:46:06.52	31.10	7.02	-41.4	-42.8	20.3	0.00e+00	81	41	0	140509184	56	6254
2026-01-30 18:46:07.53	30.98	7.08	-41.5	-42.8	20.2	0.00e+00	0	41	0	142606336	56	6308
2026-01-30 18:46:08.54	30.86	7.13	-41.6	-42.9	20.1	0.00e+00	0	41	0	144703488	56	6362
2026-01-30 18:46:09.55	30.74	7.18	-41.6	-42.9	20.1	0.00e+00	92	41	0	146800640	56	6377
2026-01-30 18:46:10.56	30.61	7.23	-41.6	-43.0	20.0	0.00e+00	3	41	0	148897792	56	6410
2026-01-30 18:46:11.57	30.49	7.29	-41.6	-43.0	20.0	0.00e+00	92	41	0	149946368	56	6425
2026-01-30 18:46:12.57	30.37	7.34	-41.6	-43.0	20.1	0.00e+00	79	41	0	152043520	56	6399
2026-01-30 18:46:13.58	30.25	7.39	-41.6	-42.9	20.1	0.00e+00	83	41	0	154140672	56	6382
2026-01-30 18:46:14.60	30.12	7.44	-41.6	-43.0	20.1	0.00e+00	4	41	0	156237824	56	6426
2026-01-30 18:46:15.61	30.00	7.50	-41.5	-42.9	20.1	0.00e+00	5	41	0	158334976	56	6318
2026-01-30 18:46:16.61	29.88	7.55	-41.5	-42.9	20.1	0.00e+00	90	41	0	159383552	56	6339
2026-01-30 18:46:17.62	29.75	7.60	-41.6	-43.0	20.0	0.00e+00	0	41	0	161480704	56	6416
2026-01-30 18:46:18.63	29.63	7.65	-41.6	-42.9	20.1	0.00e+00	91	41	0	163577856	56	6388
2026-01-30 18:46:19.64	29.50	7.70	-41.5	-42.8	20.2	0.00e+00	6	41	0	165675008	56	6263
2026-01-30 18:46:20.65	29.37	7.76	-41.5	-42.8	20.3	0.00e+00	6	41	0	167772160	56	6281
2026-01-30 18:46:21.66	29.25	7.81	-41.5	-42.8	20.2	0.00e+00	0	41	0	168820736	56	6276
2026-01-30 18:46:22.67	29.12	7.86	-41.4	-42.7	20.3	0.00e+00	0	41	0	170917888	56	6225
2026-01-30 18:46:23.69	28.99	7.91	-41.4	-42.8	20.2	0.00e+00	0	41	0	173015040	56	6252
2026-01-30 18:46:24.69	28.86	7.97	-41.5	-42.8	20.2	0.00e+00	7	41	0	175112192	56	6317
2026-01-30 18:46:25.70	28.74	8.02	-41.4	-42.7	20.4	0.00e+00	92	41	0	177209344	56	6192
2026-01-30 18:46:26.72	28.61	8.07	-41.4	-42.7	20.3	0.00e+00	81	41	0	178257920	56	6240
2026-01-30 18:46:27.72	28.48	8.12	-41.3	-42.6	20.4	0.00e+00	25	41	0	180355072	56	6173
2026-01-30 18:46:28.73	28.35	8.17	-41.2	-42.5	20.5	0.00e+00	81	41	0	182452224	56	6076
2026-01-30 18:46:29.74	28.22	8.23	-41.3	-42.6	20.5	0.00e+00	81	41	0	184549376	56	6112
2026-01-30 18:46:30.75	28.09	8.28	-41.3	-42.5	20.5	0.00e+00	0	41	0	186646528	56	6103
2026-01-30 18:46:31.76	27.95	8.33	-41.2	-42.4	20.6	0.00e+00	81	41	0	187695104	56	6016
2026-01-30 18:46:32.77	27.82	8.38	-41.2	-42.5	20.6	0.00e+00	90	41	0	189792256	56	6088
2026-01-30 18:46:33.78	27.69	8.43	-41.2	-42.5	20.7	0.00e+00	81	41	0	191889408	56	6049
2026-01-30 18:46:34.79	27.56	8.49	-41.3	-42.6	20.5	0.00e+00	92	41	0	193986560	56	6132
2026-01-30 18:46:35.80	27.42	8.54	-41.3	-42.6	20.5	0.00e+00	0	41	0	196083712	56	6111
2026-01-30 18:46:36.81	27.29	8.59	-41.1	-42.4	20.7	0.00e+00	0	41	0	197132288	56	5973
2026-01-30 18:46:37.82	27.16	8.64	-41.3	-42.5	20.5	0.00e+00	0	41	0	199229440	56	6101
2026-01-30 18:46:38.83	27.02	8.69	-41.2	-42.4	20.7	0.00e+00	0	41	0	201326592	56	6010
2026-01-30 18:46:39.84	26.89	8.74	-41.3	-42.6	20.6	0.00e+00	92	41	0	203423744	56	6106
2026-01-30 18:46:40.85	26.75	8.80	-41.3	-42.6	20.5	0.00e+00	0	41	0	205520896	56	6143
2026-01-30 18:46:41.86	26.61	8.85	-41.3	-42.6	20.5	0.00e+00	92	41	0	207618048	56	6138
2026-01-30 18:46:42.87	26.48	8.90	-41.1	-42.4	20.8	0.00e+00	0	41	0	208666624	56	5969
2026-01-30 18:46:43.88	26.34	8.95	-41.1	-42.4	20.8	0.00e+00	0	41	0	210763776	56	5999
2026-01-30 18:46:44.89	26.20	9.00	-41.1	-42.4	20.7	0.00e+00	81	41	0	212860928	56	5968
2026-01-30 18:46:45.91	26.06	9.05	-41.2	-42.5	20.7	0.00e+00	0	41	0	214958080	56	6058
2026-01-30 18:46:46.92	25.92	9.11	-41.1	-42.3	20.8	0.00e+00	0	41	0	217055232	56	5945
2026-01-30 18:46:47.92	25.79	9.16	-41.2	-42.5	20.7	0.00e+00	0	41	0	218103808	56	6041
2026-01-30 18:46:48.93	25.65	9.21	-41.0	-42.3	20.8	0.00e+00	92	41	0	220200960	56	5914
2026-01-30 18:46:49.94	25.51	9.26	-41.1	-42.4	20.8	0.00e+00	0	41	0	222298112	56	5976
2026-01-30 18:46:50.95	25.36	9.31	-41.0	-42.3	20.8	0.00e+00	0	41	0	224395264	56	5921
2026-01-30 18:46:51.96	25.22	9.36	-40.8	-42.0	21.0	0.00e+00	0	41	0	226492416	56	5761
2026-01-30 18:46:52.97	25.08	9.41	-40.9	-42.1	20.9	0.00e+00	81	41	0	227540992	56	5819
2026-01-30 18:46:53.98	24.94	9.46	-40.9	-42.1	21.0	0.00e+00	19	41	0	229638144	56	5777
2026-01-30 18:46:54.99	24.80	9.51	-41.0	-42.2	20.9	0.00e+00	0	41	0	231735296	56	5847
2026-01-30 18:46:56.00	24.65	9.56	-40.9	-42.2	21.0	0.00e+00	92	41	0	233832448	56	5835
2026-01-30 18:46:57.01	24.51	9.61	-40.7	-41.9	21.0	0.00e+00	0	41	0	235929600	54	6375
2026-01-30 18:46:58.02	24.36	9.66	-40.9	-42.1	21.0	0.00e+00	91	41	0	236978176	54	6495
2026-01-30 18:46:59.03	24.22	9.72	-40.9	-42.1	20.9	0.00e+00	0	41	0	239075328	54	6513
2026-01-30 18:47:00.04	24.07	9.77	-40.9	-42.1	21.0	0.00e+00	0	41	0	241172480	54	6486
2026-01-30 18:47:01.05	23.93	9.82	-40.9	-42.2	20.9	0.00e+00	0	41	0	243269632	54	6542
2026-01-30 18:47:02.06	23.78	9.87	-41.0	-42.2	20.8	0.00e+00	0	41	0	245366784	54	6583
2026-01-30 18:47:03.07	23.64	9.92	-40.9	-42.1	21.0	0.00e+00	90	41	0	246415360	54	6494
2026-01-30 18:47:04.08	23.49	9.97	-40.9	-42.1	20.9	0.00e+00	2	41	0	248512512	54	6512
2026-01-30 18:47:05.09	23.34	10.02	-41.0	-42.2	20.9	0.00e+00	90	41	0	250609664	54	6589
2026-01-30 18:47:06.10	23.19	10.07	-40.9	-42.1	20.9	0.00e+00	0	41	0	252706816	54	6514
2026-01-30 18:47:07.11	23.04	10.12	-40.9	-42.1	21.0	0.00e+00	0	41	0	254803968	54	6479
2026-01-30 18:47:08.12	22.89	10.17	-40.8	-41.9	21.1	0.00e+00	82	41	0	255852544	54	6388
2026-01-30 18:47:09.14	22.74	10.22	-40.8	-42.0	21.1	0.00e+00	0	41	0	257949696	54	6417
2026-01-30 18:47:10.15	22.59	10.27	-40.8	-42.0	21.1	0.00e+00	82	41	0	260046848	54	6408
2026-01-30 18:47:11.16	22.44	10.32	-40.8	-42.0	21.1	0.00e+00	0	41	0	262144000	54	6396
2026-01-30 18:47:12.17	22.29	10.36	-40.7	-41.8	21.3	0.00e+00	92	41	0	264241152	54	6317
2026-01-30 18:47:13.17	22.14	10.41	-40.6	-41.8	21.3	0.00e+00	82	41	0	265289728	54	6281
2026-01-30 18:47:14.18	21.99	10.46	-40.6	-41.8	21.3	0.00e+00	0	41	0	267386880	54	6263
2026-01-30 18:47:15.19	21.83	10.51	-40.5	-41.7	21.4	0.00e+00	0	41	0	269484032	54	6181
2026-01-30 18:47:16.20	21.68	10.56	-40.3	-41.5	21.5	0.00e+00	0	41	0	271581184	54	6048
2026-01-30 18:47:17.21	21.53	10.61	-40.4	-41.5	21.5	0.00e+00	0	41	0	273678336	54	6088
2026-01-30 18:47:18.23	21.37	10.66	-40.4	-41.5	21.6	0.00e+00	2	41	0	275775488	54	6084
2026-01-30 18:47:19.23	21.22	10.71	-40.2	-41.3	21.7	0.00e+00	92	41	0	276824064	54	5964
2026-01-30 18:47:20.24	21.06	10.76	-40.1	-41.2	21.9	0.00e+00	0	41	0	278921216	54	5877
2026-01-30 18:47:21.25	20.90	10.80	-40.1	-41.2	21.8	0.00e+00	92	41	0	281018368	54	5884
2026-01-30 18:47:22.26	20.75	10.85	-40.0	-41.1	22.0	0.00e+00	0	41	0	283115520	54	5763
2026-01-30 18:47:23.27	20.59	10.90	-40.0	-41.1	22.0	0.00e+00	0	41	0	285212672	54	5779
2026-01-30 18:47:24.28	20.43	10.95	-39.9	-41.0	22.1	0.00e+00	0	41	0	286261248	54	5707
2026-01-30 18:47:25.29	20.27	11.00	-39.8	-40.9	22.3	0.00e+00	0	41	0	288358400	54	5640
2026-01-30 18:47:26.30	20.11	11.04	-39.7	-40.7	22.4	0.00e+00	92	41	0	290455552	52	6201
2026-01-30 18:47:27.31	19.95	11.09	-39.7	-40.7	22.3	0.00e+00	0	41	0	292552704	52	6238
2026-01-30 18:47:28.32	19.79	11.14	-39.5	-40.5	22.6	0.00e+00	92	41	0	294649856	52	6047
2026-01-30 18:47:29.33	19.63	11.19	-39.6	-40.6	22.5	0.00e+00	80	41	0	295698432	52	6125
2026-01-30 18:47:30.34	19.47	11.23	-39.4	-40.4	22.7	0.00e+00	0	41	0	297795584	52	5995
2026-01-30 18:47:31.35	19.31	11.28	-39.5	-40.5	22.6	0.00e+00	0	41	0	299892736	52	6062
2026-01-30 18:47:32.36	19.15	11.33	-39.5	-40.5	22.6	0.00e+00	81	41	0	301989888	52	6050
2026-01-30 18:47:33.37	18.99	11.38	-39.5	-40.5	22.5	0.00e+00	78	41	0	304087040	52	6059
2026-01-30 18:47:34.38	18.82	11.42	-39.5	-40.5	22.6	0.00e+00	0	41	0	305135616	52	6064
2026-01-30 18:47:35.39	18.66	11.47	-39.4	-40.4	22.6	0.00e+00	92	41	0	307232768	52	6028
2026-01-30 18:47:36.40	18.50	11.52	-39.4	-40.4	22.7	0.00e+00	0	41	0	309329920	52	6030
2026-01-30 18:47:37.41	18.33	11.56	-39.5	-40.5	22.6	0.00e+00	7	41	0	311427072	52	6043
2026-01-30 18:47:38.42	18.17	11.61	-39.6	-40.6	22.5	0.00e+00	0	41	0	313524224	52	6154
2026-01-30 18:47:39.43	18.00	11.65	-39.5	-40.5	22.7	0.00e+00	0	41	0	314572800	52	6054
2026-01-30 18:47:40.44	17.83	11.70	-39.5	-40.5	22.6	0.00e+00	0	41	0	316669952	52	6049
2026-01-30 18:47:41.45	17.67	11.75	-39.3	-40.3	22.8	0.00e+00	6	41	0	318767104	52	5902
2026-01-30 18:47:42.46	17.50	11.79	-39.4	-40.4	22.8	0.00e+00	92	41	0	320864256	52	5966
2026-01-30 18:47:43.47	17.33	11.84	-39.3	-40.3	22.8	0.00e+00	0	41	0	322961408	52	5912
2026-01-30 18:47:44.48	17.16	11.88	-39.1	-40.1	23.0	0.00e+00	92	41	0	324009984	52	5784
2026-01-30 18:47:45.49	16.99	11.93	-39.2	-40.1	22.9	0.00e+00	6	41	0	326107136	52	5825
2026-01-30 18:47:46.50	16.83	11.97	-39.0	-40.0	23.0	0.00e+00	83	41	0	328204288	52	5717
2026-01-30 18:47:47.51	16.66	12.02	-39.0	-40.0	23.0	0.00e+00	0	41	0	330301440	52	5736
2026-01-30 18:47:48.52	16.48	12.06	-39.1	-40.0	23.0	0.00e+00	0	41	0	332398592	52	5741
2026-01-30 18:47:49.53	16.31	12.11	-38.8	-39.7	23.3	0.00e+00	92	41	0	333447168	52	5552
2026-01-30 18:47:50.54	16.14	12.15	-38.9	-39.8	22.5	0.00e+00	84	41	0	335544320	52	5604
2026-01-30 18:47:51.55	15.97	12.20	-38.9	-39.8	23.2	0.00e+00	91	41	0	337641472	52	5621
2026-01-30 18:47:52.56	15.80	12.24	-38.8	-39.8	23.2	0.00e+00	83	41	0	339738624	52	5583
2026-01-30 18:47:53.57	15.62	12.28	-38.7	-39.7	23.3	0.00e+00	5	41	0	341835776	50	6190
2026-01-30 18:47:54.58	15.45	12.33	-38.7	-39.6	23.3	0.00e+00	84	41	0	343932928	50	6159
2026-01-30 18:47:55.59	15.28	12.37	-38.6	-39.5	23.5	0.00e+00	84	41	0	344981504	50	6035
2026-01-30 18:47:56.59	15.10	12.41	-38.6	-39.5	23.4	0.00e+00	51	41	0	347078656	50	6059
2026-01-30 18:47:57.60	14.93	12.46	-38.4	-39.3	23.6	0.00e+00	7	41	0	349175808	50	5963
2026-01-30 18:47:58.61	14.75	12.50	-38.5	-39.4	23.6	0.00e+00	92	41	0	351272960	50	6030
2026-01-30 18:47:59.62	14.58	12.54	-38.6	-39.6	23.5	0.00e+00	7	41	0	353370112	50	6109
2026-01-30 18:48:00.64	14.40	12.59	-38.6	-39.5	23.5	0.00e+00	92	41	0	354418688	50	6047
2026-01-30 18:48:01.64	14.22	12.63	-38.6	-39.6	23.5	0.00e+00	8	41	0	356515840	50	6111
2026-01-30 18:48:02.65	14.04	12.67	-38.5	-39.4	23.5	0.00e+00	6	41	0	358612992	50	6012
2026-01-30 18:48:03.66	13.87	12.71	-38.6	-39.5	23.5	0.00e+00	0	41	0	360710144	50	6053
2026-01-30 18:48:04.67	13.69	12.75	-38.7	-39.6	23.4	0.00e+00	0	41	0	362807296	50	6117
2026-01-30 18:48:05.68	13.51	12.79	-38.8	-39.7	23.3	0.00e+00	92	41	0	363855872	50	6222
2026-01-30 18:48:06.69	13.33	12.84	-38.8	-39.8	23.2	0.00e+00	0	41	0	365953024	50	6256
2026-01-30 18:48:07.70	13.15	12.88	-38.9	-39.8	23.2	0.00e+00	92	41	0	368050176	50	6300
2026-01-30 18:48:08.71	12.97	12.92	-38.9	-39.8	23.2	0.00e+00	0	41	0	370147328	50	6292
2026-01-30 18:48:09.72	12.79	12.96	-38.9	-39.8	23.2	0.00e+00	0	41	0	372244480	50	6289
2026-01-30 18:48:10.73	12.60	13.00	-38.8	-39.8	23.3	0.00e+00	0	41	0	373293056	50	6252
2026-01-30 18:48:11.74	12.42	13.04	-38.9	-39.8	23.2	0.00e+00	81	41	0	375390208	50	6307
2026-01-30 18:48:12.74	12.24	13.08	-39.0	-40.0	23.1	0.00e+00	92	41	0	377487360	50	6425
2026-01-30 18:48:13.75	12.06	13.12	-39.1	-40.0	23.0	0.00e+00	1	41	0	379584512	50	6443
2026-01-30 18:48:14.77	11.87	13.16	-39.0	-40.0	23.0	0.00e+00	91	41	0	381681664	50	6422
2026-01-30 18:48:15.78	11.69	13.20	-39.1	-40.0	23.1	0.00e+00	2	41	0	382730240	50	6457
2026-01-30 18:48:16.79	11.50	13.24	-38.9	-39.9	23.1	0.00e+00	81	41	0	384827392	50	6348
2026-01-30 18:48:17.79	11.32	13.27	-39.0	-40.0	23.1	0.00e+00	0	41	0	386924544	50	6395
2026-01-30 18:48:18.80	11.13	13.31	-39.0	-40.0	23.1	0.00e+00	2	41	0	389021696	50	6447
2026-01-30 18:48:19.81	10.95	13.35	-39.1	-40.1	23.1	0.00e+00	77	41	0	391118848	50	6483
2026-01-30 18:48:20.82	10.76	13.39	-39.3	-40.2	22.6	0.00e+00	0	41	0	392167424	50	6613
2026-01-30 18:48:21.83	10.57	13.43	-39.2	-40.1	23.0	0.00e+00	92	41	0	394264576	50	6520
2026-01-30 18:48:22.84	10.38	13.47	-38.9	-39.9	23.2	0.00e+00	0	41	0	396361728	50	6333
2026-01-30 18:48:23.85	10.19	13.50	-38.9	-39.8	23.3	0.00e+00	15	41	0	398458880	50	6312
2026-01-30 18:48:24.86	10.01	13.54	-38.7	-39.6	23.4	0.00e+00	0	41	0	400556032	50	6145
2026-01-30 18:48:25.87	9.82	13.58	-38.7	-39.6	23.4	0.00e+00	0	41	0	401604608	50	6173
2026-01-30 18:48:26.88	9.63	13.61	-38.9	-39.8	23.2	0.00e+00	0	41	0	403701760	50	6295
2026-01-30 18:48:27.89	9.44	13.65	-38.9	-39.9	23.3	0.00e+00	0	41	0	405798912	50	6329
2026-01-30 18:48:28.90	9.25	13.69	-38.9	-39.8	23.2	0.00e+00	91	41	0	407896064	50	6273
2026-01-30 18:48:29.91	9.05	13.72	-38.9	-39.8	23.2	0.00e+00	0	41	0	409993216	50	6294
2026-01-30 18:48:30.92	8.86	13.76	-38.7	-39.7	23.4	0.00e+00	91	41	0	412090368	50	6178
2026-01-30 18:48:31.93	8.67	13.79	-38.7	-39.6	23.5	0.00e+00	0	41	0	413138944	50	6126
2026-01-30 18:48:32.94	8.48	13.83	-38.6	-39.6	23.4	0.00e+00	0	41	0	415236096	50	6104
2026-01-30 18:48:33.95	8.29	13.86	-38.7	-39.6	23.1	0.00e+00	82	41	0	417333248	50	6160
2026-01-30 18:48:34.96	8.09	13.90	-38.9	-39.8	22.7	0.00e+00	3	41	0	419430400	50	6264
2026-01-30 18:48:35.97	7.90	13.93	-38.6	-39.5	23.5	0.00e+00	85	41	0	421527552	50	6086
2026-01-30 18:48:36.98	7.70	13.96	-38.6	-39.5	23.5	0.00e+00	82	41	0	422576128	50	6086
2026-01-30 18:48:37.99	7.51	14.00	-38.7	-39.6	23.4	0.00e+00	91	41	0	424673280	50	6145
2026-01-30 18:48:39.00	7.31	14.03	-38.6	-39.5	23.6	0.00e+00	0	41	0	426770432	50	6072
2026-01-30 18:48:40.01	7.12	14.06	-38.7	-39.6	23.5	0.00e+00	0	41	0	428867584	50	6113
2026-01-30 18:48:41.01	6.92	14.10	-38.7	-39.6	23.4	0.00e+00	0	41	0	430964736	50	6145
2026-01-30 18:48:42.02	6.73	14.13	-38.7	-39.6	23.5	0.00e+00	2	41	0	432013312	50	6123
2026-01-30 18:48:43.03	6.53	14.16	-38.6	-39.5	23.6	0.00e+00	2	41	0	434110464	50	6085
2026-01-30 18:48:44.04	6.33	14.19	-38.6	-39.5	23.6	0.00e+00	2	41	0	436207616	50	6077
2026-01-30 18:48:45.05	6.13	14.23	-38.4	-39.4	23.7	0.00e+00	92	41	0	438304768	50	5974
2026-01-30 18:48:46.06	5.94	14.26	-38.5	-39.5	23.5	0.00e+00	0	41	0	440401920	50	6036
2026-01-30 18:48:47.07	5.74	14.29	-38.5	-39.4	23.6	0.00e+00	92	41	0	441450496	50	6022
2026-01-30 18:48:48.08	5.54	14.32	-38.5	-39.4	23.6	0.00e+00	0	41	0	443547648	50	5970
2026-01-30 18:48:49.08	5.34	14.35	-38.5	-39.4	23.6	0.00e+00	2	41	0	445644800	50	6014
2026-01-30 18:48:50.09	5.14	14.38	-38.5	-39.4	23.7	0.00e+00	2	41	0	447741952	50	5989
2026-01-30 18:48:51.10	4.94	14.41	-38.5	-39.4	23.6	0.00e+00	0	41	0	449839104	50	6004
2026-01-30 18:48:52.11	4.74	14.44	-38.5	-39.4	23.7	0.00e+00	90	41	0	450887680	50	6011
2026-01-30 18:48:53.12	4.54	14.47	-38.5	-39.4	23.7	0.00e+00	0	41	0	452984832	50	5980
2026-01-30 18:48:54.13	4.34	14.50	-38.5	-39.4	23.7	0.00e+00	92	41	0	455081984	50	5995
2026-01-30 18:48:55.14	4.13	14.52	-38.5	-39.4	23.7	0.00e+00	0	41	0	457179136	50	5999
2026-01-30 18:48:56.15	3.93	14.55	-38.7	-39.6	23.6	0.00e+00	0	41	0	459276288	50	6128
2026-01-30 18:48:57.16	3.73	14.58	-38.6	-39.5	23.6	0.00e+00	82	41	0	460324864	50	6073
2026-01-30 18:48:58.17	3.53	14.61	-38.7	-39.6	23.5	0.00e+00	0	41	0	462422016	50	6125
2026-01-30 18:48:59.18	3.32	14.63	-38.6	-39.5	23.6	0.00e+00	88	41	0	464519168	50	6103
2026-01-30 18:49:00.19	3.12	14.66	-38.5	-39.4	23.5	0.00e+00	0	41	0	466616320	50	6000
2026-01-30 18:49:01.20	2.91	14.69	-38.7	-39.6	23.4	0.00e+00	92	41	0	468713472	50	6166
2026-01-30 18:49:02.21	2.71	14.71	-38.9	-39.8	23.2	0.00e+00	0	41	0	469762048	50	6277
2026-01-30 18:49:03.22	2.50	14.74	-39.0	-39.9	23.2	0.00e+00	0	41	0	471859200	50	6382
2026-01-30 18:49:04.23	2.30	14.77	-39.1	-40.1	23.2	0.00e+00	0	41	0	473956352	50	6469
2026-01-30 18:49:05.24	2.09	14.79	-39.0	-39.9	23.3	0.00e+00	0	41	0	476053504	50	6344
2026-01-30 18:49:06.25	1.89	14.82	-38.9	-39.9	23.4	0.00e+00	0	41	0	478150656	50	6349
2026-01-30 18:49:07.26	1.68	14.84	-38.6	-39.5	23.6	0.00e+00	0	41	0	480247808	50	6093
2026-01-30 18:49:08.27	1.47	14.86	-38.7	-39.6	23.6	0.00e+00	92	41	0	481296384	50	6140
2026-01-30 18:49:09.27	1.27	14.89	-38.9	-39.8	23.3	0.00e+00	0	41	0	483393536	50	6288
2026-01-30 18:49:10.28	1.06	14.91	-39.0	-39.9	23.4	0.00e+00	88	41	0	485490688	50	6339
2026-01-30 18:49:11.29	0.85	14.93	-39.0	-39.9	23.5	0.00e+00	0	41	0	487587840	50	6371
2026-01-30 18:49:12.30	0.64	14.96	-38.9	-39.8	23.5	0.00e+00	0	41	0	489684992	50	6288
2026-01-30 18:49:13.31	0.44	14.98	-38.9	-39.8	23.3	0.00e+00	0	41	0	490733568	50	6273
2026-01-30 18:49:14.32	0.23	15.00	-38.9	-39.8	23.4	0.00e+00	0	41	0	492830720	50	6297
2026-01-30 18:49:15.33	0.02	15.02	-38.8	-39.7	23.4	0.00e+00	92	41	0	494927872	50	6205
2026-01-30 18:49:16.34	359.81	15.04	-39.0	-39.9	23.4	0.00e+00	77	41	0	497025024	50	6343
2026-01-30 18:49:17.35	359.60	15.06	-39.1	-40.0	23.1	0.00e+00	92	41	0	499122176	50	6461
2026-01-30 18:49:18.36	359.39	15.08	-39.4	-40.4	22.9	0.00e+00	3	41	0	500170752	50	6695
2026-01-30 18:49:19.37	359.18	15.10	-39.3	-40.3	23.0	0.00e+00	80	41	0	502267904	50	6637
2026-01-30 18:49:20.38	358.97	15.12	-39.3	-40.3	23.0	0.00e+00	0	41	0	504365056	50	6646
2026-01-30 18:49:21.39	358.76	15.14	-39.2	-40.2	23.0	0.00e+00	82	41	0	506462208	50	6584
2026-01-30 18:49:22.40	358.55	15.16	-39.2	-40.1	23.0	0.00e+00	90	41	0	508559360	50	6529
2026-01-30 18:49:23.41	358.34	15.18	-39.2	-40.1	23.2	0.00e+00	5	41	0	509607936	50	6532
2026-01-30 18:49:24.42	358.12	15.20	-39.2	-40.2	23.0	0.00e+00	92	41	0	511705088	50	6542
2026-01-30 18:49:25.43	357.91	15.22	-39.2	-40.2	22.8	0.00e+00	5	41	0	513802240	50	6540
2026-01-30 18:49:26.44	357.70	15.24	-39.2	-40.2	23.0	0.00e+00	6	41	0	515899392	50	6546
2026-01-30 18:49:27.45	357.49	15.25	-39.2	-40.2	23.0	0.00e+00	6	41	0	517996544	50	6561
2026-01-30 18:49:28.46	357.28	15.27	-38.9	-39.8	23.3	0.00e+00	0	41	0	519045120	50	6299
2026-01-30 18:49:29.47	357.06	15.29	-39.0	-40.0	23.3	0.00e+00	0	41	0	521142272	50	6396
2026-01-30 18:49:30.48	356.85	15.30	-38.8	-39.7	23.4	0.00e+00	0	41	0	523239424	50	6220
2026-01-30 18:49:31.49	356.64	15.32	-38.7	-39.6	23.5	0.00e+00	92	41	0	525336576	50	6152
2026-01-30 18:49:32.50	356.42	15.33	-38.8	-39.7	23.5	0.00e+00	0	41	0	527433728	50	6239
2026-01-30 18:49:33.51	356.21	15.35	-38.9	-39.8	23.3	0.00e+00	92	41	0	528482304	50	6283
2026-01-30 18:49:34.51	356.00	15.36	-38.8	-39.7	23.4	0.00e+00	0	41	0	530579456	50	6235
2026-01-30 18:49:35.52	355.78	15.37	-39.0	-39.9	23.3	0.00e+00	0	41	0	532676608	50	6342
2026-01-30 18:49:36.53	355.57	15.39	-39.0	-39.9	23.2	0.00e+00	0	41	0	534773760	50	6358
2026-01-30 18:49:37.54	355.35	15.40	-38.8	-39.7	23.2	0.00e+00	5	41	0	536870912	50	6227
2026-01-30 18:49:38.55	355.14	15.41	-38.8	-39.7	23.4	0.00e+00	92	41	0	537919488	50	6236
2026-01-30 18:49:39.56	354.92	15.43	-38.8	-39.8	23.4	0.00e+00	3	41	0	540016640	50	6263
2026-01-30 18:49:40.57	354.71	15.44	-38.9	-39.8	23.3	0.00e+00	92	41	0	542113792	50	6303
2026-01-30 18:49:41.58	354.49	15.45	-39.1	-40.0	23.2	0.00e+00	5	41	0	544210944	50	6427
2026-01-30 18:49:42.59	354.28	15.46	-39.1	-40.1	23.2	0.00e+00	77	41	0	546308096	50	6479
2026-01-30 18:49:43.60	354.06	15.47	-39.3	-40.3	23.0	0.00e+00	5	41	0	548405248	50	6659
2026-01-30 18:49:44.61	353.85	15.48	-39.1	-40.1	23.2	0.00e+00	7	41	0	549453824	50	6474
2026-01-30 18:49:45.62	353.63	15.49	-39.0	-39.9	23.3	0.00e+00	65	41	0	551550976	50	6379
2026-01-30 18:49:46.63	353.41	15.50	-39.0	-39.9	23.3	0.00e+00	7	41	0	553648128	50	6370
2026-01-30 18:49:47.64	353.20	15.51	-38.9	-39.8	23.3	0.00e+00	90	41	0	555745280	50	6295
2026-01-30 18:49:48.65	352.98	15.52	-38.9	-39.8	23.4	0.00e+00	0	41	0	557842432	50	6283
2026-01-30 18:49:49.66	352.77	15.53	-39.0	-40.0	23.3	0.00e+00	0	41	0	558891008	50	6393
2026-01-30 18:49:50.67	352.55	15.54	-39.1	-40.0	23.2	0.00e+00	0	41	0	560988160	50	6433
2026-01-30 18:49:51.68	352.33	15.54	-39.1	-40.0	23.2	0.00e+00	0	41	0	563085312	50	6445
2026-01-30 18:49:52.69	352.12	15.55	-39.2	-40.2	23.1	0.00e+00	6	41	0	565182464	50	6540
2026-01-30 18:49:53.69	351.90	15.56	-39.1	-40.0	23.2	0.00e+00	8	41	0	566231040	50	6429
2026-01-30 18:49:54.70	351.68	15.56	-39.0	-39.9	23.3	0.00e+00	92	41	0	568328192	50	6379
2026-01-30 18:49:55.71	351.47	15.57	-38.9	-39.9	23.4	0.00e+00	0	41	0	570425344	50	6327
2026-01-30 18:49:56.73	351.25	15.57	-39.1	-40.1	23.2	0.00e+00	90	41	0	572522496	50	6470
2026-01-30 18:49:57.74	351.03	15.58	-39.1	-40.0	23.1	0.00e+00	81	41	0	574619648	50	6428
2026-01-30 18:49:58.75	350.81	15.58	-39.2	-40.1	23.1	0.00e+00	81	41	0	576716800	50	6509
2026-01-30 18:49:59.76	350.60	15.59	-39.0	-39.9	23.2	0.00e+00	15	41	0	577765376	50	6380
2026-01-30 18:50:00.77	350.38	15.59	-39.3	-40.2	23.1	0.00e+00	0	41	0	579862528	50	6573
2026-01-30 18:50:01.78	350.16	15.60	-39.1	-40.0	23.2	0.00e+00	90	41	0	581959680	50	6443
2026-01-30 18:50:02.79	349.94	15.60	-39.3	-40.3	23.0	0.00e+00	0	41	0	584056832	50	6662
2026-01-30 18:50:03.80	349.73	15.60	-39.0	-39.9	23.3	0.00e+00	92	41	0	586153984	50	6386
2026-01-30 18:50:04.81	349.51	15.60	-38.9	-39.9	23.4	0.00e+00	0	41	0	587202560	50	6325
2026-01-30 18:50:05.82	349.29	15.60	-39.0	-39.9	23.3	0.00e+00	3	41	0	589299712	50	6370
2026-01-30 18:50:06.83	349.07	15.61	-38.9	-39.8	23.4	0.00e+00	0	41	0	591396864	50	6270
2026-01-30 18:50:07.84	348.86	15.61	-38.9	-39.9	23.4	0.00e+00	0	41	0	593494016	50	6320
2026-01-30 18:50:08.85	348.64	15.61	-39.1	-40.0	23.2	0.00e+00	92	41	0	595591168	50	6444
2026-01-30 18:50:09.86	348.42	15.61	-39.3	-40.2	23.1	0.00e+00	0	41	0	596639744	50	6599
2026-01-30 18:50:10.87	348.20	15.61	-39.2	-40.2	23.0	0.00e+00	92	41	0	598736896	50	6576
2026-01-30 18:50:11.88	347.98	15.61	-39.2	-40.2	23.0	0.00e+00	0	41	0	600834048	50	6583
2026-01-30 18:50:12.89	347.77	15.60	-39.2	-40.1	22.7	0.00e+00	4	41	0	602931200	50	6503
2026-01-30 18:50:13.90	347.55	15.60	-38.9	-39.9	23.2	0.00e+00	80	41	0	605028352	50	6335
2026-01-30 18:50:14.91	347.33	15.60	-38.9	-39.8	23.3	0.00e+00	80	41	0	606076928	50	6312
2026-01-30 18:50:15.92	347.11	15.60	-38.9	-39.8	23.4	0.00e+00	0	41	0	608174080	50	6267
2026-01-30 18:50:16.93	346.90	15.59	-38.8	-39.7	23.5	0.00e+00	0	41	0	610271232	50	6220
2026-01-30 18:50:17.94	346.68	15.59	-38.8	-39.8	23.4	0.00e+00	92	41	0	612368384	50	6247
2026-01-30 18:50:18.95	346.46	15.59	-39.0	-39.9	23.3	0.00e+00	4	41	0	614465536	50	6357
2026-01-30 18:50:19.96	346.24	15.58	-39.0	-39.9	23.3	0.00e+00	83	41	0	616562688	50	6375
2026-01-30 18:50:20.97	346.03	15.58	-39.1	-40.0	23.2	0.00e+00	81	41	0	617611264	50	6456
2026-01-30 18:50:21.98	345.81	15.57	-39.1	-40.1	23.1	0.00e+00	0	41	0	619708416	50	6507
2026-01-30 18:50:22.99	345.59	15.57	-39.2	-40.1	23.1	0.00e+00	78	41	0	621805568	50	6508
2026-01-30 18:50:24.00	345.38	15.56	-39.2	-40.1	23.1	0.00e+00	0	41	0	623902720	50	6521
2026-01-30 18:50:25.01	345.16	15.56	-39.2	-40.2	23.0	0.00e+00	92	41	0	625999872	50	6567
2026-01-30 18:50:26.02	344.94	15.55	-39.2	-40.2	23.1	0.00e+00	0	41	0	627048448	50	6565
2026-01-30 18:50:27.03	344.72	15.54	-39.2	-40.2	23.0	0.00e+00	90	41	0	629145600	50	6548
2026-01-30 18:50:28.04	344.51	15.54	-39.3	-40.3	23.0	0.00e+00	0	41	0	631242752	50	6642
2026-01-30 18:50:29.05	344.29	15.53	-39.4	-40.4	22.8	0.00e+00	0	41	0	633339904	50	6751
2026-01-30 18:50:30.06	344.07	15.52	-39.4	-40.4	22.9	0.00e+00	0	41	0	635437056	50	6716
2026-01-30 18:50:31.07	343.86	15.51	-39.4	-40.4	22.9	0.00e+00	0	41	0	636485632	50	6706
2026-01-30 18:50:32.08	343.64	15.50	-39.4	-40.4	22.8	0.00e+00	92	41	0	638582784	50	6734
2026-01-30 18:50:33.09	343.43	15.49	-39.3	-40.3	23.0	0.00e+00	0	41	0	640679936	50	6621
2026-01-30 18:50:34.10	343.21	15.48	-39.3	-40.3	22.9	0.00e+00	92	41	0	642777088	50	6667
2026-01-30 18:50:35.11	342.99	15.47	-39.1	-40.1	23.2	0.00e+00	0	41	0	644874240	50	6506
2026-01-30 18:50:36.12	342.78	15.46	-39.0	-39.9	23.1	0.00e+00	82	41	0	645922816	50	6350
2026-01-30 18:50:37.13	342.56	15.45	-39.1	-40.1	23.2	0.00e+00	0	41	0	648019968	50	6471
2026-01-30 18:50:38.14	342.35	15.44	-39.0	-40.0	23.2	0.00e+00	82	41	0	650117120	50	6406
2026-01-30 18:50:39.15	342.13	15.43	-39.2	-40.2	23.0	0.00e+00	0	41	0	652214272	50	6580
2026-01-30 18:50:40.16	341.92	15.41	-39.3	-40.2	23.1	0.00e+00	81	41	0	654311424	50	6612
2026-01-30 18:50:41.17	341.70	15.40	-39.3	-40.3	22.9	0.00e+00	92	41	0	655360000	50	6682
2026-01-30 18:50:42.18	341.49	15.39	-39.5	-40.5	22.8	0.00e+00	0	41	0	657457152	50	6809
2026-01-30 18:50:43.19	341.27	15.37	-39.3	-40.3	23.1	0.00e+00	2	41	0	659554304	50	6631
2026-01-30 18:50:44.20	341.06	15.36	-39.2	-40.2	23.1	0.00e+00	0	41	0	661651456	50	6608
2026-01-30 18:50:45.21	340.85	15.35	-39.1	-40.1	23.1	0.00e+00	0	41	0	663748608	50	6519
2026-01-30 18:50:46.22	340.63	15.33	-39.1	-40.1	23.2	0.00e+00	0	41	0	664797184	50	6493
2026-01-30 18:50:47.23	340.42	15.32	-39.0	-39.9	23.3	0.00e+00	0	41	0	666894336	50	6384
2026-01-30 18:50:48.24	340.21	15.30	-38.9	-39.8	23.2	0.00e+00	92	41	0	668991488	50	6304
2026-01-30 18:50:49.25	339.99	15.28	-38.9	-39.8	23.4	0.00e+00	0	41	0	671088640	50	6311
2026-01-30 18:50:50.27	339.78	15.27	-38.9	-39.9	23.4	0.00e+00	92	41	0	673185792	50	6325
2026-01-30 18:50:51.28	339.56	15.25	-39.0	-39.9	23.3	0.00e+00	0	41	0	674234368	50	6383
2026-01-30 18:50:52.29	339.35	15.23	-39.1	-40.1	23.2	0.00e+00	0	41	0	676331520	50	6506
2026-01-30 18:50:53.30	339.14	15.22	-39.0	-40.0	23.3	0.00e+00	60	41	0	678428672	50	6419
2026-01-30 18:50:54.31	338.93	15.20	-38.8	-39.8	23.5	0.00e+00	0	41	0	680525824	50	6256
2026-01-30 18:50:55.32	338.72	15.18	-38.8	-39.7	23.5	0.00e+00	92	41	0	682622976	50	6231
2026-01-30 18:50:56.32	338.51	15.16	-38.8	-39.8	23.5	0.00e+00	0	41	0	684720128	50	6259
2026-01-30 18:50:57.33	338.30	15.14	-38.6	-39.5	23.6	0.00e+00	92	41	0	685768704	50	6066
2026-01-30 18:50:58.34	338.09	15.12	-38.6	-39.5	23.7	0.00e+00	2	41	0	687865856	50	6090
2026-01-30 18:50:59.35	337.87	15.10	-38.7	-39.6	23.6	0.00e+00	0	41	0	689963008	50	6165
2026-01-30 18:51:00.36	337.66	15.08	-38.8	-39.7	23.2	0.00e+00	82	41	0	692060160	50	6198
2026-01-30 18:51:01.37	337.45	15.06	-38.9	-39.8	23.4	0.00e+00	0	41	0	694157312	50	6272
2026-01-30 18:51:02.38	337.24	15.04	-38.9	-39.8	23.4	0.00e+00	0	41	0	695205888	50	6291
2026-01-30 18:51:03.39	337.04	15.02	-39.1	-40.0	23.2	0.00e+00	0	41	0	697303040	50	6438
2026-01-30 18:51:04.40	336.83	15.00	-39.0	-39.9	23.3	0.00e+00	92	41	0	699400192	50	6387
2026-01-30 18:51:05.41	336.62	14.98	-38.9	-39.8	23.4	0.00e+00	4	41	0	701497344	50	6291
2026-01-30 18:51:06.42	336.41	14.95	-38.9	-39.8	23.5	0.00e+00	7	41	0	703594496	50	6289
2026-01-30 18:51:07.43	336.20	14.93	-38.9	-39.8	23.5	0.00e+00	0	41	0	704643072	50	6274
2026-01-30 18:51:08.44	335.99	14.91	-39.0	-39.9	23.4	0.00e+00	6	41	0	706740224	50	6345
2026-01-30 18:51:09.45	335.79	14.89	-38.8	-39.7	23.5	0.00e+00	5	41	0	708837376	50	6230
2026-01-30 18:51:10.46	335.58	14.86	-38.9	-39.8	23.5	0.00e+00	6	41	0	710934528	50	6269
2026-01-30 18:51:11.47	335.37	14.84	-38.9	-39.9	23.3	0.00e+00	92	41	0	713031680	50	6318
2026-01-30 18:51:12.48	335.16	14.81	-39.0	-39.9	23.4	0.00e+00	0	41	0	714080256	50	6335
2026-01-30 18:51:13.49	334.96	14.79	-39.1	-40.0	23.2	0.00e+00	91	41	0	716177408	50	6460
2026-01-30 18:51:14.50	334.75	14.76	-39.4	-40.4	22.9	0.00e+00	79	41	0	718274560	50	6693
2026-01-30 18:51:15.51	334.55	14.74	-39.4	-40.4	22.7	0.00e+00	0	41	0	720371712	50	6716
2026-01-30 18:51:16.52	334.34	14.71	-39.7	-40.7	23.0	0.00e+00	76	41	0	722468864	50	6938
2026-01-30 18:51:17.53	334.14	14.69	-39.5	-40.5	22.6	0.00e+00	0	41	0	723517440	52	6074
2026-01-30 18:51:18.54	333.93	14.66	-39.6	-40.5	22.8	0.00e+00	62	41	0	725614592	52	6100
2026-01-30 18:51:19.55	333.73	14.63	-39.7	-40.7	22.7	0.00e+00	84	41	0	727711744	52	6195
2026-01-30 18:51:20.56	333.53	14.60	-39.4	-40.4	23.0	0.00e+00	92	41	0	729808896	52	5965
2026-01-30 18:51:21.57	333.32	14.58	-39.4	-40.4	22.9	0.00e+00	0	41	0	731906048	52	5995
2026-01-30 18:51:22.58	333.12	14.55	-39.5	-40.4	22.9	0.00e+00	77	41	0	732954624	52	6031
2026-01-30 18:51:23.59	332.92	14.52	-39.6	-40.5	22.8	0.00e+00	8	41	0	735051776	52	6099
2026-01-30 18:51:24.60	332.71	14.49	-39.6	-40.6	22.7	0.00e+00	6	41	0	737148928	52	6160
2026-01-30 18:51:25.61	332.51	14.46	-39.5	-40.5	22.8	0.00e+00	62	41	0	739246080	52	6056
2026-01-30 18:51:26.62	332.31	14.43	-39.4	-40.4	22.8	0.00e+00	4	41	0	741343232	52	6021
2026-01-30 18:51:27.63	332.11	14.41	-39.4	-40.4	22.9	0.00e+00	92	41	0	742391808	52	5987
2026-01-30 18:51:28.64	331.91	14.38	-39.5	-40.5	22.8	0.00e+00	0	41	0	744488960	52	6070
2026-01-30 18:51:29.65	331.71	14.35	-39.5	-40.5	22.9	0.00e+00	24	41	0	746586112	52	6034
2026-01-30 18:51:30.66	331.51	14.32	-39.5	-40.5	22.8	0.00e+00	6	41	0	748683264	52	6056
2026-01-30 18:51:31.67	331.31	14.28	-39.5	-40.5	22.8	0.00e+00	7	41	0	750780416	52	6051
2026-01-30 18:51:32.68	331.11	14.25	-39.4	-40.4	23.0	0.00e+00	0	41	0	752877568	52	5997
2026-01-30 18:51:33.68	330.92	14.22	-39.5	-40.4	22.9	0.00e+00	0	41	0	753926144	52	6018
2026-01-30 18:51:34.70	330.72	14.19	-39.3	-40.2	23.1	0.00e+00	92	41	0	756023296	52	5892
2026-01-30 18:51:35.70	330.52	14.16	-39.4	-40.3	23.0	0.00e+00	0	41	0	758120448	52	5939
2026-01-30 18:51:36.71	330.32	14.13	-39.1	-40.1	23.2	0.00e+00	92	41	0	760217600	52	5773
2026-01-30 18:51:37.72	330.13	14.09	-39.1	-40.0	23.2	0.00e+00	0	41	0	762314752	52	5755
2026-01-30 18:51:38.73	329.93	14.06	-39.1	-40.0	23.0	0.00e+00	0	41	0	763363328	52	5736
2026-01-30 18:51:39.74	329.73	14.03	-39.0	-40.0	23.3	0.00e+00	77	41	0	765460480	52	5707
2026-01-30 18:51:40.75	329.54	13.99	-39.1	-40.1	23.1	0.00e+00	82	41	0	767557632	52	5773
2026-01-30 18:51:41.76	329.34	13.96	-39.1	-40.0	23.3	0.00e+00	84	41	0	769654784	52	5727
2026-01-30 18:51:42.77	329.15	13.93	-39.1	-40.1	23.1	0.00e+00	0	41	0	771751936	52	5784
2026-01-30 18:51:43.78	328.96	13.89	-39.1	-40.0	23.2	0.00e+00	92	41	0	772800512	52	5757
2026-01-30 18:51:44.79	328.76	13.86	-39.3	-40.2	23.0	0.00e+00	78	41	0	774897664	52	5891
2026-01-30 18:51:45.80	328.57	13.82	-39.4	-40.3	23.0	0.00e+00	4	41	0	776994816	52	5946
2026-01-30 18:51:46.81	328.38	13.79	-39.1	-40.1	23.2	0.00e+00	3	41	0	779091968	52	5763
2026-01-30 18:51:47.82	328.18	13.75	-39.2	-40.1	23.1	0.00e+00	0	41	0	781189120	52	5826
2026-01-30 18:51:48.83	327.99	13.72	-39.0	-40.0	23.2	0.00e+00	76	41	0	782237696	52	5697
2026-01-30 18:51:49.84	327.80	13.68	-39.1	-40.1	23.2	0.00e+00	0	41	0	784334848	52	5768
2026-01-30 18:51:50.84	327.61	13.65	-39.0	-39.9	23.4	0.00e+00	92	41	0	786432000	52	5646
2026-01-30 18:51:51.85	327.42	13.61	-39.0	-40.0	23.3	0.00e+00	2	41	0	788529152	52	5713
2026-01-30 18:51:52.86	327.23	13.57	-39.0	-39.9	23.4	0.00e+00	92	41	0	790626304	52	5667
2026-01-30 18:51:53.87	327.04	13.54	-39.1	-40.0	23.2	0.00e+00	0	41	0	791674880	52	5749
2026-01-30 18:51:54.88	326.85	13.50	-39.1	-40.0	23.2	0.00e+00	0	41	0	793772032	52	5754
2026-01-30 18:51:55.89	326.67	13.46	-39.0	-40.0	23.0	0.00e+00	2	41	0	795869184	52	5708
2026-01-30 18:51:56.90	326.48	13.42	-39.2	-40.2	23.2	0.00e+00	0	41	0	797966336	52	5834
2026-01-30 18:51:57.91	326.29	13.39	-39.0	-40.0	23.2	0.00e+00	91	41	0	800063488	52	5703
2026-01-30 18:51:58.92	326.10	13.35	-38.9	-39.8	23.4	0.00e+00	82	41	0	801112064	52	5601
2026-01-30 18:51:59.93	325.92	13.31	-38.9	-39.8	23.4	0.00e+00	92	41	0	803209216	52	5625
2026-01-30 18:52:00.94	325.73	13.27	-39.1	-40.0	23.2	0.00e+00	82	41	0	805306368	52	5748
2026-01-30 18:52:01.95	325.54	13.23	-39.0	-39.9	23.4	0.00e+00	79	41	0	807403520	52	5638
2026-01-30 18:52:02.95	325.36	13.19	-38.9	-39.9	23.5	0.00e+00	3	41	0	809500672	52	5636
2026-01-30 18:52:03.97	325.18	13.15	-39.0	-40.0	23.4	0.00e+00	0	41	0	810549248	52	5707
2026-01-30 18:52:04.98	324.99	13.11	-38.9	-39.8	23.4	0.00e+00	90	41	0	812646400	52	5597
2026-01-30 18:52:05.99	324.81	13.07	-38.9	-39.8	23.4	0.00e+00	80	41	0	814743552	52	5620
2026-01-30 18:52:07.00	324.62	13.03	-38.9	-39.9	23.3	0.00e+00	90	41	0	816840704	52	5632
2026-01-30 18:52:08.01	324.44	12.99	-39.0	-39.9	23.4	0.00e+00	0	41	0	818937856	52	5650
2026-01-30 18:52:09.02	324.26	12.95	-39.0	-39.9	23.4	0.00e+00	0	41	0	821035008	52	5676
2026-01-30 18:52:10.03	324.08	12.91	-38.9	-39.8	23.5	0.00e+00	4	41	0	822083584	52	5607
2026-01-30 18:52:11.04	323.90	12.87	-38.8	-39.7	23.5	0.00e+00	2	41	0	824180736	52	5554
2026-01-30 18:52:12.04	323.72	12.83	-38.9	-39.8	23.5	0.00e+00	0	41	0	826277888	52	5576
2026-01-30 18:52:13.05	323.54	12.79	-39.0	-40.0	23.3	0.00e+00	0	41	0	828375040	52	5700
2026-01-30 18:52:14.06	323.36	12.75	-39.1	-40.0	23.2	0.00e+00	91	41	0	830472192	52	5734
2026-01-30 18:52:15.07	323.18	12.71	-39.3	-40.2	23.1	0.00e+00	2	41	0	831520768	52	5857
2026-01-30 18:52:16.08	323.00	12.66	-39.4	-40.4	22.9	0.00e+00	92	41	0	833617920	52	5995
2026-01-30 18:52:17.09	322.82	12.62	-39.6	-40.6	22.7	0.00e+00	0	41	0	835715072	52	6150
2026-01-30 18:52:18.10	322.65	12.58	-39.7	-40.7	22.6	0.00e+00	0	41	0	837812224	52	6181
2026-01-30 18:52:19.11	322.47	12.54	-39.7	-40.7	22.6	0.00e+00	0	41	0	839909376	52	6226
2026-01-30 18:52:20.12	322.29	12.49	-39.8	-40.8	22.5	0.00e+00	0	41	0	840957952	52	6312
2026-01-30 18:52:21.13	322.12	12.45	-39.8	-40.8	22.6	0.00e+00	92	41	0	843055104	52	6261
2026-01-30 18:52:22.14	321.94	12.41	-39.9	-40.9	22.4	0.00e+00	81	41	0	845152256	52	6375
2026-01-30 18:52:23.15	321.77	12.37	-39.8	-40.8	22.5	0.00e+00	91	41	0	847249408	52	6313
2026-01-30 18:52:24.15	321.59	12.32	-39.9	-40.9	22.5	0.00e+00	81	41	0	849346560	52	6358
2026-01-30 18:52:25.16	321.42	12.28	-39.9	-41.0	22.4	0.00e+00	82	41	0	850395136	52	6391
2026-01-30 18:52:26.17	321.25	12.23	-40.1	-41.1	22.2	0.00e+00	0	41	0	852492288	52	6490
2026-01-30 18:52:27.18	321.08	12.19	-40.1	-41.2	22.3	0.00e+00	0	41	0	854589440	52	6546
2026-01-30 18:52:28.19	320.90	12.15	-40.1	-41.2	22.2	0.00e+00	80	41	0	856686592	52	6562
2026-01-30 18:52:29.21	320.73	12.10	-40.2	-41.2	22.2	0.00e+00	0	41	0	858783744	52	6608
2026-01-30 18:52:30.21	320.56	12.06	-40.2	-41.3	22.1	0.00e+00	92	41	0	859832320	52	6636
2026-01-30 18:52:31.23	320.39	12.01	-40.3	-41.3	22.0	0.00e+00	1	41	0	861929472	52	6689
2026-01-30 18:52:32.23	320.22	11.97	-40.4	-41.5	21.9	0.00e+00	68	41	0	864026624	52	6799
2026-01-30 18:52:33.24	320.05	11.92	-40.6	-41.7	21.7	0.00e+00	2	41	0	866123776	52	6990
2026-01-30 18:52:34.25	319.88	11.88	-40.7	-41.8	21.6	0.00e+00	0	41	0	868220928	52	7085
2026-01-30 18:52:35.26	319.71	11.83	-40.7	-41.9	21.6	0.00e+00	0	41	0	869269504	54	6321
2026-01-30 18:52:36.27	319.54	11.79	-40.9	-42.0	21.4	0.00e+00	0	41	0	871366656	54	6458
2026-01-30 18:52:37.28	319.38	11.74	-40.9	-42.0	21.4	0.00e+00	92	41	0	873463808	54	6435
2026-01-30 18:52:38.29	319.21	11.70	-41.0	-42.2	21.1	0.00e+00	0	41	0	875560960	54	6588
2026-01-30 18:52:39.30	319.04	11.65	-41.1	-42.3	21.2	0.00e+00	90	41	0	877658112	54	6658
2026-01-30 18:52:40.31	318.88	11.60	-41.1	-42.3	21.2	0.00e+00	81	41	0	878706688	54	6632
2026-01-30 18:52:41.32	318.71	11.56	-41.0	-42.1	21.3	0.00e+00	76	41	0	880803840	54	6525
2026-01-30 18:52:42.33	318.55	11.51	-41.0	-42.2	21.0	0.00e+00	0	41	0	882900992	54	6588
2026-01-30 18:52:43.34	318.38	11.46	-41.1	-42.3	21.0	0.00e+00	0	41	0	884998144	54	6674
2026-01-30 18:52:44.35	318.22	11.42	-41.0	-42.2	21.2	0.00e+00	92	41	0	887095296	54	6586
2026-01-30 18:52:45.36	318.06	11.37	-41.0	-42.1	21.3	0.00e+00	80	41	0	889192448	54	6515
2026-01-30 18:52:46.37	317.89	11.32	-40.9	-42.1	21.3	0.00e+00	92	41	0	890241024	54	6487
2026-01-30 18:52:47.38	317.73	11.28	-41.1	-42.3	21.2	0.00e+00	81	41	0	892338176	54	6627
2026-01-30 18:52:48.39	317.57	11.23	-41.2	-42.4	21.0	0.00e+00	0	41	0	894435328	54	6750
2026-01-30 18:52:49.40	317.41	11.18	-41.3	-42.5	20.9	0.00e+00	5	41	0	896532480	54	6815
2026-01-30 18:52:50.41	317.25	11.13	-41.5	-42.7	20.7	0.00e+00	0	41	0	898629632	54	6984
2026-01-30 18:52:51.42	317.09	11.09	-41.5	-42.8	20.7	0.00e+00	66	41	0	899678208	54	7023
2026-01-30 18:52:52.43	316.93	11.04	-41.7	-43.0	20.5	0.00e+00	1	41	0	901775360	54	7171
2026-01-30 18:52:53.44	316.77	10.99	-41.7	-43.0	20.4	0.00e+00	91	41	0	903872512	54	7206
2026-01-30 18:52:54.45	316.61	10.94	-41.7	-43.0	20.6	0.00e+00	7	41	0	905969664	56	6413
2026-01-30 18:52:55.46	316.45	10.89	-41.8	-43.1	20.5	0.00e+00	5	41	0	908066816	56	6472
2026-01-30 18:52:56.47	316.30	10.85	-41.8	-43.1	20.5	0.00e+00	0	41	0	909115392	56	6485
2026-01-30 18:52:57.48	316.14	10.80	-41.6	-42.9	20.6	0.00e+00	6	41	0	911212544	56	6361
2026-01-30 18:52:58.49	315.98	10.75	-41.7	-42.9	20.6	0.00e+00	8	41	0	913309696	56	6386
2026-01-30 18:52:59.50	315.83	10.70	-41.8	-43.1	20.4	0.00e+00	74	41	0	915406848	56	6488
2026-01-30 18:53:00.51	315.67	10.65	-41.9	-43.2	20.4	0.00e+00	92	41	0	917504000	56	6571
2026-01-30 18:53:01.52	315.52	10.60	-41.8	-43.1	20.4	0.00e+00	0	41	0	918552576	56	6537
2026-01-30 18:53:02.53	315.36	10.55	-41.8	-43.2	20.3	0.00e+00	92	41	0	920649728	56	6559
2026-01-30 18:53:03.54	315.21	10.51	-41.9	-43.3	20.2	0.00e+00	82	41	0	922746880	56	6623
2026-01-30 18:53:04.55	315.06	10.46	-41.8	-43.1	20.3	0.00e+00	82	41	0	924844032	56	6533
2026-01-30 18:53:05.56	314.90	10.41	-42.0	-43.4	20.2	0.00e+00	4	41	0	926941184	56	6713
2026-01-30 18:53:06.57	314.75	10.36	-42.0	-43.3	20.2	0.00e+00	77	41	0	927989760	56	6661
2026-01-30 18:53:07.58	314.60	10.31	-42.1	-43.4	20.1	0.00e+00	90	41	0	930086912	56	6752
2026-01-30 18:53:08.59	314.45	10.26	-42.0	-43.4	20.1	0.00e+00	6	41	0	932184064	56	6714
2026-01-30 18:53:09.60	314.30	10.21	-42.2	-43.5	19.9	0.00e+00	92	41	0	934281216	56	6833
2026-01-30 18:53:10.61	314.15	10.16	-42.2	-43.6	19.7	0.00e+00	6	41	0	936378368	56	6921
2026-01-30 18:53:11.62	314.00	10.11	-42.1	-43.6	19.6	0.00e+00	4	41	0	937426944	56	6871
2026-01-30 18:53:12.63	313.85	10.06	-42.1	-43.6	19.3	0.00e+00	5	41	0	939524096	56	6855
2026-01-30 18:53:13.64	313.70	10.01	-41.8	-43.4	18.7	0.00e+00	0	41	0	941621248	56	6714
2026-01-30 18:53:14.65	313.55	9.96	-41.5	-43.2	18.3	0.00e+00	92	41	0	943718400	56	6563
2026-01-30 18:53:15.66	313.40	9.91	-41.6	-43.3	18.4	0.00e+00	7	41	0	945815552	56	6675
2026-01-30 18:53:16.67	313.26	9.86	-41.8	-43.4	18.9	0.00e+00	92	41	0	946864128	56	6755
2026-01-30 18:53:17.68	313.11	9.81	-41.8	-43.2	19.8	0.00e+00	0	41	0	948961280	56	6609
2026-01-30 18:53:18.69	312.96	9.76	-41.8	-43.2	20.2	0.00e+00	24	41	0	951058432	56	6572
2026-01-30 18:53:19.70	312.82	9.71	-41.9	-43.2	20.2	0.00e+00	0	41	0	953155584	56	6588
2026-01-30 18:53:20.71	312.67	9.66	-41.9	-43.2	20.3	0.00e+00	81	41	0	955252736	56	6566
2026-01-30 18:53:21.72	312.53	9.61	-41.8	-43.1	20.4	0.00e+00	77	41	0	957349888	56	6482
2026-01-30 18:53:22.73	312.39	9.56	-41.6	-42.9	20.6	0.00e+00	0	41	0	958398464	56	6347
2026-01-30 18:53:23.74	312.24	9.51	-41.6	-42.9	20.6	0.00e+00	92	41	0	960495616	56	6378
2026-01-30 18:53:24.75	312.10	9.45	-41.7	-43.0	20.5	0.00e+00	0	41	0	962592768	56	6398
2026-01-30 18:53:25.76	311.96	9.40	-41.7	-43.0	20.4	0.00e+00	88	41	0	964689920	56	6393
2026-01-30 18:53:26.77	311.82	9.35	-41.6	-42.9	20.6	0.00e+00	81	41	0	966787072	56	6319
2026-01-30 18:53:27.77	311.68	9.30	-41.6	-42.9	20.5	0.00e+00	0	41	0	967835648	56	6357
2026-01-30 18:53:28.78	311.53	9.25	-41.5	-42.7	20.7	0.00e+00	76	41	0	969932800	56	6224
2026-01-30 18:53:29.79	311.39	9.20	-41.4	-42.7	20.7	0.00e+00	80	41	0	972029952	56	6212
2026-01-30 18:53:30.80	311.25	9.15	-41.4	-42.7	20.7	0.00e+00	92	41	0	974127104	56	6200
2026-01-30 18:53:31.81	311.11	9.10	-41.5	-42.8	20.6	0.00e+00	2	41	0	976224256	56	6287
2026-01-30 18:53:32.82	310.98	9.05	-41.3	-42.5	20.9	0.00e+00	92	41	0	977272832	56	6071
2026-01-30 18:53:33.83	310.84	9.00	-41.3	-42.5	21.0	0.00e+00	0	41	0	979369984	56	6088
2026-01-30 18:53:34.84	310.70	8.94	-41.1	-42.4	21.1	0.00e+00	0	41	0	981467136	56	5970
2026-01-30 18:53:35.85	310.56	8.89	-41.2	-42.4	21.0	0.00e+00	0	41	0	983564288	56	5973
2026-01-30 18:53:36.86	310.42	8.84	-41.2	-42.4	21.0	0.00e+00	0	41	0	985661440	56	5976
2026-01-30 18:53:37.87	310.29	8.79	-41.1	-42.3	21.0	0.00e+00	80	41	0	986710016	56	5952
2026-01-30 18:53:38.88	310.15	8.74	-41.2	-42.4	21.0	0.00e+00	0	41	0	988807168	56	6027
2026-01-30 18:53:39.89	310.02	8.69	-41.2	-42.4	20.9	0.00e+00	92	41	0	990904320	56	5978
2026-01-30 18:53:40.90	309.88	8.63	-41.2	-42.4	21.1	0.00e+00	81	41	0	993001472	56	5985
2026-01-30 18:53:41.91	309.75	8.58	-41.2	-42.4	20.9	0.00e+00	81	41	0	995098624	56	6007
2026-01-30 18:53:42.92	309.61	8.53	-40.9	-42.1	21.3	0.00e+00	81	41	0	996147200	56	5775
2026-01-30 18:53:43.92	309.48	8.48	-40.9	-42.0	21.3	0.00e+00	80	41	0	998244352	56	5757
2026-01-30 18:53:44.93	309.35	8.43	-40.8	-41.9	21.5	0.00e+00	0	41	0	1000341504	56	5662
2026-01-30 18:53:45.94	309.22	8.38	-40.5	-41.6	21.6	0.00e+00	80	41	0	1002438656	54	6167
2026-01-30 18:53:46.96	309.08	8.32	-40.5	-41.7	21.5	0.00e+00	92	41	0	1004535808	54	6178
2026-01-30 18:53:47.96	308.95	8.27	-40.3	-41.4	21.8	0.00e+00	1	41	0	1005584384	54	5997
2026-01-30 18:53:48.97	308.82	8.22	-40.3	-41.4	21.8	0.00e+00	92	41	0	1007681536	54	5983
2026-01-30 18:53:49.98	308.69	8.17	-40.2	-41.3	21.9	0.00e+00	81	41	0	1009778688	54	5930
2026-01-30 18:53:50.99	308.56	8.12	-40.2	-41.3	21.9	0.00e+00	81	41	0	1011875840	54	5917
2026-01-30 18:53:52.00	308.43	8.06	-40.1	-41.2	22.0	0.00e+00	2	41	0	1013972992	54	5859
2026-01-30 18:53:53.01	308.30	8.01	-40.1	-41.1	22.0	0.00e+00	1	41	0	1015021568	54	5824
2026-01-30 18:53:54.02	308.17	7.96	-40.0	-41.1	22.1	0.00e+00	92	41	0	1017118720	54	5769
2026-01-30 18:53:55.03	308.04	7.91	-40.1	-41.2	22.0	0.00e+00	2	41	0	1019215872	54	5833
2026-01-30 18:53:56.04	307.92	7.85	-40.0	-41.0	22.1	0.00e+00	90	41	0	1021313024	54	5750
2026-01-30 18:53:57.05	307.79	7.80	-39.9	-41.0	22.1	0.00e+00	0	41	0	1023410176	54	5724
2026-01-30 18:53:58.06	307.66	7.75	-40.0	-41.1	21.9	0.00e+00	0	41	0	1025507328	54	5796
2026-01-30 18:53:59.07	307.54	7.70	-40.0	-41.1	21.9	0.00e+00	0	41	0	1026555904	54	5799
2026-01-30 18:54:00.09	307.41	7.64	-39.9	-41.0	22.1	0.00e+00	0	41	0	1028653056	54	5717
2026-01-30 18:54:01.09	307.29	7.59	-40.0	-41.1	22.0	0.00e+00	59	41	0	1030750208	54	5795
2026-01-30 18:54:02.10	307.16	7.54	-39.9	-40.9	22.1	0.00e+00	0	41	0	1032847360	54	5659
2026-01-30 18:54:03.11	307.04	7.49	-39.9	-40.9	22.2	0.00e+00	92	41	0	1034944512	54	5667
2026-01-30 18:54:04.12	306.91	7.44	-39.8	-40.8	21.7	0.00e+00	82	41	0	1035993088	52	6296
2026-01-30 18:54:05.13	306.79	7.38	-39.8	-40.8	22.1	0.00e+00	35	41	0	1038090240	52	6286
2026-01-30 18:54:06.14	306.66	7.33	-39.8	-40.9	22.1	0.00e+00	80	41	0	1040187392	52	6341
2026-01-30 18:54:07.15	306.54	7.28	-39.8	-40.9	22.2	0.00e+00	0	41	0	1042284544	52	6326
2026-01-30 18:54:08.16	306.42	7.23	-39.6	-40.7	22.4	0.00e+00	0	41	0	1044381696	52	6185
2026-01-30 18:54:09.17	306.30	7.17	-39.7	-40.7	22.4	0.00e+00	81	41	0	1045430272	52	6219
2026-01-30 18:54:10.18	306.18	7.12	-39.6	-40.6	22.5	0.00e+00	90	41	0	1047527424	52	6139
2026-01-30 18:54:11.19	306.06	7.07	-39.8	-40.8	22.2	0.00e+00	0	41	0	1049624576	52	6271
2026-01-30 18:54:12.20	305.94	7.01	-39.7	-40.7	22.3	0.00e+00	92	41	0	1051721728	52	6226
2026-01-30 18:54:13.21	305.82	6.96	-39.9	-40.9	22.2	0.00e+00	2	41	0	1053818880	52	6373
2026-01-30 18:54:14.22	305.70	6.91	-39.8	-40.8	22.3	0.00e+00	3	41	0	1054867456	52	6301
2026-01-30 18:54:15.22	305.58	6.86	-39.9	-40.9	22.1	0.00e+00	6	41	0	1056964608	52	6365
2026-01-30 18:54:16.24	305.46	6.80	-40.0	-41.1	22.0	0.00e+00	5	41	0	1059061760	52	6503
2026-01-30 18:54:17.24	305.34	6.75	-39.9	-41.0	22.1	0.00e+00	92	41	0	1061158912	52	6415
2026-01-30 18:54:18.25	305.22	6.70	-40.0	-41.0	22.0	0.00e+00	0	41	0	1063256064	52	6448
2026-01-30 18:54:19.26	305.11	6.65	-40.0	-41.1	22.0	0.00e+00	92	41	0	1064304640	52	6495
2026-01-30 18:54:20.27	304.99	6.59	-39.9	-41.0	22.1	0.00e+00	0	41	0	1066401792	52	6434
2026-01-30 18:54:21.28	304.87	6.54	-40.0	-41.0	22.0	0.00e+00	0	41	0	1068498944	52	6456
2026-01-30 18:54:22.29	304.76	6.49	-40.0	-41.0	22.1	0.00e+00	0	41	0	1070596096	52	6444
2026-01-30 18:54:23.30	304.64	6.44	-40.0	-41.0	22.0	0.00e+00	78	41	0	1072693248	52	6453
2026-01-30 18:54:24.31	304.53	6.38	-40.0	-41.1	22.0	0.00e+00	52	41	0	1073741824	52	6478
2026-01-30 18:54:25.32	304.41	6.33	-40.1	-41.1	21.9	0.00e+00	0	41	0	1075838976	52	6527
2026-01-30 18:54:26.33	304.30	6.28	-40.0	-41.1	21.9	0.00e+00	92	41	0	1077936128	52	6484
2026-01-30 18:54:27.34	304.18	6.23	-40.0	-41.1	21.9	0.00e+00	0	41	0	1080033280	52	6513
2026-01-30 18:54:28.35	304.07	6.17	-40.1	-41.2	21.8	0.00e+00	79	41	0	1082130432	52	6595
2026-01-30 18:54:29.36	303.96	6.12	-40.2	-41.3	21.7	0.00e+00	81	41	0	1083179008	52	6683
2026-01-30 18:54:30.37	303.84	6.07	-40.3	-41.4	21.7	0.00e+00	77	41	0	1085276160	52	6751
2026-01-30 18:54:31.38	303.73	6.01	-40.2	-41.3	21.6	0.00e+00	0	41	0	1087373312	52	6676
2026-01-30 18:54:32.39	303.62	5.96	-40.2	-41.3	21.7	0.00e+00	79	41	0	1089470464	52	6670
2026-01-30 18:54:33.40	303.51	5.91	-40.4	-41.6	21.4	0.00e+00	90	41	0	1091567616	52	6852
2026-01-30 18:54:34.41	303.40	5.86	-40.4	-41.6	21.5	0.00e+00	0	41	0	1093664768	52	6853
2026-01-30 18:54:35.42	303.29	5.80	-40.6	-41.8	21.2	0.00e+00	5	41	0	1094713344	52	7074
2026-01-30 18:54:36.43	303.18	5.75	-40.5	-41.6	21.4	0.00e+00	7	41	0	1096810496	52	6911
2026-01-30 18:54:37.44	303.07	5.70	-40.5	-41.6	21.3	0.00e+00	5	41	0	1098907648	52	6900
2026-01-30 18:54:38.45	302.96	5.65	-40.4	-41.5	21.5	0.00e+00	0	41	0	1101004800	52	6837
2026-01-30 18:54:39.46	302.85	5.59	-40.6	-41.8	21.2	0.00e+00	6	41	0	1103101952	52	7042
2026-01-30 18:54:40.47	302.74	5.54	-40.3	-41.4	21.5	0.00e+00	91	41	0	1104150528	54	5988
2026-01-30 18:54:41.48	302.63	5.49	-40.4	-41.6	21.3	0.00e+00	5	41	0	1106247680	54	6107
2026-01-30 18:54:42.49	302.52	5.44	-40.4	-41.6	21.4	0.00e+00	91	41	0	1108344832	54	6120
2026-01-30 18:54:43.50	302.41	5.38	-40.3	-41.4	21.5	0.00e+00	0	41	0	1110441984	54	6009
2026-01-30 18:54:44.51	302.31	5.33	-40.3	-41.4	21.5	0.00e+00	0	41	0	1112539136	54	5986
2026-01-30 18:54:45.52	302.20	5.28	-40.2	-41.4	21.5	0.00e+00	0	41	0	1113587712	54	5970
2026-01-30 18:54:46.53	302.09	5.23	-40.3	-41.5	21.5	0.00e+00	72	41	0	1115684864	54	6038
2026-01-30 18:54:47.54	301.99	5.17	-40.4	-41.5	21.4	0.00e+00	17	41	0	1117782016	54	6079
2026-01-30 18:54:48.55	301.88	5.12	-40.4	-41.5	21.3	0.00e+00	73	41	0	1119879168	54	6067
2026-01-30 18:54:49.56	301.78	5.07	-40.5	-41.7	21.2	0.00e+00	92	41	0	1121976320	54	6194
2026-01-30 18:54:50.57	301.67	5.02	-40.7	-41.9	21.0	0.00e+00	5	41	0	1123024896	54	6331
2026-01-30 18:54:51.58	301.57	4.96	-40.6	-41.8	21.1	0.00e+00	76	41	0	1125122048	54	6263
2026-01-30 18:54:52.58	301.47	4.91	-40.6	-41.8	21.0	0.00e+00	10	41	0	1127219200	54	6288
2026-01-30 18:54:53.59	301.36	4.86	-40.7	-41.9	20.9	0.00e+00	8	41	0	1129316352	54	6388
2026-01-30 18:54:54.60	301.26	4.81	-40.8	-42.1	20.8	0.00e+00	72	41	0	1131413504	54	6474
2026-01-30 18:54:55.61	301.16	4.75	-41.2	-42.5	20.4	0.00e+00	8	41	0	1132462080	54	6779
2026-01-30 18:54:56.62	301.06	4.70	-41.1	-42.4	20.4	0.00e+00	92	41	0	1134559232	54	6715
2026-01-30 18:54:57.63	300.95	4.65	-41.3	-42.6	20.2	0.00e+00	0	41	0	1136656384	54	6879
2026-01-30 18:54:58.64	300.85	4.60	-41.1	-42.4	20.3	0.00e+00	92	41	0	1138753536	54	6740
2026-01-30 18:54:59.65	300.75	4.54	-41.1	-42.4	20.5	0.00e+00	0	41	0	1140850688	54	6696
2026-01-30 18:55:00.67	300.65	4.49	-41.0	-42.3	20.4	0.00e+00	0	41	0	1141899264	54	6676
2026-01-30 18:55:01.67	300.55	4.44	-41.3	-42.7	20.2	0.00e+00	0	41	0	1143996416	54	6937
2026-01-30 18:55:02.68	300.45	4.39	-41.3	-42.7	20.2	0.00e+00	7	41	0	1146093568	54	6933
2026-01-30 18:55:03.69	300.35	4.33	-41.1	-42.4	20.4	0.00e+00	92	41	0	1148190720	54	6708
2026-01-30 18:55:04.70	300.25	4.28	-41.1	-42.4	20.3	0.00e+00	80	41	0	1150287872	54	6756
2026-01-30 18:55:05.71	300.15	4.23	-41.4	-42.8	20.0	0.00e+00	92	41	0	1151336448	54	7012
2026-01-30 18:55:06.72	300.05	4.18	-41.3	-42.7	20.1	0.00e+00	0	41	0	1153433600	54	6942
2026-01-30 18:55:07.73	299.95	4.13	-41.5	-42.9	20.0	0.00e+00	0	41	0	1155530752	54	7123
2026-01-30 18:55:08.74	299.86	4.07	-41.3	-42.7	20.0	0.00e+00	78	41	0	1157627904	54	6958
2026-01-30 18:55:09.75	299.76	4.02	-41.3	-42.6	20.1	0.00e+00	78	41	0	1159725056	54	6923
2026-01-30 18:55:10.76	299.66	3.97	-41.6	-43.0	19.8	0.00e+00	79	41	0	1161822208	54	7210
2026-01-30 18:55:11.77	299.56	3.92	-41.6	-43.0	19.8	0.00e+00	73	41	0	1162870784	54	7218
2026-01-30 18:55:12.78	299.47	3.86	-41.8	-43.2	19.5	0.00e+00	92	41	0	1164967936	54	7386
2026-01-30 18:55:13.79	299.37	3.81	-41.8	-43.3	19.4	0.00e+00	9	41	0	1167065088	56	6634
2026-01-30 18:55:14.80	299.28	3.76	-41.8	-43.3	19.5	0.00e+00	0	41	0	1169162240	56	6660
2026-01-30 18:55:15.81	299.18	3.71	-42.0	-43.5	19.2	0.00e+00	0	41	0	1171259392	56	6848
2026-01-30 18:55:16.82	299.09	3.66	-42.2	-43.8	19.0	0.00e+00	10	41	0	1172307968	56	7051
2026-01-30 18:55:17.83	298.99	3.60	-42.0	-43.5	19.2	0.00e+00	21	41	0	1174405120	56	6839
2026-01-30 18:55:18.84	298.90	3.55	-42.2	-43.8	19.0	0.00e+00	10	41	0	1176502272	56	7033
2026-01-30 18:55:19.85	298.80	3.50	-42.3	-44.0	18.8	0.00e+00	92	41	0	1178599424	56	7171
2026-01-30 18:55:20.86	298.71	3.45	-42.4	-44.0	18.8	0.00e+00	0	41	0	1180696576	56	7252
2026-01-30 18:55:21.87	298.61	3.40	-42.6	-44.3	18.3	0.00e+00	31	41	0	1181745152	56	7500
2026-01-30 18:55:22.88	298.52	3.34	-42.1	-43.7	19.1	0.00e+00	0	41	0	1183842304	58	6206
2026-01-30 18:55:23.89	298.43	3.29	-42.3	-43.9	18.6	0.00e+00	0	41	0	1185939456	58	6385
2026-01-30 18:55:24.90	298.34	3.24	-43.1	-45.0	17.7	0.00e+00	0	41	0	1188036608	58	7176
2026-01-30 18:55:25.91	298.24	3.19	-42.4	-44.1	18.5	0.00e+00	78	41	0	1190133760	58	6492
2026-01-30 18:55:26.92	298.15	3.14	-42.1	-43.8	18.9	0.00e+00	91	41	0	1191182336	58	6249
2026-01-30 18:55:27.93	298.06	3.09	-42.1	-43.6	18.9	0.00e+00	0	41	0	1193279488	58	6173
