passes_logs/2026/01/30/R4.6S_Anadyr/R4.6S_Anadyr__20260130_165307_AQUA_rec.log

#Pass ID: 20260130_165307_AQUA
#Satellite: AQUA
#Configuration: AQUA
#almurnet v.1.7.20251203
#Start time: 2026-01-30 16:53:10

#Version: 2.2.20231116
#Station: R4.6S_Anadyr
#Location: 177.4865 lon 64.73178 lat
#TLE: 1 27424U 02022A   26029.54575153  .00001738  00000+0  35736-3 0  9994
#TLE: 2 27424  98.4104 356.2197 0001804  61.7823  56.0643 14.61874165263019

#Time	Az	El	Level	Level2	SNR	BER	BlckErr	Temp	State	Recorded	gain1	gain2
2026-01-30 16:53:10.68	20.33	0.20	-49.9	-66.3	3.3	3.02e+01	0	39	0	0	60	79360
2026-01-30 16:53:11.68	20.32	0.26	-49.9	-67.8	3.5	3.02e+01	0	40	104	0	60	94334
2026-01-30 16:53:12.69	20.31	0.32	-50.0	-67.8	3.5	3.02e+01	0	40	104	0	60	94668
2026-01-30 16:53:13.70	20.30	0.39	-49.9	-67.9	3.5	3.02e+01	0	40	104	0	60	95071
2026-01-30 16:53:14.71	20.29	0.45	-49.9	-67.8	3.5	3.02e+01	0	40	104	0	60	94953
2026-01-30 16:53:15.72	20.28	0.51	-50.0	-67.8	3.5	3.02e+01	0	40	104	0	60	94786
2026-01-30 16:53:16.73	20.26	0.57	-50.0	-67.8	3.5	3.02e+01	0	40	104	0	60	94880
2026-01-30 16:53:17.75	20.25	0.64	-49.7	-67.8	3.5	3.02e+01	0	40	104	0	60	94794
2026-01-30 16:53:18.75	20.24	0.70	-49.8	-67.9	3.5	3.02e+01	0	40	104	0	60	95213
2026-01-30 16:53:19.76	20.23	0.76	-49.9	-67.8	3.5	3.02e+01	0	40	104	0	60	94689
2026-01-30 16:53:20.77	20.22	0.83	-49.8	-67.8	3.5	3.02e+01	0	40	104	0	60	94276
2026-01-30 16:53:21.78	20.20	0.89	-49.7	-67.8	3.5	3.02e+01	0	40	104	0	60	93946
2026-01-30 16:53:22.79	20.19	0.95	-49.8	-67.7	3.5	3.02e+01	0	40	104	0	60	93045
2026-01-30 16:53:23.80	20.18	1.02	-49.6	-67.6	3.5	3.02e+01	0	40	104	0	60	92590
2026-01-30 16:53:24.82	20.17	1.08	-49.7	-67.6	3.5	3.02e+01	0	40	104	0	60	92026
2026-01-30 16:53:25.82	20.15	1.15	-49.5	-67.4	3.5	3.02e+01	0	40	104	0	60	90158
2026-01-30 16:53:26.83	20.14	1.21	-49.3	-67.2	3.5	3.02e+01	0	40	104	0	60	88631
2026-01-30 16:53:27.85	20.13	1.28	-49.2	-67.1	3.5	3.02e+01	0	40	104	0	60	87557
2026-01-30 16:53:28.86	20.11	1.34	-49.2	-67.0	3.5	3.02e+01	0	40	104	0	60	86353
2026-01-30 16:53:29.87	20.10	1.41	-49.0	-66.8	3.5	3.02e+01	0	40	104	0	60	84007
2026-01-30 16:53:30.88	20.09	1.47	-48.8	-66.6	3.5	3.02e+01	0	40	104	0	60	82748
2026-01-30 16:53:31.89	20.08	1.54	-48.6	-66.0	3.5	3.02e+01	0	40	104	0	60	76809
2026-01-30 16:53:32.90	20.06	1.60	-48.6	-65.4	3.5	3.02e+01	0	40	104	0	60	71902
2026-01-30 16:53:33.91	20.05	1.67	-48.6	-65.2	3.5	3.02e+01	0	40	104	0	60	70318
2026-01-30 16:53:34.92	20.04	1.73	-48.6	-65.1	3.5	3.02e+01	0	40	104	0	60	69326
2026-01-30 16:53:35.93	20.02	1.80	-48.6	-65.0	3.5	3.02e+01	0	40	104	0	60	68494
2026-01-30 16:53:36.94	20.01	1.87	-48.6	-64.9	3.5	3.02e+01	0	40	104	0	60	67714
2026-01-30 16:53:37.95	19.99	1.93	-48.6	-65.2	3.5	3.02e+01	0	40	104	0	60	69796
2026-01-30 16:53:38.96	19.98	2.00	-48.6	-65.5	3.5	3.02e+01	0	40	104	0	60	72478
2026-01-30 16:53:39.97	19.97	2.06	-48.6	-65.8	3.5	3.02e+01	0	40	104	0	60	74904
2026-01-30 16:53:40.98	19.95	2.13	-48.6	-66.0	3.5	3.02e+01	0	40	104	0	60	77128
2026-01-30 16:53:41.99	19.94	2.20	-48.6	-66.1	3.5	3.02e+01	0	40	104	0	60	77870
2026-01-30 16:53:43.00	19.92	2.27	-48.6	-66.2	3.5	3.02e+01	0	40	104	0	60	78603
2026-01-30 16:53:44.01	19.91	2.33	-48.6	-66.2	3.5	3.02e+01	0	40	104	0	60	79025
2026-01-30 16:53:45.02	19.90	2.40	-48.6	-66.1	3.5	3.02e+01	0	40	104	0	60	77807
2026-01-30 16:53:46.03	19.88	2.47	-48.6	-65.5	3.5	3.02e+01	0	40	104	0	60	72797
2026-01-30 16:53:47.04	19.87	2.54	-48.6	-64.4	3.6	3.02e+01	0	40	104	0	60	64018
2026-01-30 16:53:48.05	19.85	2.60	-48.5	-62.3	4.4	3.02e+01	0	40	104	0	60	50304
2026-01-30 16:53:49.06	19.84	2.67	-48.4	-61.6	4.9	3.02e+01	0	40	104	0	60	46143
2026-01-30 16:53:50.07	19.82	2.74	-48.3	-60.2	5.8	3.02e+01	8	40	104	0	60	39561
2026-01-30 16:53:51.08	19.81	2.81	-48.3	-59.3	5.8	3.02e+01	92	40	0	524288	60	35301
2026-01-30 16:53:52.09	19.79	2.88	-48.3	-60.8	3.9	3.02e+01	0	40	104	2097152	60	41965
2026-01-30 16:53:53.11	19.78	2.95	-48.5	-62.2	3.7	3.02e+01	0	40	104	2097152	60	49850
2026-01-30 16:53:54.12	19.76	3.02	-48.5	-63.0	4.1	3.02e+01	0	40	104	2097152	60	54557
2026-01-30 16:53:55.13	19.75	3.08	-48.4	-60.8	5.6	3.02e+01	4	40	104	2097152	60	42001
2026-01-30 16:53:56.14	19.73	3.15	-47.8	-55.7	10.0	3.02e+01	49	40	0	3145728	60	23488
2026-01-30 16:53:57.15	19.72	3.22	-46.9	-52.4	13.4	3.02e+01	58	40	0	4718592	60	16103
2026-01-30 16:53:58.16	19.70	3.29	-45.7	-49.6	16.6	3.02e+01	59	40	0	6815744	60	11628
2026-01-30 16:53:59.17	19.69	3.36	-44.4	-47.3	18.7	3.02e+01	61	40	0	8388608	60	8957
2026-01-30 16:54:00.18	19.67	3.43	-43.6	-46.2	19.9	3.02e+01	60	40	0	10485760	60	7851
2026-01-30 16:54:01.19	19.65	3.50	-42.5	-44.7	21.1	3.02e+01	54	40	0	12582912	60	6601
2026-01-30 16:54:02.20	19.64	3.57	-42.3	-44.5	21.6	3.02e+01	60	40	0	14155776	60	6424
2026-01-30 16:54:03.21	19.62	3.65	-41.9	-43.9	22.0	3.02e+01	61	40	0	16252928	58	6757
2026-01-30 16:54:04.22	19.61	3.72	-41.9	-43.9	21.9	3.02e+01	59	40	0	18350080	58	6803
2026-01-30 16:54:05.23	19.59	3.79	-43.1	-45.5	20.2	3.02e+01	62	40	0	19922944	58	8163
2026-01-30 16:54:06.24	19.57	3.86	-48.6	-64.6	3.6	3.02e+01	0	40	104	20971520	60	65340
2026-01-30 16:54:07.25	19.56	3.93	-45.8	-50.2	17.6	3.02e+01	60	40	104	20971520	60	12434
2026-01-30 16:54:08.26	19.54	4.00	-48.4	-63.0	4.4	3.02e+01	0	40	104	20971520	60	54471
2026-01-30 16:54:09.27	19.52	4.07	-39.5	-41.0	24.8	3.02e+01	49	40	0	21495808	54	6128
2026-01-30 16:54:10.28	19.51	4.15	-48.5	-64.0	3.6	3.02e+01	0	40	104	22020096	60	61319
2026-01-30 16:54:11.29	19.49	4.22	-39.2	-40.7	25.1	3.02e+01	60	40	0	22544384	54	5913
2026-01-30 16:54:12.30	19.47	4.29	-38.5	-40.0	26.1	3.02e+01	58	40	0	24641536	52	6095
2026-01-30 16:54:13.31	19.45	4.37	-37.9	-39.3	26.4	3.02e+01	57	40	0	26214400	50	6317
2026-01-30 16:54:14.32	19.44	4.44	-38.0	-39.4	26.6	3.02e+01	60	40	0	28311552	50	6381
2026-01-30 16:54:15.33	19.42	4.51	-38.1	-39.6	26.4	3.02e+01	59	40	0	30408704	50	6501
2026-01-30 16:54:16.34	19.40	4.59	-37.9	-39.3	26.5	3.02e+01	58	40	0	31981568	50	6349
2026-01-30 16:54:17.35	19.38	4.66	-38.0	-39.4	26.5	3.02e+01	50	40	0	34078720	50	6399
2026-01-30 16:54:18.36	19.37	4.73	-37.8	-39.2	26.7	3.02e+01	61	40	0	35651584	50	6222
2026-01-30 16:54:19.37	19.35	4.81	-37.8	-39.2	26.7	3.02e+01	59	40	0	37748736	50	6233
2026-01-30 16:54:20.37	19.33	4.88	-37.8	-39.2	26.7	3.02e+01	54	40	0	39845888	50	6243
2026-01-30 16:54:21.38	19.31	4.96	-37.8	-39.1	26.8	3.02e+01	60	40	0	41418752	50	6200
2026-01-30 16:54:22.40	19.29	5.03	-37.6	-39.0	26.9	3.02e+01	47	40	0	43515904	50	6089
2026-01-30 16:54:23.40	19.28	5.11	-37.5	-38.9	27.1	3.02e+01	60	40	0	45088768	50	6029
2026-01-30 16:54:24.41	19.26	5.18	-37.7	-39.0	26.9	3.02e+01	60	40	0	47185920	50	6113
2026-01-30 16:54:25.42	19.24	5.26	-37.7	-39.0	26.9	3.02e+01	50	40	0	49283072	50	6132
2026-01-30 16:54:26.43	19.22	5.33	-37.7	-39.1	26.9	3.02e+01	63	40	0	50855936	50	6153
2026-01-30 16:54:27.44	19.20	5.41	-37.4	-38.7	27.2	3.02e+01	59	40	0	52953088	50	5918
2026-01-30 16:54:28.45	19.18	5.48	-37.4	-38.8	27.2	3.02e+01	57	40	0	55050240	50	5943
2026-01-30 16:54:29.46	19.16	5.56	-37.4	-38.7	27.3	3.02e+01	60	40	0	56623104	50	5924
2026-01-30 16:54:30.47	19.14	5.64	-37.4	-38.7	27.3	3.02e+01	56	40	0	58720256	50	5889
2026-01-30 16:54:31.48	19.12	5.72	-37.3	-38.7	27.3	3.02e+01	60	40	0	60293120	50	5880
2026-01-30 16:54:32.49	19.10	5.79	-37.3	-38.7	27.3	3.02e+01	58	40	0	62390272	50	5864
2026-01-30 16:54:33.50	19.08	5.87	-37.2	-38.5	27.5	3.02e+01	60	40	0	64487424	50	5769
2026-01-30 16:54:34.51	19.06	5.95	-37.3	-38.7	27.4	3.02e+01	61	40	0	66060288	50	5880
2026-01-30 16:54:35.52	19.04	6.03	-37.3	-38.7	27.4	3.02e+01	60	40	0	68157440	50	5868
2026-01-30 16:54:36.53	19.02	6.10	-37.3	-38.6	27.3	3.02e+01	61	40	0	69730304	50	5848
2026-01-30 16:54:37.53	19.00	6.18	-37.5	-38.9	27.3	3.02e+01	61	40	0	71827456	50	6013
2026-01-30 16:54:38.55	18.98	6.26	-37.2	-38.6	27.4	3.02e+01	50	41	0	73924608	50	5809
2026-01-30 16:54:39.56	18.96	6.34	-37.3	-38.7	27.4	3.02e+01	56	40	0	75497472	50	5872
2026-01-30 16:54:40.57	18.94	6.42	-37.0	-38.3	27.7	3.02e+01	59	40	0	77594624	48	6303
2026-01-30 16:54:41.57	18.92	6.50	-37.2	-38.6	27.6	3.02e+01	61	40	0	79167488	48	6500
2026-01-30 16:54:42.58	18.90	6.58	-36.9	-38.2	27.8	3.02e+01	57	40	0	81264640	48	6230
2026-01-30 16:54:43.59	18.88	6.66	-36.8	-38.1	27.9	3.02e+01	49	40	0	83361792	48	6148
2026-01-30 16:54:44.60	18.86	6.74	-36.9	-38.2	27.8	3.02e+01	59	40	0	84934656	48	6218
2026-01-30 16:54:45.61	18.84	6.82	-36.8	-38.1	27.9	3.02e+01	61	40	0	87031808	48	6194
2026-01-30 16:54:46.61	18.81	6.90	-36.8	-38.1	27.9	3.02e+01	49	40	0	88604672	48	6172
2026-01-30 16:54:47.62	18.79	6.98	-36.6	-37.9	28.1	3.02e+01	60	40	0	90701824	48	6032
2026-01-30 16:54:48.63	18.77	7.06	-36.6	-37.9	28.1	3.02e+01	61	40	0	92798976	48	6031
2026-01-30 16:54:49.64	18.75	7.15	-36.8	-38.1	28.0	3.02e+01	58	40	0	94371840	48	6145
2026-01-30 16:54:50.65	18.73	7.23	-36.7	-38.0	28.0	3.02e+01	60	40	0	96468992	48	6103
2026-01-30 16:54:51.66	18.70	7.31	-36.7	-38.0	28.1	3.02e+01	56	40	0	98566144	48	6073
2026-01-30 16:54:52.67	18.68	7.39	-36.6	-37.8	28.3	3.02e+01	58	40	0	100139008	48	5987
2026-01-30 16:54:53.68	18.66	7.48	-36.7	-38.0	28.1	3.02e+01	59	40	0	102236160	48	6079
2026-01-30 16:54:54.69	18.63	7.56	-36.7	-38.0	28.2	3.02e+01	52	40	0	103809024	48	6101
2026-01-30 16:54:55.70	18.61	7.64	-36.8	-38.1	28.0	3.02e+01	60	40	0	105906176	48	6140
2026-01-30 16:54:56.71	18.59	7.73	-36.9	-38.1	28.0	3.02e+01	57	41	0	108003328	48	6204
2026-01-30 16:54:57.72	18.56	7.81	-36.8	-38.1	28.1	3.02e+01	58	40	0	109576192	48	6136
2026-01-30 16:54:58.73	18.54	7.89	-36.7	-37.9	28.3	3.02e+01	59	40	0	111673344	48	6054
2026-01-30 16:54:59.74	18.52	7.98	-36.5	-37.8	28.3	3.02e+01	48	40	0	113246208	48	5938
2026-01-30 16:55:00.75	18.49	8.06	-36.5	-37.7	28.4	3.02e+01	59	40	0	115343360	48	5924
2026-01-30 16:55:01.76	18.47	8.15	-36.5	-37.8	28.2	3.02e+01	54	40	0	117440512	48	5937
2026-01-30 16:55:02.77	18.44	8.24	-36.5	-37.8	28.4	3.02e+01	45	41	0	119013376	48	5961
2026-01-30 16:55:03.78	18.42	8.32	-36.5	-37.8	28.3	3.02e+01	58	41	0	121110528	48	5960
2026-01-30 16:55:04.79	18.39	8.41	-36.8	-38.1	28.0	3.02e+01	61	40	0	123207680	48	6177
2026-01-30 16:55:05.80	18.37	8.50	-36.5	-37.8	28.4	3.02e+01	60	41	0	124780544	48	5967
2026-01-30 16:55:06.80	18.34	8.58	-36.5	-37.7	28.4	3.02e+01	58	40	0	126877696	48	5917
2026-01-30 16:55:07.81	18.32	8.67	-36.4	-37.6	28.5	3.02e+01	53	40	0	128450560	48	5852
2026-01-30 16:55:08.82	18.29	8.76	-36.2	-37.4	28.6	3.02e+01	59	41	0	130547712	48	5694
2026-01-30 16:55:09.83	18.27	8.85	-36.2	-37.4	28.7	3.02e+01	59	41	0	132120576	48	5725
2026-01-30 16:55:10.84	18.24	8.93	-36.2	-37.4	28.7	3.02e+01	51	41	0	134217728	48	5705
2026-01-30 16:55:11.86	18.22	9.02	-36.2	-37.4	28.7	3.02e+01	60	41	0	136314880	48	5693
2026-01-30 16:55:12.87	18.19	9.11	-36.3	-37.5	28.6	3.02e+01	62	41	0	137887744	48	5778
2026-01-30 16:55:13.88	18.16	9.20	-36.3	-37.6	28.6	3.02e+01	60	41	0	139984896	48	5814
2026-01-30 16:55:14.89	18.14	9.29	-36.1	-37.4	28.7	3.02e+01	61	41	0	141557760	48	5674
2026-01-30 16:55:15.89	18.11	9.38	-36.2	-37.5	28.7	3.02e+01	52	41	0	143654912	48	5735
2026-01-30 16:55:16.90	18.08	9.47	-36.0	-37.3	28.9	3.02e+01	59	41	0	145752064	48	5615
2026-01-30 16:55:17.91	18.05	9.56	-36.0	-37.3	28.9	3.02e+01	60	41	0	147324928	48	5612
2026-01-30 16:55:18.92	18.03	9.65	-36.0	-37.2	29.0	3.02e+01	57	41	0	149422080	46	6262
2026-01-30 16:55:19.93	18.00	9.75	-36.1	-37.3	28.8	3.02e+01	62	41	0	151519232	46	6328
2026-01-30 16:55:20.94	17.97	9.84	-35.8	-37.1	29.0	3.02e+01	36	41	0	153092096	46	6147
2026-01-30 16:55:21.96	17.94	9.93	-35.8	-37.1	29.1	3.02e+01	60	41	0	155189248	46	6155
2026-01-30 16:55:22.96	17.91	10.02	-35.9	-37.1	29.0	3.02e+01	57	41	0	156762112	46	6204
2026-01-30 16:55:23.98	17.89	10.12	-35.9	-37.1	29.1	3.02e+01	46	41	0	158859264	46	6171
2026-01-30 16:55:24.99	17.86	10.21	-35.9	-37.1	29.1	3.02e+01	57	41	0	160956416	46	6159
2026-01-30 16:55:25.99	17.83	10.30	-36.0	-37.2	29.0	3.02e+01	58	41	0	162529280	46	6245
2026-01-30 16:55:27.01	17.80	10.40	-35.9	-37.1	29.1	3.02e+01	60	41	0	164626432	46	6162
2026-01-30 16:55:28.01	17.77	10.49	-35.9	-37.1	29.1	3.02e+01	59	41	0	166723584	46	6178
2026-01-30 16:55:29.03	17.74	10.59	-35.9	-37.1	29.1	3.02e+01	60	41	0	168296448	46	6177
2026-01-30 16:55:30.03	17.71	10.68	-35.9	-37.2	29.1	3.02e+01	62	41	0	170393600	46	6217
2026-01-30 16:55:31.04	17.68	10.78	-35.9	-37.1	29.0	3.02e+01	61	41	0	171966464	46	6202
2026-01-30 16:55:32.05	17.65	10.87	-35.9	-37.1	29.1	3.02e+01	52	41	0	174063616	46	6184
2026-01-30 16:55:33.06	17.62	10.97	-36.0	-37.2	29.0	3.02e+01	61	41	0	176160768	46	6257
2026-01-30 16:55:34.07	17.59	11.07	-35.9	-37.2	29.1	3.02e+01	59	41	0	177733632	46	6206
2026-01-30 16:55:35.08	17.55	11.17	-35.9	-37.2	29.1	3.02e+01	57	40	0	179830784	46	6226
2026-01-30 16:55:36.09	17.52	11.26	-35.8	-37.0	29.2	3.02e+01	59	40	0	181403648	46	6091
2026-01-30 16:55:37.10	17.49	11.36	-35.9	-37.1	29.2	3.02e+01	46	41	0	183500800	46	6155
2026-01-30 16:55:38.11	17.46	11.46	-35.9	-37.2	29.1	3.02e+01	57	41	0	185597952	46	6226
2026-01-30 16:55:39.12	17.43	11.56	-35.9	-37.1	29.1	3.02e+01	58	40	0	187170816	46	6163
2026-01-30 16:55:40.13	17.39	11.66	-35.9	-37.2	29.0	3.02e+01	46	40	0	189267968	46	6207
2026-01-30 16:55:41.14	17.36	11.76	-35.9	-37.2	29.1	3.02e+01	55	41	0	191365120	46	6222
2026-01-30 16:55:42.15	17.33	11.86	-35.9	-37.1	29.2	3.02e+01	62	40	0	192937984	46	6166
2026-01-30 16:55:43.16	17.29	11.96	-35.9	-37.2	29.1	3.02e+01	62	40	0	195035136	46	6212
2026-01-30 16:55:44.17	17.26	12.06	-35.9	-37.1	29.2	3.02e+01	55	40	0	196608000	46	6174
2026-01-30 16:55:45.18	17.23	12.17	-36.0	-37.3	29.0	3.02e+01	52	41	0	198705152	46	6296
2026-01-30 16:55:46.19	17.19	12.27	-35.8	-37.0	29.1	3.02e+01	56	41	0	200278016	46	6123
2026-01-30 16:55:47.20	17.16	12.37	-35.9	-37.2	29.1	3.02e+01	57	41	0	202375168	46	6222
2026-01-30 16:55:48.21	17.12	12.47	-35.7	-36.9	29.3	3.02e+01	57	41	0	204472320	46	6009
2026-01-30 16:55:49.21	17.09	12.58	-35.9	-37.1	29.2	3.02e+01	63	41	0	206045184	46	6159
2026-01-30 16:55:50.22	17.05	12.68	-35.7	-36.9	29.3	3.02e+01	53	41	0	208142336	46	6057
2026-01-30 16:55:51.23	17.02	12.79	-35.9	-37.1	29.2	3.02e+01	62	41	0	209715200	46	6184
2026-01-30 16:55:52.24	16.98	12.89	-35.6	-36.8	29.4	3.02e+01	61	40	0	211812352	46	5928
2026-01-30 16:55:53.25	16.94	13.00	-35.7	-36.9	29.4	3.02e+01	49	41	0	213909504	46	6049
2026-01-30 16:55:54.26	16.91	13.10	-35.7	-36.9	29.4	3.02e+01	60	41	0	215482368	46	6001
2026-01-30 16:55:55.27	16.87	13.21	-35.5	-36.7	29.5	3.02e+01	62	41	0	217579520	46	5893
2026-01-30 16:55:56.28	16.83	13.32	-35.4	-36.6	29.6	3.02e+01	55	41	0	219676672	46	5846
2026-01-30 16:55:57.29	16.79	13.43	-35.4	-36.6	29.7	3.02e+01	59	41	0	221249536	46	5804
2026-01-30 16:55:58.30	16.76	13.53	-35.4	-36.6	29.6	3.02e+01	46	41	0	223346688	46	5849
2026-01-30 16:55:59.31	16.72	13.64	-35.6	-36.8	29.4	3.02e+01	56	41	0	224919552	46	5930
2026-01-30 16:56:00.32	16.68	13.75	-35.4	-36.6	29.6	3.02e+01	57	41	0	227016704	46	5805
2026-01-30 16:56:01.33	16.64	13.86	-35.5	-36.7	29.6	3.02e+01	47	41	0	229113856	46	5864
2026-01-30 16:56:02.33	16.60	13.97	-35.6	-36.8	29.5	3.02e+01	49	41	0	230686720	46	5950
2026-01-30 16:56:03.34	16.56	14.08	-35.3	-36.5	29.7	3.02e+01	59	41	0	232783872	46	5751
2026-01-30 16:56:04.35	16.52	14.19	-35.4	-36.6	29.7	3.02e+01	60	41	0	234881024	46	5802
2026-01-30 16:56:05.36	16.48	14.31	-35.4	-36.6	29.7	3.02e+01	57	41	0	236453888	46	5808
2026-01-30 16:56:06.37	16.44	14.42	-35.3	-36.5	29.7	3.02e+01	59	41	0	238551040	46	5772
2026-01-30 16:56:07.38	16.40	14.53	-35.3	-36.4	29.8	3.02e+01	60	41	0	240123904	46	5720
2026-01-30 16:56:08.39	16.36	14.65	-35.3	-36.5	29.8	3.02e+01	61	41	0	242221056	46	5743
2026-01-30 16:56:09.40	16.32	14.76	-35.2	-36.4	29.7	3.02e+01	48	41	0	244318208	46	5706
2026-01-30 16:56:10.41	16.27	14.88	-35.3	-36.5	29.7	3.02e+01	60	41	0	245891072	46	5753
2026-01-30 16:56:11.42	16.23	14.99	-35.2	-36.4	29.8	3.02e+01	58	41	0	247988224	46	5717
2026-01-30 16:56:12.43	16.19	15.11	-35.3	-36.5	29.8	3.02e+01	59	41	0	249561088	46	5726
2026-01-30 16:56:13.44	16.14	15.22	-35.2	-36.4	29.8	3.02e+01	58	41	0	251658240	46	5677
2026-01-30 16:56:14.45	16.10	15.34	-35.3	-36.4	29.8	3.02e+01	57	41	0	253755392	46	5724
2026-01-30 16:56:15.46	16.06	15.46	-35.3	-36.5	29.8	3.02e+01	60	41	0	255328256	46	5767
2026-01-30 16:56:16.47	16.01	15.58	-35.2	-36.4	29.9	3.02e+01	58	41	0	257425408	46	5699
2026-01-30 16:56:17.48	15.97	15.70	-35.5	-36.7	29.7	3.02e+01	46	41	0	258998272	46	5897
2026-01-30 16:56:18.49	15.92	15.82	-35.3	-36.5	29.7	3.02e+01	60	41	0	261095424	46	5785
2026-01-30 16:56:19.50	15.88	15.94	-35.4	-36.6	29.6	3.02e+01	47	41	0	263192576	46	5844
2026-01-30 16:56:20.51	15.83	16.06	-35.3	-36.4	29.8	3.02e+01	59	41	0	264765440	46	5723
2026-01-30 16:56:21.52	15.78	16.18	-35.3	-36.5	29.7	3.02e+01	60	41	0	266862592	46	5777
2026-01-30 16:56:22.53	15.73	16.30	-35.3	-36.6	29.8	3.02e+01	58	41	0	268435456	46	5796
2026-01-30 16:56:23.54	15.69	16.43	-35.5	-36.7	29.6	3.02e+01	58	41	0	270532608	46	5917
2026-01-30 16:56:24.55	15.64	16.55	-35.5	-36.7	29.6	3.02e+01	59	41	0	272629760	46	5888
2026-01-30 16:56:25.56	15.59	16.67	-35.3	-36.5	29.7	3.02e+01	60	41	0	274202624	46	5788
2026-01-30 16:56:26.57	15.54	16.80	-35.4	-36.6	29.8	3.02e+01	59	41	0	276299776	46	5844
2026-01-30 16:56:27.58	15.49	16.93	-35.4	-36.6	29.8	3.02e+01	52	41	0	277872640	46	5803
2026-01-30 16:56:28.59	15.44	17.05	-35.4	-36.6	29.7	3.02e+01	62	41	0	279969792	46	5822
2026-01-30 16:56:29.60	15.39	17.18	-35.3	-36.5	29.7	3.02e+01	57	40	0	282066944	46	5765
2026-01-30 16:56:30.61	15.34	17.31	-35.3	-36.5	29.8	3.02e+01	47	41	0	283639808	46	5741
2026-01-30 16:56:31.62	15.29	17.44	-35.4	-36.6	29.7	3.02e+01	58	41	0	285736960	46	5840
2026-01-30 16:56:32.63	15.24	17.57	-35.3	-36.5	29.8	3.02e+01	56	41	0	287834112	46	5777
2026-01-30 16:56:33.64	15.18	17.70	-35.3	-36.5	29.8	3.02e+01	60	41	0	289406976	46	5737
2026-01-30 16:56:34.64	15.13	17.83	-35.4	-36.6	29.7	3.02e+01	60	41	0	291504128	46	5807
2026-01-30 16:56:35.65	15.08	17.96	-35.4	-36.6	29.8	3.02e+01	60	41	0	293076992	46	5793
2026-01-30 16:56:36.66	15.02	18.09	-35.3	-36.5	29.7	3.02e+01	59	41	0	295174144	46	5784
2026-01-30 16:56:37.67	14.97	18.22	-35.4	-36.6	29.7	3.02e+01	57	41	0	297271296	46	5847
2026-01-30 16:56:38.68	14.91	18.36	-35.3	-36.4	29.8	3.02e+01	45	41	0	298844160	46	5725
2026-01-30 16:56:39.69	14.86	18.49	-35.3	-36.5	29.8	3.02e+01	58	41	0	300941312	46	5729
2026-01-30 16:56:40.70	14.80	18.63	-35.3	-36.5	29.7	3.02e+01	63	41	0	303038464	46	5755
2026-01-30 16:56:41.71	14.75	18.76	-35.3	-36.5	29.8	3.02e+01	57	41	0	304611328	46	5777
2026-01-30 16:56:42.72	14.69	18.90	-35.2	-36.4	29.9	3.02e+01	59	41	0	306708480	46	5709
2026-01-30 16:56:43.73	14.63	19.04	-35.2	-36.4	29.9	3.02e+01	60	41	0	308281344	46	5670
2026-01-30 16:56:44.74	14.57	19.18	-35.3	-36.5	29.8	3.02e+01	60	41	0	310378496	46	5727
2026-01-30 16:56:45.75	14.51	19.32	-35.4	-36.6	29.7	3.02e+01	60	41	0	312475648	46	5803
2026-01-30 16:56:46.76	14.45	19.46	-35.3	-36.5	29.8	3.02e+01	46	41	0	314048512	46	5773
2026-01-30 16:56:47.77	14.39	19.60	-35.5	-36.7	29.7	3.02e+01	59	41	0	316145664	46	5885
2026-01-30 16:56:48.77	14.33	19.74	-35.5	-36.7	29.7	3.02e+01	56	41	0	317718528	46	5881
2026-01-30 16:56:49.79	14.27	19.88	-35.6	-36.8	29.6	3.02e+01	58	41	0	319815680	46	5987
2026-01-30 16:56:50.79	14.21	20.02	-35.6	-36.8	29.6	3.02e+01	56	41	0	321912832	46	5940
2026-01-30 16:56:51.80	14.14	20.17	-35.6	-36.8	29.6	3.02e+01	55	41	0	323485696	46	5991
2026-01-30 16:56:52.81	14.08	20.31	-35.7	-36.9	29.5	3.02e+01	58	41	0	325582848	46	6050
2026-01-30 16:56:53.82	14.02	20.46	-35.7	-36.9	29.5	3.02e+01	58	41	0	327155712	46	6044
2026-01-30 16:56:54.83	13.95	20.61	-35.7	-36.8	29.6	3.02e+01	46	41	0	329252864	46	5991
2026-01-30 16:56:55.84	13.89	20.76	-35.6	-36.8	29.6	3.02e+01	57	41	0	331350016	46	5927
2026-01-30 16:56:56.85	13.82	20.90	-35.6	-36.8	29.6	3.02e+01	64	41	0	332922880	46	5936
2026-01-30 16:56:57.86	13.75	21.05	-35.5	-36.7	29.7	3.02e+01	55	41	0	335020032	46	5902
2026-01-30 16:56:58.87	13.68	21.21	-35.6	-36.8	29.6	3.02e+01	62	41	0	336592896	46	5934
2026-01-30 16:56:59.88	13.62	21.36	-35.6	-36.8	29.6	3.02e+01	44	41	0	338690048	46	5967
2026-01-30 16:57:00.89	13.55	21.51	-35.4	-36.6	29.8	3.02e+01	54	41	0	340787200	46	5810
2026-01-30 16:57:01.90	13.48	21.66	-35.5	-36.6	29.8	3.02e+01	58	41	0	342360064	46	5850
2026-01-30 16:57:02.91	13.41	21.82	-35.3	-36.5	29.9	3.02e+01	58	41	0	344457216	46	5752
2026-01-30 16:57:03.92	13.33	21.97	-35.4	-36.6	29.8	3.02e+01	58	41	0	346030080	46	5827
2026-01-30 16:57:04.93	13.26	22.13	-35.4	-36.5	29.8	3.02e+01	45	41	0	348127232	46	5790
2026-01-30 16:57:05.94	13.19	22.29	-35.4	-36.6	29.8	3.02e+01	58	41	0	350224384	46	5846
2026-01-30 16:57:06.95	13.11	22.45	-35.6	-36.8	29.7	3.02e+01	58	41	0	351797248	46	5933
2026-01-30 16:57:07.96	13.04	22.61	-35.6	-36.8	29.6	3.02e+01	45	41	0	353894400	46	5988
2026-01-30 16:57:08.97	12.96	22.77	-35.6	-36.8	29.7	3.02e+01	58	41	0	355991552	46	5947
2026-01-30 16:57:09.98	12.89	22.93	-35.7	-36.9	29.7	3.02e+01	59	41	0	357564416	46	6021
2026-01-30 16:57:10.99	12.81	23.09	-35.7	-36.9	29.5	3.02e+01	62	41	0	359661568	46	6055
2026-01-30 16:57:12.00	12.73	23.26	-35.8	-37.0	29.6	3.02e+01	59	41	0	361234432	46	6112
2026-01-30 16:57:13.01	12.65	23.42	-35.9	-37.1	29.5	3.02e+01	58	41	0	363331584	46	6136
2026-01-30 16:57:14.01	12.57	23.59	-36.0	-37.3	29.3	3.02e+01	58	41	0	365428736	46	6281
2026-01-30 16:57:15.02	12.49	23.75	-36.2	-37.4	29.2	3.02e+01	61	41	0	367001600	46	6378
2026-01-30 16:57:16.03	12.41	23.92	-36.3	-37.5	29.1	3.02e+01	45	41	0	369098752	46	6449
2026-01-30 16:57:17.04	12.32	24.09	-36.2	-37.5	29.2	3.02e+01	60	41	0	371195904	46	6425
2026-01-30 16:57:18.05	12.24	24.26	-36.2	-37.4	29.1	3.02e+01	59	41	0	372768768	46	6414
2026-01-30 16:57:19.06	12.15	24.44	-36.1	-37.4	29.2	3.02e+01	54	41	0	374865920	46	6353
2026-01-30 16:57:20.07	12.07	24.61	-36.1	-37.3	29.3	3.02e+01	58	41	0	376438784	46	6287
2026-01-30 16:57:21.08	11.98	24.78	-36.0	-37.2	29.4	3.02e+01	44	41	0	378535936	46	6224
2026-01-30 16:57:22.09	11.89	24.96	-35.8	-37.0	29.5	3.02e+01	60	41	0	380633088	46	6103
2026-01-30 16:57:23.10	11.80	25.13	-35.8	-37.0	29.5	3.02e+01	59	41	0	382205952	46	6099
2026-01-30 16:57:24.11	11.71	25.31	-35.9	-37.0	29.5	3.02e+01	44	41	0	384303104	46	6132
2026-01-30 16:57:25.12	11.62	25.49	-35.7	-36.9	29.6	3.02e+01	56	41	0	385875968	46	6003
2026-01-30 16:57:26.13	11.53	25.67	-35.6	-36.8	29.7	3.02e+01	65	41	0	387973120	46	5983
2026-01-30 16:57:27.14	11.43	25.85	-35.6	-36.8	29.7	3.02e+01	59	41	0	389545984	46	5983
2026-01-30 16:57:28.15	11.34	26.04	-35.8	-37.0	29.5	3.02e+01	60	41	0	391643136	46	6095
2026-01-30 16:57:29.16	11.24	26.22	-35.9	-37.1	29.4	3.02e+01	51	41	0	393740288	46	6163
2026-01-30 16:57:30.17	11.14	26.41	-35.9	-37.2	29.4	3.02e+01	58	41	0	395313152	46	6207
2026-01-30 16:57:31.18	11.05	26.59	-35.9	-37.1	29.5	3.02e+01	59	41	0	397410304	46	6152
2026-01-30 16:57:32.19	10.95	26.78	-35.7	-36.9	29.6	3.02e+01	60	41	0	399507456	46	6060
2026-01-30 16:57:33.20	10.84	26.97	-35.7	-36.9	29.7	3.02e+01	57	41	0	401080320	46	6019
2026-01-30 16:57:34.21	10.74	27.16	-35.6	-36.8	29.7	3.02e+01	44	41	0	403177472	46	5971
2026-01-30 16:57:35.22	10.64	27.35	-35.5	-36.7	29.8	3.02e+01	59	41	0	404750336	46	5912
2026-01-30 16:57:36.23	10.53	27.54	-35.6	-36.8	29.8	3.02e+01	60	41	0	406847488	46	5940
2026-01-30 16:57:37.24	10.43	27.74	-35.6	-36.7	29.8	3.02e+01	52	41	0	408944640	46	5916
2026-01-30 16:57:38.25	10.32	27.94	-35.4	-36.5	30.0	3.02e+01	54	41	0	410517504	46	5787
2026-01-30 16:57:39.25	10.21	28.13	-35.3	-36.5	30.0	3.02e+01	59	41	0	412614656	46	5746
2026-01-30 16:57:40.27	10.10	28.33	-35.3	-36.4	30.1	3.02e+01	59	41	0	414187520	46	5722
2026-01-30 16:57:41.27	9.99	28.53	-35.1	-36.3	30.2	3.02e+01	56	41	0	416284672	46	5633
2026-01-30 16:57:42.28	9.87	28.73	-35.4	-36.6	30.0	3.02e+01	48	41	0	418381824	46	5804
2026-01-30 16:57:43.29	9.76	28.93	-35.6	-36.8	29.8	3.02e+01	59	41	0	419954688	46	5969
2026-01-30 16:57:44.30	9.64	29.14	-35.8	-37.0	29.7	3.02e+01	58	41	0	422051840	46	6066
2026-01-30 16:57:45.31	9.52	29.34	-35.7	-36.9	29.6	3.02e+01	45	41	0	424148992	46	6017
2026-01-30 16:57:46.32	9.40	29.55	-35.7	-36.9	29.7	3.02e+01	59	41	0	425721856	46	6033
2026-01-30 16:57:47.33	9.28	29.76	-35.6	-36.8	29.8	3.02e+01	58	41	0	427819008	46	5927
2026-01-30 16:57:48.34	9.15	29.97	-35.2	-36.4	30.2	3.02e+01	59	41	0	429391872	46	5661
2026-01-30 16:57:49.35	9.03	30.18	-35.1	-36.3	30.2	3.02e+01	60	41	0	431489024	46	5630
2026-01-30 16:57:50.36	8.90	30.40	-35.2	-36.4	30.3	3.02e+01	54	41	0	433586176	46	5699
2026-01-30 16:57:51.37	8.77	30.61	-35.1	-36.3	30.2	3.02e+01	58	41	0	435159040	46	5625
2026-01-30 16:57:52.38	8.64	30.83	-35.2	-36.4	30.1	3.02e+01	60	41	0	437256192	46	5682
2026-01-30 16:57:53.39	8.51	31.05	-35.2	-36.4	30.2	3.02e+01	49	41	0	438829056	46	5683
2026-01-30 16:57:54.40	8.37	31.27	-35.2	-36.4	30.1	3.02e+01	61	41	0	440926208	46	5694
2026-01-30 16:57:55.41	8.24	31.49	-35.1	-36.2	30.2	3.02e+01	60	41	0	443023360	46	5589
2026-01-30 16:57:56.42	8.10	31.71	-35.0	-36.1	30.3	3.02e+01	60	41	0	444596224	46	5513
2026-01-30 16:57:57.43	7.96	31.94	-35.0	-36.1	30.4	3.02e+01	58	41	0	446693376	46	5523
2026-01-30 16:57:58.44	7.82	32.16	-35.2	-36.4	30.1	3.02e+01	48	41	0	448266240	46	5690
2026-01-30 16:57:59.45	7.67	32.39	-35.3	-36.4	30.1	3.02e+01	60	41	0	450363392	46	5724
2026-01-30 16:58:00.46	7.52	32.62	-35.4	-36.6	30.0	3.02e+01	58	41	0	452460544	46	5804
2026-01-30 16:58:01.46	7.38	32.85	-35.2	-36.4	30.2	3.02e+01	47	41	0	454033408	46	5664
2026-01-30 16:58:02.47	7.22	33.08	-35.2	-36.4	30.2	3.02e+01	60	41	0	456130560	46	5684
2026-01-30 16:58:03.48	7.07	33.32	-35.2	-36.4	30.1	3.02e+01	61	41	0	457703424	46	5664
2026-01-30 16:58:04.49	6.91	33.55	-35.2	-36.3	30.2	3.02e+01	59	41	0	459800576	46	5648
2026-01-30 16:58:05.50	6.76	33.79	-35.5	-36.7	29.9	3.02e+01	60	41	0	461897728	46	5874
2026-01-30 16:58:06.51	6.59	34.03	-35.7	-36.8	29.7	3.02e+01	59	41	0	463470592	46	5994
2026-01-30 16:58:07.52	6.43	34.27	-35.7	-36.9	29.7	3.02e+01	59	41	0	465567744	46	6006
2026-01-30 16:58:08.53	6.27	34.52	-35.8	-37.0	29.6	3.02e+01	63	41	0	467664896	46	6130
2026-01-30 16:58:09.54	6.10	34.76	-36.1	-37.3	29.4	3.02e+01	59	41	0	469237760	46	6304
2026-01-30 16:58:10.55	5.92	35.01	-36.0	-37.2	29.4	3.02e+01	56	41	0	471334912	46	6277
2026-01-30 16:58:11.56	5.75	35.26	-36.0	-37.2	29.4	3.02e+01	46	41	0	472907776	46	6269
2026-01-30 16:58:12.57	5.57	35.51	-36.1	-37.3	29.4	3.02e+01	62	41	0	475004928	46	6291
2026-01-30 16:58:13.58	5.39	35.76	-36.3	-37.5	29.2	3.02e+01	60	41	0	477102080	46	6495
2026-01-30 16:58:14.59	5.21	36.01	-36.8	-38.1	28.7	3.02e+01	48	41	0	478674944	46	6910
2026-01-30 16:58:15.60	5.03	36.27	-37.0	-38.3	28.5	3.02e+01	59	41	0	480772096	48	6280
2026-01-30 16:58:16.61	4.84	36.53	-36.9	-38.1	28.7	3.02e+01	58	41	0	482344960	48	6170
2026-01-30 16:58:17.62	4.64	36.79	-36.8	-38.1	28.6	3.02e+01	59	41	0	484442112	48	6147
2026-01-30 16:58:18.63	4.45	37.05	-36.8	-38.1	28.7	3.02e+01	57	41	0	486539264	48	6144
2026-01-30 16:58:19.63	4.25	37.31	-36.8	-38.0	28.7	3.02e+01	47	41	0	488112128	48	6112
2026-01-30 16:58:20.64	4.05	37.57	-37.2	-38.5	28.3	3.02e+01	58	41	0	490209280	48	6445
2026-01-30 16:58:21.65	3.85	37.84	-37.4	-38.7	28.1	3.02e+01	58	41	0	492306432	48	6613
2026-01-30 16:58:22.66	3.64	38.11	-37.3	-38.6	28.3	3.02e+01	52	41	0	493879296	48	6548
2026-01-30 16:58:23.67	3.42	38.38	-37.2	-38.4	28.4	3.02e+01	60	41	0	495976448	48	6409
2026-01-30 16:58:24.68	3.21	38.65	-37.1	-38.4	28.5	3.02e+01	58	41	0	497549312	48	6358
2026-01-30 16:58:25.69	2.99	38.92	-37.3	-38.5	28.4	3.02e+01	59	41	0	499646464	48	6484
2026-01-30 16:58:26.70	2.76	39.20	-37.4	-38.7	28.2	3.02e+01	61	41	0	501743616	48	6582
2026-01-30 16:58:27.71	2.54	39.48	-37.5	-38.8	28.0	3.02e+01	58	41	0	503316480	48	6687
2026-01-30 16:58:28.72	2.30	39.76	-37.4	-38.7	28.2	3.02e+01	59	41	0	505413632	48	6612
2026-01-30 16:58:29.73	2.07	40.04	-37.5	-38.8	28.1	3.02e+01	59	41	0	506986496	48	6659
2026-01-30 16:58:30.74	1.83	40.32	-37.4	-38.7	28.2	3.02e+01	44	41	0	509083648	48	6627
2026-01-30 16:58:31.75	1.58	40.61	-37.3	-38.5	28.2	3.02e+01	60	41	0	511180800	48	6478
2026-01-30 16:58:32.76	1.33	40.89	-37.1	-38.3	28.6	3.02e+01	59	41	0	512753664	48	6332
2026-01-30 16:58:33.77	1.08	41.18	-37.4	-38.7	28.2	3.02e+01	59	41	0	514850816	48	6591
2026-01-30 16:58:34.78	0.82	41.47	-37.6	-38.9	28.1	3.02e+01	56	41	0	516423680	48	6731
2026-01-30 16:58:35.79	0.56	41.77	-37.0	-38.2	28.6	3.02e+01	49	41	0	518520832	48	6238
2026-01-30 16:58:36.80	0.29	42.06	-36.9	-38.1	28.6	3.02e+01	61	41	0	520617984	48	6172
2026-01-30 16:58:37.81	0.01	42.36	-36.6	-37.9	28.8	3.02e+01	64	41	0	522190848	48	6014
2026-01-30 16:58:38.81	359.74	42.65	-36.3	-37.5	29.2	3.02e+01	44	41	0	524288000	48	5753
2026-01-30 16:58:39.82	359.45	42.95	-36.3	-37.5	29.2	3.02e+01	60	41	0	525860864	48	5766
2026-01-30 16:58:40.84	359.16	43.25	-36.7	-38.0	28.8	3.02e+01	57	41	0	527958016	48	6078
2026-01-30 16:58:41.85	358.87	43.56	-36.9	-38.2	28.6	3.02e+01	57	41	0	530055168	48	6236
2026-01-30 16:58:42.85	358.57	43.86	-36.2	-37.4	29.3	3.02e+01	59	41	0	531628032	48	5665
2026-01-30 16:58:43.86	358.26	44.16	-36.1	-37.3	29.4	3.02e+01	50	41	0	533725184	48	5636
2026-01-30 16:58:44.87	357.95	44.47	-36.6	-37.9	28.8	3.02e+01	58	41	0	535822336	48	6006
2026-01-30 16:58:45.88	357.63	44.78	-36.8	-38.1	28.8	3.02e+01	59	41	0	537395200	48	6138
2026-01-30 16:58:46.89	357.30	45.09	-36.1	-37.3	29.3	3.02e+01	59	41	0	539492352	48	5605
2026-01-30 16:58:47.90	356.97	45.40	-36.5	-37.7	28.9	3.02e+01	60	41	0	541065216	48	5921
2026-01-30 16:58:48.91	356.63	45.72	-36.8	-38.1	28.7	3.02e+01	45	41	0	543162368	48	6150
2026-01-30 16:58:49.92	356.28	46.03	-36.9	-38.2	28.6	3.02e+01	58	41	0	545259520	48	6220
2026-01-30 16:58:50.93	355.93	46.35	-36.6	-37.8	28.9	3.02e+01	58	41	0	546832384	48	5984
2026-01-30 16:58:51.94	355.57	46.67	-36.8	-38.1	28.7	3.02e+01	44	41	0	548929536	48	6142
2026-01-30 16:58:52.95	355.20	46.99	-36.3	-37.6	29.1	3.02e+01	56	41	0	550502400	48	5807
2026-01-30 16:58:53.96	354.82	47.31	-36.7	-38.0	28.7	3.02e+01	57	41	0	552599552	48	6085
2026-01-30 16:58:54.97	354.44	47.63	-36.2	-37.4	29.2	3.02e+01	60	41	0	554696704	48	5698
2026-01-30 16:58:55.98	354.04	47.95	-36.0	-37.2	29.4	3.02e+01	54	41	0	556269568	46	6238
2026-01-30 16:58:56.99	353.64	48.27	-36.7	-38.0	28.7	3.02e+01	59	41	0	558366720	46	6822
2026-01-30 16:58:57.99	353.24	48.60	-36.3	-37.6	29.0	3.02e+01	61	41	0	560463872	46	6510
2026-01-30 16:58:59.00	352.82	48.92	-36.8	-38.1	28.7	3.02e+01	60	41	0	562036736	46	6897
2026-01-30 16:59:00.01	352.39	49.25	-36.9	-38.1	28.6	3.02e+01	53	41	0	564133888	48	6175
2026-01-30 16:59:01.02	351.95	49.58	-36.5	-37.7	28.9	3.02e+01	52	41	0	565706752	48	5909
2026-01-30 16:59:02.03	351.51	49.90	-36.2	-37.4	29.3	3.02e+01	60	41	0	567803904	48	5679
2026-01-30 16:59:03.04	351.05	50.23	-36.1	-37.3	29.2	3.02e+01	60	41	0	569901056	48	5628
2026-01-30 16:59:04.05	350.58	50.56	-36.2	-37.4	29.2	3.02e+01	62	41	0	571473920	48	5688
2026-01-30 16:59:05.06	350.10	50.89	-35.8	-36.9	29.6	3.02e+01	47	41	0	573571072	46	6062
2026-01-30 16:59:06.07	349.62	51.22	-35.7	-36.9	29.6	3.02e+01	62	41	0	575143936	46	6032
2026-01-30 16:59:07.08	349.12	51.55	-35.9	-37.1	29.5	3.02e+01	61	41	0	577241088	46	6145
2026-01-30 16:59:08.09	348.61	51.88	-35.8	-37.0	29.6	3.02e+01	48	41	0	579338240	46	6084
2026-01-30 16:59:09.10	348.08	52.21	-35.5	-36.6	29.8	3.02e+01	59	41	0	580911104	46	5858
2026-01-30 16:59:10.11	347.55	52.54	-35.2	-36.4	30.1	3.02e+01	65	41	0	583008256	46	5662
2026-01-30 16:59:11.12	347.00	52.87	-35.5	-36.7	29.8	3.02e+01	58	41	0	584581120	46	5905
2026-01-30 16:59:12.13	346.44	53.20	-35.5	-36.7	29.8	3.02e+01	57	41	0	586678272	46	5873
2026-01-30 16:59:13.14	345.87	53.53	-35.4	-36.6	29.9	3.02e+01	60	41	0	588775424	46	5796
2026-01-30 16:59:14.15	345.28	53.85	-35.2	-36.4	30.1	3.02e+01	59	41	0	590348288	46	5701
2026-01-30 16:59:15.16	344.69	54.18	-35.3	-36.5	30.0	3.02e+01	55	41	0	592445440	46	5756
2026-01-30 16:59:16.17	344.07	54.51	-35.3	-36.5	30.0	3.02e+01	57	41	0	594018304	46	5736
2026-01-30 16:59:17.17	343.45	54.83	-35.4	-36.6	29.9	3.02e+01	59	41	0	596115456	46	5810
2026-01-30 16:59:18.18	342.81	55.15	-35.4	-36.5	30.0	3.02e+01	59	41	0	598212608	46	5784
2026-01-30 16:59:19.19	342.15	55.47	-35.8	-37.0	29.5	3.02e+01	60	41	0	599785472	46	6090
2026-01-30 16:59:20.20	341.48	55.79	-35.7	-36.9	29.6	3.02e+01	52	41	0	601882624	46	6016
2026-01-30 16:59:21.21	340.79	56.11	-35.6	-36.8	29.7	3.02e+01	47	41	0	603979776	46	5974
2026-01-30 16:59:22.22	340.09	56.42	-36.0	-37.2	29.3	3.02e+01	60	41	0	605552640	46	6221
2026-01-30 16:59:23.23	339.37	56.74	-36.4	-37.7	29.1	3.02e+01	54	41	0	607649792	46	6588
2026-01-30 16:59:24.24	338.63	57.05	-36.3	-37.5	29.1	3.02e+01	56	41	0	609222656	46	6474
2026-01-30 16:59:25.25	337.88	57.35	-36.1	-37.3	29.4	3.02e+01	58	41	0	611319808	46	6312
2026-01-30 16:59:26.26	337.11	57.66	-36.6	-37.8	28.8	3.02e+01	47	41	0	613416960	46	6693
2026-01-30 16:59:27.27	336.32	57.96	-36.7	-37.9	28.8	3.02e+01	58	41	0	614989824	48	6053
2026-01-30 16:59:28.28	335.51	58.26	-36.6	-37.8	28.8	3.02e+01	59	41	0	617086976	48	5991
2026-01-30 16:59:29.28	334.69	58.55	-36.5	-37.7	28.9	3.02e+01	45	41	0	618659840	48	5902
2026-01-30 16:59:30.29	333.85	58.84	-37.1	-38.4	28.3	3.02e+01	58	41	0	620756992	48	6400
2026-01-30 16:59:31.30	332.99	59.12	-36.6	-37.9	28.8	3.02e+01	58	41	0	622854144	48	5997
2026-01-30 16:59:32.32	332.10	59.40	-37.0	-38.3	28.4	3.02e+01	60	41	0	624427008	48	6317
2026-01-30 16:59:33.33	331.20	59.68	-37.2	-38.4	28.3	3.02e+01	61	41	0	626524160	48	6422
2026-01-30 16:59:34.33	330.29	59.95	-36.8	-38.0	28.6	3.02e+01	47	41	0	628097024	48	6118
2026-01-30 16:59:35.34	329.35	60.21	-36.6	-37.9	28.8	3.02e+01	59	41	0	630194176	48	5997
2026-01-30 16:59:36.35	328.39	60.47	-37.4	-38.7	28.0	3.02e+01	58	41	0	632291328	48	6643
2026-01-30 16:59:37.36	327.41	60.72	-37.1	-38.3	28.4	3.02e+01	48	41	0	633864192	48	6327
2026-01-30 16:59:38.37	326.41	60.97	-36.8	-38.0	28.7	3.02e+01	61	41	0	635961344	48	6128
2026-01-30 16:59:39.38	325.39	61.20	-37.2	-38.5	28.3	3.02e+01	61	41	0	637534208	48	6459
2026-01-30 16:59:40.39	324.36	61.44	-37.2	-38.4	28.4	3.02e+01	63	41	0	639631360	48	6399
2026-01-30 16:59:41.40	323.30	61.66	-36.9	-38.2	28.5	3.02e+01	59	41	0	641728512	48	6211
2026-01-30 16:59:42.41	322.22	61.88	-37.3	-38.5	28.1	3.02e+01	47	41	0	643301376	48	6492
2026-01-30 16:59:43.42	321.13	62.08	-37.5	-38.8	28.0	3.02e+01	60	41	0	645398528	48	6659
2026-01-30 16:59:44.43	320.02	62.28	-37.2	-38.5	28.2	3.02e+01	58	41	0	646971392	48	6433
2026-01-30 16:59:45.44	318.89	62.48	-37.7	-39.0	27.7	3.02e+01	47	41	0	649068544	48	6848
2026-01-30 16:59:46.45	317.74	62.66	-37.8	-39.1	27.7	3.02e+01	59	41	0	651165696	48	6906
2026-01-30 16:59:47.46	316.57	62.83	-37.8	-39.1	27.6	3.02e+01	58	41	0	652738560	50	6194
2026-01-30 16:59:48.46	315.40	62.99	-38.0	-39.3	27.6	3.02e+01	62	41	0	654835712	50	6286
2026-01-30 16:59:49.47	314.20	63.14	-38.4	-39.7	27.1	3.02e+01	59	41	0	656932864	50	6618
2026-01-30 16:59:50.48	312.99	63.29	-38.3	-39.7	27.2	3.02e+01	46	41	0	658505728	50	6599
2026-01-30 16:59:51.49	311.76	63.42	-38.0	-39.3	27.6	3.02e+01	59	41	0	660602880	50	6293
2026-01-30 16:59:52.50	310.52	63.54	-38.5	-39.8	27.1	3.02e+01	58	41	0	662175744	50	6695
2026-01-30 16:59:53.51	309.26	63.65	-38.8	-40.2	26.7	3.02e+01	60	41	0	664272896	50	6973
2026-01-30 16:59:54.52	308.00	63.75	-38.2	-39.5	27.4	3.02e+01	58	41	0	666370048	50	6485
2026-01-30 16:59:55.53	306.72	63.84	-38.4	-39.7	27.2	3.02e+01	48	41	0	667942912	50	6619
2026-01-30 16:59:56.54	305.44	63.92	-38.5	-39.9	27.1	3.02e+01	61	41	0	670040064	50	6743
2026-01-30 16:59:57.55	304.14	63.98	-38.9	-40.4	26.7	3.02e+01	60	41	0	672137216	52	6361
2026-01-30 16:59:58.56	302.84	64.03	-38.5	-39.9	26.8	3.02e+01	52	41	0	673710080	52	6062
2026-01-30 16:59:59.57	301.54	64.08	-39.3	-40.8	26.2	3.02e+01	58	41	0	675807232	52	6725
2026-01-30 17:00:00.58	300.23	64.10	-39.5	-41.0	26.0	3.02e+01	60	41	0	677380096	52	6865
2026-01-30 17:00:01.59	298.92	64.12	-39.1	-40.6	26.5	3.02e+01	59	41	0	679477248	52	6517
2026-01-30 17:00:02.60	297.61	64.13	-39.4	-40.9	26.1	3.02e+01	60	41	0	681574400	52	6729
2026-01-30 17:00:03.60	296.31	64.12	-39.5	-40.9	26.1	3.02e+01	51	41	0	683147264	52	6786
2026-01-30 17:00:04.61	295.00	64.10	-38.9	-40.3	26.6	3.02e+01	58	41	0	685244416	52	6336
2026-01-30 17:00:05.63	293.67	64.07	-39.0	-40.4	26.4	3.02e+01	57	41	0	686817280	52	6401
2026-01-30 17:00:06.64	292.37	64.03	-39.4	-40.9	26.2	3.02e+01	49	41	0	688914432	52	6735
2026-01-30 17:00:07.65	291.07	63.97	-38.8	-40.2	26.6	3.02e+01	57	41	0	691011584	52	6232
2026-01-30 17:00:08.66	289.78	63.90	-38.6	-39.9	27.0	3.02e+01	59	41	0	692584448	52	6042
2026-01-30 17:00:09.67	288.50	63.82	-39.3	-40.7	26.3	3.02e+01	57	41	0	694681600	52	6648
2026-01-30 17:00:10.67	287.23	63.74	-39.0	-40.4	26.5	3.02e+01	61	41	0	696254464	52	6389
2026-01-30 17:00:11.68	285.97	63.63	-38.5	-39.8	27.1	3.02e+01	54	41	0	698351616	52	5976
2026-01-30 17:00:12.69	284.72	63.52	-39.8	-41.2	25.9	3.02e+01	58	41	0	700448768	54	6274
2026-01-30 17:00:13.70	283.48	63.40	-38.7	-40.1	26.8	3.02e+01	59	41	0	702021632	52	6177
2026-01-30 17:00:14.71	282.25	63.26	-39.1	-40.5	26.6	3.02e+01	46	41	0	704118784	52	6451
2026-01-30 17:00:15.72	281.04	63.12	-39.1	-40.5	26.4	3.02e+01	60	41	0	705691648	52	6430
2026-01-30 17:00:16.73	279.84	62.96	-39.1	-40.5	26.6	3.02e+01	58	41	0	707788800	52	6442
2026-01-30 17:00:17.74	278.66	62.80	-38.9	-40.4	26.6	3.02e+01	60	41	0	709885952	52	6364
2026-01-30 17:00:18.75	277.50	62.62	-39.0	-40.4	26.6	3.02e+01	59	41	0	711458816	52	6386
2026-01-30 17:00:19.76	276.35	62.44	-39.1	-40.5	26.7	3.02e+01	51	41	0	713555968	52	6434
2026-01-30 17:00:20.77	275.22	62.25	-38.7	-40.0	27.0	3.02e+01	58	41	0	715128832	52	6126
2026-01-30 17:00:21.78	274.11	62.05	-38.9	-40.3	26.5	3.02e+01	61	41	0	717225984	52	6332
2026-01-30 17:00:22.79	273.02	61.84	-38.4	-39.8	27.3	3.02e+01	44	41	0	719323136	52	5928
2026-01-30 17:00:23.80	271.94	61.62	-37.8	-39.0	27.8	3.02e+01	58	41	0	720896000	50	6122
2026-01-30 17:00:24.80	270.90	61.40	-38.5	-39.8	27.1	3.02e+01	62	41	0	722993152	50	6722
2026-01-30 17:00:25.81	269.86	61.16	-38.6	-40.0	27.0	3.02e+01	63	41	0	725090304	52	6108
2026-01-30 17:00:26.82	268.85	60.92	-37.5	-38.7	28.0	3.02e+01	63	41	0	726663168	50	5920
2026-01-30 17:00:27.83	267.85	60.67	-37.4	-38.7	28.1	3.02e+01	49	41	0	728760320	48	6606
2026-01-30 17:00:28.84	266.88	60.42	-37.9	-39.2	27.5	3.02e+01	63	41	0	730333184	50	6242
2026-01-30 17:00:29.86	265.91	60.16	-38.4	-39.8	27.2	3.02e+01	60	41	0	732430336	50	6701
2026-01-30 17:00:30.87	264.97	59.89	-37.5	-38.8	28.1	3.02e+01	54	41	0	734527488	50	5974
2026-01-30 17:00:31.87	264.07	59.62	-37.9	-39.2	27.2	3.02e+01	63	41	0	736100352	50	6229
2026-01-30 17:00:32.89	263.16	59.35	-38.2	-39.5	27.5	3.02e+01	60	41	0	738197504	50	6431
2026-01-30 17:00:33.89	262.29	59.07	-38.2	-39.6	27.2	3.02e+01	59	41	0	740294656	50	6513
2026-01-30 17:00:34.90	261.43	58.78	-37.3	-38.6	28.2	3.02e+01	59	41	0	741867520	50	5813
2026-01-30 17:00:35.91	260.59	58.49	-37.4	-38.7	28.1	3.02e+01	45	41	0	743964672	50	5891
2026-01-30 17:00:36.92	259.76	58.20	-37.6	-38.9	27.8	3.02e+01	55	41	0	745537536	50	6050
2026-01-30 17:00:37.93	258.96	57.90	-36.8	-38.1	28.7	3.02e+01	58	41	0	747634688	48	6158
2026-01-30 17:00:38.94	258.17	57.59	-35.9	-37.1	29.4	3.02e+01	59	41	0	749731840	48	5514
2026-01-30 17:00:39.95	257.40	57.29	-36.4	-37.6	29.1	3.02e+01	54	41	0	751304704	46	6526
2026-01-30 17:00:40.96	256.65	56.98	-36.2	-37.4	29.2	3.02e+01	45	41	0	753401856	46	6423
2026-01-30 17:00:41.97	255.92	56.67	-36.0	-37.2	29.3	3.02e+01	60	41	0	754974720	46	6250
2026-01-30 17:00:42.98	255.20	56.36	-35.9	-37.1	29.5	3.02e+01	56	41	0	757071872	46	6180
2026-01-30 17:00:43.99	254.50	56.04	-35.7	-36.9	29.7	3.02e+01	47	41	0	759169024	46	6012
2026-01-30 17:00:45.00	253.81	55.72	-35.8	-37.0	29.5	3.02e+01	61	41	0	760741888	46	6123
2026-01-30 17:00:46.01	253.14	55.40	-35.6	-36.8	29.7	3.02e+01	59	41	0	762839040	46	5987
2026-01-30 17:00:47.02	252.48	55.08	-35.3	-36.5	30.0	3.02e+01	57	41	0	764411904	46	5750
2026-01-30 17:00:48.03	251.84	54.75	-35.7	-36.9	29.7	3.02e+01	62	41	0	766509056	46	6024
2026-01-30 17:00:49.04	251.22	54.43	-35.6	-36.8	29.7	3.02e+01	47	41	0	768606208	46	5951
2026-01-30 17:00:50.05	250.61	54.10	-35.5	-36.7	29.9	3.02e+01	62	41	0	770179072	46	5873
2026-01-30 17:00:51.06	250.01	53.77	-35.5	-36.7	30.0	3.02e+01	60	41	0	772276224	46	5889
2026-01-30 17:00:52.07	249.43	53.44	-35.6	-36.8	29.7	3.02e+01	51	41	0	773849088	46	5987
2026-01-30 17:00:53.08	248.86	53.12	-36.3	-37.5	29.3	3.02e+01	59	41	0	775946240	46	6470
2026-01-30 17:00:54.09	248.30	52.79	-35.4	-36.6	29.9	3.02e+01	63	41	0	778043392	46	5810
2026-01-30 17:00:55.10	247.75	52.46	-35.4	-36.6	29.9	3.02e+01	58	41	0	779616256	46	5795
2026-01-30 17:00:56.11	247.22	52.12	-35.4	-36.5	29.9	3.02e+01	58	41	0	781713408	46	5782
2026-01-30 17:00:57.12	246.70	51.79	-34.8	-35.9	30.5	3.02e+01	55	41	0	783286272	44	6051
2026-01-30 17:00:58.13	246.19	51.46	-35.1	-36.2	30.3	3.02e+01	56	41	0	785383424	44	6271
2026-01-30 17:00:59.14	245.69	51.13	-35.3	-36.5	30.0	3.02e+01	59	41	0	787480576	44	6427
2026-01-30 17:01:00.15	245.20	50.80	-34.9	-36.1	30.3	3.02e+01	58	41	0	789053440	44	6156
2026-01-30 17:01:01.16	244.73	50.47	-34.9	-36.0	30.3	3.02e+01	58	41	0	791150592	44	6131
2026-01-30 17:01:02.17	244.26	50.14	-34.8	-36.0	30.5	3.02e+01	54	41	0	793247744	44	6078
2026-01-30 17:01:03.17	243.81	49.82	-35.3	-36.5	30.0	3.02e+01	59	41	0	794820608	44	6489
2026-01-30 17:01:04.19	243.36	49.48	-35.5	-36.7	29.9	3.02e+01	57	41	0	796917760	44	6595
2026-01-30 17:01:05.20	242.92	49.16	-35.6	-36.8	29.9	3.02e+01	48	41	0	798490624	44	6658
2026-01-30 17:01:06.21	242.50	48.83	-34.7	-35.8	30.4	3.02e+01	61	41	0	800587776	44	5971
2026-01-30 17:01:07.22	242.08	48.50	-35.6	-36.8	29.7	3.02e+01	60	41	0	802684928	44	6715
2026-01-30 17:01:08.23	241.67	48.18	-35.6	-36.8	29.8	3.02e+01	57	41	0	804257792	44	6670
2026-01-30 17:01:09.24	241.27	47.85	-35.3	-36.5	30.0	3.02e+01	62	41	0	806354944	44	6448
2026-01-30 17:01:10.25	240.88	47.53	-35.8	-37.0	29.5	3.02e+01	47	41	0	808452096	44	6869
2026-01-30 17:01:11.25	240.50	47.21	-35.5	-36.6	29.8	3.02e+01	61	41	0	810024960	44	6564
2026-01-30 17:01:12.26	240.12	46.89	-35.5	-36.7	29.7	3.02e+01	63	41	0	812122112	44	6613
2026-01-30 17:01:13.27	239.76	46.57	-35.2	-36.4	30.1	3.02e+01	45	41	0	813694976	44	6358
2026-01-30 17:01:14.28	239.40	46.25	-36.0	-37.2	29.4	3.02e+01	58	41	0	815792128	44	6996
2026-01-30 17:01:15.29	239.04	45.93	-36.5	-37.8	29.0	3.02e+01	61	41	0	817364992	46	6698
2026-01-30 17:01:16.29	238.70	45.62	-35.5	-36.7	29.9	3.02e+01	57	41	0	819462144	46	5862
2026-01-30 17:01:17.30	238.36	45.31	-35.9	-37.1	29.3	3.02e+01	60	41	0	821559296	46	6205
2026-01-30 17:01:18.31	238.03	44.99	-35.8	-37.0	29.4	3.02e+01	46	41	0	823132160	46	6068
2026-01-30 17:01:19.32	237.70	44.68	-35.4	-36.6	29.9	3.02e+01	59	41	0	825229312	46	5804
2026-01-30 17:01:20.33	237.38	44.37	-35.4	-36.6	30.0	3.02e+01	58	41	0	826802176	46	5827
2026-01-30 17:01:21.35	237.07	44.06	-35.7	-36.9	29.7	3.02e+01	44	41	0	828899328	46	6006
2026-01-30 17:01:22.35	236.76	43.76	-36.1	-37.3	29.4	3.02e+01	63	41	0	830996480	46	6296
2026-01-30 17:01:23.37	236.46	43.45	-36.1	-37.3	29.4	3.02e+01	60	41	0	832569344	46	6292
2026-01-30 17:01:24.38	236.17	43.15	-36.0	-37.2	29.4	3.02e+01	62	41	0	834666496	46	6252
2026-01-30 17:01:25.39	235.88	42.84	-36.1	-37.3	29.4	3.02e+01	58	41	0	836763648	46	6319
2026-01-30 17:01:26.39	235.60	42.55	-35.9	-37.1	29.5	3.02e+01	53	41	0	838336512	46	6181
2026-01-30 17:01:27.40	235.32	42.25	-36.2	-37.4	29.3	3.02e+01	63	41	0	840433664	46	6359
2026-01-30 17:01:28.41	235.04	41.95	-36.3	-37.5	29.3	3.02e+01	59	41	0	842006528	46	6468
2026-01-30 17:01:29.42	234.78	41.66	-36.6	-37.8	29.0	3.02e+01	45	41	0	844103680	46	6691
2026-01-30 17:01:30.43	234.51	41.37	-36.7	-37.9	28.9	3.02e+01	61	41	0	846200832	46	6789
2026-01-30 17:01:31.44	234.25	41.07	-37.2	-38.5	28.4	3.02e+01	58	41	0	847773696	48	6425
2026-01-30 17:01:32.45	234.00	40.78	-37.4	-38.7	28.2	3.02e+01	57	41	0	849870848	48	6582
2026-01-30 17:01:33.46	233.75	40.50	-37.1	-38.4	28.3	3.02e+01	60	41	0	851443712	48	6371
2026-01-30 17:01:34.47	233.51	40.21	-37.1	-38.4	28.4	3.02e+01	48	41	0	853540864	48	6373
2026-01-30 17:01:35.48	233.27	39.93	-37.1	-38.3	28.5	3.02e+01	59	41	0	855638016	48	6330
2026-01-30 17:01:36.49	233.03	39.65	-37.4	-38.7	28.2	3.02e+01	59	41	0	857210880	48	6609
2026-01-30 17:01:37.50	232.80	39.37	-37.6	-38.9	28.0	3.02e+01	46	41	0	859308032	48	6764
2026-01-30 17:01:38.51	232.57	39.09	-37.6	-38.9	28.0	3.02e+01	58	41	0	861405184	48	6732
2026-01-30 17:01:39.52	232.35	38.81	-37.6	-38.9	28.1	3.02e+01	50	41	0	862978048	48	6744
2026-01-30 17:01:40.53	232.13	38.54	-37.7	-38.9	28.0	3.02e+01	54	41	0	865075200	48	6797
2026-01-30 17:01:41.54	231.91	38.26	-37.7	-39.0	28.0	3.02e+01	58	41	0	866648064	48	6866
2026-01-30 17:01:42.55	231.70	37.99	-37.6	-38.9	28.1	3.02e+01	49	41	0	868745216	48	6730
2026-01-30 17:01:43.56	231.49	37.72	-37.3	-38.6	28.2	3.02e+01	61	41	0	870842368	48	6535
2026-01-30 17:01:44.57	231.29	37.46	-37.3	-38.6	28.3	3.02e+01	60	41	0	872415232	48	6511
2026-01-30 17:01:45.58	231.09	37.19	-37.3	-38.6	28.3	3.02e+01	62	41	0	874512384	48	6529
2026-01-30 17:01:46.59	230.89	36.93	-37.5	-38.8	28.1	3.02e+01	59	41	0	876085248	48	6699
2026-01-30 17:01:47.60	230.69	36.67	-37.7	-39.0	27.9	3.02e+01	49	41	0	878182400	48	6879
2026-01-30 17:01:48.60	230.50	36.41	-37.7	-39.0	27.9	3.02e+01	57	41	0	880279552	48	6832
2026-01-30 17:01:49.61	230.31	36.15	-37.4	-38.7	28.2	3.02e+01	57	41	0	881852416	48	6595
2026-01-30 17:01:50.62	230.13	35.89	-37.1	-38.3	28.5	3.02e+01	45	41	0	883949568	48	6322
2026-01-30 17:01:51.63	229.95	35.64	-37.1	-38.3	28.5	3.02e+01	60	41	0	885522432	48	6327
2026-01-30 17:01:52.64	229.77	35.39	-36.9	-38.1	28.7	3.02e+01	59	41	0	887619584	48	6193
2026-01-30 17:01:53.65	229.59	35.14	-36.8	-38.0	28.8	3.02e+01	58	41	0	889716736	48	6131
2026-01-30 17:01:54.66	229.41	34.89	-36.6	-37.9	28.9	3.02e+01	59	41	0	891289600	48	6031
2026-01-30 17:01:55.67	229.24	34.64	-36.4	-37.6	29.1	3.02e+01	57	41	0	893386752	48	5856
2026-01-30 17:01:56.68	229.07	34.40	-36.3	-37.5	29.3	3.02e+01	57	41	0	894959616	48	5731
2026-01-30 17:01:57.69	228.91	34.15	-36.1	-37.3	29.5	3.02e+01	61	41	0	897056768	48	5596
2026-01-30 17:01:58.70	228.74	33.91	-36.1	-37.3	29.4	3.02e+01	52	41	0	899153920	48	5614
2026-01-30 17:01:59.71	228.58	33.67	-36.1	-37.3	29.4	3.02e+01	60	41	0	900726784	48	5640
2026-01-30 17:02:00.72	228.43	33.43	-36.2	-37.4	29.3	3.02e+01	58	41	0	902823936	48	5689
2026-01-30 17:02:01.73	228.27	33.19	-36.0	-37.3	29.4	3.02e+01	59	41	0	904921088	48	5599
2026-01-30 17:02:02.74	228.12	32.96	-35.8	-37.0	29.6	3.02e+01	57	41	0	906493952	46	6124
2026-01-30 17:02:03.74	227.97	32.73	-35.6	-36.7	29.9	3.02e+01	49	41	0	908591104	46	5924
2026-01-30 17:02:04.75	227.82	32.50	-35.5	-36.7	29.9	3.02e+01	57	41	0	910163968	46	5866
2026-01-30 17:02:05.76	227.67	32.27	-35.4	-36.5	30.0	3.02e+01	60	41	0	912261120	46	5789
2026-01-30 17:02:06.77	227.52	32.04	-35.4	-36.6	30.0	3.02e+01	44	41	0	914358272	46	5811
2026-01-30 17:02:07.78	227.38	31.81	-35.3	-36.5	30.1	3.02e+01	56	41	0	915931136	46	5726
2026-01-30 17:02:08.79	227.24	31.59	-35.3	-36.5	30.0	3.02e+01	56	41	0	918028288	46	5755
2026-01-30 17:02:09.80	227.10	31.36	-35.3	-36.5	30.1	3.02e+01	59	41	0	919601152	46	5750
2026-01-30 17:02:10.81	226.97	31.14	-35.4	-36.6	30.0	3.02e+01	60	41	0	921698304	46	5848
2026-01-30 17:02:11.82	226.83	30.92	-35.6	-36.8	29.8	3.02e+01	53	41	0	923795456	46	5972
2026-01-30 17:02:12.83	226.70	30.70	-35.4	-36.6	30.0	3.02e+01	59	41	0	925368320	46	5825
2026-01-30 17:02:13.84	226.57	30.49	-35.6	-36.8	29.8	3.02e+01	63	41	0	927465472	46	5964
2026-01-30 17:02:14.85	226.44	30.27	-35.2	-36.4	30.2	3.02e+01	56	41	0	929562624	46	5681
2026-01-30 17:02:15.86	226.31	30.06	-35.2	-36.3	30.2	3.02e+01	61	41	0	931135488	46	5638
2026-01-30 17:02:16.87	226.19	29.84	-35.3	-36.5	30.0	3.02e+01	61	41	0	933232640	46	5759
2026-01-30 17:02:17.88	226.06	29.63	-35.5	-36.7	29.9	3.02e+01	63	41	0	934805504	46	5920
2026-01-30 17:02:18.89	225.94	29.42	-35.7	-36.9	29.7	3.02e+01	61	41	0	936902656	46	6053
2026-01-30 17:02:19.90	225.82	29.22	-35.6	-36.8	29.7	3.02e+01	50	41	0	938999808	46	5934
2026-01-30 17:02:20.90	225.70	29.01	-35.4	-36.6	29.9	3.02e+01	59	41	0	940572672	46	5814
2026-01-30 17:02:21.92	225.58	28.81	-35.4	-36.5	30.0	3.02e+01	57	41	0	942669824	46	5787
2026-01-30 17:02:22.93	225.47	28.60	-35.3	-36.5	29.9	3.02e+01	59	41	0	944242688	46	5761
2026-01-30 17:02:23.93	225.35	28.40	-35.3	-36.5	29.9	3.02e+01	58	41	0	946339840	46	5755
2026-01-30 17:02:24.94	225.24	28.20	-35.4	-36.5	30.0	3.02e+01	57	41	0	948436992	46	5784
2026-01-30 17:02:25.95	225.13	28.00	-35.5	-36.7	29.9	3.02e+01	59	41	0	950009856	46	5880
2026-01-30 17:02:26.96	225.02	27.80	-35.5	-36.7	29.9	3.02e+01	59	41	0	952107008	46	5908
2026-01-30 17:02:27.97	224.91	27.61	-35.5	-36.7	29.9	3.02e+01	47	41	0	953679872	46	5891
2026-01-30 17:02:28.98	224.81	27.41	-35.5	-36.7	29.9	3.02e+01	58	41	0	955777024	46	5913
2026-01-30 17:02:30.00	224.70	27.22	-35.6	-36.8	29.8	3.02e+01	58	41	0	957874176	46	5944
2026-01-30 17:02:31.00	224.60	27.03	-35.7	-36.9	29.8	3.02e+01	58	41	0	959447040	46	6027
2026-01-30 17:02:32.01	224.49	26.84	-35.9	-37.1	29.5	3.02e+01	59	41	0	961544192	46	6191
2026-01-30 17:02:33.02	224.39	26.65	-35.7	-36.9	29.7	3.02e+01	58	41	0	963117056	46	6058
2026-01-30 17:02:34.03	224.29	26.46	-35.9	-37.1	29.4	3.02e+01	64	41	0	965214208	46	6145
2026-01-30 17:02:35.04	224.19	26.27	-35.7	-36.9	29.6	3.02e+01	60	41	0	967311360	46	6031
2026-01-30 17:02:36.05	224.09	26.09	-35.9	-37.0	29.5	3.02e+01	48	41	0	968884224	46	6134
2026-01-30 17:02:37.06	224.00	25.90	-35.8	-37.0	29.5	3.02e+01	58	41	0	970981376	46	6100
2026-01-30 17:02:38.07	223.90	25.72	-35.9	-37.1	29.5	3.02e+01	64	41	0	973078528	46	6190
2026-01-30 17:02:39.08	223.81	25.54	-36.1	-37.3	29.5	3.02e+01	62	41	0	974651392	46	6290
2026-01-30 17:02:40.09	223.72	25.36	-36.2	-37.4	29.2	3.02e+01	57	41	0	976748544	46	6397
2026-01-30 17:02:41.10	223.62	25.18	-36.0	-37.2	29.4	3.02e+01	46	41	0	978321408	46	6251
2026-01-30 17:02:42.11	223.53	25.00	-36.0	-37.2	29.4	3.02e+01	59	41	0	980418560	46	6259
2026-01-30 17:02:43.12	223.44	24.82	-35.9	-37.1	29.5	3.02e+01	60	41	0	982515712	46	6183
2026-01-30 17:02:44.13	223.36	24.65	-36.1	-37.3	29.3	3.02e+01	45	41	0	984088576	46	6298
2026-01-30 17:02:45.14	223.27	24.47	-36.1	-37.3	29.4	3.02e+01	61	41	0	986185728	46	6321
2026-01-30 17:02:46.15	223.18	24.30	-36.2	-37.4	29.3	3.02e+01	60	41	0	987758592	46	6366
2026-01-30 17:02:47.16	223.10	24.13	-36.2	-37.4	29.3	3.02e+01	60	41	0	989855744	46	6405
2026-01-30 17:02:48.17	223.01	23.96	-36.2	-37.4	29.3	3.02e+01	57	41	0	991952896	46	6380
2026-01-30 17:02:49.18	222.93	23.79	-36.1	-37.3	29.4	3.02e+01	51	41	0	993525760	46	6348
2026-01-30 17:02:50.19	222.85	23.62	-36.2	-37.4	29.3	3.02e+01	60	41	0	995622912	46	6397
2026-01-30 17:02:51.20	222.76	23.45	-36.3	-37.5	29.3	3.02e+01	60	41	0	997720064	46	6456
2026-01-30 17:02:52.21	222.68	23.28	-36.2	-37.4	29.3	3.02e+01	56	41	0	999292928	46	6379
2026-01-30 17:02:53.22	222.60	23.12	-36.3	-37.5	29.1	3.02e+01	61	41	0	1001390080	46	6450
2026-01-30 17:02:54.23	222.52	22.96	-36.3	-37.5	29.2	3.02e+01	52	41	0	1002962944	46	6444
2026-01-30 17:02:55.24	222.45	22.79	-36.2	-37.4	29.3	3.02e+01	57	41	0	1005060096	46	6376
2026-01-30 17:02:56.25	222.37	22.63	-36.0	-37.2	29.4	3.02e+01	60	41	0	1007157248	46	6260
2026-01-30 17:02:57.26	222.29	22.47	-36.0	-37.2	29.4	3.02e+01	45	41	0	1008730112	46	6260
2026-01-30 17:02:58.27	222.22	22.31	-36.1	-37.3	29.4	3.02e+01	58	41	0	1010827264	46	6326
2026-01-30 17:02:59.28	222.14	22.15	-36.1	-37.3	29.3	3.02e+01	57	41	0	1012400128	46	6334
2026-01-30 17:03:00.29	222.07	21.99	-36.1	-37.4	29.2	3.02e+01	57	41	0	1014497280	46	6353
2026-01-30 17:03:01.30	222.00	21.83	-36.2	-37.4	29.3	3.02e+01	59	41	0	1016594432	46	6364
2026-01-30 17:03:02.31	221.92	21.68	-36.2	-37.4	29.3	3.02e+01	60	41	0	1018167296	46	6385
2026-01-30 17:03:03.32	221.85	21.52	-36.4	-37.7	28.9	3.02e+01	53	41	0	1020264448	46	6580
2026-01-30 17:03:04.33	221.78	21.37	-36.2	-37.5	29.2	3.02e+01	59	41	0	1021837312	46	6426
2026-01-30 17:03:05.34	221.71	21.22	-36.4	-37.6	29.0	3.02e+01	46	41	0	1023934464	46	6523
2026-01-30 17:03:06.35	221.64	21.06	-36.3	-37.6	29.0	3.02e+01	61	41	0	1026031616	46	6511
2026-01-30 17:03:07.36	221.58	20.91	-36.5	-37.7	28.8	3.02e+01	60	41	0	1027604480	46	6627
2026-01-30 17:03:08.36	221.51	20.77	-36.5	-37.7	28.9	3.02e+01	58	41	0	1029701632	46	6603
2026-01-30 17:03:09.37	221.44	20.62	-36.2	-37.4	29.1	3.02e+01	57	41	0	1031274496	46	6379
2026-01-30 17:03:10.38	221.38	20.47	-36.1	-37.3	29.3	3.02e+01	61	41	0	1033371648	46	6313
2026-01-30 17:03:11.39	221.31	20.32	-36.0	-37.2	29.3	3.02e+01	61	41	0	1035468800	46	6259
2026-01-30 17:03:12.40	221.25	20.17	-36.2	-37.4	29.3	3.02e+01	57	41	0	1037041664	46	6367
2026-01-30 17:03:13.41	221.18	20.03	-36.1	-37.3	29.3	3.02e+01	46	41	0	1039138816	46	6291
2026-01-30 17:03:14.42	221.12	19.88	-36.1	-37.3	29.3	3.02e+01	62	41	0	1041235968	46	6279
2026-01-30 17:03:15.43	221.06	19.74	-36.1	-37.3	29.4	3.02e+01	60	41	0	1042808832	46	6292
2026-01-30 17:03:16.44	220.99	19.60	-35.9	-37.1	29.4	3.02e+01	60	41	0	1044905984	46	6188
2026-01-30 17:03:17.45	220.93	19.45	-36.0	-37.2	29.3	3.02e+01	60	41	0	1046478848	46	6233
2026-01-30 17:03:18.46	220.87	19.31	-36.1	-37.3	29.3	3.02e+01	47	41	0	1048576000	46	6308
2026-01-30 17:03:19.47	220.81	19.17	-36.0	-37.2	29.3	3.02e+01	60	41	0	1050673152	46	6270
2026-01-30 17:03:20.48	220.75	19.03	-36.0	-37.2	29.3	3.02e+01	59	41	0	1052246016	46	6233
2026-01-30 17:03:21.49	220.69	18.89	-36.0	-37.2	29.4	3.02e+01	48	41	0	1054343168	46	6216
2026-01-30 17:03:22.50	220.64	18.76	-36.0	-37.2	29.3	3.02e+01	58	41	0	1055916032	46	6237
2026-01-30 17:03:23.51	220.58	18.62	-36.1	-37.3	29.3	3.02e+01	49	41	0	1058013184	46	6290
2026-01-30 17:03:24.52	220.52	18.48	-36.0	-37.2	29.3	3.02e+01	59	41	0	1060110336	46	6224
2026-01-30 17:03:25.53	220.46	18.35	-36.0	-37.2	29.3	3.02e+01	59	41	0	1061683200	46	6235
2026-01-30 17:03:26.54	220.41	18.21	-35.8	-37.0	29.4	3.02e+01	56	41	0	1063780352	46	6108
2026-01-30 17:03:27.55	220.35	18.08	-35.9	-37.1	29.4	3.02e+01	59	41	0	1065877504	46	6170
2026-01-30 17:03:28.55	220.30	17.95	-36.0	-37.2	29.4	3.02e+01	59	41	0	1067450368	46	6209
2026-01-30 17:03:29.57	220.24	17.81	-35.8	-37.0	29.5	3.02e+01	59	41	0	1069547520	46	6084
2026-01-30 17:03:30.57	220.19	17.68	-35.9	-37.0	29.3	3.02e+01	59	41	0	1071120384	46	6134
2026-01-30 17:03:31.58	220.14	17.55	-35.9	-37.1	29.3	3.02e+01	48	41	0	1073217536	46	6196
2026-01-30 17:03:32.59	220.08	17.42	-35.9	-37.0	29.4	3.02e+01	59	41	0	1075314688	46	6132
2026-01-30 17:03:33.60	220.03	17.29	-35.8	-37.0	29.4	3.02e+01	57	41	0	1076887552	46	6080
2026-01-30 17:03:34.61	219.98	17.16	-35.8	-37.0	29.5	3.02e+01	44	41	0	1078984704	46	6081
2026-01-30 17:03:35.62	219.93	17.03	-35.9	-37.1	29.3	3.02e+01	63	41	0	1080557568	46	6162
2026-01-30 17:03:36.63	219.88	16.91	-35.8	-37.0	29.4	3.02e+01	57	41	0	1082654720	46	6091
2026-01-30 17:03:37.64	219.83	16.78	-35.9	-37.1	29.3	3.02e+01	58	41	0	1084751872	46	6173
2026-01-30 17:03:38.65	219.78	16.65	-35.9	-37.1	29.4	3.02e+01	59	41	0	1086324736	46	6169
2026-01-30 17:03:39.66	219.73	16.53	-36.0	-37.2	29.1	3.02e+01	48	41	0	1088421888	46	6265
2026-01-30 17:03:40.67	219.68	16.40	-35.9	-37.1	29.4	3.02e+01	59	41	0	1089994752	46	6172
2026-01-30 17:03:41.68	219.63	16.28	-35.9	-37.1	29.3	3.02e+01	57	41	0	1092091904	46	6204
2026-01-30 17:03:42.69	219.58	16.16	-35.9	-37.1	29.4	3.02e+01	45	41	0	1094189056	46	6161
2026-01-30 17:03:43.70	219.53	16.04	-36.1	-37.3	29.2	3.02e+01	56	41	0	1095761920	46	6297
2026-01-30 17:03:44.71	219.49	15.91	-35.9	-37.1	29.4	3.02e+01	62	41	0	1097859072	46	6152
2026-01-30 17:03:45.72	219.44	15.79	-36.0	-37.2	29.3	3.02e+01	59	41	0	1099431936	46	6229
2026-01-30 17:03:46.73	219.39	15.67	-36.0	-37.2	29.3	3.02e+01	58	41	0	1101529088	46	6237
2026-01-30 17:03:47.74	219.35	15.55	-36.0	-37.2	29.2	3.02e+01	50	41	0	1103626240	46	6254
2026-01-30 17:03:48.75	219.30	15.43	-36.2	-37.4	29.0	3.02e+01	56	41	0	1105199104	46	6371
2026-01-30 17:03:49.76	219.26	15.31	-36.0	-37.2	29.3	3.02e+01	63	41	0	1107296256	46	6256
2026-01-30 17:03:50.76	219.21	15.20	-36.0	-37.2	29.3	3.02e+01	44	41	0	1108869120	46	6239
2026-01-30 17:03:51.77	219.17	15.08	-35.9	-37.1	29.4	3.02e+01	59	41	0	1110966272	46	6185
2026-01-30 17:03:52.78	219.12	14.96	-36.0	-37.2	29.2	3.02e+01	59	41	0	1113063424	46	6274
2026-01-30 17:03:53.79	219.08	14.85	-36.0	-37.2	29.2	3.02e+01	61	41	0	1114636288	46	6276
2026-01-30 17:03:54.80	219.04	14.73	-36.0	-37.2	29.2	3.02e+01	62	41	0	1116733440	46	6248
2026-01-30 17:03:55.81	218.99	14.61	-36.0	-37.2	29.2	3.02e+01	51	41	0	1118830592	46	6262
2026-01-30 17:03:56.82	218.95	14.50	-36.1	-37.3	29.1	3.02e+01	61	41	0	1120403456	46	6302
2026-01-30 17:03:57.83	218.91	14.39	-36.1	-37.4	29.1	3.02e+01	60	41	0	1122500608	46	6362
2026-01-30 17:03:58.84	218.87	14.27	-36.1	-37.4	29.1	3.02e+01	56	41	0	1124073472	46	6360
2026-01-30 17:03:59.85	218.83	14.16	-36.2	-37.5	29.1	3.02e+01	58	41	0	1126170624	46	6435
2026-01-30 17:04:00.86	218.79	14.05	-36.2	-37.4	29.1	3.02e+01	38	41	0	1128267776	46	6400
2026-01-30 17:04:01.87	218.75	13.94	-36.0	-37.2	29.2	3.02e+01	60	41	0	1129840640	46	6264
2026-01-30 17:04:02.88	218.70	13.83	-36.0	-37.2	29.2	3.02e+01	60	41	0	1131937792	46	6249
2026-01-30 17:04:03.89	218.67	13.71	-36.0	-37.2	29.2	3.02e+01	53	41	0	1133510656	46	6275
2026-01-30 17:04:04.89	218.63	13.61	-36.1	-37.3	29.2	3.02e+01	59	41	0	1135607808	46	6336
2026-01-30 17:04:05.90	218.59	13.50	-36.2	-37.4	29.0	3.02e+01	59	41	0	1137704960	46	6398
2026-01-30 17:04:06.91	218.55	13.39	-36.2	-37.5	29.0	3.02e+01	57	41	0	1139277824	46	6438
2026-01-30 17:04:07.92	218.51	13.28	-36.0	-37.2	29.3	3.02e+01	59	41	0	1141374976	46	6250
2026-01-30 17:04:08.92	218.47	13.17	-36.0	-37.2	29.1	3.02e+01	45	41	0	1142947840	46	6253
2026-01-30 17:04:09.93	218.43	13.06	-36.1	-37.3	29.1	3.02e+01	57	41	0	1145044992	46	6313
2026-01-30 17:04:10.94	218.40	12.96	-36.1	-37.4	29.1	3.02e+01	58	41	0	1147142144	46	6361
2026-01-30 17:04:11.95	218.36	12.85	-36.2	-37.4	29.0	3.02e+01	44	41	0	1148715008	46	6391
2026-01-30 17:04:12.96	218.32	12.74	-36.1	-37.3	29.0	3.02e+01	58	41	0	1150812160	46	6348
2026-01-30 17:04:13.97	218.29	12.64	-36.2	-37.5	28.9	3.02e+01	59	41	0	1152385024	46	6444
2026-01-30 17:04:14.98	218.25	12.53	-36.2	-37.5	28.9	3.02e+01	58	41	0	1154482176	46	6431
2026-01-30 17:04:15.99	218.21	12.43	-36.3	-37.5	28.9	3.02e+01	58	41	0	1156579328	46	6457
2026-01-30 17:04:16.99	218.18	12.33	-36.3	-37.5	28.7	3.02e+01	56	41	0	1158152192	46	6494
2026-01-30 17:04:18.00	218.14	12.22	-36.2	-37.4	28.9	3.02e+01	61	41	0	1160249344	46	6395
2026-01-30 17:04:19.01	218.11	12.12	-36.4	-37.6	28.7	3.02e+01	56	41	0	1162346496	46	6533
2026-01-30 17:04:20.02	218.07	12.02	-36.1	-37.4	28.9	3.02e+01	46	41	0	1163919360	46	6358
2026-01-30 17:04:21.03	218.04	11.92	-36.1	-37.3	28.9	3.02e+01	62	41	0	1166016512	46	6341
2026-01-30 17:04:22.04	218.00	11.81	-36.2	-37.5	28.8	3.02e+01	58	41	0	1167589376	46	6430
2026-01-30 17:04:23.05	217.97	11.71	-36.1	-37.4	28.9	3.02e+01	56	41	0	1169686528	46	6360
2026-01-30 17:04:24.06	217.94	11.61	-36.2	-37.4	28.9	3.02e+01	59	41	0	1171783680	46	6386
2026-01-30 17:04:25.07	217.90	11.51	-36.2	-37.4	28.9	3.02e+01	47	41	0	1173356544	46	6363
2026-01-30 17:04:26.08	217.87	11.41	-36.2	-37.4	28.9	3.02e+01	59	41	0	1175453696	46	6374
2026-01-30 17:04:27.08	217.84	11.31	-36.1	-37.3	29.1	3.02e+01	63	41	0	1177026560	46	6302
2026-01-30 17:04:28.09	217.80	11.22	-36.1	-37.4	28.9	3.02e+01	48	41	0	1179123712	46	6356
2026-01-30 17:04:29.10	217.77	11.12	-36.2	-37.4	29.0	3.02e+01	56	41	0	1181220864	46	6388
2026-01-30 17:04:30.11	217.74	11.02	-36.1	-37.3	29.0	3.02e+01	64	41	0	1182793728	46	6339
2026-01-30 17:04:31.12	217.71	10.92	-36.1	-37.3	28.9	3.02e+01	59	41	0	1184890880	46	6347
2026-01-30 17:04:32.13	217.67	10.82	-36.1	-37.3	29.0	3.02e+01	61	41	0	1186463744	46	6331
2026-01-30 17:04:33.14	217.64	10.73	-36.2	-37.4	28.9	3.02e+01	52	41	0	1188560896	46	6363
2026-01-30 17:04:34.15	217.61	10.63	-36.3	-37.5	28.8	3.02e+01	57	41	0	1190658048	46	6434
2026-01-30 17:04:35.16	217.58	10.53	-36.2	-37.4	28.8	3.02e+01	60	41	0	1192230912	46	6419
2026-01-30 17:04:36.17	217.55	10.44	-36.3	-37.5	28.7	3.02e+01	56	41	0	1194328064	46	6476
2026-01-30 17:04:37.18	217.52	10.34	-36.4	-37.6	28.7	3.02e+01	58	41	0	1195900928	46	6528
2026-01-30 17:04:38.19	217.49	10.25	-36.3	-37.5	28.8	3.02e+01	53	41	0	1197998080	46	6438
2026-01-30 17:04:39.20	217.46	10.15	-36.4	-37.6	28.7	3.02e+01	59	41	0	1200095232	46	6535
2026-01-30 17:04:40.21	217.43	10.06	-36.5	-37.7	28.7	3.02e+01	58	41	0	1201668096	46	6614
2026-01-30 17:04:41.22	217.40	9.97	-36.5	-37.8	28.6	3.02e+01	49	41	0	1203765248	46	6672
