passes_logs/2026/01/30/R4.6S_Anadyr/R4.6S_Anadyr__20260130_021410_FENGYUN_3D_rec.log

#Pass ID: 20260130_021410_FENGYUN 3D
#Satellite: FENGYUN 3D
#Configuration: FENGYUN 3D
#almurnet v.1.7.20251203
#Start time: 2026-01-30 02:14:11

#Version: 2.2.20231116
#Station: R4.6S_Anadyr
#Location: 177.4865 lon 64.73178 lat
#TLE: 1 43010U 17072A   26029.52179110  .00000394  00000+0  20818-3 0  9997
#TLE: 2 43010  98.9957   1.5649 0002507  83.7772 276.3689 14.19703315425310

#Time	Az	El	Level	Level2	SNR	BER	BlckErr	Temp	State	Recorded	gain1	gain2
2026-01-30 02:14:11.41	154.80	0.07	-46.0	-60.4	3.5	1.51e+00	0	35	0	0	60	42507
2026-01-30 02:14:12.42	154.80	0.13	-49.4	-61.6	3.6	8.45e-01	0	37	104	0	60	43263
2026-01-30 02:14:13.43	154.81	0.19	-49.4	-61.6	3.6	8.45e-01	0	37	104	0	60	43376
2026-01-30 02:14:14.44	154.81	0.25	-49.4	-61.5	3.6	8.45e-01	0	37	104	0	60	43078
2026-01-30 02:14:15.45	154.81	0.31	-49.4	-61.6	3.6	8.45e-01	0	37	104	0	60	43243
2026-01-30 02:14:16.46	154.81	0.37	-49.4	-61.5	3.5	8.46e-01	0	37	104	0	60	43185
2026-01-30 02:14:17.47	154.82	0.44	-49.4	-61.5	3.6	8.46e-01	0	37	104	0	60	43206
2026-01-30 02:14:18.48	154.82	0.50	-49.4	-61.6	3.6	8.45e-01	0	37	104	0	60	43262
2026-01-30 02:14:19.49	154.82	0.56	-49.4	-61.5	3.6	8.46e-01	0	37	104	0	60	43195
2026-01-30 02:14:20.50	154.82	0.62	-49.4	-61.6	3.6	8.45e-01	0	37	104	0	60	43433
2026-01-30 02:14:21.51	154.83	0.68	-49.4	-61.6	3.6	8.45e-01	0	37	104	0	60	43254
2026-01-30 02:14:22.52	154.83	0.75	-49.4	-61.6	3.5	8.46e-01	0	37	104	0	60	43239
2026-01-30 02:14:23.53	154.83	0.81	-49.4	-61.5	3.6	8.46e-01	0	37	104	0	60	43061
2026-01-30 02:14:24.54	154.84	0.87	-49.4	-61.5	3.6	8.45e-01	0	37	104	0	60	43207
2026-01-30 02:14:25.55	154.84	0.93	-49.4	-61.6	3.6	8.45e-01	0	37	104	0	60	43436
2026-01-30 02:14:26.56	154.84	1.00	-49.4	-61.5	3.6	8.46e-01	0	37	104	0	60	43154
2026-01-30 02:14:27.57	154.84	1.06	-49.4	-61.6	3.6	8.45e-01	0	37	104	0	60	43501
2026-01-30 02:14:28.58	154.85	1.12	-49.4	-61.6	3.6	8.44e-01	0	37	104	0	60	43258
2026-01-30 02:14:29.59	154.85	1.18	-49.4	-61.5	3.6	8.44e-01	0	37	104	0	60	43118
2026-01-30 02:14:30.60	154.85	1.25	-49.4	-61.6	3.6	8.46e-01	0	37	104	0	60	43347
2026-01-30 02:14:31.60	154.85	1.31	-49.4	-61.6	3.6	8.45e-01	0	37	104	0	60	43436
2026-01-30 02:14:32.62	154.86	1.37	-49.4	-61.6	3.6	8.47e-01	0	37	104	0	60	43231
2026-01-30 02:14:33.63	154.86	1.44	-49.4	-61.6	3.6	8.45e-01	0	37	104	0	60	43522
2026-01-30 02:14:34.64	154.86	1.50	-49.4	-61.6	3.6	8.44e-01	0	37	104	0	60	43367
2026-01-30 02:14:35.65	154.86	1.57	-49.4	-61.6	3.6	8.45e-01	0	37	104	0	60	43279
2026-01-30 02:14:36.66	154.87	1.63	-49.4	-61.6	3.6	8.45e-01	0	37	104	0	60	43228
2026-01-30 02:14:37.67	154.87	1.69	-49.4	-61.6	3.6	8.46e-01	0	37	104	0	60	43301
2026-01-30 02:14:38.68	154.87	1.76	-49.4	-61.6	3.6	8.44e-01	0	37	104	0	60	43432
2026-01-30 02:14:39.69	154.87	1.82	-49.4	-61.6	3.6	8.45e-01	0	37	104	0	60	43255
2026-01-30 02:14:40.70	154.88	1.89	-49.4	-61.6	3.6	8.45e-01	0	37	104	0	60	43371
2026-01-30 02:14:41.71	154.88	1.95	-49.4	-61.6	3.6	8.47e-01	0	37	104	0	60	43277
2026-01-30 02:14:42.72	154.88	2.02	-49.4	-61.5	3.6	8.45e-01	0	37	104	0	60	43121
2026-01-30 02:14:43.73	154.88	2.08	-49.4	-61.5	3.6	8.45e-01	0	37	104	0	60	43093
2026-01-30 02:14:44.74	154.89	2.15	-49.4	-61.6	3.6	8.45e-01	0	37	104	0	60	43355
2026-01-30 02:14:45.75	154.89	2.21	-49.4	-61.5	3.6	8.44e-01	0	37	104	0	60	43026
2026-01-30 02:14:46.76	154.89	2.28	-49.4	-61.6	3.6	8.45e-01	0	37	104	0	60	43351
2026-01-30 02:14:47.77	154.89	2.34	-49.4	-61.6	3.6	8.45e-01	0	37	104	0	60	43266
2026-01-30 02:14:48.78	154.90	2.41	-49.4	-61.6	3.6	8.46e-01	0	37	104	0	60	43242
2026-01-30 02:14:49.79	154.90	2.48	-49.4	-61.5	3.6	8.46e-01	0	37	104	0	60	43173
2026-01-30 02:14:50.80	154.90	2.54	-49.4	-61.6	3.6	8.46e-01	0	37	104	0	60	43393
2026-01-30 02:14:51.81	154.90	2.61	-49.4	-61.6	3.6	8.46e-01	0	37	104	0	60	43367
2026-01-30 02:14:52.82	154.91	2.67	-49.4	-61.6	3.6	8.45e-01	0	37	104	0	60	43284
2026-01-30 02:14:53.83	154.91	2.74	-49.4	-61.6	3.6	8.45e-01	0	37	104	0	60	43391
2026-01-30 02:14:54.84	154.91	2.81	-49.4	-61.6	3.6	8.44e-01	0	37	104	0	60	43401
2026-01-30 02:14:55.85	154.91	2.87	-49.4	-61.6	3.6	8.46e-01	0	38	104	0	60	43620
2026-01-30 02:14:56.86	154.92	2.94	-49.4	-61.6	3.6	8.45e-01	0	37	104	0	60	43268
2026-01-30 02:14:57.87	154.92	3.01	-49.4	-61.5	3.6	8.46e-01	0	37	104	0	60	43203
2026-01-30 02:14:58.88	154.92	3.08	-49.4	-61.6	3.6	8.45e-01	0	37	104	0	60	43247
2026-01-30 02:14:59.89	154.92	3.14	-49.4	-61.6	3.6	8.45e-01	0	37	104	0	60	43356
2026-01-30 02:15:00.90	154.93	3.21	-49.4	-61.6	3.6	8.46e-01	0	37	104	0	60	43333
2026-01-30 02:15:01.91	154.93	3.28	-49.4	-61.5	3.6	8.46e-01	0	37	104	0	60	43169
2026-01-30 02:15:02.92	154.93	3.35	-49.4	-61.6	3.5	8.45e-01	0	38	104	0	60	43302
2026-01-30 02:15:03.93	154.93	3.42	-49.4	-61.6	3.6	8.45e-01	0	37	104	0	60	43349
2026-01-30 02:15:04.94	154.94	3.48	-49.4	-61.6	3.6	8.45e-01	0	38	104	0	60	43341
2026-01-30 02:15:05.95	154.94	3.55	-49.4	-61.6	3.6	8.46e-01	0	37	104	0	60	43341
2026-01-30 02:15:06.96	154.94	3.62	-49.4	-61.5	3.6	8.44e-01	0	38	104	0	60	43172
2026-01-30 02:15:07.97	154.94	3.69	-49.4	-61.6	3.6	8.45e-01	0	38	104	0	60	43249
2026-01-30 02:15:08.98	154.95	3.76	-49.4	-61.6	3.6	8.44e-01	0	37	104	0	60	43332
2026-01-30 02:15:09.99	154.95	3.83	-49.4	-61.6	3.6	8.45e-01	0	37	104	0	60	43262
2026-01-30 02:15:11.00	154.95	3.90	-49.4	-61.5	3.6	8.46e-01	0	38	104	0	60	43028
2026-01-30 02:15:12.01	154.95	3.97	-49.4	-61.6	3.6	8.44e-01	0	37	104	0	60	43299
2026-01-30 02:15:13.02	154.96	4.04	-49.4	-61.6	3.6	8.46e-01	0	38	104	0	60	43427
2026-01-30 02:15:14.03	154.96	4.11	-49.4	-61.6	3.6	8.46e-01	0	37	104	0	60	43328
2026-01-30 02:15:15.04	154.96	4.18	-49.4	-61.6	3.6	8.45e-01	0	38	104	0	60	43229
2026-01-30 02:15:16.05	154.96	4.25	-49.4	-61.5	3.6	8.45e-01	0	38	104	0	60	43197
2026-01-30 02:15:17.06	154.96	4.32	-49.4	-61.6	3.6	8.45e-01	0	38	104	0	60	43393
2026-01-30 02:15:18.07	154.97	4.39	-49.4	-61.5	3.6	8.45e-01	0	38	104	0	60	43107
2026-01-30 02:15:19.08	154.97	4.46	-49.4	-61.6	3.6	8.45e-01	0	38	104	0	60	43319
2026-01-30 02:15:20.09	154.97	4.53	-49.4	-61.6	3.6	8.45e-01	0	38	104	0	60	43216
2026-01-30 02:15:21.10	154.97	4.60	-49.4	-61.6	3.6	8.46e-01	0	38	104	0	60	43226
2026-01-30 02:15:22.11	154.98	4.67	-49.4	-61.6	3.6	8.46e-01	0	38	104	0	60	43462
2026-01-30 02:15:23.12	154.98	4.75	-49.4	-61.5	3.6	8.45e-01	0	38	104	0	60	43201
2026-01-30 02:15:24.13	154.98	4.82	-49.4	-61.6	3.6	8.44e-01	0	38	104	0	60	43384
2026-01-30 02:15:25.14	154.98	4.89	-49.4	-61.6	3.6	8.46e-01	0	38	104	0	60	43381
2026-01-30 02:15:26.15	154.99	4.96	-49.4	-61.6	3.6	8.45e-01	0	38	104	0	60	43477
2026-01-30 02:15:27.16	154.99	5.03	-49.4	-61.6	3.6	8.46e-01	0	38	104	0	60	43425
2026-01-30 02:15:28.17	154.99	5.11	-49.4	-61.6	3.6	8.45e-01	0	38	104	0	60	43258
2026-01-30 02:15:29.18	154.99	5.18	-49.4	-61.6	3.6	8.45e-01	0	38	104	0	60	43500
2026-01-30 02:15:30.19	155.00	5.25	-49.4	-61.6	3.6	8.45e-01	0	38	104	0	60	43258
2026-01-30 02:15:31.20	155.00	5.33	-49.4	-61.6	3.6	8.45e-01	0	38	104	0	60	43324
2026-01-30 02:15:32.21	155.00	5.40	-49.4	-61.6	3.6	8.46e-01	0	38	104	0	60	43320
2026-01-30 02:15:33.21	155.00	5.47	-49.4	-61.6	3.6	8.45e-01	0	38	104	0	60	43334
2026-01-30 02:15:34.23	155.01	5.55	-49.4	-61.6	3.6	8.46e-01	0	38	104	0	60	43282
2026-01-30 02:15:35.24	155.01	5.62	-49.4	-61.6	3.6	8.44e-01	0	38	104	0	60	43315
2026-01-30 02:15:36.25	155.01	5.70	-49.4	-61.6	3.6	8.44e-01	0	38	104	0	60	43386
2026-01-30 02:15:37.26	155.01	5.77	-49.4	-61.6	3.6	8.46e-01	0	38	104	0	60	43490
2026-01-30 02:15:38.27	155.01	5.84	-49.4	-61.6	3.6	8.44e-01	0	38	104	0	60	43502
2026-01-30 02:15:39.28	155.02	5.92	-49.4	-61.6	3.6	8.46e-01	0	38	104	0	60	43495
2026-01-30 02:15:40.29	155.02	5.99	-49.4	-61.6	3.6	8.46e-01	0	38	104	0	60	43368
2026-01-30 02:15:41.30	155.02	6.07	-49.4	-61.6	3.6	8.44e-01	0	38	104	0	60	43225
2026-01-30 02:15:42.31	155.02	6.15	-49.4	-61.6	3.6	8.45e-01	0	38	104	0	60	43433
2026-01-30 02:15:43.32	155.03	6.22	-49.4	-61.6	3.6	8.45e-01	0	38	104	0	60	43525
2026-01-30 02:15:44.33	155.03	6.30	-49.4	-61.6	3.6	8.46e-01	0	38	104	0	60	43289
2026-01-30 02:15:45.34	155.03	6.37	-49.4	-61.6	3.6	8.45e-01	0	38	104	0	60	43314
2026-01-30 02:15:46.35	155.03	6.45	-49.4	-61.6	3.6	8.46e-01	0	38	104	0	60	43279
2026-01-30 02:15:47.36	155.04	6.53	-49.4	-61.6	3.6	8.46e-01	0	38	104	0	60	43484
2026-01-30 02:15:48.37	155.04	6.60	-49.4	-61.6	3.6	8.44e-01	0	38	104	0	60	43476
2026-01-30 02:15:49.38	155.04	6.68	-49.4	-61.5	3.6	8.46e-01	0	38	104	0	60	43184
2026-01-30 02:15:50.39	155.04	6.76	-49.4	-61.6	3.6	8.46e-01	0	38	104	0	60	43377
2026-01-30 02:15:51.41	155.05	6.84	-49.4	-61.6	3.6	8.45e-01	0	38	104	0	60	43370
2026-01-30 02:15:52.42	155.05	6.92	-49.4	-61.6	3.6	8.45e-01	0	38	104	0	60	43338
2026-01-30 02:15:53.43	155.05	6.99	-49.4	-61.6	3.6	8.45e-01	0	38	104	0	60	43442
2026-01-30 02:15:54.44	155.05	7.07	-49.4	-61.5	3.5	8.45e-01	0	38	104	0	60	43171
2026-01-30 02:15:55.45	155.05	7.15	-49.4	-61.6	3.6	8.45e-01	0	38	104	0	60	43291
2026-01-30 02:15:56.46	155.06	7.23	-49.4	-61.5	3.5	8.45e-01	0	38	104	0	60	43139
2026-01-30 02:15:57.47	155.06	7.31	-49.4	-61.6	3.6	8.45e-01	0	38	104	0	60	43303
2026-01-30 02:15:58.48	155.06	7.39	-49.4	-61.6	3.6	8.45e-01	0	38	104	0	60	43440
2026-01-30 02:15:59.49	155.06	7.47	-49.4	-61.6	3.6	8.44e-01	0	38	104	0	60	43260
2026-01-30 02:16:00.50	155.07	7.55	-49.4	-61.6	3.6	8.45e-01	0	38	104	0	60	43396
2026-01-30 02:16:01.51	155.07	7.63	-49.4	-61.6	3.6	8.46e-01	0	38	104	0	60	43418
2026-01-30 02:16:02.52	155.07	7.71	-49.4	-61.6	3.6	8.45e-01	0	38	104	0	60	43393
2026-01-30 02:16:03.53	155.07	7.79	-49.4	-61.6	3.6	8.46e-01	0	38	104	0	60	43321
2026-01-30 02:16:04.54	155.07	7.87	-49.4	-61.5	3.6	8.46e-01	0	38	104	0	60	43158
2026-01-30 02:16:05.55	155.08	7.95	-49.4	-61.6	3.6	8.45e-01	0	38	104	0	60	43520
2026-01-30 02:16:06.56	155.08	8.03	-49.4	-61.6	3.6	8.44e-01	0	38	104	0	60	43272
2026-01-30 02:16:07.57	155.08	8.11	-49.4	-61.6	3.6	8.45e-01	0	38	104	0	60	43335
2026-01-30 02:16:08.58	155.08	8.19	-49.4	-61.6	3.6	8.45e-01	0	38	104	0	60	43419
2026-01-30 02:16:09.59	155.09	8.28	-49.4	-61.5	3.6	8.45e-01	0	38	104	0	60	43067
2026-01-30 02:16:10.60	155.09	8.36	-49.4	-61.6	3.6	8.47e-01	0	38	104	0	60	43418
2026-01-30 02:16:11.61	155.09	8.44	-49.4	-61.6	3.6	8.47e-01	0	38	104	0	60	43351
2026-01-30 02:16:12.62	155.09	8.52	-49.4	-61.6	3.6	8.46e-01	0	38	104	0	60	43335
2026-01-30 02:16:13.63	155.09	8.61	-49.4	-61.6	3.6	8.46e-01	0	38	104	0	60	43355
2026-01-30 02:16:14.64	155.10	8.69	-49.4	-61.6	3.6	8.44e-01	0	38	104	0	60	43374
2026-01-30 02:16:15.65	155.10	8.78	-49.4	-61.6	3.6	8.46e-01	0	38	104	0	60	43400
2026-01-30 02:16:16.66	155.10	8.86	-49.4	-61.5	3.6	8.45e-01	0	38	104	0	60	43152
2026-01-30 02:16:17.67	155.10	8.94	-49.4	-61.6	3.6	8.45e-01	0	38	104	0	60	43591
2026-01-30 02:16:18.68	155.11	9.03	-49.4	-61.6	3.6	8.46e-01	0	38	104	0	60	43305
2026-01-30 02:16:19.69	155.11	9.11	-49.4	-61.6	3.6	8.44e-01	0	38	104	0	60	43533
2026-01-30 02:16:20.70	155.11	9.20	-49.4	-61.6	3.6	8.45e-01	0	38	104	0	60	43519
2026-01-30 02:16:21.71	155.11	9.28	-49.4	-61.6	3.6	8.45e-01	0	38	104	0	60	43470
2026-01-30 02:16:22.72	155.11	9.37	-49.4	-61.5	3.6	8.47e-01	0	38	104	0	60	43134
2026-01-30 02:16:23.73	155.12	9.46	-49.4	-61.6	3.6	8.46e-01	0	38	104	0	60	43483
2026-01-30 02:16:24.74	155.12	9.54	-49.4	-61.6	3.6	8.45e-01	0	38	104	0	60	43215
2026-01-30 02:16:25.75	155.12	9.63	-49.4	-61.6	3.6	8.44e-01	0	38	104	0	60	43594
2026-01-30 02:16:26.76	155.12	9.72	-49.4	-61.6	3.6	8.46e-01	0	38	104	0	60	43538
2026-01-30 02:16:27.77	155.12	9.80	-49.4	-61.5	3.6	8.44e-01	0	38	104	0	60	43128
2026-01-30 02:16:28.78	155.13	9.89	-49.4	-61.6	3.6	8.45e-01	0	38	104	0	60	43433
2026-01-30 02:16:29.79	155.13	9.98	-49.4	-61.6	3.6	8.45e-01	0	38	104	0	60	43512
2026-01-30 02:16:30.80	155.13	10.07	-49.4	-61.6	3.6	8.45e-01	0	38	104	0	60	43494
2026-01-30 02:16:31.81	155.13	10.16	-49.4	-61.6	3.6	8.45e-01	0	38	104	0	60	43298
2026-01-30 02:16:32.82	155.13	10.25	-49.4	-61.6	3.6	8.44e-01	0	38	104	0	60	43298
2026-01-30 02:16:33.83	155.14	10.33	-49.4	-61.6	3.6	8.47e-01	0	38	104	0	60	43462
2026-01-30 02:16:34.84	155.14	10.42	-49.4	-61.6	3.6	8.45e-01	0	38	104	0	60	43482
2026-01-30 02:16:35.85	155.14	10.51	-49.4	-61.6	3.6	8.45e-01	0	38	104	0	60	43511
2026-01-30 02:16:36.86	155.14	10.60	-49.4	-61.6	3.6	8.46e-01	0	38	104	0	60	43345
2026-01-30 02:16:37.87	155.14	10.70	-49.4	-61.6	3.6	8.45e-01	0	38	104	0	60	43352
2026-01-30 02:16:38.88	155.15	10.79	-49.4	-61.6	3.6	8.46e-01	0	38	104	0	60	43480
2026-01-30 02:16:39.89	155.15	10.88	-49.4	-61.6	3.6	8.45e-01	0	38	104	0	60	43424
2026-01-30 02:16:40.90	155.15	10.97	-49.4	-61.6	3.5	8.46e-01	0	38	104	0	60	43324
2026-01-30 02:16:41.91	155.15	11.06	-49.4	-61.6	3.6	8.46e-01	0	38	104	0	60	43577
2026-01-30 02:16:42.92	155.15	11.15	-49.4	-61.6	3.6	8.46e-01	0	38	104	0	60	43330
2026-01-30 02:16:43.93	155.16	11.25	-49.4	-61.6	3.6	8.45e-01	0	38	104	0	60	43306
2026-01-30 02:16:44.95	155.16	11.34	-49.4	-61.6	3.6	8.46e-01	0	38	104	0	60	43502
2026-01-30 02:16:45.96	155.16	11.43	-49.4	-61.6	3.6	8.46e-01	0	38	104	0	60	43309
2026-01-30 02:16:46.96	155.16	11.53	-49.4	-61.5	3.6	8.44e-01	0	38	104	0	60	43201
2026-01-30 02:16:47.98	155.16	11.62	-49.4	-61.6	3.6	8.45e-01	0	38	104	0	60	43636
2026-01-30 02:16:48.99	155.17	11.71	-49.4	-61.6	3.6	8.46e-01	0	38	104	0	60	43318
2026-01-30 02:16:50.00	155.17	11.81	-49.4	-61.6	3.6	8.45e-01	0	38	104	0	60	43233
2026-01-30 02:16:51.01	155.17	11.90	-49.4	-61.6	3.6	8.45e-01	0	38	104	0	60	43590
2026-01-30 02:16:52.02	155.17	12.00	-49.4	-61.5	3.6	8.46e-01	0	38	104	0	60	43197
2026-01-30 02:16:53.03	155.17	12.10	-49.4	-61.6	3.6	8.46e-01	0	38	104	0	60	43568
2026-01-30 02:16:54.04	155.18	12.19	-49.4	-61.6	3.6	8.45e-01	0	38	104	0	60	43296
2026-01-30 02:16:55.05	155.18	12.29	-49.4	-61.6	3.6	8.45e-01	0	38	104	0	60	43480
2026-01-30 02:16:56.06	155.18	12.39	-49.4	-61.6	3.6	8.45e-01	0	38	104	0	60	43460
2026-01-30 02:16:57.07	155.18	12.48	-49.4	-61.6	3.6	8.45e-01	0	38	104	0	60	43502
2026-01-30 02:16:58.08	155.18	12.58	-49.4	-61.6	3.6	8.45e-01	0	38	104	0	60	43457
2026-01-30 02:16:59.09	155.19	12.68	-49.4	-61.6	3.6	8.46e-01	0	38	104	0	60	43426
2026-01-30 02:17:00.10	155.19	12.78	-49.4	-61.6	3.6	8.46e-01	0	38	104	0	60	43462
2026-01-30 02:17:01.11	155.19	12.88	-49.4	-61.6	3.6	8.45e-01	0	38	104	0	60	43562
2026-01-30 02:17:02.12	155.19	12.98	-49.4	-61.6	3.6	8.45e-01	0	38	104	0	60	43341
2026-01-30 02:17:03.13	155.19	13.08	-49.4	-61.5	3.6	8.46e-01	0	38	104	0	60	43163
2026-01-30 02:17:04.14	155.19	13.18	-49.4	-61.6	3.6	8.46e-01	0	38	104	0	60	43633
2026-01-30 02:17:05.15	155.20	13.28	-49.4	-61.6	3.6	8.45e-01	0	38	104	0	60	43427
2026-01-30 02:17:06.16	155.20	13.38	-49.4	-61.6	3.6	8.45e-01	0	38	104	0	60	43522
2026-01-30 02:17:07.17	155.20	13.48	-49.4	-61.6	3.6	8.45e-01	0	38	104	0	60	43496
2026-01-30 02:17:08.18	155.20	13.58	-49.4	-61.6	3.6	8.45e-01	0	38	104	0	60	43539
2026-01-30 02:17:09.20	155.20	13.69	-49.4	-61.6	3.6	8.45e-01	0	38	104	0	60	43356
2026-01-30 02:17:10.21	155.21	13.79	-49.4	-61.6	3.6	8.44e-01	0	38	104	0	60	43349
2026-01-30 02:17:11.22	155.21	13.89	-49.4	-61.6	3.6	8.45e-01	0	38	104	0	60	43368
2026-01-30 02:17:12.23	155.21	14.00	-49.4	-61.6	3.6	8.46e-01	0	38	104	0	60	43313
2026-01-30 02:17:13.24	155.21	14.10	-49.4	-61.6	3.6	8.45e-01	0	38	104	0	60	43456
2026-01-30 02:17:14.25	155.21	14.20	-49.4	-61.6	3.6	8.45e-01	0	38	104	0	60	43514
2026-01-30 02:17:15.26	155.21	14.31	-49.4	-61.6	3.6	8.45e-01	0	38	104	0	60	43302
2026-01-30 02:17:16.27	155.22	14.41	-49.4	-61.6	3.6	8.44e-01	0	38	104	0	60	43435
2026-01-30 02:17:17.28	155.22	14.52	-49.4	-61.6	3.6	8.44e-01	0	38	104	0	60	43468
2026-01-30 02:17:18.29	155.22	14.63	-49.4	-61.6	3.6	8.45e-01	0	38	104	0	60	43430
2026-01-30 02:17:19.30	155.22	14.73	-49.4	-61.6	3.6	8.45e-01	0	38	104	0	60	43424
2026-01-30 02:17:20.31	155.22	14.84	-49.4	-61.6	3.6	8.45e-01	0	38	104	0	60	43340
2026-01-30 02:17:21.32	155.22	14.95	-49.4	-61.6	3.6	8.44e-01	0	38	104	0	60	43462
2026-01-30 02:17:22.33	155.23	15.06	-49.4	-61.6	3.5	8.45e-01	0	38	104	0	60	43520
2026-01-30 02:17:23.34	155.23	15.17	-49.4	-61.6	3.6	8.45e-01	0	38	104	0	60	43449
2026-01-30 02:17:24.35	155.23	15.28	-49.4	-61.6	3.6	8.46e-01	0	38	104	0	60	43477
2026-01-30 02:17:25.36	155.23	15.38	-49.4	-61.6	3.6	8.46e-01	0	38	104	0	60	43490
2026-01-30 02:17:26.37	155.23	15.50	-49.4	-61.6	3.6	8.45e-01	0	38	104	0	60	43332
2026-01-30 02:17:27.38	155.23	15.61	-49.4	-61.6	3.6	8.45e-01	0	38	104	0	60	43211
2026-01-30 02:17:28.39	155.23	15.72	-49.4	-61.6	3.6	8.46e-01	0	38	104	0	60	43480
2026-01-30 02:17:29.41	155.24	15.83	-49.4	-61.6	3.6	8.45e-01	0	38	104	0	60	43477
2026-01-30 02:17:30.42	155.24	15.94	-49.4	-61.6	3.6	8.45e-01	0	38	104	0	60	43493
2026-01-30 02:17:31.43	155.24	16.06	-49.4	-61.6	3.6	8.46e-01	0	38	104	0	60	43469
2026-01-30 02:17:32.44	155.24	16.17	-49.4	-61.6	3.6	8.46e-01	0	38	104	0	60	43480
2026-01-30 02:17:33.45	155.24	16.28	-49.4	-61.6	3.6	8.45e-01	0	38	104	0	60	43456
2026-01-30 02:17:34.46	155.24	16.40	-49.4	-61.6	3.6	8.45e-01	0	38	104	0	60	43471
2026-01-30 02:17:35.47	155.24	16.51	-49.4	-61.6	3.6	8.45e-01	0	38	104	0	60	43517
2026-01-30 02:17:36.48	155.25	16.63	-49.4	-61.6	3.6	8.46e-01	0	38	104	0	60	43503
2026-01-30 02:17:37.49	155.25	16.74	-49.4	-61.6	3.6	8.46e-01	0	38	104	0	60	43434
2026-01-30 02:17:38.50	155.25	16.86	-49.4	-61.6	3.6	8.45e-01	0	38	104	0	60	43600
2026-01-30 02:17:39.51	155.25	16.98	-49.4	-61.6	3.6	8.45e-01	0	38	104	0	60	43291
2026-01-30 02:17:40.52	155.25	17.10	-49.4	-61.6	3.6	8.46e-01	0	38	104	0	60	43427
2026-01-30 02:17:41.53	155.25	17.21	-49.4	-61.6	3.6	8.44e-01	0	38	104	0	60	43490
2026-01-30 02:17:42.54	155.25	17.33	-49.4	-61.6	3.6	8.45e-01	0	38	104	0	60	43446
2026-01-30 02:17:43.55	155.26	17.45	-49.4	-61.6	3.6	8.45e-01	0	38	104	0	60	43484
2026-01-30 02:17:44.56	155.26	17.57	-49.4	-61.6	3.6	8.45e-01	0	38	104	0	60	43317
2026-01-30 02:17:45.57	155.26	17.69	-49.4	-61.6	3.6	8.46e-01	0	38	104	0	60	43639
2026-01-30 02:17:46.58	155.26	17.81	-49.4	-61.6	3.6	8.44e-01	0	38	104	0	60	43343
2026-01-30 02:17:47.59	155.26	17.94	-49.4	-61.6	3.6	8.45e-01	0	38	104	0	60	43584
2026-01-30 02:17:48.60	155.26	18.06	-49.4	-61.6	3.6	8.46e-01	0	38	104	0	60	43475
2026-01-30 02:17:49.61	155.26	18.18	-49.4	-61.6	3.6	8.46e-01	0	38	104	0	60	43469
2026-01-30 02:17:50.62	155.26	18.30	-49.4	-61.6	3.6	8.45e-01	0	38	104	0	60	43379
2026-01-30 02:17:51.63	155.27	18.43	-49.4	-61.6	3.6	8.46e-01	0	38	104	0	60	43444
2026-01-30 02:17:52.64	155.27	18.55	-49.4	-61.6	3.6	8.45e-01	0	38	104	0	60	43446
2026-01-30 02:17:53.65	155.27	18.68	-49.4	-61.6	3.6	8.45e-01	0	38	104	0	60	43519
2026-01-30 02:17:54.66	155.27	18.81	-49.4	-61.6	3.6	8.45e-01	0	38	104	0	60	43337
2026-01-30 02:17:55.67	155.27	18.93	-49.4	-61.6	3.6	8.45e-01	0	38	104	0	60	43315
2026-01-30 02:17:56.68	155.27	19.06	-49.4	-61.6	3.6	8.45e-01	0	38	104	0	60	43466
2026-01-30 02:17:57.69	155.27	19.19	-49.4	-61.6	3.6	8.45e-01	0	38	104	0	60	43449
2026-01-30 02:17:58.70	155.27	19.32	-49.4	-61.6	3.6	8.46e-01	0	38	104	0	60	43642
2026-01-30 02:17:59.71	155.27	19.45	-49.4	-61.6	3.6	8.46e-01	0	38	104	0	60	43353
2026-01-30 02:18:00.72	155.27	19.58	-49.4	-61.6	3.6	8.45e-01	0	38	104	0	60	43281
2026-01-30 02:18:01.73	155.28	19.71	-49.4	-61.5	3.6	8.45e-01	0	38	104	0	60	43184
2026-01-30 02:18:02.74	155.28	19.84	-49.4	-61.5	3.6	8.47e-01	0	38	104	0	60	43200
2026-01-30 02:18:03.75	155.28	19.97	-49.4	-61.6	3.6	8.45e-01	0	38	104	0	60	43603
2026-01-30 02:18:04.76	155.28	20.10	-49.4	-61.6	3.6	8.45e-01	0	38	104	0	60	43478
2026-01-30 02:18:05.77	155.28	20.24	-49.4	-61.6	3.6	8.46e-01	0	38	104	0	60	43364
2026-01-30 02:18:06.78	155.28	20.37	-49.4	-61.6	3.6	8.47e-01	0	38	104	0	60	43248
2026-01-30 02:18:07.79	155.28	20.51	-49.4	-61.6	3.6	8.45e-01	0	38	104	0	60	43369
2026-01-30 02:18:08.80	155.28	20.64	-49.4	-61.6	3.6	8.44e-01	0	38	104	0	60	43301
2026-01-30 02:18:09.81	155.28	20.78	-49.4	-61.6	3.6	8.45e-01	0	38	104	0	60	43442
2026-01-30 02:18:10.82	155.28	20.92	-49.4	-61.6	3.6	8.47e-01	0	38	104	0	60	43309
2026-01-30 02:18:11.83	155.28	21.06	-49.4	-61.6	3.6	8.46e-01	0	38	104	0	60	43504
2026-01-30 02:18:12.84	155.28	21.20	-49.4	-61.6	3.6	8.45e-01	0	38	104	0	60	43476
2026-01-30 02:18:13.85	155.29	21.33	-49.4	-61.6	3.6	8.46e-01	0	38	104	0	60	43269
2026-01-30 02:18:14.86	155.29	21.48	-49.4	-61.6	3.6	8.46e-01	0	38	104	0	60	43553
2026-01-30 02:18:15.87	155.29	21.62	-49.4	-61.6	3.6	8.46e-01	0	38	104	0	60	43373
2026-01-30 02:18:16.88	155.29	21.76	-49.4	-61.6	3.6	8.46e-01	0	38	104	0	60	43339
2026-01-30 02:18:17.89	155.29	21.90	-49.4	-61.6	3.6	8.45e-01	0	38	104	0	60	43444
2026-01-30 02:18:18.90	155.29	22.05	-49.4	-61.6	3.6	8.45e-01	0	38	104	0	60	43553
2026-01-30 02:18:19.91	155.29	22.19	-49.4	-61.6	3.6	8.46e-01	0	38	104	0	60	43450
2026-01-30 02:18:20.92	155.29	22.33	-49.4	-61.6	3.6	8.45e-01	0	38	104	0	60	43423
2026-01-30 02:18:21.93	155.29	22.48	-49.4	-61.6	3.6	8.45e-01	0	38	104	0	60	43419
2026-01-30 02:18:22.94	155.29	22.63	-49.4	-61.6	3.6	8.46e-01	0	38	104	0	60	43450
2026-01-30 02:18:23.95	155.29	22.78	-49.4	-61.6	3.6	8.44e-01	0	38	104	0	60	43569
2026-01-30 02:18:24.96	155.29	22.92	-49.4	-61.6	3.6	8.45e-01	0	38	104	0	60	43642
2026-01-30 02:18:25.97	155.29	23.07	-49.4	-61.6	3.6	8.45e-01	0	38	104	0	60	43385
2026-01-30 02:18:26.98	155.29	23.22	-49.4	-61.6	3.6	8.46e-01	0	38	104	0	60	43299
2026-01-30 02:18:27.99	155.29	23.38	-49.4	-61.6	3.6	8.45e-01	0	38	104	0	60	43368
2026-01-30 02:18:29.00	155.29	23.53	-49.4	-61.6	3.6	8.45e-01	0	38	104	0	60	43538
2026-01-30 02:18:30.01	155.29	23.68	-49.4	-61.6	3.5	8.46e-01	0	38	104	0	60	43545
2026-01-30 02:18:31.02	155.29	23.83	-49.4	-61.6	3.6	8.45e-01	0	38	104	0	60	43570
2026-01-30 02:18:32.03	155.29	23.99	-49.4	-61.6	3.5	8.45e-01	0	38	104	0	60	43336
2026-01-30 02:18:33.04	155.29	24.15	-49.4	-61.6	3.6	8.46e-01	0	38	104	0	60	43591
2026-01-30 02:18:34.06	155.29	24.30	-49.4	-61.6	3.6	8.44e-01	0	38	104	0	60	43341
2026-01-30 02:18:35.07	155.29	24.46	-49.4	-61.6	3.6	8.45e-01	0	38	104	0	60	43414
2026-01-30 02:18:36.07	155.29	24.62	-49.4	-61.6	3.6	8.45e-01	0	38	104	0	60	43333
2026-01-30 02:18:37.08	155.29	24.78	-49.4	-61.6	3.6	8.44e-01	0	38	104	0	60	43591
2026-01-30 02:18:38.09	155.29	24.94	-49.4	-61.6	3.6	8.45e-01	0	38	104	0	60	43382
2026-01-30 02:18:39.11	155.29	25.10	-49.4	-61.6	3.6	8.46e-01	0	38	104	0	60	43585
2026-01-30 02:18:40.12	155.29	25.26	-49.4	-61.7	3.6	8.44e-01	0	38	104	0	60	43860
2026-01-30 02:18:41.13	155.29	25.43	-49.4	-61.6	3.6	8.45e-01	0	38	104	0	60	43363
2026-01-30 02:18:42.14	155.29	25.59	-49.4	-61.6	3.6	8.45e-01	0	38	104	0	60	43389
2026-01-30 02:18:43.15	155.29	25.76	-49.4	-61.6	3.6	8.45e-01	0	38	104	0	60	43527
2026-01-30 02:18:44.16	155.29	25.93	-49.4	-61.6	3.6	8.44e-01	0	38	104	0	60	43387
2026-01-30 02:18:45.17	155.29	26.09	-49.4	-61.6	3.6	8.44e-01	0	38	104	0	60	43669
2026-01-30 02:18:46.18	155.29	26.26	-49.4	-61.5	3.6	8.43e-01	0	38	104	0	60	43169
2026-01-30 02:18:47.19	155.29	26.43	-49.4	-61.6	3.6	8.45e-01	0	38	104	0	60	43280
2026-01-30 02:18:48.20	155.29	26.60	-49.4	-61.6	3.6	8.46e-01	0	38	104	0	60	43269
2026-01-30 02:18:49.21	155.29	26.77	-49.4	-61.6	3.6	8.45e-01	0	38	104	0	60	43344
2026-01-30 02:18:50.22	155.29	26.95	-49.5	-61.6	3.6	8.45e-01	0	38	104	0	60	43527
2026-01-30 02:18:51.23	155.29	27.12	-49.4	-61.6	3.6	8.45e-01	0	38	104	0	60	43401
2026-01-30 02:18:52.24	155.29	27.30	-49.4	-61.5	3.6	8.45e-01	0	38	104	0	60	43200
2026-01-30 02:18:53.25	155.29	27.47	-49.4	-61.6	3.6	8.45e-01	0	38	104	0	60	43437
2026-01-30 02:18:54.26	155.29	27.65	-49.4	-61.5	3.6	8.46e-01	0	38	104	0	60	43194
2026-01-30 02:18:55.27	155.29	27.83	-49.4	-61.6	3.6	8.45e-01	0	38	104	0	60	43522
2026-01-30 02:18:56.28	155.29	28.01	-49.4	-61.6	3.6	8.46e-01	0	38	104	0	60	43453
2026-01-30 02:18:57.29	155.29	28.19	-49.4	-61.6	3.6	8.46e-01	0	38	104	0	60	43270
2026-01-30 02:18:58.30	155.28	28.37	-49.5	-61.6	3.6	8.45e-01	0	38	104	0	60	43509
2026-01-30 02:18:59.31	155.28	28.56	-49.4	-61.6	3.6	8.44e-01	0	38	104	0	60	43407
2026-01-30 02:19:00.32	155.28	28.74	-49.4	-61.6	3.6	8.45e-01	0	38	104	0	60	43349
2026-01-30 02:19:01.33	155.28	28.93	-49.4	-61.6	3.6	8.46e-01	0	38	104	0	60	43384
2026-01-30 02:19:02.34	155.28	29.12	-49.4	-61.6	3.6	8.45e-01	0	38	104	0	60	43400
2026-01-30 02:19:03.35	155.28	29.30	-49.4	-61.6	3.6	8.45e-01	0	38	104	0	60	43637
2026-01-30 02:19:04.36	155.28	29.49	-49.4	-61.6	3.6	8.45e-01	0	38	104	0	60	43468
2026-01-30 02:19:05.37	155.28	29.68	-49.5	-61.6	3.6	8.46e-01	0	38	104	0	60	43446
2026-01-30 02:19:06.38	155.28	29.88	-49.5	-61.6	3.6	8.46e-01	0	38	104	0	60	43624
2026-01-30 02:19:07.39	155.27	30.07	-49.4	-61.6	3.6	8.46e-01	0	38	104	0	60	43454
2026-01-30 02:19:08.40	155.27	30.27	-49.4	-61.6	3.6	8.46e-01	0	38	104	0	60	43366
2026-01-30 02:19:09.41	155.27	30.46	-49.4	-61.6	3.6	8.45e-01	0	38	104	0	60	43530
2026-01-30 02:19:10.42	155.27	30.66	-49.4	-61.5	3.6	8.45e-01	0	38	104	0	60	43182
2026-01-30 02:19:11.43	155.27	30.86	-49.4	-61.6	3.6	8.45e-01	0	38	104	0	60	43264
2026-01-30 02:19:12.44	155.27	31.06	-49.4	-61.5	3.6	8.45e-01	0	38	104	0	60	43147
2026-01-30 02:19:13.45	155.27	31.26	-49.4	-61.6	3.6	8.47e-01	0	38	104	0	60	43361
2026-01-30 02:19:14.46	155.26	31.46	-49.4	-61.6	3.6	8.45e-01	0	38	104	0	60	43313
2026-01-30 02:19:15.47	155.26	31.67	-49.5	-61.6	3.6	8.45e-01	0	38	104	0	60	43362
2026-01-30 02:19:16.48	155.26	31.87	-49.4	-61.6	3.6	8.45e-01	0	38	104	0	60	43354
2026-01-30 02:19:17.49	155.26	32.08	-49.4	-61.6	3.6	8.45e-01	0	38	104	0	60	43412
2026-01-30 02:19:18.50	155.26	32.29	-49.4	-61.6	3.6	8.48e-01	0	38	104	0	60	43472
2026-01-30 02:19:19.51	155.25	32.50	-49.4	-61.6	3.6	8.45e-01	0	38	104	0	60	43443
2026-01-30 02:19:20.52	155.25	32.71	-49.4	-61.6	3.6	8.46e-01	0	38	104	0	60	43605
2026-01-30 02:19:21.53	155.25	32.93	-49.4	-61.6	3.6	8.45e-01	0	38	104	0	60	43510
2026-01-30 02:19:22.54	155.25	33.14	-49.5	-61.6	3.6	8.45e-01	0	38	104	0	60	43476
2026-01-30 02:19:23.55	155.24	33.36	-49.4	-61.6	3.6	8.44e-01	0	38	104	0	60	43382
2026-01-30 02:19:24.56	155.24	33.57	-49.4	-61.6	3.6	8.44e-01	0	38	104	0	60	43466
2026-01-30 02:19:25.57	155.24	33.79	-49.4	-61.6	3.6	8.45e-01	0	38	104	0	60	43295
2026-01-30 02:19:26.58	155.24	34.02	-49.4	-61.6	3.6	8.46e-01	0	38	104	0	60	43451
2026-01-30 02:19:27.59	155.23	34.24	-49.4	-61.6	3.6	8.45e-01	0	38	104	0	60	43440
2026-01-30 02:19:28.60	155.23	34.46	-49.4	-61.6	3.6	8.45e-01	0	38	104	0	60	43437
2026-01-30 02:19:29.61	155.23	34.69	-49.4	-61.6	3.6	8.46e-01	0	38	104	0	60	43553
2026-01-30 02:19:30.62	155.23	34.92	-49.4	-61.6	3.6	8.45e-01	0	38	104	0	60	43391
2026-01-30 02:19:31.63	155.22	35.14	-49.4	-61.6	3.6	8.45e-01	0	38	104	0	60	43474
2026-01-30 02:19:32.64	155.22	35.38	-49.4	-61.6	3.5	8.46e-01	0	38	104	0	60	43569
2026-01-30 02:19:33.66	155.22	35.61	-49.5	-61.6	3.5	8.45e-01	0	38	104	0	60	43420
2026-01-30 02:19:34.67	155.21	35.84	-49.4	-61.6	3.6	8.46e-01	0	38	104	0	60	43319
2026-01-30 02:19:35.68	155.21	36.08	-49.4	-61.6	3.6	8.45e-01	0	38	104	0	60	43377
2026-01-30 02:19:36.69	155.21	36.32	-49.5	-61.6	3.6	8.45e-01	0	38	104	0	60	43442
2026-01-30 02:19:37.70	155.20	36.56	-49.4	-61.6	3.6	8.45e-01	0	38	104	0	60	43542
2026-01-30 02:19:38.71	155.20	36.80	-49.4	-61.6	3.6	8.46e-01	0	38	104	0	60	43433
2026-01-30 02:19:39.72	155.19	37.04	-49.4	-61.6	3.6	8.47e-01	0	38	104	0	60	43561
2026-01-30 02:19:40.72	155.19	37.28	-49.4	-61.6	3.6	8.45e-01	0	38	104	0	60	43477
2026-01-30 02:19:41.73	155.19	37.53	-49.4	-61.6	3.6	8.46e-01	0	38	104	0	60	43487
2026-01-30 02:19:42.74	155.18	37.78	-49.4	-61.6	3.6	8.46e-01	0	38	104	0	60	43282
2026-01-30 02:19:43.75	155.18	38.03	-49.4	-61.6	3.6	8.45e-01	0	38	104	0	60	43563
2026-01-30 02:19:44.76	155.17	38.28	-49.4	-61.6	3.6	8.46e-01	0	38	104	0	60	43393
2026-01-30 02:19:45.77	155.17	38.54	-49.4	-61.6	3.6	8.45e-01	0	38	104	0	60	43256
2026-01-30 02:19:46.78	155.16	38.79	-49.4	-61.6	3.6	8.45e-01	0	38	104	0	60	43435
2026-01-30 02:19:47.79	155.16	39.05	-49.5	-61.7	3.6	8.45e-01	0	38	104	0	60	43794
2026-01-30 02:19:48.80	155.15	39.31	-49.4	-61.6	3.6	8.46e-01	0	38	104	0	60	43394
2026-01-30 02:19:49.81	155.15	39.57	-49.4	-61.6	3.6	8.43e-01	0	38	104	0	60	43544
2026-01-30 02:19:50.82	155.14	39.84	-49.5	-61.6	3.6	8.46e-01	0	38	104	0	60	43665
2026-01-30 02:19:51.83	155.14	40.10	-49.4	-61.6	3.6	8.46e-01	0	38	104	0	60	43555
2026-01-30 02:19:52.85	155.13	40.37	-49.4	-61.6	3.6	8.45e-01	0	38	104	0	60	43528
2026-01-30 02:19:53.86	155.13	40.64	-49.4	-61.6	3.6	8.45e-01	0	38	104	0	60	43275
2026-01-30 02:19:54.87	155.12	40.91	-49.4	-61.6	3.6	8.45e-01	0	38	104	0	60	43318
2026-01-30 02:19:55.88	155.11	41.19	-49.4	-61.6	3.6	8.46e-01	0	38	104	0	60	43597
2026-01-30 02:19:56.89	155.11	41.46	-49.4	-61.6	3.6	8.46e-01	0	38	104	0	60	43506
2026-01-30 02:19:57.90	155.10	41.74	-49.4	-61.6	3.6	8.45e-01	0	38	104	0	60	43472
2026-01-30 02:19:58.91	155.09	42.02	-49.5	-61.6	3.6	8.46e-01	0	38	104	0	60	43468
2026-01-30 02:19:59.92	155.09	42.31	-49.4	-61.6	3.6	8.45e-01	0	38	104	0	60	43337
2026-01-30 02:20:00.92	155.08	42.59	-49.4	-61.6	3.6	8.45e-01	0	38	104	0	60	43393
2026-01-30 02:20:01.93	155.07	42.87	-49.4	-61.6	3.6	8.45e-01	0	38	104	0	60	43500
2026-01-30 02:20:02.94	155.07	43.16	-49.4	-61.6	3.6	8.45e-01	0	38	104	0	60	43406
2026-01-30 02:20:03.95	155.06	43.46	-49.4	-61.6	3.6	8.45e-01	0	38	104	0	60	43277
2026-01-30 02:20:04.96	155.05	43.75	-49.4	-61.6	3.6	8.45e-01	0	38	104	0	60	43429
2026-01-30 02:20:05.97	155.04	44.04	-49.4	-61.6	3.6	8.45e-01	0	38	104	0	60	43347
2026-01-30 02:20:06.99	155.03	44.35	-49.4	-61.6	3.6	8.46e-01	0	38	104	0	60	43582
2026-01-30 02:20:08.00	155.03	44.65	-49.4	-61.6	3.6	8.44e-01	0	38	104	0	60	43382
2026-01-30 02:20:09.01	155.02	44.95	-49.4	-61.6	3.6	8.46e-01	0	38	104	0	60	43489
2026-01-30 02:20:10.02	155.01	45.25	-49.4	-61.6	3.6	8.46e-01	0	38	104	0	60	43480
2026-01-30 02:20:11.03	155.00	45.56	-49.4	-61.6	3.6	8.45e-01	0	38	104	0	60	43567
2026-01-30 02:20:12.04	154.99	45.87	-49.4	-61.6	3.6	8.45e-01	0	39	104	0	60	43393
2026-01-30 02:20:13.05	154.98	46.18	-49.5	-61.6	3.6	8.44e-01	0	38	104	0	60	43524
2026-01-30 02:20:14.06	154.97	46.50	-49.4	-61.6	3.6	8.44e-01	0	38	104	0	60	43382
2026-01-30 02:20:15.07	154.96	46.81	-49.4	-61.6	3.6	8.46e-01	0	38	104	0	60	43293
2026-01-30 02:20:16.08	154.95	47.13	-49.4	-61.6	3.6	8.44e-01	0	38	104	0	60	43533
2026-01-30 02:20:17.09	154.94	47.45	-49.4	-61.6	3.6	8.46e-01	0	38	104	0	60	43394
2026-01-30 02:20:18.10	154.93	47.78	-49.4	-61.6	3.6	8.45e-01	0	38	104	0	60	43229
2026-01-30 02:20:19.11	154.92	48.11	-49.4	-61.6	3.6	8.45e-01	0	38	104	0	60	43377
2026-01-30 02:20:20.12	154.91	48.43	-49.4	-61.6	3.6	8.45e-01	0	38	104	0	60	43565
2026-01-30 02:20:21.13	154.89	48.77	-49.4	-61.6	3.6	8.45e-01	0	38	104	0	60	43426
2026-01-30 02:20:22.14	154.88	49.10	-49.4	-61.6	3.6	8.45e-01	0	38	104	0	60	43221
2026-01-30 02:20:23.15	154.87	49.44	-49.4	-61.6	3.6	8.44e-01	0	38	104	0	60	43690
2026-01-30 02:20:24.16	154.86	49.78	-49.4	-61.6	3.6	8.45e-01	0	38	104	0	60	43448
2026-01-30 02:20:25.17	154.84	50.12	-49.4	-61.5	3.6	8.46e-01	0	38	104	0	60	43166
2026-01-30 02:20:26.18	154.83	50.46	-49.4	-61.6	3.6	8.44e-01	0	38	104	0	60	43278
2026-01-30 02:20:27.19	154.81	50.81	-49.4	-61.6	3.6	8.45e-01	0	38	104	0	60	43372
2026-01-30 02:20:28.20	154.80	51.16	-49.4	-61.6	3.6	8.45e-01	0	38	104	0	60	43451
2026-01-30 02:20:29.21	154.78	51.51	-49.4	-61.6	3.6	8.44e-01	0	39	104	0	60	43410
2026-01-30 02:20:30.22	154.77	51.86	-49.4	-61.6	3.6	8.45e-01	0	38	104	0	60	43403
2026-01-30 02:20:31.23	154.75	52.22	-49.4	-61.6	3.6	8.46e-01	0	38	104	0	60	43369
2026-01-30 02:20:32.24	154.74	52.58	-49.4	-61.6	3.6	8.46e-01	0	38	104	0	60	43514
2026-01-30 02:20:33.25	154.72	52.94	-49.4	-61.6	3.6	8.45e-01	0	38	104	0	60	43430
2026-01-30 02:20:34.26	154.70	53.31	-49.4	-61.6	3.6	8.45e-01	0	38	104	0	60	43342
2026-01-30 02:20:35.27	154.68	53.68	-49.4	-61.6	3.6	8.45e-01	0	38	104	0	60	43370
2026-01-30 02:20:36.28	154.67	54.05	-49.4	-61.6	3.6	8.46e-01	0	38	104	0	60	43595
2026-01-30 02:20:37.29	154.65	54.42	-49.4	-61.6	3.6	8.44e-01	0	38	104	0	60	43410
2026-01-30 02:20:38.30	154.63	54.80	-49.4	-61.6	3.6	8.45e-01	0	38	104	0	60	43433
2026-01-30 02:20:39.31	154.61	55.18	-49.4	-61.6	3.6	8.45e-01	0	38	104	0	60	43354
2026-01-30 02:20:40.32	154.59	55.56	-49.4	-61.6	3.6	8.45e-01	0	38	104	0	60	43517
2026-01-30 02:20:41.33	154.56	55.94	-49.4	-61.6	3.6	8.45e-01	0	38	104	0	60	43562
2026-01-30 02:20:42.34	154.54	56.33	-49.4	-61.6	3.6	8.46e-01	0	38	104	0	60	43363
2026-01-30 02:20:43.35	154.52	56.72	-49.4	-61.6	3.6	8.45e-01	0	38	104	0	60	43401
2026-01-30 02:20:44.36	154.49	57.11	-49.4	-61.6	3.6	8.44e-01	0	38	104	0	60	43365
2026-01-30 02:20:45.37	154.47	57.50	-49.4	-61.6	3.6	8.45e-01	0	38	104	0	60	43401
2026-01-30 02:20:46.39	154.44	57.91	-49.5	-61.6	3.6	8.46e-01	0	38	104	0	60	43481
2026-01-30 02:20:47.39	154.42	58.30	-49.4	-61.6	3.6	8.45e-01	0	38	104	0	60	43515
2026-01-30 02:20:48.40	154.39	58.70	-49.4	-61.6	3.6	8.46e-01	0	38	104	0	60	43363
2026-01-30 02:20:49.41	154.36	59.11	-49.4	-61.6	3.5	8.45e-01	0	38	104	0	60	43281
2026-01-30 02:20:50.42	154.33	59.52	-49.4	-61.5	3.6	8.45e-01	0	38	104	0	60	42952
2026-01-30 02:20:51.43	154.30	59.93	-49.4	-61.6	3.6	8.46e-01	0	38	104	0	60	43246
2026-01-30 02:20:52.44	154.27	60.34	-49.4	-61.5	3.6	8.45e-01	0	38	104	0	60	43041
2026-01-30 02:20:53.45	154.24	60.76	-49.4	-61.5	3.6	8.45e-01	0	38	104	0	60	42987
2026-01-30 02:20:54.46	154.20	61.18	-49.5	-61.6	3.6	8.45e-01	0	38	104	0	60	43354
2026-01-30 02:20:55.47	154.17	61.60	-49.4	-61.6	3.6	8.45e-01	0	38	104	0	60	43486
2026-01-30 02:20:56.48	154.13	62.03	-49.4	-61.6	3.6	8.46e-01	0	38	104	0	60	43521
2026-01-30 02:20:57.49	154.09	62.45	-49.4	-61.6	3.6	8.46e-01	0	38	104	0	60	43273
2026-01-30 02:20:58.50	154.05	62.88	-49.4	-61.6	3.6	8.46e-01	0	38	104	0	60	43338
2026-01-30 02:20:59.51	154.01	63.32	-49.4	-61.6	3.6	8.46e-01	0	38	104	0	60	43373
2026-01-30 02:21:00.52	153.97	63.75	-49.4	-61.6	3.6	8.45e-01	0	38	104	0	60	43592
2026-01-30 02:21:01.53	153.93	64.19	-49.5	-61.6	3.5	8.45e-01	0	38	104	0	60	43637
2026-01-30 02:21:02.54	153.88	64.63	-49.4	-61.6	3.6	8.46e-01	0	38	104	0	60	43318
2026-01-30 02:21:03.55	153.83	65.07	-49.4	-61.6	3.6	8.46e-01	0	38	104	0	60	43696
2026-01-30 02:21:04.56	153.78	65.52	-49.4	-61.6	3.6	8.46e-01	0	38	104	0	60	43452
2026-01-30 02:21:05.57	153.73	65.96	-49.4	-61.5	3.6	8.45e-01	0	38	104	0	60	43092
2026-01-30 02:21:06.58	153.67	66.42	-49.4	-61.5	3.6	8.45e-01	0	38	104	0	60	42849
2026-01-30 02:21:07.59	153.62	66.87	-49.4	-61.6	3.6	8.45e-01	0	38	104	0	60	43239
2026-01-30 02:21:08.60	153.56	67.32	-49.4	-61.6	3.6	8.46e-01	0	38	104	0	60	43448
2026-01-30 02:21:09.61	153.49	67.78	-49.4	-61.6	3.6	8.45e-01	0	38	104	0	60	43492
2026-01-30 02:21:10.62	153.43	68.24	-49.4	-61.6	3.6	8.45e-01	0	38	104	0	60	43267
2026-01-30 02:21:11.63	153.36	68.70	-49.4	-61.6	3.6	8.45e-01	0	38	104	0	60	43494
2026-01-30 02:21:12.64	153.28	69.17	-49.4	-61.6	3.6	8.45e-01	0	38	104	0	60	43431
2026-01-30 02:21:13.66	153.21	69.64	-49.4	-61.6	3.6	8.45e-01	0	38	104	0	60	43320
2026-01-30 02:21:14.67	153.13	70.11	-49.4	-61.6	3.6	8.46e-01	0	38	104	0	60	43286
2026-01-30 02:21:15.68	153.04	70.58	-49.5	-61.6	3.6	8.46e-01	0	38	104	0	60	43532
2026-01-30 02:21:16.69	152.95	71.06	-49.4	-61.6	3.6	8.47e-01	0	38	104	0	60	43215
2026-01-30 02:21:17.70	152.86	71.53	-49.4	-61.6	3.6	8.45e-01	0	38	104	0	60	43295
2026-01-30 02:21:18.71	152.76	72.01	-49.4	-61.5	3.6	8.46e-01	0	38	104	0	60	42923
2026-01-30 02:21:19.72	152.65	72.49	-49.4	-61.6	3.6	8.45e-01	0	39	104	0	60	43319
2026-01-30 02:21:20.73	152.54	72.97	-49.4	-61.6	3.6	8.45e-01	0	39	104	0	60	43374
2026-01-30 02:21:21.74	152.41	73.46	-49.4	-61.6	3.6	8.45e-01	0	38	104	0	60	43331
2026-01-30 02:21:22.75	152.29	73.94	-49.4	-61.5	3.6	8.45e-01	0	38	104	0	60	43130
2026-01-30 02:21:23.76	152.15	74.43	-49.5	-61.5	3.6	8.45e-01	0	39	104	0	60	43005
2026-01-30 02:21:24.77	152.00	74.92	-49.5	-61.6	3.6	8.45e-01	0	38	104	0	60	43550
2026-01-30 02:21:25.78	151.85	75.41	-49.4	-61.5	3.6	8.45e-01	0	38	104	0	60	43181
2026-01-30 02:21:26.79	151.68	75.91	-49.4	-61.6	3.6	8.46e-01	0	38	104	0	60	43319
2026-01-30 02:21:27.80	151.50	76.40	-49.4	-61.6	3.6	8.46e-01	0	38	104	0	60	43502
2026-01-30 02:21:28.81	151.30	76.90	-49.4	-61.6	3.6	8.45e-01	0	38	104	0	60	43263
2026-01-30 02:21:29.82	151.09	77.39	-49.4	-61.5	3.6	8.45e-01	0	38	104	0	60	43026
2026-01-30 02:21:30.83	150.86	77.89	-49.4	-61.5	3.6	8.45e-01	0	38	104	0	60	43076
2026-01-30 02:21:31.84	150.61	78.39	-49.4	-61.4	3.6	8.45e-01	0	38	104	0	60	42602
2026-01-30 02:21:32.85	150.33	78.90	-49.4	-61.4	3.6	8.46e-01	0	38	104	0	60	42379
2026-01-30 02:21:33.86	150.03	79.40	-49.4	-61.3	3.6	8.45e-01	0	38	104	0	60	42123
2026-01-30 02:21:34.87	149.70	79.90	-49.4	-61.4	3.6	8.45e-01	0	39	104	0	60	42356
2026-01-30 02:21:35.88	149.33	80.41	-49.4	-61.4	3.6	8.45e-01	0	38	104	0	60	42282
2026-01-30 02:21:36.90	148.91	80.92	-49.4	-61.5	3.5	8.44e-01	0	38	104	0	60	43106
2026-01-30 02:21:37.91	148.45	81.42	-49.4	-61.6	3.6	8.45e-01	0	38	104	0	60	43279
2026-01-30 02:21:38.92	147.93	81.93	-49.4	-61.6	3.6	8.46e-01	0	38	104	0	60	43410
2026-01-30 02:21:39.93	147.34	82.44	-49.4	-61.5	3.6	8.46e-01	0	38	104	0	60	42907
2026-01-30 02:21:40.94	146.66	82.95	-49.4	-61.6	3.6	8.45e-01	0	38	104	0	60	43289
2026-01-30 02:21:41.95	145.88	83.45	-49.4	-61.5	3.6	8.46e-01	0	38	104	0	60	43106
2026-01-30 02:21:42.96	144.96	83.96	-49.4	-61.5	3.6	8.45e-01	0	38	104	0	60	43085
2026-01-30 02:21:43.97	143.87	84.46	-49.4	-61.4	3.6	8.45e-01	0	39	104	0	60	42528
2026-01-30 02:21:44.98	142.56	84.97	-49.4	-61.4	3.6	8.44e-01	0	38	104	0	60	42386
2026-01-30 02:21:45.99	140.96	85.47	-49.4	-61.6	3.6	8.45e-01	0	39	104	0	60	43222
2026-01-30 02:21:47.00	138.97	85.97	-49.4	-61.6	3.6	8.44e-01	0	38	104	0	60	43443
2026-01-30 02:21:48.01	136.41	86.46	-49.4	-61.6	3.6	8.44e-01	0	38	104	0	60	43422
2026-01-30 02:21:49.02	133.03	86.94	-49.4	-61.6	3.6	8.45e-01	0	38	104	0	60	43282
2026-01-30 02:21:50.03	128.41	87.41	-49.4	-61.5	3.6	8.46e-01	0	38	104	0	60	42784
2026-01-30 02:21:51.04	121.82	87.85	-49.4	-61.5	3.6	8.45e-01	0	38	104	0	60	42895
2026-01-30 02:21:52.05	112.00	88.25	-49.4	-61.6	3.6	8.45e-01	0	38	104	0	60	43476
2026-01-30 02:21:53.06	97.09	88.58	-49.4	-61.6	3.6	8.45e-01	0	38	104	0	60	43498
2026-01-30 02:21:54.07	75.91	88.76	-49.4	-61.6	3.6	8.45e-01	0	38	104	0	60	43349
2026-01-30 02:21:55.08	52.01	88.73	-49.4	-61.6	3.6	8.45e-01	0	39	104	0	60	43341
2026-01-30 02:21:56.09	32.23	88.51	-49.4	-61.6	3.6	8.47e-01	0	38	104	0	60	43422
2026-01-30 02:21:57.10	18.70	88.16	-49.4	-61.5	3.6	8.46e-01	0	38	104	0	60	43195
2026-01-30 02:21:58.11	9.79	87.75	-49.4	-61.6	3.6	8.47e-01	0	38	104	0	60	43263
2026-01-30 02:21:59.12	3.75	87.30	-49.4	-61.5	3.6	8.45e-01	0	38	104	0	60	43089
2026-01-30 02:22:00.13	359.47	86.83	-49.4	-61.4	3.5	8.45e-01	0	38	104	0	60	42450
2026-01-30 02:22:01.14	356.32	86.34	-49.4	-61.5	3.6	8.45e-01	0	38	104	0	60	42844
2026-01-30 02:22:02.15	353.91	85.85	-49.4	-61.5	3.6	8.45e-01	0	38	104	0	60	43078
2026-01-30 02:22:03.16	352.02	85.35	-49.4	-61.5	3.6	8.45e-01	0	39	104	0	60	43184
2026-01-30 02:22:04.17	350.50	84.85	-49.4	-61.3	3.6	8.45e-01	0	38	104	0	60	42156
2026-01-30 02:22:05.18	349.25	84.35	-49.4	-61.2	3.5	8.45e-01	0	38	104	0	60	41619
2026-01-30 02:22:06.19	348.21	83.84	-49.4	-61.6	3.6	8.44e-01	0	38	104	0	60	43367
2026-01-30 02:22:07.20	347.32	83.34	-49.4	-61.6	3.6	8.46e-01	0	38	104	0	60	43613
2026-01-30 02:22:08.21	346.57	82.83	-49.4	-61.6	3.6	8.46e-01	0	38	104	0	60	43474
2026-01-30 02:22:09.22	345.91	82.32	-49.4	-61.5	3.6	8.45e-01	0	38	104	0	60	43176
2026-01-30 02:22:10.23	345.34	81.82	-49.4	-61.5	3.6	8.45e-01	0	38	104	0	60	42999
2026-01-30 02:22:11.24	344.83	81.31	-49.4	-61.6	3.6	8.46e-01	0	38	104	0	60	43306
2026-01-30 02:22:12.25	344.38	80.80	-49.4	-61.5	3.5	8.45e-01	0	38	104	0	60	43066
2026-01-30 02:22:13.26	343.98	80.30	-49.4	-61.5	3.6	8.44e-01	0	38	104	0	60	43190
2026-01-30 02:22:14.27	343.62	79.79	-49.4	-61.6	3.6	8.46e-01	0	39	104	0	60	43282
2026-01-30 02:22:15.28	343.29	79.29	-49.4	-61.6	3.6	8.45e-01	0	38	104	0	60	43248
2026-01-30 02:22:16.29	343.00	78.79	-49.5	-61.6	3.6	8.45e-01	0	38	104	0	60	43397
2026-01-30 02:22:17.30	342.73	78.29	-49.4	-61.6	3.6	8.46e-01	0	38	104	0	60	43472
2026-01-30 02:22:18.31	342.48	77.79	-49.4	-61.6	3.6	8.46e-01	0	38	104	0	60	43530
2026-01-30 02:22:19.32	342.26	77.29	-49.4	-61.6	3.6	8.47e-01	0	38	104	0	60	43251
2026-01-30 02:22:20.33	342.05	76.79	-49.4	-61.6	3.6	8.45e-01	0	38	104	0	60	43296
2026-01-30 02:22:21.34	341.86	76.30	-49.5	-61.6	3.6	8.45e-01	0	38	104	0	60	43385
2026-01-30 02:22:22.35	341.68	75.80	-49.4	-61.5	3.6	8.45e-01	0	38	104	0	60	43202
2026-01-30 02:22:23.36	341.51	75.31	-49.4	-61.6	3.6	8.46e-01	0	38	104	0	60	43284
2026-01-30 02:22:24.37	341.36	74.82	-49.4	-61.5	3.6	8.44e-01	0	38	104	0	60	43029
2026-01-30 02:22:25.38	341.21	74.33	-49.4	-61.5	3.6	8.45e-01	0	38	104	0	60	43037
2026-01-30 02:22:26.39	341.08	73.84	-49.5	-61.6	3.6	8.46e-01	0	38	104	0	60	43382
2026-01-30 02:22:27.40	340.95	73.36	-49.4	-61.7	3.6	8.45e-01	0	38	104	0	60	43839
2026-01-30 02:22:28.41	340.83	72.88	-49.5	-61.6	3.6	8.46e-01	0	38	104	0	60	43508
2026-01-30 02:22:29.43	340.72	72.39	-49.5	-61.6	3.5	8.45e-01	0	38	104	0	60	43355
2026-01-30 02:22:30.43	340.62	71.92	-49.4	-61.6	3.6	8.45e-01	0	38	104	0	60	43566
2026-01-30 02:22:31.44	340.52	71.44	-49.4	-61.6	3.6	8.46e-01	0	38	104	0	60	43229
2026-01-30 02:22:32.46	340.42	70.96	-49.4	-61.6	3.6	8.45e-01	0	38	104	0	60	43494
2026-01-30 02:22:33.47	340.33	70.49	-49.5	-61.5	3.6	8.45e-01	0	38	104	0	60	43044
2026-01-30 02:22:34.48	340.25	70.02	-49.4	-61.6	3.6	8.45e-01	0	38	104	0	60	43349
2026-01-30 02:22:35.49	340.17	69.55	-49.5	-61.6	3.6	8.45e-01	0	38	104	0	60	43516
2026-01-30 02:22:36.50	340.09	69.08	-49.5	-61.6	3.6	8.45e-01	0	38	104	0	60	43269
2026-01-30 02:22:37.51	340.02	68.62	-49.4	-61.6	3.6	8.47e-01	0	39	104	0	60	43276
2026-01-30 02:22:38.52	339.95	68.16	-49.4	-61.5	3.6	8.45e-01	0	38	104	0	60	43095
2026-01-30 02:22:39.53	339.89	67.70	-49.4	-61.5	3.6	8.46e-01	0	38	104	0	60	43063
2026-01-30 02:22:40.54	339.83	67.24	-49.5	-61.6	3.6	8.44e-01	0	39	104	0	60	43316
2026-01-30 02:22:41.55	339.77	66.79	-49.4	-61.6	3.6	8.45e-01	0	38	104	0	60	43453
2026-01-30 02:22:42.56	339.71	66.34	-49.4	-61.6	3.6	8.45e-01	0	38	104	0	60	43444
2026-01-30 02:22:43.57	339.66	65.89	-49.4	-61.6	3.6	8.45e-01	0	39	104	0	60	43463
2026-01-30 02:22:44.58	339.60	65.44	-49.4	-61.6	3.6	8.47e-01	0	39	104	0	60	43599
2026-01-30 02:22:45.59	339.55	65.00	-49.4	-61.6	3.6	8.45e-01	0	39	104	0	60	43481
2026-01-30 02:22:46.60	339.51	64.56	-49.4	-61.6	3.6	8.44e-01	0	38	104	0	60	43347
2026-01-30 02:22:47.61	339.46	64.12	-49.5	-61.6	3.6	8.46e-01	0	38	104	0	60	43541
2026-01-30 02:22:48.62	339.42	63.68	-49.4	-61.6	3.6	8.44e-01	0	38	104	0	60	43450
2026-01-30 02:22:49.63	339.37	63.25	-49.4	-61.6	3.6	8.46e-01	0	38	104	0	60	43342
2026-01-30 02:22:50.64	339.33	62.82	-49.4	-61.6	3.6	8.45e-01	0	39	104	0	60	43440
2026-01-30 02:22:51.65	339.29	62.39	-49.4	-61.6	3.6	8.45e-01	0	38	104	0	60	43422
2026-01-30 02:22:52.66	339.26	61.96	-49.4	-61.6	3.6	8.46e-01	0	39	104	0	60	43572
2026-01-30 02:22:53.67	339.22	61.54	-49.4	-61.6	3.6	8.46e-01	0	38	104	0	60	43310
2026-01-30 02:22:54.68	339.19	61.12	-49.4	-61.6	3.6	8.45e-01	0	38	104	0	60	43282
2026-01-30 02:22:55.70	339.15	60.70	-49.4	-61.6	3.6	8.45e-01	0	39	104	0	60	43454
2026-01-30 02:22:56.71	339.12	60.28	-49.4	-61.6	3.6	8.47e-01	0	38	104	0	60	43363
2026-01-30 02:22:57.72	339.09	59.87	-49.4	-61.6	3.6	8.47e-01	0	39	104	0	60	43452
2026-01-30 02:22:58.73	339.06	59.46	-49.4	-61.6	3.6	8.44e-01	0	39	104	0	60	43320
2026-01-30 02:22:59.74	339.03	59.06	-49.4	-61.6	3.6	8.45e-01	0	38	104	0	60	43493
2026-01-30 02:23:00.75	339.00	58.65	-49.4	-61.6	3.6	8.45e-01	0	39	104	0	60	43434
2026-01-30 02:23:01.76	338.98	58.25	-49.4	-61.6	3.6	8.45e-01	0	38	104	0	60	43483
2026-01-30 02:23:02.77	338.95	57.85	-49.4	-61.6	3.6	8.45e-01	0	38	104	0	60	43434
2026-01-30 02:23:03.78	338.92	57.46	-49.4	-61.6	3.6	8.45e-01	0	38	104	0	60	43553
2026-01-30 02:23:04.79	338.90	57.06	-49.4	-61.6	3.6	8.45e-01	0	39	104	0	60	43529
2026-01-30 02:23:05.80	338.88	56.67	-49.4	-61.6	3.6	8.45e-01	0	39	104	0	60	43625
2026-01-30 02:23:06.81	338.85	56.28	-49.4	-61.6	3.6	8.46e-01	0	39	104	0	60	43380
2026-01-30 02:23:07.82	338.83	55.90	-49.4	-61.6	3.6	8.45e-01	0	38	104	0	60	43391
2026-01-30 02:23:08.83	338.81	55.52	-49.4	-61.6	3.6	8.45e-01	0	38	104	0	60	43455
2026-01-30 02:23:09.84	338.79	55.14	-49.4	-61.6	3.6	8.46e-01	0	39	104	0	60	43422
2026-01-30 02:23:10.85	338.77	54.76	-49.4	-61.6	3.6	8.46e-01	0	39	104	0	60	43425
2026-01-30 02:23:11.86	338.75	54.39	-49.4	-61.6	3.6	8.45e-01	0	38	104	0	60	43474
2026-01-30 02:23:12.87	338.73	54.01	-49.4	-61.6	3.6	8.46e-01	0	38	104	0	60	43451
2026-01-30 02:23:13.88	338.71	53.65	-49.4	-61.6	3.6	8.45e-01	0	38	104	0	60	43545
2026-01-30 02:23:14.89	338.69	53.28	-49.4	-61.6	3.6	8.45e-01	0	39	104	0	60	43559
2026-01-30 02:23:15.90	338.68	52.92	-49.4	-61.6	3.6	8.45e-01	0	39	104	0	60	43490
2026-01-30 02:23:16.91	338.66	52.55	-49.4	-61.6	3.6	8.46e-01	0	39	104	0	60	43547
2026-01-30 02:23:17.92	338.64	52.20	-49.4	-61.6	3.6	8.43e-01	0	39	104	0	60	43340
2026-01-30 02:23:18.93	338.63	51.84	-49.4	-61.6	3.6	8.46e-01	0	39	104	0	60	43228
2026-01-30 02:23:19.94	338.61	51.49	-49.4	-61.6	3.6	8.45e-01	0	38	104	0	60	43541
2026-01-30 02:23:20.95	338.60	51.14	-49.4	-61.6	3.6	8.46e-01	0	38	104	0	60	43447
2026-01-30 02:23:21.96	338.58	50.79	-49.4	-61.7	3.6	8.44e-01	0	39	104	0	60	43745
2026-01-30 02:23:22.97	338.57	50.44	-49.4	-61.6	3.6	8.46e-01	0	39	104	0	60	43336
2026-01-30 02:23:23.98	338.56	50.10	-49.4	-61.6	3.6	8.45e-01	0	38	104	0	60	43271
2026-01-30 02:23:24.99	338.54	49.76	-49.4	-61.5	3.6	8.46e-01	0	39	104	0	60	43010
2026-01-30 02:23:26.00	338.53	49.42	-49.4	-61.5	3.6	8.44e-01	0	39	104	0	60	43124
2026-01-30 02:23:27.01	338.52	49.09	-49.4	-61.5	3.6	8.46e-01	0	39	104	0	60	43072
2026-01-30 02:23:28.02	338.51	48.76	-49.4	-61.5	3.6	8.45e-01	0	39	104	0	60	43148
2026-01-30 02:23:29.03	338.50	48.43	-49.4	-61.6	3.6	8.46e-01	0	38	104	0	60	43259
2026-01-30 02:23:30.04	338.48	48.10	-49.4	-61.6	3.6	8.46e-01	0	38	104	0	60	43299
2026-01-30 02:23:31.05	338.47	47.77	-49.4	-61.6	3.6	8.45e-01	0	38	104	0	60	43512
2026-01-30 02:23:32.07	338.46	47.45	-49.4	-61.6	3.6	8.45e-01	0	38	104	0	60	43496
2026-01-30 02:23:33.07	338.45	47.13	-49.4	-61.6	3.6	8.45e-01	0	39	104	0	60	43293
2026-01-30 02:23:34.09	338.44	46.81	-49.4	-61.6	3.6	8.45e-01	0	39	104	0	60	43563
2026-01-30 02:23:35.10	338.43	46.49	-49.4	-61.6	3.6	8.44e-01	0	39	104	0	60	43269
2026-01-30 02:23:36.11	338.42	46.18	-49.4	-61.6	3.6	8.45e-01	0	38	104	0	60	43465
2026-01-30 02:23:37.12	338.41	45.87	-49.4	-61.6	3.6	8.44e-01	0	39	104	0	60	43493
2026-01-30 02:23:38.13	338.40	45.56	-49.4	-61.6	3.6	8.45e-01	0	39	104	0	60	43440
2026-01-30 02:23:39.14	338.39	45.26	-49.4	-61.6	3.6	8.46e-01	0	38	104	0	60	43519
2026-01-30 02:23:40.15	338.39	44.95	-49.4	-61.6	3.6	8.44e-01	0	39	104	0	60	43510
2026-01-30 02:23:41.15	338.38	44.65	-49.4	-61.5	3.6	8.45e-01	0	39	104	0	60	43169
2026-01-30 02:23:42.16	338.37	44.36	-49.4	-61.6	3.6	8.45e-01	0	38	104	0	60	43429
2026-01-30 02:23:43.17	338.36	44.06	-49.4	-61.6	3.6	8.45e-01	0	38	104	0	60	43610
2026-01-30 02:23:44.18	338.35	43.76	-49.4	-61.6	3.6	8.45e-01	0	38	104	0	60	43557
2026-01-30 02:23:45.20	338.35	43.47	-49.4	-61.6	3.6	8.46e-01	0	38	104	0	60	43337
2026-01-30 02:23:46.21	338.34	43.18	-49.4	-61.6	3.6	8.45e-01	0	38	104	0	60	43345
2026-01-30 02:23:47.21	338.33	42.89	-49.4	-61.6	3.6	8.45e-01	0	38	104	0	60	43600
2026-01-30 02:23:48.22	338.33	42.61	-49.4	-61.6	3.6	8.46e-01	0	38	104	0	60	43263
2026-01-30 02:23:49.23	338.32	42.33	-49.4	-61.6	3.6	8.46e-01	0	38	104	0	60	43524
2026-01-30 02:23:50.24	338.31	42.04	-49.4	-61.6	3.6	8.45e-01	0	38	104	0	60	43501
2026-01-30 02:23:51.25	338.31	41.77	-49.4	-61.6	3.6	8.45e-01	0	38	104	0	60	43564
2026-01-30 02:23:52.26	338.30	41.49	-49.4	-61.6	3.6	8.45e-01	0	38	104	0	60	43372
2026-01-30 02:23:53.27	338.29	41.21	-49.4	-61.6	3.6	8.46e-01	0	38	104	0	60	43460
2026-01-30 02:23:54.28	338.29	40.94	-49.4	-61.6	3.6	8.46e-01	0	39	104	0	60	43560
2026-01-30 02:23:55.29	338.28	40.67	-49.4	-61.6	3.6	8.46e-01	0	38	104	0	60	43462
2026-01-30 02:23:56.30	338.28	40.40	-49.4	-61.6	3.6	8.45e-01	0	38	104	0	60	43385
2026-01-30 02:23:57.31	338.27	40.13	-49.4	-61.6	3.6	8.45e-01	0	38	104	0	60	43280
2026-01-30 02:23:58.32	338.27	39.87	-49.4	-61.6	3.6	8.45e-01	0	39	104	0	60	43588
2026-01-30 02:23:59.33	338.26	39.61	-49.4	-61.6	3.6	8.46e-01	0	38	104	0	60	43555
2026-01-30 02:24:00.34	338.26	39.35	-49.4	-61.6	3.6	8.45e-01	0	39	104	0	60	43546
2026-01-30 02:24:01.35	338.25	39.09	-49.4	-61.6	3.6	8.45e-01	0	38	104	0	60	43253
2026-01-30 02:24:02.36	338.25	38.83	-49.4	-61.5	3.6	8.45e-01	0	38	104	0	60	43123
2026-01-30 02:24:03.37	338.24	38.58	-49.4	-61.6	3.6	8.45e-01	0	38	104	0	60	43655
2026-01-30 02:24:04.38	338.24	38.32	-49.4	-61.6	3.6	8.46e-01	0	38	104	0	60	43571
2026-01-30 02:24:05.39	338.24	38.07	-49.4	-61.6	3.6	8.45e-01	0	38	104	0	60	43351
2026-01-30 02:24:06.40	338.23	37.82	-49.4	-61.6	3.6	8.45e-01	0	38	104	0	60	43415
2026-01-30 02:24:07.41	338.23	37.57	-49.4	-61.6	3.6	8.45e-01	0	38	104	0	60	43554
2026-01-30 02:24:08.42	338.22	37.33	-49.4	-61.6	3.6	8.46e-01	0	39	104	0	60	43367
2026-01-30 02:24:09.43	338.22	37.09	-49.4	-61.6	3.6	8.45e-01	0	39	104	0	60	43310
2026-01-30 02:24:10.44	338.22	36.84	-49.4	-61.6	3.6	8.46e-01	0	39	104	0	60	43383
2026-01-30 02:24:11.45	338.21	36.60	-49.4	-61.6	3.6	8.45e-01	0	38	104	0	60	43556
2026-01-30 02:24:12.46	338.21	36.36	-49.4	-61.6	3.6	8.44e-01	0	39	104	0	60	43473
2026-01-30 02:24:13.47	338.21	36.13	-49.4	-61.6	3.6	8.46e-01	0	38	104	0	60	43538
2026-01-30 02:24:14.48	338.20	35.89	-49.4	-61.6	3.6	8.46e-01	0	38	104	0	60	43267
2026-01-30 02:24:15.49	338.20	35.66	-49.4	-61.7	3.6	8.46e-01	0	38	104	0	60	43726
2026-01-30 02:24:16.50	338.20	35.43	-49.4	-61.6	3.6	8.45e-01	0	38	104	0	60	43354
2026-01-30 02:24:17.52	338.19	35.20	-49.4	-61.6	3.6	8.46e-01	0	39	104	0	60	43387
2026-01-30 02:24:18.53	338.19	34.97	-49.4	-61.6	3.6	8.46e-01	0	38	104	0	60	43216
2026-01-30 02:24:19.54	338.19	34.74	-49.4	-61.6	3.6	8.45e-01	0	39	104	0	60	43517
2026-01-30 02:24:20.55	338.19	34.52	-49.4	-61.6	3.6	8.43e-01	0	38	104	0	60	43537
2026-01-30 02:24:21.56	338.18	34.29	-49.5	-61.6	3.6	8.45e-01	0	39	104	0	60	43579
2026-01-30 02:24:22.57	338.18	34.07	-49.4	-61.6	3.6	8.46e-01	0	39	104	0	60	43452
2026-01-30 02:24:23.58	338.18	33.85	-49.4	-61.6	3.6	8.45e-01	0	39	104	0	60	43413
2026-01-30 02:24:24.59	338.18	33.63	-49.4	-61.6	3.6	8.46e-01	0	39	104	0	60	43462
2026-01-30 02:24:25.60	338.17	33.42	-49.4	-61.6	3.6	8.45e-01	0	39	104	0	60	43530
2026-01-30 02:24:26.61	338.17	33.20	-49.4	-61.6	3.6	8.46e-01	0	39	104	0	60	43398
2026-01-30 02:24:27.62	338.17	32.99	-49.4	-61.6	3.6	8.46e-01	0	38	104	0	60	43310
2026-01-30 02:24:28.63	338.17	32.77	-49.4	-61.6	3.6	8.44e-01	0	38	104	0	60	43633
2026-01-30 02:24:29.64	338.17	32.56	-49.4	-61.6	3.6	8.46e-01	0	38	104	0	60	43505
2026-01-30 02:24:30.65	338.16	32.35	-49.4	-61.6	3.6	8.45e-01	0	38	104	0	60	43464
2026-01-30 02:24:31.66	338.16	32.15	-49.4	-61.6	3.6	8.45e-01	0	38	104	0	60	43464
2026-01-30 02:24:32.67	338.16	31.94	-49.4	-61.6	3.6	8.45e-01	0	39	104	0	60	43494
2026-01-30 02:24:33.68	338.16	31.73	-49.4	-61.6	3.6	8.46e-01	0	39	104	0	60	43370
2026-01-30 02:24:34.69	338.16	31.53	-49.4	-61.6	3.6	8.46e-01	0	38	104	0	60	43314
2026-01-30 02:24:35.70	338.16	31.33	-49.4	-61.6	3.6	8.46e-01	0	38	104	0	60	43544
2026-01-30 02:24:36.72	338.16	31.13	-49.4	-61.6	3.6	8.45e-01	0	39	104	0	60	43390
2026-01-30 02:24:37.73	338.15	30.93	-49.4	-61.6	3.6	8.47e-01	0	39	104	0	60	43596
2026-01-30 02:24:38.74	338.15	30.73	-49.4	-61.6	3.6	8.47e-01	0	39	104	0	60	43513
2026-01-30 02:24:39.75	338.15	30.53	-49.4	-61.6	3.6	8.45e-01	0	39	104	0	60	43331
2026-01-30 02:24:40.76	338.15	30.34	-49.4	-61.6	3.6	8.44e-01	0	39	104	0	60	43450
2026-01-30 02:24:41.77	338.15	30.14	-49.5	-61.6	3.6	8.45e-01	0	39	104	0	60	43450
2026-01-30 02:24:42.77	338.15	29.95	-49.4	-61.6	3.6	8.45e-01	0	38	104	0	60	43352
2026-01-30 02:24:43.78	338.15	29.76	-49.4	-61.6	3.6	8.45e-01	0	39	104	0	60	43334
2026-01-30 02:24:44.80	338.15	29.57	-49.4	-61.6	3.6	8.45e-01	0	38	104	0	60	43483
2026-01-30 02:24:45.81	338.15	29.38	-49.4	-61.6	3.6	8.44e-01	0	39	104	0	60	43540
2026-01-30 02:24:46.82	338.15	29.19	-49.4	-61.6	3.6	8.45e-01	0	39	104	0	60	43643
2026-01-30 02:24:47.83	338.15	29.00	-49.4	-61.6	3.6	8.45e-01	0	38	104	0	60	43606
2026-01-30 02:24:48.84	338.14	28.82	-49.4	-61.6	3.6	8.45e-01	0	39	104	0	60	43308
2026-01-30 02:24:49.85	338.14	28.63	-49.4	-61.6	3.6	8.45e-01	0	39	104	0	60	43527
2026-01-30 02:24:50.86	338.14	28.45	-49.5	-61.6	3.6	8.46e-01	0	39	104	0	60	43421
2026-01-30 02:24:51.87	338.14	28.27	-49.4	-61.6	3.6	8.45e-01	0	39	104	0	60	43492
2026-01-30 02:24:52.88	338.14	28.09	-49.5	-61.6	3.6	8.46e-01	0	39	104	0	60	43314
2026-01-30 02:24:53.89	338.14	27.91	-49.4	-61.6	3.6	8.45e-01	0	39	104	0	60	43393
2026-01-30 02:24:54.90	338.14	27.73	-49.4	-61.6	3.6	8.46e-01	0	38	104	0	60	43401
2026-01-30 02:24:55.91	338.14	27.56	-49.4	-61.6	3.6	8.45e-01	0	38	104	0	60	43428
2026-01-30 02:24:56.92	338.14	27.38	-49.4	-61.6	3.6	8.45e-01	0	38	104	0	60	43266
2026-01-30 02:24:57.93	338.14	27.21	-49.4	-61.6	3.6	8.44e-01	0	39	104	0	60	43487
2026-01-30 02:24:58.94	338.14	27.03	-49.5	-61.6	3.6	8.46e-01	0	39	104	0	60	43660
2026-01-30 02:24:59.95	338.14	26.86	-49.4	-61.6	3.6	8.45e-01	0	38	104	0	60	43447
2026-01-30 02:25:00.96	338.14	26.69	-49.5	-61.6	3.6	8.45e-01	0	38	104	0	60	43471
2026-01-30 02:25:01.97	338.14	26.52	-49.4	-61.6	3.6	8.46e-01	0	39	104	0	60	43586
2026-01-30 02:25:02.98	338.14	26.35	-49.4	-61.6	3.6	8.45e-01	0	38	104	0	60	43365
2026-01-30 02:25:03.99	338.14	26.18	-49.4	-61.6	3.6	8.45e-01	0	38	104	0	60	43390
2026-01-30 02:25:05.00	338.14	26.01	-49.4	-61.6	3.6	8.45e-01	0	38	104	0	60	43490
2026-01-30 02:25:06.01	338.14	25.85	-49.5	-61.6	3.6	8.45e-01	0	39	104	0	60	43584
2026-01-30 02:25:07.02	338.14	25.68	-49.4	-61.6	3.5	8.44e-01	0	38	104	0	60	43488
2026-01-30 02:25:08.03	338.14	25.52	-49.4	-61.6	3.6	8.46e-01	0	39	104	0	60	43385
2026-01-30 02:25:09.04	338.14	25.36	-49.4	-61.6	3.6	8.44e-01	0	39	104	0	60	43342
2026-01-30 02:25:10.05	338.14	25.19	-49.4	-61.6	3.6	8.45e-01	0	39	104	0	60	43590
2026-01-30 02:25:11.06	338.14	25.03	-49.4	-61.6	3.6	8.44e-01	0	39	104	0	60	43297
2026-01-30 02:25:12.07	338.14	24.87	-49.4	-61.6	3.6	8.46e-01	0	39	104	0	60	43452
2026-01-30 02:25:13.08	338.14	24.71	-49.4	-61.6	3.6	8.45e-01	0	39	104	0	60	43444
2026-01-30 02:25:14.09	338.15	24.56	-49.4	-61.6	3.6	8.45e-01	0	39	104	0	60	43429
2026-01-30 02:25:15.10	338.15	24.40	-49.5	-61.6	3.6	8.46e-01	0	38	104	0	60	43382
2026-01-30 02:25:16.11	338.15	24.24	-49.5	-61.6	3.6	8.45e-01	0	38	104	0	60	43351
2026-01-30 02:25:17.12	338.15	24.09	-49.5	-61.6	3.6	8.45e-01	0	39	104	0	60	43542
2026-01-30 02:25:18.13	338.15	23.93	-49.4	-61.6	3.6	8.46e-01	0	38	104	0	60	43325
2026-01-30 02:25:19.14	338.15	23.78	-49.4	-61.6	3.6	8.45e-01	0	38	104	0	60	43605
2026-01-30 02:25:20.15	338.15	23.63	-49.4	-61.6	3.6	8.46e-01	0	38	104	0	60	43391
2026-01-30 02:25:21.16	338.15	23.47	-49.5	-61.6	3.6	8.45e-01	0	39	104	0	60	43449
2026-01-30 02:25:22.17	338.15	23.32	-49.4	-61.6	3.6	8.46e-01	0	38	104	0	60	43389
2026-01-30 02:25:23.18	338.15	23.17	-49.4	-61.6	3.6	8.45e-01	0	38	104	0	60	43406
2026-01-30 02:25:24.19	338.15	23.03	-49.4	-61.6	3.6	8.45e-01	0	38	104	0	60	43567
2026-01-30 02:25:25.20	338.15	22.88	-49.4	-61.6	3.6	8.45e-01	0	38	104	0	60	43294
2026-01-30 02:25:26.21	338.15	22.73	-49.5	-61.6	3.6	8.45e-01	0	38	104	0	60	43428
2026-01-30 02:25:27.22	338.16	22.58	-49.4	-61.6	3.6	8.46e-01	0	38	104	0	60	43408
2026-01-30 02:25:28.23	338.16	22.44	-49.5	-61.6	3.6	8.46e-01	0	39	104	0	60	43536
2026-01-30 02:25:29.24	338.16	22.29	-49.4	-61.6	3.6	8.46e-01	0	38	104	0	60	43432
2026-01-30 02:25:30.25	338.16	22.15	-49.4	-61.6	3.6	8.46e-01	0	39	104	0	60	43544
2026-01-30 02:25:31.26	338.16	22.01	-49.4	-61.6	3.5	8.45e-01	0	39	104	0	60	43579
2026-01-30 02:25:32.27	338.16	21.86	-49.4	-61.6	3.6	8.45e-01	0	39	104	0	60	43612
2026-01-30 02:25:33.28	338.16	21.72	-49.4	-61.6	3.6	8.46e-01	0	38	104	0	60	43602
2026-01-30 02:25:34.29	338.16	21.58	-49.5	-61.6	3.6	8.45e-01	0	38	104	0	60	43442
2026-01-30 02:25:35.30	338.16	21.44	-49.5	-61.6	3.6	8.46e-01	0	39	104	0	60	43465
2026-01-30 02:25:36.31	338.17	21.30	-49.4	-61.6	3.6	8.46e-01	0	39	104	0	60	43580
2026-01-30 02:25:37.32	338.17	21.16	-49.4	-61.6	3.6	8.45e-01	0	38	104	0	60	43420
2026-01-30 02:25:38.33	338.17	21.03	-49.4	-61.6	3.6	8.45e-01	0	38	104	0	60	43555
2026-01-30 02:25:39.34	338.17	20.89	-49.4	-61.6	3.6	8.44e-01	0	38	104	0	60	43542
2026-01-30 02:25:40.35	338.17	20.75	-49.4	-61.6	3.6	8.46e-01	0	38	104	0	60	43388
2026-01-30 02:25:41.36	338.17	20.62	-49.4	-61.6	3.6	8.46e-01	0	38	104	0	60	43420
2026-01-30 02:25:42.37	338.17	20.48	-49.4	-61.6	3.6	8.47e-01	0	39	104	0	60	43482
2026-01-30 02:25:43.38	338.17	20.35	-49.5	-61.6	3.6	8.47e-01	0	39	104	0	60	43515
2026-01-30 02:25:44.39	338.18	20.22	-49.5	-61.7	3.6	8.45e-01	0	39	104	0	60	43793
2026-01-30 02:25:45.40	338.18	20.08	-49.4	-61.6	3.6	8.46e-01	0	39	104	0	60	43428
2026-01-30 02:25:46.41	338.18	19.95	-49.4	-61.6	3.6	8.45e-01	0	39	104	0	60	43553
2026-01-30 02:25:47.42	338.18	19.82	-49.5	-61.6	3.6	8.45e-01	0	39	104	0	60	43590
2026-01-30 02:25:48.43	338.18	19.69	-49.5	-61.6	3.6	8.45e-01	0	38	104	0	60	43319
2026-01-30 02:25:49.45	338.18	19.56	-49.5	-61.6	3.6	8.45e-01	0	39	104	0	60	43562
2026-01-30 02:25:50.45	338.18	19.43	-49.5	-61.6	3.6	8.45e-01	0	39	104	0	60	43340
2026-01-30 02:25:51.47	338.19	19.30	-49.4	-61.5	3.6	8.44e-01	0	39	104	0	60	43198
2026-01-30 02:25:52.48	338.19	19.17	-49.4	-61.6	3.6	8.45e-01	0	39	104	0	60	43271
2026-01-30 02:25:53.49	338.19	19.05	-49.5	-61.6	3.6	8.46e-01	0	39	104	0	60	43354
2026-01-30 02:25:54.50	338.19	18.92	-49.4	-61.6	3.6	8.44e-01	0	38	104	0	60	43479
2026-01-30 02:25:55.51	338.19	18.79	-49.4	-61.6	3.6	8.45e-01	0	39	104	0	60	43551
2026-01-30 02:25:56.52	338.19	18.67	-49.5	-61.6	3.6	8.44e-01	0	39	104	0	60	43380
2026-01-30 02:25:57.53	338.20	18.54	-49.5	-61.6	3.6	8.46e-01	0	39	104	0	60	43463
2026-01-30 02:25:58.54	338.20	18.42	-49.5	-61.6	3.6	8.46e-01	0	39	104	0	60	43552
2026-01-30 02:25:59.55	338.20	18.30	-49.5	-61.6	3.6	8.46e-01	0	39	104	0	60	43398
2026-01-30 02:26:00.56	338.20	18.17	-49.5	-61.6	3.6	8.45e-01	0	39	104	0	60	43502
2026-01-30 02:26:01.56	338.20	18.05	-49.4	-61.6	3.6	8.44e-01	0	39	104	0	60	43558
2026-01-30 02:26:02.58	338.20	17.93	-49.5	-61.6	3.6	8.45e-01	0	39	104	0	60	43571
2026-01-30 02:26:03.58	338.21	17.81	-49.5	-61.6	3.6	8.46e-01	0	39	104	0	60	43496
2026-01-30 02:26:04.60	338.21	17.69	-49.5	-61.7	3.6	8.45e-01	0	39	104	0	60	43743
2026-01-30 02:26:05.60	338.21	17.57	-49.5	-61.6	3.6	8.46e-01	0	39	104	0	60	43468
2026-01-30 02:26:06.62	338.21	17.45	-49.5	-61.6	3.6	8.46e-01	0	39	104	0	60	43628
2026-01-30 02:26:07.62	338.21	17.33	-49.5	-61.6	3.6	8.45e-01	0	39	104	0	60	43467
2026-01-30 02:26:08.63	338.22	17.22	-49.4	-61.6	3.6	8.45e-01	0	39	104	0	60	43391
2026-01-30 02:26:09.65	338.22	17.10	-49.5	-61.6	3.6	8.45e-01	0	39	104	0	60	43576
2026-01-30 02:26:10.65	338.22	16.98	-49.5	-61.6	3.6	8.45e-01	0	39	104	0	60	43620
2026-01-30 02:26:11.66	338.22	16.87	-49.5	-61.6	3.6	8.45e-01	0	39	104	0	60	43380
2026-01-30 02:26:12.67	338.22	16.75	-49.4	-61.6	3.6	8.45e-01	0	39	104	0	60	43453
2026-01-30 02:26:13.68	338.23	16.63	-49.5	-61.6	3.6	8.46e-01	0	39	104	0	60	43408
2026-01-30 02:26:14.70	338.23	16.52	-49.5	-61.6	3.6	8.44e-01	0	39	104	0	60	43435
2026-01-30 02:26:15.71	338.23	16.40	-49.5	-61.6	3.6	8.45e-01	0	39	104	0	60	43373
2026-01-30 02:26:16.72	338.23	16.29	-49.5	-61.6	3.6	8.45e-01	0	39	104	0	60	43496
2026-01-30 02:26:17.73	338.23	16.18	-49.5	-61.6	3.6	8.45e-01	0	39	104	0	60	43483
2026-01-30 02:26:18.74	338.24	16.07	-49.5	-61.6	3.6	8.45e-01	0	39	104	0	60	43471
2026-01-30 02:26:19.75	338.24	15.95	-49.5	-61.6	3.6	8.45e-01	0	39	104	0	60	43472
2026-01-30 02:26:20.76	338.24	15.84	-49.5	-61.7	3.6	8.45e-01	0	39	104	0	60	43715
2026-01-30 02:26:21.77	338.24	15.73	-49.5	-61.6	3.6	8.45e-01	0	39	104	0	60	43444
2026-01-30 02:26:22.78	338.24	15.62	-49.5	-61.7	3.6	8.45e-01	0	39	104	0	60	43813
2026-01-30 02:26:23.79	338.25	15.51	-49.5	-61.6	3.6	8.45e-01	0	39	104	0	60	43626
2026-01-30 02:26:24.80	338.25	15.40	-49.5	-61.6	3.5	8.46e-01	0	39	104	0	60	43625
2026-01-30 02:26:25.81	338.25	15.29	-49.5	-61.6	3.6	8.45e-01	0	38	104	0	60	43481
2026-01-30 02:26:26.82	338.25	15.18	-49.5	-61.6	3.6	8.46e-01	0	39	104	0	60	43554
2026-01-30 02:26:27.83	338.26	15.08	-49.5	-61.6	3.6	8.45e-01	0	39	104	0	60	43540
2026-01-30 02:26:28.84	338.26	14.97	-49.4	-61.6	3.6	8.45e-01	0	38	104	0	60	43561
2026-01-30 02:26:29.85	338.26	14.86	-49.5	-61.6	3.6	8.44e-01	0	38	104	0	60	43316
2026-01-30 02:26:30.86	338.26	14.76	-49.5	-61.6	3.6	8.46e-01	0	39	104	0	60	43657
2026-01-30 02:26:31.87	338.26	14.65	-49.5	-61.6	3.6	8.46e-01	0	38	104	0	60	43504
2026-01-30 02:26:32.88	338.27	14.54	-49.5	-61.6	3.6	8.46e-01	0	39	104	0	60	43444
2026-01-30 02:26:33.89	338.27	14.44	-49.5	-61.6	3.6	8.47e-01	0	38	104	0	60	43428
