passes_logs/2026/01/30/R4.6S_Anadyr/R4.6S_Anadyr__20260130_080548_KOSAR1-5_rec.log

#Pass ID: 20260130_080548_KOSAR1-5
#Satellite: KOSAR1-5
#Configuration: KOSAR1-5
#almurnet v.1.7.20251203
#Start time: 2026-01-30 08:05:52

#Version: 2.2.20231116
#Station: R4.6S_Anadyr
#Location: 177.4865 lon 64.73178 lat
#TLE: 1 67264U 25313S   26028.94615568  .00012050  00000+0  55467-3 0  9998
#TLE: 2 67264  97.4180 105.8864 0016576 134.5684 225.6907 15.20338860  4779

#Time	Az	El	Level	Level2	SNR	BER	BlckErr	Temp	State	Recorded	gain1	gain2
2026-01-30 08:05:52.04	119.53	0.23	-50.0	-51.6	5.7	0.00e+00	0	39	0	0	60	46356
2026-01-30 08:05:53.03	119.47	0.29	-46.4	-61.0	3.6	1.51e+00	0	40	104	0	60	45748
2026-01-30 08:05:54.01	119.41	0.35	-46.4	-61.0	3.6	1.51e+00	0	40	104	0	60	45678
2026-01-30 08:05:54.99	119.35	0.41	-46.4	-61.2	3.6	1.51e+00	0	40	104	0	60	46368
2026-01-30 08:05:55.98	119.29	0.47	-46.4	-61.1	3.6	1.51e+00	0	40	104	0	60	45989
2026-01-30 08:05:56.95	119.23	0.53	-46.5	-61.2	3.6	1.51e+00	0	40	104	0	60	46493
2026-01-30 08:05:57.93	119.16	0.59	-46.5	-61.1	3.6	1.51e+00	0	40	104	0	60	46224
2026-01-30 08:05:58.91	119.10	0.65	-46.4	-61.1	3.6	1.51e+00	0	40	104	0	60	46260
2026-01-30 08:05:59.89	119.04	0.71	-46.3	-61.2	3.6	1.51e+00	0	40	104	0	60	46316
2026-01-30 08:06:00.87	118.98	0.77	-46.4	-61.1	3.6	1.51e+00	0	40	104	0	60	46021
2026-01-30 08:06:01.85	118.91	0.83	-46.0	-61.1	3.6	1.51e+00	0	40	104	0	60	46240
2026-01-30 08:06:02.83	118.85	0.89	-46.5	-61.2	3.6	1.51e+00	0	40	104	0	60	46386
2026-01-30 08:06:03.81	118.78	0.95	-46.4	-61.2	3.6	1.51e+00	0	40	104	0	60	46335
2026-01-30 08:06:04.79	118.72	1.01	-46.4	-61.2	3.6	1.51e+00	0	40	104	0	60	46458
2026-01-30 08:06:05.77	118.66	1.07	-46.5	-61.2	3.6	1.51e+00	0	40	104	0	60	46501
2026-01-30 08:06:06.75	118.59	1.13	-46.4	-61.1	3.6	1.51e+00	0	40	104	0	60	46183
2026-01-30 08:06:07.73	118.52	1.19	-46.3	-61.1	3.6	1.51e+00	0	40	104	0	60	45939
2026-01-30 08:06:08.70	118.46	1.25	-46.2	-61.0	3.6	1.51e+00	0	40	104	0	60	45330
2026-01-30 08:06:09.68	118.39	1.31	-46.0	-60.9	3.6	1.51e+00	0	40	104	0	60	44857
2026-01-30 08:06:10.66	118.33	1.38	-46.0	-60.8	3.6	1.51e+00	0	40	104	0	60	44354
2026-01-30 08:06:11.64	118.26	1.44	-45.9	-60.7	3.6	1.51e+00	0	40	104	0	60	43819
2026-01-30 08:06:12.62	118.19	1.50	-45.6	-60.5	3.6	1.51e+00	0	40	104	0	60	42896
2026-01-30 08:06:13.60	118.13	1.56	-45.0	-60.1	3.6	1.51e+00	0	40	104	0	60	41017
2026-01-30 08:06:14.58	118.06	1.62	-45.0	-59.8	3.6	1.51e+00	0	40	104	0	60	39570
2026-01-30 08:06:15.56	117.99	1.69	-45.0	-59.8	3.6	1.51e+00	0	40	104	0	60	39565
2026-01-30 08:06:16.54	117.92	1.75	-44.9	-59.8	3.6	1.51e+00	0	40	104	0	60	39754
2026-01-30 08:06:17.52	117.85	1.81	-44.9	-59.8	3.6	1.51e+00	0	40	104	0	60	39745
2026-01-30 08:06:18.49	117.78	1.87	-44.9	-59.8	3.6	1.51e+00	0	40	104	0	60	39705
2026-01-30 08:06:19.47	117.71	1.94	-44.9	-59.8	3.6	1.51e+00	0	40	104	0	60	39639
2026-01-30 08:06:20.45	117.64	2.00	-44.9	-59.8	3.6	1.51e+00	0	40	104	0	60	39787
2026-01-30 08:06:21.43	117.57	2.06	-44.9	-59.8	3.6	1.51e+00	0	41	104	0	60	39563
2026-01-30 08:06:22.42	117.50	2.13	-44.9	-59.7	3.6	1.51e+00	0	41	104	0	60	39356
2026-01-30 08:06:23.40	117.43	2.19	-44.9	-59.8	3.6	1.51e+00	0	41	104	0	60	39633
2026-01-30 08:06:24.39	117.35	2.25	-44.9	-59.8	3.6	1.51e+00	0	40	104	0	60	39672
2026-01-30 08:06:25.36	117.28	2.32	-44.9	-59.8	3.6	1.51e+00	0	41	104	0	60	39608
2026-01-30 08:06:26.35	117.21	2.38	-44.9	-59.8	3.6	1.51e+00	0	40	104	0	60	39747
2026-01-30 08:06:27.33	117.14	2.44	-44.9	-59.8	3.6	1.51e+00	0	40	104	0	60	39648
2026-01-30 08:06:28.31	117.06	2.51	-44.9	-59.8	3.6	1.51e+00	0	41	104	0	60	39596
2026-01-30 08:06:29.29	116.99	2.57	-44.9	-59.8	3.6	1.51e+00	0	40	104	0	60	39642
2026-01-30 08:06:30.26	116.91	2.64	-44.9	-59.8	3.6	1.51e+00	0	41	104	0	60	39489
2026-01-30 08:06:31.24	116.84	2.70	-44.9	-59.7	3.6	1.51e+00	0	41	104	0	60	39348
2026-01-30 08:06:32.22	116.76	2.77	-44.9	-59.8	3.6	1.51e+00	0	41	104	0	60	39573
2026-01-30 08:06:33.20	116.69	2.83	-44.9	-59.8	3.6	1.51e+00	0	40	104	0	60	39544
2026-01-30 08:06:34.18	116.61	2.90	-44.9	-59.8	3.6	1.51e+00	0	41	104	0	60	39603
2026-01-30 08:06:35.16	116.53	2.96	-44.9	-59.8	3.6	1.51e+00	0	41	104	0	60	39666
2026-01-30 08:06:36.14	116.46	3.03	-44.9	-59.8	3.6	1.51e+00	0	41	104	0	60	39578
2026-01-30 08:06:37.12	116.38	3.09	-44.9	-59.8	3.6	1.51e+00	0	40	104	0	60	39433
2026-01-30 08:06:38.10	116.30	3.16	-44.9	-59.8	3.6	1.51e+00	0	41	104	0	60	39418
2026-01-30 08:06:39.07	116.22	3.22	-44.9	-59.8	3.6	1.51e+00	0	40	104	0	60	39645
2026-01-30 08:06:40.06	116.14	3.29	-44.9	-59.7	3.6	1.51e+00	0	41	104	0	60	39406
2026-01-30 08:06:41.04	116.06	3.36	-44.9	-59.8	3.6	1.51e+00	0	41	104	0	60	39490
2026-01-30 08:06:42.02	115.98	3.42	-44.9	-59.7	3.6	1.51e+00	0	41	104	0	60	39349
2026-01-30 08:06:42.99	115.90	3.49	-44.9	-59.8	3.6	1.51e+00	0	40	104	0	60	39482
2026-01-30 08:06:43.97	115.82	3.56	-44.9	-59.8	3.6	1.51e+00	0	40	104	0	60	39411
2026-01-30 08:06:44.95	115.74	3.62	-44.9	-59.8	3.6	1.51e+00	0	41	104	0	60	39528
2026-01-30 08:06:45.93	115.66	3.69	-44.9	-59.8	3.6	1.51e+00	0	41	104	0	60	39422
2026-01-30 08:06:46.91	115.58	3.76	-45.6	-60.4	3.6	1.51e+00	0	41	104	0	60	42535
2026-01-30 08:06:47.89	115.49	3.82	-44.9	-60.0	3.6	1.51e+00	0	41	104	0	60	40732
2026-01-30 08:06:48.87	115.41	3.89	-44.2	-59.7	3.6	1.51e+00	0	41	104	0	60	38958
2026-01-30 08:06:49.85	115.33	3.96	-44.4	-59.9	3.6	1.51e+00	0	41	104	0	60	40079
2026-01-30 08:06:50.83	115.24	4.03	-44.9	-59.8	3.6	1.51e+00	0	41	104	0	60	39561
2026-01-30 08:06:51.81	115.16	4.10	-44.8	-59.9	3.6	1.51e+00	0	41	104	0	60	40286
2026-01-30 08:06:52.79	115.07	4.16	-44.1	-59.8	3.6	1.51e+00	0	41	104	0	60	39466
2026-01-30 08:06:53.77	114.99	4.23	-44.7	-60.0	3.6	1.51e+00	0	41	104	0	60	40417
2026-01-30 08:06:54.75	114.90	4.30	-44.5	-59.8	3.6	1.51e+00	0	41	104	0	60	39840
2026-01-30 08:06:55.72	114.81	4.37	-45.0	-60.0	3.6	1.51e+00	0	41	104	0	60	40546
2026-01-30 08:06:56.70	114.73	4.44	-44.5	-59.9	3.6	1.51e+00	0	41	104	0	60	40089
2026-01-30 08:06:57.68	114.64	4.51	-44.8	-59.9	3.6	1.51e+00	0	41	104	0	60	40198
2026-01-30 08:06:58.66	114.55	4.58	-44.6	-59.9	3.6	1.51e+00	0	41	104	0	60	40103
2026-01-30 08:06:59.64	114.46	4.65	-45.2	-60.0	3.6	1.51e+00	0	41	104	0	60	40602
2026-01-30 08:07:00.63	114.37	4.72	-44.8	-59.9	3.6	1.51e+00	0	41	104	0	60	40223
2026-01-30 08:07:01.61	114.28	4.79	-45.0	-60.0	3.6	1.51e+00	0	41	104	0	60	40535
2026-01-30 08:07:02.59	114.19	4.86	-45.0	-59.9	3.6	1.51e+00	0	41	104	0	60	40193
2026-01-30 08:07:03.58	114.09	4.93	-45.2	-60.0	3.6	1.51e+00	0	41	104	0	60	40545
2026-01-30 08:07:04.55	114.00	5.00	-45.0	-60.0	3.6	1.51e+00	0	41	104	0	60	40570
2026-01-30 08:07:05.53	113.91	5.07	-45.2	-60.0	3.6	1.51e+00	0	41	104	0	60	40604
2026-01-30 08:07:06.50	113.82	5.14	-45.2	-60.0	3.6	1.51e+00	0	41	104	0	60	40626
2026-01-30 08:07:07.48	113.72	5.21	-45.2	-60.0	3.6	1.51e+00	0	41	104	0	60	40710
2026-01-30 08:07:08.46	113.63	5.28	-45.3	-60.1	3.6	1.51e+00	0	41	104	0	60	40851
2026-01-30 08:07:09.44	113.53	5.35	-45.2	-60.0	3.6	1.51e+00	0	41	104	0	60	40702
2026-01-30 08:07:10.42	113.44	5.43	-45.3	-60.0	3.6	1.51e+00	0	41	104	0	60	40781
2026-01-30 08:07:11.40	113.34	5.50	-45.3	-60.1	3.6	1.51e+00	0	41	104	0	60	40966
2026-01-30 08:07:12.38	113.24	5.57	-45.3	-60.1	3.6	1.51e+00	0	41	104	0	60	41150
2026-01-30 08:07:13.36	113.15	5.64	-45.2	-60.0	3.6	1.51e+00	0	41	104	0	60	40715
2026-01-30 08:07:14.34	113.05	5.71	-45.3	-60.2	3.6	1.51e+00	0	41	104	0	60	41326
2026-01-30 08:07:15.32	112.95	5.79	-45.3	-60.1	3.6	1.51e+00	0	41	104	0	60	41119
2026-01-30 08:07:16.31	112.85	5.86	-45.4	-60.1	3.6	1.51e+00	0	41	104	0	60	41167
2026-01-30 08:07:17.28	112.75	5.93	-45.2	-60.1	3.6	1.51e+00	0	41	104	0	60	40930
2026-01-30 08:07:18.26	112.65	6.01	-45.4	-60.2	3.6	1.51e+00	0	41	104	0	60	41342
2026-01-30 08:07:19.24	112.55	6.08	-45.3	-60.1	3.6	1.51e+00	0	41	104	0	60	41133
2026-01-30 08:07:20.21	112.45	6.15	-45.4	-60.2	3.6	1.51e+00	0	41	104	0	60	41268
2026-01-30 08:07:21.19	112.34	6.23	-45.3	-60.1	3.6	1.51e+00	0	41	104	0	60	40991
2026-01-30 08:07:22.17	112.24	6.30	-45.4	-60.1	3.6	1.51e+00	0	41	104	0	60	41186
2026-01-30 08:07:23.15	112.14	6.38	-45.3	-60.2	3.6	1.51e+00	0	41	104	0	60	41319
2026-01-30 08:07:24.13	112.03	6.45	-45.4	-60.2	3.6	1.51e+00	0	41	104	0	60	41482
2026-01-30 08:07:25.11	111.93	6.52	-45.3	-60.1	3.6	1.51e+00	0	41	104	0	60	41126
2026-01-30 08:07:26.09	111.82	6.60	-45.2	-60.2	3.6	1.51e+00	0	41	104	0	60	41553
2026-01-30 08:07:27.07	111.71	6.68	-45.3	-60.2	3.6	1.51e+00	0	41	104	0	60	41282
2026-01-30 08:07:28.04	111.61	6.75	-45.2	-60.3	3.6	1.51e+00	0	41	104	0	60	41766
2026-01-30 08:07:29.02	111.50	6.83	-45.3	-60.1	3.6	1.51e+00	0	41	104	0	60	41245
2026-01-30 08:07:30.00	111.39	6.90	-45.3	-60.2	3.6	1.51e+00	0	41	104	0	60	41618
2026-01-30 08:07:30.98	111.28	6.98	-45.3	-60.2	3.6	1.51e+00	0	41	104	0	60	41332
2026-01-30 08:07:31.96	111.17	7.05	-45.5	-60.2	3.6	1.51e+00	0	41	104	0	60	41674
2026-01-30 08:07:32.93	111.06	7.13	-45.1	-60.2	3.6	1.51e+00	0	41	104	0	60	41418
2026-01-30 08:07:33.91	110.94	7.21	-45.3	-60.2	3.6	1.51e+00	0	41	104	0	60	41546
2026-01-30 08:07:34.90	110.83	7.28	-45.2	-60.2	3.6	1.51e+00	0	41	104	0	60	41546
2026-01-30 08:07:35.88	110.72	7.36	-45.2	-60.3	3.6	1.51e+00	0	41	104	0	60	42026
2026-01-30 08:07:36.85	110.60	7.44	-45.3	-60.2	3.6	1.51e+00	0	41	104	0	60	41596
2026-01-30 08:07:37.84	110.49	7.52	-45.1	-60.3	3.6	1.51e+00	0	41	104	0	60	41779
2026-01-30 08:07:38.82	110.37	7.59	-45.3	-60.2	3.6	1.51e+00	0	41	104	0	60	41434
2026-01-30 08:07:39.79	110.25	7.67	-45.5	-60.2	3.6	1.51e+00	0	41	104	0	60	41579
2026-01-30 08:07:40.77	110.14	7.75	-45.2	-60.2	3.6	1.51e+00	0	41	104	0	60	41705
2026-01-30 08:07:41.76	110.02	7.83	-45.4	-60.3	3.6	1.51e+00	0	41	104	0	60	42170
2026-01-30 08:07:42.74	109.90	7.91	-45.1	-60.2	3.6	1.51e+00	0	41	104	0	60	41714
2026-01-30 08:07:43.72	109.78	7.99	-45.2	-60.3	3.6	1.51e+00	0	41	104	0	60	42097
2026-01-30 08:07:44.69	109.66	8.07	-45.3	-60.2	3.6	1.51e+00	0	41	104	0	60	41740
2026-01-30 08:07:45.67	109.54	8.14	-45.2	-60.3	3.6	1.51e+00	0	41	104	0	60	42154
2026-01-30 08:07:46.65	109.41	8.22	-45.3	-60.3	3.6	1.51e+00	0	41	104	0	60	41786
2026-01-30 08:07:47.63	109.29	8.30	-45.1	-60.3	3.6	1.51e+00	0	41	104	0	60	42163
2026-01-30 08:07:48.61	109.17	8.38	-45.2	-60.3	3.6	1.51e+00	0	41	104	0	60	42078
2026-01-30 08:07:49.58	109.04	8.46	-45.3	-60.3	3.6	1.51e+00	0	41	104	0	60	42175
2026-01-30 08:07:50.56	108.92	8.54	-45.2	-60.3	3.6	1.51e+00	0	41	104	0	60	42102
2026-01-30 08:07:51.55	108.79	8.63	-45.1	-60.3	3.6	1.51e+00	0	41	104	0	60	42194
2026-01-30 08:07:52.52	108.66	8.71	-45.2	-60.4	3.6	1.51e+00	0	41	104	0	60	42322
2026-01-30 08:07:53.50	108.53	8.79	-45.5	-60.3	3.6	1.51e+00	0	41	104	0	60	41983
2026-01-30 08:07:54.49	108.40	8.87	-45.3	-60.3	3.6	1.51e+00	0	41	104	0	60	42159
2026-01-30 08:07:55.47	108.27	8.95	-45.0	-60.4	3.6	1.51e+00	0	41	104	0	60	42252
2026-01-30 08:07:56.44	108.14	9.03	-45.2	-60.4	3.6	1.51e+00	0	41	104	0	60	42453
2026-01-30 08:07:57.42	108.01	9.12	-45.5	-60.4	3.6	1.51e+00	0	41	104	0	60	42457
2026-01-30 08:07:58.40	107.87	9.20	-45.2	-60.4	3.5	1.51e+00	0	41	104	0	60	42346
2026-01-30 08:07:59.38	107.74	9.28	-45.3	-60.3	3.6	1.51e+00	0	41	104	0	60	42161
2026-01-30 08:08:00.36	107.60	9.36	-45.2	-60.4	3.6	1.51e+00	0	41	104	0	60	42579
2026-01-30 08:08:01.34	107.47	9.45	-45.5	-60.4	3.6	1.51e+00	0	41	104	0	60	42260
2026-01-30 08:08:02.31	107.33	9.53	-45.2	-60.4	3.6	1.51e+00	0	41	104	0	60	42378
2026-01-30 08:08:03.29	107.19	9.61	-45.2	-60.4	3.6	1.51e+00	0	41	104	0	60	42454
2026-01-30 08:08:04.27	107.05	9.70	-45.5	-60.4	3.5	1.51e+00	0	41	104	0	60	42655
2026-01-30 08:08:05.25	106.91	9.78	-45.4	-60.4	3.6	1.51e+00	0	41	104	0	60	42333
2026-01-30 08:08:06.23	106.77	9.87	-45.2	-60.4	3.6	1.51e+00	0	41	104	0	60	42505
2026-01-30 08:08:07.21	106.63	9.95	-45.0	-60.4	3.6	1.51e+00	0	41	104	0	60	42285
2026-01-30 08:08:08.19	106.49	10.04	-45.6	-60.4	3.6	1.51e+00	0	41	104	0	60	42538
2026-01-30 08:08:09.17	106.34	10.12	-45.5	-60.4	3.6	1.51e+00	0	41	104	0	60	42525
2026-01-30 08:08:10.15	106.20	10.21	-45.2	-60.5	3.6	1.51e+00	0	41	104	0	60	42835
2026-01-30 08:08:11.12	106.05	10.29	-45.1	-60.4	3.6	1.51e+00	0	41	104	0	60	42539
2026-01-30 08:08:12.10	105.90	10.38	-45.5	-60.5	3.6	1.51e+00	0	41	104	0	60	42744
2026-01-30 08:08:13.07	105.76	10.46	-45.4	-60.4	3.6	1.51e+00	0	41	104	0	60	42609
2026-01-30 08:08:14.05	105.61	10.55	-45.6	-60.5	3.6	1.51e+00	0	41	104	0	60	42719
2026-01-30 08:08:15.03	105.45	10.63	-45.2	-60.4	3.6	1.51e+00	0	41	104	0	60	42608
2026-01-30 08:08:16.01	105.30	10.72	-45.6	-60.5	3.6	1.51e+00	0	41	104	0	60	42995
2026-01-30 08:08:16.99	105.15	10.81	-45.3	-60.5	3.5	1.51e+00	0	41	104	0	60	42750
2026-01-30 08:08:17.97	105.00	10.90	-45.7	-60.5	3.6	1.51e+00	0	41	104	0	60	42998
2026-01-30 08:08:18.94	104.84	10.98	-45.6	-60.5	3.6	1.51e+00	0	41	104	0	60	42921
2026-01-30 08:08:19.93	104.68	11.07	-45.6	-60.5	3.6	1.51e+00	0	41	104	0	60	43168
2026-01-30 08:08:20.90	104.53	11.16	-45.7	-60.5	3.6	1.51e+00	0	41	104	0	60	42962
2026-01-30 08:08:21.89	104.37	11.25	-45.8	-60.5	3.6	1.51e+00	0	41	104	0	60	42998
2026-01-30 08:08:22.86	104.21	11.34	-45.7	-60.5	3.6	1.51e+00	0	41	104	0	60	42811
2026-01-30 08:08:23.85	104.04	11.42	-45.8	-60.5	3.6	1.51e+00	0	41	104	0	60	43104
2026-01-30 08:08:24.82	103.88	11.51	-45.4	-60.5	3.6	1.51e+00	0	41	104	0	60	43022
2026-01-30 08:08:25.80	103.72	11.60	-45.6	-60.5	3.6	1.51e+00	0	41	104	0	60	42943
2026-01-30 08:08:26.78	103.55	11.69	-45.8	-60.5	3.6	1.51e+00	0	41	104	0	60	43167
2026-01-30 08:08:27.76	103.39	11.78	-45.6	-60.6	3.6	1.51e+00	0	41	104	0	60	43223
2026-01-30 08:08:28.74	103.22	11.87	-45.4	-60.5	3.6	1.51e+00	0	41	104	0	60	42742
2026-01-30 08:08:29.72	103.05	11.96	-45.1	-60.5	3.6	1.51e+00	0	41	104	0	60	43115
2026-01-30 08:08:30.70	102.88	12.05	-45.4	-60.5	3.6	1.51e+00	0	41	104	0	60	43017
2026-01-30 08:08:31.69	102.71	12.14	-45.3	-60.5	3.6	1.51e+00	0	41	104	0	60	43069
2026-01-30 08:08:32.67	102.54	12.23	-45.5	-60.5	3.5	1.51e+00	0	41	104	0	60	42874
2026-01-30 08:08:33.65	102.36	12.32	-45.4	-60.5	3.6	1.51e+00	0	41	104	0	60	43160
2026-01-30 08:08:34.63	102.19	12.42	-45.5	-60.5	3.6	1.51e+00	0	41	104	0	60	42919
2026-01-30 08:08:35.62	102.01	12.51	-45.5	-60.5	3.6	1.51e+00	0	41	104	0	60	43107
2026-01-30 08:08:36.60	101.83	12.60	-45.3	-60.5	3.6	1.51e+00	0	41	104	0	60	43123
2026-01-30 08:08:37.58	101.65	12.69	-45.4	-60.6	3.6	1.51e+00	0	41	104	0	60	43217
2026-01-30 08:08:38.56	101.47	12.78	-45.5	-60.5	3.6	1.51e+00	0	41	104	0	60	43140
2026-01-30 08:08:39.54	101.29	12.88	-45.5	-60.6	3.6	1.51e+00	0	41	104	0	60	43314
2026-01-30 08:08:40.52	101.10	12.97	-45.6	-60.5	3.6	1.51e+00	0	41	104	0	60	43188
2026-01-30 08:08:41.50	100.92	13.06	-45.4	-60.6	3.6	1.51e+00	0	41	104	0	60	43373
2026-01-30 08:08:42.47	100.73	13.15	-45.1	-60.5	3.6	1.51e+00	0	41	104	0	60	43176
2026-01-30 08:08:43.45	100.55	13.25	-45.5	-60.6	3.5	1.51e+00	0	41	104	0	60	43436
2026-01-30 08:08:44.43	100.36	13.34	-45.5	-60.6	3.6	1.51e+00	0	41	104	0	60	43579
2026-01-30 08:08:45.41	100.17	13.43	-45.8	-60.6	3.6	1.51e+00	0	41	104	0	60	43288
2026-01-30 08:08:46.39	99.97	13.53	-45.0	-60.6	3.6	1.51e+00	0	41	104	0	60	43501
2026-01-30 08:08:47.37	99.78	13.62	-45.6	-60.5	3.6	1.51e+00	0	41	104	0	60	43069
2026-01-30 08:08:48.35	99.58	13.72	-44.9	-60.6	3.6	1.51e+00	0	41	104	0	60	43416
2026-01-30 08:08:49.33	99.39	13.81	-45.3	-60.6	3.6	1.51e+00	0	41	104	0	60	43389
2026-01-30 08:08:50.30	99.19	13.90	-45.7	-60.6	3.6	1.51e+00	0	41	104	0	60	43324
2026-01-30 08:08:51.28	98.99	14.00	-45.1	-60.6	3.6	1.51e+00	0	41	104	0	60	43401
2026-01-30 08:08:52.26	98.79	14.09	-45.1	-60.6	3.6	1.51e+00	0	41	104	0	60	43615
2026-01-30 08:08:53.24	98.59	14.19	-44.9	-60.6	3.6	1.51e+00	0	41	104	0	60	43274
2026-01-30 08:08:54.22	98.38	14.28	-45.5	-60.6	3.6	1.51e+00	0	41	104	0	60	43459
2026-01-30 08:08:55.20	98.18	14.38	-45.6	-60.6	3.6	1.51e+00	0	41	104	0	60	43465
2026-01-30 08:08:56.18	97.97	14.48	-45.8	-60.6	3.6	1.51e+00	0	41	104	0	60	43591
2026-01-30 08:08:57.15	97.76	14.57	-45.7	-60.6	3.6	1.51e+00	0	41	104	0	60	43254
2026-01-30 08:08:58.13	97.55	14.67	-45.9	-60.6	3.5	1.51e+00	0	41	104	0	60	43430
2026-01-30 08:08:59.11	97.34	14.76	-45.7	-60.6	3.6	1.51e+00	0	41	104	0	60	43531
2026-01-30 08:09:00.09	97.12	14.86	-45.5	-60.6	3.6	1.51e+00	0	41	104	0	60	43636
2026-01-30 08:09:01.07	96.91	14.96	-45.8	-60.6	3.6	1.51e+00	0	41	104	0	60	43450
2026-01-30 08:09:02.06	96.69	15.05	-45.6	-60.7	3.6	1.51e+00	0	41	104	0	60	43850
2026-01-30 08:09:03.04	96.47	15.15	-45.7	-60.6	3.6	1.51e+00	0	41	104	0	60	43648
2026-01-30 08:09:04.02	96.25	15.25	-44.8	-60.7	3.6	1.51e+00	0	41	104	0	60	43735
2026-01-30 08:09:05.01	96.02	15.34	-45.7	-60.6	3.6	1.51e+00	0	41	104	0	60	43647
2026-01-30 08:09:05.99	95.80	15.44	-45.8	-60.7	3.6	1.51e+00	0	41	104	0	60	43870
2026-01-30 08:09:06.97	95.57	15.54	-45.8	-60.7	3.6	1.51e+00	0	41	104	0	60	43879
2026-01-30 08:09:07.95	95.34	15.64	-45.5	-60.7	3.6	1.51e+00	0	41	104	0	60	43748
2026-01-30 08:09:08.93	95.11	15.73	-45.8	-60.7	3.6	1.51e+00	0	41	104	0	60	43846
2026-01-30 08:09:09.91	94.88	15.83	-45.5	-60.7	3.6	1.51e+00	0	41	104	0	60	43829
2026-01-30 08:09:10.90	94.65	15.93	-45.7	-60.7	3.6	1.51e+00	0	41	104	0	60	43712
2026-01-30 08:09:11.88	94.41	16.03	-45.5	-60.7	3.6	1.51e+00	0	41	104	0	60	43749
2026-01-30 08:09:12.87	94.17	16.13	-45.5	-60.6	3.6	1.51e+00	0	41	104	0	60	43639
2026-01-30 08:09:13.85	93.93	16.22	-45.5	-60.7	3.6	1.51e+00	0	41	104	0	60	43927
2026-01-30 08:09:14.83	93.69	16.32	-45.1	-60.7	3.6	1.51e+00	0	41	104	0	60	43719
2026-01-30 08:09:15.80	93.45	16.42	-45.4	-60.7	3.6	1.51e+00	0	41	104	0	60	44022
2026-01-30 08:09:16.78	93.21	16.52	-45.8	-60.7	3.6	1.51e+00	0	41	104	0	60	43853
2026-01-30 08:09:17.76	92.96	16.61	-45.8	-60.7	3.6	1.51e+00	0	41	104	0	60	43892
2026-01-30 08:09:18.74	92.71	16.71	-45.8	-60.7	3.6	1.51e+00	0	41	104	0	60	43755
2026-01-30 08:09:19.72	92.46	16.81	-45.2	-60.7	3.6	1.51e+00	0	41	104	0	60	43837
2026-01-30 08:09:20.71	92.21	16.91	-45.5	-60.7	3.6	1.51e+00	0	41	104	0	60	44130
2026-01-30 08:09:21.69	91.95	17.01	-45.8	-60.7	3.6	1.51e+00	0	41	104	0	60	44108
2026-01-30 08:09:22.68	91.69	17.11	-45.9	-60.7	3.6	1.51e+00	0	41	104	0	60	43960
2026-01-30 08:09:23.66	91.44	17.20	-45.2	-60.7	3.6	1.51e+00	0	41	104	0	60	43816
2026-01-30 08:09:24.64	91.18	17.30	-45.9	-60.7	3.6	1.51e+00	0	41	104	0	60	43846
2026-01-30 08:09:25.62	90.91	17.40	-45.8	-60.7	3.6	1.51e+00	0	41	104	0	60	44141
2026-01-30 08:09:26.59	90.65	17.50	-45.4	-60.7	3.6	1.51e+00	0	42	104	0	60	43874
2026-01-30 08:09:27.57	90.39	17.59	-45.1	-60.7	3.6	1.51e+00	0	41	104	0	60	43922
2026-01-30 08:09:28.55	90.12	17.69	-45.6	-60.7	3.6	1.51e+00	0	41	104	0	60	44084
2026-01-30 08:09:29.54	89.85	17.79	-45.8	-60.7	3.6	1.51e+00	0	41	104	0	60	44128
2026-01-30 08:09:30.52	89.57	17.89	-45.5	-60.7	3.6	1.51e+00	0	41	104	0	60	43840
2026-01-30 08:09:31.50	89.30	17.99	-45.5	-60.7	3.6	1.51e+00	0	41	104	0	60	43754
2026-01-30 08:09:32.48	89.02	18.08	-45.0	-60.7	3.6	1.51e+00	0	41	104	0	60	43838
2026-01-30 08:09:33.45	88.75	18.18	-45.0	-60.7	3.6	1.51e+00	0	41	104	0	60	44124
2026-01-30 08:09:34.44	88.46	18.28	-44.6	-60.7	3.6	1.51e+00	0	41	104	0	60	44013
2026-01-30 08:09:35.42	88.18	18.38	-45.6	-60.7	3.6	1.51e+00	0	41	104	0	60	44014
2026-01-30 08:09:36.40	87.90	18.47	-45.7	-60.8	3.6	1.51e+00	0	41	104	0	60	44299
2026-01-30 08:09:37.38	87.61	18.57	-44.9	-60.7	3.6	1.51e+00	0	42	104	0	60	44176
2026-01-30 08:09:38.35	87.32	18.66	-46.0	-60.7	3.6	1.51e+00	0	41	104	0	60	44042
2026-01-30 08:09:39.34	87.03	18.76	-45.8	-60.7	3.6	1.51e+00	0	41	104	0	60	43996
2026-01-30 08:09:40.32	86.74	18.86	-46.0	-60.7	3.6	1.51e+00	0	41	104	0	60	44187
2026-01-30 08:09:41.30	86.44	18.95	-45.9	-60.8	3.6	1.51e+00	0	41	104	0	60	44290
2026-01-30 08:09:42.28	86.14	19.05	-45.2	-60.7	3.6	1.51e+00	0	41	104	0	60	44197
2026-01-30 08:09:43.26	85.84	19.14	-45.7	-60.7	3.6	1.51e+00	0	41	104	0	60	43977
2026-01-30 08:09:44.23	85.54	19.24	-44.5	-60.8	3.6	1.51e+00	0	41	104	0	60	44634
2026-01-30 08:09:45.21	85.24	19.33	-44.2	-60.7	3.6	1.51e+00	0	41	104	0	60	44047
2026-01-30 08:09:46.19	84.93	19.43	-45.3	-60.8	3.6	1.51e+00	0	41	104	0	60	44250
2026-01-30 08:09:47.18	84.62	19.52	-43.9	-60.8	3.6	1.51e+00	0	41	104	0	60	44324
2026-01-30 08:09:48.16	84.31	19.62	-45.9	-60.8	3.6	1.51e+00	0	41	104	0	60	44355
2026-01-30 08:09:49.13	84.00	19.71	-45.3	-60.8	3.6	1.51e+00	0	41	104	0	60	44239
2026-01-30 08:09:50.10	83.69	19.80	-46.1	-60.8	3.6	1.51e+00	0	41	104	0	60	44405
2026-01-30 08:09:51.08	83.37	19.90	-45.9	-60.8	3.6	1.51e+00	0	41	104	0	60	44479
2026-01-30 08:09:52.07	83.05	19.99	-46.0	-60.8	3.6	1.51e+00	0	41	104	0	60	44323
2026-01-30 08:09:53.05	82.73	20.08	-45.5	-60.8	3.6	1.51e+00	0	41	104	0	60	44397
2026-01-30 08:09:54.02	82.41	20.17	-46.0	-60.8	3.6	1.51e+00	0	41	104	0	60	44520
2026-01-30 08:09:55.01	82.08	20.26	-46.1	-60.8	3.6	1.51e+00	0	41	104	0	60	44324
2026-01-30 08:09:55.99	81.75	20.35	-46.0	-60.8	3.6	1.51e+00	0	41	104	0	60	44401
2026-01-30 08:09:56.97	81.42	20.44	-45.9	-60.8	3.5	1.51e+00	0	41	104	0	60	44383
2026-01-30 08:09:57.95	81.08	20.53	-44.7	-60.9	3.6	1.51e+00	0	41	104	0	60	44764
2026-01-30 08:09:58.93	80.75	20.62	-45.7	-60.8	3.6	1.51e+00	0	41	104	0	60	44397
2026-01-30 08:09:59.91	80.41	20.71	-44.6	-60.8	3.6	1.51e+00	0	41	104	0	60	44384
2026-01-30 08:10:00.89	80.07	20.80	-44.1	-60.8	3.6	1.51e+00	0	41	104	0	60	44433
2026-01-30 08:10:01.87	79.73	20.89	-45.5	-60.8	3.6	1.51e+00	0	41	104	0	60	44424
2026-01-30 08:10:02.85	79.39	20.97	-44.2	-60.8	3.6	1.51e+00	0	41	104	0	60	44720
2026-01-30 08:10:03.82	79.04	21.06	-45.7	-60.8	3.6	1.51e+00	0	41	104	0	60	44571
2026-01-30 08:10:04.80	78.69	21.15	-45.9	-60.8	3.6	1.51e+00	0	41	104	0	60	44685
2026-01-30 08:10:05.78	78.34	21.23	-45.6	-60.8	3.6	1.51e+00	0	41	104	0	60	44518
2026-01-30 08:10:06.77	77.99	21.32	-45.7	-60.8	3.6	1.51e+00	0	41	104	0	60	44685
2026-01-30 08:10:07.75	77.63	21.40	-46.0	-60.8	3.6	1.51e+00	0	41	104	0	60	44589
2026-01-30 08:10:08.73	77.27	21.48	-45.8	-60.9	3.6	1.51e+00	0	41	104	0	60	44800
2026-01-30 08:10:09.72	76.91	21.57	-45.7	-60.8	3.6	1.51e+00	0	41	104	0	60	44686
2026-01-30 08:10:10.69	76.55	21.65	-45.8	-60.8	3.6	1.51e+00	0	41	104	0	60	44683
2026-01-30 08:10:11.67	76.19	21.73	-45.8	-60.8	3.5	1.51e+00	0	41	104	0	60	44579
2026-01-30 08:10:12.65	75.82	21.81	-45.7	-60.8	3.6	1.51e+00	0	41	104	0	60	44688
2026-01-30 08:10:13.63	75.46	21.89	-46.0	-60.9	3.5	1.51e+00	0	41	104	0	60	44761
2026-01-30 08:10:14.61	75.08	21.97	-46.0	-60.8	3.6	1.51e+00	0	41	104	0	60	44522
2026-01-30 08:10:15.59	74.71	22.04	-45.7	-60.8	3.6	1.51e+00	0	41	104	0	60	44557
2026-01-30 08:10:16.57	74.34	22.12	-44.7	-60.9	3.6	1.51e+00	0	41	104	0	60	44741
2026-01-30 08:10:17.55	73.96	22.19	-44.5	-60.9	3.6	1.51e+00	0	41	104	0	60	44840
2026-01-30 08:10:18.53	73.58	22.27	-45.0	-60.8	3.6	1.51e+00	0	41	104	0	60	44569
2026-01-30 08:10:19.50	73.21	22.34	-45.3	-60.9	3.6	1.51e+00	0	41	104	0	60	44769
2026-01-30 08:10:20.48	72.82	22.42	-45.8	-60.8	3.6	1.51e+00	0	41	104	0	60	44682
2026-01-30 08:10:21.46	72.44	22.49	-45.9	-60.8	3.6	1.51e+00	0	41	104	0	60	44619
2026-01-30 08:10:22.44	72.05	22.56	-45.9	-60.8	3.6	1.51e+00	0	41	104	0	60	44600
2026-01-30 08:10:23.42	71.66	22.63	-46.0	-60.8	3.6	1.51e+00	0	42	104	0	60	44696
2026-01-30 08:10:24.40	71.27	22.70	-46.1	-60.9	3.6	1.51e+00	0	41	104	0	60	44730
2026-01-30 08:10:25.38	70.88	22.76	-46.1	-60.9	3.6	1.51e+00	0	41	104	0	60	44831
2026-01-30 08:10:26.36	70.48	22.83	-45.9	-60.9	3.6	1.51e+00	0	41	104	0	60	44829
2026-01-30 08:10:27.34	70.09	22.90	-46.0	-60.8	3.6	1.51e+00	0	41	104	0	60	44541
2026-01-30 08:10:28.31	69.69	22.96	-45.8	-60.9	3.6	1.51e+00	0	41	104	0	60	44915
2026-01-30 08:10:29.29	69.29	23.02	-45.6	-60.9	3.5	1.51e+00	0	42	104	0	60	44783
2026-01-30 08:10:30.27	68.89	23.09	-45.8	-60.9	3.6	1.51e+00	0	41	104	0	60	44951
2026-01-30 08:10:31.26	68.48	23.15	-45.5	-60.9	3.5	1.51e+00	0	41	104	0	60	44921
2026-01-30 08:10:32.24	68.08	23.21	-45.9	-60.9	3.6	1.51e+00	0	41	104	0	60	45013
2026-01-30 08:10:33.22	67.67	23.27	-46.2	-60.9	3.6	1.51e+00	0	42	104	0	60	44801
2026-01-30 08:10:34.20	67.26	23.32	-46.2	-60.9	3.6	1.51e+00	0	41	104	0	60	44786
2026-01-30 08:10:35.18	66.85	23.38	-46.1	-60.8	3.6	1.51e+00	0	41	104	0	60	44724
2026-01-30 08:10:36.16	66.44	23.43	-45.9	-60.9	3.6	1.51e+00	0	41	104	0	60	44905
2026-01-30 08:10:37.14	66.02	23.49	-45.6	-60.9	3.6	1.51e+00	0	41	104	0	60	44916
2026-01-30 08:10:38.12	65.61	23.54	-44.2	-60.9	3.6	1.51e+00	0	41	104	0	60	44847
2026-01-30 08:10:39.10	65.19	23.59	-45.4	-60.8	3.6	1.51e+00	0	41	104	0	60	44719
2026-01-30 08:10:40.08	64.77	23.64	-44.4	-60.9	3.6	1.51e+00	0	41	104	0	60	44988
2026-01-30 08:10:41.06	64.35	23.69	-45.3	-60.9	3.6	1.51e+00	0	41	104	0	60	44855
2026-01-30 08:10:42.04	63.93	23.73	-46.0	-60.9	3.6	1.51e+00	0	41	104	0	60	44732
2026-01-30 08:10:43.02	63.51	23.78	-45.1	-60.8	3.6	1.51e+00	0	41	104	0	60	44593
2026-01-30 08:10:43.99	63.09	23.82	-46.0	-60.8	3.6	1.51e+00	0	41	104	0	60	44712
2026-01-30 08:10:44.98	62.66	23.86	-46.0	-60.9	3.6	1.51e+00	0	41	104	0	60	44983
2026-01-30 08:10:45.96	62.23	23.90	-46.1	-60.9	3.5	1.51e+00	0	41	104	0	60	44792
2026-01-30 08:10:46.93	61.81	23.94	-46.0	-60.9	3.6	1.51e+00	0	41	104	0	60	44729
2026-01-30 08:10:47.91	61.38	23.98	-45.9	-60.9	3.6	1.51e+00	0	41	104	0	60	44781
2026-01-30 08:10:48.89	60.95	24.02	-46.1	-60.9	3.6	1.51e+00	0	41	104	0	60	44922
2026-01-30 08:10:49.87	60.51	24.05	-46.1	-60.9	3.6	1.51e+00	0	41	104	0	60	44993
2026-01-30 08:10:50.84	60.09	24.08	-46.1	-60.9	3.6	1.51e+00	0	41	104	0	60	45138
2026-01-30 08:10:51.82	59.65	24.12	-46.1	-60.9	3.6	1.51e+00	0	41	104	0	60	44900
2026-01-30 08:10:52.80	59.22	24.15	-46.1	-60.9	3.6	1.51e+00	0	41	104	0	60	44939
2026-01-30 08:10:53.78	58.78	24.17	-45.4	-60.9	3.6	1.51e+00	0	41	104	0	60	44844
2026-01-30 08:10:54.76	58.35	24.20	-46.1	-60.9	3.6	1.51e+00	0	41	104	0	60	44865
2026-01-30 08:10:55.74	57.91	24.23	-44.9	-60.9	3.6	1.51e+00	0	41	104	0	60	44937
2026-01-30 08:10:56.71	57.48	24.25	-44.6	-60.9	3.6	1.51e+00	0	42	104	0	60	44919
2026-01-30 08:10:57.69	57.04	24.27	-45.9	-60.9	3.6	1.51e+00	0	42	104	0	60	45114
2026-01-30 08:10:58.67	56.60	24.29	-45.4	-60.8	3.6	1.51e+00	0	42	104	0	60	44626
2026-01-30 08:10:59.65	56.16	24.31	-45.7	-60.9	3.6	1.51e+00	0	42	104	0	60	44867
2026-01-30 08:11:00.62	55.72	24.33	-46.0	-60.9	3.6	1.51e+00	0	41	104	0	60	44928
2026-01-30 08:11:01.61	55.28	24.34	-46.2	-60.9	3.6	1.51e+00	0	41	104	0	60	44997
2026-01-30 08:11:02.59	54.84	24.36	-46.2	-60.9	3.6	1.51e+00	0	41	104	0	60	44883
2026-01-30 08:11:03.57	54.39	24.37	-46.0	-60.9	3.6	1.51e+00	0	41	104	0	60	44977
2026-01-30 08:11:04.55	53.95	24.38	-46.1	-60.9	3.6	1.51e+00	0	42	104	0	60	44879
2026-01-30 08:11:05.53	53.51	24.39	-46.2	-60.9	3.6	1.51e+00	0	41	104	0	60	44900
2026-01-30 08:11:06.51	53.07	24.39	-45.7	-60.9	3.6	1.51e+00	0	41	104	0	60	45151
2026-01-30 08:11:07.48	52.63	24.40	-46.2	-60.9	3.6	1.51e+00	0	41	104	0	60	45030
2026-01-30 08:11:08.46	52.19	24.40	-45.7	-60.9	3.6	1.51e+00	0	41	104	0	60	45021
2026-01-30 08:11:09.44	51.74	24.40	-45.0	-60.9	3.6	1.51e+00	0	42	104	0	60	45096
2026-01-30 08:11:10.41	51.31	24.40	-45.2	-60.9	3.6	1.51e+00	0	41	104	0	60	44793
2026-01-30 08:11:11.39	50.86	24.40	-45.7	-60.9	3.6	1.51e+00	0	41	104	0	60	44914
2026-01-30 08:11:12.37	50.42	24.40	-45.5	-60.9	3.6	1.51e+00	0	41	104	0	60	44965
2026-01-30 08:11:13.35	49.98	24.40	-45.6	-60.9	3.6	1.51e+00	0	41	104	0	60	45051
2026-01-30 08:11:14.33	49.53	24.39	-46.2	-60.9	3.6	1.51e+00	0	42	104	0	60	44777
2026-01-30 08:11:15.31	49.09	24.38	-46.1	-60.9	3.6	1.51e+00	0	41	104	0	60	44845
2026-01-30 08:11:16.29	48.65	24.37	-46.2	-60.9	3.6	1.51e+00	0	41	104	0	60	45059
2026-01-30 08:11:17.27	48.21	24.36	-46.2	-60.9	3.6	1.51e+00	0	42	104	0	60	44998
2026-01-30 08:11:18.26	47.76	24.35	-45.9	-60.9	3.6	1.51e+00	0	41	104	0	60	44977
2026-01-30 08:11:19.24	47.32	24.33	-45.6	-60.8	3.6	1.51e+00	0	41	104	0	60	44570
2026-01-30 08:11:20.22	46.88	24.31	-45.5	-60.8	3.6	1.51e+00	0	41	104	0	60	44706
2026-01-30 08:11:21.20	46.44	24.30	-46.1	-60.9	3.6	1.51e+00	0	41	104	0	60	44799
2026-01-30 08:11:22.18	46.00	24.28	-46.2	-60.9	3.6	1.51e+00	0	42	104	0	60	44911
2026-01-30 08:11:23.17	45.56	24.25	-45.7	-60.9	3.6	1.51e+00	0	42	104	0	60	44788
2026-01-30 08:11:24.15	45.12	24.23	-46.2	-60.9	3.6	1.51e+00	0	41	104	0	60	44856
2026-01-30 08:11:25.13	44.68	24.21	-46.0	-60.9	3.6	1.51e+00	0	41	104	0	60	44993
2026-01-30 08:11:26.10	44.25	24.18	-46.0	-60.9	3.6	1.51e+00	0	41	104	0	60	44914
2026-01-30 08:11:27.08	43.81	24.15	-46.1	-60.9	3.6	1.51e+00	0	41	104	0	60	44871
2026-01-30 08:11:28.06	43.38	24.12	-46.2	-60.9	3.6	1.51e+00	0	41	104	0	60	45230
2026-01-30 08:11:29.04	42.94	24.09	-46.2	-60.9	3.6	1.51e+00	0	41	104	0	60	44999
2026-01-30 08:11:30.02	42.51	24.06	-45.8	-60.9	3.6	1.51e+00	0	41	104	0	60	44898
2026-01-30 08:11:31.00	42.08	24.03	-45.9	-60.9	3.6	1.51e+00	0	41	104	0	60	44838
2026-01-30 08:11:31.98	41.65	23.99	-46.1	-60.9	3.6	1.51e+00	0	41	104	0	60	44927
2026-01-30 08:11:32.96	41.22	23.95	-46.1	-60.9	3.6	1.51e+00	0	41	104	0	60	44974
2026-01-30 08:11:33.93	40.80	23.91	-45.9	-60.9	3.6	1.51e+00	0	41	104	0	60	45000
2026-01-30 08:11:34.92	40.36	23.87	-46.2	-60.9	3.6	1.51e+00	0	41	104	0	60	44953
2026-01-30 08:11:35.90	39.94	23.83	-45.8	-60.9	3.6	1.51e+00	0	41	104	0	60	45071
2026-01-30 08:11:36.87	39.52	23.79	-46.1	-60.9	3.6	1.51e+00	0	41	104	0	60	44907
2026-01-30 08:11:37.85	39.09	23.74	-46.2	-61.0	3.6	1.51e+00	0	41	104	0	60	45288
2026-01-30 08:11:38.83	38.67	23.70	-45.9	-60.9	3.6	1.51e+00	0	41	104	0	60	44928
2026-01-30 08:11:39.81	38.25	23.65	-45.8	-60.9	3.6	1.51e+00	0	41	104	0	60	44941
2026-01-30 08:11:40.78	37.84	23.60	-45.7	-60.9	3.6	1.51e+00	0	41	104	0	60	44776
2026-01-30 08:11:41.76	37.42	23.55	-45.3	-60.9	3.6	1.51e+00	0	41	104	0	60	44931
2026-01-30 08:11:42.74	37.00	23.50	-45.3	-60.8	3.6	1.51e+00	0	42	104	0	60	44690
2026-01-30 08:11:43.72	36.59	23.45	-46.2	-60.9	3.6	1.51e+00	0	41	104	0	60	45009
2026-01-30 08:11:44.70	36.18	23.39	-46.2	-60.9	3.6	1.51e+00	0	41	104	0	60	44975
2026-01-30 08:11:45.68	35.76	23.34	-46.2	-60.9	3.6	1.51e+00	0	41	104	0	60	44927
2026-01-30 08:11:46.66	35.35	23.28	-46.2	-60.9	3.6	1.51e+00	0	41	104	0	60	44785
2026-01-30 08:11:47.64	34.95	23.22	-46.1	-60.9	3.6	1.51e+00	0	41	104	0	60	45146
2026-01-30 08:11:48.63	34.54	23.16	-46.2	-60.9	3.6	1.51e+00	0	42	104	0	60	45094
2026-01-30 08:11:49.61	34.13	23.10	-46.0	-60.9	3.6	1.51e+00	0	41	104	0	60	44983
2026-01-30 08:11:50.58	33.73	23.04	-46.0	-60.9	3.6	1.51e+00	0	41	104	0	60	44786
2026-01-30 08:11:51.56	33.33	22.98	-46.2	-60.9	3.6	1.51e+00	0	41	104	0	60	44885
2026-01-30 08:11:52.54	32.93	22.91	-46.1	-60.9	3.6	1.51e+00	0	41	104	0	60	44995
2026-01-30 08:11:53.53	32.53	22.85	-46.0	-60.9	3.6	1.51e+00	0	41	104	0	60	44785
2026-01-30 08:11:54.51	32.14	22.78	-46.2	-60.9	3.6	1.51e+00	0	41	104	0	60	44753
2026-01-30 08:11:55.50	31.74	22.71	-46.1	-60.9	3.6	1.51e+00	0	41	104	0	60	44744
2026-01-30 08:11:56.48	31.35	22.64	-46.2	-60.9	3.6	1.51e+00	0	41	104	0	60	44859
2026-01-30 08:11:57.46	30.96	22.57	-46.1	-60.9	3.6	1.51e+00	0	41	104	0	60	44736
2026-01-30 08:11:58.44	30.57	22.50	-46.2	-60.9	3.6	1.51e+00	0	41	104	0	60	44955
2026-01-30 08:11:59.42	30.18	22.43	-46.1	-60.9	3.6	1.51e+00	0	41	104	0	60	44981
2026-01-30 08:12:00.40	29.80	22.36	-46.1	-60.9	3.6	1.51e+00	0	41	104	0	60	45076
2026-01-30 08:12:01.38	29.42	22.29	-46.2	-60.9	3.6	1.51e+00	0	41	104	0	60	44883
2026-01-30 08:12:02.36	29.04	22.21	-46.2	-60.9	3.6	1.51e+00	0	41	104	0	60	44929
2026-01-30 08:12:03.34	28.66	22.14	-46.1	-60.8	3.6	1.51e+00	0	42	104	0	60	44570
2026-01-30 08:12:04.32	28.29	22.06	-46.1	-60.8	3.6	1.51e+00	0	41	104	0	60	44653
2026-01-30 08:12:05.30	27.91	21.98	-46.1	-60.9	3.6	1.51e+00	0	41	104	0	60	45035
2026-01-30 08:12:06.28	27.54	21.90	-46.2	-60.9	3.6	1.51e+00	0	41	104	0	60	44736
2026-01-30 08:12:07.26	27.17	21.82	-46.2	-60.9	3.6	1.51e+00	0	41	104	0	60	44768
2026-01-30 08:12:08.24	26.81	21.74	-46.1	-60.9	3.6	1.51e+00	0	41	104	0	60	44770
2026-01-30 08:12:09.22	26.44	21.66	-46.2	-60.9	3.6	1.51e+00	0	41	104	0	60	44741
2026-01-30 08:12:10.20	26.08	21.58	-46.2	-60.9	3.6	1.51e+00	0	41	104	0	60	44774
2026-01-30 08:12:11.17	25.72	21.50	-46.1	-60.8	3.6	1.51e+00	0	41	104	0	60	44562
2026-01-30 08:12:12.15	25.37	21.42	-46.2	-60.9	3.6	1.51e+00	0	41	104	0	60	44743
2026-01-30 08:12:13.13	25.01	21.33	-46.2	-60.9	3.6	1.51e+00	0	42	104	0	60	44782
2026-01-30 08:12:14.10	24.66	21.25	-46.1	-60.9	3.6	1.51e+00	0	42	104	0	60	44860
2026-01-30 08:12:15.08	24.31	21.17	-46.0	-60.8	3.6	1.51e+00	0	41	104	0	60	44614
2026-01-30 08:12:16.06	23.96	21.08	-46.2	-60.9	3.6	1.51e+00	0	42	104	0	60	44836
2026-01-30 08:12:17.04	23.61	20.99	-46.1	-60.8	3.6	1.51e+00	0	41	104	0	60	44617
2026-01-30 08:12:18.02	23.27	20.91	-46.2	-60.8	3.6	1.51e+00	0	41	104	0	60	44546
2026-01-30 08:12:19.00	22.93	20.82	-46.2	-60.8	3.6	1.51e+00	0	41	104	0	60	44527
2026-01-30 08:12:19.98	22.59	20.73	-46.2	-60.9	3.6	1.51e+00	0	42	104	0	60	44777
2026-01-30 08:12:20.96	22.25	20.64	-46.2	-60.8	3.6	1.51e+00	0	42	104	0	60	44459
2026-01-30 08:12:21.94	21.91	20.55	-46.1	-60.8	3.6	1.51e+00	0	41	104	0	60	44595
2026-01-30 08:12:22.92	21.58	20.46	-46.1	-60.8	3.6	1.51e+00	0	42	104	0	60	44555
2026-01-30 08:12:23.90	21.25	20.37	-46.2	-60.9	3.6	1.51e+00	0	42	104	0	60	44970
2026-01-30 08:12:24.88	20.92	20.28	-46.1	-60.9	3.6	1.51e+00	0	41	104	0	60	44735
2026-01-30 08:12:25.87	20.59	20.19	-46.2	-60.8	3.6	1.51e+00	0	42	104	0	60	44671
2026-01-30 08:12:26.85	20.26	20.10	-46.1	-60.8	3.6	1.51e+00	0	42	104	0	60	44724
2026-01-30 08:12:27.82	19.94	20.01	-46.2	-60.9	3.6	1.51e+00	0	41	104	0	60	44753
2026-01-30 08:12:28.80	19.62	19.92	-46.1	-60.8	3.6	1.51e+00	0	41	104	0	60	44693
2026-01-30 08:12:29.78	19.30	19.82	-46.1	-60.9	3.6	1.51e+00	0	42	104	0	60	44745
2026-01-30 08:12:30.76	18.99	19.73	-46.1	-60.8	3.6	1.51e+00	0	42	104	0	60	44650
2026-01-30 08:12:31.74	18.67	19.64	-46.0	-60.8	3.6	1.51e+00	0	42	104	0	60	44684
2026-01-30 08:12:32.73	18.36	19.54	-46.1	-60.8	3.6	1.51e+00	0	42	104	0	60	44510
2026-01-30 08:12:33.71	18.05	19.45	-46.1	-60.9	3.6	1.51e+00	0	41	104	0	60	44743
2026-01-30 08:12:34.69	17.74	19.35	-46.1	-60.8	3.6	1.51e+00	0	41	104	0	60	44344
2026-01-30 08:12:35.67	17.44	19.26	-46.1	-60.8	3.6	1.51e+00	0	41	104	0	60	44557
2026-01-30 08:12:36.65	17.14	19.16	-46.0	-60.8	3.6	1.51e+00	0	42	104	0	60	44484
2026-01-30 08:12:37.63	16.84	19.07	-46.0	-60.8	3.6	1.51e+00	0	41	104	0	60	44484
2026-01-30 08:12:38.61	16.54	18.97	-46.1	-60.8	3.6	1.51e+00	0	41	104	0	60	44315
2026-01-30 08:12:39.59	16.24	18.88	-46.0	-60.8	3.6	1.51e+00	0	41	104	0	60	44289
2026-01-30 08:12:40.56	15.95	18.78	-46.1	-60.8	3.6	1.51e+00	0	42	104	0	60	44437
2026-01-30 08:12:41.54	15.66	18.68	-46.1	-60.8	3.6	1.51e+00	0	41	104	0	60	44480
2026-01-30 08:12:42.53	15.37	18.59	-46.0	-60.8	3.6	1.51e+00	0	41	104	0	60	44486
2026-01-30 08:12:43.51	15.08	18.49	-46.1	-60.8	3.6	1.51e+00	0	41	104	0	60	44239
2026-01-30 08:12:44.49	14.79	18.39	-46.1	-60.8	3.6	1.51e+00	0	41	104	0	60	44376
2026-01-30 08:12:45.47	14.51	18.30	-45.9	-60.7	3.6	1.51e+00	0	41	104	0	60	44206
2026-01-30 08:12:46.45	14.23	18.20	-46.0	-60.7	3.6	1.51e+00	0	42	104	0	60	44158
2026-01-30 08:12:47.43	13.95	18.10	-46.0	-60.8	3.6	1.51e+00	0	41	104	0	60	44223
2026-01-30 08:12:48.41	13.67	18.00	-46.1	-60.7	3.6	1.51e+00	0	41	104	0	60	44196
2026-01-30 08:12:49.39	13.40	17.91	-46.0	-60.7	3.6	1.51e+00	0	41	104	0	60	44196
2026-01-30 08:12:50.37	13.13	17.81	-46.0	-60.7	3.6	1.51e+00	0	41	104	0	60	44124
2026-01-30 08:12:51.35	12.86	17.71	-46.1	-60.7	3.6	1.51e+00	0	42	104	0	60	44190
2026-01-30 08:12:52.33	12.59	17.61	-46.1	-60.8	3.6	1.51e+00	0	41	104	0	60	44227
2026-01-30 08:12:53.30	12.32	17.52	-45.8	-60.8	3.6	1.51e+00	0	42	104	0	60	44290
2026-01-30 08:12:54.29	12.06	17.42	-46.0	-60.7	3.6	1.51e+00	0	41	104	0	60	44167
2026-01-30 08:12:55.27	11.79	17.32	-46.0	-60.7	3.6	1.51e+00	0	42	104	0	60	43869
2026-01-30 08:12:56.25	11.53	17.22	-46.0	-60.7	3.6	1.51e+00	0	42	104	0	60	44084
2026-01-30 08:12:57.23	11.27	17.12	-46.0	-60.7	3.6	1.51e+00	0	42	104	0	60	44088
2026-01-30 08:12:58.21	11.02	17.02	-46.0	-60.8	3.6	1.51e+00	0	42	104	0	60	44342
2026-01-30 08:12:59.18	10.77	16.93	-46.0	-60.7	3.6	1.51e+00	0	42	104	0	60	43925
2026-01-30 08:13:00.16	10.51	16.83	-46.1	-60.8	3.6	1.51e+00	0	42	104	0	60	44247
2026-01-30 08:13:01.14	10.26	16.73	-46.0	-60.7	3.6	1.51e+00	0	42	104	0	60	44134
2026-01-30 08:13:02.12	10.01	16.63	-46.1	-60.7	3.6	1.51e+00	0	42	104	0	60	44176
2026-01-30 08:13:03.11	9.76	16.53	-46.0	-60.7	3.6	1.51e+00	0	42	104	0	60	43930
2026-01-30 08:13:04.09	9.52	16.44	-46.0	-60.7	3.5	1.51e+00	0	42	104	0	60	43976
2026-01-30 08:13:05.07	9.28	16.34	-46.0	-60.7	3.6	1.51e+00	0	42	104	0	60	44068
2026-01-30 08:13:06.05	9.03	16.24	-46.0	-60.8	3.6	1.51e+00	0	42	104	0	60	44292
2026-01-30 08:13:07.04	8.79	16.14	-46.0	-60.7	3.6	1.51e+00	0	42	104	0	60	44203
2026-01-30 08:13:08.02	8.55	16.04	-46.1	-60.9	3.6	1.51e+00	0	42	104	0	60	44766
2026-01-30 08:13:09.00	8.32	15.94	-46.1	-60.7	3.6	1.51e+00	0	42	104	0	60	44180
2026-01-30 08:13:09.98	8.09	15.85	-46.1	-60.8	3.6	1.51e+00	0	42	104	0	60	44405
2026-01-30 08:13:10.96	7.85	15.75	-46.0	-60.7	3.6	1.51e+00	0	42	104	0	60	44063
2026-01-30 08:13:11.94	7.62	15.65	-46.1	-60.7	3.6	1.51e+00	0	42	104	0	60	44128
2026-01-30 08:13:12.93	7.39	15.55	-46.1	-60.8	3.6	1.51e+00	0	42	104	0	60	44315
2026-01-30 08:13:13.91	7.17	15.46	-46.1	-60.8	3.6	1.51e+00	0	42	104	0	60	44248
2026-01-30 08:13:14.90	6.94	15.36	-46.0	-60.7	3.6	1.51e+00	0	42	104	0	60	44076
2026-01-30 08:13:15.88	6.72	15.26	-46.0	-60.7	3.6	1.51e+00	0	42	104	0	60	44149
2026-01-30 08:13:16.86	6.49	15.16	-46.0	-60.7	3.6	1.51e+00	0	42	104	0	60	44101
2026-01-30 08:13:17.84	6.27	15.07	-46.0	-60.7	3.6	1.51e+00	0	42	104	0	60	43969
2026-01-30 08:13:18.82	6.06	14.97	-46.0	-60.7	3.6	1.51e+00	0	42	104	0	60	43729
2026-01-30 08:13:19.81	5.84	14.87	-46.0	-60.8	3.6	1.51e+00	0	42	104	0	60	44215
2026-01-30 08:13:20.78	5.63	14.78	-46.0	-60.7	3.6	1.51e+00	0	42	104	0	60	44101
2026-01-30 08:13:21.76	5.41	14.68	-45.9	-60.7	3.6	1.51e+00	0	42	104	0	60	43901
2026-01-30 08:13:22.74	5.20	14.58	-45.9	-60.7	3.6	1.51e+00	0	41	104	0	60	43800
2026-01-30 08:13:23.72	4.99	14.49	-46.0	-60.7	3.6	1.51e+00	0	42	104	0	60	44067
2026-01-30 08:13:24.70	4.78	14.39	-46.0	-60.7	3.6	1.51e+00	0	42	104	0	60	43820
2026-01-30 08:13:25.68	4.58	14.30	-46.0	-60.7	3.6	1.51e+00	0	41	104	0	60	43761
2026-01-30 08:13:26.66	4.37	14.20	-46.0	-60.6	3.5	1.51e+00	0	42	104	0	60	43599
2026-01-30 08:13:27.64	4.17	14.11	-45.9	-60.7	3.6	1.51e+00	0	42	104	0	60	43783
2026-01-30 08:13:28.62	3.97	14.01	-46.0	-60.7	3.6	1.51e+00	0	41	104	0	60	44062
2026-01-30 08:13:29.60	3.77	13.92	-46.0	-60.7	3.6	1.51e+00	0	42	104	0	60	43799
2026-01-30 08:13:30.59	3.57	13.82	-45.9	-60.7	3.6	1.51e+00	0	42	104	0	60	43839
2026-01-30 08:13:31.57	3.37	13.73	-45.9	-60.7	3.6	1.51e+00	0	42	104	0	60	43946
2026-01-30 08:13:32.55	3.17	13.63	-46.0	-60.7	3.6	1.51e+00	0	42	104	0	60	43807
2026-01-30 08:13:33.53	2.98	13.54	-46.0	-60.6	3.6	1.51e+00	0	41	104	0	60	43686
2026-01-30 08:13:34.51	2.79	13.44	-45.9	-60.7	3.6	1.51e+00	0	42	104	0	60	43718
2026-01-30 08:13:35.49	2.60	13.35	-45.9	-60.6	3.6	1.51e+00	0	42	104	0	60	43591
2026-01-30 08:13:36.46	2.41	13.26	-45.9	-60.7	3.6	1.51e+00	0	42	104	0	60	43722
2026-01-30 08:13:37.44	2.22	13.16	-45.9	-60.6	3.6	1.51e+00	0	42	104	0	60	43602
2026-01-30 08:13:38.42	2.03	13.07	-45.9	-60.6	3.6	1.51e+00	0	42	104	0	60	43640
2026-01-30 08:13:39.40	1.85	12.98	-45.9	-60.6	3.6	1.51e+00	0	42	104	0	60	43510
2026-01-30 08:13:40.38	1.66	12.89	-46.1	-60.8	3.5	1.51e+00	0	41	104	0	60	44342
2026-01-30 08:13:41.36	1.48	12.79	-45.8	-60.7	3.6	1.51e+00	0	41	104	0	60	43966
2026-01-30 08:13:42.34	1.30	12.70	-46.0	-60.7	3.6	1.51e+00	0	42	104	0	60	44154
2026-01-30 08:13:43.32	1.12	12.61	-46.0	-60.7	3.6	1.51e+00	0	42	104	0	60	44197
2026-01-30 08:13:44.30	0.94	12.52	-46.0	-60.8	3.6	1.51e+00	0	42	104	0	60	44327
2026-01-30 08:13:45.28	0.77	12.43	-46.1	-60.8	3.6	1.51e+00	0	42	104	0	60	44394
2026-01-30 08:13:46.26	0.59	12.33	-46.0	-60.7	3.6	1.51e+00	0	42	104	0	60	43920
2026-01-30 08:13:47.24	0.42	12.24	-46.0	-60.7	3.6	1.51e+00	0	42	104	0	60	43850
2026-01-30 08:13:48.23	0.24	12.15	-46.0	-60.6	3.6	1.51e+00	0	42	104	0	60	43639
2026-01-30 08:13:49.21	0.07	12.06	-45.9	-60.6	3.6	1.51e+00	0	42	104	0	60	43368
2026-01-30 08:13:50.19	359.90	11.97	-45.8	-60.6	3.6	1.51e+00	0	42	104	0	60	43441
2026-01-30 08:13:51.17	359.73	11.88	-45.9	-60.6	3.6	1.51e+00	0	42	104	0	60	43332
2026-01-30 08:13:52.15	359.56	11.79	-45.8	-60.6	3.6	1.51e+00	0	42	104	0	60	43340
2026-01-30 08:13:53.13	359.40	11.70	-45.9	-60.6	3.6	1.51e+00	0	41	104	0	60	43356
2026-01-30 08:13:54.11	359.23	11.61	-45.8	-60.5	3.6	1.51e+00	0	42	104	0	60	43190
2026-01-30 08:13:55.09	359.07	11.52	-45.6	-60.6	3.6	1.51e+00	0	42	104	0	60	43237
2026-01-30 08:13:56.07	358.91	11.43	-45.8	-60.6	3.6	1.51e+00	0	42	104	0	60	43597
2026-01-30 08:13:57.06	358.74	11.34	-45.6	-60.5	3.6	1.51e+00	0	41	104	0	60	43073
2026-01-30 08:13:58.03	358.58	11.25	-45.9	-60.6	3.6	1.51e+00	0	41	104	0	60	43397
2026-01-30 08:13:59.01	358.42	11.17	-45.7	-60.6	3.6	1.51e+00	0	42	104	0	60	43280
2026-01-30 08:13:59.99	358.27	11.08	-45.8	-60.6	3.6	1.51e+00	0	41	104	0	60	43428
2026-01-30 08:14:00.97	358.11	10.99	-45.8	-60.5	3.6	1.51e+00	0	41	104	0	60	43055
2026-01-30 08:14:01.95	357.95	10.90	-45.8	-60.5	3.6	1.51e+00	0	41	104	0	60	43018
2026-01-30 08:14:02.93	357.80	10.81	-45.8	-60.5	3.6	1.51e+00	0	41	104	0	60	43093
2026-01-30 08:14:03.91	357.65	10.73	-45.8	-60.6	3.6	1.51e+00	0	41	104	0	60	43492
2026-01-30 08:14:04.89	357.49	10.64	-45.8	-60.5	3.6	1.51e+00	0	42	104	0	60	42964
2026-01-30 08:14:05.88	357.34	10.55	-45.8	-60.5	3.6	1.51e+00	0	41	104	0	60	43173
2026-01-30 08:14:06.85	357.19	10.47	-45.8	-60.5	3.6	1.51e+00	0	42	104	0	60	42977
2026-01-30 08:14:07.83	357.04	10.38	-45.9	-60.5	3.6	1.51e+00	0	41	104	0	60	43052
2026-01-30 08:14:08.81	356.90	10.29	-45.8	-60.5	3.6	1.51e+00	0	42	104	0	60	42880
2026-01-30 08:14:09.79	356.75	10.21	-45.8	-60.5	3.6	1.51e+00	0	42	104	0	60	43038
2026-01-30 08:14:10.77	356.60	10.12	-45.7	-60.5	3.6	1.51e+00	0	41	104	0	60	42905
2026-01-30 08:14:11.76	356.46	10.04	-45.8	-60.6	3.6	1.51e+00	0	42	104	0	60	43213
2026-01-30 08:14:12.74	356.31	9.95	-45.8	-60.5	3.6	1.51e+00	0	42	104	0	60	42749
2026-01-30 08:14:13.73	356.17	9.87	-45.8	-60.5	3.6	1.51e+00	0	42	104	0	60	42845
2026-01-30 08:14:14.71	356.03	9.78	-45.8	-60.5	3.6	1.51e+00	0	42	104	0	60	43034
2026-01-30 08:14:15.69	355.89	9.70	-45.9	-60.5	3.6	1.51e+00	0	42	104	0	60	43161
2026-01-30 08:14:16.67	355.75	9.61	-45.8	-60.4	3.5	1.51e+00	0	42	104	0	60	42678
2026-01-30 08:14:17.66	355.61	9.53	-45.8	-60.5	3.6	1.51e+00	0	42	104	0	60	42816
2026-01-30 08:14:18.64	355.47	9.44	-45.8	-60.5	3.6	1.51e+00	0	42	104	0	60	42900
2026-01-30 08:14:19.62	355.34	9.36	-45.8	-60.5	3.6	1.51e+00	0	42	104	0	60	43080
2026-01-30 08:14:20.60	355.20	9.28	-45.7	-60.4	3.6	1.51e+00	0	42	104	0	60	42490
2026-01-30 08:14:21.59	355.07	9.19	-45.6	-60.4	3.6	1.51e+00	0	42	104	0	60	42602
2026-01-30 08:14:22.57	354.93	9.11	-45.6	-60.5	3.6	1.51e+00	0	42	104	0	60	42896
2026-01-30 08:14:23.54	354.80	9.03	-45.7	-60.6	3.6	1.51e+00	0	42	104	0	60	43325
2026-01-30 08:14:24.53	354.67	8.95	-45.8	-60.5	3.6	1.51e+00	0	42	104	0	60	42773
2026-01-30 08:14:25.51	354.54	8.87	-45.7	-60.4	3.6	1.51e+00	0	42	104	0	60	42419
2026-01-30 08:14:26.50	354.41	8.78	-45.8	-60.5	3.6	1.51e+00	0	42	104	0	60	43071
2026-01-30 08:14:27.48	354.28	8.70	-45.9	-60.6	3.6	1.51e+00	0	42	104	0	60	43240
2026-01-30 08:14:28.46	354.15	8.62	-45.8	-60.5	3.6	1.51e+00	0	42	104	0	60	42855
2026-01-30 08:14:29.43	354.03	8.54	-45.7	-60.4	3.6	1.51e+00	0	42	104	0	60	42627
2026-01-30 08:14:30.41	353.90	8.46	-45.9	-60.6	3.6	1.51e+00	0	42	104	0	60	43499
2026-01-30 08:14:31.40	353.77	8.38	-45.9	-60.6	3.6	1.51e+00	0	42	104	0	60	43554
2026-01-30 08:14:32.37	353.65	8.30	-45.8	-60.5	3.6	1.51e+00	0	42	104	0	60	42937
2026-01-30 08:14:33.35	353.53	8.22	-45.8	-60.4	3.6	1.51e+00	0	42	104	0	60	42530
2026-01-30 08:14:34.33	353.40	8.14	-45.8	-60.4	3.6	1.51e+00	0	41	104	0	60	42692
2026-01-30 08:14:35.32	353.28	8.06	-45.9	-60.6	3.6	1.51e+00	0	42	104	0	60	43467
2026-01-30 08:14:36.30	353.16	7.98	-46.0	-60.7	3.6	1.51e+00	0	42	104	0	60	43790
2026-01-30 08:14:37.28	353.04	7.90	-45.9	-60.6	3.6	1.51e+00	0	42	104	0	60	43257
2026-01-30 08:14:38.26	352.92	7.82	-46.0	-60.7	3.6	1.51e+00	0	42	104	0	60	43807
2026-01-30 08:14:39.24	352.80	7.74	-45.9	-60.7	3.6	1.51e+00	0	42	104	0	60	43739
2026-01-30 08:14:40.22	352.69	7.66	-45.9	-60.6	3.6	1.51e+00	0	42	104	0	60	43324
2026-01-30 08:14:41.20	352.57	7.59	-45.7	-60.4	3.6	1.51e+00	0	42	104	0	60	42620
2026-01-30 08:14:42.18	352.45	7.51	-45.8	-60.5	3.6	1.51e+00	0	42	104	0	60	42877
2026-01-30 08:14:43.16	352.34	7.43	-45.9	-60.7	3.6	1.51e+00	0	42	104	0	60	43819
2026-01-30 08:14:44.14	352.22	7.35	-45.9	-60.5	3.6	1.51e+00	0	42	104	0	60	42891
2026-01-30 08:14:45.12	352.11	7.27	-45.7	-60.4	3.6	1.51e+00	0	42	104	0	60	42262
2026-01-30 08:14:46.10	352.00	7.20	-45.6	-60.4	3.6	1.51e+00	0	41	104	0	60	42423
2026-01-30 08:14:47.08	351.89	7.12	-45.9	-60.6	3.6	1.51e+00	0	42	104	0	60	43216
2026-01-30 08:14:48.07	351.77	7.04	-45.9	-60.6	3.6	1.51e+00	0	42	104	0	60	43482
2026-01-30 08:14:49.05	351.66	6.97	-45.6	-60.3	3.6	1.51e+00	0	42	104	0	60	42089
2026-01-30 08:14:50.03	351.55	6.89	-45.7	-60.4	3.6	1.51e+00	0	42	104	0	60	42366
2026-01-30 08:14:51.00	351.45	6.82	-45.9	-60.5	3.6	1.51e+00	0	42	104	0	60	43152
2026-01-30 08:14:51.99	351.34	6.74	-45.8	-60.5	3.6	1.51e+00	0	42	104	0	60	43195
2026-01-30 08:14:52.97	351.23	6.66	-45.6	-60.3	3.6	1.51e+00	0	42	104	0	60	42212
2026-01-30 08:14:53.95	351.12	6.59	-45.6	-60.3	3.6	1.51e+00	0	42	104	0	60	42005
2026-01-30 08:14:54.93	351.02	6.51	-45.9	-60.5	3.6	1.51e+00	0	41	104	0	60	43189
2026-01-30 08:14:55.90	350.91	6.44	-45.8	-60.5	3.6	1.51e+00	0	42	104	0	60	42986
2026-01-30 08:14:56.88	350.81	6.36	-45.6	-60.3	3.6	1.51e+00	0	42	104	0	60	42047
2026-01-30 08:14:57.86	350.70	6.29	-45.5	-60.3	3.6	1.51e+00	0	42	104	0	60	42011
2026-01-30 08:14:58.84	350.60	6.22	-45.7	-60.6	3.6	1.51e+00	0	42	104	0	60	43227
2026-01-30 08:14:59.82	350.50	6.14	-45.8	-60.6	3.6	1.51e+00	0	42	104	0	60	43288
2026-01-30 08:15:00.81	350.39	6.07	-45.6	-60.3	3.6	1.51e+00	0	42	104	0	60	41935
2026-01-30 08:15:01.79	350.29	5.99	-45.5	-60.3	3.6	1.51e+00	0	42	104	0	60	41975
2026-01-30 08:15:02.76	350.19	5.92	-45.9	-60.6	3.6	1.51e+00	0	42	104	0	60	43447
2026-01-30 08:15:03.73	350.09	5.85	-45.9	-60.6	3.6	1.51e+00	0	42	104	0	60	43693
2026-01-30 08:15:04.71	350.00	5.77	-45.7	-60.4	3.6	1.51e+00	0	41	104	0	60	42605
2026-01-30 08:15:05.69	349.90	5.70	-45.6	-60.3	3.6	1.51e+00	0	42	104	0	60	41817
2026-01-30 08:15:06.67	349.80	5.63	-45.8	-60.6	3.6	1.51e+00	0	42	104	0	60	43251
2026-01-30 08:15:07.65	349.70	5.56	-45.9	-60.6	3.6	1.51e+00	0	42	104	0	60	43497
2026-01-30 08:15:08.63	349.60	5.48	-45.6	-60.3	3.6	1.51e+00	0	41	104	0	60	42220
2026-01-30 08:15:09.62	349.51	5.41	-45.5	-60.2	3.6	1.51e+00	0	42	104	0	60	41624
2026-01-30 08:15:10.60	349.41	5.34	-45.7	-60.5	3.6	1.51e+00	0	41	104	0	60	42718
2026-01-30 08:15:11.57	349.32	5.27	-45.9	-60.6	3.6	1.51e+00	0	42	104	0	60	43444
2026-01-30 08:15:12.55	349.22	5.20	-45.6	-60.3	3.6	1.51e+00	0	41	104	0	60	42044
2026-01-30 08:15:13.53	349.13	5.13	-45.3	-60.1	3.6	1.51e+00	0	41	104	0	60	40944
2026-01-30 08:15:14.51	349.04	5.06	-45.8	-60.4	3.6	1.51e+00	0	42	104	0	60	42502
2026-01-30 08:15:15.49	348.94	4.98	-46.0	-60.6	3.6	1.51e+00	0	42	104	0	60	43685
2026-01-30 08:15:16.47	348.85	4.91	-45.3	-60.3	3.6	1.51e+00	0	42	104	0	60	42022
2026-01-30 08:15:17.44	348.76	4.84	-45.3	-60.0	3.6	1.51e+00	0	42	104	0	60	40635
2026-01-30 08:15:18.42	348.67	4.77	-45.5	-60.2	3.6	1.51e+00	0	42	104	0	60	41556
2026-01-30 08:15:19.40	348.58	4.70	-45.7	-60.4	3.6	1.51e+00	0	42	104	0	60	42512
2026-01-30 08:15:20.39	348.49	4.63	-45.0	-59.7	3.6	1.51e+00	0	42	104	0	60	39177
2026-01-30 08:15:21.36	348.40	4.56	-44.7	-59.4	3.6	1.51e+00	0	42	104	0	60	37713
2026-01-30 08:15:22.34	348.31	4.49	-44.4	-59.1	3.6	1.51e+00	0	42	104	0	60	36458
2026-01-30 08:15:23.33	348.23	4.42	-43.4	-58.1	3.6	1.51e+00	0	42	104	0	60	32718
2026-01-30 08:15:24.30	348.14	4.36	-44.2	-59.0	3.6	1.51e+00	0	42	104	0	60	36189
2026-01-30 08:15:25.28	348.05	4.29	-45.2	-59.9	3.6	1.51e+00	0	41	104	0	60	39906
2026-01-30 08:15:26.26	347.97	4.22	-44.1	-58.9	3.5	1.51e+00	0	42	104	0	60	35645
2026-01-30 08:15:27.24	347.88	4.15	-43.0	-57.8	3.6	1.51e+00	0	42	104	0	60	31642
2026-01-30 08:15:28.21	347.80	4.08	-42.7	-57.5	3.6	1.51e+00	0	41	104	0	60	30555
2026-01-30 08:15:29.19	347.71	4.01	-42.5	-57.3	3.6	1.51e+00	0	42	104	0	60	29646
2026-01-30 08:15:30.17	347.63	3.95	-42.2	-56.9	3.6	1.51e+00	0	42	104	0	60	28540
2026-01-30 08:15:31.15	347.54	3.88	-41.9	-56.6	3.6	1.51e+00	0	42	104	0	60	27358
2026-01-30 08:15:32.13	347.46	3.81	-42.8	-57.6	3.6	1.51e+00	0	41	104	0	60	30631
2026-01-30 08:15:33.11	347.38	3.74	-43.5	-58.2	3.6	1.51e+00	0	41	104	0	60	33106
2026-01-30 08:15:34.09	347.30	3.68	-42.2	-57.0	3.6	1.51e+00	0	42	104	0	60	28551
2026-01-30 08:15:35.07	347.22	3.61	-43.6	-58.3	3.6	1.51e+00	0	41	104	0	60	33213
2026-01-30 08:15:36.04	347.13	3.54	-42.2	-57.0	3.6	1.51e+00	0	42	104	0	60	28580
2026-01-30 08:15:37.02	347.05	3.47	-41.9	-56.6	3.6	1.51e+00	0	42	104	0	60	27518
2026-01-30 08:15:38.00	346.97	3.41	-41.7	-56.3	3.5	1.51e+00	0	42	104	0	58	29881
2026-01-30 08:15:38.99	346.89	3.34	-41.5	-56.1	3.6	1.51e+00	0	42	104	0	58	29192
2026-01-30 08:15:39.97	346.81	3.27	-41.5	-56.2	3.5	1.51e+00	0	42	104	0	58	29519
2026-01-30 08:15:40.95	346.74	3.21	-42.2	-56.9	3.6	1.51e+00	0	42	104	0	58	31893
2026-01-30 08:15:41.93	346.66	3.14	-41.9	-56.6	3.6	1.51e+00	0	42	104	0	58	30784
2026-01-30 08:15:42.92	346.58	3.08	-41.4	-56.2	3.6	1.51e+00	0	42	104	0	58	29274
2026-01-30 08:15:43.90	346.50	3.01	-41.5	-56.2	3.6	1.51e+00	0	42	104	0	58	29371
2026-01-30 08:15:44.88	346.43	2.94	-41.9	-56.6	3.6	1.51e+00	0	42	104	0	58	30674
2026-01-30 08:15:45.85	346.35	2.88	-44.2	-58.9	3.6	1.51e+00	0	42	104	0	60	35853
2026-01-30 08:15:46.82	346.27	2.82	-45.7	-60.6	3.6	1.51e+00	0	42	104	0	60	43271
2026-01-30 08:15:47.81	346.20	2.75	-46.0	-60.8	3.6	1.51e+00	0	41	104	0	60	44224
2026-01-30 08:15:48.78	346.12	2.69	-46.1	-60.9	3.6	1.51e+00	0	42	104	0	60	44966
2026-01-30 08:15:49.76	346.05	2.62	-46.3	-61.1	3.6	1.51e+00	0	42	104	0	60	46194
2026-01-30 08:15:50.74	345.98	2.56	-46.4	-61.2	3.6	1.51e+00	0	41	104	0	60	46525
2026-01-30 08:15:51.72	345.90	2.49	-46.6	-61.2	3.6	1.51e+00	0	42	104	0	60	46716
2026-01-30 08:15:52.70	345.83	2.43	-46.6	-61.4	3.6	1.51e+00	0	42	104	0	60	47500
2026-01-30 08:15:53.69	345.76	2.36	-46.7	-61.4	3.6	1.51e+00	0	42	104	0	60	47894
2026-01-30 08:15:54.67	345.68	2.30	-46.9	-61.6	3.6	1.51e+00	0	42	104	0	60	49032
2026-01-30 08:15:55.65	345.61	2.24	-46.5	-61.5	3.6	1.51e+00	0	42	104	0	60	47932
2026-01-30 08:15:56.63	345.54	2.17	-46.8	-61.4	3.6	1.51e+00	0	42	104	0	60	47817
2026-01-30 08:15:57.61	345.47	2.11	-46.7	-61.5	3.6	1.51e+00	0	42	104	0	60	47939
2026-01-30 08:15:58.59	345.40	2.04	-46.6	-61.4	3.6	1.51e+00	0	42	104	0	60	47647
2026-01-30 08:15:59.57	345.33	1.98	-47.0	-61.7	3.6	1.51e+00	0	42	104	0	60	49437
2026-01-30 08:16:00.55	345.26	1.92	-46.7	-61.5	3.6	1.51e+00	0	42	104	0	60	48246
2026-01-30 08:16:01.53	345.19	1.86	-46.5	-61.3	3.6	1.51e+00	0	41	104	0	60	47232
2026-01-30 08:16:02.51	345.12	1.79	-46.5	-61.2	3.6	1.51e+00	0	42	104	0	60	46700
2026-01-30 08:16:03.48	345.05	1.73	-46.3	-61.1	3.6	1.51e+00	0	42	104	0	60	46025
2026-01-30 08:16:04.46	344.98	1.67	-46.4	-61.2	3.6	1.51e+00	0	41	104	0	60	46368
2026-01-30 08:16:05.43	344.92	1.61	-46.7	-61.4	3.6	1.51e+00	0	42	104	0	60	47661
2026-01-30 08:16:06.42	344.85	1.54	-46.5	-61.3	3.6	1.51e+00	0	42	104	0	60	46848
2026-01-30 08:16:07.40	344.78	1.48	-46.5	-61.2	3.6	1.51e+00	0	42	104	0	60	46609
2026-01-30 08:16:08.38	344.71	1.42	-46.5	-61.3	3.6	1.51e+00	0	42	104	0	60	46845
2026-01-30 08:16:09.36	344.65	1.36	-46.5	-61.2	3.5	1.51e+00	0	42	104	0	60	46589
2026-01-30 08:16:10.34	344.58	1.30	-46.5	-61.2	3.6	1.51e+00	0	42	104	0	60	46377
2026-01-30 08:16:11.32	344.52	1.24	-46.5	-61.2	3.6	1.51e+00	0	42	104	0	60	46331
2026-01-30 08:16:12.30	344.45	1.17	-46.4	-61.2	3.6	1.51e+00	0	42	104	0	60	46486
2026-01-30 08:16:13.29	344.38	1.11	-46.5	-61.1	3.6	1.51e+00	0	41	104	0	60	46084
2026-01-30 08:16:14.28	344.32	1.05	-46.4	-61.1	3.6	1.51e+00	0	42	104	0	60	46126
2026-01-30 08:16:15.27	344.25	0.99	-46.4	-61.2	3.6	1.51e+00	0	41	104	0	60	46323
2026-01-30 08:16:16.25	344.19	0.93	-46.4	-61.1	3.6	1.51e+00	0	42	104	0	60	46275
2026-01-30 08:16:17.23	344.13	0.87	-46.4	-61.1	3.6	1.51e+00	0	42	104	0	60	45999
2026-01-30 08:16:18.22	344.06	0.81	-46.4	-61.1	3.6	1.51e+00	0	41	104	0	60	46019
2026-01-30 08:16:19.20	344.00	0.75	-46.4	-61.1	3.6	1.51e+00	0	42	104	0	60	46289
2026-01-30 08:16:20.19	343.94	0.69	-46.4	-61.1	3.6	1.51e+00	0	42	104	0	60	46030
2026-01-30 08:16:21.18	343.87	0.63	-46.4	-61.1	3.6	1.51e+00	0	42	104	0	60	45985
2026-01-30 08:16:22.17	343.81	0.56	-46.4	-61.1	3.6	1.51e+00	0	42	104	0	60	46103
2026-01-30 08:16:23.15	343.75	0.50	-46.4	-61.1	3.6	1.51e+00	0	42	104	0	60	46101
2026-01-30 08:16:24.14	343.69	0.44	-46.4	-61.1	3.6	1.51e+00	0	42	104	0	60	46145
2026-01-30 08:16:25.12	343.63	0.39	-46.4	-61.1	3.6	1.51e+00	0	42	104	0	60	45872
2026-01-30 08:16:26.10	343.57	0.33	-46.4	-61.1	3.6	1.51e+00	0	42	104	0	60	45868
2026-01-30 08:16:27.08	343.51	0.27	-46.4	-61.1	3.6	1.51e+00	0	42	104	0	60	45942
2026-01-30 08:16:28.07	343.45	0.21	-46.4	-61.1	3.6	1.51e+00	0	42	104	0	60	46196
2026-01-30 08:16:29.08	343.39	0.15	-46.4	-61.1	3.6	1.51e+00	0	42	104	0	60	45962
2026-01-30 08:16:30.09	343.33	0.09	-46.4	-61.1	3.6	1.51e+00	0	41	104	0	60	45945
2026-01-30 08:16:31.09	343.27	0.03	-46.4	-61.1	3.6	1.51e+00	0	41	104	0	60	45999
2026-01-30 08:16:32.09	343.21	-0.03	-46.4	-61.1	3.6	1.51e+00	0	42	104	0	60	45793
2026-01-30 08:16:33.08	343.15	-0.09	-46.4	-61.1	3.6	1.51e+00	0	41	104	0	60	46007

#Closed at: 2026-01-30 08:16:33
#Recorded file [0 MB]: D:/lorett/data/35029_260130_200552.dat