passes_logs/2026/01/30/R4.6S_Anadyr/R4.6S_Anadyr__20260130_183033_AQUA_rec.log

#Pass ID: 20260130_183033_AQUA
#Satellite: AQUA
#Configuration: AQUA
#almurnet v.1.7.20251203
#Start time: 2026-01-30 18:30:36

#Version: 2.2.20231116
#Station: R4.6S_Anadyr
#Location: 177.4865 lon 64.73178 lat
#TLE: 1 27424U 02022A   26030.50290335  .00001607  00000+0  33112-3 0  9999
#TLE: 2 27424  98.4106 357.1932 0001780  60.8833  51.2416 14.61876947263152

#Time	Az	El	Level	Level2	SNR	BER	BlckErr	Temp	State	Recorded	gain1	gain2
2026-01-30 18:30:36.37	24.72	0.16	-49.5	-61.2	3.5	8.45e-01	0	38	0	0	60	41712
2026-01-30 18:30:37.37	24.66	0.21	-50.0	-67.8	3.5	3.02e+01	0	39	104	0	60	94998
2026-01-30 18:30:38.38	24.60	0.27	-49.9	-67.9	3.5	3.02e+01	0	39	104	0	60	95169
2026-01-30 18:30:39.39	24.54	0.33	-50.0	-67.9	3.5	3.02e+01	0	40	104	0	60	95568
2026-01-30 18:30:40.40	24.48	0.38	-50.0	-67.9	3.5	3.02e+01	0	39	104	0	60	95487
2026-01-30 18:30:41.41	24.42	0.44	-50.1	-67.9	3.5	3.02e+01	0	40	104	0	60	95731
2026-01-30 18:30:42.41	24.36	0.50	-50.0	-68.0	3.5	3.02e+01	0	40	104	0	60	96475
2026-01-30 18:30:43.42	24.30	0.56	-50.0	-67.9	3.5	3.02e+01	0	40	104	0	60	95854
2026-01-30 18:30:44.43	24.24	0.61	-50.0	-68.0	3.5	3.02e+01	0	40	104	0	60	96298
2026-01-30 18:30:45.44	24.17	0.67	-50.1	-68.0	3.5	3.02e+01	0	40	104	0	60	96629
2026-01-30 18:30:46.45	24.11	0.73	-50.0	-68.0	3.5	3.02e+01	0	40	104	0	60	97181
2026-01-30 18:30:47.47	24.05	0.79	-49.8	-68.0	3.5	3.02e+01	0	40	104	0	60	96531
2026-01-30 18:30:48.48	23.99	0.84	-50.0	-67.9	3.5	3.02e+01	0	40	104	0	60	95957
2026-01-30 18:30:49.49	23.92	0.90	-50.0	-67.9	3.5	3.02e+01	0	40	104	0	60	95769
2026-01-30 18:30:50.50	23.86	0.96	-50.0	-67.9	3.5	3.02e+01	0	40	104	0	60	95848
2026-01-30 18:30:51.51	23.80	1.02	-49.9	-67.9	3.5	3.02e+01	0	40	104	0	60	95215
2026-01-30 18:30:52.52	23.73	1.08	-49.8	-67.8	3.5	3.02e+01	0	40	104	0	60	94603
2026-01-30 18:30:53.53	23.67	1.14	-49.9	-67.8	3.5	3.02e+01	0	40	104	0	60	93944
2026-01-30 18:30:54.54	23.61	1.19	-49.6	-67.6	3.5	3.02e+01	0	40	104	0	60	92241
2026-01-30 18:30:55.55	23.54	1.25	-49.4	-67.3	3.5	3.02e+01	0	40	104	0	60	89133
2026-01-30 18:30:56.56	23.48	1.31	-49.5	-67.3	3.5	3.02e+01	0	40	104	0	60	88957
2026-01-30 18:30:57.57	23.41	1.37	-49.2	-67.2	3.5	3.02e+01	0	40	104	0	60	87804
2026-01-30 18:30:58.58	23.35	1.43	-49.2	-67.0	3.5	3.02e+01	0	40	104	0	60	86477
2026-01-30 18:30:59.59	23.28	1.49	-48.9	-66.9	3.5	3.02e+01	0	40	104	0	60	84847
2026-01-30 18:31:00.60	23.21	1.55	-48.8	-66.6	3.5	3.02e+01	0	40	104	0	60	82369
2026-01-30 18:31:01.61	23.15	1.61	-48.7	-66.5	3.5	3.02e+01	0	40	104	0	60	81198
2026-01-30 18:31:02.62	23.08	1.66	-48.7	-66.5	3.5	3.02e+01	0	40	104	0	60	81163
2026-01-30 18:31:03.63	23.01	1.72	-48.7	-66.5	3.5	3.02e+01	0	40	104	0	60	81300
2026-01-30 18:31:04.64	22.95	1.78	-48.7	-66.5	3.5	3.02e+01	0	40	104	0	60	81111
2026-01-30 18:31:05.65	22.88	1.84	-48.7	-66.5	3.5	3.02e+01	0	40	104	0	60	81742
2026-01-30 18:31:06.66	22.81	1.90	-48.7	-66.5	3.5	3.02e+01	0	40	104	0	60	81154
2026-01-30 18:31:07.67	22.74	1.96	-48.7	-66.4	3.5	3.02e+01	0	40	104	0	60	80771
2026-01-30 18:31:08.68	22.68	2.02	-48.7	-66.5	3.5	3.02e+01	0	40	104	0	60	80892
2026-01-30 18:31:09.69	22.61	2.08	-48.7	-66.5	3.5	3.02e+01	0	40	104	0	60	81024
2026-01-30 18:31:10.70	22.54	2.14	-48.7	-66.5	3.5	3.02e+01	0	40	104	0	60	81494
2026-01-30 18:31:11.71	22.47	2.20	-48.7	-66.5	3.5	3.02e+01	0	40	104	0	60	81286
2026-01-30 18:31:12.71	22.40	2.26	-48.7	-66.5	3.5	3.02e+01	0	40	104	0	60	81332
2026-01-30 18:31:13.72	22.33	2.32	-48.7	-66.5	3.5	3.02e+01	0	40	104	0	60	81408
2026-01-30 18:31:14.74	22.26	2.38	-48.7	-66.5	3.5	3.02e+01	0	40	104	0	60	81069
2026-01-30 18:31:15.74	22.19	2.44	-48.7	-66.4	3.5	3.02e+01	0	40	104	0	60	80412
2026-01-30 18:31:16.75	22.12	2.50	-48.7	-66.4	3.5	3.02e+01	0	40	104	0	60	80388
2026-01-30 18:31:17.76	22.04	2.56	-48.7	-66.5	3.5	3.02e+01	0	40	104	0	60	80905
2026-01-30 18:31:18.77	21.97	2.62	-48.7	-66.5	3.5	3.02e+01	0	40	104	0	60	81641
2026-01-30 18:31:19.79	21.90	2.69	-48.7	-66.4	3.5	3.02e+01	0	40	104	0	60	80857
2026-01-30 18:31:20.80	21.83	2.75	-48.7	-66.4	3.5	3.02e+01	0	40	104	0	60	80664
2026-01-30 18:31:21.81	21.75	2.81	-48.7	-66.4	3.5	3.02e+01	0	40	104	0	60	80753
2026-01-30 18:31:22.82	21.68	2.87	-48.7	-66.5	3.5	3.02e+01	0	40	104	0	60	81559
2026-01-30 18:31:23.83	21.61	2.93	-48.7	-66.5	3.5	3.02e+01	0	40	104	0	60	81378
2026-01-30 18:31:24.84	21.53	2.99	-48.6	-66.3	3.5	3.02e+01	0	40	104	0	60	79664
2026-01-30 18:31:25.85	21.46	3.05	-48.6	-66.0	3.5	3.02e+01	0	40	104	0	60	76780
2026-01-30 18:31:26.86	21.38	3.12	-48.6	-65.8	3.5	3.02e+01	0	40	104	0	60	74958
2026-01-30 18:31:27.87	21.31	3.18	-48.6	-66.2	3.5	3.02e+01	0	40	104	0	60	78892
2026-01-30 18:31:28.88	21.23	3.24	-48.6	-66.3	3.5	3.02e+01	0	40	104	0	60	79506
2026-01-30 18:31:29.89	21.16	3.30	-48.2	-64.2	3.5	3.02e+01	0	40	104	0	60	62731
2026-01-30 18:31:30.90	21.08	3.36	-47.0	-60.6	3.5	3.02e+01	0	40	104	0	60	41344
2026-01-30 18:31:31.91	21.01	3.42	-45.4	-57.5	3.5	3.02e+01	0	40	104	0	60	28978
2026-01-30 18:31:32.92	20.93	3.49	-43.8	-55.2	3.5	3.02e+01	0	40	104	0	60	22136
2026-01-30 18:31:33.93	20.85	3.55	-42.9	-54.1	3.5	3.02e+01	0	40	104	0	60	19414
2026-01-30 18:31:34.94	20.77	3.61	-48.7	-66.2	3.5	3.02e+01	0	40	104	0	60	78300
2026-01-30 18:31:35.95	20.70	3.67	-42.3	-53.2	3.5	3.02e+01	0	40	104	0	60	17683
2026-01-30 18:31:36.96	20.62	3.74	-48.5	-66.2	3.5	3.02e+01	0	40	104	0	60	78311
2026-01-30 18:31:37.97	20.54	3.80	-48.6	-65.3	3.5	3.02e+01	0	40	104	0	60	71240
2026-01-30 18:31:38.98	20.46	3.86	-43.6	-55.0	3.5	3.02e+01	0	40	104	0	58	24316
2026-01-30 18:31:39.99	20.38	3.93	-41.6	-52.4	3.5	3.02e+01	0	40	104	0	58	18013
2026-01-30 18:31:41.00	20.30	3.99	-41.2	-52.0	3.5	3.02e+01	0	40	104	0	58	17108
2026-01-30 18:31:42.00	20.22	4.05	-41.8	-52.6	3.5	3.02e+01	0	40	104	0	58	18383
2026-01-30 18:31:43.01	20.14	4.12	-39.2	-49.7	3.5	3.02e+01	0	40	104	0	54	16528
2026-01-30 18:31:44.02	20.06	4.18	-45.3	-57.5	3.5	3.02e+01	0	40	104	0	60	28732
2026-01-30 18:31:45.03	19.98	4.24	-48.7	-65.7	3.5	3.02e+01	0	40	104	0	60	74141
2026-01-30 18:31:46.04	19.89	4.31	-42.0	-52.8	3.5	3.02e+01	0	40	104	0	60	16842
2026-01-30 18:31:47.05	19.81	4.37	-48.6	-65.9	3.5	3.02e+01	0	40	104	0	60	76266
2026-01-30 18:31:48.06	19.73	4.43	-39.9	-50.4	3.6	3.02e+01	0	40	104	0	56	16010
2026-01-30 18:31:49.07	19.65	4.50	-39.4	-49.8	3.5	3.02e+01	0	40	104	0	54	16879
2026-01-30 18:31:50.08	19.56	4.56	-38.6	-49.0	3.5	3.02e+01	0	40	104	0	52	17159
2026-01-30 18:31:51.09	19.48	4.63	-45.6	-57.9	3.5	3.02e+01	0	40	104	0	60	30155
2026-01-30 18:31:52.10	19.39	4.69	-42.6	-53.6	3.5	3.02e+01	0	40	104	0	60	18437
2026-01-30 18:31:53.11	19.31	4.76	-48.6	-66.0	3.5	3.02e+01	0	40	104	0	60	76857
2026-01-30 18:31:54.12	19.22	4.82	-48.8	-66.0	3.5	3.02e+01	0	40	104	0	60	76690
2026-01-30 18:31:55.13	19.14	4.89	-44.2	-55.7	3.5	3.02e+01	0	40	104	0	60	23534
2026-01-30 18:31:56.14	19.05	4.95	-42.2	-53.1	3.5	3.02e+01	0	40	104	0	60	17477
2026-01-30 18:31:57.15	18.97	5.02	-42.8	-53.8	3.5	3.02e+01	0	40	104	0	60	18799
2026-01-30 18:31:58.16	18.88	5.08	-43.5	-54.7	3.5	3.02e+01	0	40	104	0	60	20848
2026-01-30 18:31:59.17	18.79	5.15	-39.6	-50.0	3.5	3.02e+01	0	40	104	0	54	17135
2026-01-30 18:32:00.18	18.70	5.21	-43.7	-55.0	3.5	3.02e+01	0	40	104	0	60	21620
2026-01-30 18:32:01.19	18.61	5.28	-48.6	-65.0	3.5	3.02e+01	0	40	104	0	60	68640
2026-01-30 18:32:02.20	18.53	5.34	-45.6	-57.7	3.5	3.02e+01	0	40	104	0	60	29465
2026-01-30 18:32:03.21	18.44	5.41	-48.7	-65.9	3.5	3.02e+01	0	40	104	0	60	75483
2026-01-30 18:32:04.22	18.35	5.47	-43.3	-54.4	3.5	3.02e+01	0	40	104	0	60	20303
2026-01-30 18:32:05.23	18.26	5.54	-42.9	-53.9	3.5	3.02e+01	0	40	104	0	60	19155
2026-01-30 18:32:06.24	18.17	5.61	-42.7	-53.6	3.5	3.02e+01	0	40	104	0	60	18332
2026-01-30 18:32:07.25	18.07	5.67	-49.0	-66.6	3.5	3.02e+01	0	40	104	0	60	82462
2026-01-30 18:32:08.26	17.98	5.74	-48.3	-63.6	3.5	3.02e+01	0	40	104	0	60	58086
2026-01-30 18:32:09.27	17.89	5.81	-42.6	-53.6	3.5	3.02e+01	0	40	104	0	60	18498
2026-01-30 18:32:10.28	17.80	5.87	-38.6	-49.0	3.5	3.02e+01	0	40	104	0	52	17147
2026-01-30 18:32:11.29	17.70	5.94	-48.8	-66.3	3.5	3.02e+01	0	40	104	0	60	79161
2026-01-30 18:32:12.29	17.61	6.01	-38.3	-48.6	3.5	3.02e+01	0	40	104	0	52	16425
2026-01-30 18:32:13.30	17.52	6.07	-38.2	-48.5	3.5	3.02e+01	0	40	104	0	52	16171
2026-01-30 18:32:14.31	17.42	6.14	-37.9	-48.2	3.5	3.02e+01	0	40	104	0	50	17649
2026-01-30 18:32:15.32	17.33	6.21	-47.7	-61.8	3.5	3.02e+01	0	41	104	0	60	47197
2026-01-30 18:32:16.33	17.23	6.27	-40.5	-51.0	3.6	3.02e+01	0	40	104	0	58	15369
2026-01-30 18:32:17.34	17.14	6.34	-48.9	-66.2	3.5	3.02e+01	0	40	104	0	60	78241
2026-01-30 18:32:18.35	17.04	6.41	-48.8	-65.5	3.5	3.02e+01	0	41	104	0	60	72192
2026-01-30 18:32:19.36	16.94	6.48	-47.4	-61.1	3.5	3.02e+01	0	40	104	0	60	43682
2026-01-30 18:32:20.37	16.85	6.54	-46.1	-58.5	3.5	3.02e+01	0	40	104	0	60	32384
2026-01-30 18:32:21.38	16.75	6.61	-45.7	-57.9	3.5	3.02e+01	0	40	104	0	60	30069
2026-01-30 18:32:22.39	16.65	6.68	-44.9	-56.5	3.5	3.02e+01	0	40	104	0	60	25595
2026-01-30 18:32:23.40	16.55	6.75	-43.5	-54.6	3.5	3.02e+01	0	40	104	0	60	20650
2026-01-30 18:32:24.41	16.45	6.82	-41.0	-51.6	3.5	3.02e+01	0	40	104	0	60	14706
2026-01-30 18:32:25.41	16.35	6.88	-47.9	-62.2	3.5	3.02e+01	0	40	104	0	60	49858
2026-01-30 18:32:26.42	16.25	6.95	-41.6	-52.3	3.5	3.02e+01	0	41	104	0	60	15878
2026-01-30 18:32:27.43	16.15	7.02	-48.9	-66.7	3.5	3.02e+01	0	40	104	0	60	82990
2026-01-30 18:32:28.44	16.05	7.09	-43.3	-54.3	3.5	3.02e+01	0	40	104	0	60	20061
2026-01-30 18:32:29.45	15.94	7.16	-42.7	-53.5	3.5	3.02e+01	0	41	104	0	60	18277
2026-01-30 18:32:30.47	15.84	7.23	-42.0	-52.8	3.5	3.02e+01	0	41	104	0	60	16721
2026-01-30 18:32:31.47	15.74	7.30	-45.0	-56.7	3.5	3.02e+01	0	40	104	0	60	26456
2026-01-30 18:32:32.49	15.63	7.37	-44.7	-56.1	3.5	3.02e+01	0	41	104	0	60	24633
2026-01-30 18:32:33.50	15.53	7.44	-39.8	-50.2	3.5	3.02e+01	0	41	104	0	56	15697
2026-01-30 18:32:34.51	15.42	7.51	-38.0	-48.4	3.5	3.02e+01	0	41	104	0	50	17902
2026-01-30 18:32:35.52	15.32	7.58	-49.0	-66.1	3.5	3.02e+01	0	41	104	0	60	77900
2026-01-30 18:32:36.53	15.21	7.65	-37.6	-47.9	3.5	3.02e+01	0	41	104	0	50	16967
2026-01-30 18:32:37.54	15.10	7.72	-37.6	-47.9	3.5	3.02e+01	0	40	104	0	50	16913
2026-01-30 18:32:38.55	15.00	7.79	-39.7	-50.1	3.5	3.02e+01	0	41	104	0	50	21979
2026-01-30 18:32:39.56	14.89	7.86	-38.3	-48.6	3.4	3.02e+01	0	41	104	0	56	13103
2026-01-30 18:32:40.57	14.78	7.93	-40.8	-51.4	3.5	3.02e+01	0	41	104	0	56	17906
2026-01-30 18:32:41.57	14.67	8.00	-44.4	-55.9	3.5	3.02e+01	0	41	104	0	60	23895
2026-01-30 18:32:42.59	14.56	8.07	-40.9	-51.4	3.5	3.02e+01	0	41	104	0	52	22792
2026-01-30 18:32:43.60	14.45	8.14	-47.6	-61.1	3.6	3.02e+01	0	41	104	0	60	43800
2026-01-30 18:32:44.61	14.34	8.21	-39.8	-50.2	3.5	3.02e+01	0	41	104	0	54	17691
2026-01-30 18:32:45.62	14.23	8.28	-38.7	-49.0	3.6	3.02e+01	0	41	104	0	52	17170
2026-01-30 18:32:46.63	14.12	8.35	-43.5	-54.7	3.5	3.02e+01	0	40	104	0	56	26463
2026-01-30 18:32:47.64	14.00	8.42	-45.5	-57.4	3.5	3.02e+01	0	41	104	0	60	28544
2026-01-30 18:32:48.65	13.89	8.49	-41.7	-52.4	3.5	3.02e+01	0	40	104	0	52	25400
2026-01-30 18:32:49.66	13.78	8.57	-48.4	-65.1	3.5	3.02e+01	0	41	104	0	60	69007
2026-01-30 18:32:50.67	13.66	8.64	-40.1	-50.6	3.5	3.02e+01	0	41	104	0	60	13054
2026-01-30 18:32:51.68	13.55	8.71	-40.6	-51.2	3.5	3.02e+01	0	41	104	0	56	17532
2026-01-30 18:32:52.69	13.43	8.78	-39.7	-50.2	3.5	3.02e+01	0	41	104	0	54	17578
2026-01-30 18:32:53.70	13.31	8.85	-40.3	-50.9	3.5	3.02e+01	0	41	104	0	54	19041
2026-01-30 18:32:54.71	13.20	8.92	-38.4	-48.7	3.5	3.02e+01	0	41	104	0	52	16620
2026-01-30 18:32:55.72	13.08	9.00	-40.4	-51.0	3.5	3.02e+01	0	41	104	0	54	19246
2026-01-30 18:32:56.73	12.96	9.07	-45.2	-56.9	3.5	3.02e+01	0	41	104	0	58	30252
2026-01-30 18:32:57.74	12.84	9.14	-45.7	-57.7	3.5	3.02e+01	0	41	104	0	60	29687
2026-01-30 18:32:58.75	12.72	9.21	-48.6	-64.0	3.5	3.02e+01	0	41	104	0	60	60725
2026-01-30 18:32:59.76	12.60	9.29	-45.9	-57.8	3.6	3.02e+01	0	41	104	0	60	29855
2026-01-30 18:33:00.77	12.48	9.36	-42.1	-52.9	3.5	3.02e+01	0	41	104	0	60	16989
2026-01-30 18:33:01.78	12.36	9.43	-41.3	-51.9	3.5	3.02e+01	0	40	104	0	58	17085
2026-01-30 18:33:02.79	12.23	9.50	-48.6	-66.4	3.5	3.02e+01	0	41	104	0	60	80801
2026-01-30 18:33:03.80	12.11	9.58	-48.6	-67.0	3.5	3.02e+01	0	41	104	0	60	85891
2026-01-30 18:33:04.81	11.99	9.65	-40.2	-50.7	3.5	3.02e+01	0	41	104	0	54	18654
2026-01-30 18:33:05.82	11.86	9.72	-37.6	-47.8	3.5	3.02e+01	0	41	104	0	48	18951
2026-01-30 18:33:06.83	11.74	9.80	-49.3	-66.9	3.5	3.02e+01	0	41	104	0	60	85332
2026-01-30 18:33:07.84	11.61	9.87	-38.4	-48.7	3.5	3.02e+01	0	41	104	0	54	14870
2026-01-30 18:33:08.85	11.48	9.94	-37.2	-47.4	3.6	3.02e+01	0	41	104	0	50	16120
2026-01-30 18:33:09.86	11.36	10.02	-37.2	-47.5	3.5	3.02e+01	0	41	104	0	50	16138
2026-01-30 18:33:10.87	11.23	10.09	-46.8	-59.6	3.5	3.02e+01	0	41	104	0	60	36663
2026-01-30 18:33:11.88	11.10	10.17	-40.9	-51.5	3.5	3.02e+01	0	41	104	0	52	22828
2026-01-30 18:33:12.89	10.97	10.24	-49.0	-64.9	3.5	3.02e+01	0	41	104	0	60	67406
2026-01-30 18:33:13.90	10.84	10.31	-45.1	-56.7	3.5	3.02e+01	0	41	104	0	60	26222
2026-01-30 18:33:14.91	10.71	10.39	-48.8	-65.8	3.5	3.02e+01	0	41	104	0	60	75099
2026-01-30 18:33:15.92	10.58	10.46	-47.5	-60.5	3.5	3.02e+01	0	41	104	0	60	40697
2026-01-30 18:33:16.93	10.45	10.54	-44.7	-56.0	3.5	3.02e+01	0	41	104	0	60	24277
2026-01-30 18:33:17.94	10.31	10.61	-42.7	-53.4	3.6	3.02e+01	0	41	104	0	60	18096
2026-01-30 18:33:18.95	10.18	10.69	-44.8	-56.3	3.5	3.02e+01	0	41	104	0	60	25248
2026-01-30 18:33:19.96	10.04	10.76	-49.3	-66.6	3.5	3.02e+01	0	41	104	0	60	82361
2026-01-30 18:33:20.97	9.91	10.84	-41.3	-51.9	3.5	3.02e+01	0	41	104	0	54	21373
2026-01-30 18:33:21.98	9.77	10.91	-38.6	-48.9	3.5	3.02e+01	0	41	104	0	50	19107
2026-01-30 18:33:22.99	9.63	10.99	-49.3	-66.3	3.5	3.02e+01	0	41	104	0	60	79121
2026-01-30 18:33:24.00	9.50	11.06	-40.2	-50.6	3.5	3.02e+01	0	41	104	0	56	16476
2026-01-30 18:33:25.01	9.36	11.14	-38.6	-48.9	3.5	3.02e+01	0	41	104	0	52	17010
2026-01-30 18:33:26.02	9.22	11.21	-37.3	-47.5	3.5	3.02e+01	0	41	104	0	50	16279
2026-01-30 18:33:27.03	9.08	11.29	-42.0	-52.6	3.5	3.02e+01	0	41	104	0	56	20749
2026-01-30 18:33:28.04	8.94	11.37	-42.3	-53.1	3.5	3.02e+01	0	41	104	0	56	21852
2026-01-30 18:33:29.05	8.79	11.44	-49.5	-66.7	3.5	3.02e+01	0	41	104	0	60	83653
2026-01-30 18:33:30.06	8.65	11.52	-40.8	-51.4	3.5	3.02e+01	0	41	104	0	56	17919
2026-01-30 18:33:31.07	8.51	11.59	-49.1	-65.4	3.5	3.02e+01	0	41	104	0	60	71475
2026-01-30 18:33:32.08	8.36	11.67	-39.9	-50.4	3.5	3.02e+01	0	41	104	0	56	15976
2026-01-30 18:33:33.09	8.22	11.75	-39.4	-49.7	3.5	3.02e+01	0	41	104	0	54	16651
2026-01-30 18:33:34.10	8.07	11.82	-39.6	-50.0	3.5	3.02e+01	0	41	104	0	54	17137
2026-01-30 18:33:35.11	7.93	11.90	-49.4	-67.2	3.5	3.02e+01	0	41	104	0	60	87863
2026-01-30 18:33:36.12	7.78	11.97	-41.3	-51.9	3.5	3.02e+01	0	41	104	0	56	19108
2026-01-30 18:33:37.13	7.63	12.05	-49.1	-65.3	3.5	3.02e+01	0	41	104	0	60	70962
2026-01-30 18:33:38.14	7.48	12.13	-48.4	-63.0	3.6	3.02e+01	0	41	104	0	60	54437
2026-01-30 18:33:39.15	7.33	12.20	-38.9	-49.2	3.5	3.02e+01	0	41	104	0	50	19807
2026-01-30 18:33:40.16	7.18	12.28	-38.0	-48.4	3.5	3.02e+01	0	41	104	0	50	17943
2026-01-30 18:33:41.17	7.03	12.36	-38.0	-48.3	3.5	3.02e+01	0	41	104	0	50	17765
2026-01-30 18:33:42.18	6.87	12.43	-38.4	-48.7	3.5	3.02e+01	0	41	104	0	50	18658
2026-01-30 18:33:43.19	6.72	12.51	-37.4	-47.6	3.5	3.02e+01	0	41	104	0	50	16412
2026-01-30 18:33:44.20	6.57	12.59	-42.3	-53.1	3.5	3.02e+01	0	41	104	0	60	17390
2026-01-30 18:33:45.21	6.41	12.67	-49.0	-65.0	3.5	3.02e+01	0	41	104	0	60	68231
2026-01-30 18:33:46.22	6.25	12.74	-42.3	-53.0	3.5	3.02e+01	0	41	104	0	60	17236
2026-01-30 18:33:47.23	6.10	12.82	-49.1	-65.3	3.5	3.02e+01	0	41	104	0	60	70701
2026-01-30 18:33:48.24	5.94	12.90	-42.0	-52.6	3.5	3.02e+01	0	41	104	0	58	18450
2026-01-30 18:33:49.25	5.78	12.98	-42.3	-53.0	3.5	3.02e+01	0	41	104	0	58	19255
2026-01-30 18:33:50.26	5.62	13.05	-42.1	-52.8	3.6	3.02e+01	0	41	104	0	58	18908
2026-01-30 18:33:51.27	5.46	13.13	-43.8	-54.9	3.5	3.02e+01	0	41	104	0	60	21466
2026-01-30 18:33:52.28	5.30	13.21	-48.6	-63.3	3.6	3.02e+01	0	41	104	0	60	56384
2026-01-30 18:33:53.29	5.13	13.29	-42.2	-52.9	3.6	3.02e+01	0	41	104	0	60	17051
2026-01-30 18:33:54.29	4.97	13.36	-37.5	-47.8	3.5	3.02e+01	0	41	104	0	50	16741
2026-01-30 18:33:55.30	4.81	13.44	-49.3	-65.8	3.5	3.02e+01	0	41	104	0	60	75435
2026-01-30 18:33:56.31	4.64	13.52	-37.3	-47.6	3.5	3.02e+01	0	41	104	0	50	16382
2026-01-30 18:33:57.32	4.47	13.60	-36.8	-47.0	3.5	3.02e+01	0	41	104	0	48	17178
2026-01-30 18:33:58.33	4.31	13.67	-36.4	-46.6	3.6	3.02e+01	0	41	104	0	48	16384
2026-01-30 18:33:59.34	4.14	13.75	-43.8	-54.8	3.5	3.02e+01	0	41	104	0	60	21154
2026-01-30 18:34:00.35	3.97	13.83	-41.0	-51.5	3.5	3.02e+01	0	41	104	0	60	14442
2026-01-30 18:34:01.36	3.80	13.91	-46.9	-59.6	3.5	3.02e+01	0	41	104	0	60	36773
2026-01-30 18:34:02.37	3.63	13.99	-37.0	-47.2	3.5	3.02e+01	0	41	104	0	50	15765
2026-01-30 18:34:03.38	3.45	14.06	-49.3	-66.3	3.5	3.02e+01	0	41	104	0	60	79446
2026-01-30 18:34:04.39	3.28	14.14	-37.3	-47.5	3.5	3.02e+01	0	41	104	0	50	16171
2026-01-30 18:34:05.40	3.11	14.22	-36.7	-47.0	3.5	3.02e+01	0	41	104	0	48	17109
2026-01-30 18:34:06.41	2.93	14.30	-38.2	-48.4	3.5	3.02e+01	0	41	104	0	48	20239
2026-01-30 18:34:07.42	2.75	14.38	-48.7	-63.4	3.5	3.02e+01	0	41	104	0	60	56599
2026-01-30 18:34:08.43	2.58	14.46	-37.0	-47.1	3.5	3.02e+01	0	41	104	0	50	15575
2026-01-30 18:34:09.45	2.40	14.53	-49.5	-66.4	3.5	3.02e+01	0	41	104	0	60	80051
2026-01-30 18:34:10.46	2.22	14.61	-44.2	-55.4	3.5	3.02e+01	0	41	104	0	60	22719
2026-01-30 18:34:11.47	2.04	14.69	-42.9	-53.8	3.5	3.02e+01	0	41	104	0	60	18840
2026-01-30 18:34:12.48	1.86	14.77	-41.5	-52.2	3.5	3.02e+01	0	41	104	0	56	19652
2026-01-30 18:34:13.49	1.67	14.85	-41.7	-52.3	3.5	3.02e+01	0	41	104	0	58	17776
2026-01-30 18:34:14.50	1.49	14.93	-39.7	-50.1	3.5	3.02e+01	0	41	104	0	56	15479
2026-01-30 18:34:15.51	1.30	15.00	-39.5	-49.9	3.7	3.02e+01	0	41	104	0	50	21504
2026-01-30 18:34:16.51	1.12	15.08	-39.7	-50.1	3.4	3.02e+01	0	41	104	0	56	15428
2026-01-30 18:34:17.53	0.93	15.16	-44.6	-56.0	3.5	3.02e+01	0	41	104	0	60	24147
2026-01-30 18:34:18.53	0.75	15.24	-40.4	-50.8	3.5	3.02e+01	0	41	104	0	52	21100
2026-01-30 18:34:19.55	0.56	15.32	-49.6	-66.2	3.6	3.02e+01	0	41	104	0	60	78491
2026-01-30 18:34:20.56	0.37	15.40	-40.8	-51.3	3.5	3.02e+01	0	41	104	0	56	17855
2026-01-30 18:34:21.57	0.17	15.47	-41.1	-51.6	3.5	3.02e+01	0	41	104	0	56	18506
2026-01-30 18:34:22.58	359.98	15.55	-48.5	-62.6	3.5	3.02e+01	0	41	104	0	60	52120
2026-01-30 18:34:23.59	359.79	15.63	-49.7	-67.1	3.5	3.02e+01	0	41	104	0	60	86733
2026-01-30 18:34:24.60	359.59	15.71	-40.6	-51.1	3.5	3.02e+01	0	41	104	0	60	13760
2026-01-30 18:34:25.61	359.40	15.79	-38.0	-48.2	3.5	3.02e+01	0	41	104	0	54	14038
2026-01-30 18:34:26.62	359.20	15.86	-40.0	-50.3	3.5	3.02e+01	0	41	104	0	48	25157
2026-01-30 18:34:27.63	359.00	15.94	-43.1	-54.0	3.6	3.02e+01	0	41	104	0	60	19249
2026-01-30 18:34:28.64	358.81	16.02	-37.1	-47.3	3.5	3.02e+01	0	41	104	0	50	15894
2026-01-30 18:34:29.65	358.61	16.10	-36.5	-46.7	3.5	3.02e+01	0	41	104	0	48	16618
2026-01-30 18:34:30.66	358.40	16.17	-42.7	-53.5	3.8	3.02e+01	0	41	104	0	52	28759
2026-01-30 18:34:31.66	358.20	16.25	-42.8	-53.6	3.6	3.02e+01	0	41	104	0	60	18434
2026-01-30 18:34:32.67	358.00	16.33	-46.3	-58.3	3.5	3.02e+01	0	41	104	0	56	39992
2026-01-30 18:34:33.68	357.80	16.41	-48.9	-63.8	3.5	3.02e+01	0	41	104	0	60	59841
2026-01-30 18:34:34.69	357.59	16.48	-39.2	-49.4	3.5	3.02e+01	0	41	104	0	52	18102
2026-01-30 18:34:35.70	357.38	16.56	-42.1	-52.8	3.6	3.02e+01	0	41	104	0	60	16759
2026-01-30 18:34:36.71	357.18	16.64	-42.1	-52.7	3.6	3.02e+01	0	41	104	0	58	18681
2026-01-30 18:34:37.72	356.97	16.72	-41.5	-52.1	3.5	3.02e+01	0	41	104	0	58	17351
2026-01-30 18:34:38.73	356.76	16.79	-39.5	-49.8	3.5	3.02e+01	0	41	104	0	54	16851
2026-01-30 18:34:39.74	356.55	16.87	-41.6	-52.1	3.5	3.02e+01	0	41	104	0	54	21908
2026-01-30 18:34:40.76	356.33	16.95	-43.2	-54.1	3.5	3.02e+01	0	41	104	0	54	27518
2026-01-30 18:34:41.77	356.12	17.02	-41.7	-52.4	3.5	3.02e+01	0	41	104	0	60	16104
2026-01-30 18:34:42.78	355.90	17.10	-49.8	-67.6	3.5	3.02e+01	0	41	104	0	60	92202
2026-01-30 18:34:43.79	355.69	17.18	-43.3	-54.2	3.5	3.02e+01	0	41	104	0	60	19841
2026-01-30 18:34:44.80	355.47	17.25	-40.6	-51.1	3.6	3.02e+01	0	41	104	0	56	17422
2026-01-30 18:34:45.81	355.25	17.33	-40.5	-51.0	3.6	3.02e+01	0	41	104	0	56	17167
2026-01-30 18:34:46.82	355.03	17.40	-43.0	-53.9	3.5	3.02e+01	0	41	104	0	56	23931
2026-01-30 18:34:47.83	354.81	17.48	-48.1	-61.9	3.5	3.02e+01	0	41	104	0	60	48168
2026-01-30 18:34:48.84	354.59	17.56	-41.9	-52.6	3.5	3.02e+01	0	41	104	0	54	23120
2026-01-30 18:34:49.85	354.36	17.63	-37.8	-48.1	3.5	3.02e+01	0	41	104	0	50	17459
2026-01-30 18:34:50.86	354.14	17.71	-49.4	-66.6	3.5	3.02e+01	0	41	104	0	60	82131
2026-01-30 18:34:51.87	353.91	17.78	-38.5	-48.8	3.5	3.02e+01	0	41	104	0	54	15021
2026-01-30 18:34:52.87	353.69	17.86	-36.8	-47.0	3.5	3.02e+01	0	41	104	0	48	17213
2026-01-30 18:34:53.89	353.46	17.93	-36.7	-46.9	3.5	3.02e+01	0	41	104	0	48	16990
2026-01-30 18:34:54.90	353.23	18.01	-49.4	-66.3	3.5	3.02e+01	0	41	104	0	60	79619
2026-01-30 18:34:55.91	353.00	18.08	-46.4	-58.7	3.5	3.02e+01	0	41	104	0	60	33023
2026-01-30 18:34:56.91	352.77	18.15	-46.1	-58.0	3.5	3.02e+01	0	41	104	0	60	30602
2026-01-30 18:34:57.92	352.54	18.23	-41.6	-52.2	3.5	3.02e+01	0	41	104	0	56	19839
2026-01-30 18:34:58.93	352.30	18.30	-49.5	-66.5	3.5	3.02e+01	0	41	104	0	60	81716
2026-01-30 18:34:59.95	352.07	18.38	-39.1	-49.5	3.6	3.02e+01	0	41	104	0	54	16169
2026-01-30 18:35:00.95	351.83	18.45	-37.6	-47.9	3.5	3.02e+01	0	41	104	0	50	16902
2026-01-30 18:35:01.97	351.59	18.52	-37.0	-47.2	3.5	3.02e+01	0	41	104	0	48	17656
2026-01-30 18:35:02.98	351.35	18.59	-49.5	-65.9	3.5	3.02e+01	0	41	104	0	60	75748
2026-01-30 18:35:03.99	351.11	18.67	-40.1	-50.5	3.5	3.02e+01	0	41	104	0	56	16227
2026-01-30 18:35:05.00	350.87	18.74	-49.7	-66.8	3.5	3.02e+01	0	41	104	0	60	84495
2026-01-30 18:35:06.01	350.63	18.81	-48.0	-61.7	3.5	3.02e+01	0	41	104	0	60	46805
2026-01-30 18:35:07.02	350.38	18.88	-44.1	-55.2	3.5	3.02e+01	0	41	104	0	60	22114
2026-01-30 18:35:08.03	350.14	18.95	-40.4	-50.8	3.6	3.02e+01	0	41	104	0	56	16810
2026-01-30 18:35:09.04	349.89	19.02	-38.9	-49.2	3.5	3.02e+01	0	41	104	0	54	15741
2026-01-30 18:35:10.05	349.65	19.09	-37.8	-48.0	3.5	3.02e+01	0	41	104	0	50	17207
2026-01-30 18:35:11.06	349.40	19.16	-36.9	-47.1	3.5	3.02e+01	0	41	104	0	48	17356
2026-01-30 18:35:12.07	349.15	19.23	-45.5	-57.1	3.5	3.02e+01	0	41	104	0	60	27660
2026-01-30 18:35:13.08	348.90	19.30	-48.0	-61.8	3.5	3.02e+01	0	41	104	0	60	47115
2026-01-30 18:35:14.09	348.64	19.37	-41.6	-52.2	3.5	3.02e+01	0	41	104	0	56	19716
2026-01-30 18:35:15.10	348.39	19.44	-49.6	-66.2	3.5	3.02e+01	0	41	104	0	60	78248
2026-01-30 18:35:16.11	348.13	19.51	-40.2	-50.7	3.6	3.02e+01	0	41	104	0	56	16578
2026-01-30 18:35:17.12	347.88	19.58	-39.3	-49.6	3.5	3.02e+01	0	41	104	0	54	16434
2026-01-30 18:35:18.13	347.62	19.65	-39.0	-49.4	3.5	3.02e+01	0	41	104	0	54	15977
2026-01-30 18:35:19.13	347.36	19.71	-42.3	-53.0	3.5	3.02e+01	0	41	104	0	60	17288
2026-01-30 18:35:20.14	347.11	19.78	-47.4	-60.3	3.5	3.02e+01	0	41	104	0	60	40067
2026-01-30 18:35:21.15	346.84	19.85	-46.0	-57.9	3.5	3.02e+01	0	41	104	0	60	30054
2026-01-30 18:35:22.16	346.58	19.91	-39.9	-50.3	3.5	3.02e+01	0	41	104	0	52	19939
2026-01-30 18:35:23.17	346.32	19.98	-49.7	-66.8	3.5	3.02e+01	0	41	104	0	60	83867
2026-01-30 18:35:24.18	346.05	20.05	-40.5	-51.0	3.5	3.02e+01	0	41	104	0	56	17198
2026-01-30 18:35:25.19	345.79	20.11	-39.4	-49.8	3.5	3.02e+01	0	41	104	0	54	16886
2026-01-30 18:35:26.20	345.52	20.18	-38.1	-48.4	3.5	3.02e+01	0	41	104	0	52	15974
2026-01-30 18:35:27.21	345.25	20.24	-39.7	-50.1	3.5	3.02e+01	0	41	104	0	54	17351
2026-01-30 18:35:28.22	344.98	20.30	-45.6	-57.3	3.5	3.02e+01	0	41	104	0	60	28088
2026-01-30 18:35:29.23	344.71	20.37	-47.2	-59.9	3.5	3.02e+01	0	41	104	0	60	38122
2026-01-30 18:35:30.24	344.44	20.43	-42.8	-53.6	3.6	3.02e+01	0	41	104	0	60	18376
2026-01-30 18:35:31.25	344.17	20.49	-49.4	-65.2	3.5	3.02e+01	0	41	104	0	60	70117
2026-01-30 18:35:32.26	343.89	20.55	-42.3	-53.0	3.5	3.02e+01	0	41	104	0	60	17263
2026-01-30 18:35:33.27	343.62	20.61	-41.8	-52.5	3.5	3.02e+01	0	41	104	0	58	18262
2026-01-30 18:35:34.28	343.34	20.67	-42.2	-52.9	3.5	3.02e+01	0	41	104	0	56	21401
2026-01-30 18:35:35.29	343.06	20.74	-49.9	-67.7	3.5	3.02e+01	0	41	104	0	60	93338
2026-01-30 18:35:36.30	342.79	20.79	-44.2	-55.4	3.5	3.02e+01	0	41	104	0	60	22626
2026-01-30 18:35:37.31	342.51	20.85	-44.8	-56.2	3.5	3.02e+01	0	41	104	0	60	24837
2026-01-30 18:35:38.32	342.22	20.91	-38.6	-48.9	3.4	3.02e+01	0	41	104	0	54	15174
2026-01-30 18:35:39.33	341.94	20.97	-49.7	-66.9	3.5	3.02e+01	0	41	104	0	60	85364
2026-01-30 18:35:40.34	341.66	21.03	-40.7	-51.2	3.5	3.02e+01	0	41	104	0	56	17531
2026-01-30 18:35:41.35	341.37	21.09	-40.4	-50.8	3.5	3.02e+01	0	41	104	0	56	16759
2026-01-30 18:35:42.36	341.09	21.14	-38.2	-48.4	3.5	3.02e+01	0	41	104	0	52	16132
2026-01-30 18:35:43.36	340.81	21.20	-37.0	-47.2	3.5	3.02e+01	0	41	104	0	50	15676
2026-01-30 18:35:44.37	340.52	21.25	-43.0	-53.8	3.6	3.02e+01	0	41	104	0	60	18834
2026-01-30 18:35:45.38	340.23	21.31	-44.9	-56.3	3.5	3.02e+01	0	41	104	0	60	25106
2026-01-30 18:35:46.39	339.94	21.36	-37.9	-48.1	3.5	3.02e+01	0	41	104	0	52	15475
2026-01-30 18:35:47.40	339.65	21.41	-49.5	-65.9	3.5	3.02e+01	0	41	104	0	60	76264
2026-01-30 18:35:48.41	339.36	21.47	-39.5	-49.9	3.5	3.02e+01	0	41	104	0	54	16940
2026-01-30 18:35:49.42	339.06	21.52	-39.3	-49.6	3.5	3.02e+01	0	41	104	0	54	16458
2026-01-30 18:35:50.43	338.77	21.57	-40.1	-50.5	3.5	3.02e+01	0	41	104	0	52	20542
2026-01-30 18:35:51.44	338.47	21.62	-47.6	-60.7	3.5	3.02e+01	0	41	104	0	60	41772
2026-01-30 18:35:52.45	338.18	21.67	-40.8	-51.3	3.3	3.02e+01	0	41	104	0	60	14065
2026-01-30 18:35:53.46	337.88	21.72	-40.6	-51.2	3.4	3.02e+01	0	41	104	0	60	13939
2026-01-30 18:35:54.47	337.58	21.77	-37.1	-47.4	3.5	3.02e+01	0	41	104	0	50	15971
2026-01-30 18:35:55.48	337.28	21.82	-49.9	-67.5	3.5	3.02e+01	0	41	104	0	60	91604
2026-01-30 18:35:56.49	336.98	21.86	-44.1	-55.0	3.5	3.02e+01	0	41	104	0	60	21738
2026-01-30 18:35:57.50	336.68	21.91	-45.0	-56.4	3.5	3.02e+01	0	41	104	0	60	25321
2026-01-30 18:35:58.51	336.38	21.96	-42.3	-52.9	3.6	3.02e+01	0	41	104	0	60	17081
2026-01-30 18:35:59.52	336.08	22.00	-39.9	-50.3	3.5	3.02e+01	0	41	104	0	54	17767
2026-01-30 18:36:00.52	335.77	22.04	-39.8	-50.2	3.5	3.02e+01	0	41	104	0	58	13931
2026-01-30 18:36:01.53	335.47	22.09	-43.5	-54.6	3.5	3.02e+01	0	41	104	0	60	20549
2026-01-30 18:36:02.54	335.16	22.13	-40.8	-51.3	3.5	3.02e+01	0	41	104	0	56	17817
2026-01-30 18:36:03.56	334.85	22.17	-49.3	-65.2	3.5	3.02e+01	0	41	104	0	60	69678
2026-01-30 18:36:04.57	334.55	22.22	-42.3	-53.1	3.5	3.02e+01	0	41	104	0	60	17420
2026-01-30 18:36:05.57	334.24	22.26	-42.2	-52.9	3.5	3.02e+01	0	41	104	0	60	16984
2026-01-30 18:36:06.59	333.93	22.30	-48.0	-61.5	3.4	3.02e+01	0	41	104	0	60	45551
2026-01-30 18:36:07.59	333.62	22.33	-49.3	-65.3	3.5	3.02e+01	0	41	104	0	60	71068
2026-01-30 18:36:08.60	333.31	22.37	-40.1	-50.5	3.5	3.02e+01	0	41	104	0	58	14547
2026-01-30 18:36:09.61	333.00	22.41	-40.8	-51.3	3.5	3.02e+01	0	41	104	0	60	14189
2026-01-30 18:36:10.62	332.69	22.45	-44.4	-55.6	3.5	3.02e+01	0	41	104	0	54	32571
2026-01-30 18:36:11.63	332.37	22.48	-47.0	-59.6	3.5	3.02e+01	0	41	104	0	60	36944
2026-01-30 18:36:12.64	332.06	22.52	-40.7	-51.1	3.5	3.02e+01	0	41	104	0	56	17403
2026-01-30 18:36:13.65	331.74	22.55	-39.4	-49.8	3.6	3.02e+01	0	41	104	0	54	16845
2026-01-30 18:36:14.66	331.43	22.58	-37.8	-48.1	3.5	3.02e+01	0	41	104	0	50	17412
2026-01-30 18:36:15.67	331.11	22.62	-38.6	-48.9	3.5	3.02e+01	0	41	104	0	50	18989
2026-01-30 18:36:16.68	330.80	22.65	-41.1	-51.6	3.5	3.02e+01	0	41	104	0	54	20691
2026-01-30 18:36:17.69	330.48	22.68	-41.2	-51.7	3.5	3.02e+01	0	41	104	0	58	16587
2026-01-30 18:36:18.70	330.16	22.71	-46.1	-58.0	3.4	3.02e+01	0	41	104	0	54	42954
2026-01-30 18:36:19.71	329.84	22.74	-45.9	-57.7	3.5	3.02e+01	0	41	104	0	60	29402
2026-01-30 18:36:20.72	329.52	22.77	-40.4	-50.8	3.5	3.02e+01	0	41	104	0	54	18891
2026-01-30 18:36:21.73	329.20	22.79	-40.3	-50.8	3.5	3.02e+01	0	41	104	0	54	18799
2026-01-30 18:36:22.75	328.88	22.82	-46.6	-58.6	3.5	3.02e+01	0	41	104	0	60	32929
2026-01-30 18:36:23.75	328.56	22.84	-49.3	-64.9	3.5	3.02e+01	0	41	104	0	60	67753
2026-01-30 18:36:24.77	328.23	22.87	-40.1	-50.5	3.5	3.02e+01	0	41	104	0	56	16241
2026-01-30 18:36:25.78	327.91	22.89	-39.6	-50.0	3.5	3.02e+01	0	41	104	0	54	17103
2026-01-30 18:36:26.78	327.59	22.91	-49.9	-67.0	3.5	3.02e+01	0	41	104	0	60	85830
2026-01-30 18:36:27.79	327.27	22.94	-43.1	-53.8	3.4	3.02e+01	0	41	104	0	60	18947
2026-01-30 18:36:28.80	326.95	22.96	-39.6	-49.9	3.6	3.02e+01	0	41	104	0	54	16899
2026-01-30 18:36:29.82	326.62	22.98	-38.1	-39.6	24.0	3.02e+01	61	41	104	0	52	5858
2026-01-30 18:36:30.82	326.30	23.00	-38.5	-39.8	27.1	3.02e+01	60	41	0	1048576	50	6671
2026-01-30 18:36:31.84	325.97	23.01	-38.1	-39.4	27.6	3.02e+01	59	41	0	2621440	50	6373
2026-01-30 18:36:32.84	325.65	23.03	-38.2	-39.5	27.5	3.02e+01	61	41	0	4718592	50	6482
2026-01-30 18:36:33.85	325.32	23.05	-38.4	-39.7	27.3	3.02e+01	60	41	0	6291456	50	6610
2026-01-30 18:36:34.86	324.99	23.06	-37.3	-38.5	28.4	3.02e+01	56	41	0	8388608	50	5779
2026-01-30 18:36:35.87	324.67	23.08	-36.6	-37.8	29.0	3.02e+01	58	41	0	9961472	48	5939
2026-01-30 18:36:36.88	324.34	23.09	-36.4	-37.6	29.1	3.02e+01	59	41	0	12058624	48	5828
2026-01-30 18:36:37.89	324.01	23.10	-36.7	-37.9	28.9	3.02e+01	57	41	0	14155776	48	6055
2026-01-30 18:36:38.90	323.69	23.11	-36.5	-37.8	29.0	3.02e+01	62	41	0	15728640	48	5936
2026-01-30 18:36:39.91	323.36	23.12	-36.6	-37.9	28.9	3.02e+01	58	41	0	17825792	48	6022
2026-01-30 18:36:40.92	323.03	23.13	-36.6	-37.9	29.0	3.02e+01	50	41	0	19922944	48	6013
2026-01-30 18:36:41.93	322.70	23.14	-36.5	-37.7	29.1	3.02e+01	60	41	0	21495808	48	5899
2026-01-30 18:36:42.94	322.37	23.15	-36.6	-37.9	29.0	3.02e+01	60	41	0	23592960	48	6005
2026-01-30 18:36:43.95	322.05	23.15	-36.7	-38.0	28.8	3.02e+01	44	41	0	25165824	48	6085
2026-01-30 18:36:44.96	321.72	23.16	-36.6	-37.8	29.0	3.02e+01	60	41	0	27262976	48	5953
2026-01-30 18:36:45.97	321.39	23.16	-36.7	-37.9	28.9	3.02e+01	59	41	0	29360128	48	6053
2026-01-30 18:36:46.98	321.06	23.17	-36.7	-37.9	28.9	3.02e+01	59	41	0	30932992	48	6016
2026-01-30 18:36:47.99	320.73	23.17	-36.5	-37.8	29.1	3.02e+01	60	41	0	33030144	48	5932
2026-01-30 18:36:49.00	320.40	23.17	-36.6	-37.8	29.1	3.02e+01	58	41	0	34603008	48	5958
2026-01-30 18:36:50.01	320.07	23.17	-36.7	-37.9	28.9	3.02e+01	59	41	0	36700160	48	6053
2026-01-30 18:36:51.02	319.74	23.17	-36.6	-37.9	29.0	3.02e+01	61	41	0	38797312	48	6000
2026-01-30 18:36:52.03	319.42	23.17	-36.6	-37.9	28.9	3.02e+01	52	41	0	40370176	48	6000
2026-01-30 18:36:53.04	319.09	23.17	-36.6	-37.9	28.9	3.02e+01	60	41	0	42467328	48	6000
2026-01-30 18:36:54.05	318.76	23.16	-36.6	-37.8	28.9	3.02e+01	55	41	0	44564480	48	5991
2026-01-30 18:36:55.06	318.43	23.16	-36.7	-37.9	28.9	3.02e+01	58	41	0	46137344	48	6049
2026-01-30 18:36:56.07	318.10	23.15	-36.7	-37.9	28.8	3.02e+01	57	41	0	48234496	48	6045
2026-01-30 18:36:57.08	317.77	23.15	-36.6	-37.8	28.9	3.02e+01	52	41	0	49807360	48	5979
2026-01-30 18:36:58.09	317.44	23.14	-36.6	-37.8	29.0	3.02e+01	61	41	0	51904512	48	5961
2026-01-30 18:36:59.10	317.12	23.13	-36.7	-38.0	28.9	3.02e+01	57	41	0	54001664	48	6074
2026-01-30 18:37:00.11	316.79	23.12	-36.7	-37.9	28.9	3.02e+01	48	41	0	55574528	48	6062
2026-01-30 18:37:01.12	316.46	23.11	-36.9	-38.1	28.7	3.02e+01	58	41	0	57671680	48	6177
2026-01-30 18:37:02.12	316.14	23.10	-36.7	-38.0	29.0	3.02e+01	58	41	0	59768832	48	6065
2026-01-30 18:37:03.13	315.81	23.09	-36.8	-38.0	28.8	3.02e+01	58	41	0	61341696	48	6106
2026-01-30 18:37:04.14	315.48	23.08	-36.9	-38.1	28.8	3.02e+01	58	41	0	63438848	48	6172
2026-01-30 18:37:05.15	315.16	23.06	-36.8	-38.0	28.9	3.02e+01	53	41	0	65011712	48	6122
2026-01-30 18:37:06.09	314.85	23.05	-36.7	-37.9	28.9	3.02e+01	60	41	0	67108864	48	6048
2026-01-30 18:37:07.10	314.53	23.03	-36.7	-37.9	28.9	3.02e+01	60	41	0	68681728	48	6022
2026-01-30 18:37:08.11	314.20	23.02	-36.9	-38.1	28.7	3.02e+01	57	41	0	70778880	48	6165
2026-01-30 18:37:09.12	313.87	23.00	-36.7	-37.9	28.9	3.02e+01	58	41	0	72876032	48	6038
2026-01-30 18:37:10.12	313.55	22.98	-37.0	-38.2	28.8	3.02e+01	56	41	0	74448896	48	6253
2026-01-30 18:37:11.13	313.23	22.96	-37.0	-38.2	28.5	3.02e+01	57	41	0	76546048	48	6266
2026-01-30 18:37:12.14	312.90	22.94	-36.8	-38.1	28.7	3.02e+01	60	41	0	78118912	48	6154
2026-01-30 18:37:13.15	312.58	22.92	-36.6	-37.8	29.0	3.02e+01	44	41	0	80216064	48	5970
2026-01-30 18:37:14.16	312.26	22.90	-37.0	-38.2	28.7	3.02e+01	59	41	0	82313216	48	6247
2026-01-30 18:37:15.18	311.93	22.87	-37.0	-38.3	28.6	3.02e+01	60	41	0	83886080	48	6289
2026-01-30 18:37:16.19	311.61	22.85	-36.9	-38.1	28.8	3.02e+01	57	41	0	85983232	48	6167
2026-01-30 18:37:17.20	311.29	22.82	-36.9	-38.2	28.8	3.02e+01	57	41	0	88080384	48	6224
2026-01-30 18:37:18.21	310.97	22.80	-37.5	-38.8	28.1	3.02e+01	45	41	0	89653248	48	6696
2026-01-30 18:37:19.22	310.65	22.77	-37.8	-39.1	27.8	3.02e+01	60	41	0	91750400	48	6919
2026-01-30 18:37:20.22	310.33	22.74	-36.9	-38.1	28.7	3.02e+01	58	41	0	93323264	50	5485
2026-01-30 18:37:21.23	310.01	22.71	-36.8	-38.0	28.8	3.02e+01	45	41	0	95420416	48	6127
2026-01-30 18:37:22.24	309.69	22.68	-36.9	-38.1	28.7	3.02e+01	58	41	0	97517568	48	6205
2026-01-30 18:37:23.25	309.37	22.65	-36.9	-38.2	28.6	3.02e+01	61	41	0	99090432	48	6241
2026-01-30 18:37:24.26	309.06	22.62	-36.7	-37.9	28.8	3.02e+01	59	41	0	101187584	48	6052
2026-01-30 18:37:25.27	308.74	22.59	-36.8	-38.0	28.8	3.02e+01	57	41	0	102760448	48	6103
2026-01-30 18:37:26.28	308.42	22.56	-37.1	-38.4	28.6	3.02e+01	58	41	0	104857600	48	6373
2026-01-30 18:37:27.29	308.11	22.52	-37.0	-38.3	28.5	3.02e+01	61	41	0	106954752	48	6282
2026-01-30 18:37:28.30	307.79	22.49	-36.4	-37.6	29.2	3.02e+01	60	41	0	108527616	48	5830
2026-01-30 18:37:29.31	307.48	22.45	-36.8	-38.1	28.7	3.02e+01	53	41	0	110624768	48	6159
2026-01-30 18:37:30.32	307.17	22.42	-36.8	-38.1	28.6	3.02e+01	60	41	0	112721920	48	6153
2026-01-30 18:37:31.33	306.85	22.38	-36.8	-38.0	28.8	3.02e+01	58	41	0	114294784	48	6090
2026-01-30 18:37:32.34	306.54	22.34	-38.0	-39.3	27.9	3.02e+01	51	41	0	116391936	48	7099
2026-01-30 18:37:33.35	306.23	22.30	-37.4	-38.7	28.1	3.02e+01	58	41	0	117964800	48	6594
2026-01-30 18:37:34.36	305.92	22.26	-36.1	-37.3	29.3	3.02e+01	54	41	0	120061952	48	5603
2026-01-30 18:37:35.37	305.61	22.22	-36.7	-37.9	28.7	3.02e+01	60	41	0	122159104	48	6032
2026-01-30 18:37:36.38	305.30	22.18	-37.2	-38.6	28.3	3.02e+01	61	41	0	123731968	48	6514
2026-01-30 18:37:37.39	305.00	22.14	-36.6	-37.8	29.0	3.02e+01	46	41	0	125829120	48	5940
2026-01-30 18:37:38.41	304.69	22.10	-37.2	-38.5	28.2	3.02e+01	56	41	0	127401984	48	6440
2026-01-30 18:37:39.42	304.38	22.05	-37.2	-38.5	28.2	3.02e+01	60	41	0	129499136	48	6457
2026-01-30 18:37:40.43	304.08	22.01	-35.8	-37.0	29.4	3.02e+01	60	41	0	131596288	46	6074
2026-01-30 18:37:41.44	303.77	21.96	-36.7	-37.9	28.6	3.02e+01	60	41	0	133169152	48	6047
2026-01-30 18:37:42.45	303.47	21.92	-37.8	-39.2	27.8	3.02e+01	52	41	0	135266304	48	6982
2026-01-30 18:37:43.46	303.17	21.87	-37.2	-38.5	28.4	3.02e+01	61	41	0	137363456	48	6482
2026-01-30 18:37:44.47	302.87	21.82	-37.5	-38.8	28.0	3.02e+01	60	41	0	138936320	48	6682
2026-01-30 18:37:45.48	302.57	21.78	-37.4	-38.7	27.9	3.02e+01	57	41	0	141033472	48	6613
2026-01-30 18:37:46.49	302.27	21.73	-36.7	-37.9	29.0	3.02e+01	60	41	0	142606336	50	5396
2026-01-30 18:37:47.50	301.97	21.68	-37.8	-39.2	27.3	3.02e+01	50	41	0	144703488	50	6214
2026-01-30 18:37:48.51	301.67	21.63	-38.2	-39.6	27.3	3.02e+01	59	41	0	146800640	50	6546
2026-01-30 18:37:49.52	301.38	21.58	-38.2	-39.5	27.5	3.02e+01	59	41	0	148373504	50	6430
2026-01-30 18:37:50.53	301.08	21.53	-38.5	-39.8	27.3	3.02e+01	48	41	0	150470656	50	6706
2026-01-30 18:37:51.54	300.79	21.47	-36.8	-38.0	28.7	3.02e+01	58	41	0	152043520	48	6131
2026-01-30 18:37:52.55	300.50	21.42	-37.0	-38.2	28.3	3.02e+01	60	41	0	154140672	48	6233
2026-01-30 18:37:53.56	300.21	21.37	-38.5	-39.9	27.3	3.02e+01	58	41	0	156237824	50	6740
2026-01-30 18:37:54.57	299.91	21.31	-37.0	-38.3	28.5	3.02e+01	59	41	0	157810688	48	6280
2026-01-30 18:37:55.58	299.62	21.26	-37.7	-39.0	28.1	3.02e+01	57	41	0	159907840	48	6820
2026-01-30 18:37:56.59	299.34	21.20	-37.2	-38.5	28.5	3.02e+01	59	41	0	161480704	48	6433
2026-01-30 18:37:57.60	299.05	21.15	-37.4	-38.7	28.2	3.02e+01	58	41	0	163577856	48	6612
2026-01-30 18:37:58.61	298.76	21.09	-37.0	-38.2	28.3	3.02e+01	48	41	0	165675008	48	6265
2026-01-30 18:37:59.62	298.48	21.03	-36.3	-37.5	29.3	3.02e+01	59	41	0	167247872	48	5758
2026-01-30 18:38:00.63	298.19	20.98	-36.9	-38.2	28.7	3.02e+01	58	41	0	169345024	48	6224
2026-01-30 18:38:01.64	297.91	20.92	-36.8	-38.0	28.7	3.02e+01	58	41	0	170917888	48	6097
2026-01-30 18:38:02.65	297.63	20.86	-37.5	-38.8	28.1	3.02e+01	59	41	0	173015040	48	6654
2026-01-30 18:38:03.66	297.35	20.80	-37.2	-38.5	28.4	3.02e+01	46	41	0	175112192	48	6446
2026-01-30 18:38:04.67	297.07	20.74	-37.0	-38.3	28.6	3.02e+01	58	41	0	176685056	48	6284
2026-01-30 18:38:05.68	296.79	20.68	-36.8	-38.1	28.7	3.02e+01	61	41	0	178782208	48	6142
2026-01-30 18:38:06.69	296.51	20.62	-37.1	-38.3	28.5	3.02e+01	45	41	0	180879360	48	6333
2026-01-30 18:38:07.70	296.24	20.56	-37.3	-38.6	28.3	3.02e+01	59	41	0	182452224	48	6539
2026-01-30 18:38:08.71	295.96	20.50	-36.6	-37.8	29.0	3.02e+01	62	41	0	184549376	48	5955
2026-01-30 18:38:09.72	295.69	20.44	-37.3	-38.6	28.2	3.02e+01	57	41	0	186122240	48	6520
2026-01-30 18:38:10.73	295.41	20.37	-36.1	-37.2	29.4	3.02e+01	54	41	0	188219392	48	5561
2026-01-30 18:38:11.74	295.14	20.31	-37.1	-38.4	28.3	3.02e+01	44	41	0	190316544	48	6381
2026-01-30 18:38:12.75	294.87	20.25	-36.8	-38.1	28.6	3.02e+01	61	41	0	191889408	48	6150
2026-01-30 18:38:13.76	294.60	20.18	-36.4	-37.5	29.2	3.02e+01	62	41	0	193986560	48	5782
2026-01-30 18:38:14.77	294.34	20.12	-37.2	-38.5	28.4	3.02e+01	46	41	0	195559424	48	6439
2026-01-30 18:38:15.78	294.07	20.05	-37.2	-38.5	28.4	3.02e+01	61	41	0	197656576	48	6441
2026-01-30 18:38:16.79	293.80	19.99	-37.3	-38.6	28.2	3.02e+01	60	41	0	199753728	48	6540
2026-01-30 18:38:17.80	293.54	19.92	-37.3	-38.6	28.3	3.02e+01	60	41	0	201326592	48	6517
2026-01-30 18:38:18.81	293.28	19.85	-36.3	-37.5	29.2	3.02e+01	60	41	0	203423744	48	5726
2026-01-30 18:38:19.82	293.01	19.79	-37.6	-38.9	27.8	3.02e+01	54	41	0	205520896	48	6766
2026-01-30 18:38:20.83	292.75	19.72	-36.2	-37.4	29.1	3.02e+01	60	41	0	207093760	48	5688
2026-01-30 18:38:21.85	292.49	19.65	-37.4	-38.7	27.5	3.02e+01	56	41	0	209190912	48	6595
2026-01-30 18:38:22.85	292.24	19.58	-36.8	-38.0	28.3	3.02e+01	56	41	0	210763776	48	6092
2026-01-30 18:38:23.86	291.98	19.52	-37.5	-38.7	27.6	3.02e+01	59	41	0	212860928	50	5907
2026-01-30 18:38:24.87	291.72	19.45	-38.0	-39.3	27.3	3.02e+01	52	41	0	214958080	48	7124
2026-01-30 18:38:25.88	291.47	19.38	-37.4	-38.6	28.2	3.02e+01	59	41	0	216530944	50	5858
2026-01-30 18:38:26.89	291.22	19.31	-37.7	-39.0	27.9	3.02e+01	58	41	0	218628096	50	6080
2026-01-30 18:38:27.90	290.96	19.24	-36.4	-37.6	29.2	3.02e+01	52	41	0	220725248	48	5796
2026-01-30 18:38:28.91	290.71	19.17	-37.0	-38.3	28.5	3.02e+01	60	41	0	222298112	48	6326
2026-01-30 18:38:29.92	290.46	19.10	-36.7	-37.9	28.8	3.02e+01	52	41	0	224395264	48	6045
2026-01-30 18:38:30.93	290.21	19.03	-37.3	-38.6	28.2	3.02e+01	58	41	0	225968128	48	6562
2026-01-30 18:38:31.94	289.97	18.96	-36.9	-38.2	28.5	3.02e+01	60	41	0	228065280	48	6207
2026-01-30 18:38:32.95	289.72	18.88	-37.5	-38.8	27.7	3.02e+01	51	41	0	230162432	50	5983
2026-01-30 18:38:33.97	289.47	18.81	-37.3	-38.5	28.2	3.02e+01	57	41	0	231735296	48	6469
2026-01-30 18:38:34.98	289.23	18.74	-37.8	-39.1	27.5	3.02e+01	58	41	0	233832448	50	6149
2026-01-30 18:38:35.99	288.99	18.67	-36.9	-38.1	28.5	3.02e+01	52	41	0	235405312	48	6199
2026-01-30 18:38:37.00	288.75	18.60	-38.0	-39.3	27.4	3.02e+01	62	41	0	237502464	50	6323
2026-01-30 18:38:38.00	288.51	18.52	-36.4	-37.6	29.0	3.02e+01	61	41	0	239599616	48	5821
2026-01-30 18:38:39.01	288.27	18.45	-37.1	-38.4	28.3	3.02e+01	61	41	0	241172480	48	6355
2026-01-30 18:38:40.02	288.03	18.38	-36.4	-37.6	29.1	3.02e+01	61	41	0	243269632	48	5792
2026-01-30 18:38:41.03	287.80	18.30	-36.8	-38.0	28.8	3.02e+01	53	41	0	244842496	48	6134
2026-01-30 18:38:42.04	287.56	18.23	-36.7	-37.9	28.9	3.02e+01	61	41	0	246939648	48	6022
2026-01-30 18:38:43.05	287.33	18.16	-37.0	-38.2	28.7	3.02e+01	57	41	0	249036800	48	6247
2026-01-30 18:38:44.06	287.10	18.08	-36.7	-37.9	28.8	3.02e+01	54	41	0	250609664	48	6018
2026-01-30 18:38:45.07	286.86	18.01	-37.0	-38.3	28.5	3.02e+01	59	41	0	252706816	48	6311
2026-01-30 18:38:46.08	286.63	17.93	-36.4	-37.6	29.1	3.02e+01	56	41	0	254279680	48	5858
2026-01-30 18:38:47.09	286.40	17.86	-36.7	-37.9	28.9	3.02e+01	61	41	0	256376832	48	6034
2026-01-30 18:38:48.10	286.18	17.78	-36.4	-37.6	29.1	3.02e+01	58	41	0	258473984	48	5845
2026-01-30 18:38:49.11	285.95	17.71	-36.5	-37.7	29.1	3.02e+01	46	41	0	260046848	48	5892
2026-01-30 18:38:50.12	285.73	17.63	-36.4	-37.6	29.1	3.02e+01	59	41	0	262144000	48	5837
2026-01-30 18:38:51.13	285.50	17.56	-36.7	-37.9	28.9	3.02e+01	61	41	0	263716864	48	6034
2026-01-30 18:38:52.14	285.28	17.48	-36.7	-37.9	28.6	3.02e+01	46	41	0	265814016	48	6032
2026-01-30 18:38:53.15	285.06	17.40	-36.7	-37.9	28.8	3.02e+01	59	41	0	267911168	48	6020
2026-01-30 18:38:54.16	284.84	17.33	-37.1	-38.4	28.3	3.02e+01	46	41	0	269484032	48	6379
2026-01-30 18:38:55.17	284.62	17.25	-37.1	-38.4	28.2	3.02e+01	58	41	0	271581184	48	6364
2026-01-30 18:38:56.18	284.40	17.18	-36.9	-38.1	28.6	3.02e+01	61	41	0	273678336	48	6199
2026-01-30 18:38:57.19	284.18	17.10	-37.3	-38.6	28.2	3.02e+01	54	41	0	275251200	48	6556
2026-01-30 18:38:58.20	283.97	17.02	-37.3	-38.5	28.3	3.02e+01	57	41	0	277348352	48	6473
2026-01-30 18:38:59.21	283.75	16.95	-36.7	-37.9	28.8	3.02e+01	58	41	0	278921216	48	6047
2026-01-30 18:39:00.22	283.54	16.87	-36.3	-37.5	29.1	3.02e+01	59	41	0	281018368	48	5785
2026-01-30 18:39:01.23	283.33	16.79	-36.4	-37.6	29.2	3.02e+01	55	41	0	283115520	48	5793
2026-01-30 18:39:02.24	283.11	16.71	-36.8	-38.1	28.6	3.02e+01	57	41	0	284688384	48	6149
2026-01-30 18:39:03.25	282.90	16.64	-36.7	-37.9	28.8	3.02e+01	60	41	0	286785536	48	6042
2026-01-30 18:39:04.26	282.70	16.56	-36.8	-38.0	28.8	3.02e+01	60	41	0	288882688	48	6115
2026-01-30 18:39:05.27	282.49	16.48	-36.5	-37.8	29.0	3.02e+01	53	41	0	290455552	48	5929
2026-01-30 18:39:06.28	282.28	16.40	-36.7	-37.9	28.8	3.02e+01	60	41	0	292552704	48	6058
2026-01-30 18:39:07.30	282.07	16.33	-36.4	-37.6	29.1	3.02e+01	58	41	0	294125568	48	5806
2026-01-30 18:39:08.31	281.87	16.25	-36.6	-37.8	29.0	3.02e+01	54	41	0	296222720	48	5938
2026-01-30 18:39:09.32	281.67	16.17	-37.6	-38.9	27.9	3.02e+01	62	41	0	298319872	48	6743
2026-01-30 18:39:10.33	281.46	16.09	-37.0	-38.3	28.4	3.02e+01	45	41	0	299892736	48	6279
2026-01-30 18:39:11.33	281.27	16.02	-36.5	-37.7	28.9	3.02e+01	54	41	0	301989888	48	5913
2026-01-30 18:39:12.34	281.07	15.94	-36.9	-38.1	28.6	3.02e+01	62	41	0	303562752	48	6202
2026-01-30 18:39:13.35	280.87	15.86	-36.8	-38.1	28.6	3.02e+01	44	41	0	305659904	48	6171
2026-01-30 18:39:14.36	280.67	15.78	-37.0	-38.2	28.5	3.02e+01	58	41	0	307757056	48	6223
2026-01-30 18:39:15.37	280.47	15.70	-37.0	-38.2	28.4	3.02e+01	60	41	0	309329920	48	6246
2026-01-30 18:39:16.38	280.28	15.62	-37.0	-38.3	28.4	3.02e+01	61	41	0	311427072	48	6316
2026-01-30 18:39:17.40	280.08	15.55	-36.9	-38.1	28.6	3.02e+01	60	41	0	312999936	48	6165
2026-01-30 18:39:18.41	279.89	15.47	-36.7	-37.9	28.8	3.02e+01	55	41	0	315097088	48	6032
2026-01-30 18:39:19.42	279.70	15.39	-37.1	-38.3	28.4	3.02e+01	59	41	0	317194240	48	6350
2026-01-30 18:39:20.43	279.51	15.31	-37.1	-38.4	28.4	3.02e+01	62	41	0	318767104	48	6368
2026-01-30 18:39:21.44	279.32	15.23	-36.9	-38.1	28.5	3.02e+01	46	41	0	320864256	48	6166
2026-01-30 18:39:22.45	279.13	15.15	-36.6	-37.7	28.9	3.02e+01	57	41	0	322437120	48	5925
2026-01-30 18:39:23.46	278.94	15.07	-36.7	-37.9	28.8	3.02e+01	50	41	0	324534272	48	6023
2026-01-30 18:39:24.46	278.75	15.00	-37.0	-38.3	28.5	3.02e+01	58	41	0	326631424	48	6283
2026-01-30 18:39:25.48	278.57	14.92	-36.8	-38.1	28.6	3.02e+01	58	41	0	328204288	48	6163
2026-01-30 18:39:26.48	278.38	14.84	-36.5	-37.7	28.9	3.02e+01	50	41	0	330301440	48	5925
2026-01-30 18:39:27.49	278.20	14.76	-36.7	-37.9	28.8	3.02e+01	60	41	0	331874304	48	6044
2026-01-30 18:39:28.50	278.02	14.68	-36.7	-38.0	28.7	3.02e+01	60	41	0	333971456	48	6088
2026-01-30 18:39:29.51	277.84	14.60	-36.7	-37.9	28.6	3.02e+01	59	41	0	336068608	48	6064
2026-01-30 18:39:30.52	277.66	14.53	-36.7	-37.9	28.7	3.02e+01	61	41	0	337641472	48	6055
2026-01-30 18:39:31.53	277.48	14.45	-36.9	-38.1	28.5	3.02e+01	50	41	0	339738624	48	6165
2026-01-30 18:39:32.54	277.30	14.37	-37.3	-38.5	28.3	3.02e+01	58	41	0	341835776	48	6492
2026-01-30 18:39:33.55	277.12	14.29	-37.1	-38.4	28.3	3.02e+01	60	41	0	343408640	48	6379
2026-01-30 18:39:34.56	276.95	14.21	-36.7	-37.9	28.7	3.02e+01	48	41	0	345505792	48	6032
2026-01-30 18:39:35.57	276.77	14.13	-36.9	-38.1	28.5	3.02e+01	60	41	0	347078656	48	6192
2026-01-30 18:39:36.58	276.60	14.06	-37.3	-38.6	28.2	3.02e+01	60	41	0	349175808	48	6509
2026-01-30 18:39:37.60	276.42	13.98	-37.4	-38.7	28.0	3.02e+01	59	41	0	351272960	48	6620
2026-01-30 18:39:38.61	276.25	13.90	-37.2	-38.5	28.1	3.02e+01	56	41	0	352845824	48	6455
2026-01-30 18:39:39.62	276.08	13.82	-36.4	-37.6	28.9	3.02e+01	59	41	0	354942976	48	5840
2026-01-30 18:39:40.63	275.91	13.74	-36.4	-37.6	29.0	3.02e+01	57	41	0	357040128	48	5811
2026-01-30 18:39:41.64	275.74	13.66	-36.7	-38.0	28.7	3.02e+01	60	41	0	358612992	48	6073
2026-01-30 18:39:42.65	275.57	13.59	-37.0	-38.3	28.4	3.02e+01	49	41	0	360710144	48	6318
2026-01-30 18:39:43.66	275.40	13.51	-36.9	-38.2	28.4	3.02e+01	56	41	0	362283008	48	6239
2026-01-30 18:39:44.67	275.24	13.43	-36.7	-37.9	28.6	3.02e+01	56	41	0	364380160	48	6042
2026-01-30 18:39:45.68	275.07	13.35	-36.8	-38.0	28.7	3.02e+01	57	41	0	366477312	48	6080
2026-01-30 18:39:46.69	274.90	13.27	-36.8	-38.0	28.5	3.02e+01	58	41	0	368050176	48	6114
2026-01-30 18:39:47.70	274.74	13.20	-37.5	-38.8	27.9	3.02e+01	44	41	0	370147328	48	6691
2026-01-30 18:39:48.71	274.58	13.12	-37.5	-38.9	27.7	3.02e+01	61	41	0	371720192	48	6727
2026-01-30 18:39:49.72	274.42	13.04	-37.0	-38.3	28.3	3.02e+01	53	41	0	373817344	48	6291
2026-01-30 18:39:50.73	274.26	12.96	-36.7	-37.9	28.5	3.02e+01	45	41	0	375914496	48	6051
2026-01-30 18:39:51.74	274.10	12.88	-36.8	-38.0	28.8	3.02e+01	60	41	0	377487360	48	6073
2026-01-30 18:39:52.75	273.94	12.81	-36.8	-38.1	28.6	3.02e+01	51	41	0	379584512	48	6142
2026-01-30 18:39:53.75	273.78	12.73	-37.0	-38.2	28.5	3.02e+01	57	41	0	381681664	48	6257
2026-01-30 18:39:54.76	273.62	12.65	-37.0	-38.3	28.4	3.02e+01	57	41	0	383254528	48	6294
2026-01-30 18:39:55.77	273.47	12.57	-37.1	-38.3	28.2	3.02e+01	57	41	0	385351680	48	6349
2026-01-30 18:39:56.78	273.31	12.50	-36.8	-38.0	28.4	3.02e+01	59	41	0	386924544	48	6115
2026-01-30 18:39:57.79	273.16	12.42	-36.6	-37.8	28.8	3.02e+01	61	41	0	389021696	48	5940
2026-01-30 18:39:58.80	273.00	12.34	-36.6	-37.8	28.7	3.02e+01	60	41	0	391118848	48	5975
2026-01-30 18:39:59.81	272.85	12.27	-36.7	-37.9	28.6	3.02e+01	58	41	0	392691712	48	6063
2026-01-30 18:40:00.82	272.70	12.19	-37.0	-38.2	28.4	3.02e+01	45	41	0	394788864	48	6256
2026-01-30 18:40:01.83	272.55	12.11	-37.2	-38.5	28.3	3.02e+01	57	41	0	396361728	48	6430
2026-01-30 18:40:02.84	272.40	12.04	-37.1	-38.4	28.3	3.02e+01	58	41	0	398458880	48	6386
2026-01-30 18:40:03.85	272.25	11.96	-37.2	-38.4	28.2	3.02e+01	45	41	0	400556032	48	6401
2026-01-30 18:40:04.86	272.10	11.88	-36.9	-38.1	28.5	3.02e+01	57	41	0	402128896	48	6169
2026-01-30 18:40:05.87	271.95	11.81	-36.7	-38.0	28.6	3.02e+01	57	41	0	404226048	48	6069
2026-01-30 18:40:06.88	271.80	11.73	-36.8	-38.1	28.5	3.02e+01	58	41	0	405798912	48	6137
2026-01-30 18:40:07.89	271.66	11.65	-36.8	-38.0	28.6	3.02e+01	60	41	0	407896064	48	6127
2026-01-30 18:40:08.90	271.51	11.58	-36.9	-38.2	28.5	3.02e+01	55	41	0	409993216	48	6216
2026-01-30 18:40:09.91	271.37	11.50	-37.2	-38.5	28.2	3.02e+01	56	41	0	411566080	48	6434
2026-01-30 18:40:10.92	271.23	11.42	-37.3	-38.6	28.1	3.02e+01	59	41	0	413663232	48	6558
2026-01-30 18:40:11.92	271.08	11.35	-37.1	-38.4	28.2	3.02e+01	51	41	0	415236096	48	6363
2026-01-30 18:40:12.93	270.94	11.27	-37.1	-38.4	28.3	3.02e+01	57	41	0	417333248	48	6360
2026-01-30 18:40:13.94	270.80	11.20	-37.3	-38.5	28.1	3.02e+01	60	41	0	419430400	48	6483
2026-01-30 18:40:14.95	270.66	11.12	-37.1	-38.4	28.2	3.02e+01	61	41	0	421003264	48	6381
2026-01-30 18:40:15.96	270.52	11.05	-37.2	-38.4	28.2	3.02e+01	60	41	0	423100416	48	6409
2026-01-30 18:40:16.97	270.38	10.97	-37.2	-38.5	28.2	3.02e+01	53	41	0	425197568	48	6424
2026-01-30 18:40:17.98	270.24	10.89	-37.1	-38.3	28.2	3.02e+01	59	41	0	426770432	48	6350
2026-01-30 18:40:18.99	270.11	10.82	-37.0	-38.3	28.3	3.02e+01	59	41	0	428867584	48	6293
2026-01-30 18:40:20.00	269.97	10.74	-37.0	-38.3	28.3	3.02e+01	47	41	0	430440448	48	6315
2026-01-30 18:40:21.01	269.84	10.67	-37.1	-38.4	28.2	3.02e+01	60	41	0	432537600	48	6374
2026-01-30 18:40:22.02	269.70	10.59	-37.1	-38.4	28.2	3.02e+01	57	41	0	434634752	48	6396
2026-01-30 18:40:23.03	269.57	10.52	-37.2	-38.5	28.2	3.02e+01	60	41	0	436207616	48	6429
2026-01-30 18:40:24.04	269.43	10.44	-37.4	-38.7	27.9	3.02e+01	61	41	0	438304768	48	6628
2026-01-30 18:40:25.05	269.30	10.37	-37.4	-38.7	27.9	3.02e+01	50	41	0	439877632	48	6635
2026-01-30 18:40:26.06	269.17	10.29	-37.4	-38.7	28.0	3.02e+01	59	41	0	441974784	48	6578
2026-01-30 18:40:27.07	269.04	10.22	-37.5	-38.8	27.8	3.02e+01	58	41	0	444071936	48	6690
2026-01-30 18:40:28.08	268.91	10.15	-37.4	-38.7	27.9	3.02e+01	50	41	0	445644800	48	6575
2026-01-30 18:40:29.09	268.78	10.07	-37.3	-38.6	27.9	3.02e+01	57	41	0	447741952	48	6542
2026-01-30 18:40:30.10	268.65	10.00	-37.2	-38.5	28.1	3.02e+01	57	41	0	449839104	48	6460
2026-01-30 18:40:31.11	268.52	9.92	-37.2	-38.5	28.0	3.02e+01	60	41	0	451411968	48	6459
2026-01-30 18:40:32.12	268.39	9.85	-37.2	-38.4	28.2	3.02e+01	59	41	0	453509120	48	6401
2026-01-30 18:40:33.13	268.27	9.78	-37.2	-38.5	28.1	3.02e+01	53	41	0	455081984	48	6442
2026-01-30 18:40:34.14	268.14	9.70	-37.3	-38.6	28.0	3.02e+01	60	41	0	457179136	48	6529
2026-01-30 18:40:35.15	268.01	9.63	-37.3	-38.6	28.0	3.02e+01	58	41	0	459276288	48	6559
2026-01-30 18:40:36.16	267.89	9.56	-37.5	-38.8	27.8	3.02e+01	56	41	0	460849152	48	6679
2026-01-30 18:40:37.17	267.77	9.48	-37.5	-38.8	27.8	3.02e+01	62	41	0	462946304	48	6660
2026-01-30 18:40:38.18	267.64	9.41	-37.5	-38.7	27.9	3.02e+01	45	41	0	464519168	48	6647
2026-01-30 18:40:39.19	267.52	9.34	-37.6	-38.9	27.7	3.02e+01	56	41	0	466616320	48	6792
2026-01-30 18:40:40.20	267.40	9.26	-37.6	-38.9	27.7	3.02e+01	59	41	0	468713472	48	6759
2026-01-30 18:40:41.21	267.28	9.19	-37.6	-38.9	27.7	3.02e+01	45	41	0	470286336	48	6778
2026-01-30 18:40:42.22	267.16	9.12	-37.6	-38.9	27.6	3.02e+01	57	41	0	472383488	48	6801
2026-01-30 18:40:43.23	267.04	9.04	-37.5	-38.8	27.7	3.02e+01	57	41	0	473956352	48	6717
2026-01-30 18:40:44.24	266.92	8.97	-37.5	-38.8	27.7	3.02e+01	60	41	0	476053504	48	6705
2026-01-30 18:40:45.25	266.80	8.90	-37.5	-38.8	27.8	3.02e+01	60	41	0	478150656	48	6674
2026-01-30 18:40:46.26	266.68	8.83	-37.5	-38.8	27.7	3.02e+01	56	41	0	479723520	48	6660
2026-01-30 18:40:47.27	266.56	8.76	-37.5	-38.8	27.7	3.02e+01	58	41	0	481820672	48	6675
2026-01-30 18:40:48.28	266.45	8.68	-37.5	-38.8	27.7	3.02e+01	58	41	0	483393536	48	6683
2026-01-30 18:40:49.29	266.33	8.61	-37.5	-38.8	27.7	3.02e+01	44	41	0	485490688	48	6721
2026-01-30 18:40:50.30	266.21	8.54	-37.5	-38.8	27.6	3.02e+01	58	41	0	487587840	48	6703
2026-01-30 18:40:51.31	266.10	8.47	-37.5	-38.8	27.7	3.02e+01	60	41	0	489160704	48	6708
2026-01-30 18:40:52.32	265.99	8.40	-37.7	-39.0	27.5	3.02e+01	58	41	0	491257856	48	6866
2026-01-30 18:40:53.33	265.87	8.33	-37.8	-39.1	27.5	3.02e+01	61	41	0	493355008	48	6898
2026-01-30 18:40:54.34	265.76	8.25	-37.8	-39.1	27.4	3.02e+01	47	41	0	494927872	48	6904
2026-01-30 18:40:55.35	265.65	8.18	-38.0	-39.3	27.3	3.02e+01	59	41	0	497025024	50	6316
2026-01-30 18:40:56.36	265.53	8.11	-37.8	-39.1	27.4	3.02e+01	60	41	0	498597888	50	6189
2026-01-30 18:40:57.37	265.42	8.04	-37.7	-39.0	27.5	3.02e+01	47	41	0	500695040	50	6119
2026-01-30 18:40:58.38	265.31	7.97	-37.8	-39.1	27.4	3.02e+01	60	41	0	502792192	50	6192
2026-01-30 18:40:59.39	265.20	7.90	-37.7	-39.0	27.6	3.02e+01	58	41	0	504365056	50	6067
2026-01-30 18:41:00.40	265.09	7.83	-37.7	-39.0	27.5	3.02e+01	57	41	0	506462208	50	6107
2026-01-30 18:41:01.41	264.98	7.76	-37.7	-39.0	27.5	3.02e+01	59	41	0	508035072	50	6116
2026-01-30 18:41:02.42	264.88	7.69	-37.8	-39.1	27.4	3.02e+01	50	41	0	510132224	50	6172
2026-01-30 18:41:03.43	264.77	7.62	-37.9	-39.2	27.3	3.02e+01	58	41	0	512229376	50	6220
2026-01-30 18:41:04.44	264.66	7.55	-37.9	-39.3	27.3	3.02e+01	59	41	0	513802240	50	6279
2026-01-30 18:41:05.45	264.56	7.48	-38.0	-39.3	27.2	3.02e+01	54	41	0	515899392	50	6328
2026-01-30 18:41:06.46	264.45	7.41	-38.1	-39.4	27.1	3.02e+01	62	41	0	517996544	50	6402
2026-01-30 18:41:07.47	264.34	7.34	-38.3	-39.7	26.8	3.02e+01	53	41	0	519569408	50	6596
2026-01-30 18:41:08.48	264.24	7.27	-38.0	-39.4	27.1	3.02e+01	59	41	0	521666560	50	6382
2026-01-30 18:41:09.49	264.14	7.20	-38.1	-39.5	27.0	3.02e+01	52	41	0	523239424	50	6426
2026-01-30 18:41:10.50	264.03	7.13	-38.1	-39.5	27.2	3.02e+01	47	41	0	525336576	50	6427
2026-01-30 18:41:11.51	263.93	7.06	-38.0	-39.3	27.0	3.02e+01	62	41	0	527433728	50	6343
2026-01-30 18:41:12.52	263.83	6.99	-38.0	-39.4	27.0	3.02e+01	58	41	0	529006592	50	6358
2026-01-30 18:41:13.53	263.72	6.92	-37.9	-39.2	27.2	3.02e+01	59	41	0	531103744	50	6237
2026-01-30 18:41:14.54	263.62	6.86	-38.2	-39.5	26.9	3.02e+01	61	41	0	532676608	50	6459
2026-01-30 18:41:15.55	263.52	6.79	-38.0	-39.3	27.2	3.02e+01	49	41	0	534773760	50	6316
2026-01-30 18:41:16.56	263.42	6.72	-38.1	-39.5	27.0	3.02e+01	61	41	0	536870912	50	6430
2026-01-30 18:41:17.57	263.32	6.65	-38.0	-39.3	27.0	3.02e+01	61	41	0	538443776	50	6334
2026-01-30 18:41:18.58	263.22	6.58	-38.2	-39.5	26.9	3.02e+01	48	41	0	540540928	50	6485
2026-01-30 18:41:19.59	263.12	6.51	-38.5	-39.9	26.5	3.02e+01	59	41	0	542113792	50	6762
2026-01-30 18:41:20.60	263.02	6.45	-38.3	-39.7	26.7	3.02e+01	59	41	0	544210944	50	6610
2026-01-30 18:41:21.61	262.93	6.38	-38.5	-39.9	26.5	3.02e+01	56	41	0	546308096	50	6796
2026-01-30 18:41:22.62	262.83	6.31	-38.5	-39.9	26.5	3.02e+01	59	41	0	547880960	50	6784
2026-01-30 18:41:23.63	262.73	6.24	-38.2	-39.6	26.8	3.02e+01	54	41	0	549978112	50	6516
2026-01-30 18:41:24.64	262.64	6.18	-38.3	-39.7	26.7	3.02e+01	55	41	0	551550976	50	6592
2026-01-30 18:41:25.65	262.54	6.11	-38.2	-39.6	26.8	3.02e+01	61	41	0	553648128	50	6526
2026-01-30 18:41:26.66	262.45	6.04	-38.2	-39.6	26.8	3.02e+01	49	41	0	555745280	50	6516
2026-01-30 18:41:27.67	262.35	5.97	-38.3	-39.6	26.8	3.02e+01	58	41	0	557318144	50	6572
2026-01-30 18:41:28.68	262.26	5.91	-38.3	-39.7	26.6	3.02e+01	57	41	0	559415296	50	6624
2026-01-30 18:41:29.69	262.16	5.84	-38.7	-40.1	26.2	3.02e+01	61	41	0	561512448	50	6915
2026-01-30 18:41:30.70	262.07	5.77	-38.6	-40.0	26.3	3.02e+01	59	41	0	563085312	50	6848
2026-01-30 18:41:31.71	261.98	5.71	-38.5	-39.9	26.4	3.02e+01	44	41	0	565182464	50	6774
2026-01-30 18:41:32.72	261.88	5.64	-38.7	-40.1	26.3	3.02e+01	62	41	0	566755328	50	6922
2026-01-30 18:41:33.72	261.79	5.57	-38.9	-40.4	26.0	3.02e+01	59	41	0	568852480	52	6362
2026-01-30 18:41:34.73	261.70	5.51	-38.4	-39.8	26.4	3.02e+01	47	41	0	570949632	52	5974
2026-01-30 18:41:35.74	261.61	5.44	-38.9	-40.3	26.0	3.02e+01	61	41	0	572522496	52	6293
2026-01-30 18:41:36.75	261.52	5.38	-38.8	-40.3	26.1	3.02e+01	51	41	0	574619648	52	6290
2026-01-30 18:41:37.76	261.43	5.31	-39.1	-40.6	25.8	3.02e+01	61	41	0	576192512	52	6530
2026-01-30 18:41:38.77	261.34	5.24	-39.1	-40.5	25.8	3.02e+01	59	41	0	578289664	52	6458
2026-01-30 18:41:39.78	261.25	5.18	-39.0	-40.5	25.7	3.02e+01	57	41	0	580386816	52	6437
2026-01-30 18:41:40.79	261.16	5.11	-38.6	-40.0	26.3	3.02e+01	57	41	0	581959680	52	6127
2026-01-30 18:41:41.80	261.07	5.05	-38.9	-40.4	25.9	3.02e+01	62	41	0	584056832	52	6362
2026-01-30 18:41:42.81	260.99	4.98	-39.1	-40.6	25.7	3.02e+01	59	41	0	586153984	52	6506
2026-01-30 18:41:43.82	260.90	4.92	-38.9	-40.4	26.0	3.02e+01	62	41	0	587726848	52	6377
2026-01-30 18:41:44.83	260.81	4.85	-39.1	-40.6	25.8	3.02e+01	44	41	0	589824000	52	6534
2026-01-30 18:41:45.84	260.72	4.79	-39.1	-40.5	25.9	3.02e+01	58	41	0	591396864	52	6473
2026-01-30 18:41:46.85	260.64	4.72	-39.2	-40.7	25.6	3.02e+01	63	41	0	593494016	52	6604
2026-01-30 18:41:47.86	260.55	4.66	-39.1	-40.6	25.6	3.02e+01	46	41	0	595591168	52	6541
2026-01-30 18:41:48.87	260.47	4.59	-39.3	-40.9	25.4	3.02e+01	60	41	0	597164032	52	6730
2026-01-30 18:41:49.88	260.38	4.53	-39.3	-40.9	25.3	3.02e+01	56	41	0	599261184	52	6730
2026-01-30 18:41:50.89	260.30	4.46	-39.2	-40.7	25.5	3.02e+01	52	41	0	600834048	52	6582
2026-01-30 18:41:51.90	260.21	4.40	-38.9	-40.3	25.9	3.02e+01	60	41	0	602931200	52	6312
2026-01-30 18:41:52.91	260.13	4.33	-38.9	-40.4	25.8	3.02e+01	50	41	0	605028352	52	6386
2026-01-30 18:41:53.92	260.05	4.27	-38.9	-40.4	25.8	3.02e+01	58	41	0	606601216	52	6384
2026-01-30 18:41:54.93	259.96	4.21	-39.1	-40.6	25.6	3.02e+01	57	41	0	608698368	52	6502
2026-01-30 18:41:55.94	259.88	4.14	-39.1	-40.6	25.7	3.02e+01	49	41	0	610271232	52	6501
2026-01-30 18:41:56.95	259.80	4.08	-39.1	-40.5	25.5	3.02e+01	59	41	0	612368384	52	6494
2026-01-30 18:41:57.96	259.72	4.02	-39.2	-40.7	25.5	3.02e+01	59	41	0	614465536	52	6578
2026-01-30 18:41:58.97	259.64	3.95	-39.0	-40.5	25.6	3.02e+01	58	41	0	616038400	52	6452
2026-01-30 18:41:59.98	259.56	3.89	-39.2	-40.6	25.4	3.02e+01	59	41	0	618135552	52	6570
2026-01-30 18:42:00.99	259.48	3.83	-39.0	-40.5	25.6	3.02e+01	52	41	0	619708416	52	6489
2026-01-30 18:42:02.00	259.40	3.76	-39.4	-41.0	25.1	3.02e+01	57	41	0	621805568	52	6824
2026-01-30 18:42:03.01	259.32	3.70	-39.6	-41.2	24.9	3.02e+01	60	41	0	623902720	52	6971
2026-01-30 18:42:04.02	259.24	3.64	-39.2	-40.7	25.3	3.02e+01	46	41	0	625475584	52	6625
2026-01-30 18:42:05.03	259.16	3.57	-39.0	-40.5	25.3	3.02e+01	59	41	0	627572736	52	6477
2026-01-30 18:42:06.04	259.08	3.51	-39.4	-41.0	25.2	3.02e+01	61	41	0	629145600	52	6841
2026-01-30 18:42:07.05	259.00	3.45	-39.6	-41.2	24.7	3.02e+01	59	41	0	631242752	52	7006
2026-01-30 18:42:08.06	258.93	3.39	-39.6	-41.1	24.9	3.02e+01	59	41	0	633339904	52	6961
2026-01-30 18:42:09.07	258.85	3.32	-39.8	-41.4	24.5	3.02e+01	55	41	0	634912768	54	6377
2026-01-30 18:42:10.08	258.77	3.26	-39.2	-40.8	25.2	3.02e+01	51	41	0	637009920	54	5928
2026-01-30 18:42:11.09	258.69	3.20	-39.4	-41.0	24.9	3.02e+01	57	41	0	639107072	54	6094
2026-01-30 18:42:12.10	258.62	3.14	-39.1	-40.6	25.2	3.02e+01	50	41	0	640679936	52	6526
2026-01-30 18:42:13.11	258.54	3.08	-39.3	-40.8	25.0	3.02e+01	60	41	0	642777088	52	6675
2026-01-30 18:42:14.12	258.47	3.01	-40.2	-41.8	23.8	3.02e+01	58	41	0	644349952	52	7528
2026-01-30 18:42:15.13	258.39	2.95	-49.3	-66.9	3.5	3.02e+01	0	41	104	645398528	60	84994
2026-01-30 18:42:16.14	258.32	2.89	-49.7	-67.4	3.5	3.02e+01	0	41	104	645398528	60	90531
2026-01-30 18:42:17.15	258.24	2.83	-49.9	-67.7	3.5	3.02e+01	0	41	104	645398528	60	92965
2026-01-30 18:42:18.16	258.17	2.77	-50.0	-67.8	3.5	3.02e+01	0	41	104	645398528	60	94859
2026-01-30 18:42:19.17	258.10	2.71	-50.0	-67.8	3.5	3.02e+01	0	41	104	645398528	60	94886
2026-01-30 18:42:20.19	258.02	2.64	-50.1	-67.9	3.5	3.02e+01	0	41	104	645398528	60	95248
2026-01-30 18:42:21.19	257.95	2.58	-50.1	-67.8	3.5	3.02e+01	0	41	104	645398528	60	94712
2026-01-30 18:42:22.20	257.88	2.52	-50.2	-68.0	3.5	3.02e+01	0	41	104	645398528	60	96286
2026-01-30 18:42:23.21	257.80	2.46	-50.1	-67.9	3.5	3.02e+01	0	41	104	645398528	60	95917
2026-01-30 18:42:24.23	257.73	2.40	-50.2	-68.0	3.5	3.02e+01	0	41	104	645398528	60	96761
2026-01-30 18:42:25.24	257.66	2.34	-50.1	-68.0	3.5	3.02e+01	0	41	104	645398528	60	96606
2026-01-30 18:42:26.25	257.59	2.28	-50.2	-68.0	3.5	3.02e+01	0	41	104	645398528	60	96306
2026-01-30 18:42:27.26	257.52	2.22	-50.1	-68.0	3.5	3.02e+01	0	41	104	645398528	60	96959
2026-01-30 18:42:28.27	257.45	2.16	-50.1	-68.0	3.5	3.02e+01	0	41	104	645398528	60	96179
2026-01-30 18:42:29.28	257.38	2.10	-49.9	-68.0	3.5	3.02e+01	0	41	104	645398528	60	96543
2026-01-30 18:42:30.29	257.31	2.04	-49.8	-68.0	3.5	3.02e+01	0	41	104	645398528	60	96489
2026-01-30 18:42:31.30	257.24	1.98	-49.7	-67.9	3.5	3.02e+01	0	41	104	645398528	60	95723
2026-01-30 18:42:32.31	257.17	1.92	-50.1	-67.9	3.5	3.02e+01	0	41	104	645398528	60	95508
2026-01-30 18:42:33.32	257.10	1.86	-49.7	-67.9	3.5	3.02e+01	0	41	104	645398528	60	95457
