passes_logs/2026/01/30/R4.6S_Anadyr/R4.6S_Anadyr__20260130_152414_NOAA_20_JPSS-1_rec.log

#Pass ID: 20260130_152414_NOAA 20 (JPSS-1)
#Satellite: NOAA 20 (JPSS-1)
#Configuration: NOAA 20
#almurnet v.1.7.20251203
#Start time: 2026-01-30 15:24:16

#Version: 2.2.20231116
#Station: R4.6S_Anadyr
#Location: 177.4865 lon 64.73178 lat
#TLE: 1 43013U 17073A   26029.42702672  .00000137  00000+0  85918-4 0  9993
#TLE: 2 43013  98.7646 330.2153 0000804  19.9045 340.2162 14.19525092424781

#Time	Az	El	Level	Level2	SNR	BER	BlckErr	Temp	State	Recorded	gain1	gain2
2026-01-30 15:24:16.70	22.17	0.14	-49.6	-64.5	3.5	1.51e+00	0	39	0	0	60	60524
2026-01-30 15:24:17.71	22.16	0.20	-49.5	-64.7	3.6	1.51e+00	0	40	104	0	60	62420
2026-01-30 15:24:18.72	22.14	0.26	-49.6	-64.7	3.6	1.51e+00	0	40	104	0	60	62310
2026-01-30 15:24:19.73	22.13	0.32	-49.6	-64.8	3.5	1.51e+00	0	40	104	0	60	63035
2026-01-30 15:24:20.74	22.11	0.38	-49.5	-64.8	3.6	1.51e+00	0	40	104	0	60	62722
2026-01-30 15:24:21.75	22.10	0.44	-49.6	-64.8	3.6	1.51e+00	0	40	104	0	60	62700
2026-01-30 15:24:22.76	22.08	0.50	-49.6	-64.8	3.6	1.51e+00	0	40	104	0	60	62758
2026-01-30 15:24:23.77	22.07	0.56	-49.6	-64.8	3.6	1.51e+00	0	40	104	0	60	62977
2026-01-30 15:24:24.78	22.06	0.63	-49.6	-64.8	3.6	1.51e+00	0	40	104	0	60	62967
2026-01-30 15:24:25.79	22.04	0.69	-49.7	-64.9	3.6	1.51e+00	0	40	104	0	60	63269
2026-01-30 15:24:26.80	22.03	0.75	-49.6	-64.8	3.6	1.51e+00	0	40	104	0	60	63102
2026-01-30 15:24:27.81	22.01	0.81	-49.6	-64.8	3.5	1.51e+00	0	40	104	0	60	63174
2026-01-30 15:24:28.82	21.99	0.87	-49.6	-64.8	3.6	1.51e+00	0	40	104	0	60	63129
2026-01-30 15:24:29.83	21.98	0.93	-49.6	-64.8	3.6	1.51e+00	0	40	104	0	60	62991
2026-01-30 15:24:30.84	21.96	0.99	-49.5	-64.8	3.6	1.51e+00	0	40	104	0	60	62495
2026-01-30 15:24:31.85	21.95	1.06	-49.5	-64.7	3.6	1.51e+00	0	40	104	0	60	61981
2026-01-30 15:24:32.86	21.93	1.12	-49.4	-64.6	3.6	1.51e+00	0	40	104	0	60	61488
2026-01-30 15:24:33.87	21.92	1.18	-49.3	-64.6	3.6	1.51e+00	0	40	104	0	60	61109
2026-01-30 15:24:34.88	21.90	1.24	-49.2	-64.4	3.6	1.51e+00	0	40	104	0	60	60295
2026-01-30 15:24:35.89	21.89	1.30	-49.1	-64.3	3.6	1.51e+00	0	40	104	0	60	59590
2026-01-30 15:24:36.90	21.87	1.37	-49.0	-64.2	3.6	1.51e+00	0	40	104	0	60	58900
2026-01-30 15:24:37.91	21.85	1.43	-48.9	-64.1	3.6	1.51e+00	0	40	104	0	60	57869
2026-01-30 15:24:38.92	21.84	1.49	-48.7	-63.9	3.6	1.51e+00	0	40	104	0	60	56847
2026-01-30 15:24:39.93	21.82	1.56	-48.5	-63.7	3.6	1.51e+00	0	40	104	0	60	55468
2026-01-30 15:24:40.94	21.81	1.62	-48.2	-63.3	3.6	1.51e+00	0	40	104	0	60	52566
2026-01-30 15:24:41.94	21.79	1.68	-48.2	-63.2	3.6	1.51e+00	0	40	104	0	60	52152
2026-01-30 15:24:42.96	21.77	1.74	-48.2	-63.1	3.6	1.51e+00	0	40	104	0	60	51420
2026-01-30 15:24:43.96	21.76	1.81	-48.2	-63.2	3.6	1.51e+00	0	40	104	0	60	52213
2026-01-30 15:24:44.98	21.74	1.87	-48.2	-63.1	3.5	1.51e+00	0	40	104	0	60	51366
2026-01-30 15:24:45.98	21.72	1.94	-48.2	-63.3	3.6	1.51e+00	0	40	104	0	60	52685
2026-01-30 15:24:46.99	21.71	2.00	-48.2	-63.3	3.6	1.51e+00	0	40	104	0	60	52566
2026-01-30 15:24:48.00	21.69	2.06	-48.2	-63.4	3.6	1.51e+00	0	40	104	0	60	53344
2026-01-30 15:24:49.01	21.67	2.13	-48.2	-63.4	3.6	1.51e+00	0	40	104	0	60	53294
2026-01-30 15:24:50.02	21.66	2.19	-48.2	-63.4	3.6	1.51e+00	0	40	104	0	60	53265
2026-01-30 15:24:51.03	21.64	2.26	-48.2	-63.3	3.6	1.51e+00	0	40	104	0	60	53052
2026-01-30 15:24:52.04	21.62	2.32	-48.2	-63.4	3.6	1.51e+00	0	40	104	0	60	53202
2026-01-30 15:24:53.05	21.60	2.38	-48.2	-63.4	3.6	1.51e+00	0	40	104	0	60	53201
2026-01-30 15:24:54.06	21.59	2.45	-48.2	-63.2	3.6	1.51e+00	0	40	104	0	60	52394
2026-01-30 15:24:55.07	21.57	2.51	-48.2	-63.0	3.6	1.51e+00	0	40	104	0	60	50940
2026-01-30 15:24:56.08	21.55	2.58	-48.2	-62.5	3.6	1.51e+00	0	40	104	0	60	48041
2026-01-30 15:24:57.09	21.53	2.65	-48.1	-62.1	3.6	1.51e+00	0	40	104	0	60	45892
2026-01-30 15:24:58.10	21.52	2.71	-48.1	-61.6	3.6	1.51e+00	0	40	104	0	60	43332
2026-01-30 15:24:59.12	21.50	2.78	-48.1	-61.3	3.6	1.51e+00	0	40	104	0	60	42138
2026-01-30 15:25:00.13	21.48	2.84	-48.1	-61.2	3.7	1.50e+00	0	40	104	0	60	41723
2026-01-30 15:25:01.14	21.46	2.91	-48.1	-62.0	3.6	1.51e+00	0	40	104	0	60	45461
2026-01-30 15:25:02.15	21.44	2.97	-48.2	-62.6	3.6	1.51e+00	0	40	104	0	60	48570
2026-01-30 15:25:03.15	21.43	3.04	-48.1	-62.5	3.6	1.51e+00	0	40	104	0	60	47957
2026-01-30 15:25:04.17	21.41	3.11	-48.0	-60.2	3.9	1.51e+00	0	40	104	0	60	37191
2026-01-30 15:25:05.18	21.39	3.17	-47.8	-56.7	5.0	8.60e-01	92	40	0	1048576	60	24843
2026-01-30 15:25:06.19	21.37	3.24	-47.3	-53.8	7.8	2.30e-01	9	41	0	2097152	60	17607
2026-01-30 15:25:07.20	21.35	3.31	-46.7	-51.8	10.3	3.95e-02	4	40	0	4194304	60	14112
2026-01-30 15:25:08.21	21.33	3.37	-46.1	-50.3	12.0	1.09e-03	8	40	0	6291456	60	11895
2026-01-30 15:25:09.22	21.31	3.44	-45.5	-49.0	13.4	6.17e-05	74	40	0	8388608	60	10169
2026-01-30 15:25:10.23	21.29	3.51	-44.8	-47.7	14.8	3.00e-06	92	40	0	10485760	60	8754
2026-01-30 15:25:11.24	21.27	3.58	-44.7	-47.5	14.9	0.00e+00	79	40	0	11534336	60	8582
2026-01-30 15:25:12.25	21.26	3.64	-44.2	-46.7	15.8	0.00e+00	92	40	0	13631488	60	7802
2026-01-30 15:25:13.26	21.24	3.71	-44.4	-47.1	15.4	0.00e+00	0	40	0	15728640	60	8149
2026-01-30 15:25:14.26	21.22	3.78	-44.4	-47.1	15.5	0.00e+00	78	40	0	17825792	60	8152
2026-01-30 15:25:15.27	21.20	3.85	-47.5	-54.3	7.7	5.34e-03	0	41	0	19922944	60	18717
2026-01-30 15:25:16.28	21.18	3.92	-47.7	-55.1	7.0	1.26e-01	2	40	0	20971520	60	20501
2026-01-30 15:25:17.29	21.16	3.98	-48.0	-62.1	3.6	9.55e-01	0	41	104	23068672	60	46104
2026-01-30 15:25:18.30	21.14	4.05	-41.6	-43.1	19.3	7.00e-07	0	40	0	23068672	56	6531
2026-01-30 15:25:19.31	21.12	4.12	-48.1	-62.3	3.6	5.35e-01	0	40	104	24117248	60	47327
2026-01-30 15:25:20.32	21.10	4.19	-41.5	-43.0	18.4	1.49e+00	11	40	104	24117248	56	6451
2026-01-30 15:25:21.33	21.08	4.26	-40.9	-42.2	20.4	0.00e+00	9	40	0	24117248	56	5851
2026-01-30 15:25:22.34	21.06	4.33	-41.2	-42.6	20.0	0.00e+00	0	40	0	26214400	56	6120
2026-01-30 15:25:23.35	21.04	4.40	-40.8	-42.1	20.3	0.00e+00	0	40	0	28311552	56	5824
2026-01-30 15:25:24.36	21.02	4.47	-41.2	-42.6	20.0	0.00e+00	0	41	0	30408704	56	6108
2026-01-30 15:25:25.37	21.00	4.54	-40.9	-42.3	20.3	0.00e+00	72	40	0	32505856	56	5907
2026-01-30 15:25:26.38	20.97	4.61	-40.6	-41.9	20.5	0.00e+00	92	41	0	33554432	54	6374
2026-01-30 15:25:27.39	20.95	4.68	-40.8	-42.1	20.4	0.00e+00	8	41	0	35651584	54	6482
2026-01-30 15:25:28.40	20.93	4.75	-40.7	-42.0	20.5	0.00e+00	91	41	0	37748736	54	6391
2026-01-30 15:25:29.41	20.91	4.82	-40.8	-42.1	20.4	0.00e+00	73	40	0	39845888	54	6486
2026-01-30 15:25:30.42	20.89	4.89	-40.4	-41.6	20.8	0.00e+00	0	40	0	41943040	54	6165
2026-01-30 15:25:31.42	20.87	4.96	-40.4	-41.7	20.9	0.00e+00	0	41	0	42991616	54	6174
2026-01-30 15:25:32.43	20.85	5.03	-40.5	-41.7	20.9	0.00e+00	0	41	0	45088768	54	6201
2026-01-30 15:25:33.44	20.83	5.10	-40.3	-41.5	20.9	0.00e+00	92	41	0	47185920	54	6072
2026-01-30 15:25:34.45	20.80	5.17	-40.5	-41.7	20.8	0.00e+00	0	40	0	49283072	54	6199
2026-01-30 15:25:35.45	20.78	5.24	-40.3	-41.5	21.0	0.00e+00	92	41	0	51380224	54	6103
2026-01-30 15:25:36.46	20.76	5.32	-40.1	-41.3	21.3	0.00e+00	0	41	0	52428800	54	5920
2026-01-30 15:25:37.47	20.74	5.39	-40.3	-41.5	21.0	0.00e+00	38	41	0	54525952	54	6061
2026-01-30 15:25:38.48	20.71	5.46	-40.3	-41.5	21.1	0.00e+00	2	41	0	56623104	54	6050
2026-01-30 15:25:39.49	20.69	5.53	-40.2	-41.3	21.2	0.00e+00	0	41	0	58720256	54	5960
2026-01-30 15:25:40.50	20.67	5.61	-40.3	-41.5	21.1	0.00e+00	1	41	0	60817408	54	6040
2026-01-30 15:25:41.51	20.65	5.68	-40.2	-41.4	21.2	0.00e+00	2	41	0	61865984	54	5965
2026-01-30 15:25:42.52	20.62	5.75	-40.2	-41.3	21.2	0.00e+00	92	41	0	63963136	54	5959
2026-01-30 15:25:43.53	20.60	5.82	-40.3	-41.5	21.2	0.00e+00	2	41	0	66060288	54	6042
2026-01-30 15:25:44.54	20.58	5.90	-40.1	-41.3	21.3	0.00e+00	80	41	0	68157440	54	5924
2026-01-30 15:25:45.55	20.55	5.97	-39.9	-41.1	21.5	0.00e+00	2	41	0	70254592	54	5775
2026-01-30 15:25:46.56	20.53	6.04	-39.8	-40.9	21.7	0.00e+00	0	41	0	71303168	54	5688
2026-01-30 15:25:47.57	20.51	6.12	-39.9	-41.1	21.6	0.00e+00	0	40	0	73400320	54	5762
2026-01-30 15:25:48.58	20.48	6.19	-40.0	-41.1	21.5	0.00e+00	79	40	0	75497472	54	5826
2026-01-30 15:25:49.59	20.46	6.27	-39.8	-40.9	21.7	0.00e+00	92	41	0	77594624	52	6352
2026-01-30 15:25:50.59	20.44	6.34	-40.0	-41.1	21.6	0.00e+00	74	41	0	79691776	52	6494
2026-01-30 15:25:51.60	20.41	6.42	-39.9	-41.1	21.7	0.00e+00	92	41	0	80740352	52	6472
2026-01-30 15:25:52.61	20.39	6.49	-39.9	-41.0	21.6	0.00e+00	8	41	0	82837504	52	6459
2026-01-30 15:25:53.62	20.36	6.57	-39.7	-40.8	21.9	0.00e+00	5	41	0	84934656	52	6274
2026-01-30 15:25:54.63	20.34	6.64	-39.8	-40.9	21.8	0.00e+00	0	41	0	87031808	52	6321
2026-01-30 15:25:55.64	20.31	6.72	-39.8	-40.9	21.9	0.00e+00	0	41	0	89128960	52	6322
2026-01-30 15:25:56.65	20.29	6.79	-39.8	-40.9	21.8	0.00e+00	87	40	0	90177536	52	6321
2026-01-30 15:25:57.66	20.26	6.87	-39.6	-40.7	22.1	0.00e+00	0	41	0	92274688	52	6186
2026-01-30 15:25:58.67	20.24	6.95	-39.6	-40.7	22.0	0.00e+00	92	41	0	94371840	52	6185
2026-01-30 15:25:59.68	20.21	7.02	-39.6	-40.7	22.0	0.00e+00	6	41	0	96468992	52	6214
2026-01-30 15:26:00.68	20.19	7.10	-39.4	-40.4	22.3	0.00e+00	6	41	0	98566144	52	5997
2026-01-30 15:26:01.69	20.16	7.18	-39.5	-40.6	22.2	0.00e+00	0	41	0	100663296	52	6104
2026-01-30 15:26:02.70	20.14	7.25	-39.4	-40.5	22.2	0.00e+00	0	41	0	101711872	52	6059
2026-01-30 15:26:03.71	20.11	7.33	-39.5	-40.5	22.3	0.00e+00	0	41	0	103809024	52	6058
2026-01-30 15:26:04.72	20.08	7.41	-39.5	-40.5	22.2	0.00e+00	9	41	0	105906176	52	6061
2026-01-30 15:26:05.73	20.06	7.49	-39.3	-40.4	22.3	0.00e+00	92	41	0	108003328	52	5980
2026-01-30 15:26:06.74	20.03	7.56	-39.3	-40.3	22.4	0.00e+00	6	41	0	110100480	52	5954
2026-01-30 15:26:07.75	20.00	7.64	-39.3	-40.3	22.4	0.00e+00	92	41	0	111149056	52	5948
2026-01-30 15:26:08.76	19.98	7.72	-39.4	-40.5	22.2	0.00e+00	9	41	0	113246208	52	6051
2026-01-30 15:26:09.77	19.95	7.80	-39.1	-40.1	22.6	0.00e+00	6	41	0	115343360	52	5805
2026-01-30 15:26:10.78	19.92	7.88	-39.2	-40.2	22.6	0.00e+00	80	41	0	117440512	52	5860
2026-01-30 15:26:11.79	19.90	7.96	-39.2	-40.2	22.6	0.00e+00	1	41	0	119537664	52	5848
2026-01-30 15:26:12.80	19.87	8.04	-39.1	-40.1	22.6	0.00e+00	92	41	0	120586240	52	5800
2026-01-30 15:26:13.81	19.84	8.12	-39.3	-40.3	22.5	0.00e+00	5	41	0	122683392	52	5921
2026-01-30 15:26:14.82	19.81	8.20	-39.3	-40.3	22.5	0.00e+00	91	41	0	124780544	52	5905
2026-01-30 15:26:15.83	19.78	8.28	-39.1	-40.1	22.6	0.00e+00	0	41	0	126877696	52	5799
2026-01-30 15:26:16.84	19.76	8.36	-39.2	-40.2	22.6	0.00e+00	0	41	0	128974848	52	5829
2026-01-30 15:26:17.85	19.73	8.44	-39.1	-40.1	22.6	0.00e+00	0	41	0	130023424	52	5805
2026-01-30 15:26:18.85	19.70	8.52	-39.0	-40.0	22.8	0.00e+00	0	41	0	132120576	52	5742
2026-01-30 15:26:19.86	19.67	8.60	-39.2	-40.1	22.6	0.00e+00	69	41	0	134217728	52	5828
2026-01-30 15:26:20.87	19.64	8.68	-39.3	-40.3	22.5	0.00e+00	0	41	0	136314880	52	5955
2026-01-30 15:26:21.88	19.61	8.76	-38.9	-39.9	22.8	0.00e+00	92	41	0	138412032	52	5663
2026-01-30 15:26:22.89	19.58	8.85	-38.9	-39.9	22.9	0.00e+00	6	41	0	139460608	52	5655
2026-01-30 15:26:23.90	19.55	8.93	-39.0	-39.9	23.0	0.00e+00	92	41	0	141557760	52	5690
2026-01-30 15:26:24.91	19.52	9.01	-38.9	-39.9	23.0	0.00e+00	0	41	0	143654912	52	5647
2026-01-30 15:26:25.92	19.49	9.09	-39.0	-39.9	22.9	0.00e+00	8	41	0	145752064	52	5676
2026-01-30 15:26:26.93	19.46	9.18	-38.8	-39.8	23.0	0.00e+00	0	41	0	147849216	52	5571
2026-01-30 15:26:27.94	19.43	9.26	-38.7	-39.7	23.1	0.00e+00	7	41	0	148897792	50	6201
2026-01-30 15:26:28.95	19.40	9.34	-38.6	-39.5	23.2	0.00e+00	90	41	0	150994944	50	6092
2026-01-30 15:26:29.96	19.37	9.43	-38.7	-39.6	23.2	0.00e+00	12	41	0	153092096	50	6152
2026-01-30 15:26:30.97	19.34	9.51	-38.7	-39.6	23.1	0.00e+00	92	41	0	155189248	50	6159
2026-01-30 15:26:31.98	19.31	9.60	-38.7	-39.6	23.2	0.00e+00	70	41	0	157286400	50	6157
2026-01-30 15:26:32.99	19.28	9.68	-38.6	-39.5	23.3	0.00e+00	12	41	0	158334976	50	6087
2026-01-30 15:26:34.00	19.25	9.77	-38.7	-39.6	23.2	0.00e+00	75	41	0	160432128	50	6138
2026-01-30 15:26:35.01	19.22	9.85	-38.7	-39.6	23.2	0.00e+00	11	41	0	162529280	50	6164
2026-01-30 15:26:36.02	19.18	9.94	-38.6	-39.5	23.3	0.00e+00	92	41	0	164626432	50	6082
2026-01-30 15:26:37.03	19.15	10.02	-38.5	-39.4	23.5	0.00e+00	0	41	0	166723584	50	5977
2026-01-30 15:26:38.04	19.12	10.11	-38.6	-39.5	23.3	0.00e+00	92	41	0	168820736	50	6050
2026-01-30 15:26:39.05	19.09	10.20	-38.4	-39.3	23.5	0.00e+00	71	41	0	169869312	50	5904
2026-01-30 15:26:40.06	19.05	10.28	-38.4	-39.3	23.5	0.00e+00	0	41	0	171966464	50	5943
2026-01-30 15:26:41.07	19.02	10.37	-38.3	-39.3	23.6	0.00e+00	0	41	0	174063616	50	5899
2026-01-30 15:26:42.08	18.99	10.46	-38.5	-39.4	23.4	0.00e+00	0	41	0	176160768	50	5991
2026-01-30 15:26:43.09	18.96	10.55	-38.3	-39.2	23.5	0.00e+00	83	41	0	178257920	50	5891
2026-01-30 15:26:44.10	18.92	10.63	-38.4	-39.3	23.5	0.00e+00	0	41	0	179306496	50	5916
2026-01-30 15:26:45.11	18.89	10.72	-38.2	-39.2	23.6	0.00e+00	92	41	0	181403648	50	5830
2026-01-30 15:26:46.11	18.85	10.81	-38.2	-39.1	23.7	0.00e+00	0	41	0	183500800	50	5804
2026-01-30 15:26:47.13	18.82	10.90	-38.3	-39.2	23.5	0.00e+00	77	41	0	185597952	50	5885
2026-01-30 15:26:48.13	18.78	10.99	-38.2	-39.1	23.7	0.00e+00	7	41	0	187695104	50	5794
2026-01-30 15:26:49.14	18.75	11.08	-38.2	-39.1	23.7	0.00e+00	0	41	0	188743680	50	5786
2026-01-30 15:26:50.15	18.71	11.17	-38.2	-39.1	23.8	0.00e+00	2	41	0	190840832	50	5786
2026-01-30 15:26:51.16	18.68	11.26	-38.2	-39.1	23.8	0.00e+00	0	41	0	192937984	50	5804
2026-01-30 15:26:52.17	18.64	11.35	-38.3	-39.1	23.6	0.00e+00	92	41	0	195035136	50	5821
2026-01-30 15:26:53.18	18.61	11.44	-38.0	-38.9	24.0	0.00e+00	68	41	0	197132288	50	5653
2026-01-30 15:26:54.19	18.57	11.53	-38.2	-39.0	23.7	0.00e+00	92	41	0	198180864	50	5760
2026-01-30 15:26:55.20	18.54	11.62	-38.1	-39.0	23.9	0.00e+00	70	41	0	200278016	50	5747
2026-01-30 15:26:56.21	18.50	11.71	-38.0	-38.9	23.9	0.00e+00	70	41	0	202375168	50	5656
2026-01-30 15:26:57.22	18.46	11.80	-38.0	-38.9	24.0	0.00e+00	70	41	0	204472320	50	5640
2026-01-30 15:26:58.23	18.43	11.90	-38.1	-39.0	23.9	0.00e+00	0	41	0	206569472	50	5723
2026-01-30 15:26:59.23	18.39	11.99	-38.1	-39.0	23.8	0.00e+00	92	41	0	207618048	50	5717
2026-01-30 15:27:00.25	18.35	12.08	-38.2	-39.1	23.8	0.00e+00	69	41	0	209715200	50	5774
2026-01-30 15:27:01.25	18.31	12.18	-38.0	-38.9	23.9	0.00e+00	92	41	0	211812352	50	5645
2026-01-30 15:27:02.27	18.27	12.27	-38.0	-38.8	24.0	0.00e+00	0	41	0	213909504	50	5623
2026-01-30 15:27:03.27	18.24	12.36	-38.0	-38.9	24.0	0.00e+00	0	41	0	216006656	50	5641
2026-01-30 15:27:04.28	18.20	12.46	-37.9	-38.8	24.1	0.00e+00	2	41	0	217055232	50	5600
2026-01-30 15:27:05.29	18.16	12.55	-38.0	-38.9	24.0	0.00e+00	0	41	0	219152384	50	5654
2026-01-30 15:27:06.30	18.12	12.65	-37.9	-38.7	24.0	0.00e+00	91	41	0	221249536	50	5565
2026-01-30 15:27:07.31	18.08	12.74	-37.8	-38.6	24.3	0.00e+00	0	41	0	223346688	50	5480
2026-01-30 15:27:08.32	18.04	12.84	-37.9	-38.8	24.0	0.00e+00	91	41	0	225443840	50	5591
2026-01-30 15:27:09.34	18.00	12.94	-38.0	-38.9	24.1	0.00e+00	0	41	0	226492416	50	5640
2026-01-30 15:27:10.34	17.96	13.03	-37.9	-38.7	24.2	0.00e+00	70	41	0	228589568	50	5537
2026-01-30 15:27:11.36	17.92	13.13	-37.8	-38.6	24.2	0.00e+00	8	41	0	230686720	50	5495
2026-01-30 15:27:12.36	17.88	13.23	-37.8	-38.6	24.2	0.00e+00	8	41	0	232783872	50	5484
2026-01-30 15:27:13.37	17.84	13.32	-37.8	-38.7	24.1	0.00e+00	0	41	0	234881024	48	6193
2026-01-30 15:27:14.38	17.80	13.42	-37.8	-38.6	24.3	0.00e+00	0	41	0	236978176	48	6161
2026-01-30 15:27:15.39	17.75	13.52	-37.7	-38.6	24.2	0.00e+00	91	41	0	238026752	48	6128
2026-01-30 15:27:16.40	17.71	13.62	-37.7	-38.6	24.3	0.00e+00	7	41	0	240123904	48	6131
2026-01-30 15:27:17.41	17.67	13.72	-37.6	-38.5	24.3	0.00e+00	92	41	0	242221056	48	6054
2026-01-30 15:27:18.42	17.63	13.82	-37.8	-38.6	24.2	0.00e+00	0	41	0	244318208	48	6147
2026-01-30 15:27:19.43	17.58	13.92	-37.7	-38.6	24.3	0.00e+00	0	41	0	246415360	48	6124
2026-01-30 15:27:20.44	17.54	14.02	-37.8	-38.6	24.3	0.00e+00	67	41	0	247463936	48	6139
2026-01-30 15:27:21.45	17.50	14.12	-38.0	-38.9	24.2	0.00e+00	0	41	0	249561088	48	6339
2026-01-30 15:27:22.46	17.45	14.22	-37.8	-38.7	24.2	0.00e+00	92	41	0	251658240	48	6192
2026-01-30 15:27:23.47	17.41	14.32	-37.9	-38.7	24.2	0.00e+00	0	41	0	253755392	48	6211
2026-01-30 15:27:24.48	17.36	14.43	-37.8	-38.7	24.2	0.00e+00	90	41	0	255852544	48	6192
2026-01-30 15:27:25.49	17.32	14.53	-37.8	-38.6	24.3	0.00e+00	0	41	0	256901120	48	6166
2026-01-30 15:27:26.50	17.27	14.63	-37.7	-38.5	24.4	0.00e+00	39	41	0	258998272	48	6080
2026-01-30 15:27:27.51	17.23	14.73	-37.7	-38.6	24.3	0.00e+00	0	41	0	261095424	48	6109
2026-01-30 15:27:28.51	17.18	14.84	-37.6	-38.5	24.4	0.00e+00	0	41	0	263192576	48	6048
2026-01-30 15:27:29.53	17.13	14.94	-37.6	-38.5	24.3	0.00e+00	4	41	0	265289728	48	6058
2026-01-30 15:27:30.53	17.09	15.05	-37.6	-38.5	24.5	0.00e+00	0	41	0	266338304	48	6042
2026-01-30 15:27:31.54	17.04	15.15	-37.6	-38.4	24.5	0.00e+00	91	41	0	268435456	48	6000
2026-01-30 15:27:32.55	16.99	15.26	-37.7	-38.5	24.4	0.00e+00	11	41	0	270532608	48	6063
2026-01-30 15:27:33.56	16.95	15.36	-37.6	-38.4	24.4	0.00e+00	14	41	0	272629760	48	6005
2026-01-30 15:27:34.57	16.90	15.47	-37.6	-38.4	24.5	0.00e+00	69	41	0	274726912	48	5995
2026-01-30 15:27:35.58	16.85	15.57	-37.6	-38.4	24.5	0.00e+00	70	41	0	275775488	48	5985
2026-01-30 15:27:36.59	16.80	15.68	-37.6	-38.4	24.5	0.00e+00	0	41	0	277872640	48	6012
2026-01-30 15:27:37.60	16.75	15.79	-37.7	-38.5	24.3	0.00e+00	10	41	0	279969792	48	6087
2026-01-30 15:27:38.61	16.70	15.90	-37.6	-38.5	24.4	0.00e+00	92	41	0	282066944	48	6056
2026-01-30 15:27:39.62	16.65	16.01	-37.7	-38.6	24.4	0.00e+00	0	41	0	284164096	48	6136
2026-01-30 15:27:40.63	16.60	16.12	-37.6	-38.4	24.5	0.00e+00	90	41	0	285212672	48	6005
2026-01-30 15:27:41.63	16.55	16.22	-37.7	-38.5	24.3	0.00e+00	72	41	0	287309824	48	6100
2026-01-30 15:27:42.65	16.50	16.34	-37.8	-38.6	24.4	0.00e+00	78	41	0	289406976	48	6156
2026-01-30 15:27:43.65	16.45	16.44	-37.5	-38.3	24.6	0.00e+00	0	41	0	291504128	48	5945
2026-01-30 15:27:44.66	16.39	16.56	-37.6	-38.4	24.5	0.00e+00	0	41	0	293601280	48	6005
2026-01-30 15:27:45.67	16.34	16.67	-37.7	-38.5	24.4	0.00e+00	92	41	0	294649856	48	6064
2026-01-30 15:27:46.68	16.29	16.78	-37.6	-38.4	24.5	0.00e+00	5	41	0	296747008	48	6027
2026-01-30 15:27:47.69	16.24	16.89	-37.5	-38.4	24.6	0.00e+00	89	41	0	298844160	48	5965
2026-01-30 15:27:48.70	16.18	17.00	-37.5	-38.3	24.6	0.00e+00	5	41	0	300941312	48	5934
2026-01-30 15:27:49.71	16.13	17.12	-37.5	-38.3	24.7	0.00e+00	5	41	0	303038464	48	5936
2026-01-30 15:27:50.72	16.07	17.23	-37.5	-38.3	24.6	0.00e+00	5	41	0	305135616	48	5913
2026-01-30 15:27:51.73	16.02	17.35	-37.5	-38.4	24.5	0.00e+00	5	41	0	306184192	48	5970
2026-01-30 15:27:52.74	15.96	17.46	-37.5	-38.3	24.6	0.00e+00	0	41	0	308281344	48	5952
2026-01-30 15:27:53.75	15.91	17.58	-37.6	-38.5	24.5	0.00e+00	0	41	0	310378496	48	6043
2026-01-30 15:27:54.76	15.85	17.69	-37.5	-38.3	24.5	0.00e+00	92	41	0	312475648	48	5911
2026-01-30 15:27:55.77	15.79	17.81	-37.5	-38.3	24.6	0.00e+00	11	41	0	314572800	48	5951
2026-01-30 15:27:56.78	15.73	17.92	-37.5	-38.3	24.7	0.00e+00	92	41	0	315621376	48	5944
2026-01-30 15:27:57.79	15.68	18.04	-37.5	-38.3	24.6	0.00e+00	78	41	0	317718528	48	5960
2026-01-30 15:27:58.80	15.62	18.16	-37.4	-38.3	24.7	0.00e+00	77	41	0	319815680	48	5897
2026-01-30 15:27:59.81	15.56	18.28	-37.4	-38.3	24.7	0.00e+00	7	41	0	321912832	48	5900
2026-01-30 15:28:00.81	15.50	18.40	-37.5	-38.3	24.6	0.00e+00	71	41	0	322961408	48	5950
2026-01-30 15:28:01.82	15.44	18.52	-37.5	-38.3	24.6	0.00e+00	90	41	0	325058560	48	5939
2026-01-30 15:28:02.83	15.38	18.64	-37.5	-38.4	24.5	0.00e+00	0	41	0	327155712	48	5968
2026-01-30 15:28:03.84	15.32	18.76	-37.6	-38.4	24.5	0.00e+00	90	41	0	329252864	48	6002
2026-01-30 15:28:04.86	15.26	18.88	-37.6	-38.5	24.5	0.00e+00	78	41	0	331350016	48	6035
2026-01-30 15:28:05.86	15.20	19.00	-37.5	-38.3	24.7	0.00e+00	0	41	0	333447168	48	5930
2026-01-30 15:28:06.87	15.13	19.12	-37.8	-38.6	24.5	0.00e+00	6	41	0	334495744	48	6128
2026-01-30 15:28:07.88	15.07	19.25	-37.5	-38.3	24.7	0.00e+00	0	41	0	336592896	48	5903
2026-01-30 15:28:08.89	15.01	19.37	-37.7	-38.5	24.5	0.00e+00	79	41	0	338690048	48	6058
2026-01-30 15:28:09.90	14.94	19.49	-37.4	-38.2	24.8	0.00e+00	6	41	0	340787200	48	5887
2026-01-30 15:28:10.91	14.88	19.62	-37.3	-38.1	24.8	0.00e+00	90	41	0	342884352	48	5811
2026-01-30 15:28:11.92	14.81	19.74	-37.3	-38.1	24.9	0.00e+00	6	41	0	343932928	48	5808
2026-01-30 15:28:12.93	14.75	19.87	-37.4	-38.3	24.7	0.00e+00	10	41	0	346030080	48	5898
2026-01-30 15:28:13.94	14.68	20.00	-37.3	-38.2	24.8	0.00e+00	6	41	0	348127232	48	5836
2026-01-30 15:28:14.95	14.61	20.12	-37.5	-38.3	24.7	0.00e+00	4	41	0	350224384	48	5932
2026-01-30 15:28:15.96	14.55	20.25	-37.5	-38.3	24.7	0.00e+00	0	41	0	352321536	48	5917
2026-01-30 15:28:16.97	14.48	20.38	-37.3	-38.1	24.8	0.00e+00	16	41	0	353370112	48	5819
2026-01-30 15:28:17.97	14.41	20.51	-37.3	-38.2	24.8	0.00e+00	92	41	0	355467264	48	5835
2026-01-30 15:28:18.98	14.34	20.64	-37.2	-38.0	25.0	0.00e+00	14	41	0	357564416	48	5748
2026-01-30 15:28:20.00	14.27	20.77	-37.2	-38.1	24.9	0.00e+00	74	41	0	359661568	48	5766
2026-01-30 15:28:21.01	14.20	20.90	-37.2	-38.0	25.0	0.00e+00	8	41	0	361758720	48	5716
2026-01-30 15:28:22.02	14.13	21.03	-37.1	-37.9	25.1	0.00e+00	70	41	0	362807296	48	5641
2026-01-30 15:28:23.03	14.06	21.16	-37.0	-37.8	25.1	0.00e+00	0	41	0	364904448	48	5618
2026-01-30 15:28:24.04	13.98	21.29	-37.2	-38.0	24.9	0.00e+00	67	41	0	367001600	48	5720
2026-01-30 15:28:25.05	13.91	21.43	-37.2	-38.0	25.0	0.00e+00	90	41	0	369098752	48	5720
2026-01-30 15:28:26.06	13.84	21.56	-37.2	-38.0	25.0	0.00e+00	0	41	0	371195904	48	5712
2026-01-30 15:28:27.07	13.76	21.70	-37.1	-37.9	25.1	0.00e+00	92	41	0	373293056	48	5671
2026-01-30 15:28:28.08	13.69	21.83	-37.3	-38.1	25.0	0.00e+00	0	41	0	374341632	48	5801
2026-01-30 15:28:29.09	13.61	21.97	-37.2	-38.0	25.0	0.00e+00	2	41	0	376438784	48	5744
2026-01-30 15:28:30.10	13.53	22.10	-37.3	-38.1	24.9	0.00e+00	0	41	0	378535936	48	5784
2026-01-30 15:28:31.11	13.46	22.24	-37.3	-38.1	24.9	0.00e+00	2	41	0	380633088	48	5819
2026-01-30 15:28:32.12	13.38	22.38	-37.3	-38.1	24.9	0.00e+00	92	41	0	382730240	48	5820
2026-01-30 15:28:33.13	13.30	22.52	-37.7	-38.5	24.5	0.00e+00	14	41	0	383778816	48	6103
2026-01-30 15:28:34.13	13.22	22.66	-37.4	-38.3	24.7	0.00e+00	92	41	0	385875968	48	5897
2026-01-30 15:28:35.14	13.14	22.80	-37.3	-38.1	24.9	0.00e+00	3	41	0	387973120	48	5788
2026-01-30 15:28:36.15	13.06	22.94	-37.4	-38.3	24.8	0.00e+00	14	41	0	390070272	48	5903
2026-01-30 15:28:37.16	12.98	23.08	-37.5	-38.3	24.7	0.00e+00	0	41	0	391118848	48	5932
2026-01-30 15:28:38.17	12.89	23.22	-37.6	-38.4	24.7	0.00e+00	11	41	0	393216000	48	6000
2026-01-30 15:28:39.18	12.81	23.36	-37.7	-38.5	24.6	0.00e+00	0	41	0	395313152	48	6061
2026-01-30 15:28:40.19	12.73	23.51	-37.6	-38.4	24.4	0.00e+00	16	41	0	397410304	48	5995
2026-01-30 15:28:41.20	12.64	23.65	-37.7	-38.5	24.5	0.00e+00	92	41	0	399507456	48	6102
2026-01-30 15:28:42.21	12.56	23.80	-37.7	-38.5	24.5	0.00e+00	66	41	0	401604608	48	6080
2026-01-30 15:28:43.22	12.47	23.94	-37.8	-38.6	24.5	0.00e+00	65	41	0	402653184	48	6139
2026-01-30 15:28:44.23	12.38	24.09	-37.8	-38.6	24.5	0.00e+00	72	41	0	404750336	48	6136
2026-01-30 15:28:45.24	12.29	24.24	-37.8	-38.6	24.5	0.00e+00	0	41	0	406847488	48	6159
2026-01-30 15:28:46.25	12.20	24.38	-37.9	-38.7	24.4	0.00e+00	72	41	0	408944640	48	6241
2026-01-30 15:28:47.26	12.11	24.53	-37.9	-38.8	24.4	0.00e+00	66	41	0	411041792	48	6268
2026-01-30 15:28:48.27	12.02	24.68	-38.1	-39.0	24.2	0.00e+00	92	41	0	412090368	48	6426
2026-01-30 15:28:49.28	11.93	24.83	-38.0	-38.8	24.3	0.00e+00	0	41	0	414187520	48	6314
2026-01-30 15:28:50.29	11.84	24.99	-38.2	-39.0	24.1	0.00e+00	92	41	0	416284672	48	6459
2026-01-30 15:28:51.29	11.75	25.14	-38.3	-39.1	24.0	0.00e+00	0	41	0	418381824	48	6525
2026-01-30 15:28:52.30	11.65	25.29	-38.4	-39.3	23.9	0.00e+00	1	41	0	420478976	48	6635
2026-01-30 15:28:53.31	11.56	25.44	-38.3	-39.2	24.1	0.00e+00	0	41	0	421527552	48	6584
2026-01-30 15:28:54.32	11.46	25.60	-38.5	-39.4	23.7	0.00e+00	0	41	0	423624704	48	6716
2026-01-30 15:28:55.33	11.36	25.75	-38.7	-39.6	23.7	0.00e+00	92	41	0	425721856	48	6869
2026-01-30 15:28:56.34	11.26	25.91	-38.7	-39.6	23.6	0.00e+00	18	41	0	427819008	50	6154
2026-01-30 15:28:57.35	11.16	26.06	-39.0	-39.9	23.5	0.00e+00	90	41	0	429916160	50	6362
2026-01-30 15:28:58.36	11.06	26.22	-39.0	-39.9	23.4	0.00e+00	0	41	0	430964736	50	6387
2026-01-30 15:28:59.37	10.96	26.38	-39.4	-40.3	23.0	0.00e+00	0	41	0	433061888	50	6682
2026-01-30 15:29:00.38	10.86	26.54	-39.4	-40.4	23.0	0.00e+00	66	41	0	435159040	50	6716
2026-01-30 15:29:01.39	10.75	26.70	-39.5	-40.5	22.9	0.00e+00	72	41	0	437256192	50	6810
2026-01-30 15:29:02.40	10.65	26.86	-39.9	-40.9	22.5	0.00e+00	1	41	0	439353344	52	6338
2026-01-30 15:29:03.40	10.54	27.02	-40.0	-41.1	22.4	0.00e+00	65	41	0	440401920	52	6488
2026-01-30 15:29:04.41	10.44	27.18	-39.9	-41.0	22.5	0.00e+00	92	41	0	442499072	52	6405
2026-01-30 15:29:05.42	10.33	27.35	-40.0	-41.0	22.5	0.00e+00	65	41	0	444596224	52	6426
2026-01-30 15:29:06.43	10.22	27.51	-40.2	-41.2	22.3	0.00e+00	90	41	0	446693376	52	6595
2026-01-30 15:29:07.45	10.11	27.68	-40.3	-41.3	22.0	0.00e+00	2	41	0	448790528	52	6674
2026-01-30 15:29:08.45	10.00	27.84	-40.2	-41.3	22.1	0.00e+00	70	41	0	449839104	52	6681
2026-01-30 15:29:09.46	9.88	28.01	-40.3	-41.4	22.1	0.00e+00	0	41	0	451936256	52	6741
2026-01-30 15:29:10.47	9.77	28.18	-40.5	-41.6	22.0	0.00e+00	2	41	0	454033408	52	6872
2026-01-30 15:29:11.48	9.65	28.35	-40.6	-41.8	21.7	0.00e+00	92	41	0	456130560	52	7021
2026-01-30 15:29:12.49	9.54	28.52	-40.6	-41.7	21.8	0.00e+00	0	41	0	458227712	52	7001
2026-01-30 15:29:13.50	9.42	28.69	-40.7	-41.9	21.8	0.00e+00	92	41	0	459276288	54	6346
2026-01-30 15:29:14.51	9.30	28.86	-40.7	-41.8	21.7	0.00e+00	0	41	0	461373440	54	6316
2026-01-30 15:29:15.52	9.18	29.03	-40.9	-42.1	21.6	0.00e+00	0	41	0	463470592	54	6465
2026-01-30 15:29:16.53	9.06	29.20	-40.8	-42.0	21.6	0.00e+00	0	41	0	465567744	54	6406
2026-01-30 15:29:17.54	8.93	29.38	-40.8	-41.9	21.7	0.00e+00	11	41	0	467664896	54	6363
2026-01-30 15:29:18.55	8.81	29.55	-41.0	-42.2	21.4	0.00e+00	92	41	0	469762048	54	6543
2026-01-30 15:29:19.56	8.68	29.73	-40.7	-41.8	21.8	0.00e+00	0	41	0	470810624	54	6269
2026-01-30 15:29:20.57	8.56	29.91	-40.9	-42.0	21.6	0.00e+00	92	41	0	472907776	54	6428
2026-01-30 15:29:21.58	8.43	30.09	-40.9	-42.0	21.6	0.00e+00	16	41	0	475004928	54	6439
2026-01-30 15:29:22.59	8.30	30.26	-40.9	-42.0	21.7	0.00e+00	0	41	0	477102080	54	6423
2026-01-30 15:29:23.60	8.16	30.44	-41.0	-42.1	21.5	0.00e+00	0	41	0	479199232	54	6535
2026-01-30 15:29:24.61	8.03	30.62	-40.9	-42.1	21.6	0.00e+00	9	41	0	480247808	54	6486
2026-01-30 15:29:25.62	7.89	30.81	-41.0	-42.1	21.5	0.00e+00	9	41	0	482344960	54	6505
2026-01-30 15:29:26.63	7.76	30.99	-41.0	-42.1	21.3	0.00e+00	72	41	0	484442112	54	6521
2026-01-30 15:29:27.63	7.62	31.17	-41.0	-42.2	21.5	0.00e+00	92	41	0	486539264	54	6558
2026-01-30 15:29:28.64	7.48	31.36	-41.5	-42.7	20.8	0.00e+00	63	41	0	488636416	54	6959
2026-01-30 15:29:29.65	7.34	31.54	-41.1	-42.3	21.3	0.00e+00	92	41	0	489684992	54	6646
2026-01-30 15:29:30.66	7.20	31.73	-41.2	-42.3	21.3	0.00e+00	3	41	0	491782144	54	6672
2026-01-30 15:29:31.67	7.05	31.92	-41.2	-42.4	21.3	0.00e+00	4	41	0	493879296	54	6707
2026-01-30 15:29:32.68	6.91	32.10	-41.1	-42.2	21.4	0.00e+00	6	41	0	495976448	54	6591
2026-01-30 15:29:33.69	6.76	32.29	-41.1	-42.3	21.4	0.00e+00	5	41	0	498073600	54	6641
2026-01-30 15:29:34.70	6.61	32.48	-41.1	-42.3	21.3	0.00e+00	92	41	0	499122176	54	6645
2026-01-30 15:29:35.71	6.45	32.68	-41.0	-42.2	21.5	0.00e+00	1	41	0	501219328	54	6584
2026-01-30 15:29:36.72	6.30	32.87	-41.1	-42.3	21.3	0.00e+00	92	41	0	503316480	54	6635
2026-01-30 15:29:37.73	6.15	33.06	-40.9	-42.1	21.6	0.00e+00	0	41	0	505413632	54	6472
2026-01-30 15:29:38.74	5.99	33.26	-40.9	-42.0	21.6	0.00e+00	18	41	0	507510784	54	6451
2026-01-30 15:29:39.75	5.83	33.45	-41.1	-42.3	21.3	0.00e+00	3	41	0	508559360	54	6636
2026-01-30 15:29:40.76	5.67	33.65	-41.3	-42.5	21.1	0.00e+00	4	41	0	510656512	54	6791
2026-01-30 15:29:41.77	5.50	33.85	-41.1	-42.3	21.1	0.00e+00	75	41	0	512753664	54	6686
2026-01-30 15:29:42.78	5.34	34.04	-41.1	-42.3	21.2	0.00e+00	73	41	0	514850816	54	6686
2026-01-30 15:29:43.79	5.17	34.24	-41.2	-42.4	21.2	0.00e+00	92	41	0	516947968	54	6716
2026-01-30 15:29:44.80	5.00	34.44	-41.2	-42.3	21.2	0.00e+00	68	41	0	517996544	54	6692
2026-01-30 15:29:45.81	4.83	34.65	-41.1	-42.3	21.3	0.00e+00	82	41	0	520093696	54	6626
2026-01-30 15:29:46.82	4.65	34.85	-41.0	-42.2	21.5	0.00e+00	5	41	0	522190848	54	6559
2026-01-30 15:29:47.83	4.48	35.05	-41.0	-42.1	21.5	0.00e+00	3	41	0	524288000	54	6538
2026-01-30 15:29:48.84	4.30	35.26	-41.2	-42.4	21.2	0.00e+00	87	41	0	526385152	54	6695
2026-01-30 15:29:49.85	4.12	35.46	-41.3	-42.6	21.1	0.00e+00	75	41	0	527433728	54	6849
2026-01-30 15:29:50.86	3.93	35.67	-41.3	-42.5	21.1	0.00e+00	92	41	0	529530880	54	6825
2026-01-30 15:29:51.87	3.75	35.88	-41.4	-42.7	21.0	0.00e+00	3	41	0	531628032	54	6947
2026-01-30 15:29:52.88	3.56	36.09	-41.6	-42.8	20.8	0.00e+00	92	41	0	533725184	54	7084
2026-01-30 15:29:53.89	3.37	36.29	-41.3	-42.5	21.2	0.00e+00	4	41	0	535822336	54	6828
2026-01-30 15:29:54.90	3.18	36.51	-41.2	-42.3	21.3	0.00e+00	5	41	0	537919488	54	6686
2026-01-30 15:29:55.91	2.98	36.72	-40.9	-42.1	21.6	0.00e+00	5	41	0	538968064	54	6479
2026-01-30 15:29:56.92	2.78	36.93	-40.8	-41.9	21.8	0.00e+00	6	41	0	541065216	54	6319
2026-01-30 15:29:57.93	2.58	37.14	-40.8	-41.9	21.8	0.00e+00	90	41	0	543162368	54	6327
2026-01-30 15:29:58.94	2.38	37.36	-40.8	-41.9	21.8	0.00e+00	5	41	0	545259520	54	6319
2026-01-30 15:29:59.95	2.17	37.57	-40.7	-41.8	21.8	0.00e+00	90	41	0	547356672	54	6302
2026-01-30 15:30:00.96	1.96	37.79	-40.8	-41.9	21.6	0.00e+00	3	41	0	548405248	54	6374
2026-01-30 15:30:01.97	1.75	38.01	-40.7	-41.9	21.7	0.00e+00	65	41	0	550502400	54	6336
2026-01-30 15:30:02.98	1.54	38.22	-40.8	-41.9	21.7	0.00e+00	17	41	0	552599552	54	6351
2026-01-30 15:30:03.99	1.32	38.44	-40.9	-42.0	21.6	0.00e+00	17	41	0	554696704	54	6430
2026-01-30 15:30:05.00	1.10	38.66	-41.0	-42.1	21.3	0.00e+00	18	41	0	556793856	54	6520
2026-01-30 15:30:06.01	0.87	38.89	-40.9	-42.1	21.6	0.00e+00	12	41	0	557842432	54	6470
2026-01-30 15:30:07.02	0.65	39.11	-40.9	-42.1	21.6	0.00e+00	92	41	0	559939584	54	6477
2026-01-30 15:30:08.03	0.42	39.33	-40.8	-42.0	21.7	0.00e+00	64	41	0	562036736	54	6397
2026-01-30 15:30:09.03	0.18	39.55	-40.7	-41.8	21.9	0.00e+00	1	41	0	564133888	54	6248
2026-01-30 15:30:10.04	359.95	39.78	-40.8	-41.9	21.7	0.00e+00	64	41	0	566231040	54	6337
2026-01-30 15:30:11.05	359.71	40.00	-40.8	-41.9	21.8	0.00e+00	63	41	0	567279616	54	6361
2026-01-30 15:30:12.06	359.46	40.23	-40.9	-42.0	21.7	0.00e+00	69	41	0	569376768	54	6395
2026-01-30 15:30:13.07	359.22	40.46	-40.9	-42.0	21.5	0.00e+00	0	41	0	571473920	54	6447
2026-01-30 15:30:14.08	358.97	40.68	-41.0	-42.2	21.5	0.00e+00	92	41	0	573571072	54	6540
2026-01-30 15:30:15.08	358.72	40.91	-41.2	-42.3	21.2	0.00e+00	0	41	0	575668224	54	6688
2026-01-30 15:30:16.09	358.46	41.14	-41.1	-42.3	21.3	0.00e+00	92	41	0	576716800	54	6644
2026-01-30 15:30:17.10	358.20	41.37	-41.1	-42.3	21.3	0.00e+00	0	41	0	578813952	54	6631
2026-01-30 15:30:18.11	357.93	41.60	-41.2	-42.4	21.2	0.00e+00	0	41	0	580911104	54	6695
2026-01-30 15:30:19.12	357.66	41.83	-41.0	-42.2	21.2	0.00e+00	0	41	0	583008256	54	6573
2026-01-30 15:30:20.13	357.39	42.07	-41.3	-42.4	21.3	0.00e+00	12	41	0	585105408	54	6759
2026-01-30 15:30:21.14	357.11	42.30	-41.2	-42.4	21.2	0.00e+00	92	41	0	586153984	54	6754
2026-01-30 15:30:22.15	356.83	42.54	-41.4	-42.6	21.1	0.00e+00	12	41	0	588251136	54	6886
2026-01-30 15:30:23.16	356.54	42.77	-41.2	-42.4	21.2	0.00e+00	92	41	0	590348288	54	6723
2026-01-30 15:30:24.17	356.25	43.01	-40.9	-42.0	21.5	0.00e+00	17	41	0	592445440	54	6455
2026-01-30 15:30:25.18	355.96	43.24	-40.7	-41.7	21.9	0.00e+00	63	41	0	594542592	54	6240
2026-01-30 15:30:26.19	355.66	43.48	-40.6	-41.7	21.9	0.00e+00	66	41	0	595591168	54	6197
2026-01-30 15:30:27.20	355.36	43.72	-39.9	-40.8	22.7	0.00e+00	0	41	0	597688320	54	5629
2026-01-30 15:30:28.21	355.05	43.95	-39.8	-40.8	22.7	0.00e+00	92	41	0	599785472	52	6288
2026-01-30 15:30:29.22	354.74	44.19	-40.0	-41.1	22.3	0.00e+00	0	41	0	601882624	52	6465
2026-01-30 15:30:30.22	354.42	44.43	-40.4	-41.4	22.2	0.00e+00	92	41	0	603979776	52	6732
2026-01-30 15:30:31.23	354.10	44.67	-40.1	-41.1	22.5	0.00e+00	65	41	0	606076928	52	6521
2026-01-30 15:30:32.24	353.78	44.91	-40.1	-41.1	22.4	0.00e+00	92	41	0	607125504	52	6532
2026-01-30 15:30:33.25	353.44	45.15	-39.5	-40.4	23.1	0.00e+00	65	41	0	609222656	52	6007
2026-01-30 15:30:34.26	353.11	45.39	-39.5	-40.4	23.0	0.00e+00	2	41	0	611319808	52	6019
2026-01-30 15:30:35.27	352.76	45.63	-39.8	-40.8	22.7	0.00e+00	0	41	0	613416960	52	6277
2026-01-30 15:30:36.29	352.41	45.87	-40.2	-41.2	22.3	0.00e+00	0	41	0	615514112	52	6604
2026-01-30 15:30:37.29	352.06	46.11	-40.5	-41.5	22.1	0.00e+00	92	41	0	616562688	52	6839
2026-01-30 15:30:38.30	351.71	46.35	-40.4	-41.4	22.2	0.00e+00	0	41	0	618659840	52	6752
2026-01-30 15:30:39.31	351.34	46.60	-40.4	-41.4	22.2	0.00e+00	70	41	0	620756992	52	6750
2026-01-30 15:30:40.32	350.97	46.84	-40.6	-41.6	21.9	0.00e+00	0	41	0	622854144	52	6927
2026-01-30 15:30:41.33	350.60	47.08	-40.7	-41.8	21.8	0.00e+00	0	41	0	624951296	52	7041
2026-01-30 15:30:42.34	350.21	47.32	-40.5	-41.6	22.0	0.00e+00	0	41	0	625999872	52	6884
2026-01-30 15:30:43.35	349.83	47.56	-40.5	-41.6	22.0	0.00e+00	0	41	0	628097024	52	6886
2026-01-30 15:30:44.36	349.43	47.81	-40.4	-41.5	22.1	0.00e+00	92	41	0	630194176	52	6784
2026-01-30 15:30:45.37	349.03	48.05	-40.4	-41.4	22.2	0.00e+00	63	41	0	632291328	52	6732
2026-01-30 15:30:46.38	348.63	48.29	-40.5	-41.5	22.1	0.00e+00	91	41	0	634388480	52	6829
2026-01-30 15:30:47.39	348.21	48.53	-39.9	-40.9	22.8	0.00e+00	62	41	0	635437056	52	6337
2026-01-30 15:30:48.40	347.80	48.77	-39.6	-40.6	22.9	0.00e+00	60	41	0	637534208	52	6124
2026-01-30 15:30:49.41	347.37	49.01	-39.8	-40.8	22.8	0.00e+00	63	41	0	639631360	52	6270
2026-01-30 15:30:50.42	346.94	49.25	-39.7	-40.7	22.9	0.00e+00	0	41	0	641728512	52	6218
2026-01-30 15:30:51.43	346.50	49.49	-39.7	-40.7	22.9	0.00e+00	88	41	0	643825664	52	6176
2026-01-30 15:30:52.43	346.06	49.73	-39.8	-40.8	22.7	0.00e+00	0	41	0	644874240	52	6296
2026-01-30 15:30:53.44	345.60	49.97	-39.9	-40.9	22.7	0.00e+00	92	41	0	646971392	52	6365
2026-01-30 15:30:54.45	345.14	50.21	-39.9	-40.9	22.5	0.00e+00	0	41	0	649068544	52	6368
2026-01-30 15:30:55.46	344.67	50.44	-39.9	-40.9	22.7	0.00e+00	36	41	0	651165696	52	6346
2026-01-30 15:30:56.47	344.20	50.68	-39.4	-40.4	23.1	0.00e+00	0	41	0	653262848	52	5997
2026-01-30 15:30:57.48	343.71	50.91	-39.3	-40.3	23.2	0.00e+00	0	41	0	654311424	52	5929
2026-01-30 15:30:58.49	343.22	51.15	-38.8	-39.7	23.7	0.00e+00	0	41	0	656408576	52	5547
2026-01-30 15:30:59.50	342.72	51.38	-38.5	-39.4	23.9	0.00e+00	0	41	0	658505728	50	5980
2026-01-30 15:31:00.51	342.22	51.61	-38.3	-39.2	24.1	0.00e+00	92	41	0	660602880	50	5851
2026-01-30 15:31:01.52	341.70	51.84	-38.1	-39.0	24.3	0.00e+00	0	41	0	662700032	50	5715
2026-01-30 15:31:02.53	341.18	52.07	-38.2	-39.0	24.2	0.00e+00	92	41	0	663748608	50	5741
2026-01-30 15:31:03.54	340.65	52.30	-37.7	-38.5	24.6	0.00e+00	18	41	0	665845760	48	6097
2026-01-30 15:31:04.55	340.11	52.53	-37.7	-38.5	24.6	0.00e+00	0	41	0	667942912	48	6059
2026-01-30 15:31:05.56	339.56	52.75	-37.6	-38.4	24.8	0.00e+00	0	41	0	670040064	48	5998
2026-01-30 15:31:06.57	339.01	52.98	-37.7	-38.6	24.6	0.00e+00	0	41	0	672137216	48	6116
2026-01-30 15:31:07.58	338.44	53.20	-37.9	-38.7	24.5	0.00e+00	92	41	0	674234368	48	6232
2026-01-30 15:31:08.59	337.87	53.42	-37.6	-38.4	24.8	0.00e+00	19	41	0	675282944	48	6017
2026-01-30 15:31:09.60	337.29	53.63	-37.3	-38.1	25.0	0.00e+00	92	41	0	677380096	48	5780
2026-01-30 15:31:10.61	336.70	53.85	-37.0	-37.7	25.4	0.00e+00	64	41	0	679477248	48	5557
2026-01-30 15:31:11.62	336.10	54.06	-36.8	-37.5	25.5	0.00e+00	70	41	0	681574400	46	6085
2026-01-30 15:31:12.63	335.49	54.27	-36.9	-37.7	25.4	0.00e+00	70	41	0	683671552	46	6203
2026-01-30 15:31:13.64	334.87	54.48	-37.3	-38.1	24.3	0.00e+00	69	41	0	684720128	46	6521
2026-01-30 15:31:14.65	334.25	54.69	-37.8	-38.6	24.5	0.00e+00	31	41	0	686817280	46	6922
2026-01-30 15:31:15.66	333.61	54.89	-38.1	-39.0	24.2	0.00e+00	0	41	0	688914432	48	6400
2026-01-30 15:31:16.67	332.97	55.09	-38.0	-38.9	24.3	0.00e+00	92	41	0	691011584	48	6367
2026-01-30 15:31:17.68	332.31	55.29	-38.0	-38.9	24.3	0.00e+00	6	41	0	693108736	48	6380
2026-01-30 15:31:18.69	331.65	55.48	-37.9	-38.8	24.4	0.00e+00	92	41	0	694157312	48	6278
2026-01-30 15:31:19.70	330.98	55.67	-37.9	-38.8	24.4	0.00e+00	3	41	0	696254464	48	6287
2026-01-30 15:31:20.71	330.30	55.86	-37.9	-38.8	24.5	0.00e+00	5	41	0	698351616	48	6250
2026-01-30 15:31:21.72	329.60	56.04	-38.2	-39.1	24.1	0.00e+00	19	41	0	700448768	48	6477
2026-01-30 15:31:22.73	328.91	56.22	-38.8	-39.8	23.4	0.00e+00	5	41	0	702545920	48	7014
2026-01-30 15:31:23.74	328.20	56.40	-39.6	-40.6	22.9	0.00e+00	92	41	0	703594496	50	6885
2026-01-30 15:31:24.75	327.48	56.57	-39.9	-40.9	22.5	0.00e+00	19	41	0	705691648	52	6379
2026-01-30 15:31:25.76	326.75	56.74	-40.0	-41.1	22.4	0.00e+00	92	41	0	707788800	52	6531
2026-01-30 15:31:26.77	326.02	56.91	-39.9	-41.0	22.6	0.00e+00	67	41	0	709885952	52	6400
2026-01-30 15:31:27.78	325.27	57.07	-39.8	-40.9	22.6	0.00e+00	18	41	0	711983104	52	6334
2026-01-30 15:31:28.79	324.52	57.23	-39.7	-40.7	22.9	0.00e+00	79	41	0	713031680	52	6210
2026-01-30 15:31:29.80	323.76	57.38	-39.5	-40.5	23.0	0.00e+00	0	41	0	715128832	52	6059
2026-01-30 15:31:30.81	322.98	57.53	-39.7	-40.7	22.7	0.00e+00	78	41	0	717225984	52	6220
2026-01-30 15:31:31.82	322.21	57.67	-39.9	-41.0	22.6	0.00e+00	16	41	0	719323136	52	6417
2026-01-30 15:31:32.83	321.42	57.81	-40.0	-41.2	22.3	0.00e+00	90	41	0	721420288	52	6547
2026-01-30 15:31:33.84	320.62	57.94	-40.3	-41.4	22.1	0.00e+00	6	41	0	722468864	52	6750
2026-01-30 15:31:34.84	319.83	58.07	-40.1	-41.2	22.3	0.00e+00	4	41	0	724566016	52	6562
2026-01-30 15:31:35.85	319.02	58.19	-40.0	-41.1	22.5	0.00e+00	4	41	0	726663168	52	6474
2026-01-30 15:31:36.86	318.20	58.31	-40.2	-41.3	22.1	0.00e+00	66	41	0	728760320	52	6678
2026-01-30 15:31:37.87	317.37	58.43	-40.1	-41.3	22.2	0.00e+00	11	41	0	730857472	52	6624
2026-01-30 15:31:38.88	316.54	58.53	-39.8	-40.8	22.7	0.00e+00	6	41	0	731906048	52	6307
2026-01-30 15:31:39.89	315.70	58.64	-39.3	-40.4	23.1	0.00e+00	92	41	0	734003200	52	5977
2026-01-30 15:31:40.90	314.86	58.73	-38.9	-39.9	23.4	0.00e+00	1	41	0	736100352	52	5675
2026-01-30 15:31:41.91	314.01	58.83	-38.6	-39.6	23.7	0.00e+00	92	41	0	738197504	50	6126
2026-01-30 15:31:42.92	313.15	58.91	-39.2	-40.2	23.1	0.00e+00	13	41	0	740294656	50	6550
2026-01-30 15:31:43.93	312.29	58.99	-39.5	-40.6	22.8	0.00e+00	13	41	0	742391808	50	6894
2026-01-30 15:31:44.94	311.42	59.06	-39.4	-40.5	23.1	0.00e+00	7	41	0	743440384	50	6772
2026-01-30 15:31:45.95	310.55	59.13	-38.8	-39.7	23.6	0.00e+00	7	41	0	745537536	50	6234
2026-01-30 15:31:46.96	309.67	59.19	-38.6	-39.5	23.8	0.00e+00	92	41	0	747634688	50	6096
2026-01-30 15:31:47.97	308.79	59.25	-38.8	-39.7	23.4	0.00e+00	13	41	0	749731840	50	6240
2026-01-30 15:31:48.98	307.90	59.30	-39.0	-40.0	23.4	0.00e+00	90	41	0	751828992	50	6418
2026-01-30 15:31:49.98	307.03	59.34	-38.9	-39.8	23.6	0.00e+00	62	41	0	752877568	50	6311
2026-01-30 15:31:50.99	306.14	59.38	-38.1	-39.0	24.3	0.00e+00	20	41	0	754974720	50	5737
2026-01-30 15:31:52.00	305.24	59.41	-37.8	-38.6	24.6	0.00e+00	16	41	0	757071872	50	5488
2026-01-30 15:31:53.01	304.35	59.43	-37.4	-38.2	24.8	0.00e+00	61	41	0	759169024	48	5883
2026-01-30 15:31:54.02	303.45	59.45	-37.4	-38.3	24.8	0.00e+00	92	41	0	761266176	48	5917
2026-01-30 15:31:55.03	302.56	59.46	-37.5	-38.3	24.9	0.00e+00	63	41	0	762314752	48	5954
2026-01-30 15:31:56.04	301.66	59.47	-37.1	-37.9	25.1	0.00e+00	90	41	0	764411904	48	5650
2026-01-30 15:31:57.05	300.76	59.47	-37.0	-37.8	25.2	0.00e+00	63	41	0	766509056	48	5598
2026-01-30 15:31:58.06	299.86	59.46	-37.0	-37.8	25.0	0.00e+00	18	41	0	768606208	48	5611
2026-01-30 15:31:59.07	298.97	59.44	-36.8	-37.6	25.2	0.00e+00	0	41	0	770703360	48	5480
2026-01-30 15:32:00.08	298.07	59.42	-36.9	-37.7	25.2	0.00e+00	0	41	0	771751936	48	5524
2026-01-30 15:32:01.09	297.18	59.40	-36.8	-37.6	25.3	0.00e+00	75	41	0	773849088	48	5459
2026-01-30 15:32:02.10	296.29	59.36	-36.6	-37.4	25.6	0.00e+00	0	41	0	775946240	46	6008
2026-01-30 15:32:03.10	295.41	59.32	-36.8	-37.6	25.4	0.00e+00	92	41	0	778043392	46	6155
2026-01-30 15:32:04.11	294.52	59.28	-36.8	-37.6	25.3	0.00e+00	0	41	0	780140544	46	6170
2026-01-30 15:32:05.12	293.64	59.22	-36.6	-37.4	25.5	0.00e+00	37	41	0	781189120	46	5993
2026-01-30 15:32:06.13	292.76	59.17	-36.8	-37.6	25.4	0.00e+00	0	41	0	783286272	46	6127
2026-01-30 15:32:07.14	291.88	59.10	-36.8	-37.6	25.4	0.00e+00	18	41	0	785383424	46	6120
2026-01-30 15:32:08.15	291.01	59.03	-36.7	-37.4	25.6	0.00e+00	0	41	0	787480576	46	6027
2026-01-30 15:32:09.16	290.15	58.95	-36.5	-37.3	25.6	0.00e+00	0	41	0	789577728	46	5929
2026-01-30 15:32:10.17	289.28	58.87	-36.4	-37.2	25.7	0.00e+00	92	41	0	790626304	46	5875
2026-01-30 15:32:11.18	288.43	58.78	-36.5	-37.3	25.7	0.00e+00	2	41	0	792723456	46	5932
2026-01-30 15:32:12.19	287.58	58.69	-36.6	-37.3	25.5	0.00e+00	90	41	0	794820608	46	5957
2026-01-30 15:32:13.20	286.74	58.59	-36.8	-37.6	25.4	0.00e+00	69	41	0	796917760	46	6120
2026-01-30 15:32:14.21	285.90	58.48	-36.7	-37.5	25.5	0.00e+00	66	41	0	799014912	46	6069
2026-01-30 15:32:15.21	285.08	58.37	-36.9	-37.7	25.4	0.00e+00	12	41	0	800063488	46	6187
2026-01-30 15:32:16.22	284.26	58.26	-37.0	-37.8	25.2	0.00e+00	0	41	0	802160640	46	6313
2026-01-30 15:32:17.23	283.44	58.14	-37.3	-38.1	25.0	0.00e+00	92	41	0	804257792	46	6480
2026-01-30 15:32:18.24	282.63	58.01	-37.6	-38.5	24.7	0.00e+00	0	41	0	806354944	46	6800
2026-01-30 15:32:19.25	281.83	57.88	-38.0	-38.9	24.3	0.00e+00	92	41	0	808452096	48	6378
2026-01-30 15:32:20.26	281.04	57.74	-37.9	-38.7	24.1	0.00e+00	63	41	0	809500672	48	6228
2026-01-30 15:32:21.27	280.26	57.60	-37.8	-38.7	24.5	0.00e+00	48	41	0	811597824	48	6216
2026-01-30 15:32:22.28	279.48	57.46	-37.6	-38.4	24.8	0.00e+00	0	41	0	813694976	48	5996
2026-01-30 15:32:23.29	278.71	57.31	-37.4	-38.2	24.9	0.00e+00	0	41	0	815792128	48	5893
2026-01-30 15:32:24.30	277.95	57.15	-37.7	-38.5	24.7	0.00e+00	2	41	0	817889280	48	6071
2026-01-30 15:32:25.31	277.20	56.99	-38.1	-38.9	24.3	0.00e+00	2	41	0	818937856	48	6360
2026-01-30 15:32:26.32	276.46	56.83	-38.2	-39.1	24.1	0.00e+00	92	41	0	821035008	48	6470
2026-01-30 15:32:27.33	275.73	56.66	-38.5	-39.4	23.9	0.00e+00	0	41	0	823132160	48	6732
2026-01-30 15:32:28.34	275.01	56.49	-38.5	-39.4	24.0	0.00e+00	92	41	0	825229312	48	6710
2026-01-30 15:32:29.35	274.29	56.31	-38.1	-38.9	24.4	0.00e+00	0	41	0	827326464	48	6370
2026-01-30 15:32:30.36	273.59	56.13	-38.0	-38.8	24.5	0.00e+00	0	41	0	828375040	48	6282
2026-01-30 15:32:31.37	272.89	55.95	-37.9	-38.8	24.4	0.00e+00	0	41	0	830472192	48	6277
2026-01-30 15:32:32.38	272.20	55.77	-37.7	-38.5	24.6	0.00e+00	66	41	0	832569344	48	6091
2026-01-30 15:32:33.39	271.52	55.58	-37.5	-38.3	24.9	0.00e+00	92	41	0	834666496	48	5924
2026-01-30 15:32:34.40	270.86	55.38	-37.3	-38.1	25.0	0.00e+00	0	41	0	836763648	48	5825
2026-01-30 15:32:35.41	270.20	55.19	-37.1	-37.9	25.3	0.00e+00	92	41	0	838860800	48	5640
2026-01-30 15:32:36.42	269.55	54.99	-37.1	-37.9	25.2	0.00e+00	62	41	0	839909376	48	5680
2026-01-30 15:32:37.43	268.90	54.79	-37.3	-38.1	24.8	0.00e+00	61	41	0	842006528	48	5826
2026-01-30 15:32:38.44	268.27	54.58	-37.6	-38.4	24.8	0.00e+00	0	41	0	844103680	48	5991
2026-01-30 15:32:39.45	267.65	54.38	-37.5	-38.3	24.7	0.00e+00	2	41	0	846200832	48	5942
2026-01-30 15:32:40.46	267.04	54.17	-37.2	-38.0	25.1	0.00e+00	90	41	0	848297984	48	5737
2026-01-30 15:32:41.47	266.43	53.95	-36.9	-37.7	25.4	0.00e+00	0	41	0	849346560	48	5536
2026-01-30 15:32:42.48	265.83	53.74	-36.7	-37.4	25.6	0.00e+00	92	41	0	851443712	46	6020
2026-01-30 15:32:43.49	265.25	53.52	-37.4	-38.2	24.9	0.00e+00	0	41	0	853540864	46	6568
2026-01-30 15:32:44.50	264.67	53.30	-38.4	-39.3	24.0	0.00e+00	92	41	0	855638016	48	6640
2026-01-30 15:32:45.51	264.10	53.08	-40.3	-41.5	21.1	0.00e+00	0	41	0	857735168	50	7682
2026-01-30 15:32:46.52	263.54	52.86	-39.3	-40.3	24.0	0.00e+00	0	41	0	858783744	50	6627
2026-01-30 15:32:47.53	262.98	52.64	-38.5	-39.3	24.0	0.00e+00	58	41	0	860880896	50	5936
2026-01-30 15:32:48.54	262.44	52.41	-38.3	-39.1	24.2	0.00e+00	0	41	0	862978048	50	5796
2026-01-30 15:32:49.55	261.90	52.18	-38.5	-39.4	24.1	0.00e+00	92	41	0	865075200	50	5967
2026-01-30 15:32:50.56	261.38	51.95	-39.3	-40.2	23.4	0.00e+00	0	41	0	867172352	50	6615
2026-01-30 15:32:51.57	260.86	51.72	-39.4	-40.3	23.2	0.00e+00	0	41	0	868220928	50	6687
2026-01-30 15:32:52.58	260.35	51.49	-39.6	-40.6	22.8	0.00e+00	17	41	0	870318080	52	6149
2026-01-30 15:32:53.59	259.84	51.26	-39.5	-40.4	23.1	0.00e+00	64	41	0	872415232	52	6010
2026-01-30 15:32:54.60	259.35	51.02	-39.6	-40.5	23.1	0.00e+00	0	41	0	874512384	52	6068
2026-01-30 15:32:55.61	258.86	50.79	-39.8	-40.7	22.9	0.00e+00	16	41	0	876609536	52	6238
2026-01-30 15:32:56.62	258.38	50.55	-40.2	-41.2	22.5	0.00e+00	92	41	0	878706688	52	6552
2026-01-30 15:32:57.63	257.90	50.32	-40.7	-41.7	21.9	0.00e+00	67	41	0	879755264	52	7003
2026-01-30 15:32:58.64	257.44	50.08	-41.0	-42.2	21.5	0.00e+00	92	41	0	881852416	54	6563
2026-01-30 15:32:59.65	256.98	49.84	-41.2	-42.4	21.3	0.00e+00	0	41	0	883949568	54	6751
2026-01-30 15:33:00.66	256.53	49.60	-41.2	-42.3	21.5	0.00e+00	2	41	0	886046720	54	6678
2026-01-30 15:33:01.67	256.09	49.36	-41.2	-42.3	21.2	0.00e+00	0	41	0	888143872	54	6668
2026-01-30 15:33:02.68	255.65	49.12	-41.2	-42.4	21.2	0.00e+00	6	41	0	889192448	54	6737
2026-01-30 15:33:03.69	255.22	48.88	-41.9	-43.2	20.6	0.00e+00	82	41	0	891289600	56	6588
2026-01-30 15:33:04.70	254.79	48.64	-41.9	-43.1	20.6	0.00e+00	3	41	0	893386752	56	6511
2026-01-30 15:33:05.71	254.38	48.39	-41.6	-42.8	21.0	0.00e+00	92	41	0	895483904	56	6248
2026-01-30 15:33:06.72	253.97	48.15	-41.5	-42.6	21.2	0.00e+00	4	41	0	897581056	56	6166
2026-01-30 15:33:07.73	253.56	47.91	-41.6	-42.9	20.9	0.00e+00	7	41	0	898629632	56	6324
2026-01-30 15:33:08.74	253.17	47.67	-41.7	-42.9	20.9	0.00e+00	17	41	0	900726784	56	6377
2026-01-30 15:33:09.75	252.77	47.42	-42.1	-43.4	20.2	0.00e+00	18	41	0	902823936	56	6748
2026-01-30 15:33:10.76	252.39	47.18	-42.4	-43.7	20.1	0.00e+00	0	41	0	904921088	56	6999
2026-01-30 15:33:11.77	252.01	46.94	-42.5	-44.0	19.8	0.00e+00	73	41	0	907018240	58	6413
2026-01-30 15:33:12.78	251.64	46.70	-42.4	-43.7	20.1	0.00e+00	92	41	0	908066816	58	6245
2026-01-30 15:33:13.79	251.27	46.45	-42.0	-43.3	20.6	0.00e+00	0	41	0	910163968	58	5906
2026-01-30 15:33:14.80	250.91	46.21	-41.9	-43.2	20.6	0.00e+00	73	41	0	912261120	58	5842
2026-01-30 15:33:15.81	250.55	45.97	-41.4	-42.5	21.3	0.00e+00	10	41	0	914358272	56	6093
2026-01-30 15:33:16.82	250.20	45.73	-40.8	-41.9	22.0	0.00e+00	72	41	0	916455424	56	5651
2026-01-30 15:33:17.82	249.86	45.49	-40.4	-41.5	22.2	0.00e+00	76	41	0	917504000	54	6070
2026-01-30 15:33:18.84	249.51	45.24	-40.4	-41.4	22.2	0.00e+00	77	41	0	919601152	54	6031
2026-01-30 15:33:19.85	249.18	45.00	-40.4	-41.5	22.2	0.00e+00	91	41	0	921698304	54	6037
2026-01-30 15:33:20.85	248.85	44.76	-40.6	-41.7	22.0	0.00e+00	4	41	0	923795456	54	6190
2026-01-30 15:33:21.86	248.53	44.52	-40.7	-41.8	22.0	0.00e+00	91	41	0	925892608	54	6250
2026-01-30 15:33:22.87	248.21	44.28	-40.6	-41.7	21.9	0.00e+00	3	41	0	926941184	54	6221
2026-01-30 15:33:23.88	247.89	44.04	-40.3	-41.4	22.3	0.00e+00	6	41	0	929038336	54	5967
2026-01-30 15:33:24.89	247.58	43.80	-40.3	-41.3	22.3	0.00e+00	3	41	0	931135488	54	5948
2026-01-30 15:33:25.90	247.27	43.57	-40.7	-41.8	22.0	0.00e+00	4	41	0	933232640	54	6283
2026-01-30 15:33:26.91	246.97	43.33	-40.9	-42.0	21.7	0.00e+00	72	41	0	935329792	54	6424
2026-01-30 15:33:27.92	246.68	43.09	-41.0	-42.1	21.6	0.00e+00	17	41	0	936378368	54	6507
2026-01-30 15:33:28.93	246.38	42.85	-40.7	-41.7	21.9	0.00e+00	90	41	0	938475520	54	6242
2026-01-30 15:33:29.94	246.09	42.62	-40.4	-41.4	22.2	0.00e+00	4	41	0	940572672	54	6028
2026-01-30 15:33:30.95	245.81	42.38	-40.5	-41.6	22.0	0.00e+00	3	41	0	942669824	54	6112
2026-01-30 15:33:31.96	245.53	42.15	-40.7	-41.8	21.8	0.00e+00	17	41	0	944766976	54	6260
2026-01-30 15:33:32.97	245.25	41.91	-40.8	-41.8	21.7	0.00e+00	63	41	0	946864128	54	6303
2026-01-30 15:33:33.98	244.98	41.68	-40.8	-41.9	21.8	0.00e+00	92	41	0	947912704	54	6367
2026-01-30 15:33:34.99	244.71	41.45	-40.6	-41.7	22.1	0.00e+00	64	41	0	950009856	54	6193
2026-01-30 15:33:36.00	244.45	41.22	-40.7	-41.8	21.9	0.00e+00	92	41	0	952107008	54	6310
2026-01-30 15:33:37.01	244.19	40.99	-40.7	-41.8	21.9	0.00e+00	63	41	0	954204160	54	6301
2026-01-30 15:33:38.02	243.93	40.76	-40.8	-41.8	21.8	0.00e+00	92	41	0	955252736	54	6309
2026-01-30 15:33:39.03	243.68	40.53	-41.0	-42.2	21.7	0.00e+00	0	41	0	957349888	54	6554
2026-01-30 15:33:40.04	243.43	40.30	-41.1	-42.3	21.1	0.00e+00	0	41	0	959447040	54	6648
2026-01-30 15:33:41.05	243.19	40.07	-41.5	-42.7	21.0	0.00e+00	75	41	0	961544192	54	6976
2026-01-30 15:33:42.06	242.94	39.84	-41.5	-42.8	20.9	0.00e+00	69	41	0	963641344	54	7008
2026-01-30 15:33:43.07	242.70	39.62	-41.5	-42.7	21.0	0.00e+00	92	41	0	964689920	54	7005
2026-01-30 15:33:44.07	242.47	39.39	-41.9	-43.2	20.7	0.00e+00	2	41	0	966787072	56	6554
2026-01-30 15:33:45.08	242.24	39.17	-42.3	-43.6	20.1	0.00e+00	90	41	0	968884224	56	6924
2026-01-30 15:33:46.09	242.01	38.95	-42.2	-43.5	20.3	0.00e+00	0	41	0	970981376	56	6840
2026-01-30 15:33:47.10	241.78	38.73	-42.1	-43.5	20.4	0.00e+00	0	41	0	973078528	56	6783
2026-01-30 15:33:48.11	241.56	38.50	-42.0	-43.3	20.7	0.00e+00	0	41	0	975175680	56	6634
2026-01-30 15:33:49.12	241.34	38.28	-41.6	-42.8	21.1	0.00e+00	0	41	0	976224256	56	6248
2026-01-30 15:33:50.13	241.12	38.06	-41.6	-42.9	21.0	0.00e+00	92	41	0	978321408	56	6327
2026-01-30 15:33:51.14	240.91	37.85	-41.6	-42.8	21.0	0.00e+00	2	41	0	980418560	56	6261
2026-01-30 15:33:52.15	240.70	37.63	-41.7	-42.9	20.9	0.00e+00	90	41	0	982515712	56	6367
2026-01-30 15:33:53.16	240.49	37.41	-41.7	-43.0	20.9	0.00e+00	0	41	0	984612864	56	6422
2026-01-30 15:33:54.17	240.28	37.20	-41.3	-42.4	21.4	0.00e+00	65	41	0	985661440	56	6012
2026-01-30 15:33:55.17	240.08	36.98	-41.3	-42.5	21.4	0.00e+00	0	41	0	987758592	56	6037
2026-01-30 15:33:56.19	239.88	36.77	-40.9	-42.0	21.7	0.00e+00	17	41	0	989855744	56	5727
2026-01-30 15:33:57.19	239.69	36.56	-41.0	-42.1	21.7	0.00e+00	0	41	0	991952896	56	5792
2026-01-30 15:33:58.20	239.49	36.35	-41.1	-42.2	21.6	0.00e+00	10	41	0	994050048	56	5864
2026-01-30 15:33:59.21	239.30	36.13	-41.3	-42.5	21.3	0.00e+00	92	41	0	995098624	56	6043
2026-01-30 15:34:00.22	239.11	35.92	-41.3	-42.5	21.4	0.00e+00	0	41	0	997195776	56	6071
2026-01-30 15:34:01.23	238.92	35.72	-41.4	-42.6	21.2	0.00e+00	92	41	0	999292928	56	6143
2026-01-30 15:34:02.24	238.74	35.51	-41.5	-42.7	21.2	0.00e+00	2	41	0	1001390080	56	6194
2026-01-30 15:34:03.25	238.55	35.30	-41.5	-42.7	21.1	0.00e+00	2	41	0	1003487232	56	6219
2026-01-30 15:34:04.26	238.37	35.10	-41.4	-42.6	21.1	0.00e+00	66	41	0	1004535808	56	6162
2026-01-30 15:34:05.27	238.20	34.89	-41.8	-43.0	20.8	0.00e+00	0	41	0	1006632960	56	6432
2026-01-30 15:34:06.29	238.02	34.69	-41.9	-43.2	20.7	0.00e+00	92	41	0	1008730112	56	6554
2026-01-30 15:34:07.29	237.85	34.48	-41.7	-42.9	20.9	0.00e+00	0	41	0	1010827264	56	6347
2026-01-30 15:34:08.30	237.67	34.28	-41.7	-43.0	20.8	0.00e+00	92	41	0	1012924416	56	6404
2026-01-30 15:34:09.31	237.51	34.08	-41.4	-42.6	21.2	0.00e+00	0	41	0	1013972992	56	6128
2026-01-30 15:34:10.32	237.34	33.88	-41.5	-42.7	21.1	0.00e+00	0	41	0	1016070144	56	6221
2026-01-30 15:34:11.33	237.17	33.68	-41.4	-42.6	21.0	0.00e+00	0	41	0	1018167296	56	6150
2026-01-30 15:34:12.34	237.01	33.49	-41.6	-42.8	20.9	0.00e+00	0	41	0	1020264448	56	6296
2026-01-30 15:34:13.35	236.85	33.29	-41.8	-43.1	20.8	0.00e+00	92	41	0	1022361600	56	6487
2026-01-30 15:34:14.36	236.69	33.09	-42.1	-43.4	20.4	0.00e+00	10	41	0	1023410176	56	6755
2026-01-30 15:34:15.37	236.53	32.90	-42.2	-43.5	20.4	0.00e+00	92	41	0	1025507328	56	6816
2026-01-30 15:34:16.38	236.38	32.71	-42.1	-43.4	20.5	0.00e+00	71	41	0	1027604480	56	6720
2026-01-30 15:34:17.39	236.22	32.51	-41.9	-43.2	20.7	0.00e+00	78	41	0	1029701632	56	6546
2026-01-30 15:34:18.40	236.07	32.32	-41.6	-42.7	21.2	0.00e+00	0	41	0	1031798784	56	6241
2026-01-30 15:34:19.41	235.92	32.13	-41.3	-42.5	21.3	0.00e+00	0	41	0	1032847360	56	6034
2026-01-30 15:34:20.42	235.77	31.94	-41.0	-42.1	21.6	0.00e+00	0	41	0	1034944512	56	5811
2026-01-30 15:34:21.43	235.63	31.75	-40.9	-42.0	21.8	0.00e+00	68	41	0	1037041664	56	5699
2026-01-30 15:34:22.44	235.48	31.57	-40.6	-41.6	22.0	0.00e+00	92	41	0	1039138816	54	6133
2026-01-30 15:34:23.45	235.34	31.38	-40.3	-41.4	22.2	0.00e+00	65	41	0	1041235968	54	5969
2026-01-30 15:34:24.46	235.20	31.19	-40.4	-41.4	22.1	0.00e+00	92	41	0	1043333120	54	6033
2026-01-30 15:34:25.47	235.06	31.01	-40.5	-41.5	22.1	0.00e+00	0	41	0	1044381696	54	6059
2026-01-30 15:34:26.48	234.92	30.82	-40.7	-41.8	21.9	0.00e+00	0	41	0	1046478848	54	6249
2026-01-30 15:34:27.49	234.79	30.64	-41.0	-42.1	21.6	0.00e+00	0	41	0	1048576000	54	6479
2026-01-30 15:34:28.50	234.65	30.46	-41.1	-42.2	21.5	0.00e+00	0	41	0	1050673152	54	6562
2026-01-30 15:34:29.51	234.52	30.28	-41.1	-42.3	21.4	0.00e+00	93	41	0	1052770304	54	6625
2026-01-30 15:34:30.52	234.39	30.10	-41.0	-42.1	21.4	0.00e+00	0	41	0	1053818880	54	6522
2026-01-30 15:34:31.53	234.26	29.92	-41.1	-42.2	21.4	0.00e+00	91	41	0	1055916032	54	6566
2026-01-30 15:34:32.54	234.13	29.74	-41.2	-42.3	21.4	0.00e+00	0	41	0	1058013184	54	6690
2026-01-30 15:34:33.55	234.00	29.56	-41.2	-42.3	21.4	0.00e+00	53	41	0	1060110336	54	6678
2026-01-30 15:34:34.56	233.87	29.39	-41.1	-42.2	21.3	0.00e+00	0	41	0	1062207488	54	6593
2026-01-30 15:34:35.57	233.75	29.21	-41.2	-42.4	21.3	0.00e+00	0	41	0	1063256064	54	6718
2026-01-30 15:34:36.58	233.63	29.04	-40.9	-42.0	21.6	0.00e+00	56	41	0	1065353216	54	6464
2026-01-30 15:34:37.59	233.50	28.87	-41.0	-42.1	21.4	0.00e+00	68	41	0	1067450368	54	6538
2026-01-30 15:34:38.60	233.38	28.69	-41.0	-42.2	21.5	0.00e+00	92	41	0	1069547520	54	6574
2026-01-30 15:34:39.61	233.26	28.52	-41.0	-42.2	21.4	0.00e+00	12	41	0	1071644672	54	6573
2026-01-30 15:34:40.62	233.15	28.35	-41.0	-42.2	21.4	0.00e+00	72	41	0	1072693248	54	6559
2026-01-30 15:34:41.63	233.03	28.18	-41.3	-42.4	21.2	0.00e+00	5	41	0	1074790400	54	6758
2026-01-30 15:34:42.64	232.91	28.01	-41.0	-42.2	21.4	0.00e+00	0	41	0	1076887552	54	6570
2026-01-30 15:34:43.65	232.80	27.84	-40.8	-41.9	21.8	0.00e+00	0	41	0	1078984704	54	6356
2026-01-30 15:34:44.66	232.69	27.68	-40.4	-41.4	22.1	0.00e+00	77	41	0	1081081856	54	6014
2026-01-30 15:34:45.66	232.58	27.51	-40.4	-41.5	22.1	0.00e+00	90	41	0	1082130432	54	6034
2026-01-30 15:34:46.67	232.47	27.35	-40.3	-41.3	22.3	0.00e+00	5	41	0	1084227584	54	5931
2026-01-30 15:34:47.68	232.36	27.18	-40.1	-41.1	22.5	0.00e+00	92	41	0	1086324736	54	5825
2026-01-30 15:34:48.69	232.25	27.02	-39.9	-40.9	22.7	0.00e+00	0	41	0	1088421888	54	5661
2026-01-30 15:34:49.70	232.14	26.86	-39.8	-40.7	22.8	0.00e+00	5	41	0	1090519040	52	6240
2026-01-30 15:34:50.71	232.04	26.69	-39.8	-40.8	22.7	0.00e+00	0	41	0	1091567616	52	6292
2026-01-30 15:34:51.72	231.93	26.53	-39.8	-40.7	22.8	0.00e+00	13	41	0	1093664768	52	6239
2026-01-30 15:34:52.73	231.83	26.37	-39.9	-40.9	22.7	0.00e+00	92	41	0	1095761920	52	6351
2026-01-30 15:34:53.74	231.72	26.21	-40.0	-41.1	22.6	0.00e+00	5	41	0	1097859072	52	6473
2026-01-30 15:34:54.75	231.62	26.05	-40.0	-41.0	22.6	0.00e+00	92	41	0	1099956224	52	6425
2026-01-30 15:34:55.76	231.52	25.90	-40.0	-41.0	22.5	0.00e+00	6	41	0	1101004800	52	6432
2026-01-30 15:34:56.77	231.42	25.74	-40.0	-41.0	22.6	0.00e+00	72	41	0	1103101952	52	6414
2026-01-30 15:34:57.78	231.32	25.58	-39.8	-40.8	22.7	0.00e+00	5	41	0	1105199104	52	6306
2026-01-30 15:34:58.79	231.23	25.43	-39.7	-40.7	22.8	0.00e+00	13	41	0	1107296256	52	6176
2026-01-30 15:34:59.80	231.13	25.27	-39.7	-40.7	22.8	0.00e+00	30	41	0	1109393408	52	6220
2026-01-30 15:35:00.81	231.03	25.12	-39.6	-40.6	23.0	0.00e+00	13	41	0	1111490560	52	6113
2026-01-30 15:35:01.82	230.94	24.97	-39.6	-40.6	22.9	0.00e+00	92	41	0	1112539136	52	6152
2026-01-30 15:35:02.83	230.85	24.82	-39.5	-40.4	23.0	0.00e+00	72	41	0	1114636288	52	6015
2026-01-30 15:35:03.84	230.75	24.66	-39.5	-40.4	23.1	0.00e+00	92	41	0	1116733440	52	6011
2026-01-30 15:35:04.85	230.66	24.51	-39.4	-40.4	23.1	0.00e+00	2	41	0	1118830592	52	5987
2026-01-30 15:35:05.86	230.57	24.36	-39.6	-40.6	22.9	0.00e+00	0	41	0	1120927744	52	6129
2026-01-30 15:35:06.87	230.48	24.22	-39.6	-40.6	22.8	0.00e+00	81	41	0	1121976320	52	6157
2026-01-30 15:35:07.88	230.39	24.07	-39.8	-40.7	22.8	0.00e+00	0	41	0	1124073472	52	6242
2026-01-30 15:35:08.89	230.30	23.92	-40.1	-41.1	22.5	0.00e+00	92	41	0	1126170624	52	6502
2026-01-30 15:35:09.90	230.21	23.77	-40.1	-41.1	22.3	0.00e+00	7	41	0	1128267776	52	6535
2026-01-30 15:35:10.90	230.13	23.63	-40.3	-41.4	22.1	0.00e+00	92	41	0	1130364928	52	6699
2026-01-30 15:35:11.91	230.04	23.48	-40.3	-41.4	22.2	0.00e+00	7	41	0	1131413504	52	6735
2026-01-30 15:35:12.92	229.96	23.34	-40.3	-41.3	22.2	0.00e+00	7	41	0	1133510656	52	6680
2026-01-30 15:35:13.93	229.87	23.20	-40.2	-41.2	22.3	0.00e+00	0	41	0	1135607808	52	6598
2026-01-30 15:35:14.94	229.79	23.05	-40.2	-41.3	22.3	0.00e+00	8	41	0	1137704960	52	6623
2026-01-30 15:35:15.95	229.71	22.91	-39.9	-40.9	22.6	0.00e+00	92	41	0	1139802112	52	6351
2026-01-30 15:35:16.97	229.62	22.77	-39.8	-40.9	22.7	0.00e+00	8	41	0	1140850688	52	6318
2026-01-30 15:35:17.98	229.54	22.63	-39.7	-40.7	22.8	0.00e+00	92	41	0	1142947840	52	6200
2026-01-30 15:35:18.99	229.46	22.49	-39.6	-40.6	22.9	0.00e+00	69	41	0	1145044992	52	6136
2026-01-30 15:35:20.00	229.38	22.35	-39.4	-40.4	23.1	0.00e+00	12	41	0	1147142144	52	5967
2026-01-30 15:35:21.01	229.30	22.21	-39.5	-40.5	23.0	0.00e+00	67	41	0	1149239296	52	6077
2026-01-30 15:35:22.02	229.23	22.07	-39.6	-40.6	23.0	0.00e+00	0	41	0	1151336448	52	6123
2026-01-30 15:35:23.03	229.15	21.93	-39.4	-40.4	23.1	0.00e+00	92	41	0	1152385024	52	5973
2026-01-30 15:35:24.04	229.07	21.80	-39.6	-40.6	22.9	0.00e+00	75	41	0	1154482176	52	6129
2026-01-30 15:35:25.05	229.00	21.66	-39.5	-40.4	22.9	0.00e+00	92	41	0	1156579328	52	6031
2026-01-30 15:35:26.06	228.92	21.53	-39.6	-40.6	22.9	0.00e+00	69	41	0	1158676480	52	6116
2026-01-30 15:35:27.07	228.85	21.39	-39.7	-40.8	22.7	0.00e+00	92	41	0	1160773632	52	6246
2026-01-30 15:35:28.08	228.77	21.26	-39.6	-40.6	22.9	0.00e+00	0	41	0	1161822208	52	6158
2026-01-30 15:35:29.09	228.70	21.12	-39.7	-40.7	22.8	0.00e+00	0	41	0	1163919360	52	6189
2026-01-30 15:35:30.10	228.63	20.99	-39.6	-40.6	22.9	0.00e+00	0	41	0	1166016512	52	6139
2026-01-30 15:35:31.11	228.55	20.86	-39.4	-40.4	23.0	0.00e+00	0	41	0	1168113664	52	5998
2026-01-30 15:35:32.12	228.48	20.73	-39.4	-40.4	23.0	0.00e+00	92	41	0	1170210816	52	6020
2026-01-30 15:35:33.13	228.41	20.60	-39.4	-40.4	22.9	0.00e+00	13	41	0	1171259392	52	6018
2026-01-30 15:35:34.14	228.34	20.47	-39.4	-40.4	23.0	0.00e+00	92	41	0	1173356544	52	6012
2026-01-30 15:35:35.15	228.27	20.34	-39.3	-40.3	23.0	0.00e+00	14	41	0	1175453696	52	5938
2026-01-30 15:35:36.15	228.20	20.21	-39.2	-40.2	23.2	0.00e+00	12	41	0	1177550848	52	5852
2026-01-30 15:35:37.16	228.13	20.08	-39.2	-40.2	23.1	0.00e+00	0	41	0	1179648000	52	5853
2026-01-30 15:35:38.17	228.07	19.95	-39.3	-40.3	23.2	0.00e+00	11	41	0	1180696576	52	5924
2026-01-30 15:35:39.18	228.00	19.83	-39.2	-40.2	23.1	0.00e+00	92	41	0	1182793728	52	5865
2026-01-30 15:35:40.19	227.93	19.70	-39.2	-40.1	23.3	0.00e+00	11	41	0	1184890880	52	5809
2026-01-30 15:35:41.20	227.87	19.57	-39.1	-40.1	23.2	0.00e+00	92	41	0	1186988032	52	5785
2026-01-30 15:35:42.21	227.80	19.45	-39.2	-40.2	23.2	0.00e+00	6	41	0	1189085184	52	5843
2026-01-30 15:35:43.22	227.74	19.32	-39.2	-40.1	23.2	0.00e+00	0	41	0	1190133760	52	5800
2026-01-30 15:35:44.23	227.67	19.20	-39.2	-40.1	23.1	0.00e+00	0	41	0	1192230912	52	5803
2026-01-30 15:35:45.24	227.61	19.08	-39.4	-40.4	22.8	0.00e+00	74	41	0	1194328064	52	6001
2026-01-30 15:35:46.25	227.54	18.95	-39.5	-40.5	22.9	0.00e+00	92	41	0	1196425216	52	6048
2026-01-30 15:35:47.26	227.48	18.83	-39.4	-40.4	22.8	0.00e+00	0	41	0	1198522368	52	5979
2026-01-30 15:35:48.27	227.42	18.71	-39.3	-40.3	23.1	0.00e+00	91	41	0	1199570944	52	5938
2026-01-30 15:35:49.27	227.36	18.59	-39.6	-40.6	22.8	0.00e+00	0	41	0	1201668096	52	6141
2026-01-30 15:35:50.28	227.30	18.47	-39.5	-40.5	22.9	0.00e+00	36	41	0	1203765248	52	6044
2026-01-30 15:35:51.29	227.24	18.35	-39.6	-40.6	22.8	0.00e+00	0	41	0	1205862400	52	6141
