passes_logs/2026/01/30/R4.6S_Anadyr/R4.6S_Anadyr__20260130_150340_SUOMI_NPP_rec.log

#Pass ID: 20260130_150340_SUOMI NPP
#Satellite: SUOMI NPP
#Configuration: NPP
#almurnet v.1.7.20251203
#Start time: 2026-01-30 15:03:44

#Version: 2.2.20231116
#Station: R4.6S_Anadyr
#Location: 177.4865 lon 64.73178 lat
#TLE: 1 37849U 11061A   26029.48304708  .00000140  00000+0  87283-4 0  9999
#TLE: 2 37849  98.7824 331.4079 0002024  38.4342 321.6978 14.19531488738761

#Time	Az	El	Level	Level2	SNR	BER	BlckErr	Temp	State	Recorded	gain1	gain2
2026-01-30 15:03:44.06	21.11	0.20	-49.5	-63.3	3.3	1.54e+00	0	40	0	0	60	52954
2026-01-30 15:03:45.07	21.11	0.26	-49.5	-64.8	3.6	1.51e+00	0	40	104	0	60	62643
2026-01-30 15:03:46.08	21.11	0.32	-49.5	-64.8	3.6	1.51e+00	0	40	104	0	60	62614
2026-01-30 15:03:47.09	21.10	0.38	-49.5	-64.8	3.6	1.51e+00	0	40	104	0	60	62712
2026-01-30 15:03:48.10	21.10	0.45	-49.5	-64.8	3.6	1.51e+00	0	40	104	0	60	62901
2026-01-30 15:03:49.11	21.10	0.51	-49.6	-64.8	3.6	1.51e+00	0	40	104	0	60	63146
2026-01-30 15:03:50.12	21.10	0.57	-49.6	-64.8	3.6	1.51e+00	0	40	104	0	60	62962
2026-01-30 15:03:51.13	21.09	0.63	-49.6	-64.8	3.6	1.51e+00	0	40	104	0	60	63061
2026-01-30 15:03:52.14	21.09	0.69	-49.6	-64.8	3.6	1.51e+00	0	40	104	0	60	62821
2026-01-30 15:03:53.15	21.09	0.75	-49.5	-64.7	3.6	1.51e+00	0	40	104	0	60	62415
2026-01-30 15:03:54.16	21.08	0.81	-49.5	-64.8	3.6	1.51e+00	0	40	104	0	60	62535
2026-01-30 15:03:55.17	21.08	0.88	-49.5	-64.7	3.6	1.51e+00	0	40	104	0	60	61893
2026-01-30 15:03:56.18	21.08	0.94	-49.4	-64.6	3.6	1.51e+00	0	40	104	0	60	61726
2026-01-30 15:03:57.19	21.08	1.00	-49.3	-64.6	3.6	1.51e+00	0	40	104	0	60	61237
2026-01-30 15:03:58.20	21.07	1.06	-49.3	-64.5	3.6	1.51e+00	0	40	104	0	60	60343
2026-01-30 15:03:59.21	21.07	1.12	-49.1	-64.3	3.6	1.51e+00	0	40	104	0	60	59518
2026-01-30 15:04:00.22	21.07	1.19	-48.9	-64.2	3.6	1.51e+00	0	40	104	0	60	58893
2026-01-30 15:04:01.23	21.06	1.25	-48.9	-64.1	3.6	1.51e+00	0	40	104	0	60	58269
2026-01-30 15:04:02.24	21.06	1.31	-48.8	-64.0	3.6	1.51e+00	0	40	104	0	60	57308
2026-01-30 15:04:03.25	21.06	1.38	-48.7	-63.9	3.6	1.51e+00	0	40	104	0	60	56485
2026-01-30 15:04:04.26	21.05	1.44	-48.4	-63.6	3.6	1.51e+00	0	40	104	0	60	54679
2026-01-30 15:04:05.27	21.05	1.50	-48.2	-63.3	3.6	1.51e+00	0	40	104	0	60	52950
2026-01-30 15:04:06.28	21.05	1.57	-48.2	-63.3	3.6	1.51e+00	0	40	104	0	60	52615
2026-01-30 15:04:07.29	21.04	1.63	-48.2	-63.2	3.6	1.51e+00	0	40	104	0	60	52245
2026-01-30 15:04:08.30	21.04	1.69	-48.2	-63.3	3.6	1.51e+00	0	40	104	0	60	52572
2026-01-30 15:04:09.31	21.04	1.76	-48.2	-63.2	3.6	1.51e+00	0	40	104	0	60	52286
2026-01-30 15:04:10.33	21.03	1.82	-48.2	-63.4	3.6	1.51e+00	0	40	104	0	60	53269
2026-01-30 15:04:11.34	21.03	1.89	-48.2	-63.3	3.6	1.51e+00	0	40	104	0	60	53042
2026-01-30 15:04:12.34	21.02	1.95	-48.2	-63.4	3.6	1.51e+00	0	40	104	0	60	53311
2026-01-30 15:04:13.36	21.02	2.01	-48.2	-63.4	3.6	1.51e+00	0	40	104	0	60	53412
2026-01-30 15:04:14.37	21.02	2.08	-48.2	-63.4	3.6	1.51e+00	0	40	104	0	60	53237
2026-01-30 15:04:15.38	21.01	2.14	-48.2	-63.3	3.6	1.51e+00	0	40	104	0	60	53091
2026-01-30 15:04:16.39	21.01	2.21	-48.2	-63.3	3.6	1.51e+00	0	40	104	0	60	52837
2026-01-30 15:04:17.40	21.01	2.27	-48.2	-63.3	3.6	1.51e+00	0	40	104	0	60	52592
2026-01-30 15:04:18.41	21.00	2.34	-48.2	-63.0	3.6	1.51e+00	0	41	104	0	60	51155
2026-01-30 15:04:19.42	21.00	2.40	-48.1	-62.7	3.6	1.51e+00	0	40	104	0	60	49251
2026-01-30 15:04:20.43	21.00	2.47	-48.1	-62.3	3.6	1.51e+00	0	40	104	0	60	47322
2026-01-30 15:04:21.44	20.99	2.53	-48.1	-62.1	3.6	1.51e+00	0	40	104	0	60	46261
2026-01-30 15:04:22.45	20.99	2.60	-48.1	-61.8	3.6	1.51e+00	0	40	104	0	60	44561
2026-01-30 15:04:23.46	20.98	2.67	-48.1	-62.0	3.6	1.51e+00	0	41	104	0	60	45404
2026-01-30 15:04:24.47	20.98	2.73	-48.1	-62.2	3.6	1.51e+00	0	40	104	0	60	46581
2026-01-30 15:04:25.48	20.98	2.80	-48.1	-62.5	3.6	1.51e+00	0	40	104	0	60	48323
2026-01-30 15:04:26.49	20.97	2.86	-48.1	-62.2	3.6	1.51e+00	0	40	104	0	60	46662
2026-01-30 15:04:27.50	20.97	2.93	-48.0	-60.9	3.6	1.51e+00	0	40	104	0	60	40052
2026-01-30 15:04:28.51	20.96	3.00	-47.9	-58.6	4.6	1.50e+00	92	41	104	0	60	30838
2026-01-30 15:04:29.51	20.96	3.06	-47.6	-55.5	5.9	4.98e-01	0	40	0	1048576	60	21575
2026-01-30 15:04:30.53	20.95	3.13	-47.2	-53.4	8.2	1.83e-01	92	41	0	3145728	60	16884
2026-01-30 15:04:31.54	20.95	3.20	-46.8	-52.1	10.0	3.34e-02	0	40	0	4194304	60	14497
2026-01-30 15:04:32.55	20.95	3.27	-46.3	-50.8	11.3	1.81e-03	0	40	0	6291456	60	12475
2026-01-30 15:04:33.56	20.94	3.33	-45.8	-49.8	12.4	2.14e-04	0	40	0	8388608	60	11160
2026-01-30 15:04:34.57	20.94	3.40	-45.5	-49.0	13.3	5.26e-05	0	40	0	10485760	60	10224
2026-01-30 15:04:35.58	20.93	3.47	-45.3	-48.8	13.5	5.30e-06	92	41	0	12582912	60	9902
2026-01-30 15:04:36.59	20.93	3.54	-45.2	-48.5	13.8	6.80e-06	0	41	0	13631488	60	9642
2026-01-30 15:04:37.60	20.92	3.60	-45.3	-48.7	13.6	8.30e-06	92	41	0	15728640	60	9859
2026-01-30 15:04:38.61	20.92	3.67	-45.3	-48.7	13.5	1.22e-05	0	41	0	17825792	60	9818
2026-01-30 15:04:39.62	20.91	3.74	-44.6	-47.4	15.0	7.09e-05	0	40	0	19922944	60	8433
2026-01-30 15:04:40.62	20.91	3.81	-43.5	-45.7	16.5	0.00e+00	0	40	0	22020096	60	6973
2026-01-30 15:04:41.63	20.90	3.88	-44.2	-46.9	14.6	0.00e+00	0	41	0	24117248	60	8029
2026-01-30 15:04:42.64	20.90	3.95	-47.4	-55.1	5.2	1.51e+00	0	40	104	24117248	60	20551
2026-01-30 15:04:43.65	20.90	4.02	-43.2	-45.3	16.5	8.62e-01	0	41	104	24117248	60	6681
2026-01-30 15:04:44.66	20.89	4.09	-47.6	-56.3	4.9	9.24e-01	0	41	104	24117248	60	23524
2026-01-30 15:04:45.67	20.89	4.15	-43.5	-45.7	16.0	5.12e-01	0	41	104	24117248	60	6954
2026-01-30 15:04:46.68	20.88	4.22	-43.4	-45.6	16.7	0.00e+00	0	41	0	25165824	60	6853
2026-01-30 15:04:47.69	20.88	4.29	-43.2	-45.3	17.0	0.00e+00	0	41	0	27262976	60	6616
2026-01-30 15:04:48.70	20.87	4.36	-43.4	-45.6	16.7	0.00e+00	0	41	0	28311552	60	6885
2026-01-30 15:04:49.71	20.87	4.43	-43.4	-45.5	16.9	0.00e+00	3	41	0	30408704	60	6827
2026-01-30 15:04:50.72	20.86	4.50	-43.2	-45.3	17.1	0.00e+00	0	40	0	32505856	60	6660
2026-01-30 15:04:51.73	20.86	4.58	-43.0	-45.0	17.4	0.00e+00	92	41	0	34603008	60	6448
2026-01-30 15:04:52.74	20.85	4.65	-42.9	-44.9	17.6	0.00e+00	0	41	0	36700160	60	6337
2026-01-30 15:04:53.75	20.84	4.72	-43.0	-45.0	17.5	0.00e+00	0	40	0	37748736	60	6427
2026-01-30 15:04:54.76	20.84	4.79	-43.0	-45.0	17.5	0.00e+00	0	40	0	39845888	60	6432
2026-01-30 15:04:55.77	20.83	4.86	-42.9	-44.8	17.7	0.00e+00	0	41	0	41943040	60	6303
2026-01-30 15:04:56.78	20.83	4.93	-42.9	-44.8	17.8	0.00e+00	4	40	0	44040192	60	6294
2026-01-30 15:04:57.79	20.82	5.00	-42.9	-44.8	17.7	0.00e+00	0	41	0	46137344	60	6292
2026-01-30 15:04:58.80	20.82	5.07	-43.0	-45.0	17.5	0.00e+00	92	41	0	47185920	60	6395
2026-01-30 15:04:59.80	20.81	5.15	-42.6	-44.4	18.0	0.00e+00	0	41	0	49283072	58	6735
2026-01-30 15:05:00.81	20.81	5.22	-42.5	-44.3	18.1	0.00e+00	92	41	0	51380224	58	6674
2026-01-30 15:05:01.82	20.80	5.29	-42.9	-44.8	17.6	0.00e+00	0	41	0	53477376	58	7079
2026-01-30 15:05:02.83	20.80	5.36	-42.7	-44.6	17.8	0.00e+00	0	41	0	55574528	58	6894
2026-01-30 15:05:03.84	20.79	5.44	-42.8	-44.7	17.8	0.00e+00	0	41	0	56623104	58	6968
2026-01-30 15:05:04.85	20.78	5.51	-42.7	-44.6	17.9	0.00e+00	0	41	0	58720256	58	6884
2026-01-30 15:05:05.86	20.78	5.58	-42.6	-44.4	18.2	0.00e+00	70	41	0	60817408	58	6727
2026-01-30 15:05:06.87	20.77	5.66	-42.8	-44.7	17.8	0.00e+00	0	41	0	62914560	58	6934
2026-01-30 15:05:07.88	20.77	5.73	-42.9	-44.8	17.7	0.00e+00	80	41	0	65011712	58	7066
2026-01-30 15:05:08.89	20.76	5.80	-43.0	-44.9	17.8	0.00e+00	0	41	0	66060288	58	7104
2026-01-30 15:05:09.90	20.75	5.88	-42.6	-44.4	18.3	0.00e+00	0	41	0	68157440	58	6719
2026-01-30 15:05:10.91	20.75	5.95	-42.6	-44.3	18.2	0.00e+00	0	41	0	70254592	58	6688
2026-01-30 15:05:11.92	20.74	6.03	-42.5	-44.3	18.2	0.00e+00	0	40	0	72351744	58	6653
2026-01-30 15:05:12.93	20.74	6.10	-42.5	-44.3	18.3	0.00e+00	75	41	0	74448896	58	6650
2026-01-30 15:05:13.94	20.73	6.18	-42.5	-44.3	18.3	0.00e+00	0	41	0	75497472	58	6648
2026-01-30 15:05:14.95	20.72	6.25	-42.6	-44.4	18.2	0.00e+00	57	41	0	77594624	58	6697
2026-01-30 15:05:15.96	20.72	6.33	-42.4	-44.1	18.5	0.00e+00	0	41	0	79691776	58	6493
2026-01-30 15:05:16.97	20.71	6.40	-42.6	-44.4	18.3	0.00e+00	0	41	0	81788928	58	6718
2026-01-30 15:05:17.98	20.70	6.48	-42.5	-44.3	18.2	0.00e+00	0	41	0	83886080	58	6640
2026-01-30 15:05:18.99	20.70	6.55	-42.4	-44.2	18.5	0.00e+00	0	41	0	84934656	58	6548
2026-01-30 15:05:20.00	20.69	6.63	-42.5	-44.3	18.3	0.00e+00	80	41	0	87031808	58	6639
2026-01-30 15:05:21.01	20.68	6.71	-42.3	-44.0	18.6	0.00e+00	0	41	0	89128960	58	6423
2026-01-30 15:05:22.02	20.68	6.78	-42.3	-44.0	18.7	0.00e+00	92	41	0	91226112	58	6426
2026-01-30 15:05:23.03	20.67	6.86	-42.5	-44.2	18.4	0.00e+00	0	41	0	93323264	58	6612
2026-01-30 15:05:24.04	20.66	6.94	-42.3	-43.9	18.7	0.00e+00	0	41	0	95420416	58	6364
2026-01-30 15:05:25.05	20.66	7.02	-42.1	-43.7	18.9	0.00e+00	0	41	0	96468992	58	6241
2026-01-30 15:05:26.06	20.65	7.09	-42.0	-43.6	19.0	0.00e+00	0	41	0	98566144	58	6128
2026-01-30 15:05:27.07	20.64	7.17	-42.1	-43.6	19.0	0.00e+00	10	41	0	100663296	58	6165
2026-01-30 15:05:28.08	20.64	7.25	-42.2	-43.9	18.8	0.00e+00	0	41	0	102760448	58	6344
2026-01-30 15:05:29.09	20.63	7.33	-42.1	-43.7	19.0	0.00e+00	69	41	0	104857600	58	6176
2026-01-30 15:05:30.10	20.62	7.41	-42.2	-43.9	18.8	0.00e+00	0	41	0	105906176	58	6331
2026-01-30 15:05:31.11	20.61	7.49	-42.2	-43.8	18.9	0.00e+00	27	41	0	108003328	58	6267
2026-01-30 15:05:32.12	20.61	7.56	-42.0	-43.6	19.1	0.00e+00	0	41	0	110100480	58	6140
2026-01-30 15:05:33.13	20.60	7.64	-42.1	-43.7	18.9	0.00e+00	0	41	0	112197632	58	6222
2026-01-30 15:05:34.14	20.59	7.72	-42.2	-43.8	18.9	0.00e+00	0	41	0	114294784	58	6253
2026-01-30 15:05:35.15	20.58	7.80	-42.0	-43.6	19.1	0.00e+00	0	41	0	115343360	58	6138
2026-01-30 15:05:36.16	20.58	7.88	-42.2	-43.9	18.8	0.00e+00	27	41	0	117440512	58	6318
2026-01-30 15:05:37.17	20.57	7.96	-42.0	-43.6	19.1	0.00e+00	0	41	0	119537664	58	6133
2026-01-30 15:05:38.18	20.56	8.04	-42.0	-43.5	19.3	0.00e+00	71	41	0	121634816	58	6096
2026-01-30 15:05:39.19	20.55	8.13	-41.9	-43.4	19.4	0.00e+00	0	41	0	123731968	58	6012
2026-01-30 15:05:40.20	20.55	8.21	-41.7	-43.2	19.6	0.00e+00	0	41	0	124780544	56	6544
2026-01-30 15:05:41.21	20.54	8.29	-41.8	-43.3	19.4	0.00e+00	0	41	0	126877696	56	6644
2026-01-30 15:05:42.22	20.53	8.37	-41.9	-43.4	19.5	0.00e+00	0	41	0	128974848	56	6700
2026-01-30 15:05:43.23	20.52	8.45	-41.7	-43.2	19.6	0.00e+00	92	41	0	131072000	56	6567
2026-01-30 15:05:44.24	20.51	8.53	-41.8	-43.3	19.4	0.00e+00	0	41	0	133169152	56	6650
2026-01-30 15:05:45.25	20.51	8.62	-41.7	-43.1	19.7	0.00e+00	65	41	0	134217728	56	6508
2026-01-30 15:05:46.26	20.50	8.70	-41.7	-43.1	19.7	0.00e+00	0	41	0	136314880	56	6517
2026-01-30 15:05:47.26	20.49	8.78	-41.4	-42.8	19.9	0.00e+00	0	41	0	138412032	56	6313
2026-01-30 15:05:48.27	20.48	8.86	-41.6	-43.0	19.8	0.00e+00	0	41	0	140509184	56	6436
2026-01-30 15:05:49.28	20.47	8.95	-41.7	-43.1	19.6	0.00e+00	0	41	0	142606336	56	6504
2026-01-30 15:05:50.29	20.46	9.03	-41.4	-42.8	19.9	0.00e+00	0	41	0	143654912	56	6307
2026-01-30 15:05:51.30	20.45	9.12	-41.6	-43.1	19.8	0.00e+00	0	41	0	145752064	56	6477
2026-01-30 15:05:52.32	20.45	9.20	-41.6	-43.0	19.8	0.00e+00	70	41	0	147849216	56	6431
2026-01-30 15:05:53.33	20.44	9.29	-41.3	-42.7	20.1	0.00e+00	11	41	0	149946368	56	6206
2026-01-30 15:05:54.34	20.43	9.37	-41.4	-42.8	20.0	0.00e+00	0	41	0	152043520	56	6265
2026-01-30 15:05:55.34	20.42	9.46	-41.3	-42.7	20.1	0.00e+00	0	41	0	153092096	56	6200
2026-01-30 15:05:56.36	20.41	9.54	-41.3	-42.7	20.0	0.00e+00	0	41	0	155189248	56	6222
2026-01-30 15:05:57.37	20.40	9.63	-41.5	-42.9	20.0	0.00e+00	10	41	0	157286400	56	6366
2026-01-30 15:05:58.38	20.39	9.71	-41.1	-42.4	20.3	0.00e+00	0	41	0	159383552	56	6023
2026-01-30 15:05:59.39	20.38	9.80	-41.3	-42.7	20.2	0.00e+00	92	41	0	161480704	56	6201
2026-01-30 15:06:00.40	20.37	9.89	-41.2	-42.5	20.2	0.00e+00	0	41	0	163577856	56	6060
2026-01-30 15:06:01.41	20.36	9.97	-41.3	-42.7	20.2	0.00e+00	28	41	0	164626432	56	6176
2026-01-30 15:06:02.42	20.35	10.06	-41.2	-42.5	20.2	0.00e+00	0	41	0	166723584	56	6098
2026-01-30 15:06:03.43	20.34	10.15	-40.9	-42.2	20.5	0.00e+00	0	41	0	168820736	56	5874
2026-01-30 15:06:04.44	20.34	10.24	-40.9	-42.2	20.6	0.00e+00	13	41	0	170917888	56	5844
2026-01-30 15:06:05.45	20.33	10.33	-41.1	-42.4	20.4	0.00e+00	0	41	0	173015040	56	5989
2026-01-30 15:06:06.46	20.32	10.41	-40.8	-42.1	20.6	0.00e+00	92	41	0	174063616	56	5800
2026-01-30 15:06:07.47	20.31	10.50	-41.0	-42.3	20.6	0.00e+00	0	41	0	176160768	56	5927
2026-01-30 15:06:08.48	20.30	10.59	-40.9	-42.2	20.5	0.00e+00	0	41	0	178257920	56	5851
2026-01-30 15:06:09.49	20.29	10.68	-40.9	-42.2	20.5	0.00e+00	0	41	0	180355072	56	5850
2026-01-30 15:06:10.50	20.28	10.77	-40.7	-41.9	20.7	0.00e+00	0	41	0	182452224	56	5686
2026-01-30 15:06:11.51	20.26	10.86	-40.6	-41.8	20.9	0.00e+00	0	41	0	183500800	54	6310
2026-01-30 15:06:12.52	20.25	10.95	-40.3	-41.5	21.1	0.00e+00	0	41	0	185597952	54	6037
2026-01-30 15:06:13.53	20.24	11.04	-40.6	-41.8	20.9	0.00e+00	92	41	0	187695104	54	6272
2026-01-30 15:06:14.54	20.23	11.13	-40.7	-41.9	20.8	0.00e+00	0	41	0	189792256	54	6354
2026-01-30 15:06:15.55	20.22	11.23	-40.5	-41.7	20.9	0.00e+00	92	41	0	191889408	54	6214
2026-01-30 15:06:16.56	20.21	11.32	-40.1	-41.3	21.4	0.00e+00	0	41	0	192937984	54	5915
2026-01-30 15:06:17.57	20.20	11.41	-40.1	-41.2	21.3	0.00e+00	0	41	0	195035136	54	5893
2026-01-30 15:06:18.58	20.19	11.50	-40.1	-41.2	21.4	0.00e+00	0	41	0	197132288	54	5891
2026-01-30 15:06:19.58	20.18	11.59	-40.1	-41.2	21.5	0.00e+00	0	41	0	199229440	54	5888
2026-01-30 15:06:20.59	20.17	11.69	-40.0	-41.1	21.5	0.00e+00	8	41	0	201326592	54	5809
2026-01-30 15:06:21.60	20.16	11.78	-40.0	-41.1	21.6	0.00e+00	0	41	0	202375168	54	5798
2026-01-30 15:06:22.61	20.15	11.88	-39.8	-40.8	21.8	0.00e+00	53	41	0	204472320	54	5627
2026-01-30 15:06:23.62	20.13	11.97	-39.9	-41.0	21.6	0.00e+00	0	41	0	206569472	52	6403
2026-01-30 15:06:24.64	20.12	12.07	-39.7	-40.8	21.8	0.00e+00	0	41	0	208666624	52	6287
2026-01-30 15:06:25.64	20.11	12.16	-39.7	-40.8	21.8	0.00e+00	0	41	0	210763776	52	6271
2026-01-30 15:06:26.66	20.10	12.26	-40.0	-41.1	21.5	0.00e+00	0	41	0	211812352	52	6505
2026-01-30 15:06:27.67	20.09	12.35	-39.6	-40.7	21.9	0.00e+00	76	41	0	213909504	52	6198
2026-01-30 15:06:28.68	20.08	12.45	-39.7	-40.8	21.8	0.00e+00	0	41	0	216006656	52	6283
2026-01-30 15:06:29.68	20.06	12.54	-39.7	-40.8	21.8	0.00e+00	92	41	0	218103808	52	6290
2026-01-30 15:06:30.70	20.05	12.64	-39.6	-40.6	21.9	0.00e+00	0	41	0	220200960	52	6162
2026-01-30 15:06:31.70	20.04	12.74	-39.7	-40.8	21.8	0.00e+00	0	41	0	221249536	52	6278
2026-01-30 15:06:32.71	20.03	12.84	-39.6	-40.7	21.9	0.00e+00	0	41	0	223346688	52	6193
2026-01-30 15:06:33.72	20.01	12.93	-39.6	-40.7	22.0	0.00e+00	0	41	0	225443840	52	6215
2026-01-30 15:06:34.73	20.00	13.03	-39.7	-40.7	21.9	0.00e+00	8	41	0	227540992	52	6224
2026-01-30 15:06:35.74	19.99	13.13	-39.5	-40.5	22.1	0.00e+00	0	41	0	229638144	52	6059
2026-01-30 15:06:36.75	19.98	13.23	-39.5	-40.6	22.0	0.00e+00	92	41	0	231735296	52	6125
2026-01-30 15:06:37.76	19.96	13.33	-39.5	-40.6	22.1	0.00e+00	0	41	0	232783872	52	6133
2026-01-30 15:06:38.77	19.95	13.43	-39.2	-40.2	22.4	0.00e+00	64	41	0	234881024	52	5836
2026-01-30 15:06:39.78	19.94	13.53	-39.5	-40.5	22.2	0.00e+00	0	41	0	236978176	52	6069
2026-01-30 15:06:40.79	19.92	13.63	-39.4	-40.5	22.1	0.00e+00	0	41	0	239075328	52	6045
2026-01-30 15:06:41.80	19.91	13.73	-39.0	-40.0	22.5	0.00e+00	6	41	0	241172480	52	5729
2026-01-30 15:06:42.81	19.90	13.84	-39.2	-40.2	22.3	0.00e+00	0	41	0	242221056	52	5896
2026-01-30 15:06:43.82	19.88	13.94	-39.2	-40.2	22.3	0.00e+00	90	41	0	244318208	52	5886
2026-01-30 15:06:44.83	19.87	14.04	-39.1	-40.1	22.5	0.00e+00	0	41	0	246415360	52	5810
2026-01-30 15:06:45.84	19.86	14.14	-39.1	-40.1	22.5	0.00e+00	12	41	0	248512512	52	5770
2026-01-30 15:06:46.85	19.84	14.25	-38.9	-39.9	22.6	0.00e+00	0	41	0	250609664	52	5660
2026-01-30 15:06:47.86	19.83	14.35	-38.9	-39.8	22.6	0.00e+00	0	41	0	251658240	52	5620
2026-01-30 15:06:48.87	19.81	14.46	-39.0	-40.0	22.5	0.00e+00	0	41	0	253755392	52	5720
2026-01-30 15:06:49.88	19.80	14.56	-38.9	-39.8	22.6	0.00e+00	0	41	0	255852544	52	5617
2026-01-30 15:06:50.89	19.78	14.67	-39.0	-40.0	22.6	0.00e+00	92	41	0	257949696	52	5705
2026-01-30 15:06:51.90	19.77	14.77	-38.9	-39.8	22.6	0.00e+00	11	41	0	260046848	52	5621
2026-01-30 15:06:52.91	19.75	14.88	-38.9	-39.9	22.7	0.00e+00	58	41	0	261095424	52	5632
2026-01-30 15:06:53.92	19.74	14.98	-38.8	-39.7	22.7	0.00e+00	0	41	0	263192576	52	5566
2026-01-30 15:06:54.93	19.72	15.09	-38.6	-39.6	22.7	0.00e+00	0	41	0	265289728	50	6131
2026-01-30 15:06:55.94	19.71	15.20	-38.8	-39.8	22.7	0.00e+00	23	41	0	267386880	50	6275
2026-01-30 15:06:56.95	19.69	15.31	-38.7	-39.7	22.4	0.00e+00	0	41	0	269484032	50	6192
2026-01-30 15:06:57.96	19.68	15.42	-38.8	-39.8	22.9	0.00e+00	79	41	0	270532608	50	6247
2026-01-30 15:06:58.97	19.66	15.53	-38.7	-39.6	22.4	0.00e+00	0	41	0	272629760	50	6148
2026-01-30 15:06:59.98	19.65	15.64	-38.5	-39.4	23.0	0.00e+00	72	41	0	274726912	50	5982
2026-01-30 15:07:00.99	19.63	15.75	-38.3	-39.2	23.1	0.00e+00	0	41	0	276824064	50	5860
2026-01-30 15:07:02.00	19.62	15.86	-38.2	-39.1	23.1	0.00e+00	0	41	0	278921216	50	5815
2026-01-30 15:07:03.01	19.60	15.97	-38.3	-39.2	23.1	0.00e+00	0	41	0	279969792	50	5847
2026-01-30 15:07:04.02	19.58	16.08	-38.3	-39.2	23.1	0.00e+00	0	41	0	282066944	50	5868
2026-01-30 15:07:05.03	19.57	16.19	-38.3	-39.2	23.2	0.00e+00	12	41	0	284164096	50	5881
2026-01-30 15:07:06.04	19.55	16.30	-38.2	-39.2	23.2	0.00e+00	0	41	0	286261248	50	5836
2026-01-30 15:07:07.05	19.53	16.42	-38.3	-39.2	23.2	0.00e+00	90	41	0	288358400	50	5884
2026-01-30 15:07:08.06	19.52	16.53	-38.2	-39.1	23.4	0.00e+00	0	41	0	289406976	50	5771
2026-01-30 15:07:09.06	19.50	16.64	-38.3	-39.2	23.3	0.00e+00	0	41	0	291504128	50	5871
2026-01-30 15:07:10.07	19.48	16.76	-38.4	-39.4	23.1	0.00e+00	0	41	0	293601280	50	5978
2026-01-30 15:07:11.08	19.46	16.87	-38.4	-39.4	23.2	0.00e+00	0	41	0	295698432	50	5970
2026-01-30 15:07:12.09	19.45	16.99	-38.5	-39.5	23.0	0.00e+00	15	41	0	297795584	50	6063
2026-01-30 15:07:13.10	19.43	17.11	-38.3	-39.2	23.3	0.00e+00	0	41	0	299892736	50	5867
2026-01-30 15:07:14.11	19.41	17.22	-38.4	-39.4	23.2	0.00e+00	92	41	0	300941312	50	5986
2026-01-30 15:07:15.12	19.39	17.34	-38.4	-39.4	23.2	0.00e+00	0	41	0	303038464	50	5972
2026-01-30 15:07:16.13	19.37	17.46	-38.4	-39.3	23.2	0.00e+00	0	41	0	305135616	50	5961
2026-01-30 15:07:17.14	19.35	17.58	-38.4	-39.3	23.3	0.00e+00	0	41	0	307232768	50	5936
2026-01-30 15:07:18.15	19.34	17.70	-38.6	-39.6	22.9	0.00e+00	0	41	0	309329920	50	6131
2026-01-30 15:07:19.16	19.32	17.82	-38.4	-39.3	23.1	0.00e+00	0	41	0	310378496	50	5944
2026-01-30 15:07:20.17	19.30	17.94	-38.5	-39.4	23.1	0.00e+00	0	41	0	312475648	50	6031
2026-01-30 15:07:21.18	19.28	18.06	-38.3	-39.3	23.2	0.00e+00	92	41	0	314572800	50	5905
2026-01-30 15:07:22.19	19.26	18.18	-38.4	-39.3	23.2	0.00e+00	0	41	0	316669952	50	5922
2026-01-30 15:07:23.19	19.24	18.30	-38.3	-39.3	23.3	0.00e+00	90	41	0	318767104	50	5903
2026-01-30 15:07:24.20	19.22	18.42	-38.5	-39.5	23.1	0.00e+00	0	41	0	319815680	50	6047
2026-01-30 15:07:25.21	19.20	18.54	-38.3	-39.3	23.2	0.00e+00	0	41	0	321912832	50	5899
2026-01-30 15:07:26.23	19.18	18.67	-38.3	-39.3	23.1	0.00e+00	0	41	0	324009984	50	5925
2026-01-30 15:07:27.24	19.16	18.79	-38.3	-39.2	23.4	0.00e+00	0	41	0	326107136	50	5866
2026-01-30 15:07:28.25	19.14	18.92	-38.3	-39.3	23.3	0.00e+00	31	41	0	328204288	50	5900
2026-01-30 15:07:29.25	19.12	19.04	-38.2	-39.2	23.4	0.00e+00	0	41	0	329252864	50	5832
2026-01-30 15:07:30.26	19.10	19.17	-38.2	-39.2	23.3	0.00e+00	92	41	0	331350016	50	5848
2026-01-30 15:07:31.28	19.08	19.30	-38.3	-39.2	23.3	0.00e+00	0	41	0	333447168	50	5859
2026-01-30 15:07:32.29	19.05	19.43	-38.3	-39.3	23.2	0.00e+00	0	41	0	335544320	50	5899
2026-01-30 15:07:33.29	19.03	19.55	-38.3	-39.3	23.2	0.00e+00	0	41	0	337641472	50	5932
2026-01-30 15:07:34.31	19.01	19.68	-38.5	-39.4	23.2	0.00e+00	0	41	0	338690048	50	6010
2026-01-30 15:07:35.31	18.99	19.81	-38.6	-39.6	23.0	0.00e+00	84	41	0	340787200	50	6137
2026-01-30 15:07:36.32	18.97	19.94	-38.7	-39.7	23.0	0.00e+00	0	41	0	342884352	50	6186
2026-01-30 15:07:37.33	18.94	20.07	-38.6	-39.6	23.1	0.00e+00	81	41	0	344981504	50	6107
2026-01-30 15:07:38.34	18.92	20.21	-38.7	-39.7	23.0	0.00e+00	0	41	0	347078656	50	6196
2026-01-30 15:07:39.35	18.90	20.34	-38.7	-39.7	22.8	0.00e+00	0	41	0	348127232	50	6191
2026-01-30 15:07:40.36	18.87	20.47	-38.8	-39.7	22.9	0.00e+00	0	41	0	350224384	50	6243
2026-01-30 15:07:41.37	18.85	20.61	-38.9	-39.9	22.8	0.00e+00	0	41	0	352321536	50	6337
2026-01-30 15:07:42.38	18.83	20.74	-38.7	-39.7	23.0	0.00e+00	92	41	0	354418688	50	6193
2026-01-30 15:07:43.39	18.80	20.88	-38.7	-39.7	23.0	0.00e+00	19	41	0	356515840	50	6176
2026-01-30 15:07:44.40	18.78	21.01	-38.8	-39.8	22.9	0.00e+00	92	41	0	357564416	50	6270
2026-01-30 15:07:45.41	18.75	21.15	-38.8	-39.8	22.9	0.00e+00	0	41	0	359661568	50	6262
2026-01-30 15:07:46.42	18.73	21.29	-38.8	-39.8	23.0	0.00e+00	0	41	0	361758720	50	6257
2026-01-30 15:07:47.43	18.70	21.42	-38.9	-39.9	22.8	0.00e+00	0	41	0	363855872	50	6368
2026-01-30 15:07:48.44	18.68	21.56	-38.7	-39.7	23.0	0.00e+00	0	41	0	365953024	50	6238
2026-01-30 15:07:49.45	18.65	21.70	-38.9	-39.9	22.7	0.00e+00	35	41	0	368050176	50	6363
2026-01-30 15:07:50.46	18.63	21.84	-38.7	-39.7	23.0	0.00e+00	0	41	0	369098752	50	6211
2026-01-30 15:07:51.47	18.60	21.99	-38.7	-39.7	22.9	0.00e+00	90	41	0	371195904	50	6217
2026-01-30 15:07:52.48	18.58	22.13	-38.6	-39.6	23.1	0.00e+00	0	41	0	373293056	50	6104
2026-01-30 15:07:53.49	18.55	22.27	-38.5	-39.5	23.1	0.00e+00	0	41	0	375390208	50	6079
2026-01-30 15:07:54.50	18.52	22.41	-38.6	-39.5	23.1	0.00e+00	0	41	0	377487360	50	6102
2026-01-30 15:07:55.51	18.50	22.56	-38.7	-39.7	23.0	0.00e+00	0	41	0	378535936	50	6200
2026-01-30 15:07:56.52	18.47	22.70	-38.6	-39.6	23.1	0.00e+00	17	41	0	380633088	50	6163
2026-01-30 15:07:57.53	18.44	22.85	-38.8	-39.8	22.9	0.00e+00	0	41	0	382730240	50	6316
2026-01-30 15:07:58.54	18.41	23.00	-38.6	-39.5	23.1	0.00e+00	68	41	0	384827392	50	6085
2026-01-30 15:07:59.55	18.38	23.14	-38.7	-39.7	23.0	0.00e+00	0	41	0	386924544	50	6193
2026-01-30 15:08:00.56	18.35	23.29	-38.8	-39.7	23.0	0.00e+00	92	41	0	387973120	50	6242
2026-01-30 15:08:01.57	18.33	23.44	-38.7	-39.7	23.0	0.00e+00	0	41	0	390070272	50	6221
2026-01-30 15:08:02.58	18.30	23.59	-38.1	-39.0	23.5	0.00e+00	0	41	0	392167424	50	5727
2026-01-30 15:08:03.59	18.27	23.74	-38.3	-39.2	23.5	0.00e+00	11	41	0	394264576	50	5849
2026-01-30 15:08:04.60	18.24	23.90	-38.0	-38.9	23.5	0.00e+00	0	41	0	396361728	50	5649
2026-01-30 15:08:05.61	18.21	24.05	-38.1	-39.0	23.5	0.00e+00	92	41	0	397410304	50	5760
2026-01-30 15:08:06.62	18.18	24.20	-37.9	-38.8	23.7	0.00e+00	0	41	0	399507456	50	5610
2026-01-30 15:08:07.63	18.14	24.36	-38.0	-38.9	23.8	0.00e+00	90	41	0	401604608	50	5636
2026-01-30 15:08:08.64	18.11	24.51	-38.2	-39.1	23.5	0.00e+00	0	41	0	403701760	50	5828
2026-01-30 15:08:09.65	18.08	24.67	-38.1	-39.1	23.6	0.00e+00	0	41	0	405798912	50	5764
2026-01-30 15:08:10.66	18.05	24.83	-38.3	-39.2	23.4	0.00e+00	0	41	0	406847488	50	5861
2026-01-30 15:08:11.67	18.02	24.99	-38.3	-39.2	23.4	0.00e+00	0	41	0	408944640	50	5866
2026-01-30 15:08:12.68	17.98	25.15	-38.3	-39.2	23.4	0.00e+00	92	41	0	411041792	50	5859
2026-01-30 15:08:13.69	17.95	25.31	-38.5	-39.4	23.3	0.00e+00	0	41	0	413138944	50	6005
2026-01-30 15:08:14.70	17.92	25.47	-38.2	-39.1	23.5	0.00e+00	92	41	0	415236096	50	5824
2026-01-30 15:08:15.71	17.88	25.63	-38.0	-38.9	23.6	0.00e+00	0	41	0	416284672	50	5689
2026-01-30 15:08:16.72	17.85	25.79	-38.2	-39.1	23.6	0.00e+00	0	41	0	418381824	50	5764
2026-01-30 15:08:17.73	17.81	25.96	-38.2	-39.0	23.6	0.00e+00	0	41	0	420478976	50	5756
2026-01-30 15:08:18.74	17.78	26.12	-38.3	-39.2	23.4	0.00e+00	0	41	0	422576128	50	5845
2026-01-30 15:08:19.75	17.74	26.29	-37.9	-38.7	23.7	0.00e+00	10	41	0	424673280	50	5553
2026-01-30 15:08:20.76	17.71	26.46	-37.9	-38.7	23.7	0.00e+00	0	41	0	425721856	50	5563
2026-01-30 15:08:21.77	17.67	26.62	-38.3	-39.2	23.5	0.00e+00	90	41	0	427819008	50	5839
2026-01-30 15:08:22.78	17.64	26.79	-38.3	-39.2	23.4	0.00e+00	0	41	0	429916160	50	5886
2026-01-30 15:08:23.79	17.60	26.96	-38.3	-39.1	23.3	0.00e+00	0	41	0	432013312	50	5825
2026-01-30 15:08:24.80	17.56	27.14	-38.8	-39.7	23.1	0.00e+00	0	41	0	434110464	50	6243
2026-01-30 15:08:25.81	17.52	27.31	-38.9	-39.8	22.9	0.00e+00	0	41	0	436207616	50	6296
2026-01-30 15:08:26.82	17.48	27.48	-39.5	-40.5	22.3	0.00e+00	10	41	0	437256192	50	6809
2026-01-30 15:08:27.83	17.44	27.66	-39.2	-40.2	22.6	0.00e+00	0	41	0	439353344	50	6578
2026-01-30 15:08:28.84	17.41	27.83	-39.2	-40.2	22.7	0.00e+00	75	41	0	441450496	50	6566
2026-01-30 15:08:29.85	17.37	28.01	-39.1	-40.1	22.7	0.00e+00	0	41	0	443547648	50	6496
2026-01-30 15:08:30.86	17.32	28.19	-39.0	-40.0	22.8	0.00e+00	0	41	0	445644800	50	6443
2026-01-30 15:08:31.87	17.28	28.37	-39.2	-40.2	22.7	0.00e+00	0	41	0	446693376	50	6568
2026-01-30 15:08:32.88	17.24	28.55	-39.3	-40.3	22.6	0.00e+00	0	41	0	448790528	50	6651
2026-01-30 15:08:33.89	17.20	28.73	-38.7	-39.7	23.1	0.00e+00	60	41	0	450887680	50	6176
2026-01-30 15:08:34.90	17.16	28.91	-39.1	-40.1	22.7	0.00e+00	0	41	0	452984832	50	6487
2026-01-30 15:08:35.91	17.11	29.10	-39.3	-40.3	22.5	0.00e+00	19	41	0	455081984	50	6641
2026-01-30 15:08:36.92	17.07	29.28	-39.4	-40.4	22.6	0.00e+00	0	41	0	456130560	50	6721
2026-01-30 15:08:37.93	17.03	29.47	-39.6	-40.6	22.3	0.00e+00	0	41	0	458227712	52	6143
2026-01-30 15:08:38.94	16.98	29.66	-40.0	-41.1	21.8	0.00e+00	0	41	0	460324864	52	6505
2026-01-30 15:08:39.95	16.94	29.84	-40.3	-41.4	21.7	0.00e+00	0	41	0	462422016	52	6708
2026-01-30 15:08:40.96	16.89	30.03	-40.3	-41.4	21.7	0.00e+00	16	41	0	464519168	52	6749
2026-01-30 15:08:41.97	16.84	30.23	-40.4	-41.5	21.6	0.00e+00	0	41	0	465567744	52	6784
2026-01-30 15:08:42.98	16.80	30.42	-40.7	-41.8	21.3	0.00e+00	15	41	0	467664896	54	6298
2026-01-30 15:08:43.99	16.75	30.61	-40.8	-42.0	21.2	0.00e+00	0	41	0	469762048	54	6448
2026-01-30 15:08:45.00	16.70	30.81	-40.8	-42.0	21.2	0.00e+00	90	41	0	471859200	54	6403
2026-01-30 15:08:46.01	16.65	31.00	-41.2	-42.5	20.8	0.00e+00	0	41	0	473956352	54	6778
2026-01-30 15:08:47.02	16.60	31.20	-41.3	-42.6	20.7	0.00e+00	0	41	0	475004928	54	6865
2026-01-30 15:08:48.03	16.55	31.40	-41.3	-42.5	20.6	0.00e+00	0	41	0	477102080	54	6843
2026-01-30 15:08:49.04	16.50	31.60	-41.4	-42.7	20.6	0.00e+00	0	41	0	479199232	54	6983
2026-01-30 15:08:50.05	16.45	31.80	-41.8	-43.1	20.2	0.00e+00	65	41	0	481296384	54	7330
2026-01-30 15:08:51.06	16.40	32.00	-42.3	-43.7	19.7	0.00e+00	0	41	0	483393536	56	6992
2026-01-30 15:08:52.07	16.34	32.21	-42.7	-44.3	19.2	0.00e+00	72	41	0	484442112	56	7439
2026-01-30 15:08:53.08	16.29	32.42	-42.4	-43.8	19.3	0.00e+00	0	41	0	486539264	56	7060
2026-01-30 15:08:54.09	16.24	32.62	-41.9	-43.2	20.1	0.00e+00	0	41	0	488636416	56	6569
2026-01-30 15:08:55.10	16.18	32.83	-41.9	-43.3	20.2	0.00e+00	0	41	0	490733568	56	6643
2026-01-30 15:08:56.11	16.13	33.04	-41.7	-43.0	20.4	0.00e+00	0	41	0	492830720	56	6459
2026-01-30 15:08:57.12	16.07	33.25	-41.2	-42.4	21.0	0.00e+00	60	41	0	493879296	56	5996
2026-01-30 15:08:58.13	16.01	33.47	-41.1	-42.3	21.1	0.00e+00	0	41	0	495976448	56	5948
2026-01-30 15:08:59.14	15.95	33.68	-41.5	-42.8	20.6	0.00e+00	70	41	0	498073600	56	6264
2026-01-30 15:09:00.15	15.89	33.90	-41.7	-43.0	20.4	0.00e+00	0	41	0	500170752	56	6450
2026-01-30 15:09:01.16	15.83	34.11	-41.5	-42.8	20.6	0.00e+00	0	41	0	502267904	56	6279
2026-01-30 15:09:02.17	15.77	34.33	-40.8	-42.0	21.3	0.00e+00	0	41	0	504365056	56	5724
2026-01-30 15:09:03.18	15.71	34.55	-40.8	-42.0	21.3	0.00e+00	0	41	0	505413632	56	5720
2026-01-30 15:09:04.19	15.65	34.77	-40.7	-41.9	21.4	0.00e+00	71	41	0	507510784	54	6369
2026-01-30 15:09:05.20	15.58	35.00	-40.4	-41.5	21.7	0.00e+00	0	41	0	509607936	54	6102
2026-01-30 15:09:06.21	15.52	35.22	-40.1	-41.2	21.9	0.00e+00	92	41	0	511705088	54	5856
2026-01-30 15:09:07.22	15.45	35.45	-39.7	-40.7	22.4	0.00e+00	0	41	0	513802240	52	6203
2026-01-30 15:09:08.23	15.39	35.68	-39.5	-40.5	22.3	0.00e+00	0	41	0	514850816	52	6034
2026-01-30 15:09:09.24	15.32	35.91	-39.3	-40.3	22.9	0.00e+00	0	41	0	516947968	52	5935
2026-01-30 15:09:10.25	15.25	36.14	-38.9	-39.8	23.1	0.00e+00	0	41	0	519045120	52	5610
2026-01-30 15:09:11.26	15.18	36.37	-38.0	-38.9	23.9	0.00e+00	0	41	0	521142272	50	5643
2026-01-30 15:09:12.27	15.11	36.61	-37.6	-38.4	23.9	0.00e+00	0	41	0	523239424	48	5971
2026-01-30 15:09:13.28	15.04	36.84	-37.9	-38.7	23.8	0.00e+00	92	41	0	524288000	48	6213
2026-01-30 15:09:14.29	14.97	37.08	-37.9	-38.8	23.9	0.00e+00	0	41	0	526385152	48	6248
2026-01-30 15:09:15.30	14.89	37.32	-37.7	-38.5	24.1	0.00e+00	50	41	0	528482304	48	6098
2026-01-30 15:09:16.31	14.82	37.56	-37.3	-38.1	24.4	0.00e+00	0	41	0	530579456	48	5786
2026-01-30 15:09:17.32	14.74	37.80	-37.0	-37.8	24.7	0.00e+00	0	41	0	532676608	48	5608
2026-01-30 15:09:18.33	14.66	38.05	-37.2	-38.1	24.3	0.00e+00	16	41	0	533725184	46	6488
2026-01-30 15:09:19.34	14.59	38.29	-37.8	-38.7	24.0	0.00e+00	0	41	0	535822336	48	6182
2026-01-30 15:09:20.34	14.51	38.54	-37.6	-38.5	23.9	0.00e+00	83	41	0	537919488	48	6072
2026-01-30 15:09:21.35	14.43	38.79	-38.4	-39.4	23.3	0.00e+00	0	41	0	540016640	48	6730
2026-01-30 15:09:22.37	14.34	39.04	-39.0	-40.0	23.0	0.00e+00	92	41	0	542113792	50	6446
2026-01-30 15:09:23.37	14.26	39.30	-39.0	-40.0	22.8	0.00e+00	0	41	0	544210944	50	6448
2026-01-30 15:09:24.38	14.17	39.55	-39.3	-40.3	22.6	0.00e+00	12	41	0	545259520	50	6685
2026-01-30 15:09:25.39	14.09	39.81	-39.6	-40.7	22.3	0.00e+00	0	41	0	547356672	52	6186
2026-01-30 15:09:26.40	14.00	40.07	-39.6	-40.7	21.8	0.00e+00	0	41	0	549453824	52	6194
2026-01-30 15:09:27.41	13.91	40.33	-40.3	-41.5	21.5	0.00e+00	17	41	0	551550976	52	6825
2026-01-30 15:09:28.42	13.82	40.59	-40.5	-41.7	21.4	0.00e+00	0	41	0	552599552	54	6202
2026-01-30 15:09:29.43	13.73	40.85	-40.6	-41.8	21.4	0.00e+00	90	41	0	554696704	54	6315
2026-01-30 15:09:30.44	13.63	41.12	-40.8	-42.1	20.9	0.00e+00	15	41	0	556793856	54	6476
2026-01-30 15:09:31.45	13.53	41.39	-41.1	-42.4	20.8	0.00e+00	0	41	0	558891008	54	6737
2026-01-30 15:09:32.46	13.44	41.66	-40.9	-42.2	21.2	0.00e+00	0	41	0	560988160	54	6570
2026-01-30 15:09:33.47	13.34	41.93	-40.7	-42.0	20.9	0.00e+00	0	41	0	562036736	54	6395
2026-01-30 15:09:34.48	13.24	42.20	-40.5	-41.7	21.6	0.00e+00	85	41	0	564133888	54	6200
2026-01-30 15:09:35.49	13.13	42.48	-40.3	-41.4	21.8	0.00e+00	0	41	0	566231040	54	6014
2026-01-30 15:09:36.50	13.03	42.76	-40.7	-41.9	21.4	0.00e+00	92	41	0	568328192	54	6357
2026-01-30 15:09:37.51	12.92	43.04	-40.8	-42.0	21.2	0.00e+00	0	41	0	570425344	54	6420
2026-01-30 15:09:38.52	12.81	43.32	-40.8	-42.0	21.4	0.00e+00	0	41	0	572522496	54	6393
2026-01-30 15:09:39.53	12.70	43.60	-41.4	-42.8	20.4	0.00e+00	0	41	0	573571072	54	7022
2026-01-30 15:09:40.54	12.59	43.89	-41.6	-43.0	20.5	0.00e+00	0	41	0	575668224	54	7180
2026-01-30 15:09:41.54	12.48	44.17	-41.3	-42.7	20.5	0.00e+00	18	41	0	577765376	54	6946
2026-01-30 15:09:42.55	12.36	44.46	-40.9	-42.2	20.9	0.00e+00	0	41	0	579862528	54	6594
2026-01-30 15:09:43.56	12.24	44.76	-40.9	-42.1	21.1	0.00e+00	92	41	0	581959680	54	6511
2026-01-30 15:09:44.57	12.12	45.05	-40.8	-42.1	21.3	0.00e+00	0	41	0	583008256	54	6467
2026-01-30 15:09:45.58	12.00	45.35	-40.8	-42.0	21.4	0.00e+00	0	41	0	585105408	54	6459
2026-01-30 15:09:46.59	11.87	45.64	-41.1	-42.3	21.1	0.00e+00	0	41	0	587202560	54	6680
2026-01-30 15:09:47.60	11.74	45.94	-40.8	-42.0	21.4	0.00e+00	0	41	0	589299712	54	6438
2026-01-30 15:09:48.61	11.61	46.25	-40.4	-41.5	21.5	0.00e+00	8	41	0	591396864	54	6091
2026-01-30 15:09:49.62	11.48	46.55	-40.2	-41.3	21.8	0.00e+00	0	41	0	592445440	54	5903
2026-01-30 15:09:50.63	11.34	46.86	-40.6	-41.8	21.4	0.00e+00	92	41	0	594542592	54	6262
2026-01-30 15:09:51.64	11.20	47.16	-40.7	-41.9	20.9	0.00e+00	0	41	0	596639744	54	6363
2026-01-30 15:09:52.65	11.06	47.47	-41.0	-42.3	21.0	0.00e+00	92	41	0	598736896	54	6634
2026-01-30 15:09:53.66	10.91	47.79	-40.4	-41.6	21.6	0.00e+00	0	41	0	600834048	54	6122
2026-01-30 15:09:54.67	10.76	48.10	-39.6	-40.6	22.5	0.00e+00	0	41	0	601882624	54	5476
2026-01-30 15:09:55.68	10.61	48.42	-39.5	-40.5	22.4	0.00e+00	9	41	0	603979776	52	6090
2026-01-30 15:09:56.69	10.46	48.74	-39.2	-40.1	22.9	0.00e+00	11	41	0	606076928	52	5782
2026-01-30 15:09:57.70	10.30	49.06	-38.4	-39.3	23.4	0.00e+00	12	41	0	608174080	50	5909
2026-01-30 15:09:58.71	10.14	49.38	-38.1	-38.9	23.7	0.00e+00	0	41	0	610271232	50	5694
2026-01-30 15:09:59.72	9.98	49.70	-37.8	-38.7	23.8	0.00e+00	92	41	0	611319808	50	5507
2026-01-30 15:10:00.73	9.81	50.03	-37.9	-38.8	23.8	0.00e+00	0	41	0	613416960	50	5588
2026-01-30 15:10:01.74	9.63	50.36	-38.1	-39.0	23.7	0.00e+00	0	41	0	615514112	50	5741
2026-01-30 15:10:02.75	9.46	50.69	-38.4	-39.3	23.2	0.00e+00	0	41	0	617611264	50	5944
2026-01-30 15:10:03.76	9.28	51.02	-37.8	-38.6	23.8	0.00e+00	0	41	0	619708416	50	5485
2026-01-30 15:10:04.77	9.09	51.36	-37.6	-38.5	24.1	0.00e+00	63	41	0	620756992	48	6068
2026-01-30 15:10:05.78	8.91	51.70	-37.6	-38.5	24.1	0.00e+00	0	41	0	622854144	48	6054
2026-01-30 15:10:06.79	8.71	52.04	-37.7	-38.6	23.9	0.00e+00	62	41	0	624951296	48	6130
2026-01-30 15:10:07.80	8.52	52.38	-37.7	-38.6	23.9	0.00e+00	0	41	0	627048448	48	6151
2026-01-30 15:10:08.80	8.32	52.72	-38.0	-38.9	23.7	0.00e+00	0	41	0	629145600	48	6354
2026-01-30 15:10:09.81	8.11	53.06	-38.0	-38.9	23.8	0.00e+00	0	41	0	630194176	48	6379
2026-01-30 15:10:10.82	7.90	53.41	-37.7	-38.5	24.2	0.00e+00	0	41	0	632291328	48	6086
2026-01-30 15:10:11.83	7.68	53.76	-37.6	-38.5	24.0	0.00e+00	66	41	0	634388480	48	6049
2026-01-30 15:10:12.84	7.46	54.11	-37.5	-38.3	24.2	0.00e+00	0	41	0	636485632	48	5940
2026-01-30 15:10:13.85	7.23	54.46	-37.3	-38.2	24.4	0.00e+00	43	41	0	638582784	48	5837
2026-01-30 15:10:14.86	6.99	54.82	-37.3	-38.2	24.3	0.00e+00	0	41	0	640679936	48	5835
2026-01-30 15:10:15.87	6.75	55.18	-37.4	-38.2	24.2	0.00e+00	0	41	0	641728512	48	5896
2026-01-30 15:10:16.88	6.51	55.54	-37.5	-38.4	23.4	0.00e+00	0	41	0	643825664	48	6018
2026-01-30 15:10:17.89	6.25	55.90	-38.2	-39.1	23.7	0.00e+00	0	41	0	645922816	48	6528
2026-01-30 15:10:18.90	5.99	56.26	-38.5	-39.4	23.2	0.00e+00	11	41	0	648019968	48	6758
2026-01-30 15:10:19.91	5.73	56.62	-38.5	-39.4	23.3	0.00e+00	0	41	0	650117120	48	6737
2026-01-30 15:10:20.92	5.45	56.99	-39.0	-39.9	23.0	0.00e+00	56	41	0	651165696	50	6382
2026-01-30 15:10:21.93	5.17	57.36	-39.7	-40.8	22.3	0.00e+00	0	41	0	653262848	50	7025
2026-01-30 15:10:22.94	4.88	57.73	-39.9	-41.0	22.1	0.00e+00	0	41	0	655360000	52	6447
2026-01-30 15:10:23.95	4.58	58.10	-39.9	-41.0	21.9	0.00e+00	0	41	0	657457152	52	6436
2026-01-30 15:10:24.96	4.28	58.47	-39.3	-40.3	22.7	0.00e+00	0	41	0	659554304	52	5922
2026-01-30 15:10:25.97	3.96	58.85	-38.6	-39.5	23.1	0.00e+00	0	41	0	660602880	50	6050
2026-01-30 15:10:26.98	3.64	59.22	-38.6	-39.6	23.1	0.00e+00	0	41	0	662700032	50	6113
2026-01-30 15:10:27.99	3.31	59.60	-38.7	-39.6	23.2	0.00e+00	36	41	0	664797184	50	6144
2026-01-30 15:10:29.00	2.96	59.98	-38.1	-39.0	23.6	0.00e+00	0	41	0	666894336	50	5712
2026-01-30 15:10:30.01	2.61	60.36	-36.9	-37.7	24.7	0.00e+00	45	41	0	668991488	48	5551
2026-01-30 15:10:31.02	2.24	60.74	-36.8	-37.6	24.7	0.00e+00	0	41	0	670040064	46	6135
2026-01-30 15:10:32.03	1.87	61.13	-36.9	-37.7	24.4	0.00e+00	0	41	0	672137216	46	6244
2026-01-30 15:10:33.04	1.48	61.51	-37.5	-38.4	24.0	0.00e+00	19	41	0	674234368	46	6767
2026-01-30 15:10:34.05	1.08	61.90	-37.2	-38.1	24.3	0.00e+00	0	41	0	676331520	46	6498
2026-01-30 15:10:35.06	0.67	62.28	-37.0	-37.8	24.1	0.00e+00	22	41	0	678428672	46	6280
2026-01-30 15:10:36.06	0.24	62.66	-37.9	-38.8	23.8	0.00e+00	0	41	0	679477248	48	6252
2026-01-30 15:10:37.07	359.80	63.05	-38.3	-39.3	23.1	0.00e+00	77	41	0	681574400	48	6622
2026-01-30 15:10:38.08	359.35	63.44	-38.1	-39.1	23.6	0.00e+00	0	41	0	683671552	50	5772
2026-01-30 15:10:39.09	358.88	63.83	-37.9	-38.9	23.7	0.00e+00	0	41	0	685768704	50	5641
2026-01-30 15:10:40.10	358.39	64.22	-38.1	-39.0	23.9	0.00e+00	0	41	0	687865856	50	5752
2026-01-30 15:10:41.11	357.89	64.61	-37.8	-38.7	23.9	0.00e+00	11	41	0	688914432	48	6191
2026-01-30 15:10:42.12	357.36	65.00	-36.6	-37.4	24.8	0.00e+00	18	41	0	691011584	48	5358
2026-01-30 15:10:43.13	356.82	65.39	-35.9	-36.6	25.1	0.00e+00	0	41	0	693108736	46	5493
2026-01-30 15:10:44.14	356.27	65.78	-36.5	-37.3	24.8	0.00e+00	86	41	0	695205888	46	5925
2026-01-30 15:10:45.15	355.69	66.17	-37.8	-38.7	23.8	0.00e+00	0	41	0	697303040	46	6964
2026-01-30 15:10:46.16	355.08	66.56	-38.1	-39.0	23.6	0.00e+00	0	41	0	698351616	48	6453
2026-01-30 15:10:47.17	354.46	66.94	-38.1	-39.0	23.6	0.00e+00	0	41	0	700448768	48	6452
2026-01-30 15:10:48.18	353.81	67.33	-38.4	-39.3	23.4	0.00e+00	0	41	0	702545920	48	6630
2026-01-30 15:10:49.19	353.14	67.72	-38.8	-39.8	23.0	0.00e+00	22	41	0	704643072	50	6262
2026-01-30 15:10:50.20	352.44	68.10	-39.0	-40.0	22.9	0.00e+00	0	41	0	706740224	50	6396
2026-01-30 15:10:51.21	351.72	68.49	-38.9	-39.9	22.9	0.00e+00	91	41	0	708837376	50	6348
2026-01-30 15:10:52.22	350.96	68.87	-39.2	-40.2	22.6	0.00e+00	11	41	0	709885952	50	6593
2026-01-30 15:10:53.23	350.18	69.25	-40.1	-41.3	21.6	0.00e+00	0	41	0	711983104	52	6641
2026-01-30 15:10:54.24	349.37	69.63	-40.6	-41.8	20.6	0.00e+00	0	41	0	714080256	54	6283
2026-01-30 15:10:55.25	348.52	70.00	-40.6	-41.8	21.4	0.00e+00	0	41	0	716177408	54	6290
2026-01-30 15:10:56.26	347.63	70.38	-39.6	-40.6	22.4	0.00e+00	0	41	0	718274560	54	5483
2026-01-30 15:10:57.26	346.72	70.74	-38.4	-39.2	23.5	0.00e+00	0	41	0	719323136	50	5893
2026-01-30 15:10:58.27	345.76	71.11	-38.3	-39.2	23.5	0.00e+00	54	41	0	721420288	50	5832
2026-01-30 15:10:59.28	344.77	71.47	-38.1	-38.9	23.5	0.00e+00	0	41	0	723517440	50	5672
2026-01-30 15:11:00.29	343.73	71.83	-37.9	-38.7	23.8	0.00e+00	0	41	0	725614592	48	6209
2026-01-30 15:11:01.30	342.64	72.18	-38.3	-39.2	23.3	0.00e+00	0	41	0	727711744	48	6603
2026-01-30 15:11:02.31	341.51	72.53	-40.4	-41.6	21.5	0.00e+00	0	41	0	728760320	52	6851
2026-01-30 15:11:03.32	340.33	72.87	-41.1	-42.3	21.0	0.00e+00	0	41	0	730857472	54	6670
2026-01-30 15:11:04.33	339.10	73.21	-40.7	-41.9	20.8	0.00e+00	0	41	0	732954624	54	6388
2026-01-30 15:11:05.34	337.82	73.54	-40.0	-41.2	21.9	0.00e+00	71	41	0	735051776	54	5829
2026-01-30 15:11:06.35	336.49	73.86	-38.5	-39.4	23.3	0.00e+00	0	41	0	737148928	50	6008
2026-01-30 15:11:07.36	335.09	74.17	-38.1	-38.9	23.5	0.00e+00	92	41	0	738197504	48	6375
2026-01-30 15:11:08.37	333.64	74.48	-38.7	-39.6	23.0	0.00e+00	0	41	0	740294656	48	6921
2026-01-30 15:11:09.38	332.13	74.77	-40.5	-41.8	21.4	0.00e+00	0	41	0	742391808	52	7024
2026-01-30 15:11:10.39	330.56	75.06	-39.4	-40.4	22.5	0.00e+00	0	41	0	744488960	52	6007
2026-01-30 15:11:11.40	328.93	75.33	-39.6	-40.7	22.5	0.00e+00	22	41	0	746586112	52	6186
2026-01-30 15:11:12.41	327.23	75.60	-40.1	-41.3	21.7	0.00e+00	92	41	0	747634688	52	6673
2026-01-30 15:11:13.42	325.47	75.85	-40.2	-41.4	21.8	0.00e+00	0	41	0	749731840	52	6704
2026-01-30 15:11:14.43	323.64	76.09	-39.8	-41.0	22.1	0.00e+00	92	41	0	751828992	52	6406
2026-01-30 15:11:15.44	321.75	76.31	-39.5	-40.5	22.5	0.00e+00	0	41	0	753926144	52	6088
2026-01-30 15:11:16.45	319.79	76.52	-38.6	-39.5	23.2	0.00e+00	0	41	0	756023296	50	6087
2026-01-30 15:11:17.45	317.80	76.72	-38.9	-39.9	23.0	0.00e+00	0	41	0	757071872	50	6342
2026-01-30 15:11:18.46	315.72	76.90	-39.6	-40.6	22.3	0.00e+00	0	41	0	759169024	52	6171
2026-01-30 15:11:19.47	313.59	77.06	-39.8	-40.8	22.2	0.00e+00	66	41	0	761266176	52	6285
2026-01-30 15:11:20.48	311.41	77.20	-40.0	-41.1	21.8	0.00e+00	0	41	0	763363328	52	6516
2026-01-30 15:11:21.49	309.18	77.33	-41.1	-42.3	21.1	0.00e+00	92	41	0	765460480	54	6684
2026-01-30 15:11:22.50	306.91	77.43	-40.9	-42.1	21.0	0.00e+00	0	41	0	766509056	54	6525
2026-01-30 15:11:23.51	304.60	77.52	-40.7	-41.9	21.4	0.00e+00	0	41	0	768606208	54	6342
2026-01-30 15:11:24.52	302.26	77.59	-40.1	-41.1	22.1	0.00e+00	0	41	0	770703360	54	5794
2026-01-30 15:11:25.53	299.89	77.63	-37.8	-38.6	23.8	0.00e+00	0	41	0	772800512	50	5481
2026-01-30 15:11:26.54	297.52	77.66	-39.1	-40.1	22.6	0.00e+00	59	41	0	774897664	50	6483
2026-01-30 15:11:27.55	295.14	77.66	-39.5	-40.5	22.4	0.00e+00	0	41	0	775946240	52	6042
2026-01-30 15:11:28.56	292.76	77.65	-38.9	-39.9	22.8	0.00e+00	67	41	0	778043392	52	5635
2026-01-30 15:11:29.57	290.39	77.61	-41.1	-42.4	20.5	0.00e+00	0	41	0	780140544	52	7587
2026-01-30 15:11:30.58	288.04	77.55	-40.9	-42.2	21.1	0.00e+00	0	41	0	782237696	56	5883
2026-01-30 15:11:31.59	285.71	77.48	-38.7	-39.7	23.2	0.00e+00	0	41	0	784334848	52	5533
2026-01-30 15:11:32.60	283.42	77.38	-39.0	-40.0	22.8	0.00e+00	0	41	0	786432000	50	6447
2026-01-30 15:11:33.61	281.17	77.26	-39.1	-40.1	22.1	0.00e+00	56	41	0	787480576	50	6527
2026-01-30 15:11:34.62	278.96	77.13	-38.7	-39.7	22.7	0.00e+00	0	41	0	789577728	50	6209
2026-01-30 15:11:35.63	276.80	76.97	-40.8	-42.1	21.1	0.00e+00	83	41	0	791674880	52	7278
2026-01-30 15:11:36.64	274.70	76.80	-40.8	-42.1	21.1	0.00e+00	0	41	0	793772032	54	6509
2026-01-30 15:11:37.65	272.66	76.62	-40.0	-41.1	22.0	0.00e+00	92	41	0	795869184	54	5798
2026-01-30 15:11:38.65	270.69	76.41	-39.9	-41.0	22.1	0.00e+00	0	41	0	796917760	52	6428
2026-01-30 15:11:39.67	268.75	76.19	-38.0	-38.8	23.7	0.00e+00	0	41	0	799014912	50	5598
2026-01-30 15:11:40.68	266.89	75.96	-37.6	-38.4	23.8	0.00e+00	15	41	0	801112064	48	6026
2026-01-30 15:11:41.69	265.10	75.72	-40.6	-41.8	20.8	0.00e+00	0	41	0	803209216	52	7063
2026-01-30 15:11:42.70	263.37	75.46	-41.1	-42.3	21.1	0.00e+00	92	41	0	805306368	54	6691
2026-01-30 15:11:43.70	261.72	75.19	-40.0	-41.0	21.9	0.00e+00	0	41	0	806354944	52	6463
2026-01-30 15:11:44.71	260.12	74.91	-41.9	-43.4	19.8	0.00e+00	92	41	0	808452096	54	7545
2026-01-30 15:11:45.72	258.58	74.62	-40.9	-42.1	21.3	0.00e+00	0	41	0	810549248	56	5809
2026-01-30 15:11:46.73	257.10	74.32	-39.1	-40.1	22.7	0.00e+00	0	41	0	812646400	52	5804
2026-01-30 15:11:47.74	255.68	74.01	-40.0	-41.2	21.8	0.00e+00	0	41	0	814743552	52	6577
2026-01-30 15:11:48.75	254.32	73.69	-42.3	-43.9	19.5	0.00e+00	0	41	0	815792128	56	7106
2026-01-30 15:11:49.76	253.01	73.36	-41.4	-42.7	20.5	0.00e+00	12	41	0	817889280	56	6203
2026-01-30 15:11:50.77	251.76	73.03	-40.9	-42.1	21.2	0.00e+00	0	41	0	819986432	56	5768
2026-01-30 15:11:51.78	250.55	72.69	-41.1	-42.4	20.9	0.00e+00	92	41	0	822083584	56	5979
2026-01-30 15:11:52.79	249.40	72.34	-41.4	-42.6	20.6	0.00e+00	0	41	0	824180736	54	6925
2026-01-30 15:11:53.80	248.29	71.99	-42.3	-43.9	19.5	0.00e+00	0	41	0	825229312	56	7104
2026-01-30 15:11:54.81	247.23	71.64	-42.9	-44.6	18.9	0.00e+00	0	41	0	827326464	58	6893
2026-01-30 15:11:55.82	246.21	71.27	-42.6	-44.2	19.0	0.00e+00	0	41	0	829423616	58	6584
2026-01-30 15:11:56.83	245.24	70.91	-42.6	-44.1	19.6	0.00e+00	22	41	0	831520768	58	6503
2026-01-30 15:11:57.84	244.30	70.54	-42.3	-43.8	19.2	0.00e+00	0	41	0	833617920	56	7086
2026-01-30 15:11:58.85	243.40	70.17	-44.2	-46.6	16.8	0.00e+00	92	41	0	834666496	60	7698
2026-01-30 15:11:59.86	242.53	69.79	-42.4	-43.9	19.7	0.00e+00	0	41	0	836763648	58	6371
2026-01-30 15:12:00.86	241.71	69.42	-41.2	-42.4	21.1	0.00e+00	0	41	0	838860800	56	5993
2026-01-30 15:12:01.87	240.91	69.04	-41.8	-43.2	20.3	0.00e+00	0	41	0	840957952	56	6556
2026-01-30 15:12:02.88	240.14	68.66	-41.1	-42.3	21.3	0.00e+00	0	41	0	843055104	56	5909
2026-01-30 15:12:03.89	239.40	68.28	-40.9	-42.1	21.0	0.00e+00	22	41	0	844103680	56	5795
2026-01-30 15:12:04.90	238.69	67.89	-41.4	-42.7	20.3	0.00e+00	0	41	0	846200832	54	6994
2026-01-30 15:12:05.91	238.01	67.50	-39.8	-40.8	22.2	0.00e+00	90	41	0	848297984	54	5606
2026-01-30 15:12:06.92	237.35	67.12	-38.9	-39.9	22.9	0.00e+00	0	41	0	850395136	52	5659
2026-01-30 15:12:07.93	236.71	66.73	-40.0	-41.1	21.9	0.00e+00	7	41	0	852492288	52	6521
2026-01-30 15:12:08.94	236.10	66.34	-39.6	-40.7	22.4	0.00e+00	0	41	0	854589440	52	6175
2026-01-30 15:12:09.94	235.52	65.95	-38.5	-39.4	23.3	0.00e+00	0	41	0	855638016	50	6023
2026-01-30 15:12:10.95	234.95	65.56	-37.8	-38.6	23.8	0.00e+00	0	41	0	857735168	48	6167
2026-01-30 15:12:11.96	234.40	65.17	-38.1	-39.0	23.6	0.00e+00	0	41	0	859832320	48	6439
2026-01-30 15:12:12.97	233.87	64.78	-36.9	-37.7	24.4	0.00e+00	56	41	0	861929472	48	5559
2026-01-30 15:12:13.98	233.35	64.39	-36.4	-37.2	25.0	0.00e+00	0	41	0	864026624	46	5845
2026-01-30 15:12:14.99	232.86	64.00	-35.7	-36.4	25.3	0.00e+00	53	41	0	865075200	44	6013
2026-01-30 15:12:16.00	232.38	63.61	-35.2	-35.9	25.3	0.00e+00	0	41	0	867172352	44	5695
2026-01-30 15:12:17.00	231.92	63.22	-37.2	-38.1	23.8	0.00e+00	0	41	0	869269504	46	6492
2026-01-30 15:12:18.01	231.47	62.84	-37.6	-38.5	24.0	0.00e+00	0	41	0	871366656	48	6054
2026-01-30 15:12:19.02	231.04	62.45	-37.3	-38.1	24.3	0.00e+00	0	41	0	872415232	48	5796
2026-01-30 15:12:20.03	230.62	62.06	-38.9	-39.9	22.7	0.00e+00	46	41	0	874512384	50	6319
2026-01-30 15:12:21.04	230.21	61.67	-40.0	-41.1	22.1	0.00e+00	0	41	0	876609536	52	6516
2026-01-30 15:12:22.05	229.82	61.29	-40.8	-42.1	21.1	0.00e+00	92	41	0	878706688	52	7319
2026-01-30 15:12:23.06	229.44	60.90	-41.8	-43.2	20.1	0.00e+00	0	41	0	880803840	54	7416
2026-01-30 15:12:24.06	229.07	60.53	-42.8	-44.5	19.5	0.00e+00	0	41	0	882900992	60	6081
2026-01-30 15:12:25.07	228.71	60.14	-42.0	-43.5	19.9	0.00e+00	0	41	0	883949568	56	6796
2026-01-30 15:12:26.08	228.36	59.76	-43.5	-45.6	17.8	0.00e+00	0	41	0	886046720	58	7696
2026-01-30 15:12:27.09	228.02	59.38	-44.1	-46.4	17.3	0.00e+00	20	41	0	888143872	60	7552
2026-01-30 15:12:28.10	227.69	59.01	-42.8	-44.4	19.1	0.00e+00	0	41	0	890241024	60	5994
2026-01-30 15:12:29.11	227.37	58.63	-42.3	-43.7	19.7	0.00e+00	92	41	0	892338176	56	6992
2026-01-30 15:12:30.12	227.06	58.25	-39.7	-40.7	22.3	0.00e+00	0	41	0	893386752	54	5540
2026-01-30 15:12:31.13	226.76	57.88	-39.6	-40.6	22.5	0.00e+00	0	41	0	895483904	52	6141
2026-01-30 15:12:32.14	226.47	57.51	-38.8	-39.8	23.0	0.00e+00	0	41	0	897581056	52	5585
2026-01-30 15:12:33.15	226.18	57.14	-39.5	-40.5	22.3	0.00e+00	0	41	0	899678208	52	6097
2026-01-30 15:12:34.16	225.90	56.77	-39.4	-40.5	22.5	0.00e+00	52	41	0	901775360	52	6044
2026-01-30 15:12:35.17	225.63	56.41	-38.9	-39.9	22.8	0.00e+00	0	41	0	902823936	52	5675
2026-01-30 15:12:36.18	225.37	56.04	-38.1	-39.0	23.4	0.00e+00	90	41	0	904921088	50	5709
2026-01-30 15:12:37.19	225.11	55.68	-38.1	-39.0	23.3	0.00e+00	0	41	0	907018240	48	6442
2026-01-30 15:12:38.20	224.86	55.32	-38.5	-39.5	23.5	0.00e+00	0	41	0	909115392	48	6783
2026-01-30 15:12:39.21	224.62	54.96	-38.0	-38.9	23.7	0.00e+00	0	41	0	911212544	48	6388
2026-01-30 15:12:40.22	224.38	54.60	-37.9	-38.8	23.7	0.00e+00	0	41	0	912261120	48	6258
2026-01-30 15:12:41.23	224.15	54.25	-38.3	-39.3	23.3	0.00e+00	36	41	0	914358272	48	6655
2026-01-30 15:12:42.24	223.92	53.89	-38.9	-39.9	22.8	0.00e+00	0	41	0	916455424	50	6367
2026-01-30 15:12:43.25	223.70	53.54	-39.0	-40.1	22.8	0.00e+00	54	41	0	918552576	50	6474
2026-01-30 15:12:44.26	223.49	53.19	-38.0	-38.9	23.6	0.00e+00	0	41	0	920649728	50	5681
2026-01-30 15:12:45.27	223.28	52.84	-37.8	-38.8	23.8	0.00e+00	41	41	0	921698304	48	6251
2026-01-30 15:12:46.28	223.07	52.50	-38.7	-39.8	23.1	0.00e+00	0	41	0	923795456	48	7019
2026-01-30 15:12:47.28	222.88	52.16	-38.8	-39.8	23.0	0.00e+00	0	41	0	925892608	50	6287
2026-01-30 15:12:48.29	222.68	51.82	-39.2	-40.2	22.7	0.00e+00	0	41	0	927989760	50	6563
2026-01-30 15:12:49.30	222.49	51.48	-39.7	-40.8	22.2	0.00e+00	0	41	0	930086912	52	6314
2026-01-30 15:12:50.31	222.30	51.14	-40.7	-42.0	21.3	0.00e+00	86	41	0	931135488	54	6411
2026-01-30 15:12:51.32	222.12	50.81	-41.0	-42.3	20.9	0.00e+00	0	41	0	933232640	54	6657
2026-01-30 15:12:52.33	221.94	50.47	-41.6	-43.0	20.5	0.00e+00	92	41	0	935329792	54	7201
2026-01-30 15:12:53.34	221.77	50.14	-40.0	-41.1	21.9	0.00e+00	0	41	0	937426944	54	5791
2026-01-30 15:12:54.35	221.60	49.81	-39.4	-40.4	22.6	0.00e+00	0	41	0	939524096	52	6023
2026-01-30 15:12:55.36	221.43	49.49	-39.3	-40.4	22.5	0.00e+00	14	41	0	940572672	52	5986
2026-01-30 15:12:56.37	221.27	49.16	-40.3	-41.4	21.6	0.00e+00	17	41	0	942669824	52	6769
2026-01-30 15:12:57.38	221.11	48.84	-39.9	-41.0	22.1	0.00e+00	92	41	0	944766976	52	6419
2026-01-30 15:12:58.39	220.95	48.52	-40.0	-41.1	21.8	0.00e+00	17	41	0	946864128	52	6470
2026-01-30 15:12:59.40	220.80	48.20	-39.2	-40.1	22.7	0.00e+00	92	41	0	948961280	52	5828
2026-01-30 15:13:00.41	220.65	47.89	-39.7	-40.8	22.2	0.00e+00	0	41	0	951058432	52	6262
2026-01-30 15:13:01.42	220.50	47.57	-39.5	-40.5	22.5	0.00e+00	15	41	0	952107008	52	6064
2026-01-30 15:13:02.43	220.36	47.26	-40.3	-41.4	21.7	0.00e+00	0	41	0	954204160	52	6716
2026-01-30 15:13:03.44	220.22	46.95	-40.1	-41.2	22.1	0.00e+00	0	41	0	956301312	52	6555
2026-01-30 15:13:04.44	220.08	46.64	-40.4	-41.5	21.7	0.00e+00	73	41	0	958398464	52	6799
2026-01-30 15:13:05.45	219.95	46.34	-40.8	-42.0	21.3	0.00e+00	0	41	0	960495616	52	7227
2026-01-30 15:13:06.46	219.81	46.04	-41.5	-42.8	20.3	0.00e+00	53	41	0	961544192	54	7070
2026-01-30 15:13:07.48	219.68	45.73	-41.9	-43.3	20.3	0.00e+00	0	41	0	963641344	56	6688
2026-01-30 15:13:08.48	219.55	45.43	-40.3	-41.4	21.9	0.00e+00	0	41	0	965738496	54	6009
2026-01-30 15:13:09.49	219.43	45.14	-39.0	-39.9	22.6	0.00e+00	0	41	0	967835648	52	5692
2026-01-30 15:13:10.50	219.31	44.84	-38.7	-39.6	23.1	0.00e+00	0	41	0	969932800	50	6141
2026-01-30 15:13:11.51	219.19	44.55	-39.4	-40.4	22.5	0.00e+00	71	41	0	970981376	50	6721
2026-01-30 15:13:12.52	219.07	44.26	-40.2	-41.3	21.4	0.00e+00	0	41	0	973078528	52	6686
2026-01-30 15:13:13.53	218.95	43.97	-41.1	-42.4	20.8	0.00e+00	61	41	0	975175680	54	6702
2026-01-30 15:13:14.54	218.84	43.68	-40.7	-41.8	21.3	0.00e+00	0	41	0	977272832	54	6299
2026-01-30 15:13:15.55	218.73	43.39	-40.7	-41.9	21.3	0.00e+00	0	41	0	979369984	54	6328
2026-01-30 15:13:16.56	218.62	43.11	-40.7	-41.8	21.5	0.00e+00	0	41	0	980418560	54	6275
2026-01-30 15:13:17.57	218.51	42.83	-41.3	-42.5	20.7	0.00e+00	0	41	0	982515712	54	6846
2026-01-30 15:13:18.58	218.40	42.55	-40.5	-41.6	21.6	0.00e+00	76	41	0	984612864	54	6143
2026-01-30 15:13:19.58	218.30	42.27	-39.7	-40.8	22.3	0.00e+00	0	41	0	986710016	54	5583
2026-01-30 15:13:20.59	218.20	42.00	-39.5	-40.6	22.4	0.00e+00	92	41	0	988807168	52	6136
2026-01-30 15:13:21.60	218.10	41.73	-40.8	-42.1	21.2	0.00e+00	0	41	0	989855744	52	7304
2026-01-30 15:13:22.61	218.00	41.45	-41.4	-42.8	20.7	0.00e+00	87	41	0	991952896	56	6260
2026-01-30 15:13:23.62	217.90	41.18	-43.2	-45.0	18.6	0.00e+00	0	41	0	994050048	58	7217
2026-01-30 15:13:24.63	217.81	40.92	-42.7	-44.3	19.3	0.00e+00	0	41	0	996147200	58	6640
2026-01-30 15:13:25.64	217.71	40.65	-41.9	-43.2	20.4	0.00e+00	0	41	0	998244352	56	6605
2026-01-30 15:13:26.64	217.62	40.39	-39.6	-40.7	22.5	0.00e+00	0	41	0	999292928	54	5508
2026-01-30 15:13:27.65	217.53	40.13	-39.3	-40.3	22.6	0.00e+00	43	41	0	1001390080	52	5941
2026-01-30 15:13:28.66	217.44	39.87	-39.6	-40.6	22.5	0.00e+00	0	41	0	1003487232	52	6149
2026-01-30 15:13:29.67	217.35	39.61	-39.7	-40.8	22.2	0.00e+00	90	41	0	1005584384	52	6279
2026-01-30 15:13:30.68	217.27	39.35	-39.6	-40.7	22.5	0.00e+00	0	41	0	1007681536	52	6192
2026-01-30 15:13:31.69	217.18	39.09	-40.0	-41.1	21.9	0.00e+00	0	41	0	1008730112	52	6521
2026-01-30 15:13:32.69	217.10	38.84	-40.8	-42.0	21.3	0.00e+00	0	41	0	1010827264	52	7221
2026-01-30 15:13:33.70	217.02	38.59	-39.8	-40.9	22.0	0.00e+00	0	41	0	1012924416	52	6344
2026-01-30 15:13:34.71	216.94	38.34	-40.2	-41.4	21.8	0.00e+00	88	41	0	1015021568	52	6719
2026-01-30 15:13:35.72	216.86	38.09	-40.2	-41.3	21.8	0.00e+00	0	41	0	1017118720	52	6655
2026-01-30 15:13:36.73	216.78	37.85	-40.1	-41.2	21.9	0.00e+00	92	41	0	1019215872	52	6601
2026-01-30 15:13:37.74	216.70	37.60	-40.0	-41.1	22.1	0.00e+00	0	41	0	1020264448	52	6469
2026-01-30 15:13:38.75	216.62	37.36	-40.7	-41.9	21.4	0.00e+00	0	41	0	1022361600	52	7115
2026-01-30 15:13:39.76	216.55	37.12	-40.4	-41.5	21.7	0.00e+00	0	41	0	1024458752	52	6839
2026-01-30 15:13:40.77	216.48	36.88	-39.9	-41.0	22.1	0.00e+00	0	41	0	1026555904	52	6441
2026-01-30 15:13:41.78	216.40	36.64	-39.8	-40.9	22.3	0.00e+00	10	41	0	1028653056	52	6338
2026-01-30 15:13:42.79	216.33	36.41	-39.6	-40.6	22.5	0.00e+00	0	41	0	1029701632	52	6143
2026-01-30 15:13:43.80	216.26	36.17	-40.1	-41.2	22.2	0.00e+00	91	41	0	1031798784	52	6553
2026-01-30 15:13:44.80	216.19	35.94	-40.3	-41.4	21.8	0.00e+00	0	41	0	1033895936	52	6762
2026-01-30 15:13:45.81	216.12	35.71	-41.2	-42.5	20.8	0.00e+00	79	41	0	1035993088	54	6772
2026-01-30 15:13:46.82	216.06	35.48	-41.3	-42.5	21.0	0.00e+00	0	41	0	1038090240	56	6095
2026-01-30 15:13:47.83	215.99	35.25	-41.7	-43.0	20.4	0.00e+00	0	41	0	1039138816	56	6452
2026-01-30 15:13:48.84	215.93	35.03	-42.1	-43.6	20.1	0.00e+00	23	41	0	1041235968	56	6860
2026-01-30 15:13:49.85	215.86	34.80	-41.9	-43.3	20.1	0.00e+00	0	41	0	1043333120	56	6616
2026-01-30 15:13:50.86	215.80	34.58	-41.1	-42.3	21.2	0.00e+00	84	41	0	1045430272	56	5925
2026-01-30 15:13:51.87	215.74	34.36	-40.8	-42.0	21.3	0.00e+00	0	41	0	1047527424	54	6419
2026-01-30 15:13:52.88	215.67	34.14	-40.0	-41.1	21.9	0.00e+00	42	41	0	1048576000	54	5784
2026-01-30 15:13:53.89	215.61	33.92	-39.8	-40.8	22.2	0.00e+00	0	41	0	1050673152	54	5629
2026-01-30 15:13:54.90	215.55	33.70	-39.6	-40.6	22.4	0.00e+00	0	41	0	1052770304	52	6152
2026-01-30 15:13:55.91	215.49	33.49	-39.5	-40.5	22.6	0.00e+00	12	41	0	1054867456	52	6045
2026-01-30 15:13:56.93	215.43	33.27	-39.5	-40.5	22.2	0.00e+00	0	41	0	1056964608	52	6046
2026-01-30 15:13:57.94	215.38	33.06	-39.5	-40.4	22.6	0.00e+00	91	41	0	1058013184	52	6013
2026-01-30 15:13:58.94	215.32	32.85	-39.6	-40.5	22.6	0.00e+00	0	41	0	1060110336	52	6094
2026-01-30 15:13:59.95	215.26	32.64	-39.8	-40.8	22.2	0.00e+00	92	41	0	1062207488	52	6313
2026-01-30 15:14:00.95	215.21	32.43	-40.3	-41.3	21.8	0.00e+00	0	41	0	1064304640	52	6686
2026-01-30 15:14:01.96	215.16	32.22	-40.4	-41.5	21.7	0.00e+00	0	41	0	1066401792	52	6781
2026-01-30 15:14:02.97	215.10	32.02	-40.9	-42.0	21.2	0.00e+00	0	41	0	1067450368	54	6453
2026-01-30 15:14:03.98	215.05	31.81	-41.3	-42.6	20.6	0.00e+00	0	41	0	1069547520	54	6849
2026-01-30 15:14:04.99	215.00	31.61	-41.9	-43.2	20.3	0.00e+00	92	41	0	1071644672	56	6572
2026-01-30 15:14:06.00	214.94	31.41	-42.0	-43.4	20.1	0.00e+00	0	41	0	1073741824	56	6712
2026-01-30 15:14:07.01	214.89	31.21	-41.8	-43.1	20.4	0.00e+00	92	41	0	1075838976	56	6467
2026-01-30 15:14:08.02	214.84	31.01	-41.7	-43.0	20.5	0.00e+00	0	41	0	1076887552	56	6444
2026-01-30 15:14:09.03	214.79	30.81	-41.2	-42.4	21.0	0.00e+00	0	41	0	1078984704	56	6009
2026-01-30 15:14:10.04	214.74	30.62	-40.5	-41.6	21.6	0.00e+00	0	41	0	1081081856	54	6130
2026-01-30 15:14:11.05	214.70	30.42	-40.1	-41.1	22.1	0.00e+00	0	41	0	1083179008	54	5817
2026-01-30 15:14:12.06	214.65	30.23	-40.1	-41.1	22.2	0.00e+00	15	41	0	1085276160	52	6520
2026-01-30 15:14:13.06	214.60	30.04	-39.7	-40.6	22.5	0.00e+00	0	41	0	1086324736	52	6168
2026-01-30 15:14:14.07	214.56	29.85	-39.5	-40.5	22.5	0.00e+00	92	41	0	1088421888	52	6071
2026-01-30 15:14:15.08	214.51	29.66	-39.7	-40.7	22.4	0.00e+00	0	41	0	1090519040	52	6185
2026-01-30 15:14:16.09	214.46	29.47	-39.6	-40.6	22.5	0.00e+00	0	41	0	1092616192	52	6116
2026-01-30 15:14:17.10	214.42	29.28	-39.8	-40.9	22.1	0.00e+00	0	41	0	1094713344	52	6318
2026-01-30 15:14:18.11	214.37	29.10	-39.9	-40.9	22.2	0.00e+00	0	41	0	1095761920	52	6361
2026-01-30 15:14:19.12	214.33	28.91	-39.9	-40.9	22.1	0.00e+00	16	41	0	1097859072	52	6385
2026-01-30 15:14:20.13	214.29	28.73	-39.9	-41.0	22.0	0.00e+00	0	41	0	1099956224	52	6434
2026-01-30 15:14:21.14	214.25	28.54	-39.3	-40.3	22.8	0.00e+00	81	41	0	1102053376	52	5923
2026-01-30 15:14:22.15	214.20	28.36	-39.2	-40.2	22.7	0.00e+00	0	41	0	1104150528	52	5848
2026-01-30 15:14:23.16	214.16	28.18	-39.0	-39.9	23.0	0.00e+00	85	41	0	1105199104	52	5677
2026-01-30 15:14:24.17	214.12	28.00	-38.9	-39.8	23.1	0.00e+00	0	41	0	1107296256	52	5623
2026-01-30 15:14:25.18	214.08	27.83	-39.0	-39.9	22.9	0.00e+00	0	41	0	1109393408	50	6364
2026-01-30 15:14:26.19	214.04	27.65	-39.5	-40.5	22.5	0.00e+00	57	41	0	1111490560	50	6824
2026-01-30 15:14:27.20	214.00	27.47	-40.0	-41.0	22.1	0.00e+00	0	41	0	1113587712	52	6452
2026-01-30 15:14:28.21	213.96	27.30	-40.2	-41.3	21.8	0.00e+00	92	41	0	1115684864	52	6680
2026-01-30 15:14:29.22	213.92	27.12	-40.8	-42.0	21.3	0.00e+00	0	41	0	1116733440	52	7195
2026-01-30 15:14:30.23	213.88	26.95	-40.8	-42.0	21.3	0.00e+00	92	41	0	1118830592	54	6399
2026-01-30 15:14:31.24	213.85	26.78	-40.9	-42.1	21.2	0.00e+00	0	41	0	1120927744	54	6494
2026-01-30 15:14:32.25	213.81	26.61	-40.5	-41.7	21.5	0.00e+00	0	41	0	1123024896	54	6228
2026-01-30 15:14:33.26	213.77	26.44	-39.6	-40.7	22.4	0.00e+00	0	41	0	1125122048	52	6203
2026-01-30 15:14:34.27	213.73	26.27	-39.3	-40.3	22.6	0.00e+00	0	41	0	1126170624	52	5920
2026-01-30 15:14:35.28	213.70	26.10	-39.1	-40.1	22.8	0.00e+00	7	41	0	1128267776	52	5804
2026-01-30 15:14:36.28	213.66	25.94	-38.8	-39.7	23.1	0.00e+00	0	41	0	1130364928	50	6239
2026-01-30 15:14:37.29	213.63	25.78	-38.6	-39.6	23.2	0.00e+00	88	41	0	1132462080	50	6116
2026-01-30 15:14:38.30	213.59	25.61	-38.5	-39.5	23.3	0.00e+00	0	41	0	1134559232	50	6043
2026-01-30 15:14:39.31	213.56	25.45	-38.4	-39.3	23.4	0.00e+00	0	41	0	1135607808	50	5945
2026-01-30 15:14:40.32	213.52	25.29	-38.5	-39.4	23.3	0.00e+00	0	41	0	1137704960	50	5998
2026-01-30 15:14:41.33	213.49	25.12	-38.6	-39.6	23.1	0.00e+00	0	41	0	1139802112	50	6124
2026-01-30 15:14:42.34	213.46	24.96	-38.7	-39.7	22.9	0.00e+00	88	41	0	1141899264	50	6184
2026-01-30 15:14:43.35	213.42	24.80	-38.8	-39.8	23.1	0.00e+00	0	41	0	1143996416	50	6262
2026-01-30 15:14:44.36	213.39	24.65	-38.9	-39.9	22.8	0.00e+00	88	41	0	1145044992	50	6353
2026-01-30 15:14:45.36	213.36	24.49	-38.8	-39.8	23.0	0.00e+00	13	41	0	1147142144	50	6287
2026-01-30 15:14:46.37	213.33	24.33	-38.8	-39.7	23.1	0.00e+00	0	41	0	1149239296	50	6223
2026-01-30 15:14:47.38	213.29	24.18	-38.8	-39.8	23.0	0.00e+00	0	41	0	1151336448	50	6272
2026-01-30 15:14:48.39	213.26	24.02	-38.7	-39.7	23.1	0.00e+00	21	41	0	1153433600	50	6191
2026-01-30 15:14:49.40	213.23	23.87	-38.8	-39.7	23.0	0.00e+00	11	41	0	1154482176	50	6233
2026-01-30 15:14:50.40	213.20	23.72	-38.9	-39.8	23.0	0.00e+00	0	41	0	1156579328	50	6310
2026-01-30 15:14:51.41	213.17	23.57	-38.8	-39.7	23.0	0.00e+00	90	41	0	1158676480	50	6220
2026-01-30 15:14:52.42	213.14	23.41	-39.0	-40.0	22.8	0.00e+00	18	41	0	1160773632	50	6446
2026-01-30 15:14:53.43	213.11	23.26	-39.1	-40.1	22.7	0.00e+00	0	41	0	1162870784	50	6538
2026-01-30 15:14:54.44	213.08	23.11	-39.2	-40.2	22.7	0.00e+00	0	41	0	1163919360	50	6606
2026-01-30 15:14:55.45	213.05	22.97	-39.2	-40.2	22.7	0.00e+00	0	41	0	1166016512	50	6606
2026-01-30 15:14:56.46	213.03	22.82	-39.3	-40.3	22.5	0.00e+00	13	41	0	1168113664	50	6649
2026-01-30 15:14:57.47	213.00	22.67	-39.1	-40.1	22.7	0.00e+00	0	41	0	1170210816	50	6530
2026-01-30 15:14:58.48	212.97	22.53	-39.3	-40.4	22.5	0.00e+00	91	41	0	1172307968	50	6739
2026-01-30 15:14:59.49	212.94	22.38	-39.6	-40.7	22.2	0.00e+00	0	41	0	1173356544	50	6985
2026-01-30 15:15:00.50	212.91	22.24	-39.6	-40.7	22.4	0.00e+00	19	41	0	1175453696	50	6983
2026-01-30 15:15:01.51	212.89	22.09	-39.4	-40.5	22.5	0.00e+00	0	41	0	1177550848	50	6805
2026-01-30 15:15:02.52	212.86	21.95	-39.5	-40.5	22.4	0.00e+00	0	41	0	1179648000	50	6847
2026-01-30 15:15:03.53	212.83	21.81	-39.5	-40.6	22.4	0.00e+00	14	41	0	1181745152	50	6881
2026-01-30 15:15:04.54	212.81	21.67	-39.7	-40.9	22.0	0.00e+00	0	41	0	1183842304	52	6329
2026-01-30 15:15:05.55	212.78	21.53	-39.7	-40.8	22.2	0.00e+00	92	41	0	1184890880	52	6287
2026-01-30 15:15:06.56	212.75	21.39	-40.0	-41.2	21.9	0.00e+00	0	41	0	1186988032	52	6564
2026-01-30 15:15:07.56	212.73	21.25	-40.1	-41.2	21.9	0.00e+00	90	41	0	1189085184	52	6589
2026-01-30 15:15:08.57	212.70	21.11	-40.2	-41.4	21.8	0.00e+00	0	41	0	1191182336	52	6700
2026-01-30 15:15:09.58	212.68	20.97	-40.3	-41.5	21.4	0.00e+00	0	41	0	1193279488	52	6832
2026-01-30 15:15:10.59	212.65	20.84	-40.4	-41.6	21.5	0.00e+00	0	41	0	1194328064	52	6883
2026-01-30 15:15:11.60	212.63	20.70	-40.4	-41.6	21.5	0.00e+00	0	41	0	1196425216	52	6892
2026-01-30 15:15:12.61	212.60	20.56	-40.7	-42.0	21.1	0.00e+00	92	41	0	1198522368	54	6402
2026-01-30 15:15:13.62	212.58	20.43	-40.7	-42.0	21.2	0.00e+00	0	41	0	1200619520	54	6407
2026-01-30 15:15:14.63	212.56	20.30	-40.6	-41.8	21.3	0.00e+00	92	41	0	1202716672	54	6293
2026-01-30 15:15:15.64	212.53	20.16	-40.7	-41.9	21.1	0.00e+00	0	41	0	1203765248	54	6389
2026-01-30 15:15:16.65	212.51	20.03	-40.7	-42.0	21.2	0.00e+00	0	41	0	1205862400	54	6420
2026-01-30 15:15:17.66	212.49	19.90	-40.3	-41.5	21.5	0.00e+00	0	41	0	1207959552	54	6038
2026-01-30 15:15:18.67	212.46	19.77	-40.3	-41.5	21.5	0.00e+00	0	41	0	1210056704	54	6103
2026-01-30 15:15:19.68	212.44	19.64	-40.2	-41.3	21.8	0.00e+00	91	41	0	1212153856	54	5934
2026-01-30 15:15:20.69	212.42	19.51	-39.9	-41.0	22.0	0.00e+00	0	41	0	1213202432	54	5708
