passes_logs/2026/01/30/R4.6S_Anadyr/R4.6S_Anadyr__20260130_143352_NOAA_21_JPSS-2_rec.log

#Pass ID: 20260130_143352_NOAA 21 (JPSS-2)
#Satellite: NOAA 21 (JPSS-2)
#Configuration: NOAA-21
#almurnet v.1.7.20251203
#Start time: 2026-01-30 14:33:54

#Version: 2.2.20231116
#Station: R4.6S_Anadyr
#Location: 177.4865 lon 64.73178 lat
#TLE: 1 54234U 22150A   26029.46216196  .00000141  00000+0  87503-4 0  9994
#TLE: 2 54234  98.7512 330.1880 0000955 196.3413 163.7732 14.19540905166865

#Time	Az	El	Level	Level2	SNR	BER	BlckErr	Temp	State	Recorded	gain1	gain2
2026-01-30 14:33:54.50	20.19	0.15	-49.5	-61.1	3.5	8.45e-01	0	39	0	0	60	41186
2026-01-30 14:33:55.51	20.19	0.21	-49.6	-62.4	3.5	1.52e+00	0	40	104	0	60	46444
2026-01-30 14:33:56.52	20.20	0.27	-49.6	-62.5	3.5	1.52e+00	0	40	104	0	60	46911
2026-01-30 14:33:57.53	20.21	0.33	-49.6	-62.4	3.5	1.52e+00	0	41	104	0	60	46492
2026-01-30 14:33:58.54	20.22	0.39	-49.6	-62.5	3.5	1.52e+00	0	40	104	0	60	46782
2026-01-30 14:33:59.55	20.23	0.45	-49.6	-62.5	3.5	1.52e+00	0	41	104	0	60	46880
2026-01-30 14:34:00.56	20.24	0.51	-49.6	-62.5	3.5	1.52e+00	0	41	104	0	60	47057
2026-01-30 14:34:01.57	20.25	0.57	-49.6	-62.6	3.5	1.51e+00	0	41	104	0	60	47315
2026-01-30 14:34:02.58	20.26	0.63	-49.7	-62.5	3.5	1.52e+00	0	41	104	0	60	46973
2026-01-30 14:34:03.59	20.27	0.69	-49.7	-62.6	3.5	1.52e+00	0	41	104	0	60	47152
2026-01-30 14:34:04.60	20.28	0.76	-49.7	-62.5	3.5	1.52e+00	0	41	104	0	60	46993
2026-01-30 14:34:05.61	20.29	0.82	-49.7	-62.5	3.5	1.51e+00	0	41	104	0	60	46908
2026-01-30 14:34:06.62	20.30	0.88	-49.6	-62.5	3.5	1.52e+00	0	41	104	0	60	46996
2026-01-30 14:34:07.63	20.31	0.94	-49.6	-62.5	3.5	1.52e+00	0	41	104	0	60	46563
2026-01-30 14:34:08.64	20.32	1.00	-49.6	-62.5	3.5	1.52e+00	0	41	104	0	60	46623
2026-01-30 14:34:09.65	20.33	1.06	-49.5	-62.4	3.5	1.52e+00	0	41	104	0	60	46262
2026-01-30 14:34:10.66	20.34	1.13	-49.4	-62.3	3.5	1.52e+00	0	41	104	0	60	45671
2026-01-30 14:34:11.67	20.35	1.19	-49.3	-62.2	3.5	1.52e+00	0	41	104	0	60	45444
2026-01-30 14:34:12.69	20.35	1.25	-49.2	-62.1	3.5	1.52e+00	0	41	104	0	60	44612
2026-01-30 14:34:13.69	20.36	1.31	-49.0	-62.0	3.5	1.52e+00	0	41	104	0	60	43950
2026-01-30 14:34:14.70	20.37	1.38	-49.0	-61.8	3.5	1.52e+00	0	41	104	0	60	43350
2026-01-30 14:34:15.71	20.38	1.44	-48.9	-61.7	3.5	1.52e+00	0	41	104	0	60	42930
2026-01-30 14:34:16.73	20.39	1.50	-48.7	-61.6	3.5	1.52e+00	0	41	104	0	60	42047
2026-01-30 14:34:17.74	20.40	1.57	-48.5	-61.4	3.5	1.52e+00	0	41	104	0	60	41077
2026-01-30 14:34:18.75	20.41	1.63	-48.2	-60.9	3.5	1.52e+00	0	41	104	0	60	38986
2026-01-30 14:34:19.76	20.42	1.69	-48.2	-60.8	3.5	1.52e+00	0	41	104	0	60	38617
2026-01-30 14:34:20.77	20.43	1.76	-48.2	-60.9	3.5	1.52e+00	0	41	104	0	60	38886
2026-01-30 14:34:21.78	20.44	1.82	-48.2	-60.9	3.5	1.52e+00	0	41	104	0	60	39076
2026-01-30 14:34:22.79	20.45	1.88	-48.2	-60.9	3.5	1.52e+00	0	41	104	0	60	39119
2026-01-30 14:34:23.80	20.46	1.95	-48.2	-61.0	3.5	1.51e+00	0	41	104	0	60	39341
2026-01-30 14:34:24.80	20.47	2.01	-48.2	-61.1	3.5	1.52e+00	0	41	104	0	60	39771
2026-01-30 14:34:25.82	20.48	2.08	-48.2	-61.1	3.5	1.52e+00	0	41	104	0	60	39853
2026-01-30 14:34:26.83	20.49	2.14	-48.2	-61.1	3.5	1.52e+00	0	41	104	0	60	39770
2026-01-30 14:34:27.84	20.50	2.21	-48.2	-61.0	3.5	1.51e+00	0	41	104	0	60	39501
2026-01-30 14:34:28.85	20.51	2.27	-48.2	-60.9	3.5	1.52e+00	0	41	104	0	60	39093
2026-01-30 14:34:29.86	20.52	2.34	-48.2	-60.7	3.5	1.52e+00	0	41	104	0	60	38015
2026-01-30 14:34:30.87	20.53	2.40	-48.1	-60.1	3.5	1.51e+00	0	41	104	0	60	35574
2026-01-30 14:34:31.88	20.54	2.47	-48.1	-59.5	3.5	1.51e+00	0	41	104	0	60	33121
2026-01-30 14:34:32.89	20.55	2.53	-48.0	-59.1	3.5	1.51e+00	0	41	104	0	60	31547
2026-01-30 14:34:33.90	20.56	2.60	-48.0	-58.9	3.7	1.50e+00	0	41	104	0	60	30803
2026-01-30 14:34:34.91	20.57	2.66	-47.9	-58.4	3.6	1.48e+00	0	41	104	0	60	29038
2026-01-30 14:34:35.92	20.58	2.73	-48.0	-59.0	3.5	1.51e+00	0	41	104	0	60	31334
2026-01-30 14:34:36.93	20.59	2.79	-48.0	-59.4	3.6	1.51e+00	0	41	104	0	60	32705
2026-01-30 14:34:37.94	20.60	2.86	-48.0	-59.0	3.7	1.50e+00	0	41	104	0	60	31357
2026-01-30 14:34:38.95	20.61	2.93	-47.7	-56.6	4.7	1.42e+00	120	41	104	0	60	23656
2026-01-30 14:34:39.96	20.62	2.99	-47.3	-54.4	6.2	4.76e-01	122	41	104	0	60	18443
2026-01-30 14:34:40.97	20.63	3.06	-46.3	-50.6	9.4	3.27e-02	122	41	0	2097152	60	11896
2026-01-30 14:34:41.98	20.64	3.13	-45.6	-49.2	11.2	3.22e-03	123	41	0	5242880	60	10139
2026-01-30 14:34:42.99	20.65	3.19	-43.8	-46.2	14.2	5.30e-06	123	41	0	8388608	60	7175
2026-01-30 14:34:44.00	20.66	3.26	-43.0	-45.0	15.5	0.00e+00	120	41	0	11534336	60	6276
2026-01-30 14:34:45.01	20.67	3.33	-42.1	-43.9	16.5	0.00e+00	122	41	0	14680064	58	6170
2026-01-30 14:34:46.02	20.68	3.39	-41.8	-43.5	16.8	0.00e+00	123	41	0	17825792	58	5907
2026-01-30 14:34:47.03	20.69	3.46	-40.7	-42.1	18.2	0.00e+00	123	41	0	20971520	56	5651
2026-01-30 14:34:48.04	20.70	3.53	-40.5	-42.0	18.3	0.00e+00	120	41	0	24117248	54	6208
2026-01-30 14:34:49.06	20.71	3.60	-40.7	-42.2	18.1	0.00e+00	123	41	0	27262976	54	6355
2026-01-30 14:34:50.07	20.72	3.67	-40.8	-42.3	17.9	0.00e+00	122	41	0	30408704	54	6431
2026-01-30 14:34:51.08	20.73	3.73	-41.5	-43.2	16.9	0.00e+00	123	41	0	33554432	54	7179
2026-01-30 14:34:52.09	20.75	3.80	-42.4	-44.2	16.5	0.00e+00	123	41	0	36700160	56	7206
2026-01-30 14:34:53.10	20.76	3.87	-39.8	-41.1	19.3	0.00e+00	123	41	0	39845888	52	6299
2026-01-30 14:34:54.11	20.77	3.94	-43.8	-46.1	15.5	7.00e-07	120	41	0	42991616	60	7045
2026-01-30 14:34:55.12	20.78	4.01	-48.1	-60.1	3.5	1.51e+00	0	41	104	45088768	60	35342
2026-01-30 14:34:56.13	20.79	4.08	-41.1	-43.0	17.5	6.71e-01	122	41	104	45088768	56	6244
2026-01-30 14:34:57.14	20.80	4.15	-48.1	-58.8	3.7	1.45e+00	0	41	104	45088768	60	30512
2026-01-30 14:34:58.14	20.81	4.22	-41.3	-42.9	17.4	0.00e+00	123	41	0	45088768	56	6154
2026-01-30 14:34:59.15	20.82	4.29	-41.0	-42.5	18.2	0.00e+00	123	41	0	48234496	56	5862
2026-01-30 14:35:00.16	20.83	4.36	-40.8	-42.2	18.2	0.00e+00	120	41	0	51380224	54	6420
2026-01-30 14:35:01.17	20.84	4.43	-39.3	-40.5	19.8	0.00e+00	123	41	0	54525952	52	5924
2026-01-30 14:35:02.18	20.85	4.50	-39.6	-40.9	19.4	0.00e+00	123	41	0	57671680	52	6179
2026-01-30 14:35:03.19	20.86	4.57	-39.7	-41.0	19.4	0.00e+00	123	41	0	60817408	52	6216
2026-01-30 14:35:04.20	20.87	4.64	-39.4	-40.7	19.7	0.00e+00	123	41	0	63963136	52	6005
2026-01-30 14:35:05.21	20.88	4.71	-39.6	-40.9	19.5	0.00e+00	123	41	0	67108864	52	6167
2026-01-30 14:35:06.22	20.90	4.78	-39.5	-40.8	19.6	0.00e+00	123	41	0	70254592	52	6076
2026-01-30 14:35:07.23	20.91	4.85	-39.2	-40.4	19.9	0.00e+00	122	41	0	73400320	52	5842
2026-01-30 14:35:08.24	20.92	4.92	-39.7	-41.0	19.4	0.00e+00	122	41	0	76546048	52	6212
2026-01-30 14:35:09.25	20.93	4.99	-38.9	-40.1	20.3	0.00e+00	123	41	0	79691776	52	5646
2026-01-30 14:35:10.26	20.94	5.06	-38.2	-39.3	21.0	0.00e+00	123	41	0	82837504	50	5765
2026-01-30 14:35:11.27	20.95	5.14	-38.3	-39.4	21.0	0.00e+00	123	41	0	85983232	50	5853
2026-01-30 14:35:12.28	20.96	5.21	-38.0	-39.1	21.2	0.00e+00	123	41	0	89128960	50	5606
2026-01-30 14:35:13.29	20.97	5.28	-38.2	-39.3	21.0	0.00e+00	122	41	0	92274688	50	5756
2026-01-30 14:35:14.30	20.98	5.35	-38.3	-39.5	21.1	0.00e+00	123	41	0	95420416	50	5861
2026-01-30 14:35:15.31	20.99	5.43	-38.2	-39.3	21.0	0.00e+00	123	41	0	98566144	50	5778
2026-01-30 14:35:16.32	21.01	5.50	-38.2	-39.3	21.0	0.00e+00	123	41	0	101711872	50	5753
2026-01-30 14:35:17.33	21.02	5.57	-38.1	-39.2	21.2	0.00e+00	123	41	0	104857600	50	5700
2026-01-30 14:35:18.34	21.03	5.64	-38.1	-39.2	21.1	0.00e+00	122	41	0	108003328	50	5695
2026-01-30 14:35:19.35	21.04	5.72	-37.9	-39.1	21.2	0.00e+00	123	41	0	111149056	50	5599
2026-01-30 14:35:20.36	21.05	5.79	-38.0	-39.1	21.4	0.00e+00	123	41	0	114294784	50	5611
2026-01-30 14:35:21.37	21.06	5.87	-38.3	-39.5	21.0	0.00e+00	123	41	0	117440512	50	5863
2026-01-30 14:35:22.38	21.07	5.94	-37.8	-38.9	21.4	0.00e+00	123	41	0	120586240	50	5516
2026-01-30 14:35:23.39	21.09	6.01	-37.8	-38.9	21.5	0.00e+00	122	41	0	123731968	48	6168
2026-01-30 14:35:24.40	21.10	6.09	-37.7	-38.8	21.6	0.00e+00	123	41	0	126877696	48	6081
2026-01-30 14:35:25.41	21.11	6.16	-37.8	-38.9	21.4	0.00e+00	122	41	0	130023424	48	6166
2026-01-30 14:35:26.42	21.12	6.24	-38.0	-39.1	21.2	0.00e+00	122	41	0	133169152	48	6326
2026-01-30 14:35:27.43	21.13	6.31	-37.7	-38.8	21.5	0.00e+00	122	41	0	137363456	48	6077
2026-01-30 14:35:28.44	21.14	6.39	-37.8	-38.8	21.5	0.00e+00	123	41	0	139460608	48	6129
2026-01-30 14:35:29.44	21.15	6.46	-37.6	-38.7	21.6	0.00e+00	123	41	0	142606336	48	6033
2026-01-30 14:35:30.45	21.17	6.54	-37.7	-38.7	21.6	0.00e+00	123	41	0	145752064	48	6060
2026-01-30 14:35:31.46	21.18	6.62	-37.5	-38.6	21.7	0.00e+00	120	41	0	148897792	48	5943
2026-01-30 14:35:32.47	21.19	6.69	-37.7	-38.8	21.6	0.00e+00	123	41	0	153092096	48	6108
2026-01-30 14:35:33.48	21.20	6.77	-37.7	-38.8	21.6	0.00e+00	121	41	0	156237824	48	6080
2026-01-30 14:35:34.48	21.21	6.84	-37.6	-38.6	21.7	0.00e+00	123	41	0	159383552	48	5967
2026-01-30 14:35:35.49	21.23	6.92	-37.7	-38.8	21.7	0.00e+00	123	41	0	161480704	48	6096
2026-01-30 14:35:36.50	21.24	7.00	-37.5	-38.6	21.8	0.00e+00	122	41	0	164626432	48	5967
2026-01-30 14:35:37.51	21.25	7.08	-37.7	-38.7	21.5	0.00e+00	123	41	0	167772160	48	6059
2026-01-30 14:35:38.52	21.26	7.15	-37.3	-38.4	22.0	0.00e+00	122	41	0	171966464	48	5820
2026-01-30 14:35:39.53	21.27	7.23	-37.4	-38.4	21.9	0.00e+00	120	41	0	175112192	48	5841
2026-01-30 14:35:40.54	21.29	7.31	-37.7	-38.8	21.7	0.00e+00	122	41	0	178257920	48	6071
2026-01-30 14:35:41.55	21.30	7.39	-37.7	-38.8	21.7	0.00e+00	123	41	0	181403648	48	6088
2026-01-30 14:35:42.56	21.31	7.47	-37.4	-38.5	22.0	0.00e+00	123	41	0	184549376	48	5862
2026-01-30 14:35:43.57	21.32	7.55	-37.3	-38.3	22.0	0.00e+00	120	41	0	187695104	48	5766
2026-01-30 14:35:44.58	21.33	7.62	-37.2	-38.3	22.2	0.00e+00	123	41	0	190840832	48	5742
2026-01-30 14:35:45.59	21.35	7.70	-37.4	-38.5	21.9	0.00e+00	122	41	0	193986560	48	5864
2026-01-30 14:35:46.60	21.36	7.78	-37.4	-38.4	22.1	0.00e+00	122	41	0	197132288	48	5824
2026-01-30 14:35:47.61	21.37	7.86	-37.2	-38.3	22.1	0.00e+00	122	41	0	200278016	48	5727
2026-01-30 14:35:48.62	21.38	7.94	-37.2	-38.2	22.2	0.00e+00	122	41	0	203423744	48	5682
2026-01-30 14:35:49.63	21.40	8.02	-37.2	-38.2	22.1	0.00e+00	123	41	0	206569472	48	5707
2026-01-30 14:35:50.64	21.41	8.10	-37.0	-38.0	22.3	0.00e+00	123	41	0	209715200	48	5594
2026-01-30 14:35:51.65	21.42	8.18	-36.9	-38.0	22.4	0.00e+00	123	41	0	212860928	48	5538
2026-01-30 14:35:52.66	21.43	8.27	-37.2	-38.2	22.3	0.00e+00	122	41	0	216006656	48	5715
2026-01-30 14:35:53.67	21.45	8.35	-37.0	-38.1	22.4	0.00e+00	123	41	0	219152384	48	5598
2026-01-30 14:35:54.68	21.46	8.43	-36.9	-37.9	22.4	0.00e+00	120	41	0	222298112	48	5505
2026-01-30 14:35:55.69	21.47	8.51	-36.9	-38.0	22.5	0.00e+00	123	42	0	225443840	48	5532
2026-01-30 14:35:56.70	21.48	8.59	-37.0	-38.0	22.5	0.00e+00	122	41	0	228589568	48	5541
2026-01-30 14:35:57.71	21.50	8.68	-37.0	-38.0	22.4	0.00e+00	123	41	0	231735296	48	5572
2026-01-30 14:35:58.72	21.51	8.76	-36.9	-37.9	22.5	0.00e+00	123	41	0	234881024	48	5483
2026-01-30 14:35:59.73	21.52	8.84	-36.9	-37.9	22.5	0.00e+00	120	41	0	238026752	48	5504
2026-01-30 14:36:00.74	21.54	8.92	-36.9	-37.9	22.5	0.00e+00	123	41	0	241172480	48	5498
2026-01-30 14:36:01.75	21.55	9.01	-36.9	-37.9	22.6	0.00e+00	120	41	0	244318208	48	5470
2026-01-30 14:36:02.76	21.56	9.09	-36.9	-37.9	22.5	0.00e+00	123	41	0	247463936	46	6170
2026-01-30 14:36:03.77	21.58	9.18	-36.7	-37.7	22.6	0.00e+00	120	41	0	250609664	46	6043
2026-01-30 14:36:04.77	21.59	9.26	-36.8	-37.7	22.7	0.00e+00	123	41	0	253755392	46	6062
2026-01-30 14:36:05.78	21.60	9.34	-36.8	-37.8	22.6	0.00e+00	120	41	0	256901120	46	6071
2026-01-30 14:36:06.80	21.61	9.43	-36.9	-37.9	22.6	0.00e+00	123	41	0	260046848	46	6160
2026-01-30 14:36:07.80	21.63	9.51	-36.6	-37.5	22.8	0.00e+00	122	41	0	263192576	46	5916
2026-01-30 14:36:08.82	21.64	9.60	-36.5	-37.5	22.9	0.00e+00	123	41	0	266338304	46	5905
2026-01-30 14:36:09.82	21.65	9.69	-36.7	-37.7	22.8	0.00e+00	120	41	0	269484032	46	5997
2026-01-30 14:36:10.83	21.67	9.77	-36.5	-37.5	22.9	0.00e+00	123	41	0	272629760	46	5863
2026-01-30 14:36:11.84	21.68	9.86	-36.6	-37.6	22.9	0.00e+00	122	41	0	275775488	46	5938
2026-01-30 14:36:12.85	21.70	9.94	-36.4	-37.4	23.0	0.00e+00	120	41	0	278921216	46	5825
2026-01-30 14:36:13.86	21.71	10.03	-36.4	-37.4	22.9	0.00e+00	123	41	0	282066944	46	5831
2026-01-30 14:36:14.87	21.72	10.12	-36.4	-37.4	23.0	0.00e+00	123	41	0	285212672	46	5823
2026-01-30 14:36:15.88	21.74	10.21	-36.3	-37.2	23.1	0.00e+00	122	41	0	288358400	46	5720
2026-01-30 14:36:16.89	21.75	10.29	-36.5	-37.4	23.0	0.00e+00	121	41	0	291504128	46	5854
2026-01-30 14:36:17.90	21.76	10.38	-36.3	-37.3	23.0	0.00e+00	120	41	0	294649856	46	5771
2026-01-30 14:36:18.91	21.78	10.47	-36.3	-37.3	23.0	0.00e+00	122	41	0	297795584	46	5759
2026-01-30 14:36:19.92	21.79	10.56	-36.3	-37.3	23.1	0.00e+00	123	41	0	300941312	46	5739
2026-01-30 14:36:20.93	21.81	10.65	-36.3	-37.3	23.1	0.00e+00	122	41	0	304087040	46	5747
2026-01-30 14:36:21.94	21.82	10.74	-36.1	-37.0	23.3	0.00e+00	122	41	0	307232768	46	5594
2026-01-30 14:36:22.95	21.83	10.83	-36.2	-37.1	23.2	0.00e+00	123	41	0	310378496	46	5650
2026-01-30 14:36:23.96	21.85	10.92	-36.1	-37.1	23.3	0.00e+00	120	41	0	313524224	46	5599
2026-01-30 14:36:24.96	21.86	11.01	-36.0	-37.0	23.3	0.00e+00	123	41	0	316669952	46	5559
2026-01-30 14:36:25.97	21.88	11.10	-36.1	-37.1	23.3	0.00e+00	122	41	0	319815680	46	5596
2026-01-30 14:36:26.98	21.89	11.19	-35.9	-36.9	23.4	0.00e+00	123	41	0	322961408	46	5476
2026-01-30 14:36:27.99	21.91	11.28	-35.9	-36.9	23.4	0.00e+00	120	42	0	326107136	46	5469
2026-01-30 14:36:29.00	21.92	11.37	-35.9	-36.8	23.4	0.00e+00	122	42	0	329252864	46	5462
2026-01-30 14:36:30.01	21.94	11.47	-35.9	-36.8	23.5	0.00e+00	123	41	0	332398592	46	5448
2026-01-30 14:36:31.02	21.95	11.56	-35.9	-36.8	23.4	0.00e+00	121	41	0	335544320	46	5467
2026-01-30 14:36:32.03	21.96	11.65	-35.8	-36.7	23.6	0.00e+00	122	41	0	338690048	46	5376
2026-01-30 14:36:33.04	21.98	11.75	-35.8	-36.8	23.6	0.00e+00	120	42	0	341835776	46	5410
2026-01-30 14:36:34.05	21.99	11.84	-35.7	-36.6	23.7	0.00e+00	122	42	0	344981504	44	5950
2026-01-30 14:36:35.06	22.01	11.93	-35.7	-36.6	23.6	0.00e+00	123	42	0	348127232	44	5962
2026-01-30 14:36:36.07	22.02	12.03	-35.6	-36.5	23.7	0.00e+00	122	41	0	351272960	44	5921
2026-01-30 14:36:37.08	22.04	12.12	-35.6	-36.6	23.7	0.00e+00	123	41	0	354418688	44	5942
2026-01-30 14:36:38.09	22.05	12.22	-35.7	-36.7	23.6	0.00e+00	123	41	0	357564416	44	6000
2026-01-30 14:36:39.10	22.07	12.31	-35.6	-36.6	23.7	0.00e+00	120	42	0	360710144	44	5953
2026-01-30 14:36:40.11	22.08	12.41	-35.6	-36.5	23.6	0.00e+00	120	42	0	363855872	44	5907
2026-01-30 14:36:41.12	22.10	12.51	-35.4	-36.3	23.8	0.00e+00	123	42	0	367001600	44	5787
2026-01-30 14:36:42.13	22.12	12.60	-35.5	-36.4	23.8	0.00e+00	122	41	0	370147328	44	5821
2026-01-30 14:36:43.14	22.13	12.70	-35.5	-36.4	23.8	0.00e+00	123	41	0	373293056	44	5837
2026-01-30 14:36:44.15	22.15	12.80	-35.5	-36.4	23.9	0.00e+00	123	41	0	376438784	44	5830
2026-01-30 14:36:45.16	22.16	12.89	-35.5	-36.4	23.8	0.00e+00	122	41	0	379584512	44	5801
2026-01-30 14:36:46.17	22.18	12.99	-35.5	-36.4	23.8	0.00e+00	123	41	0	382730240	44	5830
2026-01-30 14:36:47.18	22.19	13.09	-35.4	-36.3	24.0	0.00e+00	122	41	0	385875968	44	5774
2026-01-30 14:36:48.19	22.21	13.19	-35.5	-36.5	23.8	0.00e+00	123	41	0	389021696	44	5863
2026-01-30 14:36:49.20	22.23	13.29	-35.4	-36.3	23.9	0.00e+00	123	41	0	392167424	44	5767
2026-01-30 14:36:50.21	22.24	13.39	-35.4	-36.3	24.0	0.00e+00	122	41	0	395313152	44	5785
2026-01-30 14:36:51.22	22.26	13.49	-35.3	-36.2	24.0	0.00e+00	122	41	0	398458880	44	5702
2026-01-30 14:36:52.23	22.27	13.59	-35.4	-36.3	23.9	0.00e+00	122	41	0	401604608	44	5785
2026-01-30 14:36:53.24	22.29	13.69	-35.5	-36.4	23.9	0.00e+00	121	41	0	404750336	44	5811
2026-01-30 14:36:54.25	22.31	13.79	-35.4	-36.3	24.0	0.00e+00	123	41	0	407896064	44	5743
2026-01-30 14:36:55.26	22.32	13.89	-35.5	-36.4	23.9	0.00e+00	123	41	0	411041792	44	5817
2026-01-30 14:36:56.27	22.34	14.00	-35.4	-36.3	24.0	0.00e+00	123	41	0	414187520	44	5789
2026-01-30 14:36:57.28	22.36	14.10	-35.4	-36.4	23.9	0.00e+00	122	42	0	417333248	44	5798
2026-01-30 14:36:58.29	22.37	14.20	-35.4	-36.3	23.9	0.00e+00	123	41	0	420478976	44	5776
2026-01-30 14:36:59.30	22.39	14.31	-35.4	-36.3	24.0	0.00e+00	120	41	0	423624704	44	5776
2026-01-30 14:37:00.31	22.41	14.41	-35.5	-36.4	23.9	0.00e+00	122	41	0	426770432	44	5817
2026-01-30 14:37:01.32	22.42	14.51	-35.3	-36.2	24.0	0.00e+00	123	41	0	429916160	44	5716
2026-01-30 14:37:02.33	22.44	14.62	-35.4	-36.4	24.0	0.00e+00	123	41	0	433061888	44	5810
2026-01-30 14:37:03.34	22.46	14.72	-35.6	-36.5	23.9	0.00e+00	122	41	0	436207616	44	5880
2026-01-30 14:37:04.35	22.47	14.83	-35.6	-36.5	23.9	0.00e+00	123	41	0	439353344	44	5909
2026-01-30 14:37:05.61	22.50	14.96	-35.4	-36.4	24.0	0.00e+00	120	41	0	442499072	44	5806
2026-01-30 14:37:06.33	22.51	15.04	-35.7	-36.6	23.8	0.00e+00	123	41	0	445644800	44	5969
2026-01-30 14:37:07.63	22.53	15.18	-35.5	-36.4	24.0	0.00e+00	123	42	0	448790528	44	5817
2026-01-30 14:37:08.35	22.54	15.25	-35.4	-36.3	24.0	0.00e+00	123	41	0	450887680	44	5789
2026-01-30 14:37:09.65	22.57	15.39	-35.4	-36.3	24.0	0.00e+00	123	41	0	455081984	44	5769
2026-01-30 14:37:10.37	22.58	15.47	-35.6	-36.6	23.8	0.00e+00	123	41	0	458227712	44	5931
2026-01-30 14:37:11.67	22.60	15.61	-35.4	-36.3	24.0	0.00e+00	123	41	0	461373440	44	5762
2026-01-30 14:37:12.39	22.61	15.69	-35.5	-36.4	24.0	0.00e+00	123	41	0	464519168	44	5816
2026-01-30 14:37:13.69	22.64	15.83	-35.4	-36.3	24.1	0.00e+00	121	41	0	467664896	44	5771
2026-01-30 14:37:14.41	22.65	15.91	-35.5	-36.4	23.9	0.00e+00	123	41	0	470810624	44	5837
2026-01-30 14:37:15.70	22.67	16.05	-35.4	-36.3	24.1	0.00e+00	120	41	0	473956352	44	5765
2026-01-30 14:37:16.42	22.69	16.13	-35.4	-36.3	23.9	0.00e+00	123	41	0	477102080	44	5784
2026-01-30 14:37:17.72	22.71	16.28	-35.6	-36.6	23.9	0.00e+00	122	42	0	480247808	44	5930
2026-01-30 14:37:18.44	22.72	16.36	-35.5	-36.4	24.0	0.00e+00	123	41	0	483393536	44	5851
2026-01-30 14:37:19.74	22.75	16.50	-35.6	-36.5	23.9	0.00e+00	120	41	0	486539264	44	5875
2026-01-30 14:37:20.47	22.76	16.59	-35.6	-36.5	23.9	0.00e+00	123	41	0	489684992	44	5877
2026-01-30 14:37:21.77	22.79	16.73	-35.5	-36.4	24.0	0.00e+00	120	42	0	493879296	44	5812
2026-01-30 14:37:22.49	22.80	16.81	-35.5	-36.4	23.9	0.00e+00	123	42	0	495976448	44	5839
2026-01-30 14:37:23.79	22.82	16.96	-35.4	-36.3	24.1	0.00e+00	120	41	0	500170752	44	5782
2026-01-30 14:37:24.51	22.84	17.05	-35.6	-36.5	23.9	0.00e+00	123	41	0	502267904	44	5901
2026-01-30 14:37:25.81	22.86	17.20	-35.5	-36.4	23.9	0.00e+00	123	41	0	505413632	44	5841
2026-01-30 14:37:26.53	22.88	17.28	-35.6	-36.5	23.9	0.00e+00	123	41	0	508559360	44	5878
2026-01-30 14:37:27.83	22.90	17.43	-35.7	-36.6	23.9	0.00e+00	123	41	0	512753664	44	5985
2026-01-30 14:37:28.55	22.92	17.51	-35.5	-36.5	24.0	0.00e+00	122	41	0	514850816	44	5859
2026-01-30 14:37:29.85	22.94	17.67	-35.6	-36.5	24.0	0.00e+00	120	41	0	519045120	44	5891
2026-01-30 14:37:30.57	22.96	17.75	-35.7	-36.6	23.8	0.00e+00	122	42	0	521142272	44	5955
2026-01-30 14:37:31.87	22.98	17.91	-35.7	-36.6	23.9	0.00e+00	120	42	0	525336576	44	5980
2026-01-30 14:37:32.59	23.00	17.99	-35.7	-36.6	23.8	0.00e+00	123	41	0	527433728	44	5967
2026-01-30 14:37:33.89	23.02	18.15	-35.5	-36.5	24.0	0.00e+00	120	42	0	531628032	44	5866
2026-01-30 14:37:34.61	23.04	18.24	-35.5	-36.4	24.0	0.00e+00	122	41	0	533725184	44	5838
2026-01-30 14:37:35.91	23.06	18.39	-35.6	-36.5	23.9	0.00e+00	123	42	0	537919488	44	5918
2026-01-30 14:37:36.63	23.08	18.48	-35.6	-36.5	23.9	0.00e+00	120	41	0	540016640	44	5886
2026-01-30 14:37:37.93	23.10	18.64	-35.5	-36.5	24.0	0.00e+00	122	42	0	544210944	44	5874
2026-01-30 14:37:38.66	23.12	18.73	-35.6	-36.5	23.9	0.00e+00	120	41	0	546308096	44	5908
2026-01-30 14:37:39.95	23.15	18.89	-35.5	-36.4	24.0	0.00e+00	123	41	0	550502400	44	5820
2026-01-30 14:37:40.67	23.16	18.98	-35.4	-36.4	24.1	0.00e+00	121	41	0	552599552	44	5793
2026-01-30 14:37:41.97	23.19	19.14	-35.4	-36.4	24.0	0.00e+00	122	41	0	556793856	44	5804
2026-01-30 14:37:42.69	23.20	19.23	-35.5	-36.5	23.9	0.00e+00	123	41	0	558891008	44	5862
2026-01-30 14:37:43.99	23.23	19.39	-35.4	-36.3	24.1	0.00e+00	122	42	0	563085312	44	5737
2026-01-30 14:37:44.71	23.25	19.49	-35.3	-36.2	24.1	0.00e+00	123	42	0	565182464	44	5722
2026-01-30 14:37:46.01	23.28	19.65	-35.2	-36.1	24.2	0.00e+00	123	41	0	569376768	44	5624
2026-01-30 14:37:46.73	23.29	19.74	-35.4	-36.3	24.1	0.00e+00	123	41	0	571473920	44	5754
2026-01-30 14:37:48.03	23.32	19.91	-35.2	-36.1	24.3	0.00e+00	123	41	0	575668224	44	5598
2026-01-30 14:37:48.75	23.34	20.00	-35.1	-36.0	24.3	0.00e+00	120	42	0	577765376	44	5554
2026-01-30 14:37:50.05	23.37	20.17	-35.1	-36.0	24.4	0.00e+00	122	42	0	581959680	44	5577
2026-01-30 14:37:50.77	23.38	20.27	-35.2	-36.1	24.2	0.00e+00	123	42	0	584056832	44	5628
2026-01-30 14:37:52.07	23.41	20.44	-34.9	-35.8	24.4	0.00e+00	120	42	0	588251136	44	5422
2026-01-30 14:37:52.79	23.43	20.53	-35.0	-35.9	24.5	0.00e+00	122	42	0	590348288	44	5469
2026-01-30 14:37:54.09	23.46	20.71	-34.8	-35.7	24.5	0.00e+00	121	42	0	594542592	44	5370
2026-01-30 14:37:54.81	23.47	20.80	-34.9	-35.7	24.6	0.00e+00	123	42	0	596639744	44	5397
2026-01-30 14:37:56.11	23.51	20.98	-34.6	-35.5	24.8	0.00e+00	122	42	0	600834048	42	5864
2026-01-30 14:37:56.83	23.52	21.07	-34.6	-35.4	24.8	0.00e+00	122	41	0	602931200	42	5851
2026-01-30 14:37:58.13	23.55	21.25	-34.7	-35.5	24.8	0.00e+00	123	42	0	607125504	42	5915
2026-01-30 14:37:58.85	23.57	21.35	-34.7	-35.6	24.7	0.00e+00	123	42	0	609222656	42	5953
2026-01-30 14:38:00.15	23.60	21.53	-34.4	-35.3	24.8	0.00e+00	120	42	0	613416960	42	5741
2026-01-30 14:38:00.87	23.62	21.63	-34.5	-35.4	24.8	0.00e+00	122	42	0	615514112	42	5819
2026-01-30 14:38:02.17	23.65	21.81	-34.2	-35.0	25.1	0.00e+00	123	42	0	619708416	42	5587
2026-01-30 14:38:02.89	23.67	21.91	-34.2	-35.1	25.1	0.00e+00	123	42	0	621805568	42	5616
2026-01-30 14:38:04.18	23.70	22.09	-34.1	-35.0	25.2	0.00e+00	123	42	0	625999872	42	5542
2026-01-30 14:38:04.90	23.72	22.19	-34.1	-35.0	25.0	0.00e+00	123	42	0	628097024	42	5565
2026-01-30 14:38:06.20	23.75	22.38	-34.1	-34.9	25.2	0.00e+00	122	42	0	632291328	42	5506
2026-01-30 14:38:06.92	23.77	22.48	-34.0	-34.9	25.2	0.00e+00	123	41	0	634388480	42	5484
2026-01-30 14:38:08.22	23.80	22.66	-34.0	-34.8	25.2	0.00e+00	123	41	0	638582784	42	5457
2026-01-30 14:38:08.94	23.82	22.77	-34.0	-34.8	25.2	0.00e+00	123	42	0	640679936	42	5446
2026-01-30 14:38:10.24	23.85	22.96	-33.9	-34.7	25.3	0.00e+00	123	41	0	644874240	42	5404
2026-01-30 14:38:10.96	23.87	23.06	-33.9	-34.7	25.3	0.00e+00	120	42	0	646971392	42	5386
2026-01-30 14:38:12.26	23.91	23.25	-33.9	-34.8	25.3	0.00e+00	123	41	0	651165696	42	5422
2026-01-30 14:38:12.98	23.93	23.36	-33.9	-34.8	25.3	0.00e+00	123	41	0	653262848	42	5429
2026-01-30 14:38:14.28	23.96	23.55	-33.9	-34.8	25.2	0.00e+00	123	41	0	657457152	42	5419
2026-01-30 14:38:15.00	23.98	23.66	-33.9	-34.8	25.3	0.00e+00	120	42	0	659554304	42	5436
2026-01-30 14:38:16.30	24.02	23.85	-34.1	-35.0	25.0	0.00e+00	123	41	0	663748608	42	5568
2026-01-30 14:38:17.02	24.04	23.96	-34.1	-35.0	25.1	0.00e+00	122	41	0	665845760	42	5532
2026-01-30 14:38:18.32	24.07	24.16	-34.0	-34.8	25.1	0.00e+00	121	42	0	670040064	42	5464
2026-01-30 14:38:19.04	24.09	24.27	-34.1	-35.0	25.1	0.00e+00	122	42	0	672137216	42	5549
2026-01-30 14:38:20.34	24.13	24.47	-33.9	-34.7	25.3	0.00e+00	120	42	0	676331520	42	5378
2026-01-30 14:38:21.05	24.15	24.58	-33.9	-34.8	25.2	0.00e+00	122	42	0	678428672	42	5422
2026-01-30 14:38:22.36	24.19	24.79	-34.0	-34.9	25.2	0.00e+00	120	42	0	682622976	42	5472
2026-01-30 14:38:23.08	24.21	24.90	-34.0	-34.8	25.2	0.00e+00	123	42	0	684720128	42	5464
2026-01-30 14:38:24.37	24.24	25.10	-34.0	-34.9	25.2	0.00e+00	123	41	0	688914432	42	5491
2026-01-30 14:38:25.10	24.27	25.22	-34.1	-35.0	25.1	0.00e+00	122	42	0	691011584	42	5548
2026-01-30 14:38:26.40	24.30	25.42	-34.2	-35.1	25.1	0.00e+00	121	42	0	695205888	42	5622
2026-01-30 14:38:27.12	24.33	25.54	-34.3	-35.2	25.0	0.00e+00	123	42	0	697303040	42	5696
2026-01-30 14:38:28.42	24.37	25.75	-34.4	-35.3	24.9	0.00e+00	123	42	0	701497344	42	5759
2026-01-30 14:38:29.14	24.39	25.87	-34.5	-35.3	24.9	0.00e+00	123	42	0	703594496	42	5782
2026-01-30 14:38:30.44	24.43	26.08	-34.5	-35.4	24.9	0.00e+00	123	42	0	707788800	42	5793
2026-01-30 14:38:31.16	24.45	26.20	-34.4	-35.3	25.0	0.00e+00	123	42	0	709885952	42	5773
2026-01-30 14:38:32.45	24.49	26.41	-34.6	-35.4	24.8	0.00e+00	120	42	0	714080256	42	5853
2026-01-30 14:38:33.18	24.51	26.53	-34.6	-35.5	24.8	0.00e+00	122	42	0	716177408	42	5870
2026-01-30 14:38:34.47	24.55	26.75	-34.8	-35.7	24.7	0.00e+00	122	42	0	720371712	42	6039
2026-01-30 14:38:35.19	24.58	26.87	-34.7	-35.6	24.7	0.00e+00	120	41	0	722468864	42	5950
2026-01-30 14:38:36.49	24.62	27.09	-34.7	-35.6	24.8	0.00e+00	123	42	0	726663168	42	5953
2026-01-30 14:38:37.21	24.64	27.21	-34.9	-35.7	24.7	0.00e+00	123	41	0	728760320	42	6054
2026-01-30 14:38:38.50	24.69	27.43	-35.0	-35.9	24.5	0.00e+00	123	41	0	732954624	42	6182
2026-01-30 14:38:39.22	24.71	27.56	-35.0	-35.9	24.6	0.00e+00	122	42	0	735051776	42	6185
2026-01-30 14:38:40.52	24.75	27.78	-35.4	-36.3	24.3	0.00e+00	123	42	0	739246080	42	6424
2026-01-30 14:38:41.24	24.78	27.91	-35.3	-36.2	24.3	0.00e+00	123	42	0	741343232	42	6402
2026-01-30 14:38:42.54	24.82	28.14	-35.5	-36.4	24.2	0.00e+00	123	42	0	745537536	42	6546
2026-01-30 14:38:43.26	24.85	28.27	-35.5	-36.4	24.2	0.00e+00	123	42	0	747634688	42	6509
2026-01-30 14:38:44.56	24.89	28.50	-35.6	-36.5	24.1	0.00e+00	123	42	0	751828992	42	6592
2026-01-30 14:38:45.29	24.92	28.63	-35.7	-36.6	24.0	0.00e+00	122	42	0	753926144	42	6708
2026-01-30 14:38:46.58	24.96	28.86	-35.7	-36.6	24.0	0.00e+00	123	42	0	758120448	42	6660
2026-01-30 14:38:47.31	24.99	29.00	-35.7	-36.6	24.0	0.00e+00	123	42	0	760217600	42	6711
2026-01-30 14:38:48.60	25.04	29.23	-35.6	-36.5	24.0	0.00e+00	121	42	0	764411904	44	5904
2026-01-30 14:38:49.32	25.06	29.36	-35.7	-36.6	24.0	0.00e+00	122	42	0	766509056	44	5980
2026-01-30 14:38:50.62	25.11	29.61	-35.7	-36.6	23.9	0.00e+00	122	42	0	770703360	44	5945
2026-01-30 14:38:51.34	25.14	29.74	-35.6	-36.5	24.0	0.00e+00	123	42	0	772800512	44	5914
2026-01-30 14:38:52.64	25.19	29.98	-35.6	-36.5	24.1	0.00e+00	120	42	0	776994816	44	5879
2026-01-30 14:38:53.36	25.22	30.12	-35.6	-36.5	24.1	0.00e+00	123	42	0	779091968	44	5917
2026-01-30 14:38:54.66	25.27	30.37	-35.2	-36.1	24.4	0.00e+00	123	42	0	783286272	44	5648
2026-01-30 14:38:55.38	25.29	30.51	-35.1	-36.0	24.5	0.00e+00	122	42	0	786432000	44	5583
2026-01-30 14:38:56.68	25.35	30.76	-34.9	-35.8	24.6	0.00e+00	123	42	0	789577728	44	5428
2026-01-30 14:38:57.40	25.38	30.90	-34.9	-35.8	24.6	0.00e+00	123	42	0	791674880	44	5428
2026-01-30 14:38:58.70	25.43	31.15	-34.6	-35.5	24.8	0.00e+00	122	42	0	795869184	42	5891
2026-01-30 14:38:59.42	25.46	31.29	-34.6	-35.4	24.9	0.00e+00	123	42	0	799014912	42	5846
2026-01-30 14:39:00.72	25.51	31.55	-34.6	-35.5	24.9	0.00e+00	120	42	0	802160640	42	5882
2026-01-30 14:39:01.44	25.54	31.69	-34.6	-35.5	24.9	0.00e+00	122	42	0	805306368	42	5877
2026-01-30 14:39:02.74	25.60	31.96	-34.6	-35.5	24.8	0.00e+00	120	42	0	808452096	42	5890
2026-01-30 14:39:03.46	25.63	32.10	-34.8	-35.6	24.8	0.00e+00	122	41	0	811597824	42	5990
2026-01-30 14:39:04.76	25.68	32.37	-34.7	-35.6	24.8	0.00e+00	120	41	0	814743552	42	5945
2026-01-30 14:39:05.48	25.72	32.51	-34.7	-35.6	24.8	0.00e+00	123	42	0	817889280	42	5952
2026-01-30 14:39:06.78	25.77	32.78	-34.9	-35.8	24.7	0.00e+00	122	42	0	821035008	42	6087
2026-01-30 14:39:07.50	25.80	32.93	-34.9	-35.8	24.7	0.00e+00	123	42	0	824180736	42	6080
2026-01-30 14:39:08.80	25.86	33.21	-35.1	-35.9	24.6	0.00e+00	123	41	0	827326464	42	6203
2026-01-30 14:39:09.52	25.90	33.36	-35.1	-36.0	24.6	0.00e+00	123	42	0	830472192	42	6237
2026-01-30 14:39:10.82	25.96	33.63	-35.3	-36.2	24.5	0.00e+00	123	42	0	834666496	42	6356
2026-01-30 14:39:11.54	25.99	33.79	-35.4	-36.3	24.4	0.00e+00	120	42	0	836763648	42	6436
2026-01-30 14:39:12.84	26.05	34.07	-35.5	-36.4	24.3	0.00e+00	120	42	0	840957952	42	6538
2026-01-30 14:39:13.56	26.09	34.22	-35.6	-36.5	24.1	0.00e+00	122	42	0	843055104	42	6634
2026-01-30 14:39:14.86	26.15	34.51	-35.8	-36.7	24.0	0.00e+00	123	42	0	846200832	44	6018
2026-01-30 14:39:15.58	26.19	34.67	-35.9	-36.8	24.0	0.00e+00	123	42	0	849346560	44	6071
2026-01-30 14:39:16.88	26.25	34.95	-36.1	-37.0	23.8	0.00e+00	123	42	0	853540864	44	6233
2026-01-30 14:39:17.60	26.29	35.11	-36.2	-37.1	23.7	0.00e+00	123	42	0	855638016	44	6318
2026-01-30 14:39:18.90	26.35	35.41	-36.6	-37.6	23.4	0.00e+00	123	42	0	859832320	44	6673
2026-01-30 14:39:19.62	26.39	35.57	-36.6	-37.5	23.4	0.00e+00	122	42	0	861929472	44	6640
2026-01-30 14:39:20.92	26.46	35.87	-36.8	-37.8	23.3	0.00e+00	120	42	0	866123776	46	6084
2026-01-30 14:39:21.64	26.50	36.03	-37.1	-38.0	23.0	0.00e+00	123	42	0	868220928	46	6254
2026-01-30 14:39:22.94	26.57	36.33	-37.4	-38.4	22.7	0.00e+00	122	42	0	872415232	46	6533
2026-01-30 14:39:23.66	26.61	36.50	-37.4	-38.3	22.8	0.00e+00	122	42	0	874512384	46	6487
2026-01-30 14:39:24.96	26.68	36.80	-37.4	-38.4	22.7	0.00e+00	123	41	0	878706688	46	6559
2026-01-30 14:39:25.68	26.72	36.97	-37.5	-38.5	22.4	0.00e+00	122	42	0	880803840	46	6624
2026-01-30 14:39:26.98	26.80	37.28	-37.6	-38.6	22.4	0.00e+00	122	41	0	884998144	46	6693
2026-01-30 14:39:27.70	26.84	37.46	-37.3	-38.3	22.6	0.00e+00	120	42	0	887095296	46	6484
2026-01-30 14:39:29.00	26.91	37.77	-37.0	-38.0	23.0	0.00e+00	122	42	0	891289600	46	6243
2026-01-30 14:39:29.72	26.96	37.94	-36.9	-37.9	23.0	0.00e+00	120	42	0	893386752	46	6168
2026-01-30 14:39:31.02	27.03	38.26	-37.0	-38.0	23.0	0.00e+00	123	42	0	897581056	46	6218
2026-01-30 14:39:31.74	27.08	38.44	-36.8	-37.7	23.1	0.00e+00	123	42	0	899678208	46	6059
2026-01-30 14:39:33.04	27.16	38.76	-36.9	-37.8	23.1	0.00e+00	120	42	0	903872512	46	6115
2026-01-30 14:39:33.76	27.20	38.94	-37.0	-38.0	22.9	0.00e+00	122	42	0	905969664	46	6227
2026-01-30 14:39:35.06	27.29	39.27	-37.1	-38.1	22.7	0.00e+00	123	42	0	910163968	46	6329
2026-01-30 14:39:35.78	27.33	39.45	-37.1	-38.1	22.6	0.00e+00	123	41	0	912261120	46	6340
2026-01-30 14:39:37.08	27.42	39.79	-37.2	-38.2	22.5	0.00e+00	123	42	0	916455424	46	6413
2026-01-30 14:39:37.80	27.47	39.97	-37.3	-38.3	22.3	0.00e+00	123	41	0	918552576	46	6492
2026-01-30 14:39:39.10	27.56	40.31	-37.4	-38.5	22.3	0.00e+00	123	42	0	922746880	46	6583
2026-01-30 14:39:39.82	27.61	40.50	-37.5	-38.6	22.1	0.00e+00	122	42	0	924844032	46	6691
2026-01-30 14:39:41.12	27.70	40.84	-37.6	-38.7	22.2	0.00e+00	123	42	0	929038336	46	6771
2026-01-30 14:39:41.84	27.75	41.03	-37.8	-38.9	22.1	0.00e+00	122	42	0	931135488	48	6159
2026-01-30 14:39:43.14	27.84	41.38	-37.9	-39.0	22.0	0.00e+00	123	42	0	935329792	48	6265
2026-01-30 14:39:43.86	27.89	41.57	-37.8	-38.9	22.1	0.00e+00	123	42	0	937426944	48	6157
2026-01-30 14:39:45.16	27.99	41.93	-37.8	-38.8	22.2	0.00e+00	123	42	0	941621248	48	6114
2026-01-30 14:39:45.88	28.05	42.12	-38.0	-39.1	22.0	0.00e+00	123	42	0	943718400	48	6310
2026-01-30 14:39:47.17	28.14	42.48	-38.2	-39.3	21.8	0.00e+00	122	42	0	947912704	48	6459
2026-01-30 14:39:47.89	28.20	42.68	-38.4	-39.5	21.6	0.00e+00	122	42	0	950009856	48	6610
2026-01-30 14:39:49.19	28.30	43.04	-38.7	-39.8	21.3	0.00e+00	123	42	0	954204160	48	6830
2026-01-30 14:39:49.91	28.36	43.24	-38.8	-39.9	21.2	0.00e+00	122	42	0	956301312	50	6181
2026-01-30 14:39:51.21	28.47	43.61	-38.7	-39.9	21.3	0.00e+00	122	42	0	960495616	50	6139
2026-01-30 14:39:51.93	28.53	43.82	-38.7	-39.8	21.4	0.00e+00	123	42	0	962592768	50	6091
2026-01-30 14:39:53.23	28.64	44.19	-38.5	-39.6	21.5	0.00e+00	122	42	0	966787072	50	5953
2026-01-30 14:39:53.95	28.70	44.40	-38.3	-39.4	21.7	0.00e+00	123	42	0	968884224	50	5825
2026-01-30 14:39:55.25	28.82	44.78	-38.4	-39.5	21.7	0.00e+00	123	42	0	973078528	50	5900
2026-01-30 14:39:55.97	28.88	44.99	-38.4	-39.5	21.7	0.00e+00	122	42	0	975175680	50	5872
2026-01-30 14:39:57.27	29.00	45.37	-38.5	-39.6	21.7	0.00e+00	123	42	0	979369984	50	5979
2026-01-30 14:39:57.99	29.07	45.59	-38.6	-39.7	21.6	0.00e+00	122	42	0	981467136	50	6012
2026-01-30 14:39:59.29	29.19	45.98	-38.5	-39.6	21.7	0.00e+00	122	42	0	985661440	50	5963
2026-01-30 14:40:00.01	29.26	46.20	-38.6	-39.6	21.6	0.00e+00	123	42	0	987758592	50	5993
2026-01-30 14:40:01.31	29.39	46.59	-38.5	-39.6	21.8	0.00e+00	123	42	0	991952896	50	5986
2026-01-30 14:40:02.03	29.46	46.81	-38.2	-39.2	22.0	0.00e+00	122	42	0	994050048	50	5710
2026-01-30 14:40:03.33	29.59	47.22	-38.1	-39.1	22.1	0.00e+00	123	42	0	998244352	50	5646
2026-01-30 14:40:04.05	29.67	47.44	-38.0	-39.0	22.1	0.00e+00	120	42	0	1000341504	50	5561
2026-01-30 14:40:05.35	29.80	47.85	-37.4	-38.5	22.7	0.00e+00	122	42	0	1004535808	48	5864
2026-01-30 14:40:06.07	29.88	48.08	-37.2	-38.1	22.9	0.00e+00	122	42	0	1006632960	48	5651
2026-01-30 14:40:07.37	30.03	48.49	-36.8	-37.8	23.2	0.00e+00	122	42	0	1010827264	48	5421
2026-01-30 14:40:08.09	30.11	48.72	-36.7	-37.6	23.4	0.00e+00	122	41	0	1012924416	46	5955
2026-01-30 14:40:09.39	30.26	49.14	-36.4	-37.3	23.6	0.00e+00	123	41	0	1017118720	46	5764
2026-01-30 14:40:10.12	30.34	49.38	-36.5	-37.4	23.4	0.00e+00	123	42	0	1019215872	46	5835
2026-01-30 14:40:11.41	30.50	49.80	-36.7	-37.7	23.3	0.00e+00	122	42	0	1023410176	46	5995
2026-01-30 14:40:12.13	30.58	50.03	-36.7	-37.6	23.3	0.00e+00	124	42	0	1025507328	46	5986
2026-01-30 14:40:13.43	30.75	50.47	-36.6	-37.5	23.6	0.00e+00	122	41	0	1029701632	46	5892
2026-01-30 14:40:14.15	30.84	50.71	-36.3	-37.3	23.7	0.00e+00	122	42	0	1031798784	46	5729
2026-01-30 14:40:15.45	31.01	51.14	-36.5	-37.4	23.6	0.00e+00	123	42	0	1035993088	46	5833
2026-01-30 14:40:16.17	31.11	51.39	-36.6	-37.6	23.2	0.00e+00	123	42	0	1038090240	46	5943
2026-01-30 14:40:17.47	31.28	51.83	-36.6	-37.5	23.0	0.00e+00	123	42	0	1042284544	46	5915
2026-01-30 14:40:18.19	31.38	52.08	-36.7	-37.7	23.0	0.00e+00	123	41	0	1044381696	46	6034
2026-01-30 14:40:19.49	31.57	52.53	-36.4	-37.3	23.5	0.00e+00	123	41	0	1048576000	46	5753
2026-01-30 14:40:20.22	31.68	52.78	-36.3	-37.3	23.6	0.00e+00	122	41	0	1050673152	46	5745
2026-01-30 14:40:21.51	31.87	53.23	-36.2	-37.1	23.5	0.00e+00	121	42	0	1054867456	46	5648
2026-01-30 14:40:22.24	31.98	53.49	-36.4	-37.4	23.0	0.00e+00	123	42	0	1056964608	46	5827
2026-01-30 14:40:23.53	32.18	53.95	-36.5	-37.5	23.0	0.00e+00	122	42	0	1061158912	46	5865
2026-01-30 14:40:24.26	32.30	54.21	-36.5	-37.5	23.1	0.00e+00	122	42	0	1063256064	46	5895
2026-01-30 14:40:25.55	32.51	54.67	-36.1	-37.0	23.6	0.00e+00	120	42	0	1067450368	46	5577
2026-01-30 14:40:26.27	32.63	54.93	-35.9	-36.8	23.9	0.00e+00	123	42	0	1069547520	46	5441
2026-01-30 14:40:27.57	32.86	55.41	-35.8	-36.7	24.0	0.00e+00	123	42	0	1073741824	46	5366
2026-01-30 14:40:28.29	32.99	55.67	-35.6	-36.5	24.0	0.00e+00	123	42	0	1075838976	44	5915
2026-01-30 14:40:29.59	33.22	56.15	-35.6	-36.5	23.9	0.00e+00	120	42	0	1080033280	44	5913
2026-01-30 14:40:30.31	33.36	56.42	-35.7	-36.6	23.9	0.00e+00	123	42	0	1082130432	44	5939
2026-01-30 14:40:31.61	33.61	56.90	-35.7	-36.6	23.6	0.00e+00	121	41	0	1086324736	44	5974
2026-01-30 14:40:32.33	33.75	57.17	-35.6	-36.5	23.7	0.00e+00	123	41	0	1088421888	44	5910
2026-01-30 14:40:33.63	34.01	57.66	-35.3	-36.3	23.8	0.00e+00	120	41	0	1092616192	44	5740
2026-01-30 14:40:34.35	34.16	57.93	-35.5	-36.4	24.0	0.00e+00	123	42	0	1094713344	44	5848
2026-01-30 14:40:35.65	34.44	58.43	-35.6	-36.6	24.2	0.00e+00	123	42	0	1098907648	44	5948
2026-01-30 14:40:36.37	34.60	58.71	-35.2	-36.1	24.5	0.00e+00	121	41	0	1102053376	44	5616
2026-01-30 14:40:37.67	34.90	59.21	-35.3	-36.2	24.3	0.00e+00	123	41	0	1105199104	44	5710
2026-01-30 14:40:38.39	35.07	59.49	-35.1	-36.0	24.5	0.00e+00	122	41	0	1107296256	44	5575
2026-01-30 14:40:39.69	35.38	59.99	-35.1	-36.0	24.4	0.00e+00	123	42	0	1111490560	44	5545
2026-01-30 14:40:40.41	35.56	60.28	-34.9	-35.8	24.3	0.00e+00	123	41	0	1113587712	44	5457
2026-01-30 14:40:41.71	35.89	60.79	-34.5	-35.4	24.5	0.00e+00	123	42	0	1117782016	42	5811
2026-01-30 14:40:42.43	36.08	61.07	-34.5	-35.4	24.7	0.00e+00	122	42	0	1120927744	42	5804
2026-01-30 14:40:43.73	36.44	61.59	-34.5	-35.3	24.7	0.00e+00	122	42	0	1124073472	42	5771
2026-01-30 14:40:44.45	36.64	61.88	-34.4	-35.2	24.8	0.00e+00	123	42	0	1127219200	42	5711
2026-01-30 14:40:45.75	37.02	62.40	-34.3	-35.2	24.7	0.00e+00	127	42	0	1130364928	42	5712
2026-01-30 14:40:46.47	37.23	62.69	-34.0	-34.8	24.9	0.00e+00	123	41	0	1133510656	42	5462
2026-01-30 14:40:47.77	37.64	63.22	-33.9	-34.8	25.2	0.00e+00	123	42	0	1136656384	42	5413
2026-01-30 14:40:48.49	37.87	63.51	-34.0	-34.9	25.2	0.00e+00	123	42	0	1139802112	42	5507
2026-01-30 14:40:49.79	38.30	64.04	-34.0	-34.9	25.0	0.00e+00	122	42	0	1142947840	42	5494
2026-01-30 14:40:50.51	38.55	64.34	-33.8	-34.6	25.4	0.00e+00	122	42	0	1146093568	40	5982
2026-01-30 14:40:51.81	39.02	64.87	-33.3	-34.1	25.4	0.00e+00	122	42	0	1149239296	40	5621
2026-01-30 14:40:52.53	39.28	65.17	-33.2	-34.1	25.4	0.00e+00	124	42	0	1152385024	40	5605
2026-01-30 14:40:53.83	39.78	65.71	-33.6	-34.5	25.2	0.00e+00	120	42	0	1156579328	40	5894
2026-01-30 14:40:54.55	40.07	66.01	-33.7	-34.5	25.2	0.00e+00	122	42	0	1158676480	40	5917
2026-01-30 14:40:55.85	40.61	66.55	-33.6	-34.4	25.3	0.00e+00	120	42	0	1161822208	40	5844
2026-01-30 14:40:56.57	40.92	66.85	-33.6	-34.5	25.4	0.00e+00	122	42	0	1164967936	40	5891
2026-01-30 14:40:57.87	41.51	67.39	-33.6	-34.5	25.5	0.00e+00	120	42	0	1169162240	40	5901
2026-01-30 14:40:58.59	41.84	67.69	-33.9	-34.7	25.4	0.00e+00	123	42	0	1171259392	40	6044
2026-01-30 14:40:59.89	42.48	68.24	-33.8	-34.6	25.6	0.00e+00	120	42	0	1175453696	40	5977
2026-01-30 14:41:00.61	42.84	68.54	-33.5	-34.3	25.6	0.00e+00	123	42	0	1177550848	40	5791
2026-01-30 14:41:01.91	43.53	69.09	-33.6	-34.5	24.8	0.00e+00	123	42	0	1181745152	40	5912
2026-01-30 14:41:02.63	43.93	69.39	-33.5	-34.4	25.0	0.00e+00	123	42	0	1183842304	40	5829
2026-01-30 14:41:03.93	44.68	69.94	-33.6	-34.4	25.2	0.00e+00	123	42	0	1188036608	40	5848
2026-01-30 14:41:04.66	45.12	70.24	-33.5	-34.4	25.5	0.00e+00	123	42	0	1190133760	40	5828
2026-01-30 14:41:05.95	45.94	70.79	-33.5	-34.4	25.5	0.00e+00	122	42	0	1194328064	40	5807
2026-01-30 14:41:06.68	46.43	71.09	-33.5	-34.4	25.2	0.00e+00	120	42	0	1196425216	40	5825
2026-01-30 14:41:07.97	47.32	71.63	-33.9	-34.8	24.9	0.00e+00	123	42	0	1200619520	40	6090
2026-01-30 14:41:08.69	47.85	71.93	-33.9	-34.8	25.0	0.00e+00	123	42	0	1202716672	40	6107
2026-01-30 14:41:09.99	48.85	72.48	-34.1	-35.0	25.0	0.00e+00	120	42	0	1206910976	40	6259
2026-01-30 14:41:10.71	49.43	72.77	-34.2	-35.1	25.1	0.00e+00	123	42	0	1209008128	40	6329
2026-01-30 14:41:12.01	50.53	73.31	-33.8	-34.7	25.5	0.00e+00	123	42	0	1213202432	40	6024
2026-01-30 14:41:12.73	51.18	73.61	-33.7	-34.6	25.6	0.00e+00	123	42	0	1215299584	40	5944
2026-01-30 14:41:14.03	52.40	74.14	-33.7	-34.5	25.5	0.00e+00	122	42	0	1219493888	40	5911
2026-01-30 14:41:14.75	53.12	74.43	-33.8	-34.7	25.4	0.00e+00	122	42	0	1221591040	40	6031
2026-01-30 14:41:16.05	54.49	74.95	-33.5	-34.3	25.8	0.00e+00	123	42	0	1225785344	40	5775
2026-01-30 14:41:16.77	55.29	75.24	-33.4	-34.2	25.7	0.00e+00	123	42	0	1227882496	40	5700
2026-01-30 14:41:18.07	56.81	75.75	-33.1	-33.9	25.9	0.00e+00	123	42	0	1232076800	40	5526
2026-01-30 14:41:18.79	57.71	76.03	-33.2	-34.1	25.8	0.00e+00	123	42	0	1234173952	40	5609
2026-01-30 14:41:20.09	59.42	76.53	-33.4	-34.3	25.8	0.00e+00	123	42	0	1238368256	40	5736
2026-01-30 14:41:20.81	60.43	76.80	-33.5	-34.4	25.6	0.00e+00	122	42	0	1240465408	40	5812
2026-01-30 14:41:22.11	62.36	77.28	-33.6	-34.4	25.7	0.00e+00	120	42	0	1244659712	40	5838
2026-01-30 14:41:22.83	63.49	77.54	-33.4	-34.3	25.8	0.00e+00	123	42	0	1246756864	40	5736
2026-01-30 14:41:24.13	65.66	78.00	-33.1	-33.9	26.0	0.00e+00	123	42	0	1250951168	40	5491
2026-01-30 14:41:24.85	66.94	78.25	-33.1	-34.0	26.0	0.00e+00	121	42	0	1253048320	40	5534
2026-01-30 14:41:26.15	69.38	78.68	-33.2	-34.0	25.9	0.00e+00	125	42	0	1257242624	40	5552
2026-01-30 14:41:26.87	70.82	78.91	-33.0	-33.8	26.0	0.00e+00	122	42	0	1259339776	40	5426
2026-01-30 14:41:28.17	73.57	79.31	-33.1	-33.9	25.8	0.00e+00	120	42	0	1263534080	40	5509
2026-01-30 14:41:28.89	75.18	79.52	-32.8	-33.6	25.8	0.00e+00	123	42	0	1265631232	40	5314
2026-01-30 14:41:30.19	78.26	79.88	-33.1	-33.9	25.4	0.00e+00	123	42	0	1269825536	38	6169
2026-01-30 14:41:30.91	80.06	80.06	-33.3	-34.1	25.6	0.00e+00	120	42	0	1271922688	38	6324
2026-01-30 14:41:32.21	83.48	80.37	-33.7	-34.5	25.5	0.00e+00	122	42	0	1276116992	38	6639
2026-01-30 14:41:32.93	85.47	80.53	-33.6	-34.5	25.3	0.00e+00	122	42	0	1278214144	38	6596
2026-01-30 14:41:34.23	89.22	80.78	-33.8	-34.6	25.3	0.00e+00	123	42	0	1282408448	40	5959
2026-01-30 14:41:34.95	91.39	80.90	-33.5	-34.3	25.5	0.00e+00	120	42	0	1284505600	40	5776
2026-01-30 14:41:36.25	95.43	81.09	-33.5	-34.4	25.5	0.00e+00	122	42	0	1288699904	40	5801
2026-01-30 14:41:36.97	97.75	81.18	-33.5	-34.3	25.4	0.00e+00	123	42	0	1290797056	40	5788
2026-01-30 14:41:38.27	102.02	81.29	-33.5	-34.4	25.5	0.00e+00	122	42	0	1294991360	40	5812
2026-01-30 14:41:38.99	104.43	81.34	-33.6	-34.4	25.5	0.00e+00	123	42	0	1297088512	40	5844
2026-01-30 14:41:40.29	108.83	81.38	-33.7	-34.5	25.5	0.00e+00	123	42	0	1301282816	40	5916
2026-01-30 14:41:41.01	111.27	81.38	-33.5	-34.4	25.8	0.00e+00	120	42	0	1303379968	40	5795
2026-01-30 14:41:42.31	115.67	81.34	-33.1	-34.0	25.8	0.00e+00	123	42	0	1307574272	40	5540
2026-01-30 14:41:43.03	118.09	81.30	-33.3	-34.2	25.7	0.00e+00	122	42	0	1309671424	40	5665
2026-01-30 14:41:44.33	122.37	81.18	-33.4	-34.2	25.9	0.00e+00	123	42	0	1313865728	40	5703
2026-01-30 14:41:45.05	124.68	81.10	-33.2	-34.0	26.0	0.00e+00	123	42	0	1315962880	40	5575
2026-01-30 14:41:46.35	128.74	80.91	-33.2	-34.0	25.8	0.00e+00	123	42	0	1320157184	40	5568
2026-01-30 14:41:47.07	130.91	80.79	-33.6	-34.5	25.5	0.00e+00	122	42	0	1322254336	40	5879
2026-01-30 14:41:48.37	134.67	80.54	-33.7	-34.6	25.6	0.00e+00	121	42	0	1326448640	40	5928
2026-01-30 14:41:49.09	136.67	80.38	-33.2	-34.1	25.9	0.00e+00	122	42	0	1328545792	40	5600
2026-01-30 14:41:50.39	140.10	80.07	-33.8	-34.7	25.3	0.00e+00	123	42	0	1332740096	40	6001
2026-01-30 14:41:51.11	141.90	79.89	-34.0	-34.8	25.4	0.00e+00	123	42	0	1334837248	40	6130
2026-01-30 14:41:52.41	144.99	79.53	-33.6	-34.4	25.5	0.00e+00	123	42	0	1339031552	40	5858
2026-01-30 14:41:53.13	146.61	79.32	-32.9	-33.7	26.1	0.00e+00	123	42	0	1341128704	40	5359
2026-01-30 14:41:54.43	149.37	78.92	-33.4	-34.3	25.5	0.00e+00	123	42	0	1345323008	40	5728
2026-01-30 14:41:55.15	150.81	78.69	-33.2	-34.0	25.9	0.00e+00	123	42	0	1347420160	40	5592
2026-01-30 14:41:56.45	153.26	78.26	-32.8	-33.6	26.0	0.00e+00	123	42	0	1351614464	40	5316
2026-01-30 14:41:57.17	154.55	78.02	-32.7	-33.5	25.8	0.00e+00	123	42	0	1353711616	38	5890
2026-01-30 14:41:58.47	156.72	77.56	-32.7	-33.5	25.9	0.00e+00	124	42	0	1357905920	38	5886
2026-01-30 14:41:59.19	157.86	77.30	-32.4	-33.2	26.1	0.00e+00	123	42	0	1360003072	38	5717
2026-01-30 14:42:00.49	159.79	76.82	-32.8	-33.7	25.8	0.00e+00	123	42	0	1364197376	38	5998
2026-01-30 14:42:01.21	160.80	76.55	-33.4	-34.2	25.2	0.00e+00	122	42	0	1366294528	38	6417
2026-01-30 14:42:02.51	162.52	76.05	-34.0	-34.9	24.8	0.00e+00	123	42	0	1370488832	40	6170
2026-01-30 14:42:03.23	163.42	75.77	-33.7	-34.6	25.2	0.00e+00	123	42	0	1372585984	40	5941
2026-01-30 14:42:04.53	164.96	75.26	-33.7	-34.5	25.1	0.00e+00	123	42	0	1376780288	40	5916
2026-01-30 14:42:05.25	165.76	74.97	-33.7	-34.6	25.2	0.00e+00	122	42	0	1378877440	40	5974
2026-01-30 14:42:06.55	167.13	74.45	-33.2	-34.1	25.8	0.00e+00	122	42	0	1383071744	40	5612
2026-01-30 14:42:07.27	167.85	74.15	-33.1	-33.9	26.0	0.00e+00	122	42	0	1385168896	40	5503
2026-01-30 14:42:08.57	169.08	73.62	-34.1	-35.0	25.0	0.00e+00	123	42	0	1389363200	40	6223
2026-01-30 14:42:09.29	169.73	73.32	-34.3	-35.3	24.7	0.00e+00	123	42	0	1391460352	40	6424
2026-01-30 14:42:10.58	170.83	72.79	-34.2	-35.0	25.0	0.00e+00	123	42	0	1395654656	40	6268
2026-01-30 14:42:11.30	171.41	72.49	-33.8	-34.6	25.5	0.00e+00	122	42	0	1397751808	40	5988
2026-01-30 14:42:12.60	172.41	71.95	-32.9	-33.7	26.2	0.00e+00	123	42	0	1401946112	40	5360
2026-01-30 14:42:13.32	172.94	71.65	-32.8	-33.6	26.2	0.00e+00	123	42	0	1404043264	38	5936
2026-01-30 14:42:14.62	173.85	71.10	-33.1	-33.9	25.9	0.00e+00	120	42	0	1408237568	38	6194
2026-01-30 14:42:15.34	174.33	70.80	-33.3	-34.1	25.8	0.00e+00	123	42	0	1410334720	38	6329
2026-01-30 14:42:16.64	175.15	70.25	-33.2	-34.0	25.0	0.00e+00	123	42	0	1414529024	38	6270
2026-01-30 14:42:17.36	175.59	69.95	-33.0	-33.9	25.2	0.00e+00	123	42	0	1416626176	38	6152
2026-01-30 14:42:18.66	176.34	69.40	-32.5	-33.3	26.1	0.00e+00	120	42	0	1420820480	38	5783
2026-01-30 14:42:19.38	176.74	69.10	-32.7	-33.5	26.2	0.00e+00	123	42	0	1422917632	38	5888
2026-01-30 14:42:20.68	177.44	68.55	-34.2	-35.1	25.2	0.00e+00	121	42	0	1427111936	40	6299
2026-01-30 14:42:21.40	177.80	68.25	-35.0	-35.9	24.8	0.00e+00	123	42	0	1429209088	42	6156
2026-01-30 14:42:22.70	178.44	67.70	-34.5	-35.4	24.7	0.00e+00	123	42	0	1433403392	42	5856
2026-01-30 14:42:23.42	178.77	67.40	-34.2	-35.2	24.5	0.00e+00	123	42	0	1436549120	42	5666
2026-01-30 14:42:24.72	179.36	66.85	-33.5	-34.4	25.0	0.00e+00	122	42	0	1439694848	40	5799
2026-01-30 14:42:25.44	179.67	66.55	-33.1	-33.9	25.6	0.00e+00	120	42	0	1442840576	40	5503
2026-01-30 14:42:26.73	180.21	66.01	-33.0	-33.8	26.0	0.00e+00	122	42	0	1445986304	40	5462
2026-01-30 14:42:27.45	180.50	65.71	-33.1	-33.9	25.7	0.00e+00	122	42	0	1448083456	40	5500
2026-01-30 14:42:28.75	181.00	65.17	-34.6	-35.5	24.3	0.00e+00	123	42	0	1452277760	40	6606
2026-01-30 14:42:29.47	181.27	64.87	-35.2	-36.2	24.3	0.00e+00	122	42	0	1455423488	42	6352
2026-01-30 14:42:30.77	181.73	64.34	-34.3	-35.2	25.0	0.00e+00	123	42	0	1458569216	42	5702
2026-01-30 14:42:31.49	181.98	64.04	-33.8	-34.7	25.2	0.00e+00	123	42	0	1461714944	42	5373
2026-01-30 14:42:32.79	182.42	63.51	-33.6	-34.4	25.4	0.00e+00	123	42	0	1464860672	40	5830
2026-01-30 14:42:33.51	182.65	63.22	-32.9	-33.7	25.7	0.00e+00	120	42	0	1468006400	40	5368
2026-01-30 14:42:34.81	183.05	62.69	-32.6	-33.4	26.3	0.00e+00	123	42	0	1471152128	38	5825
2026-01-30 14:42:35.53	183.27	62.40	-33.3	-34.1	25.9	0.00e+00	120	42	0	1474297856	38	6306
2026-01-30 14:42:36.83	183.65	61.87	-35.5	-36.4	24.1	0.00e+00	123	42	0	1477443584	42	6551
2026-01-30 14:42:37.55	183.85	61.59	-36.6	-37.6	23.3	0.00e+00	122	42	0	1480589312	44	6715
2026-01-30 14:42:38.85	184.21	61.07	-36.7	-37.7	23.0	0.00e+00	121	42	0	1483735040	46	6059
2026-01-30 14:42:39.57	184.40	60.78	-36.0	-37.0	23.8	0.00e+00	123	42	0	1486880768	46	5563
2026-01-30 14:42:40.87	184.73	60.27	-35.3	-36.2	24.3	0.00e+00	123	42	0	1491075072	44	5682
2026-01-30 14:42:41.59	184.91	59.98	-34.3	-35.1	25.3	0.00e+00	123	42	0	1493172224	42	5629
2026-01-30 14:42:42.89	185.23	59.47	-33.3	-34.1	25.9	0.00e+00	123	42	0	1497366528	40	5625
2026-01-30 14:42:43.61	185.39	59.19	-33.6	-34.4	25.6	0.00e+00	123	42	0	1499463680	40	5819
2026-01-30 14:42:44.91	185.69	58.69	-34.2	-35.0	25.1	0.00e+00	123	42	0	1502609408	40	6255
2026-01-30 14:42:45.63	185.85	58.41	-34.8	-35.7	24.6	0.00e+00	122	42	0	1505755136	40	6768
2026-01-30 14:42:46.93	186.13	57.92	-35.6	-36.6	24.2	0.00e+00	122	42	0	1509949440	42	6652
2026-01-30 14:42:47.65	186.28	57.64	-35.6	-36.6	23.9	0.00e+00	123	42	0	1512046592	44	5960
2026-01-30 14:42:48.95	186.54	57.15	-35.3	-36.3	23.4	0.00e+00	123	41	0	1516240896	44	5747
2026-01-30 14:42:49.67	186.69	56.88	-34.8	-35.7	23.8	0.00e+00	122	41	0	1518338048	44	5404
2026-01-30 14:42:50.97	186.94	56.39	-34.5	-35.4	24.6	0.00e+00	123	42	0	1522532352	42	5825
2026-01-30 14:42:51.69	187.07	56.12	-34.9	-35.8	24.8	0.00e+00	122	42	0	1524629504	42	6068
2026-01-30 14:42:52.99	187.31	55.64	-35.3	-36.2	24.1	0.00e+00	123	42	0	1528823808	42	6360
2026-01-30 14:42:53.71	187.44	55.38	-35.6	-36.5	23.9	0.00e+00	120	42	0	1530920960	42	6579
2026-01-30 14:42:55.01	187.66	54.90	-35.9	-36.8	23.9	0.00e+00	123	41	0	1535115264	44	6123
2026-01-30 14:42:55.74	187.79	54.64	-36.1	-37.0	23.8	0.00e+00	123	42	0	1537212416	44	6226
2026-01-30 14:42:57.03	188.00	54.17	-36.5	-37.5	23.4	0.00e+00	122	42	0	1541406720	44	6622
2026-01-30 14:42:57.75	188.11	53.92	-36.7	-37.7	23.3	0.00e+00	120	42	0	1543503872	44	6792
2026-01-30 14:42:59.05	188.32	53.45	-36.3	-37.3	23.1	0.00e+00	122	42	0	1547698176	44	6429
2026-01-30 14:42:59.77	188.43	53.20	-36.2	-37.2	22.9	0.00e+00	123	42	0	1549795328	44	6395
2026-01-30 14:43:01.07	188.62	52.74	-36.2	-37.1	23.2	0.00e+00	123	42	0	1553989632	44	6345
2026-01-30 14:43:01.79	188.73	52.49	-35.8	-36.7	23.7	0.00e+00	122	42	0	1556086784	44	6057
2026-01-30 14:43:03.09	188.91	52.04	-35.9	-36.8	23.9	0.00e+00	123	42	0	1560281088	44	6122
2026-01-30 14:43:03.81	189.01	51.79	-36.2	-37.1	23.8	0.00e+00	123	41	0	1562378240	44	6327
2026-01-30 14:43:05.10	189.19	51.35	-37.0	-38.0	22.9	0.00e+00	122	42	0	1566572544	46	6219
2026-01-30 14:43:05.83	189.29	51.10	-38.2	-39.3	22.0	0.00e+00	123	42	0	1568669696	48	6463
2026-01-30 14:43:07.13	189.46	50.66	-39.1	-40.3	21.1	0.00e+00	120	41	0	1572864000	50	6469
2026-01-30 14:43:07.85	189.55	50.42	-39.1	-40.3	21.0	0.00e+00	123	42	0	1574961152	50	6472
2026-01-30 14:43:09.15	189.71	49.99	-38.3	-39.4	22.0	0.00e+00	122	42	0	1579155456	50	5806
2026-01-30 14:43:09.87	189.80	49.75	-38.3	-39.4	22.0	0.00e+00	123	42	0	1581252608	50	5796
2026-01-30 14:43:11.17	189.96	49.32	-37.5	-38.5	22.5	0.00e+00	120	42	0	1585446912	48	5908
2026-01-30 14:43:11.89	190.04	49.09	-37.1	-38.1	22.6	0.00e+00	123	41	0	1587544064	48	5652
2026-01-30 14:43:13.19	190.19	48.67	-37.0	-38.1	22.6	0.00e+00	120	42	0	1591738368	48	5597
2026-01-30 14:43:13.91	190.27	48.44	-36.7	-37.7	22.4	0.00e+00	122	42	0	1593835520	46	6017
2026-01-30 14:43:15.21	190.41	48.02	-36.9	-37.9	22.0	0.00e+00	123	41	0	1598029824	46	6197
2026-01-30 14:43:15.93	190.49	47.79	-37.2	-38.1	22.7	0.00e+00	122	41	0	1600126976	46	6349
2026-01-30 14:43:17.23	190.63	47.38	-36.8	-37.7	23.2	0.00e+00	123	42	0	1604321280	46	6046
2026-01-30 14:43:17.95	190.70	47.16	-36.8	-37.8	22.9	0.00e+00	122	42	0	1606418432	46	6097
2026-01-30 14:43:19.25	190.84	46.76	-37.4	-38.5	21.9	0.00e+00	120	41	0	1610612736	46	6584
2026-01-30 14:43:19.97	190.91	46.53	-37.7	-38.7	21.8	0.00e+00	122	41	0	1612709888	48	6058
2026-01-30 14:43:21.27	191.04	46.14	-38.5	-39.6	21.5	0.00e+00	120	41	0	1616904192	48	6703
2026-01-30 14:43:21.99	191.11	45.92	-38.8	-40.0	21.3	0.00e+00	122	42	0	1619001344	50	6216
2026-01-30 14:43:23.29	191.23	45.53	-38.8	-39.9	21.5	0.00e+00	122	42	0	1623195648	50	6168
2026-01-30 14:43:24.01	191.30	45.31	-38.6	-39.6	21.7	0.00e+00	123	42	0	1625292800	50	5967
2026-01-30 14:43:25.31	191.41	44.92	-37.7	-38.7	22.6	0.00e+00	123	41	0	1629487104	50	5373
2026-01-30 14:43:26.03	191.48	44.71	-37.5	-38.4	22.7	0.00e+00	123	41	0	1631584256	48	5857
2026-01-30 14:43:27.33	191.59	44.33	-37.7	-38.7	22.4	0.00e+00	123	41	0	1635778560	48	6031
2026-01-30 14:43:28.05	191.66	44.12	-37.9	-38.9	22.3	0.00e+00	123	41	0	1637875712	48	6146
2026-01-30 14:43:29.35	191.77	43.75	-38.0	-39.1	21.8	0.00e+00	123	41	0	1642070016	48	6278
2026-01-30 14:43:30.07	191.83	43.54	-38.1	-39.2	21.4	0.00e+00	122	42	0	1644167168	48	6410
2026-01-30 14:43:31.37	191.93	43.17	-38.0	-39.1	21.3	0.00e+00	120	41	0	1648361472	48	6327
2026-01-30 14:43:32.10	191.99	42.96	-37.7	-38.8	21.5	0.00e+00	123	41	0	1650458624	48	6125
2026-01-30 14:43:33.39	192.09	42.60	-37.4	-38.4	22.2	0.00e+00	123	41	0	1654652928	48	5823
2026-01-30 14:43:34.11	192.15	42.40	-37.2	-38.1	22.5	0.00e+00	123	41	0	1656750080	48	5656
2026-01-30 14:43:35.41	192.25	42.04	-36.8	-37.8	23.2	0.00e+00	122	41	0	1660944384	48	5406
2026-01-30 14:43:36.13	192.30	41.85	-36.7	-37.6	23.4	0.00e+00	123	41	0	1663041536	46	5950
2026-01-30 14:43:37.43	192.40	41.49	-36.8	-37.7	23.2	0.00e+00	122	41	0	1667235840	46	6044
2026-01-30 14:43:38.15	192.45	41.30	-37.0	-37.9	23.0	0.00e+00	122	42	0	1669332992	46	6203
2026-01-30 14:43:39.45	192.55	40.95	-37.4	-38.4	22.5	0.00e+00	122	41	0	1673527296	46	6567
2026-01-30 14:43:40.17	192.60	40.76	-37.5	-38.5	22.5	0.00e+00	123	42	0	1675624448	46	6638
2026-01-30 14:43:41.47	192.69	40.41	-37.9	-38.9	22.2	0.00e+00	122	41	0	1679818752	48	6171
2026-01-30 14:43:42.19	192.74	40.22	-37.8	-38.9	22.3	0.00e+00	123	42	0	1681915904	48	6153
2026-01-30 14:43:43.49	192.83	39.89	-38.0	-39.0	22.2	0.00e+00	123	42	0	1686110208	48	6231
2026-01-30 14:43:44.21	192.87	39.70	-37.9	-38.9	22.3	0.00e+00	123	42	0	1688207360	48	6178
2026-01-30 14:43:45.51	192.96	39.37	-37.5	-38.5	22.6	0.00e+00	121	42	0	1692401664	48	5873
2026-01-30 14:43:46.23	193.00	39.18	-37.4	-38.4	22.7	0.00e+00	120	42	0	1694498816	48	5801
2026-01-30 14:43:47.53	193.09	38.85	-37.7	-38.8	22.1	0.00e+00	122	42	0	1698693120	48	6067
2026-01-30 14:43:48.25	193.13	38.67	-38.0	-39.0	21.9	0.00e+00	122	42	0	1700790272	48	6271
2026-01-30 14:43:49.55	193.21	38.35	-37.9	-39.0	22.2	0.00e+00	123	41	0	1704984576	48	6239
2026-01-30 14:43:50.27	193.26	38.17	-37.9	-39.0	22.2	0.00e+00	122	42	0	1707081728	48	6247
2026-01-30 14:43:51.56	193.33	37.85	-37.1	-38.1	22.9	0.00e+00	123	41	0	1711276032	48	5621
2026-01-30 14:43:52.29	193.38	37.67	-37.0	-38.0	22.7	0.00e+00	123	41	0	1713373184	48	5570
2026-01-30 14:43:53.58	193.45	37.36	-37.0	-38.1	22.5	0.00e+00	123	42	0	1717567488	48	5596
2026-01-30 14:43:54.30	193.49	37.19	-36.7	-37.7	22.7	0.00e+00	122	42	0	1719664640	46	5995
2026-01-30 14:43:55.60	193.57	36.88	-36.4	-37.4	22.9	0.00e+00	123	42	0	1723858944	46	5813
2026-01-30 14:43:56.32	193.61	36.71	-36.3	-37.3	23.0	0.00e+00	123	42	0	1725956096	46	5755
2026-01-30 14:43:57.62	193.68	36.40	-36.1	-37.1	23.2	0.00e+00	120	42	0	1730150400	46	5609
2026-01-30 14:43:58.34	193.72	36.23	-35.7	-36.6	23.5	0.00e+00	123	41	0	1732247552	46	5329
2026-01-30 14:43:59.63	193.79	35.93	-35.4	-36.4	23.9	0.00e+00	120	42	0	1736441856	44	5795
2026-01-30 14:44:00.36	193.83	35.77	-35.6	-36.5	24.0	0.00e+00	120	42	0	1738539008	44	5908
2026-01-30 14:44:01.65	193.90	35.47	-35.8	-36.7	24.0	0.00e+00	123	42	0	1742733312	44	6012
2026-01-30 14:44:02.38	193.93	35.30	-35.9	-36.8	23.9	0.00e+00	120	42	0	1744830464	44	6108
2026-01-30 14:44:03.67	194.00	35.01	-35.9	-36.8	23.9	0.00e+00	123	41	0	1749024768	44	6109
2026-01-30 14:44:04.39	194.04	34.85	-36.0	-36.9	23.8	0.00e+00	122	42	0	1751121920	44	6155
2026-01-30 14:44:05.69	194.10	34.56	-35.9	-36.9	23.9	0.00e+00	123	42	0	1755316224	44	6140
2026-01-30 14:44:06.41	194.14	34.40	-36.0	-36.9	23.8	0.00e+00	122	42	0	1757413376	44	6161
2026-01-30 14:44:07.70	194.20	34.12	-36.0	-37.0	23.7	0.00e+00	123	42	0	1761607680	44	6227
2026-01-30 14:44:08.42	194.23	33.96	-36.0	-36.9	23.9	0.00e+00	123	41	0	1763704832	44	6150
2026-01-30 14:44:09.72	194.29	33.68	-35.9	-36.8	23.9	0.00e+00	123	42	0	1767899136	44	6103
2026-01-30 14:44:10.44	194.33	33.53	-35.8	-36.7	24.0	0.00e+00	123	41	0	1769996288	44	6032
2026-01-30 14:44:11.74	194.39	33.25	-35.8	-36.7	24.0	0.00e+00	122	42	0	1774190592	44	6048
2026-01-30 14:44:12.46	194.42	33.10	-35.9	-36.8	24.0	0.00e+00	120	42	0	1776287744	44	6087
2026-01-30 14:44:13.76	194.48	32.83	-35.7	-36.6	24.1	0.00e+00	120	42	0	1780482048	44	5971
2026-01-30 14:44:14.48	194.51	32.68	-35.6	-36.5	24.1	0.00e+00	123	41	0	1783627776	44	5889
2026-01-30 14:44:15.78	194.57	32.41	-35.6	-36.5	24.2	0.00e+00	122	42	0	1786773504	44	5918
2026-01-30 14:44:16.50	194.60	32.26	-35.7	-36.6	24.2	0.00e+00	123	42	0	1788870656	44	5947
2026-01-30 14:44:17.80	194.66	31.99	-35.5	-36.4	24.2	0.00e+00	121	42	0	1793064960	44	5844
2026-01-30 14:44:18.52	194.69	31.85	-35.7	-36.6	24.0	0.00e+00	123	42	0	1796210688	44	5982
2026-01-30 14:44:19.82	194.74	31.58	-35.5	-36.4	24.3	0.00e+00	123	42	0	1799356416	44	5810
2026-01-30 14:44:20.54	194.77	31.44	-35.5	-36.4	24.4	0.00e+00	123	42	0	1802502144	44	5831
2026-01-30 14:44:21.84	194.82	31.18	-35.2	-36.1	24.4	0.00e+00	122	42	0	1805647872	44	5645
2026-01-30 14:44:22.56	194.85	31.04	-35.4	-36.3	24.4	0.00e+00	120	42	0	1807745024	44	5733
2026-01-30 14:44:23.86	194.91	30.78	-34.9	-35.8	24.6	0.00e+00	123	42	0	1811939328	44	5414
2026-01-30 14:44:24.58	194.93	30.64	-35.1	-36.0	24.4	0.00e+00	120	42	0	1815085056	44	5535
2026-01-30 14:44:25.88	194.99	30.39	-35.3	-36.3	24.3	0.00e+00	122	42	0	1818230784	44	5735
2026-01-30 14:44:26.60	195.01	30.25	-35.4	-36.3	24.3	0.00e+00	120	42	0	1821376512	44	5740
2026-01-30 14:44:27.90	195.06	30.00	-35.5	-36.4	24.1	0.00e+00	123	42	0	1824522240	44	5856
2026-01-30 14:44:28.62	195.09	29.87	-35.5	-36.5	24.1	0.00e+00	123	42	0	1827667968	44	5867
2026-01-30 14:44:29.92	195.14	29.62	-35.5	-36.4	24.1	0.00e+00	120	42	0	1831862272	44	5836
2026-01-30 14:44:30.64	195.17	29.49	-35.4	-36.3	24.1	0.00e+00	120	41	0	1833959424	44	5768
2026-01-30 14:44:31.94	195.21	29.24	-35.5	-36.4	24.0	0.00e+00	123	42	0	1838153728	44	5847
2026-01-30 14:44:32.66	195.24	29.11	-35.5	-36.4	24.0	0.00e+00	120	42	0	1840250880	44	5858
2026-01-30 14:44:33.96	195.29	28.87	-35.6	-36.5	23.9	0.00e+00	123	42	0	1843396608	44	5915
2026-01-30 14:44:34.68	195.31	28.74	-35.4	-36.4	23.9	0.00e+00	123	41	0	1846542336	44	5819
2026-01-30 14:44:35.98	195.36	28.50	-35.6	-36.6	23.6	0.00e+00	123	42	0	1850736640	44	5929
2026-01-30 14:44:36.70	195.38	28.37	-35.5	-36.5	23.7	0.00e+00	123	42	0	1852833792	44	5897
2026-01-30 14:44:38.00	195.43	28.14	-35.6	-36.5	23.4	0.00e+00	123	42	0	1857028096	44	5915
2026-01-30 14:44:38.72	195.45	28.01	-35.7	-36.6	23.4	0.00e+00	123	42	0	1859125248	44	5983
2026-01-30 14:44:40.02	195.50	27.78	-35.7	-36.7	23.4	0.00e+00	122	41	0	1863319552	44	6053
2026-01-30 14:44:40.74	195.52	27.66	-35.7	-36.7	23.5	0.00e+00	123	42	0	1865416704	44	6042
2026-01-30 14:44:42.04	195.57	27.43	-35.3	-36.2	24.0	0.00e+00	122	42	0	1869611008	44	5707
2026-01-30 14:44:42.76	195.59	27.31	-35.3	-36.2	24.1	0.00e+00	120	42	0	1871708160	44	5703
2026-01-30 14:44:44.06	195.63	27.08	-35.1	-36.0	24.3	0.00e+00	123	42	0	1875902464	44	5554
2026-01-30 14:44:44.78	195.65	26.96	-34.9	-35.8	24.3	0.00e+00	120	42	0	1877999616	44	5433
2026-01-30 14:44:46.08	195.70	26.74	-34.7	-35.6	24.4	0.00e+00	123	42	0	1882193920	42	5978
2026-01-30 14:44:46.80	195.72	26.62	-34.7	-35.6	24.5	0.00e+00	120	42	0	1884291072	42	5930
2026-01-30 14:44:48.10	195.76	26.40	-34.6	-35.5	24.5	0.00e+00	123	42	0	1888485376	42	5923
2026-01-30 14:44:48.82	195.78	26.28	-34.5	-35.4	24.6	0.00e+00	123	41	0	1890582528	42	5800
2026-01-30 14:44:50.12	195.82	26.06	-34.5	-35.3	24.7	0.00e+00	122	42	0	1894776832	42	5790
2026-01-30 14:44:50.84	195.84	25.94	-34.5	-35.4	24.7	0.00e+00	122	42	0	1896873984	42	5812
2026-01-30 14:44:52.14	195.88	25.73	-34.4	-35.3	24.9	0.00e+00	122	42	0	1901068288	42	5764
2026-01-30 14:44:52.86	195.91	25.61	-34.4	-35.3	24.9	0.00e+00	123	42	0	1903165440	42	5738
2026-01-30 14:44:54.15	195.94	25.40	-34.3	-35.2	25.0	0.00e+00	123	42	0	1907359744	42	5663
2026-01-30 14:44:54.87	195.96	25.29	-34.2	-35.1	25.0	0.00e+00	120	42	0	1909456896	42	5616
2026-01-30 14:44:56.17	196.00	25.08	-34.3	-35.1	24.9	0.00e+00	122	42	0	1913651200	42	5659
2026-01-30 14:44:56.89	196.02	24.97	-34.3	-35.1	24.9	0.00e+00	120	41	0	1915748352	42	5643
2026-01-30 14:44:58.19	196.06	24.76	-34.5	-35.4	24.7	0.00e+00	122	42	0	1919942656	42	5814
2026-01-30 14:44:58.91	196.08	24.65	-34.6	-35.5	24.8	0.00e+00	122	41	0	1922039808	42	5925
2026-01-30 14:45:00.21	196.12	24.44	-34.6	-35.5	24.9	0.00e+00	123	41	0	1926234112	42	5883
2026-01-30 14:45:00.93	196.14	24.33	-34.7	-35.6	24.9	0.00e+00	120	41	0	1928331264	42	5947
2026-01-30 14:45:02.23	196.17	24.13	-34.6	-35.5	24.9	0.00e+00	122	42	0	1932525568	42	5882
2026-01-30 14:45:02.95	196.19	24.02	-34.5	-35.4	25.0	0.00e+00	123	42	0	1934622720	42	5794
2026-01-30 14:45:04.25	196.23	23.82	-34.5	-35.3	25.0	0.00e+00	122	42	0	1938817024	42	5791
2026-01-30 14:45:04.97	196.25	23.71	-34.5	-35.3	25.0	0.00e+00	123	42	0	1940914176	42	5765
2026-01-30 14:45:06.27	196.28	23.52	-34.4	-35.2	25.1	0.00e+00	120	42	0	1945108480	42	5704
2026-01-30 14:45:06.99	196.30	23.41	-34.5	-35.3	25.0	0.00e+00	122	41	0	1947205632	42	5764
2026-01-30 14:45:08.29	196.34	23.22	-34.3	-35.2	25.1	0.00e+00	123	42	0	1951399936	42	5696
2026-01-30 14:45:09.01	196.36	23.11	-34.4	-35.2	25.1	0.00e+00	122	42	0	1953497088	42	5714
2026-01-30 14:45:10.31	196.39	22.92	-34.3	-35.2	25.2	0.00e+00	120	42	0	1957691392	42	5664
2026-01-30 14:45:11.03	196.41	22.81	-34.4	-35.3	25.0	0.00e+00	122	42	0	1959788544	42	5732
2026-01-30 14:45:12.33	196.44	22.62	-34.3	-35.2	25.1	0.00e+00	122	41	0	1963982848	42	5684
2026-01-30 14:45:13.05	196.46	22.52	-34.5	-35.4	25.1	0.00e+00	123	42	0	1966080000	42	5796
2026-01-30 14:45:14.35	196.49	22.33	-34.6	-35.4	24.9	0.00e+00	120	41	0	1970274304	42	5849
2026-01-30 14:45:15.07	196.51	22.23	-34.6	-35.4	25.0	0.00e+00	123	42	0	1972371456	42	5845
2026-01-30 14:45:16.37	196.54	22.04	-34.7	-35.6	24.8	0.00e+00	123	41	0	1976565760	42	5947
