passes_logs/2026/01/30/R4.6S_Anadyr/R4.6S_Anadyr__20260130_132313_SUOMI_NPP_rec.log

#Pass ID: 20260130_132313_SUOMI NPP
#Satellite: SUOMI NPP
#Configuration: NPP
#almurnet v.1.7.20251203
#Start time: 2026-01-30 13:23:14

#Version: 2.2.20231116
#Station: R4.6S_Anadyr
#Location: 177.4865 lon 64.73178 lat
#TLE: 1 37849U 11061A   26029.48304708  .00000140  00000+0  87283-4 0  9999
#TLE: 2 37849  98.7824 331.4079 0002024  38.4342 321.6978 14.19531488738761

#Time	Az	El	Level	Level2	SNR	BER	BlckErr	Temp	State	Recorded	gain1	gain2
2026-01-30 13:23:14.54	18.86	0.07	-49.5	-62.1	3.4	1.52e+00	0	38	0	0	60	44519
2026-01-30 13:23:15.54	18.90	0.13	-49.5	-64.8	3.6	1.51e+00	0	39	104	0	60	62615
2026-01-30 13:23:16.56	18.95	0.18	-49.6	-64.8	3.6	1.51e+00	0	39	104	0	60	62793
2026-01-30 13:23:17.57	19.00	0.24	-49.6	-64.8	3.6	1.51e+00	0	39	104	0	60	62797
2026-01-30 13:23:18.58	19.05	0.30	-49.6	-64.8	3.6	1.51e+00	0	39	104	0	60	62621
2026-01-30 13:23:19.59	19.09	0.35	-49.6	-64.8	3.6	1.51e+00	0	40	104	0	60	63051
2026-01-30 13:23:20.60	19.14	0.41	-49.6	-64.8	3.6	1.51e+00	0	40	104	0	60	63160
2026-01-30 13:23:21.61	19.19	0.47	-49.6	-64.9	3.6	1.51e+00	0	40	104	0	60	63257
2026-01-30 13:23:22.62	19.24	0.52	-49.6	-64.9	3.6	1.51e+00	0	40	104	0	60	63498
2026-01-30 13:23:23.63	19.29	0.58	-49.6	-64.9	3.6	1.51e+00	0	40	104	0	60	63246
2026-01-30 13:23:24.64	19.34	0.64	-49.6	-64.9	3.6	1.51e+00	0	40	104	0	60	63180
2026-01-30 13:23:25.65	19.38	0.69	-49.6	-64.8	3.6	1.51e+00	0	40	104	0	60	62745
2026-01-30 13:23:26.66	19.43	0.75	-49.6	-64.7	3.6	1.51e+00	0	40	104	0	60	62318
2026-01-30 13:23:27.67	19.48	0.81	-49.5	-64.7	3.6	1.51e+00	0	40	104	0	60	62339
2026-01-30 13:23:28.68	19.53	0.87	-49.5	-64.7	3.6	1.51e+00	0	40	104	0	60	62212
2026-01-30 13:23:29.69	19.58	0.92	-49.4	-64.6	3.6	1.51e+00	0	40	104	0	60	61484
2026-01-30 13:23:30.70	19.63	0.98	-49.3	-64.5	3.6	1.51e+00	0	40	104	0	60	60905
2026-01-30 13:23:31.71	19.68	1.04	-49.2	-64.4	3.6	1.51e+00	0	40	104	0	60	60116
2026-01-30 13:23:32.72	19.73	1.10	-49.0	-64.3	3.6	1.51e+00	0	40	104	0	60	59424
2026-01-30 13:23:33.73	19.78	1.15	-49.0	-64.2	3.6	1.51e+00	0	40	104	0	60	58685
2026-01-30 13:23:34.74	19.83	1.21	-48.8	-64.1	3.6	1.51e+00	0	40	104	0	60	57841
2026-01-30 13:23:35.75	19.88	1.27	-48.7	-63.9	3.6	1.51e+00	0	40	104	0	60	56916
2026-01-30 13:23:36.76	19.93	1.33	-48.5	-63.7	3.6	1.51e+00	0	40	104	0	60	55296
2026-01-30 13:23:37.78	19.98	1.39	-48.2	-63.5	3.6	1.51e+00	0	40	104	0	60	53819
2026-01-30 13:23:38.79	20.03	1.45	-48.1	-63.3	3.6	1.51e+00	0	40	104	0	60	52944
2026-01-30 13:23:39.80	20.08	1.51	-48.1	-63.3	3.6	1.51e+00	0	40	104	0	60	52703
2026-01-30 13:23:40.81	20.14	1.56	-48.1	-63.3	3.6	1.51e+00	0	40	104	0	60	52594
2026-01-30 13:23:41.81	20.19	1.62	-48.1	-63.2	3.6	1.51e+00	0	40	104	0	60	52528
2026-01-30 13:23:42.82	20.24	1.68	-48.1	-63.2	3.6	1.51e+00	0	40	104	0	60	52067
2026-01-30 13:23:43.83	20.29	1.74	-48.1	-63.2	3.6	1.51e+00	0	40	104	0	60	52043
2026-01-30 13:23:44.84	20.34	1.80	-48.1	-63.2	3.6	1.51e+00	0	40	104	0	60	52260
2026-01-30 13:23:45.85	20.39	1.86	-48.1	-63.3	3.6	1.51e+00	0	40	104	0	60	52616
2026-01-30 13:23:46.86	20.45	1.92	-48.1	-63.3	3.6	1.51e+00	0	40	104	0	60	52780
2026-01-30 13:23:47.87	20.50	1.98	-48.1	-63.3	3.6	1.51e+00	0	40	104	0	60	52858
2026-01-30 13:23:48.88	20.55	2.04	-48.1	-63.3	3.6	1.51e+00	0	40	104	0	60	52924
2026-01-30 13:23:49.89	20.61	2.10	-48.1	-63.3	3.6	1.51e+00	0	40	104	0	60	52828
2026-01-30 13:23:50.90	20.66	2.16	-48.1	-63.3	3.6	1.51e+00	0	40	104	0	60	52953
2026-01-30 13:23:51.91	20.71	2.22	-48.1	-63.3	3.6	1.51e+00	0	40	104	0	60	52920
2026-01-30 13:23:52.92	20.77	2.28	-48.1	-63.2	3.6	1.51e+00	0	40	104	0	60	52500
2026-01-30 13:23:53.93	20.82	2.34	-48.1	-63.0	3.6	1.51e+00	0	40	104	0	60	50836
2026-01-30 13:23:54.94	20.87	2.40	-48.1	-62.7	3.6	1.51e+00	0	40	104	0	60	49077
2026-01-30 13:23:55.95	20.93	2.46	-48.1	-62.6	3.6	1.51e+00	0	40	104	0	60	49028
2026-01-30 13:23:56.96	20.98	2.52	-48.1	-62.8	3.6	1.51e+00	0	40	104	0	60	49715
2026-01-30 13:23:57.97	21.04	2.58	-48.1	-63.2	3.6	1.51e+00	0	40	104	0	60	52487
2026-01-30 13:23:58.98	21.09	2.64	-48.1	-62.8	3.6	1.51e+00	0	40	104	0	60	49935
2026-01-30 13:23:59.99	21.15	2.70	-48.0	-60.2	3.7	1.51e+00	0	40	104	0	60	36833
2026-01-30 13:24:01.00	21.20	2.76	-47.5	-55.6	6.8	4.62e-01	0	40	0	0	60	21764
2026-01-30 13:24:02.01	21.26	2.82	-47.0	-52.7	9.5	1.11e-01	92	40	0	1048576	60	15659
2026-01-30 13:24:03.02	21.31	2.88	-45.8	-49.8	12.6	1.32e-03	0	40	0	3145728	60	11217
2026-01-30 13:24:04.03	21.37	2.94	-45.0	-48.1	14.3	2.20e-06	0	40	0	5242880	60	9190
2026-01-30 13:24:05.04	21.42	3.00	-43.6	-45.9	16.3	0.00e+00	0	40	0	6291456	60	7129
2026-01-30 13:24:06.05	21.48	3.06	-43.2	-45.4	16.9	0.00e+00	0	40	0	8388608	60	6713
2026-01-30 13:24:07.06	21.54	3.13	-42.6	-44.5	17.6	0.00e+00	25	40	0	10485760	58	6838
2026-01-30 13:24:08.07	21.59	3.19	-42.5	-44.3	17.7	0.00e+00	0	40	0	12582912	58	6687
2026-01-30 13:24:09.08	21.65	3.25	-42.8	-44.8	17.4	0.00e+00	91	40	0	13631488	58	7025
2026-01-30 13:24:10.09	21.71	3.31	-43.1	-45.1	17.0	0.00e+00	0	40	0	15728640	58	7333
2026-01-30 13:24:11.10	21.77	3.37	-44.4	-47.1	15.0	0.00e+00	45	40	0	17825792	60	8228
2026-01-30 13:24:12.11	21.82	3.43	-45.1	-48.4	13.9	3.00e-06	33	40	0	19922944	60	9469
2026-01-30 13:24:13.12	21.88	3.50	-42.9	-44.8	17.5	0.00e+00	0	40	0	22020096	60	6295
2026-01-30 13:24:14.13	21.94	3.56	-42.8	-44.8	17.7	0.00e+00	0	40	0	23068672	58	7036
2026-01-30 13:24:15.14	22.00	3.62	-48.0	-63.0	3.6	7.18e-01	0	40	104	24117248	60	50808
2026-01-30 13:24:16.15	22.06	3.68	-47.2	-54.2	10.5	7.92e-01	62	40	104	24117248	60	18573
2026-01-30 13:24:17.16	22.11	3.75	-47.7	-55.4	7.1	1.32e-01	0	40	0	24117248	60	21308
2026-01-30 13:24:18.17	22.17	3.81	-43.8	-46.1	16.4	1.50e-06	43	40	0	26214400	60	7297
2026-01-30 13:24:19.18	22.23	3.87	-43.7	-45.9	16.2	0.00e+00	0	40	0	28311552	60	7130
2026-01-30 13:24:20.19	22.29	3.94	-43.5	-45.6	16.7	0.00e+00	0	40	0	30408704	60	6925
2026-01-30 13:24:21.20	22.35	4.00	-43.9	-46.2	16.3	0.00e+00	17	40	0	32505856	60	7408
2026-01-30 13:24:22.21	22.41	4.06	-43.1	-45.1	17.3	0.00e+00	0	40	0	33554432	60	6525
2026-01-30 13:24:23.22	22.47	4.13	-42.6	-44.4	17.9	0.00e+00	56	40	0	35651584	60	5988
2026-01-30 13:24:24.23	22.53	4.19	-42.7	-44.6	17.8	0.00e+00	0	40	0	37748736	58	6861
2026-01-30 13:24:25.24	22.59	4.25	-42.7	-44.5	17.8	0.00e+00	92	40	0	39845888	58	6808
2026-01-30 13:24:26.25	22.65	4.32	-42.8	-44.7	17.7	0.00e+00	0	40	0	41943040	58	6955
2026-01-30 13:24:27.26	22.71	4.38	-42.3	-44.0	18.2	0.00e+00	0	40	0	44040192	58	6462
2026-01-30 13:24:28.27	22.78	4.44	-42.3	-44.0	18.5	0.00e+00	33	40	0	45088768	58	6434
2026-01-30 13:24:29.28	22.84	4.51	-42.7	-44.5	17.9	0.00e+00	0	40	0	47185920	58	6816
2026-01-30 13:24:30.29	22.90	4.57	-42.4	-44.2	18.2	0.00e+00	27	40	0	49283072	58	6558
2026-01-30 13:24:31.29	22.96	4.64	-42.3	-44.0	18.5	0.00e+00	0	40	0	51380224	58	6414
2026-01-30 13:24:32.30	23.02	4.70	-42.1	-43.8	18.8	0.00e+00	90	40	0	53477376	58	6283
2026-01-30 13:24:33.32	23.09	4.77	-42.1	-43.7	18.7	0.00e+00	0	40	0	54525952	58	6220
2026-01-30 13:24:34.33	23.15	4.83	-42.0	-43.6	18.8	0.00e+00	0	40	0	56623104	58	6170
2026-01-30 13:24:35.33	23.21	4.90	-42.0	-43.6	18.8	0.00e+00	0	40	0	58720256	58	6163
2026-01-30 13:24:36.34	23.27	4.96	-42.0	-43.6	18.8	0.00e+00	0	40	0	60817408	58	6173
2026-01-30 13:24:37.35	23.34	5.03	-41.8	-43.3	19.2	0.00e+00	58	41	0	62914560	58	5937
2026-01-30 13:24:38.36	23.40	5.09	-42.0	-43.6	18.9	0.00e+00	0	40	0	63963136	56	6851
2026-01-30 13:24:39.37	23.47	5.16	-41.8	-43.4	19.1	0.00e+00	92	40	0	66060288	56	6732
2026-01-30 13:24:40.38	23.53	5.22	-41.8	-43.3	19.1	0.00e+00	0	40	0	68157440	56	6661
2026-01-30 13:24:41.40	23.60	5.29	-41.7	-43.2	19.2	0.00e+00	0	40	0	70254592	56	6585
2026-01-30 13:24:42.40	23.66	5.35	-41.7	-43.2	19.3	0.00e+00	0	40	0	72351744	56	6542
2026-01-30 13:24:43.41	23.73	5.42	-41.5	-43.0	19.5	0.00e+00	0	41	0	73400320	56	6405
2026-01-30 13:24:44.42	23.79	5.49	-41.6	-43.1	19.4	0.00e+00	57	40	0	75497472	56	6466
2026-01-30 13:24:45.43	23.86	5.55	-41.7	-43.2	19.3	0.00e+00	0	40	0	77594624	56	6559
2026-01-30 13:24:46.44	23.92	5.62	-41.6	-43.1	19.3	0.00e+00	92	40	0	79691776	56	6527
2026-01-30 13:24:47.45	23.99	5.69	-41.6	-43.0	19.5	0.00e+00	0	41	0	81788928	56	6464
2026-01-30 13:24:48.46	24.06	5.75	-41.5	-42.9	19.6	0.00e+00	0	40	0	82837504	56	6354
2026-01-30 13:24:49.47	24.12	5.82	-41.5	-43.0	19.5	0.00e+00	0	40	0	84934656	56	6403
2026-01-30 13:24:50.48	24.19	5.89	-41.3	-42.7	19.8	0.00e+00	0	40	0	87031808	56	6184
2026-01-30 13:24:51.49	24.26	5.95	-41.3	-42.7	19.7	0.00e+00	0	40	0	89128960	56	6189
2026-01-30 13:24:52.50	24.32	6.02	-41.4	-42.8	19.7	0.00e+00	0	40	0	91226112	56	6315
2026-01-30 13:24:53.51	24.39	6.09	-41.2	-42.6	19.8	0.00e+00	72	40	0	92274688	56	6115
2026-01-30 13:24:54.52	24.46	6.16	-41.4	-42.8	19.8	0.00e+00	0	40	0	94371840	56	6267
2026-01-30 13:24:55.53	24.53	6.22	-41.5	-42.9	19.7	0.00e+00	91	40	0	96468992	56	6383
2026-01-30 13:24:56.54	24.60	6.29	-41.3	-42.7	20.0	0.00e+00	0	41	0	98566144	56	6179
2026-01-30 13:24:57.55	24.67	6.36	-41.1	-42.5	20.1	0.00e+00	0	41	0	100663296	56	6077
2026-01-30 13:24:58.55	24.74	6.43	-41.3	-42.7	19.8	0.00e+00	0	40	0	101711872	56	6200
2026-01-30 13:24:59.56	24.81	6.50	-41.2	-42.5	20.0	0.00e+00	0	40	0	103809024	56	6100
2026-01-30 13:25:00.58	24.88	6.56	-41.1	-42.5	20.1	0.00e+00	54	41	0	105906176	56	6074
2026-01-30 13:25:01.58	24.95	6.63	-41.2	-42.6	20.0	0.00e+00	0	41	0	108003328	56	6116
2026-01-30 13:25:02.60	25.02	6.70	-41.0	-42.3	20.2	0.00e+00	60	41	0	110100480	56	5949
2026-01-30 13:25:03.60	25.09	6.77	-41.0	-42.3	20.2	0.00e+00	0	41	0	112197632	56	5908
2026-01-30 13:25:04.61	25.16	6.84	-41.0	-42.4	20.2	0.00e+00	0	40	0	113246208	56	5985
2026-01-30 13:25:05.62	25.23	6.91	-41.1	-42.4	20.2	0.00e+00	0	40	0	115343360	56	6008
2026-01-30 13:25:06.63	25.30	6.98	-41.1	-42.5	20.1	0.00e+00	0	40	0	117440512	56	6060
2026-01-30 13:25:07.65	25.38	7.05	-41.1	-42.5	20.1	0.00e+00	14	40	0	119537664	56	6046
2026-01-30 13:25:08.65	25.45	7.12	-41.1	-42.4	20.2	0.00e+00	0	40	0	121634816	56	6015
2026-01-30 13:25:09.66	25.52	7.19	-40.7	-42.0	20.4	0.00e+00	68	41	0	122683392	54	6425
2026-01-30 13:25:10.67	25.59	7.26	-40.7	-42.0	20.5	0.00e+00	0	40	0	124780544	54	6415
2026-01-30 13:25:11.68	25.67	7.33	-40.9	-42.2	20.4	0.00e+00	0	41	0	126877696	54	6608
2026-01-30 13:25:12.69	25.74	7.40	-40.8	-42.1	20.4	0.00e+00	0	41	0	128974848	54	6500
2026-01-30 13:25:13.70	25.82	7.47	-40.6	-41.9	20.6	0.00e+00	0	41	0	131072000	54	6343
2026-01-30 13:25:14.71	25.89	7.54	-40.6	-41.9	20.6	0.00e+00	63	41	0	132120576	54	6364
2026-01-30 13:25:15.72	25.97	7.61	-40.3	-41.5	21.0	0.00e+00	0	41	0	134217728	54	6053
2026-01-30 13:25:16.73	26.04	7.68	-40.5	-41.7	20.7	0.00e+00	73	41	0	136314880	54	6218
2026-01-30 13:25:17.74	26.12	7.75	-40.3	-41.5	21.0	0.00e+00	0	41	0	138412032	54	6062
2026-01-30 13:25:18.75	26.19	7.82	-40.1	-41.3	21.2	0.00e+00	0	41	0	140509184	54	5927
2026-01-30 13:25:19.76	26.27	7.89	-40.2	-41.3	21.1	0.00e+00	0	41	0	141557760	54	5955
2026-01-30 13:25:20.77	26.35	7.97	-40.2	-41.4	21.1	0.00e+00	0	41	0	143654912	54	6002
2026-01-30 13:25:21.78	26.42	8.04	-40.0	-41.1	21.3	0.00e+00	33	40	0	145752064	54	5804
2026-01-30 13:25:22.79	26.50	8.11	-40.0	-41.1	21.3	0.00e+00	0	41	0	147849216	54	5795
2026-01-30 13:25:23.80	26.58	8.18	-39.9	-41.1	21.4	0.00e+00	60	41	0	149946368	52	6485
2026-01-30 13:25:24.81	26.66	8.25	-39.9	-41.1	21.3	0.00e+00	0	41	0	150994944	52	6492
2026-01-30 13:25:25.81	26.73	8.33	-39.9	-41.0	21.5	0.00e+00	0	41	0	153092096	52	6425
2026-01-30 13:25:26.82	26.81	8.40	-39.8	-40.9	21.5	0.00e+00	0	41	0	155189248	52	6338
2026-01-30 13:25:27.83	26.89	8.47	-39.8	-40.9	21.5	0.00e+00	0	41	0	157286400	52	6374
2026-01-30 13:25:28.84	26.97	8.54	-40.0	-41.1	21.4	0.00e+00	0	41	0	159383552	52	6507
2026-01-30 13:25:29.85	27.05	8.62	-39.6	-40.7	21.8	0.00e+00	0	41	0	160432128	52	6210
2026-01-30 13:25:30.86	27.13	8.69	-39.9	-41.0	21.4	0.00e+00	92	41	0	162529280	52	6434
2026-01-30 13:25:31.88	27.21	8.76	-39.5	-40.6	21.8	0.00e+00	0	40	0	164626432	52	6161
2026-01-30 13:25:32.88	27.29	8.84	-39.5	-40.6	21.8	0.00e+00	92	41	0	166723584	52	6145
2026-01-30 13:25:33.90	27.38	8.91	-39.7	-40.8	21.7	0.00e+00	0	40	0	168820736	52	6251
2026-01-30 13:25:34.91	27.46	8.99	-39.5	-40.5	21.9	0.00e+00	0	41	0	169869312	52	6090
2026-01-30 13:25:35.92	27.54	9.06	-39.3	-40.4	22.1	0.00e+00	0	41	0	171966464	52	5981
2026-01-30 13:25:36.93	27.62	9.13	-39.3	-40.3	22.0	0.00e+00	0	41	0	174063616	52	5956
2026-01-30 13:25:37.93	27.71	9.21	-39.2	-40.2	22.2	0.00e+00	65	41	0	176160768	52	5894
2026-01-30 13:25:38.95	27.79	9.28	-39.2	-40.3	22.2	0.00e+00	0	41	0	178257920	52	5916
2026-01-30 13:25:39.96	27.87	9.36	-39.2	-40.2	22.2	0.00e+00	65	41	0	180355072	52	5870
2026-01-30 13:25:40.97	27.96	9.43	-39.2	-40.2	22.2	0.00e+00	0	41	0	181403648	52	5888
2026-01-30 13:25:41.98	28.04	9.51	-39.2	-40.3	22.2	0.00e+00	0	41	0	183500800	52	5900
2026-01-30 13:25:42.99	28.13	9.58	-39.3	-40.3	22.1	0.00e+00	0	41	0	185597952	52	5935
2026-01-30 13:25:44.00	28.21	9.66	-39.0	-40.0	22.4	0.00e+00	0	41	0	187695104	52	5759
2026-01-30 13:25:45.01	28.30	9.73	-38.9	-39.9	22.5	0.00e+00	32	41	0	189792256	52	5671
2026-01-30 13:25:46.02	28.39	9.81	-38.8	-39.8	22.5	0.00e+00	0	41	0	190840832	50	6280
2026-01-30 13:25:47.03	28.47	9.89	-38.6	-39.5	22.8	0.00e+00	47	41	0	192937984	50	6076
2026-01-30 13:25:48.04	28.56	9.96	-38.7	-39.6	22.7	0.00e+00	0	41	0	195035136	50	6143
2026-01-30 13:25:49.05	28.65	10.04	-38.8	-39.7	22.7	0.00e+00	0	41	0	197132288	50	6240
2026-01-30 13:25:50.06	28.74	10.11	-38.6	-39.5	22.7	0.00e+00	0	41	0	199229440	50	6103
2026-01-30 13:25:51.07	28.82	10.19	-38.7	-39.6	22.8	0.00e+00	0	41	0	200278016	50	6168
2026-01-30 13:25:52.08	28.91	10.27	-38.7	-39.6	22.7	0.00e+00	41	41	0	202375168	50	6161
2026-01-30 13:25:53.09	29.00	10.35	-38.9	-39.9	22.6	0.00e+00	0	41	0	204472320	50	6361
2026-01-30 13:25:54.09	29.09	10.42	-38.9	-39.9	22.5	0.00e+00	41	41	0	206569472	50	6343
2026-01-30 13:25:55.10	29.18	10.50	-39.0	-40.1	22.3	0.00e+00	0	41	0	208666624	50	6475
2026-01-30 13:25:56.11	29.27	10.58	-39.2	-40.2	22.3	0.00e+00	33	40	0	209715200	50	6580
2026-01-30 13:25:57.12	29.36	10.65	-39.1	-40.1	22.3	0.00e+00	0	41	0	211812352	50	6488
2026-01-30 13:25:58.13	29.45	10.73	-39.4	-40.4	22.2	0.00e+00	0	41	0	213909504	50	6750
2026-01-30 13:25:59.14	29.55	10.81	-39.2	-40.2	22.1	0.00e+00	0	41	0	216006656	50	6580
2026-01-30 13:26:00.15	29.64	10.89	-39.4	-40.5	22.0	0.00e+00	0	41	0	218103808	50	6796
2026-01-30 13:26:01.16	29.73	10.97	-39.1	-40.1	22.4	0.00e+00	92	40	0	219152384	50	6526
2026-01-30 13:26:02.17	29.83	11.05	-39.1	-40.1	22.3	0.00e+00	0	41	0	221249536	50	6511
2026-01-30 13:26:03.18	29.92	11.13	-39.1	-40.1	22.4	0.00e+00	68	41	0	223346688	50	6493
2026-01-30 13:26:04.19	30.01	11.21	-38.9	-40.0	22.4	0.00e+00	0	41	0	225443840	50	6395
2026-01-30 13:26:05.20	30.11	11.28	-38.9	-39.9	22.5	0.00e+00	0	41	0	227540992	50	6328
2026-01-30 13:26:06.21	30.21	11.36	-39.0	-40.0	22.6	0.00e+00	57	41	0	228589568	50	6426
2026-01-30 13:26:07.22	30.30	11.44	-39.0	-40.0	22.4	0.00e+00	0	41	0	230686720	50	6418
2026-01-30 13:26:08.23	30.40	11.52	-38.8	-39.8	22.5	0.00e+00	21	41	0	232783872	50	6275
2026-01-30 13:26:09.24	30.49	11.60	-38.9	-39.9	22.7	0.00e+00	0	41	0	234881024	50	6326
2026-01-30 13:26:10.25	30.59	11.68	-38.2	-39.1	23.0	0.00e+00	67	41	0	236978176	50	5818
2026-01-30 13:26:11.25	30.69	11.76	-38.5	-39.4	22.9	0.00e+00	0	41	0	238026752	50	6008
2026-01-30 13:26:12.27	30.79	11.85	-38.4	-39.3	23.0	0.00e+00	0	41	0	240123904	50	5953
2026-01-30 13:26:13.27	30.89	11.93	-38.3	-39.2	23.1	0.00e+00	0	41	0	242221056	50	5881
2026-01-30 13:26:14.28	30.99	12.01	-38.3	-39.2	23.1	0.00e+00	0	41	0	244318208	50	5893
2026-01-30 13:26:15.29	31.09	12.09	-38.3	-39.2	23.0	0.00e+00	23	41	0	246415360	50	5844
2026-01-30 13:26:16.30	31.19	12.17	-38.0	-38.9	23.1	0.00e+00	0	41	0	248512512	50	5660
2026-01-30 13:26:17.31	31.29	12.25	-38.3	-39.2	23.1	0.00e+00	73	41	0	249561088	50	5855
2026-01-30 13:26:18.32	31.39	12.33	-38.4	-39.3	22.8	0.00e+00	0	41	0	251658240	50	5924
2026-01-30 13:26:19.33	31.49	12.41	-38.3	-39.2	23.0	0.00e+00	0	41	0	253755392	50	5874
2026-01-30 13:26:20.34	31.59	12.50	-38.3	-39.3	23.1	0.00e+00	0	41	0	255852544	50	5914
2026-01-30 13:26:21.35	31.70	12.58	-38.4	-39.3	23.0	0.00e+00	0	41	0	256901120	50	5935
2026-01-30 13:26:22.36	31.80	12.66	-38.3	-39.3	23.2	0.00e+00	30	41	0	258998272	50	5898
2026-01-30 13:26:23.37	31.91	12.74	-38.3	-39.3	23.0	0.00e+00	0	41	0	261095424	50	5919
2026-01-30 13:26:24.38	32.01	12.83	-38.5	-39.4	23.0	0.00e+00	74	41	0	263192576	50	6026
2026-01-30 13:26:25.39	32.12	12.91	-38.5	-39.5	23.0	0.00e+00	0	41	0	265289728	50	6034
2026-01-30 13:26:26.40	32.22	12.99	-38.6	-39.6	22.8	0.00e+00	0	41	0	266338304	50	6107
2026-01-30 13:26:27.41	32.33	13.08	-38.7	-39.6	22.8	0.00e+00	0	41	0	268435456	50	6170
2026-01-30 13:26:28.41	32.43	13.16	-38.6	-39.6	22.7	0.00e+00	0	41	0	270532608	50	6143
2026-01-30 13:26:29.42	32.54	13.25	-38.8	-39.8	22.6	0.00e+00	55	41	0	272629760	50	6286
2026-01-30 13:26:30.43	32.65	13.33	-39.0	-40.0	22.6	0.00e+00	0	41	0	274726912	50	6409
2026-01-30 13:26:31.44	32.76	13.41	-38.8	-39.8	22.6	0.00e+00	90	41	0	276824064	50	6309
2026-01-30 13:26:32.45	32.87	13.50	-38.9	-39.9	22.6	0.00e+00	0	41	0	277872640	50	6356
2026-01-30 13:26:33.46	32.98	13.58	-39.0	-40.0	22.5	0.00e+00	0	41	0	279969792	50	6423
2026-01-30 13:26:34.47	33.09	13.67	-38.7	-39.6	22.8	0.00e+00	0	41	0	282066944	50	6156
2026-01-30 13:26:35.48	33.20	13.75	-38.7	-39.7	22.8	0.00e+00	0	41	0	284164096	50	6186
2026-01-30 13:26:36.49	33.31	13.84	-38.7	-39.7	22.7	0.00e+00	0	41	0	286261248	50	6198
2026-01-30 13:26:37.50	33.43	13.93	-38.4	-39.4	23.0	0.00e+00	0	41	0	287309824	50	5982
2026-01-30 13:26:38.51	33.54	14.01	-38.4	-39.4	23.1	0.00e+00	92	41	0	289406976	50	5985
2026-01-30 13:26:39.51	33.65	14.10	-38.3	-39.2	23.1	0.00e+00	0	41	0	291504128	50	5891
2026-01-30 13:26:40.52	33.77	14.18	-38.2	-39.1	23.3	0.00e+00	44	41	0	293601280	50	5799
2026-01-30 13:26:41.53	33.88	14.27	-38.3	-39.2	23.2	0.00e+00	0	41	0	295698432	50	5891
2026-01-30 13:26:42.54	34.00	14.36	-38.3	-39.3	23.1	0.00e+00	0	41	0	296747008	50	5905
2026-01-30 13:26:43.56	34.12	14.44	-38.2	-39.1	23.3	0.00e+00	0	41	0	298844160	50	5765
2026-01-30 13:26:44.57	34.23	14.53	-38.4	-39.4	23.1	0.00e+00	0	41	0	300941312	50	5967
2026-01-30 13:26:45.58	34.35	14.62	-38.6	-39.5	22.9	0.00e+00	58	41	0	303038464	50	6070
2026-01-30 13:26:46.59	34.47	14.71	-38.6	-39.6	22.8	0.00e+00	0	41	0	305135616	50	6123
2026-01-30 13:26:47.60	34.59	14.79	-38.9	-39.9	22.6	0.00e+00	66	41	0	306184192	50	6382
2026-01-30 13:26:48.61	34.71	14.88	-38.9	-40.0	22.6	0.00e+00	0	41	0	308281344	50	6392
2026-01-30 13:26:49.61	34.83	14.97	-39.1	-40.1	22.5	0.00e+00	0	41	0	310378496	50	6537
2026-01-30 13:26:50.62	34.95	15.06	-39.0	-40.0	22.6	0.00e+00	0	41	0	312475648	50	6447
2026-01-30 13:26:51.63	35.07	15.15	-39.1	-40.2	22.4	0.00e+00	0	41	0	314572800	50	6566
2026-01-30 13:26:52.64	35.19	15.23	-39.3	-40.4	22.4	0.00e+00	64	41	0	315621376	50	6699
2026-01-30 13:26:53.65	35.32	15.32	-39.3	-40.4	22.2	0.00e+00	0	41	0	317718528	50	6722
2026-01-30 13:26:54.66	35.44	15.41	-39.2	-40.2	22.5	0.00e+00	64	41	0	319815680	50	6568
2026-01-30 13:26:55.67	35.56	15.50	-39.0	-40.0	22.7	0.00e+00	0	41	0	321912832	50	6394
2026-01-30 13:26:56.68	35.69	15.59	-39.1	-40.1	22.5	0.00e+00	0	41	0	324009984	50	6523
2026-01-30 13:26:57.69	35.82	15.68	-39.3	-40.3	22.4	0.00e+00	0	41	0	325058560	50	6649
2026-01-30 13:26:58.70	35.94	15.77	-39.2	-40.2	22.4	0.00e+00	0	41	0	327155712	50	6613
2026-01-30 13:26:59.71	36.07	15.86	-39.2	-40.3	22.4	0.00e+00	1	41	0	329252864	50	6632
2026-01-30 13:27:00.72	36.20	15.95	-39.2	-40.3	22.4	0.00e+00	0	41	0	331350016	50	6626
2026-01-30 13:27:01.73	36.33	16.04	-39.4	-40.5	22.2	0.00e+00	91	41	0	333447168	50	6778
2026-01-30 13:27:02.74	36.46	16.13	-39.4	-40.4	22.3	0.00e+00	0	41	0	334495744	50	6759
2026-01-30 13:27:03.74	36.59	16.22	-39.5	-40.6	22.0	0.00e+00	0	41	0	336592896	50	6895
2026-01-30 13:27:04.75	36.72	16.32	-39.5	-40.6	22.1	0.00e+00	0	41	0	338690048	50	6894
2026-01-30 13:27:05.76	36.85	16.41	-39.5	-40.5	22.3	0.00e+00	0	41	0	340787200	50	6811
2026-01-30 13:27:06.77	36.98	16.50	-39.8	-40.9	21.9	0.00e+00	4	41	0	342884352	52	6322
2026-01-30 13:27:07.78	37.12	16.59	-39.6	-40.7	22.2	0.00e+00	0	41	0	344981504	52	6175
2026-01-30 13:27:08.79	37.25	16.68	-39.7	-40.8	22.0	0.00e+00	63	41	0	346030080	52	6262
2026-01-30 13:27:09.80	37.39	16.78	-39.9	-41.0	22.0	0.00e+00	0	41	0	348127232	52	6392
2026-01-30 13:27:10.81	37.52	16.87	-39.7	-40.8	22.0	0.00e+00	31	41	0	350224384	52	6284
2026-01-30 13:27:11.82	37.66	16.96	-39.9	-41.0	21.9	0.00e+00	0	41	0	352321536	52	6439
2026-01-30 13:27:12.83	37.80	17.05	-39.8	-40.9	22.1	0.00e+00	0	41	0	354418688	52	6362
2026-01-30 13:27:13.84	37.94	17.15	-39.8	-40.9	22.1	0.00e+00	33	41	0	355467264	52	6328
2026-01-30 13:27:14.85	38.08	17.24	-39.6	-40.7	22.2	0.00e+00	0	41	0	357564416	52	6190
2026-01-30 13:27:15.86	38.22	17.33	-39.5	-40.6	22.3	0.00e+00	65	41	0	359661568	52	6115
2026-01-30 13:27:16.87	38.36	17.43	-39.3	-40.3	22.4	0.00e+00	0	41	0	361758720	52	5921
2026-01-30 13:27:17.88	38.50	17.52	-39.3	-40.3	22.4	0.00e+00	91	41	0	363855872	52	5926
2026-01-30 13:27:18.89	38.64	17.61	-39.2	-40.2	22.3	0.00e+00	0	41	0	364904448	52	5893
2026-01-30 13:27:19.90	38.78	17.71	-38.9	-39.9	22.2	0.00e+00	0	41	0	367001600	52	5662
2026-01-30 13:27:20.91	38.93	17.80	-39.0	-39.9	22.5	0.00e+00	0	41	0	369098752	52	5676
2026-01-30 13:27:21.92	39.07	17.90	-38.9	-39.9	22.7	0.00e+00	0	41	0	371195904	52	5631
2026-01-30 13:27:22.92	39.22	17.99	-38.7	-39.7	23.0	0.00e+00	6	41	0	373293056	52	5520
2026-01-30 13:27:23.93	39.37	18.09	-38.7	-39.7	22.9	0.00e+00	0	41	0	374341632	50	6209
2026-01-30 13:27:24.94	39.51	18.18	-38.7	-39.7	22.9	0.00e+00	76	41	0	376438784	50	6198
2026-01-30 13:27:25.95	39.66	18.28	-38.5	-39.4	23.3	0.00e+00	0	41	0	378535936	50	6017
2026-01-30 13:27:26.96	39.81	18.37	-38.5	-39.5	23.2	0.00e+00	0	41	0	380633088	50	6051
2026-01-30 13:27:27.97	39.96	18.47	-38.5	-39.4	23.0	0.00e+00	0	41	0	382730240	50	6024
2026-01-30 13:27:28.98	40.11	18.57	-38.3	-39.2	23.3	0.00e+00	0	41	0	383778816	50	5836
2026-01-30 13:27:29.99	40.27	18.66	-38.0	-38.9	23.5	0.00e+00	68	41	0	385875968	50	5692
2026-01-30 13:27:31.00	40.42	18.76	-38.0	-38.9	23.5	0.00e+00	0	41	0	387973120	50	5676
2026-01-30 13:27:32.01	40.58	18.85	-38.0	-38.9	23.5	0.00e+00	45	41	0	390070272	50	5638
2026-01-30 13:27:33.02	40.73	18.95	-38.0	-38.9	23.5	0.00e+00	0	41	0	392167424	50	5682
2026-01-30 13:27:34.03	40.89	19.05	-38.2	-39.1	23.3	0.00e+00	0	41	0	393216000	50	5827
2026-01-30 13:27:35.04	41.04	19.14	-38.3	-39.3	23.3	0.00e+00	0	41	0	395313152	50	5904
2026-01-30 13:27:36.05	41.20	19.24	-38.4	-39.4	23.2	0.00e+00	0	41	0	397410304	50	5976
2026-01-30 13:27:37.06	41.36	19.34	-38.4	-39.3	23.2	0.00e+00	32	41	0	399507456	50	5944
2026-01-30 13:27:38.07	41.52	19.44	-38.3	-39.3	23.3	0.00e+00	0	41	0	401604608	50	5919
2026-01-30 13:27:39.08	41.68	19.53	-38.2	-39.1	23.4	0.00e+00	91	41	0	402653184	50	5792
2026-01-30 13:27:40.09	41.85	19.63	-38.3	-39.2	23.4	0.00e+00	0	41	0	404750336	50	5888
2026-01-30 13:27:41.10	42.01	19.73	-38.1	-39.0	23.5	0.00e+00	42	41	0	406847488	50	5720
2026-01-30 13:27:42.11	42.17	19.83	-38.0	-38.9	23.4	0.00e+00	0	41	0	408944640	50	5649
2026-01-30 13:27:43.12	42.34	19.93	-38.1	-38.9	23.4	0.00e+00	0	41	0	411041792	50	5695
2026-01-30 13:27:44.13	42.50	20.03	-37.9	-38.8	23.6	0.00e+00	0	41	0	413138944	50	5613
2026-01-30 13:27:45.14	42.67	20.12	-38.1	-39.0	23.4	0.00e+00	0	41	0	414187520	50	5732
2026-01-30 13:27:46.15	42.84	20.22	-38.2	-39.1	23.5	0.00e+00	63	41	0	416284672	50	5811
2026-01-30 13:27:47.16	43.01	20.32	-38.2	-39.1	23.4	0.00e+00	0	41	0	418381824	50	5788
2026-01-30 13:27:48.17	43.18	20.42	-38.2	-39.1	23.4	0.00e+00	90	41	0	420478976	50	5799
2026-01-30 13:27:49.18	43.35	20.52	-38.1	-39.0	23.6	0.00e+00	0	41	0	422576128	50	5711
2026-01-30 13:27:50.19	43.53	20.62	-38.0	-38.9	23.5	0.00e+00	0	41	0	423624704	50	5670
2026-01-30 13:27:51.20	43.70	20.72	-38.3	-39.2	23.4	0.00e+00	0	41	0	425721856	50	5856
2026-01-30 13:27:52.21	43.87	20.82	-38.0	-38.9	23.6	0.00e+00	0	41	0	427819008	50	5682
2026-01-30 13:27:53.22	44.05	20.92	-38.0	-38.9	23.5	0.00e+00	91	41	0	429916160	48	6328
2026-01-30 13:27:54.23	44.23	21.02	-38.0	-38.9	23.4	0.00e+00	0	41	0	432013312	48	6342
2026-01-30 13:27:55.24	44.41	21.12	-38.0	-38.9	23.6	0.00e+00	91	41	0	433061888	48	6325
2026-01-30 13:27:56.25	44.58	21.22	-38.1	-39.0	23.5	0.00e+00	0	41	0	435159040	48	6418
2026-01-30 13:27:57.26	44.77	21.32	-38.0	-38.9	23.6	0.00e+00	0	41	0	437256192	48	6336
2026-01-30 13:27:58.27	44.95	21.42	-37.8	-38.7	23.7	0.00e+00	0	41	0	439353344	48	6200
2026-01-30 13:27:59.28	45.13	21.52	-37.7	-38.6	23.8	0.00e+00	0	41	0	441450496	48	6145
2026-01-30 13:28:00.29	45.31	21.62	-37.9	-38.8	23.5	0.00e+00	68	41	0	442499072	48	6288
2026-01-30 13:28:01.30	45.50	21.72	-37.5	-38.3	23.0	0.00e+00	0	41	0	444596224	48	5949
2026-01-30 13:28:02.31	45.68	21.82	-37.5	-38.3	24.0	0.00e+00	92	41	0	446693376	48	5951
2026-01-30 13:28:03.32	45.87	21.93	-37.5	-38.4	23.8	0.00e+00	0	41	0	448790528	48	6007
2026-01-30 13:28:04.33	46.06	22.03	-37.3	-38.1	24.1	0.00e+00	0	41	0	450887680	48	5806
2026-01-30 13:28:05.34	46.25	22.13	-37.1	-38.0	24.3	0.00e+00	0	41	0	451936256	48	5711
2026-01-30 13:28:06.35	46.44	22.23	-37.1	-37.9	24.3	0.00e+00	0	41	0	454033408	48	5695
2026-01-30 13:28:07.36	46.63	22.33	-36.8	-37.6	24.5	0.00e+00	41	41	0	456130560	48	5495
2026-01-30 13:28:08.37	46.83	22.43	-36.3	-37.1	24.9	0.00e+00	0	41	0	458227712	46	5812
2026-01-30 13:28:09.38	47.02	22.53	-36.3	-37.1	24.9	0.00e+00	92	41	0	460324864	46	5776
2026-01-30 13:28:10.39	47.22	22.64	-36.1	-36.9	25.0	0.00e+00	0	41	0	461373440	46	5652
2026-01-30 13:28:11.40	47.42	22.74	-36.2	-36.9	24.9	0.00e+00	0	41	0	463470592	46	5692
2026-01-30 13:28:12.41	47.61	22.84	-36.1	-36.9	24.9	0.00e+00	0	41	0	465567744	46	5671
2026-01-30 13:28:13.42	47.81	22.94	-36.2	-37.0	25.0	0.00e+00	0	41	0	467664896	46	5700
2026-01-30 13:28:14.43	48.02	23.04	-36.4	-37.2	24.8	0.00e+00	10	41	0	469762048	46	5882
2026-01-30 13:28:15.44	48.22	23.15	-36.4	-37.2	24.8	0.00e+00	0	41	0	470810624	46	5835
2026-01-30 13:28:16.45	48.42	23.25	-36.3	-37.0	25.0	0.00e+00	91	41	0	472907776	46	5760
2026-01-30 13:28:17.46	48.63	23.35	-36.6	-37.4	24.6	0.00e+00	0	41	0	475004928	46	5994
2026-01-30 13:28:18.47	48.83	23.45	-36.7	-37.5	24.5	0.00e+00	0	41	0	477102080	46	6096
2026-01-30 13:28:19.48	49.04	23.55	-36.9	-37.7	24.5	0.00e+00	0	41	0	479199232	46	6215
2026-01-30 13:28:20.49	49.25	23.66	-37.4	-38.2	24.2	0.00e+00	0	41	0	481296384	46	6593
2026-01-30 13:28:21.50	49.46	23.76	-37.4	-38.3	24.1	0.00e+00	0	41	0	482344960	46	6623
2026-01-30 13:28:22.51	49.67	23.86	-37.4	-38.3	24.1	0.00e+00	0	41	0	484442112	46	6635
2026-01-30 13:28:23.52	49.88	23.96	-37.2	-38.0	24.2	0.00e+00	75	41	0	486539264	46	6439
2026-01-30 13:28:24.53	50.10	24.06	-37.4	-38.3	24.1	0.00e+00	0	41	0	488636416	46	6627
2026-01-30 13:28:25.54	50.31	24.17	-37.3	-38.2	24.2	0.00e+00	90	41	0	490733568	46	6541
2026-01-30 13:28:26.55	50.53	24.27	-37.1	-38.0	24.3	0.00e+00	0	41	0	491782144	46	6395
2026-01-30 13:28:27.56	50.75	24.37	-37.0	-37.9	24.4	0.00e+00	0	41	0	493879296	46	6328
2026-01-30 13:28:28.57	50.97	24.47	-37.1	-37.9	24.4	0.00e+00	0	41	0	495976448	46	6387
2026-01-30 13:28:29.58	51.19	24.57	-37.3	-38.1	24.2	0.00e+00	0	41	0	498073600	46	6502
2026-01-30 13:28:30.58	51.41	24.68	-37.4	-38.3	24.1	0.00e+00	92	41	0	500170752	46	6638
2026-01-30 13:28:31.59	51.64	24.78	-37.2	-38.1	24.2	0.00e+00	0	41	0	501219328	46	6481
2026-01-30 13:28:32.60	51.86	24.88	-37.2	-38.0	24.2	0.00e+00	65	41	0	503316480	46	6462
2026-01-30 13:28:33.60	52.09	24.98	-37.3	-38.1	24.2	0.00e+00	0	41	0	505413632	46	6523
2026-01-30 13:28:34.62	52.32	25.08	-37.4	-38.3	24.0	0.00e+00	0	41	0	507510784	46	6628
2026-01-30 13:28:35.62	52.54	25.18	-37.3	-38.2	24.1	0.00e+00	0	41	0	509607936	46	6557
2026-01-30 13:28:36.63	52.77	25.29	-37.5	-38.4	24.0	0.00e+00	0	41	0	510656512	46	6714
2026-01-30 13:28:37.65	53.01	25.39	-37.4	-38.3	24.0	0.00e+00	61	41	0	512753664	46	6631
2026-01-30 13:28:38.66	53.24	25.49	-37.5	-38.4	24.0	0.00e+00	0	41	0	514850816	46	6694
2026-01-30 13:28:39.67	53.48	25.59	-37.8	-38.6	23.7	0.00e+00	91	41	0	516947968	46	6914
2026-01-30 13:28:40.68	53.72	25.69	-37.7	-38.6	23.9	0.00e+00	0	41	0	519045120	48	6105
2026-01-30 13:28:41.69	53.96	25.79	-37.5	-38.3	24.0	0.00e+00	0	41	0	520093696	48	5960
2026-01-30 13:28:42.70	54.20	25.89	-37.6	-38.4	23.9	0.00e+00	0	41	0	522190848	48	6004
2026-01-30 13:28:43.71	54.44	25.99	-37.6	-38.4	24.0	0.00e+00	0	41	0	524288000	48	6003
2026-01-30 13:28:44.72	54.68	26.10	-37.4	-38.2	23.9	0.00e+00	7	41	0	526385152	48	5883
2026-01-30 13:28:45.73	54.92	26.20	-37.6	-38.4	23.5	0.00e+00	0	41	0	528482304	48	5996
2026-01-30 13:28:46.74	55.17	26.30	-37.7	-38.6	23.8	0.00e+00	92	41	0	529530880	48	6129
2026-01-30 13:28:47.75	55.42	26.40	-38.0	-38.9	23.6	0.00e+00	0	41	0	531628032	48	6337
2026-01-30 13:28:48.76	55.67	26.50	-38.5	-39.4	23.3	0.00e+00	0	41	0	533725184	48	6748
2026-01-30 13:28:49.77	55.92	26.60	-38.7	-39.7	22.9	0.00e+00	0	41	0	535822336	48	6954
2026-01-30 13:28:50.78	56.17	26.70	-39.1	-40.1	22.6	0.00e+00	0	41	0	537919488	50	6476
2026-01-30 13:28:51.79	56.43	26.80	-39.3	-40.3	22.6	0.00e+00	5	41	0	538968064	50	6624
2026-01-30 13:28:52.80	56.68	26.89	-39.2	-40.2	22.6	0.00e+00	0	41	0	541065216	50	6570
2026-01-30 13:28:53.81	56.94	26.99	-39.0	-40.0	22.6	0.00e+00	92	41	0	543162368	50	6419
2026-01-30 13:28:54.82	57.20	27.09	-38.7	-39.7	23.0	0.00e+00	0	41	0	545259520	50	6188
2026-01-30 13:28:55.83	57.46	27.19	-38.5	-39.4	23.2	0.00e+00	0	41	0	547356672	50	6024
2026-01-30 13:28:56.84	57.72	27.29	-38.4	-39.3	23.3	0.00e+00	0	41	0	549453824	50	5951
2026-01-30 13:28:57.85	57.98	27.39	-38.4	-39.3	23.2	0.00e+00	0	41	0	550502400	50	5944
2026-01-30 13:28:58.86	58.25	27.48	-38.3	-39.3	23.3	0.00e+00	4	41	0	552599552	50	5897
2026-01-30 13:28:59.87	58.51	27.58	-38.4	-39.4	23.3	0.00e+00	0	41	0	554696704	50	5969
2026-01-30 13:29:00.87	58.78	27.68	-38.5	-39.4	23.3	0.00e+00	67	41	0	556793856	50	6019
2026-01-30 13:29:01.88	59.05	27.77	-38.9	-39.9	22.9	0.00e+00	0	41	0	558891008	50	6360
2026-01-30 13:29:02.89	59.32	27.87	-39.2	-40.2	22.6	0.00e+00	90	41	0	559939584	50	6590
2026-01-30 13:29:03.90	59.59	27.97	-39.3	-40.3	22.6	0.00e+00	0	41	0	562036736	50	6652
2026-01-30 13:29:04.91	59.87	28.06	-39.8	-40.8	22.2	0.00e+00	0	41	0	564133888	52	6302
2026-01-30 13:29:05.92	60.14	28.16	-39.7	-40.7	22.2	0.00e+00	0	41	0	566231040	52	6242
2026-01-30 13:29:06.92	60.42	28.25	-39.6	-40.7	22.2	0.00e+00	0	41	0	568328192	52	6190
2026-01-30 13:29:07.93	60.70	28.35	-39.6	-40.6	22.3	0.00e+00	28	41	0	569376768	52	6171
2026-01-30 13:29:08.94	60.98	28.44	-39.5	-40.5	22.4	0.00e+00	0	41	0	571473920	52	6099
2026-01-30 13:29:09.95	61.26	28.53	-39.6	-40.6	22.3	0.00e+00	58	41	0	573571072	52	6166
2026-01-30 13:29:10.96	61.54	28.63	-39.9	-41.0	22.0	0.00e+00	0	41	0	575668224	52	6437
2026-01-30 13:29:11.97	61.83	28.72	-39.9	-41.0	22.0	0.00e+00	0	41	0	577765376	52	6413
2026-01-30 13:29:12.98	62.12	28.81	-39.9	-40.9	22.1	0.00e+00	0	41	0	578813952	52	6377
2026-01-30 13:29:13.98	62.40	28.90	-39.6	-40.6	22.2	0.00e+00	0	41	0	580911104	52	6145
2026-01-30 13:29:15.00	62.70	28.99	-39.6	-40.6	22.3	0.00e+00	0	41	0	583008256	52	6164
2026-01-30 13:29:16.01	62.99	29.09	-39.6	-40.6	22.4	0.00e+00	0	41	0	585105408	52	6166
2026-01-30 13:29:17.02	63.28	29.18	-39.2	-40.2	22.6	0.00e+00	60	41	0	587202560	52	5843
2026-01-30 13:29:18.03	63.58	29.27	-39.5	-40.5	22.4	0.00e+00	0	41	0	588251136	52	6074
2026-01-30 13:29:19.03	63.87	29.35	-39.3	-40.3	22.4	0.00e+00	0	41	0	590348288	52	5946
2026-01-30 13:29:20.04	64.17	29.44	-39.4	-40.4	22.1	0.00e+00	0	41	0	592445440	52	5984
2026-01-30 13:29:21.05	64.47	29.53	-39.7	-40.8	22.1	0.00e+00	0	41	0	594542592	52	6254
2026-01-30 13:29:22.06	64.77	29.62	-40.1	-41.2	21.8	0.00e+00	22	41	0	596639744	52	6582
2026-01-30 13:29:23.07	65.08	29.71	-40.8	-42.0	21.3	0.00e+00	0	41	0	597688320	52	7188
2026-01-30 13:29:24.08	65.38	29.79	-40.7	-41.9	21.3	0.00e+00	80	41	0	599785472	54	6379
2026-01-30 13:29:25.09	65.69	29.88	-40.4	-41.6	21.5	0.00e+00	0	41	0	601882624	54	6123
2026-01-30 13:29:26.11	66.00	29.96	-40.1	-41.2	21.8	0.00e+00	0	41	0	603979776	54	5867
2026-01-30 13:29:27.11	66.31	30.05	-40.0	-41.1	21.9	0.00e+00	33	41	0	606076928	54	5766
2026-01-30 13:29:28.12	66.62	30.13	-39.8	-40.9	22.2	0.00e+00	0	41	0	607125504	52	6319
2026-01-30 13:29:29.13	66.93	30.22	-40.2	-41.3	21.6	0.00e+00	0	41	0	609222656	52	6689
2026-01-30 13:29:30.14	67.25	30.30	-40.3	-41.5	21.4	0.00e+00	33	41	0	611319808	52	6784
2026-01-30 13:29:31.15	67.57	30.38	-41.0	-42.2	21.1	0.00e+00	92	41	0	613416960	54	6577
2026-01-30 13:29:32.16	67.88	30.46	-40.8	-41.9	21.2	0.00e+00	0	41	0	615514112	54	6379
2026-01-30 13:29:33.17	68.20	30.54	-40.8	-42.1	21.1	0.00e+00	90	41	0	617611264	54	6467
2026-01-30 13:29:34.18	68.52	30.62	-41.7	-43.0	20.3	0.00e+00	0	41	0	618659840	54	7232
2026-01-30 13:29:35.19	68.85	30.70	-42.0	-43.4	20.0	0.00e+00	0	41	0	620756992	56	6763
2026-01-30 13:29:36.20	69.17	30.78	-41.7	-43.0	20.3	0.00e+00	0	41	0	622854144	56	6461
2026-01-30 13:29:37.21	69.50	30.86	-41.0	-42.2	21.0	0.00e+00	0	41	0	624951296	56	5891
2026-01-30 13:29:38.22	69.82	30.93	-40.0	-41.0	22.1	0.00e+00	74	41	0	627048448	54	5750
2026-01-30 13:29:39.23	70.15	31.01	-40.2	-41.3	21.6	0.00e+00	0	41	0	628097024	54	5944
2026-01-30 13:29:40.24	70.48	31.08	-40.4	-41.5	21.6	0.00e+00	92	41	0	630194176	54	6084
2026-01-30 13:29:41.25	70.82	31.16	-40.9	-42.2	20.8	0.00e+00	0	41	0	632291328	54	6556
2026-01-30 13:29:42.26	71.15	31.23	-41.5	-42.8	20.5	0.00e+00	0	41	0	634388480	54	7077
2026-01-30 13:29:43.27	71.48	31.30	-41.5	-42.8	20.4	0.00e+00	0	41	0	636485632	56	6302
2026-01-30 13:29:44.28	71.82	31.38	-41.8	-43.2	20.2	0.00e+00	0	41	0	637534208	56	6547
2026-01-30 13:29:45.29	72.16	31.45	-41.6	-42.9	20.4	0.00e+00	71	41	0	639631360	56	6343
2026-01-30 13:29:46.30	72.50	31.52	-41.1	-42.3	21.0	0.00e+00	0	41	0	641728512	56	5933
2026-01-30 13:29:47.31	72.84	31.59	-40.8	-42.0	21.1	0.00e+00	91	41	0	643825664	54	6413
2026-01-30 13:29:48.32	73.18	31.65	-40.2	-41.3	21.4	0.00e+00	0	41	0	645922816	54	5927
2026-01-30 13:29:49.33	73.52	31.72	-39.9	-40.9	22.1	0.00e+00	0	41	0	646971392	52	6342
2026-01-30 13:29:50.34	73.87	31.79	-39.3	-40.3	22.5	0.00e+00	0	41	0	649068544	52	5914
2026-01-30 13:29:51.35	74.22	31.85	-39.4	-40.4	22.4	0.00e+00	0	41	0	651165696	52	5991
2026-01-30 13:29:52.36	74.56	31.92	-40.1	-41.2	21.9	0.00e+00	56	41	0	653262848	52	6601
2026-01-30 13:29:53.37	74.91	31.98	-40.5	-41.6	21.5	0.00e+00	0	41	0	655360000	52	6871
2026-01-30 13:29:54.38	75.26	32.04	-40.7	-41.9	21.2	0.00e+00	92	41	0	656408576	52	7127
2026-01-30 13:29:55.39	75.62	32.10	-40.4	-41.5	21.6	0.00e+00	0	41	0	658505728	52	6826
2026-01-30 13:29:56.40	75.97	32.16	-40.0	-41.1	22.0	0.00e+00	0	41	0	660602880	52	6511
2026-01-30 13:29:57.40	76.32	32.22	-40.2	-41.3	21.7	0.00e+00	0	41	0	662700032	52	6649
2026-01-30 13:29:58.41	76.67	32.28	-40.3	-41.4	21.7	0.00e+00	0	41	0	664797184	52	6725
2026-01-30 13:29:59.42	77.03	32.33	-40.3	-41.4	21.8	0.00e+00	8	41	0	665845760	52	6714
2026-01-30 13:30:00.43	77.39	32.39	-39.9	-40.9	22.1	0.00e+00	0	41	0	667942912	52	6351
2026-01-30 13:30:01.44	77.75	32.44	-39.7	-40.7	22.3	0.00e+00	92	41	0	670040064	52	6187
2026-01-30 13:30:02.45	78.11	32.50	-39.9	-40.9	22.1	0.00e+00	0	41	0	672137216	52	6376
2026-01-30 13:30:03.46	78.47	32.55	-40.8	-42.0	21.2	0.00e+00	0	41	0	674234368	52	7195
2026-01-30 13:30:04.47	78.83	32.60	-41.9	-43.3	20.1	0.00e+00	0	41	0	675282944	56	6630
2026-01-30 13:30:05.48	79.20	32.65	-42.6	-44.2	19.1	0.00e+00	0	41	0	677380096	56	7380
2026-01-30 13:30:06.49	79.56	32.70	-42.9	-44.5	18.9	0.00e+00	0	41	0	679477248	58	6825
2026-01-30 13:30:07.50	79.93	32.75	-43.0	-44.7	18.8	0.00e+00	0	41	0	681574400	58	6949
2026-01-30 13:30:08.51	80.30	32.79	-42.4	-43.9	19.5	0.00e+00	92	41	0	683671552	58	6348
2026-01-30 13:30:09.52	80.66	32.84	-41.7	-43.1	20.3	0.00e+00	0	41	0	685768704	58	5778
2026-01-30 13:30:10.53	81.03	32.88	-41.2	-42.4	20.8	0.00e+00	70	41	0	686817280	56	6027
2026-01-30 13:30:11.54	81.40	32.92	-40.7	-41.9	21.3	0.00e+00	0	41	0	688914432	54	6361
2026-01-30 13:30:12.54	81.77	32.97	-40.3	-41.5	21.7	0.00e+00	0	41	0	691011584	54	6054
2026-01-30 13:30:13.55	82.14	33.01	-40.3	-41.4	21.7	0.00e+00	17	41	0	693108736	54	5996
2026-01-30 13:30:14.56	82.52	33.04	-40.4	-41.5	21.6	0.00e+00	0	41	0	695205888	54	6085
2026-01-30 13:30:15.57	82.89	33.08	-40.6	-41.8	21.1	0.00e+00	92	41	0	696254464	54	6280
2026-01-30 13:30:16.58	83.26	33.12	-41.0	-42.2	20.9	0.00e+00	0	41	0	698351616	54	6607
2026-01-30 13:30:17.59	83.64	33.15	-41.3	-42.5	20.5	0.00e+00	92	41	0	700448768	54	6811
2026-01-30 13:30:18.60	84.02	33.19	-40.8	-42.0	21.2	0.00e+00	0	41	0	702545920	54	6393
2026-01-30 13:30:19.61	84.39	33.22	-40.7	-41.8	21.3	0.00e+00	0	41	0	704643072	54	6302
2026-01-30 13:30:20.62	84.77	33.25	-40.4	-41.5	21.6	0.00e+00	0	41	0	705691648	54	6074
2026-01-30 13:30:21.63	85.15	33.28	-40.5	-41.6	21.4	0.00e+00	0	41	0	707788800	54	6160
2026-01-30 13:30:22.64	85.53	33.31	-40.2	-41.4	21.6	0.00e+00	72	41	0	709885952	54	5965
2026-01-30 13:30:23.65	85.91	33.34	-40.0	-41.1	21.9	0.00e+00	0	41	0	711983104	54	5796
2026-01-30 13:30:24.66	86.29	33.36	-39.9	-40.9	22.1	0.00e+00	81	41	0	714080256	54	5694
2026-01-30 13:30:25.67	86.67	33.39	-40.2	-41.3	21.8	0.00e+00	0	41	0	715128832	54	5911
2026-01-30 13:30:26.68	87.05	33.41	-40.7	-41.9	21.3	0.00e+00	0	41	0	717225984	54	6331
2026-01-30 13:30:27.69	87.43	33.43	-40.9	-42.2	20.9	0.00e+00	0	41	0	719323136	54	6571
2026-01-30 13:30:28.70	87.81	33.45	-41.4	-42.7	20.5	0.00e+00	0	41	0	721420288	54	7006
2026-01-30 13:30:29.70	88.19	33.47	-41.4	-42.7	20.4	0.00e+00	70	41	0	723517440	54	6973
2026-01-30 13:30:30.71	88.58	33.49	-41.6	-43.0	20.2	0.00e+00	0	41	0	724566016	54	7190
2026-01-30 13:30:31.72	88.96	33.50	-41.8	-43.1	20.3	0.00e+00	65	41	0	726663168	56	6496
2026-01-30 13:30:32.73	89.35	33.52	-41.8	-43.1	20.4	0.00e+00	0	41	0	728760320	56	6521
2026-01-30 13:30:33.74	89.73	33.53	-41.4	-42.7	20.7	0.00e+00	0	41	0	730857472	56	6192
2026-01-30 13:30:34.75	90.11	33.54	-41.1	-42.3	21.0	0.00e+00	0	41	0	732954624	56	5954
2026-01-30 13:30:35.76	90.50	33.55	-40.6	-41.7	21.3	0.00e+00	0	41	0	734003200	54	6239
2026-01-30 13:30:36.77	90.88	33.56	-40.6	-41.8	21.2	0.00e+00	12	41	0	736100352	54	6285
2026-01-30 13:30:37.78	91.27	33.57	-40.6	-41.8	21.3	0.00e+00	0	41	0	738197504	54	6248
2026-01-30 13:30:38.79	91.66	33.58	-40.4	-41.5	21.7	0.00e+00	68	41	0	740294656	54	6066
2026-01-30 13:30:39.80	92.04	33.58	-40.2	-41.3	21.8	0.00e+00	0	41	0	742391808	54	5955
2026-01-30 13:30:40.81	92.43	33.59	-40.5	-41.6	21.5	0.00e+00	0	41	0	743440384	54	6123
2026-01-30 13:30:41.82	92.81	33.59	-41.3	-42.6	20.7	0.00e+00	0	41	0	745537536	54	6852
2026-01-30 13:30:42.83	93.20	33.59	-41.9	-43.3	20.0	0.00e+00	0	41	0	747634688	54	7475
2026-01-30 13:30:43.84	93.59	33.59	-42.2	-43.6	19.8	0.00e+00	73	41	0	749731840	56	6921
2026-01-30 13:30:44.85	93.97	33.59	-42.3	-43.8	19.7	0.00e+00	0	41	0	751828992	56	7083
2026-01-30 13:30:45.86	94.36	33.58	-42.0	-43.4	19.9	0.00e+00	92	41	0	753926144	56	6746
2026-01-30 13:30:46.87	94.74	33.58	-41.6	-42.9	20.3	0.00e+00	0	41	0	754974720	56	6389
2026-01-30 13:30:47.87	95.13	33.57	-41.3	-42.6	20.7	0.00e+00	88	41	0	757071872	56	6134
2026-01-30 13:30:48.88	95.51	33.56	-40.3	-41.4	21.7	0.00e+00	0	41	0	759169024	54	6006
2026-01-30 13:30:49.89	95.90	33.55	-39.2	-40.1	22.8	0.00e+00	0	41	0	761266176	52	5824
2026-01-30 13:30:50.90	96.28	33.54	-38.3	-39.1	23.4	0.00e+00	73	41	0	763363328	50	5817
2026-01-30 13:30:51.91	96.67	33.53	-38.3	-39.1	23.3	0.00e+00	0	41	0	764411904	50	5827
2026-01-30 13:30:52.92	97.05	33.52	-39.0	-39.9	22.7	0.00e+00	68	41	0	766509056	50	6381
2026-01-30 13:30:53.93	97.44	33.50	-39.7	-40.7	22.0	0.00e+00	0	41	0	768606208	50	6959
2026-01-30 13:30:54.94	97.82	33.49	-40.4	-41.6	21.6	0.00e+00	91	41	0	770703360	52	6866
2026-01-30 13:30:55.94	98.20	33.47	-40.4	-41.5	21.5	0.00e+00	0	41	0	771751936	52	6817
2026-01-30 13:30:56.95	98.58	33.45	-41.0	-42.3	20.9	0.00e+00	0	41	0	773849088	54	6622
2026-01-30 13:30:57.96	98.97	33.43	-41.8	-43.2	20.1	0.00e+00	0	41	0	775946240	54	7346
2026-01-30 13:30:58.97	99.35	33.41	-42.3	-43.8	19.5	0.00e+00	0	41	0	778043392	56	7084
2026-01-30 13:30:59.98	99.73	33.38	-42.2	-43.7	19.8	0.00e+00	71	41	0	780140544	56	6956
2026-01-30 13:31:00.99	100.11	33.36	-41.6	-43.0	20.3	0.00e+00	0	41	0	782237696	56	6428
2026-01-30 13:31:02.00	100.49	33.33	-40.7	-41.9	21.4	0.00e+00	54	41	0	783286272	54	6363
2026-01-30 13:31:03.01	100.87	33.31	-40.1	-41.2	21.9	0.00e+00	0	41	0	785383424	54	5854
2026-01-30 13:31:04.02	101.25	33.28	-40.2	-41.3	21.8	0.00e+00	0	41	0	787480576	54	5947
2026-01-30 13:31:05.03	101.63	33.25	-40.3	-41.4	21.7	0.00e+00	0	41	0	789577728	54	5991
2026-01-30 13:31:06.04	102.01	33.22	-40.4	-41.5	21.5	0.00e+00	0	41	0	791674880	54	6082
2026-01-30 13:31:07.04	102.38	33.18	-39.7	-40.8	22.3	0.00e+00	0	41	0	792723456	54	5580
2026-01-30 13:31:08.05	102.76	33.15	-39.9	-41.0	22.1	0.00e+00	0	41	0	794820608	52	6417
2026-01-30 13:31:09.06	103.13	33.11	-39.7	-40.8	22.1	0.00e+00	91	41	0	796917760	52	6254
2026-01-30 13:31:10.07	103.51	33.08	-40.1	-41.2	21.9	0.00e+00	0	41	0	799014912	52	6572
2026-01-30 13:31:11.08	103.88	33.04	-40.2	-41.3	21.7	0.00e+00	0	41	0	801112064	52	6643
2026-01-30 13:31:12.09	104.25	33.00	-40.0	-41.1	22.0	0.00e+00	0	41	0	802160640	52	6508
2026-01-30 13:31:13.10	104.63	32.96	-39.8	-40.8	22.1	0.00e+00	0	41	0	804257792	52	6303
2026-01-30 13:31:14.10	104.99	32.92	-39.6	-40.6	22.3	0.00e+00	67	41	0	806354944	52	6111
2026-01-30 13:31:15.12	105.37	32.88	-40.0	-41.0	21.9	0.00e+00	0	41	0	808452096	52	6449
2026-01-30 13:31:16.12	105.73	32.83	-40.6	-41.7	21.5	0.00e+00	92	41	0	810549248	52	6996
2026-01-30 13:31:17.14	106.11	32.79	-41.0	-42.3	20.8	0.00e+00	0	41	0	811597824	54	6622
2026-01-30 13:31:18.14	106.47	32.74	-40.9	-42.1	21.2	0.00e+00	92	41	0	813694976	54	6496
2026-01-30 13:31:19.15	106.84	32.69	-39.7	-40.7	22.2	0.00e+00	0	41	0	815792128	54	5560
2026-01-30 13:31:20.16	107.20	32.64	-39.5	-40.5	22.5	0.00e+00	0	41	0	817889280	52	6065
2026-01-30 13:31:21.17	107.57	32.59	-39.0	-40.0	22.8	0.00e+00	0	41	0	819986432	52	5722
2026-01-30 13:31:22.18	107.93	32.54	-39.1	-40.1	22.6	0.00e+00	0	41	0	821035008	52	5825
2026-01-30 13:31:23.19	108.29	32.49	-39.6	-40.6	22.3	0.00e+00	64	41	0	823132160	52	6134
2026-01-30 13:31:24.20	108.65	32.44	-39.4	-40.3	22.7	0.00e+00	0	41	0	825229312	52	5954
2026-01-30 13:31:25.21	109.01	32.38	-38.9	-39.8	22.9	0.00e+00	73	41	0	827326464	52	5616
2026-01-30 13:31:26.22	109.37	32.32	-39.0	-40.0	22.8	0.00e+00	0	41	0	829423616	52	5733
2026-01-30 13:31:27.23	109.73	32.27	-39.0	-40.0	23.0	0.00e+00	0	41	0	830472192	52	5700
2026-01-30 13:31:28.24	110.09	32.21	-39.6	-40.6	22.4	0.00e+00	0	41	0	832569344	52	6138
2026-01-30 13:31:29.25	110.44	32.15	-40.0	-41.1	22.0	0.00e+00	0	41	0	834666496	52	6493
2026-01-30 13:31:30.26	110.79	32.09	-40.2	-41.4	21.7	0.00e+00	69	41	0	836763648	52	6697
2026-01-30 13:31:31.27	111.15	32.03	-39.8	-40.8	22.3	0.00e+00	0	41	0	838860800	52	6306
2026-01-30 13:31:32.28	111.50	31.97	-39.5	-40.5	22.4	0.00e+00	72	41	0	839909376	52	6092
2026-01-30 13:31:33.29	111.85	31.90	-39.3	-40.3	22.5	0.00e+00	0	41	0	842006528	52	5923
2026-01-30 13:31:34.30	112.19	31.84	-39.1	-40.0	22.7	0.00e+00	0	41	0	844103680	52	5741
2026-01-30 13:31:35.31	112.54	31.77	-38.7	-39.6	23.1	0.00e+00	0	41	0	846200832	50	6146
2026-01-30 13:31:36.32	112.89	31.71	-38.0	-38.9	23.7	0.00e+00	0	41	0	848297984	50	5637
2026-01-30 13:31:37.33	113.23	31.64	-37.1	-38.0	24.3	0.00e+00	56	41	0	850395136	48	5696
2026-01-30 13:31:38.34	113.57	31.57	-36.8	-37.6	24.6	0.00e+00	0	41	0	851443712	48	5479
2026-01-30 13:31:39.34	113.91	31.50	-37.2	-38.1	24.3	0.00e+00	92	41	0	853540864	48	5764
2026-01-30 13:31:40.35	114.25	31.43	-38.0	-38.9	23.7	0.00e+00	0	41	0	855638016	48	6328
2026-01-30 13:31:41.36	114.59	31.36	-38.5	-39.5	23.1	0.00e+00	0	41	0	857735168	48	6773
2026-01-30 13:31:42.37	114.93	31.29	-38.6	-39.5	23.2	0.00e+00	0	41	0	859832320	48	6830
2026-01-30 13:31:43.38	115.26	31.22	-38.3	-39.2	23.4	0.00e+00	0	41	0	860880896	48	6549
2026-01-30 13:31:44.39	115.60	31.14	-37.5	-38.4	24.1	0.00e+00	16	41	0	862978048	48	5970
2026-01-30 13:31:45.40	115.93	31.07	-37.9	-38.8	23.8	0.00e+00	0	41	0	865075200	48	6263
2026-01-30 13:31:46.41	116.26	30.99	-38.1	-39.0	23.5	0.00e+00	92	41	0	867172352	48	6414
2026-01-30 13:31:47.42	116.59	30.92	-38.6	-39.6	23.1	0.00e+00	0	41	0	869269504	48	6875
2026-01-30 13:31:48.43	116.92	30.84	-38.8	-39.7	23.1	0.00e+00	48	41	0	870318080	50	6225
2026-01-30 13:31:49.44	117.24	30.76	-38.2	-39.1	23.6	0.00e+00	0	41	0	872415232	50	5795
2026-01-30 13:31:50.45	117.57	30.68	-38.0	-38.9	23.7	0.00e+00	0	41	0	874512384	50	5637
2026-01-30 13:31:51.46	117.89	30.60	-37.5	-38.3	24.1	0.00e+00	4	41	0	876609536	48	5956
2026-01-30 13:31:52.47	118.21	30.52	-37.5	-38.4	23.7	0.00e+00	0	41	0	878706688	48	5975
2026-01-30 13:31:53.48	118.53	30.44	-38.2	-39.1	23.5	0.00e+00	92	41	0	879755264	48	6528
2026-01-30 13:31:54.49	118.85	30.36	-38.7	-39.6	22.9	0.00e+00	0	41	0	881852416	50	6161
2026-01-30 13:31:55.50	119.17	30.28	-38.9	-39.9	22.9	0.00e+00	65	41	0	883949568	50	6345
2026-01-30 13:31:56.51	119.49	30.19	-38.8	-39.8	22.9	0.00e+00	0	41	0	886046720	50	6253
2026-01-30 13:31:57.52	119.80	30.11	-38.6	-39.5	23.2	0.00e+00	0	41	0	888143872	50	6096
2026-01-30 13:31:58.53	120.11	30.03	-38.6	-39.5	23.1	0.00e+00	65	41	0	889192448	50	6060
2026-01-30 13:31:59.54	120.42	29.94	-39.1	-40.0	22.7	0.00e+00	0	41	0	891289600	50	6457
2026-01-30 13:32:00.55	120.73	29.86	-39.4	-40.4	22.4	0.00e+00	52	41	0	893386752	50	6763
2026-01-30 13:32:01.55	121.04	29.77	-39.5	-40.6	22.2	0.00e+00	0	41	0	895483904	50	6861
2026-01-30 13:32:02.56	121.34	29.68	-38.8	-39.8	23.0	0.00e+00	76	41	0	897581056	50	6270
2026-01-30 13:32:03.58	121.65	29.59	-38.3	-39.2	23.3	0.00e+00	0	41	0	898629632	50	5852
2026-01-30 13:32:04.58	121.95	29.51	-38.3	-39.2	23.2	0.00e+00	9	41	0	900726784	50	5839
2026-01-30 13:32:05.59	122.25	29.42	-38.1	-39.0	23.6	0.00e+00	0	41	0	902823936	50	5717
2026-01-30 13:32:06.60	122.55	29.33	-39.0	-40.0	22.8	0.00e+00	0	41	0	904921088	50	6424
2026-01-30 13:32:07.61	122.85	29.24	-39.4	-40.4	22.4	0.00e+00	25	41	0	907018240	50	6766
2026-01-30 13:32:08.61	123.14	29.15	-39.3	-40.3	22.6	0.00e+00	0	41	0	908066816	50	6624
2026-01-30 13:32:09.62	123.43	29.06	-38.7	-39.7	23.0	0.00e+00	90	41	0	910163968	50	6194
2026-01-30 13:32:10.63	123.73	28.97	-38.2	-39.0	23.6	0.00e+00	0	41	0	912261120	50	5753
2026-01-30 13:32:11.64	124.02	28.88	-38.1	-39.0	23.6	0.00e+00	0	41	0	914358272	50	5709
2026-01-30 13:32:12.65	124.31	28.78	-38.6	-39.5	23.1	0.00e+00	0	41	0	916455424	50	6074
2026-01-30 13:32:13.66	124.60	28.69	-39.2	-40.2	22.5	0.00e+00	0	41	0	917504000	50	6599
2026-01-30 13:32:14.67	124.88	28.60	-39.4	-40.4	22.5	0.00e+00	66	41	0	919601152	50	6744
2026-01-30 13:32:15.68	125.17	28.50	-39.0	-40.0	22.8	0.00e+00	0	41	0	921698304	50	6398
2026-01-30 13:32:16.69	125.45	28.41	-38.3	-39.3	23.5	0.00e+00	90	41	0	923795456	50	5898
2026-01-30 13:32:17.70	125.73	28.31	-38.5	-39.4	23.2	0.00e+00	0	41	0	925892608	50	5980
2026-01-30 13:32:18.71	126.01	28.22	-38.5	-39.4	23.2	0.00e+00	0	41	0	927989760	50	6022
2026-01-30 13:32:19.72	126.29	28.12	-40.0	-41.1	22.0	0.00e+00	0	41	0	929038336	52	6471
2026-01-30 13:32:20.73	126.57	28.03	-41.0	-42.2	20.9	0.00e+00	0	41	0	931135488	54	6594
2026-01-30 13:32:21.74	126.84	27.93	-40.6	-41.7	21.3	0.00e+00	0	41	0	933232640	54	6242
2026-01-30 13:32:22.75	127.11	27.84	-39.8	-40.9	22.0	0.00e+00	0	41	0	935329792	54	5650
2026-01-30 13:32:23.76	127.39	27.74	-39.1	-40.1	22.7	0.00e+00	67	41	0	937426944	52	5772
2026-01-30 13:32:24.77	127.66	27.64	-38.8	-39.8	23.0	0.00e+00	0	41	0	938475520	50	6252
2026-01-30 13:32:25.79	127.93	27.54	-38.8	-39.7	23.1	0.00e+00	75	41	0	940572672	50	6231
2026-01-30 13:32:26.80	128.20	27.45	-39.5	-40.5	22.3	0.00e+00	0	41	0	942669824	50	6797
2026-01-30 13:32:27.80	128.46	27.35	-40.6	-41.8	21.3	0.00e+00	0	41	0	944766976	52	7020
2026-01-30 13:32:28.82	128.72	27.25	-40.9	-42.2	20.9	0.00e+00	69	41	0	946864128	54	6601
2026-01-30 13:32:29.82	128.98	27.15	-41.5	-42.9	20.3	0.00e+00	0	41	0	947912704	54	7096
2026-01-30 13:32:30.83	129.24	27.05	-40.3	-41.5	21.5	0.00e+00	92	41	0	950009856	54	6050
2026-01-30 13:32:31.84	129.50	26.95	-39.8	-40.9	22.1	0.00e+00	0	41	0	952107008	54	5632
2026-01-30 13:32:32.85	129.76	26.85	-39.7	-40.7	22.3	0.00e+00	14	41	0	954204160	52	6244
2026-01-30 13:32:33.86	130.02	26.75	-40.0	-41.2	21.7	0.00e+00	0	41	0	956301312	52	6560
2026-01-30 13:32:34.87	130.27	26.65	-40.5	-41.8	21.2	0.00e+00	0	41	0	957349888	52	7061
2026-01-30 13:32:35.88	130.52	26.55	-41.0	-42.4	20.7	0.00e+00	0	41	0	959447040	54	6744
2026-01-30 13:32:36.89	130.77	26.45	-41.1	-42.5	20.8	0.00e+00	0	41	0	961544192	54	6813
2026-01-30 13:32:37.90	131.02	26.35	-40.6	-41.8	21.1	0.00e+00	69	41	0	963641344	54	6311
2026-01-30 13:32:38.91	131.27	26.25	-40.4	-41.6	21.5	0.00e+00	0	41	0	965738496	54	6114
2026-01-30 13:32:39.92	131.52	26.15	-40.2	-41.3	21.6	0.00e+00	92	41	0	966787072	54	5964
2026-01-30 13:32:40.93	131.76	26.05	-40.3	-41.4	21.5	0.00e+00	0	41	0	968884224	54	5998
2026-01-30 13:32:41.94	132.01	25.95	-41.6	-43.0	20.0	0.00e+00	0	41	0	970981376	54	7199
2026-01-30 13:32:42.94	132.25	25.85	-42.6	-44.2	19.0	0.00e+00	0	41	0	973078528	56	7413
2026-01-30 13:32:43.95	132.49	25.75	-42.6	-44.3	19.1	0.00e+00	33	41	0	975175680	58	6664
2026-01-30 13:32:44.97	132.73	25.64	-41.8	-43.3	20.0	0.00e+00	70	41	0	976224256	58	5930
2026-01-30 13:32:45.98	132.97	25.54	-40.5	-41.7	21.3	0.00e+00	0	41	0	978321408	54	6222
2026-01-30 13:32:46.99	133.20	25.44	-40.0	-41.1	21.9	0.00e+00	91	41	0	980418560	54	5789
2026-01-30 13:32:47.99	133.44	25.34	-39.7	-40.7	22.1	0.00e+00	0	41	0	982515712	52	6244
2026-01-30 13:32:49.01	133.67	25.24	-40.0	-41.1	21.8	0.00e+00	0	41	0	984612864	52	6473
2026-01-30 13:32:50.02	133.90	25.13	-40.4	-41.6	21.2	0.00e+00	0	41	0	985661440	52	6909
2026-01-30 13:32:51.03	134.13	25.03	-41.1	-42.4	20.7	0.00e+00	0	41	0	987758592	54	6737
2026-01-30 13:32:52.04	134.36	24.93	-40.7	-42.0	21.1	0.00e+00	5	41	0	989855744	54	6421
2026-01-30 13:32:53.04	134.59	24.83	-40.3	-41.6	21.5	0.00e+00	0	41	0	991952896	54	6116
2026-01-30 13:32:54.05	134.81	24.72	-40.1	-41.2	21.6	0.00e+00	92	41	0	994050048	54	5864
2026-01-30 13:32:55.06	135.04	24.62	-39.4	-40.4	22.5	0.00e+00	0	41	0	996147200	52	6020
2026-01-30 13:32:56.07	135.26	24.52	-39.6	-40.7	22.1	0.00e+00	0	41	0	997195776	52	6214
2026-01-30 13:32:57.08	135.48	24.42	-40.1	-41.3	21.7	0.00e+00	0	41	0	999292928	52	6633
2026-01-30 13:32:58.09	135.70	24.31	-40.7	-42.0	21.1	0.00e+00	0	41	0	1001390080	52	7175
2026-01-30 13:32:59.10	135.92	24.21	-41.2	-42.6	20.5	0.00e+00	64	41	0	1003487232	54	6884
2026-01-30 13:33:00.11	136.14	24.11	-41.1	-42.4	20.7	0.00e+00	0	41	0	1005584384	54	6730
2026-01-30 13:33:01.12	136.35	24.01	-40.3	-41.5	21.5	0.00e+00	92	41	0	1006632960	54	6063
2026-01-30 13:33:02.13	136.57	23.90	-39.7	-40.7	22.2	0.00e+00	0	41	0	1008730112	52	6244
2026-01-30 13:33:03.14	136.78	23.80	-38.8	-39.8	22.9	0.00e+00	92	41	0	1010827264	52	5583
2026-01-30 13:33:04.15	136.99	23.70	-38.8	-39.8	22.9	0.00e+00	0	41	0	1012924416	50	6248
2026-01-30 13:33:05.16	137.20	23.59	-39.1	-40.1	22.5	0.00e+00	0	41	0	1015021568	50	6534
2026-01-30 13:33:06.17	137.41	23.49	-39.4	-40.4	22.5	0.00e+00	0	41	0	1016070144	50	6737
2026-01-30 13:33:07.18	137.62	23.39	-39.4	-40.4	22.4	0.00e+00	0	41	0	1018167296	50	6737
2026-01-30 13:33:08.19	137.83	23.29	-39.3	-40.3	22.5	0.00e+00	92	41	0	1020264448	50	6633
2026-01-30 13:33:09.20	138.03	23.18	-38.7	-39.6	23.0	0.00e+00	0	41	0	1022361600	50	6158
2026-01-30 13:33:10.21	138.24	23.08	-38.3	-39.2	23.5	0.00e+00	77	41	0	1024458752	50	5836
2026-01-30 13:33:11.22	138.44	22.98	-37.6	-38.5	24.0	0.00e+00	0	41	0	1025507328	48	6069
2026-01-30 13:33:12.23	138.64	22.88	-37.1	-37.9	24.3	0.00e+00	0	41	0	1027604480	48	5636
2026-01-30 13:33:13.24	138.84	22.77	-36.5	-37.3	24.8	0.00e+00	25	41	0	1029701632	46	5907
2026-01-30 13:33:14.24	139.04	22.67	-36.9	-37.8	24.4	0.00e+00	0	41	0	1031798784	46	6248
2026-01-30 13:33:15.25	139.23	22.57	-37.6	-38.5	23.9	0.00e+00	65	41	0	1033895936	46	6822
2026-01-30 13:33:16.26	139.43	22.47	-38.4	-39.3	23.2	0.00e+00	0	41	0	1034944512	48	6674
2026-01-30 13:33:17.27	139.63	22.37	-38.7	-39.7	22.9	0.00e+00	92	41	0	1037041664	50	6232
2026-01-30 13:33:18.28	139.82	22.26	-38.8	-39.8	22.9	0.00e+00	0	41	0	1039138816	50	6246
2026-01-30 13:33:19.29	140.01	22.16	-38.6	-39.6	23.1	0.00e+00	0	41	0	1041235968	50	6116
2026-01-30 13:33:20.30	140.20	22.06	-38.3	-39.3	23.3	0.00e+00	0	41	0	1043333120	50	5923
2026-01-30 13:33:21.31	140.39	21.96	-38.1	-39.0	23.5	0.00e+00	0	41	0	1044381696	50	5717
2026-01-30 13:33:22.32	140.58	21.86	-37.8	-38.7	23.6	0.00e+00	31	41	0	1046478848	50	5505
2026-01-30 13:33:23.33	140.77	21.75	-37.6	-38.5	23.9	0.00e+00	0	41	0	1048576000	48	6035
2026-01-30 13:33:24.34	140.96	21.65	-37.7	-38.5	23.8	0.00e+00	92	41	0	1050673152	48	6093
2026-01-30 13:33:25.34	141.14	21.55	-37.8	-38.7	23.8	0.00e+00	0	41	0	1052770304	48	6201
2026-01-30 13:33:26.35	141.32	21.45	-37.9	-38.8	23.6	0.00e+00	0	41	0	1053818880	48	6247
2026-01-30 13:33:27.36	141.51	21.35	-37.8	-38.7	23.7	0.00e+00	0	41	0	1055916032	48	6232
2026-01-30 13:33:28.37	141.69	21.25	-37.9	-38.8	23.7	0.00e+00	0	41	0	1058013184	48	6271
2026-01-30 13:33:29.38	141.87	21.15	-37.9	-38.8	23.7	0.00e+00	32	41	0	1060110336	48	6265
2026-01-30 13:33:30.39	142.05	21.05	-37.5	-38.5	23.8	0.00e+00	0	41	0	1062207488	48	6036
2026-01-30 13:33:31.40	142.23	20.95	-37.5	-38.4	23.9	0.00e+00	70	41	0	1064304640	48	5971
2026-01-30 13:33:32.41	142.40	20.84	-37.4	-38.3	24.0	0.00e+00	0	41	0	1065353216	48	5916
2026-01-30 13:33:33.42	142.58	20.74	-37.4	-38.2	23.7	0.00e+00	26	41	0	1067450368	48	5886
2026-01-30 13:33:34.42	142.75	20.65	-37.3	-38.2	23.7	0.00e+00	0	41	0	1069547520	48	5858
2026-01-30 13:33:35.43	142.93	20.54	-37.3	-38.1	24.0	0.00e+00	0	41	0	1071644672	48	5820
2026-01-30 13:33:36.44	143.10	20.44	-37.3	-38.2	24.0	0.00e+00	0	41	0	1072693248	48	5833
2026-01-30 13:33:37.45	143.27	20.34	-37.4	-38.2	23.9	0.00e+00	0	41	0	1074790400	48	5892
2026-01-30 13:33:38.46	143.44	20.25	-37.4	-38.2	23.9	0.00e+00	58	41	0	1076887552	48	5886
2026-01-30 13:33:39.47	143.61	20.15	-37.7	-38.6	23.3	0.00e+00	0	41	0	1078984704	48	6144
2026-01-30 13:33:40.48	143.78	20.05	-37.9	-38.8	23.5	0.00e+00	92	41	0	1081081856	48	6280
2026-01-30 13:33:41.49	143.95	19.95	-38.0	-38.9	23.4	0.00e+00	0	41	0	1082130432	48	6337
2026-01-30 13:33:42.50	144.11	19.85	-37.7	-38.6	23.7	0.00e+00	0	41	0	1084227584	48	6143
2026-01-30 13:33:43.51	144.28	19.75	-37.8	-38.7	23.6	0.00e+00	61	41	0	1086324736	48	6211
2026-01-30 13:33:44.52	144.44	19.65	-37.4	-38.2	23.9	0.00e+00	0	41	0	1088421888	48	5887
2026-01-30 13:33:45.53	144.61	19.55	-37.3	-38.1	23.9	0.00e+00	58	41	0	1090519040	48	5811
2026-01-30 13:33:46.54	144.77	19.45	-37.1	-38.0	24.2	0.00e+00	0	41	0	1092616192	48	5703
2026-01-30 13:33:47.55	144.93	19.35	-37.0	-37.8	24.3	0.00e+00	57	41	0	1093664768	48	5612
2026-01-30 13:33:48.56	145.09	19.26	-37.1	-38.0	24.2	0.00e+00	0	41	0	1095761920	48	5724
2026-01-30 13:33:49.57	145.25	19.16	-37.1	-37.9	24.2	0.00e+00	0	41	0	1097859072	48	5686
2026-01-30 13:33:50.58	145.41	19.06	-37.2	-38.0	24.1	0.00e+00	0	41	0	1099956224	48	5753
2026-01-30 13:33:51.60	145.57	18.96	-37.3	-38.2	24.0	0.00e+00	0	41	0	1102053376	48	5859
2026-01-30 13:33:52.60	145.72	18.86	-37.1	-38.0	24.2	0.00e+00	61	41	0	1103101952	48	5713
2026-01-30 13:33:53.61	145.88	18.77	-37.2	-38.1	24.1	0.00e+00	0	41	0	1105199104	48	5789
2026-01-30 13:33:54.62	146.03	18.67	-37.1	-38.0	24.2	0.00e+00	92	41	0	1107296256	48	5721
2026-01-30 13:33:55.63	146.19	18.57	-37.0	-37.8	24.3	0.00e+00	0	41	0	1109393408	48	5628
2026-01-30 13:33:56.64	146.34	18.48	-36.9	-37.8	24.3	0.00e+00	0	41	0	1111490560	48	5587
2026-01-30 13:33:57.66	146.49	18.38	-37.0	-37.8	24.3	0.00e+00	0	41	0	1112539136	48	5620
2026-01-30 13:33:58.67	146.64	18.28	-37.1	-37.9	24.1	0.00e+00	0	41	0	1114636288	48	5680
2026-01-30 13:33:59.67	146.79	18.19	-37.2	-38.0	24.0	0.00e+00	10	41	0	1116733440	48	5753
2026-01-30 13:34:00.68	146.94	18.09	-37.3	-38.1	24.0	0.00e+00	0	41	0	1118830592	48	5795
2026-01-30 13:34:01.70	147.09	17.99	-37.6	-38.5	23.8	0.00e+00	92	41	0	1120927744	48	6040
2026-01-30 13:34:02.71	147.24	17.90	-37.8	-38.6	23.7	0.00e+00	0	41	0	1121976320	48	6163
2026-01-30 13:34:03.72	147.38	17.80	-38.2	-39.2	23.2	0.00e+00	0	41	0	1124073472	48	6544
2026-01-30 13:34:04.72	147.53	17.71	-38.6	-39.6	22.9	0.00e+00	0	41	0	1126170624	48	6901
2026-01-30 13:34:05.73	147.67	17.61	-38.9	-39.9	22.7	0.00e+00	0	41	0	1128267776	50	6326
2026-01-30 13:34:06.74	147.81	17.52	-39.4	-40.4	22.3	0.00e+00	0	41	0	1130364928	50	6732
2026-01-30 13:34:07.75	147.96	17.43	-39.8	-40.9	22.0	0.00e+00	0	41	0	1132462080	52	6342
2026-01-30 13:34:08.76	148.10	17.33	-39.8	-40.9	21.8	0.00e+00	92	41	0	1133510656	52	6379
2026-01-30 13:34:09.77	148.24	17.24	-40.3	-41.5	21.3	0.00e+00	0	41	0	1135607808	52	6823
2026-01-30 13:34:10.77	148.38	17.14	-39.9	-41.1	21.8	0.00e+00	44	41	0	1137704960	52	6484
2026-01-30 13:34:11.79	148.52	17.05	-40.2	-41.3	21.6	0.00e+00	0	41	0	1139802112	52	6668
2026-01-30 13:34:12.79	148.66	16.96	-39.9	-41.0	21.7	0.00e+00	0	41	0	1140850688	52	6446
2026-01-30 13:34:13.80	148.79	16.86	-39.4	-40.4	22.2	0.00e+00	64	41	0	1142947840	52	6032
2026-01-30 13:34:14.81	148.93	16.77	-39.2	-40.2	22.4	0.00e+00	0	41	0	1145044992	52	5892
2026-01-30 13:34:15.82	149.07	16.68	-39.1	-40.1	22.6	0.00e+00	90	41	0	1147142144	52	5815
2026-01-30 13:34:16.83	149.20	16.58	-38.7	-39.7	22.9	0.00e+00	0	41	0	1149239296	50	6194
2026-01-30 13:34:17.84	149.33	16.49	-38.8	-39.7	22.8	0.00e+00	92	41	0	1150287872	50	6238
2026-01-30 13:34:18.85	149.47	16.40	-38.2	-39.1	23.2	0.00e+00	0	41	0	1152385024	50	5800
2026-01-30 13:34:19.86	149.60	16.31	-38.5	-39.5	23.0	0.00e+00	0	41	0	1154482176	50	6049
2026-01-30 13:34:20.87	149.73	16.21	-38.8	-39.7	22.8	0.00e+00	17	41	0	1156579328	50	6232
2026-01-30 13:34:21.88	149.86	16.12	-38.9	-39.9	22.6	0.00e+00	0	41	0	1158676480	50	6359
2026-01-30 13:34:22.89	149.99	16.03	-39.2	-40.3	22.3	0.00e+00	92	41	0	1160773632	50	6641
2026-01-30 13:34:23.90	150.12	15.94	-39.4	-40.5	22.2	0.00e+00	0	41	0	1161822208	50	6807
2026-01-30 13:34:24.90	150.25	15.85	-39.5	-40.6	22.1	0.00e+00	92	41	0	1163919360	50	6870
2026-01-30 13:34:25.91	150.38	15.76	-39.5	-40.6	22.1	0.00e+00	0	41	0	1166016512	50	6905
2026-01-30 13:34:26.92	150.51	15.67	-39.4	-40.4	22.3	0.00e+00	0	41	0	1168113664	50	6752
2026-01-30 13:34:27.93	150.63	15.58	-39.3	-40.3	22.4	0.00e+00	0	41	0	1170210816	50	6647
2026-01-30 13:34:28.94	150.76	15.49	-39.0	-40.0	22.6	0.00e+00	0	41	0	1171259392	50	6453
2026-01-30 13:34:29.95	150.88	15.40	-38.9	-39.9	22.7	0.00e+00	32	41	0	1173356544	50	6367
2026-01-30 13:34:30.96	151.01	15.31	-39.1	-40.1	22.5	0.00e+00	0	41	0	1175453696	50	6533
2026-01-30 13:34:31.97	151.13	15.22	-38.2	-39.1	23.2	0.00e+00	92	41	0	1177550848	50	5806
2026-01-30 13:34:32.98	151.26	15.13	-38.1	-39.0	23.3	0.00e+00	0	41	0	1179648000	50	5726
2026-01-30 13:34:33.98	151.38	15.04	-38.0	-38.9	23.4	0.00e+00	0	41	0	1180696576	50	5681
2026-01-30 13:34:34.99	151.50	14.95	-37.8	-38.7	23.6	0.00e+00	0	41	0	1182793728	50	5535
2026-01-30 13:34:36.00	151.62	14.86	-38.1	-39.1	23.3	0.00e+00	0	41	0	1184890880	50	5771
2026-01-30 13:34:37.01	151.74	14.77	-38.3	-39.2	23.1	0.00e+00	25	41	0	1186988032	50	5870
2026-01-30 13:34:38.02	151.86	14.68	-38.3	-39.3	23.1	0.00e+00	0	41	0	1189085184	50	5932
2026-01-30 13:34:39.03	151.98	14.60	-38.6	-39.6	22.9	0.00e+00	52	41	0	1190133760	50	6124
2026-01-30 13:34:40.04	152.10	14.51	-38.5	-39.5	23.0	0.00e+00	0	41	0	1192230912	50	6085
2026-01-30 13:34:41.05	152.21	14.42	-38.6	-39.6	22.8	0.00e+00	0	41	0	1194328064	50	6143
2026-01-30 13:34:42.06	152.33	14.33	-38.7	-39.8	22.8	0.00e+00	0	41	0	1196425216	50	6257
2026-01-30 13:34:43.07	152.45	14.24	-38.4	-39.4	23.0	0.00e+00	0	41	0	1198522368	50	5969
2026-01-30 13:34:44.08	152.56	14.16	-38.7	-39.7	22.8	0.00e+00	29	41	0	1199570944	50	6205
2026-01-30 13:34:45.09	152.68	14.07	-38.4	-39.3	23.1	0.00e+00	0	41	0	1201668096	50	5959
2026-01-30 13:34:46.10	152.79	13.98	-38.1	-39.1	23.2	0.00e+00	43	41	0	1203765248	50	5770
2026-01-30 13:34:47.11	152.91	13.90	-38.2	-39.2	23.0	0.00e+00	0	41	0	1205862400	50	5849
2026-01-30 13:34:48.12	153.02	13.81	-38.2	-39.1	23.1	0.00e+00	33	41	0	1207959552	50	5810
2026-01-30 13:34:49.13	153.13	13.72	-38.4	-39.3	22.8	0.00e+00	0	41	0	1209008128	50	5940
2026-01-30 13:34:50.14	153.24	13.64	-38.6	-39.5	22.5	0.00e+00	0	41	0	1211105280	50	6098
2026-01-30 13:34:51.15	153.35	13.55	-38.7	-39.7	22.5	0.00e+00	0	41	0	1213202432	50	6198
2026-01-30 13:34:52.16	153.46	13.47	-39.3	-40.4	21.8	0.00e+00	0	41	0	1215299584	50	6754
