passes_logs/2026/01/30/R4.6S_Anadyr/R4.6S_Anadyr__20260130_002245_KOSAR1-5_rec.log

#Pass ID: 20260130_002245_KOSAR1-5
#Satellite: KOSAR1-5
#Configuration: KOSAR1-5
#almurnet v.1.7.20251203
#Start time: 2026-01-30 00:22:47

#Version: 2.2.20231116
#Station: R4.6S_Anadyr
#Location: 177.4865 lon 64.73178 lat
#TLE: 1 67264U 25313S   26028.94615568  .00012050  00000+0  55467-3 0  9998
#TLE: 2 67264  97.4180 105.8864 0016576 134.5684 225.6907 15.20338860  4779

#Time	Az	El	Level	Level2	SNR	BER	BlckErr	Temp	State	Recorded	gain1	gain2
2026-01-30 00:22:47.62	16.81	0.12	-49.3	-64.3	3.5	1.51e+00	0	34	0	0	60	59462
2026-01-30 00:22:48.63	16.77	0.18	-45.9	-60.6	3.6	1.51e+00	0	35	104	0	60	43556
2026-01-30 00:22:49.64	16.74	0.25	-45.9	-60.7	3.6	1.51e+00	0	35	104	0	60	43788
2026-01-30 00:22:50.65	16.71	0.31	-45.9	-60.6	3.6	1.51e+00	0	35	104	0	60	43673
2026-01-30 00:22:51.66	16.68	0.38	-45.9	-60.6	3.6	1.51e+00	0	35	104	0	60	43703
2026-01-30 00:22:52.67	16.65	0.44	-45.9	-60.7	3.6	1.51e+00	0	35	104	0	60	43718
2026-01-30 00:22:53.68	16.62	0.51	-45.9	-60.7	3.6	1.51e+00	0	36	104	0	60	43901
2026-01-30 00:22:54.69	16.59	0.57	-45.9	-60.6	3.6	1.51e+00	0	36	104	0	60	43507
2026-01-30 00:22:55.70	16.56	0.63	-45.9	-60.7	3.6	1.51e+00	0	36	104	0	60	43856
2026-01-30 00:22:56.71	16.52	0.70	-45.9	-60.6	3.6	1.51e+00	0	36	104	0	60	43664
2026-01-30 00:22:57.72	16.49	0.76	-45.9	-60.7	3.6	1.51e+00	0	36	104	0	60	43786
2026-01-30 00:22:58.73	16.46	0.83	-45.9	-60.7	3.5	1.51e+00	0	36	104	0	60	43832
2026-01-30 00:22:59.74	16.43	0.90	-45.9	-60.7	3.6	1.51e+00	0	36	104	0	60	43797
2026-01-30 00:23:00.75	16.39	0.96	-45.9	-60.6	3.6	1.51e+00	0	36	104	0	60	43692
2026-01-30 00:23:01.76	16.36	1.03	-45.9	-60.6	3.5	1.51e+00	0	36	104	0	60	43591
2026-01-30 00:23:02.77	16.33	1.09	-45.9	-60.6	3.6	1.51e+00	0	36	104	0	60	43694
2026-01-30 00:23:03.78	16.29	1.16	-45.9	-60.6	3.6	1.51e+00	0	36	104	0	60	43614
2026-01-30 00:23:04.79	16.26	1.23	-45.9	-60.6	3.6	1.51e+00	0	36	104	0	60	43461
2026-01-30 00:23:05.80	16.22	1.29	-45.9	-60.7	3.6	1.51e+00	0	36	104	0	60	43756
2026-01-30 00:23:06.81	16.19	1.36	-45.9	-60.7	3.6	1.51e+00	0	36	104	0	60	43884
2026-01-30 00:23:07.82	16.16	1.43	-45.9	-60.6	3.6	1.51e+00	0	36	104	0	60	43580
2026-01-30 00:23:08.83	16.12	1.49	-45.9	-60.7	3.6	1.51e+00	0	36	104	0	60	43744
2026-01-30 00:23:09.85	16.09	1.56	-45.9	-60.6	3.6	1.51e+00	0	36	104	0	60	43632
2026-01-30 00:23:10.86	16.05	1.63	-45.9	-60.7	3.6	1.51e+00	0	36	104	0	60	43746
2026-01-30 00:23:11.87	16.01	1.70	-45.9	-60.7	3.6	1.51e+00	0	36	104	0	60	43819
2026-01-30 00:23:12.88	15.98	1.77	-45.9	-60.6	3.6	1.51e+00	0	36	104	0	60	43687
2026-01-30 00:23:13.89	15.94	1.83	-45.9	-60.7	3.6	1.51e+00	0	36	104	0	60	43736
2026-01-30 00:23:14.90	15.91	1.90	-45.9	-60.6	3.6	1.51e+00	0	36	104	0	60	43692
2026-01-30 00:23:15.91	15.87	1.97	-45.9	-60.6	3.6	1.51e+00	0	36	104	0	60	43683
2026-01-30 00:23:16.92	15.83	2.04	-45.9	-60.6	3.6	1.51e+00	0	36	104	0	60	43470
2026-01-30 00:23:17.93	15.80	2.11	-45.9	-60.7	3.6	1.51e+00	0	36	104	0	60	43771
2026-01-30 00:23:18.94	15.76	2.18	-45.9	-60.7	3.6	1.51e+00	0	36	104	0	60	43714
2026-01-30 00:23:19.95	15.72	2.25	-45.9	-60.7	3.6	1.51e+00	0	36	104	0	60	43807
2026-01-30 00:23:20.96	15.68	2.32	-45.9	-60.6	3.6	1.51e+00	0	36	104	0	60	43638
2026-01-30 00:23:21.97	15.65	2.39	-45.9	-60.7	3.6	1.51e+00	0	36	104	0	60	43715
2026-01-30 00:23:22.98	15.61	2.46	-45.9	-60.7	3.6	1.51e+00	0	36	104	0	60	43803
2026-01-30 00:23:23.99	15.57	2.53	-45.9	-60.6	3.6	1.51e+00	0	36	104	0	60	43643
2026-01-30 00:23:25.00	15.53	2.60	-45.9	-60.7	3.6	1.51e+00	0	36	104	0	60	43818
2026-01-30 00:23:26.01	15.49	2.67	-45.9	-60.6	3.6	1.51e+00	0	36	104	0	60	43476
2026-01-30 00:23:27.02	15.45	2.74	-45.9	-60.7	3.6	1.51e+00	0	36	104	0	60	43848
2026-01-30 00:23:28.03	15.41	2.81	-45.9	-60.7	3.6	1.51e+00	0	36	104	0	60	43980
2026-01-30 00:23:29.04	15.37	2.88	-45.9	-60.6	3.6	1.51e+00	0	36	104	0	60	43640
2026-01-30 00:23:30.05	15.33	2.96	-45.9	-60.7	3.6	1.51e+00	0	36	104	0	60	43785
2026-01-30 00:23:31.06	15.29	3.03	-45.9	-60.7	3.6	1.51e+00	0	36	104	0	60	43830
2026-01-30 00:23:32.07	15.25	3.10	-45.9	-60.6	3.6	1.51e+00	0	36	104	0	60	43679
2026-01-30 00:23:33.08	15.21	3.17	-45.9	-60.7	3.6	1.51e+00	0	36	104	0	60	43758
2026-01-30 00:23:34.09	15.17	3.24	-45.9	-60.7	3.6	1.51e+00	0	36	104	0	60	43899
2026-01-30 00:23:35.10	15.13	3.32	-45.9	-60.7	3.6	1.51e+00	0	36	104	0	60	43798
2026-01-30 00:23:36.11	15.09	3.39	-45.9	-60.6	3.6	1.51e+00	0	36	104	0	60	43627
2026-01-30 00:23:37.12	15.05	3.46	-45.9	-60.7	3.6	1.51e+00	0	36	104	0	60	43741
2026-01-30 00:23:38.13	15.00	3.54	-45.9	-60.7	3.6	1.51e+00	0	36	104	0	60	43939
2026-01-30 00:23:39.14	14.96	3.61	-45.9	-60.6	3.6	1.51e+00	0	36	104	0	60	43577
2026-01-30 00:23:40.15	14.92	3.69	-45.9	-60.7	3.6	1.51e+00	0	36	104	0	60	43971
2026-01-30 00:23:41.16	14.87	3.76	-45.9	-60.6	3.6	1.51e+00	0	36	104	0	60	43651
2026-01-30 00:23:42.17	14.83	3.84	-45.9	-60.6	3.6	1.51e+00	0	36	104	0	60	43635
2026-01-30 00:23:43.18	14.79	3.91	-45.9	-60.6	3.6	1.51e+00	0	36	104	0	60	43672
2026-01-30 00:23:44.19	14.74	3.99	-45.9	-60.6	3.6	1.51e+00	0	36	104	0	60	43479
2026-01-30 00:23:45.19	14.70	4.06	-45.9	-60.7	3.6	1.51e+00	0	36	104	0	60	43800
2026-01-30 00:23:46.21	14.65	4.14	-45.9	-60.6	3.6	1.51e+00	0	36	104	0	60	43588
2026-01-30 00:23:47.22	14.61	4.21	-45.9	-60.6	3.6	1.51e+00	0	37	104	0	60	43600
2026-01-30 00:23:48.23	14.56	4.29	-45.9	-60.7	3.6	1.51e+00	0	36	104	0	60	43921
2026-01-30 00:23:49.24	14.52	4.37	-45.9	-60.6	3.6	1.51e+00	0	36	104	0	60	43591
2026-01-30 00:23:50.25	14.47	4.44	-45.9	-60.6	3.6	1.51e+00	0	36	104	0	60	43625
2026-01-30 00:23:51.26	14.42	4.52	-45.9	-60.7	3.6	1.51e+00	0	36	104	0	60	43719
2026-01-30 00:23:52.27	14.38	4.60	-45.9	-60.7	3.6	1.51e+00	0	36	104	0	60	43802
2026-01-30 00:23:53.28	14.33	4.67	-45.9	-60.7	3.6	1.51e+00	0	37	104	0	60	43776
2026-01-30 00:23:54.29	14.28	4.75	-45.9	-60.6	3.6	1.51e+00	0	37	104	0	60	43543
2026-01-30 00:23:55.30	14.23	4.83	-45.9	-60.7	3.6	1.51e+00	0	36	104	0	60	43932
2026-01-30 00:23:56.31	14.19	4.91	-45.9	-60.6	3.6	1.51e+00	0	37	104	0	60	43677
2026-01-30 00:23:57.32	14.14	4.99	-45.9	-60.7	3.6	1.51e+00	0	37	104	0	60	43750
2026-01-30 00:23:58.33	14.09	5.07	-45.9	-60.6	3.6	1.51e+00	0	37	104	0	60	43632
2026-01-30 00:23:59.34	14.04	5.15	-45.9	-60.7	3.6	1.51e+00	0	36	104	0	60	43876
2026-01-30 00:24:00.35	13.99	5.23	-45.9	-60.6	3.6	1.51e+00	0	36	104	0	60	43598
2026-01-30 00:24:01.36	13.94	5.31	-45.9	-60.6	3.6	1.51e+00	0	36	104	0	60	43619
2026-01-30 00:24:02.37	13.89	5.39	-45.9	-60.7	3.6	1.51e+00	0	36	104	0	60	43753
2026-01-30 00:24:03.38	13.84	5.47	-45.9	-60.7	3.6	1.51e+00	0	36	104	0	60	43788
2026-01-30 00:24:04.39	13.79	5.55	-45.9	-60.7	3.6	1.51e+00	0	37	104	0	60	43800
2026-01-30 00:24:05.40	13.73	5.63	-45.9	-60.6	3.6	1.51e+00	0	36	104	0	60	43687
2026-01-30 00:24:06.41	13.68	5.71	-46.0	-60.6	3.6	1.51e+00	0	36	104	0	60	43661
2026-01-30 00:24:07.42	13.63	5.79	-45.9	-60.7	3.6	1.51e+00	0	36	104	0	60	43956
2026-01-30 00:24:08.43	13.58	5.88	-45.9	-60.6	3.6	1.51e+00	0	36	104	0	60	43637
2026-01-30 00:24:09.43	13.52	5.96	-45.9	-60.7	3.6	1.51e+00	0	36	104	0	60	43744
2026-01-30 00:24:10.44	13.47	6.04	-45.9	-60.6	3.6	1.51e+00	0	36	104	0	60	43637
2026-01-30 00:24:11.46	13.42	6.12	-46.0	-60.7	3.6	1.51e+00	0	37	104	0	60	43964
2026-01-30 00:24:12.47	13.36	6.21	-45.9	-60.7	3.6	1.51e+00	0	37	104	0	60	44055
2026-01-30 00:24:13.48	13.31	6.29	-45.9	-60.7	3.6	1.51e+00	0	37	104	0	60	43828
2026-01-30 00:24:14.49	13.25	6.38	-45.9	-60.6	3.6	1.51e+00	0	37	104	0	60	43706
2026-01-30 00:24:15.50	13.19	6.46	-45.9	-60.6	3.6	1.51e+00	0	36	104	0	60	43708
2026-01-30 00:24:16.51	13.14	6.55	-45.9	-60.7	3.6	1.51e+00	0	37	104	0	60	43947
2026-01-30 00:24:17.52	13.08	6.63	-45.9	-60.7	3.5	1.51e+00	0	36	104	0	60	43726
2026-01-30 00:24:18.53	13.02	6.72	-46.0	-60.6	3.6	1.51e+00	0	37	104	0	60	43641
2026-01-30 00:24:19.54	12.97	6.80	-45.9	-60.7	3.6	1.51e+00	0	37	104	0	60	43710
2026-01-30 00:24:20.55	12.91	6.89	-45.9	-60.6	3.6	1.51e+00	0	37	104	0	60	43660
2026-01-30 00:24:21.56	12.85	6.98	-46.0	-60.7	3.6	1.51e+00	0	37	104	0	60	43745
2026-01-30 00:24:22.57	12.79	7.06	-45.9	-60.7	3.5	1.51e+00	0	37	104	0	60	43739
2026-01-30 00:24:23.58	12.73	7.15	-45.9	-60.7	3.6	1.51e+00	0	37	104	0	60	43812
2026-01-30 00:24:24.59	12.67	7.24	-46.0	-60.7	3.6	1.51e+00	0	37	104	0	60	43739
2026-01-30 00:24:25.60	12.61	7.33	-45.9	-60.7	3.6	1.51e+00	0	37	104	0	60	44064
2026-01-30 00:24:26.61	12.55	7.42	-45.9	-60.7	3.6	1.51e+00	0	37	104	0	60	44032
2026-01-30 00:24:27.62	12.49	7.51	-45.9	-60.6	3.6	1.51e+00	0	37	104	0	60	43671
2026-01-30 00:24:28.63	12.43	7.60	-45.9	-60.6	3.6	1.51e+00	0	37	104	0	60	43676
2026-01-30 00:24:29.64	12.36	7.69	-46.0	-60.6	3.6	1.51e+00	0	37	104	0	60	43652
2026-01-30 00:24:30.65	12.30	7.78	-46.0	-60.7	3.6	1.51e+00	0	37	104	0	60	44169
2026-01-30 00:24:31.66	12.24	7.87	-46.0	-60.7	3.6	1.51e+00	0	37	104	0	60	44034
2026-01-30 00:24:32.67	12.17	7.96	-46.0	-60.7	3.6	1.51e+00	0	37	104	0	60	43782
2026-01-30 00:24:33.69	12.11	8.05	-46.0	-60.7	3.6	1.51e+00	0	37	104	0	60	43805
2026-01-30 00:24:34.70	12.04	8.14	-46.0	-60.6	3.6	1.51e+00	0	37	104	0	60	43636
2026-01-30 00:24:35.71	11.98	8.23	-46.0	-60.6	3.6	1.51e+00	0	37	104	0	60	43693
2026-01-30 00:24:36.71	11.91	8.33	-45.9	-60.7	3.6	1.51e+00	0	37	104	0	60	43812
2026-01-30 00:24:37.72	11.84	8.42	-45.9	-60.7	3.6	1.51e+00	0	37	104	0	60	44026
2026-01-30 00:24:38.74	11.78	8.51	-46.0	-60.7	3.6	1.51e+00	0	37	104	0	60	43767
2026-01-30 00:24:39.75	11.71	8.61	-45.9	-60.7	3.6	1.51e+00	0	36	104	0	60	43724
2026-01-30 00:24:40.76	11.64	8.70	-46.0	-60.6	3.6	1.51e+00	0	37	104	0	60	43583
2026-01-30 00:24:41.77	11.57	8.80	-45.9	-60.7	3.6	1.51e+00	0	37	104	0	60	43966
2026-01-30 00:24:42.78	11.50	8.89	-45.9	-60.6	3.6	1.51e+00	0	37	104	0	60	43632
2026-01-30 00:24:43.79	11.43	8.99	-46.0	-60.7	3.6	1.51e+00	0	37	104	0	60	43904
2026-01-30 00:24:44.80	11.36	9.09	-46.0	-60.7	3.6	1.51e+00	0	37	104	0	60	43825
2026-01-30 00:24:45.81	11.29	9.18	-45.9	-60.6	3.6	1.51e+00	0	37	104	0	60	43534
2026-01-30 00:24:46.82	11.21	9.28	-46.0	-60.7	3.6	1.51e+00	0	37	104	0	60	43901
2026-01-30 00:24:47.83	11.14	9.38	-45.9	-60.7	3.6	1.51e+00	0	37	104	0	60	43841
2026-01-30 00:24:48.84	11.07	9.48	-46.0	-60.7	3.6	1.51e+00	0	37	104	0	60	43758
2026-01-30 00:24:49.85	10.99	9.57	-45.9	-60.7	3.6	1.51e+00	0	37	104	0	60	43778
2026-01-30 00:24:50.86	10.92	9.67	-46.0	-60.7	3.6	1.51e+00	0	37	104	0	60	43875
2026-01-30 00:24:51.87	10.84	9.77	-46.0	-60.7	3.6	1.51e+00	0	37	104	0	60	43848
2026-01-30 00:24:52.88	10.77	9.87	-45.9	-60.7	3.6	1.51e+00	0	37	104	0	60	43902
2026-01-30 00:24:53.89	10.69	9.97	-46.0	-60.7	3.6	1.51e+00	0	37	104	0	60	43787
2026-01-30 00:24:54.90	10.61	10.08	-45.9	-60.6	3.6	1.51e+00	0	37	104	0	60	43705
2026-01-30 00:24:55.91	10.53	10.18	-46.0	-60.7	3.6	1.51e+00	0	37	104	0	60	43869
2026-01-30 00:24:56.92	10.46	10.28	-45.9	-60.7	3.6	1.51e+00	0	37	104	0	60	43943
2026-01-30 00:24:57.93	10.38	10.38	-46.0	-60.7	3.6	1.51e+00	0	37	104	0	60	43822
2026-01-30 00:24:58.94	10.29	10.49	-46.0	-60.7	3.6	1.51e+00	0	37	104	0	60	43824
2026-01-30 00:24:59.95	10.21	10.59	-45.9	-60.7	3.6	1.51e+00	0	37	104	0	60	43981
2026-01-30 00:25:00.96	10.13	10.69	-46.0	-60.7	3.6	1.51e+00	0	37	104	0	60	43981
2026-01-30 00:25:01.97	10.05	10.80	-45.9	-60.7	3.6	1.51e+00	0	37	104	0	60	43826
2026-01-30 00:25:02.98	9.97	10.90	-46.0	-60.7	3.6	1.51e+00	0	37	104	0	60	43811
2026-01-30 00:25:03.99	9.88	11.01	-45.9	-60.7	3.6	1.51e+00	0	37	104	0	60	43722
2026-01-30 00:25:05.00	9.80	11.12	-45.9	-60.6	3.6	1.51e+00	0	37	104	0	60	43582
2026-01-30 00:25:06.01	9.71	11.22	-45.9	-60.7	3.6	1.51e+00	0	37	104	0	60	43819
2026-01-30 00:25:07.02	9.62	11.33	-46.0	-60.7	3.6	1.51e+00	0	37	104	0	60	43842
2026-01-30 00:25:08.03	9.54	11.44	-45.9	-60.7	3.6	1.51e+00	0	37	104	0	60	43796
2026-01-30 00:25:09.04	9.45	11.55	-46.0	-60.6	3.6	1.51e+00	0	37	104	0	60	43612
2026-01-30 00:25:10.05	9.36	11.66	-45.9	-60.7	3.6	1.51e+00	0	37	104	0	60	43779
2026-01-30 00:25:11.06	9.27	11.77	-46.0	-60.6	3.6	1.51e+00	0	37	104	0	60	43616
2026-01-30 00:25:12.07	9.18	11.88	-45.9	-60.7	3.6	1.51e+00	0	37	104	0	60	44043
2026-01-30 00:25:13.08	9.09	11.99	-45.9	-60.6	3.6	1.51e+00	0	37	104	0	60	43581
2026-01-30 00:25:14.10	8.99	12.10	-45.9	-60.7	3.6	1.51e+00	0	37	104	0	60	43770
2026-01-30 00:25:15.10	8.90	12.21	-46.0	-60.7	3.6	1.51e+00	0	37	104	0	60	43804
2026-01-30 00:25:16.12	8.80	12.33	-46.0	-60.7	3.6	1.51e+00	0	37	104	0	60	44058
2026-01-30 00:25:17.13	8.71	12.44	-46.0	-60.7	3.6	1.51e+00	0	37	104	0	60	44002
2026-01-30 00:25:18.14	8.61	12.56	-46.0	-60.7	3.6	1.51e+00	0	37	104	0	60	43904
2026-01-30 00:25:19.15	8.52	12.67	-45.9	-60.7	3.6	1.51e+00	0	37	104	0	60	44022
2026-01-30 00:25:20.16	8.42	12.79	-46.0	-60.7	3.6	1.51e+00	0	37	104	0	60	43900
2026-01-30 00:25:21.17	8.32	12.90	-46.0	-60.7	3.6	1.51e+00	0	37	104	0	60	43893
2026-01-30 00:25:22.18	8.22	13.02	-46.0	-60.7	3.6	1.51e+00	0	37	104	0	60	43756
2026-01-30 00:25:23.19	8.12	13.14	-46.0	-60.7	3.6	1.51e+00	0	37	104	0	60	43979
2026-01-30 00:25:24.20	8.02	13.26	-46.0	-60.6	3.5	1.51e+00	0	37	104	0	60	43698
2026-01-30 00:25:25.21	7.91	13.38	-46.0	-60.7	3.6	1.51e+00	0	37	104	0	60	43792
2026-01-30 00:25:26.22	7.81	13.50	-46.0	-60.7	3.6	1.51e+00	0	37	104	0	60	43846
2026-01-30 00:25:27.23	7.70	13.62	-46.0	-60.7	3.6	1.51e+00	0	37	104	0	60	43904
2026-01-30 00:25:28.24	7.60	13.74	-46.0	-60.7	3.6	1.51e+00	0	37	104	0	60	43848
2026-01-30 00:25:29.25	7.49	13.86	-46.0	-60.7	3.6	1.51e+00	0	37	104	0	60	43969
2026-01-30 00:25:30.26	7.38	13.98	-46.0	-60.7	3.6	1.51e+00	0	37	104	0	60	43821
2026-01-30 00:25:31.26	7.27	14.10	-46.0	-60.7	3.6	1.51e+00	0	37	104	0	60	44027
2026-01-30 00:25:32.27	7.16	14.23	-45.9	-60.7	3.6	1.51e+00	0	37	104	0	60	43930
2026-01-30 00:25:33.28	7.05	14.35	-46.0	-60.7	3.6	1.51e+00	0	37	104	0	60	43857
2026-01-30 00:25:34.29	6.93	14.48	-46.0	-60.7	3.6	1.51e+00	0	37	104	0	60	44122
2026-01-30 00:25:35.30	6.82	14.61	-46.0	-60.7	3.6	1.51e+00	0	37	104	0	60	43746
2026-01-30 00:25:36.31	6.70	14.73	-46.0	-60.7	3.6	1.51e+00	0	37	104	0	60	43914
2026-01-30 00:25:37.32	6.59	14.86	-46.0	-60.6	3.6	1.51e+00	0	37	104	0	60	43705
2026-01-30 00:25:38.33	6.47	14.99	-45.9	-60.7	3.6	1.51e+00	0	37	104	0	60	44023
2026-01-30 00:25:39.34	6.35	15.12	-46.0	-60.7	3.6	1.51e+00	0	37	104	0	60	43731
2026-01-30 00:25:40.35	6.23	15.25	-46.0	-60.7	3.6	1.51e+00	0	37	104	0	60	43997
2026-01-30 00:25:41.36	6.11	15.38	-46.0	-60.7	3.6	1.51e+00	0	37	104	0	60	44017
2026-01-30 00:25:42.37	5.98	15.51	-46.0	-60.7	3.6	1.51e+00	0	37	104	0	60	43964
2026-01-30 00:25:43.38	5.86	15.64	-46.0	-60.7	3.6	1.51e+00	0	37	104	0	60	43806
2026-01-30 00:25:44.39	5.73	15.78	-46.0	-60.7	3.6	1.51e+00	0	37	104	0	60	43785
2026-01-30 00:25:45.40	5.61	15.91	-46.0	-60.7	3.6	1.51e+00	0	37	104	0	60	43887
2026-01-30 00:25:46.41	5.48	16.05	-46.0	-60.7	3.6	1.51e+00	0	37	104	0	60	44027
2026-01-30 00:25:47.42	5.35	16.18	-45.9	-60.6	3.6	1.51e+00	0	37	104	0	60	43701
2026-01-30 00:25:48.43	5.22	16.32	-46.0	-60.7	3.5	1.51e+00	0	37	104	0	60	43803
2026-01-30 00:25:49.44	5.08	16.46	-46.0	-60.7	3.6	1.51e+00	0	37	104	0	60	43801
2026-01-30 00:25:50.45	4.95	16.60	-46.0	-60.7	3.6	1.51e+00	0	37	104	0	60	44069
2026-01-30 00:25:51.46	4.81	16.74	-46.0	-60.7	3.6	1.51e+00	0	37	104	0	60	44022
2026-01-30 00:25:52.47	4.68	16.88	-46.0	-60.6	3.6	1.51e+00	0	37	104	0	60	43675
2026-01-30 00:25:53.48	4.54	17.02	-46.0	-60.7	3.6	1.51e+00	0	37	104	0	60	43857
2026-01-30 00:25:54.49	4.40	17.16	-46.0	-60.7	3.6	1.51e+00	0	37	104	0	60	44014
2026-01-30 00:25:55.50	4.25	17.30	-46.0	-60.7	3.6	1.51e+00	0	37	104	0	60	43888
2026-01-30 00:25:56.52	4.11	17.45	-46.0	-60.7	3.6	1.51e+00	0	37	104	0	60	43902
2026-01-30 00:25:57.53	3.96	17.59	-46.0	-60.7	3.6	1.51e+00	0	37	104	0	60	43959
2026-01-30 00:25:58.54	3.81	17.74	-46.0	-60.7	3.6	1.51e+00	0	37	104	0	60	43797
2026-01-30 00:25:59.55	3.67	17.89	-46.0	-60.7	3.6	1.51e+00	0	37	104	0	60	43744
2026-01-30 00:26:00.55	3.52	18.03	-46.0	-60.7	3.6	1.51e+00	0	37	104	0	60	43919
2026-01-30 00:26:01.56	3.36	18.18	-46.0	-60.7	3.6	1.51e+00	0	37	104	0	60	43784
2026-01-30 00:26:02.58	3.21	18.33	-46.0	-60.7	3.6	1.51e+00	0	37	104	0	60	43790
2026-01-30 00:26:03.59	3.05	18.48	-46.0	-60.7	3.6	1.51e+00	0	37	104	0	60	43918
2026-01-30 00:26:04.60	2.89	18.63	-46.0	-60.7	3.6	1.51e+00	0	37	104	0	60	43815
2026-01-30 00:26:05.61	2.73	18.79	-46.0	-60.7	3.6	1.51e+00	0	37	104	0	60	43891
2026-01-30 00:26:06.62	2.57	18.94	-46.0	-60.7	3.6	1.51e+00	0	37	104	0	60	43885
2026-01-30 00:26:07.63	2.41	19.10	-46.0	-60.7	3.6	1.51e+00	0	37	104	0	60	43713
2026-01-30 00:26:08.64	2.24	19.25	-46.0	-60.7	3.6	1.51e+00	0	37	104	0	60	44130
2026-01-30 00:26:09.65	2.07	19.41	-46.0	-60.7	3.6	1.51e+00	0	37	104	0	60	43910
2026-01-30 00:26:10.66	1.90	19.57	-46.0	-60.7	3.6	1.51e+00	0	37	104	0	60	44090
2026-01-30 00:26:11.67	1.73	19.73	-46.0	-60.7	3.6	1.51e+00	0	37	104	0	60	43883
2026-01-30 00:26:12.68	1.56	19.88	-46.0	-60.7	3.6	1.51e+00	0	37	104	0	60	43879
2026-01-30 00:26:13.69	1.38	20.05	-46.0	-60.7	3.6	1.51e+00	0	37	104	0	60	43832
2026-01-30 00:26:14.70	1.20	20.21	-46.0	-60.7	3.6	1.51e+00	0	37	104	0	60	43804
2026-01-30 00:26:15.71	1.02	20.37	-46.0	-60.7	3.6	1.51e+00	0	37	104	0	60	43838
2026-01-30 00:26:16.72	0.84	20.54	-46.0	-60.7	3.6	1.51e+00	0	37	104	0	60	44055
2026-01-30 00:26:17.73	0.65	20.70	-46.0	-60.7	3.6	1.51e+00	0	37	104	0	60	43752
2026-01-30 00:26:18.74	0.47	20.87	-46.0	-60.7	3.6	1.51e+00	0	37	104	0	60	43749
2026-01-30 00:26:19.75	0.28	21.03	-46.0	-60.6	3.6	1.51e+00	0	37	104	0	60	43654
2026-01-30 00:26:20.76	0.08	21.20	-46.0	-60.7	3.6	1.51e+00	0	37	104	0	60	44075
2026-01-30 00:26:21.77	359.89	21.37	-45.9	-60.7	3.6	1.51e+00	0	37	104	0	60	43766
2026-01-30 00:26:22.78	359.69	21.54	-46.0	-60.7	3.6	1.51e+00	0	37	104	0	60	43798
2026-01-30 00:26:23.79	359.49	21.72	-46.0	-60.7	3.6	1.51e+00	0	37	104	0	60	44035
2026-01-30 00:26:24.80	359.29	21.89	-45.9	-60.7	3.6	1.51e+00	0	37	104	0	60	43851
2026-01-30 00:26:25.81	359.08	22.06	-46.0	-60.7	3.6	1.51e+00	0	37	104	0	60	43814
2026-01-30 00:26:26.82	358.88	22.24	-46.0	-60.7	3.6	1.51e+00	0	37	104	0	60	43771
2026-01-30 00:26:27.83	358.67	22.41	-46.0	-60.7	3.6	1.51e+00	0	37	104	0	60	43732
2026-01-30 00:26:28.84	358.45	22.59	-46.0	-60.7	3.6	1.51e+00	0	37	104	0	60	43718
2026-01-30 00:26:29.85	358.24	22.77	-46.0	-60.7	3.6	1.51e+00	0	37	104	0	60	43958
2026-01-30 00:26:30.86	358.02	22.95	-46.0	-60.7	3.6	1.51e+00	0	37	104	0	60	44051
2026-01-30 00:26:31.87	357.80	23.13	-46.0	-60.7	3.6	1.51e+00	0	37	104	0	60	43963
2026-01-30 00:26:32.88	357.57	23.31	-46.0	-60.7	3.6	1.51e+00	0	37	104	0	60	43816
2026-01-30 00:26:33.89	357.34	23.50	-46.0	-60.7	3.6	1.51e+00	0	37	104	0	60	44029
2026-01-30 00:26:34.90	357.11	23.68	-46.0	-60.7	3.6	1.51e+00	0	37	104	0	60	43982
2026-01-30 00:26:35.91	356.88	23.87	-46.0	-60.7	3.5	1.51e+00	0	37	104	0	60	43756
2026-01-30 00:26:36.92	356.64	24.05	-46.0	-60.7	3.6	1.51e+00	0	37	104	0	60	43731
2026-01-30 00:26:37.93	356.40	24.24	-46.0	-60.7	3.6	1.51e+00	0	37	104	0	60	43919
2026-01-30 00:26:38.94	356.16	24.43	-46.0	-60.7	3.6	1.51e+00	0	37	104	0	60	43867
2026-01-30 00:26:39.96	355.91	24.62	-46.0	-60.7	3.6	1.51e+00	0	37	104	0	60	43822
2026-01-30 00:26:40.97	355.66	24.82	-46.0	-60.7	3.6	1.51e+00	0	37	104	0	60	43941
2026-01-30 00:26:41.98	355.40	25.01	-46.0	-60.7	3.6	1.51e+00	0	37	104	0	60	43718
2026-01-30 00:26:42.99	355.14	25.20	-46.0	-60.7	3.6	1.51e+00	0	37	104	0	60	44075
2026-01-30 00:26:44.00	354.88	25.40	-46.0	-60.7	3.6	1.51e+00	0	37	104	0	60	43785
2026-01-30 00:26:45.01	354.62	25.59	-45.9	-60.7	3.6	1.51e+00	0	37	104	0	60	43946
2026-01-30 00:26:46.02	354.35	25.79	-46.0	-60.7	3.6	1.51e+00	0	37	104	0	60	43868
2026-01-30 00:26:47.03	354.08	25.99	-46.0	-60.7	3.6	1.51e+00	0	37	104	0	60	44214
2026-01-30 00:26:48.04	353.80	26.19	-46.0	-60.7	3.6	1.51e+00	0	37	104	0	60	43744
2026-01-30 00:26:49.05	353.52	26.39	-46.0	-60.7	3.6	1.51e+00	0	37	104	0	60	43843
2026-01-30 00:26:50.06	353.24	26.59	-46.0	-60.7	3.6	1.51e+00	0	37	104	0	60	43938
2026-01-30 00:26:51.07	352.95	26.80	-46.0	-60.7	3.6	1.51e+00	0	37	104	0	60	43878
2026-01-30 00:26:52.08	352.65	27.00	-46.0	-60.7	3.6	1.51e+00	0	37	104	0	60	43806
2026-01-30 00:26:53.09	352.36	27.21	-46.0	-60.7	3.6	1.51e+00	0	37	104	0	60	43846
2026-01-30 00:26:54.10	352.06	27.41	-46.0	-60.7	3.6	1.51e+00	0	37	104	0	60	43824
2026-01-30 00:26:55.11	351.75	27.62	-46.0	-60.7	3.6	1.51e+00	0	37	104	0	60	44025
2026-01-30 00:26:56.12	351.44	27.83	-46.0	-60.7	3.6	1.51e+00	0	37	104	0	60	43948
2026-01-30 00:26:57.13	351.13	28.04	-45.9	-60.7	3.6	1.51e+00	0	37	104	0	60	44108
2026-01-30 00:26:58.14	350.81	28.25	-46.0	-60.7	3.6	1.51e+00	0	37	104	0	60	44050
2026-01-30 00:26:59.15	350.48	28.46	-46.0	-60.7	3.6	1.51e+00	0	37	104	0	60	43954
2026-01-30 00:27:00.16	350.16	28.67	-46.0	-60.7	3.5	1.51e+00	0	37	104	0	60	43756
2026-01-30 00:27:01.17	349.82	28.89	-46.0	-60.6	3.6	1.51e+00	0	37	104	0	60	43615
2026-01-30 00:27:02.18	349.48	29.10	-46.0	-60.7	3.6	1.51e+00	0	37	104	0	60	44007
2026-01-30 00:27:03.19	349.14	29.32	-46.0	-60.7	3.6	1.51e+00	0	37	104	0	60	43870
2026-01-30 00:27:04.20	348.79	29.53	-46.0	-60.7	3.6	1.51e+00	0	37	104	0	60	43942
2026-01-30 00:27:05.21	348.44	29.75	-46.0	-60.7	3.6	1.51e+00	0	37	104	0	60	43916
2026-01-30 00:27:06.22	348.08	29.97	-46.0	-60.7	3.5	1.51e+00	0	37	104	0	60	43750
2026-01-30 00:27:07.23	347.71	30.19	-46.0	-60.7	3.5	1.51e+00	0	37	104	0	60	43891
2026-01-30 00:27:08.24	347.34	30.41	-46.0	-60.7	3.6	1.51e+00	0	37	104	0	60	43874
2026-01-30 00:27:09.25	346.97	30.63	-46.0	-60.6	3.6	1.51e+00	0	37	104	0	60	43685
2026-01-30 00:27:10.26	346.59	30.85	-46.0	-60.7	3.6	1.51e+00	0	37	104	0	60	43917
2026-01-30 00:27:11.27	346.20	31.07	-46.0	-60.7	3.6	1.51e+00	0	37	104	0	60	43946
2026-01-30 00:27:12.28	345.81	31.29	-46.0	-60.6	3.6	1.51e+00	0	37	104	0	60	43482
2026-01-30 00:27:13.29	345.41	31.52	-46.0	-60.7	3.5	1.51e+00	0	37	104	0	60	44019
2026-01-30 00:27:14.31	345.00	31.74	-46.0	-60.7	3.6	1.51e+00	0	37	104	0	60	43895
2026-01-30 00:27:15.31	344.59	31.96	-46.0	-60.7	3.6	1.51e+00	0	37	104	0	60	43952
2026-01-30 00:27:16.32	344.18	32.19	-46.0	-60.7	3.6	1.51e+00	0	37	104	0	60	43871
2026-01-30 00:27:17.34	343.75	32.42	-46.0	-60.7	3.5	1.51e+00	0	37	104	0	60	43872
2026-01-30 00:27:18.35	343.32	32.64	-46.0	-60.7	3.6	1.51e+00	0	37	104	0	60	44043
2026-01-30 00:27:19.35	342.89	32.86	-46.0	-60.7	3.6	1.51e+00	0	37	104	0	60	43858
2026-01-30 00:27:20.36	342.44	33.09	-46.0	-60.7	3.6	1.51e+00	0	37	104	0	60	43872
2026-01-30 00:27:21.37	342.00	33.31	-46.0	-60.7	3.6	1.51e+00	0	37	104	0	60	44142
2026-01-30 00:27:22.38	341.54	33.54	-46.0	-60.7	3.6	1.51e+00	0	37	104	0	60	44206
2026-01-30 00:27:23.40	341.07	33.77	-46.0	-60.7	3.6	1.51e+00	0	37	104	0	60	43823
2026-01-30 00:27:24.41	340.60	33.99	-46.0	-60.7	3.6	1.51e+00	0	37	104	0	60	43951
2026-01-30 00:27:25.42	340.12	34.22	-46.0	-60.7	3.6	1.51e+00	0	37	104	0	60	43844
2026-01-30 00:27:26.43	339.64	34.44	-46.0	-60.6	3.6	1.51e+00	0	37	104	0	60	43695
2026-01-30 00:27:27.44	339.15	34.67	-46.0	-60.7	3.6	1.51e+00	0	37	104	0	60	44077
2026-01-30 00:27:28.45	338.65	34.89	-46.0	-60.7	3.6	1.51e+00	0	37	104	0	60	43890
2026-01-30 00:27:29.46	338.14	35.12	-46.0	-60.7	3.6	1.51e+00	0	37	104	0	60	43817
2026-01-30 00:27:30.47	337.63	35.34	-46.0	-60.7	3.6	1.51e+00	0	37	104	0	60	43939
2026-01-30 00:27:31.48	337.11	35.56	-46.0	-60.7	3.6	1.51e+00	0	37	104	0	60	43919
2026-01-30 00:27:32.49	336.58	35.78	-46.0	-60.7	3.6	1.51e+00	0	37	104	0	60	43940
2026-01-30 00:27:33.50	336.04	36.01	-46.0	-60.7	3.6	1.51e+00	0	37	104	0	60	43805
2026-01-30 00:27:34.51	335.49	36.23	-46.0	-60.7	3.6	1.51e+00	0	37	104	0	60	43765
2026-01-30 00:27:35.52	334.94	36.44	-46.0	-60.7	3.5	1.51e+00	0	37	104	0	60	43940
2026-01-30 00:27:36.53	334.38	36.66	-46.0	-60.7	3.6	1.51e+00	0	37	104	0	60	44151
2026-01-30 00:27:37.54	333.81	36.88	-46.0	-60.6	3.6	1.51e+00	0	37	104	0	60	43646
2026-01-30 00:27:38.55	333.24	37.09	-46.0	-60.7	3.6	1.51e+00	0	37	104	0	60	43993
2026-01-30 00:27:39.56	332.65	37.31	-46.0	-60.6	3.6	1.51e+00	0	37	104	0	60	43662
2026-01-30 00:27:40.57	332.06	37.52	-46.0	-60.7	3.6	1.51e+00	0	37	104	0	60	43870
2026-01-30 00:27:41.58	331.46	37.73	-46.0	-60.7	3.6	1.51e+00	0	37	104	0	60	43779
2026-01-30 00:27:42.59	330.85	37.93	-46.0	-60.7	3.6	1.51e+00	0	37	104	0	60	43805
2026-01-30 00:27:43.60	330.23	38.14	-46.0	-60.7	3.6	1.51e+00	0	37	104	0	60	43916
2026-01-30 00:27:44.61	329.60	38.34	-46.0	-60.7	3.6	1.51e+00	0	37	104	0	60	43839
2026-01-30 00:27:45.62	328.97	38.54	-46.0	-60.7	3.6	1.51e+00	0	37	104	0	60	44123
2026-01-30 00:27:46.63	328.33	38.74	-46.0	-60.7	3.6	1.51e+00	0	37	104	0	60	44015
2026-01-30 00:27:47.64	327.67	38.94	-46.0	-60.7	3.6	1.51e+00	0	37	104	0	60	43983
2026-01-30 00:27:48.65	327.01	39.13	-46.0	-60.7	3.6	1.51e+00	0	37	104	0	60	44049
2026-01-30 00:27:49.66	326.35	39.32	-46.0	-60.7	3.6	1.51e+00	0	37	104	0	60	43865
2026-01-30 00:27:50.67	325.67	39.51	-46.0	-60.7	3.6	1.51e+00	0	37	104	0	60	44085
2026-01-30 00:27:51.68	324.99	39.69	-46.0	-60.7	3.6	1.51e+00	0	37	104	0	60	43848
2026-01-30 00:27:52.69	324.29	39.87	-46.0	-60.6	3.6	1.51e+00	0	37	104	0	60	43672
2026-01-30 00:27:53.70	323.59	40.05	-46.0	-60.7	3.5	1.51e+00	0	37	104	0	60	44194
2026-01-30 00:27:54.71	322.89	40.22	-46.0	-60.7	3.6	1.51e+00	0	37	104	0	60	43938
2026-01-30 00:27:55.72	322.17	40.39	-46.0	-60.7	3.6	1.51e+00	0	37	104	0	60	43924
2026-01-30 00:27:56.73	321.45	40.56	-46.0	-60.7	3.6	1.51e+00	0	37	104	0	60	43942
2026-01-30 00:27:57.74	320.71	40.72	-46.0	-60.7	3.6	1.51e+00	0	37	104	0	60	44000
2026-01-30 00:27:58.75	319.97	40.87	-46.0	-60.7	3.6	1.51e+00	0	37	104	0	60	43904
2026-01-30 00:27:59.76	319.23	41.03	-46.0	-60.7	3.6	1.51e+00	0	37	104	0	60	43924
2026-01-30 00:28:00.77	318.47	41.17	-46.0	-60.7	3.6	1.51e+00	0	37	104	0	60	43900
2026-01-30 00:28:01.78	317.71	41.32	-46.0	-60.7	3.6	1.51e+00	0	37	104	0	60	43766
2026-01-30 00:28:02.79	316.94	41.45	-46.0	-60.7	3.6	1.51e+00	0	37	104	0	60	44044
2026-01-30 00:28:03.80	316.17	41.59	-46.0	-60.7	3.6	1.51e+00	0	37	104	0	60	43753
2026-01-30 00:28:04.81	315.38	41.72	-46.0	-60.7	3.6	1.51e+00	0	37	104	0	60	44022
2026-01-30 00:28:05.82	314.60	41.84	-46.0	-60.7	3.6	1.51e+00	0	37	104	0	60	43795
2026-01-30 00:28:06.83	313.80	41.95	-46.0	-60.7	3.6	1.51e+00	0	37	104	0	60	44025
2026-01-30 00:28:07.84	313.00	42.07	-46.0	-60.7	3.6	1.51e+00	0	37	104	0	60	44091
2026-01-30 00:28:08.85	312.20	42.17	-46.0	-60.7	3.6	1.51e+00	0	37	104	0	60	44030
2026-01-30 00:28:09.86	311.38	42.27	-46.0	-60.7	3.6	1.51e+00	0	37	104	0	60	43844
2026-01-30 00:28:10.87	310.57	42.36	-46.0	-60.7	3.6	1.51e+00	0	37	104	0	60	43897
2026-01-30 00:28:11.88	309.74	42.45	-46.0	-60.7	3.6	1.51e+00	0	37	104	0	60	43847
2026-01-30 00:28:12.89	308.92	42.53	-46.0	-60.7	3.6	1.51e+00	0	37	104	0	60	44029
2026-01-30 00:28:13.90	308.09	42.61	-46.0	-60.6	3.6	1.51e+00	0	37	104	0	60	43651
2026-01-30 00:28:14.91	307.25	42.68	-46.0	-60.7	3.6	1.51e+00	0	37	104	0	60	43910
2026-01-30 00:28:15.92	306.42	42.74	-46.0	-60.7	3.6	1.51e+00	0	37	104	0	60	43721
2026-01-30 00:28:16.93	305.57	42.79	-46.0	-60.7	3.6	1.51e+00	0	37	104	0	60	43709
2026-01-30 00:28:17.94	304.73	42.84	-46.0	-60.7	3.6	1.51e+00	0	37	104	0	60	43833
2026-01-30 00:28:18.95	303.88	42.88	-46.0	-60.7	3.6	1.51e+00	0	37	104	0	60	43876
2026-01-30 00:28:19.95	303.04	42.92	-46.0	-60.7	3.5	1.51e+00	0	37	104	0	60	43983
2026-01-30 00:28:20.97	302.18	42.95	-46.0	-60.7	3.6	1.51e+00	0	37	104	0	60	44054
2026-01-30 00:28:21.98	301.33	42.97	-46.0	-60.7	3.6	1.51e+00	0	37	104	0	60	44043
2026-01-30 00:28:22.99	300.48	42.99	-46.0	-60.7	3.6	1.51e+00	0	37	104	0	60	44073
2026-01-30 00:28:24.00	299.62	42.99	-46.0	-60.7	3.6	1.51e+00	0	37	104	0	60	43756
2026-01-30 00:28:25.01	298.77	42.99	-46.0	-60.7	3.6	1.51e+00	0	37	104	0	60	44173
2026-01-30 00:28:26.02	297.92	42.99	-46.0	-60.7	3.6	1.51e+00	0	37	104	0	60	43813
2026-01-30 00:28:27.02	297.07	42.98	-46.0	-60.7	3.6	1.51e+00	0	37	104	0	60	43940
2026-01-30 00:28:28.04	296.21	42.96	-46.0	-60.7	3.6	1.51e+00	0	37	104	0	60	43975
2026-01-30 00:28:29.05	295.36	42.93	-46.0	-60.7	3.6	1.51e+00	0	37	104	0	60	43946
2026-01-30 00:28:30.05	294.52	42.90	-46.0	-60.7	3.6	1.51e+00	0	37	104	0	60	44051
2026-01-30 00:28:31.06	293.67	42.86	-46.0	-60.8	3.6	1.51e+00	0	37	104	0	60	44230
2026-01-30 00:28:32.07	292.82	42.81	-46.0	-60.7	3.6	1.51e+00	0	37	104	0	60	44007
2026-01-30 00:28:33.09	291.97	42.76	-46.0	-60.7	3.6	1.51e+00	0	37	104	0	60	43890
2026-01-30 00:28:34.09	291.14	42.70	-46.0	-60.7	3.6	1.51e+00	0	37	104	0	60	44084
2026-01-30 00:28:35.10	290.30	42.63	-46.0	-60.7	3.5	1.51e+00	0	37	104	0	60	43869
2026-01-30 00:28:36.11	289.47	42.56	-46.0	-60.7	3.6	1.51e+00	0	37	104	0	60	43795
2026-01-30 00:28:37.12	288.64	42.48	-46.0	-60.7	3.6	1.51e+00	0	37	104	0	60	43890
2026-01-30 00:28:38.13	287.82	42.39	-46.0	-60.7	3.6	1.51e+00	0	37	104	0	60	43838
2026-01-30 00:28:39.15	286.99	42.30	-46.0	-60.7	3.6	1.51e+00	0	37	104	0	60	43716
2026-01-30 00:28:40.16	286.17	42.20	-46.0	-60.7	3.6	1.51e+00	0	37	104	0	60	43913
2026-01-30 00:28:41.16	285.37	42.10	-46.0	-60.7	3.6	1.51e+00	0	37	104	0	60	44039
2026-01-30 00:28:42.18	284.56	41.99	-46.0	-60.7	3.6	1.51e+00	0	37	104	0	60	43966
2026-01-30 00:28:43.19	283.76	41.88	-46.0	-60.7	3.6	1.51e+00	0	37	104	0	60	44009
2026-01-30 00:28:44.20	282.97	41.76	-46.0	-60.7	3.6	1.51e+00	0	37	104	0	60	43906
2026-01-30 00:28:45.20	282.19	41.63	-46.0	-60.7	3.6	1.51e+00	0	37	104	0	60	43923
2026-01-30 00:28:46.22	281.40	41.50	-46.0	-60.7	3.6	1.51e+00	0	37	104	0	60	43816
2026-01-30 00:28:47.22	280.64	41.36	-46.0	-60.7	3.6	1.51e+00	0	37	104	0	60	43842
2026-01-30 00:28:48.24	279.87	41.22	-46.0	-60.7	3.6	1.51e+00	0	37	104	0	60	44069
2026-01-30 00:28:49.25	279.11	41.07	-46.0	-60.6	3.6	1.51e+00	0	37	104	0	60	43664
2026-01-30 00:28:50.26	278.36	40.92	-46.0	-60.7	3.6	1.51e+00	0	37	104	0	60	43784
2026-01-30 00:28:51.27	277.61	40.77	-46.0	-60.7	3.6	1.51e+00	0	37	104	0	60	44027
2026-01-30 00:28:52.28	276.88	40.61	-46.0	-60.7	3.6	1.51e+00	0	37	104	0	60	43841
2026-01-30 00:28:53.29	276.15	40.44	-46.0	-60.7	3.6	1.51e+00	0	37	104	0	60	43916
2026-01-30 00:28:54.30	275.43	40.27	-46.0	-60.7	3.6	1.51e+00	0	37	104	0	60	43957
2026-01-30 00:28:55.31	274.71	40.10	-46.0	-60.7	3.6	1.51e+00	0	37	104	0	60	44069
2026-01-30 00:28:56.32	274.01	39.93	-46.0	-60.6	3.6	1.51e+00	0	37	104	0	60	43658
2026-01-30 00:28:57.33	273.31	39.75	-46.0	-60.7	3.6	1.51e+00	0	37	104	0	60	44061
2026-01-30 00:28:58.34	272.62	39.56	-46.0	-60.7	3.6	1.51e+00	0	37	104	0	60	44128
2026-01-30 00:28:59.35	271.94	39.38	-46.0	-60.7	3.6	1.51e+00	0	37	104	0	60	43736
2026-01-30 00:29:00.36	271.27	39.19	-46.0	-60.7	3.6	1.51e+00	0	37	104	0	60	43859
2026-01-30 00:29:01.37	270.60	38.99	-46.0	-60.7	3.6	1.51e+00	0	37	104	0	60	43882
2026-01-30 00:29:02.38	269.95	38.80	-46.0	-60.7	3.6	1.51e+00	0	37	104	0	60	44020
2026-01-30 00:29:03.39	269.30	38.60	-46.0	-60.7	3.6	1.51e+00	0	37	104	0	60	43946
2026-01-30 00:29:04.40	268.66	38.40	-46.0	-60.7	3.6	1.51e+00	0	37	104	0	60	43826
2026-01-30 00:29:05.41	268.03	38.19	-46.0	-60.7	3.6	1.51e+00	0	37	104	0	60	44051
2026-01-30 00:29:06.42	267.40	37.99	-46.0	-60.7	3.6	1.51e+00	0	37	104	0	60	43898
2026-01-30 00:29:07.43	266.79	37.78	-46.0	-60.7	3.6	1.51e+00	0	37	104	0	60	44036
2026-01-30 00:29:08.44	266.18	37.57	-46.0	-60.7	3.6	1.51e+00	0	37	104	0	60	43966
2026-01-30 00:29:09.45	265.59	37.36	-46.0	-60.6	3.6	1.51e+00	0	37	104	0	60	43688
2026-01-30 00:29:10.46	265.00	37.14	-46.0	-60.7	3.6	1.51e+00	0	37	104	0	60	44037
2026-01-30 00:29:11.47	264.41	36.93	-46.0	-60.7	3.6	1.51e+00	0	37	104	0	60	44055
2026-01-30 00:29:12.48	263.84	36.71	-46.0	-60.7	3.6	1.51e+00	0	37	104	0	60	43894
2026-01-30 00:29:13.49	263.27	36.49	-46.0	-60.7	3.6	1.51e+00	0	37	104	0	60	44078
2026-01-30 00:29:14.50	262.72	36.27	-46.0	-60.7	3.6	1.51e+00	0	37	104	0	60	44044
2026-01-30 00:29:15.51	262.17	36.05	-46.0	-60.7	3.6	1.51e+00	0	37	104	0	60	44042
2026-01-30 00:29:16.52	261.63	35.83	-46.0	-60.7	3.6	1.51e+00	0	37	104	0	60	43828
2026-01-30 00:29:17.53	261.09	35.61	-46.0	-60.7	3.6	1.51e+00	0	37	104	0	60	43994
2026-01-30 00:29:18.54	260.57	35.38	-46.0	-60.7	3.5	1.51e+00	0	37	104	0	60	43748
2026-01-30 00:29:19.55	260.05	35.16	-46.0	-60.7	3.6	1.51e+00	0	37	104	0	60	43816
2026-01-30 00:29:20.56	259.54	34.93	-46.0	-60.7	3.6	1.51e+00	0	37	104	0	60	44034
2026-01-30 00:29:21.57	259.03	34.71	-46.0	-60.7	3.6	1.51e+00	0	37	104	0	60	43861
2026-01-30 00:29:22.58	258.54	34.48	-46.0	-60.7	3.6	1.51e+00	0	37	104	0	60	43908
2026-01-30 00:29:23.59	258.05	34.26	-46.0	-60.7	3.6	1.51e+00	0	37	104	0	60	43740
2026-01-30 00:29:24.61	257.56	34.03	-46.0	-60.7	3.6	1.51e+00	0	37	104	0	60	44022
2026-01-30 00:29:25.61	257.09	33.80	-46.0	-60.7	3.6	1.51e+00	0	37	104	0	60	43965
2026-01-30 00:29:26.62	256.62	33.58	-46.0	-60.7	3.6	1.51e+00	0	37	104	0	60	43854
2026-01-30 00:29:27.63	256.16	33.35	-46.0	-60.7	3.6	1.51e+00	0	37	104	0	60	43882
2026-01-30 00:29:28.64	255.71	33.12	-46.0	-60.7	3.6	1.51e+00	0	37	104	0	60	43988
2026-01-30 00:29:29.66	255.26	32.89	-46.0	-60.7	3.6	1.51e+00	0	37	104	0	60	44107
2026-01-30 00:29:30.67	254.82	32.67	-46.0	-60.7	3.6	1.51e+00	0	37	104	0	60	43744
2026-01-30 00:29:31.68	254.38	32.44	-46.0	-60.7	3.6	1.51e+00	0	37	104	0	60	44022
2026-01-30 00:29:32.69	253.96	32.21	-46.0	-60.7	3.6	1.51e+00	0	37	104	0	60	43976
2026-01-30 00:29:33.70	253.53	31.99	-46.0	-60.6	3.6	1.51e+00	0	37	104	0	60	43663
2026-01-30 00:29:34.70	253.12	31.76	-46.0	-60.7	3.6	1.51e+00	0	37	104	0	60	43843
2026-01-30 00:29:35.71	252.72	31.54	-46.0	-60.7	3.6	1.51e+00	0	37	104	0	60	43715
2026-01-30 00:29:36.72	252.31	31.31	-46.0	-60.7	3.6	1.51e+00	0	37	104	0	60	44149
2026-01-30 00:29:37.73	251.92	31.09	-46.0	-60.7	3.6	1.51e+00	0	37	104	0	60	44057
2026-01-30 00:29:38.74	251.53	30.87	-46.0	-60.7	3.6	1.51e+00	0	37	104	0	60	43855
2026-01-30 00:29:39.75	251.14	30.64	-46.0	-60.7	3.6	1.51e+00	0	37	104	0	60	44162
2026-01-30 00:29:40.76	250.76	30.42	-46.0	-60.7	3.6	1.51e+00	0	37	104	0	60	43972
2026-01-30 00:29:41.77	250.39	30.20	-46.0	-60.7	3.6	1.51e+00	0	37	104	0	60	44006
2026-01-30 00:29:42.78	250.02	29.98	-46.0	-60.7	3.6	1.51e+00	0	37	104	0	60	43981
2026-01-30 00:29:43.80	249.66	29.76	-46.0	-60.7	3.6	1.51e+00	0	37	104	0	60	44107
2026-01-30 00:29:44.80	249.30	29.54	-46.0	-60.7	3.6	1.51e+00	0	37	104	0	60	43743
2026-01-30 00:29:45.81	248.95	29.32	-46.0	-60.8	3.6	1.51e+00	0	37	104	0	60	44252
2026-01-30 00:29:46.82	248.60	29.11	-46.0	-60.7	3.6	1.51e+00	0	37	104	0	60	43816
2026-01-30 00:29:47.83	248.26	28.89	-46.0	-60.7	3.6	1.51e+00	0	37	104	0	60	43731
2026-01-30 00:29:48.84	247.92	28.67	-46.0	-60.7	3.6	1.51e+00	0	37	104	0	60	44105
2026-01-30 00:29:49.85	247.59	28.46	-46.0	-60.7	3.6	1.51e+00	0	37	104	0	60	44025
2026-01-30 00:29:50.86	247.27	28.25	-46.0	-60.7	3.6	1.51e+00	0	37	104	0	60	43907
2026-01-30 00:29:51.87	246.94	28.03	-46.0	-60.7	3.6	1.51e+00	0	37	104	0	60	43976
2026-01-30 00:29:52.88	246.63	27.82	-46.0	-60.7	3.6	1.51e+00	0	37	104	0	60	44003
2026-01-30 00:29:53.89	246.31	27.61	-46.0	-60.7	3.6	1.51e+00	0	37	104	0	60	44132
2026-01-30 00:29:54.90	246.01	27.40	-46.0	-60.7	3.6	1.51e+00	0	37	104	0	60	43921
2026-01-30 00:29:55.91	245.70	27.19	-46.0	-60.7	3.6	1.51e+00	0	37	104	0	60	43876
2026-01-30 00:29:56.92	245.40	26.99	-46.0	-60.7	3.6	1.51e+00	0	37	104	0	60	43817
2026-01-30 00:29:57.93	245.11	26.78	-46.0	-60.7	3.6	1.51e+00	0	37	104	0	60	44002
2026-01-30 00:29:58.94	244.82	26.58	-46.0	-60.7	3.6	1.51e+00	0	37	104	0	60	44017
2026-01-30 00:29:59.95	244.53	26.37	-46.0	-60.7	3.6	1.51e+00	0	37	104	0	60	43964
2026-01-30 00:30:00.96	244.25	26.17	-46.0	-60.7	3.6	1.51e+00	0	37	104	0	60	43938
2026-01-30 00:30:01.97	243.97	25.97	-46.0	-60.7	3.6	1.51e+00	0	37	104	0	60	43876
2026-01-30 00:30:02.98	243.69	25.77	-46.0	-60.7	3.6	1.51e+00	0	37	104	0	60	44126
2026-01-30 00:30:03.99	243.42	25.57	-46.0	-60.7	3.6	1.51e+00	0	37	104	0	60	43936
2026-01-30 00:30:05.00	243.15	25.37	-46.0	-60.7	3.6	1.51e+00	0	37	104	0	60	43980
2026-01-30 00:30:06.01	242.89	25.17	-46.0	-60.7	3.6	1.51e+00	0	37	104	0	60	44059
2026-01-30 00:30:07.02	242.63	24.98	-46.0	-60.7	3.6	1.51e+00	0	37	104	0	60	44059
2026-01-30 00:30:08.03	242.37	24.78	-46.0	-60.7	3.6	1.51e+00	0	37	104	0	60	43874
2026-01-30 00:30:09.04	242.12	24.59	-46.0	-60.7	3.6	1.51e+00	0	37	104	0	60	44051
2026-01-30 00:30:10.05	241.87	24.40	-46.0	-60.7	3.6	1.51e+00	0	37	104	0	60	43755
2026-01-30 00:30:11.06	241.62	24.21	-46.0	-60.7	3.6	1.51e+00	0	37	104	0	60	43795
2026-01-30 00:30:12.07	241.38	24.02	-46.0	-60.7	3.6	1.51e+00	0	37	104	0	60	43944
2026-01-30 00:30:13.08	241.14	23.83	-46.0	-60.7	3.6	1.51e+00	0	37	104	0	60	43941
2026-01-30 00:30:14.09	240.90	23.64	-46.0	-60.7	3.6	1.51e+00	0	37	104	0	60	44031
2026-01-30 00:30:15.10	240.67	23.46	-46.0	-60.7	3.6	1.51e+00	0	37	104	0	60	43882
2026-01-30 00:30:16.11	240.44	23.27	-46.0	-60.7	3.6	1.51e+00	0	37	104	0	60	43902
2026-01-30 00:30:17.12	240.21	23.09	-46.0	-60.7	3.6	1.51e+00	0	37	104	0	60	43846
2026-01-30 00:30:18.13	239.99	22.91	-46.0	-60.7	3.5	1.51e+00	0	37	104	0	60	44090
2026-01-30 00:30:19.15	239.77	22.72	-46.0	-60.7	3.6	1.51e+00	0	37	104	0	60	43919
2026-01-30 00:30:20.15	239.55	22.54	-46.0	-60.7	3.6	1.51e+00	0	37	104	0	60	44011
2026-01-30 00:30:21.16	239.34	22.36	-46.0	-60.7	3.6	1.51e+00	0	37	104	0	60	44022
2026-01-30 00:30:22.18	239.12	22.18	-46.0	-60.7	3.5	1.51e+00	0	37	104	0	60	43829
2026-01-30 00:30:23.18	238.91	22.01	-46.0	-60.7	3.6	1.51e+00	0	37	104	0	60	43834
2026-01-30 00:30:24.19	238.71	21.83	-46.0	-60.7	3.6	1.51e+00	0	37	104	0	60	43810
2026-01-30 00:30:25.20	238.50	21.66	-46.0	-60.7	3.6	1.51e+00	0	37	104	0	60	43956
2026-01-30 00:30:26.22	238.30	21.48	-46.0	-60.7	3.6	1.51e+00	0	37	104	0	60	43934
2026-01-30 00:30:27.23	238.10	21.31	-46.0	-60.7	3.6	1.51e+00	0	37	104	0	60	43917
2026-01-30 00:30:28.24	237.90	21.14	-46.0	-60.7	3.6	1.51e+00	0	37	104	0	60	43971
2026-01-30 00:30:29.25	237.71	20.97	-46.0	-60.7	3.6	1.51e+00	0	37	104	0	60	43993
2026-01-30 00:30:30.26	237.52	20.80	-46.0	-60.7	3.6	1.51e+00	0	37	104	0	60	43893
2026-01-30 00:30:31.27	237.33	20.63	-46.0	-60.7	3.6	1.51e+00	0	37	104	0	60	43954
2026-01-30 00:30:32.28	237.14	20.47	-46.0	-60.7	3.6	1.51e+00	0	37	104	0	60	44038
2026-01-30 00:30:33.29	236.96	20.30	-46.0	-60.7	3.6	1.51e+00	0	37	104	0	60	43849
2026-01-30 00:30:34.30	236.77	20.14	-46.0	-60.7	3.6	1.51e+00	0	37	104	0	60	43920
2026-01-30 00:30:35.31	236.59	19.98	-46.0	-60.6	3.6	1.51e+00	0	37	104	0	60	43653
2026-01-30 00:30:36.32	236.42	19.81	-46.0	-60.7	3.6	1.51e+00	0	37	104	0	60	43788
2026-01-30 00:30:37.33	236.24	19.65	-46.0	-60.7	3.6	1.51e+00	0	37	104	0	60	43947
2026-01-30 00:30:38.34	236.07	19.49	-46.0	-60.7	3.6	1.51e+00	0	37	104	0	60	43875
2026-01-30 00:30:39.35	235.89	19.33	-46.0	-60.7	3.6	1.51e+00	0	37	104	0	60	44024
2026-01-30 00:30:40.36	235.73	19.17	-46.0	-60.7	3.6	1.51e+00	0	37	104	0	60	43829
2026-01-30 00:30:41.37	235.56	19.02	-46.0	-60.7	3.6	1.51e+00	0	37	104	0	60	43979
2026-01-30 00:30:42.38	235.39	18.86	-46.0	-60.7	3.6	1.51e+00	0	37	104	0	60	43893
2026-01-30 00:30:43.39	235.23	18.71	-46.0	-60.7	3.6	1.51e+00	0	37	104	0	60	44109
2026-01-30 00:30:44.40	235.07	18.55	-46.0	-60.7	3.6	1.51e+00	0	37	104	0	60	43961
2026-01-30 00:30:45.41	234.91	18.40	-46.0	-60.6	3.5	1.51e+00	0	37	104	0	60	43680
2026-01-30 00:30:46.42	234.75	18.25	-46.0	-60.7	3.6	1.51e+00	0	37	104	0	60	44210
2026-01-30 00:30:47.43	234.59	18.10	-46.0	-60.7	3.6	1.51e+00	0	37	104	0	60	43921
2026-01-30 00:30:48.44	234.44	17.95	-46.0	-60.7	3.6	1.51e+00	0	37	104	0	60	43814
2026-01-30 00:30:49.45	234.29	17.80	-46.0	-60.7	3.6	1.51e+00	0	37	104	0	60	43763
2026-01-30 00:30:50.47	234.14	17.65	-46.0	-60.7	3.6	1.51e+00	0	37	104	0	60	44064
2026-01-30 00:30:51.48	233.99	17.50	-46.0	-60.7	3.5	1.51e+00	0	37	104	0	60	43952
2026-01-30 00:30:52.49	233.84	17.36	-46.0	-60.7	3.6	1.51e+00	0	37	104	0	60	43950
2026-01-30 00:30:53.50	233.70	17.21	-46.0	-60.7	3.6	1.51e+00	0	37	104	0	60	43911
2026-01-30 00:30:54.51	233.55	17.07	-46.0	-60.7	3.6	1.51e+00	0	37	104	0	60	43779
2026-01-30 00:30:55.52	233.41	16.92	-46.0	-60.7	3.6	1.51e+00	0	37	104	0	60	44094
2026-01-30 00:30:56.53	233.27	16.78	-46.0	-60.7	3.6	1.51e+00	0	37	104	0	60	43939
2026-01-30 00:30:57.54	233.13	16.64	-46.0	-60.7	3.6	1.51e+00	0	37	104	0	60	43789
2026-01-30 00:30:58.55	232.99	16.50	-46.0	-60.7	3.6	1.51e+00	0	37	104	0	60	44194
2026-01-30 00:30:59.56	232.86	16.36	-46.0	-60.6	3.6	1.51e+00	0	37	104	0	60	43694
2026-01-30 00:31:00.57	232.72	16.22	-46.0	-60.7	3.6	1.51e+00	0	37	104	0	60	43999
2026-01-30 00:31:01.58	232.59	16.08	-46.0	-60.7	3.6	1.51e+00	0	37	104	0	60	43932
2026-01-30 00:31:02.59	232.46	15.95	-46.0	-60.7	3.6	1.51e+00	0	37	104	0	60	43933
2026-01-30 00:31:03.60	232.33	15.81	-46.0	-60.7	3.6	1.51e+00	0	37	104	0	60	44165
2026-01-30 00:31:04.61	232.20	15.67	-46.0	-60.7	3.6	1.51e+00	0	37	104	0	60	43898
2026-01-30 00:31:05.62	232.07	15.54	-46.0	-60.7	3.6	1.51e+00	0	37	104	0	60	43876
2026-01-30 00:31:06.63	231.95	15.41	-46.0	-60.7	3.6	1.51e+00	0	37	104	0	60	44069
2026-01-30 00:31:07.64	231.82	15.27	-46.0	-60.7	3.6	1.51e+00	0	37	104	0	60	43919
2026-01-30 00:31:08.65	231.70	15.14	-46.0	-60.7	3.6	1.51e+00	0	37	104	0	60	44127
2026-01-30 00:31:09.66	231.58	15.01	-46.0	-60.7	3.6	1.51e+00	0	37	104	0	60	43900
2026-01-30 00:31:10.67	231.46	14.88	-46.0	-60.7	3.6	1.51e+00	0	37	104	0	60	43994
2026-01-30 00:31:11.68	231.34	14.75	-46.0	-60.7	3.6	1.51e+00	0	37	104	0	60	43863
2026-01-30 00:31:12.69	231.22	14.62	-46.0	-60.7	3.6	1.51e+00	0	37	104	0	60	44130
2026-01-30 00:31:13.70	231.10	14.49	-46.0	-60.7	3.6	1.51e+00	0	37	104	0	60	43876
2026-01-30 00:31:14.71	230.99	14.37	-46.0	-60.7	3.6	1.51e+00	0	37	104	0	60	43915
2026-01-30 00:31:15.72	230.87	14.24	-46.0	-60.7	3.6	1.51e+00	0	37	104	0	60	43886
2026-01-30 00:31:16.73	230.76	14.11	-46.0	-60.7	3.6	1.51e+00	0	37	104	0	60	43926
2026-01-30 00:31:17.74	230.65	13.99	-46.0	-60.7	3.6	1.51e+00	0	37	104	0	60	43944
2026-01-30 00:31:18.75	230.54	13.87	-46.0	-60.7	3.6	1.51e+00	0	37	104	0	60	43908
2026-01-30 00:31:19.76	230.43	13.74	-46.0	-60.7	3.6	1.51e+00	0	37	104	0	60	43936
2026-01-30 00:31:20.77	230.32	13.62	-46.0	-60.7	3.6	1.51e+00	0	37	104	0	60	43784
2026-01-30 00:31:21.78	230.21	13.50	-46.0	-60.7	3.6	1.51e+00	0	37	104	0	60	43918
2026-01-30 00:31:22.79	230.11	13.38	-46.0	-60.7	3.6	1.51e+00	0	37	104	0	60	43924
2026-01-30 00:31:23.80	230.00	13.26	-46.0	-60.7	3.6	1.51e+00	0	37	104	0	60	43938
2026-01-30 00:31:24.80	229.90	13.14	-46.0	-60.7	3.6	1.51e+00	0	37	104	0	60	44039
2026-01-30 00:31:25.81	229.79	13.02	-46.0	-60.7	3.6	1.51e+00	0	37	104	0	60	43999
2026-01-30 00:31:26.83	229.69	12.90	-46.0	-60.7	3.6	1.51e+00	0	37	104	0	60	43971
2026-01-30 00:31:27.84	229.59	12.78	-46.0	-60.7	3.6	1.51e+00	0	37	104	0	60	43963
2026-01-30 00:31:28.85	229.49	12.66	-46.0	-60.7	3.6	1.51e+00	0	37	104	0	60	44120
2026-01-30 00:31:29.86	229.39	12.55	-46.0	-60.7	3.6	1.51e+00	0	37	104	0	60	44003
2026-01-30 00:31:30.87	229.29	12.43	-46.0	-60.7	3.6	1.51e+00	0	37	104	0	60	43813
2026-01-30 00:31:31.87	229.20	12.32	-46.0	-60.7	3.6	1.51e+00	0	37	104	0	60	43967
2026-01-30 00:31:32.89	229.10	12.20	-46.0	-60.7	3.6	1.51e+00	0	37	104	0	60	43920
2026-01-30 00:31:33.90	229.00	12.09	-46.0	-60.7	3.6	1.51e+00	0	37	104	0	60	44001
2026-01-30 00:31:34.91	228.91	11.97	-46.0	-60.7	3.6	1.51e+00	0	37	104	0	60	44010
2026-01-30 00:31:35.92	228.81	11.86	-46.0	-60.7	3.6	1.51e+00	0	37	104	0	60	43746
2026-01-30 00:31:36.93	228.72	11.75	-46.0	-60.7	3.6	1.51e+00	0	37	104	0	60	44054
2026-01-30 00:31:37.94	228.63	11.64	-46.0	-60.7	3.6	1.51e+00	0	37	104	0	60	43888
2026-01-30 00:31:38.95	228.54	11.53	-46.0	-60.7	3.6	1.51e+00	0	37	104	0	60	43893
2026-01-30 00:31:39.96	228.45	11.42	-46.0	-60.7	3.6	1.51e+00	0	37	104	0	60	43958
2026-01-30 00:31:40.97	228.36	11.31	-46.0	-60.7	3.6	1.51e+00	0	37	104	0	60	43956
2026-01-30 00:31:41.98	228.27	11.20	-46.0	-60.7	3.6	1.51e+00	0	37	104	0	60	43887
2026-01-30 00:31:42.99	228.18	11.09	-46.0	-60.7	3.6	1.51e+00	0	37	104	0	60	43809
2026-01-30 00:31:44.00	228.10	10.98	-46.0	-60.7	3.6	1.51e+00	0	37	104	0	60	44031
2026-01-30 00:31:45.01	228.01	10.88	-46.0	-60.7	3.6	1.51e+00	0	37	104	0	60	43828
2026-01-30 00:31:46.02	227.93	10.77	-46.0	-60.7	3.6	1.51e+00	0	37	104	0	60	44010
2026-01-30 00:31:47.03	227.84	10.66	-46.0	-60.7	3.6	1.51e+00	0	37	104	0	60	43834
2026-01-30 00:31:48.04	227.76	10.56	-46.0	-60.7	3.6	1.51e+00	0	37	104	0	60	43879
2026-01-30 00:31:49.05	227.67	10.45	-46.0	-60.7	3.6	1.51e+00	0	37	104	0	60	43990
2026-01-30 00:31:50.06	227.59	10.35	-46.0	-60.7	3.6	1.51e+00	0	37	104	0	60	43771
2026-01-30 00:31:51.07	227.51	10.24	-46.0	-60.7	3.6	1.51e+00	0	37	104	0	60	44025
2026-01-30 00:31:52.08	227.43	10.14	-46.0	-60.7	3.6	1.51e+00	0	37	104	0	60	43988
2026-01-30 00:31:53.09	227.35	10.04	-46.0	-60.6	3.6	1.51e+00	0	37	104	0	60	43632
2026-01-30 00:31:54.10	227.27	9.94	-46.0	-60.7	3.6	1.51e+00	0	37	104	0	60	43993
2026-01-30 00:31:55.11	227.19	9.83	-46.0	-60.7	3.6	1.51e+00	0	37	104	0	60	44070
2026-01-30 00:31:56.12	227.11	9.73	-46.0	-60.7	3.6	1.51e+00	0	37	104	0	60	43764
2026-01-30 00:31:57.13	227.04	9.63	-46.0	-60.7	3.5	1.51e+00	0	37	104	0	60	44147
2026-01-30 00:31:58.14	226.96	9.53	-46.0	-60.7	3.6	1.51e+00	0	37	104	0	60	44042
2026-01-30 00:31:59.15	226.89	9.43	-46.0	-60.7	3.6	1.51e+00	0	37	104	0	60	44042
2026-01-30 00:32:00.16	226.81	9.33	-46.0	-60.7	3.6	1.51e+00	0	37	104	0	60	43923
2026-01-30 00:32:01.17	226.74	9.23	-46.0	-60.7	3.6	1.51e+00	0	37	104	0	60	43890
2026-01-30 00:32:02.18	226.66	9.13	-46.0	-60.6	3.6	1.51e+00	0	37	104	0	60	43690
2026-01-30 00:32:03.20	226.59	9.04	-46.0	-60.7	3.6	1.51e+00	0	37	104	0	60	43874
2026-01-30 00:32:04.21	226.52	8.94	-46.0	-60.7	3.6	1.51e+00	0	37	104	0	60	44069
2026-01-30 00:32:05.22	226.44	8.84	-46.0	-60.7	3.5	1.51e+00	0	37	104	0	60	43900
2026-01-30 00:32:06.23	226.37	8.75	-46.0	-60.7	3.6	1.51e+00	0	37	104	0	60	43825
2026-01-30 00:32:07.23	226.30	8.65	-46.0	-60.7	3.6	1.51e+00	0	37	104	0	60	43827
2026-01-30 00:32:08.25	226.23	8.55	-46.0	-60.7	3.6	1.51e+00	0	37	104	0	60	43947
2026-01-30 00:32:09.26	226.16	8.46	-46.0	-60.7	3.6	1.51e+00	0	37	104	0	60	43828
2026-01-30 00:32:10.26	226.09	8.37	-46.0	-60.7	3.6	1.51e+00	0	37	104	0	60	43803
2026-01-30 00:32:11.27	226.03	8.27	-46.0	-60.7	3.6	1.51e+00	0	37	104	0	60	43877
2026-01-30 00:32:12.28	225.96	8.18	-46.0	-60.7	3.6	1.51e+00	0	37	104	0	60	44033
2026-01-30 00:32:13.29	225.89	8.08	-46.0	-60.7	3.6	1.51e+00	0	37	104	0	60	43979
2026-01-30 00:32:14.30	225.82	7.99	-46.0	-60.7	3.6	1.51e+00	0	37	104	0	60	43722
2026-01-30 00:32:15.31	225.76	7.90	-46.0	-60.7	3.6	1.51e+00	0	37	104	0	60	43837
2026-01-30 00:32:16.32	225.69	7.81	-46.0	-60.6	3.6	1.51e+00	0	37	104	0	60	43659
2026-01-30 00:32:17.33	225.63	7.72	-46.0	-60.7	3.6	1.51e+00	0	37	104	0	60	43957
2026-01-30 00:32:18.34	225.56	7.62	-46.0	-60.7	3.6	1.51e+00	0	37	104	0	60	43845
2026-01-30 00:32:19.35	225.50	7.53	-46.0	-60.7	3.6	1.51e+00	0	37	104	0	60	43850
2026-01-30 00:32:20.36	225.44	7.44	-46.0	-60.7	3.6	1.51e+00	0	37	104	0	60	44030
2026-01-30 00:32:21.37	225.37	7.35	-46.0	-60.7	3.6	1.51e+00	0	37	104	0	60	44008
2026-01-30 00:32:22.39	225.31	7.26	-46.0	-60.7	3.6	1.51e+00	0	37	104	0	60	43878
2026-01-30 00:32:23.40	225.25	7.17	-46.0	-60.7	3.6	1.51e+00	0	37	104	0	60	44199
2026-01-30 00:32:24.40	225.19	7.09	-46.0	-60.7	3.6	1.51e+00	0	37	104	0	60	44026
2026-01-30 00:32:25.41	225.13	7.00	-46.0	-60.7	3.6	1.51e+00	0	37	104	0	60	44028
2026-01-30 00:32:26.42	225.07	6.91	-46.0	-60.7	3.6	1.51e+00	0	37	104	0	60	43947
2026-01-30 00:32:27.43	225.01	6.82	-46.0	-60.7	3.6	1.51e+00	0	37	104	0	60	43956
2026-01-30 00:32:28.44	224.95	6.73	-46.0	-60.7	3.6	1.51e+00	0	37	104	0	60	43966
2026-01-30 00:32:29.45	224.89	6.65	-46.0	-60.7	3.6	1.51e+00	0	37	104	0	60	44012
2026-01-30 00:32:30.46	224.83	6.56	-46.0	-60.7	3.6	1.51e+00	0	37	104	0	60	44083
2026-01-30 00:32:31.47	224.77	6.47	-46.0	-60.7	3.6	1.51e+00	0	37	104	0	60	44045
2026-01-30 00:32:32.48	224.71	6.39	-46.0	-60.7	3.6	1.51e+00	0	37	104	0	60	43987
2026-01-30 00:32:33.49	224.66	6.30	-46.0	-60.7	3.6	1.51e+00	0	37	104	0	60	43999
2026-01-30 00:32:34.50	224.60	6.22	-46.0	-60.8	3.6	1.51e+00	0	37	104	0	60	44253
2026-01-30 00:32:35.51	224.54	6.13	-46.0	-60.7	3.6	1.51e+00	0	37	104	0	60	44018
2026-01-30 00:32:36.52	224.49	6.05	-46.0	-60.7	3.6	1.51e+00	0	37	104	0	60	43865
2026-01-30 00:32:37.53	224.43	5.97	-46.0	-60.7	3.6	1.51e+00	0	37	104	0	60	43964
2026-01-30 00:32:38.55	224.38	5.88	-46.0	-60.7	3.6	1.51e+00	0	37	104	0	60	44080
2026-01-30 00:32:39.56	224.32	5.80	-46.0	-60.7	3.5	1.51e+00	0	37	104	0	60	43949
2026-01-30 00:32:40.57	224.27	5.71	-46.0	-60.7	3.6	1.51e+00	0	37	104	0	60	43991
2026-01-30 00:32:41.58	224.21	5.63	-46.0	-60.7	3.6	1.51e+00	0	37	104	0	60	43853
2026-01-30 00:32:42.59	224.16	5.55	-46.0	-60.6	3.6	1.51e+00	0	37	104	0	60	43702
2026-01-30 00:32:43.60	224.11	5.47	-46.0	-60.7	3.6	1.51e+00	0	37	104	0	60	43993
2026-01-30 00:32:44.61	224.05	5.39	-46.0	-60.7	3.6	1.51e+00	0	37	104	0	60	44085
2026-01-30 00:32:45.62	224.00	5.30	-46.0	-60.7	3.6	1.51e+00	0	37	104	0	60	44083
2026-01-30 00:32:46.63	223.95	5.22	-46.0	-60.7	3.6	1.51e+00	0	37	104	0	60	43842
2026-01-30 00:32:47.64	223.90	5.14	-46.0	-60.7	3.6	1.51e+00	0	37	104	0	60	44114
2026-01-30 00:32:48.65	223.85	5.06	-46.0	-60.7	3.6	1.51e+00	0	37	104	0	60	44030
2026-01-30 00:32:49.66	223.80	4.98	-46.0	-60.7	3.6	1.51e+00	0	37	104	0	60	43991
2026-01-30 00:32:50.67	223.75	4.90	-46.0	-60.7	3.6	1.51e+00	0	37	104	0	60	44035
2026-01-30 00:32:51.68	223.70	4.82	-46.0	-60.7	3.6	1.51e+00	0	37	104	0	60	43836
2026-01-30 00:32:52.69	223.65	4.74	-46.0	-60.7	3.6	1.51e+00	0	37	104	0	60	44033
2026-01-30 00:32:53.70	223.60	4.66	-46.0	-60.7	3.6	1.51e+00	0	37	104	0	60	43855
2026-01-30 00:32:54.71	223.55	4.59	-46.0	-60.7	3.6	1.51e+00	0	37	104	0	60	43977
2026-01-30 00:32:55.72	223.50	4.51	-46.0	-60.7	3.6	1.51e+00	0	37	104	0	60	43778
2026-01-30 00:32:56.73	223.45	4.43	-46.0	-60.7	3.6	1.51e+00	0	37	104	0	60	44096
2026-01-30 00:32:57.74	223.41	4.35	-46.0	-60.7	3.6	1.51e+00	0	37	104	0	60	43870
2026-01-30 00:32:58.75	223.36	4.27	-46.0	-60.7	3.6	1.51e+00	0	37	104	0	60	44073
2026-01-30 00:32:59.76	223.31	4.20	-46.0	-60.7	3.6	1.51e+00	0	37	104	0	60	44104
2026-01-30 00:33:00.77	223.26	4.12	-46.0	-60.7	3.6	1.51e+00	0	37	104	0	60	44178
2026-01-30 00:33:01.78	223.22	4.04	-46.0	-60.7	3.6	1.51e+00	0	37	104	0	60	43854
2026-01-30 00:33:02.79	223.17	3.97	-46.0	-60.7	3.6	1.51e+00	0	37	104	0	60	44111
2026-01-30 00:33:03.80	223.13	3.89	-46.0	-60.7	3.6	1.51e+00	0	37	104	0	60	43815
2026-01-30 00:33:04.81	223.08	3.82	-46.0	-60.7	3.6	1.51e+00	0	37	104	0	60	43887
2026-01-30 00:33:05.82	223.04	3.74	-46.0	-60.8	3.6	1.51e+00	0	37	104	0	60	44307
2026-01-30 00:33:06.83	222.99	3.66	-46.0	-60.7	3.6	1.51e+00	0	37	104	0	60	43874
2026-01-30 00:33:07.84	222.95	3.59	-46.0	-60.7	3.6	1.51e+00	0	37	104	0	60	44158
2026-01-30 00:33:08.85	222.90	3.51	-46.0	-60.7	3.6	1.51e+00	0	37	104	0	60	44019
2026-01-30 00:33:09.86	222.86	3.44	-46.0	-60.7	3.6	1.51e+00	0	37	104	0	60	44001
2026-01-30 00:33:10.87	222.81	3.37	-46.0	-60.7	3.6	1.51e+00	0	37	104	0	60	43865
2026-01-30 00:33:11.89	222.77	3.29	-46.0	-60.7	3.6	1.51e+00	0	37	104	0	60	43928
2026-01-30 00:33:12.90	222.73	3.22	-46.0	-60.7	3.6	1.51e+00	0	37	104	0	60	43805
2026-01-30 00:33:13.91	222.69	3.14	-46.0	-60.7	3.6	1.51e+00	0	37	104	0	60	43993
2026-01-30 00:33:14.92	222.64	3.07	-46.0	-60.7	3.6	1.51e+00	0	37	104	0	60	43978
2026-01-30 00:33:15.93	222.60	3.00	-46.0	-60.7	3.6	1.51e+00	0	37	104	0	60	43952
2026-01-30 00:33:16.94	222.56	2.93	-46.0	-60.7	3.6	1.51e+00	0	37	104	0	60	44055
2026-01-30 00:33:17.95	222.52	2.85	-46.0	-60.7	3.6	1.51e+00	0	37	104	0	60	44067
2026-01-30 00:33:18.96	222.48	2.78	-46.0	-60.7	3.6	1.51e+00	0	37	104	0	60	43896
2026-01-30 00:33:19.97	222.44	2.71	-46.0	-60.7	3.6	1.51e+00	0	37	104	0	60	43961
2026-01-30 00:33:20.98	222.39	2.64	-46.0	-60.7	3.6	1.51e+00	0	37	104	0	60	43997
2026-01-30 00:33:21.99	222.35	2.57	-46.0	-60.7	3.6	1.51e+00	0	37	104	0	60	43859
2026-01-30 00:33:23.00	222.31	2.49	-46.0	-60.7	3.6	1.51e+00	0	37	104	0	60	44077
2026-01-30 00:33:24.01	222.27	2.42	-46.0	-60.7	3.6	1.51e+00	0	37	104	0	60	44000
2026-01-30 00:33:25.02	222.24	2.35	-46.0	-60.7	3.5	1.51e+00	0	37	104	0	60	43806
2026-01-30 00:33:26.03	222.20	2.28	-46.0	-60.7	3.6	1.51e+00	0	37	104	0	60	43803
2026-01-30 00:33:27.04	222.16	2.21	-46.0	-60.7	3.6	1.51e+00	0	37	104	0	60	43859
2026-01-30 00:33:28.05	222.12	2.14	-46.0	-60.7	3.6	1.51e+00	0	37	104	0	60	44001
2026-01-30 00:33:29.06	222.08	2.07	-46.0	-60.7	3.6	1.51e+00	0	37	104	0	60	43862
2026-01-30 00:33:30.07	222.04	2.00	-46.0	-60.7	3.6	1.51e+00	0	37	104	0	60	43840
2026-01-30 00:33:31.08	222.00	1.93	-46.0	-60.7	3.6	1.51e+00	0	37	104	0	60	44123
2026-01-30 00:33:32.09	221.97	1.86	-46.0	-60.7	3.6	1.51e+00	0	37	104	0	60	43805
2026-01-30 00:33:33.10	221.93	1.79	-46.0	-60.7	3.6	1.51e+00	0	37	104	0	60	43991
2026-01-30 00:33:34.11	221.89	1.72	-46.0	-60.7	3.6	1.51e+00	0	37	104	0	60	43978
2026-01-30 00:33:35.12	221.85	1.66	-46.0	-60.6	3.6	1.51e+00	0	37	104	0	60	43689
2026-01-30 00:33:36.13	221.82	1.59	-46.0	-60.7	3.6	1.51e+00	0	37	104	0	60	44053
2026-01-30 00:33:37.14	221.78	1.52	-46.0	-60.7	3.6	1.51e+00	0	37	104	0	60	43885
2026-01-30 00:33:38.15	221.74	1.45	-46.0	-60.7	3.6	1.51e+00	0	37	104	0	60	44126
2026-01-30 00:33:39.16	221.71	1.38	-46.0	-60.7	3.6	1.51e+00	0	37	104	0	60	43994
2026-01-30 00:33:40.17	221.67	1.31	-46.0	-60.7	3.6	1.51e+00	0	37	104	0	60	44160
2026-01-30 00:33:41.18	221.64	1.25	-46.0	-60.7	3.6	1.51e+00	0	37	104	0	60	43901
2026-01-30 00:33:42.20	221.60	1.18	-46.0	-60.7	3.6	1.51e+00	0	37	104	0	60	43941
2026-01-30 00:33:43.21	221.56	1.11	-46.0	-60.7	3.6	1.51e+00	0	37	104	0	60	43894
2026-01-30 00:33:44.22	221.53	1.05	-46.0	-60.7	3.6	1.51e+00	0	37	104	0	60	44020
2026-01-30 00:33:45.23	221.50	0.98	-46.0	-60.7	3.6	1.51e+00	0	37	104	0	60	44028
2026-01-30 00:33:46.24	221.46	0.91	-46.0	-60.7	3.6	1.51e+00	0	37	104	0	60	43827
2026-01-30 00:33:47.25	221.43	0.85	-46.0	-60.7	3.6	1.51e+00	0	37	104	0	60	43905
2026-01-30 00:33:48.26	221.39	0.78	-46.0	-60.7	3.6	1.51e+00	0	37	104	0	60	44015
2026-01-30 00:33:49.27	221.36	0.71	-46.0	-60.7	3.6	1.51e+00	0	37	104	0	60	44100
2026-01-30 00:33:50.28	221.32	0.65	-46.0	-60.7	3.5	1.51e+00	0	37	104	0	60	44136
2026-01-30 00:33:51.29	221.29	0.58	-46.0	-60.7	3.6	1.51e+00	0	37	104	0	60	44055
2026-01-30 00:33:52.30	221.26	0.52	-46.0	-60.7	3.6	1.51e+00	0	37	104	0	60	43902
2026-01-30 00:33:53.31	221.22	0.45	-46.0	-60.7	3.6	1.51e+00	0	37	104	0	60	43901
2026-01-30 00:33:54.32	221.19	0.39	-46.0	-60.7	3.6	1.51e+00	0	37	104	0	60	44086
2026-01-30 00:33:55.33	221.16	0.32	-46.0	-60.7	3.6	1.51e+00	0	37	104	0	60	44048
2026-01-30 00:33:56.34	221.13	0.26	-46.0	-60.7	3.6	1.51e+00	0	37	104	0	60	44002
2026-01-30 00:33:57.35	221.09	0.19	-46.0	-60.7	3.6	1.51e+00	0	37	104	0	60	43861
2026-01-30 00:33:58.36	221.06	0.13	-46.0	-60.7	3.6	1.51e+00	0	37	104	0	60	43904
2026-01-30 00:33:59.37	221.03	0.06	-46.0	-60.7	3.6	1.51e+00	0	37	104	0	60	43956
2026-01-30 00:34:00.38	221.00	-0.00	-46.0	-60.7	3.6	1.51e+00	0	37	104	0	60	44086
2026-01-30 00:34:01.39	220.97	-0.06	-46.0	-60.7	3.6	1.51e+00	0	37	104	0	60	43971
2026-01-30 00:34:02.40	220.94	-0.13	-46.0	-60.7	3.6	1.51e+00	0	37	104	0	60	44058

#Closed at: 2026-01-30 00:34:02
#Recorded file [0 MB]: D:/lorett/data/35029_260130_122247.dat