passes_logs/2026/01/30/R4.6S_Anadyr/R4.6S_Anadyr__20260130_111402_KOSAR1-5_rec.log

#Pass ID: 20260130_111402_KOSAR1-5
#Satellite: KOSAR1-5
#Configuration: KOSAR1-5
#almurnet v.1.7.20251203
#Start time: 2026-01-30 11:14:05

#Version: 2.2.20231116
#Station: R4.6S_Anadyr
#Location: 177.4865 lon 64.73178 lat
#TLE: 1 67264U 25313S   26028.94615568  .00012050  00000+0  55467-3 0  9998
#TLE: 2 67264  97.4180 105.8864 0016576 134.5684 225.6907 15.20338860  4779

#Time	Az	El	Level	Level2	SNR	BER	BlckErr	Temp	State	Recorded	gain1	gain2
2026-01-30 11:14:05.08	210.87	0.16	-46.1	-59.7	3.3	1.54e+00	0	40	0	0	60	39079
2026-01-30 11:14:06.09	210.96	0.22	-47.2	-62.2	3.6	1.51e+00	0	40	104	0	60	52474
2026-01-30 11:14:07.10	211.05	0.27	-46.7	-61.4	3.6	1.51e+00	0	40	104	0	60	47856
2026-01-30 11:14:08.11	211.14	0.33	-46.4	-61.4	3.6	1.51e+00	0	40	104	0	60	47706
2026-01-30 11:14:09.12	211.23	0.38	-46.2	-61.4	3.6	1.51e+00	0	40	104	0	60	47535
2026-01-30 11:14:10.13	211.32	0.44	-46.5	-61.4	3.6	1.51e+00	0	40	104	0	60	47434
2026-01-30 11:14:11.14	211.41	0.50	-46.3	-61.3	3.6	1.51e+00	0	40	104	0	60	47205
2026-01-30 11:14:12.15	211.50	0.55	-46.5	-61.3	3.6	1.51e+00	0	40	104	0	60	47199
2026-01-30 11:14:13.16	211.59	0.61	-46.6	-61.3	3.6	1.51e+00	0	40	104	0	60	47106
2026-01-30 11:14:14.17	211.69	0.67	-46.6	-61.3	3.6	1.51e+00	0	40	104	0	60	46896
2026-01-30 11:14:15.18	211.78	0.72	-46.6	-61.2	3.6	1.51e+00	0	40	104	0	60	46812
2026-01-30 11:14:16.19	211.87	0.78	-46.5	-61.2	3.6	1.51e+00	0	40	104	0	60	46684
2026-01-30 11:14:17.20	211.96	0.84	-46.4	-61.1	3.6	1.51e+00	0	40	104	0	60	46153
2026-01-30 11:14:18.21	212.06	0.89	-46.7	-61.4	3.6	1.51e+00	0	40	104	0	60	47754
2026-01-30 11:14:19.22	212.15	0.95	-46.4	-61.1	3.6	1.51e+00	0	40	104	0	60	46194
2026-01-30 11:14:20.23	212.25	1.01	-46.3	-61.1	3.6	1.51e+00	0	40	104	0	60	45989
2026-01-30 11:14:21.24	212.34	1.06	-46.3	-61.0	3.6	1.51e+00	0	40	104	0	60	45632
2026-01-30 11:14:22.25	212.44	1.12	-46.2	-60.9	3.6	1.51e+00	0	40	104	0	60	45188
2026-01-30 11:14:23.26	212.53	1.18	-46.1	-60.9	3.6	1.51e+00	0	40	104	0	60	44833
2026-01-30 11:14:24.27	212.63	1.24	-46.0	-60.7	3.6	1.51e+00	0	40	104	0	60	43922
2026-01-30 11:14:25.28	212.73	1.29	-45.8	-60.6	3.6	1.51e+00	0	40	104	0	60	43276
2026-01-30 11:14:26.29	212.82	1.35	-45.6	-60.3	3.6	1.51e+00	0	40	104	0	60	42161
2026-01-30 11:14:27.30	212.92	1.41	-45.2	-59.8	3.6	1.51e+00	0	40	104	0	60	39832
2026-01-30 11:14:28.31	213.02	1.47	-44.9	-59.8	3.6	1.51e+00	0	40	104	0	60	39501
2026-01-30 11:14:29.32	213.12	1.53	-44.9	-59.7	3.6	1.51e+00	0	40	104	0	60	39279
2026-01-30 11:14:30.33	213.22	1.58	-44.9	-59.7	3.6	1.51e+00	0	41	104	0	60	39098
2026-01-30 11:14:31.34	213.32	1.64	-44.9	-59.7	3.6	1.51e+00	0	41	104	0	60	39169
2026-01-30 11:14:32.35	213.42	1.70	-44.9	-59.7	3.6	1.51e+00	0	40	104	0	60	39143
2026-01-30 11:14:33.36	213.52	1.76	-44.9	-59.7	3.6	1.51e+00	0	41	104	0	60	39290
2026-01-30 11:14:34.37	213.62	1.82	-44.9	-59.7	3.6	1.51e+00	0	41	104	0	60	39104
2026-01-30 11:14:35.38	213.72	1.88	-44.9	-59.7	3.6	1.51e+00	0	40	104	0	60	39272
2026-01-30 11:14:36.40	213.83	1.94	-44.9	-59.7	3.6	1.51e+00	0	40	104	0	60	39000
2026-01-30 11:14:37.41	213.93	1.99	-44.9	-59.7	3.6	1.51e+00	0	40	104	0	60	39199
2026-01-30 11:14:38.42	214.03	2.05	-44.9	-59.7	3.6	1.51e+00	0	40	104	0	60	39276
2026-01-30 11:14:39.43	214.14	2.11	-44.9	-59.7	3.6	1.51e+00	0	41	104	0	60	39143
2026-01-30 11:14:40.44	214.24	2.17	-44.9	-59.7	3.6	1.51e+00	0	41	104	0	60	39069
2026-01-30 11:14:41.45	214.34	2.23	-44.9	-59.7	3.6	1.51e+00	0	41	104	0	60	39221
2026-01-30 11:14:42.46	214.45	2.29	-44.9	-59.6	3.6	1.51e+00	0	41	104	0	60	38859
2026-01-30 11:14:43.46	214.55	2.35	-44.9	-59.7	3.6	1.51e+00	0	41	104	0	60	39110
2026-01-30 11:14:44.47	214.66	2.41	-44.9	-59.7	3.6	1.51e+00	0	41	104	0	60	39209
2026-01-30 11:14:45.48	214.77	2.47	-44.9	-59.7	3.6	1.51e+00	0	41	104	0	60	39075
2026-01-30 11:14:46.49	214.87	2.53	-44.9	-59.7	3.6	1.51e+00	0	41	104	0	60	39041
2026-01-30 11:14:47.51	214.98	2.59	-44.9	-59.7	3.6	1.51e+00	0	41	104	0	60	39187
2026-01-30 11:14:48.52	215.09	2.65	-44.9	-59.7	3.6	1.51e+00	0	41	104	0	60	39062
2026-01-30 11:14:49.53	215.20	2.71	-44.9	-59.7	3.6	1.51e+00	0	41	104	0	60	39048
2026-01-30 11:14:50.54	215.31	2.77	-44.9	-59.6	3.6	1.51e+00	0	41	104	0	60	38890
2026-01-30 11:14:51.55	215.42	2.83	-44.9	-59.7	3.6	1.51e+00	0	41	104	0	60	39059
2026-01-30 11:14:52.56	215.53	2.89	-44.9	-59.7	3.6	1.51e+00	0	41	104	0	60	39045
2026-01-30 11:14:53.57	215.64	2.95	-44.9	-59.7	3.6	1.51e+00	0	41	104	0	60	39180
2026-01-30 11:14:54.58	215.75	3.01	-44.9	-59.7	3.6	1.51e+00	0	41	104	0	60	39106
2026-01-30 11:14:55.59	215.87	3.07	-44.9	-59.6	3.6	1.51e+00	0	41	104	0	60	38885
2026-01-30 11:14:56.60	215.98	3.13	-44.9	-59.7	3.6	1.51e+00	0	41	104	0	60	39004
2026-01-30 11:14:57.61	216.09	3.19	-44.9	-59.7	3.6	1.51e+00	0	41	104	0	60	39057
2026-01-30 11:14:58.61	216.21	3.25	-44.9	-59.7	3.6	1.51e+00	0	41	104	0	60	38998
2026-01-30 11:14:59.62	216.32	3.31	-44.9	-59.7	3.6	1.51e+00	0	41	104	0	60	39257
2026-01-30 11:15:00.63	216.44	3.37	-45.2	-60.0	3.6	1.51e+00	0	41	104	0	60	40491
2026-01-30 11:15:01.64	216.55	3.43	-45.2	-59.9	3.6	1.51e+00	0	41	104	0	60	39992
2026-01-30 11:15:02.65	216.67	3.50	-45.0	-59.7	3.6	1.51e+00	0	41	104	0	60	39225
2026-01-30 11:15:03.66	216.79	3.56	-44.9	-59.6	3.6	1.51e+00	0	41	104	0	60	38633
2026-01-30 11:15:04.67	216.90	3.62	-45.0	-59.8	3.6	1.51e+00	0	41	104	0	60	39518
2026-01-30 11:15:05.68	217.02	3.68	-45.0	-59.7	3.6	1.51e+00	0	41	104	0	60	39399
2026-01-30 11:15:06.69	217.14	3.74	-45.0	-59.7	3.6	1.51e+00	0	41	104	0	60	39223
2026-01-30 11:15:07.69	217.26	3.80	-44.9	-59.6	3.6	1.51e+00	0	41	104	0	60	38681
2026-01-30 11:15:08.70	217.38	3.86	-44.9	-59.8	3.6	1.51e+00	0	41	104	0	60	39636
2026-01-30 11:15:09.71	217.50	3.93	-45.1	-59.9	3.6	1.51e+00	0	41	104	0	60	39920
2026-01-30 11:15:10.72	217.62	3.99	-44.7	-59.7	3.6	1.51e+00	0	41	104	0	60	39282
2026-01-30 11:15:11.73	217.74	4.05	-44.4	-59.7	3.5	1.51e+00	0	41	104	0	60	39205
2026-01-30 11:15:12.74	217.87	4.11	-45.1	-59.9	3.6	1.51e+00	0	41	104	0	60	40074
2026-01-30 11:15:13.75	217.99	4.18	-45.0	-59.9	3.6	1.51e+00	0	41	104	0	60	40032
2026-01-30 11:15:14.76	218.11	4.24	-44.9	-59.8	3.6	1.51e+00	0	41	104	0	60	39687
2026-01-30 11:15:15.76	218.24	4.30	-44.5	-59.7	3.6	1.51e+00	0	41	104	0	60	39386
2026-01-30 11:15:16.78	218.36	4.36	-45.1	-59.9	3.6	1.51e+00	0	41	104	0	60	40290
2026-01-30 11:15:17.78	218.49	4.43	-45.0	-60.0	3.6	1.51e+00	0	41	104	0	60	40376
2026-01-30 11:15:18.79	218.61	4.49	-44.8	-59.9	3.5	1.51e+00	0	41	104	0	60	39996
2026-01-30 11:15:19.80	218.74	4.55	-45.0	-59.8	3.6	1.51e+00	0	41	104	0	60	39435
2026-01-30 11:15:20.81	218.87	4.61	-45.2	-60.0	3.6	1.51e+00	0	41	104	0	60	40380
2026-01-30 11:15:21.82	219.00	4.68	-45.1	-59.9	3.6	1.51e+00	0	41	104	0	60	40301
2026-01-30 11:15:22.83	219.13	4.74	-44.9	-59.9	3.6	1.51e+00	0	41	104	0	60	39979
2026-01-30 11:15:23.84	219.26	4.80	-44.9	-59.8	3.6	1.51e+00	0	41	104	0	60	39591
2026-01-30 11:15:24.85	219.39	4.87	-45.3	-60.1	3.6	1.51e+00	0	41	104	0	60	40799
2026-01-30 11:15:25.86	219.52	4.93	-45.1	-60.0	3.5	1.51e+00	0	41	104	0	60	40354
2026-01-30 11:15:26.87	219.65	4.99	-45.0	-59.9	3.6	1.51e+00	0	41	104	0	60	39983
2026-01-30 11:15:27.88	219.79	5.06	-44.7	-59.8	3.6	1.51e+00	0	41	104	0	60	39767
2026-01-30 11:15:28.89	219.92	5.12	-45.4	-60.1	3.6	1.51e+00	0	41	104	0	60	40912
2026-01-30 11:15:29.90	220.05	5.19	-44.9	-59.9	3.6	1.51e+00	0	41	104	0	60	40181
2026-01-30 11:15:30.91	220.19	5.25	-45.0	-59.9	3.6	1.51e+00	0	41	104	0	60	40019
2026-01-30 11:15:31.92	220.32	5.31	-44.7	-59.8	3.6	1.51e+00	0	41	104	0	60	39418
2026-01-30 11:15:32.93	220.46	5.38	-45.2	-60.0	3.6	1.51e+00	0	41	104	0	60	40597
2026-01-30 11:15:33.94	220.60	5.44	-44.9	-59.9	3.6	1.51e+00	0	41	104	0	60	39863
2026-01-30 11:15:34.94	220.73	5.51	-45.0	-59.9	3.6	1.51e+00	0	41	104	0	60	39910
2026-01-30 11:15:35.95	220.87	5.57	-44.2	-59.7	3.6	1.51e+00	0	41	104	0	60	39235
2026-01-30 11:15:36.97	221.01	5.64	-45.1	-60.1	3.6	1.51e+00	0	41	104	0	60	40819
2026-01-30 11:15:37.97	221.15	5.70	-44.8	-60.0	3.6	1.51e+00	0	41	104	0	60	40513
2026-01-30 11:15:38.98	221.29	5.77	-44.8	-59.8	3.6	1.51e+00	0	41	104	0	60	39861
2026-01-30 11:15:39.99	221.44	5.83	-44.1	-59.7	3.6	1.51e+00	0	41	104	0	60	39054
2026-01-30 11:15:41.00	221.58	5.90	-44.9	-60.0	3.6	1.51e+00	0	41	104	0	60	40488
2026-01-30 11:15:42.01	221.72	5.96	-44.0	-59.9	3.6	1.51e+00	0	41	104	0	60	39965
2026-01-30 11:15:43.02	221.86	6.03	-44.8	-60.0	3.6	1.51e+00	0	41	104	0	60	40384
2026-01-30 11:15:44.03	222.01	6.09	-44.4	-59.7	3.6	1.51e+00	0	41	104	0	60	39279
2026-01-30 11:15:45.04	222.16	6.16	-44.9	-60.0	3.6	1.51e+00	0	41	104	0	60	40531
2026-01-30 11:15:46.05	222.30	6.22	-43.2	-59.9	3.6	1.51e+00	0	41	104	0	60	40213
2026-01-30 11:15:47.05	222.45	6.29	-44.1	-59.9	3.6	1.51e+00	0	41	104	0	60	39945
2026-01-30 11:15:48.06	222.60	6.35	-42.7	-59.8	3.6	1.51e+00	0	41	104	0	60	39768
2026-01-30 11:15:49.07	222.74	6.42	-43.9	-60.0	3.6	1.51e+00	0	41	104	0	60	40341
2026-01-30 11:15:50.08	222.89	6.48	-43.9	-60.0	3.6	1.51e+00	0	41	104	0	60	40542
2026-01-30 11:15:51.09	223.04	6.55	-43.2	-59.9	3.5	1.51e+00	0	41	104	0	60	40033
2026-01-30 11:15:52.10	223.20	6.62	-41.6	-59.6	3.5	1.51e+00	0	41	104	0	58	43458
2026-01-30 11:15:53.11	223.35	6.68	-43.6	-60.1	3.6	1.51e+00	0	41	104	0	60	40914
2026-01-30 11:15:54.12	223.50	6.75	-43.6	-59.9	3.6	1.51e+00	0	41	104	0	60	39987
2026-01-30 11:15:55.13	223.66	6.81	-43.7	-60.0	3.6	1.51e+00	0	41	104	0	60	40380
2026-01-30 11:15:56.14	223.81	6.88	-44.0	-59.8	3.6	1.51e+00	0	41	104	0	60	39600
2026-01-30 11:15:57.15	223.97	6.95	-43.8	-60.0	3.6	1.51e+00	0	41	104	0	60	40771
2026-01-30 11:15:58.16	224.12	7.01	-42.7	-59.9	3.6	1.51e+00	0	41	104	0	60	39933
2026-01-30 11:15:59.17	224.28	7.08	-43.6	-59.9	3.6	1.51e+00	0	41	104	0	60	40072
2026-01-30 11:16:00.18	224.44	7.15	-42.3	-59.7	3.6	1.51e+00	0	41	104	0	60	39328
2026-01-30 11:16:01.19	224.60	7.21	-44.0	-60.0	3.5	1.51e+00	0	41	104	0	60	40566
2026-01-30 11:16:02.20	224.76	7.28	-44.5	-60.0	3.6	1.51e+00	0	41	104	0	60	40564
2026-01-30 11:16:03.21	224.92	7.35	-42.6	-59.9	3.6	1.51e+00	0	41	104	0	60	39887
2026-01-30 11:16:04.22	225.08	7.41	-42.5	-59.7	3.6	1.51e+00	0	41	104	0	60	39302
2026-01-30 11:16:05.23	225.24	7.48	-44.7	-60.1	3.6	1.51e+00	0	41	104	0	60	40913
2026-01-30 11:16:06.24	225.41	7.55	-43.1	-59.9	3.6	1.51e+00	0	41	104	0	60	40066
2026-01-30 11:16:07.25	225.57	7.61	-44.6	-59.9	3.6	1.51e+00	0	41	104	0	60	40140
2026-01-30 11:16:08.26	225.74	7.68	-43.4	-59.8	3.6	1.51e+00	0	41	104	0	60	39650
2026-01-30 11:16:09.26	225.90	7.75	-44.1	-60.0	3.6	1.51e+00	0	41	104	0	60	40778
2026-01-30 11:16:10.28	226.07	7.82	-43.9	-60.0	3.6	1.51e+00	0	41	104	0	60	40393
2026-01-30 11:16:11.29	226.24	7.88	-43.0	-59.9	3.6	1.51e+00	0	41	104	0	60	40216
2026-01-30 11:16:12.29	226.41	7.95	-42.6	-59.8	3.6	1.51e+00	0	41	104	0	60	39771
2026-01-30 11:16:13.30	226.58	8.02	-44.5	-60.2	3.6	1.51e+00	0	41	104	0	60	41288
2026-01-30 11:16:14.31	226.75	8.08	-45.0	-60.0	3.6	1.51e+00	0	41	104	0	60	40503
2026-01-30 11:16:15.32	226.92	8.15	-44.1	-60.0	3.6	1.51e+00	0	41	104	0	60	40675
2026-01-30 11:16:16.33	227.09	8.22	-44.5	-59.9	3.6	1.51e+00	0	41	104	0	60	40081
2026-01-30 11:16:17.34	227.27	8.29	-44.7	-60.1	3.6	1.51e+00	0	41	104	0	60	40980
2026-01-30 11:16:18.35	227.44	8.36	-43.9	-60.1	3.6	1.51e+00	0	41	104	0	60	40799
2026-01-30 11:16:19.36	227.62	8.42	-45.0	-60.0	3.6	1.51e+00	0	41	104	0	60	40374
2026-01-30 11:16:20.38	227.80	8.49	-43.7	-59.9	3.6	1.51e+00	0	41	104	0	60	40048
2026-01-30 11:16:21.39	227.97	8.56	-44.7	-60.1	3.6	1.51e+00	0	41	104	0	60	41259
2026-01-30 11:16:22.39	228.15	8.63	-44.9	-60.0	3.6	1.51e+00	0	41	104	0	60	40648
2026-01-30 11:16:23.40	228.33	8.69	-44.0	-60.0	3.6	1.51e+00	0	41	104	0	60	40644
2026-01-30 11:16:24.41	228.51	8.76	-43.5	-59.9	3.6	1.51e+00	0	41	104	0	60	40283
2026-01-30 11:16:25.42	228.69	8.83	-44.7	-60.1	3.6	1.51e+00	0	41	104	0	60	41048
2026-01-30 11:16:26.43	228.88	8.90	-44.7	-60.1	3.6	1.51e+00	0	41	104	0	60	40874
2026-01-30 11:16:27.44	229.06	8.97	-45.2	-60.0	3.6	1.51e+00	0	41	104	0	60	40617
2026-01-30 11:16:28.45	229.25	9.03	-44.7	-60.0	3.6	1.51e+00	0	41	104	0	60	40587
2026-01-30 11:16:29.46	229.43	9.10	-45.3	-60.1	3.6	1.51e+00	0	41	104	0	60	41027
2026-01-30 11:16:30.47	229.62	9.17	-45.2	-60.0	3.6	1.51e+00	0	41	104	0	60	40588
2026-01-30 11:16:31.48	229.81	9.24	-45.1	-60.0	3.6	1.51e+00	0	41	104	0	60	40399
2026-01-30 11:16:32.49	230.00	9.31	-45.0	-60.0	3.5	1.51e+00	0	41	104	0	60	40347
2026-01-30 11:16:33.50	230.19	9.38	-45.4	-60.1	3.6	1.51e+00	0	41	104	0	60	40862
2026-01-30 11:16:34.51	230.38	9.44	-45.4	-60.0	3.6	1.51e+00	0	41	104	0	60	40446
2026-01-30 11:16:35.52	230.57	9.51	-45.1	-59.9	3.6	1.51e+00	0	41	104	0	60	40248
2026-01-30 11:16:36.52	230.76	9.58	-45.4	-59.9	3.6	1.51e+00	0	41	104	0	60	39863
2026-01-30 11:16:37.53	230.96	9.65	-45.1	-59.8	3.6	1.51e+00	0	41	104	0	60	39756
2026-01-30 11:16:38.54	231.16	9.72	-45.1	-59.9	3.6	1.51e+00	0	41	104	0	60	40011
2026-01-30 11:16:39.55	231.35	9.78	-45.3	-59.8	3.6	1.51e+00	0	41	104	0	60	39614
2026-01-30 11:16:40.56	231.55	9.85	-45.0	-59.9	3.6	1.51e+00	0	41	104	0	60	40045
2026-01-30 11:16:41.57	231.75	9.92	-45.5	-60.0	3.6	1.51e+00	0	41	104	0	60	40515
2026-01-30 11:16:42.58	231.95	9.99	-45.1	-59.7	3.6	1.51e+00	0	41	104	0	60	39163
2026-01-30 11:16:43.59	232.15	10.06	-45.1	-59.8	3.6	1.51e+00	0	41	104	0	60	39750
2026-01-30 11:16:44.59	232.35	10.12	-45.1	-60.0	3.6	1.51e+00	0	41	104	0	60	40410
2026-01-30 11:16:45.60	232.56	10.19	-45.3	-60.0	3.6	1.51e+00	0	41	104	0	60	40445
2026-01-30 11:16:46.61	232.76	10.26	-45.4	-60.1	3.6	1.51e+00	0	41	104	0	60	41025
2026-01-30 11:16:47.62	232.97	10.33	-45.4	-60.2	3.6	1.51e+00	0	41	104	0	60	41357
2026-01-30 11:16:48.63	233.17	10.40	-45.4	-60.1	3.6	1.51e+00	0	41	104	0	60	41126
2026-01-30 11:16:49.64	233.38	10.46	-45.4	-60.2	3.6	1.51e+00	0	41	104	0	60	41481
2026-01-30 11:16:50.65	233.59	10.53	-45.4	-60.1	3.6	1.51e+00	0	41	104	0	60	41073
2026-01-30 11:16:51.66	233.80	10.60	-45.3	-60.2	3.6	1.51e+00	0	41	104	0	60	41372
2026-01-30 11:16:52.67	234.01	10.67	-45.5	-60.2	3.6	1.51e+00	0	41	104	0	60	41607
2026-01-30 11:16:53.68	234.23	10.74	-45.5	-60.3	3.6	1.51e+00	0	41	104	0	60	41873
2026-01-30 11:16:54.69	234.44	10.80	-45.4	-60.2	3.6	1.51e+00	0	41	104	0	60	41594
2026-01-30 11:16:55.70	234.66	10.87	-45.3	-60.2	3.6	1.51e+00	0	41	104	0	60	41686
2026-01-30 11:16:56.71	234.87	10.94	-45.5	-60.2	3.6	1.51e+00	0	41	104	0	60	41472
2026-01-30 11:16:57.72	235.09	11.01	-45.5	-60.1	3.6	1.51e+00	0	41	104	0	60	40948
2026-01-30 11:16:58.72	235.31	11.07	-45.4	-60.2	3.6	1.51e+00	0	41	104	0	60	41315
2026-01-30 11:16:59.73	235.53	11.14	-45.4	-60.2	3.6	1.51e+00	0	41	104	0	60	41629
2026-01-30 11:17:00.74	235.75	11.21	-45.4	-60.2	3.6	1.51e+00	0	41	104	0	60	41550
2026-01-30 11:17:01.75	235.97	11.27	-45.2	-60.2	3.6	1.51e+00	0	41	104	0	60	41570
2026-01-30 11:17:02.76	236.20	11.34	-45.4	-60.1	3.6	1.51e+00	0	41	104	0	60	41175
2026-01-30 11:17:03.76	236.42	11.41	-45.2	-60.2	3.6	1.51e+00	0	41	104	0	60	41319
2026-01-30 11:17:04.77	236.64	11.48	-45.4	-60.1	3.6	1.51e+00	0	41	104	0	60	41125
2026-01-30 11:17:05.78	236.87	11.54	-45.5	-60.2	3.6	1.51e+00	0	41	104	0	60	41277
2026-01-30 11:17:06.79	237.10	11.61	-45.3	-60.1	3.6	1.51e+00	0	41	104	0	60	41110
2026-01-30 11:17:07.80	237.33	11.68	-45.4	-60.2	3.6	1.51e+00	0	41	104	0	60	41408
2026-01-30 11:17:08.81	237.56	11.74	-45.4	-60.1	3.6	1.51e+00	0	41	104	0	60	41101
2026-01-30 11:17:09.82	237.79	11.81	-45.3	-60.2	3.6	1.51e+00	0	41	104	0	60	41390
2026-01-30 11:17:10.83	238.03	11.87	-45.4	-60.2	3.6	1.51e+00	0	41	104	0	60	41444
2026-01-30 11:17:11.84	238.26	11.94	-45.4	-60.1	3.6	1.51e+00	0	41	104	0	60	41058
2026-01-30 11:17:12.85	238.50	12.01	-45.5	-60.1	3.6	1.51e+00	0	41	104	0	60	41248
2026-01-30 11:17:13.85	238.73	12.07	-45.3	-60.0	3.6	1.51e+00	0	41	104	0	60	40779
2026-01-30 11:17:14.86	238.97	12.14	-45.6	-60.2	3.6	1.51e+00	0	41	104	0	60	41684
2026-01-30 11:17:15.88	239.21	12.20	-45.6	-60.2	3.5	1.51e+00	0	41	104	0	60	41734
2026-01-30 11:17:16.89	239.46	12.27	-45.5	-60.1	3.6	1.51e+00	0	41	104	0	60	41221
2026-01-30 11:17:17.89	239.70	12.33	-45.4	-60.1	3.6	1.51e+00	0	41	104	0	60	40988
2026-01-30 11:17:18.90	239.94	12.40	-45.6	-60.3	3.6	1.51e+00	0	41	104	0	60	41956
2026-01-30 11:17:19.91	240.18	12.46	-45.7	-60.4	3.6	1.51e+00	0	41	104	0	60	42524
2026-01-30 11:17:20.92	240.43	12.53	-45.6	-60.3	3.6	1.51e+00	0	41	104	0	60	42030
2026-01-30 11:17:21.93	240.68	12.59	-45.6	-60.3	3.6	1.51e+00	0	41	104	0	60	42132
2026-01-30 11:17:22.94	240.93	12.66	-45.8	-60.5	3.6	1.51e+00	0	41	104	0	60	42774
2026-01-30 11:17:23.95	241.18	12.72	-45.8	-60.5	3.6	1.51e+00	0	41	104	0	60	42726
2026-01-30 11:17:24.96	241.43	12.78	-45.7	-60.4	3.6	1.51e+00	0	41	104	0	60	42270
2026-01-30 11:17:25.97	241.68	12.85	-45.6	-60.4	3.6	1.51e+00	0	41	104	0	60	42264
2026-01-30 11:17:26.98	241.93	12.91	-45.9	-60.6	3.6	1.51e+00	0	41	104	0	60	43391
2026-01-30 11:17:27.99	242.19	12.97	-45.8	-60.5	3.6	1.51e+00	0	41	104	0	60	42999
2026-01-30 11:17:29.00	242.45	13.04	-45.8	-60.5	3.6	1.51e+00	0	41	104	0	60	42726
2026-01-30 11:17:30.01	242.70	13.10	-45.7	-60.5	3.6	1.51e+00	0	41	104	0	60	42781
2026-01-30 11:17:31.02	242.96	13.16	-45.9	-60.6	3.6	1.51e+00	0	41	104	0	60	43437
2026-01-30 11:17:32.03	243.22	13.22	-45.9	-60.6	3.6	1.51e+00	0	41	104	0	60	43319
2026-01-30 11:17:33.04	243.49	13.28	-45.8	-60.5	3.5	1.51e+00	0	41	104	0	60	42913
2026-01-30 11:17:34.05	243.75	13.35	-45.8	-60.5	3.6	1.51e+00	0	41	104	0	60	42997
2026-01-30 11:17:35.05	244.01	13.41	-46.0	-60.6	3.6	1.51e+00	0	41	104	0	60	43442
2026-01-30 11:17:36.06	244.28	13.47	-46.0	-60.7	3.6	1.51e+00	0	41	104	0	60	43925
2026-01-30 11:17:37.07	244.54	13.53	-45.9	-60.6	3.6	1.51e+00	0	41	104	0	60	43594
2026-01-30 11:17:38.08	244.81	13.59	-45.9	-60.6	3.6	1.51e+00	0	41	104	0	60	43299
2026-01-30 11:17:39.09	245.08	13.65	-46.1	-60.7	3.6	1.51e+00	0	41	104	0	60	43952
2026-01-30 11:17:40.10	245.35	13.71	-46.0	-60.7	3.6	1.51e+00	0	41	104	0	60	43714
2026-01-30 11:17:41.11	245.62	13.77	-46.0	-60.6	3.6	1.51e+00	0	41	104	0	60	43585
2026-01-30 11:17:42.12	245.90	13.83	-45.9	-60.7	3.6	1.51e+00	0	41	104	0	60	43739
2026-01-30 11:17:43.13	246.17	13.89	-46.0	-60.7	3.6	1.51e+00	0	41	104	0	60	43932
2026-01-30 11:17:44.14	246.45	13.94	-46.0	-60.7	3.6	1.51e+00	0	41	104	0	60	43909
2026-01-30 11:17:45.15	246.72	14.00	-46.0	-60.7	3.6	1.51e+00	0	41	104	0	60	43750
2026-01-30 11:17:46.16	247.00	14.06	-45.9	-60.6	3.6	1.51e+00	0	41	104	0	60	43594
2026-01-30 11:17:47.17	247.28	14.12	-46.0	-60.7	3.6	1.51e+00	0	41	104	0	60	43831
2026-01-30 11:17:48.18	247.56	14.17	-46.0	-60.6	3.6	1.51e+00	0	41	104	0	60	43700
2026-01-30 11:17:49.19	247.84	14.23	-45.9	-60.6	3.6	1.51e+00	0	41	104	0	60	43653
2026-01-30 11:17:50.19	248.12	14.29	-45.9	-60.6	3.6	1.51e+00	0	41	104	0	60	43469
2026-01-30 11:17:51.20	248.41	14.34	-46.0	-60.7	3.6	1.51e+00	0	41	104	0	60	44096
2026-01-30 11:17:52.21	248.69	14.40	-46.0	-60.7	3.6	1.51e+00	0	41	104	0	60	43789
2026-01-30 11:17:53.22	248.98	14.45	-46.0	-60.6	3.6	1.51e+00	0	41	104	0	60	43657
2026-01-30 11:17:54.23	249.27	14.51	-46.0	-60.7	3.6	1.51e+00	0	41	104	0	60	43813
2026-01-30 11:17:55.24	249.56	14.56	-46.0	-60.7	3.6	1.51e+00	0	41	104	0	60	43927
2026-01-30 11:17:56.25	249.85	14.61	-46.0	-60.7	3.6	1.51e+00	0	41	104	0	60	44152
2026-01-30 11:17:57.26	250.14	14.67	-46.0	-60.7	3.6	1.51e+00	0	41	104	0	60	43775
2026-01-30 11:17:58.26	250.43	14.72	-46.0	-60.7	3.6	1.51e+00	0	41	104	0	60	43845
2026-01-30 11:17:59.27	250.73	14.77	-46.1	-60.7	3.6	1.51e+00	0	41	104	0	60	44160
2026-01-30 11:18:00.28	251.02	14.82	-46.0	-60.7	3.6	1.51e+00	0	41	104	0	60	44061
2026-01-30 11:18:01.29	251.32	14.87	-46.0	-60.7	3.6	1.51e+00	0	41	104	0	60	43787
2026-01-30 11:18:02.30	251.62	14.92	-46.0	-60.6	3.6	1.51e+00	0	41	104	0	60	43708
2026-01-30 11:18:03.31	251.92	14.97	-46.0	-60.7	3.6	1.51e+00	0	41	104	0	60	43860
2026-01-30 11:18:04.32	252.22	15.02	-46.0	-60.7	3.6	1.51e+00	0	41	104	0	60	43860
2026-01-30 11:18:05.33	252.52	15.07	-46.0	-60.6	3.6	1.51e+00	0	41	104	0	60	43708
2026-01-30 11:18:06.34	252.82	15.12	-46.0	-60.7	3.6	1.51e+00	0	41	104	0	60	43745
2026-01-30 11:18:07.35	253.12	15.17	-46.0	-60.7	3.6	1.51e+00	0	41	104	0	60	44171
2026-01-30 11:18:08.36	253.43	15.22	-46.1	-60.7	3.6	1.51e+00	0	41	104	0	60	44124
2026-01-30 11:18:09.37	253.73	15.26	-46.0	-60.7	3.6	1.51e+00	0	41	104	0	60	43888
2026-01-30 11:18:10.38	254.04	15.31	-46.0	-60.7	3.6	1.51e+00	0	41	104	0	60	44124
2026-01-30 11:18:11.38	254.35	15.36	-46.1	-60.7	3.6	1.51e+00	0	41	104	0	60	44131
2026-01-30 11:18:12.39	254.66	15.40	-46.0	-60.7	3.6	1.51e+00	0	41	104	0	60	43988
2026-01-30 11:18:13.40	254.97	15.45	-46.0	-60.7	3.6	1.51e+00	0	41	104	0	60	43918
2026-01-30 11:18:14.41	255.28	15.49	-46.0	-60.7	3.6	1.51e+00	0	41	104	0	60	44055
2026-01-30 11:18:15.42	255.59	15.53	-46.1	-60.8	3.6	1.51e+00	0	41	104	0	60	44226
2026-01-30 11:18:16.43	255.90	15.58	-46.1	-60.7	3.6	1.51e+00	0	41	104	0	60	44117
2026-01-30 11:18:17.44	256.22	15.62	-46.0	-60.7	3.6	1.51e+00	0	41	104	0	60	44176
2026-01-30 11:18:18.45	256.53	15.66	-46.1	-60.7	3.6	1.51e+00	0	41	104	0	60	43733
2026-01-30 11:18:19.46	256.85	15.70	-46.1	-60.8	3.6	1.51e+00	0	41	104	0	60	44328
2026-01-30 11:18:20.47	257.17	15.74	-46.1	-60.8	3.6	1.51e+00	0	41	104	0	60	44307
2026-01-30 11:18:21.48	257.49	15.78	-46.1	-60.7	3.6	1.51e+00	0	41	104	0	60	44052
2026-01-30 11:18:22.49	257.81	15.82	-46.1	-60.7	3.6	1.51e+00	0	41	104	0	60	44063
2026-01-30 11:18:23.50	258.13	15.86	-46.1	-60.7	3.6	1.51e+00	0	41	104	0	60	44109
2026-01-30 11:18:24.51	258.45	15.90	-46.1	-60.7	3.6	1.51e+00	0	41	104	0	60	44161
2026-01-30 11:18:25.52	258.77	15.93	-46.0	-60.7	3.6	1.51e+00	0	41	104	0	60	43955
2026-01-30 11:18:26.53	259.09	15.97	-46.1	-60.7	3.6	1.51e+00	0	42	104	0	60	43995
2026-01-30 11:18:27.54	259.42	16.00	-46.1	-60.8	3.6	1.51e+00	0	41	104	0	60	44474
2026-01-30 11:18:28.55	259.74	16.04	-46.1	-60.7	3.6	1.51e+00	0	41	104	0	60	44193
2026-01-30 11:18:29.56	260.07	16.07	-46.1	-60.7	3.6	1.51e+00	0	41	104	0	60	43981
2026-01-30 11:18:30.57	260.40	16.11	-46.1	-60.8	3.6	1.51e+00	0	42	104	0	60	44302
2026-01-30 11:18:31.58	260.72	16.14	-46.1	-60.8	3.6	1.51e+00	0	41	104	0	60	44321
2026-01-30 11:18:32.59	261.05	16.17	-46.1	-60.8	3.6	1.51e+00	0	41	104	0	60	44230
2026-01-30 11:18:33.60	261.38	16.20	-46.0	-60.7	3.6	1.51e+00	0	41	104	0	60	44031
2026-01-30 11:18:34.61	261.71	16.23	-46.1	-60.8	3.6	1.51e+00	0	41	104	0	60	44318
2026-01-30 11:18:35.61	262.04	16.26	-46.1	-60.8	3.6	1.51e+00	0	41	104	0	60	44353
2026-01-30 11:18:36.62	262.37	16.29	-46.1	-60.8	3.6	1.51e+00	0	41	104	0	60	44250
2026-01-30 11:18:37.63	262.70	16.32	-46.0	-60.7	3.6	1.51e+00	0	41	104	0	60	44032
2026-01-30 11:18:38.64	263.03	16.35	-46.0	-60.7	3.6	1.51e+00	0	41	104	0	60	44167
2026-01-30 11:18:39.65	263.37	16.37	-46.1	-60.7	3.5	1.51e+00	0	41	104	0	60	44154
2026-01-30 11:18:40.66	263.70	16.40	-46.1	-60.7	3.5	1.51e+00	0	41	104	0	60	44168
2026-01-30 11:18:41.67	264.04	16.42	-46.1	-60.7	3.6	1.51e+00	0	41	104	0	60	43915
2026-01-30 11:18:42.68	264.37	16.45	-46.1	-60.7	3.6	1.51e+00	0	42	104	0	60	44115
2026-01-30 11:18:43.69	264.71	16.47	-46.1	-60.7	3.6	1.51e+00	0	42	104	0	60	44028
2026-01-30 11:18:44.70	265.05	16.50	-46.1	-60.8	3.6	1.51e+00	0	41	104	0	60	44391
2026-01-30 11:18:45.71	265.38	16.52	-46.0	-60.7	3.6	1.51e+00	0	41	104	0	60	44138
2026-01-30 11:18:46.72	265.72	16.54	-46.1	-60.8	3.6	1.51e+00	0	41	104	0	60	44317
2026-01-30 11:18:47.73	266.06	16.56	-46.1	-60.8	3.6	1.51e+00	0	41	104	0	60	44284
2026-01-30 11:18:48.74	266.40	16.58	-46.1	-60.7	3.6	1.51e+00	0	41	104	0	60	44014
2026-01-30 11:18:49.75	266.74	16.60	-46.0	-60.7	3.6	1.51e+00	0	42	104	0	60	43828
2026-01-30 11:18:50.76	267.08	16.61	-46.1	-60.8	3.6	1.51e+00	0	41	104	0	60	44219
2026-01-30 11:18:51.77	267.42	16.63	-46.1	-60.8	3.6	1.51e+00	0	41	104	0	60	44363
2026-01-30 11:18:52.78	267.76	16.65	-46.1	-60.8	3.6	1.51e+00	0	41	104	0	60	44225
2026-01-30 11:18:53.79	268.10	16.66	-46.1	-60.7	3.6	1.51e+00	0	42	104	0	60	43981
2026-01-30 11:18:54.80	268.44	16.68	-46.1	-60.8	3.6	1.51e+00	0	42	104	0	60	44411
2026-01-30 11:18:55.81	268.78	16.69	-46.1	-60.8	3.6	1.51e+00	0	41	104	0	60	44468
2026-01-30 11:18:56.82	269.13	16.70	-46.1	-60.7	3.6	1.51e+00	0	41	104	0	60	44016
2026-01-30 11:18:57.83	269.47	16.71	-46.0	-60.7	3.6	1.51e+00	0	41	104	0	60	43859
2026-01-30 11:18:58.84	269.81	16.72	-46.1	-60.7	3.6	1.51e+00	0	41	104	0	60	44186
2026-01-30 11:18:59.85	270.16	16.73	-46.1	-60.8	3.6	1.51e+00	0	41	104	0	60	44244
2026-01-30 11:19:00.85	270.50	16.74	-46.1	-60.8	3.6	1.51e+00	0	41	104	0	60	44497
2026-01-30 11:19:01.86	270.84	16.75	-46.1	-60.7	3.6	1.51e+00	0	41	104	0	60	44063
2026-01-30 11:19:02.87	271.18	16.76	-46.1	-60.8	3.6	1.51e+00	0	42	104	0	60	44359
2026-01-30 11:19:03.88	271.53	16.77	-46.1	-60.7	3.6	1.51e+00	0	41	104	0	60	44128
2026-01-30 11:19:04.89	271.87	16.77	-46.1	-60.7	3.6	1.51e+00	0	41	104	0	60	44092
2026-01-30 11:19:05.90	272.22	16.78	-46.0	-60.7	3.6	1.51e+00	0	41	104	0	60	44105
2026-01-30 11:19:06.91	272.56	16.78	-46.1	-60.8	3.6	1.51e+00	0	41	104	0	60	44340
2026-01-30 11:19:07.92	272.91	16.78	-46.1	-60.8	3.6	1.51e+00	0	41	104	0	60	44348
2026-01-30 11:19:08.93	273.25	16.78	-46.1	-60.7	3.6	1.51e+00	0	41	104	0	60	44154
2026-01-30 11:19:09.94	273.59	16.79	-46.1	-60.8	3.6	1.51e+00	0	41	104	0	60	44315
2026-01-30 11:19:10.95	273.94	16.79	-46.1	-60.8	3.5	1.51e+00	0	41	104	0	60	44328
2026-01-30 11:19:11.96	274.28	16.79	-46.1	-60.8	3.6	1.51e+00	0	41	104	0	60	44259
2026-01-30 11:19:12.97	274.63	16.78	-46.1	-60.7	3.6	1.51e+00	0	41	104	0	60	43975
2026-01-30 11:19:13.98	274.97	16.78	-46.1	-60.7	3.6	1.51e+00	0	41	104	0	60	44036
2026-01-30 11:19:14.99	275.32	16.78	-46.1	-60.8	3.6	1.51e+00	0	41	104	0	60	44429
2026-01-30 11:19:16.00	275.66	16.77	-46.1	-60.8	3.6	1.51e+00	0	41	104	0	60	44346
2026-01-30 11:19:17.01	276.01	16.77	-46.1	-60.8	3.6	1.51e+00	0	41	104	0	60	44358
2026-01-30 11:19:18.02	276.35	16.76	-46.1	-60.8	3.6	1.51e+00	0	41	104	0	60	44244
2026-01-30 11:19:19.03	276.69	16.76	-46.1	-60.8	3.6	1.51e+00	0	41	104	0	60	44367
2026-01-30 11:19:20.03	277.03	16.75	-46.1	-60.8	3.6	1.51e+00	0	41	104	0	60	44638
2026-01-30 11:19:21.05	277.38	16.74	-46.1	-60.8	3.6	1.51e+00	0	41	104	0	60	44233
2026-01-30 11:19:22.06	277.73	16.73	-46.1	-60.7	3.6	1.51e+00	0	42	104	0	60	44151
2026-01-30 11:19:23.06	278.06	16.72	-46.1	-60.8	3.6	1.51e+00	0	42	104	0	60	44334
2026-01-30 11:19:24.07	278.41	16.71	-46.1	-60.8	3.6	1.51e+00	0	41	104	0	60	44257
2026-01-30 11:19:25.08	278.75	16.70	-46.1	-60.7	3.6	1.51e+00	0	41	104	0	60	44129
2026-01-30 11:19:26.09	279.09	16.69	-46.0	-60.7	3.6	1.51e+00	0	41	104	0	60	44211
2026-01-30 11:19:27.10	279.43	16.67	-46.1	-60.8	3.6	1.51e+00	0	41	104	0	60	44300
2026-01-30 11:19:28.11	279.78	16.66	-46.1	-60.7	3.6	1.51e+00	0	41	104	0	60	44210
2026-01-30 11:19:29.12	280.12	16.64	-46.1	-60.7	3.6	1.51e+00	0	41	104	0	60	44177
2026-01-30 11:19:30.13	280.46	16.63	-46.1	-60.7	3.6	1.51e+00	0	41	104	0	60	44041
2026-01-30 11:19:31.14	280.80	16.61	-46.1	-60.8	3.6	1.51e+00	0	41	104	0	60	44267
2026-01-30 11:19:32.15	281.14	16.59	-46.1	-60.8	3.6	1.51e+00	0	41	104	0	60	44459
2026-01-30 11:19:33.16	281.48	16.57	-46.1	-60.8	3.6	1.51e+00	0	41	104	0	60	44352
2026-01-30 11:19:34.17	281.82	16.55	-46.1	-60.8	3.6	1.51e+00	0	41	104	0	60	44398
2026-01-30 11:19:35.18	282.15	16.53	-46.1	-60.8	3.6	1.51e+00	0	41	104	0	60	44415
2026-01-30 11:19:36.19	282.49	16.51	-46.1	-60.8	3.6	1.51e+00	0	41	104	0	60	44492
2026-01-30 11:19:37.20	282.83	16.49	-46.1	-60.8	3.6	1.51e+00	0	41	104	0	60	44284
2026-01-30 11:19:38.20	283.16	16.47	-46.1	-60.8	3.6	1.51e+00	0	41	104	0	60	44243
2026-01-30 11:19:39.21	283.50	16.44	-46.1	-60.8	3.6	1.51e+00	0	41	104	0	60	44578
2026-01-30 11:19:40.22	283.83	16.42	-46.1	-60.8	3.6	1.51e+00	0	42	104	0	60	44480
2026-01-30 11:19:41.23	284.17	16.39	-46.1	-60.7	3.6	1.51e+00	0	42	104	0	60	44198
2026-01-30 11:19:42.24	284.50	16.37	-46.1	-60.7	3.6	1.51e+00	0	41	104	0	60	44116
2026-01-30 11:19:43.25	284.84	16.34	-46.1	-60.8	3.6	1.51e+00	0	41	104	0	60	44434
2026-01-30 11:19:44.26	285.17	16.31	-46.1	-60.8	3.6	1.51e+00	0	42	104	0	60	44721
2026-01-30 11:19:45.27	285.50	16.28	-46.1	-60.8	3.6	1.51e+00	0	42	104	0	60	44340
2026-01-30 11:19:46.28	285.83	16.26	-46.1	-60.7	3.6	1.51e+00	0	42	104	0	60	44186
2026-01-30 11:19:47.29	286.16	16.23	-46.1	-60.9	3.6	1.51e+00	0	42	104	0	60	44824
2026-01-30 11:19:48.30	286.49	16.19	-46.1	-60.8	3.6	1.51e+00	0	41	104	0	60	44321
2026-01-30 11:19:49.31	286.82	16.16	-46.1	-60.8	3.6	1.51e+00	0	42	104	0	60	44367
2026-01-30 11:19:50.31	287.15	16.13	-46.1	-60.8	3.6	1.51e+00	0	42	104	0	60	44236
2026-01-30 11:19:51.32	287.47	16.10	-46.1	-60.8	3.6	1.51e+00	0	41	104	0	60	44497
2026-01-30 11:19:52.33	287.80	16.06	-46.1	-60.8	3.6	1.51e+00	0	41	104	0	60	44346
2026-01-30 11:19:53.34	288.13	16.03	-46.1	-60.7	3.6	1.51e+00	0	41	104	0	60	44211
2026-01-30 11:19:54.35	288.45	16.00	-46.1	-60.8	3.6	1.51e+00	0	42	104	0	60	44246
2026-01-30 11:19:55.36	288.77	15.96	-46.1	-60.8	3.6	1.51e+00	0	41	104	0	60	44371
2026-01-30 11:19:56.38	289.10	15.92	-46.1	-60.8	3.6	1.51e+00	0	42	104	0	60	44376
2026-01-30 11:19:57.38	289.42	15.89	-46.1	-60.8	3.6	1.51e+00	0	41	104	0	60	44336
2026-01-30 11:19:58.39	289.74	15.85	-46.1	-60.8	3.6	1.51e+00	0	41	104	0	60	44264
2026-01-30 11:19:59.40	290.06	15.81	-46.1	-60.8	3.6	1.51e+00	0	41	104	0	60	44364
2026-01-30 11:20:00.41	290.38	15.77	-46.1	-60.8	3.6	1.51e+00	0	41	104	0	60	44573
2026-01-30 11:20:01.42	290.70	15.73	-46.1	-60.7	3.6	1.51e+00	0	41	104	0	60	44127
2026-01-30 11:20:02.43	291.02	15.69	-46.1	-60.8	3.6	1.51e+00	0	42	104	0	60	44216
2026-01-30 11:20:03.44	291.33	15.65	-46.1	-60.8	3.6	1.51e+00	0	42	104	0	60	44296
2026-01-30 11:20:04.45	291.65	15.61	-46.1	-60.8	3.6	1.51e+00	0	42	104	0	60	44308
2026-01-30 11:20:05.46	291.96	15.57	-46.1	-60.7	3.6	1.51e+00	0	41	104	0	60	44103
2026-01-30 11:20:06.46	292.27	15.52	-46.0	-60.8	3.5	1.51e+00	0	41	104	0	60	44286
2026-01-30 11:20:07.47	292.58	15.48	-46.1	-60.8	3.6	1.51e+00	0	41	104	0	60	44222
2026-01-30 11:20:08.48	292.89	15.44	-46.0	-60.8	3.6	1.51e+00	0	42	104	0	60	44503
2026-01-30 11:20:09.49	293.20	15.39	-46.1	-60.7	3.6	1.51e+00	0	41	104	0	60	44018
2026-01-30 11:20:10.50	293.51	15.35	-46.0	-60.7	3.6	1.51e+00	0	42	104	0	60	44175
2026-01-30 11:20:11.51	293.82	15.30	-46.1	-60.8	3.6	1.51e+00	0	41	104	0	60	44489
2026-01-30 11:20:12.52	294.13	15.25	-46.1	-60.7	3.5	1.51e+00	0	41	104	0	60	44200
2026-01-30 11:20:13.53	294.43	15.21	-46.1	-60.8	3.6	1.51e+00	0	42	104	0	60	44305
2026-01-30 11:20:14.54	294.74	15.16	-46.0	-60.7	3.6	1.51e+00	0	41	104	0	60	44201
2026-01-30 11:20:15.55	295.04	15.11	-46.1	-60.8	3.6	1.51e+00	0	41	104	0	60	44351
2026-01-30 11:20:16.56	295.34	15.06	-46.1	-60.8	3.6	1.51e+00	0	41	104	0	60	44403
2026-01-30 11:20:17.57	295.64	15.01	-46.0	-60.8	3.6	1.51e+00	0	41	104	0	60	44235
2026-01-30 11:20:18.58	295.94	14.96	-46.0	-60.8	3.6	1.51e+00	0	41	104	0	60	44234
2026-01-30 11:20:19.59	296.24	14.91	-46.0	-60.8	3.6	1.51e+00	0	42	104	0	60	44340
2026-01-30 11:20:20.59	296.54	14.86	-46.0	-60.8	3.6	1.51e+00	0	42	104	0	60	44446
2026-01-30 11:20:21.60	296.83	14.81	-46.0	-60.7	3.6	1.51e+00	0	41	104	0	60	44151
2026-01-30 11:20:22.61	297.13	14.76	-46.0	-60.7	3.6	1.51e+00	0	42	104	0	60	44044
2026-01-30 11:20:23.62	297.42	14.71	-46.0	-60.7	3.6	1.51e+00	0	42	104	0	60	44109
2026-01-30 11:20:24.63	297.72	14.65	-46.0	-60.8	3.6	1.51e+00	0	42	104	0	60	44320
2026-01-30 11:20:25.64	298.01	14.60	-46.0	-60.8	3.6	1.51e+00	0	41	104	0	60	44319
2026-01-30 11:20:26.65	298.30	14.55	-46.0	-60.8	3.6	1.51e+00	0	41	104	0	60	44302
2026-01-30 11:20:27.66	298.59	14.49	-46.0	-60.8	3.6	1.51e+00	0	41	104	0	60	44426
2026-01-30 11:20:28.67	298.88	14.44	-45.9	-60.8	3.6	1.51e+00	0	41	104	0	60	44388
2026-01-30 11:20:29.68	299.16	14.38	-46.0	-60.7	3.6	1.51e+00	0	41	104	0	60	44033
2026-01-30 11:20:30.69	299.45	14.33	-45.9	-60.8	3.6	1.51e+00	0	41	104	0	60	44220
2026-01-30 11:20:31.70	299.73	14.27	-45.9	-60.8	3.6	1.51e+00	0	41	104	0	60	44612
2026-01-30 11:20:32.71	300.01	14.22	-45.9	-60.8	3.6	1.51e+00	0	41	104	0	60	44348
2026-01-30 11:20:33.71	300.29	14.16	-45.9	-60.7	3.6	1.51e+00	0	41	104	0	60	44002
2026-01-30 11:20:34.72	300.57	14.10	-45.9	-60.7	3.6	1.51e+00	0	41	104	0	60	44120
2026-01-30 11:20:35.73	300.85	14.05	-45.8	-60.8	3.6	1.51e+00	0	42	104	0	60	44351
2026-01-30 11:20:36.74	301.13	13.99	-45.8	-60.8	3.6	1.51e+00	0	42	104	0	60	44225
2026-01-30 11:20:37.75	301.41	13.93	-45.9	-60.7	3.6	1.51e+00	0	42	104	0	60	44166
2026-01-30 11:20:38.76	301.68	13.87	-45.8	-60.7	3.6	1.51e+00	0	42	104	0	60	43965
2026-01-30 11:20:39.76	301.95	13.81	-45.8	-60.7	3.6	1.51e+00	0	41	104	0	60	44200
2026-01-30 11:20:40.77	302.23	13.76	-45.7	-60.7	3.6	1.51e+00	0	41	104	0	60	43935
2026-01-30 11:20:41.77	302.50	13.70	-45.9	-60.7	3.6	1.51e+00	0	41	104	0	60	44068
2026-01-30 11:20:42.79	302.77	13.64	-45.7	-60.7	3.6	1.51e+00	0	42	104	0	60	44041
2026-01-30 11:20:43.79	303.04	13.58	-45.6	-60.7	3.6	1.51e+00	0	41	104	0	60	44134
2026-01-30 11:20:44.81	303.31	13.52	-45.7	-60.7	3.6	1.51e+00	0	41	104	0	60	43965
2026-01-30 11:20:45.82	303.57	13.46	-45.7	-60.7	3.6	1.51e+00	0	41	104	0	60	44004
2026-01-30 11:20:46.83	303.84	13.39	-45.7	-60.8	3.6	1.51e+00	0	42	104	0	60	44233
2026-01-30 11:20:47.84	304.10	13.33	-45.6	-60.7	3.6	1.51e+00	0	42	104	0	60	44198
2026-01-30 11:20:48.84	304.36	13.27	-45.6	-60.7	3.6	1.51e+00	0	42	104	0	60	44008
2026-01-30 11:20:49.86	304.63	13.21	-45.7	-60.7	3.6	1.51e+00	0	42	104	0	60	43843
2026-01-30 11:20:50.86	304.88	13.15	-45.4	-60.7	3.6	1.51e+00	0	42	104	0	60	44157
2026-01-30 11:20:51.88	305.14	13.09	-45.5	-60.7	3.6	1.51e+00	0	41	104	0	60	44195
2026-01-30 11:20:52.89	305.40	13.02	-45.5	-60.7	3.6	1.51e+00	0	41	104	0	60	44168
2026-01-30 11:20:53.90	305.66	12.96	-45.5	-60.7	3.6	1.51e+00	0	42	104	0	60	43846
2026-01-30 11:20:54.91	305.91	12.90	-45.5	-60.8	3.6	1.51e+00	0	42	104	0	60	44250
2026-01-30 11:20:55.92	306.17	12.83	-45.6	-60.7	3.6	1.51e+00	0	42	104	0	60	44059
2026-01-30 11:20:56.93	306.42	12.77	-45.5	-60.7	3.6	1.51e+00	0	42	104	0	60	43971
2026-01-30 11:20:57.94	306.67	12.71	-45.6	-60.7	3.5	1.51e+00	0	42	104	0	60	43877
2026-01-30 11:20:58.95	306.92	12.64	-45.6	-60.7	3.6	1.51e+00	0	42	104	0	60	44173
2026-01-30 11:20:59.96	307.17	12.58	-45.8	-60.7	3.6	1.51e+00	0	42	104	0	60	43945
2026-01-30 11:21:00.96	307.41	12.52	-45.7	-60.7	3.6	1.51e+00	0	42	104	0	60	43811
2026-01-30 11:21:01.97	307.66	12.45	-45.7	-60.6	3.6	1.51e+00	0	42	104	0	60	43608
2026-01-30 11:21:02.98	307.90	12.39	-45.7	-60.7	3.6	1.51e+00	0	42	104	0	60	43899
2026-01-30 11:21:03.99	308.15	12.32	-45.9	-60.7	3.6	1.51e+00	0	41	104	0	60	43921
2026-01-30 11:21:05.00	308.39	12.26	-45.8	-60.7	3.6	1.51e+00	0	42	104	0	60	43979
2026-01-30 11:21:06.01	308.63	12.19	-45.8	-60.7	3.6	1.51e+00	0	42	104	0	60	43721
2026-01-30 11:21:07.02	308.87	12.13	-45.9	-60.7	3.6	1.51e+00	0	42	104	0	60	43908
2026-01-30 11:21:08.03	309.11	12.06	-45.9	-60.7	3.6	1.51e+00	0	42	104	0	60	43823
2026-01-30 11:21:09.04	309.34	11.99	-45.9	-60.7	3.6	1.51e+00	0	42	104	0	60	43803
2026-01-30 11:21:10.05	309.58	11.93	-45.9	-60.7	3.6	1.51e+00	0	42	104	0	60	43726
2026-01-30 11:21:11.06	309.82	11.86	-46.0	-60.7	3.6	1.51e+00	0	42	104	0	60	43798
2026-01-30 11:21:12.06	310.05	11.80	-46.0	-60.7	3.6	1.51e+00	0	41	104	0	60	43742
2026-01-30 11:21:13.08	310.28	11.73	-45.9	-60.6	3.6	1.51e+00	0	42	104	0	60	43504
2026-01-30 11:21:14.08	310.51	11.66	-45.8	-60.6	3.6	1.51e+00	0	41	104	0	60	43574
2026-01-30 11:21:15.09	310.74	11.60	-46.0	-60.6	3.6	1.51e+00	0	42	104	0	60	43692
2026-01-30 11:21:16.10	310.97	11.53	-45.9	-60.6	3.6	1.51e+00	0	42	104	0	60	43693
2026-01-30 11:21:17.11	311.19	11.46	-45.9	-60.5	3.6	1.51e+00	0	42	104	0	60	43191
2026-01-30 11:21:18.12	311.42	11.40	-45.9	-60.6	3.6	1.51e+00	0	42	104	0	60	43401
2026-01-30 11:21:19.13	311.65	11.33	-45.9	-60.6	3.6	1.51e+00	0	42	104	0	60	43619
2026-01-30 11:21:20.14	311.87	11.26	-45.8	-60.6	3.6	1.51e+00	0	42	104	0	60	43446
2026-01-30 11:21:21.15	312.09	11.20	-45.8	-60.6	3.6	1.51e+00	0	41	104	0	60	43485
2026-01-30 11:21:22.16	312.31	11.13	-45.8	-60.6	3.6	1.51e+00	0	42	104	0	60	43611
2026-01-30 11:21:23.17	312.53	11.06	-45.9	-60.6	3.6	1.51e+00	0	42	104	0	60	43684
2026-01-30 11:21:24.18	312.75	10.99	-45.8	-60.6	3.6	1.51e+00	0	42	104	0	60	43584
2026-01-30 11:21:25.19	312.97	10.93	-45.8	-60.6	3.6	1.51e+00	0	42	104	0	60	43410
2026-01-30 11:21:26.20	313.18	10.86	-45.8	-60.6	3.6	1.51e+00	0	42	104	0	60	43221
2026-01-30 11:21:27.21	313.40	10.79	-45.9	-60.7	3.6	1.51e+00	0	42	104	0	60	43739
2026-01-30 11:21:28.22	313.61	10.72	-45.8	-60.6	3.6	1.51e+00	0	42	104	0	60	43530
2026-01-30 11:21:29.23	313.83	10.66	-45.7	-60.7	3.6	1.51e+00	0	42	104	0	60	43727
2026-01-30 11:21:30.23	314.04	10.59	-45.7	-60.6	3.6	1.51e+00	0	42	104	0	60	43305
2026-01-30 11:21:31.25	314.25	10.52	-45.9	-60.6	3.6	1.51e+00	0	41	104	0	60	43576
2026-01-30 11:21:32.25	314.46	10.45	-45.8	-60.6	3.6	1.51e+00	0	42	104	0	60	43524
2026-01-30 11:21:33.26	314.66	10.39	-45.6	-60.6	3.6	1.51e+00	0	42	104	0	60	43238
2026-01-30 11:21:34.27	314.87	10.32	-45.7	-60.5	3.6	1.51e+00	0	42	104	0	60	43115
2026-01-30 11:21:35.28	315.08	10.25	-45.9	-60.6	3.6	1.51e+00	0	42	104	0	60	43360
2026-01-30 11:21:36.29	315.28	10.18	-45.8	-60.5	3.6	1.51e+00	0	42	104	0	60	43035
2026-01-30 11:21:37.31	315.49	10.11	-45.7	-60.6	3.6	1.51e+00	0	42	104	0	60	43229
2026-01-30 11:21:38.31	315.69	10.05	-45.7	-60.5	3.6	1.51e+00	0	42	104	0	60	42920
2026-01-30 11:21:39.32	315.89	9.98	-45.9	-60.6	3.6	1.51e+00	0	42	104	0	60	43252
2026-01-30 11:21:40.33	316.09	9.91	-45.8	-60.6	3.6	1.51e+00	0	42	104	0	60	43314
2026-01-30 11:21:41.34	316.29	9.84	-45.7	-60.5	3.6	1.51e+00	0	42	104	0	60	42848
2026-01-30 11:21:42.35	316.49	9.77	-45.8	-60.5	3.6	1.51e+00	0	41	104	0	60	42942
2026-01-30 11:21:43.36	316.68	9.71	-45.9	-60.6	3.6	1.51e+00	0	42	104	0	60	43285
2026-01-30 11:21:44.36	316.88	9.64	-45.8	-60.5	3.6	1.51e+00	0	41	104	0	60	42903
2026-01-30 11:21:45.37	317.07	9.57	-45.8	-60.5	3.6	1.51e+00	0	42	104	0	60	42961
2026-01-30 11:21:46.38	317.27	9.50	-45.8	-60.5	3.6	1.51e+00	0	42	104	0	60	42791
2026-01-30 11:21:47.39	317.46	9.43	-45.8	-60.5	3.6	1.51e+00	0	42	104	0	60	43018
2026-01-30 11:21:48.40	317.65	9.37	-45.6	-60.5	3.6	1.51e+00	0	42	104	0	60	42777
2026-01-30 11:21:49.41	317.84	9.30	-45.6	-60.5	3.6	1.51e+00	0	42	104	0	60	42790
2026-01-30 11:21:50.42	318.03	9.23	-45.6	-60.5	3.6	1.51e+00	0	42	104	0	60	42912
2026-01-30 11:21:51.43	318.22	9.16	-45.6	-60.5	3.6	1.51e+00	0	42	104	0	60	42999
2026-01-30 11:21:52.44	318.40	9.09	-45.7	-60.5	3.6	1.51e+00	0	42	104	0	60	42781
2026-01-30 11:21:53.45	318.59	9.03	-45.7	-60.5	3.6	1.51e+00	0	42	104	0	60	42794
2026-01-30 11:21:54.46	318.78	8.96	-45.7	-60.4	3.6	1.51e+00	0	42	104	0	60	42584
2026-01-30 11:21:55.47	318.96	8.89	-45.6	-60.5	3.6	1.51e+00	0	42	104	0	60	42920
2026-01-30 11:21:56.48	319.14	8.82	-45.7	-60.4	3.6	1.51e+00	0	42	104	0	60	42568
2026-01-30 11:21:57.49	319.32	8.75	-45.7	-60.4	3.6	1.51e+00	0	42	104	0	60	42600
2026-01-30 11:21:58.50	319.51	8.69	-45.7	-60.4	3.6	1.51e+00	0	42	104	0	60	42565
2026-01-30 11:21:59.51	319.69	8.62	-45.8	-60.5	3.6	1.51e+00	0	42	104	0	60	43001
2026-01-30 11:22:00.52	319.86	8.55	-45.7	-60.4	3.5	1.51e+00	0	42	104	0	60	42527
2026-01-30 11:22:01.53	320.04	8.48	-45.7	-60.4	3.6	1.51e+00	0	42	104	0	60	42317
2026-01-30 11:22:02.54	320.22	8.42	-45.7	-60.5	3.6	1.51e+00	0	42	104	0	60	42749
2026-01-30 11:22:03.55	320.40	8.35	-45.7	-60.4	3.6	1.51e+00	0	42	104	0	60	42556
2026-01-30 11:22:04.56	320.57	8.28	-45.7	-60.4	3.6	1.51e+00	0	42	104	0	60	42658
2026-01-30 11:22:05.57	320.75	8.21	-45.7	-60.4	3.6	1.51e+00	0	42	104	0	60	42439
2026-01-30 11:22:06.58	320.92	8.15	-45.7	-60.4	3.6	1.51e+00	0	42	104	0	60	42507
2026-01-30 11:22:07.59	321.09	8.08	-45.7	-60.4	3.6	1.51e+00	0	42	104	0	60	42430
2026-01-30 11:22:08.60	321.26	8.01	-45.6	-60.3	3.6	1.51e+00	0	42	104	0	60	42095
2026-01-30 11:22:09.61	321.43	7.94	-45.6	-60.3	3.6	1.51e+00	0	42	104	0	60	42176
2026-01-30 11:22:10.62	321.60	7.88	-45.6	-60.4	3.6	1.51e+00	0	42	104	0	60	42238
2026-01-30 11:22:11.63	321.77	7.81	-45.7	-60.4	3.6	1.51e+00	0	42	104	0	60	42451
2026-01-30 11:22:12.64	321.94	7.74	-45.7	-60.3	3.6	1.51e+00	0	42	104	0	60	42137
2026-01-30 11:22:13.65	322.10	7.68	-45.6	-60.3	3.6	1.51e+00	0	42	104	0	60	41795
2026-01-30 11:22:14.66	322.27	7.61	-45.6	-60.4	3.6	1.51e+00	0	42	104	0	60	42289
2026-01-30 11:22:15.67	322.43	7.54	-45.6	-60.4	3.6	1.51e+00	0	42	104	0	60	42287
2026-01-30 11:22:16.68	322.60	7.47	-45.6	-60.3	3.6	1.51e+00	0	42	104	0	60	42003
2026-01-30 11:22:17.69	322.76	7.41	-45.5	-60.3	3.6	1.51e+00	0	42	104	0	60	41845
2026-01-30 11:22:18.70	322.92	7.34	-45.5	-60.3	3.6	1.51e+00	0	42	104	0	60	41958
2026-01-30 11:22:19.71	323.08	7.27	-45.6	-60.3	3.6	1.51e+00	0	42	104	0	60	42163
2026-01-30 11:22:20.72	323.24	7.21	-45.6	-60.3	3.6	1.51e+00	0	42	104	0	60	41843
2026-01-30 11:22:21.73	323.40	7.14	-45.4	-60.2	3.6	1.51e+00	0	42	104	0	60	41586
2026-01-30 11:22:22.74	323.56	7.08	-45.5	-60.3	3.6	1.51e+00	0	42	104	0	60	41941
2026-01-30 11:22:23.75	323.72	7.01	-45.4	-60.3	3.6	1.51e+00	0	42	104	0	60	42009
2026-01-30 11:22:24.76	323.87	6.94	-45.4	-60.3	3.6	1.51e+00	0	42	104	0	60	41824
2026-01-30 11:22:25.77	324.03	6.88	-45.3	-60.2	3.5	1.51e+00	0	42	104	0	60	41562
2026-01-30 11:22:26.78	324.18	6.81	-45.5	-60.3	3.6	1.51e+00	0	42	104	0	60	41859
2026-01-30 11:22:27.79	324.34	6.74	-45.5	-60.2	3.6	1.51e+00	0	42	104	0	60	41692
2026-01-30 11:22:28.80	324.49	6.68	-45.3	-60.2	3.6	1.51e+00	0	42	104	0	60	41592
2026-01-30 11:22:29.81	324.64	6.61	-45.5	-60.1	3.6	1.51e+00	0	42	104	0	60	41202
2026-01-30 11:22:30.82	324.80	6.55	-45.6	-60.2	3.5	1.51e+00	0	42	104	0	60	41677
2026-01-30 11:22:31.83	324.95	6.48	-45.5	-60.2	3.6	1.51e+00	0	42	104	0	60	41350
2026-01-30 11:22:32.84	325.10	6.42	-45.5	-60.2	3.6	1.51e+00	0	42	104	0	60	41307
2026-01-30 11:22:33.85	325.25	6.35	-45.4	-60.1	3.6	1.51e+00	0	42	104	0	60	41262
2026-01-30 11:22:34.86	325.39	6.28	-45.5	-60.2	3.6	1.51e+00	0	42	104	0	60	41441
2026-01-30 11:22:35.87	325.54	6.22	-45.3	-60.1	3.6	1.51e+00	0	42	104	0	60	41148
2026-01-30 11:22:36.88	325.69	6.15	-45.4	-60.2	3.6	1.51e+00	0	42	104	0	60	41300
2026-01-30 11:22:37.89	325.83	6.09	-45.2	-60.1	3.6	1.51e+00	0	42	104	0	60	40813
2026-01-30 11:22:38.90	325.98	6.02	-45.2	-60.2	3.6	1.51e+00	0	42	104	0	60	41522
2026-01-30 11:22:39.91	326.12	5.96	-45.3	-60.1	3.6	1.51e+00	0	42	104	0	60	41111
2026-01-30 11:22:40.92	326.27	5.89	-45.2	-60.1	3.6	1.51e+00	0	42	104	0	60	41140
2026-01-30 11:22:41.93	326.41	5.83	-45.1	-60.1	3.6	1.51e+00	0	42	104	0	60	40913
2026-01-30 11:22:42.94	326.55	5.76	-45.1	-60.2	3.6	1.51e+00	0	42	104	0	60	41329
2026-01-30 11:22:43.95	326.69	5.70	-45.4	-60.1	3.6	1.51e+00	0	42	104	0	60	41133
2026-01-30 11:22:44.96	326.83	5.63	-45.2	-60.1	3.6	1.51e+00	0	42	104	0	60	40873
2026-01-30 11:22:45.97	326.97	5.57	-45.3	-60.0	3.6	1.51e+00	0	42	104	0	60	40696
2026-01-30 11:22:46.98	327.11	5.51	-45.4	-60.2	3.6	1.51e+00	0	42	104	0	60	41340
2026-01-30 11:22:47.98	327.25	5.44	-45.4	-60.0	3.6	1.51e+00	0	41	104	0	60	40673
2026-01-30 11:22:49.00	327.39	5.38	-45.4	-60.1	3.6	1.51e+00	0	42	104	0	60	41013
2026-01-30 11:22:50.00	327.52	5.31	-45.2	-60.0	3.6	1.51e+00	0	42	104	0	60	40385
2026-01-30 11:22:51.01	327.66	5.25	-45.4	-60.1	3.6	1.51e+00	0	42	104	0	60	41138
2026-01-30 11:22:52.02	327.79	5.19	-45.2	-60.0	3.6	1.51e+00	0	41	104	0	60	40621
2026-01-30 11:22:53.03	327.93	5.12	-45.3	-60.1	3.6	1.51e+00	0	42	104	0	60	40929
2026-01-30 11:22:54.04	328.06	5.06	-45.2	-59.9	3.6	1.51e+00	0	42	104	0	60	40097
2026-01-30 11:22:55.05	328.19	4.99	-45.3	-60.1	3.6	1.51e+00	0	42	104	0	60	41120
2026-01-30 11:22:56.06	328.33	4.93	-45.3	-60.0	3.6	1.51e+00	0	42	104	0	60	40530
2026-01-30 11:22:57.07	328.46	4.87	-45.2	-60.0	3.6	1.51e+00	0	42	104	0	60	40508
2026-01-30 11:22:58.08	328.59	4.80	-45.1	-59.9	3.6	1.51e+00	0	42	104	0	60	39908
2026-01-30 11:22:59.09	328.72	4.74	-45.4	-60.0	3.6	1.51e+00	0	42	104	0	60	40748
2026-01-30 11:23:00.10	328.85	4.68	-45.2	-59.9	3.6	1.51e+00	0	42	104	0	60	40073
2026-01-30 11:23:01.11	328.98	4.62	-45.3	-60.0	3.6	1.51e+00	0	42	104	0	60	40416
2026-01-30 11:23:02.12	329.11	4.55	-45.0	-59.7	3.6	1.51e+00	0	42	104	0	60	39239
2026-01-30 11:23:03.13	329.23	4.49	-45.4	-60.0	3.6	1.51e+00	0	41	104	0	60	40690
2026-01-30 11:23:04.14	329.36	4.43	-45.1	-59.8	3.6	1.51e+00	0	42	104	0	60	39685
2026-01-30 11:23:05.15	329.49	4.36	-45.2	-59.9	3.6	1.51e+00	0	42	104	0	60	40014
2026-01-30 11:23:06.16	329.61	4.30	-44.8	-59.5	3.6	1.51e+00	0	42	104	0	60	38121
2026-01-30 11:23:07.18	329.74	4.24	-45.2	-60.0	3.6	1.51e+00	0	42	104	0	60	40533
2026-01-30 11:23:08.19	329.86	4.18	-44.8	-59.6	3.6	1.51e+00	0	42	104	0	60	38675
2026-01-30 11:23:09.20	329.99	4.11	-45.1	-59.8	3.6	1.51e+00	0	42	104	0	60	39582
2026-01-30 11:23:10.20	330.11	4.05	-44.3	-59.0	3.6	1.51e+00	0	42	104	0	60	36204
2026-01-30 11:23:11.21	330.23	3.99	-45.1	-59.9	3.6	1.51e+00	0	42	104	0	60	39886
2026-01-30 11:23:12.22	330.35	3.93	-43.4	-58.1	3.6	1.51e+00	0	42	104	0	60	32420
2026-01-30 11:23:13.23	330.47	3.87	-44.2	-58.9	3.6	1.51e+00	0	42	104	0	60	35637
2026-01-30 11:23:14.24	330.59	3.81	-42.8	-57.5	3.6	1.51e+00	0	41	104	0	60	30292
2026-01-30 11:23:15.25	330.71	3.74	-42.2	-56.9	3.6	1.51e+00	0	41	104	0	60	28340
2026-01-30 11:23:16.26	330.83	3.68	-41.8	-56.5	3.6	1.51e+00	0	42	104	0	60	27174
2026-01-30 11:23:17.27	330.95	3.62	-41.5	-56.2	3.6	1.51e+00	0	41	104	0	58	29501
2026-01-30 11:23:18.28	331.07	3.56	-42.8	-57.5	3.6	1.51e+00	0	42	104	0	58	33972
2026-01-30 11:23:19.29	331.19	3.50	-44.0	-58.7	3.6	1.51e+00	0	42	104	0	60	35006
2026-01-30 11:23:20.30	331.30	3.44	-41.7	-56.4	3.6	1.51e+00	0	42	104	0	58	30145
2026-01-30 11:23:21.31	331.42	3.38	-42.7	-57.4	3.6	1.51e+00	0	42	104	0	60	30129
2026-01-30 11:23:22.32	331.54	3.32	-41.7	-56.4	3.6	1.51e+00	0	42	104	0	60	26943
2026-01-30 11:23:23.33	331.65	3.25	-41.6	-56.2	3.6	1.51e+00	0	42	104	0	58	29424
2026-01-30 11:23:24.34	331.77	3.19	-41.5	-56.2	3.6	1.51e+00	0	42	104	0	58	29507
2026-01-30 11:23:25.35	331.88	3.13	-41.5	-56.2	3.6	1.51e+00	0	42	104	0	58	29317
2026-01-30 11:23:26.36	331.99	3.07	-41.6	-56.3	3.6	1.51e+00	0	42	104	0	58	29691
2026-01-30 11:23:27.37	332.11	3.01	-42.6	-57.3	3.6	1.51e+00	0	42	104	0	58	33157
2026-01-30 11:23:28.38	332.22	2.95	-45.3	-60.1	3.6	1.51e+00	0	42	104	0	60	40954
2026-01-30 11:23:29.39	332.33	2.89	-45.6	-60.4	3.6	1.51e+00	0	42	104	0	60	42464
2026-01-30 11:23:30.40	332.44	2.83	-45.9	-60.6	3.6	1.51e+00	0	42	104	0	60	43256
2026-01-30 11:23:31.41	332.55	2.77	-46.0	-60.7	3.6	1.51e+00	0	41	104	0	60	44158
2026-01-30 11:23:32.42	332.66	2.71	-46.2	-60.9	3.6	1.51e+00	0	41	104	0	60	44787
2026-01-30 11:23:33.43	332.77	2.65	-45.9	-61.0	3.6	1.51e+00	0	42	104	0	60	45702
2026-01-30 11:23:34.44	332.88	2.59	-46.4	-61.2	3.6	1.51e+00	0	41	104	0	60	46345
2026-01-30 11:23:35.45	332.99	2.53	-46.3	-61.2	3.6	1.51e+00	0	41	104	0	60	46491
2026-01-30 11:23:36.46	333.10	2.47	-46.3	-61.3	3.6	1.51e+00	0	42	104	0	60	46888
2026-01-30 11:23:37.47	333.20	2.41	-46.5	-61.3	3.6	1.51e+00	0	42	104	0	60	47034
2026-01-30 11:23:38.48	333.31	2.35	-46.4	-61.4	3.6	1.51e+00	0	42	104	0	60	47503
2026-01-30 11:23:39.49	333.42	2.30	-46.3	-61.3	3.6	1.51e+00	0	42	104	0	60	46978
2026-01-30 11:23:40.50	333.52	2.24	-45.8	-61.3	3.6	1.51e+00	0	41	104	0	60	47254
2026-01-30 11:23:41.51	333.63	2.18	-45.8	-61.2	3.6	1.51e+00	0	42	104	0	60	46744
2026-01-30 11:23:42.52	333.73	2.12	-46.3	-61.4	3.6	1.51e+00	0	42	104	0	60	47867
2026-01-30 11:23:43.53	333.84	2.06	-46.4	-61.2	3.6	1.51e+00	0	42	104	0	60	46385
2026-01-30 11:23:44.54	333.94	2.00	-46.0	-61.1	3.6	1.51e+00	0	42	104	0	60	46170
2026-01-30 11:23:45.55	334.04	1.94	-46.3	-61.0	3.6	1.51e+00	0	42	104	0	60	45734
2026-01-30 11:23:46.56	334.15	1.88	-46.5	-61.2	3.6	1.51e+00	0	42	104	0	60	46757
2026-01-30 11:23:47.56	334.25	1.83	-46.3	-61.2	3.6	1.51e+00	0	42	104	0	60	46415
2026-01-30 11:23:48.57	334.35	1.77	-46.1	-61.0	3.6	1.51e+00	0	42	104	0	60	45707
2026-01-30 11:23:49.58	334.45	1.71	-46.2	-61.0	3.6	1.51e+00	0	42	104	0	60	45475
2026-01-30 11:23:50.59	334.55	1.65	-46.1	-60.9	3.6	1.51e+00	0	42	104	0	60	45230
2026-01-30 11:23:51.60	334.65	1.59	-46.2	-60.9	3.6	1.51e+00	0	42	104	0	60	45193
2026-01-30 11:23:52.61	334.75	1.54	-46.3	-61.0	3.6	1.51e+00	0	42	104	0	60	45428
2026-01-30 11:23:53.62	334.85	1.48	-46.3	-61.0	3.6	1.51e+00	0	41	104	0	60	45363
2026-01-30 11:23:54.63	334.95	1.42	-46.3	-61.0	3.6	1.51e+00	0	42	104	0	60	45272
2026-01-30 11:23:55.64	335.05	1.36	-46.2	-61.0	3.6	1.51e+00	0	42	104	0	60	45354
2026-01-30 11:23:56.65	335.15	1.30	-46.2	-61.0	3.6	1.51e+00	0	42	104	0	60	45251
2026-01-30 11:23:57.67	335.24	1.25	-45.8	-60.9	3.6	1.51e+00	0	42	104	0	60	44968
2026-01-30 11:23:58.68	335.34	1.19	-44.9	-60.8	3.6	1.51e+00	0	42	104	0	60	44715
2026-01-30 11:23:59.68	335.44	1.13	-44.2	-60.9	3.6	1.51e+00	0	42	104	0	60	44731
2026-01-30 11:24:00.69	335.53	1.08	-44.6	-60.9	3.6	1.51e+00	0	42	104	0	60	44826
2026-01-30 11:24:01.70	335.63	1.02	-44.0	-60.8	3.7	1.51e+00	0	41	104	0	60	44713
2026-01-30 11:24:02.72	335.72	0.96	-46.2	-60.9	3.6	1.51e+00	0	42	104	0	60	45042
2026-01-30 11:24:03.73	335.82	0.90	-46.2	-60.9	3.6	1.51e+00	0	42	104	0	60	45240
2026-01-30 11:24:04.74	335.91	0.85	-46.2	-60.9	3.6	1.51e+00	0	41	104	0	60	45043
2026-01-30 11:24:05.75	336.01	0.79	-46.2	-60.9	3.6	1.51e+00	0	42	104	0	60	45198
2026-01-30 11:24:06.76	336.10	0.73	-46.2	-60.9	3.6	1.51e+00	0	42	104	0	60	44976
2026-01-30 11:24:07.77	336.19	0.68	-46.2	-60.9	3.6	1.51e+00	0	41	104	0	60	44843
2026-01-30 11:24:08.78	336.29	0.62	-46.2	-60.9	3.6	1.51e+00	0	42	104	0	60	44884
2026-01-30 11:24:09.79	336.38	0.56	-46.2	-60.9	3.6	1.51e+00	0	41	104	0	60	44993
2026-01-30 11:24:10.80	336.47	0.51	-46.2	-60.9	3.6	1.51e+00	0	41	104	0	60	44983
2026-01-30 11:24:11.81	336.56	0.45	-46.2	-60.9	3.6	1.51e+00	0	41	104	0	60	44865
2026-01-30 11:24:12.82	336.65	0.40	-46.2	-60.9	3.6	1.51e+00	0	42	104	0	60	44922
2026-01-30 11:24:13.83	336.74	0.34	-46.2	-60.9	3.6	1.51e+00	0	42	104	0	60	45126
2026-01-30 11:24:14.84	336.83	0.28	-46.2	-60.9	3.6	1.51e+00	0	42	104	0	60	44928
2026-01-30 11:24:15.85	336.92	0.23	-46.2	-60.9	3.6	1.51e+00	0	42	104	0	60	44988
2026-01-30 11:24:16.86	337.01	0.17	-46.2	-60.9	3.6	1.51e+00	0	42	104	0	60	44868
2026-01-30 11:24:17.87	337.10	0.12	-46.2	-60.8	3.6	1.51e+00	0	42	104	0	60	44644
2026-01-30 11:24:18.88	337.19	0.06	-46.2	-60.9	3.6	1.51e+00	0	41	104	0	60	44818
2026-01-30 11:24:19.89	337.28	0.01	-46.2	-60.9	3.6	1.51e+00	0	42	104	0	60	44747
2026-01-30 11:24:20.90	337.36	-0.05	-46.2	-60.9	3.6	1.51e+00	0	41	104	0	60	44815
2026-01-30 11:24:21.91	337.45	-0.10	-46.2	-60.9	3.6	1.51e+00	0	41	104	0	60	44823

#Closed at: 2026-01-30 11:24:22
#Recorded file [0 MB]: D:/lorett/data/35029_260130_231405.dat