passes_logs/2026/01/30/R4.6S_Anadyr/R4.6S_Anadyr__20260130_174020_FENGYUN_3D_rec.log

#Pass ID: 20260130_174020_FENGYUN 3D
#Satellite: FENGYUN 3D
#Configuration: FENGYUN 3D
#almurnet v.1.7.20251203
#Start time: 2026-01-30 17:40:23

#Version: 2.2.20231116
#Station: R4.6S_Anadyr
#Location: 177.4865 lon 64.73178 lat
#TLE: 1 43010U 17072A   26030.50846455  .00000095  00000+0  66593-4 0  9999
#TLE: 2 43010  98.9956   2.5669 0002528  82.5135 277.6327 14.19702589425455

#Time	Az	El	Level	Level2	SNR	BER	BlckErr	Temp	State	Recorded	gain1	gain2
2026-01-30 17:40:23.40	23.20	0.17	-49.5	-60.1	3.3	8.40e-01	0	39	0	0	60	36759
2026-01-30 17:40:24.40	23.19	0.23	-49.5	-61.6	3.6	8.45e-01	0	40	104	0	60	43706
2026-01-30 17:40:25.41	23.17	0.29	-49.5	-61.7	3.6	8.45e-01	0	40	104	0	60	43845
2026-01-30 17:40:26.42	23.15	0.35	-49.6	-61.7	3.6	8.45e-01	0	40	104	0	60	43947
2026-01-30 17:40:27.43	23.13	0.41	-49.5	-61.7	3.6	8.46e-01	0	40	104	0	60	44074
2026-01-30 17:40:28.44	23.11	0.47	-49.6	-61.7	3.6	8.45e-01	0	40	104	0	60	44106
2026-01-30 17:40:29.45	23.09	0.53	-49.7	-61.8	3.6	8.46e-01	0	40	104	0	60	44442
2026-01-30 17:40:30.46	23.07	0.59	-49.6	-61.8	3.6	8.44e-01	0	40	104	0	60	44300
2026-01-30 17:40:31.47	23.05	0.65	-49.6	-61.7	3.6	8.45e-01	0	40	104	0	60	43992
2026-01-30 17:40:32.48	23.04	0.71	-49.6	-61.7	3.6	8.45e-01	0	40	104	0	60	43993
2026-01-30 17:40:33.49	23.02	0.78	-49.4	-61.7	3.6	8.46e-01	0	40	104	0	60	43924
2026-01-30 17:40:34.50	23.00	0.84	-49.5	-61.7	3.6	8.44e-01	0	40	104	0	60	43786
2026-01-30 17:40:35.51	22.98	0.90	-49.4	-61.5	3.6	8.45e-01	0	40	104	0	60	43199
2026-01-30 17:40:36.52	22.96	0.96	-49.3	-61.5	3.6	8.46e-01	0	40	104	0	60	42733
2026-01-30 17:40:37.53	22.94	1.02	-49.3	-61.5	3.6	8.45e-01	0	40	104	0	60	42848
2026-01-30 17:40:38.54	22.92	1.08	-49.1	-61.3	3.6	8.46e-01	0	40	104	0	60	41927
2026-01-30 17:40:39.55	22.90	1.14	-49.1	-61.2	3.6	8.45e-01	0	40	104	0	60	41546
2026-01-30 17:40:40.56	22.88	1.21	-48.9	-61.1	3.6	8.44e-01	0	40	104	0	60	40844
2026-01-30 17:40:41.57	22.86	1.27	-48.9	-61.0	3.6	8.45e-01	0	40	104	0	60	40620
2026-01-30 17:40:42.58	22.84	1.33	-48.7	-60.9	3.6	8.46e-01	0	40	104	0	60	39985
2026-01-30 17:40:43.60	22.82	1.39	-48.6	-60.6	3.6	8.45e-01	0	40	104	0	60	38896
2026-01-30 17:40:44.60	22.80	1.46	-48.3	-60.4	3.6	8.45e-01	0	40	104	0	60	37642
2026-01-30 17:40:45.62	22.78	1.52	-48.1	-60.0	3.6	8.45e-01	0	40	104	0	60	36334
2026-01-30 17:40:46.63	22.76	1.58	-48.1	-59.9	3.6	8.45e-01	0	40	104	0	60	35890
2026-01-30 17:40:47.64	22.74	1.64	-48.1	-59.8	3.6	8.45e-01	0	40	104	0	60	35129
2026-01-30 17:40:48.65	22.72	1.71	-48.1	-59.8	3.6	8.45e-01	0	40	104	0	60	35427
2026-01-30 17:40:49.66	22.70	1.77	-48.1	-59.9	3.6	8.46e-01	0	40	104	0	60	35669
2026-01-30 17:40:50.67	22.68	1.83	-48.1	-60.0	3.6	8.45e-01	0	40	104	0	60	36068
2026-01-30 17:40:51.68	22.65	1.90	-48.1	-60.1	3.6	8.46e-01	0	40	104	0	60	36609
2026-01-30 17:40:52.69	22.63	1.96	-48.1	-60.1	3.6	8.45e-01	0	40	104	0	60	36698
2026-01-30 17:40:53.70	22.61	2.02	-48.1	-60.1	3.6	8.45e-01	0	40	104	0	60	36695
2026-01-30 17:40:54.71	22.59	2.09	-48.1	-60.2	3.6	8.45e-01	0	40	104	0	60	36785
2026-01-30 17:40:55.72	22.57	2.15	-48.1	-60.2	3.6	8.45e-01	0	40	104	0	60	37041
2026-01-30 17:40:56.73	22.55	2.22	-48.1	-60.2	3.6	8.44e-01	0	40	104	0	60	36795
2026-01-30 17:40:57.74	22.53	2.28	-48.1	-60.1	3.6	8.44e-01	0	40	104	0	60	36552
2026-01-30 17:40:58.75	22.50	2.35	-48.1	-59.8	3.6	8.45e-01	0	40	104	0	60	35370
2026-01-30 17:40:59.76	22.48	2.41	-48.0	-59.5	3.6	8.45e-01	0	40	104	0	60	34225
2026-01-30 17:41:00.77	22.46	2.47	-48.0	-58.7	3.6	8.45e-01	0	40	104	0	60	31109
2026-01-30 17:41:01.78	22.44	2.54	-47.9	-57.8	3.6	8.44e-01	0	40	104	0	60	28101
2026-01-30 17:41:02.78	22.42	2.60	-47.8	-57.6	3.8	8.43e-01	0	40	104	0	60	27471
2026-01-30 17:41:03.79	22.39	2.67	-47.8	-57.1	3.9	8.43e-01	0	40	104	0	60	25942
2026-01-30 17:41:04.80	22.37	2.73	-47.8	-57.2	3.9	8.42e-01	0	40	104	0	60	26335
2026-01-30 17:41:05.81	22.35	2.80	-47.9	-58.2	3.6	8.44e-01	0	40	104	0	60	29497
2026-01-30 17:41:06.82	22.33	2.86	-48.0	-59.2	3.6	8.45e-01	0	40	104	0	60	33141
2026-01-30 17:41:07.83	22.30	2.93	-47.9	-57.7	3.7	8.45e-01	0	40	104	0	60	27804
2026-01-30 17:41:08.84	22.28	3.00	-47.3	-54.0	5.1	8.06e-01	0	40	0	0	60	18086
2026-01-30 17:41:09.85	22.26	3.06	-46.4	-50.5	8.0	9.24e-02	0	40	0	4194304	60	12099
2026-01-30 17:41:10.86	22.23	3.13	-45.0	-47.8	11.3	5.74e-03	0	40	0	9437184	60	8881
2026-01-30 17:41:11.87	22.21	3.19	-43.9	-46.1	13.4	4.91e-04	0	40	0	15728640	60	7302
2026-01-30 17:41:12.88	22.19	3.26	-42.5	-44.2	15.2	0.00e+00	0	40	0	20971520	58	6562
2026-01-30 17:41:13.89	22.16	3.33	-41.5	-43.0	16.3	0.00e+00	0	40	0	26214400	56	6405
2026-01-30 17:41:14.90	22.14	3.39	-41.2	-42.5	16.8	0.00e+00	0	40	0	32505856	56	6074
2026-01-30 17:41:15.91	22.12	3.46	-40.3	-41.5	17.7	0.00e+00	0	40	0	37748736	54	6097
2026-01-30 17:41:16.92	22.09	3.53	-40.2	-41.4	17.8	0.00e+00	0	40	0	44040192	54	6019
2026-01-30 17:41:17.93	22.07	3.60	-40.4	-41.6	17.6	0.00e+00	0	40	0	49283072	54	6125
2026-01-30 17:41:18.94	22.04	3.66	-47.9	-57.8	3.6	8.40e-01	0	40	104	52428800	60	27945
2026-01-30 17:41:19.95	22.02	3.73	-46.8	-51.4	7.1	8.34e-01	0	40	0	52428800	60	13382
2026-01-30 17:41:20.96	22.00	3.80	-47.5	-55.0	3.6	1.26e-01	0	40	0	57671680	60	20304
2026-01-30 17:41:21.97	21.97	3.87	-36.6	-37.3	20.0	0.00e+00	0	40	104	57671680	46	5957
2026-01-30 17:41:22.98	21.95	3.93	-47.9	-58.9	3.5	6.95e-01	0	40	104	60817408	60	31745
2026-01-30 17:41:23.99	21.92	4.00	-36.9	-37.8	6.1	8.09e-01	0	40	104	60817408	48	5571
2026-01-30 17:41:25.00	21.90	4.07	-36.6	-37.4	21.9	0.00e+00	0	41	0	61865984	46	6015
2026-01-30 17:41:26.01	21.87	4.14	-36.3	-37.1	22.2	0.00e+00	0	40	0	68157440	46	5776
2026-01-30 17:41:27.02	21.85	4.21	-36.0	-36.8	22.4	0.00e+00	0	40	0	73400320	46	5580
2026-01-30 17:41:28.03	21.82	4.28	-36.0	-36.8	22.4	0.00e+00	0	40	0	78643200	46	5617
2026-01-30 17:41:29.04	21.80	4.35	-36.2	-36.9	22.2	0.00e+00	0	40	0	84934656	46	5692
2026-01-30 17:41:30.05	21.77	4.42	-36.1	-36.8	22.3	0.00e+00	0	40	0	90177536	46	5622
2026-01-30 17:41:31.06	21.74	4.48	-36.5	-37.3	22.1	0.00e+00	0	40	0	96468992	46	5936
2026-01-30 17:41:32.07	21.72	4.55	-36.2	-37.0	22.3	0.00e+00	0	40	0	101711872	46	5710
2026-01-30 17:41:33.08	21.69	4.62	-36.2	-37.0	22.3	0.00e+00	0	40	0	106954752	46	5712
2026-01-30 17:41:34.09	21.67	4.69	-35.9	-36.7	22.6	0.00e+00	0	40	0	113246208	46	5527
2026-01-30 17:41:35.10	21.64	4.76	-36.0	-36.7	22.6	0.00e+00	0	40	0	118489088	46	5564
2026-01-30 17:41:36.12	21.61	4.84	-36.0	-36.8	22.5	0.00e+00	0	40	0	124780544	46	5614
2026-01-30 17:41:37.13	21.59	4.91	-36.0	-36.7	22.6	0.00e+00	0	40	0	130023424	46	5561
2026-01-30 17:41:38.14	21.56	4.98	-35.9	-36.7	22.6	0.00e+00	0	40	0	136314880	46	5556
2026-01-30 17:41:39.15	21.53	5.05	-36.2	-37.0	22.4	0.00e+00	0	40	0	141557760	46	5724
2026-01-30 17:41:40.16	21.50	5.12	-36.4	-37.2	22.1	0.00e+00	0	40	0	146800640	46	5879
2026-01-30 17:41:41.17	21.48	5.19	-36.4	-37.2	22.2	0.00e+00	0	40	0	153092096	46	5896
2026-01-30 17:41:42.18	21.45	5.26	-36.4	-37.2	22.3	0.00e+00	0	40	0	158334976	46	5831
2026-01-30 17:41:43.19	21.42	5.33	-36.3	-37.1	22.3	0.00e+00	0	40	0	164626432	46	5800
2026-01-30 17:41:44.20	21.39	5.40	-36.1	-36.8	22.5	0.00e+00	0	41	0	169869312	46	5618
2026-01-30 17:41:45.21	21.37	5.48	-36.0	-36.7	22.7	0.00e+00	0	40	0	176160768	46	5561
2026-01-30 17:41:46.22	21.34	5.55	-36.0	-36.8	22.7	0.00e+00	0	40	0	181403648	46	5602
2026-01-30 17:41:47.23	21.31	5.62	-35.8	-36.6	22.8	0.00e+00	0	40	0	186646528	46	5445
2026-01-30 17:41:48.24	21.28	5.69	-35.8	-36.6	22.9	0.00e+00	0	40	0	192937984	46	5464
2026-01-30 17:41:49.25	21.25	5.77	-36.0	-36.7	22.8	0.00e+00	0	40	0	198180864	46	5555
2026-01-30 17:41:50.27	21.22	5.84	-35.9	-36.6	22.8	0.00e+00	0	40	0	204472320	46	5490
2026-01-30 17:41:51.28	21.19	5.91	-35.8	-36.6	22.9	0.00e+00	0	40	0	209715200	46	5447
2026-01-30 17:41:52.29	21.17	5.98	-35.9	-36.7	22.8	0.00e+00	0	41	0	214958080	46	5549
2026-01-30 17:41:53.30	21.14	6.06	-35.8	-36.6	22.9	0.00e+00	0	40	0	221249536	46	5463
2026-01-30 17:41:54.31	21.11	6.13	-36.0	-36.7	22.8	0.00e+00	0	41	0	226492416	46	5547
2026-01-30 17:41:55.32	21.08	6.21	-36.0	-36.8	22.8	0.00e+00	0	41	0	232783872	46	5607
2026-01-30 17:41:56.33	21.05	6.28	-35.9	-36.6	22.9	0.00e+00	0	41	0	238026752	46	5492
2026-01-30 17:41:57.34	21.02	6.35	-36.0	-36.8	22.7	0.00e+00	0	41	0	244318208	46	5576
2026-01-30 17:41:58.35	20.99	6.43	-35.9	-36.7	22.9	0.00e+00	0	41	0	249561088	46	5515
2026-01-30 17:41:59.36	20.96	6.50	-35.9	-36.7	22.9	0.00e+00	0	41	0	255852544	46	5528
2026-01-30 17:42:00.37	20.93	6.58	-35.7	-36.5	23.1	0.00e+00	0	41	0	261095424	44	6044
2026-01-30 17:42:01.38	20.90	6.65	-35.8	-36.5	23.0	0.00e+00	0	41	0	266338304	44	6081
2026-01-30 17:42:02.39	20.86	6.73	-35.7	-36.5	23.0	0.00e+00	0	41	0	272629760	44	6069
2026-01-30 17:42:03.40	20.83	6.80	-35.6	-36.4	23.1	0.00e+00	0	41	0	277872640	44	5992
2026-01-30 17:42:04.41	20.80	6.88	-35.7	-36.5	23.1	0.00e+00	0	41	0	284164096	44	6039
2026-01-30 17:42:05.42	20.77	6.96	-35.7	-36.4	23.1	0.00e+00	0	41	0	289406976	44	6016
2026-01-30 17:42:06.43	20.74	7.03	-35.6	-36.4	23.2	0.00e+00	0	41	0	294649856	44	5971
2026-01-30 17:42:07.44	20.71	7.11	-35.6	-36.4	23.2	0.00e+00	0	41	0	300941312	44	5994
2026-01-30 17:42:08.45	20.68	7.19	-35.6	-36.3	23.2	0.00e+00	0	41	0	306184192	44	5950
2026-01-30 17:42:09.46	20.64	7.26	-35.5	-36.3	23.2	0.00e+00	0	41	0	312475648	44	5935
2026-01-30 17:42:10.47	20.61	7.34	-35.3	-36.1	23.3	0.00e+00	0	41	0	317718528	44	5786
2026-01-30 17:42:11.48	20.58	7.42	-35.6	-36.4	23.2	0.00e+00	0	41	0	322961408	44	6004
2026-01-30 17:42:12.49	20.55	7.49	-35.8	-36.5	23.0	0.00e+00	0	41	0	329252864	44	6079
2026-01-30 17:42:13.50	20.51	7.57	-35.8	-36.6	23.1	0.00e+00	0	41	0	334495744	44	6104
2026-01-30 17:42:14.51	20.48	7.65	-35.8	-36.6	23.1	0.00e+00	0	41	0	340787200	44	6120
2026-01-30 17:42:15.52	20.45	7.73	-35.8	-36.6	23.1	0.00e+00	0	41	0	346030080	44	6149
2026-01-30 17:42:16.53	20.41	7.81	-35.4	-36.2	23.5	0.00e+00	0	41	0	352321536	44	5842
2026-01-30 17:42:17.54	20.38	7.88	-35.5	-36.2	23.4	0.00e+00	0	41	0	357564416	44	5868
2026-01-30 17:42:18.55	20.35	7.96	-35.2	-35.9	23.6	0.00e+00	0	41	0	362807296	44	5676
2026-01-30 17:42:19.56	20.31	8.04	-35.3	-36.0	23.6	0.00e+00	0	41	0	369098752	44	5727
2026-01-30 17:42:20.57	20.28	8.12	-35.3	-36.1	23.5	0.00e+00	0	41	0	374341632	44	5773
2026-01-30 17:42:21.58	20.24	8.20	-35.2	-35.9	23.7	0.00e+00	0	41	0	380633088	44	5694
2026-01-30 17:42:22.59	20.21	8.28	-35.2	-36.0	23.6	0.00e+00	0	41	0	385875968	44	5715
2026-01-30 17:42:23.60	20.17	8.36	-35.3	-36.1	23.5	0.00e+00	0	41	0	391118848	44	5776
2026-01-30 17:42:24.61	20.14	8.44	-34.9	-35.7	24.0	0.00e+00	0	41	0	397410304	44	5512
2026-01-30 17:42:25.62	20.10	8.52	-35.0	-35.8	23.8	0.00e+00	0	41	0	402653184	44	5568
2026-01-30 17:42:26.63	20.07	8.60	-35.0	-35.8	23.8	0.00e+00	0	41	0	408944640	44	5580
2026-01-30 17:42:27.64	20.03	8.68	-35.0	-35.8	23.8	0.00e+00	0	41	0	414187520	44	5572
2026-01-30 17:42:28.65	19.99	8.77	-34.9	-35.6	24.0	0.00e+00	0	41	0	419430400	44	5486
2026-01-30 17:42:29.66	19.96	8.85	-34.9	-35.6	24.0	0.00e+00	0	41	0	425721856	44	5455
2026-01-30 17:42:30.68	19.92	8.93	-34.9	-35.6	24.0	0.00e+00	0	41	0	430964736	44	5498
2026-01-30 17:42:31.69	19.88	9.01	-34.9	-35.6	23.9	0.00e+00	0	41	0	437256192	44	5460
2026-01-30 17:42:32.70	19.85	9.09	-34.9	-35.6	23.9	0.00e+00	0	41	0	442499072	44	5467
2026-01-30 17:42:33.71	19.81	9.18	-34.9	-35.6	24.0	0.00e+00	0	41	0	448790528	44	5502
2026-01-30 17:42:34.72	19.77	9.26	-34.8	-35.6	24.1	0.00e+00	0	41	0	454033408	42	6109
2026-01-30 17:42:35.73	19.73	9.34	-34.9	-35.6	24.1	0.00e+00	0	41	0	460324864	42	6149
2026-01-30 17:42:36.74	19.70	9.43	-34.8	-35.5	24.2	0.00e+00	0	41	0	465567744	42	6075
2026-01-30 17:42:37.75	19.66	9.51	-35.0	-35.8	24.0	0.00e+00	0	41	0	470810624	42	6248
2026-01-30 17:42:38.76	19.62	9.59	-34.9	-35.6	24.1	0.00e+00	0	41	0	477102080	42	6128
2026-01-30 17:42:39.77	19.58	9.68	-35.0	-35.8	23.9	0.00e+00	0	41	0	482344960	42	6254
2026-01-30 17:42:40.78	19.54	9.76	-34.8	-35.5	24.1	0.00e+00	0	41	0	488636416	42	6093
2026-01-30 17:42:41.79	19.50	9.85	-34.6	-35.3	24.3	0.00e+00	0	41	0	493879296	42	5961
2026-01-30 17:42:42.80	19.46	9.93	-34.7	-35.4	24.2	0.00e+00	0	41	0	499122176	42	5978
2026-01-30 17:42:43.81	19.42	10.02	-34.5	-35.2	24.5	0.00e+00	0	41	0	505413632	42	5850
2026-01-30 17:42:44.82	19.38	10.10	-34.5	-35.2	24.5	0.00e+00	0	41	0	510656512	42	5884
2026-01-30 17:42:45.83	19.34	10.19	-34.4	-35.1	24.6	0.00e+00	0	41	0	516947968	42	5811
2026-01-30 17:42:46.84	19.30	10.27	-34.3	-35.0	24.7	0.00e+00	0	41	0	522190848	42	5696
2026-01-30 17:42:47.85	19.26	10.36	-34.5	-35.2	24.6	0.00e+00	0	41	0	527433728	42	5849
2026-01-30 17:42:48.86	19.22	10.45	-34.3	-35.0	24.7	0.00e+00	0	41	0	533725184	42	5739
2026-01-30 17:42:49.87	19.18	10.53	-34.4	-35.1	24.7	0.00e+00	0	41	0	538968064	42	5762
2026-01-30 17:42:50.88	19.14	10.62	-34.4	-35.1	24.6	0.00e+00	0	41	0	545259520	42	5786
2026-01-30 17:42:51.89	19.10	10.71	-34.3	-35.0	24.7	0.00e+00	0	41	0	550502400	42	5722
2026-01-30 17:42:52.90	19.05	10.80	-34.2	-34.9	24.7	0.00e+00	0	41	0	556793856	42	5668
2026-01-30 17:42:53.91	19.01	10.89	-34.2	-35.0	24.7	0.00e+00	0	41	0	562036736	42	5696
2026-01-30 17:42:54.92	18.97	10.97	-34.2	-34.9	24.7	0.00e+00	0	41	0	568328192	42	5678
2026-01-30 17:42:55.93	18.93	11.06	-34.2	-34.9	24.8	0.00e+00	0	41	0	573571072	42	5652
2026-01-30 17:42:56.94	18.88	11.15	-34.1	-34.8	24.9	0.00e+00	0	41	0	578813952	42	5610
2026-01-30 17:42:57.95	18.84	11.24	-34.2	-34.9	24.8	0.00e+00	0	41	0	585105408	42	5669
2026-01-30 17:42:58.96	18.80	11.33	-34.2	-34.9	24.8	0.00e+00	0	41	0	590348288	42	5672
2026-01-30 17:42:59.97	18.75	11.42	-34.2	-34.9	24.8	0.00e+00	0	41	0	596639744	42	5651
2026-01-30 17:43:00.98	18.71	11.51	-34.3	-35.0	24.8	0.00e+00	0	41	0	601882624	42	5703
2026-01-30 17:43:01.99	18.66	11.60	-34.3	-35.0	24.8	0.00e+00	0	41	0	607125504	42	5704
2026-01-30 17:43:03.00	18.62	11.69	-34.0	-34.7	25.0	0.00e+00	0	41	0	613416960	42	5524
2026-01-30 17:43:04.01	18.57	11.78	-34.2	-34.9	24.8	0.00e+00	0	41	0	618659840	42	5644
2026-01-30 17:43:05.02	18.53	11.88	-34.3	-35.0	24.8	0.00e+00	0	41	0	624951296	42	5758
2026-01-30 17:43:06.03	18.48	11.97	-34.4	-35.1	24.8	0.00e+00	0	41	0	630194176	42	5762
2026-01-30 17:43:07.04	18.44	12.06	-34.1	-34.8	24.9	0.00e+00	0	41	0	635437056	42	5612
2026-01-30 17:43:08.05	18.39	12.15	-34.0	-34.7	25.1	0.00e+00	0	41	0	641728512	42	5523
2026-01-30 17:43:09.06	18.34	12.24	-34.1	-34.8	24.9	0.00e+00	0	41	0	646971392	42	5583
2026-01-30 17:43:10.07	18.29	12.34	-34.1	-34.8	25.0	0.00e+00	0	41	0	653262848	42	5580
2026-01-30 17:43:11.08	18.25	12.43	-34.1	-34.9	25.0	0.00e+00	0	41	0	658505728	42	5632
2026-01-30 17:43:12.09	18.20	12.53	-34.0	-34.7	25.0	0.00e+00	0	41	0	664797184	42	5561
2026-01-30 17:43:13.10	18.15	12.62	-34.0	-34.7	25.0	0.00e+00	0	41	0	670040064	42	5521
2026-01-30 17:43:14.11	18.10	12.71	-33.9	-34.6	25.1	0.00e+00	0	41	0	676331520	42	5449
2026-01-30 17:43:15.12	18.05	12.81	-33.8	-34.5	25.2	0.00e+00	0	41	0	681574400	42	5402
2026-01-30 17:43:16.13	18.00	12.90	-33.8	-34.5	25.2	0.00e+00	0	41	0	686817280	42	5432
2026-01-30 17:43:17.14	17.95	13.00	-33.8	-34.5	25.3	0.00e+00	0	41	0	693108736	42	5421
2026-01-30 17:43:18.15	17.91	13.10	-33.8	-34.5	25.3	0.00e+00	0	41	0	698351616	42	5409
2026-01-30 17:43:19.16	17.85	13.19	-33.8	-34.4	25.3	0.00e+00	0	41	0	704643072	42	5357
2026-01-30 17:43:20.17	17.80	13.29	-33.7	-34.4	25.4	0.00e+00	0	41	0	709885952	40	5984
2026-01-30 17:43:21.19	17.75	13.39	-33.7	-34.4	25.3	0.00e+00	0	41	0	715128832	40	6000
2026-01-30 17:43:22.20	17.70	13.48	-33.7	-34.4	25.3	0.00e+00	0	41	0	721420288	40	6007
2026-01-30 17:43:23.21	17.65	13.58	-33.8	-34.5	25.3	0.00e+00	0	41	0	726663168	40	6049
2026-01-30 17:43:24.22	17.60	13.68	-33.8	-34.4	25.3	0.00e+00	0	41	0	732954624	40	6004
2026-01-30 17:43:25.23	17.55	13.78	-33.6	-34.3	25.4	0.00e+00	0	41	0	738197504	40	5937
2026-01-30 17:43:26.24	17.49	13.88	-33.6	-34.3	25.5	0.00e+00	0	41	0	743440384	40	5930
2026-01-30 17:43:27.24	17.44	13.98	-33.7	-34.3	25.5	0.00e+00	0	41	0	749731840	40	5944
2026-01-30 17:43:28.25	17.39	14.08	-33.4	-34.1	25.6	0.00e+00	0	41	0	754974720	40	5803
2026-01-30 17:43:29.26	17.33	14.18	-33.4	-34.1	25.7	0.00e+00	0	41	0	761266176	40	5809
2026-01-30 17:43:30.28	17.28	14.28	-33.4	-34.1	25.6	0.00e+00	0	41	0	766509056	40	5770
2026-01-30 17:43:31.29	17.22	14.38	-33.5	-34.2	25.7	0.00e+00	0	41	0	772800512	40	5834
2026-01-30 17:43:32.30	17.17	14.48	-33.2	-33.9	25.8	0.00e+00	0	41	0	778043392	40	5652
2026-01-30 17:43:33.30	17.11	14.58	-33.3	-33.9	25.8	0.00e+00	0	41	0	783286272	40	5694
2026-01-30 17:43:34.31	17.06	14.68	-33.2	-33.9	25.8	0.00e+00	0	41	0	789577728	40	5670
2026-01-30 17:43:35.32	17.00	14.78	-33.2	-33.8	25.9	0.00e+00	0	41	0	794820608	40	5612
2026-01-30 17:43:36.33	16.94	14.89	-33.3	-33.9	25.8	0.00e+00	0	41	0	801112064	40	5688
2026-01-30 17:43:37.34	16.89	14.99	-33.3	-34.0	25.8	0.00e+00	0	41	0	806354944	40	5699
2026-01-30 17:43:38.36	16.83	15.10	-33.2	-33.8	25.9	0.00e+00	0	41	0	811597824	40	5586
2026-01-30 17:43:39.37	16.77	15.20	-33.1	-33.7	25.9	0.00e+00	0	41	0	817889280	40	5564
2026-01-30 17:43:40.38	16.71	15.30	-33.1	-33.7	26.0	0.00e+00	0	41	0	823132160	40	5543
2026-01-30 17:43:41.39	16.65	15.41	-33.1	-33.7	26.0	0.00e+00	0	41	0	829423616	40	5536
2026-01-30 17:43:42.40	16.59	15.51	-33.1	-33.8	25.9	0.00e+00	0	41	0	834666496	40	5590
2026-01-30 17:43:43.40	16.53	15.62	-33.0	-33.7	26.0	0.00e+00	0	41	0	839909376	40	5548
2026-01-30 17:43:44.41	16.47	15.73	-33.1	-33.7	26.1	0.00e+00	0	41	0	846200832	40	5533
2026-01-30 17:43:45.42	16.41	15.83	-33.0	-33.7	26.1	0.00e+00	0	41	0	851443712	40	5520
2026-01-30 17:43:46.43	16.35	15.94	-32.9	-33.5	26.1	0.00e+00	0	41	0	857735168	40	5416
2026-01-30 17:43:47.44	16.29	16.05	-32.9	-33.5	26.2	0.00e+00	0	41	0	862978048	40	5408
2026-01-30 17:43:48.45	16.23	16.15	-33.0	-33.6	26.1	0.00e+00	0	41	0	869269504	40	5485
2026-01-30 17:43:49.46	16.16	16.26	-32.7	-33.4	26.3	0.00e+00	0	41	0	874512384	38	5974
2026-01-30 17:43:50.47	16.10	16.37	-32.7	-33.3	26.3	0.00e+00	0	41	0	880803840	38	5964
2026-01-30 17:43:51.48	16.04	16.48	-32.7	-33.4	26.4	0.00e+00	0	41	0	886046720	38	5980
2026-01-30 17:43:52.49	15.97	16.59	-32.6	-33.3	26.4	0.00e+00	0	41	0	891289600	38	5903
2026-01-30 17:43:53.50	15.91	16.70	-32.6	-33.2	26.4	0.00e+00	0	41	0	897581056	38	5883
2026-01-30 17:43:54.51	15.84	16.81	-32.4	-33.0	26.6	0.00e+00	0	41	0	902823936	38	5735
2026-01-30 17:43:55.52	15.78	16.92	-32.5	-33.1	26.5	0.00e+00	0	41	0	909115392	38	5827
2026-01-30 17:43:56.53	15.71	17.03	-32.5	-33.2	26.5	0.00e+00	0	41	0	914358272	38	5871
2026-01-30 17:43:57.54	15.65	17.15	-32.2	-32.9	26.8	0.00e+00	0	41	0	919601152	38	5657
2026-01-30 17:43:58.55	15.58	17.26	-32.2	-32.8	26.8	0.00e+00	0	41	0	925892608	38	5620
2026-01-30 17:43:59.56	15.51	17.37	-32.2	-32.8	26.7	0.00e+00	0	41	0	931135488	38	5623
2026-01-30 17:44:00.57	15.44	17.48	-32.2	-32.9	26.8	0.00e+00	0	41	0	937426944	38	5660
2026-01-30 17:44:01.58	15.37	17.60	-32.2	-32.9	26.8	0.00e+00	0	41	0	942669824	38	5638
2026-01-30 17:44:02.59	15.30	17.71	-32.2	-32.8	26.8	0.00e+00	0	41	0	947912704	38	5625
2026-01-30 17:44:03.60	15.23	17.83	-32.3	-32.9	26.7	0.00e+00	0	41	0	954204160	38	5675
2026-01-30 17:44:04.61	15.16	17.94	-32.1	-32.7	26.9	0.00e+00	0	41	0	959447040	38	5529
2026-01-30 17:44:05.62	15.09	18.06	-32.0	-32.6	27.0	0.00e+00	0	41	0	965738496	38	5499
2026-01-30 17:44:06.63	15.02	18.18	-32.0	-32.7	27.0	0.00e+00	0	41	0	970981376	38	5512
2026-01-30 17:44:07.64	14.95	18.29	-32.0	-32.6	26.9	0.00e+00	0	41	0	977272832	38	5473
2026-01-30 17:44:08.65	14.88	18.41	-32.0	-32.6	27.0	0.00e+00	0	41	0	982515712	38	5486
2026-01-30 17:44:09.66	14.80	18.53	-32.0	-32.6	27.0	0.00e+00	0	41	0	988807168	38	5488
2026-01-30 17:44:10.67	14.73	18.65	-31.9	-32.6	27.1	0.00e+00	0	41	0	994050048	38	5443
2026-01-30 17:44:11.68	14.65	18.76	-32.0	-32.6	26.9	0.00e+00	0	41	0	999292928	38	5460
2026-01-30 17:44:12.69	14.58	18.88	-32.0	-32.6	27.0	0.00e+00	0	41	0	1005584384	38	5475
2026-01-30 17:44:13.70	14.50	19.00	-31.9	-32.6	27.0	0.00e+00	0	41	0	1010827264	38	5456
2026-01-30 17:44:14.71	14.43	19.12	-32.0	-32.7	27.0	0.00e+00	0	41	0	1017118720	38	5522
2026-01-30 17:44:15.72	14.35	19.25	-31.9	-32.6	27.1	0.00e+00	0	41	0	1022361600	38	5449
2026-01-30 17:44:16.73	14.27	19.37	-31.9	-32.6	27.0	0.00e+00	0	41	0	1027604480	38	5449
2026-01-30 17:44:17.74	14.19	19.49	-32.1	-32.7	27.0	0.00e+00	0	41	0	1033895936	38	5532
2026-01-30 17:44:18.75	14.11	19.61	-31.9	-32.5	27.1	0.00e+00	0	41	0	1039138816	38	5418
2026-01-30 17:44:19.76	14.04	19.74	-32.0	-32.6	27.0	0.00e+00	0	41	0	1045430272	38	5459
2026-01-30 17:44:20.77	13.95	19.86	-31.8	-32.4	27.1	0.00e+00	0	41	0	1050673152	38	5374
2026-01-30 17:44:21.78	13.87	19.98	-31.9	-32.5	27.0	0.00e+00	0	41	0	1055916032	38	5423
2026-01-30 17:44:22.79	13.79	20.11	-32.1	-32.7	27.1	0.00e+00	0	41	0	1062207488	38	5536
2026-01-30 17:44:23.80	13.71	20.23	-31.9	-32.5	27.1	0.00e+00	0	41	0	1067450368	38	5433
2026-01-30 17:44:24.81	13.63	20.36	-32.0	-32.6	27.0	0.00e+00	0	41	0	1073741824	38	5495
2026-01-30 17:44:25.82	13.54	20.49	-32.1	-32.8	27.0	0.00e+00	0	41	0	1078984704	38	5577
2026-01-30 17:44:26.83	13.46	20.61	-32.0	-32.6	27.0	0.00e+00	0	41	0	1085276160	38	5489
2026-01-30 17:44:27.84	13.37	20.74	-32.1	-32.8	26.9	0.00e+00	0	41	0	1090519040	38	5570
2026-01-30 17:44:28.85	13.29	20.87	-31.8	-32.5	27.1	0.00e+00	0	41	0	1095761920	38	5403
2026-01-30 17:44:29.86	13.20	21.00	-32.1	-32.7	27.1	0.00e+00	0	41	0	1102053376	38	5527
2026-01-30 17:44:30.87	13.11	21.13	-31.6	-32.3	27.3	0.00e+00	0	41	0	1107296256	36	5906
2026-01-30 17:44:31.89	13.02	21.26	-31.6	-32.2	27.4	0.00e+00	0	41	0	1113587712	36	5835
2026-01-30 17:44:32.89	12.93	21.39	-31.5	-32.1	27.4	0.00e+00	0	41	0	1118830592	36	5819
2026-01-30 17:44:33.90	12.84	21.52	-31.5	-32.1	27.4	0.00e+00	0	41	0	1124073472	36	5823
2026-01-30 17:44:34.92	12.75	21.65	-31.5	-32.1	27.4	0.00e+00	0	41	0	1130364928	36	5783
2026-01-30 17:44:35.92	12.66	21.78	-31.5	-32.2	27.4	0.00e+00	0	41	0	1135607808	36	5841
2026-01-30 17:44:36.93	12.57	21.92	-31.7	-32.3	27.4	0.00e+00	0	41	0	1141899264	36	5920
2026-01-30 17:44:37.94	12.48	22.05	-31.6	-32.3	27.4	0.00e+00	0	41	0	1147142144	36	5899
2026-01-30 17:44:38.95	12.38	22.19	-31.6	-32.2	27.4	0.00e+00	0	41	0	1152385024	36	5882
2026-01-30 17:44:39.96	12.29	22.32	-31.6	-32.2	27.5	0.00e+00	0	41	0	1158676480	36	5861
2026-01-30 17:44:40.97	12.19	22.46	-31.6	-32.2	27.4	0.00e+00	0	41	0	1163919360	36	5875
2026-01-30 17:44:41.98	12.09	22.59	-31.5	-32.1	27.4	0.00e+00	0	41	0	1170210816	36	5821
2026-01-30 17:44:42.99	12.00	22.73	-31.4	-32.1	27.5	0.00e+00	0	41	0	1175453696	36	5783
2026-01-30 17:44:44.00	11.90	22.87	-31.4	-32.1	27.5	0.00e+00	0	41	0	1181745152	36	5774
2026-01-30 17:44:45.01	11.80	23.01	-31.3	-32.0	27.6	0.00e+00	0	41	0	1186988032	36	5700
2026-01-30 17:44:46.03	11.70	23.15	-31.4	-32.0	27.6	0.00e+00	0	41	0	1193279488	36	5722
2026-01-30 17:44:47.04	11.60	23.29	-31.2	-31.8	27.6	0.00e+00	0	41	0	1198522368	36	5621
2026-01-30 17:44:48.05	11.49	23.43	-31.3	-31.9	27.7	0.00e+00	0	41	0	1203765248	36	5656
2026-01-30 17:44:49.05	11.39	23.57	-31.1	-31.7	27.8	0.00e+00	0	41	0	1210056704	36	5547
2026-01-30 17:44:50.06	11.29	23.71	-31.1	-31.7	27.8	0.00e+00	0	41	0	1215299584	36	5548
2026-01-30 17:44:51.08	11.18	23.85	-31.0	-31.6	27.9	0.00e+00	0	41	0	1221591040	36	5487
2026-01-30 17:44:52.09	11.08	23.99	-31.0	-31.6	28.0	0.00e+00	0	41	0	1226833920	36	5459
2026-01-30 17:44:53.10	10.97	24.14	-31.1	-31.7	27.9	0.00e+00	0	41	0	1232076800	36	5522
2026-01-30 17:44:54.11	10.86	24.28	-31.0	-31.6	27.9	0.00e+00	0	41	0	1238368256	36	5464
2026-01-30 17:44:55.12	10.75	24.43	-31.0	-31.6	27.9	0.00e+00	0	41	0	1243611136	36	5464
2026-01-30 17:44:56.13	10.64	24.57	-31.1	-31.7	27.9	0.00e+00	0	41	0	1249902592	36	5516
2026-01-30 17:44:57.14	10.53	24.72	-31.1	-31.7	27.7	0.00e+00	0	41	0	1255145472	36	5559
2026-01-30 17:44:58.15	10.42	24.86	-31.1	-31.8	27.7	0.00e+00	0	41	0	1260388352	36	5580
2026-01-30 17:44:59.16	10.30	25.01	-31.2	-31.8	27.6	0.00e+00	0	41	0	1266679808	36	5630
2026-01-30 17:45:00.17	10.19	25.16	-31.3	-32.0	27.6	0.00e+00	0	41	0	1271922688	36	5715
2026-01-30 17:45:01.18	10.07	25.31	-31.3	-31.9	27.7	0.00e+00	0	41	0	1278214144	36	5689
2026-01-30 17:45:02.19	9.96	25.46	-31.2	-31.8	27.7	0.00e+00	0	41	0	1283457024	36	5591
2026-01-30 17:45:03.20	9.84	25.61	-31.1	-31.8	27.8	0.00e+00	0	41	0	1289748480	36	5567
2026-01-30 17:45:04.21	9.72	25.76	-31.0	-31.6	27.9	0.00e+00	0	41	0	1294991360	36	5485
2026-01-30 17:45:05.22	9.60	25.91	-30.9	-31.5	28.0	0.00e+00	0	41	0	1301282816	36	5403
2026-01-30 17:45:06.23	9.48	26.07	-30.8	-31.4	28.0	0.00e+00	0	41	0	1306525696	36	5371
2026-01-30 17:45:07.24	9.36	26.22	-30.9	-31.5	28.0	0.00e+00	0	41	0	1311768576	36	5383
2026-01-30 17:45:08.25	9.23	26.37	-30.8	-31.4	28.1	0.00e+00	0	41	0	1318060032	36	5345
2026-01-30 17:45:09.26	9.11	26.53	-30.8	-31.4	28.1	0.00e+00	0	41	0	1323302912	36	5345
2026-01-30 17:45:10.27	8.98	26.68	-30.7	-31.4	28.1	0.00e+00	0	41	0	1329594368	34	5975
2026-01-30 17:45:11.28	8.85	26.84	-30.7	-31.3	28.2	0.00e+00	0	41	0	1334837248	34	5911
2026-01-30 17:45:12.29	8.72	27.00	-30.7	-31.3	28.1	0.00e+00	0	41	0	1340080128	34	5955
2026-01-30 17:45:13.30	8.59	27.15	-30.6	-31.3	28.2	0.00e+00	0	41	0	1346371584	34	5897
2026-01-30 17:45:14.31	8.46	27.31	-30.7	-31.3	28.1	0.00e+00	0	41	0	1351614464	34	5919
2026-01-30 17:45:15.32	8.33	27.47	-30.7	-31.3	28.1	0.00e+00	0	41	0	1357905920	34	5951
2026-01-30 17:45:16.33	8.20	27.63	-30.9	-31.5	28.0	0.00e+00	0	41	0	1363148800	34	6053
2026-01-30 17:45:17.34	8.06	27.79	-30.8	-31.4	28.1	0.00e+00	0	41	0	1368391680	34	6030
2026-01-30 17:45:18.35	7.92	27.95	-30.8	-31.4	28.0	0.00e+00	0	41	0	1374683136	34	5995
2026-01-30 17:45:19.36	7.78	28.12	-30.7	-31.3	28.1	0.00e+00	0	41	0	1379926016	34	5941
2026-01-30 17:45:20.37	7.64	28.28	-30.7	-31.3	28.2	0.00e+00	0	41	0	1386217472	34	5919
2026-01-30 17:45:21.38	7.50	28.44	-30.8	-31.3	28.2	0.00e+00	0	41	0	1391460352	34	5961
2026-01-30 17:45:22.39	7.36	28.61	-30.7	-31.3	28.3	0.00e+00	0	41	0	1397751808	34	5898
2026-01-30 17:45:23.40	7.22	28.77	-30.4	-31.0	28.3	0.00e+00	0	41	0	1402994688	34	5755
2026-01-30 17:45:24.41	7.07	28.94	-30.5	-31.1	28.4	0.00e+00	0	41	0	1409286144	34	5768
2026-01-30 17:45:25.42	6.92	29.11	-30.4	-31.1	28.4	0.00e+00	0	41	0	1414529024	34	5764
2026-01-30 17:45:26.43	6.77	29.28	-30.3	-30.9	28.5	0.00e+00	0	41	0	1419771904	34	5632
2026-01-30 17:45:27.44	6.62	29.44	-30.3	-30.9	28.5	0.00e+00	0	41	0	1426063360	34	5671
2026-01-30 17:45:28.45	6.47	29.61	-30.3	-30.9	28.4	0.00e+00	0	41	0	1431306240	34	5676
2026-01-30 17:45:29.46	6.32	29.78	-30.5	-31.1	28.4	0.00e+00	0	41	0	1437597696	34	5806
2026-01-30 17:45:30.47	6.16	29.95	-30.5	-31.1	28.3	0.00e+00	0	41	0	1442840576	34	5818
2026-01-30 17:45:31.48	6.00	30.13	-30.6	-31.1	28.3	0.00e+00	0	41	0	1448083456	34	5809
2026-01-30 17:45:32.49	5.84	30.30	-30.4	-31.0	28.4	0.00e+00	0	41	0	1454374912	34	5749
2026-01-30 17:45:33.50	5.68	30.47	-30.3	-30.9	28.5	0.00e+00	0	41	0	1459617792	34	5683
2026-01-30 17:45:34.52	5.52	30.65	-30.3	-30.8	28.5	0.00e+00	0	41	0	1465909248	34	5617
2026-01-30 17:45:35.53	5.35	30.82	-30.4	-31.0	28.4	0.00e+00	0	41	0	1471152128	34	5713
2026-01-30 17:45:36.53	5.19	31.00	-30.4	-31.0	28.5	0.00e+00	0	41	0	1476395008	34	5729
2026-01-30 17:45:37.54	5.02	31.17	-30.1	-30.7	28.5	0.00e+00	0	41	0	1482686464	34	5530
2026-01-30 17:45:38.55	4.85	31.35	-30.2	-30.8	28.5	0.00e+00	0	41	0	1487929344	34	5575
2026-01-30 17:45:39.56	4.68	31.53	-30.0	-30.6	28.6	0.00e+00	0	41	0	1494220800	34	5472
2026-01-30 17:45:40.57	4.50	31.71	-29.9	-30.5	28.7	0.00e+00	0	41	0	1499463680	34	5422
2026-01-30 17:45:41.59	4.33	31.89	-30.0	-30.6	28.6	0.00e+00	0	41	0	1505755136	34	5462
2026-01-30 17:45:42.60	4.15	32.07	-30.1	-30.7	28.6	0.00e+00	0	41	0	1510998016	34	5540
2026-01-30 17:45:43.61	3.97	32.25	-30.1	-30.7	28.6	0.00e+00	0	41	0	1516240896	34	5508
2026-01-30 17:45:44.62	3.79	32.43	-30.1	-30.7	28.5	0.00e+00	0	41	0	1522532352	34	5552
2026-01-30 17:45:45.62	3.60	32.61	-30.2	-30.7	28.5	0.00e+00	0	41	0	1527775232	34	5555
2026-01-30 17:45:46.64	3.42	32.80	-30.1	-30.7	28.6	0.00e+00	0	41	0	1534066688	34	5517
2026-01-30 17:45:47.65	3.23	32.98	-30.2	-30.8	28.5	0.00e+00	0	41	0	1539309568	34	5601
2026-01-30 17:45:48.66	3.04	33.17	-30.1	-30.7	28.6	0.00e+00	0	41	0	1544552448	34	5527
2026-01-30 17:45:49.67	2.84	33.35	-30.2	-30.8	28.5	0.00e+00	0	41	0	1550843904	34	5600
2026-01-30 17:45:50.68	2.65	33.54	-30.1	-30.6	28.6	0.00e+00	0	41	0	1556086784	34	5483
2026-01-30 17:45:51.69	2.45	33.72	-29.9	-30.5	28.8	0.00e+00	0	41	0	1562378240	34	5380
2026-01-30 17:45:52.70	2.25	33.91	-30.0	-30.6	28.7	0.00e+00	0	41	0	1567621120	34	5463
2026-01-30 17:45:53.71	2.05	34.10	-29.9	-30.5	28.7	0.00e+00	0	41	0	1573912576	34	5422
2026-01-30 17:45:54.72	1.85	34.29	-29.9	-30.5	28.8	0.00e+00	0	41	0	1579155456	34	5418
2026-01-30 17:45:55.73	1.64	34.48	-29.9	-30.5	28.7	0.00e+00	0	41	0	1584398336	34	5411
2026-01-30 17:45:56.74	1.43	34.67	-29.9	-30.5	28.7	0.00e+00	0	41	0	1590689792	34	5436
2026-01-30 17:45:57.75	1.22	34.86	-29.9	-30.6	28.7	0.00e+00	0	41	0	1595932672	34	5443
2026-01-30 17:45:58.76	1.00	35.06	-29.9	-30.5	28.8	0.00e+00	0	41	0	1602224128	34	5424
2026-01-30 17:45:59.77	0.79	35.25	-30.0	-30.6	28.7	0.00e+00	0	41	0	1607467008	34	5459
2026-01-30 17:46:00.78	0.57	35.44	-29.9	-30.5	28.7	0.00e+00	0	41	0	1613758464	34	5428
2026-01-30 17:46:01.79	0.34	35.64	-30.1	-30.7	28.5	0.00e+00	0	41	0	1619001344	34	5554
2026-01-30 17:46:02.80	0.12	35.83	-30.1	-30.7	28.6	0.00e+00	0	41	0	1624244224	34	5553
2026-01-30 17:46:03.81	359.89	36.03	-30.2	-30.7	28.4	0.00e+00	0	41	0	1630535680	34	5561
2026-01-30 17:46:04.82	359.66	36.23	-30.1	-30.7	28.6	0.00e+00	0	41	0	1635778560	34	5556
2026-01-30 17:46:05.83	359.43	36.42	-30.2	-30.8	28.6	0.00e+00	0	41	0	1642070016	34	5567
2026-01-30 17:46:06.84	359.19	36.62	-30.0	-30.6	28.7	0.00e+00	0	41	0	1647312896	34	5462
2026-01-30 17:46:07.85	358.95	36.82	-30.1	-30.7	28.6	0.00e+00	0	41	0	1652555776	34	5506
2026-01-30 17:46:08.86	358.71	37.02	-30.3	-30.9	28.4	0.00e+00	0	41	0	1658847232	34	5645
2026-01-30 17:46:09.87	358.46	37.22	-30.4	-31.0	28.4	0.00e+00	0	41	0	1664090112	34	5714
2026-01-30 17:46:10.88	358.22	37.42	-30.5	-31.1	28.3	0.00e+00	0	41	0	1670381568	34	5804
2026-01-30 17:46:11.89	357.96	37.62	-30.5	-31.2	28.2	0.00e+00	0	41	0	1675624448	34	5842
2026-01-30 17:46:12.90	357.71	37.82	-30.5	-31.1	28.4	0.00e+00	0	41	0	1680867328	34	5799
2026-01-30 17:46:13.91	357.45	38.02	-30.2	-30.8	28.5	0.00e+00	0	41	0	1687158784	34	5622
2026-01-30 17:46:14.92	357.19	38.22	-30.3	-30.9	28.5	0.00e+00	0	41	0	1692401664	34	5659
2026-01-30 17:46:15.93	356.93	38.43	-30.4	-31.0	28.4	0.00e+00	0	41	0	1698693120	34	5712
2026-01-30 17:46:16.94	356.66	38.63	-30.3	-31.0	28.4	0.00e+00	0	41	0	1703936000	34	5701
2026-01-30 17:46:17.96	356.39	38.84	-30.3	-30.8	28.5	0.00e+00	0	41	0	1710227456	34	5617
2026-01-30 17:46:18.96	356.11	39.04	-30.1	-30.7	28.6	0.00e+00	0	41	0	1715470336	34	5556
2026-01-30 17:46:19.97	355.84	39.24	-30.2	-30.8	28.5	0.00e+00	0	41	0	1721761792	34	5571
2026-01-30 17:46:20.98	355.55	39.45	-30.2	-30.7	28.5	0.00e+00	0	41	0	1727004672	34	5564
2026-01-30 17:46:22.00	355.27	39.66	-30.1	-30.7	28.6	0.00e+00	0	41	0	1732247552	34	5556
2026-01-30 17:46:23.01	354.98	39.86	-30.2	-30.8	28.6	0.00e+00	0	41	0	1738539008	34	5571
2026-01-30 17:46:24.02	354.68	40.07	-30.2	-30.8	28.5	0.00e+00	0	41	0	1743781888	34	5601
2026-01-30 17:46:25.02	354.39	40.28	-30.4	-30.9	28.4	0.00e+00	0	41	0	1750073344	34	5692
2026-01-30 17:46:26.03	354.09	40.48	-30.4	-31.1	28.3	0.00e+00	0	41	0	1755316224	34	5768
2026-01-30 17:46:27.05	353.78	40.69	-30.4	-31.0	28.3	0.00e+00	0	41	0	1760559104	34	5738
2026-01-30 17:46:28.06	353.47	40.90	-30.3	-30.9	28.4	0.00e+00	0	41	0	1766850560	34	5670
2026-01-30 17:46:29.07	353.16	41.11	-30.5	-31.1	28.3	0.00e+00	0	41	0	1772093440	34	5821
2026-01-30 17:46:30.08	352.84	41.32	-30.4	-31.0	28.3	0.00e+00	0	41	0	1778384896	34	5750
2026-01-30 17:46:31.09	352.52	41.53	-30.5	-31.1	28.3	0.00e+00	0	41	0	1783627776	34	5775
2026-01-30 17:46:32.10	352.20	41.73	-30.5	-31.1	28.2	0.00e+00	0	41	0	1788870656	34	5810
2026-01-30 17:46:33.11	351.87	41.94	-30.5	-31.1	28.4	0.00e+00	0	41	0	1795162112	34	5828
2026-01-30 17:46:34.12	351.54	42.15	-30.6	-31.2	28.2	0.00e+00	0	41	0	1800404992	34	5836
2026-01-30 17:46:35.13	351.20	42.36	-30.5	-31.2	28.3	0.00e+00	0	41	0	1806696448	34	5862
2026-01-30 17:46:36.14	350.86	42.57	-30.3	-30.9	28.4	0.00e+00	0	41	0	1811939328	34	5660
2026-01-30 17:46:37.16	350.51	42.78	-30.0	-30.6	28.6	0.00e+00	0	41	0	1818230784	34	5463
2026-01-30 17:46:38.16	350.16	42.99	-30.2	-30.8	28.6	0.00e+00	0	41	0	1823473664	34	5602
2026-01-30 17:46:39.17	349.80	43.20	-30.2	-30.8	28.5	0.00e+00	0	41	0	1829765120	34	5614
2026-01-30 17:46:40.19	349.44	43.41	-30.3	-30.9	28.4	0.00e+00	0	41	0	1835008000	34	5678
2026-01-30 17:46:41.20	349.07	43.62	-30.5	-31.1	28.3	0.00e+00	0	41	0	1840250880	34	5783
2026-01-30 17:46:42.21	348.70	43.83	-30.5	-31.1	28.3	0.00e+00	0	41	0	1846542336	34	5772
2026-01-30 17:46:43.22	348.32	44.03	-30.4	-30.9	28.4	0.00e+00	0	41	0	1851785216	34	5679
2026-01-30 17:46:44.23	347.94	44.24	-30.3	-30.9	28.5	0.00e+00	0	41	0	1858076672	34	5654
2026-01-30 17:46:45.24	347.56	44.45	-30.4	-31.0	28.4	0.00e+00	0	41	0	1863319552	34	5757
2026-01-30 17:46:46.25	347.17	44.66	-30.6	-31.2	28.3	0.00e+00	0	41	0	1868562432	34	5839
2026-01-30 17:46:47.26	346.77	44.86	-30.5	-31.1	28.3	0.00e+00	0	41	0	1874853888	34	5805
2026-01-30 17:46:48.27	346.37	45.07	-30.7	-31.3	28.1	0.00e+00	0	41	0	1880096768	34	5938
2026-01-30 17:46:49.28	345.97	45.27	-30.6	-31.3	28.1	0.00e+00	0	41	0	1886388224	34	5898
2026-01-30 17:46:50.29	345.55	45.48	-30.7	-31.3	28.2	0.00e+00	0	41	0	1891631104	34	5926
2026-01-30 17:46:51.31	345.13	45.69	-30.6	-31.2	28.1	0.00e+00	0	41	0	1896873984	34	5881
2026-01-30 17:46:52.32	344.71	45.89	-30.7	-31.3	28.1	0.00e+00	0	41	0	1903165440	34	5938
2026-01-30 17:46:53.33	344.28	46.09	-30.6	-31.2	28.2	0.00e+00	0	41	0	1908408320	34	5860
2026-01-30 17:46:54.34	343.85	46.30	-30.8	-31.4	28.1	0.00e+00	0	41	0	1914699776	34	6007
2026-01-30 17:46:55.35	343.41	46.50	-30.8	-31.4	28.1	0.00e+00	0	41	0	1919942656	34	5984
2026-01-30 17:46:56.36	342.96	46.70	-30.6	-31.2	28.2	0.00e+00	0	41	0	1926234112	34	5873
2026-01-30 17:46:57.37	342.51	46.90	-30.6	-31.2	28.3	0.00e+00	0	41	0	1931476992	34	5840
2026-01-30 17:46:58.38	342.06	47.10	-30.8	-31.3	28.2	0.00e+00	0	41	0	1937768448	34	5958
2026-01-30 17:46:59.39	341.59	47.29	-30.9	-31.5	28.0	0.00e+00	0	41	0	1943011328	34	6093
2026-01-30 17:47:00.40	341.13	47.49	-31.0	-31.7	28.0	0.00e+00	0	41	0	1948254208	34	6175
2026-01-30 17:47:01.41	340.65	47.69	-31.0	-31.6	28.0	0.00e+00	0	41	0	1954545664	34	6167
2026-01-30 17:47:02.42	340.17	47.88	-31.1	-31.7	27.9	0.00e+00	0	41	0	1959788544	34	6228
2026-01-30 17:47:03.43	339.68	48.07	-31.1	-31.7	27.9	0.00e+00	0	41	0	1966080000	34	6200
2026-01-30 17:47:04.44	339.19	48.26	-31.2	-31.8	27.8	0.00e+00	0	41	0	1971322880	34	6275
2026-01-30 17:47:05.45	338.69	48.45	-31.3	-32.0	27.7	0.00e+00	0	41	0	1976565760	34	6399
2026-01-30 17:47:06.46	338.19	48.64	-31.4	-32.0	27.7	0.00e+00	0	41	0	1982857216	34	6451
2026-01-30 17:47:07.47	337.68	48.83	-31.5	-32.1	27.5	0.00e+00	0	41	0	1988100096	34	6495
2026-01-30 17:47:08.48	337.16	49.01	-31.6	-32.2	27.5	0.00e+00	0	41	0	1994391552	34	6597
2026-01-30 17:47:09.49	336.64	49.19	-31.4	-32.1	27.7	0.00e+00	0	41	0	1999634432	34	6472
2026-01-30 17:47:10.50	336.11	49.38	-31.4	-32.0	27.6	0.00e+00	0	41	0	2004877312	34	6451
2026-01-30 17:47:11.51	335.57	49.55	-31.0	-31.6	28.0	0.00e+00	0	41	0	2011168768	34	6156
2026-01-30 17:47:12.52	335.03	49.73	-31.3	-31.9	27.8	0.00e+00	0	41	0	2016411648	34	6331
2026-01-30 17:47:13.53	334.48	49.91	-31.7	-32.3	27.4	0.00e+00	0	41	0	2022703104	34	6685
2026-01-30 17:47:14.54	333.92	50.08	-32.0	-32.6	27.3	0.00e+00	0	41	0	2027945984	36	6139
2026-01-30 17:47:15.55	333.36	50.25	-31.8	-32.4	27.3	0.00e+00	0	41	0	2034237440	36	5996
2026-01-30 17:47:16.56	332.79	50.42	-31.6	-32.2	27.5	0.00e+00	0	41	0	2039480320	36	5864
2026-01-30 17:47:17.57	332.22	50.58	-31.4	-32.0	27.7	0.00e+00	0	41	0	2045771776	36	5736
2026-01-30 17:47:18.58	331.64	50.75	-31.5	-32.2	27.5	0.00e+00	0	41	0	2051014656	36	5835
2026-01-30 17:47:19.59	331.05	50.91	-31.9	-32.5	27.2	0.00e+00	0	41	0	2056257536	36	6073
2026-01-30 17:47:20.60	330.46	51.07	-31.8	-32.4	27.3	0.00e+00	0	41	0	2062548992	36	6025
2026-01-30 17:47:21.61	329.86	51.22	-31.2	-31.8	27.8	0.00e+00	0	41	0	2067791872	36	5598
2026-01-30 17:47:22.62	329.25	51.37	-31.1	-31.7	27.9	0.00e+00	0	41	0	2074083328	36	5530
2026-01-30 17:47:23.63	328.64	51.52	-31.3	-31.9	27.6	0.00e+00	0	41	0	2079326208	36	5675
2026-01-30 17:47:24.64	328.02	51.67	-31.4	-32.1	27.6	0.00e+00	0	41	0	2084569088	36	5774
2026-01-30 17:47:25.65	327.40	51.81	-31.6	-32.2	27.4	0.00e+00	0	41	0	2090860544	36	5861
2026-01-30 17:47:26.66	326.77	51.95	-31.6	-32.2	27.5	0.00e+00	0	41	0	2096103424	36	5881
2026-01-30 17:47:27.67	326.13	52.09	-31.2	-31.9	27.8	0.00e+00	0	41	0	2102394880	36	5634
2026-01-30 17:47:28.68	325.49	52.23	-31.1	-31.7	27.9	0.00e+00	0	41	0	2107637760	36	5509
2026-01-30 17:47:29.69	324.84	52.36	-31.0	-31.7	27.9	0.00e+00	0	41	0	2112880640	36	5504
2026-01-30 17:47:30.70	324.19	52.48	-31.1	-31.7	27.8	0.00e+00	0	41	0	2119172096	36	5554
2026-01-30 17:47:31.71	323.53	52.61	-31.2	-31.7	27.8	0.00e+00	0	41	0	2124414976	36	5562
2026-01-30 17:47:32.72	322.86	52.73	-31.3	-31.9	27.7	0.00e+00	0	41	0	2130706432	36	5681
2026-01-30 17:47:33.73	322.19	52.84	-31.0	-31.6	27.9	0.00e+00	0	41	0	2135949312	36	5500
2026-01-30 17:47:34.75	321.51	52.95	-31.0	-31.6	28.0	0.00e+00	0	41	0	2142240768	36	5489
2026-01-30 17:47:35.76	320.83	53.06	-30.9	-31.5	28.1	0.00e+00	0	41	0	2147483648	36	5392
2026-01-30 17:47:36.77	320.14	53.17	-30.9	-31.5	27.9	0.00e+00	0	41	0	2153775104	36	5438
2026-01-30 17:47:37.78	319.45	53.27	-30.6	-31.2	28.2	0.00e+00	0	41	0	2159017984	34	5887
2026-01-30 17:47:38.79	318.76	53.36	-30.6	-31.2	28.2	0.00e+00	0	41	0	2164260864	34	5875
2026-01-30 17:47:39.80	318.06	53.45	-30.8	-31.5	28.0	0.00e+00	0	41	0	2170552320	34	6044
2026-01-30 17:47:40.81	317.36	53.54	-31.0	-31.6	28.0	0.00e+00	0	41	0	2175795200	34	6116
2026-01-30 17:47:41.82	316.65	53.63	-31.1	-31.6	27.9	0.00e+00	0	41	0	2182086656	34	6167
2026-01-30 17:47:42.83	315.93	53.71	-31.4	-32.0	27.6	0.00e+00	0	41	0	2187329536	34	6417
2026-01-30 17:47:43.84	315.22	53.78	-31.2	-31.8	27.7	0.00e+00	0	41	0	2192572416	34	6312
2026-01-30 17:47:44.85	314.50	53.85	-30.9	-31.6	28.0	0.00e+00	0	41	0	2198863872	34	6122
2026-01-30 17:47:45.86	313.78	53.92	-30.5	-31.0	28.2	0.00e+00	0	41	0	2204106752	34	5759
2026-01-30 17:47:46.87	313.05	53.98	-30.9	-31.5	27.9	0.00e+00	0	41	0	2210398208	34	6066
2026-01-30 17:47:47.89	312.31	54.03	-31.3	-31.9	27.6	0.00e+00	0	41	0	2215641088	34	6343
2026-01-30 17:47:48.90	311.58	54.09	-31.1	-31.7	27.8	0.00e+00	0	41	0	2220883968	34	6218
2026-01-30 17:47:49.91	310.85	54.13	-31.2	-31.8	27.8	0.00e+00	0	41	0	2227175424	34	6295
2026-01-30 17:47:50.92	310.11	54.18	-31.8	-32.4	27.4	0.00e+00	0	41	0	2232418304	34	6739
2026-01-30 17:47:51.93	309.37	54.21	-31.6	-32.2	27.4	0.00e+00	0	41	0	2238709760	36	5885
2026-01-30 17:47:52.94	308.63	54.25	-31.6	-32.2	27.4	0.00e+00	0	41	0	2243952640	36	5896
2026-01-30 17:47:53.95	307.89	54.27	-31.3	-31.9	27.7	0.00e+00	0	41	0	2250244096	36	5690
2026-01-30 17:47:54.96	307.14	54.30	-31.1	-31.8	27.8	0.00e+00	0	41	0	2255486976	36	5567
2026-01-30 17:47:55.97	306.40	54.32	-31.3	-32.0	27.7	0.00e+00	0	41	0	2261778432	36	5716
2026-01-30 17:47:56.98	305.65	54.33	-31.4	-32.0	27.7	0.00e+00	0	41	0	2267021312	36	5733
2026-01-30 17:47:57.99	304.90	54.34	-31.4	-32.1	27.8	0.00e+00	0	41	0	2272264192	36	5763
2026-01-30 17:47:59.00	304.16	54.34	-30.8	-31.4	28.1	0.00e+00	0	41	0	2278555648	36	5361
2026-01-30 17:48:00.01	303.41	54.34	-31.0	-31.6	27.9	0.00e+00	0	41	0	2283798528	36	5501
2026-01-30 17:48:01.02	302.66	54.33	-31.3	-32.0	27.7	0.00e+00	0	41	0	2290089984	36	5717
2026-01-30 17:48:02.03	301.92	54.32	-31.3	-31.9	27.7	0.00e+00	0	41	0	2295332864	36	5655
2026-01-30 17:48:03.04	301.17	54.31	-31.7	-32.3	27.3	0.00e+00	0	41	0	2300575744	36	5921
2026-01-30 17:48:04.05	300.43	54.29	-31.9	-32.6	27.2	0.00e+00	0	41	0	2306867200	36	6110
2026-01-30 17:48:05.07	299.68	54.26	-31.5	-32.2	27.4	0.00e+00	0	41	0	2312110080	36	5840
2026-01-30 17:48:06.08	298.94	54.23	-31.5	-32.1	27.4	0.00e+00	0	41	0	2318401536	36	5775
2026-01-30 17:48:07.09	298.20	54.19	-31.3	-31.9	27.6	0.00e+00	0	41	0	2323644416	36	5635
2026-01-30 17:48:08.10	297.46	54.15	-31.3	-31.9	27.7	0.00e+00	0	41	0	2328887296	36	5649
2026-01-30 17:48:09.11	296.72	54.11	-31.4	-32.1	27.6	0.00e+00	0	41	0	2335178752	36	5790
2026-01-30 17:48:10.12	295.99	54.06	-31.4	-32.0	27.7	0.00e+00	0	41	0	2340421632	36	5720
2026-01-30 17:48:11.13	295.26	54.01	-31.3	-31.9	27.7	0.00e+00	0	41	0	2346713088	36	5675
2026-01-30 17:48:12.14	294.53	53.95	-31.0	-31.6	27.9	0.00e+00	0	41	0	2351955968	36	5482
2026-01-30 17:48:13.15	293.80	53.88	-31.1	-31.7	27.9	0.00e+00	0	41	0	2358247424	36	5553
2026-01-30 17:48:14.16	293.08	53.81	-31.2	-31.8	27.7	0.00e+00	0	41	0	2363490304	36	5625
2026-01-30 17:48:15.17	292.36	53.74	-31.5	-32.2	27.5	0.00e+00	0	41	0	2369781760	36	5855
2026-01-30 17:48:16.18	291.65	53.67	-31.4	-32.1	27.6	0.00e+00	0	41	0	2375024640	36	5787
2026-01-30 17:48:17.19	290.94	53.58	-31.3	-31.9	27.8	0.00e+00	0	41	0	2380267520	36	5654
2026-01-30 17:48:18.20	290.23	53.50	-31.2	-31.7	27.9	0.00e+00	0	41	0	2386558976	36	5560
2026-01-30 17:48:19.22	289.52	53.41	-31.3	-31.9	27.8	0.00e+00	0	41	0	2391801856	36	5652
2026-01-30 17:48:20.23	288.82	53.31	-31.1	-31.7	27.8	0.00e+00	0	41	0	2398093312	36	5563
2026-01-30 17:48:21.24	288.13	53.21	-31.1	-31.7	27.9	0.00e+00	0	41	0	2403336192	36	5536
2026-01-30 17:48:22.25	287.44	53.11	-30.9	-31.5	28.0	0.00e+00	0	41	0	2408579072	36	5428
2026-01-30 17:48:23.26	286.76	53.01	-31.0	-31.6	27.9	0.00e+00	0	41	0	2414870528	36	5445
2026-01-30 17:48:24.27	286.08	52.90	-31.0	-31.6	28.1	0.00e+00	0	41	0	2420113408	36	5477
2026-01-30 17:48:25.28	285.40	52.78	-30.9	-31.5	28.1	0.00e+00	0	41	0	2426404864	36	5381
2026-01-30 17:48:26.29	284.74	52.66	-30.9	-31.5	28.0	0.00e+00	0	41	0	2431647744	36	5378
2026-01-30 17:48:27.30	284.07	52.54	-31.1	-31.8	27.9	0.00e+00	0	41	0	2436890624	36	5568
2026-01-30 17:48:28.31	283.42	52.42	-31.2	-31.9	27.7	0.00e+00	0	41	0	2443182080	36	5641
2026-01-30 17:48:29.32	282.77	52.29	-31.0	-31.6	27.8	0.00e+00	0	41	0	2448424960	36	5493
2026-01-30 17:48:30.33	282.12	52.16	-30.8	-31.4	28.1	0.00e+00	0	41	0	2454716416	36	5319
2026-01-30 17:48:31.34	281.48	52.02	-30.9	-31.5	28.0	0.00e+00	0	41	0	2459959296	34	6053
2026-01-30 17:48:32.35	280.85	51.88	-30.9	-31.4	28.0	0.00e+00	0	41	0	2466250752	34	6008
2026-01-30 17:48:33.36	280.22	51.74	-30.9	-31.6	27.9	0.00e+00	0	41	0	2471493632	34	6141
2026-01-30 17:48:34.37	279.60	51.59	-31.0	-31.7	27.9	0.00e+00	0	41	0	2477785088	34	6193
2026-01-30 17:48:35.38	278.98	51.44	-31.0	-31.6	27.9	0.00e+00	0	41	0	2483027968	34	6170
2026-01-30 17:48:36.39	278.37	51.29	-31.1	-31.7	27.8	0.00e+00	0	41	0	2488270848	34	6190
2026-01-30 17:48:37.41	277.76	51.14	-30.9	-31.5	28.1	0.00e+00	0	41	0	2494562304	34	6034
2026-01-30 17:48:38.42	277.16	50.98	-30.8	-31.3	28.2	0.00e+00	0	41	0	2499805184	34	5951
2026-01-30 17:48:39.42	276.58	50.82	-30.8	-31.5	28.1	0.00e+00	0	41	0	2506096640	34	6089
2026-01-30 17:48:40.43	275.99	50.66	-31.0	-31.6	28.0	0.00e+00	0	41	0	2511339520	34	6149
2026-01-30 17:48:41.45	275.41	50.49	-31.1	-31.6	27.9	0.00e+00	0	41	0	2516582400	34	6164
2026-01-30 17:48:42.45	274.84	50.33	-31.0	-31.7	28.0	0.00e+00	0	41	0	2522873856	34	6184
2026-01-30 17:48:43.46	274.28	50.16	-30.8	-31.5	28.1	0.00e+00	0	41	0	2528116736	34	6042
2026-01-30 17:48:44.47	273.72	49.99	-30.9	-31.5	28.0	0.00e+00	0	41	0	2534408192	34	6043
2026-01-30 17:48:45.48	273.17	49.81	-30.8	-31.5	28.1	0.00e+00	0	41	0	2539651072	34	6045
2026-01-30 17:48:46.49	272.62	49.64	-30.8	-31.4	28.2	0.00e+00	0	41	0	2544893952	34	6015
2026-01-30 17:48:47.50	272.08	49.46	-30.9	-31.5	28.1	0.00e+00	0	41	0	2551185408	34	6043
2026-01-30 17:48:48.51	271.54	49.28	-31.1	-31.8	27.9	0.00e+00	0	41	0	2556428288	34	6271
2026-01-30 17:48:49.52	271.02	49.09	-31.2	-31.9	27.8	0.00e+00	0	41	0	2562719744	34	6345
2026-01-30 17:48:50.53	270.50	48.91	-31.1	-31.7	28.0	0.00e+00	0	41	0	2567962624	34	6223
2026-01-30 17:48:51.54	269.98	48.72	-30.7	-31.2	28.2	0.00e+00	0	41	0	2574254080	34	5894
2026-01-30 17:48:52.55	269.47	48.54	-30.5	-31.2	28.4	0.00e+00	0	41	0	2579496960	34	5852
2026-01-30 17:48:53.56	268.97	48.35	-30.6	-31.3	28.2	0.00e+00	0	41	0	2585788416	34	5931
2026-01-30 17:48:54.57	268.47	48.16	-30.7	-31.4	28.1	0.00e+00	0	41	0	2591031296	34	6026
2026-01-30 17:48:55.58	267.98	47.96	-30.6	-31.2	28.3	0.00e+00	0	41	0	2596274176	34	5855
2026-01-30 17:48:56.59	267.50	47.77	-30.5	-31.1	28.4	0.00e+00	0	41	0	2602565632	34	5776
2026-01-30 17:48:57.60	267.02	47.57	-30.4	-30.9	28.4	0.00e+00	0	41	0	2607808512	34	5683
2026-01-30 17:48:58.61	266.55	47.38	-30.4	-30.9	28.5	0.00e+00	0	41	0	2614099968	34	5665
2026-01-30 17:48:59.62	266.08	47.18	-30.3	-30.8	28.5	0.00e+00	0	41	0	2619342848	34	5620
2026-01-30 17:49:00.63	265.62	46.98	-30.3	-30.9	28.5	0.00e+00	0	41	0	2624585728	34	5692
2026-01-30 17:49:01.64	265.17	46.78	-30.3	-31.0	28.4	0.00e+00	0	41	0	2630877184	34	5704
2026-01-30 17:49:02.65	264.72	46.58	-30.4	-31.0	28.5	0.00e+00	0	41	0	2636120064	34	5717
2026-01-30 17:49:03.66	264.28	46.38	-30.3	-31.0	28.2	0.00e+00	0	41	0	2642411520	34	5704
2026-01-30 17:49:04.67	263.84	46.18	-30.7	-31.3	28.4	0.00e+00	0	41	0	2647654400	34	5955
2026-01-30 17:49:05.68	263.41	45.97	-30.2	-30.8	28.6	0.00e+00	0	41	0	2652897280	34	5574
2026-01-30 17:49:06.69	262.98	45.77	-30.3	-30.8	28.6	0.00e+00	0	41	0	2659188736	34	5599
2026-01-30 17:49:07.70	262.56	45.57	-30.2	-30.7	28.6	0.00e+00	0	41	0	2664431616	34	5559
2026-01-30 17:49:08.71	262.15	45.36	-30.2	-30.9	28.5	0.00e+00	0	41	0	2670723072	34	5653
2026-01-30 17:49:09.72	261.74	45.15	-30.2	-30.7	28.5	0.00e+00	0	41	0	2675965952	34	5551
2026-01-30 17:49:10.73	261.33	44.95	-30.4	-31.0	28.5	0.00e+00	0	41	0	2682257408	34	5729
2026-01-30 17:49:11.74	260.93	44.74	-30.2	-30.8	28.6	0.00e+00	0	41	0	2687500288	34	5625
2026-01-30 17:49:12.75	260.54	44.53	-30.1	-30.7	28.7	0.00e+00	0	41	0	2692743168	34	5556
2026-01-30 17:49:13.76	260.15	44.32	-30.0	-30.7	28.6	0.00e+00	0	41	0	2699034624	34	5537
2026-01-30 17:49:14.77	259.77	44.12	-30.1	-30.7	28.7	0.00e+00	0	41	0	2704277504	34	5556
2026-01-30 17:49:15.78	259.39	43.91	-30.0	-30.5	28.7	0.00e+00	0	41	0	2710568960	34	5410
2026-01-30 17:49:16.79	259.01	43.70	-30.2	-30.8	28.5	0.00e+00	0	41	0	2715811840	34	5618
2026-01-30 17:49:17.80	258.65	43.49	-30.3	-30.9	28.5	0.00e+00	0	41	0	2721054720	34	5689
2026-01-30 17:49:18.81	258.28	43.28	-30.3	-30.8	28.5	0.00e+00	0	41	0	2727346176	34	5594
2026-01-30 17:49:19.82	257.92	43.07	-30.2	-30.7	28.6	0.00e+00	0	41	0	2732589056	34	5556
2026-01-30 17:49:20.83	257.57	42.86	-29.9	-30.6	28.6	0.00e+00	0	41	0	2738880512	34	5457
2026-01-30 17:49:21.84	257.22	42.65	-29.8	-30.3	28.7	0.00e+00	0	41	0	2744123392	34	5310
2026-01-30 17:49:22.85	256.87	42.44	-29.9	-30.5	28.6	0.00e+00	0	41	0	2749366272	34	5436
2026-01-30 17:49:23.87	256.53	42.23	-29.9	-30.5	28.7	0.00e+00	0	41	0	2755657728	34	5435
2026-01-30 17:49:24.88	256.19	42.02	-30.1	-30.6	28.4	0.00e+00	0	41	0	2760900608	34	5466
2026-01-30 17:49:25.89	255.86	41.81	-30.2	-30.9	28.4	0.00e+00	0	41	0	2767192064	34	5650
2026-01-30 17:49:26.90	255.53	41.60	-30.0	-30.7	28.4	0.00e+00	0	41	0	2772434944	34	5539
2026-01-30 17:49:27.91	255.21	41.39	-30.1	-30.8	28.5	0.00e+00	0	41	0	2778726400	34	5571
2026-01-30 17:49:28.92	254.89	41.18	-30.1	-30.7	28.4	0.00e+00	0	41	0	2783969280	34	5563
2026-01-30 17:49:29.93	254.57	40.97	-30.1	-30.8	28.4	0.00e+00	0	41	0	2790260736	34	5586
2026-01-30 17:49:30.94	254.26	40.77	-30.1	-30.7	28.5	0.00e+00	0	41	0	2795503616	34	5552
2026-01-30 17:49:31.95	253.96	40.56	-29.9	-30.5	28.6	0.00e+00	0	41	0	2800746496	34	5419
2026-01-30 17:49:32.96	253.65	40.35	-30.0	-30.5	28.7	0.00e+00	0	41	0	2807037952	34	5424
2026-01-30 17:49:33.97	253.35	40.14	-30.0	-30.6	28.6	0.00e+00	0	41	0	2812280832	34	5494
2026-01-30 17:49:34.98	253.06	39.93	-30.1	-30.8	28.6	0.00e+00	0	41	0	2818572288	34	5604
2026-01-30 17:49:35.99	252.77	39.73	-30.0	-30.5	28.6	0.00e+00	0	41	0	2823815168	34	5436
2026-01-30 17:49:37.00	252.48	39.52	-30.0	-30.5	28.7	0.00e+00	0	41	0	2829058048	34	5413
2026-01-30 17:49:38.01	252.19	39.31	-30.1	-30.7	28.7	0.00e+00	0	41	0	2835349504	34	5548
2026-01-30 17:49:39.02	251.91	39.11	-29.9	-30.4	28.8	0.00e+00	0	41	0	2840592384	34	5345
2026-01-30 17:49:40.03	251.64	38.90	-29.9	-30.4	28.8	0.00e+00	0	41	0	2846883840	34	5346
2026-01-30 17:49:41.04	251.36	38.70	-30.1	-30.6	28.7	0.00e+00	0	41	0	2852126720	34	5449
2026-01-30 17:49:42.06	251.09	38.49	-30.1	-30.7	28.6	0.00e+00	0	41	0	2857369600	34	5561
2026-01-30 17:49:43.07	250.82	38.29	-30.1	-30.6	28.6	0.00e+00	0	41	0	2863661056	34	5493
2026-01-30 17:49:44.07	250.56	38.09	-29.9	-30.4	28.6	0.00e+00	0	41	0	2868903936	34	5374
2026-01-30 17:49:45.08	250.30	37.88	-29.8	-30.3	28.8	0.00e+00	0	41	0	2875195392	34	5312
2026-01-30 17:49:46.09	250.05	37.68	-29.9	-30.6	28.7	0.00e+00	0	41	0	2880438272	34	5445
2026-01-30 17:49:47.11	249.79	37.48	-29.9	-30.6	28.8	0.00e+00	0	41	0	2886729728	34	5450
2026-01-30 17:49:48.11	249.54	37.28	-30.1	-30.6	28.7	0.00e+00	0	41	0	2891972608	34	5484
2026-01-30 17:49:49.13	249.29	37.08	-30.1	-30.8	28.6	0.00e+00	0	41	0	2898264064	34	5591
2026-01-30 17:49:50.13	249.05	36.88	-30.4	-30.9	28.5	0.00e+00	0	41	0	2903506944	34	5647
2026-01-30 17:49:51.15	248.81	36.68	-30.3	-30.8	28.5	0.00e+00	0	41	0	2908749824	34	5598
2026-01-30 17:49:52.16	248.57	36.48	-30.4	-30.9	28.4	0.00e+00	0	41	0	2915041280	34	5687
2026-01-30 17:49:53.17	248.33	36.28	-30.3	-30.9	28.3	0.00e+00	0	41	0	2920284160	34	5637
2026-01-30 17:49:54.17	248.10	36.08	-30.3	-31.0	28.4	0.00e+00	0	41	0	2926575616	34	5709
2026-01-30 17:49:55.18	247.87	35.89	-30.0	-30.6	28.7	0.00e+00	0	41	0	2931818496	34	5444
2026-01-30 17:49:56.20	247.64	35.69	-29.8	-30.4	28.9	0.00e+00	0	41	0	2937061376	34	5364
2026-01-30 17:49:57.21	247.42	35.49	-29.7	-30.3	28.8	0.00e+00	0	41	0	2943352832	32	5934
2026-01-30 17:49:58.22	247.20	35.30	-29.7	-30.4	28.9	0.00e+00	0	41	0	2948595712	32	5980
2026-01-30 17:49:59.23	246.98	35.10	-30.0	-30.6	28.7	0.00e+00	0	41	0	2954887168	32	6144
2026-01-30 17:50:00.24	246.76	34.91	-30.0	-30.6	28.7	0.00e+00	0	41	0	2960130048	32	6171
2026-01-30 17:50:01.25	246.55	34.72	-30.0	-30.7	28.6	0.00e+00	0	41	0	2965372928	32	6183
2026-01-30 17:50:02.26	246.34	34.53	-30.0	-30.5	28.6	0.00e+00	0	41	0	2971664384	32	6078
2026-01-30 17:50:03.27	246.13	34.34	-29.9	-30.4	28.7	0.00e+00	0	41	0	2976907264	32	6031
2026-01-30 17:50:04.28	245.92	34.15	-29.8	-30.3	28.9	0.00e+00	0	41	0	2983198720	32	5926
2026-01-30 17:50:05.29	245.72	33.96	-29.9	-30.4	28.7	0.00e+00	0	41	0	2988441600	32	6011
2026-01-30 17:50:06.30	245.52	33.77	-29.9	-30.4	28.8	0.00e+00	0	41	0	2994733056	32	5993
2026-01-30 17:50:07.31	245.32	33.58	-29.9	-30.4	28.7	0.00e+00	0	41	0	2999975936	32	6016
2026-01-30 17:50:08.32	245.12	33.39	-30.0	-30.7	28.7	0.00e+00	0	41	0	3005218816	32	6174
2026-01-30 17:50:09.33	244.93	33.20	-29.9	-30.6	28.8	0.00e+00	0	41	0	3011510272	32	6139
2026-01-30 17:50:10.34	244.74	33.02	-29.9	-30.4	28.8	0.00e+00	0	41	0	3016753152	32	5993
2026-01-30 17:50:11.35	244.55	32.83	-29.8	-30.5	28.8	0.00e+00	0	41	0	3023044608	32	6055
2026-01-30 17:50:12.36	244.36	32.65	-29.7	-30.3	28.9	0.00e+00	0	41	0	3028287488	32	5900
2026-01-30 17:50:13.37	244.17	32.47	-29.9	-30.4	28.7	0.00e+00	0	41	0	3034578944	32	6008
2026-01-30 17:50:14.38	243.99	32.28	-29.9	-30.4	28.7	0.00e+00	0	41	0	3039821824	32	5992
2026-01-30 17:50:15.39	243.81	32.10	-29.9	-30.5	28.6	0.00e+00	0	41	0	3045064704	32	6038
2026-01-30 17:50:16.40	243.63	31.92	-30.0	-30.7	28.6	0.00e+00	0	41	0	3051356160	32	6198
2026-01-30 17:50:17.41	243.45	31.74	-30.2	-30.8	28.5	0.00e+00	0	41	0	3056599040	32	6307
2026-01-30 17:50:18.42	243.27	31.56	-30.0	-30.5	28.7	0.00e+00	0	41	0	3062890496	32	6102
2026-01-30 17:50:19.44	243.10	31.38	-30.0	-30.6	28.6	0.00e+00	0	41	0	3068133376	32	6111
2026-01-30 17:50:20.45	242.93	31.20	-30.1	-30.6	28.6	0.00e+00	0	41	0	3073376256	32	6131
2026-01-30 17:50:21.46	242.76	31.02	-30.1	-30.6	28.6	0.00e+00	0	41	0	3079667712	32	6159
2026-01-30 17:50:22.47	242.59	30.85	-30.2	-30.7	28.5	0.00e+00	0	41	0	3084910592	32	6214
2026-01-30 17:50:23.48	242.42	30.67	-30.4	-30.9	28.5	0.00e+00	0	41	0	3091202048	32	6384
2026-01-30 17:50:24.48	242.26	30.50	-30.3	-30.9	28.5	0.00e+00	0	41	0	3096444928	32	6324
2026-01-30 17:50:25.50	242.10	30.32	-30.4	-31.0	28.4	0.00e+00	0	41	0	3101687808	32	6405
2026-01-30 17:50:26.51	241.94	30.15	-30.5	-31.0	28.1	0.00e+00	0	41	0	3107979264	32	6426
2026-01-30 17:50:27.52	241.78	29.98	-30.5	-31.0	28.1	0.00e+00	0	41	0	3113222144	32	6464
2026-01-30 17:50:28.53	241.62	29.80	-30.5	-31.0	28.0	0.00e+00	0	41	0	3119513600	32	6463
2026-01-30 17:50:29.54	241.47	29.63	-30.6	-31.2	28.0	0.00e+00	0	41	0	3124756480	32	6548
2026-01-30 17:50:30.55	241.31	29.46	-30.6	-31.1	28.0	0.00e+00	0	41	0	3131047936	32	6516
2026-01-30 17:50:31.56	241.16	29.29	-30.6	-31.1	28.0	0.00e+00	0	41	0	3136290816	32	6518
2026-01-30 17:50:32.57	241.01	29.12	-30.4	-31.0	28.2	0.00e+00	0	41	0	3142582272	32	6397
2026-01-30 17:50:33.58	240.86	28.96	-30.6	-31.1	28.0	0.00e+00	0	41	0	3147825152	32	6511
2026-01-30 17:50:34.59	240.71	28.79	-30.5	-31.2	28.1	0.00e+00	0	41	0	3153068032	32	6540
2026-01-30 17:50:35.60	240.57	28.62	-30.4	-30.9	28.1	0.00e+00	0	41	0	3159359488	32	6355
2026-01-30 17:50:36.61	240.42	28.46	-30.4	-30.9	28.1	0.00e+00	0	41	0	3164602368	32	6362
2026-01-30 17:50:37.62	240.28	28.29	-30.4	-31.1	28.1	0.00e+00	0	41	0	3170893824	32	6474
2026-01-30 17:50:38.63	240.14	28.13	-30.6	-31.3	28.0	0.00e+00	0	41	0	3176136704	32	6641
2026-01-30 17:50:39.64	240.00	27.97	-30.7	-31.3	27.9	0.00e+00	0	41	0	3181379584	32	6689
2026-01-30 17:50:40.65	239.86	27.80	-30.7	-31.4	27.9	0.00e+00	0	41	0	3187671040	32	6707
2026-01-30 17:50:41.66	239.72	27.64	-30.7	-31.4	27.8	0.00e+00	0	41	0	3192913920	34	6012
2026-01-30 17:50:42.67	239.59	27.48	-30.7	-31.4	27.8	0.00e+00	0	41	0	3199205376	34	5988
2026-01-30 17:50:43.68	239.45	27.32	-30.8	-31.4	27.8	0.00e+00	0	41	0	3204448256	34	5969
2026-01-30 17:50:44.69	239.32	27.16	-30.7	-31.3	27.9	0.00e+00	0	41	0	3209691136	34	5911
2026-01-30 17:50:45.70	239.19	27.00	-30.9	-31.4	27.9	0.00e+00	0	41	0	3215982592	34	5997
2026-01-30 17:50:46.71	239.06	26.85	-30.6	-31.2	28.0	0.00e+00	0	41	0	3221225472	34	5831
2026-01-30 17:50:47.72	238.93	26.69	-30.6	-31.3	27.9	0.00e+00	0	41	0	3227516928	34	5911
2026-01-30 17:50:48.73	238.80	26.53	-30.7	-31.3	27.9	0.00e+00	0	41	0	3232759808	34	5959
2026-01-30 17:50:49.74	238.68	26.38	-30.7	-31.4	27.9	0.00e+00	0	41	0	3239051264	34	6003
2026-01-30 17:50:50.76	238.55	26.22	-30.6	-31.3	27.9	0.00e+00	0	41	0	3244294144	34	5939
2026-01-30 17:50:51.77	238.43	26.07	-30.7	-31.4	27.9	0.00e+00	0	41	0	3250585600	34	6005
2026-01-30 17:50:52.77	238.31	25.91	-30.8	-31.3	27.9	0.00e+00	0	41	0	3255828480	34	5957
2026-01-30 17:50:53.78	238.19	25.76	-30.6	-31.1	28.0	0.00e+00	0	41	0	3261071360	34	5807
2026-01-30 17:50:54.79	238.07	25.61	-30.6	-31.2	28.0	0.00e+00	0	41	0	3267362816	34	5892
2026-01-30 17:50:55.80	237.95	25.46	-30.6	-31.3	27.9	0.00e+00	0	41	0	3272605696	34	5923
2026-01-30 17:50:56.82	237.83	25.31	-30.6	-31.3	28.0	0.00e+00	0	41	0	3278897152	34	5900
2026-01-30 17:50:57.83	237.71	25.16	-30.6	-31.3	28.0	0.00e+00	0	41	0	3284140032	34	5944
2026-01-30 17:50:58.84	237.60	25.01	-30.7	-31.4	27.8	0.00e+00	0	41	0	3289382912	34	5986
2026-01-30 17:50:59.85	237.48	24.86	-30.8	-31.5	27.8	0.00e+00	0	41	0	3295674368	34	6087
2026-01-30 17:51:00.86	237.37	24.71	-30.9	-31.4	27.7	0.00e+00	0	41	0	3300917248	34	6009
2026-01-30 17:51:01.87	237.26	24.56	-30.8	-31.3	27.8	0.00e+00	0	41	0	3307208704	34	5961
2026-01-30 17:51:02.88	237.14	24.42	-30.8	-31.4	27.8	0.00e+00	0	41	0	3312451584	34	5970
2026-01-30 17:51:03.89	237.03	24.27	-30.9	-31.4	27.7	0.00e+00	0	41	0	3317694464	34	6032
2026-01-30 17:51:04.90	236.92	24.13	-30.8	-31.5	27.8	0.00e+00	0	41	0	3323985920	34	6045
2026-01-30 17:51:05.91	236.82	23.98	-30.8	-31.3	27.8	0.00e+00	0	41	0	3329228800	34	5935
2026-01-30 17:51:06.92	236.71	23.84	-30.7	-31.4	27.8	0.00e+00	0	41	0	3335520256	34	6020
2026-01-30 17:51:07.93	236.60	23.70	-30.8	-31.4	27.8	0.00e+00	0	41	0	3340763136	34	6011
2026-01-30 17:51:08.94	236.50	23.55	-30.8	-31.3	27.8	0.00e+00	0	41	0	3347054592	34	5938
2026-01-30 17:51:09.95	236.39	23.41	-30.8	-31.4	27.8	0.00e+00	0	41	0	3352297472	34	5975
2026-01-30 17:51:10.97	236.29	23.27	-30.8	-31.5	27.8	0.00e+00	0	41	0	3358588928	34	6075
2026-01-30 17:51:11.98	236.19	23.13	-30.9	-31.6	27.7	0.00e+00	0	41	0	3363831808	34	6134
2026-01-30 17:51:12.99	236.09	22.99	-31.0	-31.7	27.7	0.00e+00	0	41	0	3369074688	34	6191
2026-01-30 17:51:14.00	235.99	22.85	-31.1	-31.8	27.6	0.00e+00	0	41	0	3375366144	34	6303
2026-01-30 17:51:15.01	235.89	22.71	-31.2	-31.9	27.5	0.00e+00	0	41	0	3380609024	34	6354
2026-01-30 17:51:16.02	235.79	22.58	-31.1	-31.8	27.5	0.00e+00	0	41	0	3386900480	34	6295
2026-01-30 17:51:17.03	235.69	22.44	-31.2	-31.9	27.5	0.00e+00	0	41	0	3392143360	34	6340
2026-01-30 17:51:18.04	235.59	22.30	-31.2	-31.8	27.5	0.00e+00	0	41	0	3397386240	34	6255
2026-01-30 17:51:19.04	235.50	22.17	-31.3	-31.9	27.4	0.00e+00	0	41	0	3403677696	34	6318
2026-01-30 17:51:20.05	235.40	22.03	-31.2	-31.8	27.5	0.00e+00	0	41	0	3408920576	34	6260
2026-01-30 17:51:21.07	235.31	21.90	-31.3	-31.8	27.4	0.00e+00	0	41	0	3415212032	34	6294
2026-01-30 17:51:22.08	235.22	21.76	-31.3	-31.9	27.4	0.00e+00	0	41	0	3420454912	34	6330
2026-01-30 17:51:23.09	235.12	21.63	-31.2	-31.9	27.4	0.00e+00	0	41	0	3425697792	34	6368
2026-01-30 17:51:24.10	235.03	21.50	-31.2	-31.9	27.5	0.00e+00	0	41	0	3431989248	34	6352
2026-01-30 17:51:25.11	234.94	21.37	-31.3	-32.0	27.4	0.00e+00	0	41	0	3437232128	34	6455
2026-01-30 17:51:26.12	234.85	21.23	-31.4	-32.1	27.4	0.00e+00	0	41	0	3443523584	34	6473
2026-01-30 17:51:27.13	234.76	21.10	-31.4	-32.0	27.3	0.00e+00	0	41	0	3448766464	34	6464
2026-01-30 17:51:28.14	234.67	20.97	-31.5	-32.1	27.2	0.00e+00	0	41	0	3455057920	34	6539
2026-01-30 17:51:29.14	234.59	20.85	-31.4	-32.1	27.3	0.00e+00	0	41	0	3460300800	34	6492
2026-01-30 17:51:30.16	234.50	20.71	-31.4	-32.1	27.3	0.00e+00	0	41	0	3465543680	34	6512
2026-01-30 17:51:31.17	234.41	20.59	-31.4	-32.1	27.4	0.00e+00	0	41	0	3471835136	34	6479
2026-01-30 17:51:32.18	234.33	20.46	-31.4	-32.1	27.3	0.00e+00	0	41	0	3477078016	34	6519
2026-01-30 17:51:33.19	234.24	20.33	-31.5	-32.0	27.3	0.00e+00	0	41	0	3483369472	34	6444
2026-01-30 17:51:34.20	234.16	20.20	-31.5	-32.1	27.3	0.00e+00	0	41	0	3488612352	34	6493
2026-01-30 17:51:35.21	234.07	20.08	-31.5	-32.0	27.3	0.00e+00	0	41	0	3494903808	34	6460
2026-01-30 17:51:36.22	233.99	19.95	-31.5	-32.0	27.3	0.00e+00	0	41	0	3500146688	34	6461
2026-01-30 17:51:37.23	233.91	19.83	-31.6	-32.2	27.2	0.00e+00	0	41	0	3505389568	34	6545
2026-01-30 17:51:38.24	233.83	19.70	-31.6	-32.1	27.2	0.00e+00	0	41	0	3511681024	34	6533
2026-01-30 17:51:39.25	233.75	19.58	-31.6	-32.1	27.2	0.00e+00	0	41	0	3516923904	34	6518
2026-01-30 17:51:40.27	233.67	19.46	-31.7	-32.2	27.2	0.00e+00	0	41	0	3523215360	34	6575
2026-01-30 17:51:41.28	233.59	19.33	-31.7	-32.2	27.2	0.00e+00	0	41	0	3528458240	36	5894
2026-01-30 17:51:42.29	233.51	19.21	-31.7	-32.3	27.1	0.00e+00	0	41	0	3533701120	36	5912
2026-01-30 17:51:43.30	233.43	19.09	-31.8	-32.3	27.1	0.00e+00	0	41	0	3539992576	36	5935
2026-01-30 17:51:44.31	233.35	18.97	-31.9	-32.5	27.0	0.00e+00	0	41	0	3545235456	36	6053
2026-01-30 17:51:45.32	233.28	18.85	-31.9	-32.5	27.0	0.00e+00	0	41	0	3551526912	36	6041
2026-01-30 17:51:46.33	233.20	18.73	-32.1	-32.8	26.8	0.00e+00	0	41	0	3556769792	36	6262
2026-01-30 17:51:47.34	233.13	18.61	-32.1	-32.7	26.8	0.00e+00	0	41	0	3563061248	36	6191
2026-01-30 17:51:48.35	233.05	18.49	-32.1	-32.6	26.9	0.00e+00	0	41	0	3568304128	36	6152
2026-01-30 17:51:49.36	232.98	18.37	-32.0	-32.6	26.9	0.00e+00	0	41	0	3574595584	36	6109
2026-01-30 17:51:50.37	232.90	18.25	-32.1	-32.8	26.8	0.00e+00	0	41	0	3579838464	36	6267
2026-01-30 17:51:51.38	232.83	18.14	-32.2	-32.9	26.7	0.00e+00	0	41	0	3585081344	36	6366
2026-01-30 17:51:52.39	232.76	18.02	-32.2	-32.7	26.8	0.00e+00	0	41	0	3591372800	36	6221
2026-01-30 17:51:53.40	232.69	17.90	-32.2	-32.8	26.7	0.00e+00	0	41	0	3596615680	36	6250
2026-01-30 17:51:54.41	232.61	17.79	-32.2	-32.8	26.7	0.00e+00	0	41	0	3601858560	36	6293
2026-01-30 17:51:55.42	232.54	17.67	-32.3	-32.9	26.6	0.00e+00	0	41	0	3608150016	36	6319
2026-01-30 17:51:56.43	232.47	17.56	-32.4	-32.9	26.6	0.00e+00	0	41	0	3613392896	36	6384
2026-01-30 17:51:57.44	232.40	17.44	-32.3	-32.8	26.7	0.00e+00	0	41	0	3619684352	36	6298
