passes_logs/2026/01/30/R4.6S_Anadyr/R4.6S_Anadyr__20260130_134348_NOAA_20_JPSS-1_rec.log

#Pass ID: 20260130_134348_NOAA 20 (JPSS-1)
#Satellite: NOAA 20 (JPSS-1)
#Configuration: NOAA 20
#almurnet v.1.7.20251203
#Start time: 2026-01-30 13:43:51

#Version: 2.2.20231116
#Station: R4.6S_Anadyr
#Location: 177.4865 lon 64.73178 lat
#TLE: 1 43013U 17073A   26029.42702672  .00000137  00000+0  85918-4 0  9993
#TLE: 2 43013  98.7646 330.2153 0000804  19.9045 340.2162 14.19525092424781

#Time	Az	El	Level	Level2	SNR	BER	BlckErr	Temp	State	Recorded	gain1	gain2
2026-01-30 13:43:51.49	19.14	0.20	-49.6	-63.3	3.3	1.54e+00	0	40	0	0	60	52871
2026-01-30 13:43:52.48	19.17	0.25	-49.5	-64.8	3.6	1.51e+00	0	40	104	0	60	62923
2026-01-30 13:43:53.49	19.21	0.31	-49.6	-64.8	3.6	1.51e+00	0	40	104	0	60	62864
2026-01-30 13:43:54.51	19.24	0.37	-49.6	-64.9	3.6	1.51e+00	0	40	104	0	60	63351
2026-01-30 13:43:55.51	19.28	0.43	-49.6	-64.8	3.6	1.51e+00	0	40	104	0	60	62951
2026-01-30 13:43:56.53	19.31	0.49	-49.6	-64.9	3.6	1.51e+00	0	40	104	0	60	63805
2026-01-30 13:43:57.54	19.35	0.55	-49.7	-64.9	3.6	1.51e+00	0	40	104	0	60	63653
2026-01-30 13:43:58.55	19.38	0.61	-49.6	-64.8	3.6	1.51e+00	0	40	104	0	60	63150
2026-01-30 13:43:59.55	19.42	0.67	-49.6	-64.8	3.6	1.51e+00	0	40	104	0	60	63119
2026-01-30 13:44:00.57	19.45	0.73	-49.6	-64.8	3.6	1.51e+00	0	40	104	0	60	62904
2026-01-30 13:44:01.58	19.49	0.79	-49.5	-64.8	3.6	1.51e+00	0	40	104	0	60	62710
2026-01-30 13:44:02.59	19.53	0.85	-49.5	-64.8	3.6	1.51e+00	0	40	104	0	60	62611
2026-01-30 13:44:03.60	19.56	0.91	-49.5	-64.7	3.6	1.51e+00	0	40	104	0	60	61742
2026-01-30 13:44:04.61	19.60	0.96	-49.4	-64.6	3.6	1.51e+00	0	40	104	0	60	61517
2026-01-30 13:44:05.62	19.63	1.02	-49.3	-64.5	3.6	1.51e+00	0	40	104	0	60	60745
2026-01-30 13:44:06.63	19.67	1.08	-49.2	-64.4	3.6	1.51e+00	0	40	104	0	60	59939
2026-01-30 13:44:07.64	19.71	1.14	-49.0	-64.3	3.6	1.51e+00	0	40	104	0	60	59345
2026-01-30 13:44:08.65	19.74	1.21	-48.9	-64.2	3.6	1.51e+00	0	40	104	0	60	58541
2026-01-30 13:44:09.66	19.78	1.27	-48.9	-64.0	3.6	1.51e+00	0	40	104	0	60	57531
2026-01-30 13:44:10.67	19.82	1.33	-48.7	-63.9	3.6	1.51e+00	0	40	104	0	60	56688
2026-01-30 13:44:11.68	19.85	1.39	-48.5	-63.7	3.6	1.51e+00	0	40	104	0	60	55507
2026-01-30 13:44:12.69	19.89	1.45	-48.3	-63.4	3.6	1.51e+00	0	40	104	0	60	53523
2026-01-30 13:44:13.70	19.93	1.51	-48.2	-63.2	3.6	1.51e+00	0	40	104	0	60	52527
2026-01-30 13:44:14.71	19.96	1.57	-48.2	-63.3	3.6	1.51e+00	0	40	104	0	60	52716
2026-01-30 13:44:15.72	20.00	1.63	-48.2	-63.2	3.6	1.51e+00	0	40	104	0	60	52226
2026-01-30 13:44:16.73	20.04	1.69	-48.1	-63.3	3.6	1.51e+00	0	40	104	0	60	52743
2026-01-30 13:44:17.74	20.08	1.75	-48.2	-63.3	3.6	1.51e+00	0	40	104	0	60	52820
2026-01-30 13:44:18.75	20.11	1.81	-48.2	-63.3	3.6	1.51e+00	0	40	104	0	60	53055
2026-01-30 13:44:19.76	20.15	1.88	-48.2	-63.3	3.5	1.51e+00	0	40	104	0	60	52934
2026-01-30 13:44:20.77	20.19	1.94	-48.2	-63.3	3.6	1.51e+00	0	40	104	0	60	52988
2026-01-30 13:44:21.78	20.23	2.00	-48.2	-63.3	3.6	1.51e+00	0	40	104	0	60	53063
2026-01-30 13:44:22.79	20.27	2.06	-48.2	-63.3	3.6	1.51e+00	0	40	104	0	60	52960
2026-01-30 13:44:23.80	20.31	2.12	-48.2	-63.3	3.6	1.51e+00	0	40	104	0	60	53011
2026-01-30 13:44:24.81	20.34	2.18	-48.2	-63.3	3.6	1.51e+00	0	40	104	0	60	52825
2026-01-30 13:44:25.82	20.38	2.25	-48.1	-63.0	3.6	1.51e+00	0	40	104	0	60	51104
2026-01-30 13:44:26.83	20.42	2.31	-48.1	-62.8	3.6	1.51e+00	0	40	104	0	60	49879
2026-01-30 13:44:27.84	20.46	2.37	-48.1	-62.6	3.6	1.51e+00	0	41	104	0	60	48696
2026-01-30 13:44:28.85	20.50	2.43	-48.1	-62.4	3.6	1.51e+00	0	40	104	0	60	47402
2026-01-30 13:44:29.86	20.54	2.50	-48.1	-62.7	3.6	1.51e+00	0	41	104	0	60	49429
2026-01-30 13:44:30.87	20.58	2.56	-48.1	-63.1	3.6	1.51e+00	0	41	104	0	60	51558
2026-01-30 13:44:31.88	20.62	2.62	-48.1	-62.5	3.5	1.51e+00	0	41	104	0	60	48267
2026-01-30 13:44:32.89	20.66	2.69	-48.0	-59.8	3.8	1.51e+00	0	41	104	0	60	35412
2026-01-30 13:44:33.90	20.70	2.75	-47.7	-56.3	5.7	4.94e-01	0	41	0	0	60	23494
2026-01-30 13:44:34.91	20.74	2.81	-47.1	-52.9	8.8	7.36e-02	92	41	0	2097152	60	16048
2026-01-30 13:44:35.92	20.78	2.88	-46.3	-50.7	11.5	1.28e-02	79	41	0	3145728	60	12335
2026-01-30 13:44:36.93	20.82	2.94	-45.1	-48.2	14.1	2.37e-04	92	41	0	5242880	60	9308
2026-01-30 13:44:37.94	20.86	3.00	-44.2	-46.7	15.6	0.00e+00	78	41	0	7340032	60	7825
2026-01-30 13:44:38.95	20.90	3.07	-43.5	-45.7	17.0	0.00e+00	78	41	0	8388608	60	6959
2026-01-30 13:44:39.96	20.94	3.13	-43.1	-45.1	17.3	0.00e+00	4	40	0	10485760	60	6507
2026-01-30 13:44:40.97	20.98	3.20	-42.5	-44.3	17.9	0.00e+00	72	40	0	12582912	58	6644
2026-01-30 13:44:41.98	21.02	3.26	-42.4	-44.1	18.1	0.00e+00	0	40	0	14680064	58	6536
2026-01-30 13:44:42.99	21.07	3.33	-43.1	-45.2	17.0	0.00e+00	0	40	0	16777216	58	7382
2026-01-30 13:44:44.00	21.11	3.39	-43.7	-46.0	16.3	0.00e+00	91	41	0	17825792	58	8072
2026-01-30 13:44:45.01	21.15	3.46	-44.2	-46.8	15.5	0.00e+00	8	40	0	19922944	60	7945
2026-01-30 13:44:46.02	21.19	3.52	-45.0	-48.1	14.3	0.00e+00	60	41	0	22020096	60	9133
2026-01-30 13:44:47.03	21.23	3.59	-42.4	-44.2	18.2	0.00e+00	9	40	0	24117248	58	6575
2026-01-30 13:44:48.04	21.27	3.65	-47.7	-57.3	5.5	6.86e-02	0	41	0	26214400	60	26344
2026-01-30 13:44:49.05	21.32	3.72	-48.0	-58.1	4.9	3.11e-03	2	41	0	27262976	60	29025
2026-01-30 13:44:50.06	21.36	3.78	-45.2	-48.3	14.7	4.46e-02	0	41	0	29360128	60	9350
2026-01-30 13:44:51.07	21.40	3.85	-48.1	-62.7	3.6	1.05e+00	0	40	104	30408704	60	49149
2026-01-30 13:44:52.09	21.45	3.91	-45.1	-48.3	14.0	1.14e+00	0	40	104	30408704	60	9376
2026-01-30 13:44:53.09	21.49	3.98	-45.3	-48.6	13.8	6.10e-06	92	41	0	30408704	60	9703
2026-01-30 13:44:54.10	21.53	4.05	-44.8	-47.7	14.7	0.00e+00	0	40	0	32505856	60	8769
2026-01-30 13:44:55.12	21.58	4.11	-44.9	-47.9	14.8	0.00e+00	0	40	0	34603008	60	8963
2026-01-30 13:44:56.13	21.62	4.18	-44.4	-47.0	15.3	0.00e+00	65	41	0	36700160	60	8133
2026-01-30 13:44:57.14	21.66	4.25	-44.3	-46.8	15.9	0.00e+00	79	41	0	38797312	60	7866
2026-01-30 13:44:58.15	21.71	4.31	-44.1	-46.6	16.0	0.00e+00	92	41	0	39845888	60	7694
2026-01-30 13:44:59.16	21.75	4.38	-43.8	-46.1	16.5	0.00e+00	0	41	0	41943040	60	7290
2026-01-30 13:45:00.16	21.79	4.45	-43.8	-46.1	16.6	0.00e+00	92	41	0	44040192	60	7272
2026-01-30 13:45:01.18	21.84	4.51	-43.3	-45.3	17.3	0.00e+00	1	41	0	46137344	60	6650
2026-01-30 13:45:02.18	21.88	4.58	-42.7	-44.5	18.1	0.00e+00	81	41	0	48234496	58	6810
2026-01-30 13:45:03.19	21.93	4.65	-42.5	-44.2	18.5	0.00e+00	2	41	0	49283072	58	6550
2026-01-30 13:45:04.20	21.97	4.72	-42.2	-43.8	18.7	0.00e+00	2	41	0	51380224	58	6272
2026-01-30 13:45:05.21	22.02	4.78	-42.0	-43.5	19.1	0.00e+00	50	41	0	53477376	58	6083
2026-01-30 13:45:06.22	22.06	4.85	-42.2	-43.8	18.8	0.00e+00	0	41	0	55574528	58	6293
2026-01-30 13:45:07.23	22.11	4.92	-41.9	-43.4	19.2	0.00e+00	92	41	0	57671680	58	6019
2026-01-30 13:45:08.24	22.15	4.99	-41.9	-43.4	19.0	0.00e+00	2	41	0	58720256	58	6025
2026-01-30 13:45:09.25	22.20	5.06	-42.1	-43.7	18.9	0.00e+00	0	41	0	60817408	58	6204
2026-01-30 13:45:10.26	22.25	5.12	-41.9	-43.5	19.1	0.00e+00	0	41	0	62914560	58	6059
2026-01-30 13:45:11.27	22.29	5.19	-41.8	-43.3	19.2	0.00e+00	0	41	0	65011712	58	5959
2026-01-30 13:45:12.28	22.34	5.26	-41.9	-43.4	19.2	0.00e+00	0	41	0	67108864	58	6009
2026-01-30 13:45:13.29	22.39	5.33	-41.8	-43.3	19.4	0.00e+00	73	41	0	68157440	58	5907
2026-01-30 13:45:14.30	22.43	5.40	-41.5	-43.0	19.7	0.00e+00	92	41	0	70254592	56	6403
2026-01-30 13:45:15.31	22.48	5.47	-41.6	-43.0	19.8	0.00e+00	0	41	0	72351744	56	6403
2026-01-30 13:45:16.32	22.53	5.54	-41.3	-42.7	20.0	0.00e+00	92	41	0	74448896	56	6209
2026-01-30 13:45:17.33	22.58	5.61	-41.3	-42.7	20.0	0.00e+00	0	41	0	76546048	56	6218
2026-01-30 13:45:18.34	22.62	5.68	-41.3	-42.7	19.9	0.00e+00	72	41	0	77594624	56	6201
2026-01-30 13:45:19.35	22.67	5.75	-41.3	-42.7	20.0	0.00e+00	6	41	0	79691776	56	6188
2026-01-30 13:45:20.36	22.72	5.82	-41.3	-42.7	20.1	0.00e+00	2	41	0	81788928	56	6190
2026-01-30 13:45:21.37	22.77	5.89	-41.3	-42.6	20.1	0.00e+00	87	41	0	83886080	56	6159
2026-01-30 13:45:22.38	22.82	5.96	-41.4	-42.8	20.0	0.00e+00	2	41	0	85983232	56	6249
2026-01-30 13:45:23.39	22.86	6.03	-41.3	-42.7	20.0	0.00e+00	90	41	0	87031808	56	6219
2026-01-30 13:45:24.40	22.91	6.10	-41.4	-42.8	20.1	0.00e+00	3	41	0	89128960	56	6266
2026-01-30 13:45:25.41	22.96	6.18	-41.4	-42.7	20.1	0.00e+00	0	41	0	91226112	56	6244
2026-01-30 13:45:26.42	23.01	6.25	-41.3	-42.7	20.1	0.00e+00	3	41	0	93323264	56	6185
2026-01-30 13:45:27.43	23.06	6.32	-41.2	-42.5	20.2	0.00e+00	4	41	0	95420416	56	6069
2026-01-30 13:45:28.44	23.11	6.39	-41.0	-42.3	20.4	0.00e+00	70	41	0	96468992	56	5954
2026-01-30 13:45:29.45	23.16	6.46	-41.2	-42.5	20.3	0.00e+00	6	41	0	98566144	56	6079
2026-01-30 13:45:30.46	23.21	6.53	-41.2	-42.5	20.3	0.00e+00	92	41	0	100663296	56	6082
2026-01-30 13:45:31.47	23.26	6.61	-41.1	-42.4	20.4	0.00e+00	0	41	0	102760448	56	5993
2026-01-30 13:45:32.48	23.31	6.68	-41.3	-42.6	20.3	0.00e+00	0	41	0	104857600	56	6146
2026-01-30 13:45:33.49	23.36	6.75	-41.2	-42.5	20.4	0.00e+00	0	41	0	106954752	56	6071
2026-01-30 13:45:34.50	23.42	6.82	-41.0	-42.3	20.6	0.00e+00	0	41	0	108003328	56	5930
2026-01-30 13:45:35.51	23.47	6.90	-41.0	-42.3	20.5	0.00e+00	0	41	0	110100480	56	5945
2026-01-30 13:45:36.52	23.52	6.97	-41.1	-42.4	20.4	0.00e+00	0	41	0	112197632	56	5987
2026-01-30 13:45:37.53	23.57	7.04	-41.1	-42.4	20.5	0.00e+00	90	41	0	114294784	56	5989
2026-01-30 13:45:38.54	23.62	7.12	-41.0	-42.3	20.5	0.00e+00	79	41	0	116391936	56	5937
2026-01-30 13:45:39.55	23.68	7.19	-41.2	-42.5	20.3	0.00e+00	6	41	0	117440512	56	6054
2026-01-30 13:45:40.56	23.73	7.27	-40.9	-42.1	20.8	0.00e+00	72	41	0	119537664	56	5791
2026-01-30 13:45:41.57	23.78	7.34	-40.8	-42.0	20.8	0.00e+00	75	41	0	121634816	54	6451
2026-01-30 13:45:42.58	23.83	7.42	-40.7	-41.9	20.9	0.00e+00	73	41	0	123731968	54	6375
2026-01-30 13:45:43.59	23.89	7.49	-40.7	-41.9	21.0	0.00e+00	69	41	0	125829120	54	6329
2026-01-30 13:45:44.60	23.94	7.56	-40.6	-41.8	21.0	0.00e+00	92	41	0	126877696	54	6284
2026-01-30 13:45:45.61	24.00	7.64	-40.7	-41.9	20.9	0.00e+00	7	41	0	128974848	54	6351
2026-01-30 13:45:46.62	24.05	7.71	-40.6	-41.8	21.0	0.00e+00	92	41	0	131072000	54	6274
2026-01-30 13:45:47.63	24.10	7.79	-40.4	-41.6	21.3	0.00e+00	7	41	0	133169152	54	6135
2026-01-30 13:45:48.64	24.16	7.87	-40.4	-41.6	21.2	0.00e+00	6	41	0	135266304	54	6146
2026-01-30 13:45:49.65	24.21	7.94	-40.6	-41.8	21.0	0.00e+00	5	41	0	136314880	54	6250
2026-01-30 13:45:50.66	24.27	8.02	-40.4	-41.6	21.2	0.00e+00	6	41	0	138412032	54	6115
2026-01-30 13:45:51.67	24.32	8.09	-40.4	-41.6	21.2	0.00e+00	81	41	0	140509184	54	6132
2026-01-30 13:45:52.68	24.38	8.17	-40.5	-41.7	21.1	0.00e+00	6	41	0	142606336	54	6229
2026-01-30 13:45:53.69	24.44	8.25	-40.5	-41.7	21.2	0.00e+00	90	41	0	144703488	54	6176
2026-01-30 13:45:54.70	24.49	8.32	-40.5	-41.7	21.1	0.00e+00	81	41	0	146800640	54	6221
2026-01-30 13:45:55.71	24.55	8.40	-40.6	-41.7	21.1	0.00e+00	82	41	0	147849216	54	6237
2026-01-30 13:45:56.72	24.61	8.48	-40.3	-41.5	21.4	0.00e+00	0	41	0	149946368	54	6037
2026-01-30 13:45:57.73	24.66	8.56	-40.3	-41.4	21.4	0.00e+00	81	41	0	152043520	54	6020
2026-01-30 13:45:58.74	24.72	8.63	-40.3	-41.5	21.4	0.00e+00	0	41	0	154140672	54	6052
2026-01-30 13:45:59.75	24.78	8.71	-40.2	-41.4	21.5	0.00e+00	0	41	0	156237824	54	5965
2026-01-30 13:46:00.76	24.84	8.79	-40.2	-41.3	21.5	0.00e+00	92	41	0	157286400	54	5921
2026-01-30 13:46:01.77	24.89	8.87	-40.3	-41.5	21.5	0.00e+00	1	41	0	159383552	54	6052
2026-01-30 13:46:02.78	24.95	8.95	-40.4	-41.5	21.4	0.00e+00	91	41	0	161480704	54	6101
2026-01-30 13:46:03.79	25.01	9.03	-40.3	-41.4	21.5	0.00e+00	80	41	0	163577856	54	6014
2026-01-30 13:46:04.80	25.07	9.11	-40.2	-41.3	21.6	0.00e+00	0	41	0	165675008	54	5964
2026-01-30 13:46:05.81	25.13	9.19	-40.2	-41.3	21.5	0.00e+00	0	41	0	166723584	54	5954
2026-01-30 13:46:06.81	25.19	9.26	-40.1	-41.2	21.7	0.00e+00	0	41	0	168820736	54	5886
2026-01-30 13:46:07.82	25.25	9.34	-40.0	-41.1	21.7	0.00e+00	92	41	0	170917888	54	5824
2026-01-30 13:46:08.83	25.31	9.42	-40.1	-41.2	21.7	0.00e+00	0	41	0	173015040	54	5843
2026-01-30 13:46:09.84	25.37	9.50	-40.0	-41.1	21.9	0.00e+00	91	41	0	175112192	54	5776
2026-01-30 13:46:10.85	25.43	9.59	-40.0	-41.1	21.9	0.00e+00	0	41	0	176160768	54	5768
2026-01-30 13:46:11.86	25.49	9.67	-39.9	-41.0	21.9	0.00e+00	0	41	0	178257920	54	5723
2026-01-30 13:46:12.87	25.55	9.75	-40.0	-41.1	21.8	0.00e+00	0	41	0	180355072	54	5801
2026-01-30 13:46:13.88	25.61	9.83	-39.8	-40.9	22.0	0.00e+00	0	41	0	182452224	52	6337
2026-01-30 13:46:14.89	25.68	9.91	-39.8	-40.9	22.0	0.00e+00	92	41	0	184549376	52	6318
2026-01-30 13:46:15.90	25.74	9.99	-39.9	-41.0	21.9	0.00e+00	0	41	0	185597952	52	6444
2026-01-30 13:46:16.91	25.80	10.07	-39.9	-41.0	22.0	0.00e+00	92	41	0	187695104	52	6431
2026-01-30 13:46:17.92	25.87	10.16	-39.6	-40.7	22.3	0.00e+00	0	41	0	189792256	52	6182
2026-01-30 13:46:18.92	25.93	10.24	-39.7	-40.7	22.2	0.00e+00	91	41	0	191889408	52	6242
2026-01-30 13:46:19.93	25.99	10.32	-39.9	-40.9	22.1	0.00e+00	0	41	0	193986560	52	6386
2026-01-30 13:46:20.94	26.06	10.40	-39.9	-40.9	22.1	0.00e+00	0	41	0	195035136	52	6381
2026-01-30 13:46:21.95	26.12	10.49	-39.9	-40.9	22.1	0.00e+00	63	41	0	197132288	52	6363
2026-01-30 13:46:22.96	26.19	10.57	-39.9	-41.0	22.0	0.00e+00	0	41	0	199229440	52	6433
2026-01-30 13:46:23.97	26.25	10.65	-39.8	-40.8	22.1	0.00e+00	92	41	0	201326592	52	6284
2026-01-30 13:46:24.98	26.32	10.74	-39.7	-40.8	22.2	0.00e+00	0	41	0	203423744	52	6268
2026-01-30 13:46:25.99	26.38	10.82	-39.7	-40.7	22.3	0.00e+00	92	41	0	204472320	52	6219
2026-01-30 13:46:27.00	26.45	10.91	-39.6	-40.6	22.3	0.00e+00	0	41	0	206569472	52	6114
2026-01-30 13:46:28.01	26.51	10.99	-39.7	-40.7	22.3	0.00e+00	2	41	0	208666624	52	6204
2026-01-30 13:46:29.02	26.58	11.08	-39.6	-40.6	22.3	0.00e+00	0	41	0	210763776	52	6161
2026-01-30 13:46:30.03	26.65	11.16	-39.6	-40.6	22.3	0.00e+00	0	41	0	212860928	52	6120
2026-01-30 13:46:31.04	26.72	11.25	-39.5	-40.5	22.4	0.00e+00	92	41	0	213909504	52	6044
2026-01-30 13:46:32.05	26.78	11.33	-39.6	-40.6	22.4	0.00e+00	0	41	0	216006656	52	6136
2026-01-30 13:46:33.06	26.85	11.42	-39.6	-40.6	22.4	0.00e+00	91	41	0	218103808	52	6160
2026-01-30 13:46:34.06	26.92	11.50	-39.6	-40.6	22.4	0.00e+00	0	41	0	220200960	52	6143
2026-01-30 13:46:35.07	26.99	11.59	-39.5	-40.5	22.5	0.00e+00	0	41	0	222298112	52	6091
2026-01-30 13:46:36.08	27.06	11.68	-39.5	-40.5	22.4	0.00e+00	0	41	0	223346688	52	6094
2026-01-30 13:46:37.09	27.13	11.77	-39.4	-40.4	22.7	0.00e+00	81	41	0	225443840	52	5979
2026-01-30 13:46:38.10	27.20	11.85	-39.4	-40.4	22.6	0.00e+00	13	41	0	227540992	52	6004
2026-01-30 13:46:39.11	27.27	11.94	-39.4	-40.4	22.6	0.00e+00	0	41	0	229638144	52	6016
2026-01-30 13:46:40.12	27.34	12.03	-39.4	-40.4	22.6	0.00e+00	92	41	0	231735296	52	5999
2026-01-30 13:46:41.13	27.41	12.12	-39.3	-40.3	22.7	0.00e+00	82	41	0	232783872	52	5943
2026-01-30 13:46:42.14	27.48	12.21	-39.3	-40.3	22.7	0.00e+00	0	41	0	234881024	52	5948
2026-01-30 13:46:43.15	27.56	12.29	-39.3	-40.2	22.8	0.00e+00	0	41	0	236978176	52	5894
2026-01-30 13:46:44.16	27.63	12.38	-39.2	-40.2	22.8	0.00e+00	76	41	0	239075328	52	5845
2026-01-30 13:46:45.17	27.70	12.47	-39.2	-40.2	22.9	0.00e+00	82	41	0	241172480	52	5846
2026-01-30 13:46:46.18	27.78	12.56	-39.1	-40.1	23.0	0.00e+00	0	41	0	243269632	52	5775
2026-01-30 13:46:47.19	27.85	12.65	-39.1	-40.1	22.9	0.00e+00	92	41	0	244318208	52	5811
2026-01-30 13:46:48.20	27.92	12.74	-39.1	-40.1	23.0	0.00e+00	0	41	0	246415360	52	5768
2026-01-30 13:46:49.21	28.00	12.83	-39.1	-40.0	23.0	0.00e+00	92	41	0	248512512	52	5757
2026-01-30 13:46:50.22	28.07	12.92	-39.1	-40.1	23.0	0.00e+00	0	41	0	250609664	52	5769
2026-01-30 13:46:51.23	28.15	13.02	-39.1	-40.1	22.9	0.00e+00	0	41	0	252706816	52	5788
2026-01-30 13:46:52.24	28.23	13.11	-39.1	-40.0	23.0	0.00e+00	2	41	0	253755392	52	5755
2026-01-30 13:46:53.25	28.30	13.20	-39.1	-40.0	23.1	0.00e+00	0	41	0	255852544	52	5735
2026-01-30 13:46:54.26	28.38	13.29	-39.0	-40.0	23.0	0.00e+00	91	41	0	257949696	52	5730
2026-01-30 13:46:55.27	28.46	13.38	-38.9	-39.8	23.2	0.00e+00	2	41	0	260046848	52	5608
2026-01-30 13:46:56.28	28.53	13.48	-38.9	-39.9	23.1	0.00e+00	91	41	0	262144000	52	5647
2026-01-30 13:46:57.29	28.61	13.57	-38.9	-39.8	23.2	0.00e+00	0	41	0	263192576	52	5592
2026-01-30 13:46:58.30	28.69	13.66	-38.8	-39.7	23.3	0.00e+00	0	41	0	265289728	52	5559
2026-01-30 13:46:59.30	28.77	13.76	-38.9	-39.8	23.2	0.00e+00	0	41	0	267386880	52	5589
2026-01-30 13:47:00.31	28.85	13.85	-38.9	-39.8	23.2	0.00e+00	77	41	0	269484032	52	5611
2026-01-30 13:47:01.32	28.93	13.94	-38.6	-39.6	23.4	0.00e+00	0	41	0	271581184	50	6108
2026-01-30 13:47:02.33	29.01	14.04	-38.7	-39.6	23.4	0.00e+00	80	41	0	272629760	50	6134
2026-01-30 13:47:03.34	29.09	14.13	-38.6	-39.5	23.4	0.00e+00	92	41	0	274726912	50	6095
2026-01-30 13:47:04.35	29.17	14.23	-38.5	-39.4	23.6	0.00e+00	81	41	0	276824064	50	5991
2026-01-30 13:47:05.36	29.26	14.32	-38.6	-39.5	23.6	0.00e+00	67	41	0	278921216	50	6060
2026-01-30 13:47:06.37	29.34	14.42	-38.6	-39.5	23.5	0.00e+00	0	41	0	281018368	50	6042
2026-01-30 13:47:07.38	29.42	14.52	-38.5	-39.3	23.7	0.00e+00	0	41	0	282066944	50	5964
2026-01-30 13:47:08.39	29.51	14.61	-38.5	-39.4	23.6	0.00e+00	17	41	0	284164096	50	5983
2026-01-30 13:47:09.40	29.59	14.71	-38.6	-39.6	23.5	0.00e+00	6	41	0	286261248	50	6105
2026-01-30 13:47:10.41	29.67	14.81	-38.8	-39.7	23.3	0.00e+00	90	41	0	288358400	50	6224
2026-01-30 13:47:11.42	29.76	14.91	-38.9	-39.9	23.2	0.00e+00	5	41	0	290455552	50	6332
2026-01-30 13:47:12.43	29.85	15.00	-38.9	-39.8	23.2	0.00e+00	92	41	0	291504128	50	6296
2026-01-30 13:47:13.43	29.93	15.10	-38.7	-39.7	23.4	0.00e+00	1	41	0	293601280	50	6190
2026-01-30 13:47:14.44	30.02	15.20	-38.9	-39.8	23.2	0.00e+00	5	41	0	295698432	50	6267
2026-01-30 13:47:15.45	30.11	15.30	-38.8	-39.8	23.3	0.00e+00	0	41	0	297795584	50	6249
2026-01-30 13:47:16.46	30.19	15.40	-39.0	-39.9	23.1	0.00e+00	5	41	0	299892736	50	6379
2026-01-30 13:47:17.47	30.28	15.50	-38.8	-39.8	23.3	0.00e+00	92	41	0	300941312	50	6268
2026-01-30 13:47:18.48	30.37	15.60	-39.0	-39.9	23.1	0.00e+00	6	41	0	303038464	50	6366
2026-01-30 13:47:19.49	30.46	15.70	-39.0	-40.0	23.1	0.00e+00	91	41	0	305135616	50	6421
2026-01-30 13:47:20.50	30.55	15.80	-39.1	-40.0	23.0	0.00e+00	0	41	0	307232768	50	6463
2026-01-30 13:47:21.51	30.64	15.90	-39.2	-40.1	22.9	0.00e+00	23	41	0	309329920	50	6528
2026-01-30 13:47:22.52	30.73	16.00	-39.0	-40.0	23.0	0.00e+00	72	41	0	311427072	50	6396
2026-01-30 13:47:23.53	30.83	16.10	-39.1	-40.0	22.9	0.00e+00	77	41	0	312475648	50	6439
2026-01-30 13:47:24.54	30.92	16.20	-39.1	-40.0	23.0	0.00e+00	0	41	0	314572800	50	6426
2026-01-30 13:47:25.55	31.01	16.31	-39.2	-40.1	22.9	0.00e+00	84	41	0	316669952	50	6520
2026-01-30 13:47:26.56	31.10	16.41	-39.0	-39.9	23.1	0.00e+00	92	41	0	318767104	50	6369
2026-01-30 13:47:27.57	31.20	16.51	-39.1	-40.1	23.0	0.00e+00	5	41	0	320864256	50	6503
2026-01-30 13:47:28.58	31.29	16.62	-39.1	-40.1	23.0	0.00e+00	77	41	0	321912832	50	6499
2026-01-30 13:47:29.59	31.39	16.72	-39.1	-40.1	23.1	0.00e+00	5	41	0	324009984	50	6475
2026-01-30 13:47:30.60	31.49	16.83	-39.1	-40.0	23.1	0.00e+00	6	41	0	326107136	50	6445
2026-01-30 13:47:31.60	31.58	16.93	-39.1	-40.1	23.1	0.00e+00	0	41	0	328204288	50	6479
2026-01-30 13:47:32.61	31.68	17.03	-39.1	-40.1	23.0	0.00e+00	7	41	0	330301440	50	6495
2026-01-30 13:47:33.62	31.78	17.14	-39.0	-40.0	23.2	0.00e+00	92	41	0	331350016	50	6413
2026-01-30 13:47:34.63	31.88	17.25	-39.0	-39.9	23.3	0.00e+00	2	41	0	333447168	50	6343
2026-01-30 13:47:35.64	31.98	17.35	-39.0	-39.9	23.1	0.00e+00	92	41	0	335544320	50	6347
2026-01-30 13:47:36.65	32.08	17.46	-38.9	-39.9	23.2	0.00e+00	0	41	0	337641472	50	6338
2026-01-30 13:47:37.66	32.18	17.57	-39.0	-39.9	23.2	0.00e+00	7	41	0	339738624	50	6342
2026-01-30 13:47:38.66	32.28	17.67	-39.0	-39.9	23.2	0.00e+00	0	41	0	340787200	50	6364
2026-01-30 13:47:39.67	32.38	17.78	-39.1	-40.0	23.2	0.00e+00	0	41	0	342884352	50	6425
2026-01-30 13:47:40.68	32.48	17.89	-39.0	-40.0	23.2	0.00e+00	92	41	0	344981504	50	6392
2026-01-30 13:47:41.69	32.59	18.00	-39.1	-40.0	23.2	0.00e+00	0	41	0	347078656	50	6434
2026-01-30 13:47:42.70	32.69	18.11	-38.8	-39.8	23.4	0.00e+00	91	41	0	349175808	50	6258
2026-01-30 13:47:43.71	32.80	18.21	-38.9	-39.8	23.3	0.00e+00	81	41	0	350224384	50	6306
2026-01-30 13:47:44.72	32.90	18.32	-38.7	-39.6	23.5	0.00e+00	82	41	0	352321536	50	6161
2026-01-30 13:47:45.73	33.01	18.43	-38.8	-39.7	23.4	0.00e+00	81	41	0	354418688	50	6231
2026-01-30 13:47:46.74	33.12	18.55	-38.9	-39.8	23.3	0.00e+00	4	41	0	356515840	50	6279
2026-01-30 13:47:47.75	33.22	18.66	-38.9	-39.9	23.3	0.00e+00	0	41	0	358612992	50	6330
2026-01-30 13:47:48.76	33.33	18.77	-38.8	-39.7	23.4	0.00e+00	77	41	0	359661568	50	6232
2026-01-30 13:47:49.77	33.44	18.88	-38.8	-39.8	23.3	0.00e+00	91	41	0	361758720	50	6255
2026-01-30 13:47:50.78	33.55	18.99	-38.9	-39.8	23.3	0.00e+00	0	41	0	363855872	50	6267
2026-01-30 13:47:51.79	33.66	19.10	-38.8	-39.7	23.4	0.00e+00	90	41	0	365953024	50	6242
2026-01-30 13:47:52.80	33.77	19.22	-39.0	-39.9	23.2	0.00e+00	0	41	0	368050176	50	6377
2026-01-30 13:47:53.81	33.89	19.33	-38.9	-39.8	23.4	0.00e+00	0	41	0	369098752	50	6271
2026-01-30 13:47:54.82	34.00	19.44	-38.8	-39.7	23.4	0.00e+00	0	41	0	371195904	50	6220
2026-01-30 13:47:55.83	34.12	19.56	-38.9	-39.8	23.4	0.00e+00	2	41	0	373293056	50	6266
2026-01-30 13:47:56.84	34.23	19.67	-38.8	-39.7	23.4	0.00e+00	92	41	0	375390208	50	6229
2026-01-30 13:47:57.85	34.35	19.79	-38.8	-39.7	23.4	0.00e+00	0	41	0	377487360	50	6232
2026-01-30 13:47:58.86	34.46	19.90	-38.8	-39.7	23.4	0.00e+00	92	41	0	379584512	50	6231
2026-01-30 13:47:59.87	34.58	20.02	-38.9	-39.8	23.4	0.00e+00	0	41	0	380633088	50	6277
2026-01-30 13:48:00.88	34.70	20.14	-38.9	-39.8	23.4	0.00e+00	0	41	0	382730240	50	6279
2026-01-30 13:48:01.89	34.82	20.25	-38.9	-39.8	23.3	0.00e+00	0	41	0	384827392	50	6315
2026-01-30 13:48:02.90	34.94	20.37	-39.0	-39.9	23.3	0.00e+00	4	41	0	386924544	50	6354
2026-01-30 13:48:03.91	35.06	20.49	-39.2	-40.1	23.2	0.00e+00	63	41	0	389021696	50	6513
2026-01-30 13:48:04.92	35.18	20.61	-39.1	-40.1	23.1	0.00e+00	0	41	0	390070272	50	6494
2026-01-30 13:48:05.92	35.30	20.72	-39.2	-40.1	23.1	0.00e+00	92	41	0	392167424	50	6539
2026-01-30 13:48:06.93	35.43	20.84	-39.1	-40.1	23.1	0.00e+00	82	41	0	394264576	50	6485
2026-01-30 13:48:07.94	35.55	20.96	-39.3	-40.3	22.9	0.00e+00	81	41	0	396361728	50	6657
2026-01-30 13:48:08.95	35.68	21.08	-39.2	-40.2	23.1	0.00e+00	0	41	0	398458880	50	6566
2026-01-30 13:48:09.96	35.80	21.20	-39.4	-40.4	22.9	0.00e+00	0	41	0	399507456	50	6735
2026-01-30 13:48:10.97	35.93	21.32	-39.4	-40.4	22.9	0.00e+00	3	41	0	401604608	50	6732
2026-01-30 13:48:11.98	36.06	21.44	-39.6	-40.6	22.7	0.00e+00	78	41	0	403701760	50	6900
2026-01-30 13:48:12.99	36.19	21.57	-39.6	-40.6	22.7	0.00e+00	92	41	0	405798912	50	6885
2026-01-30 13:48:14.00	36.32	21.69	-39.4	-40.4	22.9	0.00e+00	0	41	0	407896064	50	6723
2026-01-30 13:48:15.01	36.45	21.81	-39.4	-40.4	22.8	0.00e+00	91	41	0	408944640	50	6745
2026-01-30 13:48:16.02	36.58	21.93	-39.4	-40.4	22.9	0.00e+00	0	41	0	411041792	50	6696
2026-01-30 13:48:17.03	36.72	22.06	-39.5	-40.5	22.8	0.00e+00	2	41	0	413138944	50	6802
2026-01-30 13:48:18.04	36.85	22.18	-39.3	-40.3	23.0	0.00e+00	0	41	0	415236096	50	6625
2026-01-30 13:48:19.04	36.99	22.30	-39.3	-40.2	23.0	0.00e+00	0	41	0	417333248	50	6589
2026-01-30 13:48:20.05	37.12	22.43	-39.3	-40.2	23.0	0.00e+00	92	41	0	418381824	50	6590
2026-01-30 13:48:21.06	37.26	22.55	-39.3	-40.3	23.0	0.00e+00	2	41	0	420478976	50	6622
2026-01-30 13:48:22.07	37.40	22.68	-39.3	-40.3	23.0	0.00e+00	90	41	0	422576128	50	6635
2026-01-30 13:48:23.08	37.54	22.81	-39.4	-40.4	22.9	0.00e+00	0	41	0	424673280	50	6700
2026-01-30 13:48:24.09	37.68	22.93	-39.2	-40.2	23.0	0.00e+00	81	41	0	426770432	50	6555
2026-01-30 13:48:25.10	37.82	23.06	-39.5	-40.4	22.5	0.00e+00	0	41	0	427819008	50	6741
2026-01-30 13:48:26.11	37.97	23.19	-39.3	-40.2	22.8	0.00e+00	0	41	0	429916160	50	6595
2026-01-30 13:48:27.12	38.11	23.32	-39.3	-40.3	23.0	0.00e+00	50	41	0	432013312	50	6630
2026-01-30 13:48:28.13	38.26	23.44	-39.2	-40.2	23.1	0.00e+00	0	41	0	434110464	50	6565
2026-01-30 13:48:29.14	38.40	23.57	-39.1	-40.1	23.2	0.00e+00	91	41	0	436207616	50	6493
2026-01-30 13:48:30.15	38.55	23.70	-39.0	-40.0	23.3	0.00e+00	81	41	0	437256192	50	6411
2026-01-30 13:48:31.16	38.70	23.83	-39.0	-40.0	23.3	0.00e+00	0	41	0	439353344	50	6395
2026-01-30 13:48:32.17	38.85	23.96	-39.1	-40.0	23.3	0.00e+00	82	41	0	441450496	50	6450
2026-01-30 13:48:33.18	39.00	24.09	-39.0	-39.9	23.3	0.00e+00	0	41	0	443547648	50	6388
2026-01-30 13:48:34.19	39.15	24.22	-39.1	-40.0	23.2	0.00e+00	0	41	0	445644800	50	6446
2026-01-30 13:48:35.20	39.31	24.36	-39.1	-40.0	23.3	0.00e+00	0	41	0	447741952	50	6441
2026-01-30 13:48:36.21	39.46	24.49	-39.1	-40.1	23.2	0.00e+00	91	41	0	448790528	50	6487
2026-01-30 13:48:37.22	39.62	24.62	-39.3	-40.2	23.2	0.00e+00	0	41	0	450887680	50	6598
2026-01-30 13:48:38.23	39.78	24.75	-39.2	-40.2	23.1	0.00e+00	92	41	0	452984832	50	6556
2026-01-30 13:48:39.24	39.94	24.89	-39.4	-40.3	23.0	0.00e+00	0	41	0	455081984	50	6690
2026-01-30 13:48:40.25	40.10	25.02	-39.4	-40.4	22.9	0.00e+00	0	41	0	457179136	50	6745
2026-01-30 13:48:41.26	40.26	25.16	-39.5	-40.5	22.9	0.00e+00	0	41	0	458227712	50	6817
2026-01-30 13:48:42.27	40.42	25.29	-39.5	-40.4	22.9	0.00e+00	0	41	0	460324864	50	6765
2026-01-30 13:48:43.28	40.59	25.43	-39.5	-40.5	22.8	0.00e+00	87	41	0	462422016	50	6803
2026-01-30 13:48:44.29	40.75	25.56	-39.4	-40.4	22.9	0.00e+00	2	41	0	464519168	50	6713
2026-01-30 13:48:45.30	40.92	25.70	-39.5	-40.5	22.7	0.00e+00	92	41	0	466616320	50	6823
2026-01-30 13:48:46.31	41.09	25.83	-39.4	-40.4	22.7	0.00e+00	81	41	0	467664896	50	6704
2026-01-30 13:48:47.32	41.26	25.97	-39.4	-40.4	22.9	0.00e+00	81	41	0	469762048	50	6716
2026-01-30 13:48:48.33	41.43	26.11	-39.4	-40.4	22.9	0.00e+00	0	41	0	471859200	50	6710
2026-01-30 13:48:49.34	41.60	26.25	-39.6	-40.6	22.8	0.00e+00	82	41	0	473956352	50	6874
2026-01-30 13:48:50.34	41.77	26.38	-39.4	-40.4	22.9	0.00e+00	90	41	0	476053504	50	6726
2026-01-30 13:48:51.35	41.95	26.52	-39.5	-40.5	23.0	0.00e+00	0	41	0	477102080	50	6771
2026-01-30 13:48:52.36	42.13	26.66	-39.3	-40.3	23.0	0.00e+00	91	41	0	479199232	50	6636
2026-01-30 13:48:53.38	42.31	26.80	-39.2	-40.2	23.2	0.00e+00	81	41	0	481296384	50	6568
2026-01-30 13:48:54.38	42.49	26.94	-39.1	-40.1	23.3	0.00e+00	33	41	0	483393536	50	6474
2026-01-30 13:48:55.39	42.67	27.08	-39.0	-39.9	23.4	0.00e+00	6	41	0	485490688	50	6359
2026-01-30 13:48:56.40	42.85	27.22	-38.9	-39.9	23.4	0.00e+00	0	41	0	486539264	50	6327
2026-01-30 13:48:57.41	43.04	27.37	-38.9	-39.9	23.4	0.00e+00	86	41	0	488636416	50	6327
2026-01-30 13:48:58.42	43.22	27.51	-39.1	-40.0	23.3	0.00e+00	0	41	0	490733568	50	6454
2026-01-30 13:48:59.43	43.41	27.65	-39.2	-40.2	23.2	0.00e+00	92	41	0	492830720	50	6557
2026-01-30 13:49:00.44	43.60	27.79	-39.4	-40.4	22.9	0.00e+00	0	41	0	494927872	50	6705
2026-01-30 13:49:01.45	43.79	27.94	-39.7	-40.6	22.7	0.00e+00	90	41	0	495976448	50	6927
2026-01-30 13:49:02.46	43.99	28.08	-39.6	-40.6	22.8	0.00e+00	7	41	0	498073600	50	6901
2026-01-30 13:49:03.46	44.18	28.22	-39.8	-40.9	22.4	0.00e+00	0	41	0	500170752	52	6318
2026-01-30 13:49:04.48	44.38	28.37	-40.0	-41.1	21.9	0.00e+00	5	41	0	502267904	52	6482
2026-01-30 13:49:05.49	44.58	28.51	-40.1	-41.2	22.2	0.00e+00	0	41	0	504365056	52	6559
2026-01-30 13:49:06.50	44.78	28.66	-40.3	-41.4	22.1	0.00e+00	92	41	0	505413632	52	6693
2026-01-30 13:49:07.51	44.98	28.80	-40.4	-41.5	21.9	0.00e+00	84	41	0	507510784	52	6827
2026-01-30 13:49:08.51	45.18	28.95	-40.5	-41.6	21.9	0.00e+00	91	41	0	509607936	52	6886
2026-01-30 13:49:09.52	45.39	29.09	-40.7	-41.8	21.7	0.00e+00	0	41	0	511705088	52	7034
2026-01-30 13:49:10.54	45.60	29.24	-40.7	-41.8	21.6	0.00e+00	2	41	0	513802240	54	6308
2026-01-30 13:49:11.55	45.81	29.39	-40.5	-41.6	21.8	0.00e+00	84	41	0	515899392	54	6171
2026-01-30 13:49:12.56	46.02	29.54	-40.5	-41.6	21.8	0.00e+00	0	41	0	516947968	54	6108
2026-01-30 13:49:13.56	46.23	29.68	-40.3	-41.4	22.0	0.00e+00	85	41	0	519045120	54	5974
2026-01-30 13:49:14.57	46.44	29.83	-40.2	-41.2	22.2	0.00e+00	0	41	0	521142272	54	5863
2026-01-30 13:49:15.58	46.66	29.98	-40.1	-41.2	22.3	0.00e+00	91	41	0	523239424	54	5839
2026-01-30 13:49:16.59	46.88	30.13	-40.2	-41.2	22.1	0.00e+00	2	41	0	525336576	54	5893
2026-01-30 13:49:17.60	47.10	30.28	-40.2	-41.3	22.2	0.00e+00	6	41	0	526385152	54	5916
2026-01-30 13:49:18.62	47.33	30.43	-40.6	-41.7	21.8	0.00e+00	5	41	0	528482304	54	6192
2026-01-30 13:49:19.63	47.55	30.58	-40.7	-41.8	21.7	0.00e+00	6	41	0	530579456	54	6294
2026-01-30 13:49:20.64	47.78	30.73	-40.9	-42.0	21.5	0.00e+00	0	41	0	532676608	54	6423
2026-01-30 13:49:21.65	48.01	30.88	-40.7	-41.8	21.6	0.00e+00	0	41	0	534773760	54	6309
2026-01-30 13:49:22.66	48.24	31.03	-40.7	-41.8	21.8	0.00e+00	90	41	0	535822336	54	6271
2026-01-30 13:49:23.66	48.47	31.18	-40.5	-41.6	21.9	0.00e+00	0	41	0	537919488	54	6138
2026-01-30 13:49:24.68	48.71	31.33	-40.4	-41.5	22.0	0.00e+00	90	41	0	540016640	54	6087
2026-01-30 13:49:25.69	48.94	31.48	-40.5	-41.6	22.0	0.00e+00	0	41	0	542113792	54	6132
2026-01-30 13:49:26.69	49.18	31.63	-40.5	-41.6	21.9	0.00e+00	81	41	0	544210944	54	6150
2026-01-30 13:49:27.70	49.42	31.79	-40.5	-41.6	21.9	0.00e+00	0	41	0	545259520	54	6112
2026-01-30 13:49:28.71	49.67	31.94	-40.4	-41.4	22.0	0.00e+00	0	41	0	547356672	54	6008
2026-01-30 13:49:29.72	49.91	32.09	-40.3	-41.3	22.2	0.00e+00	91	41	0	549453824	54	5956
2026-01-30 13:49:30.73	50.16	32.24	-39.9	-40.9	22.6	0.00e+00	81	41	0	551550976	54	5672
2026-01-30 13:49:31.74	50.41	32.40	-39.8	-40.8	22.5	0.00e+00	92	41	0	553648128	54	5588
2026-01-30 13:49:32.75	50.67	32.55	-39.6	-40.6	22.9	0.00e+00	0	41	0	554696704	52	6116
2026-01-30 13:49:33.76	50.92	32.70	-39.7	-40.7	22.8	0.00e+00	0	41	0	556793856	52	6177
2026-01-30 13:49:34.77	51.18	32.86	-39.7	-40.6	22.8	0.00e+00	0	41	0	558891008	52	6168
2026-01-30 13:49:35.78	51.44	33.01	-39.7	-40.7	22.8	0.00e+00	82	41	0	560988160	52	6178
2026-01-30 13:49:36.79	51.71	33.16	-39.7	-40.7	22.7	0.00e+00	92	41	0	563085312	52	6207
2026-01-30 13:49:37.80	51.97	33.32	-39.7	-40.6	22.8	0.00e+00	0	41	0	564133888	52	6156
2026-01-30 13:49:38.81	52.24	33.47	-39.6	-40.6	22.8	0.00e+00	90	41	0	566231040	52	6128
2026-01-30 13:49:39.82	52.51	33.62	-39.7	-40.7	22.8	0.00e+00	2	41	0	568328192	52	6182
2026-01-30 13:49:40.83	52.78	33.78	-39.8	-40.8	22.6	0.00e+00	21	41	0	570425344	52	6276
2026-01-30 13:49:41.84	53.06	33.93	-40.1	-41.1	22.5	0.00e+00	0	41	0	572522496	52	6496
2026-01-30 13:49:42.85	53.34	34.09	-40.0	-41.0	22.3	0.00e+00	2	41	0	573571072	52	6457
2026-01-30 13:49:43.86	53.62	34.24	-40.3	-41.3	22.1	0.00e+00	0	41	0	575668224	52	6683
2026-01-30 13:49:44.86	53.90	34.39	-40.1	-41.2	22.2	0.00e+00	0	41	0	577765376	52	6566
2026-01-30 13:49:45.87	54.18	34.55	-40.1	-41.1	22.4	0.00e+00	91	41	0	579862528	52	6508
2026-01-30 13:49:46.88	54.47	34.70	-39.8	-40.8	22.7	0.00e+00	0	41	0	581959680	52	6260
2026-01-30 13:49:47.89	54.76	34.86	-39.5	-40.5	23.0	0.00e+00	92	41	0	584056832	52	6073
2026-01-30 13:49:48.90	55.06	35.01	-39.1	-40.0	23.3	0.00e+00	81	41	0	585105408	52	5735
2026-01-30 13:49:49.91	55.35	35.17	-39.3	-40.3	23.2	0.00e+00	0	41	0	587202560	52	5908
2026-01-30 13:49:50.92	55.65	35.32	-39.4	-40.4	23.0	0.00e+00	0	41	0	589299712	52	5988
2026-01-30 13:49:51.93	55.96	35.47	-39.5	-40.5	22.9	0.00e+00	80	41	0	591396864	52	6047
2026-01-30 13:49:52.94	56.26	35.63	-39.6	-40.6	22.9	0.00e+00	92	41	0	592445440	52	6112
2026-01-30 13:49:53.95	56.57	35.78	-39.8	-40.8	22.5	0.00e+00	0	41	0	594542592	52	6283
2026-01-30 13:49:54.96	56.88	35.93	-39.7	-40.7	22.7	0.00e+00	92	41	0	596639744	52	6197
2026-01-30 13:49:55.97	57.19	36.09	-39.6	-40.6	22.9	0.00e+00	81	41	0	598736896	52	6114
2026-01-30 13:49:56.98	57.51	36.24	-39.3	-40.3	23.2	0.00e+00	82	41	0	600834048	52	5907
2026-01-30 13:49:57.98	57.83	36.39	-39.4	-40.4	23.0	0.00e+00	0	41	0	601882624	52	5996
2026-01-30 13:49:59.00	58.15	36.55	-39.5	-40.4	22.9	0.00e+00	0	41	0	603979776	52	6012
2026-01-30 13:50:00.01	58.48	36.70	-39.7	-40.7	22.7	0.00e+00	54	41	0	606076928	52	6184
2026-01-30 13:50:01.02	58.81	36.85	-39.8	-40.8	22.6	0.00e+00	2	41	0	608174080	52	6274
2026-01-30 13:50:02.02	59.14	37.00	-40.0	-41.0	22.5	0.00e+00	92	41	0	610271232	52	6403
2026-01-30 13:50:03.03	59.47	37.15	-40.2	-41.3	22.2	0.00e+00	0	41	0	612368384	52	6641
2026-01-30 13:50:04.04	59.81	37.30	-40.0	-41.0	22.4	0.00e+00	31	41	0	613416960	52	6441
2026-01-30 13:50:05.05	60.15	37.45	-40.2	-41.3	22.2	0.00e+00	0	41	0	615514112	52	6631
2026-01-30 13:50:06.06	60.49	37.60	-40.2	-41.3	22.2	0.00e+00	0	41	0	617611264	52	6630
2026-01-30 13:50:07.07	60.84	37.75	-40.2	-41.2	22.3	0.00e+00	0	41	0	619708416	52	6569
2026-01-30 13:50:08.08	61.19	37.90	-40.3	-41.3	22.2	0.00e+00	0	41	0	621805568	52	6650
2026-01-30 13:50:09.09	61.54	38.05	-40.2	-41.3	22.3	0.00e+00	92	41	0	622854144	52	6618
2026-01-30 13:50:10.10	61.90	38.20	-40.3	-41.3	22.1	0.00e+00	0	41	0	624951296	52	6683
2026-01-30 13:50:11.11	62.26	38.35	-40.6	-41.7	21.9	0.00e+00	92	41	0	627048448	52	6930
2026-01-30 13:50:12.12	62.62	38.49	-40.8	-41.9	21.7	0.00e+00	0	41	0	629145600	52	7113
2026-01-30 13:50:13.13	62.99	38.64	-41.1	-42.2	20.9	0.00e+00	0	41	0	631242752	54	6572
2026-01-30 13:50:14.14	63.36	38.78	-41.1	-42.2	21.2	0.00e+00	65	41	0	632291328	54	6602
2026-01-30 13:50:15.15	63.73	38.93	-41.4	-42.6	20.9	0.00e+00	0	41	0	634388480	54	6916
2026-01-30 13:50:16.16	64.11	39.07	-41.1	-42.3	21.3	0.00e+00	90	41	0	636485632	54	6645
2026-01-30 13:50:17.17	64.49	39.22	-40.7	-41.8	21.8	0.00e+00	81	41	0	638582784	54	6294
2026-01-30 13:50:18.18	64.87	39.36	-40.5	-41.6	21.9	0.00e+00	92	41	0	640679936	54	6151
2026-01-30 13:50:19.19	65.26	39.50	-40.2	-41.2	22.2	0.00e+00	0	41	0	641728512	54	5850
2026-01-30 13:50:20.20	65.65	39.64	-40.0	-41.0	22.4	0.00e+00	0	41	0	643825664	54	5724
2026-01-30 13:50:21.21	66.04	39.78	-40.1	-41.1	22.4	0.00e+00	0	41	0	645922816	54	5778
2026-01-30 13:50:22.22	66.44	39.92	-40.0	-41.1	22.3	0.00e+00	0	41	0	648019968	54	5765
2026-01-30 13:50:23.23	66.83	40.06	-40.5	-41.5	22.0	0.00e+00	61	41	0	650117120	54	6083
2026-01-30 13:50:24.24	67.24	40.20	-40.2	-41.3	22.3	0.00e+00	0	41	0	651165696	54	5922
2026-01-30 13:50:25.24	67.64	40.33	-40.2	-41.2	22.3	0.00e+00	92	41	0	653262848	54	5860
2026-01-30 13:50:26.25	68.05	40.47	-39.9	-40.9	22.6	0.00e+00	2	41	0	655360000	54	5661
2026-01-30 13:50:27.26	68.46	40.60	-39.7	-40.7	22.8	0.00e+00	0	41	0	657457152	52	6176
2026-01-30 13:50:28.27	68.88	40.73	-40.1	-41.1	22.4	0.00e+00	0	41	0	659554304	52	6497
2026-01-30 13:50:29.28	69.30	40.86	-40.6	-41.6	21.9	0.00e+00	0	41	0	660602880	52	6923
2026-01-30 13:50:30.29	69.72	40.99	-40.9	-42.0	21.4	0.00e+00	0	41	0	662700032	54	6451
2026-01-30 13:50:31.30	70.15	41.12	-41.3	-42.5	21.1	0.00e+00	0	41	0	664797184	54	6807
2026-01-30 13:50:32.31	70.58	41.25	-41.2	-42.4	21.2	0.00e+00	91	41	0	666894336	54	6739
2026-01-30 13:50:33.32	71.01	41.38	-41.1	-42.3	21.3	0.00e+00	81	41	0	668991488	54	6635
2026-01-30 13:50:34.33	71.45	41.50	-40.9	-42.0	21.6	0.00e+00	90	41	0	670040064	54	6429
2026-01-30 13:50:35.34	71.89	41.63	-40.5	-41.6	21.9	0.00e+00	0	41	0	672137216	54	6154
2026-01-30 13:50:36.35	72.33	41.75	-40.7	-41.8	21.6	0.00e+00	81	41	0	674234368	54	6274
2026-01-30 13:50:37.36	72.78	41.87	-41.4	-42.5	20.5	0.00e+00	82	41	0	676331520	54	6846
2026-01-30 13:50:38.37	73.23	41.99	-42.1	-43.4	20.3	0.00e+00	81	41	0	678428672	56	6759
2026-01-30 13:50:39.38	73.68	42.11	-42.5	-43.9	19.8	0.00e+00	88	41	0	680525824	56	7162
2026-01-30 13:50:40.39	74.14	42.22	-42.1	-43.5	20.3	0.00e+00	81	41	0	681574400	56	6778
2026-01-30 13:50:41.40	74.60	42.34	-41.8	-43.0	20.7	0.00e+00	92	41	0	683671552	56	6450
2026-01-30 13:50:42.41	75.06	42.45	-41.7	-42.9	20.8	0.00e+00	0	41	0	685768704	56	6360
2026-01-30 13:50:43.42	75.53	42.56	-41.2	-42.4	21.2	0.00e+00	5	41	0	687865856	56	6004
2026-01-30 13:50:44.43	75.99	42.67	-41.0	-42.2	21.4	0.00e+00	6	41	0	689963008	56	5838
2026-01-30 13:50:45.44	76.47	42.78	-41.3	-42.4	21.3	0.00e+00	0	41	0	691011584	56	6031
2026-01-30 13:50:46.45	76.94	42.88	-41.4	-42.6	21.1	0.00e+00	90	41	0	693108736	56	6143
2026-01-30 13:50:47.46	77.42	42.99	-41.8	-43.0	20.7	0.00e+00	5	41	0	695205888	56	6439
2026-01-30 13:50:48.47	77.90	43.09	-41.6	-42.8	21.0	0.00e+00	91	41	0	697303040	56	6291
2026-01-30 13:50:49.48	78.39	43.19	-40.8	-41.9	21.9	0.00e+00	0	41	0	699400192	56	5675
2026-01-30 13:50:50.49	78.88	43.29	-40.7	-41.8	21.8	0.00e+00	85	41	0	700448768	54	6270
2026-01-30 13:50:51.50	79.37	43.38	-40.7	-41.8	21.6	0.00e+00	84	41	0	702545920	54	6299
2026-01-30 13:50:52.51	79.86	43.48	-41.5	-42.7	20.8	0.00e+00	0	41	0	704643072	54	6993
2026-01-30 13:50:53.52	80.36	43.57	-41.6	-42.9	20.8	0.00e+00	0	41	0	706740224	54	7107
2026-01-30 13:50:54.53	80.85	43.66	-40.6	-41.7	22.1	0.00e+00	85	41	0	708837376	54	6180
2026-01-30 13:50:55.54	81.36	43.74	-40.0	-41.0	22.5	0.00e+00	92	41	0	709885952	54	5717
2026-01-30 13:50:56.55	81.86	43.83	-39.4	-40.4	23.1	0.00e+00	86	41	0	711983104	52	5993
2026-01-30 13:50:57.56	82.37	43.91	-39.3	-40.2	23.2	0.00e+00	92	41	0	714080256	52	5886
2026-01-30 13:50:58.57	82.88	43.99	-39.6	-40.5	22.8	0.00e+00	0	41	0	716177408	52	6090
2026-01-30 13:50:59.58	83.39	44.07	-39.8	-40.8	22.7	0.00e+00	84	41	0	718274560	52	6296
2026-01-30 13:51:00.59	83.91	44.15	-40.5	-41.6	22.0	0.00e+00	0	41	0	720371712	52	6852
2026-01-30 13:51:01.60	84.42	44.22	-40.9	-42.0	21.7	0.00e+00	0	41	0	721420288	52	7201
2026-01-30 13:51:02.61	84.94	44.29	-40.7	-41.8	21.7	0.00e+00	92	41	0	723517440	54	6290
2026-01-30 13:51:03.62	85.46	44.36	-40.6	-41.6	22.0	0.00e+00	6	41	0	725614592	54	6165
2026-01-30 13:51:04.63	85.99	44.43	-40.8	-42.0	21.6	0.00e+00	92	41	0	727711744	54	6391
2026-01-30 13:51:05.64	86.51	44.49	-41.1	-42.3	21.3	0.00e+00	7	41	0	728760320	54	6619
2026-01-30 13:51:06.65	87.04	44.55	-40.9	-42.0	21.6	0.00e+00	7	41	0	730857472	54	6461
2026-01-30 13:51:07.66	87.57	44.61	-40.9	-42.1	21.6	0.00e+00	0	41	0	732954624	54	6474
2026-01-30 13:51:08.66	88.10	44.67	-41.0	-42.2	21.5	0.00e+00	6	41	0	735051776	54	6561
2026-01-30 13:51:09.67	88.63	44.72	-41.5	-42.7	20.9	0.00e+00	55	41	0	737148928	54	6971
2026-01-30 13:51:10.68	89.17	44.77	-41.1	-42.2	21.3	0.00e+00	6	41	0	738197504	54	6613
2026-01-30 13:51:11.69	89.71	44.82	-40.7	-41.8	21.9	0.00e+00	92	41	0	740294656	54	6249
2026-01-30 13:51:12.70	90.25	44.87	-40.2	-41.2	22.4	0.00e+00	82	41	0	742391808	54	5863
2026-01-30 13:51:13.71	90.79	44.91	-39.9	-40.8	22.7	0.00e+00	81	41	0	744488960	54	5622
2026-01-30 13:51:14.72	91.33	44.95	-39.9	-40.9	22.5	0.00e+00	81	41	0	746586112	54	5646
2026-01-30 13:51:15.72	91.87	44.99	-39.5	-40.5	23.1	0.00e+00	82	41	0	748683264	52	6083
2026-01-30 13:51:16.73	92.41	45.02	-39.7	-40.7	22.7	0.00e+00	0	41	0	749731840	52	6227
2026-01-30 13:51:17.74	92.96	45.05	-40.1	-41.2	22.3	0.00e+00	0	41	0	751828992	52	6563
2026-01-30 13:51:18.75	93.50	45.08	-40.0	-41.1	22.4	0.00e+00	92	41	0	753926144	52	6469
2026-01-30 13:51:19.76	94.05	45.11	-40.0	-41.0	22.5	0.00e+00	81	41	0	756023296	52	6434
2026-01-30 13:51:20.77	94.60	45.13	-39.7	-40.7	22.8	0.00e+00	92	41	0	758120448	52	6183
2026-01-30 13:51:21.78	95.15	45.15	-39.6	-40.6	22.9	0.00e+00	81	41	0	759169024	52	6123
2026-01-30 13:51:22.79	95.70	45.17	-39.5	-40.5	23.0	0.00e+00	0	41	0	761266176	52	6069
2026-01-30 13:51:23.80	96.25	45.18	-39.4	-40.3	23.1	0.00e+00	2	41	0	763363328	52	5945
2026-01-30 13:51:24.81	96.80	45.20	-38.7	-39.6	23.6	0.00e+00	0	41	0	765460480	52	5492
2026-01-30 13:51:25.82	97.35	45.21	-38.6	-39.5	23.8	0.00e+00	92	41	0	767557632	50	6087
2026-01-30 13:51:26.83	97.90	45.21	-38.7	-39.6	23.8	0.00e+00	0	41	0	768606208	50	6108
2026-01-30 13:51:27.84	98.46	45.22	-38.8	-39.7	23.5	0.00e+00	92	41	0	770703360	50	6224
2026-01-30 13:51:28.85	99.01	45.22	-39.1	-40.1	23.3	0.00e+00	0	41	0	772800512	50	6470
2026-01-30 13:51:29.86	99.56	45.21	-39.5	-40.4	22.9	0.00e+00	0	41	0	774897664	50	6765
2026-01-30 13:51:30.87	100.11	45.21	-39.4	-40.4	22.7	0.00e+00	0	41	0	776994816	50	6702
2026-01-30 13:51:31.88	100.66	45.20	-39.2	-40.2	23.2	0.00e+00	0	41	0	778043392	50	6551
2026-01-30 13:51:32.89	101.21	45.19	-38.8	-39.7	23.6	0.00e+00	37	41	0	780140544	50	6183
2026-01-30 13:51:33.90	101.76	45.18	-39.1	-40.0	23.4	0.00e+00	81	41	0	782237696	50	6447
2026-01-30 13:51:34.91	102.32	45.16	-39.3	-40.2	23.2	0.00e+00	92	41	0	784334848	50	6588
2026-01-30 13:51:35.92	102.87	45.14	-39.1	-40.0	23.4	0.00e+00	0	41	0	786432000	50	6416
2026-01-30 13:51:36.93	103.41	45.12	-39.0	-39.9	23.5	0.00e+00	92	41	0	787480576	50	6320
2026-01-30 13:51:37.94	103.96	45.09	-39.2	-40.1	23.3	0.00e+00	0	41	0	789577728	50	6502
2026-01-30 13:51:38.95	104.51	45.06	-39.6	-40.6	22.8	0.00e+00	2	41	0	791674880	50	6897
2026-01-30 13:51:39.96	105.06	45.03	-39.8	-40.8	22.6	0.00e+00	0	41	0	793772032	52	6311
2026-01-30 13:51:40.97	105.60	45.00	-39.8	-40.7	22.7	0.00e+00	82	41	0	795869184	52	6236
2026-01-30 13:51:41.98	106.15	44.96	-39.7	-40.7	22.7	0.00e+00	92	41	0	796917760	52	6181
2026-01-30 13:51:42.99	106.69	44.93	-40.1	-41.1	22.3	0.00e+00	0	41	0	799014912	52	6498
2026-01-30 13:51:44.00	107.23	44.88	-40.8	-41.9	21.5	0.00e+00	90	41	0	801112064	54	6384
2026-01-30 13:51:45.01	107.77	44.84	-41.6	-42.8	20.6	0.00e+00	0	41	0	803209216	54	7060
2026-01-30 13:51:46.02	108.31	44.79	-41.4	-42.6	21.2	0.00e+00	2	41	0	805306368	56	6141
2026-01-30 13:51:47.03	108.85	44.74	-40.4	-41.5	22.1	0.00e+00	0	41	0	806354944	54	6067
2026-01-30 13:51:48.04	109.38	44.69	-40.5	-41.6	22.0	0.00e+00	0	41	0	808452096	54	6114
2026-01-30 13:51:49.05	109.91	44.63	-39.9	-41.0	22.5	0.00e+00	92	41	0	810549248	54	5701
2026-01-30 13:51:50.06	110.45	44.58	-40.7	-41.8	21.5	0.00e+00	0	41	0	812646400	54	6313
2026-01-30 13:51:51.06	110.97	44.52	-40.9	-42.0	21.6	0.00e+00	92	41	0	814743552	54	6434
2026-01-30 13:51:52.07	111.50	44.45	-40.2	-41.2	22.3	0.00e+00	0	41	0	816840704	54	5879
2026-01-30 13:51:53.08	112.02	44.39	-39.5	-40.5	22.9	0.00e+00	0	41	0	817889280	52	6070
2026-01-30 13:51:54.09	112.55	44.32	-39.3	-40.2	23.2	0.00e+00	0	41	0	819986432	52	5866
2026-01-30 13:51:55.10	113.07	44.25	-39.8	-40.8	22.6	0.00e+00	0	41	0	822083584	52	6276
2026-01-30 13:51:56.11	113.59	44.18	-40.9	-42.0	21.6	0.00e+00	88	41	0	824180736	54	6445
2026-01-30 13:51:57.12	114.10	44.10	-41.0	-42.1	21.4	0.00e+00	0	41	0	826277888	54	6518
2026-01-30 13:51:58.13	114.62	44.03	-40.1	-41.1	22.5	0.00e+00	92	41	0	827326464	54	5793
2026-01-30 13:51:59.14	115.13	43.95	-39.8	-40.8	22.6	0.00e+00	82	41	0	829423616	54	5619
2026-01-30 13:52:00.14	115.63	43.86	-39.8	-40.8	22.7	0.00e+00	90	41	0	831520768	52	6259
2026-01-30 13:52:01.16	116.15	43.78	-40.1	-41.1	22.5	0.00e+00	81	41	0	833617920	52	6516
2026-01-30 13:52:02.16	116.64	43.69	-40.1	-41.1	22.5	0.00e+00	0	41	0	835715072	52	6532
2026-01-30 13:52:03.17	117.15	43.60	-39.6	-40.6	23.0	0.00e+00	0	41	0	836763648	52	6133
2026-01-30 13:52:04.19	117.65	43.51	-39.1	-40.0	23.5	0.00e+00	0	41	0	838860800	52	5737
2026-01-30 13:52:05.20	118.14	43.42	-38.6	-39.5	23.8	0.00e+00	90	41	0	840957952	50	6057
2026-01-30 13:52:06.21	118.64	43.32	-39.2	-40.2	23.3	0.00e+00	0	41	0	843055104	50	6552
2026-01-30 13:52:07.21	119.12	43.23	-39.6	-40.6	22.8	0.00e+00	90	41	0	845152256	50	6902
2026-01-30 13:52:08.23	119.61	43.13	-39.3	-40.3	23.2	0.00e+00	0	41	0	846200832	50	6642
2026-01-30 13:52:09.24	120.10	43.03	-38.1	-38.9	24.3	0.00e+00	0	41	0	848297984	50	5686
2026-01-30 13:52:10.24	120.57	42.92	-37.7	-38.5	24.7	0.00e+00	0	41	0	850395136	50	5420
2026-01-30 13:52:11.25	121.05	42.82	-37.6	-38.4	24.7	0.00e+00	0	41	0	852492288	48	5990
2026-01-30 13:52:12.26	121.53	42.71	-38.1	-38.9	24.2	0.00e+00	92	41	0	854589440	48	6359
2026-01-30 13:52:13.27	122.00	42.60	-38.2	-39.1	24.2	0.00e+00	0	41	0	855638016	48	6497
2026-01-30 13:52:14.28	122.47	42.49	-38.3	-39.1	24.1	0.00e+00	92	41	0	857735168	48	6537
2026-01-30 13:52:15.29	122.93	42.38	-37.8	-38.6	24.7	0.00e+00	0	41	0	859832320	48	6131
2026-01-30 13:52:16.30	123.39	42.27	-37.3	-38.1	25.0	0.00e+00	70	41	0	861929472	48	5810
2026-01-30 13:52:17.31	123.85	42.15	-37.5	-38.3	24.8	0.00e+00	80	41	0	864026624	48	5924
2026-01-30 13:52:18.32	124.31	42.03	-37.8	-38.6	24.1	0.00e+00	0	41	0	865075200	48	6169
2026-01-30 13:52:19.33	124.76	41.91	-37.4	-38.2	25.0	0.00e+00	86	41	0	867172352	48	5840
2026-01-30 13:52:20.34	125.21	41.79	-36.8	-37.6	25.0	0.00e+00	0	41	0	869269504	48	5446
2026-01-30 13:52:21.35	125.65	41.67	-36.9	-37.7	25.3	0.00e+00	92	41	0	871366656	48	5512
2026-01-30 13:52:22.36	126.10	41.55	-37.4	-38.2	24.9	0.00e+00	82	41	0	873463808	48	5832
2026-01-30 13:52:23.37	126.53	41.42	-37.8	-38.6	24.6	0.00e+00	92	41	0	874512384	48	6143
2026-01-30 13:52:24.38	126.97	41.30	-37.4	-38.2	25.0	0.00e+00	0	41	0	876609536	48	5847
2026-01-30 13:52:25.39	127.40	41.17	-37.2	-37.9	25.0	0.00e+00	81	41	0	878706688	48	5690
2026-01-30 13:52:26.40	127.83	41.04	-36.9	-37.7	25.2	0.00e+00	0	41	0	880803840	48	5526
2026-01-30 13:52:27.41	128.26	40.91	-37.4	-38.2	24.8	0.00e+00	6	41	0	882900992	48	5857
2026-01-30 13:52:28.42	128.68	40.78	-37.8	-38.7	24.5	0.00e+00	92	41	0	884998144	48	6197
2026-01-30 13:52:29.42	129.09	40.65	-38.4	-39.2	24.0	0.00e+00	6	41	0	886046720	48	6604
2026-01-30 13:52:30.43	129.51	40.51	-38.4	-39.3	24.1	0.00e+00	90	41	0	888143872	48	6651
2026-01-30 13:52:31.44	129.92	40.38	-38.2	-39.1	24.3	0.00e+00	0	41	0	890241024	48	6503
2026-01-30 13:52:32.45	130.33	40.24	-38.3	-39.2	24.1	0.00e+00	5	41	0	892338176	48	6564
2026-01-30 13:52:33.46	130.73	40.10	-38.3	-39.2	24.2	0.00e+00	6	41	0	894435328	48	6557
2026-01-30 13:52:34.47	131.14	39.97	-38.3	-39.2	24.1	0.00e+00	0	41	0	895483904	48	6543
2026-01-30 13:52:35.48	131.53	39.83	-38.2	-39.0	24.3	0.00e+00	72	41	0	897581056	48	6440
2026-01-30 13:52:36.49	131.93	39.69	-37.9	-38.7	24.6	0.00e+00	6	41	0	899678208	48	6222
2026-01-30 13:52:37.50	132.32	39.55	-38.2	-39.1	24.2	0.00e+00	92	41	0	901775360	48	6474
2026-01-30 13:52:38.51	132.71	39.40	-38.6	-39.5	23.8	0.00e+00	0	41	0	903872512	48	6800
2026-01-30 13:52:39.52	133.09	39.26	-38.6	-39.4	24.0	0.00e+00	85	41	0	904921088	48	6752
2026-01-30 13:52:40.53	133.48	39.12	-38.4	-39.2	24.2	0.00e+00	81	41	0	907018240	48	6588
2026-01-30 13:52:41.54	133.85	38.97	-38.1	-39.0	24.2	0.00e+00	6	41	0	909115392	48	6400
2026-01-30 13:52:42.55	134.23	38.83	-39.2	-40.1	23.3	0.00e+00	0	41	0	911212544	50	6504
2026-01-30 13:52:43.56	134.60	38.68	-40.2	-41.2	22.3	0.00e+00	80	41	0	913309696	52	6611
2026-01-30 13:52:44.57	134.97	38.53	-40.2	-41.2	22.3	0.00e+00	92	41	0	914358272	52	6600
2026-01-30 13:52:45.58	135.34	38.39	-39.3	-40.3	23.2	0.00e+00	82	41	0	916455424	52	5914
2026-01-30 13:52:46.59	135.70	38.24	-38.9	-39.8	23.7	0.00e+00	92	41	0	918552576	52	5573
2026-01-30 13:52:47.60	136.06	38.09	-38.6	-39.5	23.8	0.00e+00	8	41	0	920649728	50	6070
2026-01-30 13:52:48.61	136.41	37.94	-38.7	-39.6	23.7	0.00e+00	4	41	0	922746880	50	6111
2026-01-30 13:52:49.62	136.76	37.79	-39.3	-40.3	23.1	0.00e+00	0	41	0	923795456	50	6627
2026-01-30 13:52:50.63	137.11	37.64	-39.5	-40.5	23.0	0.00e+00	0	41	0	925892608	50	6773
2026-01-30 13:52:51.64	137.46	37.49	-38.6	-39.5	23.8	0.00e+00	92	41	0	927989760	50	6098
2026-01-30 13:52:52.65	137.80	37.34	-37.7	-38.5	24.7	0.00e+00	7	41	0	930086912	48	6053
2026-01-30 13:52:53.66	138.14	37.19	-37.7	-38.5	24.8	0.00e+00	92	41	0	932184064	48	6042
2026-01-30 13:52:54.66	138.48	37.04	-37.9	-38.7	24.5	0.00e+00	8	41	0	933232640	48	6215
2026-01-30 13:52:55.67	138.81	36.89	-39.1	-40.1	23.2	0.00e+00	7	41	0	935329792	50	6469
2026-01-30 13:52:56.68	139.14	36.73	-40.2	-41.3	22.2	0.00e+00	5	41	0	937426944	52	6670
2026-01-30 13:52:57.69	139.47	36.58	-39.6	-40.6	23.0	0.00e+00	81	41	0	939524096	52	6117
2026-01-30 13:52:58.70	139.79	36.43	-38.5	-39.4	24.0	0.00e+00	92	41	0	941621248	50	5976
2026-01-30 13:52:59.71	140.12	36.27	-38.2	-39.0	24.3	0.00e+00	80	41	0	942669824	50	5747
2026-01-30 13:53:00.72	140.43	36.12	-38.9	-39.8	23.6	0.00e+00	91	41	0	944766976	50	6273
2026-01-30 13:53:01.73	140.75	35.97	-40.0	-41.0	22.4	0.00e+00	0	41	0	946864128	52	6456
2026-01-30 13:53:02.74	141.06	35.81	-41.1	-42.3	21.2	0.00e+00	82	41	0	948961280	54	6661
2026-01-30 13:53:03.75	141.37	35.66	-40.9	-42.1	21.5	0.00e+00	0	41	0	951058432	54	6531
2026-01-30 13:53:04.76	141.68	35.50	-39.7	-40.7	23.0	0.00e+00	0	41	0	953155584	52	6209
2026-01-30 13:53:05.76	141.98	35.35	-38.9	-39.8	23.5	0.00e+00	0	41	0	954204160	52	5588
2026-01-30 13:53:06.77	142.28	35.20	-38.6	-39.5	23.9	0.00e+00	0	41	0	956301312	50	6074
2026-01-30 13:53:07.79	142.58	35.04	-38.7	-39.6	23.8	0.00e+00	92	41	0	958398464	50	6142
2026-01-30 13:53:08.80	142.88	34.88	-39.0	-39.9	23.4	0.00e+00	0	41	0	960495616	50	6389
2026-01-30 13:53:09.80	143.17	34.73	-40.6	-41.7	21.6	0.00e+00	92	41	0	962592768	52	6976
2026-01-30 13:53:10.81	143.46	34.58	-42.1	-43.5	20.3	0.00e+00	0	41	0	963641344	56	6779
2026-01-30 13:53:11.82	143.75	34.42	-41.5	-42.7	21.2	0.00e+00	0	41	0	965738496	56	6236
2026-01-30 13:53:12.83	144.03	34.27	-40.5	-41.6	22.0	0.00e+00	0	41	0	967835648	54	6116
2026-01-30 13:53:13.84	144.32	34.11	-39.8	-40.7	22.8	0.00e+00	0	41	0	969932800	54	5561
2026-01-30 13:53:14.85	144.60	33.96	-39.4	-40.3	23.0	0.00e+00	92	41	0	972029952	52	5950
2026-01-30 13:53:15.86	144.87	33.80	-40.4	-41.5	22.1	0.00e+00	0	41	0	973078528	52	6795
2026-01-30 13:53:16.86	145.14	33.65	-42.1	-43.4	20.2	0.00e+00	92	41	0	975175680	56	6760
2026-01-30 13:53:17.87	145.42	33.49	-43.1	-44.8	19.1	0.00e+00	0	41	0	977272832	58	7032
2026-01-30 13:53:18.88	145.69	33.34	-42.2	-43.6	20.3	0.00e+00	0	41	0	979369984	58	6124
2026-01-30 13:53:19.89	145.95	33.18	-40.3	-41.4	22.2	0.00e+00	0	41	0	981467136	54	6015
2026-01-30 13:53:20.90	146.22	33.03	-39.2	-40.2	23.3	0.00e+00	0	41	0	982515712	52	5833
2026-01-30 13:53:21.91	146.48	32.87	-38.9	-39.8	23.6	0.00e+00	37	41	0	984612864	52	5583
2026-01-30 13:53:22.92	146.74	32.72	-38.5	-39.3	24.0	0.00e+00	4	41	0	986710016	50	5953
2026-01-30 13:53:23.93	147.00	32.57	-39.0	-39.9	23.3	0.00e+00	92	41	0	988807168	50	6384
2026-01-30 13:53:24.94	147.25	32.41	-40.3	-41.4	22.1	0.00e+00	0	41	0	990904320	52	6754
2026-01-30 13:53:25.95	147.50	32.26	-42.0	-43.4	20.1	0.00e+00	91	41	0	991952896	56	6741
2026-01-30 13:53:26.96	147.75	32.10	-42.7	-44.2	19.6	0.00e+00	0	41	0	994050048	56	7353
2026-01-30 13:53:27.97	148.00	31.95	-42.2	-43.5	20.2	0.00e+00	81	41	0	996147200	56	6844
2026-01-30 13:53:28.98	148.25	31.80	-40.4	-41.5	22.0	0.00e+00	0	41	0	998244352	54	6092
2026-01-30 13:53:29.99	148.49	31.64	-39.3	-40.2	23.2	0.00e+00	0	41	0	1000341504	52	5867
2026-01-30 13:53:31.00	148.73	31.49	-38.9	-39.8	23.5	0.00e+00	92	41	0	1001390080	52	5592
2026-01-30 13:53:32.00	148.97	31.34	-38.8	-39.7	23.5	0.00e+00	0	41	0	1003487232	50	6219
2026-01-30 13:53:33.01	149.21	31.19	-39.7	-40.7	21.6	0.00e+00	92	41	0	1005584384	50	6987
2026-01-30 13:53:34.02	149.44	31.04	-41.1	-42.4	20.8	0.00e+00	0	41	0	1007681536	54	6705
2026-01-30 13:53:35.03	149.67	30.89	-42.9	-44.6	18.9	0.00e+00	0	41	0	1009778688	58	6857
2026-01-30 13:53:36.04	149.90	30.73	-43.2	-45.0	18.8	0.00e+00	0	41	0	1010827264	58	7179
2026-01-30 13:53:37.05	150.13	30.58	-41.8	-43.1	20.5	0.00e+00	0	41	0	1012924416	58	5813
2026-01-30 13:53:38.06	150.36	30.43	-40.7	-41.9	21.7	0.00e+00	92	41	0	1015021568	56	5634
2026-01-30 13:53:39.07	150.58	30.28	-40.4	-41.4	22.0	0.00e+00	0	41	0	1017118720	54	6029
2026-01-30 13:53:40.08	150.80	30.13	-39.1	-40.0	23.3	0.00e+00	91	41	0	1019215872	52	5743
2026-01-30 13:53:41.09	151.02	29.98	-38.1	-38.9	24.3	0.00e+00	80	41	0	1021313024	50	5644
2026-01-30 13:53:42.10	151.24	29.83	-37.7	-38.5	24.5	0.00e+00	79	41	0	1022361600	48	6077
2026-01-30 13:53:43.11	151.46	29.68	-38.3	-39.2	24.0	0.00e+00	80	41	0	1024458752	48	6559
2026-01-30 13:53:44.12	151.67	29.53	-39.2	-40.2	23.1	0.00e+00	0	41	0	1026555904	50	6576
2026-01-30 13:53:45.13	151.89	29.39	-40.2	-41.3	22.1	0.00e+00	79	41	0	1028653056	52	6623
2026-01-30 13:53:46.13	152.09	29.24	-40.7	-41.8	21.7	0.00e+00	0	41	0	1029701632	52	7040
2026-01-30 13:53:47.14	152.30	29.09	-40.5	-41.7	21.9	0.00e+00	92	41	0	1031798784	52	6937
2026-01-30 13:53:48.15	152.51	28.94	-40.4	-41.4	22.0	0.00e+00	1	41	0	1033895936	52	6762
2026-01-30 13:53:49.16	152.71	28.80	-40.1	-41.1	22.3	0.00e+00	92	41	0	1035993088	52	6518
2026-01-30 13:53:50.17	152.92	28.65	-39.6	-40.6	22.9	0.00e+00	0	41	0	1038090240	52	6121
2026-01-30 13:53:51.18	153.12	28.51	-39.2	-40.1	23.3	0.00e+00	0	41	0	1039138816	52	5789
2026-01-30 13:53:52.19	153.32	28.36	-38.9	-39.8	23.4	0.00e+00	0	41	0	1041235968	52	5613
2026-01-30 13:53:53.20	153.51	28.21	-39.4	-40.3	23.0	0.00e+00	0	41	0	1043333120	52	5946
2026-01-30 13:53:54.21	153.71	28.07	-39.6	-40.6	22.7	0.00e+00	92	41	0	1045430272	52	6132
2026-01-30 13:53:55.22	153.91	27.92	-39.8	-40.8	22.6	0.00e+00	0	41	0	1047527424	52	6315
2026-01-30 13:53:56.23	154.10	27.78	-39.9	-40.9	22.5	0.00e+00	92	41	0	1049624576	52	6386
2026-01-30 13:53:57.24	154.29	27.64	-39.6	-40.6	22.9	0.00e+00	0	41	0	1050673152	52	6109
2026-01-30 13:53:58.25	154.48	27.49	-39.2	-40.2	23.2	0.00e+00	0	41	0	1052770304	52	5862
2026-01-30 13:53:59.25	154.66	27.35	-38.7	-39.6	23.7	0.00e+00	2	41	0	1054867456	50	6120
2026-01-30 13:54:00.26	154.85	27.21	-38.7	-39.6	23.6	0.00e+00	0	41	0	1056964608	50	6126
2026-01-30 13:54:01.27	155.03	27.07	-38.0	-38.8	24.3	0.00e+00	92	41	0	1059061760	50	5619
2026-01-30 13:54:02.28	155.22	26.93	-37.9	-38.8	24.4	0.00e+00	0	41	0	1060110336	50	5576
2026-01-30 13:54:03.29	155.40	26.79	-38.0	-38.9	24.2	0.00e+00	92	41	0	1062207488	50	5636
2026-01-30 13:54:04.30	155.58	26.64	-38.1	-38.9	24.3	0.00e+00	81	41	0	1064304640	50	5663
2026-01-30 13:54:05.31	155.76	26.50	-38.3	-39.1	23.9	0.00e+00	0	41	0	1066401792	50	5815
2026-01-30 13:54:06.32	155.93	26.36	-38.5	-39.3	23.9	0.00e+00	81	41	0	1068498944	50	5948
2026-01-30 13:54:07.33	156.11	26.23	-38.8	-39.7	23.4	0.00e+00	0	41	0	1069547520	50	6224
2026-01-30 13:54:08.34	156.28	26.09	-39.0	-39.9	23.4	0.00e+00	85	41	0	1071644672	50	6357
2026-01-30 13:54:09.35	156.45	25.95	-39.0	-39.9	23.3	0.00e+00	0	41	0	1073741824	50	6371
2026-01-30 13:54:10.36	156.62	25.81	-39.0	-39.9	23.3	0.00e+00	92	41	0	1075838976	50	6371
2026-01-30 13:54:11.37	156.79	25.67	-38.7	-39.6	23.7	0.00e+00	0	41	0	1077936128	50	6130
2026-01-30 13:54:12.38	156.96	25.53	-38.7	-39.6	23.6	0.00e+00	91	41	0	1078984704	50	6114
2026-01-30 13:54:13.39	157.13	25.40	-38.4	-39.3	23.9	0.00e+00	3	41	0	1081081856	50	5936
2026-01-30 13:54:14.40	157.29	25.26	-38.6	-39.5	23.7	0.00e+00	5	41	0	1083179008	50	6045
2026-01-30 13:54:15.41	157.46	25.13	-38.2	-39.1	24.1	0.00e+00	0	41	0	1085276160	50	5783
2026-01-30 13:54:16.42	157.62	24.99	-38.1	-39.0	24.2	0.00e+00	5	41	0	1087373312	50	5721
2026-01-30 13:54:17.43	157.78	24.86	-38.1	-38.9	24.2	0.00e+00	92	41	0	1088421888	50	5695
2026-01-30 13:54:18.44	157.94	24.72	-38.1	-38.9	24.2	0.00e+00	0	41	0	1090519040	50	5662
2026-01-30 13:54:19.45	158.10	24.59	-38.1	-39.0	24.2	0.00e+00	0	41	0	1092616192	50	5698
2026-01-30 13:54:20.46	158.25	24.45	-38.1	-39.0	24.1	0.00e+00	0	41	0	1094713344	50	5715
2026-01-30 13:54:21.47	158.41	24.32	-38.4	-39.2	23.9	0.00e+00	0	41	0	1096810496	50	5881
2026-01-30 13:54:22.48	158.56	24.19	-38.7	-39.6	23.6	0.00e+00	7	41	0	1097859072	50	6127
2026-01-30 13:54:23.49	158.72	24.06	-39.0	-39.9	23.3	0.00e+00	6	41	0	1099956224	50	6356
2026-01-30 13:54:24.50	158.87	23.93	-39.4	-40.4	22.8	0.00e+00	92	41	0	1102053376	50	6767
2026-01-30 13:54:25.51	159.02	23.79	-39.7	-40.8	22.5	0.00e+00	0	41	0	1104150528	50	7017
2026-01-30 13:54:26.52	159.17	23.66	-39.8	-40.9	22.4	0.00e+00	92	41	0	1106247680	52	6353
2026-01-30 13:54:27.53	159.32	23.53	-39.8	-40.9	22.6	0.00e+00	81	41	0	1107296256	52	6327
2026-01-30 13:54:28.54	159.46	23.40	-39.7	-40.8	22.5	0.00e+00	90	41	0	1109393408	52	6262
2026-01-30 13:54:29.55	159.61	23.27	-39.4	-40.4	22.8	0.00e+00	82	41	0	1111490560	52	6012
2026-01-30 13:54:30.56	159.76	23.15	-38.9	-39.9	23.2	0.00e+00	4	41	0	1113587712	52	5642
2026-01-30 13:54:31.56	159.90	23.02	-38.9	-39.8	23.4	0.00e+00	77	41	0	1115684864	52	5602
2026-01-30 13:54:32.57	160.04	22.89	-39.0	-39.9	23.4	0.00e+00	84	41	0	1117782016	52	5662
2026-01-30 13:54:33.58	160.18	22.76	-38.8	-39.7	23.5	0.00e+00	90	41	0	1118830592	50	6188
2026-01-30 13:54:34.59	160.32	22.64	-38.8	-39.7	23.5	0.00e+00	83	41	0	1120927744	50	6232
2026-01-30 13:54:35.60	160.46	22.51	-38.9	-39.9	23.3	0.00e+00	12	41	0	1123024896	50	6335
2026-01-30 13:54:36.61	160.60	22.38	-38.9	-39.9	23.3	0.00e+00	4	41	0	1125122048	50	6327
2026-01-30 13:54:37.62	160.74	22.26	-39.1	-40.0	23.2	0.00e+00	2	41	0	1127219200	50	6444
2026-01-30 13:54:38.63	160.87	22.13	-39.3	-40.2	23.0	0.00e+00	0	41	0	1128267776	50	6611
2026-01-30 13:54:39.64	161.01	22.01	-39.2	-40.2	23.1	0.00e+00	7	41	0	1130364928	50	6564
2026-01-30 13:54:40.65	161.14	21.88	-39.1	-40.1	23.2	0.00e+00	92	41	0	1132462080	50	6489
2026-01-30 13:54:41.66	161.27	21.76	-39.0	-39.9	23.3	0.00e+00	6	41	0	1134559232	50	6380
2026-01-30 13:54:42.67	161.41	21.64	-38.8	-39.7	23.5	0.00e+00	92	41	0	1136656384	50	6191
2026-01-30 13:54:43.68	161.54	21.51	-38.6	-39.5	23.6	0.00e+00	0	41	0	1137704960	50	6078
2026-01-30 13:54:44.69	161.67	21.39	-38.5	-39.4	23.7	0.00e+00	0	41	0	1139802112	50	6012
2026-01-30 13:54:45.70	161.80	21.27	-38.6	-39.5	23.6	0.00e+00	0	41	0	1141899264	50	6071
2026-01-30 13:54:46.70	161.92	21.15	-38.7	-39.6	23.6	0.00e+00	0	41	0	1143996416	50	6106
2026-01-30 13:54:47.71	162.05	21.03	-38.6	-39.4	23.7	0.00e+00	92	41	0	1146093568	50	6028
2026-01-30 13:54:48.72	162.17	20.91	-38.5	-39.4	23.5	0.00e+00	80	41	0	1147142144	50	6014
2026-01-30 13:54:49.73	162.30	20.79	-38.6	-39.5	23.6	0.00e+00	92	41	0	1149239296	50	6077
2026-01-30 13:54:50.74	162.42	20.67	-38.6	-39.5	23.6	0.00e+00	81	41	0	1151336448	50	6082
2026-01-30 13:54:51.75	162.55	20.55	-38.7	-39.6	23.5	0.00e+00	81	41	0	1153433600	50	6155
2026-01-30 13:54:52.76	162.67	20.43	-38.7	-39.6	23.5	0.00e+00	1	41	0	1155530752	50	6163
2026-01-30 13:54:53.77	162.79	20.31	-38.7	-39.6	23.6	0.00e+00	81	41	0	1156579328	50	6112
2026-01-30 13:54:54.78	162.91	20.19	-38.8	-39.7	23.5	0.00e+00	0	41	0	1158676480	50	6177
2026-01-30 13:54:55.79	163.03	20.07	-38.8	-39.7	23.4	0.00e+00	0	41	0	1160773632	50	6197
2026-01-30 13:54:56.80	163.15	19.96	-38.9	-39.8	23.3	0.00e+00	90	41	0	1162870784	50	6299
2026-01-30 13:54:57.80	163.27	19.84	-39.0	-40.0	23.2	0.00e+00	0	41	0	1164967936	50	6398
2026-01-30 13:54:58.82	163.38	19.72	-39.1	-40.1	23.1	0.00e+00	77	41	0	1166016512	50	6483
2026-01-30 13:54:59.83	163.50	19.61	-39.3	-40.2	23.0	0.00e+00	0	41	0	1168113664	50	6605
2026-01-30 13:55:00.83	163.61	19.49	-39.4	-40.4	22.9	0.00e+00	0	41	0	1170210816	50	6720
2026-01-30 13:55:01.84	163.73	19.38	-39.4	-40.4	22.9	0.00e+00	0	41	0	1172307968	50	6712
2026-01-30 13:55:02.85	163.84	19.26	-39.5	-40.5	22.8	0.00e+00	0	41	0	1174405120	50	6771
2026-01-30 13:55:03.86	163.95	19.15	-39.5	-40.5	22.7	0.00e+00	92	41	0	1175453696	50	6807
2026-01-30 13:55:04.87	164.07	19.04	-39.6	-40.6	22.7	0.00e+00	0	41	0	1177550848	50	6893
2026-01-30 13:55:05.88	164.18	18.92	-39.6	-40.5	22.7	0.00e+00	90	41	0	1179648000	50	6848
2026-01-30 13:55:06.89	164.29	18.81	-39.4	-40.4	22.9	0.00e+00	0	41	0	1181745152	50	6697
2026-01-30 13:55:07.90	164.40	18.70	-39.3	-40.3	23.0	0.00e+00	0	41	0	1183842304	50	6638
2026-01-30 13:55:08.91	164.51	18.58	-39.3	-40.2	22.9	0.00e+00	64	41	0	1185939456	50	6595
2026-01-30 13:55:09.92	164.61	18.47	-39.0	-39.9	23.3	0.00e+00	0	41	0	1186988032	50	6382
2026-01-30 13:55:10.93	164.72	18.36	-39.0	-40.0	23.2	0.00e+00	92	41	0	1189085184	50	6411
2026-01-30 13:55:11.94	164.83	18.25	-38.9	-39.8	23.3	0.00e+00	0	41	0	1191182336	50	6294
2026-01-30 13:55:12.95	164.93	18.14	-38.9	-39.9	23.3	0.00e+00	92	41	0	1193279488	50	6337
2026-01-30 13:55:13.96	165.04	18.03	-38.9	-39.9	23.3	0.00e+00	4	41	0	1195376640	50	6330
2026-01-30 13:55:14.97	165.14	17.92	-39.0	-39.9	23.3	0.00e+00	4	41	0	1196425216	50	6355
2026-01-30 13:55:15.98	165.25	17.81	-39.1	-40.0	23.2	0.00e+00	77	41	0	1198522368	50	6425
2026-01-30 13:55:16.99	165.35	17.70	-39.1	-40.0	23.2	0.00e+00	75	41	0	1200619520	50	6433
2026-01-30 13:55:18.00	165.45	17.59	-39.0	-40.0	23.2	0.00e+00	59	41	0	1202716672	50	6392
2026-01-30 13:55:19.01	165.55	17.49	-39.1	-40.0	23.2	0.00e+00	0	41	0	1204813824	50	6429
2026-01-30 13:55:20.02	165.65	17.38	-39.1	-40.1	23.1	0.00e+00	90	41	0	1205862400	50	6489
2026-01-30 13:55:21.02	165.75	17.27	-39.1	-40.0	23.1	0.00e+00	2	41	0	1207959552	50	6450
2026-01-30 13:55:22.03	165.85	17.16	-39.0	-40.0	23.2	0.00e+00	90	41	0	1210056704	50	6425
2026-01-30 13:55:23.04	165.95	17.06	-39.1	-40.1	23.1	0.00e+00	0	41	0	1212153856	50	6488
2026-01-30 13:55:24.05	166.05	16.95	-38.9	-39.8	23.3	0.00e+00	0	41	0	1214251008	50	6279
2026-01-30 13:55:25.06	166.15	16.85	-39.0	-39.9	23.3	0.00e+00	0	41	0	1215299584	50	6349
2026-01-30 13:55:26.06	166.24	16.74	-39.0	-40.0	23.1	0.00e+00	0	41	0	1217396736	50	6426
2026-01-30 13:55:27.07	166.34	16.64	-38.8	-39.7	23.4	0.00e+00	92	41	0	1219493888	50	6244
