passes_logs/2026/01/30/R4.6S_Anadyr/R4.6S_Anadyr__20260130_015641_KOSAR1-5_rec.log

#Pass ID: 20260130_015641_KOSAR1-5
#Satellite: KOSAR1-5
#Configuration: KOSAR1-5
#almurnet v.1.7.20251203
#Start time: 2026-01-30 01:56:42

#Version: 2.2.20231116
#Station: R4.6S_Anadyr
#Location: 177.4865 lon 64.73178 lat
#TLE: 1 67264U 25313S   26028.94615568  .00012050  00000+0  55467-3 0  9998
#TLE: 2 67264  97.4180 105.8864 0016576 134.5684 225.6907 15.20338860  4779

#Time	Az	El	Level	Level2	SNR	BER	BlckErr	Temp	State	Recorded	gain1	gain2
2026-01-30 01:56:42.43	17.64	0.03	-49.4	-64.4	3.5	1.51e+00	0	35	0	0	60	59967
2026-01-30 01:56:43.44	17.54	0.09	-45.9	-60.7	3.5	1.51e+00	0	36	104	0	60	43923
2026-01-30 01:56:44.45	17.45	0.14	-46.0	-60.7	3.6	1.51e+00	0	37	104	0	60	43718
2026-01-30 01:56:45.46	17.36	0.19	-46.0	-60.7	3.6	1.51e+00	0	37	104	0	60	43765
2026-01-30 01:56:46.47	17.26	0.25	-46.0	-60.7	3.6	1.51e+00	0	37	104	0	60	43863
2026-01-30 01:56:47.48	17.17	0.30	-45.9	-60.7	3.6	1.51e+00	0	37	104	0	60	43914
2026-01-30 01:56:48.49	17.08	0.36	-46.0	-60.6	3.6	1.51e+00	0	37	104	0	60	43655
2026-01-30 01:56:49.50	16.98	0.41	-46.0	-60.7	3.6	1.51e+00	0	37	104	0	60	43788
2026-01-30 01:56:50.51	16.89	0.47	-46.0	-60.7	3.6	1.51e+00	0	37	104	0	60	43990
2026-01-30 01:56:51.52	16.79	0.52	-46.0	-60.7	3.6	1.51e+00	0	37	104	0	60	43726
2026-01-30 01:56:52.53	16.69	0.58	-46.0	-60.7	3.6	1.51e+00	0	37	104	0	60	43907
2026-01-30 01:56:53.54	16.60	0.63	-45.9	-60.7	3.6	1.51e+00	0	37	104	0	60	43739
2026-01-30 01:56:54.55	16.50	0.69	-46.0	-60.7	3.6	1.51e+00	0	37	104	0	60	43887
2026-01-30 01:56:55.56	16.40	0.74	-45.9	-60.7	3.6	1.51e+00	0	37	104	0	60	43966
2026-01-30 01:56:56.57	16.30	0.80	-45.9	-60.7	3.6	1.51e+00	0	37	104	0	60	43820
2026-01-30 01:56:57.58	16.21	0.85	-46.0	-60.6	3.6	1.51e+00	0	37	104	0	60	43701
2026-01-30 01:56:58.59	16.11	0.91	-46.0	-60.7	3.6	1.51e+00	0	37	104	0	60	43769
2026-01-30 01:56:59.60	16.01	0.96	-46.0	-60.7	3.6	1.51e+00	0	37	104	0	60	43727
2026-01-30 01:57:00.60	15.91	1.02	-45.9	-60.7	3.6	1.51e+00	0	37	104	0	60	43862
2026-01-30 01:57:01.61	15.81	1.07	-45.9	-60.7	3.6	1.51e+00	0	37	104	0	60	43779
2026-01-30 01:57:02.63	15.70	1.13	-46.0	-60.7	3.6	1.51e+00	0	37	104	0	60	43712
2026-01-30 01:57:03.64	15.60	1.19	-46.0	-60.7	3.6	1.51e+00	0	37	104	0	60	43904
2026-01-30 01:57:04.65	15.50	1.24	-46.0	-60.7	3.6	1.51e+00	0	37	104	0	60	43766
2026-01-30 01:57:05.66	15.40	1.30	-46.0	-60.7	3.6	1.51e+00	0	37	104	0	60	43847
2026-01-30 01:57:06.67	15.29	1.35	-45.9	-60.7	3.6	1.51e+00	0	37	104	0	60	43720
2026-01-30 01:57:07.68	15.19	1.41	-46.0	-60.6	3.6	1.51e+00	0	37	104	0	60	43672
2026-01-30 01:57:08.69	15.09	1.47	-46.0	-60.7	3.6	1.51e+00	0	37	104	0	60	43796
2026-01-30 01:57:09.70	14.98	1.52	-45.9	-60.6	3.6	1.51e+00	0	37	104	0	60	43704
2026-01-30 01:57:10.71	14.87	1.58	-46.0	-60.7	3.6	1.51e+00	0	37	104	0	60	43884
2026-01-30 01:57:11.72	14.77	1.63	-46.0	-60.6	3.6	1.51e+00	0	37	104	0	60	43572
2026-01-30 01:57:12.73	14.66	1.69	-46.0	-60.7	3.6	1.51e+00	0	37	104	0	60	43921
2026-01-30 01:57:13.74	14.56	1.75	-45.9	-60.6	3.6	1.51e+00	0	37	104	0	60	43647
2026-01-30 01:57:14.75	14.45	1.80	-46.0	-60.7	3.6	1.51e+00	0	37	104	0	60	43883
2026-01-30 01:57:15.76	14.34	1.86	-46.0	-60.7	3.6	1.51e+00	0	37	104	0	60	43831
2026-01-30 01:57:16.76	14.23	1.92	-46.0	-60.7	3.6	1.51e+00	0	37	104	0	60	43879
2026-01-30 01:57:17.77	14.12	1.97	-46.0	-60.7	3.6	1.51e+00	0	37	104	0	60	43765
2026-01-30 01:57:18.79	14.01	2.03	-45.9	-60.7	3.6	1.51e+00	0	37	104	0	60	43737
2026-01-30 01:57:19.80	13.90	2.09	-46.0	-60.7	3.6	1.51e+00	0	37	104	0	60	43824
2026-01-30 01:57:20.81	13.79	2.14	-46.0	-60.7	3.6	1.51e+00	0	37	104	0	60	43785
2026-01-30 01:57:21.82	13.68	2.20	-46.0	-60.7	3.6	1.51e+00	0	37	104	0	60	43960
2026-01-30 01:57:22.83	13.57	2.26	-46.0	-60.7	3.6	1.51e+00	0	37	104	0	60	43879
2026-01-30 01:57:23.84	13.45	2.31	-46.0	-60.7	3.6	1.51e+00	0	37	104	0	60	43870
2026-01-30 01:57:24.85	13.34	2.37	-46.0	-60.7	3.6	1.51e+00	0	37	104	0	60	43936
2026-01-30 01:57:25.86	13.23	2.43	-46.0	-60.7	3.6	1.51e+00	0	37	104	0	60	43868
2026-01-30 01:57:26.87	13.11	2.49	-46.0	-60.6	3.6	1.51e+00	0	37	104	0	60	43553
2026-01-30 01:57:27.88	13.00	2.54	-46.0	-60.6	3.6	1.51e+00	0	37	104	0	60	43681
2026-01-30 01:57:28.89	12.88	2.60	-46.0	-60.7	3.6	1.51e+00	0	37	104	0	60	43933
2026-01-30 01:57:29.90	12.77	2.66	-46.0	-60.6	3.6	1.51e+00	0	37	104	0	60	43688
2026-01-30 01:57:30.91	12.65	2.71	-46.0	-60.7	3.6	1.51e+00	0	37	104	0	60	43827
2026-01-30 01:57:31.92	12.53	2.77	-46.0	-60.7	3.6	1.51e+00	0	37	104	0	60	43874
2026-01-30 01:57:32.93	12.41	2.83	-46.0	-60.7	3.6	1.51e+00	0	37	104	0	60	43762
2026-01-30 01:57:33.94	12.29	2.89	-46.0	-60.7	3.6	1.51e+00	0	37	104	0	60	43840
2026-01-30 01:57:34.95	12.17	2.95	-46.0	-60.7	3.6	1.51e+00	0	37	104	0	60	43788
2026-01-30 01:57:35.96	12.05	3.00	-46.0	-60.7	3.6	1.51e+00	0	37	104	0	60	43913
2026-01-30 01:57:36.97	11.93	3.06	-46.0	-60.7	3.6	1.51e+00	0	37	104	0	60	43976
2026-01-30 01:57:37.98	11.81	3.12	-46.0	-60.7	3.6	1.51e+00	0	37	104	0	60	43755
2026-01-30 01:57:38.99	11.69	3.18	-46.0	-60.6	3.6	1.51e+00	0	37	104	0	60	43670
2026-01-30 01:57:40.00	11.57	3.24	-46.0	-60.7	3.6	1.51e+00	0	37	104	0	60	43786
2026-01-30 01:57:41.01	11.45	3.29	-46.0	-60.6	3.6	1.51e+00	0	37	104	0	60	43691
2026-01-30 01:57:42.02	11.32	3.35	-46.0	-60.6	3.6	1.51e+00	0	37	104	0	60	43667
2026-01-30 01:57:43.03	11.20	3.41	-46.0	-60.6	3.6	1.51e+00	0	38	104	0	60	43452
2026-01-30 01:57:44.04	11.07	3.47	-46.0	-60.7	3.6	1.51e+00	0	38	104	0	60	43834
2026-01-30 01:57:45.05	10.95	3.53	-46.0	-60.7	3.6	1.51e+00	0	37	104	0	60	43758
2026-01-30 01:57:46.06	10.82	3.58	-46.0	-60.7	3.6	1.51e+00	0	38	104	0	60	43988
2026-01-30 01:57:47.07	10.69	3.64	-46.0	-60.7	3.6	1.51e+00	0	38	104	0	60	43850
2026-01-30 01:57:48.08	10.57	3.70	-46.0	-60.7	3.6	1.51e+00	0	38	104	0	60	44034
2026-01-30 01:57:49.09	10.44	3.76	-46.0	-60.7	3.6	1.51e+00	0	38	104	0	60	44029
2026-01-30 01:57:50.10	10.31	3.82	-46.0	-60.6	3.6	1.51e+00	0	38	104	0	60	43662
2026-01-30 01:57:51.11	10.18	3.88	-46.0	-60.7	3.6	1.51e+00	0	38	104	0	60	43850
2026-01-30 01:57:52.12	10.05	3.94	-46.0	-60.7	3.6	1.51e+00	0	38	104	0	60	43826
2026-01-30 01:57:53.13	9.92	4.00	-46.0	-60.7	3.6	1.51e+00	0	38	104	0	60	43920
2026-01-30 01:57:54.15	9.78	4.05	-46.0	-60.7	3.6	1.51e+00	0	38	104	0	60	43737
2026-01-30 01:57:55.16	9.65	4.11	-46.0	-60.7	3.6	1.51e+00	0	38	104	0	60	43932
2026-01-30 01:57:56.17	9.52	4.17	-46.0	-60.7	3.6	1.51e+00	0	38	104	0	60	44076
2026-01-30 01:57:57.18	9.38	4.23	-46.0	-60.7	3.6	1.51e+00	0	38	104	0	60	43878
2026-01-30 01:57:58.19	9.25	4.29	-46.0	-60.7	3.6	1.51e+00	0	38	104	0	60	43833
2026-01-30 01:57:59.20	9.11	4.35	-46.0	-60.7	3.6	1.51e+00	0	37	104	0	60	43820
2026-01-30 01:58:00.21	8.98	4.41	-46.0	-60.7	3.6	1.51e+00	0	37	104	0	60	43763
2026-01-30 01:58:01.22	8.84	4.47	-46.0	-60.7	3.6	1.51e+00	0	38	104	0	60	43963
2026-01-30 01:58:02.23	8.70	4.53	-46.0	-60.7	3.6	1.51e+00	0	38	104	0	60	44118
2026-01-30 01:58:03.24	8.56	4.59	-46.0	-60.7	3.6	1.51e+00	0	37	104	0	60	44008
2026-01-30 01:58:04.25	8.42	4.65	-46.0	-60.6	3.6	1.51e+00	0	38	104	0	60	43638
2026-01-30 01:58:05.26	8.29	4.71	-46.0	-60.7	3.6	1.51e+00	0	38	104	0	60	44038
2026-01-30 01:58:06.27	8.14	4.77	-46.0	-60.7	3.6	1.51e+00	0	38	104	0	60	43853
2026-01-30 01:58:07.28	8.00	4.82	-46.0	-60.7	3.6	1.51e+00	0	38	104	0	60	43896
2026-01-30 01:58:08.29	7.86	4.88	-46.0	-60.7	3.6	1.51e+00	0	38	104	0	60	43936
2026-01-30 01:58:09.30	7.72	4.94	-46.0	-60.7	3.6	1.51e+00	0	38	104	0	60	44088
2026-01-30 01:58:10.30	7.58	5.00	-46.0	-60.7	3.6	1.51e+00	0	38	104	0	60	43799
2026-01-30 01:58:11.31	7.43	5.06	-46.0	-60.7	3.6	1.51e+00	0	38	104	0	60	43979
2026-01-30 01:58:12.32	7.29	5.12	-46.0	-60.7	3.6	1.51e+00	0	38	104	0	60	43990
2026-01-30 01:58:13.33	7.14	5.18	-46.0	-60.7	3.6	1.51e+00	0	38	104	0	60	44163
2026-01-30 01:58:14.34	6.99	5.24	-46.0	-60.7	3.6	1.51e+00	0	38	104	0	60	43737
2026-01-30 01:58:15.35	6.85	5.30	-46.0	-60.7	3.6	1.51e+00	0	38	104	0	60	43993
2026-01-30 01:58:16.36	6.70	5.36	-46.0	-60.7	3.6	1.51e+00	0	38	104	0	60	43738
2026-01-30 01:58:17.38	6.55	5.42	-46.0	-60.7	3.6	1.51e+00	0	38	104	0	60	43742
2026-01-30 01:58:18.39	6.40	5.48	-46.0	-60.7	3.6	1.51e+00	0	38	104	0	60	43889
2026-01-30 01:58:19.40	6.25	5.54	-46.0	-60.7	3.6	1.51e+00	0	38	104	0	60	43961
2026-01-30 01:58:20.41	6.10	5.60	-46.0	-60.7	3.6	1.51e+00	0	38	104	0	60	43874
2026-01-30 01:58:21.42	5.94	5.66	-46.0	-60.7	3.6	1.51e+00	0	38	104	0	60	43727
2026-01-30 01:58:22.43	5.79	5.72	-46.0	-60.7	3.6	1.51e+00	0	38	104	0	60	43935
2026-01-30 01:58:23.44	5.64	5.78	-46.0	-60.7	3.6	1.51e+00	0	38	104	0	60	43841
2026-01-30 01:58:24.45	5.48	5.84	-46.0	-60.7	3.6	1.51e+00	0	38	104	0	60	43875
2026-01-30 01:58:25.46	5.33	5.90	-46.0	-60.7	3.6	1.51e+00	0	38	104	0	60	43871
2026-01-30 01:58:26.47	5.17	5.96	-46.0	-60.7	3.6	1.51e+00	0	38	104	0	60	43905
2026-01-30 01:58:27.48	5.01	6.02	-46.0	-60.7	3.6	1.51e+00	0	38	104	0	60	43742
2026-01-30 01:58:28.49	4.85	6.08	-46.0	-60.7	3.6	1.51e+00	0	38	104	0	60	43947
2026-01-30 01:58:29.50	4.69	6.14	-46.0	-60.6	3.6	1.51e+00	0	38	104	0	60	43697
2026-01-30 01:58:30.51	4.53	6.20	-46.0	-60.7	3.6	1.51e+00	0	38	104	0	60	43943
2026-01-30 01:58:31.52	4.37	6.26	-46.0	-60.7	3.6	1.51e+00	0	38	104	0	60	43853
2026-01-30 01:58:32.53	4.21	6.32	-46.0	-60.7	3.6	1.51e+00	0	38	104	0	60	43840
2026-01-30 01:58:33.54	4.05	6.38	-46.0	-60.7	3.6	1.51e+00	0	38	104	0	60	44028
2026-01-30 01:58:34.55	3.89	6.44	-46.0	-60.7	3.6	1.51e+00	0	38	104	0	60	43803
2026-01-30 01:58:35.56	3.72	6.50	-46.0	-60.7	3.6	1.51e+00	0	38	104	0	60	43737
2026-01-30 01:58:36.57	3.56	6.56	-46.0	-60.7	3.6	1.51e+00	0	38	104	0	60	43940
2026-01-30 01:58:37.59	3.39	6.63	-46.0	-60.7	3.6	1.51e+00	0	38	104	0	60	43973
2026-01-30 01:58:38.60	3.22	6.69	-46.0	-60.7	3.6	1.51e+00	0	38	104	0	60	43716
2026-01-30 01:58:39.61	3.06	6.75	-46.0	-60.7	3.6	1.51e+00	0	38	104	0	60	43946
2026-01-30 01:58:40.62	2.89	6.81	-46.0	-60.7	3.6	1.51e+00	0	38	104	0	60	43938
2026-01-30 01:58:41.63	2.72	6.87	-46.0	-60.7	3.6	1.51e+00	0	38	104	0	60	43824
2026-01-30 01:58:42.64	2.55	6.93	-46.0	-60.7	3.6	1.51e+00	0	38	104	0	60	43785
2026-01-30 01:58:43.65	2.38	6.99	-46.0	-60.7	3.6	1.51e+00	0	38	104	0	60	44035
2026-01-30 01:58:44.66	2.20	7.05	-46.0	-60.7	3.6	1.51e+00	0	38	104	0	60	43796
2026-01-30 01:58:45.67	2.03	7.11	-46.0	-60.7	3.6	1.51e+00	0	38	104	0	60	43777
2026-01-30 01:58:46.68	1.86	7.17	-46.0	-60.7	3.6	1.51e+00	0	38	104	0	60	43778
2026-01-30 01:58:47.69	1.68	7.23	-46.0	-60.7	3.6	1.51e+00	0	38	104	0	60	44033
2026-01-30 01:58:48.70	1.50	7.29	-46.0	-60.7	3.6	1.51e+00	0	38	104	0	60	43844
2026-01-30 01:58:49.71	1.33	7.35	-46.0	-60.7	3.6	1.51e+00	0	38	104	0	60	43787
2026-01-30 01:58:50.72	1.15	7.41	-46.0	-60.7	3.5	1.51e+00	0	38	104	0	60	43910
2026-01-30 01:58:51.73	0.97	7.47	-46.0	-60.7	3.6	1.51e+00	0	38	104	0	60	43919
2026-01-30 01:58:52.74	0.79	7.53	-46.0	-60.7	3.6	1.51e+00	0	38	104	0	60	43887
2026-01-30 01:58:53.75	0.61	7.59	-46.0	-60.7	3.6	1.51e+00	0	38	104	0	60	44106
2026-01-30 01:58:54.76	0.43	7.65	-46.0	-60.7	3.6	1.51e+00	0	38	104	0	60	43798
2026-01-30 01:58:55.77	0.25	7.71	-46.0	-60.7	3.6	1.51e+00	0	38	104	0	60	43807
2026-01-30 01:58:56.78	0.06	7.77	-46.0	-60.7	3.6	1.51e+00	0	38	104	0	60	43716
2026-01-30 01:58:57.79	359.88	7.83	-46.0	-60.7	3.6	1.51e+00	0	38	104	0	60	43734
2026-01-30 01:58:58.80	359.69	7.89	-46.0	-60.7	3.6	1.51e+00	0	38	104	0	60	43804
2026-01-30 01:58:59.81	359.51	7.95	-46.0	-60.7	3.6	1.51e+00	0	38	104	0	60	43849
2026-01-30 01:59:00.82	359.32	8.01	-46.0	-60.7	3.6	1.51e+00	0	38	104	0	60	43808
2026-01-30 01:59:01.83	359.13	8.07	-46.0	-60.7	3.6	1.51e+00	0	38	104	0	60	43989
2026-01-30 01:59:02.84	358.94	8.13	-46.0	-60.7	3.6	1.51e+00	0	38	104	0	60	43727
2026-01-30 01:59:03.85	358.75	8.18	-46.0	-60.7	3.6	1.51e+00	0	38	104	0	60	43889
2026-01-30 01:59:04.86	358.56	8.24	-46.0	-60.7	3.6	1.51e+00	0	38	104	0	60	43800
2026-01-30 01:59:05.87	358.37	8.30	-46.0	-60.7	3.6	1.51e+00	0	38	104	0	60	43821
2026-01-30 01:59:06.88	358.17	8.36	-46.0	-60.7	3.6	1.51e+00	0	38	104	0	60	43882
2026-01-30 01:59:07.89	357.98	8.42	-46.0	-60.7	3.6	1.51e+00	0	38	104	0	60	43764
2026-01-30 01:59:08.90	357.78	8.48	-46.0	-60.7	3.6	1.51e+00	0	38	104	0	60	43762
2026-01-30 01:59:09.91	357.59	8.54	-46.0	-60.6	3.6	1.51e+00	0	38	104	0	60	43701
2026-01-30 01:59:10.92	357.39	8.60	-46.0	-60.7	3.6	1.51e+00	0	38	104	0	60	43794
2026-01-30 01:59:11.93	357.19	8.66	-46.0	-60.7	3.6	1.51e+00	0	38	104	0	60	43973
2026-01-30 01:59:12.95	356.99	8.72	-46.0	-60.7	3.5	1.51e+00	0	38	104	0	60	43726
2026-01-30 01:59:13.96	356.79	8.78	-46.0	-60.6	3.6	1.51e+00	0	38	104	0	60	43653
2026-01-30 01:59:14.96	356.59	8.83	-46.0	-60.7	3.6	1.51e+00	0	38	104	0	60	43946
2026-01-30 01:59:15.97	356.39	8.89	-46.0	-60.7	3.6	1.51e+00	0	38	104	0	60	43755
2026-01-30 01:59:16.99	356.18	8.95	-46.0	-60.7	3.6	1.51e+00	0	38	104	0	60	43946
2026-01-30 01:59:18.00	355.98	9.01	-46.0	-60.7	3.6	1.51e+00	0	38	104	0	60	43863
2026-01-30 01:59:19.01	355.77	9.07	-46.0	-60.7	3.6	1.51e+00	0	38	104	0	60	43973
2026-01-30 01:59:20.02	355.56	9.13	-46.0	-60.6	3.6	1.51e+00	0	38	104	0	60	43614
2026-01-30 01:59:21.03	355.35	9.18	-46.0	-60.7	3.6	1.51e+00	0	38	104	0	60	43894
2026-01-30 01:59:22.04	355.15	9.24	-46.0	-60.7	3.6	1.51e+00	0	38	104	0	60	43972
2026-01-30 01:59:23.05	354.94	9.30	-46.0	-60.7	3.6	1.51e+00	0	38	104	0	60	44049
2026-01-30 01:59:24.06	354.73	9.36	-46.0	-60.7	3.6	1.51e+00	0	38	104	0	60	44030
2026-01-30 01:59:25.07	354.51	9.41	-46.0	-60.6	3.6	1.51e+00	0	38	104	0	60	43674
2026-01-30 01:59:26.08	354.30	9.47	-46.0	-60.7	3.6	1.51e+00	0	38	104	0	60	43840
2026-01-30 01:59:27.09	354.09	9.53	-46.0	-60.7	3.6	1.51e+00	0	38	104	0	60	43933
2026-01-30 01:59:28.10	353.87	9.59	-46.0	-60.7	3.6	1.51e+00	0	38	104	0	60	43921
2026-01-30 01:59:29.10	353.66	9.64	-46.0	-60.7	3.6	1.51e+00	0	38	104	0	60	44028
2026-01-30 01:59:30.11	353.44	9.70	-46.0	-60.7	3.6	1.51e+00	0	38	104	0	60	43771
2026-01-30 01:59:31.12	353.22	9.76	-46.0	-60.7	3.6	1.51e+00	0	38	104	0	60	43860
2026-01-30 01:59:32.13	353.00	9.81	-46.0	-60.7	3.6	1.51e+00	0	38	104	0	60	43723
2026-01-30 01:59:33.14	352.78	9.87	-46.0	-60.7	3.6	1.51e+00	0	38	104	0	60	43814
2026-01-30 01:59:34.15	352.56	9.92	-46.0	-60.7	3.6	1.51e+00	0	38	104	0	60	44079
2026-01-30 01:59:35.17	352.33	9.98	-46.0	-60.7	3.6	1.51e+00	0	38	104	0	60	43979
2026-01-30 01:59:36.18	352.11	10.04	-46.0	-60.7	3.6	1.51e+00	0	38	104	0	60	43750
2026-01-30 01:59:37.19	351.89	10.09	-46.0	-60.7	3.6	1.51e+00	0	38	104	0	60	43926
2026-01-30 01:59:38.20	351.66	10.15	-46.0	-60.7	3.6	1.51e+00	0	38	104	0	60	43937
2026-01-30 01:59:39.21	351.43	10.20	-46.0	-60.6	3.6	1.51e+00	0	38	104	0	60	43707
2026-01-30 01:59:40.22	351.21	10.26	-46.0	-60.7	3.6	1.51e+00	0	38	104	0	60	44160
2026-01-30 01:59:41.23	350.98	10.31	-46.0	-60.6	3.6	1.51e+00	0	38	104	0	60	43699
2026-01-30 01:59:42.24	350.75	10.37	-46.0	-60.7	3.6	1.51e+00	0	38	104	0	60	43810
2026-01-30 01:59:43.25	350.51	10.42	-46.0	-60.7	3.6	1.51e+00	0	38	104	0	60	44063
2026-01-30 01:59:44.26	350.28	10.47	-46.0	-60.7	3.6	1.51e+00	0	38	104	0	60	43782
2026-01-30 01:59:45.27	350.05	10.53	-46.0	-60.7	3.6	1.51e+00	0	38	104	0	60	43835
2026-01-30 01:59:46.28	349.81	10.58	-46.0	-60.6	3.6	1.51e+00	0	38	104	0	60	43660
2026-01-30 01:59:47.29	349.58	10.63	-46.0	-60.6	3.6	1.51e+00	0	38	104	0	60	43670
2026-01-30 01:59:48.30	349.34	10.69	-46.0	-60.7	3.6	1.51e+00	0	38	104	0	60	43973
2026-01-30 01:59:49.31	349.10	10.74	-46.0	-60.7	3.6	1.51e+00	0	38	104	0	60	43943
2026-01-30 01:59:50.32	348.87	10.79	-46.0	-60.7	3.6	1.51e+00	0	38	104	0	60	44033
2026-01-30 01:59:51.33	348.63	10.84	-46.0	-60.7	3.6	1.51e+00	0	38	104	0	60	43849
2026-01-30 01:59:52.34	348.39	10.90	-46.0	-60.7	3.6	1.51e+00	0	38	104	0	60	43904
2026-01-30 01:59:53.35	348.14	10.95	-46.0	-60.7	3.6	1.51e+00	0	38	104	0	60	44029
2026-01-30 01:59:54.36	347.90	11.00	-46.0	-60.7	3.6	1.51e+00	0	38	104	0	60	43900
2026-01-30 01:59:55.37	347.66	11.05	-46.0	-60.7	3.6	1.51e+00	0	38	104	0	60	43789
2026-01-30 01:59:56.38	347.41	11.10	-46.0	-60.7	3.6	1.51e+00	0	38	104	0	60	43746
2026-01-30 01:59:57.39	347.16	11.15	-46.0	-60.7	3.6	1.51e+00	0	38	104	0	60	43737
2026-01-30 01:59:58.40	346.92	11.20	-46.0	-60.7	3.6	1.51e+00	0	38	104	0	60	43853
2026-01-30 01:59:59.41	346.67	11.25	-46.0	-60.7	3.6	1.51e+00	0	38	104	0	60	43909
2026-01-30 02:00:00.42	346.42	11.30	-46.0	-60.7	3.6	1.51e+00	0	38	104	0	60	44085
2026-01-30 02:00:01.43	346.17	11.35	-46.0	-60.7	3.6	1.51e+00	0	38	104	0	60	43841
2026-01-30 02:00:02.45	345.92	11.40	-46.0	-60.7	3.6	1.51e+00	0	38	104	0	60	43758
2026-01-30 02:00:03.46	345.66	11.45	-46.0	-60.7	3.6	1.51e+00	0	38	104	0	60	44009
2026-01-30 02:00:04.47	345.41	11.50	-46.0	-60.7	3.6	1.51e+00	0	38	104	0	60	43951
2026-01-30 02:00:05.48	345.15	11.55	-46.0	-60.7	3.6	1.51e+00	0	38	104	0	60	43934
2026-01-30 02:00:06.49	344.90	11.59	-46.0	-60.7	3.6	1.51e+00	0	38	104	0	60	43776
2026-01-30 02:00:07.50	344.64	11.64	-46.0	-60.7	3.6	1.51e+00	0	38	104	0	60	43813
2026-01-30 02:00:08.51	344.38	11.69	-46.0	-60.7	3.6	1.51e+00	0	38	104	0	60	43934
2026-01-30 02:00:09.52	344.13	11.74	-46.0	-60.7	3.6	1.51e+00	0	38	104	0	60	43858
2026-01-30 02:00:10.53	343.87	11.78	-46.0	-60.7	3.6	1.51e+00	0	38	104	0	60	43788
2026-01-30 02:00:11.54	343.60	11.83	-46.0	-60.7	3.6	1.51e+00	0	38	104	0	60	43957
2026-01-30 02:00:12.55	343.34	11.87	-46.0	-60.7	3.6	1.51e+00	0	38	104	0	60	43799
2026-01-30 02:00:13.56	343.08	11.92	-46.0	-60.7	3.6	1.51e+00	0	38	104	0	60	43829
2026-01-30 02:00:14.57	342.82	11.96	-46.0	-60.7	3.6	1.51e+00	0	38	104	0	60	43918
2026-01-30 02:00:15.58	342.55	12.01	-46.0	-60.7	3.6	1.51e+00	0	38	104	0	60	43830
2026-01-30 02:00:16.59	342.29	12.05	-46.0	-60.7	3.6	1.51e+00	0	38	104	0	60	44035
2026-01-30 02:00:17.60	342.02	12.09	-46.0	-60.7	3.6	1.51e+00	0	38	104	0	60	43817
2026-01-30 02:00:18.61	341.75	12.14	-46.0	-60.6	3.6	1.51e+00	0	38	104	0	60	43523
2026-01-30 02:00:19.62	341.48	12.18	-46.0	-60.7	3.6	1.51e+00	0	38	104	0	60	44023
2026-01-30 02:00:20.63	341.21	12.22	-46.0	-60.7	3.6	1.51e+00	0	38	104	0	60	43837
2026-01-30 02:00:21.64	340.94	12.26	-46.0	-60.7	3.6	1.51e+00	0	38	104	0	60	44120
2026-01-30 02:00:22.65	340.67	12.31	-46.0	-60.6	3.6	1.51e+00	0	38	104	0	60	43684
2026-01-30 02:00:23.66	340.40	12.35	-46.0	-60.7	3.6	1.51e+00	0	38	104	0	60	43921
2026-01-30 02:00:24.67	340.13	12.39	-46.0	-60.7	3.6	1.51e+00	0	38	104	0	60	44005
2026-01-30 02:00:25.68	339.85	12.43	-46.0	-60.7	3.6	1.51e+00	0	38	104	0	60	43888
2026-01-30 02:00:26.69	339.58	12.47	-46.0	-60.7	3.6	1.51e+00	0	38	104	0	60	44084
2026-01-30 02:00:27.70	339.30	12.51	-46.0	-60.7	3.6	1.51e+00	0	38	104	0	60	43914
2026-01-30 02:00:28.71	339.02	12.54	-46.0	-60.6	3.6	1.51e+00	0	38	104	0	60	43696
2026-01-30 02:00:29.72	338.74	12.58	-46.0	-60.7	3.6	1.51e+00	0	38	104	0	60	43906
2026-01-30 02:00:30.73	338.47	12.62	-46.0	-60.7	3.6	1.51e+00	0	38	104	0	60	43777
2026-01-30 02:00:31.74	338.19	12.66	-46.0	-60.7	3.6	1.51e+00	0	38	104	0	60	43828
2026-01-30 02:00:32.75	337.90	12.69	-46.0	-60.7	3.6	1.51e+00	0	38	104	0	60	43742
2026-01-30 02:00:33.76	337.62	12.73	-46.0	-60.7	3.6	1.51e+00	0	38	104	0	60	43856
2026-01-30 02:00:34.78	337.34	12.77	-46.0	-60.6	3.6	1.51e+00	0	38	104	0	60	43705
2026-01-30 02:00:35.78	337.06	12.80	-46.0	-60.7	3.6	1.51e+00	0	38	104	0	60	44052
2026-01-30 02:00:36.79	336.77	12.84	-46.0	-60.7	3.6	1.51e+00	0	38	104	0	60	44011
2026-01-30 02:00:37.80	336.49	12.87	-46.0	-60.7	3.6	1.51e+00	0	38	104	0	60	43798
2026-01-30 02:00:38.81	336.20	12.90	-46.0	-60.7	3.6	1.51e+00	0	38	104	0	60	43754
2026-01-30 02:00:39.83	335.91	12.94	-46.0	-60.7	3.6	1.51e+00	0	38	104	0	60	43892
2026-01-30 02:00:40.83	335.63	12.97	-46.0	-60.7	3.6	1.51e+00	0	38	104	0	60	43954
2026-01-30 02:00:41.85	335.34	13.00	-46.0	-60.7	3.6	1.51e+00	0	38	104	0	60	43738
2026-01-30 02:00:42.86	335.05	13.03	-46.0	-60.7	3.6	1.51e+00	0	38	104	0	60	43958
2026-01-30 02:00:43.87	334.76	13.06	-46.0	-60.7	3.6	1.51e+00	0	38	104	0	60	43815
2026-01-30 02:00:44.88	334.47	13.09	-46.0	-60.7	3.6	1.51e+00	0	38	104	0	60	43913
2026-01-30 02:00:45.89	334.18	13.12	-46.0	-60.7	3.6	1.51e+00	0	38	104	0	60	43918
2026-01-30 02:00:46.90	333.89	13.15	-46.0	-60.7	3.6	1.51e+00	0	38	104	0	60	43792
2026-01-30 02:00:47.91	333.60	13.18	-46.0	-60.7	3.6	1.51e+00	0	38	104	0	60	43728
2026-01-30 02:00:48.92	333.30	13.21	-46.0	-60.7	3.6	1.51e+00	0	38	104	0	60	43995
2026-01-30 02:00:49.93	333.01	13.23	-46.0	-60.7	3.6	1.51e+00	0	38	104	0	60	43868
2026-01-30 02:00:50.94	332.71	13.26	-46.0	-60.7	3.6	1.51e+00	0	38	104	0	60	43772
2026-01-30 02:00:51.95	332.42	13.29	-46.0	-60.7	3.6	1.51e+00	0	38	104	0	60	43864
2026-01-30 02:00:52.96	332.12	13.31	-46.0	-60.7	3.6	1.51e+00	0	38	104	0	60	43769
2026-01-30 02:00:53.97	331.83	13.34	-46.0	-60.7	3.6	1.51e+00	0	38	104	0	60	44079
2026-01-30 02:00:54.98	331.53	13.36	-46.0	-60.7	3.6	1.51e+00	0	38	104	0	60	43766
2026-01-30 02:00:55.99	331.23	13.39	-46.0	-60.7	3.6	1.51e+00	0	38	104	0	60	43844
2026-01-30 02:00:57.00	330.93	13.41	-46.0	-60.7	3.6	1.51e+00	0	38	104	0	60	43994
2026-01-30 02:00:58.01	330.64	13.43	-46.0	-60.7	3.6	1.51e+00	0	38	104	0	60	43878
2026-01-30 02:00:59.02	330.34	13.45	-46.0	-60.7	3.6	1.51e+00	0	38	104	0	60	43799
2026-01-30 02:01:00.03	330.04	13.47	-46.0	-60.6	3.6	1.51e+00	0	38	104	0	60	43681
2026-01-30 02:01:01.04	329.74	13.49	-46.0	-60.7	3.6	1.51e+00	0	38	104	0	60	43979
2026-01-30 02:01:02.05	329.44	13.51	-46.0	-60.7	3.6	1.51e+00	0	38	104	0	60	43734
2026-01-30 02:01:03.06	329.13	13.53	-46.0	-60.7	3.6	1.51e+00	0	38	104	0	60	43787
2026-01-30 02:01:04.07	328.83	13.55	-46.0	-60.7	3.6	1.51e+00	0	38	104	0	60	43946
2026-01-30 02:01:05.08	328.53	13.57	-46.0	-60.7	3.6	1.51e+00	0	38	104	0	60	44048
2026-01-30 02:01:06.09	328.23	13.59	-46.0	-60.7	3.6	1.51e+00	0	38	104	0	60	43923
2026-01-30 02:01:07.10	327.93	13.60	-46.0	-60.7	3.6	1.51e+00	0	38	104	0	60	43913
2026-01-30 02:01:08.11	327.62	13.62	-46.0	-60.7	3.6	1.51e+00	0	38	104	0	60	43818
2026-01-30 02:01:09.12	327.32	13.63	-46.0	-60.7	3.6	1.51e+00	0	38	104	0	60	43890
2026-01-30 02:01:10.13	327.01	13.65	-46.0	-60.7	3.6	1.51e+00	0	38	104	0	60	43913
2026-01-30 02:01:11.14	326.71	13.66	-46.0	-60.7	3.6	1.51e+00	0	38	104	0	60	43917
2026-01-30 02:01:12.15	326.40	13.68	-46.0	-60.7	3.6	1.51e+00	0	38	104	0	60	43744
2026-01-30 02:01:13.17	326.10	13.69	-46.0	-60.7	3.6	1.51e+00	0	38	104	0	60	43858
2026-01-30 02:01:14.18	325.79	13.70	-46.0	-60.7	3.6	1.51e+00	0	38	104	0	60	43869
2026-01-30 02:01:15.18	325.49	13.71	-46.0	-60.7	3.6	1.51e+00	0	38	104	0	60	43917
2026-01-30 02:01:16.19	325.18	13.72	-46.0	-60.7	3.6	1.51e+00	0	38	104	0	60	43864
2026-01-30 02:01:17.21	324.87	13.73	-46.0	-60.7	3.6	1.51e+00	0	38	104	0	60	43915
2026-01-30 02:01:18.22	324.56	13.74	-46.0	-60.7	3.6	1.51e+00	0	38	104	0	60	43978
2026-01-30 02:01:19.23	324.26	13.75	-46.0	-60.7	3.6	1.51e+00	0	38	104	0	60	43768
2026-01-30 02:01:20.24	323.95	13.76	-46.0	-60.7	3.6	1.51e+00	0	38	104	0	60	43814
2026-01-30 02:01:21.25	323.64	13.76	-46.0	-60.7	3.6	1.51e+00	0	38	104	0	60	43842
2026-01-30 02:01:22.26	323.34	13.77	-46.0	-60.7	3.6	1.51e+00	0	38	104	0	60	43869
2026-01-30 02:01:23.27	323.03	13.78	-46.0	-60.7	3.6	1.51e+00	0	38	104	0	60	43737
2026-01-30 02:01:24.28	322.72	13.78	-46.0	-60.7	3.6	1.51e+00	0	38	104	0	60	43903
2026-01-30 02:01:25.29	322.41	13.78	-46.0	-60.6	3.6	1.51e+00	0	38	104	0	60	43525
2026-01-30 02:01:26.30	322.10	13.79	-46.0	-60.6	3.6	1.51e+00	0	38	104	0	60	43597
2026-01-30 02:01:27.31	321.80	13.79	-46.0	-60.7	3.6	1.51e+00	0	38	104	0	60	44010
2026-01-30 02:01:28.32	321.49	13.79	-46.0	-60.6	3.6	1.51e+00	0	38	104	0	60	43641
2026-01-30 02:01:29.33	321.18	13.79	-46.0	-60.7	3.6	1.51e+00	0	38	104	0	60	43970
2026-01-30 02:01:30.34	320.87	13.79	-46.0	-60.7	3.6	1.51e+00	0	38	104	0	60	43896
2026-01-30 02:01:31.35	320.56	13.79	-46.0	-60.7	3.6	1.51e+00	0	38	104	0	60	43822
2026-01-30 02:01:32.36	320.25	13.79	-46.0	-60.7	3.6	1.51e+00	0	38	104	0	60	43784
2026-01-30 02:01:33.37	319.95	13.79	-46.0	-60.7	3.6	1.51e+00	0	38	104	0	60	43863
2026-01-30 02:01:34.38	319.64	13.79	-46.0	-60.7	3.6	1.51e+00	0	38	104	0	60	43856
2026-01-30 02:01:35.39	319.33	13.79	-46.0	-60.7	3.6	1.51e+00	0	38	104	0	60	43785
2026-01-30 02:01:36.40	319.02	13.78	-46.0	-60.7	3.6	1.51e+00	0	38	104	0	60	43923
2026-01-30 02:01:37.41	318.71	13.78	-46.0	-60.7	3.6	1.51e+00	0	38	104	0	60	43746
2026-01-30 02:01:38.42	318.40	13.77	-46.0	-60.7	3.6	1.51e+00	0	38	104	0	60	43753
2026-01-30 02:01:39.43	318.10	13.77	-46.0	-60.7	3.6	1.51e+00	0	38	104	0	60	43942
2026-01-30 02:01:40.44	317.79	13.76	-46.0	-60.7	3.6	1.51e+00	0	38	104	0	60	43918
2026-01-30 02:01:41.45	317.48	13.75	-46.0	-60.7	3.6	1.51e+00	0	38	104	0	60	43807
2026-01-30 02:01:42.46	317.17	13.75	-46.0	-60.6	3.6	1.51e+00	0	38	104	0	60	43533
2026-01-30 02:01:43.47	316.87	13.74	-46.0	-60.7	3.6	1.51e+00	0	38	104	0	60	44029
2026-01-30 02:01:44.48	316.56	13.73	-46.0	-60.7	3.6	1.51e+00	0	38	104	0	60	43834
2026-01-30 02:01:45.49	316.25	13.72	-46.0	-60.7	3.6	1.51e+00	0	38	104	0	60	44073
2026-01-30 02:01:46.50	315.95	13.71	-46.0	-60.7	3.6	1.51e+00	0	38	104	0	60	43894
2026-01-30 02:01:47.51	315.64	13.70	-46.0	-60.7	3.6	1.51e+00	0	38	104	0	60	44027
2026-01-30 02:01:48.52	315.33	13.68	-46.0	-60.7	3.6	1.51e+00	0	38	104	0	60	43822
2026-01-30 02:01:49.53	315.03	13.67	-46.0	-60.7	3.6	1.51e+00	0	38	104	0	60	44019
2026-01-30 02:01:50.54	314.72	13.66	-46.0	-60.7	3.6	1.51e+00	0	38	104	0	60	43936
2026-01-30 02:01:51.55	314.42	13.64	-46.0	-60.7	3.5	1.51e+00	0	38	104	0	60	44028
2026-01-30 02:01:52.56	314.11	13.63	-46.0	-60.7	3.6	1.51e+00	0	38	104	0	60	43898
2026-01-30 02:01:53.57	313.81	13.61	-46.0	-60.7	3.6	1.51e+00	0	38	104	0	60	43815
2026-01-30 02:01:54.59	313.50	13.60	-46.0	-60.7	3.6	1.51e+00	0	38	104	0	60	43875
2026-01-30 02:01:55.60	313.20	13.58	-46.0	-60.7	3.6	1.51e+00	0	38	104	0	60	43922
2026-01-30 02:01:56.61	312.90	13.56	-46.0	-60.7	3.6	1.51e+00	0	38	104	0	60	43931
2026-01-30 02:01:57.62	312.59	13.55	-46.0	-60.7	3.6	1.51e+00	0	38	104	0	60	43733
2026-01-30 02:01:58.63	312.29	13.53	-46.0	-60.7	3.6	1.51e+00	0	38	104	0	60	43772
2026-01-30 02:01:59.64	311.99	13.51	-46.0	-60.7	3.6	1.51e+00	0	38	104	0	60	43956
2026-01-30 02:02:00.65	311.69	13.49	-46.0	-60.7	3.6	1.51e+00	0	38	104	0	60	44022
2026-01-30 02:02:01.66	311.39	13.47	-46.0	-60.7	3.6	1.51e+00	0	38	104	0	60	43777
2026-01-30 02:02:02.67	311.09	13.45	-46.0	-60.7	3.6	1.51e+00	0	38	104	0	60	43751
2026-01-30 02:02:03.68	310.79	13.42	-46.0	-60.7	3.6	1.51e+00	0	38	104	0	60	43812
2026-01-30 02:02:04.69	310.49	13.40	-46.0	-60.7	3.6	1.51e+00	0	38	104	0	60	43816
2026-01-30 02:02:05.70	310.19	13.38	-46.0	-60.7	3.6	1.51e+00	0	38	104	0	60	43830
2026-01-30 02:02:06.71	309.89	13.35	-46.0	-60.7	3.6	1.51e+00	0	38	104	0	60	43716
2026-01-30 02:02:07.72	309.59	13.33	-46.0	-60.7	3.6	1.51e+00	0	38	104	0	60	43968
2026-01-30 02:02:08.73	309.30	13.30	-46.0	-60.7	3.6	1.51e+00	0	38	104	0	60	43953
2026-01-30 02:02:09.74	309.00	13.28	-46.0	-60.7	3.6	1.51e+00	0	38	104	0	60	43986
2026-01-30 02:02:10.75	308.70	13.25	-46.0	-60.6	3.6	1.51e+00	0	38	104	0	60	43690
2026-01-30 02:02:11.76	308.41	13.22	-46.0	-60.7	3.6	1.51e+00	0	38	104	0	60	43846
2026-01-30 02:02:12.78	308.11	13.20	-46.0	-60.7	3.6	1.51e+00	0	38	104	0	60	43879
2026-01-30 02:02:13.79	307.82	13.17	-46.0	-60.7	3.6	1.51e+00	0	38	104	0	60	43753
2026-01-30 02:02:14.80	307.52	13.14	-46.0	-60.7	3.6	1.51e+00	0	38	104	0	60	43983
2026-01-30 02:02:15.81	307.23	13.11	-46.0	-60.7	3.6	1.51e+00	0	38	104	0	60	43951
2026-01-30 02:02:16.82	306.94	13.08	-46.0	-60.7	3.6	1.51e+00	0	38	104	0	60	44006
2026-01-30 02:02:17.83	306.65	13.05	-46.0	-60.7	3.6	1.51e+00	0	38	104	0	60	44046
2026-01-30 02:02:18.84	306.36	13.02	-46.0	-60.7	3.6	1.51e+00	0	38	104	0	60	43783
2026-01-30 02:02:19.85	306.07	12.99	-46.0	-60.7	3.6	1.51e+00	0	38	104	0	60	43999
2026-01-30 02:02:20.86	305.78	12.96	-46.0	-60.7	3.6	1.51e+00	0	38	104	0	60	43987
2026-01-30 02:02:21.87	305.49	12.92	-46.0	-60.7	3.6	1.51e+00	0	38	104	0	60	44117
2026-01-30 02:02:22.88	305.21	12.89	-46.0	-60.7	3.6	1.51e+00	0	38	104	0	60	43868
2026-01-30 02:02:23.89	304.92	12.86	-46.0	-60.7	3.6	1.51e+00	0	38	104	0	60	44111
2026-01-30 02:02:24.90	304.63	12.82	-46.0	-60.7	3.6	1.51e+00	0	38	104	0	60	43994
2026-01-30 02:02:25.91	304.35	12.79	-46.0	-60.7	3.6	1.51e+00	0	38	104	0	60	43875
2026-01-30 02:02:26.92	304.06	12.75	-46.0	-60.7	3.6	1.51e+00	0	38	104	0	60	43864
2026-01-30 02:02:27.93	303.78	12.72	-46.0	-60.6	3.6	1.51e+00	0	38	104	0	60	43636
2026-01-30 02:02:28.94	303.50	12.68	-46.0	-60.7	3.6	1.51e+00	0	38	104	0	60	43784
2026-01-30 02:02:29.94	303.22	12.64	-46.0	-60.7	3.6	1.51e+00	0	38	104	0	60	43778
2026-01-30 02:02:30.95	302.94	12.60	-46.0	-60.7	3.6	1.51e+00	0	38	104	0	60	43798
2026-01-30 02:02:31.96	302.66	12.57	-46.0	-60.7	3.6	1.51e+00	0	38	104	0	60	43888
2026-01-30 02:02:32.97	302.38	12.53	-46.0	-60.7	3.6	1.51e+00	0	38	104	0	60	43779
2026-01-30 02:02:33.99	302.10	12.49	-46.0	-60.7	3.6	1.51e+00	0	38	104	0	60	44069
2026-01-30 02:02:34.99	301.82	12.45	-46.0	-60.7	3.6	1.51e+00	0	38	104	0	60	43871
2026-01-30 02:02:36.01	301.55	12.41	-46.0	-60.7	3.6	1.51e+00	0	38	104	0	60	43918
2026-01-30 02:02:37.01	301.27	12.37	-46.0	-60.7	3.6	1.51e+00	0	38	104	0	60	44093
2026-01-30 02:02:38.02	301.00	12.33	-46.0	-60.7	3.6	1.51e+00	0	38	104	0	60	43865
2026-01-30 02:02:39.03	300.73	12.29	-46.0	-60.7	3.6	1.51e+00	0	38	104	0	60	43763
2026-01-30 02:02:40.04	300.45	12.25	-46.0	-60.7	3.6	1.51e+00	0	38	104	0	60	43863
2026-01-30 02:02:41.05	300.18	12.20	-46.0	-60.7	3.6	1.51e+00	0	38	104	0	60	44067
2026-01-30 02:02:42.06	299.91	12.16	-46.0	-60.7	3.6	1.51e+00	0	38	104	0	60	43835
2026-01-30 02:02:43.07	299.64	12.12	-46.0	-60.7	3.6	1.51e+00	0	38	104	0	60	43769
2026-01-30 02:02:44.09	299.37	12.07	-46.0	-60.7	3.5	1.51e+00	0	38	104	0	60	43834
2026-01-30 02:02:45.10	299.10	12.03	-46.0	-60.7	3.6	1.51e+00	0	38	104	0	60	43929
2026-01-30 02:02:46.11	298.83	11.99	-46.0	-60.7	3.6	1.51e+00	0	38	104	0	60	43976
2026-01-30 02:02:47.12	298.57	11.94	-46.0	-60.7	3.6	1.51e+00	0	38	104	0	60	43764
2026-01-30 02:02:48.13	298.30	11.90	-46.0	-60.7	3.6	1.51e+00	0	38	104	0	60	44001
2026-01-30 02:02:49.14	298.04	11.85	-46.0	-60.7	3.6	1.51e+00	0	38	104	0	60	43932
2026-01-30 02:02:50.15	297.78	11.80	-46.0	-60.7	3.6	1.51e+00	0	38	104	0	60	44014
2026-01-30 02:02:51.16	297.51	11.76	-46.0	-60.7	3.6	1.51e+00	0	38	104	0	60	43947
2026-01-30 02:02:52.17	297.25	11.71	-46.0	-60.7	3.6	1.51e+00	0	38	104	0	60	43785
2026-01-30 02:02:53.18	296.99	11.66	-46.0	-60.7	3.6	1.51e+00	0	38	104	0	60	43933
2026-01-30 02:02:54.19	296.73	11.62	-46.0	-60.7	3.6	1.51e+00	0	38	104	0	60	43863
2026-01-30 02:02:55.20	296.48	11.57	-46.0	-60.7	3.6	1.51e+00	0	38	104	0	60	43933
2026-01-30 02:02:56.21	296.22	11.52	-46.0	-60.7	3.6	1.51e+00	0	38	104	0	60	43893
2026-01-30 02:02:57.22	295.96	11.47	-46.0	-60.7	3.6	1.51e+00	0	38	104	0	60	44072
2026-01-30 02:02:58.23	295.71	11.42	-46.0	-60.7	3.6	1.51e+00	0	38	104	0	60	43839
2026-01-30 02:02:59.24	295.46	11.37	-46.0	-60.7	3.6	1.51e+00	0	38	104	0	60	44085
2026-01-30 02:03:00.25	295.20	11.33	-46.0	-60.7	3.6	1.51e+00	0	38	104	0	60	43956
2026-01-30 02:03:01.25	294.95	11.28	-46.0	-60.7	3.6	1.51e+00	0	38	104	0	60	44098
2026-01-30 02:03:02.26	294.70	11.23	-46.0	-60.7	3.6	1.51e+00	0	38	104	0	60	43873
2026-01-30 02:03:03.27	294.45	11.18	-46.0	-60.7	3.6	1.51e+00	0	38	104	0	60	43855
2026-01-30 02:03:04.29	294.20	11.12	-46.0	-60.7	3.6	1.51e+00	0	38	104	0	60	43980
2026-01-30 02:03:05.29	293.96	11.07	-46.0	-60.7	3.6	1.51e+00	0	38	104	0	60	44161
2026-01-30 02:03:06.31	293.71	11.02	-46.0	-60.7	3.6	1.51e+00	0	38	104	0	60	44064
2026-01-30 02:03:07.32	293.46	10.97	-46.0	-60.7	3.6	1.51e+00	0	38	104	0	60	43866
2026-01-30 02:03:08.33	293.22	10.92	-46.0	-60.6	3.6	1.51e+00	0	38	104	0	60	43705
2026-01-30 02:03:09.34	292.98	10.87	-46.0	-60.7	3.6	1.51e+00	0	38	104	0	60	43934
2026-01-30 02:03:10.35	292.73	10.81	-46.0	-60.7	3.6	1.51e+00	0	38	104	0	60	43867
2026-01-30 02:03:11.36	292.49	10.76	-46.0	-60.7	3.6	1.51e+00	0	38	104	0	60	43981
2026-01-30 02:03:12.37	292.25	10.71	-46.0	-60.7	3.6	1.51e+00	0	38	104	0	60	44053
2026-01-30 02:03:13.38	292.01	10.66	-46.0	-60.7	3.6	1.51e+00	0	38	104	0	60	43935
2026-01-30 02:03:14.39	291.78	10.60	-46.0	-60.7	3.6	1.51e+00	0	38	104	0	60	44095
2026-01-30 02:03:15.40	291.54	10.55	-46.0	-60.7	3.6	1.51e+00	0	38	104	0	60	43764
2026-01-30 02:03:16.41	291.30	10.49	-46.0	-60.7	3.6	1.51e+00	0	38	104	0	60	44207
2026-01-30 02:03:17.42	291.07	10.44	-46.0	-60.7	3.6	1.51e+00	0	38	104	0	60	43935
2026-01-30 02:03:18.43	290.84	10.39	-46.0	-60.7	3.6	1.51e+00	0	38	104	0	60	43788
2026-01-30 02:03:19.44	290.60	10.33	-46.0	-60.7	3.6	1.51e+00	0	38	104	0	60	43761
2026-01-30 02:03:20.45	290.37	10.28	-46.0	-60.7	3.6	1.51e+00	0	38	104	0	60	43842
2026-01-30 02:03:21.46	290.14	10.22	-46.0	-60.7	3.6	1.51e+00	0	38	104	0	60	44007
2026-01-30 02:03:22.47	289.91	10.17	-46.0	-60.7	3.6	1.51e+00	0	38	104	0	60	43786
2026-01-30 02:03:23.48	289.68	10.11	-46.0	-60.7	3.6	1.51e+00	0	38	104	0	60	43933
2026-01-30 02:03:24.49	289.46	10.05	-46.0	-60.7	3.6	1.51e+00	0	38	104	0	60	44026
2026-01-30 02:03:25.50	289.23	10.00	-46.0	-60.7	3.6	1.51e+00	0	38	104	0	60	43825
2026-01-30 02:03:26.51	289.01	9.94	-46.0	-60.7	3.6	1.51e+00	0	38	104	0	60	43923
2026-01-30 02:03:27.52	288.78	9.89	-46.0	-60.7	3.6	1.51e+00	0	38	104	0	60	43787
2026-01-30 02:03:28.53	288.56	9.83	-46.0	-60.7	3.6	1.51e+00	0	38	104	0	60	43956
2026-01-30 02:03:29.54	288.34	9.77	-46.0	-60.7	3.6	1.51e+00	0	38	104	0	60	43748
2026-01-30 02:03:30.55	288.12	9.72	-46.0	-60.7	3.6	1.51e+00	0	38	104	0	60	44034
2026-01-30 02:03:31.56	287.90	9.66	-46.0	-60.7	3.6	1.51e+00	0	38	104	0	60	43925
2026-01-30 02:03:32.57	287.68	9.60	-46.0	-60.7	3.6	1.51e+00	0	38	104	0	60	43948
2026-01-30 02:03:33.58	287.46	9.54	-46.0	-60.7	3.6	1.51e+00	0	38	104	0	60	44023
2026-01-30 02:03:34.59	287.24	9.49	-46.0	-60.7	3.6	1.51e+00	0	38	104	0	60	44072
2026-01-30 02:03:35.60	287.03	9.43	-46.0	-60.7	3.6	1.51e+00	0	38	104	0	60	43850
2026-01-30 02:03:36.61	286.81	9.37	-46.0	-60.7	3.6	1.51e+00	0	38	104	0	60	44102
2026-01-30 02:03:37.62	286.60	9.31	-46.0	-60.7	3.6	1.51e+00	0	38	104	0	60	43918
2026-01-30 02:03:38.63	286.39	9.26	-46.0	-60.7	3.6	1.51e+00	0	38	104	0	60	43855
2026-01-30 02:03:39.64	286.18	9.20	-46.0	-60.7	3.6	1.51e+00	0	38	104	0	60	43986
2026-01-30 02:03:40.65	285.97	9.14	-46.0	-60.7	3.6	1.51e+00	0	38	104	0	60	43979
2026-01-30 02:03:41.66	285.76	9.08	-46.0	-60.7	3.6	1.51e+00	0	38	104	0	60	44021
2026-01-30 02:03:42.68	285.55	9.02	-46.0	-60.7	3.6	1.51e+00	0	38	104	0	60	43758
2026-01-30 02:03:43.68	285.34	8.96	-46.0	-60.7	3.6	1.51e+00	0	38	104	0	60	44054
2026-01-30 02:03:44.69	285.14	8.91	-46.0	-60.7	3.6	1.51e+00	0	38	104	0	60	43894
2026-01-30 02:03:45.70	284.93	8.85	-46.0	-60.7	3.6	1.51e+00	0	38	104	0	60	44034
2026-01-30 02:03:46.71	284.73	8.79	-46.0	-60.7	3.6	1.51e+00	0	38	104	0	60	43886
2026-01-30 02:03:47.73	284.52	8.73	-46.0	-60.7	3.6	1.51e+00	0	38	104	0	60	43793
2026-01-30 02:03:48.74	284.32	8.67	-46.0	-60.7	3.6	1.51e+00	0	38	104	0	60	43901
2026-01-30 02:03:49.75	284.12	8.61	-46.0	-60.7	3.5	1.51e+00	0	38	104	0	60	43991
2026-01-30 02:03:50.76	283.92	8.55	-46.0	-60.7	3.6	1.51e+00	0	38	104	0	60	43986
2026-01-30 02:03:51.77	283.72	8.49	-46.0	-60.7	3.6	1.51e+00	0	38	104	0	60	43793
2026-01-30 02:03:52.78	283.52	8.43	-46.0	-60.7	3.6	1.51e+00	0	38	104	0	60	44040
2026-01-30 02:03:53.79	283.33	8.37	-46.0	-60.7	3.6	1.51e+00	0	38	104	0	60	43996
2026-01-30 02:03:54.80	283.13	8.31	-46.0	-60.7	3.6	1.51e+00	0	38	104	0	60	44064
2026-01-30 02:03:55.81	282.94	8.25	-46.0	-60.7	3.6	1.51e+00	0	38	104	0	60	44077
2026-01-30 02:03:56.82	282.74	8.19	-46.0	-60.7	3.6	1.51e+00	0	38	104	0	60	43926
2026-01-30 02:03:57.84	282.55	8.13	-46.0	-60.7	3.6	1.51e+00	0	38	104	0	60	43825
2026-01-30 02:03:58.85	282.36	8.07	-46.0	-60.7	3.6	1.51e+00	0	38	104	0	60	43839
2026-01-30 02:03:59.85	282.17	8.01	-46.0	-60.7	3.6	1.51e+00	0	38	104	0	60	44059
2026-01-30 02:04:00.86	281.98	7.95	-46.0	-60.7	3.6	1.51e+00	0	38	104	0	60	44014
2026-01-30 02:04:01.88	281.79	7.89	-46.0	-60.7	3.6	1.51e+00	0	38	104	0	60	43741
2026-01-30 02:04:02.89	281.60	7.83	-46.0	-60.7	3.6	1.51e+00	0	38	104	0	60	43836
2026-01-30 02:04:03.90	281.41	7.77	-46.0	-60.7	3.6	1.51e+00	0	38	104	0	60	43897
2026-01-30 02:04:04.91	281.23	7.71	-46.0	-60.7	3.6	1.51e+00	0	38	104	0	60	43957
2026-01-30 02:04:05.92	281.04	7.65	-46.0	-60.7	3.6	1.51e+00	0	38	104	0	60	44033
2026-01-30 02:04:06.93	280.86	7.59	-46.0	-60.7	3.6	1.51e+00	0	38	104	0	60	43891
2026-01-30 02:04:07.94	280.68	7.53	-46.0	-60.7	3.6	1.51e+00	0	38	104	0	60	44145
2026-01-30 02:04:08.95	280.49	7.47	-46.0	-60.7	3.6	1.51e+00	0	38	104	0	60	43791
2026-01-30 02:04:09.96	280.31	7.41	-46.0	-60.7	3.6	1.51e+00	0	38	104	0	60	43756
2026-01-30 02:04:10.97	280.13	7.35	-46.0	-60.7	3.6	1.51e+00	0	38	104	0	60	43938
2026-01-30 02:04:11.98	279.95	7.29	-46.0	-60.7	3.6	1.51e+00	0	38	104	0	60	43837
2026-01-30 02:04:12.99	279.78	7.23	-46.0	-60.7	3.6	1.51e+00	0	38	104	0	60	44005
2026-01-30 02:04:14.00	279.60	7.17	-46.0	-60.7	3.6	1.51e+00	0	38	104	0	60	44068
2026-01-30 02:04:15.01	279.42	7.11	-46.0	-60.7	3.6	1.51e+00	0	38	104	0	60	43918
2026-01-30 02:04:16.02	279.25	7.05	-46.0	-60.7	3.6	1.51e+00	0	38	104	0	60	43969
2026-01-30 02:04:17.02	279.07	6.99	-46.0	-60.7	3.6	1.51e+00	0	38	104	0	60	43891
2026-01-30 02:04:18.04	278.90	6.93	-46.0	-60.7	3.6	1.51e+00	0	38	104	0	60	44049
2026-01-30 02:04:19.05	278.73	6.86	-46.0	-60.7	3.6	1.51e+00	0	38	104	0	60	43912
2026-01-30 02:04:20.06	278.55	6.80	-46.0	-60.7	3.6	1.51e+00	0	38	104	0	60	44035
2026-01-30 02:04:21.07	278.38	6.74	-46.0	-60.7	3.6	1.51e+00	0	38	104	0	60	44067
2026-01-30 02:04:22.08	278.21	6.68	-46.0	-60.7	3.6	1.51e+00	0	38	104	0	60	43969
2026-01-30 02:04:23.09	278.04	6.62	-46.0	-60.7	3.6	1.51e+00	0	38	104	0	60	44112
2026-01-30 02:04:24.10	277.88	6.56	-46.0	-60.7	3.6	1.51e+00	0	38	104	0	60	43851
2026-01-30 02:04:25.11	277.71	6.50	-46.0	-60.7	3.6	1.51e+00	0	38	104	0	60	44151
2026-01-30 02:04:26.12	277.54	6.44	-46.0	-60.7	3.6	1.51e+00	0	38	104	0	60	44180
2026-01-30 02:04:27.13	277.38	6.38	-46.0	-60.7	3.6	1.51e+00	0	38	104	0	60	44014
2026-01-30 02:04:28.14	277.21	6.32	-46.0	-60.7	3.6	1.51e+00	0	38	104	0	60	43952
2026-01-30 02:04:29.15	277.05	6.26	-46.0	-60.7	3.6	1.51e+00	0	38	104	0	60	43946
2026-01-30 02:04:30.16	276.89	6.20	-46.0	-60.7	3.6	1.51e+00	0	38	104	0	60	43990
2026-01-30 02:04:31.17	276.73	6.14	-46.0	-60.7	3.6	1.51e+00	0	38	104	0	60	43782
2026-01-30 02:04:32.19	276.56	6.08	-46.0	-60.7	3.6	1.51e+00	0	38	104	0	60	44085
2026-01-30 02:04:33.20	276.40	6.01	-46.0	-60.7	3.6	1.51e+00	0	38	104	0	60	43952
2026-01-30 02:04:34.21	276.24	5.95	-46.0	-60.7	3.6	1.51e+00	0	38	104	0	60	43807
2026-01-30 02:04:35.22	276.08	5.89	-46.0	-60.7	3.6	1.51e+00	0	38	104	0	60	44005
2026-01-30 02:04:36.23	275.93	5.83	-46.0	-60.7	3.6	1.51e+00	0	38	104	0	60	44001
2026-01-30 02:04:37.24	275.77	5.77	-46.0	-60.7	3.6	1.51e+00	0	38	104	0	60	44049
2026-01-30 02:04:38.25	275.61	5.71	-46.0	-60.7	3.6	1.51e+00	0	38	104	0	60	43856
2026-01-30 02:04:39.26	275.46	5.65	-46.0	-60.7	3.6	1.51e+00	0	38	104	0	60	43737
2026-01-30 02:04:40.27	275.30	5.59	-46.0	-60.7	3.6	1.51e+00	0	38	104	0	60	44140
2026-01-30 02:04:41.28	275.15	5.53	-46.0	-60.7	3.6	1.51e+00	0	38	104	0	60	44168
2026-01-30 02:04:42.29	275.00	5.47	-46.0	-60.7	3.6	1.51e+00	0	38	104	0	60	43849
2026-01-30 02:04:43.30	274.85	5.41	-46.0	-60.6	3.6	1.51e+00	0	38	104	0	60	43659
2026-01-30 02:04:44.31	274.70	5.35	-46.0	-60.7	3.6	1.51e+00	0	38	104	0	60	44048
2026-01-30 02:04:45.32	274.55	5.29	-46.0	-60.7	3.6	1.51e+00	0	38	104	0	60	43857
2026-01-30 02:04:46.33	274.40	5.23	-46.0	-60.7	3.6	1.51e+00	0	38	104	0	60	44030
2026-01-30 02:04:47.34	274.25	5.17	-46.0	-60.7	3.6	1.51e+00	0	38	104	0	60	43717
2026-01-30 02:04:48.35	274.10	5.11	-46.0	-60.7	3.6	1.51e+00	0	38	104	0	60	43848
2026-01-30 02:04:49.36	273.95	5.05	-46.0	-60.7	3.6	1.51e+00	0	38	104	0	60	43995
2026-01-30 02:04:50.37	273.81	4.99	-46.0	-60.7	3.6	1.51e+00	0	38	104	0	60	43746
2026-01-30 02:04:51.38	273.66	4.93	-46.0	-60.7	3.6	1.51e+00	0	38	104	0	60	43739
2026-01-30 02:04:52.39	273.52	4.87	-46.0	-60.7	3.6	1.51e+00	0	38	104	0	60	43938
2026-01-30 02:04:53.40	273.37	4.81	-46.0	-60.7	3.6	1.51e+00	0	38	104	0	60	43947
2026-01-30 02:04:54.41	273.23	4.75	-46.0	-60.7	3.6	1.51e+00	0	38	104	0	60	44150
2026-01-30 02:04:55.42	273.09	4.69	-46.0	-60.7	3.6	1.51e+00	0	38	104	0	60	43975
2026-01-30 02:04:56.43	272.94	4.63	-46.0	-60.8	3.6	1.51e+00	0	38	104	0	60	44244
2026-01-30 02:04:57.44	272.80	4.57	-46.0	-60.7	3.6	1.51e+00	0	38	104	0	60	43929
2026-01-30 02:04:58.45	272.66	4.51	-46.0	-60.7	3.6	1.51e+00	0	38	104	0	60	43794
2026-01-30 02:04:59.46	272.52	4.45	-46.0	-60.7	3.6	1.51e+00	0	38	104	0	60	43804
2026-01-30 02:05:00.47	272.39	4.39	-46.0	-60.7	3.6	1.51e+00	0	38	104	0	60	43838
2026-01-30 02:05:01.48	272.25	4.33	-46.0	-60.7	3.6	1.51e+00	0	38	104	0	60	44100
2026-01-30 02:05:02.49	272.11	4.27	-46.0	-60.7	3.6	1.51e+00	0	38	104	0	60	43866
2026-01-30 02:05:03.50	271.97	4.21	-46.0	-60.7	3.6	1.51e+00	0	38	104	0	60	43789
2026-01-30 02:05:04.51	271.84	4.15	-46.0	-60.7	3.6	1.51e+00	0	38	104	0	60	44028
2026-01-30 02:05:05.52	271.70	4.09	-46.0	-60.7	3.6	1.51e+00	0	38	104	0	60	43881
2026-01-30 02:05:06.53	271.57	4.03	-46.0	-60.7	3.6	1.51e+00	0	38	104	0	60	43866
2026-01-30 02:05:07.54	271.43	3.97	-46.0	-60.7	3.6	1.51e+00	0	38	104	0	60	43940
2026-01-30 02:05:08.55	271.30	3.91	-46.0	-60.7	3.6	1.51e+00	0	38	104	0	60	43911
2026-01-30 02:05:09.56	271.17	3.86	-46.0	-60.7	3.6	1.51e+00	0	38	104	0	60	44059
2026-01-30 02:05:10.57	271.04	3.80	-46.0	-60.7	3.6	1.51e+00	0	38	104	0	60	43846
2026-01-30 02:05:11.58	270.91	3.74	-46.0	-60.8	3.5	1.51e+00	0	38	104	0	60	44231
2026-01-30 02:05:12.59	270.78	3.68	-46.0	-60.7	3.6	1.51e+00	0	38	104	0	60	43985
2026-01-30 02:05:13.60	270.65	3.62	-46.0	-60.7	3.6	1.51e+00	0	38	104	0	60	43945
2026-01-30 02:05:14.61	270.52	3.56	-46.0	-60.7	3.6	1.51e+00	0	38	104	0	60	43806
2026-01-30 02:05:15.62	270.39	3.50	-46.0	-60.7	3.6	1.51e+00	0	38	104	0	60	44103
2026-01-30 02:05:16.63	270.26	3.44	-46.0	-60.7	3.5	1.51e+00	0	38	104	0	60	43774
2026-01-30 02:05:17.64	270.14	3.38	-46.0	-60.7	3.6	1.51e+00	0	38	104	0	60	43871
2026-01-30 02:05:18.65	270.01	3.33	-46.0	-60.7	3.6	1.51e+00	0	38	104	0	60	43928
2026-01-30 02:05:19.67	269.88	3.27	-46.0	-60.7	3.6	1.51e+00	0	38	104	0	60	43964
2026-01-30 02:05:20.68	269.76	3.21	-46.0	-60.7	3.6	1.51e+00	0	38	104	0	60	44008
2026-01-30 02:05:21.69	269.63	3.15	-46.0	-60.7	3.6	1.51e+00	0	38	104	0	60	44139
2026-01-30 02:05:22.70	269.51	3.09	-46.0	-60.7	3.6	1.51e+00	0	38	104	0	60	43860
2026-01-30 02:05:23.71	269.39	3.03	-46.0	-60.7	3.6	1.51e+00	0	38	104	0	60	43863
2026-01-30 02:05:24.72	269.27	2.97	-46.0	-60.7	3.6	1.51e+00	0	38	104	0	60	43980
2026-01-30 02:05:25.73	269.14	2.92	-46.0	-60.7	3.6	1.51e+00	0	38	104	0	60	43955
2026-01-30 02:05:26.74	269.02	2.86	-46.0	-60.7	3.6	1.51e+00	0	38	104	0	60	43813
2026-01-30 02:05:27.75	268.90	2.80	-46.0	-60.7	3.6	1.51e+00	0	38	104	0	60	43957
2026-01-30 02:05:28.76	268.78	2.74	-46.0	-60.7	3.6	1.51e+00	0	38	104	0	60	43809
2026-01-30 02:05:29.77	268.66	2.68	-46.0	-60.7	3.6	1.51e+00	0	38	104	0	60	43857
2026-01-30 02:05:30.78	268.55	2.63	-46.0	-60.7	3.6	1.51e+00	0	38	104	0	60	43947
2026-01-30 02:05:31.79	268.43	2.57	-46.0	-60.7	3.6	1.51e+00	0	38	104	0	60	43917
2026-01-30 02:05:32.80	268.31	2.51	-46.0	-60.7	3.6	1.51e+00	0	38	104	0	60	43796
2026-01-30 02:05:33.81	268.19	2.45	-46.0	-60.7	3.6	1.51e+00	0	38	104	0	60	43977
2026-01-30 02:05:34.82	268.08	2.39	-46.0	-60.7	3.6	1.51e+00	0	38	104	0	60	44026
2026-01-30 02:05:35.83	267.96	2.34	-46.0	-60.7	3.6	1.51e+00	0	38	104	0	60	44104
2026-01-30 02:05:36.84	267.85	2.28	-46.0	-60.7	3.6	1.51e+00	0	38	104	0	60	43934
2026-01-30 02:05:37.85	267.73	2.22	-46.0	-60.7	3.6	1.51e+00	0	38	104	0	60	44068
2026-01-30 02:05:38.86	267.62	2.16	-46.0	-60.7	3.6	1.51e+00	0	38	104	0	60	43944
2026-01-30 02:05:39.87	267.51	2.11	-46.0	-60.7	3.6	1.51e+00	0	38	104	0	60	43744
2026-01-30 02:05:40.88	267.39	2.05	-46.0	-60.7	3.6	1.51e+00	0	38	104	0	60	43890
2026-01-30 02:05:41.89	267.28	1.99	-46.0	-60.7	3.6	1.51e+00	0	38	104	0	60	43971
2026-01-30 02:05:42.90	267.17	1.94	-46.0	-60.7	3.6	1.51e+00	0	38	104	0	60	43888
2026-01-30 02:05:43.91	267.06	1.88	-46.0	-60.7	3.6	1.51e+00	0	38	104	0	60	44061
2026-01-30 02:05:44.92	266.95	1.82	-46.0	-60.7	3.6	1.51e+00	0	38	104	0	60	44089
2026-01-30 02:05:45.93	266.84	1.77	-46.0	-60.7	3.6	1.51e+00	0	38	104	0	60	43921
2026-01-30 02:05:46.94	266.73	1.71	-46.0	-60.7	3.6	1.51e+00	0	38	104	0	60	43964
2026-01-30 02:05:47.95	266.62	1.65	-46.0	-60.7	3.6	1.51e+00	0	38	104	0	60	43916
2026-01-30 02:05:48.96	266.51	1.59	-46.0	-60.7	3.6	1.51e+00	0	38	104	0	60	43791
2026-01-30 02:05:49.97	266.41	1.54	-46.0	-60.7	3.6	1.51e+00	0	38	104	0	60	44009
2026-01-30 02:05:50.98	266.30	1.48	-46.0	-60.7	3.6	1.51e+00	0	38	104	0	60	43875
2026-01-30 02:05:51.99	266.19	1.43	-46.0	-60.7	3.6	1.51e+00	0	38	104	0	60	43957
2026-01-30 02:05:53.00	266.09	1.37	-46.0	-60.7	3.6	1.51e+00	0	38	104	0	60	44140
2026-01-30 02:05:54.01	265.98	1.31	-46.0	-60.7	3.6	1.51e+00	0	38	104	0	60	44116
2026-01-30 02:05:55.02	265.88	1.26	-46.0	-60.7	3.6	1.51e+00	0	38	104	0	60	44085
2026-01-30 02:05:56.03	265.77	1.20	-46.0	-60.7	3.6	1.51e+00	0	38	104	0	60	44055
2026-01-30 02:05:57.04	265.67	1.14	-46.0	-60.7	3.6	1.51e+00	0	38	104	0	60	43963
2026-01-30 02:05:58.06	265.56	1.09	-46.0	-60.7	3.6	1.51e+00	0	38	104	0	60	43873
2026-01-30 02:05:59.07	265.46	1.03	-46.0	-60.7	3.6	1.51e+00	0	38	104	0	60	43973
2026-01-30 02:06:00.08	265.36	0.98	-46.0	-60.7	3.6	1.51e+00	0	38	104	0	60	43987
2026-01-30 02:06:01.09	265.26	0.92	-46.0	-60.7	3.6	1.51e+00	0	38	104	0	60	44114
2026-01-30 02:06:02.10	265.16	0.86	-46.0	-60.7	3.6	1.51e+00	0	38	104	0	60	43849
2026-01-30 02:06:03.11	265.06	0.81	-46.0	-60.7	3.6	1.51e+00	0	38	104	0	60	43873
2026-01-30 02:06:04.12	264.95	0.75	-46.0	-60.7	3.5	1.51e+00	0	38	104	0	60	44004
2026-01-30 02:06:05.13	264.86	0.70	-46.0	-60.7	3.6	1.51e+00	0	38	104	0	60	43825
2026-01-30 02:06:06.14	264.76	0.64	-46.0	-60.7	3.6	1.51e+00	0	38	104	0	60	43822
2026-01-30 02:06:07.15	264.66	0.59	-46.0	-60.7	3.6	1.51e+00	0	38	104	0	60	43828
2026-01-30 02:06:08.16	264.56	0.53	-46.0	-60.7	3.6	1.51e+00	0	38	104	0	60	43958
2026-01-30 02:06:09.17	264.46	0.48	-46.0	-60.7	3.6	1.51e+00	0	38	104	0	60	43898
2026-01-30 02:06:10.18	264.36	0.42	-46.0	-60.7	3.6	1.51e+00	0	38	104	0	60	43978
2026-01-30 02:06:11.19	264.27	0.37	-46.0	-60.7	3.6	1.51e+00	0	38	104	0	60	43824
2026-01-30 02:06:12.20	264.17	0.31	-46.0	-60.7	3.6	1.51e+00	0	38	104	0	60	43950
2026-01-30 02:06:13.21	264.07	0.26	-46.0	-60.7	3.6	1.51e+00	0	38	104	0	60	43933
2026-01-30 02:06:14.22	263.98	0.20	-46.0	-60.7	3.6	1.51e+00	0	38	104	0	60	43999
2026-01-30 02:06:15.23	263.88	0.15	-46.0	-60.7	3.6	1.51e+00	0	38	104	0	60	44102
2026-01-30 02:06:16.24	263.79	0.09	-46.0	-60.8	3.6	1.51e+00	0	38	104	0	60	44215
2026-01-30 02:06:17.25	263.70	0.04	-46.0	-60.7	3.6	1.51e+00	0	38	104	0	60	43910
2026-01-30 02:06:18.26	263.60	-0.02	-46.0	-60.6	3.6	1.51e+00	0	38	104	0	60	43612
2026-01-30 02:06:19.27	263.51	-0.07	-46.0	-60.7	3.6	1.51e+00	0	38	104	0	60	44007
2026-01-30 02:06:20.28	263.42	-0.13	-46.0	-60.7	3.6	1.51e+00	0	38	104	0	60	44026

#Closed at: 2026-01-30 02:06:20
#Recorded file [0 MB]: D:/lorett/data/35029_260130_135642.dat