passes_logs/2026/01/30/R4.6S_Anadyr/R4.6S_Anadyr__20260130_004802_NOAA_21_JPSS-2_rec.log

#Pass ID: 20260130_004802_NOAA 21 (JPSS-2)
#Satellite: NOAA 21 (JPSS-2)
#Configuration: NOAA-21
#almurnet v.1.7.20251203
#Start time: 2026-01-30 00:48:06

#Version: 2.2.20231116
#Station: R4.6S_Anadyr
#Location: 177.4865 lon 64.73178 lat
#TLE: 1 54234U 22150A   26029.46216196  .00000141  00000+0  87503-4 0  9994
#TLE: 2 54234  98.7512 330.1880 0000955 196.3413 163.7732 14.19540905166865

#Time	Az	El	Level	Level2	SNR	BER	BlckErr	Temp	State	Recorded	gain1	gain2
2026-01-30 00:48:06.37	170.92	0.21	-49.3	-60.8	3.3	1.54e+00	0	35	0	0	60	38452
2026-01-30 00:48:07.37	170.95	0.27	-49.3	-62.3	3.5	1.51e+00	0	36	104	0	60	45568
2026-01-30 00:48:08.38	170.97	0.33	-49.3	-62.3	3.5	1.51e+00	0	36	104	0	60	45505
2026-01-30 00:48:09.39	170.99	0.39	-49.3	-62.2	3.5	1.52e+00	0	36	104	0	60	45368
2026-01-30 00:48:10.40	171.01	0.45	-49.3	-62.3	3.5	1.52e+00	0	36	104	0	60	45799
2026-01-30 00:48:11.41	171.03	0.51	-49.3	-62.3	3.4	1.52e+00	0	36	104	0	60	45618
2026-01-30 00:48:12.42	171.05	0.57	-49.4	-62.3	3.5	1.52e+00	0	36	104	0	60	45703
2026-01-30 00:48:13.43	171.07	0.63	-49.3	-62.3	3.5	1.52e+00	0	36	104	0	60	45631
2026-01-30 00:48:14.44	171.09	0.69	-49.3	-62.3	3.5	1.52e+00	0	36	104	0	60	45526
2026-01-30 00:48:15.45	171.12	0.75	-49.3	-62.3	3.5	1.52e+00	0	36	104	0	60	45500
2026-01-30 00:48:16.46	171.14	0.82	-49.4	-62.3	3.5	1.52e+00	0	36	104	0	60	45667
2026-01-30 00:48:17.47	171.16	0.88	-49.4	-62.3	3.5	1.51e+00	0	36	104	0	60	45774
2026-01-30 00:48:18.48	171.18	0.94	-49.3	-62.3	3.5	1.52e+00	0	36	104	0	60	45855
2026-01-30 00:48:19.49	171.20	1.00	-49.3	-62.3	3.5	1.52e+00	0	36	104	0	60	45791
2026-01-30 00:48:20.51	171.23	1.06	-49.3	-62.3	3.5	1.52e+00	0	36	104	0	60	45772
2026-01-30 00:48:21.51	171.25	1.12	-49.4	-62.3	3.5	1.52e+00	0	36	104	0	60	45608
2026-01-30 00:48:22.52	171.27	1.19	-49.4	-62.3	3.5	1.52e+00	0	36	104	0	60	45553
2026-01-30 00:48:23.53	171.29	1.25	-49.3	-62.2	3.5	1.52e+00	0	36	104	0	60	45464
2026-01-30 00:48:24.55	171.31	1.31	-49.4	-62.3	3.5	1.52e+00	0	36	104	0	60	45776
2026-01-30 00:48:25.56	171.34	1.37	-49.3	-62.3	3.5	1.52e+00	0	36	104	0	60	45541
2026-01-30 00:48:26.57	171.36	1.44	-49.4	-62.3	3.5	1.52e+00	0	36	104	0	60	45675
2026-01-30 00:48:27.58	171.38	1.50	-49.3	-62.3	3.5	1.52e+00	0	36	104	0	60	45736
2026-01-30 00:48:28.59	171.41	1.56	-49.4	-62.3	3.5	1.51e+00	0	36	104	0	60	45699
2026-01-30 00:48:29.60	171.43	1.63	-49.3	-62.3	3.5	1.51e+00	0	36	104	0	60	45558
2026-01-30 00:48:30.61	171.45	1.69	-49.4	-62.2	3.5	1.51e+00	0	36	104	0	60	45439
2026-01-30 00:48:31.62	171.47	1.75	-49.3	-62.3	3.5	1.51e+00	0	36	104	0	60	45593
2026-01-30 00:48:32.63	171.50	1.82	-49.4	-62.3	3.6	1.52e+00	0	36	104	0	60	45551
2026-01-30 00:48:33.64	171.52	1.88	-49.3	-62.3	3.5	1.52e+00	0	36	104	0	60	45553
2026-01-30 00:48:34.65	171.54	1.94	-49.3	-62.3	3.5	1.51e+00	0	36	104	0	60	45809
2026-01-30 00:48:35.66	171.57	2.01	-49.3	-62.3	3.5	1.52e+00	0	36	104	0	60	45632
2026-01-30 00:48:36.67	171.59	2.07	-49.4	-62.3	3.5	1.52e+00	0	36	104	0	60	45702
2026-01-30 00:48:37.68	171.61	2.14	-49.3	-62.3	3.5	1.52e+00	0	36	104	0	60	45758
2026-01-30 00:48:38.69	171.64	2.20	-49.4	-62.3	3.5	1.52e+00	0	36	104	0	60	45624
2026-01-30 00:48:39.70	171.66	2.27	-49.4	-62.3	3.5	1.52e+00	0	36	104	0	60	45604
2026-01-30 00:48:40.71	171.68	2.33	-49.4	-62.3	3.5	1.52e+00	0	36	104	0	60	45570
2026-01-30 00:48:41.72	171.71	2.39	-49.3	-62.3	3.5	1.52e+00	0	36	104	0	60	45568
2026-01-30 00:48:42.73	171.73	2.46	-49.4	-62.2	3.5	1.52e+00	0	36	104	0	60	45476
2026-01-30 00:48:43.74	171.76	2.52	-49.4	-62.3	3.5	1.52e+00	0	36	104	0	60	45923
2026-01-30 00:48:44.75	171.78	2.59	-49.3	-62.3	3.5	1.52e+00	0	36	104	0	60	45529
2026-01-30 00:48:45.76	171.80	2.66	-49.3	-62.3	3.5	1.51e+00	0	36	104	0	60	45525
2026-01-30 00:48:46.77	171.83	2.72	-49.3	-62.3	3.5	1.52e+00	0	36	104	0	60	45609
2026-01-30 00:48:47.78	171.85	2.79	-49.4	-62.3	3.5	1.51e+00	0	36	104	0	60	45588
2026-01-30 00:48:48.79	171.88	2.85	-49.4	-62.3	3.5	1.52e+00	0	36	104	0	60	45744
2026-01-30 00:48:49.80	171.90	2.92	-49.4	-62.3	3.5	1.52e+00	0	36	104	0	60	45601
2026-01-30 00:48:50.81	171.93	2.98	-49.4	-62.3	3.5	1.52e+00	0	36	104	0	60	45594
2026-01-30 00:48:51.82	171.95	3.05	-49.4	-62.3	3.5	1.52e+00	0	36	104	0	60	45561
2026-01-30 00:48:52.83	171.98	3.12	-49.4	-62.3	3.5	1.51e+00	0	36	104	0	60	45764
2026-01-30 00:48:53.84	172.00	3.18	-49.4	-62.3	3.5	1.52e+00	0	36	104	0	60	45760
2026-01-30 00:48:54.85	172.03	3.25	-49.4	-62.3	3.5	1.51e+00	0	36	104	0	60	45608
2026-01-30 00:48:55.86	172.05	3.32	-49.3	-62.3	3.5	1.52e+00	0	36	104	0	60	45610
2026-01-30 00:48:56.87	172.08	3.38	-49.4	-62.3	3.5	1.52e+00	0	36	104	0	60	45482
2026-01-30 00:48:57.88	172.10	3.45	-49.4	-62.3	3.5	1.52e+00	0	36	104	0	60	45764
2026-01-30 00:48:58.89	172.13	3.52	-49.4	-62.3	3.5	1.52e+00	0	36	104	0	60	45731
2026-01-30 00:48:59.90	172.15	3.59	-49.4	-62.3	3.5	1.52e+00	0	37	104	0	60	45624
2026-01-30 00:49:00.92	172.18	3.66	-49.4	-62.3	3.5	1.52e+00	0	37	104	0	60	45957
2026-01-30 00:49:01.92	172.20	3.72	-49.4	-62.3	3.5	1.52e+00	0	36	104	0	60	45777
2026-01-30 00:49:02.94	172.23	3.79	-49.3	-62.3	3.5	1.52e+00	0	36	104	0	60	45636
2026-01-30 00:49:03.95	172.26	3.86	-49.4	-62.2	3.5	1.52e+00	0	37	104	0	60	45417
2026-01-30 00:49:04.96	172.28	3.93	-49.4	-62.3	3.5	1.52e+00	0	37	104	0	60	45606
2026-01-30 00:49:05.97	172.31	4.00	-49.4	-62.3	3.5	1.52e+00	0	36	104	0	60	45806
2026-01-30 00:49:06.98	172.33	4.07	-49.4	-62.3	3.5	1.52e+00	0	37	104	0	60	45674
2026-01-30 00:49:07.99	172.36	4.13	-49.3	-62.3	3.5	1.52e+00	0	37	104	0	60	45676
2026-01-30 00:49:09.00	172.39	4.20	-49.4	-62.3	3.5	1.51e+00	0	36	104	0	60	45634
2026-01-30 00:49:10.01	172.41	4.27	-49.4	-62.3	3.5	1.52e+00	0	36	104	0	60	45620
2026-01-30 00:49:11.02	172.44	4.34	-49.4	-62.3	3.5	1.52e+00	0	37	104	0	60	45798
2026-01-30 00:49:12.03	172.47	4.41	-49.4	-62.3	3.5	1.52e+00	0	37	104	0	60	45633
2026-01-30 00:49:13.04	172.49	4.48	-49.4	-62.3	3.5	1.52e+00	0	37	104	0	60	45610
2026-01-30 00:49:14.05	172.52	4.55	-49.4	-62.3	3.5	1.52e+00	0	37	104	0	60	45739
2026-01-30 00:49:15.06	172.55	4.62	-49.4	-62.3	3.5	1.52e+00	0	37	104	0	60	45796
2026-01-30 00:49:16.07	172.58	4.69	-49.4	-62.3	3.5	1.52e+00	0	37	104	0	60	45820
2026-01-30 00:49:17.08	172.60	4.76	-49.4	-62.3	3.5	1.52e+00	0	37	104	0	60	45686
2026-01-30 00:49:18.09	172.63	4.83	-49.4	-62.3	3.5	1.52e+00	0	37	104	0	60	45762
2026-01-30 00:49:19.10	172.66	4.90	-49.4	-62.3	3.5	1.52e+00	0	37	104	0	60	45778
2026-01-30 00:49:20.11	172.69	4.97	-49.4	-62.3	3.5	1.52e+00	0	37	104	0	60	45743
2026-01-30 00:49:21.12	172.71	5.05	-49.4	-62.3	3.5	1.52e+00	0	37	104	0	60	45925
2026-01-30 00:49:22.13	172.74	5.12	-49.4	-62.3	3.5	1.52e+00	0	37	104	0	60	45759
2026-01-30 00:49:23.14	172.77	5.19	-49.4	-62.3	3.5	1.52e+00	0	37	104	0	60	45817
2026-01-30 00:49:24.15	172.80	5.26	-49.4	-62.2	3.5	1.52e+00	0	37	104	0	60	45452
2026-01-30 00:49:25.16	172.83	5.33	-49.4	-62.3	3.5	1.52e+00	0	37	104	0	60	45623
2026-01-30 00:49:26.17	172.85	5.41	-49.4	-62.3	3.5	1.52e+00	0	37	104	0	60	45648
2026-01-30 00:49:27.18	172.88	5.48	-49.4	-62.3	3.5	1.52e+00	0	37	104	0	60	45823
2026-01-30 00:49:28.19	172.91	5.55	-49.4	-62.3	3.5	1.52e+00	0	37	104	0	60	45675
2026-01-30 00:49:29.21	172.94	5.62	-49.4	-62.3	3.5	1.52e+00	0	37	104	0	60	45805
2026-01-30 00:49:30.22	172.97	5.70	-49.4	-62.3	3.5	1.52e+00	0	37	104	0	60	45707
2026-01-30 00:49:31.23	173.00	5.77	-49.4	-62.3	3.5	1.52e+00	0	37	104	0	60	45685
2026-01-30 00:49:32.23	173.03	5.84	-49.4	-62.3	3.5	1.51e+00	0	37	104	0	60	45832
2026-01-30 00:49:33.25	173.06	5.92	-49.4	-62.3	3.5	1.52e+00	0	37	104	0	60	45811
2026-01-30 00:49:34.26	173.09	5.99	-49.4	-62.3	3.5	1.52e+00	0	37	104	0	60	45989
2026-01-30 00:49:35.27	173.12	6.06	-49.4	-62.3	3.5	1.52e+00	0	37	104	0	60	45829
2026-01-30 00:49:36.28	173.15	6.14	-49.4	-62.3	3.5	1.52e+00	0	37	104	0	60	45905
2026-01-30 00:49:37.29	173.18	6.21	-49.4	-62.3	3.5	1.52e+00	0	37	104	0	60	45794
2026-01-30 00:49:38.30	173.21	6.29	-49.4	-62.3	3.5	1.51e+00	0	37	104	0	60	45617
2026-01-30 00:49:39.31	173.24	6.36	-49.4	-62.3	3.5	1.52e+00	0	37	104	0	60	45681
2026-01-30 00:49:40.32	173.27	6.44	-49.4	-62.3	3.5	1.52e+00	0	37	104	0	60	45660
2026-01-30 00:49:41.33	173.30	6.51	-49.4	-62.3	3.5	1.52e+00	0	37	104	0	60	45658
2026-01-30 00:49:42.34	173.33	6.59	-49.4	-62.3	3.5	1.51e+00	0	37	104	0	60	45701
2026-01-30 00:49:43.35	173.36	6.66	-49.4	-62.3	3.5	1.51e+00	0	37	104	0	60	45701
2026-01-30 00:49:44.36	173.39	6.74	-49.4	-62.3	3.5	1.52e+00	0	37	104	0	60	45770
2026-01-30 00:49:45.37	173.42	6.82	-49.4	-62.3	3.5	1.52e+00	0	37	104	0	60	45914
2026-01-30 00:49:46.38	173.45	6.89	-49.4	-62.3	3.5	1.52e+00	0	37	104	0	60	45884
2026-01-30 00:49:47.39	173.48	6.97	-49.4	-62.3	3.5	1.52e+00	0	37	104	0	60	45604
2026-01-30 00:49:48.40	173.52	7.05	-49.4	-62.3	3.5	1.52e+00	0	37	104	0	60	45547
2026-01-30 00:49:49.41	173.55	7.12	-49.4	-62.3	3.5	1.52e+00	0	37	104	0	60	45639
2026-01-30 00:49:50.42	173.58	7.20	-49.4	-62.3	3.5	1.52e+00	0	37	104	0	60	45591
2026-01-30 00:49:51.43	173.61	7.28	-49.4	-62.3	3.5	1.52e+00	0	37	104	0	60	45636
2026-01-30 00:49:52.44	173.64	7.35	-49.4	-62.3	3.5	1.51e+00	0	37	104	0	60	45637
2026-01-30 00:49:53.45	173.67	7.43	-49.4	-62.3	3.5	1.52e+00	0	37	104	0	60	45668
2026-01-30 00:49:54.46	173.71	7.51	-49.4	-62.3	3.5	1.52e+00	0	37	104	0	60	45693
2026-01-30 00:49:55.47	173.74	7.59	-49.4	-62.3	3.5	1.52e+00	0	37	104	0	60	45704
2026-01-30 00:49:56.48	173.77	7.67	-49.4	-62.3	3.5	1.52e+00	0	37	104	0	60	45834
2026-01-30 00:49:57.49	173.81	7.75	-49.4	-62.3	3.5	1.52e+00	0	37	104	0	60	45775
2026-01-30 00:49:58.50	173.84	7.83	-49.4	-62.3	3.5	1.52e+00	0	37	104	0	60	45747
2026-01-30 00:49:59.51	173.87	7.90	-49.4	-62.3	3.5	1.52e+00	0	37	104	0	60	45829
2026-01-30 00:50:00.52	173.90	7.98	-49.4	-62.3	3.5	1.52e+00	0	37	104	0	60	45659
2026-01-30 00:50:01.53	173.94	8.06	-49.4	-62.3	3.5	1.52e+00	0	37	104	0	60	45747
2026-01-30 00:50:02.55	173.97	8.15	-49.4	-62.3	3.5	1.51e+00	0	37	104	0	60	45759
2026-01-30 00:50:03.56	174.01	8.23	-49.4	-62.3	3.5	1.52e+00	0	37	104	0	60	45816
2026-01-30 00:50:04.57	174.04	8.31	-49.4	-62.3	3.5	1.52e+00	0	37	104	0	60	45846
2026-01-30 00:50:05.58	174.07	8.39	-49.4	-62.3	3.5	1.52e+00	0	37	104	0	60	45782
2026-01-30 00:50:06.59	174.11	8.47	-49.4	-62.3	3.5	1.52e+00	0	37	104	0	60	45599
2026-01-30 00:50:07.60	174.14	8.55	-49.4	-62.3	3.5	1.52e+00	0	37	104	0	60	45620
2026-01-30 00:50:08.61	174.18	8.63	-49.4	-62.3	3.5	1.52e+00	0	37	104	0	60	45583
2026-01-30 00:50:09.62	174.21	8.71	-49.4	-62.3	3.5	1.52e+00	0	37	104	0	60	45637
2026-01-30 00:50:10.63	174.25	8.79	-49.4	-62.3	3.5	1.52e+00	0	37	104	0	60	45772
2026-01-30 00:50:11.64	174.28	8.88	-49.4	-62.3	3.5	1.52e+00	0	37	104	0	60	45816
2026-01-30 00:50:12.65	174.32	8.96	-49.4	-62.3	3.5	1.52e+00	0	37	104	0	60	45577
2026-01-30 00:50:13.66	174.35	9.04	-49.4	-62.3	3.5	1.52e+00	0	37	104	0	60	45850
2026-01-30 00:50:14.67	174.39	9.13	-49.4	-62.3	3.5	1.52e+00	0	37	104	0	60	45729
2026-01-30 00:50:15.68	174.43	9.21	-49.4	-62.3	3.5	1.52e+00	0	37	104	0	60	45788
2026-01-30 00:50:16.69	174.46	9.29	-49.4	-62.4	3.5	1.52e+00	0	37	104	0	60	46060
2026-01-30 00:50:17.70	174.50	9.38	-49.4	-62.3	3.5	1.52e+00	0	37	104	0	60	45872
2026-01-30 00:50:18.71	174.53	9.46	-49.4	-62.3	3.5	1.52e+00	0	37	104	0	60	45681
2026-01-30 00:50:19.72	174.57	9.55	-49.4	-62.3	3.5	1.52e+00	0	37	104	0	60	45822
2026-01-30 00:50:20.73	174.61	9.63	-49.4	-62.3	3.5	1.52e+00	0	37	104	0	60	45519
2026-01-30 00:50:21.74	174.65	9.72	-49.4	-62.3	3.5	1.52e+00	0	37	104	0	60	45735
2026-01-30 00:50:22.75	174.68	9.80	-49.4	-62.3	3.5	1.51e+00	0	37	104	0	60	45707
2026-01-30 00:50:23.76	174.72	9.89	-49.4	-62.3	3.5	1.52e+00	0	37	104	0	60	45591
2026-01-30 00:50:24.77	174.76	9.97	-49.4	-62.3	3.5	1.52e+00	0	37	104	0	60	45569
2026-01-30 00:50:25.78	174.80	10.06	-49.4	-62.3	3.5	1.52e+00	0	37	104	0	60	45774
2026-01-30 00:50:26.79	174.83	10.14	-49.4	-62.3	3.5	1.52e+00	0	37	104	0	60	45976
2026-01-30 00:50:27.80	174.87	10.23	-49.4	-62.3	3.5	1.51e+00	0	37	104	0	60	45713
2026-01-30 00:50:28.81	174.91	10.32	-49.4	-62.3	3.5	1.52e+00	0	37	104	0	60	45754
2026-01-30 00:50:29.83	174.95	10.41	-49.4	-62.2	3.5	1.51e+00	0	37	104	0	60	45444
2026-01-30 00:50:30.83	174.99	10.49	-49.4	-62.3	3.5	1.52e+00	0	37	104	0	60	45744
2026-01-30 00:50:31.84	175.03	10.58	-49.4	-62.3	3.5	1.52e+00	0	37	104	0	60	45714
2026-01-30 00:50:32.85	175.07	10.67	-49.4	-62.3	3.5	1.52e+00	0	37	104	0	60	45795
2026-01-30 00:50:33.86	175.11	10.76	-49.4	-62.3	3.5	1.52e+00	0	37	104	0	60	45681
2026-01-30 00:50:34.87	175.15	10.85	-49.4	-62.3	3.5	1.52e+00	0	37	104	0	60	45886
2026-01-30 00:50:35.88	175.19	10.94	-49.4	-62.3	3.5	1.52e+00	0	37	104	0	60	45658
2026-01-30 00:50:36.89	175.23	11.03	-49.4	-62.3	3.5	1.52e+00	0	37	104	0	60	45919
2026-01-30 00:50:37.91	175.27	11.12	-49.4	-62.3	3.5	1.51e+00	0	37	104	0	60	45621
2026-01-30 00:50:38.92	175.31	11.21	-49.4	-62.3	3.5	1.52e+00	0	37	104	0	60	45572
2026-01-30 00:50:39.93	175.35	11.30	-49.4	-62.3	3.5	1.52e+00	0	37	104	0	60	45670
2026-01-30 00:50:40.94	175.39	11.39	-49.4	-62.3	3.5	1.51e+00	0	37	104	0	60	45634
2026-01-30 00:50:41.95	175.43	11.48	-49.4	-62.3	3.5	1.51e+00	0	37	104	0	60	45667
2026-01-30 00:50:42.96	175.47	11.57	-49.4	-62.3	3.5	1.51e+00	0	37	104	0	60	45832
2026-01-30 00:50:43.97	175.51	11.66	-49.4	-62.3	3.5	1.51e+00	0	37	104	0	60	45708
2026-01-30 00:50:44.98	175.56	11.76	-49.4	-62.3	3.5	1.52e+00	0	37	104	0	60	45832
2026-01-30 00:50:45.99	175.60	11.85	-49.4	-62.3	3.5	1.52e+00	0	37	104	0	60	45663
2026-01-30 00:50:47.00	175.64	11.94	-49.4	-62.2	3.5	1.52e+00	0	37	104	0	60	45450
2026-01-30 00:50:48.01	175.68	12.03	-49.4	-62.3	3.5	1.51e+00	0	37	104	0	60	45659
2026-01-30 00:50:49.02	175.73	12.13	-49.4	-62.3	3.5	1.52e+00	0	37	104	0	60	45543
2026-01-30 00:50:50.03	175.77	12.22	-49.4	-62.3	3.5	1.52e+00	0	37	104	0	60	45667
2026-01-30 00:50:51.04	175.81	12.32	-49.4	-62.3	3.5	1.52e+00	0	37	104	0	60	45622
2026-01-30 00:50:52.05	175.86	12.41	-49.4	-62.3	3.5	1.52e+00	0	37	104	0	60	45927
2026-01-30 00:50:53.06	175.90	12.51	-49.4	-62.3	3.5	1.52e+00	0	37	104	0	60	45841
2026-01-30 00:50:54.07	175.95	12.60	-49.4	-62.3	3.5	1.52e+00	0	37	104	0	60	45527
2026-01-30 00:50:55.08	175.99	12.70	-49.4	-62.3	3.5	1.52e+00	0	37	104	0	60	45645
2026-01-30 00:50:56.09	176.04	12.79	-49.4	-62.3	3.5	1.52e+00	0	37	104	0	60	45718
2026-01-30 00:50:57.10	176.08	12.89	-49.4	-62.3	3.5	1.52e+00	0	37	104	0	60	45617
2026-01-30 00:50:58.11	176.13	12.99	-49.4	-62.3	3.6	1.52e+00	0	37	104	0	60	45935
2026-01-30 00:50:59.12	176.17	13.08	-49.4	-62.3	3.5	1.52e+00	0	37	104	0	60	45754
2026-01-30 00:51:00.13	176.22	13.18	-49.4	-62.3	3.5	1.52e+00	0	37	104	0	60	45746
2026-01-30 00:51:01.15	176.27	13.28	-49.4	-62.3	3.5	1.52e+00	0	37	104	0	60	45574
2026-01-30 00:51:02.16	176.31	13.38	-49.4	-62.3	3.5	1.52e+00	0	37	104	0	60	45640
2026-01-30 00:51:03.17	176.36	13.48	-49.4	-62.3	3.5	1.51e+00	0	37	104	0	60	45763
2026-01-30 00:51:04.18	176.41	13.57	-49.4	-62.3	3.5	1.52e+00	0	37	104	0	60	45561
2026-01-30 00:51:05.19	176.45	13.67	-49.4	-62.2	3.5	1.52e+00	0	37	104	0	60	45398
2026-01-30 00:51:06.20	176.50	13.77	-49.4	-62.3	3.5	1.52e+00	0	37	104	0	60	45773
2026-01-30 00:51:07.21	176.55	13.87	-49.4	-62.3	3.5	1.52e+00	0	37	104	0	60	45777
2026-01-30 00:51:08.22	176.60	13.97	-49.4	-62.3	3.5	1.52e+00	0	37	104	0	60	45683
2026-01-30 00:51:09.23	176.65	14.08	-49.4	-62.3	3.5	1.51e+00	0	37	104	0	60	45681
2026-01-30 00:51:10.24	176.70	14.18	-49.4	-62.3	3.5	1.52e+00	0	37	104	0	60	45811
2026-01-30 00:51:11.25	176.74	14.28	-49.4	-62.3	3.5	1.52e+00	0	37	104	0	60	45821
2026-01-30 00:51:12.26	176.79	14.38	-49.4	-62.3	3.5	1.51e+00	0	37	104	0	60	45611
2026-01-30 00:51:13.27	176.84	14.48	-49.4	-62.3	3.5	1.52e+00	0	37	104	0	60	45759
2026-01-30 00:51:14.28	176.89	14.59	-49.4	-62.3	3.5	1.52e+00	0	37	104	0	60	45887
2026-01-30 00:51:15.29	176.94	14.69	-49.4	-62.3	3.5	1.52e+00	0	37	104	0	60	45704
2026-01-30 00:51:16.30	177.00	14.79	-49.4	-62.3	3.5	1.52e+00	0	37	104	0	60	45637
2026-01-30 00:51:17.31	177.05	14.90	-49.4	-62.3	3.5	1.52e+00	0	37	104	0	60	45843
2026-01-30 00:51:18.32	177.10	15.00	-49.4	-62.3	3.5	1.52e+00	0	37	104	0	60	45893
2026-01-30 00:51:19.33	177.15	15.11	-49.4	-62.3	3.5	1.52e+00	0	37	104	0	60	45751
2026-01-30 00:51:20.34	177.20	15.21	-49.4	-62.3	3.5	1.52e+00	0	37	104	0	60	45717
2026-01-30 00:51:21.35	177.25	15.32	-49.4	-62.3	3.5	1.52e+00	0	37	104	0	60	45644
2026-01-30 00:51:22.36	177.31	15.43	-49.4	-62.3	3.5	1.52e+00	0	37	104	0	60	45954
2026-01-30 00:51:23.37	177.36	15.53	-49.4	-62.3	3.5	1.52e+00	0	37	104	0	60	45840
2026-01-30 00:51:24.39	177.41	15.64	-49.4	-62.3	3.5	1.52e+00	0	37	104	0	60	45599
2026-01-30 00:51:25.39	177.47	15.75	-49.4	-62.3	3.5	1.51e+00	0	37	104	0	60	45714
2026-01-30 00:51:26.40	177.52	15.86	-49.4	-62.3	3.5	1.52e+00	0	37	104	0	60	45840
2026-01-30 00:51:27.41	177.58	15.97	-49.4	-62.3	3.5	1.52e+00	0	37	104	0	60	45979
2026-01-30 00:51:28.42	177.63	16.08	-49.4	-62.3	3.5	1.52e+00	0	37	104	0	60	45764
2026-01-30 00:51:29.43	177.69	16.18	-49.4	-62.3	3.5	1.52e+00	0	37	104	0	60	45781
2026-01-30 00:51:30.44	177.74	16.30	-49.4	-62.3	3.5	1.52e+00	0	37	104	0	60	45762
2026-01-30 00:51:31.45	177.80	16.41	-49.4	-62.2	3.5	1.51e+00	0	37	104	0	60	45471
2026-01-30 00:51:32.46	177.86	16.52	-49.4	-62.3	3.5	1.51e+00	0	37	104	0	60	45738
2026-01-30 00:51:33.47	177.91	16.63	-49.4	-62.3	3.5	1.52e+00	0	37	104	0	60	45824
2026-01-30 00:51:34.48	177.97	16.74	-49.4	-62.3	3.5	1.51e+00	0	37	104	0	60	45620
2026-01-30 00:51:35.49	178.03	16.85	-49.4	-62.3	3.5	1.52e+00	0	37	104	0	60	45847
2026-01-30 00:51:36.50	178.09	16.97	-49.4	-62.3	3.5	1.52e+00	0	37	104	0	60	45727
2026-01-30 00:51:37.51	178.15	17.08	-49.4	-62.3	3.5	1.52e+00	0	37	104	0	60	45836
2026-01-30 00:51:38.52	178.20	17.19	-49.4	-62.3	3.5	1.51e+00	0	37	104	0	60	45931
2026-01-30 00:51:39.53	178.26	17.31	-49.4	-62.3	3.5	1.51e+00	0	37	104	0	60	45561
2026-01-30 00:51:40.54	178.32	17.42	-49.4	-62.3	3.5	1.52e+00	0	37	104	0	60	45700
2026-01-30 00:51:41.55	178.38	17.54	-49.4	-62.3	3.5	1.52e+00	0	37	104	0	60	45609
2026-01-30 00:51:42.56	178.44	17.66	-49.4	-62.3	3.5	1.52e+00	0	37	104	0	60	45871
2026-01-30 00:51:43.57	178.51	17.77	-49.4	-62.3	3.5	1.52e+00	0	37	104	0	60	45664
2026-01-30 00:51:44.58	178.57	17.89	-49.4	-62.3	3.5	1.52e+00	0	37	104	0	60	45830
2026-01-30 00:51:45.59	178.63	18.01	-49.4	-62.3	3.5	1.52e+00	0	37	104	0	60	45617
2026-01-30 00:51:46.60	178.69	18.13	-49.4	-62.3	3.5	1.52e+00	0	37	104	0	60	45805
2026-01-30 00:51:47.61	178.75	18.24	-49.4	-62.3	3.5	1.52e+00	0	37	104	0	60	45749
2026-01-30 00:51:48.62	178.82	18.36	-49.4	-62.3	3.5	1.52e+00	0	37	104	0	60	45731
2026-01-30 00:51:49.63	178.88	18.48	-49.4	-62.3	3.5	1.51e+00	0	37	104	0	60	45978
2026-01-30 00:51:50.64	178.95	18.60	-49.4	-62.3	3.5	1.52e+00	0	37	104	0	60	45775
2026-01-30 00:51:51.66	179.01	18.73	-49.4	-62.3	3.5	1.52e+00	0	37	104	0	60	45676
2026-01-30 00:51:52.67	179.08	18.85	-49.4	-62.3	3.5	1.52e+00	0	37	104	0	60	45709
2026-01-30 00:51:53.68	179.14	18.97	-49.4	-62.3	3.5	1.52e+00	0	38	104	0	60	45618
2026-01-30 00:51:54.69	179.21	19.09	-49.4	-62.3	3.5	1.51e+00	0	37	104	0	60	45608
2026-01-30 00:51:55.70	179.28	19.22	-49.4	-62.3	3.5	1.52e+00	0	37	104	0	60	45607
2026-01-30 00:51:56.71	179.34	19.34	-49.4	-62.3	3.5	1.52e+00	0	37	104	0	60	45887
2026-01-30 00:51:57.72	179.41	19.46	-49.4	-62.3	3.5	1.52e+00	0	37	104	0	60	45634
2026-01-30 00:51:58.73	179.48	19.59	-49.4	-62.3	3.5	1.51e+00	0	37	104	0	60	45661
2026-01-30 00:51:59.74	179.55	19.71	-49.4	-62.3	3.5	1.52e+00	0	37	104	0	60	45552
2026-01-30 00:52:00.75	179.62	19.84	-49.4	-62.3	3.5	1.52e+00	0	37	104	0	60	45583
2026-01-30 00:52:01.76	179.69	19.97	-49.4	-62.3	3.5	1.52e+00	0	37	104	0	60	45666
2026-01-30 00:52:02.77	179.76	20.10	-49.4	-62.3	3.5	1.52e+00	0	38	104	0	60	45662
2026-01-30 00:52:03.78	179.83	20.22	-49.4	-62.3	3.5	1.52e+00	0	37	104	0	60	45566
2026-01-30 00:52:04.79	179.90	20.35	-49.4	-62.3	3.5	1.52e+00	0	37	104	0	60	45696
2026-01-30 00:52:05.80	179.97	20.48	-49.4	-62.3	3.5	1.52e+00	0	37	104	0	60	45821
2026-01-30 00:52:06.81	180.05	20.61	-49.4	-62.3	3.5	1.52e+00	0	37	104	0	60	45532
2026-01-30 00:52:07.82	180.12	20.74	-49.4	-62.3	3.5	1.51e+00	0	37	104	0	60	45490
2026-01-30 00:52:08.83	180.19	20.87	-49.4	-62.3	3.5	1.52e+00	0	37	104	0	60	45655
2026-01-30 00:52:09.84	180.27	21.01	-49.4	-62.3	3.5	1.52e+00	0	37	104	0	60	45810
2026-01-30 00:52:10.85	180.34	21.14	-49.4	-62.3	3.5	1.52e+00	0	37	104	0	60	45709
2026-01-30 00:52:11.86	180.42	21.27	-49.4	-62.3	3.5	1.52e+00	0	37	104	0	60	45636
2026-01-30 00:52:12.87	180.50	21.40	-49.4	-62.3	3.5	1.52e+00	0	37	104	0	60	45659
2026-01-30 00:52:13.88	180.57	21.54	-49.4	-62.3	3.5	1.52e+00	0	37	104	0	60	45602
2026-01-30 00:52:14.89	180.65	21.67	-49.4	-62.3	3.5	1.52e+00	0	37	104	0	60	45782
2026-01-30 00:52:15.90	180.73	21.81	-49.4	-62.3	3.5	1.52e+00	0	37	104	0	60	45732
2026-01-30 00:52:16.91	180.81	21.95	-49.4	-62.3	3.5	1.52e+00	0	37	104	0	60	45692
2026-01-30 00:52:17.92	180.89	22.08	-49.4	-62.3	3.5	1.52e+00	0	37	104	0	60	45906
2026-01-30 00:52:18.93	180.97	22.22	-49.4	-62.3	3.5	1.52e+00	0	37	104	0	60	45836
2026-01-30 00:52:19.94	181.05	22.36	-49.4	-62.3	3.5	1.52e+00	0	37	104	0	60	45667
2026-01-30 00:52:20.95	181.13	22.50	-49.4	-62.3	3.5	1.52e+00	0	37	104	0	60	45854
2026-01-30 00:52:21.96	181.21	22.64	-49.4	-62.3	3.5	1.52e+00	0	37	104	0	60	45582
2026-01-30 00:52:22.97	181.30	22.78	-49.4	-62.3	3.5	1.52e+00	0	37	104	0	60	45635
2026-01-30 00:52:23.98	181.38	22.92	-49.4	-62.3	3.5	1.52e+00	0	37	104	0	60	45681
2026-01-30 00:52:24.99	181.47	23.06	-49.4	-62.3	3.5	1.51e+00	0	37	104	0	60	45953
2026-01-30 00:52:26.00	181.55	23.21	-49.4	-62.3	3.5	1.51e+00	0	37	104	0	60	45907
2026-01-30 00:52:27.01	181.64	23.35	-49.4	-62.3	3.5	1.52e+00	0	37	104	0	60	45600
2026-01-30 00:52:28.02	181.72	23.49	-49.4	-62.3	3.5	1.52e+00	0	37	104	0	60	45675
2026-01-30 00:52:29.03	181.81	23.64	-49.4	-62.3	3.5	1.52e+00	0	37	104	0	60	45833
2026-01-30 00:52:30.04	181.90	23.79	-49.4	-62.3	3.5	1.51e+00	0	37	104	0	60	45795
2026-01-30 00:52:31.05	181.99	23.93	-49.4	-62.3	3.5	1.52e+00	0	37	104	0	60	46000
2026-01-30 00:52:32.06	182.08	24.08	-49.4	-62.3	3.5	1.52e+00	0	37	104	0	60	45693
2026-01-30 00:52:33.07	182.17	24.23	-49.4	-62.3	3.5	1.52e+00	0	37	104	0	60	45610
2026-01-30 00:52:34.09	182.26	24.38	-49.4	-62.3	3.5	1.52e+00	0	37	104	0	60	45521
2026-01-30 00:52:35.09	182.35	24.53	-49.4	-62.3	3.5	1.52e+00	0	37	104	0	60	45678
2026-01-30 00:52:36.10	182.45	24.68	-49.4	-62.3	3.5	1.52e+00	0	38	104	0	60	45851
2026-01-30 00:52:37.11	182.54	24.83	-49.4	-62.3	3.5	1.52e+00	0	38	104	0	60	45833
2026-01-30 00:52:38.13	182.64	24.98	-49.4	-62.3	3.5	1.52e+00	0	37	104	0	60	45873
2026-01-30 00:52:39.14	182.73	25.13	-49.4	-62.3	3.5	1.52e+00	0	38	104	0	60	45699
2026-01-30 00:52:40.15	182.83	25.29	-49.4	-62.3	3.5	1.52e+00	0	38	104	0	60	45700
2026-01-30 00:52:41.16	182.93	25.44	-49.4	-62.3	3.5	1.51e+00	0	37	104	0	60	45732
2026-01-30 00:52:42.17	183.03	25.60	-49.4	-62.3	3.5	1.52e+00	0	38	104	0	60	45531
2026-01-30 00:52:43.18	183.13	25.75	-49.4	-62.3	3.5	1.52e+00	0	38	104	0	60	45616
2026-01-30 00:52:44.19	183.23	25.91	-49.4	-62.3	3.5	1.52e+00	0	38	104	0	60	45788
2026-01-30 00:52:45.20	183.33	26.07	-49.4	-62.3	3.5	1.52e+00	0	38	104	0	60	45674
2026-01-30 00:52:46.21	183.43	26.23	-49.4	-62.3	3.5	1.52e+00	0	38	104	0	60	45665
2026-01-30 00:52:47.22	183.53	26.39	-49.4	-62.3	3.5	1.52e+00	0	38	104	0	60	45762
2026-01-30 00:52:48.23	183.64	26.55	-49.4	-62.3	3.5	1.52e+00	0	38	104	0	60	45819
2026-01-30 00:52:49.24	183.74	26.71	-49.4	-62.3	3.5	1.52e+00	0	38	104	0	60	45697
2026-01-30 00:52:50.25	183.85	26.87	-49.4	-62.3	3.5	1.52e+00	0	38	104	0	60	45672
2026-01-30 00:52:51.26	183.96	27.03	-49.4	-62.3	3.5	1.52e+00	0	38	104	0	60	45584
2026-01-30 00:52:52.27	184.07	27.20	-49.4	-62.3	3.5	1.51e+00	0	38	104	0	60	45775
2026-01-30 00:52:53.28	184.18	27.36	-49.4	-62.3	3.5	1.52e+00	0	38	104	0	60	45793
2026-01-30 00:52:54.29	184.29	27.53	-49.4	-62.3	3.5	1.52e+00	0	37	104	0	60	45756
2026-01-30 00:52:55.30	184.40	27.69	-49.4	-62.3	3.5	1.51e+00	0	38	104	0	60	45692
2026-01-30 00:52:56.31	184.51	27.86	-49.4	-62.3	3.5	1.52e+00	0	38	104	0	60	45814
2026-01-30 00:52:57.32	184.63	28.03	-49.4	-62.3	3.5	1.52e+00	0	37	104	0	60	45803
2026-01-30 00:52:58.33	184.74	28.20	-49.4	-62.2	3.5	1.52e+00	0	38	104	0	60	45449
2026-01-30 00:52:59.35	184.86	28.37	-49.4	-62.3	3.5	1.52e+00	0	38	104	0	60	45708
2026-01-30 00:53:00.36	184.98	28.54	-49.4	-62.3	3.5	1.51e+00	0	38	104	0	60	45581
2026-01-30 00:53:01.37	185.10	28.71	-49.4	-62.3	3.5	1.52e+00	0	37	104	0	60	45932
2026-01-30 00:53:02.38	185.22	28.88	-49.4	-62.3	3.5	1.52e+00	0	37	104	0	60	45781
2026-01-30 00:53:03.39	185.34	29.06	-49.4	-62.3	3.5	1.52e+00	0	37	104	0	60	45787
2026-01-30 00:53:04.40	185.46	29.23	-49.4	-62.3	3.5	1.52e+00	0	38	104	0	60	46003
2026-01-30 00:53:05.41	185.58	29.41	-49.4	-62.3	3.5	1.52e+00	0	37	104	0	60	45674
2026-01-30 00:53:06.42	185.71	29.59	-49.4	-62.2	3.5	1.52e+00	0	37	104	0	60	45468
2026-01-30 00:53:07.43	185.84	29.76	-49.4	-62.3	3.5	1.52e+00	0	38	104	0	60	45857
2026-01-30 00:53:08.44	185.96	29.94	-49.4	-62.3	3.5	1.52e+00	0	37	104	0	60	45723
2026-01-30 00:53:09.45	186.09	30.12	-49.4	-62.3	3.5	1.52e+00	0	37	104	0	60	45862
2026-01-30 00:53:10.46	186.22	30.30	-49.4	-62.3	3.5	1.52e+00	0	38	104	0	60	45678
2026-01-30 00:53:11.47	186.36	30.48	-49.4	-62.3	3.5	1.52e+00	0	37	104	0	60	45532
2026-01-30 00:53:12.48	186.49	30.67	-49.4	-62.3	3.5	1.52e+00	0	38	104	0	60	45827
2026-01-30 00:53:13.49	186.62	30.85	-49.4	-62.3	3.5	1.52e+00	0	37	104	0	60	45775
2026-01-30 00:53:14.50	186.76	31.03	-49.4	-62.3	3.5	1.52e+00	0	37	104	0	60	45751
2026-01-30 00:53:15.51	186.90	31.22	-49.4	-62.3	3.5	1.51e+00	0	37	104	0	60	45906
2026-01-30 00:53:16.52	187.04	31.40	-49.4	-62.3	3.5	1.52e+00	0	38	104	0	60	45872
2026-01-30 00:53:17.53	187.18	31.59	-49.4	-62.3	3.5	1.52e+00	0	38	104	0	60	45793
2026-01-30 00:53:18.54	187.32	31.78	-49.4	-62.3	3.5	1.52e+00	0	37	104	0	60	45689
2026-01-30 00:53:19.55	187.47	31.97	-49.4	-62.3	3.5	1.52e+00	0	37	104	0	60	45690
2026-01-30 00:53:20.56	187.61	32.16	-49.4	-62.3	3.5	1.52e+00	0	37	104	0	60	45742
2026-01-30 00:53:21.57	187.76	32.35	-49.4	-62.3	3.5	1.52e+00	0	37	104	0	60	45754
2026-01-30 00:53:22.58	187.91	32.54	-49.4	-62.3	3.5	1.52e+00	0	37	104	0	60	45641
2026-01-30 00:53:23.59	188.06	32.74	-49.4	-62.3	3.5	1.52e+00	0	38	104	0	60	45621
2026-01-30 00:53:24.60	188.22	32.93	-49.4	-62.3	3.5	1.52e+00	0	37	104	0	60	45722
2026-01-30 00:53:25.61	188.37	33.13	-49.4	-62.3	3.5	1.52e+00	0	38	104	0	60	45862
2026-01-30 00:53:26.62	188.53	33.33	-49.4	-62.3	3.5	1.52e+00	0	37	104	0	60	45750
2026-01-30 00:53:27.63	188.69	33.52	-49.4	-62.3	3.5	1.52e+00	0	37	104	0	60	45602
2026-01-30 00:53:28.64	188.85	33.72	-49.4	-62.3	3.5	1.52e+00	0	37	104	0	60	45582
2026-01-30 00:53:29.65	189.01	33.92	-49.4	-62.3	3.5	1.51e+00	0	37	104	0	60	45856
2026-01-30 00:53:30.66	189.17	34.12	-49.4	-62.3	3.5	1.52e+00	0	37	104	0	60	45709
2026-01-30 00:53:31.67	189.34	34.32	-49.4	-62.3	3.5	1.52e+00	0	37	104	0	60	45564
2026-01-30 00:53:32.68	189.51	34.53	-49.4	-62.3	3.5	1.52e+00	0	37	104	0	60	45664
2026-01-30 00:53:33.69	189.68	34.73	-49.4	-62.3	3.5	1.52e+00	0	37	104	0	60	45736
2026-01-30 00:53:34.70	189.85	34.94	-49.4	-62.3	3.5	1.52e+00	0	38	104	0	60	45748
2026-01-30 00:53:35.71	190.02	35.14	-49.4	-62.3	3.5	1.51e+00	0	38	104	0	60	45736
2026-01-30 00:53:36.72	190.20	35.35	-49.4	-62.3	3.5	1.52e+00	0	37	104	0	60	45518
2026-01-30 00:53:37.73	190.38	35.56	-49.4	-62.3	3.5	1.51e+00	0	37	104	0	60	45688
2026-01-30 00:53:38.74	190.56	35.77	-49.4	-62.3	3.5	1.51e+00	0	37	104	0	60	45623
2026-01-30 00:53:39.75	190.74	35.98	-49.4	-62.3	3.5	1.52e+00	0	37	104	0	60	45780
2026-01-30 00:53:40.76	190.93	36.19	-49.4	-62.3	3.5	1.52e+00	0	37	104	0	60	45666
2026-01-30 00:53:41.77	191.12	36.40	-49.4	-62.3	3.5	1.52e+00	0	37	104	0	60	45956
2026-01-30 00:53:42.78	191.31	36.62	-49.4	-62.3	3.5	1.52e+00	0	38	104	0	60	45740
2026-01-30 00:53:43.80	191.50	36.83	-49.4	-62.3	3.5	1.52e+00	0	37	104	0	60	45877
2026-01-30 00:53:44.80	191.70	37.05	-49.4	-62.4	3.5	1.51e+00	0	37	104	0	60	46048
2026-01-30 00:53:45.81	191.89	37.26	-49.4	-62.3	3.5	1.52e+00	0	37	104	0	60	45778
2026-01-30 00:53:46.82	192.10	37.48	-49.4	-62.3	3.5	1.52e+00	0	37	104	0	60	45718
2026-01-30 00:53:47.83	192.30	37.70	-49.4	-62.3	3.5	1.51e+00	0	37	104	0	60	45558
2026-01-30 00:53:48.84	192.50	37.92	-49.4	-62.3	3.5	1.52e+00	0	37	104	0	60	45719
2026-01-30 00:53:49.85	192.71	38.14	-49.4	-62.3	3.5	1.52e+00	0	37	104	0	60	45966
2026-01-30 00:53:50.86	192.93	38.36	-49.4	-62.3	3.5	1.52e+00	0	37	104	0	60	45798
2026-01-30 00:53:51.87	193.14	38.59	-49.4	-62.3	3.5	1.51e+00	0	37	104	0	60	45657
2026-01-30 00:53:52.89	193.36	38.81	-49.4	-62.3	3.5	1.52e+00	0	37	104	0	60	45704
2026-01-30 00:53:53.90	193.58	39.04	-49.4	-62.4	3.5	1.52e+00	0	37	104	0	60	46042
2026-01-30 00:53:54.91	193.80	39.26	-49.4	-62.3	3.5	1.52e+00	0	37	104	0	60	45709
2026-01-30 00:53:55.92	194.03	39.49	-49.4	-62.3	3.5	1.52e+00	0	37	104	0	60	45581
2026-01-30 00:53:56.93	194.26	39.72	-49.4	-62.3	3.5	1.51e+00	0	38	104	0	60	45700
2026-01-30 00:53:57.94	194.49	39.95	-49.4	-62.3	3.5	1.52e+00	0	37	104	0	60	45850
2026-01-30 00:53:58.95	194.73	40.18	-49.4	-62.3	3.5	1.52e+00	0	37	104	0	60	45676
2026-01-30 00:53:59.96	194.97	40.41	-49.4	-62.3	3.5	1.52e+00	0	37	104	0	60	45854
2026-01-30 00:54:00.97	195.21	40.64	-49.4	-62.3	3.5	1.52e+00	0	37	104	0	60	45791
2026-01-30 00:54:01.98	195.45	40.87	-49.4	-62.3	3.5	1.52e+00	0	37	104	0	60	45850
2026-01-30 00:54:02.99	195.70	41.11	-49.4	-62.3	3.5	1.52e+00	0	37	104	0	60	45695
2026-01-30 00:54:04.00	195.96	41.34	-49.4	-62.3	3.5	1.52e+00	0	37	104	0	60	45836
2026-01-30 00:54:05.01	196.21	41.58	-49.4	-62.3	3.5	1.52e+00	0	38	104	0	60	45831
2026-01-30 00:54:06.02	196.47	41.82	-49.4	-62.3	3.5	1.52e+00	0	37	104	0	60	45757
2026-01-30 00:54:07.03	196.74	42.05	-49.4	-62.3	3.5	1.52e+00	0	37	104	0	60	45882
2026-01-30 00:54:08.04	197.01	42.29	-49.4	-62.3	3.5	1.52e+00	0	37	104	0	60	45812
2026-01-30 00:54:09.05	197.28	42.53	-49.4	-62.3	3.5	1.52e+00	0	38	104	0	60	45820
2026-01-30 00:54:10.06	197.55	42.77	-49.4	-62.3	3.5	1.51e+00	0	37	104	0	60	45744
2026-01-30 00:54:11.07	197.83	43.01	-49.4	-62.3	3.5	1.52e+00	0	37	104	0	60	45698
2026-01-30 00:54:12.08	198.12	43.25	-49.4	-62.3	3.5	1.52e+00	0	38	104	0	60	45539
2026-01-30 00:54:13.09	198.41	43.49	-49.4	-62.3	3.4	1.52e+00	0	38	104	0	60	45688
2026-01-30 00:54:14.10	198.70	43.74	-49.4	-62.3	3.5	1.52e+00	0	37	104	0	60	45912
2026-01-30 00:54:15.11	199.00	43.98	-49.4	-62.3	3.5	1.52e+00	0	38	104	0	60	45858
2026-01-30 00:54:16.12	199.30	44.23	-49.4	-62.3	3.5	1.52e+00	0	38	104	0	60	45805
2026-01-30 00:54:17.13	199.61	44.47	-49.4	-62.4	3.5	1.52e+00	0	37	104	0	60	46022
2026-01-30 00:54:18.14	199.92	44.72	-49.4	-62.3	3.5	1.52e+00	0	37	104	0	60	45754
2026-01-30 00:54:19.15	200.23	44.96	-49.4	-62.3	3.5	1.52e+00	0	38	104	0	60	45656
2026-01-30 00:54:20.16	200.55	45.21	-49.4	-62.3	3.5	1.51e+00	0	38	104	0	60	45816
2026-01-30 00:54:21.17	200.88	45.46	-49.4	-62.3	3.5	1.52e+00	0	37	104	0	60	45833
2026-01-30 00:54:22.18	201.21	45.71	-49.4	-62.3	3.5	1.52e+00	0	38	104	0	60	45712
2026-01-30 00:54:23.19	201.55	45.95	-49.4	-62.3	3.5	1.52e+00	0	38	104	0	60	45936
2026-01-30 00:54:24.20	201.89	46.20	-49.4	-62.3	3.5	1.52e+00	0	38	104	0	60	45687
2026-01-30 00:54:25.21	202.23	46.45	-49.4	-62.3	3.5	1.52e+00	0	37	104	0	60	45666
2026-01-30 00:54:26.22	202.59	46.70	-49.4	-62.3	3.5	1.52e+00	0	38	104	0	60	45885
2026-01-30 00:54:27.23	202.94	46.95	-49.4	-62.3	3.5	1.51e+00	0	38	104	0	60	45562
2026-01-30 00:54:28.24	203.31	47.20	-49.4	-62.3	3.5	1.52e+00	0	38	104	0	60	45849
2026-01-30 00:54:29.25	203.67	47.45	-49.4	-62.3	3.5	1.52e+00	0	38	104	0	60	45732
2026-01-30 00:54:30.27	204.05	47.71	-49.4	-62.3	3.5	1.52e+00	0	38	104	0	60	45853
2026-01-30 00:54:31.28	204.43	47.96	-49.4	-62.3	3.5	1.52e+00	0	38	104	0	60	45819
2026-01-30 00:54:32.29	204.82	48.21	-49.4	-62.3	3.5	1.52e+00	0	38	104	0	60	45804
2026-01-30 00:54:33.30	205.22	48.46	-49.4	-62.3	3.5	1.52e+00	0	38	104	0	60	45644
2026-01-30 00:54:34.31	205.61	48.71	-49.4	-62.3	3.5	1.51e+00	0	38	104	0	60	45840
2026-01-30 00:54:35.32	206.02	48.96	-49.4	-62.3	3.5	1.52e+00	0	38	104	0	60	45759
2026-01-30 00:54:36.33	206.43	49.21	-49.4	-62.3	3.5	1.52e+00	0	38	104	0	60	45760
2026-01-30 00:54:37.34	206.85	49.46	-49.4	-62.3	3.5	1.52e+00	0	38	104	0	60	45883
2026-01-30 00:54:38.35	207.28	49.71	-49.4	-62.3	3.5	1.52e+00	0	38	104	0	60	45794
2026-01-30 00:54:39.36	207.71	49.96	-49.4	-62.3	3.5	1.51e+00	0	38	104	0	60	45838
2026-01-30 00:54:40.37	208.15	50.21	-49.4	-62.3	3.5	1.52e+00	0	38	104	0	60	45572
2026-01-30 00:54:41.38	208.60	50.46	-49.4	-62.3	3.5	1.52e+00	0	38	104	0	60	45711
2026-01-30 00:54:42.39	209.06	50.71	-49.4	-62.3	3.5	1.51e+00	0	38	104	0	60	45824
2026-01-30 00:54:43.40	209.52	50.96	-49.4	-62.3	3.5	1.51e+00	0	38	104	0	60	45805
2026-01-30 00:54:44.41	209.99	51.21	-49.4	-62.3	3.5	1.52e+00	0	38	104	0	60	45700
2026-01-30 00:54:45.42	210.47	51.46	-49.4	-62.3	3.5	1.52e+00	0	38	104	0	60	45637
2026-01-30 00:54:46.43	210.95	51.70	-49.4	-62.3	3.5	1.52e+00	0	38	104	0	60	45813
2026-01-30 00:54:47.44	211.45	51.95	-49.4	-62.3	3.5	1.52e+00	0	38	104	0	60	45843
2026-01-30 00:54:48.45	211.95	52.19	-49.4	-62.3	3.5	1.52e+00	0	38	104	0	60	45945
2026-01-30 00:54:49.46	212.46	52.44	-49.4	-62.3	3.5	1.52e+00	0	38	104	0	60	45891
2026-01-30 00:54:50.47	212.98	52.68	-49.4	-62.2	3.5	1.52e+00	0	38	104	0	60	45445
2026-01-30 00:54:51.48	213.51	52.92	-49.4	-62.3	3.5	1.52e+00	0	38	104	0	60	45819
2026-01-30 00:54:52.49	214.04	53.16	-49.4	-62.3	3.5	1.52e+00	0	38	104	0	60	45733
2026-01-30 00:54:53.50	214.59	53.40	-49.4	-62.3	3.5	1.52e+00	0	38	104	0	60	45903
2026-01-30 00:54:54.51	215.14	53.63	-49.4	-62.3	3.5	1.52e+00	0	38	104	0	60	45658
2026-01-30 00:54:55.52	215.70	53.87	-49.4	-62.3	3.5	1.52e+00	0	37	104	0	60	45895
2026-01-30 00:54:56.53	216.27	54.10	-49.4	-62.3	3.5	1.52e+00	0	38	104	0	60	45908
2026-01-30 00:54:57.54	216.85	54.33	-49.4	-62.3	3.5	1.52e+00	0	38	104	0	60	45790
2026-01-30 00:54:58.55	217.44	54.56	-49.4	-62.3	3.5	1.51e+00	0	38	104	0	60	45567
2026-01-30 00:54:59.57	218.05	54.79	-49.4	-62.3	3.5	1.52e+00	0	38	104	0	60	45701
2026-01-30 00:55:00.57	218.65	55.02	-49.4	-62.3	3.5	1.52e+00	0	37	104	0	60	45593
2026-01-30 00:55:01.58	219.27	55.24	-49.4	-62.3	3.5	1.52e+00	0	38	104	0	60	45534
2026-01-30 00:55:02.59	219.90	55.46	-49.4	-62.3	3.5	1.52e+00	0	37	104	0	60	45620
2026-01-30 00:55:03.60	220.54	55.68	-49.4	-62.3	3.5	1.51e+00	0	38	104	0	60	45697
2026-01-30 00:55:04.62	221.19	55.90	-49.4	-62.3	3.5	1.52e+00	0	37	104	0	60	45724
2026-01-30 00:55:05.63	221.85	56.11	-49.4	-62.3	3.5	1.51e+00	0	38	104	0	60	45734
2026-01-30 00:55:06.64	222.52	56.32	-49.4	-62.3	3.5	1.52e+00	0	38	104	0	60	45872
2026-01-30 00:55:07.65	223.20	56.53	-49.4	-62.3	3.5	1.52e+00	0	38	104	0	60	45713
2026-01-30 00:55:08.66	223.88	56.73	-49.4	-62.3	3.5	1.52e+00	0	38	104	0	60	45812
2026-01-30 00:55:09.67	224.58	56.93	-49.4	-62.3	3.5	1.52e+00	0	38	104	0	60	45926
2026-01-30 00:55:10.68	225.29	57.13	-49.4	-62.3	3.5	1.52e+00	0	38	104	0	60	45722
2026-01-30 00:55:11.69	226.01	57.32	-49.4	-62.3	3.5	1.51e+00	0	38	104	0	60	45796
2026-01-30 00:55:12.70	226.74	57.52	-49.4	-62.3	3.5	1.52e+00	0	38	104	0	60	45719
2026-01-30 00:55:13.71	227.48	57.70	-49.4	-62.3	3.5	1.52e+00	0	38	104	0	60	45903
2026-01-30 00:55:14.72	228.23	57.88	-49.4	-62.3	3.5	1.52e+00	0	38	104	0	60	45557
2026-01-30 00:55:15.73	228.98	58.06	-49.4	-62.3	3.5	1.52e+00	0	38	104	0	60	45836
2026-01-30 00:55:16.74	229.75	58.24	-49.4	-62.3	3.5	1.52e+00	0	38	104	0	60	45560
2026-01-30 00:55:17.75	230.53	58.41	-49.4	-62.3	3.5	1.52e+00	0	38	104	0	60	45866
2026-01-30 00:55:18.76	231.32	58.57	-49.4	-62.3	3.5	1.52e+00	0	38	104	0	60	45734
2026-01-30 00:55:19.77	232.12	58.73	-49.4	-62.3	3.5	1.52e+00	0	38	104	0	60	45562
2026-01-30 00:55:20.78	232.93	58.89	-49.4	-62.3	3.5	1.52e+00	0	38	104	0	60	45619
2026-01-30 00:55:21.79	233.74	59.04	-49.4	-62.3	3.5	1.52e+00	0	38	104	0	60	45692
2026-01-30 00:55:22.80	234.57	59.19	-49.4	-62.3	3.5	1.52e+00	0	38	104	0	60	45827
2026-01-30 00:55:23.81	235.41	59.33	-49.4	-62.3	3.5	1.52e+00	0	38	104	0	60	45781
2026-01-30 00:55:24.82	236.25	59.47	-49.4	-62.3	3.5	1.52e+00	0	38	104	0	60	45848
2026-01-30 00:55:25.83	237.10	59.60	-49.4	-62.3	3.5	1.52e+00	0	38	104	0	60	45745
2026-01-30 00:55:26.84	237.97	59.72	-49.4	-62.3	3.5	1.52e+00	0	38	104	0	60	45993
2026-01-30 00:55:27.85	238.84	59.84	-49.4	-62.3	3.5	1.51e+00	0	38	104	0	60	45945
2026-01-30 00:55:28.86	239.71	59.96	-49.4	-62.3	3.5	1.51e+00	0	38	104	0	60	45805
2026-01-30 00:55:29.87	240.60	60.07	-49.4	-62.3	3.5	1.52e+00	0	38	104	0	60	45724
2026-01-30 00:55:30.88	241.49	60.17	-49.4	-62.3	3.5	1.52e+00	0	38	104	0	60	45807
2026-01-30 00:55:31.89	242.39	60.26	-49.4	-62.3	3.5	1.52e+00	0	38	104	0	60	45680
2026-01-30 00:55:32.90	243.29	60.35	-49.4	-62.3	3.5	1.52e+00	0	38	104	0	60	45612
2026-01-30 00:55:33.91	244.21	60.44	-49.4	-62.3	3.5	1.52e+00	0	38	104	0	60	45708
2026-01-30 00:55:34.92	245.12	60.52	-49.4	-62.3	3.5	1.52e+00	0	38	104	0	60	45824
2026-01-30 00:55:35.93	246.05	60.59	-49.4	-62.3	3.5	1.52e+00	0	38	104	0	60	45772
2026-01-30 00:55:36.94	246.97	60.65	-49.4	-62.3	3.5	1.52e+00	0	38	104	0	60	45575
2026-01-30 00:55:37.95	247.91	60.71	-49.4	-62.3	3.5	1.52e+00	0	38	104	0	60	45839
2026-01-30 00:55:38.96	248.84	60.76	-49.4	-62.3	3.5	1.52e+00	0	38	104	0	60	45729
2026-01-30 00:55:39.97	249.78	60.81	-49.4	-62.3	3.5	1.52e+00	0	38	104	0	60	45680
2026-01-30 00:55:40.98	250.73	60.84	-49.4	-62.3	3.5	1.52e+00	0	38	104	0	60	45634
2026-01-30 00:55:41.99	251.67	60.88	-49.4	-62.3	3.5	1.52e+00	0	38	104	0	60	45715
2026-01-30 00:55:43.00	252.62	60.90	-49.4	-62.3	3.5	1.51e+00	0	38	104	0	60	45699
2026-01-30 00:55:44.01	253.57	60.92	-49.4	-62.3	3.5	1.52e+00	0	38	104	0	60	45589
2026-01-30 00:55:45.02	254.52	60.93	-49.4	-62.3	3.5	1.52e+00	0	38	104	0	60	45682
2026-01-30 00:55:46.03	255.47	60.93	-49.4	-62.3	3.5	1.52e+00	0	38	104	0	60	46000
2026-01-30 00:55:47.04	256.42	60.93	-49.4	-62.3	3.5	1.52e+00	0	38	104	0	60	45819
2026-01-30 00:55:48.05	257.37	60.92	-49.4	-62.3	3.5	1.52e+00	0	38	104	0	60	45588
2026-01-30 00:55:49.06	258.32	60.91	-49.4	-62.3	3.5	1.52e+00	0	38	104	0	60	45800
2026-01-30 00:55:50.07	259.27	60.88	-49.4	-62.3	3.5	1.52e+00	0	38	104	0	60	45808
2026-01-30 00:55:51.08	260.21	60.85	-49.4	-62.3	3.5	1.51e+00	0	38	104	0	60	45798
2026-01-30 00:55:52.09	261.16	60.82	-49.4	-62.3	3.5	1.52e+00	0	37	104	0	60	45488
2026-01-30 00:55:53.10	262.10	60.77	-49.4	-62.2	3.5	1.52e+00	0	38	104	0	60	45474
2026-01-30 00:55:54.11	263.03	60.72	-49.4	-62.3	3.5	1.52e+00	0	38	104	0	60	45708
2026-01-30 00:55:55.12	263.97	60.67	-49.4	-62.3	3.5	1.52e+00	0	38	104	0	60	45880
2026-01-30 00:55:56.13	264.89	60.60	-49.4	-62.3	3.5	1.51e+00	0	38	104	0	60	45837
2026-01-30 00:55:57.14	265.82	60.53	-49.4	-62.3	3.5	1.51e+00	0	38	104	0	60	45698
2026-01-30 00:55:58.15	266.74	60.46	-49.4	-62.3	3.5	1.51e+00	0	38	104	0	60	45566
2026-01-30 00:55:59.16	267.65	60.37	-49.4	-62.3	3.5	1.52e+00	0	37	104	0	60	45710
2026-01-30 00:56:00.17	268.55	60.28	-49.4	-62.3	3.5	1.51e+00	0	37	104	0	60	45730
2026-01-30 00:56:01.18	269.45	60.19	-49.4	-62.3	3.5	1.52e+00	0	37	104	0	60	45601
2026-01-30 00:56:02.19	270.35	60.09	-49.4	-62.3	3.5	1.52e+00	0	37	104	0	60	45907
2026-01-30 00:56:03.20	271.23	59.98	-49.4	-62.3	3.5	1.52e+00	0	38	104	0	60	45743
2026-01-30 00:56:04.21	272.11	59.87	-49.4	-62.4	3.5	1.52e+00	0	38	104	0	60	46020
2026-01-30 00:56:05.22	272.98	59.75	-49.4	-62.3	3.5	1.52e+00	0	38	104	0	60	45560
2026-01-30 00:56:06.23	273.85	59.63	-49.4	-62.3	3.5	1.52e+00	0	38	104	0	60	45735
2026-01-30 00:56:07.25	274.71	59.50	-49.4	-62.3	3.5	1.52e+00	0	38	104	0	60	45615
2026-01-30 00:56:08.26	275.55	59.36	-49.4	-62.3	3.5	1.52e+00	0	38	104	0	60	45586
2026-01-30 00:56:09.27	276.39	59.22	-49.4	-62.3	3.5	1.52e+00	0	38	104	0	60	45699
2026-01-30 00:56:10.28	277.22	59.08	-49.4	-62.3	3.5	1.52e+00	0	38	104	0	60	45706
2026-01-30 00:56:11.29	278.04	58.93	-49.4	-62.3	3.5	1.51e+00	0	38	104	0	60	45569
2026-01-30 00:56:12.30	278.84	58.77	-49.4	-62.3	3.5	1.52e+00	0	38	104	0	60	45508
2026-01-30 00:56:13.31	279.64	58.61	-49.4	-62.3	3.5	1.51e+00	0	38	104	0	60	45834
2026-01-30 00:56:14.32	280.43	58.45	-49.4	-62.3	3.5	1.52e+00	0	38	104	0	60	45891
2026-01-30 00:56:15.33	281.21	58.28	-49.4	-62.3	3.5	1.52e+00	0	38	104	0	60	45789
2026-01-30 00:56:16.34	281.98	58.10	-49.4	-62.3	3.5	1.52e+00	0	38	104	0	60	45834
2026-01-30 00:56:17.35	282.74	57.93	-49.4	-62.3	3.5	1.52e+00	0	38	104	0	60	45695
2026-01-30 00:56:18.36	283.49	57.74	-49.4	-62.3	3.5	1.52e+00	0	37	104	0	60	45805
2026-01-30 00:56:19.37	284.23	57.56	-49.4	-62.3	3.5	1.52e+00	0	38	104	0	60	45653
2026-01-30 00:56:20.38	284.96	57.37	-49.4	-62.3	3.5	1.51e+00	0	38	104	0	60	45793
2026-01-30 00:56:21.39	285.68	57.18	-49.4	-62.3	3.5	1.52e+00	0	38	104	0	60	45689
2026-01-30 00:56:22.40	286.39	56.98	-49.4	-62.3	3.5	1.51e+00	0	38	104	0	60	45634
2026-01-30 00:56:23.41	287.09	56.78	-49.4	-62.3	3.5	1.52e+00	0	37	104	0	60	45724
2026-01-30 00:56:24.42	287.78	56.58	-49.4	-62.3	3.5	1.52e+00	0	38	104	0	60	45788
2026-01-30 00:56:25.43	288.46	56.37	-49.4	-62.3	3.5	1.52e+00	0	37	104	0	60	45871
2026-01-30 00:56:26.44	289.13	56.16	-49.4	-62.3	3.5	1.52e+00	0	38	104	0	60	45509
2026-01-30 00:56:27.45	289.79	55.95	-49.4	-62.3	3.5	1.52e+00	0	37	104	0	60	45753
2026-01-30 00:56:28.46	290.44	55.74	-49.4	-62.3	3.5	1.52e+00	0	38	104	0	60	45814
2026-01-30 00:56:29.47	291.08	55.52	-49.4	-62.3	3.5	1.52e+00	0	38	104	0	60	45706
2026-01-30 00:56:30.48	291.71	55.30	-49.4	-62.3	3.5	1.52e+00	0	38	104	0	60	45890
2026-01-30 00:56:31.49	292.33	55.08	-49.4	-62.3	3.5	1.52e+00	0	38	104	0	60	45819
2026-01-30 00:56:32.50	292.94	54.85	-49.4	-62.3	3.5	1.52e+00	0	38	104	0	60	45727
2026-01-30 00:56:33.51	293.54	54.63	-49.4	-62.3	3.5	1.52e+00	0	38	104	0	60	45896
2026-01-30 00:56:34.52	294.13	54.40	-49.4	-62.3	3.5	1.52e+00	0	38	104	0	60	45611
2026-01-30 00:56:35.53	294.71	54.17	-49.4	-62.3	3.5	1.52e+00	0	38	104	0	60	45756
2026-01-30 00:56:36.54	295.28	53.93	-49.4	-62.3	3.5	1.52e+00	0	38	104	0	60	45537
2026-01-30 00:56:37.55	295.85	53.70	-49.4	-62.3	3.5	1.52e+00	0	38	104	0	60	45702
2026-01-30 00:56:38.56	296.40	53.47	-49.4	-62.3	3.5	1.52e+00	0	38	104	0	60	45659
2026-01-30 00:56:39.57	296.95	53.23	-49.4	-62.3	3.5	1.51e+00	0	38	104	0	60	45713
2026-01-30 00:56:40.58	297.49	52.99	-49.4	-62.3	3.5	1.52e+00	0	37	104	0	60	45709
2026-01-30 00:56:41.59	298.01	52.75	-49.4	-62.3	3.5	1.52e+00	0	38	104	0	60	45766
2026-01-30 00:56:42.60	298.53	52.51	-49.4	-62.3	3.5	1.51e+00	0	38	104	0	60	45776
2026-01-30 00:56:43.61	299.04	52.27	-49.4	-62.3	3.5	1.52e+00	0	38	104	0	60	45679
2026-01-30 00:56:44.62	299.55	52.02	-49.4	-62.3	3.5	1.52e+00	0	38	104	0	60	45690
2026-01-30 00:56:45.63	300.04	51.78	-49.4	-62.3	3.5	1.52e+00	0	38	104	0	60	45887
2026-01-30 00:56:46.64	300.53	51.53	-49.4	-62.3	3.5	1.52e+00	0	37	104	0	60	45866
2026-01-30 00:56:47.65	301.01	51.29	-49.4	-62.3	3.5	1.52e+00	0	38	104	0	60	45665
2026-01-30 00:56:48.66	301.48	51.04	-49.4	-62.3	3.5	1.52e+00	0	38	104	0	60	45722
2026-01-30 00:56:49.68	301.95	50.79	-49.4	-62.3	3.5	1.52e+00	0	38	104	0	60	45521
2026-01-30 00:56:50.69	302.40	50.54	-49.4	-62.3	3.5	1.52e+00	0	38	104	0	60	45730
2026-01-30 00:56:51.70	302.85	50.29	-49.4	-62.3	3.5	1.52e+00	0	38	104	0	60	45791
2026-01-30 00:56:52.71	303.29	50.04	-49.4	-62.3	3.5	1.52e+00	0	38	104	0	60	45882
2026-01-30 00:56:53.71	303.72	49.80	-49.4	-62.3	3.5	1.52e+00	0	38	104	0	60	45650
2026-01-30 00:56:54.73	304.16	49.55	-49.4	-62.3	3.5	1.52e+00	0	38	104	0	60	45659
2026-01-30 00:56:55.73	304.57	49.30	-49.4	-62.3	3.5	1.52e+00	0	38	104	0	60	45937
2026-01-30 00:56:56.75	304.99	49.05	-49.4	-62.3	3.5	1.52e+00	0	38	104	0	60	45753
2026-01-30 00:56:57.76	305.40	48.80	-49.4	-62.3	3.5	1.52e+00	0	38	104	0	60	45806
2026-01-30 00:56:58.77	305.80	48.55	-49.4	-62.3	3.5	1.52e+00	0	38	104	0	60	45775
2026-01-30 00:56:59.78	306.19	48.30	-49.4	-62.3	3.5	1.52e+00	0	38	104	0	60	45833
2026-01-30 00:57:00.79	306.58	48.05	-49.4	-62.3	3.5	1.52e+00	0	38	104	0	60	45732
2026-01-30 00:57:01.80	306.96	47.80	-49.4	-62.3	3.5	1.51e+00	0	38	104	0	60	45521
2026-01-30 00:57:02.81	307.34	47.55	-49.4	-62.3	3.5	1.52e+00	0	38	104	0	60	45749
2026-01-30 00:57:03.82	307.71	47.30	-49.4	-62.3	3.5	1.52e+00	0	38	104	0	60	45723
2026-01-30 00:57:04.83	308.07	47.05	-49.4	-62.3	3.5	1.52e+00	0	38	104	0	60	45726
2026-01-30 00:57:05.84	308.43	46.80	-49.4	-62.3	3.5	1.52e+00	0	38	104	0	60	45657
2026-01-30 00:57:06.85	308.78	46.55	-49.4	-62.3	3.5	1.52e+00	0	38	104	0	60	45912
2026-01-30 00:57:07.86	309.13	46.30	-49.4	-62.3	3.5	1.52e+00	0	38	104	0	60	45772
2026-01-30 00:57:08.87	309.47	46.05	-49.4	-62.3	3.5	1.52e+00	0	38	104	0	60	45587
2026-01-30 00:57:09.88	309.81	45.80	-49.4	-62.3	3.5	1.52e+00	0	38	104	0	60	45491
2026-01-30 00:57:10.89	310.14	45.56	-49.4	-62.3	3.5	1.52e+00	0	38	104	0	60	45682
2026-01-30 00:57:11.90	310.47	45.31	-49.4	-62.3	3.5	1.52e+00	0	38	104	0	60	45624
2026-01-30 00:57:12.91	310.79	45.06	-49.4	-62.3	3.5	1.51e+00	0	38	104	0	60	45683
2026-01-30 00:57:13.92	311.11	44.82	-49.4	-62.3	3.5	1.52e+00	0	38	104	0	60	45814
2026-01-30 00:57:14.93	311.42	44.57	-49.4	-62.3	3.5	1.51e+00	0	38	104	0	60	45923
2026-01-30 00:57:15.94	311.72	44.33	-49.4	-62.3	3.5	1.51e+00	0	38	104	0	60	45790
2026-01-30 00:57:16.95	312.03	44.09	-49.4	-62.3	3.5	1.52e+00	0	38	104	0	60	45717
2026-01-30 00:57:17.96	312.32	43.84	-49.4	-62.3	3.5	1.52e+00	0	38	104	0	60	45812
2026-01-30 00:57:18.97	312.62	43.60	-49.4	-62.3	3.5	1.52e+00	0	38	104	0	60	45743
2026-01-30 00:57:19.98	312.91	43.36	-49.4	-62.3	3.4	1.52e+00	0	38	104	0	60	46002
2026-01-30 00:57:20.99	313.19	43.12	-49.4	-62.3	3.5	1.52e+00	0	38	104	0	60	45794
2026-01-30 00:57:22.00	313.47	42.88	-49.4	-62.3	3.5	1.52e+00	0	38	104	0	60	45842
2026-01-30 00:57:23.01	313.75	42.64	-49.4	-62.3	3.5	1.52e+00	0	38	104	0	60	45629
2026-01-30 00:57:24.02	314.02	42.40	-49.4	-62.3	3.5	1.52e+00	0	38	104	0	60	45575
2026-01-30 00:57:25.03	314.29	42.16	-49.4	-62.3	3.5	1.52e+00	0	38	104	0	60	45807
2026-01-30 00:57:26.04	314.56	41.93	-49.4	-62.3	3.5	1.52e+00	0	38	104	0	60	45817
2026-01-30 00:57:27.05	314.82	41.69	-49.4	-62.3	3.5	1.52e+00	0	38	104	0	60	45573
2026-01-30 00:57:28.06	315.07	41.46	-49.4	-62.3	3.5	1.52e+00	0	38	104	0	60	45691
2026-01-30 00:57:29.07	315.33	41.22	-49.4	-62.3	3.5	1.52e+00	0	38	104	0	60	45758
2026-01-30 00:57:30.08	315.58	40.99	-49.4	-62.3	3.5	1.52e+00	0	38	104	0	60	45642
2026-01-30 00:57:31.09	315.83	40.76	-49.4	-62.3	3.5	1.52e+00	0	38	104	0	60	45845
2026-01-30 00:57:32.10	316.07	40.52	-49.4	-62.3	3.5	1.52e+00	0	38	104	0	60	45782
2026-01-30 00:57:33.11	316.31	40.29	-49.4	-62.3	3.5	1.52e+00	0	38	104	0	60	45701
2026-01-30 00:57:34.12	316.55	40.06	-49.4	-62.3	3.5	1.52e+00	0	38	104	0	60	45615
2026-01-30 00:57:35.13	316.78	39.84	-49.4	-62.3	3.5	1.52e+00	0	38	104	0	60	45651
2026-01-30 00:57:36.14	317.01	39.61	-49.4	-62.3	3.5	1.51e+00	0	38	104	0	60	45695
2026-01-30 00:57:37.15	317.24	39.38	-49.4	-62.4	3.5	1.52e+00	0	38	104	0	60	46050
2026-01-30 00:57:38.16	317.46	39.16	-49.4	-62.3	3.5	1.52e+00	0	38	104	0	60	45803
2026-01-30 00:57:39.17	317.68	38.93	-49.4	-62.3	3.5	1.52e+00	0	38	104	0	60	45698
2026-01-30 00:57:40.18	317.90	38.71	-49.4	-62.3	3.5	1.52e+00	0	38	104	0	60	45886
2026-01-30 00:57:41.19	318.11	38.49	-49.4	-62.3	3.5	1.52e+00	0	38	104	0	60	45783
2026-01-30 00:57:42.20	318.33	38.27	-49.4	-62.3	3.5	1.52e+00	0	38	104	0	60	45516
2026-01-30 00:57:43.21	318.53	38.05	-49.4	-62.3	3.5	1.52e+00	0	38	104	0	60	45589
2026-01-30 00:57:44.23	318.74	37.82	-49.4	-62.3	3.5	1.52e+00	0	38	104	0	60	45886
2026-01-30 00:57:45.23	318.95	37.61	-49.4	-62.3	3.5	1.52e+00	0	38	104	0	60	45845
2026-01-30 00:57:46.25	319.15	37.39	-49.4	-62.3	3.5	1.52e+00	0	38	104	0	60	45657
2026-01-30 00:57:47.25	319.35	37.17	-49.4	-62.3	3.5	1.52e+00	0	38	104	0	60	45932
2026-01-30 00:57:48.26	319.54	36.96	-49.4	-62.3	3.5	1.52e+00	0	38	104	0	60	45749
2026-01-30 00:57:49.27	319.73	36.75	-49.4	-62.3	3.5	1.52e+00	0	38	104	0	60	45706
2026-01-30 00:57:50.28	319.93	36.53	-49.4	-62.3	3.5	1.52e+00	0	38	104	0	60	45785
2026-01-30 00:57:51.29	320.11	36.32	-49.4	-62.3	3.5	1.52e+00	0	38	104	0	60	45758
2026-01-30 00:57:52.30	320.30	36.11	-49.4	-62.3	3.5	1.52e+00	0	38	104	0	60	45781
2026-01-30 00:57:53.31	320.49	35.90	-49.4	-62.3	3.5	1.52e+00	0	38	104	0	60	45809
2026-01-30 00:57:54.32	320.67	35.69	-49.4	-62.3	3.5	1.52e+00	0	38	104	0	60	45668
2026-01-30 00:57:55.33	320.85	35.48	-49.4	-62.3	3.5	1.52e+00	0	38	104	0	60	45869
2026-01-30 00:57:56.35	321.03	35.27	-49.4	-62.3	3.5	1.52e+00	0	38	104	0	60	45570
2026-01-30 00:57:57.35	321.20	35.07	-49.4	-62.3	3.5	1.52e+00	0	38	104	0	60	45840
2026-01-30 00:57:58.37	321.37	34.86	-49.4	-62.3	3.5	1.52e+00	0	38	104	0	60	45820
2026-01-30 00:57:59.38	321.54	34.66	-49.4	-62.3	3.5	1.52e+00	0	38	104	0	60	45750
2026-01-30 00:58:00.39	321.71	34.46	-49.4	-62.3	3.5	1.52e+00	0	38	104	0	60	45816
2026-01-30 00:58:01.39	321.88	34.26	-49.4	-62.3	3.5	1.52e+00	0	38	104	0	60	45802
2026-01-30 00:58:02.40	322.04	34.06	-49.4	-62.3	3.4	1.52e+00	0	38	104	0	60	45525
2026-01-30 00:58:03.41	322.21	33.86	-49.4	-62.2	3.5	1.51e+00	0	38	104	0	60	45475
2026-01-30 00:58:04.42	322.37	33.66	-49.4	-62.3	3.5	1.52e+00	0	38	104	0	60	45932
2026-01-30 00:58:05.43	322.53	33.46	-49.4	-62.3	3.5	1.52e+00	0	38	104	0	60	45642
2026-01-30 00:58:06.44	322.68	33.27	-49.4	-62.3	3.5	1.52e+00	0	38	104	0	60	45789
2026-01-30 00:58:07.45	322.84	33.07	-49.4	-62.3	3.5	1.52e+00	0	38	104	0	60	45861
2026-01-30 00:58:08.47	322.99	32.88	-49.4	-62.3	3.5	1.52e+00	0	38	104	0	60	45583
2026-01-30 00:58:09.48	323.15	32.68	-49.4	-62.3	3.5	1.52e+00	0	38	104	0	60	45699
2026-01-30 00:58:10.49	323.30	32.49	-49.4	-62.3	3.5	1.52e+00	0	38	104	0	60	45574
2026-01-30 00:58:11.50	323.44	32.30	-49.4	-62.3	3.5	1.52e+00	0	38	104	0	60	45768
2026-01-30 00:58:12.51	323.59	32.11	-49.4	-62.3	3.5	1.52e+00	0	38	104	0	60	45694
2026-01-30 00:58:13.52	323.74	31.92	-49.4	-62.3	3.5	1.52e+00	0	38	104	0	60	45568
2026-01-30 00:58:14.53	323.88	31.73	-49.4	-62.3	3.5	1.52e+00	0	38	104	0	60	45812
2026-01-30 00:58:15.54	324.02	31.55	-49.4	-62.3	3.5	1.52e+00	0	38	104	0	60	45584
2026-01-30 00:58:16.54	324.16	31.36	-49.4	-62.3	3.5	1.52e+00	0	38	104	0	60	45730
2026-01-30 00:58:17.55	324.30	31.18	-49.4	-62.3	3.5	1.52e+00	0	38	104	0	60	45682
2026-01-30 00:58:18.57	324.44	30.99	-49.4	-62.3	3.5	1.52e+00	0	38	104	0	60	45689
2026-01-30 00:58:19.58	324.57	30.81	-49.4	-62.3	3.5	1.52e+00	0	38	104	0	60	45788
2026-01-30 00:58:20.58	324.71	30.63	-49.4	-62.3	3.5	1.52e+00	0	38	104	0	60	45701
2026-01-30 00:58:21.60	324.84	30.45	-49.4	-62.4	3.5	1.52e+00	0	38	104	0	60	46056
2026-01-30 00:58:22.61	324.97	30.27	-49.4	-62.3	3.5	1.52e+00	0	38	104	0	60	45618
2026-01-30 00:58:23.62	325.10	30.09	-49.4	-62.3	3.5	1.52e+00	0	38	104	0	60	45821
2026-01-30 00:58:24.63	325.23	29.91	-49.4	-62.3	3.5	1.52e+00	0	38	104	0	60	45663
2026-01-30 00:58:25.64	325.36	29.73	-49.4	-62.3	3.5	1.52e+00	0	38	104	0	60	45824
2026-01-30 00:58:26.65	325.48	29.56	-49.4	-62.3	3.5	1.52e+00	0	38	104	0	60	45644
2026-01-30 00:58:27.66	325.61	29.38	-49.4	-62.3	3.5	1.52e+00	0	38	104	0	60	45769
2026-01-30 00:58:28.67	325.73	29.21	-49.4	-62.3	3.5	1.52e+00	0	38	104	0	60	45909
2026-01-30 00:58:29.68	325.85	29.03	-49.4	-62.3	3.5	1.52e+00	0	38	104	0	60	45607
2026-01-30 00:58:30.69	325.97	28.86	-49.4	-62.3	3.5	1.51e+00	0	38	104	0	60	45612
2026-01-30 00:58:31.70	326.09	28.69	-49.4	-62.3	3.5	1.52e+00	0	38	104	0	60	45927
2026-01-30 00:58:32.71	326.21	28.52	-49.4	-62.3	3.5	1.52e+00	0	38	104	0	60	45641
2026-01-30 00:58:33.72	326.33	28.35	-49.4	-62.3	3.5	1.52e+00	0	38	104	0	60	45596
2026-01-30 00:58:34.73	326.44	28.18	-49.4	-62.3	3.5	1.52e+00	0	38	104	0	60	45738
2026-01-30 00:58:35.74	326.56	28.01	-49.4	-62.3	3.5	1.52e+00	0	38	104	0	60	45782
2026-01-30 00:58:36.75	326.67	27.85	-49.4	-62.3	3.5	1.52e+00	0	38	104	0	60	45850
2026-01-30 00:58:37.76	326.78	27.68	-49.4	-62.3	3.5	1.52e+00	0	38	104	0	60	45806
2026-01-30 00:58:38.77	326.90	27.51	-49.4	-62.3	3.5	1.52e+00	0	38	104	0	60	45785
2026-01-30 00:58:39.78	327.01	27.35	-49.4	-62.3	3.5	1.51e+00	0	38	104	0	60	45858
2026-01-30 00:58:40.79	327.11	27.19	-49.4	-62.3	3.5	1.51e+00	0	38	104	0	60	45671
2026-01-30 00:58:41.80	327.22	27.02	-49.4	-62.3	3.5	1.52e+00	0	38	104	0	60	45846
2026-01-30 00:58:42.81	327.33	26.86	-49.4	-62.3	3.5	1.52e+00	0	38	104	0	60	45839
2026-01-30 00:58:43.82	327.44	26.70	-49.4	-62.3	3.5	1.52e+00	0	38	104	0	60	45757
2026-01-30 00:58:44.83	327.54	26.54	-49.4	-62.3	3.5	1.52e+00	0	38	104	0	60	45682
2026-01-30 00:58:45.84	327.65	26.38	-49.4	-62.3	3.5	1.52e+00	0	38	104	0	60	45688
2026-01-30 00:58:46.85	327.75	26.22	-49.4	-62.3	3.5	1.51e+00	0	38	104	0	60	45579
2026-01-30 00:58:47.86	327.85	26.07	-49.4	-62.3	3.5	1.52e+00	0	38	104	0	60	45699
2026-01-30 00:58:48.87	327.95	25.91	-49.4	-62.3	3.5	1.52e+00	0	38	104	0	60	45776
2026-01-30 00:58:49.88	328.05	25.75	-49.4	-62.3	3.5	1.52e+00	0	38	104	0	60	45761
2026-01-30 00:58:50.89	328.15	25.60	-49.4	-62.3	3.5	1.52e+00	0	38	104	0	60	45574
2026-01-30 00:58:51.90	328.25	25.45	-49.4	-62.3	3.5	1.52e+00	0	38	104	0	60	45708
2026-01-30 00:58:52.91	328.35	25.29	-49.4	-62.3	3.5	1.51e+00	0	38	104	0	60	45703
2026-01-30 00:58:53.92	328.44	25.14	-49.4	-62.3	3.5	1.52e+00	0	38	104	0	60	45695
2026-01-30 00:58:54.93	328.54	24.99	-49.4	-62.3	3.5	1.51e+00	0	38	104	0	60	45631
2026-01-30 00:58:55.94	328.63	24.84	-49.4	-62.3	3.5	1.52e+00	0	38	104	0	60	45887
2026-01-30 00:58:56.95	328.73	24.69	-49.4	-62.3	3.5	1.52e+00	0	38	104	0	60	45581
2026-01-30 00:58:57.96	328.82	24.54	-49.4	-62.3	3.5	1.52e+00	0	38	104	0	60	45595
2026-01-30 00:58:58.97	328.91	24.39	-49.4	-62.3	3.5	1.52e+00	0	38	104	0	60	45699
2026-01-30 00:58:59.98	329.00	24.24	-49.4	-62.3	3.5	1.52e+00	0	38	104	0	60	45896
2026-01-30 00:59:00.99	329.09	24.10	-49.4	-62.3	3.5	1.52e+00	0	38	104	0	60	45639
2026-01-30 00:59:02.00	329.18	23.95	-49.4	-62.3	3.5	1.52e+00	0	38	104	0	60	45676
2026-01-30 00:59:03.01	329.27	23.80	-49.4	-62.3	3.5	1.51e+00	0	38	104	0	60	45659
2026-01-30 00:59:04.02	329.36	23.66	-49.4	-62.2	3.5	1.52e+00	0	38	104	0	60	45452
2026-01-30 00:59:05.03	329.45	23.51	-49.4	-62.3	3.5	1.52e+00	0	38	104	0	60	45770
2026-01-30 00:59:06.04	329.53	23.37	-49.4	-62.3	3.5	1.52e+00	0	38	104	0	60	45738
2026-01-30 00:59:07.05	329.62	23.23	-49.4	-62.3	3.5	1.52e+00	0	38	104	0	60	45740
2026-01-30 00:59:08.06	329.71	23.09	-49.4	-62.3	3.5	1.51e+00	0	38	104	0	60	45586
2026-01-30 00:59:09.07	329.79	22.95	-49.4	-62.3	3.5	1.52e+00	0	38	104	0	60	45586
2026-01-30 00:59:10.08	329.87	22.81	-49.4	-62.3	3.5	1.52e+00	0	38	104	0	60	45876
2026-01-30 00:59:11.09	329.96	22.67	-49.4	-62.3	3.5	1.52e+00	0	38	104	0	60	45646
2026-01-30 00:59:12.10	330.04	22.53	-49.4	-62.3	3.5	1.52e+00	0	38	104	0	60	45619
2026-01-30 00:59:13.11	330.12	22.39	-49.4	-62.3	3.5	1.52e+00	0	38	104	0	60	45744
2026-01-30 00:59:14.12	330.20	22.25	-49.4	-62.3	3.5	1.52e+00	0	38	104	0	60	45641
2026-01-30 00:59:15.13	330.28	22.11	-49.4	-62.3	3.5	1.52e+00	0	38	104	0	60	45748
2026-01-30 00:59:16.15	330.36	21.98	-49.4	-62.3	3.5	1.51e+00	0	38	104	0	60	45622
2026-01-30 00:59:17.15	330.44	21.84	-49.4	-62.3	3.5	1.52e+00	0	38	104	0	60	45863
2026-01-30 00:59:18.16	330.52	21.71	-49.4	-62.3	3.5	1.51e+00	0	38	104	0	60	45814
2026-01-30 00:59:19.18	330.60	21.57	-49.4	-62.3	3.5	1.52e+00	0	38	104	0	60	45726
2026-01-30 00:59:20.19	330.67	21.44	-49.4	-62.3	3.5	1.51e+00	0	38	104	0	60	45725
2026-01-30 00:59:21.20	330.75	21.31	-49.4	-62.3	3.5	1.52e+00	0	38	104	0	60	45859
2026-01-30 00:59:22.21	330.83	21.17	-49.4	-62.3	3.5	1.52e+00	0	38	104	0	60	45795
2026-01-30 00:59:23.22	330.90	21.04	-49.4	-62.3	3.5	1.52e+00	0	38	104	0	60	45932
2026-01-30 00:59:24.23	330.98	20.91	-49.4	-62.3	3.5	1.52e+00	0	38	104	0	60	45865
2026-01-30 00:59:25.24	331.05	20.78	-49.4	-62.3	3.5	1.52e+00	0	38	104	0	60	45749
2026-01-30 00:59:26.25	331.12	20.65	-49.4	-62.3	3.5	1.52e+00	0	38	104	0	60	45822
2026-01-30 00:59:27.26	331.20	20.52	-49.4	-62.4	3.5	1.52e+00	0	38	104	0	60	46007
2026-01-30 00:59:28.27	331.27	20.39	-49.4	-62.3	3.5	1.51e+00	0	38	104	0	60	45527
2026-01-30 00:59:29.28	331.34	20.27	-49.4	-62.3	3.5	1.52e+00	0	38	104	0	60	45799
2026-01-30 00:59:30.29	331.41	20.14	-49.4	-62.3	3.5	1.52e+00	0	38	104	0	60	45677
2026-01-30 00:59:31.30	331.48	20.01	-49.4	-62.3	3.5	1.52e+00	0	38	104	0	60	45620
2026-01-30 00:59:32.31	331.55	19.89	-49.4	-62.3	3.5	1.52e+00	0	38	104	0	60	45902
2026-01-30 00:59:33.32	331.62	19.76	-49.4	-62.3	3.5	1.52e+00	0	38	104	0	60	45978
2026-01-30 00:59:34.33	331.69	19.64	-49.4	-62.3	3.5	1.51e+00	0	38	104	0	60	45714
2026-01-30 00:59:35.34	331.76	19.51	-49.4	-62.3	3.5	1.52e+00	0	38	104	0	60	45688
2026-01-30 00:59:36.35	331.83	19.39	-49.4	-62.3	3.5	1.52e+00	0	38	104	0	60	45728
2026-01-30 00:59:37.36	331.90	19.27	-49.4	-62.3	3.5	1.52e+00	0	38	104	0	60	45917
2026-01-30 00:59:38.37	331.96	19.14	-49.4	-62.3	3.5	1.52e+00	0	38	104	0	60	45756
2026-01-30 00:59:39.38	332.03	19.02	-49.4	-62.3	3.5	1.51e+00	0	38	104	0	60	45623
2026-01-30 00:59:40.39	332.10	18.90	-49.4	-62.3	3.5	1.52e+00	0	38	104	0	60	45842
2026-01-30 00:59:41.40	332.16	18.78	-49.4	-62.3	3.5	1.52e+00	0	38	104	0	60	45902
2026-01-30 00:59:42.41	332.23	18.66	-49.4	-62.3	3.5	1.52e+00	0	38	104	0	60	45953
2026-01-30 00:59:43.42	332.29	18.54	-49.4	-62.3	3.5	1.52e+00	0	38	104	0	60	45722
2026-01-30 00:59:44.44	332.35	18.42	-49.4	-62.3	3.5	1.52e+00	0	38	104	0	60	45663
2026-01-30 00:59:45.45	332.42	18.30	-49.4	-62.3	3.5	1.51e+00	0	38	104	0	60	45851
2026-01-30 00:59:46.46	332.48	18.18	-49.4	-62.3	3.5	1.51e+00	0	38	104	0	60	45776
2026-01-30 00:59:47.47	332.54	18.07	-49.4	-62.3	3.5	1.52e+00	0	38	104	0	60	45591
2026-01-30 00:59:48.48	332.61	17.95	-49.4	-62.3	3.5	1.52e+00	0	38	104	0	60	45552
2026-01-30 00:59:49.49	332.67	17.83	-49.4	-62.3	3.5	1.52e+00	0	38	104	0	60	45483
2026-01-30 00:59:50.50	332.73	17.72	-49.4	-62.2	3.5	1.52e+00	0	38	104	0	60	45430
2026-01-30 00:59:51.51	332.79	17.60	-49.4	-62.3	3.5	1.52e+00	0	38	104	0	60	45840
2026-01-30 00:59:52.52	332.85	17.49	-49.4	-62.3	3.5	1.51e+00	0	38	104	0	60	45875
2026-01-30 00:59:53.53	332.91	17.37	-49.4	-62.3	3.5	1.52e+00	0	38	104	0	60	45930
2026-01-30 00:59:54.54	332.97	17.26	-49.4	-62.3	3.5	1.52e+00	0	38	104	0	60	45813
2026-01-30 00:59:55.55	333.03	17.14	-49.4	-62.3	3.5	1.52e+00	0	38	104	0	60	45635
2026-01-30 00:59:56.56	333.09	17.03	-49.4	-62.4	3.5	1.52e+00	0	38	104	0	60	46029
2026-01-30 00:59:57.57	333.15	16.92	-49.4	-62.3	3.5	1.52e+00	0	38	104	0	60	45704
2026-01-30 00:59:58.58	333.21	16.81	-49.4	-62.3	3.5	1.52e+00	0	38	104	0	60	45720
2026-01-30 00:59:59.59	333.26	16.70	-49.4	-62.3	3.5	1.52e+00	0	38	104	0	60	45586
2026-01-30 01:00:00.60	333.32	16.58	-49.4	-62.3	3.5	1.52e+00	0	38	104	0	60	45646
2026-01-30 01:00:01.61	333.38	16.47	-49.4	-62.3	3.5	1.52e+00	0	38	104	0	60	45629
2026-01-30 01:00:02.62	333.43	16.36	-49.4	-62.3	3.5	1.52e+00	0	38	104	0	60	45888
2026-01-30 01:00:03.63	333.49	16.25	-49.4	-62.3	3.5	1.51e+00	0	38	104	0	60	45768
2026-01-30 01:00:04.64	333.55	16.15	-49.4	-62.3	3.5	1.52e+00	0	38	104	0	60	45703
2026-01-30 01:00:05.65	333.60	16.04	-49.4	-62.3	3.5	1.52e+00	0	38	104	0	60	45734
2026-01-30 01:00:06.66	333.66	15.93	-49.4	-62.3	3.5	1.52e+00	0	38	104	0	60	45968
2026-01-30 01:00:07.67	333.71	15.82	-49.4	-62.3	3.5	1.52e+00	0	38	104	0	60	45962
2026-01-30 01:00:08.68	333.76	15.71	-49.4	-62.3	3.5	1.52e+00	0	38	104	0	60	45839
2026-01-30 01:00:09.69	333.82	15.61	-49.4	-62.2	3.5	1.52e+00	0	38	104	0	60	45413
2026-01-30 01:00:10.71	333.87	15.50	-49.4	-62.3	3.5	1.52e+00	0	38	104	0	60	45797
2026-01-30 01:00:11.71	333.93	15.40	-49.4	-62.3	3.5	1.51e+00	0	38	104	0	60	45926
2026-01-30 01:00:12.72	333.98	15.29	-49.4	-62.3	3.5	1.52e+00	0	38	104	0	60	45747
2026-01-30 01:00:13.74	334.03	15.18	-49.4	-62.3	3.5	1.52e+00	0	38	104	0	60	45595
2026-01-30 01:00:14.75	334.08	15.08	-49.4	-62.3	3.5	1.52e+00	0	38	104	0	60	45714
2026-01-30 01:00:15.76	334.14	14.98	-49.4	-62.3	3.5	1.52e+00	0	38	104	0	60	45859
2026-01-30 01:00:16.76	334.19	14.87	-49.4	-62.4	3.5	1.52e+00	0	38	104	0	60	46129
2026-01-30 01:00:17.77	334.24	14.77	-49.4	-62.3	3.5	1.52e+00	0	38	104	0	60	45687
2026-01-30 01:00:18.78	334.29	14.67	-49.4	-62.3	3.5	1.52e+00	0	38	104	0	60	45827
2026-01-30 01:00:19.79	334.34	14.56	-49.4	-62.3	3.5	1.52e+00	0	38	104	0	60	45719
2026-01-30 01:00:20.80	334.39	14.46	-49.4	-62.3	3.5	1.52e+00	0	38	104	0	60	45949
2026-01-30 01:00:21.81	334.44	14.36	-49.4	-62.3	3.5	1.52e+00	0	38	104	0	60	45556
2026-01-30 01:00:22.82	334.49	14.26	-49.4	-62.3	3.5	1.51e+00	0	38	104	0	60	45813
2026-01-30 01:00:23.83	334.54	14.16	-49.4	-62.3	3.5	1.52e+00	0	38	104	0	60	45755
2026-01-30 01:00:24.84	334.59	14.06	-49.4	-62.3	3.5	1.52e+00	0	38	104	0	60	45653
2026-01-30 01:00:25.85	334.64	13.96	-49.4	-62.3	3.5	1.52e+00	0	38	104	0	60	45760
2026-01-30 01:00:26.86	334.68	13.86	-49.4	-62.3	3.5	1.52e+00	0	38	104	0	60	45628
2026-01-30 01:00:27.87	334.73	13.76	-49.4	-62.3	3.5	1.52e+00	0	38	104	0	60	45737
2026-01-30 01:00:28.88	334.78	13.66	-49.4	-62.3	3.5	1.52e+00	0	38	104	0	60	45590
