passes_logs/2026/01/30/R4.6S_Anadyr/R4.6S_Anadyr__20260130_013900_NOAA_20_JPSS-1_rec.log

#Pass ID: 20260130_013900_NOAA 20 (JPSS-1)
#Satellite: NOAA 20 (JPSS-1)
#Configuration: NOAA 20
#almurnet v.1.7.20251203
#Start time: 2026-01-30 01:39:01

#Version: 2.2.20231116
#Station: R4.6S_Anadyr
#Location: 177.4865 lon 64.73178 lat
#TLE: 1 43013U 17073A   26029.42702672  .00000137  00000+0  85918-4 0  9993
#TLE: 2 43013  98.7646 330.2153 0000804  19.9045 340.2162 14.19525092424781

#Time	Az	El	Level	Level2	SNR	BER	BlckErr	Temp	State	Recorded	gain1	gain2
2026-01-30 01:39:01.77	192.77	0.06	-49.4	-64.5	3.6	1.51e+00	0	35	0	0	60	60338
2026-01-30 01:39:02.77	192.82	0.12	-49.4	-64.6	3.6	1.51e+00	0	36	104	0	60	61381
2026-01-30 01:39:03.78	192.86	0.17	-49.4	-64.6	3.6	1.51e+00	0	36	104	0	60	61577
2026-01-30 01:39:04.79	192.91	0.23	-49.4	-64.7	3.6	1.51e+00	0	36	104	0	60	61993
2026-01-30 01:39:05.79	192.96	0.29	-49.4	-64.6	3.6	1.51e+00	0	36	104	0	60	61723
2026-01-30 01:39:06.81	193.00	0.35	-49.4	-64.6	3.6	1.51e+00	0	36	104	0	60	61530
2026-01-30 01:39:07.81	193.05	0.40	-49.4	-64.6	3.6	1.51e+00	0	36	104	0	60	61616
2026-01-30 01:39:08.82	193.10	0.46	-49.4	-64.7	3.6	1.51e+00	0	36	104	0	60	62062
2026-01-30 01:39:09.83	193.15	0.52	-49.4	-64.7	3.6	1.51e+00	0	36	104	0	60	61818
2026-01-30 01:39:10.84	193.19	0.57	-49.4	-64.7	3.6	1.51e+00	0	36	104	0	60	61757
2026-01-30 01:39:11.86	193.24	0.63	-49.4	-64.6	3.6	1.51e+00	0	36	104	0	60	61599
2026-01-30 01:39:12.87	193.29	0.69	-49.4	-64.6	3.6	1.51e+00	0	36	104	0	60	61650
2026-01-30 01:39:13.88	193.34	0.75	-49.4	-64.7	3.6	1.51e+00	0	36	104	0	60	61872
2026-01-30 01:39:14.89	193.39	0.81	-49.4	-64.7	3.6	1.51e+00	0	36	104	0	60	61993
2026-01-30 01:39:15.90	193.44	0.86	-49.4	-64.7	3.6	1.51e+00	0	36	104	0	60	62119
2026-01-30 01:39:16.91	193.49	0.92	-49.4	-64.6	3.6	1.51e+00	0	36	104	0	60	61618
2026-01-30 01:39:17.92	193.53	0.98	-49.4	-64.6	3.6	1.51e+00	0	36	104	0	60	61615
2026-01-30 01:39:18.93	193.58	1.04	-49.4	-64.6	3.6	1.51e+00	0	36	104	0	60	61714
2026-01-30 01:39:19.94	193.63	1.10	-49.4	-64.6	3.6	1.51e+00	0	36	104	0	60	61574
2026-01-30 01:39:20.95	193.68	1.16	-49.4	-64.7	3.6	1.51e+00	0	36	104	0	60	61922
2026-01-30 01:39:21.96	193.73	1.21	-49.4	-64.6	3.6	1.51e+00	0	36	104	0	60	61634
2026-01-30 01:39:22.97	193.78	1.27	-49.4	-64.6	3.6	1.51e+00	0	36	104	0	60	61700
2026-01-30 01:39:23.98	193.83	1.33	-49.4	-64.6	3.6	1.51e+00	0	37	104	0	60	61629
2026-01-30 01:39:24.99	193.88	1.39	-49.4	-64.6	3.6	1.51e+00	0	37	104	0	60	61506
2026-01-30 01:39:26.00	193.93	1.45	-49.4	-64.6	3.6	1.51e+00	0	37	104	0	60	61672
2026-01-30 01:39:27.01	193.99	1.51	-49.4	-64.6	3.6	1.51e+00	0	37	104	0	60	61524
2026-01-30 01:39:28.02	194.04	1.57	-49.4	-64.7	3.6	1.51e+00	0	36	104	0	60	61759
2026-01-30 01:39:29.03	194.09	1.63	-49.4	-64.6	3.6	1.51e+00	0	37	104	0	60	61299
2026-01-30 01:39:30.04	194.14	1.69	-49.4	-64.6	3.6	1.51e+00	0	37	104	0	60	61653
2026-01-30 01:39:31.05	194.19	1.75	-49.4	-64.7	3.6	1.51e+00	0	37	104	0	60	61866
2026-01-30 01:39:32.06	194.24	1.81	-49.4	-64.6	3.6	1.51e+00	0	37	104	0	60	61718
2026-01-30 01:39:33.07	194.29	1.87	-49.4	-64.6	3.6	1.51e+00	0	37	104	0	60	61538
2026-01-30 01:39:34.08	194.35	1.93	-49.4	-64.7	3.6	1.51e+00	0	37	104	0	60	61881
2026-01-30 01:39:35.09	194.40	1.99	-49.4	-64.7	3.6	1.51e+00	0	37	104	0	60	61958
2026-01-30 01:39:36.10	194.45	2.05	-49.4	-64.7	3.6	1.51e+00	0	37	104	0	60	61905
2026-01-30 01:39:37.11	194.50	2.11	-49.4	-64.7	3.6	1.51e+00	0	37	104	0	60	61960
2026-01-30 01:39:38.12	194.56	2.17	-49.4	-64.7	3.6	1.51e+00	0	37	104	0	60	61844
2026-01-30 01:39:39.13	194.61	2.23	-49.4	-64.6	3.6	1.51e+00	0	37	104	0	60	61555
2026-01-30 01:39:40.14	194.66	2.29	-49.4	-64.6	3.6	1.51e+00	0	37	104	0	60	61679
2026-01-30 01:39:41.15	194.72	2.35	-49.4	-64.7	3.6	1.51e+00	0	37	104	0	60	61943
2026-01-30 01:39:42.16	194.77	2.41	-49.4	-64.7	3.6	1.51e+00	0	37	104	0	60	61934
2026-01-30 01:39:43.17	194.82	2.47	-49.4	-64.6	3.6	1.51e+00	0	37	104	0	60	61677
2026-01-30 01:39:44.18	194.88	2.53	-49.4	-64.7	3.6	1.51e+00	0	37	104	0	60	61989
2026-01-30 01:39:45.19	194.93	2.59	-49.4	-64.6	3.6	1.51e+00	0	37	104	0	60	61291
2026-01-30 01:39:46.20	194.99	2.66	-49.4	-64.6	3.6	1.51e+00	0	37	104	0	60	61540
2026-01-30 01:39:47.21	195.04	2.72	-49.4	-64.6	3.6	1.51e+00	0	37	104	0	60	61699
2026-01-30 01:39:48.22	195.10	2.78	-49.4	-64.7	3.6	1.51e+00	0	37	104	0	60	61793
2026-01-30 01:39:49.23	195.15	2.84	-49.4	-64.6	3.6	1.51e+00	0	37	104	0	60	61613
2026-01-30 01:39:50.24	195.21	2.90	-49.4	-64.7	3.6	1.51e+00	0	37	104	0	60	61758
2026-01-30 01:39:51.25	195.26	2.96	-49.4	-64.7	3.6	1.51e+00	0	37	104	0	60	61741
2026-01-30 01:39:52.26	195.32	3.03	-49.4	-64.7	3.6	1.51e+00	0	37	104	0	60	61906
2026-01-30 01:39:53.27	195.38	3.09	-49.4	-64.7	3.6	1.51e+00	0	37	104	0	60	61829
2026-01-30 01:39:54.28	195.43	3.15	-49.4	-64.7	3.6	1.51e+00	0	37	104	0	60	61757
2026-01-30 01:39:55.29	195.49	3.21	-49.4	-64.6	3.6	1.51e+00	0	37	104	0	60	61726
2026-01-30 01:39:56.30	195.55	3.27	-49.4	-64.6	3.6	1.51e+00	0	37	104	0	60	61715
2026-01-30 01:39:57.31	195.60	3.34	-49.4	-64.6	3.6	1.51e+00	0	37	104	0	60	61681
2026-01-30 01:39:58.32	195.66	3.40	-49.4	-64.7	3.6	1.51e+00	0	37	104	0	60	62045
2026-01-30 01:39:59.33	195.72	3.46	-49.4	-64.6	3.6	1.51e+00	0	37	104	0	60	61563
2026-01-30 01:40:00.34	195.78	3.53	-49.4	-64.7	3.6	1.51e+00	0	37	104	0	60	61831
2026-01-30 01:40:01.35	195.83	3.59	-49.4	-64.7	3.6	1.51e+00	0	37	104	0	60	61877
2026-01-30 01:40:02.36	195.89	3.65	-49.4	-64.6	3.6	1.51e+00	0	37	104	0	60	61737
2026-01-30 01:40:03.37	195.95	3.71	-49.4	-64.7	3.6	1.51e+00	0	37	104	0	60	61881
2026-01-30 01:40:04.38	196.01	3.78	-49.4	-64.6	3.6	1.51e+00	0	37	104	0	60	61680
2026-01-30 01:40:05.39	196.07	3.84	-49.4	-64.7	3.5	1.51e+00	0	37	104	0	60	61836
2026-01-30 01:40:06.40	196.13	3.91	-49.4	-64.7	3.6	1.51e+00	0	37	104	0	60	61784
2026-01-30 01:40:07.41	196.19	3.97	-49.4	-64.7	3.6	1.51e+00	0	37	104	0	60	61867
2026-01-30 01:40:08.42	196.25	4.03	-49.4	-64.6	3.6	1.51e+00	0	37	104	0	60	61553
2026-01-30 01:40:09.44	196.31	4.10	-49.4	-64.7	3.6	1.51e+00	0	37	104	0	60	61868
2026-01-30 01:40:10.45	196.37	4.16	-49.4	-64.6	3.6	1.51e+00	0	37	104	0	60	61648
2026-01-30 01:40:11.46	196.43	4.23	-49.4	-64.7	3.6	1.51e+00	0	37	104	0	60	61972
2026-01-30 01:40:12.47	196.49	4.29	-49.4	-64.7	3.6	1.51e+00	0	37	104	0	60	61950
2026-01-30 01:40:13.48	196.55	4.36	-49.4	-64.7	3.6	1.51e+00	0	37	104	0	60	61805
2026-01-30 01:40:14.49	196.61	4.42	-49.4	-64.6	3.6	1.51e+00	0	37	104	0	60	61631
2026-01-30 01:40:15.50	196.67	4.49	-49.4	-64.6	3.6	1.51e+00	0	37	104	0	60	61629
2026-01-30 01:40:16.51	196.73	4.55	-49.4	-64.7	3.6	1.51e+00	0	37	104	0	60	61991
2026-01-30 01:40:17.52	196.79	4.62	-49.4	-64.7	3.6	1.51e+00	0	37	104	0	60	62026
2026-01-30 01:40:18.53	196.86	4.68	-49.4	-64.7	3.6	1.51e+00	0	37	104	0	60	61785
2026-01-30 01:40:19.54	196.92	4.75	-49.4	-64.6	3.6	1.51e+00	0	37	104	0	60	61614
2026-01-30 01:40:20.55	196.98	4.81	-49.4	-64.7	3.6	1.51e+00	0	37	104	0	60	62125
2026-01-30 01:40:21.56	197.04	4.88	-49.4	-64.7	3.6	1.51e+00	0	37	104	0	60	61814
2026-01-30 01:40:22.57	197.11	4.94	-49.4	-64.6	3.6	1.51e+00	0	37	104	0	60	61663
2026-01-30 01:40:23.58	197.17	5.01	-49.4	-64.7	3.6	1.51e+00	0	37	104	0	60	61967
2026-01-30 01:40:24.59	197.23	5.07	-49.4	-64.7	3.6	1.51e+00	0	37	104	0	60	61978
2026-01-30 01:40:25.60	197.30	5.14	-49.4	-64.7	3.6	1.51e+00	0	37	104	0	60	61875
2026-01-30 01:40:26.61	197.36	5.21	-49.4	-64.7	3.6	1.51e+00	0	37	104	0	60	61851
2026-01-30 01:40:27.62	197.43	5.27	-49.4	-64.6	3.6	1.51e+00	0	37	104	0	60	61732
2026-01-30 01:40:28.63	197.49	5.34	-49.4	-64.6	3.6	1.51e+00	0	37	104	0	60	61424
2026-01-30 01:40:29.64	197.56	5.41	-49.4	-64.7	3.6	1.51e+00	0	37	104	0	60	61953
2026-01-30 01:40:30.66	197.62	5.47	-49.4	-64.7	3.6	1.51e+00	0	37	104	0	60	61889
2026-01-30 01:40:31.66	197.69	5.54	-49.4	-64.7	3.6	1.51e+00	0	37	104	0	60	61804
2026-01-30 01:40:32.67	197.75	5.61	-49.4	-64.6	3.6	1.51e+00	0	37	104	0	60	61699
2026-01-30 01:40:33.68	197.82	5.68	-49.4	-64.7	3.6	1.51e+00	0	37	104	0	60	62132
2026-01-30 01:40:34.69	197.89	5.74	-49.4	-64.7	3.6	1.51e+00	0	37	104	0	60	61879
2026-01-30 01:40:35.70	197.95	5.81	-49.4	-64.6	3.6	1.51e+00	0	37	104	0	60	61705
2026-01-30 01:40:36.71	198.02	5.88	-49.4	-64.7	3.6	1.51e+00	0	37	104	0	60	61894
2026-01-30 01:40:37.72	198.09	5.95	-49.4	-64.6	3.6	1.51e+00	0	37	104	0	60	61608
2026-01-30 01:40:38.73	198.16	6.01	-49.4	-64.7	3.6	1.51e+00	0	37	104	0	60	61802
2026-01-30 01:40:39.74	198.22	6.08	-49.4	-64.7	3.6	1.51e+00	0	37	104	0	60	61990
2026-01-30 01:40:40.75	198.29	6.15	-49.4	-64.7	3.6	1.51e+00	0	37	104	0	60	62117
2026-01-30 01:40:41.77	198.36	6.22	-49.4	-64.6	3.6	1.51e+00	0	37	104	0	60	61739
2026-01-30 01:40:42.77	198.43	6.29	-49.4	-64.6	3.6	1.51e+00	0	37	104	0	60	61482
2026-01-30 01:40:43.78	198.50	6.36	-49.4	-64.7	3.6	1.51e+00	0	37	104	0	60	61966
2026-01-30 01:40:44.79	198.57	6.42	-49.4	-64.6	3.6	1.51e+00	0	37	104	0	60	61710
2026-01-30 01:40:45.80	198.64	6.49	-49.4	-64.7	3.6	1.51e+00	0	37	104	0	60	61822
2026-01-30 01:40:46.81	198.71	6.56	-49.4	-64.6	3.6	1.51e+00	0	37	104	0	60	61717
2026-01-30 01:40:47.82	198.78	6.63	-49.4	-64.6	3.6	1.51e+00	0	37	104	0	60	61557
2026-01-30 01:40:48.83	198.85	6.70	-49.4	-64.7	3.6	1.51e+00	0	37	104	0	60	61807
2026-01-30 01:40:49.84	198.92	6.77	-49.4	-64.6	3.6	1.51e+00	0	37	104	0	60	61690
2026-01-30 01:40:50.85	198.99	6.84	-49.4	-64.7	3.6	1.51e+00	0	37	104	0	60	61990
2026-01-30 01:40:51.86	199.07	6.91	-49.4	-64.6	3.6	1.51e+00	0	37	104	0	60	61664
2026-01-30 01:40:52.87	199.14	6.98	-49.4	-64.6	3.6	1.51e+00	0	37	104	0	60	61663
2026-01-30 01:40:53.88	199.21	7.05	-49.4	-64.7	3.6	1.51e+00	0	37	104	0	60	61954
2026-01-30 01:40:54.89	199.28	7.12	-49.4	-64.7	3.6	1.51e+00	0	37	104	0	60	61961
2026-01-30 01:40:55.90	199.36	7.19	-49.4	-64.7	3.6	1.51e+00	0	37	104	0	60	61783
2026-01-30 01:40:56.91	199.43	7.26	-49.4	-64.7	3.6	1.51e+00	0	37	104	0	60	61759
2026-01-30 01:40:57.92	199.50	7.33	-49.4	-64.6	3.6	1.51e+00	0	37	104	0	60	61712
2026-01-30 01:40:58.94	199.58	7.41	-49.4	-64.7	3.6	1.51e+00	0	37	104	0	60	62033
2026-01-30 01:40:59.94	199.65	7.48	-49.4	-64.7	3.6	1.51e+00	0	37	104	0	60	61950
2026-01-30 01:41:00.95	199.73	7.55	-49.4	-64.6	3.6	1.51e+00	0	37	104	0	60	61579
2026-01-30 01:41:01.97	199.80	7.62	-49.4	-64.6	3.6	1.51e+00	0	37	104	0	60	61527
2026-01-30 01:41:02.98	199.88	7.69	-49.4	-64.7	3.6	1.51e+00	0	37	104	0	60	61802
2026-01-30 01:41:03.99	199.95	7.76	-49.4	-64.6	3.6	1.51e+00	0	37	104	0	60	61657
2026-01-30 01:41:05.00	200.03	7.84	-49.4	-64.7	3.6	1.51e+00	0	37	104	0	60	61834
2026-01-30 01:41:06.01	200.11	7.91	-49.4	-64.6	3.6	1.51e+00	0	37	104	0	60	61632
2026-01-30 01:41:07.02	200.18	7.98	-49.4	-64.6	3.6	1.51e+00	0	37	104	0	60	61615
2026-01-30 01:41:08.02	200.26	8.05	-49.4	-64.7	3.5	1.51e+00	0	37	104	0	60	61777
2026-01-30 01:41:09.03	200.34	8.13	-49.4	-64.6	3.6	1.51e+00	0	37	104	0	60	61721
2026-01-30 01:41:10.04	200.42	8.20	-49.4	-64.7	3.6	1.51e+00	0	37	104	0	60	61863
2026-01-30 01:41:11.05	200.49	8.27	-49.4	-64.7	3.6	1.51e+00	0	38	104	0	60	61844
2026-01-30 01:41:12.06	200.57	8.34	-49.4	-64.7	3.6	1.51e+00	0	37	104	0	60	61758
2026-01-30 01:41:13.07	200.65	8.42	-49.4	-64.6	3.6	1.51e+00	0	37	104	0	60	61731
2026-01-30 01:41:14.08	200.73	8.49	-49.4	-64.7	3.6	1.51e+00	0	37	104	0	60	61852
2026-01-30 01:41:15.09	200.81	8.56	-49.4	-64.7	3.6	1.51e+00	0	37	104	0	60	62014
2026-01-30 01:41:16.10	200.89	8.64	-49.4	-64.7	3.6	1.51e+00	0	37	104	0	60	61741
2026-01-30 01:41:17.11	200.97	8.71	-49.4	-64.7	3.6	1.51e+00	0	37	104	0	60	61827
2026-01-30 01:41:18.12	201.05	8.79	-49.4	-64.6	3.6	1.51e+00	0	37	104	0	60	61692
2026-01-30 01:41:19.13	201.14	8.86	-49.4	-64.6	3.6	1.51e+00	0	37	104	0	60	61737
2026-01-30 01:41:20.14	201.22	8.94	-49.4	-64.6	3.6	1.51e+00	0	37	104	0	60	61542
2026-01-30 01:41:21.15	201.30	9.01	-49.4	-64.7	3.6	1.51e+00	0	37	104	0	60	61841
2026-01-30 01:41:22.16	201.38	9.09	-49.4	-64.7	3.6	1.51e+00	0	37	104	0	60	61826
2026-01-30 01:41:23.17	201.47	9.16	-49.4	-64.7	3.6	1.51e+00	0	37	104	0	60	61886
2026-01-30 01:41:24.18	201.55	9.24	-49.4	-64.7	3.6	1.51e+00	0	37	104	0	60	61760
2026-01-30 01:41:25.19	201.63	9.31	-49.4	-64.7	3.6	1.51e+00	0	37	104	0	60	61828
2026-01-30 01:41:26.20	201.72	9.39	-49.4	-64.7	3.6	1.51e+00	0	37	104	0	60	62073
2026-01-30 01:41:27.22	201.80	9.46	-49.4	-64.6	3.6	1.51e+00	0	37	104	0	60	61681
2026-01-30 01:41:28.23	201.89	9.54	-49.4	-64.6	3.6	1.51e+00	0	37	104	0	60	61644
2026-01-30 01:41:29.24	201.97	9.62	-49.4	-64.7	3.6	1.51e+00	0	38	104	0	60	61874
2026-01-30 01:41:30.25	202.06	9.69	-49.4	-64.7	3.6	1.51e+00	0	37	104	0	60	61831
2026-01-30 01:41:31.26	202.15	9.77	-49.4	-64.6	3.6	1.51e+00	0	37	104	0	60	61654
2026-01-30 01:41:32.27	202.23	9.85	-49.4	-64.7	3.6	1.51e+00	0	37	104	0	60	61835
2026-01-30 01:41:33.28	202.32	9.92	-49.4	-64.7	3.6	1.51e+00	0	37	104	0	60	61875
2026-01-30 01:41:34.29	202.41	10.00	-49.4	-64.7	3.6	1.51e+00	0	37	104	0	60	62119
2026-01-30 01:41:35.30	202.50	10.08	-49.4	-64.6	3.6	1.51e+00	0	37	104	0	60	61635
2026-01-30 01:41:36.31	202.59	10.15	-49.4	-64.6	3.6	1.51e+00	0	37	104	0	60	61586
2026-01-30 01:41:37.32	202.67	10.23	-49.4	-64.7	3.6	1.51e+00	0	37	104	0	60	61844
2026-01-30 01:41:38.33	202.76	10.31	-49.4	-64.6	3.6	1.51e+00	0	37	104	0	60	61621
2026-01-30 01:41:39.34	202.85	10.39	-49.4	-64.7	3.6	1.51e+00	0	37	104	0	60	61916
2026-01-30 01:41:40.35	202.95	10.47	-49.4	-64.7	3.6	1.51e+00	0	37	104	0	60	61742
2026-01-30 01:41:41.36	203.04	10.54	-49.4	-64.6	3.6	1.51e+00	0	37	104	0	60	61602
2026-01-30 01:41:42.37	203.13	10.62	-49.4	-64.7	3.6	1.51e+00	0	37	104	0	60	61744
2026-01-30 01:41:43.38	203.22	10.70	-49.4	-64.7	3.6	1.51e+00	0	38	104	0	60	61935
2026-01-30 01:41:44.39	203.31	10.78	-49.4	-64.7	3.6	1.51e+00	0	37	104	0	60	62009
2026-01-30 01:41:45.40	203.40	10.86	-49.4	-64.7	3.6	1.51e+00	0	38	104	0	60	62021
2026-01-30 01:41:46.41	203.50	10.94	-49.4	-64.6	3.6	1.51e+00	0	38	104	0	60	61708
2026-01-30 01:41:47.42	203.59	11.02	-49.4	-64.7	3.6	1.51e+00	0	38	104	0	60	61945
2026-01-30 01:41:48.43	203.69	11.10	-49.4	-64.7	3.6	1.51e+00	0	38	104	0	60	61821
2026-01-30 01:41:49.44	203.78	11.18	-49.4	-64.7	3.6	1.51e+00	0	38	104	0	60	61793
2026-01-30 01:41:50.45	203.88	11.26	-49.4	-64.7	3.6	1.51e+00	0	38	104	0	60	61751
2026-01-30 01:41:51.46	203.97	11.34	-49.4	-64.7	3.6	1.51e+00	0	38	104	0	60	61941
2026-01-30 01:41:52.47	204.07	11.42	-49.4	-64.7	3.6	1.51e+00	0	38	104	0	60	61976
2026-01-30 01:41:53.48	204.16	11.50	-49.4	-64.7	3.6	1.51e+00	0	38	104	0	60	61808
2026-01-30 01:41:54.49	204.26	11.58	-49.4	-64.6	3.6	1.51e+00	0	38	104	0	60	61702
2026-01-30 01:41:55.50	204.36	11.66	-49.4	-64.7	3.6	1.51e+00	0	37	104	0	60	61849
2026-01-30 01:41:56.51	204.46	11.74	-49.4	-64.7	3.6	1.51e+00	0	38	104	0	60	61790
2026-01-30 01:41:57.52	204.56	11.82	-49.4	-64.7	3.6	1.51e+00	0	37	104	0	60	61775
2026-01-30 01:41:58.53	204.66	11.91	-49.4	-64.6	3.6	1.51e+00	0	38	104	0	60	61703
2026-01-30 01:41:59.54	204.76	11.99	-49.4	-64.7	3.6	1.51e+00	0	37	104	0	60	61781
2026-01-30 01:42:00.55	204.86	12.07	-49.4	-64.6	3.6	1.51e+00	0	37	104	0	60	61472
2026-01-30 01:42:01.56	204.96	12.15	-49.4	-64.7	3.6	1.51e+00	0	38	104	0	60	61943
2026-01-30 01:42:02.57	205.06	12.23	-49.4	-64.7	3.6	1.51e+00	0	38	104	0	60	61759
2026-01-30 01:42:03.58	205.16	12.32	-49.4	-64.7	3.6	1.51e+00	0	37	104	0	60	61882
2026-01-30 01:42:04.59	205.26	12.40	-49.4	-64.7	3.6	1.51e+00	0	38	104	0	60	61971
2026-01-30 01:42:05.60	205.37	12.48	-49.4	-64.7	3.6	1.51e+00	0	38	104	0	60	61929
2026-01-30 01:42:06.61	205.47	12.57	-49.4	-64.7	3.6	1.51e+00	0	38	104	0	60	62050
2026-01-30 01:42:07.62	205.58	12.65	-49.4	-64.7	3.6	1.51e+00	0	38	104	0	60	62010
2026-01-30 01:42:08.64	205.68	12.73	-49.4	-64.7	3.6	1.51e+00	0	38	104	0	60	61839
2026-01-30 01:42:09.65	205.79	12.82	-49.4	-64.6	3.6	1.51e+00	0	38	104	0	60	61641
2026-01-30 01:42:10.66	205.89	12.90	-49.4	-64.7	3.6	1.51e+00	0	38	104	0	60	61811
2026-01-30 01:42:11.67	206.00	12.99	-49.4	-64.7	3.6	1.51e+00	0	38	104	0	60	61804
2026-01-30 01:42:12.68	206.11	13.07	-49.4	-64.7	3.6	1.51e+00	0	38	104	0	60	61820
2026-01-30 01:42:13.69	206.21	13.15	-49.4	-64.7	3.6	1.51e+00	0	37	104	0	60	61953
2026-01-30 01:42:14.70	206.32	13.24	-49.4	-64.6	3.6	1.51e+00	0	37	104	0	60	61705
2026-01-30 01:42:15.71	206.43	13.32	-49.4	-64.6	3.6	1.51e+00	0	38	104	0	60	61374
2026-01-30 01:42:16.72	206.54	13.41	-49.4	-64.7	3.6	1.51e+00	0	38	104	0	60	62050
2026-01-30 01:42:17.73	206.65	13.50	-49.4	-64.6	3.6	1.51e+00	0	38	104	0	60	61528
2026-01-30 01:42:18.74	206.76	13.58	-49.4	-64.7	3.6	1.51e+00	0	38	104	0	60	61847
2026-01-30 01:42:19.75	206.87	13.67	-49.4	-64.6	3.6	1.51e+00	0	38	104	0	60	61656
2026-01-30 01:42:20.76	206.99	13.75	-49.4	-64.6	3.6	1.51e+00	0	38	104	0	60	61507
2026-01-30 01:42:21.77	207.10	13.84	-49.4	-64.7	3.6	1.51e+00	0	38	104	0	60	61865
2026-01-30 01:42:22.78	207.21	13.93	-49.4	-64.6	3.6	1.51e+00	0	38	104	0	60	61588
2026-01-30 01:42:23.79	207.33	14.01	-49.4	-64.7	3.6	1.51e+00	0	38	104	0	60	62044
2026-01-30 01:42:24.80	207.44	14.10	-49.4	-64.6	3.6	1.51e+00	0	38	104	0	60	61409
2026-01-30 01:42:25.81	207.56	14.19	-49.4	-64.7	3.6	1.51e+00	0	38	104	0	60	61778
2026-01-30 01:42:26.82	207.67	14.27	-49.4	-64.7	3.6	1.51e+00	0	38	104	0	60	61931
2026-01-30 01:42:27.83	207.79	14.36	-49.4	-64.7	3.6	1.51e+00	0	37	104	0	60	61809
2026-01-30 01:42:28.84	207.91	14.45	-49.4	-64.7	3.6	1.51e+00	0	37	104	0	60	61757
2026-01-30 01:42:29.85	208.02	14.54	-49.4	-64.6	3.6	1.51e+00	0	38	104	0	60	61706
2026-01-30 01:42:30.86	208.14	14.63	-49.4	-64.7	3.6	1.51e+00	0	38	104	0	60	61744
2026-01-30 01:42:31.87	208.26	14.71	-49.4	-64.7	3.6	1.51e+00	0	38	104	0	60	61915
2026-01-30 01:42:32.88	208.38	14.80	-49.4	-64.7	3.6	1.51e+00	0	38	104	0	60	61760
2026-01-30 01:42:33.89	208.50	14.89	-49.4	-64.6	3.6	1.51e+00	0	38	104	0	60	61493
2026-01-30 01:42:34.90	208.62	14.98	-49.4	-64.7	3.6	1.51e+00	0	38	104	0	60	61743
2026-01-30 01:42:35.91	208.75	15.07	-49.4	-64.7	3.6	1.51e+00	0	38	104	0	60	62028
2026-01-30 01:42:36.92	208.87	15.16	-49.4	-64.7	3.6	1.51e+00	0	38	104	0	60	61946
2026-01-30 01:42:37.93	208.99	15.25	-49.4	-64.6	3.6	1.51e+00	0	38	104	0	60	61610
2026-01-30 01:42:38.94	209.12	15.34	-49.4	-64.7	3.6	1.51e+00	0	38	104	0	60	61789
2026-01-30 01:42:39.95	209.24	15.43	-49.4	-64.7	3.6	1.51e+00	0	38	104	0	60	62019
2026-01-30 01:42:40.96	209.37	15.52	-49.4	-64.6	3.6	1.51e+00	0	38	104	0	60	61675
2026-01-30 01:42:41.97	209.49	15.61	-49.4	-64.7	3.5	1.51e+00	0	38	104	0	60	61748
2026-01-30 01:42:42.98	209.62	15.70	-49.4	-64.7	3.6	1.51e+00	0	38	104	0	60	61815
2026-01-30 01:42:44.00	209.75	15.79	-49.4	-64.7	3.6	1.51e+00	0	38	104	0	60	61834
2026-01-30 01:42:45.00	209.88	15.88	-49.4	-64.7	3.6	1.51e+00	0	38	104	0	60	61798
2026-01-30 01:42:46.02	210.01	15.97	-49.4	-64.6	3.6	1.51e+00	0	38	104	0	60	61688
2026-01-30 01:42:47.03	210.14	16.07	-49.4	-64.7	3.6	1.51e+00	0	37	104	0	60	61865
2026-01-30 01:42:48.03	210.27	16.16	-49.4	-64.7	3.6	1.51e+00	0	38	104	0	60	61813
2026-01-30 01:42:49.05	210.40	16.25	-49.4	-64.7	3.6	1.51e+00	0	38	104	0	60	62028
2026-01-30 01:42:50.06	210.53	16.34	-49.4	-64.7	3.5	1.51e+00	0	38	104	0	60	61837
2026-01-30 01:42:51.07	210.66	16.43	-49.4	-64.7	3.6	1.51e+00	0	38	104	0	60	61918
2026-01-30 01:42:52.08	210.80	16.53	-49.4	-64.7	3.5	1.51e+00	0	38	104	0	60	61970
2026-01-30 01:42:53.09	210.93	16.62	-49.4	-64.7	3.6	1.51e+00	0	38	104	0	60	61889
2026-01-30 01:42:54.10	211.07	16.71	-49.4	-64.6	3.6	1.51e+00	0	38	104	0	60	61664
2026-01-30 01:42:55.11	211.21	16.80	-49.4	-64.7	3.6	1.51e+00	0	38	104	0	60	61964
2026-01-30 01:42:56.12	211.34	16.90	-49.4	-64.7	3.6	1.51e+00	0	38	104	0	60	61781
2026-01-30 01:42:57.13	211.48	16.99	-49.4	-64.7	3.6	1.51e+00	0	38	104	0	60	61889
2026-01-30 01:42:58.14	211.62	17.09	-49.4	-64.7	3.6	1.51e+00	0	38	104	0	60	61818
2026-01-30 01:42:59.15	211.76	17.18	-49.4	-64.6	3.5	1.51e+00	0	38	104	0	60	61734
2026-01-30 01:43:00.16	211.90	17.27	-49.4	-64.6	3.6	1.51e+00	0	38	104	0	60	61667
2026-01-30 01:43:01.16	212.04	17.37	-49.4	-64.7	3.6	1.51e+00	0	38	104	0	60	61919
2026-01-30 01:43:02.17	212.18	17.46	-49.4	-64.7	3.6	1.51e+00	0	38	104	0	60	61818
2026-01-30 01:43:03.18	212.33	17.56	-49.4	-64.7	3.6	1.51e+00	0	38	104	0	60	61988
2026-01-30 01:43:04.19	212.47	17.65	-49.4	-64.7	3.6	1.51e+00	0	38	104	0	60	61752
2026-01-30 01:43:05.20	212.61	17.75	-49.4	-64.7	3.6	1.51e+00	0	38	104	0	60	61932
2026-01-30 01:43:06.21	212.76	17.84	-49.4	-64.6	3.6	1.51e+00	0	38	104	0	60	61596
2026-01-30 01:43:07.22	212.91	17.94	-49.4	-64.7	3.6	1.51e+00	0	38	104	0	60	61985
2026-01-30 01:43:08.23	213.05	18.03	-49.4	-64.7	3.6	1.51e+00	0	38	104	0	60	61900
2026-01-30 01:43:09.24	213.20	18.13	-49.4	-64.7	3.6	1.51e+00	0	38	104	0	60	61821
2026-01-30 01:43:10.25	213.35	18.22	-49.4	-64.7	3.6	1.51e+00	0	38	104	0	60	62145
2026-01-30 01:43:11.26	213.50	18.32	-49.4	-64.7	3.6	1.51e+00	0	38	104	0	60	61744
2026-01-30 01:43:12.27	213.65	18.42	-49.4	-64.7	3.6	1.51e+00	0	38	104	0	60	61795
2026-01-30 01:43:13.28	213.81	18.51	-49.4	-64.7	3.6	1.51e+00	0	38	104	0	60	61840
2026-01-30 01:43:14.29	213.96	18.61	-49.4	-64.6	3.6	1.51e+00	0	38	104	0	60	61498
2026-01-30 01:43:15.30	214.11	18.71	-49.4	-64.7	3.6	1.51e+00	0	38	104	0	60	61926
2026-01-30 01:43:16.31	214.27	18.81	-49.4	-64.6	3.6	1.51e+00	0	38	104	0	60	61560
2026-01-30 01:43:17.32	214.42	18.90	-49.4	-64.7	3.6	1.51e+00	0	38	104	0	60	61754
2026-01-30 01:43:18.33	214.58	19.00	-49.4	-64.6	3.6	1.51e+00	0	38	104	0	60	61653
2026-01-30 01:43:19.34	214.74	19.10	-49.4	-64.6	3.6	1.51e+00	0	37	104	0	60	61588
2026-01-30 01:43:20.35	214.90	19.20	-49.4	-64.7	3.6	1.51e+00	0	38	104	0	60	61910
2026-01-30 01:43:21.37	215.06	19.30	-49.4	-64.7	3.6	1.51e+00	0	38	104	0	60	61860
2026-01-30 01:43:22.38	215.22	19.39	-49.4	-64.7	3.6	1.51e+00	0	38	104	0	60	61784
2026-01-30 01:43:23.39	215.38	19.49	-49.4	-64.7	3.6	1.51e+00	0	38	104	0	60	62037
2026-01-30 01:43:24.40	215.54	19.59	-49.4	-64.7	3.6	1.51e+00	0	38	104	0	60	61990
2026-01-30 01:43:25.41	215.71	19.69	-49.4	-64.7	3.6	1.51e+00	0	38	104	0	60	61999
2026-01-30 01:43:26.42	215.87	19.79	-49.4	-64.7	3.6	1.51e+00	0	38	104	0	60	62085
2026-01-30 01:43:27.43	216.04	19.89	-49.4	-64.7	3.6	1.51e+00	0	38	104	0	60	61850
2026-01-30 01:43:28.44	216.21	19.99	-49.4	-64.6	3.6	1.51e+00	0	38	104	0	60	61708
2026-01-30 01:43:29.45	216.37	20.09	-49.4	-64.6	3.6	1.51e+00	0	38	104	0	60	61712
2026-01-30 01:43:30.46	216.54	20.19	-49.4	-64.7	3.5	1.51e+00	0	38	104	0	60	61840
2026-01-30 01:43:31.47	216.71	20.29	-49.4	-64.7	3.6	1.51e+00	0	38	104	0	60	61762
2026-01-30 01:43:32.48	216.88	20.39	-49.4	-64.7	3.6	1.51e+00	0	38	104	0	60	61980
2026-01-30 01:43:33.49	217.06	20.49	-49.4	-64.6	3.6	1.51e+00	0	38	104	0	60	61648
2026-01-30 01:43:34.50	217.23	20.59	-49.4	-64.7	3.6	1.51e+00	0	38	104	0	60	61934
2026-01-30 01:43:35.51	217.41	20.69	-49.4	-64.7	3.6	1.51e+00	0	38	104	0	60	61793
2026-01-30 01:43:36.52	217.58	20.79	-49.4	-64.7	3.6	1.51e+00	0	38	104	0	60	61809
2026-01-30 01:43:37.53	217.76	20.89	-49.4	-64.6	3.6	1.51e+00	0	38	104	0	60	61715
2026-01-30 01:43:38.54	217.94	20.99	-49.4	-64.7	3.6	1.51e+00	0	38	104	0	60	61947
2026-01-30 01:43:39.55	218.11	21.09	-49.4	-64.7	3.6	1.51e+00	0	38	104	0	60	61775
2026-01-30 01:43:40.56	218.30	21.19	-49.4	-64.6	3.6	1.51e+00	0	38	104	0	60	61720
2026-01-30 01:43:41.57	218.48	21.29	-49.4	-64.7	3.6	1.51e+00	0	38	104	0	60	61983
2026-01-30 01:43:42.58	218.66	21.39	-49.4	-64.7	3.6	1.51e+00	0	38	104	0	60	62104
2026-01-30 01:43:43.59	218.84	21.49	-49.4	-64.7	3.6	1.51e+00	0	38	104	0	60	61814
2026-01-30 01:43:44.60	219.03	21.59	-49.4	-64.7	3.6	1.51e+00	0	38	104	0	60	62027
2026-01-30 01:43:45.61	219.21	21.70	-49.4	-64.7	3.6	1.51e+00	0	38	104	0	60	62028
2026-01-30 01:43:46.62	219.40	21.80	-49.4	-64.7	3.6	1.51e+00	0	38	104	0	60	61965
2026-01-30 01:43:47.63	219.59	21.90	-49.4	-64.6	3.6	1.51e+00	0	38	104	0	60	61641
2026-01-30 01:43:48.65	219.78	22.00	-49.4	-64.7	3.6	1.51e+00	0	38	104	0	60	62008
2026-01-30 01:43:49.66	219.97	22.10	-49.4	-64.7	3.6	1.51e+00	0	38	104	0	60	62158
2026-01-30 01:43:50.67	220.16	22.21	-49.4	-64.6	3.6	1.51e+00	0	38	104	0	60	61614
2026-01-30 01:43:51.68	220.36	22.31	-49.4	-64.7	3.6	1.51e+00	0	38	104	0	60	61806
2026-01-30 01:43:52.69	220.55	22.41	-49.4	-64.7	3.6	1.51e+00	0	38	104	0	60	61940
2026-01-30 01:43:53.69	220.74	22.51	-49.4	-64.7	3.6	1.51e+00	0	38	104	0	60	62000
2026-01-30 01:43:54.70	220.94	22.61	-49.4	-64.7	3.6	1.51e+00	0	38	104	0	60	61839
2026-01-30 01:43:55.71	221.14	22.72	-49.4	-64.7	3.6	1.51e+00	0	38	104	0	60	61929
2026-01-30 01:43:56.73	221.34	22.82	-49.4	-64.6	3.6	1.51e+00	0	38	104	0	60	61378
2026-01-30 01:43:57.74	221.54	22.92	-49.4	-64.7	3.6	1.51e+00	0	38	104	0	60	62078
2026-01-30 01:43:58.75	221.74	23.02	-49.4	-64.7	3.6	1.51e+00	0	38	104	0	60	62126
2026-01-30 01:43:59.76	221.95	23.13	-49.4	-64.7	3.6	1.51e+00	0	38	104	0	60	61756
2026-01-30 01:44:00.77	222.15	23.23	-49.4	-64.6	3.6	1.51e+00	0	38	104	0	60	61626
2026-01-30 01:44:01.78	222.36	23.33	-49.4	-64.7	3.6	1.51e+00	0	38	104	0	60	61978
2026-01-30 01:44:02.79	222.57	23.44	-49.4	-64.6	3.6	1.51e+00	0	38	104	0	60	61696
2026-01-30 01:44:03.80	222.78	23.54	-49.4	-64.6	3.5	1.51e+00	0	38	104	0	60	61732
2026-01-30 01:44:04.81	222.99	23.64	-49.4	-64.7	3.6	1.51e+00	0	38	104	0	60	61859
2026-01-30 01:44:05.82	223.20	23.74	-49.4	-64.6	3.6	1.51e+00	0	38	104	0	60	61695
2026-01-30 01:44:06.83	223.41	23.85	-49.4	-64.6	3.6	1.51e+00	0	38	104	0	60	61421
2026-01-30 01:44:07.84	223.62	23.95	-49.4	-64.7	3.6	1.51e+00	0	38	104	0	60	62016
2026-01-30 01:44:08.85	223.84	24.05	-49.4	-64.6	3.6	1.51e+00	0	38	104	0	60	61526
2026-01-30 01:44:09.86	224.06	24.15	-49.4	-64.7	3.6	1.51e+00	0	38	104	0	60	61938
2026-01-30 01:44:10.87	224.27	24.26	-49.4	-64.7	3.6	1.51e+00	0	38	104	0	60	61893
2026-01-30 01:44:11.89	224.50	24.36	-49.4	-64.7	3.6	1.51e+00	0	38	104	0	60	61796
2026-01-30 01:44:12.89	224.71	24.46	-49.4	-64.7	3.6	1.51e+00	0	38	104	0	60	62065
2026-01-30 01:44:13.91	224.94	24.57	-49.4	-64.7	3.6	1.51e+00	0	38	104	0	60	61927
2026-01-30 01:44:14.92	225.16	24.67	-49.4	-64.7	3.6	1.51e+00	0	38	104	0	60	62062
2026-01-30 01:44:15.93	225.39	24.77	-49.4	-64.7	3.6	1.51e+00	0	38	104	0	60	62197
2026-01-30 01:44:16.94	225.62	24.87	-49.4	-64.7	3.6	1.51e+00	0	38	104	0	60	61897
2026-01-30 01:44:17.95	225.84	24.98	-49.4	-64.7	3.6	1.51e+00	0	38	104	0	60	61781
2026-01-30 01:44:18.96	226.07	25.08	-49.4	-64.7	3.6	1.51e+00	0	38	104	0	60	61978
2026-01-30 01:44:19.97	226.30	25.18	-49.4	-64.7	3.6	1.51e+00	0	38	104	0	60	61856
2026-01-30 01:44:20.98	226.54	25.28	-49.4	-64.7	3.6	1.51e+00	0	38	104	0	60	61778
2026-01-30 01:44:21.99	226.77	25.39	-49.4	-64.7	3.6	1.51e+00	0	38	104	0	60	62111
2026-01-30 01:44:23.00	227.01	25.49	-49.4	-64.7	3.6	1.51e+00	0	38	104	0	60	62120
2026-01-30 01:44:24.01	227.24	25.59	-49.4	-64.7	3.6	1.51e+00	0	38	104	0	60	61886
2026-01-30 01:44:25.02	227.48	25.69	-49.4	-64.6	3.6	1.51e+00	0	38	104	0	60	61739
2026-01-30 01:44:26.03	227.72	25.79	-49.4	-64.7	3.6	1.51e+00	0	38	104	0	60	62092
2026-01-30 01:44:27.04	227.96	25.89	-49.4	-64.7	3.6	1.51e+00	0	38	104	0	60	61958
2026-01-30 01:44:28.05	228.21	26.00	-49.4	-64.7	3.6	1.51e+00	0	38	104	0	60	61914
2026-01-30 01:44:29.06	228.45	26.10	-49.4	-64.7	3.6	1.51e+00	0	38	104	0	60	61978
2026-01-30 01:44:30.07	228.70	26.20	-49.4	-64.7	3.6	1.51e+00	0	38	104	0	60	61811
2026-01-30 01:44:31.08	228.94	26.30	-49.4	-64.7	3.6	1.51e+00	0	38	104	0	60	62183
2026-01-30 01:44:32.09	229.19	26.40	-49.4	-64.7	3.6	1.51e+00	0	38	104	0	60	61851
2026-01-30 01:44:33.10	229.44	26.50	-49.4	-64.7	3.6	1.51e+00	0	38	104	0	60	62062
2026-01-30 01:44:34.11	229.70	26.60	-49.4	-64.6	3.6	1.51e+00	0	38	104	0	60	61649
2026-01-30 01:44:35.12	229.95	26.70	-49.4	-64.6	3.6	1.51e+00	0	38	104	0	60	61658
2026-01-30 01:44:36.13	230.20	26.80	-49.4	-64.7	3.6	1.51e+00	0	38	104	0	60	61990
2026-01-30 01:44:37.14	230.46	26.90	-49.4	-64.7	3.6	1.51e+00	0	38	104	0	60	61878
2026-01-30 01:44:38.15	230.72	27.00	-49.4	-64.7	3.6	1.51e+00	0	38	104	0	60	62087
2026-01-30 01:44:39.16	230.98	27.10	-49.4	-64.7	3.6	1.51e+00	0	38	104	0	60	61908
2026-01-30 01:44:40.17	231.24	27.20	-49.4	-64.7	3.6	1.51e+00	0	38	104	0	60	61958
2026-01-30 01:44:41.18	231.50	27.29	-49.4	-64.7	3.6	1.51e+00	0	38	104	0	60	61970
2026-01-30 01:44:42.20	231.77	27.39	-49.4	-64.7	3.6	1.51e+00	0	38	104	0	60	62041
2026-01-30 01:44:43.21	232.04	27.49	-49.4	-64.6	3.6	1.51e+00	0	38	104	0	60	61432
2026-01-30 01:44:44.22	232.31	27.59	-49.4	-64.6	3.6	1.51e+00	0	38	104	0	60	61623
2026-01-30 01:44:45.22	232.57	27.69	-49.4	-64.7	3.6	1.51e+00	0	38	104	0	60	61925
2026-01-30 01:44:46.24	232.85	27.78	-49.4	-64.7	3.6	1.51e+00	0	38	104	0	60	61944
2026-01-30 01:44:47.24	233.12	27.88	-49.4	-64.6	3.6	1.51e+00	0	38	104	0	60	61685
2026-01-30 01:44:48.25	233.39	27.98	-49.4	-64.7	3.6	1.51e+00	0	38	104	0	60	61985
2026-01-30 01:44:49.26	233.67	28.07	-49.4	-64.7	3.6	1.51e+00	0	38	104	0	60	61931
2026-01-30 01:44:50.27	233.95	28.17	-49.4	-64.7	3.6	1.51e+00	0	38	104	0	60	61753
2026-01-30 01:44:51.29	234.23	28.26	-49.4	-64.7	3.6	1.51e+00	0	38	104	0	60	62055
2026-01-30 01:44:52.30	234.51	28.36	-49.4	-64.7	3.6	1.51e+00	0	38	104	0	60	61883
2026-01-30 01:44:53.31	234.79	28.45	-49.4	-64.7	3.6	1.51e+00	0	38	104	0	60	61795
2026-01-30 01:44:54.32	235.08	28.55	-49.4	-64.7	3.6	1.51e+00	0	38	104	0	60	61972
2026-01-30 01:44:55.33	235.36	28.64	-49.4	-64.7	3.6	1.51e+00	0	38	104	0	60	61983
2026-01-30 01:44:56.34	235.65	28.73	-49.4	-64.7	3.6	1.51e+00	0	38	104	0	60	61863
2026-01-30 01:44:57.34	235.93	28.82	-49.4	-64.6	3.6	1.51e+00	0	38	104	0	60	61641
2026-01-30 01:44:58.35	236.23	28.92	-49.4	-64.7	3.6	1.51e+00	0	38	104	0	60	61916
2026-01-30 01:44:59.36	236.52	29.01	-49.4	-64.7	3.6	1.51e+00	0	38	104	0	60	62015
2026-01-30 01:45:00.37	236.81	29.10	-49.4	-64.7	3.6	1.51e+00	0	38	104	0	60	62036
2026-01-30 01:45:01.38	237.11	29.19	-49.4	-64.7	3.6	1.51e+00	0	38	104	0	60	61819
2026-01-30 01:45:02.39	237.40	29.28	-49.4	-64.7	3.6	1.51e+00	0	38	104	0	60	61956
2026-01-30 01:45:03.40	237.70	29.37	-49.4	-64.7	3.6	1.51e+00	0	38	104	0	60	61916
2026-01-30 01:45:04.41	238.00	29.46	-49.4	-64.7	3.6	1.51e+00	0	38	104	0	60	62078
2026-01-30 01:45:05.42	238.31	29.55	-49.4	-64.7	3.6	1.51e+00	0	37	104	0	60	61992
2026-01-30 01:45:06.43	238.61	29.63	-49.4	-64.7	3.6	1.51e+00	0	38	104	0	60	62006
2026-01-30 01:45:07.44	238.91	29.72	-49.4	-64.7	3.6	1.51e+00	0	38	104	0	60	62133
2026-01-30 01:45:08.45	239.22	29.81	-49.4	-64.7	3.6	1.51e+00	0	38	104	0	60	61852
2026-01-30 01:45:09.46	239.53	29.89	-49.4	-64.6	3.6	1.51e+00	0	38	104	0	60	61424
2026-01-30 01:45:10.47	239.84	29.98	-49.4	-64.7	3.6	1.51e+00	0	38	104	0	60	61896
2026-01-30 01:45:11.48	240.15	30.06	-49.4	-64.7	3.6	1.51e+00	0	38	104	0	60	61953
2026-01-30 01:45:12.49	240.46	30.15	-49.4	-64.7	3.6	1.51e+00	0	38	104	0	60	61916
2026-01-30 01:45:13.50	240.78	30.23	-49.4	-64.7	3.6	1.51e+00	0	38	104	0	60	62188
2026-01-30 01:45:14.51	241.10	30.31	-49.4	-64.7	3.6	1.51e+00	0	38	104	0	60	62014
2026-01-30 01:45:15.52	241.41	30.40	-49.4	-64.7	3.6	1.51e+00	0	38	104	0	60	61787
2026-01-30 01:45:16.53	241.73	30.48	-49.4	-64.7	3.6	1.51e+00	0	38	104	0	60	61881
2026-01-30 01:45:17.55	242.06	30.56	-49.4	-64.7	3.5	1.51e+00	0	38	104	0	60	61980
2026-01-30 01:45:18.56	242.38	30.64	-49.4	-64.6	3.6	1.51e+00	0	38	104	0	60	61675
2026-01-30 01:45:19.56	242.70	30.72	-49.4	-64.6	3.6	1.51e+00	0	38	104	0	60	61708
2026-01-30 01:45:20.58	243.03	30.80	-49.4	-64.7	3.6	1.51e+00	0	38	104	0	60	61833
2026-01-30 01:45:21.59	243.36	30.87	-49.4	-64.7	3.6	1.51e+00	0	38	104	0	60	61883
2026-01-30 01:45:22.60	243.69	30.95	-49.4	-64.7	3.6	1.51e+00	0	38	104	0	60	61864
2026-01-30 01:45:23.61	244.02	31.03	-49.4	-64.7	3.6	1.51e+00	0	38	104	0	60	62321
2026-01-30 01:45:24.62	244.35	31.10	-49.4	-64.7	3.6	1.51e+00	0	38	104	0	60	62121
2026-01-30 01:45:25.62	244.68	31.17	-49.4	-64.7	3.6	1.51e+00	0	38	104	0	60	62258
2026-01-30 01:45:26.64	245.02	31.25	-49.4	-64.7	3.6	1.51e+00	0	38	104	0	60	61793
2026-01-30 01:45:27.65	245.35	31.32	-49.4	-64.7	3.6	1.51e+00	0	38	104	0	60	62029
2026-01-30 01:45:28.66	245.69	31.39	-49.4	-64.6	3.6	1.51e+00	0	38	104	0	60	61534
2026-01-30 01:45:29.67	246.03	31.46	-49.4	-64.6	3.6	1.51e+00	0	38	104	0	60	61577
2026-01-30 01:45:30.68	246.37	31.53	-49.4	-64.6	3.6	1.51e+00	0	38	104	0	60	61707
2026-01-30 01:45:31.69	246.71	31.60	-49.4	-64.7	3.6	1.51e+00	0	38	104	0	60	61839
2026-01-30 01:45:32.70	247.06	31.67	-49.4	-64.7	3.6	1.51e+00	0	38	104	0	60	61900
2026-01-30 01:45:33.71	247.40	31.73	-49.4	-64.7	3.6	1.51e+00	0	38	104	0	60	62172
2026-01-30 01:45:34.72	247.75	31.80	-49.4	-64.7	3.6	1.51e+00	0	38	104	0	60	61838
2026-01-30 01:45:35.73	248.10	31.86	-49.4	-64.7	3.6	1.51e+00	0	38	104	0	60	62023
2026-01-30 01:45:36.74	248.45	31.93	-49.4	-64.7	3.6	1.51e+00	0	38	104	0	60	61960
2026-01-30 01:45:37.75	248.80	31.99	-49.4	-64.7	3.6	1.51e+00	0	38	104	0	60	61773
2026-01-30 01:45:38.76	249.15	32.05	-49.4	-64.7	3.6	1.51e+00	0	38	104	0	60	62047
2026-01-30 01:45:39.77	249.50	32.11	-49.4	-64.7	3.6	1.51e+00	0	38	104	0	60	61897
2026-01-30 01:45:40.78	249.86	32.17	-49.4	-64.7	3.6	1.51e+00	0	38	104	0	60	61876
2026-01-30 01:45:41.79	250.21	32.23	-49.4	-64.7	3.6	1.51e+00	0	38	104	0	60	61920
2026-01-30 01:45:42.80	250.57	32.29	-49.4	-64.7	3.6	1.51e+00	0	38	104	0	60	61765
2026-01-30 01:45:43.81	250.93	32.35	-49.4	-64.7	3.6	1.51e+00	0	38	104	0	60	62024
2026-01-30 01:45:44.82	251.29	32.40	-49.4	-64.7	3.6	1.51e+00	0	38	104	0	60	61934
2026-01-30 01:45:45.83	251.65	32.45	-49.4	-64.7	3.6	1.51e+00	0	38	104	0	60	61843
2026-01-30 01:45:46.84	252.01	32.51	-49.4	-64.7	3.5	1.51e+00	0	38	104	0	60	62111
2026-01-30 01:45:47.85	252.37	32.56	-49.4	-64.7	3.6	1.51e+00	0	38	104	0	60	61843
2026-01-30 01:45:48.86	252.73	32.61	-49.4	-64.6	3.6	1.51e+00	0	38	104	0	60	61641
2026-01-30 01:45:49.87	253.10	32.66	-49.4	-64.7	3.6	1.51e+00	0	38	104	0	60	61750
2026-01-30 01:45:50.88	253.47	32.71	-49.4	-64.7	3.6	1.51e+00	0	38	104	0	60	61974
2026-01-30 01:45:51.89	253.83	32.75	-49.4	-64.7	3.6	1.51e+00	0	38	104	0	60	61803
2026-01-30 01:45:52.90	254.20	32.80	-49.4	-64.7	3.6	1.51e+00	0	38	104	0	60	61870
2026-01-30 01:45:53.91	254.57	32.84	-49.4	-64.7	3.6	1.51e+00	0	38	104	0	60	61898
2026-01-30 01:45:54.92	254.94	32.89	-49.4	-64.6	3.6	1.51e+00	0	38	104	0	60	61620
2026-01-30 01:45:55.93	255.31	32.93	-49.4	-64.7	3.6	1.51e+00	0	38	104	0	60	61893
2026-01-30 01:45:56.94	255.68	32.97	-49.4	-64.6	3.6	1.51e+00	0	37	104	0	60	61727
2026-01-30 01:45:57.95	256.06	33.01	-49.4	-64.7	3.6	1.51e+00	0	38	104	0	60	61912
2026-01-30 01:45:58.96	256.43	33.05	-49.4	-64.7	3.6	1.51e+00	0	38	104	0	60	61809
2026-01-30 01:45:59.98	256.81	33.09	-49.4	-64.6	3.6	1.51e+00	0	38	104	0	60	61670
2026-01-30 01:46:00.99	257.18	33.12	-49.4	-64.7	3.6	1.51e+00	0	38	104	0	60	61835
2026-01-30 01:46:02.00	257.56	33.16	-49.4	-64.7	3.6	1.51e+00	0	38	104	0	60	62061
2026-01-30 01:46:03.01	257.94	33.19	-49.4	-64.6	3.6	1.51e+00	0	38	104	0	60	61629
2026-01-30 01:46:04.01	258.31	33.22	-49.4	-64.7	3.6	1.51e+00	0	38	104	0	60	61943
2026-01-30 01:46:05.02	258.69	33.25	-49.4	-64.6	3.6	1.51e+00	0	38	104	0	60	61567
2026-01-30 01:46:06.04	259.07	33.28	-49.4	-64.6	3.6	1.51e+00	0	38	104	0	60	61547
2026-01-30 01:46:07.05	259.45	33.31	-49.4	-64.7	3.6	1.51e+00	0	38	104	0	60	61964
2026-01-30 01:46:08.06	259.83	33.33	-49.4	-64.6	3.6	1.51e+00	0	38	104	0	60	61669
2026-01-30 01:46:09.07	260.21	33.36	-49.4	-64.7	3.6	1.51e+00	0	38	104	0	60	61885
2026-01-30 01:46:10.08	260.59	33.38	-49.4	-64.7	3.6	1.51e+00	0	38	104	0	60	61752
2026-01-30 01:46:11.09	260.98	33.41	-49.4	-64.7	3.6	1.51e+00	0	38	104	0	60	62181
2026-01-30 01:46:12.10	261.36	33.43	-49.4	-64.7	3.6	1.51e+00	0	38	104	0	60	61806
2026-01-30 01:46:13.11	261.74	33.45	-49.4	-64.7	3.6	1.51e+00	0	38	104	0	60	62096
2026-01-30 01:46:14.12	262.12	33.46	-49.4	-64.6	3.6	1.51e+00	0	38	104	0	60	61590
2026-01-30 01:46:15.13	262.51	33.48	-49.4	-64.7	3.6	1.51e+00	0	38	104	0	60	61877
2026-01-30 01:46:16.14	262.89	33.50	-49.4	-64.7	3.6	1.51e+00	0	38	104	0	60	61815
2026-01-30 01:46:17.15	263.28	33.51	-49.4	-64.7	3.6	1.51e+00	0	38	104	0	60	62172
2026-01-30 01:46:18.16	263.66	33.52	-49.4	-64.7	3.6	1.51e+00	0	38	104	0	60	61998
2026-01-30 01:46:19.17	264.05	33.53	-49.4	-64.7	3.6	1.51e+00	0	38	104	0	60	61922
2026-01-30 01:46:20.18	264.43	33.54	-49.4	-64.7	3.6	1.51e+00	0	38	104	0	60	61811
2026-01-30 01:46:21.19	264.82	33.55	-49.4	-64.7	3.6	1.51e+00	0	38	104	0	60	61963
2026-01-30 01:46:22.20	265.20	33.56	-49.4	-64.6	3.6	1.51e+00	0	38	104	0	60	61430
2026-01-30 01:46:23.21	265.59	33.56	-49.4	-64.7	3.6	1.51e+00	0	38	104	0	60	61930
2026-01-30 01:46:24.22	265.97	33.57	-49.4	-64.7	3.6	1.51e+00	0	38	104	0	60	61753
2026-01-30 01:46:25.23	266.36	33.57	-49.4	-64.7	3.6	1.51e+00	0	38	104	0	60	61954
2026-01-30 01:46:26.24	266.75	33.57	-49.4	-64.7	3.6	1.51e+00	0	38	104	0	60	61865
2026-01-30 01:46:27.25	267.13	33.57	-49.4	-64.7	3.6	1.51e+00	0	38	104	0	60	61992
2026-01-30 01:46:28.26	267.52	33.57	-49.4	-64.7	3.6	1.51e+00	0	38	104	0	60	61803
2026-01-30 01:46:29.27	267.90	33.57	-49.4	-64.7	3.6	1.51e+00	0	38	104	0	60	61927
2026-01-30 01:46:30.29	268.29	33.56	-49.4	-64.6	3.6	1.51e+00	0	38	104	0	60	61703
2026-01-30 01:46:31.29	268.67	33.56	-49.4	-64.7	3.6	1.51e+00	0	38	104	0	60	61962
2026-01-30 01:46:32.30	269.06	33.55	-49.4	-64.6	3.6	1.51e+00	0	38	104	0	60	61553
2026-01-30 01:46:33.31	269.44	33.54	-49.4	-64.7	3.6	1.51e+00	0	38	104	0	60	61807
2026-01-30 01:46:34.32	269.83	33.53	-49.4	-64.7	3.6	1.51e+00	0	38	104	0	60	61962
2026-01-30 01:46:35.33	270.21	33.52	-49.4	-64.7	3.6	1.51e+00	0	38	104	0	60	61788
2026-01-30 01:46:36.34	270.60	33.51	-49.4	-64.7	3.6	1.51e+00	0	38	104	0	60	62202
2026-01-30 01:46:37.35	270.98	33.49	-49.4	-64.7	3.6	1.51e+00	0	38	104	0	60	61751
2026-01-30 01:46:38.37	271.37	33.48	-49.4	-64.6	3.6	1.51e+00	0	38	104	0	60	61597
2026-01-30 01:46:39.38	271.75	33.46	-49.4	-64.6	3.6	1.51e+00	0	38	104	0	60	61651
2026-01-30 01:46:40.39	272.14	33.44	-49.4	-64.7	3.6	1.51e+00	0	38	104	0	60	62000
2026-01-30 01:46:41.40	272.52	33.42	-49.4	-64.7	3.6	1.51e+00	0	38	104	0	60	61978
2026-01-30 01:46:42.41	272.90	33.40	-49.4	-64.7	3.6	1.51e+00	0	38	104	0	60	62217
2026-01-30 01:46:43.42	273.28	33.38	-49.4	-64.7	3.6	1.51e+00	0	38	104	0	60	62196
2026-01-30 01:46:44.43	273.66	33.35	-49.4	-64.6	3.6	1.51e+00	0	38	104	0	60	61373
2026-01-30 01:46:45.44	274.04	33.33	-49.4	-64.6	3.6	1.51e+00	0	38	104	0	60	61591
2026-01-30 01:46:46.45	274.42	33.30	-49.4	-64.7	3.6	1.51e+00	0	38	104	0	60	61906
2026-01-30 01:46:47.46	274.80	33.27	-49.4	-64.6	3.6	1.51e+00	0	38	104	0	60	61720
2026-01-30 01:46:48.47	275.18	33.24	-49.4	-64.7	3.6	1.51e+00	0	38	104	0	60	61919
2026-01-30 01:46:49.48	275.56	33.21	-49.4	-64.7	3.6	1.51e+00	0	38	104	0	60	62044
2026-01-30 01:46:50.49	275.94	33.18	-49.4	-64.7	3.6	1.51e+00	0	38	104	0	60	61793
2026-01-30 01:46:51.50	276.31	33.15	-49.4	-64.7	3.6	1.51e+00	0	38	104	0	60	61920
2026-01-30 01:46:52.51	276.69	33.11	-49.4	-64.7	3.6	1.51e+00	0	38	104	0	60	61943
2026-01-30 01:46:53.52	277.06	33.08	-49.4	-64.7	3.6	1.51e+00	0	38	104	0	60	61789
2026-01-30 01:46:54.53	277.44	33.04	-49.4	-64.7	3.6	1.51e+00	0	38	104	0	60	61998
2026-01-30 01:46:55.54	277.81	33.00	-49.4	-64.7	3.6	1.51e+00	0	38	104	0	60	62090
2026-01-30 01:46:56.55	278.18	32.96	-49.4	-64.7	3.6	1.51e+00	0	38	104	0	60	61740
2026-01-30 01:46:57.56	278.55	32.92	-49.4	-64.6	3.6	1.51e+00	0	38	104	0	60	61628
2026-01-30 01:46:58.57	278.92	32.88	-49.4	-64.7	3.6	1.51e+00	0	38	104	0	60	61980
2026-01-30 01:46:59.58	279.29	32.84	-49.4	-64.7	3.6	1.51e+00	0	38	104	0	60	61861
2026-01-30 01:47:00.59	279.66	32.79	-49.4	-64.6	3.6	1.51e+00	0	38	104	0	60	61644
2026-01-30 01:47:01.60	280.03	32.74	-49.4	-64.6	3.6	1.51e+00	0	38	104	0	60	61662
2026-01-30 01:47:02.61	280.39	32.70	-49.4	-64.7	3.6	1.51e+00	0	38	104	0	60	61771
2026-01-30 01:47:03.62	280.76	32.65	-49.4	-64.7	3.6	1.51e+00	0	38	104	0	60	61925
2026-01-30 01:47:04.63	281.12	32.60	-49.4	-64.7	3.6	1.51e+00	0	38	104	0	60	61930
2026-01-30 01:47:05.64	281.49	32.55	-49.4	-64.7	3.6	1.51e+00	0	38	104	0	60	61775
2026-01-30 01:47:06.65	281.85	32.50	-49.4	-64.7	3.6	1.51e+00	0	38	104	0	60	62112
2026-01-30 01:47:07.66	282.21	32.44	-49.4	-64.7	3.6	1.51e+00	0	38	104	0	60	62135
2026-01-30 01:47:08.67	282.57	32.39	-49.4	-64.7	3.6	1.51e+00	0	38	104	0	60	61749
2026-01-30 01:47:09.69	282.93	32.33	-49.4	-64.6	3.6	1.51e+00	0	38	104	0	60	61700
2026-01-30 01:47:10.69	283.28	32.28	-49.4	-64.6	3.6	1.51e+00	0	38	104	0	60	61681
2026-01-30 01:47:11.71	283.64	32.22	-49.4	-64.7	3.6	1.51e+00	0	38	104	0	60	61995
2026-01-30 01:47:12.72	284.00	32.16	-49.4	-64.6	3.6	1.51e+00	0	38	104	0	60	61730
2026-01-30 01:47:13.73	284.35	32.10	-49.4	-64.6	3.6	1.51e+00	0	38	104	0	60	61691
2026-01-30 01:47:14.74	284.70	32.04	-49.4	-64.7	3.6	1.51e+00	0	38	104	0	60	62175
2026-01-30 01:47:15.75	285.05	31.98	-49.4	-64.6	3.6	1.51e+00	0	38	104	0	60	61671
2026-01-30 01:47:16.76	285.40	31.92	-49.4	-64.7	3.6	1.51e+00	0	38	104	0	60	61848
2026-01-30 01:47:17.77	285.75	31.85	-49.4	-64.7	3.6	1.51e+00	0	38	104	0	60	62158
2026-01-30 01:47:18.78	286.10	31.79	-49.4	-64.7	3.6	1.51e+00	0	38	104	0	60	62179
2026-01-30 01:47:19.79	286.44	31.72	-49.4	-64.7	3.6	1.51e+00	0	38	104	0	60	61992
2026-01-30 01:47:20.80	286.79	31.66	-49.4	-64.7	3.6	1.51e+00	0	38	104	0	60	61915
2026-01-30 01:47:21.81	287.13	31.59	-49.4	-64.7	3.6	1.51e+00	0	38	104	0	60	61917
2026-01-30 01:47:22.82	287.47	31.52	-49.4	-64.7	3.6	1.51e+00	0	38	104	0	60	62206
2026-01-30 01:47:23.83	287.81	31.45	-49.4	-64.7	3.6	1.51e+00	0	38	104	0	60	61782
2026-01-30 01:47:24.84	288.15	31.38	-49.4	-64.6	3.6	1.51e+00	0	38	104	0	60	61663
2026-01-30 01:47:25.85	288.48	31.31	-49.4	-64.6	3.6	1.51e+00	0	38	104	0	60	61687
2026-01-30 01:47:26.86	288.82	31.24	-49.4	-64.7	3.6	1.51e+00	0	38	104	0	60	61783
2026-01-30 01:47:27.87	289.15	31.16	-49.4	-64.7	3.6	1.51e+00	0	38	104	0	60	61819
2026-01-30 01:47:28.88	289.48	31.09	-49.4	-64.6	3.6	1.51e+00	0	38	104	0	60	61682
2026-01-30 01:47:29.89	289.82	31.02	-49.4	-64.6	3.5	1.51e+00	0	38	104	0	60	61688
2026-01-30 01:47:30.90	290.14	30.94	-49.4	-64.7	3.6	1.51e+00	0	38	104	0	60	61818
2026-01-30 01:47:31.91	290.47	30.86	-49.4	-64.7	3.6	1.51e+00	0	38	104	0	60	61831
2026-01-30 01:47:32.92	290.80	30.79	-49.4	-64.7	3.6	1.51e+00	0	38	104	0	60	61788
2026-01-30 01:47:33.92	291.12	30.71	-49.4	-64.7	3.6	1.51e+00	0	38	104	0	60	62144
2026-01-30 01:47:34.93	291.44	30.63	-49.4	-64.7	3.6	1.51e+00	0	38	104	0	60	61946
2026-01-30 01:47:35.94	291.76	30.55	-49.4	-64.6	3.6	1.51e+00	0	38	104	0	60	61607
2026-01-30 01:47:36.96	292.09	30.47	-49.4	-64.7	3.6	1.51e+00	0	38	104	0	60	61938
2026-01-30 01:47:37.96	292.40	30.39	-49.4	-64.6	3.6	1.51e+00	0	38	104	0	60	61586
2026-01-30 01:47:38.97	292.72	30.31	-49.4	-64.7	3.6	1.51e+00	0	38	104	0	60	62144
2026-01-30 01:47:39.98	293.03	30.23	-49.4	-64.6	3.6	1.51e+00	0	38	104	0	60	61725
2026-01-30 01:47:40.99	293.35	30.14	-49.4	-64.7	3.6	1.51e+00	0	38	104	0	60	61830
2026-01-30 01:47:42.00	293.66	30.06	-49.4	-64.6	3.6	1.51e+00	0	38	104	0	60	61558
2026-01-30 01:47:43.01	293.97	29.97	-49.4	-64.7	3.6	1.51e+00	0	38	104	0	60	61930
2026-01-30 01:47:44.02	294.28	29.89	-49.4	-64.7	3.6	1.51e+00	0	38	104	0	60	62093
2026-01-30 01:47:45.03	294.59	29.80	-49.4	-64.7	3.6	1.51e+00	0	38	104	0	60	61821
2026-01-30 01:47:46.04	294.89	29.72	-49.4	-64.6	3.6	1.51e+00	0	38	104	0	60	61651
2026-01-30 01:47:47.05	295.20	29.63	-49.4	-64.6	3.6	1.51e+00	0	38	104	0	60	61620
2026-01-30 01:47:48.06	295.50	29.54	-49.4	-64.6	3.6	1.51e+00	0	38	104	0	60	61609
2026-01-30 01:47:49.07	295.80	29.45	-49.4	-64.7	3.6	1.51e+00	0	38	104	0	60	61931
2026-01-30 01:47:50.08	296.10	29.37	-49.4	-64.7	3.6	1.51e+00	0	38	104	0	60	61898
2026-01-30 01:47:51.09	296.40	29.28	-49.4	-64.6	3.6	1.51e+00	0	38	104	0	60	61719
2026-01-30 01:47:52.10	296.69	29.19	-49.4	-64.7	3.6	1.51e+00	0	38	104	0	60	62016
2026-01-30 01:47:53.11	296.99	29.10	-49.4	-64.7	3.6	1.51e+00	0	38	104	0	60	61848
2026-01-30 01:47:54.12	297.28	29.01	-49.4	-64.7	3.6	1.51e+00	0	38	104	0	60	62108
2026-01-30 01:47:55.13	297.57	28.92	-49.4	-64.6	3.6	1.51e+00	0	38	104	0	60	61692
2026-01-30 01:47:56.14	297.86	28.82	-49.4	-64.7	3.6	1.51e+00	0	38	104	0	60	61868
2026-01-30 01:47:57.15	298.15	28.73	-49.4	-64.7	3.6	1.51e+00	0	38	104	0	60	61765
2026-01-30 01:47:58.17	298.44	28.64	-49.4	-64.7	3.6	1.51e+00	0	38	104	0	60	61977
2026-01-30 01:47:59.18	298.72	28.55	-49.4	-64.6	3.6	1.51e+00	0	38	104	0	60	61613
2026-01-30 01:48:00.19	299.00	28.45	-49.4	-64.6	3.6	1.51e+00	0	38	104	0	60	61726
2026-01-30 01:48:01.20	299.28	28.36	-49.4	-64.7	3.6	1.51e+00	0	38	104	0	60	62076
2026-01-30 01:48:02.21	299.56	28.26	-49.4	-64.7	3.6	1.51e+00	0	38	104	0	60	61742
2026-01-30 01:48:03.22	299.84	28.17	-49.4	-64.6	3.6	1.51e+00	0	38	104	0	60	61641
2026-01-30 01:48:04.23	300.12	28.07	-49.4	-64.7	3.6	1.51e+00	0	38	104	0	60	61887
2026-01-30 01:48:05.24	300.39	27.98	-49.4	-64.7	3.6	1.51e+00	0	38	104	0	60	61844
2026-01-30 01:48:06.25	300.67	27.88	-49.4	-64.7	3.6	1.51e+00	0	38	104	0	60	61889
2026-01-30 01:48:07.26	300.94	27.79	-49.4	-64.7	3.6	1.51e+00	0	38	104	0	60	61799
2026-01-30 01:48:08.27	301.21	27.69	-49.4	-64.6	3.6	1.51e+00	0	38	104	0	60	61534
2026-01-30 01:48:09.28	301.48	27.59	-49.4	-64.7	3.6	1.51e+00	0	38	104	0	60	61750
2026-01-30 01:48:10.29	301.74	27.50	-49.4	-64.6	3.6	1.51e+00	0	38	104	0	60	61635
2026-01-30 01:48:11.30	302.01	27.40	-49.4	-64.7	3.6	1.51e+00	0	38	104	0	60	61795
2026-01-30 01:48:12.31	302.27	27.30	-49.4	-64.7	3.6	1.51e+00	0	38	104	0	60	61748
2026-01-30 01:48:13.32	302.53	27.20	-49.4	-64.7	3.6	1.51e+00	0	38	104	0	60	62242
2026-01-30 01:48:14.33	302.79	27.10	-49.4	-64.7	3.6	1.51e+00	0	38	104	0	60	61873
2026-01-30 01:48:15.34	303.05	27.01	-49.4	-64.7	3.6	1.51e+00	0	38	104	0	60	61960
2026-01-30 01:48:16.35	303.31	26.91	-49.4	-64.7	3.6	1.51e+00	0	38	104	0	60	62074
2026-01-30 01:48:17.36	303.57	26.81	-49.4	-64.7	3.6	1.51e+00	0	38	104	0	60	61944
2026-01-30 01:48:18.37	303.82	26.71	-49.4	-64.7	3.6	1.51e+00	0	38	104	0	60	61893
2026-01-30 01:48:19.38	304.07	26.61	-49.4	-64.7	3.6	1.51e+00	0	38	104	0	60	61808
2026-01-30 01:48:20.39	304.32	26.51	-49.4	-64.7	3.6	1.51e+00	0	38	104	0	60	61775
2026-01-30 01:48:21.40	304.57	26.41	-49.4	-64.6	3.6	1.51e+00	0	38	104	0	60	61671
2026-01-30 01:48:22.41	304.82	26.31	-49.4	-64.7	3.6	1.51e+00	0	38	104	0	60	62041
2026-01-30 01:48:23.42	305.07	26.21	-49.4	-64.7	3.6	1.51e+00	0	38	104	0	60	61782
2026-01-30 01:48:24.43	305.31	26.11	-49.4	-64.7	3.6	1.51e+00	0	38	104	0	60	61844
2026-01-30 01:48:25.44	305.56	26.01	-49.4	-64.6	3.6	1.51e+00	0	38	104	0	60	61633
2026-01-30 01:48:26.45	305.80	25.91	-49.4	-64.7	3.6	1.51e+00	0	38	104	0	60	61938
2026-01-30 01:48:27.46	306.04	25.81	-49.4	-64.7	3.6	1.51e+00	0	38	104	0	60	62213
2026-01-30 01:48:28.47	306.28	25.71	-49.4	-64.6	3.6	1.51e+00	0	38	104	0	60	61724
2026-01-30 01:48:29.48	306.51	25.61	-49.4	-64.7	3.6	1.51e+00	0	38	104	0	60	62125
2026-01-30 01:48:30.49	306.75	25.50	-49.4	-64.7	3.6	1.51e+00	0	38	104	0	60	61927
2026-01-30 01:48:31.50	306.98	25.40	-49.4	-64.6	3.6	1.51e+00	0	38	104	0	60	61652
2026-01-30 01:48:32.52	307.22	25.30	-49.4	-64.7	3.6	1.51e+00	0	38	104	0	60	61789
2026-01-30 01:48:33.53	307.45	25.20	-49.4	-64.7	3.6	1.51e+00	0	38	104	0	60	62034
2026-01-30 01:48:34.53	307.68	25.10	-49.4	-64.7	3.6	1.51e+00	0	38	104	0	60	62160
2026-01-30 01:48:35.55	307.91	25.00	-49.4	-64.7	3.6	1.51e+00	0	38	104	0	60	61941
2026-01-30 01:48:36.56	308.14	24.89	-49.4	-64.6	3.6	1.51e+00	0	38	104	0	60	61503
2026-01-30 01:48:37.56	308.36	24.79	-49.4	-64.7	3.6	1.51e+00	0	38	104	0	60	61875
2026-01-30 01:48:38.58	308.59	24.69	-49.4	-64.7	3.6	1.51e+00	0	38	104	0	60	61814
2026-01-30 01:48:39.59	308.81	24.59	-49.4	-64.6	3.6	1.51e+00	0	38	104	0	60	61583
2026-01-30 01:48:40.60	309.03	24.49	-49.4	-64.7	3.6	1.51e+00	0	38	104	0	60	62113
2026-01-30 01:48:41.61	309.25	24.38	-49.4	-64.7	3.6	1.51e+00	0	38	104	0	60	61848
2026-01-30 01:48:42.62	309.47	24.28	-49.4	-64.6	3.6	1.51e+00	0	38	104	0	60	61559
2026-01-30 01:48:43.63	309.69	24.18	-49.4	-64.7	3.6	1.51e+00	0	38	104	0	60	61821
2026-01-30 01:48:44.64	309.90	24.08	-49.4	-64.6	3.6	1.51e+00	0	38	104	0	60	61678
2026-01-30 01:48:45.65	310.12	23.98	-49.4	-64.7	3.6	1.51e+00	0	38	104	0	60	61851
2026-01-30 01:48:46.66	310.33	23.87	-49.4	-64.7	3.6	1.51e+00	0	38	104	0	60	61976
2026-01-30 01:48:47.67	310.54	23.77	-49.4	-64.7	3.6	1.51e+00	0	38	104	0	60	61783
2026-01-30 01:48:48.68	310.75	23.67	-49.4	-64.7	3.6	1.51e+00	0	38	104	0	60	62070
2026-01-30 01:48:49.69	310.96	23.57	-49.4	-64.7	3.6	1.51e+00	0	38	104	0	60	61932
2026-01-30 01:48:50.70	311.17	23.47	-49.4	-64.7	3.6	1.51e+00	0	38	104	0	60	61862
2026-01-30 01:48:51.71	311.38	23.36	-49.4	-64.7	3.6	1.51e+00	0	38	104	0	60	61906
2026-01-30 01:48:52.72	311.58	23.26	-49.4	-64.7	3.6	1.51e+00	0	38	104	0	60	61978
2026-01-30 01:48:53.73	311.79	23.16	-49.4	-64.7	3.6	1.51e+00	0	38	104	0	60	61938
2026-01-30 01:48:54.74	311.99	23.06	-49.4	-64.6	3.6	1.51e+00	0	38	104	0	60	61720
2026-01-30 01:48:55.75	312.19	22.96	-49.4	-64.6	3.6	1.51e+00	0	38	104	0	60	61735
2026-01-30 01:48:56.76	312.39	22.86	-49.4	-64.7	3.6	1.51e+00	0	38	104	0	60	61929
2026-01-30 01:48:57.77	312.59	22.75	-49.4	-64.7	3.6	1.51e+00	0	38	104	0	60	61889
2026-01-30 01:48:58.78	312.79	22.65	-49.4	-64.7	3.6	1.51e+00	0	38	104	0	60	61781
2026-01-30 01:48:59.79	312.98	22.55	-49.4	-64.7	3.6	1.51e+00	0	38	104	0	60	61873
2026-01-30 01:49:00.80	313.18	22.45	-49.4	-64.6	3.6	1.51e+00	0	38	104	0	60	61683
2026-01-30 01:49:01.81	313.37	22.35	-49.4	-64.7	3.6	1.51e+00	0	38	104	0	60	61919
2026-01-30 01:49:02.82	313.56	22.25	-49.4	-64.7	3.6	1.51e+00	0	38	104	0	60	61851
2026-01-30 01:49:03.83	313.75	22.14	-49.4	-64.7	3.6	1.51e+00	0	38	104	0	60	61961
2026-01-30 01:49:04.84	313.94	22.04	-49.4	-64.7	3.6	1.51e+00	0	38	104	0	60	62060
2026-01-30 01:49:05.85	314.13	21.94	-49.4	-64.6	3.6	1.51e+00	0	38	104	0	60	61483
2026-01-30 01:49:06.86	314.32	21.84	-49.4	-64.6	3.6	1.51e+00	0	38	104	0	60	61695
2026-01-30 01:49:07.87	314.51	21.74	-49.4	-64.6	3.6	1.51e+00	0	38	104	0	60	61738
2026-01-30 01:49:08.88	314.69	21.64	-49.4	-64.7	3.6	1.51e+00	0	38	104	0	60	62225
2026-01-30 01:49:09.89	314.88	21.54	-49.4	-64.7	3.6	1.51e+00	0	38	104	0	60	62019
2026-01-30 01:49:10.90	315.06	21.44	-49.4	-64.7	3.6	1.51e+00	0	38	104	0	60	61890
2026-01-30 01:49:11.91	315.24	21.34	-49.4	-64.7	3.5	1.51e+00	0	38	104	0	60	62069
2026-01-30 01:49:12.92	315.42	21.24	-49.4	-64.7	3.6	1.51e+00	0	38	104	0	60	61760
2026-01-30 01:49:13.93	315.60	21.14	-49.4	-64.7	3.6	1.51e+00	0	38	104	0	60	61960
2026-01-30 01:49:14.94	315.78	21.04	-49.4	-64.7	3.6	1.51e+00	0	38	104	0	60	62197
2026-01-30 01:49:15.95	315.96	20.94	-49.4	-64.7	3.6	1.51e+00	0	38	104	0	60	61770
2026-01-30 01:49:16.97	316.14	20.84	-49.4	-64.7	3.6	1.51e+00	0	38	104	0	60	61944
2026-01-30 01:49:17.97	316.31	20.74	-49.4	-64.7	3.6	1.51e+00	0	38	104	0	60	61915
2026-01-30 01:49:18.99	316.48	20.64	-49.4	-64.7	3.6	1.51e+00	0	38	104	0	60	61983
2026-01-30 01:49:19.99	316.66	20.54	-49.4	-64.7	3.6	1.51e+00	0	38	104	0	60	61836
2026-01-30 01:49:21.00	316.83	20.44	-49.4	-64.7	3.6	1.51e+00	0	38	104	0	60	61832
2026-01-30 01:49:22.02	317.00	20.34	-49.4	-64.7	3.6	1.51e+00	0	38	104	0	60	61881
2026-01-30 01:49:23.03	317.17	20.24	-49.4	-64.7	3.6	1.51e+00	0	38	104	0	60	61753
2026-01-30 01:49:24.04	317.34	20.14	-49.4	-64.7	3.6	1.51e+00	0	38	104	0	60	61748
2026-01-30 01:49:25.05	317.51	20.04	-49.4	-64.7	3.6	1.51e+00	0	38	104	0	60	61775
2026-01-30 01:49:26.06	317.67	19.94	-49.4	-64.7	3.6	1.51e+00	0	38	104	0	60	62024
2026-01-30 01:49:27.07	317.84	19.85	-49.4	-64.7	3.6	1.51e+00	0	38	104	0	60	61740
2026-01-30 01:49:28.08	318.00	19.75	-49.4	-64.6	3.6	1.51e+00	0	38	104	0	60	61701
2026-01-30 01:49:29.09	318.17	19.65	-49.4	-64.7	3.6	1.51e+00	0	38	104	0	60	61926
2026-01-30 01:49:30.10	318.33	19.55	-49.4	-64.7	3.6	1.51e+00	0	38	104	0	60	61984
2026-01-30 01:49:31.11	318.49	19.45	-49.4	-64.7	3.6	1.51e+00	0	38	104	0	60	61801
2026-01-30 01:49:32.12	318.65	19.36	-49.4	-64.6	3.6	1.51e+00	0	38	104	0	60	61703
2026-01-30 01:49:33.13	318.81	19.26	-49.4	-64.7	3.6	1.51e+00	0	38	104	0	60	61844
2026-01-30 01:49:34.14	318.97	19.16	-49.4	-64.7	3.6	1.51e+00	0	38	104	0	60	61844
2026-01-30 01:49:35.15	319.13	19.07	-49.4	-64.6	3.6	1.51e+00	0	38	104	0	60	61570
2026-01-30 01:49:36.16	319.28	18.97	-49.4	-64.7	3.6	1.51e+00	0	38	104	0	60	61879
2026-01-30 01:49:37.17	319.44	18.87	-49.4	-64.7	3.6	1.51e+00	0	38	104	0	60	61852
2026-01-30 01:49:38.18	319.59	18.78	-49.4	-64.6	3.6	1.51e+00	0	38	104	0	60	61648
2026-01-30 01:49:39.19	319.75	18.68	-49.4	-64.6	3.6	1.51e+00	0	38	104	0	60	61575
2026-01-30 01:49:40.20	319.90	18.58	-49.4	-64.7	3.6	1.51e+00	0	38	104	0	60	61947
2026-01-30 01:49:41.21	320.05	18.49	-49.4	-64.6	3.6	1.51e+00	0	38	104	0	60	61736
2026-01-30 01:49:42.22	320.20	18.39	-49.4	-64.7	3.6	1.51e+00	0	38	104	0	60	62032
2026-01-30 01:49:43.23	320.35	18.30	-49.4	-64.7	3.6	1.51e+00	0	38	104	0	60	61968
2026-01-30 01:49:44.24	320.50	18.20	-49.4	-64.7	3.6	1.51e+00	0	38	104	0	60	62108
2026-01-30 01:49:45.25	320.65	18.10	-49.4	-64.7	3.6	1.51e+00	0	38	104	0	60	61914
2026-01-30 01:49:46.26	320.80	18.01	-49.4	-64.7	3.5	1.51e+00	0	38	104	0	60	62117
2026-01-30 01:49:47.27	320.94	17.92	-49.4	-64.6	3.6	1.51e+00	0	38	104	0	60	61546
2026-01-30 01:49:48.28	321.09	17.82	-49.4	-64.7	3.6	1.51e+00	0	38	104	0	60	62052
2026-01-30 01:49:49.29	321.23	17.73	-49.4	-64.7	3.6	1.51e+00	0	38	104	0	60	61783
2026-01-30 01:49:50.30	321.38	17.63	-49.4	-64.6	3.6	1.51e+00	0	38	104	0	60	61674
2026-01-30 01:49:51.31	321.52	17.54	-49.4	-64.7	3.6	1.51e+00	0	38	104	0	60	61980
2026-01-30 01:49:52.32	321.66	17.44	-49.4	-64.7	3.6	1.51e+00	0	38	104	0	60	62217
2026-01-30 01:49:53.33	321.80	17.35	-49.4	-64.7	3.6	1.51e+00	0	38	104	0	60	61814
2026-01-30 01:49:54.34	321.94	17.26	-49.4	-64.7	3.6	1.51e+00	0	38	104	0	60	61785
2026-01-30 01:49:55.35	322.08	17.16	-49.4	-64.7	3.6	1.51e+00	0	38	104	0	60	62204
2026-01-30 01:49:56.36	322.22	17.07	-49.4	-64.6	3.6	1.51e+00	0	38	104	0	60	61708
2026-01-30 01:49:57.37	322.36	16.98	-49.4	-64.6	3.6	1.51e+00	0	38	104	0	60	61641
2026-01-30 01:49:58.38	322.49	16.89	-49.4	-64.6	3.6	1.51e+00	0	38	104	0	60	61619
2026-01-30 01:49:59.39	322.63	16.79	-49.4	-64.7	3.6	1.51e+00	0	38	104	0	60	61933
2026-01-30 01:50:00.40	322.77	16.70	-49.4	-64.7	3.6	1.51e+00	0	38	104	0	60	61858
2026-01-30 01:50:01.41	322.90	16.61	-49.4	-64.6	3.6	1.51e+00	0	38	104	0	60	61434
2026-01-30 01:50:02.42	323.03	16.52	-49.4	-64.7	3.6	1.51e+00	0	38	104	0	60	61777
2026-01-30 01:50:03.43	323.17	16.42	-49.4	-64.7	3.6	1.51e+00	0	38	104	0	60	61837
2026-01-30 01:50:04.44	323.30	16.33	-49.4	-64.6	3.6	1.51e+00	0	38	104	0	60	61619
2026-01-30 01:50:05.46	323.43	16.24	-49.4	-64.6	3.6	1.51e+00	0	38	104	0	60	61649
2026-01-30 01:50:06.46	323.56	16.15	-49.4	-64.7	3.6	1.51e+00	0	38	104	0	60	61785
2026-01-30 01:50:07.47	323.69	16.06	-49.4	-64.6	3.6	1.51e+00	0	38	104	0	60	61581
2026-01-30 01:50:08.48	323.82	15.97	-49.4	-64.7	3.6	1.51e+00	0	38	104	0	60	62078
2026-01-30 01:50:09.49	323.95	15.88	-49.4	-64.7	3.6	1.51e+00	0	38	104	0	60	62082
2026-01-30 01:50:10.51	324.08	15.79	-49.4	-64.7	3.6	1.51e+00	0	38	104	0	60	61760
2026-01-30 01:50:11.52	324.21	15.70	-49.4	-64.7	3.6	1.51e+00	0	38	104	0	60	61880
2026-01-30 01:50:12.53	324.33	15.61	-49.4	-64.7	3.6	1.51e+00	0	38	104	0	60	61897
2026-01-30 01:50:13.54	324.46	15.52	-49.4	-64.6	3.6	1.51e+00	0	38	104	0	60	61656
2026-01-30 01:50:14.55	324.58	15.43	-49.4	-64.7	3.6	1.51e+00	0	38	104	0	60	62108
2026-01-30 01:50:15.56	324.71	15.34	-49.4	-64.7	3.6	1.51e+00	0	38	104	0	60	61771
2026-01-30 01:50:16.57	324.83	15.25	-49.4	-64.7	3.6	1.51e+00	0	38	104	0	60	61914
2026-01-30 01:50:17.58	324.95	15.16	-49.4	-64.7	3.6	1.51e+00	0	38	104	0	60	61843
2026-01-30 01:50:18.59	325.07	15.07	-49.4	-64.7	3.6	1.51e+00	0	38	104	0	60	61862
2026-01-30 01:50:19.60	325.20	14.99	-49.4	-64.7	3.6	1.51e+00	0	38	104	0	60	62205
2026-01-30 01:50:20.61	325.32	14.90	-49.4	-64.7	3.6	1.51e+00	0	38	104	0	60	61899
2026-01-30 01:50:21.62	325.44	14.81	-49.4	-64.7	3.6	1.51e+00	0	38	104	0	60	61877
2026-01-30 01:50:22.63	325.55	14.72	-49.4	-64.7	3.6	1.51e+00	0	38	104	0	60	62080
2026-01-30 01:50:23.64	325.67	14.63	-49.4	-64.7	3.6	1.51e+00	0	38	104	0	60	61922
2026-01-30 01:50:24.65	325.79	14.55	-49.4	-64.7	3.6	1.51e+00	0	38	104	0	60	61880
2026-01-30 01:50:25.66	325.91	14.46	-49.4	-64.7	3.6	1.51e+00	0	38	104	0	60	61925
2026-01-30 01:50:26.67	326.02	14.37	-49.4	-64.6	3.6	1.51e+00	0	38	104	0	60	61682
2026-01-30 01:50:27.68	326.14	14.29	-49.4	-64.7	3.6	1.51e+00	0	38	104	0	60	61767
2026-01-30 01:50:28.69	326.26	14.20	-49.4	-64.7	3.6	1.51e+00	0	38	104	0	60	61970
2026-01-30 01:50:29.70	326.37	14.11	-49.4	-64.7	3.6	1.51e+00	0	38	104	0	60	61792
2026-01-30 01:50:30.71	326.48	14.03	-49.4	-64.7	3.6	1.51e+00	0	38	104	0	60	61902
2026-01-30 01:50:31.72	326.60	13.94	-49.4	-64.6	3.6	1.51e+00	0	38	104	0	60	61572
2026-01-30 01:50:32.73	326.71	13.86	-49.4	-64.7	3.6	1.51e+00	0	38	104	0	60	61834
2026-01-30 01:50:33.74	326.82	13.77	-49.4	-64.7	3.6	1.51e+00	0	38	104	0	60	61929
2026-01-30 01:50:34.75	326.93	13.68	-49.4	-64.6	3.6	1.51e+00	0	38	104	0	60	61663
2026-01-30 01:50:35.76	327.05	13.60	-49.4	-64.7	3.6	1.51e+00	0	38	104	0	60	62137
2026-01-30 01:50:36.77	327.16	13.51	-49.4	-64.7	3.6	1.51e+00	0	38	104	0	60	61856
2026-01-30 01:50:37.78	327.26	13.43	-49.4	-64.7	3.6	1.51e+00	0	38	104	0	60	61764
2026-01-30 01:50:38.79	327.37	13.35	-49.4	-64.7	3.6	1.51e+00	0	38	104	0	60	62063
2026-01-30 01:50:39.80	327.48	13.26	-49.4	-64.7	3.6	1.51e+00	0	38	104	0	60	61947
2026-01-30 01:50:40.81	327.59	13.18	-49.4	-64.6	3.6	1.51e+00	0	38	104	0	60	61486
2026-01-30 01:50:41.82	327.70	13.09	-49.4	-64.7	3.6	1.51e+00	0	38	104	0	60	62094
2026-01-30 01:50:42.83	327.80	13.01	-49.4	-64.7	3.6	1.51e+00	0	38	104	0	60	62181
2026-01-30 01:50:43.84	327.91	12.93	-49.4	-64.7	3.6	1.51e+00	0	38	104	0	60	61827
2026-01-30 01:50:44.85	328.02	12.84	-49.4	-64.7	3.5	1.51e+00	0	38	104	0	60	61814
2026-01-30 01:50:45.86	328.12	12.76	-49.4	-64.7	3.6	1.51e+00	0	38	104	0	60	61815
2026-01-30 01:50:46.87	328.23	12.68	-49.4	-64.7	3.6	1.51e+00	0	38	104	0	60	62297
2026-01-30 01:50:47.88	328.33	12.59	-49.4	-64.7	3.6	1.51e+00	0	38	104	0	60	61908
2026-01-30 01:50:48.89	328.43	12.51	-49.4	-64.6	3.6	1.51e+00	0	38	104	0	60	61692
2026-01-30 01:50:49.90	328.54	12.43	-49.4	-64.7	3.6	1.51e+00	0	38	104	0	60	62064
2026-01-30 01:50:50.91	328.64	12.35	-49.4	-64.6	3.6	1.51e+00	0	38	104	0	60	61731
2026-01-30 01:50:51.92	328.74	12.27	-49.4	-64.7	3.6	1.51e+00	0	38	104	0	60	61907
2026-01-30 01:50:52.94	328.84	12.18	-49.4	-64.7	3.6	1.51e+00	0	38	104	0	60	61900
2026-01-30 01:50:53.95	328.94	12.10	-49.4	-64.6	3.6	1.51e+00	0	38	104	0	60	61713
2026-01-30 01:50:54.96	329.04	12.02	-49.4	-64.7	3.6	1.51e+00	0	38	104	0	60	61790
2026-01-30 01:50:55.97	329.14	11.94	-49.4	-64.6	3.6	1.51e+00	0	38	104	0	60	61670
2026-01-30 01:50:56.98	329.24	11.86	-49.4	-64.7	3.6	1.51e+00	0	38	104	0	60	61753
2026-01-30 01:50:57.99	329.34	11.78	-49.4	-64.6	3.6	1.51e+00	0	38	104	0	60	61566
2026-01-30 01:50:59.00	329.44	11.70	-49.4	-64.7	3.6	1.51e+00	0	38	104	0	60	61764
2026-01-30 01:51:00.01	329.54	11.62	-49.4	-64.7	3.6	1.51e+00	0	38	104	0	60	62001
2026-01-30 01:51:01.02	329.63	11.54	-49.4	-64.6	3.6	1.51e+00	0	38	104	0	60	61569
2026-01-30 01:51:02.03	329.73	11.46	-49.4	-64.7	3.6	1.51e+00	0	38	104	0	60	62271
2026-01-30 01:51:03.04	329.82	11.38	-49.4	-64.6	3.6	1.51e+00	0	38	104	0	60	61674
2026-01-30 01:51:04.05	329.92	11.30	-49.4	-64.6	3.6	1.51e+00	0	38	104	0	60	61716
2026-01-30 01:51:05.06	330.02	11.22	-49.4	-64.7	3.6	1.51e+00	0	38	104	0	60	61837
2026-01-30 01:51:06.07	330.11	11.14	-49.4	-64.7	3.6	1.51e+00	0	38	104	0	60	61979
2026-01-30 01:51:07.08	330.20	11.06	-49.4	-64.6	3.6	1.51e+00	0	38	104	0	60	61620
2026-01-30 01:51:08.09	330.30	10.98	-49.4	-64.7	3.6	1.51e+00	0	38	104	0	60	61935
2026-01-30 01:51:09.10	330.39	10.90	-49.4	-64.7	3.6	1.51e+00	0	38	104	0	60	61821
2026-01-30 01:51:10.11	330.48	10.83	-49.4	-64.6	3.6	1.51e+00	0	38	104	0	60	61551
2026-01-30 01:51:11.12	330.58	10.75	-49.4	-64.7	3.6	1.51e+00	0	38	104	0	60	61792
2026-01-30 01:51:12.13	330.67	10.67	-49.4	-64.7	3.6	1.51e+00	0	38	104	0	60	61869
2026-01-30 01:51:13.14	330.76	10.59	-49.4	-64.7	3.6	1.51e+00	0	38	104	0	60	61778
2026-01-30 01:51:14.15	330.85	10.51	-49.4	-64.7	3.6	1.51e+00	0	38	104	0	60	61833
2026-01-30 01:51:15.16	330.94	10.44	-49.4	-64.6	3.6	1.51e+00	0	38	104	0	60	61428
2026-01-30 01:51:16.17	331.03	10.36	-49.4	-64.7	3.6	1.51e+00	0	38	104	0	60	61905
2026-01-30 01:51:17.18	331.12	10.28	-49.4	-64.6	3.5	1.51e+00	0	38	104	0	60	61440
2026-01-30 01:51:18.19	331.21	10.21	-49.4	-64.6	3.6	1.51e+00	0	38	104	0	60	61721
2026-01-30 01:51:19.20	331.30	10.13	-49.4	-64.6	3.6	1.51e+00	0	38	104	0	60	61667
2026-01-30 01:51:20.21	331.38	10.05	-49.4	-64.7	3.6	1.51e+00	0	38	104	0	60	61919
2026-01-30 01:51:21.22	331.47	9.98	-49.4	-64.7	3.6	1.51e+00	0	38	104	0	60	61756
2026-01-30 01:51:22.23	331.56	9.90	-49.4	-64.6	3.6	1.51e+00	0	38	104	0	60	61648
2026-01-30 01:51:23.24	331.65	9.82	-49.4	-64.6	3.6	1.51e+00	0	38	104	0	60	61681
2026-01-30 01:51:24.25	331.73	9.75	-49.4	-64.6	3.6	1.51e+00	0	38	104	0	60	61592
