passes_logs/2026/01/30/R4.6S_Anadyr/R4.6S_Anadyr__20260130_141935_FENGYUN_3D_rec.log

#Pass ID: 20260130_141935_FENGYUN 3D
#Satellite: FENGYUN 3D
#Configuration: FENGYUN 3D
#almurnet v.1.7.20251203
#Start time: 2026-01-30 14:19:36

#Version: 2.2.20231116
#Station: R4.6S_Anadyr
#Location: 177.4865 lon 64.73178 lat
#TLE: 1 43010U 17072A   26029.52179110  .00000394  00000+0  20818-3 0  9997
#TLE: 2 43010  98.9957   1.5649 0002507  83.7772 276.3689 14.19703315425310

#Time	Az	El	Level	Level2	SNR	BER	BlckErr	Temp	State	Recorded	gain1	gain2
2026-01-30 14:19:36.54	19.90	0.04	-49.5	-64.5	3.5	1.51e+00	0	38	0	0	60	60434
2026-01-30 14:19:37.54	19.98	0.08	-49.4	-61.6	3.6	8.46e-01	0	39	104	0	60	43354
2026-01-30 14:19:38.55	20.06	0.13	-49.5	-61.6	3.6	8.44e-01	0	40	104	0	60	43593
2026-01-30 14:19:39.56	20.14	0.18	-49.5	-61.6	3.6	8.45e-01	0	40	104	0	60	43440
2026-01-30 14:19:40.57	20.22	0.23	-49.4	-61.6	3.6	8.46e-01	0	40	104	0	60	43475
2026-01-30 14:19:41.58	20.30	0.27	-49.5	-61.7	3.6	8.46e-01	0	40	104	0	60	43716
2026-01-30 14:19:42.59	20.38	0.32	-49.5	-61.6	3.6	8.45e-01	0	40	104	0	60	43702
2026-01-30 14:19:43.60	20.46	0.37	-49.5	-61.7	3.6	8.45e-01	0	40	104	0	60	43911
2026-01-30 14:19:44.61	20.54	0.42	-49.5	-61.7	3.6	8.45e-01	0	40	104	0	60	43848
2026-01-30 14:19:45.62	20.62	0.46	-49.6	-61.7	3.6	8.45e-01	0	40	104	0	60	44090
2026-01-30 14:19:46.63	20.70	0.51	-49.5	-61.7	3.6	8.45e-01	0	40	104	0	60	43960
2026-01-30 14:19:47.64	20.78	0.56	-49.6	-61.7	3.6	8.45e-01	0	40	104	0	60	43914
2026-01-30 14:19:48.65	20.87	0.61	-49.5	-61.7	3.6	8.45e-01	0	40	104	0	60	43920
2026-01-30 14:19:49.65	20.95	0.66	-49.5	-61.7	3.6	8.44e-01	0	40	104	0	60	43740
2026-01-30 14:19:50.66	21.03	0.70	-49.5	-61.6	3.6	8.46e-01	0	40	104	0	60	43214
2026-01-30 14:19:51.67	21.11	0.75	-49.4	-61.6	3.6	8.45e-01	0	40	104	0	60	43326
2026-01-30 14:19:52.68	21.20	0.80	-49.3	-61.5	3.6	8.45e-01	0	40	104	0	60	42722
2026-01-30 14:19:53.69	21.28	0.85	-49.2	-61.4	3.6	8.46e-01	0	40	104	0	60	42249
2026-01-30 14:19:54.70	21.36	0.90	-49.2	-61.3	3.6	8.45e-01	0	40	104	0	60	41826
2026-01-30 14:19:55.71	21.45	0.94	-49.1	-61.2	3.6	8.46e-01	0	40	104	0	60	41578
2026-01-30 14:19:56.73	21.53	0.99	-49.0	-61.1	3.6	8.43e-01	0	40	104	0	60	40805
2026-01-30 14:19:57.74	21.62	1.04	-48.9	-61.0	3.6	8.46e-01	0	40	104	0	60	40606
2026-01-30 14:19:58.74	21.70	1.09	-48.8	-60.9	3.6	8.45e-01	0	40	104	0	60	39943
2026-01-30 14:19:59.76	21.79	1.14	-48.5	-60.6	3.6	8.45e-01	0	40	104	0	60	38603
2026-01-30 14:20:00.76	21.87	1.18	-48.2	-60.2	3.6	8.46e-01	0	40	104	0	60	37034
2026-01-30 14:20:01.77	21.95	1.23	-48.0	-60.1	3.6	8.45e-01	0	40	104	0	60	36359
2026-01-30 14:20:02.78	22.04	1.28	-48.0	-60.0	3.6	8.45e-01	0	40	104	0	60	36241
2026-01-30 14:20:03.79	22.13	1.33	-48.0	-60.0	3.6	8.46e-01	0	40	104	0	60	36289
2026-01-30 14:20:04.80	22.21	1.38	-48.0	-60.0	3.6	8.45e-01	0	40	104	0	60	36308
2026-01-30 14:20:05.81	22.30	1.43	-48.0	-60.0	3.6	8.45e-01	0	40	104	0	60	36233
2026-01-30 14:20:06.82	22.39	1.48	-48.0	-60.0	3.6	8.45e-01	0	40	104	0	60	36031
2026-01-30 14:20:07.83	22.47	1.52	-48.0	-60.0	3.6	8.44e-01	0	40	104	0	60	36212
2026-01-30 14:20:08.84	22.56	1.57	-48.0	-60.0	3.6	8.45e-01	0	40	104	0	60	36174
2026-01-30 14:20:09.85	22.65	1.62	-48.0	-60.0	3.6	8.44e-01	0	40	104	0	60	36135
2026-01-30 14:20:10.86	22.74	1.67	-47.9	-60.0	3.6	8.46e-01	0	40	104	0	60	36283
2026-01-30 14:20:11.88	22.82	1.72	-48.0	-60.1	3.6	8.45e-01	0	40	104	0	60	36488
2026-01-30 14:20:12.88	22.91	1.77	-48.0	-60.1	3.6	8.46e-01	0	40	104	0	60	36574
2026-01-30 14:20:13.89	23.00	1.82	-48.0	-60.0	3.6	8.45e-01	0	40	104	0	60	36328
2026-01-30 14:20:14.90	23.09	1.86	-48.0	-60.0	3.6	8.47e-01	0	40	104	0	60	36165
2026-01-30 14:20:15.91	23.18	1.91	-47.9	-59.9	3.6	8.44e-01	0	40	104	0	60	35739
2026-01-30 14:20:16.92	23.27	1.96	-47.9	-59.8	3.6	8.45e-01	0	40	104	0	60	35223
2026-01-30 14:20:17.93	23.36	2.01	-47.9	-59.8	3.6	8.45e-01	0	40	104	0	60	35394
2026-01-30 14:20:18.94	23.45	2.06	-47.9	-59.8	3.6	8.46e-01	0	40	104	0	60	35254
2026-01-30 14:20:19.95	23.54	2.11	-47.9	-59.9	3.6	8.44e-01	0	40	104	0	60	35697
2026-01-30 14:20:20.96	23.63	2.16	-47.9	-59.9	3.6	8.45e-01	0	40	104	0	60	35776
2026-01-30 14:20:21.97	23.72	2.21	-47.9	-59.9	3.6	8.46e-01	0	40	104	0	60	35811
2026-01-30 14:20:22.98	23.81	2.26	-47.9	-60.0	3.6	8.45e-01	0	40	104	0	60	36076
2026-01-30 14:20:24.00	23.90	2.30	-47.9	-60.0	3.6	8.46e-01	0	40	104	0	60	35994
2026-01-30 14:20:25.01	23.99	2.35	-47.9	-59.5	3.6	8.45e-01	0	40	104	0	60	34063
2026-01-30 14:20:26.02	24.09	2.40	-47.8	-58.3	3.6	8.45e-01	0	40	104	0	60	29662
2026-01-30 14:20:27.03	24.18	2.45	-47.7	-57.4	3.6	8.43e-01	0	40	104	0	60	26906
2026-01-30 14:20:28.04	24.27	2.50	-47.8	-58.7	3.6	8.44e-01	0	40	104	0	60	31018
2026-01-30 14:20:29.05	24.36	2.55	-47.8	-58.9	3.6	8.45e-01	0	40	104	0	60	31825
2026-01-30 14:20:30.06	24.46	2.60	-47.0	-53.4	5.8	8.39e-01	0	40	104	0	60	16883
2026-01-30 14:20:31.07	24.55	2.65	-44.8	-47.6	11.2	1.11e-02	0	40	0	2097152	60	8711
2026-01-30 14:20:32.08	24.64	2.70	-42.1	-43.7	15.3	5.70e-06	0	41	0	7340032	58	6191
2026-01-30 14:20:33.09	24.74	2.75	-39.6	-40.7	18.4	0.00e+00	0	40	0	13631488	54	5523
2026-01-30 14:20:34.10	24.83	2.80	-38.1	-39.1	20.0	0.00e+00	0	40	0	18874368	50	5782
2026-01-30 14:20:35.11	24.93	2.85	-37.3	-38.2	21.0	0.00e+00	0	40	0	25165824	48	5830
2026-01-30 14:20:36.12	25.02	2.89	-37.1	-38.0	21.1	0.00e+00	0	40	0	30408704	48	5703
2026-01-30 14:20:37.13	25.12	2.94	-37.6	-38.5	20.5	0.00e+00	0	40	0	36700160	46	6776
2026-01-30 14:20:38.14	25.21	2.99	-38.3	-39.3	19.7	0.00e+00	0	40	0	41943040	48	6617
2026-01-30 14:20:39.15	25.31	3.04	-40.2	-41.4	18.2	0.00e+00	0	40	0	48234496	52	6748
2026-01-30 14:20:40.16	25.41	3.09	-37.5	-38.4	21.3	0.00e+00	0	40	0	53477376	48	5981
2026-01-30 14:20:41.17	25.50	3.14	-47.6	-58.2	3.8	5.48e-01	0	40	104	56623104	60	29265
2026-01-30 14:20:42.18	25.60	3.19	-44.8	-47.5	11.9	3.21e-03	0	40	0	57671680	60	8580
2026-01-30 14:20:43.19	25.70	3.24	-39.7	-40.9	18.8	0.00e+00	0	40	0	62914560	54	5633
2026-01-30 14:20:44.20	25.79	3.29	-47.9	-58.3	3.7	8.42e-01	0	40	104	67108864	60	29603
2026-01-30 14:20:45.21	25.89	3.34	-39.4	-40.5	18.7	0.00e+00	0	40	0	68157440	52	6056
2026-01-30 14:20:46.21	25.99	3.39	-38.3	-39.3	19.9	0.00e+00	0	40	0	73400320	50	5945
2026-01-30 14:20:47.23	26.09	3.44	-38.2	-39.1	20.1	0.00e+00	0	41	0	79691776	50	5810
2026-01-30 14:20:48.23	26.18	3.49	-37.6	-38.5	20.7	0.00e+00	0	40	0	84934656	48	6077
2026-01-30 14:20:49.25	26.28	3.54	-37.1	-37.9	21.2	0.00e+00	0	40	0	90177536	48	5691
2026-01-30 14:20:50.25	26.38	3.59	-36.9	-37.8	21.4	0.00e+00	0	40	0	96468992	48	5590
2026-01-30 14:20:51.26	26.48	3.64	-37.6	-38.5	20.7	0.00e+00	0	40	0	101711872	48	6042
2026-01-30 14:20:52.27	26.58	3.69	-36.7	-37.6	21.5	0.00e+00	0	40	0	108003328	48	5474
2026-01-30 14:20:53.29	26.68	3.74	-37.1	-38.0	21.4	0.00e+00	0	40	0	113246208	46	6406
2026-01-30 14:20:54.30	26.78	3.79	-36.5	-37.3	21.9	0.00e+00	0	40	0	119537664	46	5943
2026-01-30 14:20:55.31	26.88	3.84	-36.6	-37.5	22.0	0.00e+00	0	40	0	124780544	46	6040
2026-01-30 14:20:56.32	26.99	3.89	-36.4	-37.2	21.9	0.00e+00	0	40	0	131072000	46	5887
2026-01-30 14:20:57.32	27.09	3.94	-36.6	-37.4	21.9	0.00e+00	0	40	0	136314880	46	6000
2026-01-30 14:20:58.34	27.19	3.99	-36.5	-37.3	21.7	0.00e+00	0	41	0	141557760	46	5962
2026-01-30 14:20:59.35	27.29	4.04	-36.7	-37.5	21.7	0.00e+00	0	40	0	147849216	46	6089
2026-01-30 14:21:00.35	27.39	4.09	-36.5	-37.2	22.0	0.00e+00	0	41	0	153092096	46	5894
2026-01-30 14:21:01.36	27.50	4.14	-36.6	-37.4	21.8	0.00e+00	0	40	0	159383552	46	6016
2026-01-30 14:21:02.37	27.60	4.19	-36.7	-37.5	21.7	0.00e+00	0	41	0	164626432	46	6068
2026-01-30 14:21:03.38	27.70	4.24	-36.3	-37.1	22.1	0.00e+00	0	41	0	169869312	46	5820
2026-01-30 14:21:04.39	27.81	4.29	-36.3	-37.1	22.1	0.00e+00	0	40	0	176160768	46	5822
2026-01-30 14:21:05.40	27.91	4.34	-36.3	-37.1	22.2	0.00e+00	0	40	0	181403648	46	5822
2026-01-30 14:21:06.41	28.02	4.39	-36.2	-37.0	22.2	0.00e+00	0	41	0	187695104	46	5756
2026-01-30 14:21:07.42	28.12	4.44	-35.9	-36.7	22.5	0.00e+00	0	40	0	192937984	46	5565
2026-01-30 14:21:08.43	28.23	4.49	-36.3	-37.1	22.2	0.00e+00	0	41	0	198180864	46	5763
2026-01-30 14:21:09.43	28.33	4.54	-36.1	-36.9	22.3	0.00e+00	0	40	0	204472320	46	5695
2026-01-30 14:21:10.44	28.44	4.59	-36.5	-37.3	22.0	0.00e+00	0	40	0	209715200	46	5956
2026-01-30 14:21:11.45	28.54	4.64	-36.6	-37.5	21.9	0.00e+00	0	41	0	216006656	46	6048
2026-01-30 14:21:12.46	28.65	4.69	-36.5	-37.3	22.1	0.00e+00	0	41	0	221249536	46	5937
2026-01-30 14:21:13.47	28.76	4.74	-36.4	-37.2	22.1	0.00e+00	0	41	0	227540992	46	5870
2026-01-30 14:21:14.48	28.86	4.79	-36.1	-36.9	22.5	0.00e+00	0	41	0	232783872	46	5683
2026-01-30 14:21:15.49	28.97	4.84	-36.4	-37.2	22.1	0.00e+00	0	41	0	238026752	46	5856
2026-01-30 14:21:16.50	29.08	4.89	-36.4	-37.2	22.1	0.00e+00	0	40	0	244318208	46	5871
2026-01-30 14:21:17.51	29.19	4.94	-35.9	-36.7	22.6	0.00e+00	0	40	0	249561088	46	5510
2026-01-30 14:21:18.52	29.30	4.99	-36.0	-36.8	22.6	0.00e+00	0	40	0	255852544	46	5580
2026-01-30 14:21:19.53	29.40	5.04	-35.7	-36.5	22.8	0.00e+00	0	41	0	261095424	44	6055
2026-01-30 14:21:20.55	29.52	5.09	-36.2	-37.0	22.3	0.00e+00	0	40	0	266338304	44	6392
2026-01-30 14:21:21.55	29.62	5.14	-36.2	-37.0	22.4	0.00e+00	0	40	0	272629760	44	6403
2026-01-30 14:21:22.56	29.73	5.19	-36.2	-37.0	22.4	0.00e+00	0	41	0	277872640	44	6413
2026-01-30 14:21:23.57	29.84	5.24	-36.7	-37.5	22.0	0.00e+00	0	40	0	284164096	44	6793
2026-01-30 14:21:24.58	29.96	5.29	-36.8	-37.6	21.9	0.00e+00	0	40	0	289406976	46	6141
2026-01-30 14:21:25.59	30.07	5.34	-36.5	-37.3	22.2	0.00e+00	0	41	0	294649856	46	5913
2026-01-30 14:21:26.60	30.18	5.39	-36.6	-37.5	22.0	0.00e+00	0	40	0	300941312	46	6051
2026-01-30 14:21:27.61	30.29	5.44	-36.4	-37.2	22.4	0.00e+00	0	40	0	306184192	46	5846
2026-01-30 14:21:28.62	30.40	5.49	-36.4	-37.2	22.2	0.00e+00	0	41	0	312475648	46	5860
2026-01-30 14:21:29.63	30.52	5.54	-35.7	-36.5	22.9	0.00e+00	0	41	0	317718528	46	5407
2026-01-30 14:21:30.64	30.63	5.59	-36.0	-36.8	22.5	0.00e+00	0	41	0	324009984	44	6299
2026-01-30 14:21:31.65	30.74	5.64	-35.6	-36.4	22.8	0.00e+00	0	41	0	329252864	44	5984
2026-01-30 14:21:32.66	30.86	5.69	-35.5	-36.3	23.1	0.00e+00	0	41	0	335544320	44	5900
2026-01-30 14:21:33.67	30.97	5.74	-35.7	-36.5	23.0	0.00e+00	0	41	0	340787200	44	6046
2026-01-30 14:21:34.68	31.08	5.79	-35.5	-36.3	23.2	0.00e+00	0	41	0	346030080	44	5922
2026-01-30 14:21:35.69	31.20	5.84	-35.6	-36.3	23.1	0.00e+00	0	41	0	352321536	44	5947
2026-01-30 14:21:36.70	31.31	5.89	-35.5	-36.3	23.1	0.00e+00	0	40	0	357564416	44	5914
2026-01-30 14:21:37.71	31.43	5.94	-35.5	-36.3	23.1	0.00e+00	0	41	0	363855872	44	5914
2026-01-30 14:21:38.72	31.55	5.99	-35.6	-36.3	23.1	0.00e+00	0	41	0	369098752	44	5963
2026-01-30 14:21:39.73	31.66	6.04	-35.7	-36.5	23.0	0.00e+00	0	41	0	374341632	44	6038
2026-01-30 14:21:40.74	31.78	6.09	-35.6	-36.3	23.1	0.00e+00	0	41	0	380633088	44	5947
2026-01-30 14:21:41.75	31.90	6.14	-35.5	-36.3	23.2	0.00e+00	0	41	0	385875968	44	5911
2026-01-30 14:21:42.76	32.02	6.19	-35.6	-36.3	23.2	0.00e+00	0	41	0	392167424	44	5951
2026-01-30 14:21:43.77	32.13	6.24	-35.7	-36.4	23.1	0.00e+00	0	41	0	397410304	44	6017
2026-01-30 14:21:44.78	32.25	6.30	-35.4	-36.1	23.3	0.00e+00	0	41	0	402653184	44	5808
2026-01-30 14:21:45.79	32.37	6.35	-35.3	-36.1	23.4	0.00e+00	0	41	0	408944640	44	5795
2026-01-30 14:21:46.80	32.49	6.40	-35.2	-36.0	23.4	0.00e+00	0	41	0	414187520	44	5720
2026-01-30 14:21:47.81	32.61	6.45	-35.5	-36.2	23.2	0.00e+00	0	41	0	420478976	44	5888
2026-01-30 14:21:48.82	32.73	6.50	-35.5	-36.2	23.3	0.00e+00	0	41	0	425721856	44	5896
2026-01-30 14:21:49.83	32.85	6.55	-35.2	-36.0	23.5	0.00e+00	0	41	0	432013312	44	5712
2026-01-30 14:21:50.84	32.97	6.60	-35.2	-35.9	23.6	0.00e+00	0	41	0	437256192	44	5662
2026-01-30 14:21:51.86	33.09	6.65	-35.3	-36.0	23.4	0.00e+00	0	41	0	443547648	44	5738
2026-01-30 14:21:52.87	33.21	6.70	-35.1	-35.8	23.6	0.00e+00	0	41	0	448790528	44	5628
2026-01-30 14:21:53.88	33.34	6.75	-35.1	-35.9	23.6	0.00e+00	0	41	0	454033408	44	5643
2026-01-30 14:21:54.89	33.46	6.80	-34.8	-35.5	23.9	0.00e+00	0	41	0	460324864	44	5436
2026-01-30 14:21:55.90	33.58	6.85	-34.9	-35.7	23.8	0.00e+00	0	41	0	465567744	44	5518
2026-01-30 14:21:56.90	33.70	6.90	-35.0	-35.8	23.7	0.00e+00	0	41	0	471859200	44	5579
2026-01-30 14:21:57.91	33.83	6.95	-35.2	-35.9	23.5	0.00e+00	0	41	0	477102080	44	5689
2026-01-30 14:21:58.92	33.95	7.00	-35.1	-35.9	23.6	0.00e+00	0	41	0	482344960	44	5654
2026-01-30 14:21:59.93	34.08	7.05	-35.3	-36.1	23.4	0.00e+00	0	41	0	488636416	44	5763
2026-01-30 14:22:00.94	34.20	7.10	-35.3	-36.0	23.5	0.00e+00	0	41	0	493879296	44	5744
2026-01-30 14:22:01.95	34.33	7.15	-35.0	-35.7	23.8	0.00e+00	0	41	0	500170752	44	5538
2026-01-30 14:22:02.96	34.45	7.20	-35.1	-35.9	23.7	0.00e+00	0	41	0	505413632	44	5631
2026-01-30 14:22:03.97	34.58	7.25	-35.2	-35.9	23.6	0.00e+00	0	41	0	510656512	44	5675
2026-01-30 14:22:04.98	34.70	7.30	-35.0	-35.8	23.8	0.00e+00	0	41	0	516947968	44	5585
2026-01-30 14:22:05.99	34.83	7.35	-35.0	-35.7	23.8	0.00e+00	0	41	0	522190848	44	5541
2026-01-30 14:22:07.00	34.96	7.40	-35.1	-35.9	23.7	0.00e+00	0	41	0	528482304	44	5649
2026-01-30 14:22:08.01	35.09	7.45	-35.2	-35.9	23.6	0.00e+00	0	41	0	533725184	44	5679
2026-01-30 14:22:09.01	35.21	7.50	-35.1	-35.9	23.6	0.00e+00	0	41	0	540016640	44	5645
2026-01-30 14:22:10.03	35.34	7.55	-35.2	-36.0	23.6	0.00e+00	0	41	0	545259520	44	5725
2026-01-30 14:22:11.03	35.47	7.60	-35.0	-35.8	23.8	0.00e+00	0	41	0	550502400	44	5569
2026-01-30 14:22:12.05	35.60	7.65	-35.3	-36.0	23.6	0.00e+00	0	41	0	556793856	44	5755
2026-01-30 14:22:13.06	35.73	7.70	-34.9	-35.6	23.9	0.00e+00	0	41	0	562036736	44	5498
2026-01-30 14:22:14.07	35.86	7.75	-34.7	-35.4	24.1	0.00e+00	0	41	0	568328192	42	6000
2026-01-30 14:22:15.08	35.99	7.80	-34.6	-35.3	24.2	0.00e+00	0	41	0	573571072	42	5928
2026-01-30 14:22:16.09	36.12	7.85	-34.7	-35.4	24.2	0.00e+00	0	41	0	578813952	42	5992
2026-01-30 14:22:17.10	36.26	7.90	-34.7	-35.4	24.2	0.00e+00	0	41	0	585105408	42	5976
2026-01-30 14:22:18.11	36.39	7.95	-34.6	-35.3	24.3	0.00e+00	0	41	0	590348288	42	5918
2026-01-30 14:22:19.12	36.52	8.00	-34.7	-35.5	24.1	0.00e+00	0	41	0	596639744	42	6039
2026-01-30 14:22:20.13	36.65	8.05	-34.4	-35.1	24.4	0.00e+00	0	41	0	601882624	42	5806
2026-01-30 14:22:21.14	36.79	8.10	-34.5	-35.1	24.4	0.00e+00	0	41	0	607125504	42	5828
2026-01-30 14:22:22.15	36.92	8.15	-34.7	-35.4	24.2	0.00e+00	0	41	0	613416960	42	5975
2026-01-30 14:22:23.16	37.06	8.20	-34.7	-35.4	24.2	0.00e+00	0	41	0	618659840	42	5968
2026-01-30 14:22:24.17	37.19	8.25	-34.8	-35.5	24.0	0.00e+00	0	41	0	624951296	42	6072
2026-01-30 14:22:25.18	37.33	8.30	-34.9	-35.6	24.0	0.00e+00	0	41	0	630194176	42	6151
2026-01-30 14:22:26.19	37.46	8.35	-34.6	-35.3	24.3	0.00e+00	0	41	0	636485632	42	5944
2026-01-30 14:22:27.20	37.60	8.40	-34.8	-35.5	24.1	0.00e+00	0	41	0	641728512	42	6057
2026-01-30 14:22:28.21	37.73	8.45	-34.7	-35.4	24.1	0.00e+00	0	41	0	648019968	42	5984
2026-01-30 14:22:29.22	37.87	8.50	-34.6	-35.3	24.1	0.00e+00	0	41	0	653262848	42	5952
2026-01-30 14:22:30.23	38.01	8.55	-34.6	-35.3	24.2	0.00e+00	0	41	0	658505728	42	5964
2026-01-30 14:22:31.24	38.15	8.60	-34.5	-35.3	24.3	0.00e+00	0	41	0	664797184	42	5909
2026-01-30 14:22:32.25	38.28	8.65	-34.5	-35.2	24.3	0.00e+00	0	41	0	670040064	42	5858
2026-01-30 14:22:33.26	38.42	8.70	-34.5	-35.3	24.3	0.00e+00	0	41	0	676331520	42	5897
2026-01-30 14:22:34.27	38.56	8.75	-34.7	-35.4	24.2	0.00e+00	0	41	0	681574400	42	6000
2026-01-30 14:22:35.28	38.70	8.79	-34.7	-35.4	24.2	0.00e+00	0	41	0	686817280	42	6033
2026-01-30 14:22:36.29	38.84	8.84	-34.5	-35.2	24.3	0.00e+00	0	41	0	693108736	42	5896
2026-01-30 14:22:37.30	38.98	8.89	-34.5	-35.2	24.3	0.00e+00	0	41	0	698351616	42	5892
2026-01-30 14:22:38.31	39.12	8.94	-34.7	-35.5	24.2	0.00e+00	0	41	0	704643072	42	6035
2026-01-30 14:22:39.32	39.27	8.99	-34.7	-35.4	24.2	0.00e+00	0	41	0	709885952	42	6031
2026-01-30 14:22:40.33	39.41	9.04	-34.6	-35.3	24.3	0.00e+00	0	41	0	715128832	42	5951
2026-01-30 14:22:41.34	39.55	9.09	-34.5	-35.2	24.5	0.00e+00	0	41	0	721420288	42	5854
2026-01-30 14:22:42.34	39.69	9.14	-34.5	-35.2	24.4	0.00e+00	0	41	0	726663168	42	5875
2026-01-30 14:22:43.35	39.83	9.19	-34.5	-35.2	24.5	0.00e+00	0	41	0	732954624	42	5890
2026-01-30 14:22:44.37	39.98	9.24	-34.4	-35.1	24.5	0.00e+00	0	41	0	738197504	42	5795
2026-01-30 14:22:45.38	40.12	9.28	-34.4	-35.1	24.5	0.00e+00	0	41	0	744488960	42	5825
2026-01-30 14:22:46.39	40.27	9.33	-34.4	-35.1	24.5	0.00e+00	0	41	0	749731840	42	5828
2026-01-30 14:22:47.40	40.41	9.38	-34.6	-35.4	24.3	0.00e+00	0	41	0	754974720	42	5973
2026-01-30 14:22:48.41	40.56	9.43	-34.3	-35.0	24.6	0.00e+00	0	41	0	761266176	42	5722
2026-01-30 14:22:49.42	40.71	9.48	-34.3	-35.0	24.6	0.00e+00	0	41	0	766509056	42	5722
2026-01-30 14:22:50.43	40.85	9.53	-34.2	-34.9	24.8	0.00e+00	0	41	0	772800512	42	5666
2026-01-30 14:22:51.44	41.00	9.58	-34.2	-34.9	24.8	0.00e+00	0	41	0	778043392	42	5669
2026-01-30 14:22:52.45	41.15	9.62	-34.2	-34.9	24.7	0.00e+00	0	41	0	783286272	42	5664
2026-01-30 14:22:53.46	41.30	9.67	-34.1	-34.8	24.8	0.00e+00	0	41	0	789577728	42	5612
2026-01-30 14:22:54.47	41.44	9.72	-34.2	-34.9	24.8	0.00e+00	0	41	0	794820608	42	5637
2026-01-30 14:22:55.48	41.59	9.77	-34.1	-34.8	24.8	0.00e+00	0	41	0	801112064	42	5597
2026-01-30 14:22:56.49	41.74	9.82	-34.1	-34.8	24.8	0.00e+00	0	41	0	806354944	42	5607
2026-01-30 14:22:57.50	41.89	9.86	-34.1	-34.7	24.8	0.00e+00	0	41	0	811597824	42	5556
2026-01-30 14:22:58.51	42.04	9.91	-34.1	-34.8	24.8	0.00e+00	0	41	0	817889280	42	5589
2026-01-30 14:22:59.52	42.19	9.96	-34.1	-34.8	24.9	0.00e+00	0	41	0	823132160	42	5595
2026-01-30 14:23:00.53	42.35	10.01	-34.2	-34.9	24.8	0.00e+00	0	41	0	829423616	42	5647
2026-01-30 14:23:01.54	42.50	10.05	-34.0	-34.7	25.0	0.00e+00	0	41	0	834666496	42	5524
2026-01-30 14:23:02.55	42.65	10.10	-34.0	-34.7	24.9	0.00e+00	0	41	0	840957952	42	5529
2026-01-30 14:23:03.56	42.80	10.15	-34.0	-34.7	24.9	0.00e+00	0	41	0	846200832	42	5537
2026-01-30 14:23:04.57	42.96	10.20	-34.0	-34.7	25.0	0.00e+00	0	41	0	852492288	42	5510
2026-01-30 14:23:05.58	43.11	10.24	-34.0	-34.7	25.0	0.00e+00	0	41	0	857735168	42	5504
2026-01-30 14:23:06.59	43.26	10.29	-34.0	-34.7	25.0	0.00e+00	0	41	0	862978048	42	5512
2026-01-30 14:23:07.60	43.42	10.34	-34.0	-34.7	25.0	0.00e+00	0	41	0	869269504	42	5525
2026-01-30 14:23:08.61	43.57	10.39	-34.1	-34.8	24.8	0.00e+00	0	41	0	874512384	42	5591
2026-01-30 14:23:09.62	43.73	10.43	-34.0	-34.7	25.0	0.00e+00	0	41	0	880803840	42	5552
2026-01-30 14:23:10.63	43.89	10.48	-34.2	-34.9	24.8	0.00e+00	0	41	0	886046720	42	5677
2026-01-30 14:23:11.64	44.04	10.53	-34.2	-34.8	24.7	0.00e+00	0	41	0	891289600	42	5630
2026-01-30 14:23:12.65	44.20	10.57	-34.2	-34.9	24.8	0.00e+00	0	41	0	897581056	42	5634
2026-01-30 14:23:13.66	44.36	10.62	-34.1	-34.8	24.8	0.00e+00	0	41	0	902823936	42	5615
2026-01-30 14:23:14.67	44.52	10.67	-34.1	-34.8	24.7	0.00e+00	0	41	0	909115392	42	5622
2026-01-30 14:23:15.68	44.67	10.71	-34.0	-34.7	24.9	0.00e+00	0	41	0	914358272	42	5534
2026-01-30 14:23:16.69	44.83	10.76	-33.7	-34.3	25.2	0.00e+00	0	41	0	919601152	40	5960
2026-01-30 14:23:17.70	44.99	10.80	-33.9	-34.6	25.0	0.00e+00	0	41	0	925892608	40	6107
2026-01-30 14:23:18.71	45.15	10.85	-33.7	-34.4	25.2	0.00e+00	0	41	0	931135488	40	5993
2026-01-30 14:23:19.71	45.31	10.90	-33.9	-34.6	25.0	0.00e+00	0	41	0	937426944	40	6116
2026-01-30 14:23:20.72	45.47	10.94	-33.9	-34.5	25.0	0.00e+00	0	41	0	942669824	40	6090
2026-01-30 14:23:21.73	45.63	10.99	-33.9	-34.6	25.1	0.00e+00	0	41	0	948961280	40	6115
2026-01-30 14:23:22.74	45.80	11.03	-33.7	-34.4	25.3	0.00e+00	0	41	0	954204160	40	5983
2026-01-30 14:23:23.75	45.96	11.08	-33.5	-34.2	25.4	0.00e+00	0	41	0	960495616	40	5863
2026-01-30 14:23:24.76	46.12	11.12	-33.5	-34.2	25.4	0.00e+00	0	41	0	965738496	40	5867
2026-01-30 14:23:25.77	46.29	11.17	-33.5	-34.2	25.5	0.00e+00	0	41	0	970981376	40	5861
2026-01-30 14:23:26.78	46.45	11.21	-33.6	-34.3	25.3	0.00e+00	0	41	0	977272832	40	5927
2026-01-30 14:23:27.79	46.61	11.26	-33.6	-34.2	25.4	0.00e+00	0	41	0	982515712	40	5878
2026-01-30 14:23:28.80	46.78	11.30	-33.6	-34.3	25.3	0.00e+00	0	41	0	987758592	40	5914
2026-01-30 14:23:29.81	46.94	11.35	-33.6	-34.2	25.3	0.00e+00	0	41	0	994050048	40	5882
2026-01-30 14:23:30.82	47.11	11.39	-33.6	-34.2	25.4	0.00e+00	0	41	0	999292928	40	5892
2026-01-30 14:23:31.83	47.28	11.44	-33.6	-34.2	25.4	0.00e+00	0	41	0	1005584384	40	5892
2026-01-30 14:23:32.83	47.44	11.48	-33.5	-34.2	25.4	0.00e+00	0	41	0	1010827264	40	5871
2026-01-30 14:23:33.84	47.61	11.53	-33.4	-34.0	25.6	0.00e+00	0	41	0	1016070144	40	5715
2026-01-30 14:23:34.85	47.78	11.57	-33.3	-34.0	25.6	0.00e+00	0	41	0	1022361600	40	5732
2026-01-30 14:23:35.86	47.95	11.61	-33.4	-34.1	25.5	0.00e+00	0	41	0	1027604480	40	5778
2026-01-30 14:23:36.87	48.11	11.66	-33.4	-34.0	25.5	0.00e+00	0	41	0	1033895936	40	5750
2026-01-30 14:23:37.88	48.28	11.70	-33.4	-34.0	25.6	0.00e+00	0	41	0	1039138816	40	5720
2026-01-30 14:23:38.89	48.45	11.74	-33.4	-34.0	25.5	0.00e+00	0	41	0	1045430272	40	5748
2026-01-30 14:23:39.90	48.62	11.79	-33.5	-34.2	25.5	0.00e+00	0	41	0	1050673152	40	5843
2026-01-30 14:23:40.91	48.80	11.83	-33.5	-34.1	25.4	0.00e+00	0	41	0	1056964608	40	5810
2026-01-30 14:23:41.92	48.97	11.87	-33.4	-34.0	25.5	0.00e+00	0	41	0	1062207488	40	5748
2026-01-30 14:23:42.93	49.14	11.92	-33.5	-34.1	25.4	0.00e+00	0	41	0	1067450368	40	5803
2026-01-30 14:23:43.94	49.31	11.96	-33.5	-34.2	25.3	0.00e+00	0	41	0	1073741824	40	5854
2026-01-30 14:23:44.95	49.48	12.00	-33.5	-34.2	25.3	0.00e+00	0	41	0	1078984704	40	5830
2026-01-30 14:23:45.96	49.66	12.04	-33.5	-34.2	25.3	0.00e+00	0	41	0	1085276160	40	5844
2026-01-30 14:23:46.97	49.83	12.09	-33.6	-34.2	25.2	0.00e+00	0	41	0	1090519040	40	5874
2026-01-30 14:23:47.98	50.00	12.13	-33.6	-34.2	25.3	0.00e+00	0	41	0	1095761920	40	5886
2026-01-30 14:23:48.99	50.18	12.17	-33.5	-34.2	25.4	0.00e+00	0	41	0	1102053376	40	5882
2026-01-30 14:23:50.00	50.35	12.21	-33.6	-34.2	25.4	0.00e+00	0	41	0	1107296256	40	5879
2026-01-30 14:23:51.01	50.53	12.25	-33.5	-34.2	25.5	0.00e+00	0	41	0	1113587712	40	5831
2026-01-30 14:23:52.02	50.71	12.29	-33.3	-34.0	25.6	0.00e+00	0	41	0	1118830592	40	5728
2026-01-30 14:23:53.03	50.88	12.34	-33.3	-33.9	25.7	0.00e+00	0	41	0	1124073472	40	5674
2026-01-30 14:23:54.04	51.06	12.38	-33.3	-34.0	25.7	0.00e+00	0	41	0	1130364928	40	5700
2026-01-30 14:23:55.05	51.24	12.42	-33.1	-33.8	25.9	0.00e+00	0	41	0	1135607808	40	5583
2026-01-30 14:23:56.06	51.42	12.46	-33.3	-33.9	25.7	0.00e+00	0	41	0	1141899264	40	5663
2026-01-30 14:23:57.07	51.59	12.50	-33.2	-33.8	25.8	0.00e+00	0	41	0	1147142144	40	5610
2026-01-30 14:23:58.08	51.77	12.54	-33.2	-33.9	25.8	0.00e+00	0	41	0	1153433600	40	5645
2026-01-30 14:23:59.09	51.95	12.58	-33.3	-34.0	25.6	0.00e+00	0	41	0	1158676480	40	5712
2026-01-30 14:24:00.10	52.13	12.62	-33.4	-34.1	25.6	0.00e+00	0	41	0	1164967936	40	5812
2026-01-30 14:24:01.11	52.31	12.66	-33.6	-34.2	25.4	0.00e+00	0	41	0	1170210816	40	5881
2026-01-30 14:24:02.12	52.49	12.70	-33.5	-34.2	25.4	0.00e+00	0	41	0	1175453696	40	5879
2026-01-30 14:24:03.13	52.68	12.74	-33.5	-34.1	25.4	0.00e+00	0	41	0	1181745152	40	5803
2026-01-30 14:24:04.14	52.86	12.78	-33.3	-34.0	25.6	0.00e+00	0	41	0	1186988032	40	5718
2026-01-30 14:24:05.15	53.04	12.82	-33.2	-33.9	25.7	0.00e+00	0	41	0	1193279488	40	5683
2026-01-30 14:24:06.16	53.22	12.85	-33.2	-33.8	25.8	0.00e+00	0	41	0	1198522368	40	5616
2026-01-30 14:24:07.17	53.41	12.89	-33.1	-33.8	25.8	0.00e+00	0	41	0	1203765248	40	5586
2026-01-30 14:24:08.18	53.59	12.93	-32.9	-33.6	26.0	0.00e+00	0	41	0	1210056704	40	5470
2026-01-30 14:24:09.18	53.77	12.97	-32.9	-33.6	25.9	0.00e+00	0	41	0	1215299584	40	5442
2026-01-30 14:24:10.19	53.96	13.01	-32.9	-33.6	25.9	0.00e+00	0	41	0	1220542464	40	5448
2026-01-30 14:24:11.20	54.14	13.05	-32.9	-33.6	25.9	0.00e+00	0	41	0	1226833920	40	5457
2026-01-30 14:24:12.21	54.33	13.08	-33.0	-33.7	25.9	0.00e+00	0	41	0	1232076800	40	5503
2026-01-30 14:24:13.22	54.51	13.12	-33.1	-33.7	25.8	0.00e+00	0	41	0	1238368256	40	5540
2026-01-30 14:24:14.23	54.70	13.16	-33.2	-33.9	25.7	0.00e+00	0	41	0	1243611136	40	5659
2026-01-30 14:24:15.24	54.89	13.19	-33.2	-33.9	25.8	0.00e+00	0	41	0	1249902592	40	5671
2026-01-30 14:24:16.25	55.08	13.23	-33.3	-33.9	25.7	0.00e+00	0	41	0	1255145472	40	5686
2026-01-30 14:24:17.26	55.26	13.27	-33.3	-33.9	25.7	0.00e+00	0	41	0	1261436928	40	5682
2026-01-30 14:24:18.27	55.45	13.30	-33.3	-33.9	25.6	0.00e+00	0	41	0	1266679808	40	5677
2026-01-30 14:24:19.28	55.64	13.34	-33.0	-33.7	25.8	0.00e+00	0	41	0	1271922688	40	5505
2026-01-30 14:24:20.29	55.83	13.38	-32.9	-33.6	25.8	0.00e+00	0	41	0	1278214144	40	5472
2026-01-30 14:24:21.30	56.02	13.41	-32.8	-33.5	25.9	0.00e+00	0	41	0	1283457024	38	6043
2026-01-30 14:24:22.31	56.21	13.45	-32.8	-33.4	26.0	0.00e+00	0	41	0	1289748480	38	6028
2026-01-30 14:24:23.32	56.40	13.48	-32.8	-33.5	26.1	0.00e+00	0	41	0	1294991360	38	6041
2026-01-30 14:24:24.33	56.59	13.52	-32.8	-33.4	26.2	0.00e+00	0	41	0	1300234240	38	6027
2026-01-30 14:24:25.34	56.78	13.55	-32.9	-33.5	26.1	0.00e+00	0	41	0	1306525696	38	6076
2026-01-30 14:24:26.34	56.97	13.58	-33.2	-33.8	25.9	0.00e+00	0	41	0	1311768576	38	6313
2026-01-30 14:24:27.36	57.17	13.62	-32.9	-33.6	26.0	0.00e+00	0	41	0	1318060032	38	6143
2026-01-30 14:24:28.37	57.36	13.65	-33.1	-33.7	25.9	0.00e+00	0	41	0	1323302912	38	6192
2026-01-30 14:24:29.38	57.55	13.69	-33.1	-33.8	25.9	0.00e+00	0	41	0	1328545792	38	6264
2026-01-30 14:24:30.39	57.75	13.72	-33.2	-33.9	25.8	0.00e+00	0	41	0	1334837248	38	6329
2026-01-30 14:24:31.39	57.94	13.75	-33.3	-33.9	25.7	0.00e+00	0	41	0	1340080128	38	6383
2026-01-30 14:24:32.40	58.13	13.79	-33.3	-33.9	25.7	0.00e+00	0	41	0	1346371584	38	6352
2026-01-30 14:24:33.41	58.33	13.82	-33.0	-33.6	25.9	0.00e+00	0	41	0	1351614464	38	6165
2026-01-30 14:24:34.42	58.52	13.85	-33.0	-33.7	25.8	0.00e+00	0	41	0	1357905920	38	6208
2026-01-30 14:24:35.43	58.72	13.88	-33.0	-33.6	25.9	0.00e+00	0	41	0	1363148800	38	6156
2026-01-30 14:24:36.44	58.92	13.91	-33.0	-33.7	25.9	0.00e+00	0	41	0	1368391680	38	6193
2026-01-30 14:24:37.45	59.11	13.95	-33.0	-33.7	25.9	0.00e+00	0	41	0	1374683136	38	6180
2026-01-30 14:24:38.46	59.31	13.98	-33.0	-33.7	26.0	0.00e+00	0	41	0	1379926016	38	6202
2026-01-30 14:24:39.47	59.51	14.01	-33.0	-33.7	25.9	0.00e+00	0	41	0	1386217472	38	6196
2026-01-30 14:24:40.48	59.71	14.04	-32.9	-33.6	26.0	0.00e+00	0	41	0	1391460352	38	6107
2026-01-30 14:24:41.49	59.90	14.07	-32.9	-33.5	26.0	0.00e+00	0	41	0	1396703232	38	6072
2026-01-30 14:24:42.50	60.10	14.10	-32.8	-33.5	25.9	0.00e+00	0	41	0	1402994688	38	6057
2026-01-30 14:24:43.51	60.30	14.13	-33.1	-33.7	25.5	0.00e+00	0	41	0	1408237568	38	6223
2026-01-30 14:24:44.52	60.50	14.16	-32.9	-33.6	25.8	0.00e+00	0	41	0	1414529024	38	6130
2026-01-30 14:24:45.53	60.70	14.19	-33.0	-33.7	25.7	0.00e+00	0	41	0	1419771904	38	6176
2026-01-30 14:24:46.54	60.90	14.22	-32.9	-33.6	25.9	0.00e+00	0	41	0	1425014784	38	6129
2026-01-30 14:24:47.55	61.10	14.25	-32.9	-33.5	26.0	0.00e+00	0	41	0	1431306240	38	6056
2026-01-30 14:24:48.56	61.30	14.28	-32.7	-33.4	26.2	0.00e+00	0	41	0	1436549120	38	5992
2026-01-30 14:24:49.57	61.50	14.30	-32.8	-33.4	26.2	0.00e+00	0	41	0	1442840576	38	6006
2026-01-30 14:24:50.58	61.71	14.33	-32.7	-33.3	26.2	0.00e+00	0	41	0	1448083456	38	5950
2026-01-30 14:24:51.59	61.91	14.36	-32.6	-33.3	26.1	0.00e+00	0	41	0	1454374912	38	5931
2026-01-30 14:24:52.60	62.11	14.39	-32.6	-33.3	26.0	0.00e+00	0	41	0	1459617792	38	5921
2026-01-30 14:24:53.61	62.31	14.41	-32.7	-33.3	25.9	0.00e+00	0	41	0	1465909248	38	5940
2026-01-30 14:24:54.62	62.52	14.44	-32.8	-33.4	26.0	0.00e+00	0	41	0	1471152128	38	5995
2026-01-30 14:24:55.63	62.72	14.47	-32.8	-33.4	26.0	0.00e+00	0	41	0	1476395008	38	5989
2026-01-30 14:24:56.64	62.92	14.49	-32.8	-33.5	26.1	0.00e+00	0	41	0	1482686464	38	6058
2026-01-30 14:24:57.65	63.13	14.52	-32.7	-33.3	26.2	0.00e+00	0	41	0	1487929344	38	5944
2026-01-30 14:24:58.66	63.33	14.54	-32.6	-33.3	26.3	0.00e+00	0	41	0	1494220800	38	5929
2026-01-30 14:24:59.67	63.54	14.57	-32.6	-33.2	26.4	0.00e+00	0	41	0	1499463680	38	5889
2026-01-30 14:25:00.68	63.74	14.59	-32.6	-33.3	26.3	0.00e+00	0	41	0	1504706560	38	5899
2026-01-30 14:25:01.68	63.95	14.62	-32.5	-33.2	26.4	0.00e+00	0	41	0	1510998016	38	5873
2026-01-30 14:25:02.69	64.15	14.64	-32.6	-33.3	26.3	0.00e+00	0	41	0	1516240896	38	5902
2026-01-30 14:25:03.70	64.36	14.67	-32.5	-33.1	26.4	0.00e+00	0	41	0	1521483776	38	5792
2026-01-30 14:25:04.71	64.56	14.69	-32.6	-33.2	26.3	0.00e+00	0	41	0	1527775232	38	5873
2026-01-30 14:25:05.71	64.77	14.71	-32.6	-33.2	26.4	0.00e+00	0	41	0	1533018112	38	5878
2026-01-30 14:25:06.72	64.98	14.74	-32.7	-33.3	26.3	0.00e+00	0	41	0	1539309568	38	5920
2026-01-30 14:25:07.73	65.18	14.76	-32.7	-33.3	26.3	0.00e+00	0	41	0	1544552448	38	5961
2026-01-30 14:25:08.74	65.39	14.78	-32.9	-33.5	26.1	0.00e+00	0	41	0	1550843904	38	6089
2026-01-30 14:25:09.75	65.60	14.80	-32.9	-33.6	26.0	0.00e+00	0	41	0	1556086784	38	6120
2026-01-30 14:25:10.77	65.81	14.82	-33.0	-33.7	26.0	0.00e+00	0	41	0	1562378240	38	6205
2026-01-30 14:25:11.78	66.02	14.85	-33.1	-33.8	25.9	0.00e+00	0	41	0	1567621120	38	6275
2026-01-30 14:25:12.79	66.23	14.87	-33.1	-33.7	25.9	0.00e+00	0	41	0	1572864000	38	6237
2026-01-30 14:25:13.80	66.44	14.89	-32.9	-33.6	26.0	0.00e+00	0	41	0	1579155456	38	6155
2026-01-30 14:25:14.81	66.65	14.91	-32.9	-33.5	26.0	0.00e+00	0	41	0	1584398336	38	6075
2026-01-30 14:25:15.82	66.86	14.93	-32.7	-33.4	26.1	0.00e+00	0	41	0	1590689792	38	5968
2026-01-30 14:25:16.83	67.07	14.95	-32.7	-33.4	26.0	0.00e+00	0	41	0	1595932672	38	5973
2026-01-30 14:25:17.84	67.28	14.97	-32.6	-33.3	26.1	0.00e+00	0	41	0	1601175552	38	5935
2026-01-30 14:25:18.85	67.49	14.99	-32.6	-33.2	26.2	0.00e+00	0	41	0	1607467008	38	5851
2026-01-30 14:25:19.86	67.70	15.00	-32.7	-33.4	26.3	0.00e+00	0	41	0	1612709888	38	5990
2026-01-30 14:25:20.87	67.91	15.02	-32.7	-33.3	26.2	0.00e+00	0	41	0	1619001344	38	5945
2026-01-30 14:25:21.88	68.12	15.04	-32.7	-33.4	26.2	0.00e+00	0	41	0	1624244224	38	5992
2026-01-30 14:25:22.89	68.33	15.06	-32.9	-33.5	26.2	0.00e+00	0	41	0	1629487104	38	6076
2026-01-30 14:25:23.90	68.54	15.07	-32.8	-33.4	26.1	0.00e+00	0	41	0	1635778560	38	6020
2026-01-30 14:25:24.91	68.76	15.09	-32.6	-33.3	26.2	0.00e+00	0	41	0	1641021440	38	5959
2026-01-30 14:25:25.92	68.97	15.11	-32.7	-33.3	26.3	0.00e+00	0	41	0	1647312896	38	5945
2026-01-30 14:25:26.93	69.18	15.12	-32.5	-33.2	26.3	0.00e+00	0	41	0	1652555776	38	5874
2026-01-30 14:25:27.94	69.40	15.14	-32.5	-33.2	26.4	0.00e+00	0	41	0	1658847232	38	5860
2026-01-30 14:25:28.95	69.61	15.16	-32.5	-33.1	26.4	0.00e+00	0	41	0	1664090112	38	5824
2026-01-30 14:25:29.96	69.82	15.17	-32.5	-33.2	26.3	0.00e+00	0	41	0	1670381568	38	5838
2026-01-30 14:25:30.97	70.04	15.19	-32.6	-33.2	26.2	0.00e+00	0	41	0	1675624448	38	5854
2026-01-30 14:25:31.98	70.25	15.20	-32.7	-33.3	26.1	0.00e+00	0	41	0	1680867328	38	5960
2026-01-30 14:25:32.99	70.46	15.21	-32.7	-33.3	26.3	0.00e+00	0	41	0	1687158784	38	5946
2026-01-30 14:25:33.99	70.67	15.23	-32.4	-33.0	26.5	0.00e+00	0	41	0	1692401664	38	5744
2026-01-30 14:25:35.00	70.89	15.24	-32.3	-32.9	26.5	0.00e+00	0	41	0	1698693120	38	5686
2026-01-30 14:25:36.01	71.10	15.25	-32.3	-32.9	26.5	0.00e+00	0	41	0	1703936000	38	5672
2026-01-30 14:25:37.02	71.32	15.27	-32.4	-33.0	26.5	0.00e+00	0	41	0	1709178880	38	5751
2026-01-30 14:25:38.03	71.53	15.28	-32.4	-33.1	26.4	0.00e+00	0	41	0	1715470336	38	5814
2026-01-30 14:25:39.04	71.75	15.29	-32.4	-33.1	26.5	0.00e+00	0	41	0	1720713216	38	5779
2026-01-30 14:25:40.05	71.96	15.30	-32.5	-33.1	26.5	0.00e+00	0	41	0	1727004672	38	5806
2026-01-30 14:25:41.06	72.18	15.31	-32.5	-33.2	26.4	0.00e+00	0	41	0	1732247552	38	5855
2026-01-30 14:25:42.07	72.39	15.32	-32.5	-33.2	26.4	0.00e+00	0	41	0	1737490432	38	5860
2026-01-30 14:25:43.08	72.61	15.33	-32.5	-33.2	26.4	0.00e+00	0	41	0	1743781888	38	5836
2026-01-30 14:25:44.09	72.83	15.34	-32.5	-33.2	26.4	0.00e+00	0	41	0	1749024768	38	5863
2026-01-30 14:25:45.10	73.04	15.35	-32.5	-33.2	26.4	0.00e+00	0	41	0	1755316224	38	5848
2026-01-30 14:25:46.11	73.26	15.36	-32.6	-33.3	26.3	0.00e+00	0	41	0	1760559104	38	5932
2026-01-30 14:25:47.12	73.47	15.37	-32.6	-33.3	26.3	0.00e+00	0	41	0	1766850560	38	5945
2026-01-30 14:25:48.13	73.69	15.38	-32.8	-33.4	26.2	0.00e+00	0	41	0	1772093440	38	5999
2026-01-30 14:25:49.14	73.91	15.39	-32.8	-33.4	26.2	0.00e+00	0	41	0	1777336320	38	6010
2026-01-30 14:25:50.15	74.12	15.39	-32.7	-33.3	26.2	0.00e+00	0	41	0	1783627776	38	5948
2026-01-30 14:25:51.16	74.34	15.40	-32.7	-33.3	26.3	0.00e+00	0	41	0	1788870656	38	5957
2026-01-30 14:25:52.17	74.56	15.41	-32.7	-33.3	26.2	0.00e+00	0	41	0	1795162112	38	5961
2026-01-30 14:25:53.18	74.77	15.41	-32.6	-33.3	26.4	0.00e+00	0	41	0	1800404992	38	5930
2026-01-30 14:25:54.18	74.99	15.42	-32.7	-33.3	26.3	0.00e+00	0	41	0	1805647872	38	5937
2026-01-30 14:25:55.19	75.21	15.43	-32.7	-33.3	26.3	0.00e+00	0	41	0	1811939328	38	5923
2026-01-30 14:25:56.21	75.43	15.43	-32.6	-33.3	26.2	0.00e+00	0	41	0	1817182208	38	5934
2026-01-30 14:25:57.21	75.64	15.44	-32.5	-33.1	26.4	0.00e+00	0	41	0	1823473664	38	5822
2026-01-30 14:25:58.22	75.86	15.44	-32.5	-33.2	26.5	0.00e+00	0	41	0	1828716544	38	5836
2026-01-30 14:25:59.23	76.07	15.45	-32.5	-33.2	26.4	0.00e+00	0	41	0	1833959424	38	5849
2026-01-30 14:26:00.24	76.29	15.45	-32.5	-33.1	26.4	0.00e+00	0	41	0	1840250880	38	5821
2026-01-30 14:26:01.25	76.51	15.45	-32.5	-33.1	26.3	0.00e+00	0	41	0	1845493760	38	5820
2026-01-30 14:26:02.26	76.73	15.46	-32.5	-33.2	26.2	0.00e+00	0	41	0	1851785216	38	5842
2026-01-30 14:26:03.27	76.94	15.46	-32.7	-33.4	26.1	0.00e+00	0	41	0	1857028096	38	5996
2026-01-30 14:26:04.28	77.16	15.46	-32.5	-33.2	26.3	0.00e+00	0	41	0	1863319552	38	5856
2026-01-30 14:26:05.29	77.38	15.46	-32.7	-33.3	26.2	0.00e+00	0	41	0	1868562432	38	5953
2026-01-30 14:26:06.30	77.60	15.46	-32.6	-33.3	26.3	0.00e+00	0	41	0	1874853888	38	5920
2026-01-30 14:26:07.31	77.82	15.47	-32.7	-33.3	26.3	0.00e+00	0	41	0	1880096768	38	5929
2026-01-30 14:26:08.32	78.03	15.47	-32.8	-33.5	26.1	0.00e+00	0	41	0	1885339648	38	6085
2026-01-30 14:26:09.33	78.25	15.47	-32.8	-33.5	26.1	0.00e+00	0	41	0	1891631104	38	6066
2026-01-30 14:26:10.34	78.47	15.47	-32.9	-33.5	26.1	0.00e+00	0	41	0	1896873984	38	6079
2026-01-30 14:26:11.34	78.68	15.47	-32.9	-33.5	26.1	0.00e+00	0	41	0	1902116864	38	6085
2026-01-30 14:26:12.35	78.90	15.46	-32.7	-33.4	26.2	0.00e+00	0	41	0	1908408320	38	6012
2026-01-30 14:26:13.37	79.12	15.46	-32.8	-33.5	26.2	0.00e+00	0	41	0	1913651200	38	6060
2026-01-30 14:26:14.37	79.34	15.46	-32.9	-33.6	26.0	0.00e+00	0	41	0	1919942656	38	6122
2026-01-30 14:26:15.39	79.56	15.46	-32.7	-33.4	26.1	0.00e+00	0	41	0	1925185536	38	6014
2026-01-30 14:26:16.39	79.77	15.46	-32.8	-33.5	26.0	0.00e+00	0	41	0	1930428416	38	6069
2026-01-30 14:26:17.40	79.99	15.45	-32.7	-33.4	25.9	0.00e+00	0	41	0	1936719872	38	6014
2026-01-30 14:26:18.41	80.21	15.45	-32.6	-33.2	26.0	0.00e+00	0	41	0	1941962752	38	5891
2026-01-30 14:26:19.43	80.43	15.45	-32.5	-33.2	26.0	0.00e+00	0	41	0	1948254208	38	5834
2026-01-30 14:26:20.44	80.65	15.44	-32.6	-33.2	26.1	0.00e+00	0	41	0	1953497088	38	5853
2026-01-30 14:26:21.45	80.86	15.44	-32.4	-33.1	26.3	0.00e+00	0	41	0	1959788544	38	5763
2026-01-30 14:26:22.46	81.08	15.44	-32.4	-33.0	26.4	0.00e+00	0	41	0	1965031424	38	5708
2026-01-30 14:26:23.47	81.30	15.43	-32.5	-33.1	26.4	0.00e+00	0	41	0	1971322880	38	5815
2026-01-30 14:26:24.48	81.51	15.42	-32.5	-33.2	26.2	0.00e+00	0	41	0	1976565760	38	5879
2026-01-30 14:26:25.48	81.73	15.42	-32.5	-33.2	26.2	0.00e+00	0	41	0	1981808640	38	5854
2026-01-30 14:26:26.49	81.95	15.41	-32.5	-33.2	26.3	0.00e+00	0	41	0	1988100096	38	5833
2026-01-30 14:26:27.50	82.16	15.41	-32.6	-33.2	26.3	0.00e+00	0	41	0	1993342976	38	5885
2026-01-30 14:26:28.51	82.38	15.40	-32.7	-33.4	26.2	0.00e+00	0	41	0	1999634432	38	5970
2026-01-30 14:26:29.52	82.60	15.39	-32.8	-33.4	26.2	0.00e+00	0	41	0	2004877312	38	6029
2026-01-30 14:26:30.53	82.81	15.38	-32.7	-33.4	26.1	0.00e+00	0	41	0	2010120192	38	5979
2026-01-30 14:26:31.54	83.03	15.38	-32.9	-33.5	26.1	0.00e+00	0	41	0	2016411648	38	6099
2026-01-30 14:26:32.55	83.25	15.37	-32.7	-33.4	26.2	0.00e+00	0	41	0	2021654528	38	6008
2026-01-30 14:26:33.56	83.46	15.36	-32.7	-33.4	26.2	0.00e+00	0	41	0	2027945984	38	5978
2026-01-30 14:26:34.57	83.68	15.35	-32.8	-33.5	26.2	0.00e+00	0	41	0	2033188864	38	6036
2026-01-30 14:26:35.58	83.90	15.34	-32.7	-33.3	26.2	0.00e+00	0	41	0	2038431744	38	5948
2026-01-30 14:26:36.59	84.11	15.33	-32.7	-33.3	26.3	0.00e+00	0	41	0	2044723200	38	5957
2026-01-30 14:26:37.60	84.33	15.32	-32.7	-33.4	26.2	0.00e+00	0	41	0	2049966080	38	6006
2026-01-30 14:26:38.61	84.54	15.31	-32.8	-33.4	26.2	0.00e+00	0	41	0	2056257536	38	6019
2026-01-30 14:26:39.62	84.76	15.30	-32.7	-33.4	26.2	0.00e+00	0	41	0	2061500416	38	5980
2026-01-30 14:26:40.63	84.97	15.29	-32.6	-33.2	26.3	0.00e+00	0	41	0	2067791872	38	5887
2026-01-30 14:26:41.64	85.19	15.27	-32.7	-33.3	26.2	0.00e+00	0	41	0	2073034752	38	5936
2026-01-30 14:26:42.65	85.41	15.26	-32.5	-33.2	26.4	0.00e+00	0	41	0	2078277632	38	5882
2026-01-30 14:26:43.66	85.62	15.25	-32.5	-33.1	26.3	0.00e+00	0	41	0	2084569088	38	5811
2026-01-30 14:26:44.67	85.83	15.24	-32.6	-33.3	26.3	0.00e+00	0	41	0	2089811968	38	5957
2026-01-30 14:26:45.68	86.05	15.22	-32.8	-33.5	26.2	0.00e+00	0	41	0	2096103424	38	6050
2026-01-30 14:26:46.69	86.26	15.21	-32.7	-33.3	26.2	0.00e+00	0	41	0	2101346304	38	5956
2026-01-30 14:26:47.70	86.48	15.19	-32.7	-33.4	26.3	0.00e+00	0	41	0	2106589184	38	5982
2026-01-30 14:26:48.71	86.69	15.18	-32.7	-33.3	26.2	0.00e+00	0	41	0	2112880640	38	5931
2026-01-30 14:26:49.72	86.91	15.17	-32.9	-33.6	26.2	0.00e+00	0	41	0	2118123520	38	6104
2026-01-30 14:26:50.73	87.12	15.15	-32.8	-33.4	26.2	0.00e+00	0	41	0	2124414976	38	6011
2026-01-30 14:26:51.74	87.33	15.13	-32.8	-33.5	26.2	0.00e+00	0	41	0	2129657856	38	6064
2026-01-30 14:26:52.75	87.55	15.12	-32.8	-33.5	26.2	0.00e+00	0	41	0	2134900736	38	6048
2026-01-30 14:26:53.76	87.76	15.10	-32.8	-33.5	26.2	0.00e+00	0	41	0	2141192192	38	6035
2026-01-30 14:26:54.77	87.97	15.09	-32.8	-33.5	26.1	0.00e+00	0	41	0	2146435072	38	6086
2026-01-30 14:26:55.78	88.18	15.07	-32.9	-33.5	26.1	0.00e+00	0	41	0	2152726528	38	6045
2026-01-30 14:26:56.79	88.40	15.05	-32.9	-33.6	26.1	0.00e+00	0	41	0	2157969408	38	6119
2026-01-30 14:26:57.80	88.61	15.03	-32.9	-33.5	26.1	0.00e+00	0	41	0	2164260864	38	6091
2026-01-30 14:26:58.80	88.82	15.02	-32.9	-33.6	26.1	0.00e+00	0	41	0	2169503744	38	6168
2026-01-30 14:26:59.81	89.03	15.00	-32.9	-33.6	26.1	0.00e+00	0	41	0	2175795200	38	6125
2026-01-30 14:27:00.82	89.24	14.98	-32.8	-33.4	26.2	0.00e+00	0	41	0	2181038080	38	6033
2026-01-30 14:27:01.83	89.45	14.96	-32.8	-33.4	26.2	0.00e+00	0	41	0	2186280960	38	5982
2026-01-30 14:27:02.84	89.66	14.94	-32.9	-33.6	26.1	0.00e+00	0	41	0	2192572416	38	6168
2026-01-30 14:27:03.85	89.87	14.92	-33.0	-33.7	26.0	0.00e+00	0	41	0	2197815296	38	6199
2026-01-30 14:27:04.86	90.08	14.90	-33.0	-33.7	25.9	0.00e+00	0	41	0	2204106752	38	6201
2026-01-30 14:27:05.87	90.29	14.88	-33.0	-33.7	25.9	0.00e+00	0	41	0	2209349632	38	6223
2026-01-30 14:27:06.88	90.50	14.86	-33.0	-33.6	25.9	0.00e+00	0	41	0	2214592512	38	6166
2026-01-30 14:27:07.89	90.71	14.84	-33.0	-33.7	26.0	0.00e+00	0	41	0	2220883968	38	6203
2026-01-30 14:27:08.90	90.92	14.82	-33.0	-33.7	26.0	0.00e+00	0	41	0	2226126848	38	6237
2026-01-30 14:27:09.91	91.13	14.79	-33.0	-33.6	26.0	0.00e+00	0	41	0	2232418304	38	6148
2026-01-30 14:27:10.92	91.34	14.77	-33.0	-33.6	26.0	0.00e+00	0	41	0	2237661184	38	6154
2026-01-30 14:27:11.93	91.55	14.75	-33.2	-34.0	25.8	0.00e+00	0	41	0	2242904064	38	6393
2026-01-30 14:27:12.94	91.75	14.73	-33.2	-33.9	25.9	0.00e+00	0	41	0	2249195520	38	6381
2026-01-30 14:27:13.95	91.96	14.70	-33.2	-33.9	25.7	0.00e+00	0	41	0	2254438400	38	6343
2026-01-30 14:27:14.96	92.17	14.68	-33.1	-33.8	25.9	0.00e+00	0	41	0	2260729856	38	6248
2026-01-30 14:27:15.97	92.38	14.66	-33.2	-33.9	25.9	0.00e+00	0	41	0	2265972736	38	6352
2026-01-30 14:27:16.98	92.58	14.63	-33.0	-33.6	26.0	0.00e+00	0	41	0	2272264192	38	6163
2026-01-30 14:27:17.99	92.79	14.61	-33.0	-33.7	26.0	0.00e+00	0	41	0	2277507072	38	6182
2026-01-30 14:27:18.99	92.99	14.58	-32.9	-33.5	26.1	0.00e+00	0	41	0	2282749952	38	6103
2026-01-30 14:27:20.00	93.20	14.56	-33.0	-33.7	26.0	0.00e+00	0	41	0	2289041408	38	6185
2026-01-30 14:27:21.02	93.41	14.53	-32.9	-33.5	26.0	0.00e+00	0	41	0	2294284288	38	6083
2026-01-30 14:27:22.03	93.61	14.51	-32.9	-33.5	26.1	0.00e+00	0	41	0	2300575744	38	6086
2026-01-30 14:27:23.04	93.82	14.48	-32.9	-33.5	26.1	0.00e+00	0	41	0	2305818624	38	6102
2026-01-30 14:27:24.05	94.02	14.46	-32.9	-33.6	26.0	0.00e+00	0	41	0	2311061504	38	6165
2026-01-30 14:27:25.06	94.22	14.43	-32.9	-33.5	26.2	0.00e+00	0	41	0	2317352960	38	6065
2026-01-30 14:27:26.07	94.43	14.40	-32.8	-33.4	26.2	0.00e+00	0	41	0	2322595840	38	5981
2026-01-30 14:27:27.07	94.63	14.37	-32.8	-33.4	26.1	0.00e+00	0	41	0	2328887296	38	6023
2026-01-30 14:27:28.09	94.83	14.35	-32.9	-33.7	26.0	0.00e+00	0	41	0	2334130176	38	6190
2026-01-30 14:27:29.10	95.04	14.32	-33.0	-33.6	25.9	0.00e+00	0	41	0	2339373056	38	6172
2026-01-30 14:27:30.11	95.24	14.29	-33.1	-33.9	25.8	0.00e+00	0	41	0	2345664512	38	6338
2026-01-30 14:27:31.12	95.44	14.26	-33.1	-33.7	25.8	0.00e+00	0	41	0	2350907392	38	6229
2026-01-30 14:27:32.13	95.64	14.23	-33.0	-33.7	25.9	0.00e+00	0	41	0	2357198848	38	6176
2026-01-30 14:27:33.14	95.84	14.21	-33.1	-33.7	25.9	0.00e+00	0	41	0	2362441728	38	6207
2026-01-30 14:27:34.15	96.04	14.18	-33.2	-33.9	25.8	0.00e+00	0	41	0	2368733184	38	6325
2026-01-30 14:27:35.16	96.24	14.15	-33.1	-33.9	25.8	0.00e+00	0	41	0	2373976064	38	6341
2026-01-30 14:27:36.17	96.44	14.12	-33.1	-33.9	25.8	0.00e+00	0	41	0	2380267520	38	6330
2026-01-30 14:27:37.18	96.64	14.09	-33.2	-33.8	25.8	0.00e+00	0	41	0	2385510400	38	6308
2026-01-30 14:27:38.19	96.84	14.06	-33.1	-33.8	25.8	0.00e+00	0	41	0	2390753280	38	6310
2026-01-30 14:27:39.20	97.04	14.03	-33.1	-33.8	25.9	0.00e+00	0	41	0	2397044736	38	6287
2026-01-30 14:27:40.21	97.24	13.99	-33.2	-33.8	25.8	0.00e+00	0	41	0	2402287616	38	6301
2026-01-30 14:27:41.22	97.44	13.96	-33.2	-33.9	25.8	0.00e+00	0	41	0	2408579072	38	6346
2026-01-30 14:27:42.23	97.63	13.93	-33.1	-33.8	25.8	0.00e+00	0	41	0	2413821952	38	6271
2026-01-30 14:27:43.24	97.83	13.90	-33.2	-33.9	25.9	0.00e+00	0	41	0	2419064832	38	6344
2026-01-30 14:27:44.25	98.03	13.87	-33.2	-33.9	25.8	0.00e+00	0	41	0	2425356288	38	6386
2026-01-30 14:27:45.26	98.22	13.84	-33.3	-34.0	25.7	0.00e+00	0	41	0	2430599168	38	6429
2026-01-30 14:27:46.27	98.42	13.80	-33.3	-34.0	25.7	0.00e+00	0	41	0	2436890624	38	6418
2026-01-30 14:27:47.28	98.61	13.77	-33.3	-34.0	25.7	0.00e+00	0	41	0	2442133504	38	6425
2026-01-30 14:27:48.29	98.81	13.74	-33.3	-34.0	25.7	0.00e+00	0	41	0	2447376384	38	6456
2026-01-30 14:27:49.30	99.00	13.70	-33.2	-33.9	25.8	0.00e+00	0	41	0	2453667840	38	6336
2026-01-30 14:27:50.31	99.20	13.67	-33.2	-33.9	25.8	0.00e+00	0	41	0	2458910720	38	6344
2026-01-30 14:27:51.32	99.39	13.64	-33.2	-33.9	25.8	0.00e+00	0	41	0	2465202176	38	6375
2026-01-30 14:27:52.33	99.59	13.60	-33.2	-33.7	25.8	0.00e+00	0	41	0	2470445056	38	6241
2026-01-30 14:27:53.34	99.78	13.57	-33.2	-33.9	25.7	0.00e+00	0	41	0	2476736512	38	6325
2026-01-30 14:27:54.35	99.97	13.53	-33.3	-34.0	25.5	0.00e+00	0	41	0	2481979392	38	6455
2026-01-30 14:27:55.36	100.16	13.50	-33.3	-34.1	25.6	0.00e+00	0	41	0	2488270848	38	6475
2026-01-30 14:27:56.37	100.35	13.46	-33.3	-34.1	25.6	0.00e+00	0	41	0	2493513728	38	6499
2026-01-30 14:27:57.38	100.55	13.43	-33.4	-34.0	25.5	0.00e+00	0	41	0	2498756608	38	6444
2026-01-30 14:27:58.39	100.74	13.39	-33.3	-34.0	25.6	0.00e+00	0	41	0	2505048064	38	6435
2026-01-30 14:27:59.40	100.93	13.36	-33.4	-34.1	25.6	0.00e+00	0	41	0	2510290944	38	6487
2026-01-30 14:28:00.41	101.12	13.32	-33.5	-34.2	25.5	0.00e+00	0	41	0	2516582400	38	6584
2026-01-30 14:28:01.42	101.31	13.28	-33.4	-34.0	25.6	0.00e+00	0	41	0	2521825280	38	6447
2026-01-30 14:28:02.43	101.49	13.25	-33.4	-34.0	25.5	0.00e+00	0	41	0	2527068160	38	6447
2026-01-30 14:28:03.44	101.68	13.21	-33.4	-34.1	25.5	0.00e+00	0	41	0	2533359616	38	6531
2026-01-30 14:28:04.45	101.87	13.17	-33.5	-34.3	25.4	0.00e+00	0	41	0	2538602496	38	6621
2026-01-30 14:28:05.46	102.06	13.14	-33.4	-34.1	25.5	0.00e+00	0	41	0	2544893952	38	6494
2026-01-30 14:28:06.47	102.24	13.10	-33.4	-34.1	25.5	0.00e+00	0	41	0	2550136832	38	6531
2026-01-30 14:28:07.48	102.43	13.06	-33.4	-34.2	25.5	0.00e+00	0	41	0	2555379712	38	6550
2026-01-30 14:28:08.49	102.62	13.02	-33.3	-34.0	25.6	0.00e+00	0	41	0	2561671168	38	6416
2026-01-30 14:28:09.50	102.80	12.98	-33.3	-33.9	25.7	0.00e+00	0	41	0	2566914048	38	6326
2026-01-30 14:28:10.51	102.99	12.95	-33.4	-34.0	25.7	0.00e+00	0	41	0	2573205504	38	6421
2026-01-30 14:28:11.52	103.17	12.91	-33.3	-34.0	25.6	0.00e+00	0	41	0	2578448384	38	6441
2026-01-30 14:28:12.53	103.36	12.87	-33.4	-34.1	25.4	0.00e+00	0	41	0	2584739840	38	6481
2026-01-30 14:28:13.54	103.54	12.83	-33.4	-34.1	25.5	0.00e+00	0	41	0	2589982720	38	6468
2026-01-30 14:28:14.55	103.72	12.79	-33.5	-34.2	25.5	0.00e+00	0	41	0	2596274176	38	6603
2026-01-30 14:28:15.56	103.91	12.75	-33.6	-34.2	25.4	0.00e+00	0	41	0	2601517056	38	6560
2026-01-30 14:28:16.57	104.09	12.71	-33.6	-34.3	25.4	0.00e+00	0	41	0	2606759936	38	6636
2026-01-30 14:28:17.58	104.27	12.67	-33.6	-34.3	25.4	0.00e+00	0	41	0	2613051392	38	6662
2026-01-30 14:28:18.59	104.45	12.63	-33.6	-34.2	25.4	0.00e+00	0	41	0	2618294272	38	6594
2026-01-30 14:28:19.60	104.63	12.59	-33.5	-34.2	25.4	0.00e+00	0	41	0	2624585728	38	6592
2026-01-30 14:28:20.61	104.81	12.55	-33.5	-34.2	25.4	0.00e+00	0	41	0	2629828608	38	6585
2026-01-30 14:28:21.62	104.99	12.51	-33.5	-34.2	25.4	0.00e+00	0	41	0	2635071488	38	6546
2026-01-30 14:28:22.63	105.17	12.47	-33.5	-34.3	25.5	0.00e+00	0	41	0	2641362944	38	6621
2026-01-30 14:28:23.64	105.35	12.43	-33.5	-34.2	25.4	0.00e+00	0	41	0	2646605824	38	6548
2026-01-30 14:28:24.65	105.53	12.39	-33.6	-34.3	25.3	0.00e+00	0	41	0	2652897280	38	6634
2026-01-30 14:28:25.66	105.71	12.35	-33.6	-34.4	25.3	0.00e+00	0	41	0	2658140160	38	6694
2026-01-30 14:28:26.67	105.89	12.31	-33.6	-34.3	25.3	0.00e+00	0	41	0	2663383040	38	6677
2026-01-30 14:28:27.68	106.06	12.27	-33.6	-34.3	25.3	0.00e+00	0	41	0	2669674496	38	6653
2026-01-30 14:28:28.69	106.24	12.22	-33.7	-34.3	25.2	0.00e+00	0	41	0	2674917376	38	6691
2026-01-30 14:28:29.70	106.42	12.18	-33.7	-34.4	25.3	0.00e+00	0	41	0	2681208832	38	6727
2026-01-30 14:28:30.71	106.59	12.14	-33.8	-34.4	25.1	0.00e+00	0	41	0	2686451712	40	6020
2026-01-30 14:28:31.72	106.77	12.10	-33.7	-34.4	25.1	0.00e+00	0	41	0	2692743168	40	5978
2026-01-30 14:28:32.73	106.94	12.05	-33.8	-34.5	25.1	0.00e+00	0	41	0	2697986048	40	6100
2026-01-30 14:28:33.74	107.12	12.01	-33.8	-34.6	25.1	0.00e+00	0	41	0	2703228928	40	6105
2026-01-30 14:28:34.74	107.29	11.97	-33.8	-34.5	25.2	0.00e+00	0	41	0	2709520384	40	6045
2026-01-30 14:28:35.76	107.46	11.93	-33.8	-34.5	25.1	0.00e+00	0	41	0	2714763264	40	6039
2026-01-30 14:28:36.77	107.64	11.88	-33.9	-34.5	25.1	0.00e+00	0	41	0	2721054720	40	6083
2026-01-30 14:28:37.78	107.81	11.84	-33.9	-34.6	25.1	0.00e+00	0	41	0	2726297600	40	6136
2026-01-30 14:28:38.79	107.98	11.80	-33.8	-34.5	25.1	0.00e+00	0	41	0	2731540480	40	6062
2026-01-30 14:28:39.80	108.15	11.75	-33.8	-34.6	25.1	0.00e+00	0	41	0	2737831936	40	6127
2026-01-30 14:28:40.80	108.32	11.71	-33.9	-34.6	25.1	0.00e+00	0	41	0	2743074816	40	6133
2026-01-30 14:28:41.81	108.49	11.67	-34.0	-34.6	25.0	0.00e+00	0	41	0	2749366272	40	6167
2026-01-30 14:28:42.82	108.66	11.62	-33.8	-34.6	25.0	0.00e+00	0	41	0	2754609152	40	6120
2026-01-30 14:28:43.83	108.83	11.58	-33.9	-34.5	25.0	0.00e+00	0	41	0	2759852032	40	6050
2026-01-30 14:28:44.84	109.00	11.53	-33.9	-34.6	25.0	0.00e+00	0	41	0	2766143488	40	6123
2026-01-30 14:28:45.85	109.17	11.49	-34.0	-34.7	24.9	0.00e+00	0	41	0	2771386368	40	6204
2026-01-30 14:28:46.86	109.34	11.44	-34.0	-34.6	25.0	0.00e+00	0	41	0	2777677824	40	6168
2026-01-30 14:28:47.87	109.50	11.40	-33.8	-34.5	25.1	0.00e+00	0	41	0	2782920704	40	6103
2026-01-30 14:28:48.88	109.67	11.36	-33.9	-34.5	25.0	0.00e+00	0	41	0	2789212160	40	6070
2026-01-30 14:28:49.90	109.84	11.31	-33.9	-34.7	24.9	0.00e+00	0	41	0	2794455040	40	6212
2026-01-30 14:28:50.90	110.00	11.27	-34.0	-34.7	24.8	0.00e+00	0	41	0	2800746496	40	6209
2026-01-30 14:28:51.92	110.17	11.22	-34.1	-34.8	24.8	0.00e+00	0	41	0	2805989376	40	6292
2026-01-30 14:28:52.92	110.33	11.17	-34.2	-34.9	24.7	0.00e+00	0	41	0	2811232256	40	6384
2026-01-30 14:28:53.93	110.50	11.13	-34.3	-34.9	24.6	0.00e+00	0	41	0	2817523712	40	6386
2026-01-30 14:28:54.94	110.66	11.08	-34.1	-34.8	24.8	0.00e+00	0	41	0	2822766592	40	6277
2026-01-30 14:28:55.95	110.82	11.04	-34.1	-34.9	24.8	0.00e+00	0	41	0	2829058048	40	6322
2026-01-30 14:28:56.96	110.99	10.99	-34.2	-35.0	24.6	0.00e+00	0	41	0	2834300928	40	6455
2026-01-30 14:28:57.97	111.15	10.95	-34.0	-34.7	24.8	0.00e+00	0	41	0	2839543808	40	6239
2026-01-30 14:28:58.98	111.31	10.90	-34.1	-34.9	24.8	0.00e+00	0	41	0	2845835264	40	6337
2026-01-30 14:28:59.98	111.47	10.85	-34.0	-34.9	24.7	0.00e+00	0	41	0	2851078144	40	6326
2026-01-30 14:29:01.00	111.63	10.81	-33.9	-34.6	24.9	0.00e+00	0	41	0	2856321024	40	6132
2026-01-30 14:29:02.01	111.80	10.76	-34.0	-34.7	24.9	0.00e+00	0	41	0	2862612480	40	6235
2026-01-30 14:29:03.02	111.96	10.71	-33.8	-34.5	25.0	0.00e+00	0	41	0	2867855360	40	6083
2026-01-30 14:29:04.03	112.11	10.67	-33.9	-34.7	25.0	0.00e+00	0	41	0	2874146816	40	6187
2026-01-30 14:29:05.03	112.27	10.62	-34.1	-34.8	24.8	0.00e+00	0	41	0	2879389696	40	6263
2026-01-30 14:29:06.05	112.43	10.57	-34.2	-34.8	24.7	0.00e+00	0	41	0	2885681152	40	6269
2026-01-30 14:29:07.06	112.59	10.53	-34.2	-35.0	24.6	0.00e+00	0	41	0	2890924032	40	6435
2026-01-30 14:29:08.06	112.75	10.48	-34.1	-34.7	24.8	0.00e+00	0	41	0	2897215488	40	6223
2026-01-30 14:29:09.07	112.90	10.43	-34.1	-34.8	24.8	0.00e+00	0	41	0	2902458368	40	6295
2026-01-30 14:29:10.09	113.06	10.39	-34.1	-34.8	24.8	0.00e+00	0	41	0	2907701248	40	6280
2026-01-30 14:29:11.10	113.22	10.34	-34.1	-34.8	24.9	0.00e+00	0	41	0	2913992704	40	6267
2026-01-30 14:29:12.11	113.37	10.29	-34.2	-35.0	24.7	0.00e+00	0	41	0	2919235584	40	6405
2026-01-30 14:29:13.12	113.53	10.24	-34.2	-34.9	24.6	0.00e+00	0	41	0	2925527040	40	6363
2026-01-30 14:29:14.13	113.68	10.20	-34.1	-34.8	24.7	0.00e+00	0	41	0	2930769920	40	6264
2026-01-30 14:29:15.14	113.84	10.15	-34.1	-34.8	24.7	0.00e+00	0	41	0	2936012800	40	6288
2026-01-30 14:29:16.14	113.99	10.10	-34.1	-34.8	24.7	0.00e+00	0	41	0	2942304256	40	6262
2026-01-30 14:29:17.16	114.14	10.05	-34.2	-34.9	24.6	0.00e+00	0	41	0	2947547136	40	6373
2026-01-30 14:29:18.17	114.30	10.01	-34.3	-34.9	24.5	0.00e+00	0	41	0	2953838592	40	6388
2026-01-30 14:29:19.18	114.45	9.96	-34.3	-35.0	24.6	0.00e+00	0	41	0	2959081472	40	6458
2026-01-30 14:29:20.19	114.60	9.91	-34.2	-35.0	24.5	0.00e+00	0	41	0	2964324352	40	6391
2026-01-30 14:29:21.20	114.75	9.86	-34.3	-35.0	24.5	0.00e+00	0	41	0	2970615808	40	6455
2026-01-30 14:29:22.21	114.90	9.81	-34.2	-34.9	24.6	0.00e+00	0	41	0	2975858688	40	6346
2026-01-30 14:29:23.22	115.05	9.76	-34.3	-35.1	24.5	0.00e+00	0	41	0	2982150144	40	6474
2026-01-30 14:29:24.23	115.20	9.72	-34.4	-35.1	24.4	0.00e+00	0	41	0	2987393024	40	6474
2026-01-30 14:29:25.24	115.35	9.67	-34.4	-35.2	24.4	0.00e+00	0	41	0	2993684480	40	6555
2026-01-30 14:29:26.24	115.50	9.62	-34.6	-35.2	24.2	0.00e+00	0	41	0	2998927360	40	6594
2026-01-30 14:29:27.25	115.65	9.57	-34.6	-35.3	24.2	0.00e+00	0	41	0	3005218816	40	6651
2026-01-30 14:29:28.27	115.80	9.52	-34.7	-35.4	24.1	0.00e+00	0	41	0	3010461696	40	6729
2026-01-30 14:29:29.27	115.94	9.47	-34.6	-35.3	24.2	0.00e+00	0	41	0	3015704576	40	6654
2026-01-30 14:29:30.28	116.09	9.42	-34.7	-35.5	23.9	0.00e+00	0	41	0	3021996032	40	6832
2026-01-30 14:29:31.29	116.24	9.38	-34.7	-35.5	24.0	0.00e+00	0	41	0	3027238912	42	6062
2026-01-30 14:29:32.30	116.38	9.33	-34.6	-35.2	24.1	0.00e+00	0	41	0	3033530368	42	5891
2026-01-30 14:29:33.31	116.53	9.28	-34.4	-35.2	24.4	0.00e+00	0	41	0	3038773248	42	5861
2026-01-30 14:29:34.32	116.67	9.23	-34.7	-35.4	24.0	0.00e+00	0	41	0	3044016128	42	5970
2026-01-30 14:29:35.33	116.82	9.18	-34.6	-35.3	24.2	0.00e+00	0	41	0	3050307584	42	5917
2026-01-30 14:29:36.34	116.96	9.13	-34.6	-35.3	24.2	0.00e+00	0	41	0	3055550464	42	5908
2026-01-30 14:29:37.35	117.10	9.08	-34.7	-35.4	24.1	0.00e+00	0	41	0	3061841920	42	6009
2026-01-30 14:29:38.36	117.25	9.03	-34.6	-35.4	24.2	0.00e+00	0	41	0	3067084800	42	5994
2026-01-30 14:29:39.37	117.39	8.98	-34.8	-35.5	24.1	0.00e+00	0	41	0	3072327680	42	6096
2026-01-30 14:29:40.39	117.53	8.93	-34.8	-35.4	24.0	0.00e+00	0	41	0	3078619136	42	6010
2026-01-30 14:29:41.40	117.68	8.88	-34.7	-35.3	24.1	0.00e+00	0	41	0	3083862016	42	5957
2026-01-30 14:29:42.41	117.82	8.83	-34.6	-35.2	24.1	0.00e+00	0	41	0	3090153472	42	5891
2026-01-30 14:29:43.42	117.96	8.78	-34.7	-35.4	24.2	0.00e+00	0	41	0	3095396352	42	6031
2026-01-30 14:29:44.43	118.10	8.73	-34.6	-35.4	24.2	0.00e+00	0	41	0	3101687808	42	5969
2026-01-30 14:29:45.44	118.24	8.68	-34.7	-35.3	24.2	0.00e+00	0	41	0	3106930688	42	5934
2026-01-30 14:29:46.45	118.38	8.63	-34.6	-35.3	24.2	0.00e+00	0	41	0	3112173568	42	5946
2026-01-30 14:29:47.46	118.52	8.58	-34.7	-35.4	24.2	0.00e+00	0	41	0	3118465024	42	5998
2026-01-30 14:29:48.47	118.66	8.53	-34.7	-35.3	24.2	0.00e+00	0	41	0	3123707904	42	5951
2026-01-30 14:29:49.48	118.79	8.48	-34.7	-35.4	24.1	0.00e+00	0	41	0	3129999360	42	5979
2026-01-30 14:29:50.49	118.93	8.43	-34.6	-35.3	24.1	0.00e+00	0	41	0	3135242240	42	5943
2026-01-30 14:29:51.50	119.07	8.38	-34.6	-35.4	24.2	0.00e+00	0	41	0	3140485120	42	6013
2026-01-30 14:29:52.50	119.20	8.33	-34.6	-35.3	24.2	0.00e+00	0	41	0	3146776576	42	5946
2026-01-30 14:29:53.51	119.34	8.28	-34.7	-35.5	24.1	0.00e+00	0	41	0	3152019456	42	6082
2026-01-30 14:29:54.52	119.48	8.23	-34.7	-35.4	24.2	0.00e+00	0	41	0	3158310912	42	6000
2026-01-30 14:29:55.53	119.61	8.18	-34.8	-35.5	24.0	0.00e+00	0	41	0	3163553792	42	6064
2026-01-30 14:29:56.54	119.75	8.13	-34.8	-35.4	24.1	0.00e+00	0	41	0	3168796672	42	6030
2026-01-30 14:29:57.55	119.88	8.08	-34.8	-35.4	24.0	0.00e+00	0	41	0	3175088128	42	6027
2026-01-30 14:29:58.56	120.01	8.03	-34.8	-35.5	23.9	0.00e+00	0	41	0	3180331008	42	6074
2026-01-30 14:29:59.58	120.15	7.98	-34.9	-35.7	23.9	0.00e+00	0	41	0	3186622464	42	6177
2026-01-30 14:30:00.58	120.28	7.93	-34.9	-35.7	23.9	0.00e+00	0	41	0	3191865344	42	6221
2026-01-30 14:30:01.59	120.41	7.88	-34.9	-35.6	23.9	0.00e+00	0	41	0	3198156800	42	6121
2026-01-30 14:30:02.61	120.55	7.83	-35.0	-35.7	23.8	0.00e+00	0	41	0	3203399680	42	6183
2026-01-30 14:30:03.62	120.68	7.78	-34.9	-35.7	23.9	0.00e+00	0	41	0	3209691136	42	6215
2026-01-30 14:30:04.62	120.81	7.73	-35.0	-35.7	23.8	0.00e+00	0	41	0	3214934016	42	6209
2026-01-30 14:30:05.63	120.94	7.68	-35.0	-35.7	23.7	0.00e+00	0	41	0	3220176896	42	6227
2026-01-30 14:30:06.64	121.07	7.63	-35.1	-35.9	23.7	0.00e+00	0	41	0	3226468352	42	6336
2026-01-30 14:30:07.65	121.20	7.58	-35.2	-35.9	23.6	0.00e+00	0	41	0	3231711232	42	6337
2026-01-30 14:30:08.66	121.33	7.53	-35.3	-36.1	23.5	0.00e+00	0	41	0	3238002688	42	6519
2026-01-30 14:30:09.67	121.46	7.48	-35.3	-36.1	23.5	0.00e+00	0	41	0	3243245568	42	6530
2026-01-30 14:30:10.68	121.59	7.43	-35.4	-36.2	23.4	0.00e+00	0	41	0	3248488448	42	6568
2026-01-30 14:30:11.69	121.72	7.38	-35.5	-36.1	23.3	0.00e+00	0	41	0	3254779904	42	6537
2026-01-30 14:30:12.70	121.84	7.33	-35.6	-36.2	23.3	0.00e+00	0	41	0	3260022784	42	6610
2026-01-30 14:30:13.71	121.97	7.28	-35.5	-36.2	23.3	0.00e+00	0	41	0	3266314240	42	6565
2026-01-30 14:30:14.72	122.10	7.23	-35.5	-36.3	23.2	0.00e+00	0	41	0	3271557120	42	6672
2026-01-30 14:30:15.74	122.23	7.18	-35.5	-36.1	23.3	0.00e+00	0	41	0	3276800000	42	6539
2026-01-30 14:30:16.75	122.35	7.12	-35.4	-36.2	23.4	0.00e+00	0	41	0	3283091456	42	6600
2026-01-30 14:30:17.76	122.48	7.07	-35.5	-36.2	23.4	0.00e+00	0	41	0	3288334336	42	6593
2026-01-30 14:30:18.77	122.60	7.02	-35.4	-36.1	23.3	0.00e+00	0	41	0	3294625792	42	6526
2026-01-30 14:30:19.78	122.73	6.97	-35.5	-36.3	23.3	0.00e+00	0	41	0	3299868672	42	6647
2026-01-30 14:30:20.79	122.85	6.92	-35.6	-36.4	23.1	0.00e+00	0	41	0	3306160128	42	6764
2026-01-30 14:30:21.79	122.98	6.87	-35.6	-36.4	23.2	0.00e+00	0	41	0	3311403008	42	6695
2026-01-30 14:30:22.80	123.10	6.82	-35.6	-36.4	23.1	0.00e+00	0	41	0	3317694464	42	6767
2026-01-30 14:30:23.81	123.22	6.77	-35.7	-36.5	23.0	0.00e+00	0	41	0	3322937344	42	6774
2026-01-30 14:30:24.82	123.35	6.72	-35.5	-36.3	23.2	0.00e+00	0	41	0	3328180224	42	6656
2026-01-30 14:30:25.83	123.47	6.67	-35.5	-36.3	23.2	0.00e+00	0	41	0	3334471680	42	6676
2026-01-30 14:30:26.84	123.59	6.62	-35.5	-36.2	23.2	0.00e+00	0	41	0	3339714560	42	6572
2026-01-30 14:30:27.85	123.71	6.57	-35.6	-36.5	23.1	0.00e+00	0	41	0	3346006016	42	6774
2026-01-30 14:30:28.86	123.83	6.52	-35.7	-36.5	23.0	0.00e+00	0	41	0	3351248896	42	6847
2026-01-30 14:30:29.87	123.96	6.47	-35.5	-36.2	23.2	0.00e+00	0	41	0	3356491776	42	6579
2026-01-30 14:30:30.88	124.08	6.41	-35.5	-36.2	23.2	0.00e+00	0	41	0	3362783232	42	6570
2026-01-30 14:30:31.89	124.20	6.36	-35.6	-36.3	23.1	0.00e+00	0	41	0	3368026112	42	6675
2026-01-30 14:30:32.90	124.32	6.31	-35.7	-36.4	23.0	0.00e+00	0	41	0	3373268992	42	6735
2026-01-30 14:30:33.90	124.43	6.26	-35.7	-36.5	22.9	0.00e+00	0	41	0	3379560448	44	6043
2026-01-30 14:30:34.91	124.55	6.21	-35.8	-36.6	22.9	0.00e+00	0	41	0	3384803328	44	6138
2026-01-30 14:30:35.92	124.67	6.16	-35.8	-36.6	22.8	0.00e+00	0	41	0	3391094784	44	6115
2026-01-30 14:30:36.93	124.79	6.11	-35.8	-36.6	22.7	0.00e+00	0	41	0	3396337664	44	6121
2026-01-30 14:30:37.94	124.91	6.06	-35.9	-36.7	22.8	0.00e+00	0	41	0	3402629120	44	6202
2026-01-30 14:30:38.95	125.02	6.01	-35.8	-36.7	22.8	0.00e+00	0	41	0	3407872000	44	6189
2026-01-30 14:30:39.96	125.14	5.96	-35.8	-36.6	22.9	0.00e+00	0	41	0	3413114880	44	6131
2026-01-30 14:30:40.98	125.26	5.91	-35.8	-36.5	22.8	0.00e+00	0	41	0	3419406336	44	6099
2026-01-30 14:30:41.98	125.37	5.86	-35.8	-36.6	22.9	0.00e+00	0	41	0	3424649216	44	6154
2026-01-30 14:30:42.99	125.49	5.80	-35.9	-36.7	22.6	0.00e+00	0	41	0	3430940672	44	6238
2026-01-30 14:30:44.00	125.60	5.75	-35.8	-36.6	22.8	0.00e+00	0	41	0	3436183552	44	6156
2026-01-30 14:30:45.01	125.72	5.70	-35.6	-36.4	23.0	0.00e+00	0	41	0	3442475008	44	5999
2026-01-30 14:30:46.02	125.83	5.65	-35.7	-36.5	23.0	0.00e+00	0	41	0	3447717888	44	6048
2026-01-30 14:30:47.03	125.95	5.60	-35.7	-36.5	22.9	0.00e+00	0	41	0	3452960768	44	6071
2026-01-30 14:30:48.04	126.06	5.55	-35.7	-36.5	22.9	0.00e+00	0	41	0	3459252224	44	6052
2026-01-30 14:30:49.05	126.18	5.50	-35.8	-36.6	22.8	0.00e+00	0	41	0	3464495104	44	6121
2026-01-30 14:30:50.06	126.29	5.45	-35.6	-36.3	23.0	0.00e+00	0	41	0	3470786560	44	5950
2026-01-30 14:30:51.07	126.40	5.40	-35.7	-36.4	22.8	0.00e+00	0	41	0	3476029440	44	6001
2026-01-30 14:30:52.08	126.51	5.35	-35.9	-36.6	22.6	0.00e+00	0	41	0	3481272320	44	6146
2026-01-30 14:30:53.09	126.62	5.30	-35.8	-36.5	22.7	0.00e+00	0	41	0	3487563776	44	6059
2026-01-30 14:30:54.10	126.74	5.25	-35.8	-36.6	22.7	0.00e+00	0	41	0	3492806656	44	6132
2026-01-30 14:30:55.11	126.85	5.20	-36.0	-36.7	22.5	0.00e+00	0	41	0	3499098112	44	6233
2026-01-30 14:30:56.13	126.96	5.14	-35.8	-36.6	22.6	0.00e+00	0	41	0	3504340992	44	6140
2026-01-30 14:30:57.13	127.07	5.09	-36.0	-36.7	22.4	0.00e+00	0	41	0	3509583872	44	6209
2026-01-30 14:30:58.14	127.18	5.04	-36.0	-36.8	22.5	0.00e+00	0	41	0	3515875328	44	6249
2026-01-30 14:30:59.15	127.29	4.99	-35.9	-36.7	22.6	0.00e+00	0	41	0	3521118208	44	6238
2026-01-30 14:31:00.16	127.40	4.94	-36.0	-36.8	22.4	0.00e+00	0	41	0	3527409664	44	6252
2026-01-30 14:31:01.17	127.51	4.89	-35.9	-36.8	22.5	0.00e+00	0	41	0	3532652544	44	6248
2026-01-30 14:31:02.18	127.62	4.84	-35.9	-36.8	22.5	0.00e+00	0	41	0	3538944000	44	6264
2026-01-30 14:31:03.19	127.72	4.79	-35.9	-36.8	22.6	0.00e+00	0	41	0	3544186880	44	6271
2026-01-30 14:31:04.20	127.83	4.74	-36.0	-36.9	22.4	0.00e+00	0	41	0	3550478336	44	6341
2026-01-30 14:31:05.21	127.94	4.69	-36.1	-36.9	22.5	0.00e+00	0	41	0	3555721216	44	6347
2026-01-30 14:31:06.22	128.05	4.64	-36.1	-37.0	22.2	0.00e+00	0	41	0	3560964096	44	6433
2026-01-30 14:31:07.23	128.15	4.59	-35.9	-36.6	22.5	0.00e+00	0	41	0	3567255552	44	6163
2026-01-30 14:31:08.24	128.26	4.54	-35.9	-36.6	22.5	0.00e+00	0	41	0	3572498432	44	6132
2026-01-30 14:31:09.25	128.37	4.49	-35.9	-36.6	22.5	0.00e+00	0	41	0	3578789888	44	6132
2026-01-30 14:31:10.26	128.47	4.44	-35.9	-36.7	22.5	0.00e+00	0	41	0	3584032768	44	6213
2026-01-30 14:31:11.27	128.58	4.38	-36.1	-36.8	22.3	0.00e+00	0	41	0	3589275648	44	6276
2026-01-30 14:31:12.28	128.68	4.33	-36.1	-37.0	22.3	0.00e+00	0	41	0	3595567104	44	6401
2026-01-30 14:31:13.29	128.79	4.28	-36.2	-37.0	22.2	0.00e+00	0	41	0	3600809984	44	6432
2026-01-30 14:31:14.30	128.89	4.23	-36.3	-37.0	22.1	0.00e+00	0	41	0	3607101440	44	6443
