passes_logs/2026/01/30/R4.6S_Anadyr/R4.6S_Anadyr__20260130_120325_NOAA_20_JPSS-1_rec.log

#Pass ID: 20260130_120325_NOAA 20 (JPSS-1)
#Satellite: NOAA 20 (JPSS-1)
#Configuration: NOAA 20
#almurnet v.1.7.20251203
#Start time: 2026-01-30 12:03:26

#Version: 2.2.20231116
#Station: R4.6S_Anadyr
#Location: 177.4865 lon 64.73178 lat
#TLE: 1 43013U 17073A   26029.42702672  .00000137  00000+0  85918-4 0  9993
#TLE: 2 43013  98.7646 330.2153 0000804  19.9045 340.2162 14.19525092424781

#Time	Az	El	Level	Level2	SNR	BER	BlckErr	Temp	State	Recorded	gain1	gain2
2026-01-30 12:03:26.21	19.51	0.04	-49.6	-64.6	3.5	1.51e+00	0	38	0	0	60	61295
2026-01-30 12:03:27.21	19.60	0.09	-49.6	-64.8	3.6	1.51e+00	0	39	104	0	60	63115
2026-01-30 12:03:28.22	19.68	0.13	-49.6	-64.8	3.6	1.51e+00	0	39	104	0	60	62903
2026-01-30 12:03:29.23	19.76	0.18	-49.6	-64.9	3.6	1.51e+00	0	39	104	0	60	63272
2026-01-30 12:03:30.24	19.85	0.22	-49.7	-64.9	3.6	1.51e+00	0	39	104	0	60	63430
2026-01-30 12:03:31.25	19.93	0.27	-49.6	-64.9	3.6	1.51e+00	0	39	104	0	60	63411
2026-01-30 12:03:32.26	20.02	0.32	-49.7	-64.9	3.6	1.51e+00	0	39	104	0	60	63511
2026-01-30 12:03:33.27	20.10	0.36	-49.6	-64.9	3.6	1.51e+00	0	39	104	0	60	63777
2026-01-30 12:03:34.28	20.19	0.41	-49.7	-64.9	3.6	1.51e+00	0	39	104	0	60	63423
2026-01-30 12:03:35.29	20.27	0.46	-49.7	-64.9	3.6	1.51e+00	0	39	104	0	60	63474
2026-01-30 12:03:36.30	20.36	0.50	-49.6	-64.9	3.6	1.51e+00	0	39	104	0	60	63205
2026-01-30 12:03:37.31	20.44	0.55	-49.7	-64.8	3.6	1.51e+00	0	39	104	0	60	63062
2026-01-30 12:03:38.32	20.53	0.59	-49.6	-64.8	3.6	1.51e+00	0	39	104	0	60	63001
2026-01-30 12:03:39.33	20.62	0.64	-49.5	-64.8	3.6	1.51e+00	0	39	104	0	60	62467
2026-01-30 12:03:40.34	20.70	0.69	-49.5	-64.8	3.6	1.51e+00	0	39	104	0	60	62515
2026-01-30 12:03:41.35	20.79	0.73	-49.5	-64.7	3.6	1.51e+00	0	39	104	0	60	62144
2026-01-30 12:03:42.36	20.88	0.78	-49.4	-64.6	3.6	1.51e+00	0	39	104	0	60	61398
2026-01-30 12:03:43.37	20.96	0.82	-49.3	-64.5	3.6	1.51e+00	0	39	104	0	60	60756
2026-01-30 12:03:44.38	21.05	0.87	-49.2	-64.4	3.5	1.51e+00	0	39	104	0	60	60011
2026-01-30 12:03:45.39	21.14	0.92	-49.1	-64.3	3.6	1.51e+00	0	39	104	0	60	59629
2026-01-30 12:03:46.40	21.23	0.96	-49.0	-64.3	3.6	1.51e+00	0	39	104	0	60	59057
2026-01-30 12:03:47.41	21.32	1.01	-48.9	-64.1	3.6	1.51e+00	0	39	104	0	60	58062
2026-01-30 12:03:48.42	21.41	1.06	-48.7	-63.9	3.6	1.51e+00	0	39	104	0	60	56445
2026-01-30 12:03:49.43	21.49	1.10	-48.4	-63.6	3.6	1.51e+00	0	39	104	0	60	54848
2026-01-30 12:03:50.44	21.58	1.15	-48.1	-63.2	3.6	1.51e+00	0	39	104	0	60	52510
2026-01-30 12:03:51.45	21.67	1.20	-48.1	-63.2	3.6	1.51e+00	0	39	104	0	60	52518
2026-01-30 12:03:52.46	21.76	1.24	-48.1	-63.2	3.6	1.51e+00	0	40	104	0	60	52281
2026-01-30 12:03:53.47	21.85	1.29	-48.1	-63.2	3.6	1.51e+00	0	39	104	0	60	52526
2026-01-30 12:03:54.48	21.94	1.34	-48.1	-63.2	3.6	1.51e+00	0	40	104	0	60	52279
2026-01-30 12:03:55.50	22.03	1.38	-48.1	-63.2	3.6	1.51e+00	0	40	104	0	60	52416
2026-01-30 12:03:56.50	22.12	1.43	-48.1	-63.2	3.6	1.51e+00	0	40	104	0	60	52210
2026-01-30 12:03:57.51	22.22	1.48	-48.1	-63.2	3.6	1.51e+00	0	40	104	0	60	52312
2026-01-30 12:03:58.52	22.31	1.52	-48.1	-63.2	3.6	1.51e+00	0	40	104	0	60	52270
2026-01-30 12:03:59.53	22.40	1.57	-48.1	-63.2	3.6	1.51e+00	0	40	104	0	60	52172
2026-01-30 12:04:00.54	22.49	1.62	-48.0	-63.2	3.6	1.51e+00	0	40	104	0	60	52022
2026-01-30 12:04:01.55	22.58	1.66	-48.1	-63.2	3.6	1.51e+00	0	40	104	0	60	52150
2026-01-30 12:04:02.56	22.67	1.71	-48.1	-63.2	3.6	1.51e+00	0	40	104	0	60	52209
2026-01-30 12:04:03.57	22.77	1.76	-48.1	-63.2	3.6	1.51e+00	0	40	104	0	60	52219
2026-01-30 12:04:04.58	22.86	1.80	-48.0	-63.2	3.6	1.51e+00	0	40	104	0	60	52326
2026-01-30 12:04:05.59	22.95	1.85	-48.1	-63.2	3.6	1.51e+00	0	40	104	0	60	52324
2026-01-30 12:04:06.61	23.05	1.90	-48.0	-63.2	3.6	1.51e+00	0	40	104	0	60	52215
2026-01-30 12:04:07.62	23.14	1.94	-48.0	-63.2	3.6	1.51e+00	0	40	104	0	60	51973
2026-01-30 12:04:08.62	23.24	1.99	-48.1	-63.2	3.6	1.51e+00	0	40	104	0	60	52249
2026-01-30 12:04:09.63	23.33	2.04	-48.0	-63.1	3.6	1.51e+00	0	40	104	0	60	51557
2026-01-30 12:04:10.64	23.42	2.08	-48.1	-63.0	3.6	1.51e+00	0	40	104	0	60	51224
2026-01-30 12:04:11.65	23.52	2.13	-48.0	-63.1	3.6	1.51e+00	0	40	104	0	60	51745
2026-01-30 12:04:12.66	23.61	2.18	-48.0	-63.1	3.6	1.51e+00	0	40	104	0	60	51866
2026-01-30 12:04:13.67	23.71	2.22	-48.0	-63.2	3.6	1.51e+00	0	40	104	0	60	52157
2026-01-30 12:04:14.68	23.81	2.27	-48.1	-63.2	3.6	1.51e+00	0	40	104	0	60	52135
2026-01-30 12:04:15.69	23.90	2.32	-48.1	-63.2	3.6	1.51e+00	0	40	104	0	60	52376
2026-01-30 12:04:16.70	24.00	2.36	-48.1	-63.2	3.6	1.51e+00	0	40	104	0	60	52034
2026-01-30 12:04:17.71	24.09	2.41	-48.0	-62.6	3.6	1.51e+00	0	40	104	0	60	48713
2026-01-30 12:04:18.73	24.19	2.46	-48.0	-62.0	3.6	1.51e+00	0	40	104	0	60	45620
2026-01-30 12:04:19.74	24.29	2.51	-48.0	-62.1	3.6	1.51e+00	0	40	104	0	60	46076
2026-01-30 12:04:20.75	24.39	2.55	-48.0	-62.6	3.6	1.51e+00	0	40	104	0	60	48647
2026-01-30 12:04:21.76	24.49	2.60	-48.0	-61.1	3.6	1.51e+00	0	40	104	0	60	40857
2026-01-30 12:04:22.77	24.58	2.65	-47.4	-55.6	6.7	1.35e+00	0	40	104	0	60	21771
2026-01-30 12:04:23.78	24.68	2.69	-46.4	-51.2	10.8	1.35e-02	0	40	0	1048576	60	13139
2026-01-30 12:04:24.79	24.78	2.74	-45.0	-48.1	14.2	4.73e-05	92	40	0	3145728	60	9189
2026-01-30 12:04:25.80	24.88	2.79	-43.3	-45.4	16.9	0.00e+00	52	40	0	4194304	60	6749
2026-01-30 12:04:26.81	24.98	2.83	-42.3	-44.1	18.1	0.00e+00	92	40	0	6291456	58	6474
2026-01-30 12:04:27.82	25.08	2.88	-42.0	-43.7	18.5	0.00e+00	0	40	0	8388608	58	6209
2026-01-30 12:04:28.83	25.18	2.93	-42.0	-43.7	18.3	0.00e+00	23	40	0	10485760	58	6237
2026-01-30 12:04:29.84	25.28	2.98	-43.4	-45.6	16.4	0.00e+00	0	40	0	12582912	58	7729
2026-01-30 12:04:30.85	25.38	3.02	-44.3	-47.0	14.8	0.00e+00	0	40	0	14680064	60	8114
2026-01-30 12:04:31.87	25.48	3.07	-42.7	-44.6	17.6	0.00e+00	0	40	0	15728640	60	6149
2026-01-30 12:04:32.87	25.58	3.12	-42.1	-43.8	18.4	0.00e+00	0	40	0	17825792	58	6277
2026-01-30 12:04:33.88	25.68	3.16	-48.0	-62.7	3.6	1.47e-01	0	40	104	19922944	60	49601
2026-01-30 12:04:34.89	25.78	3.21	-47.7	-58.6	3.9	1.50e+00	0	40	104	19922944	60	30642
2026-01-30 12:04:35.90	25.89	3.26	-45.7	-49.6	10.4	8.04e-02	90	40	0	19922944	60	10856
2026-01-30 12:04:36.91	25.99	3.31	-41.4	-42.9	19.6	0.00e+00	0	40	0	22020096	58	5663
2026-01-30 12:04:37.92	26.09	3.35	-41.3	-42.7	19.5	0.00e+00	52	40	0	23068672	56	6230
2026-01-30 12:04:38.93	26.19	3.40	-41.7	-43.3	19.0	0.00e+00	0	40	0	25165824	56	6643
2026-01-30 12:04:39.94	26.30	3.45	-41.8	-43.3	19.1	0.00e+00	52	40	0	27262976	56	6675
2026-01-30 12:04:40.95	26.40	3.49	-41.9	-43.5	18.8	0.00e+00	92	40	0	29360128	56	6807
2026-01-30 12:04:41.96	26.51	3.54	-41.7	-43.2	19.3	0.00e+00	22	40	0	31457280	56	6602
2026-01-30 12:04:42.96	26.61	3.59	-41.9	-43.5	18.9	0.00e+00	90	40	0	32505856	56	6815
2026-01-30 12:04:43.97	26.71	3.64	-42.1	-43.7	18.6	0.00e+00	2	40	0	34603008	56	6974
2026-01-30 12:04:44.98	26.82	3.68	-42.2	-43.8	19.0	0.00e+00	51	40	0	36700160	56	7073
2026-01-30 12:04:45.99	26.92	3.73	-41.9	-43.5	19.0	0.00e+00	0	40	0	38797312	56	6788
2026-01-30 12:04:47.00	27.03	3.78	-41.6	-43.0	19.6	0.00e+00	0	40	0	40894464	56	6461
2026-01-30 12:04:48.01	27.13	3.82	-41.4	-42.9	19.4	0.00e+00	17	40	0	41943040	56	6333
2026-01-30 12:04:49.02	27.24	3.87	-41.5	-42.9	19.6	0.00e+00	0	40	0	44040192	56	6361
2026-01-30 12:04:50.03	27.35	3.92	-41.5	-42.9	19.5	0.00e+00	92	40	0	46137344	56	6375
2026-01-30 12:04:51.04	27.45	3.97	-41.5	-43.0	19.7	0.00e+00	0	40	0	48234496	56	6411
2026-01-30 12:04:52.05	27.56	4.01	-41.3	-42.7	19.8	0.00e+00	27	40	0	50331648	56	6231
2026-01-30 12:04:53.06	27.67	4.06	-40.9	-42.2	20.3	0.00e+00	0	40	0	51380224	56	5856
2026-01-30 12:04:54.07	27.78	4.11	-41.0	-42.3	20.1	0.00e+00	29	40	0	53477376	54	6674
2026-01-30 12:04:55.08	27.89	4.16	-41.3	-42.8	19.7	0.00e+00	30	40	0	55574528	54	7008
2026-01-30 12:04:56.09	27.99	4.20	-40.9	-42.3	20.2	0.00e+00	28	40	0	57671680	54	6623
2026-01-30 12:04:57.10	28.10	4.25	-40.8	-42.1	20.3	0.00e+00	91	40	0	59768832	54	6509
2026-01-30 12:04:58.11	28.21	4.30	-40.9	-42.2	20.2	0.00e+00	2	40	0	61865984	54	6596
2026-01-30 12:04:59.12	28.32	4.35	-40.6	-41.9	20.5	0.00e+00	0	40	0	62914560	54	6343
2026-01-30 12:05:00.13	28.43	4.39	-40.7	-42.0	20.3	0.00e+00	28	40	0	65011712	54	6455
2026-01-30 12:05:01.14	28.54	4.44	-40.7	-42.0	20.6	0.00e+00	51	40	0	67108864	54	6426
2026-01-30 12:05:02.15	28.65	4.49	-40.8	-42.1	20.3	0.00e+00	15	40	0	69206016	54	6466
2026-01-30 12:05:03.16	28.76	4.53	-40.9	-42.2	20.3	0.00e+00	32	40	0	71303168	54	6577
2026-01-30 12:05:04.17	28.87	4.58	-40.8	-42.1	20.4	0.00e+00	91	40	0	72351744	54	6537
2026-01-30 12:05:05.18	28.99	4.63	-40.7	-42.0	20.5	0.00e+00	2	40	0	74448896	54	6448
2026-01-30 12:05:06.19	29.10	4.68	-40.7	-42.0	20.4	0.00e+00	92	40	0	76546048	54	6447
2026-01-30 12:05:07.20	29.21	4.72	-40.7	-42.0	20.4	0.00e+00	0	40	0	78643200	54	6447
2026-01-30 12:05:08.21	29.32	4.77	-40.7	-42.0	20.5	0.00e+00	2	40	0	80740352	54	6436
2026-01-30 12:05:09.22	29.44	4.82	-40.7	-41.9	20.6	0.00e+00	0	40	0	81788928	54	6368
2026-01-30 12:05:10.23	29.55	4.87	-40.7	-42.0	20.6	0.00e+00	0	40	0	83886080	54	6392
2026-01-30 12:05:11.24	29.66	4.91	-40.8	-42.1	20.4	0.00e+00	92	40	0	85983232	54	6523
2026-01-30 12:05:12.25	29.78	4.96	-40.6	-41.9	20.7	0.00e+00	4	40	0	88080384	54	6352
2026-01-30 12:05:13.26	29.89	5.01	-40.7	-42.0	20.5	0.00e+00	92	40	0	90177536	54	6449
2026-01-30 12:05:14.27	30.01	5.05	-40.6	-41.9	20.6	0.00e+00	0	40	0	91226112	54	6356
2026-01-30 12:05:15.28	30.12	5.10	-40.7	-41.9	20.6	0.00e+00	0	40	0	93323264	54	6379
2026-01-30 12:05:16.29	30.24	5.15	-40.9	-42.2	20.5	0.00e+00	29	40	0	95420416	54	6543
2026-01-30 12:05:17.30	30.35	5.20	-40.7	-42.0	20.7	0.00e+00	29	40	0	97517568	54	6392
2026-01-30 12:05:18.30	30.47	5.24	-40.9	-42.2	20.3	0.00e+00	0	40	0	99614720	54	6592
2026-01-30 12:05:19.31	30.58	5.29	-40.9	-42.2	20.4	0.00e+00	0	40	0	100663296	54	6598
2026-01-30 12:05:20.32	30.70	5.34	-41.0	-42.3	20.3	0.00e+00	92	40	0	102760448	54	6641
2026-01-30 12:05:21.33	30.82	5.38	-40.9	-42.2	20.5	0.00e+00	22	40	0	104857600	54	6572
2026-01-30 12:05:22.34	30.93	5.43	-40.9	-42.3	20.3	0.00e+00	39	40	0	106954752	54	6618
2026-01-30 12:05:23.35	31.05	5.48	-40.8	-42.0	20.5	0.00e+00	0	40	0	109051904	54	6463
2026-01-30 12:05:24.36	31.17	5.53	-40.7	-42.0	20.5	0.00e+00	29	40	0	110100480	54	6407
2026-01-30 12:05:25.37	31.29	5.57	-40.8	-42.1	20.6	0.00e+00	0	40	0	112197632	54	6477
2026-01-30 12:05:26.38	31.41	5.62	-40.8	-42.0	20.5	0.00e+00	52	40	0	114294784	54	6448
2026-01-30 12:05:27.39	31.53	5.67	-40.8	-42.0	20.6	0.00e+00	92	40	0	116391936	54	6460
2026-01-30 12:05:28.40	31.65	5.71	-40.7	-42.0	20.7	0.00e+00	56	40	0	118489088	54	6393
2026-01-30 12:05:29.41	31.77	5.76	-40.4	-41.6	21.0	0.00e+00	92	40	0	119537664	54	6151
2026-01-30 12:05:30.42	31.89	5.81	-40.4	-41.6	21.1	0.00e+00	7	40	0	121634816	54	6116
2026-01-30 12:05:31.43	32.01	5.85	-40.3	-41.4	21.1	0.00e+00	5	40	0	123731968	54	6027
2026-01-30 12:05:32.44	32.13	5.90	-40.4	-41.6	21.0	0.00e+00	7	40	0	125829120	54	6156
2026-01-30 12:05:33.45	32.25	5.95	-40.4	-41.6	21.1	0.00e+00	0	40	0	127926272	54	6123
2026-01-30 12:05:34.46	32.37	6.00	-40.6	-41.8	20.9	0.00e+00	83	40	0	130023424	54	6288
2026-01-30 12:05:35.47	32.50	6.04	-40.6	-41.9	20.6	0.00e+00	29	40	0	131072000	54	6345
2026-01-30 12:05:36.48	32.62	6.09	-40.7	-41.9	20.9	0.00e+00	92	40	0	133169152	54	6363
2026-01-30 12:05:37.49	32.74	6.14	-40.3	-41.5	21.3	0.00e+00	0	40	0	135266304	54	6042
2026-01-30 12:05:38.50	32.87	6.18	-40.3	-41.5	21.2	0.00e+00	24	40	0	137363456	54	6051
2026-01-30 12:05:39.51	32.99	6.23	-40.1	-41.3	21.4	0.00e+00	0	40	0	139460608	54	5897
2026-01-30 12:05:40.52	33.11	6.28	-40.2	-41.4	21.3	0.00e+00	58	40	0	140509184	54	5979
2026-01-30 12:05:41.53	33.24	6.32	-40.5	-41.7	21.0	0.00e+00	0	40	0	142606336	54	6204
2026-01-30 12:05:42.53	33.36	6.37	-40.2	-41.3	21.4	0.00e+00	29	40	0	144703488	54	5945
2026-01-30 12:05:43.54	33.49	6.42	-40.0	-41.2	21.5	0.00e+00	92	40	0	146800640	54	5832
2026-01-30 12:05:44.55	33.61	6.46	-40.0	-41.1	21.6	0.00e+00	62	40	0	148897792	54	5784
2026-01-30 12:05:45.56	33.74	6.51	-39.9	-41.0	21.6	0.00e+00	92	40	0	149946368	54	5738
2026-01-30 12:05:46.57	33.87	6.56	-40.1	-41.2	21.5	0.00e+00	6	40	0	152043520	54	5880
2026-01-30 12:05:47.59	33.99	6.60	-40.0	-41.2	21.5	0.00e+00	7	40	0	154140672	54	5844
2026-01-30 12:05:48.60	34.12	6.65	-40.2	-41.3	21.3	0.00e+00	0	40	0	156237824	54	5937
2026-01-30 12:05:49.61	34.25	6.70	-40.0	-41.1	21.6	0.00e+00	7	40	0	158334976	54	5822
2026-01-30 12:05:50.62	34.38	6.74	-40.0	-41.1	21.6	0.00e+00	92	40	0	159383552	54	5794
2026-01-30 12:05:51.63	34.51	6.79	-39.9	-41.0	21.8	0.00e+00	7	40	0	161480704	54	5748
2026-01-30 12:05:52.63	34.63	6.84	-39.9	-41.0	21.7	0.00e+00	92	40	0	163577856	54	5715
2026-01-30 12:05:53.64	34.76	6.88	-39.9	-41.0	21.7	0.00e+00	8	40	0	165675008	54	5720
2026-01-30 12:05:54.65	34.89	6.93	-39.9	-41.0	21.8	0.00e+00	6	40	0	167772160	54	5707
2026-01-30 12:05:55.66	35.02	6.97	-39.9	-41.0	21.9	0.00e+00	5	40	0	168820736	54	5715
2026-01-30 12:05:56.67	35.15	7.02	-39.8	-40.8	21.9	0.00e+00	0	40	0	170917888	52	6314
2026-01-30 12:05:57.68	35.29	7.07	-39.7	-40.8	22.0	0.00e+00	92	40	0	173015040	52	6269
2026-01-30 12:05:58.69	35.42	7.11	-39.6	-40.7	22.1	0.00e+00	0	40	0	175112192	52	6208
2026-01-30 12:05:59.70	35.55	7.16	-39.7	-40.7	22.0	0.00e+00	88	40	0	177209344	52	6224
2026-01-30 12:06:00.71	35.68	7.21	-39.6	-40.7	22.1	0.00e+00	26	40	0	178257920	52	6197
2026-01-30 12:06:01.72	35.81	7.25	-39.7	-40.7	22.1	0.00e+00	26	40	0	180355072	52	6221
2026-01-30 12:06:02.73	35.95	7.30	-39.7	-40.8	22.0	0.00e+00	51	40	0	182452224	52	6265
2026-01-30 12:06:03.74	36.08	7.34	-39.8	-40.9	21.9	0.00e+00	50	40	0	184549376	52	6335
2026-01-30 12:06:04.75	36.21	7.39	-39.7	-40.7	22.1	0.00e+00	0	40	0	186646528	52	6224
2026-01-30 12:06:05.76	36.35	7.44	-39.7	-40.7	21.8	0.00e+00	49	40	0	187695104	52	6232
2026-01-30 12:06:06.77	36.48	7.48	-39.8	-40.9	21.9	0.00e+00	90	40	0	189792256	52	6364
2026-01-30 12:06:07.78	36.62	7.53	-39.9	-41.0	21.9	0.00e+00	0	40	0	191889408	52	6398
2026-01-30 12:06:08.78	36.75	7.57	-39.8	-40.9	21.9	0.00e+00	92	40	0	193986560	52	6376
2026-01-30 12:06:09.79	36.89	7.62	-39.8	-40.9	21.9	0.00e+00	54	40	0	196083712	52	6348
2026-01-30 12:06:10.80	37.02	7.66	-39.8	-40.9	21.9	0.00e+00	57	40	0	198180864	52	6329
2026-01-30 12:06:11.81	37.16	7.71	-39.8	-40.9	22.0	0.00e+00	0	40	0	199229440	52	6340
2026-01-30 12:06:12.82	37.30	7.76	-39.9	-41.0	21.8	0.00e+00	0	40	0	201326592	52	6454
2026-01-30 12:06:13.83	37.43	7.80	-39.8	-40.9	22.0	0.00e+00	92	40	0	203423744	52	6335
2026-01-30 12:06:14.84	37.57	7.85	-39.6	-40.6	22.2	0.00e+00	2	40	0	205520896	52	6154
2026-01-30 12:06:15.85	37.71	7.89	-39.7	-40.8	22.1	0.00e+00	92	40	0	207618048	52	6247
2026-01-30 12:06:16.86	37.85	7.94	-39.6	-40.6	22.2	0.00e+00	0	40	0	208666624	52	6159
2026-01-30 12:06:17.87	37.99	7.98	-39.6	-40.6	22.2	0.00e+00	26	40	0	210763776	52	6160
2026-01-30 12:06:18.88	38.13	8.03	-39.7	-40.8	22.1	0.00e+00	5	40	0	212860928	52	6248
2026-01-30 12:06:19.89	38.27	8.07	-39.8	-40.9	22.0	0.00e+00	31	40	0	214958080	52	6352
2026-01-30 12:06:20.90	38.41	8.12	-39.8	-40.8	22.0	0.00e+00	0	40	0	217055232	52	6305
2026-01-30 12:06:21.91	38.55	8.16	-39.8	-40.8	22.0	0.00e+00	0	40	0	218103808	52	6310
2026-01-30 12:06:22.92	38.69	8.21	-39.8	-40.9	21.9	0.00e+00	92	40	0	220200960	52	6365
2026-01-30 12:06:23.93	38.83	8.25	-39.9	-40.9	21.9	0.00e+00	26	40	0	222298112	52	6376
2026-01-30 12:06:24.94	38.97	8.30	-39.9	-41.0	21.8	0.00e+00	59	40	0	224395264	52	6446
2026-01-30 12:06:25.96	39.12	8.34	-39.8	-40.8	22.0	0.00e+00	26	40	0	226492416	52	6309
2026-01-30 12:06:26.97	39.26	8.39	-39.7	-40.7	22.1	0.00e+00	0	40	0	227540992	52	6230
2026-01-30 12:06:27.98	39.40	8.43	-39.7	-40.8	22.0	0.00e+00	10	40	0	229638144	52	6253
2026-01-30 12:06:28.99	39.55	8.48	-40.1	-41.2	21.6	0.00e+00	52	40	0	231735296	52	6566
2026-01-30 12:06:30.00	39.69	8.52	-40.4	-41.5	21.4	0.00e+00	92	40	0	233832448	52	6810
2026-01-30 12:06:31.01	39.84	8.56	-40.1	-41.2	21.8	0.00e+00	0	40	0	235929600	52	6569
2026-01-30 12:06:32.02	39.98	8.61	-40.0	-41.1	21.8	0.00e+00	92	40	0	238026752	52	6491
2026-01-30 12:06:33.03	40.13	8.65	-39.7	-40.8	22.2	0.00e+00	0	40	0	239075328	52	6248
2026-01-30 12:06:34.03	40.27	8.70	-39.8	-40.9	22.0	0.00e+00	0	40	0	241172480	52	6364
2026-01-30 12:06:35.05	40.42	8.74	-39.9	-41.0	21.9	0.00e+00	0	40	0	243269632	52	6428
2026-01-30 12:06:36.05	40.56	8.78	-40.0	-41.1	21.8	0.00e+00	0	40	0	245366784	52	6508
2026-01-30 12:06:37.06	40.71	8.83	-40.1	-41.2	21.8	0.00e+00	92	40	0	246415360	52	6568
2026-01-30 12:06:38.07	40.86	8.87	-40.1	-41.2	21.8	0.00e+00	32	40	0	248512512	52	6588
2026-01-30 12:06:39.07	41.00	8.92	-40.1	-41.1	21.8	0.00e+00	92	40	0	250609664	52	6536
2026-01-30 12:06:40.08	41.15	8.96	-40.1	-41.2	21.8	0.00e+00	0	40	0	252706816	52	6554
2026-01-30 12:06:41.09	41.30	9.00	-40.1	-41.2	21.8	0.00e+00	0	40	0	254803968	52	6558
2026-01-30 12:06:42.10	41.45	9.05	-40.1	-41.2	21.8	0.00e+00	0	40	0	255852544	52	6602
2026-01-30 12:06:43.12	41.60	9.09	-40.1	-41.2	21.8	0.00e+00	0	40	0	257949696	52	6549
2026-01-30 12:06:44.13	41.75	9.13	-40.0	-41.1	21.9	0.00e+00	50	40	0	260046848	52	6493
2026-01-30 12:06:45.13	41.90	9.18	-39.9	-40.9	22.0	0.00e+00	32	40	0	262144000	52	6368
2026-01-30 12:06:46.15	42.05	9.22	-39.8	-40.9	22.0	0.00e+00	92	40	0	264241152	52	6365
2026-01-30 12:06:47.16	42.20	9.26	-40.0	-41.1	21.9	0.00e+00	31	40	0	266338304	52	6474
2026-01-30 12:06:48.16	42.36	9.30	-39.9	-41.0	22.0	0.00e+00	92	40	0	267386880	52	6395
2026-01-30 12:06:49.18	42.51	9.35	-40.0	-41.0	22.0	0.00e+00	0	40	0	269484032	52	6464
2026-01-30 12:06:50.19	42.66	9.39	-40.0	-41.1	21.8	0.00e+00	0	40	0	271581184	52	6516
2026-01-30 12:06:51.19	42.81	9.43	-40.1	-41.2	21.8	0.00e+00	33	40	0	273678336	52	6592
2026-01-30 12:06:52.20	42.97	9.48	-40.1	-41.2	21.8	0.00e+00	0	40	0	275775488	52	6566
2026-01-30 12:06:53.21	43.12	9.52	-40.2	-41.3	21.6	0.00e+00	92	40	0	276824064	52	6677
2026-01-30 12:06:54.22	43.28	9.56	-40.1	-41.2	21.8	0.00e+00	0	40	0	278921216	52	6612
2026-01-30 12:06:55.23	43.43	9.60	-40.1	-41.2	21.8	0.00e+00	59	40	0	281018368	52	6585
2026-01-30 12:06:56.24	43.59	9.64	-40.1	-41.2	21.7	0.00e+00	0	40	0	283115520	52	6609
2026-01-30 12:06:57.25	43.74	9.69	-40.3	-41.4	21.7	0.00e+00	3	40	0	285212672	52	6725
2026-01-30 12:06:58.26	43.90	9.73	-40.3	-41.5	21.6	0.00e+00	0	40	0	286261248	52	6773
2026-01-30 12:06:59.27	44.05	9.77	-40.4	-41.5	21.5	0.00e+00	0	40	0	288358400	52	6821
2026-01-30 12:07:00.27	44.21	9.81	-40.3	-41.5	21.6	0.00e+00	90	40	0	290455552	52	6791
2026-01-30 12:07:01.28	44.37	9.85	-40.5	-41.6	21.4	0.00e+00	31	40	0	292552704	52	6889
2026-01-30 12:07:02.29	44.52	9.89	-40.3	-41.5	21.5	0.00e+00	92	40	0	294649856	52	6770
2026-01-30 12:07:03.30	44.68	9.93	-40.3	-41.4	21.6	0.00e+00	0	40	0	295698432	52	6737
2026-01-30 12:07:04.31	44.84	9.98	-40.2	-41.3	21.7	0.00e+00	46	40	0	297795584	52	6679
2026-01-30 12:07:05.32	45.00	10.02	-40.3	-41.4	21.6	0.00e+00	26	40	0	299892736	52	6760
2026-01-30 12:07:06.33	45.16	10.06	-40.3	-41.4	21.6	0.00e+00	0	40	0	301989888	52	6734
2026-01-30 12:07:07.34	45.32	10.10	-40.3	-41.5	21.5	0.00e+00	90	40	0	304087040	52	6792
2026-01-30 12:07:08.35	45.48	10.14	-40.3	-41.4	21.6	0.00e+00	51	40	0	305135616	52	6729
2026-01-30 12:07:09.36	45.64	10.18	-40.3	-41.4	21.6	0.00e+00	92	40	0	307232768	52	6749
2026-01-30 12:07:10.37	45.80	10.22	-40.3	-41.5	21.1	0.00e+00	51	40	0	309329920	52	6790
2026-01-30 12:07:11.38	45.97	10.26	-40.2	-41.3	21.6	0.00e+00	92	40	0	311427072	52	6680
2026-01-30 12:07:12.39	46.13	10.30	-40.3	-41.4	21.7	0.00e+00	5	40	0	313524224	52	6729
2026-01-30 12:07:13.40	46.29	10.34	-40.3	-41.4	21.7	0.00e+00	6	40	0	314572800	52	6720
2026-01-30 12:07:14.41	46.45	10.38	-40.3	-41.4	21.7	0.00e+00	0	40	0	316669952	52	6714
2026-01-30 12:07:15.42	46.62	10.42	-40.3	-41.4	21.6	0.00e+00	0	40	0	318767104	52	6736
2026-01-30 12:07:16.43	46.78	10.46	-40.4	-41.5	21.5	0.00e+00	92	40	0	320864256	52	6801
2026-01-30 12:07:17.44	46.95	10.50	-40.4	-41.5	21.6	0.00e+00	6	40	0	322961408	52	6825
2026-01-30 12:07:18.45	47.11	10.54	-40.4	-41.6	21.5	0.00e+00	90	40	0	324009984	52	6854
2026-01-30 12:07:19.46	47.28	10.58	-40.4	-41.5	21.5	0.00e+00	0	40	0	326107136	52	6835
2026-01-30 12:07:20.47	47.44	10.62	-40.6	-41.7	21.3	0.00e+00	26	40	0	328204288	52	7007
2026-01-30 12:07:21.48	47.61	10.65	-40.5	-41.7	21.5	0.00e+00	0	40	0	330301440	52	6934
2026-01-30 12:07:22.48	47.77	10.69	-40.7	-41.8	21.3	0.00e+00	0	40	0	332398592	52	7075
2026-01-30 12:07:23.49	47.94	10.73	-40.4	-41.6	21.5	0.00e+00	92	40	0	334495744	52	6855
2026-01-30 12:07:24.50	48.11	10.77	-40.6	-41.8	21.3	0.00e+00	0	40	0	335544320	52	7035
2026-01-30 12:07:25.51	48.27	10.81	-40.5	-41.6	21.3	0.00e+00	92	40	0	337641472	54	6157
2026-01-30 12:07:26.52	48.44	10.85	-40.6	-41.7	21.2	0.00e+00	30	40	0	339738624	54	6231
2026-01-30 12:07:27.53	48.61	10.88	-40.6	-41.7	21.3	0.00e+00	31	40	0	341835776	54	6215
2026-01-30 12:07:28.54	48.78	10.92	-40.6	-41.8	21.1	0.00e+00	31	40	0	343932928	54	6258
2026-01-30 12:07:29.55	48.95	10.96	-40.9	-42.1	21.0	0.00e+00	5	40	0	344981504	54	6528
2026-01-30 12:07:30.56	49.12	11.00	-40.9	-42.1	21.0	0.00e+00	0	40	0	347078656	54	6471
2026-01-30 12:07:31.57	49.29	11.03	-40.7	-41.9	21.0	0.00e+00	56	40	0	349175808	54	6337
2026-01-30 12:07:32.58	49.46	11.07	-40.8	-42.0	21.3	0.00e+00	92	40	0	351272960	54	6462
2026-01-30 12:07:33.59	49.63	11.11	-40.6	-41.8	21.2	0.00e+00	54	40	0	353370112	54	6267
2026-01-30 12:07:34.60	49.80	11.14	-40.9	-42.2	21.1	0.00e+00	91	40	0	354418688	54	6550
2026-01-30 12:07:35.61	49.98	11.18	-40.7	-41.9	21.2	0.00e+00	6	40	0	356515840	54	6386
2026-01-30 12:07:36.62	50.15	11.22	-40.4	-41.5	21.5	0.00e+00	0	40	0	358612992	54	6091
2026-01-30 12:07:37.63	50.32	11.25	-40.6	-41.7	21.4	0.00e+00	1	40	0	360710144	54	6225
2026-01-30 12:07:38.63	50.49	11.29	-40.6	-41.7	21.3	0.00e+00	7	40	0	362807296	54	6245
2026-01-30 12:07:39.64	50.67	11.33	-40.7	-41.9	21.2	0.00e+00	91	40	0	363855872	54	6346
2026-01-30 12:07:40.65	50.84	11.36	-40.6	-41.8	21.3	0.00e+00	6	40	0	365953024	54	6275
2026-01-30 12:07:41.67	51.02	11.40	-40.5	-41.7	21.4	0.00e+00	92	40	0	368050176	54	6179
2026-01-30 12:07:42.68	51.19	11.43	-40.6	-41.7	21.4	0.00e+00	0	40	0	370147328	54	6221
2026-01-30 12:07:43.68	51.36	11.47	-40.4	-41.5	21.5	0.00e+00	31	40	0	372244480	54	6101
2026-01-30 12:07:44.69	51.54	11.50	-40.3	-41.5	21.6	0.00e+00	0	40	0	373293056	54	6041
2026-01-30 12:07:45.70	51.72	11.54	-40.4	-41.5	21.6	0.00e+00	0	40	0	375390208	54	6057
2026-01-30 12:07:46.71	51.89	11.57	-40.4	-41.5	21.6	0.00e+00	90	40	0	377487360	54	6049
2026-01-30 12:07:47.72	52.07	11.61	-40.4	-41.5	21.6	0.00e+00	32	40	0	379584512	54	6066
2026-01-30 12:07:48.73	52.25	11.64	-40.3	-41.4	21.7	0.00e+00	90	40	0	381681664	54	6028
2026-01-30 12:07:49.74	52.43	11.67	-40.3	-41.4	21.7	0.00e+00	33	40	0	382730240	54	6019
2026-01-30 12:07:50.75	52.60	11.71	-40.3	-41.5	21.7	0.00e+00	32	40	0	384827392	54	6042
2026-01-30 12:07:51.76	52.78	11.74	-40.4	-41.5	21.6	0.00e+00	50	40	0	386924544	54	6083
2026-01-30 12:07:52.77	52.96	11.77	-40.4	-41.5	21.6	0.00e+00	48	41	0	389021696	54	6080
2026-01-30 12:07:53.78	53.14	11.81	-40.4	-41.5	21.7	0.00e+00	15	40	0	391118848	54	6073
2026-01-30 12:07:54.79	53.32	11.84	-40.4	-41.5	21.6	0.00e+00	49	40	0	392167424	54	6071
2026-01-30 12:07:55.80	53.50	11.87	-40.4	-41.5	21.6	0.00e+00	92	40	0	394264576	54	6057
2026-01-30 12:07:56.81	53.68	11.91	-40.5	-41.7	21.5	0.00e+00	50	40	0	396361728	54	6179
2026-01-30 12:07:57.82	53.86	11.94	-40.6	-41.7	21.4	0.00e+00	60	40	0	398458880	54	6237
2026-01-30 12:07:58.83	54.04	11.97	-40.6	-41.8	21.3	0.00e+00	0	40	0	400556032	54	6291
2026-01-30 12:07:59.84	54.22	12.00	-40.7	-41.9	21.2	0.00e+00	0	40	0	402653184	54	6363
2026-01-30 12:08:00.85	54.41	12.03	-40.8	-41.9	21.1	0.00e+00	0	40	0	403701760	54	6377
2026-01-30 12:08:01.86	54.59	12.07	-40.6	-41.8	20.8	0.00e+00	0	40	0	405798912	54	6251
2026-01-30 12:08:02.87	54.77	12.10	-40.4	-41.5	21.6	0.00e+00	92	40	0	407896064	54	6084
2026-01-30 12:08:03.88	54.95	12.13	-40.3	-41.4	21.7	0.00e+00	32	40	0	409993216	54	5975
2026-01-30 12:08:04.89	55.14	12.16	-40.1	-41.2	21.8	0.00e+00	92	40	0	412090368	54	5868
2026-01-30 12:08:05.90	55.32	12.19	-40.1	-41.2	21.9	0.00e+00	33	40	0	413138944	54	5852
2026-01-30 12:08:06.91	55.51	12.22	-40.0	-41.1	22.0	0.00e+00	0	40	0	415236096	54	5791
2026-01-30 12:08:07.92	55.69	12.25	-40.0	-41.0	22.0	0.00e+00	63	40	0	417333248	54	5758
2026-01-30 12:08:08.93	55.88	12.28	-40.0	-41.1	22.0	0.00e+00	50	40	0	419430400	54	5788
2026-01-30 12:08:09.94	56.06	12.31	-39.8	-40.9	22.2	0.00e+00	92	40	0	421527552	54	5640
2026-01-30 12:08:10.95	56.25	12.34	-39.9	-40.9	22.1	0.00e+00	3	40	0	422576128	54	5692
2026-01-30 12:08:11.96	56.43	12.37	-39.8	-40.9	22.2	0.00e+00	93	40	0	424673280	54	5652
2026-01-30 12:08:12.97	56.62	12.40	-39.8	-40.8	22.2	0.00e+00	53	40	0	426770432	54	5620
2026-01-30 12:08:13.97	56.81	12.43	-39.8	-40.9	22.2	0.00e+00	53	40	0	428867584	54	5641
2026-01-30 12:08:14.98	56.99	12.45	-39.9	-41.0	22.1	0.00e+00	54	40	0	430964736	54	5721
2026-01-30 12:08:15.99	57.18	12.48	-40.0	-41.0	22.1	0.00e+00	0	40	0	432013312	54	5738
2026-01-30 12:08:17.00	57.37	12.51	-39.9	-40.9	22.1	0.00e+00	10	40	0	434110464	54	5683
2026-01-30 12:08:18.01	57.56	12.54	-39.9	-41.0	22.1	0.00e+00	0	40	0	436207616	54	5727
2026-01-30 12:08:19.02	57.75	12.57	-39.8	-40.9	22.2	0.00e+00	90	40	0	438304768	54	5644
2026-01-30 12:08:20.03	57.93	12.59	-39.7	-40.8	22.3	0.00e+00	0	40	0	440401920	52	6260
2026-01-30 12:08:21.04	58.12	12.62	-39.6	-40.6	22.4	0.00e+00	62	40	0	441450496	52	6137
2026-01-30 12:08:22.05	58.31	12.65	-39.6	-40.6	22.5	0.00e+00	0	40	0	443547648	52	6149
2026-01-30 12:08:23.06	58.50	12.67	-39.5	-40.5	22.6	0.00e+00	0	40	0	445644800	52	6046
2026-01-30 12:08:24.07	58.69	12.70	-39.4	-40.4	22.6	0.00e+00	2	40	0	447741952	52	6022
2026-01-30 12:08:25.07	58.88	12.72	-39.4	-40.4	22.7	0.00e+00	0	40	0	449839104	52	5978
2026-01-30 12:08:26.08	59.07	12.75	-39.3	-40.3	22.8	0.00e+00	91	40	0	450887680	52	5917
2026-01-30 12:08:27.09	59.26	12.78	-39.3	-40.3	22.8	0.00e+00	0	40	0	452984832	52	5911
2026-01-30 12:08:28.10	59.46	12.80	-39.5	-40.4	22.6	0.00e+00	91	40	0	455081984	52	6032
2026-01-30 12:08:29.11	59.65	12.83	-39.5	-40.5	22.6	0.00e+00	0	41	0	457179136	52	6051
2026-01-30 12:08:30.12	59.84	12.85	-39.6	-40.7	22.4	0.00e+00	48	40	0	459276288	52	6175
2026-01-30 12:08:31.13	60.03	12.88	-39.7	-40.8	22.2	0.00e+00	29	40	0	460324864	52	6263
2026-01-30 12:08:32.14	60.23	12.90	-39.9	-41.0	21.9	0.00e+00	33	40	0	462422016	52	6441
2026-01-30 12:08:33.15	60.42	12.92	-40.0	-41.1	22.1	0.00e+00	87	40	0	464519168	52	6495
2026-01-30 12:08:34.16	60.61	12.95	-40.2	-41.3	21.8	0.00e+00	0	40	0	466616320	52	6628
2026-01-30 12:08:35.17	60.81	12.97	-40.3	-41.4	21.8	0.00e+00	92	40	0	468713472	52	6708
2026-01-30 12:08:36.18	61.00	12.99	-40.3	-41.4	21.8	0.00e+00	0	40	0	470810624	52	6716
2026-01-30 12:08:37.19	61.19	13.02	-40.3	-41.5	21.8	0.00e+00	2	40	0	471859200	52	6776
2026-01-30 12:08:38.20	61.39	13.04	-40.3	-41.4	21.7	0.00e+00	0	40	0	473956352	52	6755
2026-01-30 12:08:39.21	61.58	13.06	-40.4	-41.5	21.6	0.00e+00	2	40	0	476053504	52	6839
2026-01-30 12:08:40.22	61.78	13.08	-40.3	-41.4	21.7	0.00e+00	91	40	0	478150656	52	6742
2026-01-30 12:08:41.23	61.98	13.10	-40.4	-41.5	21.7	0.00e+00	2	41	0	480247808	52	6787
2026-01-30 12:08:42.24	62.17	13.13	-40.4	-41.6	21.6	0.00e+00	90	41	0	481296384	52	6860
2026-01-30 12:08:43.25	62.37	13.15	-40.3	-41.4	21.8	0.00e+00	0	40	0	483393536	52	6767
2026-01-30 12:08:44.26	62.56	13.17	-40.5	-41.6	21.6	0.00e+00	92	40	0	485490688	52	6916
2026-01-30 12:08:45.27	62.76	13.19	-40.5	-41.7	21.5	0.00e+00	27	40	0	487587840	52	6938
2026-01-30 12:08:46.28	62.96	13.21	-40.6	-41.7	21.5	0.00e+00	28	41	0	489684992	52	6967
2026-01-30 12:08:47.30	63.16	13.23	-40.6	-41.8	21.4	0.00e+00	0	40	0	490733568	52	7036
2026-01-30 12:08:48.30	63.35	13.25	-40.7	-41.9	21.4	0.00e+00	27	40	0	492830720	54	6320
2026-01-30 12:08:49.31	63.55	13.27	-40.6	-41.8	21.4	0.00e+00	92	40	0	494927872	54	6264
2026-01-30 12:08:50.32	63.75	13.29	-40.6	-41.8	21.4	0.00e+00	0	40	0	497025024	54	6263
2026-01-30 12:08:51.34	63.95	13.31	-40.7	-41.9	21.3	0.00e+00	0	40	0	499122176	54	6339
2026-01-30 12:08:52.34	64.14	13.32	-40.8	-41.9	21.3	0.00e+00	31	40	0	500170752	54	6374
2026-01-30 12:08:53.35	64.34	13.34	-40.7	-41.8	21.4	0.00e+00	32	40	0	502267904	54	6295
2026-01-30 12:08:54.36	64.54	13.36	-40.6	-41.7	21.4	0.00e+00	31	40	0	504365056	54	6229
2026-01-30 12:08:55.37	64.74	13.38	-40.3	-41.5	21.7	0.00e+00	50	41	0	506462208	54	6052
2026-01-30 12:08:56.38	64.94	13.39	-40.5	-41.7	21.4	0.00e+00	92	40	0	508559360	54	6190
2026-01-30 12:08:57.39	65.14	13.41	-40.5	-41.6	21.5	0.00e+00	6	40	0	509607936	54	6142
2026-01-30 12:08:58.40	65.34	13.43	-40.3	-41.4	21.7	0.00e+00	92	40	0	511705088	54	6013
2026-01-30 12:08:59.41	65.54	13.44	-40.3	-41.4	21.7	0.00e+00	0	40	0	513802240	54	6006
2026-01-30 12:09:00.41	65.74	13.46	-40.2	-41.3	21.7	0.00e+00	92	40	0	515899392	54	5954
2026-01-30 12:09:01.42	65.94	13.48	-40.1	-41.2	21.9	0.00e+00	6	41	0	517996544	54	5860
2026-01-30 12:09:02.43	66.14	13.49	-40.1	-41.2	21.9	0.00e+00	0	40	0	519045120	54	5888
2026-01-30 12:09:03.44	66.34	13.51	-40.1	-41.2	21.9	0.00e+00	0	40	0	521142272	54	5890
2026-01-30 12:09:04.45	66.54	13.52	-40.1	-41.1	21.9	0.00e+00	6	41	0	523239424	54	5822
2026-01-30 12:09:05.46	66.74	13.54	-40.2	-41.3	21.9	0.00e+00	92	40	0	525336576	54	5918
2026-01-30 12:09:06.47	66.94	13.55	-40.0	-41.1	22.0	0.00e+00	0	40	0	527433728	54	5812
2026-01-30 12:09:07.48	67.15	13.56	-40.1	-41.2	21.9	0.00e+00	0	41	0	528482304	54	5880
2026-01-30 12:09:08.49	67.35	13.58	-40.1	-41.2	21.9	0.00e+00	0	40	0	530579456	54	5858
2026-01-30 12:09:09.50	67.55	13.59	-40.1	-41.2	21.8	0.00e+00	0	40	0	532676608	54	5892
2026-01-30 12:09:10.51	67.75	13.60	-40.1	-41.2	22.0	0.00e+00	0	41	0	534773760	54	5847
2026-01-30 12:09:11.52	67.95	13.62	-40.1	-41.3	21.9	0.00e+00	26	40	0	536870912	54	5897
2026-01-30 12:09:12.53	68.16	13.63	-40.0	-41.1	22.0	0.00e+00	91	40	0	538968064	54	5815
2026-01-30 12:09:13.53	68.36	13.64	-40.0	-41.1	22.0	0.00e+00	0	40	0	540016640	54	5784
2026-01-30 12:09:14.54	68.56	13.65	-40.0	-41.1	22.0	0.00e+00	90	40	0	542113792	54	5797
2026-01-30 12:09:15.55	68.76	13.66	-39.9	-41.0	22.2	0.00e+00	61	40	0	544210944	54	5710
2026-01-30 12:09:16.56	68.97	13.67	-39.8	-40.9	22.3	0.00e+00	56	40	0	546308096	54	5667
2026-01-30 12:09:17.57	69.17	13.68	-39.6	-40.6	22.5	0.00e+00	59	41	0	548405248	52	6162
2026-01-30 12:09:18.59	69.38	13.69	-39.6	-40.7	22.5	0.00e+00	62	40	0	549453824	52	6200
2026-01-30 12:09:19.59	69.58	13.70	-39.7	-40.8	22.3	0.00e+00	92	40	0	551550976	52	6284
2026-01-30 12:09:20.61	69.78	13.71	-39.7	-40.7	22.5	0.00e+00	52	40	0	553648128	52	6234
2026-01-30 12:09:21.62	69.99	13.72	-39.8	-40.8	22.3	0.00e+00	92	40	0	555745280	52	6285
2026-01-30 12:09:22.63	70.19	13.73	-39.8	-40.9	22.3	0.00e+00	0	40	0	557842432	52	6336
2026-01-30 12:09:23.64	70.40	13.74	-39.9	-41.0	22.2	0.00e+00	7	40	0	558891008	52	6426
2026-01-30 12:09:24.64	70.60	13.75	-39.9	-41.0	22.2	0.00e+00	7	40	0	560988160	52	6424
2026-01-30 12:09:25.65	70.80	13.76	-39.9	-41.0	22.2	0.00e+00	0	41	0	563085312	52	6400
2026-01-30 12:09:26.67	71.01	13.77	-39.8	-40.9	22.3	0.00e+00	76	40	0	565182464	52	6357
2026-01-30 12:09:27.68	71.21	13.77	-39.9	-40.9	22.3	0.00e+00	0	41	0	567279616	52	6370
2026-01-30 12:09:28.69	71.42	13.78	-39.7	-40.8	22.4	0.00e+00	92	40	0	568328192	52	6260
2026-01-30 12:09:29.69	71.62	13.79	-39.6	-40.7	22.5	0.00e+00	0	40	0	570425344	52	6181
2026-01-30 12:09:30.70	71.83	13.79	-39.4	-40.4	22.7	0.00e+00	39	41	0	572522496	52	5998
2026-01-30 12:09:31.71	72.03	13.80	-39.4	-40.5	22.6	0.00e+00	0	41	0	574619648	52	6042
2026-01-30 12:09:32.72	72.24	13.80	-39.3	-40.3	22.9	0.00e+00	50	40	0	576716800	52	5927
2026-01-30 12:09:33.73	72.44	13.81	-39.4	-40.4	22.7	0.00e+00	25	41	0	577765376	52	6022
2026-01-30 12:09:34.74	72.65	13.81	-39.3	-40.3	22.8	0.00e+00	32	41	0	579862528	52	5956
2026-01-30 12:09:35.75	72.85	13.82	-39.4	-40.4	22.6	0.00e+00	92	40	0	581959680	52	6003
2026-01-30 12:09:36.76	73.06	13.82	-39.4	-40.4	22.7	0.00e+00	33	41	0	584056832	52	6007
2026-01-30 12:09:37.77	73.26	13.83	-39.5	-40.5	22.6	0.00e+00	92	41	0	586153984	52	6092
2026-01-30 12:09:38.78	73.47	13.83	-39.5	-40.5	22.6	0.00e+00	2	41	0	587202560	52	6089
2026-01-30 12:09:39.79	73.67	13.83	-39.3	-40.3	22.7	0.00e+00	0	40	0	589299712	52	5955
2026-01-30 12:09:40.80	73.88	13.84	-39.2	-40.1	22.8	0.00e+00	56	40	0	591396864	52	5811
2026-01-30 12:09:41.81	74.08	13.84	-39.2	-40.1	22.9	0.00e+00	0	41	0	593494016	52	5811
2026-01-30 12:09:42.82	74.29	13.84	-39.2	-40.1	22.9	0.00e+00	92	41	0	595591168	52	5813
2026-01-30 12:09:43.83	74.49	13.84	-38.9	-39.9	23.1	0.00e+00	0	40	0	596639744	52	5669
2026-01-30 12:09:44.84	74.70	13.85	-38.9	-39.9	23.1	0.00e+00	91	40	0	598736896	52	5633
2026-01-30 12:09:45.85	74.91	13.85	-38.7	-39.7	23.3	0.00e+00	0	41	0	600834048	50	6180
2026-01-30 12:09:46.86	75.11	13.85	-38.7	-39.7	23.3	0.00e+00	37	40	0	602931200	50	6176
2026-01-30 12:09:47.87	75.32	13.85	-38.8	-39.8	23.2	0.00e+00	27	40	0	605028352	50	6269
2026-01-30 12:09:48.88	75.52	13.85	-39.0	-39.9	23.0	0.00e+00	0	40	0	607125504	50	6371
2026-01-30 12:09:49.89	75.73	13.85	-39.0	-40.0	23.0	0.00e+00	44	41	0	608174080	50	6422
2026-01-30 12:09:50.89	75.93	13.85	-39.0	-40.0	23.0	0.00e+00	0	40	0	610271232	50	6442
2026-01-30 12:09:51.90	76.14	13.85	-39.0	-40.0	23.0	0.00e+00	90	40	0	612368384	50	6409
2026-01-30 12:09:52.91	76.34	13.85	-38.9	-39.8	23.2	0.00e+00	0	40	0	614465536	50	6289
2026-01-30 12:09:53.92	76.55	13.85	-38.8	-39.8	22.7	0.00e+00	49	40	0	616562688	50	6247
2026-01-30 12:09:54.93	76.76	13.84	-38.9	-39.9	22.8	0.00e+00	0	40	0	617611264	50	6320
2026-01-30 12:09:55.94	76.96	13.84	-38.8	-39.7	23.3	0.00e+00	33	40	0	619708416	50	6207
2026-01-30 12:09:56.95	77.17	13.84	-38.9	-39.8	23.2	0.00e+00	30	41	0	621805568	50	6291
2026-01-30 12:09:57.96	77.37	13.84	-38.9	-39.8	23.1	0.00e+00	33	40	0	623902720	50	6307
2026-01-30 12:09:58.97	77.58	13.83	-38.9	-39.8	23.2	0.00e+00	92	40	0	625999872	50	6284
2026-01-30 12:09:59.98	77.78	13.83	-38.6	-39.6	23.4	0.00e+00	0	40	0	627048448	50	6104
2026-01-30 12:10:00.99	77.99	13.83	-38.6	-39.5	23.4	0.00e+00	92	40	0	629145600	50	6093
2026-01-30 12:10:02.00	78.20	13.82	-38.7	-39.7	23.4	0.00e+00	2	40	0	631242752	50	6181
2026-01-30 12:10:03.01	78.40	13.82	-38.6	-39.6	23.5	0.00e+00	0	40	0	633339904	50	6105
2026-01-30 12:10:04.02	78.61	13.81	-38.5	-39.4	23.5	0.00e+00	0	41	0	635437056	50	5998
2026-01-30 12:10:05.03	78.81	13.81	-38.5	-39.4	23.6	0.00e+00	0	40	0	636485632	50	5980
2026-01-30 12:10:06.04	79.02	13.80	-38.5	-39.4	23.5	0.00e+00	90	40	0	638582784	50	5990
2026-01-30 12:10:07.05	79.22	13.80	-38.5	-39.4	23.6	0.00e+00	2	40	0	640679936	50	5980
2026-01-30 12:10:08.06	79.43	13.79	-38.6	-39.6	23.5	0.00e+00	91	40	0	642777088	50	6115
2026-01-30 12:10:09.07	79.63	13.78	-38.6	-39.5	23.5	0.00e+00	0	40	0	644874240	50	6092
2026-01-30 12:10:10.07	79.83	13.78	-38.7	-39.6	23.4	0.00e+00	57	40	0	645922816	50	6171
2026-01-30 12:10:11.08	80.04	13.77	-38.8	-39.7	23.2	0.00e+00	0	40	0	648019968	50	6221
2026-01-30 12:10:12.09	80.24	13.76	-38.9	-39.8	23.2	0.00e+00	0	40	0	650117120	50	6315
2026-01-30 12:10:13.10	80.45	13.75	-38.8	-39.7	23.3	0.00e+00	30	40	0	652214272	50	6230
2026-01-30 12:10:14.11	80.65	13.75	-38.8	-39.8	23.2	0.00e+00	0	40	0	654311424	50	6269
2026-01-30 12:10:15.12	80.86	13.74	-38.7	-39.6	23.3	0.00e+00	92	40	0	655360000	50	6173
2026-01-30 12:10:16.13	81.06	13.73	-38.7	-39.6	23.4	0.00e+00	30	40	0	657457152	50	6171
2026-01-30 12:10:17.14	81.27	13.72	-38.8	-39.7	23.3	0.00e+00	92	40	0	659554304	50	6210
2026-01-30 12:10:18.15	81.47	13.71	-38.9	-39.8	23.2	0.00e+00	2	40	0	661651456	50	6272
2026-01-30 12:10:19.16	81.67	13.70	-38.8	-39.7	23.3	0.00e+00	0	40	0	663748608	50	6239
2026-01-30 12:10:20.17	81.88	13.69	-39.0	-39.9	23.1	0.00e+00	62	40	0	664797184	50	6354
2026-01-30 12:10:21.18	82.08	13.68	-39.0	-39.9	22.8	0.00e+00	0	40	0	666894336	50	6367
2026-01-30 12:10:22.19	82.29	13.67	-39.0	-40.0	23.1	0.00e+00	92	40	0	668991488	50	6397
2026-01-30 12:10:23.20	82.49	13.66	-39.0	-40.0	23.1	0.00e+00	0	41	0	671088640	50	6409
2026-01-30 12:10:24.21	82.69	13.65	-38.9	-39.8	23.2	0.00e+00	92	40	0	673185792	50	6316
2026-01-30 12:10:25.22	82.90	13.64	-38.7	-39.6	23.5	0.00e+00	2	40	0	675282944	50	6129
2026-01-30 12:10:26.23	83.10	13.62	-38.6	-39.6	23.4	0.00e+00	0	40	0	676331520	50	6106
2026-01-30 12:10:27.24	83.30	13.61	-38.6	-39.5	23.6	0.00e+00	0	40	0	678428672	50	6089
2026-01-30 12:10:28.25	83.50	13.60	-38.6	-39.5	23.4	0.00e+00	0	40	0	680525824	50	6087
2026-01-30 12:10:29.26	83.71	13.58	-38.6	-39.5	23.5	0.00e+00	90	40	0	682622976	50	6092
2026-01-30 12:10:30.26	83.91	13.57	-38.7	-39.7	23.4	0.00e+00	0	40	0	683671552	50	6194
2026-01-30 12:10:31.27	84.11	13.56	-38.8	-39.8	23.2	0.00e+00	92	41	0	685768704	50	6271
2026-01-30 12:10:32.28	84.31	13.54	-39.1	-40.1	23.0	0.00e+00	0	40	0	687865856	50	6499
2026-01-30 12:10:33.29	84.51	13.53	-39.1	-40.0	23.0	0.00e+00	92	41	0	689963008	50	6463
2026-01-30 12:10:34.30	84.71	13.51	-39.0	-40.0	22.9	0.00e+00	0	40	0	692060160	50	6438
2026-01-30 12:10:35.31	84.91	13.50	-39.1	-40.1	22.9	0.00e+00	0	41	0	693108736	50	6533
2026-01-30 12:10:36.32	85.12	13.48	-39.1	-40.1	23.0	0.00e+00	16	40	0	695205888	50	6504
2026-01-30 12:10:37.33	85.32	13.47	-38.8	-39.8	23.2	0.00e+00	28	40	0	697303040	50	6256
2026-01-30 12:10:38.34	85.52	13.45	-38.7	-39.7	23.3	0.00e+00	92	40	0	699400192	50	6178
2026-01-30 12:10:39.35	85.72	13.44	-38.6	-39.5	23.5	0.00e+00	31	41	0	701497344	50	6093
2026-01-30 12:10:40.36	85.92	13.42	-38.5	-39.4	23.5	0.00e+00	92	40	0	703594496	50	6004
2026-01-30 12:10:41.37	86.12	13.40	-38.6	-39.5	23.4	0.00e+00	5	40	0	704643072	50	6069
2026-01-30 12:10:42.38	86.32	13.39	-38.3	-39.2	23.7	0.00e+00	6	40	0	706740224	50	5891
2026-01-30 12:10:43.39	86.52	13.37	-38.3	-39.2	23.7	0.00e+00	0	41	0	708837376	50	5857
2026-01-30 12:10:44.40	86.72	13.35	-38.3	-39.2	23.7	0.00e+00	56	40	0	710934528	50	5892
2026-01-30 12:10:45.41	86.92	13.33	-38.1	-39.0	24.0	0.00e+00	92	41	0	713031680	50	5728
2026-01-30 12:10:46.42	87.12	13.32	-38.1	-39.0	23.9	0.00e+00	0	40	0	714080256	50	5712
2026-01-30 12:10:47.43	87.32	13.30	-38.0	-38.9	24.0	0.00e+00	92	40	0	716177408	50	5677
2026-01-30 12:10:48.44	87.51	13.28	-38.0	-38.9	23.7	0.00e+00	6	40	0	718274560	50	5685
2026-01-30 12:10:49.45	87.71	13.26	-38.2	-39.1	23.8	0.00e+00	34	40	0	720371712	50	5794
2026-01-30 12:10:50.46	87.91	13.24	-38.4	-39.3	23.7	0.00e+00	0	40	0	722468864	50	5949
2026-01-30 12:10:51.47	88.11	13.22	-38.3	-39.3	23.6	0.00e+00	31	41	0	723517440	50	5926
2026-01-30 12:10:52.48	88.31	13.20	-38.4	-39.4	23.5	0.00e+00	92	40	0	725614592	50	6005
2026-01-30 12:10:53.48	88.50	13.18	-38.4	-39.4	23.6	0.00e+00	0	40	0	727711744	50	6006
2026-01-30 12:10:54.49	88.70	13.16	-38.5	-39.5	23.4	0.00e+00	92	40	0	729808896	50	6078
2026-01-30 12:10:55.50	88.89	13.14	-38.6	-39.5	23.4	0.00e+00	0	40	0	731906048	50	6099
2026-01-30 12:10:56.51	89.09	13.12	-38.4	-39.3	23.6	0.00e+00	51	41	0	732954624	50	5923
2026-01-30 12:10:57.52	89.29	13.09	-38.3	-39.2	23.8	0.00e+00	0	40	0	735051776	50	5877
2026-01-30 12:10:58.53	89.48	13.07	-38.2	-39.1	23.8	0.00e+00	32	40	0	737148928	50	5803
2026-01-30 12:10:59.54	89.68	13.05	-38.1	-38.9	24.0	0.00e+00	0	40	0	739246080	50	5693
2026-01-30 12:11:00.55	89.87	13.03	-38.0	-38.8	24.1	0.00e+00	31	40	0	741343232	50	5626
2026-01-30 12:11:01.55	90.07	13.01	-38.0	-38.9	24.0	0.00e+00	92	40	0	742391808	50	5652
2026-01-30 12:11:02.56	90.26	12.98	-37.9	-38.8	24.0	0.00e+00	55	40	0	744488960	50	5583
2026-01-30 12:11:03.57	90.46	12.96	-38.1	-38.9	24.0	0.00e+00	92	40	0	746586112	50	5680
2026-01-30 12:11:04.58	90.65	12.94	-38.0	-38.9	23.9	0.00e+00	6	40	0	748683264	50	5671
2026-01-30 12:11:05.59	90.84	12.91	-38.2	-39.1	23.9	0.00e+00	0	40	0	750780416	50	5768
2026-01-30 12:11:06.60	91.04	12.89	-38.2	-39.1	23.8	0.00e+00	55	41	0	751828992	50	5800
2026-01-30 12:11:07.61	91.23	12.86	-38.1	-39.0	24.0	0.00e+00	7	40	0	753926144	50	5711
2026-01-30 12:11:08.62	91.42	12.84	-38.1	-39.0	23.9	0.00e+00	92	40	0	756023296	50	5713
2026-01-30 12:11:09.63	91.62	12.81	-38.2	-39.1	23.8	0.00e+00	0	41	0	758120448	50	5804
2026-01-30 12:11:10.63	91.81	12.79	-38.5	-39.4	23.5	0.00e+00	91	40	0	760217600	50	6010
2026-01-30 12:11:11.64	92.00	12.76	-38.5	-39.4	23.6	0.00e+00	8	40	0	761266176	50	5996
2026-01-30 12:11:12.65	92.19	12.74	-38.6	-39.5	23.5	0.00e+00	66	40	0	763363328	50	6064
2026-01-30 12:11:13.66	92.38	12.71	-38.4	-39.3	23.6	0.00e+00	0	40	0	765460480	50	5963
2026-01-30 12:11:14.67	92.57	12.69	-38.4	-39.3	23.6	0.00e+00	26	40	0	767557632	50	5930
2026-01-30 12:11:15.68	92.76	12.66	-38.2	-39.1	23.7	0.00e+00	87	40	0	769654784	50	5828
2026-01-30 12:11:16.69	92.95	12.63	-38.3	-39.3	23.6	0.00e+00	26	40	0	771751936	50	5906
2026-01-30 12:11:17.70	93.14	12.61	-38.2	-39.1	23.8	0.00e+00	92	40	0	772800512	50	5780
2026-01-30 12:11:18.71	93.33	12.58	-38.0	-38.9	23.9	0.00e+00	0	41	0	774897664	50	5653
2026-01-30 12:11:19.72	93.52	12.55	-38.0	-38.9	24.0	0.00e+00	64	41	0	776994816	50	5679
2026-01-30 12:11:20.73	93.71	12.52	-38.1	-39.0	23.8	0.00e+00	49	41	0	779091968	50	5728
2026-01-30 12:11:21.74	93.90	12.50	-38.2	-39.1	23.7	0.00e+00	49	41	0	781189120	50	5806
2026-01-30 12:11:22.75	94.09	12.47	-38.3	-39.2	23.8	0.00e+00	0	41	0	782237696	50	5849
2026-01-30 12:11:23.75	94.28	12.44	-38.2	-39.0	23.9	0.00e+00	50	41	0	784334848	50	5760
2026-01-30 12:11:24.76	94.46	12.41	-38.3	-39.2	23.8	0.00e+00	90	41	0	786432000	50	5843
2026-01-30 12:11:25.77	94.65	12.38	-38.1	-39.0	23.9	0.00e+00	49	41	0	788529152	50	5729
2026-01-30 12:11:26.78	94.84	12.35	-38.2	-39.1	23.8	0.00e+00	90	40	0	790626304	50	5806
2026-01-30 12:11:27.79	95.02	12.32	-38.3	-39.1	23.7	0.00e+00	0	40	0	791674880	50	5828
2026-01-30 12:11:28.80	95.21	12.29	-38.4	-39.3	23.6	0.00e+00	48	40	0	793772032	50	5930
2026-01-30 12:11:29.81	95.40	12.26	-38.6	-39.5	23.4	0.00e+00	0	41	0	795869184	50	6072
2026-01-30 12:11:30.82	95.58	12.23	-38.8	-39.7	23.2	0.00e+00	0	40	0	797966336	50	6234
2026-01-30 12:11:31.83	95.77	12.20	-38.7	-39.7	23.3	0.00e+00	92	40	0	800063488	50	6186
2026-01-30 12:11:32.84	95.95	12.17	-38.9	-39.8	22.8	0.00e+00	0	40	0	801112064	50	6286
2026-01-30 12:11:33.85	96.14	12.14	-39.0	-40.0	23.0	0.00e+00	91	40	0	803209216	50	6400
2026-01-30 12:11:34.86	96.32	12.11	-39.0	-40.0	23.0	0.00e+00	0	41	0	805306368	50	6429
2026-01-30 12:11:35.87	96.50	12.08	-39.1	-40.0	22.9	0.00e+00	31	41	0	807403520	50	6461
2026-01-30 12:11:36.88	96.69	12.05	-39.1	-40.1	22.9	0.00e+00	0	40	0	809500672	50	6467
2026-01-30 12:11:37.89	96.87	12.01	-39.2	-40.2	22.8	0.00e+00	30	41	0	810549248	50	6562
2026-01-30 12:11:38.90	97.05	11.98	-39.2	-40.2	22.7	0.00e+00	83	41	0	812646400	50	6557
2026-01-30 12:11:39.91	97.24	11.95	-39.3	-40.3	22.7	0.00e+00	0	40	0	814743552	50	6672
2026-01-30 12:11:40.92	97.42	11.92	-39.4	-40.4	22.5	0.00e+00	92	41	0	816840704	50	6762
2026-01-30 12:11:41.93	97.60	11.89	-39.6	-40.6	22.4	0.00e+00	56	41	0	818937856	50	6906
2026-01-30 12:11:42.94	97.78	11.85	-39.7	-40.8	22.3	0.00e+00	92	41	0	819986432	50	7019
2026-01-30 12:11:43.95	97.96	11.82	-39.6	-40.7	22.4	0.00e+00	54	40	0	822083584	50	6931
2026-01-30 12:11:44.96	98.14	11.79	-39.7	-40.7	22.3	0.00e+00	58	41	0	824180736	50	6976
2026-01-30 12:11:45.97	98.32	11.75	-39.6	-40.6	22.4	0.00e+00	15	40	0	826277888	52	6142
2026-01-30 12:11:46.98	98.50	11.72	-39.5	-40.6	22.4	0.00e+00	0	40	0	828375040	52	6108
2026-01-30 12:11:47.99	98.68	11.69	-39.5	-40.5	22.5	0.00e+00	92	41	0	829423616	52	6091
2026-01-30 12:11:48.99	98.86	11.65	-39.4	-40.5	22.4	0.00e+00	0	40	0	831520768	52	6035
2026-01-30 12:11:50.00	99.03	11.62	-39.5	-40.6	22.5	0.00e+00	92	40	0	833617920	52	6122
2026-01-30 12:11:51.01	99.21	11.58	-39.6	-40.6	22.4	0.00e+00	0	41	0	835715072	52	6164
2026-01-30 12:11:52.02	99.39	11.55	-39.9	-41.0	21.9	0.00e+00	0	40	0	837812224	52	6416
2026-01-30 12:11:53.03	99.57	11.51	-40.2	-41.3	21.6	0.00e+00	2	40	0	839909376	52	6667
2026-01-30 12:11:54.04	99.74	11.48	-40.4	-41.6	21.5	0.00e+00	0	40	0	840957952	52	6870
2026-01-30 12:11:55.05	99.92	11.44	-40.6	-41.8	21.3	0.00e+00	92	40	0	843055104	52	7061
2026-01-30 12:11:56.06	100.09	11.41	-40.8	-42.0	21.0	0.00e+00	0	41	0	845152256	54	6430
2026-01-30 12:11:57.07	100.27	11.37	-40.9	-42.1	20.9	0.00e+00	92	41	0	847249408	54	6501
2026-01-30 12:11:58.08	100.44	11.34	-41.0	-42.2	20.8	0.00e+00	0	41	0	849346560	54	6573
2026-01-30 12:11:59.09	100.62	11.30	-41.1	-42.4	20.8	0.00e+00	31	41	0	850395136	54	6695
2026-01-30 12:12:00.10	100.79	11.26	-41.2	-42.5	20.6	0.00e+00	31	40	0	852492288	54	6847
2026-01-30 12:12:01.10	100.97	11.23	-41.4	-42.7	20.3	0.00e+00	0	40	0	854589440	54	6987
2026-01-30 12:12:02.11	101.14	11.19	-41.6	-43.0	20.1	0.00e+00	33	41	0	856686592	54	7216
2026-01-30 12:12:03.12	101.31	11.16	-41.9	-43.3	19.9	0.00e+00	0	41	0	858783744	56	6642
2026-01-30 12:12:04.13	101.48	11.12	-42.0	-43.4	19.8	0.00e+00	90	41	0	859832320	56	6713
2026-01-30 12:12:05.14	101.66	11.08	-41.8	-43.2	20.0	0.00e+00	50	41	0	861929472	56	6595
2026-01-30 12:12:06.16	101.83	11.04	-41.9	-43.3	19.9	0.00e+00	90	41	0	864026624	56	6680
2026-01-30 12:12:07.16	102.00	11.01	-41.6	-43.0	20.2	0.00e+00	30	41	0	866123776	56	6431
2026-01-30 12:12:08.17	102.17	10.97	-41.4	-42.8	20.5	0.00e+00	48	41	0	868220928	56	6306
2026-01-30 12:12:09.18	102.34	10.93	-40.9	-42.3	20.9	0.00e+00	0	40	0	869269504	56	5917
2026-01-30 12:12:10.20	102.51	10.89	-40.6	-42.0	21.1	0.00e+00	2	40	0	871366656	54	6410
2026-01-30 12:12:11.21	102.68	10.85	-40.6	-42.0	21.0	0.00e+00	90	41	0	873463808	54	6428
2026-01-30 12:12:12.22	102.85	10.82	-40.6	-42.1	21.0	0.00e+00	3	40	0	875560960	54	6485
2026-01-30 12:12:13.23	103.02	10.78	-40.5	-42.0	21.1	0.00e+00	92	41	0	877658112	54	6429
2026-01-30 12:12:14.24	103.19	10.74	-40.5	-42.1	21.0	0.00e+00	0	40	0	878706688	54	6468
2026-01-30 12:12:15.25	103.36	10.70	-40.6	-42.1	20.9	0.00e+00	2	40	0	880803840	54	6515
2026-01-30 12:12:16.26	103.52	10.66	-40.9	-42.3	20.8	0.00e+00	0	41	0	882900992	54	6680
2026-01-30 12:12:17.27	103.69	10.62	-41.0	-42.4	20.7	0.00e+00	2	41	0	884998144	54	6712
2026-01-30 12:12:18.28	103.86	10.58	-41.2	-42.6	20.5	0.00e+00	92	41	0	887095296	54	6853
2026-01-30 12:12:19.29	104.02	10.54	-41.3	-42.7	20.4	0.00e+00	0	41	0	888143872	54	6968
2026-01-30 12:12:20.30	104.19	10.51	-41.2	-42.8	20.3	0.00e+00	92	41	0	890241024	54	7018
2026-01-30 12:12:21.31	104.35	10.47	-41.4	-43.0	20.0	0.00e+00	29	41	0	892338176	54	7245
2026-01-30 12:12:22.32	104.52	10.43	-41.6	-43.1	19.8	0.00e+00	56	41	0	894435328	54	7314
2026-01-30 12:12:23.33	104.68	10.39	-41.7	-43.1	20.1	0.00e+00	53	41	0	896532480	56	6512
2026-01-30 12:12:24.33	104.85	10.35	-41.5	-43.0	20.2	0.00e+00	50	41	0	897581056	56	6464
2026-01-30 12:12:25.34	105.01	10.31	-41.5	-43.0	20.2	0.00e+00	29	41	0	899678208	56	6420
2026-01-30 12:12:26.35	105.17	10.27	-41.5	-42.9	20.2	0.00e+00	0	41	0	901775360	56	6378
2026-01-30 12:12:27.36	105.33	10.23	-41.4	-42.8	20.4	0.00e+00	92	41	0	903872512	56	6262
2026-01-30 12:12:28.37	105.50	10.18	-41.2	-42.4	20.7	0.00e+00	6	41	0	905969664	56	6020
2026-01-30 12:12:29.38	105.66	10.14	-41.0	-42.3	20.8	0.00e+00	91	41	0	908066816	56	5909
2026-01-30 12:12:30.39	105.82	10.10	-41.0	-42.3	20.8	0.00e+00	6	41	0	909115392	56	5916
2026-01-30 12:12:31.40	105.98	10.06	-41.0	-42.2	20.8	0.00e+00	6	41	0	911212544	56	5880
2026-01-30 12:12:32.41	106.14	10.02	-41.1	-42.4	20.7	0.00e+00	0	41	0	913309696	56	5972
2026-01-30 12:12:33.42	106.30	9.98	-41.1	-42.4	20.7	0.00e+00	6	41	0	915406848	56	6010
2026-01-30 12:12:34.43	106.46	9.94	-41.0	-42.3	20.7	0.00e+00	92	41	0	917504000	56	5916
2026-01-30 12:12:35.44	106.62	9.90	-40.9	-42.2	20.9	0.00e+00	5	41	0	918552576	56	5830
2026-01-30 12:12:36.45	106.78	9.86	-40.8	-42.0	21.1	0.00e+00	92	41	0	920649728	56	5735
2026-01-30 12:12:37.46	106.94	9.81	-40.7	-41.9	21.0	0.00e+00	5	41	0	922746880	54	6351
2026-01-30 12:12:38.47	107.10	9.77	-40.4	-41.6	21.3	0.00e+00	0	41	0	924844032	54	6123
2026-01-30 12:12:39.48	107.25	9.73	-40.0	-41.1	21.8	0.00e+00	0	40	0	926941184	54	5824
2026-01-30 12:12:40.48	107.41	9.69	-40.0	-41.1	21.7	0.00e+00	0	41	0	927989760	54	5813
2026-01-30 12:12:41.49	107.56	9.65	-40.0	-41.1	21.8	0.00e+00	92	41	0	930086912	54	5784
2026-01-30 12:12:42.50	107.72	9.60	-40.1	-41.2	21.7	0.00e+00	0	41	0	932184064	54	5880
2026-01-30 12:12:43.51	107.88	9.56	-40.2	-41.4	21.6	0.00e+00	92	41	0	934281216	54	5967
2026-01-30 12:12:44.52	108.03	9.52	-40.3	-41.5	21.4	0.00e+00	22	41	0	936378368	54	6050
2026-01-30 12:12:45.53	108.19	9.48	-40.2	-41.4	21.4	0.00e+00	36	41	0	937426944	54	5995
2026-01-30 12:12:46.54	108.34	9.43	-40.4	-41.6	21.1	0.00e+00	64	41	0	939524096	54	6156
2026-01-30 12:12:47.55	108.50	9.39	-40.4	-41.6	21.3	0.00e+00	22	41	0	941621248	54	6155
2026-01-30 12:12:48.55	108.65	9.35	-40.5	-41.6	21.3	0.00e+00	0	40	0	943718400	54	6165
2026-01-30 12:12:49.56	108.80	9.30	-40.5	-41.7	21.3	0.00e+00	6	41	0	945815552	54	6202
2026-01-30 12:12:50.57	108.95	9.26	-40.5	-41.7	21.2	0.00e+00	90	41	0	946864128	54	6231
2026-01-30 12:12:51.58	109.11	9.22	-40.6	-41.8	21.0	0.00e+00	8	41	0	948961280	54	6313
2026-01-30 12:12:52.59	109.26	9.17	-40.3	-41.8	21.1	0.00e+00	90	41	0	951058432	54	6299
2026-01-30 12:12:53.60	109.41	9.13	-40.2	-41.8	21.1	0.00e+00	57	41	0	953155584	54	6293
2026-01-30 12:12:54.61	109.56	9.09	-40.2	-41.8	21.1	0.00e+00	60	41	0	955252736	54	6288
2026-01-30 12:12:55.62	109.71	9.04	-40.3	-41.7	21.2	0.00e+00	2	41	0	956301312	54	6185
2026-01-30 12:12:56.63	109.86	9.00	-40.5	-41.6	21.3	0.00e+00	6	41	0	958398464	54	6162
2026-01-30 12:12:57.64	110.01	8.96	-40.3	-41.5	21.4	0.00e+00	92	41	0	960495616	54	6084
2026-01-30 12:12:58.65	110.16	8.91	-40.1	-41.3	21.5	0.00e+00	0	41	0	962592768	54	5956
2026-01-30 12:12:59.66	110.31	8.87	-39.8	-41.0	21.9	0.00e+00	90	41	0	964689920	54	5722
2026-01-30 12:13:00.65	110.45	8.82	-39.7	-40.8	22.1	0.00e+00	6	41	0	965738496	52	6297
2026-01-30 12:13:01.66	110.60	8.78	-39.6	-40.7	22.2	0.00e+00	48	40	0	967835648	52	6197
2026-01-30 12:13:02.66	110.75	8.74	-39.3	-40.4	22.4	0.00e+00	0	41	0	969932800	52	5987
2026-01-30 12:13:03.67	110.89	8.69	-39.4	-40.5	22.3	0.00e+00	29	41	0	972029952	52	6035
2026-01-30 12:13:04.68	111.04	8.65	-39.3	-40.4	22.3	0.00e+00	90	41	0	974127104	52	5987
2026-01-30 12:13:05.69	111.19	8.60	-39.3	-40.4	22.3	0.00e+00	0	41	0	975175680	52	6007
2026-01-30 12:13:06.70	111.33	8.56	-39.4	-40.5	22.3	0.00e+00	91	41	0	977272832	52	6075
2026-01-30 12:13:07.71	111.48	8.51	-39.4	-40.6	22.2	0.00e+00	29	41	0	979369984	52	6120
2026-01-30 12:13:08.72	111.62	8.47	-39.6	-40.8	22.0	0.00e+00	52	41	0	981467136	52	6268
2026-01-30 12:13:09.73	111.77	8.42	-39.7	-40.9	21.9	0.00e+00	29	41	0	983564288	52	6327
2026-01-30 12:13:10.74	111.91	8.38	-39.8	-40.9	21.9	0.00e+00	22	41	0	984612864	52	6337
2026-01-30 12:13:11.75	112.05	8.33	-39.9	-41.0	21.9	0.00e+00	21	41	0	986710016	52	6403
2026-01-30 12:13:12.76	112.20	8.29	-39.7	-40.8	22.0	0.00e+00	59	41	0	988807168	52	6295
2026-01-30 12:13:13.77	112.34	8.24	-39.6	-40.7	22.1	0.00e+00	90	40	0	990904320	52	6212
2026-01-30 12:13:14.77	112.48	8.20	-39.8	-40.9	22.1	0.00e+00	58	41	0	993001472	52	6349
2026-01-30 12:13:15.78	112.62	8.15	-39.5	-40.5	22.3	0.00e+00	92	41	0	994050048	52	6081
2026-01-30 12:13:16.80	112.77	8.11	-39.6	-40.7	22.1	0.00e+00	2	41	0	996147200	52	6184
2026-01-30 12:13:17.80	112.91	8.06	-39.5	-40.6	22.1	0.00e+00	58	41	0	998244352	52	6157
2026-01-30 12:13:18.81	113.05	8.02	-39.6	-40.8	21.9	0.00e+00	0	41	0	1000341504	52	6283
2026-01-30 12:13:19.82	113.19	7.97	-39.7	-40.8	22.0	0.00e+00	0	41	0	1002438656	52	6268
2026-01-30 12:13:20.83	113.33	7.93	-39.7	-40.9	21.9	0.00e+00	92	41	0	1004535808	52	6338
2026-01-30 12:13:21.84	113.47	7.88	-39.7	-40.9	21.9	0.00e+00	0	41	0	1005584384	52	6357
2026-01-30 12:13:22.85	113.61	7.84	-39.7	-41.0	21.8	0.00e+00	90	41	0	1007681536	52	6438
2026-01-30 12:13:23.86	113.74	7.79	-39.7	-40.9	21.8	0.00e+00	2	41	0	1009778688	52	6372
2026-01-30 12:13:24.87	113.88	7.74	-39.6	-40.8	21.9	0.00e+00	28	41	0	1011875840	52	6293
2026-01-30 12:13:25.88	114.02	7.70	-39.6	-40.8	22.0	0.00e+00	19	40	0	1013972992	52	6247
2026-01-30 12:13:26.89	114.16	7.65	-39.5	-40.5	22.2	0.00e+00	28	41	0	1015021568	52	6079
2026-01-30 12:13:27.90	114.29	7.61	-39.3	-40.4	22.3	0.00e+00	75	40	0	1017118720	52	5967
2026-01-30 12:13:28.91	114.43	7.56	-39.3	-40.4	22.3	0.00e+00	28	41	0	1019215872	52	5991
2026-01-30 12:13:29.92	114.57	7.51	-39.5	-40.6	22.1	0.00e+00	92	41	0	1021313024	52	6109
2026-01-30 12:13:30.93	114.70	7.47	-39.6	-40.7	22.0	0.00e+00	0	41	0	1023410176	52	6187
2026-01-30 12:13:31.94	114.84	7.42	-39.6	-40.7	22.0	0.00e+00	79	41	0	1024458752	52	6212
2026-01-30 12:13:32.95	114.97	7.37	-39.7	-40.9	21.8	0.00e+00	54	40	0	1026555904	52	6343
2026-01-30 12:13:33.96	115.11	7.33	-39.9	-41.1	21.7	0.00e+00	29	41	0	1028653056	52	6522
2026-01-30 12:13:34.97	115.24	7.28	-39.9	-41.1	21.7	0.00e+00	6	41	0	1030750208	52	6500
2026-01-30 12:13:35.98	115.37	7.24	-39.9	-41.1	21.7	0.00e+00	0	40	0	1032847360	52	6481
2026-01-30 12:13:36.99	115.51	7.19	-39.9	-41.0	21.6	0.00e+00	92	41	0	1033895936	52	6464
2026-01-30 12:13:37.99	115.64	7.14	-40.0	-41.1	21.7	0.00e+00	2	40	0	1035993088	52	6536
2026-01-30 12:13:39.00	115.77	7.10	-39.7	-40.9	21.9	0.00e+00	92	41	0	1038090240	52	6320
2026-01-30 12:13:40.01	115.90	7.05	-39.7	-40.7	22.0	0.00e+00	53	41	0	1040187392	52	6232
2026-01-30 12:13:41.02	116.03	7.00	-39.7	-40.8	21.9	0.00e+00	2	40	0	1042284544	52	6264
2026-01-30 12:13:42.03	116.17	6.96	-39.6	-40.6	22.1	0.00e+00	0	40	0	1043333120	52	6165
2026-01-30 12:13:43.04	116.30	6.91	-39.7	-40.8	21.9	0.00e+00	0	40	0	1045430272	52	6301
2026-01-30 12:13:44.05	116.43	6.86	-39.5	-40.7	22.0	0.00e+00	92	41	0	1047527424	52	6175
2026-01-30 12:13:45.06	116.56	6.82	-39.6	-40.7	22.0	0.00e+00	0	40	0	1049624576	52	6217
2026-01-30 12:13:46.07	116.69	6.77	-39.8	-40.9	21.8	0.00e+00	92	40	0	1051721728	52	6359
2026-01-30 12:13:47.08	116.82	6.72	-39.9	-41.1	21.6	0.00e+00	0	40	0	1052770304	52	6485
2026-01-30 12:13:48.09	116.94	6.68	-40.1	-41.3	21.5	0.00e+00	42	40	0	1054867456	52	6632
2026-01-30 12:13:49.10	117.07	6.63	-40.1	-41.3	21.3	0.00e+00	29	40	0	1056964608	52	6681
2026-01-30 12:13:50.11	117.20	6.58	-40.2	-41.5	21.2	0.00e+00	30	40	0	1059061760	52	6821
2026-01-30 12:13:51.12	117.33	6.53	-40.2	-41.6	21.2	0.00e+00	92	41	0	1061158912	52	6860
2026-01-30 12:13:52.13	117.45	6.49	-40.2	-41.5	21.2	0.00e+00	29	41	0	1062207488	52	6804
2026-01-30 12:13:53.14	117.58	6.44	-40.1	-41.3	21.4	0.00e+00	92	41	0	1064304640	52	6681
2026-01-30 12:13:54.14	117.71	6.39	-40.2	-41.3	21.4	0.00e+00	0	41	0	1066401792	52	6683
2026-01-30 12:13:55.15	117.83	6.35	-40.1	-41.2	21.5	0.00e+00	0	41	0	1068498944	52	6597
2026-01-30 12:13:56.16	117.96	6.30	-39.9	-41.1	21.5	0.00e+00	53	41	0	1070596096	52	6516
2026-01-30 12:13:57.17	118.08	6.25	-39.9	-41.1	21.5	0.00e+00	2	41	0	1072693248	52	6526
2026-01-30 12:13:58.18	118.21	6.20	-40.2	-41.4	21.3	0.00e+00	26	41	0	1073741824	52	6747
2026-01-30 12:13:59.19	118.33	6.16	-40.1	-41.3	21.3	0.00e+00	54	41	0	1075838976	52	6686
2026-01-30 12:14:00.20	118.46	6.11	-40.2	-41.4	21.3	0.00e+00	92	41	0	1077936128	52	6699
2026-01-30 12:14:01.21	118.58	6.06	-40.4	-41.6	21.1	0.00e+00	2	40	0	1080033280	52	6862
2026-01-30 12:14:02.21	118.70	6.02	-40.5	-41.7	20.9	0.00e+00	92	41	0	1081081856	52	7002
2026-01-30 12:14:03.22	118.83	5.97	-40.7	-41.9	20.7	0.00e+00	2	41	0	1083179008	52	7127
2026-01-30 12:14:04.23	118.95	5.92	-40.5	-41.8	20.9	0.00e+00	0	41	0	1085276160	52	7027
2026-01-30 12:14:05.24	119.07	5.87	-40.7	-41.9	20.8	0.00e+00	2	41	0	1087373312	52	7147
2026-01-30 12:14:06.25	119.19	5.83	-40.6	-41.9	20.8	0.00e+00	2	40	0	1089470464	52	7101
2026-01-30 12:14:07.26	119.31	5.78	-40.5	-41.7	20.9	0.00e+00	87	41	0	1090519040	52	7001
2026-01-30 12:14:08.27	119.43	5.73	-40.7	-42.0	20.7	0.00e+00	0	41	0	1092616192	52	7174
2026-01-30 12:14:09.28	119.55	5.68	-40.5	-41.7	20.8	0.00e+00	90	41	0	1094713344	52	6965
2026-01-30 12:14:10.29	119.68	5.64	-40.4	-41.7	20.9	0.00e+00	2	41	0	1096810496	52	6959
2026-01-30 12:14:11.29	119.79	5.59	-40.5	-41.8	20.8	0.00e+00	0	41	0	1098907648	52	7082
2026-01-30 12:14:12.30	119.91	5.54	-40.4	-41.8	20.9	0.00e+00	3	41	0	1101004800	52	7059
2026-01-30 12:14:13.31	120.03	5.49	-40.4	-41.8	20.8	0.00e+00	23	41	0	1102053376	52	7038
2026-01-30 12:14:14.32	120.15	5.45	-40.5	-41.9	20.8	0.00e+00	92	41	0	1104150528	52	7100
2026-01-30 12:14:15.33	120.27	5.40	-40.5	-41.9	20.6	0.00e+00	20	41	0	1106247680	52	7144
2026-01-30 12:14:16.34	120.39	5.35	-40.7	-42.2	20.4	0.00e+00	92	40	0	1108344832	54	6542
2026-01-30 12:14:17.35	120.51	5.30	-40.7	-42.1	20.3	0.00e+00	19	41	0	1110441984	54	6524
2026-01-30 12:14:18.36	120.62	5.26	-40.6	-42.1	20.3	0.00e+00	90	41	0	1111490560	54	6470
2026-01-30 12:14:19.37	120.74	5.21	-40.8	-42.3	20.1	0.00e+00	6	41	0	1113587712	54	6672
2026-01-30 12:14:20.38	120.86	5.16	-41.1	-42.7	19.9	0.00e+00	56	41	0	1115684864	54	6974
2026-01-30 12:14:21.39	120.97	5.11	-41.1	-42.6	20.0	0.00e+00	0	41	0	1117782016	54	6853
2026-01-30 12:14:22.40	121.09	5.07	-41.1	-42.5	20.0	0.00e+00	59	41	0	1119879168	54	6814
2026-01-30 12:14:23.41	121.20	5.02	-41.0	-42.4	20.1	0.00e+00	92	41	0	1120927744	54	6703
2026-01-30 12:14:24.41	121.32	4.97	-41.0	-42.3	20.1	0.00e+00	5	41	0	1123024896	54	6670
2026-01-30 12:14:25.42	121.43	4.92	-41.1	-42.5	20.0	0.00e+00	92	41	0	1125122048	54	6783
2026-01-30 12:14:26.43	121.55	4.88	-40.9	-42.3	19.9	0.00e+00	6	41	0	1127219200	54	6642
2026-01-30 12:14:27.44	121.66	4.83	-41.0	-42.4	19.9	0.00e+00	0	41	0	1129316352	54	6731
2026-01-30 12:14:28.45	121.77	4.78	-41.2	-42.6	19.9	0.00e+00	0	41	0	1130364928	54	6885
2026-01-30 12:14:29.46	121.89	4.73	-41.3	-42.7	19.8	0.00e+00	5	41	0	1132462080	54	6952
2026-01-30 12:14:30.47	122.00	4.68	-41.2	-42.6	19.9	0.00e+00	91	41	0	1134559232	54	6882
2026-01-30 12:14:31.48	122.11	4.64	-41.2	-42.7	19.8	0.00e+00	25	41	0	1136656384	54	6951
2026-01-30 12:14:32.49	122.22	4.59	-41.3	-42.8	19.7	0.00e+00	90	41	0	1138753536	54	7059
2026-01-30 12:14:33.50	122.34	4.54	-41.2	-42.7	19.7	0.00e+00	0	41	0	1139802112	54	6977
2026-01-30 12:14:34.51	122.45	4.49	-41.5	-43.0	19.5	0.00e+00	26	41	0	1141899264	54	7216
2026-01-30 12:14:35.52	122.56	4.45	-41.5	-43.1	19.4	0.00e+00	60	41	0	1143996416	54	7260
2026-01-30 12:14:36.53	122.67	4.40	-41.5	-43.0	19.5	0.00e+00	63	41	0	1146093568	54	7186
2026-01-30 12:14:37.54	122.78	4.35	-41.6	-43.1	19.4	0.00e+00	26	41	0	1148190720	54	7315
2026-01-30 12:14:38.55	122.89	4.30	-41.8	-43.3	19.2	0.00e+00	61	41	0	1149239296	56	6681
2026-01-30 12:14:39.56	123.00	4.25	-41.6	-43.1	19.4	0.00e+00	92	41	0	1151336448	56	6490
2026-01-30 12:14:40.57	123.11	4.21	-41.4	-43.0	19.6	0.00e+00	7	41	0	1153433600	56	6411
2026-01-30 12:14:41.58	123.22	4.16	-41.3	-42.8	19.7	0.00e+00	24	41	0	1155530752	56	6309
2026-01-30 12:14:42.59	123.33	4.11	-41.2	-42.7	19.7	0.00e+00	73	41	0	1157627904	56	6198
2026-01-30 12:14:43.60	123.44	4.06	-41.4	-43.0	19.4	0.00e+00	3	41	0	1158676480	56	6435
2026-01-30 12:14:44.61	123.54	4.02	-41.7	-43.3	19.2	0.00e+00	71	41	0	1160773632	56	6665
2026-01-30 12:14:45.62	123.65	3.97	-41.7	-43.3	19.1	0.00e+00	0	41	0	1162870784	56	6631
2026-01-30 12:14:46.63	123.76	3.92	-40.9	-42.4	20.0	0.00e+00	90	41	0	1164967936	56	6003
2026-01-30 12:14:47.64	123.87	3.87	-41.1	-42.7	19.7	0.00e+00	7	41	0	1167065088	56	6235
2026-01-30 12:14:48.65	123.97	3.82	-41.2	-42.9	19.5	0.00e+00	92	41	0	1169162240	56	6320
2026-01-30 12:14:49.66	124.08	3.78	-41.5	-43.2	19.2	0.00e+00	7	41	0	1170210816	56	6579
2026-01-30 12:14:50.67	124.19	3.73	-41.6	-43.4	19.0	0.00e+00	6	41	0	1172307968	56	6695
2026-01-30 12:14:51.67	124.29	3.68	-41.6	-43.3	19.0	0.00e+00	0	41	0	1174405120	56	6679
2026-01-30 12:14:52.69	124.40	3.63	-41.6	-43.3	19.0	0.00e+00	0	41	0	1176502272	56	6673
2026-01-30 12:14:53.69	124.50	3.59	-41.6	-43.3	19.0	0.00e+00	91	41	0	1178599424	56	6681
2026-01-30 12:14:54.70	124.61	3.54	-41.8	-43.6	18.7	0.00e+00	0	40	0	1179648000	56	6884
2026-01-30 12:14:55.71	124.71	3.49	-41.8	-43.5	18.7	0.00e+00	92	41	0	1181745152	56	6837
2026-01-30 12:14:56.73	124.82	3.44	-41.7	-43.4	18.8	0.00e+00	55	41	0	1183842304	56	6765
2026-01-30 12:14:57.73	124.92	3.40	-41.9	-43.7	18.7	0.00e+00	57	41	0	1185939456	56	6934
2026-01-30 12:14:58.74	125.02	3.35	-41.8	-43.5	18.8	0.00e+00	27	41	0	1188036608	56	6799
2026-01-30 12:14:59.75	125.13	3.30	-42.0	-43.8	18.4	0.00e+00	57	41	0	1189085184	56	7036
2026-01-30 12:15:00.76	125.23	3.25	-42.2	-44.1	18.1	0.00e+00	15	41	0	1191182336	56	7286
2026-01-30 12:15:01.77	125.33	3.20	-42.1	-43.9	18.2	0.00e+00	56	41	0	1193279488	56	7111
2026-01-30 12:15:02.78	125.43	3.16	-42.2	-44.0	18.1	0.00e+00	91	40	0	1195376640	56	7216
2026-01-30 12:15:03.79	125.54	3.11	-41.9	-43.6	18.5	0.00e+00	0	40	0	1197473792	56	6898
2026-01-30 12:15:04.80	125.64	3.06	-42.0	-43.7	18.5	0.00e+00	92	40	0	1198522368	56	7005
