passes_logs/2026/01/30/R4.6S_Anadyr/R4.6S_Anadyr__20260130_114256_SUOMI_NPP_rec.log

#Pass ID: 20260130_114256_SUOMI NPP
#Satellite: SUOMI NPP
#Configuration: NPP
#almurnet v.1.7.20251203
#Start time: 2026-01-30 11:43:00

#Version: 2.2.20231116
#Station: R4.6S_Anadyr
#Location: 177.4865 lon 64.73178 lat
#TLE: 1 37849U 11061A   26029.48304708  .00000140  00000+0  87283-4 0  9999
#TLE: 2 37849  98.7824 331.4079 0002024  38.4342 321.6978 14.19531488738761

#Time	Az	El	Level	Level2	SNR	BER	BlckErr	Temp	State	Recorded	gain1	gain2
2026-01-30 11:43:00.09	20.80	0.14	-49.6	-63.4	3.3	1.54e+00	0	40	0	0	60	53240
2026-01-30 11:43:01.09	20.89	0.18	-49.6	-64.8	3.6	1.51e+00	0	40	104	0	60	62763
2026-01-30 11:43:02.10	20.99	0.22	-49.6	-64.8	3.6	1.51e+00	0	40	104	0	60	63057
2026-01-30 11:43:03.12	21.08	0.26	-49.6	-64.8	3.6	1.51e+00	0	40	104	0	60	62883
2026-01-30 11:43:04.13	21.18	0.30	-49.6	-64.8	3.6	1.51e+00	0	40	104	0	60	63146
2026-01-30 11:43:05.14	21.28	0.34	-49.7	-64.8	3.6	1.51e+00	0	40	104	0	60	63018
2026-01-30 11:43:06.15	21.37	0.38	-49.6	-64.9	3.6	1.51e+00	0	40	104	0	60	63405
2026-01-30 11:43:07.16	21.47	0.42	-49.6	-64.9	3.6	1.51e+00	0	40	104	0	60	63354
2026-01-30 11:43:08.17	21.57	0.46	-49.6	-64.8	3.5	1.51e+00	0	40	104	0	60	62972
2026-01-30 11:43:09.18	21.67	0.50	-49.6	-64.8	3.6	1.51e+00	0	40	104	0	60	62984
2026-01-30 11:43:10.19	21.76	0.54	-49.5	-64.8	3.6	1.51e+00	0	40	104	0	60	62622
2026-01-30 11:43:11.20	21.86	0.58	-49.5	-64.8	3.6	1.51e+00	0	40	104	0	60	62650
2026-01-30 11:43:12.21	21.96	0.62	-49.5	-64.7	3.6	1.51e+00	0	40	104	0	60	61911
2026-01-30 11:43:13.22	22.06	0.67	-49.4	-64.6	3.6	1.51e+00	0	40	104	0	60	61299
2026-01-30 11:43:14.23	22.16	0.71	-49.3	-64.5	3.6	1.51e+00	0	40	104	0	60	60871
2026-01-30 11:43:15.24	22.26	0.75	-49.2	-64.4	3.6	1.51e+00	0	40	104	0	60	60169
2026-01-30 11:43:16.25	22.36	0.79	-49.2	-64.4	3.6	1.51e+00	0	40	104	0	60	59732
2026-01-30 11:43:17.26	22.45	0.83	-49.1	-64.3	3.6	1.51e+00	0	40	104	0	60	59338
2026-01-30 11:43:18.27	22.55	0.87	-49.0	-64.2	3.6	1.51e+00	0	40	104	0	60	58327
2026-01-30 11:43:19.28	22.65	0.91	-48.8	-64.0	3.6	1.51e+00	0	40	104	0	60	57358
2026-01-30 11:43:20.29	22.75	0.95	-48.6	-63.7	3.6	1.51e+00	0	41	104	0	60	55508
2026-01-30 11:43:21.30	22.85	0.99	-48.2	-63.4	3.5	1.51e+00	0	40	104	0	60	53252
2026-01-30 11:43:22.31	22.96	1.03	-48.1	-63.2	3.6	1.51e+00	0	40	104	0	60	52347
2026-01-30 11:43:23.32	23.06	1.07	-48.0	-63.2	3.6	1.51e+00	0	40	104	0	60	52070
2026-01-30 11:43:24.33	23.16	1.11	-48.1	-63.2	3.6	1.51e+00	0	40	104	0	60	52351
2026-01-30 11:43:25.34	23.26	1.15	-48.0	-63.2	3.6	1.51e+00	0	40	104	0	60	52270
2026-01-30 11:43:26.35	23.36	1.19	-48.0	-63.2	3.6	1.51e+00	0	41	104	0	60	52363
2026-01-30 11:43:27.36	23.46	1.23	-48.0	-63.2	3.6	1.51e+00	0	41	104	0	60	52458
2026-01-30 11:43:28.37	23.57	1.27	-48.0	-63.2	3.6	1.51e+00	0	41	104	0	60	52379
2026-01-30 11:43:29.38	23.67	1.32	-48.1	-63.2	3.6	1.51e+00	0	41	104	0	60	52138
2026-01-30 11:43:30.39	23.77	1.36	-48.0	-63.2	3.6	1.51e+00	0	41	104	0	60	52344
2026-01-30 11:43:31.40	23.87	1.40	-48.1	-63.2	3.6	1.51e+00	0	41	104	0	60	52338
2026-01-30 11:43:32.41	23.98	1.44	-48.0	-63.2	3.6	1.51e+00	0	41	104	0	60	52171
2026-01-30 11:43:33.42	24.08	1.48	-48.0	-63.2	3.6	1.51e+00	0	41	104	0	60	52424
2026-01-30 11:43:34.43	24.19	1.52	-48.0	-63.2	3.6	1.51e+00	0	41	104	0	60	52235
2026-01-30 11:43:35.44	24.29	1.56	-48.0	-63.2	3.6	1.51e+00	0	41	104	0	60	52215
2026-01-30 11:43:36.45	24.39	1.60	-48.0	-63.2	3.6	1.51e+00	0	41	104	0	60	52108
2026-01-30 11:43:37.46	24.50	1.64	-48.1	-63.2	3.6	1.51e+00	0	40	104	0	60	52496
2026-01-30 11:43:38.47	24.60	1.68	-48.0	-63.2	3.6	1.51e+00	0	40	104	0	60	52480
2026-01-30 11:43:39.48	24.71	1.72	-48.1	-63.2	3.5	1.51e+00	0	41	104	0	60	52246
2026-01-30 11:43:40.49	24.81	1.76	-48.0	-63.2	3.6	1.51e+00	0	40	104	0	60	52072
2026-01-30 11:43:41.50	24.92	1.80	-48.0	-63.2	3.6	1.51e+00	0	41	104	0	60	52231
2026-01-30 11:43:42.51	25.03	1.84	-48.0	-63.3	3.6	1.51e+00	0	41	104	0	60	52551
2026-01-30 11:43:43.52	25.13	1.88	-48.0	-63.2	3.6	1.51e+00	0	41	104	0	60	52167
2026-01-30 11:43:44.53	25.24	1.92	-48.0	-63.2	3.6	1.51e+00	0	41	104	0	60	52116
2026-01-30 11:43:45.54	25.35	1.96	-48.0	-63.2	3.6	1.51e+00	0	41	104	0	60	52248
2026-01-30 11:43:46.55	25.45	2.00	-48.0	-63.2	3.6	1.51e+00	0	41	104	0	60	52029
2026-01-30 11:43:47.56	25.56	2.04	-48.0	-63.2	3.6	1.51e+00	0	41	104	0	60	52421
2026-01-30 11:43:48.57	25.67	2.08	-48.0	-63.2	3.6	1.51e+00	0	41	104	0	60	52545
2026-01-30 11:43:49.58	25.78	2.12	-48.0	-63.2	3.6	1.51e+00	0	41	104	0	60	52039
2026-01-30 11:43:50.59	25.89	2.16	-48.0	-63.2	3.6	1.51e+00	0	41	104	0	60	52079
2026-01-30 11:43:51.60	25.99	2.20	-48.0	-63.1	3.6	1.51e+00	0	41	104	0	60	51789
2026-01-30 11:43:52.61	26.10	2.24	-48.0	-63.0	3.6	1.51e+00	0	41	104	0	60	51163
2026-01-30 11:43:53.62	26.21	2.28	-48.0	-63.0	3.6	1.51e+00	0	41	104	0	60	50938
2026-01-30 11:43:54.63	26.32	2.32	-48.0	-63.1	3.6	1.51e+00	0	41	104	0	60	51628
2026-01-30 11:43:55.64	26.43	2.36	-48.0	-63.2	3.6	1.51e+00	0	41	104	0	60	52298
2026-01-30 11:43:56.65	26.54	2.40	-48.0	-63.2	3.6	1.51e+00	0	41	104	0	60	51955
2026-01-30 11:43:57.66	26.65	2.44	-48.0	-63.2	3.6	1.51e+00	0	41	104	0	60	52244
2026-01-30 11:43:58.68	26.76	2.48	-48.1	-63.3	3.6	1.51e+00	0	41	104	0	60	52567
2026-01-30 11:43:59.69	26.87	2.52	-48.0	-62.9	3.6	1.51e+00	0	41	104	0	60	50439
2026-01-30 11:44:00.70	26.99	2.56	-48.0	-61.8	3.6	1.51e+00	0	41	104	0	60	44721
2026-01-30 11:44:01.70	27.10	2.60	-48.0	-61.2	3.6	1.51e+00	0	41	104	0	60	41565
2026-01-30 11:44:02.72	27.21	2.64	-48.0	-62.4	3.6	1.51e+00	0	41	104	0	60	47494
2026-01-30 11:44:03.73	27.32	2.68	-47.9	-61.1	3.6	1.51e+00	0	41	104	0	60	40996
2026-01-30 11:44:04.74	27.43	2.72	-47.3	-55.0	7.6	1.30e+00	0	41	104	0	60	20236
2026-01-30 11:44:05.75	27.55	2.76	-45.7	-49.6	12.7	9.67e-04	82	41	0	1048576	60	10860
2026-01-30 11:44:06.76	27.66	2.80	-44.0	-46.5	15.7	0.00e+00	0	41	0	3145728	60	7622
2026-01-30 11:44:07.77	27.77	2.84	-42.1	-43.8	18.1	0.00e+00	80	41	0	4194304	58	6297
2026-01-30 11:44:08.78	27.88	2.88	-41.5	-43.1	18.9	0.00e+00	0	41	0	6291456	56	6472
2026-01-30 11:44:09.79	28.00	2.92	-41.4	-42.9	19.1	0.00e+00	0	41	0	8388608	56	6372
2026-01-30 11:44:10.80	28.11	2.96	-41.7	-43.4	18.6	0.00e+00	0	41	0	10485760	56	6711
2026-01-30 11:44:11.81	28.23	3.00	-43.1	-45.3	16.5	0.00e+00	0	41	0	12582912	58	7425
2026-01-30 11:44:12.82	28.34	3.04	-42.1	-43.8	18.3	0.00e+00	85	41	0	13631488	56	7024
2026-01-30 11:44:13.82	28.46	3.08	-42.1	-43.8	18.3	0.00e+00	0	41	0	15728640	56	7019
2026-01-30 11:44:14.83	28.57	3.12	-47.9	-59.4	3.6	0.00e+00	31	41	0	17825792	60	33668
2026-01-30 11:44:15.84	28.69	3.16	-47.7	-60.0	3.6	1.50e+00	0	41	104	17825792	60	36198
2026-01-30 11:44:16.85	28.80	3.20	-45.3	-48.7	12.9	2.55e-02	0	41	0	17825792	60	9861
2026-01-30 11:44:17.86	28.92	3.24	-43.2	-45.3	17.1	5.51e-04	0	41	0	19922944	60	6646
2026-01-30 11:44:18.87	29.03	3.28	-42.6	-44.5	17.8	0.00e+00	0	41	0	20971520	58	6786
2026-01-30 11:44:19.88	29.15	3.32	-42.4	-44.2	17.9	0.00e+00	88	41	0	23068672	58	6576
2026-01-30 11:44:20.89	29.27	3.35	-42.5	-44.3	17.6	0.00e+00	0	41	0	25165824	58	6666
2026-01-30 11:44:21.90	29.39	3.39	-42.2	-43.9	18.5	0.00e+00	41	41	0	27262976	58	6359
2026-01-30 11:44:22.91	29.50	3.43	-42.8	-44.8	17.5	0.00e+00	0	41	0	29360128	58	7021
2026-01-30 11:44:23.92	29.62	3.47	-41.8	-43.4	18.8	0.00e+00	0	41	0	30408704	58	6016
2026-01-30 11:44:24.93	29.74	3.51	-41.2	-42.6	19.5	0.00e+00	0	41	0	32505856	56	6163
2026-01-30 11:44:25.94	29.86	3.55	-41.2	-42.6	19.5	0.00e+00	0	41	0	34603008	56	6170
2026-01-30 11:44:26.95	29.98	3.59	-40.8	-42.2	19.8	0.00e+00	0	41	0	36700160	56	5837
2026-01-30 11:44:27.96	30.10	3.63	-40.8	-42.2	19.8	0.00e+00	0	41	0	38797312	54	6544
2026-01-30 11:44:28.97	30.21	3.67	-40.8	-42.2	19.8	0.00e+00	83	41	0	39845888	54	6579
2026-01-30 11:44:29.98	30.33	3.71	-41.1	-42.5	19.6	0.00e+00	0	41	0	41943040	54	6841
2026-01-30 11:44:30.99	30.45	3.74	-40.9	-42.2	19.8	0.00e+00	65	41	0	44040192	54	6602
2026-01-30 11:44:31.99	30.57	3.78	-41.4	-42.9	19.3	0.00e+00	0	41	0	46137344	54	7097
2026-01-30 11:44:33.00	30.69	3.82	-41.0	-42.4	19.8	0.00e+00	0	41	0	48234496	54	6719
2026-01-30 11:44:34.02	30.82	3.86	-41.1	-42.6	19.7	0.00e+00	0	41	0	49283072	54	6871
2026-01-30 11:44:35.02	30.94	3.90	-41.1	-42.5	19.5	0.00e+00	0	41	0	51380224	54	6824
2026-01-30 11:44:36.03	31.06	3.94	-41.2	-42.7	19.5	0.00e+00	65	41	0	53477376	54	6933
2026-01-30 11:44:37.04	31.18	3.98	-41.2	-42.6	19.5	0.00e+00	0	41	0	55574528	54	6902
2026-01-30 11:44:38.05	31.30	4.02	-41.4	-42.9	19.3	0.00e+00	69	41	0	57671680	54	7158
2026-01-30 11:44:39.06	31.42	4.05	-41.2	-42.6	19.5	0.00e+00	0	41	0	58720256	54	6919
2026-01-30 11:44:40.07	31.55	4.09	-40.8	-42.2	19.9	0.00e+00	0	41	0	60817408	54	6584
2026-01-30 11:44:41.08	31.67	4.13	-40.8	-42.2	20.0	0.00e+00	0	41	0	62914560	54	6548
2026-01-30 11:44:42.09	31.79	4.17	-40.9	-42.2	19.9	0.00e+00	0	41	0	65011712	54	6614
2026-01-30 11:44:43.10	31.92	4.21	-40.7	-42.0	20.0	0.00e+00	66	41	0	67108864	54	6409
2026-01-30 11:44:44.11	32.04	4.25	-40.6	-42.0	20.2	0.00e+00	0	41	0	68157440	54	6407
2026-01-30 11:44:45.12	32.17	4.28	-40.5	-41.8	20.3	0.00e+00	92	41	0	70254592	54	6253
2026-01-30 11:44:46.13	32.29	4.32	-40.6	-42.0	20.2	0.00e+00	0	41	0	72351744	54	6410
2026-01-30 11:44:47.14	32.42	4.36	-40.4	-41.6	20.4	0.00e+00	0	41	0	74448896	54	6160
2026-01-30 11:44:48.15	32.54	4.40	-40.7	-42.1	20.0	0.00e+00	33	41	0	76546048	54	6479
2026-01-30 11:44:49.16	32.67	4.44	-40.9	-42.2	19.7	0.00e+00	0	41	0	77594624	54	6607
2026-01-30 11:44:50.17	32.79	4.47	-40.6	-41.9	20.2	0.00e+00	0	41	0	79691776	54	6352
2026-01-30 11:44:51.18	32.92	4.51	-40.6	-42.0	20.3	0.00e+00	33	41	0	81788928	54	6398
2026-01-30 11:44:52.19	33.04	4.55	-40.8	-42.1	20.1	0.00e+00	90	41	0	83886080	54	6524
2026-01-30 11:44:53.20	33.17	4.59	-40.5	-41.8	20.3	0.00e+00	0	41	0	85983232	54	6295
2026-01-30 11:44:54.21	33.30	4.62	-40.6	-41.9	20.3	0.00e+00	0	41	0	88080384	54	6390
2026-01-30 11:44:55.22	33.43	4.66	-40.6	-41.9	20.3	0.00e+00	0	41	0	89128960	54	6384
2026-01-30 11:44:56.23	33.55	4.70	-40.6	-41.9	20.3	0.00e+00	0	41	0	91226112	54	6383
2026-01-30 11:44:57.24	33.68	4.74	-40.7	-42.0	20.2	0.00e+00	81	41	0	93323264	54	6435
2026-01-30 11:44:58.25	33.81	4.77	-40.6	-41.9	20.3	0.00e+00	0	41	0	95420416	54	6358
2026-01-30 11:44:59.26	33.94	4.81	-40.8	-42.1	20.1	0.00e+00	86	41	0	97517568	54	6491
2026-01-30 11:45:00.27	34.07	4.85	-40.8	-42.1	20.1	0.00e+00	0	41	0	98566144	54	6529
2026-01-30 11:45:01.27	34.20	4.89	-40.7	-42.1	20.2	0.00e+00	0	41	0	100663296	54	6477
2026-01-30 11:45:02.28	34.33	4.92	-41.1	-42.5	19.8	0.00e+00	0	41	0	102760448	54	6800
2026-01-30 11:45:03.29	34.46	4.96	-40.9	-42.2	20.1	0.00e+00	0	41	0	104857600	54	6588
2026-01-30 11:45:04.30	34.59	5.00	-41.0	-42.3	20.0	0.00e+00	17	41	0	105906176	54	6691
2026-01-30 11:45:05.31	34.72	5.03	-41.1	-42.5	19.9	0.00e+00	0	41	0	108003328	54	6776
2026-01-30 11:45:06.32	34.85	5.07	-41.0	-42.4	20.0	0.00e+00	82	41	0	110100480	54	6702
2026-01-30 11:45:07.33	34.98	5.11	-40.8	-42.1	20.2	0.00e+00	0	41	0	112197632	54	6525
2026-01-30 11:45:08.34	35.11	5.14	-40.8	-42.2	20.1	0.00e+00	0	41	0	114294784	54	6544
2026-01-30 11:45:09.35	35.24	5.18	-40.9	-42.2	20.1	0.00e+00	0	41	0	116391936	54	6606
2026-01-30 11:45:10.36	35.37	5.22	-40.8	-42.1	20.3	0.00e+00	0	41	0	117440512	54	6473
2026-01-30 11:45:11.37	35.51	5.25	-40.8	-42.1	20.2	0.00e+00	0	41	0	119537664	54	6538
2026-01-30 11:45:12.38	35.64	5.29	-40.7	-42.0	20.3	0.00e+00	0	41	0	121634816	54	6436
2026-01-30 11:45:13.39	35.77	5.33	-40.8	-42.2	20.2	0.00e+00	80	41	0	123731968	54	6545
2026-01-30 11:45:14.40	35.91	5.36	-41.0	-42.3	20.0	0.00e+00	0	41	0	125829120	54	6650
2026-01-30 11:45:15.41	36.04	5.40	-41.0	-42.3	20.0	0.00e+00	92	41	0	126877696	54	6686
2026-01-30 11:45:16.42	36.17	5.43	-40.9	-42.2	20.1	0.00e+00	0	41	0	128974848	54	6608
2026-01-30 11:45:17.43	36.31	5.47	-41.0	-42.3	20.1	0.00e+00	0	41	0	131072000	54	6658
2026-01-30 11:45:18.44	36.44	5.51	-41.2	-42.7	19.8	0.00e+00	0	41	0	133169152	54	6934
2026-01-30 11:45:19.44	36.58	5.54	-41.0	-42.4	20.0	0.00e+00	0	41	0	135266304	54	6713
2026-01-30 11:45:20.45	36.71	5.58	-41.1	-42.4	20.0	0.00e+00	80	41	0	136314880	54	6764
2026-01-30 11:45:21.46	36.85	5.61	-41.1	-42.5	19.9	0.00e+00	0	41	0	138412032	54	6839
2026-01-30 11:45:22.47	36.98	5.65	-41.1	-42.5	20.0	0.00e+00	82	41	0	140509184	54	6813
2026-01-30 11:45:23.48	37.12	5.68	-40.9	-42.2	20.1	0.00e+00	0	41	0	142606336	54	6611
2026-01-30 11:45:24.49	37.26	5.72	-41.1	-42.4	20.0	0.00e+00	0	41	0	144703488	54	6748
2026-01-30 11:45:25.50	37.39	5.76	-41.0	-42.3	20.0	0.00e+00	0	41	0	145752064	54	6663
2026-01-30 11:45:26.51	37.53	5.79	-40.9	-42.2	20.3	0.00e+00	0	41	0	147849216	54	6612
2026-01-30 11:45:27.52	37.67	5.83	-40.8	-42.2	20.2	0.00e+00	0	41	0	149946368	54	6548
2026-01-30 11:45:28.53	37.81	5.86	-40.7	-41.9	20.5	0.00e+00	0	41	0	152043520	54	6372
2026-01-30 11:45:29.54	37.94	5.90	-40.6	-41.8	20.5	0.00e+00	70	41	0	154140672	54	6298
2026-01-30 11:45:30.55	38.08	5.93	-40.4	-41.6	20.6	0.00e+00	0	41	0	155189248	54	6170
2026-01-30 11:45:31.56	38.22	5.97	-40.6	-41.9	20.5	0.00e+00	0	41	0	157286400	54	6331
2026-01-30 11:45:32.57	38.36	6.00	-40.7	-42.0	20.4	0.00e+00	0	41	0	159383552	54	6435
2026-01-30 11:45:33.58	38.50	6.04	-40.7	-41.9	20.4	0.00e+00	0	41	0	161480704	54	6386
2026-01-30 11:45:34.59	38.64	6.07	-40.8	-42.1	20.3	0.00e+00	65	41	0	163577856	54	6522
2026-01-30 11:45:35.60	38.78	6.10	-40.8	-42.1	20.1	0.00e+00	0	41	0	164626432	54	6498
2026-01-30 11:45:36.60	38.92	6.14	-41.3	-42.6	19.9	0.00e+00	83	41	0	166723584	54	6925
2026-01-30 11:45:37.61	39.06	6.17	-41.1	-42.5	20.0	0.00e+00	0	41	0	168820736	54	6815
2026-01-30 11:45:38.62	39.20	6.21	-41.0	-42.3	20.1	0.00e+00	0	41	0	170917888	54	6669
2026-01-30 11:45:39.64	39.34	6.24	-41.0	-42.4	20.1	0.00e+00	0	41	0	173015040	54	6723
2026-01-30 11:45:40.64	39.49	6.27	-41.1	-42.4	20.1	0.00e+00	0	41	0	174063616	54	6746
2026-01-30 11:45:41.65	39.63	6.31	-41.1	-42.4	20.1	0.00e+00	0	41	0	176160768	54	6748
2026-01-30 11:45:42.66	39.77	6.34	-41.0	-42.4	20.2	0.00e+00	0	41	0	178257920	54	6694
2026-01-30 11:45:43.68	39.91	6.38	-41.1	-42.5	20.0	0.00e+00	78	41	0	180355072	54	6821
2026-01-30 11:45:44.69	40.06	6.41	-41.4	-42.8	19.8	0.00e+00	0	41	0	182452224	54	7074
2026-01-30 11:45:45.69	40.20	6.44	-41.3	-42.7	19.9	0.00e+00	15	41	0	184549376	54	6968
2026-01-30 11:45:46.71	40.34	6.48	-41.3	-42.7	19.9	0.00e+00	0	41	0	185597952	54	6973
2026-01-30 11:45:47.72	40.49	6.51	-41.3	-42.7	19.7	0.00e+00	0	41	0	187695104	54	7004
2026-01-30 11:45:48.73	40.63	6.54	-41.8	-43.3	19.6	0.00e+00	41	41	0	189792256	54	7504
2026-01-30 11:45:49.74	40.78	6.58	-41.6	-43.1	19.5	0.00e+00	0	41	0	191889408	56	6493
2026-01-30 11:45:50.75	40.92	6.61	-41.8	-43.3	19.4	0.00e+00	14	41	0	193986560	56	6660
2026-01-30 11:45:51.76	41.07	6.64	-41.8	-43.3	19.4	0.00e+00	0	41	0	195035136	56	6670
2026-01-30 11:45:52.77	41.21	6.67	-41.5	-42.9	19.8	0.00e+00	81	41	0	197132288	56	6336
2026-01-30 11:45:53.78	41.36	6.71	-41.5	-43.0	19.7	0.00e+00	0	41	0	199229440	56	6394
2026-01-30 11:45:54.78	41.50	6.74	-41.2	-42.6	20.0	0.00e+00	0	41	0	201326592	56	6149
2026-01-30 11:45:55.79	41.65	6.77	-41.1	-42.4	20.2	0.00e+00	0	41	0	203423744	56	6008
2026-01-30 11:45:56.80	41.80	6.80	-41.3	-42.7	20.0	0.00e+00	0	41	0	204472320	56	6195
2026-01-30 11:45:57.81	41.94	6.84	-41.2	-42.5	20.2	0.00e+00	84	41	0	206569472	56	6099
2026-01-30 11:45:58.82	42.09	6.87	-41.3	-42.7	19.7	0.00e+00	0	41	0	208666624	56	6188
2026-01-30 11:45:59.83	42.24	6.90	-41.3	-42.7	19.9	0.00e+00	88	41	0	210763776	56	6231
2026-01-30 11:46:00.84	42.39	6.93	-41.2	-42.5	20.0	0.00e+00	0	41	0	212860928	56	6082
2026-01-30 11:46:01.85	42.54	6.96	-41.2	-42.6	20.1	0.00e+00	0	41	0	213909504	56	6144
2026-01-30 11:46:02.86	42.68	7.00	-41.3	-42.6	20.0	0.00e+00	0	41	0	216006656	56	6169
2026-01-30 11:46:03.87	42.83	7.03	-41.3	-42.7	20.0	0.00e+00	0	41	0	218103808	56	6196
2026-01-30 11:46:04.88	42.98	7.06	-41.3	-42.7	20.0	0.00e+00	73	41	0	220200960	56	6233
2026-01-30 11:46:05.89	43.13	7.09	-41.3	-42.6	20.0	0.00e+00	0	41	0	222298112	56	6172
2026-01-30 11:46:06.90	43.28	7.12	-41.5	-42.9	19.7	0.00e+00	89	41	0	223346688	56	6368
2026-01-30 11:46:07.91	43.43	7.15	-41.5	-43.0	19.8	0.00e+00	0	41	0	225443840	56	6391
2026-01-30 11:46:08.92	43.58	7.18	-41.6	-43.0	19.7	0.00e+00	0	41	0	227540992	56	6452
2026-01-30 11:46:09.93	43.73	7.21	-41.7	-43.1	19.6	0.00e+00	0	41	0	229638144	56	6518
2026-01-30 11:46:10.94	43.88	7.24	-41.6	-43.0	19.6	0.00e+00	0	41	0	231735296	56	6459
2026-01-30 11:46:11.95	44.04	7.27	-41.7	-43.2	19.6	0.00e+00	88	41	0	232783872	56	6577
2026-01-30 11:46:12.96	44.19	7.30	-41.7	-43.1	19.6	0.00e+00	0	41	0	234881024	56	6501
2026-01-30 11:46:13.96	44.34	7.33	-41.6	-43.0	19.8	0.00e+00	41	41	0	236978176	56	6417
2026-01-30 11:46:14.97	44.49	7.36	-41.2	-42.6	20.0	0.00e+00	0	41	0	239075328	56	6138
2026-01-30 11:46:15.98	44.64	7.39	-41.0	-42.3	20.4	0.00e+00	0	41	0	241172480	56	5897
2026-01-30 11:46:16.99	44.80	7.42	-41.1	-42.4	20.2	0.00e+00	0	41	0	242221056	56	6014
2026-01-30 11:46:18.00	44.95	7.45	-41.0	-42.3	20.3	0.00e+00	0	41	0	244318208	56	5940
2026-01-30 11:46:19.01	45.10	7.48	-41.0	-42.3	20.4	0.00e+00	68	41	0	246415360	56	5905
2026-01-30 11:46:20.02	45.26	7.51	-41.0	-42.3	20.3	0.00e+00	0	41	0	248512512	56	5914
2026-01-30 11:46:21.03	45.41	7.54	-41.1	-42.5	20.1	0.00e+00	34	41	0	250609664	56	6044
2026-01-30 11:46:22.04	45.57	7.57	-41.5	-42.9	19.9	0.00e+00	0	41	0	252706816	56	6322
2026-01-30 11:46:23.05	45.72	7.60	-41.7	-43.1	19.7	0.00e+00	63	41	0	253755392	56	6531
2026-01-30 11:46:24.06	45.88	7.63	-41.8	-43.2	19.6	0.00e+00	0	41	0	255852544	56	6592
2026-01-30 11:46:25.07	46.03	7.66	-41.8	-43.2	19.6	0.00e+00	0	41	0	257949696	56	6587
2026-01-30 11:46:26.08	46.19	7.68	-41.8	-43.2	19.5	0.00e+00	0	41	0	260046848	56	6606
2026-01-30 11:46:27.09	46.34	7.71	-41.7	-43.1	19.7	0.00e+00	0	41	0	262144000	56	6510
2026-01-30 11:46:28.10	46.50	7.74	-41.7	-43.2	19.6	0.00e+00	69	41	0	263192576	56	6552
2026-01-30 11:46:29.11	46.66	7.77	-41.6	-43.0	19.7	0.00e+00	0	41	0	265289728	56	6416
2026-01-30 11:46:30.12	46.81	7.80	-41.6	-43.0	19.7	0.00e+00	90	41	0	267386880	56	6460
2026-01-30 11:46:31.13	46.97	7.82	-41.6	-43.0	19.8	0.00e+00	0	41	0	269484032	56	6435
2026-01-30 11:46:32.14	47.13	7.85	-41.8	-43.3	19.6	0.00e+00	0	41	0	271581184	56	6629
2026-01-30 11:46:33.15	47.29	7.88	-41.8	-43.3	19.6	0.00e+00	0	41	0	272629760	56	6624
2026-01-30 11:46:34.16	47.44	7.91	-41.7	-43.1	19.6	0.00e+00	0	41	0	274726912	56	6527
2026-01-30 11:46:35.16	47.60	7.93	-41.6	-43.0	19.8	0.00e+00	44	41	0	276824064	56	6425
2026-01-30 11:46:36.17	47.76	7.96	-41.5	-42.9	19.8	0.00e+00	0	41	0	278921216	56	6345
2026-01-30 11:46:37.18	47.92	7.99	-41.2	-42.6	20.2	0.00e+00	92	41	0	281018368	56	6129
2026-01-30 11:46:38.19	48.08	8.01	-41.2	-42.6	20.1	0.00e+00	33	41	0	282066944	56	6117
2026-01-30 11:46:39.20	48.24	8.04	-41.1	-42.4	20.4	0.00e+00	0	41	0	284164096	56	6019
2026-01-30 11:46:40.20	48.39	8.07	-40.9	-42.2	20.5	0.00e+00	0	41	0	286261248	56	5850
2026-01-30 11:46:41.21	48.55	8.09	-40.9	-42.2	20.5	0.00e+00	0	41	0	288358400	56	5849
2026-01-30 11:46:42.22	48.71	8.12	-41.1	-42.3	20.5	0.00e+00	86	41	0	290455552	56	5956
2026-01-30 11:46:43.23	48.88	8.14	-40.9	-42.2	20.5	0.00e+00	0	41	0	291504128	56	5877
2026-01-30 11:46:44.23	49.03	8.17	-41.1	-42.4	20.2	0.00e+00	86	41	0	293601280	56	6012
2026-01-30 11:46:45.24	49.20	8.19	-41.3	-42.7	20.1	0.00e+00	0	41	0	295698432	56	6214
2026-01-30 11:46:46.26	49.36	8.22	-41.5	-42.9	19.9	0.00e+00	0	41	0	297795584	56	6360
2026-01-30 11:46:47.27	49.52	8.24	-42.0	-43.6	19.4	0.00e+00	0	41	0	299892736	56	6858
2026-01-30 11:46:48.27	49.68	8.27	-42.4	-44.0	18.9	0.00e+00	0	41	0	300941312	56	7252
2026-01-30 11:46:49.28	49.84	8.29	-42.5	-44.1	18.8	0.00e+00	0	41	0	303038464	56	7332
2026-01-30 11:46:50.30	50.01	8.32	-42.5	-44.1	18.8	0.00e+00	0	41	0	305135616	56	7308
2026-01-30 11:46:51.31	50.17	8.34	-42.4	-44.0	18.8	0.00e+00	84	41	0	307232768	56	7218
2026-01-30 11:46:52.32	50.33	8.37	-42.4	-44.0	18.8	0.00e+00	0	41	0	309329920	56	7233
2026-01-30 11:46:53.32	50.49	8.39	-42.3	-43.9	19.2	0.00e+00	33	41	0	310378496	56	7107
2026-01-30 11:46:54.33	50.66	8.42	-41.9	-43.4	19.4	0.00e+00	0	41	0	312475648	56	6747
2026-01-30 11:46:55.34	50.82	8.44	-41.6	-43.1	19.6	0.00e+00	0	41	0	314572800	56	6468
2026-01-30 11:46:56.35	50.99	8.46	-41.3	-42.6	19.9	0.00e+00	0	41	0	316669952	56	6126
2026-01-30 11:46:57.36	51.15	8.49	-41.2	-42.5	20.2	0.00e+00	0	41	0	318767104	56	6092
2026-01-30 11:46:58.37	51.31	8.51	-41.1	-42.5	20.3	0.00e+00	89	41	0	320864256	56	6046
2026-01-30 11:46:59.38	51.48	8.53	-41.1	-42.5	20.3	0.00e+00	0	41	0	321912832	56	6048
2026-01-30 11:47:00.38	51.64	8.56	-41.3	-42.6	20.2	0.00e+00	83	41	0	324009984	56	6160
2026-01-30 11:47:01.39	51.81	8.58	-41.3	-42.6	20.3	0.00e+00	0	41	0	326107136	56	6163
2026-01-30 11:47:02.40	51.97	8.60	-41.1	-42.4	20.3	0.00e+00	0	41	0	328204288	56	5997
2026-01-30 11:47:03.41	52.14	8.62	-41.2	-42.5	20.3	0.00e+00	0	41	0	330301440	56	6049
2026-01-30 11:47:04.42	52.31	8.64	-41.4	-42.7	20.1	0.00e+00	0	41	0	331350016	56	6208
2026-01-30 11:47:05.43	52.47	8.67	-41.3	-42.6	20.2	0.00e+00	8	41	0	333447168	56	6106
2026-01-30 11:47:06.44	52.64	8.69	-40.9	-42.1	20.7	0.00e+00	0	41	0	335544320	56	5790
2026-01-30 11:47:07.45	52.80	8.71	-40.7	-41.9	20.7	0.00e+00	81	41	0	337641472	54	6381
2026-01-30 11:47:08.46	52.97	8.73	-40.7	-41.9	20.8	0.00e+00	0	41	0	339738624	54	6337
2026-01-30 11:47:09.47	53.14	8.75	-40.8	-42.1	20.6	0.00e+00	0	41	0	340787200	54	6488
2026-01-30 11:47:10.48	53.31	8.77	-41.1	-42.3	20.4	0.00e+00	0	41	0	342884352	54	6687
2026-01-30 11:47:11.49	53.47	8.79	-41.4	-42.8	19.8	0.00e+00	0	41	0	344981504	54	7080
2026-01-30 11:47:12.50	53.64	8.81	-41.5	-42.9	19.9	0.00e+00	8	41	0	347078656	54	7095
2026-01-30 11:47:13.50	53.81	8.83	-41.6	-43.0	19.7	0.00e+00	0	41	0	349175808	54	7212
2026-01-30 11:47:14.51	53.98	8.86	-41.5	-42.9	19.8	0.00e+00	83	41	0	350224384	54	7164
2026-01-30 11:47:15.52	54.15	8.88	-41.2	-42.6	20.2	0.00e+00	0	41	0	352321536	54	6869
2026-01-30 11:47:16.53	54.31	8.89	-41.1	-42.3	20.4	0.00e+00	0	41	0	354418688	54	6690
2026-01-30 11:47:17.54	54.48	8.91	-40.8	-42.0	20.7	0.00e+00	0	41	0	356515840	54	6423
2026-01-30 11:47:18.55	54.65	8.93	-40.6	-41.8	20.9	0.00e+00	0	41	0	358612992	54	6311
2026-01-30 11:47:19.56	54.82	8.95	-40.4	-41.6	21.0	0.00e+00	81	41	0	359661568	54	6163
2026-01-30 11:47:20.57	54.99	8.97	-40.6	-41.8	20.9	0.00e+00	0	41	0	361758720	54	6275
2026-01-30 11:47:21.58	55.16	8.99	-40.9	-42.1	20.6	0.00e+00	80	41	0	363855872	54	6523
2026-01-30 11:47:22.59	55.33	9.01	-40.9	-42.1	20.5	0.00e+00	0	41	0	365953024	54	6521
2026-01-30 11:47:23.60	55.50	9.03	-41.2	-42.5	20.3	0.00e+00	0	41	0	368050176	54	6834
2026-01-30 11:47:24.62	55.67	9.05	-41.0	-42.3	20.5	0.00e+00	0	41	0	369098752	54	6666
2026-01-30 11:47:25.63	55.85	9.06	-41.0	-42.2	20.5	0.00e+00	0	41	0	371195904	54	6615
2026-01-30 11:47:26.64	56.02	9.08	-40.8	-42.0	20.7	0.00e+00	73	41	0	373293056	54	6419
2026-01-30 11:47:27.64	56.19	9.10	-40.5	-41.7	20.9	0.00e+00	0	41	0	375390208	54	6205
2026-01-30 11:47:28.65	56.36	9.12	-40.3	-41.5	21.2	0.00e+00	75	41	0	377487360	54	6039
2026-01-30 11:47:29.66	56.53	9.13	-40.3	-41.5	20.9	0.00e+00	0	41	0	378535936	54	6048
2026-01-30 11:47:30.67	56.70	9.15	-40.2	-41.4	21.1	0.00e+00	57	41	0	380633088	54	5986
2026-01-30 11:47:31.68	56.87	9.17	-40.4	-41.6	21.0	0.00e+00	0	41	0	382730240	54	6158
2026-01-30 11:47:32.69	57.05	9.18	-40.7	-41.9	20.7	0.00e+00	0	41	0	384827392	54	6349
2026-01-30 11:47:33.70	57.22	9.20	-40.7	-41.9	20.7	0.00e+00	0	41	0	386924544	54	6388
2026-01-30 11:47:34.71	57.39	9.22	-40.8	-42.0	20.7	0.00e+00	0	41	0	389021696	54	6463
2026-01-30 11:47:35.72	57.56	9.23	-40.9	-42.1	20.5	0.00e+00	19	41	0	390070272	54	6534
2026-01-30 11:47:36.73	57.74	9.25	-41.0	-42.3	20.5	0.00e+00	0	41	0	392167424	54	6622
2026-01-30 11:47:37.74	57.91	9.26	-40.9	-42.2	20.4	0.00e+00	84	41	0	394264576	54	6546
2026-01-30 11:47:38.75	58.08	9.28	-41.1	-42.4	20.4	0.00e+00	0	41	0	396361728	54	6724
2026-01-30 11:47:39.76	58.26	9.29	-41.2	-42.5	20.3	0.00e+00	0	41	0	398458880	54	6804
2026-01-30 11:47:40.77	58.43	9.31	-41.3	-42.7	20.1	0.00e+00	0	41	0	399507456	54	6967
2026-01-30 11:47:41.78	58.60	9.32	-41.6	-43.0	19.8	0.00e+00	0	41	0	401604608	54	7247
2026-01-30 11:47:42.79	58.78	9.34	-42.2	-43.7	19.2	0.00e+00	3	41	0	403701760	56	6963
2026-01-30 11:47:43.80	58.95	9.35	-42.6	-44.3	18.7	0.00e+00	0	41	0	405798912	56	7435
2026-01-30 11:47:44.81	59.13	9.37	-42.7	-44.4	18.5	0.00e+00	90	41	0	407896064	58	6739
2026-01-30 11:47:45.82	59.30	9.38	-42.9	-44.6	18.4	0.00e+00	0	41	0	408944640	58	6916
2026-01-30 11:47:46.83	59.47	9.39	-42.6	-44.2	18.7	0.00e+00	0	41	0	411041792	58	6588
2026-01-30 11:47:47.84	59.65	9.41	-42.5	-44.1	19.0	0.00e+00	0	41	0	413138944	58	6531
2026-01-30 11:47:48.84	59.82	9.42	-42.2	-43.8	19.1	0.00e+00	0	41	0	415236096	58	6267
2026-01-30 11:47:49.85	60.00	9.43	-42.1	-43.7	19.3	0.00e+00	0	41	0	417333248	58	6180
2026-01-30 11:47:50.86	60.17	9.44	-42.1	-43.6	19.4	0.00e+00	0	41	0	418381824	58	6125
2026-01-30 11:47:51.87	60.35	9.46	-42.0	-43.5	19.5	0.00e+00	72	41	0	420478976	58	6054
2026-01-30 11:47:52.88	60.52	9.47	-42.1	-43.6	19.4	0.00e+00	0	41	0	422576128	58	6129
2026-01-30 11:47:53.89	60.70	9.48	-42.2	-43.8	19.3	0.00e+00	0	41	0	424673280	58	6278
2026-01-30 11:47:54.90	60.88	9.49	-42.1	-43.7	19.3	0.00e+00	0	41	0	426770432	58	6187
2026-01-30 11:47:55.91	61.05	9.50	-42.3	-43.9	19.1	0.00e+00	0	41	0	427819008	58	6321
2026-01-30 11:47:56.92	61.23	9.51	-42.3	-43.8	19.1	0.00e+00	89	41	0	429916160	58	6312
2026-01-30 11:47:57.93	61.40	9.53	-42.3	-43.9	19.2	0.00e+00	0	41	0	432013312	58	6324
2026-01-30 11:47:58.94	61.58	9.54	-42.4	-44.0	18.9	0.00e+00	86	41	0	434110464	58	6419
2026-01-30 11:47:59.95	61.76	9.55	-42.2	-43.8	19.1	0.00e+00	0	41	0	436207616	58	6253
2026-01-30 11:48:00.96	61.93	9.56	-42.4	-44.0	19.0	0.00e+00	0	41	0	437256192	58	6399
2026-01-30 11:48:01.97	62.11	9.57	-42.4	-44.0	18.9	0.00e+00	0	41	0	439353344	58	6395
2026-01-30 11:48:02.98	62.29	9.58	-42.5	-44.1	18.8	0.00e+00	0	41	0	441450496	58	6535
2026-01-30 11:48:03.99	62.46	9.59	-42.4	-44.1	18.9	0.00e+00	0	41	0	443547648	58	6476
2026-01-30 11:48:05.00	62.64	9.60	-42.3	-43.9	19.1	0.00e+00	0	41	0	445644800	58	6340
2026-01-30 11:48:06.01	62.82	9.61	-42.2	-43.8	19.2	0.00e+00	71	41	0	446693376	58	6260
2026-01-30 11:48:07.01	62.99	9.61	-42.2	-43.7	19.2	0.00e+00	0	41	0	448790528	58	6208
2026-01-30 11:48:08.02	63.17	9.62	-41.9	-43.3	19.5	0.00e+00	92	41	0	450887680	58	5954
2026-01-30 11:48:09.03	63.35	9.63	-41.7	-43.1	19.8	0.00e+00	0	41	0	452984832	56	6526
2026-01-30 11:48:10.04	63.53	9.64	-41.5	-42.8	20.0	0.00e+00	0	41	0	455081984	56	6289
2026-01-30 11:48:11.05	63.70	9.65	-41.4	-42.8	20.2	0.00e+00	0	41	0	456130560	56	6260
2026-01-30 11:48:12.06	63.88	9.65	-41.3	-42.6	20.3	0.00e+00	0	41	0	458227712	56	6169
2026-01-30 11:48:13.07	64.06	9.66	-41.3	-42.6	20.2	0.00e+00	73	41	0	460324864	56	6140
2026-01-30 11:48:14.08	64.24	9.67	-41.3	-42.7	20.2	0.00e+00	0	41	0	462422016	56	6211
2026-01-30 11:48:15.09	64.42	9.68	-41.3	-42.7	20.3	0.00e+00	92	41	0	464519168	56	6174
2026-01-30 11:48:16.10	64.59	9.68	-41.2	-42.6	20.3	0.00e+00	0	41	0	465567744	56	6107
2026-01-30 11:48:17.11	64.77	9.69	-41.3	-42.7	20.2	0.00e+00	0	41	0	467664896	56	6199
2026-01-30 11:48:18.12	64.95	9.70	-41.3	-42.6	20.2	0.00e+00	0	41	0	469762048	56	6127
2026-01-30 11:48:19.13	65.13	9.70	-41.2	-42.5	20.4	0.00e+00	33	41	0	471859200	56	6090
2026-01-30 11:48:20.14	65.31	9.71	-41.3	-42.6	20.3	0.00e+00	90	41	0	473956352	56	6121
2026-01-30 11:48:21.14	65.48	9.71	-41.1	-42.3	20.4	0.00e+00	0	41	0	475004928	56	5957
2026-01-30 11:48:22.15	65.66	9.72	-41.0	-42.2	20.6	0.00e+00	88	41	0	477102080	56	5878
2026-01-30 11:48:23.16	65.84	9.72	-41.1	-42.4	20.4	0.00e+00	0	41	0	479199232	56	5982
2026-01-30 11:48:24.17	66.02	9.73	-41.3	-42.7	20.2	0.00e+00	0	41	0	481296384	56	6198
2026-01-30 11:48:25.18	66.20	9.73	-41.2	-42.5	20.3	0.00e+00	33	41	0	483393536	56	6085
2026-01-30 11:48:26.19	66.38	9.74	-41.3	-42.6	20.2	0.00e+00	0	41	0	485490688	56	6170
2026-01-30 11:48:27.20	66.56	9.74	-41.3	-42.7	20.2	0.00e+00	1	41	0	486539264	56	6200
2026-01-30 11:48:28.21	66.73	9.75	-41.3	-42.6	20.3	0.00e+00	0	41	0	488636416	56	6143
2026-01-30 11:48:29.22	66.91	9.75	-41.2	-42.5	20.4	0.00e+00	87	41	0	490733568	56	6052
2026-01-30 11:48:30.23	67.09	9.75	-40.9	-42.2	20.6	0.00e+00	0	41	0	492830720	56	5870
2026-01-30 11:48:31.24	67.27	9.76	-40.7	-42.0	20.8	0.00e+00	0	41	0	494927872	54	6396
2026-01-30 11:48:32.25	67.45	9.76	-40.4	-41.6	21.1	0.00e+00	0	41	0	495976448	54	6137
2026-01-30 11:48:33.26	67.63	9.76	-40.4	-41.5	21.2	0.00e+00	0	41	0	498073600	54	6100
2026-01-30 11:48:34.27	67.81	9.76	-40.2	-41.4	21.2	0.00e+00	0	41	0	500170752	54	5998
2026-01-30 11:48:35.28	67.99	9.77	-40.4	-41.6	21.1	0.00e+00	0	41	0	502267904	54	6137
2026-01-30 11:48:36.29	68.17	9.77	-40.4	-41.6	21.0	0.00e+00	86	41	0	504365056	54	6172
2026-01-30 11:48:37.30	68.35	9.77	-40.3	-41.4	21.2	0.00e+00	0	41	0	505413632	54	6032
2026-01-30 11:48:38.31	68.53	9.77	-40.2	-41.4	21.3	0.00e+00	0	41	0	507510784	54	5987
2026-01-30 11:48:39.32	68.71	9.77	-40.1	-41.2	21.4	0.00e+00	0	41	0	509607936	54	5860
2026-01-30 11:48:40.33	68.88	9.77	-39.9	-41.0	21.6	0.00e+00	0	41	0	511705088	54	5720
2026-01-30 11:48:41.34	69.06	9.77	-39.8	-40.9	21.7	0.00e+00	57	41	0	513802240	52	6335
2026-01-30 11:48:42.34	69.24	9.77	-39.6	-40.7	21.9	0.00e+00	0	41	0	514850816	52	6207
2026-01-30 11:48:43.36	69.42	9.77	-39.7	-40.8	21.8	0.00e+00	81	41	0	516947968	52	6247
2026-01-30 11:48:44.36	69.60	9.77	-39.8	-40.9	21.7	0.00e+00	0	41	0	519045120	52	6359
2026-01-30 11:48:45.37	69.78	9.77	-39.9	-41.0	21.4	0.00e+00	90	41	0	521142272	52	6463
2026-01-30 11:48:46.38	69.96	9.77	-40.2	-41.4	21.3	0.00e+00	0	41	0	523239424	52	6699
2026-01-30 11:48:47.39	70.14	9.77	-40.3	-41.4	21.3	0.00e+00	0	41	0	524288000	52	6751
2026-01-30 11:48:48.40	70.32	9.77	-40.4	-41.6	21.1	0.00e+00	0	41	0	526385152	52	6863
2026-01-30 11:48:49.41	70.50	9.77	-40.3	-41.5	21.2	0.00e+00	0	41	0	528482304	52	6786
2026-01-30 11:48:50.42	70.68	9.77	-40.2	-41.3	21.3	0.00e+00	0	41	0	530579456	52	6670
2026-01-30 11:48:51.43	70.86	9.77	-40.1	-41.3	21.4	0.00e+00	0	41	0	532676608	52	6617
2026-01-30 11:48:52.44	71.03	9.76	-40.1	-41.3	21.3	0.00e+00	83	41	0	533725184	52	6627
2026-01-30 11:48:53.45	71.21	9.76	-40.0	-41.1	21.5	0.00e+00	0	41	0	535822336	52	6536
2026-01-30 11:48:54.46	71.39	9.76	-40.0	-41.2	21.4	0.00e+00	0	41	0	537919488	52	6563
2026-01-30 11:48:55.47	71.57	9.76	-40.1	-41.3	21.3	0.00e+00	0	41	0	540016640	52	6656
2026-01-30 11:48:56.48	71.75	9.75	-40.2	-41.4	21.3	0.00e+00	0	41	0	542113792	52	6697
2026-01-30 11:48:57.49	71.93	9.75	-40.3	-41.5	21.0	0.00e+00	5	41	0	543162368	52	6820
2026-01-30 11:48:58.50	72.11	9.75	-40.4	-41.6	21.0	0.00e+00	0	41	0	545259520	52	6900
2026-01-30 11:48:59.50	72.29	9.74	-40.2	-41.4	21.2	0.00e+00	92	41	0	547356672	52	6747
2026-01-30 11:49:00.51	72.47	9.74	-40.3	-41.5	21.2	0.00e+00	0	41	0	549453824	52	6803
2026-01-30 11:49:01.52	72.65	9.74	-40.1	-41.3	21.2	0.00e+00	0	41	0	551550976	52	6635
2026-01-30 11:49:02.53	72.82	9.73	-39.8	-40.9	21.5	0.00e+00	0	41	0	553648128	52	6376
2026-01-30 11:49:03.54	73.00	9.73	-39.9	-41.0	21.0	0.00e+00	0	41	0	554696704	52	6445
2026-01-30 11:49:04.55	73.18	9.72	-39.7	-40.8	21.5	0.00e+00	85	41	0	556793856	52	6297
2026-01-30 11:49:05.56	73.36	9.72	-39.8	-40.9	21.7	0.00e+00	0	41	0	558891008	52	6334
2026-01-30 11:49:06.57	73.54	9.71	-39.8	-41.0	21.6	0.00e+00	65	41	0	560988160	52	6407
2026-01-30 11:49:07.58	73.72	9.71	-39.7	-40.8	21.6	0.00e+00	0	41	0	563085312	52	6276
2026-01-30 11:49:08.59	73.90	9.70	-39.7	-40.8	21.7	0.00e+00	66	41	0	564133888	52	6284
2026-01-30 11:49:09.60	74.07	9.69	-39.7	-40.8	21.7	0.00e+00	0	41	0	566231040	52	6306
2026-01-30 11:49:10.60	74.25	9.69	-39.7	-40.9	21.7	0.00e+00	33	41	0	568328192	52	6328
2026-01-30 11:49:11.61	74.43	9.68	-39.4	-40.5	22.0	0.00e+00	0	41	0	570425344	52	6078
2026-01-30 11:49:12.62	74.61	9.67	-39.2	-40.3	22.2	0.00e+00	0	41	0	572522496	52	5939
2026-01-30 11:49:13.63	74.79	9.67	-39.0	-40.0	22.3	0.00e+00	86	41	0	573571072	52	5754
2026-01-30 11:49:14.64	74.96	9.66	-38.8	-39.9	22.6	0.00e+00	0	41	0	575668224	52	5637
2026-01-30 11:49:15.65	75.14	9.65	-38.8	-39.8	22.6	0.00e+00	89	41	0	577765376	52	5630
2026-01-30 11:49:16.66	75.32	9.64	-38.7	-39.7	22.8	0.00e+00	0	41	0	579862528	50	6194
2026-01-30 11:49:17.66	75.50	9.64	-38.7	-39.8	22.7	0.00e+00	0	41	0	581959680	50	6264
2026-01-30 11:49:18.68	75.68	9.63	-38.6	-39.6	22.7	0.00e+00	0	41	0	583008256	50	6172
2026-01-30 11:49:19.69	75.85	9.62	-38.8	-39.9	22.5	0.00e+00	0	41	0	585105408	50	6320
2026-01-30 11:49:20.70	76.03	9.61	-39.0	-40.1	22.3	0.00e+00	41	41	0	587202560	50	6517
2026-01-30 11:49:21.71	76.21	9.60	-39.2	-40.3	22.2	0.00e+00	0	41	0	589299712	50	6654
2026-01-30 11:49:22.72	76.39	9.59	-39.2	-40.3	22.2	0.00e+00	92	41	0	591396864	50	6619
2026-01-30 11:49:23.73	76.56	9.58	-39.3	-40.4	22.1	0.00e+00	0	41	0	592445440	50	6715
2026-01-30 11:49:24.74	76.74	9.57	-39.2	-40.3	22.2	0.00e+00	0	41	0	594542592	50	6626
2026-01-30 11:49:25.75	76.92	9.56	-39.2	-40.2	22.3	0.00e+00	0	41	0	596639744	50	6585
2026-01-30 11:49:26.76	77.09	9.55	-39.2	-40.3	22.2	0.00e+00	0	41	0	598736896	50	6629
2026-01-30 11:49:27.77	77.27	9.54	-39.3	-40.3	22.2	0.00e+00	87	41	0	600834048	50	6652
2026-01-30 11:49:28.78	77.45	9.53	-39.3	-40.4	22.2	0.00e+00	0	41	0	601882624	50	6707
2026-01-30 11:49:29.79	77.62	9.52	-39.5	-40.6	21.9	0.00e+00	90	41	0	603979776	50	6870
2026-01-30 11:49:30.80	77.80	9.51	-39.5	-40.6	21.9	0.00e+00	0	41	0	606076928	50	6901
2026-01-30 11:49:31.81	77.98	9.50	-39.6	-40.7	21.8	0.00e+00	0	41	0	608174080	50	6962
2026-01-30 11:49:32.82	78.15	9.49	-39.5	-40.6	21.8	0.00e+00	0	41	0	610271232	50	6900
2026-01-30 11:49:33.83	78.33	9.47	-39.5	-40.6	21.9	0.00e+00	0	41	0	611319808	50	6914
2026-01-30 11:49:34.84	78.51	9.46	-39.3	-40.4	22.0	0.00e+00	90	41	0	613416960	50	6751
2026-01-30 11:49:35.85	78.68	9.45	-39.3	-40.4	22.1	0.00e+00	0	41	0	615514112	50	6719
2026-01-30 11:49:36.86	78.86	9.44	-39.4	-40.6	22.0	0.00e+00	63	41	0	617611264	50	6851
2026-01-30 11:49:37.87	79.03	9.43	-39.2	-40.4	22.1	0.00e+00	0	41	0	619708416	50	6704
2026-01-30 11:49:38.88	79.21	9.41	-39.3	-40.5	21.9	0.00e+00	0	41	0	621805568	50	6780
2026-01-30 11:49:39.89	79.38	9.40	-39.6	-40.7	21.7	0.00e+00	0	41	0	622854144	50	6985
2026-01-30 11:49:40.90	79.56	9.39	-39.9	-41.1	21.5	0.00e+00	0	41	0	624951296	52	6481
2026-01-30 11:49:41.91	79.73	9.37	-39.5	-40.7	21.8	0.00e+00	73	41	0	627048448	52	6175
2026-01-30 11:49:42.92	79.91	9.36	-39.7	-40.9	21.6	0.00e+00	0	41	0	629145600	52	6331
2026-01-30 11:49:43.93	80.08	9.34	-39.9	-41.0	21.6	0.00e+00	88	41	0	631242752	52	6456
2026-01-30 11:49:44.94	80.26	9.33	-40.1	-41.2	21.4	0.00e+00	0	41	0	632291328	52	6594
2026-01-30 11:49:45.95	80.43	9.32	-40.3	-41.6	21.1	0.00e+00	0	41	0	634388480	52	6861
2026-01-30 11:49:46.96	80.60	9.30	-40.4	-41.6	21.0	0.00e+00	0	41	0	636485632	52	6869
2026-01-30 11:49:47.97	80.78	9.29	-40.3	-41.5	21.1	0.00e+00	0	41	0	638582784	52	6813
2026-01-30 11:49:48.98	80.95	9.27	-40.4	-41.5	21.1	0.00e+00	0	41	0	640679936	52	6845
2026-01-30 11:49:49.99	81.13	9.26	-40.2	-41.3	21.3	0.00e+00	0	41	0	641728512	52	6677
2026-01-30 11:49:51.00	81.30	9.24	-40.2	-41.4	21.1	0.00e+00	90	41	0	643825664	52	6698
2026-01-30 11:49:52.01	81.47	9.22	-39.8	-40.9	21.6	0.00e+00	0	41	0	645922816	52	6373
2026-01-30 11:49:53.02	81.64	9.21	-39.7	-40.8	21.8	0.00e+00	0	41	0	648019968	52	6259
2026-01-30 11:49:54.03	81.82	9.19	-39.5	-40.6	21.9	0.00e+00	0	41	0	650117120	52	6119
2026-01-30 11:49:55.04	81.99	9.18	-39.4	-40.4	22.0	0.00e+00	0	41	0	651165696	52	6024
2026-01-30 11:49:56.05	82.16	9.16	-39.3	-40.4	22.2	0.00e+00	17	41	0	653262848	52	5980
2026-01-30 11:49:57.06	82.33	9.14	-39.0	-40.0	22.4	0.00e+00	0	41	0	655360000	52	5696
2026-01-30 11:49:58.06	82.51	9.12	-38.8	-39.8	22.6	0.00e+00	64	41	0	657457152	52	5597
2026-01-30 11:49:59.07	82.68	9.11	-38.5	-39.4	22.8	0.00e+00	0	41	0	659554304	50	6025
2026-01-30 11:50:00.08	82.85	9.09	-38.2	-39.2	23.0	0.00e+00	60	41	0	660602880	50	5841
2026-01-30 11:50:01.09	83.02	9.07	-37.9	-38.8	23.3	0.00e+00	0	41	0	662700032	50	5612
2026-01-30 11:50:02.10	83.19	9.05	-37.9	-38.8	23.2	0.00e+00	0	41	0	664797184	50	5610
2026-01-30 11:50:03.11	83.36	9.04	-38.0	-38.9	23.2	0.00e+00	0	41	0	666894336	50	5692
2026-01-30 11:50:04.12	83.53	9.02	-38.2	-39.2	23.0	0.00e+00	0	41	0	668991488	50	5838
2026-01-30 11:50:05.13	83.70	9.00	-38.1	-39.1	23.0	0.00e+00	13	41	0	670040064	50	5774
2026-01-30 11:50:06.14	83.87	8.98	-38.2	-39.1	22.9	0.00e+00	33	41	0	672137216	50	5813
2026-01-30 11:50:07.15	84.05	8.96	-38.5	-39.4	22.7	0.00e+00	84	41	0	674234368	50	6004
2026-01-30 11:50:08.16	84.22	8.94	-38.5	-39.5	22.6	0.00e+00	0	41	0	676331520	50	6041
2026-01-30 11:50:09.17	84.38	8.92	-38.6	-39.6	22.5	0.00e+00	0	41	0	678428672	50	6123
2026-01-30 11:50:10.18	84.55	8.90	-38.7	-39.7	22.5	0.00e+00	0	41	0	679477248	50	6193
2026-01-30 11:50:11.19	84.72	8.88	-38.6	-39.6	22.6	0.00e+00	0	41	0	681574400	50	6135
2026-01-30 11:50:12.20	84.89	8.86	-38.7	-39.7	22.4	0.00e+00	82	41	0	683671552	50	6225
2026-01-30 11:50:13.21	85.06	8.84	-38.7	-39.7	22.6	0.00e+00	0	41	0	685768704	50	6226
2026-01-30 11:50:14.22	85.23	8.82	-38.9	-39.9	22.3	0.00e+00	86	41	0	687865856	50	6379
2026-01-30 11:50:15.23	85.40	8.80	-38.9	-39.9	22.4	0.00e+00	0	41	0	689963008	50	6379
2026-01-30 11:50:16.24	85.57	8.78	-38.9	-39.9	22.3	0.00e+00	7	41	0	691011584	50	6370
2026-01-30 11:50:17.25	85.74	8.76	-38.7	-39.7	22.5	0.00e+00	0	41	0	693108736	50	6222
2026-01-30 11:50:18.26	85.90	8.74	-38.8	-39.8	22.5	0.00e+00	0	41	0	695205888	50	6254
2026-01-30 11:50:19.27	86.07	8.72	-38.8	-39.8	22.4	0.00e+00	73	41	0	697303040	50	6280
2026-01-30 11:50:20.28	86.24	8.70	-39.0	-40.0	22.3	0.00e+00	0	41	0	699400192	50	6430
2026-01-30 11:50:21.28	86.40	8.68	-39.1	-40.1	22.2	0.00e+00	84	41	0	700448768	50	6528
2026-01-30 11:50:22.29	86.57	8.65	-39.2	-40.2	22.2	0.00e+00	0	41	0	702545920	50	6597
2026-01-30 11:50:23.30	86.74	8.63	-39.3	-40.4	22.0	0.00e+00	92	41	0	704643072	50	6704
2026-01-30 11:50:24.31	86.90	8.61	-39.1	-40.2	22.0	0.00e+00	0	41	0	706740224	50	6563
2026-01-30 11:50:25.32	87.07	8.59	-39.0	-40.0	22.4	0.00e+00	0	41	0	708837376	50	6427
2026-01-30 11:50:26.33	87.24	8.56	-38.6	-39.6	22.7	0.00e+00	73	41	0	709885952	50	6166
2026-01-30 11:50:27.34	87.40	8.54	-38.7	-39.7	22.6	0.00e+00	0	41	0	711983104	50	6177
2026-01-30 11:50:28.35	87.57	8.52	-38.2	-39.2	23.0	0.00e+00	44	41	0	714080256	50	5852
2026-01-30 11:50:29.36	87.73	8.49	-38.1	-39.1	23.1	0.00e+00	0	41	0	716177408	50	5772
2026-01-30 11:50:30.37	87.90	8.47	-38.3	-39.3	23.0	0.00e+00	82	41	0	718274560	50	5907
2026-01-30 11:50:31.38	88.06	8.45	-38.3	-39.2	23.0	0.00e+00	0	41	0	719323136	50	5862
2026-01-30 11:50:32.39	88.23	8.42	-38.3	-39.3	22.9	0.00e+00	0	41	0	721420288	50	5918
2026-01-30 11:50:33.40	88.39	8.40	-38.6	-39.6	22.7	0.00e+00	0	41	0	723517440	50	6126
2026-01-30 11:50:34.41	88.55	8.38	-38.7	-39.7	22.6	0.00e+00	0	41	0	725614592	50	6202
2026-01-30 11:50:35.42	88.72	8.35	-38.7	-39.7	22.5	0.00e+00	35	41	0	727711744	50	6217
2026-01-30 11:50:36.43	88.88	8.33	-38.8	-39.9	22.4	0.00e+00	0	40	0	728760320	50	6321
2026-01-30 11:50:37.44	89.04	8.30	-38.8	-39.9	22.4	0.00e+00	81	40	0	730857472	50	6329
2026-01-30 11:50:38.45	89.21	8.28	-38.9	-39.9	22.4	0.00e+00	0	40	0	732954624	50	6336
2026-01-30 11:50:39.46	89.37	8.25	-38.8	-39.9	22.3	0.00e+00	0	41	0	735051776	50	6320
2026-01-30 11:50:40.47	89.53	8.23	-38.9	-39.9	22.3	0.00e+00	0	40	0	737148928	50	6385
2026-01-30 11:50:41.48	89.69	8.20	-38.9	-39.9	22.5	0.00e+00	0	40	0	738197504	50	6371
2026-01-30 11:50:42.49	89.85	8.18	-39.1	-40.1	22.2	0.00e+00	81	41	0	740294656	50	6512
2026-01-30 11:50:43.50	90.02	8.15	-39.0	-40.0	22.2	0.00e+00	0	40	0	742391808	50	6437
2026-01-30 11:50:44.51	90.18	8.12	-39.2	-40.3	22.1	0.00e+00	65	40	0	744488960	50	6623
2026-01-30 11:50:45.52	90.34	8.10	-39.3	-40.4	22.0	0.00e+00	0	41	0	746586112	50	6711
2026-01-30 11:50:46.53	90.50	8.07	-39.4	-40.5	21.9	0.00e+00	0	40	0	747634688	50	6835
2026-01-30 11:50:47.54	90.66	8.05	-39.7	-40.9	21.5	0.00e+00	0	40	0	749731840	50	7143
2026-01-30 11:50:48.55	90.82	8.02	-39.7	-41.1	21.3	0.00e+00	0	41	0	751828992	52	6489
2026-01-30 11:50:49.56	90.98	7.99	-40.2	-41.5	21.0	0.00e+00	65	40	0	753926144	52	6845
2026-01-30 11:50:50.57	91.14	7.97	-40.4	-41.8	20.8	0.00e+00	0	40	0	756023296	52	7039
2026-01-30 11:50:51.58	91.30	7.94	-40.6	-41.9	20.7	0.00e+00	82	41	0	758120448	52	7116
2026-01-30 11:50:52.59	91.46	7.91	-40.7	-41.9	20.7	0.00e+00	0	41	0	759169024	52	7151
2026-01-30 11:50:53.60	91.62	7.88	-40.5	-41.8	20.8	0.00e+00	2	40	0	761266176	52	7046
2026-01-30 11:50:54.61	91.77	7.86	-40.5	-41.8	20.8	0.00e+00	0	41	0	763363328	52	7022
2026-01-30 11:50:55.62	91.93	7.83	-40.5	-41.8	20.7	0.00e+00	0	41	0	765460480	52	7049
2026-01-30 11:50:56.62	92.09	7.80	-40.7	-41.9	20.6	0.00e+00	82	40	0	767557632	52	7164
2026-01-30 11:50:57.63	92.25	7.77	-40.9	-42.2	20.5	0.00e+00	0	40	0	768606208	54	6559
2026-01-30 11:50:58.64	92.40	7.75	-40.9	-42.2	20.3	0.00e+00	78	40	0	770703360	54	6604
2026-01-30 11:50:59.65	92.56	7.72	-40.9	-42.1	20.3	0.00e+00	0	41	0	772800512	54	6539
2026-01-30 11:51:00.66	92.72	7.69	-40.9	-42.2	20.3	0.00e+00	0	41	0	774897664	54	6551
2026-01-30 11:51:01.67	92.87	7.66	-40.8	-42.1	20.4	0.00e+00	0	40	0	776994816	54	6534
2026-01-30 11:51:02.68	93.03	7.63	-40.6	-42.0	20.5	0.00e+00	0	40	0	778043392	54	6437
2026-01-30 11:51:03.69	93.18	7.60	-40.5	-42.1	20.4	0.00e+00	0	41	0	780140544	54	6483
2026-01-30 11:51:04.70	93.34	7.57	-40.4	-42.0	20.6	0.00e+00	0	40	0	782237696	54	6436
2026-01-30 11:51:05.71	93.50	7.55	-40.3	-41.7	20.8	0.00e+00	70	40	0	784334848	54	6235
2026-01-30 11:51:06.72	93.65	7.52	-40.3	-41.7	20.8	0.00e+00	0	41	0	786432000	54	6230
2026-01-30 11:51:07.73	93.80	7.49	-40.6	-42.0	20.6	0.00e+00	73	40	0	787480576	54	6400
2026-01-30 11:51:08.74	93.96	7.46	-40.8	-42.1	20.3	0.00e+00	0	40	0	789577728	54	6521
2026-01-30 11:51:09.74	94.11	7.43	-40.8	-42.1	20.4	0.00e+00	0	40	0	791674880	54	6531
2026-01-30 11:51:10.75	94.26	7.40	-40.9	-42.2	20.3	0.00e+00	0	40	0	793772032	54	6600
2026-01-30 11:51:11.76	94.42	7.37	-40.9	-42.3	20.3	0.00e+00	0	40	0	795869184	54	6678
2026-01-30 11:51:12.77	94.57	7.34	-41.0	-42.4	20.1	0.00e+00	84	40	0	796917760	54	6750
2026-01-30 11:51:13.78	94.72	7.31	-41.1	-42.5	20.0	0.00e+00	0	40	0	799014912	54	6816
2026-01-30 11:51:14.79	94.88	7.28	-41.0	-42.3	20.1	0.00e+00	90	40	0	801112064	54	6676
2026-01-30 11:51:15.80	95.03	7.25	-41.0	-42.3	20.1	0.00e+00	0	41	0	803209216	54	6656
2026-01-30 11:51:16.81	95.18	7.22	-41.1	-42.5	20.1	0.00e+00	0	40	0	805306368	54	6794
2026-01-30 11:51:17.82	95.33	7.18	-41.1	-42.6	19.9	0.00e+00	0	40	0	806354944	54	6868
2026-01-30 11:51:18.83	95.48	7.15	-41.5	-43.0	19.4	0.00e+00	0	40	0	808452096	54	7246
2026-01-30 11:51:19.83	95.63	7.12	-41.8	-43.4	19.2	0.00e+00	86	40	0	810549248	54	7532
2026-01-30 11:51:20.84	95.78	7.09	-42.2	-43.8	18.8	0.00e+00	0	40	0	812646400	56	7081
2026-01-30 11:51:21.85	95.93	7.06	-42.4	-44.0	18.8	0.00e+00	92	40	0	814743552	56	7242
2026-01-30 11:51:22.86	96.08	7.03	-42.6	-44.3	18.4	0.00e+00	0	40	0	815792128	56	7498
2026-01-30 11:51:23.87	96.23	7.00	-42.6	-44.3	18.4	0.00e+00	0	40	0	817889280	58	6684
2026-01-30 11:51:24.88	96.38	6.97	-42.7	-44.4	18.2	0.00e+00	0	40	0	819986432	58	6743
2026-01-30 11:51:25.89	96.53	6.93	-42.4	-44.2	18.5	0.00e+00	33	40	0	822083584	58	6554
2026-01-30 11:51:26.90	96.68	6.90	-42.4	-44.1	18.6	0.00e+00	0	40	0	824180736	58	6474
2026-01-30 11:51:27.91	96.83	6.87	-42.3	-44.0	18.7	0.00e+00	0	40	0	826277888	58	6399
2026-01-30 11:51:28.92	96.98	6.84	-42.1	-43.7	18.9	0.00e+00	92	40	0	827326464	58	6234
2026-01-30 11:51:29.93	97.12	6.81	-41.9	-43.5	19.1	0.00e+00	0	40	0	829423616	58	6083
2026-01-30 11:51:30.94	97.27	6.77	-41.9	-43.5	19.1	0.00e+00	43	40	0	831520768	58	6066
2026-01-30 11:51:31.95	97.42	6.74	-41.7	-43.2	19.4	0.00e+00	0	40	0	833617920	56	6561
2026-01-30 11:51:32.96	97.57	6.71	-41.7	-43.3	19.3	0.00e+00	0	40	0	835715072	56	6620
2026-01-30 11:51:33.97	97.71	6.68	-41.6	-43.1	19.4	0.00e+00	0	40	0	836763648	56	6477
2026-01-30 11:51:34.98	97.86	6.64	-41.7	-43.2	19.2	0.00e+00	0	40	0	838860800	56	6612
2026-01-30 11:51:35.99	98.00	6.61	-41.9	-43.4	19.1	0.00e+00	83	40	0	840957952	56	6720
2026-01-30 11:51:37.00	98.15	6.58	-42.1	-43.7	19.0	0.00e+00	0	40	0	843055104	56	6999
2026-01-30 11:51:38.01	98.30	6.54	-42.0	-43.6	19.0	0.00e+00	59	40	0	845152256	56	6910
2026-01-30 11:51:39.02	98.44	6.51	-41.9	-43.6	19.0	0.00e+00	0	40	0	846200832	56	6893
2026-01-30 11:51:40.03	98.59	6.48	-42.0	-43.7	19.0	0.00e+00	0	41	0	848297984	56	6966
2026-01-30 11:51:41.04	98.73	6.44	-41.8	-43.6	19.0	0.00e+00	49	40	0	850395136	56	6872
2026-01-30 11:51:42.04	98.87	6.41	-42.0	-43.8	18.8	0.00e+00	0	40	0	852492288	56	7087
2026-01-30 11:51:43.05	99.02	6.38	-42.1	-44.0	18.7	0.00e+00	14	40	0	854589440	56	7188
2026-01-30 11:51:44.06	99.16	6.34	-42.0	-43.9	18.8	0.00e+00	0	41	0	855638016	56	7161
2026-01-30 11:51:45.07	99.30	6.31	-42.0	-43.9	18.8	0.00e+00	67	41	0	857735168	56	7096
2026-01-30 11:51:46.08	99.44	6.27	-42.1	-43.9	18.8	0.00e+00	0	41	0	859832320	56	7091
2026-01-30 11:51:47.09	99.59	6.24	-42.3	-44.0	18.7	0.00e+00	0	40	0	861929472	56	7244
2026-01-30 11:51:48.10	99.73	6.20	-42.0	-43.6	19.1	0.00e+00	0	40	0	864026624	56	6893
2026-01-30 11:51:49.11	99.87	6.17	-41.8	-43.3	19.3	0.00e+00	0	40	0	865075200	56	6688
2026-01-30 11:51:50.12	100.01	6.14	-41.8	-43.3	19.2	0.00e+00	78	41	0	867172352	56	6690
2026-01-30 11:51:51.13	100.15	6.10	-41.6	-43.2	19.5	0.00e+00	0	41	0	869269504	56	6550
2026-01-30 11:51:52.14	100.29	6.07	-41.4	-42.9	19.6	0.00e+00	72	40	0	871366656	56	6335
2026-01-30 11:51:53.15	100.43	6.03	-41.4	-42.9	19.6	0.00e+00	33	41	0	873463808	56	6374
2026-01-30 11:51:54.16	100.57	6.00	-41.4	-42.8	19.7	0.00e+00	0	41	0	874512384	56	6315
2026-01-30 11:51:55.17	100.71	5.96	-41.6	-43.2	19.3	0.00e+00	0	40	0	876609536	56	6549
2026-01-30 11:51:56.18	100.85	5.93	-41.6	-43.1	19.4	0.00e+00	33	40	0	878706688	56	6505
2026-01-30 11:51:57.18	100.99	5.89	-41.6	-43.1	19.2	0.00e+00	81	40	0	880803840	56	6537
2026-01-30 11:51:58.19	101.13	5.86	-42.0	-43.7	19.0	0.00e+00	0	40	0	882900992	56	6999
2026-01-30 11:51:59.20	101.27	5.82	-41.8	-43.5	19.0	0.00e+00	90	40	0	883949568	56	6804
2026-01-30 11:52:00.21	101.41	5.79	-41.9	-43.5	19.0	0.00e+00	0	40	0	886046720	56	6803
2026-01-30 11:52:01.22	101.55	5.75	-42.1	-43.7	18.8	0.00e+00	0	40	0	888143872	56	6944
2026-01-30 11:52:02.23	101.68	5.71	-41.9	-43.4	19.0	0.00e+00	0	40	0	890241024	56	6764
2026-01-30 11:52:03.24	101.82	5.68	-41.6	-43.3	19.1	0.00e+00	0	41	0	892338176	56	6640
2026-01-30 11:52:04.25	101.96	5.64	-41.3	-43.0	19.4	0.00e+00	0	40	0	893386752	56	6406
2026-01-30 11:52:05.26	102.09	5.61	-40.9	-42.6	19.7	0.00e+00	0	40	0	895483904	56	6134
2026-01-30 11:52:06.27	102.23	5.57	-41.1	-42.7	19.6	0.00e+00	72	40	0	897581056	56	6238
2026-01-30 11:52:07.28	102.37	5.54	-40.9	-42.4	19.9	0.00e+00	0	40	0	899678208	56	6018
2026-01-30 11:52:08.29	102.50	5.50	-41.0	-42.4	19.9	0.00e+00	0	40	0	901775360	56	6030
2026-01-30 11:52:09.30	102.64	5.46	-41.0	-42.4	20.0	0.00e+00	0	40	0	902823936	56	5987
2026-01-30 11:52:10.31	102.77	5.43	-41.0	-42.4	20.0	0.00e+00	0	40	0	904921088	56	5991
2026-01-30 11:52:11.32	102.91	5.39	-40.7	-42.1	20.1	0.00e+00	81	40	0	907018240	54	6532
2026-01-30 11:52:12.33	103.04	5.35	-40.8	-42.2	20.0	0.00e+00	0	40	0	909115392	54	6606
2026-01-30 11:52:13.34	103.17	5.32	-41.0	-42.4	19.7	0.00e+00	83	41	0	911212544	54	6752
2026-01-30 11:52:14.35	103.31	5.28	-40.9	-42.3	19.9	0.00e+00	0	40	0	912261120	54	6647
2026-01-30 11:52:15.36	103.44	5.24	-41.3	-42.8	19.7	0.00e+00	90	40	0	914358272	54	7012
2026-01-30 11:52:16.36	103.57	5.21	-40.9	-42.4	19.9	0.00e+00	0	40	0	916455424	54	6769
2026-01-30 11:52:17.37	103.71	5.17	-40.9	-42.4	19.8	0.00e+00	0	40	0	918552576	54	6756
2026-01-30 11:52:18.38	103.84	5.13	-41.0	-42.6	19.6	0.00e+00	0	40	0	920649728	54	6873
2026-01-30 11:52:19.39	103.97	5.10	-41.1	-42.6	19.7	0.00e+00	0	40	0	922746880	54	6887
2026-01-30 11:52:20.40	104.10	5.06	-41.0	-42.5	19.7	0.00e+00	53	40	0	923795456	54	6787
2026-01-30 11:52:21.41	104.23	5.02	-41.1	-42.6	19.6	0.00e+00	0	40	0	925892608	54	6890
2026-01-30 11:52:22.41	104.36	4.99	-41.1	-42.8	19.5	0.00e+00	90	40	0	927989760	54	7042
2026-01-30 11:52:23.42	104.49	4.95	-41.3	-43.1	19.2	0.00e+00	0	40	0	930086912	54	7310
2026-01-30 11:52:24.43	104.63	4.91	-41.0	-42.9	19.5	0.00e+00	0	40	0	932184064	54	7111
2026-01-30 11:52:25.44	104.76	4.87	-41.3	-43.2	19.0	0.00e+00	0	40	0	933232640	54	7408
2026-01-30 11:52:26.45	104.89	4.84	-41.5	-43.3	18.8	0.00e+00	0	40	0	935329792	54	7461
2026-01-30 11:52:27.46	105.01	4.80	-41.2	-43.0	19.0	0.00e+00	78	40	0	937426944	54	7246
2026-01-30 11:52:28.47	105.14	4.76	-41.2	-43.0	19.3	0.00e+00	0	40	0	939524096	54	7232
2026-01-30 11:52:29.48	105.27	4.72	-40.7	-42.6	19.6	0.00e+00	92	40	0	941621248	54	6916
2026-01-30 11:52:30.49	105.40	4.69	-40.7	-42.6	19.6	0.00e+00	0	40	0	942669824	54	6855
2026-01-30 11:52:31.50	105.53	4.65	-40.9	-42.7	19.3	0.00e+00	0	40	0	944766976	54	6991
2026-01-30 11:52:32.51	105.66	4.61	-40.8	-42.4	19.6	0.00e+00	0	40	0	946864128	54	6717
2026-01-30 11:52:33.52	105.79	4.57	-40.8	-42.4	19.6	0.00e+00	0	40	0	948961280	54	6723
2026-01-30 11:52:34.53	105.91	4.53	-40.2	-41.7	20.3	0.00e+00	80	40	0	951058432	54	6177
2026-01-30 11:52:35.54	106.04	4.50	-40.4	-41.8	20.1	0.00e+00	0	40	0	952107008	54	6303
2026-01-30 11:52:36.55	106.17	4.46	-40.4	-42.0	19.9	0.00e+00	92	40	0	954204160	54	6410
2026-01-30 11:52:37.56	106.29	4.42	-40.1	-41.9	20.1	0.00e+00	0	40	0	956301312	54	6338
2026-01-30 11:52:38.56	106.42	4.38	-40.3	-42.0	20.0	0.00e+00	0	40	0	958398464	54	6423
2026-01-30 11:52:39.57	106.54	4.34	-40.4	-42.0	19.9	0.00e+00	0	40	0	960495616	54	6412
2026-01-30 11:52:40.58	106.67	4.30	-40.5	-42.0	19.9	0.00e+00	0	40	0	961544192	54	6423
2026-01-30 11:52:41.59	106.79	4.27	-40.8	-42.2	19.6	0.00e+00	0	40	0	963641344	54	6563
2026-01-30 11:52:42.60	106.92	4.23	-40.6	-42.0	19.8	0.00e+00	0	40	0	965738496	54	6409
2026-01-30 11:52:43.60	107.04	4.19	-40.4	-41.9	19.9	0.00e+00	92	40	0	967835648	54	6371
2026-01-30 11:52:44.61	107.17	4.15	-40.2	-41.7	20.1	0.00e+00	0	40	0	969932800	54	6218
2026-01-30 11:52:45.62	107.29	4.11	-40.4	-41.9	19.9	0.00e+00	0	40	0	970981376	54	6355
2026-01-30 11:52:46.63	107.41	4.07	-40.6	-42.1	19.4	0.00e+00	0	40	0	973078528	54	6526
2026-01-30 11:52:47.64	107.54	4.04	-40.7	-42.2	19.5	0.00e+00	0	40	0	975175680	54	6562
2026-01-30 11:52:48.65	107.66	4.00	-40.4	-42.2	19.4	0.00e+00	33	40	0	977272832	54	6568
2026-01-30 11:52:49.66	107.78	3.96	-40.1	-42.3	19.3	0.00e+00	0	41	0	979369984	54	6669
2026-01-30 11:52:50.67	107.90	3.92	-40.2	-42.6	19.0	0.00e+00	72	41	0	980418560	54	6910
2026-01-30 11:52:51.68	108.03	3.88	-40.3	-42.6	19.0	0.00e+00	0	40	0	982515712	54	6913
2026-01-30 11:52:52.68	108.15	3.84	-40.9	-42.6	19.0	0.00e+00	85	40	0	984612864	54	6898
2026-01-30 11:52:53.69	108.27	3.80	-41.0	-42.8	18.9	0.00e+00	0	40	0	986710016	54	7022
2026-01-30 11:52:54.70	108.39	3.76	-40.0	-42.4	19.2	0.00e+00	0	40	0	988807168	54	6749
2026-01-30 11:52:55.71	108.51	3.72	-40.0	-42.8	18.9	0.00e+00	17	40	0	990904320	54	7052
2026-01-30 11:52:56.72	108.63	3.68	-40.4	-42.9	18.7	0.00e+00	0	40	0	991952896	54	7151
2026-01-30 11:52:57.73	108.75	3.65	-41.0	-42.9	18.8	0.00e+00	0	40	0	994050048	54	7138
2026-01-30 11:52:58.74	108.87	3.61	-41.4	-43.1	18.5	0.00e+00	0	41	0	996147200	54	7255
2026-01-30 11:52:59.75	108.99	3.57	-41.4	-43.1	18.5	0.00e+00	92	40	0	998244352	54	7300
2026-01-30 11:53:00.76	109.11	3.53	-41.1	-42.9	18.5	0.00e+00	0	41	0	1000341504	54	7166
2026-01-30 11:53:01.77	109.23	3.49	-41.3	-43.2	18.3	0.00e+00	0	40	0	1001390080	54	7387
2026-01-30 11:53:02.78	109.35	3.45	-41.6	-43.4	18.1	0.00e+00	0	40	0	1003487232	54	7572
2026-01-30 11:53:03.79	109.46	3.41	-42.0	-44.0	17.5	0.00e+00	0	40	0	1005584384	56	7193
2026-01-30 11:53:04.80	109.58	3.37	-41.9	-43.9	17.5	0.00e+00	81	40	0	1007681536	56	7156
2026-01-30 11:53:05.81	109.70	3.33	-41.9	-44.0	17.4	0.00e+00	0	40	0	1009778688	56	7212
2026-01-30 11:53:06.82	109.82	3.29	-41.4	-43.4	18.0	0.00e+00	83	40	0	1010827264	56	6698
2026-01-30 11:53:07.83	109.93	3.25	-41.6	-43.5	17.8	0.00e+00	0	40	0	1012924416	56	6837
2026-01-30 11:53:08.84	110.05	3.21	-42.0	-44.0	17.3	0.00e+00	0	40	0	1015021568	56	7225
2026-01-30 11:53:09.85	110.17	3.17	-41.9	-43.8	17.5	0.00e+00	0	40	0	1017118720	56	7069
2026-01-30 11:53:10.86	110.28	3.13	-42.0	-44.1	17.3	0.00e+00	0	41	0	1019215872	56	7266
2026-01-30 11:53:11.87	110.40	3.09	-41.6	-43.9	17.4	0.00e+00	83	41	0	1020264448	56	7089
2026-01-30 11:53:12.88	110.52	3.05	-41.2	-43.6	17.6	0.00e+00	0	40	0	1022361600	56	6880
2026-01-30 11:53:13.89	110.63	3.01	-40.9	-43.2	18.1	0.00e+00	79	41	0	1024458752	56	6547
2026-01-30 11:53:14.90	110.75	2.97	-47.0	-63.5	3.6	1.06e+00	0	41	104	1025507328	60	54068
2026-01-30 11:53:15.91	110.86	2.93	-48.7	-64.0	3.6	1.51e+00	0	40	104	1025507328	60	57559
2026-01-30 11:53:16.92	110.98	2.89	-48.7	-64.3	3.6	1.51e+00	0	41	104	1025507328	60	59157
2026-01-30 11:53:17.93	111.09	2.85	-49.2	-64.4	3.6	1.51e+00	0	40	104	1025507328	60	59837
2026-01-30 11:53:18.94	111.20	2.81	-48.9	-64.6	3.6	1.51e+00	0	40	104	1025507328	60	61390
2026-01-30 11:53:19.95	111.32	2.77	-49.4	-64.7	3.6	1.51e+00	0	40	104	1025507328	60	61822
2026-01-30 11:53:20.96	111.43	2.73	-49.5	-64.7	3.6	1.51e+00	0	41	104	1025507328	60	62102
2026-01-30 11:53:21.97	111.54	2.69	-49.5	-64.8	3.6	1.51e+00	0	41	104	1025507328	60	62753
2026-01-30 11:53:22.98	111.66	2.65	-49.6	-64.8	3.6	1.51e+00	0	41	104	1025507328	60	63082
2026-01-30 11:53:23.99	111.77	2.61	-49.6	-64.8	3.6	1.51e+00	0	41	104	1025507328	60	63038
2026-01-30 11:53:25.00	111.88	2.57	-49.6	-64.9	3.6	1.51e+00	0	41	104	1025507328	60	63334
2026-01-30 11:53:26.01	111.99	2.53	-49.6	-64.9	3.6	1.51e+00	0	41	104	1025507328	60	63309
2026-01-30 11:53:27.02	112.10	2.49	-49.7	-64.9	3.6	1.51e+00	0	40	104	1025507328	60	63200
2026-01-30 11:53:28.03	112.21	2.45	-49.7	-64.9	3.6	1.51e+00	0	41	104	1025507328	60	63576
2026-01-30 11:53:29.04	112.32	2.41	-49.7	-64.9	3.6	1.51e+00	0	41	104	1025507328	60	63609
2026-01-30 11:53:30.05	112.44	2.37	-49.7	-64.9	3.6	1.51e+00	0	41	104	1025507328	60	63327
2026-01-30 11:53:31.06	112.55	2.33	-49.6	-64.9	3.6	1.51e+00	0	40	104	1025507328	60	63231
2026-01-30 11:53:32.07	112.66	2.29	-49.6	-65.0	3.6	1.51e+00	0	41	104	1025507328	60	63940
2026-01-30 11:53:33.08	112.77	2.25	-49.5	-64.8	3.6	1.51e+00	0	41	104	1025507328	60	63096
2026-01-30 11:53:34.09	112.87	2.21	-49.7	-64.9	3.6	1.51e+00	0	41	104	1025507328	60	63449
2026-01-30 11:53:35.10	112.98	2.17	-49.7	-64.9	3.6	1.51e+00	0	40	104	1025507328	60	63584
2026-01-30 11:53:36.11	113.09	2.13	-49.7	-64.9	3.6	1.51e+00	0	41	104	1025507328	60	63652
2026-01-30 11:53:37.12	113.20	2.09	-49.7	-64.9	3.6	1.51e+00	0	41	104	1025507328	60	63373
2026-01-30 11:53:38.13	113.31	2.05	-49.7	-64.9	3.6	1.51e+00	0	41	104	1025507328	60	63544
2026-01-30 11:53:39.14	113.42	2.00	-49.7	-64.8	3.6	1.51e+00	0	41	104	1025507328	60	63163
2026-01-30 11:53:40.15	113.53	1.96	-49.7	-64.8	3.6	1.51e+00	0	41	104	1025507328	60	63104
2026-01-30 11:53:41.16	113.63	1.92	-49.6	-64.9	3.6	1.51e+00	0	41	104	1025507328	60	63263
2026-01-30 11:53:42.17	113.74	1.88	-49.6	-64.9	3.6	1.51e+00	0	41	104	1025507328	60	63382
2026-01-30 11:53:43.18	113.85	1.84	-49.6	-64.9	3.6	1.51e+00	0	41	104	1025507328	60	63180
2026-01-30 11:53:44.19	113.95	1.80	-49.6	-64.8	3.6	1.51e+00	0	41	104	1025507328	60	63080
2026-01-30 11:53:45.20	114.06	1.76	-49.6	-64.8	3.6	1.51e+00	0	41	104	1025507328	60	63159
2026-01-30 11:53:46.21	114.17	1.72	-49.6	-64.8	3.6	1.51e+00	0	41	104	1025507328	60	63108
2026-01-30 11:53:47.22	114.27	1.68	-49.6	-64.9	3.6	1.51e+00	0	41	104	1025507328	60	63367
2026-01-30 11:53:48.23	114.38	1.64	-49.6	-64.9	3.6	1.51e+00	0	41	104	1025507328	60	63236
2026-01-30 11:53:49.24	114.48	1.60	-49.6	-64.9	3.6	1.51e+00	0	41	104	1025507328	60	63233
2026-01-30 11:53:50.25	114.59	1.56	-49.6	-64.8	3.6	1.51e+00	0	41	104	1025507328	60	62780
2026-01-30 11:53:51.26	114.69	1.52	-49.6	-64.8	3.6	1.51e+00	0	41	104	1025507328	60	63026
2026-01-30 11:53:52.27	114.80	1.47	-49.6	-64.8	3.6	1.51e+00	0	40	104	1025507328	60	62973
2026-01-30 11:53:53.28	114.90	1.43	-49.6	-64.8	3.6	1.51e+00	0	41	104	1025507328	60	63123
2026-01-30 11:53:54.29	115.00	1.39	-49.6	-64.8	3.6	1.51e+00	0	41	104	1025507328	60	63163
2026-01-30 11:53:55.30	115.11	1.35	-49.6	-64.8	3.6	1.51e+00	0	41	104	1025507328	60	63060
2026-01-30 11:53:56.31	115.21	1.31	-49.6	-64.8	3.6	1.51e+00	0	40	104	1025507328	60	63036
2026-01-30 11:53:57.32	115.31	1.27	-49.6	-64.9	3.6	1.51e+00	0	40	104	1025507328	60	63323
2026-01-30 11:53:58.33	115.42	1.23	-49.6	-64.9	3.6	1.51e+00	0	41	104	1025507328	60	63300
2026-01-30 11:53:59.34	115.52	1.19	-49.6	-64.9	3.6	1.51e+00	0	40	104	1025507328	60	63201
2026-01-30 11:54:00.35	115.62	1.15	-49.6	-64.8	3.6	1.51e+00	0	41	104	1025507328	60	63138
2026-01-30 11:54:01.36	115.72	1.11	-49.6	-64.8	3.6	1.51e+00	0	41	104	1025507328	60	63138
2026-01-30 11:54:02.37	115.82	1.07	-49.6	-64.8	3.6	1.51e+00	0	41	104	1025507328	60	63091
2026-01-30 11:54:03.38	115.93	1.02	-49.6	-64.8	3.6	1.51e+00	0	41	104	1025507328	60	63016
2026-01-30 11:54:04.39	116.03	0.98	-49.6	-64.8	3.6	1.51e+00	0	41	104	1025507328	60	63098
2026-01-30 11:54:05.40	116.13	0.94	-49.6	-64.8	3.6	1.51e+00	0	41	104	1025507328	60	63131
2026-01-30 11:54:06.41	116.23	0.90	-49.6	-64.8	3.6	1.51e+00	0	41	104	1025507328	60	62925
2026-01-30 11:54:07.42	116.33	0.86	-49.6	-64.8	3.6	1.51e+00	0	41	104	1025507328	60	62883
2026-01-30 11:54:08.43	116.43	0.82	-49.6	-64.8	3.6	1.51e+00	0	41	104	1025507328	60	62956
2026-01-30 11:54:09.44	116.53	0.78	-49.6	-64.9	3.6	1.51e+00	0	41	104	1025507328	60	63328
2026-01-30 11:54:10.45	116.63	0.74	-49.6	-64.8	3.6	1.51e+00	0	41	104	1025507328	60	63144
2026-01-30 11:54:11.46	116.73	0.70	-49.6	-64.8	3.6	1.51e+00	0	41	104	1025507328	60	62849
2026-01-30 11:54:12.46	116.83	0.66	-49.6	-64.8	3.6	1.51e+00	0	41	104	1025507328	60	63021
2026-01-30 11:54:13.47	116.92	0.61	-49.6	-64.8	3.6	1.51e+00	0	40	104	1025507328	60	62845
2026-01-30 11:54:14.49	117.02	0.57	-49.6	-64.8	3.6	1.51e+00	0	40	104	1025507328	60	63014
2026-01-30 11:54:15.50	117.12	0.53	-49.6	-64.8	3.6	1.51e+00	0	40	104	1025507328	60	62857
2026-01-30 11:54:16.50	117.22	0.49	-49.6	-64.8	3.6	1.51e+00	0	41	104	1025507328	60	63158
2026-01-30 11:54:17.51	117.32	0.45	-49.6	-64.9	3.6	1.51e+00	0	41	104	1025507328	60	63178
2026-01-30 11:54:18.52	117.41	0.41	-49.6	-64.8	3.6	1.51e+00	0	40	104	1025507328	60	63007
2026-01-30 11:54:19.53	117.51	0.37	-49.6	-64.8	3.6	1.51e+00	0	41	104	1025507328	60	62930
2026-01-30 11:54:20.54	117.61	0.33	-49.6	-64.8	3.6	1.51e+00	0	41	104	1025507328	60	62761
2026-01-30 11:54:21.55	117.71	0.28	-49.6	-64.8	3.6	1.51e+00	0	40	104	1025507328	60	62736
2026-01-30 11:54:22.56	117.80	0.24	-49.6	-64.8	3.6	1.51e+00	0	40	104	1025507328	60	63127
2026-01-30 11:54:23.57	117.90	0.20	-49.6	-64.8	3.6	1.51e+00	0	41	104	1025507328	60	63056
2026-01-30 11:54:24.58	117.99	0.16	-49.6	-64.8	3.6	1.51e+00	0	41	104	1025507328	60	62706
2026-01-30 11:54:25.59	118.09	0.12	-49.6	-64.8	3.6	1.51e+00	0	41	104	1025507328	60	62636
2026-01-30 11:54:26.60	118.19	0.08	-49.6	-64.8	3.5	1.51e+00	0	41	104	1025507328	60	63062
2026-01-30 11:54:27.61	118.28	0.04	-49.6	-64.8	3.6	1.51e+00	0	41	104	1025507328	60	62911
2026-01-30 11:54:28.62	118.38	-0.00	-49.5	-64.8	3.6	1.51e+00	0	41	104	1025507328	60	62980
2026-01-30 11:54:29.63	118.47	-0.05	-49.6	-64.8	3.6	1.51e+00	0	41	104	1025507328	60	62951

#Closed at: 2026-01-30 11:54:30
#Recorded file [1025 MB]: D:/lorett/data/35029_260130_234300.dat