passes_logs/2026/01/26/R2M6_AANII_01/R2M6_AANII_01__20260126_115859_FENGYUN_3D_rec.log

#Pass ID: 20260126_115859_FENGYUN 3D
#Satellite: FENGYUN 3D
#Configuration: FENGYUN 3D
#almurnet v.1.7.20240730
#Start time: 2026-01-26 11:59:00

#Version: 2.2.20231116
#Station: R2M6_AANII_01
#Location: 30.233357 lon 59.946436 lat
#TLE: 1 43010U 17072A   26025.85700374 -.00000071  00000+0 -11715-4 0  9992
#TLE: 2 43010  98.9962 357.8423 0002518  90.2035 269.9429 14.19699460424796

#Time	Az	El	Level	Level2	SNR	BER	BlckErr	Temp	State	Recorded	gain1	gain2
2026-01-26 11:59:00.87	147.58	7.12	-28.1	-33.3	5.2	7.94e-01	0	41	0	0	16	6503
2026-01-26 11:59:01.87	147.56	7.20	-28.3	-33.0	5.2	7.95e-01	0	41	104	0	17	6155
2026-01-26 11:59:02.87	147.55	7.28	-28.4	-33.3	8.8	2.08e-02	0	41	0	0	17	6298
2026-01-26 11:59:03.87	147.53	7.35	-28.4	-33.0	9.1	2.29e-02	0	41	0	5242880	17	6124
2026-01-26 11:59:04.87	147.51	7.43	-28.1	-31.8	10.1	6.73e-03	0	41	0	11534336	17	5493
2026-01-26 11:59:05.87	147.49	7.51	-28.0	-31.4	10.4	3.40e-03	0	42	0	16777216	17	5295
2026-01-26 11:59:06.87	147.48	7.59	-27.7	-31.0	11.1	1.55e-03	0	42	0	22020096	16	5223
2026-01-26 11:59:07.86	147.46	7.67	-27.7	-30.7	11.3	1.03e-03	0	42	0	27262976	16	5091
2026-01-26 11:59:08.87	147.44	7.75	-27.7	-30.6	11.5	7.48e-04	0	42	0	33554432	16	5011
2026-01-26 11:59:09.87	147.42	7.83	-28.0	-31.0	11.3	7.28e-04	0	42	0	38797312	16	5129
2026-01-26 11:59:10.88	147.41	7.91	-27.8	-30.6	11.6	8.51e-04	0	41	0	45088768	16	4961
2026-01-26 11:59:11.87	147.39	7.99	-27.8	-30.5	11.7	4.32e-04	0	42	0	50331648	16	4920
2026-01-26 11:59:12.88	147.37	8.07	-27.6	-29.8	12.2	1.41e-04	0	42	0	55574528	16	4633
2026-01-26 11:59:13.87	147.35	8.15	-27.2	-29.2	12.8	3.31e-05	0	42	0	61865984	15	4571
2026-01-26 11:59:14.88	147.33	8.23	-27.4	-29.6	12.5	9.15e-05	0	42	0	67108864	15	4676
2026-01-26 11:59:15.87	147.32	8.31	-27.1	-28.9	13.0	2.17e-05	0	41	0	73400320	15	4439
2026-01-26 11:59:16.87	147.30	8.39	-27.2	-29.2	12.9	3.89e-05	0	42	0	78643200	15	4531
2026-01-26 11:59:17.87	147.28	8.47	-27.2	-29.2	12.9	3.20e-05	0	42	0	83886080	15	4523
2026-01-26 11:59:18.87	147.26	8.56	-27.0	-28.7	13.2	2.17e-05	0	42	0	90177536	15	4356
2026-01-26 11:59:19.87	147.24	8.64	-27.2	-29.2	12.9	4.00e-05	0	42	0	95420416	15	4517
2026-01-26 11:59:20.88	147.22	8.72	-27.0	-28.7	13.2	2.97e-05	0	42	0	100663296	15	4356
2026-01-26 11:59:21.87	147.20	8.80	-27.0	-28.4	13.4	6.80e-06	0	42	0	106954752	15	4272
2026-01-26 11:59:22.88	147.18	8.89	-27.1	-28.8	13.2	2.28e-05	0	42	0	112197632	15	4385
2026-01-26 11:59:23.89	147.16	8.97	-27.1	-28.7	13.3	1.14e-05	0	42	0	117440512	15	4337
2026-01-26 11:59:24.89	147.14	9.05	-27.2	-29.1	13.1	1.02e-05	0	42	0	123731968	15	4448
2026-01-26 11:59:25.89	147.12	9.14	-27.2	-29.0	13.1	2.86e-05	0	42	0	128974848	15	4416
2026-01-26 11:59:26.90	147.10	9.22	-27.1	-28.7	13.3	6.80e-06	0	42	0	135266304	15	4334
2026-01-26 11:59:27.90	147.08	9.31	-27.4	-29.5	12.9	1.94e-05	0	42	0	140509184	15	4552
2026-01-26 11:59:28.90	147.06	9.39	-27.4	-29.3	13.0	2.17e-05	0	42	0	145752064	15	4506
2026-01-26 11:59:29.91	147.04	9.48	-27.1	-28.7	13.4	1.25e-05	0	42	0	152043520	15	4337
2026-01-26 11:59:30.92	147.02	9.56	-26.8	-28.0	13.8	5.70e-06	0	42	0	157286400	15	4150
2026-01-26 11:59:31.92	147.00	9.65	-26.6	-28.1	14.1	0.00e+00	0	42	0	162529280	14	4262
2026-01-26 11:59:32.92	146.98	9.73	-26.7	-28.4	13.8	0.00e+00	0	42	0	168820736	14	4354
2026-01-26 11:59:33.92	146.96	9.82	-26.8	-28.6	13.7	1.10e-06	0	42	0	174063616	14	4432
2026-01-26 11:59:34.93	146.94	9.91	-26.6	-28.1	14.0	0.00e+00	0	42	0	180355072	14	4295
2026-01-26 11:59:35.93	146.92	9.99	-26.4	-27.6	14.3	0.00e+00	0	42	0	185597952	14	4140
2026-01-26 11:59:36.93	146.90	10.08	-26.5	-27.9	14.1	0.00e+00	0	42	0	190840832	14	4216
2026-01-26 11:59:37.93	146.88	10.17	-26.2	-27.7	14.5	2.20e-06	0	42	0	197132288	13	4298
2026-01-26 11:59:38.94	146.86	10.26	-26.4	-28.1	14.3	2.20e-06	0	42	0	202375168	13	4406
2026-01-26 11:59:39.94	146.83	10.34	-26.2	-27.7	14.5	0.00e+00	0	42	0	208666624	13	4292
2026-01-26 11:59:40.94	146.81	10.43	-26.5	-28.3	14.2	1.10e-06	0	42	0	213909504	13	4460
2026-01-26 11:59:41.94	146.79	10.52	-26.2	-27.7	14.5	0.00e+00	0	42	0	219152384	13	4297
2026-01-26 11:59:42.94	146.77	10.61	-26.1	-27.6	14.6	0.00e+00	0	42	0	225443840	13	4242
2026-01-26 11:59:43.94	146.75	10.70	-25.8	-27.3	15.1	0.00e+00	0	42	0	230686720	12	4293
2026-01-26 11:59:44.94	146.72	10.79	-26.0	-27.8	14.8	0.00e+00	0	42	0	235929600	12	4422
2026-01-26 11:59:45.94	146.70	10.88	-26.0	-27.7	14.9	0.00e+00	0	42	0	242221056	12	4385
2026-01-26 11:59:46.94	146.68	10.97	-26.0	-27.7	14.8	0.00e+00	0	43	0	247463936	12	4394
2026-01-26 11:59:47.94	146.66	11.06	-25.9	-27.5	15.0	0.00e+00	0	43	0	252706816	12	4337
2026-01-26 11:59:48.94	146.63	11.15	-25.9	-27.5	15.0	0.00e+00	0	43	0	258998272	12	4341
2026-01-26 11:59:49.94	146.61	11.24	-25.7	-27.1	15.2	0.00e+00	0	43	0	264241152	12	4231
2026-01-26 11:59:50.93	146.59	11.33	-25.8	-27.3	15.1	0.00e+00	0	43	0	270532608	12	4287
2026-01-26 11:59:51.93	146.56	11.42	-25.8	-27.3	15.1	0.00e+00	0	43	0	275775488	12	4265
2026-01-26 11:59:52.94	146.54	11.52	-25.8	-27.2	15.2	0.00e+00	0	43	0	281018368	12	4246
2026-01-26 11:59:53.94	146.52	11.61	-25.9	-27.6	15.0	0.00e+00	0	43	0	287309824	12	4350
2026-01-26 11:59:54.95	146.49	11.70	-25.7	-27.1	15.2	0.00e+00	0	43	0	292552704	12	4224
2026-01-26 11:59:55.95	146.47	11.79	-25.8	-27.2	15.2	0.00e+00	0	43	0	297795584	12	4241
2026-01-26 11:59:56.95	146.44	11.89	-25.8	-27.2	15.2	0.00e+00	0	43	0	304087040	12	4246
2026-01-26 11:59:57.95	146.42	11.98	-25.9	-27.6	15.0	0.00e+00	0	43	0	309329920	12	4347
2026-01-26 11:59:58.96	146.40	12.08	-25.9	-27.5	15.0	0.00e+00	0	43	0	314572800	12	4330
2026-01-26 11:59:59.97	146.37	12.17	-25.8	-27.3	15.2	0.00e+00	0	43	0	320864256	12	4275
2026-01-26 12:00:00.98	146.35	12.27	-26.0	-27.8	14.9	0.00e+00	0	43	0	326107136	12	4395
2026-01-26 12:00:01.98	146.32	12.36	-25.8	-27.3	15.2	0.00e+00	0	43	0	332398592	12	4258
2026-01-26 12:00:02.99	146.29	12.46	-25.9	-27.5	15.1	0.00e+00	0	43	0	337641472	12	4306
2026-01-26 12:00:04.00	146.27	12.56	-26.0	-27.7	15.0	0.00e+00	0	43	0	343932928	12	4362
2026-01-26 12:00:05.00	146.24	12.65	-25.9	-27.4	15.2	0.00e+00	0	43	0	349175808	12	4291
2026-01-26 12:00:06.00	146.22	12.75	-26.2	-28.0	14.9	0.00e+00	0	43	0	354418688	12	4457
2026-01-26 12:00:07.00	146.19	12.85	-26.1	-27.8	15.0	0.00e+00	0	43	0	360710144	12	4380
2026-01-26 12:00:08.00	146.16	12.94	-25.9	-27.5	15.2	0.00e+00	0	43	0	365953024	12	4307
2026-01-26 12:00:09.01	146.14	13.04	-25.8	-27.3	15.3	0.00e+00	0	43	0	371195904	12	4252
2026-01-26 12:00:10.00	146.11	13.14	-25.8	-27.3	15.2	0.00e+00	0	43	0	377487360	12	4255
2026-01-26 12:00:11.00	146.08	13.24	-25.8	-27.2	15.3	0.00e+00	0	43	0	382730240	12	4254
2026-01-26 12:00:12.00	146.06	13.34	-25.8	-27.2	15.3	0.00e+00	0	43	0	387973120	12	4245
2026-01-26 12:00:13.00	146.03	13.44	-26.0	-27.6	15.1	0.00e+00	0	43	0	394264576	12	4348
2026-01-26 12:00:14.00	146.00	13.54	-25.8	-27.2	15.3	0.00e+00	0	43	0	399507456	12	4256
2026-01-26 12:00:15.01	145.98	13.64	-25.7	-27.1	15.4	0.00e+00	0	43	0	405798912	12	4217
2026-01-26 12:00:16.01	145.95	13.74	-25.7	-27.0	15.4	2.20e-06	0	43	0	411041792	12	4189
2026-01-26 12:00:17.02	145.92	13.84	-25.8	-27.3	15.3	0.00e+00	0	43	0	416284672	12	4274
2026-01-26 12:00:18.02	145.89	13.94	-25.7	-27.0	15.4	0.00e+00	0	43	0	422576128	12	4196
2026-01-26 12:00:19.03	145.86	14.05	-25.6	-26.9	15.5	5.70e-06	0	43	0	427819008	12	4172
2026-01-26 12:00:20.03	145.83	14.15	-25.7	-27.0	15.4	0.00e+00	0	43	0	434110464	12	4192
2026-01-26 12:00:21.03	145.80	14.25	-25.8	-27.3	15.3	0.00e+00	0	43	0	439353344	12	4257
2026-01-26 12:00:22.03	145.78	14.36	-25.7	-27.1	15.4	0.00e+00	0	43	0	444596224	12	4199
2026-01-26 12:00:23.04	145.75	14.46	-25.8	-27.2	15.4	0.00e+00	0	43	0	450887680	12	4243
2026-01-26 12:00:24.04	145.72	14.56	-26.2	-28.1	14.9	2.20e-06	0	43	0	456130560	12	4480
2026-01-26 12:00:25.05	145.69	14.67	-25.9	-27.5	15.3	0.00e+00	0	43	0	461373440	12	4298
2026-01-26 12:00:26.05	145.66	14.77	-25.9	-27.4	15.3	0.00e+00	0	43	0	467664896	12	4274
2026-01-26 12:00:27.05	145.63	14.88	-25.8	-27.3	15.4	0.00e+00	0	43	0	472907776	12	4249
2026-01-26 12:00:28.05	145.59	14.99	-26.0	-27.5	15.2	1.10e-06	0	43	0	479199232	12	4318
2026-01-26 12:00:29.05	145.56	15.09	-25.7	-26.8	15.6	0.00e+00	0	43	0	484442112	12	4114
2026-01-26 12:00:30.05	145.53	15.20	-25.5	-26.4	15.9	0.00e+00	0	43	0	489684992	12	4009
2026-01-26 12:00:31.06	145.50	15.31	-25.5	-26.4	15.9	2.20e-06	0	43	0	495976448	12	4012
2026-01-26 12:00:32.06	145.47	15.42	-25.5	-26.5	15.8	0.00e+00	0	43	0	501219328	12	4042
2026-01-26 12:00:33.07	145.44	15.52	-25.5	-26.5	15.9	0.00e+00	0	43	0	506462208	12	4016
2026-01-26 12:00:34.07	145.41	15.63	-25.7	-26.9	15.6	4.50e-06	0	43	0	512753664	12	4145
2026-01-26 12:00:35.07	145.37	15.74	-25.4	-26.3	16.0	0.00e+00	0	43	0	517996544	12	3973
2026-01-26 12:00:36.08	145.34	15.85	-25.3	-26.5	16.2	0.00e+00	0	43	0	524288000	11	4134
2026-01-26 12:00:37.08	145.31	15.96	-25.4	-26.6	16.2	4.50e-06	0	43	0	529530880	11	4149
2026-01-26 12:00:38.08	145.27	16.07	-25.2	-26.1	16.4	0.00e+00	0	43	0	534773760	11	4038
2026-01-26 12:00:39.08	145.24	16.18	-25.3	-26.4	16.3	0.00e+00	0	43	0	541065216	11	4101
2026-01-26 12:00:40.08	145.21	16.30	-25.3	-26.4	16.3	2.20e-06	0	43	0	546308096	11	4091
2026-01-26 12:00:41.09	145.17	16.41	-25.3	-26.6	16.2	0.00e+00	0	43	0	552599552	11	4144
2026-01-26 12:00:42.09	145.14	16.52	-25.1	-26.1	16.4	0.00e+00	0	43	0	557842432	11	4034
2026-01-26 12:00:43.10	145.10	16.64	-25.1	-26.1	16.4	0.00e+00	0	43	0	563085312	11	4023
2026-01-26 12:00:44.11	145.07	16.75	-25.1	-26.1	16.4	0.00e+00	0	43	0	569376768	11	4035
2026-01-26 12:00:45.11	145.03	16.87	-24.9	-25.7	16.7	0.00e+00	0	43	0	574619648	11	3925
2026-01-26 12:00:46.12	145.00	16.98	-25.0	-25.8	16.7	0.00e+00	0	43	0	579862528	11	3953
2026-01-26 12:00:47.12	144.96	17.10	-25.0	-25.8	16.6	0.00e+00	0	43	0	586153984	11	3951
2026-01-26 12:00:48.12	144.93	17.21	-24.7	-25.7	17.0	0.00e+00	0	43	0	591396864	10	4034
2026-01-26 12:00:49.12	144.89	17.33	-24.7	-25.6	17.0	0.00e+00	0	43	0	597688320	10	4012
2026-01-26 12:00:50.13	144.85	17.45	-24.8	-25.8	16.9	0.00e+00	0	43	0	602931200	10	4055
2026-01-26 12:00:51.13	144.82	17.56	-24.8	-26.0	16.9	0.00e+00	0	43	0	608174080	10	4097
2026-01-26 12:00:52.13	144.78	17.68	-24.9	-26.0	16.8	0.00e+00	0	43	0	614465536	10	4115
2026-01-26 12:00:53.14	144.74	17.80	-24.6	-25.5	17.1	0.00e+00	0	43	0	619708416	10	3989
2026-01-26 12:00:54.14	144.71	17.92	-24.9	-26.1	16.8	0.00e+00	0	43	0	625999872	10	4138
2026-01-26 12:00:55.14	144.67	18.04	-24.9	-26.1	16.9	0.00e+00	0	43	0	631242752	10	4122
2026-01-26 12:00:56.15	144.63	18.16	-25.1	-26.5	16.6	0.00e+00	0	43	0	636485632	10	4249
2026-01-26 12:00:57.15	144.59	18.28	-24.8	-25.9	17.0	0.00e+00	0	43	0	642777088	10	4073
2026-01-26 12:00:58.16	144.55	18.41	-24.6	-25.4	17.2	0.00e+00	0	43	0	648019968	10	3970
2026-01-26 12:00:59.16	144.51	18.53	-24.5	-25.3	17.3	0.00e+00	0	43	0	653262848	10	3927
2026-01-26 12:01:00.16	144.47	18.65	-24.6	-25.6	17.2	0.00e+00	0	43	0	659554304	10	4000
2026-01-26 12:01:01.16	144.43	18.77	-24.5	-25.3	17.3	0.00e+00	0	43	0	664797184	10	3928
2026-01-26 12:01:02.17	144.39	18.90	-24.4	-25.0	17.5	0.00e+00	0	43	0	670040064	10	3864
2026-01-26 12:01:03.17	144.35	19.02	-24.5	-25.2	17.4	0.00e+00	0	43	0	676331520	10	3903
2026-01-26 12:01:04.17	144.31	19.15	-24.3	-24.9	17.5	0.00e+00	0	43	0	681574400	10	3832
2026-01-26 12:01:05.17	144.27	19.27	-24.4	-25.0	17.5	0.00e+00	0	43	0	687865856	10	3862
2026-01-26 12:01:06.18	144.22	19.40	-24.5	-25.1	17.4	0.00e+00	0	43	0	693108736	10	3890
2026-01-26 12:01:07.18	144.18	19.53	-24.3	-24.8	17.6	0.00e+00	0	43	0	699400192	10	3820
2026-01-26 12:01:08.19	144.14	19.66	-24.4	-25.0	17.5	0.00e+00	0	44	0	704643072	10	3864
2026-01-26 12:01:09.19	144.10	19.79	-24.3	-24.9	17.6	0.00e+00	0	43	0	709885952	10	3829
2026-01-26 12:01:10.20	144.05	19.92	-24.4	-24.9	17.6	0.00e+00	0	43	0	716177408	10	3841
2026-01-26 12:01:11.21	144.01	20.05	-24.5	-25.3	17.4	0.00e+00	0	43	0	721420288	10	3919
2026-01-26 12:01:12.21	143.96	20.18	-24.3	-24.8	17.7	0.00e+00	0	43	0	726663168	10	3819
2026-01-26 12:01:13.22	143.92	20.31	-24.5	-25.2	17.4	0.00e+00	0	43	0	732954624	10	3909
2026-01-26 12:01:14.23	143.87	20.44	-24.3	-24.7	17.7	0.00e+00	0	44	0	738197504	10	3788
2026-01-26 12:01:15.23	143.83	20.57	-24.1	-24.9	17.9	0.00e+00	0	43	0	744488960	9	3948
2026-01-26 12:01:16.23	143.78	20.71	-24.3	-25.3	17.7	0.00e+00	0	43	0	749731840	9	4038
2026-01-26 12:01:17.22	143.74	20.84	-24.4	-25.5	17.6	0.00e+00	0	43	0	754974720	9	4080
2026-01-26 12:01:18.23	143.69	20.97	-24.2	-25.0	17.8	0.00e+00	0	44	0	761266176	9	3959
2026-01-26 12:01:19.23	143.64	21.11	-24.1	-24.9	17.9	0.00e+00	0	44	0	766509056	9	3944
2026-01-26 12:01:20.23	143.60	21.24	-24.1	-24.9	18.0	0.00e+00	0	43	0	772800512	9	3930
2026-01-26 12:01:21.24	143.55	21.38	-24.1	-24.9	17.9	5.70e-06	0	43	0	778043392	9	3939
2026-01-26 12:01:22.24	143.50	21.52	-24.1	-24.9	17.9	0.00e+00	0	43	0	783286272	9	3952
2026-01-26 12:01:23.25	143.45	21.66	-24.2	-25.1	17.9	0.00e+00	0	44	0	789577728	9	3977
2026-01-26 12:01:24.25	143.40	21.80	-24.0	-24.7	18.0	0.00e+00	0	44	0	794820608	9	3893
2026-01-26 12:01:25.25	143.35	21.94	-24.0	-24.6	18.1	0.00e+00	0	43	0	800063488	9	3865
2026-01-26 12:01:26.25	143.30	22.08	-23.9	-24.5	18.1	0.00e+00	0	43	0	806354944	9	3847
2026-01-26 12:01:27.25	143.25	22.22	-24.0	-24.6	18.1	0.00e+00	0	44	0	811597824	9	3857
2026-01-26 12:01:28.26	143.20	22.36	-23.8	-24.3	18.3	0.00e+00	0	43	0	817889280	9	3790
2026-01-26 12:01:29.25	143.15	22.50	-23.8	-24.2	18.3	0.00e+00	0	43	0	823132160	9	3786
2026-01-26 12:01:30.26	143.09	22.64	-23.8	-24.7	18.3	0.00e+00	0	43	0	828375040	8	3997
2026-01-26 12:01:31.25	143.04	22.79	-23.8	-24.8	18.3	0.00e+00	0	44	0	834666496	8	4018
2026-01-26 12:01:32.26	142.99	22.93	-23.9	-24.9	18.2	0.00e+00	0	43	0	839909376	8	4050
2026-01-26 12:01:33.26	142.93	23.08	-23.8	-24.7	18.3	8.00e-06	0	43	0	845152256	8	4001
2026-01-26 12:01:34.25	142.88	23.22	-23.8	-24.8	18.3	0.00e+00	0	44	0	851443712	8	4019
2026-01-26 12:01:35.25	142.82	23.37	-23.8	-24.7	18.3	0.00e+00	0	43	0	856686592	8	4000
2026-01-26 12:01:36.26	142.77	23.52	-23.8	-24.8	18.3	8.00e-06	0	43	0	861929472	8	4016
2026-01-26 12:01:37.26	142.71	23.67	-23.8	-24.8	18.3	0.00e+00	0	43	0	868220928	8	4020
2026-01-26 12:01:38.26	142.66	23.82	-23.8	-24.8	18.3	0.00e+00	0	43	0	873463808	8	4026
2026-01-26 12:01:39.27	142.60	23.97	-23.8	-24.7	18.3	0.00e+00	0	43	0	879755264	8	4001
2026-01-26 12:01:40.27	142.54	24.12	-23.8	-24.8	18.3	0.00e+00	0	43	0	884998144	8	4023
2026-01-26 12:01:41.28	142.48	24.27	-23.8	-24.8	18.3	0.00e+00	0	43	0	891289600	8	4026
2026-01-26 12:01:42.27	142.42	24.43	-23.9	-25.0	18.2	5.70e-06	0	44	0	896532480	8	4069
2026-01-26 12:01:43.28	142.36	24.58	-23.7	-24.4	18.5	0.00e+00	0	44	0	901775360	8	3932
2026-01-26 12:01:44.28	142.30	24.73	-23.5	-24.1	18.7	0.00e+00	0	44	0	908066816	8	3854
2026-01-26 12:01:45.29	142.24	24.89	-23.5	-24.1	18.7	8.00e-06	0	43	0	913309696	8	3845
2026-01-26 12:01:46.29	142.18	25.05	-23.5	-24.1	18.7	0.00e+00	0	44	0	918552576	8	3848
2026-01-26 12:01:47.29	142.12	25.21	-23.4	-24.0	18.8	0.00e+00	0	43	0	924844032	8	3820
2026-01-26 12:01:48.30	142.05	25.37	-23.5	-24.0	18.7	6.80e-06	0	44	0	930086912	8	3827
2026-01-26 12:01:49.29	141.99	25.52	-23.5	-24.0	18.8	0.00e+00	0	44	0	935329792	8	3830
2026-01-26 12:01:50.29	141.93	25.68	-23.2	-24.0	19.0	0.00e+00	0	44	0	941621248	7	3940
2026-01-26 12:01:51.29	141.86	25.84	-23.3	-24.1	19.0	0.00e+00	0	43	0	946864128	7	3947
2026-01-26 12:01:52.30	141.80	26.01	-23.3	-24.1	19.0	0.00e+00	0	44	0	953155584	7	3956
2026-01-26 12:01:53.29	141.73	26.17	-23.3	-24.1	18.9	0.00e+00	0	44	0	958398464	7	3960
2026-01-26 12:01:54.30	141.66	26.33	-23.2	-24.0	19.0	0.00e+00	0	44	0	963641344	7	3928
2026-01-26 12:01:55.29	141.60	26.50	-23.3	-24.1	18.9	0.00e+00	0	44	0	969932800	7	3958
2026-01-26 12:01:56.29	141.53	26.66	-23.4	-24.3	18.8	0.00e+00	0	43	0	975175680	7	4007
2026-01-26 12:01:57.29	141.46	26.83	-23.4	-24.3	18.9	2.20e-06	0	44	0	980418560	7	4013
2026-01-26 12:01:58.29	141.39	27.00	-23.5	-24.7	18.7	0.00e+00	0	44	0	986710016	7	4099
2026-01-26 12:01:59.29	141.32	27.16	-23.5	-24.6	18.7	0.00e+00	0	44	0	991952896	7	4073
2026-01-26 12:02:00.30	141.25	27.34	-23.5	-24.6	18.7	0.00e+00	0	43	0	997195776	7	4083
2026-01-26 12:02:01.30	141.18	27.51	-23.4	-24.5	18.8	0.00e+00	0	44	0	1003487232	7	4048
2026-01-26 12:02:02.30	141.10	27.68	-23.4	-24.4	18.9	0.00e+00	0	44	0	1008730112	7	4022
2026-01-26 12:02:03.31	141.03	27.85	-23.5	-24.5	18.8	0.00e+00	0	43	0	1015021568	7	4056
2026-01-26 12:02:04.32	140.95	28.03	-23.2	-23.9	19.1	0.00e+00	0	44	0	1020264448	7	3903
2026-01-26 12:02:05.32	140.88	28.20	-23.1	-23.7	19.2	0.00e+00	0	44	0	1026555904	7	3857
2026-01-26 12:02:06.32	140.80	28.38	-23.0	-23.6	19.3	0.00e+00	0	44	0	1031798784	7	3827
2026-01-26 12:02:07.33	140.72	28.56	-23.1	-23.6	19.3	0.00e+00	0	44	0	1037041664	7	3846
2026-01-26 12:02:08.33	140.64	28.73	-23.1	-23.8	19.2	0.00e+00	0	44	0	1043333120	7	3885
2026-01-26 12:02:09.34	140.56	28.91	-23.0	-23.5	19.3	0.00e+00	0	44	0	1048576000	7	3824
2026-01-26 12:02:10.34	140.48	29.09	-22.9	-23.3	19.5	0.00e+00	0	43	0	1053818880	7	3775
2026-01-26 12:02:11.34	140.40	29.28	-22.9	-23.4	19.4	0.00e+00	0	44	0	1060110336	7	3787
2026-01-26 12:02:12.34	140.32	29.46	-23.0	-23.5	19.4	0.00e+00	0	44	0	1065353216	7	3812
2026-01-26 12:02:13.34	140.24	29.64	-22.8	-23.1	19.6	0.00e+00	0	44	0	1070596096	7	3718
2026-01-26 12:02:14.35	140.15	29.83	-22.9	-23.2	19.5	0.00e+00	0	44	0	1076887552	7	3756
2026-01-26 12:02:15.36	140.07	30.02	-22.8	-23.6	19.6	0.00e+00	0	44	0	1082130432	6	3942
2026-01-26 12:02:16.36	139.98	30.20	-22.9	-23.8	19.5	0.00e+00	0	44	0	1088421888	6	3983
2026-01-26 12:02:17.37	139.90	30.39	-22.9	-23.8	19.5	0.00e+00	0	44	0	1093664768	6	3992
2026-01-26 12:02:18.37	139.81	30.58	-22.9	-23.9	19.4	0.00e+00	0	44	0	1099956224	6	4015
2026-01-26 12:02:19.38	139.72	30.77	-23.0	-24.0	19.4	0.00e+00	0	44	0	1105199104	6	4035
2026-01-26 12:02:20.39	139.63	30.97	-22.9	-23.7	19.5	0.00e+00	0	44	0	1110441984	6	3983
2026-01-26 12:02:21.39	139.54	31.16	-22.8	-23.7	19.5	0.00e+00	0	43	0	1116733440	6	3982
2026-01-26 12:02:22.39	139.44	31.35	-23.0	-24.0	19.4	0.00e+00	0	44	0	1121976320	6	4048
2026-01-26 12:02:23.39	139.35	31.55	-23.0	-24.0	19.4	0.00e+00	0	44	0	1127219200	6	4039
2026-01-26 12:02:24.40	139.25	31.75	-22.7	-23.4	19.7	0.00e+00	0	44	0	1133510656	6	3906
2026-01-26 12:02:25.40	139.16	31.94	-22.6	-23.2	19.8	0.00e+00	0	44	0	1138753536	6	3844
2026-01-26 12:02:26.40	139.06	32.14	-22.6	-23.1	19.8	0.00e+00	0	44	0	1143996416	6	3841
2026-01-26 12:02:27.40	138.96	32.34	-22.7	-23.3	19.7	0.00e+00	0	43	0	1150287872	6	3884
2026-01-26 12:02:28.40	138.86	32.54	-22.8	-23.6	19.6	0.00e+00	0	44	0	1155530752	6	3962
2026-01-26 12:02:29.41	138.76	32.75	-22.9	-23.7	19.5	0.00e+00	0	44	0	1161822208	6	3983
2026-01-26 12:02:30.41	138.66	32.95	-22.7	-23.5	19.6	0.00e+00	0	44	0	1167065088	6	3928
2026-01-26 12:02:31.40	138.56	33.15	-22.8	-23.6	19.6	0.00e+00	0	44	0	1172307968	6	3946
2026-01-26 12:02:32.41	138.45	33.36	-22.8	-23.5	19.7	0.00e+00	0	44	0	1178599424	6	3927
2026-01-26 12:02:33.42	138.35	33.57	-22.7	-23.3	19.7	0.00e+00	0	44	0	1183842304	6	3888
2026-01-26 12:02:34.42	138.24	33.78	-22.7	-23.5	19.7	0.00e+00	0	44	0	1189085184	6	3931
2026-01-26 12:02:35.42	138.13	33.99	-22.8	-23.6	19.6	0.00e+00	0	44	0	1195376640	6	3948
2026-01-26 12:02:36.42	138.02	34.20	-22.6	-23.3	19.8	0.00e+00	0	44	0	1200619520	6	3865
2026-01-26 12:02:37.42	137.91	34.41	-22.7	-23.4	19.7	0.00e+00	0	44	0	1206910976	6	3893
2026-01-26 12:02:38.43	137.79	34.63	-22.7	-23.4	19.8	0.00e+00	0	44	0	1212153856	6	3897
2026-01-26 12:02:39.43	137.68	34.85	-22.7	-23.4	19.8	0.00e+00	0	44	0	1217396736	6	3891
2026-01-26 12:02:40.44	137.56	35.07	-22.8	-23.5	19.7	0.00e+00	0	44	0	1223688192	6	3934
2026-01-26 12:02:41.44	137.44	35.28	-22.8	-23.6	19.6	1.10e-06	0	43	0	1228931072	6	3951
2026-01-26 12:02:42.44	137.32	35.50	-22.9	-23.8	19.5	0.00e+00	0	44	0	1235222528	6	4002
2026-01-26 12:02:43.44	137.20	35.72	-23.0	-24.0	19.5	0.00e+00	0	44	0	1240465408	6	4037
2026-01-26 12:02:44.45	137.07	35.95	-23.0	-23.9	19.5	0.00e+00	0	44	0	1245708288	6	4025
2026-01-26 12:02:45.45	136.95	36.17	-22.8	-23.6	19.7	0.00e+00	0	44	0	1251999744	6	3954
2026-01-26 12:02:46.45	136.82	36.40	-22.7	-23.4	19.8	0.00e+00	0	44	0	1257242624	6	3903
2026-01-26 12:02:47.45	136.69	36.62	-22.8	-23.6	19.7	0.00e+00	0	44	0	1262485504	6	3955
2026-01-26 12:02:48.45	136.56	36.85	-22.8	-23.6	19.7	0.00e+00	0	44	0	1268776960	6	3942
2026-01-26 12:02:49.45	136.43	37.08	-22.6	-23.2	19.9	0.00e+00	0	44	0	1274019840	6	3852
2026-01-26 12:02:50.46	136.30	37.31	-22.8	-23.7	19.7	3.40e-06	0	44	0	1279262720	6	3963
2026-01-26 12:02:51.46	136.16	37.55	-22.9	-23.8	19.6	0.00e+00	0	44	0	1285554176	6	3985
2026-01-26 12:02:52.46	136.02	37.78	-22.8	-23.6	19.7	0.00e+00	0	44	0	1290797056	6	3937
2026-01-26 12:02:53.47	135.88	38.02	-22.8	-23.6	19.7	4.50e-06	0	44	0	1297088512	6	3949
2026-01-26 12:02:54.47	135.74	38.25	-22.8	-23.6	19.7	0.00e+00	0	44	0	1302331392	6	3950
2026-01-26 12:02:55.48	135.59	38.49	-22.7	-23.4	19.8	0.00e+00	0	44	0	1308622848	6	3890
2026-01-26 12:02:56.49	135.44	38.74	-22.8	-23.5	19.7	0.00e+00	0	44	0	1313865728	6	3921
2026-01-26 12:02:57.49	135.30	38.98	-22.7	-23.4	19.8	0.00e+00	0	44	0	1319108608	6	3902
2026-01-26 12:02:58.50	135.14	39.22	-22.6	-23.2	19.9	0.00e+00	0	44	0	1325400064	6	3855
2026-01-26 12:02:59.51	134.99	39.47	-22.5	-23.0	20.0	1.10e-06	0	44	0	1330642944	6	3805
2026-01-26 12:03:00.51	134.83	39.71	-22.6	-23.1	19.9	0.00e+00	0	44	0	1335885824	6	3834
2026-01-26 12:03:01.51	134.67	39.96	-22.7	-23.3	19.9	0.00e+00	0	44	0	1342177280	6	3864
2026-01-26 12:03:02.51	134.51	40.21	-22.8	-23.6	19.7	2.20e-06	0	44	0	1347420160	6	3950
2026-01-26 12:03:03.52	134.35	40.46	-23.1	-24.3	19.4	0.00e+00	0	44	0	1353711616	6	4114
2026-01-26 12:03:04.52	134.18	40.71	-23.3	-24.7	19.2	0.00e+00	0	44	0	1358954496	6	4214
2026-01-26 12:03:05.52	134.01	40.97	-23.3	-24.6	19.2	0.00e+00	0	44	0	1364197376	6	4194
2026-01-26 12:03:06.53	133.84	41.22	-23.1	-24.2	19.5	0.00e+00	0	44	0	1370488832	6	4082
2026-01-26 12:03:07.53	133.67	41.48	-23.0	-24.0	19.6	0.00e+00	0	44	0	1375731712	6	4039
2026-01-26 12:03:08.53	133.49	41.74	-23.1	-24.3	19.5	0.00e+00	0	44	0	1382023168	6	4107
2026-01-26 12:03:09.53	133.31	41.99	-23.2	-24.5	19.3	0.00e+00	0	44	0	1387266048	6	4163
2026-01-26 12:03:10.54	133.13	42.26	-23.2	-24.5	19.3	0.00e+00	0	44	0	1392508928	6	4153
2026-01-26 12:03:11.54	132.94	42.52	-23.3	-24.7	19.3	0.00e+00	0	44	0	1398800384	6	4213
2026-01-26 12:03:12.54	132.75	42.78	-23.4	-24.9	19.1	0.00e+00	0	44	0	1404043264	6	4257
2026-01-26 12:03:13.55	132.56	43.05	-23.4	-24.8	19.2	0.00e+00	0	44	0	1409286144	6	4240
2026-01-26 12:03:14.55	132.36	43.32	-23.4	-24.9	19.1	0.00e+00	0	44	0	1415577600	6	4259
2026-01-26 12:03:15.55	132.16	43.58	-23.5	-25.0	19.1	0.00e+00	0	44	0	1420820480	6	4299
2026-01-26 12:03:16.55	131.96	43.85	-23.7	-24.9	18.9	0.00e+00	0	44	0	1426063360	7	4165
2026-01-26 12:03:17.55	131.76	44.12	-23.7	-25.0	18.8	0.00e+00	0	44	0	1432354816	7	4174
2026-01-26 12:03:18.55	131.55	44.40	-23.5	-24.5	19.1	0.00e+00	0	44	0	1437597696	7	4043
2026-01-26 12:03:19.55	131.33	44.67	-23.4	-24.3	19.2	0.00e+00	0	44	0	1443889152	7	3996
2026-01-26 12:03:20.55	131.12	44.94	-23.4	-24.3	19.2	0.00e+00	0	44	0	1449132032	7	3997
2026-01-26 12:03:21.56	130.90	45.22	-23.3	-24.2	19.3	0.00e+00	0	44	0	1454374912	7	3986
2026-01-26 12:03:22.56	130.67	45.50	-23.3	-24.2	19.3	0.00e+00	0	44	0	1460666368	7	3979
2026-01-26 12:03:23.57	130.44	45.78	-23.3	-24.1	19.4	0.00e+00	0	44	0	1465909248	7	3939
2026-01-26 12:03:24.58	130.21	46.07	-23.3	-24.1	19.4	0.00e+00	0	44	0	1472200704	7	3942
2026-01-26 12:03:25.58	129.97	46.35	-23.2	-23.9	19.5	0.00e+00	0	44	0	1477443584	7	3891
2026-01-26 12:03:26.58	129.73	46.63	-23.1	-23.7	19.6	0.00e+00	0	44	0	1482686464	7	3854
2026-01-26 12:03:27.58	129.48	46.92	-23.0	-23.5	19.7	0.00e+00	0	44	0	1488977920	7	3813
2026-01-26 12:03:28.58	129.23	47.20	-23.1	-23.7	19.6	0.00e+00	0	44	0	1494220800	7	3845
2026-01-26 12:03:29.59	128.98	47.50	-23.2	-23.8	19.5	0.00e+00	0	44	0	1499463680	7	3881
2026-01-26 12:03:30.59	128.72	47.78	-23.3	-24.2	19.3	0.00e+00	0	44	0	1505755136	7	3969
2026-01-26 12:03:31.59	128.45	48.07	-23.4	-24.3	19.3	0.00e+00	0	44	0	1510998016	7	3988
2026-01-26 12:03:32.60	128.18	48.37	-23.4	-24.3	19.3	0.00e+00	0	44	0	1517289472	7	3991
2026-01-26 12:03:33.60	127.90	48.66	-23.5	-24.4	19.2	0.00e+00	0	44	0	1522532352	7	4029
2026-01-26 12:03:34.60	127.62	48.96	-23.6	-24.7	19.1	0.00e+00	0	44	0	1527775232	7	4093
2026-01-26 12:03:35.61	127.33	49.25	-23.9	-25.3	18.8	0.00e+00	0	44	0	1534066688	7	4243
2026-01-26 12:03:36.60	127.05	49.55	-24.0	-25.0	18.7	0.00e+00	0	44	0	1539309568	8	4063
2026-01-26 12:03:37.61	126.75	49.85	-23.9	-24.8	18.8	0.00e+00	0	44	0	1544552448	8	4015
2026-01-26 12:03:38.62	126.44	50.15	-24.0	-25.1	18.7	0.00e+00	0	44	0	1550843904	8	4086
2026-01-26 12:03:39.61	126.13	50.45	-24.3	-25.6	18.4	0.00e+00	0	44	0	1556086784	8	4204
2026-01-26 12:03:40.62	125.81	50.75	-24.6	-25.8	18.1	0.00e+00	0	44	0	1562378240	9	4145
2026-01-26 12:03:41.62	125.49	51.05	-24.5	-25.6	18.2	0.00e+00	0	44	0	1567621120	9	4092
2026-01-26 12:03:42.62	125.16	51.35	-24.0	-24.7	18.7	0.00e+00	0	44	0	1572864000	9	3866
2026-01-26 12:03:43.63	124.82	51.66	-23.8	-24.5	19.0	0.00e+00	0	44	0	1579155456	8	3939
2026-01-26 12:03:44.64	124.48	51.97	-23.8	-24.6	19.0	0.00e+00	0	44	0	1584398336	8	3948
2026-01-26 12:03:45.65	124.13	52.28	-23.9	-24.9	18.8	0.00e+00	0	44	0	1590689792	8	4036
2026-01-26 12:03:46.64	123.77	52.58	-24.0	-25.2	18.7	0.00e+00	0	44	0	1595932672	8	4097
2026-01-26 12:03:47.65	123.40	52.89	-23.8	-24.6	19.0	0.00e+00	0	44	0	1601175552	8	3951
2026-01-26 12:03:48.64	123.04	53.19	-23.7	-24.5	19.1	0.00e+00	0	44	0	1607467008	8	3922
2026-01-26 12:03:49.64	122.65	53.50	-23.9	-24.7	18.9	0.00e+00	0	44	0	1612709888	8	3985
2026-01-26 12:03:50.64	122.27	53.81	-23.9	-24.9	18.8	0.00e+00	0	44	0	1617952768	8	4032
2026-01-26 12:03:51.64	121.87	54.12	-23.9	-24.9	18.9	0.00e+00	0	44	0	1624244224	8	4027
2026-01-26 12:03:52.64	121.46	54.43	-24.0	-25.1	18.8	0.00e+00	0	44	0	1629487104	8	4072
2026-01-26 12:03:53.64	121.05	54.74	-23.9	-24.9	18.8	0.00e+00	0	44	0	1635778560	8	4036
2026-01-26 12:03:54.65	120.62	55.05	-24.0	-24.9	18.8	0.00e+00	0	44	0	1641021440	8	4037
2026-01-26 12:03:55.65	120.19	55.36	-23.9	-24.9	18.8	0.00e+00	0	44	0	1646264320	8	4030
2026-01-26 12:03:56.65	119.74	55.67	-23.9	-24.8	18.9	0.00e+00	0	44	0	1652555776	8	4005
2026-01-26 12:03:57.65	119.29	55.99	-23.9	-24.8	18.9	0.00e+00	0	44	0	1657798656	8	4005
2026-01-26 12:03:58.65	118.83	56.30	-23.7	-24.3	19.2	0.00e+00	0	44	0	1663041536	8	3886
2026-01-26 12:03:59.66	118.35	56.61	-23.8	-24.7	19.0	0.00e+00	0	44	0	1669332992	8	3971
2026-01-26 12:04:00.66	117.86	56.92	-23.8	-24.5	19.1	0.00e+00	0	44	0	1674575872	8	3938
2026-01-26 12:04:01.67	117.36	57.23	-23.5	-24.0	19.3	0.00e+00	0	44	0	1679818752	8	3811
2026-01-26 12:04:02.67	116.86	57.54	-23.5	-24.1	19.3	0.00e+00	0	44	0	1686110208	8	3834
2026-01-26 12:04:03.67	116.34	57.85	-23.6	-24.2	19.2	0.00e+00	0	44	0	1691353088	8	3857
2026-01-26 12:04:04.68	115.80	58.16	-23.7	-24.4	19.1	0.00e+00	0	44	0	1697644544	8	3918
2026-01-26 12:04:05.68	115.26	58.47	-23.9	-24.9	18.9	0.00e+00	0	44	0	1702887424	8	4023
2026-01-26 12:04:06.69	114.69	58.78	-23.7	-24.5	19.1	0.00e+00	0	44	0	1709178880	8	3924
2026-01-26 12:04:07.69	114.12	59.09	-23.7	-24.4	19.1	0.00e+00	0	44	0	1714421760	8	3917
2026-01-26 12:04:08.70	113.53	59.39	-24.0	-25.1	18.8	0.00e+00	0	44	0	1719664640	8	4077
2026-01-26 12:04:09.70	112.94	59.70	-23.8	-24.5	19.1	0.00e+00	0	44	0	1725956096	8	3943
2026-01-26 12:04:10.71	112.32	60.00	-23.5	-24.1	19.3	0.00e+00	0	44	0	1731198976	8	3830
2026-01-26 12:04:11.72	111.69	60.30	-23.4	-23.8	19.4	0.00e+00	0	44	0	1737490432	8	3781
2026-01-26 12:04:12.73	111.04	60.60	-23.5	-24.0	19.4	0.00e+00	0	44	0	1742733312	8	3830
2026-01-26 12:04:13.73	110.38	60.90	-23.3	-23.6	19.6	0.00e+00	0	44	0	1747976192	8	3721
2026-01-26 12:04:14.74	109.70	61.20	-23.2	-23.8	19.7	0.00e+00	0	44	0	1754267648	7	3878
2026-01-26 12:04:15.74	109.02	61.49	-23.4	-24.3	19.4	0.00e+00	0	44	0	1759510528	7	3998
2026-01-26 12:04:16.75	108.30	61.78	-23.1	-23.7	19.7	0.00e+00	0	44	0	1764753408	7	3857
2026-01-26 12:04:17.76	107.57	62.07	-23.0	-23.5	19.9	0.00e+00	0	44	0	1771044864	7	3802
2026-01-26 12:04:18.77	106.83	62.36	-23.3	-24.1	19.5	0.00e+00	0	44	0	1776287744	7	3957
2026-01-26 12:04:19.77	106.07	62.64	-23.0	-23.5	19.9	0.00e+00	0	44	0	1782579200	7	3798
2026-01-26 12:04:20.78	105.29	62.92	-22.7	-23.3	20.2	0.00e+00	0	44	0	1787822080	6	3859
2026-01-26 12:04:21.78	104.50	63.20	-22.6	-23.2	20.2	0.00e+00	0	44	0	1794113536	6	3842
2026-01-26 12:04:22.78	103.69	63.47	-22.4	-22.7	20.5	0.00e+00	0	44	0	1799356416	6	3722
2026-01-26 12:04:23.78	102.86	63.73	-22.5	-22.9	20.4	0.00e+00	0	44	0	1804599296	6	3778
2026-01-26 12:04:24.77	102.01	63.99	-22.5	-22.9	20.4	0.00e+00	0	44	0	1810890752	6	3782
2026-01-26 12:04:25.78	101.14	64.25	-22.2	-22.8	20.7	0.00e+00	0	44	0	1816133632	5	3851
2026-01-26 12:04:26.79	100.24	64.51	-22.1	-22.5	20.8	0.00e+00	0	44	0	1821376512	5	3786
2026-01-26 12:04:27.79	99.33	64.76	-22.1	-22.5	20.8	0.00e+00	0	44	0	1827667968	5	3794
2026-01-26 12:04:28.79	98.40	65.00	-21.9	-22.3	21.0	0.00e+00	0	44	0	1832910848	5	3730
2026-01-26 12:04:29.81	97.44	65.25	-22.1	-22.6	20.8	0.00e+00	0	44	0	1838153728	5	3816
2026-01-26 12:04:30.81	96.47	65.48	-22.3	-23.0	20.6	0.00e+00	0	44	0	1844445184	5	3909
2026-01-26 12:04:31.81	95.48	65.71	-22.3	-23.1	20.6	0.00e+00	0	44	0	1849688064	5	3924
2026-01-26 12:04:32.81	94.47	65.93	-21.9	-22.3	20.9	0.00e+00	0	44	0	1855979520	5	3739
2026-01-26 12:04:33.81	93.44	66.14	-21.8	-22.4	21.1	0.00e+00	0	44	0	1861222400	4	3860
2026-01-26 12:04:34.81	92.39	66.35	-21.8	-22.5	21.0	0.00e+00	0	44	0	1866465280	4	3901
2026-01-26 12:04:35.82	91.31	66.56	-22.2	-23.4	20.6	0.00e+00	0	44	0	1872756736	4	4107
2026-01-26 12:04:36.82	90.21	66.75	-22.0	-22.9	20.9	0.00e+00	0	44	0	1877999616	4	3981
2026-01-26 12:04:37.82	89.10	66.94	-21.8	-22.4	21.1	0.00e+00	0	44	0	1884291072	4	3862
2026-01-26 12:04:38.82	87.97	67.11	-21.8	-22.4	21.1	0.00e+00	0	44	0	1889533952	4	3874
2026-01-26 12:04:39.82	86.82	67.29	-22.0	-22.9	20.8	0.00e+00	0	44	0	1894776832	4	3991
2026-01-26 12:04:40.82	85.66	67.45	-21.9	-22.7	21.0	0.00e+00	0	44	0	1900019712	4	3933
2026-01-26 12:04:41.82	84.47	67.60	-21.8	-22.5	21.0	0.00e+00	0	44	0	1906311168	4	3893
2026-01-26 12:04:42.82	83.27	67.75	-22.0	-22.9	20.8	0.00e+00	0	44	0	1911554048	4	3991
2026-01-26 12:04:43.83	82.03	67.89	-22.0	-22.9	20.8	0.00e+00	0	44	0	1917845504	4	4002
2026-01-26 12:04:44.83	80.80	68.01	-21.8	-22.5	21.0	0.00e+00	0	44	0	1923088384	4	3909
2026-01-26 12:04:45.84	79.53	68.13	-21.9	-22.7	21.0	0.00e+00	0	44	0	1929379840	4	3946
2026-01-26 12:04:46.84	78.27	68.24	-21.8	-22.5	21.1	0.00e+00	0	44	0	1934622720	4	3905
2026-01-26 12:04:47.84	76.99	68.34	-21.8	-22.5	21.1	0.00e+00	0	44	0	1939865600	4	3898
2026-01-26 12:04:48.84	75.70	68.43	-21.7	-22.2	21.2	0.00e+00	0	44	0	1946157056	4	3831
2026-01-26 12:04:49.85	74.38	68.51	-21.9	-22.6	21.2	0.00e+00	0	44	0	1951399936	4	3904
2026-01-26 12:04:50.85	73.07	68.57	-21.8	-22.5	21.3	0.00e+00	0	44	0	1956642816	4	3883
2026-01-26 12:04:51.85	71.75	68.63	-21.9	-22.6	21.2	0.00e+00	0	44	0	1962934272	4	3905
2026-01-26 12:04:52.85	70.43	68.68	-21.7	-22.3	21.4	0.00e+00	0	44	0	1968177152	4	3826
2026-01-26 12:04:53.85	69.09	68.71	-21.8	-22.4	21.3	0.00e+00	0	44	0	1973420032	4	3873
2026-01-26 12:04:54.85	67.76	68.74	-21.8	-22.5	21.3	0.00e+00	0	44	0	1979711488	4	3883
2026-01-26 12:04:55.85	66.42	68.75	-21.9	-22.5	21.2	0.00e+00	0	44	0	1984954368	4	3888
2026-01-26 12:04:56.85	65.08	68.76	-21.9	-22.6	21.2	0.00e+00	0	44	0	1991245824	4	3900
2026-01-26 12:04:57.85	63.74	68.75	-21.7	-22.1	21.4	0.00e+00	0	44	0	1996488704	4	3800
2026-01-26 12:04:58.85	62.40	68.73	-21.9	-22.6	21.2	0.00e+00	0	44	0	2001731584	4	3909
2026-01-26 12:04:59.86	61.05	68.70	-21.6	-22.1	21.5	0.00e+00	0	44	0	2008023040	4	3780
2026-01-26 12:05:00.87	59.71	68.66	-21.8	-22.4	21.3	0.00e+00	0	44	0	2013265920	4	3869
2026-01-26 12:05:01.87	58.39	68.61	-21.9	-22.7	21.2	0.00e+00	0	44	0	2019557376	4	3934
2026-01-26 12:05:02.88	57.06	68.55	-22.1	-23.0	21.1	0.00e+00	0	44	0	2024800256	4	4010
2026-01-26 12:05:03.88	55.75	68.48	-21.8	-22.3	21.4	0.00e+00	0	44	0	2030043136	4	3844
2026-01-26 12:05:04.89	54.44	68.40	-21.8	-22.3	21.4	0.00e+00	0	44	0	2036334592	4	3847
2026-01-26 12:05:05.88	53.16	68.31	-21.9	-22.6	21.2	0.00e+00	0	44	0	2041577472	4	3903
2026-01-26 12:05:06.89	51.88	68.21	-21.7	-22.1	21.5	0.00e+00	0	44	0	2046820352	4	3787
2026-01-26 12:05:07.89	50.62	68.10	-21.7	-22.2	21.4	0.00e+00	0	44	0	2053111808	4	3817
2026-01-26 12:05:08.90	49.36	67.97	-21.8	-22.4	21.4	0.00e+00	0	44	0	2058354688	4	3861
2026-01-26 12:05:09.91	48.12	67.84	-22.0	-22.7	21.1	3.40e-06	0	44	0	2064646144	4	3942
2026-01-26 12:05:10.91	46.90	67.70	-21.9	-22.6	21.2	0.00e+00	0	44	0	2069889024	4	3916
2026-01-26 12:05:11.90	45.72	67.56	-22.1	-23.0	21.0	0.00e+00	0	44	0	2075131904	4	4001
2026-01-26 12:05:12.91	44.52	67.40	-22.2	-23.3	20.9	5.70e-06	0	44	0	2081423360	4	4071
2026-01-26 12:05:13.91	43.36	67.23	-22.3	-23.4	20.8	0.00e+00	0	44	0	2086666240	4	4107
2026-01-26 12:05:14.91	42.22	67.06	-22.4	-23.7	20.7	0.00e+00	0	44	0	2091909120	4	4176
2026-01-26 12:05:15.91	41.10	66.88	-22.4	-23.1	20.7	0.00e+00	0	44	0	2098200576	5	3917
2026-01-26 12:05:16.91	39.99	66.69	-22.2	-22.8	20.9	0.00e+00	0	44	0	2103443456	5	3850
2026-01-26 12:05:17.92	38.90	66.49	-21.9	-22.1	21.2	0.00e+00	0	44	0	2108686336	5	3694
2026-01-26 12:05:18.92	37.84	66.29	-21.9	-22.1	21.2	0.00e+00	0	44	0	2114977792	5	3684
2026-01-26 12:05:19.92	36.79	66.08	-22.2	-22.7	21.0	0.00e+00	0	44	0	2120220672	5	3815
2026-01-26 12:05:20.92	35.77	65.86	-22.3	-23.0	20.8	0.00e+00	0	44	0	2126512128	5	3891
2026-01-26 12:05:21.92	34.77	65.64	-22.5	-23.4	20.6	0.00e+00	0	44	0	2131755008	5	3997
2026-01-26 12:05:22.93	33.78	65.41	-22.4	-23.1	20.7	0.00e+00	0	44	0	2138046464	5	3912
2026-01-26 12:05:23.93	32.82	65.17	-22.2	-22.7	20.9	0.00e+00	0	44	0	2143289344	5	3821
2026-01-26 12:05:24.93	31.88	64.93	-22.0	-22.4	21.1	2.20e-06	0	44	0	2148532224	5	3752
2026-01-26 12:05:25.93	30.95	64.69	-22.2	-22.8	20.9	0.00e+00	0	44	0	2154823680	5	3841
2026-01-26 12:05:26.94	30.05	64.43	-22.2	-22.7	21.0	0.00e+00	0	44	0	2160066560	5	3814
2026-01-26 12:05:27.94	29.16	64.18	-22.3	-22.9	20.8	0.00e+00	0	44	0	2165309440	5	3873
2026-01-26 12:05:28.94	28.30	63.92	-22.2	-22.8	20.9	0.00e+00	0	44	0	2171600896	5	3833
2026-01-26 12:05:29.95	27.45	63.65	-22.2	-22.7	20.9	0.00e+00	0	44	0	2176843776	5	3810
2026-01-26 12:05:30.95	26.63	63.39	-22.3	-23.0	20.8	0.00e+00	0	44	0	2182086656	5	3877
2026-01-26 12:05:31.94	25.83	63.12	-22.4	-23.2	20.7	0.00e+00	0	44	0	2188378112	5	3939
2026-01-26 12:05:32.94	25.05	62.84	-22.7	-23.8	20.4	0.00e+00	0	44	0	2193620992	5	4078
2026-01-26 12:05:33.95	24.27	62.56	-22.8	-24.0	20.3	0.00e+00	0	44	0	2199912448	5	4137
2026-01-26 12:05:34.96	23.51	62.28	-23.0	-24.3	20.1	0.00e+00	0	44	0	2205155328	5	4210
2026-01-26 12:05:35.97	22.77	61.99	-22.9	-24.3	20.1	0.00e+00	0	44	0	2210398208	5	4199
2026-01-26 12:05:36.97	22.06	61.70	-23.1	-24.2	19.9	0.00e+00	0	44	0	2216689664	6	4068
2026-01-26 12:05:37.97	21.36	61.41	-23.3	-24.4	19.8	0.00e+00	0	44	0	2221932544	6	4126
2026-01-26 12:05:38.98	20.67	61.12	-22.8	-23.5	20.3	0.00e+00	0	44	0	2228224000	6	3895
2026-01-26 12:05:39.99	20.00	60.82	-22.9	-23.6	20.3	0.00e+00	0	44	0	2233466880	6	3920
2026-01-26 12:05:40.99	19.35	60.52	-23.1	-24.2	20.0	0.00e+00	0	44	0	2238709760	6	4065
2026-01-26 12:05:41.99	18.71	60.23	-23.2	-24.2	19.9	0.00e+00	0	44	0	2245001216	6	4075
2026-01-26 12:05:42.99	18.09	59.93	-23.1	-24.2	20.0	0.00e+00	0	44	0	2250244096	6	4058
2026-01-26 12:05:43.98	17.49	59.63	-23.4	-24.7	19.7	0.00e+00	0	44	0	2255486976	6	4192
2026-01-26 12:05:44.99	16.89	59.32	-23.3	-24.4	19.8	0.00e+00	0	44	0	2261778432	6	4118
2026-01-26 12:05:46.00	16.31	59.02	-23.1	-24.1	20.0	0.00e+00	0	44	0	2267021312	6	4039
2026-01-26 12:05:47.00	15.74	58.71	-22.9	-23.6	20.3	0.00e+00	0	44	0	2273312768	6	3922
2026-01-26 12:05:48.01	15.18	58.40	-23.1	-24.1	20.0	0.00e+00	0	44	0	2278555648	6	4027
2026-01-26 12:05:49.02	14.64	58.09	-23.3	-24.6	19.8	0.00e+00	0	44	0	2283798528	6	4173
2026-01-26 12:05:50.02	14.11	57.78	-23.5	-24.5	19.5	0.00e+00	0	44	0	2290089984	7	4027
2026-01-26 12:05:51.02	13.60	57.48	-23.4	-24.2	19.7	0.00e+00	0	44	0	2295332864	7	3956
2026-01-26 12:05:52.03	13.09	57.16	-23.5	-24.5	19.6	0.00e+00	0	44	0	2301624320	7	4017
2026-01-26 12:05:53.03	12.60	56.85	-23.8	-25.0	19.3	0.00e+00	0	44	0	2306867200	7	4161
2026-01-26 12:05:54.04	12.11	56.54	-23.6	-24.6	19.5	0.00e+00	0	44	0	2312110080	7	4045
2026-01-26 12:05:55.04	11.64	56.23	-23.5	-24.5	19.6	0.00e+00	0	44	0	2318401536	7	4016
2026-01-26 12:05:56.04	11.18	55.92	-23.6	-24.8	19.4	0.00e+00	0	44	0	2323644416	7	4090
2026-01-26 12:05:57.05	10.73	55.61	-23.5	-24.4	19.6	0.00e+00	0	44	0	2328887296	7	3996
2026-01-26 12:05:58.05	10.29	55.30	-23.7	-24.8	19.4	0.00e+00	0	44	0	2335178752	7	4089
2026-01-26 12:05:59.05	9.86	54.99	-23.6	-24.8	19.4	0.00e+00	0	44	0	2340421632	7	4091
2026-01-26 12:06:00.05	9.44	54.68	-23.7	-25.0	19.3	0.00e+00	0	44	0	2346713088	7	4144
2026-01-26 12:06:01.05	9.03	54.37	-23.5	-24.3	19.6	0.00e+00	0	44	0	2351955968	7	3985
2026-01-26 12:06:02.05	8.62	54.06	-23.3	-24.0	19.8	0.00e+00	0	44	0	2357198848	7	3896
2026-01-26 12:06:03.05	8.23	53.76	-23.4	-24.2	19.6	0.00e+00	0	44	0	2363490304	7	3964
2026-01-26 12:06:04.05	7.84	53.45	-23.4	-24.1	19.7	0.00e+00	0	44	0	2368733184	7	3933
2026-01-26 12:06:05.05	7.47	53.14	-23.4	-24.1	19.7	0.00e+00	0	44	0	2373976064	7	3933
2026-01-26 12:06:06.06	7.09	52.83	-23.6	-24.7	19.4	0.00e+00	0	44	0	2380267520	7	4068
2026-01-26 12:06:07.07	6.73	52.52	-23.8	-25.0	19.2	0.00e+00	0	44	0	2385510400	7	4153
2026-01-26 12:06:08.07	6.37	52.22	-23.9	-25.2	19.1	0.00e+00	0	44	0	2391801856	7	4205
2026-01-26 12:06:09.08	6.02	51.91	-23.5	-24.5	19.5	0.00e+00	0	44	0	2397044736	7	4029
2026-01-26 12:06:10.09	5.68	51.60	-23.5	-24.4	19.6	0.00e+00	0	44	0	2402287616	7	3989
2026-01-26 12:06:11.09	5.35	51.30	-23.9	-25.2	19.1	0.00e+00	0	44	0	2408579072	7	4199
2026-01-26 12:06:12.09	5.02	51.00	-23.9	-25.4	19.0	0.00e+00	0	44	0	2413821952	7	4261
2026-01-26 12:06:13.09	4.70	50.70	-23.9	-25.3	19.1	0.00e+00	0	44	0	2420113408	7	4233
2026-01-26 12:06:14.09	4.39	50.40	-23.5	-24.4	19.5	0.00e+00	0	44	0	2425356288	7	3988
2026-01-26 12:06:15.10	4.08	50.10	-23.2	-23.9	19.8	0.00e+00	0	44	0	2430599168	7	3869
2026-01-26 12:06:16.10	3.78	49.80	-23.3	-24.1	19.7	0.00e+00	0	44	0	2436890624	7	3927
2026-01-26 12:06:17.10	3.48	49.51	-23.2	-23.8	19.9	0.00e+00	0	44	0	2442133504	7	3848
2026-01-26 12:06:18.10	3.19	49.21	-23.1	-23.6	19.9	0.00e+00	0	44	0	2447376384	7	3806
2026-01-26 12:06:19.11	2.91	48.91	-23.1	-23.6	19.9	0.00e+00	0	44	0	2453667840	7	3805
2026-01-26 12:06:20.10	2.63	48.62	-23.0	-23.3	20.1	0.00e+00	0	44	0	2458910720	7	3746
2026-01-26 12:06:21.11	2.35	48.33	-22.9	-23.2	20.1	0.00e+00	0	44	0	2464153600	7	3729
2026-01-26 12:06:22.11	2.09	48.04	-22.9	-23.3	20.1	0.00e+00	0	44	0	2470445056	7	3737
2026-01-26 12:06:23.11	1.82	47.75	-23.1	-23.5	19.9	0.00e+00	0	44	0	2475687936	7	3792
2026-01-26 12:06:24.12	1.56	47.46	-22.9	-23.1	20.1	0.00e+00	0	44	0	2481979392	7	3702
2026-01-26 12:06:25.12	1.31	47.17	-22.9	-23.1	20.1	0.00e+00	0	44	0	2487222272	7	3704
2026-01-26 12:06:26.12	1.06	46.89	-23.1	-23.6	19.9	0.00e+00	0	44	0	2493513728	7	3823
2026-01-26 12:06:27.13	0.82	46.60	-23.0	-23.3	20.0	0.00e+00	0	44	0	2498756608	7	3761
2026-01-26 12:06:28.14	0.57	46.32	-23.0	-23.3	20.0	0.00e+00	0	44	0	2503999488	7	3759
2026-01-26 12:06:29.14	0.34	46.04	-23.0	-23.4	20.0	0.00e+00	0	44	0	2510290944	7	3771
2026-01-26 12:06:30.14	0.11	45.76	-23.2	-23.7	19.8	0.00e+00	0	44	0	2515533824	7	3839
2026-01-26 12:06:31.14	359.88	45.48	-22.8	-23.1	20.1	0.00e+00	0	44	0	2520776704	7	3691
2026-01-26 12:06:32.13	359.66	45.20	-22.8	-23.0	20.2	0.00e+00	0	44	0	2527068160	7	3672
2026-01-26 12:06:33.13	359.44	44.93	-22.9	-23.3	20.0	0.00e+00	0	44	0	2532311040	7	3741
2026-01-26 12:06:34.13	359.23	44.65	-23.1	-23.6	19.8	0.00e+00	0	44	0	2537553920	7	3826
2026-01-26 12:06:35.13	359.02	44.38	-23.2	-23.8	19.7	0.00e+00	0	44	0	2543845376	7	3872
2026-01-26 12:06:36.13	358.81	44.11	-23.0	-23.4	20.0	0.00e+00	0	44	0	2549088256	7	3765
2026-01-26 12:06:37.13	358.60	43.84	-22.9	-23.2	20.0	0.00e+00	0	44	0	2555379712	7	3722
2026-01-26 12:06:38.13	358.40	43.57	-22.9	-23.3	20.0	0.00e+00	0	44	0	2560622592	7	3738
2026-01-26 12:06:39.13	358.21	43.31	-23.1	-23.5	19.9	0.00e+00	0	44	0	2565865472	7	3795
2026-01-26 12:06:40.14	358.01	43.04	-22.8	-23.0	20.1	0.00e+00	0	44	0	2572156928	7	3683
2026-01-26 12:06:41.14	357.82	42.78	-23.1	-23.6	19.8	0.00e+00	0	44	0	2577399808	7	3827
2026-01-26 12:06:42.15	357.63	42.51	-23.0	-23.4	19.9	0.00e+00	0	44	0	2582642688	7	3768
2026-01-26 12:06:43.15	357.45	42.25	-22.9	-23.3	20.0	0.00e+00	0	44	0	2588934144	7	3748
2026-01-26 12:06:44.16	357.26	41.99	-22.9	-23.2	20.0	0.00e+00	0	44	0	2594177024	7	3735
2026-01-26 12:06:45.16	357.08	41.73	-22.8	-23.0	20.1	0.00e+00	0	44	0	2600468480	7	3685
2026-01-26 12:06:46.16	356.91	41.48	-22.8	-23.0	20.1	0.00e+00	0	44	0	2605711360	7	3692
2026-01-26 12:06:47.16	356.74	41.22	-22.9	-23.2	20.0	0.00e+00	0	44	0	2610954240	7	3733
2026-01-26 12:06:48.16	356.57	40.97	-22.6	-23.0	20.3	0.00e+00	0	44	0	2617245696	6	3786
2026-01-26 12:06:49.17	356.40	40.71	-22.5	-22.8	20.4	0.00e+00	0	44	0	2622488576	6	3729
2026-01-26 12:06:50.17	356.23	40.46	-22.4	-22.7	20.5	0.00e+00	0	44	0	2627731456	6	3720
2026-01-26 12:06:51.17	356.07	40.22	-22.3	-22.5	20.5	0.00e+00	0	44	0	2634022912	6	3677
2026-01-26 12:06:52.18	355.91	39.97	-22.4	-22.6	20.5	0.00e+00	0	44	0	2639265792	6	3688
2026-01-26 12:06:53.18	355.75	39.72	-22.4	-22.8	20.4	0.00e+00	0	44	0	2645557248	6	3730
2026-01-26 12:06:54.18	355.60	39.48	-22.4	-22.6	20.5	0.00e+00	0	44	0	2650800128	6	3697
2026-01-26 12:06:55.18	355.45	39.23	-22.3	-22.5	20.6	0.00e+00	0	44	0	2656043008	6	3675
2026-01-26 12:06:56.19	355.29	38.99	-22.4	-22.6	20.5	0.00e+00	0	44	0	2662334464	6	3706
2026-01-26 12:06:57.19	355.15	38.75	-22.4	-22.7	20.4	0.00e+00	0	44	0	2667577344	6	3726
2026-01-26 12:06:58.19	355.00	38.51	-22.5	-22.9	20.4	0.00e+00	0	44	0	2673868800	6	3755
2026-01-26 12:06:59.20	354.86	38.27	-22.2	-22.8	20.6	0.00e+00	0	44	0	2679111680	5	3847
2026-01-26 12:07:00.20	354.71	38.04	-22.1	-22.5	20.7	0.00e+00	0	44	0	2684354560	5	3786
2026-01-26 12:07:01.20	354.58	37.80	-22.1	-22.5	20.8	0.00e+00	0	44	0	2690646016	5	3786
2026-01-26 12:07:02.20	354.44	37.57	-22.1	-22.6	20.7	0.00e+00	0	44	0	2695888896	5	3796
2026-01-26 12:07:03.21	354.30	37.34	-22.2	-22.8	20.6	0.00e+00	0	44	0	2701131776	5	3856
2026-01-26 12:07:04.21	354.17	37.11	-22.3	-22.9	20.6	0.00e+00	0	44	0	2707423232	5	3875
2026-01-26 12:07:05.21	354.04	36.88	-22.3	-23.1	20.5	0.00e+00	0	44	0	2712666112	5	3909
2026-01-26 12:07:06.21	353.91	36.65	-22.4	-23.2	20.5	0.00e+00	0	44	0	2717908992	5	3934
2026-01-26 12:07:07.22	353.78	36.43	-22.4	-23.2	20.4	0.00e+00	0	44	0	2724200448	5	3951
2026-01-26 12:07:08.23	353.65	36.20	-22.5	-23.3	20.4	0.00e+00	0	44	0	2729443328	5	3970
2026-01-26 12:07:09.23	353.53	35.98	-22.6	-23.5	20.3	0.00e+00	0	44	0	2735734784	5	4015
2026-01-26 12:07:10.23	353.41	35.76	-22.6	-23.6	20.2	0.00e+00	0	44	0	2740977664	5	4032
2026-01-26 12:07:11.23	353.28	35.54	-22.7	-23.8	20.1	0.00e+00	0	44	0	2747269120	5	4080
2026-01-26 12:07:12.23	353.17	35.32	-22.7	-23.8	20.1	0.00e+00	0	44	0	2752512000	5	4089
2026-01-26 12:07:13.23	353.05	35.10	-22.8	-24.0	20.0	0.00e+00	0	44	0	2757754880	5	4145
2026-01-26 12:07:14.23	352.93	34.88	-22.9	-24.1	19.9	0.00e+00	0	44	0	2764046336	5	4170
2026-01-26 12:07:15.23	352.82	34.67	-22.8	-24.1	20.0	0.00e+00	0	44	0	2769289216	5	4157
2026-01-26 12:07:16.23	352.71	34.46	-22.9	-24.2	19.9	0.00e+00	0	44	0	2774532096	5	4186
2026-01-26 12:07:17.24	352.59	34.24	-22.9	-24.2	19.9	0.00e+00	0	44	0	2780823552	5	4189
2026-01-26 12:07:18.24	352.48	34.03	-23.0	-23.9	19.8	0.00e+00	0	44	0	2786066432	6	3997
2026-01-26 12:07:19.25	352.37	33.82	-23.0	-23.9	19.8	0.00e+00	0	44	0	2791309312	6	3985
2026-01-26 12:07:20.25	352.27	33.61	-23.1	-24.0	19.8	0.00e+00	0	44	0	2797600768	6	4025
2026-01-26 12:07:21.26	352.16	33.41	-22.8	-23.6	20.0	0.00e+00	0	44	0	2802843648	6	3921
2026-01-26 12:07:22.25	352.06	33.20	-22.8	-23.6	20.0	0.00e+00	0	44	0	2809135104	6	3923
2026-01-26 12:07:23.26	351.96	33.00	-22.9	-23.7	19.9	0.00e+00	0	44	0	2814377984	6	3940
2026-01-26 12:07:24.25	351.86	32.80	-22.8	-23.5	20.0	0.00e+00	0	44	0	2819620864	6	3908
2026-01-26 12:07:25.26	351.75	32.59	-22.8	-23.6	20.0	0.00e+00	0	44	0	2825912320	6	3919
2026-01-26 12:07:26.27	351.65	32.39	-22.8	-23.6	20.0	0.00e+00	0	44	0	2831155200	6	3914
2026-01-26 12:07:27.27	351.56	32.19	-22.9	-23.7	19.9	0.00e+00	0	44	0	2836398080	6	3952
2026-01-26 12:07:28.27	351.46	31.99	-22.9	-23.7	19.9	0.00e+00	0	44	0	2842689536	6	3942
2026-01-26 12:07:29.28	351.36	31.80	-22.9	-23.8	19.9	0.00e+00	0	44	0	2847932416	6	3967
2026-01-26 12:07:30.28	351.27	31.60	-22.9	-23.7	19.9	0.00e+00	0	44	0	2854223872	6	3959
2026-01-26 12:07:31.29	351.18	31.40	-23.0	-23.9	19.8	0.00e+00	0	44	0	2859466752	6	3999
2026-01-26 12:07:32.30	351.08	31.21	-23.1	-24.2	19.6	0.00e+00	0	44	0	2864709632	6	4078
2026-01-26 12:07:33.30	350.99	31.02	-23.2	-24.4	19.6	0.00e+00	0	44	0	2871001088	6	4116
2026-01-26 12:07:34.31	350.90	30.82	-23.1	-24.2	19.7	0.00e+00	0	44	0	2876243968	6	4058
2026-01-26 12:07:35.31	350.82	30.64	-23.2	-24.4	19.6	0.00e+00	0	44	0	2882535424	6	4106
2026-01-26 12:07:36.31	350.73	30.45	-23.3	-24.6	19.5	0.00e+00	0	44	0	2887778304	6	4164
2026-01-26 12:07:37.31	350.64	30.26	-23.1	-24.2	19.7	0.00e+00	0	44	0	2893021184	6	4063
2026-01-26 12:07:38.31	350.56	30.07	-23.1	-24.1	19.7	0.00e+00	0	44	0	2899312640	6	4039
2026-01-26 12:07:39.31	350.47	29.89	-23.1	-24.1	19.7	0.00e+00	0	44	0	2904555520	6	4048
2026-01-26 12:07:40.31	350.39	29.71	-23.1	-24.0	19.8	0.00e+00	0	44	0	2909798400	6	4021
2026-01-26 12:07:41.31	350.31	29.52	-23.0	-23.9	19.8	0.00e+00	0	44	0	2916089856	6	3996
2026-01-26 12:07:42.32	350.23	29.34	-23.0	-23.9	19.8	0.00e+00	0	44	0	2921332736	6	4003
2026-01-26 12:07:43.33	350.15	29.16	-23.1	-24.1	19.7	0.00e+00	0	44	0	2927624192	6	4036
2026-01-26 12:07:44.33	350.07	28.98	-23.1	-24.1	19.7	0.00e+00	0	44	0	2932867072	6	4040
2026-01-26 12:07:45.33	349.99	28.80	-23.0	-24.0	19.8	0.00e+00	0	44	0	2938109952	6	4016
2026-01-26 12:07:46.33	349.91	28.62	-23.2	-24.3	19.6	0.00e+00	0	44	0	2944401408	6	4090
2026-01-26 12:07:47.34	349.83	28.45	-23.2	-24.3	19.6	0.00e+00	0	44	0	2949644288	6	4101
2026-01-26 12:07:48.34	349.76	28.27	-23.2	-24.3	19.6	0.00e+00	0	44	0	2955935744	6	4088
2026-01-26 12:07:49.35	349.68	28.10	-23.1	-24.1	19.7	0.00e+00	0	44	0	2961178624	6	4054
2026-01-26 12:07:50.35	349.61	27.92	-23.1	-24.1	19.7	0.00e+00	0	44	0	2966421504	6	4043
2026-01-26 12:07:51.34	349.54	27.75	-23.1	-24.1	19.7	0.00e+00	0	44	0	2972712960	6	4046
2026-01-26 12:07:52.35	349.46	27.58	-23.2	-24.3	19.5	0.00e+00	0	44	0	2977955840	6	4104
2026-01-26 12:07:53.35	349.39	27.41	-23.1	-24.1	19.6	0.00e+00	0	44	0	2983198720	6	4045
2026-01-26 12:07:54.36	349.32	27.24	-23.0	-23.9	19.8	0.00e+00	0	44	0	2989490176	6	3987
2026-01-26 12:07:55.36	349.25	27.07	-23.0	-24.0	19.7	0.00e+00	0	44	0	2994733056	6	4010
2026-01-26 12:07:56.37	349.18	26.90	-23.1	-24.2	19.6	0.00e+00	0	44	0	3001024512	6	4067
2026-01-26 12:07:57.37	349.11	26.74	-23.1	-24.2	19.6	0.00e+00	0	44	0	3006267392	6	4071
2026-01-26 12:07:58.38	349.05	26.57	-23.2	-24.2	19.6	0.00e+00	0	44	0	3011510272	6	4078
2026-01-26 12:07:59.39	348.98	26.41	-23.2	-24.3	19.5	0.00e+00	0	44	0	3017801728	6	4094
2026-01-26 12:08:00.38	348.91	26.24	-23.2	-24.3	19.5	0.00e+00	0	44	0	3023044608	6	4097
2026-01-26 12:08:01.38	348.85	26.08	-23.3	-24.5	19.4	0.00e+00	0	44	0	3029336064	6	4137
2026-01-26 12:08:02.38	348.78	25.92	-23.3	-24.5	19.4	0.00e+00	0	44	0	3034578944	6	4143
2026-01-26 12:08:03.39	348.72	25.76	-23.2	-24.4	19.4	0.00e+00	0	44	0	3039821824	6	4133
2026-01-26 12:08:04.39	348.65	25.60	-23.3	-24.5	19.4	0.00e+00	0	44	0	3046113280	6	4140
2026-01-26 12:08:05.40	348.59	25.44	-23.4	-24.7	19.3	0.00e+00	0	44	0	3051356160	6	4208
2026-01-26 12:08:06.40	348.53	25.28	-23.4	-24.7	19.2	0.00e+00	0	44	0	3056599040	6	4204
2026-01-26 12:08:07.41	348.47	25.13	-23.3	-24.6	19.3	0.00e+00	0	44	0	3062890496	6	4176
2026-01-26 12:08:08.41	348.41	24.97	-23.4	-24.7	19.2	0.00e+00	0	44	0	3068133376	6	4211
2026-01-26 12:08:09.42	348.35	24.81	-23.5	-25.0	19.1	0.00e+00	0	44	0	3073376256	6	4262
2026-01-26 12:08:10.42	348.29	24.66	-23.4	-24.7	19.3	0.00e+00	0	44	0	3079667712	6	4199
2026-01-26 12:08:11.42	348.23	24.51	-23.4	-24.8	19.2	0.00e+00	0	44	0	3084910592	6	4233
2026-01-26 12:08:12.42	348.17	24.35	-23.5	-24.6	19.1	0.00e+00	0	44	0	3091202048	7	4057
2026-01-26 12:08:13.42	348.11	24.20	-23.7	-24.9	18.9	0.00e+00	0	44	0	3096444928	7	4135
2026-01-26 12:08:14.42	348.05	24.05	-23.8	-25.0	18.8	0.00e+00	0	44	0	3101687808	7	4169
2026-01-26 12:08:15.42	348.00	23.90	-23.5	-24.6	19.0	0.00e+00	0	44	0	3107979264	7	4058
2026-01-26 12:08:16.42	347.94	23.75	-23.5	-24.4	19.1	0.00e+00	0	44	0	3113222144	7	4009
2026-01-26 12:08:17.42	347.89	23.61	-23.6	-24.6	19.0	0.00e+00	0	44	0	3118465024	7	4063
2026-01-26 12:08:18.42	347.83	23.46	-23.6	-24.7	19.0	0.00e+00	0	44	0	3124756480	7	4075
2026-01-26 12:08:19.42	347.78	23.31	-23.6	-24.7	19.0	0.00e+00	0	44	0	3129999360	7	4073
2026-01-26 12:08:20.42	347.72	23.17	-23.7	-24.8	18.9	0.00e+00	0	44	0	3135242240	7	4111
2026-01-26 12:08:21.43	347.67	23.02	-23.6	-24.6	19.0	0.00e+00	0	44	0	3141533696	7	4065
2026-01-26 12:08:22.43	347.62	22.88	-23.6	-24.6	19.0	0.00e+00	0	44	0	3146776576	7	4069
2026-01-26 12:08:23.43	347.57	22.73	-23.7	-24.9	18.8	0.00e+00	0	44	0	3153068032	7	4139
2026-01-26 12:08:24.44	347.51	22.59	-23.7	-25.0	18.8	0.00e+00	0	44	0	3158310912	7	4150
2026-01-26 12:08:25.45	347.46	22.45	-23.7	-24.9	18.8	0.00e+00	0	44	0	3164602368	7	4135
2026-01-26 12:08:26.46	347.41	22.30	-23.8	-25.2	18.7	0.00e+00	0	44	0	3169845248	7	4197
2026-01-26 12:08:27.46	347.36	22.16	-23.9	-25.4	18.6	0.00e+00	0	44	0	3175088128	7	4250
2026-01-26 12:08:28.46	347.31	22.03	-23.8	-25.1	18.7	0.00e+00	0	44	0	3181379584	7	4194
2026-01-26 12:08:29.47	347.26	21.88	-23.9	-25.3	18.6	0.00e+00	0	44	0	3186622464	7	4240
2026-01-26 12:08:30.47	347.21	21.75	-23.9	-25.4	18.6	0.00e+00	0	44	0	3191865344	7	4252
2026-01-26 12:08:31.47	347.17	21.61	-24.0	-25.1	18.5	0.00e+00	0	44	0	3198156800	8	4074
2026-01-26 12:08:32.47	347.12	21.47	-24.0	-25.1	18.5	0.00e+00	0	44	0	3203399680	8	4070
2026-01-26 12:08:33.48	347.07	21.34	-24.0	-25.1	18.5	0.00e+00	0	44	0	3209691136	8	4080
2026-01-26 12:08:34.48	347.02	21.20	-24.0	-25.1	18.5	0.00e+00	0	44	0	3214934016	8	4075
2026-01-26 12:08:35.48	346.98	21.07	-24.1	-25.1	18.4	0.00e+00	0	44	0	3220176896	8	4076
2026-01-26 12:08:36.49	346.93	20.93	-24.1	-25.3	18.4	0.00e+00	0	44	0	3226468352	8	4113
2026-01-26 12:08:37.50	346.88	20.80	-24.0	-25.1	18.4	0.00e+00	0	44	0	3231711232	8	4075
2026-01-26 12:08:38.49	346.84	20.67	-24.1	-25.2	18.4	0.00e+00	0	44	0	3238002688	8	4090
2026-01-26 12:08:39.49	346.79	20.54	-24.1	-25.2	18.4	0.00e+00	0	44	0	3243245568	8	4086
2026-01-26 12:08:40.50	346.75	20.40	-24.1	-25.3	18.3	0.00e+00	0	44	0	3248488448	8	4111
2026-01-26 12:08:41.50	346.71	20.27	-24.1	-25.2	18.4	0.00e+00	0	44	0	3254779904	8	4102
2026-01-26 12:08:42.50	346.66	20.14	-24.1	-25.3	18.3	0.00e+00	0	44	0	3260022784	8	4108
2026-01-26 12:08:43.51	346.62	20.01	-24.2	-25.3	18.3	0.00e+00	0	44	0	3265265664	8	4124
2026-01-26 12:08:44.51	346.58	19.88	-24.1	-25.3	18.3	0.00e+00	0	44	0	3271557120	8	4105
2026-01-26 12:08:45.51	346.53	19.76	-24.1	-25.2	18.4	0.00e+00	0	44	0	3276800000	8	4104
2026-01-26 12:08:46.51	346.49	19.63	-24.2	-25.5	18.2	0.00e+00	0	44	0	3282042880	8	4177
2026-01-26 12:08:47.52	346.45	19.50	-24.2	-25.5	18.2	0.00e+00	0	44	0	3288334336	8	4169
2026-01-26 12:08:48.52	346.41	19.38	-24.2	-25.4	18.3	0.00e+00	0	44	0	3293577216	8	4139
2026-01-26 12:08:49.53	346.37	19.25	-24.2	-25.5	18.2	0.00e+00	0	44	0	3299868672	8	4179
2026-01-26 12:08:50.53	346.33	19.13	-24.3	-25.6	18.1	0.00e+00	0	44	0	3305111552	8	4199
2026-01-26 12:08:51.54	346.29	19.00	-24.3	-25.7	18.1	0.00e+00	0	44	0	3311403008	8	4234
2026-01-26 12:08:52.55	346.25	18.88	-24.3	-25.8	18.0	0.00e+00	0	44	0	3316645888	8	4240
2026-01-26 12:08:53.55	346.21	18.75	-24.4	-25.9	18.0	0.00e+00	0	44	0	3321888768	8	4277
2026-01-26 12:08:54.55	346.17	18.63	-24.3	-25.6	18.1	0.00e+00	0	44	0	3328180224	8	4208
2026-01-26 12:08:55.55	346.13	18.51	-24.5	-26.0	17.9	0.00e+00	0	44	0	3333423104	8	4305
2026-01-26 12:08:56.56	346.09	18.39	-24.7	-26.0	17.6	0.00e+00	0	44	0	3338665984	9	4196
2026-01-26 12:08:57.57	346.05	18.27	-24.9	-26.5	17.3	0.00e+00	0	44	0	3344957440	9	4329
2026-01-26 12:08:58.57	346.02	18.15	-24.9	-26.5	17.4	0.00e+00	0	44	0	3350200320	9	4317
2026-01-26 12:08:59.57	345.98	18.03	-25.1	-26.4	17.2	0.00e+00	0	44	0	3355443200	10	4172
2026-01-26 12:09:00.57	345.94	17.91	-25.1	-26.4	17.1	0.00e+00	0	44	0	3361734656	10	4188
2026-01-26 12:09:01.57	345.91	17.79	-25.1	-26.4	17.1	0.00e+00	0	44	0	3366977536	10	4189
2026-01-26 12:09:02.57	345.87	17.67	-25.0	-26.3	17.2	0.00e+00	0	44	0	3373268992	10	4154
2026-01-26 12:09:03.58	345.83	17.55	-25.2	-26.5	17.0	0.00e+00	0	44	0	3378511872	10	4219
2026-01-26 12:09:04.57	345.80	17.44	-25.2	-26.5	17.1	0.00e+00	0	44	0	3384803328	10	4208
2026-01-26 12:09:05.58	345.76	17.32	-25.3	-26.8	16.9	0.00e+00	0	44	0	3390046208	10	4298
2026-01-26 12:09:06.58	345.73	17.21	-25.3	-26.4	16.8	0.00e+00	0	44	0	3395289088	11	4084
2026-01-26 12:09:07.58	345.69	17.09	-25.0	-25.7	17.2	0.00e+00	0	44	0	3401580544	11	3890
2026-01-26 12:09:08.58	345.66	16.98	-24.9	-25.4	17.4	0.00e+00	0	44	0	3406823424	11	3836
2026-01-26 12:09:09.58	345.62	16.86	-24.8	-25.8	17.4	0.00e+00	0	44	0	3412066304	10	4034
2026-01-26 12:09:10.59	345.59	16.75	-24.7	-25.5	17.6	0.00e+00	0	44	0	3418357760	10	3967
2026-01-26 12:09:11.60	345.55	16.64	-24.9	-25.9	17.4	0.00e+00	0	44	0	3423600640	10	4047
2026-01-26 12:09:12.60	345.52	16.52	-24.9	-25.9	17.3	0.00e+00	0	44	0	3428843520	10	4059
2026-01-26 12:09:13.60	345.49	16.41	-24.9	-25.9	17.3	0.00e+00	0	44	0	3435134976	10	4053
2026-01-26 12:09:14.60	345.46	16.30	-25.0	-26.1	17.2	0.00e+00	0	44	0	3440377856	10	4098
2026-01-26 12:09:15.61	345.42	16.19	-25.0	-26.1	17.2	0.00e+00	0	44	0	3446669312	10	4110
2026-01-26 12:09:16.61	345.39	16.08	-24.9	-26.0	17.3	0.00e+00	0	44	0	3451912192	10	4085
2026-01-26 12:09:17.60	345.36	15.97	-25.0	-26.1	17.2	0.00e+00	0	44	0	3457155072	10	4101
2026-01-26 12:09:18.61	345.33	15.86	-24.9	-26.1	17.2	0.00e+00	0	44	0	3463446528	10	4092
2026-01-26 12:09:19.61	345.29	15.75	-25.1	-26.3	17.1	0.00e+00	0	44	0	3468689408	10	4161
2026-01-26 12:09:20.60	345.26	15.64	-25.1	-26.5	17.0	0.00e+00	0	44	0	3473932288	10	4207
2026-01-26 12:09:21.61	345.23	15.53	-25.2	-26.6	16.9	0.00e+00	0	44	0	3480223744	10	4232
2026-01-26 12:09:22.62	345.20	15.43	-25.2	-26.7	16.9	0.00e+00	0	44	0	3485466624	10	4257
2026-01-26 12:09:23.61	345.17	15.32	-25.3	-26.8	16.8	0.00e+00	0	44	0	3490709504	10	4281
2026-01-26 12:09:24.62	345.14	15.21	-25.3	-26.8	16.8	0.00e+00	0	44	0	3497000960	10	4290
2026-01-26 12:09:25.63	345.11	15.11	-25.3	-26.9	16.7	0.00e+00	0	44	0	3502243840	10	4330
2026-01-26 12:09:26.63	345.08	15.00	-25.3	-26.8	16.8	1.10e-06	0	44	0	3508535296	10	4283
2026-01-26 12:09:27.63	345.05	14.89	-25.3	-26.8	16.8	0.00e+00	0	44	0	3513778176	10	4293
2026-01-26 12:09:28.62	345.02	14.79	-25.3	-26.8	16.8	0.00e+00	0	44	0	3520069632	10	4287
2026-01-26 12:09:29.63	344.99	14.69	-25.4	-27.0	16.7	0.00e+00	0	44	0	3525312512	10	4346
2026-01-26 12:09:30.63	344.96	14.58	-25.5	-26.7	16.6	1.10e-06	0	44	0	3530555392	11	4157
2026-01-26 12:09:31.63	344.94	14.48	-25.4	-26.5	16.7	0.00e+00	0	44	0	3536846848	11	4107
2026-01-26 12:09:32.64	344.91	14.37	-25.4	-26.6	16.6	0.00e+00	0	44	0	3542089728	11	4129
2026-01-26 12:09:33.64	344.88	14.27	-25.5	-26.8	16.5	0.00e+00	0	44	0	3547332608	11	4175
2026-01-26 12:09:34.63	344.85	14.17	-25.4	-26.7	16.6	0.00e+00	0	44	0	3553624064	11	4142
2026-01-26 12:09:35.64	344.82	14.07	-25.7	-27.2	16.3	0.00e+00	0	44	0	3558866944	11	4284
2026-01-26 12:09:36.64	344.80	13.97	-25.6	-27.1	16.3	0.00e+00	0	44	0	3564109824	11	4248
2026-01-26 12:09:37.65	344.77	13.87	-25.6	-27.0	16.4	0.00e+00	0	44	0	3570401280	11	4228
2026-01-26 12:09:38.65	344.74	13.77	-25.6	-26.9	16.4	0.00e+00	0	44	0	3575644160	11	4208
2026-01-26 12:09:39.65	344.71	13.67	-25.6	-27.0	16.4	0.00e+00	0	44	0	3581935616	11	4227
2026-01-26 12:09:40.65	344.69	13.57	-25.6	-27.1	16.3	0.00e+00	0	44	0	3587178496	11	4252
2026-01-26 12:09:41.66	344.66	13.47	-25.6	-27.0	16.3	0.00e+00	0	44	0	3592421376	11	4230
2026-01-26 12:09:42.66	344.63	13.37	-25.7	-27.3	16.2	1.10e-06	0	44	0	3598712832	11	4313
2026-01-26 12:09:43.67	344.61	13.27	-25.8	-27.3	16.1	4.50e-06	0	44	0	3603955712	11	4322
2026-01-26 12:09:44.68	344.58	13.17	-25.6	-27.0	16.3	0.00e+00	0	44	0	3610247168	11	4231
2026-01-26 12:09:45.68	344.56	13.07	-25.6	-27.0	16.3	1.10e-06	0	44	0	3615490048	11	4241
2026-01-26 12:09:46.69	344.53	12.97	-25.7	-27.3	16.1	0.00e+00	0	44	0	3620732928	11	4300
2026-01-26 12:09:47.69	344.51	12.88	-25.8	-27.4	16.1	0.00e+00	0	44	0	3627024384	11	4337
2026-01-26 12:09:48.70	344.48	12.78	-25.7	-27.2	16.2	0.00e+00	0	44	0	3632267264	11	4282
2026-01-26 12:09:49.70	344.46	12.68	-25.7	-27.1	16.2	0.00e+00	0	44	0	3637510144	11	4264
2026-01-26 12:09:50.71	344.43	12.59	-25.7	-27.3	16.1	0.00e+00	0	44	0	3643801600	11	4306
2026-01-26 12:09:51.71	344.41	12.49	-25.8	-27.5	16.0	0.00e+00	0	44	0	3649044480	11	4371
2026-01-26 12:09:52.71	344.38	12.40	-25.8	-27.4	16.1	0.00e+00	0	44	0	3655335936	11	4328
2026-01-26 12:09:53.71	344.36	12.30	-25.8	-27.4	16.1	0.00e+00	0	44	0	3660578816	11	4325
2026-01-26 12:09:54.72	344.33	12.21	-25.7	-27.3	16.1	0.00e+00	0	44	0	3666870272	11	4301
2026-01-26 12:09:55.73	344.31	12.11	-25.9	-27.6	15.9	0.00e+00	0	44	0	3672113152	11	4392
2026-01-26 12:09:56.73	344.29	12.02	-25.9	-27.6	15.9	0.00e+00	0	44	0	3677356032	11	4389
2026-01-26 12:09:57.73	344.26	11.92	-25.8	-27.5	16.0	0.00e+00	0	44	0	3683647488	11	4374
2026-01-26 12:09:58.74	344.24	11.83	-25.8	-27.4	16.0	0.00e+00	0	44	0	3688890368	11	4328
2026-01-26 12:09:59.74	344.22	11.74	-25.9	-27.7	15.9	0.00e+00	0	44	0	3694133248	11	4406
2026-01-26 12:10:00.75	344.19	11.64	-25.8	-27.5	15.9	0.00e+00	0	44	0	3700424704	11	4380
2026-01-26 12:10:01.76	344.17	11.55	-25.9	-27.8	15.8	0.00e+00	0	44	0	3705667584	11	4443
2026-01-26 12:10:02.76	344.15	11.46	-26.0	-27.3	15.7	0.00e+00	0	44	0	3710910464	12	4211
2026-01-26 12:10:03.76	344.13	11.37	-25.8	-26.9	15.9	0.00e+00	0	44	0	3717201920	12	4092
2026-01-26 12:10:04.76	344.10	11.28	-26.0	-27.4	15.7	0.00e+00	0	44	0	3722444800	12	4221
2026-01-26 12:10:05.77	344.08	11.19	-26.0	-27.5	15.6	0.00e+00	0	44	0	3728736256	12	4244
2026-01-26 12:10:06.77	344.06	11.10	-26.0	-27.4	15.6	0.00e+00	0	44	0	3733979136	12	4223
2026-01-26 12:10:07.77	344.04	11.01	-26.1	-27.7	15.4	0.00e+00	0	44	0	3739222016	12	4318
2026-01-26 12:10:08.76	344.02	10.92	-26.1	-27.5	15.5	0.00e+00	0	44	0	3745513472	12	4266
2026-01-26 12:10:09.76	343.99	10.83	-26.0	-27.4	15.6	0.00e+00	0	44	0	3750756352	12	4238
2026-01-26 12:10:10.77	343.97	10.74	-26.0	-27.4	15.6	0.00e+00	0	44	0	3755999232	12	4228
2026-01-26 12:10:11.77	343.95	10.65	-26.3	-28.0	15.2	0.00e+00	0	44	0	3762290688	12	4399
2026-01-26 12:10:12.78	343.93	10.56	-26.4	-28.3	15.1	0.00e+00	0	44	0	3767533568	12	4469
2026-01-26 12:10:13.78	343.91	10.47	-26.2	-27.9	15.3	0.00e+00	0	44	0	3773825024	12	4376
2026-01-26 12:10:14.78	343.89	10.39	-26.4	-28.3	15.1	1.10e-06	0	44	0	3779067904	12	4481
2026-01-26 12:10:15.78	343.87	10.30	-26.3	-28.1	15.2	1.10e-06	0	44	0	3784310784	12	4417
2026-01-26 12:10:16.79	343.85	10.21	-26.5	-28.4	15.0	0.00e+00	0	44	0	3790602240	12	4524
2026-01-26 12:10:17.80	343.83	10.12	-26.5	-28.1	14.9	1.10e-06	0	44	0	3795845120	13	4321
2026-01-26 12:10:18.81	343.81	10.04	-26.6	-28.2	14.8	0.00e+00	0	44	0	3802136576	13	4349
2026-01-26 12:10:19.81	343.79	9.95	-26.5	-27.9	15.0	1.10e-06	0	44	0	3807379456	13	4269
2026-01-26 12:10:20.82	343.77	9.86	-26.4	-27.7	15.1	0.00e+00	0	44	0	3812622336	13	4220
2026-01-26 12:10:21.82	343.75	9.78	-26.3	-27.6	15.1	1.10e-06	0	44	0	3818913792	13	4182
2026-01-26 12:10:22.83	343.73	9.69	-26.3	-27.7	15.1	0.00e+00	0	44	0	3824156672	13	4198
2026-01-26 12:10:23.83	343.71	9.61	-26.1	-27.2	15.4	0.00e+00	0	44	0	3830448128	13	4075
2026-01-26 12:10:24.84	343.69	9.52	-26.5	-28.0	14.9	0.00e+00	0	44	0	3835691008	13	4304
2026-01-26 12:10:25.85	343.67	9.44	-26.4	-27.9	15.0	1.10e-06	0	44	0	3840933888	13	4260
2026-01-26 12:10:26.85	343.65	9.35	-26.5	-28.1	14.8	0.00e+00	0	44	0	3847225344	13	4311
2026-01-26 12:10:27.85	343.63	9.27	-26.3	-27.6	15.1	0.00e+00	0	44	0	3852468224	13	4193
