passes_logs/2026/01/26/R2M6_AANII_01/R2M6_AANII_01__20260126_102040_FENGYUN_3D_rec.log

#Pass ID: 20260126_102040_FENGYUN 3D
#Satellite: FENGYUN 3D
#Configuration: FENGYUN 3D
#almurnet v.1.7.20240730
#Start time: 2026-01-26 10:20:41

#Version: 2.2.20231116
#Station: R2M6_AANII_01
#Location: 30.233357 lon 59.946436 lat
#TLE: 1 43010U 17072A   26025.85700374 -.00000071  00000+0 -11715-4 0  9992
#TLE: 2 43010  98.9962 357.8423 0002518  90.2035 269.9429 14.19699460424796

#Time	Az	El	Level	Level2	SNR	BER	BlckErr	Temp	State	Recorded	gain1	gain2
2026-01-26 10:20:41.36	96.92	7.05	-31.0	-41.5	3.8	8.45e-01	0	41	0	0	23	12146
2026-01-26 10:20:42.36	96.83	7.11	-30.9	-41.4	3.8	8.46e-01	0	41	104	0	23	12034
2026-01-26 10:20:43.36	96.73	7.17	-30.8	-41.2	3.8	8.46e-01	0	41	104	0	23	11900
2026-01-26 10:20:44.37	96.63	7.24	-30.7	-41.5	3.8	8.45e-01	0	41	104	0	22	12418
2026-01-26 10:20:45.37	96.54	7.30	-30.6	-41.3	3.8	8.47e-01	0	42	104	0	22	12289
2026-01-26 10:20:46.37	96.44	7.36	-30.5	-41.2	3.8	8.46e-01	0	42	104	0	22	12244
2026-01-26 10:20:47.38	96.34	7.43	-30.5	-41.1	3.8	8.46e-01	0	42	104	0	22	12197
2026-01-26 10:20:48.39	96.24	7.49	-30.5	-41.1	3.8	8.47e-01	0	42	104	0	22	12198
2026-01-26 10:20:49.38	96.14	7.55	-30.5	-41.1	3.8	8.47e-01	0	42	104	0	22	12159
2026-01-26 10:20:50.39	96.04	7.62	-30.5	-41.1	3.8	8.47e-01	0	42	104	0	22	12139
2026-01-26 10:20:51.39	95.94	7.68	-30.5	-41.1	3.8	8.45e-01	0	42	104	0	22	12213
2026-01-26 10:20:52.39	95.84	7.74	-30.6	-41.2	3.8	8.45e-01	0	42	104	0	22	12224
2026-01-26 10:20:53.40	95.74	7.81	-30.6	-41.3	3.8	8.45e-01	0	42	104	0	22	12290
2026-01-26 10:20:54.41	95.64	7.87	-30.6	-41.3	3.8	8.46e-01	0	42	104	0	22	12325
2026-01-26 10:20:55.42	95.53	7.94	-30.7	-41.4	3.8	8.46e-01	0	42	104	0	22	12373
2026-01-26 10:20:56.42	95.43	8.00	-30.7	-41.5	3.8	8.46e-01	0	42	104	0	22	12450
2026-01-26 10:20:57.43	95.33	8.07	-30.7	-41.5	3.8	8.45e-01	0	42	104	0	22	12432
2026-01-26 10:20:58.44	95.22	8.13	-30.7	-41.5	3.8	8.46e-01	0	42	104	0	22	12457
2026-01-26 10:20:59.44	95.12	8.19	-30.7	-41.5	3.8	8.46e-01	0	42	104	0	22	12481
2026-01-26 10:21:00.44	95.01	8.26	-30.8	-41.6	3.8	8.46e-01	0	42	104	0	22	12498
2026-01-26 10:21:01.45	94.91	8.32	-30.8	-41.7	3.8	8.47e-01	0	42	104	0	22	12599
2026-01-26 10:21:02.46	94.80	8.39	-30.8	-41.7	3.8	8.45e-01	0	42	104	0	22	12547
2026-01-26 10:21:03.46	94.70	8.45	-30.9	-41.5	3.8	8.45e-01	0	42	104	0	22	12280
2026-01-26 10:21:04.46	94.59	8.52	-30.8	-41.0	3.8	8.47e-01	0	42	104	0	22	11637
2026-01-26 10:21:05.46	94.48	8.58	-30.8	-40.8	3.8	8.45e-01	0	42	104	0	22	11351
2026-01-26 10:21:06.46	94.38	8.64	-30.9	-41.1	3.8	8.46e-01	0	42	104	0	22	11621
2026-01-26 10:21:07.47	94.27	8.71	-31.0	-41.6	3.8	8.45e-01	0	42	104	0	22	12220
2026-01-26 10:21:08.47	94.16	8.77	-31.0	-41.7	3.8	8.46e-01	0	42	104	0	22	12342
2026-01-26 10:21:09.48	94.05	8.84	-31.0	-41.5	3.8	8.46e-01	0	42	104	0	22	12056
2026-01-26 10:21:10.49	93.94	8.90	-31.1	-41.2	3.8	8.47e-01	0	42	104	0	22	11547
2026-01-26 10:21:11.49	93.83	8.97	-31.0	-40.3	3.8	8.46e-01	0	42	104	0	22	10547
2026-01-26 10:21:12.49	93.72	9.03	-30.9	-39.3	4.1	8.43e-01	0	42	104	0	22	9483
2026-01-26 10:21:13.50	93.61	9.10	-30.9	-38.7	4.2	8.39e-01	0	42	0	0	22	8868
2026-01-26 10:21:14.50	93.50	9.17	-31.0	-39.4	4.1	8.37e-01	0	42	0	0	22	9490
2026-01-26 10:21:15.50	93.39	9.23	-31.1	-39.2	4.2	8.40e-01	0	42	0	0	22	9186
2026-01-26 10:21:16.50	93.28	9.30	-30.6	-36.1	5.5	8.02e-01	0	42	0	0	22	6719
2026-01-26 10:21:17.51	93.16	9.36	-29.8	-33.2	7.9	1.21e-01	0	42	0	5242880	21	5298
2026-01-26 10:21:18.51	93.05	9.43	-29.2	-32.2	9.5	2.38e-02	0	43	0	10485760	19	5064
2026-01-26 10:21:19.52	92.93	9.49	-29.0	-31.3	10.4	7.77e-03	0	43	0	16777216	19	4736
2026-01-26 10:21:20.53	92.82	9.56	-28.4	-30.3	11.5	1.88e-03	0	43	0	22020096	18	4470
2026-01-26 10:21:21.53	92.70	9.62	-28.2	-30.2	12.0	4.42e-04	0	42	0	27262976	17	4540
2026-01-26 10:21:22.53	92.59	9.69	-28.4	-30.7	11.7	6.51e-04	0	43	0	33554432	17	4702
2026-01-26 10:21:23.53	92.47	9.76	-28.4	-30.6	11.8	1.49e-03	0	43	0	38797312	17	4660
2026-01-26 10:21:24.53	92.36	9.82	-27.9	-29.6	12.5	1.73e-04	0	43	0	44040192	17	4342
2026-01-26 10:21:25.53	92.24	9.89	-28.0	-29.6	12.5	1.48e-04	0	43	0	50331648	17	4356
2026-01-26 10:21:26.54	92.12	9.95	-27.9	-29.5	12.6	1.53e-04	0	43	0	55574528	17	4326
2026-01-26 10:21:27.54	92.00	10.02	-27.7	-29.4	13.0	5.95e-05	0	43	0	61865984	16	4399
2026-01-26 10:21:28.54	91.89	10.08	-27.6	-29.3	13.2	5.14e-05	0	43	0	67108864	16	4346
2026-01-26 10:21:29.55	91.77	10.15	-27.9	-30.0	12.8	5.60e-05	0	43	0	72351744	16	4571
2026-01-26 10:21:30.54	91.65	10.22	-27.9	-29.9	12.8	2.43e-04	0	43	0	78643200	16	4528
2026-01-26 10:21:31.54	91.53	10.28	-27.8	-29.8	12.9	4.00e-05	0	43	0	83886080	16	4490
2026-01-26 10:21:32.54	91.41	10.35	-27.6	-29.3	13.3	2.74e-05	0	42	0	89128960	16	4342
2026-01-26 10:21:33.54	91.29	10.41	-27.6	-29.1	13.3	3.89e-05	0	43	0	95420416	16	4300
2026-01-26 10:21:34.55	91.16	10.48	-26.9	-28.1	14.0	6.80e-06	0	43	0	100663296	15	4140
2026-01-26 10:21:35.55	91.04	10.55	-26.7	-28.1	14.4	1.10e-06	0	43	0	105906176	14	4230
2026-01-26 10:21:36.55	90.92	10.61	-26.6	-28.0	14.5	1.10e-06	0	43	0	112197632	14	4214
2026-01-26 10:21:37.55	90.80	10.68	-26.7	-28.2	14.4	4.50e-06	0	43	0	117440512	14	4252
2026-01-26 10:21:38.55	90.67	10.75	-26.9	-28.5	14.2	1.10e-06	0	43	0	123731968	14	4353
2026-01-26 10:21:39.56	90.55	10.81	-26.8	-28.2	14.3	3.40e-06	0	43	0	128974848	14	4273
2026-01-26 10:21:40.57	90.42	10.88	-26.7	-28.1	14.4	2.20e-06	0	43	0	135266304	14	4226
2026-01-26 10:21:41.57	90.29	10.95	-26.5	-27.8	14.6	2.20e-06	0	43	0	140509184	14	4140
2026-01-26 10:21:42.57	90.17	11.01	-26.5	-27.8	14.7	0.00e+00	0	43	0	145752064	14	4143
2026-01-26 10:21:43.58	90.04	11.08	-26.8	-28.4	14.3	3.40e-06	0	43	0	152043520	14	4308
2026-01-26 10:21:44.59	89.91	11.15	-26.6	-27.8	14.7	3.40e-06	0	43	0	157286400	14	4136
2026-01-26 10:21:45.59	89.78	11.22	-26.1	-27.2	15.3	0.00e+00	0	43	0	162529280	13	4103
2026-01-26 10:21:46.60	89.65	11.28	-26.1	-27.1	15.3	0.00e+00	0	43	0	168820736	13	4080
2026-01-26 10:21:47.60	89.52	11.35	-26.0	-27.1	15.3	0.00e+00	0	43	0	174063616	13	4076
2026-01-26 10:21:48.60	89.39	11.42	-26.0	-27.1	15.4	0.00e+00	0	43	0	179306496	13	4061
2026-01-26 10:21:49.60	89.26	11.48	-26.0	-26.9	15.4	0.00e+00	0	43	0	185597952	13	4025
2026-01-26 10:21:50.59	89.13	11.55	-25.9	-26.8	15.5	0.00e+00	0	43	0	190840832	13	4004
2026-01-26 10:21:51.59	89.00	11.62	-25.8	-26.7	15.6	0.00e+00	0	43	0	197132288	13	3955
2026-01-26 10:21:52.59	88.87	11.68	-26.2	-27.4	15.2	0.00e+00	0	43	0	202375168	13	4147
2026-01-26 10:21:53.59	88.74	11.75	-26.2	-27.5	15.2	0.00e+00	0	43	0	207618048	13	4164
2026-01-26 10:21:54.59	88.60	11.82	-26.3	-27.6	15.1	0.00e+00	0	43	0	213909504	13	4211
2026-01-26 10:21:55.59	88.47	11.88	-26.2	-27.5	15.2	0.00e+00	0	43	0	219152384	13	4182
2026-01-26 10:21:56.60	88.33	11.95	-26.2	-27.4	15.2	0.00e+00	0	43	0	224395264	13	4143
2026-01-26 10:21:57.60	88.20	12.02	-26.3	-27.6	15.1	0.00e+00	0	43	0	230686720	13	4199
2026-01-26 10:21:58.60	88.06	12.09	-26.3	-27.7	15.1	0.00e+00	0	43	0	235929600	13	4222
2026-01-26 10:21:59.60	87.92	12.15	-26.2	-27.5	15.2	0.00e+00	0	43	0	241172480	13	4170
2026-01-26 10:22:00.61	87.79	12.22	-26.1	-27.2	15.4	1.10e-06	0	43	0	247463936	13	4102
2026-01-26 10:22:01.62	87.65	12.29	-26.3	-27.7	15.1	0.00e+00	0	43	0	252706816	13	4218
2026-01-26 10:22:02.63	87.51	12.36	-26.2	-27.4	15.3	0.00e+00	0	43	0	258998272	13	4152
2026-01-26 10:22:03.62	87.37	12.42	-26.0	-27.0	15.5	0.00e+00	0	43	0	264241152	13	4043
2026-01-26 10:22:04.62	87.23	12.49	-25.9	-26.9	15.6	0.00e+00	0	43	0	270532608	13	4008
2026-01-26 10:22:05.63	87.09	12.56	-26.2	-27.3	15.3	0.00e+00	0	43	0	275775488	13	4131
2026-01-26 10:22:06.64	86.94	12.63	-25.9	-26.8	15.6	0.00e+00	0	43	0	281018368	13	3994
2026-01-26 10:22:07.64	86.80	12.70	-25.7	-26.9	15.9	0.00e+00	0	43	0	287309824	12	4120
2026-01-26 10:22:08.64	86.66	12.76	-25.8	-27.1	15.8	0.00e+00	0	43	0	292552704	12	4168
2026-01-26 10:22:09.64	86.52	12.83	-25.8	-27.1	15.8	0.00e+00	0	43	0	297795584	12	4163
2026-01-26 10:22:10.64	86.37	12.90	-25.9	-27.4	15.6	0.00e+00	0	43	0	304087040	12	4235
2026-01-26 10:22:11.65	86.23	12.97	-25.7	-26.9	15.9	0.00e+00	0	43	0	309329920	12	4114
2026-01-26 10:22:12.65	86.08	13.03	-25.8	-27.1	15.8	0.00e+00	0	43	0	314572800	12	4160
2026-01-26 10:22:13.65	85.94	13.10	-25.7	-26.9	15.9	0.00e+00	0	43	0	320864256	12	4109
2026-01-26 10:22:14.65	85.79	13.17	-25.7	-26.8	16.0	0.00e+00	0	43	0	326107136	12	4097
2026-01-26 10:22:15.66	85.64	13.24	-25.6	-26.6	16.1	0.00e+00	0	43	0	332398592	12	4040
2026-01-26 10:22:16.66	85.49	13.30	-25.6	-26.7	16.0	0.00e+00	0	43	0	337641472	12	4058
2026-01-26 10:22:17.67	85.34	13.37	-25.6	-26.6	16.1	0.00e+00	0	43	0	343932928	12	4028
2026-01-26 10:22:18.68	85.19	13.44	-25.6	-26.5	16.1	0.00e+00	0	43	0	349175808	12	4019
2026-01-26 10:22:19.68	85.04	13.51	-25.7	-26.8	16.0	0.00e+00	0	43	0	354418688	12	4087
2026-01-26 10:22:20.69	84.89	13.57	-25.5	-26.5	16.1	1.10e-06	0	43	0	360710144	12	4013
2026-01-26 10:22:21.69	84.74	13.64	-25.7	-26.8	16.0	0.00e+00	0	43	0	365953024	12	4097
2026-01-26 10:22:22.70	84.58	13.71	-25.6	-26.7	16.1	0.00e+00	0	44	0	371195904	12	4059
2026-01-26 10:22:23.70	84.43	13.78	-25.6	-26.6	16.1	0.00e+00	0	43	0	377487360	12	4030
2026-01-26 10:22:24.71	84.28	13.85	-25.7	-26.8	16.0	0.00e+00	0	43	0	382730240	12	4084
2026-01-26 10:22:25.71	84.12	13.91	-25.5	-26.3	16.2	0.00e+00	0	43	0	389021696	12	3972
2026-01-26 10:22:26.72	83.97	13.98	-25.6	-26.5	16.2	2.20e-06	0	43	0	394264576	12	4012
2026-01-26 10:22:27.72	83.81	14.05	-25.4	-26.3	16.3	0.00e+00	0	43	0	399507456	12	3955
2026-01-26 10:22:28.71	83.66	14.11	-25.6	-26.6	16.2	0.00e+00	0	43	0	405798912	12	4026
2026-01-26 10:22:29.72	83.50	14.18	-25.6	-26.5	16.2	0.00e+00	0	43	0	411041792	12	4014
2026-01-26 10:22:30.72	83.34	14.25	-25.4	-26.2	16.3	0.00e+00	0	43	0	417333248	12	3943
2026-01-26 10:22:31.73	83.18	14.32	-25.5	-26.3	16.3	0.00e+00	0	43	0	422576128	12	3969
2026-01-26 10:22:32.74	83.02	14.38	-25.3	-26.4	16.6	0.00e+00	0	43	0	427819008	11	4103
2026-01-26 10:22:33.74	82.86	14.45	-25.7	-27.2	16.1	0.00e+00	0	43	0	434110464	11	4312
2026-01-26 10:22:34.75	82.70	14.52	-25.7	-27.2	16.1	0.00e+00	0	43	0	439353344	11	4317
2026-01-26 10:22:35.75	82.53	14.59	-25.7	-27.3	16.1	0.00e+00	0	43	0	444596224	11	4344
2026-01-26 10:22:36.75	82.37	14.65	-25.7	-27.3	16.1	0.00e+00	0	43	0	450887680	11	4346
2026-01-26 10:22:37.75	82.21	14.72	-25.8	-27.6	16.0	0.00e+00	0	43	0	456130560	11	4410
2026-01-26 10:22:38.75	82.05	14.79	-25.8	-27.5	16.0	0.00e+00	0	43	0	462422016	11	4373
2026-01-26 10:22:39.75	81.88	14.85	-25.6	-27.0	16.3	0.00e+00	0	43	0	467664896	11	4253
2026-01-26 10:22:40.76	81.71	14.92	-25.5	-26.9	16.3	0.00e+00	0	43	0	472907776	11	4229
2026-01-26 10:22:41.75	81.55	14.99	-25.3	-26.5	16.6	0.00e+00	0	43	0	479199232	11	4118
2026-01-26 10:22:42.76	81.38	15.05	-25.4	-26.6	16.5	0.00e+00	0	44	0	484442112	11	4134
2026-01-26 10:22:43.75	81.22	15.12	-25.3	-26.4	16.6	0.00e+00	0	44	0	489684992	11	4101
2026-01-26 10:22:44.76	81.05	15.19	-25.6	-27.1	16.3	0.00e+00	0	43	0	495976448	11	4278
2026-01-26 10:22:45.76	80.88	15.25	-25.4	-26.6	16.5	0.00e+00	0	43	0	501219328	11	4143
2026-01-26 10:22:46.76	80.71	15.32	-25.4	-26.5	16.6	0.00e+00	0	43	0	506462208	11	4123
2026-01-26 10:22:47.76	80.54	15.39	-25.4	-26.7	16.5	0.00e+00	0	43	0	512753664	11	4166
2026-01-26 10:22:48.76	80.37	15.45	-25.4	-26.6	16.5	0.00e+00	0	43	0	517996544	11	4141
2026-01-26 10:22:49.77	80.19	15.52	-25.5	-26.8	16.5	0.00e+00	0	43	0	524288000	11	4202
2026-01-26 10:22:50.77	80.02	15.58	-25.5	-26.8	16.5	0.00e+00	0	43	0	529530880	11	4181
2026-01-26 10:22:51.77	79.85	15.65	-25.6	-27.2	16.3	0.00e+00	0	43	0	535822336	11	4287
2026-01-26 10:22:52.77	79.67	15.72	-25.5	-26.8	16.5	0.00e+00	0	43	0	541065216	11	4191
2026-01-26 10:22:53.77	79.50	15.78	-25.2	-26.3	16.7	0.00e+00	0	43	0	546308096	11	4054
2026-01-26 10:22:54.78	79.32	15.85	-25.3	-26.3	16.7	0.00e+00	0	43	0	552599552	11	4073
2026-01-26 10:22:55.78	79.14	15.91	-25.3	-26.4	16.7	0.00e+00	0	43	0	557842432	11	4085
2026-01-26 10:22:56.79	78.96	15.98	-25.3	-26.5	16.6	0.00e+00	0	43	0	563085312	11	4120
2026-01-26 10:22:57.79	78.78	16.05	-25.3	-26.4	16.7	0.00e+00	0	44	0	569376768	11	4087
2026-01-26 10:22:58.80	78.60	16.11	-25.3	-26.3	16.7	0.00e+00	0	43	0	574619648	11	4066
2026-01-26 10:22:59.81	78.42	16.18	-25.3	-26.4	16.8	0.00e+00	0	43	0	580911104	11	4084
2026-01-26 10:23:00.81	78.24	16.24	-25.2	-26.1	16.8	0.00e+00	0	43	0	586153984	11	4020
2026-01-26 10:23:01.81	78.06	16.31	-25.1	-26.0	16.9	0.00e+00	0	43	0	591396864	11	3996
2026-01-26 10:23:02.82	77.88	16.37	-25.2	-26.2	16.8	0.00e+00	0	43	0	597688320	11	4031
2026-01-26 10:23:03.82	77.69	16.44	-25.0	-25.8	17.1	0.00e+00	0	44	0	602931200	11	3934
2026-01-26 10:23:04.83	77.51	16.50	-25.0	-25.7	17.1	0.00e+00	0	43	0	609222656	11	3921
2026-01-26 10:23:05.83	77.32	16.57	-25.0	-25.8	17.1	0.00e+00	0	43	0	614465536	11	3926
2026-01-26 10:23:06.84	77.13	16.63	-25.1	-26.1	16.9	0.00e+00	0	44	0	619708416	11	4004
2026-01-26 10:23:07.85	76.95	16.70	-25.1	-25.9	17.0	0.00e+00	0	43	0	625999872	11	3963
2026-01-26 10:23:08.86	76.76	16.76	-24.9	-25.5	17.2	0.00e+00	0	43	0	631242752	11	3873
2026-01-26 10:23:09.86	76.57	16.82	-25.1	-25.9	17.0	0.00e+00	0	44	0	637534208	11	3949
2026-01-26 10:23:10.87	76.38	16.89	-24.9	-25.5	17.2	0.00e+00	0	44	0	642777088	11	3863
2026-01-26 10:23:11.87	76.19	16.95	-24.9	-25.6	17.1	0.00e+00	0	44	0	648019968	11	3892
2026-01-26 10:23:12.87	76.00	17.02	-25.1	-26.0	17.0	0.00e+00	0	43	0	654311424	11	3988
2026-01-26 10:23:13.88	75.81	17.08	-25.0	-25.8	17.0	0.00e+00	0	44	0	659554304	11	3947
2026-01-26 10:23:14.88	75.61	17.14	-25.0	-25.8	17.0	0.00e+00	0	43	0	664797184	11	3944
2026-01-26 10:23:15.88	75.42	17.21	-24.9	-25.6	17.2	0.00e+00	0	43	0	671088640	11	3884
2026-01-26 10:23:16.88	75.23	17.27	-24.8	-25.4	17.2	1.10e-06	0	44	0	676331520	11	3847
2026-01-26 10:23:17.88	75.03	17.33	-24.9	-25.5	17.3	0.00e+00	0	44	0	682622976	11	3862
2026-01-26 10:23:18.88	74.84	17.39	-24.7	-25.7	17.4	0.00e+00	0	44	0	687865856	10	4017
2026-01-26 10:23:19.89	74.64	17.46	-24.8	-25.9	17.3	1.10e-06	0	44	0	693108736	10	4067
2026-01-26 10:23:20.89	74.44	17.52	-24.9	-26.0	17.2	0.00e+00	0	43	0	699400192	10	4097
2026-01-26 10:23:21.89	74.25	17.58	-24.8	-25.9	17.3	0.00e+00	0	44	0	704643072	10	4069
2026-01-26 10:23:22.90	74.05	17.64	-25.1	-26.6	17.0	2.20e-06	0	44	0	709885952	10	4237
2026-01-26 10:23:23.90	73.85	17.70	-25.2	-26.6	16.9	0.00e+00	0	43	0	716177408	10	4258
2026-01-26 10:23:24.90	73.65	17.76	-25.3	-26.8	16.8	0.00e+00	0	44	0	721420288	10	4305
2026-01-26 10:23:25.90	73.45	17.82	-25.2	-26.7	16.9	0.00e+00	0	44	0	726663168	10	4271
2026-01-26 10:23:26.90	73.24	17.89	-25.3	-27.0	16.7	0.00e+00	0	44	0	732954624	10	4356
2026-01-26 10:23:27.90	73.04	17.95	-25.2	-26.7	16.9	0.00e+00	0	44	0	738197504	10	4272
2026-01-26 10:23:28.91	72.84	18.01	-24.8	-25.9	17.3	2.20e-06	0	43	0	744488960	10	4064
2026-01-26 10:23:29.91	72.63	18.07	-24.8	-25.9	17.3	0.00e+00	0	43	0	749731840	10	4058
2026-01-26 10:23:30.92	72.43	18.13	-24.8	-25.8	17.3	0.00e+00	0	44	0	756023296	10	4044
2026-01-26 10:23:31.92	72.22	18.19	-25.1	-26.4	17.1	2.20e-06	0	44	0	761266176	10	4183
2026-01-26 10:23:32.92	72.01	18.25	-24.8	-25.9	17.3	0.00e+00	0	43	0	766509056	10	4062
2026-01-26 10:23:33.93	71.80	18.31	-24.9	-25.9	17.4	0.00e+00	0	44	0	772800512	10	4055
2026-01-26 10:23:34.93	71.60	18.36	-24.9	-26.0	17.4	0.00e+00	0	43	0	778043392	10	4091
2026-01-26 10:23:35.93	71.39	18.42	-24.7	-25.5	17.7	0.00e+00	0	44	0	783286272	10	3944
2026-01-26 10:23:36.94	71.17	18.48	-24.6	-25.3	17.8	0.00e+00	0	44	0	789577728	10	3910
2026-01-26 10:23:37.94	70.96	18.54	-24.7	-25.5	17.7	0.00e+00	0	44	0	794820608	10	3947
2026-01-26 10:23:38.94	70.75	18.60	-24.5	-25.2	17.8	0.00e+00	0	44	0	800063488	10	3871
2026-01-26 10:23:39.95	70.54	18.66	-24.3	-24.7	18.0	0.00e+00	0	44	0	806354944	10	3775
2026-01-26 10:23:40.95	70.32	18.71	-24.4	-25.0	17.9	0.00e+00	0	43	0	811597824	10	3828
2026-01-26 10:23:41.96	70.11	18.77	-24.5	-25.1	17.9	0.00e+00	0	43	0	817889280	10	3850
2026-01-26 10:23:42.96	69.89	18.83	-24.5	-25.2	17.8	0.00e+00	0	44	0	823132160	10	3874
2026-01-26 10:23:43.96	69.68	18.88	-24.4	-25.0	17.9	1.10e-06	0	44	0	828375040	10	3824
2026-01-26 10:23:44.96	69.46	18.94	-24.3	-24.8	18.1	0.00e+00	0	44	0	834666496	10	3778
2026-01-26 10:23:45.97	69.24	19.00	-24.6	-25.3	17.8	0.00e+00	0	44	0	839909376	10	3910
2026-01-26 10:23:46.97	69.02	19.05	-24.4	-24.9	18.0	0.00e+00	0	44	0	846200832	10	3820
2026-01-26 10:23:47.97	68.81	19.11	-24.4	-24.9	18.0	0.00e+00	0	44	0	851443712	10	3811
2026-01-26 10:23:48.97	68.59	19.16	-24.4	-24.9	18.0	0.00e+00	0	44	0	856686592	10	3812
2026-01-26 10:23:49.97	68.37	19.22	-24.2	-25.1	18.1	0.00e+00	0	44	0	862978048	9	3953
2026-01-26 10:23:50.97	68.15	19.27	-24.2	-24.9	18.3	0.00e+00	0	44	0	868220928	9	3908
2026-01-26 10:23:51.97	67.92	19.32	-24.1	-24.8	18.3	0.00e+00	0	44	0	873463808	9	3900
2026-01-26 10:23:52.97	67.70	19.38	-24.1	-24.7	18.3	0.00e+00	0	44	0	879755264	9	3875
2026-01-26 10:23:53.96	67.48	19.43	-24.0	-24.6	18.4	0.00e+00	0	44	0	884998144	9	3843
2026-01-26 10:23:54.96	67.26	19.48	-23.9	-24.4	18.5	0.00e+00	0	44	0	890241024	9	3800
2026-01-26 10:23:55.97	67.03	19.54	-24.1	-24.7	18.4	1.10e-06	0	44	0	896532480	9	3867
2026-01-26 10:23:56.97	66.80	19.59	-23.8	-24.2	18.6	0.00e+00	0	44	0	901775360	9	3759
2026-01-26 10:23:57.97	66.58	19.64	-24.0	-24.6	18.4	0.00e+00	0	44	0	908066816	9	3851
2026-01-26 10:23:58.98	66.35	19.69	-24.0	-24.4	18.5	0.00e+00	0	44	0	913309696	9	3810
2026-01-26 10:23:59.99	66.12	19.74	-23.9	-24.4	18.5	0.00e+00	0	44	0	918552576	9	3794
2026-01-26 10:24:00.99	65.89	19.79	-24.0	-24.6	18.4	0.00e+00	0	43	0	924844032	9	3832
2026-01-26 10:24:01.99	65.66	19.84	-24.1	-24.7	18.4	0.00e+00	0	44	0	930086912	9	3863
2026-01-26 10:24:03.00	65.42	19.89	-24.1	-24.7	18.4	0.00e+00	0	44	0	935329792	9	3860
2026-01-26 10:24:04.01	65.19	19.94	-24.2	-24.9	18.3	0.00e+00	0	44	0	941621248	9	3922
2026-01-26 10:24:05.01	64.96	19.99	-24.1	-24.8	18.3	0.00e+00	0	44	0	946864128	9	3888
2026-01-26 10:24:06.00	64.73	20.04	-24.0	-24.6	18.4	0.00e+00	0	43	0	953155584	9	3851
2026-01-26 10:24:07.01	64.49	20.09	-24.0	-24.6	18.5	0.00e+00	0	44	0	958398464	9	3834
2026-01-26 10:24:08.01	64.26	20.14	-24.1	-24.8	18.4	0.00e+00	0	44	0	964689920	9	3887
2026-01-26 10:24:09.01	64.02	20.19	-24.0	-24.4	18.5	0.00e+00	0	44	0	969932800	9	3807
2026-01-26 10:24:10.01	63.79	20.23	-24.0	-24.5	18.5	0.00e+00	0	44	0	975175680	9	3819
2026-01-26 10:24:11.02	63.55	20.28	-24.1	-24.8	18.4	0.00e+00	0	44	0	981467136	9	3891
2026-01-26 10:24:12.02	63.31	20.33	-24.1	-24.7	18.4	0.00e+00	0	44	0	986710016	9	3876
2026-01-26 10:24:13.03	63.07	20.37	-24.1	-24.8	18.4	0.00e+00	0	44	0	991952896	9	3884
2026-01-26 10:24:14.04	62.83	20.42	-24.2	-25.0	18.3	0.00e+00	0	44	0	998244352	9	3926
2026-01-26 10:24:15.04	62.59	20.46	-24.1	-24.7	18.4	0.00e+00	0	44	0	1003487232	9	3861
2026-01-26 10:24:16.04	62.35	20.51	-24.1	-24.7	18.4	0.00e+00	0	44	0	1008730112	9	3875
2026-01-26 10:24:17.04	62.11	20.55	-24.0	-24.6	18.5	0.00e+00	0	44	0	1015021568	9	3853
2026-01-26 10:24:18.04	61.87	20.59	-24.0	-24.6	18.5	0.00e+00	0	44	0	1020264448	9	3837
2026-01-26 10:24:19.05	61.63	20.64	-23.9	-24.4	18.6	0.00e+00	0	44	0	1026555904	9	3790
2026-01-26 10:24:20.05	61.38	20.68	-24.0	-24.5	18.5	0.00e+00	0	43	0	1031798784	9	3821
2026-01-26 10:24:21.05	61.14	20.72	-24.2	-25.0	18.3	0.00e+00	0	44	0	1037041664	9	3938
2026-01-26 10:24:22.05	60.90	20.76	-23.8	-24.2	18.7	0.00e+00	0	44	0	1043333120	9	3741
2026-01-26 10:24:23.06	60.65	20.81	-23.6	-24.1	19.0	0.00e+00	0	44	0	1048576000	8	3834
2026-01-26 10:24:24.06	60.40	20.85	-23.6	-24.3	18.9	0.00e+00	0	44	0	1053818880	8	3869
2026-01-26 10:24:25.06	60.16	20.89	-24.0	-24.9	18.6	0.00e+00	0	44	0	1060110336	8	4030
2026-01-26 10:24:26.07	59.91	20.93	-23.8	-24.6	18.7	0.00e+00	0	44	0	1065353216	8	3956
2026-01-26 10:24:27.07	59.66	20.97	-24.0	-25.0	18.5	0.00e+00	0	44	0	1071644672	8	4045
2026-01-26 10:24:28.07	59.41	21.00	-23.9	-24.8	18.7	0.00e+00	0	44	0	1076887552	8	3988
2026-01-26 10:24:29.06	59.17	21.04	-23.8	-24.6	18.7	0.00e+00	0	44	0	1082130432	8	3958
2026-01-26 10:24:30.06	58.92	21.08	-24.0	-25.0	18.6	0.00e+00	0	44	0	1088421888	8	4040
2026-01-26 10:24:31.07	58.67	21.12	-23.7	-24.5	18.8	0.00e+00	0	44	0	1093664768	8	3918
2026-01-26 10:24:32.07	58.42	21.15	-23.8	-24.5	18.8	0.00e+00	0	44	0	1099956224	8	3930
2026-01-26 10:24:33.08	58.16	21.19	-23.9	-24.8	18.6	0.00e+00	0	44	0	1105199104	8	4003
2026-01-26 10:24:34.08	57.91	21.23	-24.0	-25.0	18.5	0.00e+00	0	44	0	1110441984	8	4051
2026-01-26 10:24:35.09	57.66	21.26	-24.2	-25.5	18.3	0.00e+00	0	44	0	1116733440	8	4175
2026-01-26 10:24:36.09	57.40	21.30	-23.9	-24.8	18.7	0.00e+00	0	44	0	1121976320	8	3995
2026-01-26 10:24:37.10	57.15	21.33	-23.7	-24.4	18.9	0.00e+00	0	44	0	1127219200	8	3903
2026-01-26 10:24:38.10	56.90	21.36	-23.6	-24.2	19.0	0.00e+00	0	44	0	1133510656	8	3860
2026-01-26 10:24:39.11	56.64	21.40	-23.7	-24.4	18.9	0.00e+00	0	44	0	1138753536	8	3902
2026-01-26 10:24:40.11	56.38	21.43	-23.7	-24.5	18.8	0.00e+00	0	44	0	1145044992	8	3920
2026-01-26 10:24:41.12	56.13	21.46	-23.8	-24.6	18.8	0.00e+00	0	44	0	1150287872	8	3956
2026-01-26 10:24:42.12	55.87	21.49	-23.7	-24.3	18.9	0.00e+00	0	44	0	1155530752	8	3888
2026-01-26 10:24:43.12	55.61	21.52	-23.9	-24.8	18.7	0.00e+00	0	44	0	1161822208	8	3988
2026-01-26 10:24:44.12	55.36	21.55	-23.8	-24.6	18.8	0.00e+00	0	44	0	1167065088	8	3939
2026-01-26 10:24:45.12	55.10	21.58	-23.9	-24.8	18.7	0.00e+00	0	44	0	1173356544	8	3998
2026-01-26 10:24:46.12	54.84	21.61	-23.9	-24.8	18.7	0.00e+00	0	44	0	1178599424	8	3996
2026-01-26 10:24:47.12	54.58	21.64	-23.9	-24.9	18.6	0.00e+00	0	44	0	1183842304	8	4027
2026-01-26 10:24:48.13	54.32	21.67	-23.8	-24.7	18.7	0.00e+00	0	44	0	1190133760	8	3975
2026-01-26 10:24:49.13	54.06	21.69	-23.8	-24.5	18.8	0.00e+00	0	44	0	1195376640	8	3938
2026-01-26 10:24:50.14	53.80	21.72	-23.8	-24.5	18.8	0.00e+00	0	44	0	1200619520	8	3932
2026-01-26 10:24:51.14	53.54	21.75	-23.5	-24.1	19.0	0.00e+00	0	44	0	1206910976	8	3823
2026-01-26 10:24:52.14	53.28	21.77	-23.5	-23.9	19.1	0.00e+00	0	44	0	1212153856	8	3782
2026-01-26 10:24:53.14	53.02	21.80	-23.5	-24.0	19.1	0.00e+00	0	44	0	1217396736	8	3802
2026-01-26 10:24:54.15	52.75	21.82	-23.4	-23.8	19.2	0.00e+00	0	44	0	1223688192	8	3768
2026-01-26 10:24:55.14	52.50	21.84	-23.5	-24.0	19.1	0.00e+00	0	44	0	1228931072	8	3816
2026-01-26 10:24:56.14	52.23	21.87	-23.5	-24.0	19.1	0.00e+00	0	44	0	1235222528	8	3806
2026-01-26 10:24:57.14	51.97	21.89	-23.6	-24.2	19.0	0.00e+00	0	44	0	1240465408	8	3852
2026-01-26 10:24:58.14	51.71	21.91	-23.6	-24.1	19.0	0.00e+00	0	44	0	1245708288	8	3832
2026-01-26 10:24:59.15	51.44	21.93	-23.6	-24.2	19.0	0.00e+00	0	44	0	1251999744	8	3866
2026-01-26 10:25:00.15	51.18	21.95	-23.6	-24.2	19.0	0.00e+00	0	44	0	1257242624	8	3854
2026-01-26 10:25:01.15	50.91	21.97	-23.7	-24.4	18.9	0.00e+00	0	44	0	1262485504	8	3890
2026-01-26 10:25:02.15	50.65	21.99	-23.7	-24.5	18.8	0.00e+00	0	44	0	1268776960	8	3916
2026-01-26 10:25:03.16	50.38	22.01	-23.4	-23.9	19.2	0.00e+00	0	44	0	1274019840	8	3775
2026-01-26 10:25:04.17	50.12	22.03	-23.3	-23.6	19.3	0.00e+00	0	44	0	1280311296	8	3724
2026-01-26 10:25:05.17	49.85	22.04	-23.3	-24.0	19.3	0.00e+00	0	44	0	1285554176	7	3904
2026-01-26 10:25:06.18	49.58	22.06	-23.4	-24.3	19.1	0.00e+00	0	44	0	1291845632	7	3986
2026-01-26 10:25:07.19	49.31	22.08	-23.5	-24.4	19.1	0.00e+00	0	44	0	1297088512	7	4004
2026-01-26 10:25:08.19	49.05	22.09	-23.6	-24.7	19.0	0.00e+00	0	44	0	1302331392	7	4084
2026-01-26 10:25:09.19	48.78	22.11	-23.6	-24.6	19.0	0.00e+00	0	44	0	1308622848	7	4070
2026-01-26 10:25:10.20	48.51	22.12	-23.6	-24.7	19.0	0.00e+00	0	44	0	1313865728	7	4081
2026-01-26 10:25:11.20	48.25	22.13	-23.7	-24.9	18.9	0.00e+00	0	44	0	1319108608	7	4120
2026-01-26 10:25:12.20	47.98	22.14	-23.7	-24.9	18.9	0.00e+00	0	44	0	1325400064	7	4125
2026-01-26 10:25:13.20	47.71	22.16	-23.7	-24.8	18.9	0.00e+00	0	44	0	1330642944	7	4108
2026-01-26 10:25:14.20	47.44	22.17	-23.6	-24.8	19.0	0.00e+00	0	44	0	1335885824	7	4101
2026-01-26 10:25:15.21	47.17	22.18	-23.7	-24.9	18.9	0.00e+00	0	44	0	1342177280	7	4131
2026-01-26 10:25:16.21	46.91	22.19	-23.8	-25.0	18.8	0.00e+00	0	44	0	1347420160	7	4154
2026-01-26 10:25:17.22	46.64	22.20	-23.4	-24.3	19.2	0.00e+00	0	44	0	1353711616	7	3979
2026-01-26 10:25:18.23	46.36	22.21	-23.3	-24.0	19.3	0.00e+00	0	44	0	1358954496	7	3916
2026-01-26 10:25:19.23	46.10	22.21	-23.2	-23.9	19.4	0.00e+00	0	44	0	1365245952	7	3889
2026-01-26 10:25:20.23	45.83	22.22	-23.3	-24.0	19.3	0.00e+00	0	44	0	1370488832	7	3918
2026-01-26 10:25:21.23	45.56	22.23	-23.3	-24.1	19.3	0.00e+00	0	44	0	1375731712	7	3933
2026-01-26 10:25:22.23	45.29	22.23	-23.3	-24.1	19.2	0.00e+00	0	43	0	1382023168	7	3941
2026-01-26 10:25:23.23	45.02	22.24	-23.3	-24.1	19.3	0.00e+00	0	44	0	1387266048	7	3941
2026-01-26 10:25:24.24	44.75	22.24	-23.4	-24.3	19.2	0.00e+00	0	44	0	1392508928	7	3988
2026-01-26 10:25:25.24	44.48	22.25	-23.5	-24.6	19.0	0.00e+00	0	44	0	1398800384	7	4046
2026-01-26 10:25:26.25	44.21	22.25	-23.3	-24.1	19.3	0.00e+00	0	44	0	1404043264	7	3937
2026-01-26 10:25:27.26	43.94	22.25	-23.4	-24.2	19.2	0.00e+00	0	44	0	1409286144	7	3959
2026-01-26 10:25:28.25	43.67	22.25	-23.5	-24.4	19.1	0.00e+00	0	44	0	1415577600	7	4008
2026-01-26 10:25:29.25	43.40	22.26	-23.6	-24.6	19.0	0.00e+00	0	44	0	1420820480	7	4068
2026-01-26 10:25:30.26	43.13	22.26	-23.7	-24.8	18.9	0.00e+00	0	44	0	1427111936	7	4108
2026-01-26 10:25:31.27	42.86	22.26	-23.8	-25.0	18.8	0.00e+00	0	44	0	1432354816	7	4161
2026-01-26 10:25:32.27	42.59	22.25	-23.7	-24.9	18.8	0.00e+00	0	43	0	1438646272	7	4140
2026-01-26 10:25:33.27	42.32	22.25	-23.8	-25.0	18.8	0.00e+00	0	44	0	1443889152	7	4155
2026-01-26 10:25:34.27	42.05	22.25	-23.7	-25.0	18.8	0.00e+00	0	44	0	1449132032	7	4149
2026-01-26 10:25:35.28	41.78	22.25	-23.7	-24.9	18.8	0.00e+00	0	44	0	1455423488	7	4137
2026-01-26 10:25:36.28	41.51	22.24	-23.8	-25.2	18.7	0.00e+00	0	44	0	1460666368	7	4203
2026-01-26 10:25:37.28	41.25	22.24	-23.6	-24.6	19.0	0.00e+00	0	44	0	1465909248	7	4063
2026-01-26 10:25:38.28	40.98	22.23	-23.4	-24.3	19.1	0.00e+00	0	44	0	1472200704	7	3993
2026-01-26 10:25:39.28	40.71	22.23	-23.4	-24.2	19.2	0.00e+00	0	44	0	1477443584	7	3959
2026-01-26 10:25:40.29	40.44	22.22	-23.4	-24.3	19.2	0.00e+00	0	44	0	1482686464	7	3982
2026-01-26 10:25:41.29	40.17	22.22	-23.3	-24.1	19.2	0.00e+00	0	44	0	1488977920	7	3942
2026-01-26 10:25:42.30	39.90	22.21	-23.5	-24.5	19.1	0.00e+00	0	44	0	1494220800	7	4029
2026-01-26 10:25:43.31	39.63	22.20	-23.4	-24.3	19.2	0.00e+00	0	44	0	1500512256	7	3983
2026-01-26 10:25:44.31	39.36	22.19	-23.5	-24.5	19.1	0.00e+00	0	44	0	1505755136	7	4037
2026-01-26 10:25:45.31	39.09	22.18	-23.7	-24.8	18.9	0.00e+00	0	44	0	1512046592	7	4119
2026-01-26 10:25:46.32	38.82	22.17	-23.7	-24.9	18.9	0.00e+00	0	44	0	1517289472	7	4134
2026-01-26 10:25:47.32	38.56	22.16	-23.8	-25.1	18.7	0.00e+00	0	44	0	1522532352	7	4194
2026-01-26 10:25:48.32	38.29	22.15	-23.7	-24.8	18.9	0.00e+00	0	44	0	1528823808	7	4113
2026-01-26 10:25:49.33	38.02	22.13	-23.6	-24.7	18.9	0.00e+00	0	44	0	1534066688	7	4096
2026-01-26 10:25:50.32	37.75	22.12	-23.6	-24.6	19.0	0.00e+00	0	44	0	1539309568	7	4064
2026-01-26 10:25:51.33	37.49	22.11	-23.5	-24.6	19.0	0.00e+00	0	44	0	1545601024	7	4048
2026-01-26 10:25:52.33	37.22	22.09	-23.5	-24.4	19.1	0.00e+00	0	44	0	1550843904	7	4019
2026-01-26 10:25:53.33	36.95	22.08	-23.5	-24.6	19.0	0.00e+00	0	44	0	1556086784	7	4050
2026-01-26 10:25:54.33	36.69	22.06	-23.8	-25.0	18.8	0.00e+00	0	44	0	1562378240	7	4164
2026-01-26 10:25:55.34	36.42	22.05	-23.8	-25.2	18.7	0.00e+00	0	44	0	1567621120	7	4207
2026-01-26 10:25:56.34	36.15	22.03	-23.6	-24.6	19.0	0.00e+00	0	44	0	1573912576	7	4056
2026-01-26 10:25:57.35	35.89	22.01	-23.3	-24.1	19.2	0.00e+00	0	44	0	1579155456	7	3945
2026-01-26 10:25:58.35	35.62	21.99	-23.2	-23.8	19.4	0.00e+00	0	44	0	1584398336	7	3880
2026-01-26 10:25:59.36	35.36	21.98	-23.3	-24.0	19.3	0.00e+00	0	44	0	1590689792	7	3915
2026-01-26 10:26:00.36	35.09	21.96	-23.3	-24.2	19.2	0.00e+00	0	44	0	1595932672	7	3954
2026-01-26 10:26:01.36	34.83	21.94	-23.4	-24.2	19.2	0.00e+00	0	44	0	1602224128	7	3953
2026-01-26 10:26:02.36	34.57	21.91	-23.4	-24.4	19.1	0.00e+00	0	44	0	1607467008	7	4002
2026-01-26 10:26:03.36	34.30	21.89	-23.4	-24.3	19.2	0.00e+00	0	44	0	1612709888	7	3974
2026-01-26 10:26:04.36	34.04	21.87	-23.4	-24.2	19.2	0.00e+00	0	44	0	1619001344	7	3958
2026-01-26 10:26:05.37	33.78	21.85	-23.4	-24.4	19.1	0.00e+00	0	44	0	1624244224	7	3999
2026-01-26 10:26:06.38	33.51	21.83	-23.5	-24.4	19.1	0.00e+00	0	44	0	1629487104	7	4006
2026-01-26 10:26:07.38	33.25	21.80	-23.3	-24.1	19.3	0.00e+00	0	44	0	1635778560	7	3934
2026-01-26 10:26:08.38	32.99	21.78	-23.3	-24.2	19.2	0.00e+00	0	44	0	1641021440	7	3953
2026-01-26 10:26:09.38	32.73	21.75	-23.4	-24.2	19.2	0.00e+00	0	44	0	1647312896	7	3953
2026-01-26 10:26:10.37	32.47	21.73	-23.3	-24.1	19.3	0.00e+00	0	44	0	1652555776	7	3936
2026-01-26 10:26:11.38	32.21	21.70	-23.3	-24.2	19.2	0.00e+00	0	44	0	1657798656	7	3951
2026-01-26 10:26:12.38	31.95	21.67	-23.3	-24.0	19.3	0.00e+00	0	44	0	1664090112	7	3920
2026-01-26 10:26:13.39	31.69	21.65	-23.3	-24.0	19.3	0.00e+00	0	44	0	1669332992	7	3905
2026-01-26 10:26:14.39	31.43	21.62	-23.4	-24.2	19.2	0.00e+00	0	44	0	1674575872	7	3958
2026-01-26 10:26:15.39	31.18	21.59	-23.6	-24.7	19.0	0.00e+00	0	44	0	1680867328	7	4077
2026-01-26 10:26:16.40	30.92	21.56	-23.8	-25.2	18.7	0.00e+00	0	44	0	1686110208	7	4205
2026-01-26 10:26:17.40	30.66	21.53	-23.7	-25.0	18.8	0.00e+00	0	44	0	1691353088	7	4156
2026-01-26 10:26:18.40	30.40	21.50	-23.9	-25.2	18.7	0.00e+00	0	44	0	1697644544	7	4217
2026-01-26 10:26:19.41	30.14	21.47	-23.6	-24.7	18.9	0.00e+00	0	44	0	1702887424	7	4079
2026-01-26 10:26:20.40	29.89	21.44	-23.5	-24.5	19.0	0.00e+00	0	44	0	1709178880	7	4039
2026-01-26 10:26:21.40	29.64	21.40	-23.6	-24.6	19.0	0.00e+00	0	44	0	1714421760	7	4052
2026-01-26 10:26:22.40	29.38	21.37	-23.5	-24.5	19.0	0.00e+00	0	44	0	1719664640	7	4030
2026-01-26 10:26:23.40	29.13	21.34	-23.8	-25.1	18.7	0.00e+00	0	44	0	1725956096	7	4179
2026-01-26 10:26:24.40	28.88	21.30	-23.8	-25.0	18.8	0.00e+00	0	44	0	1731198976	7	4165
2026-01-26 10:26:25.40	28.63	21.27	-23.8	-25.2	18.7	0.00e+00	0	44	0	1736441856	7	4202
2026-01-26 10:26:26.40	28.37	21.24	-23.7	-24.8	18.8	0.00e+00	0	44	0	1742733312	7	4119
2026-01-26 10:26:27.41	28.12	21.20	-23.5	-24.4	19.1	0.00e+00	0	44	0	1747976192	7	4018
2026-01-26 10:26:28.41	27.87	21.16	-23.5	-24.4	19.0	0.00e+00	0	44	0	1754267648	7	4018
2026-01-26 10:26:29.42	27.62	21.13	-23.5	-24.4	19.1	0.00e+00	0	44	0	1759510528	7	4014
2026-01-26 10:26:30.42	27.37	21.09	-23.4	-24.2	19.2	0.00e+00	0	44	0	1764753408	7	3959
2026-01-26 10:26:31.43	27.12	21.05	-23.4	-24.4	19.1	0.00e+00	0	44	0	1771044864	7	4003
2026-01-26 10:26:32.43	26.87	21.01	-23.5	-24.5	19.1	0.00e+00	0	44	0	1776287744	7	4028
2026-01-26 10:26:33.44	26.62	20.98	-23.6	-24.6	18.9	0.00e+00	0	44	0	1782579200	7	4061
2026-01-26 10:26:34.44	26.37	20.94	-23.6	-24.8	18.9	0.00e+00	0	44	0	1787822080	7	4102
2026-01-26 10:26:35.45	26.12	20.90	-23.5	-24.5	19.0	0.00e+00	0	44	0	1793064960	7	4041
2026-01-26 10:26:36.45	25.88	20.86	-23.6	-24.6	18.9	0.00e+00	0	44	0	1799356416	7	4065
2026-01-26 10:26:37.46	25.63	20.82	-23.6	-24.7	18.9	0.00e+00	0	44	0	1804599296	7	4081
2026-01-26 10:26:38.46	25.39	20.78	-23.6	-24.7	18.9	0.00e+00	0	44	0	1810890752	7	4099
2026-01-26 10:26:39.47	25.14	20.73	-23.7	-24.8	18.9	0.00e+00	0	44	0	1816133632	7	4110
2026-01-26 10:26:40.47	24.90	20.69	-23.7	-24.9	18.8	0.00e+00	0	44	0	1821376512	7	4128
2026-01-26 10:26:41.48	24.65	20.65	-23.7	-24.8	18.8	0.00e+00	0	44	0	1827667968	7	4118
2026-01-26 10:26:42.48	24.41	20.61	-23.7	-24.9	18.8	0.00e+00	0	44	0	1832910848	7	4121
2026-01-26 10:26:43.49	24.17	20.56	-23.8	-25.1	18.7	0.00e+00	0	44	0	1838153728	7	4187
2026-01-26 10:26:44.50	23.93	20.52	-23.9	-25.3	18.6	0.00e+00	0	44	0	1844445184	7	4226
2026-01-26 10:26:45.50	23.69	20.47	-23.9	-25.2	18.6	0.00e+00	0	44	0	1849688064	7	4218
2026-01-26 10:26:46.51	23.44	20.43	-23.9	-25.3	18.6	0.00e+00	0	44	0	1855979520	7	4225
2026-01-26 10:26:47.51	23.21	20.38	-23.9	-25.3	18.6	0.00e+00	0	44	0	1861222400	7	4228
2026-01-26 10:26:48.51	22.97	20.34	-23.8	-25.0	18.7	0.00e+00	0	44	0	1867513856	7	4162
2026-01-26 10:26:49.52	22.73	20.29	-23.7	-24.8	18.8	0.00e+00	0	44	0	1872756736	7	4107
2026-01-26 10:26:50.52	22.49	20.24	-23.7	-25.0	18.7	0.00e+00	0	44	0	1877999616	7	4144
2026-01-26 10:26:51.52	22.26	20.20	-23.8	-25.0	18.7	0.00e+00	0	44	0	1884291072	7	4163
2026-01-26 10:26:52.51	22.03	20.15	-23.8	-25.1	18.7	0.00e+00	0	44	0	1889533952	7	4195
2026-01-26 10:26:53.52	21.79	20.10	-23.9	-24.9	18.6	0.00e+00	0	44	0	1894776832	8	4010
2026-01-26 10:26:54.52	21.56	20.05	-23.8	-24.6	18.7	0.00e+00	0	44	0	1901068288	8	3956
2026-01-26 10:26:55.52	21.33	20.01	-23.7	-24.3	18.8	0.00e+00	0	44	0	1906311168	8	3885
2026-01-26 10:26:56.52	21.09	19.96	-23.8	-24.6	18.7	0.00e+00	0	44	0	1911554048	8	3953
2026-01-26 10:26:57.52	20.86	19.91	-23.9	-24.8	18.6	1.10e-06	0	44	0	1917845504	8	3985
2026-01-26 10:26:58.53	20.63	19.86	-23.9	-24.9	18.5	0.00e+00	0	44	0	1923088384	8	4017
2026-01-26 10:26:59.53	20.40	19.81	-24.0	-25.1	18.4	0.00e+00	0	44	0	1929379840	8	4068
2026-01-26 10:27:00.53	20.17	19.76	-24.0	-25.1	18.4	0.00e+00	0	44	0	1934622720	8	4074
2026-01-26 10:27:01.53	19.95	19.71	-24.0	-25.0	18.5	0.00e+00	0	44	0	1939865600	8	4052
2026-01-26 10:27:02.54	19.72	19.65	-24.0	-25.0	18.4	0.00e+00	0	44	0	1946157056	8	4054
2026-01-26 10:27:03.54	19.49	19.60	-24.1	-25.3	18.3	0.00e+00	0	44	0	1951399936	8	4114
2026-01-26 10:27:04.54	19.27	19.55	-24.1	-25.3	18.3	0.00e+00	0	44	0	1956642816	8	4133
2026-01-26 10:27:05.54	19.04	19.50	-24.2	-25.5	18.2	0.00e+00	0	44	0	1962934272	8	4167
2026-01-26 10:27:06.54	18.82	19.45	-24.1	-25.2	18.3	0.00e+00	0	44	0	1968177152	8	4105
2026-01-26 10:27:07.54	18.60	19.39	-24.1	-25.2	18.4	0.00e+00	0	44	0	1973420032	8	4092
2026-01-26 10:27:08.55	18.37	19.34	-24.2	-25.4	18.3	0.00e+00	0	44	0	1979711488	8	4145
2026-01-26 10:27:09.55	18.15	19.29	-24.2	-25.5	18.2	0.00e+00	0	44	0	1984954368	8	4166
2026-01-26 10:27:10.55	17.93	19.23	-24.2	-25.5	18.2	0.00e+00	0	44	0	1991245824	8	4170
2026-01-26 10:27:11.56	17.71	19.18	-24.2	-25.6	18.1	0.00e+00	0	44	0	1996488704	8	4191
2026-01-26 10:27:12.56	17.49	19.12	-24.4	-25.9	17.9	0.00e+00	0	44	0	2002780160	8	4288
2026-01-26 10:27:13.57	17.27	19.07	-24.4	-25.9	18.0	0.00e+00	0	44	0	2008023040	8	4269
2026-01-26 10:27:14.57	17.05	19.01	-24.3	-25.8	18.0	0.00e+00	0	44	0	2013265920	8	4241
2026-01-26 10:27:15.57	16.83	18.96	-24.5	-26.0	17.9	0.00e+00	0	44	0	2019557376	8	4303
2026-01-26 10:27:16.58	16.62	18.90	-24.7	-26.1	17.6	0.00e+00	0	44	0	2024800256	9	4212
2026-01-26 10:27:17.58	16.40	18.84	-24.8	-25.8	17.5	0.00e+00	0	44	0	2030043136	10	4019
2026-01-26 10:27:18.58	16.19	18.79	-24.8	-25.7	17.5	0.00e+00	0	44	0	2036334592	10	4009
2026-01-26 10:27:19.57	15.98	18.73	-24.8	-25.8	17.5	0.00e+00	0	44	0	2041577472	10	4019
2026-01-26 10:27:20.58	15.76	18.67	-24.6	-25.3	17.7	0.00e+00	0	44	0	2046820352	10	3916
2026-01-26 10:27:21.58	15.55	18.62	-24.6	-25.4	17.7	0.00e+00	0	44	0	2053111808	10	3930
2026-01-26 10:27:22.57	15.34	18.56	-24.6	-25.3	17.7	0.00e+00	0	44	0	2058354688	10	3911
2026-01-26 10:27:23.57	15.13	18.50	-24.6	-25.2	17.8	0.00e+00	0	44	0	2064646144	10	3893
2026-01-26 10:27:24.57	14.92	18.44	-24.5	-25.1	17.9	0.00e+00	0	44	0	2069889024	10	3846
2026-01-26 10:27:25.58	14.71	18.38	-24.4	-24.8	18.0	0.00e+00	0	44	0	2075131904	10	3785
2026-01-26 10:27:26.58	14.50	18.33	-24.4	-24.8	18.0	0.00e+00	0	44	0	2081423360	10	3793
2026-01-26 10:27:27.58	14.30	18.27	-24.4	-24.9	18.0	0.00e+00	0	44	0	2086666240	10	3801
2026-01-26 10:27:28.58	14.09	18.21	-24.5	-25.1	17.8	0.00e+00	0	44	0	2091909120	10	3861
2026-01-26 10:27:29.59	13.88	18.15	-24.6	-25.4	17.7	0.00e+00	0	44	0	2098200576	10	3918
2026-01-26 10:27:30.59	13.68	18.09	-24.7	-25.5	17.6	0.00e+00	0	44	0	2103443456	10	3953
2026-01-26 10:27:31.59	13.47	18.03	-24.7	-25.6	17.6	0.00e+00	0	44	0	2108686336	10	3991
2026-01-26 10:27:32.60	13.27	17.97	-24.7	-25.5	17.6	0.00e+00	0	44	0	2114977792	10	3951
2026-01-26 10:27:33.60	13.07	17.91	-24.6	-25.3	17.7	0.00e+00	0	44	0	2120220672	10	3895
2026-01-26 10:27:34.61	12.86	17.85	-24.8	-25.7	17.5	0.00e+00	0	44	0	2126512128	10	4002
2026-01-26 10:27:35.61	12.66	17.79	-24.8	-25.7	17.5	0.00e+00	0	44	0	2131755008	10	4007
2026-01-26 10:27:36.61	12.46	17.72	-24.8	-25.8	17.5	0.00e+00	0	44	0	2138046464	10	4026
2026-01-26 10:27:37.62	12.26	17.66	-25.0	-26.2	17.3	0.00e+00	0	44	0	2143289344	10	4127
2026-01-26 10:27:38.62	12.07	17.60	-24.9	-26.1	17.3	0.00e+00	0	44	0	2148532224	10	4096
2026-01-26 10:27:39.62	11.87	17.54	-24.9	-25.9	17.4	0.00e+00	0	44	0	2154823680	10	4056
2026-01-26 10:27:40.62	11.67	17.48	-24.7	-25.6	17.6	0.00e+00	0	44	0	2160066560	10	3972
2026-01-26 10:27:41.62	11.48	17.42	-24.9	-26.0	17.4	0.00e+00	0	44	0	2165309440	10	4073
2026-01-26 10:27:42.62	11.28	17.35	-24.8	-25.6	17.5	0.00e+00	0	44	0	2171600896	10	3980
2026-01-26 10:27:43.62	11.09	17.29	-25.0	-26.1	17.3	0.00e+00	0	44	0	2176843776	10	4098
2026-01-26 10:27:44.62	10.90	17.23	-25.1	-26.3	17.2	0.00e+00	0	44	0	2182086656	10	4153
2026-01-26 10:27:45.62	10.70	17.17	-25.2	-26.6	17.0	0.00e+00	0	44	0	2188378112	10	4234
2026-01-26 10:27:46.63	10.51	17.10	-25.1	-26.4	17.1	0.00e+00	0	44	0	2193620992	10	4185
2026-01-26 10:27:47.63	10.32	17.04	-24.8	-25.7	17.5	0.00e+00	0	44	0	2199912448	10	4006
2026-01-26 10:27:48.63	10.13	16.98	-24.6	-25.2	17.7	0.00e+00	0	44	0	2205155328	10	3889
2026-01-26 10:27:49.63	9.94	16.91	-24.4	-25.0	17.9	0.00e+00	0	44	0	2210398208	10	3825
2026-01-26 10:27:50.63	9.75	16.85	-24.6	-25.3	17.7	0.00e+00	0	44	0	2216689664	10	3896
2026-01-26 10:27:51.63	9.57	16.79	-24.7	-25.5	17.6	0.00e+00	0	44	0	2221932544	10	3948
2026-01-26 10:27:52.63	9.38	16.72	-24.8	-25.8	17.4	0.00e+00	0	44	0	2227175424	10	4022
2026-01-26 10:27:53.64	9.19	16.66	-24.9	-25.9	17.4	0.00e+00	0	44	0	2233466880	10	4058
2026-01-26 10:27:54.64	9.01	16.60	-24.7	-25.6	17.6	0.00e+00	0	44	0	2238709760	10	3966
2026-01-26 10:27:55.64	8.82	16.53	-24.6	-25.4	17.6	0.00e+00	0	44	0	2243952640	10	3930
2026-01-26 10:27:56.64	8.64	16.47	-24.6	-25.3	17.7	0.00e+00	0	44	0	2250244096	10	3908
2026-01-26 10:27:57.65	8.46	16.40	-24.7	-25.5	17.6	0.00e+00	0	44	0	2255486976	10	3942
2026-01-26 10:27:58.65	8.27	16.34	-24.8	-25.8	17.4	0.00e+00	0	44	0	2261778432	10	4023
2026-01-26 10:27:59.66	8.09	16.27	-24.9	-26.0	17.3	0.00e+00	0	44	0	2267021312	10	4072
2026-01-26 10:28:00.66	7.91	16.21	-25.0	-26.1	17.3	0.00e+00	0	44	0	2272264192	10	4097
2026-01-26 10:28:01.66	7.73	16.14	-24.8	-25.8	17.4	0.00e+00	0	44	0	2278555648	10	4035
2026-01-26 10:28:02.66	7.55	16.08	-24.9	-26.0	17.3	0.00e+00	0	44	0	2283798528	10	4067
2026-01-26 10:28:03.66	7.38	16.01	-24.8	-25.8	17.4	0.00e+00	0	44	0	2289041408	10	4029
2026-01-26 10:28:04.66	7.20	15.95	-24.7	-25.6	17.5	0.00e+00	0	44	0	2295332864	10	3984
2026-01-26 10:28:05.67	7.02	15.88	-25.0	-26.1	17.2	0.00e+00	0	44	0	2300575744	10	4101
2026-01-26 10:28:06.68	6.84	15.82	-24.9	-26.0	17.3	0.00e+00	0	44	0	2306867200	10	4086
2026-01-26 10:28:07.69	6.67	15.75	-25.2	-26.6	17.0	0.00e+00	0	44	0	2312110080	10	4231
2026-01-26 10:28:08.69	6.49	15.68	-25.1	-26.5	17.0	0.00e+00	0	44	0	2318401536	10	4199
2026-01-26 10:28:09.69	6.32	15.62	-25.0	-26.1	17.2	0.00e+00	0	44	0	2323644416	10	4106
2026-01-26 10:28:10.69	6.15	15.55	-24.9	-25.9	17.3	0.00e+00	0	44	0	2328887296	10	4047
2026-01-26 10:28:11.70	5.98	15.49	-24.8	-25.8	17.4	0.00e+00	0	44	0	2335178752	10	4025
2026-01-26 10:28:12.70	5.80	15.42	-24.9	-26.0	17.2	0.00e+00	0	44	0	2340421632	10	4086
2026-01-26 10:28:13.71	5.63	15.35	-25.1	-26.4	17.0	0.00e+00	0	44	0	2345664512	10	4183
2026-01-26 10:28:14.70	5.47	15.29	-25.2	-26.6	17.0	0.00e+00	0	44	0	2351955968	10	4219
2026-01-26 10:28:15.71	5.30	15.22	-25.1	-26.3	17.1	0.00e+00	0	44	0	2357198848	10	4158
2026-01-26 10:28:16.71	5.13	15.15	-25.1	-26.5	17.0	0.00e+00	0	44	0	2362441728	10	4204
2026-01-26 10:28:17.72	4.96	15.09	-25.1	-26.5	17.0	0.00e+00	0	44	0	2368733184	10	4208
2026-01-26 10:28:18.72	4.79	15.02	-25.1	-26.4	17.0	0.00e+00	0	44	0	2373976064	10	4182
2026-01-26 10:28:19.73	4.63	14.95	-25.3	-26.8	16.8	0.00e+00	0	44	0	2380267520	10	4293
2026-01-26 10:28:20.73	4.46	14.89	-25.2	-26.6	16.9	0.00e+00	0	44	0	2385510400	10	4244
2026-01-26 10:28:21.73	4.30	14.82	-25.3	-26.8	16.8	0.00e+00	0	44	0	2391801856	10	4282
2026-01-26 10:28:22.74	4.13	14.75	-25.2	-26.6	16.9	0.00e+00	0	44	0	2397044736	10	4240
2026-01-26 10:28:23.74	3.97	14.69	-25.2	-26.7	16.9	0.00e+00	0	44	0	2402287616	10	4252
2026-01-26 10:28:24.74	3.81	14.62	-25.2	-26.6	16.9	0.00e+00	0	44	0	2408579072	10	4230
2026-01-26 10:28:25.75	3.65	14.55	-25.2	-26.6	16.9	0.00e+00	0	44	0	2413821952	10	4220
2026-01-26 10:28:26.75	3.49	14.49	-25.3	-26.9	16.7	0.00e+00	0	44	0	2419064832	10	4325
2026-01-26 10:28:27.76	3.33	14.42	-25.2	-26.6	16.9	0.00e+00	0	44	0	2425356288	10	4220
2026-01-26 10:28:28.76	3.17	14.35	-25.1	-26.4	17.0	0.00e+00	0	44	0	2430599168	10	4186
2026-01-26 10:28:29.76	3.01	14.29	-25.1	-26.4	17.0	0.00e+00	0	44	0	2436890624	10	4173
2026-01-26 10:28:30.77	2.85	14.22	-25.2	-26.6	16.9	0.00e+00	0	44	0	2442133504	10	4238
2026-01-26 10:28:31.78	2.69	14.15	-25.1	-26.4	17.0	0.00e+00	0	44	0	2447376384	10	4183
2026-01-26 10:28:32.78	2.54	14.08	-25.3	-26.9	16.7	0.00e+00	0	44	0	2453667840	10	4315
2026-01-26 10:28:33.79	2.38	14.02	-25.4	-27.0	16.7	0.00e+00	0	44	0	2458910720	10	4342
2026-01-26 10:28:34.79	2.23	13.95	-25.3	-26.9	16.7	0.00e+00	0	44	0	2465202176	10	4328
2026-01-26 10:28:35.80	2.07	13.88	-25.3	-26.8	16.8	0.00e+00	0	44	0	2470445056	10	4276
2026-01-26 10:28:36.80	1.92	13.81	-25.3	-26.9	16.7	0.00e+00	0	44	0	2475687936	10	4324
2026-01-26 10:28:37.80	1.77	13.75	-25.4	-27.0	16.7	0.00e+00	0	44	0	2481979392	10	4340
2026-01-26 10:28:38.81	1.61	13.68	-25.4	-27.0	16.7	0.00e+00	0	44	0	2487222272	10	4339
2026-01-26 10:28:39.81	1.46	13.61	-25.7	-27.2	16.3	0.00e+00	0	44	0	2492465152	11	4276
2026-01-26 10:28:40.80	1.31	13.54	-25.5	-26.9	16.4	0.00e+00	0	44	0	2498756608	11	4196
2026-01-26 10:28:41.81	1.16	13.48	-25.5	-26.9	16.4	0.00e+00	0	44	0	2503999488	11	4197
2026-01-26 10:28:42.81	1.01	13.41	-25.5	-26.7	16.5	0.00e+00	0	44	0	2509242368	11	4141
2026-01-26 10:28:43.81	0.87	13.34	-25.5	-26.7	16.5	0.00e+00	0	44	0	2515533824	11	4144
2026-01-26 10:28:44.81	0.72	13.28	-25.5	-26.8	16.4	0.00e+00	0	44	0	2520776704	11	4187
2026-01-26 10:28:45.81	0.57	13.21	-25.6	-26.9	16.4	0.00e+00	0	44	0	2527068160	11	4203
2026-01-26 10:28:46.82	0.43	13.14	-25.5	-26.8	16.4	0.00e+00	0	44	0	2532311040	11	4187
2026-01-26 10:28:47.83	0.28	13.07	-25.4	-26.6	16.5	0.00e+00	0	44	0	2538602496	11	4140
2026-01-26 10:28:48.83	0.13	13.01	-25.5	-26.7	16.5	0.00e+00	0	44	0	2543845376	11	4153
2026-01-26 10:28:49.83	359.99	12.94	-25.6	-26.9	16.4	0.00e+00	0	44	0	2549088256	11	4207
2026-01-26 10:28:50.83	359.85	12.87	-25.7	-27.2	16.2	0.00e+00	0	44	0	2555379712	11	4288
2026-01-26 10:28:51.83	359.70	12.80	-25.7	-27.1	16.2	0.00e+00	0	44	0	2560622592	11	4263
2026-01-26 10:28:52.84	359.56	12.74	-25.6	-27.0	16.3	0.00e+00	0	44	0	2565865472	11	4237
2026-01-26 10:28:53.85	359.42	12.67	-25.8	-27.4	16.1	0.00e+00	0	44	0	2572156928	11	4340
2026-01-26 10:28:54.85	359.28	12.60	-25.9	-27.6	15.9	0.00e+00	0	44	0	2577399808	11	4403
2026-01-26 10:28:55.84	359.14	12.53	-25.7	-27.3	16.1	0.00e+00	0	44	0	2582642688	11	4313
2026-01-26 10:28:56.85	359.00	12.47	-26.0	-27.4	15.8	0.00e+00	0	44	0	2588934144	12	4220
2026-01-26 10:28:57.86	358.86	12.40	-25.9	-27.2	15.8	0.00e+00	0	44	0	2594177024	12	4182
2026-01-26 10:28:58.86	358.72	12.33	-25.8	-26.9	16.0	0.00e+00	0	44	0	2600468480	12	4095
2026-01-26 10:28:59.86	358.58	12.27	-25.8	-27.0	15.9	0.00e+00	0	44	0	2605711360	12	4121
2026-01-26 10:29:00.84	358.45	12.20	-25.8	-27.1	15.9	0.00e+00	0	44	0	2610954240	12	4146
2026-01-26 10:29:01.85	358.31	12.13	-25.8	-27.0	15.9	0.00e+00	0	44	0	2617245696	12	4129
2026-01-26 10:29:02.84	358.18	12.07	-25.8	-27.0	15.9	0.00e+00	0	44	0	2622488576	12	4122
2026-01-26 10:29:03.84	358.04	12.00	-25.8	-27.0	15.9	0.00e+00	0	44	0	2627731456	12	4129
2026-01-26 10:29:04.85	357.91	11.93	-26.1	-27.6	15.6	0.00e+00	0	44	0	2634022912	12	4281
2026-01-26 10:29:05.85	357.77	11.86	-25.8	-27.0	15.9	0.00e+00	0	44	0	2639265792	12	4118
2026-01-26 10:29:06.85	357.64	11.80	-26.1	-27.7	15.5	0.00e+00	0	44	0	2644508672	12	4308
2026-01-26 10:29:07.85	357.51	11.73	-25.8	-27.0	15.9	1.10e-06	0	44	0	2650800128	12	4113
2026-01-26 10:29:08.86	357.38	11.66	-25.9	-27.2	15.8	0.00e+00	0	44	0	2656043008	12	4190
2026-01-26 10:29:09.86	357.25	11.60	-25.8	-27.1	15.8	0.00e+00	0	44	0	2662334464	12	4141
2026-01-26 10:29:10.86	357.11	11.53	-25.9	-27.3	15.7	0.00e+00	0	44	0	2667577344	12	4197
2026-01-26 10:29:11.86	356.99	11.46	-26.1	-27.6	15.6	0.00e+00	0	44	0	2672820224	12	4280
2026-01-26 10:29:12.87	356.85	11.40	-26.1	-27.7	15.5	1.10e-06	0	44	0	2679111680	12	4305
2026-01-26 10:29:13.87	356.73	11.33	-26.1	-27.7	15.5	0.00e+00	0	44	0	2684354560	12	4314
2026-01-26 10:29:14.88	356.60	11.26	-26.4	-28.3	15.1	0.00e+00	0	44	0	2690646016	12	4484
2026-01-26 10:29:15.88	356.47	11.20	-26.2	-27.8	15.4	0.00e+00	0	44	0	2695888896	12	4334
2026-01-26 10:29:16.88	356.34	11.13	-26.2	-27.8	15.4	0.00e+00	0	44	0	2701131776	12	4336
2026-01-26 10:29:17.88	356.22	11.06	-26.4	-28.2	15.1	0.00e+00	0	44	0	2707423232	12	4452
2026-01-26 10:29:18.89	356.09	11.00	-26.1	-27.7	15.4	0.00e+00	0	44	0	2712666112	12	4306
2026-01-26 10:29:19.90	355.96	10.93	-26.3	-28.1	15.2	1.10e-06	0	44	0	2717908992	12	4417
2026-01-26 10:29:20.90	355.84	10.86	-26.2	-27.8	15.3	0.00e+00	0	44	0	2724200448	12	4359
2026-01-26 10:29:21.90	355.71	10.80	-26.4	-28.3	15.1	0.00e+00	0	44	0	2729443328	12	4485
2026-01-26 10:29:22.89	355.59	10.73	-26.3	-28.1	15.2	0.00e+00	0	44	0	2735734784	12	4433
2026-01-26 10:29:23.89	355.47	10.66	-26.1	-27.7	15.4	0.00e+00	0	44	0	2740977664	12	4303
2026-01-26 10:29:24.89	355.35	10.60	-26.0	-27.4	15.6	0.00e+00	0	44	0	2746220544	12	4237
2026-01-26 10:29:25.90	355.22	10.53	-26.1	-27.7	15.4	0.00e+00	0	44	0	2752512000	12	4313
2026-01-26 10:29:26.89	355.11	10.47	-26.0	-27.5	15.5	0.00e+00	0	44	0	2757754880	12	4251
2026-01-26 10:29:27.89	354.98	10.40	-26.2	-27.9	15.3	0.00e+00	0	44	0	2762997760	12	4386
2026-01-26 10:29:28.89	354.86	10.33	-26.1	-27.6	15.4	0.00e+00	0	44	0	2769289216	12	4295
2026-01-26 10:29:29.90	354.74	10.27	-26.3	-28.1	15.2	0.00e+00	0	44	0	2774532096	12	4424
2026-01-26 10:29:30.90	354.63	10.20	-26.2	-27.8	15.3	0.00e+00	0	44	0	2779774976	12	4358
2026-01-26 10:29:31.90	354.51	10.14	-26.4	-27.9	15.0	0.00e+00	0	44	0	2786066432	13	4261
2026-01-26 10:29:32.90	354.39	10.07	-26.5	-28.0	14.9	1.10e-06	0	44	0	2791309312	13	4288
2026-01-26 10:29:33.91	354.27	10.00	-26.5	-28.1	14.9	1.10e-06	0	44	0	2797600768	13	4322
2026-01-26 10:29:34.91	354.15	9.94	-26.4	-27.9	15.0	0.00e+00	0	44	0	2802843648	13	4264
2026-01-26 10:29:35.91	354.04	9.87	-26.7	-28.4	14.7	0.00e+00	0	44	0	2808086528	13	4404
2026-01-26 10:29:36.92	353.92	9.81	-26.5	-28.1	14.8	0.00e+00	0	44	0	2814377984	13	4319
2026-01-26 10:29:37.92	353.81	9.74	-26.4	-27.9	14.9	0.00e+00	0	44	0	2819620864	13	4271
2026-01-26 10:29:38.92	353.69	9.68	-26.7	-28.4	14.6	0.00e+00	0	44	0	2825912320	13	4411
2026-01-26 10:29:39.93	353.58	9.61	-26.6	-28.3	14.8	0.00e+00	0	44	0	2831155200	13	4363
2026-01-26 10:29:40.94	353.46	9.54	-26.4	-27.9	14.9	1.10e-06	0	44	0	2836398080	13	4252
2026-01-26 10:29:41.95	353.35	9.48	-26.6	-28.3	14.7	0.00e+00	0	44	0	2842689536	13	4365
2026-01-26 10:29:42.95	353.24	9.41	-26.4	-27.9	14.9	1.10e-06	0	44	0	2847932416	13	4261
2026-01-26 10:29:43.95	353.12	9.35	-26.5	-28.2	14.8	0.00e+00	0	44	0	2853175296	13	4337
2026-01-26 10:29:44.96	353.01	9.28	-26.4	-27.9	14.9	0.00e+00	0	44	0	2859466752	13	4264
2026-01-26 10:29:45.96	352.90	9.22	-26.6	-28.2	14.8	1.10e-06	0	44	0	2864709632	13	4345
2026-01-26 10:29:46.97	352.79	9.15	-26.5	-28.0	14.8	0.00e+00	0	44	0	2871001088	13	4291
2026-01-26 10:29:47.97	352.68	9.09	-26.3	-27.6	15.0	1.10e-06	0	44	0	2876243968	13	4190
2026-01-26 10:29:48.97	352.57	9.02	-26.4	-27.9	14.9	0.00e+00	0	44	0	2882535424	13	4267
2026-01-26 10:29:49.97	352.46	8.96	-26.7	-28.4	14.6	1.10e-06	0	44	0	2887778304	13	4415
2026-01-26 10:29:50.97	352.35	8.89	-26.4	-27.8	14.9	0.00e+00	0	44	0	2893021184	13	4249
2026-01-26 10:29:51.97	352.25	8.83	-26.8	-28.8	14.3	3.40e-06	0	44	0	2899312640	13	4520
2026-01-26 10:29:52.98	352.14	8.76	-26.5	-28.0	14.8	0.00e+00	0	44	0	2904555520	13	4290
2026-01-26 10:29:53.98	352.03	8.70	-26.6	-28.4	14.6	0.00e+00	0	44	0	2909798400	13	4395
2026-01-26 10:29:54.99	351.92	8.63	-26.5	-28.2	14.7	1.10e-06	0	44	0	2916089856	13	4344
2026-01-26 10:29:55.99	351.82	8.57	-26.7	-28.6	14.5	3.40e-06	0	44	0	2921332736	13	4454
2026-01-26 10:29:57.00	351.71	8.51	-26.7	-28.4	14.5	1.10e-06	0	44	0	2926575616	13	4418
2026-01-26 10:29:58.00	351.61	8.44	-26.5	-28.1	14.7	1.10e-06	0	44	0	2932867072	13	4336
2026-01-26 10:29:59.01	351.50	8.38	-26.8	-28.7	14.4	0.00e+00	0	44	0	2938109952	13	4501
2026-01-26 10:30:00.01	351.40	8.31	-26.6	-27.8	14.6	2.20e-06	0	44	0	2944401408	14	4140
2026-01-26 10:30:01.01	351.29	8.25	-26.7	-28.0	14.5	0.00e+00	0	44	0	2949644288	14	4176
2026-01-26 10:30:02.01	351.19	8.18	-26.6	-27.9	14.5	2.20e-06	0	44	0	2954887168	14	4169
2026-01-26 10:30:03.01	351.09	8.12	-27.0	-28.7	14.0	8.00e-06	0	44	0	2961178624	14	4375
2026-01-26 10:30:04.01	350.99	8.06	-26.9	-28.6	14.1	2.20e-06	0	44	0	2966421504	14	4341
2026-01-26 10:30:05.02	350.88	7.99	-26.9	-28.5	14.1	4.50e-06	0	44	0	2972712960	14	4341
2026-01-26 10:30:06.02	350.78	7.93	-27.1	-28.9	13.9	5.70e-06	0	44	0	2977955840	14	4441
2026-01-26 10:30:07.03	350.68	7.87	-27.2	-29.1	13.8	8.00e-06	0	44	0	2983198720	14	4511
2026-01-26 10:30:08.03	350.58	7.80	-27.3	-29.5	13.5	1.60e-05	0	44	0	2989490176	14	4640
2026-01-26 10:30:09.03	350.48	7.74	-27.1	-29.1	13.8	6.80e-06	0	44	0	2994733056	14	4500
2026-01-26 10:30:10.04	350.38	7.68	-27.5	-29.5	13.2	3.31e-05	0	44	0	2999975936	15	4527
2026-01-26 10:30:11.04	350.28	7.61	-27.1	-28.4	13.9	6.80e-06	0	44	0	3006267392	15	4205
2026-01-26 10:30:12.04	350.18	7.55	-27.2	-28.8	13.6	1.14e-05	0	44	0	3011510272	15	4318
2026-01-26 10:30:13.04	350.08	7.49	-27.3	-29.1	13.5	1.83e-05	0	44	0	3017801728	15	4386
2026-01-26 10:30:14.04	349.99	7.42	-27.1	-28.5	13.8	1.02e-05	0	44	0	3023044608	15	4214
2026-01-26 10:30:15.05	349.89	7.36	-27.2	-28.7	13.7	5.70e-06	0	44	0	3028287488	15	4290
2026-01-26 10:30:16.05	349.79	7.30	-27.0	-28.3	13.9	5.70e-06	0	44	0	3034578944	15	4176
2026-01-26 10:30:17.05	349.70	7.23	-27.5	-29.5	13.2	2.40e-05	0	44	0	3039821824	15	4508
2026-01-26 10:30:18.05	349.60	7.17	-27.2	-28.8	13.6	3.66e-05	0	44	0	3045064704	15	4310
2026-01-26 10:30:19.06	349.50	7.11	-27.3	-29.1	13.4	1.94e-05	0	44	0	3051356160	15	4386
2026-01-26 10:30:20.06	349.41	7.05	-32.5	-40.2	4.0	6.22e-01	0	44	104	3054501888	25	8766
2026-01-26 10:30:21.06	349.31	6.98	-33.3	-44.2	3.8	8.46e-01	0	44	104	3054501888	26	12714

#Closed at: 2026-01-26 10:30:21
#Recorded file [3054 MB]: D:/data/31010_260126_132113.dat