passes_logs/2026/01/26/R2M6_AANII_01/R2M6_AANII_01__20260126_074437_SUOMI_NPP_rec.log

#Pass ID: 20260126_074437_SUOMI NPP
#Satellite: SUOMI NPP
#Configuration: NPP
#almurnet v.1.7.20240730
#Start time: 2026-01-26 07:44:38

#Version: 2.2.20231116
#Station: R2M6_AANII_01
#Location: 30.233357 lon 59.946436 lat
#TLE: 1 37849U 11061A   26025.81780576  .00000180  00000+0  10635-3 0  9993
#TLE: 2 37849  98.7822 327.7738 0002159  45.0809 315.0541 14.19529973738242

#Time	Az	El	Level	Level2	SNR	BER	BlckErr	Temp	State	Recorded	gain1	gain2
2026-01-26 07:44:38.15	77.36	7.02	-31.9	-38.9	4.1	1.43e+00	0	41	0	0	25	8061
2026-01-26 07:44:39.15	77.24	7.08	-31.5	-36.8	4.6	1.31e+00	0	41	104	0	24	6618
2026-01-26 07:44:40.16	77.12	7.13	-31.5	-36.8	6.3	2.60e-01	0	41	0	0	24	6638
2026-01-26 07:44:41.17	77.00	7.18	-31.5	-36.8	6.3	2.60e-01	0	41	102	1048576	24	6620
2026-01-26 07:44:42.17	76.88	7.23	-31.5	-36.7	6.5	2.31e-01	0	41	102	1048576	24	6514
2026-01-26 07:44:43.18	76.75	7.29	-31.6	-37.3	6.0	2.52e-01	0	41	102	1048576	24	6935
2026-01-26 07:44:44.19	76.63	7.34	-31.6	-37.2	6.0	3.21e-01	0	41	102	1048576	24	6871
2026-01-26 07:44:45.19	76.51	7.39	-31.7	-37.7	5.8	4.22e-01	0	41	102	1048576	24	7169
2026-01-26 07:44:46.20	76.38	7.45	-31.7	-37.5	5.8	3.77e-01	0	41	102	1048576	24	7074
2026-01-26 07:44:47.20	76.26	7.50	-31.8	-38.1	5.5	4.08e-01	0	41	102	1048576	24	7460
2026-01-26 07:44:48.21	76.14	7.55	-31.5	-36.6	6.5	2.86e-01	0	41	102	1048576	24	6462
2026-01-26 07:44:49.21	76.01	7.60	-31.5	-36.2	6.8	2.03e-01	0	41	102	1048576	24	6213
2026-01-26 07:44:50.20	75.89	7.65	-31.3	-35.7	7.6	1.21e-01	0	41	102	1048576	23	5995
2026-01-26 07:44:51.21	75.76	7.71	-31.1	-35.1	8.1	6.20e-02	0	41	102	1048576	23	5688
2026-01-26 07:44:52.22	75.64	7.76	-31.0	-34.4	8.6	5.11e-02	0	41	102	1048576	23	5350
2026-01-26 07:44:53.22	75.51	7.81	-31.0	-34.3	8.7	4.20e-02	0	41	102	1048576	23	5315
2026-01-26 07:44:54.23	75.38	7.86	-30.9	-34.2	8.8	2.98e-02	0	41	102	1048576	23	5253
2026-01-26 07:44:55.23	75.25	7.92	-30.8	-33.7	9.1	2.76e-02	0	41	102	1048576	23	5037
2026-01-26 07:44:56.22	75.13	7.97	-30.7	-33.8	9.5	1.90e-02	0	42	102	1048576	22	5162
2026-01-26 07:44:57.23	75.00	8.02	-30.8	-34.1	9.4	1.30e-02	0	41	102	1048576	22	5277
2026-01-26 07:44:58.24	74.87	8.07	-30.6	-33.5	9.8	1.29e-02	0	41	102	1048576	22	5038
2026-01-26 07:44:59.24	74.74	8.12	-30.6	-33.3	9.9	6.34e-03	0	41	102	1048576	22	4936
2026-01-26 07:45:00.24	74.61	8.18	-30.4	-32.8	10.3	6.71e-03	0	42	102	1048576	22	4741
2026-01-26 07:45:01.24	74.48	8.23	-30.6	-33.4	9.9	8.60e-03	0	42	102	1048576	22	4956
2026-01-26 07:45:02.25	74.35	8.28	-30.8	-34.2	9.3	1.47e-02	0	41	102	1048576	22	5301
2026-01-26 07:45:03.26	74.22	8.33	-30.7	-33.7	9.6	1.24e-02	0	41	102	1048576	22	5083
2026-01-26 07:45:04.26	74.09	8.38	-30.4	-32.8	10.3	5.70e-03	0	42	102	1048576	22	4737
2026-01-26 07:45:05.27	73.95	8.44	-30.5	-33.0	10.2	5.36e-03	0	42	102	1048576	22	4805
2026-01-26 07:45:06.28	73.82	8.49	-30.5	-33.2	10.0	4.95e-03	0	42	102	1048576	22	4917
2026-01-26 07:45:07.29	73.69	8.54	-30.5	-33.1	10.1	5.39e-03	0	42	102	1048576	22	4843
2026-01-26 07:45:08.29	73.55	8.59	-30.4	-32.8	10.4	4.96e-03	0	42	102	1048576	22	4719
2026-01-26 07:45:09.30	73.42	8.64	-30.5	-33.1	10.2	7.18e-03	0	42	102	1048576	22	4856
2026-01-26 07:45:10.30	73.28	8.70	-30.5	-33.0	10.2	6.87e-03	0	42	102	1048576	22	4830
2026-01-26 07:45:11.31	73.15	8.75	-30.6	-33.4	9.9	7.33e-03	0	42	102	1048576	22	4996
2026-01-26 07:45:12.31	73.01	8.80	-30.6	-33.5	9.8	9.73e-03	0	42	102	1048576	22	5046
2026-01-26 07:45:13.32	72.88	8.85	-30.7	-34.0	9.5	1.05e-02	0	42	102	1048576	22	5226
2026-01-26 07:45:14.32	72.74	8.90	-31.0	-34.9	8.7	2.61e-02	0	42	102	1048576	22	5687
2026-01-26 07:45:15.32	72.60	8.95	-30.9	-34.8	8.8	3.53e-02	0	42	102	1048576	22	5605
2026-01-26 07:45:16.32	72.47	9.00	-30.8	-34.1	9.3	1.95e-02	0	42	102	1048576	22	5301
2026-01-26 07:45:17.33	72.33	9.06	-30.9	-34.5	9.1	1.87e-02	0	42	102	1048576	22	5461
2026-01-26 07:45:18.34	72.19	9.11	-30.9	-34.5	9.1	1.99e-02	0	42	102	1048576	22	5446
2026-01-26 07:45:19.34	72.05	9.16	-30.9	-34.6	9.1	2.28e-02	0	42	102	1048576	22	5480
2026-01-26 07:45:20.35	71.91	9.21	-30.9	-34.3	9.4	2.50e-02	0	42	102	1048576	22	5324
2026-01-26 07:45:21.35	71.77	9.26	-30.7	-33.8	9.7	1.33e-02	0	42	102	1048576	22	5112
2026-01-26 07:45:22.36	71.63	9.31	-30.7	-33.7	9.8	7.50e-03	0	42	102	1048576	22	5063
2026-01-26 07:45:23.36	71.49	9.36	-30.6	-33.4	10.0	7.74e-03	0	42	102	1048576	22	4982
2026-01-26 07:45:24.37	71.35	9.41	-30.7	-33.7	9.7	9.61e-03	0	42	102	1048576	22	5113
2026-01-26 07:45:25.38	71.20	9.47	-30.7	-33.6	9.8	8.97e-03	0	42	102	1048576	22	5073
2026-01-26 07:45:26.38	71.06	9.52	-30.6	-33.5	9.9	9.39e-03	0	42	102	1048576	22	5031
2026-01-26 07:45:27.39	70.92	9.57	-30.7	-33.6	9.9	8.00e-03	0	42	102	1048576	22	5065
2026-01-26 07:45:28.40	70.77	9.62	-30.6	-33.5	10.0	9.97e-03	0	42	102	1048576	22	5009
2026-01-26 07:45:29.40	70.63	9.67	-30.6	-33.4	10.0	8.95e-03	0	42	102	1048576	22	4978
2026-01-26 07:45:30.41	70.48	9.72	-30.6	-33.3	10.1	8.36e-03	0	42	102	1048576	22	4915
2026-01-26 07:45:31.41	70.34	9.77	-30.6	-33.3	10.1	8.26e-03	0	42	102	1048576	22	4935
2026-01-26 07:45:32.42	70.19	9.82	-30.5	-32.9	10.3	6.52e-03	0	42	102	1048576	22	4784
2026-01-26 07:45:33.42	70.05	9.87	-30.4	-32.6	10.7	3.34e-03	0	42	102	1048576	22	4635
2026-01-26 07:45:34.43	69.90	9.92	-30.5	-32.9	10.4	3.94e-03	0	42	102	1048576	22	4774
2026-01-26 07:45:35.44	69.75	9.97	-30.3	-32.5	10.7	3.87e-03	0	42	102	1048576	22	4631
2026-01-26 07:45:36.43	69.61	10.02	-30.2	-32.7	10.9	2.58e-03	0	42	102	1048576	21	4786
2026-01-26 07:45:37.44	69.46	10.07	-30.2	-32.5	11.1	1.94e-03	0	42	102	1048576	21	4682
2026-01-26 07:45:38.44	69.31	10.12	-30.1	-32.2	11.3	1.04e-03	0	42	102	1048576	21	4601
2026-01-26 07:45:39.44	69.16	10.17	-30.2	-32.4	11.1	1.53e-03	0	42	102	1048576	21	4669
2026-01-26 07:45:40.45	69.01	10.22	-30.2	-32.4	11.1	1.46e-03	0	42	102	1048576	21	4677
2026-01-26 07:45:41.45	68.86	10.27	-30.1	-32.3	11.2	1.45e-03	0	42	102	1048576	21	4617
2026-01-26 07:45:42.46	68.71	10.32	-30.2	-32.4	11.2	1.39e-03	0	42	102	1048576	21	4658
2026-01-26 07:45:43.46	68.56	10.37	-30.0	-32.0	11.5	1.59e-03	0	42	102	1048576	21	4508
2026-01-26 07:45:44.47	68.41	10.42	-29.8	-31.7	12.1	3.51e-04	0	42	102	1048576	20	4480
2026-01-26 07:45:45.48	68.25	10.47	-29.7	-31.6	12.1	2.65e-04	0	42	102	1048576	20	4451
2026-01-26 07:45:46.49	68.10	10.52	-29.6	-31.3	12.2	1.90e-04	0	42	102	1048576	20	4375
2026-01-26 07:45:47.50	67.94	10.57	-29.6	-31.3	12.3	1.79e-04	0	42	102	1048576	20	4347
2026-01-26 07:45:48.50	67.79	10.62	-29.7	-31.4	12.2	2.65e-04	0	43	102	1048576	20	4415
2026-01-26 07:45:49.50	67.64	10.66	-29.8	-31.7	12.0	3.09e-04	0	42	102	1048576	20	4493
2026-01-26 07:45:50.50	67.48	10.71	-29.8	-31.8	12.0	2.66e-04	0	43	102	1048576	20	4530
2026-01-26 07:45:51.51	67.33	10.76	-29.8	-31.8	11.9	3.13e-04	0	42	102	1048576	20	4521
2026-01-26 07:45:52.51	67.17	10.81	-29.8	-32.0	11.8	4.03e-04	0	43	102	1048576	20	4598
2026-01-26 07:45:53.52	67.01	10.86	-29.9	-32.1	11.8	5.16e-04	0	43	102	1048576	20	4622
2026-01-26 07:45:54.52	66.86	10.91	-30.0	-32.3	11.6	6.57e-04	0	43	102	1048576	20	4720
2026-01-26 07:45:55.52	66.70	10.95	-30.0	-32.2	11.6	5.38e-04	0	43	102	1048576	20	4672
2026-01-26 07:45:56.52	66.54	11.00	-29.9	-32.1	11.8	6.04e-04	0	42	102	1048576	20	4629
2026-01-26 07:45:57.52	66.39	11.05	-29.8	-31.8	12.0	4.03e-04	0	42	102	1048576	20	4518
2026-01-26 07:45:58.53	66.23	11.10	-29.9	-32.0	11.9	4.10e-04	0	43	102	1048576	20	4582
2026-01-26 07:45:59.54	66.06	11.15	-29.7	-31.4	12.2	2.39e-04	0	42	102	1048576	20	4377
2026-01-26 07:46:00.55	65.90	11.19	-29.8	-31.7	12.1	1.68e-04	0	43	102	1048576	20	4466
2026-01-26 07:46:01.55	65.74	11.24	-29.6	-31.0	12.6	1.40e-04	0	43	102	1048576	20	4245
2026-01-26 07:46:02.55	65.58	11.29	-29.7	-31.4	12.3	8.62e-05	0	43	102	1048576	20	4360
2026-01-26 07:46:03.55	65.42	11.34	-29.7	-31.3	12.4	1.29e-04	0	43	102	1048576	20	4335
2026-01-26 07:46:04.56	65.26	11.38	-29.6	-31.0	12.6	7.93e-05	0	43	102	1048576	20	4230
2026-01-26 07:46:05.56	65.10	11.43	-29.5	-30.9	12.7	1.04e-04	0	43	102	1048576	20	4203
2026-01-26 07:46:06.57	64.93	11.48	-29.5	-30.9	12.6	9.46e-05	0	43	102	1048576	20	4225
2026-01-26 07:46:07.57	64.77	11.52	-29.4	-30.6	12.9	7.62e-05	0	43	102	1048576	20	4116
2026-01-26 07:46:08.58	64.60	11.57	-29.4	-30.5	12.9	4.19e-05	0	43	102	1048576	20	4093
2026-01-26 07:46:09.59	64.44	11.62	-29.4	-30.6	12.9	4.11e-05	0	43	102	1048576	20	4130
2026-01-26 07:46:10.59	64.27	11.66	-29.5	-30.9	12.6	1.17e-04	0	43	102	1048576	20	4226
2026-01-26 07:46:11.60	64.11	11.71	-29.5	-31.0	12.6	8.01e-05	0	43	102	1048576	20	4249
2026-01-26 07:46:12.61	63.94	11.75	-29.7	-31.3	12.3	2.03e-04	0	42	102	1048576	20	4372
2026-01-26 07:46:13.61	63.77	11.80	-29.7	-31.4	12.2	1.93e-04	0	43	102	1048576	20	4392
2026-01-26 07:46:14.61	63.61	11.85	-29.6	-31.1	12.5	1.35e-04	0	43	102	1048576	20	4276
2026-01-26 07:46:15.62	63.44	11.89	-29.5	-30.9	12.6	9.76e-05	0	43	102	1048576	20	4213
2026-01-26 07:46:16.63	63.27	11.94	-29.3	-30.4	12.9	6.94e-05	0	43	102	1048576	20	4063
2026-01-26 07:46:17.63	63.10	11.98	-29.3	-30.6	13.2	2.89e-05	0	43	102	1048576	19	4204
2026-01-26 07:46:18.63	62.93	12.03	-29.3	-30.6	13.3	1.52e-05	0	43	102	1048576	19	4204
2026-01-26 07:46:19.64	62.76	12.07	-29.2	-30.5	13.3	1.06e-05	0	43	102	1048576	19	4173
2026-01-26 07:46:20.65	62.59	12.12	-29.2	-30.4	13.4	1.44e-05	0	43	102	1048576	19	4152
2026-01-26 07:46:21.65	62.42	12.16	-29.1	-30.2	13.5	9.10e-06	0	43	102	1048576	19	4066
2026-01-26 07:46:22.65	62.25	12.21	-29.1	-30.0	13.6	1.14e-05	0	43	102	1048576	19	4026
2026-01-26 07:46:23.65	62.07	12.25	-29.1	-30.2	13.6	9.10e-06	0	43	102	1048576	19	4075
2026-01-26 07:46:24.65	61.90	12.29	-29.2	-30.5	13.4	1.06e-05	0	43	102	1048576	19	4179
2026-01-26 07:46:25.65	61.73	12.34	-29.4	-30.9	13.1	2.21e-05	0	43	102	1048576	19	4297
2026-01-26 07:46:26.66	61.55	12.38	-29.4	-30.9	13.1	2.89e-05	0	43	102	1048576	19	4279
2026-01-26 07:46:27.66	61.38	12.42	-29.5	-31.3	12.9	3.35e-05	0	43	102	1048576	19	4414
2026-01-26 07:46:28.67	61.20	12.47	-29.5	-31.3	12.9	4.73e-05	0	43	102	1048576	19	4416
2026-01-26 07:46:29.67	61.03	12.51	-29.5	-31.2	12.9	4.42e-05	0	43	102	1048576	19	4371
2026-01-26 07:46:30.68	60.85	12.55	-29.9	-32.2	12.3	6.56e-05	0	43	102	1048576	19	4723
2026-01-26 07:46:31.68	60.68	12.60	-29.8	-32.0	12.5	9.91e-05	0	43	102	1048576	19	4662
2026-01-26 07:46:32.69	60.50	12.64	-30.0	-32.2	11.9	2.38e-04	0	43	102	1048576	20	4632
2026-01-26 07:46:33.69	60.32	12.68	-30.0	-32.2	11.9	4.25e-04	0	43	102	1048576	20	4619
2026-01-26 07:46:34.70	60.14	12.72	-29.9	-31.8	12.1	3.75e-04	0	43	102	1048576	20	4510
2026-01-26 07:46:35.70	59.97	12.76	-29.8	-31.6	12.4	1.68e-04	0	43	102	1048576	20	4404
2026-01-26 07:46:36.71	59.79	12.81	-29.7	-31.4	12.5	9.46e-05	0	43	102	1048576	20	4343
2026-01-26 07:46:37.71	59.61	12.85	-29.8	-31.6	12.4	9.76e-05	0	43	102	1048576	20	4413
2026-01-26 07:46:38.71	59.43	12.89	-29.8	-31.7	12.3	1.72e-04	0	43	102	1048576	20	4455
2026-01-26 07:46:39.72	59.25	12.93	-29.8	-31.6	12.3	2.20e-04	0	43	102	1048576	20	4431
2026-01-26 07:46:40.72	59.07	12.97	-29.9	-32.0	12.0	2.30e-04	0	43	102	1048576	20	4568
2026-01-26 07:46:41.72	58.89	13.01	-29.9	-31.9	12.1	3.00e-04	0	43	102	1048576	20	4537
2026-01-26 07:46:42.73	58.70	13.05	-29.9	-32.0	12.0	2.59e-04	0	43	102	1048576	20	4571
2026-01-26 07:46:43.73	58.52	13.09	-29.9	-31.9	12.1	2.63e-04	0	43	102	1048576	20	4532
2026-01-26 07:46:44.74	58.34	13.13	-30.0	-32.2	11.9	3.78e-04	0	43	102	1048576	20	4637
2026-01-26 07:46:45.74	58.15	13.17	-29.9	-32.0	12.0	5.32e-04	0	43	102	1048576	20	4587
2026-01-26 07:46:46.75	57.97	13.21	-29.7	-31.4	12.4	2.30e-04	0	43	102	1048576	20	4368
2026-01-26 07:46:47.76	57.78	13.25	-29.6	-30.9	12.7	1.11e-04	0	43	102	1048576	20	4209
2026-01-26 07:46:48.76	57.60	13.29	-29.7	-31.3	12.6	9.30e-05	0	43	102	1048576	20	4333
2026-01-26 07:46:49.76	57.41	13.33	-29.5	-30.7	12.9	6.94e-05	0	43	102	1048576	20	4138
2026-01-26 07:46:50.77	57.23	13.37	-29.4	-30.4	13.1	3.43e-05	0	43	102	1048576	20	4050
2026-01-26 07:46:51.77	57.04	13.41	-29.4	-30.5	13.1	3.12e-05	0	43	102	1048576	20	4075
2026-01-26 07:46:52.78	56.85	13.44	-29.6	-31.0	12.8	4.34e-05	0	43	102	1048576	20	4227
2026-01-26 07:46:53.78	56.67	13.48	-29.7	-31.2	12.6	7.70e-05	0	43	102	1048576	20	4295
2026-01-26 07:46:54.78	56.48	13.52	-29.6	-31.2	12.6	1.60e-04	0	43	102	1048576	20	4293
2026-01-26 07:46:55.79	56.29	13.56	-29.6	-31.0	12.6	9.76e-05	0	43	102	1048576	20	4238
2026-01-26 07:46:56.79	56.10	13.59	-29.5	-30.6	12.9	4.95e-05	0	43	102	1048576	20	4129
2026-01-26 07:46:57.80	55.91	13.63	-29.3	-30.7	13.3	2.82e-05	0	43	102	1048576	19	4207
2026-01-26 07:46:58.80	55.72	13.67	-29.3	-30.7	13.3	2.44e-05	0	43	102	1048576	19	4204
2026-01-26 07:46:59.81	55.53	13.70	-29.3	-30.7	13.3	1.44e-05	0	43	102	1048576	19	4210
2026-01-26 07:47:00.81	55.34	13.74	-29.3	-30.7	13.3	2.36e-05	0	43	102	1048576	19	4224
2026-01-26 07:47:01.82	55.15	13.78	-29.6	-31.5	12.7	5.79e-05	0	43	102	1048576	19	4476
2026-01-26 07:47:02.81	54.96	13.81	-29.5	-31.3	12.9	7.85e-05	0	43	102	1048576	19	4417
2026-01-26 07:47:03.82	54.77	13.85	-29.5	-31.2	13.0	3.96e-05	0	43	102	1048576	19	4390
2026-01-26 07:47:04.83	54.57	13.88	-29.8	-32.0	12.4	6.94e-05	0	43	102	1048576	19	4649
2026-01-26 07:47:05.83	54.38	13.92	-29.8	-32.1	12.4	1.36e-04	0	43	102	1048576	19	4660
2026-01-26 07:47:06.84	54.19	13.95	-29.8	-32.1	12.4	8.23e-05	0	43	102	1048576	19	4688
2026-01-26 07:47:07.84	53.99	13.99	-30.0	-32.0	12.0	2.33e-04	0	43	102	1048576	20	4570
2026-01-26 07:47:08.84	53.80	14.02	-30.2	-32.8	11.4	7.03e-04	0	43	102	1048576	20	4847
2026-01-26 07:47:09.85	53.60	14.05	-29.8	-31.6	12.3	4.16e-04	0	43	102	1048576	20	4430
2026-01-26 07:47:10.86	53.41	14.09	-29.5	-30.6	13.0	1.11e-04	0	43	102	1048576	20	4111
2026-01-26 07:47:11.86	53.21	14.12	-29.3	-30.7	13.4	2.13e-05	0	43	102	1048576	19	4200
2026-01-26 07:47:12.87	53.01	14.15	-29.1	-30.1	13.7	7.60e-06	0	43	102	1048576	19	4033
2026-01-26 07:47:13.88	52.82	14.19	-29.0	-29.8	13.9	5.30e-06	0	43	102	1048576	19	3938
2026-01-26 07:47:14.88	52.62	14.22	-28.8	-29.3	14.3	1.50e-06	0	43	102	1048576	19	3809
2026-01-26 07:47:15.88	52.42	14.25	-28.7	-29.4	14.5	0.00e+00	0	43	102	1048576	18	3901
2026-01-26 07:47:16.88	52.23	14.28	-28.9	-29.9	14.3	0.00e+00	0	43	102	1048576	18	4052
2026-01-26 07:47:17.88	52.03	14.31	-28.9	-29.9	14.2	1.50e-06	0	43	102	1048576	18	4039
2026-01-26 07:47:18.89	51.83	14.34	-29.0	-30.2	14.0	3.00e-06	0	43	102	1048576	18	4139
2026-01-26 07:47:19.89	51.63	14.37	-29.1	-30.4	13.9	0.00e+00	0	43	102	1048576	18	4219
2026-01-26 07:47:20.90	51.43	14.40	-29.2	-30.7	13.7	1.50e-06	0	43	102	1048576	18	4283
2026-01-26 07:47:21.90	51.23	14.43	-29.1	-30.6	13.8	7.60e-06	0	43	102	1048576	18	4258
2026-01-26 07:47:22.90	51.03	14.46	-29.0	-30.3	14.0	7.60e-06	0	43	102	1048576	18	4163
2026-01-26 07:47:23.91	50.83	14.49	-29.0	-30.2	14.0	3.00e-06	0	43	102	1048576	18	4145
2026-01-26 07:47:24.91	50.63	14.52	-29.1	-30.4	13.9	3.00e-06	0	43	102	1048576	18	4204
2026-01-26 07:47:25.92	50.43	14.55	-29.1	-30.5	13.9	4.50e-06	0	43	102	1048576	18	4226
2026-01-26 07:47:26.92	50.22	14.58	-28.9	-30.0	14.2	7.00e-07	0	43	102	1048576	18	4067
2026-01-26 07:47:27.93	50.02	14.61	-29.0	-30.1	14.1	2.20e-06	0	43	102	1048576	18	4119
2026-01-26 07:47:28.94	49.82	14.64	-29.1	-30.5	13.9	1.50e-06	0	43	102	1048576	18	4220
2026-01-26 07:47:29.94	49.61	14.66	-29.2	-30.8	13.7	7.60e-06	0	43	102	1048576	18	4325
2026-01-26 07:47:30.94	49.41	14.69	-29.5	-31.0	13.3	1.44e-05	0	43	102	1048576	19	4287
2026-01-26 07:47:31.94	49.21	14.72	-29.5	-31.1	13.2	1.75e-05	0	43	102	1048576	19	4335
2026-01-26 07:47:32.94	49.01	14.74	-29.7	-31.6	12.9	3.66e-05	0	43	102	1048576	19	4488
2026-01-26 07:47:33.94	48.80	14.77	-29.6	-31.4	13.0	6.17e-05	0	43	102	1048576	19	4431
2026-01-26 07:47:34.95	48.60	14.80	-29.6	-31.3	13.1	3.43e-05	0	43	102	1048576	19	4378
2026-01-26 07:47:35.95	48.39	14.82	-29.6	-31.4	13.0	4.04e-05	0	43	102	1048576	19	4432
2026-01-26 07:47:36.95	48.19	14.85	-29.7	-31.5	12.9	5.11e-05	0	43	102	1048576	19	4449
2026-01-26 07:47:37.96	47.98	14.87	-29.6	-31.4	13.0	3.58e-05	0	43	102	1048576	19	4420
2026-01-26 07:47:38.96	47.77	14.90	-29.6	-31.3	13.1	2.97e-05	0	43	102	1048576	19	4375
2026-01-26 07:47:39.97	47.57	14.92	-29.7	-31.7	12.8	3.73e-05	0	43	102	1048576	19	4517
2026-01-26 07:47:40.97	47.36	14.94	-29.6	-31.4	13.0	5.03e-05	0	43	102	1048576	19	4421
2026-01-26 07:47:41.98	47.15	14.97	-29.7	-31.5	12.9	4.19e-05	0	43	102	1048576	19	4461
2026-01-26 07:47:42.98	46.94	14.99	-29.6	-31.3	13.1	3.81e-05	0	43	102	1048576	19	4397
2026-01-26 07:47:43.98	46.74	15.01	-29.9	-32.2	12.5	5.26e-05	0	43	102	1048576	19	4671
2026-01-26 07:47:44.98	46.53	15.04	-29.7	-31.6	12.9	7.70e-05	0	43	102	1048576	19	4470
2026-01-26 07:47:45.99	46.32	15.06	-29.5	-31.1	13.2	3.28e-05	0	43	102	1048576	19	4314
2026-01-26 07:47:46.99	46.11	15.08	-29.6	-31.5	13.0	2.13e-05	0	43	102	1048576	19	4453
2026-01-26 07:47:48.00	45.90	15.10	-29.7	-31.7	12.8	3.66e-05	0	43	102	1048576	19	4530
2026-01-26 07:47:49.00	45.69	15.12	-29.5	-31.2	13.2	3.35e-05	0	43	102	1048576	19	4341
2026-01-26 07:47:50.00	45.48	15.14	-29.2	-30.3	13.7	1.06e-05	0	43	102	1048576	19	4087
2026-01-26 07:47:51.00	45.27	15.16	-29.2	-30.2	13.8	7.60e-06	0	43	102	1048576	19	4037
2026-01-26 07:47:52.01	45.06	15.18	-29.1	-29.9	14.0	8.30e-06	0	43	102	1048576	19	3979
2026-01-26 07:47:53.01	44.85	15.20	-29.1	-29.9	14.0	7.00e-07	0	43	102	1048576	19	3972
2026-01-26 07:47:54.01	44.64	15.22	-29.0	-29.8	14.0	1.50e-06	0	43	102	1048576	19	3926
2026-01-26 07:47:55.01	44.43	15.24	-29.1	-30.1	13.8	3.00e-06	0	43	102	1048576	19	4024
2026-01-26 07:47:56.01	44.22	15.26	-29.2	-30.3	13.7	8.30e-06	0	43	102	1048576	19	4081
2026-01-26 07:47:57.02	44.01	15.27	-29.3	-30.5	13.5	5.30e-06	0	43	102	1048576	19	4154
2026-01-26 07:47:58.02	43.80	15.29	-29.3	-30.6	13.5	9.10e-06	0	43	102	1048576	19	4182
2026-01-26 07:47:59.03	43.58	15.31	-29.5	-31.1	13.2	1.67e-05	0	43	102	1048576	19	4323
2026-01-26 07:48:00.04	43.37	15.33	-29.4	-31.0	13.2	2.21e-05	0	43	102	1048576	19	4300
2026-01-26 07:48:01.04	43.16	15.34	-29.5	-31.3	13.0	3.12e-05	0	43	102	1048576	19	4407
2026-01-26 07:48:02.04	42.95	15.36	-29.4	-31.0	13.3	3.05e-05	0	43	102	1048576	19	4301
2026-01-26 07:48:03.05	42.73	15.37	-29.4	-30.8	13.3	1.75e-05	0	43	102	1048576	19	4242
2026-01-26 07:48:04.06	42.52	15.39	-29.5	-31.1	13.1	1.14e-05	0	43	102	1048576	19	4345
2026-01-26 07:48:05.06	42.30	15.40	-29.7	-31.7	12.7	3.73e-05	0	43	102	1048576	19	4550
2026-01-26 07:48:06.06	42.09	15.42	-29.6	-31.4	13.0	4.11e-05	0	43	102	1048576	19	4450
2026-01-26 07:48:07.07	41.88	15.43	-29.8	-32.1	12.4	8.54e-05	0	43	102	1048576	19	4684
2026-01-26 07:48:08.07	41.66	15.45	-29.8	-32.1	12.5	9.84e-05	0	43	102	1048576	19	4696
2026-01-26 07:48:09.08	41.45	15.46	-30.1	-32.3	11.9	1.66e-04	0	43	102	1048576	20	4668
2026-01-26 07:48:10.09	41.23	15.47	-29.7	-31.2	12.6	1.24e-04	0	43	102	1048576	20	4312
2026-01-26 07:48:11.09	41.02	15.49	-29.7	-31.3	12.6	8.39e-05	0	43	102	1048576	20	4321
2026-01-26 07:48:12.10	40.80	15.50	-29.9	-32.0	12.2	1.67e-04	0	43	102	1048576	20	4545
2026-01-26 07:48:13.11	40.59	15.51	-29.7	-31.2	12.6	1.23e-04	0	43	102	1048576	20	4313
2026-01-26 07:48:14.12	40.37	15.52	-29.6	-31.1	12.8	1.04e-04	0	43	102	1048576	20	4252
2026-01-26 07:48:15.12	40.15	15.53	-29.5	-31.0	12.8	5.64e-05	0	43	102	1048576	20	4236
2026-01-26 07:48:16.12	39.94	15.54	-29.6	-31.1	12.7	5.87e-05	0	43	102	1048576	20	4241
2026-01-26 07:48:17.13	39.72	15.55	-29.7	-31.1	12.7	8.85e-05	0	43	102	1048576	20	4253
2026-01-26 07:48:18.14	39.51	15.56	-29.6	-30.9	12.9	5.56e-05	0	43	102	1048576	20	4202
2026-01-26 07:48:19.14	39.29	15.57	-29.5	-30.6	13.1	3.96e-05	0	43	102	1048576	20	4099
2026-01-26 07:48:20.15	39.07	15.58	-29.6	-31.0	12.8	3.28e-05	0	43	102	1048576	20	4217
2026-01-26 07:48:21.15	38.86	15.59	-29.7	-31.1	12.7	7.09e-05	0	43	102	1048576	20	4258
2026-01-26 07:48:22.16	38.64	15.60	-29.5	-30.6	13.0	5.95e-05	0	43	102	1048576	20	4108
2026-01-26 07:48:23.17	38.42	15.60	-29.6	-30.9	12.9	3.96e-05	0	43	102	1048576	20	4177
2026-01-26 07:48:24.17	38.21	15.61	-29.4	-30.4	13.2	3.05e-05	0	43	102	1048576	20	4041
2026-01-26 07:48:25.17	37.99	15.62	-29.5	-30.5	13.2	2.28e-05	0	43	102	1048576	20	4055
2026-01-26 07:48:26.17	37.78	15.62	-29.9	-31.8	12.3	1.88e-04	0	43	102	1048576	20	4470
2026-01-26 07:48:27.17	37.56	15.63	-28.9	-30.2	13.1	3.43e-05	0	43	102	1048576	19	4175
2026-01-26 07:48:28.18	37.34	15.63	-29.5	-31.0	13.1	2.28e-05	0	43	102	1048576	19	4290
2026-01-26 07:48:29.19	37.12	15.64	-29.8	-31.9	12.6	4.19e-05	0	43	102	1048576	19	4607
2026-01-26 07:48:30.19	36.91	15.64	-29.8	-31.9	12.4	1.05e-04	0	43	102	1048576	19	4595
2026-01-26 07:48:31.20	36.69	15.65	-29.9	-32.2	12.3	1.11e-04	0	43	102	1048576	19	4681
2026-01-26 07:48:32.20	36.47	15.65	-30.0	-32.0	12.2	1.16e-04	0	43	102	1048576	20	4534
2026-01-26 07:48:33.20	36.26	15.66	-30.1	-32.4	11.9	4.55e-04	0	43	102	1048576	20	4681
2026-01-26 07:48:34.21	36.04	15.66	-29.8	-31.6	12.5	2.54e-04	0	43	102	1048576	20	4403
2026-01-26 07:48:35.21	35.82	15.66	-30.2	-32.6	11.7	2.00e-04	0	43	102	1048576	20	4749
2026-01-26 07:48:36.22	35.60	15.66	-30.2	-32.5	11.9	8.28e-04	0	43	102	1048576	20	4700
2026-01-26 07:48:37.22	35.39	15.67	-29.7	-31.7	12.7	1.88e-04	0	43	102	1048576	19	4525
2026-01-26 07:48:38.22	35.17	15.67	-29.3	-30.5	13.6	1.44e-05	0	43	102	1048576	19	4136
2026-01-26 07:48:39.23	34.95	15.67	-29.4	-30.8	13.4	1.14e-05	0	43	102	1048576	19	4219
2026-01-26 07:48:40.23	34.73	15.67	-29.4	-31.4	13.3	2.08e-04	0	43	102	1048576	18	4514
2026-01-26 07:48:41.23	34.52	15.67	-29.3	-31.1	13.5	1.67e-05	0	43	102	1048576	18	4418
2026-01-26 07:48:42.24	34.30	15.67	-29.2	-30.7	13.6	1.06e-05	0	43	102	1048576	18	4309
2026-01-26 07:48:43.24	34.08	15.67	-29.6	-31.4	13.0	4.98e-04	0	43	102	1048576	19	4421
2026-01-26 07:48:44.24	33.87	15.67	-29.8	-31.8	12.7	7.01e-05	0	43	102	1048576	19	4562
2026-01-26 07:48:45.25	33.65	15.67	-29.9	-32.1	12.5	8.77e-05	0	43	102	1048576	19	4675
2026-01-26 07:48:46.25	33.43	15.66	-29.8	-31.9	12.6	7.26e-04	0	43	102	1048576	19	4598
2026-01-26 07:48:47.26	33.21	15.66	-29.8	-32.0	12.5	8.23e-05	0	43	102	1048576	19	4639
2026-01-26 07:48:48.27	32.99	15.66	-29.7	-31.7	12.7	1.58e-04	0	43	102	1048576	19	4526
2026-01-26 07:48:49.28	32.77	15.65	-29.9	-32.3	12.3	1.42e-04	0	43	102	1048576	19	4742
2026-01-26 07:48:50.28	32.56	15.65	-30.0	-32.4	12.2	1.42e-04	0	43	102	1048576	19	4786
2026-01-26 07:48:51.29	32.34	15.65	-30.1	-32.5	11.7	2.90e-04	0	43	102	1048576	20	4744
2026-01-26 07:48:52.29	32.12	15.64	-30.2	-32.8	11.5	6.23e-04	0	43	102	1048576	20	4830
2026-01-26 07:48:53.29	31.91	15.64	-30.2	-32.9	11.4	8.36e-04	0	43	102	1048576	20	4884
2026-01-26 07:48:54.29	31.69	15.63	-30.2	-32.8	11.5	1.64e-03	0	43	102	1048576	20	4841
2026-01-26 07:48:55.30	31.47	15.63	-30.3	-32.9	11.4	9.65e-04	0	43	102	1048576	20	4895
2026-01-26 07:48:56.30	31.26	15.62	-30.3	-33.0	11.4	9.77e-04	0	43	102	1048576	20	4906
2026-01-26 07:48:57.30	31.04	15.61	-30.1	-32.4	11.8	1.65e-03	0	43	102	1048576	20	4688
2026-01-26 07:48:58.31	30.82	15.61	-30.0	-32.2	12.0	1.62e-03	0	43	102	1048576	20	4616
2026-01-26 07:48:59.31	30.61	15.60	-30.0	-31.7	11.9	7.91e-04	0	43	102	1048576	21	4366
2026-01-26 07:49:00.32	30.39	15.59	-29.8	-31.7	12.3	1.47e-03	0	43	102	1048576	20	4433
2026-01-26 07:49:01.33	30.17	15.58	-30.1	-32.2	12.0	1.81e-03	0	43	102	1048576	20	4602
2026-01-26 07:49:02.32	29.96	15.58	-30.0	-32.1	12.1	3.71e-04	0	43	102	1048576	20	4575
2026-01-26 07:49:03.32	29.75	15.57	-30.0	-32.0	12.1	1.53e-03	0	43	102	1048576	20	4531
2026-01-26 07:49:04.33	29.53	15.56	-30.2	-32.5	11.7	2.45e-03	0	44	102	1048576	20	4722
2026-01-26 07:49:05.34	29.31	15.55	-29.7	-31.3	12.5	2.47e-04	0	43	102	1048576	20	4312
2026-01-26 07:49:06.34	29.10	15.54	-30.0	-32.0	12.1	1.63e-03	0	43	102	1048576	20	4542
2026-01-26 07:49:07.35	28.88	15.53	-30.2	-32.6	11.8	1.76e-03	0	43	102	1048576	20	4760
2026-01-26 07:49:08.35	28.67	15.52	-30.0	-32.1	12.0	5.33e-04	0	43	102	1048576	20	4577
2026-01-26 07:49:09.36	28.45	15.50	-29.9	-32.3	12.3	1.83e-04	0	43	102	1048576	19	4721
2026-01-26 07:49:10.36	28.24	15.49	-29.8	-31.8	12.7	1.07e-03	0	43	102	1048576	19	4552
2026-01-26 07:49:11.36	28.02	15.48	-29.3	-30.6	13.4	3.35e-05	0	43	102	1048576	19	4173
2026-01-26 07:49:12.37	27.81	15.47	-29.3	-31.1	13.5	8.86e-04	0	43	102	1048576	18	4417
2026-01-26 07:49:13.37	27.59	15.45	-29.1	-30.6	13.8	1.03e-03	0	43	102	1048576	18	4254
2026-01-26 07:49:14.38	27.38	15.44	-29.0	-30.2	14.0	7.00e-07	0	43	102	1048576	18	4150
2026-01-26 07:49:15.39	27.16	15.43	-29.0	-30.4	14.0	9.72e-04	0	43	102	1048576	18	4184
2026-01-26 07:49:16.39	26.95	15.41	-29.1	-30.5	13.9	1.50e-06	0	43	102	1048576	18	4217
2026-01-26 07:49:17.39	26.74	15.40	-29.3	-31.0	13.5	5.30e-06	0	43	102	1048576	18	4376
2026-01-26 07:49:18.40	26.52	15.38	-29.4	-30.9	13.3	1.24e-03	0	43	102	1048576	19	4251
2026-01-26 07:49:19.40	26.31	15.37	-29.4	-31.2	13.4	1.16e-03	0	43	102	1048576	18	4442
2026-01-26 07:49:20.40	26.10	15.35	-29.4	-31.2	13.4	6.10e-06	0	43	102	1048576	18	4446
2026-01-26 07:49:21.41	25.88	15.34	-29.5	-31.1	13.2	8.12e-04	0	43	102	1048576	19	4300
2026-01-26 07:49:22.41	25.67	15.32	-29.3	-30.6	13.5	7.29e-04	0	44	102	1048576	19	4149
2026-01-26 07:49:23.42	25.46	15.30	-29.5	-30.9	13.3	1.60e-05	0	43	102	1048576	19	4234
2026-01-26 07:49:24.42	25.25	15.29	-29.4	-31.1	13.5	7.85e-04	0	43	102	1048576	18	4402
2026-01-26 07:49:25.43	25.04	15.27	-29.3	-31.1	13.5	8.02e-04	0	43	102	1048576	18	4397
2026-01-26 07:49:26.44	24.82	15.25	-29.4	-31.3	13.4	9.10e-06	0	43	102	1048576	18	4480
2026-01-26 07:49:27.44	24.61	15.23	-29.6	-31.2	13.1	8.16e-05	0	43	102	1048576	19	4347
2026-01-26 07:49:28.45	24.40	15.21	-29.7	-31.7	12.7	7.69e-04	0	43	102	1048576	19	4520
2026-01-26 07:49:29.45	24.19	15.19	-29.7	-31.6	12.8	7.24e-05	0	43	102	1048576	19	4469
2026-01-26 07:49:30.46	23.98	15.17	-29.6	-31.3	13.0	3.66e-05	0	43	102	1048576	19	4385
2026-01-26 07:49:31.46	23.77	15.15	-29.5	-31.1	13.1	7.90e-04	0	43	102	1048576	19	4329
2026-01-26 07:49:32.47	23.56	15.13	-29.4	-30.8	13.3	2.97e-05	0	43	102	1048576	19	4229
2026-01-26 07:49:33.47	23.35	15.11	-29.2	-30.9	13.6	1.06e-05	0	43	102	1048576	18	4335
2026-01-26 07:49:34.48	23.14	15.09	-29.4	-31.2	13.4	6.80e-06	0	43	102	1048576	18	4435
2026-01-26 07:49:35.48	22.93	15.07	-29.2	-30.7	13.6	1.29e-05	0	43	102	1048576	18	4270
2026-01-26 07:49:36.49	22.72	15.05	-29.0	-30.1	14.1	1.50e-06	0	43	102	1048576	18	4111
2026-01-26 07:49:37.49	22.52	15.03	-28.9	-30.5	14.1	2.20e-06	0	43	102	1048576	17	4314
2026-01-26 07:49:38.50	22.31	15.00	-29.2	-30.6	13.8	2.20e-06	0	44	102	1048576	18	4248
2026-01-26 07:49:39.50	22.10	14.98	-29.2	-30.7	13.7	8.10e-04	0	44	102	1048576	18	4266
2026-01-26 07:49:40.51	21.89	14.96	-29.3	-30.8	13.6	6.10e-06	0	43	102	1048576	18	4311
2026-01-26 07:49:41.52	21.68	14.93	-29.2	-30.8	13.7	9.90e-06	0	43	102	1048576	18	4296
2026-01-26 07:49:42.52	21.48	14.91	-29.0	-30.3	14.0	1.21e-03	0	43	102	1048576	18	4147
2026-01-26 07:49:43.52	21.27	14.89	-29.3	-31.1	13.5	5.30e-06	0	43	102	1048576	18	4392
2026-01-26 07:49:44.53	21.07	14.86	-29.3	-31.0	13.6	4.50e-06	0	43	102	1048576	18	4360
2026-01-26 07:49:45.53	20.86	14.84	-29.3	-31.0	13.5	9.90e-06	0	44	102	1048576	18	4374
2026-01-26 07:49:46.54	20.65	14.81	-29.6	-31.3	13.0	2.44e-05	0	43	102	1048576	19	4365
2026-01-26 07:49:47.53	20.45	14.79	-29.7	-31.6	12.8	7.24e-05	0	43	102	1048576	19	4480
2026-01-26 07:49:48.54	20.25	14.76	-29.6	-31.4	12.9	3.20e-05	0	43	102	1048576	19	4401
2026-01-26 07:49:49.54	20.04	14.73	-29.4	-30.8	13.3	8.64e-04	0	43	102	1048576	19	4221
2026-01-26 07:49:50.54	19.84	14.71	-29.5	-31.0	13.1	2.36e-05	0	43	102	1048576	19	4294
2026-01-26 07:49:51.55	19.64	14.68	-29.8	-31.9	12.6	1.02e-04	0	43	102	1048576	19	4584
2026-01-26 07:49:52.56	19.43	14.65	-29.5	-31.2	13.0	7.40e-05	0	43	102	1048576	19	4347
2026-01-26 07:49:53.57	19.23	14.62	-29.8	-31.8	12.6	8.01e-05	0	43	102	1048576	19	4563
2026-01-26 07:49:54.57	19.03	14.60	-29.9	-31.9	12.1	2.69e-04	0	43	102	1048576	20	4512
2026-01-26 07:49:55.58	18.82	14.57	-30.0	-32.1	12.0	1.79e-04	0	43	102	1048576	20	4580
2026-01-26 07:49:56.58	18.62	14.54	-30.1	-32.3	11.8	2.89e-04	0	43	102	1048576	20	4661
2026-01-26 07:49:57.58	18.42	14.51	-30.4	-33.1	11.2	1.12e-03	0	43	102	1048576	20	4959
2026-01-26 07:49:58.58	18.22	14.48	-30.2	-32.7	11.5	1.18e-03	0	43	102	1048576	20	4779
2026-01-26 07:49:59.59	18.02	14.45	-30.2	-32.6	11.6	1.32e-03	0	43	102	1048576	20	4739
2026-01-26 07:50:00.59	17.82	14.42	-30.1	-32.2	11.8	5.32e-04	0	43	102	1048576	20	4617
2026-01-26 07:50:01.59	17.63	14.39	-29.8	-31.6	12.3	3.39e-04	0	43	102	1048576	20	4400
2026-01-26 07:50:02.58	17.43	14.36	-29.7	-31.1	12.7	1.06e-04	0	43	102	1048576	20	4230
2026-01-26 07:50:03.58	17.23	14.33	-29.7	-31.6	12.7	8.01e-05	0	44	102	1048576	19	4493
2026-01-26 07:50:04.59	17.03	14.30	-29.7	-31.5	12.9	5.34e-05	0	43	102	1048576	19	4445
2026-01-26 07:50:05.59	16.84	14.27	-29.5	-31.1	13.1	5.95e-05	0	43	102	1048576	19	4330
2026-01-26 07:50:06.60	16.64	14.24	-29.6	-31.2	13.1	2.59e-05	0	43	102	1048576	19	4360
2026-01-26 07:50:07.60	16.44	14.21	-29.6	-31.4	13.0	6.02e-05	0	43	102	1048576	19	4419
2026-01-26 07:50:08.60	16.25	14.17	-29.5	-31.7	12.7	3.43e-05	0	43	102	1048576	18	4605
2026-01-26 07:50:09.61	16.05	14.14	-29.4	-31.3	12.7	2.28e-05	0	43	102	1048576	18	4493
2026-01-26 07:50:10.62	15.85	14.11	-29.4	-31.2	13.3	1.90e-05	0	43	102	1048576	18	4453
2026-01-26 07:50:11.62	15.66	14.08	-29.3	-31.2	13.1	1.52e-05	0	44	102	1048576	18	4445
2026-01-26 07:50:12.63	15.46	14.04	-29.2	-30.8	13.5	9.10e-06	0	43	102	1048576	18	4337
2026-01-26 07:50:13.63	15.27	14.01	-29.3	-31.0	13.5	1.14e-05	0	43	102	1048576	18	4366
2026-01-26 07:50:14.64	15.07	13.97	-29.2	-30.9	13.6	1.83e-05	0	43	102	1048576	18	4339
2026-01-26 07:50:15.64	14.88	13.94	-28.9	-30.6	14.1	3.80e-06	0	43	102	1048576	17	4342
2026-01-26 07:50:16.64	14.69	13.91	-28.9	-30.4	14.1	7.00e-07	0	43	102	1048576	17	4289
2026-01-26 07:50:17.64	14.50	13.87	-29.1	-30.4	13.8	0.00e+00	0	43	102	1048576	18	4197
2026-01-26 07:50:18.64	14.31	13.84	-29.0	-30.2	13.9	6.80e-06	0	43	102	1048576	18	4147
2026-01-26 07:50:19.64	14.12	13.80	-29.3	-30.9	13.4	3.00e-06	0	43	102	1048576	18	4357
2026-01-26 07:50:20.64	13.93	13.76	-29.3	-31.0	13.4	6.93e-04	0	43	102	1048576	18	4376
2026-01-26 07:50:21.65	13.73	13.73	-29.2	-30.8	13.5	8.30e-06	0	43	102	1048576	18	4334
2026-01-26 07:50:22.65	13.54	13.69	-29.3	-31.2	13.3	1.44e-05	0	43	102	1048576	18	4446
2026-01-26 07:50:23.66	13.35	13.66	-29.5	-31.5	13.2	8.64e-04	0	43	102	1048576	18	4540
2026-01-26 07:50:24.67	13.16	13.62	-29.5	-31.2	13.0	1.15e-03	0	43	102	1048576	19	4360
2026-01-26 07:50:25.67	12.98	13.58	-29.6	-31.2	13.0	4.95e-05	0	43	102	1048576	19	4371
2026-01-26 07:50:26.67	12.79	13.55	-29.8	-32.1	12.3	8.69e-05	0	44	102	1048576	19	4668
2026-01-26 07:50:27.67	12.60	13.51	-29.9	-32.0	12.0	1.15e-03	0	43	102	1048576	20	4547
2026-01-26 07:50:28.68	12.41	13.47	-30.0	-32.1	11.8	4.55e-04	0	43	102	1048576	20	4601
2026-01-26 07:50:29.69	12.23	13.43	-30.0	-32.3	11.7	6.44e-04	0	43	102	1048576	20	4665
2026-01-26 07:50:30.69	12.04	13.39	-30.0	-32.2	11.8	1.24e-03	0	44	102	1048576	20	4635
2026-01-26 07:50:31.69	11.86	13.36	-29.8	-31.6	12.2	5.31e-04	0	43	102	1048576	20	4414
2026-01-26 07:50:32.70	11.67	13.32	-29.8	-32.2	12.2	2.16e-04	0	44	102	1048576	19	4697
2026-01-26 07:50:33.70	11.49	13.28	-29.9	-32.2	12.2	2.49e-04	0	43	102	1048576	19	4695
2026-01-26 07:50:34.71	11.30	13.24	-29.8	-31.9	12.4	1.21e-04	0	43	102	1048576	19	4598
2026-01-26 07:50:35.71	11.12	13.20	-29.7	-31.8	12.5	7.85e-05	0	43	102	1048576	19	4558
2026-01-26 07:50:36.72	10.93	13.16	-29.7	-31.8	12.5	1.50e-04	0	43	102	1048576	19	4568
2026-01-26 07:50:37.72	10.75	13.12	-29.9	-32.3	12.2	2.08e-04	0	43	102	1048576	19	4740
2026-01-26 07:50:38.72	10.57	13.08	-29.9	-31.8	12.1	7.77e-04	0	43	102	1048576	20	4488
2026-01-26 07:50:39.72	10.39	13.04	-30.0	-32.0	11.9	1.76e-04	0	43	102	1048576	20	4575
2026-01-26 07:50:40.73	10.21	13.00	-29.8	-31.6	12.2	2.41e-04	0	43	102	1048576	20	4423
2026-01-26 07:50:41.74	10.02	12.96	-29.9	-32.3	12.2	7.28e-04	0	43	102	1048576	19	4738
2026-01-26 07:50:42.73	9.85	12.92	-29.9	-32.2	12.2	8.93e-04	0	43	102	1048576	19	4717
2026-01-26 07:50:43.74	9.67	12.88	-29.8	-32.1	12.3	2.01e-04	0	43	102	1048576	19	4685
2026-01-26 07:50:44.75	9.49	12.84	-29.7	-31.8	12.4	5.87e-04	0	43	102	1048576	19	4586
2026-01-26 07:50:45.75	9.31	12.80	-29.8	-31.9	12.3	5.59e-04	0	44	102	1048576	19	4623
2026-01-26 07:50:46.76	9.13	12.75	-29.9	-32.0	11.8	2.33e-04	0	43	102	1048576	20	4584
2026-01-26 07:50:47.76	8.95	12.71	-29.9	-31.9	12.0	8.77e-04	0	44	102	1048576	20	4533
2026-01-26 07:50:48.77	8.77	12.67	-29.9	-32.2	12.1	7.92e-04	0	43	102	1048576	19	4722
2026-01-26 07:50:49.78	8.60	12.63	-29.8	-32.1	12.2	2.61e-04	0	44	102	1048576	19	4666
2026-01-26 07:50:50.78	8.42	12.58	-29.9	-32.3	12.0	5.03e-04	0	43	102	1048576	19	4759
2026-01-26 07:50:51.79	8.24	12.54	-29.7	-31.6	12.5	4.03e-04	0	43	102	1048576	19	4505
2026-01-26 07:50:52.79	8.07	12.50	-29.3	-30.7	13.1	6.25e-05	0	43	102	1048576	19	4230
2026-01-26 07:50:53.79	7.90	12.46	-29.3	-30.7	13.1	3.33e-04	0	43	102	1048576	19	4224
2026-01-26 07:50:54.79	7.72	12.41	-29.1	-30.7	13.5	2.65e-04	0	43	102	1048576	18	4295
2026-01-26 07:50:55.80	7.55	12.37	-29.4	-31.5	12.9	1.60e-05	0	43	102	1048576	18	4562
2026-01-26 07:50:56.81	7.37	12.33	-29.4	-31.5	13.0	1.52e-04	0	43	102	1048576	18	4566
2026-01-26 07:50:57.80	7.20	12.28	-29.6	-31.6	12.5	2.14e-04	0	44	102	1048576	19	4527
2026-01-26 07:50:58.81	7.03	12.24	-29.8	-32.0	12.2	2.96e-04	0	43	102	1048576	19	4661
2026-01-26 07:50:59.82	6.86	12.19	-30.0	-32.2	11.7	4.97e-04	0	43	102	1048576	20	4632
2026-01-26 07:51:00.82	6.69	12.15	-30.0	-32.2	11.5	8.86e-04	0	44	102	1048576	20	4646
2026-01-26 07:51:01.83	6.52	12.10	-30.1	-32.5	11.5	5.46e-04	0	43	102	1048576	20	4762
2026-01-26 07:51:02.84	6.35	12.06	-30.2	-32.8	11.2	1.44e-03	0	43	102	1048576	20	4889
2026-01-26 07:51:03.84	6.18	12.02	-30.1	-32.4	11.5	1.48e-03	0	43	102	1048576	20	4730
2026-01-26 07:51:04.84	6.01	11.97	-30.1	-32.4	11.5	6.25e-04	0	43	102	1048576	20	4727
2026-01-26 07:51:05.84	5.84	11.93	-30.2	-32.9	11.2	1.56e-03	0	44	102	1048576	20	4923
2026-01-26 07:51:06.84	5.68	11.88	-30.2	-32.9	11.1	1.68e-03	0	43	102	1048576	20	4920
2026-01-26 07:51:07.85	5.51	11.84	-30.0	-32.3	11.7	4.85e-04	0	44	102	1048576	20	4669
2026-01-26 07:51:08.85	5.34	11.79	-30.5	-33.7	10.7	1.25e-03	0	44	102	1048576	20	5206
2026-01-26 07:51:09.85	5.18	11.74	-30.0	-32.3	11.6	1.80e-03	0	43	102	1048576	20	4689
2026-01-26 07:51:10.86	5.01	11.70	-30.0	-32.1	11.7	6.63e-04	0	43	102	1048576	20	4617
2026-01-26 07:51:11.86	4.84	11.65	-30.1	-32.8	11.3	8.67e-04	0	44	102	1048576	20	4868
2026-01-26 07:51:12.86	4.68	11.61	-30.5	-33.4	10.3	2.53e-03	0	43	102	1048576	21	5045
2026-01-26 07:51:13.87	4.52	11.56	-30.9	-35.0	9.2	8.45e-03	0	44	102	1048576	21	5730
2026-01-26 07:51:14.87	4.35	11.51	-31.1	-35.2	8.7	2.63e-02	0	43	102	1048576	22	5780
2026-01-26 07:51:15.87	4.19	11.47	-31.4	-36.4	7.7	6.65e-02	0	43	102	1048576	22	6409
2026-01-26 07:51:16.88	4.03	11.42	-31.5	-36.4	7.4	1.08e-01	0	43	102	1048576	23	6311
2026-01-26 07:51:17.88	3.87	11.37	-31.6	-37.1	6.7	1.96e-01	0	44	102	1048576	23	6775
2026-01-26 07:51:18.88	3.71	11.33	-31.4	-36.2	7.5	1.51e-01	0	43	102	1048576	23	6204
2026-01-26 07:51:19.89	3.54	11.28	-31.3	-35.8	7.8	7.99e-02	0	44	102	1048576	23	5989
2026-01-26 07:51:20.89	3.38	11.23	-31.0	-34.5	8.7	7.21e-02	0	43	102	1048576	23	5338
2026-01-26 07:51:21.90	3.22	11.18	-30.9	-33.8	9.3	2.06e-02	0	43	102	1048576	23	5041
2026-01-26 07:51:22.90	3.06	11.14	-30.8	-33.7	9.3	2.07e-02	0	43	102	1048576	23	4989
2026-01-26 07:51:23.90	2.91	11.09	-30.8	-33.9	9.6	1.45e-02	0	44	102	1048576	22	5163
2026-01-26 07:51:24.90	2.75	11.04	-30.8	-34.0	9.6	1.18e-02	0	43	102	1048576	22	5215
2026-01-26 07:51:25.90	2.59	10.99	-30.7	-33.6	9.9	1.21e-02	0	44	102	1048576	22	5013
2026-01-26 07:51:26.91	2.43	10.95	-30.6	-33.8	10.0	8.00e-03	0	43	102	1048576	21	5193
2026-01-26 07:51:27.92	2.28	10.90	-30.3	-32.8	10.7	4.37e-03	0	44	102	1048576	21	4802
2026-01-26 07:51:28.92	2.12	10.85	-30.4	-33.0	10.5	3.53e-03	0	43	102	1048576	21	4897
2026-01-26 07:51:29.92	1.97	10.80	-30.2	-32.6	10.8	2.91e-03	0	43	102	1048576	21	4746
2026-01-26 07:51:30.92	1.81	10.75	-30.2	-32.5	10.9	1.83e-03	0	44	102	1048576	21	4689
2026-01-26 07:51:31.92	1.66	10.71	-30.3	-32.9	10.6	2.74e-03	0	43	102	1048576	21	4856
2026-01-26 07:51:32.93	1.50	10.66	-30.2	-32.9	11.0	2.69e-03	0	44	102	1048576	20	4947
2026-01-26 07:51:33.94	1.35	10.61	-30.2	-33.0	11.0	2.30e-03	0	43	102	1048576	20	4956
2026-01-26 07:51:34.94	1.20	10.56	-30.5	-34.0	10.3	3.71e-03	0	44	102	1048576	20	5358
2026-01-26 07:51:35.94	1.04	10.51	-30.5	-33.3	10.3	5.98e-03	0	43	102	1048576	21	5014
2026-01-26 07:51:36.95	0.89	10.46	-30.5	-33.3	10.3	5.03e-03	0	43	102	1048576	21	5015
2026-01-26 07:51:37.96	0.74	10.41	-30.5	-33.3	10.3	4.61e-03	0	43	102	1048576	21	5012
2026-01-26 07:51:38.96	0.59	10.36	-30.6	-33.7	10.1	8.27e-03	0	44	102	1048576	21	5144
2026-01-26 07:51:39.96	0.44	10.31	-30.4	-33.2	10.4	5.98e-03	0	44	102	1048576	21	4978
2026-01-26 07:51:40.96	0.29	10.26	-30.2	-32.3	11.1	2.94e-03	0	44	102	1048576	21	4633
2026-01-26 07:51:41.97	0.14	10.21	-29.9	-32.0	11.6	1.27e-03	0	43	102	1048576	20	4599
2026-01-26 07:51:42.97	359.99	10.16	-29.9	-32.1	11.6	5.20e-04	0	44	102	1048576	20	4626
2026-01-26 07:51:43.98	359.84	10.11	-29.9	-32.1	11.6	6.39e-04	0	43	102	1048576	20	4639
2026-01-26 07:51:44.98	359.70	10.06	-29.9	-31.9	11.7	5.62e-04	0	44	102	1048576	20	4566
2026-01-26 07:51:45.99	359.55	10.01	-29.9	-32.0	11.6	7.76e-04	0	43	102	1048576	20	4607
2026-01-26 07:51:46.99	359.40	9.96	-29.9	-32.0	11.7	4.55e-04	0	43	102	1048576	20	4593
2026-01-26 07:51:48.00	359.25	9.91	-30.1	-32.7	11.2	1.16e-03	0	43	102	1048576	20	4833
2026-01-26 07:51:49.00	359.11	9.86	-30.0	-32.4	11.3	9.92e-04	0	43	102	1048576	20	4753
2026-01-26 07:51:50.01	358.96	9.81	-30.2	-33.1	10.9	1.06e-03	0	44	102	1048576	20	5014
2026-01-26 07:51:51.02	358.82	9.76	-30.3	-33.2	10.6	3.19e-03	0	43	102	1048576	20	5070
2026-01-26 07:51:52.02	358.67	9.71	-30.3	-33.3	10.6	2.34e-03	0	44	102	1048576	20	5096
2026-01-26 07:51:53.02	358.53	9.66	-30.3	-33.5	10.5	4.22e-03	0	43	102	1048576	20	5161
2026-01-26 07:51:54.03	358.39	9.61	-30.5	-33.5	10.1	4.24e-03	0	43	102	1048576	21	5098
2026-01-26 07:51:55.03	358.24	9.56	-30.5	-33.5	10.1	7.24e-03	0	43	102	1048576	21	5105
2026-01-26 07:51:56.03	358.10	9.51	-30.6	-33.7	10.0	7.59e-03	0	43	102	1048576	21	5182
2026-01-26 07:51:57.04	357.96	9.46	-30.7	-34.1	9.7	9.26e-03	0	44	102	1048576	21	5349
2026-01-26 07:51:58.04	357.82	9.41	-30.7	-34.3	9.5	1.17e-02	0	44	102	1048576	21	5452
2026-01-26 07:51:59.04	357.68	9.36	-30.7	-34.3	9.5	1.51e-02	0	43	102	1048576	21	5442
2026-01-26 07:52:00.04	357.54	9.31	-30.5	-33.4	10.2	9.43e-03	0	44	102	1048576	21	5060
2026-01-26 07:52:01.04	357.40	9.26	-30.3	-32.8	10.6	5.01e-03	0	44	102	1048576	21	4801
2026-01-26 07:52:02.05	357.26	9.21	-30.1	-32.3	11.0	2.92e-03	0	44	102	1048576	21	4609
2026-01-26 07:52:03.05	357.12	9.16	-30.0	-32.3	11.4	1.02e-03	0	43	102	1048576	20	4691
2026-01-26 07:52:04.06	356.98	9.10	-30.1	-32.7	11.0	1.36e-03	0	44	102	1048576	20	4874
2026-01-26 07:52:05.07	356.85	9.05	-29.8	-31.9	11.6	1.07e-03	0	44	102	1048576	20	4558
2026-01-26 07:52:06.07	356.71	9.00	-29.9	-32.0	11.5	5.58e-04	0	44	102	1048576	20	4621
2026-01-26 07:52:07.08	356.57	8.95	-29.9	-32.1	11.4	1.03e-03	0	44	102	1048576	20	4637
2026-01-26 07:52:08.07	356.44	8.90	-29.9	-32.2	11.4	7.89e-04	0	43	102	1048576	20	4661
2026-01-26 07:52:09.08	356.30	8.85	-29.7	-31.4	11.9	7.42e-04	0	44	102	1048576	20	4414
2026-01-26 07:52:10.09	356.17	8.80	-29.5	-30.8	12.4	2.42e-04	0	44	102	1048576	20	4195
2026-01-26 07:52:11.09	356.03	8.75	-29.4	-31.0	12.6	1.28e-04	0	43	102	1048576	19	4351
2026-01-26 07:52:12.10	355.90	8.69	-29.8	-32.1	11.9	4.00e-04	0	44	102	1048576	19	4696
2026-01-26 07:52:13.10	355.76	8.64	-29.4	-31.1	12.5	3.75e-04	0	44	102	1048576	19	4381
2026-01-26 07:52:14.11	355.63	8.59	-29.5	-31.3	12.4	1.24e-04	0	43	102	1048576	19	4444
2026-01-26 07:52:15.11	355.50	8.54	-29.6	-31.6	12.1	3.29e-04	0	43	102	1048576	19	4551
2026-01-26 07:52:16.12	355.36	8.49	-29.5	-31.3	12.4	1.69e-04	0	43	102	1048576	19	4438
2026-01-26 07:52:17.12	355.23	8.44	-29.5	-31.5	12.3	2.74e-04	0	43	102	1048576	19	4511
2026-01-26 07:52:18.12	355.10	8.38	-29.7	-32.0	11.9	1.85e-04	0	44	102	1048576	19	4689
2026-01-26 07:52:19.13	354.97	8.33	-29.8	-32.3	11.7	5.70e-04	0	43	102	1048576	19	4809
2026-01-26 07:52:20.13	354.84	8.28	-30.1	-32.7	11.0	1.43e-03	0	44	102	1048576	20	4867
2026-01-26 07:52:21.13	354.71	8.23	-29.9	-32.2	11.4	1.45e-03	0	44	102	1048576	20	4679
2026-01-26 07:52:22.14	354.58	8.18	-29.8	-31.8	11.6	7.26e-04	0	44	102	1048576	20	4554
2026-01-26 07:52:23.14	354.45	8.12	-29.8	-31.8	11.5	7.59e-04	0	43	102	1048576	20	4555
2026-01-26 07:52:24.15	354.32	8.07	-29.7	-31.6	11.7	7.85e-04	0	44	102	1048576	20	4460
2026-01-26 07:52:25.15	354.20	8.02	-29.8	-31.7	11.6	6.38e-04	0	43	102	1048576	20	4500
2026-01-26 07:52:26.15	354.07	7.97	-29.9	-32.3	11.3	6.26e-04	0	43	102	1048576	20	4710
2026-01-26 07:52:27.15	353.94	7.92	-30.2	-33.0	10.7	2.46e-03	0	44	102	1048576	20	4979
2026-01-26 07:52:28.16	353.81	7.86	-30.0	-32.5	11.1	2.68e-03	0	44	102	1048576	20	4798
2026-01-26 07:52:29.17	353.69	7.81	-29.8	-32.0	11.4	1.19e-03	0	44	102	1048576	20	4622
2026-01-26 07:52:30.18	353.56	7.76	-29.9	-32.2	11.3	1.57e-03	0	43	102	1048576	20	4687
2026-01-26 07:52:31.18	353.44	7.71	-30.0	-32.4	11.1	1.00e-03	0	43	102	1048576	20	4770
2026-01-26 07:52:32.19	353.31	7.66	-30.2	-33.2	10.6	2.89e-03	0	43	102	1048576	20	5082
2026-01-26 07:52:33.19	353.19	7.60	-30.1	-32.7	10.8	3.49e-03	0	44	102	1048576	20	4885
2026-01-26 07:52:34.19	353.06	7.55	-29.9	-32.1	11.3	2.43e-03	0	44	102	1048576	20	4663
2026-01-26 07:52:35.20	352.94	7.50	-29.8	-32.0	11.3	1.30e-03	0	44	102	1048576	20	4626
2026-01-26 07:52:36.21	352.82	7.45	-29.8	-31.8	11.6	9.25e-04	0	43	102	1048576	20	4539
2026-01-26 07:52:37.22	352.69	7.39	-30.0	-32.4	11.1	7.64e-04	0	43	102	1048576	20	4773
2026-01-26 07:52:38.22	352.57	7.34	-29.7	-31.7	11.6	7.12e-04	0	44	102	1048576	20	4505
2026-01-26 07:52:39.22	352.45	7.29	-29.9	-32.2	11.3	1.07e-03	0	44	102	1048576	20	4678
2026-01-26 07:52:40.22	352.33	7.24	-29.9	-32.1	11.3	1.20e-03	0	44	102	1048576	20	4640
2026-01-26 07:52:41.23	352.21	7.19	-29.9	-32.3	11.2	6.97e-04	0	43	102	1048576	20	4729
2026-01-26 07:52:42.23	352.09	7.13	-29.9	-32.3	11.1	1.70e-03	0	43	102	1048576	20	4713
2026-01-26 07:52:43.23	351.97	7.08	-30.2	-33.0	10.9	9.07e-04	0	43	102	1048576	20	5015
2026-01-26 07:52:44.24	351.85	7.03	-32.7	-45.1	3.8	1.49e+00	0	44	104	1048576	25	15008

#Closed at: 2026-01-26 07:52:45
#Recorded file [1 MB]: D:/data/31010_260126_104440.dat