passes_logs/2026/01/26/R2M6_AANII_01/R2M6_AANII_01__20260126_012945_NOAA_20_JPSS-1_rec.log

#Pass ID: 20260126_012945_NOAA 20 (JPSS-1)
#Satellite: NOAA 20 (JPSS-1)
#Configuration: NOAA 20
#almurnet v.1.7.20240730
#Start time: 2026-01-26 01:29:46

#Version: 2.2.20231116
#Station: R2M6_AANII_01
#Location: 30.233357 lon 59.946436 lat
#TLE: 1 43013U 17073A   26025.47986292  .00000161  00000+0  97249-4 0  9993
#TLE: 2 43013  98.7646 326.3091 0001052  24.2709 335.8516 14.19540188424225

#Time	Az	El	Level	Level2	SNR	BER	BlckErr	Temp	State	Recorded	gain1	gain2
2026-01-26 01:29:46.70	13.01	7.07	-31.6	-39.1	4.7	1.33e+00	0	42	0	0	23	8532
2026-01-26 01:29:47.70	12.96	7.14	-31.6	-39.3	4.6	1.36e+00	0	42	104	0	23	8760
2026-01-26 01:29:48.71	12.90	7.21	-31.8	-39.7	6.1	2.45e-01	0	42	0	0	23	8924
2026-01-26 01:29:49.72	12.85	7.28	-31.5	-38.9	6.5	2.51e-01	0	42	102	1048576	23	8430
2026-01-26 01:29:50.73	12.79	7.36	-30.5	-38.4	6.4	2.42e-01	0	42	102	1048576	22	8881
2026-01-26 01:29:51.73	12.73	7.43	-32.3	-40.8	5.9	2.52e-01	0	42	102	1048576	23	9552
2026-01-26 01:29:52.74	12.67	7.51	-31.9	-40.0	5.8	3.76e-01	0	42	102	1048576	23	9228
2026-01-26 01:29:53.75	12.61	7.58	-31.8	-39.8	6.0	3.85e-01	0	42	102	1048576	23	9031
2026-01-26 01:29:54.75	12.56	7.65	-31.7	-38.7	6.8	2.52e-01	0	42	102	1048576	23	8122
2026-01-26 01:29:55.76	12.50	7.73	-31.4	-37.9	7.8	1.39e-01	0	42	102	1048576	22	7608
2026-01-26 01:29:56.76	12.44	7.80	-31.2	-37.1	8.5	5.27e-02	0	42	102	1048576	22	7049
2026-01-26 01:29:57.76	12.38	7.88	-31.0	-36.5	9.3	2.53e-02	0	42	102	1048576	21	6812
2026-01-26 01:29:58.76	12.32	7.95	-30.8	-35.8	9.9	1.12e-02	0	42	102	1048576	21	6432
2026-01-26 01:29:59.77	12.26	8.03	-30.5	-34.9	10.6	8.22e-03	0	42	102	1048576	21	5936
2026-01-26 01:30:00.77	12.20	8.10	-30.3	-34.6	11.2	2.40e-03	0	42	102	1048576	20	5924
2026-01-26 01:30:01.77	12.14	8.17	-30.2	-34.4	11.4	9.63e-04	0	42	102	1048576	20	5813
2026-01-26 01:30:02.78	12.08	8.25	-30.2	-34.3	11.5	4.21e-03	0	42	102	1048576	20	5749
2026-01-26 01:30:03.78	12.02	8.33	-30.1	-34.1	11.7	4.04e-03	0	42	102	1048576	20	5655
2026-01-26 01:30:04.79	11.96	8.40	-30.3	-34.7	11.3	9.83e-04	0	42	102	1048576	20	5920
2026-01-26 01:30:05.79	11.90	8.48	-30.2	-34.1	11.7	1.13e-03	0	42	102	1048576	20	5656
2026-01-26 01:30:06.80	11.83	8.55	-30.3	-34.6	11.3	4.70e-03	0	42	102	1048576	20	5893
2026-01-26 01:30:07.81	11.77	8.63	-30.2	-34.3	11.6	6.57e-04	0	42	102	1048576	20	5746
2026-01-26 01:30:08.81	11.71	8.71	-30.2	-34.0	11.8	7.34e-04	0	42	102	1048576	20	5635
2026-01-26 01:30:09.82	11.64	8.79	-30.3	-34.4	11.5	4.21e-03	0	42	102	1048576	20	5800
2026-01-26 01:30:10.83	11.58	8.86	-30.2	-34.1	11.8	1.20e-03	0	42	102	1048576	20	5643
2026-01-26 01:30:11.82	11.52	8.94	-30.2	-34.2	11.6	6.30e-04	0	43	102	1048576	20	5721
2026-01-26 01:30:12.83	11.45	9.02	-30.2	-34.2	11.7	3.99e-03	0	42	102	1048576	20	5690
2026-01-26 01:30:13.83	11.39	9.09	-30.1	-34.0	11.8	1.17e-03	0	42	102	1048576	20	5610
2026-01-26 01:30:14.83	11.32	9.17	-30.3	-34.5	11.4	4.42e-03	0	42	102	1048576	20	5850
2026-01-26 01:30:15.84	11.26	9.25	-30.2	-34.1	11.7	6.23e-04	0	42	102	1048576	20	5652
2026-01-26 01:30:16.85	11.19	9.33	-30.2	-34.2	11.6	1.24e-03	0	43	102	1048576	20	5699
2026-01-26 01:30:17.85	11.13	9.41	-30.2	-34.2	11.7	4.02e-03	0	43	102	1048576	20	5689
2026-01-26 01:30:18.86	11.06	9.49	-30.1	-34.0	11.8	5.57e-04	0	42	102	1048576	20	5616
2026-01-26 01:30:19.86	10.99	9.56	-30.3	-34.5	11.5	1.42e-03	0	43	102	1048576	20	5835
2026-01-26 01:30:20.87	10.92	9.64	-30.2	-34.1	11.7	3.81e-03	0	43	102	1048576	20	5659
2026-01-26 01:30:21.88	10.86	9.72	-30.2	-34.1	11.8	3.95e-03	0	43	102	1048576	20	5637
2026-01-26 01:30:22.88	10.79	9.80	-30.1	-33.9	11.9	9.60e-04	0	43	102	1048576	20	5567
2026-01-26 01:30:23.88	10.72	9.88	-30.1	-33.9	11.8	3.93e-03	0	43	102	1048576	20	5595
2026-01-26 01:30:24.89	10.65	9.96	-30.3	-34.4	11.5	3.96e-03	0	43	102	1048576	20	5786
2026-01-26 01:30:25.90	10.58	10.04	-30.1	-34.0	11.8	1.23e-03	0	43	102	1048576	20	5602
2026-01-26 01:30:26.90	10.51	10.12	-30.3	-34.5	11.5	3.89e-03	0	43	102	1048576	20	5846
2026-01-26 01:30:27.90	10.44	10.20	-30.2	-34.1	11.8	4.68e-03	0	43	102	1048576	20	5654
2026-01-26 01:30:28.91	10.37	10.28	-30.1	-34.0	11.9	9.12e-04	0	43	102	1048576	20	5582
2026-01-26 01:30:29.92	10.30	10.37	-30.1	-33.8	12.0	3.35e-03	0	43	102	1048576	20	5533
2026-01-26 01:30:30.92	10.23	10.45	-30.2	-34.0	11.9	3.85e-03	0	43	102	1048576	20	5589
2026-01-26 01:30:31.92	10.16	10.53	-30.2	-34.0	11.9	1.00e-03	0	43	102	1048576	20	5608
2026-01-26 01:30:32.93	10.08	10.61	-29.9	-33.4	12.3	1.93e-04	0	43	102	1048576	20	5341
2026-01-26 01:30:33.93	10.01	10.69	-29.9	-33.4	12.4	3.49e-03	0	43	102	1048576	20	5330
2026-01-26 01:30:34.93	9.94	10.77	-29.9	-33.7	12.5	5.85e-04	0	43	102	1048576	19	5587
2026-01-26 01:30:35.93	9.87	10.86	-29.9	-33.6	12.6	3.27e-03	0	43	102	1048576	19	5541
2026-01-26 01:30:36.94	9.79	10.94	-29.9	-33.6	12.6	5.23e-04	0	43	102	1048576	19	5534
2026-01-26 01:30:37.94	9.72	11.02	-29.9	-33.3	12.4	5.76e-04	0	43	102	1048576	20	5314
2026-01-26 01:30:38.95	9.64	11.10	-30.0	-33.5	12.2	3.06e-03	0	43	102	1048576	20	5408
2026-01-26 01:30:39.95	9.57	11.19	-30.0	-33.5	12.3	1.90e-04	0	43	102	1048576	20	5369
2026-01-26 01:30:40.95	9.49	11.27	-29.9	-33.7	12.6	4.07e-04	0	43	102	1048576	19	5548
2026-01-26 01:30:41.95	9.42	11.35	-29.8	-33.3	12.8	3.17e-03	0	43	102	1048576	19	5412
2026-01-26 01:30:42.95	9.34	11.44	-30.1	-33.7	12.2	1.59e-04	0	43	102	1048576	20	5470
2026-01-26 01:30:43.96	9.26	11.52	-30.0	-33.3	12.4	1.77e-04	0	43	102	1048576	20	5322
2026-01-26 01:30:44.96	9.19	11.61	-29.9	-33.2	12.6	3.17e-03	0	43	102	1048576	20	5250
2026-01-26 01:30:45.96	9.11	11.69	-29.8	-32.8	12.7	3.07e-03	0	43	102	1048576	20	5113
2026-01-26 01:30:46.96	9.03	11.78	-30.1	-33.7	12.2	9.84e-05	0	43	102	1048576	20	5446
2026-01-26 01:30:47.97	8.95	11.86	-30.2	-34.0	12.0	8.17e-04	0	43	102	1048576	20	5584
2026-01-26 01:30:48.97	8.87	11.95	-30.1	-33.7	12.2	3.38e-03	0	43	102	1048576	20	5457
2026-01-26 01:30:49.97	8.79	12.03	-29.9	-33.2	12.5	7.70e-05	0	43	102	1048576	20	5258
2026-01-26 01:30:50.97	8.71	12.12	-29.9	-33.6	12.7	8.69e-05	0	43	102	1048576	19	5492
2026-01-26 01:30:51.98	8.63	12.20	-30.0	-33.7	12.6	3.05e-03	0	43	102	1048576	19	5566
2026-01-26 01:30:52.99	8.55	12.29	-29.9	-33.5	12.8	4.18e-04	0	43	102	1048576	19	5478
2026-01-26 01:30:53.99	8.47	12.38	-29.9	-33.5	12.8	6.02e-05	0	43	102	1048576	19	5469
2026-01-26 01:30:55.00	8.39	12.46	-30.0	-33.3	12.6	7.17e-05	0	43	102	1048576	20	5272
2026-01-26 01:30:56.00	8.30	12.55	-29.9	-33.1	12.6	4.28e-04	0	43	102	1048576	20	5212
2026-01-26 01:30:57.01	8.22	12.64	-30.0	-33.8	12.6	8.62e-05	0	43	102	1048576	19	5592
2026-01-26 01:30:58.01	8.14	12.73	-30.0	-33.7	12.7	8.08e-05	0	43	102	1048576	19	5530
2026-01-26 01:30:59.02	8.05	12.81	-30.0	-33.2	12.6	9.53e-05	0	43	102	1048576	20	5259
2026-01-26 01:31:00.02	7.97	12.90	-30.1	-33.7	12.3	1.87e-04	0	43	102	1048576	20	5457
2026-01-26 01:31:01.02	7.88	12.99	-30.0	-33.3	12.6	1.26e-04	0	43	102	1048576	20	5298
2026-01-26 01:31:02.02	7.80	13.08	-29.9	-33.1	12.7	5.34e-05	0	43	102	1048576	20	5204
2026-01-26 01:31:03.03	7.71	13.17	-29.9	-33.1	12.7	2.79e-03	0	43	102	1048576	20	5197
2026-01-26 01:31:04.03	7.62	13.26	-30.1	-33.7	12.3	1.55e-04	0	43	102	1048576	20	5424
2026-01-26 01:31:05.03	7.53	13.35	-30.1	-33.8	12.3	1.27e-04	0	43	102	1048576	20	5466
2026-01-26 01:31:06.04	7.45	13.44	-30.1	-33.7	12.3	1.46e-04	0	43	102	1048576	20	5431
2026-01-26 01:31:07.04	7.36	13.53	-30.1	-33.6	12.4	1.31e-04	0	43	102	1048576	20	5389
2026-01-26 01:31:08.05	7.27	13.62	-30.0	-33.3	12.6	1.31e-04	0	43	102	1048576	20	5297
2026-01-26 01:31:09.04	7.18	13.71	-30.0	-33.5	12.5	1.17e-04	0	43	102	1048576	20	5352
2026-01-26 01:31:10.05	7.09	13.80	-30.2	-33.8	12.2	1.78e-04	0	43	102	1048576	20	5503
2026-01-26 01:31:11.05	7.00	13.89	-30.3	-34.5	11.8	4.10e-04	0	43	102	1048576	20	5777
2026-01-26 01:31:12.06	6.90	13.98	-30.1	-33.8	12.3	3.26e-04	0	43	102	1048576	20	5476
2026-01-26 01:31:13.06	6.81	14.07	-30.0	-33.3	12.6	1.82e-04	0	43	102	1048576	20	5294
2026-01-26 01:31:14.07	6.72	14.16	-30.0	-33.4	12.6	1.02e-04	0	43	102	1048576	20	5325
2026-01-26 01:31:15.07	6.63	14.25	-30.1	-33.8	12.4	1.12e-04	0	43	102	1048576	20	5463
2026-01-26 01:31:16.07	6.53	14.35	-30.1	-33.5	12.5	1.46e-04	0	43	102	1048576	20	5361
2026-01-26 01:31:17.07	6.44	14.44	-29.9	-33.0	12.9	7.55e-05	0	43	102	1048576	20	5140
2026-01-26 01:31:18.07	6.34	14.53	-29.9	-33.6	12.9	3.35e-05	0	43	102	1048576	19	5473
2026-01-26 01:31:19.07	6.25	14.62	-29.9	-33.2	12.8	6.25e-05	0	43	102	1048576	20	5222
2026-01-26 01:31:20.08	6.15	14.72	-30.0	-33.4	12.6	8.08e-05	0	43	102	1048576	20	5310
2026-01-26 01:31:21.08	6.05	14.81	-30.0	-33.4	12.6	8.54e-05	0	43	102	1048576	20	5324
2026-01-26 01:31:22.08	5.96	14.90	-29.3	-32.7	12.7	7.24e-05	0	43	102	1048576	20	5310
2026-01-26 01:31:23.08	5.86	15.00	-29.6	-33.4	12.6	7.55e-05	0	43	102	1048576	19	5549
2026-01-26 01:31:24.08	5.76	15.09	-30.1	-33.7	11.8	1.01e-04	0	43	102	1048576	20	5470
2026-01-26 01:31:25.09	5.66	15.19	-30.0	-33.2	12.5	7.24e-05	0	44	102	1048576	20	5236
2026-01-26 01:31:26.10	5.56	15.28	-30.0	-33.3	11.4	8.77e-05	0	44	102	1048576	20	5263
2026-01-26 01:31:27.10	5.46	15.38	-30.0	-33.4	12.7	3.11e-03	0	44	102	1048576	20	5287
2026-01-26 01:31:28.10	5.36	15.47	-30.1	-33.6	12.5	9.15e-05	0	44	102	1048576	20	5400
2026-01-26 01:31:29.11	5.26	15.57	-30.0	-33.3	12.7	7.01e-05	0	44	102	1048576	20	5267
2026-01-26 01:31:30.12	5.15	15.67	-29.9	-33.5	13.0	3.66e-05	0	43	102	1048576	19	5436
2026-01-26 01:31:31.13	5.05	15.76	-29.9	-33.1	12.9	4.60e-04	0	43	102	1048576	20	5170
2026-01-26 01:31:32.13	4.94	15.86	-29.9	-33.4	13.0	3.28e-05	0	43	102	1048576	19	5402
2026-01-26 01:31:33.14	4.84	15.96	-29.9	-33.5	13.0	2.67e-05	0	43	102	1048576	19	5439
2026-01-26 01:31:34.14	4.73	16.05	-29.8	-33.3	13.2	3.77e-04	0	43	102	1048576	19	5336
2026-01-26 01:31:35.15	4.62	16.15	-29.9	-33.5	13.1	4.50e-05	0	43	102	1048576	19	5426
2026-01-26 01:31:36.15	4.52	16.25	-30.0	-33.7	12.9	3.58e-05	0	44	102	1048576	19	5520
2026-01-26 01:31:37.15	4.41	16.35	-29.9	-32.9	13.0	3.15e-04	0	43	102	1048576	20	5094
2026-01-26 01:31:38.16	4.30	16.45	-29.9	-33.4	13.2	2.66e-03	0	44	102	1048576	19	5373
2026-01-26 01:31:39.16	4.19	16.55	-29.9	-33.0	13.0	5.03e-05	0	44	102	1048576	20	5120
2026-01-26 01:31:40.17	4.08	16.65	-29.8	-32.7	13.1	2.13e-05	0	43	102	1048576	20	5043
2026-01-26 01:31:41.18	3.97	16.75	-29.8	-33.2	13.2	2.46e-03	0	44	102	1048576	19	5322
2026-01-26 01:31:42.18	3.86	16.84	-29.7	-33.0	13.4	4.90e-04	0	43	102	1048576	19	5233
2026-01-26 01:31:43.19	3.75	16.95	-29.8	-33.3	13.2	2.28e-05	0	44	102	1048576	19	5337
2026-01-26 01:31:44.19	3.63	17.05	-29.9	-33.3	13.2	2.88e-03	0	44	102	1048576	19	5364
2026-01-26 01:31:45.19	3.52	17.15	-29.7	-33.0	13.4	2.57e-03	0	44	102	1048576	19	5232
2026-01-26 01:31:46.20	3.40	17.25	-29.7	-32.8	13.5	1.22e-05	0	43	102	1048576	19	5170
2026-01-26 01:31:47.20	3.29	17.35	-29.7	-32.7	13.6	2.63e-03	0	43	102	1048576	19	5132
2026-01-26 01:31:48.21	3.17	17.45	-29.8	-33.2	13.3	2.53e-03	0	43	102	1048576	19	5300
2026-01-26 01:31:49.22	3.05	17.55	-29.8	-33.0	13.4	3.66e-04	0	43	102	1048576	19	5228
2026-01-26 01:31:50.22	2.94	17.65	-29.8	-33.2	13.2	1.52e-05	0	43	102	1048576	19	5329
2026-01-26 01:31:51.23	2.82	17.76	-30.0	-33.6	13.0	2.82e-03	0	44	102	1048576	19	5475
2026-01-26 01:31:52.24	2.70	17.86	-29.9	-33.4	13.2	4.13e-04	0	43	102	1048576	19	5374
2026-01-26 01:31:53.25	2.57	17.96	-29.8	-33.2	13.3	1.48e-03	0	44	102	1048576	19	5298
2026-01-26 01:31:54.26	2.45	18.07	-29.8	-33.2	13.2	2.65e-03	0	43	102	1048576	19	5324
2026-01-26 01:31:55.25	2.33	18.17	-29.9	-33.3	13.2	3.71e-04	0	44	102	1048576	19	5367
2026-01-26 01:31:56.26	2.21	18.27	-29.9	-33.3	13.2	2.63e-03	0	44	102	1048576	19	5350
2026-01-26 01:31:57.25	2.09	18.38	-29.7	-32.8	13.5	2.47e-03	0	44	102	1048576	19	5164
2026-01-26 01:31:58.26	1.96	18.48	-29.7	-33.0	13.5	2.34e-04	0	44	102	1048576	19	5219
2026-01-26 01:31:59.26	1.83	18.59	-29.6	-32.6	13.7	2.35e-03	0	44	102	1048576	19	5098
2026-01-26 01:32:00.27	1.71	18.69	-29.7	-32.9	13.5	2.71e-03	0	44	102	1048576	19	5188
2026-01-26 01:32:01.27	1.58	18.80	-29.8	-33.0	13.5	2.15e-04	0	44	102	1048576	19	5226
2026-01-26 01:32:02.27	1.45	18.90	-29.8	-33.1	13.4	2.65e-03	0	44	102	1048576	19	5253
2026-01-26 01:32:03.28	1.32	19.01	-29.7	-32.9	13.5	2.52e-03	0	44	102	1048576	19	5187
2026-01-26 01:32:04.29	1.19	19.11	-29.7	-32.9	13.6	2.49e-04	0	44	102	1048576	19	5170
2026-01-26 01:32:05.29	1.06	19.22	-29.7	-32.9	13.5	2.56e-03	0	44	102	1048576	19	5206
2026-01-26 01:32:06.30	0.93	19.33	-29.7	-32.9	13.5	2.41e-03	0	44	102	1048576	19	5178
2026-01-26 01:32:07.30	0.79	19.43	-29.7	-32.9	13.6	3.80e-06	0	44	102	1048576	19	5173
2026-01-26 01:32:08.31	0.66	19.54	-29.7	-32.9	13.6	2.47e-03	0	44	102	1048576	19	5199
2026-01-26 01:32:09.30	0.53	19.65	-29.8	-33.2	13.3	2.84e-03	0	44	102	1048576	19	5301
2026-01-26 01:32:10.31	0.39	19.76	-29.8	-33.2	13.3	3.27e-04	0	44	102	1048576	19	5316
2026-01-26 01:32:11.31	0.25	19.87	-29.9	-33.4	13.3	1.98e-05	0	44	102	1048576	19	5362
2026-01-26 01:32:12.31	0.12	19.97	-29.9	-32.9	13.2	2.60e-03	0	44	102	1048576	20	5085
2026-01-26 01:32:13.31	359.98	20.08	-30.0	-33.0	13.2	3.39e-04	0	44	102	1048576	20	5129
2026-01-26 01:32:14.31	359.84	20.19	-30.0	-33.3	13.0	3.50e-05	0	44	102	1048576	20	5227
2026-01-26 01:32:15.31	359.70	20.30	-30.0	-33.1	13.1	2.58e-03	0	44	102	1048576	20	5169
2026-01-26 01:32:16.32	359.55	20.41	-29.9	-32.9	13.2	3.88e-04	0	44	102	1048576	20	5098
2026-01-26 01:32:17.32	359.41	20.52	-29.9	-33.3	13.4	2.56e-03	0	44	102	1048576	19	5317
2026-01-26 01:32:18.32	359.27	20.63	-30.0	-33.2	13.0	3.96e-05	0	44	102	1048576	20	5199
2026-01-26 01:32:19.32	359.12	20.74	-30.2	-33.6	12.7	4.48e-04	0	44	102	1048576	20	5357
2026-01-26 01:32:20.33	358.98	20.85	-30.1	-33.3	13.0	2.93e-03	0	44	102	1048576	20	5225
2026-01-26 01:32:21.33	358.83	20.96	-29.9	-32.9	13.3	3.73e-05	0	44	102	1048576	20	5064
2026-01-26 01:32:22.33	358.68	21.07	-29.9	-32.8	13.3	2.44e-05	0	44	102	1048576	20	5039
2026-01-26 01:32:23.33	358.53	21.18	-29.9	-32.8	13.3	2.85e-03	0	44	102	1048576	20	5044
2026-01-26 01:32:24.33	358.38	21.30	-29.9	-33.5	13.3	2.05e-05	0	44	102	1048576	19	5393
2026-01-26 01:32:25.33	358.23	21.41	-30.0	-33.1	13.1	3.58e-05	0	44	102	1048576	20	5148
2026-01-26 01:32:26.34	358.08	21.52	-30.0	-33.1	13.1	2.75e-03	0	44	102	1048576	20	5167
2026-01-26 01:32:27.34	357.92	21.63	-29.9	-32.9	13.2	2.97e-03	0	44	102	1048576	20	5090
2026-01-26 01:32:28.34	357.77	21.75	-30.0	-33.3	13.0	2.82e-05	0	44	102	1048576	20	5220
2026-01-26 01:32:29.35	357.61	21.86	-30.0	-33.2	13.0	4.42e-05	0	44	102	1048576	20	5201
2026-01-26 01:32:30.35	357.46	21.97	-30.1	-33.4	12.9	2.89e-03	0	44	102	1048576	20	5268
2026-01-26 01:32:31.36	357.30	22.09	-30.2	-33.6	12.8	5.49e-05	0	44	102	1048576	20	5345
2026-01-26 01:32:32.36	357.14	22.20	-30.3	-33.9	12.6	9.68e-05	0	44	102	1048576	20	5470
2026-01-26 01:32:33.36	356.98	22.32	-30.2	-33.6	12.8	4.03e-04	0	44	102	1048576	20	5333
2026-01-26 01:32:34.36	356.81	22.43	-30.2	-33.6	12.8	6.63e-05	0	44	102	1048576	20	5339
2026-01-26 01:32:35.37	356.65	22.55	-30.2	-33.8	12.7	8.23e-05	0	44	102	1048576	20	5416
2026-01-26 01:32:36.37	356.49	22.66	-30.2	-33.8	12.7	9.91e-05	0	44	102	1048576	20	5410
2026-01-26 01:32:37.38	356.32	22.78	-30.1	-33.5	12.9	4.84e-04	0	44	102	1048576	20	5291
2026-01-26 01:32:38.39	356.15	22.89	-30.1	-33.4	13.0	2.28e-05	0	44	102	1048576	20	5274
2026-01-26 01:32:39.39	355.98	23.01	-30.1	-33.4	13.0	5.72e-05	0	44	102	1048576	20	5274
2026-01-26 01:32:40.39	355.81	23.12	-30.1	-33.4	13.0	3.28e-05	0	44	102	1048576	20	5263
2026-01-26 01:32:41.40	355.64	23.24	-30.1	-33.3	13.0	3.50e-05	0	44	102	1048576	20	5232
2026-01-26 01:32:42.40	355.47	23.36	-30.1	-33.3	13.1	3.35e-05	0	44	102	1048576	20	5226
2026-01-26 01:32:43.41	355.29	23.48	-30.1	-33.3	13.0	3.50e-05	0	44	102	1048576	20	5227
2026-01-26 01:32:44.41	355.12	23.59	-30.1	-33.4	13.0	3.58e-05	0	44	102	1048576	20	5254
2026-01-26 01:32:45.41	354.94	23.71	-30.1	-33.4	13.0	3.73e-05	0	44	102	1048576	20	5254
2026-01-26 01:32:46.41	354.77	23.83	-30.2	-33.6	12.9	3.58e-05	0	44	102	1048576	20	5331
2026-01-26 01:32:47.41	354.59	23.95	-30.2	-33.6	12.9	4.88e-05	0	44	102	1048576	20	5320
2026-01-26 01:32:48.42	354.41	24.06	-30.0	-33.0	13.3	3.43e-05	0	44	102	1048576	20	5121
2026-01-26 01:32:49.42	354.22	24.18	-29.9	-32.9	13.3	1.37e-05	0	44	102	1048576	20	5058
2026-01-26 01:32:50.43	354.04	24.30	-30.0	-33.4	13.4	1.67e-05	0	44	102	1048576	19	5352
2026-01-26 01:32:51.43	353.86	24.42	-29.8	-32.6	13.5	5.30e-06	0	44	102	1048576	20	4968
2026-01-26 01:32:52.44	353.67	24.54	-29.9	-33.3	13.4	1.37e-05	0	44	102	1048576	19	5331
2026-01-26 01:32:53.45	353.48	24.66	-30.0	-32.9	13.4	1.67e-05	0	44	102	1048576	20	5075
2026-01-26 01:32:54.45	353.29	24.78	-29.2	-32.4	13.0	2.28e-05	0	44	102	1048576	20	5219
2026-01-26 01:32:55.46	353.10	24.90	-30.0	-33.5	13.4	1.52e-05	0	44	102	1048576	19	5380
2026-01-26 01:32:56.47	352.91	25.02	-29.9	-33.4	13.1	1.14e-05	0	44	102	1048576	19	5348
2026-01-26 01:32:57.47	352.71	25.14	-30.0	-33.0	13.0	9.90e-06	0	44	102	1048576	20	5113
2026-01-26 01:32:58.47	352.52	25.26	-30.1	-33.2	12.5	2.67e-05	0	44	102	1048576	20	5177
2026-01-26 01:32:59.47	352.32	25.38	-30.0	-33.1	13.1	1.75e-05	0	44	102	1048576	20	5155
2026-01-26 01:33:00.48	352.12	25.50	-30.1	-33.3	13.1	2.28e-05	0	44	102	1048576	20	5204
2026-01-26 01:33:01.48	351.93	25.62	-30.1	-33.5	13.0	1.40e-03	0	44	102	1048576	20	5284
2026-01-26 01:33:02.48	351.72	25.74	-30.3	-33.9	12.8	4.42e-05	0	44	102	1048576	20	5434
2026-01-26 01:33:03.48	351.52	25.86	-30.2	-33.7	12.8	5.03e-05	0	44	102	1048576	20	5381
2026-01-26 01:33:04.48	351.32	25.98	-30.2	-33.6	13.0	4.50e-05	0	44	102	1048576	20	5312
2026-01-26 01:33:05.48	351.11	26.10	-30.2	-33.5	13.0	4.19e-05	0	44	102	1048576	20	5288
2026-01-26 01:33:06.49	350.91	26.23	-30.2	-33.7	12.9	4.57e-05	0	44	102	1048576	20	5353
2026-01-26 01:33:07.49	350.70	26.35	-30.2	-33.5	13.0	5.64e-05	0	44	102	1048576	20	5305
2026-01-26 01:33:08.50	350.48	26.47	-30.3	-33.9	12.7	2.09e-03	0	44	102	1048576	20	5432
2026-01-26 01:33:09.50	350.27	26.59	-30.4	-34.0	12.7	7.62e-05	0	44	102	1048576	20	5503
2026-01-26 01:33:10.51	350.06	26.71	-30.4	-34.3	12.5	9.07e-05	0	44	102	1048576	20	5601
2026-01-26 01:33:11.51	349.84	26.84	-30.5	-34.0	12.4	2.51e-03	0	44	102	1048576	21	5356
2026-01-26 01:33:12.52	349.62	26.96	-30.5	-33.9	12.4	5.69e-04	0	44	102	1048576	21	5348
2026-01-26 01:33:13.52	349.41	27.08	-30.6	-34.3	12.2	1.71e-04	0	44	102	1048576	21	5485
2026-01-26 01:33:14.52	349.19	27.20	-30.7	-34.6	12.0	2.88e-04	0	44	102	1048576	21	5619
2026-01-26 01:33:15.52	348.96	27.32	-30.8	-34.9	11.8	8.41e-04	0	44	102	1048576	21	5743
2026-01-26 01:33:16.53	348.74	27.45	-30.9	-35.1	11.7	5.26e-04	0	44	102	1048576	21	5834
2026-01-26 01:33:17.54	348.51	27.57	-30.9	-35.1	11.6	6.28e-04	0	44	102	1048576	21	5861
2026-01-26 01:33:18.54	348.28	27.69	-31.0	-35.4	11.4	1.20e-03	0	44	102	1048576	21	5971
2026-01-26 01:33:19.55	348.05	27.82	-31.1	-35.2	11.3	2.94e-03	0	44	102	1048576	22	5770
2026-01-26 01:33:20.55	347.82	27.94	-31.0	-34.9	11.4	1.32e-03	0	44	102	1048576	22	5654
2026-01-26 01:33:21.55	347.59	28.06	-31.0	-34.8	11.5	1.11e-03	0	44	102	1048576	22	5612
2026-01-26 01:33:22.56	347.35	28.18	-31.0	-35.3	11.5	1.31e-03	0	44	102	1048576	21	5928
2026-01-26 01:33:23.57	347.11	28.31	-31.0	-35.0	11.3	1.37e-03	0	44	102	1048576	22	5707
2026-01-26 01:33:24.57	346.88	28.43	-31.0	-35.0	11.3	9.98e-04	0	44	102	1048576	22	5679
2026-01-26 01:33:25.58	346.63	28.55	-31.1	-35.4	11.1	2.04e-03	0	44	102	1048576	22	5857
2026-01-26 01:33:26.58	346.39	28.68	-31.2	-35.5	11.0	3.11e-03	0	44	102	1048576	22	5934
2026-01-26 01:33:27.59	346.15	28.80	-31.0	-35.0	11.4	1.25e-03	0	44	102	1048576	22	5670
2026-01-26 01:33:28.59	345.90	28.92	-30.9	-34.8	11.5	2.24e-03	0	44	102	1048576	22	5587
2026-01-26 01:33:29.58	345.66	29.04	-31.0	-35.3	11.5	2.31e-03	0	44	102	1048576	21	5952
2026-01-26 01:33:30.59	345.41	29.16	-31.0	-35.3	11.5	8.50e-04	0	44	102	1048576	21	5943
2026-01-26 01:33:31.59	345.15	29.29	-31.1	-35.2	11.2	1.00e-03	0	44	102	1048576	22	5796
2026-01-26 01:33:32.60	344.90	29.41	-31.2	-35.5	11.0	4.35e-03	0	44	102	1048576	22	5908
2026-01-26 01:33:33.61	344.64	29.53	-31.1	-35.3	11.1	1.86e-03	0	44	102	1048576	22	5850
2026-01-26 01:33:34.61	344.38	29.65	-31.1	-35.2	11.2	4.02e-03	0	44	102	1048576	22	5787
2026-01-26 01:33:35.61	344.13	29.78	-31.1	-35.3	11.2	4.03e-03	0	44	102	1048576	22	5817
2026-01-26 01:33:36.61	343.86	29.90	-31.2	-35.5	11.0	1.60e-03	0	44	102	1048576	22	5900
2026-01-26 01:33:37.61	343.60	30.02	-31.3	-35.9	10.7	4.45e-03	0	44	102	1048576	22	6117
2026-01-26 01:33:38.61	343.34	30.14	-31.4	-36.3	10.4	7.08e-03	0	44	102	1048576	22	6311
2026-01-26 01:33:39.61	343.07	30.26	-31.4	-36.3	10.4	5.10e-03	0	44	102	1048576	22	6321
2026-01-26 01:33:40.61	342.80	30.38	-31.5	-36.0	10.3	7.86e-03	0	44	102	1048576	23	6031
2026-01-26 01:33:41.62	342.53	30.50	-31.5	-36.4	10.4	7.18e-03	0	44	102	1048576	22	6340
2026-01-26 01:33:42.62	342.25	30.62	-31.3	-35.5	10.7	3.74e-03	0	44	102	1048576	23	5812
2026-01-26 01:33:43.63	341.98	30.74	-31.3	-35.9	10.7	4.98e-03	0	44	102	1048576	22	6110
2026-01-26 01:33:44.64	341.70	30.86	-31.3	-35.8	10.8	5.54e-03	0	44	102	1048576	22	6071
2026-01-26 01:33:45.65	341.41	30.98	-31.2	-35.4	11.1	1.84e-03	0	44	102	1048576	22	5885
2026-01-26 01:33:46.64	341.14	31.10	-31.1	-35.2	11.3	3.65e-03	0	44	102	1048576	22	5751
2026-01-26 01:33:47.64	340.85	31.22	-31.2	-35.4	11.1	3.54e-03	0	44	102	1048576	22	5874
2026-01-26 01:33:48.64	340.57	31.34	-31.2	-35.4	11.1	1.64e-03	0	44	102	1048576	22	5881
2026-01-26 01:33:49.64	340.28	31.46	-31.1	-35.1	11.3	3.38e-03	0	44	102	1048576	22	5725
2026-01-26 01:33:50.65	339.99	31.58	-31.2	-35.4	11.1	3.07e-03	0	44	102	1048576	22	5849
2026-01-26 01:33:51.66	339.69	31.69	-31.1	-35.0	11.4	1.62e-03	0	44	102	1048576	22	5693
2026-01-26 01:33:52.66	339.40	31.81	-30.9	-35.2	11.7	6.89e-04	0	44	102	1048576	21	5870
2026-01-26 01:33:53.66	339.10	31.93	-30.9	-35.1	11.7	2.40e-03	0	44	102	1048576	21	5818
2026-01-26 01:33:54.67	338.80	32.04	-31.0	-35.0	11.5	9.58e-04	0	44	102	1048576	22	5674
2026-01-26 01:33:55.66	338.50	32.16	-31.2	-35.4	11.2	1.36e-03	0	44	102	1048576	22	5879
2026-01-26 01:33:56.67	338.20	32.28	-31.4	-36.0	10.7	2.88e-03	0	44	102	1048576	22	6158
2026-01-26 01:33:57.67	337.89	32.39	-31.6	-36.3	10.2	4.78e-03	0	44	102	1048576	23	6173
2026-01-26 01:33:58.67	337.58	32.50	-31.6	-36.3	10.1	8.08e-03	0	44	102	1048576	23	6199
2026-01-26 01:33:59.67	337.27	32.62	-31.6	-36.4	10.0	7.67e-03	0	44	102	1048576	23	6228
2026-01-26 01:34:00.68	336.96	32.73	-31.6	-36.4	10.0	8.54e-03	0	44	102	1048576	23	6257
2026-01-26 01:34:01.68	336.65	32.85	-31.7	-36.7	9.8	1.03e-02	0	44	102	1048576	23	6407
2026-01-26 01:34:02.68	336.33	32.96	-31.6	-36.2	10.2	7.20e-03	0	44	102	1048576	23	6153
2026-01-26 01:34:03.68	336.01	33.07	-31.6	-36.2	10.2	5.50e-03	0	44	102	1048576	23	6134
2026-01-26 01:34:04.68	335.69	33.18	-31.6	-36.3	10.1	7.96e-03	0	44	102	1048576	23	6197
2026-01-26 01:34:05.69	335.37	33.29	-31.6	-36.4	10.0	9.86e-03	0	44	102	1048576	23	6257
2026-01-26 01:34:06.69	335.04	33.40	-31.7	-36.7	9.8	1.06e-02	0	44	102	1048576	23	6388
2026-01-26 01:34:07.69	334.71	33.51	-31.8	-37.1	9.5	1.22e-02	0	44	102	1048576	23	6638
2026-01-26 01:34:08.69	334.39	33.62	-31.8	-37.2	9.4	1.88e-02	0	44	102	1048576	23	6661
2026-01-26 01:34:09.70	334.05	33.73	-31.8	-37.1	9.5	1.44e-02	0	44	102	1048576	23	6620
2026-01-26 01:34:10.69	333.72	33.83	-31.8	-37.1	9.5	1.42e-02	0	44	102	1048576	23	6624
2026-01-26 01:34:11.70	333.38	33.94	-31.8	-37.2	9.5	1.52e-02	0	44	102	1048576	23	6670
2026-01-26 01:34:12.70	333.04	34.05	-32.0	-37.7	9.1	2.17e-02	0	44	102	1048576	23	6937
2026-01-26 01:34:13.71	332.70	34.15	-32.1	-37.9	8.6	3.79e-02	0	44	102	1048576	24	6981
2026-01-26 01:34:14.71	332.36	34.25	-32.2	-38.4	8.1	5.74e-02	0	44	102	1048576	24	7289
2026-01-26 01:34:15.71	332.01	34.36	-32.3	-38.6	7.9	7.77e-02	0	44	102	1048576	24	7470
2026-01-26 01:34:16.71	331.66	34.46	-32.3	-38.8	7.9	7.37e-02	0	44	102	1048576	24	7558
2026-01-26 01:34:17.71	331.32	34.56	-32.4	-39.0	7.7	8.25e-02	0	44	102	1048576	24	7728
2026-01-26 01:34:18.71	330.96	34.66	-32.3	-38.7	7.9	9.54e-02	0	44	102	1048576	24	7482
2026-01-26 01:34:19.72	330.61	34.76	-32.3	-38.5	8.0	6.58e-02	0	44	102	1048576	24	7368
2026-01-26 01:34:20.72	330.25	34.86	-32.1	-37.8	8.5	4.90e-02	0	44	102	1048576	24	6960
2026-01-26 01:34:21.73	329.89	34.96	-32.0	-37.4	8.9	3.43e-02	0	44	102	1048576	24	6691
2026-01-26 01:34:22.73	329.53	35.05	-32.0	-37.1	9.1	2.35e-02	0	44	102	1048576	24	6541
2026-01-26 01:34:23.74	329.16	35.15	-32.0	-37.4	8.9	2.30e-02	0	44	102	1048576	24	6683
2026-01-26 01:34:24.74	328.80	35.25	-32.0	-37.5	8.9	2.94e-02	0	44	102	1048576	24	6724
2026-01-26 01:34:25.75	328.43	35.34	-31.9	-37.1	9.2	2.25e-02	0	44	102	1048576	24	6490
2026-01-26 01:34:26.76	328.06	35.43	-31.9	-37.4	9.3	1.76e-02	0	44	102	1048576	23	6793
2026-01-26 01:34:27.76	327.69	35.52	-31.9	-37.3	9.5	1.86e-02	0	44	102	1048576	23	6699
2026-01-26 01:34:28.77	327.31	35.62	-31.8	-36.9	9.8	1.30e-02	0	44	102	1048576	23	6479
2026-01-26 01:34:29.77	326.94	35.70	-31.8	-37.0	9.7	1.06e-02	0	44	102	1048576	23	6537
2026-01-26 01:34:30.78	326.55	35.79	-31.8	-36.9	9.8	1.06e-02	0	44	102	1048576	23	6488
2026-01-26 01:34:31.78	326.18	35.88	-31.7	-36.6	9.9	1.05e-02	0	44	102	1048576	23	6359
2026-01-26 01:34:32.78	325.79	35.97	-31.5	-36.0	10.4	5.54e-03	0	44	102	1048576	23	6004
2026-01-26 01:34:33.78	325.41	36.05	-31.1	-34.6	11.4	1.92e-03	0	44	102	1048576	23	5402
2026-01-26 01:34:34.79	325.02	36.13	-29.9	-33.1	12.1	4.36e-04	0	44	102	1048576	22	5248
2026-01-26 01:34:35.80	324.63	36.22	-30.5	-33.8	12.6	1.60e-04	0	44	102	1048576	21	5279
2026-01-26 01:34:36.80	324.24	36.30	-30.4	-34.1	12.8	7.32e-05	0	44	102	1048576	20	5506
2026-01-26 01:34:37.81	323.85	36.38	-30.3	-33.7	13.1	4.65e-05	0	44	102	1048576	20	5341
2026-01-26 01:34:38.82	323.45	36.45	-30.3	-33.6	13.1	2.74e-05	0	44	102	1048576	20	5302
2026-01-26 01:34:39.82	323.06	36.53	-30.2	-33.4	13.2	2.43e-03	0	44	102	1048576	20	5230
2026-01-26 01:34:40.83	322.66	36.61	-30.1	-33.3	13.3	1.90e-05	0	44	102	1048576	20	5166
2026-01-26 01:34:41.83	322.26	36.68	-30.2	-33.4	13.2	1.44e-05	0	44	102	1048576	20	5239
2026-01-26 01:34:42.83	321.86	36.75	-30.1	-33.1	13.5	2.96e-03	0	44	102	1048576	20	5084
2026-01-26 01:34:43.84	321.45	36.82	-30.1	-33.1	13.5	7.60e-06	0	44	102	1048576	20	5092
2026-01-26 01:34:44.84	321.05	36.89	-30.0	-33.0	13.6	6.10e-06	0	44	102	1048576	20	5050
2026-01-26 01:34:45.85	320.64	36.96	-30.1	-33.1	13.5	1.22e-05	0	44	102	1048576	20	5098
2026-01-26 01:34:46.85	320.23	37.03	-30.1	-33.1	13.5	2.22e-03	0	44	102	1048576	20	5108
2026-01-26 01:34:47.86	319.82	37.09	-30.0	-33.0	13.6	1.52e-05	0	44	102	1048576	20	5050
2026-01-26 01:34:48.86	319.41	37.15	-30.0	-32.8	13.7	2.20e-06	0	44	102	1048576	20	4986
2026-01-26 01:34:49.86	319.00	37.22	-30.1	-33.1	13.5	2.39e-03	0	44	102	1048576	20	5098
2026-01-26 01:34:50.87	318.58	37.28	-30.1	-33.1	13.5	1.33e-04	0	44	102	1048576	20	5100
2026-01-26 01:34:51.87	318.16	37.33	-30.1	-33.0	13.5	9.90e-06	0	44	102	1048576	20	5078
2026-01-26 01:34:52.88	317.74	37.39	-30.1	-33.2	13.4	1.72e-03	0	44	102	1048576	20	5159
2026-01-26 01:34:53.89	317.32	37.45	-29.9	-33.1	14.0	3.70e-04	0	44	102	1048576	19	5200
2026-01-26 01:34:54.89	316.90	37.50	-29.6	-32.4	14.4	3.80e-06	0	44	102	1048576	19	4928
2026-01-26 01:34:55.90	316.48	37.55	-29.6	-32.3	14.4	0.00e+00	0	44	102	1048576	19	4894
2026-01-26 01:34:56.90	316.05	37.60	-29.6	-32.3	14.5	2.99e-04	0	44	102	1048576	19	4895
2026-01-26 01:34:57.91	315.63	37.65	-29.2	-31.9	15.0	1.16e-03	0	44	102	1048576	18	4885
2026-01-26 01:34:58.91	315.20	37.70	-28.9	-31.6	15.4	0.00e+00	0	44	102	1048576	17	4887
2026-01-26 01:34:59.91	314.77	37.74	-28.9	-31.5	15.5	3.26e-04	0	44	102	1048576	17	4852
2026-01-26 01:35:00.91	314.35	37.79	-29.1	-31.6	15.2	1.98e-03	0	44	102	1048576	18	4776
2026-01-26 01:35:01.91	313.92	37.83	-29.0	-31.4	15.3	2.20e-03	0	44	102	1048576	18	4724
2026-01-26 01:35:02.92	313.49	37.87	-29.2	-31.8	15.1	4.38e-04	0	44	102	1048576	18	4854
2026-01-26 01:35:03.92	313.06	37.90	-29.2	-31.8	15.1	1.55e-03	0	44	102	1048576	18	4838
2026-01-26 01:35:04.92	312.62	37.94	-29.1	-31.6	15.2	1.75e-03	0	44	102	1048576	18	4797
2026-01-26 01:35:05.92	312.19	37.97	-29.3	-32.0	15.0	0.00e+00	0	44	102	1048576	18	4933
2026-01-26 01:35:06.93	311.75	38.01	-29.2	-31.9	15.0	2.29e-03	0	44	102	1048576	18	4872
2026-01-26 01:35:07.93	311.32	38.04	-29.1	-31.6	15.2	2.58e-03	0	44	102	1048576	18	4792
2026-01-26 01:35:08.93	310.89	38.07	-29.0	-31.2	15.4	4.65e-04	0	44	102	1048576	18	4650
2026-01-26 01:35:09.93	310.45	38.09	-28.9	-31.5	15.5	2.81e-03	0	44	102	1048576	17	4869
2026-01-26 01:35:10.94	310.01	38.12	-28.8	-31.3	15.5	2.73e-03	0	44	102	1048576	17	4812
2026-01-26 01:35:11.94	309.57	38.14	-28.9	-31.6	15.5	3.44e-04	0	44	102	1048576	17	4894
2026-01-26 01:35:12.94	309.13	38.16	-28.8	-31.2	15.7	3.07e-03	0	44	102	1048576	17	4756
2026-01-26 01:35:13.95	308.69	38.18	-28.6	-30.8	15.9	3.04e-03	0	44	102	1048576	17	4646
2026-01-26 01:35:14.95	308.25	38.20	-28.7	-31.2	15.8	1.88e-04	0	44	102	1048576	17	4748
2026-01-26 01:35:15.95	307.81	38.21	-28.7	-31.1	15.8	3.28e-03	0	44	102	1048576	17	4727
2026-01-26 01:35:16.95	307.38	38.23	-28.9	-31.4	15.6	3.18e-03	0	44	102	1048576	17	4839
2026-01-26 01:35:17.95	306.94	38.24	-29.2	-31.8	15.0	4.57e-04	0	44	102	1048576	18	4861
2026-01-26 01:35:18.95	306.50	38.25	-29.4	-32.2	14.9	2.79e-03	0	44	102	1048576	18	4969
2026-01-26 01:35:19.95	306.06	38.25	-29.5	-32.0	14.7	0.00e+00	0	44	102	1048576	19	4796
2026-01-26 01:35:20.96	305.61	38.26	-29.7	-32.6	14.3	1.23e-04	0	44	102	1048576	19	5002
2026-01-26 01:35:21.96	305.17	38.26	-29.6	-32.2	14.5	2.69e-03	0	44	102	1048576	19	4857
2026-01-26 01:35:22.97	304.72	38.26	-29.7	-32.4	14.4	2.51e-03	0	44	102	1048576	19	4946
2026-01-26 01:35:23.98	304.28	38.26	-29.9	-33.1	14.0	7.00e-07	0	44	102	1048576	19	5185
2026-01-26 01:35:24.99	303.83	38.26	-29.9	-32.7	13.8	2.01e-03	0	44	102	1048576	20	4971
2026-01-26 01:35:25.99	303.39	38.26	-30.0	-32.8	13.8	1.85e-03	0	44	102	1048576	20	4983
2026-01-26 01:35:26.99	302.95	38.25	-30.1	-33.2	13.5	1.22e-05	0	44	102	1048576	20	5123
2026-01-26 01:35:28.00	302.51	38.24	-30.0	-32.9	13.7	2.25e-03	0	44	102	1048576	20	5015
2026-01-26 01:35:29.01	302.06	38.23	-30.1	-33.1	13.6	2.20e-03	0	44	102	1048576	20	5101
2026-01-26 01:35:30.02	301.62	38.22	-30.3	-33.8	13.1	2.67e-05	0	44	102	1048576	20	5372
2026-01-26 01:35:31.02	301.18	38.21	-30.5	-33.7	12.8	5.64e-05	0	44	102	1048576	21	5227
2026-01-26 01:35:32.03	300.74	38.19	-30.4	-33.4	13.0	2.10e-03	0	44	102	1048576	21	5107
2026-01-26 01:35:33.03	300.30	38.17	-30.4	-33.4	13.1	7.17e-05	0	44	102	1048576	21	5088
2026-01-26 01:35:34.03	299.86	38.16	-30.4	-33.8	13.1	2.05e-05	0	44	102	1048576	20	5377
2026-01-26 01:35:35.04	299.42	38.13	-30.4	-33.9	13.1	9.92e-04	0	44	102	1048576	20	5393
2026-01-26 01:35:36.05	298.98	38.11	-30.5	-34.1	12.9	1.12e-04	0	44	102	1048576	20	5493
2026-01-26 01:35:37.05	298.54	38.08	-30.3	-33.6	13.2	3.12e-05	0	44	102	1048576	20	5281
2026-01-26 01:35:38.05	298.10	38.06	-30.2	-33.4	13.4	2.28e-05	0	44	102	1048576	20	5190
2026-01-26 01:35:39.06	297.67	38.03	-30.1	-33.2	13.5	1.14e-04	0	43	102	1048576	20	5141
2026-01-26 01:35:40.06	297.23	38.00	-30.1	-33.2	13.5	1.52e-05	0	44	102	1048576	20	5116
2026-01-26 01:35:41.07	296.79	37.96	-30.2	-33.4	13.4	1.06e-05	0	44	102	1048576	20	5187
2026-01-26 01:35:42.08	296.36	37.93	-30.4	-34.1	13.0	2.82e-05	0	44	102	1048576	20	5475
2026-01-26 01:35:43.09	295.92	37.89	-30.5	-33.7	12.8	2.00e-03	0	44	102	1048576	21	5205
2026-01-26 01:35:44.09	295.49	37.85	-30.7	-34.3	12.5	9.68e-05	0	44	102	1048576	21	5444
2026-01-26 01:35:45.09	295.06	37.81	-30.8	-34.7	12.1	2.08e-04	0	44	102	1048576	21	5628
2026-01-26 01:35:46.09	294.63	37.77	-31.1	-35.1	11.5	1.99e-03	0	43	102	1048576	22	5674
2026-01-26 01:35:47.09	294.21	37.73	-31.2	-35.2	11.5	8.77e-04	0	44	102	1048576	22	5737
2026-01-26 01:35:48.10	293.78	37.68	-31.1	-35.0	11.6	7.28e-04	0	44	102	1048576	22	5626
2026-01-26 01:35:49.10	293.35	37.64	-31.1	-35.0	11.6	6.81e-04	0	44	102	1048576	22	5620
2026-01-26 01:35:50.10	292.93	37.59	-31.2	-35.2	11.6	7.12e-04	0	44	102	1048576	22	5711
2026-01-26 01:35:51.10	292.50	37.54	-30.9	-34.4	12.1	3.58e-04	0	44	102	1048576	22	5383
2026-01-26 01:35:52.11	292.08	37.48	-30.9	-34.9	12.1	3.00e-04	0	44	102	1048576	21	5707
2026-01-26 01:35:53.11	291.66	37.43	-31.2	-35.2	11.5	5.00e-04	0	44	102	1048576	22	5745
2026-01-26 01:35:54.10	291.25	37.38	-31.5	-36.2	10.8	1.95e-03	0	44	102	1048576	22	6197
2026-01-26 01:35:55.10	290.83	37.32	-31.4	-35.5	10.8	2.79e-03	0	44	102	1048576	23	5768
2026-01-26 01:35:56.11	290.41	37.26	-31.4	-35.6	10.8	2.04e-03	0	44	102	1048576	23	5795
2026-01-26 01:35:57.12	289.99	37.20	-31.6	-36.0	10.5	3.56e-03	0	44	102	1048576	23	6015
2026-01-26 01:35:58.10	289.59	37.14	-31.6	-36.2	10.4	4.49e-03	0	44	102	1048576	23	6105
2026-01-26 01:35:59.11	289.17	37.07	-31.6	-36.2	10.5	4.09e-03	0	44	102	1048576	23	6095
2026-01-26 01:36:00.10	288.77	37.01	-31.4	-35.7	10.7	3.82e-03	0	44	102	1048576	23	5845
2026-01-26 01:36:01.11	288.36	36.94	-31.4	-36.0	10.9	2.34e-03	0	44	102	1048576	22	6118
2026-01-26 01:36:02.12	287.95	36.87	-31.4	-35.9	11.0	1.88e-03	0	44	102	1048576	22	6048
2026-01-26 01:36:03.12	287.54	36.80	-31.1	-35.0	11.5	1.33e-03	0	44	102	1048576	22	5663
2026-01-26 01:36:04.12	287.14	36.73	-31.0	-34.9	11.6	5.98e-04	0	44	102	1048576	22	5598
2026-01-26 01:36:05.12	286.74	36.66	-31.1	-35.1	11.5	7.39e-04	0	44	102	1048576	22	5697
2026-01-26 01:36:06.12	286.34	36.59	-31.1	-35.2	11.4	9.41e-04	0	44	102	1048576	22	5743
2026-01-26 01:36:07.13	285.94	36.51	-31.2	-35.4	11.3	9.09e-04	0	44	102	1048576	22	5815
2026-01-26 01:36:08.13	285.55	36.43	-31.1	-34.9	11.6	7.32e-04	0	44	102	1048576	22	5636
2026-01-26 01:36:09.14	285.15	36.35	-31.2	-35.4	11.3	1.10e-03	0	44	102	1048576	22	5844
2026-01-26 01:36:10.13	284.76	36.28	-30.8	-34.0	12.2	5.72e-04	0	44	102	1048576	22	5250
2026-01-26 01:36:11.14	284.37	36.19	-30.2	-33.0	13.1	4.57e-05	0	44	102	1048576	21	4975
2026-01-26 01:36:12.15	283.98	36.11	-29.7	-32.1	14.1	5.30e-06	0	44	102	1048576	20	4761
2026-01-26 01:36:13.15	283.59	36.03	-29.5	-32.1	14.5	2.20e-06	0	44	102	1048576	19	4830
2026-01-26 01:36:14.15	283.21	35.94	-29.4	-31.9	14.7	7.00e-07	0	44	102	1048576	19	4764
2026-01-26 01:36:15.16	282.82	35.86	-29.6	-32.2	14.4	0.00e+00	0	44	102	1048576	19	4880
2026-01-26 01:36:16.16	282.44	35.77	-29.6	-32.4	14.3	7.00e-07	0	44	102	1048576	19	4954
2026-01-26 01:36:17.16	282.07	35.68	-29.7	-32.5	14.3	7.00e-07	0	44	102	1048576	19	4974
2026-01-26 01:36:18.16	281.69	35.59	-29.5	-32.2	14.4	4.10e-04	0	44	102	1048576	19	4872
2026-01-26 01:36:19.16	281.32	35.50	-29.5	-32.1	14.5	0.00e+00	0	44	102	1048576	19	4832
2026-01-26 01:36:20.17	280.94	35.41	-29.3	-31.5	14.9	0.00e+00	0	44	102	1048576	19	4656
2026-01-26 01:36:21.18	280.57	35.31	-29.3	-32.0	14.9	2.67e-03	0	44	102	1048576	18	4914
2026-01-26 01:36:22.18	280.20	35.22	-29.5	-32.0	14.6	0.00e+00	0	44	102	1048576	19	4826
2026-01-26 01:36:23.18	279.84	35.13	-29.6	-32.2	14.4	7.00e-07	0	44	102	1048576	19	4871
2026-01-26 01:36:24.18	279.48	35.03	-29.6	-32.4	14.3	7.00e-07	0	44	102	1048576	19	4955
2026-01-26 01:36:25.19	279.11	34.93	-29.6	-32.3	14.4	5.29e-04	0	44	102	1048576	19	4921
2026-01-26 01:36:26.19	278.75	34.83	-29.7	-32.5	14.3	7.00e-07	0	44	102	1048576	19	4992
2026-01-26 01:36:27.19	278.40	34.74	-29.9	-33.1	13.8	7.00e-07	0	44	102	1048576	19	5205
2026-01-26 01:36:28.20	278.04	34.63	-30.0	-32.8	13.7	1.08e-03	0	44	102	1048576	20	4992
2026-01-26 01:36:29.21	277.68	34.53	-30.1	-33.2	13.4	1.14e-05	0	44	102	1048576	20	5140
2026-01-26 01:36:30.21	277.34	34.43	-30.3	-33.6	13.1	1.98e-05	0	44	102	1048576	20	5315
2026-01-26 01:36:31.21	276.99	34.33	-30.5	-34.2	12.7	2.40e-03	0	44	102	1048576	20	5555
2026-01-26 01:36:32.22	276.64	34.22	-30.4	-34.0	12.8	5.79e-05	0	44	102	1048576	20	5447
2026-01-26 01:36:33.22	276.30	34.12	-30.3	-33.8	13.0	4.65e-05	0	44	102	1048576	20	5390
2026-01-26 01:36:34.23	275.95	34.01	-30.4	-34.0	12.9	3.89e-05	0	44	102	1048576	20	5447
2026-01-26 01:36:35.23	275.61	33.91	-30.5	-33.9	12.6	7.55e-05	0	44	102	1048576	21	5305
2026-01-26 01:36:36.24	275.27	33.80	-30.3	-33.9	13.0	2.03e-03	0	44	102	1048576	20	5394
2026-01-26 01:36:37.24	274.94	33.69	-30.4	-33.9	12.9	5.49e-05	0	44	102	1048576	20	5415
2026-01-26 01:36:38.25	274.60	33.58	-30.3	-33.7	13.0	4.42e-05	0	44	102	1048576	20	5355
2026-01-26 01:36:39.25	274.28	33.47	-30.4	-34.1	12.7	2.00e-03	0	44	102	1048576	20	5509
2026-01-26 01:36:40.26	273.94	33.36	-30.6	-34.0	12.5	8.92e-05	0	44	102	1048576	21	5356
2026-01-26 01:36:41.26	273.62	33.25	-30.7	-34.5	12.1	1.79e-04	0	44	102	1048576	21	5578
2026-01-26 01:36:42.26	273.30	33.14	-30.9	-35.0	11.8	3.05e-03	0	44	102	1048576	21	5780
2026-01-26 01:36:43.26	272.98	33.03	-31.0	-34.8	11.6	3.27e-03	0	44	102	1048576	22	5574
2026-01-26 01:36:44.26	272.66	32.92	-30.9	-34.4	11.9	5.99e-04	0	44	102	1048576	22	5407
2026-01-26 01:36:45.27	272.34	32.81	-30.8	-34.8	11.9	2.83e-03	0	44	102	1048576	21	5697
2026-01-26 01:36:46.27	272.02	32.69	-30.9	-35.0	11.8	3.09e-03	0	44	102	1048576	21	5764
2026-01-26 01:36:47.27	271.71	32.58	-30.9	-35.1	11.7	4.31e-04	0	44	102	1048576	21	5814
2026-01-26 01:36:48.27	271.40	32.46	-31.0	-34.9	11.5	2.61e-03	0	44	102	1048576	22	5611
2026-01-26 01:36:49.27	271.09	32.35	-30.9	-34.6	11.8	1.77e-03	0	44	102	1048576	22	5495
2026-01-26 01:36:50.27	270.79	32.23	-31.0	-34.7	11.6	6.81e-04	0	44	102	1048576	22	5546
2026-01-26 01:36:51.28	270.48	32.12	-30.7	-34.5	12.2	1.28e-03	0	44	102	1048576	21	5563
2026-01-26 01:36:52.29	270.18	32.00	-30.5	-33.9	12.6	1.22e-03	0	44	102	1048576	21	5316
2026-01-26 01:36:53.30	269.88	31.88	-30.6	-34.1	12.5	1.11e-04	0	44	102	1048576	21	5388
2026-01-26 01:36:54.30	269.58	31.77	-30.8	-34.7	12.0	7.06e-04	0	44	102	1048576	21	5659
2026-01-26 01:36:55.29	269.29	31.65	-30.9	-35.1	11.8	1.22e-03	0	44	102	1048576	21	5804
2026-01-26 01:36:56.30	268.99	31.53	-31.0	-34.9	11.5	5.45e-04	0	44	102	1048576	22	5646
2026-01-26 01:36:57.29	268.71	31.41	-31.1	-35.3	11.2	2.26e-03	0	44	102	1048576	22	5798
2026-01-26 01:36:58.29	268.42	31.29	-31.2	-35.5	11.1	1.78e-03	0	44	102	1048576	22	5886
2026-01-26 01:36:59.30	268.13	31.17	-31.1	-35.2	11.4	1.20e-03	0	44	102	1048576	22	5753
2026-01-26 01:37:00.30	267.84	31.06	-30.9	-34.6	11.7	2.02e-03	0	44	102	1048576	22	5501
2026-01-26 01:37:01.30	267.56	30.94	-30.9	-35.1	11.7	5.20e-04	0	44	102	1048576	21	5811
2026-01-26 01:37:02.31	267.28	30.81	-30.9	-35.1	11.6	5.79e-04	0	44	102	1048576	21	5852
2026-01-26 01:37:03.31	267.00	30.69	-30.9	-35.1	11.7	2.37e-03	0	44	102	1048576	21	5841
2026-01-26 01:37:04.32	266.72	30.57	-31.0	-35.0	11.5	2.60e-03	0	44	102	1048576	22	5672
2026-01-26 01:37:05.33	266.45	30.45	-31.2	-35.4	11.1	1.26e-03	0	44	102	1048576	22	5867
2026-01-26 01:37:06.33	266.18	30.33	-31.3	-35.9	10.8	3.19e-03	0	44	102	1048576	22	6100
2026-01-26 01:37:07.34	265.90	30.21	-31.3	-35.8	10.9	2.58e-03	0	44	102	1048576	22	6030
2026-01-26 01:37:08.34	265.64	30.09	-31.2	-35.6	11.0	2.30e-03	0	44	102	1048576	22	5978
2026-01-26 01:37:09.35	265.37	29.96	-31.3	-35.9	10.8	2.12e-03	0	44	102	1048576	22	6079
2026-01-26 01:37:10.36	265.10	29.84	-31.2	-35.6	11.0	4.46e-03	0	44	102	1048576	22	5932
2026-01-26 01:37:11.36	264.84	29.72	-30.9	-34.6	11.7	7.71e-04	0	44	102	1048576	22	5501
2026-01-26 01:37:12.36	264.58	29.60	-30.6	-34.2	12.3	2.74e-04	0	44	102	1048576	21	5442
2026-01-26 01:37:13.36	264.33	29.48	-30.4	-33.6	12.7	1.97e-03	0	44	102	1048576	21	5194
2026-01-26 01:37:14.37	264.07	29.35	-30.3	-33.3	12.9	5.64e-05	0	44	102	1048576	21	5080
2026-01-26 01:37:15.37	263.81	29.23	-30.4	-34.1	12.7	5.56e-05	0	44	102	1048576	20	5518
2026-01-26 01:37:16.37	263.56	29.11	-30.4	-34.2	12.7	7.01e-05	0	44	102	1048576	20	5538
2026-01-26 01:37:17.37	263.31	28.99	-30.6	-34.3	12.3	1.27e-04	0	44	102	1048576	21	5472
2026-01-26 01:37:18.37	263.07	28.86	-30.6	-34.3	12.2	2.79e-04	0	44	102	1048576	21	5496
2026-01-26 01:37:19.38	262.82	28.74	-30.3	-33.5	12.8	9.23e-05	0	44	102	1048576	21	5156
2026-01-26 01:37:20.38	262.57	28.62	-30.0	-32.5	13.4	3.89e-05	0	44	102	1048576	21	4798
2026-01-26 01:37:21.39	262.33	28.49	-29.9	-33.1	13.7	3.64e-03	0	44	102	1048576	19	5207
2026-01-26 01:37:22.40	262.09	28.37	-29.9	-33.1	13.7	3.00e-06	0	44	102	1048576	19	5207
2026-01-26 01:37:23.40	261.85	28.25	-29.9	-33.3	13.6	6.80e-06	0	44	102	1048576	19	5291
2026-01-26 01:37:24.41	261.61	28.12	-29.9	-32.8	13.5	1.55e-03	0	44	102	1048576	20	4995
2026-01-26 01:37:25.42	261.37	28.00	-29.8	-33.0	13.8	2.20e-06	0	44	102	1048576	19	5200
2026-01-26 01:37:26.43	261.14	27.87	-29.8	-32.9	13.8	4.50e-06	0	44	102	1048576	19	5164
2026-01-26 01:37:27.43	260.91	27.75	-29.8	-33.0	13.8	4.50e-06	0	44	102	1048576	19	5183
2026-01-26 01:37:28.44	260.67	27.63	-29.8	-33.0	13.7	6.80e-06	0	44	102	1048576	19	5195
2026-01-26 01:37:29.44	260.45	27.51	-29.9	-33.2	13.6	1.44e-05	0	44	102	1048576	19	5288
2026-01-26 01:37:30.43	260.22	27.38	-29.7	-32.8	13.9	2.20e-06	0	44	102	1048576	19	5101
2026-01-26 01:37:31.44	260.00	27.26	-29.5	-32.1	14.4	8.30e-06	0	44	102	1048576	19	4868
2026-01-26 01:37:32.44	259.78	27.14	-29.4	-31.8	14.6	0.00e+00	0	44	102	1048576	19	4752
2026-01-26 01:37:33.45	259.55	27.01	-29.3	-32.1	14.7	0.00e+00	0	44	102	1048576	18	4965
2026-01-26 01:37:34.45	259.33	26.89	-29.3	-32.2	14.6	7.00e-07	0	44	102	1048576	18	5015
2026-01-26 01:37:35.46	259.11	26.77	-29.5	-32.6	14.3	0.00e+00	0	44	102	1048576	18	5170
2026-01-26 01:37:36.46	258.90	26.65	-29.7	-32.6	14.1	3.00e-06	0	44	102	1048576	19	5038
2026-01-26 01:37:37.47	258.68	26.52	-29.5	-32.2	14.3	2.20e-06	0	44	102	1048576	19	4925
2026-01-26 01:37:38.47	258.47	26.40	-29.3	-31.8	14.5	7.00e-07	0	44	102	1048576	19	4754
2026-01-26 01:37:39.48	258.26	26.28	-29.1	-31.8	14.9	0.00e+00	0	44	102	1048576	18	4858
2026-01-26 01:37:40.49	258.05	26.16	-29.1	-31.7	14.9	7.00e-07	0	44	102	1048576	18	4850
2026-01-26 01:37:41.49	257.84	26.03	-29.1	-31.6	14.9	7.00e-07	0	44	102	1048576	18	4819
2026-01-26 01:37:42.50	257.63	25.91	-28.9	-31.7	14.0	0.00e+00	0	44	102	1048576	17	4969
2026-01-26 01:37:43.50	257.43	25.79	-29.0	-31.4	14.6	0.00e+00	0	44	102	1048576	18	4724
2026-01-26 01:37:44.50	257.23	25.67	-29.1	-31.7	13.6	0.00e+00	0	44	102	1048576	18	4833
2026-01-26 01:37:45.50	257.03	25.55	-29.1	-31.6	14.3	7.00e-07	0	44	102	1048576	18	4799
2026-01-26 01:37:46.50	256.83	25.43	-29.1	-31.6	14.9	0.00e+00	0	44	102	1048576	18	4795
2026-01-26 01:37:47.50	256.63	25.31	-29.2	-31.8	14.8	0.00e+00	0	44	102	1048576	18	4877
2026-01-26 01:37:48.50	256.43	25.19	-29.3	-32.1	14.6	9.28e-04	0	44	102	1048576	18	4974
2026-01-26 01:37:49.49	256.24	25.07	-29.3	-32.2	14.5	1.50e-06	0	44	102	1048576	18	5027
2026-01-26 01:37:50.49	256.05	24.95	-29.1	-32.2	13.9	0.00e+00	0	44	102	1048576	17	5132
2026-01-26 01:37:51.50	255.85	24.83	-29.1	-31.6	13.8	0.00e+00	0	44	102	1048576	18	4818
2026-01-26 01:37:52.49	255.66	24.71	-29.0	-31.5	14.9	0.00e+00	0	44	102	1048576	18	4777
2026-01-26 01:37:53.50	255.47	24.59	-29.1	-31.6	14.9	0.00e+00	0	44	102	1048576	18	4809
2026-01-26 01:37:54.51	255.28	24.47	-29.2	-31.9	14.7	0.00e+00	0	44	102	1048576	18	4905
2026-01-26 01:37:55.51	255.10	24.35	-29.3	-32.2	14.5	4.95e-05	0	44	102	1048576	18	5032
2026-01-26 01:37:56.51	254.91	24.23	-29.4	-32.4	14.4	0.00e+00	0	44	102	1048576	18	5109
2026-01-26 01:37:57.51	254.73	24.11	-29.5	-32.7	14.2	7.00e-07	0	44	102	1048576	18	5189
2026-01-26 01:37:58.52	254.55	23.99	-29.5	-32.1	14.2	3.00e-06	0	44	102	1048576	19	4893
2026-01-26 01:37:59.53	254.36	23.87	-29.4	-32.4	14.3	2.22e-03	0	44	102	1048576	18	5112
2026-01-26 01:38:00.53	254.19	23.75	-29.3	-32.3	14.4	1.50e-06	0	44	102	1048576	18	5051
2026-01-26 01:38:01.53	254.01	23.64	-29.1	-31.8	14.7	7.00e-07	0	44	102	1048576	18	4880
2026-01-26 01:38:02.54	253.83	23.52	-29.1	-31.8	14.7	2.27e-03	0	44	102	1048576	18	4872
2026-01-26 01:38:03.54	253.65	23.40	-29.2	-31.8	14.7	1.01e-04	0	44	102	1048576	18	4886
2026-01-26 01:38:04.54	253.48	23.28	-29.2	-31.9	14.7	2.20e-06	0	44	102	1048576	18	4910
2026-01-26 01:38:05.54	253.31	23.17	-29.2	-31.8	14.7	7.00e-07	0	44	102	1048576	18	4892
2026-01-26 01:38:06.55	253.14	23.05	-29.2	-32.0	14.6	2.73e-03	0	44	102	1048576	18	4944
2026-01-26 01:38:07.55	252.97	22.93	-29.2	-32.0	14.5	7.00e-07	0	44	102	1048576	18	4974
2026-01-26 01:38:08.55	252.80	22.82	-29.3	-32.3	14.4	0.00e+00	0	44	102	1048576	18	5057
2026-01-26 01:38:09.56	252.63	22.70	-29.3	-32.2	14.4	2.98e-03	0	44	102	1048576	18	5041
2026-01-26 01:38:10.57	252.46	22.58	-29.3	-32.3	14.4	8.66e-04	0	44	102	1048576	18	5047
2026-01-26 01:38:11.57	252.30	22.47	-29.3	-32.3	14.4	1.50e-06	0	44	102	1048576	18	5062
2026-01-26 01:38:12.58	252.13	22.35	-29.3	-32.1	14.4	2.70e-03	0	44	102	1048576	18	5005
2026-01-26 01:38:13.59	251.97	22.24	-29.4	-32.4	14.3	8.50e-04	0	44	102	1048576	18	5107
2026-01-26 01:38:14.58	251.81	22.12	-29.5	-32.6	14.1	8.08e-05	0	44	102	1048576	18	5195
2026-01-26 01:38:15.58	251.65	22.01	-29.7	-32.6	13.8	4.50e-06	0	44	102	1048576	19	5080
2026-01-26 01:38:16.59	251.49	21.89	-29.7	-32.7	13.8	1.10e-03	0	44	102	1048576	19	5086
2026-01-26 01:38:17.60	251.33	21.78	-29.7	-32.7	13.7	2.95e-03	0	44	102	1048576	19	5095
2026-01-26 01:38:18.60	251.17	21.66	-29.8	-33.0	13.5	5.30e-06	0	44	102	1048576	19	5220
2026-01-26 01:38:19.60	251.02	21.55	-29.8	-33.1	13.5	1.46e-03	0	44	102	1048576	19	5262
2026-01-26 01:38:20.61	250.86	21.44	-30.0	-33.5	13.2	3.35e-03	0	44	102	1048576	19	5424
2026-01-26 01:38:21.61	250.71	21.33	-29.9	-33.3	13.3	1.57e-04	0	44	102	1048576	19	5352
2026-01-26 01:38:22.61	250.56	21.21	-29.8	-33.2	13.4	1.70e-03	0	44	102	1048576	19	5283
2026-01-26 01:38:23.62	250.40	21.10	-29.8	-33.0	13.6	3.05e-03	0	44	102	1048576	19	5210
2026-01-26 01:38:24.62	250.26	20.99	-29.8	-33.0	13.5	3.55e-03	0	44	102	1048576	19	5226
2026-01-26 01:38:25.63	250.11	20.88	-29.8	-33.1	13.4	1.29e-05	0	44	102	1048576	19	5268
2026-01-26 01:38:26.63	249.96	20.76	-29.9	-33.5	13.2	4.41e-03	0	44	102	1048576	19	5410
2026-01-26 01:38:27.64	249.81	20.65	-30.0	-33.5	13.1	4.71e-03	0	44	102	1048576	19	5432
2026-01-26 01:38:28.65	249.66	20.54	-30.0	-33.3	12.9	7.65e-04	0	44	102	1048576	20	5246
2026-01-26 01:38:29.66	249.52	20.43	-30.2	-33.8	12.6	4.19e-03	0	44	102	1048576	20	5435
2026-01-26 01:38:30.66	249.38	20.32	-30.2	-33.7	12.6	4.70e-03	0	44	102	1048576	20	5390
2026-01-26 01:38:31.67	249.23	20.21	-30.1	-33.4	12.8	5.45e-04	0	44	102	1048576	20	5299
2026-01-26 01:38:32.68	249.09	20.10	-30.0	-33.3	12.9	2.94e-03	0	44	102	1048576	20	5244
2026-01-26 01:38:33.68	248.95	19.99	-30.0	-33.3	12.9	4.41e-03	0	44	102	1048576	20	5235
2026-01-26 01:38:34.69	248.81	19.88	-30.0	-33.1	13.0	5.23e-04	0	44	102	1048576	20	5158
2026-01-26 01:38:35.69	248.67	19.77	-30.0	-33.3	12.9	3.61e-03	0	44	102	1048576	20	5231
2026-01-26 01:38:36.69	248.53	19.66	-29.9	-32.8	13.2	3.08e-03	0	44	102	1048576	20	5064
2026-01-26 01:38:37.70	248.40	19.55	-29.8	-33.2	13.3	4.87e-04	0	44	102	1048576	19	5308
2026-01-26 01:38:38.71	248.26	19.45	-29.9	-33.2	13.3	3.15e-03	0	44	102	1048576	19	5321
2026-01-26 01:38:39.70	248.13	19.34	-30.0	-33.6	13.0	6.65e-04	0	44	102	1048576	19	5468
2026-01-26 01:38:40.72	247.99	19.23	-29.8	-32.7	13.2	6.52e-04	0	44	102	1048576	20	5007
2026-01-26 01:38:41.72	247.86	19.12	-30.0	-33.6	13.0	3.24e-03	0	44	102	1048576	19	5474
2026-01-26 01:38:42.73	247.73	19.02	-30.0	-33.1	12.9	3.66e-05	0	44	102	1048576	20	5171
2026-01-26 01:38:43.73	247.60	18.91	-30.0	-33.2	12.9	5.15e-04	0	44	102	1048576	20	5220
2026-01-26 01:38:44.73	247.47	18.80	-30.1	-33.5	12.7	2.93e-03	0	44	102	1048576	20	5328
2026-01-26 01:38:45.73	247.34	18.70	-30.3	-34.0	12.3	2.31e-03	0	44	102	1048576	20	5533
2026-01-26 01:38:46.73	247.21	18.59	-30.3	-34.0	12.3	1.69e-04	0	44	102	1048576	20	5552
2026-01-26 01:38:47.73	247.08	18.49	-30.4	-34.4	12.1	3.64e-04	0	44	102	1048576	20	5707
2026-01-26 01:38:48.74	246.96	18.38	-30.3	-34.2	12.1	6.16e-04	0	44	102	1048576	20	5643
2026-01-26 01:38:49.74	246.83	18.28	-30.2	-33.9	12.4	1.81e-04	0	44	102	1048576	20	5482
2026-01-26 01:38:50.75	246.71	18.17	-30.2	-33.8	12.3	1.36e-04	0	44	102	1048576	20	5471
2026-01-26 01:38:51.75	246.58	18.07	-30.1	-33.7	12.5	4.70e-04	0	44	102	1048576	20	5400
2026-01-26 01:38:52.74	246.46	17.97	-30.0	-33.3	12.7	8.77e-05	0	44	102	1048576	20	5267
2026-01-26 01:38:53.75	246.34	17.86	-30.1	-33.6	12.6	8.16e-05	0	44	102	1048576	20	5360
2026-01-26 01:38:54.76	246.22	17.76	-30.0	-33.2	12.8	1.39e-03	0	44	102	1048576	20	5202
2026-01-26 01:38:55.77	246.10	17.66	-29.9	-33.1	12.9	4.73e-05	0	44	102	1048576	20	5167
2026-01-26 01:38:56.77	245.98	17.55	-29.9	-33.6	13.0	3.81e-05	0	44	102	1048576	19	5467
2026-01-26 01:38:57.78	245.86	17.45	-30.0	-33.7	12.9	3.73e-05	0	44	102	1048576	19	5510
2026-01-26 01:38:58.78	245.74	17.35	-30.0	-33.2	12.7	6.56e-05	0	44	102	1048576	20	5238
2026-01-26 01:38:59.78	245.63	17.25	-30.0	-33.4	12.6	6.33e-05	0	44	102	1048576	20	5312
2026-01-26 01:39:00.79	245.51	17.15	-30.0	-33.2	12.7	9.30e-05	0	44	102	1048576	20	5236
2026-01-26 01:39:01.80	245.39	17.05	-30.0	-33.4	12.6	8.08e-05	0	44	102	1048576	20	5302
2026-01-26 01:39:02.80	245.28	16.94	-30.0	-33.3	12.7	1.07e-04	0	44	102	1048576	20	5272
2026-01-26 01:39:03.81	245.16	16.84	-29.9	-33.1	12.8	6.71e-05	0	44	102	1048576	20	5188
2026-01-26 01:39:04.81	245.05	16.74	-29.9	-33.1	12.8	6.56e-05	0	44	102	1048576	20	5191
2026-01-26 01:39:05.82	244.94	16.64	-29.9	-33.6	12.9	2.42e-03	0	44	102	1048576	19	5475
2026-01-26 01:39:06.82	244.83	16.54	-29.9	-33.4	13.0	3.73e-05	0	44	102	1048576	19	5417
2026-01-26 01:39:07.82	244.72	16.45	-30.0	-33.7	12.8	3.66e-05	0	44	102	1048576	19	5515
2026-01-26 01:39:08.83	244.61	16.35	-29.9	-33.5	13.0	5.18e-05	0	44	102	1048576	19	5426
2026-01-26 01:39:09.83	244.50	16.25	-29.9	-33.4	13.0	3.20e-05	0	44	102	1048576	19	5414
2026-01-26 01:39:10.83	244.39	16.15	-29.7	-33.4	12.8	4.04e-05	0	44	102	1048576	19	5509
2026-01-26 01:39:11.83	244.28	16.05	-29.9	-33.6	12.6	7.01e-05	0	44	102	1048576	19	5505
2026-01-26 01:39:12.83	244.18	15.95	-30.0	-33.7	12.7	4.88e-05	0	44	102	1048576	19	5548
2026-01-26 01:39:13.83	244.07	15.86	-29.9	-33.1	12.3	6.33e-05	0	44	102	1048576	20	5189
2026-01-26 01:39:14.83	243.96	15.76	-30.0	-33.7	12.4	6.33e-05	0	44	102	1048576	19	5535
2026-01-26 01:39:15.84	243.86	15.66	-29.9	-33.2	12.7	6.10e-05	0	44	102	1048576	20	5225
2026-01-26 01:39:16.84	243.75	15.57	-30.0	-33.8	12.6	9.46e-05	0	44	102	1048576	19	5591
2026-01-26 01:39:17.85	243.65	15.47	-30.0	-33.3	12.5	1.30e-04	0	44	102	1048576	20	5280
2026-01-26 01:39:18.85	243.55	15.37	-30.1	-33.6	12.4	1.23e-04	0	44	102	1048576	20	5409
2026-01-26 01:39:19.85	243.45	15.28	-30.0	-33.3	12.6	1.11e-03	0	44	102	1048576	20	5284
2026-01-26 01:39:20.86	243.34	15.18	-30.0	-33.4	12.5	1.07e-04	0	44	102	1048576	20	5312
2026-01-26 01:39:21.86	243.24	15.09	-29.9	-33.3	12.5	1.25e-04	0	44	102	1048576	20	5276
2026-01-26 01:39:22.87	243.14	14.99	-30.0	-33.5	12.4	1.18e-04	0	44	102	1048576	20	5369
2026-01-26 01:39:23.87	243.04	14.90	-29.2	-32.6	12.5	9.97e-04	0	44	102	1048576	20	5311
2026-01-26 01:39:24.87	242.94	14.80	-29.9	-33.1	12.6	9.23e-05	0	44	102	1048576	20	5213
2026-01-26 01:39:25.88	242.85	14.71	-28.9	-32.6	12.1	6.86e-05	0	44	102	1048576	19	5548
2026-01-26 01:39:26.88	242.75	14.61	-29.5	-33.1	11.7	7.25e-04	0	44	102	1048576	19	5458
2026-01-26 01:39:27.89	242.65	14.52	-29.9	-33.6	12.1	5.79e-05	0	44	102	1048576	19	5505
2026-01-26 01:39:28.89	242.55	14.43	-29.9	-33.7	11.3	7.17e-05	0	44	102	1048576	19	5545
2026-01-26 01:39:29.89	242.46	14.33	-30.0	-33.8	11.7	3.55e-03	0	44	102	1048576	19	5620
2026-01-26 01:39:30.88	242.36	14.24	-29.9	-33.2	12.4	1.05e-04	0	44	102	1048576	20	5264
2026-01-26 01:39:31.89	242.27	14.15	-30.0	-33.3	12.3	1.30e-04	0	44	102	1048576	20	5315
2026-01-26 01:39:32.89	242.18	14.06	-30.0	-33.3	12.4	1.50e-04	0	44	102	1048576	20	5317
2026-01-26 01:39:33.89	242.08	13.97	-29.9	-33.6	12.7	1.09e-04	0	44	102	1048576	19	5516
2026-01-26 01:39:34.90	241.99	13.87	-29.9	-33.3	12.4	4.57e-04	0	44	102	1048576	20	5314
2026-01-26 01:39:35.91	241.90	13.78	-30.1	-33.8	12.1	1.94e-04	0	44	102	1048576	20	5505
2026-01-26 01:39:36.91	241.81	13.69	-30.0	-33.6	12.2	1.34e-03	0	44	102	1048576	20	5421
2026-01-26 01:39:37.91	241.71	13.60	-30.0	-33.4	12.3	4.79e-04	0	44	102	1048576	20	5363
2026-01-26 01:39:38.92	241.62	13.51	-30.1	-33.7	12.2	1.96e-04	0	44	102	1048576	20	5469
2026-01-26 01:39:39.91	241.53	13.42	-30.1	-33.8	12.1	9.81e-04	0	44	102	1048576	20	5501
2026-01-26 01:39:40.92	241.44	13.33	-30.1	-33.9	12.0	5.00e-04	0	44	102	1048576	20	5550
2026-01-26 01:39:41.92	241.36	13.24	-30.2	-34.0	11.9	6.38e-04	0	44	102	1048576	20	5610
2026-01-26 01:39:42.92	241.27	13.15	-30.2	-34.2	11.7	5.21e-04	0	44	102	1048576	20	5704
2026-01-26 01:39:43.92	241.18	13.06	-30.2	-34.2	11.8	2.50e-03	0	44	102	1048576	20	5685
2026-01-26 01:39:44.93	241.09	12.97	-30.3	-34.4	11.6	8.54e-04	0	44	102	1048576	20	5793
2026-01-26 01:39:45.93	241.01	12.88	-30.3	-34.3	11.6	7.51e-04	0	44	102	1048576	20	5750
2026-01-26 01:39:46.94	240.92	12.79	-30.3	-34.5	11.5	3.61e-03	0	44	102	1048576	20	5828
2026-01-26 01:39:47.94	240.84	12.71	-30.5	-35.1	11.1	4.11e-03	0	44	102	1048576	20	6109
2026-01-26 01:39:48.94	240.75	12.62	-30.4	-34.2	11.3	1.51e-03	0	44	102	1048576	21	5606
2026-01-26 01:39:49.95	240.67	12.53	-30.2	-34.3	11.6	8.51e-04	0	44	102	1048576	20	5765
2026-01-26 01:39:50.95	240.58	12.44	-30.4	-34.7	11.3	4.09e-03	0	44	102	1048576	20	5926
2026-01-26 01:39:51.95	240.50	12.36	-30.3	-34.4	11.5	1.10e-03	0	44	102	1048576	20	5819
2026-01-26 01:39:52.95	240.42	12.27	-30.3	-34.4	11.5	9.30e-04	0	44	102	1048576	20	5778
2026-01-26 01:39:53.96	240.33	12.18	-30.3	-34.4	11.5	4.19e-03	0	44	102	1048576	20	5787
2026-01-26 01:39:54.96	240.25	12.10	-30.3	-34.5	11.5	1.09e-03	0	44	102	1048576	20	5820
2026-01-26 01:39:55.96	240.17	12.01	-30.3	-34.5	11.4	1.02e-03	0	44	102	1048576	20	5845
2026-01-26 01:39:56.97	240.09	11.92	-30.4	-34.9	11.2	4.91e-03	0	44	102	1048576	20	6024
2026-01-26 01:39:57.98	240.01	11.84	-30.3	-34.6	11.3	1.54e-03	0	44	102	1048576	20	5911
2026-01-26 01:39:58.99	239.93	11.75	-30.4	-34.9	11.2	4.81e-03	0	44	102	1048576	20	6025
2026-01-26 01:39:59.99	239.85	11.67	-30.6	-34.9	10.8	1.77e-03	0	44	102	1048576	21	5924
2026-01-26 01:40:01.00	239.77	11.58	-30.7	-35.6	10.2	4.57e-03	0	44	102	1048576	21	6271
2026-01-26 01:40:02.00	239.69	11.50	-30.7	-35.4	10.4	7.64e-03	0	44	102	1048576	21	6159
2026-01-26 01:40:03.00	239.61	11.41	-30.7	-35.4	10.4	8.01e-03	0	44	102	1048576	21	6161
2026-01-26 01:40:04.00	239.53	11.33	-30.7	-35.4	10.3	5.11e-03	0	44	102	1048576	21	6163
2026-01-26 01:40:05.01	239.46	11.24	-30.7	-35.5	10.3	7.45e-03	0	44	102	1048576	21	6242
2026-01-26 01:40:06.01	239.38	11.16	-30.7	-35.3	10.4	8.12e-03	0	44	102	1048576	21	6137
2026-01-26 01:40:07.02	239.30	11.07	-30.8	-35.7	10.1	6.87e-03	0	44	102	1048576	21	6343
2026-01-26 01:40:08.02	239.23	10.99	-30.6	-35.1	10.5	6.04e-03	0	44	102	1048576	21	6031
2026-01-26 01:40:09.02	239.15	10.91	-30.5	-34.6	10.9	3.72e-03	0	44	102	1048576	21	5810
2026-01-26 01:40:10.03	239.08	10.83	-30.4	-34.9	11.0	2.21e-03	0	44	102	1048576	20	6054
2026-01-26 01:40:11.03	239.00	10.74	-30.6	-35.0	10.6	3.80e-03	0	44	102	1048576	21	6011
2026-01-26 01:40:12.04	238.93	10.66	-30.6	-35.3	10.3	5.87e-03	0	44	102	1048576	21	6149
2026-01-26 01:40:13.04	238.85	10.58	-30.6	-35.0	10.6	4.69e-03	0	44	102	1048576	21	5993
2026-01-26 01:40:14.05	238.78	10.50	-30.7	-35.3	10.3	4.74e-03	0	44	102	1048576	21	6154
2026-01-26 01:40:15.06	238.71	10.41	-30.6	-35.3	10.4	7.69e-03	0	44	102	1048576	21	6124
2026-01-26 01:40:16.06	238.64	10.33	-30.7	-35.5	10.2	5.94e-03	0	44	102	1048576	21	6244
2026-01-26 01:40:17.06	238.56	10.25	-30.7	-35.4	10.3	5.28e-03	0	44	102	1048576	21	6202
2026-01-26 01:40:18.06	238.49	10.17	-30.8	-35.7	10.0	8.17e-03	0	44	102	1048576	21	6365
2026-01-26 01:40:19.06	238.42	10.09	-30.8	-35.9	9.8	9.63e-03	0	44	102	1048576	21	6449
2026-01-26 01:40:20.06	238.35	10.01	-30.8	-35.7	10.0	1.06e-02	0	44	102	1048576	21	6356
2026-01-26 01:40:21.06	238.28	9.93	-30.6	-35.3	10.3	6.93e-03	0	44	102	1048576	21	6152
2026-01-26 01:40:22.07	238.21	9.85	-30.7	-35.3	10.3	6.66e-03	0	44	102	1048576	21	6176
2026-01-26 01:40:23.08	238.14	9.77	-30.9	-36.1	9.6	1.11e-02	0	44	102	1048576	21	6607
2026-01-26 01:40:24.09	238.07	9.69	-30.7	-35.6	10.0	8.52e-03	0	44	102	1048576	21	6341
2026-01-26 01:40:25.09	238.00	9.61	-30.6	-35.1	10.3	5.63e-03	0	44	102	1048576	21	6084
2026-01-26 01:40:26.10	237.93	9.53	-30.5	-35.0	10.5	7.51e-03	0	44	102	1048576	21	6006
2026-01-26 01:40:27.10	237.87	9.45	-30.5	-34.9	10.5	3.55e-03	0	44	102	1048576	21	5944
2026-01-26 01:40:28.10	237.80	9.37	-30.6	-35.1	10.3	3.87e-03	0	44	102	1048576	21	6083
2026-01-26 01:40:29.11	237.73	9.29	-30.5	-35.0	10.5	8.02e-03	0	44	102	1048576	21	5998
2026-01-26 01:40:30.11	237.66	9.21	-30.6	-35.3	10.2	7.58e-03	0	44	102	1048576	21	6167
2026-01-26 01:40:31.11	237.60	9.13	-30.7	-35.7	9.9	8.62e-03	0	44	102	1048576	21	6392
2026-01-26 01:40:32.12	237.53	9.06	-30.6	-35.4	10.1	7.88e-03	0	44	102	1048576	21	6239
2026-01-26 01:40:33.12	237.47	8.98	-30.5	-35.1	10.3	1.03e-02	0	44	102	1048576	21	6089
2026-01-26 01:40:34.13	237.40	8.90	-30.6	-35.1	10.3	4.85e-03	0	44	102	1048576	21	6096
2026-01-26 01:40:35.14	237.33	8.82	-30.6	-35.3	10.2	4.96e-03	0	44	102	1048576	21	6196
2026-01-26 01:40:36.14	237.27	8.75	-30.6	-35.3	10.1	6.43e-03	0	44	102	1048576	21	6205
2026-01-26 01:40:37.15	237.21	8.67	-30.7	-35.6	10.0	7.10e-03	0	44	102	1048576	21	6322
2026-01-26 01:40:38.15	237.14	8.59	-30.6	-35.3	10.1	7.05e-03	0	44	102	1048576	21	6215
2026-01-26 01:40:39.16	237.08	8.51	-30.7	-35.6	9.9	7.71e-03	0	44	102	1048576	21	6323
2026-01-26 01:40:40.16	237.01	8.44	-30.6	-35.4	9.9	7.90e-03	0	44	102	1048576	21	6280
2026-01-26 01:40:41.17	236.95	8.36	-30.6	-35.5	9.9	8.46e-03	0	44	102	1048576	21	6294
2026-01-26 01:40:42.17	236.89	8.29	-30.7	-35.6	9.8	8.96e-03	0	44	102	1048576	21	6386
2026-01-26 01:40:43.18	236.83	8.21	-30.7	-35.7	9.7	1.10e-02	0	44	102	1048576	21	6407
2026-01-26 01:40:44.19	236.76	8.13	-30.7	-35.7	9.7	1.09e-02	0	44	102	1048576	21	6419
2026-01-26 01:40:45.19	236.70	8.06	-30.7	-35.9	9.6	1.09e-02	0	44	102	1048576	21	6540
2026-01-26 01:40:46.19	236.64	7.98	-30.7	-36.0	9.5	1.53e-02	0	44	102	1048576	21	6610
2026-01-26 01:40:47.19	236.58	7.91	-30.7	-36.0	9.5	1.39e-02	0	44	102	1048576	21	6569
2026-01-26 01:40:48.19	236.52	7.83	-30.8	-36.1	9.3	1.55e-02	0	44	102	1048576	21	6671
2026-01-26 01:40:49.19	236.46	7.76	-30.9	-36.7	8.9	2.45e-02	0	44	102	1048576	21	7023
2026-01-26 01:40:50.19	236.40	7.68	-30.9	-36.9	8.7	3.01e-02	0	44	102	1048576	21	7143
2026-01-26 01:40:51.19	236.34	7.61	-30.9	-36.6	9.0	2.91e-02	0	44	102	1048576	21	6938
2026-01-26 01:40:52.20	236.28	7.54	-30.9	-36.7	8.9	2.92e-02	0	44	102	1048576	21	7014
2026-01-26 01:40:53.21	236.22	7.46	-30.9	-36.9	8.7	3.23e-02	0	44	102	1048576	21	7155
2026-01-26 01:40:54.20	236.16	7.39	-30.9	-36.8	8.7	3.79e-02	0	44	102	1048576	21	7096
2026-01-26 01:40:55.20	236.11	7.31	-30.5	-36.4	8.8	2.86e-02	0	44	102	1048576	21	7108
2026-01-26 01:40:56.21	236.05	7.24	-29.8	-36.0	8.4	4.04e-02	0	44	102	1048576	21	7297
2026-01-26 01:40:57.21	235.99	7.17	-30.9	-36.8	8.7	3.31e-02	0	44	102	1048576	21	7084
2026-01-26 01:40:58.22	235.93	7.09	-30.6	-35.7	9.1	2.41e-02	0	44	102	1048576	21	6458
2026-01-26 01:40:59.23	235.87	7.02	-32.7	-47.0	3.8	1.49e+00	0	44	104	1048576	25	18631

#Closed at: 2026-01-26 01:41:00
#Recorded file [1 MB]: D:/data/31010_260126_042948.dat