passes_logs/2026/01/26/R2M6_AANII_01/R2M6_AANII_01__20260126_080415_NOAA_20_JPSS-1_rec.log

#Pass ID: 20260126_080415_NOAA 20 (JPSS-1)
#Satellite: NOAA 20 (JPSS-1)
#Configuration: NOAA 20
#almurnet v.1.7.20240730
#Start time: 2026-01-26 08:04:14

#Version: 2.2.20231116
#Station: R2M6_AANII_01
#Location: 30.233357 lon 59.946436 lat
#TLE: 1 43013U 17073A   26025.83228772  .00000162  00000+0  97663-4 0  9996
#TLE: 2 43013  98.7646 326.6579 0001036  23.5840 336.5383 14.19540376424273

#Time	Az	El	Level	Level2	SNR	BER	BlckErr	Temp	State	Recorded	gain1	gain2
2026-01-26 08:04:14.87	90.32	6.95	-31.9	-43.3	3.8	1.49e+00	0	41	0	0	25	13266
2026-01-26 08:04:15.87	90.21	7.01	-31.7	-41.6	4.0	1.45e+00	0	41	104	0	24	11213
2026-01-26 08:04:16.86	90.11	7.07	-31.7	-41.2	4.6	9.61e-01	0	41	0	0	24	10741
2026-01-26 08:04:17.87	90.00	7.13	-31.7	-41.0	4.1	1.44e+00	0	41	104	0	24	10527
2026-01-26 08:04:18.88	89.90	7.19	-31.8	-41.4	4.6	9.80e-01	0	41	0	0	24	10852
2026-01-26 08:04:19.88	89.79	7.25	-31.8	-41.3	4.7	9.41e-01	0	41	102	1048576	24	10739
2026-01-26 08:04:20.89	89.68	7.31	-31.8	-41.3	4.7	9.38e-01	0	41	102	1048576	24	10722
2026-01-26 08:04:21.89	89.58	7.37	-31.8	-41.1	4.7	8.75e-01	0	41	102	1048576	24	10566
2026-01-26 08:04:22.90	89.47	7.43	-31.7	-40.6	5.0	8.01e-01	0	41	102	1048576	24	9959
2026-01-26 08:04:23.90	89.36	7.49	-31.7	-40.1	5.2	6.49e-01	0	41	102	1048576	24	9469
2026-01-26 08:04:24.90	89.25	7.55	-31.6	-39.4	5.7	4.65e-01	0	41	102	1048576	24	8831
2026-01-26 08:04:25.90	89.14	7.61	-31.4	-37.8	6.8	2.58e-01	0	41	102	1048576	24	7521
2026-01-26 08:04:26.91	89.03	7.67	-31.3	-37.7	7.3	1.43e-01	0	42	102	1048576	23	7494
2026-01-26 08:04:27.91	88.92	7.72	-31.1	-36.7	8.1	9.45e-02	0	41	102	1048576	23	6865
2026-01-26 08:04:28.90	88.81	7.78	-31.0	-36.2	8.5	4.59e-02	0	42	102	1048576	23	6550
2026-01-26 08:04:29.90	88.70	7.84	-30.9	-35.6	9.0	2.65e-02	0	41	102	1048576	23	6184
2026-01-26 08:04:30.90	88.59	7.90	-30.9	-36.1	9.0	1.93e-02	0	41	102	1048576	22	6581
2026-01-26 08:04:31.91	88.48	7.96	-30.9	-36.3	8.9	3.03e-02	0	42	102	1048576	22	6663
2026-01-26 08:04:32.92	88.36	8.02	-30.9	-36.3	8.9	3.28e-02	0	42	102	1048576	22	6662
2026-01-26 08:04:33.92	88.25	8.08	-30.8	-35.7	9.4	2.80e-02	0	42	102	1048576	22	6328
2026-01-26 08:04:34.93	88.14	8.14	-30.8	-35.7	9.4	1.55e-02	0	42	102	1048576	22	6353
2026-01-26 08:04:35.94	88.02	8.20	-30.5	-34.7	10.1	9.49e-03	0	41	102	1048576	22	5813
2026-01-26 08:04:36.94	87.91	8.26	-30.8	-35.6	9.4	1.08e-02	0	42	102	1048576	22	6296
2026-01-26 08:04:37.95	87.79	8.32	-30.6	-34.9	10.1	1.13e-02	0	42	102	1048576	22	5917
2026-01-26 08:04:38.95	87.68	8.38	-30.5	-34.7	10.2	7.29e-03	0	42	102	1048576	22	5809
2026-01-26 08:04:39.96	87.56	8.44	-30.6	-35.0	10.0	6.05e-03	0	42	102	1048576	22	5948
2026-01-26 08:04:40.96	87.44	8.50	-30.4	-34.3	10.6	5.59e-03	0	42	102	1048576	22	5635
2026-01-26 08:04:41.96	87.33	8.56	-30.5	-34.5	10.4	4.70e-03	0	42	102	1048576	22	5699
2026-01-26 08:04:42.97	87.21	8.63	-30.5	-34.5	10.4	2.99e-03	0	42	102	1048576	22	5723
2026-01-26 08:04:43.98	87.09	8.69	-30.5	-34.6	10.4	4.49e-03	0	42	102	1048576	22	5749
2026-01-26 08:04:44.97	86.97	8.75	-30.4	-34.1	10.7	3.87e-03	0	42	102	1048576	22	5533
2026-01-26 08:04:45.98	86.85	8.81	-30.4	-34.0	10.8	2.57e-03	0	42	102	1048576	22	5495
2026-01-26 08:04:46.98	86.73	8.87	-30.3	-34.3	11.0	1.93e-03	0	42	102	1048576	21	5718
2026-01-26 08:04:47.99	86.61	8.93	-30.4	-34.6	10.7	3.00e-03	0	42	102	1048576	21	5872
2026-01-26 08:04:48.98	86.49	8.99	-30.5	-34.9	10.5	3.22e-03	0	42	102	1048576	21	6016
2026-01-26 08:04:49.98	86.37	9.05	-30.2	-34.1	11.1	2.46e-03	0	42	102	1048576	21	5625
2026-01-26 08:04:50.98	86.25	9.11	-30.5	-34.9	10.6	2.21e-03	0	42	102	1048576	21	5985
2026-01-26 08:04:51.97	86.13	9.17	-30.4	-34.5	10.9	2.64e-03	0	42	102	1048576	21	5768
2026-01-26 08:04:52.98	86.01	9.23	-30.3	-34.3	11.1	2.11e-03	0	42	102	1048576	21	5676
2026-01-26 08:04:53.99	85.88	9.29	-30.4	-34.5	10.9	1.40e-03	0	42	102	1048576	21	5801
2026-01-26 08:04:54.99	85.76	9.35	-30.5	-34.8	10.7	2.56e-03	0	42	102	1048576	21	5907
2026-01-26 08:04:56.00	85.64	9.41	-30.3	-34.3	11.1	2.12e-03	0	42	102	1048576	21	5671
2026-01-26 08:04:57.00	85.51	9.47	-30.4	-34.7	10.8	2.21e-03	0	42	102	1048576	21	5876
2026-01-26 08:04:58.00	85.39	9.53	-30.4	-34.4	11.0	2.04e-03	0	42	102	1048576	21	5724
2026-01-26 08:04:59.01	85.26	9.59	-30.2	-34.0	11.3	1.42e-03	0	42	102	1048576	21	5564
2026-01-26 08:05:00.01	85.13	9.65	-30.3	-34.3	11.0	1.18e-03	0	42	102	1048576	21	5706
2026-01-26 08:05:01.01	85.01	9.71	-30.3	-34.2	11.1	2.20e-03	0	42	102	1048576	21	5646
2026-01-26 08:05:02.01	84.88	9.77	-30.3	-34.2	11.1	1.58e-03	0	42	102	1048576	21	5656
2026-01-26 08:05:03.02	84.75	9.83	-30.2	-34.0	11.3	1.19e-03	0	42	102	1048576	21	5580
2026-01-26 08:05:04.02	84.62	9.89	-30.4	-34.5	11.0	1.38e-03	0	42	102	1048576	21	5763
2026-01-26 08:05:05.03	84.49	9.96	-30.4	-34.5	10.9	1.89e-03	0	42	102	1048576	21	5777
2026-01-26 08:05:06.03	84.37	10.02	-30.4	-34.4	11.1	1.60e-03	0	42	102	1048576	21	5723
2026-01-26 08:05:07.03	84.24	10.08	-30.4	-34.4	11.1	2.01e-03	0	42	102	1048576	21	5707
2026-01-26 08:05:08.04	84.10	10.14	-30.4	-34.6	10.9	1.50e-03	0	42	102	1048576	21	5823
2026-01-26 08:05:09.05	83.97	10.20	-30.5	-34.9	10.6	2.99e-03	0	42	102	1048576	21	5979
2026-01-26 08:05:10.05	83.84	10.26	-30.4	-34.3	11.2	1.98e-03	0	42	102	1048576	21	5673
2026-01-26 08:05:11.06	83.71	10.32	-30.4	-34.6	11.0	1.88e-03	0	42	102	1048576	21	5793
2026-01-26 08:05:12.06	83.58	10.38	-30.5	-34.7	10.9	1.87e-03	0	42	102	1048576	21	5839
2026-01-26 08:05:13.06	83.44	10.44	-30.5	-34.9	10.7	2.74e-03	0	42	102	1048576	21	5972
2026-01-26 08:05:14.07	83.31	10.50	-30.3	-34.3	11.2	2.11e-03	0	42	102	1048576	21	5658
2026-01-26 08:05:15.07	83.17	10.56	-30.5	-34.8	10.9	2.43e-03	0	43	102	1048576	21	5894
2026-01-26 08:05:16.08	83.04	10.62	-30.4	-34.4	11.1	1.80e-03	0	43	102	1048576	21	5724
2026-01-26 08:05:17.08	82.90	10.68	-30.4	-34.5	11.1	1.12e-03	0	42	102	1048576	21	5762
2026-01-26 08:05:18.09	82.77	10.75	-30.4	-34.4	11.1	1.97e-03	0	42	102	1048576	21	5712
2026-01-26 08:05:19.09	82.63	10.81	-30.4	-34.4	11.2	1.17e-03	0	42	102	1048576	21	5692
2026-01-26 08:05:20.09	82.49	10.87	-30.5	-34.6	11.0	2.27e-03	0	43	102	1048576	21	5800
2026-01-26 08:05:21.09	82.36	10.93	-30.3	-34.2	11.3	1.33e-03	0	43	102	1048576	21	5614
2026-01-26 08:05:22.09	82.22	10.99	-30.3	-33.9	11.5	8.50e-04	0	43	102	1048576	21	5493
2026-01-26 08:05:23.10	82.08	11.05	-30.4	-34.3	11.2	1.25e-03	0	43	102	1048576	21	5665
2026-01-26 08:05:24.10	81.94	11.11	-30.4	-34.2	11.3	1.02e-03	0	43	102	1048576	21	5626
2026-01-26 08:05:25.10	81.80	11.17	-30.3	-34.2	11.3	1.08e-03	0	43	102	1048576	21	5606
2026-01-26 08:05:26.11	81.66	11.23	-30.4	-34.5	11.1	1.43e-03	0	43	102	1048576	21	5738
2026-01-26 08:05:27.12	81.51	11.29	-30.3	-34.0	11.5	1.05e-03	0	43	102	1048576	21	5535
2026-01-26 08:05:28.12	81.37	11.35	-30.4	-34.3	11.3	1.03e-03	0	43	102	1048576	21	5647
2026-01-26 08:05:29.12	81.23	11.41	-30.3	-34.1	11.4	7.84e-04	0	43	102	1048576	21	5574
2026-01-26 08:05:30.13	81.09	11.47	-30.3	-33.9	11.6	8.77e-04	0	43	102	1048576	21	5478
2026-01-26 08:05:31.14	80.94	11.53	-30.5	-34.7	11.1	9.84e-04	0	43	102	1048576	21	5819
2026-01-26 08:05:32.14	80.80	11.59	-30.4	-34.4	11.3	1.22e-03	0	43	102	1048576	21	5689
2026-01-26 08:05:33.15	80.65	11.65	-30.4	-34.4	11.3	1.31e-03	0	43	102	1048576	21	5679
2026-01-26 08:05:34.15	80.51	11.71	-30.4	-34.4	11.3	1.16e-03	0	43	102	1048576	21	5675
2026-01-26 08:05:35.15	80.36	11.77	-30.4	-34.3	11.3	1.50e-03	0	43	102	1048576	21	5651
2026-01-26 08:05:36.15	80.21	11.83	-30.5	-34.6	11.2	1.37e-03	0	43	102	1048576	21	5757
2026-01-26 08:05:37.15	80.07	11.89	-30.6	-34.9	10.9	1.73e-03	0	43	102	1048576	21	5935
2026-01-26 08:05:38.16	79.92	11.95	-30.5	-34.6	11.1	1.59e-03	0	43	102	1048576	21	5772
2026-01-26 08:05:39.16	79.77	12.01	-30.5	-34.7	11.1	1.38e-03	0	43	102	1048576	21	5799
2026-01-26 08:05:40.16	79.62	12.07	-30.6	-34.9	10.9	2.12e-03	0	43	102	1048576	21	5934
2026-01-26 08:05:41.17	79.47	12.14	-30.7	-35.2	10.7	2.32e-03	0	43	102	1048576	21	6049
2026-01-26 08:05:42.18	79.32	12.20	-30.6	-34.8	11.1	1.51e-03	0	43	102	1048576	21	5864
2026-01-26 08:05:43.18	79.17	12.26	-30.8	-35.4	10.6	3.47e-03	0	43	102	1048576	21	6172
2026-01-26 08:05:44.18	79.02	12.32	-30.6	-35.0	10.8	2.62e-03	0	43	102	1048576	21	5980
2026-01-26 08:05:45.19	78.86	12.38	-30.6	-34.9	11.0	2.12e-03	0	43	102	1048576	21	5896
2026-01-26 08:05:46.19	78.71	12.44	-30.6	-34.9	11.0	1.85e-03	0	43	102	1048576	21	5892
2026-01-26 08:05:47.20	78.56	12.50	-30.6	-34.8	11.0	1.76e-03	0	43	102	1048576	21	5861
2026-01-26 08:05:48.20	78.40	12.55	-30.5	-34.6	11.2	1.31e-03	0	43	102	1048576	21	5761
2026-01-26 08:05:49.20	78.25	12.61	-30.6	-34.8	11.0	2.02e-03	0	43	102	1048576	21	5875
2026-01-26 08:05:50.21	78.09	12.67	-30.5	-34.4	11.3	1.16e-03	0	43	102	1048576	21	5687
2026-01-26 08:05:51.21	77.94	12.73	-30.5	-34.5	11.3	1.23e-03	0	43	102	1048576	21	5740
2026-01-26 08:05:52.21	77.78	12.79	-30.5	-34.7	11.1	1.77e-03	0	43	102	1048576	21	5817
2026-01-26 08:05:53.21	77.62	12.85	-30.5	-34.7	11.2	1.39e-03	0	43	102	1048576	21	5787
2026-01-26 08:05:54.22	77.46	12.91	-30.6	-34.9	11.0	1.68e-03	0	43	102	1048576	21	5900
2026-01-26 08:05:55.22	77.30	12.97	-30.5	-34.6	11.2	1.37e-03	0	43	102	1048576	21	5741
2026-01-26 08:05:56.23	77.14	13.03	-30.5	-34.5	11.3	1.19e-03	0	43	102	1048576	21	5722
2026-01-26 08:05:57.22	76.99	13.09	-30.6	-34.7	11.2	1.17e-03	0	43	102	1048576	21	5797
2026-01-26 08:05:58.23	76.82	13.15	-30.6	-34.7	11.2	1.58e-03	0	43	102	1048576	21	5788
2026-01-26 08:05:59.23	76.66	13.21	-30.5	-34.4	11.4	8.15e-04	0	43	102	1048576	21	5670
2026-01-26 08:06:00.23	76.50	13.27	-30.3	-33.9	11.8	7.15e-04	0	43	102	1048576	21	5450
2026-01-26 08:06:01.24	76.34	13.32	-30.3	-33.9	11.8	3.73e-04	0	43	102	1048576	21	5450
2026-01-26 08:06:02.25	76.17	13.38	-30.4	-34.1	11.6	7.52e-04	0	43	102	1048576	21	5525
2026-01-26 08:06:03.25	76.01	13.44	-30.4	-34.3	11.5	6.49e-04	0	43	102	1048576	21	5619
2026-01-26 08:06:04.26	75.84	13.50	-30.4	-34.0	11.7	6.46e-04	0	43	102	1048576	21	5489
2026-01-26 08:06:05.26	75.68	13.56	-30.4	-34.2	11.6	6.05e-04	0	43	102	1048576	21	5564
2026-01-26 08:06:06.27	75.51	13.62	-30.5	-34.4	11.4	9.83e-04	0	43	102	1048576	21	5643
2026-01-26 08:06:07.27	75.35	13.68	-30.2	-33.6	12.0	5.34e-04	0	43	102	1048576	21	5291
2026-01-26 08:06:08.26	75.18	13.73	-30.2	-33.4	12.1	2.72e-04	0	43	102	1048576	21	5230
2026-01-26 08:06:09.27	75.01	13.79	-30.2	-33.4	12.1	2.19e-04	0	43	102	1048576	21	5235
2026-01-26 08:06:10.28	74.84	13.85	-30.1	-33.3	12.2	2.60e-04	0	43	102	1048576	21	5199
2026-01-26 08:06:11.28	74.67	13.91	-30.0	-32.8	12.6	1.36e-04	0	43	102	1048576	21	4997
2026-01-26 08:06:12.29	74.50	13.97	-30.0	-32.8	12.6	1.04e-04	0	43	102	1048576	21	5002
2026-01-26 08:06:13.30	74.33	14.02	-30.0	-32.8	12.6	9.76e-05	0	43	102	1048576	21	5002
2026-01-26 08:06:14.31	74.16	14.08	-30.0	-32.9	12.6	1.04e-04	0	43	102	1048576	21	5033
2026-01-26 08:06:15.31	73.99	14.14	-29.9	-32.7	12.7	9.99e-05	0	43	102	1048576	21	4966
2026-01-26 08:06:16.32	73.81	14.20	-30.0	-32.9	12.6	1.14e-04	0	43	102	1048576	21	5027
2026-01-26 08:06:17.32	73.64	14.25	-30.3	-33.6	12.1	1.28e-04	0	43	102	1048576	21	5311
2026-01-26 08:06:18.32	73.47	14.31	-30.2	-33.5	12.2	2.14e-04	0	43	102	1048576	21	5235
2026-01-26 08:06:19.33	73.29	14.37	-30.1	-33.2	12.4	1.29e-04	0	43	102	1048576	21	5126
2026-01-26 08:06:20.33	73.12	14.42	-30.1	-33.3	12.3	1.60e-04	0	43	102	1048576	21	5171
2026-01-26 08:06:21.34	72.94	14.48	-30.1	-33.3	12.4	1.72e-04	0	43	102	1048576	21	5162
2026-01-26 08:06:22.34	72.76	14.54	-30.3	-33.6	12.1	2.01e-04	0	43	102	1048576	21	5312
2026-01-26 08:06:23.34	72.59	14.59	-30.3	-33.8	12.0	3.29e-04	0	43	102	1048576	21	5376
2026-01-26 08:06:24.34	72.41	14.65	-30.0	-32.7	12.7	1.22e-04	0	43	102	1048576	21	4963
2026-01-26 08:06:25.35	72.23	14.70	-29.8	-32.2	13.1	4.80e-05	0	43	102	1048576	21	4768
2026-01-26 08:06:26.36	72.05	14.76	-29.7	-32.6	13.2	2.05e-05	0	43	102	1048576	20	4994
2026-01-26 08:06:27.36	71.87	14.82	-29.9	-32.9	12.9	3.20e-05	0	43	102	1048576	20	5135
2026-01-26 08:06:28.36	71.69	14.87	-29.7	-32.5	13.2	3.58e-05	0	43	102	1048576	20	4967
2026-01-26 08:06:29.36	71.51	14.93	-29.7	-32.4	13.3	2.51e-05	0	43	102	1048576	20	4931
2026-01-26 08:06:30.36	71.33	14.98	-29.7	-32.4	13.3	2.36e-05	0	43	102	1048576	20	4927
2026-01-26 08:06:31.36	71.14	15.04	-29.5	-32.0	13.5	1.06e-05	0	43	102	1048576	20	4799
2026-01-26 08:06:32.37	70.96	15.09	-29.5	-31.9	13.6	7.60e-06	0	43	102	1048576	20	4768
2026-01-26 08:06:33.38	70.77	15.15	-29.4	-31.7	13.8	3.80e-06	0	43	102	1048576	20	4680
2026-01-26 08:06:34.38	70.59	15.20	-29.5	-31.8	13.6	5.30e-06	0	43	102	1048576	20	4735
2026-01-26 08:06:35.39	70.40	15.25	-29.4	-31.7	13.8	6.10e-06	0	43	102	1048576	20	4680
2026-01-26 08:06:36.40	70.22	15.31	-29.4	-31.6	13.8	3.80e-06	0	43	102	1048576	20	4641
2026-01-26 08:06:37.40	70.03	15.36	-29.3	-31.9	14.0	1.50e-06	0	43	102	1048576	19	4843
2026-01-26 08:06:38.41	69.84	15.42	-29.3	-31.9	14.0	2.20e-06	0	43	102	1048576	19	4864
2026-01-26 08:06:39.42	69.65	15.47	-29.3	-31.9	14.0	3.80e-06	0	43	102	1048576	19	4848
2026-01-26 08:06:40.42	69.46	15.52	-29.4	-32.0	13.9	4.50e-06	0	43	102	1048576	19	4882
2026-01-26 08:06:41.42	69.27	15.58	-29.4	-32.2	13.9	3.00e-06	0	43	102	1048576	19	4946
2026-01-26 08:06:42.42	69.08	15.63	-29.5	-32.3	13.7	6.80e-06	0	43	102	1048576	19	5008
2026-01-26 08:06:43.42	68.89	15.68	-29.5	-32.4	13.8	2.20e-06	0	43	102	1048576	19	5015
2026-01-26 08:06:44.42	68.70	15.73	-29.6	-32.6	13.6	8.30e-06	0	43	102	1048576	19	5097
2026-01-26 08:06:45.42	68.51	15.79	-29.8	-33.2	13.2	9.10e-06	0	43	102	1048576	19	5341
2026-01-26 08:06:46.43	68.32	15.84	-29.9	-33.4	13.1	2.28e-05	0	43	102	1048576	19	5385
2026-01-26 08:06:47.44	68.12	15.89	-29.9	-33.5	13.0	3.96e-05	0	43	102	1048576	19	5442
2026-01-26 08:06:48.44	67.93	15.94	-29.7	-32.8	13.5	3.12e-05	0	43	102	1048576	19	5165
2026-01-26 08:06:49.44	67.73	15.99	-29.6	-32.6	13.6	1.37e-05	0	43	102	1048576	19	5082
2026-01-26 08:06:50.44	67.54	16.04	-29.8	-33.1	13.3	1.14e-05	0	43	102	1048576	19	5273
2026-01-26 08:06:51.45	67.34	16.10	-30.0	-33.7	13.0	3.20e-05	0	43	102	1048576	19	5511
2026-01-26 08:06:52.45	67.14	16.15	-29.9	-33.0	12.9	1.04e-04	0	43	102	1048576	20	5169
2026-01-26 08:06:53.45	66.95	16.20	-29.7	-32.4	13.4	1.44e-05	0	43	102	1048576	20	4932
2026-01-26 08:06:54.45	66.75	16.25	-29.8	-32.7	13.2	2.21e-05	0	43	102	1048576	20	5026
2026-01-26 08:06:55.46	66.55	16.30	-29.8	-32.6	13.2	2.82e-05	0	43	102	1048576	20	4994
2026-01-26 08:06:56.46	66.35	16.35	-29.7	-32.4	13.4	1.83e-05	0	43	102	1048576	20	4903
2026-01-26 08:06:57.46	66.15	16.40	-29.7	-32.4	13.4	9.10e-06	0	43	102	1048576	20	4917
2026-01-26 08:06:58.46	65.95	16.45	-29.6	-32.3	13.5	1.90e-05	0	43	102	1048576	20	4876
2026-01-26 08:06:59.45	65.75	16.49	-29.6	-32.2	13.5	9.10e-06	0	43	102	1048576	20	4841
2026-01-26 08:07:00.46	65.55	16.54	-29.5	-31.8	13.8	5.30e-06	0	43	102	1048576	20	4721
2026-01-26 08:07:01.46	65.34	16.59	-29.6	-32.0	13.6	8.30e-06	0	43	102	1048576	20	4784
2026-01-26 08:07:02.47	65.14	16.64	-29.5	-31.9	13.7	5.30e-06	0	43	102	1048576	20	4753
2026-01-26 08:07:03.48	64.93	16.69	-29.5	-31.8	13.8	4.50e-06	0	43	102	1048576	20	4706
2026-01-26 08:07:04.48	64.73	16.73	-29.5	-31.9	13.7	3.00e-06	0	43	102	1048576	20	4745
2026-01-26 08:07:05.49	64.52	16.78	-29.6	-32.2	13.5	6.80e-06	0	43	102	1048576	20	4853
2026-01-26 08:07:06.50	64.32	16.83	-29.8	-32.6	13.3	7.60e-06	0	43	102	1048576	20	4975
2026-01-26 08:07:07.50	64.11	16.88	-29.7	-32.5	13.4	1.67e-05	0	43	102	1048576	20	4947
2026-01-26 08:07:08.50	63.90	16.92	-29.6	-32.1	13.6	8.30e-06	0	43	102	1048576	20	4814
2026-01-26 08:07:09.51	63.69	16.97	-29.5	-32.0	13.7	6.10e-06	0	43	102	1048576	20	4761
2026-01-26 08:07:10.52	63.48	17.01	-29.5	-32.0	13.7	5.30e-06	0	43	102	1048576	20	4757
2026-01-26 08:07:11.52	63.27	17.06	-29.5	-31.8	13.8	5.30e-06	0	43	102	1048576	20	4716
2026-01-26 08:07:12.53	63.06	17.11	-29.5	-31.9	13.7	9.10e-06	0	43	102	1048576	20	4746
2026-01-26 08:07:13.54	62.85	17.15	-29.5	-31.9	13.8	4.50e-06	0	43	102	1048576	20	4732
2026-01-26 08:07:14.54	62.64	17.20	-29.5	-31.8	13.9	6.10e-06	0	43	102	1048576	20	4683
2026-01-26 08:07:15.53	62.43	17.24	-29.3	-31.7	14.3	1.50e-06	0	43	102	1048576	19	4770
2026-01-26 08:07:16.53	62.22	17.28	-29.3	-31.7	14.3	0.00e+00	0	43	102	1048576	19	4753
2026-01-26 08:07:17.53	62.01	17.33	-29.2	-31.6	14.4	1.50e-06	0	43	102	1048576	19	4723
2026-01-26 08:07:18.54	61.79	17.37	-29.2	-31.6	14.4	7.00e-07	0	43	102	1048576	19	4715
2026-01-26 08:07:19.55	61.57	17.41	-29.2	-31.6	14.5	7.00e-07	0	43	102	1048576	19	4708
2026-01-26 08:07:20.55	61.36	17.46	-29.3	-31.8	14.3	7.00e-07	0	43	102	1048576	19	4808
2026-01-26 08:07:21.56	61.14	17.50	-29.2	-31.5	14.5	7.00e-07	0	44	102	1048576	19	4699
2026-01-26 08:07:22.55	60.93	17.54	-29.1	-31.3	14.6	0.00e+00	0	43	102	1048576	19	4617
2026-01-26 08:07:23.55	60.71	17.58	-29.1	-31.3	14.6	0.00e+00	0	43	102	1048576	19	4615
2026-01-26 08:07:24.56	60.49	17.62	-29.1	-31.2	14.6	0.00e+00	0	43	102	1048576	19	4605
2026-01-26 08:07:25.56	60.28	17.66	-29.2	-31.5	14.5	2.20e-06	0	43	102	1048576	19	4683
2026-01-26 08:07:26.57	60.06	17.70	-29.1	-31.4	14.6	7.00e-07	0	43	102	1048576	19	4642
2026-01-26 08:07:27.57	59.84	17.74	-29.2	-31.4	14.6	1.50e-06	0	43	102	1048576	19	4647
2026-01-26 08:07:28.58	59.62	17.78	-29.2	-31.4	14.6	1.50e-06	0	43	102	1048576	19	4653
2026-01-26 08:07:29.58	59.40	17.82	-29.1	-31.1	14.8	0.00e+00	0	43	102	1048576	19	4555
2026-01-26 08:07:30.58	59.18	17.86	-28.9	-30.7	15.0	7.00e-07	0	44	102	1048576	19	4438
2026-01-26 08:07:31.59	58.95	17.90	-28.9	-30.6	15.1	7.00e-07	0	44	102	1048576	19	4407
2026-01-26 08:07:32.59	58.73	17.94	-29.0	-30.8	14.9	0.00e+00	0	43	102	1048576	19	4467
2026-01-26 08:07:33.60	58.51	17.98	-29.0	-31.0	14.8	1.50e-06	0	43	102	1048576	19	4540
2026-01-26 08:07:34.60	58.29	18.01	-29.1	-31.2	14.7	0.00e+00	0	43	102	1048576	19	4582
2026-01-26 08:07:35.61	58.06	18.05	-29.1	-31.2	14.7	7.00e-07	0	43	102	1048576	19	4590
2026-01-26 08:07:36.61	57.84	18.09	-29.1	-31.3	14.7	0.00e+00	0	43	102	1048576	19	4613
2026-01-26 08:07:37.61	57.61	18.12	-29.2	-31.5	14.5	7.00e-07	0	43	102	1048576	19	4697
2026-01-26 08:07:38.61	57.39	18.16	-29.4	-32.0	14.2	0.00e+00	0	43	102	1048576	19	4866
2026-01-26 08:07:39.62	57.16	18.20	-29.4	-32.0	14.2	3.00e-06	0	43	102	1048576	19	4876
2026-01-26 08:07:40.62	56.93	18.23	-29.4	-32.0	14.2	3.80e-06	0	43	102	1048576	19	4858
2026-01-26 08:07:41.62	56.71	18.26	-29.2	-31.4	14.6	7.00e-07	0	43	102	1048576	19	4645
2026-01-26 08:07:42.63	56.48	18.30	-29.2	-31.3	14.6	0.00e+00	0	43	102	1048576	19	4635
2026-01-26 08:07:43.63	56.25	18.33	-29.3	-31.8	14.3	1.50e-06	0	43	102	1048576	19	4790
2026-01-26 08:07:44.63	56.02	18.37	-29.3	-31.7	14.4	1.50e-06	0	43	102	1048576	19	4757
2026-01-26 08:07:45.64	55.79	18.40	-29.1	-31.3	14.7	0.00e+00	0	43	102	1048576	19	4610
2026-01-26 08:07:46.64	55.56	18.43	-29.0	-31.0	14.8	7.00e-07	0	43	102	1048576	19	4534
2026-01-26 08:07:47.64	55.34	18.46	-29.1	-31.1	14.8	0.00e+00	0	43	102	1048576	19	4554
2026-01-26 08:07:48.64	55.11	18.49	-29.1	-31.3	14.7	0.00e+00	0	43	102	1048576	19	4611
2026-01-26 08:07:49.65	54.87	18.53	-29.2	-31.6	14.5	7.00e-07	0	43	102	1048576	19	4702
2026-01-26 08:07:50.65	54.64	18.56	-29.3	-31.8	14.4	0.00e+00	0	43	102	1048576	19	4770
2026-01-26 08:07:51.66	54.41	18.59	-29.4	-31.9	14.3	0.00e+00	0	43	102	1048576	19	4806
2026-01-26 08:07:52.66	54.18	18.62	-29.3	-31.7	14.4	1.50e-06	0	43	102	1048576	19	4737
2026-01-26 08:07:53.67	53.94	18.65	-29.2	-31.4	14.6	0.00e+00	0	43	102	1048576	19	4662
2026-01-26 08:07:54.68	53.71	18.68	-29.2	-31.5	14.5	0.00e+00	0	43	102	1048576	19	4690
2026-01-26 08:07:55.68	53.47	18.70	-29.4	-31.9	14.3	1.50e-06	0	44	102	1048576	19	4829
2026-01-26 08:07:56.69	53.24	18.73	-29.5	-32.2	14.1	0.00e+00	0	43	102	1048576	19	4913
2026-01-26 08:07:57.70	53.00	18.76	-29.6	-32.4	14.0	1.50e-06	0	43	102	1048576	19	5014
2026-01-26 08:07:58.70	52.77	18.79	-29.6	-32.6	13.9	0.00e+00	0	43	102	1048576	19	5065
2026-01-26 08:07:59.71	52.53	18.81	-29.6	-32.6	13.9	4.50e-06	0	43	102	1048576	19	5056
2026-01-26 08:08:00.71	52.30	18.84	-29.8	-32.9	13.7	6.80e-06	0	43	102	1048576	19	5186
2026-01-26 08:08:01.71	52.06	18.87	-29.7	-32.9	13.7	5.30e-06	0	44	102	1048576	19	5179
2026-01-26 08:08:02.71	51.83	18.89	-29.6	-32.5	13.9	2.20e-06	0	44	102	1048576	19	5043
2026-01-26 08:08:03.71	51.59	18.91	-29.6	-32.6	13.9	1.50e-06	0	44	102	1048576	19	5058
2026-01-26 08:08:04.71	51.35	18.94	-29.6	-32.4	14.0	2.20e-06	0	43	102	1048576	19	5001
2026-01-26 08:08:05.71	51.12	18.96	-29.6	-32.5	13.9	3.00e-06	0	43	102	1048576	19	5023
2026-01-26 08:08:06.71	50.88	18.99	-29.8	-33.0	13.6	3.80e-06	0	43	102	1048576	19	5215
2026-01-26 08:08:07.70	50.64	19.01	-29.7	-32.8	13.7	5.30e-06	0	43	102	1048576	19	5146
2026-01-26 08:08:08.71	50.40	19.03	-29.7	-32.8	13.8	3.80e-06	0	44	102	1048576	19	5125
2026-01-26 08:08:09.72	50.16	19.05	-29.6	-32.6	13.9	3.00e-06	0	44	102	1048576	19	5055
2026-01-26 08:08:10.72	49.92	19.07	-29.7	-32.7	13.9	4.50e-06	0	43	102	1048576	19	5107
2026-01-26 08:08:11.72	49.68	19.09	-29.8	-33.0	13.6	3.80e-06	0	43	102	1048576	19	5213
2026-01-26 08:08:12.73	49.44	19.11	-29.9	-33.2	13.5	1.29e-05	0	43	102	1048576	19	5294
2026-01-26 08:08:13.74	49.20	19.13	-29.9	-33.2	13.5	5.30e-06	0	43	102	1048576	19	5282
2026-01-26 08:08:14.74	48.96	19.15	-29.9	-33.2	13.5	7.60e-06	0	43	102	1048576	19	5306
2026-01-26 08:08:15.75	48.72	19.17	-30.0	-33.5	13.3	1.83e-05	0	44	102	1048576	19	5386
2026-01-26 08:08:16.75	48.48	19.19	-30.0	-33.1	13.2	1.52e-05	0	43	102	1048576	20	5164
2026-01-26 08:08:17.75	48.24	19.21	-30.2	-33.6	12.8	4.95e-05	0	43	102	1048576	20	5339
2026-01-26 08:08:18.76	47.99	19.22	-30.2	-33.6	12.8	6.56e-05	0	43	102	1048576	20	5361
2026-01-26 08:08:19.76	47.75	19.24	-30.2	-33.7	12.8	6.10e-05	0	44	102	1048576	20	5390
2026-01-26 08:08:20.77	47.51	19.26	-30.0	-33.2	13.1	5.34e-05	0	43	102	1048576	20	5187
2026-01-26 08:08:21.77	47.27	19.27	-30.0	-33.1	13.2	2.21e-05	0	43	102	1048576	20	5136
2026-01-26 08:08:22.77	47.02	19.29	-30.1	-33.4	13.1	2.89e-05	0	43	102	1048576	20	5241
2026-01-26 08:08:23.77	46.78	19.30	-30.2	-33.7	12.8	4.80e-05	0	44	102	1048576	20	5366
2026-01-26 08:08:24.77	46.54	19.32	-30.3	-33.9	12.6	6.56e-05	0	44	102	1048576	20	5456
2026-01-26 08:08:25.77	46.30	19.33	-30.1	-33.4	12.9	3.66e-05	0	43	102	1048576	20	5263
2026-01-26 08:08:26.78	46.05	19.34	-29.9	-32.7	13.4	3.12e-05	0	44	102	1048576	20	5012
2026-01-26 08:08:27.78	45.81	19.36	-29.9	-32.8	13.3	1.29e-05	0	43	102	1048576	20	5054
2026-01-26 08:08:28.79	45.56	19.37	-30.0	-33.3	13.1	2.44e-05	0	43	102	1048576	20	5211
2026-01-26 08:08:29.79	45.32	19.38	-30.1	-33.4	13.0	2.89e-05	0	43	102	1048576	20	5282
2026-01-26 08:08:30.80	45.07	19.39	-30.3	-34.0	12.6	5.72e-05	0	43	102	1048576	20	5505
2026-01-26 08:08:31.80	44.83	19.40	-30.2	-33.8	12.7	9.84e-05	0	43	102	1048576	20	5414
2026-01-26 08:08:32.81	44.58	19.41	-30.0	-33.2	13.1	5.72e-05	0	43	102	1048576	20	5194
2026-01-26 08:08:33.82	44.33	19.42	-29.9	-32.8	13.3	3.05e-05	0	43	102	1048576	20	5059
2026-01-26 08:08:34.83	44.09	19.43	-29.9	-32.9	13.2	2.36e-05	0	44	102	1048576	20	5066
2026-01-26 08:08:35.83	43.84	19.43	-29.9	-33.0	13.2	1.67e-05	0	44	102	1048576	20	5112
2026-01-26 08:08:36.84	43.60	19.44	-30.0	-33.3	13.0	1.98e-05	0	43	102	1048576	20	5225
2026-01-26 08:08:37.84	43.35	19.45	-30.1	-33.4	13.0	4.19e-05	0	43	102	1048576	20	5278
2026-01-26 08:08:38.85	43.10	19.46	-29.9	-33.0	13.2	2.89e-05	0	44	102	1048576	20	5126
2026-01-26 08:08:39.86	42.86	19.46	-30.0	-33.1	13.1	3.50e-05	0	43	102	1048576	20	5143
2026-01-26 08:08:40.86	42.61	19.47	-30.0	-33.3	12.9	1.98e-05	0	43	102	1048576	20	5245
2026-01-26 08:08:41.86	42.37	19.47	-30.0	-33.1	13.1	4.04e-05	0	43	102	1048576	20	5145
2026-01-26 08:08:42.87	42.12	19.48	-30.0	-33.1	13.2	2.67e-05	0	44	102	1048576	20	5148
2026-01-26 08:08:43.88	41.87	19.48	-30.1	-33.6	12.8	3.58e-05	0	43	102	1048576	20	5342
2026-01-26 08:08:44.88	41.63	19.48	-30.1	-33.5	12.9	4.80e-05	0	44	102	1048576	20	5300
2026-01-26 08:08:45.89	41.38	19.48	-30.2	-33.6	12.8	5.49e-05	0	43	102	1048576	20	5353
2026-01-26 08:08:46.89	41.13	19.49	-30.2	-33.7	12.7	7.47e-05	0	44	102	1048576	20	5386
2026-01-26 08:08:47.90	40.88	19.49	-30.2	-33.7	12.7	5.41e-05	0	44	102	1048576	20	5394
2026-01-26 08:08:48.91	40.64	19.49	-30.0	-33.3	13.0	4.80e-05	0	44	102	1048576	20	5230
2026-01-26 08:08:49.91	40.39	19.49	-29.9	-32.8	13.4	2.59e-05	0	43	102	1048576	20	5030
2026-01-26 08:08:50.91	40.15	19.49	-29.8	-32.5	13.5	1.37e-05	0	44	102	1048576	20	4942
2026-01-26 08:08:51.92	39.90	19.49	-29.8	-32.5	13.5	7.60e-06	0	44	102	1048576	20	4938
2026-01-26 08:08:52.92	39.65	19.49	-29.7	-32.2	13.7	9.10e-06	0	44	102	1048576	20	4834
2026-01-26 08:08:53.92	39.41	19.48	-29.8	-32.5	13.6	6.10e-06	0	43	102	1048576	20	4927
2026-01-26 08:08:54.92	39.16	19.48	-29.8	-32.5	13.6	1.22e-05	0	43	102	1048576	20	4929
2026-01-26 08:08:55.93	38.91	19.48	-30.0	-33.0	13.2	9.76e-05	0	44	102	1048576	20	5137
2026-01-26 08:08:56.93	38.67	19.48	-29.7	-32.5	13.6	1.06e-05	0	43	102	1048576	20	4920
2026-01-26 08:08:57.93	38.42	19.47	-29.6	-32.0	13.9	3.00e-06	0	43	102	1048576	20	4754
2026-01-26 08:08:58.94	38.18	19.47	-29.4	-31.4	14.2	1.63e-04	0	43	102	1048576	20	4564
2026-01-26 08:08:59.94	37.93	19.46	-29.3	-31.8	14.4	1.71e-04	0	44	102	1048576	19	4780
2026-01-26 08:09:00.95	37.68	19.46	-29.3	-31.7	14.4	0.00e+00	0	44	102	1048576	19	4765
2026-01-26 08:09:01.95	37.44	19.45	-29.3	-31.8	14.4	1.66e-04	0	44	102	1048576	19	4792
2026-01-26 08:09:02.96	37.19	19.44	-29.4	-32.0	14.3	1.83e-04	0	43	102	1048576	19	4833
2026-01-26 08:09:03.96	36.95	19.43	-29.4	-31.9	14.3	1.50e-06	0	44	102	1048576	19	4797
2026-01-26 08:09:04.96	36.70	19.43	-29.3	-32.3	14.4	1.88e-04	0	44	102	1048576	18	5081
2026-01-26 08:09:05.97	36.46	19.42	-29.3	-32.3	14.4	1.64e-04	0	43	102	1048576	18	5067
2026-01-26 08:09:06.97	36.21	19.41	-29.3	-32.1	14.5	0.00e+00	0	44	102	1048576	18	5011
2026-01-26 08:09:07.98	35.97	19.40	-29.4	-32.4	14.3	1.94e-04	0	43	102	1048576	18	5111
2026-01-26 08:09:08.98	35.72	19.39	-29.2	-31.9	14.6	2.66e-04	0	44	102	1048576	18	4941
2026-01-26 08:09:09.99	35.48	19.38	-29.1	-31.7	14.7	0.00e+00	0	44	102	1048576	18	4865
2026-01-26 08:09:10.99	35.23	19.37	-29.2	-32.0	14.5	3.52e-04	0	43	102	1048576	18	4975
2026-01-26 08:09:11.99	34.99	19.36	-29.1	-31.7	14.7	4.14e-04	0	44	102	1048576	18	4864
2026-01-26 08:09:13.00	34.75	19.34	-29.1	-31.6	14.8	0.00e+00	0	43	102	1048576	18	4833
2026-01-26 08:09:14.00	34.50	19.33	-29.2	-31.8	14.7	4.15e-04	0	44	102	1048576	18	4910
2026-01-26 08:09:15.01	34.26	19.32	-29.3	-32.3	14.4	3.88e-04	0	44	102	1048576	18	5068
2026-01-26 08:09:16.01	34.01	19.30	-29.2	-31.9	14.7	0.00e+00	0	43	102	1048576	18	4925
2026-01-26 08:09:17.01	33.77	19.29	-29.1	-31.8	14.7	4.42e-04	0	43	102	1048576	18	4883
2026-01-26 08:09:18.02	33.53	19.27	-29.2	-32.0	14.6	5.29e-04	0	43	102	1048576	18	4950
2026-01-26 08:09:19.02	33.29	19.26	-29.3	-32.2	14.4	2.20e-06	0	43	102	1048576	18	5037
2026-01-26 08:09:20.03	33.04	19.24	-29.0	-31.5	14.9	5.15e-04	0	43	102	1048576	18	4786
2026-01-26 08:09:21.04	32.80	19.23	-29.1	-31.8	14.7	5.18e-04	0	44	102	1048576	18	4879
2026-01-26 08:09:22.04	32.56	19.21	-28.9	-31.2	15.1	0.00e+00	0	43	102	1048576	18	4676
2026-01-26 08:09:23.05	32.32	19.19	-28.7	-31.2	15.3	4.85e-04	0	43	102	1048576	17	4813
2026-01-26 08:09:24.06	32.07	19.17	-28.7	-31.3	15.2	4.29e-04	0	43	102	1048576	17	4831
2026-01-26 08:09:25.06	31.83	19.15	-29.0	-31.9	14.9	0.00e+00	0	43	102	1048576	17	5039
2026-01-26 08:09:26.07	31.59	19.13	-28.9	-31.6	15.0	4.88e-04	0	44	102	1048576	17	4950
2026-01-26 08:09:27.07	31.35	19.12	-29.1	-31.8	14.7	6.26e-04	0	44	102	1048576	18	4880
2026-01-26 08:09:28.07	31.11	19.10	-29.5	-32.7	14.1	7.00e-07	0	43	102	1048576	18	5203
2026-01-26 08:09:29.08	30.87	19.07	-29.2	-32.1	14.5	7.00e-07	0	44	102	1048576	18	4983
2026-01-26 08:09:30.08	30.63	19.05	-29.1	-31.7	14.8	9.01e-04	0	43	102	1048576	18	4860
2026-01-26 08:09:31.09	30.39	19.03	-28.9	-31.1	15.1	7.00e-07	0	43	102	1048576	18	4673
2026-01-26 08:09:32.09	30.15	19.01	-28.9	-31.7	15.1	0.00e+00	0	44	102	1048576	17	4965
2026-01-26 08:09:33.09	29.92	18.99	-28.8	-31.5	15.1	7.09e-04	0	44	102	1048576	17	4908
2026-01-26 08:09:34.10	29.68	18.96	-28.7	-31.3	15.3	0.00e+00	0	44	102	1048576	17	4828
2026-01-26 08:09:35.11	29.44	18.94	-28.7	-31.3	15.2	0.00e+00	0	44	102	1048576	17	4855
2026-01-26 08:09:36.12	29.20	18.92	-28.8	-31.5	15.1	0.00e+00	0	43	102	1048576	17	4916
2026-01-26 08:09:37.12	28.96	18.89	-29.0	-31.9	14.9	0.00e+00	0	43	102	1048576	17	5043
2026-01-26 08:09:38.13	28.73	18.87	-29.0	-31.5	14.9	0.00e+00	0	43	102	1048576	18	4799
2026-01-26 08:09:39.14	28.49	18.84	-29.0	-31.6	14.8	0.00e+00	0	44	102	1048576	18	4820
2026-01-26 08:09:40.14	28.25	18.81	-29.1	-31.8	14.7	0.00e+00	0	43	102	1048576	18	4880
2026-01-26 08:09:41.15	28.02	18.79	-29.0	-31.5	14.9	5.93e-04	0	44	102	1048576	18	4782
2026-01-26 08:09:42.15	27.78	18.76	-29.1	-31.7	14.7	7.00e-07	0	43	102	1048576	18	4869
2026-01-26 08:09:43.16	27.55	18.73	-29.0	-31.6	14.8	0.00e+00	0	44	102	1048576	18	4819
2026-01-26 08:09:44.17	27.31	18.70	-29.1	-31.8	14.7	4.51e-04	0	43	102	1048576	18	4884
2026-01-26 08:09:45.17	27.08	18.68	-29.2	-32.0	14.6	0.00e+00	0	44	102	1048576	18	4957
2026-01-26 08:09:46.16	26.85	18.65	-29.3	-32.3	14.3	0.00e+00	0	43	102	1048576	18	5079
2026-01-26 08:09:47.17	26.62	18.62	-29.4	-32.5	14.2	7.00e-07	0	43	102	1048576	18	5155
2026-01-26 08:09:48.17	26.39	18.59	-29.5	-32.7	14.1	5.90e-04	0	44	102	1048576	18	5221
2026-01-26 08:09:49.17	26.16	18.56	-29.4	-32.6	14.2	0.00e+00	0	43	102	1048576	18	5170
2026-01-26 08:09:50.18	25.92	18.53	-29.5	-32.2	14.1	7.00e-07	0	43	102	1048576	19	4913
2026-01-26 08:09:51.18	25.69	18.50	-29.6	-32.6	13.9	1.50e-06	0	43	102	1048576	19	5053
2026-01-26 08:09:52.18	25.46	18.47	-29.8	-33.1	13.5	1.06e-05	0	43	102	1048576	19	5271
2026-01-26 08:09:53.19	25.23	18.43	-29.7	-32.8	13.7	7.60e-06	0	43	102	1048576	19	5149
2026-01-26 08:09:54.20	25.00	18.40	-29.9	-33.2	13.4	7.60e-06	0	43	102	1048576	19	5294
2026-01-26 08:09:55.20	24.77	18.37	-30.0	-33.5	13.2	1.90e-05	0	44	102	1048576	19	5408
2026-01-26 08:09:56.20	24.55	18.33	-29.8	-33.1	13.5	6.10e-06	0	43	102	1048576	19	5260
2026-01-26 08:09:57.20	24.32	18.30	-29.8	-33.1	13.5	1.83e-05	0	44	102	1048576	19	5245
2026-01-26 08:09:58.20	24.09	18.27	-29.8	-33.2	13.5	9.10e-06	0	44	102	1048576	19	5275
2026-01-26 08:09:59.20	23.87	18.23	-29.7	-32.9	13.6	9.90e-06	0	43	102	1048576	19	5170
2026-01-26 08:10:00.21	23.64	18.20	-29.6	-32.6	13.8	6.10e-06	0	43	102	1048576	19	5065
2026-01-26 08:10:01.21	23.42	18.16	-29.6	-32.4	13.9	2.20e-06	0	44	102	1048576	19	5001
2026-01-26 08:10:02.22	23.19	18.13	-29.6	-32.6	13.8	6.10e-06	0	44	102	1048576	19	5070
2026-01-26 08:10:03.22	22.97	18.09	-29.8	-33.0	13.5	4.50e-06	0	44	102	1048576	19	5220
2026-01-26 08:10:04.23	22.74	18.05	-29.7	-32.8	13.2	7.60e-06	0	44	102	1048576	19	5132
2026-01-26 08:10:05.24	22.52	18.02	-29.6	-32.5	13.4	4.50e-06	0	44	102	1048576	19	5023
2026-01-26 08:10:06.24	22.29	17.98	-29.5	-32.4	14.0	1.50e-06	0	44	102	1048576	19	4983
2026-01-26 08:10:07.24	22.07	17.94	-29.6	-32.5	13.7	3.80e-06	0	44	102	1048576	19	5039
2026-01-26 08:10:08.25	21.85	17.90	-29.7	-32.8	13.7	3.80e-06	0	44	102	1048576	19	5138
2026-01-26 08:10:09.25	21.63	17.86	-29.7	-32.8	13.6	1.29e-05	0	44	102	1048576	19	5138
2026-01-26 08:10:10.26	21.41	17.83	-29.7	-32.8	13.6	3.80e-06	0	44	102	1048576	19	5154
2026-01-26 08:10:11.26	21.19	17.79	-29.8	-33.1	13.4	9.90e-06	0	44	102	1048576	19	5273
2026-01-26 08:10:12.27	20.97	17.75	-29.8	-33.2	13.4	1.14e-05	0	44	102	1048576	19	5304
2026-01-26 08:10:13.27	20.75	17.71	-29.9	-33.2	13.4	1.37e-05	0	44	102	1048576	19	5311
2026-01-26 08:10:14.28	20.53	17.67	-29.9	-33.5	13.2	1.29e-05	0	44	102	1048576	19	5404
2026-01-26 08:10:15.29	20.31	17.62	-29.9	-33.3	13.3	1.75e-05	0	44	102	1048576	19	5332
2026-01-26 08:10:16.29	20.09	17.58	-29.8	-33.1	13.5	1.29e-05	0	44	102	1048576	19	5267
2026-01-26 08:10:17.30	19.88	17.54	-29.8	-33.1	13.4	1.67e-05	0	44	102	1048576	19	5274
2026-01-26 08:10:18.30	19.66	17.50	-29.7	-32.7	13.7	5.30e-06	0	44	102	1048576	19	5100
2026-01-26 08:10:19.30	19.45	17.46	-29.5	-32.4	13.9	9.09e-04	0	44	102	1048576	19	4995
2026-01-26 08:10:20.30	19.23	17.42	-29.6	-32.4	13.9	2.20e-06	0	44	102	1048576	19	5000
2026-01-26 08:10:21.30	19.02	17.37	-29.6	-32.6	13.8	4.50e-06	0	44	102	1048576	19	5055
2026-01-26 08:10:22.31	18.81	17.33	-29.7	-32.9	13.6	1.26e-03	0	44	102	1048576	19	5172
2026-01-26 08:10:23.31	18.59	17.29	-29.7	-32.9	13.6	3.98e-04	0	44	102	1048576	19	5176
2026-01-26 08:10:24.32	18.38	17.24	-29.8	-33.0	13.4	3.80e-06	0	43	102	1048576	19	5233
2026-01-26 08:10:25.33	18.17	17.20	-29.9	-33.2	13.3	8.15e-04	0	44	102	1048576	19	5313
2026-01-26 08:10:26.32	17.96	17.15	-29.9	-33.4	13.2	8.60e-04	0	44	102	1048576	19	5391
2026-01-26 08:10:27.32	17.75	17.11	-29.9	-33.4	13.2	1.98e-05	0	43	102	1048576	19	5369
2026-01-26 08:10:28.33	17.54	17.06	-29.9	-33.1	13.0	2.67e-05	0	43	102	1048576	20	5153
2026-01-26 08:10:29.33	17.33	17.02	-30.0	-33.2	12.9	7.54e-04	0	43	102	1048576	20	5220
2026-01-26 08:10:30.34	17.12	16.97	-30.0	-33.2	12.9	6.63e-05	0	44	102	1048576	20	5197
2026-01-26 08:10:31.35	16.91	16.93	-29.9	-33.4	13.2	3.28e-05	0	44	102	1048576	19	5381
2026-01-26 08:10:32.35	16.71	16.88	-29.9	-33.4	13.1	7.87e-04	0	44	102	1048576	19	5398
2026-01-26 08:10:33.35	16.50	16.83	-30.0	-33.7	13.0	2.59e-05	0	44	102	1048576	19	5500
2026-01-26 08:10:34.35	16.30	16.79	-30.0	-33.3	12.8	9.73e-04	0	44	102	1048576	20	5257
2026-01-26 08:10:35.35	16.09	16.74	-30.0	-33.6	13.0	1.02e-03	0	44	102	1048576	19	5483
2026-01-26 08:10:36.35	15.89	16.69	-30.0	-33.2	12.9	5.64e-05	0	44	102	1048576	20	5202
2026-01-26 08:10:37.35	15.69	16.65	-29.9	-33.5	13.1	1.11e-03	0	44	102	1048576	19	5423
2026-01-26 08:10:38.35	15.48	16.60	-29.9	-33.4	13.2	1.60e-05	0	44	102	1048576	19	5373
2026-01-26 08:10:39.36	15.28	16.55	-29.9	-33.5	13.1	1.83e-05	0	44	102	1048576	19	5423
2026-01-26 08:10:40.36	15.08	16.50	-29.9	-33.5	13.1	9.26e-04	0	44	102	1048576	19	5436
2026-01-26 08:10:41.37	14.88	16.45	-29.8	-33.2	13.3	8.22e-04	0	44	102	1048576	19	5313
2026-01-26 08:10:42.37	14.68	16.40	-29.9	-33.4	13.2	1.83e-05	0	44	102	1048576	19	5373
2026-01-26 08:10:43.37	14.48	16.35	-29.9	-33.3	13.1	1.02e-03	0	44	102	1048576	19	5370
2026-01-26 08:10:44.38	14.28	16.30	-30.0	-33.6	12.9	1.08e-03	0	44	102	1048576	19	5484
2026-01-26 08:10:45.37	14.08	16.25	-30.1	-33.6	12.6	5.72e-05	0	44	102	1048576	20	5358
2026-01-26 08:10:46.38	13.88	16.20	-30.4	-34.3	12.1	1.28e-03	0	44	102	1048576	20	5668
2026-01-26 08:10:47.39	13.68	16.15	-30.2	-33.9	12.4	1.22e-03	0	44	102	1048576	20	5507
2026-01-26 08:10:48.39	13.49	16.10	-30.4	-34.3	12.1	1.96e-04	0	44	102	1048576	20	5670
2026-01-26 08:10:49.38	13.30	16.05	-30.5	-34.4	11.7	1.70e-03	0	44	102	1048576	21	5604
2026-01-26 08:10:50.39	13.10	16.00	-30.6	-34.5	11.5	1.68e-03	0	44	102	1048576	21	5673
2026-01-26 08:10:51.39	12.91	15.95	-30.6	-34.5	11.6	6.15e-04	0	44	102	1048576	21	5662
2026-01-26 08:10:52.39	12.71	15.90	-30.7	-34.9	11.3	9.47e-04	0	44	102	1048576	21	5813
2026-01-26 08:10:53.40	12.52	15.85	-30.7	-34.9	11.3	2.17e-03	0	44	102	1048576	21	5836
2026-01-26 08:10:54.41	12.33	15.80	-30.7	-34.9	11.2	1.76e-03	0	44	102	1048576	21	5864
2026-01-26 08:10:55.41	12.13	15.74	-30.5	-34.2	11.7	1.71e-03	0	44	102	1048576	21	5539
2026-01-26 08:10:56.41	11.94	15.69	-30.3	-34.1	12.1	3.07e-04	0	44	102	1048576	20	5610
2026-01-26 08:10:57.42	11.75	15.64	-30.1	-33.7	12.4	1.81e-04	0	44	102	1048576	20	5427
2026-01-26 08:10:58.42	11.56	15.59	-30.1	-33.7	12.4	7.16e-04	0	44	102	1048576	20	5417
2026-01-26 08:10:59.43	11.37	15.53	-30.3	-34.2	12.1	2.18e-04	0	43	102	1048576	20	5616
2026-01-26 08:11:00.42	11.19	15.48	-30.3	-34.1	12.2	3.28e-04	0	44	102	1048576	20	5596
2026-01-26 08:11:01.43	11.00	15.43	-30.3	-34.2	12.2	7.15e-04	0	44	102	1048576	20	5606
2026-01-26 08:11:02.44	10.81	15.37	-30.4	-34.5	11.9	3.20e-04	0	44	102	1048576	20	5756
2026-01-26 08:11:03.44	10.63	15.32	-30.6	-34.5	11.5	5.56e-04	0	44	102	1048576	21	5671
2026-01-26 08:11:04.45	10.44	15.26	-30.7	-34.8	11.3	1.66e-03	0	44	102	1048576	21	5793
2026-01-26 08:11:05.45	10.25	15.21	-30.7	-35.0	11.1	1.98e-03	0	44	102	1048576	21	5862
2026-01-26 08:11:06.46	10.07	15.16	-30.7	-35.0	11.1	1.36e-03	0	44	102	1048576	21	5900
2026-01-26 08:11:07.46	9.89	15.10	-31.0	-35.4	10.5	3.93e-03	0	44	102	1048576	22	5963
2026-01-26 08:11:08.46	9.70	15.05	-30.7	-34.4	11.2	3.19e-03	0	44	102	1048576	22	5518
2026-01-26 08:11:09.47	9.52	14.99	-30.5	-33.8	11.7	7.23e-04	0	44	102	1048576	22	5248
2026-01-26 08:11:10.47	9.34	14.94	-30.6	-34.6	11.5	5.15e-04	0	44	102	1048576	21	5695
2026-01-26 08:11:11.47	9.16	14.88	-30.6	-34.8	11.3	1.91e-03	0	44	102	1048576	21	5786
2026-01-26 08:11:12.46	8.98	14.83	-30.6	-34.5	11.5	9.31e-04	0	44	102	1048576	21	5666
2026-01-26 08:11:13.46	8.80	14.77	-30.6	-34.7	11.4	9.35e-04	0	44	102	1048576	21	5754
2026-01-26 08:11:14.47	8.62	14.72	-30.6	-34.5	11.4	1.38e-03	0	44	102	1048576	21	5684
2026-01-26 08:11:15.47	8.45	14.66	-30.6	-34.5	11.5	9.52e-04	0	43	102	1048576	21	5673
2026-01-26 08:11:16.48	8.27	14.60	-30.4	-34.1	11.8	5.71e-04	0	44	102	1048576	21	5474
2026-01-26 08:11:17.48	8.09	14.55	-30.3	-34.2	12.0	5.17e-04	0	43	102	1048576	20	5650
2026-01-26 08:11:18.48	7.92	14.49	-30.3	-34.2	12.0	2.39e-04	0	44	102	1048576	20	5638
2026-01-26 08:11:19.49	7.74	14.44	-30.4	-34.6	11.6	5.78e-04	0	44	102	1048576	20	5844
2026-01-26 08:11:20.50	7.56	14.38	-30.3	-34.2	11.9	5.21e-04	0	43	102	1048576	20	5654
2026-01-26 08:11:21.51	7.39	14.32	-30.3	-34.2	11.9	3.03e-04	0	44	102	1048576	20	5671
2026-01-26 08:11:22.51	7.22	14.27	-30.4	-34.6	11.7	6.30e-04	0	44	102	1048576	20	5831
2026-01-26 08:11:23.51	7.05	14.21	-30.4	-34.7	11.7	6.50e-04	0	44	102	1048576	20	5862
2026-01-26 08:11:24.52	6.87	14.15	-30.3	-33.8	11.8	5.26e-04	0	44	102	1048576	21	5394
2026-01-26 08:11:25.52	6.70	14.10	-30.4	-34.1	11.7	4.34e-04	0	43	102	1048576	21	5493
2026-01-26 08:11:26.52	6.53	14.04	-30.5	-34.2	11.5	7.11e-04	0	44	102	1048576	21	5572
2026-01-26 08:11:27.53	6.36	13.98	-30.2	-33.6	12.0	3.84e-04	0	44	102	1048576	21	5291
2026-01-26 08:11:28.53	6.19	13.92	-30.2	-33.5	12.1	4.11e-04	0	44	102	1048576	21	5272
2026-01-26 08:11:29.53	6.02	13.87	-30.2	-33.9	12.1	2.37e-04	0	44	102	1048576	20	5553
2026-01-26 08:11:30.54	5.86	13.81	-30.1	-33.8	12.2	2.73e-04	0	44	102	1048576	20	5494
2026-01-26 08:11:31.54	5.69	13.75	-30.1	-33.7	12.2	2.47e-04	0	43	102	1048576	20	5461
2026-01-26 08:11:32.55	5.52	13.69	-30.1	-33.6	12.3	2.08e-04	0	44	102	1048576	20	5414
2026-01-26 08:11:33.56	5.35	13.63	-30.0	-33.3	12.5	1.69e-04	0	44	102	1048576	20	5308
2026-01-26 08:11:34.56	5.19	13.58	-29.9	-33.1	12.6	8.46e-05	0	43	102	1048576	20	5229
2026-01-26 08:11:35.57	5.02	13.52	-30.1	-33.6	12.3	1.17e-04	0	43	102	1048576	20	5415
2026-01-26 08:11:36.57	4.86	13.46	-29.9	-33.3	12.5	1.87e-04	0	44	102	1048576	20	5273
2026-01-26 08:11:37.58	4.70	13.40	-29.9	-33.2	12.4	9.84e-05	0	44	102	1048576	20	5235
2026-01-26 08:11:38.58	4.53	13.34	-29.9	-33.2	12.6	9.46e-05	0	44	102	1048576	20	5233
2026-01-26 08:11:39.59	4.37	13.28	-29.9	-33.0	12.6	8.39e-05	0	44	102	1048576	20	5177
2026-01-26 08:11:40.58	4.21	13.22	-29.7	-32.5	12.9	4.65e-05	0	44	102	1048576	20	4993
2026-01-26 08:11:41.59	4.05	13.17	-29.6	-32.4	13.0	3.43e-05	0	44	102	1048576	20	4956
2026-01-26 08:11:42.60	3.89	13.11	-29.7	-32.6	12.9	7.32e-05	0	44	102	1048576	20	5038
2026-01-26 08:11:43.60	3.73	13.05	-29.8	-32.9	12.7	5.26e-05	0	44	102	1048576	20	5146
2026-01-26 08:11:44.60	3.57	12.99	-29.7	-32.7	12.9	6.10e-05	0	44	102	1048576	20	5046
2026-01-26 08:11:45.61	3.41	12.93	-29.8	-32.7	12.8	4.57e-05	0	44	102	1048576	20	5075
2026-01-26 08:11:46.61	3.26	12.87	-29.8	-32.9	12.7	6.86e-05	0	44	102	1048576	20	5155
2026-01-26 08:11:47.62	3.10	12.81	-29.7	-32.7	12.9	8.85e-05	0	44	102	1048576	20	5082
2026-01-26 08:11:48.62	2.94	12.75	-29.8	-32.8	12.8	3.96e-05	0	44	102	1048576	20	5108
2026-01-26 08:11:49.63	2.79	12.69	-29.6	-32.4	13.0	8.92e-05	0	44	102	1048576	20	4971
2026-01-26 08:11:50.63	2.63	12.63	-29.7	-32.6	13.0	5.11e-05	0	43	102	1048576	20	5015
2026-01-26 08:11:51.63	2.48	12.57	-29.7	-32.6	12.9	5.64e-05	0	44	102	1048576	20	5032
2026-01-26 08:11:52.63	2.33	12.51	-29.5	-32.1	13.3	3.12e-05	0	44	102	1048576	20	4832
2026-01-26 08:11:53.63	2.17	12.46	-29.5	-32.0	13.3	2.21e-05	0	43	102	1048576	20	4811
2026-01-26 08:11:54.63	2.02	12.40	-29.5	-32.0	13.3	2.05e-05	0	44	102	1048576	20	4805
2026-01-26 08:11:55.63	1.87	12.34	-29.6	-32.8	13.2	6.10e-06	0	43	102	1048576	19	5191
2026-01-26 08:11:56.64	1.72	12.28	-29.5	-32.5	13.3	2.67e-05	0	44	102	1048576	19	5073
2026-01-26 08:11:57.64	1.57	12.22	-29.5	-32.5	13.3	1.94e-04	0	44	102	1048576	19	5087
2026-01-26 08:11:58.65	1.42	12.16	-29.5	-32.4	13.4	9.90e-06	0	44	102	1048576	19	5069
2026-01-26 08:11:59.65	1.27	12.10	-29.4	-32.2	13.6	5.30e-06	0	44	102	1048576	19	4986
2026-01-26 08:12:00.64	1.12	12.04	-29.4	-32.3	13.4	1.36e-04	0	44	102	1048576	19	5023
2026-01-26 08:12:01.65	0.97	11.98	-29.5	-32.4	13.4	1.67e-05	0	44	102	1048576	19	5069
2026-01-26 08:12:02.65	0.83	11.92	-29.4	-32.2	13.6	7.60e-06	0	44	102	1048576	19	4978
2026-01-26 08:12:03.66	0.68	11.86	-29.5	-32.4	13.4	2.49e-04	0	44	102	1048576	19	5048
2026-01-26 08:12:04.66	0.53	11.80	-29.4	-32.3	13.5	2.56e-04	0	44	102	1048576	19	5017
2026-01-26 08:12:05.66	0.39	11.74	-29.3	-32.1	13.6	1.98e-05	0	44	102	1048576	19	4937
2026-01-26 08:12:06.67	0.24	11.68	-29.3	-32.6	13.6	2.02e-04	0	44	102	1048576	18	5229
2026-01-26 08:12:07.68	0.10	11.62	-29.4	-32.7	13.5	1.85e-04	0	43	102	1048576	18	5286
2026-01-26 08:12:08.68	359.96	11.56	-29.2	-32.2	13.8	3.00e-06	0	44	102	1048576	18	5096
2026-01-26 08:12:09.69	359.81	11.50	-29.2	-32.3	13.8	3.00e-06	0	44	102	1048576	18	5126
2026-01-26 08:12:10.69	359.67	11.44	-29.3	-32.4	13.7	2.15e-04	0	44	102	1048576	18	5185
2026-01-26 08:12:11.69	359.53	11.38	-29.3	-32.4	13.7	6.10e-06	0	44	102	1048576	18	5183
2026-01-26 08:12:12.70	359.39	11.31	-29.3	-32.7	13.5	6.10e-06	0	44	102	1048576	18	5267
2026-01-26 08:12:13.70	359.25	11.25	-29.3	-32.6	13.5	1.88e-04	0	43	102	1048576	18	5262
2026-01-26 08:12:14.70	359.11	11.19	-29.3	-32.6	13.5	1.90e-05	0	44	102	1048576	18	5264
2026-01-26 08:12:15.71	358.97	11.13	-29.4	-32.9	13.4	1.80e-04	0	44	102	1048576	18	5342
2026-01-26 08:12:16.71	358.83	11.07	-29.4	-32.7	13.5	2.24e-04	0	43	102	1048576	18	5298
2026-01-26 08:12:17.72	358.69	11.01	-29.6	-32.8	13.1	1.22e-05	0	44	102	1048576	19	5226
2026-01-26 08:12:18.73	358.55	10.95	-29.6	-32.7	13.1	2.78e-04	0	44	102	1048576	19	5187
2026-01-26 08:12:19.72	358.41	10.89	-29.4	-32.2	13.4	2.61e-04	0	44	102	1048576	19	4992
2026-01-26 08:12:20.73	358.28	10.83	-29.4	-32.2	13.4	2.36e-05	0	44	102	1048576	19	5004
2026-01-26 08:12:21.74	358.14	10.77	-29.6	-32.7	13.1	2.01e-04	0	44	102	1048576	19	5193
2026-01-26 08:12:22.74	358.01	10.71	-29.4	-32.3	13.3	1.85e-04	0	44	102	1048576	19	5046
2026-01-26 08:12:23.74	357.87	10.65	-29.8	-33.3	12.7	4.27e-05	0	44	102	1048576	19	5438
2026-01-26 08:12:24.75	357.74	10.59	-29.7	-33.0	12.9	2.25e-04	0	44	102	1048576	19	5314
2026-01-26 08:12:25.76	357.60	10.53	-29.5	-32.6	13.2	2.59e-04	0	44	102	1048576	19	5139
2026-01-26 08:12:26.76	357.47	10.47	-29.7	-33.2	12.7	4.04e-05	0	44	102	1048576	19	5385
2026-01-26 08:12:27.77	357.34	10.41	-29.7	-33.2	12.7	2.76e-04	0	44	102	1048576	19	5384
2026-01-26 08:12:28.77	357.20	10.35	-29.7	-33.2	12.7	2.49e-04	0	44	102	1048576	19	5395
2026-01-26 08:12:29.77	357.07	10.29	-29.9	-33.8	12.3	9.07e-05	0	44	102	1048576	19	5628
2026-01-26 08:12:30.77	356.94	10.23	-29.9	-33.8	12.3	1.77e-04	0	44	102	1048576	19	5632
2026-01-26 08:12:31.78	356.81	10.17	-29.9	-33.3	12.2	4.16e-04	0	44	102	1048576	20	5346
2026-01-26 08:12:32.78	356.68	10.11	-29.7	-32.7	12.7	1.36e-04	0	44	102	1048576	20	5079
2026-01-26 08:12:33.78	356.55	10.04	-29.6	-32.9	12.9	4.19e-05	0	44	102	1048576	19	5261
2026-01-26 08:12:34.78	356.43	9.98	-29.5	-32.8	13.0	2.52e-04	0	44	102	1048576	19	5209
2026-01-26 08:12:35.78	356.30	9.92	-29.5	-32.6	13.1	3.66e-05	0	44	102	1048576	19	5163
2026-01-26 08:12:36.78	356.17	9.86	-29.5	-32.7	13.0	2.08e-04	0	44	102	1048576	19	5194
2026-01-26 08:12:37.78	356.04	9.80	-29.5	-32.6	13.1	3.50e-05	0	44	102	1048576	19	5146
2026-01-26 08:12:38.79	355.92	9.74	-29.5	-32.7	13.0	2.28e-05	0	44	102	1048576	19	5179
2026-01-26 08:12:39.80	355.79	9.68	-29.5	-32.8	13.0	2.17e-04	0	44	102	1048576	19	5211
2026-01-26 08:12:40.80	355.66	9.62	-29.6	-33.0	12.8	4.34e-05	0	44	102	1048576	19	5328
2026-01-26 08:12:41.81	355.54	9.56	-29.4	-32.5	13.1	6.48e-05	0	44	102	1048576	19	5111
2026-01-26 08:12:42.82	355.41	9.50	-29.6	-33.1	12.8	2.24e-04	0	44	102	1048576	19	5342
2026-01-26 08:12:43.82	355.29	9.44	-29.5	-32.6	13.0	2.13e-05	0	44	102	1048576	19	5153
2026-01-26 08:12:44.83	355.17	9.38	-29.7	-33.3	12.6	8.31e-05	0	44	102	1048576	19	5433
2026-01-26 08:12:45.83	355.04	9.32	-29.7	-33.2	12.6	3.19e-04	0	44	102	1048576	19	5418
2026-01-26 08:12:46.83	354.92	9.26	-29.7	-33.1	12.7	2.86e-04	0	44	102	1048576	19	5364
2026-01-26 08:12:47.83	354.80	9.20	-29.8	-33.4	12.4	1.40e-04	0	43	102	1048576	19	5494
2026-01-26 08:12:48.83	354.68	9.14	-29.9	-33.7	12.2	2.73e-04	0	44	102	1048576	19	5624
2026-01-26 08:12:49.83	354.56	9.08	-29.9	-33.5	12.0	3.76e-04	0	44	102	1048576	20	5430
2026-01-26 08:12:50.84	354.44	9.02	-29.9	-33.5	12.0	2.99e-04	0	44	102	1048576	20	5413
2026-01-26 08:12:51.84	354.32	8.96	-29.8	-33.1	12.2	2.53e-04	0	44	102	1048576	20	5291
2026-01-26 08:12:52.84	354.20	8.90	-30.0	-33.8	11.7	5.10e-04	0	44	102	1048576	20	5576
2026-01-26 08:12:53.85	354.08	8.84	-30.2	-34.4	11.4	8.88e-04	0	44	102	1048576	20	5812
2026-01-26 08:12:54.85	353.96	8.78	-30.0	-33.9	11.6	8.13e-04	0	44	102	1048576	20	5607
2026-01-26 08:12:55.85	353.85	8.72	-29.9	-33.5	11.9	6.53e-04	0	44	102	1048576	20	5454
2026-01-26 08:12:56.86	353.73	8.66	-29.9	-33.4	12.0	3.39e-04	0	44	102	1048576	20	5410
2026-01-26 08:12:57.87	353.61	8.60	-30.0	-33.8	11.6	8.22e-04	0	43	102	1048576	20	5575
2026-01-26 08:12:58.87	353.50	8.54	-29.8	-33.2	12.0	3.59e-04	0	43	102	1048576	20	5338
2026-01-26 08:12:59.88	353.38	8.48	-30.0	-33.7	11.7	4.64e-04	0	44	102	1048576	20	5536
2026-01-26 08:13:00.88	353.26	8.42	-30.0	-33.8	11.6	7.90e-04	0	44	102	1048576	20	5592
2026-01-26 08:13:01.89	353.15	8.36	-30.0	-33.7	11.8	3.01e-04	0	44	102	1048576	20	5516
2026-01-26 08:13:02.89	353.03	8.30	-30.1	-33.9	11.6	5.23e-04	0	43	102	1048576	20	5629
2026-01-26 08:13:03.90	352.92	8.24	-30.0	-33.9	11.6	5.24e-04	0	44	102	1048576	20	5609
2026-01-26 08:13:04.91	352.81	8.18	-30.0	-33.9	11.5	6.78e-04	0	43	102	1048576	20	5624
2026-01-26 08:13:05.91	352.69	8.12	-30.2	-34.5	11.1	9.54e-04	0	44	102	1048576	20	5904
2026-01-26 08:13:06.91	352.58	8.06	-30.0	-33.7	11.6	1.85e-03	0	44	102	1048576	20	5553
2026-01-26 08:13:07.92	352.47	8.00	-30.1	-34.1	11.4	8.96e-04	0	44	102	1048576	20	5743
2026-01-26 08:13:08.92	352.36	7.94	-30.1	-34.3	11.1	1.11e-03	0	44	102	1048576	20	5834
2026-01-26 08:13:09.92	352.25	7.88	-30.1	-34.1	11.4	1.05e-03	0	44	102	1048576	20	5725
2026-01-26 08:13:10.93	352.14	7.82	-30.3	-35.0	10.7	1.40e-03	0	44	102	1048576	20	6156
2026-01-26 08:13:11.93	352.03	7.76	-30.3	-34.8	10.8	2.19e-03	0	44	102	1048576	20	6045
2026-01-26 08:13:12.94	351.92	7.70	-30.1	-34.3	11.1	1.57e-03	0	44	102	1048576	20	5826
2026-01-26 08:13:13.94	351.81	7.64	-30.3	-34.8	10.8	2.29e-03	0	44	102	1048576	20	6070
2026-01-26 08:13:14.94	351.70	7.58	-30.2	-34.6	10.9	2.32e-03	0	44	102	1048576	20	5962
2026-01-26 08:13:15.94	351.59	7.52	-30.2	-34.6	11.0	1.75e-03	0	44	102	1048576	20	5947
2026-01-26 08:13:16.95	351.48	7.46	-30.4	-35.3	10.4	2.66e-03	0	44	102	1048576	20	6317
2026-01-26 08:13:17.95	351.38	7.40	-30.3	-35.0	10.7	2.82e-03	0	44	102	1048576	20	6161
2026-01-26 08:13:18.95	351.27	7.34	-30.2	-34.7	10.9	3.10e-03	0	44	102	1048576	20	6011
2026-01-26 08:13:19.96	351.16	7.28	-30.2	-34.6	10.9	2.79e-03	0	44	102	1048576	20	5974
2026-01-26 08:13:20.96	351.06	7.22	-30.3	-34.8	10.7	2.75e-03	0	44	102	1048576	20	6084
2026-01-26 08:13:21.96	350.95	7.17	-30.2	-34.7	10.8	2.79e-03	0	44	102	1048576	20	6013
2026-01-26 08:13:22.96	350.85	7.11	-30.4	-35.4	10.3	3.58e-03	0	44	102	1048576	20	6344
2026-01-26 08:13:23.96	350.74	7.05	-32.5	-44.5	3.9	1.45e+00	0	44	104	1048576	24	14377
2026-01-26 08:13:24.97	350.64	6.99	-32.9	-47.2	3.8	1.49e+00	0	44	104	1048576	25	18692

#Closed at: 2026-01-26 08:13:25
#Recorded file [1 MB]: D:/data/31010_260126_110418.dat