passes_logs/2026/01/26/R2M6_AANII_01/R2M6_AANII_01__20260126_121437_NOAA_21_JPSS-2_rec.log

#Pass ID: 20260126_121437_NOAA 21 (JPSS-2)
#Satellite: NOAA 21 (JPSS-2)
#Configuration: NOAA 21
#almurnet v.1.7.20240730
#Start time: 2026-01-26 12:14:38

#Version: 2.2.20231116
#Station: R2M6_AANII_01
#Location: 30.233357 lon 59.946436 lat
#TLE: 1 54234U 22150A   26025.79694208  .00000182  00000+0  10700-3 0  9999
#TLE: 2 54234  98.7509 326.5666 0000777 213.2444 146.8684 14.19539347166346

#Time	Az	El	Level	Level2	SNR	BER	BlckErr	Temp	State	Recorded	gain1	gain2
2026-01-26 12:14:38.11	224.62	7.04	-30.0	-33.7	4.8	1.34e+00	0	43	0	0	21	5529
2026-01-26 12:14:39.11	224.74	7.09	-30.8	-36.6	4.5	1.41e+00	0	43	104	0	21	6966
2026-01-26 12:14:40.11	224.85	7.15	-30.7	-35.3	8.1	6.77e-02	0	43	0	0	21	6111
2026-01-26 12:14:41.11	224.96	7.21	-31.0	-35.8	7.4	1.09e-01	0	43	0	3145728	22	6281
2026-01-26 12:14:42.12	225.07	7.27	-30.7	-34.8	8.1	6.39e-02	0	43	0	6291456	22	5780
2026-01-26 12:14:43.12	225.19	7.32	-30.5	-34.1	8.6	3.65e-02	0	43	0	9437184	22	5450
2026-01-26 12:14:44.12	225.30	7.38	-30.2	-33.7	9.2	2.06e-02	0	43	0	12582912	21	5382
2026-01-26 12:14:45.13	225.42	7.44	-30.0	-33.1	9.7	1.28e-02	0	44	0	15728640	21	5104
2026-01-26 12:14:46.13	225.53	7.49	-29.8	-32.4	10.2	7.27e-03	0	43	0	18874368	21	4855
2026-01-26 12:14:47.13	225.65	7.55	-29.7	-32.7	10.4	5.55e-03	0	44	0	22020096	20	5064
2026-01-26 12:14:48.12	225.76	7.61	-29.7	-32.6	10.5	4.16e-03	0	44	0	24117248	20	5003
2026-01-26 12:14:49.12	225.87	7.66	-29.7	-32.6	10.5	4.00e-03	0	44	0	27262976	20	5001
2026-01-26 12:14:50.12	225.99	7.72	-29.3	-31.9	11.3	1.87e-03	0	44	0	30408704	19	4861
2026-01-26 12:14:51.11	226.11	7.78	-29.2	-31.6	11.6	6.85e-04	0	44	0	33554432	19	4745
2026-01-26 12:14:52.11	226.22	7.83	-29.1	-31.4	11.7	6.57e-04	0	44	0	36700160	19	4684
2026-01-26 12:14:53.11	226.34	7.89	-29.2	-31.7	11.5	5.57e-04	0	44	0	39845888	19	4787
2026-01-26 12:14:54.12	226.46	7.95	-29.4	-32.1	11.2	1.51e-03	0	44	0	42991616	19	4930
2026-01-26 12:14:55.12	226.58	8.01	-29.2	-31.6	11.6	6.75e-04	0	44	0	46137344	19	4734
2026-01-26 12:14:56.13	226.70	8.06	-28.9	-30.9	12.1	4.14e-04	0	44	0	49283072	19	4506
2026-01-26 12:14:57.13	226.82	8.12	-28.9	-30.8	12.1	2.46e-04	0	44	0	52428800	19	4482
2026-01-26 12:14:58.13	226.94	8.18	-28.8	-30.5	12.3	2.27e-04	0	44	0	55574528	19	4387
2026-01-26 12:14:59.14	227.06	8.24	-28.8	-31.1	12.2	2.30e-04	0	44	0	58720256	18	4677
2026-01-26 12:15:00.14	227.18	8.29	-28.8	-31.1	12.3	2.39e-04	0	44	0	61865984	18	4693
2026-01-26 12:15:01.14	227.30	8.35	-28.9	-31.2	12.2	1.89e-04	0	44	0	65011712	18	4715
2026-01-26 12:15:02.15	227.42	8.41	-29.0	-31.6	12.0	3.48e-04	0	44	0	68157440	18	4840
2026-01-26 12:15:03.15	227.55	8.47	-28.9	-31.2	12.2	2.24e-04	0	44	0	71303168	18	4709
2026-01-26 12:15:04.15	227.67	8.52	-28.8	-31.0	12.3	1.86e-04	0	44	0	74448896	18	4655
2026-01-26 12:15:05.15	227.79	8.58	-28.8	-31.0	12.3	1.46e-04	0	44	0	77594624	18	4660
2026-01-26 12:15:06.15	227.91	8.64	-28.9	-31.3	12.1	3.24e-04	0	44	0	80740352	18	4765
2026-01-26 12:15:07.15	228.04	8.69	-28.8	-31.0	12.4	1.53e-04	0	44	0	83886080	18	4663
2026-01-26 12:15:08.15	228.16	8.75	-28.8	-31.0	12.4	1.44e-04	0	44	0	87031808	18	4660
2026-01-26 12:15:09.15	228.29	8.81	-28.7	-30.8	12.5	1.29e-04	0	44	0	90177536	18	4578
2026-01-26 12:15:10.15	228.41	8.87	-28.9	-31.4	12.1	2.60e-04	0	44	0	93323264	18	4780
2026-01-26 12:15:11.15	228.54	8.92	-28.7	-30.7	12.6	1.04e-04	0	44	0	96468992	18	4546
2026-01-26 12:15:12.16	228.67	8.98	-28.6	-30.6	12.6	1.48e-04	0	44	0	99614720	18	4517
2026-01-26 12:15:13.16	228.79	9.04	-28.6	-30.6	12.6	1.19e-04	0	44	0	102760448	18	4526
2026-01-26 12:15:14.17	228.92	9.10	-28.5	-30.4	12.8	8.54e-05	0	44	0	105906176	18	4442
2026-01-26 12:15:15.17	229.05	9.16	-28.9	-31.2	12.3	1.56e-04	0	44	0	109051904	18	4716
2026-01-26 12:15:16.16	229.18	9.21	-28.6	-30.6	12.7	8.77e-05	0	44	0	112197632	18	4509
2026-01-26 12:15:17.16	229.30	9.27	-28.4	-30.1	13.0	5.49e-05	0	44	0	115343360	18	4365
2026-01-26 12:15:18.17	229.43	9.33	-28.5	-30.2	13.0	3.66e-05	0	44	0	118489088	18	4381
2026-01-26 12:15:19.17	229.56	9.39	-28.4	-30.4	13.1	2.97e-05	0	44	0	121634816	17	4558
2026-01-26 12:15:20.18	229.70	9.44	-28.4	-30.4	13.1	1.83e-05	0	44	0	124780544	17	4549
2026-01-26 12:15:21.18	229.83	9.50	-28.4	-30.4	13.1	2.97e-05	0	44	0	127926272	17	4560
2026-01-26 12:15:22.18	229.96	9.56	-28.3	-30.3	13.2	2.82e-05	0	44	0	131072000	17	4522
2026-01-26 12:15:23.18	230.09	9.62	-28.4	-30.4	13.1	3.20e-05	0	44	0	134217728	17	4568
2026-01-26 12:15:24.18	230.22	9.67	-28.5	-30.6	13.0	5.79e-05	0	44	0	137363456	17	4625
2026-01-26 12:15:25.18	230.35	9.73	-28.3	-30.3	13.1	2.89e-05	0	44	0	140509184	17	4526
2026-01-26 12:15:26.18	230.49	9.79	-28.2	-30.0	13.4	1.14e-05	0	44	0	143654912	17	4431
2026-01-26 12:15:27.17	230.62	9.85	-28.2	-30.1	13.3	2.44e-05	0	44	0	146800640	17	4468
2026-01-26 12:15:28.17	230.75	9.90	-28.2	-29.9	13.4	2.05e-05	0	44	0	149946368	17	4407
2026-01-26 12:15:29.17	230.89	9.96	-28.2	-30.0	13.4	1.44e-05	0	44	0	153092096	17	4428
2026-01-26 12:15:30.17	231.02	10.02	-28.3	-30.2	13.3	2.59e-05	0	44	0	156237824	17	4480
2026-01-26 12:15:31.16	231.16	10.08	-28.1	-29.8	13.5	9.90e-06	0	44	0	159383552	17	4383
2026-01-26 12:15:32.16	231.29	10.13	-28.1	-29.8	13.5	1.14e-05	0	44	0	162529280	17	4375
2026-01-26 12:15:33.16	231.43	10.19	-28.1	-29.8	13.5	1.37e-05	0	44	0	165675008	17	4372
2026-01-26 12:15:34.17	231.57	10.25	-28.2	-29.9	13.5	1.14e-05	0	44	0	168820736	17	4406
2026-01-26 12:15:35.18	231.71	10.31	-28.2	-30.0	13.4	1.14e-05	0	44	0	171966464	17	4421
2026-01-26 12:15:36.17	231.84	10.36	-28.2	-29.9	13.5	6.10e-06	0	44	0	175112192	17	4389
2026-01-26 12:15:37.17	231.98	10.42	-28.3	-30.2	13.3	2.44e-05	0	44	0	178257920	17	4487
2026-01-26 12:15:38.17	232.12	10.48	-28.2	-29.9	13.5	1.75e-05	0	44	0	181403648	17	4398
2026-01-26 12:15:39.17	232.26	10.54	-28.3	-30.2	13.3	1.14e-05	0	44	0	184549376	17	4493
2026-01-26 12:15:40.17	232.40	10.59	-28.3	-30.2	13.3	1.29e-05	0	44	0	187695104	17	4480
2026-01-26 12:15:41.17	232.54	10.65	-28.2	-30.0	13.4	1.06e-05	0	44	0	190840832	17	4425
2026-01-26 12:15:42.17	232.69	10.71	-28.2	-30.1	13.4	1.52e-05	0	44	0	193986560	17	4447
2026-01-26 12:15:43.17	232.83	10.77	-28.2	-30.0	13.4	1.37e-05	0	44	0	197132288	17	4432
2026-01-26 12:15:44.16	232.97	10.82	-28.4	-30.3	13.3	2.05e-05	0	44	0	200278016	17	4515
2026-01-26 12:15:45.16	233.11	10.88	-28.2	-30.0	13.5	1.44e-05	0	44	0	203423744	17	4425
2026-01-26 12:15:46.17	233.26	10.94	-28.2	-30.0	13.5	1.44e-05	0	44	0	205520896	17	4432
2026-01-26 12:15:47.17	233.40	10.99	-28.2	-30.0	13.5	1.44e-05	0	44	0	208666624	17	4432
2026-01-26 12:15:48.18	233.55	11.05	-28.4	-30.3	13.3	1.29e-05	0	44	0	211812352	17	4508
2026-01-26 12:15:49.19	233.69	11.11	-28.5	-30.6	13.1	2.21e-05	0	44	0	214958080	17	4609
2026-01-26 12:15:50.19	233.84	11.17	-28.4	-30.4	13.3	1.67e-05	0	44	0	218103808	17	4547
2026-01-26 12:15:51.19	233.99	11.22	-28.5	-30.6	13.1	3.43e-05	0	44	0	221249536	17	4610
2026-01-26 12:15:52.18	234.13	11.28	-28.5	-30.6	13.2	2.05e-05	0	44	0	224395264	17	4596
2026-01-26 12:15:53.19	234.28	11.34	-28.4	-30.5	13.2	2.36e-05	0	44	0	227540992	17	4584
2026-01-26 12:15:54.19	234.43	11.40	-28.5	-30.7	13.1	2.97e-05	0	44	0	230686720	17	4622
2026-01-26 12:15:55.19	234.58	11.45	-28.5	-30.6	13.2	2.28e-05	0	44	0	233832448	17	4597
2026-01-26 12:15:56.19	234.73	11.51	-28.5	-30.7	13.1	3.28e-05	0	44	0	236978176	17	4644
2026-01-26 12:15:57.19	234.88	11.57	-28.4	-30.3	13.3	2.28e-05	0	44	0	240123904	17	4521
2026-01-26 12:15:58.19	235.03	11.62	-28.1	-29.7	13.7	1.14e-05	0	44	0	243269632	17	4338
2026-01-26 12:15:59.19	235.18	11.68	-28.1	-29.8	13.7	6.10e-06	0	44	0	246415360	17	4342
2026-01-26 12:16:00.18	235.33	11.74	-28.2	-29.9	13.6	4.50e-06	0	44	0	249561088	17	4387
2026-01-26 12:16:01.18	235.48	11.79	-28.3	-30.2	13.4	1.22e-05	0	44	0	252706816	17	4467
2026-01-26 12:16:02.18	235.63	11.85	-28.4	-30.5	13.3	1.98e-05	0	44	0	255852544	17	4554
2026-01-26 12:16:03.18	235.78	11.91	-28.3	-30.2	13.5	1.83e-05	0	44	0	258998272	17	4466
2026-01-26 12:16:04.18	235.94	11.96	-28.3	-30.1	13.5	6.10e-06	0	44	0	262144000	17	4439
2026-01-26 12:16:05.19	236.09	12.02	-28.2	-30.0	13.6	7.60e-06	0	44	0	265289728	17	4413
2026-01-26 12:16:06.19	236.25	12.08	-28.2	-30.0	13.5	4.50e-06	0	44	0	268435456	17	4426
2026-01-26 12:16:07.19	236.40	12.13	-28.3	-30.2	13.5	1.14e-05	0	44	0	271581184	17	4473
2026-01-26 12:16:08.19	236.56	12.19	-28.5	-30.6	13.2	1.44e-05	0	44	0	274726912	17	4608
2026-01-26 12:16:09.19	236.72	12.25	-28.2	-30.0	13.6	8.30e-06	0	44	0	277872640	17	4416
2026-01-26 12:16:10.19	236.87	12.30	-28.1	-29.6	13.8	5.30e-06	0	44	0	281018368	17	4293
2026-01-26 12:16:11.19	237.03	12.36	-28.0	-29.5	13.9	4.50e-06	0	44	0	284164096	17	4258
2026-01-26 12:16:12.19	237.19	12.41	-28.0	-29.4	14.0	0.00e+00	0	44	0	287309824	17	4231
2026-01-26 12:16:13.19	237.35	12.47	-28.0	-29.6	13.9	3.80e-06	0	44	0	290455552	17	4280
2026-01-26 12:16:14.20	237.51	12.53	-28.0	-29.3	14.0	7.00e-07	0	44	0	293601280	17	4217
2026-01-26 12:16:15.20	237.67	12.58	-27.9	-29.2	14.1	1.50e-06	0	44	0	296747008	17	4188
2026-01-26 12:16:16.19	237.83	12.64	-27.9	-29.2	14.1	1.50e-06	0	44	0	299892736	17	4172
2026-01-26 12:16:17.19	237.99	12.69	-27.8	-29.0	14.2	0.00e+00	0	44	0	303038464	17	4131
2026-01-26 12:16:18.19	238.15	12.75	-27.9	-29.2	14.1	3.00e-06	0	44	0	306184192	17	4182
2026-01-26 12:16:19.19	238.31	12.80	-28.0	-29.5	13.9	3.00e-06	0	44	0	309329920	17	4264
2026-01-26 12:16:20.19	238.48	12.86	-28.0	-29.3	14.1	2.20e-06	0	44	0	312475648	17	4209
2026-01-26 12:16:21.20	238.64	12.92	-27.9	-29.2	14.1	1.50e-06	0	44	0	315621376	17	4184
2026-01-26 12:16:22.19	238.80	12.97	-28.0	-29.4	14.0	3.00e-06	0	44	0	318767104	17	4224
2026-01-26 12:16:23.19	238.97	13.03	-28.0	-29.4	14.0	3.00e-06	0	44	0	321912832	17	4237
2026-01-26 12:16:24.20	239.14	13.08	-28.1	-29.6	13.9	2.20e-06	0	44	0	325058560	17	4290
2026-01-26 12:16:25.20	239.30	13.14	-28.1	-29.6	13.9	1.50e-06	0	44	0	328204288	17	4282
2026-01-26 12:16:26.20	239.47	13.19	-28.1	-29.6	13.9	9.10e-06	0	44	0	331350016	17	4302
2026-01-26 12:16:27.20	239.64	13.25	-28.1	-29.7	13.9	3.00e-06	0	44	0	334495744	17	4310
2026-01-26 12:16:28.20	239.80	13.30	-28.1	-29.6	13.9	2.20e-06	0	44	0	337641472	17	4297
2026-01-26 12:16:29.20	239.97	13.36	-28.1	-29.6	13.9	2.20e-06	0	44	0	340787200	17	4292
2026-01-26 12:16:30.20	240.14	13.41	-28.2	-29.8	13.8	4.50e-06	0	44	0	343932928	17	4349
2026-01-26 12:16:31.20	240.31	13.46	-28.0	-29.5	14.0	1.50e-06	0	44	0	347078656	17	4261
2026-01-26 12:16:32.20	240.48	13.52	-27.9	-29.2	14.2	7.60e-06	0	44	0	350224384	17	4176
2026-01-26 12:16:33.19	240.65	13.57	-27.9	-29.3	14.1	2.20e-06	0	44	0	353370112	17	4193
2026-01-26 12:16:34.19	240.82	13.63	-27.8	-29.1	14.2	1.50e-06	0	44	0	356515840	17	4137
2026-01-26 12:16:35.19	240.99	13.68	-27.9	-29.2	14.2	4.50e-06	0	44	0	359661568	17	4179
2026-01-26 12:16:36.19	241.17	13.73	-27.9	-29.1	14.2	2.20e-06	0	44	0	362807296	17	4150
2026-01-26 12:16:37.18	241.34	13.79	-27.9	-29.6	14.3	1.50e-06	0	44	0	364904448	16	4384
2026-01-26 12:16:38.19	241.51	13.84	-27.9	-29.6	14.2	1.50e-06	0	44	0	368050176	16	4397
2026-01-26 12:16:39.19	241.69	13.90	-27.9	-29.8	14.2	0.00e+00	0	44	0	371195904	16	4434
2026-01-26 12:16:40.19	241.86	13.95	-28.0	-29.8	14.1	7.00e-07	0	44	0	374341632	16	4446
2026-01-26 12:16:41.20	242.04	14.00	-27.8	-29.5	14.3	2.20e-06	0	44	0	377487360	16	4357
2026-01-26 12:16:42.20	242.22	14.06	-27.7	-29.2	14.5	7.00e-07	0	44	0	380633088	16	4276
2026-01-26 12:16:43.21	242.39	14.11	-27.8	-29.4	14.4	7.00e-07	0	44	0	384827392	16	4341
2026-01-26 12:16:44.21	242.57	14.16	-27.9	-29.6	14.3	2.20e-06	0	44	0	387973120	16	4386
2026-01-26 12:16:45.21	242.75	14.21	-27.9	-29.7	14.2	2.20e-06	0	44	0	390070272	16	4416
2026-01-26 12:16:46.21	242.93	14.27	-28.1	-30.2	14.0	5.30e-06	0	44	0	393216000	16	4560
2026-01-26 12:16:47.22	243.11	14.32	-27.9	-29.8	14.2	1.50e-06	0	44	0	396361728	16	4437
2026-01-26 12:16:48.22	243.29	14.37	-27.9	-29.6	14.3	0.00e+00	0	44	0	399507456	16	4386
2026-01-26 12:16:49.23	243.47	14.43	-27.9	-29.7	14.2	2.20e-06	0	44	0	402653184	16	4407
2026-01-26 12:16:50.23	243.65	14.48	-27.9	-29.6	14.3	0.00e+00	0	44	0	405798912	16	4376
2026-01-26 12:16:51.23	243.84	14.53	-27.9	-29.7	14.2	7.00e-07	0	44	0	408944640	16	4422
2026-01-26 12:16:52.24	244.02	14.58	-27.9	-29.8	14.2	1.50e-06	0	44	0	412090368	16	4432
2026-01-26 12:16:53.25	244.20	14.63	-28.0	-29.8	14.2	7.00e-07	0	44	0	415236096	16	4458
2026-01-26 12:16:54.26	244.39	14.68	-28.0	-29.9	14.1	1.50e-06	0	44	0	418381824	16	4484
2026-01-26 12:16:55.26	244.57	14.74	-28.0	-29.9	14.1	3.80e-06	0	44	0	421527552	16	4484
2026-01-26 12:16:56.26	244.76	14.79	-28.0	-30.0	14.1	3.00e-06	0	44	0	424673280	16	4503
2026-01-26 12:16:57.27	244.95	14.84	-28.0	-29.9	14.1	7.00e-07	0	44	0	427819008	16	4483
2026-01-26 12:16:58.27	245.13	14.89	-28.1	-30.1	14.0	1.50e-06	0	44	0	430964736	16	4522
2026-01-26 12:16:59.28	245.32	14.94	-27.9	-29.6	14.3	2.20e-06	0	44	0	434110464	16	4398
2026-01-26 12:17:00.28	245.51	14.99	-27.8	-29.3	14.5	7.00e-07	0	44	0	437256192	16	4291
2026-01-26 12:17:01.28	245.70	15.04	-27.7	-29.2	14.6	0.00e+00	0	44	0	440401920	16	4271
2026-01-26 12:17:02.28	245.89	15.09	-27.8	-29.5	14.4	7.00e-07	0	44	0	443547648	16	4342
2026-01-26 12:17:03.28	246.07	15.14	-27.8	-29.4	14.4	0.00e+00	0	44	0	446693376	16	4337
2026-01-26 12:17:04.29	246.27	15.19	-27.8	-29.4	14.5	1.50e-06	0	44	0	449839104	16	4328
2026-01-26 12:17:05.29	246.46	15.24	-27.8	-29.5	14.4	7.00e-07	0	44	0	452984832	16	4359
2026-01-26 12:17:06.29	246.65	15.29	-28.0	-29.8	14.3	0.00e+00	0	44	0	456130560	16	4444
2026-01-26 12:17:07.30	246.84	15.34	-28.0	-29.8	14.2	1.50e-06	0	44	0	459276288	16	4446
2026-01-26 12:17:08.29	247.03	15.39	-27.9	-29.6	14.4	7.00e-07	0	44	0	462422016	16	4376
2026-01-26 12:17:09.29	247.22	15.43	-27.9	-29.7	14.3	1.50e-06	0	44	0	465567744	16	4426
2026-01-26 12:17:10.29	247.42	15.48	-28.0	-29.9	14.2	7.00e-07	0	44	0	468713472	16	4470
2026-01-26 12:17:11.29	247.61	15.53	-27.9	-29.5	14.4	0.00e+00	0	44	0	471859200	16	4361
2026-01-26 12:17:12.29	247.81	15.58	-28.0	-29.8	14.3	1.50e-06	0	44	0	475004928	16	4436
2026-01-26 12:17:13.29	248.00	15.63	-28.0	-29.8	14.2	7.00e-07	0	44	0	478150656	16	4451
2026-01-26 12:17:14.29	248.20	15.67	-27.8	-29.4	14.5	7.00e-07	0	44	0	481296384	16	4314
2026-01-26 12:17:15.29	248.39	15.72	-27.7	-29.0	14.7	0.00e+00	0	44	0	484442112	16	4228
2026-01-26 12:17:16.30	248.59	15.77	-27.7	-29.1	14.7	0.00e+00	0	44	0	487587840	16	4231
2026-01-26 12:17:17.30	248.79	15.82	-27.7	-29.1	14.6	0.00e+00	0	44	0	490733568	16	4248
2026-01-26 12:17:18.30	248.99	15.86	-27.7	-29.0	14.7	1.50e-06	0	44	0	493879296	16	4219
2026-01-26 12:17:19.31	249.19	15.91	-27.7	-29.2	14.7	0.00e+00	0	44	0	497025024	16	4259
2026-01-26 12:17:20.30	249.39	15.95	-27.8	-29.3	14.6	0.00e+00	0	44	0	500170752	16	4283
2026-01-26 12:17:21.31	249.59	16.00	-27.9	-29.5	14.5	2.20e-06	0	44	0	503316480	16	4365
2026-01-26 12:17:22.31	249.79	16.05	-27.8	-29.4	14.5	2.20e-06	0	44	0	506462208	16	4335
2026-01-26 12:17:23.32	249.99	16.09	-27.9	-29.5	14.4	0.00e+00	0	44	0	509607936	16	4371
2026-01-26 12:17:24.32	250.19	16.14	-27.8	-29.5	14.5	0.00e+00	0	44	0	512753664	16	4341
2026-01-26 12:17:25.32	250.40	16.18	-27.8	-29.4	14.5	7.00e-07	0	44	0	515899392	16	4327
2026-01-26 12:17:26.32	250.60	16.23	-27.9	-29.5	14.5	7.00e-07	0	44	0	519045120	16	4356
2026-01-26 12:17:27.32	250.80	16.27	-27.8	-29.4	14.5	7.00e-07	0	44	0	522190848	16	4331
2026-01-26 12:17:28.32	251.01	16.31	-27.6	-28.8	14.9	0.00e+00	0	44	0	525336576	16	4158
2026-01-26 12:17:29.33	251.21	16.36	-27.4	-28.3	15.2	0.00e+00	0	44	0	528482304	16	4033
2026-01-26 12:17:30.33	251.42	16.40	-27.4	-28.4	15.1	0.00e+00	0	44	0	531628032	16	4050
2026-01-26 12:17:31.33	251.63	16.45	-27.5	-28.6	15.0	0.00e+00	0	44	0	534773760	16	4113
2026-01-26 12:17:32.33	251.83	16.49	-27.5	-28.6	15.0	0.00e+00	0	44	0	537919488	16	4105
2026-01-26 12:17:33.33	252.04	16.53	-27.6	-28.8	14.9	0.00e+00	0	44	0	541065216	16	4166
2026-01-26 12:17:34.32	252.25	16.57	-27.7	-29.2	14.7	0.00e+00	0	44	0	544210944	16	4264
2026-01-26 12:17:35.32	252.45	16.62	-27.7	-29.3	14.7	0.00e+00	0	44	0	547356672	16	4286
2026-01-26 12:17:36.32	252.66	16.66	-27.7	-29.2	14.7	7.00e-07	0	44	0	550502400	16	4278
2026-01-26 12:17:37.32	252.87	16.70	-27.6	-29.0	14.8	7.00e-07	0	44	0	553648128	16	4219
2026-01-26 12:17:38.32	253.08	16.74	-27.6	-29.0	14.8	0.00e+00	0	44	0	556793856	16	4207
2026-01-26 12:17:39.32	253.29	16.78	-27.6	-29.0	14.8	0.00e+00	0	44	0	559939584	16	4198
2026-01-26 12:17:40.32	253.50	16.82	-27.6	-29.0	14.9	9.90e-06	0	44	0	563085312	16	4200
2026-01-26 12:17:41.32	253.71	16.86	-27.4	-28.5	15.1	0.00e+00	0	44	0	566231040	16	4079
2026-01-26 12:17:42.33	253.93	16.90	-27.4	-28.4	15.2	0.00e+00	0	44	0	569376768	16	4034
2026-01-26 12:17:43.33	254.14	16.94	-27.4	-28.6	15.1	7.00e-07	0	44	0	572522496	16	4088
2026-01-26 12:17:44.34	254.36	16.98	-27.4	-28.5	15.1	0.00e+00	0	44	0	575668224	16	4083
2026-01-26 12:17:45.34	254.57	17.02	-27.6	-28.8	15.0	0.00e+00	0	44	0	578813952	16	4160
2026-01-26 12:17:46.34	254.78	17.06	-27.6	-28.9	14.9	9.90e-06	0	44	0	581959680	16	4179
2026-01-26 12:17:47.34	255.00	17.10	-27.7	-29.0	14.8	0.00e+00	0	44	0	585105408	16	4214
2026-01-26 12:17:48.35	255.22	17.14	-27.5	-28.7	15.0	0.00e+00	0	44	0	588251136	16	4116
2026-01-26 12:17:49.35	255.43	17.17	-27.5	-28.6	15.1	1.06e-05	0	44	0	591396864	16	4092
2026-01-26 12:17:50.35	255.65	17.21	-27.5	-28.8	15.0	7.00e-07	0	44	0	593494016	16	4143
2026-01-26 12:17:51.36	255.87	17.25	-27.6	-28.8	14.9	0.00e+00	0	44	0	597688320	16	4153
2026-01-26 12:17:52.36	256.08	17.29	-27.5	-28.6	15.0	0.00e+00	0	44	0	600834048	16	4116
2026-01-26 12:17:53.36	256.30	17.32	-27.5	-28.7	15.0	0.00e+00	0	44	0	603979776	16	4133
2026-01-26 12:17:54.37	256.52	17.36	-27.5	-28.7	15.0	0.00e+00	0	44	0	607125504	16	4123
2026-01-26 12:17:55.38	256.74	17.39	-27.3	-28.3	15.2	9.90e-06	0	44	0	610271232	16	4013
2026-01-26 12:17:56.38	256.96	17.43	-27.2	-28.4	15.3	0.00e+00	0	44	0	613416960	15	4166
2026-01-26 12:17:57.37	257.18	17.46	-27.2	-28.4	15.3	0.00e+00	0	44	0	616562688	15	4159
2026-01-26 12:17:58.37	257.40	17.50	-27.1	-28.3	15.3	0.00e+00	0	44	0	618659840	15	4137
2026-01-26 12:17:59.38	257.62	17.53	-27.1	-28.4	15.3	0.00e+00	0	44	0	621805568	15	4147
2026-01-26 12:18:00.37	257.84	17.57	-27.1	-28.3	15.4	0.00e+00	0	44	0	624951296	15	4123
2026-01-26 12:18:01.37	258.07	17.60	-27.1	-28.2	15.4	0.00e+00	0	44	0	628097024	15	4114
2026-01-26 12:18:02.37	258.29	17.63	-27.2	-28.4	15.3	0.00e+00	0	44	0	631242752	15	4173
2026-01-26 12:18:03.38	258.51	17.67	-27.1	-28.3	15.3	0.00e+00	0	44	0	634388480	15	4134
2026-01-26 12:18:04.38	258.74	17.70	-27.1	-28.3	15.3	1.22e-05	0	44	0	637534208	15	4135
2026-01-26 12:18:05.38	258.96	17.73	-27.2	-28.5	15.3	0.00e+00	0	44	0	640679936	15	4176
2026-01-26 12:18:06.39	259.19	17.76	-27.3	-28.8	15.1	0.00e+00	0	44	0	643825664	15	4270
2026-01-26 12:18:07.39	259.41	17.80	-27.4	-28.9	15.0	0.00e+00	0	44	0	646971392	15	4310
2026-01-26 12:18:08.39	259.64	17.83	-27.2	-28.4	15.3	0.00e+00	0	44	0	650117120	15	4162
2026-01-26 12:18:09.39	259.86	17.86	-27.0	-28.0	15.5	7.00e-07	0	44	0	653262848	15	4061
2026-01-26 12:18:10.38	260.09	17.89	-26.9	-27.8	15.7	0.00e+00	0	44	0	656408576	15	3992
2026-01-26 12:18:11.37	260.31	17.92	-26.8	-27.6	15.8	0.00e+00	0	44	0	659554304	15	3943
2026-01-26 12:18:12.37	260.54	17.95	-26.8	-28.2	15.7	0.00e+00	0	44	0	662700032	14	4198
2026-01-26 12:18:13.37	260.76	17.97	-26.8	-28.2	15.7	0.00e+00	0	44	0	665845760	14	4203
2026-01-26 12:18:14.37	260.99	18.00	-26.8	-28.1	15.7	0.00e+00	0	44	0	668991488	14	4192
2026-01-26 12:18:15.37	261.22	18.03	-26.9	-28.3	15.7	0.00e+00	0	44	0	672137216	14	4234
2026-01-26 12:18:16.38	261.45	18.06	-26.9	-28.4	15.6	7.00e-07	0	44	0	675282944	14	4261
2026-01-26 12:18:17.38	261.68	18.09	-26.8	-28.2	15.7	0.00e+00	0	44	0	678428672	14	4204
2026-01-26 12:18:18.39	261.91	18.11	-26.8	-28.2	15.7	0.00e+00	0	44	0	681574400	14	4214
2026-01-26 12:18:19.39	262.14	18.14	-26.8	-28.2	15.8	0.00e+00	0	44	0	684720128	14	4198
2026-01-26 12:18:20.40	262.37	18.17	-26.8	-28.2	15.7	0.00e+00	0	44	0	687865856	14	4198
2026-01-26 12:18:21.40	262.60	18.19	-26.8	-28.0	15.8	0.00e+00	0	44	0	691011584	14	4163
2026-01-26 12:18:22.40	262.83	18.22	-26.8	-28.0	15.8	0.00e+00	0	44	0	694157312	14	4168
2026-01-26 12:18:23.41	263.07	18.24	-26.8	-28.1	15.8	0.00e+00	0	44	0	697303040	14	4170
2026-01-26 12:18:24.41	263.30	18.27	-26.8	-28.2	15.7	0.00e+00	0	44	0	700448768	14	4212
2026-01-26 12:18:25.41	263.53	18.29	-26.9	-28.2	15.7	0.00e+00	0	44	0	703594496	14	4216
2026-01-26 12:18:26.41	263.76	18.31	-27.0	-28.5	15.6	0.00e+00	0	44	0	706740224	14	4281
2026-01-26 12:18:27.42	264.00	18.34	-26.9	-28.4	15.6	0.00e+00	0	44	0	709885952	14	4270
2026-01-26 12:18:28.42	264.23	18.36	-26.9	-28.4	15.6	0.00e+00	0	44	0	713031680	14	4260
2026-01-26 12:18:29.42	264.46	18.38	-26.9	-28.4	15.7	0.00e+00	0	44	0	716177408	14	4250
2026-01-26 12:18:30.42	264.70	18.40	-26.8	-28.0	15.8	0.00e+00	0	44	0	719323136	14	4158
2026-01-26 12:18:31.42	264.93	18.43	-26.7	-27.9	15.9	0.00e+00	0	44	0	722468864	14	4123
2026-01-26 12:18:32.42	265.16	18.45	-26.8	-28.1	15.8	0.00e+00	0	44	0	725614592	14	4172
2026-01-26 12:18:33.42	265.40	18.47	-26.8	-28.1	15.8	0.00e+00	0	44	0	728760320	14	4184
2026-01-26 12:18:34.42	265.63	18.49	-26.8	-28.2	15.8	0.00e+00	0	44	0	731906048	14	4196
2026-01-26 12:18:35.42	265.87	18.51	-26.8	-28.1	15.9	0.00e+00	0	44	0	735051776	14	4175
2026-01-26 12:18:36.42	266.10	18.53	-26.8	-28.0	15.8	0.00e+00	0	44	0	738197504	14	4154
2026-01-26 12:18:37.42	266.34	18.54	-26.8	-28.1	15.8	0.00e+00	0	44	0	741343232	14	4169
2026-01-26 12:18:38.41	266.57	18.56	-26.8	-28.2	15.8	0.00e+00	0	44	0	744488960	14	4205
2026-01-26 12:18:39.42	266.81	18.58	-26.7	-27.9	15.9	0.00e+00	0	44	0	747634688	14	4130
2026-01-26 12:18:40.42	267.05	18.60	-26.8	-28.1	15.8	0.00e+00	0	44	0	750780416	14	4177
2026-01-26 12:18:41.43	267.29	18.61	-26.9	-28.3	15.7	0.00e+00	0	44	0	753926144	14	4231
2026-01-26 12:18:42.43	267.52	18.63	-26.9	-28.4	15.6	0.00e+00	0	44	0	757071872	14	4269
2026-01-26 12:18:43.43	267.76	18.65	-27.0	-28.6	15.5	0.00e+00	0	44	0	760217600	14	4312
2026-01-26 12:18:44.42	268.00	18.66	-27.1	-28.8	15.4	0.00e+00	0	44	0	763363328	14	4368
2026-01-26 12:18:45.43	268.24	18.68	-27.1	-28.8	15.4	0.00e+00	0	44	0	766509056	14	4363
2026-01-26 12:18:46.43	268.47	18.69	-27.1	-28.8	15.4	0.00e+00	0	44	0	769654784	14	4378
2026-01-26 12:18:47.42	268.71	18.70	-27.1	-28.8	15.4	0.00e+00	0	45	0	772800512	14	4382
2026-01-26 12:18:48.42	268.95	18.72	-27.1	-28.8	15.4	0.00e+00	0	44	0	775946240	14	4364
2026-01-26 12:18:49.43	269.19	18.73	-27.1	-28.7	15.5	0.00e+00	0	44	0	779091968	14	4349
2026-01-26 12:18:50.42	269.43	18.74	-27.0	-28.7	15.5	0.00e+00	0	44	0	782237696	14	4329
2026-01-26 12:18:51.43	269.67	18.76	-27.2	-28.9	15.4	0.00e+00	0	44	0	785383424	14	4404
2026-01-26 12:18:52.43	269.91	18.77	-27.2	-29.1	15.3	0.00e+00	0	44	0	788529152	14	4447
2026-01-26 12:18:53.44	270.15	18.78	-27.2	-29.0	15.3	0.00e+00	0	44	0	791674880	14	4436
2026-01-26 12:18:54.44	270.39	18.79	-27.3	-29.3	15.1	0.00e+00	0	44	0	794820608	14	4521
2026-01-26 12:18:55.45	270.63	18.80	-27.4	-29.5	15.0	7.00e-07	0	44	0	797966336	14	4572
2026-01-26 12:18:56.45	270.87	18.81	-27.4	-29.4	15.1	0.00e+00	0	44	0	800063488	14	4549
2026-01-26 12:18:57.44	271.11	18.82	-27.4	-29.4	15.1	0.00e+00	0	44	0	803209216	14	4538
2026-01-26 12:18:58.45	271.35	18.83	-27.4	-29.5	15.0	0.00e+00	0	44	0	806354944	14	4572
2026-01-26 12:18:59.45	271.59	18.84	-27.4	-29.4	15.1	0.00e+00	0	44	0	809500672	14	4550
2026-01-26 12:19:00.44	271.83	18.84	-27.4	-29.4	15.1	0.00e+00	0	44	0	812646400	14	4557
2026-01-26 12:19:01.44	272.07	18.85	-27.4	-29.6	15.0	0.00e+00	0	44	0	815792128	14	4598
2026-01-26 12:19:02.45	272.31	18.86	-27.4	-29.0	15.0	0.00e+00	0	44	0	818937856	15	4328
2026-01-26 12:19:03.44	272.55	18.86	-27.2	-28.5	15.3	5.30e-06	0	44	0	822083584	15	4181
2026-01-26 12:19:04.44	272.79	18.87	-27.1	-28.3	15.4	0.00e+00	0	45	0	825229312	15	4124
2026-01-26 12:19:05.44	273.03	18.87	-27.1	-28.3	15.4	0.00e+00	0	44	0	828375040	15	4136
2026-01-26 12:19:06.43	273.27	18.88	-27.2	-28.5	15.3	7.00e-07	0	44	0	831520768	15	4192
2026-01-26 12:19:07.43	273.51	18.88	-27.2	-28.6	15.3	7.00e-07	0	44	0	834666496	15	4197
2026-01-26 12:19:08.43	273.75	18.89	-27.3	-28.7	15.2	0.00e+00	0	44	0	837812224	15	4233
2026-01-26 12:19:09.44	273.99	18.89	-27.3	-28.7	15.2	7.60e-06	0	44	0	840957952	15	4240
2026-01-26 12:19:10.44	274.23	18.89	-27.3	-28.7	15.2	0.00e+00	0	44	0	844103680	15	4229
2026-01-26 12:19:11.44	274.47	18.89	-27.2	-28.4	15.4	0.00e+00	0	44	0	847249408	15	4152
2026-01-26 12:19:12.45	274.72	18.90	-27.1	-28.3	15.5	3.00e-06	0	44	0	850395136	15	4127
2026-01-26 12:19:13.45	274.96	18.90	-27.1	-28.3	15.4	0.00e+00	0	44	0	853540864	15	4133
2026-01-26 12:19:14.45	275.20	18.90	-27.1	-28.2	15.5	0.00e+00	0	44	0	856686592	15	4110
2026-01-26 12:19:15.44	275.44	18.90	-27.2	-28.4	15.4	7.00e-07	0	44	0	859832320	15	4159
2026-01-26 12:19:16.45	275.68	18.90	-27.2	-28.6	15.3	0.00e+00	0	44	0	862978048	15	4196
2026-01-26 12:19:17.44	275.92	18.90	-27.2	-28.5	15.3	0.00e+00	0	44	0	866123776	15	4190
2026-01-26 12:19:18.44	276.16	18.90	-27.2	-28.5	15.3	5.30e-06	0	44	0	869269504	15	4175
2026-01-26 12:19:19.44	276.40	18.90	-27.2	-28.6	15.3	7.00e-07	0	44	0	872415232	15	4199
2026-01-26 12:19:20.44	276.64	18.89	-27.2	-28.6	15.3	0.00e+00	0	44	0	875560960	15	4198
2026-01-26 12:19:21.44	276.88	18.89	-27.1	-28.2	15.5	3.80e-06	0	44	0	878706688	15	4089
2026-01-26 12:19:22.44	277.12	18.89	-27.1	-28.3	15.5	0.00e+00	0	44	0	881852416	15	4138
2026-01-26 12:19:23.44	277.36	18.88	-27.1	-28.2	15.5	0.00e+00	0	44	0	884998144	15	4096
2026-01-26 12:19:24.44	277.60	18.88	-27.1	-28.3	15.5	0.00e+00	0	44	0	888143872	15	4125
2026-01-26 12:19:25.44	277.85	18.87	-27.1	-28.3	15.5	0.00e+00	0	44	0	891289600	15	4124
2026-01-26 12:19:26.45	278.09	18.87	-27.0	-28.1	15.6	0.00e+00	0	44	0	894435328	15	4062
2026-01-26 12:19:27.45	278.33	18.86	-27.0	-27.9	15.6	1.50e-06	0	44	0	897581056	15	4029
2026-01-26 12:19:28.44	278.57	18.86	-27.0	-28.0	15.6	0.00e+00	0	44	0	900726784	15	4052
2026-01-26 12:19:29.44	278.81	18.85	-27.0	-28.1	15.5	0.00e+00	0	44	0	903872512	15	4080
2026-01-26 12:19:30.45	279.05	18.84	-27.1	-28.3	15.4	0.00e+00	0	44	0	907018240	15	4136
2026-01-26 12:19:31.45	279.29	18.84	-27.2	-28.6	15.3	0.00e+00	0	44	0	910163968	15	4198
2026-01-26 12:19:32.45	279.53	18.83	-27.2	-28.5	15.3	0.00e+00	0	44	0	913309696	15	4188
2026-01-26 12:19:33.45	279.77	18.82	-27.2	-28.4	15.4	0.00e+00	0	44	0	916455424	15	4168
2026-01-26 12:19:34.46	280.01	18.81	-27.1	-28.3	15.5	0.00e+00	0	44	0	919601152	15	4130
2026-01-26 12:19:35.47	280.25	18.80	-27.1	-28.3	15.5	0.00e+00	0	44	0	922746880	15	4121
2026-01-26 12:19:36.46	280.49	18.79	-27.2	-28.5	15.4	0.00e+00	0	44	0	925892608	15	4174
2026-01-26 12:19:37.46	280.73	18.78	-27.2	-28.6	15.3	0.00e+00	0	44	0	929038336	15	4209
2026-01-26 12:19:38.46	280.97	18.77	-27.3	-28.8	15.2	0.00e+00	0	44	0	932184064	15	4261
2026-01-26 12:19:39.46	281.21	18.76	-27.3	-28.7	15.2	0.00e+00	0	44	0	935329792	15	4234
2026-01-26 12:19:40.47	281.45	18.75	-27.3	-28.8	15.2	0.00e+00	0	44	0	938475520	15	4261
2026-01-26 12:19:41.48	281.69	18.73	-27.3	-28.6	15.3	0.00e+00	0	44	0	941621248	15	4222
2026-01-26 12:19:42.48	281.93	18.72	-27.1	-28.4	15.5	0.00e+00	0	44	0	944766976	15	4142
2026-01-26 12:19:43.50	282.17	18.71	-27.1	-28.2	15.6	0.00e+00	0	44	0	947912704	15	4090
2026-01-26 12:19:44.50	282.41	18.69	-27.1	-28.2	15.5	7.00e-07	0	44	0	951058432	15	4104
2026-01-26 12:19:45.50	282.64	18.68	-27.3	-28.6	15.2	0.00e+00	0	44	0	954204160	15	4209
2026-01-26 12:19:46.51	282.88	18.66	-27.3	-28.6	15.2	0.00e+00	0	44	0	957349888	15	4216
2026-01-26 12:19:47.51	283.12	18.65	-27.2	-28.4	15.3	0.00e+00	0	44	0	960495616	15	4164
2026-01-26 12:19:48.51	283.36	18.63	-27.1	-28.4	15.4	0.00e+00	0	44	0	963641344	15	4144
2026-01-26 12:19:49.51	283.59	18.62	-27.2	-28.4	15.4	0.00e+00	0	44	0	966787072	15	4151
2026-01-26 12:19:50.52	283.83	18.60	-27.1	-28.3	15.5	0.00e+00	0	44	0	969932800	15	4125
2026-01-26 12:19:51.52	284.07	18.58	-27.0	-27.9	15.7	0.00e+00	0	44	0	973078528	15	4027
2026-01-26 12:19:52.52	284.31	18.57	-27.0	-28.1	15.5	0.00e+00	0	44	0	976224256	15	4076
2026-01-26 12:19:53.52	284.54	18.55	-27.3	-28.6	15.3	0.00e+00	0	44	0	979369984	15	4218
2026-01-26 12:19:54.52	284.78	18.53	-27.4	-28.8	15.1	0.00e+00	0	44	0	982515712	15	4273
2026-01-26 12:19:55.52	285.01	18.51	-27.5	-29.2	15.0	0.00e+00	0	44	0	985661440	15	4363
2026-01-26 12:19:56.52	285.25	18.49	-27.5	-29.1	15.0	0.00e+00	0	44	0	988807168	15	4359
2026-01-26 12:19:57.53	285.48	18.47	-27.3	-28.7	15.2	0.00e+00	0	44	0	991952896	15	4230
2026-01-26 12:19:58.54	285.72	18.45	-27.2	-28.5	15.4	0.00e+00	0	44	0	995098624	15	4171
2026-01-26 12:19:59.54	285.95	18.43	-27.2	-28.5	15.3	7.00e-07	0	44	0	998244352	15	4189
2026-01-26 12:20:00.55	286.19	18.41	-27.2	-28.5	15.3	0.00e+00	0	44	0	1001390080	15	4178
2026-01-26 12:20:01.55	286.42	18.39	-27.0	-28.0	15.6	0.00e+00	0	44	0	1004535808	15	4046
2026-01-26 12:20:02.56	286.66	18.36	-26.9	-27.8	15.7	0.00e+00	0	44	0	1007681536	15	3997
2026-01-26 12:20:03.56	286.89	18.34	-26.9	-27.8	15.7	0.00e+00	0	44	0	1010827264	15	3999
2026-01-26 12:20:04.56	287.12	18.32	-26.8	-27.7	15.8	0.00e+00	0	44	0	1013972992	15	3963
2026-01-26 12:20:05.57	287.36	18.29	-26.8	-27.5	15.8	0.00e+00	0	44	0	1017118720	15	3919
2026-01-26 12:20:06.57	287.59	18.27	-26.7	-28.0	15.9	0.00e+00	0	44	0	1020264448	14	4142
2026-01-26 12:20:07.57	287.82	18.25	-26.8	-28.1	15.8	0.00e+00	0	44	0	1023410176	14	4179
2026-01-26 12:20:08.57	288.05	18.22	-26.9	-28.4	15.7	0.00e+00	0	44	0	1026555904	14	4253
2026-01-26 12:20:09.57	288.28	18.20	-26.9	-28.3	15.7	0.00e+00	0	44	0	1028653056	14	4244
2026-01-26 12:20:10.57	288.51	18.17	-26.9	-28.4	15.7	0.00e+00	0	44	0	1031798784	14	4255
2026-01-26 12:20:11.57	288.74	18.15	-27.0	-28.5	15.6	0.00e+00	0	44	0	1034944512	14	4275
2026-01-26 12:20:12.57	288.97	18.12	-26.9	-28.3	15.7	0.00e+00	0	44	0	1038090240	14	4226
2026-01-26 12:20:13.57	289.20	18.09	-26.7	-27.9	15.9	0.00e+00	0	44	0	1041235968	14	4134
2026-01-26 12:20:14.58	289.43	18.06	-26.8	-28.2	15.8	0.00e+00	0	44	0	1044381696	14	4197
2026-01-26 12:20:15.58	289.65	18.04	-26.8	-28.2	15.8	0.00e+00	0	44	0	1047527424	14	4191
2026-01-26 12:20:16.58	289.88	18.01	-26.8	-28.1	15.8	0.00e+00	0	45	0	1050673152	14	4183
2026-01-26 12:20:17.58	290.11	17.98	-26.9	-28.2	15.7	0.00e+00	0	44	0	1053818880	14	4216
2026-01-26 12:20:18.58	290.33	17.95	-26.8	-28.2	15.8	0.00e+00	0	44	0	1056964608	14	4202
2026-01-26 12:20:19.58	290.56	17.92	-27.0	-28.4	15.6	0.00e+00	0	44	0	1060110336	14	4262
2026-01-26 12:20:20.59	290.79	17.89	-26.9	-28.3	15.7	0.00e+00	0	44	0	1063256064	14	4231
2026-01-26 12:20:21.59	291.01	17.86	-26.9	-28.2	15.7	0.00e+00	0	44	0	1066401792	14	4213
2026-01-26 12:20:22.60	291.24	17.83	-27.0	-28.4	15.6	0.00e+00	0	44	0	1069547520	14	4268
2026-01-26 12:20:23.60	291.47	17.80	-27.0	-28.4	15.6	0.00e+00	0	44	0	1072693248	14	4261
2026-01-26 12:20:24.59	291.69	17.77	-26.9	-28.4	15.6	0.00e+00	0	44	0	1075838976	14	4261
2026-01-26 12:20:25.59	291.91	17.74	-27.1	-28.8	15.4	0.00e+00	0	44	0	1078984704	14	4382
2026-01-26 12:20:26.59	292.13	17.71	-27.2	-29.0	15.3	0.00e+00	0	44	0	1082130432	14	4431
2026-01-26 12:20:27.59	292.36	17.68	-27.2	-29.1	15.2	0.00e+00	0	44	0	1085276160	14	4465
2026-01-26 12:20:28.60	292.58	17.64	-27.1	-28.8	15.4	0.00e+00	0	44	0	1088421888	14	4366
2026-01-26 12:20:29.60	292.80	17.61	-27.0	-28.5	15.6	0.00e+00	0	44	0	1091567616	14	4274
2026-01-26 12:20:30.60	293.02	17.58	-27.0	-28.5	15.6	0.00e+00	0	44	0	1094713344	14	4285
2026-01-26 12:20:31.60	293.24	17.54	-27.0	-28.6	15.6	0.00e+00	0	44	0	1097859072	14	4304
2026-01-26 12:20:32.61	293.47	17.51	-26.9	-28.4	15.6	0.00e+00	0	44	0	1101004800	14	4258
2026-01-26 12:20:33.60	293.68	17.47	-27.0	-28.5	15.5	0.00e+00	0	45	0	1104150528	14	4299
2026-01-26 12:20:34.61	293.91	17.44	-27.0	-28.5	15.6	0.00e+00	0	44	0	1107296256	14	4276
2026-01-26 12:20:35.61	294.12	17.40	-26.9	-28.3	15.7	1.50e-06	0	44	0	1110441984	14	4227
2026-01-26 12:20:36.62	294.35	17.37	-26.8	-28.2	15.8	0.00e+00	0	44	0	1113587712	14	4206
2026-01-26 12:20:37.62	294.56	17.33	-26.9	-28.3	15.7	0.00e+00	0	44	0	1116733440	14	4226
2026-01-26 12:20:38.62	294.78	17.30	-27.0	-28.4	15.6	3.00e-06	0	44	0	1119879168	14	4270
2026-01-26 12:20:39.63	295.00	17.26	-27.0	-28.5	15.6	0.00e+00	0	45	0	1123024896	14	4275
2026-01-26 12:20:40.63	295.22	17.22	-27.0	-28.6	15.5	0.00e+00	0	44	0	1126170624	14	4319
2026-01-26 12:20:41.63	295.43	17.18	-27.1	-28.7	15.4	7.00e-07	0	45	0	1129316352	14	4342
2026-01-26 12:20:42.63	295.65	17.15	-27.1	-28.7	15.5	0.00e+00	0	45	0	1132462080	14	4345
2026-01-26 12:20:43.64	295.86	17.11	-27.0	-28.6	15.5	0.00e+00	0	45	0	1135607808	14	4317
2026-01-26 12:20:44.64	296.08	17.07	-27.1	-28.8	15.4	0.00e+00	0	45	0	1138753536	14	4372
2026-01-26 12:20:45.64	296.29	17.03	-27.2	-29.0	15.3	0.00e+00	0	44	0	1141899264	14	4437
2026-01-26 12:20:46.64	296.50	16.99	-27.1	-28.9	15.4	0.00e+00	0	44	0	1145044992	14	4390
2026-01-26 12:20:47.64	296.72	16.95	-26.9	-28.4	15.6	6.80e-06	0	45	0	1148190720	14	4268
2026-01-26 12:20:48.64	296.93	16.92	-26.9	-28.3	15.7	0.00e+00	0	44	0	1151336448	14	4224
2026-01-26 12:20:49.65	297.14	16.87	-26.9	-28.3	15.7	0.00e+00	0	45	0	1154482176	14	4228
2026-01-26 12:20:50.66	297.35	16.83	-26.9	-28.3	15.7	0.00e+00	0	45	0	1157627904	14	4231
2026-01-26 12:20:51.66	297.56	16.79	-27.0	-28.6	15.5	0.00e+00	0	45	0	1160773632	14	4315
2026-01-26 12:20:52.66	297.77	16.75	-27.0	-28.5	15.6	0.00e+00	0	44	0	1163919360	14	4275
2026-01-26 12:20:53.67	297.98	16.71	-26.8	-28.1	15.8	0.00e+00	0	45	0	1167065088	14	4185
2026-01-26 12:20:54.67	298.19	16.67	-26.9	-28.4	15.6	0.00e+00	0	45	0	1170210816	14	4252
2026-01-26 12:20:55.67	298.40	16.63	-27.0	-28.5	15.5	0.00e+00	0	44	0	1173356544	14	4298
2026-01-26 12:20:56.67	298.61	16.59	-27.1	-28.7	15.4	0.00e+00	0	45	0	1176502272	14	4352
2026-01-26 12:20:57.68	298.82	16.55	-27.0	-28.6	15.5	0.00e+00	0	44	0	1179648000	14	4330
2026-01-26 12:20:58.68	299.02	16.50	-27.0	-28.5	15.5	0.00e+00	0	44	0	1182793728	14	4291
2026-01-26 12:20:59.68	299.23	16.46	-27.0	-28.6	15.5	0.00e+00	0	45	0	1185939456	14	4315
2026-01-26 12:21:00.69	299.44	16.42	-27.0	-28.6	15.4	0.00e+00	0	44	0	1189085184	14	4327
2026-01-26 12:21:01.69	299.64	16.37	-27.0	-28.6	15.5	0.00e+00	0	44	0	1192230912	14	4318
2026-01-26 12:21:02.69	299.85	16.33	-27.0	-28.4	15.5	0.00e+00	0	45	0	1195376640	14	4272
2026-01-26 12:21:03.69	300.05	16.29	-27.1	-28.7	15.4	0.00e+00	0	44	0	1198522368	14	4344
2026-01-26 12:21:04.70	300.25	16.24	-27.0	-28.6	15.4	0.00e+00	0	45	0	1201668096	14	4318
2026-01-26 12:21:05.71	300.46	16.20	-27.0	-28.4	15.5	0.00e+00	0	45	0	1204813824	14	4270
2026-01-26 12:21:06.71	300.66	16.15	-27.1	-28.8	15.3	0.00e+00	0	45	0	1207959552	14	4361
2026-01-26 12:21:07.72	300.86	16.11	-27.2	-29.0	15.2	0.00e+00	0	44	0	1211105280	14	4439
2026-01-26 12:21:08.72	301.06	16.06	-27.1	-28.8	15.3	0.00e+00	0	45	0	1214251008	14	4381
2026-01-26 12:21:09.73	301.26	16.02	-27.4	-29.4	15.0	0.00e+00	0	45	0	1217396736	14	4561
2026-01-26 12:21:10.73	301.46	15.97	-27.4	-29.4	15.0	0.00e+00	0	44	0	1220542464	14	4559
2026-01-26 12:21:11.73	301.66	15.93	-27.4	-29.5	14.9	0.00e+00	0	45	0	1223688192	14	4593
2026-01-26 12:21:12.73	301.86	15.88	-27.5	-29.2	14.8	0.00e+00	0	44	0	1226833920	15	4387
2026-01-26 12:21:13.74	302.06	15.83	-27.5	-29.3	14.7	7.00e-07	0	45	0	1229979648	15	4400
2026-01-26 12:21:14.74	302.26	15.79	-27.6	-29.4	14.7	0.00e+00	0	45	0	1233125376	15	4445
2026-01-26 12:21:15.74	302.45	15.74	-27.3	-28.7	15.0	0.00e+00	0	45	0	1236271104	15	4251
2026-01-26 12:21:16.75	302.65	15.69	-27.3	-28.8	15.0	0.00e+00	0	45	0	1239416832	15	4257
2026-01-26 12:21:17.75	302.85	15.65	-27.3	-28.8	15.0	0.00e+00	0	45	0	1242562560	15	4271
2026-01-26 12:21:18.75	303.04	15.60	-27.3	-28.7	15.1	0.00e+00	0	45	0	1245708288	15	4235
2026-01-26 12:21:19.76	303.24	15.55	-27.4	-29.0	14.9	0.00e+00	0	45	0	1248854016	15	4341
2026-01-26 12:21:20.76	303.43	15.50	-27.4	-28.9	14.9	7.00e-07	0	45	0	1251999744	15	4309
2026-01-26 12:21:21.77	303.62	15.45	-27.3	-28.9	14.9	0.00e+00	0	45	0	1255145472	15	4299
2026-01-26 12:21:22.77	303.82	15.41	-27.6	-29.4	14.7	0.00e+00	0	45	0	1258291200	15	4443
2026-01-26 12:21:23.77	304.01	15.36	-27.7	-29.7	14.5	0.00e+00	0	45	0	1261436928	15	4522
2026-01-26 12:21:24.78	304.20	15.31	-27.9	-30.1	14.3	0.00e+00	0	44	0	1264582656	15	4650
2026-01-26 12:21:25.78	304.39	15.26	-27.8	-30.0	14.3	1.50e-06	0	45	0	1267728384	15	4633
2026-01-26 12:21:26.78	304.58	15.21	-27.8	-30.0	14.3	1.50e-06	0	45	0	1270874112	15	4640
2026-01-26 12:21:27.79	304.77	15.16	-27.8	-29.9	14.4	0.00e+00	0	44	0	1274019840	15	4586
2026-01-26 12:21:28.79	304.96	15.11	-27.8	-30.0	14.3	7.00e-07	0	45	0	1277165568	15	4636
2026-01-26 12:21:29.80	305.15	15.06	-27.6	-29.5	14.6	7.00e-07	0	45	0	1280311296	15	4486
2026-01-26 12:21:30.80	305.34	15.01	-27.7	-29.8	14.4	0.00e+00	0	45	0	1282408448	15	4550
2026-01-26 12:21:31.80	305.52	14.96	-27.6	-29.6	14.5	1.50e-06	0	45	0	1285554176	15	4501
2026-01-26 12:21:32.80	305.71	14.91	-27.4	-29.1	14.8	7.00e-07	0	45	0	1288699904	15	4350
2026-01-26 12:21:33.81	305.90	14.86	-27.4	-29.0	14.9	0.00e+00	0	45	0	1291845632	15	4334
2026-01-26 12:21:34.80	306.08	14.81	-27.5	-29.2	14.8	0.00e+00	0	45	0	1294991360	15	4374
2026-01-26 12:21:35.81	306.26	14.76	-27.4	-28.9	14.9	0.00e+00	0	45	0	1299185664	15	4305
2026-01-26 12:21:36.81	306.45	14.71	-27.5	-29.2	14.8	0.00e+00	0	45	0	1302331392	15	4372
2026-01-26 12:21:37.81	306.63	14.66	-27.5	-29.3	14.7	3.80e-06	0	45	0	1304428544	15	4417
2026-01-26 12:21:38.81	306.81	14.61	-27.5	-29.3	14.6	1.50e-06	0	45	0	1307574272	15	4428
2026-01-26 12:21:39.82	307.00	14.56	-27.8	-29.9	14.3	0.00e+00	0	45	0	1310720000	15	4593
2026-01-26 12:21:40.82	307.18	14.51	-27.7	-29.7	14.5	1.50e-06	0	45	0	1313865728	15	4524
2026-01-26 12:21:41.82	307.36	14.45	-27.7	-29.8	14.4	0.00e+00	0	45	0	1317011456	15	4550
2026-01-26 12:21:42.82	307.54	14.40	-27.7	-29.7	14.4	7.00e-07	0	45	0	1320157184	15	4534
2026-01-26 12:21:43.82	307.72	14.35	-27.7	-29.7	14.4	1.50e-06	0	45	0	1323302912	15	4543
2026-01-26 12:21:44.82	307.90	14.30	-27.7	-29.8	14.4	0.00e+00	0	45	0	1326448640	15	4568
2026-01-26 12:21:45.83	308.08	14.25	-28.0	-30.3	14.1	1.50e-06	0	45	0	1329594368	15	4727
2026-01-26 12:21:46.84	308.26	14.19	-27.7	-29.7	14.4	2.20e-06	0	45	0	1332740096	15	4544
2026-01-26 12:21:47.84	308.43	14.14	-27.5	-29.3	14.7	7.00e-07	0	45	0	1335885824	15	4408
2026-01-26 12:21:48.84	308.61	14.09	-27.6	-29.5	14.6	0.00e+00	0	45	0	1339031552	15	4459
2026-01-26 12:21:49.85	308.79	14.04	-27.5	-29.2	14.7	2.20e-06	0	45	0	1342177280	15	4388
2026-01-26 12:21:50.84	308.96	13.98	-27.7	-29.7	14.4	7.00e-07	0	45	0	1345323008	15	4526
2026-01-26 12:21:51.85	309.13	13.93	-27.8	-29.8	14.3	7.00e-07	0	45	0	1348468736	15	4580
2026-01-26 12:21:52.86	309.31	13.88	-27.8	-29.9	14.3	3.00e-06	0	45	0	1351614464	15	4591
2026-01-26 12:21:53.86	309.48	13.82	-27.8	-30.0	14.3	0.00e+00	0	45	0	1354760192	15	4617
2026-01-26 12:21:54.87	309.66	13.77	-27.8	-30.1	14.2	0.00e+00	0	45	0	1357905920	15	4644
2026-01-26 12:21:55.87	309.83	13.72	-27.8	-29.9	14.3	7.00e-07	0	45	0	1361051648	15	4588
2026-01-26 12:21:56.87	310.00	13.66	-27.8	-30.0	14.2	7.00e-07	0	45	0	1364197376	15	4635
2026-01-26 12:21:57.88	310.17	13.61	-27.8	-30.0	14.3	7.00e-07	0	45	0	1367343104	15	4616
2026-01-26 12:21:58.88	310.34	13.55	-27.9	-30.1	14.1	3.00e-06	0	45	0	1370488832	15	4666
2026-01-26 12:21:59.89	310.51	13.50	-27.9	-30.3	14.1	0.00e+00	0	45	0	1373634560	15	4712
2026-01-26 12:22:00.89	310.68	13.45	-28.0	-30.3	14.0	3.00e-06	0	45	0	1376780288	15	4727
2026-01-26 12:22:01.89	310.85	13.39	-27.9	-29.7	14.3	7.00e-07	0	45	0	1379926016	16	4416
2026-01-26 12:22:02.89	311.02	13.34	-27.9	-29.6	14.3	0.00e+00	0	45	0	1383071744	16	4384
2026-01-26 12:22:03.90	311.19	13.28	-27.8	-29.3	14.5	0.00e+00	0	45	0	1386217472	16	4287
2026-01-26 12:22:04.90	311.35	13.23	-27.8	-29.3	14.5	0.00e+00	0	45	0	1389363200	16	4307
2026-01-26 12:22:05.91	311.52	13.17	-27.7	-29.1	14.6	0.00e+00	0	45	0	1392508928	16	4251
2026-01-26 12:22:06.91	311.69	13.12	-27.6	-29.0	14.7	7.00e-07	0	45	0	1395654656	16	4216
2026-01-26 12:22:07.92	311.85	13.06	-27.7	-29.2	14.5	1.50e-06	0	45	0	1398800384	16	4269
2026-01-26 12:22:08.92	312.02	13.01	-27.7	-29.2	14.5	1.50e-06	0	45	0	1401946112	16	4285
2026-01-26 12:22:09.92	312.18	12.96	-27.9	-29.5	14.4	7.00e-07	0	45	0	1405091840	16	4364
2026-01-26 12:22:10.92	312.34	12.90	-28.0	-29.9	14.1	1.50e-06	0	44	0	1408237568	16	4469
2026-01-26 12:22:11.92	312.51	12.85	-27.8	-29.5	14.4	7.00e-07	0	45	0	1411383296	16	4356
2026-01-26 12:22:12.93	312.67	12.79	-27.7	-29.3	14.5	1.50e-06	0	45	0	1414529024	16	4285
2026-01-26 12:22:13.92	312.83	12.74	-27.8	-29.3	14.5	0.00e+00	0	45	0	1417674752	16	4310
2026-01-26 12:22:14.93	312.99	12.68	-27.9	-29.7	14.3	2.20e-06	0	45	0	1420820480	16	4409
2026-01-26 12:22:15.94	313.15	12.62	-27.8	-29.5	14.4	0.00e+00	0	45	0	1423966208	16	4357
2026-01-26 12:22:16.94	313.31	12.57	-27.8	-29.4	14.4	7.00e-07	0	45	0	1427111936	16	4344
2026-01-26 12:22:17.95	313.47	12.51	-27.9	-29.7	14.2	7.00e-07	0	45	0	1430257664	16	4431
2026-01-26 12:22:18.96	313.63	12.46	-27.8	-29.7	14.1	1.50e-06	0	45	0	1433403392	16	4457
2026-01-26 12:22:19.95	313.79	12.40	-27.3	-29.0	14.3	3.80e-06	0	45	0	1436549120	16	4353
2026-01-26 12:22:20.95	313.95	12.35	-26.8	-29.1	14.1	1.50e-06	0	45	0	1439694848	15	4658
2026-01-26 12:22:21.95	314.10	12.29	-26.4	-29.0	14.1	1.50e-06	0	45	0	1442840576	14	4895
2026-01-26 12:22:22.95	314.26	12.23	-26.8	-29.4	14.1	1.50e-06	0	45	0	1445986304	14	4886
2026-01-26 12:22:23.96	314.42	12.18	-27.2	-29.8	14.3	1.50e-06	0	45	0	1449132032	14	4813
2026-01-26 12:22:24.96	314.57	12.12	-27.5	-29.3	14.5	1.50e-06	0	45	0	1452277760	15	4443
2026-01-26 12:22:25.96	314.72	12.07	-27.9	-30.1	14.1	3.00e-06	0	45	0	1455423488	15	4645
2026-01-26 12:22:26.96	314.88	12.01	-27.7	-29.7	14.4	2.20e-06	0	45	0	1458569216	15	4534
2026-01-26 12:22:27.97	315.03	11.95	-27.6	-29.5	14.4	0.00e+00	0	45	0	1461714944	15	4484
2026-01-26 12:22:28.97	315.19	11.90	-27.7	-29.7	14.3	7.00e-07	0	45	0	1464860672	15	4534
2026-01-26 12:22:29.98	315.34	11.84	-27.6	-29.5	14.4	1.50e-06	0	45	0	1468006400	15	4489
2026-01-26 12:22:30.98	315.49	11.78	-27.6	-29.6	14.4	7.00e-07	0	45	0	1471152128	15	4499
2026-01-26 12:22:31.99	315.64	11.73	-27.5	-29.3	14.5	7.00e-07	0	45	0	1474297856	15	4430
2026-01-26 12:22:33.00	315.79	11.67	-27.7	-29.7	14.3	2.20e-06	0	45	0	1477443584	15	4535
2026-01-26 12:22:34.00	315.94	11.61	-27.6	-29.6	14.4	0.00e+00	0	45	0	1480589312	15	4511
2026-01-26 12:22:35.01	316.09	11.56	-27.7	-29.8	14.3	0.00e+00	0	45	0	1483735040	15	4562
2026-01-26 12:22:36.01	316.24	11.50	-27.8	-29.9	14.2	1.50e-06	0	45	0	1486880768	15	4592
2026-01-26 12:22:37.01	316.39	11.44	-27.8	-30.0	14.1	4.50e-06	0	45	0	1490026496	15	4637
2026-01-26 12:22:38.02	316.54	11.39	-27.8	-29.9	14.2	1.50e-06	0	45	0	1493172224	15	4619
2026-01-26 12:22:39.02	316.69	11.33	-27.8	-30.0	14.2	1.50e-06	0	45	0	1496317952	15	4620
2026-01-26 12:22:40.03	316.84	11.27	-27.7	-29.8	14.2	3.00e-06	0	45	0	1499463680	15	4580
2026-01-26 12:22:41.03	316.98	11.22	-27.9	-30.1	14.0	1.50e-06	0	45	0	1502609408	15	4679
2026-01-26 12:22:42.03	317.13	11.16	-27.9	-30.2	14.0	3.80e-06	0	45	0	1505755136	15	4710
2026-01-26 12:22:43.03	317.27	11.10	-27.8	-30.1	14.0	7.00e-07	0	45	0	1508900864	15	4667
2026-01-26 12:22:44.04	317.42	11.05	-27.9	-30.3	13.9	3.00e-06	0	45	0	1512046592	15	4732
2026-01-26 12:22:45.04	317.56	10.99	-28.2	-30.3	13.8	6.10e-06	0	45	0	1515192320	16	4612
2026-01-26 12:22:46.04	317.70	10.93	-28.4	-30.8	13.5	9.90e-06	0	45	0	1518338048	16	4765
2026-01-26 12:22:47.04	317.85	10.88	-28.2	-30.3	13.7	3.00e-06	0	45	0	1521483776	16	4613
2026-01-26 12:22:48.04	317.99	10.82	-28.1	-30.0	13.9	3.80e-06	0	45	0	1524629504	16	4525
2026-01-26 12:22:49.04	318.13	10.76	-28.0	-29.9	14.1	0.00e+00	0	45	0	1527775232	16	4469
2026-01-26 12:22:50.04	318.27	10.71	-28.0	-29.8	14.0	7.00e-07	0	45	0	1530920960	16	4463
2026-01-26 12:22:51.04	318.41	10.65	-28.0	-29.8	14.1	3.00e-06	0	45	0	1534066688	16	4453
2026-01-26 12:22:52.05	318.55	10.59	-28.0	-29.9	14.0	2.20e-06	0	45	0	1537212416	16	4472
2026-01-26 12:22:53.05	318.69	10.54	-28.0	-30.0	13.9	7.00e-07	0	45	0	1540358144	16	4514
2026-01-26 12:22:54.05	318.83	10.48	-28.1	-30.2	13.8	3.00e-06	0	45	0	1543503872	16	4561
2026-01-26 12:22:55.06	318.97	10.42	-28.0	-30.0	13.9	5.30e-06	0	45	0	1546649600	16	4501
2026-01-26 12:22:56.06	319.11	10.36	-27.9	-29.6	14.2	1.50e-06	0	45	0	1549795328	16	4390
2026-01-26 12:22:57.06	319.25	10.31	-27.9	-29.6	14.2	3.00e-06	0	45	0	1552941056	16	4401
2026-01-26 12:22:58.06	319.38	10.25	-27.9	-29.8	14.1	3.80e-06	0	45	0	1556086784	16	4434
2026-01-26 12:22:59.06	319.52	10.19	-28.2	-30.3	13.8	5.30e-06	0	45	0	1559232512	16	4596
2026-01-26 12:23:00.06	319.65	10.14	-28.0	-30.0	13.9	6.80e-06	0	45	0	1562378240	16	4510
2026-01-26 12:23:01.06	319.79	10.08	-28.2	-30.5	13.7	3.00e-06	0	45	0	1565523968	16	4650
2026-01-26 12:23:02.07	319.93	10.02	-28.4	-31.0	13.4	1.29e-05	0	45	0	1568669696	16	4813
2026-01-26 12:23:03.07	320.06	9.97	-28.3	-30.7	13.5	9.90e-06	0	45	0	1571815424	16	4732
2026-01-26 12:23:04.06	320.19	9.91	-28.3	-30.6	13.6	7.60e-06	0	45	0	1574961152	16	4691
2026-01-26 12:23:05.07	320.33	9.85	-28.2	-30.5	13.6	8.30e-06	0	45	0	1578106880	16	4671
2026-01-26 12:23:06.08	320.46	9.79	-28.3	-30.7	13.5	9.10e-06	0	45	0	1581252608	16	4729
2026-01-26 12:23:07.08	320.59	9.74	-28.2	-30.4	13.7	8.30e-06	0	45	0	1583349760	16	4641
2026-01-26 12:23:08.08	320.73	9.68	-28.5	-31.0	13.3	1.29e-05	0	45	0	1586495488	16	4837
2026-01-26 12:23:09.08	320.86	9.62	-28.4	-30.4	13.3	1.98e-05	0	45	0	1589641216	17	4520
2026-01-26 12:23:10.08	320.99	9.57	-28.4	-30.4	13.3	3.05e-05	0	45	0	1592786944	17	4541
2026-01-26 12:23:11.09	321.12	9.51	-28.6	-30.9	13.1	1.90e-05	0	45	0	1595932672	17	4678
2026-01-26 12:23:12.09	321.25	9.45	-28.3	-30.1	13.5	1.44e-05	0	45	0	1599078400	17	4452
2026-01-26 12:23:13.09	321.38	9.40	-28.4	-30.5	13.3	1.37e-05	0	45	0	1602224128	17	4560
2026-01-26 12:23:14.09	321.51	9.34	-28.7	-31.1	12.9	7.93e-05	0	45	0	1605369856	17	4767
2026-01-26 12:23:15.10	321.64	9.28	-28.5	-30.6	13.2	1.83e-05	0	45	0	1608515584	17	4583
2026-01-26 12:23:16.11	321.77	9.22	-28.7	-31.1	12.9	4.42e-05	0	45	0	1611661312	17	4751
2026-01-26 12:23:17.10	321.89	9.17	-28.6	-31.0	12.9	5.87e-05	0	45	0	1614807040	17	4735
2026-01-26 12:23:18.11	322.02	9.11	-29.0	-31.8	12.4	7.70e-05	0	45	0	1617952768	17	4997
2026-01-26 12:23:19.11	322.15	9.05	-28.8	-31.5	12.6	1.23e-04	0	45	0	1621098496	17	4893
2026-01-26 12:23:20.12	322.27	9.00	-28.9	-31.6	12.5	7.85e-05	0	45	0	1624244224	17	4937
2026-01-26 12:23:21.13	322.40	8.94	-28.9	-31.7	12.5	1.17e-04	0	45	0	1627389952	17	4953
2026-01-26 12:23:22.13	322.53	8.88	-28.9	-31.7	12.5	9.99e-05	0	45	0	1630535680	17	4951
2026-01-26 12:23:23.14	322.65	8.82	-29.0	-31.9	12.3	1.29e-04	0	45	0	1633681408	17	5046
2026-01-26 12:23:24.15	322.78	8.77	-29.2	-31.9	12.0	2.02e-04	0	45	0	1636827136	18	4925
2026-01-26 12:23:25.15	322.90	8.71	-29.3	-32.3	11.8	4.92e-04	0	45	0	1639972864	18	5058
2026-01-26 12:23:26.15	323.02	8.65	-29.0	-31.5	12.3	2.82e-04	0	45	0	1643118592	18	4770
2026-01-26 12:23:27.15	323.15	8.60	-28.9	-31.2	12.5	1.27e-04	0	45	0	1646264320	18	4675
2026-01-26 12:23:28.15	323.27	8.54	-28.7	-30.7	12.7	7.32e-05	0	45	0	1649410048	18	4540
2026-01-26 12:23:29.15	323.39	8.48	-28.8	-31.0	12.6	8.85e-05	0	45	0	1652555776	18	4611
2026-01-26 12:23:30.15	323.51	8.43	-28.8	-30.8	12.7	6.86e-05	0	45	0	1655701504	18	4559
2026-01-26 12:23:31.15	323.63	8.37	-28.7	-30.7	12.8	4.95e-05	0	45	0	1658847232	18	4533
2026-01-26 12:23:32.15	323.75	8.31	-28.8	-30.8	12.7	8.39e-05	0	45	0	1661992960	18	4562
2026-01-26 12:23:33.16	323.87	8.26	-28.6	-30.4	13.0	4.34e-05	0	45	0	1665138688	18	4432
2026-01-26 12:23:34.16	323.99	8.20	-28.7	-30.7	12.7	8.46e-05	0	45	0	1668284416	18	4526
2026-01-26 12:23:35.17	324.11	8.14	-28.7	-30.8	12.7	7.62e-05	0	45	0	1671430144	18	4546
2026-01-26 12:23:36.17	324.23	8.08	-28.7	-30.6	12.8	7.32e-05	0	45	0	1674575872	18	4505
2026-01-26 12:23:37.17	324.35	8.03	-28.6	-30.4	12.9	4.11e-05	0	45	0	1677721600	18	4441
2026-01-26 12:23:38.17	324.47	7.97	-28.9	-31.2	12.4	1.21e-04	0	45	0	1680867328	18	4690
2026-01-26 12:23:39.17	324.58	7.92	-29.0	-31.4	12.3	1.56e-04	0	45	0	1684013056	18	4759
2026-01-26 12:23:40.18	324.70	7.86	-28.9	-31.1	12.4	1.36e-04	0	45	0	1687158784	18	4668
2026-01-26 12:23:41.18	324.82	7.80	-29.1	-31.6	12.1	3.66e-04	0	45	0	1690304512	18	4840
2026-01-26 12:23:42.17	324.93	7.75	-28.9	-31.3	12.3	1.58e-04	0	45	0	1693450240	18	4722
2026-01-26 12:23:43.17	325.05	7.69	-29.1	-31.7	12.1	2.10e-04	0	44	0	1696595968	18	4869
2026-01-26 12:23:44.17	325.16	7.63	-29.0	-31.5	12.1	3.20e-04	0	45	0	1699741696	18	4798
2026-01-26 12:23:45.18	325.28	7.58	-29.0	-31.5	12.1	2.33e-04	0	45	0	1702887424	18	4809
2026-01-26 12:23:46.18	325.39	7.52	-29.5	-32.4	11.3	9.73e-04	0	45	0	1706033152	19	4995
2026-01-26 12:23:47.18	325.51	7.46	-29.0	-30.9	12.2	3.08e-04	0	45	0	1709178880	19	4494
2026-01-26 12:23:48.18	325.62	7.41	-29.0	-31.0	12.2	1.87e-04	0	45	0	1712324608	19	4517
2026-01-26 12:23:49.19	325.74	7.35	-29.0	-31.1	12.1	2.50e-04	0	45	0	1715470336	19	4545
2026-01-26 12:23:50.19	325.85	7.30	-28.9	-30.8	12.2	2.28e-04	0	45	0	1718616064	19	4472
2026-01-26 12:23:51.19	325.96	7.24	-29.1	-31.3	11.9	3.22e-04	0	45	0	1721761792	19	4632
2026-01-26 12:23:52.18	326.07	7.18	-29.0	-31.0	12.1	3.19e-04	0	45	0	1724907520	19	4534
2026-01-26 12:23:53.19	326.18	7.13	-29.3	-31.7	11.6	6.69e-04	0	45	0	1728053248	19	4762
2026-01-26 12:23:54.19	326.30	7.07	-29.1	-31.3	12.0	3.91e-04	0	45	0	1731198976	19	4613
2026-01-26 12:23:55.19	326.41	7.01	-33.3	-45.4	3.8	1.49e+00	0	45	104	1732247552	26	14457
2026-01-26 12:23:56.20	326.52	6.96	-33.7	-45.6	3.8	1.49e+00	0	45	104	1732247552	27	14314
2026-01-26 12:23:57.20	326.63	6.90	-33.9	-46.1	3.8	1.49e+00	0	45	104	1732247552	27	14672

#Closed at: 2026-01-26 12:23:57
#Recorded file [1732 MB]: D:/data/31010_260126_151439.dat