passes_logs/2026/01/26/R2M6_AANII_01/R2M6_AANII_01__20260126_094215_NOAA_20_JPSS-1_rec.log

#Pass ID: 20260126_094215_NOAA 20 (JPSS-1)
#Satellite: NOAA 20 (JPSS-1)
#Configuration: NOAA 20
#almurnet v.1.7.20240730
#Start time: 2026-01-26 09:42:16

#Version: 2.2.20231116
#Station: R2M6_AANII_01
#Location: 30.233357 lon 59.946436 lat
#TLE: 1 43013U 17073A   26025.83228772  .00000162  00000+0  97663-4 0  9996
#TLE: 2 43013  98.7646 326.6579 0001036  23.5840 336.5383 14.19540376424273

#Time	Az	El	Level	Level2	SNR	BER	BlckErr	Temp	State	Recorded	gain1	gain2
2026-01-26 09:42:16.75	141.00	7.08	-30.6	-36.4	5.1	1.27e+00	0	41	0	0	22	7063
2026-01-26 09:42:17.75	140.97	7.16	-30.6	-36.5	5.1	1.29e+00	0	41	104	0	22	7141
2026-01-26 09:42:18.75	140.94	7.24	-30.7	-37.1	7.6	6.25e-02	0	41	0	0	22	7517
2026-01-26 09:42:19.75	140.91	7.31	-30.5	-36.0	8.5	4.92e-02	0	41	0	1048576	22	6787
2026-01-26 09:42:20.76	140.88	7.39	-30.3	-35.6	8.7	4.80e-02	0	41	0	3145728	22	6615
2026-01-26 09:42:21.76	140.85	7.47	-30.1	-35.2	9.4	1.80e-02	0	41	0	5242880	21	6492
2026-01-26 09:42:22.76	140.82	7.55	-30.1	-35.4	9.3	2.13e-02	0	41	0	7340032	21	6612
2026-01-26 09:42:23.76	140.79	7.63	-30.1	-35.3	9.4	1.11e-02	0	42	0	9437184	21	6541
2026-01-26 09:42:24.76	140.76	7.70	-30.2	-35.8	8.9	2.50e-02	0	42	0	10485760	21	6854
2026-01-26 09:42:25.77	140.73	7.78	-30.2	-35.6	9.1	2.31e-02	0	41	0	12582912	21	6724
2026-01-26 09:42:26.76	140.70	7.86	-30.1	-35.1	9.6	1.59e-02	0	42	0	14680064	21	6399
2026-01-26 09:42:27.76	140.67	7.94	-29.9	-34.4	10.1	7.22e-03	0	42	0	16777216	21	6031
2026-01-26 09:42:28.77	140.64	8.02	-29.6	-33.8	11.0	2.35e-03	0	42	0	17825792	20	5857
2026-01-26 09:42:29.77	140.61	8.10	-29.4	-33.1	11.5	1.13e-03	0	42	0	19922944	20	5511
2026-01-26 09:42:30.77	140.58	8.18	-29.4	-33.4	11.9	4.14e-04	0	42	0	22020096	19	5677
2026-01-26 09:42:31.77	140.54	8.26	-29.5	-33.8	11.6	5.49e-04	0	42	0	24117248	19	5864
2026-01-26 09:42:32.77	140.51	8.34	-29.5	-33.5	11.8	8.07e-04	0	42	0	26214400	19	5727
2026-01-26 09:42:33.79	140.48	8.42	-29.6	-33.7	11.8	6.05e-04	0	42	0	27262976	19	5780
2026-01-26 09:42:34.79	140.45	8.50	-29.6	-33.7	11.8	4.73e-04	0	42	0	29360128	19	5779
2026-01-26 09:42:35.78	140.42	8.58	-29.5	-33.5	11.9	4.67e-04	0	42	0	31457280	19	5709
2026-01-26 09:42:36.78	140.38	8.66	-29.5	-33.6	11.8	4.73e-04	0	42	0	33554432	19	5745
2026-01-26 09:42:37.78	140.35	8.74	-29.7	-34.1	11.5	7.67e-04	0	42	0	35651584	19	5961
2026-01-26 09:42:38.79	140.32	8.83	-29.6	-33.8	11.8	5.92e-04	0	42	0	36700160	19	5797
2026-01-26 09:42:39.78	140.28	8.91	-29.7	-34.0	11.5	5.58e-04	0	42	0	38797312	19	5921
2026-01-26 09:42:40.79	140.25	8.99	-29.6	-33.6	11.9	5.27e-04	0	42	0	40894464	19	5731
2026-01-26 09:42:41.79	140.22	9.07	-29.5	-33.2	12.2	3.22e-04	0	42	0	42991616	19	5520
2026-01-26 09:42:42.80	140.18	9.16	-29.4	-32.9	12.4	1.59e-04	0	42	0	45088768	19	5414
2026-01-26 09:42:43.80	140.15	9.24	-29.3	-32.7	12.6	1.22e-04	0	42	0	46137344	19	5302
2026-01-26 09:42:44.79	140.12	9.32	-29.5	-33.4	12.1	2.30e-04	0	42	0	48234496	19	5611
2026-01-26 09:42:45.80	140.08	9.41	-29.5	-33.1	12.3	1.93e-04	0	42	0	50331648	19	5499
2026-01-26 09:42:46.80	140.05	9.49	-29.4	-32.8	12.6	1.65e-04	0	42	0	52428800	19	5362
2026-01-26 09:42:47.80	140.01	9.57	-29.5	-33.1	12.4	1.38e-04	0	42	0	54525952	19	5459
2026-01-26 09:42:48.80	139.98	9.66	-29.3	-32.7	12.7	1.01e-04	0	42	0	55574528	19	5314
2026-01-26 09:42:49.80	139.94	9.74	-29.5	-33.1	12.4	5.95e-05	0	42	0	57671680	19	5479
2026-01-26 09:42:50.81	139.91	9.83	-29.4	-32.9	12.6	1.01e-04	0	42	0	59768832	19	5370
2026-01-26 09:42:51.82	139.87	9.91	-29.5	-33.0	12.6	6.10e-05	0	42	0	61865984	19	5408
2026-01-26 09:42:52.82	139.83	10.00	-29.4	-32.8	12.7	7.93e-05	0	42	0	62914560	19	5302
2026-01-26 09:42:53.83	139.80	10.09	-29.5	-33.0	12.6	7.09e-05	0	42	0	65011712	19	5386
2026-01-26 09:42:54.84	139.76	10.17	-29.3	-32.5	12.9	4.57e-05	0	42	0	67108864	19	5187
2026-01-26 09:42:55.84	139.72	10.26	-29.5	-33.1	12.5	6.94e-05	0	42	0	69206016	19	5452
2026-01-26 09:42:56.84	139.69	10.35	-29.4	-32.8	12.8	8.08e-05	0	42	0	71303168	19	5300
2026-01-26 09:42:57.85	139.65	10.43	-29.3	-32.5	13.0	4.80e-05	0	42	0	72351744	19	5195
2026-01-26 09:42:58.85	139.61	10.52	-29.4	-32.6	12.9	5.34e-05	0	42	0	74448896	19	5229
2026-01-26 09:42:59.85	139.57	10.61	-29.4	-32.6	13.0	3.43e-05	0	42	0	76546048	19	5205
2026-01-26 09:43:00.85	139.54	10.70	-29.5	-32.8	12.9	4.73e-05	0	42	0	78643200	19	5280
2026-01-26 09:43:01.85	139.50	10.78	-29.3	-32.2	13.3	3.28e-05	0	43	0	80740352	19	5056
2026-01-26 09:43:02.85	139.46	10.87	-29.4	-32.4	13.2	2.28e-05	0	42	0	81788928	19	5108
2026-01-26 09:43:03.85	139.42	10.96	-29.3	-32.3	13.3	2.13e-05	0	42	0	83886080	19	5052
2026-01-26 09:43:04.86	139.38	11.05	-29.2	-31.9	13.5	1.22e-05	0	43	0	85983232	19	4913
2026-01-26 09:43:05.86	139.34	11.14	-29.3	-32.1	13.4	2.28e-05	0	42	0	88080384	19	4994
2026-01-26 09:43:06.86	139.30	11.23	-29.2	-31.9	13.5	2.21e-05	0	42	0	90177536	19	4929
2026-01-26 09:43:07.86	139.26	11.32	-29.2	-32.0	13.5	9.10e-06	0	42	0	91226112	19	4964
2026-01-26 09:43:08.86	139.22	11.41	-29.4	-32.5	13.1	1.75e-05	0	42	0	93323264	19	5158
2026-01-26 09:43:09.87	139.18	11.50	-29.2	-32.0	13.4	3.05e-05	0	43	0	95420416	19	4987
2026-01-26 09:43:10.87	139.14	11.59	-29.3	-32.3	13.2	1.75e-05	0	43	0	97517568	19	5105
2026-01-26 09:43:11.88	139.10	11.68	-29.3	-32.4	13.2	2.05e-05	0	43	0	99614720	19	5137
2026-01-26 09:43:12.88	139.06	11.78	-29.2	-32.2	13.3	1.98e-05	0	43	0	100663296	19	5068
2026-01-26 09:43:13.88	139.02	11.87	-29.3	-32.4	13.2	1.67e-05	0	42	0	102760448	19	5127
2026-01-26 09:43:14.89	138.98	11.96	-29.2	-32.2	13.4	1.22e-05	0	43	0	104857600	19	5057
2026-01-26 09:43:15.89	138.94	12.05	-29.3	-32.4	13.2	3.96e-05	0	43	0	106954752	19	5139
2026-01-26 09:43:16.89	138.90	12.15	-29.3	-32.3	13.3	3.12e-05	0	43	0	108003328	19	5077
2026-01-26 09:43:17.89	138.85	12.24	-29.3	-32.1	13.4	9.90e-06	0	43	0	110100480	19	5010
2026-01-26 09:43:18.89	138.81	12.33	-29.3	-32.1	13.5	1.67e-05	0	43	0	112197632	19	4982
2026-01-26 09:43:19.89	138.77	12.43	-29.3	-32.2	13.4	1.06e-05	0	43	0	114294784	19	5023
2026-01-26 09:43:20.90	138.72	12.52	-29.3	-32.1	13.5	9.90e-06	0	43	0	116391936	19	4980
2026-01-26 09:43:21.91	138.68	12.62	-29.4	-32.4	13.3	1.75e-05	0	43	0	118489088	19	5108
2026-01-26 09:43:22.91	138.64	12.71	-29.3	-32.1	13.5	1.06e-05	0	43	0	119537664	19	4992
2026-01-26 09:43:23.91	138.59	12.81	-29.2	-31.8	13.7	6.80e-06	0	43	0	121634816	19	4882
2026-01-26 09:43:24.91	138.55	12.90	-29.2	-31.9	13.7	7.60e-06	0	43	0	123731968	19	4895
2026-01-26 09:43:25.92	138.50	13.00	-29.2	-31.9	13.7	3.80e-06	0	43	0	125829120	19	4908
2026-01-26 09:43:26.92	138.46	13.10	-29.3	-32.1	13.5	9.10e-06	0	43	0	126877696	19	4989
2026-01-26 09:43:27.92	138.41	13.19	-29.2	-32.0	13.6	7.60e-06	0	43	0	128974848	19	4939
2026-01-26 09:43:28.92	138.37	13.29	-29.4	-32.3	13.4	1.06e-05	0	43	0	131072000	19	5067
2026-01-26 09:43:29.92	138.32	13.39	-29.3	-32.2	13.5	1.29e-05	0	43	0	133169152	19	5023
2026-01-26 09:43:30.92	138.27	13.49	-29.4	-32.3	13.4	1.60e-05	0	43	0	135266304	19	5063
2026-01-26 09:43:31.92	138.23	13.58	-29.4	-32.4	13.3	1.75e-05	0	43	0	136314880	19	5108
2026-01-26 09:43:32.93	138.18	13.68	-29.3	-32.0	13.6	1.14e-05	0	43	0	138412032	19	4954
2026-01-26 09:43:33.93	138.13	13.78	-29.3	-32.2	13.5	1.60e-05	0	43	0	140509184	19	5009
2026-01-26 09:43:34.93	138.09	13.88	-29.3	-32.0	13.7	6.80e-06	0	43	0	142606336	19	4926
2026-01-26 09:43:35.93	138.04	13.98	-29.2	-31.7	13.8	6.80e-06	0	43	0	144703488	19	4846
2026-01-26 09:43:36.94	137.99	14.08	-29.2	-31.8	13.8	3.80e-06	0	43	0	145752064	19	4861
2026-01-26 09:43:37.94	137.94	14.18	-29.1	-31.7	13.9	3.00e-06	0	43	0	147849216	19	4832
2026-01-26 09:43:38.94	137.89	14.29	-29.0	-31.5	13.9	6.10e-06	0	43	0	149946368	19	4776
2026-01-26 09:43:39.95	137.84	14.39	-29.0	-31.5	13.9	7.00e-07	0	43	0	152043520	19	4806
2026-01-26 09:43:40.95	137.79	14.49	-29.1	-31.9	13.6	3.80e-06	0	43	0	154140672	19	4947
2026-01-26 09:43:41.96	137.74	14.59	-29.0	-31.6	13.9	3.80e-06	0	43	0	155189248	19	4845
2026-01-26 09:43:42.96	137.69	14.70	-29.1	-31.8	13.7	3.00e-06	0	43	0	157286400	19	4913
2026-01-26 09:43:43.96	137.64	14.80	-29.1	-31.8	13.7	5.30e-06	0	43	0	159383552	19	4927
2026-01-26 09:43:44.96	137.59	14.90	-29.1	-31.7	13.8	2.20e-06	0	43	0	161480704	19	4897
2026-01-26 09:43:45.97	137.54	15.01	-29.1	-31.9	13.7	3.80e-06	0	43	0	163577856	19	4951
2026-01-26 09:43:46.97	137.49	15.11	-29.3	-32.2	13.5	1.52e-05	0	43	0	164626432	19	5070
2026-01-26 09:43:47.97	137.43	15.22	-29.1	-31.8	13.8	3.80e-06	0	43	0	166723584	19	4884
2026-01-26 09:43:48.98	137.38	15.32	-29.1	-31.5	14.0	7.00e-07	0	43	0	168820736	19	4782
2026-01-26 09:43:49.98	137.33	15.43	-29.1	-31.5	14.1	2.20e-06	0	43	0	170917888	19	4745
2026-01-26 09:43:50.99	137.27	15.53	-29.2	-31.6	14.1	1.50e-06	0	43	0	171966464	19	4786
2026-01-26 09:43:51.99	137.22	15.64	-29.1	-31.4	14.2	3.00e-06	0	43	0	174063616	19	4689
2026-01-26 09:43:52.99	137.17	15.75	-29.2	-31.6	14.1	2.20e-06	0	43	0	176160768	19	4763
2026-01-26 09:43:54.00	137.11	15.86	-29.4	-32.2	13.7	5.30e-06	0	43	0	178257920	19	4967
2026-01-26 09:43:55.00	137.06	15.96	-29.2	-31.8	13.9	5.30e-06	0	43	0	180355072	19	4854
2026-01-26 09:43:56.00	137.00	16.07	-29.4	-32.3	13.6	7.60e-06	0	43	0	181403648	19	5013
2026-01-26 09:43:57.00	136.94	16.18	-29.2	-31.9	13.9	6.80e-06	0	43	0	183500800	19	4875
2026-01-26 09:43:58.00	136.89	16.29	-29.2	-31.8	14.0	3.80e-06	0	43	0	185597952	19	4847
2026-01-26 09:43:59.01	136.83	16.40	-29.2	-31.7	14.1	3.00e-06	0	43	0	187695104	19	4825
2026-01-26 09:44:00.01	136.77	16.51	-29.2	-31.8	14.0	2.20e-06	0	43	0	189792256	19	4862
2026-01-26 09:44:01.02	136.71	16.62	-29.1	-31.5	14.2	1.50e-06	0	43	0	190840832	19	4748
2026-01-26 09:44:02.02	136.66	16.73	-29.1	-31.4	14.3	0.00e+00	0	43	0	192937984	19	4718
2026-01-26 09:44:03.02	136.60	16.84	-29.1	-31.6	14.1	2.20e-06	0	43	0	195035136	19	4801
2026-01-26 09:44:04.03	136.54	16.96	-29.2	-31.6	14.2	3.00e-06	0	43	0	197132288	19	4783
2026-01-26 09:44:05.03	136.48	17.07	-29.3	-31.8	14.1	0.00e+00	0	43	0	199229440	19	4834
2026-01-26 09:44:06.03	136.42	17.18	-29.3	-31.8	14.1	1.50e-06	0	43	0	200278016	19	4829
2026-01-26 09:44:07.03	136.36	17.30	-29.3	-32.0	14.0	1.50e-06	0	43	0	202375168	19	4884
2026-01-26 09:44:08.04	136.30	17.41	-29.5	-32.5	13.8	3.00e-06	0	43	0	204472320	19	5037
2026-01-26 09:44:09.04	136.24	17.52	-29.5	-32.3	13.9	7.00e-07	0	43	0	206569472	19	4966
2026-01-26 09:44:10.04	136.17	17.64	-29.5	-32.4	13.8	2.20e-06	0	43	0	208666624	19	5028
2026-01-26 09:44:11.04	136.11	17.75	-29.6	-32.7	13.6	3.00e-06	0	43	0	209715200	19	5119
2026-01-26 09:44:12.04	136.05	17.87	-29.4	-32.2	14.0	5.30e-06	0	43	0	211812352	19	4945
2026-01-26 09:44:13.04	135.99	17.99	-29.2	-31.7	14.2	3.00e-06	0	43	0	213909504	19	4789
2026-01-26 09:44:14.04	135.92	18.10	-29.1	-31.4	14.5	7.00e-07	0	43	0	216006656	19	4679
2026-01-26 09:44:15.05	135.86	18.22	-29.1	-31.4	14.5	1.50e-06	0	43	0	217055232	19	4672
2026-01-26 09:44:16.05	135.79	18.34	-29.2	-31.7	14.2	0.00e+00	0	43	0	219152384	19	4792
2026-01-26 09:44:17.05	135.73	18.46	-29.2	-31.5	14.4	0.00e+00	0	43	0	221249536	19	4724
2026-01-26 09:44:18.05	135.66	18.58	-29.3	-31.9	14.2	3.80e-06	0	43	0	223346688	19	4857
2026-01-26 09:44:19.05	135.59	18.70	-29.2	-31.7	14.3	7.00e-07	0	43	0	225443840	19	4775
2026-01-26 09:44:20.05	135.53	18.82	-29.2	-31.7	14.3	2.20e-06	0	43	0	226492416	19	4772
2026-01-26 09:44:21.05	135.46	18.94	-29.3	-31.9	14.2	1.50e-06	0	43	0	228589568	19	4827
2026-01-26 09:44:22.05	135.39	19.06	-29.2	-31.6	14.4	7.00e-07	0	44	0	230686720	19	4737
2026-01-26 09:44:23.05	135.32	19.18	-29.2	-31.4	14.5	1.50e-06	0	43	0	232783872	19	4683
2026-01-26 09:44:24.05	135.25	19.30	-29.2	-31.5	14.5	0.00e+00	0	43	0	234881024	19	4711
2026-01-26 09:44:25.05	135.18	19.43	-29.3	-31.7	14.4	0.00e+00	0	43	0	235929600	19	4768
2026-01-26 09:44:26.05	135.11	19.55	-29.2	-31.5	14.6	0.00e+00	0	43	0	238026752	19	4668
2026-01-26 09:44:27.05	135.04	19.67	-29.2	-31.4	14.6	0.00e+00	0	43	0	240123904	19	4649
2026-01-26 09:44:28.06	134.97	19.80	-29.3	-31.6	14.5	7.00e-07	0	43	0	242221056	19	4708
2026-01-26 09:44:29.06	134.90	19.92	-29.3	-31.7	14.5	7.00e-07	0	43	0	244318208	19	4740
2026-01-26 09:44:30.06	134.82	20.05	-29.3	-31.8	14.4	3.00e-06	0	43	0	245366784	19	4782
2026-01-26 09:44:31.06	134.75	20.18	-29.4	-32.0	14.3	0.00e+00	0	43	0	247463936	19	4862
2026-01-26 09:44:32.06	134.68	20.30	-29.3	-31.8	14.4	7.00e-07	0	43	0	249561088	19	4769
2026-01-26 09:44:33.07	134.60	20.43	-29.4	-31.9	14.4	1.50e-06	0	43	0	251658240	19	4800
2026-01-26 09:44:34.07	134.53	20.56	-29.4	-31.9	14.4	7.00e-07	0	43	0	253755392	19	4826
2026-01-26 09:44:35.07	134.45	20.69	-29.2	-31.3	14.7	0.00e+00	0	43	0	254803968	19	4629
2026-01-26 09:44:36.07	134.37	20.82	-29.1	-31.3	14.7	0.00e+00	0	43	0	256901120	19	4629
2026-01-26 09:44:37.07	134.30	20.95	-29.1	-31.3	14.7	0.00e+00	0	43	0	258998272	19	4623
2026-01-26 09:44:38.07	134.22	21.08	-29.3	-31.7	14.5	1.50e-06	0	43	0	261095424	19	4741
2026-01-26 09:44:39.07	134.14	21.21	-29.2	-31.5	14.6	3.80e-06	0	43	0	262144000	19	4673
2026-01-26 09:44:40.08	134.06	21.34	-29.2	-31.4	14.7	7.00e-07	0	43	0	264241152	19	4641
2026-01-26 09:44:41.08	133.98	21.48	-29.3	-31.6	14.6	0.00e+00	0	43	0	266338304	19	4713
2026-01-26 09:44:42.08	133.90	21.61	-29.3	-31.7	14.5	2.20e-06	0	44	0	268435456	19	4753
2026-01-26 09:44:43.08	133.82	21.74	-29.2	-31.6	14.6	0.00e+00	0	43	0	270532608	19	4707
2026-01-26 09:44:44.09	133.73	21.88	-29.2	-31.6	14.6	0.00e+00	0	43	0	271581184	19	4710
2026-01-26 09:44:45.09	133.65	22.01	-29.2	-31.5	14.7	1.50e-06	0	43	0	273678336	19	4675
2026-01-26 09:44:46.08	133.57	22.15	-29.2	-31.5	14.7	0.00e+00	0	43	0	275775488	19	4667
2026-01-26 09:44:47.08	133.48	22.28	-29.3	-31.6	14.6	1.50e-06	0	43	0	277872640	19	4704
2026-01-26 09:44:48.08	133.40	22.42	-29.3	-31.5	14.7	0.00e+00	0	43	0	279969792	19	4687
2026-01-26 09:44:49.09	133.31	22.56	-29.4	-31.9	14.4	0.00e+00	0	43	0	281018368	19	4808
2026-01-26 09:44:50.09	133.22	22.70	-29.5	-32.1	14.4	7.00e-07	0	43	0	283115520	19	4866
2026-01-26 09:44:51.10	133.13	22.84	-29.6	-32.4	14.2	2.20e-06	0	43	0	285212672	19	4969
2026-01-26 09:44:52.10	133.05	22.98	-29.5	-32.1	14.3	1.50e-06	0	43	0	287309824	19	4888
2026-01-26 09:44:53.10	132.96	23.12	-29.5	-32.1	14.4	0.00e+00	0	43	0	289406976	19	4858
2026-01-26 09:44:54.10	132.87	23.26	-29.6	-32.5	14.1	2.20e-06	0	43	0	290455552	19	5012
2026-01-26 09:44:55.11	132.77	23.40	-29.7	-32.8	14.0	3.00e-06	0	43	0	292552704	19	5111
2026-01-26 09:44:56.11	132.68	23.54	-29.5	-32.3	14.2	2.20e-06	0	43	0	294649856	19	4959
2026-01-26 09:44:57.10	132.59	23.69	-29.6	-32.6	14.1	2.20e-06	0	43	0	296747008	19	5048
2026-01-26 09:44:58.11	132.50	23.83	-29.7	-32.8	13.9	3.00e-06	0	44	0	298844160	19	5123
2026-01-26 09:44:59.12	132.40	23.98	-29.8	-33.1	13.7	2.20e-06	0	43	0	299892736	19	5263
2026-01-26 09:45:00.12	132.30	24.12	-29.9	-33.3	13.6	5.30e-06	0	43	0	301989888	19	5330
2026-01-26 09:45:01.12	132.21	24.27	-29.9	-33.3	13.7	9.10e-06	0	43	0	304087040	19	5298
2026-01-26 09:45:02.12	132.11	24.41	-29.9	-33.2	13.7	3.80e-06	0	44	0	306184192	19	5254
2026-01-26 09:45:03.12	132.01	24.56	-29.8	-33.0	13.9	3.80e-06	0	43	0	307232768	19	5187
2026-01-26 09:45:04.12	131.91	24.71	-29.9	-33.3	13.7	6.10e-06	0	43	0	309329920	19	5300
2026-01-26 09:45:05.12	131.81	24.86	-29.9	-32.7	13.7	6.10e-06	0	44	0	311427072	20	4970
2026-01-26 09:45:06.13	131.71	25.01	-30.0	-33.0	13.5	7.60e-06	0	43	0	313524224	20	5099
2026-01-26 09:45:07.13	131.61	25.16	-30.1	-33.4	13.2	1.98e-05	0	43	0	315621376	20	5241
2026-01-26 09:45:08.13	131.51	25.31	-30.2	-33.6	13.1	2.89e-05	0	43	0	316669952	20	5332
2026-01-26 09:45:09.14	131.40	25.46	-30.3	-33.7	13.0	3.89e-05	0	43	0	318767104	20	5374
2026-01-26 09:45:10.14	131.30	25.62	-30.3	-33.9	12.9	5.49e-05	0	43	0	320864256	20	5441
2026-01-26 09:45:11.14	131.19	25.77	-30.3	-33.9	12.9	4.88e-05	0	43	0	322961408	20	5424
2026-01-26 09:45:12.15	131.08	25.93	-30.4	-34.0	12.8	4.34e-05	0	44	0	325058560	20	5493
2026-01-26 09:45:13.16	130.97	26.08	-30.4	-34.0	12.8	4.57e-05	0	43	0	326107136	20	5497
2026-01-26 09:45:14.16	130.86	26.24	-30.4	-34.2	12.7	7.32e-05	0	43	0	328204288	20	5571
2026-01-26 09:45:15.16	130.75	26.40	-30.6	-34.2	12.4	8.01e-05	0	43	0	330301440	21	5431
2026-01-26 09:45:16.16	130.64	26.55	-30.6	-34.1	12.4	1.17e-04	0	44	0	332398592	21	5414
2026-01-26 09:45:17.16	130.53	26.71	-30.6	-34.2	12.4	1.43e-04	0	44	0	334495744	21	5429
2026-01-26 09:45:18.17	130.41	26.87	-30.7	-34.3	12.3	1.75e-04	0	43	0	335544320	21	5483
2026-01-26 09:45:19.16	130.30	27.03	-30.6	-34.1	12.5	1.29e-04	0	44	0	337641472	21	5382
2026-01-26 09:45:20.16	130.18	27.19	-30.6	-34.2	12.4	1.24e-04	0	43	0	339738624	21	5436
2026-01-26 09:45:21.16	130.06	27.35	-30.7	-34.5	12.2	2.14e-04	0	44	0	341835776	21	5563
2026-01-26 09:45:22.17	129.94	27.52	-30.7	-34.3	12.4	1.78e-04	0	43	0	343932928	21	5458
2026-01-26 09:45:23.17	129.82	27.68	-30.8	-34.7	12.1	1.92e-04	0	43	0	344981504	21	5641
2026-01-26 09:45:24.17	129.70	27.84	-30.8	-34.8	12.1	2.68e-04	0	43	0	347078656	21	5670
2026-01-26 09:45:25.18	129.58	28.01	-30.9	-35.0	11.9	2.92e-04	0	43	0	349175808	21	5752
2026-01-26 09:45:26.18	129.45	28.17	-30.9	-35.1	11.9	3.74e-04	0	43	0	351272960	21	5792
2026-01-26 09:45:27.19	129.33	28.34	-31.0	-35.2	11.8	4.69e-04	0	43	0	352321536	21	5858
2026-01-26 09:45:28.18	129.20	28.51	-30.9	-34.6	11.9	4.76e-04	0	44	0	354418688	22	5463
2026-01-26 09:45:29.18	129.08	28.68	-31.0	-34.7	11.8	4.90e-04	0	43	0	356515840	22	5532
2026-01-26 09:45:30.19	128.94	28.85	-31.1	-35.0	11.6	5.74e-04	0	44	0	358612992	22	5651
2026-01-26 09:45:31.19	128.81	29.02	-31.0	-34.7	11.9	4.49e-04	0	44	0	360710144	22	5528
2026-01-26 09:45:32.20	128.68	29.19	-31.0	-34.9	11.7	4.78e-04	0	43	0	361758720	22	5610
2026-01-26 09:45:33.20	128.55	29.36	-31.0	-34.7	11.8	5.19e-04	0	43	0	363855872	22	5526
2026-01-26 09:45:34.20	128.41	29.53	-31.0	-34.8	11.8	6.83e-04	0	43	0	365953024	22	5545
2026-01-26 09:45:35.20	128.28	29.71	-30.9	-34.5	12.0	3.33e-04	0	44	0	368050176	22	5448
2026-01-26 09:45:36.20	128.14	29.88	-30.9	-34.3	12.2	2.44e-04	0	43	0	370147328	22	5324
2026-01-26 09:45:37.20	128.00	30.05	-30.8	-34.2	12.2	2.33e-04	0	44	0	371195904	22	5320
2026-01-26 09:45:38.20	127.86	30.23	-31.0	-34.6	12.0	3.35e-04	0	44	0	373293056	22	5452
2026-01-26 09:45:39.21	127.71	30.41	-30.8	-34.2	12.3	1.99e-04	0	43	0	375390208	22	5287
2026-01-26 09:45:40.22	127.57	30.59	-30.8	-34.2	12.2	2.31e-04	0	44	0	377487360	22	5298
2026-01-26 09:45:41.22	127.42	30.77	-30.8	-34.1	12.3	1.71e-04	0	43	0	379584512	22	5248
2026-01-26 09:45:42.22	127.27	30.95	-30.7	-33.8	12.5	1.40e-04	0	44	0	380633088	22	5162
2026-01-26 09:45:43.23	127.12	31.13	-30.7	-33.9	12.5	9.68e-05	0	43	0	382730240	22	5182
2026-01-26 09:45:44.23	126.97	31.31	-30.7	-33.8	12.5	1.35e-04	0	43	0	384827392	22	5131
2026-01-26 09:45:45.23	126.82	31.49	-30.7	-33.6	12.6	6.79e-05	0	44	0	386924544	22	5073
2026-01-26 09:45:46.24	126.66	31.68	-30.6	-33.5	12.8	6.10e-05	0	44	0	389021696	22	5017
2026-01-26 09:45:47.24	126.51	31.86	-30.7	-33.6	12.7	6.86e-05	0	44	0	390070272	22	5071
2026-01-26 09:45:48.24	126.35	32.04	-30.7	-33.7	12.7	6.56e-05	0	43	0	392167424	22	5096
2026-01-26 09:45:49.25	126.19	32.23	-30.8	-33.9	12.5	1.06e-04	0	44	0	394264576	22	5159
2026-01-26 09:45:50.25	126.03	32.42	-30.7	-33.9	12.5	9.53e-05	0	44	0	396361728	22	5154
2026-01-26 09:45:51.25	125.86	32.61	-30.8	-33.9	12.6	1.02e-04	0	43	0	397410304	22	5159
2026-01-26 09:45:52.24	125.70	32.79	-30.9	-34.3	12.3	1.27e-04	0	44	0	399507456	22	5321
2026-01-26 09:45:53.24	125.53	32.98	-31.0	-34.7	12.0	2.72e-04	0	44	0	401604608	22	5477
2026-01-26 09:45:54.25	125.36	33.17	-31.1	-34.9	11.9	3.14e-04	0	44	0	403701760	22	5562
2026-01-26 09:45:55.25	125.19	33.36	-31.2	-35.2	11.7	4.48e-04	0	44	0	405798912	22	5693
2026-01-26 09:45:56.26	125.01	33.56	-31.0	-34.6	12.0	4.42e-04	0	43	0	407896064	22	5460
2026-01-26 09:45:57.26	124.84	33.75	-30.9	-34.3	12.3	2.30e-04	0	43	0	408944640	22	5340
2026-01-26 09:45:58.26	124.66	33.95	-31.0	-34.6	12.1	2.03e-04	0	44	0	411041792	22	5440
2026-01-26 09:45:59.27	124.48	34.14	-31.2	-35.3	11.6	4.90e-04	0	44	0	413138944	22	5759
2026-01-26 09:46:00.27	124.30	34.34	-31.4	-35.7	11.3	6.00e-04	0	44	0	415236096	22	5963
2026-01-26 09:46:01.27	124.11	34.53	-31.5	-36.0	11.1	1.62e-03	0	43	0	416284672	22	6090
2026-01-26 09:46:02.27	123.92	34.73	-31.3	-35.6	11.4	1.28e-03	0	43	0	418381824	22	5871
2026-01-26 09:46:03.28	123.73	34.93	-31.2	-35.1	11.8	6.83e-04	0	44	0	420478976	22	5651
2026-01-26 09:46:04.28	123.54	35.13	-31.2	-35.1	11.8	5.12e-04	0	44	0	422576128	22	5658
2026-01-26 09:46:05.28	123.35	35.33	-31.3	-35.4	11.5	7.67e-04	0	44	0	424673280	22	5809
2026-01-26 09:46:06.28	123.15	35.53	-31.3	-35.5	11.5	6.42e-04	0	44	0	425721856	22	5853
2026-01-26 09:46:07.28	122.95	35.73	-31.5	-35.6	11.1	1.28e-03	0	44	0	427819008	23	5787
2026-01-26 09:46:08.29	122.75	35.94	-31.5	-35.4	11.1	1.69e-03	0	44	0	429916160	23	5694
2026-01-26 09:46:09.28	122.55	36.14	-31.5	-35.5	11.1	1.23e-03	0	44	0	432013312	23	5728
2026-01-26 09:46:10.28	122.34	36.34	-31.5	-35.6	11.1	1.37e-03	0	44	0	434110464	23	5761
2026-01-26 09:46:11.28	122.13	36.55	-31.6	-35.8	11.0	2.16e-03	0	44	0	435159040	23	5842
2026-01-26 09:46:12.29	121.92	36.76	-31.6	-35.9	10.9	2.25e-03	0	44	0	437256192	23	5890
2026-01-26 09:46:13.29	121.70	36.96	-31.5	-35.7	10.9	2.03e-03	0	44	0	439353344	23	5828
2026-01-26 09:46:14.29	121.49	37.17	-31.5	-35.7	11.0	1.81e-03	0	44	0	441450496	23	5838
2026-01-26 09:46:15.29	121.27	37.38	-31.6	-35.7	11.0	1.76e-03	0	44	0	442499072	23	5835
2026-01-26 09:46:16.29	121.04	37.59	-31.5	-35.6	11.2	1.46e-03	0	44	0	444596224	23	5742
2026-01-26 09:46:17.29	120.82	37.80	-31.5	-35.5	11.2	1.29e-03	0	44	0	446693376	23	5701
2026-01-26 09:46:18.29	120.59	38.01	-31.4	-35.4	11.3	1.18e-03	0	44	0	448790528	23	5657
2026-01-26 09:46:19.29	120.36	38.22	-31.4	-35.3	11.3	1.29e-03	0	44	0	450887680	23	5637
2026-01-26 09:46:20.29	120.12	38.44	-31.4	-35.2	11.4	8.98e-04	0	44	0	451936256	23	5581
2026-01-26 09:46:21.29	119.88	38.65	-31.5	-35.4	11.3	9.86e-04	0	44	0	454033408	23	5688
2026-01-26 09:46:22.29	119.64	38.86	-31.7	-36.1	10.8	2.75e-03	0	44	0	456130560	23	5996
2026-01-26 09:46:23.29	119.40	39.08	-31.8	-36.4	10.7	3.06e-03	0	43	0	458227712	23	6112
2026-01-26 09:46:24.30	119.15	39.30	-31.8	-36.5	10.5	3.38e-03	0	43	0	460324864	23	6212
2026-01-26 09:46:25.30	118.90	39.51	-31.7	-36.1	10.7	3.36e-03	0	44	0	461373440	23	6008
2026-01-26 09:46:26.30	118.64	39.73	-31.7	-36.2	10.7	3.12e-03	0	44	0	463470592	23	6057
2026-01-26 09:46:27.30	118.39	39.95	-31.6	-35.9	10.9	2.04e-03	0	44	0	465567744	23	5905
2026-01-26 09:46:28.30	118.12	40.17	-31.6	-36.0	10.9	2.31e-03	0	43	0	467664896	23	5933
2026-01-26 09:46:29.30	117.86	40.39	-31.7	-36.1	10.8	2.50e-03	0	44	0	469762048	23	5981
2026-01-26 09:46:30.31	117.59	40.61	-31.8	-36.5	10.5	3.37e-03	0	44	0	470810624	23	6182
2026-01-26 09:46:31.32	117.31	40.83	-31.8	-36.4	10.7	4.15e-03	0	44	0	472907776	23	6118
2026-01-26 09:46:32.32	117.04	41.05	-31.6	-35.9	11.0	2.42e-03	0	44	0	475004928	23	5909
2026-01-26 09:46:33.32	116.76	41.27	-31.7	-36.0	10.9	2.02e-03	0	44	0	477102080	23	5943
2026-01-26 09:46:34.33	116.47	41.50	-31.6	-35.8	11.0	2.41e-03	0	44	0	479199232	23	5822
2026-01-26 09:46:35.33	116.18	41.72	-31.3	-34.9	11.7	7.27e-04	0	43	0	480247808	23	5455
2026-01-26 09:46:36.34	115.89	41.95	-31.1	-34.4	12.1	2.55e-04	0	43	0	482344960	23	5209
2026-01-26 09:46:37.34	115.59	42.17	-31.1	-34.2	12.2	1.74e-04	0	44	0	484442112	23	5137
2026-01-26 09:46:38.35	115.29	42.40	-31.1	-34.1	12.3	2.39e-04	0	44	0	486539264	23	5128
2026-01-26 09:46:39.35	114.98	42.62	-30.9	-33.7	12.5	1.31e-04	0	44	0	488636416	23	4975
2026-01-26 09:46:40.34	114.68	42.84	-30.9	-33.6	12.6	1.05e-04	0	44	0	489684992	23	4931
2026-01-26 09:46:41.34	114.36	43.07	-30.9	-33.8	12.5	1.07e-04	0	44	0	491782144	23	5001
2026-01-26 09:46:42.34	114.05	43.29	-30.9	-33.8	12.5	1.08e-04	0	43	0	493879296	23	4980
2026-01-26 09:46:43.35	113.72	43.52	-30.9	-33.7	12.6	1.30e-04	0	44	0	495976448	23	4955
2026-01-26 09:46:44.35	113.39	43.75	-30.9	-33.8	12.5	1.27e-04	0	44	0	497025024	23	4976
2026-01-26 09:46:45.35	113.06	43.98	-30.8	-33.3	12.8	7.24e-05	0	44	0	499122176	23	4806
2026-01-26 09:46:46.36	112.72	44.21	-30.9	-34.2	12.6	4.95e-05	0	44	0	501219328	22	5254
2026-01-26 09:46:47.36	112.38	44.43	-31.2	-35.0	12.0	1.98e-04	0	44	0	503316480	22	5591
2026-01-26 09:46:48.36	112.03	44.66	-31.3	-35.2	11.9	3.84e-04	0	44	0	505413632	22	5683
2026-01-26 09:46:49.36	111.68	44.89	-31.2	-34.9	12.2	2.95e-04	0	44	0	506462208	22	5522
2026-01-26 09:46:50.36	111.33	45.11	-31.2	-35.1	12.0	2.58e-04	0	44	0	508559360	22	5638
2026-01-26 09:46:51.36	110.97	45.34	-31.3	-35.5	11.7	5.25e-04	0	44	0	510656512	22	5780
2026-01-26 09:46:52.36	110.60	45.57	-31.3	-35.5	11.7	5.84e-04	0	44	0	512753664	22	5805
2026-01-26 09:46:53.36	110.23	45.80	-31.3	-35.3	11.8	4.03e-04	0	44	0	514850816	22	5716
2026-01-26 09:46:54.37	109.85	46.03	-31.3	-35.5	11.7	5.27e-04	0	44	0	515899392	22	5797
2026-01-26 09:46:55.38	109.46	46.26	-31.4	-35.6	11.7	8.47e-04	0	44	0	517996544	22	5841
2026-01-26 09:46:56.38	109.07	46.48	-31.2	-35.0	12.1	4.71e-04	0	44	0	520093696	22	5565
2026-01-26 09:46:57.38	108.68	46.71	-31.1	-34.7	12.4	2.17e-04	0	44	0	522190848	22	5450
2026-01-26 09:46:58.38	108.28	46.94	-31.1	-34.6	12.4	1.43e-04	0	44	0	524288000	22	5417
2026-01-26 09:46:59.38	107.87	47.16	-31.3	-35.4	11.9	3.34e-04	0	44	0	525336576	22	5734
2026-01-26 09:47:00.38	107.46	47.39	-31.4	-35.6	11.7	4.42e-04	0	44	0	527433728	22	5829
2026-01-26 09:47:01.38	107.04	47.61	-31.5	-35.6	11.4	1.02e-03	0	44	0	529530880	23	5720
2026-01-26 09:47:02.39	106.61	47.84	-31.6	-35.7	11.3	1.07e-03	0	44	0	531628032	23	5776
2026-01-26 09:47:03.38	106.19	48.06	-31.7	-36.0	11.0	1.90e-03	0	44	0	533725184	23	5937
2026-01-26 09:47:04.38	105.75	48.29	-31.8	-36.3	10.8	1.58e-03	0	44	0	534773760	23	6060
2026-01-26 09:47:05.38	105.31	48.51	-31.9	-36.7	10.5	3.27e-03	0	44	0	536870912	23	6263
2026-01-26 09:47:06.38	104.86	48.73	-31.7	-36.1	11.0	2.11e-03	0	43	0	538968064	23	5953
2026-01-26 09:47:07.37	104.40	48.95	-31.6	-35.8	11.2	1.83e-03	0	44	0	541065216	23	5842
2026-01-26 09:47:08.37	103.94	49.17	-31.7	-36.0	11.1	1.94e-03	0	44	0	542113792	23	5932
2026-01-26 09:47:09.38	103.47	49.39	-31.4	-35.1	11.7	1.12e-03	0	44	0	544210944	23	5526
2026-01-26 09:47:10.38	102.99	49.61	-31.1	-34.3	12.2	3.62e-04	0	44	0	546308096	23	5187
2026-01-26 09:47:11.38	102.51	49.83	-31.0	-34.0	12.5	1.52e-04	0	44	0	548405248	23	5054
2026-01-26 09:47:12.38	102.02	50.04	-31.1	-34.2	12.4	1.01e-04	0	44	0	550502400	23	5121
2026-01-26 09:47:13.39	101.52	50.26	-31.0	-33.9	12.6	1.28e-04	0	44	0	551550976	23	5031
2026-01-26 09:47:14.39	101.01	50.47	-30.9	-33.4	12.9	4.80e-05	0	44	0	553648128	23	4840
2026-01-26 09:47:15.39	100.50	50.69	-30.9	-33.7	12.8	4.11e-05	0	44	0	555745280	23	4923
2026-01-26 09:47:16.39	99.98	50.90	-30.9	-33.5	12.9	1.13e-04	0	44	0	557842432	23	4857
2026-01-26 09:47:17.39	99.46	51.11	-30.4	-32.8	13.7	1.60e-05	0	44	0	559939584	22	4721
2026-01-26 09:47:18.40	98.92	51.31	-30.1	-32.3	14.3	1.50e-06	0	44	0	560988160	21	4653
2026-01-26 09:47:19.41	98.37	51.52	-29.5	-31.5	15.2	7.00e-07	0	44	0	563085312	20	4485
2026-01-26 09:47:20.41	97.82	51.73	-29.2	-31.1	15.7	0.00e+00	0	44	0	565182464	19	4470
2026-01-26 09:47:21.41	97.27	51.93	-29.0	-30.5	16.1	0.00e+00	0	44	0	567279616	19	4304
2026-01-26 09:47:22.42	96.70	52.13	-29.0	-30.7	16.0	0.00e+00	0	44	0	569376768	19	4341
2026-01-26 09:47:23.42	96.13	52.33	-29.2	-31.0	15.8	0.00e+00	0	43	0	570425344	19	4429
2026-01-26 09:47:24.42	95.55	52.52	-29.2	-31.0	15.8	0.00e+00	0	44	0	572522496	19	4434
2026-01-26 09:47:25.42	94.96	52.72	-29.3	-31.2	15.7	0.00e+00	0	44	0	574619648	19	4502
2026-01-26 09:47:26.42	94.37	52.91	-29.1	-30.9	15.8	0.00e+00	0	44	0	576716800	19	4413
2026-01-26 09:47:27.42	93.77	53.09	-28.9	-30.4	16.1	0.00e+00	0	44	0	578813952	19	4277
2026-01-26 09:47:28.43	93.15	53.28	-29.0	-30.5	16.1	0.00e+00	0	44	0	579862528	19	4304
2026-01-26 09:47:29.43	92.53	53.47	-29.0	-30.7	15.9	0.00e+00	0	44	0	581959680	19	4356
2026-01-26 09:47:30.43	91.91	53.65	-29.2	-31.0	15.8	0.00e+00	0	44	0	584056832	19	4461
2026-01-26 09:47:31.43	91.27	53.82	-29.3	-31.3	15.6	0.00e+00	0	44	0	586153984	19	4556
2026-01-26 09:47:32.43	90.63	54.00	-29.3	-31.3	15.6	0.00e+00	0	44	0	587202560	19	4547
2026-01-26 09:47:33.43	89.98	54.17	-29.5	-31.8	15.3	0.00e+00	0	44	0	589299712	19	4710
2026-01-26 09:47:34.43	89.33	54.34	-29.6	-32.2	15.1	0.00e+00	0	44	0	591396864	19	4834
2026-01-26 09:47:35.44	88.66	54.50	-29.7	-32.3	15.0	0.00e+00	0	44	0	593494016	19	4866
2026-01-26 09:47:36.45	87.98	54.66	-30.0	-32.6	14.5	0.00e+00	0	44	0	595591168	20	4856
2026-01-26 09:47:37.45	87.30	54.82	-30.1	-33.0	14.2	7.00e-07	0	44	0	596639744	20	4999
2026-01-26 09:47:38.46	86.61	54.98	-30.2	-33.2	14.1	3.00e-06	0	44	0	598736896	20	5075
2026-01-26 09:47:39.46	85.91	55.13	-30.4	-33.7	13.8	2.20e-06	0	44	0	600834048	20	5247
2026-01-26 09:47:40.46	85.21	55.27	-30.4	-33.3	13.7	9.10e-06	0	44	0	602931200	21	5008
2026-01-26 09:47:41.47	84.49	55.42	-30.2	-32.6	14.1	3.80e-06	0	44	0	605028352	21	4743
2026-01-26 09:47:42.47	83.78	55.56	-30.0	-32.2	14.4	0.00e+00	0	44	0	606076928	21	4620
2026-01-26 09:47:43.46	83.06	55.69	-29.9	-31.8	14.6	0.00e+00	0	44	0	608174080	21	4478
2026-01-26 09:47:44.47	82.32	55.82	-29.6	-31.7	15.0	0.00e+00	0	44	0	610271232	20	4550
2026-01-26 09:47:45.47	81.59	55.95	-29.8	-32.2	14.7	0.00e+00	0	44	0	612368384	20	4724
2026-01-26 09:47:46.48	80.84	56.07	-29.9	-32.4	14.5	0.00e+00	0	44	0	614465536	20	4803
2026-01-26 09:47:47.48	80.09	56.19	-30.1	-32.8	14.3	1.50e-06	0	44	0	615514112	20	4950
2026-01-26 09:47:48.48	79.33	56.30	-30.0	-32.7	14.4	1.50e-06	0	44	0	617611264	20	4898
2026-01-26 09:47:49.49	78.56	56.41	-29.8	-32.1	14.8	0.00e+00	0	44	0	619708416	20	4689
2026-01-26 09:47:50.48	77.80	56.51	-29.8	-32.1	14.7	0.00e+00	0	44	0	621805568	20	4703
2026-01-26 09:47:51.49	77.02	56.61	-30.0	-32.7	14.4	1.50e-06	0	44	0	623902720	20	4876
2026-01-26 09:47:52.49	76.24	56.70	-30.4	-33.6	13.8	2.20e-06	0	44	0	624951296	20	5228
2026-01-26 09:47:53.50	75.45	56.79	-30.5	-33.5	13.6	7.60e-06	0	43	0	627048448	21	5072
2026-01-26 09:47:54.50	74.66	56.87	-30.6	-33.7	13.5	1.14e-05	0	44	0	629145600	21	5138
2026-01-26 09:47:55.50	73.87	56.95	-30.4	-33.2	13.8	6.80e-06	0	44	0	631242752	21	4949
2026-01-26 09:47:56.51	73.06	57.03	-30.2	-32.7	14.0	5.30e-06	0	44	0	633339904	21	4783
2026-01-26 09:47:57.51	72.26	57.09	-30.3	-32.8	14.1	5.30e-06	0	44	0	634388480	21	4809
2026-01-26 09:47:58.52	71.45	57.15	-30.3	-32.9	13.9	3.80e-06	0	44	0	636485632	21	4860
2026-01-26 09:47:59.52	70.64	57.21	-30.4	-33.2	13.8	2.20e-06	0	44	0	638582784	21	4956
2026-01-26 09:48:00.52	69.82	57.26	-30.3	-32.8	14.0	6.80e-06	0	44	0	640679936	21	4829
2026-01-26 09:48:01.52	69.01	57.31	-29.8	-31.6	14.7	7.00e-07	0	44	0	641728512	21	4429
2026-01-26 09:48:02.52	68.19	57.35	-29.6	-31.7	15.0	7.00e-07	0	44	0	643825664	20	4546
2026-01-26 09:48:03.53	67.36	57.38	-29.3	-30.9	15.5	0.00e+00	0	44	0	645922816	20	4329
2026-01-26 09:48:04.53	66.54	57.41	-29.2	-31.0	15.8	0.00e+00	0	44	0	648019968	19	4434
2026-01-26 09:48:05.53	65.72	57.43	-29.0	-30.7	15.9	0.00e+00	0	44	0	650117120	19	4347
2026-01-26 09:48:06.54	64.88	57.45	-29.0	-30.5	16.0	0.00e+00	0	44	0	651165696	19	4310
2026-01-26 09:48:07.54	64.06	57.46	-29.0	-30.7	15.9	0.00e+00	0	44	0	653262848	19	4352
2026-01-26 09:48:08.54	63.23	57.47	-29.2	-31.1	15.7	0.00e+00	0	44	0	655360000	19	4483
2026-01-26 09:48:09.55	62.40	57.47	-29.3	-31.2	15.7	1.50e-06	0	44	0	657457152	19	4507
2026-01-26 09:48:10.54	61.58	57.47	-29.2	-31.0	15.8	0.00e+00	0	44	0	659554304	19	4440
2026-01-26 09:48:11.55	60.75	57.45	-29.5	-31.7	15.4	0.00e+00	0	44	0	660602880	19	4651
2026-01-26 09:48:12.55	59.92	57.44	-29.5	-31.7	15.4	0.00e+00	0	44	0	662700032	19	4654
2026-01-26 09:48:13.55	59.10	57.42	-29.1	-30.7	16.0	0.00e+00	0	44	0	664797184	19	4365
2026-01-26 09:48:14.55	58.27	57.39	-28.9	-30.4	16.2	0.00e+00	0	44	0	666894336	19	4260
2026-01-26 09:48:15.55	57.45	57.35	-28.7	-30.4	16.4	0.00e+00	0	44	0	668991488	18	4374
2026-01-26 09:48:16.55	56.64	57.32	-28.5	-30.0	16.7	0.00e+00	0	44	0	670040064	18	4247
2026-01-26 09:48:17.55	55.82	57.27	-28.3	-29.5	16.9	0.00e+00	0	44	0	672137216	18	4105
2026-01-26 09:48:18.56	55.00	57.22	-28.2	-29.7	17.1	0.00e+00	0	44	0	674234368	17	4279
2026-01-26 09:48:19.56	54.19	57.16	-28.2	-29.7	17.1	0.00e+00	0	44	0	676331520	17	4269
2026-01-26 09:48:20.57	53.38	57.10	-28.2	-29.7	17.1	0.00e+00	0	43	0	678428672	17	4272
2026-01-26 09:48:21.57	52.58	57.04	-28.1	-29.5	17.2	0.00e+00	0	44	0	679477248	17	4223
2026-01-26 09:48:22.57	51.78	56.97	-28.0	-29.3	17.3	0.00e+00	0	44	0	681574400	17	4176
2026-01-26 09:48:23.57	50.98	56.89	-27.9	-29.1	17.4	0.00e+00	0	44	0	683671552	17	4117
2026-01-26 09:48:24.57	50.19	56.81	-28.1	-29.4	17.3	0.00e+00	0	44	0	685768704	17	4201
2026-01-26 09:48:25.58	49.40	56.72	-27.9	-29.1	17.5	0.00e+00	0	43	0	686817280	17	4101
2026-01-26 09:48:26.58	48.62	56.63	-27.8	-29.2	17.7	0.00e+00	0	44	0	688914432	16	4240
2026-01-26 09:48:27.58	47.85	56.53	-28.0	-29.8	17.3	7.00e-07	0	44	0	691011584	16	4417
2026-01-26 09:48:28.58	47.08	56.43	-28.2	-30.1	17.1	0.00e+00	0	44	0	693108736	16	4516
2026-01-26 09:48:29.59	46.31	56.32	-28.2	-30.3	17.0	0.00e+00	0	44	0	695205888	16	4550
2026-01-26 09:48:30.60	45.55	56.21	-28.5	-30.4	16.7	0.00e+00	0	44	0	696254464	17	4478
2026-01-26 09:48:31.60	44.80	56.09	-28.7	-30.9	16.4	0.00e+00	0	44	0	698351616	17	4639
2026-01-26 09:48:32.60	44.06	55.97	-28.8	-31.1	16.2	0.00e+00	0	44	0	700448768	17	4701
2026-01-26 09:48:33.61	43.31	55.84	-28.9	-31.3	16.1	0.00e+00	0	44	0	702545920	17	4762
2026-01-26 09:48:34.61	42.58	55.72	-28.9	-31.3	16.1	0.00e+00	0	44	0	704643072	17	4770
2026-01-26 09:48:35.62	41.85	55.58	-29.1	-31.4	15.8	0.00e+00	0	44	0	705691648	18	4665
2026-01-26 09:48:36.61	41.14	55.44	-29.2	-31.6	15.6	0.00e+00	0	44	0	707788800	18	4751
2026-01-26 09:48:37.61	40.43	55.30	-29.3	-31.9	15.4	0.00e+00	0	44	0	709885952	18	4858
2026-01-26 09:48:38.61	39.73	55.16	-29.3	-31.8	15.5	0.00e+00	0	44	0	711983104	18	4818
2026-01-26 09:48:39.61	39.04	55.01	-29.2	-31.6	15.6	0.00e+00	0	44	0	714080256	18	4741
2026-01-26 09:48:40.61	38.35	54.86	-28.9	-31.0	16.0	0.00e+00	0	44	0	715128832	18	4552
2026-01-26 09:48:41.62	37.66	54.70	-28.6	-30.2	16.4	0.00e+00	0	44	0	717225984	18	4330
2026-01-26 09:48:42.63	36.98	54.54	-28.9	-31.0	16.0	0.00e+00	0	44	0	719323136	18	4544
2026-01-26 09:48:43.62	36.32	54.37	-29.1	-31.4	15.7	0.00e+00	0	44	0	721420288	18	4686
2026-01-26 09:48:44.62	35.67	54.21	-28.9	-30.9	16.0	0.00e+00	0	44	0	723517440	18	4544
2026-01-26 09:48:45.63	35.01	54.03	-29.0	-31.1	16.0	0.00e+00	0	44	0	724566016	18	4579
2026-01-26 09:48:46.63	34.37	53.86	-28.9	-30.9	16.0	0.00e+00	0	44	0	726663168	18	4530
2026-01-26 09:48:47.64	33.73	53.68	-28.7	-30.3	16.4	0.00e+00	0	44	0	728760320	18	4333
2026-01-26 09:48:48.64	33.11	53.50	-28.4	-29.7	16.8	0.00e+00	0	44	0	730857472	18	4170
2026-01-26 09:48:49.64	32.49	53.32	-28.4	-29.8	16.7	0.00e+00	0	44	0	731906048	18	4201
2026-01-26 09:48:50.64	31.88	53.14	-28.4	-29.7	16.7	0.00e+00	0	44	0	734003200	18	4170
2026-01-26 09:48:51.64	31.27	52.95	-28.5	-29.8	16.7	0.00e+00	0	44	0	736100352	18	4211
2026-01-26 09:48:52.65	30.67	52.76	-28.9	-30.9	16.1	0.00e+00	0	44	0	738197504	18	4525
2026-01-26 09:48:53.66	30.08	52.56	-29.3	-31.8	15.5	0.00e+00	0	44	0	740294656	18	4823
2026-01-26 09:48:54.66	29.50	52.37	-29.5	-32.2	15.3	0.00e+00	0	44	0	742391808	18	4958
2026-01-26 09:48:55.66	28.93	52.17	-29.5	-31.8	15.2	7.00e-07	0	44	0	743440384	19	4710
2026-01-26 09:48:56.67	28.36	51.97	-29.4	-31.7	15.3	0.00e+00	0	43	0	745537536	19	4652
2026-01-26 09:48:57.67	27.81	51.77	-29.5	-31.8	15.2	0.00e+00	0	44	0	747634688	19	4692
2026-01-26 09:48:58.68	27.25	51.57	-29.9	-32.8	14.6	0.00e+00	0	44	0	749731840	19	5021
2026-01-26 09:48:59.68	26.71	51.36	-30.4	-33.8	13.6	4.50e-06	0	44	0	750780416	20	5308
2026-01-26 09:49:00.68	26.18	51.16	-30.8	-34.4	12.8	4.19e-05	0	44	0	752877568	21	5458
2026-01-26 09:49:01.68	25.65	50.95	-30.6	-33.7	13.3	3.20e-05	0	44	0	754974720	21	5164
2026-01-26 09:49:02.69	25.13	50.74	-30.5	-33.5	13.4	1.52e-05	0	44	0	757071872	21	5107
2026-01-26 09:49:03.69	24.62	50.53	-30.5	-33.5	13.3	1.37e-05	0	44	0	759169024	21	5106
2026-01-26 09:49:04.70	24.11	50.31	-30.9	-34.6	12.6	2.05e-05	0	44	0	760217600	21	5540
2026-01-26 09:49:05.70	23.61	50.10	-31.4	-35.8	11.6	4.09e-04	0	44	0	762314752	22	5919
2026-01-26 09:49:06.70	23.12	49.88	-31.8	-36.4	10.7	1.80e-03	0	44	0	764411904	23	6109
2026-01-26 09:49:07.70	22.64	49.67	-31.8	-36.6	10.6	2.62e-03	0	44	0	766509056	23	6199
2026-01-26 09:49:08.70	22.16	49.45	-31.8	-36.5	10.6	4.44e-03	0	44	0	768606208	23	6190
2026-01-26 09:49:09.70	21.69	49.23	-31.7	-36.2	10.9	2.75e-03	0	44	0	769654784	23	6006
2026-01-26 09:49:10.71	21.22	49.01	-31.5	-35.4	11.3	1.45e-03	0	43	0	771751936	23	5667
2026-01-26 09:49:11.71	20.77	48.79	-31.6	-35.7	11.2	1.11e-03	0	44	0	773849088	23	5809
2026-01-26 09:49:12.72	20.31	48.56	-31.6	-35.7	11.2	1.70e-03	0	44	0	775946240	23	5790
2026-01-26 09:49:13.72	19.87	48.34	-31.8	-36.4	10.8	2.22e-03	0	44	0	778043392	23	6105
2026-01-26 09:49:14.72	19.43	48.12	-31.7	-36.0	11.0	2.92e-03	0	44	0	779091968	23	5915
2026-01-26 09:49:15.73	19.00	47.89	-31.6	-35.9	11.1	1.65e-03	0	43	0	781189120	23	5874
2026-01-26 09:49:16.73	18.58	47.67	-31.7	-36.1	10.9	1.96e-03	0	44	0	783286272	23	5962
2026-01-26 09:49:17.73	18.16	47.45	-31.7	-36.0	10.9	1.94e-03	0	44	0	785383424	23	5952
2026-01-26 09:49:18.74	17.74	47.22	-31.8	-36.5	10.5	3.03e-03	0	44	0	787480576	23	6202
2026-01-26 09:49:19.75	17.33	46.99	-32.1	-37.1	9.7	8.27e-03	0	44	0	788529152	24	6392
2026-01-26 09:49:20.74	16.94	46.77	-32.1	-37.2	9.6	1.62e-02	0	44	0	790626304	24	6424
2026-01-26 09:49:21.75	16.54	46.54	-31.9	-36.3	10.3	9.16e-03	0	44	0	792723456	24	5993
2026-01-26 09:49:22.75	16.15	46.31	-31.6	-35.4	11.0	2.70e-03	0	44	0	794820608	24	5549
2026-01-26 09:49:23.75	15.77	46.09	-31.6	-35.3	11.1	1.91e-03	0	43	0	795869184	24	5527
2026-01-26 09:49:24.75	15.39	45.86	-31.6	-35.4	11.0	1.93e-03	0	44	0	797966336	24	5566
2026-01-26 09:49:25.75	15.02	45.63	-31.7	-35.7	10.8	2.23e-03	0	44	0	800063488	24	5671
2026-01-26 09:49:26.75	14.65	45.41	-31.8	-36.0	10.5	3.14e-03	0	44	0	802160640	24	5845
2026-01-26 09:49:27.76	14.29	45.18	-31.6	-35.2	11.1	3.71e-03	0	44	0	804257792	24	5476
2026-01-26 09:49:28.76	13.93	44.95	-31.4	-34.6	11.5	9.86e-04	0	44	0	806354944	24	5221
2026-01-26 09:49:29.76	13.58	44.73	-31.2	-34.6	12.0	4.68e-04	0	44	0	807403520	23	5297
2026-01-26 09:49:30.76	13.23	44.50	-31.4	-35.2	11.4	4.29e-04	0	44	0	809500672	23	5582
2026-01-26 09:49:31.77	12.89	44.27	-31.4	-35.3	11.3	9.96e-04	0	44	0	811597824	23	5640
2026-01-26 09:49:32.77	12.55	44.04	-31.3	-34.9	11.6	6.48e-04	0	44	0	813694976	23	5454
2026-01-26 09:49:33.78	12.22	43.82	-31.4	-35.1	11.5	5.97e-04	0	44	0	814743552	23	5542
2026-01-26 09:49:34.79	11.89	43.59	-31.5	-35.4	11.3	8.68e-04	0	44	0	816840704	23	5664
2026-01-26 09:49:35.78	11.57	43.37	-31.6	-35.8	11.0	1.82e-03	0	44	0	818937856	23	5857
2026-01-26 09:49:36.78	11.25	43.14	-31.7	-36.2	10.7	2.36e-03	0	44	0	821035008	23	6031
2026-01-26 09:49:37.79	10.94	42.91	-31.4	-35.3	11.3	1.83e-03	0	44	0	823132160	23	5626
2026-01-26 09:49:38.79	10.63	42.69	-31.6	-35.8	11.1	8.69e-04	0	44	0	824180736	23	5836
2026-01-26 09:49:39.79	10.32	42.47	-31.4	-35.3	11.4	1.18e-03	0	44	0	826277888	23	5610
2026-01-26 09:49:40.80	10.02	42.24	-31.4	-35.1	11.6	7.42e-04	0	44	0	828375040	23	5513
2026-01-26 09:49:41.80	9.72	42.02	-31.3	-34.8	11.8	6.48e-04	0	43	0	830472192	23	5392
2026-01-26 09:49:42.80	9.43	41.80	-31.1	-34.2	12.1	3.64e-04	0	44	0	832569344	23	5149
2026-01-26 09:49:43.80	9.14	41.57	-31.0	-34.1	12.2	2.29e-04	0	43	0	833617920	23	5113
2026-01-26 09:49:44.80	8.86	41.35	-31.1	-34.2	12.1	2.00e-04	0	44	0	835715072	23	5152
2026-01-26 09:49:45.79	8.58	41.13	-31.1	-34.3	12.1	2.03e-04	0	44	0	837812224	23	5201
2026-01-26 09:49:46.79	8.31	40.91	-31.4	-35.2	11.4	6.90e-04	0	44	0	839909376	23	5600
2026-01-26 09:49:47.79	8.04	40.69	-31.4	-35.3	11.3	9.95e-04	0	44	0	840957952	23	5624
2026-01-26 09:49:48.80	7.76	40.47	-31.7	-36.2	10.7	1.48e-03	0	44	0	843055104	23	6046
2026-01-26 09:49:49.79	7.50	40.26	-31.6	-36.1	10.7	3.34e-03	0	44	0	845152256	23	5996
2026-01-26 09:49:50.79	7.24	40.04	-31.5	-35.6	11.0	2.52e-03	0	44	0	847249408	23	5764
2026-01-26 09:49:51.79	6.98	39.82	-31.4	-35.3	11.3	1.25e-03	0	44	0	849346560	23	5637
2026-01-26 09:49:52.79	6.73	39.61	-31.6	-35.9	10.9	1.29e-03	0	44	0	850395136	23	5896
2026-01-26 09:49:53.80	6.48	39.39	-31.7	-36.1	10.7	2.50e-03	0	44	0	852492288	23	6024
2026-01-26 09:49:54.81	6.23	39.17	-31.7	-36.4	10.4	3.65e-03	0	44	0	854589440	23	6139
2026-01-26 09:49:55.81	5.98	38.96	-31.6	-35.9	10.9	2.86e-03	0	44	0	856686592	23	5903
2026-01-26 09:49:56.81	5.74	38.74	-31.5	-35.7	11.0	2.26e-03	0	44	0	858783744	23	5836
2026-01-26 09:49:57.81	5.50	38.53	-31.5	-35.7	11.0	1.95e-03	0	44	0	859832320	23	5833
2026-01-26 09:49:58.81	5.27	38.32	-31.6	-36.1	10.7	3.03e-03	0	44	0	861929472	23	6016
2026-01-26 09:49:59.81	5.04	38.11	-31.6	-35.8	11.0	2.59e-03	0	44	0	864026624	23	5860
2026-01-26 09:50:00.81	4.81	37.90	-31.6	-35.8	10.9	2.01e-03	0	44	0	866123776	23	5883
2026-01-26 09:50:01.81	4.58	37.69	-31.5	-35.5	11.1	1.73e-03	0	44	0	868220928	23	5724
2026-01-26 09:50:02.81	4.36	37.48	-31.5	-35.6	11.1	1.73e-03	0	44	0	869269504	23	5773
2026-01-26 09:50:03.81	4.14	37.27	-31.8	-36.4	10.4	2.98e-03	0	44	0	871366656	23	6162
2026-01-26 09:50:04.81	3.92	37.06	-31.7	-36.3	10.5	6.22e-03	0	44	0	873463808	23	6112
2026-01-26 09:50:05.82	3.71	36.86	-31.6	-36.0	10.8	3.76e-03	0	44	0	875560960	23	5951
2026-01-26 09:50:06.82	3.50	36.65	-31.5	-35.6	11.0	2.31e-03	0	44	0	877658112	23	5760
2026-01-26 09:50:07.82	3.29	36.45	-31.4	-35.3	11.2	1.42e-03	0	44	0	878706688	23	5662
2026-01-26 09:50:08.83	3.08	36.24	-31.3	-35.2	11.3	1.16e-03	0	44	0	880803840	23	5587
2026-01-26 09:50:09.83	2.87	36.04	-31.2	-34.8	11.6	9.01e-04	0	44	0	882900992	23	5422
2026-01-26 09:50:10.83	2.67	35.84	-31.2	-34.6	11.7	6.11e-04	0	44	0	884998144	23	5346
2026-01-26 09:50:11.83	2.48	35.63	-31.1	-34.4	11.9	4.47e-04	0	44	0	886046720	23	5260
2026-01-26 09:50:12.83	2.28	35.43	-31.1	-34.5	11.7	5.50e-04	0	44	0	888143872	23	5328
2026-01-26 09:50:13.83	2.09	35.23	-31.1	-34.5	11.7	6.06e-04	0	44	0	890241024	23	5331
2026-01-26 09:50:14.83	1.89	35.04	-31.1	-34.6	11.7	5.00e-04	0	44	0	892338176	23	5354
2026-01-26 09:50:15.83	1.71	34.84	-31.2	-34.6	11.7	5.97e-04	0	44	0	894435328	23	5356
2026-01-26 09:50:16.83	1.52	34.64	-31.2	-34.7	11.6	6.94e-04	0	44	0	895483904	23	5391
2026-01-26 09:50:17.84	1.33	34.44	-31.1	-34.6	11.7	5.96e-04	0	44	0	897581056	23	5340
2026-01-26 09:50:18.84	1.15	34.25	-31.1	-34.4	11.9	5.09e-04	0	44	0	899678208	23	5251
2026-01-26 09:50:19.84	0.97	34.05	-31.2	-34.8	11.6	6.71e-04	0	44	0	901775360	23	5437
2026-01-26 09:50:20.84	0.79	33.86	-31.3	-35.0	11.4	9.70e-04	0	44	0	903872512	23	5513
2026-01-26 09:50:21.85	0.62	33.67	-31.5	-35.6	11.0	1.49e-03	0	44	0	904921088	23	5785
2026-01-26 09:50:22.85	0.44	33.48	-31.5	-35.6	10.9	2.17e-03	0	44	0	907018240	23	5813
2026-01-26 09:50:23.85	0.27	33.29	-31.7	-36.3	10.4	3.77e-03	0	43	0	909115392	23	6160
2026-01-26 09:50:24.85	0.10	33.10	-31.6	-36.1	10.5	4.15e-03	0	44	0	911212544	23	6030
2026-01-26 09:50:25.85	359.94	32.91	-31.5	-35.9	10.7	3.47e-03	0	44	0	913309696	23	5946
2026-01-26 09:50:26.86	359.77	32.72	-31.5	-35.7	10.8	2.28e-03	0	44	0	914358272	23	5854
2026-01-26 09:50:27.86	359.61	32.53	-31.4	-35.4	11.0	1.79e-03	0	44	0	916455424	23	5692
2026-01-26 09:50:28.85	359.45	32.35	-31.2	-34.7	11.6	1.12e-03	0	44	0	918552576	23	5384
2026-01-26 09:50:29.86	359.28	32.16	-31.1	-34.6	11.7	5.44e-04	0	44	0	920649728	23	5353
2026-01-26 09:50:30.86	359.13	31.98	-30.9	-34.0	12.1	3.67e-04	0	44	0	922746880	23	5114
2026-01-26 09:50:31.86	358.97	31.79	-31.0	-34.0	12.1	2.92e-04	0	44	0	923795456	23	5129
2026-01-26 09:50:32.85	358.82	31.61	-31.1	-34.4	11.7	4.05e-04	0	44	0	925892608	23	5282
2026-01-26 09:50:33.85	358.67	31.43	-31.1	-34.3	11.8	5.03e-04	0	44	0	927989760	23	5248
2026-01-26 09:50:34.86	358.51	31.25	-31.1	-34.4	11.7	5.51e-04	0	44	0	930086912	23	5288
2026-01-26 09:50:35.86	358.37	31.07	-31.1	-34.6	11.6	5.41e-04	0	44	0	931135488	23	5360
2026-01-26 09:50:36.86	358.22	30.89	-31.2	-34.9	11.4	8.15e-04	0	44	0	933232640	23	5489
2026-01-26 09:50:37.87	358.07	30.71	-31.2	-34.8	11.4	9.88e-04	0	44	0	935329792	23	5456
2026-01-26 09:50:38.87	357.93	30.53	-31.2	-34.9	11.4	1.02e-03	0	44	0	937426944	23	5482
2026-01-26 09:50:39.88	357.78	30.36	-31.2	-34.9	11.4	9.76e-04	0	44	0	939524096	23	5511
2026-01-26 09:50:40.88	357.64	30.18	-31.4	-35.4	11.0	1.53e-03	0	44	0	940572672	23	5739
2026-01-26 09:50:41.88	357.50	30.01	-31.4	-35.5	10.9	2.05e-03	0	44	0	942669824	23	5760
2026-01-26 09:50:42.89	357.36	29.83	-31.3	-35.3	11.1	2.13e-03	0	44	0	944766976	23	5660
2026-01-26 09:50:43.89	357.23	29.66	-31.4	-35.4	11.0	1.74e-03	0	44	0	946864128	23	5726
2026-01-26 09:50:44.89	357.09	29.49	-31.3	-35.2	11.2	1.67e-03	0	44	0	948961280	23	5610
2026-01-26 09:50:45.88	356.96	29.32	-31.2	-34.7	11.5	1.12e-03	0	44	0	950009856	23	5423
2026-01-26 09:50:46.88	356.83	29.15	-31.2	-34.8	11.4	1.02e-03	0	44	0	952107008	23	5468
2026-01-26 09:50:47.88	356.70	28.98	-31.1	-34.4	11.7	6.90e-04	0	44	0	954204160	23	5280
2026-01-26 09:50:48.89	356.57	28.81	-31.0	-34.2	11.9	4.55e-04	0	44	0	956301312	23	5188
2026-01-26 09:50:49.88	356.44	28.64	-31.0	-34.3	11.8	4.65e-04	0	44	0	958398464	23	5235
2026-01-26 09:50:50.89	356.32	28.47	-31.0	-34.1	11.9	5.37e-04	0	44	0	959447040	23	5182
2026-01-26 09:50:51.89	356.19	28.31	-31.0	-34.1	11.9	3.07e-04	0	44	0	961544192	23	5161
2026-01-26 09:50:52.90	356.07	28.14	-31.0	-34.1	11.9	4.00e-04	0	44	0	963641344	23	5154
2026-01-26 09:50:53.90	355.94	27.98	-31.1	-34.4	11.7	4.03e-04	0	44	0	965738496	23	5303
2026-01-26 09:50:54.90	355.82	27.81	-31.1	-34.5	11.6	6.50e-04	0	44	0	966787072	23	5345
2026-01-26 09:50:55.91	355.70	27.65	-31.2	-34.9	11.4	8.73e-04	0	44	0	968884224	23	5507
2026-01-26 09:50:56.91	355.58	27.49	-31.0	-34.3	11.7	8.85e-04	0	44	0	970981376	23	5251
2026-01-26 09:50:57.91	355.47	27.33	-30.9	-33.9	12.0	3.39e-04	0	44	0	973078528	23	5079
2026-01-26 09:50:58.91	355.35	27.17	-30.7	-34.0	12.3	2.60e-04	0	44	0	975175680	22	5220
2026-01-26 09:50:59.92	355.24	27.00	-30.8	-34.2	12.1	1.87e-04	0	44	0	976224256	22	5301
2026-01-26 09:51:00.93	355.12	26.84	-30.7	-34.0	12.2	2.40e-04	0	44	0	978321408	22	5246
2026-01-26 09:51:01.93	355.01	26.69	-30.9	-34.5	11.9	3.63e-04	0	44	0	980418560	22	5450
2026-01-26 09:51:02.93	354.90	26.53	-30.8	-34.2	12.1	3.91e-04	0	44	0	982515712	22	5319
2026-01-26 09:51:03.93	354.79	26.37	-30.7	-33.9	12.4	1.61e-04	0	44	0	984612864	22	5169
2026-01-26 09:51:04.93	354.68	26.22	-30.6	-33.5	12.6	1.07e-04	0	44	0	985661440	22	5056
2026-01-26 09:51:05.93	354.57	26.06	-30.5	-33.3	12.7	8.31e-05	0	44	0	987758592	22	4983
2026-01-26 09:51:06.93	354.46	25.91	-30.6	-33.5	12.6	7.85e-05	0	44	0	989855744	22	5034
2026-01-26 09:51:07.94	354.36	25.76	-30.4	-33.0	12.9	6.79e-05	0	44	0	991952896	22	4874
2026-01-26 09:51:08.94	354.25	25.60	-30.4	-33.1	12.9	5.41e-05	0	44	0	994050048	22	4897
2026-01-26 09:51:09.94	354.15	25.45	-30.4	-32.9	13.0	3.81e-05	0	44	0	995098624	22	4802
2026-01-26 09:51:10.95	354.04	25.30	-30.3	-32.9	13.0	2.28e-05	0	44	0	997195776	22	4806
2026-01-26 09:51:11.96	353.94	25.15	-30.4	-33.0	12.9	4.80e-05	0	44	0	999292928	22	4878
2026-01-26 09:51:12.96	353.84	25.00	-30.3	-32.9	13.0	3.58e-05	0	44	0	1001390080	22	4820
2026-01-26 09:51:13.96	353.74	24.85	-30.5	-33.3	12.7	5.11e-05	0	44	0	1003487232	22	4986
2026-01-26 09:51:14.97	353.64	24.70	-30.6	-33.7	12.4	1.06e-04	0	44	0	1004535808	22	5130
2026-01-26 09:51:15.98	353.54	24.55	-30.6	-33.7	12.4	1.28e-04	0	44	0	1006632960	22	5119
2026-01-26 09:51:16.98	353.45	24.41	-30.7	-33.8	12.4	1.65e-04	0	44	0	1008730112	22	5184
2026-01-26 09:51:17.98	353.35	24.26	-30.7	-33.8	12.4	1.72e-04	0	44	0	1010827264	22	5184
2026-01-26 09:51:18.97	353.26	24.12	-30.7	-33.8	12.4	1.80e-04	0	44	0	1012924416	22	5161
2026-01-26 09:51:19.97	353.16	23.97	-30.7	-33.8	12.3	1.82e-04	0	44	0	1013972992	22	5181
2026-01-26 09:51:20.97	353.07	23.83	-30.9	-34.5	11.8	3.01e-04	0	44	0	1016070144	22	5454
2026-01-26 09:51:21.98	352.97	23.69	-30.7	-33.9	12.3	2.62e-04	0	44	0	1018167296	22	5194
2026-01-26 09:51:22.98	352.88	23.54	-30.6	-33.7	12.4	1.43e-04	0	44	0	1020264448	22	5119
2026-01-26 09:51:23.98	352.79	23.40	-30.5	-33.3	12.7	8.46e-05	0	44	0	1021313024	22	4962
2026-01-26 09:51:24.99	352.70	23.26	-30.5	-33.4	12.6	1.07e-04	0	44	0	1023410176	22	5023
2026-01-26 09:51:25.99	352.61	23.12	-30.4	-33.1	12.8	6.63e-05	0	44	0	1025507328	22	4900
2026-01-26 09:51:26.99	352.53	22.98	-30.5	-33.3	12.7	6.56e-05	0	44	0	1027604480	22	4968
2026-01-26 09:51:27.99	352.44	22.84	-30.4	-33.1	12.7	6.86e-05	0	44	0	1029701632	22	4914
2026-01-26 09:51:28.99	352.35	22.71	-30.4	-33.1	12.8	7.32e-05	0	44	0	1030750208	22	4897
2026-01-26 09:51:30.00	352.26	22.57	-30.5	-33.5	12.5	6.86e-05	0	44	0	1032847360	22	5062
2026-01-26 09:51:31.00	352.18	22.43	-30.4	-33.0	12.8	9.53e-05	0	44	0	1034944512	22	4869
2026-01-26 09:51:32.00	352.10	22.29	-30.3	-33.2	13.0	4.04e-05	0	44	0	1037041664	21	5055
2026-01-26 09:51:33.00	352.01	22.16	-30.2	-33.2	13.0	4.65e-05	0	44	0	1039138816	21	5040
2026-01-26 09:51:34.01	351.93	22.02	-30.3	-33.3	12.9	4.57e-05	0	44	0	1040187392	21	5094
2026-01-26 09:51:35.01	351.85	21.89	-30.3	-33.4	12.8	4.73e-05	0	44	0	1042284544	21	5150
2026-01-26 09:51:36.02	351.77	21.75	-30.3	-33.4	12.8	5.79e-05	0	44	0	1044381696	21	5121
2026-01-26 09:51:37.02	351.69	21.62	-30.4	-33.6	12.6	7.70e-05	0	44	0	1046478848	21	5225
2026-01-26 09:51:38.02	351.61	21.49	-30.3	-33.3	12.8	5.26e-05	0	44	0	1048576000	21	5086
2026-01-26 09:51:39.02	351.53	21.36	-30.4	-33.6	12.6	6.94e-05	0	44	0	1049624576	21	5196
2026-01-26 09:51:40.02	351.45	21.23	-30.3	-33.2	12.9	5.03e-05	0	44	0	1051721728	21	5078
2026-01-26 09:51:41.02	351.37	21.10	-30.3	-33.4	12.7	6.63e-05	0	44	0	1053818880	21	5145
2026-01-26 09:51:42.02	351.29	20.97	-30.2	-33.1	12.9	6.10e-05	0	44	0	1055916032	21	5026
2026-01-26 09:51:43.02	351.22	20.84	-30.2	-33.1	12.9	4.11e-05	0	44	0	1058013184	21	5043
2026-01-26 09:51:44.01	351.14	20.71	-30.2	-33.1	12.9	3.50e-05	0	44	0	1059061760	21	5025
2026-01-26 09:51:45.02	351.07	20.58	-30.2	-33.0	13.0	4.27e-05	0	44	0	1061158912	21	4988
2026-01-26 09:51:46.03	350.99	20.46	-30.3	-33.5	12.6	7.32e-05	0	44	0	1063256064	21	5185
2026-01-26 09:51:47.03	350.92	20.33	-30.3	-33.4	12.7	8.23e-05	0	44	0	1065353216	21	5159
2026-01-26 09:51:48.03	350.85	20.20	-30.2	-33.2	12.9	5.56e-05	0	44	0	1067450368	21	5052
2026-01-26 09:51:49.03	350.77	20.08	-30.3	-33.3	12.8	5.64e-05	0	44	0	1068498944	21	5113
2026-01-26 09:51:50.03	350.70	19.95	-30.3	-33.4	12.8	6.10e-05	0	44	0	1070596096	21	5127
2026-01-26 09:51:51.03	350.63	19.83	-30.3	-33.5	12.7	6.71e-05	0	44	0	1072693248	21	5163
2026-01-26 09:51:52.04	350.56	19.70	-30.4	-33.8	12.4	9.53e-05	0	44	0	1074790400	21	5322
2026-01-26 09:51:53.04	350.49	19.58	-30.3	-33.4	12.7	9.91e-05	0	44	0	1075838976	21	5159
2026-01-26 09:51:54.04	350.42	19.46	-30.4	-33.8	12.5	9.68e-05	0	44	0	1077936128	21	5292
2026-01-26 09:51:55.04	350.35	19.34	-30.3	-33.5	12.6	1.04e-04	0	44	0	1080033280	21	5201
2026-01-26 09:51:56.04	350.28	19.21	-30.1	-32.8	13.1	4.34e-05	0	44	0	1082130432	21	4926
2026-01-26 09:51:57.04	350.22	19.09	-29.9	-32.4	13.4	1.75e-05	0	44	0	1084227584	21	4776
2026-01-26 09:51:58.06	350.15	18.97	-30.0	-32.5	13.3	1.98e-05	0	44	0	1085276160	21	4821
2026-01-26 09:51:59.06	350.08	18.85	-29.9	-32.1	13.5	8.30e-06	0	44	0	1087373312	21	4689
2026-01-26 09:52:00.06	350.01	18.73	-29.7	-32.4	13.7	1.14e-05	0	44	0	1089470464	20	4866
2026-01-26 09:52:01.07	349.95	18.61	-29.9	-32.7	13.5	4.50e-06	0	44	0	1091567616	20	4970
2026-01-26 09:52:02.07	349.88	18.49	-29.7	-32.3	13.8	7.60e-06	0	44	0	1093664768	20	4839
2026-01-26 09:52:03.07	349.82	18.38	-29.7	-32.3	13.8	8.30e-06	0	44	0	1094713344	20	4835
2026-01-26 09:52:04.07	349.76	18.26	-29.7	-32.3	13.8	3.00e-06	0	44	0	1096810496	20	4835
2026-01-26 09:52:05.07	349.69	18.14	-29.8	-32.4	13.7	6.80e-06	0	44	0	1098907648	20	4877
2026-01-26 09:52:06.07	349.63	18.03	-29.8	-32.6	13.5	9.10e-06	0	44	0	1101004800	20	4960
2026-01-26 09:52:07.08	349.57	17.91	-29.8	-32.6	13.5	6.10e-06	0	44	0	1103101952	20	4965
2026-01-26 09:52:08.07	349.51	17.80	-29.9	-32.9	13.4	9.90e-06	0	44	0	1104150528	20	5048
2026-01-26 09:52:09.07	349.44	17.68	-29.9	-32.8	13.4	1.29e-05	0	44	0	1106247680	20	5016
2026-01-26 09:52:10.07	349.38	17.57	-30.1	-33.3	13.1	2.13e-05	0	44	0	1108344832	20	5223
2026-01-26 09:52:11.06	349.32	17.45	-30.0	-33.0	13.3	2.21e-05	0	44	0	1110441984	20	5109
2026-01-26 09:52:12.07	349.26	17.34	-30.2	-33.8	12.7	3.81e-05	0	44	0	1112539136	20	5402
2026-01-26 09:52:13.07	349.20	17.23	-30.2	-33.5	12.9	5.64e-05	0	44	0	1113587712	20	5318
2026-01-26 09:52:14.07	349.15	17.12	-30.3	-33.8	12.7	6.48e-05	0	44	0	1115684864	20	5436
2026-01-26 09:52:15.07	349.09	17.00	-30.2	-33.8	12.7	7.55e-05	0	44	0	1117782016	20	5403
2026-01-26 09:52:16.06	349.03	16.89	-30.4	-34.1	12.5	8.46e-05	0	44	0	1119879168	20	5549
2026-01-26 09:52:17.07	348.97	16.78	-30.3	-33.8	12.7	9.15e-05	0	44	0	1120927744	20	5428
2026-01-26 09:52:18.07	348.92	16.67	-30.2	-33.6	12.9	5.79e-05	0	44	0	1123024896	20	5328
2026-01-26 09:52:19.07	348.86	16.56	-30.3	-33.8	12.7	6.02e-05	0	44	0	1125122048	20	5443
2026-01-26 09:52:20.07	348.80	16.45	-30.3	-33.9	12.6	8.62e-05	0	44	0	1127219200	20	5464
2026-01-26 09:52:21.07	348.75	16.34	-30.3	-33.9	12.6	8.92e-05	0	44	0	1129316352	20	5451
2026-01-26 09:52:22.08	348.69	16.23	-30.3	-34.1	12.5	1.14e-04	0	44	0	1130364928	20	5547
2026-01-26 09:52:23.08	348.64	16.13	-30.4	-34.4	12.3	1.36e-04	0	44	0	1132462080	20	5659
2026-01-26 09:52:24.07	348.58	16.02	-30.3	-34.1	12.4	1.36e-04	0	44	0	1134559232	20	5573
2026-01-26 09:52:25.07	348.53	15.91	-30.3	-34.1	12.5	1.31e-04	0	44	0	1136656384	20	5538
2026-01-26 09:52:26.07	348.47	15.81	-30.3	-34.0	12.5	8.54e-05	0	44	0	1138753536	20	5529
2026-01-26 09:52:27.08	348.42	15.70	-30.4	-34.4	12.3	1.30e-04	0	44	0	1139802112	20	5680
2026-01-26 09:52:28.08	348.37	15.59	-30.3	-34.1	12.5	1.50e-04	0	44	0	1141899264	20	5539
2026-01-26 09:52:29.08	348.32	15.49	-30.4	-34.2	12.3	1.26e-04	0	44	0	1143996416	20	5618
2026-01-26 09:52:30.08	348.26	15.38	-30.6	-34.5	11.8	2.55e-04	0	44	0	1146093568	21	5612
2026-01-26 09:52:31.09	348.21	15.28	-30.4	-33.8	12.3	2.43e-04	0	44	0	1147142144	21	5342
2026-01-26 09:52:32.08	348.16	15.17	-30.2	-33.4	12.6	1.46e-04	0	44	0	1149239296	21	5153
2026-01-26 09:52:33.09	348.11	15.07	-30.3	-33.4	12.5	1.08e-04	0	44	0	1151336448	21	5175
2026-01-26 09:52:34.09	348.06	14.97	-30.2	-33.3	12.6	8.69e-05	0	44	0	1153433600	21	5118
2026-01-26 09:52:35.10	348.01	14.86	-30.3	-33.6	12.4	1.28e-04	0	44	0	1155530752	21	5230
2026-01-26 09:52:36.09	347.96	14.76	-30.2	-33.3	12.6	8.69e-05	0	44	0	1156579328	21	5134
2026-01-26 09:52:37.08	347.91	14.66	-30.2	-33.1	12.7	7.85e-05	0	44	0	1158676480	21	5065
2026-01-26 09:52:38.09	347.86	14.56	-30.2	-33.1	12.7	6.40e-05	0	44	0	1160773632	21	5068
2026-01-26 09:52:39.09	347.81	14.46	-30.2	-33.4	12.5	9.91e-05	0	44	0	1162870784	21	5188
2026-01-26 09:52:40.09	347.76	14.36	-30.2	-33.2	12.6	9.23e-05	0	44	0	1164967936	21	5100
2026-01-26 09:52:41.10	347.72	14.25	-30.2	-33.4	12.5	1.24e-04	0	44	0	1166016512	21	5178
2026-01-26 09:52:42.10	347.67	14.15	-30.4	-33.8	12.2	2.01e-04	0	44	0	1168113664	21	5347
2026-01-26 09:52:43.10	347.62	14.06	-30.4	-33.9	12.1	2.17e-04	0	44	0	1170210816	21	5401
2026-01-26 09:52:44.10	347.57	13.96	-30.4	-33.9	12.1	2.94e-04	0	44	0	1172307968	21	5374
2026-01-26 09:52:45.11	347.53	13.86	-30.4	-33.8	12.2	2.66e-04	0	44	0	1174405120	21	5339
2026-01-26 09:52:46.11	347.48	13.76	-30.5	-34.1	11.9	2.84e-04	0	44	0	1175453696	21	5493
2026-01-26 09:52:47.11	347.43	13.66	-30.4	-33.8	12.1	2.26e-04	0	44	0	1177550848	21	5366
2026-01-26 09:52:48.11	347.39	13.56	-30.4	-34.0	12.0	2.75e-04	0	44	0	1179648000	21	5427
2026-01-26 09:52:49.11	347.34	13.46	-30.4	-34.0	12.0	3.81e-04	0	44	0	1181745152	21	5439
2026-01-26 09:52:50.10	347.30	13.37	-30.4	-34.0	12.0	2.60e-04	0	44	0	1182793728	21	5447
2026-01-26 09:52:51.10	347.26	13.27	-30.4	-34.0	12.0	3.23e-04	0	44	0	1184890880	21	5429
2026-01-26 09:52:52.11	347.21	13.18	-30.4	-34.0	12.0	3.17e-04	0	44	0	1186988032	21	5417
2026-01-26 09:52:53.11	347.17	13.08	-30.5	-34.2	11.9	5.07e-04	0	44	0	1189085184	21	5513
2026-01-26 09:52:54.12	347.12	12.98	-30.4	-34.1	11.9	3.58e-04	0	44	0	1191182336	21	5457
2026-01-26 09:52:55.13	347.08	12.89	-30.5	-34.3	11.8	5.77e-04	0	44	0	1192230912	21	5566
2026-01-26 09:52:56.13	347.04	12.79	-30.6	-34.4	11.7	4.44e-04	0	44	0	1194328064	21	5607
2026-01-26 09:52:57.12	346.99	12.70	-30.6	-34.4	11.7	7.77e-04	0	44	0	1196425216	21	5625
2026-01-26 09:52:58.13	346.95	12.60	-30.5	-34.2	11.8	6.43e-04	0	44	0	1198522368	21	5523
2026-01-26 09:52:59.13	346.91	12.51	-30.6	-34.5	11.6	5.13e-04	0	44	0	1200619520	21	5651
2026-01-26 09:53:00.13	346.87	12.42	-30.5	-34.4	11.7	7.12e-04	0	44	0	1201668096	21	5608
2026-01-26 09:53:01.14	346.82	12.32	-30.6	-34.5	11.6	6.06e-04	0	44	0	1203765248	21	5640
2026-01-26 09:53:02.14	346.78	12.23	-30.6	-34.7	11.4	7.97e-04	0	44	0	1205862400	21	5726
2026-01-26 09:53:03.13	346.74	12.14	-30.6	-34.5	11.6	5.74e-04	0	44	0	1207959552	21	5638
2026-01-26 09:53:04.14	346.70	12.05	-30.5	-34.3	11.7	6.93e-04	0	44	0	1210056704	21	5563
2026-01-26 09:53:05.14	346.66	11.95	-30.6	-34.6	11.5	6.71e-04	0	44	0	1211105280	21	5698
2026-01-26 09:53:06.14	346.62	11.86	-30.6	-34.6	11.5	7.86e-04	0	44	0	1213202432	21	5707
2026-01-26 09:53:07.15	346.58	11.77	-30.6	-34.6	11.4	8.69e-04	0	44	0	1215299584	21	5727
2026-01-26 09:53:08.16	346.54	11.68	-30.6	-34.7	11.4	1.10e-03	0	44	0	1217396736	21	5736
2026-01-26 09:53:09.16	346.50	11.59	-30.7	-34.9	11.2	1.63e-03	0	44	0	1219493888	21	5848
2026-01-26 09:53:10.16	346.46	11.50	-30.7	-35.0	11.2	1.03e-03	0	44	0	1220542464	21	5883
2026-01-26 09:53:11.17	346.42	11.41	-30.8	-35.2	11.0	1.59e-03	0	44	0	1222639616	21	5980
2026-01-26 09:53:12.18	346.38	11.32	-30.7	-34.9	11.2	1.74e-03	0	44	0	1224736768	21	5844
2026-01-26 09:53:13.18	346.35	11.23	-30.8	-35.2	11.0	1.42e-03	0	44	0	1226833920	21	5980
2026-01-26 09:53:14.18	346.31	11.14	-30.7	-34.9	11.1	1.69e-03	0	44	0	1228931072	21	5874
2026-01-26 09:53:15.18	346.27	11.05	-30.6	-34.7	11.3	1.48e-03	0	44	0	1229979648	21	5780
2026-01-26 09:53:16.18	346.23	10.96	-30.8	-35.4	10.8	1.88e-03	0	44	0	1232076800	21	6102
2026-01-26 09:53:17.18	346.20	10.87	-30.9	-35.5	10.7	2.98e-03	0	44	0	1234173952	21	6171
2026-01-26 09:53:18.18	346.16	10.79	-30.8	-35.4	10.8	2.42e-03	0	44	0	1236271104	21	6103
2026-01-26 09:53:19.19	346.12	10.70	-30.8	-35.2	10.9	2.23e-03	0	44	0	1237319680	21	6005
2026-01-26 09:53:20.19	346.09	10.61	-30.8	-35.3	10.8	2.80e-03	0	44	0	1239416832	21	6078
2026-01-26 09:53:21.19	346.05	10.52	-30.8	-35.4	10.8	2.19e-03	0	44	0	1241513984	21	6089
2026-01-26 09:53:22.19	346.01	10.44	-30.8	-35.3	10.8	3.02e-03	0	44	0	1243611136	21	6070
2026-01-26 09:53:23.19	345.98	10.35	-30.9	-35.6	10.6	3.57e-03	0	44	0	1245708288	21	6230
2026-01-26 09:53:24.19	345.94	10.27	-30.7	-35.0	11.0	2.61e-03	0	44	0	1246756864	21	5923
2026-01-26 09:53:25.20	345.91	10.18	-30.9	-35.6	10.5	3.27e-03	0	44	0	1248854016	21	6210
2026-01-26 09:53:26.20	345.87	10.09	-30.9	-35.6	10.5	3.82e-03	0	44	0	1250951168	21	6225
2026-01-26 09:53:27.20	345.84	10.01	-30.9	-35.7	10.5	2.49e-03	0	44	0	1253048320	21	6265
2026-01-26 09:53:28.20	345.80	9.93	-30.9	-35.8	10.4	4.22e-03	0	44	0	1255145472	21	6306
2026-01-26 09:53:29.20	345.77	9.84	-30.9	-35.6	10.6	3.25e-03	0	44	0	1256194048	21	6200
2026-01-26 09:53:30.21	345.73	9.76	-30.9	-35.9	10.3	4.80e-03	0	44	0	1258291200	21	6349
2026-01-26 09:53:31.21	345.70	9.67	-30.9	-35.8	10.4	3.98e-03	0	44	0	1260388352	21	6326
2026-01-26 09:53:32.21	345.66	9.59	-30.9	-35.8	10.4	5.19e-03	0	44	0	1262485504	21	6297
2026-01-26 09:53:33.22	345.63	9.50	-31.0	-35.9	10.3	4.02e-03	0	44	0	1264582656	21	6398
2026-01-26 09:53:34.22	345.60	9.42	-30.9	-35.9	10.3	5.24e-03	0	44	0	1265631232	21	6361
2026-01-26 09:53:35.22	345.56	9.34	-30.9	-35.8	10.4	4.82e-03	0	44	0	1267728384	21	6318
2026-01-26 09:53:36.22	345.53	9.26	-30.9	-35.9	10.3	4.11e-03	0	44	0	1269825536	21	6375
2026-01-26 09:53:37.22	345.50	9.17	-30.9	-35.7	10.4	5.83e-03	0	44	0	1271922688	21	6300
2026-01-26 09:53:38.22	345.47	9.09	-30.9	-35.7	10.5	4.80e-03	0	44	0	1274019840	21	6261
2026-01-26 09:53:39.23	345.43	9.01	-30.7	-35.2	10.8	3.45e-03	0	44	0	1275068416	21	6033
2026-01-26 09:53:40.23	345.40	8.93	-30.8	-35.4	10.6	4.23e-03	0	44	0	1277165568	21	6109
2026-01-26 09:53:41.23	345.37	8.85	-31.0	-36.1	10.1	3.75e-03	0	44	0	1279262720	21	6482
2026-01-26 09:53:42.24	345.34	8.76	-30.8	-35.5	10.4	5.70e-03	0	44	0	1281359872	21	6182
2026-01-26 09:53:43.24	345.31	8.68	-30.9	-35.7	10.3	6.35e-03	0	44	0	1282408448	21	6311
