passes_logs/2026/01/26/R2M6_AANII_01/R2M6_AANII_01__20260126_020612_FENGYUN_3D_rec.log

#Pass ID: 20260126_020612_FENGYUN 3D
#Satellite: FENGYUN 3D
#Configuration: FENGYUN 3D
#almurnet v.1.7.20240730
#Start time: 2026-01-26 02:06:13

#Version: 2.2.20231116
#Station: R2M6_AANII_01
#Location: 30.233357 lon 59.946436 lat
#TLE: 1 43010U 17072A   26025.50461972  .00000046  00000+0  43592-4 0  9990
#TLE: 2 43010  98.9962 357.4844 0002523  89.7890 270.3575 14.19699798424744

#Time	Az	El	Level	Level2	SNR	BER	BlckErr	Temp	State	Recorded	gain1	gain2
2026-01-26 02:06:13.42	20.54	7.04	-28.9	-32.2	5.4	7.87e-01	0	41	0	0	17	5283
2026-01-26 02:06:14.41	20.56	7.12	-29.1	-32.2	5.4	7.87e-01	0	42	104	0	18	5147
2026-01-26 02:06:15.42	20.59	7.19	-28.9	-31.7	10.3	9.57e-03	0	42	0	0	18	4945
2026-01-26 02:06:16.43	20.61	7.27	-28.9	-32.2	10.2	9.75e-03	0	41	102	1048576	17	5278
2026-01-26 02:06:17.42	20.63	7.35	-28.4	-31.5	9.8	1.09e-02	0	42	102	1048576	18	5164
2026-01-26 02:06:18.42	20.66	7.42	-29.0	-32.4	9.8	1.01e-02	0	42	102	1048576	17	5341
2026-01-26 02:06:19.42	20.68	7.50	-28.9	-32.2	10.3	1.07e-02	0	42	102	1048576	17	5272
2026-01-26 02:06:20.43	20.71	7.58	-28.3	-31.2	11.2	2.20e-03	0	42	102	1048576	16	5016
2026-01-26 02:06:21.44	20.73	7.66	-28.0	-30.4	11.8	3.02e-03	0	42	102	1048576	16	4724
2026-01-26 02:06:22.44	20.75	7.74	-27.7	-30.1	12.1	4.77e-04	0	42	102	1048576	15	4749
2026-01-26 02:06:23.43	20.78	7.81	-27.3	-29.7	12.7	3.79e-04	0	42	102	1048576	14	4748
2026-01-26 02:06:24.43	20.80	7.89	-26.9	-28.8	13.2	1.52e-03	0	42	102	1048576	14	4476
2026-01-26 02:06:25.43	20.83	7.97	-26.9	-29.2	13.3	1.51e-03	0	42	102	1048576	13	4693
2026-01-26 02:06:26.43	20.85	8.05	-26.7	-28.8	13.5	1.83e-04	0	42	102	1048576	13	4575
2026-01-26 02:06:27.43	20.88	8.13	-26.3	-28.2	14.1	1.33e-03	0	42	102	1048576	12	4514
2026-01-26 02:06:28.44	20.90	8.21	-26.3	-28.4	14.1	1.31e-03	0	42	102	1048576	12	4563
2026-01-26 02:06:29.45	20.93	8.29	-26.6	-28.5	13.7	4.68e-04	0	42	102	1048576	13	4488
2026-01-26 02:06:30.45	20.95	8.37	-26.7	-28.9	13.5	1.47e-03	0	42	102	1048576	13	4592
2026-01-26 02:06:31.45	20.98	8.45	-26.2	-27.6	14.2	1.30e-03	0	42	102	1048576	13	4242
2026-01-26 02:06:32.46	21.00	8.53	-26.1	-27.9	14.4	9.04e-05	0	42	102	1048576	12	4423
2026-01-26 02:06:33.46	21.03	8.61	-25.8	-27.8	14.8	1.17e-03	0	42	102	1048576	11	4488
2026-01-26 02:06:34.46	21.05	8.70	-26.2	-28.2	14.3	0.00e+00	0	42	102	1048576	12	4510
2026-01-26 02:06:35.47	21.08	8.78	-26.2	-28.1	14.3	6.86e-05	0	42	102	1048576	12	4488
2026-01-26 02:06:36.47	21.10	8.86	-25.9	-27.5	14.6	3.62e-04	0	42	102	1048576	12	4309
2026-01-26 02:06:37.47	21.13	8.94	-26.1	-27.9	14.4	1.06e-03	0	42	102	1048576	12	4428
2026-01-26 02:06:38.48	21.15	9.02	-26.1	-27.8	14.5	3.57e-04	0	42	102	1048576	12	4387
2026-01-26 02:06:39.48	21.18	9.11	-25.9	-27.5	14.7	3.67e-04	0	42	102	1048576	12	4301
2026-01-26 02:06:40.48	21.21	9.19	-25.9	-27.4	14.7	1.10e-06	0	42	102	1048576	12	4278
2026-01-26 02:06:41.48	21.23	9.27	-26.0	-27.6	14.6	4.59e-04	0	42	102	1048576	12	4327
2026-01-26 02:06:42.48	21.26	9.36	-26.0	-27.6	14.6	9.98e-04	0	42	102	1048576	12	4326
2026-01-26 02:06:43.48	21.29	9.44	-25.8	-27.2	14.9	1.10e-06	0	42	102	1048576	12	4224
2026-01-26 02:06:44.49	21.31	9.52	-26.1	-27.9	14.5	1.23e-04	0	42	102	1048576	12	4419
2026-01-26 02:06:45.49	21.34	9.61	-26.3	-28.4	14.2	5.27e-04	0	42	102	1048576	12	4563
2026-01-26 02:06:46.49	21.37	9.69	-25.9	-27.5	14.7	1.10e-06	0	42	102	1048576	12	4299
2026-01-26 02:06:47.49	21.39	9.78	-25.9	-27.8	14.9	4.82e-04	0	43	102	1048576	11	4491
2026-01-26 02:06:48.50	21.42	9.86	-25.9	-27.8	14.9	4.45e-04	0	42	102	1048576	11	4493
2026-01-26 02:06:49.50	21.45	9.95	-25.9	-27.9	14.9	1.09e-03	0	42	102	1048576	11	4516
2026-01-26 02:06:50.50	21.48	10.03	-25.8	-27.7	15.0	5.21e-04	0	43	102	1048576	11	4462
2026-01-26 02:06:51.51	21.50	10.12	-25.8	-27.6	15.1	5.39e-04	0	42	102	1048576	11	4440
2026-01-26 02:06:52.51	21.53	10.21	-25.9	-27.8	15.0	0.00e+00	0	43	102	1048576	11	4487
2026-01-26 02:06:53.51	21.56	10.29	-26.0	-27.6	14.7	5.19e-04	0	43	102	1048576	12	4323
2026-01-26 02:06:54.51	21.59	10.38	-25.9	-27.9	14.9	6.26e-04	0	43	102	1048576	11	4519
2026-01-26 02:06:55.52	21.62	10.47	-25.8	-27.7	15.0	0.00e+00	0	43	102	1048576	11	4466
2026-01-26 02:06:56.52	21.64	10.56	-26.0	-28.1	14.8	0.00e+00	0	43	102	1048576	11	4569
2026-01-26 02:06:57.53	21.67	10.64	-26.1	-27.9	14.6	5.81e-04	0	43	102	1048576	12	4407
2026-01-26 02:06:58.53	21.70	10.73	-26.3	-28.4	14.3	3.40e-06	0	43	102	1048576	12	4546
2026-01-26 02:06:59.53	21.73	10.82	-26.0	-27.6	14.7	4.97e-04	0	43	102	1048576	12	4328
2026-01-26 02:07:00.53	21.76	10.91	-25.8	-27.0	15.1	5.38e-04	0	43	102	1048576	12	4175
2026-01-26 02:07:01.54	21.79	11.00	-25.8	-27.7	15.1	1.10e-06	0	43	102	1048576	11	4469
2026-01-26 02:07:02.55	21.82	11.09	-25.8	-27.5	15.2	5.29e-04	0	43	102	1048576	11	4419
2026-01-26 02:07:03.55	21.85	11.18	-25.8	-27.7	15.1	0.00e+00	0	43	102	1048576	11	4454
2026-01-26 02:07:04.56	21.88	11.27	-25.7	-27.5	15.2	1.10e-06	0	43	102	1048576	11	4403
2026-01-26 02:07:05.57	21.91	11.36	-25.8	-27.5	15.2	0.00e+00	0	43	102	1048576	11	4413
2026-01-26 02:07:06.57	21.94	11.45	-25.7	-27.4	15.2	3.92e-04	0	43	102	1048576	11	4388
2026-01-26 02:07:07.58	21.97	11.54	-25.9	-27.7	15.1	0.00e+00	0	43	102	1048576	11	4476
2026-01-26 02:07:08.58	22.00	11.63	-25.7	-27.3	15.3	0.00e+00	0	43	102	1048576	11	4362
2026-01-26 02:07:09.59	22.03	11.73	-25.8	-27.7	15.1	3.86e-04	0	43	102	1048576	11	4457
2026-01-26 02:07:10.59	22.06	11.82	-25.9	-27.9	15.0	0.00e+00	0	43	102	1048576	11	4511
2026-01-26 02:07:11.60	22.09	11.91	-25.7	-27.4	15.3	3.60e-04	0	43	102	1048576	11	4371
2026-01-26 02:07:12.60	22.12	12.00	-26.0	-27.5	14.9	0.00e+00	0	43	102	1048576	12	4306
2026-01-26 02:07:13.60	22.15	12.10	-25.8	-27.2	15.0	1.10e-06	0	43	102	1048576	12	4207
2026-01-26 02:07:14.61	22.18	12.19	-25.7	-27.4	15.3	0.00e+00	0	43	102	1048576	11	4379
2026-01-26 02:07:15.61	22.21	12.28	-25.7	-27.4	15.3	0.00e+00	0	43	102	1048576	11	4381
2026-01-26 02:07:16.61	22.24	12.38	-25.7	-27.5	15.3	0.00e+00	0	43	102	1048576	11	4391
2026-01-26 02:07:17.61	22.27	12.47	-25.7	-27.3	15.4	0.00e+00	0	43	102	1048576	11	4345
2026-01-26 02:07:18.62	22.31	12.57	-25.6	-27.2	15.5	0.00e+00	0	43	102	1048576	11	4310
2026-01-26 02:07:19.63	22.34	12.66	-26.0	-27.5	15.0	0.00e+00	0	43	102	1048576	12	4283
2026-01-26 02:07:20.63	22.37	12.76	-25.8	-27.1	15.2	0.00e+00	0	43	102	1048576	12	4174
2026-01-26 02:07:21.64	22.40	12.86	-25.8	-27.6	15.2	0.00e+00	0	43	102	1048576	11	4439
2026-01-26 02:07:22.64	22.44	12.95	-25.9	-27.8	15.1	0.00e+00	0	43	102	1048576	11	4479
2026-01-26 02:07:23.65	22.47	13.05	-25.9	-27.9	15.1	0.00e+00	0	43	102	1048576	11	4504
2026-01-26 02:07:24.66	22.50	13.15	-26.0	-27.9	15.0	0.00e+00	0	43	102	1048576	11	4522
2026-01-26 02:07:25.67	22.54	13.25	-26.1	-27.8	14.8	0.00e+00	0	43	102	1048576	12	4366
2026-01-26 02:07:26.67	22.57	13.34	-25.8	-27.1	15.2	0.00e+00	0	43	102	1048576	12	4191
2026-01-26 02:07:27.67	22.60	13.44	-25.8	-27.5	15.3	0.00e+00	0	43	102	1048576	11	4403
2026-01-26 02:07:28.67	22.64	13.54	-26.0	-28.0	15.0	0.00e+00	0	43	102	1048576	11	4547
2026-01-26 02:07:29.68	22.67	13.64	-26.2	-27.9	14.7	0.00e+00	0	43	102	1048576	12	4397
2026-01-26 02:07:30.68	22.70	13.74	-25.4	-27.4	13.5	0.00e+00	0	43	102	1048576	11	4546
2026-01-26 02:07:31.68	22.74	13.84	-26.0	-27.6	14.9	0.00e+00	0	43	102	1048576	12	4321
2026-01-26 02:07:32.69	22.77	13.94	-26.0	-27.5	13.8	1.10e-06	0	43	102	1048576	12	4286
2026-01-26 02:07:33.69	22.81	14.04	-25.9	-27.8	15.0	0.00e+00	0	43	102	1048576	11	4488
2026-01-26 02:07:34.70	22.84	14.14	-25.8	-27.6	15.3	0.00e+00	0	43	102	1048576	11	4425
2026-01-26 02:07:35.70	22.88	14.25	-25.9	-27.8	15.2	0.00e+00	0	43	102	1048576	11	4485
2026-01-26 02:07:36.71	22.91	14.35	-25.9	-27.3	15.1	9.74e-04	0	43	102	1048576	12	4233
2026-01-26 02:07:37.72	22.95	14.45	-25.7	-26.9	15.4	0.00e+00	0	43	102	1048576	12	4125
2026-01-26 02:07:38.72	22.98	14.55	-25.6	-27.1	15.6	9.05e-04	0	43	102	1048576	11	4283
2026-01-26 02:07:39.73	23.02	14.66	-25.5	-26.9	15.7	0.00e+00	0	43	102	1048576	11	4224
2026-01-26 02:07:40.73	23.06	14.76	-25.6	-27.0	15.6	0.00e+00	0	43	102	1048576	11	4269
2026-01-26 02:07:41.74	23.09	14.87	-25.7	-27.4	15.5	8.88e-04	0	43	102	1048576	11	4356
2026-01-26 02:07:42.75	23.13	14.97	-25.6	-27.1	15.6	0.00e+00	0	43	102	1048576	11	4283
2026-01-26 02:07:43.75	23.17	15.08	-25.8	-27.5	15.4	0.00e+00	0	43	102	1048576	11	4381
2026-01-26 02:07:44.76	23.20	15.18	-25.7	-27.3	15.5	0.00e+00	0	43	102	1048576	11	4329
2026-01-26 02:07:45.76	23.24	15.29	-25.4	-26.7	15.8	9.12e-04	0	43	102	1048576	11	4188
2026-01-26 02:07:46.76	23.28	15.40	-25.2	-26.2	16.2	1.10e-06	0	43	102	1048576	11	4037
2026-01-26 02:07:47.76	23.32	15.50	-25.1	-26.6	16.2	0.00e+00	0	43	102	1048576	10	4250
2026-01-26 02:07:48.77	23.36	15.61	-25.1	-26.5	16.2	8.33e-04	0	43	102	1048576	10	4230
2026-01-26 02:07:49.77	23.39	15.72	-25.2	-26.8	16.1	0.00e+00	0	43	102	1048576	10	4316
2026-01-26 02:07:50.78	23.43	15.83	-25.0	-26.4	16.3	7.95e-04	0	43	102	1048576	10	4208
2026-01-26 02:07:51.77	23.47	15.93	-24.8	-25.9	16.6	0.00e+00	0	43	102	1048576	10	4077
2026-01-26 02:07:52.78	23.51	16.04	-24.5	-25.2	17.0	0.00e+00	0	44	102	1048576	10	3904
2026-01-26 02:07:53.79	23.55	16.16	-24.5	-25.8	16.9	7.52e-04	0	44	102	1048576	9	4166
2026-01-26 02:07:54.79	23.59	16.27	-24.7	-26.1	16.7	8.75e-04	0	44	102	1048576	9	4239
2026-01-26 02:07:55.79	23.63	16.38	-24.6	-25.9	14.7	0.00e+00	0	43	102	1048576	9	4185
2026-01-26 02:07:56.80	23.67	16.49	-24.6	-26.0	16.2	1.41e-03	0	44	102	1048576	9	4209
2026-01-26 02:07:57.81	23.71	16.60	-24.6	-25.8	16.9	8.63e-04	0	44	102	1048576	9	4172
2026-01-26 02:07:58.81	23.75	16.71	-24.5	-25.8	16.9	0.00e+00	0	43	102	1048576	9	4158
2026-01-26 02:07:59.82	23.79	16.83	-24.4	-25.5	17.0	9.34e-04	0	44	102	1048576	9	4096
2026-01-26 02:08:00.83	23.83	16.94	-24.5	-25.7	17.0	8.85e-04	0	44	102	1048576	9	4133
2026-01-26 02:08:01.84	23.88	17.05	-24.4	-26.1	17.1	0.00e+00	0	44	102	1048576	8	4344
2026-01-26 02:08:02.84	23.92	17.17	-24.6	-26.0	16.8	8.80e-04	0	43	102	1048576	9	4218
2026-01-26 02:08:03.84	23.96	17.28	-25.0	-26.2	16.5	2.83e-04	0	44	102	1048576	10	4160
2026-01-26 02:08:04.84	24.00	17.40	-24.7	-25.7	16.8	0.00e+00	0	44	102	1048576	10	4021
2026-01-26 02:08:05.84	24.04	17.51	-24.3	-25.3	17.2	5.45e-04	0	44	102	1048576	9	4032
2026-01-26 02:08:06.85	24.09	17.63	-24.3	-25.3	17.2	8.41e-04	0	44	102	1048576	9	4033
2026-01-26 02:08:07.85	24.13	17.75	-24.2	-25.5	17.4	0.00e+00	0	44	102	1048576	8	4190
2026-01-26 02:08:08.86	24.17	17.87	-24.2	-25.6	17.3	1.33e-03	0	44	102	1048576	8	4219
2026-01-26 02:08:09.86	24.22	17.98	-24.5	-25.6	17.0	8.89e-04	0	44	102	1048576	9	4116
2026-01-26 02:08:10.87	24.26	18.10	-24.4	-25.5	17.1	3.72e-04	0	44	102	1048576	9	4090
2026-01-26 02:08:11.87	24.31	18.22	-24.5	-25.6	17.1	9.75e-04	0	44	102	1048576	9	4115
2026-01-26 02:08:12.88	24.35	18.34	-24.3	-25.4	17.2	0.00e+00	0	44	102	1048576	9	4049
2026-01-26 02:08:13.88	24.40	18.46	-24.2	-25.5	17.4	2.80e-04	0	44	102	1048576	8	4205
2026-01-26 02:08:14.88	24.44	18.58	-24.1	-25.4	17.4	2.93e-04	0	44	102	1048576	8	4174
2026-01-26 02:08:15.88	24.49	18.71	-24.4	-26.0	17.1	0.00e+00	0	44	102	1048576	8	4326
2026-01-26 02:08:16.88	24.53	18.83	-24.3	-25.8	17.2	2.64e-04	0	44	102	1048576	8	4279
2026-01-26 02:08:17.88	24.58	18.95	-24.2	-25.5	17.4	2.46e-04	0	44	102	1048576	8	4190
2026-01-26 02:08:18.89	24.63	19.07	-24.2	-25.5	17.4	7.28e-04	0	44	102	1048576	8	4202
2026-01-26 02:08:19.89	24.67	19.20	-24.2	-25.5	17.4	2.02e-04	0	44	102	1048576	8	4187
2026-01-26 02:08:20.90	24.72	19.32	-24.2	-25.6	17.4	8.16e-04	0	44	102	1048576	8	4217
2026-01-26 02:08:21.90	24.77	19.45	-24.1	-25.3	17.5	0.00e+00	0	44	102	1048576	8	4152
2026-01-26 02:08:22.90	24.82	19.57	-24.2	-25.6	17.4	1.65e-04	0	44	102	1048576	8	4219
2026-01-26 02:08:23.90	24.87	19.70	-24.2	-25.7	17.3	1.59e-04	0	43	102	1048576	8	4238
2026-01-26 02:08:24.91	24.91	19.83	-24.1	-25.4	17.5	0.00e+00	0	44	102	1048576	8	4178
2026-01-26 02:08:25.91	24.96	19.96	-24.2	-25.6	17.4	1.77e-04	0	44	102	1048576	8	4221
2026-01-26 02:08:26.92	25.01	20.08	-24.1	-25.3	17.5	1.77e-04	0	44	102	1048576	8	4153
2026-01-26 02:08:27.92	25.06	20.21	-23.9	-24.9	17.8	0.00e+00	0	44	102	1048576	8	4055
2026-01-26 02:08:28.93	25.11	20.34	-23.7	-24.4	18.0	1.65e-04	0	44	102	1048576	8	3922
2026-01-26 02:08:29.93	25.17	20.47	-23.5	-24.5	18.2	2.14e-04	0	44	102	1048576	7	4060
2026-01-26 02:08:30.94	25.22	20.61	-23.4	-24.4	18.2	0.00e+00	0	44	102	1048576	7	4043
2026-01-26 02:08:31.95	25.27	20.74	-23.5	-24.6	18.1	2.20e-04	0	44	102	1048576	7	4082
2026-01-26 02:08:32.96	25.32	20.87	-23.5	-24.7	18.1	0.00e+00	0	44	102	1048576	7	4100
2026-01-26 02:08:33.96	25.37	21.00	-23.7	-25.0	17.9	0.00e+00	0	44	102	1048576	7	4189
2026-01-26 02:08:34.97	25.43	21.14	-23.6	-24.8	18.0	0.00e+00	0	44	102	1048576	7	4137
2026-01-26 02:08:35.97	25.48	21.27	-23.5	-24.6	18.1	0.00e+00	0	44	102	1048576	7	4089
2026-01-26 02:08:36.97	25.53	21.41	-23.6	-24.7	18.0	0.00e+00	0	44	102	1048576	7	4115
2026-01-26 02:08:37.98	25.59	21.54	-23.4	-24.3	18.3	0.00e+00	0	44	102	1048576	7	4010
2026-01-26 02:08:38.98	25.64	21.68	-23.5	-24.6	18.1	2.51e-04	0	44	102	1048576	7	4087
2026-01-26 02:08:39.99	25.70	21.82	-23.4	-24.4	18.3	0.00e+00	0	44	102	1048576	7	4022
2026-01-26 02:08:40.99	25.75	21.96	-23.4	-24.4	18.2	2.53e-04	0	44	102	1048576	7	4043
2026-01-26 02:08:42.00	25.81	22.10	-23.7	-25.1	18.0	0.00e+00	0	44	102	1048576	7	4191
2026-01-26 02:08:43.00	25.87	22.24	-23.5	-24.5	18.3	0.00e+00	0	44	102	1048576	7	4064
2026-01-26 02:08:44.01	25.92	22.38	-23.4	-24.3	18.4	0.00e+00	0	44	102	1048576	7	4012
2026-01-26 02:08:45.01	25.98	22.52	-23.3	-24.2	18.5	0.00e+00	0	44	102	1048576	7	3968
2026-01-26 02:08:46.01	26.04	22.66	-23.3	-24.2	18.4	0.00e+00	0	44	102	1048576	7	3985
2026-01-26 02:08:47.02	26.10	22.80	-23.4	-24.2	18.4	0.00e+00	0	44	102	1048576	7	3986
2026-01-26 02:08:48.02	26.16	22.95	-23.3	-24.6	18.5	0.00e+00	0	44	102	1048576	6	4180
2026-01-26 02:08:49.02	26.21	23.09	-23.3	-24.6	18.5	0.00e+00	0	44	102	1048576	6	4176
2026-01-26 02:08:50.03	26.27	23.23	-23.3	-24.7	18.4	0.00e+00	0	44	102	1048576	6	4223
2026-01-26 02:08:51.03	26.34	23.38	-23.1	-24.2	18.6	0.00e+00	0	44	102	1048576	6	4087
2026-01-26 02:08:52.04	26.40	23.53	-23.0	-24.0	18.7	0.00e+00	0	44	102	1048576	6	4041
2026-01-26 02:08:53.05	26.46	23.68	-23.1	-24.2	18.6	0.00e+00	0	44	102	1048576	6	4085
2026-01-26 02:08:54.05	26.52	23.82	-22.9	-23.8	18.8	0.00e+00	0	44	102	1048576	6	4004
2026-01-26 02:08:55.06	26.58	23.97	-23.1	-24.2	18.7	0.00e+00	0	44	102	1048576	6	4086
2026-01-26 02:08:56.06	26.65	24.12	-22.9	-23.8	18.8	0.00e+00	0	44	102	1048576	6	4006
2026-01-26 02:08:57.07	26.71	24.27	-22.8	-23.7	18.9	0.00e+00	0	44	102	1048576	6	3973
2026-01-26 02:08:58.07	26.77	24.43	-22.9	-23.9	18.9	0.00e+00	0	44	102	1048576	6	4010
2026-01-26 02:08:59.08	26.84	24.58	-22.9	-23.8	18.9	0.00e+00	0	44	102	1048576	6	3998
2026-01-26 02:09:00.09	26.91	24.73	-22.8	-23.5	19.0	0.00e+00	0	44	102	1048576	6	3933
2026-01-26 02:09:01.10	26.97	24.89	-22.8	-23.5	19.0	0.00e+00	0	44	102	1048576	6	3925
2026-01-26 02:09:02.11	27.04	25.04	-22.8	-23.6	19.0	0.00e+00	0	44	102	1048576	6	3952
2026-01-26 02:09:03.11	27.11	25.20	-22.9	-23.9	18.9	0.00e+00	0	44	102	1048576	6	4010
2026-01-26 02:09:04.11	27.17	25.36	-22.7	-23.3	19.2	0.00e+00	0	44	102	1048576	6	3877
2026-01-26 02:09:05.11	27.24	25.51	-22.4	-22.8	19.2	0.00e+00	0	44	102	1048576	6	3757
2026-01-26 02:09:06.12	27.31	25.67	-22.6	-23.1	19.3	3.22e-04	0	44	102	1048576	6	3833
2026-01-26 02:09:07.13	27.38	25.83	-22.7	-23.3	19.2	0.00e+00	0	44	102	1048576	6	3875
2026-01-26 02:09:08.13	27.45	25.99	-22.6	-23.1	19.4	0.00e+00	0	44	102	1048576	6	3814
2026-01-26 02:09:09.13	27.52	26.15	-22.5	-22.9	19.4	0.00e+00	0	44	102	1048576	6	3787
2026-01-26 02:09:10.13	27.60	26.31	-22.5	-23.0	19.4	0.00e+00	0	44	102	1048576	6	3810
2026-01-26 02:09:11.14	27.67	26.48	-22.5	-22.9	19.5	0.00e+00	0	44	102	1048576	6	3780
2026-01-26 02:09:12.15	27.74	26.64	-22.6	-23.2	19.3	0.00e+00	0	44	102	1048576	6	3851
2026-01-26 02:09:13.15	27.82	26.81	-22.5	-23.0	19.4	0.00e+00	0	44	102	1048576	6	3795
2026-01-26 02:09:14.15	27.89	26.97	-22.6	-23.1	19.4	0.00e+00	0	44	102	1048576	6	3812
2026-01-26 02:09:15.15	27.97	27.14	-22.6	-23.1	19.4	1.10e-04	0	44	102	1048576	6	3818
2026-01-26 02:09:16.15	28.04	27.31	-22.6	-23.2	19.3	0.00e+00	0	44	102	1048576	6	3839
2026-01-26 02:09:17.16	28.12	27.48	-22.7	-23.3	19.3	0.00e+00	0	44	102	1048576	6	3881
2026-01-26 02:09:18.16	28.20	27.65	-22.7	-23.4	19.2	1.07e-04	0	44	102	1048576	6	3895
2026-01-26 02:09:19.17	28.28	27.82	-22.8	-23.5	19.2	0.00e+00	0	44	102	1048576	6	3926
2026-01-26 02:09:20.17	28.35	27.99	-22.6	-23.0	19.4	6.98e-05	0	44	102	1048576	6	3810
2026-01-26 02:09:21.18	28.44	28.17	-22.5	-22.9	19.5	0.00e+00	0	44	102	1048576	6	3786
2026-01-26 02:09:22.18	28.52	28.34	-22.6	-23.0	19.5	0.00e+00	0	44	102	1048576	6	3805
2026-01-26 02:09:23.19	28.60	28.52	-22.3	-22.6	19.7	8.81e-05	0	44	102	1048576	6	3710
2026-01-26 02:09:24.20	28.68	28.69	-22.4	-22.7	19.6	7.09e-05	0	44	102	1048576	6	3730
2026-01-26 02:09:25.20	28.77	28.87	-22.4	-22.8	19.3	0.00e+00	0	44	102	1048576	6	3748
2026-01-26 02:09:26.21	28.85	29.05	-22.5	-22.9	19.4	0.00e+00	0	44	102	1048576	6	3765
2026-01-26 02:09:27.21	28.94	29.23	-22.5	-23.0	19.5	1.76e-04	0	44	102	1048576	6	3799
2026-01-26 02:09:28.21	29.02	29.41	-22.5	-23.0	19.5	0.00e+00	0	44	102	1048576	6	3809
2026-01-26 02:09:29.21	29.11	29.59	-22.7	-23.4	19.3	1.51e-04	0	44	102	1048576	6	3892
2026-01-26 02:09:30.21	29.20	29.77	-22.9	-23.7	19.1	1.19e-04	0	44	102	1048576	6	3966
2026-01-26 02:09:31.21	29.29	29.95	-22.8	-23.5	19.2	3.40e-06	0	44	102	1048576	6	3926
2026-01-26 02:09:32.22	29.38	30.14	-22.8	-23.6	19.2	7.66e-05	0	44	102	1048576	6	3933
2026-01-26 02:09:33.22	29.47	30.33	-22.8	-23.6	19.2	1.48e-05	0	44	102	1048576	6	3945
2026-01-26 02:09:34.22	29.56	30.51	-22.7	-23.4	19.3	0.00e+00	0	44	102	1048576	6	3883
2026-01-26 02:09:35.22	29.65	30.70	-22.7	-23.4	19.3	9.10e-06	0	44	102	1048576	6	3891
2026-01-26 02:09:36.22	29.75	30.89	-22.8	-23.5	19.2	0.00e+00	0	44	102	1048576	6	3921
2026-01-26 02:09:37.23	29.84	31.08	-22.5	-23.0	19.5	0.00e+00	0	44	102	1048576	6	3796
2026-01-26 02:09:38.23	29.94	31.27	-22.5	-23.0	19.5	3.77e-05	0	44	102	1048576	6	3805
2026-01-26 02:09:39.24	30.03	31.47	-22.3	-22.5	19.8	0.00e+00	0	44	102	1048576	6	3688
2026-01-26 02:09:40.25	30.13	31.66	-22.2	-22.8	19.9	1.18e-04	0	44	102	1048576	5	3858
2026-01-26 02:09:41.26	30.23	31.86	-22.3	-23.1	19.7	0.00e+00	0	44	102	1048576	5	3922
2026-01-26 02:09:42.25	30.33	32.05	-22.5	-23.4	19.6	0.00e+00	0	44	102	1048576	5	4007
2026-01-26 02:09:43.26	30.44	32.25	-22.4	-23.2	19.7	1.58e-04	0	44	102	1048576	5	3951
2026-01-26 02:09:44.26	30.54	32.45	-22.7	-23.8	19.4	0.00e+00	0	44	102	1048576	5	4087
2026-01-26 02:09:45.27	30.64	32.65	-22.8	-24.1	19.2	0.00e+00	0	44	102	1048576	5	4163
2026-01-26 02:09:46.27	30.75	32.85	-22.8	-24.2	19.2	0.00e+00	0	44	102	1048576	5	4193
2026-01-26 02:09:47.27	30.86	33.06	-22.8	-24.1	19.2	1.97e-04	0	44	102	1048576	5	4185
2026-01-26 02:09:48.27	30.96	33.26	-22.7	-23.9	19.3	0.00e+00	0	44	102	1048576	5	4128
2026-01-26 02:09:49.28	31.08	33.47	-22.8	-24.1	19.3	1.93e-04	0	44	102	1048576	5	4160
2026-01-26 02:09:50.29	31.19	33.68	-22.9	-24.2	19.2	2.09e-04	0	44	102	1048576	5	4189
2026-01-26 02:09:51.29	31.30	33.88	-22.8	-24.1	19.2	0.00e+00	0	44	102	1048576	5	4156
2026-01-26 02:09:52.30	31.41	34.09	-22.6	-23.6	19.5	1.86e-04	0	44	102	1048576	5	4034
2026-01-26 02:09:53.30	31.53	34.30	-22.5	-23.5	19.6	0.00e+00	0	44	102	1048576	5	4016
2026-01-26 02:09:54.30	31.64	34.51	-22.5	-23.5	19.5	0.00e+00	0	44	102	1048576	5	4028
2026-01-26 02:09:55.31	31.76	34.73	-22.6	-23.7	19.5	1.14e-04	0	44	102	1048576	5	4065
2026-01-26 02:09:56.31	31.88	34.94	-22.6	-23.7	19.4	8.46e-05	0	44	102	1048576	5	4085
2026-01-26 02:09:57.32	32.00	35.16	-22.8	-23.9	19.3	0.00e+00	0	44	102	1048576	5	4131
2026-01-26 02:09:58.33	32.13	35.38	-22.4	-23.2	19.7	9.61e-05	0	44	102	1048576	5	3955
2026-01-26 02:09:59.33	32.25	35.60	-22.2	-22.8	19.9	1.22e-04	0	44	102	1048576	5	3853
2026-01-26 02:10:00.34	32.38	35.82	-22.1	-22.6	20.0	0.00e+00	0	44	102	1048576	5	3819
2026-01-26 02:10:01.34	32.51	36.04	-22.2	-22.7	20.0	1.81e-04	0	44	102	1048576	5	3846
2026-01-26 02:10:02.34	32.63	36.26	-22.1	-23.1	20.0	0.00e+00	0	44	102	1048576	4	4048
2026-01-26 02:10:03.35	32.77	36.49	-22.0	-22.9	20.1	0.00e+00	0	44	102	1048576	4	3996
2026-01-26 02:10:04.35	32.90	36.71	-21.8	-22.5	20.3	2.12e-04	0	44	102	1048576	4	3904
2026-01-26 02:10:05.36	33.03	36.94	-21.9	-22.6	20.3	0.00e+00	0	44	102	1048576	4	3919
2026-01-26 02:10:06.36	33.17	37.17	-22.0	-22.8	20.2	0.00e+00	0	44	102	1048576	4	3968
2026-01-26 02:10:07.37	33.31	37.40	-22.0	-22.9	20.1	0.00e+00	0	44	102	1048576	4	3996
2026-01-26 02:10:08.38	33.45	37.63	-22.1	-23.2	20.0	2.57e-04	0	44	102	1048576	4	4059
2026-01-26 02:10:09.38	33.59	37.87	-22.1	-23.1	20.0	0.00e+00	0	44	102	1048576	4	4049
2026-01-26 02:10:10.39	33.74	38.10	-22.0	-23.0	20.1	0.00e+00	0	44	102	1048576	4	4013
2026-01-26 02:10:11.40	33.88	38.34	-22.0	-23.0	20.1	0.00e+00	0	44	102	1048576	4	4010
2026-01-26 02:10:12.40	34.03	38.58	-21.9	-22.8	20.2	0.00e+00	0	44	102	1048576	4	3967
2026-01-26 02:10:13.40	34.18	38.81	-22.0	-22.8	20.2	0.00e+00	0	44	102	1048576	4	3965
2026-01-26 02:10:14.40	34.33	39.05	-22.0	-22.9	20.1	0.00e+00	0	44	102	1048576	4	4001
2026-01-26 02:10:15.40	34.49	39.29	-22.1	-23.0	20.1	0.00e+00	0	44	102	1048576	4	4025
2026-01-26 02:10:16.41	34.65	39.54	-22.4	-23.7	19.8	0.00e+00	0	44	102	1048576	4	4180
2026-01-26 02:10:17.41	34.81	39.78	-22.5	-23.5	19.6	0.00e+00	0	44	102	1048576	5	4020
2026-01-26 02:10:18.42	34.97	40.03	-22.7	-23.8	19.4	0.00e+00	0	44	102	1048576	5	4102
2026-01-26 02:10:19.42	35.13	40.28	-22.4	-23.3	19.8	0.00e+00	0	44	102	1048576	5	3969
2026-01-26 02:10:20.43	35.30	40.53	-22.2	-22.9	20.0	0.00e+00	0	44	102	1048576	5	3879
2026-01-26 02:10:21.44	35.47	40.78	-22.3	-23.1	19.8	0.00e+00	0	44	102	1048576	5	3924
2026-01-26 02:10:22.45	35.64	41.04	-22.4	-23.1	19.8	0.00e+00	0	44	102	1048576	5	3926
2026-01-26 02:10:23.45	35.82	41.29	-22.2	-22.7	20.0	0.00e+00	0	44	102	1048576	5	3839
2026-01-26 02:10:24.46	35.99	41.54	-22.1	-22.6	20.1	0.00e+00	0	44	102	1048576	5	3813
2026-01-26 02:10:25.45	36.17	41.80	-22.2	-22.8	20.0	0.00e+00	0	44	102	1048576	5	3859
2026-01-26 02:10:26.46	36.36	42.06	-22.2	-22.9	20.0	0.00e+00	0	44	102	1048576	5	3871
2026-01-26 02:10:27.46	36.54	42.32	-22.3	-23.1	19.8	0.00e+00	0	44	102	1048576	5	3931
2026-01-26 02:10:28.46	36.73	42.58	-22.5	-23.4	19.7	0.00e+00	0	44	102	1048576	5	3991
2026-01-26 02:10:29.47	36.92	42.84	-22.6	-23.7	19.5	0.00e+00	0	44	102	1048576	5	4076
2026-01-26 02:10:30.48	37.12	43.11	-22.5	-23.4	19.7	0.00e+00	0	44	102	1048576	5	3996
2026-01-26 02:10:31.48	37.32	43.37	-22.2	-22.7	20.1	0.00e+00	0	44	102	1048576	5	3839
2026-01-26 02:10:32.48	37.52	43.64	-22.1	-22.6	20.1	0.00e+00	0	44	102	1048576	5	3816
2026-01-26 02:10:33.49	37.72	43.91	-22.2	-22.9	20.0	0.00e+00	0	44	102	1048576	5	3878
2026-01-26 02:10:34.50	37.93	44.18	-22.5	-23.5	19.7	0.00e+00	0	44	102	1048576	5	4013
2026-01-26 02:10:35.50	38.14	44.45	-22.7	-23.9	19.5	0.00e+00	0	44	102	1048576	5	4110
2026-01-26 02:10:36.50	38.36	44.72	-22.8	-24.1	19.4	0.00e+00	0	44	102	1048576	5	4162
2026-01-26 02:10:37.50	38.57	45.00	-22.9	-24.2	19.3	0.00e+00	0	44	102	1048576	5	4190
2026-01-26 02:10:38.51	38.80	45.28	-22.8	-24.1	19.4	0.00e+00	0	44	102	1048576	5	4179
2026-01-26 02:10:39.51	39.02	45.55	-22.8	-24.0	19.4	0.00e+00	0	44	102	1048576	5	4152
2026-01-26 02:10:40.52	39.26	45.83	-22.7	-23.8	19.5	0.00e+00	0	44	102	1048576	5	4103
2026-01-26 02:10:41.53	39.49	46.12	-22.7	-23.8	19.6	0.00e+00	0	44	102	1048576	5	4095
2026-01-26 02:10:42.53	39.73	46.40	-22.7	-23.8	19.6	0.00e+00	0	44	102	1048576	5	4085
2026-01-26 02:10:43.54	39.97	46.68	-22.6	-23.7	19.7	0.00e+00	0	44	102	1048576	5	4059
2026-01-26 02:10:44.54	40.22	46.97	-22.8	-24.2	19.4	0.00e+00	0	44	102	1048576	5	4187
2026-01-26 02:10:45.55	40.47	47.25	-23.0	-24.0	19.2	0.00e+00	0	44	102	1048576	6	4048
2026-01-26 02:10:46.55	40.73	47.54	-23.0	-23.9	19.3	0.00e+00	0	44	102	1048576	6	4004
2026-01-26 02:10:47.55	40.99	47.83	-23.1	-24.2	19.1	0.00e+00	0	44	102	1048576	6	4078
2026-01-26 02:10:48.56	41.26	48.12	-23.2	-24.3	19.1	0.00e+00	0	44	102	1048576	6	4107
2026-01-26 02:10:49.56	41.53	48.41	-23.2	-24.3	19.1	3.83e-04	0	44	102	1048576	6	4098
2026-01-26 02:10:50.56	41.80	48.70	-23.1	-24.1	19.2	0.00e+00	0	44	102	1048576	6	4056
2026-01-26 02:10:51.56	42.08	49.00	-23.3	-24.7	18.9	0.00e+00	0	44	102	1048576	6	4200
2026-01-26 02:10:52.57	42.37	49.29	-23.3	-24.5	19.0	0.00e+00	0	44	102	1048576	6	4155
2026-01-26 02:10:53.58	42.66	49.59	-23.1	-24.2	19.2	4.16e-04	0	44	102	1048576	6	4080
2026-01-26 02:10:54.58	42.96	49.89	-23.1	-24.2	19.2	0.00e+00	0	44	102	1048576	6	4090
2026-01-26 02:10:55.58	43.26	50.19	-23.1	-24.2	19.2	0.00e+00	0	44	102	1048576	6	4089
2026-01-26 02:10:56.59	43.57	50.49	-22.9	-23.7	19.4	3.66e-05	0	44	102	1048576	6	3961
2026-01-26 02:10:57.59	43.89	50.79	-22.5	-22.9	19.9	0.00e+00	0	44	102	1048576	6	3759
2026-01-26 02:10:58.59	44.21	51.09	-22.6	-23.1	19.7	2.00e-04	0	44	102	1048576	6	3825
2026-01-26 02:10:59.60	44.54	51.39	-22.9	-23.7	19.4	1.59e-04	0	44	102	1048576	6	3968
2026-01-26 02:11:00.60	44.87	51.70	-23.0	-23.9	19.4	0.00e+00	0	44	102	1048576	6	4011
2026-01-26 02:11:01.60	45.21	52.00	-22.8	-23.6	19.5	5.65e-04	0	44	102	1048576	6	3937
2026-01-26 02:11:02.60	45.56	52.31	-23.0	-23.9	19.4	0.00e+00	0	44	102	1048576	6	3995
2026-01-26 02:11:03.60	45.92	52.61	-23.2	-24.3	19.2	0.00e+00	0	44	102	1048576	6	4095
2026-01-26 02:11:04.61	46.28	52.92	-23.2	-24.4	19.1	0.00e+00	0	44	102	1048576	6	4132
2026-01-26 02:11:05.61	46.65	53.23	-23.4	-24.7	18.9	2.46e-04	0	44	102	1048576	6	4217
2026-01-26 02:11:06.61	47.03	53.54	-23.5	-24.5	18.8	0.00e+00	0	44	102	1048576	7	4045
2026-01-26 02:11:07.62	47.42	53.85	-23.6	-24.8	18.7	2.43e-04	0	44	102	1048576	7	4106
2026-01-26 02:11:08.63	47.82	54.16	-23.6	-24.7	18.7	2.86e-04	0	44	102	1048576	7	4098
2026-01-26 02:11:09.63	48.22	54.47	-23.4	-24.3	18.9	0.00e+00	0	44	102	1048576	7	3987
2026-01-26 02:11:10.64	48.63	54.79	-23.2	-23.8	19.2	1.99e-04	0	44	102	1048576	7	3860
2026-01-26 02:11:11.64	49.05	55.10	-23.3	-24.1	19.1	0.00e+00	0	44	102	1048576	7	3929
2026-01-26 02:11:12.65	49.49	55.41	-23.5	-24.5	18.9	1.60e-05	0	44	102	1048576	7	4030
2026-01-26 02:11:13.65	49.93	55.72	-23.8	-25.2	18.5	3.52e-04	0	44	102	1048576	7	4223
2026-01-26 02:11:14.66	50.38	56.04	-24.1	-25.2	18.3	4.05e-04	0	44	102	1048576	8	4098
2026-01-26 02:11:15.66	50.84	56.35	-23.9	-25.0	18.4	0.00e+00	0	44	102	1048576	8	4054
2026-01-26 02:11:16.67	51.32	56.66	-23.5	-24.4	18.9	4.00e-04	0	44	102	1048576	7	4021
2026-01-26 02:11:17.67	51.80	56.97	-23.3	-24.1	19.1	6.43e-04	0	44	102	1048576	7	3934
2026-01-26 02:11:18.68	52.29	57.29	-23.3	-24.2	19.0	7.66e-05	0	44	102	1048576	7	3959
2026-01-26 02:11:19.68	52.79	57.60	-23.3	-24.1	19.1	7.13e-04	0	44	102	1048576	7	3943
2026-01-26 02:11:20.68	53.31	57.91	-23.4	-24.2	19.0	0.00e+00	0	44	102	1048576	7	3976
2026-01-26 02:11:21.69	53.84	58.22	-23.6	-24.6	18.8	3.08e-05	0	44	102	1048576	7	4077
2026-01-26 02:11:22.69	54.38	58.53	-23.4	-24.3	19.0	4.53e-04	0	44	102	1048576	7	3983
2026-01-26 02:11:23.70	54.94	58.84	-23.1	-24.2	19.3	0.00e+00	0	44	102	1048576	6	4067
2026-01-26 02:11:24.70	55.50	59.15	-23.1	-24.1	19.4	1.58e-04	0	44	102	1048576	6	4049
2026-01-26 02:11:25.70	56.08	59.45	-23.1	-24.1	19.4	4.69e-05	0	44	102	1048576	6	4049
2026-01-26 02:11:26.70	56.67	59.76	-22.8	-23.5	19.7	1.15e-04	0	44	102	1048576	6	3902
2026-01-26 02:11:27.70	57.27	60.06	-22.7	-23.3	19.8	0.00e+00	0	44	102	1048576	6	3860
2026-01-26 02:11:28.71	57.90	60.37	-22.7	-23.4	19.8	1.66e-04	0	44	102	1048576	6	3879
2026-01-26 02:11:29.71	58.53	60.67	-22.6	-23.1	19.9	0.00e+00	0	44	102	1048576	6	3821
2026-01-26 02:11:30.72	59.19	60.97	-22.5	-22.9	20.0	1.23e-04	0	44	102	1048576	6	3773
2026-01-26 02:11:31.73	59.86	61.27	-22.2	-22.9	20.2	0.00e+00	0	44	102	1048576	5	3874
2026-01-26 02:11:32.73	60.54	61.57	-22.3	-23.0	20.2	0.00e+00	0	44	102	1048576	5	3893
2026-01-26 02:11:33.73	61.24	61.86	-22.5	-23.5	19.9	9.61e-05	0	44	102	1048576	5	4018
2026-01-26 02:11:34.74	61.96	62.16	-22.2	-22.7	20.3	0.00e+00	0	44	102	1048576	5	3828
2026-01-26 02:11:35.74	62.69	62.44	-22.0	-22.3	20.5	0.00e+00	0	44	102	1048576	5	3744
2026-01-26 02:11:36.74	63.44	62.73	-22.3	-23.0	20.2	0.00e+00	0	44	102	1048576	5	3895
2026-01-26 02:11:37.75	64.21	63.01	-22.5	-23.5	20.0	1.34e-04	0	44	102	1048576	5	4011
2026-01-26 02:11:38.75	65.00	63.29	-22.7	-23.8	19.8	2.20e-06	0	44	102	1048576	5	4106
2026-01-26 02:11:39.76	65.81	63.57	-22.3	-23.1	20.1	0.00e+00	0	44	102	1048576	5	3918
2026-01-26 02:11:40.76	66.63	63.84	-22.4	-23.2	20.1	0.00e+00	0	44	102	1048576	5	3936
2026-01-26 02:11:41.76	67.48	64.11	-22.2	-22.9	20.3	0.00e+00	0	44	102	1048576	5	3870
2026-01-26 02:11:42.77	68.35	64.38	-22.1	-22.6	20.4	1.10e-06	0	44	102	1048576	5	3801
2026-01-26 02:11:43.78	69.24	64.64	-21.9	-22.7	20.6	0.00e+00	0	44	102	1048576	4	3928
2026-01-26 02:11:44.78	70.14	64.90	-21.9	-22.6	20.7	3.40e-06	0	44	102	1048576	4	3912
2026-01-26 02:11:45.79	71.07	65.15	-22.1	-23.0	20.5	0.00e+00	0	44	102	1048576	4	4010
2026-01-26 02:11:46.80	72.02	65.40	-21.9	-22.6	20.7	0.00e+00	0	44	102	1048576	4	3906
2026-01-26 02:11:47.80	72.99	65.64	-21.7	-22.2	20.9	0.00e+00	0	44	102	1048576	4	3820
2026-01-26 02:11:48.80	73.97	65.87	-21.7	-22.2	20.9	0.00e+00	0	44	102	1048576	4	3812
2026-01-26 02:11:49.81	74.99	66.10	-21.7	-22.2	20.9	0.00e+00	0	44	102	1048576	4	3813
2026-01-26 02:11:50.82	76.02	66.33	-21.5	-22.3	21.1	3.40e-06	0	44	102	1048576	3	3957
2026-01-26 02:11:51.82	77.07	66.54	-21.6	-22.5	21.0	0.00e+00	0	44	102	1048576	3	4001
2026-01-26 02:11:52.82	78.14	66.75	-21.9	-23.1	20.7	0.00e+00	0	44	102	1048576	3	4159
2026-01-26 02:11:53.82	79.23	66.95	-22.2	-23.2	20.4	1.10e-06	0	44	102	1048576	4	4062
2026-01-26 02:11:54.82	80.34	67.15	-22.0	-22.8	20.6	0.00e+00	0	44	102	1048576	4	3965
2026-01-26 02:11:55.83	81.49	67.34	-21.8	-22.5	20.8	0.00e+00	0	44	102	1048576	4	3880
2026-01-26 02:11:56.83	82.64	67.52	-21.7	-22.1	20.9	0.00e+00	0	44	102	1048576	4	3806
2026-01-26 02:11:57.83	83.81	67.69	-21.8	-22.6	20.5	0.00e+00	0	44	102	1048576	4	3923
2026-01-26 02:11:58.83	85.00	67.85	-21.6	-22.1	20.7	0.00e+00	0	44	102	1048576	4	3810
2026-01-26 02:11:59.83	86.21	68.01	-21.7	-22.4	20.6	0.00e+00	0	44	102	1048576	4	3879
2026-01-26 02:12:00.83	87.44	68.15	-21.9	-22.7	20.4	0.00e+00	0	44	102	1048576	4	3964
2026-01-26 02:12:01.84	88.70	68.29	-22.0	-22.8	20.4	0.00e+00	0	44	102	1048576	4	3990
2026-01-26 02:12:02.85	89.97	68.42	-21.8	-22.6	20.5	0.00e+00	0	44	102	1048576	4	3930
2026-01-26 02:12:03.85	91.25	68.54	-21.8	-22.5	20.6	0.00e+00	0	44	102	1048576	4	3904
2026-01-26 02:12:04.85	92.54	68.64	-22.1	-23.1	20.3	0.00e+00	0	44	102	1048576	4	4041
2026-01-26 02:12:05.85	93.84	68.74	-22.1	-23.1	20.3	0.00e+00	0	44	102	1048576	4	4052
2026-01-26 02:12:06.85	95.16	68.83	-21.9	-22.7	20.5	0.00e+00	0	44	102	1048576	4	3947
2026-01-26 02:12:07.86	96.50	68.91	-21.7	-22.3	20.7	0.00e+00	0	44	102	1048576	4	3853
2026-01-26 02:12:08.86	97.84	68.98	-22.1	-23.1	20.3	0.00e+00	0	44	102	1048576	4	4056
2026-01-26 02:12:09.85	99.18	69.03	-22.2	-23.4	20.1	0.00e+00	0	44	102	1048576	4	4128
2026-01-26 02:12:10.86	100.55	69.08	-22.0	-22.8	20.4	0.00e+00	0	44	102	1048576	4	3977
2026-01-26 02:12:11.86	101.91	69.11	-22.0	-22.8	20.4	0.00e+00	0	44	102	1048576	4	3987
2026-01-26 02:12:12.87	103.28	69.14	-22.5	-23.5	19.8	0.00e+00	0	44	102	1048576	5	4036
2026-01-26 02:12:13.87	104.65	69.15	-23.2	-24.5	19.2	0.00e+00	0	44	102	1048576	6	4157
2026-01-26 02:12:14.87	106.02	69.15	-23.0	-23.9	19.4	0.00e+00	0	44	102	1048576	6	4028
2026-01-26 02:12:15.88	107.40	69.14	-22.5	-23.0	19.9	0.00e+00	0	44	102	1048576	6	3798
2026-01-26 02:12:16.88	108.76	69.12	-21.9	-22.3	20.4	0.00e+00	0	44	102	1048576	5	3748
2026-01-26 02:12:17.89	110.14	69.09	-21.8	-22.4	20.6	0.00e+00	0	44	102	1048576	4	3892
2026-01-26 02:12:18.88	111.48	69.05	-22.0	-22.9	20.4	0.00e+00	0	44	102	1048576	4	3996
2026-01-26 02:12:19.89	112.85	69.00	-21.7	-22.4	20.7	0.00e+00	0	44	102	1048576	4	3874
2026-01-26 02:12:20.89	114.19	68.93	-21.8	-22.4	20.6	0.00e+00	0	44	102	1048576	4	3885
2026-01-26 02:12:21.90	115.54	68.86	-21.5	-22.2	18.3	0.00e+00	0	44	102	1048576	4	3906
2026-01-26 02:12:22.91	116.87	68.77	-21.8	-22.4	20.6	0.00e+00	0	44	102	1048576	4	3885
2026-01-26 02:12:23.92	118.19	68.68	-21.9	-22.8	20.4	0.00e+00	0	44	102	1048576	4	3965
2026-01-26 02:12:24.92	119.49	68.57	-21.9	-22.7	20.3	0.00e+00	0	44	102	1048576	4	3970
2026-01-26 02:12:25.92	120.77	68.46	-21.6	-22.1	20.7	2.01e-04	0	44	102	1048576	4	3814
2026-01-26 02:12:26.93	122.05	68.33	-21.8	-22.5	20.5	0.00e+00	0	44	102	1048576	4	3915
2026-01-26 02:12:27.93	123.31	68.20	-22.2	-23.4	20.1	0.00e+00	0	44	102	1048576	4	4138
2026-01-26 02:12:28.94	124.55	68.05	-21.9	-22.7	20.4	0.00e+00	0	44	102	1048576	4	3957
2026-01-26 02:12:29.94	125.77	67.90	-21.6	-22.1	20.7	0.00e+00	0	44	102	1048576	4	3818
2026-01-26 02:12:30.94	126.97	67.74	-21.7	-22.4	20.6	9.30e-04	0	44	102	1048576	4	3881
2026-01-26 02:12:31.95	128.16	67.57	-21.7	-22.4	20.6	0.00e+00	0	44	102	1048576	4	3883
2026-01-26 02:12:32.95	129.32	67.39	-22.0	-22.9	20.4	0.00e+00	0	44	102	1048576	4	4006
2026-01-26 02:12:33.95	130.45	67.21	-21.8	-22.5	20.6	0.00e+00	0	44	102	1048576	4	3908
2026-01-26 02:12:34.96	131.58	67.01	-21.8	-22.4	20.6	0.00e+00	0	44	102	1048576	4	3894
2026-01-26 02:12:35.96	132.68	66.81	-21.7	-22.3	20.7	0.00e+00	0	44	102	1048576	4	3858
2026-01-26 02:12:36.96	133.76	66.60	-21.8	-22.5	20.6	4.07e-04	0	44	102	1048576	4	3894
2026-01-26 02:12:37.97	134.83	66.39	-21.8	-22.5	20.6	2.82e-04	0	44	102	1048576	4	3909
2026-01-26 02:12:38.98	135.87	66.17	-21.9	-22.7	20.5	0.00e+00	0	44	102	1048576	4	3942
2026-01-26 02:12:39.98	136.88	65.94	-21.9	-22.8	20.4	5.76e-04	0	44	102	1048576	4	3975
2026-01-26 02:12:40.99	137.89	65.70	-22.0	-22.9	20.4	1.71e-05	0	44	102	1048576	4	4013
2026-01-26 02:12:41.99	138.86	65.46	-22.1	-23.1	20.3	0.00e+00	0	44	102	1048576	4	4036
2026-01-26 02:12:42.99	139.81	65.22	-22.0	-23.0	20.3	8.15e-04	0	44	102	1048576	4	4022
2026-01-26 02:12:44.00	140.75	64.97	-22.2	-23.3	20.2	9.25e-04	0	44	102	1048576	4	4113
2026-01-26 02:12:45.01	141.66	64.71	-22.2	-23.4	20.1	0.00e+00	0	44	102	1048576	4	4142
2026-01-26 02:12:46.01	142.55	64.45	-21.9	-22.7	20.5	1.05e-03	0	44	102	1048576	4	3951
2026-01-26 02:12:47.01	143.42	64.19	-21.6	-22.2	20.8	8.58e-04	0	44	102	1048576	4	3823
2026-01-26 02:12:48.01	144.27	63.92	-21.9	-22.8	20.5	0.00e+00	0	44	102	1048576	4	3971
2026-01-26 02:12:49.02	145.11	63.65	-21.8	-22.6	20.5	8.58e-04	0	44	102	1048576	4	3925
2026-01-26 02:12:50.02	145.92	63.37	-21.9	-22.7	20.5	6.91e-04	0	44	102	1048576	4	3956
2026-01-26 02:12:51.03	146.72	63.09	-22.2	-23.3	20.2	1.64e-04	0	44	102	1048576	4	4084
2026-01-26 02:12:52.04	147.50	62.81	-22.4	-23.8	20.0	6.28e-04	0	44	102	1048576	4	4207
2026-01-26 02:12:53.04	148.25	62.52	-22.5	-23.9	19.9	0.00e+00	0	44	102	1048576	4	4258
2026-01-26 02:12:54.05	149.00	62.23	-22.7	-23.9	19.7	1.10e-06	0	44	102	1048576	5	4121
2026-01-26 02:12:55.05	149.72	61.94	-22.7	-23.8	19.7	0.00e+00	0	44	102	1048576	5	4119
2026-01-26 02:12:56.06	150.43	61.64	-22.5	-23.4	19.9	3.19e-04	0	44	102	1048576	5	3994
2026-01-26 02:12:57.06	151.12	61.35	-22.5	-23.4	19.8	0.00e+00	0	44	102	1048576	5	4009
2026-01-26 02:12:58.07	151.79	61.05	-22.9	-24.4	19.4	1.44e-04	0	44	102	1048576	5	4254
2026-01-26 02:12:59.08	152.45	60.74	-22.6	-23.7	19.7	0.00e+00	0	44	102	1048576	5	4085
2026-01-26 02:13:00.08	153.09	60.44	-23.0	-24.1	19.3	0.00e+00	0	44	102	1048576	6	4059
2026-01-26 02:13:01.08	153.72	60.14	-22.8	-23.5	19.6	2.74e-05	0	44	102	1048576	6	3934
2026-01-26 02:13:02.09	154.33	59.83	-22.9	-23.9	19.4	0.00e+00	0	44	102	1048576	6	4016
2026-01-26 02:13:03.10	154.94	59.52	-23.3	-24.7	19.0	3.40e-06	0	44	102	1048576	6	4216
2026-01-26 02:13:04.09	155.51	59.22	-22.9	-23.9	19.4	0.00e+00	0	44	102	1048576	6	4012
2026-01-26 02:13:05.10	156.09	58.91	-22.8	-23.5	19.5	0.00e+00	0	44	102	1048576	6	3925
2026-01-26 02:13:06.10	156.64	58.60	-23.0	-23.9	19.4	1.02e-05	0	44	102	1048576	6	4009
2026-01-26 02:13:07.10	157.18	58.29	-23.0	-24.0	19.3	0.00e+00	0	44	102	1048576	6	4040
2026-01-26 02:13:08.10	157.71	57.98	-23.5	-25.0	18.8	2.84e-04	0	44	102	1048576	6	4290
2026-01-26 02:13:09.10	158.23	57.67	-23.3	-24.6	19.0	0.00e+00	0	44	102	1048576	6	4197
2026-01-26 02:13:10.11	158.74	57.35	-23.2	-24.4	19.1	3.27e-04	0	44	102	1048576	6	4139
2026-01-26 02:13:11.12	159.24	57.04	-23.1	-24.3	19.1	0.00e+00	0	44	102	1048576	6	4121
2026-01-26 02:13:12.11	159.72	56.73	-23.2	-24.5	19.0	0.00e+00	0	44	102	1048576	6	4175
2026-01-26 02:13:13.12	160.20	56.41	-23.3	-24.7	18.9	0.00e+00	0	44	102	1048576	6	4211
2026-01-26 02:13:14.12	160.66	56.10	-23.6	-24.8	18.7	0.00e+00	0	44	102	1048576	7	4127
2026-01-26 02:13:15.12	161.12	55.79	-23.4	-24.4	18.8	0.00e+00	0	44	102	1048576	7	4041
2026-01-26 02:13:16.13	161.56	55.47	-23.5	-24.5	18.8	0.00e+00	0	44	102	1048576	7	4066
2026-01-26 02:13:17.13	162.00	55.16	-23.5	-24.6	18.8	0.00e+00	0	44	102	1048576	7	4082
2026-01-26 02:13:18.13	162.42	54.85	-23.4	-24.4	18.9	0.00e+00	0	44	102	1048576	7	4031
2026-01-26 02:13:19.14	162.84	54.53	-23.4	-24.4	18.9	0.00e+00	0	44	102	1048576	7	4015
2026-01-26 02:13:20.14	163.24	54.22	-23.6	-24.7	18.7	0.00e+00	0	44	102	1048576	7	4087
2026-01-26 02:13:21.15	163.65	53.91	-23.3	-24.2	18.9	0.00e+00	0	44	102	1048576	7	3981
2026-01-26 02:13:22.15	164.03	53.60	-23.5	-24.7	18.7	0.00e+00	0	44	102	1048576	7	4094
2026-01-26 02:13:23.15	164.41	53.29	-23.6	-24.8	18.6	0.00e+00	0	44	102	1048576	7	4142
2026-01-26 02:13:24.15	164.79	52.98	-23.6	-24.8	18.6	0.00e+00	0	44	102	1048576	7	4132
2026-01-26 02:13:25.16	165.16	52.67	-23.5	-24.5	18.7	0.00e+00	0	44	102	1048576	7	4055
2026-01-26 02:13:26.16	165.51	52.36	-23.4	-24.3	18.8	0.00e+00	0	44	102	1048576	7	4012
2026-01-26 02:13:27.17	165.87	52.05	-23.5	-24.6	18.7	0.00e+00	0	44	102	1048576	7	4086
2026-01-26 02:13:28.17	166.21	51.75	-23.9	-25.4	18.3	0.00e+00	0	44	102	1048576	7	4278
2026-01-26 02:13:29.17	166.55	51.44	-24.5	-25.6	17.7	0.00e+00	0	44	102	1048576	9	4118
2026-01-26 02:13:30.17	166.88	51.14	-24.2	-25.1	18.0	0.00e+00	0	44	102	1048576	9	3978
2026-01-26 02:13:31.17	167.20	50.84	-23.8	-24.2	18.4	0.00e+00	0	44	102	1048576	9	3774
2026-01-26 02:13:32.18	167.52	50.53	-23.6	-24.3	18.6	0.00e+00	0	44	102	1048576	8	3906
2026-01-26 02:13:33.18	167.83	50.23	-23.7	-24.6	18.5	0.00e+00	0	44	102	1048576	8	3965
2026-01-26 02:13:34.18	168.13	49.93	-23.8	-24.7	18.4	0.00e+00	0	44	102	1048576	8	3983
2026-01-26 02:13:35.18	168.43	49.64	-23.2	-23.9	19.0	0.00e+00	0	44	102	1048576	7	3920
2026-01-26 02:13:36.19	168.73	49.34	-22.9	-23.2	19.4	0.00e+00	0	44	102	1048576	7	3757
2026-01-26 02:13:37.19	169.01	49.04	-22.7	-23.3	19.6	0.00e+00	0	44	102	1048576	6	3879
2026-01-26 02:13:38.19	169.30	48.75	-22.9	-23.8	19.3	0.00e+00	0	44	102	1048576	6	4002
2026-01-26 02:13:39.19	169.57	48.45	-23.0	-24.1	19.2	0.00e+00	0	44	102	1048576	6	4071
2026-01-26 02:13:40.20	169.85	48.16	-23.2	-24.5	19.0	0.00e+00	0	44	102	1048576	6	4165
2026-01-26 02:13:41.21	170.12	47.86	-23.0	-24.0	19.2	0.00e+00	0	44	102	1048576	6	4037
2026-01-26 02:13:42.20	170.37	47.58	-22.7	-23.3	19.5	0.00e+00	0	44	102	1048576	6	3884
2026-01-26 02:13:43.21	170.63	47.29	-22.6	-23.2	19.6	0.00e+00	0	44	102	1048576	6	3845
2026-01-26 02:13:44.21	170.89	47.00	-22.6	-23.2	19.6	0.00e+00	0	44	102	1048576	6	3858
2026-01-26 02:13:45.22	171.14	46.71	-22.7	-23.4	19.4	0.00e+00	0	44	102	1048576	6	3906
2026-01-26 02:13:46.22	171.38	46.43	-22.8	-23.7	19.3	0.00e+00	0	44	102	1048576	6	3968
2026-01-26 02:13:47.22	171.62	46.15	-22.7	-23.5	19.4	0.00e+00	0	44	102	1048576	6	3924
2026-01-26 02:13:48.23	171.86	45.86	-22.7	-23.4	19.4	0.00e+00	0	44	102	1048576	6	3910
2026-01-26 02:13:49.23	172.09	45.58	-22.6	-23.3	19.5	0.00e+00	0	44	102	1048576	6	3876
2026-01-26 02:13:50.23	172.31	45.30	-22.6	-23.2	19.5	0.00e+00	0	44	102	1048576	6	3851
2026-01-26 02:13:51.23	172.54	45.03	-22.8	-23.6	19.4	0.00e+00	0	44	102	1048576	6	3938
2026-01-26 02:13:52.24	172.76	44.75	-22.7	-23.4	19.4	0.00e+00	0	44	102	1048576	6	3909
2026-01-26 02:13:53.25	172.98	44.47	-22.6	-23.1	19.6	0.00e+00	0	44	102	1048576	6	3848
2026-01-26 02:13:54.26	173.19	44.20	-22.6	-23.2	19.5	0.00e+00	0	44	102	1048576	6	3863
2026-01-26 02:13:55.26	173.40	43.93	-22.5	-23.0	19.6	0.00e+00	0	44	102	1048576	6	3817
2026-01-26 02:13:56.26	173.60	43.66	-22.5	-23.0	19.6	0.00e+00	0	44	102	1048576	6	3815
2026-01-26 02:13:57.27	173.81	43.39	-22.1	-22.7	20.0	0.00e+00	0	44	102	1048576	5	3839
2026-01-26 02:13:58.27	174.00	43.12	-21.9	-22.2	20.2	0.00e+00	0	44	102	1048576	5	3740
2026-01-26 02:13:59.27	174.20	42.85	-21.8	-22.1	20.3	0.00e+00	0	44	102	1048576	5	3709
2026-01-26 02:14:00.28	174.39	42.59	-21.9	-22.2	20.2	0.00e+00	0	44	102	1048576	5	3737
2026-01-26 02:14:01.29	174.58	42.32	-21.9	-22.2	20.2	0.00e+00	0	44	102	1048576	5	3741
2026-01-26 02:14:02.29	174.77	42.06	-22.0	-22.9	19.9	0.00e+00	0	44	102	1048576	4	4007
2026-01-26 02:14:03.29	174.95	41.81	-21.9	-22.8	20.1	0.00e+00	0	44	102	1048576	4	3975
2026-01-26 02:14:04.30	175.13	41.55	-21.9	-22.8	20.1	0.00e+00	0	44	102	1048576	4	3984
2026-01-26 02:14:05.31	175.31	41.29	-22.1	-23.1	20.0	0.00e+00	0	44	102	1048576	4	4049
2026-01-26 02:14:06.31	175.49	41.03	-21.9	-22.7	20.2	0.00e+00	0	44	102	1048576	4	3949
2026-01-26 02:14:07.31	175.66	40.78	-21.8	-22.6	20.2	0.00e+00	0	44	102	1048576	4	3924
2026-01-26 02:14:08.32	175.83	40.53	-21.8	-22.6	20.2	0.00e+00	0	44	102	1048576	4	3940
2026-01-26 02:14:09.32	176.00	40.28	-21.9	-22.7	20.2	4.50e-06	0	44	102	1048576	4	3960
2026-01-26 02:14:10.32	176.16	40.03	-21.9	-22.7	20.2	0.00e+00	0	44	102	1048576	4	3965
2026-01-26 02:14:11.33	176.33	39.78	-21.9	-22.8	20.1	0.00e+00	0	44	102	1048576	4	3985
2026-01-26 02:14:12.33	176.49	39.53	-21.9	-22.8	20.1	0.00e+00	0	44	102	1048576	4	3993
2026-01-26 02:14:13.33	176.64	39.29	-21.9	-22.7	20.2	0.00e+00	0	44	102	1048576	4	3957
2026-01-26 02:14:14.34	176.80	39.04	-21.8	-22.6	20.2	0.00e+00	0	44	102	1048576	4	3945
2026-01-26 02:14:15.34	176.95	38.80	-21.8	-22.6	20.2	0.00e+00	0	44	102	1048576	4	3948
2026-01-26 02:14:16.34	177.10	38.56	-21.9	-22.8	20.1	2.40e-05	0	44	102	1048576	4	3992
2026-01-26 02:14:17.35	177.25	38.32	-22.0	-23.0	20.0	0.00e+00	0	44	102	1048576	4	4036
2026-01-26 02:14:18.35	177.40	38.09	-21.8	-22.6	20.2	0.00e+00	0	44	102	1048576	4	3930
2026-01-26 02:14:19.35	177.54	37.85	-21.8	-22.5	20.2	2.20e-06	0	44	102	1048576	4	3920
2026-01-26 02:14:20.36	177.69	37.62	-22.0	-23.0	20.0	0.00e+00	0	44	102	1048576	4	4039
2026-01-26 02:14:21.36	177.83	37.38	-22.2	-23.4	19.8	6.40e-05	0	44	102	1048576	4	4123
2026-01-26 02:14:22.37	177.97	37.15	-22.2	-23.3	19.8	2.20e-06	0	44	102	1048576	4	4114
2026-01-26 02:14:23.37	178.10	36.92	-22.2	-23.4	19.7	5.49e-05	0	44	102	1048576	4	4135
2026-01-26 02:14:24.37	178.24	36.69	-22.1	-23.2	19.9	7.66e-05	0	44	102	1048576	4	4070
2026-01-26 02:14:25.37	178.37	36.47	-22.0	-23.1	19.9	3.98e-04	0	44	102	1048576	4	4044
2026-01-26 02:14:26.38	178.50	36.24	-21.9	-22.8	20.0	1.94e-05	0	44	102	1048576	4	3984
2026-01-26 02:14:27.38	178.63	36.02	-21.9	-22.7	20.1	5.73e-04	0	44	102	1048576	4	3949
2026-01-26 02:14:28.38	178.76	35.80	-21.9	-22.8	20.1	6.24e-04	0	44	102	1048576	4	3971
2026-01-26 02:14:29.38	178.88	35.57	-22.0	-22.9	20.0	4.50e-06	0	44	102	1048576	4	3993
2026-01-26 02:14:30.38	179.01	35.36	-21.9	-22.7	20.1	6.99e-04	0	44	102	1048576	4	3963
2026-01-26 02:14:31.39	179.13	35.14	-22.0	-22.9	20.0	1.10e-06	0	44	102	1048576	4	4004
2026-01-26 02:14:32.40	179.25	34.92	-22.0	-23.1	19.9	0.00e+00	0	44	102	1048576	4	4053
2026-01-26 02:14:33.41	179.37	34.70	-22.1	-23.1	19.9	6.75e-04	0	44	102	1048576	4	4070
2026-01-26 02:14:34.41	179.49	34.48	-22.2	-23.3	19.8	6.52e-04	0	44	102	1048576	4	4109
2026-01-26 02:14:35.41	179.61	34.27	-22.2	-23.3	19.8	6.86e-05	0	44	102	1048576	4	4114
2026-01-26 02:14:36.41	179.72	34.06	-22.2	-23.3	19.8	6.58e-04	0	44	102	1048576	4	4114
2026-01-26 02:14:37.42	179.84	33.85	-22.2	-23.4	19.7	7.12e-04	0	44	102	1048576	4	4124
2026-01-26 02:14:38.42	179.95	33.64	-22.2	-23.4	19.7	1.38e-04	0	44	102	1048576	4	4136
2026-01-26 02:14:39.43	180.06	33.43	-22.2	-23.3	19.8	8.19e-04	0	44	102	1048576	4	4104
2026-01-26 02:14:40.43	180.17	33.22	-22.2	-23.4	19.7	6.83e-04	0	44	102	1048576	4	4124
2026-01-26 02:14:41.44	180.28	33.02	-22.2	-23.4	19.7	0.00e+00	0	44	102	1048576	4	4125
2026-01-26 02:14:42.44	180.39	32.81	-22.2	-23.5	19.7	8.06e-04	0	44	102	1048576	4	4150
2026-01-26 02:14:43.44	180.49	32.61	-22.3	-23.6	19.6	6.28e-04	0	44	102	1048576	4	4195
2026-01-26 02:14:44.45	180.60	32.41	-22.3	-23.7	19.5	1.68e-04	0	44	102	1048576	4	4212
2026-01-26 02:14:45.46	180.70	32.21	-22.3	-23.5	19.6	0.00e+00	0	44	102	1048576	4	4171
2026-01-26 02:14:46.45	180.80	32.01	-22.3	-23.6	19.6	6.64e-04	0	44	102	1048576	4	4180
2026-01-26 02:14:47.45	180.90	31.81	-22.3	-23.6	19.5	1.80e-04	0	44	102	1048576	4	4199
2026-01-26 02:14:48.46	181.00	31.62	-22.4	-23.8	19.4	6.41e-04	0	44	102	1048576	4	4238
2026-01-26 02:14:49.46	181.10	31.42	-22.5	-24.0	19.4	6.32e-04	0	44	102	1048576	4	4285
2026-01-26 02:14:50.47	181.20	31.23	-22.5	-23.6	19.3	0.00e+00	0	44	102	1048576	5	4073
2026-01-26 02:14:51.48	181.30	31.03	-22.7	-23.9	19.2	6.34e-04	0	44	102	1048576	5	4151
2026-01-26 02:14:52.48	181.39	30.84	-22.7	-24.0	19.1	0.00e+00	0	44	102	1048576	5	4173
2026-01-26 02:14:53.49	181.49	30.65	-22.5	-23.6	19.3	0.00e+00	0	44	102	1048576	5	4061
2026-01-26 02:14:54.50	181.58	30.46	-22.4	-23.3	19.5	0.00e+00	0	44	102	1048576	5	3998
2026-01-26 02:14:55.51	181.67	30.27	-22.4	-23.3	19.5	0.00e+00	0	44	102	1048576	5	3995
2026-01-26 02:14:56.51	181.76	30.08	-22.4	-23.2	19.5	0.00e+00	0	44	102	1048576	5	3982
2026-01-26 02:14:57.52	181.86	29.89	-22.2	-23.0	19.6	0.00e+00	0	44	102	1048576	5	3917
2026-01-26 02:14:58.52	181.94	29.71	-22.4	-23.2	19.5	6.35e-04	0	44	102	1048576	5	3972
2026-01-26 02:14:59.52	182.03	29.53	-22.4	-23.2	19.5	0.00e+00	0	44	102	1048576	5	3968
2026-01-26 02:15:00.52	182.12	29.34	-22.1	-23.2	19.8	5.96e-04	0	44	102	1048576	4	4086
2026-01-26 02:15:01.53	182.21	29.16	-22.1	-23.2	19.8	0.00e+00	0	44	102	1048576	4	4072
2026-01-26 02:15:02.53	182.29	28.98	-22.2	-23.3	19.7	0.00e+00	0	44	102	1048576	4	4109
2026-01-26 02:15:03.55	182.38	28.80	-22.2	-23.3	19.7	0.00e+00	0	44	102	1048576	4	4113
2026-01-26 02:15:04.55	182.46	28.62	-22.3	-23.5	19.6	0.00e+00	0	44	102	1048576	4	4161
2026-01-26 02:15:05.56	182.54	28.44	-22.3	-23.7	19.5	0.00e+00	0	44	102	1048576	4	4210
2026-01-26 02:15:06.56	182.62	28.27	-22.2	-23.4	19.6	0.00e+00	0	44	102	1048576	4	4140
2026-01-26 02:15:07.56	182.70	28.09	-22.2	-23.5	19.6	0.00e+00	0	44	102	1048576	4	4157
2026-01-26 02:15:08.57	182.79	27.92	-22.4	-23.8	19.4	0.00e+00	0	44	102	1048576	4	4238
2026-01-26 02:15:09.57	182.86	27.75	-22.5	-24.0	19.3	0.00e+00	0	44	102	1048576	4	4281
2026-01-26 02:15:10.57	182.94	27.57	-22.7	-23.8	19.2	0.00e+00	0	44	102	1048576	5	4129
2026-01-26 02:15:11.57	183.02	27.40	-22.7	-23.9	19.2	0.00e+00	0	44	102	1048576	5	4133
2026-01-26 02:15:12.58	183.10	27.23	-22.5	-23.5	19.3	0.00e+00	0	44	102	1048576	5	4050
2026-01-26 02:15:13.59	183.17	27.06	-22.5	-23.5	19.4	0.00e+00	0	44	102	1048576	5	4034
2026-01-26 02:15:14.60	183.25	26.89	-22.6	-23.7	19.2	0.00e+00	0	44	102	1048576	5	4102
2026-01-26 02:15:15.59	183.32	26.73	-22.6	-23.7	19.2	0.00e+00	0	44	102	1048576	5	4105
2026-01-26 02:15:16.59	183.40	26.56	-22.7	-24.0	19.1	0.00e+00	0	44	102	1048576	5	4171
2026-01-26 02:15:17.60	183.47	26.40	-22.8	-24.1	19.0	0.00e+00	0	44	102	1048576	5	4189
2026-01-26 02:15:18.60	183.54	26.23	-22.6	-23.7	19.2	0.00e+00	0	44	102	1048576	5	4097
2026-01-26 02:15:19.60	183.61	26.07	-22.6	-23.7	19.2	0.00e+00	0	44	102	1048576	5	4089
2026-01-26 02:15:20.60	183.68	25.91	-22.7	-23.9	19.1	0.00e+00	0	44	102	1048576	5	4133
2026-01-26 02:15:21.60	183.75	25.75	-22.7	-24.0	19.1	0.00e+00	0	44	102	1048576	5	4161
2026-01-26 02:15:22.61	183.82	25.59	-22.8	-24.2	19.0	0.00e+00	0	44	102	1048576	5	4233
2026-01-26 02:15:23.62	183.89	25.43	-22.8	-24.2	19.0	0.00e+00	0	44	102	1048576	5	4226
2026-01-26 02:15:24.62	183.96	25.27	-22.9	-24.3	18.9	0.00e+00	0	44	102	1048576	5	4242
2026-01-26 02:15:25.63	184.03	25.11	-22.9	-24.3	18.9	0.00e+00	0	44	102	1048576	5	4252
2026-01-26 02:15:26.64	184.10	24.95	-22.9	-24.4	18.9	0.00e+00	0	44	102	1048576	5	4269
2026-01-26 02:15:27.64	184.16	24.80	-23.0	-24.5	18.8	0.00e+00	0	44	102	1048576	5	4297
2026-01-26 02:15:28.65	184.23	24.64	-23.0	-24.2	18.8	0.00e+00	0	44	102	1048576	6	4096
2026-01-26 02:15:29.66	184.30	24.49	-23.0	-24.2	18.7	0.00e+00	0	44	102	1048576	6	4104
2026-01-26 02:15:30.66	184.36	24.33	-23.0	-24.1	18.7	3.40e-06	0	44	102	1048576	6	4093
2026-01-26 02:15:31.66	184.42	24.18	-23.1	-24.3	18.7	0.00e+00	0	44	102	1048576	6	4124
2026-01-26 02:15:32.67	184.49	24.03	-23.1	-24.2	18.7	0.00e+00	0	44	102	1048576	6	4107
2026-01-26 02:15:33.66	184.55	23.88	-23.2	-24.5	18.5	6.80e-06	0	44	102	1048576	6	4188
2026-01-26 02:15:34.67	184.61	23.73	-23.3	-24.7	18.5	2.30e-04	0	44	102	1048576	6	4233
2026-01-26 02:15:35.68	184.67	23.58	-23.3	-24.6	18.5	0.00e+00	0	44	102	1048576	6	4202
2026-01-26 02:15:36.67	184.73	23.43	-23.3	-24.8	18.5	9.10e-06	0	44	102	1048576	6	4244
2026-01-26 02:15:37.67	184.79	23.29	-23.3	-24.7	18.5	0.00e+00	0	44	102	1048576	6	4219
2026-01-26 02:15:38.68	184.86	23.14	-23.3	-24.6	18.5	0.00e+00	0	44	102	1048576	6	4199
2026-01-26 02:15:39.69	184.92	22.99	-23.2	-24.6	18.5	8.00e-06	0	44	102	1048576	6	4193
2026-01-26 02:15:40.70	184.97	22.85	-23.3	-24.7	18.5	0.00e+00	0	44	102	1048576	6	4234
2026-01-26 02:15:41.70	185.03	22.70	-23.2	-24.5	18.5	1.92e-04	0	44	102	1048576	6	4185
2026-01-26 02:15:42.71	185.09	22.56	-23.1	-24.3	18.7	9.10e-06	0	44	102	1048576	6	4134
2026-01-26 02:15:43.72	185.15	22.42	-23.2	-24.5	18.6	2.05e-04	0	44	102	1048576	6	4175
2026-01-26 02:15:44.72	185.21	22.28	-23.1	-24.4	18.6	0.00e+00	0	44	102	1048576	6	4149
2026-01-26 02:15:45.72	185.26	22.13	-22.7	-23.8	15.6	0.00e+00	0	44	102	1048576	6	4079
2026-01-26 02:15:46.73	185.32	21.99	-23.2	-24.5	17.0	2.04e-04	0	44	102	1048576	6	4185
2026-01-26 02:15:47.73	185.37	21.85	-23.4	-25.0	15.7	0.00e+00	0	44	102	1048576	6	4294
2026-01-26 02:15:48.73	185.43	21.72	-23.3	-24.8	17.2	0.00e+00	0	44	102	1048576	6	4252
2026-01-26 02:15:49.74	185.48	21.58	-23.2	-24.4	18.6	0.00e+00	0	44	102	1048576	6	4158
2026-01-26 02:15:50.75	185.54	21.44	-23.2	-24.5	18.5	2.39e-04	0	44	102	1048576	6	4172
2026-01-26 02:15:51.75	185.59	21.30	-23.2	-24.5	18.5	3.40e-06	0	44	102	1048576	6	4191
2026-01-26 02:15:52.76	185.65	21.17	-23.4	-24.9	18.3	4.28e-04	0	44	102	1048576	6	4292
2026-01-26 02:15:53.77	185.70	21.03	-23.5	-25.1	18.3	2.45e-04	0	44	102	1048576	6	4324
2026-01-26 02:15:54.77	185.75	20.90	-23.5	-25.1	18.2	6.83e-04	0	44	102	1048576	6	4342
2026-01-26 02:15:55.78	185.80	20.76	-23.5	-24.7	18.2	2.35e-04	0	44	102	1048576	7	4128
2026-01-26 02:15:56.79	185.86	20.63	-23.8	-25.2	17.9	0.00e+00	0	44	102	1048576	7	4251
2026-01-26 02:15:57.80	185.91	20.49	-23.7	-25.0	18.0	0.00e+00	0	44	102	1048576	7	4204
2026-01-26 02:15:58.80	185.96	20.36	-23.7	-25.0	18.0	2.27e-04	0	44	102	1048576	7	4207
2026-01-26 02:15:59.80	186.01	20.23	-23.7	-25.1	18.0	9.75e-04	0	44	102	1048576	7	4230
2026-01-26 02:16:00.81	186.06	20.10	-23.7	-25.1	18.0	0.00e+00	0	44	102	1048576	7	4213
2026-01-26 02:16:01.82	186.11	19.97	-23.8	-25.3	17.9	3.68e-04	0	44	102	1048576	7	4274
2026-01-26 02:16:02.82	186.16	19.84	-23.8	-25.2	17.9	2.24e-04	0	44	102	1048576	7	4247
2026-01-26 02:16:03.83	186.21	19.71	-23.8	-25.4	17.8	6.16e-04	0	44	102	1048576	7	4292
2026-01-26 02:16:04.83	186.25	19.59	-23.8	-25.3	17.9	3.27e-04	0	44	102	1048576	7	4287
2026-01-26 02:16:05.84	186.30	19.46	-23.8	-25.3	17.8	5.80e-04	0	44	102	1048576	7	4286
2026-01-26 02:16:06.85	186.35	19.33	-23.8	-25.3	17.9	5.46e-04	0	44	102	1048576	7	4281
2026-01-26 02:16:07.85	186.40	19.20	-24.0	-25.7	17.7	1.84e-04	0	44	102	1048576	7	4381
2026-01-26 02:16:08.85	186.45	19.08	-23.9	-25.1	17.8	5.17e-04	0	44	102	1048576	8	4100
2026-01-26 02:16:09.86	186.49	18.95	-23.8	-24.9	17.9	5.61e-04	0	44	102	1048576	8	4050
2026-01-26 02:16:10.87	186.54	18.83	-23.8	-24.9	17.8	1.64e-04	0	44	102	1048576	8	4051
2026-01-26 02:16:11.87	186.58	18.71	-23.9	-25.0	17.7	8.72e-04	0	44	102	1048576	8	4092
2026-01-26 02:16:12.87	186.63	18.58	-23.9	-25.0	17.8	6.16e-04	0	44	102	1048576	8	4087
2026-01-26 02:16:13.88	186.68	18.46	-24.0	-25.3	17.6	3.07e-04	0	44	102	1048576	8	4143
2026-01-26 02:16:14.88	186.72	18.34	-23.9	-25.0	17.8	5.56e-04	0	44	102	1048576	8	4081
2026-01-26 02:16:15.89	186.76	18.22	-23.9	-25.0	17.8	4.55e-04	0	44	102	1048576	8	4072
2026-01-26 02:16:16.90	186.81	18.10	-23.9	-25.0	17.7	3.49e-04	0	44	102	1048576	8	4083
2026-01-26 02:16:17.90	186.85	17.98	-24.0	-25.3	17.6	4.58e-04	0	44	102	1048576	8	4145
2026-01-26 02:16:18.90	186.90	17.86	-24.0	-25.1	17.7	4.57e-04	0	44	102	1048576	8	4103
2026-01-26 02:16:19.91	186.94	17.74	-23.9	-25.4	17.7	1.41e-04	0	44	102	1048576	7	4309
2026-01-26 02:16:20.92	186.98	17.62	-24.0	-25.6	17.7	4.22e-04	0	44	102	1048576	7	4358
2026-01-26 02:16:21.93	187.03	17.50	-24.1	-25.3	17.6	0.00e+00	0	44	102	1048576	8	4157
2026-01-26 02:16:22.93	187.07	17.38	-24.1	-25.5	17.5	1.27e-04	0	44	102	1048576	8	4204
2026-01-26 02:16:23.94	187.11	17.27	-24.2	-25.5	17.5	0.00e+00	0	44	102	1048576	8	4210
2026-01-26 02:16:24.93	187.15	17.15	-24.3	-25.7	17.4	4.00e-04	0	44	102	1048576	8	4257
2026-01-26 02:16:25.93	187.19	17.04	-24.5	-26.2	17.1	0.00e+00	0	44	102	1048576	8	4386
2026-01-26 02:16:26.93	187.23	16.92	-24.4	-26.0	17.2	3.87e-04	0	44	102	1048576	8	4332
2026-01-26 02:16:27.94	187.28	16.81	-24.4	-26.0	17.2	4.04e-04	0	44	102	1048576	8	4324
2026-01-26 02:16:28.94	187.32	16.69	-24.4	-26.0	17.2	0.00e+00	0	44	102	1048576	8	4335
2026-01-26 02:16:29.94	187.36	16.58	-24.5	-25.8	17.1	4.30e-04	0	44	102	1048576	9	4167
2026-01-26 02:16:30.95	187.40	16.47	-24.5	-25.7	17.1	0.00e+00	0	44	102	1048576	9	4152
2026-01-26 02:16:31.95	187.44	16.36	-24.6	-25.9	17.0	1.60e-05	0	44	102	1048576	9	4181
2026-01-26 02:16:32.96	187.48	16.24	-24.5	-25.7	17.1	0.00e+00	0	44	102	1048576	9	4151
2026-01-26 02:16:33.96	187.52	16.13	-24.7	-26.2	16.9	0.00e+00	0	44	102	1048576	9	4270
2026-01-26 02:16:34.96	187.55	16.02	-24.6	-25.9	17.0	0.00e+00	0	44	102	1048576	9	4195
2026-01-26 02:16:35.97	187.59	15.91	-24.5	-25.8	17.0	0.00e+00	0	44	102	1048576	9	4178
2026-01-26 02:16:36.98	187.63	15.80	-24.5	-25.8	17.0	4.24e-04	0	44	102	1048576	9	4180
2026-01-26 02:16:37.98	187.67	15.69	-24.5	-25.7	17.1	0.00e+00	0	44	102	1048576	9	4133
2026-01-26 02:16:38.98	187.71	15.58	-24.6	-25.9	17.0	4.50e-04	0	44	102	1048576	9	4206
2026-01-26 02:16:39.99	187.75	15.47	-24.6	-26.0	16.9	0.00e+00	0	44	102	1048576	9	4232
2026-01-26 02:16:40.99	187.78	15.37	-24.5	-25.8	17.0	0.00e+00	0	44	102	1048576	9	4174
2026-01-26 02:16:42.00	187.82	15.26	-24.8	-26.3	16.8	1.10e-06	0	44	102	1048576	9	4304
2026-01-26 02:16:43.00	187.86	15.15	-24.7	-26.2	16.8	0.00e+00	0	44	102	1048576	9	4280
2026-01-26 02:16:44.00	187.89	15.04	-24.8	-26.3	16.7	0.00e+00	0	44	102	1048576	9	4312
2026-01-26 02:16:45.00	187.93	14.94	-25.2	-26.7	16.3	0.00e+00	0	44	102	1048576	10	4296
2026-01-26 02:16:46.01	187.97	14.83	-25.3	-26.9	16.2	0.00e+00	0	44	102	1048576	10	4344
2026-01-26 02:16:47.01	188.00	14.73	-25.1	-26.6	16.3	0.00e+00	0	44	102	1048576	10	4279
2026-01-26 02:16:48.02	188.04	14.62	-25.2	-26.7	16.3	0.00e+00	0	44	102	1048576	10	4300
2026-01-26 02:16:49.03	188.07	14.52	-25.3	-26.9	16.2	0.00e+00	0	44	102	1048576	10	4345
2026-01-26 02:16:50.03	188.11	14.41	-25.5	-27.4	15.9	0.00e+00	0	44	102	1048576	10	4481
2026-01-26 02:16:51.04	188.14	14.31	-25.5	-26.9	15.9	0.00e+00	0	44	102	1048576	11	4227
2026-01-26 02:16:52.04	188.18	14.21	-25.8	-27.5	15.6	0.00e+00	0	44	102	1048576	11	4399
2026-01-26 02:16:53.04	188.21	14.10	-25.6	-27.1	15.8	0.00e+00	0	44	102	1048576	11	4281
2026-01-26 02:16:54.05	188.25	14.00	-25.8	-27.5	15.5	0.00e+00	0	44	102	1048576	11	4410
2026-01-26 02:16:55.06	188.28	13.90	-25.6	-27.2	15.7	0.00e+00	0	44	102	1048576	11	4304
2026-01-26 02:16:56.05	188.32	13.80	-25.4	-26.7	16.0	0.00e+00	0	44	102	1048576	11	4188
2026-01-26 02:16:57.06	188.35	13.70	-25.3	-26.5	16.1	0.00e+00	0	44	102	1048576	11	4138
2026-01-26 02:16:58.07	188.38	13.60	-25.3	-26.5	16.1	0.00e+00	0	44	102	1048576	11	4126
2026-01-26 02:16:59.07	188.42	13.50	-25.3	-26.5	16.0	0.00e+00	0	44	102	1048576	11	4141
2026-01-26 02:17:00.07	188.45	13.40	-25.2	-26.9	16.1	0.00e+00	0	44	102	1048576	10	4349
2026-01-26 02:17:01.08	188.48	13.30	-25.3	-27.0	15.4	0.00e+00	0	44	102	1048576	10	4388
2026-01-26 02:17:02.08	188.52	13.20	-25.5	-27.4	15.5	0.00e+00	0	44	102	1048576	10	4492
2026-01-26 02:17:03.09	188.55	13.10	-25.4	-26.7	15.9	0.00e+00	0	44	102	1048576	11	4186
2026-01-26 02:17:04.10	188.58	13.00	-25.2	-26.9	16.1	1.68e-04	0	44	102	1048576	10	4342
2026-01-26 02:17:05.10	188.61	12.90	-25.4	-27.2	15.9	0.00e+00	0	44	102	1048576	10	4448
2026-01-26 02:17:06.10	188.65	12.81	-25.5	-27.4	15.8	1.02e-05	0	44	102	1048576	10	4486
2026-01-26 02:17:07.09	188.68	12.71	-25.5	-26.8	15.8	0.00e+00	0	44	102	1048576	11	4222
2026-01-26 02:17:08.10	188.71	12.61	-25.6	-27.2	15.6	0.00e+00	0	44	102	1048576	11	4330
2026-01-26 02:17:09.11	188.74	12.52	-25.5	-27.1	15.7	0.00e+00	0	44	102	1048576	11	4282
2026-01-26 02:17:10.11	188.77	12.42	-25.6	-27.2	15.6	0.00e+00	0	44	102	1048576	11	4321
2026-01-26 02:17:11.11	188.80	12.33	-25.6	-27.2	15.6	1.88e-04	0	44	102	1048576	11	4330
2026-01-26 02:17:12.11	188.83	12.23	-25.8	-27.6	15.4	0.00e+00	0	44	102	1048576	11	4430
2026-01-26 02:17:13.11	188.86	12.14	-25.6	-27.2	15.6	1.67e-04	0	44	102	1048576	11	4327
2026-01-26 02:17:14.11	188.89	12.04	-25.3	-26.6	15.9	0.00e+00	0	44	102	1048576	11	4152
2026-01-26 02:17:15.12	188.93	11.95	-25.2	-26.3	16.1	0.00e+00	0	44	102	1048576	11	4088
2026-01-26 02:17:16.11	188.96	11.86	-25.4	-27.2	15.9	6.29e-05	0	44	102	1048576	10	4427
2026-01-26 02:17:17.11	188.99	11.76	-25.3	-27.0	15.9	0.00e+00	0	44	102	1048576	10	4395
2026-01-26 02:17:18.12	189.02	11.67	-25.3	-27.1	15.9	0.00e+00	0	44	102	1048576	10	4400
2026-01-26 02:17:19.12	189.04	11.58	-25.4	-27.2	15.9	0.00e+00	0	44	102	1048576	10	4448
2026-01-26 02:17:20.13	189.07	11.48	-25.5	-27.0	15.7	1.10e-04	0	44	102	1048576	11	4270
2026-01-26 02:17:21.13	189.10	11.39	-25.3	-26.6	15.9	0.00e+00	0	44	102	1048576	11	4158
2026-01-26 02:17:22.14	189.13	11.30	-25.4	-27.3	15.8	1.15e-04	0	44	102	1048576	10	4470
2026-01-26 02:17:23.15	189.16	11.21	-25.4	-27.3	15.8	9.84e-05	0	44	102	1048576	10	4475
2026-01-26 02:17:24.15	189.19	11.12	-25.5	-27.0	15.7	0.00e+00	0	44	102	1048576	11	4273
2026-01-26 02:17:25.15	189.22	11.03	-25.6	-27.2	15.6	9.72e-05	0	44	102	1048576	11	4327
2026-01-26 02:17:26.15	189.25	10.94	-25.6	-27.1	15.6	1.06e-04	0	44	102	1048576	11	4309
2026-01-26 02:17:27.16	189.28	10.85	-25.6	-27.2	15.5	0.00e+00	0	44	102	1048576	11	4328
2026-01-26 02:17:28.16	189.31	10.76	-25.8	-27.6	15.3	1.05e-04	0	44	102	1048576	11	4428
2026-01-26 02:17:29.16	189.33	10.67	-25.8	-27.5	15.3	9.04e-05	0	44	102	1048576	11	4416
2026-01-26 02:17:30.16	189.36	10.58	-25.8	-27.7	15.3	1.10e-06	0	44	102	1048576	11	4462
2026-01-26 02:17:31.17	189.39	10.49	-26.0	-27.5	15.0	2.17e-05	0	44	102	1048576	12	4310
2026-01-26 02:17:32.17	189.42	10.40	-25.9	-27.8	15.2	1.02e-04	0	44	102	1048576	11	4496
2026-01-26 02:17:33.17	189.44	10.32	-25.9	-27.9	15.1	0.00e+00	0	44	102	1048576	11	4516
2026-01-26 02:17:34.18	189.47	10.23	-25.9	-27.9	15.1	8.12e-05	0	44	102	1048576	11	4531
2026-01-26 02:17:35.18	189.50	10.14	-26.1	-27.7	14.9	1.03e-04	0	44	102	1048576	12	4361
2026-01-26 02:17:36.18	189.53	10.05	-25.9	-27.5	15.0	0.00e+00	0	44	102	1048576	12	4296
2026-01-26 02:17:37.19	189.55	9.97	-26.0	-27.7	14.9	7.78e-05	0	44	102	1048576	12	4345
2026-01-26 02:17:38.19	189.58	9.88	-26.0	-28.0	15.1	1.06e-03	0	44	102	1048576	11	4547
2026-01-26 02:17:39.19	189.61	9.79	-25.8	-27.6	15.3	0.00e+00	0	44	102	1048576	11	4427
2026-01-26 02:17:40.20	189.63	9.71	-25.8	-27.6	15.3	5.49e-05	0	44	102	1048576	11	4440
2026-01-26 02:17:41.20	189.66	9.62	-25.8	-27.6	15.3	8.01e-05	0	44	102	1048576	11	4433
2026-01-26 02:17:42.21	189.69	9.54	-25.9	-27.8	15.2	0.00e+00	0	44	102	1048576	11	4481
2026-01-26 02:17:43.21	189.71	9.45	-25.9	-27.9	15.0	1.10e-06	0	44	102	1048576	11	4533
2026-01-26 02:17:44.22	189.74	9.37	-26.0	-28.0	15.0	4.57e-05	0	44	102	1048576	11	4556
2026-01-26 02:17:45.23	189.76	9.28	-26.0	-27.5	14.9	1.11e-03	0	44	102	1048576	12	4313
2026-01-26 02:17:46.23	189.79	9.20	-26.0	-27.6	14.8	1.03e-04	0	44	102	1048576	12	4339
2026-01-26 02:17:47.24	189.81	9.11	-26.1	-27.8	14.7	1.29e-03	0	44	102	1048576	12	4390
2026-01-26 02:17:48.24	189.84	9.03	-25.9	-27.9	15.0	3.15e-04	0	44	102	1048576	11	4515
2026-01-26 02:17:49.25	189.87	8.95	-25.8	-27.6	15.1	0.00e+00	0	44	102	1048576	11	4450
2026-01-26 02:17:50.25	189.89	8.86	-26.1	-27.8	14.7	1.24e-03	0	44	102	1048576	12	4394
