passes_logs/2026/01/26/R2M6_AANII_01/R2M6_AANII_01__20260126_134007_FENGYUN_3D_rec.log

#Pass ID: 20260126_134007_FENGYUN 3D
#Satellite: FENGYUN 3D
#Configuration: FENGYUN 3D
#almurnet v.1.7.20240730
#Start time: 2026-01-26 13:40:07

#Version: 2.2.20231116
#Station: R2M6_AANII_01
#Location: 30.233357 lon 59.946436 lat
#TLE: 1 43010U 17072A   26025.99795741 -.00000136  00000+0 -42313-4 0  9999
#TLE: 2 43010  98.9962 357.9855 0002515  89.6991 270.4472 14.19699257424818

#Time	Az	El	Level	Level2	SNR	BER	BlckErr	Temp	State	Recorded	gain1	gain2
2026-01-26 13:40:07.56	201.36	6.97	-27.7	-29.5	5.8	7.65e-01	0	41	0	0	16	4419
2026-01-26 13:40:08.56	201.43	7.04	-29.1	-31.9	5.5	7.77e-01	0	41	104	0	18	4991
2026-01-26 13:40:09.56	201.51	7.11	-28.9	-31.3	11.2	1.68e-03	0	42	0	0	18	4746
2026-01-26 13:40:10.55	201.59	7.18	-28.9	-31.4	11.1	6.98e-04	0	41	0	5242880	18	4795
2026-01-26 13:40:11.56	201.67	7.25	-28.9	-31.4	11.2	1.12e-03	0	42	0	10485760	18	4782
2026-01-26 13:40:12.57	201.75	7.31	-28.5	-30.4	11.8	3.29e-04	0	42	0	16777216	18	4465
2026-01-26 13:40:13.57	201.83	7.38	-28.1	-30.0	12.4	1.22e-04	0	41	0	22020096	17	4444
2026-01-26 13:40:14.58	201.91	7.45	-27.9	-29.4	12.8	4.00e-05	0	42	0	28311552	17	4285
2026-01-26 13:40:15.58	201.99	7.52	-27.7	-29.3	13.1	2.51e-05	0	42	0	33554432	16	4355
2026-01-26 13:40:16.59	202.07	7.59	-27.4	-28.6	13.6	9.10e-06	0	42	0	38797312	16	4132
2026-01-26 13:40:17.59	202.15	7.66	-27.5	-28.9	13.4	6.80e-06	0	42	0	45088768	16	4221
2026-01-26 13:40:18.60	202.23	7.73	-27.3	-28.4	13.8	6.80e-06	0	42	0	50331648	16	4081
2026-01-26 13:40:19.60	202.31	7.80	-27.2	-28.8	13.6	6.80e-06	0	42	0	55574528	15	4324
2026-01-26 13:40:20.61	202.39	7.87	-27.3	-28.9	13.6	8.00e-06	0	42	0	61865984	15	4343
2026-01-26 13:40:21.61	202.47	7.94	-27.0	-28.4	13.9	1.10e-06	0	42	0	67108864	15	4190
2026-01-26 13:40:22.61	202.56	8.01	-26.7	-28.0	14.4	0.00e+00	0	42	0	73400320	14	4207
2026-01-26 13:40:23.61	202.64	8.08	-26.5	-27.7	14.6	0.00e+00	0	42	0	78643200	14	4107
2026-01-26 13:40:24.61	202.72	8.16	-26.7	-28.0	14.5	0.00e+00	0	42	0	83886080	14	4184
2026-01-26 13:40:25.62	202.81	8.23	-26.5	-27.7	14.6	0.00e+00	0	42	0	90177536	14	4123
2026-01-26 13:40:26.63	202.89	8.30	-26.5	-27.6	14.7	0.00e+00	0	42	0	95420416	14	4086
2026-01-26 13:40:27.63	202.98	8.37	-26.5	-27.5	14.7	0.00e+00	0	42	0	101711872	14	4061
2026-01-26 13:40:28.63	203.06	8.44	-26.6	-27.9	14.5	0.00e+00	0	42	0	106954752	14	4158
2026-01-26 13:40:29.63	203.15	8.51	-26.5	-27.6	14.7	0.00e+00	0	42	0	112197632	14	4079
2026-01-26 13:40:30.64	203.23	8.58	-26.6	-27.8	14.5	5.70e-06	0	42	0	118489088	14	4153
2026-01-26 13:40:31.63	203.32	8.66	-26.6	-27.7	14.6	0.00e+00	0	42	0	123731968	14	4130
2026-01-26 13:40:32.63	203.40	8.73	-26.7	-28.1	14.4	1.10e-06	0	42	0	128974848	14	4207
2026-01-26 13:40:33.64	203.49	8.80	-26.5	-27.6	14.7	8.00e-06	0	42	0	135266304	14	4075
2026-01-26 13:40:34.64	203.58	8.87	-26.5	-27.6	14.7	0.00e+00	0	42	0	140509184	14	4075
2026-01-26 13:40:35.64	203.67	8.94	-26.7	-28.0	14.5	0.00e+00	0	42	0	146800640	14	4198
2026-01-26 13:40:36.64	203.75	9.02	-26.5	-27.6	14.7	1.14e-05	0	42	0	152043520	14	4080
2026-01-26 13:40:37.65	203.84	9.09	-26.5	-27.6	14.8	0.00e+00	0	42	0	157286400	14	4074
2026-01-26 13:40:38.65	203.93	9.16	-26.5	-27.5	14.8	0.00e+00	0	42	0	163577856	14	4053
2026-01-26 13:40:39.65	204.02	9.24	-26.6	-27.8	14.6	0.00e+00	0	42	0	168820736	14	4133
2026-01-26 13:40:40.65	204.11	9.31	-26.6	-27.9	14.6	0.00e+00	0	42	0	174063616	14	4157
2026-01-26 13:40:41.65	204.20	9.38	-26.7	-28.1	14.5	1.10e-06	0	42	0	180355072	14	4222
2026-01-26 13:40:42.65	204.29	9.46	-26.7	-27.9	14.6	8.00e-06	0	42	0	185597952	14	4166
2026-01-26 13:40:43.66	204.38	9.53	-26.3	-27.2	15.0	0.00e+00	0	43	0	190840832	14	3984
2026-01-26 13:40:44.67	204.48	9.60	-26.2	-27.5	15.1	0.00e+00	0	43	0	197132288	13	4169
2026-01-26 13:40:45.67	204.57	9.68	-26.3	-27.7	15.0	0.00e+00	0	43	0	202375168	13	4227
2026-01-26 13:40:46.68	204.66	9.75	-26.3	-27.5	15.1	1.10e-06	0	43	0	208666624	13	4167
2026-01-26 13:40:47.68	204.75	9.83	-26.2	-27.4	15.2	0.00e+00	0	43	0	213909504	13	4124
2026-01-26 13:40:48.69	204.85	9.90	-26.1	-27.1	15.4	0.00e+00	0	42	0	220200960	13	4060
2026-01-26 13:40:49.69	204.94	9.98	-26.1	-27.1	15.3	0.00e+00	0	42	0	225443840	13	4062
2026-01-26 13:40:50.70	205.04	10.05	-26.0	-26.9	15.5	0.00e+00	0	43	0	230686720	13	4010
2026-01-26 13:40:51.70	205.13	10.13	-26.1	-27.1	15.3	0.00e+00	0	43	0	236978176	13	4062
2026-01-26 13:40:52.70	205.23	10.20	-26.1	-27.2	15.3	0.00e+00	0	43	0	242221056	13	4077
2026-01-26 13:40:53.69	205.32	10.28	-26.0	-26.8	15.5	0.00e+00	0	43	0	247463936	13	3986
2026-01-26 13:40:54.70	205.42	10.35	-25.9	-26.7	15.6	0.00e+00	0	43	0	253755392	13	3940
2026-01-26 13:40:55.70	205.52	10.43	-25.9	-26.7	15.6	0.00e+00	0	43	0	258998272	13	3949
2026-01-26 13:40:56.70	205.61	10.50	-26.0	-26.9	15.5	0.00e+00	0	43	0	264241152	13	3988
2026-01-26 13:40:57.71	205.71	10.58	-25.8	-26.5	15.7	0.00e+00	0	43	0	270532608	13	3903
2026-01-26 13:40:58.71	205.81	10.66	-26.1	-27.2	15.4	0.00e+00	0	43	0	275775488	13	4065
2026-01-26 13:40:59.72	205.91	10.73	-25.9	-26.7	15.6	0.00e+00	0	43	0	282066944	13	3957
2026-01-26 13:41:00.72	206.01	10.81	-25.8	-27.0	15.8	0.00e+00	0	43	0	287309824	12	4134
2026-01-26 13:41:01.72	206.11	10.89	-25.8	-27.1	15.7	0.00e+00	0	43	0	293601280	12	4143
2026-01-26 13:41:02.73	206.21	10.96	-25.7	-26.8	15.9	0.00e+00	0	43	0	298844160	12	4070
2026-01-26 13:41:03.74	206.31	11.04	-25.8	-26.9	15.8	0.00e+00	0	43	0	304087040	12	4111
2026-01-26 13:41:04.75	206.41	11.12	-25.7	-26.8	15.9	0.00e+00	0	43	0	310378496	12	4073
2026-01-26 13:41:05.75	206.51	11.19	-25.7	-26.7	15.9	0.00e+00	0	43	0	315621376	12	4061
2026-01-26 13:41:06.76	206.62	11.27	-25.8	-26.9	15.8	0.00e+00	0	43	0	320864256	12	4102
2026-01-26 13:41:07.76	206.72	11.35	-25.7	-26.8	15.9	0.00e+00	0	43	0	327155712	12	4080
2026-01-26 13:41:08.76	206.82	11.43	-25.8	-27.0	15.8	0.00e+00	0	43	0	332398592	12	4126
2026-01-26 13:41:09.76	206.92	11.51	-25.6	-26.6	16.0	0.00e+00	0	43	0	337641472	12	4029
2026-01-26 13:41:10.77	207.03	11.58	-25.6	-26.5	16.0	0.00e+00	0	43	0	343932928	12	4013
2026-01-26 13:41:11.77	207.13	11.66	-25.7	-26.7	15.9	0.00e+00	0	43	0	349175808	12	4064
2026-01-26 13:41:12.77	207.24	11.74	-25.6	-26.6	16.0	0.00e+00	0	43	0	355467264	12	4038
2026-01-26 13:41:13.77	207.35	11.82	-25.6	-26.5	16.1	0.00e+00	0	43	0	360710144	12	3999
2026-01-26 13:41:14.77	207.45	11.90	-25.7	-26.7	16.0	0.00e+00	0	43	0	367001600	12	4068
2026-01-26 13:41:15.78	207.56	11.98	-25.6	-26.6	16.0	0.00e+00	0	43	0	372244480	12	4031
2026-01-26 13:41:16.78	207.67	12.06	-25.6	-26.6	16.0	0.00e+00	0	43	0	377487360	12	4033
2026-01-26 13:41:17.78	207.78	12.14	-25.7	-26.8	16.0	0.00e+00	0	43	0	383778816	12	4069
2026-01-26 13:41:18.78	207.88	12.21	-25.5	-26.4	16.2	0.00e+00	0	43	0	389021696	12	3982
2026-01-26 13:41:19.79	207.99	12.29	-25.5	-26.2	16.3	0.00e+00	0	43	0	394264576	12	3934
2026-01-26 13:41:20.78	208.10	12.37	-25.6	-26.6	16.1	0.00e+00	0	43	0	400556032	12	4020
2026-01-26 13:41:21.78	208.21	12.45	-25.5	-26.3	16.2	0.00e+00	0	43	0	405798912	12	3964
2026-01-26 13:41:22.78	208.32	12.53	-25.5	-26.4	16.2	0.00e+00	0	43	0	411041792	12	3972
2026-01-26 13:41:23.79	208.44	12.61	-25.4	-26.2	16.3	0.00e+00	0	43	0	417333248	12	3918
2026-01-26 13:41:24.79	208.55	12.69	-25.5	-26.3	16.3	0.00e+00	0	43	0	422576128	12	3938
2026-01-26 13:41:25.79	208.66	12.77	-25.4	-26.2	16.3	0.00e+00	0	43	0	428867584	12	3927
2026-01-26 13:41:26.79	208.77	12.86	-25.5	-26.3	16.3	2.20e-06	0	43	0	434110464	12	3949
2026-01-26 13:41:27.80	208.89	12.94	-25.7	-26.7	16.0	0.00e+00	0	43	0	439353344	12	4061
2026-01-26 13:41:28.79	209.00	13.02	-25.5	-26.3	16.3	0.00e+00	0	43	0	445644800	12	3949
2026-01-26 13:41:29.79	209.12	13.10	-25.4	-26.1	16.4	0.00e+00	0	43	0	450887680	12	3912
2026-01-26 13:41:30.79	209.23	13.18	-25.3	-26.4	16.5	0.00e+00	0	43	0	456130560	11	4090
2026-01-26 13:41:31.79	209.35	13.26	-25.3	-26.5	16.5	0.00e+00	0	43	0	462422016	11	4097
2026-01-26 13:41:32.79	209.47	13.34	-25.4	-26.5	16.5	0.00e+00	0	43	0	467664896	11	4105
2026-01-26 13:41:33.80	209.58	13.43	-25.3	-26.4	16.5	0.00e+00	0	43	0	472907776	11	4089
2026-01-26 13:41:34.81	209.70	13.51	-25.4	-26.7	16.4	0.00e+00	0	43	0	479199232	11	4142
2026-01-26 13:41:35.81	209.82	13.59	-25.3	-26.4	16.6	8.00e-06	0	43	0	484442112	11	4078
2026-01-26 13:41:36.82	209.94	13.67	-25.3	-26.3	16.6	0.00e+00	0	43	0	490733568	11	4055
2026-01-26 13:41:37.82	210.06	13.76	-25.4	-26.6	16.5	0.00e+00	0	43	0	495976448	11	4117
2026-01-26 13:41:38.83	210.18	13.84	-25.3	-26.3	16.6	1.14e-05	0	43	0	502267904	11	4051
2026-01-26 13:41:39.84	210.31	13.92	-25.3	-26.4	16.6	0.00e+00	0	43	0	507510784	11	4079
2026-01-26 13:41:40.84	210.43	14.01	-25.3	-26.4	16.6	0.00e+00	0	43	0	512753664	11	4075
2026-01-26 13:41:41.85	210.55	14.09	-25.4	-26.5	16.5	1.02e-05	0	43	0	519045120	11	4113
2026-01-26 13:41:42.85	210.68	14.17	-25.2	-26.1	16.8	0.00e+00	0	43	0	524288000	11	4004
2026-01-26 13:41:43.86	210.80	14.26	-25.1	-26.0	16.8	0.00e+00	0	43	0	530579456	11	3982
2026-01-26 13:41:44.86	210.93	14.34	-25.1	-25.9	16.9	9.10e-06	0	43	0	535822336	11	3956
2026-01-26 13:41:45.87	211.05	14.43	-25.2	-26.2	16.7	0.00e+00	0	43	0	541065216	11	4042
2026-01-26 13:41:46.87	211.18	14.51	-25.1	-26.0	16.8	0.00e+00	0	43	0	547356672	11	3969
2026-01-26 13:41:47.86	211.30	14.59	-25.1	-26.0	16.9	9.10e-06	0	43	0	552599552	11	3971
2026-01-26 13:41:48.87	211.43	14.68	-25.1	-26.0	16.9	0.00e+00	0	43	0	557842432	11	3975
2026-01-26 13:41:49.87	211.56	14.76	-25.1	-26.0	16.9	0.00e+00	0	43	0	564133888	11	3980
2026-01-26 13:41:50.88	211.69	14.85	-24.9	-25.5	17.1	8.00e-06	0	43	0	569376768	11	3858
2026-01-26 13:41:51.88	211.82	14.93	-25.0	-25.7	17.0	0.00e+00	0	43	0	575668224	11	3905
2026-01-26 13:41:52.89	211.95	15.02	-24.9	-25.6	17.1	0.00e+00	0	43	0	580911104	11	3877
2026-01-26 13:41:53.89	212.08	15.10	-24.8	-25.3	17.2	0.00e+00	0	43	0	586153984	11	3813
2026-01-26 13:41:54.89	212.21	15.19	-24.8	-25.7	17.3	0.00e+00	0	43	0	592445440	10	4023
2026-01-26 13:41:55.89	212.35	15.27	-24.9	-26.0	17.1	0.00e+00	0	43	0	597688320	10	4094
2026-01-26 13:41:56.90	212.48	15.36	-24.9	-25.9	17.2	0.00e+00	0	43	0	602931200	10	4068
2026-01-26 13:41:57.90	212.62	15.45	-24.7	-25.5	17.4	0.00e+00	0	43	0	609222656	10	3962
2026-01-26 13:41:58.91	212.75	15.53	-24.8	-25.7	17.3	0.00e+00	0	43	0	614465536	10	4016
2026-01-26 13:41:59.91	212.89	15.62	-24.7	-25.5	17.5	1.14e-05	0	43	0	620756992	10	3959
2026-01-26 13:42:00.91	213.02	15.70	-24.8	-25.7	17.4	0.00e+00	0	43	0	625999872	10	3998
2026-01-26 13:42:01.91	213.16	15.79	-24.8	-25.8	17.3	0.00e+00	0	43	0	631242752	10	4022
2026-01-26 13:42:02.91	213.30	15.88	-24.8	-25.7	17.3	0.00e+00	0	43	0	637534208	10	4007
2026-01-26 13:42:03.91	213.44	15.96	-24.9	-25.9	17.2	0.00e+00	0	43	0	642777088	10	4054
2026-01-26 13:42:04.91	213.58	16.05	-24.8	-25.7	17.4	0.00e+00	0	43	0	649068544	10	3998
2026-01-26 13:42:05.91	213.72	16.14	-24.7	-25.6	17.4	0.00e+00	0	43	0	654311424	10	3995
2026-01-26 13:42:06.91	213.86	16.23	-24.8	-25.8	17.3	0.00e+00	0	43	0	659554304	10	4023
2026-01-26 13:42:07.91	214.00	16.31	-24.7	-25.6	17.4	0.00e+00	0	43	0	665845760	10	3977
2026-01-26 13:42:08.91	214.14	16.40	-24.8	-25.7	17.3	0.00e+00	0	43	0	671088640	10	4020
2026-01-26 13:42:09.91	214.28	16.49	-24.7	-25.6	17.4	0.00e+00	0	43	0	676331520	10	3981
2026-01-26 13:42:10.91	214.43	16.57	-24.8	-25.8	17.3	0.00e+00	0	43	0	682622976	10	4021
2026-01-26 13:42:11.91	214.57	16.66	-25.0	-26.2	17.1	0.00e+00	0	43	0	687865856	10	4131
2026-01-26 13:42:12.92	214.72	16.75	-24.8	-25.7	17.4	0.00e+00	0	44	0	693108736	10	4013
2026-01-26 13:42:13.92	214.87	16.84	-24.8	-25.7	17.4	0.00e+00	0	43	0	699400192	10	4015
2026-01-26 13:42:14.92	215.01	16.93	-24.9	-26.0	17.2	0.00e+00	0	44	0	704643072	10	4091
2026-01-26 13:42:15.92	215.16	17.02	-24.9	-25.9	17.3	0.00e+00	0	43	0	710934528	10	4057
2026-01-26 13:42:16.93	215.31	17.11	-25.1	-26.3	17.1	0.00e+00	0	43	0	716177408	10	4164
2026-01-26 13:42:17.93	215.46	17.19	-24.9	-26.1	17.2	0.00e+00	0	43	0	721420288	10	4106
2026-01-26 13:42:18.93	215.61	17.28	-24.7	-25.5	17.5	0.00e+00	0	43	0	727711744	10	3963
2026-01-26 13:42:19.93	215.77	17.37	-24.5	-25.2	17.7	0.00e+00	0	43	0	732954624	10	3893
2026-01-26 13:42:20.94	215.92	17.46	-24.6	-25.3	17.6	0.00e+00	0	43	0	738197504	10	3915
2026-01-26 13:42:21.94	216.07	17.55	-24.7	-25.6	17.4	0.00e+00	0	43	0	744488960	10	3985
2026-01-26 13:42:22.95	216.23	17.64	-24.6	-25.3	17.6	0.00e+00	0	43	0	749731840	10	3902
2026-01-26 13:42:23.95	216.38	17.73	-24.5	-25.2	17.7	0.00e+00	0	43	0	754974720	10	3874
2026-01-26 13:42:24.96	216.54	17.82	-24.5	-25.1	17.8	0.00e+00	0	44	0	761266176	10	3853
2026-01-26 13:42:25.96	216.70	17.91	-24.6	-25.3	17.6	0.00e+00	0	44	0	766509056	10	3906
2026-01-26 13:42:26.97	216.86	18.00	-24.5	-25.0	17.8	0.00e+00	0	44	0	772800512	10	3843
2026-01-26 13:42:27.98	217.02	18.09	-24.5	-25.1	17.8	0.00e+00	0	44	0	778043392	10	3848
2026-01-26 13:42:28.99	217.18	18.18	-24.5	-25.2	17.7	0.00e+00	0	44	0	784334848	10	3878
2026-01-26 13:42:29.99	217.34	18.27	-24.8	-25.8	17.4	0.00e+00	0	44	0	789577728	10	4042
2026-01-26 13:42:30.99	217.50	18.36	-24.5	-25.2	17.7	0.00e+00	0	43	0	794820608	10	3874
2026-01-26 13:42:32.00	217.67	18.46	-24.2	-25.0	18.1	0.00e+00	0	43	0	801112064	9	3947
2026-01-26 13:42:33.00	217.83	18.55	-24.0	-24.6	18.3	0.00e+00	0	44	0	806354944	9	3848
2026-01-26 13:42:34.00	217.99	18.64	-24.1	-24.8	18.2	0.00e+00	0	44	0	811597824	9	3906
2026-01-26 13:42:35.00	218.16	18.73	-24.1	-24.8	18.2	0.00e+00	0	44	0	817889280	9	3890
2026-01-26 13:42:36.01	218.33	18.82	-24.3	-25.2	18.0	0.00e+00	0	44	0	823132160	9	3994
2026-01-26 13:42:37.00	218.49	18.91	-24.3	-25.1	18.0	0.00e+00	0	44	0	829423616	9	3964
2026-01-26 13:42:38.00	218.66	19.00	-24.4	-25.4	17.9	0.00e+00	0	44	0	834666496	9	4029
2026-01-26 13:42:39.00	218.83	19.09	-24.3	-25.2	18.0	0.00e+00	0	44	0	839909376	9	3986
2026-01-26 13:42:40.01	219.00	19.18	-24.3	-25.1	18.0	0.00e+00	0	44	0	846200832	9	3976
2026-01-26 13:42:41.01	219.17	19.28	-24.2	-25.1	18.0	3.40e-06	0	44	0	851443712	9	3959
2026-01-26 13:42:42.02	219.35	19.37	-24.3	-25.3	18.0	0.00e+00	0	43	0	857735168	9	4008
2026-01-26 13:42:43.02	219.52	19.46	-24.3	-25.1	18.0	0.00e+00	0	44	0	862978048	9	3966
2026-01-26 13:42:44.02	219.70	19.55	-24.2	-25.1	18.1	4.50e-06	0	44	0	868220928	9	3963
2026-01-26 13:42:45.02	219.87	19.64	-24.3	-25.2	18.0	0.00e+00	0	44	0	874512384	9	3985
2026-01-26 13:42:46.02	220.05	19.73	-24.1	-24.7	18.3	0.00e+00	0	44	0	879755264	9	3880
2026-01-26 13:42:47.02	220.22	19.83	-24.0	-24.6	18.3	0.00e+00	0	44	0	884998144	9	3848
2026-01-26 13:42:48.03	220.40	19.92	-24.1	-24.7	18.2	0.00e+00	0	44	0	891289600	9	3878
2026-01-26 13:42:49.03	220.58	20.01	-24.0	-24.6	18.3	0.00e+00	0	44	0	896532480	9	3848
2026-01-26 13:42:50.03	220.76	20.10	-24.1	-24.8	18.2	0.00e+00	0	44	0	902823936	9	3898
2026-01-26 13:42:51.03	220.95	20.20	-24.1	-24.7	18.3	0.00e+00	0	44	0	908066816	9	3873
2026-01-26 13:42:52.03	221.13	20.29	-24.2	-24.9	18.2	0.00e+00	0	44	0	913309696	9	3927
2026-01-26 13:42:53.03	221.31	20.38	-24.4	-25.3	18.0	4.50e-06	0	44	0	919601152	9	4018
2026-01-26 13:42:54.03	221.50	20.47	-24.1	-24.8	18.2	0.00e+00	0	44	0	924844032	9	3897
2026-01-26 13:42:55.04	221.69	20.56	-24.0	-24.6	18.4	0.00e+00	0	44	0	930086912	9	3842
2026-01-26 13:42:56.04	221.87	20.66	-23.9	-24.4	18.5	4.50e-06	0	44	0	936378368	9	3809
2026-01-26 13:42:57.04	222.06	20.75	-24.1	-24.7	18.3	0.00e+00	0	44	0	941621248	9	3864
2026-01-26 13:42:58.04	222.25	20.84	-23.9	-24.2	18.6	0.00e+00	0	44	0	946864128	9	3765
2026-01-26 13:42:59.05	222.44	20.94	-23.9	-24.2	18.6	6.80e-06	0	44	0	953155584	9	3765
2026-01-26 13:43:00.05	222.63	21.03	-23.9	-24.4	18.5	0.00e+00	0	44	0	958398464	9	3804
2026-01-26 13:43:01.06	222.83	21.12	-23.7	-24.5	18.7	0.00e+00	0	44	0	964689920	8	3927
2026-01-26 13:43:02.06	223.02	21.21	-23.9	-24.8	18.5	3.40e-06	0	44	0	969932800	8	3995
2026-01-26 13:43:03.05	223.21	21.30	-23.7	-24.4	18.7	0.00e+00	0	44	0	976224256	8	3906
2026-01-26 13:43:04.05	223.41	21.40	-23.6	-24.2	18.8	0.00e+00	0	44	0	981467136	8	3868
2026-01-26 13:43:05.06	223.61	21.49	-23.7	-24.4	18.8	4.50e-06	0	44	0	986710016	8	3896
2026-01-26 13:43:06.06	223.81	21.58	-23.9	-24.8	18.5	0.00e+00	0	44	0	993001472	8	4014
2026-01-26 13:43:07.07	224.01	21.68	-23.9	-24.9	18.5	0.00e+00	0	44	0	998244352	8	4024
2026-01-26 13:43:08.07	224.21	21.77	-23.8	-24.7	18.6	5.70e-06	0	43	0	1003487232	8	3978
2026-01-26 13:43:09.07	224.41	21.86	-23.9	-24.7	18.6	0.00e+00	0	44	0	1009778688	8	3979
2026-01-26 13:43:10.08	224.62	21.96	-24.1	-25.2	18.3	0.00e+00	0	44	0	1015021568	8	4110
2026-01-26 13:43:11.08	224.82	22.05	-23.9	-24.8	18.6	0.00e+00	0	44	0	1020264448	8	3992
2026-01-26 13:43:12.09	225.03	22.14	-23.9	-24.8	18.6	0.00e+00	0	44	0	1026555904	8	3999
2026-01-26 13:43:13.09	225.23	22.23	-23.9	-24.8	18.6	0.00e+00	0	44	0	1031798784	8	3995
2026-01-26 13:43:14.09	225.44	22.33	-24.1	-25.3	18.3	0.00e+00	0	44	0	1038090240	8	4133
2026-01-26 13:43:15.09	225.65	22.42	-23.9	-24.8	18.6	0.00e+00	0	43	0	1043333120	8	3997
2026-01-26 13:43:16.09	225.86	22.51	-23.8	-24.6	18.7	0.00e+00	0	44	0	1048576000	8	3948
2026-01-26 13:43:17.09	226.07	22.60	-23.7	-24.4	18.8	4.50e-06	0	44	0	1054867456	8	3912
2026-01-26 13:43:18.09	226.28	22.69	-23.6	-24.3	18.8	0.00e+00	0	44	0	1060110336	8	3879
2026-01-26 13:43:19.09	226.50	22.79	-23.6	-24.2	18.9	0.00e+00	0	44	0	1065353216	8	3849
2026-01-26 13:43:20.10	226.72	22.88	-23.7	-24.4	18.8	0.00e+00	0	43	0	1071644672	8	3918
2026-01-26 13:43:21.10	226.93	22.97	-23.6	-24.3	18.8	0.00e+00	0	44	0	1076887552	8	3888
2026-01-26 13:43:22.11	227.15	23.06	-23.7	-24.3	18.8	0.00e+00	0	44	0	1083179008	8	3890
2026-01-26 13:43:23.11	227.37	23.16	-23.4	-23.8	19.1	0.00e+00	0	44	0	1088421888	8	3772
2026-01-26 13:43:24.11	227.59	23.25	-23.4	-23.7	19.2	0.00e+00	0	44	0	1093664768	8	3740
2026-01-26 13:43:25.11	227.81	23.34	-23.4	-23.8	19.1	0.00e+00	0	44	0	1099956224	8	3757
2026-01-26 13:43:26.12	228.04	23.43	-23.3	-24.0	19.2	0.00e+00	0	44	0	1105199104	7	3916
2026-01-26 13:43:27.12	228.26	23.52	-23.3	-24.1	19.2	0.00e+00	0	43	0	1111490560	7	3940
2026-01-26 13:43:28.12	228.49	23.61	-23.1	-23.7	19.4	0.00e+00	0	44	0	1116733440	7	3852
2026-01-26 13:43:29.12	228.71	23.70	-23.2	-24.0	19.3	0.00e+00	0	44	0	1121976320	7	3909
2026-01-26 13:43:30.13	228.94	23.80	-23.3	-24.1	19.2	0.00e+00	0	44	0	1128267776	7	3949
2026-01-26 13:43:31.13	229.17	23.89	-23.2	-23.9	19.3	0.00e+00	0	44	0	1133510656	7	3899
2026-01-26 13:43:32.13	229.40	23.98	-23.2	-23.8	19.4	0.00e+00	0	44	0	1138753536	7	3873
2026-01-26 13:43:33.14	229.63	24.07	-23.4	-24.3	19.1	0.00e+00	0	44	0	1145044992	7	3990
2026-01-26 13:43:34.14	229.87	24.16	-23.4	-24.3	19.1	0.00e+00	0	44	0	1150287872	7	3984
2026-01-26 13:43:35.15	230.10	24.25	-23.5	-24.5	19.0	0.00e+00	0	44	0	1155530752	7	4027
2026-01-26 13:43:36.16	230.34	24.34	-23.4	-24.3	19.1	0.00e+00	0	44	0	1161822208	7	3988
2026-01-26 13:43:37.16	230.58	24.43	-23.3	-24.0	19.2	0.00e+00	0	44	0	1167065088	7	3919
2026-01-26 13:43:38.16	230.82	24.52	-23.1	-23.7	19.4	0.00e+00	0	44	0	1173356544	7	3840
2026-01-26 13:43:39.16	231.06	24.61	-23.0	-23.4	19.5	0.00e+00	0	44	0	1178599424	7	3782
2026-01-26 13:43:40.16	231.30	24.70	-23.1	-23.7	19.4	0.00e+00	0	44	0	1184890880	7	3841
2026-01-26 13:43:41.16	231.54	24.79	-23.0	-23.4	19.6	0.00e+00	0	44	0	1190133760	7	3780
2026-01-26 13:43:42.17	231.79	24.88	-23.1	-23.7	19.5	0.00e+00	0	44	0	1195376640	7	3837
2026-01-26 13:43:43.17	232.03	24.96	-23.3	-24.0	19.3	0.00e+00	0	44	0	1201668096	7	3904
2026-01-26 13:43:44.17	232.28	25.05	-23.3	-24.0	19.3	0.00e+00	0	44	0	1206910976	7	3918
2026-01-26 13:43:45.17	232.52	25.14	-23.4	-24.3	19.1	0.00e+00	0	44	0	1212153856	7	3985
2026-01-26 13:43:46.17	232.77	25.23	-23.5	-24.5	19.0	0.00e+00	0	44	0	1218445312	7	4033
2026-01-26 13:43:47.17	233.02	25.31	-23.2	-24.0	19.3	0.00e+00	0	44	0	1223688192	7	3909
2026-01-26 13:43:48.17	233.27	25.40	-23.0	-23.5	19.6	0.00e+00	0	44	0	1228931072	7	3791
2026-01-26 13:43:49.18	233.53	25.49	-22.9	-23.1	19.7	0.00e+00	0	44	0	1235222528	7	3716
2026-01-26 13:43:50.18	233.78	25.58	-22.9	-23.2	19.7	0.00e+00	0	44	0	1240465408	7	3723
2026-01-26 13:43:51.19	234.04	25.66	-22.6	-23.1	20.0	0.00e+00	0	44	0	1246756864	6	3816
2026-01-26 13:43:52.19	234.30	25.75	-22.7	-23.3	19.9	0.00e+00	0	44	0	1251999744	6	3848
2026-01-26 13:43:53.19	234.56	25.83	-22.8	-23.6	19.7	0.00e+00	0	44	0	1257242624	6	3929
2026-01-26 13:43:54.19	234.82	25.92	-22.9	-23.7	19.7	0.00e+00	0	44	0	1263534080	6	3942
2026-01-26 13:43:55.20	235.08	26.00	-23.0	-24.0	19.6	0.00e+00	0	44	0	1268776960	6	4018
2026-01-26 13:43:56.20	235.34	26.09	-22.8	-23.5	19.8	0.00e+00	0	44	0	1274019840	6	3903
2026-01-26 13:43:57.21	235.61	26.17	-22.7	-23.3	19.9	0.00e+00	0	44	0	1280311296	6	3847
2026-01-26 13:43:58.21	235.88	26.26	-22.7	-23.2	20.0	2.20e-06	0	44	0	1285554176	6	3836
2026-01-26 13:43:59.22	236.15	26.34	-22.8	-23.4	19.8	0.00e+00	0	44	0	1291845632	6	3890
2026-01-26 13:44:00.22	236.41	26.42	-22.7	-23.4	19.9	0.00e+00	0	44	0	1297088512	6	3874
2026-01-26 13:44:01.22	236.68	26.51	-22.9	-23.7	19.7	1.10e-06	0	44	0	1302331392	6	3953
2026-01-26 13:44:02.23	236.96	26.59	-22.9	-23.8	19.7	0.00e+00	0	44	0	1308622848	6	3970
2026-01-26 13:44:03.24	237.23	26.67	-22.9	-23.7	19.7	0.00e+00	0	44	0	1313865728	6	3945
2026-01-26 13:44:04.24	237.50	26.75	-22.7	-23.4	19.9	0.00e+00	0	44	0	1320157184	6	3875
2026-01-26 13:44:05.25	237.78	26.83	-22.7	-23.3	19.9	0.00e+00	0	44	0	1325400064	6	3847
2026-01-26 13:44:06.25	238.06	26.91	-22.7	-23.3	19.9	0.00e+00	0	44	0	1331691520	6	3858
2026-01-26 13:44:07.26	238.34	26.99	-22.6	-23.0	20.1	0.00e+00	0	44	0	1336934400	6	3785
2026-01-26 13:44:08.25	238.61	27.07	-22.5	-22.9	20.2	0.00e+00	0	44	0	1342177280	6	3762
2026-01-26 13:44:09.26	238.90	27.15	-22.6	-23.0	20.1	0.00e+00	0	44	0	1348468736	6	3789
2026-01-26 13:44:10.26	239.18	27.23	-22.5	-23.0	20.1	0.00e+00	0	44	0	1353711616	6	3777
2026-01-26 13:44:11.27	239.47	27.31	-22.6	-23.1	20.0	0.00e+00	0	44	0	1358954496	6	3803
2026-01-26 13:44:12.27	239.75	27.39	-22.6	-23.1	20.0	0.00e+00	0	44	0	1365245952	6	3819
2026-01-26 13:44:13.28	240.04	27.46	-22.7	-23.3	19.9	0.00e+00	0	44	0	1370488832	6	3868
2026-01-26 13:44:14.28	240.33	27.54	-22.8	-23.5	19.9	0.00e+00	0	44	0	1375731712	6	3907
2026-01-26 13:44:15.28	240.61	27.62	-22.5	-22.8	20.2	0.00e+00	0	44	0	1382023168	6	3744
2026-01-26 13:44:16.28	240.90	27.69	-22.4	-22.7	20.3	0.00e+00	0	44	0	1387266048	6	3717
2026-01-26 13:44:17.28	241.19	27.77	-22.4	-22.6	20.3	0.00e+00	0	44	0	1393557504	6	3702
2026-01-26 13:44:18.29	241.49	27.84	-22.4	-22.6	20.3	0.00e+00	0	44	0	1398800384	6	3699
2026-01-26 13:44:19.29	241.78	27.91	-22.5	-22.9	20.2	0.00e+00	0	44	0	1404043264	6	3755
2026-01-26 13:44:20.28	242.08	27.99	-22.5	-23.0	20.1	0.00e+00	0	44	0	1410334720	6	3777
2026-01-26 13:44:21.29	242.38	28.06	-22.7	-23.3	20.0	0.00e+00	0	44	0	1415577600	6	3854
2026-01-26 13:44:22.29	242.67	28.13	-22.7	-23.3	20.0	3.40e-06	0	44	0	1420820480	6	3852
2026-01-26 13:44:23.30	242.97	28.20	-22.9	-23.6	19.8	0.00e+00	0	44	0	1427111936	6	3936
2026-01-26 13:44:24.31	243.28	28.27	-22.7	-23.3	20.0	0.00e+00	0	44	0	1432354816	6	3857
2026-01-26 13:44:25.31	243.58	28.34	-22.6	-23.1	20.1	0.00e+00	0	44	0	1438646272	6	3820
2026-01-26 13:44:26.32	243.89	28.41	-22.6	-23.1	20.1	0.00e+00	0	44	0	1443889152	6	3808
2026-01-26 13:44:27.32	244.19	28.48	-22.6	-23.0	20.1	0.00e+00	0	44	0	1449132032	6	3797
2026-01-26 13:44:28.32	244.50	28.55	-22.6	-23.1	20.1	0.00e+00	0	43	0	1455423488	6	3812
2026-01-26 13:44:29.33	244.80	28.61	-22.6	-23.0	20.1	0.00e+00	0	44	0	1460666368	6	3799
2026-01-26 13:44:30.33	245.11	28.68	-22.5	-22.8	20.2	0.00e+00	0	44	0	1466957824	6	3745
2026-01-26 13:44:31.33	245.42	28.75	-22.5	-22.9	20.2	0.00e+00	0	44	0	1472200704	6	3767
2026-01-26 13:44:32.34	245.74	28.81	-22.7	-23.3	20.0	0.00e+00	0	44	0	1477443584	6	3845
2026-01-26 13:44:33.34	246.05	28.87	-22.7	-23.2	20.0	0.00e+00	0	44	0	1483735040	6	3840
2026-01-26 13:44:34.34	246.36	28.94	-22.8	-23.4	19.9	0.00e+00	0	44	0	1488977920	6	3890
2026-01-26 13:44:35.34	246.67	29.00	-22.7	-23.3	20.0	0.00e+00	0	44	0	1494220800	6	3867
2026-01-26 13:44:36.35	246.99	29.06	-22.7	-23.3	20.0	0.00e+00	0	44	0	1500512256	6	3853
2026-01-26 13:44:37.35	247.31	29.12	-22.7	-23.2	20.0	0.00e+00	0	44	0	1505755136	6	3839
2026-01-26 13:44:38.36	247.63	29.18	-22.8	-23.4	20.0	0.00e+00	0	44	0	1512046592	6	3877
2026-01-26 13:44:39.36	247.95	29.24	-22.8	-23.6	19.9	0.00e+00	0	44	0	1517289472	6	3913
2026-01-26 13:44:40.36	248.27	29.30	-22.7	-23.3	20.0	0.00e+00	0	44	0	1522532352	6	3864
2026-01-26 13:44:41.37	248.59	29.36	-22.6	-23.1	20.1	0.00e+00	0	44	0	1528823808	6	3818
2026-01-26 13:44:42.37	248.91	29.41	-22.6	-23.0	20.1	0.00e+00	0	44	0	1534066688	6	3794
2026-01-26 13:44:43.38	249.24	29.47	-22.5	-22.9	20.2	0.00e+00	0	44	0	1540358144	6	3775
2026-01-26 13:44:44.38	249.56	29.52	-22.3	-22.5	20.4	0.00e+00	0	44	0	1545601024	6	3669
2026-01-26 13:44:45.38	249.89	29.58	-22.2	-22.9	20.4	0.00e+00	0	44	0	1550843904	5	3861
2026-01-26 13:44:46.39	250.22	29.63	-22.2	-22.8	20.5	0.00e+00	0	44	0	1557135360	5	3844
2026-01-26 13:44:47.38	250.54	29.68	-22.4	-23.2	20.3	0.00e+00	0	44	0	1562378240	5	3944
2026-01-26 13:44:48.39	250.87	29.73	-22.6	-23.5	20.1	0.00e+00	0	44	0	1567621120	5	4019
2026-01-26 13:44:49.39	251.20	29.78	-22.7	-23.8	20.0	0.00e+00	0	44	0	1573912576	5	4091
2026-01-26 13:44:50.39	251.53	29.83	-22.6	-23.7	20.0	0.00e+00	0	44	0	1579155456	5	4055
2026-01-26 13:44:51.39	251.87	29.88	-22.6	-23.6	20.1	0.00e+00	0	44	0	1584398336	5	4032
2026-01-26 13:44:52.39	252.20	29.93	-22.7	-23.7	20.0	0.00e+00	0	44	0	1590689792	5	4058
2026-01-26 13:44:53.39	252.53	29.98	-22.6	-23.5	20.1	0.00e+00	0	44	0	1595932672	5	4017
2026-01-26 13:44:54.39	252.87	30.02	-22.7	-23.8	20.0	0.00e+00	0	44	0	1602224128	5	4082
2026-01-26 13:44:55.39	253.20	30.07	-22.6	-23.5	20.1	0.00e+00	0	44	0	1607467008	5	4017
2026-01-26 13:44:56.40	253.54	30.11	-22.5	-23.3	20.2	0.00e+00	0	44	0	1612709888	5	3970
2026-01-26 13:44:57.40	253.88	30.15	-22.6	-23.6	20.1	0.00e+00	0	44	0	1619001344	5	4050
2026-01-26 13:44:58.40	254.21	30.19	-22.7	-23.8	20.0	0.00e+00	0	44	0	1624244224	5	4090
2026-01-26 13:44:59.41	254.56	30.23	-22.5	-23.3	20.2	0.00e+00	0	44	0	1630535680	5	3966
2026-01-26 13:45:00.42	254.90	30.27	-22.2	-22.8	20.4	0.00e+00	0	44	0	1635778560	5	3855
2026-01-26 13:45:01.41	255.24	30.31	-22.3	-22.9	20.5	0.00e+00	0	44	0	1641021440	5	3857
2026-01-26 13:45:02.42	255.58	30.35	-22.4	-23.1	20.3	0.00e+00	0	44	0	1647312896	5	3922
2026-01-26 13:45:03.42	255.92	30.39	-22.4	-23.2	20.3	0.00e+00	0	44	0	1652555776	5	3952
2026-01-26 13:45:04.42	256.26	30.42	-22.5	-23.4	20.2	0.00e+00	0	44	0	1657798656	5	3989
2026-01-26 13:45:05.43	256.61	30.46	-22.6	-23.7	20.1	1.10e-06	0	44	0	1664090112	5	4052
2026-01-26 13:45:06.42	256.95	30.49	-22.7	-23.8	20.0	0.00e+00	0	44	0	1669332992	5	4095
2026-01-26 13:45:07.42	257.30	30.52	-22.7	-23.9	19.9	0.00e+00	0	44	0	1675624448	5	4113
2026-01-26 13:45:08.42	257.64	30.55	-22.7	-23.9	19.9	0.00e+00	0	44	0	1680867328	5	4109
2026-01-26 13:45:09.42	257.99	30.58	-22.6	-23.5	20.1	0.00e+00	0	44	0	1686110208	5	4024
2026-01-26 13:45:10.42	258.33	30.61	-22.5	-23.4	20.2	0.00e+00	0	44	0	1692401664	5	3988
2026-01-26 13:45:11.43	258.68	30.64	-22.6	-23.6	20.1	0.00e+00	0	44	0	1697644544	5	4045
2026-01-26 13:45:12.44	259.04	30.66	-22.8	-24.1	19.9	0.00e+00	0	44	0	1702887424	5	4147
2026-01-26 13:45:13.44	259.38	30.69	-22.9	-24.2	19.8	0.00e+00	0	44	0	1709178880	5	4179
2026-01-26 13:45:14.45	259.74	30.71	-23.0	-24.0	19.7	0.00e+00	0	44	0	1714421760	6	4017
2026-01-26 13:45:15.46	260.09	30.74	-22.7	-23.3	20.0	5.70e-06	0	44	0	1720713216	6	3852
2026-01-26 13:45:16.46	260.44	30.76	-22.6	-23.1	20.1	0.00e+00	0	44	0	1725956096	6	3804
2026-01-26 13:45:17.46	260.79	30.78	-22.7	-23.3	20.0	0.00e+00	0	44	0	1731198976	6	3854
2026-01-26 13:45:18.47	261.14	30.80	-22.7	-23.3	20.0	1.10e-06	0	44	0	1737490432	6	3862
2026-01-26 13:45:19.47	261.49	30.82	-22.7	-23.4	20.0	0.00e+00	0	44	0	1742733312	6	3869
2026-01-26 13:45:20.47	261.84	30.84	-22.7	-23.2	20.0	0.00e+00	0	44	0	1749024768	6	3843
2026-01-26 13:45:21.48	262.20	30.85	-22.6	-23.0	20.2	1.10e-06	0	44	0	1754267648	6	3787
2026-01-26 13:45:22.47	262.55	30.87	-22.6	-23.1	20.1	0.00e+00	0	44	0	1759510528	6	3816
2026-01-26 13:45:23.48	262.90	30.88	-22.6	-23.0	20.1	0.00e+00	0	44	0	1765801984	6	3797
2026-01-26 13:45:24.48	263.26	30.89	-22.6	-23.0	20.2	1.10e-06	0	44	0	1771044864	6	3793
2026-01-26 13:45:25.48	263.61	30.91	-22.5	-22.8	20.3	0.00e+00	0	44	0	1776287744	6	3748
2026-01-26 13:45:26.48	263.96	30.92	-22.4	-22.8	20.3	0.00e+00	0	44	0	1782579200	6	3735
2026-01-26 13:45:27.49	264.32	30.93	-22.4	-22.7	20.3	2.20e-06	0	44	0	1787822080	6	3727
2026-01-26 13:45:28.50	264.68	30.93	-22.5	-22.9	20.2	0.00e+00	0	44	0	1794113536	6	3758
2026-01-26 13:45:29.49	265.03	30.94	-22.6	-23.1	20.1	0.00e+00	0	44	0	1799356416	6	3814
2026-01-26 13:45:30.50	265.38	30.95	-22.6	-23.1	20.1	2.20e-06	0	44	0	1804599296	6	3810
2026-01-26 13:45:31.50	265.74	30.95	-22.6	-23.1	20.1	0.00e+00	0	44	0	1810890752	6	3804
2026-01-26 13:45:32.51	266.09	30.95	-22.6	-23.0	20.1	0.00e+00	0	44	0	1816133632	6	3800
2026-01-26 13:45:33.51	266.45	30.96	-22.6	-23.1	20.1	0.00e+00	0	44	0	1822425088	6	3813
2026-01-26 13:45:34.51	266.80	30.96	-22.6	-23.1	20.1	0.00e+00	0	44	0	1827667968	6	3799
2026-01-26 13:45:35.51	267.16	30.96	-22.5	-22.9	20.2	0.00e+00	0	44	0	1832910848	6	3763
2026-01-26 13:45:36.51	267.51	30.95	-22.5	-22.9	20.2	0.00e+00	0	44	0	1839202304	6	3772
2026-01-26 13:45:37.51	267.86	30.95	-22.5	-23.0	20.2	0.00e+00	0	44	0	1844445184	6	3783
2026-01-26 13:45:38.51	268.22	30.95	-22.5	-22.9	20.2	0.00e+00	0	44	0	1849688064	6	3777
2026-01-26 13:45:39.51	268.57	30.94	-22.7	-23.3	20.0	1.10e-06	0	44	0	1855979520	6	3865
2026-01-26 13:45:40.51	268.93	30.94	-22.8	-23.4	19.9	0.00e+00	0	44	0	1861222400	6	3891
2026-01-26 13:45:41.52	269.28	30.93	-22.6	-23.1	20.1	0.00e+00	0	44	0	1867513856	6	3812
2026-01-26 13:45:42.52	269.64	30.92	-22.5	-22.9	20.2	0.00e+00	0	44	0	1872756736	6	3765
2026-01-26 13:45:43.52	269.99	30.91	-22.6	-23.1	20.1	0.00e+00	0	44	0	1877999616	6	3805
2026-01-26 13:45:44.52	270.34	30.90	-22.6	-23.2	20.1	0.00e+00	0	44	0	1884291072	6	3821
2026-01-26 13:45:45.52	270.69	30.89	-22.6	-23.1	20.1	0.00e+00	0	44	0	1889533952	6	3807
2026-01-26 13:45:46.52	271.05	30.88	-22.7	-23.2	20.1	0.00e+00	0	44	0	1894776832	6	3827
2026-01-26 13:45:47.53	271.40	30.86	-22.7	-23.2	20.0	0.00e+00	0	44	0	1901068288	6	3841
2026-01-26 13:45:48.53	271.75	30.85	-22.7	-23.2	20.0	0.00e+00	0	44	0	1906311168	6	3848
2026-01-26 13:45:49.54	272.11	30.83	-22.6	-23.1	20.1	0.00e+00	0	44	0	1911554048	6	3824
2026-01-26 13:45:50.54	272.46	30.81	-22.7	-23.3	20.0	0.00e+00	0	44	0	1917845504	6	3860
2026-01-26 13:45:51.54	272.81	30.79	-22.9	-23.7	19.8	0.00e+00	0	44	0	1923088384	6	3953
2026-01-26 13:45:52.55	273.16	30.77	-23.0	-23.8	19.7	0.00e+00	0	44	0	1929379840	6	3982
2026-01-26 13:45:53.55	273.51	30.75	-23.1	-24.1	19.6	0.00e+00	0	44	0	1934622720	6	4061
2026-01-26 13:45:54.56	273.86	30.73	-23.1	-24.1	19.6	0.00e+00	0	44	0	1940914176	6	4049
2026-01-26 13:45:55.55	274.21	30.70	-22.9	-23.7	19.8	0.00e+00	0	44	0	1946157056	6	3957
2026-01-26 13:45:56.56	274.56	30.68	-22.8	-23.5	19.9	0.00e+00	0	44	0	1951399936	6	3909
2026-01-26 13:45:57.56	274.91	30.65	-23.0	-23.8	19.7	0.00e+00	0	44	0	1957691392	6	3984
2026-01-26 13:45:58.55	275.25	30.63	-22.9	-23.8	19.8	0.00e+00	0	44	0	1962934272	6	3967
2026-01-26 13:45:59.55	275.60	30.60	-22.9	-23.8	19.8	0.00e+00	0	44	0	1968177152	6	3967
2026-01-26 13:46:00.55	275.94	30.57	-23.0	-23.8	19.7	0.00e+00	0	44	0	1973420032	6	3977
2026-01-26 13:46:01.55	276.29	30.54	-22.8	-23.4	19.9	0.00e+00	0	44	0	1979711488	6	3892
2026-01-26 13:46:02.55	276.63	30.51	-22.7	-23.4	20.0	0.00e+00	0	44	0	1984954368	6	3869
2026-01-26 13:46:03.56	276.98	30.48	-22.8	-23.4	19.9	0.00e+00	0	44	0	1991245824	6	3880
2026-01-26 13:46:04.56	277.32	30.44	-22.8	-23.4	19.9	0.00e+00	0	44	0	1996488704	6	3885
2026-01-26 13:46:05.57	277.67	30.41	-23.0	-23.9	19.7	0.00e+00	0	44	0	2002780160	6	3996
2026-01-26 13:46:06.57	278.01	30.37	-23.0	-24.0	19.6	0.00e+00	0	44	0	2008023040	6	4015
2026-01-26 13:46:07.58	278.36	30.34	-22.8	-23.6	19.9	0.00e+00	0	44	0	2013265920	6	3918
2026-01-26 13:46:08.58	278.70	30.30	-22.8	-23.5	19.9	0.00e+00	0	44	0	2019557376	6	3911
2026-01-26 13:46:09.58	279.04	30.26	-22.7	-23.3	20.0	0.00e+00	0	44	0	2024800256	6	3850
2026-01-26 13:46:10.58	279.37	30.22	-22.8	-23.4	19.9	0.00e+00	0	44	0	2030043136	6	3891
2026-01-26 13:46:11.57	279.71	30.18	-22.9	-23.6	19.8	0.00e+00	0	44	0	2036334592	6	3934
2026-01-26 13:46:12.57	280.05	30.14	-22.8	-23.4	19.9	0.00e+00	0	44	0	2041577472	6	3886
2026-01-26 13:46:13.57	280.38	30.09	-22.8	-23.4	19.9	0.00e+00	0	44	0	2046820352	6	3884
2026-01-26 13:46:14.57	280.72	30.05	-22.8	-23.4	19.9	0.00e+00	0	44	0	2053111808	6	3889
2026-01-26 13:46:15.57	281.05	30.01	-22.7	-23.3	20.0	0.00e+00	0	44	0	2058354688	6	3858
2026-01-26 13:46:16.57	281.38	29.96	-22.7	-23.3	20.0	0.00e+00	0	44	0	2064646144	6	3857
2026-01-26 13:46:17.57	281.72	29.91	-22.6	-23.0	20.1	0.00e+00	0	44	0	2069889024	6	3786
2026-01-26 13:46:18.57	282.05	29.87	-22.3	-22.5	20.4	0.00e+00	0	44	0	2075131904	6	3663
2026-01-26 13:46:19.58	282.38	29.82	-22.4	-22.6	20.3	0.00e+00	0	44	0	2081423360	6	3691
2026-01-26 13:46:20.58	282.71	29.77	-22.4	-22.8	20.2	0.00e+00	0	44	0	2086666240	6	3737
2026-01-26 13:46:21.59	283.04	29.72	-22.7	-23.2	20.0	0.00e+00	0	44	0	2091909120	6	3842
2026-01-26 13:46:22.59	283.37	29.67	-22.7	-23.4	19.9	0.00e+00	0	44	0	2098200576	6	3876
2026-01-26 13:46:23.59	283.70	29.61	-22.7	-23.3	19.9	0.00e+00	0	44	0	2103443456	6	3866
2026-01-26 13:46:24.59	284.02	29.56	-22.7	-23.3	19.9	0.00e+00	0	44	0	2108686336	6	3861
2026-01-26 13:46:25.59	284.34	29.51	-22.7	-23.4	19.9	0.00e+00	0	44	0	2114977792	6	3871
2026-01-26 13:46:26.58	284.66	29.45	-22.8	-23.5	19.9	0.00e+00	0	44	0	2120220672	6	3901
2026-01-26 13:46:27.59	284.99	29.40	-22.9	-23.7	19.8	0.00e+00	0	44	0	2126512128	6	3950
2026-01-26 13:46:28.59	285.31	29.34	-22.9	-23.8	19.7	0.00e+00	0	44	0	2131755008	6	3987
2026-01-26 13:46:29.59	285.63	29.28	-22.9	-23.7	19.7	0.00e+00	0	44	0	2136997888	6	3962
2026-01-26 13:46:30.59	285.95	29.22	-22.8	-23.6	19.8	0.00e+00	0	44	0	2143289344	6	3926
2026-01-26 13:46:31.60	286.27	29.16	-22.8	-23.6	19.8	0.00e+00	0	44	0	2148532224	6	3921
2026-01-26 13:46:32.60	286.59	29.10	-22.9	-23.7	19.8	0.00e+00	0	44	0	2153775104	6	3958
2026-01-26 13:46:33.60	286.90	29.04	-23.0	-24.0	19.6	0.00e+00	0	44	0	2160066560	6	4026
2026-01-26 13:46:34.61	287.22	28.98	-23.0	-24.0	19.6	0.00e+00	0	44	0	2165309440	6	4017
2026-01-26 13:46:35.61	287.53	28.92	-22.8	-23.5	19.9	0.00e+00	0	44	0	2171600896	6	3894
2026-01-26 13:46:36.61	287.84	28.86	-22.6	-23.2	20.0	0.00e+00	0	44	0	2176843776	6	3827
2026-01-26 13:46:37.62	288.16	28.79	-22.7	-23.3	20.0	0.00e+00	0	44	0	2182086656	6	3857
2026-01-26 13:46:38.63	288.47	28.73	-22.7	-23.3	19.9	0.00e+00	0	44	0	2188378112	6	3865
2026-01-26 13:46:39.63	288.78	28.66	-22.8	-23.5	19.9	0.00e+00	0	44	0	2193620992	6	3903
2026-01-26 13:46:40.63	289.08	28.60	-22.9	-23.7	19.7	0.00e+00	0	44	0	2199912448	6	3957
2026-01-26 13:46:41.64	289.39	28.53	-23.0	-23.9	19.6	0.00e+00	0	44	0	2205155328	6	4013
2026-01-26 13:46:42.64	289.69	28.46	-22.9	-23.8	19.7	0.00e+00	0	44	0	2210398208	6	3985
2026-01-26 13:46:43.65	290.00	28.39	-22.9	-23.7	19.7	0.00e+00	0	44	0	2216689664	6	3960
2026-01-26 13:46:44.65	290.30	28.32	-22.8	-23.5	19.8	0.00e+00	0	44	0	2221932544	6	3911
2026-01-26 13:46:45.66	290.60	28.25	-22.7	-23.4	19.9	0.00e+00	0	44	0	2228224000	6	3874
2026-01-26 13:46:46.66	290.90	28.18	-22.7	-23.2	20.0	0.00e+00	0	44	0	2233466880	6	3840
2026-01-26 13:46:47.66	291.20	28.11	-22.9	-23.6	19.8	0.00e+00	0	44	0	2238709760	6	3929
2026-01-26 13:46:48.66	291.50	28.04	-22.8	-23.5	19.8	0.00e+00	0	44	0	2245001216	6	3912
2026-01-26 13:46:49.66	291.79	27.97	-22.7	-23.4	19.9	0.00e+00	0	44	0	2250244096	6	3882
2026-01-26 13:46:50.66	292.09	27.90	-22.9	-23.7	19.8	0.00e+00	0	44	0	2255486976	6	3945
2026-01-26 13:46:51.67	292.38	27.82	-23.0	-23.9	19.7	0.00e+00	0	44	0	2261778432	6	4000
2026-01-26 13:46:52.68	292.68	27.75	-23.0	-23.9	19.7	0.00e+00	0	44	0	2267021312	6	3992
2026-01-26 13:46:53.68	292.96	27.68	-22.9	-23.7	19.7	0.00e+00	0	44	0	2273312768	6	3956
2026-01-26 13:46:54.69	293.26	27.60	-22.9	-23.8	19.7	0.00e+00	0	44	0	2278555648	6	3968
2026-01-26 13:46:55.70	293.55	27.52	-22.9	-23.7	19.7	1.10e-06	0	44	0	2283798528	6	3962
2026-01-26 13:46:56.69	293.83	27.45	-22.9	-23.7	19.7	0.00e+00	0	44	0	2290089984	6	3957
2026-01-26 13:46:57.70	294.12	27.37	-23.0	-23.9	19.6	0.00e+00	0	44	0	2295332864	6	4008
2026-01-26 13:46:58.70	294.40	27.29	-22.8	-23.6	19.8	0.00e+00	0	44	0	2300575744	6	3919
2026-01-26 13:46:59.71	294.68	27.22	-22.8	-23.6	19.8	0.00e+00	0	44	0	2306867200	6	3921
2026-01-26 13:47:00.71	294.96	27.14	-22.9	-23.7	19.7	0.00e+00	0	44	0	2312110080	6	3942
2026-01-26 13:47:01.71	295.24	27.06	-22.9	-23.8	19.7	0.00e+00	0	44	0	2318401536	6	3967
2026-01-26 13:47:02.71	295.52	26.98	-23.1	-24.2	19.5	0.00e+00	0	44	0	2323644416	6	4077
2026-01-26 13:47:03.71	295.80	26.90	-23.1	-24.2	19.5	0.00e+00	0	44	0	2328887296	6	4079
2026-01-26 13:47:04.71	296.07	26.82	-23.0	-24.1	19.6	0.00e+00	0	44	0	2335178752	6	4040
2026-01-26 13:47:05.71	296.34	26.74	-23.0	-23.9	19.6	0.00e+00	0	44	0	2340421632	6	3991
2026-01-26 13:47:06.72	296.62	26.66	-23.0	-23.9	19.6	0.00e+00	0	44	0	2346713088	6	3996
2026-01-26 13:47:07.72	296.89	26.58	-23.0	-23.8	19.7	0.00e+00	0	44	0	2351955968	6	3974
2026-01-26 13:47:08.72	297.16	26.50	-22.8	-23.6	19.8	0.00e+00	0	44	0	2357198848	6	3922
2026-01-26 13:47:09.73	297.43	26.41	-23.0	-23.9	19.6	0.00e+00	0	44	0	2363490304	6	4000
2026-01-26 13:47:10.72	297.69	26.33	-23.1	-24.1	19.5	0.00e+00	0	44	0	2368733184	6	4053
2026-01-26 13:47:11.73	297.96	26.25	-23.2	-24.3	19.4	0.00e+00	0	44	0	2373976064	6	4101
2026-01-26 13:47:12.73	298.23	26.16	-23.2	-24.3	19.4	0.00e+00	0	44	0	2380267520	6	4110
2026-01-26 13:47:13.74	298.49	26.08	-23.1	-24.0	19.5	0.00e+00	0	44	0	2385510400	6	4033
2026-01-26 13:47:14.74	298.75	26.00	-23.1	-24.2	19.5	0.00e+00	0	44	0	2390753280	6	4067
2026-01-26 13:47:15.75	299.01	25.91	-23.1	-24.0	19.6	0.00e+00	0	44	0	2397044736	6	4034
2026-01-26 13:47:16.75	299.27	25.83	-23.1	-24.2	19.5	0.00e+00	0	44	0	2402287616	6	4059
2026-01-26 13:47:17.75	299.53	25.74	-23.2	-24.3	19.4	0.00e+00	0	44	0	2408579072	6	4108
2026-01-26 13:47:18.75	299.79	25.66	-23.2	-24.3	19.4	0.00e+00	0	44	0	2413821952	6	4098
2026-01-26 13:47:19.74	300.04	25.57	-23.3	-24.5	19.3	0.00e+00	0	44	0	2419064832	6	4141
2026-01-26 13:47:20.75	300.29	25.48	-23.1	-24.2	19.5	0.00e+00	0	44	0	2425356288	6	4069
2026-01-26 13:47:21.75	300.54	25.40	-23.1	-24.2	19.4	0.00e+00	0	44	0	2430599168	6	4072
2026-01-26 13:47:22.76	300.80	25.31	-23.2	-24.4	19.3	0.00e+00	0	44	0	2436890624	6	4131
2026-01-26 13:47:23.76	301.05	25.22	-23.3	-24.6	19.3	0.00e+00	0	44	0	2442133504	6	4160
2026-01-26 13:47:24.76	301.29	25.14	-23.4	-24.9	19.1	0.00e+00	0	44	0	2447376384	6	4241
2026-01-26 13:47:25.76	301.54	25.05	-23.3	-24.6	19.2	0.00e+00	0	44	0	2453667840	6	4169
2026-01-26 13:47:26.77	301.79	24.96	-23.4	-24.9	19.1	0.00e+00	0	44	0	2458910720	6	4237
2026-01-26 13:47:27.78	302.03	24.87	-23.3	-24.5	19.3	0.00e+00	0	44	0	2464153600	6	4151
2026-01-26 13:47:28.78	302.28	24.78	-23.3	-24.5	19.3	0.00e+00	0	44	0	2470445056	6	4141
2026-01-26 13:47:29.78	302.52	24.70	-23.4	-24.7	19.2	0.00e+00	0	44	0	2475687936	6	4201
2026-01-26 13:47:30.79	302.76	24.61	-23.3	-24.6	19.3	0.00e+00	0	44	0	2481979392	6	4164
2026-01-26 13:47:31.80	303.00	24.52	-23.3	-24.6	19.2	0.00e+00	0	44	0	2487222272	6	4179
2026-01-26 13:47:32.80	303.24	24.43	-23.3	-24.5	19.3	1.10e-06	0	44	0	2492465152	6	4148
2026-01-26 13:47:33.80	303.47	24.34	-23.3	-24.5	19.3	0.00e+00	0	44	0	2498756608	6	4149
2026-01-26 13:47:34.81	303.71	24.25	-23.2	-24.4	19.3	0.00e+00	0	44	0	2503999488	6	4126
2026-01-26 13:47:35.81	303.94	24.16	-23.3	-24.6	19.2	0.00e+00	0	44	0	2510290944	6	4165
2026-01-26 13:47:36.82	304.18	24.07	-23.2	-24.5	19.3	0.00e+00	0	44	0	2515533824	6	4137
2026-01-26 13:47:37.82	304.41	23.98	-23.2	-24.4	19.3	0.00e+00	0	44	0	2520776704	6	4124
2026-01-26 13:47:38.82	304.63	23.89	-23.3	-24.6	19.2	0.00e+00	0	44	0	2527068160	6	4158
2026-01-26 13:47:39.81	304.86	23.80	-23.1	-24.2	19.4	0.00e+00	0	44	0	2532311040	6	4068
2026-01-26 13:47:40.82	305.09	23.71	-23.2	-24.3	19.3	0.00e+00	0	44	0	2537553920	6	4089
2026-01-26 13:47:41.83	305.32	23.62	-23.4	-24.7	19.2	0.00e+00	0	44	0	2543845376	6	4182
2026-01-26 13:47:42.83	305.54	23.53	-23.4	-24.4	19.1	0.00e+00	0	44	0	2549088256	7	3996
2026-01-26 13:47:43.84	305.77	23.44	-23.6	-24.7	18.9	0.00e+00	0	44	0	2555379712	7	4075
2026-01-26 13:47:44.84	305.99	23.35	-23.7	-24.9	18.8	0.00e+00	0	44	0	2560622592	7	4130
2026-01-26 13:47:45.84	306.21	23.25	-23.8	-25.1	18.7	0.00e+00	0	44	0	2565865472	7	4196
2026-01-26 13:47:46.85	306.43	23.16	-23.8	-25.0	18.7	0.00e+00	0	44	0	2572156928	7	4176
2026-01-26 13:47:47.85	306.65	23.07	-23.8	-25.1	18.7	0.00e+00	0	44	0	2577399808	7	4177
2026-01-26 13:47:48.85	306.86	22.98	-23.8	-25.1	18.7	0.00e+00	0	44	0	2582642688	7	4181
2026-01-26 13:47:49.85	307.08	22.89	-23.9	-25.3	18.6	0.00e+00	0	44	0	2588934144	7	4232
2026-01-26 13:47:50.85	307.29	22.80	-23.8	-25.1	18.7	0.00e+00	0	44	0	2594177024	7	4175
2026-01-26 13:47:51.85	307.50	22.71	-23.8	-25.0	18.7	0.00e+00	0	44	0	2599419904	7	4168
2026-01-26 13:47:52.85	307.72	22.62	-23.8	-25.2	18.6	0.00e+00	0	44	0	2605711360	7	4205
2026-01-26 13:47:53.86	307.93	22.52	-23.7	-24.9	18.8	0.00e+00	0	44	0	2610954240	7	4123
2026-01-26 13:47:54.86	308.14	22.43	-23.7	-24.9	18.7	0.00e+00	0	44	0	2617245696	7	4134
2026-01-26 13:47:55.86	308.34	22.34	-23.8	-25.2	18.6	0.00e+00	0	44	0	2622488576	7	4201
2026-01-26 13:47:56.86	308.55	22.25	-23.9	-25.3	18.6	0.00e+00	0	44	0	2628780032	7	4225
2026-01-26 13:47:57.86	308.76	22.16	-23.9	-25.4	18.5	0.00e+00	0	44	0	2634022912	7	4259
2026-01-26 13:47:58.87	308.96	22.06	-24.0	-25.5	18.5	0.00e+00	0	44	0	2639265792	7	4281
2026-01-26 13:47:59.88	309.17	21.97	-24.0	-25.0	18.5	0.00e+00	0	44	0	2645557248	8	4043
2026-01-26 13:48:00.89	309.37	21.88	-24.1	-25.3	18.3	0.00e+00	0	44	0	2650800128	8	4113
2026-01-26 13:48:01.89	309.57	21.79	-24.1	-25.2	18.4	0.00e+00	0	44	0	2656043008	8	4095
2026-01-26 13:48:02.89	309.77	21.69	-24.4	-25.9	18.0	0.00e+00	0	44	0	2662334464	8	4286
2026-01-26 13:48:03.89	309.97	21.60	-24.1	-25.2	18.4	0.00e+00	0	44	0	2667577344	8	4107
2026-01-26 13:48:04.90	310.17	21.51	-23.9	-24.8	18.6	0.00e+00	0	44	0	2672820224	8	3988
2026-01-26 13:48:05.89	310.36	21.42	-23.8	-24.6	18.6	0.00e+00	0	44	0	2679111680	8	3953
2026-01-26 13:48:06.90	310.56	21.33	-23.9	-24.9	18.5	0.00e+00	0	44	0	2684354560	8	4013
2026-01-26 13:48:07.90	310.76	21.24	-23.9	-24.9	18.5	0.00e+00	0	44	0	2690646016	8	4008
2026-01-26 13:48:08.90	310.95	21.14	-24.0	-25.0	18.5	0.00e+00	0	44	0	2695888896	8	4048
2026-01-26 13:48:09.90	311.14	21.05	-24.0	-25.0	18.5	0.00e+00	0	44	0	2701131776	8	4041
2026-01-26 13:48:10.90	311.33	20.96	-24.2	-25.4	18.3	0.00e+00	0	44	0	2707423232	8	4133
2026-01-26 13:48:11.91	311.52	20.87	-24.2	-25.5	18.2	0.00e+00	0	44	0	2712666112	8	4168
2026-01-26 13:48:12.92	311.71	20.77	-24.3	-25.8	18.1	0.00e+00	0	44	0	2718957568	8	4241
2026-01-26 13:48:13.91	311.90	20.68	-24.3	-25.7	18.1	0.00e+00	0	44	0	2724200448	8	4226
2026-01-26 13:48:14.92	312.08	20.59	-24.4	-25.9	18.0	0.00e+00	0	44	0	2729443328	8	4282
2026-01-26 13:48:15.92	312.27	20.50	-24.4	-25.9	18.0	0.00e+00	0	44	0	2735734784	8	4279
2026-01-26 13:48:16.92	312.45	20.41	-24.5	-26.1	17.9	0.00e+00	0	44	0	2740977664	8	4319
2026-01-26 13:48:17.92	312.64	20.32	-24.4	-25.4	18.0	0.00e+00	0	44	0	2747269120	9	4033
2026-01-26 13:48:18.92	312.82	20.23	-24.6	-25.8	17.7	0.00e+00	0	44	0	2752512000	9	4151
2026-01-26 13:48:19.93	313.00	20.13	-24.4	-25.4	18.0	0.00e+00	0	44	0	2757754880	9	4028
2026-01-26 13:48:20.93	313.18	20.04	-24.5	-25.6	17.9	0.00e+00	0	44	0	2764046336	9	4075
2026-01-26 13:48:21.93	313.36	19.95	-24.4	-25.4	18.0	0.00e+00	0	44	0	2769289216	9	4022
2026-01-26 13:48:22.94	313.54	19.86	-24.4	-25.5	17.9	0.00e+00	0	44	0	2774532096	9	4047
2026-01-26 13:48:23.94	313.72	19.77	-24.4	-25.4	18.0	0.00e+00	0	44	0	2780823552	9	4035
2026-01-26 13:48:24.94	313.89	19.68	-24.4	-25.4	18.0	0.00e+00	0	44	0	2786066432	9	4043
2026-01-26 13:48:25.95	314.07	19.58	-24.5	-25.6	17.9	0.00e+00	0	44	0	2791309312	9	4090
2026-01-26 13:48:26.95	314.24	19.49	-24.7	-26.0	17.7	0.00e+00	0	44	0	2797600768	9	4174
2026-01-26 13:48:27.94	314.41	19.40	-24.7	-26.0	17.7	0.00e+00	0	44	0	2802843648	9	4178
2026-01-26 13:48:28.94	314.58	19.31	-24.8	-26.2	17.5	1.10e-06	0	44	0	2809135104	9	4242
2026-01-26 13:48:29.95	314.76	19.22	-24.9	-26.4	17.4	0.00e+00	0	44	0	2814377984	9	4301
2026-01-26 13:48:30.95	314.93	19.13	-24.9	-26.5	17.4	0.00e+00	0	44	0	2819620864	9	4320
2026-01-26 13:48:31.96	315.10	19.04	-24.9	-26.4	17.4	0.00e+00	0	44	0	2825912320	9	4293
2026-01-26 13:48:32.96	315.26	18.95	-24.8	-26.3	17.5	0.00e+00	0	44	0	2831155200	9	4259
2026-01-26 13:48:33.97	315.43	18.86	-24.9	-26.5	17.4	0.00e+00	0	44	0	2837446656	9	4309
2026-01-26 13:48:34.97	315.60	18.77	-24.7	-26.0	17.6	0.00e+00	0	44	0	2842689536	9	4196
2026-01-26 13:48:35.97	315.76	18.68	-24.7	-26.0	17.7	1.10e-06	0	44	0	2847932416	9	4177
2026-01-26 13:48:36.98	315.93	18.59	-24.9	-26.4	17.4	0.00e+00	0	44	0	2854223872	9	4300
2026-01-26 13:48:37.98	316.09	18.50	-24.7	-26.0	17.6	0.00e+00	0	44	0	2859466752	9	4174
2026-01-26 13:48:38.99	316.25	18.41	-24.6	-25.8	17.7	0.00e+00	0	44	0	2864709632	9	4135
2026-01-26 13:48:40.00	316.42	18.32	-24.7	-26.0	17.6	0.00e+00	0	44	0	2871001088	9	4179
2026-01-26 13:48:41.00	316.58	18.23	-24.7	-26.1	17.6	0.00e+00	0	44	0	2876243968	9	4223
2026-01-26 13:48:42.00	316.74	18.14	-24.8	-26.3	17.4	0.00e+00	0	44	0	2882535424	9	4275
2026-01-26 13:48:43.01	316.90	18.05	-24.8	-26.2	17.5	0.00e+00	0	44	0	2887778304	9	4233
2026-01-26 13:48:44.01	317.05	17.96	-24.6	-25.8	17.7	0.00e+00	0	44	0	2894069760	9	4145
2026-01-26 13:48:45.02	317.21	17.87	-24.7	-26.0	17.6	0.00e+00	0	44	0	2899312640	9	4191
2026-01-26 13:48:46.02	317.37	17.78	-24.9	-26.5	17.3	0.00e+00	0	44	0	2904555520	9	4315
2026-01-26 13:48:47.02	317.52	17.69	-24.7	-26.0	17.6	0.00e+00	0	44	0	2910846976	9	4185
2026-01-26 13:48:48.02	317.67	17.60	-24.7	-25.9	17.6	0.00e+00	0	44	0	2916089856	9	4171
2026-01-26 13:48:49.03	317.83	17.51	-24.8	-26.2	17.5	0.00e+00	0	44	0	2921332736	9	4231
2026-01-26 13:48:50.03	317.98	17.42	-24.9	-26.4	17.4	0.00e+00	0	44	0	2927624192	9	4294
2026-01-26 13:48:51.03	318.13	17.34	-24.9	-26.4	17.4	0.00e+00	0	44	0	2932867072	9	4294
2026-01-26 13:48:52.04	318.28	17.25	-24.9	-26.4	17.3	0.00e+00	0	44	0	2938109952	9	4306
2026-01-26 13:48:53.04	318.43	17.16	-25.0	-26.7	17.2	0.00e+00	0	44	0	2944401408	9	4376
2026-01-26 13:48:54.05	318.58	17.07	-24.9	-26.1	17.3	1.10e-06	0	44	0	2949644288	10	4095
2026-01-26 13:48:55.05	318.73	16.98	-25.1	-26.4	17.1	0.00e+00	0	44	0	2955935744	10	4189
2026-01-26 13:48:56.06	318.88	16.89	-25.1	-26.3	17.1	0.00e+00	0	44	0	2961178624	10	4157
2026-01-26 13:48:57.06	319.03	16.81	-25.2	-26.6	17.0	0.00e+00	0	44	0	2967470080	10	4245
2026-01-26 13:48:58.06	319.17	16.72	-25.1	-26.5	17.0	0.00e+00	0	44	0	2972712960	10	4214
2026-01-26 13:48:59.06	319.32	16.63	-25.2	-26.7	16.9	0.00e+00	0	44	0	2977955840	10	4247
2026-01-26 13:49:00.06	319.46	16.55	-25.2	-26.7	16.9	0.00e+00	0	44	0	2984247296	10	4259
2026-01-26 13:49:01.06	319.60	16.46	-25.3	-26.8	16.9	0.00e+00	0	44	0	2989490176	10	4275
2026-01-26 13:49:02.06	319.74	16.37	-25.5	-26.8	16.6	0.00e+00	0	44	0	2994733056	11	4170
2026-01-26 13:49:03.07	319.89	16.28	-25.6	-26.9	16.5	0.00e+00	0	44	0	3001024512	11	4205
2026-01-26 13:49:04.07	320.03	16.20	-25.7	-27.2	16.4	0.00e+00	0	44	0	3006267392	11	4270
2026-01-26 13:49:05.08	320.17	16.11	-25.7	-27.2	16.4	0.00e+00	0	44	0	3011510272	11	4270
2026-01-26 13:49:06.08	320.31	16.03	-25.9	-27.7	16.1	0.00e+00	0	44	0	3017801728	11	4407
2026-01-26 13:49:07.08	320.45	15.94	-25.7	-27.2	16.4	0.00e+00	0	44	0	3023044608	11	4277
2026-01-26 13:49:08.08	320.58	15.85	-25.8	-27.5	16.2	0.00e+00	0	44	0	3029336064	11	4355
2026-01-26 13:49:09.09	320.72	15.77	-25.9	-27.8	16.1	0.00e+00	0	44	0	3034578944	11	4433
2026-01-26 13:49:10.09	320.86	15.68	-25.7	-27.2	16.3	0.00e+00	0	44	0	3039821824	11	4290
2026-01-26 13:49:11.10	320.99	15.60	-25.6	-27.1	16.4	0.00e+00	0	44	0	3046113280	11	4255
2026-01-26 13:49:12.09	321.13	15.51	-25.7	-27.1	16.4	0.00e+00	0	44	0	3051356160	11	4258
2026-01-26 13:49:13.09	321.26	15.43	-25.6	-26.9	16.5	0.00e+00	0	44	0	3056599040	11	4204
2026-01-26 13:49:14.10	321.39	15.34	-25.6	-27.1	16.4	0.00e+00	0	44	0	3062890496	11	4249
2026-01-26 13:49:15.10	321.53	15.26	-25.5	-26.7	16.6	0.00e+00	0	44	0	3068133376	11	4157
2026-01-26 13:49:16.10	321.66	15.17	-25.5	-26.8	16.6	0.00e+00	0	44	0	3074424832	11	4172
2026-01-26 13:49:17.10	321.79	15.09	-25.7	-27.1	16.4	0.00e+00	0	44	0	3079667712	11	4262
2026-01-26 13:49:18.10	321.92	15.00	-25.4	-26.6	16.7	0.00e+00	0	44	0	3084910592	11	4118
2026-01-26 13:49:19.11	322.05	14.92	-25.6	-26.9	16.5	0.00e+00	0	44	0	3091202048	11	4212
2026-01-26 13:49:20.12	322.18	14.83	-25.5	-26.8	16.5	0.00e+00	0	44	0	3096444928	11	4177
2026-01-26 13:49:21.12	322.31	14.75	-25.4	-26.5	16.7	0.00e+00	0	44	0	3102736384	11	4095
2026-01-26 13:49:22.12	322.43	14.67	-25.5	-26.8	16.5	0.00e+00	0	44	0	3107979264	11	4180
2026-01-26 13:49:23.13	322.56	14.58	-25.4	-26.6	16.7	0.00e+00	0	44	0	3113222144	11	4113
2026-01-26 13:49:24.14	322.69	14.50	-25.6	-27.1	16.4	0.00e+00	0	44	0	3119513600	11	4241
2026-01-26 13:49:25.14	322.81	14.41	-25.5	-26.7	16.5	0.00e+00	0	44	0	3124756480	11	4155
2026-01-26 13:49:26.14	322.94	14.33	-25.5	-26.7	16.6	0.00e+00	0	44	0	3129999360	11	4145
2026-01-26 13:49:27.14	323.06	14.25	-25.6	-27.0	16.4	0.00e+00	0	44	0	3136290816	11	4230
2026-01-26 13:49:28.15	323.19	14.17	-25.5	-26.8	16.5	0.00e+00	0	44	0	3141533696	11	4186
2026-01-26 13:49:29.16	323.31	14.08	-25.6	-27.0	16.4	1.10e-06	0	44	0	3147825152	11	4239
2026-01-26 13:49:30.16	323.43	14.00	-25.8	-27.4	16.2	0.00e+00	0	44	0	3153068032	11	4337
2026-01-26 13:49:31.16	323.55	13.92	-25.7	-27.2	16.3	0.00e+00	0	44	0	3158310912	11	4288
2026-01-26 13:49:32.16	323.67	13.84	-25.7	-27.2	16.3	0.00e+00	0	44	0	3164602368	11	4270
2026-01-26 13:49:33.16	323.79	13.75	-25.7	-27.3	16.2	0.00e+00	0	44	0	3169845248	11	4312
2026-01-26 13:49:34.16	323.91	13.67	-25.5	-26.8	16.5	0.00e+00	0	44	0	3176136704	11	4182
2026-01-26 13:49:35.16	324.03	13.59	-25.5	-26.7	16.5	0.00e+00	0	44	0	3181379584	11	4161
2026-01-26 13:49:36.15	324.15	13.51	-25.8	-27.3	16.2	0.00e+00	0	44	0	3186622464	11	4318
2026-01-26 13:49:37.16	324.27	13.43	-25.5	-26.7	16.5	0.00e+00	0	44	0	3192913920	11	4160
2026-01-26 13:49:38.16	324.38	13.35	-25.9	-27.6	16.0	0.00e+00	0	44	0	3198156800	11	4391
2026-01-26 13:49:39.17	324.50	13.27	-25.8	-26.9	16.0	0.00e+00	0	44	0	3203399680	12	4101
2026-01-26 13:49:40.17	324.62	13.19	-25.8	-26.8	16.1	0.00e+00	0	44	0	3209691136	12	4082
2026-01-26 13:49:41.17	324.73	13.11	-25.8	-27.1	16.0	0.00e+00	0	44	0	3214934016	12	4137
2026-01-26 13:49:42.17	324.85	13.02	-25.8	-27.0	16.0	0.00e+00	0	44	0	3220176896	12	4129
2026-01-26 13:49:43.17	324.96	12.94	-25.8	-27.0	16.0	0.00e+00	0	44	0	3226468352	12	4135
2026-01-26 13:49:44.18	325.07	12.86	-26.0	-27.4	15.8	0.00e+00	0	44	0	3231711232	12	4223
2026-01-26 13:49:45.18	325.19	12.78	-26.1	-27.6	15.6	1.10e-06	0	44	0	3238002688	12	4295
2026-01-26 13:49:46.18	325.30	12.70	-25.9	-27.2	15.9	0.00e+00	0	44	0	3243245568	12	4182
2026-01-26 13:49:47.19	325.41	12.62	-25.9	-27.2	15.9	0.00e+00	0	44	0	3248488448	12	4173
2026-01-26 13:49:48.19	325.52	12.55	-25.9	-27.3	15.8	0.00e+00	0	44	0	3254779904	12	4193
2026-01-26 13:49:49.20	325.63	12.47	-26.1	-27.5	15.7	0.00e+00	0	44	0	3260022784	12	4265
2026-01-26 13:49:50.20	325.74	12.39	-26.1	-27.7	15.5	0.00e+00	0	44	0	3265265664	12	4315
2026-01-26 13:49:51.20	325.85	12.31	-26.1	-27.6	15.6	0.00e+00	0	44	0	3271557120	12	4290
2026-01-26 13:49:52.21	325.96	12.23	-26.1	-27.6	15.6	0.00e+00	0	44	0	3276800000	12	4294
2026-01-26 13:49:53.21	326.07	12.15	-26.2	-27.8	15.5	0.00e+00	0	44	0	3283091456	12	4341
2026-01-26 13:49:54.21	326.18	12.07	-26.1	-27.6	15.6	0.00e+00	0	44	0	3288334336	12	4287
2026-01-26 13:49:55.21	326.28	11.99	-26.4	-28.3	15.2	0.00e+00	0	44	0	3293577216	12	4491
2026-01-26 13:49:56.22	326.39	11.91	-26.5	-28.1	15.0	0.00e+00	0	44	0	3299868672	13	4304
2026-01-26 13:49:57.22	326.50	11.84	-26.3	-27.6	15.3	0.00e+00	0	44	0	3305111552	13	4180
2026-01-26 13:49:58.23	326.60	11.76	-26.6	-28.3	14.9	1.10e-06	0	44	0	3311403008	13	4362
2026-01-26 13:49:59.24	326.71	11.68	-26.4	-27.7	15.2	0.00e+00	0	44	0	3316645888	13	4198
2026-01-26 13:50:00.24	326.81	11.60	-26.4	-27.7	15.2	0.00e+00	0	44	0	3321888768	13	4205
2026-01-26 13:50:01.25	326.92	11.53	-26.5	-28.1	15.0	0.00e+00	0	44	0	3328180224	13	4321
2026-01-26 13:50:02.26	327.02	11.45	-26.9	-28.9	14.6	0.00e+00	0	44	0	3333423104	13	4533
2026-01-26 13:50:03.26	327.13	11.37	-26.8	-28.7	14.6	0.00e+00	0	44	0	3339714560	13	4487
2026-01-26 13:50:04.26	327.23	11.29	-27.1	-28.8	14.3	3.40e-06	0	44	0	3344957440	14	4398
2026-01-26 13:50:05.26	327.33	11.22	-26.7	-28.0	14.8	0.00e+00	0	44	0	3350200320	14	4168
2026-01-26 13:50:06.26	327.43	11.14	-26.6	-27.7	15.0	0.00e+00	0	44	0	3356491776	14	4093
2026-01-26 13:50:07.26	327.53	11.06	-26.7	-28.0	14.8	0.00e+00	0	44	0	3361734656	14	4170
2026-01-26 13:50:08.27	327.63	10.99	-26.7	-28.0	14.8	0.00e+00	0	44	0	3366977536	14	4177
2026-01-26 13:50:09.27	327.73	10.91	-26.6	-27.8	14.9	0.00e+00	0	44	0	3373268992	14	4121
2026-01-26 13:50:10.27	327.83	10.84	-26.6	-27.8	14.9	0.00e+00	0	44	0	3378511872	14	4130
2026-01-26 13:50:11.28	327.93	10.76	-26.6	-27.7	15.0	0.00e+00	0	44	0	3384803328	14	4097
2026-01-26 13:50:12.28	328.03	10.69	-26.5	-27.5	15.0	0.00e+00	0	44	0	3390046208	14	4048
2026-01-26 13:50:13.29	328.13	10.61	-26.7	-27.9	14.8	0.00e+00	0	44	0	3395289088	14	4145
2026-01-26 13:50:14.29	328.23	10.53	-26.7	-28.0	14.8	0.00e+00	0	44	0	3401580544	14	4189
2026-01-26 13:50:15.30	328.32	10.46	-26.6	-27.7	15.0	0.00e+00	0	44	0	3406823424	14	4096
2026-01-26 13:50:16.30	328.42	10.38	-26.6	-27.7	14.9	0.00e+00	0	44	0	3412066304	14	4109
2026-01-26 13:50:17.31	328.52	10.31	-26.6	-27.8	14.9	0.00e+00	0	44	0	3418357760	14	4117
2026-01-26 13:50:18.30	328.61	10.24	-26.7	-27.9	14.8	0.00e+00	0	44	0	3423600640	14	4153
2026-01-26 13:50:19.31	328.71	10.16	-26.8	-28.3	14.6	1.10e-06	0	44	0	3429892096	14	4254
2026-01-26 13:50:20.31	328.80	10.09	-26.8	-28.3	14.6	1.10e-06	0	44	0	3435134976	14	4247
2026-01-26 13:50:21.31	328.90	10.01	-26.8	-28.2	14.6	0.00e+00	0	44	0	3440377856	14	4237
2026-01-26 13:50:22.31	328.99	9.94	-27.0	-28.7	14.3	1.10e-06	0	44	0	3446669312	14	4387
2026-01-26 13:50:23.31	329.08	9.86	-26.9	-28.5	14.5	0.00e+00	0	44	0	3451912192	14	4305
2026-01-26 13:50:24.31	329.17	9.79	-26.9	-28.4	14.5	0.00e+00	0	44	0	3458203648	14	4282
2026-01-26 13:50:25.31	329.27	9.72	-27.0	-28.8	14.3	0.00e+00	0	44	0	3463446528	14	4406
2026-01-26 13:50:26.32	329.36	9.64	-27.0	-28.7	14.3	0.00e+00	0	44	0	3468689408	14	4385
2026-01-26 13:50:27.32	329.45	9.57	-26.7	-28.1	14.7	0.00e+00	0	44	0	3474980864	14	4205
2026-01-26 13:50:28.33	329.54	9.50	-26.8	-28.1	14.6	2.20e-06	0	44	0	3480223744	14	4216
2026-01-26 13:50:29.34	329.63	9.42	-26.9	-28.5	14.4	1.10e-06	0	44	0	3485466624	14	4335
2026-01-26 13:50:30.34	329.72	9.35	-26.7	-27.9	14.7	1.10e-06	0	44	0	3491758080	14	4152
2026-01-26 13:50:31.34	329.81	9.28	-26.8	-28.1	14.6	0.00e+00	0	44	0	3497000960	14	4209
2026-01-26 13:50:32.35	329.90	9.21	-26.8	-28.2	14.6	0.00e+00	0	44	0	3502243840	14	4221
2026-01-26 13:50:33.35	329.99	9.13	-26.7	-28.0	14.7	0.00e+00	0	44	0	3508535296	14	4177
2026-01-26 13:50:34.36	330.08	9.06	-26.6	-27.8	14.8	0.00e+00	0	44	0	3513778176	14	4125
2026-01-26 13:50:35.36	330.17	8.99	-26.8	-28.3	14.5	0.00e+00	0	44	0	3520069632	14	4264
2026-01-26 13:50:36.36	330.26	8.92	-26.8	-28.2	14.5	0.00e+00	0	44	0	3525312512	14	4232
2026-01-26 13:50:37.37	330.34	8.85	-26.8	-28.2	14.5	0.00e+00	0	44	0	3531603968	14	4234
2026-01-26 13:50:38.37	330.43	8.78	-26.8	-28.2	14.6	0.00e+00	0	44	0	3536846848	14	4228
2026-01-26 13:50:39.36	330.52	8.71	-26.9	-28.3	14.4	0.00e+00	0	44	0	3542089728	14	4276
2026-01-26 13:50:40.36	330.60	8.63	-26.8	-28.2	14.5	1.10e-06	0	44	0	3548381184	14	4226
2026-01-26 13:50:41.36	330.69	8.56	-27.0	-28.8	14.1	3.40e-06	0	44	0	3553624064	14	4396
2026-01-26 13:50:42.37	330.77	8.49	-27.3	-29.5	13.7	4.50e-06	0	44	0	3558866944	14	4603
2026-01-26 13:50:43.37	330.86	8.42	-27.0	-28.6	14.2	1.10e-06	0	44	0	3565158400	14	4361
2026-01-26 13:50:44.38	330.94	8.35	-27.1	-28.9	14.0	3.40e-06	0	44	0	3570401280	14	4439
2026-01-26 13:50:45.39	331.03	8.28	-27.3	-29.5	13.7	3.40e-06	0	44	0	3575644160	14	4612
2026-01-26 13:50:46.40	331.11	8.21	-27.3	-29.3	13.8	1.14e-05	0	44	0	3581935616	14	4570
2026-01-26 13:50:47.39	331.20	8.14	-27.4	-29.5	13.7	5.70e-06	0	44	0	3587178496	14	4625
2026-01-26 13:50:48.40	331.28	8.07	-27.5	-29.9	13.5	6.80e-06	0	44	0	3593469952	14	4730
2026-01-26 13:50:49.40	331.36	8.00	-27.3	-28.9	13.7	3.40e-06	0	44	0	3598712832	15	4330
2026-01-26 13:50:50.40	331.44	7.93	-27.7	-29.8	13.2	4.50e-06	0	44	0	3603955712	15	4608
2026-01-26 13:50:51.40	331.53	7.86	-27.5	-29.5	13.4	2.17e-05	0	44	0	3610247168	15	4499
2026-01-26 13:50:52.40	331.61	7.79	-27.7	-29.9	13.1	1.14e-05	0	44	0	3615490048	15	4629
2026-01-26 13:50:53.40	331.69	7.72	-27.3	-28.8	13.8	6.80e-06	0	44	0	3621781504	15	4309
2026-01-26 13:50:54.41	331.77	7.65	-27.6	-29.6	13.3	8.00e-06	0	44	0	3627024384	15	4532
2026-01-26 13:50:55.41	331.85	7.58	-27.7	-29.9	13.1	2.17e-05	0	44	0	3632267264	15	4611
2026-01-26 13:50:56.41	331.93	7.52	-27.6	-29.6	13.3	1.02e-05	0	44	0	3638558720	15	4531
2026-01-26 13:50:57.42	332.01	7.45	-27.8	-30.0	13.0	1.48e-05	0	44	0	3643801600	15	4661
2026-01-26 13:50:58.42	332.09	7.38	-27.8	-30.0	13.0	4.23e-05	0	44	0	3649044480	15	4650
2026-01-26 13:50:59.42	332.17	7.31	-27.7	-29.8	13.1	1.48e-05	0	44	0	3655335936	15	4611
2026-01-26 13:51:00.43	332.25	7.24	-27.5	-29.4	13.4	2.17e-05	0	44	0	3660578816	15	4469
2026-01-26 13:51:01.43	332.33	7.17	-27.5	-29.5	13.3	4.50e-06	0	44	0	3666870272	15	4497
2026-01-26 13:51:02.44	332.40	7.10	-33.0	-44.1	3.8	1.90e-03	0	44	0	3672113152	25	13015
2026-01-26 13:51:03.44	332.48	7.04	-33.4	-44.8	3.8	8.46e-01	0	44	104	3672113152	26	13338
2026-01-26 13:51:04.44	332.56	6.97	-33.6	-44.8	3.8	8.47e-01	0	44	104	3672113152	27	13027
2026-01-26 13:51:05.45	332.64	6.90	-33.8	-45.2	3.8	8.46e-01	0	44	104	3672113152	27	13324

#Closed at: 2026-01-26 13:51:06
#Recorded file [3672 MB]: D:/data/31010_260126_164009.dat