passes_logs/2026/01/26/R2M6_AANII_01/R2M6_AANII_01__20260126_110202_SUOMI_NPP_rec.log

#Pass ID: 20260126_110202_SUOMI NPP
#Satellite: SUOMI NPP
#Configuration: NPP
#almurnet v.1.7.20240730
#Start time: 2026-01-26 11:02:02

#Version: 2.2.20231116
#Station: R2M6_AANII_01
#Location: 30.233357 lon 59.946436 lat
#TLE: 1 37849U 11061A   26025.81780576  .00000180  00000+0  10635-3 0  9993
#TLE: 2 37849  98.7822 327.7738 0002159  45.0809 315.0541 14.19529973738242

#Time	Az	El	Level	Level2	SNR	BER	BlckErr	Temp	State	Recorded	gain1	gain2
2026-01-26 11:02:02.56	180.17	7.03	-30.8	-34.0	5.3	1.23e+00	0	44	0	0	22	5201
2026-01-26 11:02:03.56	180.21	7.10	-31.5	-36.2	4.9	1.31e+00	0	44	104	0	23	6178
2026-01-26 11:02:04.56	180.25	7.18	-31.3	-35.2	8.2	1.02e-01	0	44	0	0	23	5661
2026-01-26 11:02:05.56	180.29	7.25	-31.4	-35.6	8.0	5.33e-02	0	44	0	1048576	23	5825
2026-01-26 11:02:06.57	180.33	7.33	-31.3	-35.1	8.3	7.21e-02	0	44	0	3145728	23	5585
2026-01-26 11:02:07.57	180.37	7.41	-31.2	-34.6	8.7	3.32e-02	0	44	0	5242880	23	5353
2026-01-26 11:02:08.58	180.41	7.48	-30.8	-33.6	10.0	1.81e-02	0	44	0	7340032	22	4970
2026-01-26 11:02:09.57	180.46	7.56	-30.7	-33.3	10.1	1.01e-02	0	44	0	9437184	22	4878
2026-01-26 11:02:10.58	180.50	7.64	-30.5	-32.6	10.8	3.34e-03	0	44	0	10485760	22	4573
2026-01-26 11:02:11.58	180.54	7.71	-30.2	-32.2	11.4	1.54e-03	0	44	0	12582912	21	4524
2026-01-26 11:02:12.58	180.58	7.79	-30.3	-32.5	11.2	1.25e-03	0	44	0	14680064	21	4619
2026-01-26 11:02:13.59	180.63	7.87	-30.2	-32.2	11.4	1.23e-03	0	44	0	16777216	21	4541
2026-01-26 11:02:14.60	180.67	7.95	-30.3	-32.5	11.2	9.20e-04	0	44	0	17825792	21	4638
2026-01-26 11:02:15.60	180.71	8.03	-30.3	-32.3	11.3	1.05e-03	0	44	0	19922944	21	4574
2026-01-26 11:02:16.61	180.76	8.11	-30.2	-32.2	11.4	1.37e-03	0	44	0	22020096	21	4513
2026-01-26 11:02:17.61	180.80	8.18	-30.2	-32.1	11.5	1.04e-03	0	44	0	24117248	21	4500
2026-01-26 11:02:18.61	180.84	8.26	-30.4	-32.7	11.1	8.41e-04	0	44	0	26214400	21	4700
2026-01-26 11:02:19.60	180.89	8.34	-30.1	-31.8	11.8	6.05e-04	0	44	0	27262976	21	4386
2026-01-26 11:02:20.61	180.93	8.42	-30.2	-32.1	11.5	7.79e-04	0	44	0	29360128	21	4499
2026-01-26 11:02:21.61	180.98	8.50	-30.4	-32.6	11.2	1.15e-03	0	44	0	31457280	21	4667
2026-01-26 11:02:22.62	181.02	8.58	-30.1	-31.9	11.7	6.78e-04	0	44	0	33554432	21	4420
2026-01-26 11:02:23.61	181.07	8.66	-30.2	-32.1	11.6	7.13e-04	0	44	0	35651584	21	4494
2026-01-26 11:02:24.62	181.11	8.74	-30.6	-33.5	10.5	2.89e-03	0	44	0	36700160	21	5017
2026-01-26 11:02:25.62	181.16	8.82	-30.4	-32.7	11.2	1.34e-03	0	44	0	38797312	21	4702
2026-01-26 11:02:26.62	181.20	8.90	-30.5	-33.1	10.9	1.66e-03	0	44	0	40894464	21	4837
2026-01-26 11:02:27.62	181.25	8.98	-30.5	-33.0	11.0	2.30e-03	0	44	0	42991616	21	4803
2026-01-26 11:02:28.62	181.29	9.06	-30.5	-33.1	10.9	2.96e-03	0	44	0	45088768	21	4849
2026-01-26 11:02:29.63	181.34	9.15	-30.5	-33.2	10.8	2.28e-03	0	44	0	46137344	21	4888
2026-01-26 11:02:30.63	181.39	9.23	-30.6	-33.4	10.7	2.64e-03	0	44	0	48234496	21	4969
2026-01-26 11:02:31.63	181.43	9.31	-30.5	-32.9	11.1	2.42e-03	0	44	0	50331648	21	4775
2026-01-26 11:02:32.63	181.48	9.39	-30.5	-33.0	11.1	1.41e-03	0	44	0	52428800	21	4800
2026-01-26 11:02:33.64	181.53	9.47	-30.6	-33.4	10.8	1.97e-03	0	44	0	54525952	21	4955
2026-01-26 11:02:34.64	181.58	9.56	-30.5	-33.1	11.0	2.27e-03	0	44	0	55574528	21	4842
2026-01-26 11:02:35.63	181.62	9.64	-30.6	-33.2	10.9	1.75e-03	0	44	0	57671680	21	4871
2026-01-26 11:02:36.64	181.67	9.72	-30.6	-33.4	10.8	2.36e-03	0	44	0	59768832	21	4939
2026-01-26 11:02:37.64	181.72	9.81	-30.3	-32.4	11.5	1.46e-03	0	44	0	61865984	21	4558
2026-01-26 11:02:38.64	181.77	9.89	-30.3	-32.4	11.5	7.36e-04	0	44	0	62914560	21	4558
2026-01-26 11:02:39.64	181.82	9.97	-30.1	-31.7	12.1	3.33e-04	0	44	0	65011712	21	4318
2026-01-26 11:02:40.64	181.87	10.06	-30.0	-31.5	12.2	2.30e-04	0	44	0	67108864	21	4245
2026-01-26 11:02:41.63	181.91	10.14	-30.0	-31.4	12.3	2.04e-04	0	44	0	69206016	21	4243
2026-01-26 11:02:42.64	181.96	10.23	-29.9	-31.1	12.5	2.33e-04	0	44	0	71303168	21	4133
2026-01-26 11:02:43.64	182.01	10.31	-29.9	-31.0	12.6	1.07e-04	0	44	0	72351744	21	4099
2026-01-26 11:02:44.64	182.06	10.40	-29.8	-31.2	12.8	8.54e-05	0	44	0	74448896	20	4238
2026-01-26 11:02:45.64	182.11	10.48	-29.7	-31.1	12.8	6.17e-05	0	44	0	76546048	20	4223
2026-01-26 11:02:46.64	182.16	10.57	-29.7	-31.1	12.8	5.64e-05	0	44	0	78643200	20	4225
2026-01-26 11:02:47.65	182.22	10.66	-29.7	-31.1	12.8	4.80e-05	0	44	0	80740352	20	4207
2026-01-26 11:02:48.65	182.27	10.74	-29.8	-31.2	12.8	5.72e-05	0	44	0	81788928	20	4237
2026-01-26 11:02:49.66	182.32	10.83	-29.7	-31.1	12.9	5.34e-05	0	44	0	83886080	20	4219
2026-01-26 11:02:50.67	182.37	10.92	-29.7	-30.9	13.0	4.19e-05	0	44	0	85983232	20	4141
2026-01-26 11:02:51.67	182.42	11.01	-29.9	-31.6	12.6	4.95e-05	0	44	0	88080384	20	4358
2026-01-26 11:02:52.67	182.48	11.09	-30.0	-32.0	12.3	1.14e-04	0	44	0	90177536	20	4493
2026-01-26 11:02:53.67	182.53	11.18	-30.0	-31.8	12.4	1.38e-04	0	44	0	91226112	20	4437
2026-01-26 11:02:54.68	182.58	11.27	-30.1	-32.2	12.1	1.61e-04	0	44	0	93323264	20	4566
2026-01-26 11:02:55.67	182.63	11.36	-30.0	-31.8	12.4	4.93e-04	0	44	0	95420416	20	4424
2026-01-26 11:02:56.67	182.69	11.45	-30.0	-31.8	12.4	8.23e-05	0	44	0	97517568	20	4438
2026-01-26 11:02:57.67	182.74	11.54	-30.0	-31.9	12.3	2.03e-04	0	44	0	99614720	20	4462
2026-01-26 11:02:58.68	182.80	11.63	-29.9	-31.6	12.5	1.05e-04	0	44	0	100663296	20	4375
2026-01-26 11:02:59.68	182.85	11.72	-30.1	-32.0	12.3	1.01e-04	0	44	0	102760448	20	4499
2026-01-26 11:03:00.68	182.91	11.81	-30.0	-31.8	12.4	1.91e-04	0	44	0	104857600	20	4431
2026-01-26 11:03:01.69	182.96	11.90	-30.1	-32.0	12.2	1.59e-04	0	44	0	106954752	20	4514
2026-01-26 11:03:02.68	183.02	11.99	-30.0	-31.8	12.4	2.10e-04	0	44	0	108003328	20	4437
2026-01-26 11:03:03.69	183.07	12.08	-29.9	-31.5	12.7	1.26e-04	0	44	0	110100480	20	4321
2026-01-26 11:03:04.70	183.13	12.17	-29.8	-31.3	12.8	1.08e-04	0	44	0	112197632	20	4269
2026-01-26 11:03:05.70	183.19	12.26	-29.9	-31.5	12.7	7.70e-05	0	44	0	114294784	20	4321
2026-01-26 11:03:06.71	183.24	12.36	-29.9	-31.6	12.6	7.85e-05	0	44	0	116391936	20	4359
2026-01-26 11:03:07.71	183.30	12.45	-29.9	-31.5	12.6	6.79e-05	0	44	0	118489088	20	4352
2026-01-26 11:03:08.71	183.36	12.54	-29.8	-31.3	12.8	8.46e-05	0	44	0	119537664	20	4279
2026-01-26 11:03:09.71	183.42	12.63	-29.9	-31.6	12.6	6.86e-05	0	44	0	121634816	20	4359
2026-01-26 11:03:10.72	183.47	12.73	-29.9	-31.4	12.7	7.70e-05	0	44	0	123731968	20	4307
2026-01-26 11:03:11.72	183.53	12.82	-30.0	-31.7	12.5	7.55e-05	0	44	0	125829120	20	4406
2026-01-26 11:03:12.73	183.59	12.92	-29.9	-31.4	12.8	1.30e-04	0	44	0	126877696	20	4292
2026-01-26 11:03:13.73	183.65	13.01	-29.8	-31.1	13.0	3.89e-05	0	44	0	128974848	20	4213
2026-01-26 11:03:14.73	183.71	13.10	-29.8	-31.1	12.9	4.11e-05	0	44	0	131072000	20	4214
2026-01-26 11:03:15.73	183.77	13.20	-29.7	-31.0	13.1	4.42e-05	0	44	0	133169152	20	4161
2026-01-26 11:03:16.73	183.83	13.29	-29.6	-30.8	13.2	2.89e-05	0	44	0	135266304	20	4104
2026-01-26 11:03:17.74	183.89	13.39	-29.9	-31.5	12.7	4.27e-05	0	44	0	136314880	20	4338
2026-01-26 11:03:18.75	183.95	13.49	-29.8	-31.2	12.9	7.55e-05	0	44	0	138412032	20	4221
2026-01-26 11:03:19.75	184.01	13.58	-29.6	-30.7	13.2	3.73e-05	0	44	0	140509184	20	4084
2026-01-26 11:03:20.75	184.08	13.68	-29.7	-30.8	13.2	1.90e-05	0	44	0	142606336	20	4119
2026-01-26 11:03:21.76	184.14	13.78	-29.7	-30.9	13.2	3.81e-05	0	44	0	144703488	20	4129
2026-01-26 11:03:22.76	184.20	13.88	-29.7	-30.9	13.1	3.81e-05	0	44	0	145752064	20	4146
2026-01-26 11:03:23.76	184.26	13.97	-29.8	-31.2	13.0	3.50e-05	0	44	0	147849216	20	4218
2026-01-26 11:03:24.76	184.33	14.07	-29.6	-30.7	13.2	2.67e-05	0	44	0	149946368	20	4089
2026-01-26 11:03:25.77	184.39	14.17	-29.7	-30.9	13.2	2.44e-05	0	44	0	152043520	20	4122
2026-01-26 11:03:26.76	184.46	14.27	-29.7	-30.8	13.2	1.60e-05	0	44	0	154140672	20	4112
2026-01-26 11:03:27.77	184.52	14.37	-29.7	-30.8	13.3	2.21e-05	0	44	0	155189248	20	4084
2026-01-26 11:03:28.77	184.59	14.47	-29.7	-30.8	13.3	1.22e-05	0	44	0	157286400	20	4111
2026-01-26 11:03:29.78	184.65	14.57	-29.7	-30.8	13.3	3.20e-05	0	44	0	159383552	20	4088
2026-01-26 11:03:30.79	184.72	14.67	-29.6	-30.6	13.5	1.29e-05	0	44	0	161480704	20	4023
2026-01-26 11:03:31.79	184.78	14.77	-29.8	-31.1	13.1	2.21e-05	0	44	0	163577856	20	4172
2026-01-26 11:03:32.79	184.85	14.87	-29.7	-30.7	13.4	2.36e-05	0	44	0	164626432	20	4077
2026-01-26 11:03:33.80	184.92	14.98	-29.6	-30.5	13.5	2.36e-05	0	44	0	166723584	20	4020
2026-01-26 11:03:34.80	184.99	15.08	-29.5	-30.4	13.6	1.06e-05	0	44	0	168820736	20	3981
2026-01-26 11:03:35.80	185.05	15.18	-29.6	-30.6	13.4	9.10e-06	0	44	0	170917888	20	4047
2026-01-26 11:03:36.80	185.12	15.28	-29.5	-30.3	13.6	1.22e-05	0	44	0	171966464	20	3944
2026-01-26 11:03:37.81	185.19	15.39	-29.3	-30.2	14.0	3.80e-06	0	44	0	174063616	19	4000
2026-01-26 11:03:38.81	185.26	15.49	-29.3	-30.3	14.0	1.50e-06	0	44	0	176160768	19	4017
2026-01-26 11:03:39.81	185.33	15.60	-29.2	-29.9	14.3	4.50e-06	0	44	0	178257920	19	3923
2026-01-26 11:03:40.81	185.40	15.70	-29.2	-30.1	14.2	7.00e-07	0	44	0	180355072	19	3966
2026-01-26 11:03:41.81	185.47	15.81	-29.2	-30.0	14.3	7.00e-07	0	44	0	181403648	19	3942
2026-01-26 11:03:42.81	185.54	15.91	-29.2	-30.0	14.3	4.50e-06	0	44	0	183500800	19	3933
2026-01-26 11:03:43.81	185.61	16.02	-29.2	-30.0	14.3	7.00e-07	0	44	0	185597952	19	3945
2026-01-26 11:03:44.82	185.69	16.12	-29.2	-30.0	14.3	0.00e+00	0	44	0	187695104	19	3941
2026-01-26 11:03:45.82	185.76	16.23	-29.1	-29.8	14.4	7.00e-07	0	44	0	189792256	19	3884
2026-01-26 11:03:46.82	185.83	16.34	-29.4	-30.6	14.0	1.50e-06	0	44	0	190840832	19	4113
2026-01-26 11:03:47.82	185.91	16.44	-29.2	-29.9	14.4	1.50e-06	0	44	0	192937984	19	3908
2026-01-26 11:03:48.82	185.98	16.55	-29.3	-30.3	14.1	1.50e-06	0	44	0	195035136	19	4033
2026-01-26 11:03:49.82	186.05	16.66	-29.4	-30.6	13.9	1.50e-06	0	44	0	197132288	19	4117
2026-01-26 11:03:50.82	186.13	16.77	-29.3	-30.3	14.2	1.50e-06	0	44	0	199229440	19	4021
2026-01-26 11:03:51.82	186.20	16.88	-29.3	-30.3	14.2	3.80e-06	0	44	0	200278016	19	4024
2026-01-26 11:03:52.83	186.28	16.99	-29.4	-30.4	14.1	7.00e-07	0	44	0	202375168	19	4044
2026-01-26 11:03:53.83	186.36	17.10	-29.3	-30.1	14.2	7.00e-07	0	44	0	204472320	19	3972
2026-01-26 11:03:54.83	186.44	17.21	-29.4	-30.5	14.1	1.50e-06	0	44	0	206569472	19	4077
2026-01-26 11:03:55.83	186.51	17.32	-29.3	-30.3	14.1	4.50e-06	0	44	0	208666624	19	4036
2026-01-26 11:03:56.84	186.59	17.43	-29.1	-29.8	14.5	1.50e-06	0	44	0	209715200	19	3880
2026-01-26 11:03:57.85	186.67	17.55	-29.1	-29.8	14.5	7.00e-07	0	44	0	211812352	19	3869
2026-01-26 11:03:58.85	186.75	17.66	-29.1	-29.6	14.6	0.00e+00	0	44	0	213909504	19	3830
2026-01-26 11:03:59.86	186.83	17.77	-29.1	-29.6	14.6	0.00e+00	0	44	0	216006656	19	3827
2026-01-26 11:04:00.86	186.91	17.88	-29.0	-29.4	14.7	7.00e-07	0	44	0	218103808	19	3786
2026-01-26 11:04:01.87	186.99	18.00	-29.0	-29.5	14.6	0.00e+00	0	44	0	219152384	19	3811
2026-01-26 11:04:02.86	187.08	18.11	-29.0	-29.4	14.7	7.00e-07	0	44	0	221249536	19	3788
2026-01-26 11:04:03.87	187.16	18.23	-29.3	-30.1	14.3	0.00e+00	0	44	0	223346688	19	3969
2026-01-26 11:04:04.87	187.24	18.34	-29.1	-29.7	14.5	0.00e+00	0	44	0	225443840	19	3853
2026-01-26 11:04:05.87	187.32	18.46	-28.9	-29.2	14.9	0.00e+00	0	44	0	226492416	19	3733
2026-01-26 11:04:06.87	187.41	18.58	-28.8	-29.4	15.1	0.00e+00	0	44	0	228589568	18	3855
2026-01-26 11:04:07.87	187.49	18.69	-28.8	-29.3	15.1	0.00e+00	0	44	0	230686720	18	3845
2026-01-26 11:04:08.87	187.58	18.81	-28.7	-29.3	15.1	0.00e+00	0	44	0	232783872	18	3837
2026-01-26 11:04:09.87	187.67	18.93	-28.6	-29.0	15.4	0.00e+00	0	44	0	234881024	18	3749
2026-01-26 11:04:10.88	187.75	19.05	-28.7	-29.3	15.2	0.00e+00	0	44	0	235929600	18	3838
2026-01-26 11:04:11.88	187.84	19.16	-28.5	-28.6	15.6	0.00e+00	0	44	0	238026752	18	3654
2026-01-26 11:04:12.89	187.93	19.28	-28.5	-28.7	15.5	0.00e+00	0	44	0	240123904	18	3683
2026-01-26 11:04:13.89	188.02	19.40	-28.5	-28.5	15.7	0.00e+00	0	44	0	242221056	18	3639
2026-01-26 11:04:14.90	188.11	19.53	-28.4	-28.5	15.6	5.30e-06	0	44	0	244318208	18	3635
2026-01-26 11:04:15.90	188.20	19.65	-28.4	-28.5	15.7	0.00e+00	0	44	0	245366784	18	3622
2026-01-26 11:04:16.90	188.29	19.77	-28.4	-28.5	15.7	0.00e+00	0	44	0	247463936	18	3636
2026-01-26 11:04:17.90	188.38	19.89	-28.5	-28.7	15.6	0.00e+00	0	44	0	249561088	18	3671
2026-01-26 11:04:18.91	188.47	20.01	-28.7	-29.1	15.3	0.00e+00	0	44	0	251658240	18	3771
2026-01-26 11:04:19.92	188.57	20.14	-28.7	-29.1	15.3	0.00e+00	0	44	0	253755392	18	3777
2026-01-26 11:04:20.92	188.66	20.26	-29.0	-29.8	14.9	0.00e+00	0	44	0	254803968	18	3976
2026-01-26 11:04:21.92	188.75	20.38	-28.9	-29.7	14.9	0.00e+00	0	44	0	256901120	18	3953
2026-01-26 11:04:22.92	188.85	20.51	-29.0	-29.8	14.9	0.00e+00	0	44	0	258998272	18	3983
2026-01-26 11:04:23.93	188.94	20.63	-29.0	-30.1	14.7	0.00e+00	0	44	0	261095424	18	4050
2026-01-26 11:04:24.94	189.04	20.76	-29.1	-30.1	14.7	0.00e+00	0	44	0	263192576	18	4056
2026-01-26 11:04:25.94	189.14	20.89	-29.1	-30.2	14.7	0.00e+00	0	44	0	264241152	18	4075
2026-01-26 11:04:26.94	189.24	21.01	-29.0	-29.9	14.9	0.00e+00	0	44	0	266338304	18	3993
2026-01-26 11:04:27.95	189.34	21.14	-29.1	-30.2	14.7	0.00e+00	0	44	0	268435456	18	4102
2026-01-26 11:04:28.95	189.44	21.27	-28.9	-29.6	15.0	0.00e+00	0	44	0	270532608	18	3928
2026-01-26 11:04:29.95	189.54	21.40	-28.7	-29.3	15.1	6.10e-06	0	44	0	271581184	18	3861
2026-01-26 11:04:30.96	189.64	21.53	-28.7	-29.2	15.3	0.00e+00	0	44	0	273678336	18	3818
2026-01-26 11:04:31.96	189.74	21.66	-28.7	-29.2	15.3	0.00e+00	0	44	0	275775488	18	3815
2026-01-26 11:04:32.96	189.84	21.79	-28.6	-29.1	15.3	2.20e-06	0	44	0	277872640	18	3794
2026-01-26 11:04:33.95	189.95	21.92	-28.5	-28.8	15.5	0.00e+00	0	44	0	279969792	18	3724
2026-01-26 11:04:34.95	190.05	22.05	-28.6	-29.1	15.3	0.00e+00	0	44	0	281018368	18	3813
2026-01-26 11:04:35.96	190.16	22.18	-28.7	-29.2	15.3	3.00e-06	0	44	0	283115520	18	3815
2026-01-26 11:04:36.96	190.26	22.31	-28.6	-29.0	15.3	0.00e+00	0	44	0	285212672	18	3780
2026-01-26 11:04:37.96	190.37	22.45	-28.9	-29.7	15.0	0.00e+00	0	44	0	287309824	18	3962
2026-01-26 11:04:38.97	190.48	22.58	-28.7	-29.1	15.4	3.80e-06	0	44	0	289406976	18	3786
2026-01-26 11:04:39.97	190.59	22.72	-28.4	-28.5	15.8	0.00e+00	0	44	0	290455552	18	3626
2026-01-26 11:04:40.96	190.70	22.85	-28.5	-28.6	15.8	0.00e+00	0	44	0	292552704	18	3662
2026-01-26 11:04:41.96	190.81	22.98	-28.5	-28.7	15.7	2.20e-06	0	44	0	294649856	18	3680
2026-01-26 11:04:42.97	190.92	23.12	-28.6	-29.0	15.5	0.00e+00	0	44	0	296747008	18	3756
2026-01-26 11:04:43.97	191.03	23.26	-28.3	-28.2	15.9	0.00e+00	0	44	0	298844160	18	3554
2026-01-26 11:04:44.98	191.15	23.40	-28.2	-28.5	16.0	1.50e-06	0	44	0	299892736	17	3727
2026-01-26 11:04:45.98	191.26	23.54	-28.2	-28.4	16.1	0.00e+00	0	44	0	301989888	17	3690
2026-01-26 11:04:46.98	191.38	23.67	-28.1	-28.3	16.2	0.00e+00	0	44	0	304087040	17	3655
2026-01-26 11:04:47.98	191.49	23.81	-28.3	-28.7	16.0	0.00e+00	0	44	0	306184192	17	3769
2026-01-26 11:04:48.99	191.61	23.95	-28.1	-28.1	16.3	0.00e+00	0	44	0	308281344	17	3616
2026-01-26 11:04:49.99	191.73	24.09	-28.2	-28.5	16.1	0.00e+00	0	44	0	309329920	17	3714
2026-01-26 11:04:50.99	191.85	24.24	-28.1	-28.1	16.3	0.00e+00	0	44	0	311427072	17	3613
2026-01-26 11:04:51.99	191.97	24.38	-28.0	-28.0	16.4	0.00e+00	0	44	0	313524224	17	3598
2026-01-26 11:04:52.99	192.09	24.52	-28.0	-28.0	16.4	0.00e+00	0	44	0	315621376	17	3579
2026-01-26 11:04:53.99	192.21	24.66	-28.2	-28.5	16.1	2.20e-06	0	44	0	317718528	17	3723
2026-01-26 11:04:54.99	192.34	24.81	-28.0	-27.9	16.4	0.00e+00	0	44	0	318767104	17	3574
2026-01-26 11:04:55.99	192.46	24.95	-28.0	-27.9	16.5	0.00e+00	0	44	0	320864256	17	3566
2026-01-26 11:04:56.99	192.59	25.09	-28.2	-28.5	16.1	1.50e-06	0	44	0	322961408	17	3708
2026-01-26 11:04:57.99	192.72	25.24	-28.2	-28.4	16.2	0.00e+00	0	44	0	325058560	17	3681
2026-01-26 11:04:59.00	192.84	25.39	-28.3	-28.6	16.1	0.00e+00	0	44	0	326107136	17	3746
2026-01-26 11:04:59.99	192.97	25.53	-28.3	-28.6	16.1	0.00e+00	0	44	0	328204288	17	3725
2026-01-26 11:05:01.00	193.10	25.68	-28.3	-28.7	16.0	0.00e+00	0	44	0	330301440	17	3759
2026-01-26 11:05:02.00	193.24	25.83	-28.6	-29.4	15.6	0.00e+00	0	44	0	332398592	17	3929
2026-01-26 11:05:03.01	193.37	25.98	-28.4	-28.9	15.9	0.00e+00	0	44	0	334495744	17	3807
2026-01-26 11:05:04.01	193.50	26.13	-28.8	-29.9	15.3	0.00e+00	0	44	0	335544320	17	4069
2026-01-26 11:05:05.01	193.64	26.28	-29.0	-30.3	15.1	0.00e+00	0	44	0	337641472	17	4190
2026-01-26 11:05:06.02	193.78	26.43	-28.9	-29.7	15.2	7.00e-07	0	44	0	339738624	18	3918
2026-01-26 11:05:07.02	193.92	26.58	-29.2	-30.3	14.8	0.00e+00	0	44	0	341835776	18	4080
2026-01-26 11:05:08.03	194.06	26.74	-29.3	-30.5	14.7	0.00e+00	0	44	0	343932928	18	4144
2026-01-26 11:05:09.03	194.20	26.89	-29.6	-30.9	14.2	0.00e+00	0	44	0	344981504	19	4160
2026-01-26 11:05:10.03	194.34	27.04	-29.5	-30.5	14.4	0.00e+00	0	44	0	347078656	19	4059
2026-01-26 11:05:11.03	194.48	27.20	-29.7	-31.1	14.0	1.50e-06	0	44	0	349175808	19	4233
2026-01-26 11:05:12.03	194.63	27.35	-29.5	-30.6	14.3	1.50e-06	0	44	0	351272960	19	4090
2026-01-26 11:05:13.03	194.77	27.51	-29.7	-30.9	14.2	2.20e-06	0	44	0	353370112	19	4172
2026-01-26 11:05:14.04	194.92	27.67	-29.5	-30.6	14.4	7.00e-07	0	44	0	354418688	19	4076
2026-01-26 11:05:15.03	195.07	27.82	-29.1	-29.5	15.0	0.00e+00	0	44	0	356515840	19	3782
2026-01-26 11:05:16.04	195.22	27.98	-29.2	-29.8	14.9	7.00e-07	0	44	0	358612992	19	3845
2026-01-26 11:05:17.04	195.37	28.14	-29.3	-29.9	14.8	0.00e+00	0	44	0	360710144	19	3876
2026-01-26 11:05:18.05	195.53	28.30	-29.6	-30.8	14.3	0.00e+00	0	44	0	362807296	19	4134
2026-01-26 11:05:19.05	195.68	28.46	-29.7	-31.1	14.1	1.50e-06	0	44	0	363855872	19	4208
2026-01-26 11:05:20.05	195.84	28.62	-29.7	-31.0	14.1	1.50e-06	0	44	0	365953024	19	4199
2026-01-26 11:05:21.06	196.00	28.79	-29.8	-31.4	13.9	1.50e-06	0	44	0	368050176	19	4312
2026-01-26 11:05:22.06	196.16	28.95	-29.9	-31.0	13.8	6.80e-06	0	44	0	370147328	20	4097
2026-01-26 11:05:23.07	196.32	29.11	-30.2	-32.0	13.1	2.36e-05	0	44	0	372244480	20	4420
2026-01-26 11:05:24.08	196.48	29.28	-30.1	-31.5	13.4	1.22e-05	0	44	0	373293056	20	4254
2026-01-26 11:05:25.08	196.65	29.44	-30.2	-31.8	13.2	1.44e-05	0	44	0	375390208	20	4350
2026-01-26 11:05:26.08	196.81	29.61	-30.3	-32.1	13.1	4.04e-05	0	44	0	377487360	20	4457
2026-01-26 11:05:27.09	196.98	29.77	-30.8	-33.1	12.1	1.52e-04	0	44	0	379584512	21	4683
2026-01-26 11:05:28.09	197.15	29.94	-31.0	-33.6	11.8	2.67e-04	0	44	0	380633088	21	4880
2026-01-26 11:05:29.09	197.32	30.11	-31.3	-34.3	10.9	5.75e-04	0	44	0	382730240	22	5055
2026-01-26 11:05:30.10	197.49	30.28	-31.6	-34.6	10.4	3.42e-03	0	44	0	384827392	23	5097
2026-01-26 11:05:31.10	197.67	30.44	-31.6	-34.5	10.4	4.20e-03	0	44	0	386924544	23	5034
2026-01-26 11:05:32.11	197.85	30.61	-31.7	-34.8	10.2	6.11e-03	0	44	0	389021696	23	5176
2026-01-26 11:05:33.11	198.02	30.78	-31.7	-35.0	10.0	8.76e-03	0	44	0	391118848	23	5253
2026-01-26 11:05:34.11	198.20	30.96	-31.6	-34.4	10.4	4.17e-03	0	44	0	392167424	23	5017
2026-01-26 11:05:35.11	198.38	31.13	-31.3	-33.5	11.1	2.29e-03	0	44	0	394264576	23	4658
2026-01-26 11:05:36.12	198.57	31.30	-31.2	-33.1	11.4	1.23e-03	0	44	0	396361728	23	4517
2026-01-26 11:05:37.12	198.75	31.47	-30.9	-32.5	11.9	9.08e-04	0	44	0	398458880	23	4305
2026-01-26 11:05:38.11	198.94	31.64	-30.8	-32.1	12.1	4.36e-04	0	44	0	399507456	23	4169
2026-01-26 11:05:39.11	199.13	31.82	-30.9	-32.8	12.1	2.16e-04	0	44	0	401604608	22	4485
2026-01-26 11:05:40.12	199.32	31.99	-30.7	-32.1	12.5	1.62e-04	0	44	0	403701760	22	4254
2026-01-26 11:05:41.12	199.52	32.17	-30.8	-32.5	12.2	1.89e-04	0	44	0	405798912	22	4401
2026-01-26 11:05:42.12	199.71	32.35	-30.7	-32.3	12.3	2.45e-04	0	44	0	407896064	22	4322
2026-01-26 11:05:43.12	199.91	32.52	-30.5	-31.8	12.8	5.79e-05	0	44	0	408944640	22	4150
2026-01-26 11:05:44.12	200.11	32.70	-30.4	-31.3	13.0	8.77e-05	0	44	0	411041792	22	4008
2026-01-26 11:05:45.12	200.31	32.88	-30.1	-31.0	13.5	2.21e-05	0	44	0	413138944	21	4018
2026-01-26 11:05:46.12	200.51	33.06	-30.0	-30.8	13.7	4.50e-06	0	44	0	415236096	21	3945
2026-01-26 11:05:47.11	200.72	33.23	-29.8	-30.9	14.0	7.00e-07	0	44	0	417333248	20	4056
2026-01-26 11:05:48.11	200.93	33.42	-30.2	-31.9	13.3	8.30e-06	0	44	0	418381824	20	4362
2026-01-26 11:05:49.11	201.14	33.60	-30.0	-31.3	13.8	4.50e-06	0	44	0	420478976	20	4179
2026-01-26 11:05:50.11	201.35	33.78	-30.4	-32.4	13.0	1.29e-05	0	44	0	422576128	20	4526
2026-01-26 11:05:51.11	201.56	33.96	-30.6	-32.5	12.5	7.55e-05	0	44	0	424673280	21	4484
2026-01-26 11:05:52.11	201.78	34.14	-30.6	-32.6	12.5	7.55e-05	0	44	0	425721856	21	4512
2026-01-26 11:05:53.11	202.00	34.33	-30.6	-32.4	12.6	1.04e-04	0	44	0	427819008	21	4430
2026-01-26 11:05:54.12	202.23	34.51	-30.3	-31.7	13.2	6.02e-05	0	44	0	429916160	21	4231
2026-01-26 11:05:55.12	202.45	34.70	-30.5	-32.1	12.8	1.05e-04	0	44	0	432013312	21	4349
2026-01-26 11:05:56.12	202.68	34.88	-30.2	-31.3	13.4	3.05e-05	0	44	0	434110464	21	4091
2026-01-26 11:05:57.13	202.91	35.07	-30.1	-31.1	13.6	1.14e-05	0	44	0	435159040	21	4027
2026-01-26 11:05:58.13	203.14	35.25	-30.2	-31.3	13.3	1.83e-05	0	44	0	437256192	21	4101
2026-01-26 11:05:59.14	203.38	35.44	-30.1	-31.0	13.6	1.29e-05	0	44	0	439353344	21	3994
2026-01-26 11:06:00.14	203.62	35.63	-29.7	-30.6	14.1	7.00e-07	0	44	0	441450496	20	3961
2026-01-26 11:06:01.14	203.86	35.82	-29.8	-30.7	14.1	3.00e-06	0	44	0	443547648	20	4005
2026-01-26 11:06:02.14	204.10	36.01	-30.2	-31.9	13.4	1.37e-05	0	44	0	444596224	20	4368
2026-01-26 11:06:03.14	204.35	36.20	-30.4	-32.0	12.9	2.59e-05	0	44	0	446693376	21	4303
2026-01-26 11:06:04.14	204.60	36.39	-30.5	-32.2	12.7	8.08e-05	0	44	0	448790528	21	4389
2026-01-26 11:06:05.15	204.85	36.58	-30.6	-32.5	12.6	9.38e-05	0	44	0	450887680	21	4482
2026-01-26 11:06:06.15	205.10	36.77	-30.5	-32.3	12.7	2.04e-04	0	44	0	452984832	21	4415
2026-01-26 11:06:07.15	205.36	36.96	-30.2	-31.4	13.4	3.66e-05	0	44	0	454033408	21	4114
2026-01-26 11:06:08.16	205.63	37.15	-30.0	-30.9	13.6	1.44e-05	0	44	0	456130560	21	3977
2026-01-26 11:06:09.16	205.89	37.35	-30.1	-31.2	13.5	1.06e-05	0	44	0	458227712	21	4057
2026-01-26 11:06:10.16	206.16	37.54	-30.1	-31.0	13.7	1.37e-05	0	44	0	460324864	21	4022
2026-01-26 11:06:11.16	206.43	37.73	-29.7	-30.6	14.2	3.00e-06	0	44	0	462422016	20	3981
2026-01-26 11:06:12.16	206.70	37.93	-29.8	-30.8	14.1	4.50e-06	0	44	0	463470592	20	4027
2026-01-26 11:06:13.17	206.98	38.12	-29.6	-30.4	14.3	7.00e-07	0	44	0	465567744	20	3925
2026-01-26 11:06:14.17	207.26	38.31	-29.4	-29.7	14.8	0.00e+00	0	44	0	467664896	20	3723
2026-01-26 11:06:15.17	207.54	38.51	-29.4	-30.2	14.8	7.00e-07	0	44	0	469762048	19	3959
2026-01-26 11:06:16.18	207.83	38.71	-29.4	-30.1	14.9	0.00e+00	0	44	0	470810624	19	3918
2026-01-26 11:06:17.19	208.12	38.90	-29.5	-30.3	14.8	0.00e+00	0	44	0	472907776	19	3983
2026-01-26 11:06:18.19	208.41	39.10	-29.4	-30.3	14.7	0.00e+00	0	44	0	475004928	19	3979
2026-01-26 11:06:19.19	208.71	39.29	-29.7	-31.0	14.4	1.50e-06	0	44	0	477102080	19	4167
2026-01-26 11:06:20.19	209.01	39.49	-29.5	-30.4	14.7	7.00e-07	0	44	0	479199232	19	4003
2026-01-26 11:06:21.19	209.31	39.69	-29.3	-29.9	15.0	0.00e+00	0	44	0	480247808	19	3873
2026-01-26 11:06:22.19	209.62	39.88	-29.0	-29.3	15.4	0.00e+00	0	44	0	482344960	19	3713
2026-01-26 11:06:23.18	209.93	40.08	-28.6	-28.8	16.0	0.00e+00	0	44	0	484442112	18	3671
2026-01-26 11:06:24.19	210.25	40.28	-28.4	-28.2	16.3	0.00e+00	0	44	0	486539264	18	3533
2026-01-26 11:06:25.19	210.57	40.47	-28.8	-29.2	15.7	0.00e+00	0	44	0	488636416	18	3764
2026-01-26 11:06:26.20	210.89	40.67	-29.3	-30.5	15.0	0.00e+00	0	44	0	489684992	18	4127
2026-01-26 11:06:27.20	211.22	40.87	-29.6	-30.7	14.5	0.00e+00	0	44	0	491782144	19	4095
2026-01-26 11:06:28.20	211.55	41.07	-29.7	-31.0	14.3	7.00e-07	0	44	0	493879296	19	4179
2026-01-26 11:06:29.21	211.88	41.27	-29.8	-31.3	14.1	0.00e+00	0	44	0	495976448	19	4263
2026-01-26 11:06:30.22	212.23	41.47	-29.9	-30.9	14.1	3.00e-06	0	44	0	498073600	20	4063
2026-01-26 11:06:31.22	212.57	41.66	-30.0	-31.4	13.8	3.00e-06	0	44	0	499122176	20	4197
2026-01-26 11:06:32.23	212.92	41.86	-29.9	-30.9	14.0	6.80e-06	0	44	0	501219328	20	4059
2026-01-26 11:06:33.24	213.27	42.06	-30.0	-31.3	13.8	7.00e-07	0	44	0	503316480	20	4155
2026-01-26 11:06:34.24	213.63	42.26	-29.6	-30.2	14.4	2.20e-06	0	44	0	505413632	20	3848
2026-01-26 11:06:35.25	213.99	42.46	-29.9	-30.9	14.0	2.20e-06	0	44	0	507510784	20	4060
2026-01-26 11:06:36.25	214.35	42.65	-29.8	-30.6	14.2	4.50e-06	0	44	0	508559360	20	3963
2026-01-26 11:06:37.26	214.73	42.85	-29.9	-31.0	14.0	3.80e-06	0	44	0	510656512	20	4095
2026-01-26 11:06:38.26	215.10	43.05	-29.7	-30.4	14.4	7.00e-07	0	44	0	512753664	20	3898
2026-01-26 11:06:39.25	215.47	43.24	-29.6	-30.3	14.5	0.00e+00	0	44	0	514850816	20	3875
2026-01-26 11:06:40.26	215.86	43.44	-29.6	-30.3	14.5	7.00e-07	0	44	0	516947968	20	3883
2026-01-26 11:06:41.26	216.24	43.63	-30.2	-31.9	13.5	6.80e-06	0	44	0	517996544	20	4357
2026-01-26 11:06:42.27	216.64	43.83	-30.6	-32.5	12.8	5.56e-05	0	44	0	520093696	21	4450
2026-01-26 11:06:43.27	217.03	44.02	-31.0	-33.0	12.1	2.11e-04	0	44	0	522190848	22	4522
2026-01-26 11:06:44.26	217.43	44.22	-30.9	-32.9	12.2	2.84e-04	0	44	0	524288000	22	4485
2026-01-26 11:06:45.27	217.84	44.41	-30.4	-31.4	13.1	9.76e-05	0	44	0	526385152	22	4019
2026-01-26 11:06:46.27	218.25	44.60	-30.1	-30.9	13.7	1.37e-05	0	44	0	527433728	21	3965
2026-01-26 11:06:47.28	218.67	44.80	-29.8	-30.8	14.2	3.00e-06	0	44	0	529530880	20	4011
2026-01-26 11:06:48.28	219.09	44.99	-29.9	-30.9	14.1	1.50e-06	0	44	0	531628032	20	4055
2026-01-26 11:06:49.28	219.51	45.18	-30.2	-31.7	13.6	4.50e-06	0	44	0	533725184	20	4281
2026-01-26 11:06:50.28	219.94	45.37	-30.4	-31.9	13.2	1.06e-05	0	44	0	534773760	21	4270
2026-01-26 11:06:51.28	220.38	45.55	-30.9	-33.3	12.2	1.06e-04	0	44	0	536870912	21	4734
2026-01-26 11:06:52.29	220.82	45.74	-31.2	-33.5	11.8	4.69e-04	0	44	0	538968064	22	4696
2026-01-26 11:06:53.29	221.27	45.93	-31.2	-33.7	11.5	6.97e-04	0	44	0	541065216	22	4791
2026-01-26 11:06:54.29	221.72	46.12	-30.9	-32.6	12.4	3.02e-04	0	44	0	543162368	22	4394
2026-01-26 11:06:55.30	222.18	46.30	-30.6	-31.8	13.0	3.81e-05	0	44	0	544210944	22	4125
2026-01-26 11:06:56.31	222.65	46.49	-30.7	-32.2	12.7	1.67e-05	0	44	0	546308096	22	4268
2026-01-26 11:06:57.31	223.11	46.67	-30.9	-32.8	12.3	1.72e-04	0	44	0	548405248	22	4454
2026-01-26 11:06:58.32	223.59	46.85	-30.9	-32.8	12.2	3.11e-04	0	44	0	550502400	22	4462
2026-01-26 11:06:59.32	224.07	47.03	-30.7	-32.0	12.8	1.04e-04	0	44	0	552599552	22	4197
2026-01-26 11:07:00.33	224.56	47.21	-30.7	-32.1	12.7	3.58e-05	0	44	0	553648128	22	4247
2026-01-26 11:07:01.33	225.04	47.39	-30.5	-31.6	13.0	6.63e-05	0	44	0	555745280	22	4084
2026-01-26 11:07:02.33	225.54	47.56	-30.5	-31.5	13.1	1.98e-05	0	44	0	557842432	22	4058
2026-01-26 11:07:03.33	226.04	47.73	-30.3	-31.5	13.5	9.90e-06	0	44	0	559939584	21	4129
2026-01-26 11:07:04.33	226.54	47.91	-30.3	-31.6	13.3	1.22e-05	0	44	0	562036736	21	4166
2026-01-26 11:07:05.34	227.06	48.08	-30.4	-31.8	13.3	2.36e-05	0	44	0	563085312	21	4218
2026-01-26 11:07:06.34	227.57	48.25	-30.2	-31.2	13.6	2.21e-05	0	44	0	565182464	21	4047
2026-01-26 11:07:07.35	228.10	48.41	-29.8	-30.6	14.3	1.50e-06	0	44	0	567279616	20	3949
2026-01-26 11:07:08.35	228.63	48.58	-29.5	-29.8	14.9	0.00e+00	0	44	0	569376768	20	3741
2026-01-26 11:07:09.35	229.16	48.74	-29.3	-29.5	15.0	0.00e+00	0	44	0	571473920	20	3668
2026-01-26 11:07:10.35	229.70	48.90	-29.8	-30.7	14.3	0.00e+00	0	44	0	572522496	20	3991
2026-01-26 11:07:11.35	230.24	49.06	-30.2	-31.7	13.7	2.20e-06	0	44	0	574619648	20	4269
2026-01-26 11:07:12.36	230.80	49.22	-30.3	-31.4	13.5	2.74e-05	0	44	0	576716800	21	4102
2026-01-26 11:07:13.36	231.35	49.37	-30.4	-31.8	13.3	2.13e-05	0	44	0	578813952	21	4232
2026-01-26 11:07:14.36	231.91	49.52	-30.5	-32.0	13.2	2.97e-05	0	44	0	580911104	21	4286
2026-01-26 11:07:15.37	232.49	49.67	-30.8	-32.9	12.5	6.94e-05	0	44	0	581959680	21	4605
2026-01-26 11:07:16.38	233.06	49.82	-30.6	-32.5	12.8	1.22e-04	0	44	0	584056832	21	4442
2026-01-26 11:07:17.38	233.64	49.96	-30.5	-32.2	13.1	4.27e-05	0	44	0	586153984	21	4341
2026-01-26 11:07:18.39	234.23	50.11	-30.4	-31.6	13.4	3.43e-05	0	44	0	588251136	21	4171
2026-01-26 11:07:19.39	234.82	50.25	-30.2	-31.2	13.7	1.29e-05	0	44	0	589299712	21	4055
2026-01-26 11:07:20.39	235.41	50.38	-30.3	-31.5	13.5	3.05e-05	0	44	0	591396864	21	4130
2026-01-26 11:07:21.40	236.01	50.52	-30.2	-31.2	13.7	1.44e-05	0	44	0	593494016	21	4028
2026-01-26 11:07:22.40	236.62	50.65	-30.3	-31.4	13.6	7.60e-06	0	44	0	595591168	21	4094
2026-01-26 11:07:23.41	237.23	50.78	-30.7	-32.6	12.8	1.29e-05	0	44	0	597688320	21	4455
2026-01-26 11:07:24.41	237.84	50.90	-30.6	-32.3	13.0	7.78e-05	0	44	0	599785472	21	4385
2026-01-26 11:07:25.41	238.46	51.02	-30.6	-32.2	12.9	3.66e-05	0	44	0	600834048	21	4333
2026-01-26 11:07:26.42	239.09	51.14	-30.6	-32.2	13.1	3.12e-05	0	44	0	602931200	21	4346
2026-01-26 11:07:27.42	239.72	51.25	-31.0	-32.9	12.3	8.77e-05	0	44	0	605028352	22	4483
2026-01-26 11:07:28.42	240.35	51.37	-30.9	-32.7	12.5	1.40e-04	0	44	0	607125504	22	4423
2026-01-26 11:07:29.42	240.99	51.47	-30.2	-31.1	13.7	3.50e-05	0	44	0	608174080	21	4017
2026-01-26 11:07:30.43	241.64	51.58	-30.5	-32.1	13.2	1.37e-05	0	44	0	610271232	21	4299
2026-01-26 11:07:31.43	242.29	51.68	-30.1	-30.9	13.8	1.67e-05	0	44	0	612368384	21	3949
2026-01-26 11:07:32.43	242.94	51.78	-29.4	-29.7	14.9	1.50e-06	0	44	0	614465536	20	3723
2026-01-26 11:07:33.44	243.60	51.87	-28.9	-28.9	15.7	0.00e+00	0	44	0	616562688	19	3595
2026-01-26 11:07:34.44	244.26	51.96	-29.0	-29.7	15.7	1.50e-06	0	44	0	617611264	18	3886
2026-01-26 11:07:35.44	244.92	52.05	-29.5	-30.4	14.9	0.00e+00	0	44	0	619708416	19	3978
2026-01-26 11:07:36.45	245.60	52.13	-29.4	-30.0	15.2	7.00e-07	0	44	0	621805568	19	3876
2026-01-26 11:07:37.45	246.27	52.21	-28.8	-28.7	15.9	0.00e+00	0	44	0	623902720	19	3535
2026-01-26 11:07:38.45	246.94	52.29	-29.1	-29.9	15.5	0.00e+00	0	44	0	625999872	18	3948
2026-01-26 11:07:39.45	247.62	52.36	-29.5	-30.3	14.9	0.00e+00	0	44	0	627048448	19	3959
2026-01-26 11:07:40.46	248.31	52.43	-29.4	-30.2	15.0	7.00e-07	0	44	0	629145600	19	3917
2026-01-26 11:07:41.46	248.99	52.49	-29.2	-29.6	15.3	0.00e+00	0	44	0	631242752	19	3770
2026-01-26 11:07:42.46	249.67	52.55	-29.4	-30.2	15.1	0.00e+00	0	44	0	633339904	19	3924
2026-01-26 11:07:43.46	250.36	52.60	-29.1	-29.4	15.5	0.00e+00	0	44	0	635437056	19	3710
2026-01-26 11:07:44.46	251.05	52.65	-29.3	-29.7	15.3	0.00e+00	0	44	0	636485632	19	3799
2026-01-26 11:07:45.47	251.76	52.70	-29.5	-30.4	14.9	0.00e+00	0	44	0	638582784	19	3993
2026-01-26 11:07:46.47	252.45	52.74	-30.3	-32.1	13.5	3.00e-06	0	44	0	640679936	20	4400
2026-01-26 11:07:47.47	253.15	52.78	-30.4	-32.1	13.5	1.14e-05	0	44	0	642777088	20	4395
2026-01-26 11:07:48.48	253.85	52.81	-30.4	-31.7	13.4	1.06e-05	0	44	0	644874240	21	4189
2026-01-26 11:07:49.48	254.55	52.84	-29.9	-30.3	14.3	6.80e-06	0	44	0	645922816	21	3794
2026-01-26 11:07:50.48	255.26	52.87	-29.5	-29.8	14.9	7.00e-07	0	44	0	648019968	20	3724
2026-01-26 11:07:51.48	255.96	52.89	-29.6	-30.2	14.7	0.00e+00	0	44	0	650117120	20	3829
2026-01-26 11:07:52.49	256.67	52.91	-30.2	-31.5	13.9	8.30e-06	0	44	0	652214272	20	4212
2026-01-26 11:07:53.50	257.38	52.92	-30.3	-31.8	13.5	8.30e-06	0	44	0	653262848	20	4306
2026-01-26 11:07:54.50	258.09	52.93	-29.5	-29.8	14.9	6.10e-06	0	44	0	655360000	20	3742
2026-01-26 11:07:55.50	258.79	52.93	-30.0	-31.0	14.2	0.00e+00	0	44	0	657457152	20	4072
2026-01-26 11:07:56.51	259.50	52.93	-30.6	-32.2	13.1	1.75e-05	0	44	0	659554304	21	4342
2026-01-26 11:07:57.51	260.21	52.92	-30.4	-31.7	13.3	6.17e-05	0	44	0	661651456	21	4181
2026-01-26 11:07:58.51	260.91	52.91	-30.2	-31.1	13.8	9.10e-06	0	44	0	663748608	21	3994
2026-01-26 11:07:59.51	261.62	52.90	-30.3	-31.5	13.7	7.60e-06	0	44	0	664797184	21	4121
2026-01-26 11:08:00.51	262.32	52.88	-30.2	-31.2	13.7	1.29e-05	0	44	0	666894336	21	4034
2026-01-26 11:08:01.52	263.03	52.86	-29.4	-29.5	15.1	1.50e-06	0	44	0	668991488	20	3664
2026-01-26 11:08:02.52	263.73	52.83	-29.4	-30.0	15.2	0.00e+00	0	44	0	671088640	19	3872
2026-01-26 11:08:03.52	264.43	52.80	-30.0	-31.2	14.1	0.00e+00	0	44	0	672137216	20	4129
2026-01-26 11:08:04.52	265.13	52.76	-30.5	-32.0	13.2	1.22e-05	0	44	0	674234368	21	4281
2026-01-26 11:08:05.53	265.83	52.72	-30.1	-31.0	13.9	1.52e-05	0	44	0	676331520	21	3975
2026-01-26 11:08:06.53	266.53	52.68	-29.9	-30.4	14.3	6.10e-06	0	44	0	678428672	21	3797
2026-01-26 11:08:07.54	267.22	52.63	-30.0	-30.7	14.0	2.20e-06	0	44	0	680525824	21	3895
2026-01-26 11:08:08.54	267.91	52.58	-29.4	-29.5	15.1	1.50e-06	0	44	0	681574400	20	3664
2026-01-26 11:08:09.54	268.60	52.52	-28.6	-28.7	16.3	6.10e-06	0	44	0	683671552	18	3637
2026-01-26 11:08:10.54	269.28	52.46	-28.6	-28.7	16.2	0.00e+00	0	44	0	685768704	18	3619
2026-01-26 11:08:11.54	269.97	52.39	-29.0	-29.7	15.6	0.00e+00	0	44	0	687865856	18	3889
2026-01-26 11:08:12.55	270.65	52.32	-28.8	-29.1	16.0	3.00e-06	0	44	0	689963008	18	3723
2026-01-26 11:08:13.55	271.33	52.25	-28.6	-28.7	16.2	0.00e+00	0	44	0	691011584	18	3644
2026-01-26 11:08:14.55	272.00	52.17	-28.5	-28.4	16.4	0.00e+00	0	44	0	693108736	18	3559
2026-01-26 11:08:15.55	272.67	52.09	-28.5	-28.3	16.4	0.00e+00	0	44	0	695205888	18	3538
2026-01-26 11:08:16.55	273.33	52.01	-28.4	-28.1	16.6	0.00e+00	0	44	0	697303040	18	3483
2026-01-26 11:08:17.55	273.99	51.92	-28.3	-28.5	16.7	0.00e+00	0	44	0	698351616	17	3682
2026-01-26 11:08:18.55	274.65	51.83	-28.7	-29.4	16.1	0.00e+00	0	44	0	700448768	17	3908
2026-01-26 11:08:19.55	275.30	51.73	-29.0	-29.7	15.7	0.00e+00	0	44	0	702545920	18	3887
2026-01-26 11:08:20.55	275.95	51.63	-28.9	-29.4	15.8	0.00e+00	0	44	0	704643072	18	3815
2026-01-26 11:08:21.55	276.59	51.53	-29.0	-29.7	15.7	3.00e-06	0	44	0	706740224	18	3889
2026-01-26 11:08:22.56	277.24	51.42	-29.3	-30.3	15.2	0.00e+00	0	44	0	707788800	18	4048
2026-01-26 11:08:23.56	277.87	51.31	-30.0	-31.5	14.3	0.00e+00	0	44	0	709885952	19	4312
2026-01-26 11:08:24.56	278.50	51.20	-30.0	-31.2	14.0	5.30e-06	0	44	0	711983104	20	4115
2026-01-26 11:08:25.56	279.13	51.09	-29.6	-30.2	14.7	2.20e-06	0	44	0	714080256	20	3853
2026-01-26 11:08:26.56	279.75	50.97	-29.3	-29.7	15.3	0.00e+00	0	44	0	716177408	19	3805
2026-01-26 11:08:27.57	280.37	50.84	-29.5	-30.4	15.0	0.00e+00	0	44	0	717225984	19	3988
2026-01-26 11:08:28.58	280.98	50.72	-29.8	-31.2	14.5	0.00e+00	0	44	0	719323136	19	4203
2026-01-26 11:08:29.58	281.59	50.59	-29.7	-30.9	14.6	0.00e+00	0	44	0	721420288	19	4125
2026-01-26 11:08:30.59	282.19	50.46	-29.9	-31.3	14.5	0.00e+00	0	44	0	723517440	19	4229
2026-01-26 11:08:31.59	282.79	50.32	-30.1	-31.3	14.1	0.00e+00	0	44	0	725614592	20	4164
2026-01-26 11:08:32.60	283.38	50.18	-30.6	-32.4	13.0	1.98e-05	0	44	0	726663168	21	4396
2026-01-26 11:08:33.60	283.97	50.04	-31.2	-33.5	11.9	1.80e-04	0	44	0	728760320	22	4698
2026-01-26 11:08:34.60	284.55	49.90	-31.2	-33.0	11.9	8.06e-04	0	44	0	730857472	23	4424
2026-01-26 11:08:35.61	285.13	49.76	-30.1	-30.8	14.0	4.88e-05	0	44	0	732954624	21	3905
2026-01-26 11:08:36.61	285.69	49.61	-29.4	-29.5	15.1	7.00e-07	0	44	0	735051776	20	3671
2026-01-26 11:08:37.61	286.26	49.46	-29.4	-30.0	15.2	7.00e-07	0	44	0	736100352	19	3861
2026-01-26 11:08:38.62	286.82	49.30	-29.6	-30.6	14.9	0.00e+00	0	44	0	738197504	19	4039
2026-01-26 11:08:39.63	287.37	49.15	-30.2	-31.6	13.9	3.80e-06	0	44	0	740294656	20	4230
2026-01-26 11:08:40.64	287.93	48.99	-30.6	-32.3	13.0	6.80e-06	0	44	0	742391808	21	4368
2026-01-26 11:08:41.64	288.47	48.83	-30.5	-32.0	13.3	1.75e-05	0	44	0	744488960	21	4255
2026-01-26 11:08:42.65	289.01	48.67	-31.0	-33.2	12.5	4.80e-05	0	44	0	745537536	21	4658
2026-01-26 11:08:43.65	289.53	48.51	-31.1	-33.1	12.2	2.16e-04	0	44	0	747634688	22	4519
2026-01-26 11:08:44.65	290.06	48.34	-31.3	-33.8	11.8	2.93e-04	0	44	0	749731840	22	4777
2026-01-26 11:08:45.65	290.58	48.18	-30.9	-32.7	12.5	1.46e-04	0	44	0	751828992	22	4390
2026-01-26 11:08:46.66	291.09	48.01	-31.0	-32.8	12.4	1.27e-04	0	44	0	753926144	22	4448
2026-01-26 11:08:47.66	291.60	47.84	-31.2	-33.4	12.0	2.08e-04	0	44	0	754974720	22	4647
2026-01-26 11:08:48.66	292.10	47.66	-31.7	-34.4	10.8	1.25e-03	0	44	0	757071872	23	4939
2026-01-26 11:08:49.66	292.60	47.49	-31.8	-34.9	10.6	3.90e-03	0	44	0	759169024	23	5137
2026-01-26 11:08:50.67	293.09	47.31	-32.3	-36.0	9.5	9.55e-03	0	44	0	761266176	24	5524
2026-01-26 11:08:51.67	293.58	47.14	-32.8	-37.4	8.0	3.72e-02	0	44	0	763363328	25	6140
2026-01-26 11:08:52.67	294.06	46.96	-32.7	-37.2	8.2	9.47e-02	0	44	0	764411904	25	6014
2026-01-26 11:08:53.67	294.53	46.78	-32.0	-34.5	10.1	1.81e-02	0	44	0	766509056	25	4787
2026-01-26 11:08:54.67	295.00	46.60	-31.7	-34.0	10.9	4.20e-03	0	44	0	768606208	24	4664
2026-01-26 11:08:55.67	295.46	46.42	-32.4	-36.4	9.1	5.48e-03	0	44	0	770703360	24	5730
2026-01-26 11:08:56.67	295.92	46.23	-33.3	-39.6	6.0	2.40e-01	0	44	0	771751936	26	7475
2026-01-26 11:08:57.66	296.37	46.05	-33.5	-41.0	4.8	8.22e-01	0	44	0	773849088	27	8442
2026-01-26 11:08:58.67	296.82	45.87	-33.2	-38.3	6.5	4.46e-01	0	44	0	775946240	27	6504
2026-01-26 11:08:59.67	297.26	45.68	-32.7	-36.5	8.4	1.14e-01	0	44	0	778043392	26	5560
2026-01-26 11:09:00.67	297.70	45.49	-32.2	-35.1	9.7	1.98e-02	0	44	0	780140544	25	5035
2026-01-26 11:09:01.67	298.13	45.31	-32.0	-34.5	10.2	6.77e-03	0	44	0	781189120	25	4779
2026-01-26 11:09:02.68	298.56	45.11	-32.5	-36.3	8.8	1.67e-02	0	44	0	783286272	25	5585
2026-01-26 11:09:03.67	298.98	44.93	-32.9	-38.2	7.3	8.31e-02	0	44	0	785383424	25	6609
2026-01-26 11:09:04.68	299.40	44.73	-33.0	-38.0	6.9	2.03e-01	0	44	0	787480576	26	6427
2026-01-26 11:09:05.68	299.81	44.54	-32.5	-35.8	8.8	8.96e-02	0	44	0	789577728	26	5264
2026-01-26 11:09:06.68	300.22	44.35	-31.8	-34.0	10.5	1.74e-02	0	44	0	790626304	25	4591
2026-01-26 11:09:07.68	300.62	44.16	-31.7	-34.0	10.8	2.08e-03	0	44	0	792723456	24	4688
2026-01-26 11:09:08.69	301.02	43.97	-31.6	-33.7	11.0	2.34e-03	0	44	0	794820608	24	4592
2026-01-26 11:09:09.68	301.41	43.77	-31.2	-32.9	11.9	8.23e-04	0	44	0	796917760	23	4404
2026-01-26 11:09:10.68	301.80	43.58	-31.2	-32.9	12.0	3.42e-04	0	44	0	799014912	23	4386
2026-01-26 11:09:11.69	302.19	43.38	-31.0	-32.3	12.3	2.59e-04	0	44	0	800063488	23	4207
2026-01-26 11:09:12.69	302.56	43.19	-30.5	-31.5	13.1	1.17e-04	0	44	0	802160640	22	4038
2026-01-26 11:09:13.70	302.94	42.99	-29.4	-29.5	15.0	1.50e-06	0	44	0	804257792	20	3653
2026-01-26 11:09:14.70	303.31	42.80	-29.4	-30.2	15.0	0.00e+00	0	44	0	806354944	19	3922
2026-01-26 11:09:15.70	303.68	42.60	-30.0	-31.5	14.2	7.00e-07	0	44	0	807403520	19	4308
2026-01-26 11:09:16.71	304.04	42.41	-30.3	-32.0	13.5	4.50e-06	0	44	0	809500672	20	4359
2026-01-26 11:09:17.71	304.40	42.21	-30.2	-31.7	13.7	9.10e-06	0	44	0	811597824	20	4275
2026-01-26 11:09:18.71	304.75	42.01	-29.5	-29.9	14.8	0.00e+00	0	44	0	813694976	20	3771
2026-01-26 11:09:19.71	305.10	41.82	-29.3	-29.8	15.2	0.00e+00	0	44	0	815792128	19	3832
2026-01-26 11:09:20.72	305.45	41.62	-29.5	-30.4	14.9	0.00e+00	0	44	0	816840704	19	3988
2026-01-26 11:09:21.71	305.78	41.43	-30.4	-32.2	13.5	6.80e-06	0	44	0	818937856	20	4419
2026-01-26 11:09:22.71	306.12	41.23	-30.9	-33.1	12.4	7.62e-05	0	44	0	821035008	21	4630
2026-01-26 11:09:23.72	306.45	41.03	-31.1	-33.3	11.9	1.81e-04	0	44	0	823132160	22	4639
2026-01-26 11:09:24.72	306.78	40.83	-31.2	-33.6	11.9	3.20e-04	0	44	0	825229312	22	4722
2026-01-26 11:09:25.73	307.11	40.64	-30.9	-32.7	12.3	3.89e-04	0	44	0	826277888	22	4429
2026-01-26 11:09:26.73	307.43	40.44	-30.5	-31.4	13.2	1.05e-04	0	44	0	828375040	22	4001
2026-01-26 11:09:27.74	307.75	40.24	-30.5	-31.5	13.2	2.28e-05	0	44	0	830472192	22	4036
2026-01-26 11:09:28.75	308.06	40.04	-31.1	-33.2	12.0	1.74e-04	0	44	0	832569344	22	4602
2026-01-26 11:09:29.75	308.37	39.85	-30.9	-32.7	12.4	2.83e-04	0	44	0	834666496	22	4419
2026-01-26 11:09:30.75	308.68	39.65	-30.6	-31.9	12.9	9.84e-05	0	44	0	835715072	22	4153
2026-01-26 11:09:31.76	308.98	39.46	-30.1	-30.8	13.9	4.50e-06	0	44	0	837812224	21	3932
2026-01-26 11:09:32.76	309.28	39.26	-30.2	-31.1	13.7	6.10e-06	0	44	0	839909376	21	3996
2026-01-26 11:09:33.76	309.57	39.07	-30.7	-32.5	12.8	4.04e-05	0	44	0	842006528	21	4440
2026-01-26 11:09:34.76	309.86	38.87	-31.4	-34.2	11.3	5.38e-04	0	44	0	844103680	22	4979
2026-01-26 11:09:35.76	310.15	38.68	-32.0	-35.2	9.7	4.72e-03	0	44	0	845152256	24	5198
2026-01-26 11:09:36.76	310.44	38.49	-31.7	-34.1	10.5	9.64e-03	0	44	0	847249408	24	4754
2026-01-26 11:09:37.76	310.72	38.29	-30.9	-32.1	12.4	3.35e-04	0	44	0	849346560	23	4152
2026-01-26 11:09:38.76	310.99	38.10	-30.5	-31.5	13.1	3.81e-05	0	44	0	851443712	22	4032
2026-01-26 11:09:39.76	311.27	37.91	-30.7	-32.0	12.8	4.80e-05	0	44	0	853540864	22	4191
2026-01-26 11:09:40.76	311.54	37.71	-31.1	-33.4	11.9	1.55e-04	0	44	0	854589440	22	4653
2026-01-26 11:09:41.76	311.81	37.52	-31.8	-35.2	10.2	2.24e-03	0	44	0	856686592	23	5267
2026-01-26 11:09:42.76	312.07	37.33	-32.3	-36.4	8.9	1.81e-02	0	44	0	858783744	24	5755
2026-01-26 11:09:43.76	312.33	37.14	-32.5	-36.5	8.4	4.64e-02	0	44	0	860880896	25	5702
2026-01-26 11:09:44.76	312.59	36.95	-31.9	-34.3	10.1	1.51e-02	0	44	0	861929472	25	4743
2026-01-26 11:09:45.77	312.85	36.76	-30.6	-31.9	12.8	5.18e-04	0	44	0	864026624	22	4165
2026-01-26 11:09:46.78	313.11	36.57	-30.2	-31.3	13.5	2.36e-05	0	44	0	866123776	21	4076
2026-01-26 11:09:47.79	313.36	36.38	-30.2	-31.3	13.5	9.10e-06	0	44	0	868220928	21	4066
2026-01-26 11:09:48.79	313.61	36.19	-30.3	-31.5	13.4	1.52e-05	0	44	0	870318080	21	4136
2026-01-26 11:09:49.78	313.85	36.00	-30.8	-33.1	12.4	5.41e-05	0	44	0	871366656	21	4644
2026-01-26 11:09:50.79	314.09	35.81	-31.6	-34.2	10.8	3.68e-04	0	44	0	873463808	23	4881
2026-01-26 11:09:51.79	314.33	35.63	-32.2	-35.9	9.2	1.18e-02	0	44	0	875560960	24	5516
2026-01-26 11:09:52.80	314.57	35.44	-31.8	-34.5	10.2	1.49e-02	0	44	0	877658112	24	4935
2026-01-26 11:09:53.80	314.81	35.25	-30.6	-31.8	12.8	9.68e-04	0	44	0	879755264	22	4153
2026-01-26 11:09:54.81	315.04	35.07	-30.1	-31.0	13.7	3.00e-06	0	44	0	880803840	21	3997
2026-01-26 11:09:55.80	315.27	34.88	-29.9	-30.3	14.1	7.00e-07	0	44	0	882900992	21	3799
2026-01-26 11:09:56.81	315.49	34.70	-30.4	-31.9	13.2	5.30e-06	0	44	0	884998144	21	4252
2026-01-26 11:09:57.81	315.72	34.51	-30.5	-32.1	12.9	5.72e-05	0	44	0	887095296	21	4306
2026-01-26 11:09:58.82	315.94	34.33	-31.3	-33.8	11.5	2.85e-04	0	44	0	889192448	22	4814
2026-01-26 11:09:59.81	316.16	34.15	-32.1	-35.4	9.5	3.89e-03	0	44	0	890241024	24	5318
2026-01-26 11:10:00.82	316.38	33.97	-32.7	-37.7	7.5	4.65e-02	0	44	0	892338176	25	6364
2026-01-26 11:10:01.83	316.59	33.78	-32.8	-38.3	6.9	1.68e-01	0	44	0	894435328	25	6750
2026-01-26 11:10:02.83	316.80	33.60	-32.5	-36.9	8.0	1.09e-01	0	44	0	896532480	25	5971
2026-01-26 11:10:03.84	317.01	33.42	-32.4	-36.2	8.5	4.47e-02	0	44	0	898629632	25	5561
2026-01-26 11:10:04.84	317.22	33.24	-32.1	-34.9	9.6	1.93e-02	0	44	0	899678208	25	5010
2026-01-26 11:10:05.84	317.43	33.07	-31.9	-34.3	10.1	9.16e-03	0	44	0	901775360	25	4742
2026-01-26 11:10:06.84	317.63	32.89	-32.2	-35.5	9.1	1.45e-02	0	44	0	903872512	25	5263
2026-01-26 11:10:07.84	317.83	32.71	-32.2	-35.4	9.1	2.56e-02	0	44	0	905969664	25	5213
2026-01-26 11:10:08.85	318.03	32.53	-32.1	-35.4	9.1	2.16e-02	0	44	0	907018240	25	5225
2026-01-26 11:10:09.86	318.23	32.36	-32.4	-36.6	8.2	3.70e-02	0	44	0	909115392	25	5788
2026-01-26 11:10:10.85	318.42	32.18	-32.8	-38.4	6.9	8.13e-02	0	44	0	911212544	25	6846
2026-01-26 11:10:11.86	318.61	32.01	-33.0	-38.9	6.2	3.13e-01	0	44	0	913309696	26	7095
2026-01-26 11:10:12.86	318.80	31.83	-32.9	-38.5	6.5	3.63e-01	0	44	0	915406848	26	6792
2026-01-26 11:10:13.87	318.99	31.66	-33.0	-38.6	6.3	2.89e-01	0	44	0	917504000	26	6917
2026-01-26 11:10:14.88	319.18	31.49	-32.6	-36.7	7.7	1.15e-01	0	44	0	918552576	26	5776
2026-01-26 11:10:15.88	319.37	31.31	-32.1	-35.1	9.3	2.94e-02	0	44	0	920649728	25	5083
2026-01-26 11:10:16.89	319.55	31.14	-31.5	-33.5	10.9	6.95e-03	0	44	0	922746880	24	4555
2026-01-26 11:10:17.90	319.73	30.97	-31.0	-32.5	11.9	1.28e-03	0	44	0	924844032	23	4296
2026-01-26 11:10:18.90	319.91	30.80	-30.9	-32.8	12.1	2.62e-04	0	44	0	925892608	22	4450
2026-01-26 11:10:19.91	320.09	30.63	-31.2	-33.7	11.5	4.63e-04	0	44	0	927989760	22	4799
2026-01-26 11:10:20.91	320.27	30.46	-31.4	-34.2	11.2	7.75e-04	0	44	0	930086912	22	4980
2026-01-26 11:10:21.92	320.44	30.29	-32.1	-35.6	9.3	1.21e-02	0	44	0	932184064	24	5418
2026-01-26 11:10:22.92	320.61	30.13	-32.1	-35.6	9.4	1.81e-02	0	44	0	934281216	24	5407
2026-01-26 11:10:23.92	320.78	29.96	-32.1	-35.7	9.3	2.01e-02	0	44	0	935329792	24	5425
2026-01-26 11:10:24.93	320.95	29.80	-32.1	-35.5	9.4	1.94e-02	0	44	0	937426944	24	5354
2026-01-26 11:10:25.93	321.12	29.63	-32.3	-36.4	8.7	2.31e-02	0	44	0	939524096	24	5796
2026-01-26 11:10:26.93	321.28	29.47	-31.9	-34.8	9.9	1.51e-02	0	44	0	941621248	24	5048
2026-01-26 11:10:27.93	321.45	29.30	-31.4	-33.4	10.9	3.29e-03	0	44	0	943718400	24	4515
2026-01-26 11:10:28.94	321.61	29.14	-31.2	-33.2	11.4	1.16e-03	0	44	0	944766976	23	4510
2026-01-26 11:10:29.94	321.77	28.98	-31.3	-33.5	11.3	9.53e-04	0	44	0	946864128	23	4617
2026-01-26 11:10:30.94	321.93	28.82	-31.3	-33.6	11.2	1.32e-03	0	44	0	948961280	23	4659
2026-01-26 11:10:31.95	322.09	28.66	-31.4	-33.8	11.0	2.47e-03	0	44	0	951058432	23	4750
2026-01-26 11:10:32.96	322.24	28.50	-31.5	-34.1	10.8	1.61e-03	0	44	0	953155584	23	4864
2026-01-26 11:10:33.96	322.40	28.34	-31.6	-34.5	10.5	3.44e-03	0	44	0	954204160	23	5016
2026-01-26 11:10:34.96	322.55	28.18	-31.6	-34.6	10.4	3.70e-03	0	44	0	956301312	23	5068
2026-01-26 11:10:35.96	322.70	28.02	-31.5	-34.3	10.6	4.80e-03	0	44	0	958398464	23	4956
2026-01-26 11:10:36.96	322.85	27.87	-31.2	-33.3	11.3	2.02e-03	0	44	0	960495616	23	4566
2026-01-26 11:10:37.97	323.00	27.71	-30.9	-32.2	12.1	4.85e-04	0	44	0	962592768	23	4195
2026-01-26 11:10:38.97	323.15	27.55	-30.6	-31.8	12.7	1.36e-04	0	44	0	963641344	22	4163
2026-01-26 11:10:39.97	323.29	27.40	-30.5	-31.5	12.9	5.26e-05	0	44	0	965738496	22	4068
2026-01-26 11:10:40.97	323.44	27.24	-30.3	-31.5	13.2	1.83e-05	0	44	0	967835648	21	4164
2026-01-26 11:10:41.97	323.58	27.09	-30.0	-30.9	13.6	9.90e-06	0	44	0	969932800	21	3971
2026-01-26 11:10:42.97	323.72	26.94	-29.8	-30.7	14.0	5.30e-06	0	44	0	972029952	20	4017
2026-01-26 11:10:43.98	323.86	26.79	-29.8	-30.7	14.1	3.00e-06	0	44	0	973078528	20	4017
2026-01-26 11:10:44.97	324.00	26.64	-29.7	-30.4	14.2	1.50e-06	0	44	0	975175680	20	3925
2026-01-26 11:10:45.97	324.14	26.49	-29.6	-30.3	14.2	1.50e-06	0	44	0	977272832	20	3889
2026-01-26 11:10:46.98	324.27	26.33	-29.4	-29.7	14.6	0.00e+00	0	44	0	979369984	20	3734
2026-01-26 11:10:47.98	324.41	26.18	-29.4	-29.8	14.6	0.00e+00	0	44	0	981467136	20	3766
2026-01-26 11:10:48.97	324.54	26.04	-29.4	-29.8	14.5	0.00e+00	0	44	0	982515712	20	3760
2026-01-26 11:10:49.98	324.67	25.89	-29.4	-29.7	14.6	0.00e+00	0	44	0	984612864	20	3736
2026-01-26 11:10:50.98	324.81	25.74	-29.6	-30.3	14.3	1.50e-06	0	44	0	986710016	20	3886
2026-01-26 11:10:51.99	324.94	25.59	-29.6	-30.2	14.3	2.20e-06	0	44	0	988807168	20	3874
2026-01-26 11:10:53.00	325.07	25.45	-29.7	-30.6	14.1	0.00e+00	0	44	0	989855744	20	3967
2026-01-26 11:10:54.01	325.20	25.30	-30.1	-31.6	13.4	6.10e-06	0	44	0	991952896	20	4267
2026-01-26 11:10:55.01	325.32	25.16	-30.0	-31.4	13.5	8.30e-06	0	44	0	994050048	20	4213
2026-01-26 11:10:56.02	325.45	25.01	-30.5	-32.6	12.8	3.66e-05	0	44	0	996147200	20	4608
2026-01-26 11:10:57.02	325.57	24.87	-30.3	-31.6	13.1	4.34e-05	0	44	0	998244352	21	4178
2026-01-26 11:10:58.02	325.70	24.72	-30.3	-31.7	13.0	2.05e-05	0	44	0	999292928	21	4229
2026-01-26 11:10:59.03	325.82	24.58	-30.2	-31.3	13.2	3.96e-05	0	44	0	1001390080	21	4103
2026-01-26 11:11:00.03	325.94	24.44	-29.8	-30.8	13.9	5.30e-06	0	44	0	1003487232	20	4053
2026-01-26 11:11:01.03	326.06	24.30	-29.6	-30.2	14.3	5.30e-06	0	44	0	1005584384	20	3873
2026-01-26 11:11:02.04	326.18	24.16	-29.5	-29.9	14.4	1.50e-06	0	44	0	1007681536	20	3796
2026-01-26 11:11:03.04	326.30	24.02	-29.5	-29.9	14.4	0.00e+00	0	44	0	1008730112	20	3797
2026-01-26 11:11:04.04	326.42	23.88	-29.8	-30.7	13.9	0.00e+00	0	44	0	1010827264	20	4024
2026-01-26 11:11:05.05	326.54	23.74	-29.6	-30.2	14.3	1.50e-06	0	44	0	1012924416	20	3862
2026-01-26 11:11:06.05	326.65	23.60	-29.5	-30.1	14.3	0.00e+00	0	44	0	1015021568	20	3831
2026-01-26 11:11:07.05	326.77	23.47	-29.9	-31.0	13.7	3.00e-06	0	44	0	1017118720	20	4105
2026-01-26 11:11:08.06	326.88	23.33	-30.0	-31.5	13.5	5.30e-06	0	44	0	1018167296	20	4233
2026-01-26 11:11:09.07	326.99	23.19	-30.0	-31.5	13.4	1.06e-05	0	44	0	1020264448	20	4238
2026-01-26 11:11:10.08	327.11	23.06	-30.3	-32.2	13.0	3.73e-05	0	44	0	1022361600	20	4461
2026-01-26 11:11:11.08	327.22	22.92	-30.4	-32.6	12.7	8.54e-05	0	44	0	1024458752	20	4606
2026-01-26 11:11:12.09	327.33	22.79	-30.5	-32.3	12.6	1.09e-04	0	44	0	1026555904	21	4421
2026-01-26 11:11:13.09	327.44	22.65	-30.7	-33.0	12.1	1.56e-04	0	44	0	1027604480	21	4647
2026-01-26 11:11:14.09	327.54	22.52	-30.8	-33.1	12.0	3.33e-04	0	44	0	1029701632	21	4692
2026-01-26 11:11:15.10	327.65	22.39	-30.5	-32.4	12.4	1.53e-04	0	44	0	1031798784	21	4450
2026-01-26 11:11:16.09	327.76	22.26	-30.4	-32.1	12.7	7.62e-05	0	44	0	1033895936	21	4353
2026-01-26 11:11:17.10	327.86	22.13	-30.2	-31.3	13.1	5.41e-05	0	44	0	1035993088	21	4116
2026-01-26 11:11:18.10	327.97	21.99	-30.1	-31.2	13.3	1.14e-05	0	44	0	1037041664	21	4070
2026-01-26 11:11:19.11	328.07	21.86	-30.1	-31.2	13.3	9.90e-06	0	44	0	1039138816	21	4066
2026-01-26 11:11:20.10	328.17	21.74	-29.7	-30.5	14.0	2.20e-06	0	44	0	1041235968	20	3972
2026-01-26 11:11:21.11	328.28	21.61	-29.7	-30.6	13.9	2.20e-06	0	44	0	1043333120	20	3996
2026-01-26 11:11:22.11	328.38	21.48	-29.7	-30.5	14.0	1.50e-06	0	44	0	1045430272	20	3970
2026-01-26 11:11:23.11	328.48	21.35	-29.5	-30.0	14.3	2.20e-06	0	44	0	1046478848	20	3834
2026-01-26 11:11:24.12	328.58	21.22	-29.8	-30.7	13.9	2.20e-06	0	44	0	1048576000	20	4030
2026-01-26 11:11:25.13	328.68	21.10	-29.4	-29.9	14.4	3.00e-06	0	44	0	1050673152	20	3791
2026-01-26 11:11:26.14	328.78	20.97	-29.6	-30.2	14.1	7.00e-07	0	44	0	1052770304	20	3890
2026-01-26 11:11:27.14	328.87	20.84	-29.8	-31.0	13.7	2.20e-06	0	44	0	1054867456	20	4101
2026-01-26 11:11:28.15	328.97	20.72	-29.8	-30.8	13.8	7.60e-06	0	44	0	1055916032	20	4044
2026-01-26 11:11:29.15	329.07	20.59	-30.1	-31.7	13.2	5.30e-06	0	44	0	1058013184	20	4326
2026-01-26 11:11:30.15	329.16	20.47	-30.4	-32.4	12.7	4.27e-05	0	44	0	1060110336	20	4554
2026-01-26 11:11:31.16	329.26	20.35	-30.3	-32.3	12.8	6.63e-05	0	44	0	1062207488	20	4515
2026-01-26 11:11:32.15	329.35	20.22	-30.7	-32.9	12.0	2.55e-04	0	44	0	1063256064	21	4645
2026-01-26 11:11:33.16	329.44	20.10	-30.6	-32.7	12.1	2.49e-04	0	44	0	1065353216	21	4573
2026-01-26 11:11:34.16	329.54	19.98	-30.7	-32.8	12.1	1.94e-04	0	44	0	1067450368	21	4619
2026-01-26 11:11:35.16	329.63	19.86	-30.8	-33.3	11.8	3.51e-04	0	44	0	1069547520	21	4774
2026-01-26 11:11:36.16	329.72	19.74	-30.6	-32.8	12.1	4.19e-04	0	44	0	1071644672	21	4594
2026-01-26 11:11:37.17	329.81	19.62	-30.9	-33.5	11.5	5.73e-04	0	44	0	1072693248	21	4883
2026-01-26 11:11:38.17	329.90	19.50	-30.6	-32.7	12.1	3.76e-04	0	44	0	1074790400	21	4589
2026-01-26 11:11:39.17	329.99	19.38	-30.3	-31.7	12.8	1.46e-04	0	44	0	1076887552	21	4244
2026-01-26 11:11:40.17	330.07	19.26	-30.2	-31.4	13.0	4.57e-05	0	44	0	1078984704	21	4148
2026-01-26 11:11:41.17	330.16	19.14	-30.0	-31.0	13.3	2.44e-05	0	44	0	1081081856	21	4015
2026-01-26 11:11:42.17	330.25	19.03	-30.1	-31.3	13.0	9.90e-06	0	44	0	1082130432	21	4124
2026-01-26 11:11:43.18	330.34	18.91	-30.2	-31.4	13.0	2.59e-05	0	44	0	1084227584	21	4161
2026-01-26 11:11:44.18	330.42	18.79	-29.8	-30.5	13.5	2.44e-05	0	44	0	1086324736	21	3891
2026-01-26 11:11:45.17	330.50	18.68	-29.9	-30.8	13.4	1.98e-05	0	44	0	1088421888	21	3968
2026-01-26 11:11:46.17	330.59	18.56	-29.9	-30.6	13.5	7.60e-06	0	44	0	1090519040	21	3919
2026-01-26 11:11:47.17	330.67	18.45	-29.7	-30.7	13.8	5.30e-06	0	44	0	1091567616	20	4026
2026-01-26 11:11:48.18	330.76	18.33	-29.8	-31.0	13.6	1.06e-05	0	44	0	1093664768	20	4111
2026-01-26 11:11:49.18	330.84	18.22	-29.8	-31.0	13.5	6.80e-06	0	44	0	1095761920	20	4127
2026-01-26 11:11:50.18	330.92	18.11	-29.9	-31.3	13.4	1.52e-05	0	44	0	1097859072	20	4197
2026-01-26 11:11:51.19	331.00	17.99	-30.1	-31.8	12.9	3.50e-05	0	44	0	1099956224	20	4361
2026-01-26 11:11:52.19	331.08	17.88	-30.1	-31.7	13.1	3.50e-05	0	44	0	1101004800	20	4326
2026-01-26 11:11:53.19	331.16	17.77	-30.0	-31.3	13.3	2.51e-05	0	44	0	1103101952	20	4220
2026-01-26 11:11:54.19	331.24	17.66	-29.9	-31.3	13.4	9.10e-06	0	44	0	1105199104	20	4196
2026-01-26 11:11:55.20	331.32	17.54	-29.9	-31.1	13.5	1.90e-05	0	44	0	1107296256	20	4149
2026-01-26 11:11:56.20	331.40	17.43	-29.9	-31.2	13.4	1.98e-05	0	44	0	1108344832	20	4176
2026-01-26 11:11:57.20	331.48	17.32	-30.1	-31.6	13.1	2.05e-05	0	44	0	1110441984	20	4320
2026-01-26 11:11:58.21	331.56	17.21	-30.0	-31.4	13.2	3.12e-05	0	44	0	1112539136	20	4257
2026-01-26 11:11:59.21	331.64	17.10	-30.0	-31.6	13.1	2.51e-05	0	44	0	1114636288	20	4312
2026-01-26 11:12:00.21	331.71	16.99	-30.0	-31.6	13.1	5.49e-05	0	44	0	1116733440	20	4318
2026-01-26 11:12:01.22	331.79	16.88	-30.1	-31.7	13.0	3.20e-05	0	44	0	1117782016	20	4332
2026-01-26 11:12:02.22	331.86	16.78	-30.1	-31.8	12.9	2.97e-05	0	44	0	1119879168	20	4383
2026-01-26 11:12:03.22	331.94	16.67	-30.0	-31.6	13.1	3.58e-05	0	44	0	1121976320	20	4314
2026-01-26 11:12:04.23	332.01	16.56	-30.0	-31.6	13.1	1.83e-05	0	44	0	1124073472	20	4314
2026-01-26 11:12:05.23	332.09	16.45	-30.1	-31.9	12.8	1.83e-05	0	44	0	1126170624	20	4422
2026-01-26 11:12:06.23	332.16	16.35	-29.9	-31.2	13.3	1.98e-05	0	44	0	1127219200	20	4182
2026-01-26 11:12:07.24	332.23	16.24	-29.7	-30.8	13.6	1.44e-05	0	44	0	1129316352	20	4054
2026-01-26 11:12:08.24	332.31	16.14	-29.7	-30.8	13.5	1.29e-05	0	44	0	1131413504	20	4062
2026-01-26 11:12:09.24	332.38	16.03	-29.6	-30.5	13.7	7.60e-06	0	44	0	1133510656	20	3992
2026-01-26 11:12:10.24	332.45	15.93	-29.6	-30.4	13.8	3.00e-06	0	44	0	1135607808	20	3945
2026-01-26 11:12:11.24	332.52	15.82	-29.6	-30.3	13.8	9.10e-06	0	44	0	1136656384	20	3937
2026-01-26 11:12:12.24	332.59	15.72	-29.4	-29.9	14.1	3.80e-06	0	44	0	1138753536	20	3825
2026-01-26 11:12:13.24	332.66	15.62	-29.5	-30.3	13.9	3.00e-06	0	44	0	1140850688	20	3932
2026-01-26 11:12:14.24	332.73	15.51	-29.4	-30.0	14.0	1.50e-06	0	44	0	1142947840	20	3853
2026-01-26 11:12:15.25	332.80	15.41	-29.3	-29.7	14.2	3.00e-06	0	44	0	1145044992	20	3765
2026-01-26 11:12:16.26	332.87	15.31	-29.4	-30.4	14.2	7.00e-07	0	44	0	1146093568	19	4044
2026-01-26 11:12:17.26	332.94	15.20	-29.4	-30.3	14.2	7.00e-07	0	44	0	1148190720	19	4016
2026-01-26 11:12:18.26	333.01	15.10	-29.4	-30.5	14.1	0.00e+00	0	44	0	1150287872	19	4051
2026-01-26 11:12:19.26	333.07	15.00	-29.5	-30.5	14.1	2.20e-06	0	44	0	1152385024	19	4076
2026-01-26 11:12:20.26	333.14	14.90	-29.5	-30.7	14.0	2.20e-06	0	44	0	1154482176	19	4124
2026-01-26 11:12:21.26	333.21	14.80	-29.6	-30.9	13.8	4.50e-06	0	44	0	1155530752	19	4174
2026-01-26 11:12:22.27	333.27	14.70	-29.5	-30.7	14.0	6.80e-06	0	44	0	1157627904	19	4118
2026-01-26 11:12:23.27	333.34	14.60	-29.5	-30.7	14.0	3.80e-06	0	44	0	1159725056	19	4115
2026-01-26 11:12:24.27	333.41	14.50	-29.6	-31.0	13.7	4.50e-06	0	44	0	1161822208	19	4214
2026-01-26 11:12:25.27	333.47	14.40	-29.7	-31.1	13.6	6.80e-06	0	44	0	1162870784	19	4260
2026-01-26 11:12:26.27	333.54	14.30	-29.9	-31.8	13.2	3.80e-06	0	44	0	1164967936	19	4468
2026-01-26 11:12:27.28	333.60	14.21	-29.9	-31.3	13.1	2.89e-05	0	44	0	1167065088	20	4229
2026-01-26 11:12:28.28	333.66	14.11	-30.0	-31.5	13.0	2.89e-05	0	44	0	1169162240	20	4281
2026-01-26 11:12:29.28	333.73	14.01	-30.2	-32.1	12.6	4.42e-05	0	44	0	1171259392	20	4507
2026-01-26 11:12:30.28	333.79	13.91	-30.2	-32.3	12.4	8.54e-05	0	44	0	1172307968	20	4561
2026-01-26 11:12:31.28	333.85	13.82	-30.3	-32.6	12.3	1.77e-04	0	44	0	1174405120	20	4655
2026-01-26 11:12:32.28	333.92	13.72	-30.4	-32.3	12.1	3.29e-04	0	44	0	1176502272	21	4474
2026-01-26 11:12:33.28	333.98	13.63	-30.6	-32.8	11.7	4.17e-04	0	44	0	1178599424	21	4631
2026-01-26 11:12:34.29	334.04	13.53	-30.8	-33.6	11.2	1.24e-03	0	44	0	1180696576	21	4937
2026-01-26 11:12:35.29	334.10	13.43	-30.7	-33.3	11.3	1.31e-03	0	44	0	1181745152	21	4847
2026-01-26 11:12:36.30	334.16	13.34	-30.9	-33.9	10.9	1.97e-03	0	44	0	1183842304	21	5073
2026-01-26 11:12:37.29	334.22	13.25	-31.0	-33.6	10.8	2.72e-03	0	44	0	1185939456	22	4880
2026-01-26 11:12:38.30	334.28	13.15	-31.0	-33.7	10.7	4.04e-03	0	44	0	1188036608	22	4921
2026-01-26 11:12:39.30	334.34	13.06	-31.1	-33.9	10.5	2.64e-03	0	44	0	1190133760	22	4977
2026-01-26 11:12:40.30	334.40	12.96	-31.2	-34.3	10.2	5.58e-03	0	44	0	1191182336	22	5158
2026-01-26 11:12:41.30	334.46	12.87	-31.1	-34.1	10.3	4.14e-03	0	44	0	1193279488	22	5083
2026-01-26 11:12:42.30	334.52	12.78	-31.1	-34.2	10.3	4.48e-03	0	44	0	1195376640	22	5109
2026-01-26 11:12:43.30	334.58	12.69	-31.1	-34.1	10.3	6.30e-03	0	44	0	1197473792	22	5066
2026-01-26 11:12:44.30	334.63	12.59	-31.2	-34.5	10.0	6.41e-03	0	44	0	1198522368	22	5257
2026-01-26 11:12:45.30	334.69	12.50	-31.1	-34.1	10.3	5.39e-03	0	44	0	1200619520	22	5089
2026-01-26 11:12:46.31	334.75	12.41	-30.9	-33.5	10.8	3.55e-03	0	44	0	1202716672	22	4827
2026-01-26 11:12:47.31	334.81	12.32	-30.8	-32.9	11.2	2.11e-03	0	44	0	1204813824	22	4619
2026-01-26 11:12:48.31	334.86	12.23	-30.8	-32.9	11.2	1.66e-03	0	44	0	1206910976	22	4623
2026-01-26 11:12:49.32	334.92	12.14	-30.8	-33.1	11.0	1.43e-03	0	44	0	1207959552	22	4688
2026-01-26 11:12:50.32	334.98	12.05	-30.7	-32.8	11.3	1.48e-03	0	44	0	1210056704	22	4562
2026-01-26 11:12:51.33	335.03	11.96	-30.5	-32.2	11.6	8.91e-04	0	44	0	1212153856	22	4376
2026-01-26 11:12:52.33	335.09	11.87	-30.5	-32.3	11.6	6.92e-04	0	44	0	1214251008	22	4404
2026-01-26 11:12:53.33	335.14	11.78	-30.6	-32.4	11.5	7.39e-04	0	44	0	1216348160	22	4455
2026-01-26 11:12:54.33	335.20	11.69	-30.4	-31.9	11.9	7.09e-04	0	44	0	1217396736	22	4285
2026-01-26 11:12:55.33	335.25	11.60	-30.3	-31.7	12.0	3.57e-04	0	44	0	1219493888	22	4197
2026-01-26 11:12:56.33	335.31	11.51	-30.3	-32.0	12.1	3.20e-04	0	44	0	1221591040	21	4386
2026-01-26 11:12:57.33	335.36	11.42	-30.3	-32.2	11.9	2.90e-04	0	44	0	1223688192	21	4470
2026-01-26 11:12:58.33	335.41	11.34	-30.2	-31.9	12.1	1.84e-04	0	44	0	1225785344	21	4366
2026-01-26 11:12:59.33	335.47	11.25	-30.3	-32.0	12.0	4.38e-04	0	44	0	1226833920	21	4405
2026-01-26 11:13:00.33	335.52	11.16	-30.2	-31.8	12.2	1.94e-04	0	44	0	1228931072	21	4319
2026-01-26 11:13:01.33	335.57	11.07	-30.0	-31.2	12.6	1.07e-04	0	44	0	1231028224	21	4150
2026-01-26 11:13:02.33	335.63	10.99	-30.0	-31.3	12.6	1.27e-04	0	44	0	1233125376	21	4167
2026-01-26 11:13:03.33	335.68	10.90	-29.9	-31.0	12.7	7.09e-05	0	44	0	1235222528	21	4081
2026-01-26 11:13:04.34	335.73	10.81	-30.1	-31.6	12.3	1.23e-04	0	44	0	1236271104	21	4270
2026-01-26 11:13:05.35	335.78	10.73	-29.8	-31.1	13.0	4.04e-05	0	44	0	1238368256	20	4183
2026-01-26 11:13:06.36	335.83	10.64	-29.7	-30.9	13.2	3.66e-05	0	44	0	1240465408	20	4121
2026-01-26 11:13:07.36	335.89	10.56	-29.7	-31.0	13.0	4.95e-05	0	44	0	1242562560	20	4162
2026-01-26 11:13:08.37	335.94	10.47	-29.8	-31.2	12.8	5.95e-05	0	44	0	1244659712	20	4238
2026-01-26 11:13:09.37	335.99	10.39	-29.9	-31.5	12.6	1.01e-04	0	44	0	1245708288	20	4323
2026-01-26 11:13:10.37	336.04	10.30	-29.8	-31.4	12.7	4.34e-05	0	44	0	1247805440	20	4305
2026-01-26 11:13:11.37	336.09	10.22	-29.8	-31.2	12.8	7.85e-05	0	44	0	1249902592	20	4228
2026-01-26 11:13:12.37	336.14	10.13	-29.9	-31.5	12.6	1.16e-04	0	44	0	1251999744	20	4338
2026-01-26 11:13:13.37	336.19	10.05	-29.7	-30.9	13.1	3.96e-05	0	44	0	1253048320	20	4128
2026-01-26 11:13:14.37	336.24	9.97	-29.6	-30.7	13.2	3.96e-05	0	44	0	1255145472	20	4077
2026-01-26 11:13:15.37	336.28	9.89	-29.7	-30.9	13.0	4.50e-05	0	44	0	1257242624	20	4143
2026-01-26 11:13:16.37	336.33	9.80	-29.6	-30.8	13.1	3.12e-05	0	44	0	1259339776	20	4103
2026-01-26 11:13:17.37	336.38	9.72	-29.6	-30.6	13.2	3.12e-05	0	44	0	1261436928	20	4069
2026-01-26 11:13:18.38	336.43	9.64	-29.8	-31.3	12.8	3.35e-05	0	44	0	1262485504	20	4268
2026-01-26 11:13:19.39	336.48	9.55	-29.8	-31.3	12.7	8.31e-05	0	44	0	1264582656	20	4277
2026-01-26 11:13:20.39	336.53	9.47	-29.6	-30.6	13.2	6.33e-05	0	44	0	1266679808	20	4062
2026-01-26 11:13:21.39	336.57	9.39	-29.6	-30.8	13.1	1.98e-05	0	44	0	1268776960	20	4124
2026-01-26 11:13:22.40	336.62	9.31	-29.8	-31.1	12.8	4.11e-05	0	44	0	1270874112	20	4218
2026-01-26 11:13:23.40	336.67	9.23	-29.8	-31.3	12.7	6.02e-05	0	44	0	1271922688	20	4272
2026-01-26 11:13:24.41	336.72	9.15	-29.8	-31.1	12.8	4.95e-05	0	44	0	1274019840	20	4221
2026-01-26 11:13:25.41	336.76	9.07	-29.8	-31.4	12.7	8.77e-05	0	44	0	1276116992	20	4292
2026-01-26 11:13:26.41	336.81	8.99	-29.9	-31.6	12.5	9.23e-05	0	44	0	1278214144	20	4359
2026-01-26 11:13:27.42	336.86	8.91	-30.0	-31.8	12.3	1.50e-04	0	44	0	1280311296	20	4448
