passes_logs/2026/01/26/R2M6_AANII_01/R2M6_AANII_01__20260126_105123_AQUA_rec.log

#Pass ID: 20260126_105123_AQUA
#Satellite: AQUA
#Configuration: AQUA
#almurnet v.1.7.20240730
#Start time: 2026-01-26 10:51:23

#Version: 2.2.20231116
#Station: R2M6_AANII_01
#Location: 30.233357 lon 59.946436 lat
#TLE: 1 27424U 02022A   26025.63222646  .00001891  00000+0  38818-3 0  9990
#TLE: 2 27424  98.4099 352.2393 0001892  65.6900 348.5270 14.61859542262445

#Time	Az	El	Level	Level2	SNR	BER	BlckErr	Temp	State	Recorded	gain1	gain2
2026-01-26 10:51:23.93	119.73	7.07	-32.2	-40.6	4.8	7.13e-01	0	41	0	0	26	9390
2026-01-26 10:51:24.93	119.65	7.14	-32.0	-39.6	4.9	7.10e-01	0	41	104	0	25	8669
2026-01-26 10:51:25.93	119.57	7.22	-32.0	-38.8	12.2	6.11e-01	0	42	0	0	25	7906
2026-01-26 10:51:26.93	119.50	7.29	-32.0	-39.0	12.1	6.13e-01	0	42	0	1572864	25	8019
2026-01-26 10:51:27.93	119.42	7.37	-31.9	-38.3	12.7	6.10e-01	0	42	0	3670016	25	7519
2026-01-26 10:51:28.94	119.34	7.44	-32.2	-39.7	11.5	6.16e-01	0	42	0	5242880	25	8618
2026-01-26 10:51:29.94	119.26	7.52	-32.0	-38.9	12.1	6.15e-01	0	42	0	7340032	25	7972
2026-01-26 10:51:30.94	119.17	7.60	-31.8	-37.8	13.1	6.09e-01	0	42	0	9437184	25	7160
2026-01-26 10:51:31.95	119.09	7.67	-31.6	-36.7	14.1	6.08e-01	0	42	0	11010048	25	6480
2026-01-26 10:51:32.95	119.01	7.75	-31.2	-35.6	15.2	6.08e-01	0	42	0	13107200	24	6020
2026-01-26 10:51:33.95	118.93	7.83	-30.9	-34.8	15.9	6.07e-01	0	42	0	14680064	24	5614
2026-01-26 10:51:34.96	118.84	7.90	-30.8	-34.8	16.2	6.07e-01	0	42	0	16777216	23	5720
2026-01-26 10:51:35.96	118.76	7.98	-30.4	-33.6	17.1	6.05e-01	0	42	0	18350080	23	5196
2026-01-26 10:51:36.96	118.68	8.06	-30.4	-33.5	17.2	6.04e-01	0	42	0	20447232	23	5140
2026-01-26 10:51:37.96	118.59	8.13	-30.4	-34.0	17.2	6.06e-01	0	42	0	22544384	22	5472
2026-01-26 10:51:38.96	118.51	8.21	-30.3	-33.8	17.3	6.06e-01	0	42	0	24117248	22	5368
2026-01-26 10:51:39.95	118.42	8.29	-30.4	-34.0	17.2	6.06e-01	0	42	0	26214400	22	5470
2026-01-26 10:51:40.95	118.34	8.37	-30.6	-34.6	16.8	6.06e-01	0	42	0	27787264	22	5703
2026-01-26 10:51:41.95	118.25	8.45	-30.3	-33.9	17.3	6.06e-01	0	42	0	29884416	22	5400
2026-01-26 10:51:42.95	118.17	8.52	-30.6	-34.7	16.7	6.06e-01	0	42	0	31457280	22	5754
2026-01-26 10:51:43.95	118.08	8.60	-30.5	-34.3	17.0	6.06e-01	0	42	0	33554432	22	5602
2026-01-26 10:51:44.95	117.99	8.68	-30.8	-35.2	16.4	6.07e-01	0	42	0	35651584	22	5994
2026-01-26 10:51:45.96	117.90	8.76	-30.5	-34.4	16.9	6.08e-01	0	42	0	37224448	22	5623
2026-01-26 10:51:46.97	117.81	8.84	-30.3	-33.9	17.3	6.09e-01	0	42	0	39321600	22	5402
2026-01-26 10:51:47.97	117.72	8.92	-30.2	-33.4	17.6	6.08e-01	0	42	0	40894464	22	5203
2026-01-26 10:51:48.96	117.63	9.00	-30.2	-33.4	17.7	6.06e-01	0	42	0	42991616	22	5195
2026-01-26 10:51:49.96	117.54	9.08	-30.1	-33.3	17.7	6.08e-01	0	42	0	45088768	22	5166
2026-01-26 10:51:50.95	117.45	9.16	-30.1	-33.3	17.7	6.06e-01	0	42	0	46661632	22	5185
2026-01-26 10:51:51.96	117.36	9.24	-30.1	-33.2	17.8	6.07e-01	0	42	0	48758784	22	5146
2026-01-26 10:51:52.96	117.27	9.32	-29.9	-32.7	18.1	6.05e-01	0	42	0	50331648	22	4947
2026-01-26 10:51:53.96	117.17	9.40	-30.1	-33.2	17.8	6.05e-01	0	42	0	52428800	22	5130
2026-01-26 10:51:54.96	117.08	9.48	-30.0	-32.8	18.1	6.06e-01	0	42	0	54001664	22	4984
2026-01-26 10:51:55.97	116.99	9.56	-30.0	-32.9	18.0	6.07e-01	0	42	0	56098816	22	5013
2026-01-26 10:51:56.97	116.89	9.65	-30.1	-33.0	18.0	6.06e-01	0	42	0	58195968	22	5044
2026-01-26 10:51:57.97	116.80	9.73	-29.9	-32.6	18.3	6.09e-01	0	42	0	59768832	22	4902
2026-01-26 10:51:58.98	116.70	9.81	-30.0	-32.9	18.2	6.07e-01	0	42	0	61865984	22	4981
2026-01-26 10:51:59.98	116.60	9.89	-29.9	-32.5	18.4	6.06e-01	0	42	0	63438848	22	4854
2026-01-26 10:52:00.98	116.51	9.97	-29.9	-32.6	18.3	6.05e-01	0	42	0	65536000	22	4871
2026-01-26 10:52:01.98	116.41	10.06	-30.1	-32.9	18.1	6.10e-01	0	43	0	67633152	22	4993
2026-01-26 10:52:02.98	116.31	10.14	-30.0	-32.7	18.2	6.04e-01	0	42	0	69206016	22	4927
2026-01-26 10:52:03.98	116.21	10.22	-29.9	-32.5	18.4	6.06e-01	0	42	0	71303168	22	4829
2026-01-26 10:52:04.99	116.11	10.31	-30.0	-32.6	18.3	6.08e-01	0	42	0	72876032	22	4892
2026-01-26 10:52:05.99	116.01	10.39	-29.9	-32.5	18.4	6.04e-01	0	42	0	74973184	22	4843
2026-01-26 10:52:07.00	115.91	10.48	-30.0	-33.3	18.2	6.05e-01	0	42	0	76546048	21	5253
2026-01-26 10:52:08.00	115.81	10.56	-30.0	-33.3	18.2	6.04e-01	0	43	0	78643200	21	5237
2026-01-26 10:52:09.00	115.71	10.64	-30.0	-33.1	18.3	6.05e-01	0	43	0	80740352	21	5170
2026-01-26 10:52:10.00	115.60	10.73	-30.1	-33.4	18.1	6.06e-01	0	43	0	82313216	21	5301
2026-01-26 10:52:10.99	115.50	10.81	-29.9	-32.9	18.5	6.08e-01	0	42	0	84410368	21	5108
2026-01-26 10:52:11.99	115.40	10.90	-30.1	-33.6	18.1	6.06e-01	0	43	0	85983232	21	5353
2026-01-26 10:52:12.99	115.29	10.98	-30.0	-33.2	18.3	6.06e-01	0	43	0	88080384	21	5220
2026-01-26 10:52:13.99	115.19	11.07	-29.9	-33.0	18.5	6.06e-01	0	43	0	90177536	21	5136
2026-01-26 10:52:15.00	115.08	11.15	-30.0	-33.1	18.5	6.03e-01	0	43	0	91750400	21	5152
2026-01-26 10:52:16.00	114.98	11.24	-29.8	-32.7	18.6	6.06e-01	0	43	0	93847552	21	5031
2026-01-26 10:52:17.00	114.87	11.33	-29.9	-33.0	18.5	6.06e-01	0	43	0	95420416	21	5145
2026-01-26 10:52:18.01	114.76	11.41	-29.8	-32.8	18.6	6.05e-01	0	43	0	97517568	21	5047
2026-01-26 10:52:19.01	114.65	11.50	-29.7	-32.3	18.9	6.07e-01	0	43	0	99090432	21	4890
2026-01-26 10:52:20.01	114.54	11.59	-29.7	-32.5	18.8	6.08e-01	0	42	0	101187584	21	4947
2026-01-26 10:52:21.01	114.43	11.67	-29.7	-32.4	18.9	6.08e-01	0	43	0	103284736	21	4926
2026-01-26 10:52:22.02	114.32	11.76	-30.0	-33.1	18.4	6.06e-01	0	43	0	104857600	21	5188
2026-01-26 10:52:23.00	114.21	11.85	-29.9	-32.8	18.6	6.07e-01	0	43	0	106954752	21	5069
2026-01-26 10:52:23.98	114.10	11.94	-29.7	-32.3	19.0	6.06e-01	0	43	0	108527616	21	4886
2026-01-26 10:52:24.99	113.98	12.02	-29.7	-32.4	18.9	6.06e-01	0	43	0	110624768	21	4896
2026-01-26 10:52:25.99	113.87	12.11	-29.7	-32.4	19.0	6.07e-01	0	43	0	112197632	21	4890
2026-01-26 10:52:26.99	113.76	12.20	-29.7	-32.3	19.0	6.06e-01	0	43	0	114294784	21	4867
2026-01-26 10:52:28.00	113.64	12.29	-29.7	-32.4	18.9	6.05e-01	0	43	0	116391936	21	4899
2026-01-26 10:52:29.00	113.52	12.38	-30.0	-33.2	18.4	6.06e-01	0	43	0	117964800	21	5212
2026-01-26 10:52:30.00	113.41	12.47	-29.6	-32.1	19.1	6.08e-01	0	43	0	120061952	21	4815
2026-01-26 10:52:31.01	113.29	12.56	-29.7	-32.3	19.0	6.04e-01	0	43	0	121634816	21	4877
2026-01-26 10:52:32.01	113.17	12.65	-29.8	-32.5	18.9	6.07e-01	0	43	0	123731968	21	4960
2026-01-26 10:52:33.01	113.05	12.74	-29.7	-32.3	19.0	6.06e-01	0	43	0	125304832	21	4880
2026-01-26 10:52:34.02	112.93	12.83	-29.8	-32.6	18.8	6.05e-01	0	43	0	127401984	21	4969
2026-01-26 10:52:35.02	112.81	12.92	-29.6	-32.2	19.1	6.06e-01	0	43	0	129499136	21	4823
2026-01-26 10:52:36.02	112.69	13.01	-29.8	-32.5	18.9	6.07e-01	0	43	0	131072000	21	4941
2026-01-26 10:52:37.03	112.56	13.11	-29.6	-32.1	19.1	6.07e-01	0	43	0	133169152	21	4812
2026-01-26 10:52:38.03	112.44	13.20	-29.7	-32.5	19.0	6.06e-01	0	43	0	135266304	21	4919
2026-01-26 10:52:39.04	112.31	13.29	-29.6	-32.2	19.1	6.07e-01	0	43	0	136839168	21	4825
2026-01-26 10:52:40.03	112.19	13.38	-29.9	-32.8	18.7	6.07e-01	0	43	0	138936320	21	5057
2026-01-26 10:52:41.04	112.06	13.47	-29.7	-32.4	19.0	6.08e-01	0	43	0	140509184	21	4890
2026-01-26 10:52:42.05	111.94	13.57	-29.6	-32.0	19.3	6.04e-01	0	43	0	142606336	21	4760
2026-01-26 10:52:43.05	111.81	13.66	-29.4	-31.6	19.5	6.05e-01	0	43	0	144179200	21	4619
2026-01-26 10:52:44.04	111.68	13.75	-29.5	-31.7	19.5	6.04e-01	0	43	0	146276352	21	4658
2026-01-26 10:52:45.05	111.55	13.85	-29.4	-31.9	19.6	6.04e-01	0	43	0	148373504	20	4830
2026-01-26 10:52:46.05	111.42	13.94	-29.4	-32.1	19.5	6.07e-01	0	43	0	149946368	20	4892
2026-01-26 10:52:47.05	111.29	14.03	-29.6	-32.4	19.4	6.04e-01	0	43	0	152043520	20	5004
2026-01-26 10:52:48.06	111.16	14.13	-29.6	-32.4	19.4	6.06e-01	0	43	0	153616384	20	4997
2026-01-26 10:52:49.06	111.02	14.22	-29.6	-32.5	19.3	6.06e-01	0	43	0	155713536	20	5026
2026-01-26 10:52:50.06	110.89	14.32	-29.6	-32.6	19.3	6.07e-01	0	43	0	157286400	20	5057
2026-01-26 10:52:51.07	110.75	14.41	-29.6	-32.6	19.2	6.07e-01	0	43	0	159383552	20	5085
2026-01-26 10:52:52.07	110.62	14.51	-29.7	-32.7	19.2	6.05e-01	0	43	0	161480704	20	5111
2026-01-26 10:52:53.06	110.48	14.60	-29.6	-32.6	19.2	6.08e-01	0	43	0	163053568	20	5091
2026-01-26 10:52:54.07	110.34	14.70	-29.6	-32.6	19.2	6.08e-01	0	43	0	165150720	20	5083
2026-01-26 10:52:55.07	110.20	14.80	-29.7	-32.7	19.2	6.06e-01	0	43	0	166723584	20	5109
2026-01-26 10:52:56.08	110.06	14.89	-29.7	-32.7	19.3	6.07e-01	0	43	0	168820736	20	5102
2026-01-26 10:52:57.08	109.92	14.99	-29.8	-33.0	19.0	6.07e-01	0	43	0	170917888	20	5218
2026-01-26 10:52:58.09	109.78	15.09	-29.7	-32.7	19.2	6.07e-01	0	43	0	172490752	20	5115
2026-01-26 10:52:59.09	109.64	15.18	-29.9	-33.3	18.9	6.06e-01	0	43	0	174587904	20	5307
2026-01-26 10:53:00.09	109.49	15.28	-29.7	-32.6	19.3	6.05e-01	0	43	0	176160768	20	5070
2026-01-26 10:53:01.10	109.35	15.38	-29.5	-32.3	19.5	6.06e-01	0	43	0	178257920	20	4958
2026-01-26 10:53:02.09	109.20	15.48	-29.4	-31.8	19.8	6.06e-01	0	43	0	180355072	20	4798
2026-01-26 10:53:03.10	109.05	15.57	-29.5	-32.2	19.6	6.05e-01	0	43	0	181927936	20	4923
2026-01-26 10:53:04.11	108.90	15.67	-29.4	-31.9	19.8	6.05e-01	0	43	0	184025088	20	4822
2026-01-26 10:53:05.11	108.76	15.77	-29.4	-32.0	19.8	6.06e-01	0	43	0	185597952	20	4830
2026-01-26 10:53:06.12	108.60	15.87	-29.4	-31.9	19.7	6.07e-01	0	43	0	187695104	20	4823
2026-01-26 10:53:07.13	108.45	15.97	-29.5	-32.2	19.6	6.08e-01	0	43	0	189792256	20	4905
2026-01-26 10:53:08.13	108.30	16.07	-29.3	-31.7	20.0	6.05e-01	0	43	0	191365120	20	4725
2026-01-26 10:53:09.13	108.15	16.17	-29.3	-31.7	20.0	6.07e-01	0	43	0	193462272	20	4733
2026-01-26 10:53:10.14	107.99	16.27	-29.3	-31.8	19.9	6.04e-01	0	43	0	195035136	20	4760
2026-01-26 10:53:11.14	107.84	16.37	-29.4	-31.9	19.8	6.07e-01	0	43	0	197132288	20	4814
2026-01-26 10:53:12.15	107.68	16.47	-29.5	-32.1	19.7	6.07e-01	0	43	0	198705152	20	4876
2026-01-26 10:53:13.15	107.52	16.57	-29.5	-32.1	19.8	6.05e-01	0	43	0	200802304	20	4860
2026-01-26 10:53:14.15	107.36	16.67	-29.4	-32.1	19.7	6.07e-01	0	43	0	202899456	20	4869
2026-01-26 10:53:15.15	107.20	16.77	-29.5	-32.2	19.6	6.06e-01	0	43	0	204472320	20	4922
2026-01-26 10:53:16.15	107.04	16.87	-29.5	-32.2	19.7	6.07e-01	0	43	0	206569472	20	4921
2026-01-26 10:53:17.15	106.88	16.98	-29.4	-32.0	19.8	6.04e-01	0	43	0	208142336	20	4853
2026-01-26 10:53:18.15	106.71	17.08	-29.5	-32.2	19.6	6.06e-01	0	43	0	210239488	20	4918
2026-01-26 10:53:19.15	106.55	17.18	-29.5	-32.3	19.7	6.07e-01	0	43	0	212336640	20	4936
2026-01-26 10:53:20.15	106.38	17.28	-29.6	-32.3	19.6	6.06e-01	0	43	0	213909504	20	4939
2026-01-26 10:53:21.15	106.22	17.38	-29.6	-32.3	19.7	6.06e-01	0	43	0	216006656	20	4938
2026-01-26 10:53:22.16	106.05	17.49	-29.5	-32.2	19.6	6.06e-01	0	43	0	217579520	20	4909
2026-01-26 10:53:23.16	105.88	17.59	-29.5	-32.1	19.8	6.08e-01	0	43	0	219676672	20	4861
2026-01-26 10:53:24.16	105.71	17.69	-29.4	-32.0	19.8	6.08e-01	0	43	0	221249536	20	4841
2026-01-26 10:53:25.16	105.53	17.80	-29.6	-32.5	19.5	6.06e-01	0	43	0	223346688	20	5017
2026-01-26 10:53:26.17	105.36	17.90	-29.5	-32.2	19.6	6.06e-01	0	43	0	225443840	20	4924
2026-01-26 10:53:27.18	105.18	18.00	-29.6	-32.5	19.5	6.07e-01	0	43	0	227016704	20	4991
2026-01-26 10:53:28.18	105.01	18.11	-29.9	-33.1	19.2	6.06e-01	0	44	0	229113856	20	5222
2026-01-26 10:53:29.18	104.83	18.21	-29.8	-32.8	19.3	6.07e-01	0	43	0	230686720	20	5134
2026-01-26 10:53:30.18	104.65	18.32	-29.7	-32.7	19.4	6.05e-01	0	43	0	232783872	20	5088
2026-01-26 10:53:31.19	104.47	18.42	-29.8	-32.9	19.2	6.06e-01	0	43	0	234881024	20	5144
2026-01-26 10:53:32.19	104.29	18.53	-29.8	-32.8	19.3	6.05e-01	0	43	0	236453888	20	5131
2026-01-26 10:53:33.19	104.11	18.63	-29.7	-32.6	19.5	6.05e-01	0	43	0	238551040	20	5044
2026-01-26 10:53:34.20	103.92	18.74	-29.7	-32.8	19.2	6.07e-01	0	43	0	240123904	20	5112
2026-01-26 10:53:35.20	103.74	18.84	-29.7	-32.7	19.4	6.05e-01	0	43	0	242221056	20	5076
2026-01-26 10:53:36.20	103.55	18.95	-29.6	-32.5	19.4	6.07e-01	0	43	0	243793920	20	5007
2026-01-26 10:53:37.21	103.36	19.06	-29.7	-32.7	19.3	6.04e-01	0	43	0	245891072	20	5079
2026-01-26 10:53:38.22	103.17	19.16	-29.8	-33.0	19.2	6.06e-01	0	43	0	247988224	20	5202
2026-01-26 10:53:39.23	102.98	19.27	-29.7	-32.6	19.4	6.08e-01	0	43	0	249561088	20	5047
2026-01-26 10:53:40.23	102.78	19.38	-29.6	-32.3	19.6	6.06e-01	0	43	0	251658240	20	4944
2026-01-26 10:53:41.23	102.59	19.48	-29.6	-32.4	19.6	6.06e-01	0	43	0	253231104	20	4977
2026-01-26 10:53:42.23	102.40	19.59	-29.6	-32.3	19.6	6.07e-01	0	43	0	255328256	20	4924
2026-01-26 10:53:43.23	102.20	19.70	-29.6	-32.4	19.5	6.07e-01	0	43	0	257425408	20	4986
2026-01-26 10:53:44.23	102.00	19.80	-29.7	-32.6	19.4	6.06e-01	0	43	0	258998272	20	5036
2026-01-26 10:53:45.22	101.80	19.91	-29.8	-32.9	19.3	6.05e-01	0	43	0	261095424	20	5131
2026-01-26 10:53:46.23	101.60	20.02	-29.8	-32.9	19.3	6.05e-01	0	43	0	262668288	20	5153
2026-01-26 10:53:47.23	101.40	20.12	-29.9	-33.1	19.2	6.08e-01	0	44	0	264765440	20	5207
2026-01-26 10:53:48.24	101.19	20.23	-29.9	-33.1	19.2	6.09e-01	0	43	0	266862592	20	5225
2026-01-26 10:53:49.24	100.99	20.34	-29.9	-33.1	19.2	6.08e-01	0	43	0	268435456	20	5228
2026-01-26 10:53:50.24	100.78	20.45	-30.1	-33.2	18.8	6.08e-01	0	43	0	270532608	21	5143
2026-01-26 10:53:51.24	100.57	20.56	-29.9	-32.5	19.3	6.07e-01	0	43	0	272105472	21	4905
2026-01-26 10:53:52.25	100.36	20.66	-29.9	-32.7	19.3	6.06e-01	0	43	0	274202624	21	4959
2026-01-26 10:53:53.24	100.15	20.77	-30.0	-32.9	19.1	6.05e-01	0	43	0	275775488	21	5016
2026-01-26 10:53:54.25	99.93	20.88	-30.1	-33.2	19.0	6.07e-01	0	44	0	277872640	21	5127
2026-01-26 10:53:55.25	99.72	20.99	-30.0	-32.8	19.2	6.05e-01	0	44	0	279969792	21	4990
2026-01-26 10:53:56.26	99.50	21.10	-30.1	-33.1	19.0	6.07e-01	0	44	0	281542656	21	5095
2026-01-26 10:53:57.27	99.28	21.21	-30.0	-32.8	19.2	6.04e-01	0	44	0	283639808	21	4974
2026-01-26 10:53:58.27	99.06	21.32	-30.1	-33.1	19.1	6.06e-01	0	44	0	285212672	21	5094
2026-01-26 10:53:59.28	98.84	21.43	-30.2	-33.3	18.9	6.06e-01	0	44	0	287309824	21	5179
2026-01-26 10:54:00.28	98.61	21.54	-29.9	-32.6	19.3	6.07e-01	0	43	0	289406976	21	4929
2026-01-26 10:54:01.28	98.39	21.64	-29.8	-32.4	19.4	6.05e-01	0	44	0	290979840	21	4850
2026-01-26 10:54:02.28	98.16	21.75	-29.9	-32.6	19.4	6.07e-01	0	44	0	293076992	21	4901
2026-01-26 10:54:03.28	97.94	21.86	-30.0	-32.9	19.2	6.06e-01	0	43	0	294649856	21	5025
2026-01-26 10:54:04.28	97.71	21.97	-30.2	-33.4	18.8	6.05e-01	0	44	0	296747008	21	5220
2026-01-26 10:54:05.28	97.47	22.08	-30.0	-32.9	19.1	6.05e-01	0	44	0	298844160	21	5033
2026-01-26 10:54:06.29	97.24	22.19	-29.9	-32.6	19.3	6.05e-01	0	43	0	300417024	21	4925
2026-01-26 10:54:07.29	97.00	22.30	-29.9	-32.7	19.3	6.07e-01	0	43	0	302514176	21	4933
2026-01-26 10:54:08.29	96.77	22.41	-29.9	-32.5	19.4	6.07e-01	0	43	0	304087040	21	4870
2026-01-26 10:54:09.30	96.53	22.52	-29.9	-32.7	19.4	6.06e-01	0	44	0	306184192	21	4923
2026-01-26 10:54:10.29	96.29	22.63	-29.9	-32.6	19.4	6.05e-01	0	43	0	307757056	21	4920
2026-01-26 10:54:11.29	96.05	22.73	-29.8	-32.2	19.6	6.08e-01	0	43	0	309854208	21	4778
2026-01-26 10:54:12.30	95.80	22.84	-29.6	-31.8	19.9	6.06e-01	0	44	0	311951360	21	4633
2026-01-26 10:54:13.30	95.55	22.95	-29.5	-31.6	20.0	6.08e-01	0	43	0	313524224	21	4585
2026-01-26 10:54:14.31	95.30	23.06	-29.7	-32.2	19.7	6.07e-01	0	44	0	315621376	21	4773
2026-01-26 10:54:15.30	95.06	23.17	-29.9	-32.5	19.4	6.05e-01	0	43	0	317194240	21	4889
2026-01-26 10:54:16.31	94.80	23.28	-29.8	-32.4	19.5	6.07e-01	0	43	0	319291392	21	4851
2026-01-26 10:54:17.31	94.55	23.39	-29.8	-32.3	19.6	6.06e-01	0	44	0	320864256	21	4795
2026-01-26 10:54:18.32	94.29	23.50	-29.9	-32.5	19.5	6.06e-01	0	44	0	322961408	21	4858
2026-01-26 10:54:19.32	94.04	23.61	-29.8	-32.3	19.6	6.07e-01	0	44	0	325058560	21	4810
2026-01-26 10:54:20.32	93.78	23.72	-29.8	-32.4	19.6	6.05e-01	0	43	0	326631424	21	4827
2026-01-26 10:54:21.33	93.52	23.82	-29.9	-32.5	19.5	6.06e-01	0	44	0	328728576	21	4857
2026-01-26 10:54:22.33	93.25	23.93	-29.9	-32.5	19.4	6.07e-01	0	44	0	330301440	21	4890
2026-01-26 10:54:23.33	92.99	24.04	-29.9	-32.5	19.5	6.07e-01	0	44	0	332398592	21	4859
2026-01-26 10:54:24.33	92.72	24.15	-29.9	-32.5	19.5	6.06e-01	0	44	0	334495744	21	4880
2026-01-26 10:54:25.33	92.45	24.26	-29.9	-32.5	19.5	6.05e-01	0	43	0	336068608	21	4887
2026-01-26 10:54:26.33	92.18	24.36	-29.8	-32.4	19.6	6.06e-01	0	44	0	338165760	21	4832
2026-01-26 10:54:27.34	91.91	24.47	-29.6	-31.7	20.0	6.08e-01	0	43	0	339738624	21	4605
2026-01-26 10:54:28.34	91.64	24.58	-29.6	-31.7	20.1	6.06e-01	0	44	0	341835776	21	4605
2026-01-26 10:54:29.35	91.36	24.69	-29.7	-31.9	19.9	6.04e-01	0	43	0	343932928	21	4680
2026-01-26 10:54:30.35	91.08	24.79	-29.8	-32.2	19.7	6.05e-01	0	44	0	345505792	21	4760
2026-01-26 10:54:31.36	90.80	24.90	-29.8	-32.3	19.7	6.06e-01	0	44	0	347602944	21	4807
2026-01-26 10:54:32.36	90.52	25.01	-29.8	-32.4	19.6	6.07e-01	0	43	0	349175808	21	4817
2026-01-26 10:54:33.37	90.23	25.11	-29.8	-32.3	19.7	6.07e-01	0	44	0	351272960	21	4794
2026-01-26 10:54:34.37	89.94	25.22	-29.9	-32.6	19.5	6.07e-01	0	44	0	352845824	21	4888
2026-01-26 10:54:35.37	89.66	25.32	-29.9	-32.6	19.5	6.08e-01	0	44	0	354942976	21	4900
2026-01-26 10:54:36.36	89.37	25.43	-29.9	-32.6	19.5	6.08e-01	0	44	0	357040128	21	4900
2026-01-26 10:54:37.36	89.08	25.53	-29.9	-32.6	19.5	6.06e-01	0	44	0	358612992	21	4887
2026-01-26 10:54:38.35	88.79	25.63	-30.0	-32.7	19.4	6.05e-01	0	44	0	360710144	21	4921
2026-01-26 10:54:39.35	88.49	25.74	-29.9	-32.6	19.5	6.08e-01	0	44	0	362283008	21	4882
2026-01-26 10:54:40.36	88.19	25.84	-30.1	-32.9	19.3	6.07e-01	0	43	0	364380160	21	5003
2026-01-26 10:54:41.36	87.89	25.94	-30.1	-33.1	19.1	6.04e-01	0	44	0	365953024	21	5080
2026-01-26 10:54:42.36	87.59	26.05	-29.9	-32.5	19.5	6.07e-01	0	44	0	368050176	21	4873
2026-01-26 10:54:43.37	87.28	26.15	-29.7	-32.1	19.7	6.05e-01	0	44	0	370147328	21	4733
2026-01-26 10:54:44.37	86.97	26.25	-29.8	-32.2	19.7	6.06e-01	0	44	0	371720192	21	4764
2026-01-26 10:54:45.37	86.67	26.35	-29.9	-32.5	19.5	6.05e-01	0	44	0	373817344	21	4865
2026-01-26 10:54:46.38	86.35	26.46	-29.8	-32.3	19.7	6.04e-01	0	44	0	375390208	21	4791
2026-01-26 10:54:47.38	86.04	26.56	-29.8	-32.3	19.7	6.07e-01	0	44	0	377487360	21	4777
2026-01-26 10:54:48.38	85.73	26.65	-29.8	-32.3	19.7	6.07e-01	0	44	0	379584512	21	4792
2026-01-26 10:54:49.39	85.41	26.76	-29.7	-31.9	20.0	6.05e-01	0	43	0	381157376	21	4657
2026-01-26 10:54:50.39	85.09	26.85	-29.6	-31.7	20.1	6.07e-01	0	44	0	383254528	21	4611
2026-01-26 10:54:51.39	84.77	26.95	-29.6	-31.7	20.0	6.05e-01	0	43	0	384827392	21	4598
2026-01-26 10:54:52.39	84.45	27.05	-29.8	-32.2	19.8	6.06e-01	0	44	0	386924544	21	4746
2026-01-26 10:54:53.39	84.12	27.15	-29.7	-32.1	19.9	6.06e-01	0	44	0	389021696	21	4712
2026-01-26 10:54:54.39	83.80	27.24	-29.6	-31.8	20.1	6.06e-01	0	44	0	390594560	21	4620
2026-01-26 10:54:55.39	83.47	27.34	-29.7	-32.0	20.0	6.06e-01	0	44	0	392691712	21	4671
2026-01-26 10:54:56.40	83.13	27.43	-29.8	-32.1	19.9	6.08e-01	0	44	0	394264576	21	4731
2026-01-26 10:54:57.40	82.80	27.53	-29.7	-31.9	20.0	6.06e-01	0	44	0	396361728	21	4671
2026-01-26 10:54:58.40	82.47	27.62	-29.5	-31.6	20.2	6.05e-01	0	44	0	397934592	21	4554
2026-01-26 10:54:59.40	82.13	27.71	-29.6	-31.7	20.1	6.06e-01	0	44	0	400031744	21	4593
2026-01-26 10:55:00.40	81.79	27.81	-29.6	-31.8	20.1	6.06e-01	0	44	0	402128896	21	4610
2026-01-26 10:55:01.41	81.45	27.90	-29.7	-31.9	20.0	6.07e-01	0	44	0	403701760	21	4664
2026-01-26 10:55:02.41	81.10	27.99	-29.7	-32.0	20.0	6.05e-01	0	44	0	405798912	21	4675
2026-01-26 10:55:03.42	80.75	28.08	-29.6	-31.7	20.1	6.06e-01	0	44	0	407371776	21	4591
2026-01-26 10:55:04.43	80.40	28.17	-29.5	-31.5	20.2	6.07e-01	0	43	0	409468928	21	4536
2026-01-26 10:55:05.43	80.05	28.26	-29.4	-31.7	20.5	6.06e-01	0	44	0	411566080	20	4693
2026-01-26 10:55:06.43	79.70	28.34	-29.5	-31.9	20.3	6.04e-01	0	44	0	413138944	20	4764
2026-01-26 10:55:07.44	79.35	28.43	-29.5	-32.0	20.3	6.09e-01	0	44	0	415236096	20	4783
2026-01-26 10:55:08.44	78.99	28.52	-29.5	-31.9	20.3	6.07e-01	0	44	0	416808960	20	4751
2026-01-26 10:55:09.44	78.64	28.60	-29.4	-31.6	20.5	6.06e-01	0	44	0	418906112	20	4654
2026-01-26 10:55:10.45	78.27	28.69	-29.3	-31.5	20.6	6.06e-01	0	43	0	421003264	20	4616
2026-01-26 10:55:11.45	77.91	28.77	-29.3	-31.5	20.6	6.07e-01	0	44	0	422576128	20	4619
2026-01-26 10:55:12.45	77.55	28.85	-29.5	-31.9	20.4	6.06e-01	0	44	0	424673280	20	4745
2026-01-26 10:55:13.45	77.19	28.93	-29.6	-41.6	3.8	7.44e-01	0	44	104	426246144	20	14302
2026-01-26 10:55:14.45	76.82	29.01	-29.7	-41.8	3.8	7.43e-01	0	44	104	426246144	20	14467
2026-01-26 10:55:15.46	76.45	29.09	-29.9	-42.2	3.8	7.46e-01	0	44	104	426246144	20	14906
2026-01-26 10:55:16.46	76.08	29.17	-30.1	-42.8	3.8	7.48e-01	0	44	104	426246144	20	15577
2026-01-26 10:55:17.47	75.70	29.24	-30.2	-42.6	3.8	7.44e-01	0	44	104	426246144	21	14950
2026-01-26 10:55:18.47	75.33	29.32	-30.5	-43.4	3.8	7.42e-01	0	44	104	426246144	21	15783
2026-01-26 10:55:19.48	74.95	29.39	-30.8	-43.5	3.8	7.44e-01	0	44	104	426246144	22	15587
2026-01-26 10:55:20.48	74.57	29.47	-31.0	-44.3	3.8	7.45e-01	0	44	104	426246144	22	16484
2026-01-26 10:55:21.48	74.19	29.54	-31.5	-45.0	3.8	7.48e-01	0	44	104	426246144	23	17041
2026-01-26 10:55:22.48	73.81	29.61	-31.8	-45.5	3.8	7.47e-01	0	44	104	426246144	24	17315
2026-01-26 10:55:23.49	73.42	29.68	-32.0	-46.0	3.8	7.43e-01	0	44	104	426246144	24	18056
2026-01-26 10:55:24.49	73.04	29.75	-32.3	-46.4	3.8	7.43e-01	0	44	104	426246144	25	18249
2026-01-26 10:55:25.48	72.66	29.81	-32.6	-47.3	3.8	7.45e-01	0	44	104	426246144	25	19569
2026-01-26 10:55:26.48	72.27	29.88	-32.8	-47.7	3.8	7.45e-01	0	44	104	426246144	26	19857
2026-01-26 10:55:27.48	71.88	29.94	-32.9	-47.9	3.8	7.50e-01	0	44	104	426246144	26	20290
2026-01-26 10:55:28.48	71.49	30.01	-32.8	-47.4	4.0	7.37e-01	0	44	104	426246144	26	19288
2026-01-26 10:55:29.49	71.09	30.07	-32.8	-47.4	3.8	7.43e-01	0	44	104	426246144	26	19470
2026-01-26 10:55:30.48	70.70	30.13	-32.6	-46.6	3.8	7.47e-01	0	44	104	426246144	26	18194
2026-01-26 10:55:31.49	70.30	30.19	-32.2	-45.3	3.8	7.45e-01	0	44	104	426246144	26	16416
2026-01-26 10:55:32.49	69.91	30.25	-31.9	-44.6	3.8	7.43e-01	0	44	104	426246144	26	15461
2026-01-26 10:55:33.50	69.51	30.30	-31.6	-44.2	3.8	7.47e-01	0	44	104	426246144	25	15426
2026-01-26 10:55:34.51	69.10	30.36	-31.3	-44.0	3.8	7.45e-01	0	44	104	426246144	24	15488
2026-01-26 10:55:35.52	68.70	30.41	-30.8	-43.0	3.8	7.45e-01	0	44	104	426246144	23	14635
2026-01-26 10:55:36.53	68.29	30.47	-30.5	-42.2	3.8	7.46e-01	0	44	104	426246144	23	13860
2026-01-26 10:55:37.53	67.89	30.52	-30.3	-42.3	3.8	7.46e-01	0	44	104	426246144	22	14358
2026-01-26 10:55:38.53	67.48	30.57	-30.1	-41.8	3.8	7.44e-01	0	44	104	426246144	22	13798
2026-01-26 10:55:39.53	67.07	30.61	-29.9	-41.4	3.8	7.40e-01	0	44	104	426246144	22	13468
2026-01-26 10:55:40.52	66.67	30.66	-29.7	-41.3	3.8	7.45e-01	0	44	104	426246144	21	13643
2026-01-26 10:55:41.53	66.26	30.70	-29.6	-41.0	3.8	7.45e-01	0	44	104	426246144	21	13357
2026-01-26 10:55:42.52	65.85	30.75	-29.6	-41.0	3.8	7.40e-01	0	44	104	426246144	21	13484
2026-01-26 10:55:43.53	65.44	30.79	-29.7	-41.3	3.8	7.46e-01	0	44	104	426246144	21	13652
2026-01-26 10:55:44.53	65.03	30.83	-30.0	-41.9	3.8	7.45e-01	0	44	104	426246144	21	14219
2026-01-26 10:55:45.54	64.61	30.87	-30.3	-42.7	3.8	7.43e-01	0	44	104	426246144	21	15048
2026-01-26 10:55:46.54	64.19	30.91	-30.8	-43.6	3.8	7.44e-01	0	44	104	426246144	22	15685
2026-01-26 10:55:47.54	63.78	30.94	-31.0	-44.1	3.8	7.41e-01	0	44	104	426246144	22	16196
2026-01-26 10:55:48.54	63.36	30.97	-31.0	-44.1	3.8	7.45e-01	0	44	104	426246144	22	16216
2026-01-26 10:55:49.53	62.95	31.01	-31.0	-44.0	3.8	7.46e-01	0	44	104	426246144	22	16001
2026-01-26 10:55:50.52	62.54	31.04	-31.1	-43.9	3.8	7.42e-01	0	44	104	426246144	23	15675
2026-01-26 10:55:51.53	62.11	31.06	-31.1	-43.8	3.8	7.46e-01	0	44	104	426246144	23	15578
2026-01-26 10:55:52.54	61.69	31.09	-31.0	-43.7	3.8	7.45e-01	0	44	104	426246144	23	15453
2026-01-26 10:55:53.54	61.27	31.12	-31.2	-44.2	3.8	7.42e-01	0	44	104	426246144	23	15943
2026-01-26 10:55:54.55	60.85	31.14	-31.8	-45.4	3.8	7.47e-01	0	44	104	426246144	24	17257
2026-01-26 10:55:55.55	60.42	31.16	-32.3	-46.2	3.8	7.43e-01	0	44	104	426246144	25	17882
2026-01-26 10:55:56.56	60.00	31.18	-32.6	-47.0	3.8	7.44e-01	0	44	104	426246144	26	18736
2026-01-26 10:55:57.56	59.58	31.20	-33.0	-48.0	3.8	7.46e-01	0	44	104	426246144	26	20323
2026-01-26 10:55:58.57	59.15	31.22	-33.3	-48.9	3.8	7.47e-01	0	44	104	426246144	27	21660
2026-01-26 10:55:59.58	58.72	31.24	-33.3	-48.9	3.8	7.45e-01	0	44	104	426246144	27	21708
2026-01-26 10:56:00.58	58.30	31.25	-33.3	-48.9	3.8	7.43e-01	0	44	104	426246144	27	21631
2026-01-26 10:56:01.59	57.87	31.26	-33.4	-49.2	3.8	7.45e-01	0	44	104	426246144	27	22344
2026-01-26 10:56:02.59	57.45	31.27	-33.4	-49.4	3.8	7.42e-01	0	44	104	426246144	27	22576
2026-01-26 10:56:03.60	57.02	31.28	-33.4	-49.3	3.8	7.45e-01	0	44	104	426246144	27	22450
2026-01-26 10:56:04.60	56.59	31.29	-33.4	-49.3	3.8	7.42e-01	0	44	104	426246144	27	22340
2026-01-26 10:56:05.60	56.17	31.29	-33.5	-49.6	3.8	7.44e-01	0	44	104	426246144	27	23187
2026-01-26 10:56:06.59	55.75	31.29	-33.5	-49.6	3.8	7.44e-01	0	44	104	426246144	27	23110
2026-01-26 10:56:07.59	55.32	31.30	-33.4	-49.4	3.8	7.45e-01	0	44	104	426246144	27	22671
2026-01-26 10:56:08.59	54.90	31.30	-33.4	-49.2	3.8	7.43e-01	0	44	104	426246144	27	22340
2026-01-26 10:56:09.60	54.47	31.29	-33.3	-49.0	3.8	7.43e-01	0	44	104	426246144	27	21861
2026-01-26 10:56:10.60	54.04	31.29	-33.2	-48.6	3.8	7.45e-01	0	44	104	426246144	27	21056
2026-01-26 10:56:11.61	53.62	31.28	-33.1	-48.0	3.8	7.45e-01	0	44	104	426246144	27	20096
2026-01-26 10:56:12.62	53.19	31.28	-33.2	-48.3	3.8	7.41e-01	0	44	104	426246144	27	20549
2026-01-26 10:56:13.62	52.76	31.27	-33.4	-49.4	3.8	7.42e-01	0	44	104	426246144	27	22659
2026-01-26 10:56:14.63	52.33	31.26	-33.6	-49.8	3.8	7.40e-01	0	44	104	426246144	28	23236
2026-01-26 10:56:15.64	51.91	31.25	-33.5	-49.4	3.8	7.48e-01	0	44	104	426246144	28	22486
2026-01-26 10:56:16.64	51.48	31.23	-33.2	-48.5	3.8	7.45e-01	0	44	104	426246144	28	20766
2026-01-26 10:56:17.64	51.06	31.22	-33.0	-47.6	3.8	7.44e-01	0	44	104	426246144	28	19328
2026-01-26 10:56:18.64	50.64	31.20	-32.8	-47.2	3.8	7.42e-01	0	44	104	426246144	27	18821
2026-01-26 10:56:19.65	50.21	31.18	-32.6	-46.5	3.8	7.43e-01	0	44	104	426246144	27	17708
2026-01-26 10:56:20.66	49.79	31.16	-32.5	-46.0	3.8	7.46e-01	0	44	104	426246144	27	17010
2026-01-26 10:56:21.67	49.36	31.13	-32.3	-45.7	3.8	7.45e-01	0	44	104	426246144	26	16884
2026-01-26 10:56:22.67	48.94	31.11	-32.1	-45.2	3.8	7.47e-01	0	44	104	426246144	26	16223
2026-01-26 10:56:23.67	48.52	31.08	-32.1	-45.0	3.8	7.43e-01	0	44	104	426246144	26	16045
2026-01-26 10:56:24.67	48.10	31.06	-31.7	-44.4	3.8	7.48e-01	0	44	104	426246144	25	15594
2026-01-26 10:56:25.68	47.68	31.03	-31.3	-43.8	3.8	7.42e-01	0	44	104	426246144	24	15239
2026-01-26 10:56:26.68	47.27	31.00	-30.8	-42.8	3.8	7.47e-01	0	44	104	426246144	23	14263
2026-01-26 10:56:27.68	46.85	30.96	-30.4	-41.8	3.8	7.40e-01	0	44	104	426246144	23	13438
2026-01-26 10:56:28.69	46.43	30.93	-30.1	-41.6	3.8	7.47e-01	0	44	104	426246144	22	13590
2026-01-26 10:56:29.69	46.02	30.89	-29.9	-41.3	3.8	7.44e-01	0	44	104	426246144	22	13321
2026-01-26 10:56:30.69	45.60	30.86	-29.8	-41.5	3.8	7.46e-01	0	44	104	426246144	21	13823
2026-01-26 10:56:31.70	45.19	30.82	-30.0	-41.9	3.8	7.47e-01	0	44	104	426246144	21	14170
2026-01-26 10:56:32.70	44.77	30.78	-30.2	-42.6	3.8	7.46e-01	0	44	104	426246144	21	14932
2026-01-26 10:56:33.71	44.36	30.73	-30.5	-43.3	3.8	7.46e-01	0	44	104	426246144	21	15597
2026-01-26 10:56:34.71	43.95	30.69	-30.9	-43.8	3.8	7.45e-01	0	44	104	426246144	22	15852
2026-01-26 10:56:35.72	43.54	30.64	-31.4	-44.6	3.8	7.44e-01	0	44	104	426246144	23	16437
2026-01-26 10:56:36.71	43.14	30.60	-31.8	-45.3	3.8	7.43e-01	0	44	104	426246144	24	17075
2026-01-26 10:56:37.72	42.73	30.55	-31.9	-45.6	3.8	7.42e-01	0	44	104	426246144	24	17514
2026-01-26 10:56:38.72	42.32	30.50	-31.8	-45.4	3.8	7.43e-01	0	44	104	426246144	24	17210
2026-01-26 10:56:39.72	41.92	30.45	-31.8	-45.2	3.8	7.45e-01	0	44	104	426246144	24	16988
2026-01-26 10:56:40.73	41.52	30.40	-31.8	-45.1	3.8	7.45e-01	0	44	104	426246144	24	16800
2026-01-26 10:56:41.73	41.12	30.34	-31.9	-45.5	3.8	7.46e-01	0	44	104	426246144	24	17404
2026-01-26 10:56:42.74	40.71	30.29	-32.0	-45.9	3.8	7.44e-01	0	44	104	426246144	24	17883
2026-01-26 10:56:43.74	40.32	30.23	-32.3	-46.3	3.8	7.47e-01	0	44	104	426246144	25	18182
2026-01-26 10:56:44.73	39.92	30.17	-32.6	-47.3	3.8	7.44e-01	0	44	104	426246144	25	19680
2026-01-26 10:56:45.74	39.53	30.11	-32.9	-47.9	3.8	7.43e-01	0	44	104	426246144	26	20223
2026-01-26 10:56:46.74	39.13	30.05	-33.2	-48.7	3.8	7.45e-01	0	44	104	426246144	27	21533
2026-01-26 10:56:47.74	38.74	29.99	-33.4	-49.7	3.8	7.41e-01	0	44	104	426246144	27	23515
2026-01-26 10:56:48.75	38.35	29.92	-33.3	-49.3	3.8	7.46e-01	0	44	104	426246144	27	22612
2026-01-26 10:56:49.75	37.96	29.86	-33.3	-48.9	3.8	7.44e-01	0	44	104	426246144	27	21823
2026-01-26 10:56:50.75	37.58	29.79	-33.3	-49.0	3.8	7.43e-01	0	44	104	426246144	27	22088
2026-01-26 10:56:51.76	37.19	29.73	-33.3	-49.3	3.8	7.43e-01	0	44	104	426246144	27	22637
2026-01-26 10:56:52.75	36.81	29.66	-33.4	-49.5	3.8	7.45e-01	0	44	104	426246144	27	22911
2026-01-26 10:56:53.75	36.43	29.59	-33.4	-49.7	3.8	7.46e-01	0	44	104	426246144	27	23392
2026-01-26 10:56:54.75	36.05	29.52	-33.4	-49.7	3.8	7.42e-01	0	44	104	426246144	27	23440
2026-01-26 10:56:55.76	35.67	29.45	-33.4	-49.5	3.8	7.46e-01	0	44	104	426246144	27	23056
2026-01-26 10:56:56.76	35.29	29.37	-33.3	-49.3	3.8	7.45e-01	0	44	104	426246144	27	22695
2026-01-26 10:56:57.77	34.91	29.30	-33.3	-48.9	3.8	7.45e-01	0	44	104	426246144	27	21836
2026-01-26 10:56:58.77	34.54	29.22	-33.2	-48.6	3.8	7.43e-01	0	44	104	426246144	27	21355
2026-01-26 10:56:59.78	34.17	29.14	-33.0	-48.1	3.8	7.45e-01	0	44	104	426246144	27	20386
2026-01-26 10:57:00.78	33.80	29.07	-32.9	-47.5	3.8	7.44e-01	0	44	104	426246144	27	19414
2026-01-26 10:57:01.79	33.43	28.99	-32.8	-47.0	3.8	7.46e-01	0	44	104	426246144	27	18595
2026-01-26 10:57:02.80	33.06	28.91	-33.0	-47.9	3.8	7.48e-01	0	44	104	426246144	27	19892
2026-01-26 10:57:03.80	32.70	28.83	-33.4	-49.3	3.8	7.42e-01	0	44	104	426246144	27	22548
2026-01-26 10:57:04.80	32.34	28.74	-33.6	-49.9	3.8	7.45e-01	0	44	104	426246144	28	23750
2026-01-26 10:57:05.80	31.98	28.66	-33.4	-49.4	3.8	7.46e-01	0	44	104	426246144	28	22519
2026-01-26 10:57:06.81	31.62	28.58	-33.1	-48.0	3.8	7.45e-01	0	44	104	426246144	28	19975
2026-01-26 10:57:07.81	31.26	28.49	-32.9	-47.4	3.8	7.48e-01	0	44	104	426246144	27	19124
2026-01-26 10:57:08.82	30.90	28.41	-32.7	-46.9	3.8	7.45e-01	0	44	104	426246144	27	18295
2026-01-26 10:57:09.82	30.55	28.32	-32.6	-46.3	3.8	7.42e-01	0	44	104	426246144	27	17459
2026-01-26 10:57:10.83	30.20	28.23	-32.6	-46.2	3.8	7.44e-01	0	44	104	426246144	27	17270
2026-01-26 10:57:11.83	29.85	28.14	-32.6	-46.2	3.8	7.43e-01	0	44	104	426246144	27	17319
2026-01-26 10:57:12.83	29.51	28.06	-32.6	-46.3	3.8	7.45e-01	0	44	104	426246144	27	17474
2026-01-26 10:57:13.83	29.17	27.97	-32.7	-46.6	3.8	7.45e-01	0	44	104	426246144	27	17896
2026-01-26 10:57:14.83	28.82	27.88	-32.3	-45.8	3.8	7.45e-01	0	44	104	426246144	26	16951
2026-01-26 10:57:15.83	28.49	27.78	-31.9	-44.5	3.8	7.45e-01	0	44	104	426246144	26	15446
2026-01-26 10:57:16.83	28.15	27.69	-31.5	-43.9	3.8	7.46e-01	0	44	104	426246144	25	15118
2026-01-26 10:57:17.84	27.81	27.60	-31.1	-43.5	3.8	7.42e-01	0	44	104	426246144	24	14965
2026-01-26 10:57:18.85	27.47	27.50	-30.7	-42.7	3.8	7.41e-01	0	44	104	426246144	23	14288
2026-01-26 10:57:19.86	27.14	27.41	-30.4	-42.1	3.8	7.46e-01	0	44	104	426246144	23	13772
2026-01-26 10:57:20.86	26.81	27.31	-30.6	-42.4	3.8	7.47e-01	0	44	104	426246144	23	14118
2026-01-26 10:57:21.87	26.48	27.22	-30.8	-43.1	3.8	7.43e-01	0	44	104	426246144	23	14823
2026-01-26 10:57:22.87	26.16	27.12	-31.1	-43.8	3.8	7.43e-01	0	44	104	426246144	23	15554
2026-01-26 10:57:23.87	25.83	27.03	-31.5	-45.0	3.8	7.44e-01	0	44	104	426246144	23	16962
2026-01-26 10:57:24.87	25.51	26.93	-31.9	-45.8	3.8	7.44e-01	0	44	104	426246144	24	17849
2026-01-26 10:57:25.87	25.19	26.83	-32.3	-46.5	3.8	7.43e-01	0	44	104	426246144	25	18365
2026-01-26 10:57:26.87	24.88	26.73	-32.7	-47.3	3.8	7.44e-01	0	44	104	426246144	26	19353
2026-01-26 10:57:27.87	24.56	26.63	-32.7	-47.1	3.8	7.46e-01	0	44	104	426246144	26	19087
2026-01-26 10:57:28.87	24.25	26.53	-32.6	-46.9	3.8	7.43e-01	0	44	104	426246144	26	18659
2026-01-26 10:57:29.87	23.94	26.43	-32.5	-46.6	3.8	7.44e-01	0	44	104	426246144	26	18304
2026-01-26 10:57:30.86	23.64	26.33	-32.6	-46.9	3.8	7.46e-01	0	44	104	426246144	26	18769
2026-01-26 10:57:31.87	23.33	26.23	-32.7	-47.3	3.8	7.45e-01	0	44	104	426246144	26	19422
2026-01-26 10:57:32.86	23.03	26.13	-32.7	-47.5	3.8	7.45e-01	0	44	104	426246144	26	19744
2026-01-26 10:57:33.87	22.72	26.03	-33.0	-48.4	3.8	7.44e-01	0	44	104	426246144	26	21380
2026-01-26 10:57:34.87	22.42	25.93	-33.2	-48.9	3.8	7.45e-01	0	44	104	426246144	27	21816
2026-01-26 10:57:35.87	22.12	25.82	-33.4	-49.8	3.8	7.45e-01	0	44	104	426246144	27	23714
2026-01-26 10:57:36.88	21.82	25.72	-33.3	-49.3	3.8	7.45e-01	0	44	104	426246144	27	22542
2026-01-26 10:57:37.88	21.53	25.62	-33.1	-48.3	3.8	7.44e-01	0	44	104	426246144	27	20735
2026-01-26 10:57:38.88	21.24	25.51	-32.8	-47.3	3.8	7.46e-01	0	44	104	426246144	27	19132
2026-01-26 10:57:39.89	20.95	25.41	-32.9	-47.5	3.8	7.45e-01	0	44	104	426246144	27	19388
2026-01-26 10:57:40.89	20.66	25.30	-32.9	-47.7	3.8	7.46e-01	0	44	104	426246144	27	19626
2026-01-26 10:57:41.90	20.37	25.20	-33.0	-48.1	3.8	7.44e-01	0	44	104	426246144	27	20310
2026-01-26 10:57:42.90	20.08	25.09	-33.2	-48.7	3.8	7.43e-01	0	44	104	426246144	27	21468
2026-01-26 10:57:43.91	19.80	24.99	-33.3	-49.1	3.8	7.46e-01	0	44	104	426246144	27	22256
2026-01-26 10:57:44.91	19.52	24.88	-33.3	-49.4	3.8	7.49e-01	0	44	104	426246144	27	22756
2026-01-26 10:57:45.91	19.24	24.78	-33.3	-49.2	3.8	7.42e-01	0	44	104	426246144	27	22441
2026-01-26 10:57:46.91	18.97	24.67	-33.2	-48.8	3.8	7.44e-01	0	44	104	426246144	27	21741
2026-01-26 10:57:47.92	18.69	24.56	-33.1	-48.6	3.8	7.49e-01	0	44	104	426246144	27	21263
2026-01-26 10:57:48.92	18.42	24.46	-33.1	-48.3	3.8	7.45e-01	0	44	104	426246144	27	20823
2026-01-26 10:57:49.93	18.14	24.35	-33.0	-48.0	3.8	7.43e-01	0	44	104	426246144	27	20311
2026-01-26 10:57:50.93	17.88	24.24	-32.9	-47.6	3.8	7.43e-01	0	44	104	426246144	27	19504
2026-01-26 10:57:51.94	17.61	24.13	-32.8	-47.2	3.8	7.45e-01	0	44	104	426246144	27	18899
2026-01-26 10:57:52.95	17.34	24.02	-33.1	-48.6	3.8	7.46e-01	0	44	104	426246144	27	21359
2026-01-26 10:57:53.95	17.08	23.92	-33.4	-50.0	3.8	7.43e-01	0	44	104	426246144	27	24216
2026-01-26 10:57:54.96	16.82	23.81	-33.6	-50.5	3.8	7.47e-01	0	44	104	426246144	28	25213
2026-01-26 10:57:55.96	16.56	23.70	-33.4	-49.5	3.8	7.44e-01	0	44	104	426246144	28	23028
2026-01-26 10:57:56.97	16.30	23.59	-33.1	-48.1	3.8	7.43e-01	0	44	104	426246144	28	20311
2026-01-26 10:57:57.97	16.04	23.48	-32.8	-47.3	3.8	7.43e-01	0	44	104	426246144	27	19109
2026-01-26 10:57:58.98	15.79	23.37	-32.8	-47.1	3.8	7.43e-01	0	44	104	426246144	27	18763
2026-01-26 10:57:59.97	15.54	23.27	-32.8	-47.4	3.8	7.45e-01	0	44	104	426246144	27	19285
2026-01-26 10:58:00.97	15.29	23.16	-32.8	-47.4	3.8	7.43e-01	0	44	104	426246144	27	19362
2026-01-26 10:58:01.97	15.04	23.05	-32.9	-47.6	3.8	7.45e-01	0	44	104	426246144	27	19559
2026-01-26 10:58:02.97	14.80	22.94	-32.9	-47.8	3.8	7.44e-01	0	44	104	426246144	27	19987
2026-01-26 10:58:03.98	14.55	22.83	-33.0	-48.0	3.8	7.47e-01	0	44	104	426246144	27	20304
2026-01-26 10:58:04.98	14.31	22.73	-32.7	-46.8	3.8	7.43e-01	0	44	104	426246144	27	18367
2026-01-26 10:58:05.99	14.07	22.62	-32.3	-46.2	3.8	7.46e-01	0	44	104	426246144	26	17679
2026-01-26 10:58:07.00	13.83	22.51	-32.0	-45.1	3.8	7.46e-01	0	44	104	426246144	26	16304
2026-01-26 10:58:08.00	13.59	22.40	-31.7	-44.7	3.8	7.46e-01	0	44	104	426246144	25	16098
2026-01-26 10:58:09.01	13.35	22.29	-31.3	-44.1	3.8	7.46e-01	0	44	104	426246144	24	15645
2026-01-26 10:58:10.02	13.12	22.18	-30.9	-43.1	3.8	7.46e-01	0	44	104	426246144	24	14606
2026-01-26 10:58:11.02	12.88	22.07	-31.2	-43.9	3.8	7.47e-01	0	44	104	426246144	24	15459
2026-01-26 10:58:12.03	12.65	21.96	-31.6	-45.0	3.8	7.45e-01	0	44	104	426246144	24	16821
2026-01-26 10:58:13.03	12.42	21.85	-32.0	-46.1	3.8	7.41e-01	0	44	104	426246144	24	18370
2026-01-26 10:58:14.04	12.20	21.74	-32.3	-46.7	3.8	7.47e-01	0	44	104	426246144	25	18885
2026-01-26 10:58:15.05	11.97	21.63	-32.6	-47.8	3.8	7.46e-01	0	44	104	426246144	25	20620
2026-01-26 10:58:16.06	11.74	21.52	-32.9	-48.3	3.8	7.44e-01	0	44	104	426246144	26	21119
2026-01-26 10:58:17.05	11.53	21.42	-33.1	-48.7	3.8	7.43e-01	0	44	104	426246144	27	21587
2026-01-26 10:58:18.05	11.31	21.31	-33.0	-48.4	3.8	7.46e-01	0	44	104	426246144	27	21202
2026-01-26 10:58:19.05	11.09	21.20	-33.0	-48.2	3.8	7.45e-01	0	44	104	426246144	27	20868
2026-01-26 10:58:20.05	10.87	21.09	-32.9	-48.1	3.8	7.45e-01	0	44	104	426246144	27	20649
2026-01-26 10:58:21.06	10.65	20.98	-33.0	-48.2	3.8	7.45e-01	0	44	104	426246144	27	20816
2026-01-26 10:58:22.06	10.44	20.88	-33.0	-48.5	3.8	7.46e-01	0	44	104	426246144	27	21436
2026-01-26 10:58:23.07	10.23	20.77	-33.1	-48.8	3.8	7.43e-01	0	44	104	426246144	27	21956
2026-01-26 10:58:24.06	10.02	20.66	-33.3	-49.7	3.8	7.43e-01	0	44	104	426246144	27	23842
2026-01-26 10:58:25.06	9.81	20.55	-33.1	-48.8	3.8	7.45e-01	0	44	104	426246144	27	22004
2026-01-26 10:58:26.05	9.61	20.45	-32.8	-47.6	3.8	7.42e-01	0	44	104	426246144	27	19834
2026-01-26 10:58:27.05	9.40	20.34	-32.5	-46.6	3.8	7.44e-01	0	44	104	426246144	27	18110
2026-01-26 10:58:28.04	9.20	20.24	-32.2	-46.0	3.8	7.46e-01	0	44	104	426246144	26	17465
2026-01-26 10:58:29.05	9.00	20.13	-31.9	-45.0	3.8	7.41e-01	0	44	104	426246144	26	16173
2026-01-26 10:58:30.04	8.80	20.02	-32.1	-45.7	3.8	7.47e-01	0	44	104	426246144	26	17210
2026-01-26 10:58:31.04	8.60	19.92	-32.4	-46.5	3.8	7.46e-01	0	44	104	426246144	26	18375
2026-01-26 10:58:32.05	8.40	19.81	-32.6	-47.2	3.8	7.45e-01	0	44	104	426246144	26	19502
2026-01-26 10:58:33.05	8.20	19.70	-32.7	-47.9	3.8	7.43e-01	0	44	104	426246144	26	20661
2026-01-26 10:58:34.06	8.00	19.59	-32.9	-48.7	3.8	7.45e-01	0	44	104	426246144	26	22014
2026-01-26 10:58:35.05	7.81	19.49	-33.0	-49.1	3.8	7.44e-01	0	44	104	426246144	26	22938
2026-01-26 10:58:36.06	7.62	19.38	-33.0	-48.9	3.8	7.44e-01	0	44	104	426246144	26	22439
2026-01-26 10:58:37.06	7.43	19.28	-32.9	-48.6	3.8	7.46e-01	0	44	104	426246144	26	21893
2026-01-26 10:58:38.06	7.24	19.17	-32.9	-48.5	3.8	7.45e-01	0	44	104	426246144	26	21609
2026-01-26 10:58:39.07	7.05	19.07	-32.8	-48.2	3.8	7.47e-01	0	44	104	426246144	26	21183
2026-01-26 10:58:40.08	6.86	18.96	-32.8	-48.1	3.8	7.44e-01	0	44	104	426246144	26	20955
2026-01-26 10:58:41.08	6.68	18.85	-32.8	-48.0	3.8	7.44e-01	0	44	104	426246144	26	20804
2026-01-26 10:58:42.09	6.49	18.75	-32.8	-48.2	3.8	7.43e-01	0	44	104	426246144	26	21115
2026-01-26 10:58:43.10	6.31	18.64	-33.1	-49.0	3.9	7.46e-01	0	44	104	426246144	27	22360
2026-01-26 10:58:44.11	6.12	18.54	-33.4	-50.2	3.8	7.44e-01	0	44	104	426246144	27	24840
2026-01-26 10:58:45.11	5.94	18.43	-33.5	-51.1	3.8	7.46e-01	0	44	104	426246144	27	27127
2026-01-26 10:58:46.11	5.77	18.33	-33.3	-50.0	3.8	7.44e-01	0	44	104	426246144	27	24625
2026-01-26 10:58:47.12	5.59	18.22	-33.1	-48.8	3.8	7.46e-01	0	44	104	426246144	27	21960
2026-01-26 10:58:48.12	5.41	18.12	-32.8	-47.7	3.8	7.43e-01	0	44	104	426246144	27	19992
2026-01-26 10:58:49.13	5.24	18.02	-32.8	-47.7	3.8	7.46e-01	0	44	104	426246144	27	19970
2026-01-26 10:58:50.13	5.06	17.91	-32.8	-47.6	3.8	7.48e-01	0	44	104	426246144	27	19896
2026-01-26 10:58:51.12	4.89	17.81	-32.7	-47.6	3.8	7.46e-01	0	44	104	426246144	27	19834
2026-01-26 10:58:52.13	4.72	17.71	-32.8	-47.9	3.8	7.44e-01	0	44	104	426246144	27	20321
2026-01-26 10:58:53.13	4.55	17.61	-32.9	-48.1	3.8	7.47e-01	0	44	104	426246144	27	20763
2026-01-26 10:58:54.13	4.38	17.50	-32.9	-48.2	3.8	7.46e-01	0	44	104	426246144	27	21051
2026-01-26 10:58:55.13	4.22	17.40	-32.7	-47.3	3.8	7.45e-01	0	44	104	426246144	27	19480
2026-01-26 10:58:56.14	4.05	17.30	-32.5	-46.3	3.8	7.47e-01	0	44	104	426246144	27	17788
2026-01-26 10:58:57.14	3.89	17.20	-32.2	-45.8	3.8	7.45e-01	0	44	104	426246144	26	17328
2026-01-26 10:58:58.15	3.72	17.10	-31.9	-45.1	3.8	7.45e-01	0	44	104	426246144	26	16325
2026-01-26 10:58:59.15	3.56	16.99	-31.6	-44.8	3.9	7.44e-01	0	44	104	426246144	25	16354
2026-01-26 10:59:00.15	3.40	16.89	-31.5	-44.3	3.8	7.44e-01	0	44	104	426246144	25	15823
2026-01-26 10:59:01.15	3.24	16.79	-31.8	-45.4	3.8	7.43e-01	0	44	104	426246144	25	17269
2026-01-26 10:59:02.16	3.08	16.69	-32.1	-46.5	3.8	7.44e-01	0	44	104	426246144	25	18806
2026-01-26 10:59:03.16	2.92	16.59	-32.4	-47.4	3.8	7.46e-01	0	44	104	426246144	25	20195
2026-01-26 10:59:04.17	2.76	16.49	-32.7	-47.9	3.8	7.46e-01	0	44	104	426246144	26	20668
2026-01-26 10:59:05.17	2.61	16.39	-32.9	-48.7	3.8	7.44e-01	0	44	104	426246144	26	22300
2026-01-26 10:59:06.17	2.45	16.29	-33.0	-49.4	3.8	7.45e-01	0	44	104	426246144	26	23823
2026-01-26 10:59:07.17	2.30	16.19	-32.8	-48.6	3.8	7.42e-01	0	44	104	426246144	26	22148
2026-01-26 10:59:08.17	2.15	16.09	-32.8	-48.4	3.8	7.44e-01	0	44	104	426246144	26	21770
2026-01-26 10:59:09.17	2.00	16.00	-32.7	-48.0	3.8	7.47e-01	0	44	104	426246144	26	21057
2026-01-26 10:59:10.17	1.85	15.90	-32.7	-47.9	3.8	7.45e-01	0	44	104	426246144	26	20887
2026-01-26 10:59:11.18	1.70	15.80	-32.7	-48.2	3.8	7.45e-01	0	44	104	426246144	26	21331
2026-01-26 10:59:12.19	1.55	15.70	-32.8	-48.3	3.8	7.41e-01	0	44	104	426246144	26	21608
2026-01-26 10:59:13.18	1.41	15.60	-32.8	-48.5	3.8	7.44e-01	0	44	104	426246144	26	21975
2026-01-26 10:59:14.19	1.26	15.50	-32.6	-47.6	3.8	7.45e-01	0	44	104	426246144	26	20385
2026-01-26 10:59:15.19	1.11	15.41	-32.3	-46.5	3.8	7.45e-01	0	44	104	426246144	26	18570
2026-01-26 10:59:16.20	0.97	15.31	-32.0	-45.5	3.8	7.45e-01	0	44	104	426246144	26	17099
2026-01-26 10:59:17.20	0.83	15.21	-31.6	-45.0	3.8	7.43e-01	0	44	104	426246144	25	16660
2026-01-26 10:59:18.20	0.69	15.12	-31.4	-44.5	3.8	7.44e-01	0	44	104	426246144	24	16425
2026-01-26 10:59:19.20	0.55	15.02	-31.2	-44.1	3.8	7.42e-01	0	44	104	426246144	24	15858
2026-01-26 10:59:20.21	0.40	14.92	-31.5	-45.1	3.8	7.45e-01	0	44	104	426246144	24	17099
2026-01-26 10:59:21.21	0.27	14.83	-31.8	-46.0	3.8	7.47e-01	0	44	104	426246144	24	18354
2026-01-26 10:59:22.22	0.13	14.73	-32.1	-46.9	3.8	7.43e-01	0	44	104	426246144	24	19837
2026-01-26 10:59:23.22	359.99	14.64	-32.4	-47.5	3.8	7.48e-01	0	44	104	426246144	25	20510
2026-01-26 10:59:24.22	359.86	14.54	-32.6	-48.3	3.8	7.44e-01	0	44	104	426246144	25	22009
2026-01-26 10:59:25.22	359.72	14.45	-32.8	-48.5	3.8	7.44e-01	0	44	104	426246144	26	22041
2026-01-26 10:59:26.23	359.59	14.35	-32.7	-48.4	3.8	7.43e-01	0	44	104	426246144	26	21883
2026-01-26 10:59:27.22	359.46	14.26	-32.7	-48.3	3.8	7.47e-01	0	44	104	426246144	26	21720
2026-01-26 10:59:28.22	359.32	14.17	-32.8	-48.5	3.8	7.44e-01	0	44	104	426246144	26	22132
2026-01-26 10:59:29.23	359.19	14.07	-32.7	-48.3	3.8	7.41e-01	0	44	104	426246144	26	21635
2026-01-26 10:59:30.24	359.06	13.98	-32.7	-48.5	3.8	7.43e-01	0	44	104	426246144	26	22018
2026-01-26 10:59:31.24	358.93	13.88	-32.7	-48.3	3.8	7.44e-01	0	44	104	426246144	26	21718
2026-01-26 10:59:32.25	358.80	13.79	-32.7	-48.5	3.8	7.44e-01	0	44	104	426246144	26	22011
2026-01-26 10:59:33.25	358.67	13.70	-33.0	-49.6	3.8	7.41e-01	0	44	104	426246144	26	24264
2026-01-26 10:59:34.26	358.55	13.60	-33.1	-49.8	3.8	7.49e-01	0	44	104	426246144	27	24440
2026-01-26 10:59:35.26	358.42	13.51	-33.2	-50.2	3.8	7.47e-01	0	44	104	426246144	27	25415
2026-01-26 10:59:36.26	358.30	13.42	-33.1	-49.5	3.8	7.44e-01	0	44	104	426246144	27	23883
2026-01-26 10:59:37.26	358.17	13.33	-32.9	-48.6	3.8	7.43e-01	0	44	104	426246144	27	21961
2026-01-26 10:59:38.27	358.05	13.24	-32.7	-47.8	3.8	7.44e-01	0	44	104	426246144	27	20554
2026-01-26 10:59:39.27	357.93	13.15	-32.7	-48.1	3.8	7.48e-01	0	44	104	426246144	27	21097
2026-01-26 10:59:40.28	357.80	13.05	-32.8	-48.3	3.8	7.47e-01	0	44	104	426246144	27	21582
2026-01-26 10:59:41.28	357.68	12.96	-32.8	-48.4	3.8	7.44e-01	0	44	104	426246144	27	21657
2026-01-26 10:59:42.28	357.56	12.87	-32.9	-48.7	3.8	7.48e-01	0	44	104	426246144	27	22385
2026-01-26 10:59:43.28	357.45	12.78	-32.9	-48.7	3.8	7.45e-01	0	44	104	426246144	27	22222
2026-01-26 10:59:44.29	357.33	12.69	-32.9	-49.0	3.8	7.48e-01	0	44	104	426246144	27	22773
2026-01-26 10:59:45.29	357.21	12.60	-32.8	-48.6	3.8	7.45e-01	0	44	104	426246144	27	22033
2026-01-26 10:59:46.30	357.09	12.51	-32.7	-47.9	3.8	7.43e-01	0	44	104	426246144	27	20741
2026-01-26 10:59:47.31	356.97	12.42	-32.6	-47.4	3.8	7.45e-01	0	44	104	426246144	27	19757
2026-01-26 10:59:48.31	356.86	12.34	-32.4	-46.7	3.8	7.45e-01	0	44	104	426246144	27	18755
2026-01-26 10:59:49.32	356.74	12.25	-32.3	-46.8	3.8	7.43e-01	0	44	104	426246144	26	19163
2026-01-26 10:59:50.31	356.63	12.16	-32.2	-46.5	3.8	7.45e-01	0	44	104	426246144	26	18672
2026-01-26 10:59:51.32	356.52	12.07	-32.4	-47.3	3.8	7.47e-01	0	44	104	426246144	26	20071
2026-01-26 10:59:52.32	356.41	11.98	-32.6	-48.2	3.8	7.42e-01	0	44	104	426246144	26	21658
2026-01-26 10:59:53.33	356.29	11.89	-32.8	-49.1	3.8	7.43e-01	0	44	104	426246144	26	23437
2026-01-26 10:59:54.33	356.18	11.81	-32.9	-49.4	3.8	7.45e-01	0	44	104	426246144	26	24151
2026-01-26 10:59:55.34	356.07	11.72	-32.7	-48.6	3.8	7.47e-01	0	44	104	426246144	26	22533
2026-01-26 10:59:56.34	355.96	11.63	-32.5	-47.8	3.8	7.46e-01	0	44	104	426246144	26	20903
2026-01-26 10:59:57.35	355.86	11.54	-32.3	-46.9	3.8	7.44e-01	0	44	104	426246144	26	19377
2026-01-26 10:59:58.35	355.75	11.46	-32.2	-46.5	3.8	7.47e-01	0	44	104	426246144	26	18818
2026-01-26 10:59:59.35	355.64	11.37	-32.1	-46.2	3.8	7.44e-01	0	44	104	426246144	26	18252
2026-01-26 11:00:00.35	355.54	11.29	-32.0	-45.9	3.8	7.43e-01	0	44	104	426246144	26	17818
2026-01-26 11:00:01.35	355.43	11.20	-32.1	-46.5	3.8	7.42e-01	0	44	104	426246144	26	18753
2026-01-26 11:00:02.35	355.33	11.12	-32.3	-47.0	3.8	7.43e-01	0	44	104	426246144	26	19597
2026-01-26 11:00:03.36	355.22	11.03	-32.3	-46.9	3.8	7.43e-01	0	44	104	426246144	26	19449
2026-01-26 11:00:04.37	355.12	10.94	-32.0	-46.0	3.8	7.47e-01	0	44	104	426246144	26	17944
2026-01-26 11:00:05.37	355.01	10.86	-31.8	-45.8	3.8	7.47e-01	0	44	104	426246144	25	17857
2026-01-26 11:00:06.36	354.91	10.78	-31.6	-45.0	3.8	7.43e-01	0	44	104	426246144	25	16890
2026-01-26 11:00:07.37	354.81	10.69	-31.4	-44.4	3.8	7.44e-01	0	44	104	426246144	25	16004
2026-01-26 11:00:08.38	354.71	10.61	-31.2	-44.3	3.8	7.45e-01	0	44	104	426246144	24	16223
2026-01-26 11:00:09.39	354.61	10.52	-31.1	-44.1	3.8	7.46e-01	0	44	104	426246144	24	16079
2026-01-26 11:00:10.39	354.51	10.44	-31.5	-45.5	3.8	7.43e-01	0	44	104	426246144	24	17884
2026-01-26 11:00:11.39	354.41	10.36	-31.7	-46.1	3.8	7.42e-01	0	44	104	426246144	24	18800
2026-01-26 11:00:12.39	354.31	10.27	-32.1	-47.3	3.8	7.41e-01	0	44	104	426246144	24	20877
2026-01-26 11:00:13.38	354.21	10.19	-32.4	-48.1	3.8	7.45e-01	0	44	104	426246144	25	21954
2026-01-26 11:00:14.39	354.12	10.11	-32.6	-48.7	3.8	7.48e-01	0	44	104	426246144	25	23213
2026-01-26 11:00:15.40	354.02	10.02	-32.7	-49.0	3.8	7.46e-01	0	44	104	426246144	26	23413
2026-01-26 11:00:16.40	353.92	9.94	-32.7	-48.9	3.8	7.42e-01	0	44	104	426246144	26	23215
2026-01-26 11:00:17.41	353.83	9.86	-32.7	-49.0	3.8	7.47e-01	0	44	104	426246144	26	23506
2026-01-26 11:00:18.41	353.73	9.78	-32.7	-48.8	3.8	7.45e-01	0	44	104	426246144	26	22950
2026-01-26 11:00:19.42	353.64	9.70	-32.7	-49.0	3.8	7.46e-01	0	44	104	426246144	26	23496
2026-01-26 11:00:20.43	353.54	9.61	-32.7	-49.0	3.8	7.47e-01	0	44	104	426246144	26	23563
2026-01-26 11:00:21.43	353.45	9.53	-32.7	-48.9	3.8	7.40e-01	0	44	104	426246144	26	23210
2026-01-26 11:00:22.43	353.36	9.45	-32.7	-49.2	3.8	7.46e-01	0	44	104	426246144	26	23938
2026-01-26 11:00:23.44	353.27	9.37	-32.8	-49.5	3.8	7.45e-01	0	44	104	426246144	26	24687
2026-01-26 11:00:24.44	353.17	9.29	-32.9	-49.8	3.8	7.45e-01	0	44	104	426246144	26	25338
2026-01-26 11:00:25.44	353.08	9.21	-32.9	-49.8	3.8	7.45e-01	0	44	104	426246144	26	25367
2026-01-26 11:00:26.44	352.99	9.13	-32.8	-49.5	3.8	7.47e-01	0	44	104	426246144	26	24551
2026-01-26 11:00:27.45	352.90	9.05	-32.8	-49.2	3.8	7.46e-01	0	44	104	426246144	26	23933
2026-01-26 11:00:28.45	352.82	8.97	-32.7	-48.7	3.8	7.45e-01	0	44	104	426246144	26	22733
2026-01-26 11:00:29.45	352.73	8.89	-32.7	-48.9	3.8	7.46e-01	0	44	104	426246144	26	23312
2026-01-26 11:00:30.45	352.64	8.81	-32.7	-49.0	3.8	7.47e-01	0	44	104	426246144	26	23598
2026-01-26 11:00:31.44	352.55	8.74	-32.7	-49.3	3.8	7.43e-01	0	44	104	426246144	26	24271
2026-01-26 11:00:32.45	352.47	8.66	-32.8	-49.4	3.8	7.44e-01	0	44	104	426246144	26	24560
2026-01-26 11:00:33.45	352.38	8.58	-32.8	-49.8	3.8	7.48e-01	0	44	104	426246144	26	25485
2026-01-26 11:00:34.46	352.29	8.50	-32.8	-50.0	3.8	7.44e-01	0	44	104	426246144	26	26130
2026-01-26 11:00:35.47	352.21	8.42	-32.8	-50.0	3.8	7.42e-01	0	44	104	426246144	26	26005
2026-01-26 11:00:36.47	352.12	8.34	-32.8	-49.6	3.8	7.46e-01	0	44	104	426246144	26	24963
2026-01-26 11:00:37.48	352.04	8.27	-32.7	-49.2	3.8	7.44e-01	0	44	104	426246144	26	24102
2026-01-26 11:00:38.48	351.95	8.19	-32.6	-48.8	3.8	7.42e-01	0	44	104	426246144	26	23305
2026-01-26 11:00:39.48	351.87	8.11	-32.5	-48.4	3.8	7.47e-01	0	44	104	426246144	26	22495
2026-01-26 11:00:40.48	351.79	8.04	-32.5	-48.5	3.8	7.44e-01	0	44	104	426246144	26	22598
2026-01-26 11:00:41.48	351.71	7.96	-32.7	-49.2	3.8	7.45e-01	0	44	104	426246144	26	24230
2026-01-26 11:00:42.48	351.62	7.88	-32.7	-49.2	3.8	7.44e-01	0	44	104	426246144	26	24177
2026-01-26 11:00:43.48	351.54	7.81	-32.6	-48.6	3.8	7.44e-01	0	44	104	426246144	26	22832
2026-01-26 11:00:44.49	351.46	7.73	-32.4	-48.0	3.8	7.42e-01	0	44	104	426246144	26	21666
2026-01-26 11:00:45.49	351.38	7.65	-32.3	-47.1	3.8	7.46e-01	0	44	104	426246144	26	19922
2026-01-26 11:00:46.50	351.30	7.58	-32.0	-46.0	3.8	7.44e-01	0	44	104	426246144	26	18040
2026-01-26 11:00:47.50	351.22	7.50	-31.9	-45.8	3.8	7.43e-01	0	44	104	426246144	26	17826
2026-01-26 11:00:48.50	351.14	7.43	-31.7	-45.4	3.8	7.47e-01	0	44	104	426246144	25	17476
2026-01-26 11:00:49.51	351.06	7.35	-31.6	-45.2	3.8	7.46e-01	0	44	104	426246144	25	17162
2026-01-26 11:00:50.51	350.99	7.28	-31.4	-44.6	3.8	7.45e-01	0	44	104	426246144	25	16468
2026-01-26 11:00:51.52	350.91	7.20	-31.7	-45.6	3.8	7.47e-01	0	44	104	426246144	25	17875
2026-01-26 11:00:52.52	350.83	7.13	-31.6	-45.2	3.8	7.43e-01	0	44	104	426246144	25	17204
2026-01-26 11:00:53.52	350.76	7.05	-33.0	-50.7	3.8	7.52e-01	0	44	104	426246144	26	27565
2026-01-26 11:00:54.53	350.68	6.98	-33.5	-52.5	3.7	7.47e-01	0	44	104	426246144	27	31860

#Closed at: 2026-01-26 11:00:55
#Recorded file [426 MB]: D:/data/31010_260126_135125.dat