passes_logs/2026/01/26/R2M6_AANII_01/R2M6_AANII_01__20260126_021958_NOAA_21_JPSS-2_rec.log

#Pass ID: 20260126_021958_NOAA 21 (JPSS-2)
#Satellite: NOAA 21 (JPSS-2)
#Configuration: NOAA 21
#almurnet v.1.7.20240730
#Start time: 2026-01-26 02:19:58

#Version: 2.2.20231116
#Station: R2M6_AANII_01
#Location: 30.233357 lon 59.946436 lat
#TLE: 1 54234U 22150A   26025.44451686  .00000186  00000+0  10896-3 0  9992
#TLE: 2 54234  98.7509 326.2184 0000763 215.1852 144.9274 14.19539183166293

#Time	Az	El	Level	Level2	SNR	BER	BlckErr	Temp	State	Recorded	gain1	gain2
2026-01-26 02:19:58.21	10.14	7.01	-31.5	-38.7	4.1	1.45e+00	0	43	0	0	23	8212
2026-01-26 02:19:59.20	10.05	7.07	-30.9	-36.6	4.4	1.42e+00	0	43	104	0	22	6913
2026-01-26 02:20:00.20	9.95	7.13	-30.9	-36.3	7.0	1.66e-01	0	43	0	0	21	6705
2026-01-26 02:20:01.20	9.86	7.20	-30.8	-35.5	7.4	1.31e-01	0	43	102	1048576	22	6153
2026-01-26 02:20:02.19	9.77	7.26	-30.8	-35.8	7.4	1.21e-01	0	43	102	1048576	21	6430
2026-01-26 02:20:03.20	9.67	7.32	-30.9	-36.1	7.3	1.16e-01	0	43	102	1048576	21	6564
2026-01-26 02:20:04.21	9.58	7.39	-30.7	-35.5	7.7	9.85e-02	0	43	102	1048576	21	6244
2026-01-26 02:20:05.21	9.48	7.45	-30.9	-36.3	7.2	1.08e-01	0	43	102	1048576	21	6647
2026-01-26 02:20:06.22	9.38	7.51	-30.7	-35.5	7.7	1.06e-01	0	43	102	1048576	21	6232
2026-01-26 02:20:07.23	9.29	7.58	-30.5	-34.6	8.4	5.15e-02	0	43	102	1048576	21	5801
2026-01-26 02:20:08.23	9.19	7.64	-30.0	-33.7	9.4	1.76e-02	0	43	102	1048576	20	5484
2026-01-26 02:20:09.24	9.09	7.70	-29.8	-33.0	9.9	1.35e-02	0	43	102	1048576	20	5216
2026-01-26 02:20:10.24	8.99	7.77	-29.3	-32.1	11.0	4.00e-03	0	43	102	1048576	19	4925
2026-01-26 02:20:11.24	8.89	7.83	-29.0	-31.6	11.7	6.48e-04	0	43	102	1048576	18	4879
2026-01-26 02:20:12.25	8.80	7.90	-28.8	-31.2	12.0	4.49e-04	0	43	102	1048576	18	4721
2026-01-26 02:20:13.25	8.70	7.96	-28.5	-30.9	12.5	9.00e-05	0	43	102	1048576	17	4728
2026-01-26 02:20:14.26	8.60	8.03	-28.7	-31.3	12.3	1.98e-04	0	43	102	1048576	17	4864
2026-01-26 02:20:15.26	8.50	8.09	-28.5	-30.9	12.5	3.97e-04	0	43	102	1048576	17	4732
2026-01-26 02:20:16.26	8.39	8.15	-28.6	-31.2	12.3	1.40e-04	0	43	102	1048576	17	4827
2026-01-26 02:20:17.26	8.29	8.22	-28.3	-30.9	12.8	7.24e-05	0	43	102	1048576	16	4858
2026-01-26 02:20:18.27	8.19	8.28	-28.3	-30.8	12.8	3.43e-05	0	43	102	1048576	16	4828
2026-01-26 02:20:19.27	8.09	8.35	-28.5	-31.3	12.6	7.47e-05	0	43	102	1048576	16	4978
2026-01-26 02:20:20.27	7.99	8.41	-28.1	-30.4	13.1	4.56e-03	0	43	102	1048576	16	4694
2026-01-26 02:20:21.27	7.88	8.48	-28.4	-31.2	12.7	5.18e-05	0	43	102	1048576	16	4939
2026-01-26 02:20:22.28	7.78	8.54	-28.2	-30.7	12.9	6.71e-05	0	43	102	1048576	16	4778
2026-01-26 02:20:23.28	7.68	8.61	-28.5	-31.2	12.6	3.28e-05	0	43	102	1048576	16	4965
2026-01-26 02:20:24.29	7.57	8.67	-28.8	-31.6	12.1	2.93e-04	0	43	102	1048576	17	4960
2026-01-26 02:20:25.29	7.47	8.74	-28.2	-30.6	13.0	4.01e-03	0	43	102	1048576	16	4737
2026-01-26 02:20:26.30	7.36	8.80	-27.9	-30.5	13.2	1.83e-05	0	43	102	1048576	15	4841
2026-01-26 02:20:27.30	7.25	8.87	-27.9	-30.4	13.3	1.06e-05	0	43	102	1048576	15	4810
2026-01-26 02:20:28.31	7.15	8.93	-27.8	-30.3	13.4	2.44e-05	0	43	102	1048576	15	4770
2026-01-26 02:20:29.31	7.04	9.00	-27.8	-30.1	13.5	4.51e-04	0	43	102	1048576	15	4690
2026-01-26 02:20:30.32	6.93	9.06	-28.1	-30.3	13.3	4.16e-04	0	43	102	1048576	16	4641
2026-01-26 02:20:31.32	6.83	9.13	-27.7	-29.9	13.6	4.00e-03	0	43	102	1048576	15	4628
2026-01-26 02:20:32.31	6.72	9.19	-27.8	-30.0	13.5	3.79e-03	0	43	102	1048576	15	4686
2026-01-26 02:20:33.31	6.61	9.26	-27.8	-30.2	13.5	1.14e-05	0	44	102	1048576	15	4743
2026-01-26 02:20:34.31	6.50	9.32	-27.7	-30.0	13.6	3.49e-03	0	44	102	1048576	15	4664
2026-01-26 02:20:35.31	6.39	9.39	-27.8	-30.3	13.4	4.22e-03	0	43	102	1048576	15	4761
2026-01-26 02:20:36.31	6.28	9.46	-27.7	-30.0	13.6	4.21e-04	0	44	102	1048576	15	4667
2026-01-26 02:20:37.32	6.17	9.52	-28.4	-31.0	12.9	4.53e-03	0	44	102	1048576	16	4882
2026-01-26 02:20:38.32	6.06	9.59	-28.4	-31.1	12.8	7.32e-05	0	43	102	1048576	16	4898
2026-01-26 02:20:39.33	5.94	9.65	-28.0	-30.0	13.5	5.74e-04	0	43	102	1048576	16	4551
2026-01-26 02:20:40.33	5.83	9.72	-27.8	-30.2	13.5	4.67e-03	0	44	102	1048576	15	4740
2026-01-26 02:20:41.34	5.72	9.79	-27.7	-30.0	13.7	4.28e-03	0	44	102	1048576	15	4653
2026-01-26 02:20:42.34	5.61	9.85	-27.8	-30.0	13.6	6.51e-04	0	44	102	1048576	15	4680
2026-01-26 02:20:43.35	5.49	9.92	-27.7	-30.0	13.7	4.26e-03	0	44	102	1048576	15	4662
2026-01-26 02:20:44.35	5.38	9.99	-27.6	-29.6	13.9	4.53e-03	0	44	102	1048576	15	4552
2026-01-26 02:20:45.35	5.26	10.05	-27.6	-29.7	13.9	6.35e-04	0	44	102	1048576	15	4566
2026-01-26 02:20:46.36	5.14	10.12	-27.6	-29.6	13.9	4.49e-03	0	44	102	1048576	15	4527
2026-01-26 02:20:47.36	5.03	10.19	-27.5	-29.5	13.9	4.45e-03	0	44	102	1048576	15	4511
2026-01-26 02:20:48.36	4.91	10.25	-27.5	-29.4	14.0	6.22e-04	0	44	102	1048576	15	4493
2026-01-26 02:20:49.37	4.79	10.32	-27.6	-29.6	13.9	2.20e-06	0	44	102	1048576	15	4551
2026-01-26 02:20:50.37	4.68	10.39	-27.7	-30.0	13.7	4.07e-03	0	43	102	1048576	15	4656
2026-01-26 02:20:51.38	4.56	10.45	-27.7	-29.9	13.7	6.00e-04	0	44	102	1048576	15	4645
2026-01-26 02:20:52.38	4.44	10.52	-27.6	-29.6	13.9	4.19e-03	0	43	102	1048576	15	4548
2026-01-26 02:20:53.39	4.32	10.59	-27.5	-29.4	14.0	4.61e-03	0	44	102	1048576	15	4485
2026-01-26 02:20:54.40	4.20	10.65	-27.6	-29.6	14.0	2.20e-06	0	44	102	1048576	15	4542
2026-01-26 02:20:55.40	4.08	10.72	-27.4	-29.7	14.1	7.00e-07	0	44	102	1048576	14	4698
2026-01-26 02:20:56.41	3.95	10.79	-27.5	-29.4	14.1	2.20e-06	0	44	102	1048576	15	4478
2026-01-26 02:20:57.41	3.83	10.86	-27.4	-29.2	14.2	5.17e-04	0	44	102	1048576	15	4407
2026-01-26 02:20:58.42	3.71	10.92	-27.5	-29.5	14.0	4.47e-03	0	44	102	1048576	15	4498
2026-01-26 02:20:59.42	3.59	10.99	-27.3	-29.5	14.3	7.00e-07	0	44	102	1048576	14	4633
2026-01-26 02:21:00.43	3.46	11.06	-27.3	-29.4	14.4	1.50e-06	0	44	102	1048576	14	4575
2026-01-26 02:21:01.44	3.34	11.13	-27.4	-29.7	14.2	7.00e-07	0	44	102	1048576	14	4666
2026-01-26 02:21:02.44	3.21	11.19	-27.3	-29.5	14.3	4.63e-03	0	44	102	1048576	14	4611
2026-01-26 02:21:03.44	3.09	11.26	-27.3	-29.5	14.3	6.36e-04	0	44	102	1048576	14	4624
2026-01-26 02:21:04.44	2.96	11.33	-27.3	-29.4	14.4	0.00e+00	0	44	102	1048576	14	4573
2026-01-26 02:21:05.45	2.83	11.40	-27.4	-29.5	14.3	0.00e+00	0	44	102	1048576	14	4634
2026-01-26 02:21:06.45	2.71	11.46	-27.4	-29.6	14.3	0.00e+00	0	44	102	1048576	14	4641
2026-01-26 02:21:07.46	2.58	11.53	-27.5	-29.8	14.2	4.45e-03	0	44	102	1048576	14	4710
2026-01-26 02:21:08.47	2.45	11.60	-27.6	-29.6	14.0	4.27e-03	0	44	102	1048576	15	4530
2026-01-26 02:21:09.47	2.32	11.67	-27.5	-29.5	14.1	3.80e-06	0	44	102	1048576	15	4499
2026-01-26 02:21:10.47	2.19	11.73	-27.6	-29.6	14.0	1.50e-06	0	44	102	1048576	15	4540
2026-01-26 02:21:11.48	2.06	11.80	-27.6	-29.5	14.1	3.00e-06	0	44	102	1048576	15	4514
2026-01-26 02:21:12.48	1.93	11.87	-27.4	-29.2	14.2	2.59e-04	0	44	102	1048576	15	4421
2026-01-26 02:21:13.49	1.80	11.94	-27.5	-29.4	14.1	2.20e-06	0	44	102	1048576	15	4483
2026-01-26 02:21:14.49	1.66	12.01	-27.4	-29.1	14.4	2.20e-06	0	44	102	1048576	15	4376
2026-01-26 02:21:15.49	1.53	12.07	-27.6	-29.5	14.1	1.50e-06	0	44	102	1048576	15	4509
2026-01-26 02:21:16.50	1.40	12.14	-27.5	-29.3	14.3	7.00e-07	0	44	102	1048576	15	4426
2026-01-26 02:21:17.50	1.26	12.21	-27.4	-29.1	14.3	2.28e-04	0	44	102	1048576	15	4396
2026-01-26 02:21:18.51	1.13	12.28	-27.2	-29.3	14.6	2.26e-04	0	44	102	1048576	14	4539
2026-01-26 02:21:19.52	0.99	12.35	-27.2	-29.1	14.7	7.00e-07	0	44	102	1048576	14	4493
2026-01-26 02:21:20.52	0.86	12.42	-27.4	-29.7	14.3	7.00e-07	0	44	102	1048576	14	4674
2026-01-26 02:21:21.52	0.72	12.48	-27.3	-29.5	14.4	0.00e+00	0	44	102	1048576	14	4608
2026-01-26 02:21:22.52	0.58	12.55	-27.3	-29.4	14.5	0.00e+00	0	44	102	1048576	14	4586
2026-01-26 02:21:23.53	0.44	12.62	-27.2	-29.1	14.7	1.91e-04	0	44	102	1048576	14	4481
2026-01-26 02:21:24.54	0.30	12.69	-27.3	-29.5	14.5	1.52e-04	0	44	102	1048576	14	4599
2026-01-26 02:21:25.53	0.17	12.76	-27.3	-29.0	14.5	1.50e-06	0	44	102	1048576	15	4351
2026-01-26 02:21:26.54	0.03	12.83	-27.2	-29.2	14.6	2.57e-04	0	44	102	1048576	14	4529
2026-01-26 02:21:27.54	359.89	12.89	-27.1	-28.9	14.8	3.29e-04	0	44	102	1048576	14	4443
2026-01-26 02:21:28.55	359.74	12.96	-27.2	-29.1	14.7	0.00e+00	0	44	102	1048576	14	4487
2026-01-26 02:21:29.56	359.60	13.03	-27.1	-28.8	14.9	3.68e-04	0	44	102	1048576	14	4408
2026-01-26 02:21:30.56	359.46	13.10	-27.1	-28.9	14.8	3.17e-04	0	44	102	1048576	14	4417
2026-01-26 02:21:31.57	359.31	13.17	-27.2	-29.1	14.7	0.00e+00	0	44	102	1048576	14	4478
2026-01-26 02:21:32.57	359.17	13.24	-27.1	-29.0	14.8	2.39e-04	0	44	102	1048576	14	4460
2026-01-26 02:21:33.58	359.02	13.31	-27.3	-29.4	14.5	2.74e-04	0	44	102	1048576	14	4589
2026-01-26 02:21:34.59	358.88	13.37	-27.5	-29.8	14.3	3.80e-06	0	44	102	1048576	14	4700
2026-01-26 02:21:35.59	358.73	13.44	-27.3	-29.4	14.6	4.40e-04	0	44	102	1048576	14	4571
2026-01-26 02:21:36.59	358.59	13.51	-27.4	-29.5	14.5	0.00e+00	0	44	102	1048576	14	4610
2026-01-26 02:21:37.59	358.44	13.58	-27.4	-29.5	14.5	7.00e-07	0	44	102	1048576	14	4611
2026-01-26 02:21:38.59	358.29	13.65	-27.4	-29.6	14.5	5.23e-04	0	44	102	1048576	14	4626
2026-01-26 02:21:39.59	358.14	13.72	-27.4	-29.1	14.5	5.60e-04	0	44	102	1048576	15	4368
2026-01-26 02:21:40.59	357.99	13.78	-27.3	-29.3	14.6	0.00e+00	0	44	102	1048576	14	4546
2026-01-26 02:21:41.60	357.84	13.85	-27.4	-29.5	14.5	7.00e-07	0	44	102	1048576	14	4618
2026-01-26 02:21:42.59	357.69	13.92	-27.4	-29.2	14.5	0.00e+00	0	44	102	1048576	15	4401
2026-01-26 02:21:43.60	357.54	13.99	-27.4	-29.7	14.4	0.00e+00	0	44	102	1048576	14	4661
2026-01-26 02:21:44.61	357.39	14.06	-27.5	-29.8	14.4	6.80e-04	0	44	102	1048576	14	4685
2026-01-26 02:21:45.62	357.23	14.13	-27.6	-29.5	14.3	7.00e-07	0	44	102	1048576	15	4506
2026-01-26 02:21:46.62	357.08	14.20	-27.6	-29.6	14.2	7.00e-07	0	44	102	1048576	15	4509
2026-01-26 02:21:47.62	356.93	14.26	-27.6	-29.6	14.2	7.00e-07	0	44	102	1048576	15	4538
2026-01-26 02:21:48.62	356.77	14.33	-27.8	-30.1	13.9	3.00e-06	0	44	102	1048576	15	4689
2026-01-26 02:21:49.63	356.61	14.40	-27.8	-30.0	14.0	7.00e-07	0	44	102	1048576	15	4637
2026-01-26 02:21:50.63	356.46	14.47	-27.6	-29.6	14.2	7.00e-07	0	44	102	1048576	15	4528
2026-01-26 02:21:51.64	356.30	14.54	-27.6	-29.5	14.3	0.00e+00	0	44	102	1048576	15	4505
2026-01-26 02:21:52.64	356.14	14.61	-27.5	-29.4	14.4	1.50e-06	0	44	102	1048576	15	4453
2026-01-26 02:21:53.65	355.98	14.67	-27.5	-29.4	14.3	2.20e-06	0	44	102	1048576	15	4457
2026-01-26 02:21:54.66	355.82	14.74	-27.6	-29.4	14.3	2.20e-06	0	44	102	1048576	15	4466
2026-01-26 02:21:55.66	355.66	14.81	-27.5	-29.3	14.4	1.50e-06	0	44	102	1048576	15	4442
2026-01-26 02:21:56.67	355.50	14.88	-27.5	-29.2	14.5	1.50e-06	0	44	102	1048576	15	4395
2026-01-26 02:21:57.67	355.34	14.95	-27.1	-29.0	14.3	0.00e+00	0	44	102	1048576	15	4504
2026-01-26 02:21:58.67	355.17	15.01	-27.0	-29.2	12.8	0.00e+00	0	44	102	1048576	15	4644
2026-01-26 02:21:59.68	355.01	15.08	-28.2	-30.5	13.1	5.30e-06	0	44	102	1048576	16	4662
2026-01-26 02:22:00.68	354.85	15.15	-28.2	-30.5	12.5	6.10e-06	0	44	102	1048576	16	4668
2026-01-26 02:22:01.67	354.68	15.22	-28.3	-30.6	13.4	1.29e-05	0	44	102	1048576	16	4702
2026-01-26 02:22:02.68	354.52	15.29	-27.7	-29.8	14.1	4.50e-06	0	44	102	1048576	15	4566
2026-01-26 02:22:03.69	354.35	15.35	-27.4	-29.6	14.5	7.00e-07	0	44	102	1048576	14	4642
2026-01-26 02:22:04.69	354.18	15.42	-27.4	-29.1	14.5	0.00e+00	0	44	102	1048576	15	4362
2026-01-26 02:22:05.69	354.01	15.49	-27.6	-29.4	14.4	7.00e-07	0	44	102	1048576	15	4475
2026-01-26 02:22:06.70	353.84	15.56	-28.1	-30.1	13.9	3.18e-03	0	44	102	1048576	16	4537
2026-01-26 02:22:07.70	353.67	15.62	-28.0	-30.4	13.8	2.20e-06	0	44	102	1048576	15	4758
2026-01-26 02:22:08.70	353.51	15.69	-27.9	-30.2	13.9	2.20e-06	0	44	102	1048576	15	4716
2026-01-26 02:22:09.71	353.33	15.76	-27.7	-29.9	14.1	3.00e-06	0	44	102	1048576	15	4603
2026-01-26 02:22:10.71	353.16	15.83	-27.6	-29.5	14.3	2.81e-03	0	44	102	1048576	15	4492
2026-01-26 02:22:11.71	352.99	15.89	-27.5	-29.3	14.4	6.66e-04	0	44	102	1048576	15	4442
2026-01-26 02:22:12.71	352.82	15.96	-27.4	-29.1	14.6	2.70e-03	0	44	102	1048576	15	4374
2026-01-26 02:22:13.72	352.64	16.03	-27.5	-29.8	14.5	0.00e+00	0	44	102	1048576	14	4678
2026-01-26 02:22:14.72	352.47	16.10	-27.5	-29.2	14.5	0.00e+00	0	44	102	1048576	15	4389
2026-01-26 02:22:15.72	352.29	16.16	-27.3	-29.4	14.7	2.70e-03	0	44	102	1048576	14	4573
2026-01-26 02:22:16.72	352.11	16.23	-27.4	-29.6	14.6	2.52e-03	0	44	102	1048576	14	4642
2026-01-26 02:22:17.73	351.93	16.30	-27.2	-29.2	14.8	3.13e-04	0	44	102	1048576	14	4500
2026-01-26 02:22:18.74	351.76	16.36	-27.2	-29.0	14.9	0.00e+00	0	44	102	1048576	14	4450
2026-01-26 02:22:19.74	351.58	16.43	-27.4	-29.5	14.7	0.00e+00	0	44	102	1048576	14	4593
2026-01-26 02:22:20.75	351.40	16.50	-27.3	-29.2	14.8	1.51e-04	0	44	102	1048576	14	4516
2026-01-26 02:22:21.76	351.21	16.56	-27.2	-29.1	14.9	2.13e-03	0	44	102	1048576	14	4489
2026-01-26 02:22:22.77	351.03	16.63	-27.2	-29.0	14.9	2.46e-03	0	44	102	1048576	14	4459
2026-01-26 02:22:23.77	350.85	16.69	-27.3	-29.2	14.8	1.91e-04	0	44	102	1048576	14	4520
2026-01-26 02:22:24.78	350.66	16.76	-27.1	-28.8	15.1	3.41e-03	0	44	102	1048576	14	4393
2026-01-26 02:22:25.78	350.48	16.83	-26.9	-28.4	15.3	3.65e-03	0	44	102	1048576	14	4274
2026-01-26 02:22:26.79	350.29	16.89	-26.8	-28.8	15.4	2.69e-04	0	44	102	1048576	13	4494
2026-01-26 02:22:27.80	350.11	16.96	-26.9	-28.9	15.3	3.60e-03	0	44	102	1048576	13	4534
2026-01-26 02:22:28.80	349.92	17.02	-27.1	-28.7	15.1	3.31e-03	0	44	102	1048576	14	4369
2026-01-26 02:22:29.81	349.73	17.09	-27.3	-29.3	14.8	5.54e-04	0	44	102	1048576	14	4548
2026-01-26 02:22:30.82	349.54	17.16	-27.2	-29.1	14.9	7.00e-07	0	44	102	1048576	14	4472
2026-01-26 02:22:31.82	349.35	17.22	-27.0	-28.7	15.2	3.60e-03	0	44	102	1048576	14	4346
2026-01-26 02:22:32.83	349.16	17.29	-26.9	-28.9	15.3	5.37e-04	0	44	102	1048576	13	4538
2026-01-26 02:22:33.84	348.97	17.35	-26.9	-28.9	15.3	3.16e-03	0	44	102	1048576	13	4536
2026-01-26 02:22:34.85	348.78	17.42	-27.1	-28.9	15.1	2.64e-03	0	44	102	1048576	14	4405
2026-01-26 02:22:35.85	348.59	17.48	-27.6	-29.6	14.5	7.00e-07	0	44	102	1048576	15	4495
2026-01-26 02:22:36.86	348.39	17.54	-27.3	-28.9	14.8	0.00e+00	0	44	102	1048576	15	4309
2026-01-26 02:22:37.86	348.20	17.61	-27.1	-28.8	15.1	1.49e-04	0	44	102	1048576	14	4399
2026-01-26 02:22:38.87	348.00	17.67	-27.1	-28.9	15.0	8.54e-05	0	44	102	1048576	14	4419
2026-01-26 02:22:39.88	347.80	17.74	-27.2	-29.0	15.0	1.50e-06	0	44	102	1048576	14	4455
2026-01-26 02:22:40.88	347.61	17.80	-27.3	-29.2	14.9	0.00e+00	0	44	102	1048576	14	4521
2026-01-26 02:22:41.88	347.41	17.86	-27.3	-29.3	14.8	2.20e-06	0	44	102	1048576	14	4546
2026-01-26 02:22:42.89	347.21	17.93	-27.2	-29.0	15.0	0.00e+00	0	44	102	1048576	14	4458
2026-01-26 02:22:43.90	347.01	17.99	-27.0	-28.7	15.2	5.49e-05	0	44	102	1048576	14	4350
2026-01-26 02:22:44.89	346.81	18.05	-27.1	-28.8	15.1	0.00e+00	0	44	102	1048576	14	4376
2026-01-26 02:22:45.89	346.61	18.11	-27.3	-29.4	14.8	0.00e+00	0	44	102	1048576	14	4553
2026-01-26 02:22:46.89	346.41	18.18	-27.6	-29.5	14.4	4.11e-05	0	44	102	1048576	15	4488
2026-01-26 02:22:47.89	346.21	18.24	-27.6	-29.5	14.4	5.30e-06	0	44	102	1048576	15	4496
2026-01-26 02:22:48.90	346.01	18.30	-27.6	-29.5	14.4	3.28e-03	0	44	102	1048576	15	4474
2026-01-26 02:22:49.90	345.80	18.36	-27.4	-29.6	14.6	0.00e+00	0	44	102	1048576	14	4627
2026-01-26 02:22:50.90	345.60	18.42	-27.4	-29.6	14.6	0.00e+00	0	44	102	1048576	14	4627
2026-01-26 02:22:51.91	345.39	18.48	-27.6	-29.5	14.4	7.00e-07	0	44	102	1048576	15	4476
2026-01-26 02:22:52.91	345.18	18.54	-27.5	-29.2	14.6	7.00e-07	0	44	102	1048576	15	4394
2026-01-26 02:22:53.92	344.98	18.61	-27.7	-29.7	14.3	2.20e-06	0	44	102	1048576	15	4540
2026-01-26 02:22:54.92	344.77	18.67	-27.3	-28.9	14.8	0.00e+00	0	44	102	1048576	15	4301
2026-01-26 02:22:55.92	344.56	18.73	-27.1	-28.9	15.0	7.00e-07	0	44	102	1048576	14	4421
2026-01-26 02:22:56.93	344.35	18.79	-27.2	-29.1	15.0	0.00e+00	0	44	102	1048576	14	4469
2026-01-26 02:22:57.94	344.14	18.85	-27.1	-28.8	15.1	0.00e+00	0	44	102	1048576	14	4390
2026-01-26 02:22:58.94	343.92	18.91	-27.0	-28.7	15.2	0.00e+00	0	44	102	1048576	14	4365
2026-01-26 02:22:59.94	343.71	18.96	-27.0	-28.7	15.2	0.00e+00	0	44	102	1048576	14	4362
2026-01-26 02:23:00.95	343.50	19.02	-27.0	-28.5	15.3	0.00e+00	0	44	102	1048576	14	4315
2026-01-26 02:23:01.95	343.28	19.08	-26.9	-28.9	15.3	0.00e+00	0	44	102	1048576	13	4519
2026-01-26 02:23:02.95	343.07	19.14	-26.9	-28.9	15.3	0.00e+00	0	44	102	1048576	13	4531
2026-01-26 02:23:03.96	342.85	19.20	-26.9	-28.8	15.4	0.00e+00	0	44	102	1048576	13	4499
2026-01-26 02:23:04.96	342.64	19.26	-27.0	-28.7	15.2	0.00e+00	0	44	102	1048576	14	4363
2026-01-26 02:23:05.96	342.42	19.31	-27.1	-28.8	15.1	0.00e+00	0	44	102	1048576	14	4392
2026-01-26 02:23:06.97	342.20	19.37	-27.0	-28.7	15.2	0.00e+00	0	44	102	1048576	14	4374
2026-01-26 02:23:07.97	341.98	19.43	-27.3	-29.3	14.9	7.00e-07	0	44	102	1048576	14	4519
2026-01-26 02:23:08.97	341.76	19.48	-27.1	-28.8	15.1	0.00e+00	0	44	102	1048576	14	4391
2026-01-26 02:23:09.98	341.54	19.54	-26.8	-28.7	15.5	0.00e+00	0	44	102	1048576	13	4477
2026-01-26 02:23:10.99	341.32	19.60	-26.7	-28.5	15.6	0.00e+00	0	44	102	1048576	13	4407
2026-01-26 02:23:11.99	341.09	19.65	-26.8	-28.6	15.5	0.00e+00	0	44	102	1048576	13	4453
2026-01-26 02:23:13.00	340.87	19.71	-26.7	-28.5	15.6	0.00e+00	0	44	102	1048576	13	4407
2026-01-26 02:23:13.99	340.65	19.76	-26.6	-28.3	15.7	0.00e+00	0	44	102	1048576	13	4346
2026-01-26 02:23:15.00	340.42	19.82	-26.6	-28.3	15.7	0.00e+00	0	44	102	1048576	13	4349
2026-01-26 02:23:16.00	340.20	19.87	-26.7	-28.5	15.6	0.00e+00	0	44	102	1048576	13	4412
2026-01-26 02:23:17.00	339.97	19.92	-26.8	-28.7	15.5	0.00e+00	0	44	102	1048576	13	4479
2026-01-26 02:23:18.01	339.74	19.98	-26.7	-28.4	15.7	0.00e+00	0	44	102	1048576	13	4383
2026-01-26 02:23:19.00	339.51	20.03	-26.7	-28.4	15.6	0.00e+00	0	44	102	1048576	13	4380
2026-01-26 02:23:20.01	339.28	20.08	-26.8	-28.7	15.5	0.00e+00	0	44	102	1048576	13	4479
2026-01-26 02:23:21.01	339.06	20.14	-26.9	-28.9	15.4	0.00e+00	0	44	102	1048576	13	4517
2026-01-26 02:23:22.01	338.83	20.19	-26.7	-28.5	15.6	0.00e+00	0	44	102	1048576	13	4422
2026-01-26 02:23:23.01	338.59	20.24	-26.7	-28.3	15.7	0.00e+00	0	44	102	1048576	13	4366
2026-01-26 02:23:24.02	338.36	20.29	-26.8	-28.6	15.6	0.00e+00	0	44	102	1048576	13	4433
2026-01-26 02:23:25.02	338.13	20.34	-26.6	-28.2	15.8	0.00e+00	0	44	102	1048576	13	4339
2026-01-26 02:23:26.03	337.89	20.39	-26.7	-28.4	15.7	0.00e+00	0	44	102	1048576	13	4387
2026-01-26 02:23:27.04	337.66	20.44	-26.7	-28.4	15.7	0.00e+00	0	44	102	1048576	13	4379
2026-01-26 02:23:28.04	337.42	20.49	-26.9	-28.9	15.4	0.00e+00	0	44	102	1048576	13	4525
2026-01-26 02:23:29.05	337.18	20.54	-26.7	-28.4	15.7	0.00e+00	0	44	102	1048576	13	4387
2026-01-26 02:23:30.05	336.95	20.59	-26.6	-28.2	15.7	0.00e+00	0	44	102	1048576	13	4342
2026-01-26 02:23:31.06	336.71	20.64	-26.5	-28.1	15.8	0.00e+00	0	44	102	1048576	13	4304
2026-01-26 02:23:32.06	336.47	20.69	-26.5	-28.1	15.9	0.00e+00	0	44	102	1048576	13	4293
2026-01-26 02:23:33.07	336.23	20.73	-26.6	-28.2	15.8	0.00e+00	0	44	102	1048576	13	4315
2026-01-26 02:23:34.07	335.99	20.78	-26.4	-27.8	16.0	0.00e+00	0	44	102	1048576	13	4219
2026-01-26 02:23:35.07	335.75	20.83	-26.6	-28.1	15.9	0.00e+00	0	44	102	1048576	13	4293
2026-01-26 02:23:36.08	335.51	20.87	-26.8	-28.6	15.6	0.00e+00	0	44	102	1048576	13	4437
2026-01-26 02:23:37.08	335.27	20.92	-26.7	-28.3	15.8	0.00e+00	0	44	102	1048576	13	4352
2026-01-26 02:23:38.08	335.02	20.96	-26.5	-28.0	15.9	0.00e+00	0	44	102	1048576	13	4267
2026-01-26 02:23:39.08	334.78	21.01	-26.4	-27.8	16.0	0.00e+00	0	44	102	1048576	13	4223
2026-01-26 02:23:40.09	334.54	21.05	-25.8	-27.4	15.5	0.00e+00	0	44	102	1048576	13	4301
2026-01-26 02:23:41.09	334.29	21.10	-26.6	-28.3	15.8	0.00e+00	0	44	102	1048576	13	4349
2026-01-26 02:23:42.10	334.04	21.14	-26.5	-28.0	13.0	0.00e+00	0	44	102	1048576	13	4266
2026-01-26 02:23:43.10	333.80	21.18	-26.4	-28.2	14.7	0.00e+00	0	44	102	1048576	12	4424
2026-01-26 02:23:44.10	333.55	21.23	-26.4	-28.2	16.1	0.00e+00	0	44	102	1048576	12	4436
2026-01-26 02:23:45.11	333.30	21.27	-26.4	-28.3	16.0	0.00e+00	0	44	102	1048576	12	4468
2026-01-26 02:23:46.11	333.06	21.31	-26.4	-28.3	16.0	0.00e+00	0	44	102	1048576	12	4479
2026-01-26 02:23:47.11	332.81	21.35	-26.4	-28.3	16.0	0.00e+00	0	44	102	1048576	12	4475
2026-01-26 02:23:48.11	332.56	21.39	-26.5	-28.4	16.0	0.00e+00	0	44	102	1048576	12	4508
2026-01-26 02:23:49.11	332.31	21.43	-26.4	-28.3	16.0	0.00e+00	0	44	102	1048576	12	4476
2026-01-26 02:23:50.11	332.06	21.47	-26.5	-28.0	15.9	0.00e+00	0	44	102	1048576	13	4287
2026-01-26 02:23:51.12	331.80	21.51	-26.8	-28.7	15.6	1.70e-03	0	44	102	1048576	13	4464
2026-01-26 02:23:52.12	331.55	21.55	-26.6	-28.2	15.8	4.12e-03	0	44	102	1048576	13	4336
2026-01-26 02:23:53.13	331.30	21.58	-26.5	-27.9	16.0	0.00e+00	0	44	102	1048576	13	4259
2026-01-26 02:23:54.13	331.05	21.62	-26.4	-28.2	16.1	0.00e+00	0	44	102	1048576	12	4434
2026-01-26 02:23:55.13	330.79	21.66	-26.5	-27.9	16.0	0.00e+00	0	44	102	1048576	13	4259
2026-01-26 02:23:56.13	330.54	21.69	-26.4	-27.7	16.1	3.00e-06	0	44	102	1048576	13	4188
2026-01-26 02:23:57.14	330.28	21.73	-26.6	-28.3	15.8	3.66e-03	0	44	102	1048576	13	4345
2026-01-26 02:23:58.15	330.02	21.76	-26.5	-28.0	15.9	3.32e-03	0	44	102	1048576	13	4278
2026-01-26 02:23:59.15	329.77	21.80	-26.4	-27.8	16.0	0.00e+00	0	44	102	1048576	13	4223
2026-01-26 02:24:00.15	329.51	21.83	-26.4	-28.3	16.0	0.00e+00	0	44	102	1048576	12	4473
2026-01-26 02:24:01.16	329.25	21.87	-26.4	-28.2	16.1	3.89e-03	0	44	102	1048576	12	4428
2026-01-26 02:24:02.16	328.99	21.90	-26.5	-27.9	16.0	7.85e-05	0	44	102	1048576	13	4245
2026-01-26 02:24:03.17	328.73	21.93	-26.6	-28.3	15.7	4.06e-03	0	44	102	1048576	13	4348
2026-01-26 02:24:04.17	328.47	21.96	-26.7	-28.5	15.7	3.75e-03	0	44	102	1048576	13	4411
2026-01-26 02:24:05.17	328.22	21.99	-26.9	-28.8	15.5	1.91e-04	0	44	102	1048576	13	4505
2026-01-26 02:24:06.17	327.96	22.02	-26.6	-28.2	15.8	3.68e-03	0	44	102	1048576	13	4331
2026-01-26 02:24:07.18	327.69	22.05	-26.4	-27.9	16.0	3.38e-03	0	44	102	1048576	13	4232
2026-01-26 02:24:08.18	327.43	22.08	-25.7	-27.5	16.1	4.23e-04	0	44	102	1048576	12	4404
2026-01-26 02:24:09.19	327.17	22.11	-26.4	-28.2	16.1	3.27e-03	0	44	102	1048576	12	4428
2026-01-26 02:24:10.19	326.91	22.14	-26.3	-28.1	15.4	3.75e-03	0	44	102	1048576	12	4401
2026-01-26 02:24:11.20	326.64	22.17	-26.3	-28.0	16.1	4.47e-04	0	44	102	1048576	12	4393
2026-01-26 02:24:12.21	326.38	22.19	-26.3	-28.0	16.2	3.74e-03	0	44	102	1048576	12	4381
2026-01-26 02:24:13.21	326.11	22.22	-26.3	-27.9	16.2	3.57e-03	0	44	102	1048576	12	4366
2026-01-26 02:24:14.22	325.85	22.24	-26.4	-28.4	16.0	3.77e-04	0	44	102	1048576	12	4484
2026-01-26 02:24:15.22	325.58	22.27	-26.4	-28.4	16.0	3.64e-03	0	44	102	1048576	12	4489
2026-01-26 02:24:16.22	325.32	22.29	-26.6	-28.2	15.8	2.59e-04	0	44	102	1048576	13	4338
2026-01-26 02:24:17.23	325.05	22.32	-26.7	-28.5	15.6	2.43e-04	0	44	102	1048576	13	4413
2026-01-26 02:24:18.23	324.79	22.34	-26.6	-28.1	15.8	3.31e-03	0	44	102	1048576	13	4308
2026-01-26 02:24:19.23	324.52	22.36	-26.6	-28.3	15.8	3.21e-03	0	44	102	1048576	13	4344
2026-01-26 02:24:20.24	324.25	22.38	-26.7	-28.4	15.7	0.00e+00	0	44	102	1048576	13	4381
2026-01-26 02:24:21.24	323.99	22.40	-26.5	-27.9	16.0	0.00e+00	0	44	102	1048576	13	4242
2026-01-26 02:24:22.25	323.72	22.42	-26.4	-28.3	16.0	0.00e+00	0	44	102	1048576	12	4478
2026-01-26 02:24:23.25	323.45	22.44	-26.4	-28.3	16.0	7.84e-04	0	44	102	1048576	12	4461
2026-01-26 02:24:24.25	323.18	22.46	-26.4	-27.8	16.0	2.70e-03	0	44	102	1048576	13	4210
2026-01-26 02:24:25.25	322.92	22.48	-26.6	-28.1	15.8	2.95e-04	0	44	102	1048576	13	4310
2026-01-26 02:24:26.25	322.65	22.50	-26.8	-28.5	15.6	2.36e-04	0	44	102	1048576	13	4418
2026-01-26 02:24:27.26	322.38	22.52	-26.5	-28.1	15.9	0.00e+00	0	44	102	1048576	13	4286
2026-01-26 02:24:28.26	322.11	22.53	-26.5	-28.1	15.9	0.00e+00	0	44	102	1048576	13	4286
2026-01-26 02:24:29.26	321.84	22.55	-26.6	-28.2	15.8	8.17e-04	0	44	102	1048576	13	4329
2026-01-26 02:24:30.27	321.57	22.56	-26.6	-28.1	15.8	0.00e+00	0	44	102	1048576	13	4309
2026-01-26 02:24:31.28	321.29	22.58	-26.7	-28.4	15.8	8.83e-04	0	44	102	1048576	13	4377
2026-01-26 02:24:32.28	321.03	22.59	-26.6	-28.1	15.8	1.69e-03	0	44	102	1048576	13	4298
2026-01-26 02:24:33.29	320.75	22.60	-26.5	-28.1	15.9	0.00e+00	0	44	102	1048576	13	4285
2026-01-26 02:24:34.30	320.48	22.62	-26.6	-28.2	15.8	0.00e+00	0	44	102	1048576	13	4333
2026-01-26 02:24:35.30	320.21	22.63	-26.4	-28.2	16.1	2.25e-03	0	44	102	1048576	12	4447
2026-01-26 02:24:36.30	319.94	22.64	-26.5	-28.4	16.0	0.00e+00	0	44	102	1048576	12	4488
2026-01-26 02:24:37.30	319.67	22.65	-26.5	-28.4	16.0	2.67e-03	0	44	102	1048576	12	4489
2026-01-26 02:24:38.31	319.39	22.66	-26.7	-28.3	15.8	2.83e-03	0	44	102	1048576	13	4359
2026-01-26 02:24:39.30	319.13	22.67	-26.7	-28.3	15.7	0.00e+00	0	44	102	1048576	13	4358
2026-01-26 02:24:40.31	318.85	22.67	-26.4	-27.8	16.0	0.00e+00	0	44	102	1048576	13	4220
2026-01-26 02:24:41.31	318.58	22.68	-26.4	-27.7	16.1	3.28e-03	0	44	102	1048576	13	4199
2026-01-26 02:24:42.31	318.31	22.69	-26.3	-28.1	16.1	0.00e+00	0	44	102	1048576	12	4419
2026-01-26 02:24:43.32	318.03	22.69	-26.2	-27.8	16.3	2.92e-03	0	44	102	1048576	12	4315
2026-01-26 02:24:44.33	317.76	22.70	-26.1	-27.6	16.4	0.00e+00	0	44	102	1048576	12	4265
2026-01-26 02:24:45.33	317.49	22.70	-26.1	-27.6	16.4	0.00e+00	0	44	102	1048576	12	4283
2026-01-26 02:24:46.34	317.21	22.71	-26.2	-27.8	16.4	0.00e+00	0	44	102	1048576	12	4324
2026-01-26 02:24:47.34	316.94	22.71	-26.2	-27.8	16.3	2.51e-03	0	44	102	1048576	12	4317
2026-01-26 02:24:48.34	316.67	22.71	-26.3	-28.0	16.2	0.00e+00	0	44	102	1048576	12	4387
2026-01-26 02:24:49.34	316.40	22.72	-26.3	-28.1	16.2	0.00e+00	0	44	102	1048576	12	4405
2026-01-26 02:24:50.35	316.12	22.72	-26.4	-28.2	16.1	0.00e+00	0	44	102	1048576	12	4438
2026-01-26 02:24:51.35	315.85	22.72	-26.5	-28.0	16.0	0.00e+00	0	44	102	1048576	13	4257
2026-01-26 02:24:52.36	315.58	22.72	-26.5	-28.0	15.9	1.58e-03	0	44	102	1048576	13	4282
2026-01-26 02:24:53.36	315.30	22.72	-26.5	-28.0	15.9	0.00e+00	0	44	102	1048576	13	4264
2026-01-26 02:24:54.36	315.03	22.72	-26.6	-28.2	15.8	0.00e+00	0	44	102	1048576	13	4323
2026-01-26 02:24:55.36	314.76	22.71	-26.5	-28.1	16.0	0.00e+00	0	44	102	1048576	13	4287
2026-01-26 02:24:56.36	314.49	22.71	-26.5	-28.0	16.0	0.00e+00	0	44	102	1048576	13	4262
2026-01-26 02:24:57.37	314.21	22.71	-26.4	-28.3	16.0	0.00e+00	0	44	102	1048576	12	4466
2026-01-26 02:24:58.38	313.94	22.70	-26.4	-28.2	16.1	0.00e+00	0	44	102	1048576	12	4439
2026-01-26 02:24:59.38	313.67	22.70	-26.2	-27.9	16.3	0.00e+00	0	44	102	1048576	12	4342
2026-01-26 02:25:00.37	313.40	22.69	-26.1	-27.6	16.4	0.00e+00	0	44	102	1048576	12	4275
2026-01-26 02:25:01.38	313.12	22.68	-26.3	-27.9	16.2	0.00e+00	0	44	102	1048576	12	4362
2026-01-26 02:25:02.38	312.85	22.68	-26.2	-27.7	16.4	0.00e+00	0	44	102	1048576	12	4300
2026-01-26 02:25:03.39	312.58	22.67	-26.3	-28.1	16.1	0.00e+00	0	44	102	1048576	12	4407
2026-01-26 02:25:04.39	312.31	22.66	-26.2	-27.8	16.3	0.00e+00	0	44	102	1048576	12	4337
2026-01-26 02:25:05.39	312.04	22.65	-26.2	-27.9	16.2	0.00e+00	0	44	102	1048576	12	4344
2026-01-26 02:25:06.40	311.76	22.64	-26.3	-28.0	16.2	0.00e+00	0	44	102	1048576	12	4395
2026-01-26 02:25:07.39	311.49	22.63	-26.3	-28.0	16.2	0.00e+00	0	44	102	1048576	12	4376
2026-01-26 02:25:08.40	311.22	22.62	-26.2	-27.7	16.3	0.00e+00	0	44	102	1048576	12	4306
2026-01-26 02:25:09.40	310.95	22.61	-26.2	-27.7	16.3	0.00e+00	0	44	102	1048576	12	4307
2026-01-26 02:25:10.40	310.68	22.59	-26.3	-28.1	16.1	0.00e+00	0	44	102	1048576	12	4398
2026-01-26 02:25:11.41	310.41	22.58	-26.5	-27.9	15.9	0.00e+00	0	44	102	1048576	13	4247
2026-01-26 02:25:12.42	310.13	22.57	-26.6	-28.2	15.8	0.00e+00	0	44	102	1048576	13	4320
2026-01-26 02:25:13.42	309.87	22.55	-26.7	-28.3	15.7	0.00e+00	0	44	102	1048576	13	4361
2026-01-26 02:25:14.42	309.60	22.54	-26.6	-28.2	15.8	0.00e+00	0	44	102	1048576	13	4334
2026-01-26 02:25:15.42	309.33	22.52	-26.6	-28.2	15.8	0.00e+00	0	44	102	1048576	13	4315
2026-01-26 02:25:16.42	309.06	22.50	-26.5	-28.1	15.9	0.00e+00	0	44	102	1048576	13	4288
2026-01-26 02:25:17.42	308.79	22.49	-26.6	-28.1	15.8	0.00e+00	0	44	102	1048576	13	4309
2026-01-26 02:25:18.42	308.52	22.47	-26.6	-28.3	15.7	0.00e+00	0	44	102	1048576	13	4346
2026-01-26 02:25:19.42	308.25	22.45	-26.4	-27.8	16.0	0.00e+00	0	44	102	1048576	13	4206
2026-01-26 02:25:20.43	307.98	22.43	-26.3	-27.5	16.1	0.00e+00	0	44	102	1048576	13	4144
2026-01-26 02:25:21.43	307.72	22.41	-25.5	-27.1	14.4	0.00e+00	0	44	102	1048576	12	4357
2026-01-26 02:25:22.43	307.45	22.39	-26.1	-27.6	15.7	0.00e+00	0	44	102	1048576	12	4280
2026-01-26 02:25:23.44	307.18	22.37	-26.2	-27.8	14.7	0.00e+00	0	44	102	1048576	12	4317
2026-01-26 02:25:24.45	306.91	22.35	-26.3	-28.0	16.1	0.00e+00	0	44	102	1048576	12	4376
2026-01-26 02:25:25.46	306.64	22.32	-26.2	-27.7	16.3	0.00e+00	0	44	102	1048576	12	4309
2026-01-26 02:25:26.46	306.38	22.30	-26.1	-27.6	16.4	2.12e-03	0	44	102	1048576	12	4284
2026-01-26 02:25:27.47	306.11	22.28	-26.2	-27.8	16.3	0.00e+00	0	44	102	1048576	12	4322
2026-01-26 02:25:28.47	305.85	22.25	-26.4	-28.2	16.1	0.00e+00	0	44	102	1048576	12	4431
2026-01-26 02:25:29.48	305.58	22.23	-26.5	-28.1	15.9	0.00e+00	0	44	102	1048576	13	4292
2026-01-26 02:25:30.49	305.31	22.20	-26.6	-28.2	15.8	0.00e+00	0	44	102	1048576	13	4316
2026-01-26 02:25:31.49	305.05	22.17	-26.6	-28.3	15.7	1.01e-03	0	44	102	1048576	13	4353
2026-01-26 02:25:32.50	304.79	22.15	-26.6	-28.1	15.8	2.32e-03	0	44	102	1048576	13	4292
2026-01-26 02:25:33.50	304.52	22.12	-26.3	-28.1	16.1	0.00e+00	0	44	102	1048576	12	4412
2026-01-26 02:25:34.52	304.26	22.09	-26.3	-28.0	16.1	0.00e+00	0	44	102	1048576	12	4390
2026-01-26 02:25:35.52	303.99	22.06	-26.3	-27.9	16.2	3.69e-03	0	44	102	1048576	12	4357
2026-01-26 02:25:36.52	303.73	22.03	-26.3	-28.0	16.1	3.45e-03	0	44	102	1048576	12	4390
2026-01-26 02:25:37.53	303.47	22.00	-26.3	-28.1	16.1	2.33e-03	0	44	102	1048576	12	4402
2026-01-26 02:25:38.53	303.21	21.97	-26.3	-28.0	16.1	3.54e-03	0	44	102	1048576	12	4385
2026-01-26 02:25:39.54	302.95	21.94	-26.3	-28.0	16.1	0.00e+00	0	44	102	1048576	12	4394
2026-01-26 02:25:40.54	302.69	21.91	-26.3	-28.1	16.1	2.05e-03	0	44	102	1048576	12	4410
2026-01-26 02:25:41.55	302.43	21.88	-26.2	-27.8	16.3	3.87e-03	0	44	102	1048576	12	4336
2026-01-26 02:25:42.56	302.17	21.84	-26.3	-27.9	16.2	3.84e-03	0	44	102	1048576	12	4359
2026-01-26 02:25:43.56	301.91	21.81	-26.3	-28.0	16.2	2.02e-03	0	44	102	1048576	12	4379
2026-01-26 02:25:44.56	301.66	21.77	-26.4	-28.2	16.1	4.46e-03	0	44	102	1048576	12	4430
2026-01-26 02:25:45.57	301.40	21.74	-26.5	-27.9	16.0	2.05e-05	0	44	102	1048576	13	4234
2026-01-26 02:25:46.58	301.14	21.70	-26.3	-28.1	16.1	2.32e-03	0	44	102	1048576	12	4411
2026-01-26 02:25:47.58	300.88	21.67	-26.4	-28.2	16.0	4.82e-03	0	44	102	1048576	12	4435
2026-01-26 02:25:48.58	300.63	21.63	-26.5	-28.4	15.9	5.27e-03	0	44	102	1048576	12	4507
2026-01-26 02:25:49.58	300.38	21.60	-26.5	-28.0	15.9	2.63e-03	0	44	102	1048576	13	4274
2026-01-26 02:25:50.59	300.12	21.56	-26.5	-28.1	15.8	0.00e+00	0	44	102	1048576	13	4290
2026-01-26 02:25:51.59	299.87	21.52	-26.5	-27.9	15.9	5.46e-03	0	44	102	1048576	13	4235
2026-01-26 02:25:52.59	299.62	21.48	-26.4	-28.2	16.0	1.91e-03	0	44	102	1048576	12	4440
2026-01-26 02:25:53.59	299.37	21.44	-26.3	-28.1	16.1	5.13e-03	0	44	102	1048576	12	4400
2026-01-26 02:25:54.60	299.11	21.40	-26.4	-28.2	16.0	5.75e-03	0	44	102	1048576	12	4434
2026-01-26 02:25:55.60	298.86	21.36	-26.5	-28.0	15.8	6.71e-04	0	44	102	1048576	13	4275
2026-01-26 02:25:56.61	298.61	21.32	-26.5	-28.0	15.9	0.00e+00	0	44	102	1048576	13	4275
2026-01-26 02:25:57.61	298.36	21.28	-26.7	-28.4	15.6	0.00e+00	0	44	102	1048576	13	4398
2026-01-26 02:25:58.61	298.12	21.24	-26.6	-28.3	15.7	2.72e-04	0	44	102	1048576	13	4350
2026-01-26 02:25:59.61	297.87	21.20	-26.4	-28.3	16.0	1.16e-03	0	44	102	1048576	12	4468
2026-01-26 02:26:00.61	297.62	21.15	-26.5	-28.0	15.8	0.00e+00	0	44	102	1048576	13	4282
2026-01-26 02:26:01.61	297.38	21.11	-26.8	-28.6	15.6	0.00e+00	0	44	102	1048576	13	4429
2026-01-26 02:26:02.62	297.13	21.07	-26.7	-28.5	15.6	0.00e+00	0	44	102	1048576	13	4401
2026-01-26 02:26:03.62	296.88	21.02	-26.5	-28.0	15.8	6.28e-03	0	44	102	1048576	13	4291
2026-01-26 02:26:04.63	296.64	20.98	-26.6	-28.1	15.8	0.00e+00	0	44	102	1048576	13	4310
2026-01-26 02:26:05.62	296.40	20.93	-26.6	-28.2	15.7	0.00e+00	0	44	102	1048576	13	4328
2026-01-26 02:26:06.62	296.16	20.89	-26.6	-28.2	15.7	0.00e+00	0	44	102	1048576	13	4337
2026-01-26 02:26:07.62	295.91	20.84	-26.7	-28.5	15.6	0.00e+00	0	44	102	1048576	13	4414
2026-01-26 02:26:08.62	295.67	20.79	-26.8	-28.6	15.5	5.09e-03	0	44	102	1048576	13	4458
2026-01-26 02:26:09.62	295.43	20.75	-26.8	-28.8	15.4	0.00e+00	0	44	102	1048576	13	4491
2026-01-26 02:26:10.63	295.19	20.70	-27.1	-28.8	15.1	0.00e+00	0	44	102	1048576	14	4379
2026-01-26 02:26:11.64	294.95	20.65	-27.0	-28.7	15.2	0.00e+00	0	44	102	1048576	14	4355
2026-01-26 02:26:12.64	294.71	20.60	-26.8	-28.7	15.5	0.00e+00	0	44	102	1048576	13	4461
2026-01-26 02:26:13.65	294.47	20.55	-26.8	-28.6	15.5	0.00e+00	0	44	102	1048576	13	4459
2026-01-26 02:26:14.65	294.24	20.51	-26.8	-28.7	15.4	0.00e+00	0	44	102	1048576	13	4464
2026-01-26 02:26:15.66	294.00	20.46	-26.7	-28.4	15.6	0.00e+00	0	44	102	1048576	13	4387
2026-01-26 02:26:16.66	293.76	20.41	-26.6	-28.3	15.6	0.00e+00	0	44	102	1048576	13	4359
2026-01-26 02:26:17.67	293.53	20.36	-26.6	-28.1	15.7	0.00e+00	0	44	102	1048576	13	4316
2026-01-26 02:26:18.68	293.29	20.30	-26.5	-28.0	15.8	0.00e+00	0	44	102	1048576	13	4289
2026-01-26 02:26:19.68	293.06	20.25	-26.4	-27.8	15.9	0.00e+00	0	44	102	1048576	13	4224
2026-01-26 02:26:20.68	292.83	20.20	-26.2	-27.8	16.2	0.00e+00	0	44	102	1048576	12	4340
2026-01-26 02:26:21.68	292.60	20.15	-26.2	-27.8	16.2	0.00e+00	0	44	102	1048576	12	4334
2026-01-26 02:26:22.68	292.37	20.10	-26.4	-28.2	15.9	0.00e+00	0	44	102	1048576	12	4448
2026-01-26 02:26:23.68	292.14	20.04	-26.3	-28.0	16.1	0.00e+00	0	44	102	1048576	12	4377
2026-01-26 02:26:24.69	291.91	19.99	-26.2	-27.8	16.2	1.50e-06	0	44	102	1048576	12	4341
2026-01-26 02:26:25.68	291.68	19.94	-26.4	-28.2	15.9	0.00e+00	0	44	102	1048576	12	4451
2026-01-26 02:26:26.69	291.45	19.88	-26.5	-28.0	15.8	0.00e+00	0	44	102	1048576	13	4263
2026-01-26 02:26:27.70	291.22	19.83	-26.5	-28.1	15.7	0.00e+00	0	44	102	1048576	13	4302
2026-01-26 02:26:28.71	290.99	19.77	-26.7	-28.4	15.6	0.00e+00	0	44	102	1048576	13	4385
2026-01-26 02:26:29.71	290.77	19.72	-26.8	-28.7	15.4	0.00e+00	0	44	102	1048576	13	4475
2026-01-26 02:26:30.71	290.55	19.67	-27.1	-28.8	15.1	7.00e-07	0	44	102	1048576	14	4384
2026-01-26 02:26:31.72	290.32	19.61	-27.1	-28.8	15.1	0.00e+00	0	44	102	1048576	14	4388
2026-01-26 02:26:32.72	290.10	19.55	-26.9	-28.4	15.3	0.00e+00	0	44	102	1048576	14	4281
2026-01-26 02:26:33.73	289.88	19.50	-26.7	-28.5	15.4	0.00e+00	0	44	102	1048576	13	4429
2026-01-26 02:26:34.73	289.65	19.44	-26.6	-28.3	15.6	0.00e+00	0	44	102	1048576	13	4351
2026-01-26 02:26:35.74	289.43	19.38	-26.7	-28.4	15.6	0.00e+00	0	44	102	1048576	13	4378
2026-01-26 02:26:36.74	289.21	19.33	-26.8	-28.8	15.4	0.00e+00	0	44	102	1048576	13	4495
2026-01-26 02:26:37.74	289.00	19.27	-26.9	-28.8	15.3	0.00e+00	0	44	102	1048576	13	4507
2026-01-26 02:26:38.75	288.78	19.21	-26.9	-28.9	15.2	0.00e+00	0	44	102	1048576	13	4546
2026-01-26 02:26:39.75	288.56	19.15	-26.9	-28.5	15.3	0.00e+00	0	44	102	1048576	14	4305
2026-01-26 02:26:40.76	288.34	19.09	-26.9	-28.4	15.3	0.00e+00	0	44	102	1048576	14	4285
2026-01-26 02:26:41.76	288.13	19.04	-27.1	-29.0	14.9	0.00e+00	0	44	102	1048576	14	4442
2026-01-26 02:26:42.77	287.91	18.98	-27.2	-29.0	14.9	0.00e+00	0	44	102	1048576	14	4463
2026-01-26 02:26:43.78	287.70	18.92	-27.4	-29.6	14.6	7.00e-07	0	44	102	1048576	14	4635
2026-01-26 02:26:44.78	287.48	18.86	-27.1	-28.9	15.0	0.00e+00	0	44	102	1048576	14	4409
2026-01-26 02:26:45.79	287.27	18.80	-26.9	-28.3	15.3	0.00e+00	0	44	102	1048576	14	4248
2026-01-26 02:26:46.80	287.06	18.74	-26.6	-27.7	15.6	0.00e+00	0	44	102	1048576	14	4096
2026-01-26 02:26:47.79	286.85	18.68	-26.5	-28.1	15.7	0.00e+00	0	44	102	1048576	13	4307
2026-01-26 02:26:48.80	286.64	18.62	-26.7	-28.4	15.5	0.00e+00	0	44	102	1048576	13	4387
2026-01-26 02:26:49.79	286.43	18.56	-26.7	-28.5	15.5	0.00e+00	0	44	102	1048576	13	4419
2026-01-26 02:26:50.80	286.22	18.49	-26.6	-28.2	15.6	0.00e+00	0	44	102	1048576	13	4332
2026-01-26 02:26:51.80	286.02	18.43	-26.6	-28.2	15.6	0.00e+00	0	44	102	1048576	13	4347
2026-01-26 02:26:52.81	285.81	18.37	-26.6	-28.3	15.6	0.00e+00	0	44	102	1048576	13	4357
2026-01-26 02:26:53.81	285.61	18.31	-26.5	-28.0	15.7	0.00e+00	0	44	102	1048576	13	4273
2026-01-26 02:26:54.82	285.40	18.25	-26.7	-28.5	15.5	0.00e+00	0	44	102	1048576	13	4426
2026-01-26 02:26:55.82	285.20	18.19	-26.4	-27.8	15.8	0.00e+00	0	44	102	1048576	13	4235
2026-01-26 02:26:56.82	284.99	18.12	-26.5	-28.0	15.7	0.00e+00	0	44	102	1048576	13	4288
2026-01-26 02:26:57.83	284.79	18.06	-26.4	-27.7	15.9	0.00e+00	0	44	102	1048576	13	4199
2026-01-26 02:26:58.83	284.59	18.00	-26.3	-28.1	15.9	0.00e+00	0	44	102	1048576	12	4425
2026-01-26 02:26:59.84	284.39	17.93	-25.9	-27.8	15.9	0.00e+00	0	44	102	1048576	12	4445
2026-01-26 02:27:00.81	284.20	17.87	-26.7	-28.4	15.5	0.00e+00	0	44	102	1048576	13	4388
2026-01-26 02:27:01.82	284.00	17.81	-26.6	-28.3	13.9	0.00e+00	0	44	102	1048576	13	4376
2026-01-26 02:27:02.82	283.80	17.75	-26.6	-28.3	14.2	0.00e+00	0	44	102	1048576	13	4377
2026-01-26 02:27:03.83	283.60	17.68	-26.6	-28.2	15.6	0.00e+00	0	44	102	1048576	13	4329
2026-01-26 02:27:04.84	283.40	17.62	-26.6	-28.3	15.5	0.00e+00	0	44	102	1048576	13	4368
2026-01-26 02:27:05.85	283.21	17.55	-26.6	-28.3	15.5	0.00e+00	0	44	102	1048576	13	4364
2026-01-26 02:27:06.86	283.01	17.49	-26.7	-28.4	15.5	0.00e+00	0	44	102	1048576	13	4398
2026-01-26 02:27:07.86	282.82	17.42	-26.6	-28.1	15.6	0.00e+00	0	44	102	1048576	13	4323
2026-01-26 02:27:08.86	282.63	17.36	-26.6	-28.1	15.6	0.00e+00	0	44	102	1048576	13	4321
2026-01-26 02:27:09.87	282.43	17.29	-26.5	-28.5	15.7	0.00e+00	0	44	102	1048576	12	4531
2026-01-26 02:27:10.87	282.24	17.23	-26.6	-28.3	15.5	2.41e-04	0	44	102	1048576	13	4358
2026-01-26 02:27:11.87	282.05	17.16	-26.5	-28.0	15.6	2.54e-03	0	44	102	1048576	13	4294
2026-01-26 02:27:12.88	281.86	17.10	-26.7	-28.4	15.4	9.09e-04	0	44	102	1048576	13	4399
2026-01-26 02:27:13.88	281.67	17.03	-27.1	-28.9	14.9	0.00e+00	0	44	102	1048576	14	4413
2026-01-26 02:27:14.89	281.48	16.97	-26.9	-28.5	15.1	0.00e+00	0	44	102	1048576	14	4320
2026-01-26 02:27:15.89	281.30	16.90	-26.9	-28.4	15.2	0.00e+00	0	44	102	1048576	14	4286
2026-01-26 02:27:16.89	281.11	16.84	-27.1	-28.9	14.9	1.79e-03	0	44	102	1048576	14	4427
2026-01-26 02:27:17.89	280.93	16.77	-27.3	-29.3	14.6	1.82e-03	0	44	102	1048576	14	4551
2026-01-26 02:27:18.90	280.74	16.70	-27.3	-29.3	14.7	7.00e-07	0	44	102	1048576	14	4539
2026-01-26 02:27:19.90	280.56	16.64	-27.4	-29.6	14.4	7.00e-07	0	44	102	1048576	14	4655
2026-01-26 02:27:20.90	280.38	16.57	-27.4	-29.5	14.5	3.14e-03	0	44	102	1048576	14	4608
2026-01-26 02:27:21.90	280.19	16.51	-27.3	-29.3	14.6	6.61e-04	0	44	102	1048576	14	4553
2026-01-26 02:27:22.91	280.01	16.44	-27.5	-29.8	14.4	4.18e-03	0	44	102	1048576	14	4705
2026-01-26 02:27:23.91	279.83	16.37	-27.4	-29.7	14.4	6.10e-03	0	44	102	1048576	14	4670
2026-01-26 02:27:24.91	279.65	16.31	-27.6	-29.6	14.2	2.35e-03	0	44	102	1048576	15	4526
2026-01-26 02:27:25.92	279.47	16.24	-27.9	-30.3	13.8	4.64e-03	0	44	102	1048576	15	4756
2026-01-26 02:27:26.92	279.30	16.17	-27.7	-29.8	14.0	6.66e-03	0	44	102	1048576	15	4590
2026-01-26 02:27:27.92	279.12	16.10	-27.4	-29.6	14.4	2.40e-03	0	44	102	1048576	14	4639
2026-01-26 02:27:28.92	278.94	16.04	-27.2	-29.1	14.7	4.15e-03	0	44	102	1048576	14	4484
2026-01-26 02:27:29.92	278.77	15.97	-27.0	-28.6	15.0	5.08e-03	0	44	102	1048576	14	4360
2026-01-26 02:27:30.93	278.59	15.90	-27.0	-29.1	15.0	1.36e-03	0	44	102	1048576	13	4594
2026-01-26 02:27:31.94	278.42	15.83	-26.8	-28.7	15.2	3.65e-03	0	44	102	1048576	13	4488
2026-01-26 02:27:32.94	278.24	15.77	-26.8	-28.6	15.2	3.59e-03	0	44	102	1048576	13	4457
2026-01-26 02:27:33.95	278.07	15.70	-26.8	-28.7	15.2	7.19e-04	0	44	102	1048576	13	4479
2026-01-26 02:27:34.95	277.90	15.63	-27.0	-29.1	14.9	3.97e-03	0	44	102	1048576	13	4605
2026-01-26 02:27:35.96	277.73	15.56	-26.9	-28.9	15.0	0.00e+00	0	44	102	1048576	13	4557
2026-01-26 02:27:36.96	277.56	15.50	-26.9	-29.1	15.0	1.57e-03	0	44	102	1048576	13	4597
2026-01-26 02:27:37.96	277.39	15.43	-27.1	-29.0	14.8	3.82e-03	0	44	102	1048576	14	4458
2026-01-26 02:27:38.97	277.22	15.36	-27.3	-29.4	14.5	3.94e-03	0	44	102	1048576	14	4578
2026-01-26 02:27:39.97	277.05	15.29	-27.1	-29.0	14.7	1.05e-03	0	44	102	1048576	14	4466
2026-01-26 02:27:40.97	276.88	15.22	-27.2	-29.1	14.7	0.00e+00	0	44	102	1048576	14	4480
2026-01-26 02:27:41.98	276.72	15.16	-27.0	-28.7	14.9	4.50e-06	0	44	102	1048576	14	4389
2026-01-26 02:27:42.98	276.55	15.09	-27.1	-28.9	14.8	9.04e-04	0	44	102	1048576	14	4445
2026-01-26 02:27:43.99	276.39	15.02	-27.0	-28.6	14.9	5.00e-03	0	44	102	1048576	14	4355
2026-01-26 02:27:44.99	276.22	14.95	-27.1	-28.9	14.8	4.47e-04	0	44	102	1048576	14	4439
2026-01-26 02:27:45.99	276.06	14.88	-27.1	-28.9	14.8	0.00e+00	0	44	102	1048576	14	4423
2026-01-26 02:27:46.99	275.90	14.81	-27.1	-29.0	14.7	7.00e-07	0	44	102	1048576	14	4455
2026-01-26 02:27:47.99	275.74	14.75	-27.3	-29.4	14.5	8.23e-03	0	44	102	1048576	14	4585
2026-01-26 02:27:48.99	275.58	14.68	-27.1	-29.0	14.7	4.72e-03	0	44	102	1048576	14	4464
2026-01-26 02:27:50.00	275.42	14.61	-27.2	-29.2	14.6	2.20e-06	0	44	102	1048576	14	4529
2026-01-26 02:27:51.00	275.26	14.54	-27.2	-29.3	14.5	2.20e-06	0	44	102	1048576	14	4540
2026-01-26 02:27:52.00	275.10	14.47	-27.4	-29.6	14.4	0.00e+00	0	44	102	1048576	14	4637
2026-01-26 02:27:53.00	274.94	14.40	-27.1	-29.0	14.7	7.00e-07	0	44	102	1048576	14	4463
2026-01-26 02:27:54.01	274.78	14.34	-27.2	-29.2	14.6	0.00e+00	0	44	102	1048576	14	4522
2026-01-26 02:27:55.02	274.62	14.27	-27.3	-29.3	14.5	0.00e+00	0	44	102	1048576	14	4558
2026-01-26 02:27:56.02	274.47	14.20	-27.4	-29.7	14.3	0.00e+00	0	44	102	1048576	14	4687
2026-01-26 02:27:57.03	274.31	14.13	-27.1	-29.0	14.7	5.30e-06	0	44	102	1048576	14	4478
2026-01-26 02:27:58.03	274.16	14.06	-27.1	-29.0	14.7	0.00e+00	0	44	102	1048576	14	4459
2026-01-26 02:27:59.04	274.00	13.99	-27.1	-28.9	14.7	0.00e+00	0	44	102	1048576	14	4442
2026-01-26 02:28:00.05	273.85	13.92	-27.1	-28.9	14.7	6.10e-06	0	44	102	1048576	14	4450
2026-01-26 02:28:01.05	273.70	13.85	-27.0	-28.7	14.8	0.00e+00	0	44	102	1048576	14	4382
2026-01-26 02:28:02.06	273.55	13.78	-26.9	-28.9	14.9	0.00e+00	0	44	102	1048576	13	4547
2026-01-26 02:28:03.06	273.40	13.72	-26.8	-28.8	15.0	7.00e-07	0	44	102	1048576	13	4501
2026-01-26 02:28:04.07	273.25	13.65	-26.8	-28.8	15.0	0.00e+00	0	44	102	1048576	13	4503
2026-01-26 02:28:05.07	273.10	13.58	-26.8	-28.8	15.1	0.00e+00	0	44	102	1048576	13	4513
2026-01-26 02:28:06.07	272.95	13.51	-26.8	-28.7	15.1	0.00e+00	0	44	102	1048576	13	4501
2026-01-26 02:28:07.07	272.80	13.44	-27.0	-28.8	14.7	7.00e-07	0	44	102	1048576	14	4410
2026-01-26 02:28:08.08	272.65	13.37	-27.1	-29.0	14.6	7.00e-07	0	44	102	1048576	14	4474
2026-01-26 02:28:09.08	272.51	13.30	-27.3	-29.5	14.3	0.00e+00	0	44	102	1048576	14	4627
2026-01-26 02:28:10.09	272.36	13.23	-27.2	-29.3	14.5	7.00e-07	0	44	102	1048576	14	4558
2026-01-26 02:28:11.09	272.22	13.17	-27.3	-29.5	14.3	7.00e-07	0	44	102	1048576	14	4629
2026-01-26 02:28:12.09	272.07	13.10	-27.3	-29.4	14.4	7.00e-07	0	44	102	1048576	14	4578
2026-01-26 02:28:13.10	271.93	13.03	-27.3	-29.5	14.3	7.00e-07	0	44	102	1048576	14	4624
2026-01-26 02:28:14.10	271.78	12.96	-27.5	-29.5	14.0	1.50e-06	0	44	102	1048576	15	4505
2026-01-26 02:28:15.11	271.64	12.89	-27.8	-30.1	13.7	9.90e-06	0	44	102	1048576	15	4680
2026-01-26 02:28:16.12	271.50	12.82	-27.5	-29.4	14.1	2.20e-06	0	44	102	1048576	15	4478
2026-01-26 02:28:17.12	271.36	12.75	-27.5	-29.8	14.2	7.00e-07	0	44	102	1048576	14	4702
2026-01-26 02:28:18.12	271.22	12.69	-27.7	-29.8	13.8	1.50e-06	0	44	102	1048576	15	4612
2026-01-26 02:28:19.12	271.08	12.62	-27.5	-29.4	14.1	2.20e-06	0	44	102	1048576	15	4485
2026-01-26 02:28:20.13	270.94	12.55	-27.5	-29.5	14.0	2.20e-06	0	44	102	1048576	15	4510
2026-01-26 02:28:21.13	270.80	12.48	-27.7	-29.9	13.8	3.00e-06	0	44	102	1048576	15	4643
2026-01-26 02:28:22.13	270.66	12.41	-27.5	-29.3	14.1	3.00e-06	0	44	102	1048576	15	4459
2026-01-26 02:28:23.14	270.52	12.34	-27.4	-29.2	14.2	0.00e+00	0	44	102	1048576	15	4410
2026-01-26 02:28:24.15	270.39	12.27	-27.3	-29.4	14.4	7.00e-07	0	44	102	1048576	14	4576
2026-01-26 02:28:25.15	270.25	12.21	-27.3	-29.4	14.3	7.00e-07	0	44	102	1048576	14	4585
2026-01-26 02:28:26.16	270.11	12.14	-27.3	-29.4	14.3	0.00e+00	0	44	102	1048576	14	4603
2026-01-26 02:28:27.16	269.98	12.07	-27.3	-29.4	14.3	7.00e-07	0	44	102	1048576	14	4601
2026-01-26 02:28:28.17	269.85	12.00	-27.5	-29.8	14.1	7.00e-07	0	44	102	1048576	14	4717
2026-01-26 02:28:29.17	269.71	11.93	-27.5	-29.9	14.1	1.50e-06	0	44	102	1048576	14	4726
2026-01-26 02:28:30.17	269.58	11.86	-27.6	-29.6	13.9	2.20e-06	0	44	102	1048576	15	4536
2026-01-26 02:28:31.18	269.45	11.80	-28.1	-30.3	13.3	1.29e-05	0	44	102	1048576	16	4647
2026-01-26 02:28:32.18	269.32	11.73	-28.0	-30.5	13.3	1.52e-05	0	44	102	1048576	15	4839
2026-01-26 02:28:33.18	269.19	11.66	-28.4	-31.0	12.9	3.43e-05	0	44	102	1048576	16	4861
2026-01-26 02:28:34.18	269.06	11.59	-28.4	-31.1	12.8	4.95e-05	0	44	102	1048576	16	4895
2026-01-26 02:28:35.18	268.93	11.52	-28.5	-30.9	12.6	9.99e-05	0	44	102	1048576	17	4727
2026-01-26 02:28:36.19	268.80	11.46	-28.2	-30.2	13.1	4.19e-05	0	44	102	1048576	17	4502
2026-01-26 02:28:37.18	268.67	11.39	-28.2	-30.6	13.1	2.82e-05	0	44	102	1048576	16	4729
2026-01-26 02:28:38.19	268.54	11.32	-28.3	-31.0	12.9	4.34e-05	0	44	102	1048576	16	4860
2026-01-26 02:28:39.19	268.41	11.25	-28.5	-30.9	12.6	1.05e-04	0	44	102	1048576	17	4737
2026-01-26 02:28:40.19	268.29	11.18	-28.2	-30.0	13.2	3.20e-05	0	44	102	1048576	17	4441
2026-01-26 02:28:41.20	268.16	11.12	-27.6	-30.0	12.8	2.82e-05	0	44	102	1048576	16	4730
2026-01-26 02:28:42.20	268.04	11.05	-28.4	-31.2	11.7	6.86e-05	0	44	102	1048576	16	4950
2026-01-26 02:28:43.21	267.91	10.98	-28.4	-31.2	12.8	7.93e-05	0	44	102	1048576	16	4940
2026-01-26 02:28:44.21	267.79	10.91	-28.6	-31.1	12.5	8.77e-05	0	44	102	1048576	17	4789
2026-01-26 02:28:45.22	267.66	10.85	-28.8	-31.6	12.1	2.34e-04	0	44	102	1048576	17	4960
2026-01-26 02:28:46.22	267.54	10.78	-28.8	-31.5	12.1	2.10e-04	0	44	102	1048576	17	4951
2026-01-26 02:28:47.22	267.42	10.71	-28.9	-31.9	11.8	3.71e-04	0	44	102	1048576	17	5078
2026-01-26 02:28:48.23	267.29	10.64	-28.6	-31.2	12.4	2.49e-04	0	44	102	1048576	17	4835
2026-01-26 02:28:49.23	267.17	10.58	-27.7	-30.4	11.0	1.89e-04	0	44	102	1048576	17	4902
2026-01-26 02:28:50.24	267.05	10.51	-27.6	-30.6	10.6	1.51e-03	0	44	102	1048576	16	5086
2026-01-26 02:28:51.24	266.93	10.44	-28.6	-31.2	11.3	5.24e-04	0	44	102	1048576	17	4854
2026-01-26 02:28:52.24	266.81	10.38	-28.6	-31.7	10.7	9.73e-03	0	44	102	1048576	16	5141
2026-01-26 02:28:53.25	266.69	10.31	-28.3	-31.0	11.5	1.23e-04	0	44	102	1048576	16	4875
2026-01-26 02:28:54.25	266.57	10.24	-28.2	-30.7	12.8	4.27e-05	0	44	102	1048576	16	4790
2026-01-26 02:28:55.25	266.46	10.17	-27.9	-30.4	13.0	2.36e-05	0	44	102	1048576	15	4833
2026-01-26 02:28:56.26	266.34	10.11	-28.0	-30.6	13.1	2.56e-03	0	44	102	1048576	15	4881
2026-01-26 02:28:57.27	266.22	10.04	-27.7	-29.9	13.5	4.36e-03	0	44	102	1048576	15	4664
2026-01-26 02:28:58.27	266.10	9.97	-27.9	-30.5	13.2	5.12e-03	0	44	102	1048576	15	4839
2026-01-26 02:28:59.28	265.99	9.91	-27.8	-30.3	13.3	6.80e-06	0	44	102	1048576	15	4771
2026-01-26 02:29:00.29	265.87	9.84	-28.1	-30.5	13.0	2.25e-03	0	44	102	1048576	16	4714
2026-01-26 02:29:01.28	265.76	9.77	-27.8	-30.3	13.3	3.66e-05	0	44	102	1048576	15	4781
2026-01-26 02:29:02.28	265.64	9.71	-28.0	-30.7	13.0	5.13e-03	0	44	102	1048576	15	4917
2026-01-26 02:29:03.29	265.53	9.64	-28.3	-30.9	12.8	2.42e-03	0	44	102	1048576	16	4847
2026-01-26 02:29:04.29	265.42	9.57	-28.4	-31.2	12.6	2.12e-03	0	44	102	1048576	16	4947
2026-01-26 02:29:05.30	265.30	9.51	-29.0	-31.6	12.5	7.41e-04	0	44	102	1048576	17	4851
2026-01-26 02:29:06.31	265.19	9.44	-28.5	-31.0	12.4	8.78e-04	0	44	102	1048576	17	4779
2026-01-26 02:29:07.31	265.08	9.38	-28.8	-31.6	12.0	4.45e-03	0	44	102	1048576	17	4995
2026-01-26 02:29:08.31	264.97	9.31	-28.6	-31.2	12.2	6.75e-03	0	44	102	1048576	17	4845
2026-01-26 02:29:09.31	264.86	9.24	-28.7	-31.6	12.0	1.92e-03	0	44	102	1048576	17	4972
2026-01-26 02:29:10.31	264.75	9.18	-28.8	-31.7	11.9	7.82e-03	0	44	102	1048576	17	5037
2026-01-26 02:29:11.32	264.64	9.11	-28.8	-31.7	11.9	3.84e-03	0	44	102	1048576	17	5019
2026-01-26 02:29:12.32	264.53	9.05	-28.7	-31.4	12.1	7.70e-03	0	44	102	1048576	17	4929
2026-01-26 02:29:13.33	264.42	8.98	-28.5	-31.0	12.3	1.06e-02	0	44	102	1048576	17	4776
2026-01-26 02:29:14.33	264.31	8.91	-28.6	-31.1	12.2	1.24e-02	0	44	102	1048576	17	4835
2026-01-26 02:29:15.34	264.20	8.85	-28.7	-31.4	12.1	4.00e-03	0	44	102	1048576	17	4910
2026-01-26 02:29:16.35	264.10	8.78	-28.3	-30.9	12.6	2.11e-04	0	44	102	1048576	16	4861
2026-01-26 02:29:17.35	263.99	8.72	-28.2	-30.7	12.8	1.57e-02	0	44	102	1048576	16	4780
2026-01-26 02:29:18.35	263.88	8.65	-27.9	-30.6	13.0	6.92e-03	0	44	102	1048576	15	4881
2026-01-26 02:29:19.36	263.78	8.59	-27.8	-30.2	13.2	1.21e-02	0	44	102	1048576	15	4762
2026-01-26 02:29:20.36	263.67	8.52	-27.9	-30.5	13.0	1.06e-02	0	44	102	1048576	15	4871
2026-01-26 02:29:21.37	263.57	8.46	-28.1	-30.5	12.8	3.81e-03	0	44	102	1048576	16	4748
2026-01-26 02:29:22.37	263.46	8.39	-28.2	-30.7	12.8	6.79e-05	0	44	102	1048576	16	4792
2026-01-26 02:29:23.38	263.36	8.33	-28.4	-31.1	12.5	9.04e-03	0	44	102	1048576	16	4924
2026-01-26 02:29:24.38	263.26	8.26	-28.5	-31.4	12.3	2.72e-03	0	44	102	1048576	16	5023
2026-01-26 02:29:25.38	263.15	8.20	-28.4	-30.8	12.3	6.45e-03	0	44	102	1048576	17	4717
2026-01-26 02:29:26.39	263.05	8.13	-28.5	-31.0	12.2	5.06e-03	0	44	102	1048576	17	4798
2026-01-26 02:29:27.39	262.95	8.07	-28.8	-31.9	11.6	6.73e-04	0	44	102	1048576	17	5113
2026-01-26 02:29:28.39	262.85	8.00	-28.6	-31.3	12.0	4.12e-03	0	44	102	1048576	17	4893
2026-01-26 02:29:29.39	262.75	7.94	-28.7	-31.4	11.9	3.56e-03	0	44	102	1048576	17	4933
2026-01-26 02:29:30.40	262.65	7.87	-28.6	-31.4	12.0	3.74e-04	0	44	102	1048576	17	4919
2026-01-26 02:29:31.40	262.55	7.81	-28.9	-32.0	11.6	5.97e-04	0	44	102	1048576	17	5134
2026-01-26 02:29:32.40	262.45	7.75	-28.8	-31.7	11.7	6.26e-04	0	44	102	1048576	17	5058
2026-01-26 02:29:33.41	262.35	7.68	-28.6	-31.2	12.0	3.83e-04	0	44	102	1048576	17	4850
2026-01-26 02:29:34.41	262.25	7.62	-28.7	-31.4	11.9	3.92e-04	0	44	102	1048576	17	4944
2026-01-26 02:29:35.42	262.15	7.55	-28.7	-31.5	11.8	5.47e-03	0	44	102	1048576	17	4990
2026-01-26 02:29:36.43	262.05	7.49	-28.3	-31.1	12.4	1.79e-04	0	44	102	1048576	16	4932
2026-01-26 02:29:37.43	261.96	7.43	-28.4	-31.3	12.2	2.68e-04	0	44	102	1048576	16	5019
2026-01-26 02:29:38.43	261.86	7.36	-28.2	-30.9	12.5	1.66e-04	0	44	102	1048576	16	4879
2026-01-26 02:29:39.44	261.76	7.30	-28.3	-31.1	12.3	2.06e-04	0	44	102	1048576	16	4939
2026-01-26 02:29:40.43	261.67	7.24	-28.3	-30.9	12.4	3.60e-03	0	44	102	1048576	16	4872
2026-01-26 02:29:41.43	261.57	7.17	-28.5	-31.2	11.9	3.26e-04	0	44	102	1048576	17	4868
2026-01-26 02:29:42.43	261.48	7.11	-28.1	-30.1	12.6	1.38e-04	0	44	102	1048576	17	4516
2026-01-26 02:29:43.44	261.38	7.04	-32.1	-41.6	4.2	6.50e-03	0	44	102	1048576	24	10758
2026-01-26 02:29:44.43	261.29	6.98	-32.8	-44.9	3.8	1.49e+00	0	44	104	1048576	25	14538

#Closed at: 2026-01-26 02:29:44
#Recorded file [1 MB]: D:/data/31010_260126_052000.dat