passes_logs/2026/01/26/R2M6_AANII_01/R2M6_AANII_01__20260126_034640_FENGYUN_3D_rec.log

#Pass ID: 20260126_034640_FENGYUN 3D
#Satellite: FENGYUN 3D
#Configuration: FENGYUN 3D
#almurnet v.1.7.20240730
#Start time: 2026-01-26 03:46:40

#Version: 2.2.20231116
#Station: R2M6_AANII_01
#Location: 30.233357 lon 59.946436 lat
#TLE: 1 43010U 17072A   26025.50461972  .00000046  00000+0  43592-4 0  9990
#TLE: 2 43010  98.9962 357.4844 0002523  89.7890 270.3575 14.19699798424744

#Time	Az	El	Level	Level2	SNR	BER	BlckErr	Temp	State	Recorded	gain1	gain2
2026-01-26 03:46:40.27	12.98	6.98	-29.7	-33.3	5.2	7.90e-01	0	41	0	0	19	5495
2026-01-26 03:46:41.27	12.91	7.05	-29.8	-33.8	5.2	7.93e-01	0	42	104	0	19	5681
2026-01-26 03:46:42.28	12.85	7.12	-29.8	-33.7	8.8	2.90e-02	0	41	0	0	19	5635
2026-01-26 03:46:43.28	12.78	7.19	-29.6	-33.2	9.2	2.76e-02	0	41	102	1048576	19	5389
2026-01-26 03:46:44.28	12.72	7.26	-29.9	-33.9	8.6	3.17e-02	0	42	102	1048576	19	5715
2026-01-26 03:46:45.29	12.65	7.33	-29.7	-33.1	9.3	1.60e-02	0	42	102	1048576	19	5373
2026-01-26 03:46:46.29	12.59	7.40	-29.6	-32.9	9.4	1.70e-02	0	42	102	1048576	19	5284
2026-01-26 03:46:47.30	12.52	7.48	-29.8	-33.4	9.2	1.73e-02	0	42	102	1048576	19	5453
2026-01-26 03:46:48.30	12.46	7.55	-29.1	-32.0	10.4	6.85e-03	0	42	102	1048576	18	5039
2026-01-26 03:46:49.30	12.39	7.62	-28.8	-31.6	11.0	1.97e-03	0	42	102	1048576	17	5009
2026-01-26 03:46:50.31	12.32	7.69	-28.2	-30.6	12.0	2.95e-03	0	42	102	1048576	16	4778
2026-01-26 03:46:51.31	12.25	7.76	-27.9	-30.4	12.2	4.76e-04	0	42	102	1048576	15	4848
2026-01-26 03:46:52.32	12.19	7.84	-28.1	-30.3	12.2	6.51e-04	0	42	102	1048576	16	4682
2026-01-26 03:46:53.32	12.12	7.91	-28.0	-30.2	12.3	2.39e-03	0	42	102	1048576	16	4633
2026-01-26 03:46:54.32	12.05	7.98	-27.8	-30.2	12.4	5.49e-04	0	42	102	1048576	15	4760
2026-01-26 03:46:55.32	11.98	8.06	-27.8	-30.3	12.4	2.81e-03	0	42	102	1048576	15	4787
2026-01-26 03:46:56.33	11.91	8.13	-27.9	-30.5	12.2	8.46e-05	0	42	102	1048576	15	4868
2026-01-26 03:46:57.34	11.84	8.20	-28.1	-30.4	12.2	6.64e-04	0	42	102	1048576	16	4694
2026-01-26 03:46:58.34	11.77	8.28	-27.5	-29.6	12.9	3.54e-05	0	42	102	1048576	15	4558
2026-01-26 03:46:59.35	11.70	8.35	-27.3	-29.6	13.2	2.05e-05	0	42	102	1048576	14	4681
2026-01-26 03:47:00.35	11.63	8.43	-27.2	-29.2	13.4	1.37e-05	0	42	102	1048576	14	4556
2026-01-26 03:47:01.36	11.56	8.50	-27.2	-29.2	13.4	3.24e-04	0	42	102	1048576	14	4543
2026-01-26 03:47:02.36	11.49	8.58	-27.2	-29.4	13.4	7.43e-05	0	42	102	1048576	14	4595
2026-01-26 03:47:03.37	11.42	8.65	-27.2	-29.2	13.4	9.10e-06	0	42	102	1048576	14	4558
2026-01-26 03:47:04.37	11.34	8.72	-27.1	-29.1	13.5	3.32e-04	0	42	102	1048576	14	4532
2026-01-26 03:47:05.37	11.27	8.80	-27.4	-29.8	13.1	2.63e-05	0	42	102	1048576	14	4729
2026-01-26 03:47:06.37	11.20	8.87	-27.1	-29.0	13.5	3.49e-04	0	42	102	1048576	14	4497
2026-01-26 03:47:07.38	11.13	8.95	-26.5	-28.2	14.3	2.20e-06	0	42	102	1048576	13	4365
2026-01-26 03:47:08.38	11.05	9.03	-26.5	-28.2	14.3	0.00e+00	0	42	102	1048576	13	4366
2026-01-26 03:47:09.38	10.98	9.10	-26.2	-27.5	14.7	0.00e+00	0	42	102	1048576	13	4183
2026-01-26 03:47:10.39	10.90	9.18	-26.5	-28.1	14.4	3.40e-06	0	42	102	1048576	13	4340
2026-01-26 03:47:11.39	10.83	9.25	-26.6	-28.3	14.3	0.00e+00	0	42	102	1048576	13	4392
2026-01-26 03:47:12.39	10.75	9.33	-26.3	-28.2	14.7	2.20e-06	0	43	102	1048576	12	4470
2026-01-26 03:47:13.40	10.68	9.41	-26.6	-28.4	14.3	0.00e+00	0	43	102	1048576	13	4433
2026-01-26 03:47:14.40	10.60	9.48	-26.6	-28.3	14.3	0.00e+00	0	43	102	1048576	13	4400
2026-01-26 03:47:15.41	10.52	9.56	-26.7	-28.6	14.2	3.40e-06	0	42	102	1048576	13	4477
2026-01-26 03:47:16.42	10.45	9.64	-26.9	-29.0	14.0	1.10e-06	0	42	102	1048576	13	4596
2026-01-26 03:47:17.42	10.37	9.71	-26.9	-29.0	13.9	2.20e-06	0	43	102	1048576	13	4616
2026-01-26 03:47:18.42	10.29	9.79	-26.7	-28.2	14.1	1.10e-06	0	43	102	1048576	14	4256
2026-01-26 03:47:19.43	10.21	9.87	-26.7	-28.6	14.2	1.10e-06	0	43	102	1048576	13	4480
2026-01-26 03:47:20.43	10.13	9.95	-26.6	-28.4	14.3	0.00e+00	0	43	102	1048576	13	4418
2026-01-26 03:47:21.44	10.05	10.03	-26.7	-28.6	14.2	0.00e+00	0	43	102	1048576	13	4487
2026-01-26 03:47:22.45	9.97	10.10	-26.6	-28.5	14.3	0.00e+00	0	43	102	1048576	13	4438
2026-01-26 03:47:23.46	9.89	10.18	-26.6	-28.4	14.3	1.10e-06	0	43	102	1048576	13	4412
2026-01-26 03:47:24.46	9.81	10.26	-26.4	-27.9	14.6	0.00e+00	0	43	102	1048576	13	4275
2026-01-26 03:47:25.47	9.73	10.34	-26.4	-28.4	14.6	0.00e+00	0	43	102	1048576	12	4523
2026-01-26 03:47:26.47	9.65	10.42	-26.5	-28.1	14.5	0.00e+00	0	43	102	1048576	13	4333
2026-01-26 03:47:27.47	9.57	10.50	-26.4	-27.9	14.6	0.00e+00	0	43	102	1048576	13	4288
2026-01-26 03:47:28.47	9.48	10.58	-26.2	-28.0	14.8	0.00e+00	0	43	102	1048576	12	4430
2026-01-26 03:47:29.48	9.40	10.66	-26.4	-28.4	14.6	0.00e+00	0	43	102	1048576	12	4539
2026-01-26 03:47:30.47	9.32	10.74	-26.4	-28.3	14.7	0.00e+00	0	43	102	1048576	12	4506
2026-01-26 03:47:31.48	9.23	10.82	-26.1	-27.8	15.0	0.00e+00	0	43	102	1048576	12	4360
2026-01-26 03:47:32.49	9.15	10.90	-26.8	-28.7	14.2	0.00e+00	0	43	102	1048576	13	4521
2026-01-26 03:47:33.49	9.07	10.98	-26.9	-29.1	14.0	0.00e+00	0	43	102	1048576	13	4613
2026-01-26 03:47:34.49	8.98	11.06	-26.8	-28.4	14.1	4.50e-06	0	43	102	1048576	14	4304
2026-01-26 03:47:35.50	8.89	11.14	-26.6	-28.4	14.4	0.00e+00	0	43	102	1048576	13	4428
2026-01-26 03:47:36.51	8.81	11.22	-26.6	-28.4	14.4	1.10e-06	0	43	102	1048576	13	4425
2026-01-26 03:47:37.51	8.72	11.30	-26.7	-28.5	14.3	0.00e+00	0	43	102	1048576	13	4459
2026-01-26 03:47:38.51	8.63	11.38	-26.6	-28.3	14.4	0.00e+00	0	43	102	1048576	13	4405
2026-01-26 03:47:39.52	8.54	11.46	-26.7	-28.6	14.2	2.20e-06	0	43	102	1048576	13	4485
2026-01-26 03:47:40.52	8.46	11.54	-26.7	-28.4	14.2	1.10e-06	0	43	102	1048576	13	4396
2026-01-26 03:47:41.52	8.37	11.63	-25.9	-27.8	14.3	2.20e-06	0	43	102	1048576	13	4488
2026-01-26 03:47:42.52	8.28	11.71	-26.3	-27.7	14.8	0.00e+00	0	43	102	1048576	13	4234
2026-01-26 03:47:43.52	8.19	11.79	-26.4	-28.4	14.7	0.00e+00	0	43	102	1048576	12	4542
2026-01-26 03:47:44.53	8.10	11.87	-26.3	-28.1	14.8	0.00e+00	0	43	102	1048576	12	4429
2026-01-26 03:47:45.53	8.01	11.96	-25.9	-27.4	15.1	0.00e+00	0	43	102	1048576	12	4242
2026-01-26 03:47:46.54	7.92	12.04	-25.9	-27.7	15.4	0.00e+00	0	43	102	1048576	11	4437
2026-01-26 03:47:47.54	7.82	12.12	-25.9	-27.8	15.4	0.00e+00	0	43	102	1048576	11	4480
2026-01-26 03:47:48.54	7.73	12.20	-25.9	-27.8	15.4	0.00e+00	0	43	102	1048576	11	4467
2026-01-26 03:47:49.55	7.64	12.29	-25.8	-27.5	15.5	0.00e+00	0	43	102	1048576	11	4398
2026-01-26 03:47:50.55	7.54	12.37	-25.8	-27.5	15.6	0.00e+00	0	43	102	1048576	11	4380
2026-01-26 03:47:51.56	7.45	12.46	-25.8	-27.6	15.6	0.00e+00	0	43	102	1048576	11	4404
2026-01-26 03:47:52.56	7.35	12.54	-25.9	-27.8	15.4	0.00e+00	0	43	102	1048576	11	4463
2026-01-26 03:47:53.57	7.26	12.63	-25.8	-27.5	15.3	0.00e+00	0	43	102	1048576	11	4390
2026-01-26 03:47:54.57	7.16	12.71	-25.8	-27.6	15.6	1.40e-03	0	43	102	1048576	11	4398
2026-01-26 03:47:55.58	7.07	12.79	-25.8	-27.4	15.6	0.00e+00	0	43	102	1048576	11	4366
2026-01-26 03:47:56.58	6.97	12.88	-25.5	-27.0	15.9	2.51e-04	0	43	102	1048576	11	4233
2026-01-26 03:47:57.58	6.87	12.96	-25.6	-27.1	15.8	0.00e+00	0	43	102	1048576	11	4283
2026-01-26 03:47:58.58	6.77	13.05	-25.5	-26.9	16.0	1.45e-03	0	43	102	1048576	11	4214
2026-01-26 03:47:59.58	6.68	13.14	-25.5	-26.9	15.9	1.34e-04	0	43	102	1048576	11	4231
2026-01-26 03:48:00.59	6.58	13.22	-25.4	-26.7	16.1	0.00e+00	0	43	102	1048576	11	4175
2026-01-26 03:48:01.60	6.47	13.31	-25.6	-27.0	15.9	1.62e-03	0	43	102	1048576	11	4245
2026-01-26 03:48:02.60	6.37	13.39	-25.4	-27.2	16.1	0.00e+00	0	43	102	1048576	10	4403
2026-01-26 03:48:03.61	6.27	13.48	-25.6	-27.1	15.9	1.88e-03	0	43	102	1048576	11	4265
2026-01-26 03:48:04.61	6.17	13.57	-25.5	-26.8	16.0	0.00e+00	0	43	102	1048576	11	4195
2026-01-26 03:48:05.62	6.07	13.66	-25.7	-27.2	15.8	5.34e-04	0	43	102	1048576	11	4306
2026-01-26 03:48:06.63	5.96	13.74	-25.6	-27.0	15.9	1.57e-03	0	43	102	1048576	11	4256
2026-01-26 03:48:07.63	5.86	13.83	-25.8	-27.6	15.6	1.74e-03	0	43	102	1048576	11	4395
2026-01-26 03:48:08.63	5.76	13.92	-25.8	-27.5	15.7	5.31e-04	0	43	102	1048576	11	4391
2026-01-26 03:48:09.64	5.65	14.01	-25.6	-27.2	15.9	1.84e-03	0	43	102	1048576	11	4287
2026-01-26 03:48:10.64	5.54	14.09	-26.0	-27.9	15.5	1.62e-03	0	43	102	1048576	11	4479
2026-01-26 03:48:11.64	5.44	14.18	-25.9	-27.2	15.5	2.75e-04	0	43	102	1048576	12	4195
2026-01-26 03:48:12.65	5.33	14.27	-25.7	-27.3	15.8	1.84e-03	0	43	102	1048576	11	4320
2026-01-26 03:48:13.65	5.22	14.36	-25.6	-27.0	16.0	1.53e-03	0	43	102	1048576	11	4251
2026-01-26 03:48:14.66	5.11	14.45	-25.7	-27.3	15.8	4.54e-04	0	43	102	1048576	11	4338
2026-01-26 03:48:15.66	5.01	14.54	-25.8	-27.4	15.8	1.75e-03	0	43	102	1048576	11	4345
2026-01-26 03:48:16.66	4.90	14.63	-25.7	-27.2	15.9	1.57e-03	0	43	102	1048576	11	4306
2026-01-26 03:48:17.67	4.79	14.72	-25.5	-26.8	16.1	4.08e-04	0	43	102	1048576	11	4192
2026-01-26 03:48:18.68	4.67	14.81	-25.4	-27.1	16.2	0.00e+00	0	43	102	1048576	10	4389
2026-01-26 03:48:19.67	4.56	14.90	-25.4	-27.2	16.2	1.56e-03	0	43	102	1048576	10	4403
2026-01-26 03:48:20.68	4.45	14.99	-25.3	-26.8	16.4	2.35e-04	0	44	102	1048576	10	4301
2026-01-26 03:48:21.69	4.34	15.08	-25.4	-27.1	16.2	1.63e-03	0	43	102	1048576	10	4391
2026-01-26 03:48:22.70	4.22	15.17	-25.3	-27.0	16.3	1.57e-03	0	43	102	1048576	10	4353
2026-01-26 03:48:23.69	4.11	15.26	-25.3	-27.0	16.3	0.00e+00	0	43	102	1048576	10	4344
2026-01-26 03:48:24.70	3.99	15.35	-25.4	-27.1	16.2	1.62e-03	0	44	102	1048576	10	4388
2026-01-26 03:48:25.70	3.88	15.44	-25.3	-27.0	16.3	0.00e+00	0	43	102	1048576	10	4346
2026-01-26 03:48:26.71	3.76	15.53	-25.2	-26.6	16.5	2.36e-04	0	43	102	1048576	10	4242
2026-01-26 03:48:27.72	3.64	15.63	-25.0	-26.3	16.7	1.66e-03	0	44	102	1048576	10	4167
2026-01-26 03:48:28.72	3.52	15.72	-25.1	-26.5	16.6	0.00e+00	0	43	102	1048576	10	4237
2026-01-26 03:48:29.72	3.40	15.81	-25.1	-26.4	16.7	0.00e+00	0	43	102	1048576	10	4183
2026-01-26 03:48:30.73	3.28	15.90	-24.9	-25.9	16.9	0.00e+00	0	43	102	1048576	10	4079
2026-01-26 03:48:31.73	3.16	16.00	-25.2	-26.6	16.5	1.62e-03	0	44	102	1048576	10	4238
2026-01-26 03:48:32.74	3.04	16.09	-25.0	-26.3	16.7	0.00e+00	0	44	102	1048576	10	4156
2026-01-26 03:48:33.74	2.92	16.18	-24.9	-26.1	16.8	1.54e-03	0	43	102	1048576	10	4113
2026-01-26 03:48:34.75	2.80	16.28	-24.8	-26.4	16.9	0.00e+00	0	43	102	1048576	9	4301
2026-01-26 03:48:35.74	2.67	16.37	-25.0	-26.7	16.8	0.00e+00	0	43	102	1048576	9	4388
2026-01-26 03:48:36.74	2.55	16.46	-24.9	-26.4	16.9	0.00e+00	0	44	102	1048576	9	4313
2026-01-26 03:48:37.74	2.42	16.56	-24.9	-26.5	16.9	0.00e+00	0	43	102	1048576	9	4336
2026-01-26 03:48:38.75	2.30	16.65	-24.9	-26.6	16.8	2.48e-04	0	43	102	1048576	9	4360
2026-01-26 03:48:39.76	2.17	16.75	-25.1	-26.4	16.7	0.00e+00	0	44	102	1048576	10	4180
2026-01-26 03:48:40.76	2.04	16.84	-25.0	-26.2	16.8	0.00e+00	0	43	102	1048576	10	4149
2026-01-26 03:48:41.76	1.91	16.93	-25.2	-26.7	16.6	0.00e+00	0	43	102	1048576	10	4265
2026-01-26 03:48:42.77	1.78	17.03	-25.0	-26.3	16.8	0.00e+00	0	44	102	1048576	10	4164
2026-01-26 03:48:43.77	1.65	17.13	-25.0	-26.3	16.8	0.00e+00	0	44	102	1048576	10	4166
2026-01-26 03:48:44.78	1.52	17.22	-25.4	-27.1	16.3	0.00e+00	0	43	102	1048576	10	4394
2026-01-26 03:48:45.78	1.39	17.32	-25.1	-26.5	16.6	0.00e+00	0	44	102	1048576	10	4231
2026-01-26 03:48:46.78	1.26	17.41	-25.1	-26.5	16.7	0.00e+00	0	44	102	1048576	10	4212
2026-01-26 03:48:47.79	1.12	17.51	-25.1	-26.4	16.7	0.00e+00	0	44	102	1048576	10	4194
2026-01-26 03:48:48.80	0.99	17.61	-25.1	-26.4	16.7	0.00e+00	0	43	102	1048576	10	4180
2026-01-26 03:48:49.80	0.85	17.70	-24.9	-25.9	17.0	0.00e+00	0	44	102	1048576	10	4076
2026-01-26 03:48:50.80	0.72	17.80	-24.9	-26.6	16.8	0.00e+00	0	44	102	1048576	9	4366
2026-01-26 03:48:51.81	0.58	17.90	-24.8	-26.3	17.0	0.00e+00	0	43	102	1048576	9	4285
2026-01-26 03:48:52.81	0.44	17.99	-24.6	-25.9	17.2	0.00e+00	0	44	102	1048576	9	4184
2026-01-26 03:48:53.82	0.30	18.09	-24.8	-26.3	17.0	0.00e+00	0	43	102	1048576	9	4288
2026-01-26 03:48:54.83	0.16	18.19	-24.7	-26.1	17.1	0.00e+00	0	44	102	1048576	9	4239
2026-01-26 03:48:55.83	0.02	18.29	-24.6	-25.9	17.2	0.00e+00	0	43	102	1048576	9	4181
2026-01-26 03:48:56.84	359.88	18.39	-24.9	-26.5	16.9	0.00e+00	0	44	102	1048576	9	4326
2026-01-26 03:48:57.84	359.74	18.48	-24.7	-26.1	17.1	0.00e+00	0	44	102	1048576	9	4228
2026-01-26 03:48:58.85	359.59	18.58	-24.6	-25.8	17.3	0.00e+00	0	44	102	1048576	9	4161
2026-01-26 03:48:59.86	359.44	18.68	-24.5	-25.6	17.4	0.00e+00	0	44	102	1048576	9	4101
2026-01-26 03:49:00.86	359.30	18.78	-24.5	-25.7	17.4	0.00e+00	0	44	102	1048576	9	4133
2026-01-26 03:49:01.87	359.15	18.88	-24.5	-25.7	17.4	0.00e+00	0	44	102	1048576	9	4111
2026-01-26 03:49:02.87	359.00	18.98	-24.3	-25.3	17.6	0.00e+00	0	44	102	1048576	9	4026
2026-01-26 03:49:03.88	358.85	19.08	-24.4	-26.0	17.5	0.00e+00	0	44	102	1048576	8	4304
2026-01-26 03:49:04.89	358.70	19.18	-24.2	-25.6	17.7	0.00e+00	0	44	102	1048576	8	4204
2026-01-26 03:49:05.89	358.55	19.28	-24.2	-25.4	17.8	0.00e+00	0	44	102	1048576	8	4165
2026-01-26 03:49:06.89	358.40	19.38	-24.4	-25.9	17.6	0.00e+00	0	44	102	1048576	8	4293
2026-01-26 03:49:07.89	358.25	19.48	-24.2	-25.6	17.7	0.00e+00	0	44	102	1048576	8	4211
2026-01-26 03:49:08.90	358.10	19.58	-24.2	-25.6	17.7	0.00e+00	0	44	102	1048576	8	4206
2026-01-26 03:49:09.90	357.94	19.68	-24.3	-25.8	17.6	0.00e+00	0	43	102	1048576	8	4264
2026-01-26 03:49:10.90	357.79	19.78	-24.3	-25.6	17.7	0.00e+00	0	44	102	1048576	8	4221
2026-01-26 03:49:11.91	357.63	19.88	-24.2	-25.6	17.8	0.00e+00	0	44	102	1048576	8	4202
2026-01-26 03:49:12.91	357.47	19.99	-24.2	-25.6	17.8	0.00e+00	0	44	102	1048576	8	4205
2026-01-26 03:49:13.92	357.31	20.09	-24.3	-25.7	17.7	0.00e+00	0	44	102	1048576	8	4237
2026-01-26 03:49:14.92	357.15	20.19	-24.4	-26.0	17.4	0.00e+00	0	44	102	1048576	8	4322
2026-01-26 03:49:15.93	356.99	20.29	-24.2	-25.5	17.8	0.00e+00	0	44	102	1048576	8	4188
2026-01-26 03:49:16.94	356.83	20.39	-24.1	-25.3	17.9	3.07e-04	0	44	102	1048576	8	4125
2026-01-26 03:49:17.94	356.66	20.50	-24.0	-25.2	18.0	0.00e+00	0	44	102	1048576	8	4098
2026-01-26 03:49:18.95	356.50	20.60	-24.1	-25.3	17.9	0.00e+00	0	44	102	1048576	8	4128
2026-01-26 03:49:19.95	356.33	20.70	-24.4	-25.9	17.6	0.00e+00	0	44	102	1048576	8	4276
2026-01-26 03:49:20.95	356.17	20.80	-24.3	-25.7	17.7	0.00e+00	0	44	102	1048576	8	4235
2026-01-26 03:49:21.96	356.00	20.91	-24.4	-26.0	17.5	0.00e+00	0	44	102	1048576	8	4323
2026-01-26 03:49:22.96	355.83	21.01	-24.3	-25.7	17.7	0.00e+00	0	44	102	1048576	8	4248
2026-01-26 03:49:23.97	355.66	21.11	-23.7	-25.0	17.1	3.19e-04	0	44	102	1048576	8	4159
2026-01-26 03:49:24.97	355.49	21.22	-24.3	-25.7	17.7	0.00e+00	0	44	102	1048576	8	4239
2026-01-26 03:49:25.98	355.31	21.32	-24.5	-25.7	17.5	4.86e-04	0	44	102	1048576	9	4122
2026-01-26 03:49:26.99	355.14	21.42	-24.4	-25.4	17.6	2.39e-04	0	44	102	1048576	9	4051
2026-01-26 03:49:27.99	354.96	21.53	-24.8	-26.3	17.1	1.10e-03	0	44	102	1048576	9	4286
2026-01-26 03:49:29.00	354.79	21.63	-24.4	-26.0	17.6	2.69e-04	0	44	102	1048576	8	4305
2026-01-26 03:49:30.01	354.61	21.74	-24.1	-25.2	18.0	0.00e+00	0	44	102	1048576	8	4114
2026-01-26 03:49:31.02	354.43	21.84	-23.9	-24.8	18.2	1.02e-03	0	44	102	1048576	8	4000
2026-01-26 03:49:32.03	354.25	21.95	-23.7	-24.9	18.4	0.00e+00	0	44	102	1048576	7	4149
2026-01-26 03:49:33.03	354.07	22.05	-23.7	-24.9	18.4	1.25e-03	0	44	102	1048576	7	4146
2026-01-26 03:49:34.04	353.88	22.15	-23.6	-24.7	18.5	0.00e+00	0	44	102	1048576	7	4100
2026-01-26 03:49:35.05	353.70	22.26	-23.6	-24.7	18.5	5.07e-04	0	44	102	1048576	7	4086
2026-01-26 03:49:36.05	353.51	22.36	-23.6	-24.8	18.5	1.97e-04	0	44	102	1048576	7	4122
2026-01-26 03:49:37.05	353.33	22.47	-23.6	-24.7	18.5	8.77e-04	0	44	102	1048576	7	4102
2026-01-26 03:49:38.06	353.14	22.57	-23.6	-24.8	18.5	4.26e-04	0	44	102	1048576	7	4127
2026-01-26 03:49:39.06	352.95	22.68	-23.7	-24.9	18.4	1.38e-04	0	44	102	1048576	7	4142
2026-01-26 03:49:40.06	352.76	22.78	-23.7	-24.9	18.4	7.21e-04	0	44	102	1048576	7	4153
2026-01-26 03:49:41.06	352.57	22.89	-23.6	-24.7	18.5	1.30e-04	0	44	102	1048576	7	4107
2026-01-26 03:49:42.07	352.38	22.99	-23.6	-24.7	18.5	8.39e-04	0	44	102	1048576	7	4103
2026-01-26 03:49:43.07	352.19	23.10	-23.7	-25.0	18.4	6.11e-04	0	44	102	1048576	7	4177
2026-01-26 03:49:44.07	351.99	23.20	-23.5	-24.6	18.6	6.29e-05	0	44	102	1048576	7	4068
2026-01-26 03:49:45.08	351.79	23.31	-23.5	-24.5	18.6	5.63e-04	0	44	102	1048576	7	4041
2026-01-26 03:49:46.09	351.59	23.42	-23.5	-24.6	18.6	6.79e-04	0	44	102	1048576	7	4059
2026-01-26 03:49:47.09	351.39	23.52	-23.4	-24.2	18.8	0.00e+00	0	44	102	1048576	7	3968
2026-01-26 03:49:48.09	351.19	23.63	-23.4	-24.3	18.7	0.00e+00	0	44	102	1048576	7	4004
2026-01-26 03:49:49.10	350.99	23.73	-23.5	-24.4	18.7	7.87e-04	0	44	102	1048576	7	4023
2026-01-26 03:49:50.10	350.79	23.84	-23.4	-24.3	18.8	9.84e-05	0	44	102	1048576	7	3985
2026-01-26 03:49:51.10	350.58	23.94	-23.4	-24.2	18.8	9.69e-04	0	44	102	1048576	7	3977
2026-01-26 03:49:52.11	350.38	24.05	-23.4	-24.2	18.8	9.59e-04	0	44	102	1048576	7	3980
2026-01-26 03:49:53.11	350.17	24.16	-23.6	-24.6	18.6	1.43e-04	0	44	102	1048576	7	4072
2026-01-26 03:49:54.12	349.96	24.26	-23.4	-24.3	18.8	9.85e-04	0	44	102	1048576	7	3984
2026-01-26 03:49:55.12	349.75	24.37	-23.4	-24.3	18.8	0.00e+00	0	44	102	1048576	7	3990
2026-01-26 03:49:56.13	349.54	24.47	-23.5	-24.6	18.6	2.32e-04	0	44	102	1048576	7	4070
2026-01-26 03:49:57.14	349.32	24.58	-23.3	-24.1	18.9	0.00e+00	0	44	102	1048576	7	3954
2026-01-26 03:49:58.14	349.11	24.69	-23.3	-24.1	18.9	8.59e-04	0	44	102	1048576	7	3954
2026-01-26 03:49:59.14	348.89	24.79	-23.3	-24.6	18.9	2.71e-04	0	44	102	1048576	6	4174
2026-01-26 03:50:00.15	348.67	24.90	-23.3	-24.5	19.0	0.00e+00	0	44	102	1048576	6	4160
2026-01-26 03:50:01.16	348.45	25.00	-23.2	-24.4	19.0	6.55e-04	0	44	102	1048576	6	4133
2026-01-26 03:50:02.16	348.23	25.11	-23.3	-24.6	18.9	0.00e+00	0	44	102	1048576	6	4169
2026-01-26 03:50:03.16	348.01	25.22	-23.1	-24.2	19.1	5.86e-04	0	44	102	1048576	6	4084
2026-01-26 03:50:04.17	347.78	25.32	-23.1	-24.1	19.2	0.00e+00	0	44	102	1048576	6	4047
2026-01-26 03:50:05.17	347.56	25.43	-23.1	-24.2	19.1	0.00e+00	0	44	102	1048576	6	4086
2026-01-26 03:50:06.18	347.33	25.53	-23.3	-24.5	19.0	0.00e+00	0	44	102	1048576	6	4164
2026-01-26 03:50:07.18	347.10	25.64	-23.3	-24.7	18.9	0.00e+00	0	44	102	1048576	6	4197
2026-01-26 03:50:08.19	346.87	25.74	-23.2	-24.5	19.0	0.00e+00	0	44	102	1048576	6	4143
2026-01-26 03:50:09.20	346.64	25.85	-23.4	-24.7	18.9	0.00e+00	0	44	102	1048576	6	4212
2026-01-26 03:50:10.20	346.41	25.95	-23.3	-24.6	18.9	3.40e-06	0	44	102	1048576	6	4180
2026-01-26 03:50:11.20	346.17	26.06	-23.3	-24.7	18.9	0.00e+00	0	44	102	1048576	6	4191
2026-01-26 03:50:12.20	345.94	26.16	-23.3	-24.7	18.9	0.00e+00	0	44	102	1048576	6	4194
2026-01-26 03:50:13.20	345.70	26.27	-23.5	-24.5	18.8	0.00e+00	0	44	102	1048576	7	4024
2026-01-26 03:50:14.21	345.46	26.37	-23.1	-23.7	19.1	0.00e+00	0	44	102	1048576	7	3853
2026-01-26 03:50:15.21	345.22	26.48	-23.0	-23.9	19.3	0.00e+00	0	44	102	1048576	6	4000
2026-01-26 03:50:16.21	344.98	26.58	-23.2	-24.3	19.1	0.00e+00	0	44	102	1048576	6	4104
2026-01-26 03:50:17.21	344.73	26.68	-23.1	-24.2	19.2	0.00e+00	0	44	102	1048576	6	4072
2026-01-26 03:50:18.22	344.49	26.79	-23.3	-24.5	19.0	0.00e+00	0	44	102	1048576	6	4159
2026-01-26 03:50:19.22	344.24	26.89	-23.2	-24.3	19.1	0.00e+00	0	44	102	1048576	6	4106
2026-01-26 03:50:20.23	343.99	27.00	-23.3	-24.6	18.9	0.00e+00	0	44	102	1048576	6	4187
2026-01-26 03:50:21.23	343.74	27.10	-23.0	-23.9	19.3	0.00e+00	0	44	102	1048576	6	4012
2026-01-26 03:50:22.24	343.48	27.20	-22.8	-23.5	19.5	0.00e+00	0	44	102	1048576	6	3915
2026-01-26 03:50:23.24	343.23	27.31	-22.7	-23.4	19.6	0.00e+00	0	44	102	1048576	6	3883
2026-01-26 03:50:24.25	342.97	27.41	-22.8	-24.1	19.5	0.00e+00	0	44	102	1048576	5	4163
2026-01-26 03:50:25.25	342.72	27.51	-22.7	-23.9	19.6	0.00e+00	0	44	102	1048576	5	4112
2026-01-26 03:50:26.26	342.46	27.61	-22.6	-23.6	19.7	0.00e+00	0	44	102	1048576	5	4043
2026-01-26 03:50:27.27	342.19	27.72	-22.6	-23.7	19.7	0.00e+00	0	44	102	1048576	5	4069
2026-01-26 03:50:28.27	341.93	27.82	-22.7	-23.8	19.6	0.00e+00	0	44	102	1048576	5	4088
2026-01-26 03:50:29.26	341.67	27.92	-22.7	-23.8	19.7	0.00e+00	0	44	102	1048576	5	4081
2026-01-26 03:50:30.27	341.40	28.02	-22.7	-23.9	19.6	0.00e+00	0	44	102	1048576	5	4111
2026-01-26 03:50:31.27	341.14	28.12	-22.9	-24.3	19.4	0.00e+00	0	44	102	1048576	5	4214
2026-01-26 03:50:32.27	340.87	28.22	-22.9	-24.2	19.4	0.00e+00	0	44	102	1048576	5	4189
2026-01-26 03:50:33.27	340.60	28.32	-22.8	-24.1	19.5	0.00e+00	0	44	102	1048576	5	4168
2026-01-26 03:50:34.28	340.32	28.42	-22.8	-24.1	16.1	0.00e+00	0	44	102	1048576	5	4177
2026-01-26 03:50:35.29	340.05	28.52	-22.9	-23.8	19.0	0.00e+00	0	44	102	1048576	6	3992
2026-01-26 03:50:36.29	339.77	28.62	-22.8	-23.6	19.5	0.00e+00	0	44	102	1048576	6	3923
2026-01-26 03:50:37.30	339.49	28.72	-22.6	-23.7	19.7	0.00e+00	0	44	102	1048576	5	4062
2026-01-26 03:50:38.31	339.21	28.81	-22.8	-23.9	19.6	0.00e+00	0	44	102	1048576	5	4128
2026-01-26 03:50:39.31	338.93	28.91	-22.8	-24.0	19.5	0.00e+00	0	44	102	1048576	5	4133
2026-01-26 03:50:40.31	338.65	29.01	-22.9	-24.2	19.4	0.00e+00	0	44	102	1048576	5	4201
2026-01-26 03:50:41.32	338.36	29.11	-22.7	-23.8	19.7	0.00e+00	0	44	102	1048576	5	4083
2026-01-26 03:50:42.32	338.08	29.20	-22.7	-23.8	19.6	0.00e+00	0	44	102	1048576	5	4093
2026-01-26 03:50:43.32	337.79	29.30	-22.7	-23.7	19.7	0.00e+00	0	44	102	1048576	5	4080
2026-01-26 03:50:44.33	337.50	29.39	-22.7	-23.8	19.7	5.62e-04	0	44	102	1048576	5	4085
2026-01-26 03:50:45.33	337.21	29.49	-22.8	-24.0	19.6	0.00e+00	0	44	102	1048576	5	4134
2026-01-26 03:50:46.33	336.91	29.58	-22.9	-24.2	19.5	4.28e-04	0	44	102	1048576	5	4184
2026-01-26 03:50:47.34	336.62	29.67	-22.9	-23.8	19.4	3.01e-04	0	44	102	1048576	6	3990
2026-01-26 03:50:48.34	336.32	29.77	-22.7	-23.4	19.6	0.00e+00	0	44	102	1048576	6	3893
2026-01-26 03:50:49.34	336.02	29.86	-22.8	-23.5	19.6	8.69e-05	0	44	102	1048576	6	3910
2026-01-26 03:50:50.34	335.72	29.95	-22.7	-23.8	19.6	0.00e+00	0	44	102	1048576	5	4102
2026-01-26 03:50:51.34	335.42	30.04	-22.5	-23.4	19.8	0.00e+00	0	44	102	1048576	5	3985
2026-01-26 03:50:52.35	335.12	30.13	-22.4	-23.2	20.0	5.03e-05	0	44	102	1048576	5	3936
2026-01-26 03:50:53.35	334.81	30.22	-22.7	-23.7	19.7	6.40e-05	0	44	102	1048576	5	4075
2026-01-26 03:50:54.36	334.50	30.31	-22.7	-23.8	19.7	0.00e+00	0	44	102	1048576	5	4089
2026-01-26 03:50:55.36	334.20	30.40	-22.5	-23.5	19.8	0.00e+00	0	44	102	1048576	5	4025
2026-01-26 03:50:56.37	333.88	30.49	-22.5	-23.5	19.8	1.03e-04	0	44	102	1048576	5	4018
2026-01-26 03:50:57.37	333.57	30.58	-22.5	-23.4	19.8	0.00e+00	0	44	102	1048576	5	4001
2026-01-26 03:50:58.37	333.26	30.66	-22.5	-23.3	19.9	1.36e-04	0	44	102	1048576	5	3980
2026-01-26 03:50:59.37	332.94	30.75	-22.4	-23.6	20.0	1.46e-04	0	44	102	1048576	4	4158
2026-01-26 03:51:00.37	332.63	30.83	-22.3	-23.4	20.1	0.00e+00	0	44	102	1048576	4	4108
2026-01-26 03:51:01.37	332.31	30.92	-22.3	-23.5	20.1	1.83e-05	0	44	102	1048576	4	4131
2026-01-26 03:51:02.37	331.99	31.00	-22.4	-23.6	20.0	9.51e-04	0	44	102	1048576	4	4160
2026-01-26 03:51:03.38	331.66	31.09	-22.2	-23.3	20.2	0.00e+00	0	44	102	1048576	4	4077
2026-01-26 03:51:04.38	331.34	31.17	-22.3	-23.4	20.1	2.14e-04	0	44	102	1048576	4	4112
2026-01-26 03:51:05.39	331.01	31.25	-22.3	-23.5	20.1	2.82e-04	0	44	102	1048576	4	4132
2026-01-26 03:51:06.39	330.69	31.33	-22.2	-23.4	20.1	0.00e+00	0	44	102	1048576	4	4103
2026-01-26 03:51:07.40	330.35	31.41	-22.2	-23.3	20.1	4.81e-04	0	44	102	1048576	4	4092
2026-01-26 03:51:08.40	330.02	31.49	-22.2	-23.2	20.2	1.52e-04	0	44	102	1048576	4	4066
2026-01-26 03:51:09.40	329.69	31.57	-22.2	-23.3	20.2	1.19e-03	0	44	102	1048576	4	4076
2026-01-26 03:51:10.41	329.36	31.64	-22.2	-23.3	20.2	0.00e+00	0	44	102	1048576	4	4077
2026-01-26 03:51:11.41	329.02	31.72	-22.1	-23.0	20.3	1.10e-03	0	44	102	1048576	4	4011
2026-01-26 03:51:12.42	328.68	31.80	-22.1	-23.0	20.3	0.00e+00	0	44	102	1048576	4	4020
2026-01-26 03:51:13.43	328.34	31.87	-22.0	-22.9	20.4	0.00e+00	0	44	102	1048576	4	3990
2026-01-26 03:51:14.43	328.00	31.94	-22.1	-23.0	20.3	9.77e-04	0	44	102	1048576	4	4010
2026-01-26 03:51:15.44	327.66	32.02	-22.0	-23.0	20.3	0.00e+00	0	44	102	1048576	4	4002
2026-01-26 03:51:16.44	327.32	32.09	-22.1	-23.0	20.3	0.00e+00	0	44	102	1048576	4	4008
2026-01-26 03:51:17.45	326.97	32.16	-22.0	-22.8	20.4	1.66e-04	0	44	102	1048576	4	3965
2026-01-26 03:51:18.45	326.62	32.23	-22.0	-22.8	20.4	1.23e-03	0	44	102	1048576	4	3973
2026-01-26 03:51:19.45	326.28	32.30	-22.0	-22.9	20.4	2.05e-05	0	44	102	1048576	4	3982
2026-01-26 03:51:20.46	325.92	32.36	-22.2	-23.2	20.2	1.23e-03	0	44	102	1048576	4	4064
2026-01-26 03:51:21.46	325.57	32.43	-22.3	-23.5	20.0	1.16e-03	0	44	102	1048576	4	4144
2026-01-26 03:51:22.46	325.22	32.49	-22.3	-23.5	20.1	2.45e-04	0	44	102	1048576	4	4141
2026-01-26 03:51:23.46	324.87	32.56	-22.3	-23.6	20.0	1.12e-03	0	44	102	1048576	4	4147
2026-01-26 03:51:24.47	324.51	32.62	-22.3	-23.5	20.1	0.00e+00	0	44	102	1048576	4	4131
2026-01-26 03:51:25.47	324.16	32.68	-22.3	-23.5	20.1	0.00e+00	0	44	102	1048576	4	4141
2026-01-26 03:51:26.47	323.80	32.74	-22.3	-23.6	20.1	1.29e-03	0	44	102	1048576	4	4151
2026-01-26 03:51:27.48	323.44	32.80	-22.3	-23.6	20.0	1.20e-03	0	44	102	1048576	4	4158
2026-01-26 03:51:28.48	323.08	32.86	-22.1	-23.1	20.3	1.51e-04	0	44	102	1048576	4	4040
2026-01-26 03:51:29.49	322.72	32.92	-22.1	-23.1	20.3	9.86e-04	0	44	102	1048576	4	4028
2026-01-26 03:51:30.50	322.35	32.98	-22.1	-23.2	20.3	8.72e-04	0	44	102	1048576	4	4047
2026-01-26 03:51:31.51	321.98	33.03	-22.3	-23.4	20.1	0.00e+00	0	44	102	1048576	4	4109
2026-01-26 03:51:32.51	321.62	33.08	-22.2	-23.3	20.2	8.63e-04	0	44	102	1048576	4	4091
2026-01-26 03:51:33.52	321.25	33.14	-22.1	-23.1	20.3	9.94e-04	0	44	102	1048576	4	4027
2026-01-26 03:51:34.53	320.88	33.19	-22.0	-22.9	20.4	1.59e-04	0	44	102	1048576	4	3979
2026-01-26 03:51:35.53	320.51	33.24	-22.1	-23.0	20.3	1.02e-03	0	44	102	1048576	4	4013
2026-01-26 03:51:36.54	320.14	33.29	-21.9	-22.7	20.5	1.11e-03	0	44	102	1048576	4	3948
2026-01-26 03:51:37.53	319.77	33.33	-21.7	-22.3	20.7	2.30e-04	0	44	102	1048576	4	3845
2026-01-26 03:51:38.53	319.40	33.38	-21.6	-22.1	20.8	0.00e+00	0	44	102	1048576	4	3793
2026-01-26 03:51:39.54	319.02	33.42	-21.7	-22.2	20.7	7.98e-04	0	44	102	1048576	4	3824
2026-01-26 03:51:40.55	318.65	33.47	-21.8	-23.0	20.6	0.00e+00	0	44	102	1048576	3	4112
2026-01-26 03:51:41.55	318.27	33.51	-21.8	-22.9	20.6	9.28e-04	0	44	102	1048576	3	4104
2026-01-26 03:51:42.56	317.89	33.55	-21.7	-22.8	20.7	1.14e-03	0	44	102	1048576	3	4077
2026-01-26 03:51:43.57	317.51	33.59	-21.7	-22.7	20.8	0.00e+00	0	44	102	1048576	3	4047
2026-01-26 03:51:44.58	317.13	33.63	-21.8	-23.0	20.7	1.14e-03	0	44	102	1048576	3	4113
2026-01-26 03:51:45.58	316.75	33.66	-22.0	-23.3	20.5	0.00e+00	0	44	102	1048576	3	4193
2026-01-26 03:51:46.58	316.37	33.70	-21.9	-22.7	20.5	1.91e-04	0	44	102	1048576	4	3942
2026-01-26 03:51:47.58	315.99	33.73	-21.8	-22.4	20.6	0.00e+00	0	44	102	1048576	4	3868
2026-01-26 03:51:48.59	315.61	33.76	-21.7	-22.2	20.7	3.07e-04	0	44	102	1048576	4	3826
2026-01-26 03:51:49.59	315.23	33.79	-21.8	-23.0	20.7	0.00e+00	0	44	102	1048576	3	4111
2026-01-26 03:51:50.59	314.85	33.82	-21.9	-23.2	20.5	0.00e+00	0	44	102	1048576	3	4177
2026-01-26 03:51:51.60	314.46	33.85	-21.9	-23.1	20.6	0.00e+00	0	44	102	1048576	3	4141
2026-01-26 03:51:52.60	314.08	33.88	-21.8	-22.9	20.7	0.00e+00	0	44	102	1048576	3	4088
2026-01-26 03:51:53.60	313.69	33.90	-21.9	-23.1	20.6	7.92e-04	0	44	102	1048576	3	4139
2026-01-26 03:51:54.61	313.30	33.93	-21.9	-22.7	20.5	0.00e+00	0	44	102	1048576	4	3931
2026-01-26 03:51:55.62	312.92	33.95	-22.1	-23.0	20.3	0.00e+00	0	44	102	1048576	4	4012
2026-01-26 03:51:56.62	312.53	33.97	-22.1	-23.1	20.3	0.00e+00	0	44	102	1048576	4	4040
2026-01-26 03:51:57.62	312.14	33.99	-22.2	-23.3	20.2	0.00e+00	0	44	102	1048576	4	4075
2026-01-26 03:51:58.63	311.75	34.01	-22.3	-23.5	19.2	0.00e+00	0	44	102	1048576	4	4120
2026-01-26 03:51:59.63	311.37	34.02	-22.1	-23.1	20.3	0.00e+00	0	44	102	1048576	4	4024
2026-01-26 03:52:00.63	310.98	34.04	-21.9	-22.6	20.5	0.00e+00	0	44	102	1048576	4	3910
2026-01-26 03:52:01.64	310.59	34.05	-21.9	-22.6	20.6	0.00e+00	0	44	102	1048576	4	3916
2026-01-26 03:52:02.65	310.20	34.06	-21.9	-22.6	20.6	0.00e+00	0	44	102	1048576	4	3912
2026-01-26 03:52:03.65	309.81	34.07	-21.7	-22.3	20.7	0.00e+00	0	44	102	1048576	4	3845
2026-01-26 03:52:04.66	309.41	34.08	-21.6	-22.6	20.8	0.00e+00	0	44	102	1048576	3	4028
2026-01-26 03:52:05.66	309.03	34.09	-21.7	-22.7	20.8	0.00e+00	0	44	102	1048576	3	4042
2026-01-26 03:52:06.66	308.64	34.10	-21.8	-23.0	20.7	0.00e+00	0	44	102	1048576	3	4116
2026-01-26 03:52:07.66	308.25	34.10	-21.9	-23.2	20.5	5.03e-04	0	44	102	1048576	3	4175
2026-01-26 03:52:08.66	307.86	34.10	-21.9	-23.2	20.5	0.00e+00	0	44	102	1048576	3	4179
2026-01-26 03:52:09.67	307.47	34.10	-21.8	-23.0	20.6	5.50e-04	0	44	102	1048576	3	4131
2026-01-26 03:52:10.68	307.07	34.10	-21.9	-23.2	20.6	0.00e+00	0	44	102	1048576	3	4173
2026-01-26 03:52:11.68	306.68	34.10	-21.9	-22.7	20.5	0.00e+00	0	44	102	1048576	4	3929
2026-01-26 03:52:12.68	306.29	34.10	-21.8	-22.4	20.7	3.09e-04	0	44	102	1048576	4	3874
2026-01-26 03:52:13.69	305.90	34.09	-21.8	-22.8	20.7	0.00e+00	0	44	102	1048576	3	4080
2026-01-26 03:52:14.70	305.51	34.09	-21.8	-23.0	20.7	0.00e+00	0	44	102	1048576	3	4115
2026-01-26 03:52:15.71	305.12	34.08	-21.8	-22.9	20.7	0.00e+00	0	44	102	1048576	3	4096
2026-01-26 03:52:16.71	304.73	34.07	-21.8	-23.0	20.7	2.75e-04	0	44	102	1048576	3	4109
2026-01-26 03:52:17.71	304.34	34.06	-21.6	-22.6	20.8	0.00e+00	0	44	102	1048576	3	4025
2026-01-26 03:52:18.71	303.95	34.05	-21.8	-22.9	20.7	2.80e-04	0	44	102	1048576	3	4095
2026-01-26 03:52:19.72	303.56	34.03	-21.9	-23.2	20.5	2.43e-04	0	44	102	1048576	3	4178
2026-01-26 03:52:20.72	303.17	34.02	-21.8	-22.5	20.6	0.00e+00	0	44	102	1048576	4	3891
2026-01-26 03:52:21.73	302.78	34.00	-21.9	-22.6	20.6	1.18e-04	0	44	102	1048576	4	3911
2026-01-26 03:52:22.73	302.39	33.98	-21.8	-22.4	20.6	0.00e+00	0	44	102	1048576	4	3872
2026-01-26 03:52:23.73	302.01	33.96	-21.9	-22.7	20.5	0.00e+00	0	44	102	1048576	4	3934
2026-01-26 03:52:24.73	301.62	33.94	-22.0	-22.9	20.4	0.00e+00	0	44	102	1048576	4	3981
2026-01-26 03:52:25.74	301.23	33.92	-22.1	-23.1	20.3	0.00e+00	0	44	102	1048576	4	4046
2026-01-26 03:52:26.74	300.85	33.89	-22.0	-22.9	20.4	0.00e+00	0	44	102	1048576	4	3987
2026-01-26 03:52:27.74	300.47	33.87	-22.0	-22.8	20.4	2.97e-05	0	44	102	1048576	4	3969
2026-01-26 03:52:28.75	300.08	33.84	-21.9	-22.8	20.4	1.33e-04	0	44	102	1048576	4	3955
2026-01-26 03:52:29.75	299.70	33.81	-21.8	-22.5	20.6	0.00e+00	0	44	102	1048576	4	3894
2026-01-26 03:52:30.76	299.31	33.78	-21.8	-22.4	20.6	6.63e-05	0	44	102	1048576	4	3871
2026-01-26 03:52:31.77	298.92	33.75	-21.9	-22.6	20.5	0.00e+00	0	44	102	1048576	4	3909
2026-01-26 03:52:32.77	298.54	33.72	-21.7	-22.2	20.7	0.00e+00	0	44	102	1048576	4	3828
2026-01-26 03:52:33.78	298.16	33.68	-21.5	-21.9	20.8	0.00e+00	0	44	102	1048576	4	3759
2026-01-26 03:52:34.78	297.78	33.65	-21.5	-21.8	20.9	0.00e+00	0	44	102	1048576	4	3722
2026-01-26 03:52:35.79	297.40	33.61	-21.6	-22.5	20.9	0.00e+00	0	44	102	1048576	3	4000
2026-01-26 03:52:36.79	297.02	33.57	-21.5	-22.3	20.9	0.00e+00	0	44	102	1048576	3	3961
2026-01-26 03:52:37.80	296.64	33.53	-21.6	-22.6	20.8	1.61e-04	0	44	102	1048576	3	4024
2026-01-26 03:52:38.81	296.26	33.49	-21.4	-22.2	21.0	0.00e+00	0	44	102	1048576	3	3926
2026-01-26 03:52:39.81	295.89	33.45	-21.4	-22.1	21.1	0.00e+00	0	44	102	1048576	3	3900
2026-01-26 03:52:40.82	295.51	33.41	-21.5	-22.2	21.0	2.17e-04	0	44	102	1048576	3	3936
2026-01-26 03:52:41.81	295.14	33.36	-21.7	-22.8	20.7	0.00e+00	0	44	102	1048576	3	4071
2026-01-26 03:52:42.81	294.77	33.31	-21.9	-23.1	20.6	5.83e-05	0	44	102	1048576	3	4143
2026-01-26 03:52:43.82	294.40	33.27	-21.9	-23.2	20.5	0.00e+00	0	44	102	1048576	3	4182
2026-01-26 03:52:44.82	294.03	33.22	-21.9	-23.1	20.5	0.00e+00	0	44	102	1048576	3	4156
2026-01-26 03:52:45.83	293.66	33.17	-21.9	-23.1	20.6	0.00e+00	0	44	102	1048576	3	4139
2026-01-26 03:52:46.84	293.28	33.11	-21.9	-23.1	20.6	0.00e+00	0	44	102	1048576	3	4144
2026-01-26 03:52:47.84	292.92	33.06	-21.9	-23.2	20.5	1.22e-03	0	44	102	1048576	3	4182
2026-01-26 03:52:48.84	292.55	33.01	-21.8	-23.0	20.6	0.00e+00	0	44	102	1048576	3	4123
2026-01-26 03:52:49.85	292.19	32.95	-21.9	-23.2	20.5	1.15e-03	0	44	102	1048576	3	4183
2026-01-26 03:52:50.86	291.82	32.90	-21.9	-23.1	20.6	0.00e+00	0	44	102	1048576	3	4142
2026-01-26 03:52:51.85	291.46	32.84	-21.9	-23.1	20.6	0.00e+00	0	44	102	1048576	3	4133
2026-01-26 03:52:52.86	291.10	32.78	-21.8	-22.9	20.6	1.71e-05	0	44	102	1048576	3	4108
2026-01-26 03:52:53.87	290.74	32.72	-21.9	-23.1	20.6	0.00e+00	0	44	102	1048576	3	4146
2026-01-26 03:52:54.87	290.38	32.66	-21.8	-22.9	20.7	1.42e-04	0	44	102	1048576	3	4102
2026-01-26 03:52:55.88	290.02	32.60	-21.9	-23.1	20.6	0.00e+00	0	44	102	1048576	3	4153
2026-01-26 03:52:56.88	289.67	32.53	-21.9	-23.3	20.5	1.30e-03	0	44	102	1048576	3	4187
2026-01-26 03:52:57.89	289.31	32.47	-22.0	-23.3	20.5	0.00e+00	0	44	102	1048576	3	4189
2026-01-26 03:52:58.89	288.96	32.40	-21.8	-23.0	20.6	1.10e-03	0	44	102	1048576	3	4135
2026-01-26 03:52:59.90	288.61	32.33	-21.9	-23.2	20.5	1.00e-03	0	44	102	1048576	3	4172
2026-01-26 03:53:00.90	288.26	32.27	-21.8	-23.0	20.6	0.00e+00	0	44	102	1048576	3	4126
2026-01-26 03:53:01.91	287.91	32.20	-21.9	-23.2	20.5	9.61e-04	0	44	102	1048576	3	4164
2026-01-26 03:53:02.91	287.56	32.13	-22.0	-23.3	20.5	0.00e+00	0	44	102	1048576	3	4194
2026-01-26 03:53:03.91	287.22	32.06	-22.1	-23.1	20.3	0.00e+00	0	44	102	1048576	4	4039
2026-01-26 03:53:04.92	286.87	31.98	-22.3	-23.4	20.1	3.90e-04	0	44	102	1048576	4	4116
2026-01-26 03:53:05.93	286.53	31.91	-22.1	-23.0	20.3	1.04e-03	0	44	102	1048576	4	4017
2026-01-26 03:53:06.94	286.19	31.84	-21.9	-22.6	20.5	0.00e+00	0	44	102	1048576	4	3919
2026-01-26 03:53:07.95	285.84	31.76	-21.8	-22.6	20.5	7.79e-04	0	44	102	1048576	4	3908
2026-01-26 03:53:08.95	285.51	31.69	-21.9	-22.6	20.5	6.00e-04	0	44	102	1048576	4	3922
2026-01-26 03:53:09.96	285.17	31.61	-21.9	-22.6	20.4	0.00e+00	0	44	102	1048576	4	3928
2026-01-26 03:53:10.96	284.84	31.53	-21.8	-22.4	20.6	4.50e-06	0	44	102	1048576	4	3883
2026-01-26 03:53:11.97	284.50	31.45	-21.8	-22.4	20.5	3.25e-04	0	44	102	1048576	4	3874
2026-01-26 03:53:12.97	284.17	31.37	-21.9	-22.7	20.4	0.00e+00	0	44	102	1048576	4	3934
2026-01-26 03:53:13.97	283.84	31.29	-21.8	-22.4	20.5	7.88e-04	0	44	102	1048576	4	3881
2026-01-26 03:53:14.98	283.51	31.21	-21.8	-22.5	20.5	8.83e-04	0	44	102	1048576	4	3888
2026-01-26 03:53:15.98	283.19	31.13	-21.9	-22.6	20.4	0.00e+00	0	44	102	1048576	4	3924
2026-01-26 03:53:16.98	282.87	31.05	-22.0	-22.8	20.4	0.00e+00	0	44	102	1048576	4	3965
2026-01-26 03:53:17.98	282.54	30.96	-22.0	-22.8	20.3	6.73e-04	0	44	102	1048576	4	3963
2026-01-26 03:53:18.97	282.23	30.88	-22.0	-23.0	20.3	0.00e+00	0	44	102	1048576	4	4000
2026-01-26 03:53:19.98	281.91	30.80	-22.1	-23.0	20.2	7.48e-04	0	44	102	1048576	4	4019
2026-01-26 03:53:20.98	281.59	30.71	-22.3	-23.4	20.0	8.97e-04	0	44	102	1048576	4	4116
2026-01-26 03:53:21.98	281.27	30.62	-22.4	-23.6	19.9	0.00e+00	0	44	102	1048576	4	4164
2026-01-26 03:53:22.99	280.96	30.54	-22.4	-23.7	19.9	1.11e-03	0	44	102	1048576	4	4179
2026-01-26 03:53:23.99	280.65	30.45	-22.4	-23.8	19.8	0.00e+00	0	44	102	1048576	4	4208
2026-01-26 03:53:24.99	280.34	30.36	-22.1	-23.1	20.2	0.00e+00	0	44	102	1048576	4	4039
2026-01-26 03:53:26.00	280.03	30.27	-21.9	-22.6	20.4	0.00e+00	0	44	102	1048576	4	3912
2026-01-26 03:53:27.00	279.72	30.18	-21.9	-22.6	20.4	1.21e-03	0	44	102	1048576	4	3923
2026-01-26 03:53:28.01	279.41	30.09	-22.1	-23.2	20.1	0.00e+00	0	44	102	1048576	4	4050
2026-01-26 03:53:29.01	279.11	30.00	-22.0	-22.9	20.3	0.00e+00	0	44	102	1048576	4	3983
2026-01-26 03:53:30.01	278.81	29.91	-22.2	-23.3	20.1	1.08e-03	0	44	102	1048576	4	4094
2026-01-26 03:53:31.01	278.51	29.82	-22.2	-23.2	20.1	1.10e-06	0	44	102	1048576	4	4059
2026-01-26 03:53:32.02	278.21	29.72	-22.2	-23.3	20.1	7.61e-04	0	44	102	1048576	4	4084
2026-01-26 03:53:33.03	277.91	29.63	-22.3	-23.5	20.0	0.00e+00	0	44	102	1048576	4	4134
2026-01-26 03:53:34.02	277.62	29.53	-22.2	-23.3	20.0	0.00e+00	0	44	102	1048576	4	4087
2026-01-26 03:53:35.03	277.32	29.44	-22.2	-23.2	20.1	0.00e+00	0	44	102	1048576	4	4062
2026-01-26 03:53:36.03	277.03	29.34	-22.4	-23.6	19.9	0.00e+00	0	44	102	1048576	4	4155
2026-01-26 03:53:37.03	276.74	29.25	-22.3	-23.6	19.9	0.00e+00	0	44	102	1048576	4	4152
2026-01-26 03:53:38.03	276.45	29.15	-22.5	-23.5	19.7	0.00e+00	0	44	102	1048576	5	4024
2026-01-26 03:53:39.04	276.16	29.06	-22.4	-23.2	19.9	6.99e-04	0	44	102	1048576	5	3940
2026-01-26 03:53:40.04	275.88	28.96	-22.3	-23.1	19.9	0.00e+00	0	44	102	1048576	5	3916
2026-01-26 03:53:41.04	275.60	28.86	-22.3	-22.9	20.0	0.00e+00	0	44	102	1048576	5	3886
2026-01-26 03:53:42.05	275.31	28.76	-22.3	-23.0	20.0	0.00e+00	0	44	102	1048576	5	3911
2026-01-26 03:53:43.05	275.04	28.67	-22.1	-22.7	20.1	0.00e+00	0	44	102	1048576	5	3822
2026-01-26 03:53:44.05	274.76	28.57	-22.2	-22.8	20.1	0.00e+00	0	44	102	1048576	5	3846
2026-01-26 03:53:45.05	274.48	28.47	-22.3	-23.1	19.9	0.00e+00	0	44	102	1048576	5	3916
2026-01-26 03:53:46.05	274.21	28.37	-22.0	-22.4	20.2	1.10e-06	0	44	102	1048576	5	3774
2026-01-26 03:53:47.06	273.93	28.27	-22.2	-22.8	20.0	0.00e+00	0	44	102	1048576	5	3848
2026-01-26 03:53:48.06	273.66	28.17	-22.1	-23.1	20.1	0.00e+00	0	44	102	1048576	4	4037
2026-01-26 03:53:49.06	273.39	28.07	-22.2	-23.3	20.0	0.00e+00	0	44	102	1048576	4	4086
2026-01-26 03:53:50.06	273.13	27.97	-22.3	-23.4	20.0	0.00e+00	0	44	102	1048576	4	4115
2026-01-26 03:53:51.07	272.86	27.86	-22.2	-23.3	20.0	0.00e+00	0	44	102	1048576	4	4093
2026-01-26 03:53:52.07	272.60	27.76	-22.1	-23.1	20.1	4.50e-06	0	44	102	1048576	4	4048
2026-01-26 03:53:53.07	272.33	27.66	-22.3	-23.4	19.9	0.00e+00	0	44	102	1048576	4	4116
2026-01-26 03:53:54.08	272.07	27.56	-22.4	-23.7	19.8	1.94e-05	0	44	102	1048576	4	4194
2026-01-26 03:53:55.09	271.81	27.46	-22.5	-23.8	19.8	4.57e-05	0	44	102	1048576	4	4219
2026-01-26 03:53:56.10	271.55	27.35	-22.7	-23.8	19.5	0.00e+00	0	44	102	1048576	5	4087
2026-01-26 03:53:57.10	271.30	27.25	-22.8	-24.1	19.4	5.70e-06	0	44	102	1048576	5	4160
2026-01-26 03:53:58.11	271.04	27.15	-22.8	-24.0	19.4	0.00e+00	0	44	102	1048576	5	4151
2026-01-26 03:53:59.11	270.79	27.04	-22.8	-24.0	19.4	0.00e+00	0	44	102	1048576	5	4138
2026-01-26 03:54:00.12	270.54	26.94	-22.9	-24.2	19.3	0.00e+00	0	44	102	1048576	5	4192
2026-01-26 03:54:01.12	270.29	26.83	-22.7	-23.8	19.6	0.00e+00	0	44	102	1048576	5	4081
2026-01-26 03:54:02.12	270.04	26.73	-22.7	-23.8	19.5	0.00e+00	0	44	102	1048576	5	4083
2026-01-26 03:54:03.13	269.79	26.63	-22.8	-24.0	19.4	0.00e+00	0	44	102	1048576	5	4133
2026-01-26 03:54:04.13	269.55	26.52	-22.7	-23.8	19.5	0.00e+00	0	44	102	1048576	5	4098
2026-01-26 03:54:05.13	269.31	26.42	-22.8	-24.0	19.4	0.00e+00	0	44	102	1048576	5	4147
2026-01-26 03:54:06.13	269.07	26.31	-22.5	-23.4	19.7	2.35e-04	0	44	102	1048576	5	4001
2026-01-26 03:54:07.13	268.83	26.21	-22.4	-23.1	19.8	0.00e+00	0	44	102	1048576	5	3923
2026-01-26 03:54:08.13	268.59	26.10	-22.4	-23.2	19.8	0.00e+00	0	44	102	1048576	5	3946
2026-01-26 03:54:09.13	268.35	26.00	-22.6	-23.6	19.6	0.00e+00	0	44	102	1048576	5	4044
2026-01-26 03:54:10.14	268.12	25.89	-22.7	-23.8	19.5	1.88e-04	0	44	102	1048576	5	4102
2026-01-26 03:54:11.15	267.88	25.79	-22.9	-24.3	19.2	0.00e+00	0	44	102	1048576	5	4227
2026-01-26 03:54:12.15	267.65	25.68	-22.8	-24.1	19.4	1.65e-04	0	44	102	1048576	5	4176
2026-01-26 03:54:13.16	267.42	25.57	-22.8	-24.1	19.3	1.01e-04	0	44	102	1048576	5	4167
2026-01-26 03:54:14.16	267.19	25.47	-22.9	-24.3	19.2	0.00e+00	0	44	102	1048576	5	4215
2026-01-26 03:54:15.17	266.96	25.36	-22.8	-24.0	19.4	0.00e+00	0	44	102	1048576	5	4150
2026-01-26 03:54:16.17	266.74	25.26	-22.8	-24.1	19.3	0.00e+00	0	44	102	1048576	5	4170
2026-01-26 03:54:17.18	266.51	25.15	-22.9	-24.3	19.2	0.00e+00	0	44	102	1048576	5	4212
2026-01-26 03:54:18.19	266.29	25.04	-22.7	-23.8	19.5	0.00e+00	0	44	102	1048576	5	4094
2026-01-26 03:54:19.20	266.06	24.94	-22.7	-23.9	19.4	0.00e+00	0	44	102	1048576	5	4114
2026-01-26 03:54:20.20	265.85	24.83	-22.7	-23.9	19.4	0.00e+00	0	44	102	1048576	5	4117
2026-01-26 03:54:21.20	265.63	24.72	-22.7	-23.9	19.4	0.00e+00	0	44	102	1048576	5	4123
2026-01-26 03:54:22.21	265.41	24.62	-22.9	-24.3	19.2	0.00e+00	0	44	102	1048576	5	4216
2026-01-26 03:54:23.22	265.19	24.51	-23.0	-24.4	19.2	0.00e+00	0	44	102	1048576	5	4249
2026-01-26 03:54:24.22	264.98	24.41	-23.0	-24.0	19.1	0.00e+00	0	44	102	1048576	6	4035
2026-01-26 03:54:25.23	264.77	24.30	-22.8	-23.7	19.0	0.00e+00	0	44	102	1048576	6	3965
2026-01-26 03:54:26.23	264.56	24.19	-22.6	-23.5	17.3	0.00e+00	0	44	102	1048576	6	3981
2026-01-26 03:54:27.24	264.35	24.09	-22.8	-23.5	19.1	0.00e+00	0	44	102	1048576	6	3906
2026-01-26 03:54:28.24	264.14	23.98	-22.9	-23.7	18.6	0.00e+00	0	44	102	1048576	6	3959
2026-01-26 03:54:29.25	263.93	23.87	-22.9	-23.8	19.2	0.00e+00	0	44	102	1048576	6	3973
2026-01-26 03:54:30.25	263.73	23.77	-22.8	-23.5	19.3	0.00e+00	0	44	102	1048576	6	3918
2026-01-26 03:54:31.26	263.52	23.66	-22.7	-23.9	19.4	0.00e+00	0	44	102	1048576	5	4121
2026-01-26 03:54:32.26	263.32	23.55	-22.8	-24.1	19.3	0.00e+00	0	44	102	1048576	5	4163
2026-01-26 03:54:33.26	263.12	23.45	-23.0	-24.0	19.1	1.61e-04	0	44	102	1048576	6	4038
2026-01-26 03:54:34.27	262.92	23.34	-22.9	-23.7	19.2	0.00e+00	0	44	102	1048576	6	3955
2026-01-26 03:54:35.27	262.72	23.24	-23.0	-23.9	19.1	1.63e-03	0	44	102	1048576	6	4019
2026-01-26 03:54:36.28	262.52	23.13	-23.0	-24.0	19.1	0.00e+00	0	44	102	1048576	6	4031
2026-01-26 03:54:37.28	262.33	23.02	-23.0	-24.0	19.1	0.00e+00	0	44	102	1048576	6	4027
2026-01-26 03:54:38.28	262.13	22.92	-23.0	-24.0	19.1	1.50e-03	0	44	102	1048576	6	4042
2026-01-26 03:54:39.29	261.94	22.81	-23.0	-23.9	19.1	0.00e+00	0	44	102	1048576	6	4008
2026-01-26 03:54:40.29	261.75	22.71	-22.9	-23.8	19.2	1.47e-03	0	44	102	1048576	6	3981
2026-01-26 03:54:41.29	261.56	22.60	-22.8	-24.0	19.3	0.00e+00	0	44	102	1048576	5	4144
2026-01-26 03:54:42.29	261.37	22.50	-22.8	-24.0	19.3	3.40e-06	0	44	102	1048576	5	4150
2026-01-26 03:54:43.29	261.18	22.39	-22.9	-24.2	19.2	1.41e-03	0	44	102	1048576	5	4206
2026-01-26 03:54:44.30	261.00	22.29	-22.8	-24.1	19.2	0.00e+00	0	44	102	1048576	5	4177
2026-01-26 03:54:45.31	260.81	22.18	-22.9	-24.3	19.1	0.00e+00	0	44	102	1048576	5	4234
2026-01-26 03:54:46.31	260.63	22.08	-23.1	-24.2	18.9	0.00e+00	0	44	102	1048576	6	4091
2026-01-26 03:54:47.31	260.44	21.97	-23.2	-24.3	18.9	8.48e-04	0	44	102	1048576	6	4109
2026-01-26 03:54:48.32	260.26	21.87	-23.0	-24.0	19.0	0.00e+00	0	44	102	1048576	6	4035
2026-01-26 03:54:49.33	260.08	21.76	-23.0	-23.9	19.1	6.42e-04	0	44	102	1048576	6	4010
2026-01-26 03:54:50.34	259.90	21.66	-23.0	-24.0	19.1	5.98e-04	0	44	102	1048576	6	4034
2026-01-26 03:54:51.34	259.72	21.55	-23.1	-24.1	19.0	3.40e-06	0	44	102	1048576	6	4062
2026-01-26 03:54:52.34	259.55	21.45	-23.0	-24.1	19.0	6.61e-04	0	44	102	1048576	6	4052
2026-01-26 03:54:53.34	259.37	21.35	-23.1	-24.3	18.9	7.33e-04	0	44	102	1048576	6	4104
2026-01-26 03:54:54.34	259.20	21.24	-23.2	-24.3	18.9	1.10e-06	0	44	102	1048576	6	4117
2026-01-26 03:54:55.35	259.02	21.14	-23.1	-24.1	18.9	1.12e-03	0	44	102	1048576	6	4070
2026-01-26 03:54:56.35	258.85	21.03	-23.0	-24.0	19.0	1.05e-03	0	44	102	1048576	6	4041
2026-01-26 03:54:57.35	258.68	20.93	-23.2	-24.3	18.9	1.02e-05	0	44	102	1048576	6	4123
2026-01-26 03:54:58.36	258.51	20.83	-23.1	-24.2	18.9	1.13e-03	0	44	102	1048576	6	4077
2026-01-26 03:54:59.36	258.35	20.72	-23.0	-24.0	19.0	1.24e-03	0	44	102	1048576	6	4046
2026-01-26 03:55:00.36	258.18	20.62	-23.0	-24.0	19.0	9.10e-06	0	44	102	1048576	6	4031
2026-01-26 03:55:01.37	258.01	20.52	-23.0	-24.1	19.0	1.30e-03	0	44	102	1048576	6	4055
2026-01-26 03:55:02.37	257.85	20.42	-23.1	-24.1	18.9	2.16e-04	0	44	102	1048576	6	4068
2026-01-26 03:55:03.37	257.68	20.31	-23.0	-24.1	18.8	2.27e-04	0	44	102	1048576	6	4047
2026-01-26 03:55:04.37	257.52	20.21	-23.1	-24.2	18.9	1.38e-03	0	44	102	1048576	6	4097
2026-01-26 03:55:05.38	257.36	20.11	-23.2	-24.3	18.8	1.25e-03	0	44	102	1048576	6	4121
2026-01-26 03:55:06.38	257.20	20.01	-23.2	-24.3	18.8	2.68e-04	0	44	102	1048576	6	4119
2026-01-26 03:55:07.38	257.04	19.91	-23.2	-24.5	18.7	0.00e+00	0	44	102	1048576	6	4152
2026-01-26 03:55:08.39	256.88	19.80	-23.3	-24.7	18.6	1.36e-03	0	44	102	1048576	6	4213
2026-01-26 03:55:09.39	256.72	19.70	-23.3	-24.6	18.7	1.65e-04	0	44	102	1048576	6	4184
2026-01-26 03:55:10.40	256.57	19.60	-23.4	-24.8	18.6	1.33e-03	0	44	102	1048576	6	4226
2026-01-26 03:55:11.40	256.41	19.50	-23.4	-24.8	18.6	1.31e-03	0	44	102	1048576	6	4223
2026-01-26 03:55:12.41	256.26	19.40	-23.5	-24.5	18.5	2.59e-04	0	44	102	1048576	7	4035
2026-01-26 03:55:13.40	256.11	19.30	-23.5	-24.6	18.4	1.36e-03	0	44	102	1048576	7	4084
2026-01-26 03:55:14.41	255.95	19.20	-23.6	-24.7	18.3	2.84e-04	0	44	102	1048576	7	4102
2026-01-26 03:55:15.40	255.80	19.10	-23.5	-24.6	18.4	2.56e-04	0	44	102	1048576	7	4070
2026-01-26 03:55:16.41	255.65	19.00	-23.7	-25.0	18.2	0.00e+00	0	44	102	1048576	7	4170
2026-01-26 03:55:17.41	255.50	18.90	-23.8	-25.2	18.1	0.00e+00	0	44	102	1048576	7	4222
2026-01-26 03:55:18.42	255.35	18.80	-23.7	-24.9	18.2	1.68e-04	0	44	102	1048576	7	4155
2026-01-26 03:55:19.42	255.21	18.70	-23.6	-24.7	18.4	0.00e+00	0	44	102	1048576	7	4088
2026-01-26 03:55:20.42	255.06	18.60	-23.5	-24.6	18.4	2.63e-04	0	44	102	1048576	7	4068
2026-01-26 03:55:21.42	254.92	18.50	-23.6	-24.7	18.3	5.86e-04	0	44	102	1048576	7	4090
2026-01-26 03:55:22.43	254.77	18.40	-23.6	-24.7	18.3	1.28e-03	0	44	102	1048576	7	4093
2026-01-26 03:55:23.44	254.63	18.30	-23.7	-25.0	18.2	7.14e-04	0	44	102	1048576	7	4172
2026-01-26 03:55:24.44	254.48	18.21	-23.8	-25.2	18.0	7.32e-04	0	44	102	1048576	7	4220
2026-01-26 03:55:25.44	254.34	18.11	-23.8	-25.3	18.0	0.00e+00	0	44	102	1048576	7	4248
2026-01-26 03:55:26.45	254.20	18.01	-24.0	-25.6	17.9	7.92e-04	0	44	102	1048576	7	4323
2026-01-26 03:55:27.46	254.06	17.91	-24.1	-25.3	17.8	8.18e-04	0	44	102	1048576	8	4131
2026-01-26 03:55:28.46	253.92	17.81	-24.2	-25.6	17.6	0.00e+00	0	44	102	1048576	8	4216
2026-01-26 03:55:29.46	253.79	17.72	-24.2	-25.6	17.6	9.15e-04	0	44	102	1048576	8	4225
2026-01-26 03:55:30.47	253.65	17.62	-24.1	-25.2	17.8	9.20e-04	0	44	102	1048576	8	4121
2026-01-26 03:55:31.47	253.51	17.52	-24.0	-25.1	17.8	0.00e+00	0	44	102	1048576	8	4089
2026-01-26 03:55:32.46	253.38	17.43	-24.1	-25.3	17.8	9.35e-04	0	44	102	1048576	8	4131
2026-01-26 03:55:33.46	253.25	17.33	-24.2	-25.5	17.6	1.02e-03	0	44	102	1048576	8	4183
2026-01-26 03:55:34.47	253.11	17.23	-24.2	-25.4	17.6	0.00e+00	0	44	102	1048576	8	4171
2026-01-26 03:55:35.47	252.98	17.14	-24.3	-25.7	17.5	1.01e-03	0	44	102	1048576	8	4249
2026-01-26 03:55:36.48	252.85	17.04	-24.4	-25.9	17.4	0.00e+00	0	44	102	1048576	8	4300
2026-01-26 03:55:37.49	252.72	16.95	-24.4	-26.0	17.3	0.00e+00	0	44	102	1048576	8	4322
2026-01-26 03:55:38.49	252.59	16.85	-24.4	-25.9	17.4	0.00e+00	0	44	102	1048576	8	4293
2026-01-26 03:55:39.50	252.46	16.75	-24.6	-26.0	17.1	7.26e-04	0	44	102	1048576	9	4204
2026-01-26 03:55:40.50	252.33	16.66	-24.8	-26.3	16.9	0.00e+00	0	44	102	1048576	9	4273
2026-01-26 03:55:41.50	252.20	16.57	-24.7	-26.1	17.0	0.00e+00	0	44	102	1048576	9	4229
2026-01-26 03:55:42.51	252.07	16.47	-24.7	-26.1	17.0	2.33e-04	0	44	102	1048576	9	4234
2026-01-26 03:55:43.51	251.95	16.38	-24.6	-25.8	17.1	0.00e+00	0	44	102	1048576	9	4163
2026-01-26 03:55:44.51	251.82	16.28	-24.7	-26.0	17.0	1.32e-04	0	44	102	1048576	9	4208
2026-01-26 03:55:45.52	251.70	16.19	-24.6	-26.0	17.0	0.00e+00	0	44	102	1048576	9	4197
2026-01-26 03:55:46.51	251.58	16.10	-24.9	-26.6	16.7	0.00e+00	0	44	102	1048576	9	4356
2026-01-26 03:55:47.52	251.45	16.00	-24.9	-26.1	16.7	1.19e-04	0	44	102	1048576	10	4132
2026-01-26 03:55:48.52	251.33	15.91	-25.0	-26.2	16.6	0.00e+00	0	44	102	1048576	10	4155
2026-01-26 03:55:49.53	251.21	15.82	-25.0	-26.2	16.6	0.00e+00	0	44	102	1048576	10	4158
2026-01-26 03:55:50.53	251.09	15.72	-24.8	-26.3	16.8	0.00e+00	0	44	102	1048576	9	4281
2026-01-26 03:55:51.54	250.97	15.63	-24.6	-25.8	17.1	0.00e+00	0	44	102	1048576	9	4167
2026-01-26 03:55:52.55	250.85	15.54	-24.7	-26.0	17.0	0.00e+00	0	44	102	1048576	9	4216
2026-01-26 03:55:53.55	250.73	15.44	-24.6	-25.9	17.0	0.00e+00	0	44	102	1048576	9	4195
2026-01-26 03:55:54.56	250.61	15.35	-24.7	-26.1	16.9	0.00e+00	0	44	102	1048576	9	4224
2026-01-26 03:55:55.56	250.50	15.26	-24.7	-26.0	16.9	1.10e-06	0	44	102	1048576	9	4222
2026-01-26 03:55:56.56	250.38	15.17	-24.7	-26.1	16.9	0.00e+00	0	44	102	1048576	9	4235
2026-01-26 03:55:57.57	250.26	15.08	-24.7	-26.0	16.9	0.00e+00	0	44	102	1048576	9	4205
2026-01-26 03:55:58.57	250.15	14.99	-24.7	-26.2	16.8	0.00e+00	0	44	102	1048576	9	4250
2026-01-26 03:55:59.58	250.04	14.90	-24.8	-26.3	16.8	0.00e+00	0	44	102	1048576	9	4290
2026-01-26 03:56:00.59	249.92	14.81	-24.9	-26.5	16.6	0.00e+00	0	44	102	1048576	9	4328
2026-01-26 03:56:01.59	249.81	14.72	-24.9	-26.6	16.6	0.00e+00	0	44	102	1048576	9	4354
2026-01-26 03:56:02.60	249.70	14.62	-25.2	-26.6	16.3	0.00e+00	0	44	102	1048576	10	4263
2026-01-26 03:56:03.60	249.59	14.54	-25.2	-26.6	16.3	0.00e+00	0	44	102	1048576	10	4265
2026-01-26 03:56:04.60	249.48	14.45	-25.3	-26.9	16.2	0.00e+00	0	44	102	1048576	10	4323
2026-01-26 03:56:05.61	249.37	14.36	-25.4	-27.1	16.0	0.00e+00	0	44	102	1048576	10	4401
2026-01-26 03:56:06.61	249.26	14.27	-25.5	-26.8	15.9	0.00e+00	0	44	102	1048576	11	4208
2026-01-26 03:56:07.61	249.15	14.18	-25.4	-27.1	16.0	0.00e+00	0	44	102	1048576	10	4402
2026-01-26 03:56:08.62	249.04	14.09	-24.9	-26.5	15.6	0.00e+00	0	44	102	1048576	11	4349
2026-01-26 03:56:09.63	248.93	14.00	-25.1	-26.4	11.4	0.00e+00	0	44	102	1048576	11	4189
2026-01-26 03:56:10.63	248.83	13.91	-25.4	-27.1	11.9	0.00e+00	0	44	102	1048576	10	4386
2026-01-26 03:56:11.64	248.72	13.82	-25.4	-27.3	15.8	0.00e+00	0	44	102	1048576	10	4433
2026-01-26 03:56:12.64	248.62	13.74	-25.4	-27.2	15.7	0.00e+00	0	44	102	1048576	10	4419
2026-01-26 03:56:13.65	248.51	13.65	-25.6	-27.1	15.5	0.00e+00	0	44	102	1048576	11	4280
2026-01-26 03:56:14.65	248.41	13.56	-26.0	-27.9	15.2	4.19e-04	0	44	102	1048576	11	4511
2026-01-26 03:56:15.66	248.30	13.47	-25.8	-27.6	15.4	0.00e+00	0	44	102	1048576	11	4424
2026-01-26 03:56:16.66	248.20	13.39	-25.6	-27.2	15.6	0.00e+00	0	44	102	1048576	11	4306
2026-01-26 03:56:17.66	248.10	13.30	-25.2	-26.7	16.1	2.20e-06	0	44	102	1048576	10	4299
2026-01-26 03:56:18.67	248.00	13.21	-25.3	-26.9	16.0	0.00e+00	0	44	102	1048576	10	4342
2026-01-26 03:56:19.68	247.90	13.13	-25.3	-27.0	16.0	0.00e+00	0	44	102	1048576	10	4359
2026-01-26 03:56:20.68	247.80	13.04	-25.4	-27.1	15.9	0.00e+00	0	44	102	1048576	10	4405
2026-01-26 03:56:21.69	247.70	12.95	-25.5	-27.3	15.8	1.96e-03	0	44	102	1048576	10	4461
2026-01-26 03:56:22.69	247.60	12.87	-25.3	-26.9	16.0	0.00e+00	0	44	102	1048576	10	4339
2026-01-26 03:56:23.70	247.50	12.78	-25.2	-26.7	16.2	4.63e-04	0	44	102	1048576	10	4281
2026-01-26 03:56:24.71	247.40	12.70	-25.3	-26.9	16.1	0.00e+00	0	44	102	1048576	10	4348
2026-01-26 03:56:25.71	247.31	12.61	-25.3	-26.9	16.1	1.81e-03	0	44	102	1048576	10	4336
2026-01-26 03:56:26.71	247.21	12.53	-25.2	-26.8	16.1	2.18e-04	0	44	102	1048576	10	4320
2026-01-26 03:56:27.72	247.11	12.44	-25.3	-27.0	16.0	0.00e+00	0	44	102	1048576	10	4377
2026-01-26 03:56:28.72	247.02	12.36	-25.2	-26.7	16.2	2.04e-03	0	44	102	1048576	10	4281
2026-01-26 03:56:29.73	246.92	12.27	-25.3	-27.0	15.9	4.50e-06	0	44	102	1048576	10	4380
2026-01-26 03:56:30.73	246.83	12.19	-25.2	-26.7	16.1	1.97e-03	0	44	102	1048576	10	4279
2026-01-26 03:56:31.73	246.73	12.11	-25.4	-27.2	15.8	0.00e+00	0	44	102	1048576	10	4427
2026-01-26 03:56:32.73	246.64	12.02	-25.3	-26.9	16.0	3.50e-04	0	44	102	1048576	10	4332
2026-01-26 03:56:33.74	246.55	11.94	-25.5	-26.9	15.7	1.99e-03	0	44	102	1048576	11	4230
2026-01-26 03:56:34.73	246.46	11.86	-25.8	-27.5	15.4	2.39e-03	0	44	102	1048576	11	4394
2026-01-26 03:56:35.73	246.37	11.77	-25.6	-27.2	15.6	7.95e-04	0	44	102	1048576	11	4299
2026-01-26 03:56:36.74	246.27	11.69	-25.4	-27.1	15.9	0.00e+00	0	44	102	1048576	10	4400
2026-01-26 03:56:37.75	246.18	11.61	-25.5	-27.4	15.7	1.99e-03	0	44	102	1048576	10	4468
2026-01-26 03:56:38.75	246.09	11.53	-25.4	-27.3	15.8	7.45e-04	0	44	102	1048576	10	4440
2026-01-26 03:56:39.76	246.00	11.44	-25.6	-27.2	15.5	1.93e-03	0	44	102	1048576	11	4315
2026-01-26 03:56:40.77	245.91	11.36	-25.7	-27.5	15.4	1.80e-03	0	44	102	1048576	11	4386
2026-01-26 03:56:41.78	245.82	11.28	-25.8	-27.7	15.3	6.51e-04	0	44	102	1048576	11	4440
2026-01-26 03:56:42.78	245.74	11.20	-26.0	-27.5	15.0	1.54e-03	0	44	102	1048576	12	4277
2026-01-26 03:56:43.78	245.65	11.12	-26.0	-27.5	15.0	3.07e-04	0	44	102	1048576	12	4280
2026-01-26 03:56:44.78	245.56	11.04	-26.0	-27.6	14.9	6.77e-04	0	44	102	1048576	12	4328
2026-01-26 03:56:45.79	245.48	10.95	-26.0	-27.5	14.9	0.00e+00	0	44	102	1048576	12	4301
2026-01-26 03:56:46.79	245.39	10.87	-26.0	-27.6	14.9	1.74e-03	0	44	102	1048576	12	4317
2026-01-26 03:56:47.79	245.30	10.79	-25.9	-27.3	15.1	7.08e-04	0	44	102	1048576	12	4240
2026-01-26 03:56:48.79	245.22	10.71	-26.0	-28.0	15.0	1.71e-03	0	44	102	1048576	11	4524
2026-01-26 03:56:49.80	245.13	10.63	-25.9	-27.3	15.0	1.75e-03	0	44	102	1048576	12	4227
2026-01-26 03:56:50.80	245.05	10.55	-26.1	-27.8	14.7	2.13e-04	0	44	102	1048576	12	4382
2026-01-26 03:56:51.81	244.97	10.47	-26.1	-27.7	14.8	2.16e-03	0	44	102	1048576	12	4332
2026-01-26 03:56:52.81	244.88	10.39	-25.9	-27.9	15.0	2.21e-04	0	44	102	1048576	11	4514
2026-01-26 03:56:53.81	244.80	10.32	-26.1	-27.7	14.8	9.03e-04	0	44	102	1048576	12	4341
2026-01-26 03:56:54.81	244.72	10.24	-26.1	-27.9	14.7	1.97e-03	0	44	102	1048576	12	4399
2026-01-26 03:56:55.82	244.64	10.16	-25.9	-27.4	15.0	1.94e-04	0	44	102	1048576	12	4258
2026-01-26 03:56:56.82	244.56	10.08	-26.0	-27.6	14.8	0.00e+00	0	44	102	1048576	12	4321
2026-01-26 03:56:57.83	244.47	10.00	-26.0	-27.6	14.8	0.00e+00	0	44	102	1048576	12	4318
2026-01-26 03:56:58.83	244.39	9.92	-25.9	-27.4	14.9	2.28e-03	0	44	102	1048576	12	4264
2026-01-26 03:56:59.83	244.31	9.84	-26.1	-27.7	14.7	1.18e-04	0	44	102	1048576	12	4350
2026-01-26 03:57:00.84	244.23	9.77	-26.2	-27.9	14.6	1.79e-03	0	44	102	1048576	12	4407
2026-01-26 03:57:01.84	244.16	9.69	-25.7	-27.4	15.2	7.43e-05	0	44	102	1048576	11	4379
2026-01-26 03:57:02.85	244.08	9.61	-25.8	-27.2	15.0	1.64e-04	0	44	102	1048576	12	4219
2026-01-26 03:57:03.85	244.00	9.53	-25.9	-27.8	15.0	0.00e+00	0	44	102	1048576	11	4489
2026-01-26 03:57:04.86	243.92	9.46	-25.8	-27.7	15.1	1.34e-04	0	44	102	1048576	11	4466
2026-01-26 03:57:05.86	243.84	9.38	-26.0	-28.0	14.8	4.58e-04	0	44	102	1048576	11	4556
2026-01-26 03:57:06.87	243.76	9.30	-25.8	-27.0	15.0	0.00e+00	0	44	102	1048576	12	4171
2026-01-26 03:57:07.88	243.69	9.22	-25.8	-27.6	15.1	1.26e-04	0	44	102	1048576	11	4445
2026-01-26 03:57:08.88	243.61	9.15	-25.8	-27.2	15.0	0.00e+00	0	44	102	1048576	12	4220
2026-01-26 03:57:09.88	243.54	9.07	-26.0	-27.5	14.8	0.00e+00	0	44	102	1048576	12	4305
2026-01-26 03:57:10.89	243.46	9.00	-25.8	-27.1	15.0	0.00e+00	0	44	102	1048576	12	4201
2026-01-26 03:57:11.89	243.39	8.92	-25.9	-27.4	14.8	1.41e-04	0	44	102	1048576	12	4273
2026-01-26 03:57:12.89	243.31	8.85	-25.9	-27.4	14.8	0.00e+00	0	44	102	1048576	12	4277
2026-01-26 03:57:13.89	243.24	8.77	-26.0	-27.7	14.6	0.00e+00	0	44	102	1048576	12	4351
2026-01-26 03:57:14.90	243.16	8.69	-25.9	-27.3	14.8	1.77e-04	0	44	102	1048576	12	4243
2026-01-26 03:57:15.90	243.09	8.62	-26.0	-27.5	14.7	0.00e+00	0	44	102	1048576	12	4316
2026-01-26 03:57:16.90	243.02	8.54	-26.0	-27.6	14.6	1.80e-04	0	44	102	1048576	12	4339
2026-01-26 03:57:17.90	242.95	8.47	-26.2	-28.1	14.4	0.00e+00	0	44	102	1048576	12	4472
2026-01-26 03:57:18.90	242.87	8.40	-25.9	-27.4	14.8	0.00e+00	0	44	102	1048576	12	4277
2026-01-26 03:57:19.90	242.80	8.32	-26.0	-27.7	14.6	0.00e+00	0	44	102	1048576	12	4354
2026-01-26 03:57:20.91	242.73	8.25	-26.1	-27.9	14.4	0.00e+00	0	44	102	1048576	12	4416
2026-01-26 03:57:21.90	242.66	8.17	-26.0	-27.7	14.6	0.00e+00	0	44	102	1048576	12	4363
2026-01-26 03:57:22.90	242.59	8.10	-26.2	-28.1	14.3	0.00e+00	0	44	102	1048576	12	4469
2026-01-26 03:57:23.90	242.52	8.03	-26.3	-28.3	14.2	0.00e+00	0	44	102	1048576	12	4543
2026-01-26 03:57:24.91	242.45	7.95	-26.0	-27.7	14.5	0.00e+00	0	44	102	1048576	12	4377
2026-01-26 03:57:25.91	242.38	7.88	-26.2	-28.1	14.2	2.20e-06	0	44	102	1048576	12	4486
2026-01-26 03:57:26.92	242.31	7.81	-26.2	-27.6	14.3	1.10e-06	0	44	102	1048576	13	4226
2026-01-26 03:57:27.92	242.24	7.73	-26.3	-28.2	14.1	1.10e-06	0	44	102	1048576	12	4530
2026-01-26 03:57:28.92	242.17	7.66	-26.2	-28.1	14.2	2.20e-06	0	44	102	1048576	12	4481
2026-01-26 03:57:29.92	242.10	7.59	-26.3	-28.4	14.1	2.20e-06	0	44	102	1048576	12	4569
2026-01-26 03:57:30.93	242.04	7.52	-26.3	-28.4	14.0	0.00e+00	0	44	102	1048576	12	4579
2026-01-26 03:57:31.93	241.97	7.44	-26.3	-28.3	14.1	0.00e+00	0	44	102	1048576	12	4541
2026-01-26 03:57:32.94	241.90	7.37	-26.2	-28.2	14.2	0.00e+00	0	44	102	1048576	12	4502
2026-01-26 03:57:33.94	241.84	7.30	-26.3	-27.9	14.1	2.20e-06	0	44	102	1048576	13	4310
2026-01-26 03:57:34.94	241.77	7.23	-26.5	-28.3	13.8	5.70e-06	0	44	102	1048576	13	4434
2026-01-26 03:57:35.94	241.70	7.16	-26.8	-28.9	13.4	5.70e-06	0	44	102	1048576	13	4613
2026-01-26 03:57:36.94	241.64	7.08	-26.6	-28.5	13.7	2.20e-06	0	44	102	1048576	13	4492
2026-01-26 03:57:37.95	241.57	7.01	-32.4	-43.5	3.8	8.46e-01	0	44	104	1048576	24	12936

#Closed at: 2026-01-26 03:57:38
#Recorded file [1 MB]: D:/data/31010_260126_064642.dat