passes_logs/2026/01/26/R2M6_AANII_01/R2M6_AANII_01__20260126_071008_FENGYUN_3E_rec.log

#Pass ID: 20260126_071008_FENGYUN 3E
#Satellite: FENGYUN 3E
#Configuration: FENGYUN 3E
#almurnet v.1.7.20240730
#Start time: 2026-01-26 07:10:08

#Version: 2.2.20231116
#Station: R2M6_AANII_01
#Location: 30.233357 lon 59.946436 lat
#TLE: 1 49008U 21062A   26025.85775150 -.00000016  00000+0  13398-4 0  9990
#TLE: 2 49008  98.7498  30.8591 0002468 117.3618 242.7810 14.19886460236384

#Time	Az	El	Level	Level2	SNR	BER	BlckErr	Temp	State	Recorded	gain1	gain2
2026-01-26 07:10:08.35	8.40	7.00	-31.1	-36.5	4.2	8.33e-01	0	41	0	0	22	6679
2026-01-26 07:10:09.34	8.29	7.06	-30.8	-35.2	4.4	8.24e-01	0	41	104	0	22	5968
2026-01-26 07:10:10.35	8.17	7.11	-30.9	-35.8	5.4	7.03e-01	0	41	0	0	21	6349
2026-01-26 07:10:11.36	8.05	7.17	-30.8	-35.3	5.6	5.69e-01	0	41	102	1048576	21	6067
2026-01-26 07:10:12.36	7.94	7.22	-30.8	-35.5	5.5	6.97e-01	0	41	102	1048576	21	6193
2026-01-26 07:10:13.36	7.82	7.28	-30.8	-35.4	5.6	6.69e-01	0	41	102	1048576	21	6120
2026-01-26 07:10:14.37	7.71	7.33	-31.0	-36.1	5.3	7.21e-01	0	41	102	1048576	21	6482
2026-01-26 07:10:15.37	7.59	7.39	-31.1	-36.5	5.1	7.58e-01	0	41	102	1048576	21	6739
2026-01-26 07:10:16.37	7.47	7.44	-31.1	-36.1	5.1	7.76e-01	0	41	102	1048576	22	6389
2026-01-26 07:10:17.38	7.35	7.50	-30.9	-35.4	5.4	7.32e-01	0	41	102	1048576	22	5979
2026-01-26 07:10:18.38	7.23	7.55	-30.7	-34.3	5.9	3.66e-01	0	41	102	1048576	22	5478
2026-01-26 07:10:19.39	7.11	7.61	-30.3	-33.5	6.7	2.09e-01	0	41	102	1048576	21	5222
2026-01-26 07:10:20.39	6.99	7.66	-29.7	-32.1	8.0	8.55e-02	0	41	102	1048576	20	4732
2026-01-26 07:10:21.39	6.87	7.71	-29.3	-31.3	8.9	3.09e-02	0	42	102	1048576	19	4563
2026-01-26 07:10:22.40	6.75	7.77	-28.8	-30.5	9.9	1.01e-02	0	41	102	1048576	18	4373
2026-01-26 07:10:23.40	6.63	7.82	-28.3	-29.7	10.7	5.43e-03	0	41	102	1048576	17	4243
2026-01-26 07:10:24.41	6.51	7.88	-27.6	-28.5	11.8	4.60e-04	0	41	102	1048576	16	3995
2026-01-26 07:10:25.41	6.39	7.93	-27.8	-29.1	11.4	1.09e-03	0	42	102	1048576	16	4164
2026-01-26 07:10:26.42	6.27	7.99	-27.7	-29.4	11.3	1.30e-03	0	42	102	1048576	15	4370
2026-01-26 07:10:27.43	6.14	8.04	-27.6	-29.2	11.5	6.58e-04	0	42	102	1048576	15	4295
2026-01-26 07:10:28.43	6.02	8.10	-27.6	-29.1	11.5	1.52e-03	0	42	102	1048576	15	4265
2026-01-26 07:10:29.44	5.89	8.15	-27.6	-29.0	11.6	1.18e-03	0	41	102	1048576	15	4251
2026-01-26 07:10:30.44	5.77	8.21	-27.6	-29.1	11.5	6.90e-04	0	42	102	1048576	15	4275
2026-01-26 07:10:31.45	5.64	8.26	-27.6	-29.0	11.6	1.28e-03	0	42	102	1048576	15	4251
2026-01-26 07:10:32.45	5.52	8.32	-27.5	-28.8	11.7	5.84e-04	0	42	102	1048576	15	4195
2026-01-26 07:10:33.46	5.39	8.37	-27.6	-29.1	11.6	1.05e-03	0	42	102	1048576	15	4276
2026-01-26 07:10:34.46	5.27	8.43	-28.3	-30.3	10.7	2.79e-03	0	42	102	1048576	16	4504
2026-01-26 07:10:35.46	5.14	8.48	-28.2	-29.9	10.9	3.88e-03	0	42	102	1048576	16	4388
2026-01-26 07:10:36.46	5.01	8.53	-27.6	-28.6	11.8	5.27e-04	0	42	102	1048576	16	4011
2026-01-26 07:10:37.47	4.88	8.59	-26.7	-27.5	12.9	1.30e-04	0	42	102	1048576	14	3932
2026-01-26 07:10:38.47	4.76	8.64	-26.8	-27.6	12.8	5.83e-05	0	42	102	1048576	14	3958
2026-01-26 07:10:39.48	4.63	8.70	-26.4	-27.2	13.3	1.60e-05	0	42	102	1048576	13	3950
2026-01-26 07:10:40.48	4.50	8.75	-26.4	-27.3	13.3	1.94e-05	0	42	102	1048576	13	3976
2026-01-26 07:10:41.48	4.37	8.81	-25.9	-26.2	13.9	2.20e-06	0	42	102	1048576	13	3709
2026-01-26 07:10:42.49	4.24	8.86	-26.3	-27.1	13.4	2.05e-05	0	42	102	1048576	13	3929
2026-01-26 07:10:43.50	4.11	8.92	-26.3	-27.0	13.5	8.00e-06	0	42	102	1048576	13	3898
2026-01-26 07:10:44.51	3.97	8.97	-26.1	-27.1	13.7	6.80e-06	0	42	102	1048576	12	4017
2026-01-26 07:10:45.51	3.84	9.03	-26.2	-27.2	13.7	5.70e-06	0	42	102	1048576	12	4063
2026-01-26 07:10:46.52	3.71	9.08	-26.0	-26.9	13.9	8.00e-06	0	42	102	1048576	12	3967
2026-01-26 07:10:47.53	3.58	9.13	-26.2	-27.2	13.7	1.37e-05	0	42	102	1048576	12	4053
2026-01-26 07:10:48.53	3.44	9.19	-26.0	-26.8	13.9	2.20e-06	0	42	102	1048576	12	3949
2026-01-26 07:10:49.54	3.31	9.24	-26.0	-26.8	13.9	1.10e-06	0	42	102	1048576	12	3943
2026-01-26 07:10:50.54	3.17	9.30	-25.9	-26.7	14.0	3.40e-06	0	42	102	1048576	12	3919
2026-01-26 07:10:51.54	3.04	9.35	-26.0	-26.9	13.8	5.70e-06	0	42	102	1048576	12	3969
2026-01-26 07:10:52.53	2.91	9.40	-26.1	-27.0	13.8	8.00e-06	0	42	102	1048576	12	3987
2026-01-26 07:10:53.54	2.77	9.46	-26.1	-27.1	13.7	8.00e-06	0	42	102	1048576	12	4029
2026-01-26 07:10:54.54	2.63	9.51	-26.1	-27.1	13.8	9.10e-06	0	42	102	1048576	12	4037
2026-01-26 07:10:55.55	2.50	9.57	-26.1	-27.1	13.7	6.80e-06	0	42	102	1048576	12	4039
2026-01-26 07:10:56.56	2.36	9.62	-26.1	-27.0	13.8	8.00e-06	0	42	102	1048576	12	4007
2026-01-26 07:10:57.57	2.22	9.68	-26.2	-27.4	13.6	5.70e-06	0	42	102	1048576	12	4101
2026-01-26 07:10:58.58	2.08	9.73	-26.3	-27.4	13.6	1.02e-05	0	42	102	1048576	12	4105
2026-01-26 07:10:59.58	1.94	9.78	-26.6	-27.8	13.1	2.86e-05	0	43	102	1048576	13	4096
2026-01-26 07:11:00.58	1.80	9.84	-26.1	-26.5	13.8	5.70e-06	0	42	102	1048576	13	3780
2026-01-26 07:11:01.59	1.66	9.89	-26.4	-27.2	13.5	1.71e-05	0	43	102	1048576	13	3936
2026-01-26 07:11:02.60	1.52	9.94	-26.3	-27.5	13.6	6.80e-06	0	42	102	1048576	12	4132
2026-01-26 07:11:03.60	1.38	10.00	-26.1	-27.1	13.8	5.70e-06	0	43	102	1048576	12	4031
2026-01-26 07:11:04.61	1.24	10.05	-26.3	-27.5	13.6	4.50e-06	0	43	102	1048576	12	4121
2026-01-26 07:11:05.61	1.09	10.11	-26.0	-26.9	14.0	6.80e-06	0	42	102	1048576	12	3962
2026-01-26 07:11:06.60	0.95	10.16	-26.0	-26.8	14.0	3.40e-06	0	42	102	1048576	12	3962
2026-01-26 07:11:07.61	0.81	10.21	-26.0	-26.8	14.0	4.50e-06	0	43	102	1048576	12	3942
2026-01-26 07:11:08.60	0.67	10.26	-26.0	-26.8	14.0	4.50e-06	0	43	102	1048576	12	3956
2026-01-26 07:11:09.61	0.52	10.32	-25.9	-26.6	14.1	4.50e-06	0	43	102	1048576	12	3887
2026-01-26 07:11:10.61	0.38	10.37	-26.0	-26.8	14.0	1.10e-06	0	43	102	1048576	12	3936
2026-01-26 07:11:11.61	0.23	10.42	-26.0	-26.8	14.0	4.50e-06	0	43	102	1048576	12	3954
2026-01-26 07:11:12.62	0.09	10.48	-25.9	-26.6	14.1	5.70e-06	0	43	102	1048576	12	3901
2026-01-26 07:11:13.62	359.94	10.53	-26.0	-27.2	14.2	5.70e-06	0	43	102	1048576	11	4142
2026-01-26 07:11:14.63	359.79	10.58	-26.2	-27.3	13.7	6.80e-06	0	43	102	1048576	12	4075
2026-01-26 07:11:15.64	359.64	10.64	-26.2	-27.1	13.8	6.80e-06	0	43	102	1048576	12	4026
2026-01-26 07:11:16.65	359.49	10.69	-25.8	-26.4	14.3	2.20e-06	0	43	102	1048576	12	3842
2026-01-26 07:11:17.65	359.35	10.74	-25.9	-27.1	14.2	0.00e+00	0	43	102	1048576	11	4125
2026-01-26 07:11:18.66	359.19	10.79	-26.0	-27.2	14.2	1.10e-06	0	43	102	1048576	11	4139
2026-01-26 07:11:19.65	359.05	10.85	-26.0	-26.9	14.0	2.20e-06	0	43	102	1048576	12	3955
2026-01-26 07:11:20.66	358.90	10.90	-26.1	-26.9	14.0	2.20e-06	0	43	102	1048576	12	3973
2026-01-26 07:11:21.66	358.75	10.95	-26.3	-27.4	13.7	5.70e-06	0	43	102	1048576	12	4103
2026-01-26 07:11:22.66	358.59	11.00	-26.3	-27.5	13.7	1.25e-05	0	43	102	1048576	12	4118
2026-01-26 07:11:23.67	358.44	11.06	-26.2	-27.2	13.9	9.10e-06	0	43	102	1048576	12	4036
2026-01-26 07:11:24.67	358.29	11.11	-25.9	-26.6	14.2	0.00e+00	0	43	102	1048576	12	3883
2026-01-26 07:11:25.68	358.14	11.16	-26.0	-26.7	14.1	0.00e+00	0	43	102	1048576	12	3922
2026-01-26 07:11:26.68	357.98	11.21	-26.1	-26.9	14.0	5.70e-06	0	43	102	1048576	12	3964
2026-01-26 07:11:27.68	357.83	11.26	-26.2	-27.3	13.8	2.20e-06	0	43	102	1048576	12	4069
2026-01-26 07:11:28.68	357.67	11.32	-26.1	-27.1	13.9	1.10e-06	0	43	102	1048576	12	4021
2026-01-26 07:11:29.69	357.52	11.37	-26.0	-26.7	14.1	2.20e-06	0	43	102	1048576	12	3925
2026-01-26 07:11:30.70	357.36	11.42	-26.0	-26.7	14.1	1.10e-06	0	42	102	1048576	12	3928
2026-01-26 07:11:31.69	357.21	11.47	-26.1	-27.0	13.9	4.50e-06	0	43	102	1048576	12	3991
2026-01-26 07:11:32.70	357.05	11.52	-25.9	-26.6	14.2	3.40e-06	0	43	102	1048576	12	3883
2026-01-26 07:11:33.71	356.89	11.57	-25.7	-26.0	14.5	0.00e+00	0	43	102	1048576	12	3755
2026-01-26 07:11:34.72	356.73	11.63	-25.9	-27.1	14.3	2.20e-06	0	43	102	1048576	11	4123
2026-01-26 07:11:35.72	356.57	11.68	-25.7	-26.6	14.5	1.10e-06	0	43	102	1048576	11	3988
2026-01-26 07:11:36.73	356.41	11.73	-25.8	-26.7	14.0	0.00e+00	0	43	102	1048576	11	4020
2026-01-26 07:11:37.73	356.25	11.78	-26.1	-27.1	13.9	3.40e-06	0	43	102	1048576	12	4010
2026-01-26 07:11:38.73	356.09	11.83	-26.0	-26.8	14.1	3.40e-06	0	43	102	1048576	12	3945
2026-01-26 07:11:39.74	355.93	11.88	-25.9	-27.1	14.3	0.00e+00	0	43	102	1048576	11	4115
2026-01-26 07:11:40.74	355.77	11.93	-25.9	-27.1	14.3	4.90e-04	0	43	102	1048576	11	4115
2026-01-26 07:11:41.74	355.61	11.98	-26.0	-27.1	14.2	0.00e+00	0	43	102	1048576	11	4130
2026-01-26 07:11:42.75	355.44	12.03	-25.9	-27.0	14.3	5.46e-04	0	43	102	1048576	11	4096
2026-01-26 07:11:43.75	355.28	12.08	-25.9	-27.0	14.3	0.00e+00	0	43	102	1048576	11	4101
2026-01-26 07:11:44.76	355.12	12.13	-25.9	-27.1	14.3	1.10e-06	0	43	102	1048576	11	4114
2026-01-26 07:11:45.76	354.95	12.18	-25.9	-27.1	14.3	4.04e-04	0	43	102	1048576	11	4116
2026-01-26 07:11:46.76	354.79	12.23	-25.8	-26.8	14.5	1.10e-06	0	43	102	1048576	11	4043
2026-01-26 07:11:47.77	354.62	12.28	-25.8	-26.7	14.5	0.00e+00	0	43	102	1048576	11	4019
2026-01-26 07:11:48.77	354.46	12.33	-25.8	-26.7	14.5	3.20e-04	0	43	102	1048576	11	4023
2026-01-26 07:11:49.77	354.29	12.38	-25.6	-26.4	14.7	0.00e+00	0	43	102	1048576	11	3947
2026-01-26 07:11:50.78	354.12	12.43	-25.7	-26.6	14.6	1.10e-06	0	43	102	1048576	11	3982
2026-01-26 07:11:51.79	353.95	12.48	-25.5	-26.3	14.8	3.15e-04	0	43	102	1048576	11	3904
2026-01-26 07:11:52.79	353.79	12.53	-25.6	-26.4	14.7	2.71e-04	0	43	102	1048576	11	3935
2026-01-26 07:11:53.80	353.62	12.57	-25.6	-26.4	14.7	0.00e+00	0	43	102	1048576	11	3942
2026-01-26 07:11:54.81	353.44	12.62	-25.6	-26.8	14.8	3.27e-04	0	43	102	1048576	10	4147
2026-01-26 07:11:55.82	353.27	12.67	-25.4	-26.3	15.0	3.60e-04	0	43	102	1048576	10	4020
2026-01-26 07:11:56.82	353.10	12.72	-25.3	-26.1	15.2	0.00e+00	0	43	102	1048576	10	3964
2026-01-26 07:11:57.82	352.93	12.77	-25.5	-26.7	14.8	3.87e-04	0	43	102	1048576	10	4113
2026-01-26 07:11:58.83	352.76	12.82	-25.4	-26.4	15.0	3.12e-04	0	43	102	1048576	10	4050
2026-01-26 07:11:59.84	352.59	12.86	-25.4	-26.4	15.0	0.00e+00	0	43	102	1048576	10	4044
2026-01-26 07:12:00.84	352.41	12.91	-25.3	-26.3	15.1	2.92e-04	0	43	102	1048576	10	4007
2026-01-26 07:12:01.84	352.24	12.96	-25.3	-26.3	15.1	1.10e-06	0	43	102	1048576	10	4007
2026-01-26 07:12:02.85	352.07	13.01	-25.6	-26.8	14.8	0.00e+00	0	43	102	1048576	10	4150
2026-01-26 07:12:03.85	351.89	13.05	-25.4	-26.4	15.0	0.00e+00	0	43	102	1048576	10	4053
2026-01-26 07:12:04.85	351.72	13.10	-25.3	-26.2	15.2	4.06e-04	0	43	102	1048576	10	3988
2026-01-26 07:12:05.86	351.54	13.15	-25.3	-26.2	15.2	0.00e+00	0	43	102	1048576	10	3982
2026-01-26 07:12:06.86	351.36	13.19	-25.4	-26.3	15.1	0.00e+00	0	43	102	1048576	10	4019
2026-01-26 07:12:07.87	351.19	13.24	-25.3	-26.3	15.1	3.78e-04	0	43	102	1048576	10	4007
2026-01-26 07:12:08.87	351.01	13.29	-25.3	-26.1	15.2	0.00e+00	0	43	102	1048576	10	3974
2026-01-26 07:12:09.88	350.83	13.33	-25.4	-26.4	15.0	0.00e+00	0	43	102	1048576	10	4044
2026-01-26 07:12:10.87	350.65	13.38	-25.2	-26.1	15.2	3.89e-04	0	43	102	1048576	10	3956
2026-01-26 07:12:11.88	350.47	13.42	-25.3	-26.2	15.2	0.00e+00	0	43	102	1048576	10	3988
2026-01-26 07:12:12.88	350.29	13.47	-25.2	-26.1	15.3	3.71e-04	0	43	102	1048576	10	3957
2026-01-26 07:12:13.89	350.11	13.52	-25.3	-26.3	15.1	0.00e+00	0	43	102	1048576	10	4006
2026-01-26 07:12:14.89	349.93	13.56	-25.3	-26.1	15.2	0.00e+00	0	43	102	1048576	10	3976
2026-01-26 07:12:15.89	349.75	13.61	-25.3	-26.2	15.2	0.00e+00	0	43	102	1048576	10	3981
2026-01-26 07:12:16.90	349.57	13.65	-25.3	-26.1	15.2	1.10e-06	0	43	102	1048576	10	3960
2026-01-26 07:12:17.89	349.39	13.69	-25.2	-26.0	15.3	0.00e+00	0	43	102	1048576	10	3941
2026-01-26 07:12:18.90	349.20	13.74	-25.3	-26.2	15.1	0.00e+00	0	43	102	1048576	10	3991
2026-01-26 07:12:19.91	349.02	13.78	-25.5	-26.6	14.9	0.00e+00	0	43	102	1048576	10	4095
2026-01-26 07:12:20.92	348.83	13.83	-25.2	-26.0	15.3	0.00e+00	0	43	102	1048576	10	3932
2026-01-26 07:12:21.92	348.65	13.87	-25.1	-26.2	15.4	0.00e+00	0	43	102	1048576	9	4087
2026-01-26 07:12:22.92	348.46	13.91	-25.2	-25.9	15.3	0.00e+00	0	43	102	1048576	10	3916
2026-01-26 07:12:23.93	348.28	13.96	-25.0	-25.5	15.6	0.00e+00	0	43	102	1048576	10	3826
2026-01-26 07:12:24.93	348.09	14.00	-25.2	-26.0	15.3	0.00e+00	0	43	102	1048576	10	3932
2026-01-26 07:12:25.94	347.90	14.04	-25.1	-25.7	15.5	0.00e+00	0	43	102	1048576	10	3877
2026-01-26 07:12:26.94	347.72	14.09	-25.2	-26.0	15.3	0.00e+00	0	43	102	1048576	10	3954
2026-01-26 07:12:27.95	347.53	14.13	-25.2	-26.0	15.3	0.00e+00	0	43	102	1048576	10	3940
2026-01-26 07:12:28.95	347.34	14.17	-25.4	-26.5	15.0	0.00e+00	0	43	102	1048576	10	4064
2026-01-26 07:12:29.96	347.15	14.21	-25.3	-26.1	15.3	0.00e+00	0	43	102	1048576	10	3973
2026-01-26 07:12:30.96	346.96	14.25	-25.5	-26.7	14.9	0.00e+00	0	43	102	1048576	10	4129
2026-01-26 07:12:31.96	346.77	14.29	-25.4	-26.4	15.1	1.10e-06	0	43	102	1048576	10	4048
2026-01-26 07:12:32.96	346.58	14.34	-25.2	-25.9	15.4	0.00e+00	0	43	102	1048576	10	3913
2026-01-26 07:12:33.97	346.39	14.38	-25.0	-25.6	15.5	0.00e+00	0	43	102	1048576	10	3849
2026-01-26 07:12:34.96	346.20	14.42	-25.1	-25.7	15.5	0.00e+00	0	43	102	1048576	10	3867
2026-01-26 07:12:35.96	346.00	14.46	-25.2	-25.9	15.4	1.10e-06	0	43	102	1048576	10	3922
2026-01-26 07:12:36.96	345.81	14.50	-25.1	-25.8	15.4	0.00e+00	0	43	102	1048576	10	3892
2026-01-26 07:12:37.96	345.62	14.54	-25.1	-25.8	15.5	0.00e+00	0	43	102	1048576	10	3895
2026-01-26 07:12:38.97	345.42	14.58	-25.2	-25.9	15.4	0.00e+00	0	43	102	1048576	10	3917
2026-01-26 07:12:39.97	345.23	14.62	-25.3	-26.3	15.2	0.00e+00	0	43	102	1048576	10	4002
2026-01-26 07:12:40.97	345.04	14.65	-25.0	-25.5	15.6	0.00e+00	0	43	102	1048576	10	3826
2026-01-26 07:12:41.98	344.84	14.69	-25.2	-26.0	15.4	0.00e+00	0	43	102	1048576	10	3942
2026-01-26 07:12:42.99	344.64	14.73	-25.4	-26.4	15.2	0.00e+00	0	43	102	1048576	10	4033
2026-01-26 07:12:43.99	344.45	14.77	-25.4	-26.3	15.2	0.00e+00	0	43	102	1048576	10	4021
2026-01-26 07:12:44.99	344.25	14.81	-25.5	-26.6	15.1	0.00e+00	0	43	102	1048576	10	4092
2026-01-26 07:12:45.99	344.05	14.84	-25.2	-26.1	15.3	0.00e+00	0	43	102	1048576	10	3958
2026-01-26 07:12:47.00	343.85	14.88	-25.0	-25.5	15.6	0.00e+00	0	43	102	1048576	10	3829
2026-01-26 07:12:48.00	343.66	14.92	-24.8	-25.1	15.8	0.00e+00	0	44	102	1048576	10	3724
2026-01-26 07:12:49.00	343.46	14.96	-24.8	-25.1	15.8	0.00e+00	0	43	102	1048576	10	3728
2026-01-26 07:12:50.00	343.26	14.99	-24.6	-25.3	16.0	0.00e+00	0	43	102	1048576	9	3864
2026-01-26 07:12:51.01	343.06	15.03	-24.7	-25.5	15.9	0.00e+00	0	44	102	1048576	9	3911
2026-01-26 07:12:52.01	342.86	15.06	-24.7	-25.4	15.9	0.00e+00	0	43	102	1048576	9	3908
2026-01-26 07:12:53.02	342.65	15.10	-25.0	-26.1	15.6	0.00e+00	0	43	102	1048576	9	4059
2026-01-26 07:12:54.03	342.45	15.14	-24.8	-25.6	15.8	0.00e+00	0	43	102	1048576	9	3942
2026-01-26 07:12:55.02	342.25	15.17	-24.7	-25.3	16.0	1.10e-06	0	43	102	1048576	9	3884
2026-01-26 07:12:56.03	342.05	15.20	-24.9	-25.7	15.8	0.00e+00	0	43	102	1048576	9	3969
2026-01-26 07:12:57.04	341.84	15.24	-24.8	-25.5	15.9	0.00e+00	0	43	102	1048576	9	3921
2026-01-26 07:12:58.05	341.64	15.27	-24.9	-25.7	15.8	0.00e+00	0	43	102	1048576	9	3970
2026-01-26 07:12:59.05	341.43	15.31	-24.8	-25.5	15.9	0.00e+00	0	43	102	1048576	9	3926
2026-01-26 07:13:00.06	341.23	15.34	-24.7	-25.5	15.9	0.00e+00	0	43	102	1048576	9	3909
2026-01-26 07:13:01.07	341.02	15.37	-24.7	-25.5	15.9	0.00e+00	0	44	102	1048576	9	3917
2026-01-26 07:13:02.07	340.82	15.41	-24.8	-25.6	15.9	0.00e+00	0	43	102	1048576	9	3945
2026-01-26 07:13:03.08	340.61	15.44	-24.7	-25.5	15.9	0.00e+00	0	44	102	1048576	9	3909
2026-01-26 07:13:04.08	340.41	15.47	-24.8	-25.6	15.8	0.00e+00	0	43	102	1048576	9	3948
2026-01-26 07:13:05.09	340.20	15.50	-24.7	-25.3	16.0	0.00e+00	0	44	102	1048576	9	3876
2026-01-26 07:13:06.09	339.99	15.53	-24.8	-25.5	15.9	0.00e+00	0	43	102	1048576	9	3922
2026-01-26 07:13:07.09	339.78	15.57	-24.9	-25.7	15.8	0.00e+00	0	43	102	1048576	9	3980
2026-01-26 07:13:08.09	339.58	15.60	-24.9	-25.9	15.7	0.00e+00	0	44	102	1048576	9	4008
2026-01-26 07:13:09.09	339.37	15.63	-24.8	-25.6	15.8	1.10e-06	0	43	102	1048576	9	3946
2026-01-26 07:13:10.10	339.16	15.66	-24.2	-25.1	15.6	1.61e-04	0	43	102	1048576	9	4012
2026-01-26 07:13:11.10	338.95	15.69	-24.9	-25.9	15.7	0.00e+00	0	43	102	1048576	9	4018
2026-01-26 07:13:12.10	338.74	15.71	-25.0	-26.0	15.6	0.00e+00	0	44	102	1048576	9	4030
2026-01-26 07:13:13.11	338.53	15.74	-24.8	-25.5	15.9	0.00e+00	0	43	102	1048576	9	3929
2026-01-26 07:13:14.12	338.32	15.77	-24.8	-25.6	15.9	1.10e-06	0	43	102	1048576	9	3936
2026-01-26 07:13:15.12	338.11	15.80	-24.9	-25.8	15.8	3.16e-04	0	43	102	1048576	9	4003
2026-01-26 07:13:16.13	337.89	15.83	-25.2	-25.8	15.5	0.00e+00	0	43	102	1048576	10	3899
2026-01-26 07:13:17.13	337.68	15.86	-25.3	-26.2	15.3	0.00e+00	0	43	102	1048576	10	3995
2026-01-26 07:13:18.13	337.47	15.88	-25.2	-25.9	15.5	0.00e+00	0	44	102	1048576	10	3915
2026-01-26 07:13:19.14	337.26	15.91	-25.3	-26.2	15.3	0.00e+00	0	43	102	1048576	10	3996
2026-01-26 07:13:20.14	337.04	15.94	-25.1	-25.7	15.6	0.00e+00	0	43	102	1048576	10	3875
2026-01-26 07:13:21.15	336.83	15.96	-25.1	-25.8	15.5	0.00e+00	0	43	102	1048576	10	3883
2026-01-26 07:13:22.15	336.62	15.99	-25.2	-25.9	15.5	3.27e-04	0	43	102	1048576	10	3919
2026-01-26 07:13:23.15	336.40	16.01	-25.0	-25.6	15.7	0.00e+00	0	44	102	1048576	10	3829
2026-01-26 07:13:24.16	336.19	16.04	-25.4	-26.4	15.2	0.00e+00	0	43	102	1048576	10	4038
2026-01-26 07:13:25.16	335.97	16.06	-25.0	-26.0	15.7	6.72e-04	0	44	102	1048576	9	4041
2026-01-26 07:13:26.16	335.76	16.09	-24.7	-25.3	16.0	0.00e+00	0	44	102	1048576	9	3879
2026-01-26 07:13:27.17	335.54	16.11	-24.5	-25.4	16.2	6.21e-04	0	43	102	1048576	8	4004
2026-01-26 07:13:28.17	335.33	16.13	-24.3	-25.1	16.4	4.94e-04	0	44	102	1048576	8	3914
2026-01-26 07:13:29.18	335.11	16.16	-24.5	-25.4	16.3	0.00e+00	0	44	102	1048576	8	3998
2026-01-26 07:13:30.19	334.89	16.18	-24.8	-25.5	16.0	2.12e-04	0	43	102	1048576	9	3911
2026-01-26 07:13:31.19	334.67	16.20	-24.9	-25.9	15.7	5.70e-06	0	44	102	1048576	9	4018
2026-01-26 07:13:32.20	334.46	16.22	-24.6	-25.1	16.1	0.00e+00	0	43	102	1048576	9	3823
2026-01-26 07:13:33.20	334.24	16.25	-24.4	-24.7	16.4	0.00e+00	0	43	102	1048576	9	3724
2026-01-26 07:13:34.21	334.02	16.27	-24.4	-24.7	16.4	9.84e-05	0	43	102	1048576	9	3720
2026-01-26 07:13:35.21	333.80	16.29	-24.5	-24.9	16.2	0.00e+00	0	44	102	1048576	9	3780
2026-01-26 07:13:36.22	333.58	16.31	-24.7	-25.3	16.1	3.33e-04	0	43	102	1048576	9	3870
2026-01-26 07:13:37.23	333.36	16.33	-24.5	-24.9	16.2	3.78e-04	0	43	102	1048576	9	3785
2026-01-26 07:13:38.23	333.14	16.35	-24.5	-24.9	16.2	0.00e+00	0	44	102	1048576	9	3784
2026-01-26 07:13:39.23	332.92	16.36	-24.3	-24.9	16.5	1.10e-06	0	43	102	1048576	8	3891
2026-01-26 07:13:40.24	332.70	16.38	-24.2	-24.8	16.6	3.60e-04	0	43	102	1048576	8	3846
2026-01-26 07:13:41.25	332.48	16.40	-24.2	-24.7	16.6	0.00e+00	0	43	102	1048576	8	3832
2026-01-26 07:13:42.25	332.26	16.42	-24.3	-25.0	16.5	2.53e-04	0	44	102	1048576	8	3895
2026-01-26 07:13:43.25	332.04	16.44	-24.0	-24.4	16.8	0.00e+00	0	43	102	1048576	8	3751
2026-01-26 07:13:44.25	331.82	16.45	-23.9	-24.2	16.9	0.00e+00	0	43	102	1048576	8	3709
2026-01-26 07:13:45.26	331.60	16.47	-23.9	-24.6	16.9	4.29e-04	0	44	102	1048576	7	3907
2026-01-26 07:13:46.26	331.38	16.49	-23.8	-24.5	16.9	0.00e+00	0	43	102	1048576	7	3901
2026-01-26 07:13:47.27	331.16	16.50	-23.9	-24.7	16.9	0.00e+00	0	43	102	1048576	7	3924
2026-01-26 07:13:48.28	330.93	16.52	-24.2	-24.8	16.6	0.00e+00	0	43	102	1048576	8	3865
2026-01-26 07:13:49.28	330.71	16.53	-24.0	-25.0	16.7	0.00e+00	0	43	102	1048576	7	4008
2026-01-26 07:13:50.28	330.49	16.55	-24.2	-24.8	16.6	0.00e+00	0	43	102	1048576	8	3847
2026-01-26 07:13:51.29	330.27	16.56	-24.3	-25.1	16.4	0.00e+00	0	43	102	1048576	8	3935
2026-01-26 07:13:52.28	330.05	16.57	-24.3	-25.1	16.4	0.00e+00	0	43	102	1048576	8	3932
2026-01-26 07:13:53.29	329.82	16.59	-24.3	-25.1	16.5	0.00e+00	0	43	102	1048576	8	3928
2026-01-26 07:13:54.29	329.60	16.60	-24.3	-25.0	16.5	0.00e+00	0	43	102	1048576	8	3915
2026-01-26 07:13:55.30	329.38	16.61	-24.3	-25.0	16.5	0.00e+00	0	43	102	1048576	8	3913
2026-01-26 07:13:56.30	329.15	16.62	-24.3	-25.1	16.4	0.00e+00	0	43	102	1048576	8	3921
2026-01-26 07:13:57.31	328.93	16.63	-24.4	-25.2	16.4	0.00e+00	0	43	102	1048576	8	3946
2026-01-26 07:13:58.32	328.70	16.64	-24.2	-24.7	16.6	0.00e+00	0	43	102	1048576	8	3844
2026-01-26 07:13:59.32	328.48	16.65	-24.1	-24.5	16.8	0.00e+00	0	44	102	1048576	8	3776
2026-01-26 07:14:00.32	328.26	16.66	-24.0	-24.8	16.8	0.00e+00	0	44	102	1048576	7	3969
2026-01-26 07:14:01.32	328.03	16.67	-24.1	-25.0	16.7	3.40e-06	0	43	102	1048576	7	4013
2026-01-26 07:14:02.32	327.81	16.68	-24.3	-25.1	16.5	0.00e+00	0	44	102	1048576	8	3919
2026-01-26 07:14:03.32	327.59	16.69	-24.4	-25.2	16.4	0.00e+00	0	43	102	1048576	8	3954
2026-01-26 07:14:04.33	327.36	16.70	-24.1	-24.6	16.7	0.00e+00	0	43	102	1048576	8	3813
2026-01-26 07:14:05.33	327.14	16.71	-24.0	-24.4	16.8	0.00e+00	0	44	102	1048576	8	3756
2026-01-26 07:14:06.33	326.91	16.71	-23.9	-24.2	16.9	0.00e+00	0	43	102	1048576	8	3721
2026-01-26 07:14:07.34	326.69	16.72	-24.0	-24.8	16.9	0.00e+00	0	43	102	1048576	7	3960
2026-01-26 07:14:08.34	326.46	16.73	-24.0	-24.8	16.8	0.00e+00	0	43	102	1048576	7	3958
2026-01-26 07:14:09.34	326.24	16.73	-24.0	-25.0	16.8	0.00e+00	0	44	102	1048576	7	3999
2026-01-26 07:14:10.34	326.01	16.74	-24.4	-25.3	16.4	0.00e+00	0	43	102	1048576	8	3963
2026-01-26 07:14:11.35	325.79	16.74	-24.6	-25.2	16.2	0.00e+00	0	43	102	1048576	9	3835
2026-01-26 07:14:12.35	325.56	16.75	-24.2	-24.4	16.6	0.00e+00	0	44	102	1048576	9	3655
2026-01-26 07:14:13.35	325.34	16.75	-24.0	-23.8	16.9	0.00e+00	0	43	102	1048576	9	3529
2026-01-26 07:14:14.36	325.11	16.76	-24.0	-24.3	16.9	0.00e+00	0	43	102	1048576	8	3746
2026-01-26 07:14:15.36	324.89	16.76	-23.9	-24.2	16.9	0.00e+00	0	44	102	1048576	8	3709
2026-01-26 07:14:16.37	324.66	16.76	-24.1	-24.7	16.7	0.00e+00	0	44	102	1048576	8	3818
2026-01-26 07:14:17.37	324.43	16.76	-24.2	-24.9	16.6	0.00e+00	0	43	102	1048576	8	3870
2026-01-26 07:14:18.38	324.21	16.77	-24.2	-24.8	16.6	0.00e+00	0	44	102	1048576	8	3865
2026-01-26 07:14:19.37	323.98	16.77	-24.3	-25.0	16.5	0.00e+00	0	44	102	1048576	8	3908
2026-01-26 07:14:20.38	323.76	16.77	-24.3	-24.9	16.6	0.00e+00	0	43	102	1048576	8	3884
2026-01-26 07:14:21.39	323.53	16.77	-24.4	-25.2	16.4	0.00e+00	0	44	102	1048576	8	3940
2026-01-26 07:14:22.39	323.31	16.77	-24.4	-25.2	16.5	0.00e+00	0	44	102	1048576	8	3941
2026-01-26 07:14:23.39	323.08	16.77	-24.4	-25.3	16.4	0.00e+00	0	44	102	1048576	8	3967
2026-01-26 07:14:24.40	322.85	16.77	-24.6	-25.1	16.2	0.00e+00	0	44	102	1048576	9	3813
2026-01-26 07:14:25.40	322.63	16.77	-24.4	-25.3	16.4	0.00e+00	0	43	102	1048576	8	3981
2026-01-26 07:14:26.41	322.40	16.76	-24.4	-25.3	16.4	0.00e+00	0	44	102	1048576	8	3977
2026-01-26 07:14:27.42	322.17	16.76	-24.5	-25.4	16.3	0.00e+00	0	44	102	1048576	8	3995
2026-01-26 07:14:28.42	321.95	16.76	-24.5	-25.5	16.3	0.00e+00	0	44	102	1048576	8	4016
2026-01-26 07:14:29.42	321.72	16.76	-24.3	-25.1	16.5	0.00e+00	0	44	102	1048576	8	3928
2026-01-26 07:14:30.42	321.50	16.75	-24.4	-25.2	16.4	0.00e+00	0	44	102	1048576	8	3953
2026-01-26 07:14:31.42	321.27	16.75	-24.3	-25.1	16.5	0.00e+00	0	43	102	1048576	8	3929
2026-01-26 07:14:32.42	321.05	16.74	-24.1	-24.5	16.8	0.00e+00	0	43	102	1048576	8	3796
2026-01-26 07:14:33.43	320.82	16.74	-24.0	-24.4	16.8	0.00e+00	0	44	102	1048576	8	3771
2026-01-26 07:14:34.44	320.60	16.73	-24.2	-24.8	16.7	0.00e+00	0	44	102	1048576	8	3866
2026-01-26 07:14:35.43	320.37	16.73	-23.8	-24.0	17.1	0.00e+00	0	44	102	1048576	8	3675
2026-01-26 07:14:36.44	320.15	16.72	-23.9	-24.6	17.0	0.00e+00	0	44	102	1048576	7	3915
2026-01-26 07:14:37.45	319.92	16.72	-24.0	-24.9	16.8	0.00e+00	0	44	102	1048576	7	3988
2026-01-26 07:14:38.45	319.70	16.71	-24.0	-24.9	16.8	0.00e+00	0	44	102	1048576	7	3998
2026-01-26 07:14:39.45	319.47	16.70	-24.2	-24.8	16.6	0.00e+00	0	43	102	1048576	8	3858
2026-01-26 07:14:40.45	319.25	16.69	-24.3	-24.9	16.6	0.00e+00	0	44	102	1048576	8	3879
2026-01-26 07:14:41.45	319.03	16.68	-24.1	-24.6	16.8	0.00e+00	0	44	102	1048576	8	3808
2026-01-26 07:14:42.46	318.80	16.67	-24.1	-24.5	16.8	0.00e+00	0	43	102	1048576	8	3798
2026-01-26 07:14:43.46	318.58	16.67	-24.1	-24.6	16.8	0.00e+00	0	43	102	1048576	8	3799
2026-01-26 07:14:44.46	318.35	16.66	-24.1	-24.6	16.8	0.00e+00	0	43	102	1048576	8	3800
2026-01-26 07:14:45.46	318.13	16.65	-24.2	-24.8	16.7	0.00e+00	0	44	102	1048576	8	3846
2026-01-26 07:14:46.46	317.91	16.63	-24.1	-24.7	16.7	0.00e+00	0	43	102	1048576	8	3822
2026-01-26 07:14:47.47	317.68	16.62	-23.9	-24.2	17.0	0.00e+00	0	44	102	1048576	8	3711
2026-01-26 07:14:48.48	317.46	16.61	-23.8	-24.0	17.1	0.00e+00	0	44	102	1048576	8	3660
2026-01-26 07:14:49.48	317.23	16.60	-23.8	-24.0	17.1	0.00e+00	0	44	102	1048576	8	3671
2026-01-26 07:14:50.48	317.01	16.59	-24.0	-24.3	16.9	0.00e+00	0	44	102	1048576	8	3741
2026-01-26 07:14:51.48	316.79	16.57	-23.9	-24.2	17.0	0.00e+00	0	44	102	1048576	8	3712
2026-01-26 07:14:52.48	316.57	16.56	-24.1	-24.6	16.8	0.00e+00	0	44	102	1048576	8	3797
2026-01-26 07:14:53.49	316.34	16.55	-24.2	-24.8	16.7	0.00e+00	0	43	102	1048576	8	3858
2026-01-26 07:14:54.49	316.12	16.53	-24.1	-24.6	16.8	0.00e+00	0	44	102	1048576	8	3797
2026-01-26 07:14:55.50	315.90	16.52	-24.1	-24.6	16.7	0.00e+00	0	44	102	1048576	8	3806
2026-01-26 07:14:56.50	315.68	16.50	-24.1	-24.6	16.7	0.00e+00	0	43	102	1048576	8	3815
2026-01-26 07:14:57.51	315.45	16.49	-24.2	-24.7	16.7	9.04e-05	0	44	102	1048576	8	3843
2026-01-26 07:14:58.52	315.23	16.47	-24.2	-24.9	16.6	0.00e+00	0	44	102	1048576	8	3878
2026-01-26 07:14:59.52	315.01	16.46	-24.2	-24.9	16.6	2.44e-04	0	44	102	1048576	8	3870
2026-01-26 07:15:00.52	314.79	16.44	-24.2	-24.9	16.6	2.97e-04	0	44	102	1048576	8	3879
2026-01-26 07:15:01.53	314.57	16.42	-24.3	-25.0	16.6	0.00e+00	0	44	102	1048576	8	3893
2026-01-26 07:15:02.54	314.34	16.40	-24.2	-24.8	16.6	4.04e-04	0	44	102	1048576	8	3852
2026-01-26 07:15:03.54	314.13	16.39	-24.3	-24.9	16.6	0.00e+00	0	44	102	1048576	8	3888
2026-01-26 07:15:04.55	313.90	16.37	-24.1	-24.6	16.7	0.00e+00	0	44	102	1048576	8	3816
2026-01-26 07:15:05.55	313.69	16.35	-24.2	-24.7	16.7	5.50e-04	0	44	102	1048576	8	3837
2026-01-26 07:15:06.56	313.46	16.33	-24.2	-24.8	16.6	6.75e-04	0	44	102	1048576	8	3849
2026-01-26 07:15:07.56	313.25	16.31	-24.1	-24.7	16.7	1.10e-06	0	44	102	1048576	8	3823
2026-01-26 07:15:08.56	313.03	16.29	-24.2	-24.8	16.6	7.39e-04	0	44	102	1048576	8	3848
2026-01-26 07:15:09.57	312.81	16.27	-24.2	-24.9	16.6	8.46e-04	0	44	102	1048576	8	3869
2026-01-26 07:15:10.57	312.59	16.25	-24.3	-24.9	16.6	0.00e+00	0	44	102	1048576	8	3885
2026-01-26 07:15:11.58	312.37	16.23	-24.4	-25.2	16.4	5.07e-04	0	44	102	1048576	8	3947
2026-01-26 07:15:12.59	312.15	16.20	-24.2	-24.8	16.6	4.06e-04	0	44	102	1048576	8	3862
2026-01-26 07:15:13.60	311.93	16.18	-24.2	-24.8	16.6	0.00e+00	0	44	102	1048576	8	3855
2026-01-26 07:15:14.60	311.72	16.16	-24.2	-24.7	16.7	3.78e-04	0	44	102	1048576	8	3839
2026-01-26 07:15:15.61	311.50	16.14	-24.3	-25.0	16.5	3.58e-04	0	44	102	1048576	8	3900
2026-01-26 07:15:16.62	311.28	16.11	-24.4	-25.1	16.4	0.00e+00	0	44	102	1048576	8	3936
2026-01-26 07:15:17.62	311.07	16.09	-24.3	-25.0	16.5	4.04e-04	0	43	102	1048576	8	3899
2026-01-26 07:15:18.63	310.85	16.06	-24.4	-25.2	16.4	0.00e+00	0	44	102	1048576	8	3959
2026-01-26 07:15:19.63	310.63	16.04	-24.3	-25.0	16.5	0.00e+00	0	44	102	1048576	8	3902
2026-01-26 07:15:20.64	310.42	16.02	-24.5	-25.5	16.2	0.00e+00	0	44	102	1048576	8	4026
2026-01-26 07:15:21.64	310.20	15.99	-24.4	-24.6	16.4	0.00e+00	0	44	102	1048576	9	3703
2026-01-26 07:15:22.63	309.99	15.96	-24.4	-24.7	16.4	0.00e+00	0	44	102	1048576	9	3727
2026-01-26 07:15:23.63	309.78	15.94	-24.4	-25.2	16.4	0.00e+00	0	44	102	1048576	8	3955
2026-01-26 07:15:24.63	309.57	15.91	-24.3	-25.0	16.5	9.23e-04	0	44	102	1048576	8	3907
2026-01-26 07:15:25.63	309.35	15.89	-24.3	-24.9	16.5	0.00e+00	0	44	102	1048576	8	3886
2026-01-26 07:15:26.64	309.14	15.86	-24.4	-25.3	16.3	0.00e+00	0	44	102	1048576	8	3967
2026-01-26 07:15:27.65	308.93	15.83	-24.4	-25.3	16.4	0.00e+00	0	44	102	1048576	8	3971
2026-01-26 07:15:28.65	308.72	15.80	-24.4	-25.2	16.4	0.00e+00	0	43	102	1048576	8	3959
2026-01-26 07:15:29.66	308.50	15.77	-24.5	-25.3	16.3	0.00e+00	0	44	102	1048576	8	3988
2026-01-26 07:15:30.65	308.29	15.75	-24.6	-25.2	16.1	0.00e+00	0	44	102	1048576	9	3845
2026-01-26 07:15:31.66	308.08	15.72	-24.6	-25.1	16.2	0.00e+00	0	43	102	1048576	9	3826
2026-01-26 07:15:32.67	307.87	15.69	-24.6	-25.1	16.2	0.00e+00	0	44	102	1048576	9	3823
2026-01-26 07:15:33.67	307.66	15.66	-24.5	-25.0	16.3	0.00e+00	0	44	102	1048576	9	3789
2026-01-26 07:15:34.67	307.45	15.63	-24.6	-25.1	16.2	0.00e+00	0	44	102	1048576	9	3829
2026-01-26 07:15:35.68	307.24	15.60	-24.6	-25.2	16.1	0.00e+00	0	44	102	1048576	9	3853
2026-01-26 07:15:36.69	307.03	15.57	-24.8	-25.6	15.9	0.00e+00	0	44	102	1048576	9	3949
2026-01-26 07:15:37.69	306.82	15.54	-24.8	-25.5	15.9	0.00e+00	0	44	102	1048576	9	3930
2026-01-26 07:15:38.69	306.62	15.50	-25.0	-26.1	15.7	0.00e+00	0	44	102	1048576	9	4063
2026-01-26 07:15:39.70	306.41	15.47	-25.0	-25.4	15.7	0.00e+00	0	44	102	1048576	10	3801
2026-01-26 07:15:40.71	306.20	15.44	-24.7	-24.8	16.1	0.00e+00	0	44	102	1048576	10	3655
2026-01-26 07:15:41.71	305.99	15.41	-24.6	-25.2	16.1	0.00e+00	0	43	102	1048576	9	3855
2026-01-26 07:15:42.70	305.79	15.38	-24.5	-24.9	16.3	0.00e+00	0	44	102	1048576	9	3769
2026-01-26 07:15:43.71	305.58	15.34	-24.6	-25.3	16.1	0.00e+00	0	44	102	1048576	9	3861
2026-01-26 07:15:44.72	305.38	15.31	-24.5	-25.0	16.1	0.00e+00	0	44	102	1048576	9	3805
2026-01-26 07:15:45.73	305.17	15.28	-24.3	-25.1	16.4	0.00e+00	0	44	102	1048576	8	3925
2026-01-26 07:15:46.74	304.97	15.24	-24.3	-25.0	16.5	0.00e+00	0	44	102	1048576	8	3902
2026-01-26 07:15:47.74	304.76	15.21	-24.3	-25.0	16.4	0.00e+00	0	44	102	1048576	8	3912
2026-01-26 07:15:48.74	304.56	15.17	-24.6	-25.6	16.1	0.00e+00	0	44	102	1048576	8	4055
2026-01-26 07:15:49.74	304.36	15.14	-24.6	-25.1	16.1	0.00e+00	0	44	102	1048576	9	3819
2026-01-26 07:15:50.75	304.16	15.10	-24.6	-25.2	16.1	0.00e+00	0	44	102	1048576	9	3845
2026-01-26 07:15:51.75	303.96	15.07	-24.6	-25.2	16.1	0.00e+00	0	44	102	1048576	9	3853
2026-01-26 07:15:52.76	303.75	15.03	-24.9	-25.8	15.7	0.00e+00	0	44	102	1048576	9	4001
2026-01-26 07:15:53.76	303.55	14.99	-24.8	-25.5	15.9	0.00e+00	0	44	102	1048576	9	3925
2026-01-26 07:15:54.77	303.35	14.96	-25.0	-25.9	15.7	0.00e+00	0	44	102	1048576	9	4033
2026-01-26 07:15:55.77	303.15	14.92	-25.0	-26.0	15.7	0.00e+00	0	44	102	1048576	9	4033
2026-01-26 07:15:56.78	302.95	14.88	-24.7	-25.4	16.0	0.00e+00	0	44	102	1048576	9	3905
2026-01-26 07:15:57.78	302.75	14.85	-24.8	-25.5	15.9	0.00e+00	0	43	102	1048576	9	3916
2026-01-26 07:15:58.78	302.56	14.81	-24.8	-25.5	15.9	0.00e+00	0	44	102	1048576	9	3921
2026-01-26 07:15:59.78	302.36	14.77	-24.6	-25.2	16.1	0.00e+00	0	44	102	1048576	9	3841
2026-01-26 07:16:00.78	302.16	14.73	-24.7	-25.4	16.0	0.00e+00	0	44	102	1048576	9	3904
2026-01-26 07:16:01.79	301.96	14.69	-24.5	-25.0	16.1	0.00e+00	0	44	102	1048576	9	3811
2026-01-26 07:16:02.80	301.77	14.66	-24.5	-25.5	16.1	0.00e+00	0	44	102	1048576	8	4040
2026-01-26 07:16:03.80	301.57	14.62	-24.5	-24.9	16.2	0.00e+00	0	44	102	1048576	9	3775
2026-01-26 07:16:04.81	301.38	14.58	-24.7	-25.4	15.9	0.00e+00	0	44	102	1048576	9	3897
2026-01-26 07:16:05.81	301.18	14.54	-24.6	-25.2	16.0	0.00e+00	0	44	102	1048576	9	3862
2026-01-26 07:16:06.82	300.99	14.50	-24.8	-25.5	15.9	0.00e+00	0	44	102	1048576	9	3927
2026-01-26 07:16:07.83	300.79	14.46	-24.8	-25.7	15.8	0.00e+00	0	44	102	1048576	9	3963
2026-01-26 07:16:08.83	300.60	14.42	-25.0	-26.0	15.6	0.00e+00	0	44	102	1048576	9	4043
2026-01-26 07:16:09.84	300.40	14.38	-25.0	-25.9	15.7	0.00e+00	0	44	102	1048576	9	4026
2026-01-26 07:16:10.84	300.21	14.34	-24.8	-25.5	15.9	0.00e+00	0	44	102	1048576	9	3921
2026-01-26 07:16:11.85	300.02	14.29	-24.9	-25.7	15.8	0.00e+00	0	44	102	1048576	9	3973
2026-01-26 07:16:12.85	299.83	14.25	-24.9	-25.8	15.7	0.00e+00	0	44	102	1048576	9	3992
2026-01-26 07:16:13.85	299.64	14.21	-24.9	-25.8	15.7	1.10e-06	0	44	102	1048576	9	3999
2026-01-26 07:16:14.85	299.45	14.17	-25.0	-26.0	15.6	0.00e+00	0	44	102	1048576	9	4048
2026-01-26 07:16:15.85	299.26	14.13	-25.0	-26.0	15.6	0.00e+00	0	44	102	1048576	9	4044
2026-01-26 07:16:16.86	299.07	14.08	-24.8	-25.6	15.8	0.00e+00	0	44	102	1048576	9	3958
2026-01-26 07:16:17.87	298.88	14.04	-24.9	-25.8	15.7	0.00e+00	0	44	102	1048576	9	3995
2026-01-26 07:16:18.88	298.69	14.00	-24.8	-25.7	15.8	1.10e-06	0	44	102	1048576	9	3968
2026-01-26 07:16:19.88	298.51	13.96	-24.9	-25.8	15.7	0.00e+00	0	44	102	1048576	9	4000
2026-01-26 07:16:20.89	298.32	13.91	-25.0	-26.1	15.5	0.00e+00	0	44	102	1048576	9	4067
2026-01-26 07:16:21.90	298.13	13.87	-25.0	-25.5	15.6	0.00e+00	0	43	102	1048576	10	3823
2026-01-26 07:16:22.90	297.95	13.83	-24.9	-25.8	13.9	0.00e+00	0	44	102	1048576	9	3986
2026-01-26 07:16:23.91	297.76	13.78	-25.1	-26.3	15.3	0.00e+00	0	44	102	1048576	9	4115
2026-01-26 07:16:24.91	297.58	13.74	-24.9	-25.4	15.7	0.00e+00	0	44	102	1048576	10	3790
2026-01-26 07:16:25.92	297.39	13.69	-24.9	-25.8	15.6	0.00e+00	0	44	102	1048576	9	4008
2026-01-26 07:16:26.93	297.21	13.65	-25.0	-26.1	15.5	3.23e-04	0	44	102	1048576	9	4082
2026-01-26 07:16:27.93	297.03	13.60	-25.2	-25.9	15.4	3.40e-06	0	44	102	1048576	10	3917
2026-01-26 07:16:28.93	296.84	13.56	-25.2	-26.0	15.3	0.00e+00	0	44	102	1048576	10	3927
2026-01-26 07:16:29.93	296.66	13.51	-25.1	-25.9	15.4	0.00e+00	0	44	102	1048576	10	3913
2026-01-26 07:16:30.93	296.48	13.47	-25.1	-25.8	15.4	1.10e-06	0	44	102	1048576	10	3886
2026-01-26 07:16:31.94	296.30	13.42	-25.4	-26.4	15.1	1.16e-03	0	44	102	1048576	10	4029
2026-01-26 07:16:32.95	296.12	13.38	-25.1	-26.2	15.4	0.00e+00	0	44	102	1048576	9	4100
2026-01-26 07:16:33.96	295.94	13.33	-25.3	-26.3	15.2	0.00e+00	0	44	102	1048576	10	4004
2026-01-26 07:16:34.96	295.76	13.28	-25.6	-26.4	14.8	0.00e+00	0	44	102	1048576	11	3943
2026-01-26 07:16:35.96	295.58	13.24	-25.3	-26.2	15.1	0.00e+00	0	44	102	1048576	10	4003
2026-01-26 07:16:36.97	295.41	13.19	-25.2	-25.9	15.3	0.00e+00	0	44	102	1048576	10	3911
2026-01-26 07:16:37.97	295.23	13.14	-25.2	-26.0	15.3	0.00e+00	0	44	102	1048576	10	3946
2026-01-26 07:16:38.97	295.05	13.10	-25.2	-26.0	15.2	1.16e-03	0	44	102	1048576	10	3954
2026-01-26 07:16:39.98	294.88	13.05	-25.1	-25.9	15.3	0.00e+00	0	44	102	1048576	10	3911
2026-01-26 07:16:40.98	294.70	13.00	-25.2	-26.0	15.2	0.00e+00	0	44	102	1048576	10	3952
2026-01-26 07:16:41.98	294.53	12.96	-25.1	-26.2	15.4	1.13e-03	0	44	102	1048576	9	4100
2026-01-26 07:16:42.99	294.35	12.91	-24.8	-25.0	15.8	0.00e+00	0	44	102	1048576	10	3713
2026-01-26 07:16:43.99	294.18	12.86	-24.9	-25.8	15.6	1.08e-03	0	44	102	1048576	9	3988
2026-01-26 07:16:44.99	294.01	12.81	-24.9	-25.8	15.5	9.51e-04	0	44	102	1048576	9	4012
2026-01-26 07:16:45.99	293.83	12.76	-24.6	-25.1	15.9	0.00e+00	0	44	102	1048576	9	3841
2026-01-26 07:16:47.00	293.66	12.72	-24.6	-25.2	15.9	9.88e-04	0	44	102	1048576	9	3861
2026-01-26 07:16:48.00	293.49	12.67	-24.6	-25.2	15.9	0.00e+00	0	44	102	1048576	9	3854
2026-01-26 07:16:49.01	293.32	12.62	-24.8	-25.6	15.7	0.00e+00	0	44	102	1048576	9	3942
2026-01-26 07:16:50.01	293.15	12.57	-24.7	-25.5	15.8	1.48e-03	0	44	102	1048576	9	3916
2026-01-26 07:16:51.02	292.98	12.52	-25.0	-26.1	15.4	1.51e-03	0	44	102	1048576	9	4083
2026-01-26 07:16:52.03	292.81	12.47	-25.1	-25.7	15.4	0.00e+00	0	44	102	1048576	10	3866
2026-01-26 07:16:53.04	292.64	12.42	-25.1	-25.8	15.3	0.00e+00	0	44	102	1048576	10	3887
2026-01-26 07:16:54.04	292.47	12.37	-25.1	-25.8	15.3	1.07e-03	0	44	102	1048576	10	3903
2026-01-26 07:16:55.05	292.30	12.32	-25.3	-26.3	15.0	0.00e+00	0	44	102	1048576	10	4031
2026-01-26 07:16:56.05	292.14	12.27	-25.3	-26.1	15.1	6.75e-05	0	44	102	1048576	10	3970
2026-01-26 07:16:57.06	291.97	12.22	-25.4	-26.4	15.0	1.89e-04	0	44	102	1048576	10	4033
2026-01-26 07:16:58.07	291.80	12.17	-25.6	-26.3	14.7	0.00e+00	0	44	102	1048576	11	3909
2026-01-26 07:16:59.07	291.64	12.12	-25.5	-26.2	14.8	4.86e-04	0	44	102	1048576	11	3881
2026-01-26 07:17:00.08	291.47	12.07	-25.5	-26.6	14.9	0.00e+00	0	44	102	1048576	10	4090
2026-01-26 07:17:01.08	291.31	12.02	-25.5	-26.6	14.8	0.00e+00	0	44	102	1048576	10	4103
2026-01-26 07:17:02.09	291.14	11.97	-25.6	-26.5	14.7	0.00e+00	0	44	102	1048576	11	3961
2026-01-26 07:17:03.10	290.98	11.92	-25.5	-26.2	14.8	0.00e+00	0	44	102	1048576	11	3891
2026-01-26 07:17:04.11	290.82	11.87	-25.4	-26.0	14.9	0.00e+00	0	44	102	1048576	11	3833
2026-01-26 07:17:05.11	290.65	11.82	-25.6	-26.3	14.7	0.00e+00	0	44	102	1048576	11	3908
2026-01-26 07:17:06.11	290.49	11.77	-25.5	-26.2	14.8	1.10e-06	0	44	102	1048576	11	3893
2026-01-26 07:17:07.12	290.33	11.72	-25.3	-25.8	15.0	2.20e-06	0	44	102	1048576	11	3793
2026-01-26 07:17:08.12	290.17	11.67	-25.2	-26.1	15.1	1.10e-06	0	44	102	1048576	10	3960
2026-01-26 07:17:09.13	290.01	11.62	-25.1	-25.8	15.3	1.10e-06	0	44	102	1048576	10	3892
2026-01-26 07:17:10.13	289.85	11.57	-25.3	-26.3	15.0	1.10e-06	0	44	102	1048576	10	4007
2026-01-26 07:17:11.14	289.69	11.51	-25.3	-26.2	15.0	0.00e+00	0	44	102	1048576	10	3994
2026-01-26 07:17:12.14	289.54	11.46	-25.2	-26.1	15.1	0.00e+00	0	44	102	1048576	10	3963
2026-01-26 07:17:13.15	289.38	11.41	-25.3	-26.3	15.0	0.00e+00	0	44	102	1048576	10	4024
2026-01-26 07:17:14.16	289.22	11.36	-25.3	-26.2	15.0	0.00e+00	0	44	102	1048576	10	3991
2026-01-26 07:17:15.17	289.06	11.31	-25.4	-26.4	14.9	0.00e+00	0	44	102	1048576	10	4055
2026-01-26 07:17:16.17	288.91	11.25	-25.4	-26.4	14.9	2.20e-06	0	44	102	1048576	10	4051
2026-01-26 07:17:17.17	288.75	11.20	-25.6	-26.8	14.7	0.00e+00	0	44	102	1048576	10	4152
2026-01-26 07:17:18.17	288.60	11.15	-25.5	-26.6	14.8	0.00e+00	0	44	102	1048576	10	4098
2026-01-26 07:17:19.17	288.45	11.10	-25.5	-26.6	14.7	0.00e+00	0	44	102	1048576	10	4105
2026-01-26 07:17:20.18	288.29	11.05	-25.5	-26.7	14.7	1.10e-06	0	44	102	1048576	10	4114
2026-01-26 07:17:21.19	288.14	10.99	-25.5	-26.7	14.7	0.00e+00	0	44	102	1048576	10	4119
2026-01-26 07:17:22.19	287.99	10.94	-25.6	-26.4	14.6	0.00e+00	0	44	102	1048576	11	3931
2026-01-26 07:17:23.19	287.84	10.89	-25.6	-26.4	14.6	1.10e-06	0	44	102	1048576	11	3929
2026-01-26 07:17:24.20	287.68	10.84	-25.5	-26.6	14.8	1.10e-06	0	43	102	1048576	10	4087
2026-01-26 07:17:25.21	287.53	10.78	-25.6	-26.9	14.6	0.00e+00	0	44	102	1048576	10	4165
2026-01-26 07:17:26.22	287.38	10.73	-25.6	-26.4	14.6	0.00e+00	0	44	102	1048576	11	3942
2026-01-26 07:17:27.23	287.23	10.68	-25.6	-26.4	14.6	0.00e+00	0	44	102	1048576	11	3941
2026-01-26 07:17:28.23	287.08	10.62	-25.7	-26.7	14.4	0.00e+00	0	44	102	1048576	11	4024
2026-01-26 07:17:29.23	286.94	10.57	-25.7	-26.7	14.4	0.00e+00	0	44	102	1048576	11	4015
2026-01-26 07:17:30.24	286.79	10.52	-25.6	-26.3	14.6	0.00e+00	0	44	102	1048576	11	3921
2026-01-26 07:17:31.24	286.64	10.46	-25.6	-26.4	14.5	0.00e+00	0	44	102	1048576	11	3955
2026-01-26 07:17:32.24	286.49	10.41	-25.8	-26.8	14.3	3.40e-06	0	44	102	1048576	11	4052
2026-01-26 07:17:33.25	286.35	10.36	-25.7	-26.6	14.4	0.00e+00	0	44	102	1048576	11	4003
2026-01-26 07:17:34.26	286.20	10.30	-25.6	-26.5	14.5	1.10e-06	0	44	102	1048576	11	3971
2026-01-26 07:17:35.26	286.06	10.25	-25.6	-26.3	14.6	1.10e-06	0	44	102	1048576	11	3917
2026-01-26 07:17:36.27	285.91	10.20	-25.7	-26.6	14.4	1.10e-06	0	44	102	1048576	11	3988
2026-01-26 07:17:37.27	285.77	10.14	-25.6	-26.4	14.5	3.40e-06	0	44	102	1048576	11	3957
2026-01-26 07:17:38.28	285.62	10.09	-25.8	-26.8	14.3	2.20e-06	0	44	102	1048576	11	4057
2026-01-26 07:17:39.29	285.48	10.04	-25.8	-26.8	14.3	1.10e-06	0	44	102	1048576	11	4034
2026-01-26 07:17:40.30	285.33	9.98	-25.8	-26.9	14.2	3.40e-06	0	44	102	1048576	11	4062
2026-01-26 07:17:41.30	285.19	9.93	-26.0	-27.2	14.1	1.10e-06	0	44	102	1048576	11	4153
2026-01-26 07:17:42.30	285.05	9.87	-25.9	-27.1	14.1	2.20e-06	0	44	102	1048576	11	4132
2026-01-26 07:17:43.31	284.91	9.82	-25.9	-27.1	14.1	0.00e+00	0	44	102	1048576	11	4133
2026-01-26 07:17:44.32	284.77	9.77	-26.0	-26.7	13.9	5.70e-06	0	44	102	1048576	12	3937
2026-01-26 07:17:45.33	284.63	9.71	-25.8	-26.5	14.1	4.50e-06	0	44	102	1048576	12	3866
2026-01-26 07:17:46.33	284.49	9.66	-25.9	-26.6	14.0	3.40e-06	0	44	102	1048576	12	3900
2026-01-26 07:17:47.33	284.35	9.60	-26.0	-26.9	13.8	5.70e-06	0	44	102	1048576	12	3968
2026-01-26 07:17:48.34	284.21	9.55	-26.1	-27.1	13.7	5.70e-06	0	44	102	1048576	12	4037
2026-01-26 07:17:49.34	284.08	9.50	-26.4	-27.7	13.3	2.51e-05	0	44	102	1048576	12	4188
2026-01-26 07:17:50.34	283.94	9.44	-26.3	-27.4	13.5	1.60e-05	0	44	102	1048576	12	4113
2026-01-26 07:17:51.34	283.80	9.39	-25.9	-26.7	13.9	9.10e-06	0	44	102	1048576	12	3928
2026-01-26 07:17:52.35	283.67	9.33	-25.9	-26.6	13.9	3.40e-06	0	44	102	1048576	12	3908
2026-01-26 07:17:53.35	283.53	9.28	-25.7	-26.7	14.2	2.20e-06	0	44	102	1048576	11	4024
2026-01-26 07:17:54.35	283.40	9.23	-25.8	-26.9	14.1	0.00e+00	0	44	102	1048576	11	4073
2026-01-26 07:17:55.35	283.26	9.17	-26.0	-27.3	13.9	5.70e-06	0	44	102	1048576	11	4194
2026-01-26 07:17:56.36	283.13	9.12	-25.0	-26.3	12.7	8.00e-06	0	44	102	1048576	11	4169
2026-01-26 07:17:57.36	282.99	9.06	-25.6	-26.5	14.3	0.00e+00	0	44	102	1048576	11	3978
2026-01-26 07:17:58.37	282.86	9.01	-25.9	-27.1	13.9	1.22e-03	0	44	102	1048576	11	4131
2026-01-26 07:17:59.37	282.73	8.95	-25.8	-26.8	14.2	3.40e-06	0	44	102	1048576	11	4063
2026-01-26 07:18:00.38	282.59	8.90	-26.0	-27.3	13.9	3.40e-06	0	44	102	1048576	11	4170
2026-01-26 07:18:01.38	282.46	8.84	-25.8	-26.8	14.1	2.20e-06	0	44	102	1048576	11	4052
2026-01-26 07:18:02.39	282.33	8.79	-25.8	-26.9	14.2	1.10e-06	0	44	102	1048576	11	4066
2026-01-26 07:18:03.39	282.20	8.74	-25.9	-27.0	14.1	2.20e-06	0	44	102	1048576	11	4115
2026-01-26 07:18:04.40	282.07	8.68	-25.8	-26.8	14.2	3.40e-06	0	44	102	1048576	11	4044
2026-01-26 07:18:05.40	281.94	8.63	-25.9	-27.2	14.0	1.66e-03	0	44	102	1048576	11	4143
2026-01-26 07:18:06.41	281.81	8.57	-26.1	-27.1	13.6	5.70e-06	0	44	102	1048576	12	4038
2026-01-26 07:18:07.41	281.68	8.52	-26.2	-27.3	13.6	8.00e-06	0	44	102	1048576	12	4084
2026-01-26 07:18:08.41	281.56	8.46	-26.2	-27.2	13.5	1.97e-03	0	44	102	1048576	12	4063
2026-01-26 07:18:09.41	281.43	8.41	-26.4	-27.8	13.2	3.43e-05	0	44	102	1048576	12	4224
2026-01-26 07:18:10.41	281.30	8.35	-26.3	-27.5	13.3	1.99e-03	0	44	102	1048576	12	4145
2026-01-26 07:18:11.42	281.17	8.30	-26.4	-27.8	13.2	1.95e-03	0	44	102	1048576	12	4227
2026-01-26 07:18:12.42	281.05	8.24	-26.4	-27.7	13.2	2.63e-05	0	44	102	1048576	12	4193
2026-01-26 07:18:13.43	280.92	8.19	-26.2	-27.3	13.5	2.06e-03	0	44	102	1048576	12	4099
2026-01-26 07:18:14.43	280.80	8.13	-26.4	-27.7	13.2	1.86e-03	0	44	102	1048576	12	4203
2026-01-26 07:18:15.43	280.67	8.08	-26.3	-27.1	13.3	2.40e-05	0	44	102	1048576	13	3942
2026-01-26 07:18:16.43	280.55	8.02	-26.3	-27.4	13.4	1.75e-03	0	44	102	1048576	12	4119
2026-01-26 07:18:17.44	280.42	7.97	-26.2	-27.3	13.5	1.87e-03	0	44	102	1048576	12	4074
2026-01-26 07:18:18.44	280.30	7.91	-26.0	-27.0	13.6	6.80e-06	0	44	102	1048576	12	4001
2026-01-26 07:18:19.44	280.18	7.86	-26.1	-27.0	13.6	1.75e-03	0	44	102	1048576	12	4019
2026-01-26 07:18:20.44	280.06	7.81	-25.8	-26.5	13.9	1.70e-03	0	44	102	1048576	12	3880
2026-01-26 07:18:21.45	279.93	7.75	-26.2	-27.2	13.5	1.25e-05	0	44	102	1048576	12	4065
2026-01-26 07:18:22.46	279.81	7.70	-25.9	-26.7	13.7	1.71e-05	0	44	102	1048576	12	3935
2026-01-26 07:18:23.46	279.69	7.64	-26.1	-27.1	13.6	1.46e-03	0	44	102	1048576	12	4039
2026-01-26 07:18:24.46	279.57	7.59	-26.2	-27.2	13.5	1.02e-05	0	44	102	1048576	12	4075
2026-01-26 07:18:25.46	279.45	7.53	-26.0	-26.9	13.7	1.53e-03	0	44	102	1048576	12	3983
2026-01-26 07:18:26.47	279.33	7.48	-26.3	-27.5	13.3	1.82e-03	0	43	102	1048576	12	4151
2026-01-26 07:18:27.47	279.21	7.42	-26.1	-27.0	13.6	6.80e-06	0	44	102	1048576	12	4022
2026-01-26 07:18:28.47	279.09	7.37	-26.4	-27.7	13.2	1.99e-03	0	44	102	1048576	12	4207
2026-01-26 07:18:29.48	278.98	7.31	-26.3	-27.5	13.3	2.05e-05	0	44	102	1048576	12	4134
2026-01-26 07:18:30.48	278.86	7.26	-26.3	-27.5	13.3	2.51e-05	0	44	102	1048576	12	4145
2026-01-26 07:18:31.49	278.74	7.20	-26.0	-26.9	13.6	6.80e-06	0	44	102	1048576	12	3996
2026-01-26 07:18:32.49	278.62	7.15	-26.2	-27.3	13.4	9.10e-06	0	44	102	1048576	12	4091
2026-01-26 07:18:33.50	278.51	7.09	-26.0	-27.0	13.6	1.83e-05	0	44	102	1048576	12	4005
2026-01-26 07:18:34.50	278.39	7.04	-32.2	-40.9	3.8	4.93e-01	0	44	104	1048576	24	9751
2026-01-26 07:18:35.51	278.27	6.98	-32.7	-42.4	3.8	8.46e-01	0	44	104	1048576	25	10927
2026-01-26 07:18:36.51	278.16	6.93	-33.1	-42.6	3.8	8.46e-01	0	44	104	1048576	26	10751

#Closed at: 2026-01-26 07:18:36
#Recorded file [1 MB]: D:/data/31010_260126_101010.dat