passes_logs/2026/01/26/R2M6_AANII_01/R2M6_AANII_01__20260126_085248_NOAA_21_JPSS-2_rec.log

#Pass ID: 20260126_085248_NOAA 21 (JPSS-2)
#Satellite: NOAA 21 (JPSS-2)
#Configuration: NOAA 21
#almurnet v.1.7.20240730
#Start time: 2026-01-26 08:52:49

#Version: 2.2.20231116
#Station: R2M6_AANII_01
#Location: 30.233357 lon 59.946436 lat
#TLE: 1 54234U 22150A   26025.79694208  .00000182  00000+0  10700-3 0  9999
#TLE: 2 54234  98.7509 326.5666 0000777 213.2444 146.8684 14.19539347166346

#Time	Az	El	Level	Level2	SNR	BER	BlckErr	Temp	State	Recorded	gain1	gain2
2026-01-26 08:52:49.72	115.66	7.06	-30.3	-35.0	4.6	1.41e+00	0	41	0	0	21	6227
2026-01-26 08:52:50.71	115.59	7.13	-30.2	-34.9	4.6	1.40e+00	0	41	104	0	21	6185
2026-01-26 08:52:51.72	115.52	7.20	-30.2	-34.1	8.5	6.35e-02	0	41	0	0	21	5641
2026-01-26 08:52:52.71	115.45	7.27	-30.5	-35.0	7.9	7.70e-02	0	41	0	2097152	21	6043
2026-01-26 08:52:53.72	115.37	7.34	-30.3	-34.2	8.5	4.12e-02	0	41	0	6291456	21	5687
2026-01-26 08:52:54.73	115.30	7.42	-30.4	-34.5	8.3	4.66e-02	0	41	0	9437184	21	5799
2026-01-26 08:52:55.73	115.23	7.49	-30.2	-34.0	8.7	3.46e-02	0	41	0	12582912	21	5544
2026-01-26 08:52:56.73	115.16	7.56	-29.9	-33.1	9.3	1.94e-02	0	41	0	15728640	21	5162
2026-01-26 08:52:57.74	115.08	7.63	-29.6	-32.4	10.1	8.21e-03	0	42	0	18874368	20	5003
2026-01-26 08:52:58.75	115.01	7.70	-29.4	-31.9	10.6	3.93e-03	0	41	0	22020096	20	4804
2026-01-26 08:52:59.75	114.94	7.77	-29.0	-31.3	11.4	7.11e-04	0	42	0	24117248	19	4698
2026-01-26 08:53:00.75	114.86	7.84	-29.0	-31.4	11.4	1.28e-03	0	42	0	27262976	19	4717
2026-01-26 08:53:01.76	114.79	7.92	-29.4	-32.4	10.7	1.98e-03	0	42	0	30408704	19	5067
2026-01-26 08:53:02.76	114.71	7.99	-29.2	-31.7	11.2	1.85e-03	0	42	0	33554432	19	4841
2026-01-26 08:53:03.76	114.64	8.06	-29.1	-31.6	11.2	1.28e-03	0	42	0	36700160	19	4782
2026-01-26 08:53:04.77	114.56	8.13	-29.2	-31.9	11.0	2.20e-03	0	42	0	40894464	19	4898
2026-01-26 08:53:05.78	114.49	8.21	-29.2	-31.7	11.2	1.21e-03	0	42	0	44040192	19	4807
2026-01-26 08:53:06.78	114.41	8.28	-29.1	-31.5	11.3	1.15e-03	0	42	0	47185920	19	4747
2026-01-26 08:53:07.78	114.33	8.35	-29.3	-32.2	10.9	2.44e-03	0	42	0	49283072	19	4988
2026-01-26 08:53:08.79	114.25	8.43	-29.2	-31.8	11.2	1.64e-03	0	42	0	52428800	19	4841
2026-01-26 08:53:09.80	114.18	8.50	-29.1	-31.4	11.4	1.32e-03	0	42	0	55574528	19	4716
2026-01-26 08:53:10.80	114.10	8.57	-29.0	-31.2	11.6	5.56e-04	0	42	0	58720256	19	4654
2026-01-26 08:53:11.81	114.02	8.65	-29.0	-31.1	11.7	5.64e-04	0	42	0	61865984	19	4606
2026-01-26 08:53:12.81	113.94	8.72	-28.7	-31.0	12.1	4.73e-04	0	42	0	65011712	18	4686
2026-01-26 08:53:13.82	113.86	8.79	-28.3	-30.3	12.8	7.17e-05	0	42	0	69206016	17	4563
2026-01-26 08:53:14.82	113.78	8.87	-28.1	-30.0	13.0	5.18e-05	0	42	0	71303168	17	4458
2026-01-26 08:53:15.83	113.70	8.94	-28.0	-29.7	13.2	3.73e-05	0	42	0	74448896	17	4364
2026-01-26 08:53:16.84	113.62	9.02	-27.9	-29.5	13.4	1.98e-05	0	42	0	77594624	17	4308
2026-01-26 08:53:17.84	113.54	9.09	-27.8	-29.2	13.5	1.22e-05	0	42	0	80740352	17	4230
2026-01-26 08:53:18.85	113.46	9.17	-27.9	-29.4	13.4	2.21e-05	0	42	0	83886080	17	4281
2026-01-26 08:53:19.85	113.38	9.24	-27.8	-29.2	13.6	7.60e-06	0	42	0	87031808	17	4217
2026-01-26 08:53:20.86	113.29	9.32	-27.8	-29.1	13.6	7.60e-06	0	42	0	90177536	17	4193
2026-01-26 08:53:21.85	113.21	9.39	-27.8	-29.7	13.5	1.29e-05	0	42	0	93323264	16	4481
2026-01-26 08:53:22.86	113.13	9.47	-27.8	-29.5	13.6	6.10e-06	0	42	0	96468992	16	4415
2026-01-26 08:53:23.86	113.04	9.54	-28.0	-30.1	13.4	1.37e-05	0	42	0	99614720	16	4581
2026-01-26 08:53:24.85	112.96	9.62	-27.8	-29.7	13.6	2.28e-05	0	42	0	102760448	16	4476
2026-01-26 08:53:25.86	112.88	9.69	-28.0	-30.2	13.3	9.90e-06	0	42	0	105906176	16	4617
2026-01-26 08:53:26.86	112.79	9.77	-27.9	-29.9	13.5	1.52e-05	0	42	0	109051904	16	4521
2026-01-26 08:53:27.86	112.71	9.85	-27.7	-29.5	13.7	5.30e-06	0	42	0	112197632	16	4402
2026-01-26 08:53:28.87	112.62	9.92	-27.8	-29.7	13.6	8.30e-06	0	42	0	115343360	16	4464
2026-01-26 08:53:29.87	112.53	10.00	-27.7	-29.3	13.8	3.80e-06	0	42	0	118489088	16	4356
2026-01-26 08:53:30.87	112.45	10.08	-27.7	-29.4	13.8	4.50e-06	0	42	0	121634816	16	4364
2026-01-26 08:53:31.87	112.36	10.15	-27.7	-29.4	13.8	4.50e-06	0	42	0	124780544	16	4371
2026-01-26 08:53:32.88	112.27	10.23	-27.8	-29.5	13.7	2.20e-06	0	42	0	127926272	16	4411
2026-01-26 08:53:33.88	112.18	10.31	-27.7	-29.4	13.8	3.80e-06	0	42	0	131072000	16	4365
2026-01-26 08:53:34.88	112.10	10.38	-27.8	-29.5	13.8	2.20e-06	0	42	0	134217728	16	4404
2026-01-26 08:53:35.89	112.01	10.46	-27.7	-29.5	13.8	1.50e-06	0	42	0	137363456	16	4390
2026-01-26 08:53:36.89	111.92	10.54	-27.8	-29.5	13.8	3.80e-06	0	42	0	140509184	16	4405
2026-01-26 08:53:37.89	111.83	10.62	-27.6	-29.2	14.0	2.20e-06	0	42	0	143654912	16	4318
2026-01-26 08:53:38.90	111.73	10.70	-28.0	-30.1	13.5	1.22e-05	0	42	0	146800640	16	4579
2026-01-26 08:53:39.89	111.64	10.77	-27.8	-29.5	13.8	3.80e-06	0	42	0	149946368	16	4405
2026-01-26 08:53:40.90	111.55	10.85	-27.9	-29.9	13.6	4.50e-06	0	42	0	153092096	16	4536
2026-01-26 08:53:41.91	111.46	10.93	-27.7	-29.4	13.9	2.20e-06	0	42	0	156237824	16	4368
2026-01-26 08:53:42.91	111.37	11.01	-27.7	-29.3	14.0	2.20e-06	0	42	0	159383552	16	4330
2026-01-26 08:53:43.92	111.27	11.09	-27.7	-29.4	13.9	0.00e+00	0	43	0	162529280	16	4357
2026-01-26 08:53:44.93	111.18	11.17	-27.7	-29.4	13.9	5.30e-06	0	42	0	165675008	16	4371
2026-01-26 08:53:45.93	111.09	11.25	-27.6	-29.2	14.0	1.50e-06	0	42	0	168820736	16	4303
2026-01-26 08:53:46.93	110.99	11.33	-27.6	-29.0	14.1	1.50e-06	0	43	0	171966464	16	4260
2026-01-26 08:53:47.94	110.89	11.41	-27.5	-28.9	14.2	7.00e-07	0	43	0	175112192	16	4211
2026-01-26 08:53:48.94	110.80	11.49	-27.4	-28.8	14.3	7.00e-07	0	43	0	178257920	16	4186
2026-01-26 08:53:49.94	110.70	11.57	-27.4	-28.7	14.3	1.50e-06	0	42	0	181403648	16	4177
2026-01-26 08:53:50.95	110.61	11.65	-27.5	-28.8	14.3	2.20e-06	0	43	0	184549376	16	4197
2026-01-26 08:53:51.95	110.51	11.73	-27.6	-29.1	14.1	7.00e-07	0	43	0	187695104	16	4289
2026-01-26 08:53:52.95	110.41	11.81	-27.6	-29.1	14.1	1.50e-06	0	43	0	190840832	16	4286
2026-01-26 08:53:53.94	110.31	11.89	-27.6	-29.0	14.2	7.00e-07	0	43	0	193986560	16	4246
2026-01-26 08:53:54.95	110.21	11.97	-27.7	-29.2	14.0	2.20e-06	0	43	0	197132288	16	4325
2026-01-26 08:53:55.95	110.11	12.05	-27.8	-29.7	13.8	3.80e-06	0	43	0	200278016	16	4443
2026-01-26 08:53:56.95	110.01	12.13	-27.6	-29.0	14.2	1.50e-06	0	43	0	203423744	16	4259
2026-01-26 08:53:57.95	109.91	12.22	-27.6	-29.1	14.2	1.50e-06	0	43	0	206569472	16	4271
2026-01-26 08:53:58.95	109.81	12.30	-27.7	-29.4	14.0	2.20e-06	0	43	0	209715200	16	4373
2026-01-26 08:53:59.96	109.71	12.38	-27.6	-29.0	14.2	2.20e-06	0	43	0	212860928	16	4247
2026-01-26 08:54:00.96	109.61	12.46	-27.7	-29.3	14.1	7.00e-07	0	43	0	216006656	16	4319
2026-01-26 08:54:01.96	109.51	12.54	-27.4	-28.5	14.5	0.00e+00	0	43	0	219152384	16	4120
2026-01-26 08:54:02.96	109.40	12.63	-27.4	-28.6	14.5	1.50e-06	0	43	0	222298112	16	4145
2026-01-26 08:54:03.97	109.30	12.71	-27.7	-29.3	14.1	3.00e-06	0	43	0	225443840	16	4321
2026-01-26 08:54:04.98	109.19	12.79	-27.4	-28.7	14.4	0.00e+00	0	43	0	228589568	16	4150
2026-01-26 08:54:05.98	109.09	12.88	-27.1	-28.4	14.7	7.00e-07	0	43	0	231735296	15	4188
2026-01-26 08:54:06.98	108.98	12.96	-27.0	-28.3	14.7	7.00e-07	0	43	0	234881024	15	4174
2026-01-26 08:54:07.98	108.87	13.04	-27.1	-28.4	14.7	0.00e+00	0	43	0	238026752	15	4180
2026-01-26 08:54:08.99	108.77	13.13	-27.0	-28.3	14.8	7.00e-07	0	43	0	241172480	15	4159
2026-01-26 08:54:09.99	108.66	13.21	-27.1	-28.5	14.7	0.00e+00	0	43	0	244318208	15	4227
2026-01-26 08:54:10.99	108.55	13.29	-27.1	-28.3	14.8	0.00e+00	0	43	0	247463936	15	4176
2026-01-26 08:54:12.00	108.44	13.38	-27.5	-29.4	14.2	7.00e-07	0	43	0	250609664	15	4473
2026-01-26 08:54:12.99	108.33	13.46	-27.2	-28.6	14.6	0.00e+00	0	43	0	253755392	15	4242
2026-01-26 08:54:14.00	108.22	13.55	-27.0	-28.3	14.8	7.00e-07	0	43	0	256901120	15	4152
2026-01-26 08:54:15.00	108.11	13.63	-27.0	-28.3	14.8	0.00e+00	0	43	0	260046848	15	4157
2026-01-26 08:54:16.00	108.00	13.72	-26.9	-28.1	14.9	0.00e+00	0	43	0	263192576	15	4107
2026-01-26 08:54:17.01	107.88	13.80	-27.1	-28.4	14.7	0.00e+00	0	43	0	266338304	15	4207
2026-01-26 08:54:18.01	107.77	13.89	-26.9	-28.0	15.0	0.00e+00	0	43	0	269484032	15	4078
2026-01-26 08:54:19.01	107.66	13.97	-26.9	-27.9	15.0	7.00e-07	0	43	0	272629760	15	4066
2026-01-26 08:54:20.01	107.54	14.06	-26.8	-28.2	15.1	0.00e+00	0	43	0	275775488	14	4239
2026-01-26 08:54:21.02	107.43	14.14	-27.0	-28.6	14.9	0.00e+00	0	43	0	278921216	14	4359
2026-01-26 08:54:22.02	107.31	14.23	-26.8	-28.3	15.1	0.00e+00	0	43	0	282066944	14	4273
2026-01-26 08:54:23.03	107.20	14.32	-26.9	-28.4	15.0	0.00e+00	0	43	0	285212672	14	4295
2026-01-26 08:54:24.03	107.08	14.40	-26.8	-28.2	15.1	0.00e+00	0	43	0	288358400	14	4247
2026-01-26 08:54:25.03	106.96	14.49	-26.9	-28.4	15.1	0.00e+00	0	43	0	291504128	14	4286
2026-01-26 08:54:26.03	106.84	14.58	-26.7	-28.1	15.2	0.00e+00	0	43	0	294649856	14	4219
2026-01-26 08:54:27.04	106.72	14.66	-26.9	-28.4	15.1	6.10e-06	0	43	0	297795584	14	4298
2026-01-26 08:54:28.04	106.60	14.75	-27.2	-29.1	14.7	0.00e+00	0	43	0	300941312	14	4494
2026-01-26 08:54:29.04	106.48	14.84	-27.2	-29.1	14.6	0.00e+00	0	43	0	304087040	14	4502
2026-01-26 08:54:30.04	106.36	14.92	-27.1	-29.0	14.7	7.00e-07	0	43	0	307232768	14	4463
2026-01-26 08:54:31.03	106.24	15.01	-27.1	-29.0	14.8	7.00e-07	0	43	0	310378496	14	4466
2026-01-26 08:54:32.04	106.12	15.10	-27.1	-29.1	14.7	7.00e-07	0	43	0	313524224	14	4493
2026-01-26 08:54:33.04	105.99	15.19	-27.1	-29.0	14.7	5.30e-06	0	43	0	316669952	14	4484
2026-01-26 08:54:34.05	105.87	15.28	-27.2	-29.1	14.6	7.00e-07	0	43	0	319815680	14	4516
2026-01-26 08:54:35.05	105.74	15.36	-27.1	-29.0	14.7	7.00e-07	0	43	0	322961408	14	4475
2026-01-26 08:54:36.06	105.62	15.45	-27.5	-29.9	14.2	3.80e-06	0	43	0	325058560	14	4737
2026-01-26 08:54:37.06	105.49	15.54	-27.2	-29.2	14.6	0.00e+00	0	43	0	328204288	14	4538
2026-01-26 08:54:38.06	105.36	15.63	-27.0	-28.8	14.9	0.00e+00	0	43	0	331350016	14	4416
2026-01-26 08:54:39.07	105.24	15.72	-27.1	-28.9	14.8	0.00e+00	0	43	0	335544320	14	4428
2026-01-26 08:54:40.06	105.11	15.81	-27.1	-28.8	14.9	0.00e+00	0	43	0	337641472	14	4420
2026-01-26 08:54:41.06	104.98	15.90	-27.3	-29.5	14.6	0.00e+00	0	43	0	340787200	14	4601
2026-01-26 08:54:42.06	104.85	15.99	-27.1	-28.9	14.9	1.50e-06	0	43	0	343932928	14	4427
2026-01-26 08:54:43.07	104.72	16.08	-27.2	-29.1	14.8	0.00e+00	0	43	0	348127232	14	4483
2026-01-26 08:54:44.07	104.58	16.17	-27.1	-28.9	14.9	0.00e+00	0	43	0	350224384	14	4448
2026-01-26 08:54:45.07	104.45	16.26	-27.2	-29.3	14.6	1.50e-06	0	43	0	353370112	14	4541
2026-01-26 08:54:46.07	104.32	16.35	-27.2	-29.1	14.8	0.00e+00	0	43	0	356515840	14	4493
2026-01-26 08:54:47.06	104.19	16.44	-27.1	-29.0	14.8	0.00e+00	0	43	0	359661568	14	4467
2026-01-26 08:54:48.06	104.05	16.53	-27.0	-28.7	15.0	1.50e-06	0	43	0	362807296	14	4367
2026-01-26 08:54:49.07	103.91	16.62	-27.1	-28.9	14.9	0.00e+00	0	43	0	365953024	14	4428
2026-01-26 08:54:50.07	103.78	16.71	-27.1	-28.9	14.9	0.00e+00	0	43	0	369098752	14	4429
2026-01-26 08:54:51.07	103.64	16.80	-27.1	-29.0	14.9	0.00e+00	0	43	0	372244480	14	4452
2026-01-26 08:54:52.08	103.50	16.89	-27.2	-29.1	14.8	0.00e+00	0	43	0	375390208	14	4498
2026-01-26 08:54:53.08	103.36	16.98	-27.0	-28.7	15.0	7.00e-07	0	43	0	378535936	14	4369
2026-01-26 08:54:54.08	103.22	17.08	-27.0	-28.6	15.1	0.00e+00	0	43	0	381681664	14	4347
2026-01-26 08:54:55.08	103.08	17.17	-27.1	-28.9	15.0	0.00e+00	0	43	0	384827392	14	4419
2026-01-26 08:54:56.09	102.94	17.26	-26.9	-28.4	15.2	0.00e+00	0	43	0	387973120	14	4278
2026-01-26 08:54:57.09	102.79	17.35	-27.1	-28.9	14.9	7.00e-07	0	43	0	391118848	14	4441
2026-01-26 08:54:58.09	102.65	17.44	-27.0	-28.6	15.1	0.00e+00	0	43	0	394264576	14	4345
2026-01-26 08:54:59.09	102.50	17.54	-26.9	-28.4	15.2	0.00e+00	0	43	0	397410304	14	4285
2026-01-26 08:55:00.09	102.36	17.63	-26.9	-28.4	15.2	0.00e+00	0	43	0	400556032	14	4292
2026-01-26 08:55:01.09	102.21	17.72	-26.9	-28.4	15.3	0.00e+00	0	43	0	403701760	14	4295
2026-01-26 08:55:02.09	102.07	17.81	-26.9	-28.5	15.2	0.00e+00	0	43	0	406847488	14	4317
2026-01-26 08:55:03.09	101.92	17.91	-26.9	-28.4	15.3	0.00e+00	0	43	0	409993216	14	4274
2026-01-26 08:55:04.08	101.77	18.00	-26.8	-28.3	15.3	0.00e+00	0	43	0	413138944	14	4250
2026-01-26 08:55:05.08	101.62	18.09	-26.9	-28.5	15.2	0.00e+00	0	43	0	416284672	14	4302
2026-01-26 08:55:06.08	101.47	18.19	-26.8	-28.3	15.3	0.00e+00	0	43	0	419430400	14	4252
2026-01-26 08:55:07.09	101.32	18.28	-26.9	-28.4	15.3	0.00e+00	0	43	0	422576128	14	4296
2026-01-26 08:55:08.09	101.16	18.37	-26.7	-28.0	15.5	0.00e+00	0	43	0	425721856	14	4179
2026-01-26 08:55:09.10	101.01	18.47	-26.8	-28.2	15.4	0.00e+00	0	43	0	428867584	14	4225
2026-01-26 08:55:10.10	100.85	18.56	-26.7	-27.9	15.6	0.00e+00	0	43	0	432013312	14	4156
2026-01-26 08:55:11.10	100.70	18.66	-26.8	-28.3	15.4	0.00e+00	0	43	0	435159040	14	4259
2026-01-26 08:55:12.11	100.54	18.75	-26.8	-28.2	15.4	0.00e+00	0	43	0	438304768	14	4226
2026-01-26 08:55:13.11	100.38	18.85	-26.7	-28.0	15.5	0.00e+00	0	43	0	441450496	14	4177
2026-01-26 08:55:14.11	100.22	18.94	-26.8	-28.1	15.5	0.00e+00	0	43	0	444596224	14	4198
2026-01-26 08:55:15.11	100.06	19.04	-26.7	-28.0	15.6	0.00e+00	0	43	0	447741952	14	4165
2026-01-26 08:55:16.11	99.90	19.13	-27.0	-28.6	15.2	0.00e+00	0	43	0	450887680	14	4337
2026-01-26 08:55:17.11	99.74	19.22	-26.8	-28.1	15.5	7.00e-07	0	43	0	454033408	14	4214
2026-01-26 08:55:18.11	99.58	19.32	-26.7	-28.1	15.5	0.00e+00	0	44	0	457179136	14	4190
2026-01-26 08:55:19.11	99.41	19.41	-26.9	-28.3	15.4	0.00e+00	0	43	0	460324864	14	4267
2026-01-26 08:55:20.11	99.25	19.51	-26.7	-27.9	15.6	0.00e+00	0	43	0	463470592	14	4142
2026-01-26 08:55:21.12	99.08	19.61	-26.5	-27.5	15.9	0.00e+00	0	43	0	466616320	14	4027
2026-01-26 08:55:22.12	98.92	19.70	-26.6	-27.8	15.7	0.00e+00	0	43	0	469762048	14	4123
2026-01-26 08:55:23.13	98.75	19.80	-26.7	-28.0	15.6	0.00e+00	0	43	0	472907776	14	4179
2026-01-26 08:55:24.12	98.58	19.89	-27.0	-28.7	15.2	0.00e+00	0	43	0	476053504	14	4358
2026-01-26 08:55:25.13	98.41	19.99	-26.9	-28.3	15.4	0.00e+00	0	43	0	479199232	14	4262
2026-01-26 08:55:26.13	98.24	20.09	-26.8	-28.1	15.5	0.00e+00	0	43	0	482344960	14	4212
2026-01-26 08:55:27.13	98.06	20.18	-26.8	-28.2	15.5	0.00e+00	0	43	0	485490688	14	4220
2026-01-26 08:55:28.13	97.89	20.28	-26.7	-28.0	15.6	0.00e+00	0	43	0	488636416	14	4181
2026-01-26 08:55:29.14	97.71	20.37	-26.7	-27.9	15.7	0.00e+00	0	43	0	491782144	14	4131
2026-01-26 08:55:30.14	97.54	20.47	-26.6	-27.6	15.8	0.00e+00	0	43	0	494927872	14	4077
2026-01-26 08:55:31.14	97.36	20.57	-26.8	-28.2	15.5	0.00e+00	0	43	0	498073600	14	4213
2026-01-26 08:55:32.14	97.18	20.66	-26.5	-27.6	15.9	0.00e+00	0	43	0	501219328	14	4059
2026-01-26 08:55:33.14	97.00	20.76	-26.4	-27.4	16.0	0.00e+00	0	44	0	504365056	14	4005
2026-01-26 08:55:34.14	96.82	20.86	-26.4	-27.4	16.0	0.00e+00	0	43	0	507510784	14	3999
2026-01-26 08:55:35.14	96.64	20.95	-26.5	-27.4	16.0	0.00e+00	0	43	0	510656512	14	4018
2026-01-26 08:55:36.15	96.46	21.05	-26.6	-27.8	15.8	0.00e+00	0	43	0	513802240	14	4107
2026-01-26 08:55:37.16	96.27	21.15	-26.5	-27.4	16.0	0.00e+00	0	43	0	516947968	14	4013
2026-01-26 08:55:38.16	96.09	21.24	-26.4	-27.2	16.1	0.00e+00	0	43	0	520093696	14	3965
2026-01-26 08:55:39.16	95.90	21.34	-26.6	-27.6	15.9	0.00e+00	0	43	0	523239424	14	4073
2026-01-26 08:55:40.15	95.72	21.44	-26.4	-27.2	16.1	0.00e+00	0	43	0	526385152	14	3967
2026-01-26 08:55:41.16	95.53	21.54	-26.3	-27.1	16.2	0.00e+00	0	43	0	529530880	14	3946
2026-01-26 08:55:42.16	95.34	21.63	-26.4	-27.2	16.1	0.00e+00	0	43	0	531628032	14	3953
2026-01-26 08:55:43.17	95.15	21.73	-26.2	-27.4	16.3	0.00e+00	0	43	0	535822336	13	4117
2026-01-26 08:55:44.18	94.95	21.83	-26.2	-27.3	16.3	0.00e+00	0	43	0	538968064	13	4086
2026-01-26 08:55:45.18	94.76	21.93	-26.3	-27.6	16.2	0.00e+00	0	43	0	542113792	13	4160
2026-01-26 08:55:46.19	94.56	22.02	-26.3	-27.6	16.2	0.00e+00	0	43	0	545259520	13	4158
2026-01-26 08:55:47.19	94.37	22.12	-26.5	-28.0	16.0	0.00e+00	0	43	0	548405248	13	4274
2026-01-26 08:55:48.19	94.17	22.22	-26.4	-27.8	16.1	0.00e+00	0	43	0	551550976	13	4208
2026-01-26 08:55:49.19	93.97	22.31	-26.5	-27.9	16.0	0.00e+00	0	43	0	554696704	13	4258
2026-01-26 08:55:50.19	93.77	22.41	-26.5	-28.1	15.9	0.00e+00	0	44	0	556793856	13	4299
2026-01-26 08:55:51.19	93.57	22.51	-26.3	-27.5	16.2	0.00e+00	0	44	0	559939584	13	4134
2026-01-26 08:55:52.19	93.37	22.61	-26.2	-27.4	16.3	0.00e+00	0	43	0	563085312	13	4115
2026-01-26 08:55:53.20	93.17	22.70	-26.3	-27.5	16.2	0.00e+00	0	43	0	566231040	13	4142
2026-01-26 08:55:54.20	92.96	22.80	-26.3	-27.6	16.2	0.00e+00	0	44	0	569376768	13	4156
2026-01-26 08:55:55.20	92.76	22.90	-26.5	-28.0	15.9	0.00e+00	0	44	0	572522496	13	4279
2026-01-26 08:55:56.20	92.55	22.99	-26.4	-27.9	16.0	1.50e-06	0	43	0	575668224	13	4243
2026-01-26 08:55:57.20	92.34	23.09	-26.5	-28.0	15.9	0.00e+00	0	44	0	578813952	13	4289
2026-01-26 08:55:58.20	92.13	23.19	-26.4	-27.7	16.1	0.00e+00	0	43	0	581959680	13	4189
2026-01-26 08:55:59.21	91.92	23.29	-26.2	-27.2	16.4	0.00e+00	0	43	0	585105408	13	4070
2026-01-26 08:56:00.21	91.71	23.38	-26.1	-27.0	16.5	0.00e+00	0	43	0	588251136	13	4015
2026-01-26 08:56:01.22	91.49	23.48	-26.1	-27.1	16.5	0.00e+00	0	43	0	591396864	13	4033
2026-01-26 08:56:02.22	91.28	23.58	-26.0	-26.7	16.7	0.00e+00	0	43	0	594542592	13	3942
2026-01-26 08:56:03.22	91.06	23.67	-25.9	-26.7	16.7	0.00e+00	0	43	0	597688320	13	3922
2026-01-26 08:56:04.22	90.84	23.77	-26.0	-26.8	16.7	0.00e+00	0	43	0	600834048	13	3966
2026-01-26 08:56:05.23	90.62	23.87	-26.0	-26.8	16.6	1.50e-06	0	43	0	603979776	13	3961
2026-01-26 08:56:06.22	90.40	23.96	-26.1	-27.1	16.5	0.00e+00	0	43	0	607125504	13	4041
2026-01-26 08:56:07.22	90.18	24.06	-26.2	-27.3	16.4	0.00e+00	0	43	0	610271232	13	4092
2026-01-26 08:56:08.22	89.96	24.15	-26.1	-27.0	16.5	3.80e-06	0	43	0	613416960	13	4012
2026-01-26 08:56:09.22	89.74	24.25	-26.0	-26.8	16.6	0.00e+00	0	44	0	616562688	13	3968
2026-01-26 08:56:10.22	89.51	24.35	-26.1	-27.1	16.5	0.00e+00	0	43	0	619708416	13	4036
2026-01-26 08:56:11.23	89.28	24.44	-26.3	-27.4	16.3	0.00e+00	0	44	0	622854144	13	4119
2026-01-26 08:56:12.23	89.05	24.54	-26.2	-27.3	16.4	0.00e+00	0	44	0	625999872	13	4091
2026-01-26 08:56:13.23	88.82	24.63	-26.3	-27.5	16.3	0.00e+00	0	43	0	629145600	13	4138
2026-01-26 08:56:14.24	88.59	24.73	-26.5	-27.9	16.1	0.00e+00	0	43	0	632291328	13	4242
2026-01-26 08:56:15.25	88.35	24.82	-26.6	-28.1	16.0	0.00e+00	0	43	0	635437056	13	4305
2026-01-26 08:56:16.25	88.12	24.92	-26.7	-28.4	15.8	0.00e+00	0	43	0	638582784	13	4369
2026-01-26 08:56:17.26	87.88	25.01	-26.5	-28.0	16.0	0.00e+00	0	43	0	641728512	13	4283
2026-01-26 08:56:18.26	87.64	25.11	-26.5	-28.1	16.0	0.00e+00	0	44	0	644874240	13	4292
2026-01-26 08:56:19.26	87.41	25.20	-26.7	-28.5	15.8	0.00e+00	0	43	0	648019968	13	4402
2026-01-26 08:56:20.27	87.16	25.30	-26.7	-28.3	15.8	0.00e+00	0	43	0	651165696	13	4357
2026-01-26 08:56:21.27	86.92	25.39	-26.7	-28.3	15.8	0.00e+00	0	43	0	654311424	13	4368
2026-01-26 08:56:22.27	86.68	25.49	-26.7	-28.4	15.8	0.00e+00	0	43	0	657457152	13	4380
2026-01-26 08:56:23.27	86.44	25.58	-26.6	-28.2	15.9	0.00e+00	0	44	0	660602880	13	4340
2026-01-26 08:56:24.27	86.19	25.67	-26.8	-28.6	15.7	0.00e+00	0	43	0	663748608	13	4428
2026-01-26 08:56:25.27	85.94	25.76	-26.8	-28.7	15.6	0.00e+00	0	43	0	666894336	13	4472
2026-01-26 08:56:26.27	85.69	25.86	-26.5	-28.0	16.0	0.00e+00	0	44	0	670040064	13	4261
2026-01-26 08:56:27.27	85.44	25.95	-26.2	-27.4	16.3	0.00e+00	0	43	0	673185792	13	4109
2026-01-26 08:56:28.28	85.19	26.04	-26.3	-27.4	16.3	0.00e+00	0	43	0	676331520	13	4121
2026-01-26 08:56:29.28	84.94	26.13	-26.3	-27.6	16.2	0.00e+00	0	43	0	679477248	13	4160
2026-01-26 08:56:30.27	84.69	26.22	-26.4	-27.7	16.2	0.00e+00	0	44	0	682622976	13	4200
2026-01-26 08:56:31.28	84.43	26.32	-26.5	-27.9	16.0	0.00e+00	0	43	0	685768704	13	4236
2026-01-26 08:56:32.28	84.17	26.41	-26.5	-28.1	16.0	0.00e+00	0	43	0	688914432	13	4290
2026-01-26 08:56:33.28	83.91	26.50	-26.6	-28.2	15.8	0.00e+00	0	43	0	692060160	13	4337
2026-01-26 08:56:34.28	83.65	26.59	-26.6	-28.1	15.9	0.00e+00	0	43	0	695205888	13	4301
2026-01-26 08:56:35.28	83.39	26.68	-26.6	-28.1	15.9	0.00e+00	0	43	0	698351616	13	4309
2026-01-26 08:56:36.28	83.13	26.77	-26.5	-27.9	16.0	0.00e+00	0	43	0	701497344	13	4257
2026-01-26 08:56:37.29	82.86	26.86	-26.5	-28.0	16.0	0.00e+00	0	43	0	704643072	13	4277
2026-01-26 08:56:38.29	82.59	26.94	-26.6	-28.2	15.9	0.00e+00	0	43	0	707788800	13	4327
2026-01-26 08:56:39.29	82.32	27.03	-26.7	-28.3	15.9	0.00e+00	0	43	0	710934528	13	4361
2026-01-26 08:56:40.29	82.06	27.12	-26.8	-28.6	15.7	0.00e+00	0	43	0	714080256	13	4426
2026-01-26 08:56:41.29	81.78	27.21	-26.7	-28.5	15.7	0.00e+00	0	43	0	717225984	13	4415
2026-01-26 08:56:42.30	81.51	27.29	-26.7	-28.4	15.8	0.00e+00	0	43	0	720371712	13	4393
2026-01-26 08:56:43.30	81.24	27.38	-26.7	-28.5	15.8	0.00e+00	0	44	0	723517440	13	4396
2026-01-26 08:56:44.30	80.96	27.47	-26.8	-28.6	15.7	0.00e+00	0	43	0	726663168	13	4436
2026-01-26 08:56:45.31	80.68	27.55	-26.8	-28.6	15.7	0.00e+00	0	44	0	729808896	13	4428
2026-01-26 08:56:46.31	80.40	27.64	-26.8	-28.7	15.6	0.00e+00	0	44	0	732954624	13	4480
2026-01-26 08:56:47.32	80.12	27.72	-26.9	-28.8	15.6	0.00e+00	0	43	0	736100352	13	4502
2026-01-26 08:56:48.33	79.84	27.81	-26.8	-28.7	15.7	0.00e+00	0	43	0	739246080	13	4467
2026-01-26 08:56:49.33	79.55	27.89	-26.9	-28.8	15.6	0.00e+00	0	44	0	742391808	13	4503
2026-01-26 08:56:50.33	79.27	27.97	-27.2	-29.0	15.3	0.00e+00	0	43	0	745537536	14	4433
2026-01-26 08:56:51.34	78.98	28.06	-27.3	-29.2	15.1	0.00e+00	0	44	0	748683264	14	4503
2026-01-26 08:56:52.34	78.69	28.14	-27.1	-28.9	15.4	0.00e+00	0	43	0	751828992	14	4397
2026-01-26 08:56:53.34	78.41	28.22	-26.9	-28.4	15.7	0.00e+00	0	44	0	754974720	14	4250
2026-01-26 08:56:54.34	78.12	28.30	-26.8	-28.1	15.8	0.00e+00	0	44	0	758120448	14	4176
2026-01-26 08:56:55.35	77.82	28.38	-26.9	-28.3	15.7	0.00e+00	0	43	0	761266176	14	4230
2026-01-26 08:56:56.34	77.53	28.46	-27.0	-28.5	15.6	0.00e+00	0	44	0	764411904	14	4298
2026-01-26 08:56:57.35	77.23	28.54	-26.9	-28.3	15.7	0.00e+00	0	43	0	767557632	14	4248
2026-01-26 08:56:58.35	76.94	28.62	-26.8	-28.2	15.8	0.00e+00	0	43	0	770703360	14	4194
2026-01-26 08:56:59.36	76.64	28.70	-26.8	-28.0	15.9	0.00e+00	0	43	0	773849088	14	4161
2026-01-26 08:57:00.36	76.34	28.77	-26.6	-27.6	16.1	0.00e+00	0	43	0	776994816	14	4048
2026-01-26 08:57:01.36	76.04	28.85	-26.6	-27.6	16.1	7.00e-07	0	43	0	780140544	14	4052
2026-01-26 08:57:02.37	75.74	28.93	-26.7	-27.9	15.9	0.00e+00	0	44	0	783286272	14	4133
2026-01-26 08:57:03.37	75.43	29.00	-27.0	-28.5	15.6	0.00e+00	0	44	0	786432000	14	4276
2026-01-26 08:57:04.38	75.12	29.07	-26.9	-28.2	15.7	7.00e-07	0	44	0	789577728	14	4221
2026-01-26 08:57:05.38	74.82	29.15	-26.9	-28.4	15.7	0.00e+00	0	44	0	792723456	14	4274
2026-01-26 08:57:06.38	74.51	29.22	-26.9	-28.3	15.7	0.00e+00	0	44	0	795869184	14	4232
2026-01-26 08:57:07.39	74.20	29.29	-27.1	-28.8	15.5	0.00e+00	0	44	0	799014912	14	4363
2026-01-26 08:57:08.39	73.89	29.36	-27.1	-28.9	15.4	7.00e-07	0	44	0	802160640	14	4383
2026-01-26 08:57:09.39	73.58	29.44	-27.1	-28.7	15.5	0.00e+00	0	43	0	805306368	14	4332
2026-01-26 08:57:10.40	73.26	29.51	-27.1	-28.7	15.5	0.00e+00	0	44	0	807403520	14	4356
2026-01-26 08:57:11.40	72.95	29.57	-27.0	-28.6	15.6	1.50e-06	0	44	0	810549248	14	4317
2026-01-26 08:57:12.41	72.63	29.64	-27.0	-28.5	15.6	0.00e+00	0	44	0	813694976	14	4298
2026-01-26 08:57:13.41	72.31	29.71	-27.0	-28.6	15.6	0.00e+00	0	44	0	816840704	14	4305
2026-01-26 08:57:14.42	71.99	29.78	-27.1	-28.8	15.4	0.00e+00	0	43	0	821035008	14	4372
2026-01-26 08:57:15.42	71.67	29.84	-27.1	-28.8	15.5	0.00e+00	0	44	0	824180736	14	4367
2026-01-26 08:57:16.43	71.35	29.91	-27.2	-29.1	15.3	0.00e+00	0	43	0	827326464	14	4449
2026-01-26 08:57:17.43	71.03	29.97	-27.3	-29.3	15.2	0.00e+00	0	43	0	830472192	14	4517
2026-01-26 08:57:18.43	70.70	30.03	-27.4	-29.5	15.1	1.50e-06	0	43	0	832569344	14	4573
2026-01-26 08:57:19.43	70.38	30.10	-27.4	-29.4	15.1	7.00e-07	0	43	0	835715072	14	4532
2026-01-26 08:57:20.44	70.05	30.16	-27.1	-28.8	15.5	7.00e-07	0	44	0	838860800	14	4364
2026-01-26 08:57:21.44	69.72	30.22	-27.1	-28.8	15.5	1.50e-06	0	44	0	842006528	14	4354
2026-01-26 08:57:22.44	69.40	30.28	-27.3	-29.2	15.3	7.60e-06	0	44	0	845152256	14	4487
2026-01-26 08:57:23.44	69.07	30.34	-27.3	-29.1	15.3	0.00e+00	0	44	0	848297984	14	4465
2026-01-26 08:57:24.45	68.73	30.39	-27.2	-29.1	15.3	0.00e+00	0	44	0	851443712	14	4455
2026-01-26 08:57:25.45	68.40	30.45	-27.3	-29.3	15.2	0.00e+00	0	44	0	854589440	14	4528
2026-01-26 08:57:26.45	68.07	30.51	-27.3	-29.3	15.2	7.00e-07	0	44	0	857735168	14	4515
2026-01-26 08:57:27.46	67.73	30.56	-27.2	-28.9	15.4	0.00e+00	0	43	0	860880896	14	4399
2026-01-26 08:57:28.46	67.39	30.61	-27.2	-28.9	15.4	1.50e-06	0	44	0	864026624	14	4401
2026-01-26 08:57:29.46	67.06	30.67	-27.2	-29.0	15.4	7.00e-07	0	44	0	867172352	14	4421
2026-01-26 08:57:30.46	66.72	30.72	-27.3	-29.3	15.2	0.00e+00	0	43	0	870318080	14	4510
2026-01-26 08:57:31.46	66.38	30.77	-27.4	-29.5	15.2	7.00e-07	0	44	0	873463808	14	4568
2026-01-26 08:57:32.47	66.04	30.82	-27.3	-29.3	15.2	0.00e+00	0	43	0	876609536	14	4526
2026-01-26 08:57:33.47	65.70	30.87	-27.4	-29.4	15.2	0.00e+00	0	44	0	879755264	14	4532
2026-01-26 08:57:34.47	65.36	30.91	-27.5	-29.1	15.0	5.30e-06	0	43	0	882900992	15	4362
2026-01-26 08:57:35.47	65.02	30.96	-27.5	-29.3	14.9	0.00e+00	0	44	0	886046720	15	4405
2026-01-26 08:57:36.47	64.67	31.00	-27.7	-29.6	14.8	7.00e-07	0	44	0	889192448	15	4480
2026-01-26 08:57:37.48	64.32	31.05	-27.7	-29.6	14.8	2.20e-06	0	44	0	892338176	15	4499
2026-01-26 08:57:38.48	63.98	31.09	-27.6	-29.5	14.9	7.00e-07	0	44	0	895483904	15	4460
2026-01-26 08:57:39.49	63.63	31.13	-27.5	-29.1	15.1	0.00e+00	0	44	0	898629632	15	4339
2026-01-26 08:57:40.49	63.28	31.17	-27.4	-29.0	15.1	3.80e-06	0	44	0	901775360	15	4318
2026-01-26 08:57:41.49	62.93	31.21	-27.5	-29.2	15.0	0.00e+00	0	44	0	904921088	15	4366
2026-01-26 08:57:42.50	62.58	31.25	-27.4	-28.9	15.2	0.00e+00	0	44	0	908066816	15	4286
2026-01-26 08:57:43.50	62.23	31.29	-27.3	-28.8	15.3	4.50e-06	0	44	0	911212544	15	4256
2026-01-26 08:57:44.49	61.89	31.32	-27.4	-28.9	15.2	0.00e+00	0	43	0	914358272	15	4280
2026-01-26 08:57:45.50	61.53	31.36	-27.3	-28.8	15.2	0.00e+00	0	44	0	917504000	15	4262
2026-01-26 08:57:46.49	61.18	31.39	-27.1	-28.2	15.6	0.00e+00	0	44	0	920649728	15	4084
2026-01-26 08:57:47.49	60.83	31.42	-27.1	-28.1	15.6	0.00e+00	0	44	0	923795456	15	4077
2026-01-26 08:57:48.49	60.48	31.46	-27.2	-28.5	15.5	0.00e+00	0	44	0	926941184	15	4171
2026-01-26 08:57:49.49	60.12	31.49	-27.2	-28.5	15.4	5.30e-06	0	44	0	930086912	15	4185
2026-01-26 08:57:50.49	59.77	31.51	-27.0	-28.0	15.7	0.00e+00	0	44	0	933232640	15	4031
2026-01-26 08:57:51.50	59.41	31.54	-27.0	-28.0	15.7	0.00e+00	0	44	0	936378368	15	4027
2026-01-26 08:57:52.50	59.05	31.57	-27.2	-28.5	15.5	7.00e-07	0	44	0	939524096	15	4165
2026-01-26 08:57:53.50	58.70	31.59	-27.4	-28.9	15.2	0.00e+00	0	44	0	942669824	15	4290
2026-01-26 08:57:54.50	58.34	31.62	-27.5	-29.1	15.1	0.00e+00	0	44	0	945815552	15	4331
2026-01-26 08:57:55.51	57.98	31.64	-27.4	-28.8	15.3	0.00e+00	0	44	0	948961280	15	4265
2026-01-26 08:57:56.52	57.62	31.66	-27.4	-29.0	15.1	7.00e-07	0	44	0	952107008	15	4320
2026-01-26 08:57:57.52	57.26	31.68	-27.5	-29.3	15.1	0.00e+00	0	44	0	955252736	15	4386
2026-01-26 08:57:58.52	56.90	31.70	-27.5	-29.2	15.0	7.00e-07	0	44	0	958398464	15	4368
2026-01-26 08:57:59.52	56.54	31.72	-27.6	-29.5	14.9	0.00e+00	0	44	0	961544192	15	4445
2026-01-26 08:58:00.52	56.18	31.73	-27.7	-29.5	14.9	0.00e+00	0	43	0	964689920	15	4469
2026-01-26 08:58:01.52	55.82	31.75	-27.8	-29.8	14.7	0.00e+00	0	44	0	967835648	15	4557
2026-01-26 08:58:02.53	55.46	31.76	-27.8	-30.0	14.6	0.00e+00	0	44	0	970981376	15	4593
2026-01-26 08:58:03.54	55.10	31.78	-27.9	-30.2	14.5	0.00e+00	0	43	0	974127104	15	4655
2026-01-26 08:58:04.54	54.73	31.79	-28.2	-30.3	14.3	0.00e+00	0	44	0	977272832	16	4573
2026-01-26 08:58:05.55	54.37	31.80	-28.3	-30.4	14.2	7.00e-07	0	44	0	980418560	16	4603
2026-01-26 08:58:06.55	54.01	31.81	-28.0	-29.8	14.6	1.50e-06	0	44	0	983564288	16	4408
2026-01-26 08:58:07.55	53.65	31.81	-27.9	-29.6	14.7	0.00e+00	0	44	0	986710016	16	4372
2026-01-26 08:58:08.56	53.28	31.82	-28.0	-29.7	14.6	0.00e+00	0	44	0	989855744	16	4400
2026-01-26 08:58:09.56	52.92	31.82	-28.0	-29.8	14.6	7.00e-07	0	44	0	993001472	16	4412
2026-01-26 08:58:10.56	52.56	31.83	-27.9	-29.6	14.7	0.00e+00	0	44	0	996147200	16	4368
2026-01-26 08:58:11.56	52.20	31.83	-28.0	-29.7	14.7	7.00e-07	0	44	0	999292928	16	4383
2026-01-26 08:58:12.56	51.84	31.83	-28.0	-29.8	14.6	7.00e-07	0	44	0	1002438656	16	4422
2026-01-26 08:58:13.57	51.47	31.83	-28.2	-30.1	14.4	7.00e-07	0	43	0	1005584384	16	4521
2026-01-26 08:58:14.57	51.11	31.83	-28.2	-30.1	14.4	7.00e-07	0	43	0	1008730112	16	4519
2026-01-26 08:58:15.57	50.75	31.83	-28.0	-29.7	14.7	1.50e-06	0	44	0	1011875840	16	4394
2026-01-26 08:58:16.57	50.39	31.82	-27.8	-29.2	14.9	0.00e+00	0	44	0	1015021568	16	4262
2026-01-26 08:58:17.57	50.02	31.82	-27.5	-28.7	15.2	0.00e+00	0	44	0	1018167296	16	4115
2026-01-26 08:58:18.57	49.66	31.81	-27.4	-28.5	15.4	0.00e+00	0	43	0	1021313024	16	4047
2026-01-26 08:58:19.57	49.30	31.80	-27.5	-28.7	15.3	0.00e+00	0	44	0	1024458752	16	4102
2026-01-26 08:58:20.57	48.94	31.79	-27.5	-28.6	15.3	0.00e+00	0	44	0	1027604480	16	4098
2026-01-26 08:58:21.57	48.58	31.78	-27.5	-28.5	15.3	0.00e+00	0	44	0	1030750208	16	4069
2026-01-26 08:58:22.57	48.22	31.77	-27.5	-28.6	15.4	0.00e+00	0	44	0	1033895936	16	4082
2026-01-26 08:58:23.57	47.86	31.76	-27.6	-28.7	15.2	0.00e+00	0	43	0	1037041664	16	4116
2026-01-26 08:58:24.57	47.50	31.74	-27.9	-29.5	14.8	0.00e+00	0	44	0	1040187392	16	4324
2026-01-26 08:58:25.58	47.14	31.73	-28.0	-29.6	14.7	0.00e+00	0	43	0	1043333120	16	4374
2026-01-26 08:58:26.58	46.78	31.71	-27.8	-29.3	14.9	7.00e-07	0	43	0	1046478848	16	4266
2026-01-26 08:58:27.59	46.42	31.69	-28.1	-29.9	14.6	0.00e+00	0	43	0	1049624576	16	4441
2026-01-26 08:58:28.59	46.06	31.67	-28.1	-30.0	14.6	7.00e-07	0	44	0	1052770304	16	4468
2026-01-26 08:58:29.60	45.70	31.65	-27.8	-29.3	14.9	7.00e-07	0	44	0	1055916032	16	4280
2026-01-26 08:58:30.61	45.34	31.63	-27.8	-29.4	14.8	0.00e+00	0	43	0	1059061760	16	4294
2026-01-26 08:58:31.61	44.98	31.60	-28.0	-29.7	14.7	0.00e+00	0	44	0	1061158912	16	4380
2026-01-26 08:58:32.61	44.62	31.58	-27.7	-29.0	15.1	0.00e+00	0	44	0	1064304640	16	4185
2026-01-26 08:58:33.61	44.27	31.55	-27.6	-28.7	15.2	0.00e+00	0	44	0	1067450368	16	4123
2026-01-26 08:58:34.61	43.91	31.53	-27.6	-28.8	15.1	0.00e+00	0	44	0	1070596096	16	4150
2026-01-26 08:58:35.61	43.56	31.50	-27.5	-28.7	15.2	0.00e+00	0	44	0	1073741824	16	4121
2026-01-26 08:58:36.61	43.20	31.47	-27.4	-28.5	15.3	0.00e+00	0	44	0	1076887552	16	4057
2026-01-26 08:58:37.62	42.85	31.44	-27.7	-29.1	14.9	7.00e-07	0	44	0	1081081856	16	4234
2026-01-26 08:58:38.62	42.49	31.41	-27.6	-28.8	15.1	0.00e+00	0	44	0	1084227584	16	4153
2026-01-26 08:58:39.63	42.14	31.37	-27.7	-29.1	15.0	1.50e-06	0	43	0	1086324736	16	4218
2026-01-26 08:58:40.63	41.79	31.34	-27.7	-29.1	15.0	7.00e-07	0	44	0	1089470464	16	4224
2026-01-26 08:58:41.64	41.43	31.30	-27.7	-29.0	15.0	7.00e-07	0	44	0	1092616192	16	4203
2026-01-26 08:58:42.64	41.09	31.27	-27.5	-28.7	15.2	7.00e-07	0	44	0	1095761920	16	4113
2026-01-26 08:58:43.64	40.74	31.23	-27.7	-29.2	14.9	0.00e+00	0	44	0	1098907648	16	4243
2026-01-26 08:58:44.65	40.39	31.19	-27.8	-29.4	14.7	0.00e+00	0	44	0	1102053376	16	4323
2026-01-26 08:58:45.65	40.04	31.15	-28.0	-29.9	14.5	7.00e-07	0	44	0	1105199104	16	4443
2026-01-26 08:58:46.65	39.69	31.11	-28.3	-30.5	14.1	1.50e-06	0	44	0	1108344832	16	4631
2026-01-26 08:58:47.66	39.34	31.06	-28.2	-30.2	14.3	2.20e-06	0	44	0	1111490560	16	4562
2026-01-26 08:58:48.66	39.00	31.02	-28.0	-29.8	14.5	0.00e+00	0	44	0	1114636288	16	4438
2026-01-26 08:58:49.66	38.66	30.98	-27.8	-29.3	14.8	0.00e+00	0	44	0	1117782016	16	4285
2026-01-26 08:58:50.66	38.31	30.93	-27.4	-28.5	15.3	0.00e+00	0	44	0	1120927744	16	4062
2026-01-26 08:58:51.67	37.97	30.88	-27.0	-28.1	15.6	0.00e+00	0	44	0	1124073472	15	4076
2026-01-26 08:58:52.67	37.63	30.84	-26.9	-27.8	15.7	0.00e+00	0	43	0	1127219200	15	4004
2026-01-26 08:58:53.68	37.29	30.79	-27.0	-28.0	15.6	0.00e+00	0	44	0	1130364928	15	4051
2026-01-26 08:58:54.68	36.95	30.74	-27.1	-28.2	15.5	1.50e-06	0	44	0	1133510656	15	4098
2026-01-26 08:58:55.69	36.61	30.69	-27.3	-28.7	15.3	0.00e+00	0	44	0	1136656384	15	4220
2026-01-26 08:58:56.68	36.28	30.63	-27.5	-29.1	15.0	0.00e+00	0	44	0	1139802112	15	4343
2026-01-26 08:58:57.68	35.94	30.58	-27.5	-29.2	15.0	0.00e+00	0	44	0	1142947840	15	4374
2026-01-26 08:58:58.69	35.60	30.53	-27.4	-29.1	15.0	0.00e+00	0	44	0	1146093568	15	4336
2026-01-26 08:58:59.68	35.27	30.47	-27.1	-28.3	15.5	0.00e+00	0	44	0	1149239296	15	4135
2026-01-26 08:59:00.68	34.94	30.42	-27.0	-28.1	15.6	0.00e+00	0	44	0	1152385024	15	4069
2026-01-26 08:59:01.68	34.61	30.36	-26.9	-27.9	15.7	0.00e+00	0	43	0	1155530752	15	4023
2026-01-26 08:59:02.68	34.28	30.30	-27.1	-28.3	15.5	0.00e+00	0	43	0	1158676480	15	4126
2026-01-26 08:59:03.68	33.95	30.24	-27.2	-28.4	15.4	0.00e+00	0	44	0	1161822208	15	4147
2026-01-26 08:59:04.68	33.63	30.18	-27.2	-28.6	15.3	0.00e+00	0	43	0	1164967936	15	4195
2026-01-26 08:59:05.68	33.30	30.12	-27.5	-29.1	15.0	0.00e+00	0	44	0	1168113664	15	4345
2026-01-26 08:59:06.68	32.98	30.06	-27.6	-29.4	14.9	7.00e-07	0	44	0	1171259392	15	4424
2026-01-26 08:59:07.69	32.65	30.00	-27.6	-29.4	14.9	0.00e+00	0	44	0	1174405120	15	4426
2026-01-26 08:59:08.70	32.33	29.94	-27.4	-28.9	15.1	7.00e-07	0	44	0	1177550848	15	4282
2026-01-26 08:59:09.70	32.01	29.87	-27.1	-28.2	15.4	0.00e+00	0	44	0	1180696576	15	4113
2026-01-26 08:59:10.70	31.69	29.81	-27.0	-28.1	15.5	0.00e+00	0	44	0	1183842304	15	4080
2026-01-26 08:59:11.70	31.37	29.74	-26.9	-27.7	15.8	0.00e+00	0	44	0	1186988032	15	3973
2026-01-26 08:59:12.70	31.05	29.67	-26.8	-27.6	15.8	0.00e+00	0	44	0	1190133760	15	3929
2026-01-26 08:59:13.70	30.74	29.61	-27.1	-28.8	15.5	0.00e+00	0	44	0	1193279488	14	4381
2026-01-26 08:59:14.70	30.42	29.54	-27.1	-28.9	15.5	0.00e+00	0	44	0	1196425216	14	4385
2026-01-26 08:59:15.70	30.11	29.47	-27.3	-29.1	15.3	0.00e+00	0	44	0	1199570944	14	4464
2026-01-26 08:59:16.70	29.80	29.40	-27.1	-28.7	15.5	0.00e+00	0	44	0	1202716672	14	4349
2026-01-26 08:59:17.70	29.49	29.33	-26.7	-27.9	15.9	0.00e+00	0	44	0	1205862400	14	4133
2026-01-26 08:59:18.70	29.18	29.26	-26.6	-27.6	16.1	0.00e+00	0	43	0	1209008128	14	4039
2026-01-26 08:59:19.70	28.87	29.18	-26.6	-27.7	16.0	0.00e+00	0	44	0	1212153856	14	4074
2026-01-26 08:59:20.71	28.57	29.11	-26.7	-27.9	15.9	0.00e+00	0	44	0	1215299584	14	4122
2026-01-26 08:59:21.71	28.26	29.04	-26.7	-27.8	16.0	0.00e+00	0	44	0	1218445312	14	4085
2026-01-26 08:59:22.71	27.96	28.96	-26.9	-28.4	15.6	0.00e+00	0	44	0	1221591040	14	4254
2026-01-26 08:59:23.72	27.65	28.89	-27.0	-28.7	15.5	0.00e+00	0	44	0	1224736768	14	4336
2026-01-26 08:59:24.72	27.35	28.81	-27.1	-28.7	15.5	0.00e+00	0	44	0	1227882496	14	4352
2026-01-26 08:59:25.72	27.06	28.74	-26.9	-28.4	15.6	0.00e+00	0	44	0	1231028224	14	4270
2026-01-26 08:59:26.72	26.76	28.66	-26.6	-27.7	16.0	0.00e+00	0	44	0	1234173952	14	4066
2026-01-26 08:59:27.72	26.46	28.58	-26.4	-27.2	16.3	0.00e+00	0	43	0	1237319680	14	3944
2026-01-26 08:59:28.73	26.17	28.50	-26.6	-27.6	16.1	0.00e+00	0	43	0	1240465408	14	4047
2026-01-26 08:59:29.73	25.87	28.42	-26.8	-28.1	15.8	0.00e+00	0	44	0	1243611136	14	4170
2026-01-26 08:59:30.74	25.58	28.34	-27.1	-28.7	15.4	0.00e+00	0	44	0	1246756864	14	4360
2026-01-26 08:59:31.73	25.29	28.26	-27.5	-29.6	14.9	0.00e+00	0	44	0	1249902592	14	4620
2026-01-26 08:59:32.74	25.00	28.18	-27.8	-29.8	14.5	0.00e+00	0	44	0	1253048320	15	4580
2026-01-26 08:59:33.74	24.71	28.10	-27.8	-30.0	14.4	2.20e-06	0	44	0	1256194048	15	4621
2026-01-26 08:59:34.74	24.43	28.02	-27.4	-29.0	15.0	7.00e-07	0	44	0	1259339776	15	4320
2026-01-26 08:59:35.75	24.14	27.94	-27.2	-28.5	15.3	0.00e+00	0	43	0	1262485504	15	4185
2026-01-26 08:59:36.75	23.86	27.85	-26.9	-27.7	15.7	0.00e+00	0	44	0	1265631232	15	3978
2026-01-26 08:59:37.76	23.58	27.77	-26.9	-27.9	15.6	0.00e+00	0	44	0	1268776960	15	4030
2026-01-26 08:59:38.76	23.30	27.68	-26.9	-27.8	15.7	0.00e+00	0	44	0	1271922688	15	3997
2026-01-26 08:59:39.76	23.02	27.60	-26.8	-27.6	15.8	0.00e+00	0	43	0	1275068416	15	3953
2026-01-26 08:59:40.76	22.74	27.52	-27.0	-28.0	15.6	0.00e+00	0	44	0	1278214144	15	4053
2026-01-26 08:59:41.77	22.47	27.43	-27.1	-28.3	15.4	0.00e+00	0	44	0	1281359872	15	4133
2026-01-26 08:59:42.77	22.19	27.34	-27.1	-28.2	15.4	0.00e+00	0	43	0	1284505600	15	4109
2026-01-26 08:59:43.77	21.92	27.26	-27.1	-28.3	15.4	7.00e-07	0	44	0	1287651328	15	4127
2026-01-26 08:59:44.78	21.65	27.17	-27.2	-28.4	15.3	7.00e-07	0	44	0	1290797056	15	4167
2026-01-26 08:59:45.78	21.38	27.08	-26.7	-27.9	15.8	0.00e+00	0	44	0	1293942784	14	4120
2026-01-26 08:59:46.78	21.11	26.99	-26.3	-27.0	16.3	0.00e+00	0	44	0	1297088512	14	3902
2026-01-26 08:59:47.79	20.84	26.91	-26.3	-27.4	16.3	0.00e+00	0	44	0	1300234240	13	4108
2026-01-26 08:59:48.79	20.58	26.82	-26.4	-27.6	16.2	0.00e+00	0	44	0	1303379968	13	4168
2026-01-26 08:59:49.80	20.31	26.73	-26.5	-28.0	16.1	0.00e+00	0	44	0	1306525696	13	4265
2026-01-26 08:59:50.80	20.05	26.64	-26.7	-28.5	15.8	0.00e+00	0	44	0	1309671424	13	4391
2026-01-26 08:59:51.80	19.79	26.55	-26.9	-28.9	15.5	0.00e+00	0	44	0	1312817152	13	4532
2026-01-26 08:59:52.81	19.53	26.46	-27.1	-28.8	15.4	0.00e+00	0	44	0	1314914304	14	4362
2026-01-26 08:59:53.81	19.27	26.37	-27.3	-29.1	15.1	0.00e+00	0	44	0	1318060032	14	4469
2026-01-26 08:59:54.81	19.02	26.28	-27.0	-28.6	15.4	0.00e+00	0	44	0	1321205760	14	4317
2026-01-26 08:59:55.82	18.76	26.19	-26.8	-28.0	15.7	0.00e+00	0	44	0	1324351488	14	4170
2026-01-26 08:59:56.82	18.51	26.10	-26.6	-27.6	16.0	0.00e+00	0	44	0	1328545792	14	4056
2026-01-26 08:59:57.83	18.25	26.00	-26.4	-27.1	16.2	0.00e+00	0	44	0	1331691520	14	3930
2026-01-26 08:59:58.83	18.00	25.91	-26.6	-27.6	15.9	0.00e+00	0	44	0	1334837248	14	4065
2026-01-26 08:59:59.83	17.76	25.82	-26.5	-27.5	16.0	0.00e+00	0	44	0	1336934400	14	4034
2026-01-26 09:00:00.83	17.51	25.73	-26.6	-27.8	15.9	0.00e+00	0	44	0	1340080128	14	4092
2026-01-26 09:00:01.83	17.26	25.63	-26.6	-27.6	16.0	0.00e+00	0	44	0	1343225856	14	4064
2026-01-26 09:00:02.83	17.02	25.54	-26.6	-27.8	15.8	0.00e+00	0	44	0	1346371584	14	4101
2026-01-26 09:00:03.84	16.77	25.45	-26.7	-27.9	15.8	0.00e+00	0	44	0	1349517312	14	4128
2026-01-26 09:00:04.84	16.53	25.35	-26.7	-28.0	15.7	0.00e+00	0	44	0	1352663040	14	4153
2026-01-26 09:00:05.85	16.29	25.26	-26.7	-27.9	15.8	0.00e+00	0	44	0	1355808768	14	4128
2026-01-26 09:00:06.86	16.05	25.17	-26.7	-27.9	15.8	0.00e+00	0	44	0	1358954496	14	4138
2026-01-26 09:00:07.85	15.82	25.07	-26.9	-28.4	15.5	0.00e+00	0	44	0	1362100224	14	4278
2026-01-26 09:00:08.85	15.58	24.98	-26.9	-28.4	15.5	0.00e+00	0	44	0	1365245952	14	4257
2026-01-26 09:00:09.85	15.35	24.88	-26.9	-28.4	15.5	0.00e+00	0	44	0	1368391680	14	4264
2026-01-26 09:00:10.85	15.12	24.79	-26.8	-28.1	15.6	0.00e+00	0	44	0	1371537408	14	4197
2026-01-26 09:00:11.86	14.88	24.69	-26.9	-28.4	15.5	0.00e+00	0	44	0	1374683136	14	4268
2026-01-26 09:00:12.87	14.65	24.60	-26.8	-28.0	15.7	0.00e+00	0	44	0	1377828864	14	4163
2026-01-26 09:00:13.87	14.42	24.50	-26.9	-28.3	15.6	7.00e-07	0	44	0	1380974592	14	4235
2026-01-26 09:00:14.86	14.20	24.41	-26.7	-28.0	15.8	0.00e+00	0	44	0	1384120320	14	4145
2026-01-26 09:00:15.86	13.97	24.31	-26.9	-28.4	15.5	0.00e+00	0	44	0	1387266048	14	4259
2026-01-26 09:00:16.86	13.75	24.22	-27.0	-28.5	15.4	0.00e+00	0	44	0	1390411776	14	4294
2026-01-26 09:00:17.86	13.53	24.12	-27.0	-28.5	15.4	0.00e+00	0	44	0	1393557504	14	4296
2026-01-26 09:00:18.87	13.30	24.03	-27.0	-28.6	15.4	0.00e+00	0	44	0	1396703232	14	4322
2026-01-26 09:00:19.87	13.08	23.93	-27.3	-29.3	15.0	0.00e+00	0	44	0	1399848960	14	4516
2026-01-26 09:00:20.87	12.86	23.83	-27.2	-29.0	15.1	0.00e+00	0	44	0	1402994688	14	4447
2026-01-26 09:00:21.88	12.65	23.74	-27.0	-28.6	15.3	0.00e+00	0	44	0	1406140416	14	4333
2026-01-26 09:00:22.88	12.43	23.64	-26.8	-28.2	15.6	0.00e+00	0	44	0	1409286144	14	4218
2026-01-26 09:00:23.89	12.21	23.54	-26.6	-27.7	15.8	0.00e+00	0	44	0	1412431872	14	4096
2026-01-26 09:00:24.89	12.00	23.45	-26.6	-27.7	15.8	0.00e+00	0	44	0	1415577600	14	4089
2026-01-26 09:00:25.89	11.79	23.35	-26.6	-27.6	15.8	0.00e+00	0	44	0	1418723328	14	4061
2026-01-26 09:00:26.89	11.58	23.26	-26.6	-27.6	15.8	0.00e+00	0	44	0	1421869056	14	4069
2026-01-26 09:00:27.90	11.37	23.16	-26.7	-28.0	15.6	0.00e+00	0	44	0	1425014784	14	4173
2026-01-26 09:00:28.90	11.16	23.06	-26.8	-28.1	15.6	0.00e+00	0	44	0	1428160512	14	4195
2026-01-26 09:00:29.90	10.95	22.96	-26.9	-28.4	15.4	0.00e+00	0	43	0	1431306240	14	4271
2026-01-26 09:00:30.90	10.75	22.87	-26.9	-28.3	15.5	0.00e+00	0	44	0	1434451968	14	4246
2026-01-26 09:00:31.90	10.54	22.77	-26.8	-28.2	15.6	0.00e+00	0	44	0	1437597696	14	4205
2026-01-26 09:00:32.91	10.34	22.67	-26.7	-28.0	15.7	0.00e+00	0	44	0	1440743424	14	4163
2026-01-26 09:00:33.91	10.14	22.58	-26.6	-27.7	15.8	0.00e+00	0	44	0	1443889152	14	4089
2026-01-26 09:00:34.91	9.94	22.48	-26.8	-28.1	15.6	0.00e+00	0	44	0	1447034880	14	4186
2026-01-26 09:00:35.92	9.74	22.38	-26.7	-28.0	15.7	0.00e+00	0	43	0	1450180608	14	4154
2026-01-26 09:00:36.93	9.54	22.29	-26.8	-28.2	15.5	0.00e+00	0	44	0	1453326336	14	4230
2026-01-26 09:00:37.93	9.34	22.19	-26.8	-28.0	15.6	0.00e+00	0	44	0	1456472064	14	4171
2026-01-26 09:00:38.93	9.14	22.09	-26.7	-28.0	15.7	0.00e+00	0	44	0	1459617792	14	4156
2026-01-26 09:00:39.94	8.95	21.99	-26.7	-27.9	15.7	0.00e+00	0	44	0	1462763520	14	4145
2026-01-26 09:00:40.94	8.76	21.90	-26.8	-28.1	15.6	0.00e+00	0	44	0	1465909248	14	4187
2026-01-26 09:00:41.94	8.57	21.80	-26.5	-27.5	15.9	0.00e+00	0	44	0	1469054976	14	4034
2026-01-26 09:00:42.94	8.37	21.70	-26.6	-27.6	15.9	0.00e+00	0	44	0	1472200704	14	4054
2026-01-26 09:00:43.94	8.19	21.61	-26.6	-27.8	15.8	0.00e+00	0	44	0	1475346432	14	4100
2026-01-26 09:00:44.93	8.00	21.51	-26.4	-27.3	16.0	0.00e+00	0	44	0	1478492160	14	3991
2026-01-26 09:00:45.94	7.81	21.42	-26.3	-27.1	16.1	0.00e+00	0	44	0	1481637888	14	3936
2026-01-26 09:00:46.94	7.63	21.32	-26.5	-27.3	16.0	0.00e+00	0	44	0	1484783616	14	3991
2026-01-26 09:00:47.94	7.44	21.22	-26.6	-27.7	15.8	0.00e+00	0	44	0	1487929344	14	4083
2026-01-26 09:00:48.94	7.26	21.13	-26.8	-28.1	15.5	0.00e+00	0	44	0	1491075072	14	4208
2026-01-26 09:00:49.94	7.08	21.03	-26.8	-28.1	15.5	0.00e+00	0	44	0	1494220800	14	4209
2026-01-26 09:00:50.95	6.89	20.93	-27.0	-28.6	15.3	7.00e-07	0	44	0	1497366528	14	4335
2026-01-26 09:00:51.94	6.72	20.84	-26.8	-28.2	15.5	0.00e+00	0	44	0	1500512256	14	4217
2026-01-26 09:00:52.94	6.54	20.74	-26.7	-28.0	15.6	7.00e-07	0	44	0	1503657984	14	4165
2026-01-26 09:00:53.94	6.36	20.65	-26.7	-27.9	15.6	0.00e+00	0	44	0	1506803712	14	4154
2026-01-26 09:00:54.95	6.18	20.55	-26.8	-28.2	15.5	0.00e+00	0	44	0	1509949440	14	4221
2026-01-26 09:00:55.96	6.01	20.45	-26.6	-27.7	15.8	0.00e+00	0	44	0	1513095168	14	4096
2026-01-26 09:00:56.97	5.83	20.36	-26.6	-27.8	15.7	0.00e+00	0	44	0	1516240896	14	4112
2026-01-26 09:00:57.97	5.66	20.26	-26.8	-28.2	15.5	0.00e+00	0	44	0	1519386624	14	4234
2026-01-26 09:00:58.97	5.49	20.16	-26.5	-27.4	15.9	0.00e+00	0	44	0	1522532352	14	4000
2026-01-26 09:00:59.98	5.31	20.07	-26.3	-27.4	16.2	0.00e+00	0	44	0	1525678080	13	4118
2026-01-26 09:01:00.98	5.14	19.97	-26.2	-27.3	16.2	0.00e+00	0	44	0	1528823808	13	4097
2026-01-26 09:01:01.99	4.97	19.88	-26.3	-27.5	16.1	0.00e+00	0	44	0	1531969536	13	4129
2026-01-26 09:01:02.99	4.81	19.78	-26.5	-27.9	15.9	0.00e+00	0	43	0	1535115264	13	4239
2026-01-26 09:01:04.00	4.64	19.68	-26.4	-27.7	16.0	0.00e+00	0	44	0	1538260992	13	4204
2026-01-26 09:01:05.00	4.47	19.59	-26.5	-28.0	15.8	0.00e+00	0	44	0	1541406720	13	4288
2026-01-26 09:01:06.00	4.31	19.49	-26.4	-27.7	16.0	0.00e+00	0	44	0	1544552448	13	4196
2026-01-26 09:01:07.01	4.14	19.40	-26.3	-27.5	16.1	0.00e+00	0	44	0	1547698176	13	4153
2026-01-26 09:01:08.01	3.98	19.30	-26.3	-27.6	16.1	0.00e+00	0	44	0	1550843904	13	4170
2026-01-26 09:01:09.02	3.82	19.21	-26.3	-27.5	16.1	0.00e+00	0	44	0	1553989632	13	4146
2026-01-26 09:01:10.01	3.66	19.12	-26.4	-27.7	16.0	0.00e+00	0	44	0	1557135360	13	4186
2026-01-26 09:01:11.00	3.50	19.02	-26.3	-27.4	16.1	0.00e+00	0	44	0	1560281088	13	4126
2026-01-26 09:01:12.00	3.34	18.93	-26.3	-27.6	16.0	0.00e+00	0	44	0	1563426816	13	4175
2026-01-26 09:01:13.01	3.18	18.83	-26.4	-27.8	15.9	0.00e+00	0	44	0	1565523968	13	4221
2026-01-26 09:01:14.02	3.03	18.74	-26.5	-28.0	15.8	0.00e+00	0	44	0	1569718272	13	4265
2026-01-26 09:01:15.03	2.87	18.64	-26.6	-28.2	15.7	0.00e+00	0	44	0	1572864000	13	4339
2026-01-26 09:01:16.03	2.72	18.55	-26.7	-28.5	15.5	0.00e+00	0	44	0	1576009728	13	4425
2026-01-26 09:01:17.03	2.56	18.46	-26.8	-28.6	15.5	0.00e+00	0	44	0	1579155456	13	4445
2026-01-26 09:01:18.04	2.41	18.36	-26.8	-28.6	15.5	0.00e+00	0	43	0	1582301184	13	4434
2026-01-26 09:01:19.04	2.26	18.27	-26.8	-28.8	15.4	0.00e+00	0	44	0	1585446912	13	4490
2026-01-26 09:01:20.05	2.11	18.18	-26.7	-28.6	15.5	0.00e+00	0	44	0	1588592640	13	4436
2026-01-26 09:01:21.05	1.96	18.08	-26.7	-28.3	15.6	0.00e+00	0	44	0	1590689792	13	4372
2026-01-26 09:01:22.05	1.81	17.99	-26.7	-28.4	15.5	0.00e+00	0	44	0	1593835520	13	4395
2026-01-26 09:01:23.06	1.66	17.90	-26.7	-28.5	15.5	0.00e+00	0	44	0	1596981248	13	4408
2026-01-26 09:01:24.06	1.51	17.80	-26.6	-28.2	15.6	0.00e+00	0	44	0	1600126976	13	4329
2026-01-26 09:01:25.06	1.37	17.71	-26.7	-28.4	15.5	0.00e+00	0	44	0	1603272704	13	4391
2026-01-26 09:01:26.06	1.22	17.62	-26.5	-28.0	15.8	0.00e+00	0	44	0	1606418432	13	4276
2026-01-26 09:01:27.07	1.08	17.53	-26.5	-28.1	15.7	0.00e+00	0	44	0	1610612736	13	4309
2026-01-26 09:01:28.08	0.93	17.43	-26.6	-28.3	15.6	0.00e+00	0	44	0	1612709888	13	4352
2026-01-26 09:01:29.08	0.79	17.34	-26.7	-28.5	15.5	0.00e+00	0	44	0	1615855616	13	4415
2026-01-26 09:01:30.08	0.65	17.25	-26.8	-28.6	15.4	0.00e+00	0	44	0	1619001344	13	4452
2026-01-26 09:01:31.09	0.51	17.16	-26.9	-29.0	15.2	0.00e+00	0	44	0	1622147072	13	4558
2026-01-26 09:01:32.10	0.36	17.07	-26.8	-28.8	15.3	7.00e-07	0	44	0	1625292800	13	4506
2026-01-26 09:01:33.10	0.23	16.97	-27.4	-29.5	14.7	0.00e+00	0	44	0	1628438528	14	4593
2026-01-26 09:01:34.10	0.09	16.88	-27.5	-29.2	14.5	7.00e-07	0	44	0	1631584256	15	4404
2026-01-26 09:01:35.11	359.95	16.79	-27.1	-28.3	15.0	0.00e+00	0	44	0	1634729984	15	4155
2026-01-26 09:01:36.11	359.81	16.70	-27.0	-28.1	15.2	0.00e+00	0	44	0	1637875712	15	4087
2026-01-26 09:01:37.12	359.68	16.61	-26.9	-28.0	15.2	0.00e+00	0	44	0	1641021440	15	4075
2026-01-26 09:01:38.13	359.54	16.52	-27.0	-28.2	15.1	0.00e+00	0	44	0	1644167168	15	4128
2026-01-26 09:01:39.13	359.41	16.43	-26.8	-28.2	15.4	0.00e+00	0	44	0	1647312896	14	4216
2026-01-26 09:01:40.14	359.27	16.34	-27.0	-28.6	15.1	1.50e-06	0	44	0	1650458624	14	4352
2026-01-26 09:01:41.13	359.14	16.25	-26.6	-27.8	15.5	0.00e+00	0	44	0	1653604352	14	4126
2026-01-26 09:01:42.13	359.01	16.16	-26.7	-27.9	15.5	0.00e+00	0	44	0	1656750080	14	4153
2026-01-26 09:01:43.13	358.88	16.07	-26.8	-28.1	15.4	0.00e+00	0	44	0	1659895808	14	4201
2026-01-26 09:01:44.13	358.75	15.98	-26.7	-27.9	15.5	0.00e+00	0	44	0	1663041536	14	4138
2026-01-26 09:01:45.13	358.62	15.89	-26.7	-28.0	15.4	0.00e+00	0	44	0	1666187264	14	4163
2026-01-26 09:01:46.13	358.50	15.80	-26.8	-28.3	15.2	0.00e+00	0	44	0	1669332992	14	4250
2026-01-26 09:01:47.14	358.37	15.71	-27.0	-28.6	15.1	0.00e+00	0	44	0	1672478720	14	4353
2026-01-26 09:01:48.13	358.24	15.63	-27.0	-28.6	15.0	0.00e+00	0	44	0	1675624448	14	4351
2026-01-26 09:01:49.13	358.12	15.54	-27.2	-29.0	14.8	0.00e+00	0	44	0	1678770176	14	4460
2026-01-26 09:01:50.13	357.99	15.45	-27.3	-29.4	14.6	1.50e-06	0	44	0	1681915904	14	4575
2026-01-26 09:01:51.13	357.87	15.36	-27.2	-29.1	14.8	0.00e+00	0	44	0	1685061632	14	4472
2026-01-26 09:01:52.14	357.74	15.27	-27.3	-29.3	14.6	1.50e-06	0	44	0	1688207360	14	4561
2026-01-26 09:01:53.14	357.62	15.19	-27.2	-29.1	14.7	1.50e-06	0	44	0	1691353088	14	4491
2026-01-26 09:01:54.15	357.50	15.10	-27.3	-29.4	14.6	7.00e-07	0	44	0	1694498816	14	4585
2026-01-26 09:01:55.15	357.38	15.01	-27.6	-29.5	14.2	7.00e-07	0	44	0	1697644544	15	4496
2026-01-26 09:01:56.15	357.25	14.92	-27.3	-28.8	14.6	0.00e+00	0	44	0	1700790272	15	4304
2026-01-26 09:01:57.15	357.14	14.84	-27.1	-28.4	14.9	7.00e-07	0	44	0	1703936000	15	4177
2026-01-26 09:01:58.16	357.01	14.75	-27.1	-28.3	14.9	0.00e+00	0	44	0	1707081728	15	4163
2026-01-26 09:01:59.17	356.90	14.66	-27.1	-28.4	14.8	0.00e+00	0	44	0	1710227456	15	4195
2026-01-26 09:02:00.17	356.78	14.58	-27.1	-28.4	14.9	0.00e+00	0	44	0	1713373184	15	4172
2026-01-26 09:02:01.16	356.66	14.49	-27.1	-28.4	14.8	7.00e-07	0	44	0	1716518912	15	4178
2026-01-26 09:02:02.16	356.55	14.41	-27.2	-28.7	14.6	7.00e-07	0	44	0	1719664640	15	4278
2026-01-26 09:02:03.17	356.43	14.32	-27.2	-28.6	14.7	0.00e+00	0	44	0	1722810368	15	4224
2026-01-26 09:02:04.17	356.31	14.23	-27.1	-28.5	14.8	0.00e+00	0	44	0	1725956096	15	4202
2026-01-26 09:02:05.18	356.20	14.15	-27.2	-28.7	14.6	0.00e+00	0	44	0	1729101824	15	4282
2026-01-26 09:02:06.18	356.09	14.06	-27.3	-28.9	14.5	1.50e-06	0	44	0	1732247552	15	4342
2026-01-26 09:02:07.19	355.97	13.98	-27.5	-29.4	14.2	1.50e-06	0	44	0	1735393280	15	4468
2026-01-26 09:02:08.19	355.86	13.89	-27.4	-29.2	14.3	0.00e+00	0	44	0	1738539008	15	4424
2026-01-26 09:02:09.19	355.75	13.81	-27.6	-29.5	14.1	2.20e-06	0	44	0	1741684736	15	4504
2026-01-26 09:02:10.19	355.64	13.72	-27.5	-29.4	14.2	1.50e-06	0	44	0	1744830464	15	4486
2026-01-26 09:02:11.19	355.53	13.64	-27.7	-29.8	13.9	3.00e-06	0	44	0	1747976192	15	4608
2026-01-26 09:02:12.19	355.42	13.55	-27.6	-29.7	14.0	3.80e-06	0	44	0	1751121920	15	4570
2026-01-26 09:02:13.19	355.31	13.47	-27.6	-29.7	14.0	3.80e-06	0	44	0	1754267648	15	4578
2026-01-26 09:02:14.18	355.20	13.39	-27.8	-30.0	13.8	2.20e-06	0	44	0	1757413376	15	4664
2026-01-26 09:02:15.18	355.09	13.30	-27.8	-30.2	13.7	7.60e-06	0	44	0	1760559104	15	4712
2026-01-26 09:02:16.19	354.99	13.22	-27.9	-30.3	13.6	3.80e-06	0	44	0	1763704832	15	4760
2026-01-26 09:02:17.19	354.88	13.14	-28.0	-30.6	13.4	9.90e-06	0	44	0	1766850560	15	4850
2026-01-26 09:02:18.19	354.77	13.05	-28.0	-30.0	13.7	4.50e-06	0	44	0	1769996288	16	4528
2026-01-26 09:02:19.19	354.67	12.97	-28.0	-29.9	13.7	1.29e-05	0	44	0	1773142016	16	4521
2026-01-26 09:02:20.20	354.56	12.89	-28.0	-30.0	13.6	5.30e-06	0	44	0	1776287744	16	4545
2026-01-26 09:02:21.19	354.46	12.81	-28.0	-30.1	13.6	3.00e-06	0	44	0	1779433472	16	4557
2026-01-26 09:02:22.19	354.36	12.72	-28.0	-30.1	13.6	1.60e-05	0	44	0	1782579200	16	4565
2026-01-26 09:02:23.19	354.25	12.64	-27.9	-29.8	13.8	6.80e-06	0	44	0	1785724928	16	4467
2026-01-26 09:02:24.19	354.15	12.56	-27.9	-29.7	13.8	6.80e-06	0	44	0	1788870656	16	4455
2026-01-26 09:02:25.20	354.05	12.48	-27.7	-29.3	14.1	2.20e-06	0	44	0	1792016384	16	4318
2026-01-26 09:02:26.19	353.95	12.40	-27.7	-29.4	14.0	3.80e-06	0	44	0	1795162112	16	4357
2026-01-26 09:02:27.20	353.85	12.31	-28.0	-29.9	13.7	7.60e-06	0	44	0	1798307840	16	4514
2026-01-26 09:02:28.20	353.75	12.23	-28.0	-29.9	13.7	4.50e-06	0	44	0	1801453568	16	4510
2026-01-26 09:02:29.19	353.65	12.15	-28.1	-30.1	13.5	9.90e-06	0	44	0	1804599296	16	4582
2026-01-26 09:02:30.19	353.55	12.07	-27.9	-29.7	13.8	5.30e-06	0	44	0	1807745024	16	4457
2026-01-26 09:02:31.19	353.45	11.99	-27.9	-29.8	13.8	5.30e-06	0	44	0	1810890752	16	4473
2026-01-26 09:02:32.19	353.36	11.91	-27.9	-29.9	13.7	6.80e-06	0	44	0	1814036480	16	4495
2026-01-26 09:02:33.20	353.26	11.83	-28.0	-30.1	13.5	6.80e-06	0	44	0	1817182208	16	4571
2026-01-26 09:02:34.20	353.16	11.75	-28.2	-30.5	13.3	1.06e-05	0	44	0	1819279360	16	4688
2026-01-26 09:02:35.20	353.06	11.67	-28.3	-30.8	13.1	1.98e-05	0	44	0	1822425088	16	4797
2026-01-26 09:02:36.21	352.97	11.59	-28.4	-31.1	12.9	5.41e-05	0	44	0	1825570816	16	4916
2026-01-26 09:02:37.21	352.87	11.51	-28.3	-30.7	13.2	3.66e-05	0	44	0	1828716544	16	4773
2026-01-26 09:02:38.21	352.78	11.43	-28.2	-30.7	13.2	2.21e-05	0	44	0	1831862272	16	4755
2026-01-26 09:02:39.21	352.69	11.35	-28.3	-30.9	13.0	3.66e-05	0	44	0	1835008000	16	4825
2026-01-26 09:02:40.22	352.59	11.27	-28.3	-30.8	13.0	5.18e-05	0	44	0	1839202304	16	4815
2026-01-26 09:02:41.22	352.50	11.19	-28.3	-30.9	13.0	4.04e-05	0	44	0	1841299456	16	4826
2026-01-26 09:02:42.22	352.41	11.11	-28.5	-30.8	12.8	7.01e-05	0	44	0	1844445184	17	4681
2026-01-26 09:02:43.23	352.31	11.03	-28.3	-30.4	13.0	3.58e-05	0	44	0	1847590912	17	4557
2026-01-26 09:02:44.23	352.22	10.96	-28.3	-30.2	13.1	2.36e-05	0	44	0	1850736640	17	4509
2026-01-26 09:02:45.24	352.13	10.88	-28.2	-30.0	13.2	2.21e-05	0	44	0	1853882368	17	4435
2026-01-26 09:02:46.24	352.04	10.80	-28.2	-30.1	13.2	1.67e-05	0	44	0	1857028096	17	4469
2026-01-26 09:02:47.25	351.95	10.72	-27.9	-29.2	13.7	6.10e-06	0	44	0	1860173824	17	4213
2026-01-26 09:02:48.26	351.86	10.64	-28.2	-30.1	13.1	2.13e-05	0	44	0	1863319552	17	4472
2026-01-26 09:02:49.26	351.77	10.57	-28.0	-29.6	13.5	2.74e-05	0	44	0	1866465280	17	4315
2026-01-26 09:02:50.26	351.68	10.49	-27.9	-29.3	13.7	7.60e-06	0	44	0	1869611008	17	4230
2026-01-26 09:02:51.27	351.59	10.41	-28.0	-29.6	13.5	1.22e-05	0	44	0	1872756736	17	4307
2026-01-26 09:02:52.27	351.51	10.33	-27.7	-29.3	14.0	3.00e-06	0	44	0	1875902464	16	4322
2026-01-26 09:02:53.28	351.42	10.26	-28.0	-30.0	13.5	1.90e-05	0	44	0	1879048192	16	4549
2026-01-26 09:02:54.28	351.33	10.18	-27.9	-29.7	13.7	6.10e-06	0	44	0	1882193920	16	4457
2026-01-26 09:02:55.29	351.25	10.10	-27.9	-29.8	13.6	1.44e-05	0	44	0	1885339648	16	4499
2026-01-26 09:02:56.29	351.16	10.03	-28.0	-30.1	13.4	7.60e-06	0	44	0	1888485376	16	4588
2026-01-26 09:02:57.30	351.07	9.95	-27.9	-29.9	13.6	1.29e-05	0	44	0	1891631104	16	4506
2026-01-26 09:02:58.30	350.99	9.87	-28.1	-30.4	13.3	1.52e-05	0	44	0	1894776832	16	4660
2026-01-26 09:02:59.30	350.91	9.80	-28.1	-30.3	13.3	2.82e-05	0	44	0	1897922560	16	4652
2026-01-26 09:03:00.30	350.82	9.72	-28.0	-30.2	13.4	1.06e-05	0	44	0	1901068288	16	4595
2026-01-26 09:03:01.30	350.74	9.65	-28.2	-30.7	13.1	2.44e-05	0	44	0	1904214016	16	4765
2026-01-26 09:03:02.31	350.66	9.57	-28.3	-30.9	12.9	1.67e-05	0	44	0	1907359744	16	4847
2026-01-26 09:03:03.31	350.57	9.50	-28.2	-30.7	13.1	3.81e-05	0	44	0	1910505472	16	4768
2026-01-26 09:03:04.31	350.49	9.42	-28.4	-31.0	12.9	3.96e-05	0	44	0	1913651200	16	4859
2026-01-26 09:03:05.31	350.41	9.35	-28.3	-30.8	13.0	5.11e-05	0	44	0	1916796928	16	4822
2026-01-26 09:03:06.32	350.33	9.27	-28.4	-31.1	12.7	6.02e-05	0	44	0	1919942656	16	4928
2026-01-26 09:03:07.32	350.25	9.20	-28.5	-30.9	12.5	9.15e-05	0	44	0	1923088384	17	4747
2026-01-26 09:03:08.32	350.17	9.12	-28.4	-30.6	12.8	1.40e-04	0	44	0	1926234112	17	4628
2026-01-26 09:03:09.33	350.09	9.05	-28.3	-30.3	12.9	6.63e-05	0	44	0	1929379840	17	4551
2026-01-26 09:03:10.32	350.01	8.97	-28.5	-30.8	12.6	9.46e-05	0	44	0	1932525568	17	4707
2026-01-26 09:03:11.33	349.93	8.90	-28.3	-30.3	12.9	4.88e-05	0	44	0	1935671296	17	4543
2026-01-26 09:03:12.33	349.85	8.83	-28.4	-30.6	12.7	1.19e-04	0	44	0	1938817024	17	4634
2026-01-26 09:03:13.34	349.77	8.75	-28.3	-30.4	12.9	2.67e-05	0	44	0	1941962752	17	4568
2026-01-26 09:03:14.35	349.70	8.68	-28.3	-30.3	12.9	3.81e-05	0	44	0	1945108480	17	4527
2026-01-26 09:03:15.35	349.62	8.61	-28.3	-30.3	12.9	4.11e-05	0	44	0	1948254208	17	4538
2026-01-26 09:03:16.35	349.54	8.53	-28.3	-30.5	12.7	7.85e-05	0	44	0	1951399936	17	4611
2026-01-26 09:03:17.35	349.47	8.46	-28.1	-29.8	13.1	2.97e-05	0	44	0	1954545664	17	4395
2026-01-26 09:03:18.35	349.39	8.39	-28.3	-30.5	12.8	9.15e-05	0	44	0	1957691392	17	4599
2026-01-26 09:03:19.35	349.31	8.32	-28.5	-30.9	12.4	5.95e-05	0	44	0	1960837120	17	4747
2026-01-26 09:03:20.35	349.24	8.24	-28.2	-30.1	12.9	9.68e-05	0	44	0	1963982848	17	4477
2026-01-26 09:03:21.36	349.16	8.17	-28.2	-30.2	12.9	5.11e-05	0	44	0	1967128576	17	4533
2026-01-26 09:03:22.36	349.09	8.10	-28.3	-30.4	12.8	6.17e-05	0	44	0	1970274304	17	4577
2026-01-26 09:03:23.37	349.01	8.03	-28.4	-30.6	12.6	7.93e-05	0	44	0	1973420032	17	4656
2026-01-26 09:03:24.37	348.94	7.95	-28.2	-30.3	12.8	4.95e-05	0	44	0	1976565760	17	4537
2026-01-26 09:03:25.38	348.87	7.88	-28.4	-30.6	12.5	2.56e-04	0	44	0	1979711488	17	4659
2026-01-26 09:03:26.38	348.79	7.81	-28.3	-30.5	12.6	1.14e-04	0	44	0	1982857216	17	4616
2026-01-26 09:03:27.39	348.72	7.74	-28.7	-31.3	12.1	9.76e-05	0	44	0	1986002944	17	4899
2026-01-26 09:03:28.39	348.65	7.67	-28.5	-30.8	12.4	1.94e-04	0	44	0	1989148672	17	4722
2026-01-26 09:03:29.39	348.58	7.60	-28.3	-30.5	12.6	6.33e-05	0	44	0	1992294400	17	4615
2026-01-26 09:03:30.39	348.51	7.53	-28.4	-30.7	12.4	9.84e-05	0	44	0	1995440128	17	4695
2026-01-26 09:03:31.39	348.43	7.46	-28.4	-30.6	12.5	1.78e-04	0	44	0	1998585856	17	4645
2026-01-26 09:03:32.40	348.36	7.38	-28.4	-30.6	12.5	1.06e-04	0	44	0	2001731584	17	4663
2026-01-26 09:03:33.40	348.29	7.31	-28.5	-31.1	12.2	1.96e-04	0	44	0	2004877312	17	4806
2026-01-26 09:03:34.40	348.22	7.24	-28.5	-30.9	12.3	1.52e-04	0	44	0	2008023040	17	4739
2026-01-26 09:03:35.40	348.15	7.17	-28.6	-31.3	12.0	1.27e-04	0	44	0	2011168768	17	4881
2026-01-26 09:03:36.40	348.08	7.10	-31.0	-36.3	7.6	2.20e-04	0	44	0	2014314496	21	6687
2026-01-26 09:03:37.40	348.02	7.04	-32.8	-44.5	3.8	1.49e+00	0	44	104	2014314496	25	13939
2026-01-26 09:03:38.40	347.95	6.97	-33.1	-45.0	3.8	1.49e+00	0	44	104	2014314496	26	14134

#Closed at: 2026-01-26 09:03:39
#Recorded file [2014 MB]: D:/data/31010_260126_115251.dat