passes_logs/2026/01/26/R2M6_AANII_01/R2M6_AANII_01__20260126_122806_AQUA_rec.log

#Pass ID: 20260126_122806_AQUA
#Satellite: AQUA
#Configuration: AQUA
#almurnet v.1.7.20240730
#Start time: 2026-01-26 12:28:08

#Version: 2.2.20231116
#Station: R2M6_AANII_01
#Location: 30.233357 lon 59.946436 lat
#TLE: 1 27424U 02022A   26025.63222646  .00001891  00000+0  38818-3 0  9990
#TLE: 2 27424  98.4099 352.2393 0001892  65.6900 348.5270 14.61859542262445

#Time	Az	El	Level	Level2	SNR	BER	BlckErr	Temp	State	Recorded	gain1	gain2
2026-01-26 12:28:08.07	173.56	7.11	-31.0	-37.1	5.2	7.12e-01	0	42	0	0	22	7298
2026-01-26 12:28:09.08	173.59	7.19	-31.3	-37.3	5.1	7.11e-01	0	42	104	0	24	7177
2026-01-26 12:28:10.08	173.62	7.27	-31.5	-37.3	13.6	6.09e-01	0	42	0	0	24	7062
2026-01-26 12:28:11.09	173.65	7.35	-31.7	-38.5	12.6	6.08e-01	0	42	0	1572864	24	7850
2026-01-26 12:28:12.09	173.69	7.44	-31.5	-37.2	13.7	6.07e-01	0	42	0	3670016	24	7010
2026-01-26 12:28:13.10	173.72	7.52	-31.3	-36.5	14.3	6.09e-01	0	42	0	5242880	24	6575
2026-01-26 12:28:14.10	173.75	7.60	-30.9	-35.0	15.4	6.05e-01	0	42	0	7340032	24	5803
2026-01-26 12:28:15.11	173.78	7.69	-30.5	-34.2	16.3	6.08e-01	0	42	0	9437184	23	5531
2026-01-26 12:28:16.11	173.82	7.77	-30.3	-33.9	16.9	6.05e-01	0	42	0	11010048	22	5503
2026-01-26 12:28:17.11	173.85	7.85	-30.1	-33.4	17.2	6.08e-01	0	42	0	13107200	22	5284
2026-01-26 12:28:18.12	173.88	7.94	-29.9	-32.7	17.7	6.06e-01	0	42	0	14680064	22	4989
2026-01-26 12:28:19.12	173.92	8.02	-29.8	-33.1	17.9	6.06e-01	0	43	0	16777216	21	5244
2026-01-26 12:28:20.13	173.95	8.11	-29.8	-33.0	17.9	6.06e-01	0	43	0	18874368	21	5182
2026-01-26 12:28:21.12	173.98	8.19	-29.8	-33.1	17.8	6.04e-01	0	42	0	20447232	21	5238
2026-01-26 12:28:22.12	174.02	8.28	-29.8	-33.1	17.9	6.06e-01	0	42	0	22544384	21	5240
2026-01-26 12:28:23.13	174.05	8.36	-30.1	-33.7	17.5	6.07e-01	0	42	0	24117248	21	5468
2026-01-26 12:28:24.13	174.09	8.45	-30.2	-34.0	17.3	6.07e-01	0	43	0	26214400	21	5584
2026-01-26 12:28:25.14	174.12	8.54	-30.1	-33.8	17.5	6.07e-01	0	43	0	28311552	21	5497
2026-01-26 12:28:26.14	174.16	8.62	-29.9	-33.2	17.9	6.07e-01	0	43	0	29884416	21	5248
2026-01-26 12:28:27.14	174.19	8.71	-30.0	-33.5	17.7	6.07e-01	0	43	0	31981568	21	5369
2026-01-26 12:28:28.14	174.23	8.80	-30.0	-33.5	17.6	6.06e-01	0	43	0	33554432	21	5395
2026-01-26 12:28:29.14	174.26	8.89	-30.0	-33.5	17.7	6.07e-01	0	43	0	35651584	21	5392
2026-01-26 12:28:30.14	174.30	8.97	-30.3	-34.3	17.1	6.07e-01	0	42	0	37224448	21	5719
2026-01-26 12:28:31.13	174.33	9.06	-30.1	-33.8	17.5	6.06e-01	0	43	0	39321600	21	5491
2026-01-26 12:28:32.14	174.37	9.15	-30.0	-33.4	17.8	6.05e-01	0	43	0	41418752	21	5328
2026-01-26 12:28:33.15	174.41	9.24	-29.9	-33.1	18.1	6.07e-01	0	43	0	42991616	21	5200
2026-01-26 12:28:34.14	174.44	9.33	-29.9	-33.0	18.1	6.06e-01	0	43	0	45088768	21	5168
2026-01-26 12:28:35.14	174.48	9.42	-29.8	-32.8	18.3	6.07e-01	0	43	0	46661632	21	5105
2026-01-26 12:28:36.15	174.52	9.51	-29.8	-33.0	18.1	6.08e-01	0	43	0	48758784	21	5160
2026-01-26 12:28:37.15	174.55	9.60	-29.9	-33.1	18.1	6.08e-01	0	43	0	50331648	21	5215
2026-01-26 12:28:38.15	174.59	9.69	-29.7	-32.6	18.4	6.05e-01	0	43	0	52428800	21	5028
2026-01-26 12:28:39.16	174.63	9.78	-29.7	-32.6	18.4	6.06e-01	0	43	0	54525952	21	5019
2026-01-26 12:28:40.16	174.67	9.87	-29.6	-32.2	18.7	6.07e-01	0	43	0	56098816	21	4866
2026-01-26 12:28:41.16	174.70	9.97	-29.8	-32.9	18.2	6.06e-01	0	43	0	58195968	21	5113
2026-01-26 12:28:42.16	174.74	10.06	-29.7	-32.6	18.5	6.06e-01	0	43	0	59768832	21	4999
2026-01-26 12:28:43.17	174.78	10.15	-29.8	-32.7	18.4	6.05e-01	0	43	0	61865984	21	5067
2026-01-26 12:28:44.17	174.82	10.25	-29.7	-32.6	18.4	6.05e-01	0	43	0	63438848	21	5031
2026-01-26 12:28:45.17	174.86	10.34	-29.7	-32.4	18.5	6.07e-01	0	43	0	65536000	21	4956
2026-01-26 12:28:46.17	174.90	10.43	-29.7	-32.5	18.5	6.07e-01	0	43	0	67633152	21	4983
2026-01-26 12:28:47.17	174.94	10.53	-29.7	-32.5	18.5	6.06e-01	0	43	0	69206016	21	4966
2026-01-26 12:28:48.17	174.98	10.62	-29.7	-32.5	18.5	6.06e-01	0	43	0	71303168	21	4975
2026-01-26 12:28:49.18	175.02	10.72	-29.7	-32.4	18.6	6.08e-01	0	43	0	73400320	21	4949
2026-01-26 12:28:50.18	175.06	10.81	-29.8	-32.7	18.4	6.07e-01	0	43	0	74973184	21	5050
2026-01-26 12:28:51.18	175.10	10.91	-29.6	-32.2	18.7	6.07e-01	0	43	0	77070336	21	4866
2026-01-26 12:28:52.19	175.14	11.01	-29.5	-32.1	18.8	6.04e-01	0	43	0	78643200	21	4836
2026-01-26 12:28:53.19	175.18	11.10	-29.5	-32.0	18.8	6.07e-01	0	43	0	80740352	21	4812
2026-01-26 12:28:54.20	175.22	11.20	-29.5	-31.9	18.9	6.05e-01	0	43	0	82313216	21	4782
2026-01-26 12:28:55.19	175.26	11.30	-29.4	-32.3	19.0	6.06e-01	0	43	0	84410368	20	5020
2026-01-26 12:28:56.20	175.31	11.40	-29.6	-32.7	18.8	6.06e-01	0	43	0	86507520	20	5152
2026-01-26 12:28:57.20	175.35	11.49	-29.4	-32.2	19.0	6.07e-01	0	43	0	88080384	20	4995
2026-01-26 12:28:58.20	175.39	11.59	-29.5	-32.4	18.9	6.06e-01	0	43	0	90177536	20	5063
2026-01-26 12:28:59.20	175.43	11.69	-29.4	-32.2	19.0	6.06e-01	0	43	0	91750400	20	4979
2026-01-26 12:29:00.20	175.48	11.79	-29.3	-32.1	19.1	6.06e-01	0	43	0	93847552	20	4944
2026-01-26 12:29:01.20	175.52	11.89	-29.3	-32.1	19.1	6.07e-01	0	43	0	95420416	20	4935
2026-01-26 12:29:02.20	175.56	11.99	-29.5	-32.5	18.9	6.06e-01	0	43	0	97517568	20	5074
2026-01-26 12:29:03.20	175.61	12.09	-29.5	-32.5	18.9	6.08e-01	0	43	0	99614720	20	5094
2026-01-26 12:29:04.19	175.65	12.19	-29.5	-32.4	19.0	6.06e-01	0	43	0	101187584	20	5052
2026-01-26 12:29:05.20	175.69	12.30	-29.6	-32.7	18.8	6.06e-01	0	43	0	103284736	20	5172
2026-01-26 12:29:06.20	175.74	12.40	-29.8	-33.2	18.5	6.05e-01	0	43	0	104857600	20	5335
2026-01-26 12:29:07.21	175.79	12.50	-29.6	-32.6	18.9	6.07e-01	0	43	0	106954752	20	5124
2026-01-26 12:29:08.21	175.83	12.61	-29.7	-32.9	18.6	6.04e-01	0	43	0	108527616	20	5242
2026-01-26 12:29:09.22	175.88	12.71	-29.4	-32.3	19.0	6.07e-01	0	43	0	110624768	20	5016
2026-01-26 12:29:10.22	175.92	12.81	-29.6	-32.6	18.8	6.07e-01	0	43	0	112721920	20	5130
2026-01-26 12:29:11.23	175.97	12.92	-29.5	-32.4	19.0	6.08e-01	0	43	0	114294784	20	5040
2026-01-26 12:29:12.23	176.02	13.03	-29.6	-32.9	18.7	6.06e-01	0	43	0	116391936	20	5219
2026-01-26 12:29:13.23	176.06	13.13	-29.4	-32.3	19.1	6.04e-01	0	43	0	118489088	20	5019
2026-01-26 12:29:14.22	176.11	13.24	-29.4	-32.1	19.2	6.07e-01	0	43	0	120061952	20	4952
2026-01-26 12:29:15.23	176.16	13.34	-29.3	-32.1	19.2	6.06e-01	0	43	0	122159104	20	4930
2026-01-26 12:29:16.22	176.21	13.45	-29.3	-32.0	19.3	6.07e-01	0	43	0	123731968	20	4904
2026-01-26 12:29:17.23	176.26	13.56	-29.3	-31.8	19.4	6.07e-01	0	44	0	125829120	20	4845
2026-01-26 12:29:18.23	176.30	13.67	-29.2	-31.8	19.4	6.06e-01	0	43	0	127401984	20	4820
2026-01-26 12:29:19.23	176.35	13.78	-29.2	-31.6	19.5	6.05e-01	0	43	0	129499136	20	4772
2026-01-26 12:29:20.23	176.40	13.88	-29.3	-32.0	19.3	6.06e-01	0	43	0	131596288	20	4892
2026-01-26 12:29:21.23	176.45	13.99	-29.3	-31.8	19.4	6.08e-01	0	44	0	133169152	20	4837
2026-01-26 12:29:22.24	176.50	14.11	-29.3	-31.9	19.3	6.07e-01	0	43	0	135266304	20	4873
2026-01-26 12:29:23.23	176.55	14.22	-29.2	-31.5	19.6	6.06e-01	0	44	0	136839168	20	4731
2026-01-26 12:29:24.23	176.60	14.33	-29.2	-31.5	19.6	6.06e-01	0	44	0	138936320	20	4736
2026-01-26 12:29:25.24	176.66	14.44	-29.2	-31.6	19.6	6.09e-01	0	44	0	140509184	20	4764
2026-01-26 12:29:26.24	176.71	14.55	-29.2	-31.7	19.5	6.06e-01	0	44	0	142606336	20	4773
2026-01-26 12:29:27.25	176.76	14.67	-29.2	-31.6	19.6	6.05e-01	0	43	0	144703488	20	4760
2026-01-26 12:29:28.25	176.81	14.78	-29.3	-31.9	19.4	6.07e-01	0	43	0	146276352	20	4842
2026-01-26 12:29:29.25	176.87	14.89	-29.2	-31.7	19.6	6.08e-01	0	43	0	148373504	20	4796
2026-01-26 12:29:30.25	176.92	15.01	-29.3	-32.0	19.4	6.05e-01	0	43	0	149946368	20	4878
2026-01-26 12:29:31.26	176.97	15.13	-29.2	-31.7	19.6	6.05e-01	0	44	0	152043520	20	4769
2026-01-26 12:29:32.26	177.03	15.24	-29.2	-31.7	19.6	6.08e-01	0	44	0	153616384	20	4775
2026-01-26 12:29:33.26	177.08	15.36	-29.3	-31.8	19.5	6.06e-01	0	44	0	155713536	20	4818
2026-01-26 12:29:34.25	177.14	15.47	-29.3	-31.9	19.5	6.07e-01	0	44	0	157810688	20	4847
2026-01-26 12:29:35.26	177.19	15.59	-29.2	-31.7	19.6	6.08e-01	0	43	0	159383552	20	4798
2026-01-26 12:29:36.25	177.25	15.71	-29.2	-31.8	19.5	6.06e-01	0	44	0	161480704	20	4810
2026-01-26 12:29:37.26	177.31	15.83	-29.2	-31.7	19.6	6.05e-01	0	43	0	163053568	20	4792
2026-01-26 12:29:38.26	177.36	15.95	-29.2	-31.7	19.6	6.05e-01	0	44	0	165150720	20	4807
2026-01-26 12:29:39.26	177.42	16.07	-29.3	-31.9	19.5	6.05e-01	0	44	0	167247872	20	4861
2026-01-26 12:29:40.26	177.48	16.19	-29.1	-31.5	19.7	6.08e-01	0	44	0	168820736	20	4734
2026-01-26 12:29:41.27	177.54	16.31	-29.1	-31.5	19.7	6.07e-01	0	44	0	170917888	20	4748
2026-01-26 12:29:42.27	177.59	16.44	-29.1	-31.3	19.8	6.05e-01	0	44	0	172490752	20	4673
2026-01-26 12:29:43.28	177.65	16.56	-29.0	-31.3	19.8	6.07e-01	0	44	0	174587904	20	4662
2026-01-26 12:29:44.28	177.71	16.68	-29.0	-31.3	19.8	6.06e-01	0	44	0	176685056	20	4671
2026-01-26 12:29:45.28	177.77	16.81	-29.1	-31.3	19.8	6.04e-01	0	44	0	178257920	20	4687
2026-01-26 12:29:46.28	177.83	16.93	-29.1	-31.4	19.8	6.05e-01	0	44	0	180355072	20	4718
2026-01-26 12:29:47.29	177.90	17.06	-29.2	-31.6	19.6	6.06e-01	0	44	0	181927936	20	4795
2026-01-26 12:29:48.29	177.96	17.19	-29.1	-31.6	19.7	6.07e-01	0	44	0	184025088	20	4779
2026-01-26 12:29:49.28	178.02	17.31	-29.2	-31.8	19.5	6.05e-01	0	44	0	185597952	20	4867
2026-01-26 12:29:50.28	178.08	17.44	-29.1	-31.5	19.7	6.07e-01	0	44	0	187695104	20	4743
2026-01-26 12:29:51.28	178.15	17.57	-29.1	-31.4	19.8	6.06e-01	0	44	0	189792256	20	4725
2026-01-26 12:29:52.28	178.21	17.70	-29.0	-31.3	19.8	6.06e-01	0	44	0	191365120	20	4699
2026-01-26 12:29:53.28	178.27	17.83	-29.0	-31.4	19.8	6.06e-01	0	44	0	193462272	20	4714
2026-01-26 12:29:54.28	178.34	17.96	-29.1	-31.6	19.7	6.06e-01	0	44	0	195035136	20	4797
2026-01-26 12:29:55.28	178.40	18.09	-29.2	-31.9	19.4	6.05e-01	0	44	0	197132288	20	4918
2026-01-26 12:29:56.28	178.47	18.22	-29.1	-31.6	19.7	6.06e-01	0	44	0	198705152	20	4792
2026-01-26 12:29:57.29	178.54	18.35	-28.9	-31.2	19.9	6.04e-01	0	44	0	200802304	20	4686
2026-01-26 12:29:58.30	178.61	18.49	-29.0	-31.3	19.9	6.05e-01	0	44	0	202899456	20	4702
2026-01-26 12:29:59.30	178.67	18.62	-28.9	-31.1	19.9	6.07e-01	0	44	0	204472320	20	4651
2026-01-26 12:30:00.30	178.74	18.76	-29.0	-31.4	19.8	6.06e-01	0	44	0	206569472	20	4733
2026-01-26 12:30:01.30	178.81	18.89	-29.0	-31.5	19.7	6.05e-01	0	44	0	208142336	20	4780
2026-01-26 12:30:02.30	178.88	19.03	-28.9	-31.2	19.9	6.08e-01	0	44	0	210239488	20	4696
2026-01-26 12:30:03.31	178.95	19.17	-28.9	-31.2	19.9	6.05e-01	0	44	0	212336640	20	4680
2026-01-26 12:30:04.31	179.02	19.31	-29.0	-31.5	19.7	6.06e-01	0	44	0	213909504	20	4759
2026-01-26 12:30:05.32	179.09	19.45	-28.9	-31.2	19.9	6.07e-01	0	44	0	216006656	20	4669
2026-01-26 12:30:06.32	179.17	19.59	-29.1	-31.5	19.8	6.07e-01	0	44	0	217579520	20	4769
2026-01-26 12:30:07.32	179.24	19.73	-29.0	-31.4	19.9	6.06e-01	0	44	0	219676672	20	4701
2026-01-26 12:30:08.33	179.31	19.87	-29.0	-31.2	20.0	6.06e-01	0	44	0	221773824	20	4636
2026-01-26 12:30:09.33	179.39	20.01	-29.0	-31.1	20.0	6.07e-01	0	44	0	223346688	20	4620
2026-01-26 12:30:10.34	179.46	20.16	-29.0	-31.2	20.0	6.06e-01	0	44	0	225443840	20	4630
2026-01-26 12:30:11.34	179.54	20.30	-29.0	-31.0	20.2	6.05e-01	0	44	0	227016704	20	4556
2026-01-26 12:30:12.35	179.62	20.45	-29.0	-31.1	20.1	6.06e-01	0	44	0	229113856	20	4573
2026-01-26 12:30:13.34	179.69	20.59	-29.0	-31.1	20.2	6.08e-01	0	44	0	230686720	20	4580
2026-01-26 12:30:14.35	179.77	20.74	-29.0	-31.1	20.1	6.05e-01	0	44	0	232783872	20	4616
2026-01-26 12:30:15.35	179.85	20.89	-29.1	-31.9	20.1	6.06e-01	0	44	0	234881024	19	4917
2026-01-26 12:30:16.36	179.93	21.04	-29.3	-32.3	19.8	6.07e-01	0	44	0	236453888	19	5070
2026-01-26 12:30:17.36	180.01	21.19	-29.4	-32.4	19.8	6.08e-01	0	44	0	238551040	19	5100
2026-01-26 12:30:18.36	180.09	21.34	-29.3	-32.2	19.9	6.08e-01	0	44	0	240123904	19	5047
2026-01-26 12:30:19.36	180.17	21.49	-29.3	-32.3	19.9	6.07e-01	0	44	0	242221056	19	5052
2026-01-26 12:30:20.37	180.26	21.64	-29.3	-32.3	19.9	6.07e-01	0	44	0	244318208	19	5049
2026-01-26 12:30:21.38	180.34	21.80	-29.4	-32.4	19.8	6.05e-01	0	44	0	245891072	19	5103
2026-01-26 12:30:22.38	180.42	21.95	-29.4	-32.4	19.9	6.07e-01	0	44	0	247988224	19	5071
2026-01-26 12:30:23.38	180.51	22.11	-29.3	-32.2	20.0	6.06e-01	0	44	0	249561088	19	5012
2026-01-26 12:30:24.39	180.60	22.26	-29.3	-32.2	20.0	6.04e-01	0	44	0	251658240	19	5021
2026-01-26 12:30:25.40	180.68	22.42	-29.4	-32.4	19.9	6.06e-01	0	44	0	253755392	19	5075
2026-01-26 12:30:26.40	180.77	22.58	-29.5	-32.6	19.8	6.05e-01	0	44	0	255328256	19	5145
2026-01-26 12:30:27.39	180.86	22.74	-29.5	-32.6	19.8	6.05e-01	0	44	0	257425408	19	5153
2026-01-26 12:30:28.40	180.95	22.90	-29.5	-32.5	19.8	6.08e-01	0	44	0	258998272	19	5132
2026-01-26 12:30:29.40	181.04	23.06	-29.5	-32.6	19.8	6.07e-01	0	44	0	261095424	19	5154
2026-01-26 12:30:30.40	181.13	23.22	-29.5	-32.5	19.8	6.05e-01	0	44	0	262668288	19	5116
2026-01-26 12:30:31.40	181.22	23.39	-29.4	-32.3	20.0	6.05e-01	0	44	0	264765440	19	5042
2026-01-26 12:30:32.41	181.32	23.55	-29.4	-32.4	19.9	6.05e-01	0	44	0	266862592	19	5085
2026-01-26 12:30:33.41	181.41	23.72	-29.5	-32.6	19.8	6.05e-01	0	44	0	268435456	19	5135
2026-01-26 12:30:34.40	181.51	23.88	-29.5	-32.1	19.7	6.06e-01	0	44	0	270532608	20	4855
2026-01-26 12:30:35.40	181.60	24.05	-29.4	-32.0	19.8	6.04e-01	0	44	0	272105472	20	4829
2026-01-26 12:30:36.40	181.70	24.22	-29.4	-31.9	19.9	6.06e-01	0	44	0	274202624	20	4787
2026-01-26 12:30:37.41	181.80	24.39	-29.4	-31.9	19.9	6.06e-01	0	44	0	275775488	20	4790
2026-01-26 12:30:38.41	181.90	24.56	-29.4	-31.8	19.9	6.05e-01	0	44	0	277872640	20	4768
2026-01-26 12:30:39.42	182.00	24.73	-29.3	-31.7	20.0	6.05e-01	0	44	0	279969792	20	4721
2026-01-26 12:30:40.42	182.10	24.91	-29.3	-31.6	20.1	6.06e-01	0	44	0	281542656	20	4685
2026-01-26 12:30:41.42	182.21	25.08	-29.3	-31.6	20.1	6.04e-01	0	44	0	283639808	20	4692
2026-01-26 12:30:42.42	182.31	25.26	-29.3	-31.5	20.1	6.05e-01	0	44	0	285212672	20	4657
2026-01-26 12:30:43.42	182.41	25.43	-29.3	-31.7	20.0	6.07e-01	0	44	0	287309824	20	4732
2026-01-26 12:30:44.42	182.52	25.61	-29.4	-31.9	19.9	6.06e-01	0	44	0	289406976	20	4809
2026-01-26 12:30:45.43	182.63	25.79	-29.4	-31.8	20.0	6.03e-01	0	44	0	290979840	20	4772
2026-01-26 12:30:46.43	182.74	25.97	-29.5	-32.0	19.9	6.06e-01	0	44	0	293076992	20	4819
2026-01-26 12:30:47.43	182.85	26.15	-29.3	-31.6	20.1	6.06e-01	0	44	0	294649856	20	4693
2026-01-26 12:30:48.44	182.96	26.34	-29.3	-31.7	20.1	6.04e-01	0	44	0	296747008	20	4713
2026-01-26 12:30:49.44	183.07	26.52	-29.4	-31.8	20.0	6.07e-01	0	44	0	298844160	20	4754
2026-01-26 12:30:50.44	183.19	26.71	-29.4	-31.7	20.0	6.07e-01	0	44	0	300417024	20	4740
2026-01-26 12:30:51.45	183.30	26.89	-29.4	-31.8	20.0	6.07e-01	0	44	0	302514176	20	4742
2026-01-26 12:30:52.46	183.42	27.08	-29.4	-31.7	20.0	6.07e-01	0	44	0	304087040	20	4729
2026-01-26 12:30:53.46	183.54	27.27	-29.2	-31.3	20.3	6.06e-01	0	44	0	306184192	20	4595
2026-01-26 12:30:54.46	183.66	27.46	-29.1	-31.0	20.4	6.06e-01	0	44	0	307757056	20	4515
2026-01-26 12:30:55.47	183.78	27.66	-29.1	-31.1	20.4	6.05e-01	0	44	0	309854208	20	4534
2026-01-26 12:30:56.48	183.90	27.85	-29.1	-31.0	20.5	6.08e-01	0	44	0	311951360	20	4509
2026-01-26 12:30:57.47	184.03	28.04	-29.1	-31.0	20.5	6.06e-01	0	44	0	313524224	20	4497
2026-01-26 12:30:58.47	184.15	28.24	-29.1	-31.0	20.5	6.03e-01	0	44	0	315621376	20	4489
2026-01-26 12:30:59.48	184.28	28.44	-29.1	-31.0	20.5	6.04e-01	0	44	0	317718528	20	4504
2026-01-26 12:31:00.48	184.41	28.64	-29.2	-31.2	20.4	6.07e-01	0	44	0	319291392	20	4563
2026-01-26 12:31:01.48	184.54	28.84	-29.1	-31.2	20.4	6.07e-01	0	44	0	321388544	20	4542
2026-01-26 12:31:02.48	184.67	29.04	-29.0	-30.7	20.7	6.07e-01	0	44	0	322961408	20	4407
2026-01-26 12:31:03.48	184.80	29.24	-29.0	-30.8	20.7	6.04e-01	0	44	0	325058560	20	4423
2026-01-26 12:31:04.48	184.94	29.44	-29.0	-30.8	20.7	6.05e-01	0	44	0	326631424	20	4439
2026-01-26 12:31:05.48	185.08	29.65	-29.1	-31.1	20.5	6.06e-01	0	44	0	328728576	20	4537
2026-01-26 12:31:06.49	185.22	29.86	-29.2	-31.2	20.4	6.06e-01	0	44	0	330825728	20	4577
2026-01-26 12:31:07.49	185.36	30.06	-29.1	-31.2	20.4	6.06e-01	0	44	0	332398592	20	4548
2026-01-26 12:31:08.50	185.50	30.28	-29.2	-31.2	20.4	6.04e-01	0	44	0	334495744	20	4569
2026-01-26 12:31:09.50	185.64	30.49	-29.1	-31.0	20.5	6.07e-01	0	44	0	336068608	20	4495
2026-01-26 12:31:10.51	185.79	30.70	-28.9	-31.0	20.9	6.06e-01	0	44	0	338165760	19	4603
2026-01-26 12:31:11.51	185.94	30.92	-29.0	-31.4	20.7	6.06e-01	0	44	0	339738624	19	4716
2026-01-26 12:31:12.51	186.09	31.13	-29.4	-32.2	20.2	6.07e-01	0	44	0	341835776	19	5001
2026-01-26 12:31:13.52	186.24	31.35	-29.5	-32.5	20.0	6.04e-01	0	44	0	343932928	19	5081
2026-01-26 12:31:14.52	186.40	31.57	-29.4	-32.2	20.2	6.06e-01	0	44	0	345505792	19	4980
2026-01-26 12:31:15.52	186.55	31.79	-29.2	-31.9	20.4	6.05e-01	0	44	0	347602944	19	4870
2026-01-26 12:31:16.52	186.71	32.01	-29.3	-32.1	20.3	6.05e-01	0	44	0	349175808	19	4956
2026-01-26 12:31:17.52	186.87	32.23	-29.5	-32.4	20.1	6.07e-01	0	44	0	351272960	19	5076
2026-01-26 12:31:18.53	187.04	32.46	-29.5	-32.6	20.0	6.05e-01	0	44	0	353370112	19	5145
2026-01-26 12:31:19.53	187.20	32.69	-29.5	-32.6	20.0	6.05e-01	0	44	0	354942976	19	5120
2026-01-26 12:31:20.53	187.37	32.92	-29.6	-32.7	20.0	6.06e-01	0	44	0	357040128	19	5173
2026-01-26 12:31:21.54	187.54	33.15	-29.7	-32.7	19.6	6.03e-01	0	44	0	358612992	20	5061
2026-01-26 12:31:22.54	187.71	33.38	-29.9	-33.0	19.4	6.07e-01	0	44	0	360710144	20	5148
2026-01-26 12:31:23.55	187.89	33.61	-29.6	-32.4	19.8	6.05e-01	0	44	0	362807296	20	4957
2026-01-26 12:31:24.54	188.07	33.85	-29.6	-32.2	19.9	6.05e-01	0	44	0	364380160	20	4895
2026-01-26 12:31:25.55	188.25	34.08	-29.6	-32.4	19.8	6.06e-01	0	44	0	366477312	20	4964
2026-01-26 12:31:26.55	188.43	34.32	-29.8	-32.8	19.5	6.05e-01	0	44	0	368050176	20	5106
2026-01-26 12:31:27.55	188.62	34.56	-29.7	-32.6	19.7	6.04e-01	0	44	0	370147328	20	5031
2026-01-26 12:31:28.56	188.81	34.80	-29.7	-32.5	19.8	6.07e-01	0	44	0	371720192	20	4966
2026-01-26 12:31:29.56	189.00	35.05	-29.8	-32.8	19.6	6.07e-01	0	44	0	373817344	20	5074
2026-01-26 12:31:30.56	189.19	35.29	-29.8	-32.9	19.6	6.06e-01	0	44	0	375914496	20	5127
2026-01-26 12:31:31.56	189.39	35.54	-29.9	-33.2	19.3	6.05e-01	0	44	0	377487360	20	5233
2026-01-26 12:31:32.57	189.59	35.79	-30.0	-33.5	19.2	6.07e-01	0	44	0	379584512	20	5355
2026-01-26 12:31:33.57	189.79	36.04	-29.9	-33.2	19.3	6.07e-01	0	44	0	381157376	20	5230
2026-01-26 12:31:34.57	190.00	36.29	-30.0	-33.3	19.3	6.06e-01	0	44	0	383254528	20	5285
2026-01-26 12:31:35.57	190.21	36.54	-30.2	-33.3	19.0	6.05e-01	0	44	0	384827392	21	5175
2026-01-26 12:31:36.58	190.42	36.80	-30.5	-34.2	18.5	6.05e-01	0	44	0	386924544	21	5510
2026-01-26 12:31:37.58	190.64	37.05	-30.4	-33.5	18.6	6.06e-01	0	44	0	389021696	22	5105
2026-01-26 12:31:38.59	190.86	37.31	-30.1	-32.6	19.2	6.07e-01	0	44	0	390594560	22	4782
2026-01-26 12:31:39.60	191.08	37.57	-30.1	-32.6	19.1	6.05e-01	0	44	0	392691712	22	4811
2026-01-26 12:31:40.61	191.31	37.84	-30.3	-33.2	18.8	6.05e-01	0	44	0	394264576	22	5005
2026-01-26 12:31:41.61	191.54	38.10	-30.5	-33.6	18.5	6.06e-01	0	44	0	396361728	22	5169
2026-01-26 12:31:42.62	191.78	38.37	-30.4	-33.3	18.7	6.04e-01	0	44	0	398458880	22	5035
2026-01-26 12:31:43.62	192.02	38.63	-30.3	-33.1	18.8	6.07e-01	0	44	0	400031744	22	4979
2026-01-26 12:31:44.62	192.26	38.90	-30.3	-33.2	18.8	6.07e-01	0	44	0	402128896	22	5005
2026-01-26 12:31:45.62	192.50	39.17	-30.2	-32.9	19.0	6.07e-01	0	44	0	403701760	22	4910
2026-01-26 12:31:46.63	192.76	39.44	-28.5	-32.6	17.6	6.07e-01	0	44	0	405798912	19	5749
2026-01-26 12:31:47.63	193.01	39.72	-28.6	-32.7	17.6	6.09e-01	0	44	0	407896064	19	5772
2026-01-26 12:31:48.63	193.27	39.99	-28.5	-32.5	17.5	6.09e-01	0	44	0	409468928	19	5730
2026-01-26 12:31:49.63	193.53	40.27	-28.4	-32.2	17.8	6.07e-01	0	44	0	411566080	19	5552
2026-01-26 12:31:50.63	193.80	40.54	-28.3	-32.6	17.9	6.08e-01	0	44	0	413138944	18	5903
2026-01-26 12:31:51.64	194.07	40.83	-29.8	-32.8	19.7	6.07e-01	0	44	0	415236096	20	5069
2026-01-26 12:31:52.64	194.35	41.11	-29.8	-32.7	19.8	6.07e-01	0	44	0	417333248	20	5031
2026-01-26 12:31:53.64	194.63	41.39	-29.7	-32.5	19.8	6.05e-01	0	44	0	418906112	20	4981
2026-01-26 12:31:54.65	194.92	41.68	-29.9	-33.0	19.6	6.06e-01	0	44	0	421003264	20	5146
2026-01-26 12:31:55.66	195.22	41.96	-30.1	-33.1	19.2	6.05e-01	0	44	0	422576128	21	5071
2026-01-26 12:31:56.65	195.51	42.25	-30.0	-32.7	19.4	6.06e-01	0	44	0	424673280	21	4918
2026-01-26 12:31:57.65	195.81	42.54	-29.8	-32.3	19.7	6.06e-01	0	44	0	426246144	21	4778
2026-01-26 12:31:58.65	196.12	42.83	-29.9	-32.6	19.5	6.03e-01	0	44	0	428343296	21	4893
2026-01-26 12:31:59.65	196.43	43.12	-29.7	-32.0	19.9	6.06e-01	0	44	0	430440448	21	4697
2026-01-26 12:32:00.65	196.75	43.41	-29.6	-31.9	20.0	6.07e-01	0	44	0	432013312	21	4653
2026-01-26 12:32:01.65	197.08	43.70	-29.6	-31.8	20.0	6.06e-01	0	44	0	434110464	21	4608
2026-01-26 12:32:02.65	197.41	44.00	-29.5	-31.6	20.1	6.05e-01	0	44	0	435683328	21	4555
2026-01-26 12:32:03.66	197.75	44.30	-29.9	-32.5	19.7	6.07e-01	0	44	0	437780480	21	4850
2026-01-26 12:32:04.66	198.09	44.60	-29.6	-31.8	20.0	6.08e-01	0	44	0	439877632	21	4615
2026-01-26 12:32:05.66	198.44	44.90	-29.1	-31.1	20.7	6.05e-01	0	44	0	441450496	20	4504
2026-01-26 12:32:06.66	198.80	45.20	-29.0	-30.6	21.0	6.05e-01	0	44	0	443547648	20	4374
2026-01-26 12:32:07.67	199.17	45.50	-28.9	-31.0	21.1	6.05e-01	0	44	0	445120512	19	4591
2026-01-26 12:32:08.67	199.54	45.81	-28.8	-30.8	21.2	6.06e-01	0	44	0	447217664	19	4518
2026-01-26 12:32:09.68	199.92	46.11	-28.9	-31.0	21.1	6.07e-01	0	44	0	449314816	19	4583
2026-01-26 12:32:10.67	200.30	46.41	-29.0	-31.2	21.0	6.04e-01	0	44	0	450887680	19	4645
2026-01-26 12:32:11.67	200.70	46.72	-28.8	-30.7	21.3	6.05e-01	0	44	0	452984832	19	4502
2026-01-26 12:32:12.68	201.10	47.03	-29.2	-31.6	20.8	6.06e-01	0	44	0	454557696	19	4762
2026-01-26 12:32:13.68	201.51	47.34	-29.0	-31.1	21.1	6.05e-01	0	44	0	456654848	19	4609
2026-01-26 12:32:14.68	201.93	47.65	-28.7	-30.6	21.4	6.08e-01	0	44	0	458227712	19	4439
2026-01-26 12:32:15.69	202.36	47.96	-28.8	-30.8	21.3	6.06e-01	0	44	0	460324864	19	4510
2026-01-26 12:32:16.69	202.79	48.27	-28.9	-30.9	21.3	6.05e-01	0	44	0	462422016	19	4541
2026-01-26 12:32:17.70	203.24	48.58	-29.0	-31.2	21.1	6.06e-01	0	44	0	463994880	19	4643
2026-01-26 12:32:18.70	203.69	48.89	-28.8	-30.8	21.3	6.05e-01	0	44	0	466092032	19	4517
2026-01-26 12:32:19.69	204.15	49.20	-28.7	-30.5	21.5	6.07e-01	0	44	0	467664896	19	4420
2026-01-26 12:32:20.69	204.62	49.51	-28.9	-30.9	21.3	6.05e-01	0	44	0	469762048	19	4539
2026-01-26 12:32:21.69	205.10	49.82	-28.9	-31.0	21.1	6.07e-01	0	44	0	471334912	19	4586
2026-01-26 12:32:22.70	205.59	50.14	-28.7	-30.5	21.5	6.06e-01	0	44	0	473432064	19	4431
2026-01-26 12:32:23.69	206.09	50.45	-28.9	-31.1	21.2	6.07e-01	0	44	0	475529216	19	4591
2026-01-26 12:32:24.69	206.60	50.76	-28.8	-30.7	21.4	6.07e-01	0	44	0	477102080	19	4480
2026-01-26 12:32:25.69	207.12	51.07	-29.0	-31.2	21.1	6.05e-01	0	44	0	479199232	19	4633
2026-01-26 12:32:26.69	207.66	51.38	-28.9	-31.0	21.2	6.04e-01	0	44	0	480772096	19	4583
2026-01-26 12:32:27.69	208.20	51.69	-28.8	-30.7	21.4	6.07e-01	0	44	0	482869248	19	4464
2026-01-26 12:32:28.70	208.76	52.01	-28.5	-30.0	21.8	6.06e-01	0	44	0	484966400	19	4278
2026-01-26 12:32:29.70	209.33	52.32	-29.1	-31.4	21.0	6.08e-01	0	44	0	486539264	19	4686
2026-01-26 12:32:30.70	209.91	52.63	-28.8	-30.6	21.3	6.06e-01	0	44	0	488636416	19	4466
2026-01-26 12:32:31.70	210.50	52.93	-28.6	-30.3	21.5	6.03e-01	0	44	0	490209280	19	4361
2026-01-26 12:32:32.70	211.10	53.24	-28.7	-30.6	21.4	6.06e-01	0	44	0	492306432	19	4435
2026-01-26 12:32:33.70	211.72	53.54	-28.8	-30.7	21.4	6.06e-01	0	44	0	493879296	19	4484
2026-01-26 12:32:34.70	212.35	53.85	-28.8	-30.6	21.4	6.06e-01	0	44	0	495976448	19	4461
2026-01-26 12:32:35.70	212.99	54.15	-28.7	-30.4	21.6	6.05e-01	0	44	0	498073600	19	4387
2026-01-26 12:32:36.70	213.65	54.45	-29.1	-31.4	21.1	6.06e-01	0	44	0	499646464	19	4687
2026-01-26 12:32:37.71	214.33	54.75	-29.0	-31.3	21.1	6.06e-01	0	44	0	501743616	19	4648
2026-01-26 12:32:38.71	215.01	55.05	-29.1	-31.3	21.1	6.05e-01	0	44	0	503316480	19	4663
2026-01-26 12:32:39.72	215.72	55.35	-29.3	-32.0	20.8	6.08e-01	0	44	0	505413632	19	4868
2026-01-26 12:32:40.72	216.43	55.64	-29.4	-32.1	20.7	6.06e-01	0	44	0	507510784	19	4920
2026-01-26 12:32:41.73	217.17	55.93	-29.7	-32.3	20.3	6.05e-01	0	44	0	509083648	20	4867
2026-01-26 12:32:42.73	217.91	56.21	-29.8	-32.6	20.0	6.05e-01	0	44	0	511180800	20	4992
2026-01-26 12:32:43.74	218.68	56.50	-29.8	-32.7	20.0	6.06e-01	0	44	0	512753664	20	5031
2026-01-26 12:32:44.75	219.46	56.78	-30.0	-33.2	19.7	6.06e-01	0	44	0	514850816	20	5200
2026-01-26 12:32:45.75	220.26	57.06	-30.4	-33.8	19.1	6.06e-01	0	44	0	516423680	21	5311
2026-01-26 12:32:46.75	221.06	57.33	-30.2	-33.1	19.5	6.07e-01	0	44	0	518520832	21	5043
2026-01-26 12:32:47.74	221.88	57.59	-30.5	-33.9	19.0	6.04e-01	0	44	0	520617984	21	5349
2026-01-26 12:32:48.75	222.73	57.86	-30.7	-33.9	18.7	6.06e-01	0	44	0	522190848	22	5219
2026-01-26 12:32:49.74	223.57	58.11	-30.4	-33.3	19.1	6.08e-01	0	44	0	524288000	22	4990
2026-01-26 12:32:50.75	224.46	58.37	-30.6	-33.8	18.8	6.07e-01	0	44	0	525860864	22	5189
2026-01-26 12:32:51.74	225.34	58.61	-30.5	-33.4	19.0	6.07e-01	0	44	0	527958016	22	5045
2026-01-26 12:32:52.74	226.24	58.86	-30.9	-34.7	18.3	6.07e-01	0	44	0	530055168	22	5521
2026-01-26 12:32:53.74	227.16	59.10	-30.8	-34.1	18.5	6.07e-01	0	44	0	531628032	22	5311
2026-01-26 12:32:54.75	228.11	59.33	-30.7	-33.9	18.7	6.06e-01	0	44	0	533725184	22	5222
2026-01-26 12:32:55.75	229.07	59.55	-30.8	-34.3	18.5	6.06e-01	0	44	0	535298048	22	5370
2026-01-26 12:32:56.75	230.04	59.77	-30.9	-34.5	18.4	6.06e-01	0	44	0	537395200	22	5433
2026-01-26 12:32:57.76	231.04	59.99	-30.9	-34.5	18.3	6.07e-01	0	44	0	538968064	22	5470
2026-01-26 12:32:58.76	232.04	60.19	-31.0	-34.8	18.2	6.07e-01	0	44	0	541065216	22	5585
2026-01-26 12:32:59.76	233.06	60.39	-31.0	-34.9	18.1	6.05e-01	0	44	0	543162368	22	5642
2026-01-26 12:33:00.76	234.10	60.58	-31.2	-34.8	17.9	6.08e-01	0	44	0	544735232	23	5447
2026-01-26 12:33:01.77	235.16	60.77	-31.1	-34.4	18.2	6.05e-01	0	44	0	546832384	23	5313
2026-01-26 12:33:02.78	236.24	60.94	-31.1	-34.4	18.1	6.06e-01	0	44	0	548405248	23	5309
2026-01-26 12:33:03.78	237.32	61.11	-31.3	-35.2	17.5	6.07e-01	0	44	0	550502400	23	5651
2026-01-26 12:33:04.78	238.42	61.27	-31.0	-34.2	18.0	6.06e-01	0	44	0	552599552	23	5214
2026-01-26 12:33:05.79	239.54	61.42	-31.2	-34.8	17.8	6.06e-01	0	44	0	554172416	23	5435
2026-01-26 12:33:06.80	240.67	61.56	-31.0	-34.3	18.1	6.06e-01	0	44	0	556269568	23	5249
2026-01-26 12:33:07.80	241.80	61.69	-31.3	-35.2	17.6	6.06e-01	0	44	0	557842432	23	5597
2026-01-26 12:33:08.81	242.96	61.81	-31.0	-34.2	18.3	6.04e-01	0	44	0	559939584	23	5207
2026-01-26 12:33:09.81	244.12	61.92	-31.2	-34.9	17.8	6.06e-01	0	44	0	562036736	23	5497
2026-01-26 12:33:10.81	245.29	62.02	-31.1	-34.6	17.9	6.07e-01	0	44	0	563609600	23	5361
2026-01-26 12:33:11.81	246.46	62.12	-31.1	-34.6	18.0	6.07e-01	0	44	0	565706752	23	5367
2026-01-26 12:33:12.81	247.65	62.20	-31.5	-35.6	17.4	6.08e-01	0	44	0	567279616	23	5779
2026-01-26 12:33:13.81	248.84	62.27	-31.4	-35.3	17.6	6.08e-01	0	44	0	569376768	23	5649
2026-01-26 12:33:14.81	250.04	62.33	-31.4	-35.4	17.5	6.06e-01	0	44	0	570949632	23	5698
2026-01-26 12:33:15.82	251.25	62.38	-31.3	-35.2	17.6	6.05e-01	0	44	0	573046784	23	5611
2026-01-26 12:33:16.82	252.46	62.42	-31.5	-35.7	17.3	6.07e-01	0	44	0	575143936	23	5849
2026-01-26 12:33:17.82	253.67	62.45	-31.2	-34.9	17.9	6.05e-01	0	44	0	576716800	23	5475
2026-01-26 12:33:18.82	254.89	62.47	-31.4	-35.4	17.6	6.04e-01	0	44	0	578813952	23	5710
2026-01-26 12:33:19.83	256.12	62.48	-31.2	-34.7	17.9	6.06e-01	0	44	0	580386816	23	5406
2026-01-26 12:33:20.83	257.33	62.47	-31.3	-35.0	17.7	6.06e-01	0	44	0	582483968	23	5527
2026-01-26 12:33:21.83	258.55	62.46	-31.1	-34.5	18.1	6.07e-01	0	44	0	584581120	23	5302
2026-01-26 12:33:22.84	259.77	62.43	-31.2	-34.9	17.9	6.06e-01	0	44	0	586153984	23	5468
2026-01-26 12:33:23.85	260.99	62.40	-31.5	-35.6	17.4	6.06e-01	0	44	0	588251136	23	5800
2026-01-26 12:33:24.84	262.19	62.35	-31.0	-34.2	18.3	6.05e-01	0	44	0	589824000	23	5205
2026-01-26 12:33:25.84	263.39	62.29	-31.1	-34.3	18.3	6.07e-01	0	44	0	591921152	23	5239
2026-01-26 12:33:26.84	264.58	62.23	-31.4	-35.4	17.6	6.06e-01	0	44	0	593494016	23	5696
2026-01-26 12:33:27.85	265.78	62.15	-31.1	-34.5	18.1	6.05e-01	0	44	0	595591168	23	5304
2026-01-26 12:33:28.85	266.96	62.06	-31.1	-34.4	18.3	6.04e-01	0	44	0	597688320	23	5266
2026-01-26 12:33:29.86	268.14	61.96	-31.3	-34.9	17.9	6.05e-01	0	44	0	599261184	23	5480
2026-01-26 12:33:30.86	269.30	61.86	-31.4	-35.4	17.5	6.02e-01	0	44	0	601358336	23	5698
2026-01-26 12:33:31.87	270.46	61.74	-31.0	-34.3	18.2	6.05e-01	0	44	0	602931200	23	5244
2026-01-26 12:33:32.88	271.61	61.61	-31.3	-35.0	17.8	6.07e-01	0	44	0	605028352	23	5518
2026-01-26 12:33:33.87	272.73	61.47	-31.3	-35.1	17.7	6.04e-01	0	44	0	607125504	23	5569
2026-01-26 12:33:34.87	273.84	61.33	-31.2	-34.7	18.0	6.06e-01	0	44	0	608698368	23	5409
2026-01-26 12:33:35.87	274.94	61.18	-31.5	-35.8	17.3	6.07e-01	0	44	0	610795520	23	5881
2026-01-26 12:33:36.87	276.03	61.01	-31.1	-34.7	18.0	6.06e-01	0	44	0	612368384	23	5399
2026-01-26 12:33:37.87	277.10	60.84	-31.2	-34.8	17.9	6.05e-01	0	44	0	614465536	23	5448
2026-01-26 12:33:38.88	278.16	60.66	-31.4	-35.5	17.5	6.05e-01	0	44	0	616562688	23	5739
2026-01-26 12:33:39.88	279.21	60.47	-31.1	-34.7	17.9	6.06e-01	0	44	0	618135552	23	5452
2026-01-26 12:33:40.89	280.24	60.28	-31.0	-34.4	18.0	6.07e-01	0	44	0	620232704	23	5351
2026-01-26 12:33:41.89	281.25	60.08	-31.3	-35.5	17.3	6.06e-01	0	44	0	621805568	23	5824
2026-01-26 12:33:42.89	282.25	59.87	-31.2	-34.9	17.8	6.05e-01	0	44	0	623902720	23	5511
2026-01-26 12:33:43.90	283.23	59.65	-30.9	-34.1	18.4	6.04e-01	0	44	0	625475584	23	5161
2026-01-26 12:33:44.90	284.19	59.43	-30.7	-33.4	18.8	6.04e-01	0	44	0	627572736	23	4926
2026-01-26 12:33:45.90	285.14	59.20	-30.8	-33.9	18.6	6.07e-01	0	44	0	629669888	23	5095
2026-01-26 12:33:46.90	286.07	58.96	-30.8	-33.7	18.6	6.04e-01	0	44	0	631242752	23	5018
2026-01-26 12:33:47.90	286.98	58.72	-30.4	-32.6	19.3	6.05e-01	0	44	0	633339904	23	4632
2026-01-26 12:33:48.90	287.87	58.48	-31.0	-34.3	18.3	6.06e-01	0	44	0	634912768	23	5277
2026-01-26 12:33:49.91	288.76	58.23	-30.8	-34.0	18.4	6.03e-01	0	44	0	637009920	23	5147
2026-01-26 12:33:50.90	289.61	57.97	-30.7	-33.5	18.8	6.06e-01	0	44	0	638582784	23	4955
2026-01-26 12:33:51.90	290.46	57.71	-30.8	-33.8	18.6	6.06e-01	0	44	0	640679936	23	5042
2026-01-26 12:33:52.90	291.29	57.45	-30.7	-33.4	18.8	6.04e-01	0	44	0	642777088	23	4891
2026-01-26 12:33:53.90	292.10	57.18	-30.8	-42.9	3.8	7.45e-01	0	44	104	643301376	23	14526
2026-01-26 12:33:54.91	292.90	56.90	-30.7	-42.9	3.8	7.44e-01	0	44	104	643301376	23	14576
2026-01-26 12:33:55.91	293.69	56.63	-30.8	-43.1	3.8	7.44e-01	0	44	104	643301376	23	14862
2026-01-26 12:33:56.92	294.46	56.34	-30.9	-43.0	3.8	7.45e-01	0	44	104	643301376	23	14641
2026-01-26 12:33:57.92	295.21	56.06	-30.6	-42.2	3.8	7.44e-01	0	44	104	643301376	23	13808
2026-01-26 12:33:58.93	295.95	55.77	-30.5	-42.1	3.8	7.46e-01	0	44	104	643301376	23	13751
2026-01-26 12:33:59.93	296.67	55.48	-30.5	-42.2	3.8	7.46e-01	0	44	104	643301376	23	13926
2026-01-26 12:34:00.94	297.38	55.19	-30.4	-42.2	3.8	7.44e-01	0	44	104	643301376	23	13915
2026-01-26 12:34:01.94	298.07	54.89	-30.4	-42.0	3.8	7.45e-01	0	44	104	643301376	23	13571
2026-01-26 12:34:02.95	298.75	54.59	-30.5	-42.0	3.8	7.43e-01	0	44	104	643301376	23	13505
2026-01-26 12:34:03.95	299.41	54.30	-30.4	-41.9	3.8	7.42e-01	0	44	104	643301376	23	13576
2026-01-26 12:34:04.94	300.05	54.00	-30.4	-42.6	3.8	7.48e-01	0	44	104	643301376	22	14646
2026-01-26 12:34:05.95	300.70	53.69	-30.5	-42.9	3.8	7.45e-01	0	44	104	643301376	22	15028
2026-01-26 12:34:06.94	301.31	53.39	-30.6	-42.9	4.2	7.26e-01	0	44	104	643301376	22	14920
2026-01-26 12:34:07.94	301.92	53.09	-30.7	-42.8	3.7	7.49e-01	0	44	104	643301376	22	14495
2026-01-26 12:34:08.95	302.52	52.78	-31.1	-43.6	3.8	7.42e-01	0	44	104	643301376	23	15156
2026-01-26 12:34:09.96	303.11	52.47	-31.7	-44.8	3.8	7.49e-01	0	44	104	643301376	24	16432
2026-01-26 12:34:10.96	303.68	52.16	-31.9	-45.6	3.8	7.42e-01	0	44	104	643301376	24	17364
2026-01-26 12:34:11.97	304.25	51.85	-32.3	-45.9	3.8	7.47e-01	0	44	104	643301376	25	17349
2026-01-26 12:34:12.97	304.79	51.54	-32.6	-47.2	3.8	7.46e-01	0	44	104	643301376	25	19453
2026-01-26 12:34:13.97	305.33	51.23	-32.9	-47.6	3.8	7.47e-01	0	44	104	643301376	26	19394
2026-01-26 12:34:14.97	305.85	50.92	-33.3	-48.1	3.8	7.45e-01	0	44	104	643301376	27	19944
2026-01-26 12:34:15.97	306.37	50.61	-33.4	-49.0	3.8	7.46e-01	0	44	104	643301376	27	21698
2026-01-26 12:34:16.97	306.87	50.30	-33.5	-49.5	3.8	7.47e-01	0	44	104	643301376	28	22559
2026-01-26 12:34:17.98	307.37	49.98	-33.7	-50.0	3.8	7.42e-01	0	44	104	643301376	28	23587
2026-01-26 12:34:18.98	307.86	49.67	-33.9	-50.7	3.8	7.45e-01	0	44	104	643301376	28	24910
2026-01-26 12:34:19.99	308.33	49.36	-33.9	-51.2	3.8	7.46e-01	0	44	104	643301376	28	26177
2026-01-26 12:34:20.99	308.80	49.05	-34.1	-51.9	3.8	7.46e-01	0	44	104	643301376	28	28222
2026-01-26 12:34:21.98	309.25	48.74	-34.0	-51.5	3.8	7.43e-01	0	44	104	643301376	28	26931
2026-01-26 12:34:22.99	309.70	48.43	-34.0	-51.8	3.8	7.43e-01	0	44	104	643301376	28	27845
2026-01-26 12:34:24.00	310.14	48.12	-34.1	-51.9	3.8	7.45e-01	0	44	104	643301376	28	28139
2026-01-26 12:34:25.01	310.57	47.81	-34.1	-52.0	3.8	7.44e-01	0	44	104	643301376	28	28434
2026-01-26 12:34:26.01	310.99	47.50	-34.1	-52.0	3.8	7.43e-01	0	44	104	643301376	28	28337
2026-01-26 12:34:27.01	311.40	47.19	-34.0	-51.7	3.8	7.44e-01	0	44	104	643301376	28	27497
2026-01-26 12:34:28.02	311.81	46.88	-33.9	-51.2	3.8	7.44e-01	0	44	104	643301376	28	26222
2026-01-26 12:34:29.02	312.21	46.58	-33.8	-50.3	3.8	7.45e-01	0	44	104	643301376	28	24302
2026-01-26 12:34:30.02	312.60	46.28	-33.6	-49.8	3.8	7.45e-01	0	44	104	643301376	28	23270
2026-01-26 12:34:31.03	312.98	45.97	-33.5	-49.1	3.8	7.43e-01	0	44	104	643301376	28	21809
2026-01-26 12:34:32.03	313.35	45.67	-33.3	-48.2	3.8	7.42e-01	0	44	104	643301376	28	20016
2026-01-26 12:34:33.03	313.72	45.37	-33.2	-47.7	3.8	7.45e-01	0	44	104	643301376	28	19113
2026-01-26 12:34:34.04	314.08	45.06	-33.1	-47.4	3.8	7.45e-01	0	44	104	643301376	28	18831
2026-01-26 12:34:35.04	314.43	44.77	-32.9	-47.4	3.8	7.47e-01	0	44	104	643301376	27	19174
2026-01-26 12:34:36.03	314.78	44.47	-32.6	-46.4	3.8	7.44e-01	0	44	104	643301376	27	17627
2026-01-26 12:34:37.04	315.12	44.17	-32.2	-45.5	3.8	7.44e-01	0	44	104	643301376	26	16551
2026-01-26 12:34:38.05	315.46	43.87	-31.9	-44.4	3.8	7.44e-01	0	44	104	643301376	26	15130
2026-01-26 12:34:39.05	315.78	43.58	-31.6	-44.2	3.8	7.47e-01	0	44	104	643301376	25	15273
2026-01-26 12:34:40.06	316.11	43.29	-31.4	-43.6	3.8	7.42e-01	0	44	104	643301376	25	14654
2026-01-26 12:34:41.06	316.42	43.00	-31.2	-43.6	3.8	7.46e-01	0	44	104	643301376	24	15068
2026-01-26 12:34:42.07	316.73	42.70	-31.0	-43.1	3.8	7.43e-01	0	44	104	643301376	24	14425
2026-01-26 12:34:43.07	317.04	42.42	-30.9	-42.8	3.8	7.44e-01	0	44	104	643301376	24	14096
2026-01-26 12:34:44.07	317.34	42.13	-30.9	-42.8	3.8	7.43e-01	0	44	104	643301376	24	14196
2026-01-26 12:34:45.08	317.63	41.84	-31.0	-43.1	3.8	7.43e-01	0	44	104	643301376	24	14566
2026-01-26 12:34:46.08	317.92	41.56	-31.0	-42.9	3.8	7.46e-01	0	44	104	643301376	24	14202
2026-01-26 12:34:47.08	318.21	41.28	-31.1	-43.2	3.8	7.45e-01	0	44	104	643301376	24	14580
2026-01-26 12:34:48.09	318.49	41.00	-30.9	-43.0	3.8	7.44e-01	0	44	104	643301376	24	14511
2026-01-26 12:34:49.09	318.76	40.72	-30.7	-43.0	3.8	7.47e-01	0	44	104	643301376	23	14767
2026-01-26 12:34:50.09	319.03	40.44	-30.7	-42.7	3.8	7.44e-01	0	44	104	643301376	23	14372
2026-01-26 12:34:51.09	319.29	40.16	-30.7	-42.9	3.8	7.48e-01	0	44	104	643301376	23	14549
2026-01-26 12:34:52.10	319.55	39.89	-30.8	-43.2	3.8	7.45e-01	0	44	104	643301376	23	14857
2026-01-26 12:34:53.10	319.81	39.62	-31.0	-43.5	3.8	7.46e-01	0	44	104	643301376	23	15139
2026-01-26 12:34:54.10	320.06	39.35	-31.1	-43.6	3.8	7.46e-01	0	44	104	643301376	23	15082
2026-01-26 12:34:55.10	320.31	39.08	-31.3	-44.1	3.8	7.42e-01	0	44	104	643301376	23	15780
2026-01-26 12:34:56.10	320.55	38.81	-31.6	-45.1	3.8	7.46e-01	0	44	104	643301376	23	17034
2026-01-26 12:34:57.11	320.79	38.54	-31.9	-45.5	3.8	7.46e-01	0	44	104	643301376	24	17382
2026-01-26 12:34:58.11	321.03	38.28	-32.2	-46.0	3.8	7.45e-01	0	44	104	643301376	25	17601
2026-01-26 12:34:59.11	321.26	38.02	-32.5	-46.9	3.8	7.43e-01	0	44	104	643301376	25	18912
2026-01-26 12:35:00.11	321.49	37.76	-32.6	-46.8	3.8	7.47e-01	0	44	104	643301376	26	18470
2026-01-26 12:35:01.11	321.71	37.50	-32.8	-47.6	3.8	7.44e-01	0	44	104	643301376	26	19647
2026-01-26 12:35:02.12	321.93	37.24	-33.0	-48.3	3.8	7.43e-01	0	44	104	643301376	26	20896
2026-01-26 12:35:03.12	322.15	36.98	-33.2	-48.4	3.8	7.43e-01	0	44	104	643301376	27	20842
2026-01-26 12:35:04.12	322.36	36.73	-33.3	-48.9	3.8	7.45e-01	0	44	104	643301376	27	21652
2026-01-26 12:35:05.13	322.58	36.48	-33.4	-49.2	3.8	7.47e-01	0	44	104	643301376	27	22274
2026-01-26 12:35:06.13	322.78	36.22	-33.5	-49.7	3.8	7.46e-01	0	44	104	643301376	27	23089
2026-01-26 12:35:07.13	322.99	35.98	-33.6	-49.6	3.8	7.44e-01	0	44	104	643301376	28	22877
2026-01-26 12:35:08.13	323.19	35.73	-33.7	-50.2	3.8	7.43e-01	0	44	104	643301376	28	24164
2026-01-26 12:35:09.13	323.39	35.48	-33.8	-50.7	3.8	7.44e-01	0	44	104	643301376	28	25217
2026-01-26 12:35:10.13	323.58	35.24	-33.6	-49.8	3.8	7.44e-01	0	44	104	643301376	28	23248
2026-01-26 12:35:11.13	323.77	35.00	-33.4	-49.0	3.8	7.43e-01	0	44	104	643301376	28	21634
2026-01-26 12:35:12.13	323.96	34.76	-33.3	-48.4	3.8	7.45e-01	0	44	104	643301376	28	20443
2026-01-26 12:35:13.13	324.15	34.52	-33.4	-48.8	3.8	7.45e-01	0	44	104	643301376	28	21288
2026-01-26 12:35:14.14	324.33	34.28	-33.4	-49.2	3.8	7.43e-01	0	44	104	643301376	28	21982
2026-01-26 12:35:15.14	324.52	34.04	-33.4	-49.2	3.8	7.46e-01	0	44	104	643301376	28	22098
2026-01-26 12:35:16.15	324.70	33.81	-33.4	-49.0	3.8	7.42e-01	0	44	104	643301376	28	21813
2026-01-26 12:35:17.16	324.87	33.57	-33.3	-48.8	3.8	7.42e-01	0	44	104	643301376	28	21337
2026-01-26 12:35:18.16	325.05	33.34	-33.2	-48.3	3.8	7.47e-01	0	44	104	643301376	28	20482
2026-01-26 12:35:19.16	325.22	33.11	-33.1	-47.7	3.8	7.47e-01	0	44	104	643301376	28	19432
2026-01-26 12:35:20.17	325.39	32.88	-32.9	-47.1	3.8	7.44e-01	0	44	104	643301376	28	18372
2026-01-26 12:35:21.18	325.55	32.66	-32.9	-47.3	3.8	7.47e-01	0	44	104	643301376	27	18902
2026-01-26 12:35:22.19	325.72	32.43	-32.8	-46.9	3.8	7.43e-01	0	44	104	643301376	27	18370
2026-01-26 12:35:23.19	325.88	32.21	-32.7	-46.8	3.8	7.46e-01	0	44	104	643301376	27	18246
2026-01-26 12:35:24.19	326.04	31.99	-32.6	-46.5	3.8	7.44e-01	0	44	104	643301376	27	17845
2026-01-26 12:35:25.19	326.20	31.77	-32.2	-45.7	3.8	7.45e-01	0	44	104	643301376	26	16944
2026-01-26 12:35:26.19	326.35	31.55	-31.8	-44.8	3.8	7.42e-01	0	44	104	643301376	25	16166
2026-01-26 12:35:27.20	326.51	31.33	-31.3	-43.8	3.8	7.46e-01	0	44	104	643301376	24	15305
2026-01-26 12:35:28.20	326.66	31.11	-30.8	-42.9	3.8	7.45e-01	0	44	104	643301376	23	14609
2026-01-26 12:35:29.21	326.81	30.90	-30.4	-42.0	3.8	7.42e-01	0	44	104	643301376	23	13623
2026-01-26 12:35:30.21	326.96	30.69	-30.1	-41.6	3.8	7.43e-01	0	44	104	643301376	22	13552
2026-01-26 12:35:31.21	327.10	30.47	-30.0	-41.4	3.8	7.45e-01	0	44	104	643301376	22	13458
2026-01-26 12:35:32.22	327.25	30.26	-30.0	-41.6	3.8	7.45e-01	0	44	104	643301376	22	13700
2026-01-26 12:35:33.22	327.39	30.06	-30.0	-41.7	3.8	7.46e-01	0	44	104	643301376	22	13786
2026-01-26 12:35:34.23	327.53	29.85	-30.0	-41.7	3.8	7.47e-01	0	44	104	643301376	22	13771
2026-01-26 12:35:35.23	327.67	29.64	-30.1	-41.8	3.8	7.45e-01	0	44	104	643301376	22	13873
2026-01-26 12:35:36.24	327.80	29.44	-30.3	-42.3	3.8	7.44e-01	0	44	104	643301376	22	14327
2026-01-26 12:35:37.24	327.94	29.23	-30.4	-42.6	3.8	7.44e-01	0	44	104	643301376	22	14605
2026-01-26 12:35:38.25	328.07	29.03	-30.1	-42.0	3.8	7.42e-01	0	44	104	643301376	22	14057
2026-01-26 12:35:39.24	328.20	28.83	-30.0	-41.6	3.8	7.43e-01	0	44	104	643301376	22	13775
2026-01-26 12:35:40.24	328.33	28.64	-29.9	-41.5	3.8	7.44e-01	0	44	104	643301376	22	13680
2026-01-26 12:35:41.25	328.46	28.44	-30.1	-41.9	3.8	7.42e-01	0	44	104	643301376	22	14072
2026-01-26 12:35:42.25	328.59	28.24	-30.3	-42.4	3.8	7.44e-01	0	44	104	643301376	22	14454
2026-01-26 12:35:43.26	328.71	28.05	-30.7	-43.2	3.8	7.46e-01	0	44	104	643301376	22	15278
2026-01-26 12:35:44.26	328.83	27.86	-30.9	-43.8	3.8	7.47e-01	0	44	104	643301376	22	15895
2026-01-26 12:35:45.27	328.96	27.66	-31.3	-44.4	3.8	7.44e-01	0	44	104	643301376	23	16223
2026-01-26 12:35:46.28	329.08	27.47	-31.7	-45.0	3.8	7.43e-01	0	44	104	643301376	24	16689
2026-01-26 12:35:47.28	329.20	27.28	-32.1	-45.9	3.8	7.43e-01	0	44	104	643301376	25	17484
2026-01-26 12:35:48.28	329.32	27.09	-32.5	-47.2	3.8	7.46e-01	0	44	104	643301376	25	19400
2026-01-26 12:35:49.29	329.43	26.91	-32.8	-47.7	3.8	7.41e-01	0	44	104	643301376	26	20038
2026-01-26 12:35:50.29	329.55	26.72	-33.0	-48.5	3.8	7.45e-01	0	44	104	643301376	26	21381
2026-01-26 12:35:51.29	329.66	26.54	-33.2	-48.5	3.8	7.45e-01	0	44	104	643301376	27	21141
2026-01-26 12:35:52.30	329.77	26.35	-33.3	-49.1	3.8	7.46e-01	0	44	104	643301376	27	22159
2026-01-26 12:35:53.30	329.88	26.17	-33.4	-49.6	3.8	7.44e-01	0	44	104	643301376	27	23217
2026-01-26 12:35:54.30	329.99	25.99	-33.5	-49.9	3.8	7.45e-01	0	44	104	643301376	27	23902
2026-01-26 12:35:55.30	330.10	25.81	-33.5	-50.3	3.8	7.44e-01	0	44	104	643301376	27	24755
2026-01-26 12:35:56.30	330.21	25.64	-33.6	-50.2	3.8	7.46e-01	0	44	104	643301376	28	24404
2026-01-26 12:35:57.31	330.32	25.46	-33.6	-50.5	3.8	7.42e-01	0	44	104	643301376	28	25136
2026-01-26 12:35:58.32	330.42	25.28	-33.5	-50.0	3.8	7.45e-01	0	44	104	643301376	28	23823
2026-01-26 12:35:59.33	330.53	25.11	-33.4	-49.3	3.8	7.48e-01	0	44	104	643301376	28	22491
2026-01-26 12:36:00.32	330.63	24.94	-33.3	-48.9	3.8	7.44e-01	0	44	104	643301376	28	21597
2026-01-26 12:36:01.32	330.73	24.76	-33.2	-48.4	3.8	7.43e-01	0	44	104	643301376	28	20780
2026-01-26 12:36:02.32	330.83	24.59	-33.2	-48.3	3.8	7.44e-01	0	44	104	643301376	28	20588
2026-01-26 12:36:03.32	330.93	24.42	-33.3	-48.8	3.8	7.46e-01	0	44	104	643301376	28	21542
2026-01-26 12:36:04.33	331.03	24.25	-33.3	-49.0	3.8	7.43e-01	0	44	104	643301376	28	21899
2026-01-26 12:36:05.32	331.12	24.09	-33.3	-49.1	3.8	7.41e-01	0	44	104	643301376	28	21987
2026-01-26 12:36:06.33	331.22	23.92	-33.3	-48.9	3.8	7.43e-01	0	44	104	643301376	28	21619
2026-01-26 12:36:07.33	331.32	23.76	-33.2	-48.5	3.8	7.46e-01	0	44	104	643301376	28	20887
2026-01-26 12:36:08.33	331.41	23.59	-33.1	-48.0	3.8	7.46e-01	0	44	104	643301376	28	20020
2026-01-26 12:36:09.34	331.50	23.43	-33.0	-47.7	3.8	7.43e-01	0	44	104	643301376	28	19530
2026-01-26 12:36:10.34	331.60	23.27	-33.0	-47.5	3.8	7.41e-01	0	44	104	643301376	28	19151
2026-01-26 12:36:11.34	331.69	23.10	-33.0	-47.4	3.8	7.44e-01	0	44	104	643301376	28	18963
2026-01-26 12:36:12.34	331.78	22.95	-33.0	-47.4	3.8	7.44e-01	0	44	104	643301376	28	18926
2026-01-26 12:36:13.35	331.87	22.78	-33.0	-47.5	3.8	7.46e-01	0	44	104	643301376	28	19070
2026-01-26 12:36:14.36	331.96	22.63	-32.9	-47.2	3.8	7.49e-01	0	44	104	643301376	28	18577
2026-01-26 12:36:15.36	332.04	22.47	-32.6	-46.4	3.8	7.42e-01	0	44	104	643301376	27	17682
2026-01-26 12:36:16.37	332.13	22.31	-32.2	-45.5	3.8	7.45e-01	0	44	104	643301376	26	16705
2026-01-26 12:36:17.37	332.22	22.16	-31.7	-44.5	3.8	7.46e-01	0	44	104	643301376	25	15688
2026-01-26 12:36:18.38	332.30	22.00	-31.3	-43.9	3.8	7.44e-01	0	44	104	643301376	24	15273
2026-01-26 12:36:19.38	332.39	21.85	-30.9	-42.9	3.8	7.41e-01	0	44	104	643301376	24	14223
2026-01-26 12:36:20.38	332.47	21.70	-30.7	-42.7	3.8	7.46e-01	0	44	104	643301376	23	14310
2026-01-26 12:36:21.38	332.55	21.55	-30.7	-42.9	3.8	7.44e-01	0	44	104	643301376	23	14545
2026-01-26 12:36:22.38	332.63	21.40	-30.7	-42.9	3.8	7.44e-01	0	44	104	643301376	23	14627
2026-01-26 12:36:23.39	332.72	21.24	-30.8	-43.0	3.8	7.47e-01	0	44	104	643301376	23	14778
2026-01-26 12:36:24.39	332.80	21.10	-30.9	-43.4	3.8	7.46e-01	0	44	104	643301376	23	15254
2026-01-26 12:36:25.40	332.88	20.95	-31.1	-44.1	3.8	7.46e-01	0	44	104	643301376	23	16007
2026-01-26 12:36:26.40	332.95	20.80	-31.4	-44.8	3.8	7.43e-01	0	44	104	643301376	23	16972
2026-01-26 12:36:27.41	333.03	20.65	-31.4	-45.0	3.8	7.43e-01	0	44	104	643301376	23	17218
2026-01-26 12:36:28.42	333.11	20.51	-31.2	-44.3	3.8	7.47e-01	0	44	104	643301376	23	16301
2026-01-26 12:36:29.42	333.19	20.36	-31.0	-43.7	3.8	7.43e-01	0	44	104	643301376	23	15599
2026-01-26 12:36:30.42	333.26	20.22	-30.9	-43.6	3.8	7.43e-01	0	44	104	643301376	23	15473
2026-01-26 12:36:31.43	333.34	20.08	-31.1	-44.0	3.8	7.46e-01	0	44	104	643301376	23	15950
2026-01-26 12:36:32.44	333.41	19.94	-31.4	-44.8	3.8	7.45e-01	0	44	104	643301376	23	16848
2026-01-26 12:36:33.44	333.49	19.80	-31.6	-45.1	3.8	7.43e-01	0	44	104	643301376	24	16933
2026-01-26 12:36:34.44	333.56	19.66	-32.0	-46.1	3.8	7.43e-01	0	44	104	643301376	24	18374
2026-01-26 12:36:35.44	333.63	19.52	-32.3	-46.7	3.8	7.45e-01	0	44	104	643301376	25	18980
2026-01-26 12:36:36.44	333.70	19.38	-32.6	-47.8	3.8	7.45e-01	0	44	104	643301376	25	20656
2026-01-26 12:36:37.45	333.78	19.24	-32.9	-48.4	3.8	7.40e-01	0	44	104	643301376	26	21538
2026-01-26 12:36:38.45	333.85	19.10	-33.1	-48.9	3.8	7.46e-01	0	44	104	643301376	27	22153
2026-01-26 12:36:39.46	333.92	18.97	-33.3	-49.7	3.8	7.43e-01	0	44	104	643301376	27	23833
2026-01-26 12:36:40.46	333.99	18.83	-33.4	-50.0	3.8	7.45e-01	0	44	104	643301376	27	24458
2026-01-26 12:36:41.47	334.05	18.70	-33.4	-50.2	3.8	7.45e-01	0	44	104	643301376	27	24928
2026-01-26 12:36:42.47	334.12	18.56	-33.5	-50.5	3.8	7.45e-01	0	44	104	643301376	27	25446
2026-01-26 12:36:43.48	334.19	18.43	-33.5	-50.6	3.8	7.43e-01	0	44	104	643301376	27	25777
2026-01-26 12:36:44.48	334.26	18.30	-33.6	-50.8	3.8	7.45e-01	0	44	104	643301376	27	26299
2026-01-26 12:36:45.49	334.32	18.17	-33.5	-50.5	3.8	7.47e-01	0	44	104	643301376	27	25541
2026-01-26 12:36:46.50	334.39	18.03	-33.4	-50.0	3.8	7.42e-01	0	44	104	643301376	27	24396
2026-01-26 12:36:47.51	334.46	17.90	-33.3	-49.5	3.8	7.48e-01	0	44	104	643301376	27	23273
2026-01-26 12:36:48.51	334.52	17.78	-33.2	-49.1	3.8	7.47e-01	0	44	104	643301376	27	22435
2026-01-26 12:36:49.51	334.58	17.65	-33.1	-48.7	3.8	7.45e-01	0	44	104	643301376	27	21730
2026-01-26 12:36:50.52	334.65	17.52	-33.0	-48.4	3.8	7.44e-01	0	44	104	643301376	27	21196
2026-01-26 12:36:51.53	334.71	17.39	-33.0	-48.2	3.8	7.45e-01	0	44	104	643301376	27	20714
2026-01-26 12:36:52.52	334.77	17.27	-33.0	-48.3	3.8	7.42e-01	0	44	104	643301376	27	20861
2026-01-26 12:36:53.53	334.84	17.14	-33.1	-48.9	3.8	7.45e-01	0	44	104	643301376	27	22065
2026-01-26 12:36:54.53	334.90	17.01	-33.2	-49.2	3.8	7.43e-01	0	44	104	643301376	27	22725
2026-01-26 12:36:55.53	334.96	16.89	-33.2	-49.3	3.8	7.44e-01	0	44	104	643301376	27	22855
2026-01-26 12:36:56.54	335.02	16.77	-33.1	-48.9	3.8	7.45e-01	0	44	104	643301376	27	22032
2026-01-26 12:36:57.54	335.08	16.64	-33.0	-48.4	3.8	7.46e-01	0	44	104	643301376	27	21240
2026-01-26 12:36:58.54	335.14	16.52	-32.9	-48.0	3.8	7.45e-01	0	44	104	643301376	27	20454
2026-01-26 12:36:59.54	335.20	16.40	-32.9	-47.8	3.8	7.47e-01	0	44	104	643301376	27	20002
2026-01-26 12:37:00.54	335.26	16.28	-32.8	-47.7	3.8	7.45e-01	0	44	104	643301376	27	19899
2026-01-26 12:37:01.54	335.31	16.16	-32.8	-47.7	3.8	7.44e-01	0	44	104	643301376	27	19927
2026-01-26 12:37:02.54	335.37	16.04	-32.9	-47.9	3.8	7.47e-01	0	44	104	643301376	27	20313
2026-01-26 12:37:03.54	335.43	15.92	-32.9	-48.0	3.8	7.43e-01	0	44	104	643301376	27	20443
2026-01-26 12:37:04.55	335.49	15.80	-32.7	-47.2	3.8	7.42e-01	0	44	104	643301376	27	19127
2026-01-26 12:37:05.55	335.54	15.68	-32.3	-46.3	3.8	7.43e-01	0	44	104	643301376	26	18050
2026-01-26 12:37:06.55	335.60	15.57	-31.8	-45.3	3.8	7.45e-01	0	44	104	643301376	25	16891
2026-01-26 12:37:07.55	335.65	15.45	-31.5	-44.3	3.8	7.44e-01	0	44	104	643301376	25	15734
2026-01-26 12:37:08.56	335.71	15.33	-31.1	-43.7	3.8	7.44e-01	0	44	104	643301376	24	15238
2026-01-26 12:37:09.55	335.76	15.22	-30.7	-43.1	3.8	7.46e-01	0	44	104	643301376	23	15000
2026-01-26 12:37:10.55	335.82	15.11	-30.7	-42.9	3.8	7.43e-01	0	44	104	643301376	23	14729
2026-01-26 12:37:11.56	335.87	14.99	-30.8	-43.2	3.8	7.46e-01	0	44	104	643301376	23	15030
2026-01-26 12:37:12.57	335.93	14.88	-30.8	-43.2	3.8	7.47e-01	0	44	104	643301376	23	15065
2026-01-26 12:37:13.57	335.98	14.76	-31.1	-44.2	3.8	7.44e-01	0	44	104	643301376	23	16287
2026-01-26 12:37:14.58	336.03	14.65	-31.4	-45.0	3.8	7.44e-01	0	44	104	643301376	23	17317
2026-01-26 12:37:15.58	336.08	14.54	-31.7	-45.4	3.8	7.49e-01	0	44	104	643301376	24	17478
2026-01-26 12:37:16.59	336.14	14.43	-32.0	-46.5	3.8	7.46e-01	0	44	104	643301376	24	19038
2026-01-26 12:37:17.60	336.19	14.31	-32.0	-45.9	3.8	7.45e-01	0	44	104	643301376	25	17870
2026-01-26 12:37:18.61	336.24	14.20	-31.8	-45.3	3.8	7.46e-01	0	44	104	643301376	25	17021
2026-01-26 12:37:19.61	336.29	14.09	-31.6	-44.8	3.8	7.45e-01	0	44	104	643301376	25	16346
2026-01-26 12:37:20.61	336.34	13.98	-31.6	-44.8	3.8	7.44e-01	0	44	104	643301376	25	16361
2026-01-26 12:37:21.62	336.39	13.88	-31.9	-45.5	3.8	7.47e-01	0	44	104	643301376	25	17356
2026-01-26 12:37:22.62	336.44	13.77	-32.1	-46.3	3.8	7.46e-01	0	44	104	643301376	25	18432
2026-01-26 12:37:23.63	336.49	13.66	-32.3	-47.0	3.8	7.46e-01	0	44	104	643301376	25	19635
2026-01-26 12:37:24.63	336.54	13.55	-32.7	-47.8	3.9	7.41e-01	0	44	104	643301376	26	20633
2026-01-26 12:37:25.64	336.59	13.44	-32.8	-48.6	3.8	7.43e-01	0	44	104	643301376	26	22056
2026-01-26 12:37:26.65	336.64	13.34	-33.1	-49.7	3.8	7.46e-01	0	44	104	643301376	26	24497
2026-01-26 12:37:27.65	336.68	13.23	-33.0	-49.0	3.8	7.47e-01	0	44	104	643301376	27	22705
2026-01-26 12:37:28.66	336.73	13.13	-32.8	-48.1	3.8	7.46e-01	0	44	104	643301376	27	20884
2026-01-26 12:37:29.66	336.78	13.02	-32.8	-47.9	3.8	7.44e-01	0	44	104	643301376	27	20546
2026-01-26 12:37:30.67	336.83	12.92	-32.9	-48.4	3.8	7.43e-01	0	44	104	643301376	27	21440
2026-01-26 12:37:31.68	336.87	12.81	-33.0	-48.7	3.8	7.44e-01	0	44	104	643301376	27	21988
2026-01-26 12:37:32.68	336.92	12.71	-33.0	-49.1	3.8	7.44e-01	0	44	104	643301376	27	22853
2026-01-26 12:37:33.68	336.96	12.61	-33.1	-49.3	3.8	7.48e-01	0	44	104	643301376	27	23330
2026-01-26 12:37:34.68	337.01	12.50	-33.1	-49.5	3.8	7.47e-01	0	44	104	643301376	27	23663
2026-01-26 12:37:35.69	337.06	12.40	-33.1	-49.2	3.8	7.44e-01	0	44	104	643301376	27	23094
2026-01-26 12:37:36.69	337.10	12.30	-33.0	-48.9	3.8	7.44e-01	0	44	104	643301376	27	22377
2026-01-26 12:37:37.69	337.15	12.20	-33.0	-48.7	3.8	7.42e-01	0	44	104	643301376	27	21952
2026-01-26 12:37:38.70	337.19	12.10	-32.9	-48.3	3.8	7.48e-01	0	44	104	643301376	27	21331
2026-01-26 12:37:39.70	337.23	12.00	-32.8	-48.1	3.8	7.46e-01	0	44	104	643301376	27	20895
2026-01-26 12:37:40.71	337.28	11.90	-32.8	-47.9	3.8	7.47e-01	0	44	104	643301376	27	20539
2026-01-26 12:37:41.71	337.32	11.80	-32.8	-47.9	3.8	7.44e-01	0	44	104	643301376	27	20454
2026-01-26 12:37:42.71	337.37	11.70	-32.9	-48.3	3.8	7.45e-01	0	44	104	643301376	27	21253
2026-01-26 12:37:43.72	337.41	11.60	-33.0	-49.0	3.8	7.44e-01	0	44	104	643301376	27	22609
2026-01-26 12:37:44.72	337.45	11.50	-33.1	-49.3	3.8	7.45e-01	0	44	104	643301376	27	23127
2026-01-26 12:37:45.73	337.49	11.41	-33.1	-49.4	3.8	7.41e-01	0	44	104	643301376	27	23363
2026-01-26 12:37:46.73	337.54	11.31	-33.0	-48.9	3.8	7.46e-01	0	44	104	643301376	27	22516
2026-01-26 12:37:47.73	337.58	11.21	-32.8	-48.2	3.8	7.44e-01	0	44	104	643301376	27	21088
2026-01-26 12:37:48.73	337.62	11.12	-32.7	-47.7	3.8	7.45e-01	0	44	104	643301376	27	20196
2026-01-26 12:37:49.73	337.66	11.02	-32.7	-47.6	3.8	7.44e-01	0	44	104	643301376	27	20137
2026-01-26 12:37:50.72	337.70	10.93	-32.7	-47.7	3.8	7.48e-01	0	44	104	643301376	27	20344
2026-01-26 12:37:51.73	337.74	10.83	-32.6	-47.5	3.8	7.43e-01	0	44	104	643301376	27	19925
2026-01-26 12:37:52.74	337.78	10.74	-32.5	-47.4	3.8	7.44e-01	0	44	104	643301376	27	19871
2026-01-26 12:37:53.74	337.82	10.64	-32.5	-47.4	3.8	7.44e-01	0	44	104	643301376	27	19947
2026-01-26 12:37:54.74	337.86	10.55	-32.3	-47.2	3.8	7.43e-01	0	44	104	643301376	26	19906
2026-01-26 12:37:55.75	337.90	10.45	-32.2	-46.7	3.8	7.47e-01	0	44	104	643301376	26	19003
2026-01-26 12:37:56.75	337.94	10.36	-31.9	-45.6	3.8	7.45e-01	0	44	104	643301376	26	17414
2026-01-26 12:37:57.76	337.98	10.27	-31.6	-45.1	3.8	7.44e-01	0	44	104	643301376	25	16999
2026-01-26 12:37:58.75	338.02	10.18	-31.4	-44.4	3.8	7.45e-01	0	44	104	643301376	25	15990
2026-01-26 12:37:59.75	338.06	10.09	-31.2	-44.2	3.8	7.43e-01	0	44	104	643301376	24	16025
2026-01-26 12:38:00.76	338.10	9.99	-31.2	-44.2	3.8	7.42e-01	0	44	104	643301376	24	16045
2026-01-26 12:38:01.76	338.14	9.90	-31.4	-44.8	3.8	7.44e-01	0	44	104	643301376	24	16742
2026-01-26 12:38:02.77	338.18	9.81	-31.7	-45.6	3.8	7.46e-01	0	44	104	643301376	24	17903
2026-01-26 12:38:03.78	338.21	9.72	-32.0	-46.7	3.8	7.44e-01	0	44	104	643301376	24	19524
2026-01-26 12:38:04.77	338.25	9.63	-32.3	-47.1	3.8	7.44e-01	0	44	104	643301376	25	19939
2026-01-26 12:38:05.77	338.29	9.54	-32.4	-47.9	3.8	7.46e-01	0	44	104	643301376	25	21249
2026-01-26 12:38:06.78	338.33	9.45	-32.7	-48.5	3.8	7.47e-01	0	44	104	643301376	26	22147
2026-01-26 12:38:07.78	338.36	9.36	-32.7	-48.3	3.8	7.44e-01	0	44	104	643301376	26	21763
2026-01-26 12:38:08.78	338.40	9.27	-32.6	-47.9	3.8	7.47e-01	0	44	104	643301376	26	21147
2026-01-26 12:38:09.79	338.44	9.19	-32.4	-47.5	3.8	7.44e-01	0	44	104	643301376	26	20390
2026-01-26 12:38:10.78	338.47	9.10	-32.5	-47.9	3.8	7.43e-01	0	44	104	643301376	26	21084
2026-01-26 12:38:11.79	338.51	9.01	-32.6	-48.2	3.8	7.44e-01	0	44	104	643301376	26	21706
2026-01-26 12:38:12.79	338.55	8.92	-32.7	-48.6	3.8	7.43e-01	0	44	104	643301376	26	22532
2026-01-26 12:38:13.80	338.58	8.84	-32.8	-49.2	3.8	7.44e-01	0	44	104	643301376	26	23745
2026-01-26 12:38:14.79	338.62	8.75	-33.0	-50.0	3.8	7.43e-01	0	44	104	643301376	26	25712
2026-01-26 12:38:15.80	338.65	8.66	-32.9	-49.5	3.8	7.44e-01	0	44	104	643301376	26	24579
2026-01-26 12:38:16.81	338.69	8.58	-32.7	-48.8	3.8	7.50e-01	0	44	104	643301376	26	23001
2026-01-26 12:38:17.81	338.72	8.49	-32.6	-48.2	3.8	7.42e-01	0	44	104	643301376	26	21610
2026-01-26 12:38:18.81	338.76	8.41	-32.4	-47.2	3.8	7.44e-01	0	44	104	643301376	26	19800
2026-01-26 12:38:19.82	338.79	8.32	-32.4	-47.3	3.8	7.47e-01	0	44	104	643301376	26	20095
2026-01-26 12:38:20.82	338.83	8.24	-32.5	-47.9	3.8	7.47e-01	0	44	104	643301376	26	21142
2026-01-26 12:38:21.82	338.86	8.15	-32.6	-48.3	3.8	7.43e-01	0	44	104	643301376	26	21852
2026-01-26 12:38:22.82	338.90	8.07	-32.7	-48.9	3.8	7.45e-01	0	44	104	643301376	26	23115
2026-01-26 12:38:23.83	338.93	7.98	-32.8	-49.1	3.8	7.42e-01	0	44	104	643301376	26	23720
2026-01-26 12:38:24.84	338.96	7.90	-32.8	-49.4	3.8	7.44e-01	0	44	104	643301376	26	24213
2026-01-26 12:38:25.84	339.00	7.82	-32.8	-49.1	3.8	7.41e-01	0	44	104	643301376	26	23597
2026-01-26 12:38:26.84	339.03	7.73	-32.8	-49.1	3.8	7.46e-01	0	44	104	643301376	26	23543
2026-01-26 12:38:27.85	339.07	7.65	-32.7	-48.6	3.8	7.48e-01	0	44	104	643301376	26	22559
2026-01-26 12:38:28.85	339.10	7.57	-32.6	-48.4	3.8	7.43e-01	0	44	104	643301376	26	22006
2026-01-26 12:38:29.86	339.13	7.48	-32.6	-48.1	3.8	7.43e-01	0	44	104	643301376	26	21458
2026-01-26 12:38:30.86	339.16	7.40	-32.5	-47.8	3.8	7.43e-01	0	44	104	643301376	26	20794
2026-01-26 12:38:31.86	339.20	7.32	-32.5	-47.8	3.8	7.43e-01	0	44	104	643301376	26	20760
2026-01-26 12:38:32.86	339.23	7.24	-32.7	-48.4	3.8	7.44e-01	0	44	104	643301376	26	21908
2026-01-26 12:38:33.87	339.26	7.16	-32.7	-48.5	3.8	7.43e-01	0	44	104	643301376	26	22179
2026-01-26 12:38:34.87	339.29	7.08	-33.5	-52.8	3.8	7.47e-01	0	44	104	643301376	27	33089
2026-01-26 12:38:35.88	339.32	7.00	-33.9	-53.3	3.8	7.45e-01	0	44	104	643301376	28	33651

#Closed at: 2026-01-26 12:38:36
#Recorded file [643 MB]: D:/data/31010_260126_152809.dat