passes_logs/2026/01/26/R2M6_AANII_01/R2M6_AANII_01__20260126_002635_FENGYUN_3D_rec.log

#Pass ID: 20260126_002635_FENGYUN 3D
#Satellite: FENGYUN 3D
#Configuration: FENGYUN 3D
#almurnet v.1.7.20240730
#Start time: 2026-01-26 00:26:36

#Version: 2.2.20231116
#Station: R2M6_AANII_01
#Location: 30.233357 lon 59.946436 lat
#TLE: 1 43010U 17072A   26025.50461972  .00000046  00000+0  43592-4 0  9990
#TLE: 2 43010  98.9962 357.4844 0002523  89.7890 270.3575 14.19699798424744

#Time	Az	El	Level	Level2	SNR	BER	BlckErr	Temp	State	Recorded	gain1	gain2
2026-01-26 00:26:36.87	35.75	7.07	-29.2	-32.3	5.4	7.61e-01	0	42	0	0	18	5193
2026-01-26 00:26:37.87	35.87	7.12	-30.1	-34.2	5.1	7.89e-01	0	41	104	0	20	5769
2026-01-26 00:26:38.87	35.99	7.18	-30.3	-34.7	7.8	7.98e-02	0	42	0	0	20	6004
2026-01-26 00:26:39.88	36.11	7.23	-30.2	-34.5	8.0	8.99e-02	0	42	102	1048576	20	5872
2026-01-26 00:26:40.88	36.22	7.28	-30.3	-34.7	7.8	9.28e-02	0	41	102	1048576	20	5995
2026-01-26 00:26:41.88	36.34	7.34	-29.9	-33.6	8.6	5.52e-02	0	42	102	1048576	20	5469
2026-01-26 00:26:42.88	36.46	7.39	-30.3	-34.7	7.8	4.59e-02	0	42	102	1048576	20	6002
2026-01-26 00:26:43.88	36.58	7.44	-30.1	-34.2	8.1	6.78e-02	0	42	102	1048576	20	5749
2026-01-26 00:26:44.88	36.70	7.50	-29.8	-33.0	9.1	3.92e-02	0	42	102	1048576	20	5201
2026-01-26 00:26:45.88	36.82	7.55	-29.7	-33.1	9.4	2.24e-02	0	42	102	1048576	19	5359
2026-01-26 00:26:46.88	36.94	7.60	-29.4	-32.4	10.0	1.25e-02	0	42	102	1048576	19	5061
2026-01-26 00:26:47.89	37.06	7.66	-29.5	-32.7	9.8	1.20e-02	0	42	102	1048576	19	5173
2026-01-26 00:26:48.89	37.19	7.71	-29.8	-33.5	9.2	2.39e-02	0	42	102	1048576	19	5511
2026-01-26 00:26:49.89	37.31	7.77	-29.3	-32.0	10.2	1.47e-02	0	42	102	1048576	19	4934
2026-01-26 00:26:50.90	37.43	7.82	-28.7	-31.1	11.2	2.53e-03	0	42	102	1048576	18	4714
2026-01-26 00:26:51.90	37.55	7.87	-28.2	-30.1	12.1	9.74e-04	0	42	102	1048576	17	4514
2026-01-26 00:26:52.90	37.68	7.93	-27.9	-29.4	12.6	2.62e-04	0	42	102	1048576	17	4299
2026-01-26 00:26:53.91	37.80	7.98	-27.5	-29.0	13.2	2.73e-04	0	42	102	1048576	16	4272
2026-01-26 00:26:54.91	37.93	8.03	-27.1	-28.7	13.4	3.34e-04	0	42	102	1048576	15	4305
2026-01-26 00:26:55.91	38.05	8.09	-27.1	-28.5	13.6	1.71e-05	0	42	102	1048576	15	4239
2026-01-26 00:26:56.92	38.18	8.14	-26.9	-28.0	13.9	1.56e-04	0	42	102	1048576	15	4116
2026-01-26 00:26:57.92	38.30	8.20	-26.9	-28.1	13.8	9.49e-05	0	42	102	1048576	15	4144
2026-01-26 00:26:58.92	38.43	8.25	-26.7	-28.1	14.1	9.10e-06	0	42	102	1048576	14	4242
2026-01-26 00:26:59.93	38.56	8.30	-26.5	-27.6	14.4	6.06e-05	0	42	102	1048576	14	4108
2026-01-26 00:27:00.93	38.68	8.36	-26.3	-27.7	14.7	5.95e-05	0	42	102	1048576	13	4231
2026-01-26 00:27:01.93	38.81	8.41	-26.3	-27.7	14.7	0.00e+00	0	42	102	1048576	13	4237
2026-01-26 00:27:02.93	38.94	8.46	-26.6	-28.4	14.2	2.20e-06	0	42	102	1048576	13	4445
2026-01-26 00:27:03.94	39.07	8.52	-26.4	-27.9	14.5	3.40e-06	0	42	102	1048576	13	4294
2026-01-26 00:27:04.94	39.20	8.57	-26.4	-27.9	14.5	0.00e+00	0	42	102	1048576	13	4292
2026-01-26 00:27:05.95	39.33	8.63	-26.6	-28.4	14.3	5.03e-05	0	42	102	1048576	13	4421
2026-01-26 00:27:06.95	39.46	8.68	-26.4	-28.0	14.5	1.12e-04	0	42	102	1048576	13	4313
2026-01-26 00:27:07.95	39.59	8.73	-26.6	-28.4	14.3	0.00e+00	0	43	102	1048576	13	4427
2026-01-26 00:27:08.96	39.72	8.79	-26.4	-28.0	14.5	0.00e+00	0	42	102	1048576	13	4322
2026-01-26 00:27:09.97	39.85	8.84	-26.3	-27.8	14.6	2.10e-04	0	42	102	1048576	13	4262
2026-01-26 00:27:10.97	39.98	8.89	-26.5	-28.1	14.5	1.10e-06	0	42	102	1048576	13	4353
2026-01-26 00:27:11.97	40.11	8.95	-26.4	-27.9	14.6	1.60e-04	0	43	102	1048576	13	4274
2026-01-26 00:27:12.98	40.25	9.00	-26.4	-28.0	14.5	2.20e-06	0	43	102	1048576	13	4322
2026-01-26 00:27:13.98	40.38	9.06	-26.5	-28.1	14.5	0.00e+00	0	43	102	1048576	13	4331
2026-01-26 00:27:14.98	40.51	9.11	-26.2	-27.6	14.9	0.00e+00	0	42	102	1048576	13	4197
2026-01-26 00:27:15.98	40.65	9.16	-26.0	-27.1	15.1	0.00e+00	0	42	102	1048576	13	4071
2026-01-26 00:27:16.97	40.78	9.22	-26.0	-27.1	15.1	0.00e+00	0	43	102	1048576	13	4062
2026-01-26 00:27:17.98	40.92	9.27	-26.0	-26.9	15.2	0.00e+00	0	43	102	1048576	13	4022
2026-01-26 00:27:18.97	41.05	9.32	-26.0	-27.0	15.2	0.00e+00	0	42	102	1048576	13	4036
2026-01-26 00:27:19.97	41.19	9.38	-25.8	-26.6	15.4	1.10e-06	0	42	102	1048576	13	3940
2026-01-26 00:27:20.98	41.32	9.43	-26.0	-27.0	15.1	0.00e+00	0	43	102	1048576	13	4052
2026-01-26 00:27:21.99	41.46	9.48	-25.9	-26.8	15.3	0.00e+00	0	43	102	1048576	13	3988
2026-01-26 00:27:22.99	41.60	9.54	-25.8	-26.6	15.4	0.00e+00	0	43	102	1048576	13	3949
2026-01-26 00:27:24.00	41.74	9.59	-25.8	-27.1	15.4	0.00e+00	0	43	102	1048576	12	4178
2026-01-26 00:27:25.01	41.88	9.64	-25.9	-27.2	15.4	0.00e+00	0	43	102	1048576	12	4209
2026-01-26 00:27:26.01	42.02	9.70	-25.9	-27.2	15.3	0.00e+00	0	43	102	1048576	12	4212
2026-01-26 00:27:27.02	42.16	9.75	-25.8	-27.1	15.4	0.00e+00	0	43	102	1048576	12	4169
2026-01-26 00:27:28.02	42.30	9.80	-25.9	-27.2	15.4	0.00e+00	0	43	102	1048576	12	4203
2026-01-26 00:27:29.03	42.44	9.86	-25.9	-27.3	15.3	0.00e+00	0	43	102	1048576	12	4228
2026-01-26 00:27:30.03	42.58	9.91	-26.1	-27.7	15.1	0.00e+00	0	43	102	1048576	12	4331
2026-01-26 00:27:31.03	42.72	9.96	-25.9	-27.3	15.3	0.00e+00	0	43	102	1048576	12	4225
2026-01-26 00:27:32.03	42.86	10.02	-25.6	-26.6	15.7	0.00e+00	0	43	102	1048576	12	4034
2026-01-26 00:27:33.02	43.00	10.07	-25.7	-26.8	15.6	0.00e+00	0	43	102	1048576	12	4088
2026-01-26 00:27:34.03	43.15	10.12	-26.0	-27.4	15.3	0.00e+00	0	43	102	1048576	12	4251
2026-01-26 00:27:35.02	43.29	10.17	-25.8	-27.0	15.5	0.00e+00	0	43	102	1048576	12	4144
2026-01-26 00:27:36.02	43.43	10.23	-25.9	-27.2	15.4	0.00e+00	0	43	102	1048576	12	4198
2026-01-26 00:27:37.03	43.58	10.28	-25.6	-26.6	15.7	0.00e+00	0	43	102	1048576	12	4053
2026-01-26 00:27:38.03	43.72	10.33	-25.9	-27.2	15.4	0.00e+00	0	43	102	1048576	12	4192
2026-01-26 00:27:39.04	43.87	10.39	-25.8	-27.0	15.5	0.00e+00	0	43	102	1048576	12	4145
2026-01-26 00:27:40.05	44.01	10.44	-25.8	-27.0	15.5	0.00e+00	0	43	102	1048576	12	4133
2026-01-26 00:27:41.05	44.16	10.49	-25.7	-26.8	15.6	0.00e+00	0	43	102	1048576	12	4098
2026-01-26 00:27:42.06	44.31	10.55	-25.8	-27.0	15.5	0.00e+00	0	43	102	1048576	12	4144
2026-01-26 00:27:43.07	44.46	10.60	-25.8	-27.0	15.5	0.00e+00	0	43	102	1048576	12	4147
2026-01-26 00:27:44.07	44.60	10.65	-25.7	-26.9	15.6	0.00e+00	0	43	102	1048576	12	4127
2026-01-26 00:27:45.08	44.75	10.70	-25.8	-27.0	15.5	0.00e+00	0	43	102	1048576	12	4141
2026-01-26 00:27:46.08	44.90	10.76	-25.8	-27.0	15.5	0.00e+00	0	43	102	1048576	12	4133
2026-01-26 00:27:47.08	45.05	10.81	-25.7	-26.8	15.7	0.00e+00	0	43	102	1048576	12	4085
2026-01-26 00:27:48.09	45.20	10.86	-25.9	-27.2	15.4	0.00e+00	0	43	102	1048576	12	4201
2026-01-26 00:27:49.10	45.35	10.91	-25.8	-27.1	15.5	0.00e+00	0	43	102	1048576	12	4166
2026-01-26 00:27:50.10	45.51	10.97	-25.8	-27.0	15.6	0.00e+00	0	43	102	1048576	12	4142
2026-01-26 00:27:51.11	45.66	11.02	-25.7	-26.8	15.7	0.00e+00	0	43	102	1048576	12	4100
2026-01-26 00:27:52.11	45.81	11.07	-25.7	-26.7	15.7	0.00e+00	0	43	102	1048576	12	4078
2026-01-26 00:27:53.12	45.96	11.12	-25.8	-27.0	15.6	0.00e+00	0	43	102	1048576	12	4134
2026-01-26 00:27:54.11	46.12	11.17	-25.6	-26.5	15.9	0.00e+00	0	43	102	1048576	12	4020
2026-01-26 00:27:55.12	46.27	11.23	-25.4	-26.2	16.0	0.00e+00	0	43	102	1048576	12	3933
2026-01-26 00:27:56.12	46.42	11.28	-25.3	-26.1	16.1	0.00e+00	0	43	102	1048576	12	3903
2026-01-26 00:27:57.12	46.58	11.33	-25.5	-26.4	15.9	0.00e+00	0	43	102	1048576	12	3998
2026-01-26 00:27:58.13	46.73	11.38	-25.4	-26.3	16.0	0.00e+00	0	43	102	1048576	12	3957
2026-01-26 00:27:59.13	46.89	11.43	-25.3	-26.5	16.2	0.00e+00	0	43	102	1048576	11	4117
2026-01-26 00:28:00.13	47.05	11.48	-25.4	-26.7	16.1	0.00e+00	0	43	102	1048576	11	4164
2026-01-26 00:28:01.13	47.20	11.54	-25.5	-26.8	16.1	0.00e+00	0	43	102	1048576	11	4184
2026-01-26 00:28:02.14	47.36	11.59	-25.5	-26.9	15.8	0.00e+00	0	43	102	1048576	11	4224
2026-01-26 00:28:03.14	47.52	11.64	-25.5	-26.8	15.8	0.00e+00	0	43	102	1048576	11	4206
2026-01-26 00:28:04.15	47.68	11.69	-25.6	-27.0	15.9	0.00e+00	0	43	102	1048576	11	4255
2026-01-26 00:28:05.15	47.84	11.74	-25.5	-26.8	15.6	0.00e+00	0	43	102	1048576	11	4198
2026-01-26 00:28:06.15	48.00	11.79	-25.6	-27.0	15.9	0.00e+00	0	43	102	1048576	11	4246
2026-01-26 00:28:07.15	48.16	11.84	-25.4	-26.6	16.2	0.00e+00	0	43	102	1048576	11	4128
2026-01-26 00:28:08.16	48.32	11.89	-25.5	-26.8	16.1	0.00e+00	0	43	102	1048576	11	4194
2026-01-26 00:28:09.16	48.48	11.94	-25.4	-26.7	16.1	0.00e+00	0	43	102	1048576	11	4168
2026-01-26 00:28:10.16	48.64	12.00	-25.5	-26.8	16.1	0.00e+00	0	43	102	1048576	11	4184
2026-01-26 00:28:11.17	48.80	12.05	-25.5	-26.9	16.0	0.00e+00	0	43	102	1048576	11	4211
2026-01-26 00:28:12.18	48.97	12.10	-25.8	-27.0	15.9	0.00e+00	0	43	102	1048576	12	4124
2026-01-26 00:28:13.17	49.13	12.15	-25.4	-26.1	16.2	0.00e+00	0	43	102	1048576	12	3922
2026-01-26 00:28:14.17	49.29	12.20	-25.5	-26.9	16.2	3.68e-04	0	43	102	1048576	11	4211
2026-01-26 00:28:15.18	49.46	12.25	-25.4	-26.7	16.3	0.00e+00	0	43	102	1048576	11	4155
2026-01-26 00:28:16.18	49.62	12.30	-25.4	-26.7	16.3	0.00e+00	0	43	102	1048576	11	4166
2026-01-26 00:28:17.18	49.79	12.35	-25.5	-26.9	16.2	0.00e+00	0	43	102	1048576	11	4211
2026-01-26 00:28:18.18	49.95	12.40	-25.4	-26.5	16.4	1.97e-04	0	43	102	1048576	11	4105
2026-01-26 00:28:19.18	50.12	12.45	-25.3	-26.5	16.4	0.00e+00	0	43	102	1048576	11	4109
2026-01-26 00:28:20.19	50.29	12.50	-25.4	-26.7	16.3	0.00e+00	0	43	102	1048576	11	4160
2026-01-26 00:28:21.19	50.46	12.55	-25.3	-26.3	16.5	9.15e-05	0	43	102	1048576	11	4065
2026-01-26 00:28:22.19	50.62	12.59	-25.2	-26.3	16.5	0.00e+00	0	43	102	1048576	11	4047
2026-01-26 00:28:23.19	50.79	12.64	-25.4	-26.6	16.4	2.00e-04	0	43	102	1048576	11	4128
2026-01-26 00:28:24.20	50.96	12.69	-25.4	-26.7	16.3	1.45e-04	0	43	102	1048576	11	4155
2026-01-26 00:28:25.21	51.14	12.74	-25.2	-26.2	16.6	0.00e+00	0	43	102	1048576	11	4032
2026-01-26 00:28:26.21	51.31	12.79	-25.2	-26.2	16.5	3.02e-04	0	43	102	1048576	11	4044
2026-01-26 00:28:27.20	51.47	12.84	-25.2	-26.3	16.6	0.00e+00	0	43	102	1048576	11	4046
2026-01-26 00:28:28.21	51.65	12.89	-25.2	-26.1	16.6	0.00e+00	0	43	102	1048576	11	4012
2026-01-26 00:28:29.22	51.82	12.94	-25.3	-26.3	16.5	1.10e-06	0	43	102	1048576	11	4054
2026-01-26 00:28:30.22	51.99	12.99	-25.3	-26.3	16.5	4.26e-04	0	43	102	1048576	11	4066
2026-01-26 00:28:31.23	52.17	13.03	-25.2	-26.1	16.6	0.00e+00	0	43	102	1048576	11	4018
2026-01-26 00:28:32.23	52.34	13.08	-25.2	-26.1	16.7	5.43e-04	0	43	102	1048576	11	4006
2026-01-26 00:28:33.24	52.52	13.13	-25.2	-26.1	16.6	5.06e-04	0	43	102	1048576	11	4010
2026-01-26 00:28:34.24	52.69	13.18	-25.1	-25.9	16.8	0.00e+00	0	43	102	1048576	11	3947
2026-01-26 00:28:35.25	52.87	13.23	-25.1	-25.8	16.8	4.94e-04	0	43	102	1048576	11	3941
2026-01-26 00:28:36.25	53.04	13.27	-25.1	-26.0	16.7	0.00e+00	0	43	102	1048576	11	3972
2026-01-26 00:28:37.26	53.22	13.32	-25.1	-26.0	16.7	0.00e+00	0	44	102	1048576	11	3986
2026-01-26 00:28:38.27	53.40	13.37	-25.0	-25.8	16.8	5.31e-04	0	44	102	1048576	11	3931
2026-01-26 00:28:39.27	53.58	13.41	-25.2	-26.6	16.6	5.40e-04	0	43	102	1048576	10	4250
2026-01-26 00:28:40.28	53.76	13.46	-25.3	-26.9	16.5	0.00e+00	0	44	102	1048576	10	4327
2026-01-26 00:28:41.28	53.94	13.51	-25.2	-26.6	16.7	0.00e+00	0	43	102	1048576	10	4240
2026-01-26 00:28:42.29	54.12	13.56	-25.1	-26.4	16.8	7.44e-04	0	43	102	1048576	10	4177
2026-01-26 00:28:43.30	54.30	13.60	-25.1	-26.5	16.7	0.00e+00	0	43	102	1048576	10	4217
2026-01-26 00:28:44.31	54.48	13.65	-25.1	-26.5	16.8	5.76e-04	0	44	102	1048576	10	4212
2026-01-26 00:28:45.31	54.66	13.69	-25.1	-26.5	16.8	0.00e+00	0	43	102	1048576	10	4208
2026-01-26 00:28:46.31	54.84	13.74	-25.2	-26.6	16.7	0.00e+00	0	44	102	1048576	10	4233
2026-01-26 00:28:47.32	55.02	13.79	-25.2	-26.6	16.7	5.94e-04	0	44	102	1048576	10	4240
2026-01-26 00:28:48.32	55.21	13.83	-25.1	-26.4	16.8	0.00e+00	0	44	102	1048576	10	4181
2026-01-26 00:28:49.32	55.39	13.88	-24.9	-26.1	17.0	0.00e+00	0	43	102	1048576	10	4110
2026-01-26 00:28:50.33	55.57	13.92	-24.9	-26.1	17.0	0.00e+00	0	44	102	1048576	10	4110
2026-01-26 00:28:51.34	55.76	13.97	-25.0	-26.1	16.9	2.45e-04	0	43	102	1048576	10	4118
2026-01-26 00:28:52.34	55.94	14.01	-24.9	-26.0	17.0	0.00e+00	0	44	102	1048576	10	4088
2026-01-26 00:28:53.34	56.13	14.06	-25.0	-26.2	16.9	0.00e+00	0	43	102	1048576	10	4125
2026-01-26 00:28:54.35	56.32	14.10	-24.8	-25.8	17.1	0.00e+00	0	43	102	1048576	10	4040
2026-01-26 00:28:55.36	56.51	14.14	-24.9	-26.0	17.0	0.00e+00	0	44	102	1048576	10	4095
2026-01-26 00:28:56.37	56.69	14.19	-24.9	-26.0	17.1	0.00e+00	0	44	102	1048576	10	4076
2026-01-26 00:28:57.37	56.88	14.23	-25.0	-26.2	16.9	0.00e+00	0	43	102	1048576	10	4139
2026-01-26 00:28:58.37	57.07	14.28	-25.1	-26.5	16.8	0.00e+00	0	43	102	1048576	10	4219
2026-01-26 00:28:59.38	57.26	14.32	-25.2	-26.6	16.7	0.00e+00	0	43	102	1048576	10	4249
2026-01-26 00:29:00.39	57.45	14.36	-25.2	-26.7	16.6	0.00e+00	0	43	102	1048576	10	4284
2026-01-26 00:29:01.38	57.64	14.41	-25.2	-26.6	16.7	0.00e+00	0	44	102	1048576	10	4252
2026-01-26 00:29:02.39	57.83	14.45	-25.1	-26.4	16.8	0.00e+00	0	43	102	1048576	10	4203
2026-01-26 00:29:03.39	58.02	14.49	-25.0	-26.3	16.8	0.00e+00	0	44	102	1048576	10	4173
2026-01-26 00:29:04.39	58.21	14.53	-25.2	-26.6	16.7	0.00e+00	0	44	102	1048576	10	4238
2026-01-26 00:29:05.40	58.40	14.58	-25.2	-26.7	16.7	0.00e+00	0	44	102	1048576	10	4270
2026-01-26 00:29:06.40	58.59	14.62	-25.1	-26.4	16.8	0.00e+00	0	44	102	1048576	10	4179
2026-01-26 00:29:07.41	58.79	14.66	-25.1	-26.5	16.8	0.00e+00	0	44	102	1048576	10	4205
2026-01-26 00:29:08.41	58.98	14.70	-24.9	-25.9	17.1	0.00e+00	0	44	102	1048576	10	4060
2026-01-26 00:29:09.41	59.18	14.74	-24.8	-26.4	17.1	0.00e+00	0	44	102	1048576	9	4289
2026-01-26 00:29:10.42	59.37	14.78	-25.0	-26.2	16.9	0.00e+00	0	44	102	1048576	10	4139
2026-01-26 00:29:11.43	59.57	14.82	-24.9	-26.1	17.0	0.00e+00	0	44	102	1048576	10	4099
2026-01-26 00:29:12.43	59.76	14.86	-25.0	-26.2	17.0	0.00e+00	0	44	102	1048576	10	4122
2026-01-26 00:29:13.43	59.96	14.90	-25.0	-26.3	16.9	0.00e+00	0	43	102	1048576	10	4168
2026-01-26 00:29:14.44	60.16	14.94	-25.0	-26.3	16.9	0.00e+00	0	44	102	1048576	10	4162
2026-01-26 00:29:15.44	60.35	14.98	-25.2	-26.6	16.8	0.00e+00	0	44	102	1048576	10	4237
2026-01-26 00:29:16.44	60.55	15.02	-25.1	-26.5	16.8	0.00e+00	0	44	102	1048576	10	4215
2026-01-26 00:29:17.44	60.75	15.06	-24.8	-25.8	17.2	0.00e+00	0	44	102	1048576	10	4038
2026-01-26 00:29:18.45	60.95	15.10	-24.6	-25.4	17.4	0.00e+00	0	44	102	1048576	10	3929
2026-01-26 00:29:19.45	61.15	15.14	-24.6	-25.3	17.5	0.00e+00	0	44	102	1048576	10	3911
2026-01-26 00:29:20.45	61.35	15.18	-24.5	-25.2	17.5	0.00e+00	0	44	102	1048576	10	3882
2026-01-26 00:29:21.46	61.55	15.22	-24.5	-25.2	17.5	0.00e+00	0	44	102	1048576	10	3879
2026-01-26 00:29:22.46	61.75	15.25	-24.6	-25.3	17.5	0.00e+00	0	44	102	1048576	10	3898
2026-01-26 00:29:23.46	61.95	15.29	-24.7	-25.6	17.3	0.00e+00	0	44	102	1048576	10	3992
2026-01-26 00:29:24.47	62.15	15.33	-24.8	-25.7	17.2	0.00e+00	0	44	102	1048576	10	4006
2026-01-26 00:29:25.47	62.35	15.37	-24.6	-25.3	17.4	0.00e+00	0	44	102	1048576	10	3922
2026-01-26 00:29:26.47	62.56	15.40	-24.5	-25.2	17.5	0.00e+00	0	44	102	1048576	10	3897
2026-01-26 00:29:27.48	62.76	15.44	-24.5	-25.7	17.5	0.00e+00	0	44	102	1048576	9	4110
2026-01-26 00:29:28.48	62.96	15.48	-24.6	-25.9	17.4	0.00e+00	0	44	102	1048576	9	4166
2026-01-26 00:29:29.47	63.17	15.51	-24.7	-26.1	17.3	0.00e+00	0	44	102	1048576	9	4220
2026-01-26 00:29:30.48	63.37	15.55	-24.6	-25.8	17.4	0.00e+00	0	44	102	1048576	9	4139
2026-01-26 00:29:31.47	63.57	15.58	-24.5	-25.6	17.5	0.00e+00	0	44	102	1048576	9	4096
2026-01-26 00:29:32.48	63.78	15.62	-24.6	-25.8	17.2	0.00e+00	0	44	102	1048576	9	4146
2026-01-26 00:29:33.48	63.99	15.65	-24.5	-25.6	17.5	0.00e+00	0	44	102	1048576	9	4096
2026-01-26 00:29:34.49	64.20	15.69	-24.5	-25.6	14.6	0.00e+00	0	44	102	1048576	9	4082
2026-01-26 00:29:35.49	64.40	15.72	-24.5	-25.5	14.7	0.00e+00	0	44	102	1048576	9	4082
2026-01-26 00:29:36.50	64.61	15.75	-24.6	-25.8	17.5	0.00e+00	0	44	102	1048576	9	4138
2026-01-26 00:29:37.51	64.82	15.79	-24.6	-25.9	17.4	0.00e+00	0	44	102	1048576	9	4176
2026-01-26 00:29:38.51	65.03	15.82	-24.7	-26.1	17.3	0.00e+00	0	44	102	1048576	9	4211
2026-01-26 00:29:39.51	65.24	15.85	-24.7	-26.0	17.3	0.00e+00	0	44	102	1048576	9	4201
2026-01-26 00:29:40.51	65.45	15.89	-24.8	-26.3	17.2	0.00e+00	0	44	102	1048576	9	4264
2026-01-26 00:29:41.52	65.66	15.92	-24.8	-26.2	17.2	4.26e-04	0	44	102	1048576	9	4253
2026-01-26 00:29:42.53	65.87	15.95	-24.7	-26.2	17.2	0.00e+00	0	44	102	1048576	9	4242
2026-01-26 00:29:43.53	66.08	15.98	-24.9	-26.5	17.1	4.36e-04	0	44	102	1048576	9	4315
2026-01-26 00:29:44.54	66.29	16.01	-24.8	-26.3	17.2	0.00e+00	0	44	102	1048576	9	4265
2026-01-26 00:29:45.54	66.50	16.05	-24.6	-25.9	17.4	0.00e+00	0	44	102	1048576	9	4173
2026-01-26 00:29:46.55	66.72	16.08	-24.5	-25.5	17.6	2.88e-04	0	44	102	1048576	9	4073
2026-01-26 00:29:47.54	66.92	16.11	-24.5	-25.5	17.5	0.00e+00	0	44	102	1048576	9	4079
2026-01-26 00:29:48.55	67.14	16.14	-24.5	-25.6	17.5	4.50e-06	0	44	102	1048576	9	4097
2026-01-26 00:29:49.56	67.35	16.17	-24.5	-25.7	17.5	0.00e+00	0	44	102	1048576	9	4115
2026-01-26 00:29:50.56	67.57	16.20	-24.5	-25.7	17.5	3.24e-04	0	44	102	1048576	9	4126
2026-01-26 00:29:51.57	67.78	16.22	-24.6	-26.0	17.3	0.00e+00	0	44	102	1048576	9	4192
2026-01-26 00:29:52.58	68.00	16.25	-24.6	-25.8	17.4	3.90e-04	0	44	102	1048576	9	4146
2026-01-26 00:29:53.58	68.21	16.28	-24.5	-25.7	17.5	3.97e-04	0	44	102	1048576	9	4133
2026-01-26 00:29:54.59	68.43	16.31	-24.4	-25.5	17.6	0.00e+00	0	44	102	1048576	9	4070
2026-01-26 00:29:55.59	68.64	16.34	-24.4	-25.5	17.6	3.47e-04	0	44	102	1048576	9	4063
2026-01-26 00:29:56.59	68.86	16.36	-24.5	-25.6	17.5	3.12e-04	0	44	102	1048576	9	4110
2026-01-26 00:29:57.59	69.08	16.39	-24.5	-25.6	17.5	0.00e+00	0	44	102	1048576	9	4094
2026-01-26 00:29:58.60	69.29	16.42	-24.3	-25.2	17.7	1.91e-04	0	44	102	1048576	9	4000
2026-01-26 00:29:59.60	69.51	16.44	-24.3	-25.2	17.8	1.83e-04	0	44	102	1048576	9	3990
2026-01-26 00:30:00.60	69.73	16.47	-24.3	-25.1	17.8	0.00e+00	0	44	102	1048576	9	3972
2026-01-26 00:30:01.60	69.95	16.50	-24.3	-25.2	17.8	1.22e-04	0	44	102	1048576	9	3991
2026-01-26 00:30:02.61	70.17	16.52	-24.3	-25.2	17.7	8.81e-05	0	44	102	1048576	9	4010
2026-01-26 00:30:03.61	70.38	16.55	-24.5	-25.7	17.5	0.00e+00	0	43	102	1048576	9	4127
2026-01-26 00:30:04.61	70.60	16.57	-24.7	-26.0	17.3	1.43e-04	0	44	102	1048576	9	4208
2026-01-26 00:30:05.62	70.82	16.59	-24.7	-26.0	17.3	2.18e-04	0	44	102	1048576	9	4200
2026-01-26 00:30:06.62	71.04	16.62	-24.7	-26.0	17.3	0.00e+00	0	44	102	1048576	9	4201
2026-01-26 00:30:07.63	71.26	16.64	-24.5	-25.6	17.6	2.88e-04	0	44	102	1048576	9	4105
2026-01-26 00:30:08.63	71.48	16.66	-24.5	-25.6	17.6	0.00e+00	0	44	102	1048576	9	4100
2026-01-26 00:30:09.64	71.71	16.69	-24.3	-25.3	17.7	0.00e+00	0	44	102	1048576	9	4012
2026-01-26 00:30:10.65	71.93	16.71	-24.3	-25.1	17.8	0.00e+00	0	44	102	1048576	9	3979
2026-01-26 00:30:11.65	72.15	16.73	-24.2	-25.1	17.9	4.23e-05	0	44	102	1048576	9	3963
2026-01-26 00:30:12.66	72.37	16.75	-24.3	-25.2	17.8	0.00e+00	0	44	102	1048576	9	3985
2026-01-26 00:30:13.66	72.59	16.77	-24.2	-25.1	17.9	0.00e+00	0	44	102	1048576	9	3964
2026-01-26 00:30:14.67	72.82	16.79	-24.3	-25.2	17.8	1.11e-04	0	44	102	1048576	9	3988
2026-01-26 00:30:15.68	73.04	16.81	-24.2	-25.0	17.9	0.00e+00	0	44	102	1048576	9	3954
2026-01-26 00:30:16.68	73.26	16.83	-24.2	-25.0	17.9	1.94e-04	0	44	102	1048576	9	3941
2026-01-26 00:30:17.69	73.49	16.85	-24.2	-25.0	17.9	0.00e+00	0	44	102	1048576	9	3950
2026-01-26 00:30:18.69	73.71	16.87	-24.2	-25.1	17.8	3.08e-05	0	44	102	1048576	9	3960
2026-01-26 00:30:19.69	73.93	16.89	-24.1	-24.9	17.8	0.00e+00	0	44	102	1048576	9	3935
2026-01-26 00:30:20.68	74.16	16.91	-24.1	-24.8	17.8	0.00e+00	0	44	102	1048576	9	3925
2026-01-26 00:30:21.68	74.38	16.93	-24.1	-24.7	17.9	0.00e+00	0	44	102	1048576	9	3895
2026-01-26 00:30:22.69	74.61	16.94	-24.1	-24.9	17.8	0.00e+00	0	44	102	1048576	9	3930
2026-01-26 00:30:23.69	74.83	16.96	-24.2	-25.0	17.8	0.00e+00	0	44	102	1048576	9	3964
2026-01-26 00:30:24.69	75.05	16.98	-24.2	-25.0	17.7	0.00e+00	0	44	102	1048576	9	3962
2026-01-26 00:30:25.70	75.28	16.99	-24.3	-25.2	17.6	0.00e+00	0	44	102	1048576	9	4014
2026-01-26 00:30:26.71	75.51	17.01	-24.1	-24.9	17.8	0.00e+00	0	44	102	1048576	9	3946
2026-01-26 00:30:27.71	75.73	17.02	-24.1	-24.8	17.9	0.00e+00	0	44	102	1048576	9	3913
2026-01-26 00:30:28.71	75.96	17.04	-24.1	-24.8	17.9	0.00e+00	0	44	102	1048576	9	3914
2026-01-26 00:30:29.72	76.19	17.05	-24.1	-24.8	17.9	0.00e+00	0	44	102	1048576	9	3906
2026-01-26 00:30:30.72	76.41	17.07	-24.1	-24.9	17.8	0.00e+00	0	44	102	1048576	9	3931
2026-01-26 00:30:31.72	76.64	17.08	-24.1	-24.8	17.8	0.00e+00	0	44	102	1048576	9	3919
2026-01-26 00:30:32.72	76.86	17.09	-24.3	-25.2	17.7	0.00e+00	0	44	102	1048576	9	4013
2026-01-26 00:30:33.73	77.09	17.11	-24.1	-24.9	17.8	0.00e+00	0	44	102	1048576	9	3948
2026-01-26 00:30:34.73	77.32	17.12	-24.1	-24.9	17.8	0.00e+00	0	44	102	1048576	9	3938
2026-01-26 00:30:35.73	77.55	17.13	-24.1	-24.9	17.8	0.00e+00	0	44	102	1048576	9	3952
2026-01-26 00:30:36.74	77.77	17.14	-24.1	-24.9	17.8	0.00e+00	0	44	102	1048576	9	3945
2026-01-26 00:30:37.74	78.00	17.15	-24.1	-24.9	17.8	0.00e+00	0	44	102	1048576	9	3946
2026-01-26 00:30:38.73	78.23	17.16	-24.2	-25.1	17.7	0.00e+00	0	44	102	1048576	9	3977
2026-01-26 00:30:39.73	78.45	17.17	-24.3	-25.2	17.6	1.10e-06	0	44	102	1048576	9	4020
2026-01-26 00:30:40.74	78.68	17.18	-24.2	-25.1	17.7	0.00e+00	0	44	102	1048576	9	4000
2026-01-26 00:30:41.75	78.91	17.19	-24.2	-25.1	17.7	0.00e+00	0	44	102	1048576	9	3981
2026-01-26 00:30:42.75	79.14	17.20	-24.2	-25.1	17.7	1.10e-06	0	44	102	1048576	9	3984
2026-01-26 00:30:43.76	79.37	17.21	-24.2	-25.0	17.7	0.00e+00	0	44	102	1048576	9	3965
2026-01-26 00:30:44.77	79.60	17.22	-24.2	-25.1	17.7	0.00e+00	0	44	102	1048576	9	3987
2026-01-26 00:30:45.78	79.83	17.23	-24.2	-25.0	17.8	0.00e+00	0	44	102	1048576	9	3961
2026-01-26 00:30:46.78	80.06	17.23	-24.2	-25.1	17.7	0.00e+00	0	44	102	1048576	9	3981
2026-01-26 00:30:47.79	80.29	17.24	-24.1	-24.9	17.8	0.00e+00	0	44	102	1048576	9	3937
2026-01-26 00:30:48.79	80.52	17.25	-24.3	-25.2	17.7	0.00e+00	0	44	102	1048576	9	4012
2026-01-26 00:30:49.79	80.75	17.25	-24.2	-25.1	17.7	0.00e+00	0	44	102	1048576	9	3983
2026-01-26 00:30:50.79	80.98	17.26	-24.2	-25.5	17.8	0.00e+00	0	44	102	1048576	8	4200
2026-01-26 00:30:51.79	81.21	17.26	-24.2	-25.6	17.7	0.00e+00	0	44	102	1048576	8	4214
2026-01-26 00:30:52.80	81.44	17.27	-24.3	-25.7	17.6	0.00e+00	0	44	102	1048576	8	4249
2026-01-26 00:30:53.80	81.67	17.27	-24.1	-25.3	17.8	0.00e+00	0	44	102	1048576	8	4153
2026-01-26 00:30:54.81	81.90	17.27	-24.1	-25.4	17.8	1.10e-06	0	44	102	1048576	8	4188
2026-01-26 00:30:55.82	82.13	17.28	-24.1	-25.3	17.8	0.00e+00	0	44	102	1048576	8	4154
2026-01-26 00:30:56.83	82.36	17.28	-24.3	-25.7	17.6	0.00e+00	0	44	102	1048576	8	4254
2026-01-26 00:30:57.83	82.59	17.28	-24.2	-25.6	17.7	0.00e+00	0	44	102	1048576	8	4227
2026-01-26 00:30:58.84	82.82	17.28	-24.4	-26.0	17.5	0.00e+00	0	44	102	1048576	8	4333
2026-01-26 00:30:59.85	83.05	17.29	-24.4	-26.0	17.5	0.00e+00	0	44	102	1048576	8	4324
2026-01-26 00:31:00.85	83.28	17.29	-24.4	-26.0	17.5	0.00e+00	0	44	102	1048576	8	4334
2026-01-26 00:31:01.86	83.51	17.29	-24.6	-25.9	17.3	0.00e+00	0	44	102	1048576	9	4187
2026-01-26 00:31:02.87	83.75	17.29	-24.6	-26.0	17.2	0.00e+00	0	44	102	1048576	9	4224
2026-01-26 00:31:03.87	83.98	17.29	-24.5	-25.8	17.3	1.10e-06	0	44	102	1048576	9	4161
2026-01-26 00:31:04.88	84.21	17.29	-24.5	-25.7	17.4	0.00e+00	0	44	102	1048576	9	4150
2026-01-26 00:31:05.88	84.44	17.29	-24.6	-26.0	17.2	0.00e+00	0	44	102	1048576	9	4220
2026-01-26 00:31:06.89	84.67	17.28	-24.5	-25.8	17.3	2.17e-05	0	44	102	1048576	9	4161
2026-01-26 00:31:07.89	84.90	17.28	-24.6	-25.9	17.3	0.00e+00	0	44	102	1048576	9	4199
2026-01-26 00:31:08.89	85.13	17.28	-24.5	-25.8	17.3	0.00e+00	0	44	102	1048576	9	4167
2026-01-26 00:31:09.89	85.36	17.28	-24.7	-26.1	17.1	0.00e+00	0	44	102	1048576	9	4245
2026-01-26 00:31:10.90	85.59	17.27	-24.4	-25.6	17.4	0.00e+00	0	44	102	1048576	9	4111
2026-01-26 00:31:11.90	85.82	17.27	-24.1	-25.0	17.8	0.00e+00	0	44	102	1048576	9	3951
2026-01-26 00:31:12.90	86.04	17.27	-24.0	-24.6	17.9	0.00e+00	0	44	102	1048576	9	3865
2026-01-26 00:31:13.91	86.28	17.26	-24.1	-24.8	17.9	0.00e+00	0	44	102	1048576	9	3903
2026-01-26 00:31:14.91	86.50	17.26	-24.0	-24.7	17.9	0.00e+00	0	44	102	1048576	9	3889
2026-01-26 00:31:15.92	86.74	17.25	-24.1	-25.0	17.8	2.20e-06	0	44	102	1048576	9	3951
2026-01-26 00:31:16.93	86.97	17.24	-24.2	-25.0	17.8	0.00e+00	0	44	102	1048576	9	3954
2026-01-26 00:31:17.93	87.20	17.24	-24.3	-25.2	17.6	0.00e+00	0	44	102	1048576	9	4023
2026-01-26 00:31:18.93	87.42	17.23	-24.2	-25.0	17.7	7.32e-05	0	44	102	1048576	9	3959
2026-01-26 00:31:19.94	87.66	17.22	-24.2	-25.2	17.6	2.23e-04	0	44	102	1048576	9	4012
2026-01-26 00:31:20.94	87.88	17.21	-24.2	-25.1	17.6	0.00e+00	0	44	102	1048576	9	3986
2026-01-26 00:31:21.94	88.11	17.21	-24.2	-25.1	17.7	0.00e+00	0	44	102	1048576	9	3987
2026-01-26 00:31:22.94	88.34	17.20	-24.4	-25.4	17.5	1.03e-04	0	44	102	1048576	9	4076
2026-01-26 00:31:23.95	88.57	17.19	-24.5	-25.6	17.4	0.00e+00	0	44	102	1048576	9	4123
2026-01-26 00:31:24.95	88.80	17.18	-24.4	-25.6	17.4	1.94e-05	0	44	102	1048576	9	4105
2026-01-26 00:31:25.95	89.03	17.17	-24.5	-25.8	17.3	0.00e+00	0	44	102	1048576	9	4174
2026-01-26 00:31:26.95	89.25	17.16	-24.5	-25.7	17.3	0.00e+00	0	44	102	1048576	9	4140
2026-01-26 00:31:27.96	89.48	17.15	-24.5	-25.8	17.3	0.00e+00	0	44	102	1048576	9	4161
2026-01-26 00:31:28.96	89.71	17.14	-24.6	-26.0	17.2	1.02e-05	0	44	102	1048576	9	4228
2026-01-26 00:31:29.97	89.94	17.13	-24.6	-25.9	17.2	0.00e+00	0	44	102	1048576	9	4183
2026-01-26 00:31:30.97	90.17	17.11	-24.6	-25.8	17.3	1.25e-05	0	44	102	1048576	9	4175
2026-01-26 00:31:31.97	90.39	17.10	-24.6	-26.0	17.2	4.50e-06	0	44	102	1048576	9	4204
2026-01-26 00:31:32.98	90.62	17.09	-24.7	-26.2	17.1	0.00e+00	0	44	102	1048576	9	4268
2026-01-26 00:31:33.99	90.85	17.07	-24.7	-26.1	17.1	2.20e-06	0	44	102	1048576	9	4258
2026-01-26 00:31:35.00	91.08	17.06	-24.8	-26.3	17.0	6.80e-06	0	44	102	1048576	9	4309
2026-01-26 00:31:36.00	91.31	17.05	-25.3	-26.9	16.4	0.00e+00	0	44	102	1048576	10	4341
2026-01-26 00:31:37.01	91.53	17.03	-24.9	-26.2	16.8	4.92e-05	0	44	102	1048576	10	4153
2026-01-26 00:31:38.01	91.76	17.02	-24.8	-25.8	17.0	6.29e-05	0	44	102	1048576	10	4068
2026-01-26 00:31:39.02	91.99	17.00	-24.6	-25.5	17.2	0.00e+00	0	44	102	1048576	10	3995
2026-01-26 00:31:40.02	92.21	16.98	-24.7	-25.6	17.2	6.80e-06	0	44	102	1048576	10	4010
2026-01-26 00:31:41.03	92.44	16.97	-24.7	-25.7	17.1	0.00e+00	0	44	102	1048576	10	4030
2026-01-26 00:31:42.02	92.66	16.95	-24.5	-25.1	17.4	0.00e+00	0	44	102	1048576	10	3891
2026-01-26 00:31:43.02	92.89	16.93	-24.7	-25.7	17.1	0.00e+00	0	44	102	1048576	10	4033
2026-01-26 00:31:44.03	93.11	16.92	-24.5	-25.2	17.3	4.80e-05	0	44	102	1048576	10	3912
2026-01-26 00:31:45.03	93.34	16.90	-24.4	-25.0	17.5	0.00e+00	0	44	102	1048576	10	3849
2026-01-26 00:31:46.03	93.56	16.88	-24.3	-24.8	17.6	0.00e+00	0	44	102	1048576	10	3806
2026-01-26 00:31:47.03	93.78	16.86	-24.4	-25.6	17.4	0.00e+00	0	44	102	1048576	9	4102
2026-01-26 00:31:48.04	94.01	16.84	-24.3	-25.3	17.5	0.00e+00	0	44	102	1048576	9	4045
2026-01-26 00:31:49.04	94.23	16.82	-24.3	-25.3	17.5	2.16e-04	0	44	102	1048576	9	4052
2026-01-26 00:31:50.05	94.46	16.80	-24.4	-25.6	17.3	0.00e+00	0	44	102	1048576	9	4108
2026-01-26 00:31:51.05	94.68	16.78	-24.4	-25.6	17.3	0.00e+00	0	44	102	1048576	9	4122
2026-01-26 00:31:52.05	94.90	16.76	-24.6	-26.0	17.1	0.00e+00	0	44	102	1048576	9	4217
2026-01-26 00:31:53.05	95.12	16.74	-24.6	-26.1	17.1	0.00e+00	0	44	102	1048576	9	4240
2026-01-26 00:31:54.06	95.35	16.72	-24.8	-26.4	16.9	0.00e+00	0	44	102	1048576	9	4334
2026-01-26 00:31:55.07	95.57	16.70	-24.7	-26.2	17.0	0.00e+00	0	44	102	1048576	9	4289
2026-01-26 00:31:56.07	95.79	16.67	-24.7	-26.1	17.1	1.33e-04	0	44	102	1048576	9	4245
2026-01-26 00:31:57.07	96.01	16.65	-24.7	-26.3	17.0	0.00e+00	0	44	102	1048576	9	4296
2026-01-26 00:31:58.07	96.23	16.63	-24.6	-26.0	17.1	0.00e+00	0	44	102	1048576	9	4233
2026-01-26 00:31:59.08	96.45	16.61	-24.6	-26.0	17.1	0.00e+00	0	44	102	1048576	9	4234
2026-01-26 00:32:00.08	96.67	16.58	-24.6	-25.9	17.2	0.00e+00	0	44	102	1048576	9	4183
2026-01-26 00:32:01.08	96.89	16.56	-24.6	-25.9	17.2	0.00e+00	0	44	102	1048576	9	4204
2026-01-26 00:32:02.09	97.11	16.53	-24.7	-26.2	17.0	0.00e+00	0	44	102	1048576	9	4276
2026-01-26 00:32:03.09	97.33	16.51	-24.5	-25.7	17.3	0.00e+00	0	44	102	1048576	9	4129
2026-01-26 00:32:04.10	97.55	16.48	-24.4	-25.6	17.3	0.00e+00	0	44	102	1048576	9	4116
2026-01-26 00:32:05.10	97.77	16.46	-24.4	-25.6	17.3	0.00e+00	0	44	102	1048576	9	4113
2026-01-26 00:32:06.11	97.99	16.43	-24.4	-25.5	17.3	0.00e+00	0	44	102	1048576	9	4096
2026-01-26 00:32:07.12	98.21	16.40	-24.4	-25.6	17.3	0.00e+00	0	44	102	1048576	9	4110
2026-01-26 00:32:08.12	98.42	16.38	-24.4	-25.6	17.3	0.00e+00	0	44	102	1048576	9	4111
2026-01-26 00:32:09.12	98.64	16.35	-24.6	-26.0	17.1	0.00e+00	0	44	102	1048576	9	4207
2026-01-26 00:32:10.13	98.86	16.32	-24.5	-25.8	17.2	0.00e+00	0	44	102	1048576	9	4182
2026-01-26 00:32:11.13	99.07	16.29	-24.6	-25.9	17.2	0.00e+00	0	44	102	1048576	9	4184
2026-01-26 00:32:12.14	99.29	16.27	-24.5	-25.8	17.2	0.00e+00	0	44	102	1048576	9	4159
2026-01-26 00:32:13.14	99.51	16.24	-24.6	-26.0	17.1	0.00e+00	0	44	102	1048576	9	4210
2026-01-26 00:32:14.14	99.72	16.21	-24.5	-25.7	17.2	0.00e+00	0	44	102	1048576	9	4134
2026-01-26 00:32:15.15	99.94	16.18	-24.5	-25.6	17.3	0.00e+00	0	44	102	1048576	9	4124
2026-01-26 00:32:16.14	100.15	16.15	-24.5	-25.7	17.2	0.00e+00	0	44	102	1048576	9	4147
2026-01-26 00:32:17.15	100.36	16.12	-24.6	-26.0	17.0	0.00e+00	0	44	102	1048576	9	4230
2026-01-26 00:32:18.15	100.57	16.09	-24.5	-25.8	17.2	1.10e-06	0	44	102	1048576	9	4169
2026-01-26 00:32:19.15	100.79	16.06	-24.5	-25.7	17.2	0.00e+00	0	44	102	1048576	9	4133
2026-01-26 00:32:20.15	101.00	16.03	-24.5	-25.8	17.2	0.00e+00	0	44	102	1048576	9	4171
2026-01-26 00:32:21.16	101.21	16.00	-24.7	-26.1	17.0	0.00e+00	0	44	102	1048576	9	4255
2026-01-26 00:32:22.16	101.42	15.97	-24.5	-25.8	17.2	0.00e+00	0	44	102	1048576	9	4170
2026-01-26 00:32:23.17	101.64	15.93	-24.6	-26.0	17.1	0.00e+00	0	44	102	1048576	9	4218
2026-01-26 00:32:24.17	101.85	15.90	-24.5	-25.8	17.1	0.00e+00	0	44	102	1048576	9	4179
2026-01-26 00:32:25.17	102.06	15.87	-24.6	-26.1	17.0	0.00e+00	0	44	102	1048576	9	4240
2026-01-26 00:32:26.18	102.27	15.84	-24.6	-26.0	17.1	0.00e+00	0	44	102	1048576	9	4214
2026-01-26 00:32:27.18	102.48	15.80	-24.7	-26.1	17.0	0.00e+00	0	44	102	1048576	9	4255
2026-01-26 00:32:28.19	102.69	15.77	-24.6	-26.0	17.0	0.00e+00	0	44	102	1048576	9	4227
2026-01-26 00:32:29.19	102.89	15.73	-24.7	-26.2	16.9	0.00e+00	0	44	102	1048576	9	4281
2026-01-26 00:32:30.19	103.10	15.70	-24.8	-26.5	16.8	0.00e+00	0	44	102	1048576	9	4360
2026-01-26 00:32:31.20	103.31	15.67	-24.8	-26.5	16.8	0.00e+00	0	44	102	1048576	9	4359
2026-01-26 00:32:32.20	103.52	15.63	-24.8	-26.5	16.8	0.00e+00	0	44	102	1048576	9	4346
2026-01-26 00:32:33.19	103.72	15.60	-24.8	-26.4	16.8	0.00e+00	0	44	102	1048576	9	4344
2026-01-26 00:32:34.20	103.93	15.56	-24.8	-26.4	16.8	0.00e+00	0	44	102	1048576	9	4318
2026-01-26 00:32:35.20	104.13	15.53	-24.8	-26.4	16.8	0.00e+00	0	44	102	1048576	9	4340
2026-01-26 00:32:36.21	104.34	15.49	-24.8	-26.3	16.9	0.00e+00	0	44	102	1048576	9	4305
2026-01-26 00:32:37.21	104.54	15.45	-24.8	-26.4	16.9	0.00e+00	0	44	102	1048576	9	4326
2026-01-26 00:32:38.22	104.75	15.42	-24.8	-26.4	16.9	0.00e+00	0	44	102	1048576	9	4330
2026-01-26 00:32:39.23	104.96	15.38	-24.9	-26.7	16.7	0.00e+00	0	44	102	1048576	9	4411
2026-01-26 00:32:40.24	105.16	15.34	-24.9	-26.6	16.7	0.00e+00	0	44	102	1048576	9	4398
2026-01-26 00:32:41.24	105.36	15.30	-24.9	-26.7	16.6	0.00e+00	0	44	102	1048576	9	4421
2026-01-26 00:32:42.25	105.57	15.27	-25.2	-26.7	16.4	0.00e+00	0	44	102	1048576	10	4294
2026-01-26 00:32:43.26	105.77	15.23	-25.2	-26.8	16.4	5.34e-04	0	44	102	1048576	10	4330
2026-01-26 00:32:44.25	105.97	15.19	-25.0	-26.2	16.7	0.00e+00	0	44	102	1048576	10	4177
2026-01-26 00:32:45.25	106.17	15.15	-24.8	-26.0	16.8	0.00e+00	0	44	102	1048576	10	4114
2026-01-26 00:32:46.25	106.37	15.11	-24.8	-26.4	16.8	2.51e-05	0	44	102	1048576	9	4318
2026-01-26 00:32:47.25	106.57	15.07	-24.9	-26.6	16.7	0.00e+00	0	44	102	1048576	9	4383
2026-01-26 00:32:48.25	106.77	15.04	-24.8	-26.4	16.8	4.11e-04	0	44	102	1048576	9	4339
2026-01-26 00:32:49.26	106.97	15.00	-24.9	-26.7	16.7	0.00e+00	0	44	102	1048576	9	4400
2026-01-26 00:32:50.26	107.16	14.96	-24.7	-26.2	16.9	0.00e+00	0	44	102	1048576	9	4285
2026-01-26 00:32:51.27	107.36	14.92	-24.7	-26.2	16.9	0.00e+00	0	44	102	1048576	9	4268
2026-01-26 00:32:52.27	107.56	14.88	-24.7	-26.1	17.0	0.00e+00	0	44	102	1048576	9	4242
2026-01-26 00:32:53.28	107.76	14.83	-24.8	-26.4	16.8	0.00e+00	0	44	102	1048576	9	4326
2026-01-26 00:32:54.28	107.95	14.79	-24.7	-26.1	17.0	0.00e+00	0	44	102	1048576	9	4257
2026-01-26 00:32:55.29	108.15	14.75	-24.7	-26.2	16.9	8.46e-05	0	44	102	1048576	9	4275
2026-01-26 00:32:56.29	108.34	14.71	-24.9	-26.5	16.7	0.00e+00	0	44	102	1048576	9	4354
2026-01-26 00:32:57.29	108.54	14.67	-24.8	-26.5	16.8	7.66e-05	0	44	102	1048576	9	4352
2026-01-26 00:32:58.30	108.73	14.63	-25.0	-26.3	16.6	1.33e-04	0	44	102	1048576	10	4187
2026-01-26 00:32:59.30	108.93	14.59	-24.9	-26.1	16.8	0.00e+00	0	44	102	1048576	10	4124
2026-01-26 00:33:00.31	109.12	14.54	-24.8	-26.0	16.8	2.33e-04	0	44	102	1048576	10	4106
2026-01-26 00:33:01.31	109.31	14.50	-24.9	-26.1	16.7	0.00e+00	0	44	102	1048576	10	4136
2026-01-26 00:33:02.31	109.51	14.46	-24.9	-26.1	16.7	0.00e+00	0	44	102	1048576	10	4128
2026-01-26 00:33:03.31	109.70	14.42	-24.9	-26.1	16.8	2.52e-04	0	44	102	1048576	10	4130
2026-01-26 00:33:04.31	109.89	14.37	-24.9	-26.2	16.7	2.52e-04	0	44	102	1048576	10	4155
2026-01-26 00:33:05.32	110.08	14.33	-25.1	-26.5	16.5	0.00e+00	0	44	102	1048576	10	4231
2026-01-26 00:33:06.32	110.27	14.29	-25.1	-26.5	16.5	2.12e-04	0	44	102	1048576	10	4241
2026-01-26 00:33:07.32	110.46	14.24	-25.2	-26.7	16.4	2.48e-04	0	44	102	1048576	10	4299
2026-01-26 00:33:08.33	110.65	14.20	-25.1	-26.6	16.4	6.80e-06	0	44	102	1048576	10	4280
2026-01-26 00:33:09.33	110.83	14.15	-25.2	-26.8	16.3	1.99e-04	0	44	102	1048576	10	4329
2026-01-26 00:33:10.33	111.02	14.11	-25.3	-27.0	16.2	0.00e+00	0	44	102	1048576	10	4378
2026-01-26 00:33:11.33	111.21	14.07	-25.2	-26.8	16.4	4.50e-06	0	44	102	1048576	10	4320
2026-01-26 00:33:12.33	111.39	14.02	-25.2	-26.7	16.4	3.43e-04	0	44	102	1048576	10	4282
2026-01-26 00:33:13.34	111.58	13.98	-25.2	-26.7	16.4	3.73e-04	0	44	102	1048576	10	4281
2026-01-26 00:33:14.35	111.77	13.93	-25.1	-26.6	16.4	0.00e+00	0	44	102	1048576	10	4274
2026-01-26 00:33:15.35	111.95	13.88	-25.2	-26.8	16.3	0.00e+00	0	44	102	1048576	10	4313
2026-01-26 00:33:16.36	112.14	13.84	-25.3	-26.9	16.2	3.70e-04	0	44	102	1048576	10	4352
2026-01-26 00:33:17.36	112.32	13.79	-25.2	-26.7	16.4	1.10e-06	0	44	102	1048576	10	4300
2026-01-26 00:33:18.37	112.51	13.75	-25.1	-26.5	16.5	3.09e-04	0	44	102	1048576	10	4251
2026-01-26 00:33:19.37	112.69	13.70	-25.2	-26.8	16.3	2.93e-04	0	44	102	1048576	10	4320
2026-01-26 00:33:20.38	112.87	13.65	-25.1	-26.7	16.4	6.80e-06	0	44	102	1048576	10	4283
2026-01-26 00:33:21.38	113.05	13.61	-25.2	-26.7	16.4	1.64e-04	0	44	102	1048576	10	4292
2026-01-26 00:33:22.39	113.23	13.56	-25.2	-26.7	16.4	0.00e+00	0	44	102	1048576	10	4294
2026-01-26 00:33:23.39	113.41	13.51	-25.2	-26.7	16.4	3.40e-06	0	44	102	1048576	10	4307
2026-01-26 00:33:24.40	113.60	13.47	-25.3	-27.0	16.2	0.00e+00	0	44	102	1048576	10	4362
2026-01-26 00:33:25.40	113.77	13.42	-25.3	-27.0	16.2	4.34e-05	0	44	102	1048576	10	4375
2026-01-26 00:33:26.40	113.95	13.37	-25.4	-27.2	16.1	1.10e-06	0	44	102	1048576	10	4435
2026-01-26 00:33:27.41	114.13	13.33	-25.4	-27.3	16.0	0.00e+00	0	44	102	1048576	10	4456
2026-01-26 00:33:28.41	114.31	13.28	-25.4	-27.3	16.1	0.00e+00	0	44	102	1048576	10	4446
2026-01-26 00:33:29.41	114.49	13.23	-25.6	-27.0	15.9	0.00e+00	0	44	102	1048576	11	4271
2026-01-26 00:33:30.42	114.66	13.18	-25.6	-27.2	15.8	9.49e-05	0	44	102	1048576	11	4319
2026-01-26 00:33:31.42	114.84	13.13	-25.8	-27.6	15.5	0.00e+00	0	44	102	1048576	11	4436
2026-01-26 00:33:32.42	115.01	13.09	-25.7	-27.4	15.7	2.20e-06	0	44	102	1048576	11	4365
2026-01-26 00:33:33.42	115.19	13.04	-25.6	-27.1	15.8	0.00e+00	0	44	102	1048576	11	4281
2026-01-26 00:33:34.43	115.36	12.99	-25.7	-27.4	15.7	0.00e+00	0	44	102	1048576	11	4366
2026-01-26 00:33:35.43	115.54	12.94	-25.7	-27.4	15.6	0.00e+00	0	44	102	1048576	11	4379
2026-01-26 00:33:36.44	115.71	12.89	-25.7	-27.4	15.6	0.00e+00	0	44	102	1048576	11	4386
2026-01-26 00:33:37.45	115.89	12.84	-25.8	-27.5	15.6	0.00e+00	0	44	102	1048576	11	4415
2026-01-26 00:33:38.45	116.06	12.79	-25.8	-27.7	15.5	1.10e-06	0	44	102	1048576	11	4461
2026-01-26 00:33:39.46	116.23	12.74	-25.8	-27.6	15.6	0.00e+00	0	44	102	1048576	11	4419
2026-01-26 00:33:40.46	116.40	12.69	-25.7	-27.5	15.6	0.00e+00	0	44	102	1048576	11	4395
2026-01-26 00:33:41.46	116.57	12.64	-25.7	-27.4	15.6	4.50e-06	0	44	102	1048576	11	4384
2026-01-26 00:33:42.46	116.74	12.60	-25.7	-27.3	15.7	0.00e+00	0	44	102	1048576	11	4342
2026-01-26 00:33:43.47	116.91	12.55	-25.6	-27.1	15.8	0.00e+00	0	44	102	1048576	11	4287
2026-01-26 00:33:44.47	117.08	12.50	-25.6	-27.2	15.8	0.00e+00	0	44	102	1048576	11	4317
2026-01-26 00:33:45.48	117.25	12.45	-25.7	-27.3	15.7	0.00e+00	0	44	102	1048576	11	4340
2026-01-26 00:33:46.48	117.42	12.40	-25.5	-27.0	15.9	0.00e+00	0	44	102	1048576	11	4259
2026-01-26 00:33:47.49	117.59	12.34	-25.6	-27.1	15.8	0.00e+00	0	44	102	1048576	11	4290
2026-01-26 00:33:48.49	117.75	12.29	-25.6	-27.2	15.8	0.00e+00	0	44	102	1048576	11	4314
2026-01-26 00:33:49.50	117.92	12.24	-25.6	-27.2	15.7	0.00e+00	0	44	102	1048576	11	4326
2026-01-26 00:33:50.50	118.08	12.19	-25.7	-27.3	15.7	0.00e+00	0	44	102	1048576	11	4345
2026-01-26 00:33:51.50	118.25	12.14	-25.7	-27.3	15.7	0.00e+00	0	44	102	1048576	11	4356
2026-01-26 00:33:52.51	118.41	12.09	-25.7	-27.5	15.6	0.00e+00	0	44	102	1048576	11	4392
2026-01-26 00:33:53.51	118.58	12.04	-25.7	-27.5	15.6	0.00e+00	0	44	102	1048576	11	4397
2026-01-26 00:33:54.51	118.74	11.99	-25.7	-27.3	15.7	0.00e+00	0	44	102	1048576	11	4349
2026-01-26 00:33:55.52	118.90	11.94	-25.8	-27.6	15.5	0.00e+00	0	44	102	1048576	11	4426
2026-01-26 00:33:56.52	119.07	11.89	-25.7	-27.4	15.6	0.00e+00	0	44	102	1048576	11	4382
2026-01-26 00:33:57.53	119.23	11.84	-25.9	-27.7	15.4	0.00e+00	0	44	102	1048576	11	4464
2026-01-26 00:33:58.53	119.39	11.79	-25.8	-27.5	15.5	0.00e+00	0	44	102	1048576	11	4407
2026-01-26 00:33:59.54	119.55	11.73	-25.7	-27.4	15.6	0.00e+00	0	44	102	1048576	11	4370
2026-01-26 00:34:00.55	119.71	11.68	-25.6	-27.2	15.7	0.00e+00	0	44	102	1048576	11	4317
2026-01-26 00:34:01.55	119.87	11.63	-25.7	-27.4	15.6	0.00e+00	0	44	102	1048576	11	4384
2026-01-26 00:34:02.56	120.03	11.58	-25.8	-27.6	15.5	0.00e+00	0	44	102	1048576	11	4427
2026-01-26 00:34:03.57	120.19	11.53	-25.9	-27.8	15.4	0.00e+00	0	44	102	1048576	11	4476
2026-01-26 00:34:04.57	120.35	11.47	-25.9	-27.8	15.3	0.00e+00	0	44	102	1048576	11	4501
2026-01-26 00:34:05.57	120.51	11.42	-25.9	-27.4	15.3	0.00e+00	0	44	102	1048576	12	4266
2026-01-26 00:34:06.58	120.66	11.37	-26.0	-27.5	15.2	0.00e+00	0	44	102	1048576	12	4291
2026-01-26 00:34:07.58	120.82	11.32	-26.0	-27.6	15.1	0.00e+00	0	44	102	1048576	12	4319
2026-01-26 00:34:08.59	120.98	11.26	-26.0	-27.6	15.1	0.00e+00	0	44	102	1048576	12	4318
2026-01-26 00:34:09.60	121.13	11.21	-26.1	-27.7	15.1	0.00e+00	0	44	102	1048576	12	4365
2026-01-26 00:34:10.60	121.29	11.16	-26.0	-27.6	15.1	0.00e+00	0	44	102	1048576	12	4330
2026-01-26 00:34:11.60	121.44	11.11	-26.0	-27.6	15.1	0.00e+00	0	44	102	1048576	12	4328
2026-01-26 00:34:12.61	121.59	11.05	-25.9	-27.4	15.2	0.00e+00	0	44	102	1048576	12	4263
2026-01-26 00:34:13.61	121.75	11.00	-26.0	-27.7	15.1	0.00e+00	0	44	102	1048576	12	4336
2026-01-26 00:34:14.62	121.90	10.95	-26.1	-27.8	15.0	0.00e+00	0	44	102	1048576	12	4370
2026-01-26 00:34:15.62	122.05	10.90	-25.9	-27.3	15.2	1.22e-04	0	44	102	1048576	12	4244
2026-01-26 00:34:16.63	122.20	10.84	-25.9	-27.3	15.3	0.00e+00	0	44	102	1048576	12	4243
2026-01-26 00:34:17.63	122.36	10.79	-25.9	-27.3	15.3	1.26e-04	0	44	102	1048576	12	4235
2026-01-26 00:34:18.64	122.51	10.74	-25.9	-27.4	15.2	0.00e+00	0	44	102	1048576	12	4267
2026-01-26 00:34:19.65	122.66	10.68	-25.9	-27.3	15.2	0.00e+00	0	44	102	1048576	12	4242
2026-01-26 00:34:20.65	122.81	10.63	-26.0	-27.5	15.1	0.00e+00	0	44	102	1048576	12	4288
2026-01-26 00:34:21.66	122.96	10.58	-25.8	-27.2	15.3	0.00e+00	0	44	102	1048576	12	4204
2026-01-26 00:34:22.66	123.10	10.53	-25.8	-27.2	15.3	0.00e+00	0	44	102	1048576	12	4201
2026-01-26 00:34:23.66	123.25	10.47	-26.0	-27.5	15.1	1.10e-06	0	44	102	1048576	12	4292
2026-01-26 00:34:24.67	123.40	10.42	-26.0	-27.5	15.1	2.20e-06	0	44	102	1048576	12	4286
2026-01-26 00:34:25.67	123.55	10.37	-25.8	-27.1	15.3	0.00e+00	0	44	102	1048576	12	4179
2026-01-26 00:34:26.67	123.69	10.31	-25.8	-27.2	15.2	6.52e-05	0	44	102	1048576	12	4226
2026-01-26 00:34:27.68	123.84	10.26	-25.8	-27.2	15.3	1.89e-04	0	44	102	1048576	12	4223
2026-01-26 00:34:28.68	123.98	10.21	-25.9	-27.3	15.2	8.00e-06	0	44	102	1048576	12	4252
2026-01-26 00:34:29.69	124.13	10.15	-26.0	-27.7	15.0	2.01e-04	0	44	102	1048576	12	4350
2026-01-26 00:34:30.68	124.27	10.10	-26.0	-27.7	15.0	4.57e-05	0	44	102	1048576	12	4351
2026-01-26 00:34:31.69	124.42	10.04	-26.0	-27.5	15.1	5.70e-06	0	44	102	1048576	12	4301
2026-01-26 00:34:32.70	124.56	9.99	-26.2	-28.0	14.8	1.85e-04	0	44	102	1048576	12	4441
2026-01-26 00:34:33.70	124.70	9.94	-26.2	-28.0	14.8	1.20e-04	0	44	102	1048576	12	4425
2026-01-26 00:34:34.71	124.85	9.88	-25.9	-27.4	15.1	9.10e-06	0	44	102	1048576	12	4274
2026-01-26 00:34:35.71	124.99	9.83	-25.9	-27.4	15.1	1.10e-06	0	44	102	1048576	12	4264
2026-01-26 00:34:36.73	125.13	9.77	-25.9	-27.3	15.2	9.10e-06	0	44	102	1048576	12	4241
2026-01-26 00:34:37.73	125.27	9.72	-25.9	-27.5	15.1	6.80e-06	0	44	102	1048576	12	4293
2026-01-26 00:34:38.74	125.41	9.67	-26.0	-27.6	15.0	1.46e-04	0	44	102	1048576	12	4332
2026-01-26 00:34:39.75	125.55	9.61	-26.1	-27.7	14.9	1.27e-04	0	44	102	1048576	12	4372
2026-01-26 00:34:40.76	125.69	9.56	-26.1	-27.8	14.9	6.80e-06	0	44	102	1048576	12	4386
2026-01-26 00:34:41.76	125.83	9.50	-26.3	-28.2	14.6	2.28e-05	0	44	102	1048576	12	4496
2026-01-26 00:34:42.76	125.97	9.45	-26.2	-28.1	14.7	6.80e-06	0	44	102	1048576	12	4467
2026-01-26 00:34:43.77	126.11	9.40	-26.2	-28.0	14.7	5.70e-06	0	44	102	1048576	12	4446
2026-01-26 00:34:44.77	126.24	9.34	-26.3	-28.2	14.6	0.00e+00	0	44	102	1048576	12	4513
2026-01-26 00:34:45.78	126.38	9.29	-26.4	-28.4	14.5	2.78e-04	0	44	102	1048576	12	4561
2026-01-26 00:34:46.78	126.52	9.23	-26.5	-28.7	14.3	0.00e+00	0	44	102	1048576	12	4653
2026-01-26 00:34:47.78	126.65	9.18	-26.5	-28.7	14.3	7.16e-04	0	44	102	1048576	12	4637
2026-01-26 00:34:48.79	126.79	9.13	-26.5	-28.3	14.3	1.10e-06	0	44	102	1048576	13	4408
2026-01-26 00:34:49.80	126.92	9.07	-26.6	-28.5	14.2	1.25e-05	0	44	102	1048576	13	4466
2026-01-26 00:34:50.79	127.06	9.02	-26.5	-28.3	14.3	8.96e-04	0	44	102	1048576	13	4427
2026-01-26 00:34:51.80	127.19	8.96	-26.4	-28.1	14.3	1.10e-06	0	44	102	1048576	13	4366
2026-01-26 00:34:52.81	127.33	8.91	-26.5	-28.3	14.2	4.50e-06	0	44	102	1048576	13	4424
2026-01-26 00:34:53.82	127.46	8.85	-26.4	-28.6	14.3	1.10e-06	0	44	102	1048576	12	4619
2026-01-26 00:34:54.82	127.59	8.80	-26.6	-28.4	14.2	1.10e-06	0	44	102	1048576	13	4443
2026-01-26 00:34:55.82	127.72	8.75	-26.8	-28.9	13.9	4.50e-06	0	44	102	1048576	13	4585
2026-01-26 00:34:56.83	127.86	8.69	-26.7	-28.7	14.0	2.20e-06	0	44	102	1048576	13	4524
2026-01-26 00:34:57.83	127.99	8.64	-26.5	-28.2	14.2	5.70e-06	0	44	102	1048576	13	4404
2026-01-26 00:34:58.83	128.12	8.58	-26.5	-28.1	14.3	1.10e-06	0	44	102	1048576	13	4374
2026-01-26 00:34:59.83	128.25	8.53	-26.5	-28.3	14.2	4.47e-04	0	44	102	1048576	13	4426
2026-01-26 00:35:00.84	128.38	8.48	-26.4	-28.6	14.3	3.40e-06	0	44	102	1048576	12	4638
2026-01-26 00:35:01.84	128.50	8.42	-26.6	-28.5	14.1	1.10e-06	0	44	102	1048576	13	4474
2026-01-26 00:35:02.84	128.63	8.37	-26.6	-28.5	14.1	4.50e-06	0	44	102	1048576	13	4488
2026-01-26 00:35:03.85	128.76	8.31	-26.6	-28.5	14.0	4.50e-06	0	44	102	1048576	13	4483
2026-01-26 00:35:04.86	128.89	8.26	-26.6	-28.6	14.0	1.10e-06	0	44	102	1048576	13	4518
2026-01-26 00:35:05.86	129.02	8.20	-26.7	-28.7	13.9	6.80e-06	0	44	102	1048576	13	4533
2026-01-26 00:35:06.86	129.14	8.15	-26.7	-28.8	13.9	9.10e-06	0	44	102	1048576	13	4565
2026-01-26 00:35:07.86	129.27	8.10	-26.7	-28.8	13.8	6.80e-06	0	44	102	1048576	13	4582
2026-01-26 00:35:08.87	129.40	8.04	-26.8	-29.0	13.7	5.70e-06	0	44	102	1048576	13	4638
2026-01-26 00:35:09.88	129.52	7.99	-26.7	-28.8	13.8	9.10e-06	0	44	102	1048576	13	4596
2026-01-26 00:35:10.88	129.65	7.93	-26.7	-28.9	13.8	1.02e-05	0	44	102	1048576	13	4604
2026-01-26 00:35:11.88	129.77	7.88	-26.9	-29.2	13.6	9.10e-06	0	44	102	1048576	13	4706
2026-01-26 00:35:12.89	129.90	7.82	-26.9	-29.2	13.6	1.25e-05	0	44	102	1048576	13	4701
2026-01-26 00:35:13.89	130.02	7.77	-26.8	-29.1	13.6	2.05e-05	0	44	102	1048576	13	4662
2026-01-26 00:35:14.90	130.14	7.71	-26.9	-29.3	13.5	1.71e-05	0	44	102	1048576	13	4729
2026-01-26 00:35:15.91	130.27	7.66	-26.7	-28.9	13.7	1.02e-05	0	44	102	1048576	13	4613
2026-01-26 00:35:16.91	130.39	7.61	-26.7	-28.8	13.7	9.10e-06	0	44	102	1048576	13	4582
2026-01-26 00:35:17.92	130.51	7.55	-26.7	-28.8	13.8	6.80e-06	0	44	102	1048576	13	4585
2026-01-26 00:35:18.92	130.63	7.50	-26.7	-28.7	13.8	6.80e-06	0	44	102	1048576	13	4553
2026-01-26 00:35:19.92	130.75	7.44	-26.8	-29.0	13.6	1.71e-05	0	44	102	1048576	13	4632
2026-01-26 00:35:20.92	130.87	7.39	-26.8	-29.1	13.6	1.71e-05	0	44	102	1048576	13	4654
2026-01-26 00:35:21.93	130.99	7.33	-26.8	-28.9	13.7	5.70e-06	0	44	102	1048576	13	4603
2026-01-26 00:35:22.94	131.11	7.28	-27.1	-29.1	13.3	1.94e-05	0	44	102	1048576	14	4554
2026-01-26 00:35:23.94	131.23	7.23	-26.9	-28.8	13.5	1.71e-05	0	44	102	1048576	14	4458
2026-01-26 00:35:24.95	131.35	7.17	-26.9	-28.7	13.5	1.71e-05	0	44	102	1048576	14	4427
2026-01-26 00:35:25.96	131.47	7.12	-27.1	-29.3	13.1	2.40e-05	0	44	102	1048576	14	4613
2026-01-26 00:35:26.96	131.59	7.06	-27.3	-29.7	12.8	6.17e-05	0	44	102	1048576	14	4756
2026-01-26 00:35:27.97	131.71	7.01	-32.6	-43.7	3.8	8.47e-01	0	44	104	1048576	25	12887
2026-01-26 00:35:28.97	131.82	6.95	-33.2	-44.5	3.8	8.46e-01	0	44	104	1048576	26	13225

#Closed at: 2026-01-26 00:35:29
#Recorded file [1 MB]: D:/data/31010_260126_032638.dat