passes_logs/2026/01/26/R2M6_AANII_01/R2M6_AANII_01__20260126_231006_SUOMI_NPP_rec.log

#Pass ID: 20260126_231006_SUOMI NPP
#Satellite: SUOMI NPP
#Configuration: NPP
#almurnet v.1.7.20240730
#Start time: 2026-01-26 23:10:06

#Version: 2.2.20231116
#Station: R2M6_AANII_01
#Location: 30.233357 lon 59.946436 lat
#TLE: 1 37849U 11061A   26026.52266023  .00000173  00000+0  10323-3 0  9994
#TLE: 2 37849  98.7822 328.4727 0002140  43.9411 316.1934 14.19530258738341

#Time	Az	El	Level	Level2	SNR	BER	BlckErr	Temp	State	Recorded	gain1	gain2
2026-01-26 23:10:06.59	26.58	7.02	-31.7	-35.8	5.2	1.22e+00	0	41	0	0	23	5745
2026-01-26 23:10:07.59	26.66	7.09	-32.3	-38.3	4.6	1.34e+00	0	41	104	0	24	7134
2026-01-26 23:10:08.60	26.73	7.16	-32.3	-37.7	6.9	2.33e-01	0	41	0	0	24	6760
2026-01-26 23:10:09.60	26.81	7.23	-32.3	-37.7	6.9	1.56e-01	0	41	0	1048576	24	6737
2026-01-26 23:10:10.60	26.88	7.30	-32.2	-37.4	7.1	1.79e-01	0	41	0	3145728	24	6555
2026-01-26 23:10:11.61	26.96	7.37	-32.1	-36.8	7.7	1.16e-01	0	42	0	5242880	24	6151
2026-01-26 23:10:12.61	27.04	7.44	-31.9	-35.9	8.3	7.57e-02	0	41	0	7340032	24	5707
2026-01-26 23:10:13.61	27.11	7.51	-31.8	-36.0	8.8	3.42e-02	0	41	0	9437184	23	5798
2026-01-26 23:10:14.61	27.19	7.57	-31.6	-35.2	9.4	1.84e-02	0	42	0	10485760	23	5432
2026-01-26 23:10:15.61	27.27	7.64	-31.4	-34.5	9.9	1.27e-02	0	42	0	12582912	23	5110
2026-01-26 23:10:16.60	27.34	7.71	-31.3	-34.4	10.3	7.30e-03	0	41	0	14680064	22	5171
2026-01-26 23:10:17.60	27.42	7.78	-31.2	-34.2	10.5	3.91e-03	0	42	0	16777216	22	5088
2026-01-26 23:10:18.60	27.50	7.85	-31.5	-34.5	9.8	5.75e-03	0	42	0	17825792	23	5132
2026-01-26 23:10:19.60	27.58	7.92	-31.4	-34.7	10.2	1.07e-02	0	42	0	19922944	22	5273
2026-01-26 23:10:20.61	27.66	7.99	-31.1	-33.8	10.8	4.08e-03	0	42	0	22020096	22	4910
2026-01-26 23:10:21.61	27.74	8.06	-30.9	-33.2	11.3	2.15e-03	0	42	0	24117248	22	4688
2026-01-26 23:10:22.62	27.82	8.14	-30.7	-33.0	11.7	8.73e-04	0	42	0	26214400	21	4713
2026-01-26 23:10:23.62	27.90	8.21	-30.5	-32.5	12.1	1.43e-03	0	42	0	27262976	21	4526
2026-01-26 23:10:24.63	27.98	8.28	-30.5	-32.3	12.3	1.64e-04	0	42	0	29360128	21	4458
2026-01-26 23:10:25.63	28.06	8.35	-30.5	-32.4	12.2	1.79e-04	0	42	0	31457280	21	4477
2026-01-26 23:10:26.63	28.14	8.42	-30.4	-32.3	12.3	1.40e-03	0	42	0	33554432	21	4435
2026-01-26 23:10:27.64	28.22	8.49	-30.6	-32.7	12.0	2.49e-04	0	42	0	35651584	21	4590
2026-01-26 23:10:28.64	28.30	8.56	-30.6	-32.6	12.1	5.10e-04	0	42	0	36700160	21	4566
2026-01-26 23:10:29.64	28.38	8.64	-30.3	-32.4	12.5	3.21e-04	0	42	0	38797312	20	4573
2026-01-26 23:10:30.65	28.47	8.71	-30.3	-32.2	12.7	9.46e-05	0	42	0	40894464	20	4520
2026-01-26 23:10:31.64	28.55	8.78	-30.2	-32.1	12.8	5.79e-05	0	42	0	42991616	20	4463
2026-01-26 23:10:32.65	28.63	8.85	-30.2	-32.0	12.9	5.26e-05	0	42	0	45088768	20	4427
2026-01-26 23:10:33.65	28.72	8.92	-30.2	-32.0	12.9	5.03e-05	0	42	0	46137344	20	4447
2026-01-26 23:10:34.66	28.80	9.00	-30.3	-32.4	12.7	1.35e-03	0	42	0	48234496	20	4559
2026-01-26 23:10:35.65	28.89	9.07	-30.4	-32.5	12.7	5.87e-05	0	42	0	50331648	20	4581
2026-01-26 23:10:36.66	28.97	9.14	-30.3	-32.3	12.8	6.71e-05	0	42	0	52428800	20	4523
2026-01-26 23:10:37.66	29.06	9.22	-30.4	-32.6	12.5	1.45e-03	0	42	0	54525952	20	4634
2026-01-26 23:10:38.66	29.14	9.29	-30.4	-32.6	12.5	1.48e-03	0	42	0	55574528	20	4623
2026-01-26 23:10:39.66	29.23	9.36	-30.4	-32.1	12.5	1.40e-04	0	42	0	57671680	21	4377
2026-01-26 23:10:40.67	29.32	9.44	-30.5	-32.3	12.4	1.52e-03	0	43	0	59768832	21	4428
2026-01-26 23:10:41.68	29.40	9.51	-30.5	-32.4	12.3	1.67e-03	0	42	0	61865984	21	4480
2026-01-26 23:10:42.69	29.49	9.59	-30.6	-32.5	12.3	2.43e-04	0	42	0	63963136	21	4515
2026-01-26 23:10:43.70	29.58	9.66	-30.4	-32.1	12.6	1.43e-03	0	43	0	65011712	21	4371
2026-01-26 23:10:44.70	29.67	9.73	-30.5	-32.3	12.5	1.40e-03	0	42	0	67108864	21	4418
2026-01-26 23:10:45.71	29.76	9.81	-30.6	-32.5	12.3	1.26e-04	0	43	0	69206016	21	4504
2026-01-26 23:10:46.70	29.85	9.88	-30.4	-32.5	12.7	1.32e-03	0	42	0	71303168	20	4599
2026-01-26 23:10:47.71	29.94	9.96	-30.4	-32.6	12.6	1.19e-03	0	42	0	73400320	20	4624
2026-01-26 23:10:48.70	30.03	10.03	-30.6	-32.5	12.3	1.63e-04	0	42	0	74448896	21	4479
2026-01-26 23:10:49.70	30.12	10.11	-30.7	-32.8	12.0	1.92e-04	0	43	0	76546048	21	4588
2026-01-26 23:10:50.70	30.21	10.18	-30.6	-32.6	12.2	1.42e-03	0	42	0	78643200	21	4536
2026-01-26 23:10:51.70	30.30	10.26	-30.3	-31.8	12.8	1.20e-04	0	43	0	80740352	21	4275
2026-01-26 23:10:52.70	30.39	10.33	-30.2	-32.0	13.0	1.27e-03	0	43	0	81788928	20	4430
2026-01-26 23:10:53.70	30.48	10.41	-30.2	-31.8	13.2	1.15e-03	0	43	0	83886080	20	4368
2026-01-26 23:10:54.71	30.58	10.49	-30.3	-32.1	12.9	3.35e-05	0	43	0	85983232	20	4463
2026-01-26 23:10:55.72	30.67	10.56	-30.2	-32.1	13.0	9.66e-04	0	43	0	88080384	20	4451
2026-01-26 23:10:56.72	30.76	10.64	-30.0	-32.2	12.8	9.25e-04	0	43	0	90177536	19	4636
2026-01-26 23:10:57.72	30.86	10.71	-30.2	-31.9	13.1	4.19e-05	0	43	0	91226112	20	4405
2026-01-26 23:10:58.72	30.95	10.79	-30.2	-32.0	12.5	7.48e-04	0	43	0	93323264	20	4418
2026-01-26 23:10:59.73	31.05	10.87	-30.2	-31.9	12.8	8.26e-04	0	43	0	95420416	20	4389
2026-01-26 23:11:00.74	31.14	10.95	-30.2	-32.0	13.1	4.11e-05	0	43	0	97517568	20	4403
2026-01-26 23:11:01.74	31.24	11.02	-30.4	-32.4	12.8	9.71e-04	0	43	0	99614720	20	4550
2026-01-26 23:11:02.75	31.34	11.10	-30.4	-32.5	12.7	1.15e-03	0	43	0	100663296	20	4590
2026-01-26 23:11:03.75	31.43	11.18	-30.6	-32.4	12.5	1.15e-04	0	43	0	102760448	21	4468
2026-01-26 23:11:04.75	31.53	11.26	-30.7	-33.0	12.1	1.31e-03	0	43	0	104857600	21	4644
2026-01-26 23:11:05.75	31.63	11.33	-30.7	-32.8	12.2	1.24e-03	0	43	0	106954752	21	4589
2026-01-26 23:11:06.75	31.73	11.41	-30.7	-32.7	12.2	2.37e-04	0	43	0	109051904	21	4554
2026-01-26 23:11:07.75	31.82	11.49	-30.7	-32.7	12.3	5.07e-04	0	43	0	110100480	21	4555
2026-01-26 23:11:08.75	31.92	11.57	-30.8	-33.1	12.0	1.15e-03	0	43	0	112197632	21	4713
2026-01-26 23:11:09.76	32.02	11.65	-30.8	-33.2	12.0	3.48e-04	0	43	0	114294784	21	4740
2026-01-26 23:11:10.76	32.12	11.73	-30.8	-33.2	12.0	5.88e-04	0	43	0	116391936	21	4734
2026-01-26 23:11:11.76	32.23	11.80	-30.8	-33.1	12.0	1.19e-03	0	43	0	118489088	21	4680
2026-01-26 23:11:12.76	32.33	11.88	-30.8	-33.0	12.1	2.90e-04	0	43	0	119537664	21	4646
2026-01-26 23:11:13.77	32.43	11.96	-30.7	-32.9	12.2	1.20e-03	0	43	0	121634816	21	4616
2026-01-26 23:11:14.78	32.53	12.04	-30.8	-33.0	12.1	2.49e-04	0	43	0	123731968	21	4668
2026-01-26 23:11:15.78	32.64	12.12	-30.9	-33.3	12.0	3.29e-04	0	43	0	125829120	21	4759
2026-01-26 23:11:16.79	32.74	12.20	-30.8	-33.0	12.1	1.50e-03	0	43	0	127926272	21	4659
2026-01-26 23:11:17.79	32.84	12.28	-30.5	-32.2	12.6	1.25e-04	0	43	0	128974848	21	4387
2026-01-26 23:11:18.80	32.95	12.36	-30.3	-31.5	13.1	4.34e-05	0	43	0	131072000	21	4168
2026-01-26 23:11:19.80	33.06	12.44	-30.1	-31.7	13.3	6.58e-04	0	43	0	133169152	20	4318
2026-01-26 23:11:20.80	33.16	12.52	-30.3	-32.0	13.2	2.49e-04	0	43	0	135266304	20	4415
2026-01-26 23:11:21.80	33.27	12.60	-30.3	-32.2	13.1	1.75e-05	0	43	0	136314880	20	4465
2026-01-26 23:11:22.80	33.37	12.69	-30.2	-31.8	13.3	6.04e-04	0	43	0	138412032	20	4347
2026-01-26 23:11:23.81	33.48	12.77	-30.4	-32.4	12.9	4.96e-04	0	43	0	140509184	20	4549
2026-01-26 23:11:24.81	33.59	12.85	-30.3	-32.2	13.2	3.28e-05	0	43	0	142606336	20	4453
2026-01-26 23:11:25.81	33.70	12.93	-30.0	-31.4	13.6	3.50e-05	0	43	0	144703488	20	4210
2026-01-26 23:11:26.82	33.81	13.01	-30.1	-31.6	13.6	4.85e-04	0	43	0	145752064	20	4266
2026-01-26 23:11:27.82	33.92	13.09	-30.1	-31.7	13.5	1.37e-05	0	43	0	147849216	20	4303
2026-01-26 23:11:28.82	34.03	13.18	-30.1	-31.5	13.6	1.09e-04	0	43	0	149946368	20	4228
2026-01-26 23:11:29.81	34.14	13.26	-30.2	-31.9	13.4	5.95e-04	0	43	0	152043520	20	4372
2026-01-26 23:11:30.82	34.25	13.34	-30.3	-32.1	13.2	1.83e-05	0	43	0	154140672	20	4415
2026-01-26 23:11:31.81	34.36	13.42	-30.3	-32.2	13.1	1.81e-04	0	43	0	155189248	20	4451
2026-01-26 23:11:32.81	34.47	13.50	-30.3	-32.1	13.1	1.91e-04	0	43	0	157286400	20	4420
2026-01-26 23:11:33.81	34.59	13.59	-30.6	-32.3	12.7	3.05e-05	0	43	0	159383552	21	4402
2026-01-26 23:11:34.81	34.70	13.67	-30.5	-32.2	12.8	1.36e-04	0	43	0	161480704	21	4373
2026-01-26 23:11:35.82	34.82	13.75	-30.6	-32.3	12.7	9.99e-05	0	43	0	163577856	21	4409
2026-01-26 23:11:36.82	34.93	13.84	-30.7	-32.6	12.6	1.19e-04	0	43	0	164626432	21	4503
2026-01-26 23:11:37.83	35.05	13.92	-30.7	-32.7	12.5	8.54e-05	0	43	0	166723584	21	4526
2026-01-26 23:11:38.83	35.16	14.01	-30.6	-32.3	12.7	1.01e-04	0	43	0	168820736	21	4411
2026-01-26 23:11:39.84	35.28	14.09	-30.5	-32.0	13.0	5.18e-05	0	43	0	170917888	21	4307
2026-01-26 23:11:40.84	35.40	14.17	-30.4	-32.0	13.0	3.09e-04	0	43	0	173015040	21	4298
2026-01-26 23:11:41.84	35.52	14.26	-30.4	-31.8	13.1	2.44e-05	0	43	0	174063616	21	4234
2026-01-26 23:11:42.85	35.64	14.34	-30.5	-32.1	12.8	4.65e-05	0	43	0	176160768	21	4344
2026-01-26 23:11:43.85	35.76	14.43	-30.5	-32.2	13.0	6.10e-05	0	43	0	178257920	21	4348
2026-01-26 23:11:44.85	35.88	14.51	-30.4	-32.3	13.1	1.52e-05	0	43	0	180355072	20	4493
2026-01-26 23:11:45.85	36.00	14.60	-30.4	-32.0	13.0	5.26e-05	0	43	0	181403648	21	4288
2026-01-26 23:11:46.85	36.12	14.68	-30.5	-32.1	12.8	6.10e-05	0	43	0	183500800	21	4335
2026-01-26 23:11:47.85	36.24	14.77	-30.6	-32.3	12.7	2.33e-04	0	43	0	185597952	21	4405
2026-01-26 23:11:48.85	36.36	14.85	-30.7	-32.6	12.6	6.56e-05	0	43	0	187695104	21	4518
2026-01-26 23:11:49.86	36.49	14.94	-30.7	-32.7	12.5	1.20e-04	0	43	0	189792256	21	4531
2026-01-26 23:11:50.86	36.61	15.03	-30.7	-32.8	12.5	1.66e-04	0	43	0	190840832	21	4549
2026-01-26 23:11:51.86	36.74	15.11	-30.9	-33.2	12.2	2.02e-04	0	43	0	192937984	21	4712
2026-01-26 23:11:52.86	36.86	15.20	-30.9	-32.8	12.2	4.14e-04	0	43	0	195035136	22	4465
2026-01-26 23:11:53.86	36.99	15.29	-30.8	-32.9	12.5	2.90e-04	0	43	0	197132288	21	4579
2026-01-26 23:11:54.87	37.12	15.37	-30.9	-33.1	12.2	1.48e-04	0	43	0	199229440	21	4667
2026-01-26 23:11:55.87	37.25	15.46	-30.9	-33.3	12.2	3.48e-04	0	43	0	200278016	21	4734
2026-01-26 23:11:56.87	37.37	15.55	-30.8	-32.8	12.5	3.07e-04	0	43	0	202375168	21	4560
2026-01-26 23:11:57.87	37.50	15.63	-30.8	-33.0	12.5	1.44e-04	0	43	0	204472320	21	4607
2026-01-26 23:11:58.88	37.63	15.72	-30.7	-32.7	12.6	1.03e-04	0	43	0	206569472	21	4505
2026-01-26 23:11:59.88	37.76	15.81	-30.7	-32.5	12.7	2.55e-04	0	43	0	208666624	21	4460
2026-01-26 23:12:00.87	37.89	15.90	-30.9	-33.2	12.3	1.74e-04	0	43	0	209715200	21	4677
2026-01-26 23:12:01.87	38.03	15.98	-30.7	-32.5	12.7	1.35e-04	0	43	0	211812352	21	4464
2026-01-26 23:12:02.87	38.16	16.07	-30.7	-32.5	12.7	9.07e-05	0	43	0	213909504	21	4455
2026-01-26 23:12:03.88	38.29	16.16	-30.7	-32.5	12.7	6.63e-05	0	43	0	216006656	21	4463
2026-01-26 23:12:04.88	38.43	16.25	-30.7	-32.6	12.7	4.80e-05	0	43	0	217055232	21	4463
2026-01-26 23:12:05.88	38.56	16.34	-30.7	-32.7	12.7	7.70e-05	0	43	0	219152384	21	4529
2026-01-26 23:12:06.89	38.70	16.43	-30.6	-32.4	12.8	7.55e-05	0	43	0	221249536	21	4418
2026-01-26 23:12:07.89	38.84	16.52	-30.4	-31.8	13.2	2.74e-05	0	43	0	223346688	21	4219
2026-01-26 23:12:08.89	38.98	16.61	-30.3	-31.4	13.5	1.37e-05	0	43	0	225443840	21	4093
2026-01-26 23:12:09.90	39.11	16.70	-30.2	-31.1	13.7	5.30e-06	0	43	0	226492416	21	4023
2026-01-26 23:12:10.90	39.25	16.79	-30.2	-31.2	13.7	1.37e-05	0	44	0	228589568	21	4033
2026-01-26 23:12:11.91	39.40	16.88	-30.0	-30.7	14.0	2.20e-06	0	43	0	230686720	21	3895
2026-01-26 23:12:12.91	39.54	16.97	-30.1	-30.8	13.9	7.00e-07	0	43	0	232783872	21	3931
2026-01-26 23:12:13.92	39.68	17.06	-30.1	-31.1	13.8	2.20e-06	0	43	0	234881024	21	3998
2026-01-26 23:12:14.92	39.82	17.15	-30.0	-30.7	14.1	8.30e-06	0	44	0	235929600	21	3895
2026-01-26 23:12:15.93	39.97	17.24	-30.0	-30.6	14.1	4.19e-05	0	43	0	238026752	21	3864
2026-01-26 23:12:16.93	40.11	17.33	-30.0	-30.7	14.1	3.00e-06	0	43	0	240123904	21	3889
2026-01-26 23:12:17.93	40.25	17.42	-30.0	-31.1	14.2	3.12e-05	0	43	0	242221056	20	4096
2026-01-26 23:12:18.94	40.40	17.51	-30.0	-31.1	14.1	3.00e-06	0	44	0	244318208	20	4103
2026-01-26 23:12:19.95	40.55	17.60	-29.9	-31.0	14.2	3.80e-06	0	44	0	245366784	20	4062
2026-01-26 23:12:20.95	40.70	17.70	-30.0	-31.1	14.1	1.83e-05	0	43	0	247463936	20	4087
2026-01-26 23:12:21.96	40.85	17.79	-30.1	-31.5	13.9	4.50e-06	0	44	0	249561088	20	4204
2026-01-26 23:12:22.97	41.00	17.88	-30.0	-31.2	14.0	5.30e-06	0	43	0	251658240	20	4114
2026-01-26 23:12:23.98	41.15	17.97	-29.9	-30.9	14.2	0.00e+00	0	43	0	253755392	20	4049
2026-01-26 23:12:24.98	41.30	18.06	-29.9	-31.0	14.2	1.50e-06	0	44	0	254803968	20	4066
2026-01-26 23:12:25.98	41.45	18.16	-30.0	-31.2	14.0	1.50e-06	0	44	0	256901120	20	4120
2026-01-26 23:12:26.98	41.60	18.25	-29.9	-30.9	14.2	7.00e-07	0	43	0	258998272	20	4049
2026-01-26 23:12:27.99	41.76	18.34	-30.0	-31.1	14.2	0.00e+00	0	44	0	261095424	20	4087
2026-01-26 23:12:28.99	41.91	18.43	-29.9	-31.0	14.2	1.50e-06	0	44	0	263192576	20	4058
2026-01-26 23:12:29.99	42.07	18.53	-29.8	-30.7	14.4	0.00e+00	0	44	0	264241152	20	3967
2026-01-26 23:12:30.99	42.23	18.62	-29.9	-30.8	14.4	2.20e-06	0	44	0	266338304	20	3999
2026-01-26 23:12:32.00	42.38	18.71	-29.9	-31.0	14.2	7.00e-07	0	44	0	268435456	20	4062
2026-01-26 23:12:33.00	42.54	18.81	-30.1	-31.4	14.0	2.20e-06	0	43	0	270532608	20	4185
2026-01-26 23:12:34.00	42.70	18.90	-29.9	-30.8	14.3	9.90e-06	0	44	0	272629760	20	4020
2026-01-26 23:12:35.00	42.86	18.99	-30.1	-31.3	14.0	1.50e-06	0	44	0	273678336	20	4145
2026-01-26 23:12:36.00	43.02	19.09	-29.8	-30.6	14.5	0.00e+00	0	44	0	275775488	20	3953
2026-01-26 23:12:37.01	43.19	19.18	-29.8	-30.6	14.4	7.00e-07	0	44	0	277872640	20	3953
2026-01-26 23:12:38.01	43.35	19.28	-29.7	-30.4	14.6	7.00e-07	0	44	0	279969792	20	3892
2026-01-26 23:12:39.02	43.52	19.37	-29.7	-30.4	14.6	7.00e-07	0	44	0	282066944	20	3904
2026-01-26 23:12:40.02	43.68	19.46	-29.8	-30.7	14.4	1.50e-06	0	44	0	283115520	20	3977
2026-01-26 23:12:41.03	43.85	19.56	-29.7	-30.2	14.8	0.00e+00	0	44	0	285212672	20	3848
2026-01-26 23:12:42.02	44.01	19.65	-29.6	-30.1	14.8	7.00e-07	0	44	0	287309824	20	3805
2026-01-26 23:12:43.03	44.18	19.75	-29.7	-30.4	14.7	0.00e+00	0	44	0	289406976	20	3892
2026-01-26 23:12:44.03	44.35	19.84	-29.8	-30.6	14.5	0.00e+00	0	44	0	291504128	20	3941
2026-01-26 23:12:45.03	44.52	19.94	-29.5	-29.9	14.9	0.00e+00	0	44	0	292552704	20	3764
2026-01-26 23:12:46.03	44.69	20.03	-29.6	-30.1	14.8	7.00e-07	0	44	0	294649856	20	3821
2026-01-26 23:12:47.04	44.87	20.13	-29.4	-29.7	15.0	0.00e+00	0	44	0	296747008	20	3700
2026-01-26 23:12:48.04	45.04	20.22	-29.5	-29.8	15.0	0.00e+00	0	44	0	298844160	20	3743
2026-01-26 23:12:49.04	45.21	20.32	-29.4	-29.7	15.1	0.00e+00	0	44	0	300941312	20	3705
2026-01-26 23:12:50.05	45.39	20.41	-29.4	-29.7	15.1	0.00e+00	0	44	0	301989888	20	3694
2026-01-26 23:12:51.05	45.57	20.51	-29.6	-30.1	14.8	7.00e-07	0	44	0	304087040	20	3817
2026-01-26 23:12:52.05	45.74	20.60	-29.5	-29.9	15.0	7.00e-07	0	44	0	306184192	20	3757
2026-01-26 23:12:53.06	45.92	20.70	-29.4	-29.6	15.2	0.00e+00	0	44	0	308281344	20	3678
2026-01-26 23:12:54.07	46.11	20.80	-29.4	-30.0	15.3	0.00e+00	0	44	0	309329920	19	3871
2026-01-26 23:12:55.07	46.29	20.89	-29.8	-30.9	14.8	0.00e+00	0	44	0	311427072	19	4125
2026-01-26 23:12:56.08	46.47	20.99	-29.4	-30.0	15.3	5.18e-05	0	44	0	313524224	19	3853
2026-01-26 23:12:57.08	46.65	21.09	-29.2	-29.6	15.6	0.00e+00	0	44	0	315621376	19	3752
2026-01-26 23:12:58.08	46.84	21.18	-29.2	-29.6	15.6	0.00e+00	0	44	0	317718528	19	3758
2026-01-26 23:12:59.08	47.02	21.28	-29.2	-29.6	15.6	0.00e+00	0	44	0	318767104	19	3758
2026-01-26 23:13:00.08	47.21	21.37	-29.1	-29.3	15.8	0.00e+00	0	44	0	320864256	19	3675
2026-01-26 23:13:01.09	47.40	21.47	-29.2	-29.5	15.6	0.00e+00	0	44	0	322961408	19	3742
2026-01-26 23:13:02.09	47.59	21.57	-29.3	-29.8	15.4	0.00e+00	0	44	0	325058560	19	3808
2026-01-26 23:13:03.10	47.78	21.66	-29.4	-30.0	15.3	0.00e+00	0	44	0	327155712	19	3863
2026-01-26 23:13:04.10	47.97	21.76	-29.4	-30.1	15.3	0.00e+00	0	44	0	328204288	19	3903
2026-01-26 23:13:05.10	48.16	21.86	-29.5	-30.3	15.1	0.00e+00	0	44	0	330301440	19	3950
2026-01-26 23:13:06.10	48.35	21.95	-29.5	-30.2	15.2	0.00e+00	0	44	0	332398592	19	3912
2026-01-26 23:13:07.10	48.55	22.05	-29.6	-30.6	14.9	2.84e-04	0	44	0	334495744	19	4022
2026-01-26 23:13:08.10	48.74	22.15	-29.8	-30.9	14.8	0.00e+00	0	44	0	336592896	19	4113
2026-01-26 23:13:09.11	48.94	22.24	-29.7	-30.9	14.8	0.00e+00	0	44	0	337641472	19	4102
2026-01-26 23:13:10.10	49.14	22.34	-29.9	-30.8	14.4	4.69e-04	0	44	0	339738624	20	4008
2026-01-26 23:13:11.11	49.34	22.44	-30.0	-31.1	14.3	7.00e-07	0	44	0	341835776	20	4073
2026-01-26 23:13:12.12	49.54	22.53	-30.0	-31.1	14.3	1.50e-06	0	44	0	343932928	20	4063
2026-01-26 23:13:13.11	49.74	22.63	-30.0	-31.2	14.2	5.41e-05	0	44	0	346030080	20	4100
2026-01-26 23:13:14.12	49.94	22.73	-29.7	-30.4	14.7	2.97e-05	0	44	0	347078656	20	3888
2026-01-26 23:13:15.12	50.15	22.82	-29.7	-30.3	14.8	0.00e+00	0	44	0	349175808	20	3854
2026-01-26 23:13:16.12	50.35	22.92	-29.5	-29.7	15.2	0.00e+00	0	44	0	351272960	20	3704
2026-01-26 23:13:17.13	50.56	23.02	-29.6	-30.2	14.8	0.00e+00	0	44	0	353370112	20	3821
2026-01-26 23:13:18.13	50.77	23.11	-29.6	-29.9	15.0	0.00e+00	0	44	0	354418688	20	3754
2026-01-26 23:13:19.13	50.98	23.21	-29.4	-29.4	15.3	0.00e+00	0	44	0	356515840	20	3631
2026-01-26 23:13:20.13	51.19	23.31	-29.5	-29.9	15.1	3.50e-05	0	44	0	358612992	20	3744
2026-01-26 23:13:21.13	51.40	23.40	-29.5	-29.7	15.2	0.00e+00	0	44	0	360710144	20	3707
2026-01-26 23:13:22.14	51.62	23.50	-29.5	-29.9	15.0	0.00e+00	0	43	0	362807296	20	3749
2026-01-26 23:13:23.14	51.83	23.60	-29.6	-30.5	15.1	1.23e-04	0	44	0	363855872	19	3994
2026-01-26 23:13:24.14	52.05	23.69	-29.7	-30.8	14.9	0.00e+00	0	44	0	365953024	19	4071
2026-01-26 23:13:25.14	52.26	23.79	-29.6	-30.6	15.0	2.97e-04	0	44	0	368050176	19	4013
2026-01-26 23:13:26.15	52.48	23.89	-29.7	-30.7	15.0	0.00e+00	0	44	0	370147328	19	4042
2026-01-26 23:13:27.14	52.70	23.98	-29.8	-30.9	14.7	0.00e+00	0	44	0	372244480	19	4117
2026-01-26 23:13:28.15	52.92	24.08	-29.5	-30.3	15.2	2.10e-04	0	44	0	373293056	19	3931
2026-01-26 23:13:29.15	53.14	24.18	-29.5	-30.3	15.2	6.25e-05	0	44	0	375390208	19	3926
2026-01-26 23:13:30.15	53.37	24.27	-29.5	-30.3	15.2	0.00e+00	0	44	0	377487360	19	3930
2026-01-26 23:13:31.16	53.59	24.37	-29.3	-29.8	15.5	1.82e-04	0	44	0	379584512	19	3800
2026-01-26 23:13:32.16	53.82	24.46	-29.2	-29.9	15.7	2.29e-04	0	44	0	381681664	18	3917
2026-01-26 23:13:33.16	54.05	24.56	-29.1	-29.8	15.8	0.00e+00	0	44	0	382730240	18	3887
2026-01-26 23:13:34.17	54.28	24.66	-29.2	-30.0	15.7	7.32e-05	0	44	0	384827392	18	3965
2026-01-26 23:13:35.17	54.51	24.75	-29.3	-30.1	15.6	3.35e-05	0	44	0	386924544	18	3985
2026-01-26 23:13:36.18	54.74	24.85	-29.2	-30.0	15.6	0.00e+00	0	44	0	389021696	18	3955
2026-01-26 23:13:37.18	54.98	24.94	-29.4	-30.0	15.4	0.00e+00	0	44	0	391118848	19	3847
2026-01-26 23:13:38.18	55.21	25.04	-29.5	-30.1	15.3	0.00e+00	0	44	0	392167424	19	3892
2026-01-26 23:13:39.18	55.45	25.13	-29.6	-30.5	15.0	0.00e+00	0	44	0	394264576	19	3993
2026-01-26 23:13:40.18	55.68	25.23	-29.7	-30.8	14.9	0.00e+00	0	44	0	396361728	19	4087
2026-01-26 23:13:41.19	55.92	25.32	-29.9	-31.3	14.6	7.00e-07	0	44	0	398458880	19	4228
2026-01-26 23:13:42.19	56.16	25.42	-30.0	-31.0	14.4	1.50e-06	0	44	0	400556032	20	4045
2026-01-26 23:13:43.20	56.41	25.51	-30.0	-31.1	14.4	7.00e-07	0	44	0	401604608	20	4069
2026-01-26 23:13:44.20	56.65	25.61	-29.8	-30.7	14.6	1.50e-06	0	44	0	403701760	20	3948
2026-01-26 23:13:45.21	56.90	25.70	-30.0	-30.9	14.5	0.00e+00	0	44	0	405798912	20	4021
2026-01-26 23:13:46.21	57.14	25.80	-30.1	-31.3	14.2	1.50e-06	0	44	0	407896064	20	4138
2026-01-26 23:13:47.21	57.39	25.89	-29.8	-30.5	14.6	0.00e+00	0	44	0	408944640	20	3914
2026-01-26 23:13:48.22	57.64	25.98	-29.8	-30.4	14.9	7.00e-07	0	44	0	411041792	20	3881
2026-01-26 23:13:49.22	57.89	26.08	-29.7	-30.3	14.9	7.00e-07	0	44	0	413138944	20	3836
2026-01-26 23:13:50.22	58.14	26.17	-29.7	-30.2	14.9	7.00e-07	0	44	0	415236096	20	3829
2026-01-26 23:13:51.23	58.40	26.26	-29.7	-30.2	15.0	0.00e+00	0	44	0	417333248	20	3810
2026-01-26 23:13:52.23	58.65	26.35	-29.8	-30.6	14.7	0.00e+00	0	44	0	419430400	20	3919
2026-01-26 23:13:53.23	58.91	26.45	-29.9	-30.7	14.6	7.00e-07	0	44	0	420478976	20	3967
2026-01-26 23:13:54.23	59.16	26.54	-29.8	-30.6	14.6	0.00e+00	0	44	0	422576128	20	3932
2026-01-26 23:13:55.24	59.42	26.63	-30.1	-31.3	14.3	7.00e-07	0	44	0	424673280	20	4117
2026-01-26 23:13:56.24	59.68	26.72	-30.0	-30.9	14.5	3.05e-05	0	44	0	426770432	20	4005
2026-01-26 23:13:57.24	59.95	26.81	-30.0	-31.0	14.5	2.20e-06	0	44	0	427819008	20	4036
2026-01-26 23:13:58.24	60.21	26.90	-29.7	-30.2	15.0	7.00e-07	0	44	0	429916160	20	3817
2026-01-26 23:13:59.25	60.48	26.99	-29.6	-30.6	15.1	4.26e-04	0	44	0	432013312	19	4006
2026-01-26 23:14:00.25	60.74	27.08	-29.8	-31.0	14.9	0.00e+00	0	44	0	434110464	19	4121
2026-01-26 23:14:01.26	61.01	27.17	-29.9	-31.3	14.7	0.00e+00	0	44	0	436207616	19	4207
2026-01-26 23:14:02.27	61.28	27.26	-29.9	-31.3	14.7	7.00e-07	0	44	0	437256192	19	4208
2026-01-26 23:14:03.27	61.55	27.35	-30.2	-31.6	14.1	7.00e-07	0	44	0	439353344	20	4204
2026-01-26 23:14:04.27	61.83	27.44	-30.3	-31.9	13.9	2.20e-06	0	44	0	441450496	20	4310
2026-01-26 23:14:05.27	62.10	27.53	-30.3	-31.8	14.0	7.00e-07	0	44	0	443547648	20	4287
2026-01-26 23:14:06.27	62.37	27.61	-30.2	-31.5	14.1	3.00e-06	0	44	0	445644800	20	4199
2026-01-26 23:14:07.28	62.65	27.70	-30.4	-32.0	13.9	7.00e-07	0	44	0	446693376	20	4335
2026-01-26 23:14:08.28	62.93	27.79	-30.4	-31.7	13.8	6.10e-06	0	44	0	448790528	21	4138
2026-01-26 23:14:09.29	63.21	27.88	-30.2	-31.1	14.1	1.50e-06	0	44	0	450887680	21	3965
2026-01-26 23:14:10.29	63.49	27.96	-30.5	-31.7	13.7	2.20e-06	0	44	0	452984832	21	4167
2026-01-26 23:14:11.29	63.78	28.05	-30.4	-31.7	13.7	9.10e-06	0	44	0	455081984	21	4139
2026-01-26 23:14:12.29	64.06	28.13	-30.2	-30.9	14.2	1.50e-06	0	44	0	456130560	21	3933
2026-01-26 23:14:13.30	64.35	28.22	-30.1	-31.3	14.3	1.62e-04	0	44	0	458227712	20	4123
2026-01-26 23:14:14.31	64.64	28.30	-30.2	-31.6	14.1	2.20e-06	0	44	0	460324864	20	4231
2026-01-26 23:14:15.31	64.92	28.38	-30.1	-31.2	14.4	3.00e-06	0	44	0	462422016	20	4100
2026-01-26 23:14:16.31	65.21	28.47	-30.1	-31.2	14.4	0.00e+00	0	44	0	464519168	20	4092
2026-01-26 23:14:17.32	65.51	28.55	-30.0	-31.1	14.5	7.00e-07	0	44	0	465567744	20	4063
2026-01-26 23:14:18.33	65.80	28.63	-30.1	-31.4	14.2	2.20e-06	0	44	0	467664896	20	4145
2026-01-26 23:14:19.33	66.10	28.71	-30.3	-31.9	13.9	0.00e+00	0	44	0	469762048	20	4303
2026-01-26 23:14:20.33	66.39	28.79	-30.5	-31.8	13.7	5.30e-06	0	44	0	471859200	21	4195
2026-01-26 23:14:21.33	66.69	28.87	-30.9	-32.9	12.9	3.28e-05	0	44	0	473956352	21	4522
2026-01-26 23:14:22.34	66.99	28.95	-30.9	-32.4	13.0	6.33e-05	0	44	0	475004928	22	4271
2026-01-26 23:14:23.34	67.29	29.03	-30.5	-31.4	13.6	1.98e-05	0	44	0	477102080	22	3961
2026-01-26 23:14:24.33	67.59	29.11	-30.6	-31.5	13.5	5.30e-06	0	44	0	479199232	22	4015
2026-01-26 23:14:25.34	67.90	29.19	-30.4	-31.1	13.8	7.00e-07	0	44	0	481296384	22	3873
2026-01-26 23:14:26.34	68.20	29.26	-30.6	-31.6	13.5	3.00e-06	0	44	0	482344960	22	4034
2026-01-26 23:14:27.35	68.51	29.34	-30.9	-32.3	13.1	2.44e-05	0	44	0	484442112	22	4237
2026-01-26 23:14:28.35	68.82	29.42	-31.0	-32.6	12.9	5.95e-05	0	44	0	486539264	22	4334
2026-01-26 23:14:29.35	69.12	29.49	-31.1	-32.9	12.7	8.77e-05	0	44	0	488636416	22	4430
2026-01-26 23:14:30.35	69.43	29.56	-30.8	-32.1	13.1	4.73e-05	0	44	0	490733568	22	4194
2026-01-26 23:14:31.35	69.75	29.64	-30.9	-32.3	13.1	2.21e-05	0	44	0	491782144	22	4243
2026-01-26 23:14:32.35	70.06	29.71	-31.2	-33.3	12.4	4.27e-05	0	44	0	493879296	22	4555
2026-01-26 23:14:33.35	70.37	29.78	-31.3	-33.5	12.2	1.67e-04	0	44	0	495976448	22	4647
2026-01-26 23:14:34.35	70.69	29.85	-31.4	-33.9	11.9	2.10e-04	0	44	0	498073600	22	4800
2026-01-26 23:14:35.36	71.01	29.92	-31.6	-33.8	11.8	5.46e-04	0	44	0	500170752	23	4643
2026-01-26 23:14:36.36	71.33	29.99	-31.7	-34.2	11.4	7.03e-04	0	44	0	501219328	23	4796
2026-01-26 23:14:37.36	71.65	30.06	-32.0	-35.0	10.8	1.40e-03	0	44	0	503316480	23	5135
2026-01-26 23:14:38.36	71.97	30.13	-32.0	-34.7	10.7	2.34e-03	0	44	0	505413632	24	4905
2026-01-26 23:14:39.36	72.29	30.20	-32.2	-35.4	10.2	4.26e-03	0	44	0	507510784	24	5202
2026-01-26 23:14:40.37	72.62	30.27	-32.4	-35.9	9.8	7.05e-03	0	44	0	509607936	24	5419
2026-01-26 23:14:41.37	72.94	30.33	-32.3	-35.2	10.0	1.26e-02	0	44	0	510656512	25	5030
2026-01-26 23:14:42.37	73.27	30.40	-32.0	-34.2	10.7	5.04e-03	0	44	0	512753664	25	4629
2026-01-26 23:14:43.37	73.59	30.46	-31.6	-33.3	11.7	1.32e-03	0	44	0	514850816	24	4395
2026-01-26 23:14:44.37	73.92	30.52	-31.4	-32.9	11.9	3.97e-04	0	44	0	516947968	24	4271
2026-01-26 23:14:45.38	74.26	30.58	-31.6	-33.9	11.7	5.02e-04	0	44	0	517996544	23	4699
2026-01-26 23:14:46.38	74.59	30.65	-31.8	-34.4	11.3	9.41e-04	0	44	0	520093696	23	4883
2026-01-26 23:14:47.38	74.92	30.71	-31.8	-34.4	11.3	1.49e-03	0	44	0	522190848	23	4886
2026-01-26 23:14:48.38	75.25	30.77	-31.5	-33.5	12.0	9.27e-04	0	44	0	524288000	23	4543
2026-01-26 23:14:49.38	75.59	30.82	-31.4	-33.3	12.1	2.92e-04	0	44	0	526385152	23	4474
2026-01-26 23:14:50.38	75.93	30.88	-31.4	-33.3	12.1	3.26e-04	0	44	0	527433728	23	4479
2026-01-26 23:14:51.38	76.26	30.94	-31.6	-33.9	11.6	4.71e-04	0	44	0	529530880	23	4674
2026-01-26 23:14:52.39	76.60	30.99	-31.4	-33.4	12.1	5.08e-04	0	44	0	531628032	23	4505
2026-01-26 23:14:53.39	76.94	31.05	-31.0	-32.2	12.9	1.56e-04	0	44	0	533725184	23	4110
2026-01-26 23:14:54.40	77.29	31.10	-30.8	-31.6	13.2	5.49e-05	0	44	0	535822336	23	3948
2026-01-26 23:14:55.40	77.63	31.16	-31.0	-32.6	12.9	4.19e-05	0	44	0	536870912	22	4353
2026-01-26 23:14:56.40	77.97	31.21	-31.3	-33.7	12.1	1.49e-04	0	44	0	538968064	22	4702
2026-01-26 23:14:57.40	78.32	31.26	-31.4	-34.0	11.9	2.72e-04	0	44	0	541065216	22	4827
2026-01-26 23:14:58.40	78.66	31.31	-31.4	-33.4	12.0	4.56e-04	0	44	0	543162368	23	4513
2026-01-26 23:14:59.41	79.01	31.36	-31.3	-33.1	12.2	2.41e-04	0	44	0	545259520	23	4422
2026-01-26 23:15:00.41	79.36	31.40	-31.3	-32.9	12.3	2.14e-04	0	44	0	546308096	23	4365
2026-01-26 23:15:01.41	79.71	31.45	-31.2	-32.8	12.4	3.14e-04	0	44	0	548405248	23	4344
2026-01-26 23:15:02.41	80.06	31.50	-31.1	-32.5	12.6	1.27e-04	0	44	0	550502400	23	4219
2026-01-26 23:15:03.42	80.41	31.54	-31.0	-32.1	12.8	1.01e-04	0	44	0	552599552	23	4108
2026-01-26 23:15:04.42	80.76	31.58	-30.9	-32.0	12.9	8.85e-05	0	44	0	554696704	23	4067
2026-01-26 23:15:05.42	81.11	31.62	-30.6	-31.5	13.5	1.29e-05	0	44	0	555745280	22	4009
2026-01-26 23:15:06.42	81.47	31.67	-30.6	-31.6	13.5	1.20e-04	0	44	0	557842432	22	4050
2026-01-26 23:15:07.43	81.82	31.71	-30.8	-32.2	13.2	2.89e-05	0	44	0	559939584	22	4207
2026-01-26 23:15:08.44	82.18	31.74	-31.3	-33.7	12.1	1.60e-04	0	44	0	562036736	22	4717
2026-01-26 23:15:09.44	82.54	31.78	-31.6	-33.8	11.6	6.55e-04	0	44	0	564133888	23	4687
2026-01-26 23:15:10.45	82.90	31.82	-31.5	-33.6	11.9	5.65e-04	0	44	0	565182464	23	4582
2026-01-26 23:15:11.45	83.25	31.85	-31.7	-34.2	11.5	6.93e-04	0	44	0	567279616	23	4805
2026-01-26 23:15:12.46	83.62	31.89	-31.6	-34.0	11.6	1.32e-03	0	44	0	569376768	23	4723
2026-01-26 23:15:13.46	83.97	31.92	-31.1	-32.5	12.6	3.21e-04	0	44	0	571473920	23	4210
2026-01-26 23:15:14.46	84.33	31.95	-30.7	-31.8	13.4	5.64e-05	0	44	0	572522496	22	4103
2026-01-26 23:15:15.46	84.69	31.98	-30.4	-31.0	13.9	6.80e-06	0	44	0	574619648	22	3868
2026-01-26 23:15:16.47	85.06	32.01	-30.3	-30.9	14.0	2.20e-06	0	44	0	576716800	22	3816
2026-01-26 23:15:17.48	85.42	32.04	-30.5	-31.4	13.7	3.80e-06	0	44	0	578813952	22	3963
2026-01-26 23:15:18.48	85.78	32.07	-30.6	-31.5	13.7	6.10e-06	0	44	0	580911104	22	3987
2026-01-26 23:15:19.49	86.15	32.09	-30.8	-32.1	13.3	1.06e-05	0	44	0	583008256	22	4172
2026-01-26 23:15:20.49	86.51	32.12	-30.8	-32.0	13.2	2.21e-05	0	44	0	584056832	22	4160
2026-01-26 23:15:21.49	86.88	32.14	-30.9	-32.3	13.1	4.27e-05	0	44	0	586153984	22	4238
2026-01-26 23:15:22.49	87.24	32.16	-30.9	-32.2	13.2	2.59e-05	0	44	0	588251136	22	4213
2026-01-26 23:15:23.49	87.61	32.18	-30.6	-31.5	13.6	1.29e-05	0	44	0	590348288	22	3994
2026-01-26 23:15:24.49	87.97	32.20	-30.5	-31.1	13.8	8.30e-06	0	44	0	591396864	22	3895
2026-01-26 23:15:25.50	88.34	32.22	-30.6	-31.5	13.6	6.10e-06	0	44	0	593494016	22	3989
2026-01-26 23:15:26.50	88.71	32.24	-30.5	-31.2	13.7	6.80e-06	0	44	0	595591168	22	3922
2026-01-26 23:15:27.51	89.08	32.25	-30.4	-31.1	13.8	6.80e-06	0	44	0	597688320	22	3891
2026-01-26 23:15:28.51	89.44	32.27	-30.5	-31.4	13.7	5.30e-06	0	44	0	599785472	22	3966
2026-01-26 23:15:29.51	89.81	32.28	-30.6	-31.4	13.6	4.50e-06	0	44	0	600834048	22	3985
2026-01-26 23:15:30.52	90.18	32.29	-30.6	-31.6	13.5	3.58e-05	0	44	0	602931200	22	4037
2026-01-26 23:15:31.52	90.55	32.30	-30.5	-31.2	13.7	5.79e-05	0	44	0	605028352	22	3906
2026-01-26 23:15:32.53	90.92	32.31	-30.5	-31.3	13.7	6.80e-06	0	44	0	607125504	22	3941
2026-01-26 23:15:33.54	91.29	32.32	-30.6	-31.7	13.5	5.87e-05	0	44	0	609222656	22	4060
2026-01-26 23:15:34.54	91.66	32.33	-30.8	-32.2	13.1	9.30e-05	0	44	0	610271232	22	4208
2026-01-26 23:15:35.54	92.03	32.33	-30.8	-32.1	13.1	3.66e-05	0	44	0	612368384	22	4182
2026-01-26 23:15:36.54	92.39	32.34	-30.7	-32.0	13.2	9.99e-05	0	44	0	614465536	22	4156
2026-01-26 23:15:37.55	92.77	32.34	-30.6	-31.6	13.5	1.10e-04	0	44	0	616562688	22	4047
2026-01-26 23:15:38.54	93.13	32.34	-30.6	-31.6	13.5	1.67e-05	0	44	0	618659840	22	4037
2026-01-26 23:15:39.54	93.50	32.34	-30.7	-32.4	13.3	2.28e-05	0	44	0	619708416	21	4382
2026-01-26 23:15:40.54	93.87	32.34	-30.8	-32.7	13.0	1.92e-04	0	44	0	621805568	21	4481
2026-01-26 23:15:41.54	94.24	32.34	-30.9	-32.5	12.9	4.65e-05	0	44	0	623902720	22	4301
2026-01-26 23:15:42.55	94.61	32.33	-30.7	-31.9	13.3	2.36e-05	0	44	0	625999872	22	4128
2026-01-26 23:15:43.54	94.97	32.33	-30.4	-31.1	13.8	5.30e-06	0	44	0	628097024	22	3889
2026-01-26 23:15:44.54	95.34	32.32	-30.2	-30.9	14.2	2.20e-06	0	44	0	629145600	21	3924
2026-01-26 23:15:45.54	95.71	32.31	-30.0	-30.4	14.5	7.00e-07	0	44	0	631242752	21	3785
2026-01-26 23:15:46.55	96.08	32.30	-30.0	-30.4	14.5	0.00e+00	0	44	0	633339904	21	3790
2026-01-26 23:15:47.55	96.45	32.29	-30.4	-31.4	13.9	3.80e-06	0	44	0	635437056	21	4077
2026-01-26 23:15:48.55	96.81	32.28	-30.9	-32.8	13.0	5.49e-05	0	44	0	636485632	21	4488
2026-01-26 23:15:49.55	97.18	32.27	-30.9	-32.9	13.0	4.11e-05	0	44	0	638582784	21	4531
2026-01-26 23:15:50.56	97.55	32.26	-30.9	-32.9	12.9	3.50e-05	0	44	0	640679936	21	4537
2026-01-26 23:15:51.55	97.91	32.24	-31.0	-33.0	12.8	2.89e-05	0	44	0	642777088	21	4574
2026-01-26 23:15:52.56	98.28	32.22	-31.1	-33.1	12.5	1.04e-04	0	44	0	644874240	22	4487
2026-01-26 23:15:53.56	98.65	32.21	-31.3	-33.6	12.2	2.26e-04	0	44	0	645922816	22	4679
2026-01-26 23:15:54.57	99.02	32.19	-31.2	-33.2	12.4	3.23e-04	0	44	0	648019968	22	4549
2026-01-26 23:15:55.56	99.38	32.17	-30.7	-31.9	13.2	8.01e-05	0	44	0	650117120	22	4113
2026-01-26 23:15:56.56	99.75	32.15	-30.5	-31.3	13.7	6.80e-06	0	44	0	652214272	22	3945
2026-01-26 23:15:57.57	100.11	32.12	-30.5	-31.3	13.7	4.50e-06	0	44	0	654311424	22	3957
2026-01-26 23:15:58.57	100.48	32.10	-30.9	-32.3	13.0	1.14e-05	0	44	0	655360000	22	4246
2026-01-26 23:15:59.58	100.84	32.07	-31.1	-33.1	12.5	1.06e-04	0	44	0	657457152	22	4509
2026-01-26 23:16:00.58	101.21	32.05	-31.3	-33.5	12.2	1.62e-04	0	44	0	659554304	22	4645
2026-01-26 23:16:01.58	101.57	32.02	-31.3	-33.5	12.2	2.72e-04	0	44	0	661651456	22	4635
2026-01-26 23:16:02.59	101.93	31.99	-31.0	-32.8	12.6	9.07e-05	0	44	0	663748608	22	4410
2026-01-26 23:16:03.59	102.29	31.96	-31.3	-33.5	12.2	9.68e-05	0	44	0	664797184	22	4635
2026-01-26 23:16:04.60	102.66	31.93	-31.3	-33.7	12.1	1.57e-04	0	44	0	666894336	22	4711
2026-01-26 23:16:05.60	103.01	31.90	-31.3	-33.7	12.0	3.55e-04	0	44	0	668991488	22	4704
2026-01-26 23:16:06.60	103.37	31.86	-31.1	-33.0	12.5	1.61e-04	0	44	0	671088640	22	4473
2026-01-26 23:16:07.60	103.73	31.83	-31.1	-32.9	12.6	6.10e-05	0	44	0	673185792	22	4445
2026-01-26 23:16:08.60	104.09	31.79	-31.0	-32.7	12.7	5.49e-05	0	44	0	674234368	22	4380
2026-01-26 23:16:09.60	104.44	31.75	-31.1	-33.0	12.5	1.46e-04	0	44	0	676331520	22	4487
2026-01-26 23:16:10.60	104.80	31.72	-31.6	-34.0	11.5	3.04e-04	0	44	0	678428672	23	4727
2026-01-26 23:16:11.60	105.15	31.68	-31.8	-34.6	11.0	1.50e-03	0	44	0	680525824	23	4985
2026-01-26 23:16:12.60	105.51	31.63	-31.6	-34.1	11.4	1.59e-03	0	44	0	681574400	23	4774
2026-01-26 23:16:13.60	105.86	31.59	-31.5	-33.8	11.6	9.53e-04	0	44	0	683671552	23	4655
2026-01-26 23:16:14.60	106.21	31.55	-31.5	-33.8	11.7	5.37e-04	0	44	0	685768704	23	4653
2026-01-26 23:16:15.61	106.57	31.51	-31.8	-34.5	11.1	1.13e-03	0	44	0	687865856	23	4935
2026-01-26 23:16:16.62	106.92	31.46	-31.9	-34.4	10.8	2.85e-03	0	44	0	689963008	24	4802
2026-01-26 23:16:17.62	107.27	31.41	-31.6	-33.5	11.4	1.74e-03	0	44	0	691011584	24	4485
2026-01-26 23:16:18.62	107.62	31.37	-31.2	-32.8	12.3	5.80e-04	0	44	0	693108736	23	4327
2026-01-26 23:16:19.63	107.97	31.32	-30.8	-31.7	13.0	1.32e-04	0	44	0	695205888	23	3985
2026-01-26 23:16:20.63	108.31	31.27	-30.6	-31.6	13.4	1.22e-05	0	44	0	697303040	22	4028
2026-01-26 23:16:21.63	108.66	31.22	-30.7	-31.8	13.2	1.37e-05	0	44	0	699400192	22	4110
2026-01-26 23:16:22.63	109.00	31.17	-30.7	-31.9	13.2	2.05e-05	0	44	0	700448768	22	4124
2026-01-26 23:16:23.64	109.35	31.11	-30.8	-32.2	13.0	3.28e-05	0	44	0	702545920	22	4217
2026-01-26 23:16:24.64	109.69	31.06	-30.9	-32.4	12.9	3.81e-05	0	44	0	704643072	22	4296
2026-01-26 23:16:25.64	110.03	31.01	-30.7	-32.0	13.1	6.25e-05	0	44	0	706740224	22	4158
2026-01-26 23:16:26.64	110.37	30.95	-30.3	-30.9	13.8	1.90e-05	0	44	0	708837376	22	3858
2026-01-26 23:16:27.65	110.71	30.89	-30.2	-31.0	14.0	3.00e-06	0	44	0	709885952	21	3969
2026-01-26 23:16:28.65	111.05	30.84	-30.3	-31.2	13.9	2.20e-06	0	44	0	711983104	21	4026
2026-01-26 23:16:29.65	111.39	30.78	-30.3	-31.4	13.8	3.80e-06	0	44	0	714080256	21	4081
2026-01-26 23:16:30.66	111.72	30.72	-30.6	-32.1	13.3	8.30e-06	0	44	0	716177408	21	4274
2026-01-26 23:16:31.66	112.06	30.66	-30.4	-31.6	13.7	2.13e-05	0	44	0	718274560	21	4142
2026-01-26 23:16:32.67	112.39	30.60	-30.3	-31.4	13.8	5.30e-06	0	44	0	719323136	21	4068
2026-01-26 23:16:33.67	112.72	30.53	-30.0	-30.6	14.3	4.50e-06	0	44	0	721420288	21	3860
2026-01-26 23:16:34.68	113.06	30.47	-30.3	-31.3	13.9	1.50e-06	0	44	0	723517440	21	4035
2026-01-26 23:16:35.68	113.39	30.41	-30.4	-31.7	13.6	4.50e-06	0	44	0	725614592	21	4180
2026-01-26 23:16:36.68	113.71	30.34	-30.7	-32.5	13.0	2.82e-05	0	44	0	727711744	21	4416
2026-01-26 23:16:37.68	114.04	30.28	-30.8	-32.8	12.8	5.95e-05	0	44	0	728760320	21	4523
2026-01-26 23:16:38.68	114.36	30.21	-30.6	-32.3	13.2	4.19e-05	0	44	0	730857472	21	4345
2026-01-26 23:16:39.68	114.69	30.14	-30.5	-31.9	13.4	1.98e-05	0	44	0	732954624	21	4243
2026-01-26 23:16:40.68	115.01	30.07	-30.5	-31.9	13.4	2.44e-05	0	44	0	735051776	21	4235
2026-01-26 23:16:41.69	115.33	30.00	-30.5	-32.0	13.4	1.98e-05	0	44	0	737148928	21	4276
2026-01-26 23:16:42.69	115.65	29.93	-30.6	-32.2	13.2	1.52e-05	0	44	0	738197504	21	4324
2026-01-26 23:16:43.70	115.97	29.86	-30.9	-33.0	12.7	5.41e-05	0	44	0	740294656	21	4608
2026-01-26 23:16:44.70	116.29	29.79	-31.0	-32.7	12.6	1.14e-04	0	44	0	742391808	22	4399
2026-01-26 23:16:45.70	116.61	29.72	-31.1	-33.2	12.3	1.40e-04	0	44	0	744488960	22	4555
2026-01-26 23:16:46.70	116.92	29.65	-30.8	-32.3	12.8	1.02e-04	0	44	0	745537536	22	4259
2026-01-26 23:16:47.70	117.23	29.57	-30.9	-32.4	12.8	6.40e-05	0	44	0	747634688	22	4303
2026-01-26 23:16:48.70	117.54	29.50	-30.8	-32.3	12.8	5.56e-05	0	44	0	749731840	22	4272
2026-01-26 23:16:49.71	117.86	29.42	-30.9	-32.4	12.6	6.10e-05	0	44	0	751828992	22	4316
2026-01-26 23:16:50.72	118.17	29.35	-31.0	-32.8	12.4	1.02e-04	0	44	0	753926144	22	4451
2026-01-26 23:16:51.72	118.48	29.27	-31.1	-33.1	12.2	2.12e-04	0	44	0	754974720	22	4549
2026-01-26 23:16:52.73	118.78	29.19	-31.2	-33.5	12.0	1.82e-04	0	44	0	757071872	22	4677
2026-01-26 23:16:53.74	119.09	29.11	-31.0	-32.8	12.5	4.92e-04	0	44	0	759169024	22	4432
2026-01-26 23:16:54.74	119.39	29.04	-30.7	-32.0	13.0	1.33e-04	0	44	0	761266176	22	4183
2026-01-26 23:16:55.74	119.69	28.96	-30.4	-31.2	13.5	3.20e-05	0	44	0	763363328	22	3940
2026-01-26 23:16:56.74	119.99	28.88	-30.5	-31.3	13.4	1.90e-05	0	44	0	764411904	22	3982
2026-01-26 23:16:57.75	120.29	28.80	-30.8	-32.2	12.9	3.50e-05	0	44	0	766509056	22	4233
2026-01-26 23:16:58.75	120.59	28.72	-31.2	-33.6	11.9	1.56e-04	0	44	0	768606208	22	4714
2026-01-26 23:16:59.75	120.89	28.64	-31.3	-33.6	11.9	4.08e-04	0	44	0	770703360	22	4722
2026-01-26 23:17:00.75	121.18	28.55	-31.3	-33.7	11.8	5.77e-04	0	44	0	772800512	22	4749
2026-01-26 23:17:01.75	121.47	28.47	-31.2	-33.5	12.0	3.02e-04	0	44	0	773849088	22	4658
2026-01-26 23:17:02.75	121.76	28.39	-31.1	-33.0	12.2	1.29e-04	0	44	0	775946240	22	4508
2026-01-26 23:17:03.76	122.06	28.30	-31.1	-33.3	12.1	2.01e-04	0	44	0	778043392	22	4602
2026-01-26 23:17:04.77	122.35	28.22	-30.9	-32.6	12.5	2.52e-04	0	44	0	780140544	22	4385
2026-01-26 23:17:05.77	122.63	28.13	-30.9	-32.6	12.6	1.06e-04	0	44	0	782237696	22	4385
2026-01-26 23:17:06.77	122.92	28.05	-30.9	-32.7	12.5	1.51e-04	0	44	0	783286272	22	4397
2026-01-26 23:17:07.78	123.20	27.96	-31.1	-33.0	12.3	1.27e-04	0	44	0	785383424	22	4518
2026-01-26 23:17:08.78	123.49	27.88	-31.0	-33.0	12.3	1.89e-04	0	44	0	787480576	22	4503
2026-01-26 23:17:09.78	123.77	27.79	-31.3	-33.8	11.8	1.56e-04	0	44	0	789577728	22	4775
2026-01-26 23:17:10.78	124.05	27.70	-31.7	-34.6	10.9	1.29e-03	0	44	0	791674880	23	4998
2026-01-26 23:17:11.79	124.33	27.62	-31.9	-35.2	10.4	3.95e-03	0	44	0	792723456	23	5259
2026-01-26 23:17:12.79	124.60	27.53	-32.0	-35.1	10.0	5.75e-03	0	44	0	794820608	24	5138
2026-01-26 23:17:13.79	124.88	27.44	-32.2	-35.7	9.5	1.48e-02	0	44	0	796917760	24	5375
2026-01-26 23:17:14.79	125.15	27.35	-31.9	-34.7	10.3	7.11e-03	0	44	0	799014912	24	4967
2026-01-26 23:17:15.79	125.42	27.26	-31.6	-33.7	11.1	2.40e-03	0	44	0	800063488	24	4584
2026-01-26 23:17:16.79	125.69	27.17	-31.5	-33.4	11.3	1.26e-03	0	44	0	802160640	24	4464
2026-01-26 23:17:17.79	125.96	27.08	-31.6	-33.8	11.0	1.31e-03	0	44	0	804257792	24	4599
2026-01-26 23:17:18.80	126.23	26.99	-31.8	-34.4	10.4	3.61e-03	0	44	0	806354944	24	4865
2026-01-26 23:17:19.80	126.49	26.90	-32.3	-36.3	9.1	7.79e-03	0	44	0	808452096	24	5681
2026-01-26 23:17:20.80	126.76	26.81	-32.5	-36.7	8.3	4.45e-02	0	44	0	809500672	25	5817
2026-01-26 23:17:21.81	127.02	26.72	-32.3	-35.9	8.9	3.02e-02	0	44	0	811597824	25	5432
2026-01-26 23:17:22.82	127.29	26.63	-32.3	-35.8	9.1	2.94e-02	0	44	0	813694976	25	5397
2026-01-26 23:17:23.82	127.55	26.53	-32.2	-35.4	9.4	2.69e-02	0	44	0	815792128	25	5196
2026-01-26 23:17:24.83	127.81	26.44	-32.2	-36.0	9.3	1.82e-02	0	44	0	817889280	24	5559
2026-01-26 23:17:25.83	128.06	26.35	-32.2	-35.6	9.5	1.83e-02	0	44	0	818937856	24	5379
2026-01-26 23:17:26.84	128.32	26.25	-32.2	-35.7	9.5	1.01e-02	0	44	0	821035008	24	5412
2026-01-26 23:17:27.84	128.58	26.16	-32.3	-36.1	9.2	1.86e-02	0	44	0	823132160	24	5613
2026-01-26 23:17:28.84	128.83	26.07	-32.2	-35.8	9.4	2.36e-02	0	44	0	825229312	24	5460
2026-01-26 23:17:29.84	129.08	25.98	-32.3	-36.1	9.2	2.31e-02	0	44	0	827326464	24	5623
2026-01-26 23:17:30.85	129.33	25.88	-31.9	-34.9	10.0	1.21e-02	0	44	0	828375040	24	5058
2026-01-26 23:17:31.85	129.58	25.79	-32.0	-35.1	9.8	8.21e-03	0	44	0	830472192	24	5170
2026-01-26 23:17:32.86	129.83	25.69	-32.3	-36.1	9.1	1.67e-02	0	44	0	832569344	24	5633
2026-01-26 23:17:33.86	130.07	25.60	-32.5	-36.8	8.2	3.19e-02	0	44	0	834666496	25	5870
2026-01-26 23:17:34.86	130.32	25.50	-32.8	-37.9	7.4	9.64e-02	0	44	0	836763648	25	6476
2026-01-26 23:17:35.86	130.56	25.41	-33.0	-38.5	6.6	1.78e-01	0	44	0	837812224	26	6743
2026-01-26 23:17:36.87	130.80	25.31	-32.7	-36.9	7.8	1.81e-01	0	44	0	839909376	26	5822
2026-01-26 23:17:37.87	131.04	25.22	-32.2	-35.4	9.3	3.58e-02	0	44	0	842006528	25	5197
2026-01-26 23:17:38.88	131.28	25.12	-31.6	-33.8	10.9	6.05e-03	0	44	0	844103680	24	4631
2026-01-26 23:17:39.88	131.52	25.03	-31.2	-32.9	11.7	1.19e-03	0	44	0	846200832	23	4416
2026-01-26 23:17:40.89	131.76	24.93	-31.2	-33.2	11.6	6.23e-04	0	44	0	847249408	23	4533
2026-01-26 23:17:41.89	131.99	24.83	-31.5	-34.1	11.0	1.31e-03	0	44	0	849346560	23	4837
2026-01-26 23:17:42.90	132.23	24.74	-31.6	-34.4	10.7	2.39e-03	0	44	0	851443712	23	4988
2026-01-26 23:17:43.90	132.46	24.64	-31.5	-34.2	10.8	2.58e-03	0	44	0	853540864	23	4903
2026-01-26 23:17:44.91	132.69	24.54	-31.0	-32.5	12.0	6.41e-04	0	44	0	855638016	23	4279
2026-01-26 23:17:45.91	132.92	24.45	-30.4	-31.4	13.2	6.86e-05	0	44	0	856686592	22	4025
2026-01-26 23:17:46.91	133.14	24.35	-30.3	-31.1	13.3	1.37e-05	0	44	0	858783744	22	3943
2026-01-26 23:17:47.92	133.37	24.25	-30.5	-31.5	13.1	2.67e-05	0	44	0	860880896	22	4040
2026-01-26 23:17:48.92	133.60	24.16	-30.6	-31.9	12.9	2.74e-05	0	44	0	862978048	22	4180
2026-01-26 23:17:49.92	133.82	24.06	-31.2	-33.5	11.7	1.81e-04	0	44	0	864026624	22	4699
2026-01-26 23:17:50.93	134.04	23.96	-31.3	-33.8	11.4	6.34e-04	0	44	0	866123776	22	4842
2026-01-26 23:17:51.93	134.26	23.86	-31.2	-33.8	11.5	1.22e-03	0	44	0	868220928	22	4843
2026-01-26 23:17:52.93	134.48	23.77	-30.9	-32.8	12.1	5.26e-04	0	44	0	870318080	22	4489
2026-01-26 23:17:53.94	134.70	23.67	-30.4	-32.1	12.9	1.40e-04	0	44	0	872415232	21	4359
2026-01-26 23:17:54.95	134.92	23.57	-30.4	-32.1	12.9	4.50e-05	0	44	0	873463808	21	4370
2026-01-26 23:17:55.95	135.13	23.47	-30.5	-32.2	12.8	8.08e-05	0	44	0	875560960	21	4407
2026-01-26 23:17:56.95	135.35	23.38	-30.9	-33.5	11.9	1.67e-04	0	44	0	877658112	21	4874
2026-01-26 23:17:57.96	135.56	23.28	-31.3	-34.2	11.1	9.60e-04	0	44	0	879755264	22	5027
2026-01-26 23:17:58.96	135.77	23.18	-31.6	-35.0	10.1	4.23e-03	0	44	0	881852416	23	5294
2026-01-26 23:17:59.97	135.99	23.08	-31.6	-34.7	10.3	7.73e-03	0	44	0	882900992	23	5184
2026-01-26 23:18:00.98	136.20	22.99	-31.6	-34.7	10.3	6.50e-03	0	44	0	884998144	23	5174
2026-01-26 23:18:01.98	136.40	22.89	-31.6	-34.8	10.2	4.84e-03	0	44	0	887095296	23	5214
2026-01-26 23:18:02.98	136.61	22.79	-31.0	-33.0	11.5	1.72e-03	0	44	0	889192448	23	4505
2026-01-26 23:18:03.98	136.81	22.69	-30.8	-32.4	11.9	4.64e-04	0	44	0	891289600	23	4307
2026-01-26 23:18:04.99	137.02	22.60	-30.7	-32.6	12.1	2.04e-04	0	44	0	892338176	22	4461
2026-01-26 23:18:05.99	137.22	22.50	-30.7	-32.6	11.9	2.52e-04	0	44	0	894435328	22	4484
2026-01-26 23:18:07.00	137.43	22.40	-30.5	-32.0	12.5	1.60e-04	0	44	0	896532480	22	4252
2026-01-26 23:18:08.00	137.62	22.30	-30.2	-31.4	13.0	4.11e-05	0	44	0	898629632	21	4169
2026-01-26 23:18:09.01	137.83	22.20	-29.8	-31.0	13.8	9.90e-06	0	44	0	900726784	20	4112
2026-01-26 23:18:10.01	138.02	22.11	-29.6	-30.4	14.2	0.00e+00	0	44	0	901775360	20	3952
2026-01-26 23:18:11.01	138.22	22.01	-29.3	-30.2	14.7	7.00e-07	0	44	0	903872512	19	3968
2026-01-26 23:18:12.02	138.42	21.91	-29.1	-29.4	15.1	0.00e+00	0	44	0	905969664	19	3768
2026-01-26 23:18:13.02	138.61	21.82	-29.1	-29.6	15.1	0.00e+00	0	44	0	908066816	19	3794
2026-01-26 23:18:14.03	138.80	21.72	-29.2	-29.9	14.9	0.00e+00	0	44	0	910163968	19	3876
2026-01-26 23:18:15.02	138.99	21.62	-29.7	-31.1	14.1	4.47e-04	0	44	0	911212544	19	4222
2026-01-26 23:18:16.03	139.19	21.52	-30.1	-31.6	13.5	5.30e-06	0	44	0	913309696	20	4279
2026-01-26 23:18:17.03	139.37	21.43	-30.4	-32.5	12.8	3.66e-05	0	44	0	915406848	20	4582
2026-01-26 23:18:18.03	139.56	21.33	-30.4	-32.2	12.6	1.53e-03	0	44	0	917504000	21	4403
2026-01-26 23:18:19.04	139.75	21.23	-30.5	-32.4	12.6	1.17e-04	0	44	0	919601152	21	4461
2026-01-26 23:18:20.05	139.94	21.13	-30.3	-32.3	12.9	6.63e-05	0	44	0	920649728	20	4539
2026-01-26 23:18:21.05	140.12	21.04	-30.1	-31.8	13.2	2.89e-05	0	44	0	922746880	20	4399
2026-01-26 23:18:22.05	140.31	20.94	-30.0	-31.5	13.4	1.98e-05	0	44	0	924844032	20	4289
2026-01-26 23:18:23.05	140.49	20.84	-29.9	-31.5	13.4	1.52e-05	0	44	0	926941184	20	4297
2026-01-26 23:18:24.05	140.67	20.75	-30.2	-32.3	12.8	3.66e-05	0	44	0	929038336	20	4564
2026-01-26 23:18:25.06	140.85	20.65	-30.2	-32.2	12.9	4.65e-05	0	44	0	930086912	20	4522
2026-01-26 23:18:26.06	141.03	20.56	-30.2	-32.3	12.8	6.69e-04	0	44	0	932184064	20	4574
2026-01-26 23:18:27.06	141.21	20.46	-30.4	-32.9	12.4	9.99e-05	0	44	0	934281216	20	4761
2026-01-26 23:18:28.06	141.38	20.36	-30.3	-32.4	12.8	1.08e-04	0	44	0	936378368	20	4585
2026-01-26 23:18:29.06	141.56	20.27	-30.2	-32.1	13.0	1.04e-03	0	44	0	937426944	20	4463
2026-01-26 23:18:30.06	141.74	20.17	-30.2	-32.2	12.9	2.28e-05	0	44	0	939524096	20	4493
2026-01-26 23:18:31.07	141.91	20.07	-30.2	-32.0	13.0	4.34e-05	0	44	0	941621248	20	4451
2026-01-26 23:18:32.07	142.08	19.98	-30.1	-31.8	13.1	1.56e-03	0	44	0	943718400	20	4381
2026-01-26 23:18:33.07	142.25	19.88	-30.4	-32.7	12.6	1.58e-03	0	44	0	945815552	20	4659
2026-01-26 23:18:34.07	142.43	19.79	-30.1	-31.6	13.2	4.42e-05	0	44	0	946864128	20	4314
2026-01-26 23:18:35.08	142.60	19.69	-29.8	-31.3	13.9	1.29e-05	0	44	0	948961280	19	4284
2026-01-26 23:18:36.08	142.76	19.60	-30.0	-31.5	13.3	1.51e-03	0	44	0	951058432	20	4275
2026-01-26 23:18:37.08	142.93	19.50	-30.2	-32.1	12.9	2.59e-05	0	44	0	953155584	20	4456
2026-01-26 23:18:38.08	143.10	19.41	-30.0	-31.5	13.3	2.74e-05	0	44	0	955252736	20	4260
2026-01-26 23:18:39.08	143.26	19.31	-30.1	-31.7	13.1	1.72e-03	0	44	0	956301312	20	4352
2026-01-26 23:18:40.08	143.43	19.22	-30.1	-31.9	13.1	3.05e-05	0	44	0	958398464	20	4394
2026-01-26 23:18:41.09	143.59	19.12	-30.3	-32.3	12.8	4.65e-05	0	44	0	960495616	20	4533
2026-01-26 23:18:42.09	143.76	19.03	-30.3	-32.5	12.6	2.02e-03	0	44	0	962592768	20	4614
2026-01-26 23:18:43.09	143.92	18.93	-30.2	-32.1	12.8	7.32e-05	0	44	0	964689920	20	4469
2026-01-26 23:18:44.10	144.08	18.84	-30.3	-32.3	12.7	2.03e-03	0	44	0	965738496	20	4557
2026-01-26 23:18:45.11	144.24	18.74	-30.1	-31.8	13.0	6.56e-05	0	44	0	967835648	20	4375
2026-01-26 23:18:46.11	144.40	18.65	-29.6	-30.4	13.9	6.80e-06	0	44	0	969932800	20	3965
2026-01-26 23:18:47.12	144.56	18.56	-29.3	-30.3	14.3	1.87e-03	0	44	0	972029952	19	4014
2026-01-26 23:18:48.12	144.71	18.46	-29.2	-30.6	14.5	1.97e-03	0	44	0	974127104	18	4187
2026-01-26 23:18:49.12	144.87	18.37	-29.1	-30.1	14.8	0.00e+00	0	44	0	975175680	18	4066
2026-01-26 23:18:50.12	145.03	18.28	-29.1	-30.2	14.7	1.90e-03	0	44	0	977272832	18	4075
2026-01-26 23:18:51.13	145.18	18.18	-29.0	-30.0	14.8	1.76e-03	0	44	0	979369984	18	4031
2026-01-26 23:18:52.13	145.33	18.09	-29.2	-30.5	14.5	0.00e+00	0	44	0	981467136	18	4163
2026-01-26 23:18:53.13	145.49	18.00	-29.4	-31.0	14.1	1.83e-03	0	44	0	983564288	18	4325
2026-01-26 23:18:54.13	145.64	17.90	-29.2	-30.6	14.4	1.79e-03	0	44	0	984612864	18	4203
2026-01-26 23:18:55.13	145.79	17.81	-29.4	-31.0	14.2	1.50e-06	0	44	0	986710016	18	4316
2026-01-26 23:18:56.13	145.94	17.72	-29.4	-30.9	14.3	1.97e-03	0	44	0	988807168	18	4296
2026-01-26 23:18:57.13	146.08	17.63	-29.5	-30.6	14.1	2.27e-03	0	44	0	990904320	19	4101
2026-01-26 23:18:58.13	146.23	17.54	-29.5	-30.8	14.0	5.30e-06	0	44	0	991952896	19	4154
2026-01-26 23:18:59.13	146.38	17.44	-29.6	-30.9	13.9	6.10e-06	0	44	0	994050048	19	4179
2026-01-26 23:19:00.14	146.53	17.35	-29.9	-31.8	13.3	2.22e-03	0	44	0	996147200	19	4485
2026-01-26 23:19:01.14	146.67	17.26	-29.9	-31.7	13.4	5.56e-05	0	44	0	998244352	19	4433
2026-01-26 23:19:02.14	146.82	17.17	-30.0	-31.5	13.0	2.05e-05	0	44	0	1000341504	20	4310
2026-01-26 23:19:03.14	146.96	17.08	-30.1	-31.8	12.9	2.06e-03	0	44	0	1001390080	20	4411
2026-01-26 23:19:04.14	147.10	16.99	-30.1	-31.8	12.9	1.38e-04	0	44	0	1003487232	20	4386
2026-01-26 23:19:05.14	147.24	16.90	-30.3	-32.6	12.3	2.09e-03	0	44	0	1005584384	20	4663
2026-01-26 23:19:06.14	147.38	16.81	-30.4	-32.9	12.1	2.26e-04	0	44	0	1007681536	20	4786
2026-01-26 23:19:07.15	147.53	16.71	-30.4	-32.9	12.1	4.16e-04	0	44	0	1009778688	20	4801
2026-01-26 23:19:08.15	147.66	16.62	-30.5	-32.8	11.8	2.86e-03	0	44	0	1010827264	21	4667
2026-01-26 23:19:09.15	147.80	16.53	-30.6	-32.9	11.7	7.70e-04	0	44	0	1012924416	21	4713
2026-01-26 23:19:10.16	147.94	16.44	-30.5	-32.6	11.9	3.29e-04	0	44	0	1015021568	21	4590
2026-01-26 23:19:11.16	148.08	16.35	-30.5	-32.8	11.8	2.97e-03	0	44	0	1017118720	21	4691
2026-01-26 23:19:12.16	148.21	16.26	-30.5	-32.6	11.9	2.87e-03	0	44	0	1019215872	21	4607
2026-01-26 23:19:13.17	148.35	16.17	-30.4	-32.5	11.9	3.54e-04	0	44	0	1020264448	21	4557
2026-01-26 23:19:14.17	148.49	16.08	-30.4	-32.8	12.0	2.56e-03	0	44	0	1022361600	20	4783
2026-01-26 23:19:15.17	148.62	16.00	-30.1	-32.1	12.5	2.76e-03	0	44	0	1024458752	20	4514
2026-01-26 23:19:16.17	148.75	15.91	-30.2	-32.3	12.3	1.47e-04	0	44	0	1026555904	20	4605
2026-01-26 23:19:17.18	148.89	15.82	-30.3	-32.6	12.1	2.30e-04	0	44	0	1027604480	20	4685
2026-01-26 23:19:18.18	149.02	15.73	-30.1	-32.1	12.5	2.44e-03	0	44	0	1029701632	20	4502
2026-01-26 23:19:19.19	149.15	15.64	-30.0	-31.9	12.6	9.91e-05	0	44	0	1031798784	20	4443
2026-01-26 23:19:20.19	149.28	15.55	-30.1	-32.0	12.6	9.84e-05	0	44	0	1033895936	20	4474
2026-01-26 23:19:21.19	149.41	15.46	-30.4	-32.8	12.0	2.68e-04	0	44	0	1035993088	20	4758
2026-01-26 23:19:22.20	149.54	15.38	-30.5	-32.7	11.7	4.94e-04	0	44	0	1038090240	21	4638
2026-01-26 23:19:23.20	149.67	15.29	-30.5	-32.6	11.8	4.11e-04	0	44	0	1039138816	21	4626
2026-01-26 23:19:24.21	149.79	15.20	-30.6	-33.0	11.5	1.09e-03	0	44	0	1041235968	21	4773
2026-01-26 23:19:25.21	149.92	15.11	-30.6	-33.0	11.4	1.22e-03	0	44	0	1043333120	21	4775
2026-01-26 23:19:26.21	150.05	15.03	-30.6	-33.1	11.4	8.42e-04	0	44	0	1045430272	21	4799
2026-01-26 23:19:27.21	150.17	14.94	-30.6	-33.2	11.3	1.09e-03	0	44	0	1046478848	21	4862
2026-01-26 23:19:28.21	150.29	14.85	-30.4	-32.5	11.8	7.27e-04	0	44	0	1048576000	21	4592
2026-01-26 23:19:29.21	150.42	14.77	-30.3	-32.7	11.9	2.87e-03	0	44	0	1050673152	20	4785
2026-01-26 23:19:30.21	150.54	14.68	-30.2	-32.5	12.1	3.23e-04	0	44	0	1052770304	20	4674
2026-01-26 23:19:31.21	150.66	14.59	-30.2	-32.6	12.0	2.72e-04	0	44	0	1054867456	20	4721
2026-01-26 23:19:32.22	150.79	14.51	-30.4	-33.0	11.7	4.20e-04	0	44	0	1055916032	20	4848
2026-01-26 23:19:33.22	150.91	14.42	-30.1	-32.2	12.2	2.02e-04	0	44	0	1058013184	20	4591
2026-01-26 23:19:34.23	151.03	14.34	-30.1	-32.2	12.2	2.13e-04	0	44	0	1060110336	20	4595
2026-01-26 23:19:35.24	151.15	14.25	-30.0	-32.0	12.4	1.72e-04	0	44	0	1062207488	20	4504
2026-01-26 23:19:36.23	151.27	14.17	-30.0	-31.9	12.5	1.63e-04	0	44	0	1064304640	20	4475
2026-01-26 23:19:37.23	151.38	14.08	-30.1	-32.2	12.3	2.04e-04	0	44	0	1065353216	20	4584
2026-01-26 23:19:38.24	151.50	13.99	-30.1	-32.2	12.3	2.15e-04	0	44	0	1067450368	20	4604
2026-01-26 23:19:39.24	151.62	13.91	-30.2	-32.6	11.9	3.61e-04	0	44	0	1069547520	20	4755
2026-01-26 23:19:40.25	151.74	13.83	-30.3	-33.0	11.5	5.41e-04	0	44	0	1071644672	20	4938
2026-01-26 23:19:41.26	151.85	13.74	-30.5	-33.1	11.1	1.23e-03	0	44	0	1073741824	21	4871
2026-01-26 23:19:42.26	151.97	13.66	-30.3	-33.1	11.5	9.15e-04	0	44	0	1074790400	20	4958
2026-01-26 23:19:43.26	152.08	13.57	-30.1	-32.6	11.8	5.41e-04	0	44	0	1076887552	20	4784
2026-01-26 23:19:44.27	152.20	13.49	-30.0	-32.1	12.2	3.52e-04	0	44	0	1078984704	20	4613
2026-01-26 23:19:45.27	152.31	13.40	-29.9	-32.0	12.3	2.23e-04	0	44	0	1081081856	20	4572
2026-01-26 23:19:46.28	152.42	13.32	-29.9	-31.9	12.4	1.59e-04	0	44	0	1083179008	20	4503
2026-01-26 23:19:47.28	152.54	13.24	-30.0	-32.0	12.3	1.20e-04	0	44	0	1084227584	20	4535
2026-01-26 23:19:48.28	152.65	13.15	-29.1	-31.4	12.1	2.82e-04	0	44	0	1086324736	20	4661
2026-01-26 23:19:49.28	152.76	13.07	-30.0	-32.5	11.5	1.81e-04	0	44	0	1088421888	19	4783
2026-01-26 23:19:50.29	152.87	12.99	-30.0	-32.5	11.2	1.56e-04	0	44	0	1090519040	19	4786
2026-01-26 23:19:51.29	152.98	12.91	-30.0	-32.3	12.3	1.35e-04	0	44	0	1092616192	19	4743
2026-01-26 23:19:52.30	153.09	12.82	-29.9	-32.1	12.5	1.12e-04	0	44	0	1093664768	19	4641
2026-01-26 23:19:53.30	153.20	12.74	-30.0	-32.4	12.2	1.39e-04	0	44	0	1095761920	19	4771
2026-01-26 23:19:54.31	153.30	12.66	-30.0	-32.0	12.3	1.76e-04	0	44	0	1097859072	20	4534
2026-01-26 23:19:55.31	153.41	12.58	-30.0	-32.0	12.3	1.58e-04	0	44	0	1099956224	20	4557
2026-01-26 23:19:56.31	153.52	12.50	-30.1	-32.4	12.0	2.88e-04	0	44	0	1101004800	20	4672
2026-01-26 23:19:57.31	153.62	12.42	-30.2	-32.6	11.9	3.77e-04	0	44	0	1103101952	20	4743
2026-01-26 23:19:58.31	153.73	12.33	-30.2	-32.6	11.8	3.44e-04	0	44	0	1105199104	20	4749
2026-01-26 23:19:59.31	153.83	12.25	-30.2	-32.7	11.8	3.62e-04	0	44	0	1107296256	20	4780
2026-01-26 23:20:00.30	153.94	12.17	-30.2	-32.6	11.9	7.91e-04	0	44	0	1109393408	20	4756
2026-01-26 23:20:01.31	154.04	12.09	-30.3	-32.7	11.8	5.42e-04	0	44	0	1110441984	20	4796
2026-01-26 23:20:02.31	154.15	12.01	-30.3	-33.0	11.6	5.95e-04	0	44	0	1112539136	20	4892
2026-01-26 23:20:03.32	154.25	11.93	-30.3	-33.1	11.4	6.19e-04	0	44	0	1114636288	20	4958
2026-01-26 23:20:04.32	154.35	11.85	-30.4	-33.4	11.3	1.04e-03	0	44	0	1116733440	20	5068
2026-01-26 23:20:05.32	154.45	11.77	-30.3	-33.0	11.5	8.35e-04	0	44	0	1118830592	20	4917
2026-01-26 23:20:06.33	154.55	11.69	-30.2	-32.7	11.7	5.06e-04	0	44	0	1119879168	20	4827
2026-01-26 23:20:07.33	154.65	11.61	-30.1	-32.6	11.7	2.86e-03	0	44	0	1121976320	20	4787
2026-01-26 23:20:08.34	154.76	11.53	-30.1	-32.4	11.9	5.26e-04	0	44	0	1124073472	20	4715
2026-01-26 23:20:09.34	154.86	11.45	-30.1	-32.4	11.9	4.49e-04	0	44	0	1126170624	20	4699
2026-01-26 23:20:10.34	154.95	11.37	-30.1	-32.4	11.9	2.94e-03	0	44	0	1128267776	20	4707
2026-01-26 23:20:11.35	155.05	11.29	-30.3	-33.0	11.5	2.92e-03	0	44	0	1129316352	20	4903
2026-01-26 23:20:12.35	155.15	11.22	-30.3	-33.1	11.5	7.67e-04	0	44	0	1131413504	20	4943
2026-01-26 23:20:13.35	155.25	11.14	-30.3	-32.8	11.7	6.55e-04	0	44	0	1133510656	20	4823
2026-01-26 23:20:14.36	155.35	11.06	-30.2	-32.5	11.9	2.74e-03	0	44	0	1135607808	20	4704
2026-01-26 23:20:15.36	155.44	10.98	-30.1	-32.3	12.1	2.86e-04	0	44	0	1137704960	20	4640
2026-01-26 23:20:16.36	155.54	10.90	-30.1	-32.3	12.1	3.52e-04	0	44	0	1138753536	20	4626
2026-01-26 23:20:17.36	155.63	10.83	-30.2	-32.5	12.0	2.76e-03	0	44	0	1140850688	20	4691
2026-01-26 23:20:18.37	155.73	10.75	-30.2	-32.5	11.9	6.05e-04	0	44	0	1142947840	20	4726
2026-01-26 23:20:19.37	155.83	10.67	-30.1	-32.3	12.0	3.29e-04	0	44	0	1145044992	20	4669
2026-01-26 23:20:20.37	155.92	10.59	-30.0	-32.2	12.1	3.01e-04	0	44	0	1146093568	20	4643
2026-01-26 23:20:21.38	156.01	10.52	-30.0	-32.3	12.0	5.65e-04	0	44	0	1148190720	20	4680
2026-01-26 23:20:22.38	156.11	10.44	-30.1	-32.6	11.8	2.41e-03	0	44	0	1150287872	20	4774
2026-01-26 23:20:23.39	156.20	10.36	-30.2	-32.7	11.6	4.73e-04	0	44	0	1152385024	20	4835
2026-01-26 23:20:24.39	156.29	10.29	-30.1	-32.5	11.8	8.39e-04	0	44	0	1154482176	20	4746
2026-01-26 23:20:25.40	156.38	10.21	-30.0	-32.3	11.9	2.59e-03	0	44	0	1156579328	20	4666
2026-01-26 23:20:26.40	156.48	10.13	-30.0	-32.3	11.9	3.31e-04	0	44	0	1157627904	20	4708
2026-01-26 23:20:27.40	156.57	10.06	-30.1	-32.5	11.8	5.26e-04	0	44	0	1159725056	20	4748
2026-01-26 23:20:28.40	156.66	9.98	-30.1	-32.5	11.8	3.02e-03	0	44	0	1161822208	20	4741
2026-01-26 23:20:29.40	156.75	9.91	-30.0	-32.3	11.9	2.68e-03	0	44	0	1163919360	20	4661
2026-01-26 23:20:30.41	156.84	9.83	-30.2	-32.6	11.7	3.86e-04	0	44	0	1164967936	20	4785
2026-01-26 23:20:31.42	156.93	9.75	-30.0	-32.1	12.1	2.65e-03	0	44	0	1167065088	20	4568
2026-01-26 23:20:32.42	157.02	9.68	-30.0	-32.0	12.2	2.38e-03	0	44	0	1169162240	20	4518
2026-01-26 23:20:33.42	157.10	9.60	-29.9	-31.7	12.4	2.59e-04	0	44	0	1171259392	20	4431
2026-01-26 23:20:34.43	157.19	9.53	-30.0	-32.0	12.2	2.22e-03	0	44	0	1173356544	20	4516
2026-01-26 23:20:35.43	157.28	9.45	-30.0	-32.0	12.1	2.62e-03	0	44	0	1174405120	20	4549
2026-01-26 23:20:36.43	157.37	9.38	-30.1	-32.3	11.9	4.86e-04	0	44	0	1176502272	20	4666
2026-01-26 23:20:37.43	157.45	9.31	-29.9	-31.9	12.2	2.71e-03	0	44	0	1178599424	20	4515
2026-01-26 23:20:38.44	157.54	9.23	-29.9	-32.3	12.3	2.41e-03	0	44	0	1180696576	19	4732
2026-01-26 23:20:39.44	157.63	9.16	-29.9	-32.3	12.3	2.50e-04	0	44	0	1182793728	19	4751
2026-01-26 23:20:40.45	157.71	9.08	-29.9	-32.4	12.2	2.50e-03	0	44	0	1183842304	19	4778
2026-01-26 23:20:41.45	157.80	9.01	-29.9	-31.9	12.2	2.30e-03	0	44	0	1185939456	20	4535
2026-01-26 23:20:42.46	157.88	8.94	-30.0	-32.2	12.0	2.35e-04	0	44	0	1188036608	20	4606
2026-01-26 23:20:43.47	157.97	8.86	-30.1	-32.2	12.0	2.35e-03	0	44	0	1190133760	20	4614
2026-01-26 23:20:44.48	158.05	8.79	-30.0	-32.0	12.2	2.65e-03	0	44	0	1192230912	20	4535
2026-01-26 23:20:45.48	158.13	8.72	-30.0	-32.1	12.1	3.00e-04	0	44	0	1193279488	20	4560
2026-01-26 23:20:46.48	158.22	8.64	-30.1	-32.3	11.9	2.75e-03	0	44	0	1195376640	20	4627
2026-01-26 23:20:47.48	158.30	8.57	-30.2	-32.5	11.8	3.53e-04	0	44	0	1197473792	20	4694
2026-01-26 23:20:48.48	158.38	8.50	-30.1	-32.4	11.9	4.36e-04	0	44	0	1199570944	20	4665
2026-01-26 23:20:49.48	158.46	8.43	-30.2	-32.6	11.7	2.86e-03	0	44	0	1201668096	20	4761
2026-01-26 23:20:50.49	158.54	8.35	-30.2	-32.5	11.8	5.24e-04	0	44	0	1202716672	20	4703
2026-01-26 23:20:51.49	158.62	8.28	-30.2	-32.6	11.7	4.24e-04	0	44	0	1204813824	20	4750
2026-01-26 23:20:52.50	158.71	8.21	-30.2	-32.8	11.6	2.76e-03	0	44	0	1206910976	20	4807
2026-01-26 23:20:53.50	158.79	8.14	-30.1	-32.4	11.9	3.05e-03	0	44	0	1209008128	20	4670
2026-01-26 23:20:54.50	158.87	8.07	-30.3	-32.9	11.4	9.58e-04	0	44	0	1211105280	20	4876
2026-01-26 23:20:55.51	158.95	7.99	-30.4	-32.7	11.2	4.03e-03	0	44	0	1212153856	21	4711
2026-01-26 23:20:56.51	159.02	7.92	-30.2	-32.8	11.5	3.39e-03	0	44	0	1214251008	20	4805
2026-01-26 23:20:57.52	159.10	7.85	-30.3	-32.8	11.5	1.05e-03	0	44	0	1216348160	20	4837
2026-01-26 23:20:58.52	159.18	7.78	-30.4	-33.2	11.2	1.25e-03	0	44	0	1218445312	20	4970
2026-01-26 23:20:59.52	159.26	7.71	-30.4	-33.4	11.0	3.59e-03	0	44	0	1219493888	20	5087
2026-01-26 23:21:00.52	159.34	7.64	-30.4	-33.3	11.1	1.67e-03	0	44	0	1221591040	20	5033
2026-01-26 23:21:01.52	159.41	7.57	-30.3	-33.3	11.1	1.83e-03	0	44	0	1223688192	20	5044
2026-01-26 23:21:02.52	159.49	7.50	-30.5	-33.4	10.6	2.64e-03	0	44	0	1225785344	21	5017
2026-01-26 23:21:03.52	159.57	7.43	-30.7	-33.9	10.2	4.14e-03	0	44	0	1227882496	21	5210
2026-01-26 23:21:04.52	159.64	7.36	-30.5	-33.3	10.6	3.41e-03	0	44	0	1228931072	21	4992
2026-01-26 23:21:05.53	159.72	7.29	-30.7	-34.2	9.9	7.65e-03	0	44	0	1231028224	21	5389
2026-01-26 23:21:06.53	159.79	7.22	-30.7	-34.4	9.7	1.09e-02	0	44	0	1233125376	21	5485
2026-01-26 23:21:07.54	159.87	7.15	-30.8	-34.9	9.3	1.32e-02	0	44	0	1235222528	21	5730
2026-01-26 23:21:08.54	159.95	7.08	-32.6	-45.1	3.8	5.14e-01	0	44	104	1236271104	25	15228
2026-01-26 23:21:09.54	160.02	7.01	-32.6	-45.4	3.8	1.49e+00	0	44	104	1236271104	25	15712
2026-01-26 23:21:10.54	160.09	6.94	-33.2	-45.6	3.8	1.49e+00	0	44	104	1236271104	27	15101

#Closed at: 2026-01-26 23:21:11
#Recorded file [1236 MB]: D:/data/31010_260127_021008.dat