passes_logs/2026/01/26/R2M6_AANII_01/R2M6_AANII_01__20260126_233032_NOAA_20_JPSS-1_rec.log

#Pass ID: 20260126_233032_NOAA 20 (JPSS-1)
#Satellite: NOAA 20 (JPSS-1)
#Configuration: NOAA 20
#almurnet v.1.7.20240730
#Start time: 2026-01-26 23:30:34

#Version: 2.2.20231116
#Station: R2M6_AANII_01
#Location: 30.233357 lon 59.946436 lat
#TLE: 1 43013U 17073A   26026.46665230  .00000148  00000+0  91302-4 0  9998
#TLE: 2 43013  98.7646 327.2856 0001008  22.9532 337.1688 14.19540616424360

#Time	Az	El	Level	Level2	SNR	BER	BlckErr	Temp	State	Recorded	gain1	gain2
2026-01-26 23:30:34.60	23.31	7.15	-31.4	-37.7	5.1	1.25e+00	0	41	0	0	22	7427
2026-01-26 23:30:35.60	23.36	7.22	-31.6	-38.4	4.9	1.29e+00	0	41	104	0	23	7813
2026-01-26 23:30:36.60	23.41	7.30	-31.7	-38.6	7.1	1.19e-01	0	41	0	0	23	7969
2026-01-26 23:30:37.60	23.47	7.37	-31.8	-38.9	6.9	1.90e-01	0	41	0	1048576	23	8187
2026-01-26 23:30:38.61	23.52	7.45	-31.8	-38.9	6.9	1.48e-01	0	41	0	3145728	23	8192
2026-01-26 23:30:39.61	23.57	7.52	-31.9	-39.5	6.5	1.93e-01	0	41	0	5242880	23	8634
2026-01-26 23:30:40.61	23.62	7.60	-31.9	-39.6	6.4	2.65e-01	0	42	0	7340032	23	8743
2026-01-26 23:30:41.62	23.68	7.67	-31.7	-38.8	7.0	1.86e-01	0	41	0	9437184	23	8090
2026-01-26 23:30:42.62	23.73	7.75	-31.6	-38.2	7.4	1.34e-01	0	42	0	10485760	23	7670
2026-01-26 23:30:43.63	23.78	7.82	-31.5	-37.8	7.7	1.02e-01	0	42	0	12582912	23	7375
2026-01-26 23:30:44.63	23.84	7.90	-31.5	-37.4	8.0	7.05e-02	0	42	0	14680064	23	7148
2026-01-26 23:30:45.63	23.89	7.97	-31.4	-37.8	8.2	6.18e-02	0	42	0	16777216	22	7475
2026-01-26 23:30:46.63	23.94	8.05	-31.4	-37.6	8.3	5.44e-02	0	42	0	17825792	22	7365
2026-01-26 23:30:47.63	24.00	8.12	-31.5	-37.6	8.0	6.10e-02	0	42	0	19922944	23	7252
2026-01-26 23:30:48.64	24.05	8.20	-31.5	-37.7	7.8	1.05e-01	0	42	0	22020096	23	7310
2026-01-26 23:30:49.64	24.11	8.28	-31.3	-37.3	8.6	5.57e-02	0	42	0	24117248	22	7142
2026-01-26 23:30:50.63	24.16	8.35	-31.1	-36.4	9.3	2.74e-02	0	42	0	26214400	22	6597
2026-01-26 23:30:51.62	24.21	8.43	-30.9	-36.0	9.9	1.15e-02	0	42	0	27262976	21	6504
2026-01-26 23:30:52.63	24.27	8.51	-30.7	-35.4	10.4	6.79e-03	0	42	0	29360128	21	6181
2026-01-26 23:30:53.62	24.33	8.58	-30.6	-34.9	10.8	3.34e-03	0	42	0	31457280	21	5908
2026-01-26 23:30:54.63	24.38	8.66	-30.5	-34.8	10.9	2.53e-03	0	42	0	33554432	21	5871
2026-01-26 23:30:55.63	24.44	8.74	-30.5	-34.7	11.0	3.70e-03	0	42	0	35651584	21	5828
2026-01-26 23:30:56.64	24.50	8.82	-30.6	-34.8	10.9	2.00e-03	0	42	0	36700160	21	5890
2026-01-26 23:30:57.65	24.55	8.89	-30.6	-34.9	10.9	4.02e-03	0	42	0	38797312	21	5910
2026-01-26 23:30:58.65	24.61	8.97	-30.5	-34.5	11.2	3.57e-03	0	42	0	40894464	21	5733
2026-01-26 23:30:59.66	24.67	9.05	-30.4	-34.3	11.3	1.37e-03	0	42	0	42991616	21	5645
2026-01-26 23:31:00.64	24.72	9.13	-30.4	-34.7	11.4	2.27e-03	0	42	0	45088768	20	5944
2026-01-26 23:31:01.64	24.78	9.21	-30.4	-34.7	11.4	1.49e-03	0	42	0	46137344	20	5938
2026-01-26 23:31:02.65	24.84	9.29	-30.4	-34.8	11.3	1.17e-03	0	42	0	48234496	20	5989
2026-01-26 23:31:03.65	24.90	9.37	-30.4	-35.0	11.2	2.35e-03	0	42	0	50331648	20	6057
2026-01-26 23:31:04.66	24.96	9.45	-30.4	-34.8	11.3	1.67e-03	0	42	0	52428800	20	5977
2026-01-26 23:31:05.66	25.02	9.53	-30.3	-34.4	11.6	8.23e-04	0	42	0	54525952	20	5810
2026-01-26 23:31:06.67	25.08	9.61	-30.2	-34.2	11.8	1.58e-03	0	42	0	55574528	20	5681
2026-01-26 23:31:07.67	25.14	9.69	-30.2	-34.0	11.9	1.03e-03	0	42	0	57671680	20	5621
2026-01-26 23:31:08.67	25.20	9.77	-30.2	-34.2	11.8	4.34e-04	0	42	0	59768832	20	5681
2026-01-26 23:31:09.67	25.26	9.85	-30.2	-34.1	11.9	1.34e-03	0	42	0	61865984	20	5627
2026-01-26 23:31:10.68	25.32	9.93	-30.2	-34.2	11.9	1.24e-03	0	42	0	62914560	20	5674
2026-01-26 23:31:11.69	25.38	10.01	-30.1	-33.9	12.0	3.18e-04	0	42	0	65011712	20	5556
2026-01-26 23:31:12.69	25.44	10.09	-30.0	-33.6	12.2	6.89e-04	0	42	0	67108864	20	5431
2026-01-26 23:31:13.70	25.50	10.18	-30.0	-33.4	12.4	9.90e-04	0	42	0	69206016	20	5361
2026-01-26 23:31:14.70	25.56	10.26	-29.9	-33.3	12.4	1.28e-04	0	42	0	71303168	20	5315
2026-01-26 23:31:15.71	25.63	10.34	-29.9	-33.3	12.5	6.75e-04	0	42	0	73400320	20	5310
2026-01-26 23:31:16.71	25.69	10.42	-30.0	-33.4	12.4	8.80e-04	0	43	0	74448896	20	5336
2026-01-26 23:31:17.72	25.75	10.51	-29.9	-33.3	12.5	1.40e-04	0	42	0	76546048	20	5283
2026-01-26 23:31:18.72	25.82	10.59	-30.0	-33.4	12.4	8.49e-04	0	42	0	78643200	20	5350
2026-01-26 23:31:19.73	25.88	10.68	-30.0	-33.5	12.4	9.67e-04	0	42	0	80740352	20	5363
2026-01-26 23:31:20.73	25.94	10.76	-30.0	-33.4	12.4	1.32e-04	0	42	0	81788928	20	5346
2026-01-26 23:31:21.73	26.01	10.84	-30.0	-33.5	12.3	1.37e-04	0	43	0	83886080	20	5370
2026-01-26 23:31:22.73	26.07	10.93	-29.9	-33.3	12.5	1.03e-03	0	42	0	85983232	20	5304
2026-01-26 23:31:23.73	26.14	11.01	-29.9	-33.2	12.6	1.06e-04	0	43	0	88080384	20	5246
2026-01-26 23:31:24.73	26.20	11.09	-30.0	-33.3	12.5	1.04e-03	0	43	0	90177536	20	5301
2026-01-26 23:31:25.73	26.27	11.18	-30.0	-33.6	12.3	9.15e-04	0	43	0	91226112	20	5399
2026-01-26 23:31:26.74	26.33	11.27	-30.0	-33.3	12.5	1.38e-04	0	43	0	93323264	20	5308
2026-01-26 23:31:27.74	26.40	11.35	-29.9	-33.1	12.7	1.22e-03	0	43	0	95420416	20	5217
2026-01-26 23:31:28.74	26.47	11.44	-29.9	-33.5	12.8	5.34e-05	0	43	0	97517568	19	5471
2026-01-26 23:31:29.74	26.53	11.52	-29.9	-33.5	12.8	4.19e-05	0	43	0	99614720	19	5464
2026-01-26 23:31:30.75	26.60	11.61	-29.9	-33.6	12.8	1.37e-03	0	43	0	100663296	19	5506
2026-01-26 23:31:31.76	26.67	11.70	-29.9	-33.5	12.8	5.95e-05	0	43	0	102760448	19	5468
2026-01-26 23:31:32.76	26.74	11.78	-29.9	-33.6	12.8	6.40e-05	0	43	0	104857600	19	5508
2026-01-26 23:31:33.77	26.81	11.87	-29.9	-33.5	12.8	1.32e-03	0	43	0	106954752	19	5473
2026-01-26 23:31:34.78	26.88	11.96	-29.9	-33.5	12.9	1.39e-03	0	43	0	109051904	19	5453
2026-01-26 23:31:35.78	26.95	12.05	-30.0	-33.8	12.7	5.87e-05	0	43	0	110100480	19	5579
2026-01-26 23:31:36.79	27.02	12.14	-30.0	-33.3	12.5	1.45e-03	0	43	0	112197632	20	5309
2026-01-26 23:31:37.78	27.09	12.22	-30.1	-33.6	12.4	1.45e-03	0	43	0	114294784	20	5402
2026-01-26 23:31:38.78	27.16	12.31	-30.1	-33.5	12.4	1.40e-04	0	43	0	116391936	20	5383
2026-01-26 23:31:39.79	27.23	12.40	-30.1	-33.7	12.3	1.33e-04	0	43	0	118489088	20	5464
2026-01-26 23:31:40.80	27.30	12.49	-30.0	-33.4	12.6	1.51e-03	0	43	0	119537664	20	5303
2026-01-26 23:31:41.80	27.37	12.58	-29.9	-33.2	12.7	8.92e-05	0	43	0	121634816	20	5243
2026-01-26 23:31:42.80	27.44	12.67	-29.9	-33.1	12.7	8.23e-05	0	43	0	123731968	20	5209
2026-01-26 23:31:43.81	27.52	12.76	-29.9	-33.6	12.8	6.48e-05	0	43	0	125829120	19	5492
2026-01-26 23:31:44.81	27.59	12.85	-29.8	-33.3	13.0	3.73e-05	0	43	0	127926272	19	5357
2026-01-26 23:31:45.82	27.66	12.94	-29.7	-32.9	13.3	1.98e-05	0	43	0	128974848	19	5226
2026-01-26 23:31:46.82	27.74	13.03	-29.6	-32.8	13.4	1.29e-05	0	43	0	131072000	19	5179
2026-01-26 23:31:47.82	27.81	13.12	-29.7	-32.9	13.3	1.37e-05	0	43	0	133169152	19	5211
2026-01-26 23:31:48.82	27.88	13.21	-29.6	-32.8	13.4	1.14e-05	0	43	0	135266304	19	5186
2026-01-26 23:31:49.83	27.96	13.31	-29.6	-32.6	13.5	1.14e-05	0	43	0	136314880	19	5097
2026-01-26 23:31:50.83	28.04	13.40	-29.6	-32.7	13.4	1.14e-05	0	43	0	138412032	19	5159
2026-01-26 23:31:51.83	28.11	13.49	-29.6	-32.7	13.5	9.96e-04	0	43	0	140509184	19	5129
2026-01-26 23:31:52.83	28.19	13.58	-29.6	-32.7	13.5	1.22e-05	0	43	0	142606336	19	5134
2026-01-26 23:31:53.83	28.26	13.68	-29.8	-33.2	13.2	7.60e-06	0	43	0	144703488	19	5319
2026-01-26 23:31:54.84	28.34	13.77	-29.7	-33.0	13.3	2.36e-05	0	43	0	145752064	19	5248
2026-01-26 23:31:55.85	28.42	13.86	-29.6	-32.6	13.5	9.90e-06	0	43	0	147849216	19	5105
2026-01-26 23:31:56.85	28.50	13.96	-29.5	-32.5	13.6	9.90e-06	0	43	0	149946368	19	5051
2026-01-26 23:31:57.85	28.58	14.05	-29.5	-32.5	13.6	6.80e-06	0	43	0	152043520	19	5056
2026-01-26 23:31:58.85	28.66	14.15	-29.6	-32.6	13.5	6.80e-06	0	43	0	154140672	19	5111
2026-01-26 23:31:59.86	28.74	14.24	-29.5	-32.5	13.6	9.90e-06	0	43	0	155189248	19	5063
2026-01-26 23:32:00.85	28.82	14.34	-29.7	-32.8	13.4	1.06e-05	0	43	0	157286400	19	5181
2026-01-26 23:32:01.86	28.90	14.43	-29.6	-32.7	13.6	8.30e-06	0	43	0	159383552	19	5120
2026-01-26 23:32:02.87	28.98	14.53	-29.6	-32.6	13.6	1.82e-04	0	43	0	161480704	19	5087
2026-01-26 23:32:03.87	29.06	14.62	-29.6	-32.6	13.6	7.60e-06	0	43	0	163577856	19	5084
2026-01-26 23:32:04.87	29.14	14.72	-29.7	-33.0	13.3	9.10e-06	0	43	0	164626432	19	5241
2026-01-26 23:32:05.88	29.23	14.82	-29.7	-32.9	13.3	3.07e-04	0	43	0	166723584	19	5228
2026-01-26 23:32:06.89	29.31	14.92	-29.7	-33.0	13.3	1.60e-05	0	43	0	168820736	19	5267
2026-01-26 23:32:07.89	29.39	15.01	-29.9	-33.4	13.1	2.13e-05	0	43	0	170917888	19	5388
2026-01-26 23:32:08.89	29.48	15.11	-29.8	-33.3	13.2	3.73e-05	0	43	0	173015040	19	5351
2026-01-26 23:32:09.90	29.56	15.21	-29.8	-33.1	13.3	4.28e-04	0	43	0	174063616	19	5299
2026-01-26 23:32:10.90	29.65	15.31	-29.8	-33.2	13.2	1.29e-05	0	43	0	176160768	19	5314
2026-01-26 23:32:11.90	29.73	15.41	-29.8	-33.3	13.2	2.74e-05	0	43	0	178257920	19	5353
2026-01-26 23:32:12.90	29.82	15.51	-29.9	-33.2	12.8	4.09e-04	0	43	0	180355072	20	5210
2026-01-26 23:32:13.91	29.91	15.61	-30.2	-33.9	12.4	7.55e-05	0	43	0	182452224	20	5503
2026-01-26 23:32:14.91	29.99	15.71	-30.0	-33.4	12.7	1.23e-04	0	43	0	183500800	20	5297
2026-01-26 23:32:15.90	30.08	15.81	-29.9	-33.5	13.1	1.21e-03	0	43	0	185597952	19	5434
2026-01-26 23:32:16.90	30.17	15.91	-29.8	-33.1	13.3	2.28e-05	0	43	0	187695104	19	5286
2026-01-26 23:32:17.91	30.26	16.01	-29.9	-33.4	13.1	2.44e-05	0	43	0	189792256	19	5413
2026-01-26 23:32:18.91	30.35	16.11	-29.9	-33.6	13.0	2.36e-05	0	43	0	191889408	19	5457
2026-01-26 23:32:19.91	30.44	16.21	-29.9	-33.5	13.1	2.89e-05	0	43	0	192937984	19	5429
2026-01-26 23:32:20.92	30.53	16.31	-30.0	-33.6	13.0	1.54e-04	0	43	0	195035136	19	5480
2026-01-26 23:32:21.92	30.62	16.42	-30.0	-33.3	12.8	4.42e-05	0	43	0	197132288	20	5240
2026-01-26 23:32:22.93	30.71	16.52	-29.9	-33.0	13.0	4.04e-05	0	43	0	199229440	20	5122
2026-01-26 23:32:23.93	30.81	16.62	-29.9	-33.5	13.1	3.81e-05	0	43	0	200278016	19	5440
2026-01-26 23:32:24.94	30.90	16.73	-30.0	-33.6	13.1	2.44e-05	0	43	0	202375168	19	5462
2026-01-26 23:32:25.94	30.99	16.83	-30.1	-33.5	12.7	6.63e-05	0	43	0	204472320	20	5326
2026-01-26 23:32:26.95	31.09	16.94	-30.2	-34.0	12.4	7.14e-04	0	43	0	206569472	20	5523
2026-01-26 23:32:27.95	31.18	17.04	-30.1	-33.5	12.7	1.66e-04	0	43	0	208666624	20	5318
2026-01-26 23:32:28.95	31.28	17.15	-30.0	-33.1	13.0	5.72e-05	0	43	0	209715200	20	5168
2026-01-26 23:32:29.95	31.38	17.25	-29.9	-33.4	13.2	1.28e-03	0	43	0	211812352	19	5394
2026-01-26 23:32:30.95	31.47	17.36	-30.0	-33.1	13.0	6.55e-04	0	43	0	213909504	20	5162
2026-01-26 23:32:31.96	31.57	17.46	-30.1	-33.4	12.8	3.81e-05	0	43	0	216006656	20	5266
2026-01-26 23:32:32.96	31.67	17.57	-30.0	-33.2	12.9	1.97e-03	0	43	0	218103808	20	5223
2026-01-26 23:32:33.97	31.77	17.68	-30.1	-33.5	12.7	2.18e-03	0	43	0	219152384	20	5323
2026-01-26 23:32:34.97	31.87	17.79	-30.2	-33.8	12.6	8.31e-05	0	43	0	221249536	20	5460
2026-01-26 23:32:35.97	31.97	17.89	-30.1	-33.4	12.8	2.30e-03	0	43	0	223346688	20	5297
2026-01-26 23:32:36.97	32.07	18.00	-29.9	-32.9	13.1	1.88e-03	0	43	0	225443840	20	5103
2026-01-26 23:32:37.97	32.17	18.11	-29.9	-32.8	13.2	2.05e-05	0	43	0	227540992	20	5055
2026-01-26 23:32:38.98	32.27	18.22	-29.9	-33.3	13.3	5.07e-04	0	43	0	228589568	19	5351
2026-01-26 23:32:39.99	32.38	18.33	-29.8	-33.0	13.5	8.38e-04	0	43	0	230686720	19	5216
2026-01-26 23:32:40.99	32.48	18.44	-29.9	-33.3	13.3	8.30e-06	0	43	0	232783872	19	5351
2026-01-26 23:32:41.99	32.59	18.55	-29.8	-33.0	13.5	2.45e-04	0	43	0	234881024	19	5239
2026-01-26 23:32:43.00	32.69	18.66	-29.6	-32.6	13.8	3.18e-04	0	44	0	236978176	19	5072
2026-01-26 23:32:44.00	32.80	18.77	-29.6	-32.4	13.9	5.30e-06	0	43	0	238026752	19	5015
2026-01-26 23:32:45.00	32.90	18.88	-29.6	-32.4	13.9	3.00e-04	0	44	0	240123904	19	5016
2026-01-26 23:32:46.00	33.01	19.00	-29.6	-32.4	13.9	4.50e-06	0	43	0	242221056	19	5016
2026-01-26 23:32:47.00	33.12	19.11	-29.7	-32.9	13.7	5.30e-06	0	44	0	244318208	19	5170
2026-01-26 23:32:48.01	33.23	19.22	-29.7	-32.7	13.8	2.85e-04	0	43	0	246415360	19	5097
2026-01-26 23:32:49.01	33.34	19.33	-29.7	-32.7	13.8	6.10e-06	0	43	0	247463936	19	5099
2026-01-26 23:32:50.01	33.45	19.45	-29.6	-32.6	13.8	3.80e-06	0	43	0	249561088	19	5068
2026-01-26 23:32:51.01	33.56	19.56	-29.7	-32.8	13.7	3.39e-04	0	43	0	251658240	19	5153
2026-01-26 23:32:52.02	33.67	19.68	-29.6	-32.5	13.9	3.51e-04	0	43	0	253755392	19	5033
2026-01-26 23:32:53.03	33.79	19.79	-29.7	-32.7	13.8	2.20e-06	0	43	0	255852544	19	5099
2026-01-26 23:32:54.03	33.90	19.91	-29.7	-32.8	13.7	5.61e-04	0	43	0	256901120	19	5135
2026-01-26 23:32:55.03	34.02	20.02	-29.8	-33.0	13.6	6.58e-04	0	43	0	258998272	19	5200
2026-01-26 23:32:56.03	34.13	20.14	-29.7	-32.9	13.7	9.10e-06	0	43	0	261095424	19	5159
2026-01-26 23:32:57.04	34.25	20.26	-29.9	-33.3	13.4	3.71e-04	0	43	0	263192576	19	5324
2026-01-26 23:32:58.05	34.37	20.37	-29.8	-33.0	13.6	1.16e-03	0	43	0	264241152	19	5222
2026-01-26 23:32:59.05	34.48	20.49	-29.9	-33.4	13.4	7.60e-06	0	44	0	266338304	19	5371
2026-01-26 23:33:00.06	34.60	20.61	-29.9	-33.0	13.2	2.95e-04	0	43	0	268435456	20	5098
2026-01-26 23:33:01.06	34.72	20.73	-30.0	-33.2	13.1	2.85e-04	0	44	0	270532608	20	5170
2026-01-26 23:33:02.06	34.84	20.85	-30.1	-33.4	13.0	3.43e-05	0	44	0	272629760	20	5287
2026-01-26 23:33:03.07	34.97	20.97	-30.0	-33.2	13.1	2.89e-05	0	44	0	273678336	20	5176
2026-01-26 23:33:04.08	35.09	21.09	-30.2	-33.6	12.9	2.20e-04	0	44	0	275775488	20	5337
2026-01-26 23:33:05.07	35.21	21.21	-30.0	-33.2	13.1	4.65e-05	0	43	0	277872640	20	5171
2026-01-26 23:33:06.08	35.34	21.33	-30.2	-33.7	12.7	8.88e-04	0	43	0	279969792	20	5384
2026-01-26 23:33:07.08	35.46	21.45	-30.0	-33.2	13.1	4.11e-05	0	43	0	282066944	20	5207
2026-01-26 23:33:08.08	35.59	21.57	-30.2	-33.7	12.7	4.95e-05	0	44	0	283115520	20	5395
2026-01-26 23:33:09.09	35.72	21.69	-30.1	-33.3	13.0	6.44e-04	0	44	0	285212672	20	5234
2026-01-26 23:33:10.09	35.85	21.82	-30.0	-33.1	13.3	2.59e-05	0	44	0	287309824	20	5131
2026-01-26 23:33:11.10	35.98	21.94	-30.0	-33.0	13.3	1.90e-05	0	44	0	289406976	20	5103
2026-01-26 23:33:12.10	36.11	22.06	-30.1	-33.3	13.1	2.44e-04	0	44	0	291504128	20	5228
2026-01-26 23:33:13.11	36.24	22.19	-30.2	-33.6	12.9	4.80e-05	0	44	0	292552704	20	5319
2026-01-26 23:33:14.11	36.37	22.31	-30.0	-33.1	13.2	4.50e-05	0	43	0	294649856	20	5153
2026-01-26 23:33:15.10	36.50	22.43	-30.2	-33.6	12.8	2.77e-04	0	44	0	296747008	20	5346
2026-01-26 23:33:16.11	36.64	22.56	-30.3	-34.0	12.6	1.01e-03	0	44	0	298844160	20	5493
2026-01-26 23:33:17.11	36.77	22.69	-30.2	-33.5	12.9	4.57e-05	0	43	0	300941312	20	5310
2026-01-26 23:33:18.12	36.91	22.81	-30.0	-33.1	13.2	2.42e-04	0	44	0	301989888	20	5149
2026-01-26 23:33:19.12	37.05	22.94	-30.0	-33.0	13.3	2.47e-04	0	44	0	304087040	20	5102
2026-01-26 23:33:20.12	37.19	23.07	-29.9	-32.8	13.4	1.44e-05	0	44	0	306184192	20	5048
2026-01-26 23:33:21.13	37.33	23.19	-29.9	-32.9	13.4	1.83e-05	0	44	0	308281344	20	5062
2026-01-26 23:33:22.13	37.47	23.32	-30.0	-33.1	13.2	2.53e-04	0	44	0	310378496	20	5151
2026-01-26 23:33:23.13	37.61	23.45	-29.9	-32.8	13.5	1.29e-05	0	43	0	311427072	20	5013
2026-01-26 23:33:24.14	37.75	23.58	-30.0	-33.0	13.3	1.29e-05	0	44	0	313524224	20	5117
2026-01-26 23:33:25.14	37.90	23.71	-30.2	-33.5	13.0	2.67e-05	0	43	0	315621376	20	5288
2026-01-26 23:33:26.14	38.04	23.84	-30.0	-33.0	13.4	2.28e-05	0	44	0	317718528	20	5081
2026-01-26 23:33:27.15	38.19	23.97	-29.8	-32.5	13.6	8.30e-06	0	44	0	318767104	20	4925
2026-01-26 23:33:28.15	38.34	24.10	-29.8	-32.4	13.7	9.10e-06	0	44	0	320864256	20	4881
2026-01-26 23:33:29.15	38.49	24.23	-29.8	-32.4	13.7	3.80e-06	0	44	0	322961408	20	4882
2026-01-26 23:33:30.15	38.64	24.36	-29.8	-32.4	13.7	1.59e-04	0	43	0	325058560	20	4874
2026-01-26 23:33:31.16	38.79	24.50	-29.9	-33.1	13.7	6.10e-06	0	44	0	327155712	19	5242
2026-01-26 23:33:32.16	38.94	24.63	-29.8	-33.0	13.7	6.10e-06	0	44	0	329252864	19	5195
2026-01-26 23:33:33.16	39.09	24.76	-29.9	-33.3	13.5	1.59e-04	0	44	0	330301440	19	5307
2026-01-26 23:33:34.16	39.25	24.89	-29.9	-33.3	13.6	2.20e-06	0	43	0	332398592	19	5309
2026-01-26 23:33:35.16	39.40	25.03	-30.0	-33.0	13.3	9.90e-06	0	44	0	334495744	20	5107
2026-01-26 23:33:36.16	39.56	25.16	-30.1	-33.4	13.1	2.13e-05	0	44	0	336592896	20	5237
2026-01-26 23:33:37.16	39.72	25.30	-30.1	-33.3	13.2	2.51e-05	0	44	0	337641472	20	5201
2026-01-26 23:33:38.16	39.88	25.43	-30.2	-33.5	13.0	3.35e-05	0	43	0	339738624	20	5292
2026-01-26 23:33:39.16	40.04	25.57	-30.0	-33.2	13.3	2.82e-05	0	44	0	341835776	20	5166
2026-01-26 23:33:40.17	40.21	25.70	-30.1	-33.2	13.2	5.11e-05	0	44	0	343932928	20	5187
2026-01-26 23:33:41.17	40.37	25.84	-30.0	-33.0	13.4	9.10e-06	0	44	0	346030080	20	5101
2026-01-26 23:33:42.17	40.54	25.98	-30.0	-33.1	13.3	1.22e-05	0	44	0	347078656	20	5112
2026-01-26 23:33:43.18	40.70	26.12	-30.1	-33.3	13.2	1.44e-05	0	44	0	349175808	20	5208
2026-01-26 23:33:44.18	40.87	26.25	-30.2	-33.5	13.0	2.74e-05	0	44	0	351272960	20	5304
2026-01-26 23:33:45.18	41.04	26.39	-30.0	-33.2	13.3	1.37e-05	0	44	0	353370112	20	5157
2026-01-26 23:33:46.18	41.21	26.53	-30.0	-33.1	13.3	1.67e-05	0	44	0	355467264	20	5140
2026-01-26 23:33:47.18	41.39	26.67	-30.1	-33.2	13.3	1.83e-05	0	44	0	356515840	20	5171
2026-01-26 23:33:48.18	41.56	26.81	-30.2	-33.5	13.1	2.51e-05	0	44	0	358612992	20	5283
2026-01-26 23:33:49.18	41.74	26.95	-30.0	-33.2	13.3	1.83e-05	0	44	0	360710144	20	5148
2026-01-26 23:33:50.18	41.91	27.09	-30.0	-33.1	13.3	1.67e-05	0	44	0	362807296	20	5114
2026-01-26 23:33:51.18	42.09	27.23	-30.1	-33.2	13.3	1.90e-05	0	44	0	363855872	20	5174
2026-01-26 23:33:52.18	42.27	27.37	-30.1	-33.2	13.3	1.14e-05	0	44	0	365953024	20	5153
2026-01-26 23:33:53.18	42.45	27.52	-30.2	-33.7	13.0	3.12e-05	0	44	0	368050176	20	5357
2026-01-26 23:33:54.18	42.64	27.66	-30.1	-33.3	13.2	2.67e-05	0	44	0	370147328	20	5220
2026-01-26 23:33:55.18	42.82	27.80	-30.2	-33.5	13.2	2.05e-05	0	44	0	372244480	20	5259
2026-01-26 23:33:56.18	43.01	27.94	-30.4	-34.0	12.8	3.73e-05	0	44	0	373293056	20	5492
2026-01-26 23:33:57.19	43.20	28.09	-30.5	-34.3	12.6	8.46e-05	0	44	0	375390208	20	5609
2026-01-26 23:33:58.20	43.39	28.23	-30.7	-34.3	12.2	1.72e-04	0	44	0	377487360	21	5500
2026-01-26 23:33:59.20	43.58	28.38	-30.8	-34.7	12.0	2.61e-04	0	44	0	379584512	21	5674
2026-01-26 23:34:00.21	43.78	28.53	-30.8	-34.9	11.9	3.27e-04	0	44	0	381681664	21	5752
2026-01-26 23:34:01.21	43.97	28.67	-30.8	-34.8	11.9	3.62e-04	0	44	0	382730240	21	5709
2026-01-26 23:34:02.22	44.17	28.82	-30.8	-34.9	11.9	4.13e-04	0	44	0	384827392	21	5742
2026-01-26 23:34:03.22	44.37	28.96	-30.9	-35.1	11.7	4.57e-04	0	44	0	386924544	21	5853
2026-01-26 23:34:04.22	44.57	29.11	-30.9	-35.2	11.7	6.35e-04	0	44	0	389021696	21	5874
2026-01-26 23:34:05.22	44.77	29.26	-30.9	-35.2	11.7	8.54e-04	0	44	0	391118848	21	5858
2026-01-26 23:34:06.22	44.98	29.41	-31.0	-35.2	11.7	6.13e-04	0	43	0	392167424	21	5888
2026-01-26 23:34:07.22	45.18	29.55	-30.9	-35.2	11.7	6.49e-04	0	44	0	394264576	21	5873
2026-01-26 23:34:08.22	45.39	29.70	-31.0	-34.7	11.7	1.09e-03	0	44	0	396361728	22	5554
2026-01-26 23:34:09.23	45.60	29.85	-30.9	-35.1	11.8	1.02e-03	0	44	0	398458880	21	5834
2026-01-26 23:34:10.23	45.81	30.00	-30.9	-35.1	11.8	5.06e-04	0	44	0	400556032	21	5812
2026-01-26 23:34:11.23	46.03	30.15	-30.8	-34.7	12.1	5.93e-04	0	44	0	401604608	21	5630
2026-01-26 23:34:12.24	46.24	30.30	-30.8	-34.7	12.0	4.68e-04	0	44	0	403701760	21	5644
2026-01-26 23:34:13.24	46.46	30.45	-30.9	-35.1	11.8	4.34e-04	0	44	0	405798912	21	5826
2026-01-26 23:34:14.24	46.68	30.60	-30.8	-34.8	12.0	4.17e-04	0	44	0	407896064	21	5697
2026-01-26 23:34:15.24	46.90	30.75	-30.8	-34.8	12.0	4.44e-04	0	44	0	408944640	21	5697
2026-01-26 23:34:16.25	47.13	30.90	-30.9	-35.0	11.9	3.84e-04	0	44	0	411041792	21	5789
2026-01-26 23:34:17.25	47.35	31.06	-30.9	-35.1	11.8	5.20e-04	0	44	0	413138944	21	5843
2026-01-26 23:34:18.26	47.58	31.21	-30.9	-34.9	12.0	4.84e-04	0	44	0	415236096	21	5733
2026-01-26 23:34:19.27	47.81	31.36	-30.9	-35.0	11.9	3.55e-04	0	44	0	417333248	21	5753
2026-01-26 23:34:20.27	48.04	31.51	-30.8	-34.7	12.1	2.94e-04	0	44	0	419430400	21	5644
2026-01-26 23:34:21.27	48.28	31.67	-30.7	-34.3	12.4	2.01e-04	0	44	0	420478976	21	5478
2026-01-26 23:34:22.28	48.52	31.82	-30.7	-34.3	12.4	1.36e-04	0	44	0	422576128	21	5485
2026-01-26 23:34:23.28	48.75	31.97	-30.7	-34.5	12.2	2.54e-04	0	44	0	424673280	21	5566
2026-01-26 23:34:24.29	49.00	32.13	-30.7	-34.5	12.3	2.33e-04	0	44	0	426770432	21	5560
2026-01-26 23:34:25.29	49.24	32.28	-30.8	-34.7	12.1	2.64e-04	0	44	0	427819008	21	5663
2026-01-26 23:34:26.30	49.49	32.44	-30.7	-34.3	12.4	2.07e-04	0	44	0	429916160	21	5476
2026-01-26 23:34:27.30	49.74	32.59	-30.5	-33.7	12.8	9.46e-05	0	44	0	432013312	21	5214
2026-01-26 23:34:28.30	49.98	32.75	-30.4	-33.5	13.0	3.96e-05	0	44	0	434110464	21	5145
2026-01-26 23:34:29.30	50.24	32.90	-30.3	-33.3	13.1	2.44e-05	0	44	0	436207616	21	5062
2026-01-26 23:34:30.31	50.49	33.06	-30.2	-32.8	13.4	3.43e-05	0	44	0	437256192	21	4893
2026-01-26 23:34:31.31	50.75	33.21	-30.3	-33.1	13.2	1.60e-05	0	44	0	439353344	21	5012
2026-01-26 23:34:32.31	51.01	33.37	-30.3	-33.3	13.1	2.51e-04	0	44	0	441450496	21	5081
2026-01-26 23:34:33.31	51.27	33.52	-30.5	-33.8	12.8	1.69e-04	0	44	0	443547648	21	5241
2026-01-26 23:34:34.32	51.54	33.68	-30.6	-34.1	12.6	7.47e-05	0	44	0	445644800	21	5365
2026-01-26 23:34:35.32	51.80	33.83	-30.7	-34.3	12.4	9.15e-05	0	44	0	446693376	21	5450
2026-01-26 23:34:36.32	52.07	33.99	-30.9	-34.9	12.0	7.48e-04	0	44	0	448790528	21	5707
2026-01-26 23:34:37.33	52.35	34.15	-30.9	-34.9	12.0	3.61e-04	0	44	0	450887680	21	5718
2026-01-26 23:34:38.32	52.62	34.30	-30.6	-34.2	12.4	2.14e-04	0	44	0	452984832	21	5432
2026-01-26 23:34:39.33	52.90	34.46	-30.6	-34.2	12.5	3.84e-04	0	44	0	455081984	21	5417
2026-01-26 23:34:40.34	53.18	34.62	-30.6	-34.0	12.7	9.68e-05	0	44	0	456130560	21	5323
2026-01-26 23:34:41.34	53.46	34.77	-30.6	-34.0	12.6	8.92e-05	0	44	0	458227712	21	5343
2026-01-26 23:34:42.33	53.75	34.93	-30.4	-33.7	12.9	8.54e-05	0	44	0	460324864	21	5207
2026-01-26 23:34:43.33	54.03	35.08	-30.2	-32.9	13.4	2.05e-05	0	44	0	462422016	21	4908
2026-01-26 23:34:44.34	54.33	35.24	-30.2	-33.0	13.3	1.83e-04	0	44	0	464519168	21	4951
2026-01-26 23:34:45.34	54.62	35.40	-30.3	-33.3	13.2	1.29e-05	0	44	0	465567744	21	5048
2026-01-26 23:34:46.35	54.92	35.55	-30.5	-33.8	12.8	7.24e-05	0	44	0	467664896	21	5263
2026-01-26 23:34:47.35	55.22	35.71	-30.5	-33.8	12.8	1.61e-04	0	44	0	469762048	21	5261
2026-01-26 23:34:48.35	55.52	35.86	-30.7	-34.4	12.4	3.10e-04	0	44	0	471859200	21	5503
2026-01-26 23:34:49.35	55.82	36.02	-30.5	-33.9	12.7	6.17e-05	0	44	0	472907776	21	5301
2026-01-26 23:34:50.36	56.13	36.18	-30.6	-34.1	12.5	1.54e-04	0	44	0	475004928	21	5399
2026-01-26 23:34:51.36	56.44	36.33	-30.6	-34.0	12.6	3.00e-04	0	44	0	477102080	21	5345
2026-01-26 23:34:52.37	56.76	36.49	-30.6	-34.2	12.6	9.53e-05	0	44	0	479199232	21	5418
2026-01-26 23:34:53.37	57.07	36.64	-30.6	-34.1	12.6	1.20e-04	0	44	0	481296384	21	5387
2026-01-26 23:34:54.37	57.39	36.80	-30.5	-33.6	12.9	9.83e-04	0	44	0	482344960	21	5197
2026-01-26 23:34:55.38	57.72	36.95	-30.4	-33.5	13.1	2.89e-05	0	44	0	484442112	21	5124
2026-01-26 23:34:56.38	58.04	37.11	-30.5	-33.7	12.9	4.42e-05	0	44	0	486539264	21	5217
2026-01-26 23:34:57.38	58.37	37.26	-30.7	-34.3	12.4	5.60e-04	0	44	0	488636416	21	5479
2026-01-26 23:34:58.38	58.70	37.42	-30.9	-35.0	12.0	2.53e-04	0	44	0	490733568	21	5743
2026-01-26 23:34:59.38	59.04	37.57	-31.0	-35.1	11.9	2.66e-04	0	44	0	491782144	21	5811
2026-01-26 23:35:00.38	59.37	37.72	-31.3	-35.5	11.3	6.61e-04	0	44	0	493879296	22	5895
2026-01-26 23:35:01.39	59.72	37.88	-31.5	-35.7	10.8	2.14e-03	0	44	0	495976448	23	5868
2026-01-26 23:35:02.39	60.06	38.03	-31.2	-35.0	11.3	1.21e-03	0	44	0	498073600	23	5532
2026-01-26 23:35:03.40	60.41	38.18	-31.0	-34.3	11.8	5.61e-04	0	44	0	500170752	23	5238
2026-01-26 23:35:04.40	60.76	38.33	-30.9	-34.0	12.0	3.35e-04	0	44	0	501219328	23	5130
2026-01-26 23:35:05.40	61.11	38.48	-30.9	-33.9	12.2	2.95e-04	0	44	0	503316480	23	5077
2026-01-26 23:35:06.40	61.47	38.63	-30.9	-34.4	12.1	2.62e-04	0	44	0	505413632	22	5391
2026-01-26 23:35:07.41	61.83	38.78	-31.1	-35.0	11.6	5.14e-04	0	44	0	507510784	22	5662
2026-01-26 23:35:08.41	62.20	38.93	-31.2	-35.2	11.6	5.64e-04	0	44	0	509607936	22	5742
2026-01-26 23:35:09.42	62.57	39.08	-31.3	-35.5	11.3	9.57e-04	0	44	0	510656512	22	5869
2026-01-26 23:35:10.42	62.94	39.23	-31.3	-35.6	11.3	1.11e-03	0	44	0	512753664	22	5907
2026-01-26 23:35:11.43	63.31	39.38	-31.3	-35.7	11.3	1.06e-03	0	44	0	514850816	22	5935
2026-01-26 23:35:12.43	63.69	39.52	-31.2	-35.4	11.4	1.04e-03	0	44	0	516947968	22	5837
2026-01-26 23:35:13.43	64.07	39.67	-31.2	-35.4	11.5	9.54e-04	0	44	0	519045120	22	5797
2026-01-26 23:35:14.44	64.46	39.81	-31.2	-35.3	11.5	7.61e-04	0	44	0	520093696	22	5759
2026-01-26 23:35:15.44	64.84	39.96	-31.3	-35.5	11.3	8.94e-04	0	44	0	522190848	22	5891
2026-01-26 23:35:16.44	65.23	40.10	-31.4	-36.0	11.0	1.54e-03	0	44	0	524288000	22	6120
2026-01-26 23:35:17.45	65.63	40.24	-31.5	-35.7	10.8	3.34e-03	0	44	0	526385152	23	5869
2026-01-26 23:35:18.45	66.03	40.39	-31.3	-35.1	11.3	1.64e-03	0	44	0	528482304	23	5588
2026-01-26 23:35:19.45	66.43	40.53	-31.3	-35.0	11.4	1.07e-03	0	44	0	529530880	23	5535
2026-01-26 23:35:20.44	66.83	40.66	-31.3	-34.9	11.5	7.00e-04	0	44	0	531628032	23	5496
2026-01-26 23:35:21.44	67.23	40.80	-31.1	-34.4	11.8	6.25e-04	0	44	0	533725184	23	5271
2026-01-26 23:35:22.45	67.65	40.94	-31.0	-34.1	12.0	3.46e-04	0	44	0	535822336	23	5154
2026-01-26 23:35:23.45	68.06	41.08	-31.1	-34.3	11.9	3.87e-04	0	44	0	536870912	23	5237
2026-01-26 23:35:24.46	68.48	41.21	-31.3	-35.2	11.3	3.97e-04	0	44	0	538968064	23	5612
2026-01-26 23:35:25.47	68.91	41.35	-31.6	-36.1	10.7	2.22e-03	0	44	0	541065216	23	6027
2026-01-26 23:35:26.47	69.33	41.48	-31.7	-36.6	10.3	3.50e-03	0	44	0	543162368	23	6286
2026-01-26 23:35:27.48	69.76	41.61	-31.9	-37.1	9.9	9.61e-03	0	44	0	545259520	23	6524
2026-01-26 23:35:28.48	70.20	41.74	-31.7	-36.2	10.5	5.50e-03	0	44	0	546308096	23	6097
2026-01-26 23:35:29.49	70.63	41.87	-31.4	-35.2	11.2	1.45e-03	0	44	0	548405248	23	5613
2026-01-26 23:35:30.49	71.07	42.00	-31.2	-34.6	11.7	7.30e-04	0	44	0	550502400	23	5364
2026-01-26 23:35:31.49	71.51	42.12	-31.1	-34.5	11.8	5.08e-04	0	44	0	552599552	23	5303
2026-01-26 23:35:32.50	71.96	42.25	-31.4	-35.2	11.4	8.86e-04	0	44	0	554696704	23	5590
2026-01-26 23:35:33.50	72.41	42.37	-31.7	-36.2	10.6	2.23e-03	0	44	0	555745280	23	6066
2026-01-26 23:35:34.50	72.86	42.49	-31.8	-36.6	10.3	5.26e-03	0	44	0	557842432	23	6294
2026-01-26 23:35:35.50	73.32	42.61	-31.8	-36.8	10.2	5.55e-03	0	44	0	559939584	23	6361
2026-01-26 23:35:36.51	73.78	42.73	-31.6	-36.1	10.7	4.24e-03	0	44	0	562036736	23	6026
2026-01-26 23:35:37.51	74.24	42.85	-31.4	-35.4	11.2	1.91e-03	0	44	0	564133888	23	5673
2026-01-26 23:35:38.51	74.71	42.96	-31.3	-35.0	11.5	1.11e-03	0	44	0	565182464	23	5534
2026-01-26 23:35:39.52	75.18	43.08	-31.3	-35.1	11.4	7.53e-04	0	44	0	567279616	23	5552
2026-01-26 23:35:40.52	75.65	43.19	-31.4	-35.3	11.3	1.35e-03	0	44	0	569376768	23	5635
2026-01-26 23:35:41.53	76.13	43.30	-31.4	-35.3	11.3	9.23e-04	0	44	0	571473920	23	5643
2026-01-26 23:35:42.54	76.62	43.41	-31.3	-35.1	11.5	1.09e-03	0	44	0	573571072	23	5546
2026-01-26 23:35:43.54	77.10	43.51	-31.4	-35.3	11.3	1.33e-03	0	44	0	574619648	23	5620
2026-01-26 23:35:44.55	77.59	43.62	-31.3	-34.9	11.5	1.02e-03	0	44	0	576716800	23	5490
2026-01-26 23:35:45.55	78.08	43.72	-31.2	-34.7	11.8	6.79e-04	0	44	0	578813952	23	5368
2026-01-26 23:35:46.56	78.57	43.82	-31.2	-34.6	11.8	4.77e-04	0	44	0	580911104	23	5355
2026-01-26 23:35:47.56	79.06	43.92	-31.1	-34.4	11.9	6.16e-04	0	44	0	583008256	23	5265
2026-01-26 23:35:48.56	79.56	44.01	-31.2	-34.5	11.9	4.45e-04	0	44	0	584056832	23	5312
2026-01-26 23:35:49.56	80.06	44.11	-31.1	-34.5	11.9	4.40e-04	0	44	0	586153984	23	5287
2026-01-26 23:35:50.56	80.56	44.20	-31.0	-34.0	12.2	2.79e-04	0	44	0	588251136	23	5116
2026-01-26 23:35:51.56	81.07	44.29	-31.1	-34.3	12.1	2.36e-04	0	44	0	590348288	23	5198
2026-01-26 23:35:52.57	81.58	44.37	-31.1	-34.4	12.0	3.81e-04	0	44	0	592445440	23	5260
2026-01-26 23:35:53.57	82.09	44.46	-30.9	-33.8	12.3	2.81e-04	0	44	0	593494016	23	5015
2026-01-26 23:35:54.58	82.61	44.54	-30.8	-33.9	12.6	1.33e-04	0	44	0	595591168	22	5167
2026-01-26 23:35:55.58	83.13	44.62	-30.8	-34.1	12.5	7.40e-05	0	44	0	597688320	22	5235
2026-01-26 23:35:56.58	83.65	44.70	-31.2	-35.2	11.8	3.72e-04	0	44	0	599785472	22	5720
2026-01-26 23:35:57.58	84.17	44.77	-31.3	-35.5	11.6	8.48e-04	0	44	0	601882624	22	5831
2026-01-26 23:35:58.58	84.69	44.85	-31.1	-34.9	12.0	5.36e-04	0	44	0	602931200	22	5561
2026-01-26 23:35:59.59	85.22	44.92	-31.0	-34.7	12.1	3.09e-04	0	44	0	605028352	22	5468
2026-01-26 23:36:00.59	85.75	44.98	-31.0	-34.7	12.1	2.64e-04	0	44	0	607125504	22	5495
2026-01-26 23:36:01.60	86.29	45.05	-31.0	-34.7	12.1	2.37e-04	0	44	0	609222656	22	5479
2026-01-26 23:36:02.59	86.81	45.11	-31.0	-34.5	12.3	2.31e-04	0	44	0	610271232	22	5378
2026-01-26 23:36:03.60	87.35	45.17	-31.2	-35.1	11.9	2.55e-04	0	44	0	612368384	22	5640
2026-01-26 23:36:04.60	87.89	45.23	-31.3	-35.4	11.6	6.40e-04	0	44	0	614465536	22	5777
2026-01-26 23:36:05.60	88.43	45.28	-31.3	-35.5	11.6	7.77e-04	0	44	0	616562688	22	5820
2026-01-26 23:36:06.61	88.98	45.34	-31.1	-34.8	12.1	3.49e-04	0	44	0	618659840	22	5520
2026-01-26 23:36:07.61	89.52	45.38	-31.2	-35.1	11.8	4.76e-04	0	44	0	619708416	22	5676
2026-01-26 23:36:08.61	90.06	45.43	-31.0	-34.5	12.2	5.36e-04	0	44	0	621805568	22	5392
2026-01-26 23:36:09.61	90.61	45.48	-30.8	-34.0	12.5	1.17e-04	0	44	0	623902720	22	5196
2026-01-26 23:36:10.61	91.15	45.52	-30.8	-34.1	12.6	1.08e-04	0	44	0	625999872	22	5223
2026-01-26 23:36:11.61	91.70	45.55	-30.9	-34.3	12.4	1.14e-04	0	44	0	628097024	22	5301
2026-01-26 23:36:12.61	92.25	45.59	-30.9	-34.3	12.4	1.56e-04	0	44	0	629145600	22	5319
2026-01-26 23:36:13.61	92.80	45.62	-31.0	-34.5	12.3	3.70e-04	0	44	0	631242752	22	5379
2026-01-26 23:36:14.62	93.36	45.65	-31.0	-34.5	12.2	3.13e-04	0	44	0	633339904	22	5415
2026-01-26 23:36:15.63	93.92	45.68	-31.1	-34.7	12.1	2.47e-04	0	44	0	635437056	22	5489
2026-01-26 23:36:16.64	94.48	45.70	-31.3	-35.6	11.5	6.65e-04	0	44	0	637534208	22	5878
2026-01-26 23:36:17.64	95.03	45.72	-31.1	-35.0	11.8	8.63e-04	0	44	0	638582784	22	5616
2026-01-26 23:36:18.64	95.59	45.74	-30.7	-33.8	12.7	2.01e-04	0	44	0	640679936	22	5127
2026-01-26 23:36:19.64	96.14	45.76	-30.4	-32.8	13.4	2.67e-05	0	44	0	642777088	22	4746
2026-01-26 23:36:20.65	96.70	45.77	-30.1	-32.4	13.9	7.00e-07	0	44	0	644874240	21	4727
2026-01-26 23:36:21.65	97.26	45.78	-30.0	-32.3	14.1	1.50e-06	0	44	0	646971392	21	4685
2026-01-26 23:36:22.65	97.82	45.79	-30.1	-32.6	13.8	1.29e-05	0	44	0	648019968	21	4794
2026-01-26 23:36:23.65	98.37	45.79	-29.9	-32.1	14.1	2.44e-05	0	44	0	650117120	21	4617
2026-01-26 23:36:24.65	98.93	45.79	-29.8	-31.9	14.3	3.00e-06	0	44	0	652214272	21	4566
2026-01-26 23:36:25.65	99.49	45.79	-29.9	-32.1	14.1	1.50e-06	0	44	0	654311424	21	4637
2026-01-26 23:36:26.65	100.05	45.78	-30.1	-32.5	13.9	2.20e-06	0	44	0	656408576	21	4749
2026-01-26 23:36:27.66	100.61	45.77	-30.0	-32.2	14.1	2.20e-06	0	44	0	657457152	21	4661
2026-01-26 23:36:28.65	101.16	45.76	-29.8	-31.9	14.3	1.50e-06	0	44	0	659554304	21	4537
2026-01-26 23:36:29.65	101.72	45.75	-30.0	-32.8	14.0	5.56e-05	0	44	0	661651456	20	4953
2026-01-26 23:36:30.65	102.27	45.73	-29.9	-32.6	14.2	1.50e-06	0	44	0	663748608	20	4879
2026-01-26 23:36:31.66	102.83	45.71	-30.2	-33.4	13.7	4.50e-06	0	44	0	664797184	20	5174
2026-01-26 23:36:32.66	103.39	45.69	-30.5	-34.0	13.3	9.10e-06	0	44	0	666894336	20	5422
2026-01-26 23:36:33.67	103.95	45.66	-30.9	-34.7	12.5	8.77e-05	0	44	0	668991488	21	5577
2026-01-26 23:36:34.67	104.50	45.64	-30.9	-34.7	12.4	1.73e-04	0	44	0	671088640	21	5574
2026-01-26 23:36:35.67	105.05	45.60	-30.6	-34.0	12.9	6.71e-05	0	44	0	673185792	21	5305
2026-01-26 23:36:36.67	105.60	45.57	-30.7	-34.2	12.8	3.20e-05	0	44	0	674234368	21	5389
2026-01-26 23:36:37.67	106.15	45.53	-31.3	-35.3	11.7	3.42e-04	0	44	0	676331520	22	5760
2026-01-26 23:36:38.67	106.70	45.49	-31.7	-36.3	10.7	1.81e-03	0	44	0	678428672	23	6091
2026-01-26 23:36:39.67	107.24	45.45	-31.6	-35.9	10.9	3.65e-03	0	44	0	680525824	23	5928
2026-01-26 23:36:40.67	107.79	45.41	-31.1	-34.4	12.0	6.18e-04	0	44	0	682622976	23	5246
2026-01-26 23:36:41.67	108.33	45.36	-30.6	-33.5	13.0	7.62e-05	0	44	0	683671552	22	4998
2026-01-26 23:36:42.67	108.87	45.31	-30.5	-33.1	13.3	2.36e-05	0	44	0	685768704	22	4844
2026-01-26 23:36:43.68	109.42	45.25	-30.6	-33.3	13.1	1.44e-05	0	44	0	687865856	22	4926
2026-01-26 23:36:44.68	109.96	45.20	-30.6	-33.3	13.1	3.73e-05	0	44	0	689963008	22	4942
2026-01-26 23:36:45.69	110.50	45.14	-30.5	-33.2	13.2	3.28e-05	0	44	0	692060160	22	4889
2026-01-26 23:36:46.68	111.03	45.08	-30.5	-33.2	13.1	3.43e-05	0	44	0	693108736	22	4900
2026-01-26 23:36:47.69	111.56	45.01	-30.3	-33.0	13.6	9.10e-06	0	44	0	695205888	21	4923
2026-01-26 23:36:48.69	112.09	44.95	-30.2	-32.8	13.7	9.10e-06	0	44	0	697303040	21	4869
2026-01-26 23:36:49.70	112.63	44.88	-30.7	-34.2	12.8	1.98e-05	0	44	0	699400192	21	5374
2026-01-26 23:36:50.70	113.15	44.81	-31.0	-35.0	12.3	1.06e-04	0	44	0	700448768	21	5718
2026-01-26 23:36:51.71	113.68	44.73	-31.2	-35.2	11.8	3.89e-04	0	44	0	702545920	22	5696
2026-01-26 23:36:52.70	114.20	44.65	-30.9	-34.2	12.5	2.69e-04	0	44	0	704643072	22	5271
2026-01-26 23:36:53.71	114.72	44.58	-30.7	-33.6	12.9	1.08e-04	0	44	0	706740224	22	5038
2026-01-26 23:36:54.71	115.24	44.49	-30.7	-33.8	12.8	6.02e-05	0	44	0	708837376	22	5104
2026-01-26 23:36:55.71	115.75	44.41	-30.9	-34.3	12.4	1.29e-04	0	44	0	709885952	22	5328
2026-01-26 23:36:56.72	116.26	44.32	-30.7	-33.6	12.9	1.20e-04	0	44	0	711983104	22	5029
2026-01-26 23:36:57.72	116.77	44.24	-30.1	-32.5	13.9	6.10e-06	0	44	0	714080256	21	4765
2026-01-26 23:36:58.72	117.28	44.14	-29.9	-31.9	14.2	3.00e-06	0	44	0	716177408	21	4566
2026-01-26 23:36:59.72	117.78	44.05	-30.2	-32.8	13.7	2.20e-06	0	44	0	718274560	21	4862
2026-01-26 23:37:00.73	118.28	43.96	-30.6	-33.8	13.1	2.74e-05	0	44	0	719323136	21	5219
2026-01-26 23:37:01.73	118.78	43.86	-30.5	-33.6	13.1	3.35e-05	0	44	0	721420288	21	5149
2026-01-26 23:37:02.73	119.27	43.76	-30.1	-32.6	13.8	9.90e-06	0	44	0	723517440	21	4797
2026-01-26 23:37:03.74	119.77	43.66	-30.1	-32.6	13.9	1.50e-06	0	44	0	725614592	21	4789
2026-01-26 23:37:04.74	120.25	43.56	-30.5	-33.7	13.1	1.83e-05	0	44	0	727711744	21	5181
2026-01-26 23:37:05.75	120.74	43.45	-30.5	-33.7	13.1	3.20e-05	0	44	0	728760320	21	5182
2026-01-26 23:37:06.75	121.22	43.34	-30.3	-33.0	13.6	1.67e-05	0	44	0	730857472	21	4922
2026-01-26 23:37:07.75	121.70	43.23	-30.2	-32.7	13.8	4.50e-06	0	44	0	732954624	21	4816
2026-01-26 23:37:08.76	122.18	43.12	-30.2	-32.7	13.7	3.80e-06	0	44	0	735051776	21	4829
2026-01-26 23:37:09.77	122.65	43.01	-30.2	-32.7	13.8	8.30e-06	0	44	0	737148928	21	4832
2026-01-26 23:37:10.77	123.12	42.89	-30.2	-32.7	13.7	8.30e-06	0	44	0	738197504	21	4839
2026-01-26 23:37:11.77	123.59	42.78	-30.0	-32.2	14.0	3.80e-06	0	44	0	740294656	21	4670
2026-01-26 23:37:12.77	124.05	42.66	-29.7	-32.1	14.5	2.20e-06	0	44	0	742391808	20	4712
2026-01-26 23:37:13.78	124.51	42.54	-29.8	-32.3	14.4	0.00e+00	0	44	0	744488960	20	4773
2026-01-26 23:37:14.78	124.96	42.42	-29.8	-32.3	14.3	0.00e+00	0	44	0	746586112	20	4808
2026-01-26 23:37:15.78	125.41	42.30	-29.8	-32.4	14.2	2.20e-06	0	44	0	747634688	20	4823
2026-01-26 23:37:16.78	125.86	42.17	-30.2	-33.4	13.5	1.50e-06	0	44	0	749731840	20	5200
2026-01-26 23:37:17.78	126.31	42.05	-30.0	-32.7	14.1	7.60e-06	0	44	0	751828992	20	4928
2026-01-26 23:37:18.78	126.75	41.92	-29.4	-31.1	15.0	7.00e-07	0	44	0	753926144	20	4419
2026-01-26 23:37:19.78	127.18	41.79	-29.3	-31.5	15.2	7.00e-07	0	44	0	754974720	19	4609
2026-01-26 23:37:20.79	127.62	41.66	-29.5	-32.0	14.9	0.00e+00	0	44	0	757071872	19	4778
2026-01-26 23:37:21.80	128.06	41.53	-29.9	-33.0	14.3	7.00e-07	0	44	0	759169024	19	5137
2026-01-26 23:37:22.80	128.48	41.40	-29.8	-32.3	14.3	1.50e-06	0	44	0	761266176	20	4787
2026-01-26 23:37:23.81	128.91	41.26	-29.5	-31.4	14.9	7.00e-07	0	44	0	763363328	20	4499
2026-01-26 23:37:24.81	129.33	41.13	-29.3	-31.0	15.1	0.00e+00	0	44	0	765460480	20	4379
2026-01-26 23:37:25.81	129.75	40.99	-29.3	-31.1	15.0	0.00e+00	0	44	0	766509056	20	4413
2026-01-26 23:37:26.82	130.17	40.85	-29.6	-31.7	14.7	1.50e-06	0	44	0	768606208	20	4594
2026-01-26 23:37:27.82	130.58	40.71	-29.5	-31.5	14.7	0.00e+00	0	44	0	770703360	20	4540
2026-01-26 23:37:28.82	130.98	40.58	-29.2	-31.3	15.3	0.00e+00	0	44	0	772800512	19	4569
2026-01-26 23:37:29.81	131.38	40.44	-29.2	-31.3	15.3	0.00e+00	0	44	0	773849088	19	4572
2026-01-26 23:37:30.81	131.78	40.29	-29.7	-32.5	14.5	0.00e+00	0	44	0	775946240	19	4972
2026-01-26 23:37:31.82	132.18	40.15	-30.1	-33.2	13.7	1.50e-06	0	44	0	778043392	20	5131
2026-01-26 23:37:32.82	132.57	40.01	-30.3	-33.6	13.4	1.75e-05	0	44	0	780140544	20	5297
2026-01-26 23:37:33.82	132.96	39.86	-29.7	-32.2	14.3	5.30e-06	0	44	0	782237696	20	4753
2026-01-26 23:37:34.82	133.35	39.72	-29.5	-31.6	14.7	0.00e+00	0	44	0	783286272	20	4572
2026-01-26 23:37:35.82	133.73	39.57	-30.0	-32.8	14.0	6.80e-06	0	44	0	785383424	20	4991
2026-01-26 23:37:36.83	134.11	39.43	-30.8	-34.6	12.4	3.96e-05	0	44	0	787480576	21	5585
2026-01-26 23:37:37.83	134.49	39.28	-31.0	-34.8	11.9	3.33e-04	0	44	0	789577728	22	5568
2026-01-26 23:37:38.83	134.86	39.13	-30.4	-33.0	13.2	7.70e-05	0	44	0	791674880	22	4835
2026-01-26 23:37:39.84	135.23	38.98	-29.7	-32.0	14.4	7.60e-06	0	44	0	792723456	20	4684
2026-01-26 23:37:40.84	135.60	38.83	-29.5	-31.6	14.6	0.00e+00	0	44	0	794820608	20	4573
2026-01-26 23:37:41.85	135.96	38.68	-30.0	-32.8	14.0	1.50e-06	0	44	0	796917760	20	4963
2026-01-26 23:37:42.85	136.32	38.53	-30.5	-34.1	13.1	1.37e-05	0	44	0	799014912	20	5486
2026-01-26 23:37:43.86	136.68	38.38	-30.5	-33.8	12.9	5.11e-05	0	44	0	801112064	21	5267
2026-01-26 23:37:44.86	137.03	38.23	-30.0	-32.4	13.8	6.10e-06	0	44	0	802160640	21	4727
2026-01-26 23:37:45.87	137.39	38.07	-29.5	-31.6	14.7	2.59e-05	0	44	0	804257792	20	4573
2026-01-26 23:37:46.86	137.73	37.92	-29.4	-31.3	14.9	0.00e+00	0	44	0	806354944	20	4472
2026-01-26 23:37:47.87	138.07	37.77	-30.3	-33.7	13.4	0.00e+00	0	44	0	808452096	20	5298
2026-01-26 23:37:48.87	138.41	37.61	-30.9	-34.8	12.2	1.97e-04	0	44	0	810549248	21	5659
2026-01-26 23:37:49.87	138.75	37.46	-31.6	-36.0	10.7	1.39e-03	0	44	0	811597824	23	6006
2026-01-26 23:37:50.87	139.08	37.31	-31.1	-34.5	11.8	2.59e-03	0	44	0	813694976	23	5304
2026-01-26 23:37:51.87	139.41	37.15	-30.2	-32.9	13.5	1.36e-04	0	44	0	815792128	21	4904
2026-01-26 23:37:52.88	139.74	36.99	-29.9	-32.1	14.0	3.05e-05	0	44	0	817889280	21	4638
2026-01-26 23:37:53.88	140.07	36.84	-30.4	-33.3	13.2	3.00e-06	0	44	0	818937856	21	5063
2026-01-26 23:37:54.89	140.39	36.68	-31.3	-35.5	11.5	8.69e-05	0	44	0	821035008	22	5863
2026-01-26 23:37:55.89	140.71	36.53	-32.0	-37.2	9.5	8.24e-03	0	44	0	823132160	24	6522
2026-01-26 23:37:56.89	141.03	36.37	-31.7	-35.9	10.3	1.30e-02	0	44	0	825229312	24	5872
2026-01-26 23:37:57.89	141.34	36.21	-30.7	-33.8	12.6	1.43e-03	0	44	0	827326464	22	5152
2026-01-26 23:37:58.89	141.65	36.06	-29.7	-32.1	14.4	7.98e-04	0	44	0	828375040	20	4718
2026-01-26 23:37:59.89	141.95	35.90	-29.3	-31.5	15.1	0.00e+00	0	44	0	830472192	19	4626
2026-01-26 23:38:00.89	142.26	35.75	-29.4	-32.3	14.9	7.03e-04	0	44	0	832569344	18	5007
2026-01-26 23:38:01.88	142.56	35.59	-30.2	-33.3	13.6	1.50e-06	0	44	0	834666496	20	5150
2026-01-26 23:38:02.88	142.85	35.43	-31.0	-34.8	11.9	1.69e-04	0	44	0	836763648	22	5544
2026-01-26 23:38:03.89	143.15	35.28	-31.4	-35.8	11.2	2.94e-03	0	44	0	837812224	22	5990
2026-01-26 23:38:04.89	143.44	35.12	-30.8	-33.9	12.5	7.86e-04	0	44	0	839909376	22	5182
2026-01-26 23:38:05.89	143.73	34.96	-29.9	-32.0	14.1	4.50e-06	0	44	0	842006528	21	4599
2026-01-26 23:38:06.90	144.02	34.80	-29.6	-32.2	14.7	1.16e-03	0	44	0	844103680	19	4850
2026-01-26 23:38:07.90	144.31	34.65	-29.5	-32.5	14.8	1.25e-03	0	44	0	846200832	18	5067
2026-01-26 23:38:08.90	144.59	34.49	-30.2	-33.5	13.4	9.90e-06	0	44	0	847249408	20	5264
2026-01-26 23:38:09.91	144.87	34.33	-31.0	-35.1	12.0	1.91e-03	0	44	0	849346560	21	5815
2026-01-26 23:38:10.90	145.14	34.18	-31.4	-36.0	11.0	2.94e-03	0	44	0	851443712	22	6135
2026-01-26 23:38:11.91	145.42	34.02	-31.0	-34.7	11.9	1.46e-03	0	44	0	853540864	22	5521
2026-01-26 23:38:12.91	145.69	33.86	-30.4	-33.3	13.2	1.83e-03	0	44	0	855638016	21	5053
2026-01-26 23:38:13.91	145.96	33.71	-30.0	-33.0	13.8	1.66e-03	0	44	0	856686592	20	5033
2026-01-26 23:38:14.92	146.23	33.55	-30.0	-32.8	13.8	7.00e-07	0	44	0	858783744	20	4978
2026-01-26 23:38:15.92	146.49	33.39	-30.5	-34.1	13.0	2.16e-03	0	44	0	860880896	20	5466
2026-01-26 23:38:16.93	146.75	33.23	-30.9	-34.8	12.2	2.07e-03	0	44	0	862978048	21	5658
2026-01-26 23:38:17.93	147.01	33.08	-31.4	-36.0	11.1	5.16e-04	0	44	0	864026624	22	6085
2026-01-26 23:38:18.94	147.27	32.92	-31.9	-37.2	9.7	6.53e-03	0	44	0	866123776	23	6658
2026-01-26 23:38:19.94	147.52	32.77	-31.7	-36.5	10.2	1.25e-02	0	44	0	868220928	23	6270
2026-01-26 23:38:20.94	147.78	32.61	-31.1	-34.5	11.7	2.17e-03	0	44	0	870318080	23	5322
2026-01-26 23:38:21.94	148.02	32.46	-30.4	-33.4	13.1	2.49e-03	0	44	0	872415232	21	5104
2026-01-26 23:38:22.95	148.27	32.30	-30.1	-33.2	13.6	9.90e-06	0	44	0	873463808	20	5133
2026-01-26 23:38:23.95	148.52	32.14	-30.3	-33.6	13.4	1.14e-05	0	44	0	875560960	20	5262
2026-01-26 23:38:24.95	148.76	31.99	-30.6	-33.9	12.9	2.18e-03	0	44	0	877658112	21	5289
2026-01-26 23:38:25.96	149.00	31.83	-31.4	-35.8	11.1	7.21e-04	0	44	0	879755264	22	6024
2026-01-26 23:38:26.97	149.24	31.68	-31.9	-37.1	9.7	6.27e-03	0	44	0	881852416	23	6601
2026-01-26 23:38:27.97	149.48	31.53	-32.4	-39.0	7.9	3.67e-02	0	44	0	882900992	24	7681
2026-01-26 23:38:28.97	149.71	31.37	-32.2	-37.9	8.7	7.23e-02	0	44	0	884998144	24	6970
2026-01-26 23:38:29.97	149.94	31.22	-31.6	-35.5	10.5	8.77e-03	0	44	0	887095296	24	5689
2026-01-26 23:38:30.97	150.17	31.07	-30.8	-34.1	12.3	3.26e-03	0	44	0	889192448	22	5256
2026-01-26 23:38:31.98	150.40	30.91	-30.2	-33.0	13.4	2.33e-03	0	44	0	891289600	21	4930
2026-01-26 23:38:32.98	150.62	30.76	-29.9	-32.1	13.9	7.60e-06	0	44	0	892338176	21	4637
2026-01-26 23:38:33.99	150.85	30.61	-30.1	-33.0	13.7	1.52e-03	0	44	0	894435328	20	5045
2026-01-26 23:38:34.98	151.07	30.46	-30.2	-33.5	13.4	2.02e-03	0	44	0	896532480	20	5250
2026-01-26 23:38:35.99	151.29	30.31	-30.8	-34.6	12.2	1.07e-04	0	44	0	898629632	21	5594
2026-01-26 23:38:36.99	151.50	30.15	-31.2	-35.4	11.3	6.62e-04	0	44	0	900726784	22	5848
2026-01-26 23:38:37.99	151.72	30.00	-31.6	-36.2	10.4	5.28e-03	0	44	0	901775360	23	6131
2026-01-26 23:38:39.00	151.93	29.85	-31.6	-36.1	10.5	4.80e-03	0	44	0	903872512	23	6062
2026-01-26 23:38:40.00	152.14	29.70	-31.3	-35.8	11.0	2.41e-03	0	44	0	905969664	22	6036
2026-01-26 23:38:41.01	152.36	29.55	-31.0	-34.6	11.9	7.47e-04	0	44	0	908066816	22	5483
2026-01-26 23:38:42.01	152.56	29.40	-30.7	-33.9	12.4	2.31e-04	0	44	0	910163968	22	5181
2026-01-26 23:38:43.02	152.77	29.25	-30.6	-34.1	12.6	9.68e-05	0	44	0	911212544	21	5363
2026-01-26 23:38:44.02	152.97	29.11	-30.5	-33.7	12.8	8.39e-05	0	44	0	913309696	21	5249
2026-01-26 23:38:45.02	153.17	28.96	-30.5	-33.7	12.8	4.73e-05	0	44	0	915406848	21	5224
2026-01-26 23:38:46.03	153.38	28.81	-30.7	-34.4	12.4	1.40e-04	0	44	0	917504000	21	5511
2026-01-26 23:38:47.03	153.57	28.66	-30.9	-35.0	11.9	3.39e-04	0	44	0	919601152	21	5801
2026-01-26 23:38:48.04	153.77	28.51	-30.9	-35.0	11.9	3.68e-04	0	44	0	920649728	21	5753
2026-01-26 23:38:49.05	153.97	28.37	-30.8	-34.7	12.2	1.93e-03	0	44	0	922746880	21	5636
2026-01-26 23:38:50.05	154.16	28.22	-30.4	-33.6	12.8	1.04e-04	0	44	0	924844032	21	5195
2026-01-26 23:38:51.06	154.35	28.07	-30.2	-33.1	13.3	2.28e-05	0	44	0	926941184	21	4981
2026-01-26 23:38:52.06	154.54	27.93	-30.2	-33.3	13.4	2.21e-05	0	44	0	929038336	20	5170
2026-01-26 23:38:53.07	154.73	27.78	-29.6	-31.7	14.4	0.00e+00	0	44	0	930086912	20	4621
2026-01-26 23:38:54.07	154.92	27.64	-29.5	-31.6	14.5	0.00e+00	0	44	0	932184064	20	4577
2026-01-26 23:38:55.07	155.10	27.50	-29.7	-32.4	14.4	7.00e-07	0	44	0	934281216	19	4950
2026-01-26 23:38:56.08	155.29	27.35	-29.7	-32.6	14.3	7.00e-07	0	44	0	936378368	19	5003
2026-01-26 23:38:57.08	155.47	27.21	-30.0	-33.0	13.6	3.80e-06	0	44	0	937426944	20	5054
2026-01-26 23:38:58.08	155.65	27.07	-30.1	-33.3	13.4	5.30e-06	0	44	0	939524096	20	5161
2026-01-26 23:38:59.09	155.83	26.93	-30.3	-33.8	13.1	1.37e-05	0	44	0	941621248	20	5382
2026-01-26 23:39:00.09	156.00	26.78	-30.4	-34.0	12.9	4.73e-05	0	44	0	943718400	20	5449
2026-01-26 23:39:01.10	156.18	26.64	-30.6	-34.1	12.6	8.77e-05	0	44	0	945815552	21	5378
2026-01-26 23:39:02.10	156.35	26.50	-30.7	-34.3	12.4	1.14e-04	0	44	0	946864128	21	5466
2026-01-26 23:39:03.10	156.52	26.36	-30.3	-33.2	13.1	5.26e-05	0	44	0	948961280	21	5052
2026-01-26 23:39:04.10	156.70	26.22	-30.0	-33.1	13.5	1.90e-05	0	44	0	951058432	20	5094
2026-01-26 23:39:05.10	156.86	26.08	-29.8	-32.5	13.9	3.80e-06	0	44	0	953155584	20	4877
2026-01-26 23:39:06.10	157.03	25.95	-29.8	-32.3	14.0	2.20e-06	0	44	0	955252736	20	4836
2026-01-26 23:39:07.11	157.20	25.81	-29.7	-32.7	14.2	2.20e-06	0	44	0	956301312	19	5058
2026-01-26 23:39:08.11	157.36	25.67	-29.7	-32.6	14.2	7.00e-07	0	44	0	958398464	19	5029
2026-01-26 23:39:09.11	157.53	25.53	-29.0	-32.1	13.6	2.20e-06	0	44	0	960495616	19	5133
2026-01-26 23:39:10.11	157.69	25.39	-29.7	-32.5	13.7	2.20e-06	0	44	0	962592768	19	4981
2026-01-26 23:39:11.10	157.85	25.26	-29.7	-32.6	14.2	7.00e-07	0	44	0	964689920	19	5028
2026-01-26 23:39:12.11	158.01	25.12	-29.8	-33.0	13.3	7.00e-07	0	44	0	965738496	19	5167
2026-01-26 23:39:13.11	158.17	24.99	-29.9	-33.0	13.3	1.90e-03	0	44	0	967835648	19	5172
2026-01-26 23:39:14.11	158.32	24.85	-30.0	-33.0	13.6	5.30e-06	0	44	0	969932800	20	5080
2026-01-26 23:39:15.11	158.48	24.72	-30.1	-33.3	13.2	1.90e-05	0	44	0	972029952	20	5211
2026-01-26 23:39:16.11	158.63	24.59	-30.3	-34.0	12.9	2.67e-05	0	44	0	974127104	20	5455
2026-01-26 23:39:17.12	158.79	24.45	-30.5	-33.9	12.5	8.39e-05	0	44	0	975175680	21	5342
2026-01-26 23:39:18.12	158.94	24.32	-30.5	-33.9	12.5	1.36e-04	0	44	0	977272832	21	5332
2026-01-26 23:39:19.12	159.09	24.19	-30.6	-34.1	12.4	1.34e-04	0	44	0	979369984	21	5423
2026-01-26 23:39:20.12	159.24	24.05	-30.3	-33.2	13.0	5.11e-05	0	44	0	981467136	21	5052
2026-01-26 23:39:21.12	159.39	23.92	-29.9	-32.7	13.6	1.29e-05	0	44	0	982515712	20	4989
2026-01-26 23:39:22.12	159.53	23.79	-29.9	-33.0	13.9	6.10e-06	0	44	0	984612864	19	5192
2026-01-26 23:39:23.13	159.68	23.66	-29.7	-32.6	14.1	5.30e-06	0	44	0	986710016	19	5042
2026-01-26 23:39:24.13	159.82	23.53	-29.7	-32.6	14.1	2.24e-03	0	44	0	988807168	19	5036
2026-01-26 23:39:25.13	159.97	23.40	-29.8	-33.0	13.9	3.80e-06	0	44	0	990904320	19	5164
2026-01-26 23:39:26.13	160.11	23.27	-29.8	-33.0	13.9	2.20e-06	0	44	0	991952896	19	5184
2026-01-26 23:39:27.13	160.25	23.14	-30.1	-33.2	13.2	2.19e-03	0	44	0	994050048	20	5177
2026-01-26 23:39:28.13	160.39	23.01	-30.4	-34.1	12.6	4.73e-05	0	44	0	996147200	20	5514
2026-01-26 23:39:29.14	160.53	22.89	-30.3	-33.9	12.9	6.40e-05	0	44	0	998244352	20	5440
2026-01-26 23:39:30.13	160.67	22.76	-30.3	-34.0	12.6	7.01e-05	0	44	0	1000341504	20	5509
2026-01-26 23:39:31.14	160.80	22.63	-30.4	-34.3	12.6	2.43e-03	0	44	0	1001390080	20	5606
2026-01-26 23:39:32.15	160.94	22.50	-30.5	-34.4	12.5	1.28e-04	0	44	0	1003487232	20	5674
2026-01-26 23:39:33.15	161.08	22.38	-30.1	-33.4	13.2	5.41e-05	0	44	0	1005584384	20	5254
2026-01-26 23:39:34.16	161.21	22.25	-29.9	-32.7	13.6	2.34e-03	0	44	0	1007681536	20	5001
2026-01-26 23:39:35.17	161.34	22.13	-29.7	-32.4	13.9	3.28e-05	0	44	0	1009778688	20	4860
2026-01-26 23:39:36.17	161.47	22.00	-29.7	-32.7	13.7	2.41e-03	0	44	0	1010827264	19	5129
2026-01-26 23:39:37.17	161.60	21.88	-29.7	-33.0	13.6	4.02e-03	0	44	0	1012924416	19	5230
2026-01-26 23:39:38.18	161.74	21.75	-29.6	-32.7	13.7	2.44e-03	0	44	0	1015021568	19	5109
2026-01-26 23:39:39.19	161.86	21.63	-29.6	-32.6	13.6	6.10e-03	0	44	0	1017118720	19	5073
2026-01-26 23:39:40.19	161.99	21.51	-29.6	-32.6	13.7	9.00e-03	0	44	0	1019215872	19	5068
2026-01-26 23:39:41.19	162.12	21.38	-29.7	-32.9	13.7	1.43e-03	0	44	0	1020264448	19	5177
2026-01-26 23:39:42.19	162.24	21.26	-29.7	-32.8	13.6	6.88e-03	0	44	0	1022361600	19	5167
2026-01-26 23:39:43.20	162.37	21.14	-29.7	-33.0	13.5	8.07e-03	0	44	0	1024458752	19	5254
2026-01-26 23:39:44.20	162.49	21.02	-29.8	-33.3	13.4	8.89e-04	0	44	0	1026555904	19	5351
2026-01-26 23:39:45.20	162.62	20.90	-29.8	-33.2	13.4	3.35e-03	0	44	0	1028653056	19	5337
2026-01-26 23:39:46.21	162.74	20.78	-29.8	-33.2	13.4	2.41e-03	0	44	0	1029701632	19	5314
2026-01-26 23:39:47.21	162.86	20.66	-29.9	-33.5	13.1	7.37e-03	0	44	0	1031798784	19	5470
2026-01-26 23:39:48.22	162.98	20.54	-29.8	-33.3	13.2	8.21e-03	0	44	0	1033895936	19	5419
2026-01-26 23:39:49.22	163.10	20.42	-30.1	-33.4	13.1	2.44e-03	0	44	0	1035993088	20	5261
2026-01-26 23:39:50.23	163.22	20.30	-30.2	-33.7	12.9	3.50e-05	0	44	0	1038090240	20	5390
2026-01-26 23:39:51.23	163.33	20.18	-30.1	-33.6	13.0	2.78e-03	0	44	0	1039138816	20	5361
2026-01-26 23:39:52.24	163.45	20.06	-30.2	-33.7	12.9	2.75e-03	0	44	0	1041235968	20	5377
2026-01-26 23:39:53.25	163.57	19.95	-30.3	-34.0	12.7	1.87e-04	0	44	0	1043333120	20	5519
2026-01-26 23:39:54.25	163.68	19.83	-30.2	-33.8	12.8	2.65e-03	0	44	0	1045430272	20	5426
2026-01-26 23:39:55.25	163.80	19.71	-30.2	-33.9	12.7	2.46e-03	0	44	0	1047527424	20	5483
2026-01-26 23:39:56.26	163.91	19.60	-30.1	-33.6	12.9	1.30e-04	0	44	0	1048576000	20	5368
2026-01-26 23:39:57.26	164.02	19.48	-30.1	-33.5	13.0	2.45e-03	0	44	0	1050673152	20	5320
2026-01-26 23:39:58.26	164.13	19.37	-30.1	-33.4	13.1	2.67e-03	0	44	0	1052770304	20	5274
2026-01-26 23:39:59.26	164.24	19.25	-30.1	-33.4	13.1	1.23e-04	0	44	0	1054867456	20	5258
2026-01-26 23:40:00.27	164.35	19.14	-30.0	-33.2	13.2	2.37e-03	0	44	0	1055916032	20	5171
2026-01-26 23:40:01.27	164.46	19.03	-30.0	-33.3	13.2	2.61e-03	0	44	0	1058013184	20	5218
2026-01-26 23:40:02.27	164.57	18.91	-30.1	-33.4	13.0	1.26e-04	0	44	0	1060110336	20	5270
2026-01-26 23:40:03.28	164.68	18.80	-30.1	-33.3	13.2	2.57e-03	0	44	0	1062207488	20	5212
2026-01-26 23:40:04.28	164.79	18.69	-30.1	-33.4	13.0	2.34e-03	0	44	0	1064304640	20	5277
2026-01-26 23:40:05.28	164.89	18.58	-30.0	-33.2	13.2	1.18e-04	0	44	0	1065353216	20	5184
2026-01-26 23:40:06.28	165.00	18.46	-30.0	-33.2	13.2	2.44e-03	0	44	0	1067450368	20	5192
2026-01-26 23:40:07.29	165.10	18.35	-30.2	-33.5	13.0	2.54e-03	0	44	0	1069547520	20	5298
2026-01-26 23:40:08.29	165.21	18.24	-30.2	-33.7	12.8	1.59e-04	0	44	0	1071644672	20	5385
2026-01-26 23:40:09.29	165.31	18.13	-30.2	-33.6	12.9	2.72e-03	0	44	0	1073741824	20	5336
2026-01-26 23:40:10.30	165.41	18.02	-30.3	-34.0	12.7	2.63e-03	0	44	0	1074790400	20	5486
2026-01-26 23:40:11.30	165.51	17.91	-30.4	-34.1	12.6	1.19e-04	0	44	0	1076887552	20	5557
2026-01-26 23:40:12.30	165.61	17.80	-30.3	-33.9	12.7	2.71e-03	0	44	0	1078984704	20	5444
2026-01-26 23:40:13.31	165.72	17.69	-30.4	-34.3	12.5	2.53e-03	0	44	0	1081081856	20	5616
2026-01-26 23:40:14.31	165.82	17.59	-30.5	-33.9	12.4	1.81e-04	0	44	0	1083179008	21	5353
2026-01-26 23:40:15.31	165.91	17.48	-30.3	-33.9	12.7	2.46e-03	0	44	0	1084227584	20	5472
2026-01-26 23:40:16.31	166.01	17.37	-30.2	-33.6	12.9	2.66e-03	0	44	0	1086324736	20	5344
2026-01-26 23:40:17.32	166.11	17.26	-30.1	-33.4	13.0	2.46e-04	0	44	0	1088421888	20	5266
2026-01-26 23:40:18.32	166.21	17.16	-30.1	-33.4	13.0	3.14e-04	0	44	0	1090519040	20	5267
2026-01-26 23:40:19.32	166.30	17.05	-30.1	-33.4	13.0	2.51e-03	0	44	0	1092616192	20	5274
2026-01-26 23:40:20.33	166.40	16.94	-30.2	-33.6	12.9	2.41e-04	0	44	0	1093664768	20	5353
2026-01-26 23:40:21.33	166.49	16.84	-30.0	-33.0	13.2	2.36e-05	0	44	0	1095761920	20	5130
2026-01-26 23:40:22.33	166.59	16.73	-30.0	-33.5	13.3	4.46e-04	0	44	0	1097859072	19	5398
2026-01-26 23:40:23.33	166.68	16.63	-30.1	-33.5	13.0	2.01e-04	0	44	0	1099956224	20	5291
2026-01-26 23:40:24.33	166.77	16.53	-30.2	-33.7	12.7	9.23e-05	0	44	0	1101004800	20	5395
2026-01-26 23:40:25.34	166.87	16.42	-30.1	-33.4	13.0	4.80e-05	0	44	0	1103101952	20	5275
2026-01-26 23:40:26.34	166.96	16.32	-30.2	-33.7	12.8	2.93e-04	0	44	0	1105199104	20	5408
2026-01-26 23:40:27.34	167.05	16.21	-30.3	-34.0	12.5	3.05e-03	0	44	0	1107296256	20	5535
2026-01-26 23:40:28.34	167.14	16.11	-30.3	-34.0	12.6	1.06e-04	0	44	0	1109393408	20	5537
2026-01-26 23:40:29.34	167.23	16.01	-30.4	-34.4	12.3	1.70e-04	0	44	0	1110441984	20	5708
2026-01-26 23:40:30.34	167.32	15.91	-30.5	-34.4	12.3	2.95e-03	0	44	0	1112539136	20	5702
2026-01-26 23:40:31.35	167.41	15.80	-30.5	-34.2	12.1	2.79e-04	0	44	0	1114636288	21	5484
2026-01-26 23:40:32.35	167.50	15.70	-30.5	-34.1	12.2	2.37e-04	0	44	0	1116733440	21	5440
2026-01-26 23:40:33.36	167.59	15.60	-30.5	-34.2	12.0	2.90e-03	0	44	0	1118830592	21	5499
2026-01-26 23:40:34.36	167.67	15.50	-30.5	-34.6	12.0	2.75e-04	0	44	0	1119879168	20	5807
2026-01-26 23:40:35.36	167.76	15.40	-30.6	-34.5	11.8	3.38e-04	0	44	0	1121976320	21	5634
2026-01-26 23:40:36.36	167.84	15.30	-30.6	-34.4	11.8	6.05e-04	0	44	0	1124073472	21	5614
2026-01-26 23:40:37.36	167.93	15.20	-30.4	-33.9	12.2	3.01e-03	0	44	0	1126170624	21	5392
2026-01-26 23:40:38.36	168.01	15.10	-30.2	-33.9	12.5	1.13e-04	0	44	0	1128267776	20	5528
2026-01-26 23:40:39.36	168.10	15.00	-30.0	-33.5	12.8	8.39e-05	0	44	0	1129316352	20	5374
2026-01-26 23:40:40.36	168.18	14.91	-30.0	-33.4	12.9	6.43e-04	0	44	0	1131413504	20	5325
2026-01-26 23:40:41.37	168.27	14.81	-30.0	-33.3	12.9	5.87e-05	0	44	0	1133510656	20	5288
2026-01-26 23:40:42.37	168.35	14.71	-30.0	-33.3	12.9	6.56e-05	0	44	0	1135607808	20	5302
2026-01-26 23:40:43.38	168.43	14.61	-29.9	-33.1	13.0	2.74e-05	0	44	0	1137704960	20	5206
2026-01-26 23:40:44.38	168.51	14.51	-30.0	-33.3	12.9	2.15e-04	0	44	0	1138753536	20	5273
2026-01-26 23:40:45.38	168.60	14.42	-30.0	-33.7	13.0	3.50e-05	0	44	0	1140850688	19	5535
2026-01-26 23:40:46.38	168.68	14.32	-30.1	-33.7	12.7	4.95e-05	0	44	0	1142947840	20	5423
2026-01-26 23:40:47.37	168.76	14.23	-30.2	-33.9	12.5	1.36e-04	0	44	0	1145044992	20	5539
2026-01-26 23:40:48.38	168.84	14.13	-30.0	-33.3	12.9	7.01e-05	0	44	0	1146093568	20	5273
2026-01-26 23:40:49.39	168.92	14.03	-29.9	-33.1	13.0	3.81e-05	0	44	0	1148190720	20	5205
2026-01-26 23:40:50.39	168.99	13.94	-30.1	-33.7	12.6	8.01e-05	0	44	0	1150287872	20	5421
2026-01-26 23:40:51.40	169.07	13.84	-30.1	-33.7	12.6	2.06e-03	0	44	0	1152385024	20	5447
2026-01-26 23:40:52.40	169.15	13.75	-30.2	-34.0	12.4	1.21e-04	0	44	0	1154482176	20	5552
2026-01-26 23:40:53.41	169.23	13.65	-30.3	-34.1	12.3	1.62e-04	0	44	0	1156579328	20	5599
2026-01-26 23:40:54.41	169.31	13.56	-30.3	-34.4	12.2	1.75e-04	0	44	0	1157627904	20	5720
2026-01-26 23:40:55.41	169.38	13.47	-30.4	-34.6	11.9	3.42e-04	0	44	0	1159725056	20	5820
2026-01-26 23:40:56.41	169.46	13.37	-30.4	-34.5	12.1	3.53e-04	0	44	0	1161822208	20	5773
2026-01-26 23:40:57.42	169.53	13.28	-30.3	-34.2	12.2	2.53e-04	0	44	0	1163919360	20	5656
2026-01-26 23:40:58.43	169.61	13.19	-30.3	-34.4	12.1	2.76e-04	0	44	0	1164967936	20	5718
2026-01-26 23:40:59.44	169.68	13.09	-30.4	-34.5	12.0	2.93e-04	0	44	0	1167065088	20	5794
2026-01-26 23:41:00.44	169.76	13.00	-30.4	-34.6	11.9	3.70e-04	0	44	0	1169162240	20	5826
2026-01-26 23:41:01.44	169.83	12.91	-30.5	-34.8	11.8	4.06e-04	0	44	0	1171259392	20	5917
2026-01-26 23:41:02.44	169.91	12.82	-30.5	-34.5	11.6	5.45e-04	0	44	0	1173356544	21	5686
2026-01-26 23:41:03.45	169.98	12.73	-30.7	-34.9	11.4	7.62e-04	0	44	0	1174405120	21	5853
2026-01-26 23:41:04.46	170.05	12.63	-30.3	-34.6	11.3	1.33e-03	0	44	0	1176502272	21	5881
2026-01-26 23:41:05.46	170.12	12.54	-30.6	-35.1	11.0	8.66e-04	0	44	0	1178599424	20	6076
2026-01-26 23:41:06.46	170.20	12.45	-30.5	-34.5	10.9	7.00e-04	0	44	0	1180696576	21	5669
2026-01-26 23:41:07.46	170.27	12.36	-30.5	-34.4	11.7	5.01e-04	0	44	0	1182793728	21	5623
2026-01-26 23:41:08.47	170.34	12.27	-30.5	-34.8	11.2	2.72e-03	0	44	0	1183842304	20	5920
2026-01-26 23:41:09.47	170.41	12.18	-30.4	-34.6	11.5	4.61e-04	0	44	0	1185939456	20	5858
2026-01-26 23:41:10.48	170.48	12.09	-30.3	-34.5	12.0	3.58e-04	0	44	0	1188036608	20	5782
2026-01-26 23:41:11.48	170.55	12.01	-30.3	-34.4	11.9	3.03e-04	0	44	0	1190133760	20	5773
2026-01-26 23:41:12.48	170.62	11.92	-30.2	-34.2	12.1	2.63e-04	0	44	0	1192230912	20	5665
2026-01-26 23:41:13.48	170.69	11.83	-30.3	-34.3	12.1	2.57e-04	0	44	0	1193279488	20	5699
2026-01-26 23:41:14.48	170.75	11.74	-30.4	-34.6	11.9	3.20e-04	0	44	0	1195376640	20	5825
2026-01-26 23:41:15.49	170.82	11.65	-30.4	-34.7	11.7	2.85e-03	0	44	0	1197473792	20	5917
2026-01-26 23:41:16.50	170.89	11.57	-30.4	-34.6	11.8	5.23e-04	0	44	0	1199570944	20	5870
2026-01-26 23:41:17.49	170.96	11.48	-30.3	-34.5	11.9	4.32e-04	0	44	0	1201668096	20	5793
2026-01-26 23:41:18.50	171.02	11.39	-30.3	-34.4	12.0	3.83e-04	0	44	0	1202716672	20	5757
2026-01-26 23:41:19.50	171.09	11.31	-30.4	-34.7	11.7	3.75e-04	0	44	0	1204813824	20	5907
2026-01-26 23:41:20.51	171.16	11.22	-30.4	-34.8	11.7	8.15e-04	0	44	0	1206910976	20	5955
2026-01-26 23:41:21.51	171.22	11.13	-30.4	-34.6	11.8	4.85e-04	0	44	0	1209008128	20	5876
2026-01-26 23:41:22.51	171.29	11.05	-30.4	-34.7	11.7	7.98e-04	0	44	0	1211105280	20	5914
2026-01-26 23:41:23.52	171.35	10.96	-30.4	-34.7	11.7	4.07e-04	0	44	0	1212153856	20	5915
2026-01-26 23:41:24.52	171.42	10.88	-30.6	-34.9	11.2	7.70e-04	0	44	0	1214251008	21	5887
2026-01-26 23:41:25.51	171.48	10.79	-30.6	-34.9	11.1	1.80e-03	0	44	0	1216348160	21	5903
2026-01-26 23:41:26.52	171.55	10.71	-30.5	-34.4	11.5	3.53e-03	0	44	0	1218445312	21	5667
2026-01-26 23:41:27.52	171.61	10.62	-30.3	-34.5	11.8	5.13e-04	0	44	0	1220542464	20	5805
2026-01-26 23:41:28.52	171.67	10.54	-30.3	-34.5	11.8	4.07e-04	0	44	0	1221591040	20	5798
2026-01-26 23:41:29.47	171.73	10.46	-30.5	-34.9	11.6	3.28e-03	0	44	0	1223688192	20	6007
2026-01-26 23:41:30.48	171.80	10.37	-30.7	-35.1	11.0	1.62e-03	0	44	0	1225785344	21	5969
2026-01-26 23:41:31.48	171.86	10.29	-30.7	-35.2	10.9	2.64e-03	0	44	0	1227882496	21	6046
2026-01-26 23:41:32.48	171.92	10.21	-30.7	-35.0	11.2	4.15e-03	0	44	0	1228931072	21	5911
2026-01-26 23:41:33.49	171.98	10.13	-30.7	-35.0	11.1	3.83e-03	0	44	0	1231028224	21	5937
2026-01-26 23:41:34.49	172.04	10.04	-30.7	-35.2	11.0	2.10e-03	0	44	0	1233125376	21	6015
2026-01-26 23:41:35.49	172.10	9.96	-30.8	-35.4	10.8	1.91e-03	0	44	0	1235222528	21	6113
2026-01-26 23:41:36.49	172.16	9.88	-30.8	-35.4	10.8	5.39e-03	0	44	0	1237319680	21	6108
2026-01-26 23:41:37.50	172.23	9.80	-30.8	-35.5	10.7	2.55e-03	0	44	0	1238368256	21	6157
2026-01-26 23:41:38.50	172.29	9.71	-30.9	-35.6	10.6	3.56e-03	0	44	0	1240465408	21	6205
2026-01-26 23:41:39.49	172.34	9.63	-30.9	-35.7	10.6	5.81e-03	0	44	0	1242562560	21	6257
2026-01-26 23:41:40.50	172.40	9.55	-31.0	-36.0	10.4	4.80e-03	0	44	0	1244659712	21	6394
2026-01-26 23:41:41.50	172.46	9.47	-31.0	-35.6	10.3	5.59e-03	0	44	0	1246756864	22	6104
2026-01-26 23:41:42.50	172.52	9.39	-31.1	-36.0	9.9	5.82e-03	0	44	0	1247805440	22	6326
2026-01-26 23:41:43.50	172.58	9.31	-31.2	-36.4	9.7	1.49e-02	0	44	0	1249902592	22	6506
2026-01-26 23:41:44.50	172.64	9.23	-31.0	-35.6	10.2	1.04e-02	0	44	0	1251999744	22	6118
2026-01-26 23:41:45.50	172.70	9.15	-30.9	-35.8	10.5	4.96e-03	0	44	0	1254096896	21	6301
2026-01-26 23:41:46.50	172.75	9.07	-30.9	-35.8	10.5	4.36e-03	0	44	0	1255145472	21	6309
2026-01-26 23:41:47.50	172.81	8.99	-31.0	-36.0	10.2	7.19e-03	0	44	0	1257242624	21	6443
2026-01-26 23:41:48.51	172.87	8.91	-31.1	-35.9	10.0	8.69e-03	0	44	0	1259339776	22	6258
2026-01-26 23:41:49.52	172.93	8.83	-31.0	-35.5	10.2	6.40e-03	0	44	0	1261436928	22	6065
2026-01-26 23:41:50.51	172.98	8.75	-30.9	-35.9	10.3	7.79e-03	0	44	0	1263534080	21	6388
2026-01-26 23:41:51.52	173.04	8.68	-30.9	-35.9	10.3	7.62e-03	0	44	0	1265631232	21	6406
2026-01-26 23:41:52.52	173.09	8.60	-30.9	-35.8	10.4	5.47e-03	0	44	0	1266679808	21	6328
2026-01-26 23:41:53.52	173.15	8.52	-31.0	-35.7	10.1	8.62e-03	0	44	0	1268776960	22	6177
2026-01-26 23:41:54.52	173.20	8.44	-31.1	-36.1	9.8	1.06e-02	0	44	0	1270874112	22	6385
2026-01-26 23:41:55.52	173.26	8.36	-31.1	-36.0	9.8	1.10e-02	0	44	0	1272971264	22	6325
2026-01-26 23:41:56.52	173.31	8.29	-31.0	-35.5	10.2	8.56e-03	0	44	0	1274019840	22	6075
2026-01-26 23:41:57.52	173.37	8.21	-30.8	-35.6	10.5	6.61e-03	0	44	0	1276116992	21	6230
2026-01-26 23:41:58.52	173.42	8.13	-30.8	-35.4	10.6	3.39e-03	0	44	0	1278214144	21	6120
2026-01-26 23:41:59.53	173.48	8.05	-30.8	-35.6	10.5	4.64e-03	0	44	0	1280311296	21	6247
2026-01-26 23:42:00.52	173.53	7.98	-30.9	-35.7	10.3	7.84e-03	0	44	0	1282408448	21	6314
2026-01-26 23:42:01.52	173.58	7.90	-30.8	-35.5	10.5	3.65e-03	0	44	0	1283457024	21	6173
2026-01-26 23:42:02.52	173.64	7.83	-30.9	-36.0	10.2	5.65e-03	0	44	0	1285554176	21	6430
2026-01-26 23:42:03.53	173.69	7.75	-30.9	-36.0	10.1	9.07e-03	0	44	0	1287651328	21	6472
