passes_logs/2026/01/26/R2M6_AANII_01/R2M6_AANII_01__20260126_024948_SUOMI_NPP_rec.log

#Pass ID: 20260126_024948_SUOMI NPP
#Satellite: SUOMI NPP
#Configuration: NPP
#almurnet v.1.7.20240730
#Start time: 2026-01-26 02:49:48

#Version: 2.2.20231116
#Station: R2M6_AANII_01
#Location: 30.233357 lon 59.946436 lat
#TLE: 1 37849U 11061A   26025.53586395  .00000179  00000+0  10601-3 0  9996
#TLE: 2 37849  98.7821 327.4943 0002169  45.6246 314.5108 14.19529815738202

#Time	Az	El	Level	Level2	SNR	BER	BlckErr	Temp	State	Recorded	gain1	gain2
2026-01-26 02:49:48.51	9.00	6.99	-32.2	-41.4	3.9	1.48e+00	0	41	0	0	24	10398
2026-01-26 02:49:49.51	8.89	7.05	-32.0	-39.9	4.1	1.43e+00	0	42	104	0	24	8903
2026-01-26 02:49:50.51	8.78	7.10	-32.0	-39.4	4.9	7.95e-01	0	41	0	0	24	8433
2026-01-26 02:49:51.51	8.67	7.16	-32.0	-39.4	4.2	1.42e+00	0	42	104	0	24	8416
2026-01-26 02:49:52.52	8.56	7.22	-32.0	-39.6	5.0	6.61e-01	0	42	0	0	23	8677
2026-01-26 02:49:53.52	8.45	7.27	-32.0	-39.1	5.0	6.95e-01	0	42	0	2097152	24	8189
2026-01-26 02:49:54.52	8.34	7.33	-32.0	-39.5	4.9	6.60e-01	0	42	0	3145728	24	8465
2026-01-26 02:49:55.53	8.23	7.39	-32.0	-39.4	4.9	7.33e-01	0	41	0	5242880	24	8409
2026-01-26 02:49:56.53	8.11	7.45	-32.0	-39.5	4.8	7.20e-01	0	42	0	7340032	24	8535
2026-01-26 02:49:57.54	8.00	7.50	-32.1	-39.9	4.7	9.36e-01	0	42	0	9437184	24	8864
2026-01-26 02:49:58.54	7.89	7.56	-32.0	-39.1	5.1	6.66e-01	0	42	0	10485760	24	8132
2026-01-26 02:49:59.54	7.77	7.62	-31.9	-38.8	5.6	4.96e-01	0	42	0	12582912	23	7956
2026-01-26 02:50:00.54	7.66	7.67	-31.9	-39.0	5.5	4.09e-01	0	42	0	14680064	23	8105
2026-01-26 02:50:01.55	7.54	7.73	-31.9	-38.5	5.8	4.73e-01	0	42	0	16777216	23	7718
2026-01-26 02:50:02.55	7.43	7.79	-31.8	-37.8	6.2	2.95e-01	0	42	0	18874368	23	7218
2026-01-26 02:50:03.55	7.31	7.85	-31.7	-37.5	6.4	2.81e-01	0	42	102	19922944	23	6981
2026-01-26 02:50:04.56	7.20	7.90	-31.7	-37.6	6.4	2.41e-01	0	42	102	19922944	23	7037
2026-01-26 02:50:05.56	7.08	7.96	-31.8	-37.7	6.3	2.82e-01	0	42	102	19922944	23	7137
2026-01-26 02:50:06.56	6.97	8.02	-31.7	-37.5	6.5	2.53e-01	0	42	102	19922944	23	7029
2026-01-26 02:50:07.55	6.85	8.07	-31.8	-37.9	6.3	2.44e-01	0	42	102	19922944	23	7255
2026-01-26 02:50:08.56	6.73	8.13	-31.8	-37.9	6.2	3.00e-01	0	42	102	19922944	23	7288
2026-01-26 02:50:09.56	6.61	8.19	-31.7	-37.1	6.8	2.25e-01	0	42	102	19922944	23	6710
2026-01-26 02:50:10.57	6.49	8.25	-31.6	-36.6	7.1	1.73e-01	0	42	102	19922944	23	6400
2026-01-26 02:50:11.57	6.37	8.30	-31.4	-35.6	7.9	8.21e-02	0	42	102	19922944	23	5891
2026-01-26 02:50:12.57	6.25	8.36	-31.0	-34.4	9.2	3.67e-02	0	42	102	19922944	22	5380
2026-01-26 02:50:13.58	6.13	8.42	-31.0	-34.8	9.0	2.63e-02	0	42	102	19922944	22	5533
2026-01-26 02:50:14.58	6.01	8.48	-30.7	-34.2	9.8	2.05e-02	0	42	102	19922944	21	5349
2026-01-26 02:50:15.59	5.89	8.53	-30.8	-34.4	9.6	1.47e-02	0	42	102	19922944	21	5471
2026-01-26 02:50:16.60	5.77	8.59	-30.7	-34.0	9.9	8.94e-03	0	42	102	19922944	21	5273
2026-01-26 02:50:17.60	5.65	8.65	-30.6	-33.7	10.2	7.67e-03	0	42	102	19922944	21	5145
2026-01-26 02:50:18.61	5.52	8.71	-30.7	-33.9	10.0	7.53e-03	0	42	102	19922944	21	5227
2026-01-26 02:50:19.62	5.40	8.76	-30.7	-33.9	10.0	8.09e-03	0	43	102	19922944	21	5230
2026-01-26 02:50:20.62	5.27	8.82	-30.6	-33.8	10.1	8.71e-03	0	42	102	19922944	21	5200
2026-01-26 02:50:21.63	5.15	8.88	-30.7	-34.1	9.8	9.79e-03	0	42	102	19922944	21	5332
2026-01-26 02:50:22.63	5.02	8.94	-30.7	-34.0	10.0	8.88e-03	0	43	102	19922944	21	5268
2026-01-26 02:50:23.64	4.90	8.99	-30.9	-34.8	9.4	9.38e-03	0	43	102	19922944	21	5642
2026-01-26 02:50:24.65	4.77	9.05	-30.8	-34.2	9.7	2.00e-02	0	43	102	19922944	21	5362
2026-01-26 02:50:25.66	4.64	9.11	-30.6	-33.8	10.1	7.93e-03	0	42	102	19922944	21	5164
2026-01-26 02:50:26.66	4.52	9.17	-30.6	-33.8	10.1	7.97e-03	0	43	102	19922944	21	5181
2026-01-26 02:50:27.66	4.39	9.22	-30.5	-33.4	10.5	5.49e-03	0	43	102	19922944	21	5002
2026-01-26 02:50:28.66	4.26	9.28	-30.5	-33.4	10.4	4.21e-03	0	43	102	19922944	21	5029
2026-01-26 02:50:29.67	4.13	9.34	-30.6	-33.6	10.3	5.60e-03	0	43	102	19922944	21	5103
2026-01-26 02:50:30.68	4.00	9.40	-30.6	-33.8	10.2	5.97e-03	0	43	102	19922944	21	5162
2026-01-26 02:50:31.68	3.88	9.46	-30.7	-33.9	10.1	5.04e-03	0	43	102	19922944	21	5213
2026-01-26 02:50:32.69	3.74	9.51	-30.7	-34.1	10.0	6.36e-03	0	43	102	19922944	21	5278
2026-01-26 02:50:33.70	3.61	9.57	-30.8	-34.1	10.0	8.98e-03	0	43	102	19922944	21	5308
2026-01-26 02:50:34.70	3.48	9.63	-30.7	-34.1	10.0	7.60e-03	0	43	102	19922944	21	5301
2026-01-26 02:50:35.70	3.35	9.68	-30.6	-33.7	10.3	5.45e-03	0	43	102	19922944	21	5130
2026-01-26 02:50:36.71	3.22	9.74	-30.7	-34.0	10.1	4.57e-03	0	43	102	19922944	21	5244
2026-01-26 02:50:37.72	3.09	9.80	-30.6	-33.7	10.3	6.72e-03	0	43	102	19922944	21	5118
2026-01-26 02:50:38.72	2.95	9.86	-30.5	-33.1	10.8	2.96e-03	0	43	102	19922944	21	4858
2026-01-26 02:50:39.73	2.82	9.92	-30.5	-33.2	10.6	3.66e-03	0	43	102	19922944	21	4931
2026-01-26 02:50:40.74	2.68	9.97	-30.4	-33.6	10.7	2.25e-03	0	43	102	19922944	20	5162
2026-01-26 02:50:41.74	2.55	10.03	-30.1	-33.1	10.5	4.50e-03	0	43	102	19922944	21	5065
2026-01-26 02:50:42.74	2.41	10.09	-29.4	-32.3	10.5	3.72e-03	0	43	102	19922944	21	5013
2026-01-26 02:50:43.75	2.28	10.14	-30.7	-34.0	10.1	4.30e-03	0	43	102	19922944	21	5244
2026-01-26 02:50:44.75	2.14	10.20	-30.8	-34.1	9.7	9.72e-03	0	43	102	19922944	21	5319
2026-01-26 02:50:45.75	2.00	10.26	-30.6	-33.6	9.8	5.49e-03	0	43	102	19922944	21	5083
2026-01-26 02:50:46.75	1.87	10.32	-30.5	-33.1	10.6	3.46e-03	0	43	102	19922944	21	4898
2026-01-26 02:50:47.76	1.73	10.37	-30.4	-33.6	10.5	2.87e-03	0	43	102	19922944	20	5189
2026-01-26 02:50:48.75	1.59	10.43	-30.4	-33.4	10.8	5.00e-03	0	43	102	19922944	20	5093
2026-01-26 02:50:49.76	1.45	10.49	-30.4	-33.4	10.8	2.85e-03	0	43	102	19922944	20	5115
2026-01-26 02:50:50.76	1.31	10.54	-30.6	-33.6	10.3	4.61e-03	0	43	102	19922944	21	5098
2026-01-26 02:50:51.76	1.17	10.60	-30.6	-33.7	10.3	8.64e-03	0	43	102	19922944	21	5122
2026-01-26 02:50:52.77	1.03	10.66	-30.6	-33.6	10.3	4.90e-03	0	43	102	19922944	21	5076
2026-01-26 02:50:53.78	0.89	10.71	-30.8	-34.1	10.0	5.86e-03	0	43	102	19922944	21	5305
2026-01-26 02:50:54.79	0.74	10.77	-30.6	-33.7	10.3	7.13e-03	0	43	102	19922944	21	5124
2026-01-26 02:50:55.80	0.60	10.83	-30.6	-33.5	10.4	4.42e-03	0	43	102	19922944	21	5028
2026-01-26 02:50:56.80	0.46	10.89	-30.7	-33.8	10.2	4.37e-03	0	43	102	19922944	21	5173
2026-01-26 02:50:57.81	0.31	10.94	-30.6	-33.6	10.4	4.57e-03	0	43	102	19922944	21	5086
2026-01-26 02:50:58.81	0.17	11.00	-30.3	-33.2	11.0	2.94e-03	0	43	102	19922944	20	4986
2026-01-26 02:50:59.81	0.03	11.06	-30.4	-33.4	10.9	4.93e-03	0	43	102	19922944	20	5101
2026-01-26 02:51:00.82	359.88	11.11	-30.6	-33.5	10.4	2.94e-03	0	43	102	19922944	21	5052
2026-01-26 02:51:01.82	359.73	11.17	-30.7	-33.9	10.2	5.03e-03	0	43	102	19922944	21	5212
2026-01-26 02:51:02.82	359.59	11.23	-30.6	-33.6	10.4	8.28e-03	0	43	102	19922944	21	5089
2026-01-26 02:51:03.82	359.44	11.28	-30.5	-33.2	10.7	3.37e-03	0	43	102	19922944	21	4937
2026-01-26 02:51:04.83	359.29	11.34	-30.4	-33.3	11.0	2.05e-03	0	43	102	19922944	20	5065
2026-01-26 02:51:05.83	359.14	11.39	-30.5	-33.7	10.8	5.82e-03	0	43	102	19922944	20	5190
2026-01-26 02:51:06.84	358.99	11.45	-30.3	-33.2	11.0	5.23e-03	0	43	102	19922944	20	5010
2026-01-26 02:51:07.83	358.85	11.51	-30.4	-33.3	11.0	2.18e-03	0	44	102	19922944	20	5046
2026-01-26 02:51:08.83	358.70	11.56	-30.4	-33.3	11.1	4.46e-03	0	43	102	19922944	20	5040
2026-01-26 02:51:09.84	358.55	11.62	-30.3	-33.1	11.2	4.15e-03	0	43	102	19922944	20	4967
2026-01-26 02:51:10.85	358.39	11.68	-30.3	-33.1	11.1	1.68e-03	0	43	102	19922944	20	4981
2026-01-26 02:51:11.85	358.24	11.73	-30.3	-33.2	11.1	1.28e-03	0	43	102	19922944	20	5000
2026-01-26 02:51:12.85	358.09	11.79	-30.5	-33.3	10.7	6.15e-03	0	43	102	19922944	21	4948
2026-01-26 02:51:13.86	357.94	11.84	-30.7	-33.8	10.3	4.20e-03	0	43	102	19922944	21	5159
2026-01-26 02:51:14.86	357.78	11.90	-30.7	-33.9	10.3	5.66e-03	0	44	102	19922944	21	5180
2026-01-26 02:51:15.87	357.63	11.95	-30.9	-34.4	9.9	9.03e-03	0	43	102	19922944	21	5397
2026-01-26 02:51:16.87	357.47	12.01	-30.7	-33.8	10.4	6.41e-03	0	43	102	19922944	21	5173
2026-01-26 02:51:17.87	357.32	12.06	-30.6	-33.6	10.5	6.77e-03	0	43	102	19922944	21	5083
2026-01-26 02:51:18.88	357.16	12.12	-30.5	-33.2	10.8	5.15e-03	0	43	102	19922944	21	4931
2026-01-26 02:51:19.88	357.01	12.18	-30.6	-33.6	10.5	3.95e-03	0	44	102	19922944	21	5065
2026-01-26 02:51:20.88	356.85	12.23	-30.6	-33.6	10.5	7.10e-03	0	43	102	19922944	21	5052
2026-01-26 02:51:21.89	356.69	12.29	-30.8	-34.1	10.1	5.16e-03	0	44	102	19922944	21	5285
2026-01-26 02:51:22.90	356.53	12.34	-30.7	-33.8	10.3	7.04e-03	0	44	102	19922944	21	5152
2026-01-26 02:51:23.90	356.37	12.40	-30.7	-33.8	10.3	8.72e-03	0	43	102	19922944	21	5171
2026-01-26 02:51:24.90	356.21	12.45	-30.8	-34.2	10.2	8.57e-03	0	43	102	19922944	21	5308
2026-01-26 02:51:25.90	356.05	12.51	-30.6	-33.4	10.7	3.59e-03	0	44	102	19922944	21	4977
2026-01-26 02:51:26.91	355.89	12.56	-30.6	-33.4	10.7	6.45e-03	0	44	102	19922944	21	4988
2026-01-26 02:51:27.91	355.73	12.61	-30.4	-33.3	11.1	4.78e-03	0	44	102	19922944	20	5036
2026-01-26 02:51:28.92	355.57	12.67	-30.4	-33.3	11.1	1.90e-03	0	44	102	19922944	20	5039
2026-01-26 02:51:29.93	355.40	12.72	-30.5	-33.2	10.8	5.59e-03	0	44	102	19922944	21	4915
2026-01-26 02:51:30.93	355.24	12.78	-30.6	-33.6	10.4	4.65e-03	0	43	102	19922944	21	5087
2026-01-26 02:51:31.94	355.08	12.83	-30.7	-33.8	10.3	5.35e-03	0	44	102	19922944	21	5175
2026-01-26 02:51:32.94	354.91	12.89	-30.7	-33.8	10.3	7.69e-03	0	44	102	19922944	21	5170
2026-01-26 02:51:33.95	354.74	12.94	-30.8	-34.3	10.0	7.93e-03	0	44	102	19922944	21	5342
2026-01-26 02:51:34.95	354.58	12.99	-30.8	-34.3	10.0	8.97e-03	0	44	102	19922944	21	5362
2026-01-26 02:51:35.95	354.41	13.05	-30.8	-34.0	10.2	4.98e-03	0	44	102	19922944	21	5248
2026-01-26 02:51:36.95	354.25	13.10	-30.6	-33.6	10.6	5.92e-03	0	44	102	19922944	21	5047
2026-01-26 02:51:37.96	354.08	13.16	-30.6	-33.5	10.6	4.02e-03	0	44	102	19922944	21	5031
2026-01-26 02:51:38.96	353.91	13.21	-30.4	-33.0	10.9	2.79e-03	0	44	102	19922944	21	4826
2026-01-26 02:51:39.96	353.74	13.26	-30.3	-33.0	11.4	3.53e-03	0	43	102	19922944	20	4898
2026-01-26 02:51:40.96	353.57	13.31	-30.3	-33.0	11.3	2.16e-03	0	44	102	19922944	20	4908
2026-01-26 02:51:41.96	353.40	13.37	-30.4	-33.5	10.9	4.25e-03	0	44	102	19922944	20	5117
2026-01-26 02:51:42.95	353.24	13.42	-30.3	-32.9	11.4	1.10e-03	0	44	102	19922944	20	4883
2026-01-26 02:51:43.96	353.06	13.47	-30.1	-32.4	11.7	1.53e-03	0	44	102	19922944	20	4710
2026-01-26 02:51:44.96	352.89	13.52	-29.8	-31.9	12.5	2.30e-03	0	44	102	19922944	19	4617
2026-01-26 02:51:45.97	352.72	13.58	-29.7	-31.7	12.7	9.61e-05	0	44	102	19922944	19	4524
2026-01-26 02:51:46.97	352.55	13.63	-29.8	-32.0	12.5	4.03e-04	0	44	102	19922944	19	4627
2026-01-26 02:51:47.97	352.37	13.68	-29.7	-31.7	12.7	2.08e-03	0	44	102	19922944	19	4522
2026-01-26 02:51:48.97	352.20	13.73	-29.9	-31.8	12.2	1.44e-03	0	44	102	19922944	20	4480
2026-01-26 02:51:49.98	352.02	13.78	-29.8	-31.9	12.5	1.88e-04	0	44	102	19922944	19	4612
2026-01-26 02:51:50.98	351.85	13.84	-29.8	-32.1	12.4	1.40e-03	0	44	102	19922944	19	4659
2026-01-26 02:51:51.98	351.67	13.89	-29.9	-31.9	12.2	1.07e-03	0	43	102	19922944	20	4510
2026-01-26 02:51:52.98	351.50	13.94	-30.1	-32.4	11.8	3.92e-04	0	44	102	19922944	20	4696
2026-01-26 02:51:53.98	351.32	13.99	-29.8	-31.6	12.4	6.61e-04	0	44	102	19922944	20	4400
2026-01-26 02:51:54.98	351.14	14.04	-29.7	-31.6	12.8	1.25e-03	0	44	102	19922944	19	4475
2026-01-26 02:51:55.99	350.96	14.09	-29.7	-31.6	12.8	5.46e-04	0	44	102	19922944	19	4488
2026-01-26 02:51:56.99	350.78	14.14	-29.6	-31.3	13.1	3.89e-05	0	44	102	19922944	19	4376
2026-01-26 02:51:58.00	350.60	14.19	-29.7	-31.5	12.9	9.81e-04	0	44	102	19922944	19	4462
2026-01-26 02:51:58.99	350.42	14.24	-29.7	-31.6	12.8	5.29e-04	0	44	102	19922944	19	4495
2026-01-26 02:51:59.99	350.24	14.29	-29.8	-31.9	12.6	5.79e-05	0	44	102	19922944	19	4589
2026-01-26 02:52:01.01	350.06	14.34	-29.9	-32.3	12.3	1.14e-04	0	44	102	19922944	19	4730
2026-01-26 02:52:02.01	349.88	14.39	-29.8	-31.8	12.6	7.27e-04	0	44	102	19922944	19	4563
2026-01-26 02:52:03.01	349.69	14.44	-29.7	-31.8	12.7	7.40e-05	0	44	102	19922944	19	4547
2026-01-26 02:52:04.01	349.51	14.49	-29.7	-31.7	12.7	7.62e-05	0	44	102	19922944	19	4529
2026-01-26 02:52:05.01	349.33	14.54	-29.8	-31.9	12.6	3.11e-04	0	44	102	19922944	19	4594
2026-01-26 02:52:06.01	349.14	14.59	-29.7	-31.7	12.7	2.56e-03	0	44	102	19922944	19	4532
2026-01-26 02:52:07.01	348.96	14.63	-29.9	-32.2	12.3	8.85e-05	0	44	102	19922944	19	4704
2026-01-26 02:52:08.02	348.77	14.68	-30.0	-32.2	12.0	2.17e-04	0	44	102	19922944	20	4612
2026-01-26 02:52:09.01	348.58	14.73	-30.0	-32.2	11.9	2.58e-03	0	44	102	19922944	20	4637
2026-01-26 02:52:10.01	348.40	14.78	-30.1	-32.3	11.9	4.35e-04	0	44	102	19922944	20	4669
2026-01-26 02:52:11.01	348.21	14.83	-29.9	-31.8	12.2	2.75e-04	0	44	102	19922944	20	4485
2026-01-26 02:52:12.01	348.02	14.87	-29.8	-32.0	12.5	1.52e-04	0	44	102	19922944	19	4646
2026-01-26 02:52:13.01	347.83	14.92	-29.8	-31.9	12.5	1.41e-03	0	44	102	19922944	19	4612
2026-01-26 02:52:14.01	347.64	14.97	-29.8	-32.0	12.6	9.53e-05	0	44	102	19922944	19	4629
2026-01-26 02:52:15.01	347.45	15.01	-29.5	-31.1	13.2	4.80e-05	0	44	102	19922944	19	4314
2026-01-26 02:52:16.02	347.26	15.06	-29.4	-30.7	13.4	9.30e-05	0	44	102	19922944	19	4206
2026-01-26 02:52:17.03	347.07	15.11	-29.4	-30.7	13.4	1.06e-05	0	44	102	19922944	19	4213
2026-01-26 02:52:18.02	346.88	15.15	-29.4	-31.4	13.3	9.10e-06	0	44	102	19922944	18	4513
2026-01-26 02:52:19.02	346.69	15.20	-29.4	-31.2	13.4	8.30e-06	0	44	102	19922944	18	4445
2026-01-26 02:52:20.02	346.49	15.25	-29.2	-30.8	13.6	8.30e-06	0	44	102	19922944	18	4311
2026-01-26 02:52:21.03	346.30	15.29	-29.0	-30.2	14.0	3.80e-06	0	44	102	19922944	18	4144
2026-01-26 02:52:22.03	346.11	15.34	-29.1	-30.5	13.9	3.00e-06	0	44	102	19922944	18	4223
2026-01-26 02:52:23.03	345.91	15.38	-29.2	-30.8	13.7	3.00e-06	0	44	102	19922944	18	4326
2026-01-26 02:52:24.04	345.71	15.43	-29.3	-30.9	13.7	5.30e-06	0	44	102	19922944	18	4345
2026-01-26 02:52:25.04	345.52	15.47	-29.7	-31.4	13.0	1.90e-05	0	44	102	19922944	19	4425
2026-01-26 02:52:26.04	345.32	15.51	-29.6	-31.3	13.1	4.42e-05	0	44	102	19922944	19	4366
2026-01-26 02:52:27.04	345.12	15.56	-29.9	-32.1	12.6	6.79e-05	0	44	102	19922944	19	4655
2026-01-26 02:52:28.05	344.92	15.60	-29.6	-31.2	13.1	5.95e-05	0	44	102	19922944	19	4365
2026-01-26 02:52:29.04	344.73	15.65	-29.4	-30.9	13.3	2.21e-05	0	44	102	19922944	19	4253
2026-01-26 02:52:30.05	344.53	15.69	-29.3	-30.4	13.7	1.06e-05	0	44	102	19922944	19	4094
2026-01-26 02:52:31.05	344.33	15.73	-29.1	-30.5	14.0	3.00e-06	0	44	102	19922944	18	4216
2026-01-26 02:52:32.06	344.13	15.77	-29.2	-30.8	13.8	4.50e-06	0	44	102	19922944	18	4302
2026-01-26 02:52:33.06	343.93	15.82	-29.2	-30.7	13.8	3.00e-06	0	44	102	19922944	18	4279
2026-01-26 02:52:34.07	343.72	15.86	-29.3	-30.9	13.7	6.80e-06	0	44	102	19922944	18	4340
2026-01-26 02:52:35.08	343.52	15.90	-29.3	-31.1	13.6	6.10e-06	0	44	102	19922944	18	4401
2026-01-26 02:52:36.09	343.31	15.94	-29.3	-31.0	13.6	1.06e-05	0	44	102	19922944	18	4391
2026-01-26 02:52:37.10	343.11	15.98	-29.4	-31.2	13.5	9.10e-06	0	44	102	19922944	18	4421
2026-01-26 02:52:38.10	342.91	16.02	-29.3	-30.9	13.7	4.50e-06	0	44	102	19922944	18	4351
2026-01-26 02:52:39.10	342.70	16.06	-29.2	-30.8	13.8	3.80e-06	0	44	102	19922944	18	4319
2026-01-26 02:52:40.10	342.50	16.10	-29.3	-31.0	13.5	6.80e-06	0	44	102	19922944	18	4384
2026-01-26 02:52:41.11	342.29	16.15	-29.4	-31.2	13.5	1.06e-05	0	44	102	19922944	18	4432
2026-01-26 02:52:42.12	342.08	16.18	-29.5	-31.5	13.4	9.10e-06	0	44	102	19922944	18	4518
2026-01-26 02:52:43.12	341.88	16.22	-29.4	-30.8	13.5	1.52e-05	0	44	102	19922944	19	4206
2026-01-26 02:52:44.12	341.67	16.26	-29.7	-31.5	13.1	2.38e-04	0	44	102	19922944	19	4419
2026-01-26 02:52:45.13	341.46	16.30	-29.6	-31.1	13.3	1.44e-05	0	44	102	19922944	19	4303
2026-01-26 02:52:46.14	341.25	16.34	-29.4	-30.6	13.7	1.29e-05	0	44	102	19922944	19	4137
2026-01-26 02:52:47.14	341.04	16.38	-29.3	-30.8	13.9	2.66e-03	0	44	102	19922944	18	4290
2026-01-26 02:52:48.14	340.83	16.42	-29.5	-30.9	13.4	9.10e-06	0	44	102	19922944	19	4249
2026-01-26 02:52:49.14	340.62	16.45	-29.6	-31.3	13.1	1.44e-05	0	44	102	19922944	19	4376
2026-01-26 02:52:50.15	340.41	16.49	-29.5	-30.8	13.4	3.05e-05	0	44	102	19922944	19	4222
2026-01-26 02:52:51.14	340.20	16.53	-29.6	-31.4	13.0	2.76e-03	0	44	102	19922944	19	4404
2026-01-26 02:52:52.15	339.99	16.56	-30.0	-31.8	12.4	6.71e-05	0	44	102	19922944	20	4461
2026-01-26 02:52:53.16	339.78	16.60	-29.6	-31.3	13.1	8.16e-05	0	44	102	19922944	19	4374
2026-01-26 02:52:54.16	339.57	16.63	-29.4	-30.8	13.4	2.66e-03	0	44	102	19922944	19	4228
2026-01-26 02:52:55.17	339.35	16.67	-29.1	-30.5	13.9	6.10e-06	0	44	102	19922944	18	4225
2026-01-26 02:52:56.17	339.14	16.70	-28.9	-30.3	14.4	1.50e-06	0	44	102	19922944	17	4248
2026-01-26 02:52:57.18	338.92	16.74	-28.8	-30.1	14.4	2.55e-03	0	44	102	19922944	17	4205
2026-01-26 02:52:58.19	338.71	16.77	-28.8	-30.2	14.4	5.29e-04	0	44	102	19922944	17	4228
2026-01-26 02:52:59.19	338.49	16.81	-28.9	-30.4	14.4	0.00e+00	0	44	102	19922944	17	4277
2026-01-26 02:53:00.19	338.28	16.84	-28.9	-30.5	14.3	7.00e-07	0	44	102	19922944	17	4297
2026-01-26 02:53:01.19	338.06	16.87	-29.0	-30.1	14.2	5.69e-04	0	44	102	19922944	18	4110
2026-01-26 02:53:02.19	337.84	16.91	-28.7	-29.9	14.7	2.91e-03	0	44	102	19922944	17	4131
2026-01-26 02:53:03.20	337.63	16.94	-28.6	-29.5	14.9	0.00e+00	0	44	102	19922944	17	4011
2026-01-26 02:53:04.20	337.41	16.97	-28.4	-29.1	15.1	3.02e-04	0	44	102	19922944	17	3911
2026-01-26 02:53:05.21	337.19	17.00	-28.4	-29.5	15.2	2.16e-03	0	44	102	19922944	16	4112
2026-01-26 02:53:06.21	336.97	17.03	-28.5	-29.4	15.1	0.00e+00	0	44	102	19922944	17	3977
2026-01-26 02:53:07.22	336.75	17.06	-28.5	-29.3	15.0	7.62e-05	0	44	102	19922944	17	3949
2026-01-26 02:53:08.23	336.53	17.10	-28.8	-30.0	14.6	2.43e-03	0	44	102	19922944	17	4158
2026-01-26 02:53:09.23	336.31	17.12	-28.9	-30.4	14.4	2.41e-03	0	44	102	19922944	17	4257
2026-01-26 02:53:10.24	336.09	17.15	-29.0	-30.1	14.3	7.00e-07	0	44	102	19922944	18	4101
2026-01-26 02:53:11.25	335.87	17.18	-29.1	-30.4	14.1	2.95e-03	0	44	102	19922944	18	4166
2026-01-26 02:53:12.25	335.65	17.21	-29.1	-30.3	14.1	2.43e-03	0	44	102	19922944	18	4150
2026-01-26 02:53:13.26	335.42	17.24	-28.9	-29.8	14.4	6.76e-04	0	44	102	19922944	18	3993
2026-01-26 02:53:14.26	335.20	17.27	-28.7	-29.9	14.7	3.21e-03	0	44	102	19922944	17	4122
2026-01-26 02:53:15.27	334.98	17.30	-29.0	-30.1	14.3	2.53e-03	0	44	102	19922944	18	4094
2026-01-26 02:53:16.27	334.76	17.32	-29.2	-30.6	13.9	3.81e-04	0	44	102	19922944	18	4238
2026-01-26 02:53:17.27	334.53	17.35	-29.4	-31.1	13.6	2.62e-03	0	44	102	19922944	18	4401
2026-01-26 02:53:18.28	334.31	17.38	-29.3	-31.0	13.7	2.50e-03	0	44	102	19922944	18	4359
2026-01-26 02:53:19.28	334.09	17.40	-29.3	-31.0	13.6	4.95e-05	0	44	102	19922944	18	4348
2026-01-26 02:53:20.28	333.86	17.43	-29.3	-30.9	13.8	2.46e-03	0	44	102	19922944	18	4323
2026-01-26 02:53:21.29	333.64	17.45	-29.3	-30.8	13.9	2.38e-03	0	44	102	19922944	18	4287
2026-01-26 02:53:22.29	333.41	17.48	-29.3	-30.8	13.7	1.68e-04	0	44	102	19922944	18	4302
2026-01-26 02:53:23.30	333.18	17.50	-29.1	-30.4	14.0	2.55e-03	0	44	102	19922944	18	4185
2026-01-26 02:53:24.30	332.96	17.53	-29.1	-30.4	14.1	2.50e-03	0	44	102	19922944	18	4178
2026-01-26 02:53:25.30	332.73	17.55	-29.3	-30.9	13.8	4.78e-04	0	44	102	19922944	18	4328
2026-01-26 02:53:26.30	332.51	17.57	-29.3	-30.9	13.8	2.93e-03	0	44	102	19922944	18	4327
2026-01-26 02:53:27.31	332.28	17.59	-29.5	-31.0	13.4	2.45e-03	0	44	102	19922944	19	4257
2026-01-26 02:53:28.31	332.05	17.62	-29.7	-31.4	13.1	2.45e-04	0	44	102	19922944	19	4392
2026-01-26 02:53:29.31	331.82	17.64	-29.8	-31.6	13.0	2.84e-03	0	44	102	19922944	19	4468
2026-01-26 02:53:30.31	331.60	17.66	-29.5	-30.9	13.4	2.23e-03	0	44	102	19922944	19	4252
2026-01-26 02:53:31.32	331.37	17.68	-29.3	-30.4	13.7	7.60e-06	0	44	102	19922944	19	4093
2026-01-26 02:53:32.32	331.14	17.70	-29.2	-30.7	13.9	2.91e-03	0	44	102	19922944	18	4275
2026-01-26 02:53:33.33	330.91	17.72	-29.2	-30.7	13.9	2.32e-03	0	44	102	19922944	18	4257
2026-01-26 02:53:34.33	330.68	17.74	-29.3	-30.8	13.8	5.30e-06	0	44	102	19922944	18	4302
2026-01-26 02:53:35.34	330.45	17.76	-29.0	-30.2	14.1	2.33e-03	0	44	102	19922944	18	4130
2026-01-26 02:53:36.33	330.22	17.78	-29.1	-30.4	14.0	2.33e-03	0	44	102	19922944	18	4192
2026-01-26 02:53:37.34	329.99	17.79	-29.4	-31.3	13.5	6.70e-04	0	44	102	19922944	18	4446
2026-01-26 02:53:38.34	329.76	17.81	-29.5	-30.9	13.4	1.22e-05	0	44	102	19922944	19	4227
2026-01-26 02:53:39.35	329.53	17.83	-29.4	-31.1	13.6	2.34e-03	0	44	102	19922944	18	4398
2026-01-26 02:53:40.36	329.30	17.85	-29.3	-30.8	13.7	3.81e-04	0	44	102	19922944	18	4309
2026-01-26 02:53:41.37	329.06	17.86	-29.3	-30.8	13.8	1.50e-06	0	44	102	19922944	18	4315
2026-01-26 02:53:42.38	328.83	17.88	-29.3	-30.8	13.8	2.54e-03	0	44	102	19922944	18	4299
2026-01-26 02:53:43.38	328.60	17.89	-29.2	-30.6	13.9	8.64e-04	0	44	102	19922944	18	4250
2026-01-26 02:53:44.39	328.37	17.91	-29.3	-31.0	13.6	5.30e-06	0	44	102	19922944	18	4371
2026-01-26 02:53:45.39	328.13	17.92	-29.4	-31.1	13.6	6.80e-06	0	44	102	19922944	18	4405
2026-01-26 02:53:46.40	327.90	17.93	-29.7	-31.5	13.0	9.68e-05	0	44	102	19922944	19	4457
2026-01-26 02:53:47.40	327.67	17.95	-29.9	-32.1	12.6	3.11e-03	0	44	102	19922944	19	4641
2026-01-26 02:53:48.41	327.43	17.96	-30.1	-32.3	12.1	2.81e-04	0	44	102	19922944	20	4631
2026-01-26 02:53:49.41	327.20	17.97	-30.1	-32.3	12.0	3.30e-04	0	44	102	19922944	20	4655
2026-01-26 02:53:50.42	326.97	17.98	-30.1	-32.4	11.9	3.18e-03	0	44	102	19922944	20	4693
2026-01-26 02:53:51.42	326.74	18.00	-30.2	-32.5	11.8	4.00e-04	0	44	102	19922944	20	4724
2026-01-26 02:53:52.42	326.50	18.01	-30.1	-32.4	12.0	3.93e-04	0	44	102	19922944	20	4679
2026-01-26 02:53:53.42	326.27	18.02	-30.1	-32.3	12.0	3.11e-03	0	44	102	19922944	20	4643
2026-01-26 02:53:54.42	326.04	18.03	-29.9	-31.8	12.3	2.37e-04	0	44	102	19922944	20	4470
2026-01-26 02:53:55.43	325.80	18.04	-29.9	-31.8	12.4	2.10e-04	0	44	102	19922944	20	4462
2026-01-26 02:53:56.43	325.57	18.04	-30.0	-32.0	12.3	1.73e-04	0	44	102	19922944	20	4523
2026-01-26 02:53:57.44	325.33	18.05	-29.9	-31.9	12.3	2.68e-03	0	44	102	19922944	20	4499
2026-01-26 02:53:58.44	325.10	18.06	-29.9	-31.9	12.3	1.92e-04	0	44	102	19922944	20	4499
2026-01-26 02:53:59.45	324.86	18.07	-29.9	-31.7	12.4	1.61e-04	0	44	102	19922944	20	4437
2026-01-26 02:54:00.46	324.63	18.07	-29.8	-31.5	12.5	2.66e-03	0	44	102	19922944	20	4385
2026-01-26 02:54:01.46	324.39	18.08	-29.6	-31.4	13.0	5.87e-05	0	44	102	19922944	19	4428
2026-01-26 02:54:02.46	324.16	18.09	-29.7	-31.5	12.9	4.57e-05	0	44	102	19922944	19	4455
2026-01-26 02:54:03.47	323.92	18.09	-29.5	-31.0	13.3	2.36e-05	0	44	102	19922944	19	4294
2026-01-26 02:54:04.48	323.68	18.10	-29.4	-31.3	13.5	1.44e-05	0	44	102	19922944	18	4460
2026-01-26 02:54:05.48	323.45	18.10	-29.4	-31.3	13.4	1.14e-05	0	44	102	19922944	18	4474
2026-01-26 02:54:06.49	323.21	18.11	-29.4	-31.2	13.5	7.60e-06	0	44	102	19922944	18	4439
2026-01-26 02:54:07.49	322.98	18.11	-28.9	-30.5	13.4	9.10e-06	0	44	102	19922944	19	4330
2026-01-26 02:54:08.50	322.74	18.11	-29.6	-31.4	13.1	2.97e-05	0	44	102	19922944	19	4395
2026-01-26 02:54:09.50	322.51	18.11	-29.7	-31.5	12.7	5.18e-05	0	44	102	19922944	19	4426
2026-01-26 02:54:10.50	322.27	18.12	-29.3	-31.1	13.4	2.59e-05	0	44	102	19922944	18	4394
2026-01-26 02:54:11.51	322.04	18.12	-29.4	-31.3	13.4	8.30e-06	0	44	102	19922944	18	4479
2026-01-26 02:54:12.51	321.80	18.12	-29.6	-31.3	13.1	3.58e-05	0	44	102	19922944	19	4376
2026-01-26 02:54:13.52	321.56	18.12	-29.7	-31.4	13.1	3.05e-05	0	44	102	19922944	19	4413
2026-01-26 02:54:14.52	321.33	18.12	-29.7	-31.6	12.9	3.81e-05	0	44	102	19922944	19	4466
2026-01-26 02:54:15.53	321.09	18.12	-29.7	-31.5	12.9	4.11e-05	0	44	102	19922944	19	4453
2026-01-26 02:54:16.53	320.86	18.12	-29.8	-31.7	12.9	7.62e-05	0	44	102	19922944	19	4503
2026-01-26 02:54:17.53	320.62	18.11	-29.9	-32.1	12.6	5.95e-05	0	44	102	19922944	19	4647
2026-01-26 02:54:18.54	320.39	18.11	-29.7	-31.7	12.8	8.31e-05	0	44	102	19922944	19	4495
2026-01-26 02:54:19.54	320.15	18.11	-29.7	-31.5	13.0	5.41e-05	0	44	102	19922944	19	4451
2026-01-26 02:54:20.55	319.92	18.11	-29.7	-31.5	13.0	4.65e-05	0	44	102	19922944	19	4453
2026-01-26 02:54:21.55	319.68	18.10	-29.7	-31.5	12.9	4.42e-05	0	44	102	19922944	19	4454
2026-01-26 02:54:22.55	319.45	18.10	-29.3	-31.2	13.0	4.19e-05	0	44	102	19922944	19	4459
2026-01-26 02:54:23.55	319.21	18.09	-28.5	-30.5	13.2	2.44e-05	0	44	102	19922944	18	4502
2026-01-26 02:54:24.56	318.98	18.09	-29.6	-31.3	13.1	1.27e-03	0	44	102	19922944	19	4370
2026-01-26 02:54:25.56	318.74	18.08	-29.6	-31.2	13.2	1.61e-04	0	44	102	19922944	19	4346
2026-01-26 02:54:26.56	318.51	18.08	-29.7	-31.5	13.0	2.82e-05	0	44	102	19922944	19	4454
2026-01-26 02:54:27.57	318.27	18.07	-29.9	-32.1	12.6	5.87e-05	0	44	102	19922944	19	4645
2026-01-26 02:54:28.57	318.04	18.06	-30.1	-32.2	12.1	3.09e-04	0	44	102	19922944	20	4588
2026-01-26 02:54:29.58	317.80	18.06	-30.0	-32.1	12.2	2.22e-04	0	44	102	19922944	20	4580
2026-01-26 02:54:30.59	317.56	18.05	-30.3	-32.8	11.7	5.39e-04	0	44	102	19922944	20	4823
2026-01-26 02:54:31.59	317.33	18.04	-30.4	-33.2	11.5	3.06e-03	0	44	102	19922944	20	4971
2026-01-26 02:54:32.60	317.10	18.03	-30.4	-33.3	11.3	7.21e-04	0	44	102	19922944	20	5009
2026-01-26 02:54:33.61	316.86	18.02	-30.4	-33.2	11.4	1.01e-03	0	44	102	19922944	20	4959
2026-01-26 02:54:34.61	316.63	18.01	-30.2	-32.7	11.8	7.43e-04	0	44	102	19922944	20	4764
2026-01-26 02:54:35.61	316.39	18.00	-30.1	-32.2	12.1	2.46e-03	0	44	102	19922944	20	4604
2026-01-26 02:54:36.61	316.16	17.99	-29.9	-32.2	12.4	4.49e-04	0	44	102	19922944	19	4701
2026-01-26 02:54:37.62	315.93	17.98	-29.8	-31.8	12.7	1.21e-04	0	44	102	19922944	19	4537
2026-01-26 02:54:38.63	315.69	17.97	-29.4	-31.3	13.4	2.31e-03	0	44	102	19922944	18	4487
2026-01-26 02:54:39.63	315.46	17.95	-29.4	-31.4	13.4	5.11e-05	0	44	102	19922944	18	4507
2026-01-26 02:54:40.64	315.22	17.94	-29.4	-31.4	13.3	1.27e-04	0	44	102	19922944	18	4509
2026-01-26 02:54:41.64	314.99	17.93	-29.6	-31.3	13.2	2.35e-03	0	44	102	19922944	19	4371
2026-01-26 02:54:42.64	314.76	17.91	-29.6	-31.3	13.1	1.23e-03	0	44	102	19922944	19	4363
2026-01-26 02:54:43.64	314.53	17.90	-29.6	-31.2	13.2	4.45e-04	0	44	102	19922944	19	4353
2026-01-26 02:54:44.64	314.30	17.88	-29.7	-31.5	13.0	2.74e-05	0	44	102	19922944	19	4446
2026-01-26 02:54:45.65	314.07	17.87	-29.5	-30.9	13.3	1.29e-03	0	44	102	19922944	19	4261
2026-01-26 02:54:46.65	313.83	17.85	-29.4	-31.3	13.4	1.06e-03	0	44	102	19922944	18	4484
2026-01-26 02:54:47.66	313.60	17.84	-29.3	-31.0	13.6	1.60e-05	0	44	102	19922944	18	4376
2026-01-26 02:54:48.66	313.37	17.82	-29.4	-31.2	13.5	1.76e-03	0	44	102	19922944	18	4436
2026-01-26 02:54:49.66	313.14	17.80	-29.3	-31.0	13.6	3.95e-03	0	44	102	19922944	18	4375
2026-01-26 02:54:50.66	312.91	17.78	-29.2	-30.7	13.8	4.50e-06	0	44	102	19922944	18	4297
2026-01-26 02:54:51.67	312.68	17.77	-29.2	-30.8	13.8	4.81e-04	0	44	102	19922944	18	4314
2026-01-26 02:54:52.67	312.45	17.75	-29.3	-30.9	13.8	3.73e-03	0	44	102	19922944	18	4337
2026-01-26 02:54:53.67	312.22	17.73	-29.2	-30.7	13.8	2.38e-03	0	44	102	19922944	18	4272
2026-01-26 02:54:54.67	311.99	17.71	-29.1	-30.5	14.0	1.36e-03	0	44	102	19922944	18	4213
2026-01-26 02:54:55.68	311.76	17.69	-29.1	-30.3	14.1	3.63e-03	0	44	102	19922944	18	4158
2026-01-26 02:54:56.69	311.53	17.67	-29.1	-30.4	14.0	2.35e-03	0	44	102	19922944	18	4179
2026-01-26 02:54:57.69	311.31	17.65	-28.8	-30.1	14.4	1.48e-03	0	44	102	19922944	17	4191
2026-01-26 02:54:58.70	311.08	17.63	-28.8	-30.0	14.5	2.32e-03	0	44	102	19922944	17	4170
2026-01-26 02:54:59.71	310.85	17.60	-28.5	-29.5	14.9	2.20e-03	0	44	102	19922944	17	4009
2026-01-26 02:55:00.71	310.62	17.58	-28.6	-29.5	14.8	1.70e-03	0	44	102	19922944	17	4030
2026-01-26 02:55:01.71	310.39	17.56	-28.6	-29.7	14.7	2.12e-03	0	44	102	19922944	17	4073
2026-01-26 02:55:02.72	310.16	17.54	-28.7	-29.8	14.7	2.27e-03	0	44	102	19922944	17	4091
2026-01-26 02:55:03.72	309.94	17.51	-28.7	-29.9	14.6	1.70e-03	0	44	102	19922944	17	4125
2026-01-26 02:55:04.73	309.71	17.49	-28.9	-30.4	14.3	3.43e-03	0	44	102	19922944	17	4290
2026-01-26 02:55:05.74	309.48	17.46	-29.0	-30.1	14.2	1.96e-03	0	44	102	19922944	18	4097
2026-01-26 02:55:06.75	309.26	17.44	-28.9	-30.5	14.3	1.56e-03	0	44	102	19922944	17	4299
2026-01-26 02:55:07.75	309.03	17.41	-28.9	-30.4	14.3	3.71e-03	0	44	102	19922944	17	4278
2026-01-26 02:55:08.75	308.81	17.39	-29.2	-30.7	13.8	2.14e-03	0	44	102	19922944	18	4275
2026-01-26 02:55:09.75	308.59	17.36	-29.3	-30.8	13.8	3.80e-06	0	44	102	19922944	18	4308
2026-01-26 02:55:10.75	308.36	17.33	-29.3	-30.9	13.7	3.48e-03	0	44	102	19922944	18	4333
2026-01-26 02:55:11.76	308.14	17.31	-29.2	-30.7	13.8	2.61e-03	0	44	102	19922944	18	4285
2026-01-26 02:55:12.76	307.92	17.28	-29.3	-30.9	13.7	6.33e-05	0	44	102	19922944	18	4342
2026-01-26 02:55:13.77	307.69	17.25	-29.4	-31.2	13.5	2.78e-03	0	44	102	19922944	18	4438
2026-01-26 02:55:14.77	307.47	17.22	-29.2	-30.7	13.8	2.66e-03	0	44	102	19922944	18	4260
2026-01-26 02:55:15.78	307.25	17.19	-29.3	-30.9	13.7	5.30e-06	0	44	102	19922944	18	4327
2026-01-26 02:55:16.78	307.03	17.17	-29.3	-31.0	13.6	2.48e-03	0	44	102	19922944	18	4383
2026-01-26 02:55:17.79	306.80	17.14	-29.4	-31.1	13.6	2.34e-03	0	44	102	19922944	18	4407
2026-01-26 02:55:18.79	306.58	17.11	-30.0	-31.7	13.3	1.37e-05	0	44	102	19922944	19	4400
2026-01-26 02:55:19.79	306.37	17.08	-29.8	-31.8	12.7	2.10e-03	0	44	102	19922944	19	4528
2026-01-26 02:55:20.80	306.14	17.05	-29.5	-31.1	13.2	2.33e-03	0	44	102	19922944	19	4319
2026-01-26 02:55:21.80	305.93	17.01	-29.7	-31.6	12.9	1.30e-03	0	44	102	19922944	19	4459
2026-01-26 02:55:22.80	305.71	16.98	-29.5	-31.0	13.2	2.89e-05	0	44	102	19922944	19	4292
2026-01-26 02:55:23.81	305.49	16.95	-29.4	-30.8	13.4	2.23e-03	0	44	102	19922944	19	4216
2026-01-26 02:55:24.82	305.27	16.92	-29.4	-31.2	13.4	1.06e-05	0	44	102	19922944	18	4422
2026-01-26 02:55:25.82	305.05	16.89	-29.4	-31.2	13.4	1.06e-05	0	44	102	19922944	18	4448
2026-01-26 02:55:26.82	304.84	16.85	-29.5	-31.4	13.4	1.29e-05	0	44	102	19922944	18	4489
2026-01-26 02:55:27.82	304.62	16.82	-29.4	-30.7	13.4	1.06e-05	0	44	102	19922944	19	4201
2026-01-26 02:55:28.83	304.40	16.79	-29.3	-31.0	13.6	7.60e-06	0	44	102	19922944	18	4375
2026-01-26 02:55:29.83	304.19	16.75	-29.3	-31.0	13.5	6.10e-06	0	44	102	19922944	18	4383
2026-01-26 02:55:30.84	303.97	16.72	-29.3	-31.0	13.6	8.30e-06	0	44	102	19922944	18	4364
2026-01-26 02:55:31.84	303.76	16.68	-29.4	-31.3	13.4	2.77e-03	0	44	102	19922944	18	4469
2026-01-26 02:55:32.84	303.55	16.65	-29.5	-31.5	13.3	2.05e-05	0	44	102	19922944	18	4531
2026-01-26 02:55:33.84	303.33	16.61	-29.6	-31.4	13.0	2.82e-05	0	44	102	19922944	19	4406
2026-01-26 02:55:34.85	303.12	16.58	-29.7	-31.6	12.8	2.65e-03	0	44	102	19922944	19	4488
2026-01-26 02:55:35.85	302.91	16.54	-29.9	-32.2	12.5	7.62e-05	0	44	102	19922944	19	4682
2026-01-26 02:55:36.85	302.70	16.50	-29.9	-32.2	12.4	1.10e-04	0	44	102	19922944	19	4692
2026-01-26 02:55:37.86	302.48	16.47	-29.9	-31.7	12.4	1.62e-04	0	44	102	19922944	20	4437
2026-01-26 02:55:38.87	302.27	16.43	-29.8	-31.9	12.6	1.71e-03	0	44	102	19922944	19	4575
2026-01-26 02:55:39.87	302.06	16.39	-29.9	-32.0	12.5	9.38e-05	0	44	102	19922944	19	4630
2026-01-26 02:55:40.88	301.85	16.35	-29.6	-31.4	12.9	5.87e-05	0	44	102	19922944	19	4410
2026-01-26 02:55:41.89	301.64	16.32	-29.6	-31.4	12.9	1.19e-03	0	44	102	19922944	19	4432
2026-01-26 02:55:42.89	301.43	16.28	-29.7	-31.6	12.8	4.19e-05	0	44	102	19922944	19	4490
2026-01-26 02:55:43.90	301.22	16.24	-29.7	-31.5	12.8	5.26e-05	0	44	102	19922944	19	4452
2026-01-26 02:55:44.90	301.02	16.20	-29.6	-31.4	13.0	3.50e-05	0	44	102	19922944	19	4412
2026-01-26 02:55:45.90	300.81	16.16	-29.7	-31.6	12.8	1.35e-03	0	44	102	19922944	19	4493
2026-01-26 02:55:46.90	300.60	16.12	-29.7	-31.5	12.8	4.42e-05	0	44	102	19922944	19	4450
2026-01-26 02:55:47.90	300.40	16.08	-29.5	-31.2	13.0	3.43e-05	0	44	102	19922944	19	4350
2026-01-26 02:55:48.91	300.19	16.04	-29.6	-31.4	13.0	5.18e-04	0	44	102	19922944	19	4413
2026-01-26 02:55:49.91	299.99	16.00	-29.6	-31.3	13.0	3.50e-05	0	44	102	19922944	19	4387
2026-01-26 02:55:50.92	299.78	15.96	-29.5	-31.2	13.0	4.27e-05	0	44	102	19922944	19	4359
2026-01-26 02:55:51.92	299.58	15.92	-29.4	-30.8	13.3	9.89e-04	0	44	102	19922944	19	4235
2026-01-26 02:55:52.93	299.37	15.87	-29.4	-31.4	13.2	1.29e-05	0	44	102	19922944	18	4499
2026-01-26 02:55:53.94	299.17	15.83	-29.2	-30.8	13.6	5.30e-06	0	44	102	19922944	18	4331
2026-01-26 02:55:54.94	298.97	15.79	-29.0	-30.2	14.0	7.60e-06	0	44	102	19922944	18	4148
2026-01-26 02:55:55.94	298.77	15.75	-29.0	-30.7	14.0	2.20e-06	0	44	102	19922944	17	4379
2026-01-26 02:55:56.95	298.57	15.70	-28.2	-29.1	14.3	0.00e+00	0	44	102	19922944	18	3995
2026-01-26 02:55:57.95	298.37	15.66	-28.7	-30.5	13.7	1.50e-06	0	44	102	19922944	17	4396
2026-01-26 02:55:58.95	298.17	15.62	-29.0	-30.3	12.8	1.27e-03	0	44	102	19922944	18	4156
2026-01-26 02:55:59.96	297.97	15.57	-29.1	-30.4	13.5	2.30e-04	0	44	102	19922944	18	4211
2026-01-26 02:56:00.96	297.77	15.53	-29.3	-31.0	13.6	3.88e-04	0	44	102	19922944	18	4355
2026-01-26 02:56:01.96	297.57	15.49	-29.3	-30.9	13.7	1.91e-03	0	44	102	19922944	18	4313
2026-01-26 02:56:02.97	297.37	15.44	-29.4	-31.2	13.5	4.42e-04	0	44	102	19922944	18	4428
2026-01-26 02:56:03.98	297.18	15.40	-29.5	-31.3	13.3	4.38e-04	0	44	102	19922944	18	4467
2026-01-26 02:56:04.99	296.98	15.35	-29.9	-32.0	12.6	2.28e-05	0	44	102	19922944	19	4580
2026-01-26 02:56:05.99	296.78	15.31	-30.0	-32.3	12.3	1.13e-03	0	44	102	19922944	19	4707
2026-01-26 02:56:06.99	296.59	15.26	-30.1	-32.2	12.0	8.76e-04	0	44	102	19922944	20	4590
2026-01-26 02:56:07.99	296.40	15.22	-30.0	-32.1	12.1	3.22e-04	0	44	102	19922944	20	4535
2026-01-26 02:56:09.00	296.20	15.17	-30.0	-32.0	12.2	1.08e-03	0	44	102	19922944	20	4515
2026-01-26 02:56:10.00	296.01	15.12	-30.0	-31.8	12.3	5.40e-04	0	44	102	19922944	20	4432
2026-01-26 02:56:11.01	295.82	15.08	-29.9	-31.7	12.4	1.10e-04	0	44	102	19922944	20	4420
2026-01-26 02:56:12.02	295.62	15.03	-29.8	-31.4	12.6	3.04e-04	0	44	102	19922944	20	4308
2026-01-26 02:56:13.03	295.43	14.98	-29.9	-31.7	12.4	2.24e-03	0	44	102	19922944	20	4413
2026-01-26 02:56:14.02	295.24	14.94	-29.9	-32.1	12.5	1.36e-04	0	44	102	19922944	19	4645
2026-01-26 02:56:15.02	295.05	14.89	-29.9	-31.9	12.6	4.05e-04	0	44	102	19922944	19	4570
2026-01-26 02:56:16.03	294.86	14.84	-30.0	-32.3	12.4	3.06e-03	0	44	102	19922944	19	4700
2026-01-26 02:56:17.02	294.67	14.79	-30.1	-32.3	12.0	2.86e-03	0	44	102	19922944	20	4616
2026-01-26 02:56:18.03	294.49	14.75	-30.4	-33.0	11.6	1.74e-03	0	44	102	19922944	20	4869
2026-01-26 02:56:19.03	294.30	14.70	-30.1	-32.1	12.1	3.11e-03	0	44	102	19922944	20	4546
2026-01-26 02:56:20.03	294.11	14.65	-30.0	-32.0	12.1	2.95e-03	0	44	102	19922944	20	4512
2026-01-26 02:56:21.03	293.93	14.60	-29.8	-31.3	12.6	6.73e-04	0	44	102	19922944	20	4302
2026-01-26 02:56:22.04	293.74	14.55	-29.9	-31.7	12.3	3.55e-04	0	44	102	19922944	20	4434
2026-01-26 02:56:23.05	293.55	14.50	-29.8	-31.7	12.7	2.75e-03	0	44	102	19922944	19	4504
2026-01-26 02:56:24.05	293.37	14.45	-29.6	-31.2	13.1	9.86e-04	0	44	102	19922944	19	4338
2026-01-26 02:56:25.06	293.18	14.40	-29.7	-31.4	12.9	3.09e-04	0	44	102	19922944	19	4406
2026-01-26 02:56:26.06	293.00	14.35	-29.6	-31.2	13.0	2.34e-03	0	44	102	19922944	19	4317
2026-01-26 02:56:27.07	292.82	14.30	-29.6	-31.2	13.1	1.95e-03	0	44	102	19922944	19	4331
2026-01-26 02:56:28.08	292.63	14.25	-29.6	-31.2	13.0	4.00e-03	0	44	102	19922944	19	4338
2026-01-26 02:56:29.08	292.45	14.20	-29.8	-31.7	12.7	2.08e-03	0	44	102	19922944	19	4511
2026-01-26 02:56:30.09	292.27	14.15	-29.4	-30.8	13.3	7.55e-05	0	44	102	19922944	19	4221
2026-01-26 02:56:31.09	292.09	14.10	-29.3	-30.8	13.6	4.05e-03	0	44	102	19922944	18	4313
2026-01-26 02:56:32.10	291.91	14.05	-29.2	-30.7	13.7	4.50e-06	0	44	102	19922944	18	4284
2026-01-26 02:56:33.10	291.73	14.00	-29.4	-31.2	13.4	1.44e-05	0	44	102	19922944	18	4428
2026-01-26 02:56:34.10	291.55	13.95	-29.5	-31.4	13.2	2.38e-03	0	44	102	19922944	18	4510
2026-01-26 02:56:35.10	291.38	13.90	-29.6	-31.3	13.0	2.37e-03	0	44	102	19922944	19	4356
2026-01-26 02:56:36.11	291.20	13.85	-29.8	-31.7	12.7	8.69e-05	0	44	102	19922944	19	4506
2026-01-26 02:56:37.11	291.02	13.79	-29.8	-31.8	12.6	2.47e-03	0	44	102	19922944	19	4540
2026-01-26 02:56:38.12	290.85	13.74	-29.9	-32.1	12.4	2.36e-03	0	44	102	19922944	19	4632
2026-01-26 02:56:39.12	290.67	13.69	-29.8	-32.0	12.5	1.02e-04	0	44	102	19922944	19	4605
2026-01-26 02:56:40.12	290.50	13.64	-29.9	-32.1	12.3	2.59e-03	0	44	102	19922944	19	4661
2026-01-26 02:56:41.12	290.32	13.59	-29.7	-31.6	12.8	2.77e-03	0	44	102	19922944	19	4461
2026-01-26 02:56:42.13	290.15	13.53	-29.6	-31.2	13.0	1.97e-03	0	44	102	19922944	19	4342
2026-01-26 02:56:43.14	289.98	13.48	-29.6	-31.2	13.0	2.92e-03	0	44	102	19922944	19	4344
2026-01-26 02:56:44.15	289.80	13.43	-29.6	-31.4	12.9	2.66e-03	0	44	102	19922944	19	4407
2026-01-26 02:56:45.15	289.63	13.38	-29.8	-31.9	12.5	3.77e-04	0	44	102	19922944	19	4577
2026-01-26 02:56:46.16	289.46	13.32	-29.7	-31.7	12.6	7.62e-05	0	44	102	19922944	19	4518
2026-01-26 02:56:47.16	289.29	13.27	-29.8	-32.0	12.4	2.75e-03	0	44	102	19922944	19	4624
2026-01-26 02:56:48.17	289.12	13.22	-29.9	-31.7	12.2	6.74e-04	0	44	102	19922944	20	4447
2026-01-26 02:56:49.18	288.95	13.16	-30.2	-32.7	11.5	7.00e-04	0	44	102	19922944	20	4805
2026-01-26 02:56:50.18	288.78	13.11	-30.5	-33.0	10.9	2.13e-03	0	44	102	19922944	21	4810
2026-01-26 02:56:51.18	288.61	13.06	-30.8	-34.0	10.2	4.06e-03	0	44	102	19922944	21	5210
2026-01-26 02:56:52.19	288.45	13.00	-31.1	-34.6	9.3	1.20e-02	0	44	102	19922944	22	5387
2026-01-26 02:56:53.20	288.28	12.95	-31.1	-34.8	9.2	2.04e-02	0	44	102	19922944	22	5503
2026-01-26 02:56:54.20	288.11	12.89	-31.2	-35.0	9.1	2.46e-02	0	44	102	19922944	22	5574
2026-01-26 02:56:55.21	287.95	12.84	-31.0	-34.4	9.5	2.00e-02	0	44	102	19922944	22	5318
2026-01-26 02:56:56.21	287.78	12.79	-30.2	-33.5	9.4	1.58e-02	0	44	102	19922944	22	5316
2026-01-26 02:56:57.21	287.62	12.73	-30.8	-34.2	9.9	1.10e-02	0	44	102	19922944	21	5313
2026-01-26 02:56:58.22	287.45	12.68	-30.8	-34.3	9.9	9.25e-03	0	44	102	19922944	21	5387
2026-01-26 02:56:59.22	287.29	12.62	-30.8	-34.0	9.8	8.82e-03	0	44	102	19922944	21	5254
2026-01-26 02:57:00.23	287.13	12.57	-30.5	-33.2	10.5	3.51e-03	0	44	102	19922944	21	4902
2026-01-26 02:57:01.22	286.97	12.51	-30.5	-33.0	10.8	6.00e-03	0	44	102	19922944	21	4838
2026-01-26 02:57:02.22	286.81	12.46	-30.4	-33.0	10.8	5.22e-03	0	44	102	19922944	21	4816
2026-01-26 02:57:03.23	286.65	12.40	-30.3	-32.9	11.2	1.66e-03	0	44	102	19922944	20	4895
2026-01-26 02:57:04.23	286.49	12.35	-30.3	-33.1	11.2	1.11e-03	0	44	102	19922944	20	4952
2026-01-26 02:57:05.23	286.33	12.29	-30.2	-32.8	11.3	3.47e-03	0	44	102	19922944	20	4837
2026-01-26 02:57:06.23	286.17	12.24	-30.2	-32.7	11.3	2.03e-03	0	44	102	19922944	20	4809
2026-01-26 02:57:07.24	286.01	12.18	-30.1	-32.4	11.5	8.50e-04	0	44	102	19922944	20	4710
2026-01-26 02:57:08.24	285.85	12.13	-30.2	-32.8	11.3	9.35e-04	0	44	102	19922944	20	4832
2026-01-26 02:57:09.25	285.70	12.07	-30.4	-33.3	10.9	1.84e-03	0	44	102	19922944	20	5049
2026-01-26 02:57:10.24	285.54	12.02	-30.3	-33.2	11.0	1.50e-03	0	44	102	19922944	20	4997
2026-01-26 02:57:11.25	285.39	11.96	-30.5	-33.2	10.6	2.93e-03	0	44	102	19922944	21	4931
2026-01-26 02:57:12.25	285.23	11.91	-30.4	-33.4	10.8	3.85e-03	0	44	102	19922944	20	5087
2026-01-26 02:57:13.25	285.08	11.85	-30.4	-33.5	10.8	2.43e-03	0	44	102	19922944	20	5109
2026-01-26 02:57:14.26	284.92	11.79	-30.6	-33.4	10.4	2.68e-03	0	44	102	19922944	21	5012
2026-01-26 02:57:15.26	284.77	11.74	-30.6	-33.7	10.2	4.59e-03	0	44	102	19922944	21	5123
2026-01-26 02:57:16.26	284.62	11.68	-30.6	-33.6	10.3	6.47e-03	0	44	102	19922944	21	5092
2026-01-26 02:57:17.27	284.46	11.63	-30.3	-32.7	11.0	3.25e-03	0	44	102	19922944	21	4708
2026-01-26 02:57:18.27	284.31	11.57	-30.2	-32.8	11.2	1.58e-03	0	44	102	19922944	20	4838
2026-01-26 02:57:19.28	284.16	11.51	-29.9	-31.8	11.9	2.36e-03	0	44	102	19922944	20	4497
2026-01-26 02:57:20.28	284.01	11.46	-29.9	-32.4	11.9	8.57e-04	0	44	102	19922944	19	4794
2026-01-26 02:57:21.28	283.86	11.40	-30.0	-32.1	11.7	2.07e-03	0	44	102	19922944	20	4604
2026-01-26 02:57:22.29	283.71	11.34	-30.1	-32.6	11.4	8.06e-04	0	44	102	19922944	20	4765
2026-01-26 02:57:23.29	283.56	11.29	-30.3	-33.2	10.9	4.24e-03	0	44	102	19922944	20	4994
2026-01-26 02:57:24.30	283.41	11.23	-30.3	-33.1	11.0	3.87e-03	0	44	102	19922944	20	4962
2026-01-26 02:57:25.30	283.27	11.17	-30.3	-33.1	10.9	2.22e-03	0	44	102	19922944	20	4990
2026-01-26 02:57:26.31	283.12	11.12	-30.2	-32.7	11.2	1.86e-03	0	44	102	19922944	20	4820
2026-01-26 02:57:27.31	282.97	11.06	-30.1	-32.5	11.4	3.21e-03	0	44	102	19922944	20	4734
2026-01-26 02:57:28.30	282.83	11.01	-30.1	-32.6	11.3	1.11e-03	0	44	102	19922944	20	4788
2026-01-26 02:57:29.31	282.68	10.95	-30.2	-32.9	11.1	1.27e-03	0	44	102	19922944	20	4890
2026-01-26 02:57:30.31	282.54	10.89	-30.3	-33.0	11.0	3.52e-03	0	44	102	19922944	20	4953
2026-01-26 02:57:31.31	282.40	10.83	-30.2	-33.0	11.1	3.02e-03	0	44	102	19922944	20	4919
2026-01-26 02:57:32.31	282.25	10.78	-30.3	-33.2	10.9	4.31e-03	0	44	102	19922944	20	5016
2026-01-26 02:57:33.32	282.11	10.72	-30.3	-33.1	11.0	4.29e-03	0	44	102	19922944	20	4963
2026-01-26 02:57:34.33	281.97	10.66	-30.3	-33.1	10.9	1.89e-03	0	44	102	19922944	20	4999
2026-01-26 02:57:35.33	281.83	10.61	-30.2	-32.9	11.1	4.93e-03	0	44	102	19922944	20	4885
2026-01-26 02:57:36.33	281.68	10.55	-30.1	-32.5	11.3	1.06e-03	0	44	102	19922944	20	4781
2026-01-26 02:57:37.34	281.54	10.49	-28.6	-31.0	11.7	6.29e-04	0	44	102	19922944	19	4740
2026-01-26 02:57:38.35	281.40	10.43	-29.9	-31.9	11.5	2.09e-03	0	44	102	19922944	20	4550
2026-01-26 02:57:39.35	281.26	10.38	-29.9	-32.5	10.9	1.52e-03	0	44	102	19922944	19	4833
2026-01-26 02:57:40.35	281.12	10.32	-29.9	-32.5	11.0	5.73e-04	0	44	102	19922944	19	4823
2026-01-26 02:57:41.36	280.99	10.26	-29.8	-32.2	11.9	1.83e-03	0	44	102	19922944	19	4714
2026-01-26 02:57:42.36	280.85	10.21	-29.6	-31.6	12.4	2.36e-03	0	44	102	19922944	19	4507
2026-01-26 02:57:43.36	280.71	10.15	-29.7	-31.8	12.3	3.25e-03	0	44	102	19922944	19	4573
2026-01-26 02:57:44.36	280.57	10.09	-30.0	-32.0	12.6	2.31e-03	0	44	102	19922944	19	4502
2026-01-26 02:57:45.36	280.44	10.03	-29.4	-31.4	12.8	2.54e-03	0	44	102	19922944	18	4550
2026-01-26 02:57:46.36	280.30	9.98	-29.3	-31.0	13.1	3.12e-05	0	44	102	19922944	18	4404
2026-01-26 02:57:47.36	280.17	9.92	-29.1	-30.6	13.3	3.06e-03	0	44	102	19922944	18	4286
2026-01-26 02:57:48.36	280.04	9.86	-29.1	-30.7	13.3	2.40e-03	0	44	102	19922944	18	4305
2026-01-26 02:57:49.37	279.90	9.81	-29.3	-31.3	12.9	3.12e-05	0	44	102	19922944	18	4510
2026-01-26 02:57:50.37	279.77	9.75	-29.2	-30.9	13.1	4.71e-04	0	44	102	19922944	18	4365
2026-01-26 02:57:51.38	279.63	9.69	-29.3	-31.1	13.0	2.48e-03	0	44	102	19922944	18	4431
2026-01-26 02:57:52.39	279.50	9.63	-29.3	-31.2	12.9	4.11e-05	0	44	102	19922944	18	4490
2026-01-26 02:57:53.40	279.37	9.57	-29.3	-31.2	12.9	2.45e-03	0	44	102	19922944	18	4491
2026-01-26 02:57:54.40	279.24	9.52	-29.4	-31.6	12.7	5.63e-03	0	44	102	19922944	18	4611
2026-01-26 02:57:55.40	279.11	9.46	-29.5	-31.6	12.6	5.79e-05	0	44	102	19922944	18	4625
2026-01-26 02:57:56.41	278.97	9.40	-29.6	-31.5	12.4	2.41e-03	0	44	102	19922944	19	4488
2026-01-26 02:57:57.41	278.84	9.34	-29.4	-31.6	12.6	3.41e-03	0	44	102	19922944	18	4623
2026-01-26 02:57:58.42	278.71	9.29	-29.5	-31.4	12.4	2.14e-04	0	44	102	19922944	19	4464
2026-01-26 02:57:59.43	278.59	9.23	-29.3	-31.3	12.8	1.67e-03	0	44	102	19922944	18	4522
2026-01-26 02:58:00.43	278.46	9.17	-29.5	-31.3	12.4	3.15e-03	0	44	102	19922944	19	4414
2026-01-26 02:58:01.43	278.33	9.11	-29.6	-31.5	12.2	4.16e-03	0	44	102	19922944	19	4503
2026-01-26 02:58:02.43	278.20	9.06	-29.4	-31.6	12.5	7.47e-04	0	44	102	19922944	18	4636
2026-01-26 02:58:03.43	278.08	9.00	-29.5	-31.7	12.5	1.32e-03	0	44	102	19922944	18	4654
2026-01-26 02:58:04.44	277.95	8.94	-29.5	-31.3	12.5	4.57e-03	0	44	102	19922944	19	4417
2026-01-26 02:58:05.44	277.82	8.88	-29.5	-31.5	12.3	3.65e-03	0	44	102	19922944	19	4491
2026-01-26 02:58:06.45	277.70	8.83	-29.7	-31.8	12.0	2.64e-03	0	44	102	19922944	19	4620
2026-01-26 02:58:07.46	277.57	8.77	-29.7	-31.8	12.0	4.42e-03	0	44	102	19922944	19	4630
2026-01-26 02:58:08.46	277.45	8.71	-29.6	-31.6	12.2	2.38e-03	0	44	102	19922944	19	4540
2026-01-26 02:58:09.46	277.33	8.65	-29.7	-31.9	11.9	2.96e-03	0	44	102	19922944	19	4647
2026-01-26 02:58:10.47	277.20	8.60	-29.6	-31.8	12.0	4.83e-03	0	44	102	19922944	19	4607
2026-01-26 02:58:11.47	277.08	8.54	-29.8	-32.3	11.6	2.53e-03	0	44	102	19922944	19	4814
2026-01-26 02:58:12.48	276.96	8.48	-29.9	-32.7	11.3	5.68e-03	0	44	102	19922944	19	4967
2026-01-26 02:58:13.48	276.83	8.42	-29.8	-32.0	11.4	1.09e-03	0	44	102	19922944	20	4600
2026-01-26 02:58:14.48	276.71	8.37	-30.0	-32.5	11.0	2.97e-03	0	44	102	19922944	20	4788
2026-01-26 02:58:15.49	276.59	8.31	-29.9	-32.4	11.5	4.56e-03	0	44	102	19922944	19	4842
2026-01-26 02:58:16.49	276.47	8.25	-30.0	-32.5	11.0	5.18e-03	0	44	102	19922944	20	4805
2026-01-26 02:58:17.49	276.35	8.19	-29.9	-32.2	11.2	2.49e-03	0	44	102	19922944	20	4690
2026-01-26 02:58:18.49	276.23	8.14	-29.9	-32.5	11.4	4.51e-03	0	44	102	19922944	19	4886
2026-01-26 02:58:19.50	276.11	8.08	-30.0	-32.5	11.0	5.27e-03	0	44	102	19922944	20	4798
2026-01-26 02:58:20.50	276.00	8.02	-30.2	-33.1	10.6	4.45e-03	0	44	102	19922944	20	5031
2026-01-26 02:58:21.50	275.88	7.96	-30.1	-32.9	10.7	6.30e-03	0	44	102	19922944	20	4942
2026-01-26 02:58:22.50	275.76	7.91	-30.2	-33.2	10.5	7.36e-03	0	44	102	19922944	20	5096
2026-01-26 02:58:23.51	275.64	7.85	-30.0	-32.6	10.9	8.46e-03	0	44	102	19922944	20	4825
2026-01-26 02:58:24.52	275.53	7.79	-30.0	-32.5	11.0	7.45e-03	0	44	102	19922944	20	4796
2026-01-26 02:58:25.52	275.41	7.73	-29.8	-32.2	11.6	4.60e-03	0	44	102	19922944	19	4775
2026-01-26 02:58:26.52	275.30	7.68	-29.7	-32.2	11.6	2.24e-03	0	44	102	19922944	19	4755
2026-01-26 02:58:27.53	275.18	7.62	-29.7	-31.9	11.8	4.57e-03	0	44	102	19922944	19	4665
2026-01-26 02:58:28.54	275.07	7.56	-29.5	-31.4	12.2	3.93e-03	0	44	102	19922944	19	4469
2026-01-26 02:58:29.54	274.95	7.50	-29.6	-31.6	12.0	1.47e-03	0	44	102	19922944	19	4570
2026-01-26 02:58:30.54	274.84	7.45	-29.2	-30.6	12.6	1.20e-04	0	44	102	19922944	19	4236
2026-01-26 02:58:31.55	274.72	7.39	-29.5	-31.8	12.2	2.60e-03	0	44	102	19922944	18	4730
2026-01-26 02:58:32.55	274.61	7.33	-29.3	-30.8	12.5	7.88e-04	0	44	102	19922944	19	4300
2026-01-26 02:58:33.55	274.50	7.27	-29.4	-31.7	12.2	2.40e-03	0	44	102	19922944	18	4694
2026-01-26 02:58:34.55	274.39	7.22	-29.4	-31.2	12.2	2.66e-04	0	44	102	19922944	19	4418
2026-01-26 02:58:35.55	274.28	7.16	-29.5	-31.8	12.2	3.00e-04	0	44	102	19922944	18	4734
2026-01-26 02:58:36.56	274.17	7.10	-29.7	-32.0	11.7	5.66e-04	0	44	102	19922944	19	4717
2026-01-26 02:58:37.56	274.06	7.05	-32.4	-44.7	3.8	5.63e-01	0	44	104	19922944	24	14899
2026-01-26 02:58:38.56	273.95	6.99	-32.7	-45.2	3.8	1.49e+00	0	44	104	19922944	25	15108
2026-01-26 02:58:39.56	273.84	6.93	-33.2	-45.6	3.8	1.49e+00	0	44	104	19922944	26	14996
2026-01-26 02:58:40.57	273.73	6.88	-33.4	-46.1	3.8	1.49e+00	0	44	104	19922944	26	15446

#Closed at: 2026-01-26 02:58:40
#Recorded file [19 MB]: D:/data/31010_260126_054952.dat