passes_logs/2026/01/26/R2M6_AANII_01/R2M6_AANII_01__20260126_052927_FENGYUN_3E_rec.log

#Pass ID: 20260126_052927_FENGYUN 3E
#Satellite: FENGYUN 3E
#Configuration: FENGYUN 3E
#almurnet v.1.7.20240730
#Start time: 2026-01-26 05:29:26

#Version: 2.2.20231116
#Station: R2M6_AANII_01
#Location: 30.233357 lon 59.946436 lat
#TLE: 1 49008U 21062A   26025.85775150 -.00000016  00000+0  13398-4 0  9990
#TLE: 2 49008  98.7498  30.8591 0002468 117.3618 242.7810 14.19886460236384

#Time	Az	El	Level	Level2	SNR	BER	BlckErr	Temp	State	Recorded	gain1	gain2
2026-01-26 05:29:26.73	14.14	6.94	-31.0	-36.4	4.3	8.30e-01	0	40	0	0	21	6721
2026-01-26 05:29:27.73	14.10	7.02	-30.9	-36.2	4.3	8.28e-01	0	40	104	0	21	6562
2026-01-26 05:29:28.73	14.05	7.09	-30.9	-35.9	5.4	7.21e-01	0	40	0	0	21	6358
2026-01-26 05:29:29.73	14.01	7.16	-30.8	-35.4	5.6	4.55e-01	0	40	102	1048576	21	6117
2026-01-26 05:29:30.74	13.97	7.24	-30.9	-35.5	5.6	6.16e-01	0	40	102	1048576	21	6130
2026-01-26 05:29:31.74	13.93	7.32	-30.9	-35.6	5.6	6.49e-01	0	40	102	1048576	21	6168
2026-01-26 05:29:32.74	13.88	7.39	-31.0	-36.0	5.4	7.25e-01	0	40	102	1048576	21	6393
2026-01-26 05:29:33.75	13.84	7.47	-31.0	-35.9	5.4	7.30e-01	0	40	102	1048576	21	6349
2026-01-26 05:29:34.75	13.80	7.54	-31.0	-36.2	5.3	6.97e-01	0	40	102	1048576	21	6542
2026-01-26 05:29:35.75	13.75	7.62	-30.9	-35.6	5.6	7.28e-01	0	41	102	1048576	21	6178
2026-01-26 05:29:36.76	13.71	7.69	-30.8	-35.2	5.8	5.25e-01	0	41	102	1048576	21	5975
2026-01-26 05:29:37.76	13.66	7.77	-30.7	-34.9	6.0	4.06e-01	0	41	102	1048576	21	5798
2026-01-26 05:29:38.77	13.62	7.85	-30.3	-33.8	7.0	1.62e-01	0	41	102	1048576	20	5392
2026-01-26 05:29:39.77	13.58	7.92	-30.0	-33.0	7.5	1.31e-01	0	41	102	1048576	20	5073
2026-01-26 05:29:40.77	13.53	8.00	-29.6	-32.1	8.5	5.10e-02	0	41	102	1048576	19	4799
2026-01-26 05:29:41.77	13.49	8.08	-29.2	-31.5	9.3	2.18e-02	0	41	102	1048576	18	4697
2026-01-26 05:29:42.78	13.44	8.16	-28.5	-30.3	10.4	4.89e-03	0	41	102	1048576	17	4404
2026-01-26 05:29:43.78	13.39	8.23	-28.3	-30.2	10.7	3.60e-03	0	41	102	1048576	16	4491
2026-01-26 05:29:44.79	13.35	8.31	-28.3	-30.1	10.8	2.70e-03	0	41	102	1048576	16	4452
2026-01-26 05:29:45.79	13.30	8.39	-28.3	-30.2	10.8	2.01e-03	0	41	102	1048576	16	4469
2026-01-26 05:29:46.79	13.25	8.47	-28.4	-30.3	10.7	2.78e-03	0	41	102	1048576	16	4505
2026-01-26 05:29:47.80	13.21	8.55	-27.9	-29.8	11.2	1.18e-03	0	41	102	1048576	15	4466
2026-01-26 05:29:48.81	13.16	8.63	-27.6	-29.0	11.7	8.85e-04	0	41	102	1048576	15	4228
2026-01-26 05:29:49.81	13.11	8.71	-27.6	-29.1	11.7	1.27e-03	0	41	102	1048576	15	4258
2026-01-26 05:29:50.82	13.06	8.79	-27.4	-29.0	12.0	2.35e-04	0	41	102	1048576	14	4328
2026-01-26 05:29:51.82	13.02	8.87	-27.7	-29.4	11.5	6.13e-04	0	41	102	1048576	15	4338
2026-01-26 05:29:52.82	12.97	8.95	-27.5	-28.9	11.8	5.05e-04	0	41	102	1048576	15	4193
2026-01-26 05:29:53.82	12.92	9.03	-27.0	-28.1	12.6	1.28e-04	0	41	102	1048576	14	4097
2026-01-26 05:29:54.82	12.87	9.11	-26.6	-27.6	13.2	3.54e-05	0	41	102	1048576	13	4061
2026-01-26 05:29:55.83	12.82	9.19	-26.6	-27.7	13.2	2.40e-05	0	41	102	1048576	13	4073
2026-01-26 05:29:56.84	12.77	9.27	-26.5	-27.5	13.2	7.16e-04	0	41	102	1048576	13	4028
2026-01-26 05:29:57.84	12.72	9.35	-26.6	-27.8	13.1	1.25e-05	0	41	102	1048576	13	4102
2026-01-26 05:29:58.85	12.67	9.43	-26.7	-28.0	13.0	4.57e-05	0	41	102	1048576	13	4146
2026-01-26 05:29:59.85	12.62	9.51	-26.9	-28.4	12.7	4.11e-05	0	41	102	1048576	13	4279
2026-01-26 05:30:00.85	12.57	9.59	-26.7	-27.8	13.1	2.17e-05	0	41	102	1048576	13	4117
2026-01-26 05:30:01.85	12.52	9.67	-26.3	-27.5	13.6	4.50e-06	0	41	102	1048576	12	4123
2026-01-26 05:30:02.86	12.47	9.76	-26.1	-27.1	13.8	3.40e-06	0	41	102	1048576	12	4028
2026-01-26 05:30:03.86	12.42	9.84	-26.1	-27.0	13.9	5.70e-06	0	41	102	1048576	12	4005
2026-01-26 05:30:04.87	12.36	9.92	-26.0	-26.7	14.1	1.10e-06	0	41	102	1048576	12	3931
2026-01-26 05:30:05.87	12.31	10.01	-26.1	-27.0	13.9	5.70e-06	0	41	102	1048576	12	3986
2026-01-26 05:30:06.88	12.26	10.09	-26.1	-26.9	14.0	1.96e-03	0	41	102	1048576	12	3966
2026-01-26 05:30:07.88	12.21	10.17	-26.3	-27.5	13.6	2.20e-06	0	41	102	1048576	12	4137
2026-01-26 05:30:08.88	12.15	10.26	-26.1	-27.4	14.1	4.44e-04	0	41	102	1048576	11	4197
2026-01-26 05:30:09.89	12.10	10.34	-26.4	-27.7	13.6	3.40e-06	0	41	102	1048576	12	4172
2026-01-26 05:30:10.89	12.05	10.42	-26.4	-27.7	13.6	3.40e-06	0	41	102	1048576	12	4164
2026-01-26 05:30:11.89	11.99	10.51	-26.3	-27.5	13.7	4.38e-04	0	41	102	1048576	12	4114
2026-01-26 05:30:12.91	11.94	10.59	-26.5	-27.9	13.4	1.02e-05	0	41	102	1048576	12	4228
2026-01-26 05:30:13.91	11.88	10.68	-26.7	-27.8	13.2	2.56e-03	0	42	102	1048576	13	4100
2026-01-26 05:30:14.92	11.83	10.77	-27.0	-28.6	12.8	2.05e-05	0	42	102	1048576	13	4324
2026-01-26 05:30:15.92	11.77	10.85	-27.1	-28.7	12.7	4.57e-05	0	42	102	1048576	13	4341
2026-01-26 05:30:16.92	11.71	10.94	-27.2	-28.5	12.6	3.06e-03	0	42	102	1048576	14	4175
2026-01-26 05:30:17.93	11.66	11.02	-27.5	-29.3	12.1	1.96e-04	0	42	102	1048576	14	4410
2026-01-26 05:30:18.94	11.60	11.11	-27.0	-28.1	12.8	2.94e-03	0	42	102	1048576	14	4076
2026-01-26 05:30:19.94	11.54	11.20	-27.4	-28.9	12.3	2.23e-03	0	42	102	1048576	14	4301
2026-01-26 05:30:20.94	11.49	11.28	-27.3	-28.6	12.5	6.43e-04	0	42	102	1048576	14	4213
2026-01-26 05:30:21.95	11.43	11.37	-27.4	-29.0	12.3	2.89e-03	0	42	102	1048576	14	4315
2026-01-26 05:30:22.96	11.37	11.46	-27.2	-28.4	12.7	9.61e-05	0	42	102	1048576	14	4149
2026-01-26 05:30:23.95	11.31	11.55	-26.5	-27.4	13.5	5.52e-04	0	42	102	1048576	13	4000
2026-01-26 05:30:24.96	11.25	11.63	-26.5	-27.9	13.5	2.36e-03	0	42	102	1048576	12	4239
2026-01-26 05:30:25.96	11.19	11.72	-26.4	-27.7	13.7	2.59e-03	0	42	102	1048576	12	4165
2026-01-26 05:30:26.96	11.13	11.81	-26.5	-27.9	13.5	4.78e-04	0	42	102	1048576	12	4218
2026-01-26 05:30:27.96	11.07	11.90	-26.6	-27.7	13.4	8.00e-06	0	42	102	1048576	13	4052
2026-01-26 05:30:28.97	11.01	11.99	-26.9	-28.3	13.0	2.69e-03	0	42	102	1048576	13	4235
2026-01-26 05:30:29.97	10.95	12.08	-27.0	-28.6	12.9	5.43e-04	0	42	102	1048576	13	4309
2026-01-26 05:30:30.97	10.89	12.17	-27.2	-28.5	12.7	2.79e-03	0	42	102	1048576	14	4176
2026-01-26 05:30:31.98	10.83	12.26	-26.8	-28.0	13.2	2.32e-03	0	42	102	1048576	13	4152
2026-01-26 05:30:32.98	10.77	12.35	-26.5	-27.4	13.5	6.80e-06	0	42	102	1048576	13	3990
2026-01-26 05:30:33.99	10.70	12.44	-26.2	-27.3	13.9	2.29e-03	0	42	102	1048576	12	4065
2026-01-26 05:30:34.99	10.64	12.53	-26.1	-27.0	14.1	1.10e-06	0	42	102	1048576	12	3980
2026-01-26 05:30:36.00	10.58	12.62	-25.9	-26.6	14.3	3.98e-04	0	42	102	1048576	12	3878
2026-01-26 05:30:37.01	10.51	12.72	-26.1	-27.0	14.1	2.20e-03	0	42	102	1048576	12	3976
2026-01-26 05:30:38.01	10.45	12.81	-25.8	-26.9	14.5	1.10e-06	0	42	102	1048576	11	4062
2026-01-26 05:30:39.02	10.39	12.90	-25.5	-26.7	14.8	3.59e-04	0	42	102	1048576	10	4107
2026-01-26 05:30:40.02	10.32	12.99	-25.2	-26.1	15.2	0.00e+00	0	42	102	1048576	10	3961
2026-01-26 05:30:41.02	10.26	13.09	-25.1	-25.8	15.4	1.64e-03	0	42	102	1048576	10	3888
2026-01-26 05:30:42.03	10.19	13.18	-25.0	-26.0	15.6	0.00e+00	0	42	102	1048576	9	4054
2026-01-26 05:30:43.03	10.12	13.27	-25.1	-25.8	15.4	0.00e+00	0	42	102	1048576	10	3890
2026-01-26 05:30:44.04	10.06	13.37	-24.5	-25.3	15.1	1.84e-03	0	42	102	1048576	10	3946
2026-01-26 05:30:45.04	9.99	13.46	-25.0	-26.1	15.5	0.00e+00	0	42	102	1048576	9	4080
2026-01-26 05:30:46.04	9.92	13.56	-24.9	-25.9	15.5	0.00e+00	0	42	102	1048576	9	4024
2026-01-26 05:30:47.05	9.85	13.65	-25.1	-26.3	15.4	7.78e-05	0	42	102	1048576	9	4127
2026-01-26 05:30:48.05	9.78	13.75	-24.9	-25.9	15.6	0.00e+00	0	42	102	1048576	9	4016
2026-01-26 05:30:49.05	9.72	13.84	-24.9	-25.9	15.6	1.73e-03	0	42	102	1048576	9	4028
2026-01-26 05:30:50.05	9.65	13.94	-25.0	-26.0	15.6	0.00e+00	0	42	102	1048576	9	4056
2026-01-26 05:30:51.05	9.58	14.03	-24.8	-25.6	15.8	0.00e+00	0	42	102	1048576	9	3951
2026-01-26 05:30:52.06	9.51	14.13	-24.8	-25.7	15.8	3.94e-04	0	42	102	1048576	9	3970
2026-01-26 05:30:53.06	9.44	14.23	-24.7	-25.3	16.0	0.00e+00	0	42	102	1048576	9	3873
2026-01-26 05:30:54.06	9.36	14.32	-24.8	-25.6	15.8	1.21e-04	0	42	102	1048576	9	3946
2026-01-26 05:30:55.07	9.29	14.42	-24.8	-25.6	15.8	3.94e-04	0	42	102	1048576	9	3948
2026-01-26 05:30:56.07	9.22	14.52	-24.8	-25.6	15.8	0.00e+00	0	42	102	1048576	9	3940
2026-01-26 05:30:57.07	9.15	14.62	-24.5	-25.4	16.2	0.00e+00	0	42	102	1048576	8	4007
2026-01-26 05:30:58.08	9.07	14.72	-24.7	-25.5	15.9	0.00e+00	0	42	102	1048576	9	3917
2026-01-26 05:30:59.07	9.00	14.81	-24.6	-25.2	16.0	0.00e+00	0	42	102	1048576	9	3858
2026-01-26 05:31:00.08	8.92	14.91	-24.6	-25.2	16.1	0.00e+00	0	42	102	1048576	9	3842
2026-01-26 05:31:01.08	8.85	15.01	-24.9	-25.8	15.8	2.76e-04	0	42	102	1048576	9	3992
2026-01-26 05:31:02.09	8.77	15.11	-24.8	-25.5	15.9	2.28e-04	0	42	102	1048576	9	3913
2026-01-26 05:31:03.10	8.70	15.21	-24.6	-25.2	16.1	0.00e+00	0	42	102	1048576	9	3848
2026-01-26 05:31:04.10	8.62	15.31	-24.5	-25.4	16.3	2.54e-04	0	42	102	1048576	8	3989
2026-01-26 05:31:05.11	8.54	15.42	-24.6	-25.2	16.1	2.16e-04	0	42	102	1048576	9	3850
2026-01-26 05:31:06.11	8.47	15.52	-24.6	-25.1	16.1	0.00e+00	0	42	102	1048576	9	3833
2026-01-26 05:31:07.11	8.39	15.62	-24.5	-25.5	16.2	2.54e-04	0	42	102	1048576	8	4033
2026-01-26 05:31:08.12	8.31	15.72	-24.5	-25.4	16.3	2.52e-04	0	42	102	1048576	8	4004
2026-01-26 05:31:09.12	8.23	15.82	-24.6	-25.2	16.1	0.00e+00	0	42	102	1048576	9	3855
2026-01-26 05:31:10.12	8.15	15.93	-24.8	-25.6	15.9	2.79e-04	0	42	102	1048576	9	3949
2026-01-26 05:31:11.13	8.07	16.03	-25.1	-25.8	15.5	1.10e-06	0	42	102	1048576	10	3891
2026-01-26 05:31:12.12	7.99	16.13	-24.8	-25.5	16.0	0.00e+00	0	42	102	1048576	9	3917
2026-01-26 05:31:13.13	7.91	16.24	-24.8	-25.6	16.0	0.00e+00	0	42	102	1048576	9	3934
2026-01-26 05:31:14.13	7.82	16.34	-24.7	-25.4	16.0	1.49e-04	0	42	102	1048576	9	3895
2026-01-26 05:31:15.14	7.74	16.45	-24.9	-25.7	15.9	0.00e+00	0	42	102	1048576	9	3970
2026-01-26 05:31:16.14	7.66	16.55	-24.7	-25.3	16.1	0.00e+00	0	42	102	1048576	9	3857
2026-01-26 05:31:17.14	7.57	16.66	-24.9	-25.9	15.8	1.35e-04	0	42	102	1048576	9	4008
2026-01-26 05:31:18.15	7.49	16.76	-24.5	-25.0	16.3	0.00e+00	0	42	102	1048576	9	3796
2026-01-26 05:31:19.15	7.40	16.87	-24.4	-24.7	16.4	0.00e+00	0	42	102	1048576	9	3732
2026-01-26 05:31:20.16	7.32	16.98	-24.3	-24.9	16.6	1.72e-04	0	42	102	1048576	8	3889
2026-01-26 05:31:21.16	7.23	17.09	-24.4	-25.2	16.4	0.00e+00	0	42	102	1048576	8	3957
2026-01-26 05:31:22.17	7.14	17.19	-24.4	-25.3	16.4	1.98e-04	0	42	102	1048576	8	3962
2026-01-26 05:31:23.18	7.05	17.30	-24.2	-24.7	16.7	0.00e+00	0	42	102	1048576	8	3836
2026-01-26 05:31:24.18	6.96	17.41	-24.1	-24.5	16.8	0.00e+00	0	42	102	1048576	8	3783
2026-01-26 05:31:25.19	6.87	17.52	-23.9	-24.2	17.0	0.00e+00	0	42	102	1048576	8	3719
2026-01-26 05:31:26.20	6.78	17.63	-23.9	-24.7	17.0	0.00e+00	0	42	102	1048576	7	3950
2026-01-26 05:31:27.20	6.69	17.74	-23.9	-24.7	17.0	0.00e+00	0	42	102	1048576	7	3923
2026-01-26 05:31:28.20	6.60	17.85	-23.8	-24.4	17.1	0.00e+00	0	42	102	1048576	7	3867
2026-01-26 05:31:29.21	6.51	17.96	-24.0	-24.8	16.9	0.00e+00	0	42	102	1048576	7	3951
2026-01-26 05:31:30.21	6.42	18.07	-23.9	-24.6	17.0	0.00e+00	0	42	102	1048576	7	3906
2026-01-26 05:31:31.22	6.32	18.18	-23.7	-24.3	17.2	0.00e+00	0	43	102	1048576	7	3837
2026-01-26 05:31:32.22	6.23	18.29	-23.8	-24.5	17.1	0.00e+00	0	43	102	1048576	7	3885
2026-01-26 05:31:33.23	6.13	18.41	-23.7	-24.2	17.2	0.00e+00	0	42	102	1048576	7	3809
2026-01-26 05:31:34.23	6.04	18.52	-23.6	-24.1	17.3	1.10e-06	0	43	102	1048576	7	3796
2026-01-26 05:31:35.24	5.94	18.63	-23.6	-24.1	17.3	0.00e+00	0	42	102	1048576	7	3797
2026-01-26 05:31:36.23	5.85	18.75	-23.7	-24.2	17.2	0.00e+00	0	42	102	1048576	7	3813
2026-01-26 05:31:37.24	5.75	18.86	-23.8	-24.5	17.1	0.00e+00	0	42	102	1048576	7	3891
2026-01-26 05:31:38.25	5.65	18.98	-23.5	-23.9	17.4	0.00e+00	0	42	102	1048576	7	3752
2026-01-26 05:31:39.25	5.55	19.09	-23.5	-24.3	17.4	0.00e+00	0	42	102	1048576	6	3954
2026-01-26 05:31:40.25	5.45	19.21	-23.4	-23.7	17.5	0.00e+00	0	42	102	1048576	7	3705
2026-01-26 05:31:41.26	5.35	19.32	-23.6	-24.1	17.3	0.00e+00	0	42	102	1048576	7	3802
2026-01-26 05:31:42.26	5.25	19.44	-23.8	-24.5	17.1	1.10e-06	0	42	102	1048576	7	3888
2026-01-26 05:31:43.27	5.14	19.56	-23.9	-24.6	17.0	0.00e+00	0	42	102	1048576	7	3914
2026-01-26 05:31:44.27	5.04	19.67	-23.9	-24.7	17.0	0.00e+00	0	43	102	1048576	7	3939
2026-01-26 05:31:45.28	4.93	19.79	-23.9	-24.7	17.0	0.00e+00	0	43	102	1048576	7	3951
2026-01-26 05:31:46.28	4.83	19.91	-24.0	-24.3	17.0	2.20e-06	0	42	102	1048576	8	3746
2026-01-26 05:31:47.29	4.72	20.03	-23.9	-24.7	17.0	0.00e+00	0	42	102	1048576	7	3944
2026-01-26 05:31:48.29	4.62	20.15	-23.7	-24.3	17.1	0.00e+00	0	42	102	1048576	7	3852
2026-01-26 05:31:49.29	4.51	20.26	-22.9	-23.1	12.9	0.00e+00	0	43	102	1048576	7	3678
2026-01-26 05:31:50.30	4.40	20.39	-23.3	-23.8	17.1	0.00e+00	0	42	102	1048576	6	3830
2026-01-26 05:31:51.30	4.29	20.51	-23.2	-23.6	17.7	2.20e-06	0	42	102	1048576	6	3796
2026-01-26 05:31:52.30	4.18	20.63	-23.2	-23.7	17.8	0.00e+00	0	42	102	1048576	6	3806
2026-01-26 05:31:53.31	4.07	20.75	-23.3	-23.9	17.7	1.45e-04	0	43	102	1048576	6	3840
2026-01-26 05:31:54.32	3.96	20.87	-23.3	-24.0	17.7	0.00e+00	0	42	102	1048576	6	3869
2026-01-26 05:31:55.33	3.84	20.99	-23.2	-23.6	17.9	0.00e+00	0	42	102	1048576	6	3789
2026-01-26 05:31:56.33	3.73	21.12	-23.2	-23.7	17.8	1.26e-04	0	42	102	1048576	6	3807
2026-01-26 05:31:57.33	3.61	21.24	-23.4	-24.1	17.6	0.00e+00	0	42	102	1048576	6	3902
2026-01-26 05:31:58.34	3.50	21.36	-23.5	-23.7	17.6	1.66e-03	0	42	102	1048576	7	3706
2026-01-26 05:31:59.34	3.38	21.49	-23.2	-23.2	17.9	0.00e+00	0	42	102	1048576	7	3585
2026-01-26 05:32:00.34	3.26	21.61	-22.9	-23.0	18.2	1.67e-03	0	42	102	1048576	6	3643
2026-01-26 05:32:01.35	3.14	21.74	-23.0	-23.3	18.0	1.54e-03	0	43	102	1048576	6	3713
2026-01-26 05:32:02.35	3.02	21.86	-23.1	-23.5	17.9	0.00e+00	0	42	102	1048576	6	3770
2026-01-26 05:32:03.36	2.90	21.99	-23.2	-23.7	17.8	1.52e-03	0	42	102	1048576	6	3806
2026-01-26 05:32:04.36	2.78	22.11	-23.1	-23.4	18.0	4.84e-04	0	43	102	1048576	6	3749
2026-01-26 05:32:05.36	2.66	22.24	-23.1	-23.5	17.9	2.15e-04	0	42	102	1048576	6	3761
2026-01-26 05:32:06.37	2.53	22.37	-23.3	-23.8	17.8	1.62e-03	0	43	102	1048576	6	3825
2026-01-26 05:32:07.37	2.41	22.50	-23.1	-23.5	17.9	1.02e-05	0	42	102	1048576	6	3771
2026-01-26 05:32:08.37	2.28	22.63	-23.2	-23.7	17.8	1.37e-04	0	43	102	1048576	6	3813
2026-01-26 05:32:09.37	2.16	22.75	-23.3	-23.8	17.8	1.58e-03	0	43	102	1048576	6	3837
2026-01-26 05:32:10.38	2.03	22.88	-23.3	-23.9	17.7	1.45e-03	0	43	102	1048576	6	3857
2026-01-26 05:32:11.39	1.90	23.01	-23.2	-23.8	17.8	9.04e-05	0	43	102	1048576	6	3817
2026-01-26 05:32:12.39	1.77	23.14	-23.1	-23.5	18.0	1.41e-03	0	43	102	1048576	6	3756
2026-01-26 05:32:13.40	1.64	23.28	-23.3	-23.9	17.8	1.59e-03	0	43	102	1048576	6	3853
2026-01-26 05:32:14.41	1.50	23.41	-23.3	-23.9	17.8	8.12e-05	0	42	102	1048576	6	3843
2026-01-26 05:32:15.41	1.37	23.54	-23.3	-23.8	17.8	1.60e-03	0	42	102	1048576	6	3825
2026-01-26 05:32:16.41	1.23	23.67	-23.3	-23.8	17.9	1.53e-03	0	43	102	1048576	6	3824
2026-01-26 05:32:17.41	1.10	23.81	-23.2	-23.7	17.9	0.00e+00	0	43	102	1048576	6	3800
2026-01-26 05:32:18.41	0.96	23.94	-23.4	-24.0	17.7	1.54e-03	0	42	102	1048576	6	3869
2026-01-26 05:32:19.42	0.82	24.07	-23.3	-23.9	17.8	0.00e+00	0	42	102	1048576	6	3860
2026-01-26 05:32:20.42	0.68	24.21	-23.4	-24.0	17.7	1.93e-04	0	42	102	1048576	6	3881
2026-01-26 05:32:21.43	0.54	24.34	-23.4	-24.0	17.7	0.00e+00	0	43	102	1048576	6	3877
2026-01-26 05:32:22.43	0.40	24.48	-23.3	-23.3	17.8	0.00e+00	0	43	102	1048576	7	3607
2026-01-26 05:32:23.44	0.26	24.62	-23.5	-23.7	17.6	1.62e-04	0	43	102	1048576	7	3712
2026-01-26 05:32:24.43	0.11	24.75	-23.5	-23.9	17.6	0.00e+00	0	43	102	1048576	7	3744
2026-01-26 05:32:25.43	359.97	24.89	-23.4	-23.6	17.7	1.51e-03	0	43	102	1048576	7	3691
2026-01-26 05:32:26.43	359.82	25.02	-23.4	-24.2	17.7	0.00e+00	0	42	102	1048576	6	3911
2026-01-26 05:32:27.44	359.67	25.16	-23.4	-24.0	17.8	0.00e+00	0	42	102	1048576	6	3870
2026-01-26 05:32:28.44	359.52	25.30	-23.5	-23.7	17.7	1.38e-03	0	42	102	1048576	7	3705
2026-01-26 05:32:29.45	359.37	25.44	-23.5	-23.7	17.7	0.00e+00	0	42	102	1048576	7	3711
2026-01-26 05:32:30.46	359.21	25.58	-23.4	-23.6	17.8	0.00e+00	0	43	102	1048576	7	3677
2026-01-26 05:32:31.46	359.06	25.72	-23.3	-23.9	17.8	0.00e+00	0	43	102	1048576	6	3857
2026-01-26 05:32:32.47	358.90	25.86	-23.2	-23.6	18.0	0.00e+00	0	43	102	1048576	6	3786
2026-01-26 05:32:33.47	358.75	26.00	-23.0	-23.3	18.2	1.49e-03	0	43	102	1048576	6	3702
2026-01-26 05:32:34.48	358.59	26.15	-22.9	-23.0	18.3	0.00e+00	0	43	102	1048576	6	3642
2026-01-26 05:32:35.48	358.43	26.29	-22.9	-23.0	18.3	0.00e+00	0	43	102	1048576	6	3644
2026-01-26 05:32:36.48	358.27	26.43	-22.9	-23.5	18.3	0.00e+00	0	43	102	1048576	5	3863
2026-01-26 05:32:37.49	358.10	26.57	-22.8	-23.2	18.5	1.10e-06	0	43	102	1048576	5	3799
2026-01-26 05:32:38.49	357.94	26.72	-22.8	-23.3	18.5	4.50e-06	0	42	102	1048576	5	3813
2026-01-26 05:32:39.49	357.77	26.86	-23.0	-23.6	18.3	0.00e+00	0	43	102	1048576	5	3888
2026-01-26 05:32:40.50	357.61	27.01	-22.9	-23.4	18.4	1.10e-06	0	43	102	1048576	5	3844
2026-01-26 05:32:41.50	357.44	27.15	-22.7	-23.1	18.6	1.10e-06	0	43	102	1048576	5	3770
2026-01-26 05:32:42.51	357.27	27.30	-22.8	-23.2	18.5	0.00e+00	0	42	102	1048576	5	3792
2026-01-26 05:32:43.51	357.09	27.44	-22.8	-23.3	18.4	0.00e+00	0	43	102	1048576	5	3819
2026-01-26 05:32:44.52	356.92	27.59	-22.6	-22.9	18.7	0.00e+00	0	43	102	1048576	5	3719
2026-01-26 05:32:45.53	356.74	27.74	-22.6	-22.9	18.7	0.00e+00	0	43	102	1048576	5	3722
2026-01-26 05:32:46.53	356.57	27.89	-22.6	-22.9	18.7	0.00e+00	0	43	102	1048576	5	3725
2026-01-26 05:32:47.53	356.39	28.03	-22.4	-22.4	18.9	0.00e+00	0	43	102	1048576	5	3619
2026-01-26 05:32:48.54	356.21	28.18	-22.3	-22.4	18.9	0.00e+00	0	43	102	1048576	5	3609
2026-01-26 05:32:49.55	356.02	28.33	-22.2	-22.6	19.1	0.00e+00	0	43	102	1048576	4	3754
2026-01-26 05:32:50.54	355.84	28.48	-22.2	-22.5	19.1	0.00e+00	0	43	102	1048576	4	3736
2026-01-26 05:32:51.55	355.65	28.63	-22.1	-22.4	19.1	0.00e+00	0	43	102	1048576	4	3733
2026-01-26 05:32:52.55	355.47	28.78	-22.3	-22.8	19.0	0.00e+00	0	43	102	1048576	4	3807
2026-01-26 05:32:53.56	355.28	28.93	-22.2	-22.6	19.1	0.00e+00	0	43	102	1048576	4	3767
2026-01-26 05:32:54.56	355.09	29.08	-22.1	-21.8	19.2	0.00e+00	0	43	102	1048576	5	3491
2026-01-26 05:32:55.56	354.89	29.24	-22.1	-22.2	19.3	0.00e+00	0	43	102	1048576	4	3679
2026-01-26 05:32:56.56	354.70	29.39	-22.0	-22.1	19.3	0.00e+00	0	43	102	1048576	4	3655
2026-01-26 05:32:57.57	354.50	29.54	-22.0	-22.2	19.3	0.00e+00	0	43	102	1048576	4	3680
2026-01-26 05:32:58.58	354.30	29.70	-22.1	-22.4	19.2	0.00e+00	0	43	102	1048576	4	3718
2026-01-26 05:32:59.58	354.10	29.85	-22.4	-22.9	18.9	0.00e+00	0	43	102	1048576	4	3830
2026-01-26 05:33:00.58	353.90	30.00	-22.4	-23.1	18.9	0.00e+00	0	43	102	1048576	4	3866
2026-01-26 05:33:01.58	353.70	30.16	-22.5	-22.7	18.8	0.00e+00	0	43	102	1048576	5	3673
2026-01-26 05:33:02.58	353.49	30.31	-22.5	-23.2	18.8	0.00e+00	0	43	102	1048576	4	3889
2026-01-26 05:33:03.59	353.28	30.47	-22.5	-23.2	18.8	0.00e+00	0	43	102	1048576	4	3888
2026-01-26 05:33:04.60	353.07	30.62	-22.6	-22.9	18.7	0.00e+00	0	43	102	1048576	5	3734
2026-01-26 05:33:05.60	352.86	30.78	-22.6	-23.0	18.7	0.00e+00	0	43	102	1048576	5	3743
2026-01-26 05:33:06.61	352.64	30.94	-22.7	-23.0	18.6	0.00e+00	0	43	102	1048576	5	3757
2026-01-26 05:33:07.61	352.42	31.09	-22.7	-23.1	18.6	0.00e+00	0	43	102	1048576	5	3770
2026-01-26 05:33:08.62	352.20	31.25	-22.7	-23.2	18.5	0.00e+00	0	43	102	1048576	5	3792
2026-01-26 05:33:09.62	351.98	31.41	-23.0	-23.7	18.3	0.00e+00	0	43	102	1048576	5	3908
2026-01-26 05:33:10.62	351.76	31.57	-23.0	-23.8	18.3	0.00e+00	0	43	102	1048576	5	3927
2026-01-26 05:33:11.63	351.53	31.73	-22.9	-23.5	18.4	0.00e+00	0	43	102	1048576	5	3851
2026-01-26 05:33:12.63	351.31	31.88	-22.8	-23.4	18.4	0.00e+00	0	43	102	1048576	5	3843
2026-01-26 05:33:13.64	351.08	32.04	-22.9	-23.6	18.4	0.00e+00	0	43	102	1048576	5	3877
2026-01-26 05:33:14.64	350.84	32.20	-22.9	-22.9	18.5	0.00e+00	0	43	102	1048576	6	3632
2026-01-26 05:33:15.64	350.61	32.36	-23.1	-23.5	18.1	2.20e-06	0	43	102	1048576	6	3752
2026-01-26 05:33:16.63	350.38	32.52	-23.1	-23.5	18.1	0.00e+00	0	43	102	1048576	6	3757
2026-01-26 05:33:17.64	350.13	32.68	-23.0	-23.3	18.3	0.00e+00	0	43	102	1048576	6	3716
2026-01-26 05:33:18.65	349.89	32.84	-22.8	-23.3	18.5	0.00e+00	0	43	102	1048576	5	3812
2026-01-26 05:33:19.65	349.65	33.00	-22.9	-23.4	18.5	0.00e+00	0	43	102	1048576	5	3843
2026-01-26 05:33:20.65	349.40	33.16	-22.6	-22.8	18.8	0.00e+00	0	43	102	1048576	5	3709
2026-01-26 05:33:21.66	349.15	33.33	-22.5	-22.7	18.9	0.00e+00	0	43	102	1048576	5	3671
2026-01-26 05:33:22.66	348.90	33.49	-22.4	-22.5	18.9	1.10e-06	0	43	102	1048576	5	3632
2026-01-26 05:33:23.66	348.65	33.65	-22.4	-22.9	18.9	0.00e+00	0	43	102	1048576	4	3841
2026-01-26 05:33:24.66	348.39	33.81	-22.1	-22.3	19.3	0.00e+00	0	43	102	1048576	4	3685
2026-01-26 05:33:25.67	348.13	33.97	-22.3	-22.7	19.0	0.00e+00	0	43	102	1048576	4	3796
2026-01-26 05:33:26.67	347.87	34.13	-22.4	-23.1	18.9	0.00e+00	0	43	102	1048576	4	3865
2026-01-26 05:33:27.67	347.60	34.30	-22.4	-23.1	18.9	0.00e+00	0	43	102	1048576	4	3873
2026-01-26 05:33:28.67	347.34	34.46	-22.4	-23.0	18.9	0.00e+00	0	43	102	1048576	4	3855
2026-01-26 05:33:29.67	347.07	34.62	-22.5	-23.2	18.8	0.00e+00	0	43	102	1048576	4	3898
2026-01-26 05:33:30.67	346.79	34.78	-22.8	-23.2	18.5	0.00e+00	0	43	102	1048576	5	3799
2026-01-26 05:33:31.67	346.52	34.94	-22.7	-23.0	18.6	0.00e+00	0	43	102	1048576	5	3758
2026-01-26 05:33:32.67	346.24	35.11	-22.5	-22.8	18.8	0.00e+00	0	43	102	1048576	5	3694
2026-01-26 05:33:33.68	345.96	35.27	-22.5	-22.7	18.8	0.00e+00	0	43	102	1048576	5	3690
2026-01-26 05:33:34.69	345.67	35.44	-22.6	-22.9	18.7	0.00e+00	0	43	102	1048576	5	3730
2026-01-26 05:33:35.69	345.39	35.60	-22.8	-23.2	18.6	3.31e-05	0	43	102	1048576	5	3790
2026-01-26 05:33:36.69	345.10	35.76	-22.8	-23.3	18.5	0.00e+00	0	43	102	1048576	5	3812
2026-01-26 05:33:37.69	344.81	35.92	-22.7	-23.0	18.7	0.00e+00	0	43	102	1048576	5	3758
2026-01-26 05:33:38.70	344.51	36.09	-22.8	-23.3	18.5	0.00e+00	0	43	102	1048576	5	3810
2026-01-26 05:33:39.70	344.21	36.25	-22.7	-23.1	18.6	0.00e+00	0	43	102	1048576	5	3779
2026-01-26 05:33:40.71	343.91	36.41	-22.7	-23.1	18.6	0.00e+00	0	43	102	1048576	5	3763
2026-01-26 05:33:41.72	343.60	36.58	-22.5	-22.7	18.6	0.00e+00	0	43	102	1048576	5	3676
2026-01-26 05:33:42.72	343.29	36.74	-22.7	-23.1	18.5	1.28e-03	0	43	102	1048576	5	3761
2026-01-26 05:33:43.72	342.98	36.90	-22.6	-22.9	18.7	0.00e+00	0	43	102	1048576	5	3728
2026-01-26 05:33:44.73	342.66	37.07	-22.8	-23.3	18.6	1.37e-03	0	43	102	1048576	5	3820
2026-01-26 05:33:45.73	342.35	37.23	-23.0	-23.6	18.3	1.26e-03	0	43	102	1048576	5	3888
2026-01-26 05:33:46.73	342.03	37.39	-22.9	-23.5	18.4	0.00e+00	0	43	102	1048576	5	3870
2026-01-26 05:33:47.74	341.70	37.55	-22.9	-23.4	18.5	1.49e-03	0	43	102	1048576	5	3844
2026-01-26 05:33:48.74	341.37	37.71	-22.8	-23.4	18.5	1.18e-03	0	43	102	1048576	5	3830
2026-01-26 05:33:49.74	341.04	37.87	-22.7	-23.1	18.6	0.00e+00	0	43	102	1048576	5	3782
2026-01-26 05:33:50.75	340.71	38.04	-23.0	-23.7	18.4	1.37e-03	0	43	102	1048576	5	3902
2026-01-26 05:33:51.76	340.37	38.20	-22.7	-23.1	18.6	0.00e+00	0	43	102	1048576	5	3768
2026-01-26 05:33:52.76	340.03	38.36	-22.8	-23.3	18.5	0.00e+00	0	43	102	1048576	5	3820
2026-01-26 05:33:53.77	339.68	38.52	-22.8	-23.2	18.6	1.18e-03	0	43	102	1048576	5	3802
2026-01-26 05:33:54.78	339.33	38.68	-22.7	-23.1	18.7	1.32e-03	0	43	102	1048576	5	3768
2026-01-26 05:33:55.79	338.98	38.84	-22.6	-22.9	18.8	0.00e+00	0	43	102	1048576	5	3714
2026-01-26 05:33:56.79	338.63	39.00	-22.7	-23.2	18.6	1.71e-05	0	43	102	1048576	5	3789
2026-01-26 05:33:57.79	338.27	39.15	-22.7	-23.1	18.6	1.04e-03	0	43	102	1048576	5	3773
2026-01-26 05:33:58.80	337.90	39.31	-22.5	-22.8	18.8	0.00e+00	0	43	102	1048576	5	3694
2026-01-26 05:33:59.79	337.54	39.47	-22.7	-23.0	18.7	9.41e-04	0	43	102	1048576	5	3750
2026-01-26 05:34:00.80	337.17	39.62	-22.7	-23.1	18.6	8.85e-04	0	43	102	1048576	5	3760
2026-01-26 05:34:01.80	336.80	39.78	-22.8	-23.3	18.5	0.00e+00	0	43	102	1048576	5	3822
2026-01-26 05:34:02.80	336.43	39.93	-22.9	-23.6	18.4	9.29e-04	0	43	102	1048576	5	3891
2026-01-26 05:34:03.81	336.04	40.09	-23.1	-23.4	18.3	9.02e-04	0	43	102	1048576	6	3740
2026-01-26 05:34:04.81	335.66	40.24	-23.4	-24.0	18.0	0.00e+00	0	43	102	1048576	6	3862
2026-01-26 05:34:05.81	335.28	40.39	-23.3	-23.9	18.1	9.15e-04	0	43	102	1048576	6	3841
2026-01-26 05:34:06.82	334.88	40.54	-23.1	-23.4	18.3	0.00e+00	0	43	102	1048576	6	3734
2026-01-26 05:34:07.83	334.49	40.70	-23.0	-23.1	18.4	2.20e-06	0	43	102	1048576	6	3670
2026-01-26 05:34:08.84	334.09	40.85	-23.0	-23.2	18.4	0.00e+00	0	43	102	1048576	6	3690
2026-01-26 05:34:09.84	333.69	40.99	-22.9	-23.0	18.5	1.04e-04	0	43	102	1048576	6	3643
2026-01-26 05:34:10.85	333.28	41.14	-22.8	-23.3	18.6	0.00e+00	0	43	102	1048576	5	3824
2026-01-26 05:34:11.86	332.87	41.29	-22.7	-23.1	18.7	0.00e+00	0	43	102	1048576	5	3765
2026-01-26 05:34:12.87	332.45	41.44	-22.9	-23.1	18.5	2.27e-04	0	43	102	1048576	6	3667
2026-01-26 05:34:13.87	332.04	41.58	-22.9	-22.9	18.5	0.00e+00	0	43	102	1048576	6	3626
2026-01-26 05:34:14.87	331.62	41.72	-22.6	-22.4	18.8	0.00e+00	0	43	102	1048576	6	3525
2026-01-26 05:34:15.87	331.19	41.86	-22.5	-22.6	18.9	0.00e+00	0	43	102	1048576	5	3658
2026-01-26 05:34:16.88	330.76	42.01	-22.4	-22.5	19.0	0.00e+00	0	43	102	1048576	5	3631
2026-01-26 05:34:17.88	330.33	42.15	-22.4	-22.4	19.0	0.00e+00	0	43	102	1048576	5	3623
2026-01-26 05:34:18.88	329.90	42.28	-22.2	-22.5	19.2	0.00e+00	0	43	102	1048576	4	3745
2026-01-26 05:34:19.88	329.46	42.42	-22.1	-22.4	19.3	0.00e+00	0	43	102	1048576	4	3705
2026-01-26 05:34:20.89	329.01	42.56	-22.3	-22.7	19.2	0.00e+00	0	43	102	1048576	4	3777
2026-01-26 05:34:21.90	328.56	42.69	-22.2	-22.6	19.2	0.00e+00	0	43	102	1048576	4	3763
2026-01-26 05:34:22.90	328.12	42.82	-22.3	-22.8	19.1	0.00e+00	0	43	102	1048576	4	3806
2026-01-26 05:34:23.90	327.66	42.95	-22.6	-23.3	18.8	0.00e+00	0	43	102	1048576	4	3920
2026-01-26 05:34:24.91	327.20	43.08	-22.7	-23.0	18.8	0.00e+00	0	43	102	1048576	5	3744
2026-01-26 05:34:25.92	326.74	43.21	-22.7	-23.1	18.7	0.00e+00	0	43	102	1048576	5	3758
2026-01-26 05:34:26.92	326.27	43.34	-22.6	-22.9	18.8	0.00e+00	0	43	102	1048576	5	3721
2026-01-26 05:34:27.93	325.80	43.46	-22.6	-23.0	18.8	0.00e+00	0	43	102	1048576	5	3738
2026-01-26 05:34:28.93	325.33	43.58	-22.9	-23.4	18.5	0.00e+00	0	43	102	1048576	5	3844
2026-01-26 05:34:29.93	324.85	43.70	-22.8	-23.3	18.6	0.00e+00	0	43	102	1048576	5	3824
2026-01-26 05:34:30.94	324.37	43.82	-22.8	-23.2	18.6	0.00e+00	0	43	102	1048576	5	3791
2026-01-26 05:34:31.94	323.89	43.94	-22.7	-23.1	18.6	0.00e+00	0	43	102	1048576	5	3771
2026-01-26 05:34:32.94	323.40	44.05	-22.8	-23.4	18.5	0.00e+00	0	43	102	1048576	5	3830
2026-01-26 05:34:33.95	322.91	44.17	-22.8	-22.8	18.6	0.00e+00	0	43	102	1048576	6	3596
2026-01-26 05:34:34.95	322.42	44.28	-22.6	-22.4	18.8	0.00e+00	0	43	102	1048576	6	3504
2026-01-26 05:34:35.96	321.92	44.39	-22.8	-23.3	18.6	0.00e+00	0	43	102	1048576	5	3805
2026-01-26 05:34:36.97	321.41	44.49	-22.9	-23.6	18.5	0.00e+00	0	43	102	1048576	5	3875
2026-01-26 05:34:37.97	320.91	44.60	-23.0	-23.6	18.5	0.00e+00	0	43	102	1048576	5	3893
2026-01-26 05:34:38.97	320.40	44.70	-23.0	-23.8	18.4	0.00e+00	0	43	102	1048576	5	3924
2026-01-26 05:34:39.97	319.89	44.80	-22.9	-23.5	18.5	0.00e+00	0	43	102	1048576	5	3853
2026-01-26 05:34:40.98	319.38	44.90	-22.7	-23.2	18.7	0.00e+00	0	43	102	1048576	5	3780
2026-01-26 05:34:41.99	318.85	44.99	-22.8	-23.3	18.6	0.00e+00	0	43	102	1048576	5	3803
2026-01-26 05:34:42.99	318.34	45.09	-22.5	-22.6	19.0	0.00e+00	0	43	102	1048576	5	3648
2026-01-26 05:34:44.00	317.81	45.18	-22.8	-23.3	18.7	0.00e+00	0	43	102	1048576	5	3805
2026-01-26 05:34:45.00	317.28	45.27	-23.1	-23.4	18.3	0.00e+00	0	43	102	1048576	6	3740
2026-01-26 05:34:46.00	316.76	45.35	-23.3	-23.9	18.1	0.00e+00	0	43	102	1048576	6	3841
2026-01-26 05:34:47.01	316.22	45.43	-23.5	-23.7	17.9	0.00e+00	0	43	102	1048576	7	3705
2026-01-26 05:34:48.02	315.68	45.51	-23.2	-23.2	18.2	0.00e+00	0	43	102	1048576	7	3587
2026-01-26 05:34:49.02	315.15	45.59	-23.0	-23.3	18.4	0.00e+00	0	43	102	1048576	6	3699
2026-01-26 05:34:50.02	314.61	45.67	-22.8	-22.8	18.6	0.00e+00	0	43	102	1048576	6	3603
2026-01-26 05:34:51.03	314.06	45.74	-22.8	-23.4	18.6	0.00e+00	0	43	102	1048576	5	3824
2026-01-26 05:34:52.03	313.52	45.81	-22.7	-23.2	18.7	0.00e+00	0	43	102	1048576	5	3783
2026-01-26 05:34:53.04	312.97	45.88	-23.0	-23.8	18.4	0.00e+00	0	43	102	1048576	5	3933
2026-01-26 05:34:54.04	312.42	45.94	-23.1	-23.4	18.4	0.00e+00	0	43	102	1048576	6	3742
2026-01-26 05:34:55.05	311.86	46.00	-23.1	-23.5	18.3	0.00e+00	0	43	102	1048576	6	3757
2026-01-26 05:34:56.05	311.31	46.06	-23.2	-23.7	18.2	0.00e+00	0	43	102	1048576	6	3806
2026-01-26 05:34:57.06	310.75	46.11	-23.1	-23.3	18.4	0.00e+00	0	43	102	1048576	6	3719
2026-01-26 05:34:58.06	310.19	46.17	-23.2	-23.5	18.3	0.00e+00	0	43	102	1048576	6	3761
2026-01-26 05:34:59.06	309.63	46.22	-23.3	-23.8	18.2	0.00e+00	0	43	102	1048576	6	3813
2026-01-26 05:35:00.07	309.07	46.26	-23.2	-23.7	18.2	0.00e+00	0	43	102	1048576	6	3791
2026-01-26 05:35:01.08	308.50	46.31	-23.2	-23.7	18.2	0.00e+00	0	43	102	1048576	6	3802
2026-01-26 05:35:02.08	307.94	46.35	-23.2	-23.7	18.2	0.00e+00	0	43	102	1048576	6	3800
2026-01-26 05:35:03.08	307.37	46.38	-23.1	-23.5	18.3	0.00e+00	0	43	102	1048576	6	3759
2026-01-26 05:35:04.08	306.81	46.42	-23.0	-23.2	18.5	0.00e+00	0	43	102	1048576	6	3684
2026-01-26 05:35:05.09	306.23	46.45	-23.0	-23.1	18.5	0.00e+00	0	43	102	1048576	6	3670
2026-01-26 05:35:06.09	305.66	46.48	-23.0	-23.8	18.4	0.00e+00	0	43	102	1048576	5	3917
2026-01-26 05:35:07.09	305.10	46.50	-23.0	-23.1	18.5	0.00e+00	0	43	102	1048576	6	3659
2026-01-26 05:35:08.10	304.52	46.52	-23.1	-23.4	18.4	0.00e+00	0	43	102	1048576	6	3729
2026-01-26 05:35:09.10	303.95	46.54	-23.1	-23.4	18.4	0.00e+00	0	43	102	1048576	6	3732
2026-01-26 05:35:10.10	303.38	46.56	-23.4	-24.0	18.1	0.00e+00	0	43	102	1048576	6	3869
2026-01-26 05:35:11.11	302.80	46.57	-23.2	-23.6	18.3	0.00e+00	0	43	102	1048576	6	3767
2026-01-26 05:35:12.12	302.22	46.58	-23.0	-23.3	18.4	0.00e+00	0	43	102	1048576	6	3731
2026-01-26 05:35:13.12	301.65	46.59	-23.1	-23.3	18.4	0.00e+00	0	43	102	1048576	6	3712
2026-01-26 05:35:14.12	301.07	46.59	-23.0	-23.2	18.2	0.00e+00	0	43	102	1048576	6	3675
2026-01-26 05:35:15.12	300.50	46.59	-23.1	-23.3	18.4	0.00e+00	0	43	102	1048576	6	3710
2026-01-26 05:35:16.12	299.93	46.59	-23.3	-23.7	18.2	0.00e+00	0	43	102	1048576	6	3807
2026-01-26 05:35:17.13	299.35	46.58	-23.3	-23.8	18.2	0.00e+00	0	43	102	1048576	6	3814
2026-01-26 05:35:18.13	298.78	46.57	-23.2	-23.7	18.3	0.00e+00	0	43	102	1048576	6	3787
2026-01-26 05:35:19.13	298.21	46.56	-23.2	-23.6	18.3	0.00e+00	0	43	102	1048576	6	3782
2026-01-26 05:35:20.13	297.63	46.54	-23.2	-23.6	18.3	1.02e-05	0	43	102	1048576	6	3779
2026-01-26 05:35:21.14	297.06	46.52	-23.1	-23.4	18.4	1.02e-05	0	43	102	1048576	6	3738
2026-01-26 05:35:22.14	296.49	46.50	-23.2	-23.7	18.3	0.00e+00	0	43	102	1048576	6	3802
2026-01-26 05:35:23.15	295.91	46.47	-23.3	-23.9	18.2	2.60e-04	0	43	102	1048576	6	3832
2026-01-26 05:35:24.16	295.34	46.45	-23.1	-23.5	18.4	8.06e-04	0	43	102	1048576	6	3749
2026-01-26 05:35:25.16	294.77	46.41	-23.0	-23.1	18.6	0.00e+00	0	43	102	1048576	6	3669
2026-01-26 05:35:26.17	294.20	46.38	-22.9	-23.5	18.6	2.46e-04	0	43	102	1048576	5	3862
2026-01-26 05:35:27.16	293.64	46.34	-22.9	-23.5	18.6	8.47e-04	0	43	102	1048576	5	3864
2026-01-26 05:35:28.17	293.07	46.30	-22.8	-23.3	18.7	0.00e+00	0	43	102	1048576	5	3817
2026-01-26 05:35:29.17	292.51	46.26	-23.0	-23.7	18.5	2.62e-04	0	43	102	1048576	5	3903
2026-01-26 05:35:30.18	291.94	46.21	-23.0	-23.8	18.4	1.09e-04	0	43	102	1048576	5	3924
2026-01-26 05:35:31.19	291.38	46.16	-23.2	-23.6	18.3	0.00e+00	0	43	102	1048576	6	3781
2026-01-26 05:35:32.20	290.82	46.11	-23.2	-23.7	18.2	2.53e-04	0	43	102	1048576	6	3803
2026-01-26 05:35:33.20	290.26	46.05	-23.2	-23.6	18.3	1.73e-04	0	43	102	1048576	6	3782
2026-01-26 05:35:34.20	289.71	45.99	-23.1	-23.4	18.4	0.00e+00	0	43	102	1048576	6	3724
2026-01-26 05:35:35.20	289.16	45.93	-23.1	-23.4	18.4	3.78e-04	0	43	102	1048576	6	3730
2026-01-26 05:35:36.20	288.61	45.87	-23.1	-23.5	18.4	6.97e-04	0	43	102	1048576	6	3751
2026-01-26 05:35:37.20	288.06	45.80	-22.9	-23.0	18.6	0.00e+00	0	43	102	1048576	6	3647
2026-01-26 05:35:38.21	287.51	45.73	-22.9	-22.9	18.7	6.29e-04	0	43	102	1048576	6	3628
2026-01-26 05:35:39.21	286.97	45.66	-22.8	-23.2	18.7	2.71e-04	0	43	102	1048576	5	3798
2026-01-26 05:35:40.22	286.43	45.58	-22.8	-23.3	18.6	0.00e+00	0	43	102	1048576	5	3820
2026-01-26 05:35:41.23	285.88	45.50	-22.6	-22.9	18.9	9.61e-05	0	43	102	1048576	5	3714
2026-01-26 05:35:42.23	285.35	45.42	-22.5	-22.7	19.0	5.26e-05	0	43	102	1048576	5	3674
2026-01-26 05:35:43.23	284.82	45.34	-22.4	-22.5	19.1	0.00e+00	0	43	102	1048576	5	3636
2026-01-26 05:35:44.24	284.29	45.25	-22.5	-22.8	18.9	0.00e+00	0	43	102	1048576	5	3689
2026-01-26 05:35:45.24	283.76	45.16	-22.5	-22.6	19.0	0.00e+00	0	43	102	1048576	5	3664
2026-01-26 05:35:46.24	283.24	45.07	-22.5	-22.6	19.0	0.00e+00	0	43	102	1048576	5	3656
2026-01-26 05:35:47.25	282.71	44.98	-22.4	-22.5	19.1	5.24e-04	0	43	102	1048576	5	3632
2026-01-26 05:35:48.25	282.20	44.88	-22.5	-23.2	19.0	0.00e+00	0	43	102	1048576	4	3885
2026-01-26 05:35:49.26	281.68	44.79	-22.7	-23.2	18.7	0.00e+00	0	43	102	1048576	5	3788
2026-01-26 05:35:50.27	281.17	44.68	-22.9	-23.5	18.6	1.19e-03	0	43	102	1048576	5	3852
2026-01-26 05:35:51.27	280.66	44.58	-22.7	-23.1	18.8	0.00e+00	0	43	102	1048576	5	3756
2026-01-26 05:35:52.28	280.15	44.48	-23.0	-23.6	18.5	0.00e+00	0	43	102	1048576	5	3893
2026-01-26 05:35:53.28	279.65	44.37	-23.0	-23.1	18.5	0.00e+00	0	43	102	1048576	6	3669
2026-01-26 05:35:54.28	279.15	44.26	-22.7	-23.0	18.8	1.93e-04	0	43	102	1048576	5	3749
2026-01-26 05:35:55.29	278.66	44.15	-22.5	-22.8	18.9	0.00e+00	0	43	102	1048576	5	3696
2026-01-26 05:35:56.29	278.17	44.04	-22.7	-23.2	18.8	0.00e+00	0	43	102	1048576	5	3783
2026-01-26 05:35:57.30	277.68	43.92	-22.5	-22.7	18.9	0.00e+00	0	43	102	1048576	5	3686
2026-01-26 05:35:58.31	277.19	43.80	-22.4	-22.5	19.1	0.00e+00	0	43	102	1048576	5	3632
2026-01-26 05:35:59.31	276.71	43.68	-22.4	-22.5	19.1	0.00e+00	0	43	102	1048576	5	3642
2026-01-26 05:36:00.31	276.23	43.56	-22.5	-22.7	19.0	0.00e+00	0	43	102	1048576	5	3675
2026-01-26 05:36:01.32	275.76	43.44	-22.4	-22.4	19.0	0.00e+00	0	43	102	1048576	5	3608
2026-01-26 05:36:02.32	275.29	43.31	-22.3	-22.3	19.1	0.00e+00	0	43	102	1048576	5	3594
2026-01-26 05:36:03.32	274.83	43.19	-22.2	-22.1	19.3	0.00e+00	0	43	102	1048576	5	3543
2026-01-26 05:36:04.33	274.36	43.06	-22.1	-21.8	19.4	0.00e+00	0	43	102	1048576	5	3494
2026-01-26 05:36:05.34	273.90	42.93	-22.2	-22.5	19.3	0.00e+00	0	43	102	1048576	4	3740
2026-01-26 05:36:06.34	273.45	42.80	-22.3	-22.7	19.2	0.00e+00	0	43	102	1048576	4	3777
2026-01-26 05:36:07.35	272.99	42.66	-22.4	-22.9	19.1	0.00e+00	0	43	102	1048576	4	3819
2026-01-26 05:36:08.35	272.55	42.53	-22.5	-23.1	19.0	0.00e+00	0	43	102	1048576	4	3866
2026-01-26 05:36:09.35	272.10	42.39	-22.6	-23.3	18.9	0.00e+00	0	43	102	1048576	4	3924
2026-01-26 05:36:10.35	271.66	42.26	-22.7	-23.1	18.7	0.00e+00	0	43	102	1048576	5	3777
2026-01-26 05:36:11.36	271.23	42.12	-22.8	-23.2	18.7	1.10e-06	0	43	102	1048576	5	3794
2026-01-26 05:36:12.37	270.79	41.98	-22.7	-23.1	18.8	0.00e+00	0	43	102	1048576	5	3762
2026-01-26 05:36:13.37	270.36	41.84	-22.7	-23.2	18.7	0.00e+00	0	43	102	1048576	5	3786
2026-01-26 05:36:14.37	269.94	41.69	-22.7	-23.2	18.7	0.00e+00	0	43	102	1048576	5	3783
2026-01-26 05:36:15.38	269.52	41.55	-22.7	-23.1	18.7	0.00e+00	0	43	102	1048576	5	3767
2026-01-26 05:36:16.38	269.10	41.40	-22.8	-23.3	18.6	0.00e+00	0	43	102	1048576	5	3813
2026-01-26 05:36:17.38	268.69	41.26	-22.8	-23.3	18.4	0.00e+00	0	43	102	1048576	5	3816
2026-01-26 05:36:18.38	268.28	41.11	-22.7	-23.1	18.7	0.00e+00	0	43	102	1048576	5	3767
2026-01-26 05:36:19.39	267.87	40.96	-22.7	-23.0	18.8	0.00e+00	0	43	102	1048576	5	3753
2026-01-26 05:36:20.39	267.47	40.81	-22.7	-23.1	18.7	0.00e+00	0	43	102	1048576	5	3756
2026-01-26 05:36:21.40	267.07	40.66	-22.5	-22.7	18.9	0.00e+00	0	43	102	1048576	5	3687
2026-01-26 05:36:22.40	266.68	40.51	-22.5	-22.7	18.9	0.00e+00	0	43	102	1048576	5	3686
2026-01-26 05:36:23.41	266.28	40.36	-22.7	-23.1	18.7	0.00e+00	0	43	102	1048576	5	3766
2026-01-26 05:36:24.41	265.90	40.21	-22.8	-23.3	18.6	0.00e+00	0	43	102	1048576	5	3821
2026-01-26 05:36:25.42	265.51	40.05	-22.8	-23.4	18.6	0.00e+00	0	43	102	1048576	5	3842
2026-01-26 05:36:26.42	265.13	39.90	-22.9	-23.6	18.5	0.00e+00	0	43	102	1048576	5	3881
2026-01-26 05:36:27.43	264.75	39.74	-23.0	-23.7	18.4	0.00e+00	0	43	102	1048576	5	3921
2026-01-26 05:36:28.43	264.38	39.59	-22.9	-23.5	18.5	0.00e+00	0	43	102	1048576	5	3865
2026-01-26 05:36:29.44	264.01	39.43	-22.9	-23.4	18.5	0.00e+00	0	43	102	1048576	5	3837
2026-01-26 05:36:30.44	263.64	39.27	-22.8	-23.3	18.6	0.00e+00	0	43	102	1048576	5	3821
2026-01-26 05:36:31.45	263.28	39.11	-22.9	-23.6	18.5	0.00e+00	0	43	102	1048576	5	3875
2026-01-26 05:36:32.45	262.92	38.95	-23.1	-23.4	18.3	0.00e+00	0	43	102	1048576	6	3744
2026-01-26 05:36:33.45	262.57	38.80	-22.9	-23.0	18.5	0.00e+00	0	43	102	1048576	6	3635
2026-01-26 05:36:34.46	262.21	38.63	-22.7	-23.0	18.7	0.00e+00	0	43	102	1048576	5	3757
2026-01-26 05:36:35.46	261.87	38.48	-22.7	-23.0	18.7	3.15e-04	0	43	102	1048576	5	3756
2026-01-26 05:36:36.47	261.52	38.31	-22.7	-23.1	18.7	0.00e+00	0	43	102	1048576	5	3771
2026-01-26 05:36:37.47	261.18	38.15	-22.5	-23.1	18.9	0.00e+00	0	43	102	1048576	4	3879
2026-01-26 05:36:38.48	260.84	37.99	-22.4	-22.9	19.0	7.33e-04	0	43	102	1048576	4	3822
2026-01-26 05:36:39.49	260.50	37.83	-22.4	-22.9	19.0	0.00e+00	0	43	102	1048576	4	3824
2026-01-26 05:36:40.50	260.17	37.67	-22.3	-22.7	19.1	7.59e-04	0	43	102	1048576	4	3786
2026-01-26 05:36:41.50	259.84	37.50	-22.4	-23.0	19.0	7.28e-04	0	43	102	1048576	4	3857
2026-01-26 05:36:42.51	259.51	37.34	-22.4	-23.1	18.9	0.00e+00	0	43	102	1048576	4	3867
2026-01-26 05:36:43.52	259.19	37.18	-22.5	-23.3	18.3	3.19e-04	0	43	102	1048576	4	3925
2026-01-26 05:36:44.52	258.87	37.01	-22.5	-23.2	18.9	1.07e-04	0	43	102	1048576	4	3888
2026-01-26 05:36:45.53	258.56	36.85	-22.6	-23.3	18.8	0.00e+00	0	43	102	1048576	4	3927
2026-01-26 05:36:46.53	258.25	36.69	-22.7	-23.1	18.7	0.00e+00	0	43	102	1048576	5	3760
2026-01-26 05:36:47.54	257.94	36.52	-22.6	-23.2	15.4	0.00e+00	0	43	102	1048576	5	3891
2026-01-26 05:36:48.55	257.63	36.36	-22.8	-23.4	18.4	0.00e+00	0	43	102	1048576	5	3839
2026-01-26 05:36:49.55	257.33	36.20	-22.7	-23.1	17.5	0.00e+00	0	43	102	1048576	5	3771
2026-01-26 05:36:50.55	257.03	36.03	-22.5	-22.7	18.7	0.00e+00	0	43	102	1048576	5	3690
2026-01-26 05:36:51.55	256.73	35.87	-22.3	-22.3	19.0	0.00e+00	0	43	102	1048576	5	3603
2026-01-26 05:36:52.55	256.44	35.71	-22.1	-22.5	19.2	1.60e-04	0	43	102	1048576	4	3727
2026-01-26 05:36:53.56	256.15	35.54	-22.0	-22.1	19.3	2.67e-04	0	43	102	1048576	4	3645
2026-01-26 05:36:54.57	255.86	35.38	-21.9	-21.9	19.5	0.00e+00	0	43	102	1048576	4	3614
2026-01-26 05:36:55.58	255.57	35.21	-22.0	-22.2	19.4	2.70e-04	0	43	102	1048576	4	3663
2026-01-26 05:36:56.58	255.29	35.05	-22.1	-22.4	19.3	1.10e-03	0	43	102	1048576	4	3711
2026-01-26 05:36:57.59	255.01	34.88	-22.2	-22.6	19.2	0.00e+00	0	43	102	1048576	4	3756
2026-01-26 05:36:58.59	254.73	34.72	-22.2	-22.6	19.1	1.11e-03	0	43	102	1048576	4	3768
2026-01-26 05:36:59.59	254.46	34.56	-22.2	-22.6	19.1	0.00e+00	0	43	102	1048576	4	3760
2026-01-26 05:37:00.60	254.19	34.39	-22.1	-22.4	19.2	0.00e+00	0	43	102	1048576	4	3724
2026-01-26 05:37:01.60	253.92	34.23	-22.0	-22.1	19.3	1.25e-03	0	43	102	1048576	4	3658
2026-01-26 05:37:02.61	253.65	34.07	-22.1	-22.3	19.3	0.00e+00	0	43	102	1048576	4	3694
2026-01-26 05:37:03.61	253.39	33.90	-22.2	-22.5	19.2	0.00e+00	0	43	102	1048576	4	3731
2026-01-26 05:37:04.62	253.13	33.74	-22.1	-22.4	19.2	1.12e-03	0	43	102	1048576	4	3724
2026-01-26 05:37:05.62	252.87	33.58	-22.2	-22.6	19.1	0.00e+00	0	43	102	1048576	4	3763
2026-01-26 05:37:06.62	252.62	33.41	-22.2	-22.6	19.1	0.00e+00	0	43	102	1048576	4	3768
2026-01-26 05:37:07.63	252.37	33.25	-22.2	-22.6	19.0	0.00e+00	0	43	102	1048576	4	3773
2026-01-26 05:37:08.63	252.12	33.09	-22.3	-22.7	19.1	1.38e-03	0	43	102	1048576	4	3779
2026-01-26 05:37:09.63	251.87	32.93	-22.3	-22.7	19.0	0.00e+00	0	43	102	1048576	4	3796
2026-01-26 05:37:10.64	251.62	32.77	-22.3	-22.9	19.0	1.41e-03	0	43	102	1048576	4	3823
2026-01-26 05:37:11.65	251.38	32.60	-22.3	-22.9	18.9	1.30e-03	0	43	102	1048576	4	3822
2026-01-26 05:37:12.65	251.14	32.44	-22.4	-23.1	18.8	0.00e+00	0	43	102	1048576	4	3869
2026-01-26 05:37:13.66	250.90	32.28	-22.3	-22.8	19.0	1.29e-03	0	43	102	1048576	4	3810
2026-01-26 05:37:14.66	250.67	32.12	-22.3	-22.7	18.9	1.23e-03	0	43	102	1048576	4	3791
2026-01-26 05:37:15.67	250.43	31.96	-22.1	-22.4	19.1	0.00e+00	0	43	102	1048576	4	3723
2026-01-26 05:37:16.68	250.20	31.80	-22.2	-22.5	19.1	1.18e-03	0	43	102	1048576	4	3749
2026-01-26 05:37:17.68	249.97	31.64	-22.2	-22.6	19.1	0.00e+00	0	43	102	1048576	4	3749
2026-01-26 05:37:18.69	249.75	31.48	-22.2	-22.6	19.1	1.06e-04	0	43	102	1048576	4	3754
2026-01-26 05:37:19.69	249.52	31.32	-22.4	-23.0	18.9	0.00e+00	0	43	102	1048576	4	3851
2026-01-26 05:37:20.69	249.30	31.17	-22.3	-22.8	18.9	1.25e-03	0	43	102	1048576	4	3814
2026-01-26 05:37:21.70	249.08	31.01	-22.4	-22.9	18.9	2.43e-04	0	43	102	1048576	4	3833
2026-01-26 05:37:22.70	248.86	30.85	-22.4	-23.0	18.9	0.00e+00	0	43	102	1048576	4	3855
2026-01-26 05:37:23.70	248.65	30.69	-22.5	-23.2	18.8	1.28e-03	0	43	102	1048576	4	3900
2026-01-26 05:37:24.71	248.44	30.54	-22.6	-23.4	18.7	0.00e+00	0	43	102	1048576	4	3944
2026-01-26 05:37:25.71	248.23	30.38	-22.6	-22.9	18.6	0.00e+00	0	43	102	1048576	5	3732
2026-01-26 05:37:26.71	248.02	30.23	-22.8	-23.2	18.5	1.35e-03	0	43	102	1048576	5	3807
2026-01-26 05:37:27.71	247.81	30.07	-22.8	-23.3	18.5	0.00e+00	0	43	102	1048576	5	3822
2026-01-26 05:37:28.72	247.60	29.91	-22.9	-23.5	18.4	1.62e-03	0	43	102	1048576	5	3852
2026-01-26 05:37:29.72	247.40	29.76	-22.7	-23.1	18.5	0.00e+00	0	43	102	1048576	5	3778
2026-01-26 05:37:30.73	247.20	29.60	-22.6	-22.9	18.6	0.00e+00	0	43	102	1048576	5	3725
2026-01-26 05:37:31.73	247.00	29.45	-22.7	-23.0	18.6	0.00e+00	0	43	102	1048576	5	3758
2026-01-26 05:37:32.74	246.80	29.30	-22.8	-23.2	18.5	0.00e+00	0	43	102	1048576	5	3800
2026-01-26 05:37:33.74	246.61	29.14	-22.8	-23.4	18.4	0.00e+00	0	43	102	1048576	5	3846
2026-01-26 05:37:34.75	246.41	28.99	-23.0	-23.7	18.2	0.00e+00	0	43	102	1048576	5	3918
2026-01-26 05:37:35.75	246.22	28.84	-23.0	-23.8	18.1	0.00e+00	0	43	102	1048576	5	3935
2026-01-26 05:37:36.75	246.03	28.69	-23.0	-23.8	18.1	0.00e+00	0	43	102	1048576	5	3939
2026-01-26 05:37:37.76	245.84	28.54	-23.2	-23.6	18.1	0.00e+00	0	43	102	1048576	6	3775
2026-01-26 05:37:38.76	245.66	28.39	-23.3	-23.8	17.9	0.00e+00	0	43	102	1048576	6	3835
2026-01-26 05:37:39.77	245.47	28.24	-23.1	-23.4	18.1	0.00e+00	0	43	102	1048576	6	3732
2026-01-26 05:37:40.77	245.29	28.09	-23.0	-23.8	18.2	0.00e+00	0	43	102	1048576	5	3928
2026-01-26 05:37:41.77	245.11	27.94	-23.0	-23.2	18.2	0.00e+00	0	43	102	1048576	6	3690
2026-01-26 05:37:42.77	244.93	27.79	-23.0	-23.2	18.2	0.00e+00	0	43	102	1048576	6	3703
2026-01-26 05:37:43.77	244.76	27.64	-22.9	-23.1	18.3	0.00e+00	0	43	102	1048576	6	3667
2026-01-26 05:37:44.78	244.58	27.49	-23.0	-23.2	18.2	0.00e+00	0	43	102	1048576	6	3694
2026-01-26 05:37:45.78	244.40	27.35	-23.3	-23.8	17.9	0.00e+00	0	43	102	1048576	6	3826
2026-01-26 05:37:46.79	244.23	27.20	-23.6	-24.4	17.6	0.00e+00	0	43	102	1048576	6	3975
2026-01-26 05:37:47.79	244.06	27.05	-23.4	-23.6	17.8	0.00e+00	0	43	102	1048576	7	3680
2026-01-26 05:37:48.80	243.89	26.91	-23.1	-23.1	18.0	0.00e+00	0	43	102	1048576	7	3567
2026-01-26 05:37:49.81	243.72	26.76	-23.3	-23.8	16.7	1.10e-06	0	43	102	1048576	6	3839
2026-01-26 05:37:50.81	243.56	26.62	-23.2	-23.6	18.0	0.00e+00	0	43	102	1048576	6	3777
2026-01-26 05:37:51.81	243.39	26.47	-23.1	-23.4	18.1	0.00e+00	0	43	102	1048576	6	3730
2026-01-26 05:37:52.81	243.23	26.33	-23.1	-23.4	18.1	0.00e+00	0	43	102	1048576	6	3729
2026-01-26 05:37:53.81	243.07	26.19	-22.9	-23.0	18.3	0.00e+00	0	43	102	1048576	6	3657
2026-01-26 05:37:54.81	242.91	26.05	-23.1	-23.9	18.0	0.00e+00	0	43	102	1048576	5	3953
2026-01-26 05:37:55.82	242.75	25.90	-22.9	-23.4	18.3	2.95e-04	0	43	102	1048576	5	3842
2026-01-26 05:37:56.82	242.59	25.76	-22.5	-22.7	18.6	0.00e+00	0	43	102	1048576	5	3691
2026-01-26 05:37:57.82	242.43	25.62	-22.3	-22.4	18.8	0.00e+00	0	43	102	1048576	5	3604
2026-01-26 05:37:58.83	242.28	25.48	-22.4	-23.0	18.7	0.00e+00	0	43	102	1048576	4	3854
2026-01-26 05:37:59.84	242.12	25.34	-22.6	-23.3	18.5	0.00e+00	0	43	102	1048576	4	3929
2026-01-26 05:38:00.84	241.97	25.20	-22.7	-23.1	18.4	1.30e-04	0	43	102	1048576	5	3783
2026-01-26 05:38:01.85	241.82	25.06	-22.9	-23.6	18.2	0.00e+00	0	43	102	1048576	5	3880
2026-01-26 05:38:02.85	241.67	24.92	-23.0	-23.7	18.1	0.00e+00	0	43	102	1048576	5	3916
2026-01-26 05:38:03.86	241.52	24.78	-23.1	-23.9	18.0	2.76e-04	0	43	102	1048576	5	3962
2026-01-26 05:38:04.86	241.38	24.64	-23.1	-23.6	17.9	2.47e-04	0	43	102	1048576	6	3779
2026-01-26 05:38:05.87	241.23	24.51	-23.1	-23.5	18.0	0.00e+00	0	43	102	1048576	6	3755
2026-01-26 05:38:06.88	241.09	24.37	-23.2	-23.7	17.8	6.40e-05	0	43	102	1048576	6	3811
2026-01-26 05:38:07.88	240.94	24.23	-23.0	-23.8	18.0	2.30e-04	0	43	102	1048576	5	3936
2026-01-26 05:38:08.88	240.80	24.10	-22.9	-23.5	18.2	0.00e+00	0	43	102	1048576	5	3866
2026-01-26 05:38:09.89	240.66	23.96	-23.0	-23.8	18.0	3.40e-06	0	43	102	1048576	5	3948
2026-01-26 05:38:10.89	240.52	23.83	-22.9	-23.6	18.1	0.00e+00	0	43	102	1048576	5	3896
2026-01-26 05:38:11.89	240.39	23.70	-22.8	-23.4	18.2	0.00e+00	0	43	102	1048576	5	3842
2026-01-26 05:38:12.89	240.25	23.56	-23.0	-23.7	18.1	5.70e-06	0	43	102	1048576	5	3904
2026-01-26 05:38:13.90	240.11	23.43	-22.8	-23.4	18.2	0.00e+00	0	43	102	1048576	5	3842
2026-01-26 05:38:14.90	239.98	23.30	-22.7	-23.1	18.4	0.00e+00	0	43	102	1048576	5	3768
2026-01-26 05:38:15.90	239.85	23.17	-22.6	-22.8	18.5	1.10e-06	0	43	102	1048576	5	3714
2026-01-26 05:38:16.91	239.71	23.03	-22.7	-23.0	18.4	0.00e+00	0	43	102	1048576	5	3757
2026-01-26 05:38:17.91	239.58	22.90	-22.5	-22.7	18.5	0.00e+00	0	43	102	1048576	5	3680
2026-01-26 05:38:18.92	239.45	22.77	-22.4	-22.5	18.6	3.23e-04	0	43	102	1048576	5	3649
2026-01-26 05:38:19.92	239.32	22.64	-22.6	-23.4	18.4	0.00e+00	0	43	102	1048576	4	3939
2026-01-26 05:38:20.92	239.20	22.51	-22.4	-22.5	18.6	0.00e+00	0	43	102	1048576	5	3639
2026-01-26 05:38:21.92	239.07	22.38	-22.6	-23.4	18.4	0.00e+00	0	43	102	1048576	4	3938
2026-01-26 05:38:22.93	238.95	22.26	-22.6	-23.0	18.4	0.00e+00	0	43	102	1048576	5	3748
2026-01-26 05:38:23.93	238.82	22.13	-22.7	-23.1	18.3	0.00e+00	0	43	102	1048576	5	3777
2026-01-26 05:38:24.95	238.70	22.00	-22.7	-23.2	18.3	0.00e+00	0	43	102	1048576	5	3787
2026-01-26 05:38:25.95	238.57	21.87	-22.9	-23.5	18.1	8.83e-04	0	43	102	1048576	5	3873
2026-01-26 05:38:26.96	238.45	21.74	-22.9	-23.6	17.9	0.00e+00	0	43	102	1048576	5	3892
2026-01-26 05:38:27.96	238.33	21.62	-23.0	-23.8	17.9	0.00e+00	0	43	102	1048576	5	3945
2026-01-26 05:38:28.97	238.21	21.49	-23.1	-23.5	17.8	0.00e+00	0	43	102	1048576	6	3755
2026-01-26 05:38:29.96	238.10	21.37	-23.2	-23.8	17.7	0.00e+00	0	43	102	1048576	6	3824
2026-01-26 05:38:30.97	237.98	21.24	-23.2	-23.7	17.7	0.00e+00	0	43	102	1048576	6	3796
2026-01-26 05:38:31.98	237.86	21.12	-23.3	-23.9	17.7	0.00e+00	0	43	102	1048576	6	3849
2026-01-26 05:38:32.98	237.74	21.00	-23.5	-24.2	17.5	0.00e+00	0	43	102	1048576	6	3927
2026-01-26 05:38:33.98	237.63	20.87	-23.4	-24.0	17.6	0.00e+00	0	43	102	1048576	6	3881
2026-01-26 05:38:34.98	237.52	20.75	-23.7	-24.2	17.2	0.00e+00	0	43	102	1048576	7	3830
2026-01-26 05:38:35.99	237.40	20.63	-23.5	-23.9	17.4	0.00e+00	0	43	102	1048576	7	3755
2026-01-26 05:38:37.00	237.29	20.51	-23.5	-24.3	17.4	0.00e+00	0	43	102	1048576	6	3959
2026-01-26 05:38:38.00	237.18	20.39	-23.6	-24.1	17.2	9.46e-04	0	43	102	1048576	7	3809
2026-01-26 05:38:39.00	237.07	20.27	-23.9	-24.7	16.9	0.00e+00	0	43	102	1048576	7	3955
2026-01-26 05:38:40.01	236.96	20.14	-23.8	-24.4	17.1	0.00e+00	0	43	102	1048576	7	3867
2026-01-26 05:38:41.02	236.85	20.02	-23.7	-24.2	17.2	1.41e-03	0	43	102	1048576	7	3833
2026-01-26 05:38:42.02	236.75	19.90	-23.7	-24.2	17.2	0.00e+00	0	43	102	1048576	7	3816
2026-01-26 05:38:43.02	236.64	19.79	-23.8	-24.4	17.0	1.64e-03	0	43	102	1048576	7	3879
2026-01-26 05:38:44.02	236.53	19.67	-23.6	-24.1	17.2	0.00e+00	0	43	102	1048576	7	3792
2026-01-26 05:38:45.02	236.43	19.55	-23.4	-24.2	17.4	0.00e+00	0	43	102	1048576	6	3923
2026-01-26 05:38:46.02	236.33	19.43	-23.4	-24.2	17.4	1.54e-03	0	43	102	1048576	6	3926
2026-01-26 05:38:47.02	236.22	19.32	-23.3	-23.9	17.6	0.00e+00	0	43	102	1048576	6	3851
2026-01-26 05:38:48.01	236.12	19.20	-23.1	-23.6	17.6	7.55e-04	0	43	102	1048576	6	3787
2026-01-26 05:38:49.02	236.02	19.09	-23.1	-23.5	17.8	4.11e-05	0	43	102	1048576	6	3751
2026-01-26 05:38:50.02	235.92	18.97	-23.2	-23.6	17.7	0.00e+00	0	43	102	1048576	6	3786
2026-01-26 05:38:51.03	235.82	18.85	-23.0	-23.8	17.8	7.83e-04	0	43	102	1048576	5	3949
2026-01-26 05:38:52.03	235.72	18.74	-23.1	-23.5	17.7	0.00e+00	0	43	102	1048576	6	3768
2026-01-26 05:38:53.03	235.62	18.63	-23.2	-23.7	17.6	1.90e-03	0	43	102	1048576	6	3814
2026-01-26 05:38:54.04	235.52	18.51	-23.2	-23.6	17.7	8.19e-04	0	43	102	1048576	6	3790
2026-01-26 05:38:55.04	235.43	18.40	-23.2	-23.7	17.6	1.65e-03	0	43	102	1048576	6	3805
2026-01-26 05:38:56.04	235.33	18.29	-23.4	-24.1	17.4	1.78e-03	0	43	102	1048576	6	3910
2026-01-26 05:38:57.04	235.24	18.17	-23.6	-24.1	17.1	8.20e-04	0	43	102	1048576	7	3790
2026-01-26 05:38:58.05	235.14	18.06	-23.5	-23.8	17.3	1.74e-03	0	43	102	1048576	7	3731
2026-01-26 05:38:59.05	235.05	17.95	-23.5	-23.8	17.3	1.74e-03	0	43	102	1048576	7	3743
2026-01-26 05:39:00.05	234.95	17.84	-23.7	-24.2	17.1	7.41e-04	0	43	102	1048576	7	3814
2026-01-26 05:39:01.06	234.86	17.73	-23.9	-24.6	16.9	1.55e-03	0	43	102	1048576	7	3929
2026-01-26 05:39:02.06	234.77	17.62	-24.3	-25.1	16.4	1.12e-03	0	43	102	1048576	8	3921
2026-01-26 05:39:03.06	234.68	17.51	-24.0	-24.9	16.7	3.70e-04	0	43	102	1048576	7	3981
2026-01-26 05:39:04.07	234.59	17.40	-24.3	-25.1	16.4	1.17e-03	0	43	102	1048576	8	3925
2026-01-26 05:39:05.07	234.50	17.29	-24.1	-24.5	16.6	1.24e-03	0	43	102	1048576	8	3799
2026-01-26 05:39:06.08	234.41	17.18	-23.9	-24.3	16.8	2.62e-04	0	43	102	1048576	8	3734
2026-01-26 05:39:07.08	234.32	17.07	-23.8	-24.5	16.9	0.00e+00	0	43	102	1048576	7	3888
2026-01-26 05:39:08.09	234.23	16.96	-23.9	-24.6	16.9	8.70e-04	0	43	102	1048576	7	3911
2026-01-26 05:39:09.10	234.14	16.85	-23.9	-24.6	16.8	1.10e-06	0	43	102	1048576	7	3927
2026-01-26 05:39:10.10	234.05	16.75	-23.9	-24.7	16.8	3.65e-04	0	43	102	1048576	7	3933
2026-01-26 05:39:11.10	233.97	16.64	-24.1	-25.0	16.6	7.14e-04	0	43	102	1048576	7	4015
2026-01-26 05:39:12.10	233.88	16.53	-23.9	-24.7	16.8	0.00e+00	0	43	102	1048576	7	3950
2026-01-26 05:39:13.10	233.80	16.43	-23.8	-24.6	16.8	7.70e-04	0	43	102	1048576	7	3906
2026-01-26 05:39:14.11	233.71	16.32	-23.9	-24.6	16.8	0.00e+00	0	43	102	1048576	7	3921
2026-01-26 05:39:15.11	233.63	16.22	-23.9	-24.7	16.8	0.00e+00	0	43	102	1048576	7	3933
2026-01-26 05:39:16.11	233.55	16.11	-24.2	-24.7	16.5	9.66e-04	0	43	102	1048576	8	3841
2026-01-26 05:39:17.12	233.47	16.01	-23.9	-24.3	16.7	0.00e+00	0	43	102	1048576	8	3739
2026-01-26 05:39:18.12	233.38	15.90	-23.9	-24.2	16.7	0.00e+00	0	43	102	1048576	8	3723
2026-01-26 05:39:19.12	233.30	15.80	-24.0	-24.8	16.6	0.00e+00	0	43	102	1048576	7	3975
2026-01-26 05:39:20.12	233.22	15.70	-24.0	-24.9	16.6	0.00e+00	0	43	102	1048576	7	3994
2026-01-26 05:39:21.12	233.14	15.60	-24.1	-25.1	16.5	0.00e+00	0	43	102	1048576	7	4044
2026-01-26 05:39:22.12	233.06	15.49	-24.3	-24.9	16.3	0.00e+00	0	43	102	1048576	8	3896
2026-01-26 05:39:23.12	232.98	15.39	-24.3	-25.0	16.3	9.99e-04	0	43	102	1048576	8	3917
2026-01-26 05:39:24.13	232.91	15.29	-24.4	-25.3	16.1	0.00e+00	0	43	102	1048576	8	3991
2026-01-26 05:39:25.14	232.83	15.19	-24.7	-25.3	15.9	0.00e+00	0	43	102	1048576	9	3884
2026-01-26 05:39:26.14	232.75	15.09	-24.4	-24.8	16.2	0.00e+00	0	43	102	1048576	9	3754
2026-01-26 05:39:27.15	232.67	14.99	-24.4	-24.8	16.2	0.00e+00	0	43	102	1048576	9	3757
2026-01-26 05:39:28.15	232.60	14.89	-24.5	-25.4	16.1	1.65e-04	0	43	102	1048576	8	4012
2026-01-26 05:39:29.15	232.52	14.79	-24.6	-25.7	15.9	0.00e+00	0	43	102	1048576	8	4080
2026-01-26 05:39:30.15	232.45	14.69	-24.5	-25.0	16.0	0.00e+00	0	43	102	1048576	9	3794
2026-01-26 05:39:31.15	232.37	14.59	-24.5	-25.1	16.0	9.49e-05	0	43	102	1048576	9	3834
2026-01-26 05:39:32.15	232.30	14.49	-24.7	-25.4	15.8	0.00e+00	0	43	102	1048576	9	3911
2026-01-26 05:39:33.16	232.22	14.39	-24.6	-25.2	15.9	1.83e-05	0	43	102	1048576	9	3862
2026-01-26 05:39:34.15	232.15	14.29	-24.8	-25.6	15.7	5.70e-06	0	43	102	1048576	9	3940
2026-01-26 05:39:35.16	232.08	14.19	-24.6	-25.2	15.9	0.00e+00	0	43	102	1048576	9	3867
2026-01-26 05:39:36.16	232.01	14.10	-24.7	-25.4	15.7	0.00e+00	0	43	102	1048576	9	3907
2026-01-26 05:39:37.16	231.94	14.00	-24.9	-25.8	15.6	0.00e+00	0	43	102	1048576	9	3994
2026-01-26 05:39:38.15	231.87	13.91	-24.9	-25.8	15.5	0.00e+00	0	43	102	1048576	9	4014
2026-01-26 05:39:39.16	231.79	13.81	-25.2	-26.1	15.1	0.00e+00	0	43	102	1048576	10	3973
2026-01-26 05:39:40.16	231.72	13.71	-25.0	-25.5	15.4	0.00e+00	0	43	102	1048576	10	3833
2026-01-26 05:39:41.17	231.65	13.62	-24.9	-25.9	15.4	0.00e+00	0	43	102	1048576	9	4029
2026-01-26 05:39:42.18	231.58	13.52	-25.0	-26.0	15.4	1.10e-06	0	43	102	1048576	9	4065
2026-01-26 05:39:43.18	231.52	13.42	-25.1	-25.8	15.3	1.60e-05	0	43	102	1048576	10	3909
2026-01-26 05:39:44.19	231.45	13.33	-25.1	-25.8	15.3	0.00e+00	0	43	102	1048576	10	3895
2026-01-26 05:39:45.19	231.38	13.24	-25.1	-25.9	15.2	3.77e-05	0	43	102	1048576	10	3920
2026-01-26 05:39:46.20	231.31	13.14	-25.1	-25.9	15.2	5.70e-06	0	43	102	1048576	10	3923
2026-01-26 05:39:47.21	231.24	13.05	-25.2	-26.0	15.1	0.00e+00	0	43	102	1048576	10	3960
2026-01-26 05:39:48.22	231.18	12.95	-25.3	-26.1	15.0	0.00e+00	0	43	102	1048576	10	3983
2026-01-26 05:39:49.22	231.11	12.86	-25.4	-26.5	14.8	0.00e+00	0	43	102	1048576	10	4087
2026-01-26 05:39:50.22	231.05	12.77	-25.3	-26.3	14.9	0.00e+00	0	43	102	1048576	10	4021
2026-01-26 05:39:51.22	230.98	12.67	-25.4	-26.4	14.9	1.10e-06	0	43	102	1048576	10	4055
2026-01-26 05:39:52.23	230.91	12.58	-25.3	-26.3	14.9	0.00e+00	0	43	102	1048576	10	4015
2026-01-26 05:39:53.24	230.85	12.49	-25.1	-25.9	15.2	0.00e+00	0	43	102	1048576	10	3915
2026-01-26 05:39:54.24	230.79	12.40	-25.3	-26.3	14.9	0.00e+00	0	43	102	1048576	10	4031
2026-01-26 05:39:55.25	230.72	12.31	-25.4	-26.5	14.8	1.10e-06	0	43	102	1048576	10	4081
2026-01-26 05:39:56.25	230.66	12.22	-25.4	-26.4	14.8	0.00e+00	0	43	102	1048576	10	4058
2026-01-26 05:39:57.25	230.60	12.12	-25.3	-26.1	15.0	1.10e-06	0	43	102	1048576	10	3988
2026-01-26 05:39:58.25	230.53	12.03	-25.3	-26.2	14.9	0.00e+00	0	43	102	1048576	10	4015
2026-01-26 05:39:59.25	230.47	11.94	-25.3	-26.2	14.9	0.00e+00	0	43	102	1048576	10	4009
2026-01-26 05:40:00.26	230.41	11.85	-25.3	-26.3	14.9	0.00e+00	0	43	102	1048576	10	4035
2026-01-26 05:40:01.26	230.35	11.77	-25.2	-26.0	15.0	3.20e-05	0	43	102	1048576	10	3966
2026-01-26 05:40:02.27	230.29	11.68	-25.3	-26.2	15.0	0.00e+00	0	43	102	1048576	10	3989
2026-01-26 05:40:03.28	230.23	11.59	-25.3	-26.3	14.9	0.00e+00	0	43	102	1048576	10	4021
2026-01-26 05:40:04.28	230.17	11.50	-25.3	-26.3	14.9	0.00e+00	0	43	102	1048576	10	4027
2026-01-26 05:40:05.28	230.11	11.41	-25.3	-26.2	14.9	0.00e+00	0	43	102	1048576	10	3997
2026-01-26 05:40:06.29	230.05	11.32	-25.2	-25.9	15.0	1.10e-06	0	43	102	1048576	10	3936
2026-01-26 05:40:07.29	229.99	11.23	-25.4	-26.4	14.8	0.00e+00	0	43	102	1048576	10	4048
2026-01-26 05:40:08.30	229.93	11.15	-25.2	-26.1	14.9	0.00e+00	0	43	102	1048576	10	3985
2026-01-26 05:40:09.30	229.87	11.06	-25.3	-26.2	14.9	0.00e+00	0	43	102	1048576	10	4007
2026-01-26 05:40:10.31	229.81	10.97	-25.3	-26.3	14.8	0.00e+00	0	43	102	1048576	10	4022
2026-01-26 05:40:11.31	229.76	10.88	-25.5	-26.7	14.6	0.00e+00	0	43	102	1048576	10	4120
2026-01-26 05:40:12.31	229.70	10.80	-25.4	-26.4	14.7	0.00e+00	0	43	102	1048576	10	4055
2026-01-26 05:40:13.32	229.64	10.71	-25.4	-26.5	14.7	0.00e+00	0	43	102	1048576	10	4086
2026-01-26 05:40:14.33	229.59	10.63	-25.4	-26.4	14.7	1.10e-06	0	43	102	1048576	10	4065
2026-01-26 05:40:15.32	229.53	10.54	-25.4	-26.3	14.8	0.00e+00	0	43	102	1048576	10	4036
2026-01-26 05:40:16.32	229.48	10.46	-25.4	-26.4	14.7	0.00e+00	0	43	102	1048576	10	4063
2026-01-26 05:40:17.33	229.42	10.37	-25.4	-26.5	14.7	0.00e+00	0	43	102	1048576	10	4081
2026-01-26 05:40:18.34	229.36	10.29	-25.6	-26.5	14.4	1.10e-06	0	43	102	1048576	11	3968
2026-01-26 05:40:19.34	229.31	10.20	-25.6	-26.4	14.4	1.10e-06	0	43	102	1048576	11	3950
2026-01-26 05:40:20.34	229.26	10.12	-25.5	-26.8	14.5	0.00e+00	0	43	102	1048576	10	4157
2026-01-26 05:40:21.34	229.20	10.03	-25.6	-26.3	14.5	0.00e+00	0	43	102	1048576	11	3927
2026-01-26 05:40:22.35	229.15	9.95	-25.3	-25.8	14.7	0.00e+00	0	43	102	1048576	11	3815
2026-01-26 05:40:23.36	229.09	9.87	-25.6	-26.5	14.4	0.00e+00	0	43	102	1048576	11	3967
2026-01-26 05:40:24.36	229.04	9.78	-25.5	-26.2	14.5	1.10e-06	0	43	102	1048576	11	3902
2026-01-26 05:40:25.36	228.99	9.70	-25.6	-26.4	14.4	1.10e-06	0	43	102	1048576	11	3943
2026-01-26 05:40:26.37	228.94	9.62	-25.6	-26.4	14.4	0.00e+00	0	43	102	1048576	11	3948
2026-01-26 05:40:27.38	228.88	9.53	-25.0	-25.8	14.2	0.00e+00	0	43	102	1048576	11	3970
2026-01-26 05:40:28.38	228.83	9.45	-25.6	-26.4	12.4	2.20e-06	0	43	102	1048576	11	3963
2026-01-26 05:40:29.38	228.78	9.37	-25.7	-26.8	14.1	1.10e-06	0	43	102	1048576	11	4049
2026-01-26 05:40:30.39	228.73	9.29	-25.6	-26.5	14.3	9.04e-04	0	43	102	1048576	11	3968
2026-01-26 05:40:31.39	228.68	9.21	-25.7	-26.6	14.2	2.20e-06	0	43	102	1048576	11	4015
2026-01-26 05:40:32.39	228.63	9.13	-25.8	-27.0	13.9	4.50e-06	0	43	102	1048576	11	4107
2026-01-26 05:40:33.40	228.58	9.04	-25.8	-26.8	14.1	1.10e-06	0	43	102	1048576	11	4055
2026-01-26 05:40:34.40	228.53	8.96	-25.8	-26.9	14.1	0.00e+00	0	43	102	1048576	11	4079
2026-01-26 05:40:35.40	228.48	8.88	-25.7	-26.6	14.2	0.00e+00	0	43	102	1048576	11	4004
2026-01-26 05:40:36.41	228.43	8.80	-25.8	-27.0	14.0	1.10e-06	0	43	102	1048576	11	4108
2026-01-26 05:40:37.42	228.38	8.72	-25.8	-26.9	14.0	1.18e-03	0	43	102	1048576	11	4095
2026-01-26 05:40:38.42	228.33	8.64	-25.9	-27.1	13.9	1.10e-06	0	43	102	1048576	11	4134
2026-01-26 05:40:39.42	228.28	8.56	-25.8	-26.8	14.1	2.20e-06	0	43	102	1048576	11	4064
2026-01-26 05:40:40.42	228.23	8.49	-25.9	-27.2	13.8	1.18e-03	0	43	102	1048576	11	4174
2026-01-26 05:40:41.42	228.18	8.41	-25.9	-27.1	13.8	2.20e-06	0	43	102	1048576	11	4147
2026-01-26 05:40:42.42	228.14	8.33	-26.0	-27.0	13.6	1.27e-03	0	43	102	1048576	12	4007
2026-01-26 05:40:43.43	228.09	8.25	-26.0	-27.0	13.6	1.25e-03	0	43	102	1048576	12	4022
2026-01-26 05:40:44.43	228.04	8.17	-26.3	-27.5	13.2	1.25e-05	0	43	102	1048576	12	4140
2026-01-26 05:40:45.43	227.99	8.09	-26.0	-26.9	13.6	1.37e-03	0	43	102	1048576	12	3993
2026-01-26 05:40:46.43	227.95	8.01	-26.1	-27.1	13.4	6.80e-06	0	43	102	1048576	12	4043
2026-01-26 05:40:47.44	227.90	7.94	-26.3	-27.6	13.1	2.74e-05	0	43	102	1048576	12	4176
2026-01-26 05:40:48.44	227.85	7.86	-26.0	-27.0	13.5	1.51e-03	0	43	102	1048576	12	4017
2026-01-26 05:40:49.45	227.81	7.78	-26.2	-27.3	13.3	1.27e-03	0	43	102	1048576	12	4097
2026-01-26 05:40:50.46	227.76	7.70	-26.1	-27.1	13.4	3.43e-05	0	43	102	1048576	12	4039
2026-01-26 05:40:51.47	227.72	7.63	-26.1	-27.2	13.4	1.41e-03	0	43	102	1048576	12	4072
2026-01-26 05:40:52.47	227.67	7.55	-26.1	-27.1	13.4	1.40e-03	0	43	102	1048576	12	4057
2026-01-26 05:40:53.48	227.63	7.47	-26.3	-27.6	13.1	5.60e-05	0	43	102	1048576	12	4187
2026-01-26 05:40:54.49	227.58	7.40	-26.2	-27.3	13.3	1.27e-03	0	43	102	1048576	12	4092
2026-01-26 05:40:55.50	227.54	7.32	-26.1	-27.1	13.4	1.29e-03	0	43	102	1048576	12	4046
2026-01-26 05:40:56.50	227.49	7.24	-26.1	-27.2	13.3	2.51e-05	0	43	102	1048576	12	4086
2026-01-26 05:40:57.50	227.45	7.17	-26.1	-27.2	13.3	1.26e-03	0	43	102	1048576	12	4075
2026-01-26 05:40:58.51	227.41	7.09	-32.1	-40.7	3.8	4.26e-01	0	43	104	1048576	24	9635
2026-01-26 05:40:59.52	227.36	7.02	-32.7	-42.2	3.8	8.45e-01	0	43	104	1048576	25	10820
2026-01-26 05:41:00.53	227.32	6.94	-33.0	-43.0	3.8	8.46e-01	0	43	104	1048576	25	11296

#Closed at: 2026-01-26 05:41:01
#Recorded file [1 MB]: D:/data/31010_260126_082928.dat