passes_logs/2026/01/26/R2M6_AANII_01/R2M6_AANII_01__20260126_103205_NOAA_21_JPSS-2_rec.log

#Pass ID: 20260126_103205_NOAA 21 (JPSS-2)
#Satellite: NOAA 21 (JPSS-2)
#Configuration: NOAA 21
#almurnet v.1.7.20240730
#Start time: 2026-01-26 10:32:05

#Version: 2.2.20231116
#Station: R2M6_AANII_01
#Location: 30.233357 lon 59.946436 lat
#TLE: 1 54234U 22150A   26025.79694208  .00000182  00000+0  10700-3 0  9999
#TLE: 2 54234  98.7509 326.5666 0000777 213.2444 146.8684 14.19539347166346

#Time	Az	El	Level	Level2	SNR	BER	BlckErr	Temp	State	Recorded	gain1	gain2
2026-01-26 10:32:05.10	166.81	7.00	-30.8	-35.8	4.5	1.41e+00	0	42	0	0	22	6423
2026-01-26 10:32:06.09	166.83	7.07	-30.2	-34.5	4.7	1.39e+00	0	42	104	0	21	5868
2026-01-26 10:32:07.08	166.84	7.15	-30.3	-33.8	9.1	2.33e-02	0	42	0	0	21	5442
2026-01-26 10:32:08.07	166.86	7.23	-30.5	-34.6	8.6	3.76e-02	0	42	0	2097152	21	5757
2026-01-26 10:32:09.07	166.88	7.31	-30.4	-34.3	8.8	2.88e-02	0	42	0	5242880	21	5655
2026-01-26 10:32:10.06	166.89	7.38	-30.4	-34.3	8.8	2.58e-02	0	43	0	8388608	21	5637
2026-01-26 10:32:11.07	166.91	7.46	-30.5	-34.5	8.6	4.09e-02	0	42	0	11534336	21	5746
2026-01-26 10:32:12.06	166.93	7.54	-30.3	-34.0	9.0	3.94e-02	0	42	0	14680064	21	5496
2026-01-26 10:32:13.05	166.95	7.62	-30.2	-33.7	9.3	2.10e-02	0	43	0	17825792	21	5373
2026-01-26 10:32:14.05	166.96	7.70	-30.0	-33.0	9.8	1.19e-02	0	43	0	20971520	21	5074
2026-01-26 10:32:15.04	166.98	7.78	-29.3	-31.6	11.1	4.82e-03	0	43	0	24117248	20	4657
2026-01-26 10:32:16.04	167.00	7.86	-29.7	-33.0	10.5	3.31e-03	0	43	0	27262976	19	5261
2026-01-26 10:32:17.05	167.01	7.94	-29.4	-32.1	11.1	1.78e-03	0	43	0	30408704	19	4953
2026-01-26 10:32:18.05	167.03	8.02	-29.6	-32.7	10.7	2.68e-03	0	43	0	33554432	19	5171
2026-01-26 10:32:19.05	167.05	8.10	-29.4	-32.3	11.1	2.27e-03	0	43	0	36700160	19	4997
2026-01-26 10:32:20.03	167.07	8.18	-29.5	-32.6	10.9	2.08e-03	0	43	0	39845888	19	5110
2026-01-26 10:32:21.03	167.08	8.26	-29.2	-31.7	11.5	1.30e-03	0	43	0	42991616	19	4797
2026-01-26 10:32:22.02	167.10	8.34	-29.6	-32.9	10.7	2.29e-03	0	43	0	46137344	19	5225
2026-01-26 10:32:23.01	167.12	8.42	-29.5	-32.4	11.0	2.00e-03	0	43	0	49283072	19	5044
2026-01-26 10:32:24.01	167.14	8.50	-29.5	-32.4	11.0	1.73e-03	0	43	0	52428800	19	5057
2026-01-26 10:32:25.01	167.16	8.58	-29.4	-32.3	11.1	1.65e-03	0	43	0	55574528	19	5013
2026-01-26 10:32:26.01	167.17	8.66	-29.1	-31.5	11.6	1.12e-03	0	43	0	58720256	19	4714
2026-01-26 10:32:27.01	167.19	8.74	-29.0	-31.1	11.9	4.78e-04	0	43	0	61865984	19	4598
2026-01-26 10:32:28.00	167.21	8.83	-28.8	-31.0	12.2	2.17e-04	0	43	0	65011712	18	4669
2026-01-26 10:32:29.00	167.23	8.91	-28.5	-30.3	12.7	1.11e-04	0	43	0	68157440	18	4442
2026-01-26 10:32:30.00	167.25	8.99	-28.5	-30.3	12.8	4.65e-05	0	43	0	71303168	18	4433
2026-01-26 10:32:31.01	167.27	9.08	-28.2	-30.2	13.0	3.89e-05	0	43	0	74448896	17	4534
2026-01-26 10:32:32.00	167.29	9.16	-28.2	-30.2	13.1	2.51e-05	0	43	0	77594624	17	4505
2026-01-26 10:32:32.99	167.30	9.24	-28.4	-30.6	12.8	5.34e-05	0	43	0	80740352	17	4641
2026-01-26 10:32:33.99	167.32	9.33	-28.2	-30.2	13.1	4.11e-05	0	43	0	83886080	17	4521
2026-01-26 10:32:35.00	167.34	9.41	-28.0	-29.8	13.4	8.30e-06	0	43	0	87031808	17	4383
2026-01-26 10:32:36.00	167.36	9.50	-28.1	-30.0	13.3	2.51e-05	0	43	0	90177536	17	4444
2026-01-26 10:32:37.01	167.38	9.58	-28.1	-29.9	13.3	1.22e-05	0	43	0	93323264	17	4414
2026-01-26 10:32:38.02	167.40	9.67	-28.0	-29.7	13.4	5.30e-06	0	43	0	96468992	17	4365
2026-01-26 10:32:39.01	167.42	9.76	-28.3	-30.3	13.0	4.65e-05	0	43	0	99614720	17	4558
2026-01-26 10:32:40.01	167.44	9.84	-28.0	-29.6	13.5	1.06e-05	0	43	0	102760448	17	4348
2026-01-26 10:32:41.02	167.46	9.93	-28.0	-29.7	13.4	2.82e-05	0	43	0	105906176	17	4362
2026-01-26 10:32:42.01	167.48	10.01	-28.2	-30.1	13.2	2.44e-05	0	43	0	109051904	17	4484
2026-01-26 10:32:43.01	167.50	10.10	-28.1	-29.9	13.3	2.44e-05	0	43	0	112197632	17	4436
2026-01-26 10:32:44.01	167.52	10.19	-28.0	-29.5	13.6	2.59e-05	0	43	0	115343360	17	4309
2026-01-26 10:32:45.01	167.54	10.28	-27.9	-29.3	13.7	6.10e-06	0	43	0	118489088	17	4257
2026-01-26 10:32:46.01	167.56	10.36	-27.9	-29.3	13.7	1.50e-06	0	43	0	121634816	17	4244
2026-01-26 10:32:47.01	167.58	10.45	-27.8	-29.2	13.8	3.80e-06	0	43	0	124780544	17	4198
2026-01-26 10:32:48.02	167.60	10.54	-27.7	-29.4	14.0	3.80e-06	0	43	0	127926272	16	4355
2026-01-26 10:32:49.02	167.62	10.63	-27.8	-29.7	13.8	1.50e-06	0	43	0	131072000	16	4458
2026-01-26 10:32:50.02	167.64	10.72	-27.8	-29.6	13.9	2.21e-05	0	43	0	134217728	16	4418
2026-01-26 10:32:51.02	167.66	10.81	-27.9	-29.8	13.7	5.30e-06	0	43	0	136314880	16	4481
2026-01-26 10:32:52.02	167.68	10.90	-27.7	-29.4	14.0	1.50e-06	0	43	0	139460608	16	4363
2026-01-26 10:32:53.03	167.70	10.99	-27.6	-29.1	14.2	1.75e-05	0	43	0	142606336	16	4272
2026-01-26 10:32:54.03	167.72	11.08	-27.6	-29.0	14.3	1.50e-06	0	43	0	145752064	16	4258
2026-01-26 10:32:55.03	167.74	11.17	-27.6	-29.1	14.3	7.00e-07	0	43	0	148897792	16	4261
2026-01-26 10:32:56.04	167.76	11.26	-27.4	-28.6	14.5	7.60e-06	0	43	0	152043520	16	4127
2026-01-26 10:32:57.05	167.79	11.36	-27.5	-28.8	14.4	7.00e-07	0	43	0	155189248	16	4184
2026-01-26 10:32:58.05	167.81	11.45	-27.5	-29.0	14.3	7.00e-07	0	43	0	158334976	16	4241
2026-01-26 10:32:59.05	167.83	11.54	-27.5	-28.8	14.4	1.22e-05	0	43	0	161480704	16	4192
2026-01-26 10:33:00.04	167.85	11.63	-27.5	-28.9	14.4	7.00e-07	0	43	0	164626432	16	4226
2026-01-26 10:33:01.05	167.87	11.73	-27.5	-28.9	14.3	7.00e-07	0	43	0	167772160	16	4240
2026-01-26 10:33:02.05	167.89	11.82	-27.7	-29.4	14.1	1.50e-06	0	43	0	170917888	16	4383
2026-01-26 10:33:03.06	167.92	11.91	-27.9	-29.8	13.8	5.30e-06	0	43	0	174063616	16	4517
2026-01-26 10:33:04.06	167.94	12.01	-27.6	-29.1	14.2	7.00e-07	0	43	0	177209344	16	4306
2026-01-26 10:33:05.07	167.96	12.10	-27.7	-29.4	14.1	1.06e-05	0	43	0	180355072	16	4372
2026-01-26 10:33:06.07	167.98	12.20	-27.7	-29.3	14.1	1.50e-06	0	43	0	183500800	16	4358
2026-01-26 10:33:07.08	168.00	12.29	-27.7	-29.5	14.0	3.80e-06	0	43	0	186646528	16	4421
2026-01-26 10:33:08.09	168.03	12.39	-27.6	-29.3	14.1	0.00e+00	0	43	0	189792256	16	4368
2026-01-26 10:33:09.09	168.05	12.49	-27.5	-29.1	14.2	2.20e-06	0	44	0	192937984	16	4300
2026-01-26 10:33:10.10	168.07	12.58	-27.5	-29.0	14.3	7.00e-07	0	43	0	196083712	16	4269
2026-01-26 10:33:11.10	168.10	12.68	-27.8	-29.8	13.8	2.20e-06	0	43	0	199229440	16	4508
2026-01-26 10:33:12.10	168.12	12.78	-27.5	-29.1	14.2	1.50e-06	0	43	0	202375168	16	4328
2026-01-26 10:33:13.11	168.14	12.88	-27.1	-28.7	14.6	0.00e+00	0	43	0	205520896	15	4311
2026-01-26 10:33:14.11	168.17	12.97	-27.0	-28.5	14.7	0.00e+00	0	44	0	208666624	15	4245
2026-01-26 10:33:15.11	168.19	13.07	-26.9	-28.2	14.9	0.00e+00	0	43	0	211812352	15	4177
2026-01-26 10:33:16.11	168.21	13.17	-26.9	-28.1	14.9	0.00e+00	0	43	0	214958080	15	4146
2026-01-26 10:33:17.11	168.24	13.27	-27.0	-28.3	14.8	0.00e+00	0	43	0	218103808	15	4195
2026-01-26 10:33:18.11	168.26	13.37	-26.9	-28.2	14.9	0.00e+00	0	43	0	221249536	15	4158
2026-01-26 10:33:19.11	168.28	13.47	-27.0	-28.4	14.8	0.00e+00	0	44	0	224395264	15	4227
2026-01-26 10:33:20.10	168.31	13.57	-26.8	-27.9	15.1	0.00e+00	0	43	0	227540992	15	4088
2026-01-26 10:33:21.11	168.33	13.67	-26.8	-27.9	15.1	0.00e+00	0	43	0	230686720	15	4077
2026-01-26 10:33:22.11	168.36	13.77	-26.8	-27.9	15.1	0.00e+00	0	44	0	233832448	15	4067
2026-01-26 10:33:23.11	168.38	13.87	-26.9	-28.0	15.1	0.00e+00	0	44	0	236978176	15	4103
2026-01-26 10:33:24.12	168.41	13.97	-26.9	-27.9	15.1	0.00e+00	0	44	0	240123904	15	4068
2026-01-26 10:33:25.13	168.43	14.08	-26.9	-28.0	15.1	0.00e+00	0	44	0	243269632	15	4086
2026-01-26 10:33:26.12	168.46	14.18	-26.8	-27.9	15.2	0.00e+00	0	44	0	246415360	15	4063
2026-01-26 10:33:27.13	168.48	14.28	-26.8	-27.9	15.2	0.00e+00	0	44	0	249561088	15	4064
2026-01-26 10:33:28.12	168.51	14.38	-26.8	-27.8	15.2	7.00e-07	0	44	0	252706816	15	4032
2026-01-26 10:33:29.13	168.53	14.49	-26.8	-27.8	15.3	0.00e+00	0	44	0	255852544	15	4032
2026-01-26 10:33:30.12	168.56	14.59	-26.9	-28.1	15.1	0.00e+00	0	44	0	258998272	15	4115
2026-01-26 10:33:31.12	168.58	14.70	-26.9	-27.9	15.2	0.00e+00	0	43	0	262144000	15	4057
2026-01-26 10:33:32.13	168.61	14.80	-26.9	-28.1	15.1	0.00e+00	0	44	0	265289728	15	4105
2026-01-26 10:33:33.12	168.64	14.91	-26.8	-27.7	15.3	0.00e+00	0	43	0	268435456	15	4010
2026-01-26 10:33:34.11	168.66	15.01	-26.8	-28.2	15.3	0.00e+00	0	44	0	271581184	14	4244
2026-01-26 10:33:35.12	168.69	15.12	-26.8	-28.2	15.3	0.00e+00	0	44	0	274726912	14	4240
2026-01-26 10:33:36.12	168.72	15.23	-26.7	-28.1	15.4	0.00e+00	0	44	0	277872640	14	4221
2026-01-26 10:33:37.13	168.74	15.34	-26.9	-28.4	15.2	0.00e+00	0	44	0	281018368	14	4311
2026-01-26 10:33:38.13	168.77	15.45	-27.0	-28.8	15.0	0.00e+00	0	44	0	284164096	14	4399
2026-01-26 10:33:39.13	168.80	15.55	-26.8	-28.3	15.3	0.00e+00	0	44	0	287309824	14	4261
2026-01-26 10:33:40.15	168.83	15.67	-26.9	-28.5	15.2	0.00e+00	0	44	0	290455552	14	4333
2026-01-26 10:33:41.15	168.85	15.77	-26.9	-28.5	15.2	0.00e+00	0	44	0	293601280	14	4317
2026-01-26 10:33:42.16	168.88	15.89	-27.0	-28.6	15.1	0.00e+00	0	44	0	296747008	14	4353
2026-01-26 10:33:43.16	168.91	16.00	-26.9	-28.6	15.2	0.00e+00	0	44	0	299892736	14	4334
2026-01-26 10:33:44.17	168.94	16.11	-26.9	-28.5	15.3	0.00e+00	0	44	0	303038464	14	4303
2026-01-26 10:33:45.17	168.97	16.22	-27.0	-28.6	15.2	7.00e-07	0	44	0	306184192	14	4349
2026-01-26 10:33:46.17	168.99	16.33	-27.0	-28.7	15.1	0.00e+00	0	44	0	309329920	14	4360
2026-01-26 10:33:47.17	169.02	16.44	-27.2	-29.0	15.0	0.00e+00	0	44	0	312475648	14	4451
2026-01-26 10:33:48.17	169.05	16.56	-27.1	-28.8	15.1	0.00e+00	0	44	0	315621376	14	4391
2026-01-26 10:33:49.16	169.08	16.67	-27.0	-28.7	15.1	8.30e-06	0	44	0	318767104	14	4375
2026-01-26 10:33:50.16	169.11	16.78	-27.2	-29.0	15.0	0.00e+00	0	44	0	321912832	14	4445
2026-01-26 10:33:51.17	169.14	16.90	-27.1	-28.8	15.1	0.00e+00	0	44	0	325058560	14	4402
2026-01-26 10:33:52.17	169.17	17.01	-27.1	-28.8	15.1	0.00e+00	0	44	0	328204288	14	4400
2026-01-26 10:33:53.18	169.20	17.13	-27.1	-28.9	15.1	0.00e+00	0	44	0	331350016	14	4411
2026-01-26 10:33:54.18	169.23	17.25	-27.1	-28.8	15.1	0.00e+00	0	44	0	334495744	14	4399
2026-01-26 10:33:55.18	169.26	17.36	-27.1	-28.8	15.1	0.00e+00	0	44	0	337641472	14	4382
2026-01-26 10:33:56.18	169.29	17.48	-27.2	-29.0	15.0	0.00e+00	0	44	0	340787200	14	4440
2026-01-26 10:33:57.19	169.32	17.60	-27.2	-29.0	15.0	0.00e+00	0	44	0	343932928	14	4441
2026-01-26 10:33:58.18	169.35	17.72	-27.1	-28.8	15.1	0.00e+00	0	44	0	347078656	14	4403
2026-01-26 10:33:59.19	169.38	17.84	-27.2	-29.0	15.0	0.00e+00	0	44	0	350224384	14	4446
2026-01-26 10:34:00.19	169.41	17.96	-27.0	-28.7	15.2	0.00e+00	0	44	0	353370112	14	4357
2026-01-26 10:34:01.19	169.44	18.08	-27.1	-28.8	15.1	0.00e+00	0	44	0	356515840	14	4401
2026-01-26 10:34:02.19	169.48	18.20	-27.1	-28.9	15.1	0.00e+00	0	44	0	359661568	14	4422
2026-01-26 10:34:03.20	169.51	18.32	-27.3	-29.2	14.9	0.00e+00	0	44	0	362807296	14	4505
2026-01-26 10:34:04.20	169.54	18.44	-27.1	-28.9	15.1	0.00e+00	0	44	0	365953024	14	4419
2026-01-26 10:34:05.21	169.57	18.57	-27.1	-28.7	15.2	0.00e+00	0	44	0	369098752	14	4374
2026-01-26 10:34:06.21	169.61	18.69	-27.1	-28.8	15.1	0.00e+00	0	44	0	372244480	14	4394
2026-01-26 10:34:07.22	169.64	18.82	-27.1	-28.8	15.1	0.00e+00	0	44	0	375390208	14	4392
2026-01-26 10:34:08.22	169.67	18.94	-27.1	-29.0	15.1	0.00e+00	0	44	0	378535936	14	4432
2026-01-26 10:34:09.22	169.71	19.07	-27.1	-28.8	15.2	0.00e+00	0	44	0	381681664	14	4379
2026-01-26 10:34:10.23	169.74	19.19	-27.0	-28.6	15.3	1.50e-06	0	44	0	384827392	14	4324
2026-01-26 10:34:11.23	169.77	19.32	-27.0	-28.6	15.3	0.00e+00	0	44	0	387973120	14	4317
2026-01-26 10:34:12.23	169.81	19.45	-27.2	-29.1	15.0	0.00e+00	0	43	0	390070272	14	4471
2026-01-26 10:34:13.23	169.84	19.57	-27.2	-29.0	15.1	7.60e-06	0	44	0	393216000	14	4444
2026-01-26 10:34:14.24	169.88	19.70	-27.1	-28.9	15.1	0.00e+00	0	44	0	396361728	14	4427
2026-01-26 10:34:15.24	169.91	19.83	-27.1	-28.8	15.2	0.00e+00	0	44	0	399507456	14	4394
2026-01-26 10:34:16.24	169.95	19.96	-27.0	-28.7	15.2	0.00e+00	0	44	0	402653184	14	4363
2026-01-26 10:34:17.23	169.98	20.09	-27.1	-28.9	15.1	0.00e+00	0	44	0	405798912	14	4416
2026-01-26 10:34:18.23	170.02	20.22	-27.1	-28.7	15.3	0.00e+00	0	44	0	408944640	14	4374
2026-01-26 10:34:19.22	170.05	20.35	-27.2	-29.0	15.1	1.50e-06	0	44	0	412090368	14	4441
2026-01-26 10:34:20.22	170.09	20.48	-27.0	-28.5	15.4	7.00e-07	0	44	0	415236096	14	4306
2026-01-26 10:34:21.22	170.13	20.62	-26.8	-28.1	15.6	0.00e+00	0	44	0	418381824	14	4188
2026-01-26 10:34:22.22	170.16	20.75	-26.6	-27.7	15.8	0.00e+00	0	44	0	421527552	14	4097
2026-01-26 10:34:23.22	170.20	20.88	-26.5	-27.6	15.9	0.00e+00	0	44	0	424673280	14	4048
2026-01-26 10:34:24.22	170.24	21.02	-26.5	-27.5	16.0	0.00e+00	0	44	0	427819008	14	4025
2026-01-26 10:34:25.22	170.28	21.15	-26.5	-27.4	16.0	0.00e+00	0	44	0	430964736	14	4008
2026-01-26 10:34:26.22	170.31	21.29	-26.4	-27.2	16.1	0.00e+00	0	44	0	434110464	14	3958
2026-01-26 10:34:27.22	170.35	21.43	-26.3	-27.0	16.2	0.00e+00	0	44	0	437256192	14	3906
2026-01-26 10:34:28.23	170.39	21.57	-26.2	-27.3	16.3	3.00e-06	0	44	0	440401920	13	4091
2026-01-26 10:34:29.23	170.43	21.71	-26.2	-27.3	16.3	0.00e+00	0	44	0	443547648	13	4078
2026-01-26 10:34:30.23	170.47	21.85	-26.3	-27.4	16.2	0.00e+00	0	44	0	446693376	13	4120
2026-01-26 10:34:31.24	170.51	21.99	-26.4	-27.6	16.1	0.00e+00	0	44	0	449839104	13	4171
2026-01-26 10:34:32.24	170.55	22.13	-26.1	-27.1	16.4	0.00e+00	0	44	0	452984832	13	4030
2026-01-26 10:34:33.25	170.59	22.27	-26.1	-27.0	16.5	0.00e+00	0	44	0	456130560	13	4021
2026-01-26 10:34:34.26	170.63	22.42	-26.0	-26.9	16.5	0.00e+00	0	44	0	459276288	13	3988
2026-01-26 10:34:35.27	170.67	22.56	-26.0	-27.0	16.5	0.00e+00	0	44	0	462422016	13	3995
2026-01-26 10:34:36.27	170.71	22.70	-25.9	-26.7	16.7	0.00e+00	0	44	0	465567744	13	3931
2026-01-26 10:34:37.27	170.76	22.85	-25.9	-26.6	16.7	0.00e+00	0	44	0	468713472	13	3896
2026-01-26 10:34:38.28	170.80	23.00	-25.9	-26.6	16.7	0.00e+00	0	44	0	471859200	13	3908
2026-01-26 10:34:39.28	170.84	23.14	-25.9	-26.6	16.7	0.00e+00	0	44	0	475004928	13	3904
2026-01-26 10:34:40.27	170.88	23.29	-25.8	-26.8	16.9	0.00e+00	0	44	0	478150656	12	4072
2026-01-26 10:34:41.27	170.93	23.44	-25.7	-26.7	16.9	0.00e+00	0	44	0	481296384	12	4040
2026-01-26 10:34:42.27	170.97	23.59	-25.8	-26.9	16.9	0.00e+00	0	44	0	484442112	12	4082
2026-01-26 10:34:43.26	171.01	23.73	-25.6	-26.6	17.0	0.00e+00	0	44	0	487587840	12	4000
2026-01-26 10:34:44.26	171.06	23.89	-25.7	-26.7	17.0	0.00e+00	0	44	0	490733568	12	4027
2026-01-26 10:34:45.25	171.10	24.04	-25.8	-26.9	16.9	0.00e+00	0	44	0	493879296	12	4076
2026-01-26 10:34:46.25	171.15	24.19	-25.8	-26.8	16.9	0.00e+00	0	44	0	497025024	12	4065
2026-01-26 10:34:47.25	171.19	24.34	-25.8	-26.9	16.9	0.00e+00	0	44	0	500170752	12	4079
2026-01-26 10:34:48.24	171.24	24.49	-25.9	-27.1	16.8	0.00e+00	0	44	0	503316480	12	4124
2026-01-26 10:34:49.23	171.28	24.65	-25.8	-26.9	16.9	0.00e+00	0	44	0	506462208	12	4096
2026-01-26 10:34:50.22	171.33	24.80	-25.9	-27.0	16.8	0.00e+00	0	44	0	509607936	12	4120
2026-01-26 10:34:51.22	171.38	24.96	-25.9	-27.0	16.8	0.00e+00	0	44	0	512753664	12	4123
2026-01-26 10:34:52.22	171.42	25.12	-25.8	-26.9	16.9	0.00e+00	0	44	0	515899392	12	4084
2026-01-26 10:34:53.22	171.47	25.28	-25.9	-27.0	16.8	0.00e+00	0	44	0	519045120	12	4117
2026-01-26 10:34:54.22	171.52	25.44	-25.9	-27.2	16.7	0.00e+00	0	44	0	522190848	12	4156
2026-01-26 10:34:55.21	171.57	25.59	-26.0	-27.3	16.7	0.00e+00	0	44	0	525336576	12	4183
2026-01-26 10:34:56.21	171.62	25.76	-26.1	-27.5	16.5	0.00e+00	0	44	0	528482304	12	4253
2026-01-26 10:34:57.21	171.67	25.92	-26.1	-27.5	16.6	0.00e+00	0	44	0	531628032	12	4238
2026-01-26 10:34:58.21	171.72	26.08	-26.1	-27.6	16.5	0.00e+00	0	44	0	534773760	12	4267
2026-01-26 10:34:59.21	171.77	26.25	-26.2	-27.7	16.5	0.00e+00	0	44	0	537919488	12	4306
2026-01-26 10:35:00.21	171.82	26.41	-26.3	-28.1	16.3	0.00e+00	0	44	0	541065216	12	4395
2026-01-26 10:35:01.20	171.87	26.58	-26.4	-28.2	16.2	0.00e+00	0	44	0	544210944	12	4445
2026-01-26 10:35:02.21	171.93	26.75	-26.5	-28.4	16.1	0.00e+00	0	44	0	546308096	12	4493
2026-01-26 10:35:03.21	171.98	26.91	-26.5	-27.9	16.1	0.00e+00	0	44	0	549453824	13	4232
2026-01-26 10:35:04.21	172.03	27.08	-26.5	-28.0	16.0	0.00e+00	0	44	0	552599552	13	4275
2026-01-26 10:35:05.20	172.09	27.25	-26.5	-28.0	16.1	0.00e+00	0	44	0	555745280	13	4272
2026-01-26 10:35:06.20	172.14	27.43	-26.6	-28.2	16.0	0.00e+00	0	44	0	558891008	13	4321
2026-01-26 10:35:07.21	172.20	27.60	-26.6	-28.2	16.0	0.00e+00	0	44	0	562036736	13	4311
2026-01-26 10:35:08.20	172.25	27.77	-26.7	-28.3	15.9	0.00e+00	0	44	0	565182464	13	4350
2026-01-26 10:35:09.19	172.31	27.94	-26.9	-28.7	15.7	0.00e+00	0	44	0	568328192	13	4471
2026-01-26 10:35:10.19	172.36	28.12	-26.8	-28.5	15.8	0.00e+00	0	44	0	571473920	13	4406
2026-01-26 10:35:11.18	172.42	28.30	-26.8	-28.6	15.8	0.00e+00	0	44	0	574619648	13	4420
2026-01-26 10:35:12.18	172.48	28.47	-26.9	-28.8	15.7	0.00e+00	0	44	0	577765376	13	4476
2026-01-26 10:35:13.18	172.54	28.65	-26.9	-28.7	15.7	0.00e+00	0	44	0	580911104	13	4471
2026-01-26 10:35:14.17	172.59	28.83	-27.0	-28.9	15.6	0.00e+00	0	44	0	584056832	13	4527
2026-01-26 10:35:15.17	172.65	29.01	-27.1	-28.8	15.4	0.00e+00	0	44	0	587202560	14	4369
2026-01-26 10:35:16.17	172.71	29.20	-27.3	-29.3	15.2	0.00e+00	0	44	0	590348288	14	4503
2026-01-26 10:35:17.17	172.78	29.38	-27.3	-29.3	15.2	0.00e+00	0	44	0	593494016	14	4504
2026-01-26 10:35:18.18	172.84	29.57	-27.5	-29.7	14.9	7.00e-07	0	44	0	596639744	14	4625
2026-01-26 10:35:19.18	172.90	29.75	-27.6	-29.3	14.9	7.00e-07	0	44	0	599785472	15	4412
2026-01-26 10:35:20.18	172.96	29.94	-27.7	-29.6	14.7	0.00e+00	0	44	0	602931200	15	4489
2026-01-26 10:35:21.18	173.03	30.13	-27.5	-29.2	14.9	0.00e+00	0	44	0	606076928	15	4365
2026-01-26 10:35:22.19	173.09	30.32	-27.4	-29.1	15.0	0.00e+00	0	44	0	609222656	15	4336
2026-01-26 10:35:23.19	173.16	30.51	-27.4	-29.1	15.0	0.00e+00	0	44	0	612368384	15	4348
2026-01-26 10:35:24.19	173.22	30.70	-27.2	-28.5	15.3	0.00e+00	0	44	0	615514112	15	4169
2026-01-26 10:35:25.19	173.29	30.90	-27.1	-28.2	15.5	0.00e+00	0	44	0	618659840	15	4101
2026-01-26 10:35:26.20	173.36	31.09	-27.0	-28.1	15.5	0.00e+00	0	44	0	621805568	15	4063
2026-01-26 10:35:27.20	173.43	31.29	-26.8	-27.7	15.8	9.10e-06	0	44	0	624951296	15	3957
2026-01-26 10:35:28.20	173.50	31.49	-27.0	-27.9	15.6	0.00e+00	0	44	0	628097024	15	4035
2026-01-26 10:35:29.20	173.57	31.69	-26.6	-27.6	16.1	0.00e+00	0	44	0	631242752	14	4046
2026-01-26 10:35:30.20	173.64	31.89	-26.2	-27.3	16.5	0.00e+00	0	44	0	634388480	13	4083
2026-01-26 10:35:31.20	173.71	32.09	-26.1	-27.1	16.6	0.00e+00	0	44	0	637534208	13	4026
2026-01-26 10:35:32.19	173.78	32.29	-26.3	-27.5	16.5	0.00e+00	0	44	0	640679936	13	4123
2026-01-26 10:35:33.19	173.85	32.49	-26.6	-28.2	16.1	0.00e+00	0	44	0	643825664	13	4316
2026-01-26 10:35:34.20	173.93	32.70	-26.9	-28.7	15.8	0.00e+00	0	44	0	646971392	13	4463
2026-01-26 10:35:35.21	174.00	32.91	-26.9	-28.9	15.7	0.00e+00	0	44	0	650117120	13	4516
2026-01-26 10:35:36.21	174.08	33.11	-27.2	-28.9	15.4	7.60e-06	0	44	0	653262848	14	4401
2026-01-26 10:35:37.21	174.16	33.32	-27.3	-29.2	15.3	0.00e+00	0	44	0	656408576	14	4475
2026-01-26 10:35:38.21	174.23	33.53	-27.5	-29.3	15.0	0.00e+00	0	44	0	659554304	15	4391
2026-01-26 10:35:39.21	174.31	33.75	-27.7	-29.6	14.8	3.80e-06	0	44	0	662700032	15	4477
2026-01-26 10:35:40.21	174.39	33.96	-28.1	-30.1	14.3	1.50e-06	0	44	0	665845760	16	4532
2026-01-26 10:35:41.21	174.47	34.17	-28.0	-29.8	14.6	0.00e+00	0	44	0	668991488	16	4429
2026-01-26 10:35:42.21	174.55	34.39	-27.9	-29.4	14.8	1.22e-05	0	44	0	672137216	16	4324
2026-01-26 10:35:43.21	174.64	34.61	-27.8	-29.2	14.9	0.00e+00	0	44	0	675282944	16	4256
2026-01-26 10:35:44.20	174.72	34.83	-27.7	-29.1	15.0	0.00e+00	0	44	0	678428672	16	4237
2026-01-26 10:35:45.19	174.80	35.04	-27.8	-29.3	14.9	1.22e-05	0	44	0	680525824	16	4275
2026-01-26 10:35:46.18	174.89	35.26	-27.8	-29.2	14.9	1.50e-06	0	44	0	683671552	16	4263
2026-01-26 10:35:47.18	174.98	35.49	-27.9	-29.5	14.7	0.00e+00	0	44	0	686817280	16	4331
2026-01-26 10:35:48.18	175.07	35.71	-27.9	-29.7	14.7	1.22e-05	0	44	0	689963008	16	4386
2026-01-26 10:35:49.18	175.15	35.94	-28.1	-30.0	14.5	7.00e-07	0	44	0	693108736	16	4489
2026-01-26 10:35:50.17	175.24	36.17	-28.3	-30.5	14.2	1.50e-06	0	44	0	696254464	16	4631
2026-01-26 10:35:51.17	175.34	36.40	-28.5	-30.4	13.9	9.90e-06	0	44	0	699400192	17	4494
2026-01-26 10:35:52.16	175.43	36.63	-28.6	-30.8	13.7	3.80e-06	0	44	0	702545920	17	4609
2026-01-26 10:35:53.16	175.52	36.86	-28.8	-31.2	13.5	1.37e-05	0	44	0	705691648	17	4740
2026-01-26 10:35:54.17	175.62	37.10	-29.0	-31.2	13.2	3.05e-05	0	44	0	708837376	18	4623
2026-01-26 10:35:55.18	175.72	37.33	-29.1	-31.4	13.1	3.12e-05	0	44	0	711983104	18	4703
2026-01-26 10:35:56.19	175.82	37.57	-29.1	-31.4	13.1	3.66e-05	0	44	0	715128832	18	4679
2026-01-26 10:35:57.19	175.92	37.81	-29.0	-31.1	13.2	2.89e-05	0	44	0	718274560	18	4600
2026-01-26 10:35:58.19	176.02	38.05	-29.0	-31.1	13.3	1.90e-05	0	44	0	721420288	18	4594
2026-01-26 10:35:59.18	176.12	38.29	-28.8	-30.6	13.5	9.90e-06	0	44	0	724566016	18	4426
2026-01-26 10:36:00.19	176.23	38.54	-28.8	-30.7	13.5	2.13e-05	0	44	0	727711744	18	4475
2026-01-26 10:36:01.19	176.33	38.79	-29.0	-31.1	13.3	1.44e-05	0	44	0	730857472	18	4573
2026-01-26 10:36:02.19	176.44	39.03	-28.8	-30.6	13.5	1.06e-05	0	44	0	734003200	18	4451
2026-01-26 10:36:03.18	176.55	39.28	-28.6	-30.3	13.7	9.90e-06	0	44	0	737148928	18	4343
2026-01-26 10:36:04.18	176.66	39.53	-28.6	-30.2	13.7	5.30e-06	0	44	0	740294656	18	4339
2026-01-26 10:36:05.18	176.77	39.79	-28.6	-30.3	13.7	5.30e-06	0	44	0	743440384	18	4339
2026-01-26 10:36:06.17	176.88	40.04	-28.5	-30.0	13.9	1.50e-06	0	44	0	746586112	18	4261
2026-01-26 10:36:07.17	177.00	40.29	-28.5	-30.0	13.9	4.50e-06	0	44	0	749731840	18	4255
2026-01-26 10:36:08.17	177.12	40.55	-28.6	-30.1	13.9	5.30e-06	0	44	0	752877568	18	4299
2026-01-26 10:36:09.17	177.24	40.81	-28.6	-30.2	13.8	3.00e-06	0	44	0	756023296	18	4308
2026-01-26 10:36:10.17	177.36	41.07	-28.7	-30.5	13.6	2.20e-06	0	44	0	759169024	18	4410
2026-01-26 10:36:11.17	177.48	41.34	-28.9	-30.7	13.5	8.30e-06	0	44	0	762314752	18	4475
2026-01-26 10:36:12.17	177.60	41.60	-29.1	-31.2	13.2	2.28e-05	0	44	0	765460480	18	4630
2026-01-26 10:36:13.16	177.73	41.86	-29.3	-31.8	12.9	5.18e-05	0	44	0	768606208	18	4822
2026-01-26 10:36:14.16	177.86	42.13	-29.3	-32.0	12.8	5.64e-05	0	44	0	771751936	18	4884
2026-01-26 10:36:15.15	177.99	42.40	-29.5	-32.3	12.6	1.12e-04	0	44	0	774897664	18	4992
2026-01-26 10:36:16.15	178.12	42.67	-29.4	-31.5	12.7	7.93e-05	0	44	0	778043392	19	4622
2026-01-26 10:36:17.15	178.26	42.95	-29.3	-31.3	12.9	4.50e-05	0	44	0	781189120	19	4544
2026-01-26 10:36:18.14	178.39	43.22	-29.1	-30.8	13.2	3.50e-05	0	44	0	784334848	19	4396
2026-01-26 10:36:19.13	178.53	43.49	-29.1	-31.0	13.1	2.74e-05	0	44	0	787480576	19	4435
2026-01-26 10:36:20.13	178.68	43.77	-29.0	-30.7	13.3	1.75e-05	0	44	0	790626304	19	4361
2026-01-26 10:36:21.12	178.82	44.05	-29.0	-30.6	13.4	1.52e-05	0	44	0	793772032	19	4329
2026-01-26 10:36:22.10	178.96	44.33	-29.1	-30.9	13.1	2.59e-05	0	44	0	796917760	19	4424
2026-01-26 10:36:23.10	179.11	44.61	-29.1	-30.9	13.1	2.89e-05	0	44	0	799014912	19	4433
2026-01-26 10:36:24.09	179.26	44.90	-29.0	-30.7	13.2	2.59e-05	0	44	0	802160640	19	4364
2026-01-26 10:36:25.09	179.42	45.19	-29.2	-31.1	12.9	3.20e-05	0	44	0	805306368	19	4484
2026-01-26 10:36:26.10	179.58	45.48	-29.3	-31.3	12.8	3.66e-05	0	44	0	808452096	19	4556
2026-01-26 10:36:27.10	179.74	45.77	-29.4	-31.6	12.7	6.02e-05	0	44	0	811597824	19	4644
2026-01-26 10:36:28.11	179.91	46.07	-29.2	-31.2	13.0	4.50e-05	0	44	0	815792128	19	4515
2026-01-26 10:36:29.10	180.07	46.36	-28.9	-30.4	13.5	9.90e-06	0	44	0	817889280	19	4277
2026-01-26 10:36:30.11	180.24	46.66	-28.8	-30.2	13.6	1.29e-05	0	44	0	821035008	19	4208
2026-01-26 10:36:31.11	180.42	46.96	-28.8	-30.5	13.6	1.06e-05	0	44	0	824180736	18	4413
2026-01-26 10:36:32.12	180.59	47.27	-28.5	-30.0	14.0	3.00e-06	0	44	0	827326464	18	4260
2026-01-26 10:36:33.12	180.77	47.57	-28.5	-29.9	14.0	5.30e-06	0	44	0	830472192	18	4241
2026-01-26 10:36:34.12	180.96	47.88	-28.3	-29.5	14.3	1.50e-06	0	44	0	833617920	18	4128
2026-01-26 10:36:35.12	181.14	48.18	-28.0	-29.3	14.7	0.00e+00	0	44	0	836763648	17	4164
2026-01-26 10:36:36.12	181.34	48.49	-27.9	-29.1	14.8	0.00e+00	0	44	0	839909376	17	4121
2026-01-26 10:36:37.12	181.53	48.80	-27.9	-29.1	14.8	0.00e+00	0	44	0	843055104	17	4107
2026-01-26 10:36:38.11	181.73	49.11	-28.3	-29.9	14.3	0.00e+00	0	44	0	846200832	17	4343
2026-01-26 10:36:39.11	181.93	49.43	-28.0	-29.3	14.7	7.00e-07	0	44	0	849346560	17	4162
2026-01-26 10:36:40.11	182.14	49.74	-28.2	-29.6	14.5	1.50e-06	0	44	0	852492288	17	4247
2026-01-26 10:36:41.10	182.34	50.06	-28.2	-29.6	14.5	7.00e-07	0	44	0	855638016	17	4262
2026-01-26 10:36:42.11	182.56	50.38	-28.4	-30.3	14.1	2.20e-06	0	44	0	858783744	17	4449
2026-01-26 10:36:43.11	182.78	50.70	-28.5	-30.4	14.1	3.00e-06	0	44	0	861929472	17	4480
2026-01-26 10:36:44.11	183.01	51.03	-28.4	-30.2	14.1	7.00e-07	0	44	0	865075200	17	4437
2026-01-26 10:36:45.11	183.23	51.35	-28.8	-31.1	13.7	9.90e-06	0	44	0	868220928	17	4692
2026-01-26 10:36:46.12	183.47	51.68	-28.7	-30.9	13.7	2.20e-06	0	44	0	871366656	17	4655
2026-01-26 10:36:47.12	183.71	52.01	-29.1	-31.3	13.3	1.44e-05	0	44	0	874512384	18	4648
2026-01-26 10:36:48.12	183.95	52.34	-28.9	-30.9	13.5	1.14e-05	0	44	0	877658112	18	4529
2026-01-26 10:36:49.13	184.21	52.68	-28.7	-30.4	13.8	3.00e-06	0	44	0	880803840	18	4379
2026-01-26 10:36:50.12	184.46	53.01	-28.4	-29.7	14.2	7.00e-07	0	44	0	883949568	18	4183
2026-01-26 10:36:51.11	184.72	53.34	-28.2	-29.7	14.5	0.00e+00	0	44	0	887095296	17	4287
2026-01-26 10:36:52.12	184.99	53.69	-28.1	-29.6	14.6	7.00e-07	0	44	0	890241024	17	4246
2026-01-26 10:36:53.13	185.27	54.03	-27.6	-28.9	15.2	0.00e+00	0	44	0	893386752	16	4177
2026-01-26 10:36:54.13	185.55	54.37	-27.0	-28.1	15.7	0.00e+00	0	44	0	896532480	15	4055
2026-01-26 10:36:55.12	185.83	54.71	-26.9	-27.8	15.9	0.00e+00	0	44	0	899678208	15	3991
2026-01-26 10:36:56.13	186.13	55.05	-27.1	-28.1	15.7	0.00e+00	0	44	0	902823936	15	4071
2026-01-26 10:36:57.13	186.43	55.40	-27.0	-28.0	15.8	0.00e+00	0	44	0	905969664	15	4040
2026-01-26 10:36:58.13	186.74	55.75	-27.1	-28.2	15.7	0.00e+00	0	44	0	909115392	15	4098
2026-01-26 10:36:59.13	187.05	56.10	-27.2	-28.4	15.6	0.00e+00	0	44	0	912261120	15	4155
2026-01-26 10:37:00.13	187.38	56.45	-27.5	-29.1	15.2	0.00e+00	0	44	0	915406848	15	4346
2026-01-26 10:37:01.13	187.71	56.80	-27.2	-28.6	15.5	0.00e+00	0	44	0	918552576	15	4194
2026-01-26 10:37:02.14	188.05	57.15	-27.1	-28.3	15.7	0.00e+00	0	44	0	921698304	15	4115
2026-01-26 10:37:03.13	188.40	57.50	-26.8	-28.0	16.1	0.00e+00	0	44	0	924844032	14	4141
2026-01-26 10:37:04.13	188.76	57.86	-26.5	-27.5	16.4	0.00e+00	0	44	0	927989760	14	4002
2026-01-26 10:37:05.14	189.13	58.22	-26.6	-27.5	16.4	0.00e+00	0	44	0	931135488	14	4016
2026-01-26 10:37:06.14	189.51	58.57	-26.6	-27.7	16.3	0.00e+00	0	44	0	934281216	14	4058
2026-01-26 10:37:07.14	189.90	58.93	-26.4	-27.1	16.6	0.00e+00	0	44	0	937426944	14	3903
2026-01-26 10:37:08.14	190.29	59.29	-26.6	-27.7	16.4	0.00e+00	0	44	0	940572672	14	4046
2026-01-26 10:37:09.14	190.70	59.65	-26.4	-27.1	16.7	0.00e+00	0	44	0	943718400	14	3913
2026-01-26 10:37:10.14	191.12	60.01	-26.2	-27.2	16.8	0.00e+00	0	44	0	946864128	13	4049
2026-01-26 10:37:11.14	191.56	60.37	-26.2	-27.1	16.9	0.00e+00	0	44	0	950009856	13	4013
2026-01-26 10:37:12.15	192.01	60.73	-26.2	-27.2	16.9	0.00e+00	0	44	0	953155584	13	4037
2026-01-26 10:37:13.14	192.46	61.09	-25.9	-26.5	17.3	0.00e+00	0	44	0	956301312	13	3853
2026-01-26 10:37:14.14	192.93	61.45	-25.7	-26.7	17.4	0.00e+00	0	44	0	959447040	12	4013
2026-01-26 10:37:15.14	193.42	61.82	-25.6	-26.3	17.6	0.00e+00	0	44	0	962592768	12	3921
2026-01-26 10:37:16.14	193.92	62.18	-25.4	-25.9	17.9	0.00e+00	0	44	0	965738496	12	3820
2026-01-26 10:37:17.14	194.43	62.54	-25.2	-25.9	18.2	3.80e-06	0	44	0	968884224	11	3931
2026-01-26 10:37:18.15	194.97	62.91	-25.4	-26.3	18.0	0.00e+00	0	44	0	972029952	11	4027
2026-01-26 10:37:19.16	195.52	63.27	-25.3	-26.2	18.1	0.00e+00	0	44	0	975175680	11	3999
2026-01-26 10:37:20.16	196.08	63.64	-25.0	-25.6	18.4	0.00e+00	0	44	0	978321408	11	3858
2026-01-26 10:37:21.16	196.66	64.00	-25.2	-26.0	18.2	0.00e+00	0	44	0	981467136	11	3937
2026-01-26 10:37:22.16	197.26	64.36	-25.6	-26.9	17.7	0.00e+00	0	44	0	984612864	11	4175
2026-01-26 10:37:23.17	197.89	64.72	-25.7	-27.1	17.6	4.50e-06	0	44	0	987758592	11	4219
2026-01-26 10:37:24.17	198.53	65.08	-25.6	-26.8	17.8	0.00e+00	0	44	0	990904320	11	4135
2026-01-26 10:37:25.18	199.19	65.44	-25.6	-26.9	17.7	0.00e+00	0	44	0	994050048	11	4185
2026-01-26 10:37:26.18	199.87	65.80	-25.7	-27.1	17.6	1.50e-06	0	44	0	997195776	11	4221
2026-01-26 10:37:27.19	200.58	66.16	-25.8	-27.4	17.5	0.00e+00	0	44	0	999292928	11	4305
2026-01-26 10:37:28.19	201.31	66.51	-25.7	-27.1	17.6	0.00e+00	0	44	0	1002438656	11	4240
2026-01-26 10:37:29.20	202.07	66.87	-25.4	-26.5	17.9	2.20e-06	0	44	0	1006632960	11	4076
2026-01-26 10:37:30.20	202.84	67.22	-25.5	-26.7	17.9	0.00e+00	0	44	0	1008730112	11	4112
2026-01-26 10:37:31.20	203.64	67.56	-25.7	-27.1	17.6	0.00e+00	0	44	0	1011875840	11	4239
2026-01-26 10:37:32.20	204.47	67.91	-25.7	-27.2	17.6	0.00e+00	0	44	0	1016070144	11	4251
2026-01-26 10:37:33.20	205.33	68.25	-25.9	-27.5	17.5	0.00e+00	0	44	0	1019215872	11	4325
2026-01-26 10:37:34.20	206.22	68.58	-25.9	-27.4	17.4	0.00e+00	0	44	0	1021313024	11	4314
2026-01-26 10:37:35.21	207.14	68.92	-25.9	-27.1	17.3	0.00e+00	0	44	0	1024458752	12	4116
2026-01-26 10:37:36.21	208.09	69.25	-26.2	-27.6	17.0	0.00e+00	0	44	0	1027604480	12	4262
2026-01-26 10:37:37.21	209.07	69.58	-25.9	-27.1	17.3	0.00e+00	0	44	0	1030750208	12	4124
2026-01-26 10:37:38.21	210.09	69.90	-25.7	-26.6	17.6	4.50e-06	0	44	0	1033895936	12	4001
2026-01-26 10:37:39.21	211.14	70.21	-25.6	-26.4	17.7	0.00e+00	0	44	0	1037041664	12	3938
2026-01-26 10:37:40.22	212.24	70.53	-25.7	-26.5	17.7	0.00e+00	0	44	0	1040187392	12	3965
2026-01-26 10:37:41.22	213.36	70.83	-25.8	-26.8	17.5	0.00e+00	0	44	0	1043333120	12	4033
2026-01-26 10:37:42.22	214.52	71.13	-25.5	-26.1	17.8	0.00e+00	0	44	0	1046478848	12	3878
2026-01-26 10:37:43.23	215.73	71.43	-25.4	-25.9	18.0	0.00e+00	0	44	0	1049624576	12	3820
2026-01-26 10:37:44.23	216.98	71.71	-25.6	-26.3	17.8	0.00e+00	0	44	0	1052770304	12	3902
2026-01-26 10:37:45.23	218.26	71.99	-25.6	-26.3	17.7	0.00e+00	0	44	0	1055916032	12	3906
2026-01-26 10:37:46.23	219.58	72.26	-25.7	-26.6	17.6	0.00e+00	0	44	0	1059061760	12	3992
2026-01-26 10:37:47.24	220.96	72.52	-26.0	-27.2	17.4	0.00e+00	0	44	0	1062207488	12	4131
2026-01-26 10:37:48.24	222.37	72.77	-26.0	-27.2	17.3	0.00e+00	0	44	0	1065353216	12	4136
2026-01-26 10:37:49.25	223.84	73.01	-26.0	-27.2	17.4	0.00e+00	0	44	0	1068498944	12	4135
2026-01-26 10:37:50.25	225.33	73.25	-26.1	-27.4	17.3	0.00e+00	0	44	0	1071644672	12	4191
2026-01-26 10:37:51.25	226.87	73.47	-25.9	-27.1	17.4	0.00e+00	0	44	0	1074790400	12	4118
2026-01-26 10:37:52.25	228.45	73.68	-26.0	-27.2	17.4	0.00e+00	0	44	0	1077936128	12	4154
2026-01-26 10:37:53.26	230.09	73.87	-26.2	-27.6	17.1	0.00e+00	0	44	0	1081081856	12	4261
2026-01-26 10:37:54.26	231.75	74.06	-26.0	-27.3	17.3	0.00e+00	0	44	0	1084227584	12	4160
2026-01-26 10:37:55.27	233.47	74.23	-26.2	-27.6	17.1	0.00e+00	0	44	0	1087373312	12	4246
2026-01-26 10:37:56.28	235.22	74.39	-26.4	-28.1	16.8	0.00e+00	0	44	0	1090519040	12	4386
2026-01-26 10:37:57.28	237.00	74.54	-26.1	-27.4	17.2	0.00e+00	0	44	0	1093664768	12	4191
2026-01-26 10:37:58.28	238.81	74.67	-26.2	-27.7	17.1	0.00e+00	0	44	0	1096810496	12	4272
2026-01-26 10:37:59.28	240.65	74.79	-26.3	-28.0	17.0	0.00e+00	0	44	0	1099956224	12	4346
2026-01-26 10:38:00.28	242.51	74.89	-25.8	-26.9	17.5	0.00e+00	0	44	0	1103101952	12	4056
2026-01-26 10:38:01.28	244.40	74.97	-25.5	-26.1	17.9	0.00e+00	0	44	0	1106247680	12	3858
2026-01-26 10:38:02.29	246.33	75.04	-25.5	-26.1	17.9	0.00e+00	0	44	0	1109393408	12	3873
2026-01-26 10:38:03.29	248.26	75.09	-25.5	-26.1	17.9	0.00e+00	0	45	0	1112539136	12	3864
2026-01-26 10:38:04.29	250.20	75.13	-25.5	-26.1	17.8	0.00e+00	0	44	0	1115684864	12	3875
2026-01-26 10:38:05.30	252.17	75.15	-25.4	-25.8	18.0	0.00e+00	0	44	0	1118830592	12	3797
2026-01-26 10:38:06.30	254.12	75.16	-25.3	-26.3	18.2	0.00e+00	0	44	0	1121976320	11	4017
2026-01-26 10:38:07.30	256.06	75.14	-25.7	-27.0	17.8	0.00e+00	0	44	0	1125122048	11	4191
2026-01-26 10:38:08.31	258.03	75.11	-26.0	-27.6	17.3	0.00e+00	0	45	0	1128267776	11	4366
2026-01-26 10:38:09.31	259.96	75.07	-26.3	-27.8	17.0	7.00e-07	0	44	0	1131413504	12	4300
2026-01-26 10:38:10.32	261.90	75.01	-26.1	-27.4	17.3	0.00e+00	0	44	0	1134559232	12	4200
2026-01-26 10:38:11.32	263.80	74.93	-26.1	-27.4	17.3	0.00e+00	0	44	0	1137704960	12	4180
2026-01-26 10:38:12.32	265.67	74.84	-26.2	-27.6	17.2	0.00e+00	0	44	0	1140850688	12	4229
2026-01-26 10:38:13.32	267.53	74.73	-25.9	-27.1	17.5	0.00e+00	0	44	0	1143996416	12	4098
2026-01-26 10:38:14.33	269.37	74.60	-26.3	-27.9	17.0	0.00e+00	0	44	0	1147142144	12	4323
2026-01-26 10:38:15.33	271.16	74.46	-26.3	-27.9	17.0	0.00e+00	0	44	0	1150287872	12	4329
2026-01-26 10:38:16.33	272.91	74.31	-26.3	-27.9	17.0	0.00e+00	0	44	0	1153433600	12	4309
2026-01-26 10:38:17.34	274.65	74.14	-26.4	-28.0	16.9	0.00e+00	0	44	0	1156579328	12	4352
2026-01-26 10:38:18.34	276.33	73.96	-26.4	-28.1	16.9	0.00e+00	0	44	0	1159725056	12	4395
2026-01-26 10:38:19.34	277.97	73.77	-26.5	-27.7	16.6	0.00e+00	0	44	0	1162870784	13	4174
2026-01-26 10:38:20.35	279.58	73.57	-26.5	-27.9	16.6	0.00e+00	0	44	0	1166016512	13	4213
2026-01-26 10:38:21.35	281.14	73.35	-26.9	-28.7	16.3	0.00e+00	0	44	0	1169162240	13	4425
2026-01-26 10:38:22.35	282.65	73.13	-26.7	-28.4	16.4	0.00e+00	0	44	0	1172307968	13	4341
2026-01-26 10:38:23.35	284.13	72.89	-26.0	-26.7	17.3	0.00e+00	0	44	0	1175453696	13	3918
2026-01-26 10:38:24.36	285.57	72.64	-25.6	-26.3	17.8	0.00e+00	0	44	0	1178599424	12	3909
2026-01-26 10:38:25.36	286.95	72.38	-25.7	-26.7	17.6	0.00e+00	0	44	0	1181745152	12	4006
2026-01-26 10:38:26.37	288.31	72.12	-25.8	-26.9	17.4	0.00e+00	0	44	0	1184890880	12	4064
2026-01-26 10:38:27.37	289.61	71.84	-26.0	-27.2	17.3	0.00e+00	0	44	0	1188036608	12	4138
2026-01-26 10:38:28.37	290.87	71.56	-26.0	-27.3	17.1	6.80e-06	0	45	0	1191182336	12	4166
2026-01-26 10:38:29.37	292.09	71.28	-25.8	-26.9	17.1	0.00e+00	0	44	0	1194328064	12	4068
2026-01-26 10:38:30.38	293.28	70.98	-25.4	-25.9	17.8	0.00e+00	0	44	0	1197473792	12	3817
2026-01-26 10:38:31.38	294.42	70.68	-25.5	-26.2	17.8	0.00e+00	0	44	0	1200619520	12	3887
2026-01-26 10:38:32.38	295.52	70.37	-26.1	-27.5	17.1	0.00e+00	0	45	0	1203765248	12	4226
2026-01-26 10:38:33.38	296.59	70.06	-26.6	-28.0	16.6	0.00e+00	0	45	0	1206910976	13	4262
2026-01-26 10:38:34.38	297.62	69.74	-27.0	-28.6	15.9	0.00e+00	0	45	0	1210056704	14	4306
2026-01-26 10:38:35.38	298.62	69.42	-26.9	-28.2	16.1	0.00e+00	0	44	0	1213202432	14	4211
2026-01-26 10:38:36.38	299.58	69.09	-25.7	-26.5	17.6	0.00e+00	0	44	0	1216348160	12	3964
2026-01-26 10:38:37.38	300.51	68.76	-25.0	-25.5	18.4	3.80e-06	0	44	0	1219493888	11	3834
2026-01-26 10:38:38.38	301.41	68.42	-25.5	-26.7	17.8	0.00e+00	0	44	0	1222639616	11	4127
2026-01-26 10:38:39.39	302.29	68.08	-26.5	-27.9	16.5	0.00e+00	0	44	0	1225785344	13	4211
2026-01-26 10:38:40.39	303.13	67.74	-26.7	-28.3	16.3	0.00e+00	0	44	0	1228931072	13	4336
2026-01-26 10:38:41.39	303.95	67.40	-26.6	-28.0	16.4	0.00e+00	0	44	0	1232076800	13	4240
2026-01-26 10:38:42.39	304.74	67.05	-26.4	-27.5	16.6	0.00e+00	0	44	0	1235222528	13	4126
2026-01-26 10:38:43.39	305.50	66.70	-26.0	-26.7	17.2	2.20e-06	0	44	0	1238368256	13	3919
2026-01-26 10:38:44.39	306.23	66.35	-26.0	-26.7	17.2	0.00e+00	0	45	0	1241513984	13	3911
2026-01-26 10:38:45.39	306.95	65.99	-26.8	-28.4	16.2	0.00e+00	0	45	0	1244659712	13	4364
2026-01-26 10:38:46.40	307.65	65.64	-27.4	-29.3	15.5	7.60e-06	0	44	0	1247805440	14	4501
2026-01-26 10:38:47.40	308.32	65.28	-27.9	-29.9	14.9	0.00e+00	0	44	0	1250951168	15	4564
2026-01-26 10:38:48.41	308.97	64.92	-27.6	-29.3	15.2	0.00e+00	0	45	0	1254096896	15	4371
2026-01-26 10:38:49.41	309.60	64.56	-27.3	-28.6	15.6	9.90e-06	0	45	0	1257242624	15	4181
2026-01-26 10:38:50.42	310.21	64.20	-27.4	-28.9	15.5	0.00e+00	0	44	0	1260388352	15	4261
2026-01-26 10:38:51.42	310.80	63.84	-27.3	-28.7	15.6	0.00e+00	0	45	0	1263534080	15	4212
2026-01-26 10:38:52.43	311.38	63.47	-27.3	-28.5	15.7	6.10e-06	0	44	0	1266679808	15	4164
2026-01-26 10:38:53.43	311.93	63.11	-27.9	-30.0	14.8	0.00e+00	0	44	0	1269825536	15	4602
2026-01-26 10:38:54.43	312.47	62.75	-28.3	-30.4	14.4	1.50e-06	0	45	0	1272971264	16	4591
2026-01-26 10:38:55.43	312.99	62.39	-27.5	-28.7	15.4	0.00e+00	0	44	0	1275068416	16	4094
2026-01-26 10:38:56.43	313.50	62.03	-26.5	-27.3	16.6	0.00e+00	0	45	0	1278214144	14	3947
2026-01-26 10:38:57.43	313.99	61.66	-25.6	-26.3	17.5	0.00e+00	0	44	0	1281359872	12	3920
2026-01-26 10:38:58.43	314.47	61.30	-25.3	-26.2	18.0	0.00e+00	0	44	0	1284505600	11	3997
2026-01-26 10:38:59.43	314.93	60.94	-25.3	-26.1	17.9	0.00e+00	0	44	0	1287651328	11	3971
2026-01-26 10:39:00.44	315.39	60.58	-25.7	-27.0	17.5	0.00e+00	0	45	0	1290797056	11	4196
2026-01-26 10:39:01.44	315.83	60.22	-26.4	-28.1	16.6	0.00e+00	0	44	0	1293942784	12	4389
2026-01-26 10:39:02.44	316.26	59.86	-27.0	-28.9	16.0	0.00e+00	0	44	0	1297088512	13	4485
2026-01-26 10:39:03.45	316.67	59.50	-26.8	-28.0	16.2	0.00e+00	0	45	0	1300234240	14	4147
2026-01-26 10:39:04.45	317.08	59.14	-26.3	-26.8	16.8	0.00e+00	0	44	0	1303379968	14	3845
2026-01-26 10:39:05.46	317.47	58.78	-26.1	-27.1	16.9	0.00e+00	0	44	0	1306525696	13	4003
2026-01-26 10:39:06.46	317.86	58.42	-26.2	-27.2	16.9	0.00e+00	0	45	0	1309671424	13	4046
2026-01-26 10:39:07.47	318.23	58.06	-26.4	-27.6	16.7	0.00e+00	0	44	0	1312817152	13	4127
2026-01-26 10:39:08.47	318.60	57.71	-26.6	-28.1	16.4	0.00e+00	0	44	0	1315962880	13	4262
2026-01-26 10:39:09.47	318.95	57.36	-27.3	-29.2	15.6	0.00e+00	0	44	0	1319108608	14	4452
2026-01-26 10:39:10.46	319.29	57.01	-28.0	-30.2	14.7	0.00e+00	0	44	0	1322254336	15	4636
2026-01-26 10:39:11.46	319.63	56.66	-28.2	-30.2	14.5	7.00e-07	0	44	0	1325400064	16	4540
2026-01-26 10:39:12.47	319.96	56.30	-27.7	-29.1	15.0	0.00e+00	0	44	0	1328545792	16	4194
2026-01-26 10:39:13.48	320.28	55.95	-27.3	-28.1	15.6	0.00e+00	0	44	0	1331691520	16	3952
2026-01-26 10:39:14.49	320.60	55.60	-27.3	-28.7	15.5	0.00e+00	0	44	0	1334837248	15	4205
2026-01-26 10:39:15.49	320.90	55.26	-27.6	-29.4	15.1	0.00e+00	0	45	0	1337982976	15	4409
2026-01-26 10:39:16.50	321.20	54.91	-27.5	-29.2	15.2	0.00e+00	0	45	0	1341128704	15	4346
2026-01-26 10:39:17.50	321.49	54.57	-27.7	-29.5	15.1	0.00e+00	0	44	0	1344274432	15	4435
2026-01-26 10:39:18.51	321.78	54.23	-28.2	-30.1	14.6	0.00e+00	0	44	0	1347420160	16	4502
2026-01-26 10:39:19.51	322.05	53.89	-28.3	-30.4	14.5	7.00e-07	0	45	0	1350565888	16	4579
2026-01-26 10:39:20.50	322.32	53.55	-28.3	-30.3	14.5	7.00e-07	0	44	0	1353711616	16	4570
2026-01-26 10:39:21.50	322.59	53.22	-28.6	-30.5	14.0	2.20e-06	0	44	0	1356857344	17	4520
2026-01-26 10:39:22.50	322.84	52.88	-28.7	-30.8	13.8	3.80e-06	0	44	0	1360003072	17	4604
2026-01-26 10:39:23.51	323.10	52.55	-28.5	-30.4	14.1	4.50e-06	0	44	0	1363148800	17	4476
2026-01-26 10:39:24.50	323.34	52.22	-28.0	-29.2	14.8	0.00e+00	0	44	0	1366294528	17	4128
2026-01-26 10:39:25.50	323.59	51.89	-27.4	-28.4	15.5	0.00e+00	0	44	0	1369440256	16	4015
2026-01-26 10:39:26.50	323.82	51.57	-27.6	-28.7	15.3	0.00e+00	0	45	0	1372585984	16	4112
2026-01-26 10:39:27.50	324.05	51.24	-28.2	-30.2	14.5	7.00e-07	0	44	0	1375731712	16	4523
2026-01-26 10:39:28.51	324.28	50.91	-28.8	-31.2	13.7	3.80e-06	0	45	0	1378877440	17	4729
2026-01-26 10:39:29.52	324.51	50.59	-29.2	-31.6	13.1	3.20e-05	0	45	0	1382023168	18	4740
2026-01-26 10:39:30.52	324.72	50.27	-29.4	-32.0	12.8	5.34e-05	0	44	0	1385168896	18	4885
2026-01-26 10:39:31.51	324.93	49.95	-29.1	-31.2	13.3	5.87e-05	0	45	0	1388314624	18	4608
2026-01-26 10:39:32.52	325.15	49.63	-28.6	-30.2	13.9	4.50e-06	0	44	0	1391460352	18	4298
2026-01-26 10:39:33.52	325.35	49.32	-28.7	-30.3	13.8	3.80e-06	0	44	0	1394606080	18	4351
2026-01-26 10:39:34.52	325.55	49.01	-28.8	-30.5	13.7	3.00e-06	0	45	0	1397751808	18	4392
2026-01-26 10:39:35.52	325.75	48.70	-28.7	-30.4	13.7	6.80e-06	0	44	0	1400897536	18	4378
2026-01-26 10:39:36.53	325.94	48.39	-28.8	-30.6	13.6	8.30e-06	0	44	0	1404043264	18	4434
2026-01-26 10:39:37.54	326.13	48.08	-29.1	-31.3	13.2	1.44e-05	0	44	0	1407188992	18	4662
2026-01-26 10:39:38.54	326.32	47.77	-29.2	-31.7	13.0	4.04e-05	0	44	0	1410334720	18	4759
2026-01-26 10:39:39.54	326.50	47.47	-29.0	-31.2	13.1	3.12e-05	0	44	0	1413480448	18	4614
2026-01-26 10:39:40.54	326.68	47.17	-29.0	-31.1	13.1	3.28e-05	0	44	0	1416626176	18	4602
2026-01-26 10:39:41.55	326.85	46.86	-29.1	-31.5	13.0	2.59e-05	0	44	0	1419771904	18	4711
2026-01-26 10:39:42.54	327.02	46.57	-29.3	-31.8	12.9	4.88e-05	0	45	0	1422917632	18	4812
2026-01-26 10:39:43.55	327.19	46.27	-29.3	-31.9	12.9	4.80e-05	0	45	0	1426063360	18	4835
2026-01-26 10:39:44.55	327.36	45.98	-29.3	-32.0	12.9	4.11e-05	0	44	0	1429209088	18	4871
2026-01-26 10:39:45.56	327.52	45.68	-29.1	-31.3	13.3	2.89e-05	0	45	0	1432354816	18	4629
2026-01-26 10:39:46.56	327.68	45.39	-29.1	-31.4	13.2	2.05e-05	0	44	0	1435500544	18	4687
2026-01-26 10:39:47.56	327.84	45.10	-29.4	-32.2	12.7	5.64e-05	0	44	0	1438646272	18	4946
2026-01-26 10:39:48.56	327.99	44.82	-29.7	-32.5	12.2	1.80e-04	0	45	0	1441792000	19	4928
2026-01-26 10:39:49.56	328.14	44.53	-29.9	-32.8	12.0	4.08e-04	0	44	0	1444937728	19	5045
2026-01-26 10:39:50.56	328.29	44.25	-29.6	-32.1	12.5	1.68e-04	0	44	0	1448083456	19	4780
2026-01-26 10:39:51.56	328.44	43.97	-29.2	-31.0	13.0	4.57e-05	0	44	0	1451229184	19	4451
2026-01-26 10:39:52.57	328.58	43.69	-28.9	-30.3	13.5	1.37e-05	0	44	0	1454374912	19	4227
2026-01-26 10:39:53.57	328.72	43.41	-28.9	-30.4	13.5	9.90e-06	0	44	0	1457520640	19	4248
2026-01-26 10:39:54.57	328.86	43.13	-29.1	-30.7	13.3	1.44e-05	0	44	0	1460666368	19	4359
2026-01-26 10:39:55.58	329.00	42.86	-29.4	-31.6	12.8	4.42e-05	0	44	0	1463812096	19	4627
2026-01-26 10:39:56.58	329.13	42.59	-29.5	-31.9	12.5	1.20e-04	0	45	0	1466957824	19	4736
2026-01-26 10:39:57.57	329.27	42.32	-29.3	-31.2	12.9	6.33e-05	0	44	0	1470103552	19	4521
2026-01-26 10:39:58.57	329.40	42.05	-29.2	-31.1	13.0	3.43e-05	0	44	0	1473249280	19	4483
2026-01-26 10:39:59.57	329.52	41.78	-29.4	-31.5	12.8	4.65e-05	0	44	0	1476395008	19	4599
2026-01-26 10:40:00.58	329.65	41.52	-29.4	-31.6	12.8	7.70e-05	0	44	0	1479540736	19	4625
2026-01-26 10:40:01.58	329.77	41.25	-29.0	-30.7	13.2	3.35e-05	0	44	0	1482686464	19	4359
2026-01-26 10:40:02.58	329.90	40.99	-28.8	-30.2	13.6	1.14e-05	0	45	0	1485832192	19	4212
2026-01-26 10:40:03.58	330.02	40.73	-28.7	-30.4	13.7	8.30e-06	0	44	0	1488977920	18	4378
2026-01-26 10:40:04.59	330.14	40.47	-29.0	-31.1	13.3	1.14e-05	0	44	0	1492123648	18	4584
2026-01-26 10:40:05.60	330.25	40.22	-29.2	-31.6	13.1	2.74e-05	0	44	0	1495269376	18	4739
2026-01-26 10:40:06.60	330.37	39.96	-29.4	-32.2	12.7	6.17e-05	0	44	0	1498415104	18	4937
2026-01-26 10:40:07.60	330.48	39.71	-29.5	-31.9	12.5	1.32e-04	0	44	0	1501560832	19	4734
2026-01-26 10:40:08.60	330.59	39.46	-29.3	-31.3	12.8	6.33e-05	0	44	0	1503657984	19	4543
2026-01-26 10:40:09.60	330.70	39.21	-29.0	-30.7	13.3	1.83e-05	0	44	0	1507852288	19	4352
2026-01-26 10:40:10.61	330.81	38.96	-28.8	-30.2	13.5	1.06e-05	0	44	0	1510998016	19	4211
2026-01-26 10:40:11.61	330.92	38.72	-28.8	-30.5	13.6	9.10e-06	0	45	0	1514143744	18	4415
2026-01-26 10:40:12.62	331.02	38.47	-28.6	-30.2	13.9	9.10e-06	0	44	0	1517289472	18	4304
2026-01-26 10:40:13.62	331.13	38.23	-28.5	-29.9	14.1	2.20e-06	0	44	0	1520435200	18	4215
2026-01-26 10:40:14.63	331.23	37.98	-28.6	-30.0	13.9	2.20e-06	0	44	0	1523580928	18	4265
2026-01-26 10:40:15.63	331.33	37.75	-28.5	-30.0	13.9	3.80e-06	0	44	0	1526726656	18	4263
2026-01-26 10:40:16.63	331.43	37.51	-28.3	-29.5	14.2	2.20e-06	0	44	0	1528823808	18	4116
2026-01-26 10:40:17.64	331.53	37.27	-28.1	-29.6	14.4	1.50e-06	0	44	0	1531969536	17	4248
2026-01-26 10:40:18.65	331.63	37.03	-28.1	-29.5	14.4	7.00e-07	0	44	0	1535115264	17	4221
2026-01-26 10:40:19.65	331.72	36.80	-27.9	-29.0	14.8	0.00e+00	0	44	0	1538260992	17	4099
2026-01-26 10:40:20.65	331.82	36.57	-27.8	-28.8	14.8	0.00e+00	0	44	0	1542455296	17	4051
2026-01-26 10:40:21.65	331.91	36.34	-28.0	-29.1	14.7	7.00e-07	0	44	0	1545601024	17	4130
2026-01-26 10:40:22.66	332.00	36.11	-28.0	-29.3	14.6	7.00e-07	0	44	0	1548746752	17	4162
2026-01-26 10:40:23.66	332.09	35.88	-28.1	-29.5	14.5	1.50e-06	0	44	0	1550843904	17	4222
2026-01-26 10:40:24.67	332.18	35.66	-28.2	-29.7	14.4	7.00e-07	0	44	0	1553989632	17	4278
2026-01-26 10:40:25.67	332.27	35.43	-28.1	-29.4	14.5	7.00e-07	0	44	0	1557135360	17	4217
2026-01-26 10:40:26.67	332.36	35.21	-28.2	-29.8	14.3	0.00e+00	0	44	0	1560281088	17	4316
2026-01-26 10:40:27.67	332.44	34.99	-28.2	-29.7	14.3	7.00e-07	0	44	0	1563426816	17	4280
2026-01-26 10:40:28.67	332.53	34.77	-28.1	-29.5	14.5	1.50e-06	0	44	0	1566572544	17	4215
2026-01-26 10:40:29.67	332.61	34.56	-28.1	-29.5	14.5	7.00e-07	0	44	0	1569718272	17	4218
2026-01-26 10:40:30.67	332.69	34.34	-28.0	-29.4	14.5	7.00e-07	0	44	0	1572864000	17	4189
2026-01-26 10:40:31.67	332.77	34.13	-28.1	-29.6	14.4	7.00e-07	0	44	0	1576009728	17	4252
2026-01-26 10:40:32.68	332.85	33.91	-28.2	-29.7	14.3	7.00e-07	0	45	0	1579155456	17	4288
2026-01-26 10:40:33.68	332.93	33.70	-28.4	-30.1	14.1	2.20e-06	0	45	0	1582301184	17	4417
2026-01-26 10:40:34.68	333.01	33.49	-28.4	-30.3	14.0	7.00e-07	0	44	0	1585446912	17	4449
2026-01-26 10:40:35.68	333.09	33.28	-28.4	-30.3	14.0	2.20e-06	0	44	0	1588592640	17	4466
2026-01-26 10:40:36.69	333.17	33.07	-28.5	-30.5	13.8	6.80e-06	0	44	0	1591738368	17	4539
2026-01-26 10:40:37.68	333.24	32.87	-28.4	-30.1	14.1	2.20e-06	0	45	0	1594884096	17	4415
2026-01-26 10:40:38.69	333.32	32.66	-28.2	-29.8	14.3	1.50e-06	0	45	0	1598029824	17	4306
2026-01-26 10:40:39.69	333.39	32.46	-28.2	-29.7	14.4	2.20e-06	0	44	0	1601175552	17	4276
2026-01-26 10:40:40.70	333.46	32.25	-28.0	-29.2	14.6	0.00e+00	0	44	0	1604321280	17	4148
2026-01-26 10:40:41.70	333.54	32.05	-27.7	-29.1	15.0	7.00e-07	0	44	0	1607467008	16	4216
2026-01-26 10:40:42.70	333.61	31.85	-27.5	-28.6	15.2	0.00e+00	0	44	0	1610612736	16	4083
2026-01-26 10:40:43.71	333.68	31.65	-27.3	-28.2	15.5	0.00e+00	0	44	0	1613758464	16	3975
2026-01-26 10:40:44.71	333.75	31.46	-27.4	-28.3	15.4	0.00e+00	0	44	0	1616904192	16	4014
2026-01-26 10:40:45.72	333.82	31.26	-27.4	-28.4	15.3	0.00e+00	0	44	0	1620049920	16	4028
2026-01-26 10:40:46.72	333.88	31.06	-27.4	-28.4	15.3	0.00e+00	0	44	0	1623195648	16	4048
2026-01-26 10:40:47.72	333.95	30.87	-27.4	-28.4	15.3	0.00e+00	0	44	0	1626341376	16	4033
2026-01-26 10:40:48.72	334.02	30.68	-27.3	-28.3	15.4	0.00e+00	0	44	0	1629487104	16	4011
2026-01-26 10:40:49.72	334.08	30.49	-27.3	-28.3	15.4	0.00e+00	0	44	0	1632632832	16	4005
2026-01-26 10:40:50.72	334.15	30.30	-27.5	-28.7	15.1	0.00e+00	0	44	0	1635778560	16	4119
2026-01-26 10:40:51.72	334.21	30.11	-27.4	-28.5	15.2	0.00e+00	0	45	0	1638924288	16	4073
2026-01-26 10:40:52.72	334.28	29.92	-27.1	-28.2	15.5	0.00e+00	0	44	0	1642070016	15	4109
2026-01-26 10:40:53.73	334.34	29.74	-27.0	-28.1	15.6	0.00e+00	0	44	0	1645215744	15	4064
2026-01-26 10:40:54.74	334.40	29.55	-27.0	-28.0	15.6	0.00e+00	0	44	0	1648361472	15	4046
2026-01-26 10:40:55.74	334.47	29.37	-27.1	-28.2	15.5	0.00e+00	0	44	0	1651507200	15	4089
2026-01-26 10:40:56.75	334.53	29.18	-26.8	-27.7	15.8	0.00e+00	0	44	0	1654652928	15	3960
2026-01-26 10:40:57.76	334.59	29.00	-26.5	-27.5	16.2	0.00e+00	0	44	0	1657798656	14	4022
2026-01-26 10:40:58.76	334.65	28.82	-26.6	-27.7	16.0	0.00e+00	0	44	0	1660944384	14	4084
2026-01-26 10:40:59.76	334.71	28.64	-26.7	-27.9	15.9	0.00e+00	0	44	0	1664090112	14	4120
2026-01-26 10:41:00.77	334.77	28.46	-26.8	-28.1	15.8	0.00e+00	0	44	0	1667235840	14	4175
2026-01-26 10:41:01.78	334.82	28.28	-26.8	-28.1	15.8	0.00e+00	0	44	0	1670381568	14	4172
2026-01-26 10:41:02.78	334.88	28.11	-26.9	-28.3	15.7	0.00e+00	0	45	0	1673527296	14	4228
2026-01-26 10:41:03.78	334.94	27.93	-27.1	-28.8	15.4	0.00e+00	0	44	0	1676673024	14	4383
2026-01-26 10:41:04.79	334.99	27.76	-26.9	-28.3	15.7	0.00e+00	0	44	0	1679818752	14	4246
2026-01-26 10:41:05.80	335.05	27.58	-26.8	-28.0	15.8	0.00e+00	0	45	0	1682964480	14	4163
2026-01-26 10:41:06.80	335.11	27.41	-26.7	-27.8	16.0	0.00e+00	0	44	0	1686110208	14	4104
2026-01-26 10:41:07.80	335.16	27.24	-26.7	-28.0	15.9	0.00e+00	0	44	0	1689255936	14	4147
2026-01-26 10:41:08.80	335.21	27.07	-26.7	-27.9	15.9	0.00e+00	0	44	0	1692401664	14	4135
2026-01-26 10:41:09.80	335.27	26.91	-26.9	-28.3	15.7	0.00e+00	0	44	0	1695547392	14	4226
2026-01-26 10:41:10.81	335.32	26.74	-26.8	-28.1	15.7	0.00e+00	0	44	0	1698693120	14	4187
2026-01-26 10:41:11.82	335.37	26.57	-26.7	-27.8	16.0	0.00e+00	0	45	0	1701838848	14	4098
2026-01-26 10:41:12.82	335.43	26.40	-26.5	-27.4	16.1	0.00e+00	0	44	0	1704984576	14	4005
2026-01-26 10:41:13.82	335.48	26.24	-26.6	-27.6	16.0	0.00e+00	0	45	0	1708130304	14	4055
2026-01-26 10:41:14.82	335.53	26.08	-26.4	-27.2	16.2	0.00e+00	0	44	0	1711276032	14	3955
2026-01-26 10:41:15.82	335.58	25.92	-26.3	-27.1	16.3	0.00e+00	0	44	0	1714421760	14	3918
2026-01-26 10:41:16.83	335.63	25.75	-26.5	-27.4	16.2	0.00e+00	0	44	0	1717567488	14	3997
2026-01-26 10:41:17.80	335.68	25.60	-26.4	-27.2	16.2	0.00e+00	0	44	0	1720713216	14	3961
2026-01-26 10:41:18.80	335.73	25.44	-26.4	-27.2	16.3	0.00e+00	0	44	0	1723858944	14	3937
2026-01-26 10:41:19.80	335.78	25.28	-26.5	-27.4	16.1	0.00e+00	0	44	0	1727004672	14	4001
2026-01-26 10:41:20.80	335.82	25.12	-26.5	-27.4	16.1	0.00e+00	0	44	0	1730150400	14	4011
2026-01-26 10:41:21.80	335.87	24.97	-26.6	-27.7	16.0	0.00e+00	0	44	0	1733296128	14	4080
2026-01-26 10:41:22.80	335.92	24.81	-26.8	-28.0	15.8	0.00e+00	0	44	0	1736441856	14	4162
2026-01-26 10:41:23.80	335.97	24.66	-26.7	-27.9	15.8	0.00e+00	0	44	0	1739587584	14	4141
2026-01-26 10:41:24.80	336.01	24.50	-26.7	-28.0	15.8	0.00e+00	0	44	0	1742733312	14	4153
2026-01-26 10:41:25.80	336.06	24.35	-26.7	-27.9	15.9	0.00e+00	0	44	0	1745879040	14	4123
2026-01-26 10:41:26.80	336.10	24.20	-26.7	-27.8	15.9	0.00e+00	0	44	0	1749024768	14	4096
2026-01-26 10:41:27.81	336.15	24.04	-26.7	-27.8	15.9	0.00e+00	0	44	0	1752170496	14	4113
2026-01-26 10:41:28.81	336.19	23.89	-26.6	-27.7	15.9	0.00e+00	0	44	0	1755316224	14	4063
2026-01-26 10:41:29.81	336.24	23.74	-26.7	-27.8	15.9	0.00e+00	0	44	0	1758461952	14	4110
2026-01-26 10:41:30.82	336.28	23.59	-26.5	-27.5	16.0	0.00e+00	0	44	0	1761607680	14	4038
2026-01-26 10:41:31.82	336.33	23.45	-26.5	-27.3	16.1	0.00e+00	0	44	0	1764753408	14	3984
2026-01-26 10:41:32.83	336.37	23.30	-26.5	-27.5	16.0	0.00e+00	0	44	0	1767899136	14	4017
2026-01-26 10:41:33.84	336.41	23.15	-26.6	-27.7	15.9	0.00e+00	0	44	0	1771044864	14	4070
2026-01-26 10:41:34.84	336.46	23.01	-26.6	-27.7	15.9	0.00e+00	0	44	0	1774190592	14	4077
2026-01-26 10:41:35.84	336.50	22.86	-26.7	-28.0	15.7	0.00e+00	0	44	0	1777336320	14	4150
2026-01-26 10:41:36.84	336.54	22.72	-26.8	-28.1	15.6	0.00e+00	0	44	0	1780482048	14	4200
2026-01-26 10:41:37.84	336.58	22.57	-26.8	-28.1	15.7	0.00e+00	0	44	0	1783627776	14	4188
2026-01-26 10:41:38.85	336.62	22.43	-27.0	-28.6	15.3	0.00e+00	0	44	0	1786773504	14	4335
2026-01-26 10:41:39.85	336.66	22.29	-27.1	-28.7	15.3	0.00e+00	0	44	0	1789919232	14	4355
2026-01-26 10:41:40.86	336.71	22.15	-27.0	-28.6	15.4	0.00e+00	0	44	0	1793064960	14	4335
2026-01-26 10:41:41.86	336.75	22.01	-27.1	-28.8	15.3	0.00e+00	0	44	0	1796210688	14	4380
2026-01-26 10:41:42.86	336.79	21.87	-27.1	-28.9	15.2	0.00e+00	0	44	0	1799356416	14	4404
2026-01-26 10:41:43.87	336.83	21.73	-27.2	-29.1	15.1	0.00e+00	0	44	0	1802502144	14	4465
2026-01-26 10:41:44.87	336.86	21.59	-27.1	-28.8	15.3	0.00e+00	0	44	0	1804599296	14	4376
2026-01-26 10:41:45.87	336.90	21.46	-27.1	-28.7	15.3	0.00e+00	0	44	0	1807745024	14	4363
2026-01-26 10:41:46.87	336.94	21.32	-27.0	-28.6	15.4	0.00e+00	0	44	0	1810890752	14	4331
2026-01-26 10:41:47.87	336.98	21.18	-27.2	-28.9	15.2	7.00e-07	0	44	0	1814036480	14	4424
2026-01-26 10:41:48.88	337.02	21.05	-26.9	-28.3	15.5	7.00e-07	0	44	0	1818230784	14	4252
2026-01-26 10:41:49.88	337.06	20.91	-27.0	-28.6	15.4	0.00e+00	0	44	0	1821376512	14	4318
2026-01-26 10:41:50.88	337.09	20.78	-26.9	-28.4	15.5	0.00e+00	0	44	0	1824522240	14	4262
2026-01-26 10:41:51.88	337.13	20.65	-26.6	-27.8	15.8	0.00e+00	0	44	0	1826619392	14	4108
2026-01-26 10:41:52.89	337.17	20.51	-26.5	-27.4	16.0	0.00e+00	0	44	0	1829765120	14	4001
2026-01-26 10:41:53.89	337.21	20.38	-26.4	-27.2	16.1	0.00e+00	0	44	0	1832910848	14	3949
2026-01-26 10:41:54.89	337.24	20.25	-26.4	-27.2	16.1	0.00e+00	0	44	0	1836056576	14	3949
2026-01-26 10:41:55.89	337.28	20.12	-26.4	-27.3	16.0	0.00e+00	0	44	0	1839202304	14	3986
2026-01-26 10:41:56.90	337.31	19.99	-26.6	-27.6	15.9	0.00e+00	0	44	0	1842348032	14	4059
2026-01-26 10:41:57.90	337.35	19.86	-26.6	-27.7	15.8	0.00e+00	0	44	0	1845493760	14	4088
2026-01-26 10:41:58.90	337.38	19.74	-26.6	-27.7	15.8	0.00e+00	0	44	0	1848639488	14	4086
2026-01-26 10:41:59.90	337.42	19.61	-26.7	-27.9	15.7	0.00e+00	0	44	0	1851785216	14	4130
2026-01-26 10:42:00.90	337.45	19.48	-26.9	-28.3	15.5	0.00e+00	0	44	0	1854930944	14	4250
2026-01-26 10:42:01.90	337.49	19.36	-26.9	-28.3	15.5	0.00e+00	0	44	0	1858076672	14	4248
2026-01-26 10:42:02.90	337.52	19.23	-27.0	-28.5	15.4	0.00e+00	0	44	0	1861222400	14	4297
2026-01-26 10:42:03.90	337.56	19.11	-26.8	-28.2	15.5	0.00e+00	0	44	0	1864368128	14	4208
2026-01-26 10:42:04.90	337.59	18.98	-26.7	-27.9	15.7	0.00e+00	0	44	0	1867513856	14	4124
2026-01-26 10:42:05.90	337.62	18.86	-26.7	-27.8	15.7	0.00e+00	0	44	0	1870659584	14	4121
2026-01-26 10:42:06.91	337.66	18.74	-26.6	-27.7	15.8	0.00e+00	0	44	0	1873805312	14	4098
2026-01-26 10:42:07.92	337.69	18.61	-26.5	-27.6	15.8	0.00e+00	0	44	0	1876951040	14	4049
2026-01-26 10:42:08.92	337.72	18.49	-26.7	-27.9	15.7	0.00e+00	0	44	0	1880096768	14	4139
2026-01-26 10:42:09.92	337.76	18.37	-26.7	-27.9	15.7	0.00e+00	0	44	0	1883242496	14	4124
2026-01-26 10:42:10.92	337.79	18.25	-26.8	-28.2	15.5	0.00e+00	0	45	0	1886388224	14	4208
2026-01-26 10:42:11.92	337.82	18.13	-26.7	-27.9	15.7	0.00e+00	0	44	0	1889533952	14	4134
2026-01-26 10:42:12.92	337.85	18.01	-26.7	-27.9	15.6	0.00e+00	0	44	0	1892679680	14	4136
2026-01-26 10:42:13.93	337.89	17.89	-26.7	-28.0	15.6	0.00e+00	0	44	0	1895825408	14	4158
2026-01-26 10:42:14.93	337.92	17.77	-26.7	-28.0	15.6	0.00e+00	0	44	0	1898971136	14	4167
2026-01-26 10:42:15.93	337.95	17.65	-26.8	-28.2	15.5	0.00e+00	0	44	0	1902116864	14	4207
2026-01-26 10:42:16.94	337.98	17.54	-26.8	-28.2	15.5	7.00e-07	0	44	0	1905262592	14	4217
2026-01-26 10:42:17.94	338.01	17.42	-26.9	-28.3	15.4	0.00e+00	0	44	0	1908408320	14	4242
2026-01-26 10:42:18.94	338.04	17.30	-26.8	-28.2	15.5	0.00e+00	0	44	0	1911554048	14	4220
2026-01-26 10:42:19.94	338.07	17.19	-27.0	-28.5	15.3	0.00e+00	0	44	0	1914699776	14	4302
2026-01-26 10:42:20.95	338.10	17.07	-26.9	-28.5	15.3	7.00e-07	0	44	0	1917845504	14	4297
2026-01-26 10:42:21.95	338.13	16.96	-27.0	-28.7	15.2	0.00e+00	0	45	0	1920991232	14	4353
2026-01-26 10:42:22.96	338.16	16.84	-27.0	-28.6	15.2	0.00e+00	0	44	0	1924136960	14	4318
2026-01-26 10:42:23.96	338.19	16.73	-27.1	-28.9	15.1	0.00e+00	0	44	0	1927282688	14	4400
2026-01-26 10:42:24.97	338.22	16.62	-27.1	-28.9	15.0	0.00e+00	0	44	0	1930428416	14	4420
2026-01-26 10:42:25.97	338.25	16.50	-27.2	-29.0	15.0	0.00e+00	0	44	0	1933574144	14	4447
2026-01-26 10:42:26.97	338.28	16.39	-27.1	-29.0	15.0	0.00e+00	0	44	0	1936719872	14	4436
2026-01-26 10:42:27.97	338.31	16.28	-27.3	-29.2	14.8	7.00e-07	0	44	0	1939865600	14	4513
2026-01-26 10:42:28.97	338.34	16.17	-27.3	-29.4	14.8	0.00e+00	0	44	0	1943011328	14	4550
2026-01-26 10:42:29.96	338.37	16.06	-27.4	-29.6	14.6	0.00e+00	0	44	0	1946157056	14	4615
2026-01-26 10:42:30.97	338.40	15.95	-27.3	-29.4	14.7	0.00e+00	0	44	0	1949302784	14	4555
2026-01-26 10:42:31.97	338.42	15.84	-27.2	-29.1	14.8	7.00e-07	0	44	0	1952448512	14	4494
2026-01-26 10:42:32.97	338.45	15.73	-27.3	-29.4	14.7	0.00e+00	0	44	0	1955594240	14	4562
2026-01-26 10:42:33.97	338.48	15.63	-27.4	-29.5	14.6	7.00e-07	0	44	0	1958739968	14	4591
2026-01-26 10:42:34.98	338.51	15.52	-27.4	-29.6	14.6	7.00e-07	0	44	0	1961885696	14	4623
2026-01-26 10:42:35.98	338.54	15.41	-27.3	-29.4	14.7	0.00e+00	0	44	0	1965031424	14	4564
2026-01-26 10:42:36.98	338.56	15.30	-27.5	-29.7	14.5	7.00e-07	0	44	0	1968177152	14	4670
2026-01-26 10:42:37.99	338.59	15.19	-27.4	-29.5	14.6	7.00e-07	0	44	0	1971322880	14	4599
2026-01-26 10:42:39.00	338.62	15.09	-27.4	-29.6	14.5	7.00e-07	0	44	0	1974468608	14	4636
2026-01-26 10:42:40.00	338.64	14.98	-27.5	-29.3	14.4	0.00e+00	0	44	0	1977614336	15	4427
2026-01-26 10:42:41.00	338.67	14.88	-27.6	-29.5	14.3	7.00e-07	0	44	0	1980760064	15	4481
2026-01-26 10:42:42.00	338.70	14.77	-27.4	-29.0	14.6	0.00e+00	0	44	0	1983905792	15	4341
2026-01-26 10:42:43.00	338.72	14.67	-27.6	-29.5	14.3	7.00e-07	0	44	0	1987051520	15	4483
2026-01-26 10:42:44.01	338.75	14.56	-27.7	-29.7	14.2	7.00e-07	0	44	0	1990197248	15	4553
2026-01-26 10:42:45.01	338.78	14.46	-27.5	-29.4	14.3	7.00e-07	0	44	0	1993342976	15	4466
2026-01-26 10:42:46.01	338.80	14.36	-27.6	-29.6	14.2	2.20e-06	0	44	0	1996488704	15	4517
2026-01-26 10:42:47.01	338.83	14.26	-27.7	-29.7	14.1	7.00e-07	0	44	0	1999634432	15	4551
2026-01-26 10:42:48.02	338.85	14.15	-27.6	-29.7	14.2	1.50e-06	0	44	0	2002780160	15	4551
2026-01-26 10:42:49.02	338.88	14.05	-27.6	-29.6	14.2	1.50e-06	0	44	0	2005925888	15	4535
2026-01-26 10:42:50.02	338.91	13.95	-27.8	-30.0	14.0	7.00e-07	0	44	0	2009071616	15	4637
2026-01-26 10:42:51.02	338.93	13.85	-27.8	-30.0	14.0	7.00e-07	0	44	0	2012217344	15	4645
2026-01-26 10:42:52.02	338.96	13.75	-27.8	-30.1	13.9	4.50e-06	0	44	0	2015363072	15	4688
2026-01-26 10:42:53.03	338.98	13.65	-27.9	-30.3	13.8	4.50e-06	0	44	0	2018508800	15	4726
2026-01-26 10:42:54.03	339.01	13.55	-28.2	-30.4	13.6	6.80e-06	0	44	0	2021654528	16	4653
2026-01-26 10:42:55.03	339.03	13.45	-28.2	-30.4	13.6	6.80e-06	0	44	0	2024800256	16	4663
2026-01-26 10:42:56.04	339.06	13.35	-28.2	-30.4	13.6	9.90e-06	0	44	0	2027945984	16	4665
2026-01-26 10:42:57.04	339.08	13.25	-28.2	-30.5	13.5	1.06e-05	0	44	0	2031091712	16	4692
2026-01-26 10:42:58.05	339.10	13.15	-28.5	-31.1	13.2	1.60e-05	0	44	0	2034237440	16	4872
2026-01-26 10:42:59.05	339.13	13.06	-28.3	-30.8	13.3	2.28e-05	0	44	0	2037383168	16	4788
2026-01-26 10:43:00.04	339.15	12.96	-28.2	-30.5	13.5	1.52e-05	0	44	0	2040528896	16	4672
2026-01-26 10:43:01.04	339.18	12.86	-28.0	-30.1	13.8	8.30e-06	0	44	0	2043674624	16	4549
2026-01-26 10:43:02.05	339.20	12.77	-28.0	-30.0	13.8	2.20e-06	0	44	0	2046820352	16	4521
2026-01-26 10:43:03.06	339.22	12.67	-28.1	-30.1	13.7	1.50e-06	0	44	0	2049966080	16	4559
2026-01-26 10:43:04.06	339.25	12.57	-28.1	-30.1	13.7	6.80e-06	0	44	0	2053111808	16	4567
2026-01-26 10:43:05.06	339.27	12.48	-27.8	-29.6	14.0	2.20e-06	0	44	0	2055208960	16	4400
2026-01-26 10:43:06.07	339.29	12.38	-27.9	-29.7	13.9	7.00e-07	0	44	0	2058354688	16	4448
2026-01-26 10:43:07.07	339.32	12.29	-28.0	-29.9	13.8	6.10e-06	0	44	0	2061500416	16	4506
2026-01-26 10:43:08.08	339.34	12.19	-28.1	-30.2	13.6	4.50e-06	0	44	0	2065694720	16	4599
2026-01-26 10:43:09.08	339.36	12.10	-27.9	-29.8	13.9	3.80e-06	0	44	0	2068840448	16	4470
2026-01-26 10:43:10.09	339.39	12.01	-28.0	-30.0	13.8	3.80e-06	0	44	0	2071986176	16	4521
2026-01-26 10:43:11.09	339.41	11.91	-28.1	-30.2	13.6	6.80e-06	0	44	0	2075131904	16	4583
2026-01-26 10:43:12.10	339.43	11.82	-28.0	-30.1	13.6	6.10e-06	0	44	0	2078277632	16	4565
2026-01-26 10:43:13.10	339.45	11.73	-28.1	-30.4	13.5	8.30e-06	0	44	0	2080374784	16	4645
2026-01-26 10:43:14.10	339.48	11.63	-28.1	-30.2	13.6	9.10e-06	0	44	0	2083520512	16	4603
2026-01-26 10:43:15.10	339.50	11.54	-28.2	-30.4	13.5	1.14e-05	0	44	0	2086666240	16	4653
2026-01-26 10:43:16.10	339.52	11.45	-28.2	-30.5	13.4	1.75e-05	0	44	0	2089811968	16	4680
2026-01-26 10:43:17.10	339.54	11.36	-28.0	-30.1	13.6	6.80e-06	0	44	0	2092957696	16	4555
2026-01-26 10:43:18.11	339.56	11.27	-28.1	-30.3	13.5	7.60e-06	0	44	0	2096103424	16	4628
2026-01-26 10:43:19.11	339.59	11.18	-28.0	-30.1	13.6	1.22e-05	0	44	0	2099249152	16	4572
2026-01-26 10:43:20.12	339.61	11.09	-28.2	-30.4	13.4	2.05e-05	0	44	0	2102394880	16	4649
2026-01-26 10:43:21.12	339.63	11.00	-28.2	-30.6	13.3	1.60e-05	0	44	0	2105540608	16	4710
2026-01-26 10:43:22.12	339.65	10.91	-28.3	-30.7	13.3	1.44e-05	0	44	0	2108686336	16	4748
2026-01-26 10:43:23.12	339.67	10.82	-28.4	-30.5	13.0	5.26e-05	0	44	0	2111832064	17	4589
2026-01-26 10:43:24.13	339.69	10.73	-28.4	-30.4	13.1	2.82e-05	0	44	0	2114977792	17	4555
2026-01-26 10:43:25.13	339.72	10.64	-28.2	-30.1	13.3	2.36e-05	0	44	0	2118123520	17	4470
2026-01-26 10:43:26.13	339.74	10.55	-28.3	-30.2	13.2	1.90e-05	0	44	0	2121269248	17	4485
