passes_logs/2026/01/26/R2M6_AANII_01/R2M6_AANII_01__20260126_010907_SUOMI_NPP_rec.log

#Pass ID: 20260126_010907_SUOMI NPP
#Satellite: SUOMI NPP
#Configuration: NPP
#almurnet v.1.7.20240730
#Start time: 2026-01-26 01:09:08

#Version: 2.2.20231116
#Station: R2M6_AANII_01
#Location: 30.233357 lon 59.946436 lat
#TLE: 1 37849U 11061A   26025.53586395  .00000179  00000+0  10601-3 0  9996
#TLE: 2 37849  98.7821 327.4943 0002169  45.6246 314.5108 14.19529815738202

#Time	Az	El	Level	Level2	SNR	BER	BlckErr	Temp	State	Recorded	gain1	gain2
2026-01-26 01:09:08.76	14.74	7.07	-31.5	-36.6	4.8	1.35e+00	0	41	0	0	23	6511
2026-01-26 01:09:09.76	14.71	7.15	-31.6	-37.2	4.7	1.37e+00	0	41	104	0	23	6883
2026-01-26 01:09:10.76	14.67	7.22	-31.7	-37.5	6.4	2.22e-01	0	41	0	0	23	7018
2026-01-26 01:09:11.77	14.64	7.30	-31.6	-37.0	6.7	2.14e-01	0	42	102	1048576	23	6686
2026-01-26 01:09:12.77	14.60	7.38	-31.6	-36.9	6.8	2.01e-01	0	41	102	1048576	23	6622
2026-01-26 01:09:13.77	14.56	7.45	-31.5	-36.4	7.3	1.27e-01	0	42	102	1048576	23	6332
2026-01-26 01:09:14.77	14.53	7.53	-31.6	-36.9	6.9	1.77e-01	0	41	102	1048576	23	6609
2026-01-26 01:09:15.78	14.49	7.61	-31.3	-36.1	7.9	1.13e-01	0	41	102	1048576	22	6210
2026-01-26 01:09:16.78	14.46	7.68	-31.1	-35.0	8.8	4.69e-02	0	42	102	1048576	22	5634
2026-01-26 01:09:17.79	14.42	7.76	-30.8	-34.4	9.6	2.71e-02	0	42	102	1048576	21	5432
2026-01-26 01:09:18.79	14.38	7.84	-30.6	-33.7	10.1	9.68e-03	0	42	102	1048576	21	5139
2026-01-26 01:09:19.80	14.35	7.92	-30.2	-33.0	11.1	2.72e-03	0	42	102	1048576	20	4927
2026-01-26 01:09:20.81	14.31	7.99	-29.9	-31.9	11.8	5.02e-03	0	42	102	1048576	20	4551
2026-01-26 01:09:21.81	14.27	8.07	-29.9	-31.8	11.9	5.90e-04	0	42	102	1048576	20	4504
2026-01-26 01:09:22.82	14.23	8.15	-29.7	-31.7	12.4	7.91e-04	0	42	102	1048576	19	4541
2026-01-26 01:09:23.82	14.19	8.23	-29.6	-31.5	12.5	3.67e-03	0	42	102	1048576	19	4489
2026-01-26 01:09:24.83	14.16	8.31	-29.8	-32.0	12.1	2.22e-04	0	42	102	1048576	19	4659
2026-01-26 01:09:25.83	14.12	8.39	-29.7	-31.8	12.4	1.68e-04	0	42	102	1048576	19	4577
2026-01-26 01:09:26.83	14.08	8.47	-29.5	-31.2	12.8	3.63e-03	0	42	102	1048576	19	4366
2026-01-26 01:09:27.84	14.04	8.55	-29.4	-31.5	12.9	3.38e-03	0	42	102	1048576	18	4555
2026-01-26 01:09:28.84	14.00	8.63	-29.3	-30.6	13.2	2.67e-05	0	42	102	1048576	19	4182
2026-01-26 01:09:29.84	13.96	8.71	-29.7	-31.8	12.4	7.31e-04	0	42	102	1048576	19	4574
2026-01-26 01:09:30.85	13.92	8.79	-29.6	-31.5	12.6	3.83e-03	0	42	102	1048576	19	4465
2026-01-26 01:09:31.85	13.88	8.87	-29.6	-31.5	12.6	6.71e-05	0	42	102	1048576	19	4483
2026-01-26 01:09:32.85	13.84	8.95	-29.7	-31.8	12.4	1.04e-04	0	42	102	1048576	19	4571
2026-01-26 01:09:33.85	13.80	9.03	-29.7	-31.6	12.6	3.94e-03	0	42	102	1048576	19	4486
2026-01-26 01:09:34.86	13.76	9.11	-29.5	-31.0	13.0	8.98e-04	0	42	102	1048576	19	4310
2026-01-26 01:09:35.86	13.72	9.19	-29.5	-31.1	12.9	2.97e-05	0	42	102	1048576	19	4333
2026-01-26 01:09:36.87	13.68	9.27	-29.6	-31.4	12.7	5.15e-04	0	42	102	1048576	19	4445
2026-01-26 01:09:37.88	13.64	9.36	-29.6	-31.5	12.7	7.16e-04	0	42	102	1048576	19	4461
2026-01-26 01:09:38.88	13.60	9.44	-29.7	-31.5	12.7	8.01e-05	0	42	102	1048576	19	4467
2026-01-26 01:09:39.88	13.55	9.52	-29.6	-31.4	12.8	6.10e-05	0	42	102	1048576	19	4410
2026-01-26 01:09:40.89	13.51	9.60	-29.5	-31.1	12.9	7.47e-05	0	42	102	1048576	19	4326
2026-01-26 01:09:41.89	13.47	9.69	-29.5	-31.2	12.9	6.25e-05	0	42	102	1048576	19	4363
2026-01-26 01:09:42.90	13.43	9.77	-29.6	-31.3	12.8	6.40e-05	0	42	102	1048576	19	4407
2026-01-26 01:09:43.90	13.38	9.85	-29.7	-31.6	12.6	7.62e-05	0	42	102	1048576	19	4487
2026-01-26 01:09:44.91	13.34	9.94	-29.5	-31.2	12.9	3.65e-03	0	43	102	1048576	19	4350
2026-01-26 01:09:45.91	13.30	10.02	-29.6	-31.3	12.8	4.27e-05	0	42	102	1048576	19	4404
2026-01-26 01:09:46.91	13.25	10.11	-29.5	-31.1	13.0	5.11e-05	0	42	102	1048576	19	4313
2026-01-26 01:09:47.92	13.21	10.19	-29.7	-31.6	12.6	7.59e-04	0	42	102	1048576	19	4511
2026-01-26 01:09:48.92	13.16	10.28	-29.5	-31.1	13.0	4.42e-05	0	42	102	1048576	19	4317
2026-01-26 01:09:49.93	13.12	10.36	-29.8	-31.8	12.5	7.32e-05	0	43	102	1048576	19	4572
2026-01-26 01:09:50.93	13.07	10.45	-29.5	-31.2	12.9	3.50e-05	0	43	102	1048576	19	4359
2026-01-26 01:09:51.94	13.03	10.53	-29.4	-30.9	13.2	3.43e-05	0	43	102	1048576	19	4264
2026-01-26 01:09:52.94	12.98	10.62	-29.3	-31.1	13.3	8.30e-06	0	43	102	1048576	18	4426
2026-01-26 01:09:53.94	12.94	10.71	-29.3	-31.0	13.4	1.60e-05	0	42	102	1048576	18	4386
2026-01-26 01:09:54.95	12.89	10.79	-29.4	-31.3	13.3	6.10e-04	0	43	102	1048576	18	4462
2026-01-26 01:09:55.95	12.85	10.88	-29.3	-30.6	13.3	3.89e-05	0	43	102	1048576	19	4182
2026-01-26 01:09:56.95	12.80	10.97	-29.2	-30.7	13.7	1.37e-05	0	43	102	1048576	18	4277
2026-01-26 01:09:57.96	12.75	11.06	-29.4	-31.3	13.3	7.60e-06	0	42	102	1048576	18	4468
2026-01-26 01:09:58.96	12.70	11.14	-29.1	-30.3	13.4	1.44e-05	0	43	102	1048576	19	4160
2026-01-26 01:09:59.96	12.66	11.23	-28.5	-30.0	12.9	8.30e-06	0	43	102	1048576	18	4306
2026-01-26 01:10:00.97	12.61	11.32	-29.3	-31.0	13.1	1.29e-05	0	43	102	1048576	18	4373
2026-01-26 01:10:01.96	12.56	11.41	-29.3	-31.0	12.2	2.31e-03	0	43	102	1048576	18	4390
2026-01-26 01:10:02.97	12.51	11.50	-29.4	-31.2	12.4	1.37e-05	0	43	102	1048576	18	4458
2026-01-26 01:10:03.97	12.46	11.59	-29.4	-30.9	13.2	9.10e-06	0	43	102	1048576	19	4244
2026-01-26 01:10:04.97	12.41	11.68	-29.4	-31.3	13.3	2.36e-05	0	43	102	1048576	18	4457
2026-01-26 01:10:05.98	12.36	11.77	-29.4	-31.4	13.2	1.60e-05	0	43	102	1048576	18	4503
2026-01-26 01:10:06.98	12.32	11.86	-29.4	-31.2	13.3	1.75e-05	0	43	102	1048576	18	4459
2026-01-26 01:10:07.99	12.26	11.95	-29.6	-31.3	13.0	2.89e-05	0	43	102	1048576	19	4371
2026-01-26 01:10:09.00	12.21	12.04	-29.8	-31.9	12.6	2.97e-03	0	43	102	1048576	19	4580
2026-01-26 01:10:10.00	12.16	12.13	-29.6	-31.2	13.0	6.56e-05	0	43	102	1048576	19	4362
2026-01-26 01:10:11.00	12.11	12.22	-29.5	-31.0	13.1	2.05e-05	0	43	102	1048576	19	4302
2026-01-26 01:10:12.01	12.06	12.31	-28.7	-30.4	13.1	1.90e-05	0	43	102	1048576	19	4334
2026-01-26 01:10:13.01	12.01	12.41	-29.4	-31.3	13.3	5.44e-04	0	43	102	1048576	18	4489
2026-01-26 01:10:14.02	11.96	12.50	-29.4	-31.3	13.3	1.06e-05	0	43	102	1048576	18	4491
2026-01-26 01:10:15.02	11.90	12.59	-29.4	-31.3	13.3	1.60e-05	0	43	102	1048576	18	4483
2026-01-26 01:10:16.03	11.85	12.68	-29.8	-31.8	12.6	5.70e-04	0	43	102	1048576	19	4558
2026-01-26 01:10:17.04	11.80	12.78	-29.5	-31.1	13.1	4.19e-05	0	43	102	1048576	19	4303
2026-01-26 01:10:18.04	11.74	12.87	-29.5	-31.4	13.2	3.12e-05	0	43	102	1048576	18	4507
2026-01-26 01:10:19.05	11.69	12.97	-29.4	-31.2	13.4	4.71e-04	0	43	102	1048576	18	4429
2026-01-26 01:10:20.06	11.63	13.06	-29.4	-31.2	13.4	2.66e-03	0	43	102	1048576	18	4430
2026-01-26 01:10:21.06	11.58	13.16	-29.5	-31.4	13.3	7.60e-06	0	43	102	1048576	18	4498
2026-01-26 01:10:22.07	11.52	13.25	-29.2	-30.6	13.8	4.39e-04	0	43	102	1048576	18	4249
2026-01-26 01:10:23.07	11.47	13.35	-29.0	-30.3	14.0	2.79e-03	0	43	102	1048576	18	4172
2026-01-26 01:10:24.08	11.41	13.44	-29.0	-30.2	14.1	2.61e-03	0	43	102	1048576	18	4129
2026-01-26 01:10:25.09	11.36	13.54	-29.0	-30.2	14.1	4.50e-06	0	43	102	1048576	18	4127
2026-01-26 01:10:26.10	11.30	13.64	-29.0	-30.3	14.0	2.99e-03	0	43	102	1048576	18	4148
2026-01-26 01:10:27.11	11.24	13.74	-28.9	-30.5	14.2	2.52e-03	0	43	102	1048576	17	4306
2026-01-26 01:10:28.11	11.18	13.83	-28.9	-30.3	14.3	0.00e+00	0	43	102	1048576	17	4252
2026-01-26 01:10:29.12	11.13	13.93	-28.8	-30.2	14.3	2.81e-03	0	43	102	1048576	17	4237
2026-01-26 01:10:30.12	11.07	14.03	-28.7	-29.9	14.5	2.74e-03	0	43	102	1048576	17	4149
2026-01-26 01:10:31.12	11.01	14.13	-28.8	-30.2	14.4	2.91e-04	0	43	102	1048576	17	4226
2026-01-26 01:10:32.13	10.95	14.23	-28.9	-30.4	14.2	2.70e-03	0	43	102	1048576	17	4279
2026-01-26 01:10:33.14	10.89	14.33	-28.7	-30.0	14.5	2.93e-03	0	43	102	1048576	17	4162
2026-01-26 01:10:34.14	10.83	14.42	-28.7	-29.8	14.6	3.25e-04	0	43	102	1048576	17	4096
2026-01-26 01:10:35.14	10.77	14.52	-28.8	-30.1	14.4	2.46e-03	0	43	102	1048576	17	4185
2026-01-26 01:10:36.14	10.71	14.62	-28.8	-30.1	14.5	2.81e-03	0	43	102	1048576	17	4183
2026-01-26 01:10:37.15	10.65	14.73	-28.7	-29.9	14.5	2.97e-04	0	43	102	1048576	17	4137
2026-01-26 01:10:38.15	10.59	14.83	-28.9	-30.3	14.4	2.47e-03	0	43	102	1048576	17	4245
2026-01-26 01:10:39.15	10.52	14.93	-28.9	-30.4	14.2	2.68e-03	0	43	102	1048576	17	4289
2026-01-26 01:10:40.15	10.46	15.03	-28.9	-30.3	14.4	3.11e-04	0	43	102	1048576	17	4238
2026-01-26 01:10:41.15	10.40	15.13	-28.9	-30.3	14.4	2.85e-03	0	43	102	1048576	17	4235
2026-01-26 01:10:42.16	10.33	15.23	-28.9	-30.3	14.4	4.27e-04	0	43	102	1048576	17	4244
2026-01-26 01:10:43.17	10.27	15.34	-29.1	-30.3	14.1	3.56e-04	0	43	102	1048576	18	4159
2026-01-26 01:10:44.18	10.20	15.44	-29.0	-30.1	14.3	3.12e-03	0	43	102	1048576	18	4076
2026-01-26 01:10:45.18	10.14	15.54	-28.7	-29.8	14.7	2.94e-03	0	43	102	1048576	17	4087
2026-01-26 01:10:46.19	10.07	15.65	-28.8	-30.1	14.5	0.00e+00	0	43	102	1048576	17	4179
2026-01-26 01:10:47.20	10.01	15.75	-29.2	-30.7	13.9	3.01e-03	0	43	102	1048576	18	4254
2026-01-26 01:10:48.20	9.94	15.86	-29.0	-30.1	14.2	2.69e-03	0	43	102	1048576	18	4094
2026-01-26 01:10:49.20	9.87	15.96	-28.9	-30.3	14.5	0.00e+00	0	43	102	1048576	17	4226
2026-01-26 01:10:50.21	9.81	16.07	-29.0	-30.2	14.3	2.66e-03	0	43	102	1048576	18	4104
2026-01-26 01:10:51.22	9.74	16.18	-29.1	-30.3	14.2	2.83e-03	0	43	102	1048576	18	4144
2026-01-26 01:10:52.22	9.67	16.28	-29.2	-30.5	14.0	3.80e-06	0	43	102	1048576	18	4216
2026-01-26 01:10:53.22	9.60	16.39	-29.2	-30.6	14.0	3.13e-04	0	43	102	1048576	18	4230
2026-01-26 01:10:54.22	9.53	16.50	-29.1	-30.4	14.1	2.79e-03	0	43	102	1048576	18	4172
2026-01-26 01:10:55.22	9.46	16.61	-29.2	-30.6	14.0	3.15e-04	0	43	102	1048576	18	4235
2026-01-26 01:10:56.22	9.39	16.71	-29.4	-31.1	13.7	7.00e-07	0	43	102	1048576	18	4392
2026-01-26 01:10:57.23	9.32	16.82	-29.4	-31.0	13.8	4.49e-04	0	43	102	1048576	18	4347
2026-01-26 01:10:58.24	9.25	16.93	-29.4	-30.6	13.6	2.36e-04	0	43	102	1048576	19	4143
2026-01-26 01:10:59.24	9.18	17.04	-29.2	-30.7	14.0	1.50e-06	0	43	102	1048576	18	4245
2026-01-26 01:11:00.24	9.10	17.15	-29.6	-31.2	13.3	5.17e-04	0	44	102	1048576	19	4331
2026-01-26 01:11:01.46	9.01	17.29	-29.8	-31.6	13.1	2.28e-04	0	43	102	1048576	19	4448
2026-01-26 01:11:02.32	8.95	17.38	-29.5	-31.0	13.4	3.04e-03	0	43	102	1048576	19	4253
2026-01-26 01:11:03.46	8.87	17.51	-29.8	-31.7	13.0	4.65e-05	0	43	102	1048576	19	4492
2026-01-26 01:11:04.32	8.80	17.60	-29.5	-30.9	13.6	9.90e-06	0	43	102	1048576	19	4211
2026-01-26 01:11:05.47	8.72	17.73	-29.2	-30.6	14.0	2.74e-03	0	43	102	1048576	18	4226
2026-01-26 01:11:06.33	8.65	17.83	-29.2	-30.6	14.1	2.46e-03	0	44	102	1048576	18	4219
2026-01-26 01:11:07.48	8.56	17.96	-29.3	-30.8	13.9	3.00e-06	0	43	102	1048576	18	4279
2026-01-26 01:11:08.34	8.50	18.06	-29.3	-30.9	13.9	3.04e-04	0	43	102	1048576	18	4310
2026-01-26 01:11:09.50	8.41	18.19	-29.3	-30.9	13.8	3.80e-06	0	44	102	1048576	18	4327
2026-01-26 01:11:10.36	8.34	18.29	-29.2	-30.7	13.9	1.50e-06	0	43	102	1048576	18	4255
2026-01-26 01:11:11.50	8.25	18.42	-29.3	-31.0	13.8	2.92e-04	0	44	102	1048576	18	4340
2026-01-26 01:11:12.36	8.18	18.52	-29.0	-30.2	14.3	2.57e-03	0	43	102	1048576	18	4106
2026-01-26 01:11:13.51	8.09	18.65	-28.9	-29.9	14.5	7.00e-07	0	43	102	1048576	18	4020
2026-01-26 01:11:14.37	8.02	18.75	-29.0	-30.5	14.5	7.00e-07	0	43	102	1048576	17	4300
2026-01-26 01:11:15.53	7.92	18.89	-28.9	-30.4	14.5	2.57e-04	0	43	102	1048576	17	4254
2026-01-26 01:11:16.39	7.85	18.99	-29.1	-30.2	14.3	1.11e-04	0	44	102	1048576	18	4126
2026-01-26 01:11:17.54	7.76	19.12	-29.1	-30.4	14.2	3.00e-06	0	43	102	1048576	18	4173
2026-01-26 01:11:18.40	7.68	19.22	-28.9	-29.8	14.6	1.50e-06	0	44	102	1048576	18	4002
2026-01-26 01:11:19.55	7.59	19.36	-28.8	-29.6	14.7	7.00e-07	0	44	102	1048576	18	3935
2026-01-26 01:11:20.41	7.51	19.46	-28.7	-29.7	14.9	0.00e+00	0	43	102	1048576	17	4065
2026-01-26 01:11:21.56	7.42	19.60	-28.8	-30.0	14.7	7.00e-07	0	43	102	1048576	17	4133
2026-01-26 01:11:22.42	7.34	19.71	-28.9	-30.2	14.7	0.00e+00	0	43	102	1048576	17	4192
2026-01-26 01:11:23.57	7.24	19.84	-28.7	-29.8	14.9	0.00e+00	0	43	102	1048576	17	4077
2026-01-26 01:11:24.43	7.17	19.95	-28.8	-30.0	14.8	0.00e+00	0	44	102	1048576	17	4143
2026-01-26 01:11:25.58	7.06	20.09	-29.0	-30.2	13.2	0.00e+00	0	44	102	1048576	18	4092
2026-01-26 01:11:26.44	6.99	20.19	-29.0	-30.0	14.5	2.60e-04	0	44	102	1048576	18	4042
2026-01-26 01:11:27.59	6.88	20.34	-29.2	-30.5	14.1	0.00e+00	0	44	102	1048576	18	4197
2026-01-26 01:11:28.45	6.80	20.44	-29.3	-30.7	14.1	3.80e-06	0	44	102	1048576	18	4247
2026-01-26 01:11:29.60	6.70	20.58	-29.2	-30.6	14.2	2.14e-03	0	43	102	1048576	18	4226
2026-01-26 01:11:30.47	6.62	20.69	-29.5	-30.8	13.7	3.00e-06	0	43	102	1048576	19	4178
2026-01-26 01:11:31.62	6.51	20.84	-29.5	-31.3	13.5	3.80e-06	0	44	102	1048576	18	4434
2026-01-26 01:11:32.48	6.43	20.94	-29.5	-30.9	13.6	9.10e-06	0	43	102	1048576	19	4218
2026-01-26 01:11:33.62	6.32	21.09	-29.8	-31.6	13.3	1.60e-05	0	44	102	1048576	19	4420
2026-01-26 01:11:34.47	6.24	21.20	-30.0	-32.1	13.0	2.67e-05	0	43	102	1048576	19	4586
2026-01-26 01:11:35.62	6.13	21.34	-29.6	-31.2	13.5	1.22e-05	0	44	102	1048576	19	4303
2026-01-26 01:11:36.48	6.05	21.45	-29.6	-31.0	13.6	1.44e-05	0	44	102	1048576	19	4249
2026-01-26 01:11:37.63	5.93	21.60	-29.5	-30.9	13.6	3.00e-06	0	44	102	1048576	19	4225
2026-01-26 01:11:38.50	5.85	21.71	-28.7	-30.5	13.0	2.28e-05	0	44	102	1048576	19	4436
2026-01-26 01:11:39.64	5.73	21.86	-29.4	-30.5	13.9	7.47e-05	0	43	102	1048576	19	4097
2026-01-26 01:11:40.51	5.65	21.97	-29.5	-31.2	12.6	1.96e-03	0	44	102	1048576	18	4413
2026-01-26 01:11:41.66	5.53	22.12	-29.7	-31.3	13.3	1.44e-05	0	43	102	1048576	19	4340
2026-01-26 01:11:42.51	5.44	22.24	-29.6	-31.2	13.4	1.22e-05	0	44	102	1048576	19	4298
2026-01-26 01:11:43.67	5.32	22.39	-29.7	-31.5	13.3	2.10e-03	0	43	102	1048576	19	4400
2026-01-26 01:11:44.53	5.23	22.50	-29.0	-31.2	12.8	7.47e-05	0	43	102	1048576	19	4619
2026-01-26 01:11:45.68	5.11	22.66	-29.8	-31.1	13.2	2.97e-05	0	44	102	1048576	20	4178
2026-01-26 01:11:46.54	5.02	22.77	-29.7	-31.4	13.1	1.22e-05	0	44	102	1048576	19	4374
2026-01-26 01:11:47.69	4.90	22.92	-29.6	-31.1	13.6	2.25e-03	0	44	102	1048576	19	4269
2026-01-26 01:11:48.55	4.80	23.04	-29.5	-30.9	13.6	6.10e-06	0	44	102	1048576	19	4222
2026-01-26 01:11:49.70	4.68	23.20	-29.4	-30.6	13.8	2.63e-03	0	44	102	1048576	19	4135
2026-01-26 01:11:50.57	4.58	23.31	-29.6	-31.0	13.5	2.35e-03	0	44	102	1048576	19	4251
2026-01-26 01:11:51.71	4.46	23.47	-29.7	-31.3	13.5	7.60e-06	0	44	102	1048576	19	4326
2026-01-26 01:11:52.58	4.36	23.59	-29.7	-31.3	13.5	2.21e-05	0	44	102	1048576	19	4339
2026-01-26 01:11:53.72	4.23	23.75	-30.0	-32.1	12.9	2.50e-03	0	44	102	1048576	19	4589
2026-01-26 01:11:54.58	4.13	23.87	-30.1	-32.1	12.5	9.15e-05	0	44	102	1048576	20	4513
2026-01-26 01:11:55.73	4.00	24.03	-30.3	-32.6	12.3	4.11e-05	0	44	102	1048576	20	4692
2026-01-26 01:11:56.59	3.90	24.15	-30.4	-32.8	12.0	3.58e-04	0	44	102	1048576	20	4766
2026-01-26 01:11:57.74	3.76	24.31	-30.1	-31.6	12.5	4.97e-04	0	44	102	1048576	21	4258
2026-01-26 01:11:58.60	3.66	24.43	-30.4	-32.8	12.1	2.62e-03	0	43	102	1048576	20	4739
2026-01-26 01:11:59.74	3.53	24.59	-30.5	-32.7	11.9	2.83e-03	0	44	102	1048576	21	4606
2026-01-26 01:12:00.60	3.42	24.71	-30.3	-31.9	12.5	3.44e-04	0	44	102	1048576	21	4330
2026-01-26 01:12:01.74	3.28	24.87	-30.1	-32.0	12.7	2.57e-03	0	44	102	1048576	20	4463
2026-01-26 01:12:02.60	3.18	25.00	-30.4	-32.8	12.1	1.03e-04	0	44	102	1048576	20	4753
2026-01-26 01:12:03.75	3.04	25.16	-30.0	-31.5	13.0	2.15e-04	0	44	102	1048576	20	4309
2026-01-26 01:12:04.60	2.93	25.29	-29.7	-31.3	13.5	2.51e-03	0	44	102	1048576	19	4327
2026-01-26 01:12:05.75	2.78	25.45	-29.7	-30.8	13.5	2.47e-03	0	44	102	1048576	20	4081
2026-01-26 01:12:06.62	2.67	25.58	-29.9	-31.3	13.1	1.67e-05	0	44	102	1048576	20	4226
2026-01-26 01:12:07.77	2.52	25.75	-30.0	-31.7	12.8	2.66e-03	0	44	102	1048576	20	4360
2026-01-26 01:12:08.63	2.41	25.88	-30.0	-31.6	12.9	2.52e-03	0	44	102	1048576	20	4339
2026-01-26 01:12:09.78	2.26	26.05	-30.4	-32.8	12.2	1.69e-04	0	44	102	1048576	20	4739
2026-01-26 01:12:10.64	2.15	26.17	-30.8	-33.6	11.2	3.27e-03	0	44	102	1048576	21	4972
2026-01-26 01:12:11.79	1.99	26.35	-30.3	-32.4	12.4	2.90e-03	0	44	102	1048576	20	4622
2026-01-26 01:12:12.65	1.88	26.48	-30.3	-32.5	12.2	2.75e-04	0	44	102	1048576	20	4645
2026-01-26 01:12:13.79	1.72	26.65	-30.4	-32.4	12.1	3.24e-03	0	44	102	1048576	21	4498
2026-01-26 01:12:14.65	1.60	26.78	-30.3	-32.5	12.3	2.82e-03	0	44	102	1048576	20	4659
2026-01-26 01:12:15.80	1.44	26.95	-30.2	-32.2	12.7	3.18e-04	0	44	102	1048576	20	4535
2026-01-26 01:12:16.66	1.32	27.08	-30.1	-31.9	12.8	2.83e-03	0	44	102	1048576	20	4422
2026-01-26 01:12:17.81	1.16	27.26	-29.9	-31.5	13.0	2.42e-03	0	44	102	1048576	20	4305
2026-01-26 01:12:18.67	1.04	27.39	-30.2	-32.2	12.6	2.10e-04	0	44	102	1048576	20	4534
2026-01-26 01:12:19.81	0.87	27.57	-29.9	-31.5	13.0	2.43e-03	0	44	102	1048576	20	4292
2026-01-26 01:12:20.67	0.74	27.70	-29.8	-31.2	13.2	4.19e-05	0	44	102	1048576	20	4202
2026-01-26 01:12:21.82	0.57	27.88	-29.7	-30.7	13.5	2.77e-04	0	44	102	1048576	20	4056
2026-01-26 01:12:22.68	0.45	28.01	-29.6	-31.1	13.7	2.50e-03	0	44	102	1048576	19	4252
2026-01-26 01:12:23.84	0.27	28.20	-29.7	-31.3	13.6	4.50e-06	0	44	102	1048576	19	4324
2026-01-26 01:12:24.69	0.14	28.33	-29.8	-31.5	13.5	2.27e-04	0	44	102	1048576	19	4387
2026-01-26 01:12:25.84	359.96	28.51	-29.7	-31.1	13.7	2.49e-03	0	44	102	1048576	19	4264
2026-01-26 01:12:26.69	359.83	28.65	-30.0	-31.6	13.0	2.31e-03	0	44	102	1048576	20	4339
2026-01-26 01:12:27.84	359.65	28.83	-30.0	-31.5	13.1	2.82e-05	0	44	102	1048576	20	4308
2026-01-26 01:12:28.70	359.52	28.97	-30.0	-31.5	13.1	2.39e-03	0	44	102	1048576	20	4303
2026-01-26 01:12:29.85	359.33	29.16	-30.0	-31.5	13.2	2.57e-03	0	44	102	1048576	20	4281
2026-01-26 01:12:30.70	359.19	29.29	-29.8	-31.2	13.3	2.41e-04	0	44	102	1048576	20	4190
2026-01-26 01:12:31.85	359.01	29.48	-30.1	-31.8	13.0	2.05e-05	0	44	102	1048576	20	4399
2026-01-26 01:12:32.71	358.86	29.62	-30.0	-31.6	13.0	2.59e-03	0	44	102	1048576	20	4331
2026-01-26 01:12:33.86	358.67	29.81	-30.3	-32.5	12.5	6.33e-05	0	44	102	1048576	20	4612
2026-01-26 01:12:34.71	358.53	29.95	-30.5	-32.6	12.0	1.11e-04	0	44	102	1048576	21	4587
2026-01-26 01:12:35.86	358.33	30.14	-30.2	-32.3	12.5	2.50e-03	0	44	102	1048576	20	4570
2026-01-26 01:12:36.72	358.18	30.28	-30.3	-32.4	12.5	4.00e-04	0	44	102	1048576	20	4592
2026-01-26 01:12:37.87	357.98	30.47	-30.5	-32.6	12.2	3.39e-04	0	44	102	1048576	21	4556
2026-01-26 01:12:38.73	357.83	30.62	-30.5	-32.4	12.2	2.80e-04	0	44	102	1048576	21	4492
2026-01-26 01:12:39.88	357.63	30.81	-30.7	-33.2	11.7	6.41e-04	0	44	102	1048576	21	4786
2026-01-26 01:12:40.74	357.47	30.96	-30.5	-32.5	12.1	3.41e-03	0	44	102	1048576	21	4529
2026-01-26 01:12:41.89	357.26	31.15	-30.4	-32.7	12.3	1.11e-04	0	44	102	1048576	20	4706
2026-01-26 01:12:42.75	357.11	31.30	-30.7	-33.2	11.7	1.64e-04	0	44	102	1048576	21	4796
2026-01-26 01:12:43.90	356.89	31.49	-30.5	-32.5	12.2	2.75e-04	0	44	102	1048576	21	4526
2026-01-26 01:12:44.76	356.73	31.64	-30.9	-33.5	11.6	4.53e-04	0	44	102	1048576	21	4893
2026-01-26 01:12:45.90	356.51	31.84	-30.9	-33.0	11.5	2.45e-03	0	44	102	1048576	22	4621
2026-01-26 01:12:46.76	356.35	31.99	-31.2	-34.3	10.6	3.57e-03	0	44	102	1048576	22	5100
2026-01-26 01:12:47.91	356.13	32.18	-31.4	-34.7	10.4	4.78e-03	0	44	102	1048576	22	5257
2026-01-26 01:12:48.77	355.96	32.33	-31.2	-33.6	10.8	3.72e-03	0	44	102	1048576	23	4753
2026-01-26 01:12:49.92	355.73	32.53	-31.6	-35.1	9.7	8.68e-03	0	44	102	1048576	23	5371
2026-01-26 01:12:50.78	355.56	32.69	-31.8	-35.7	9.1	1.51e-02	0	44	102	1048576	23	5638
2026-01-26 01:12:51.93	355.32	32.89	-31.5	-34.7	9.9	6.57e-03	0	44	102	1048576	23	5185
2026-01-26 01:12:52.78	355.15	33.04	-31.4	-34.3	10.2	8.43e-03	0	44	102	1048576	23	5004
2026-01-26 01:12:53.93	354.91	33.24	-31.4	-34.3	10.2	6.34e-03	0	44	102	1048576	23	5035
2026-01-26 01:12:54.80	354.73	33.40	-31.5	-34.9	9.7	1.53e-02	0	44	102	1048576	23	5279
2026-01-26 01:12:55.95	354.49	33.60	-31.8	-35.8	9.0	1.64e-02	0	44	102	1048576	23	5748
2026-01-26 01:12:56.81	354.30	33.75	-31.5	-34.9	9.7	1.84e-02	0	44	102	1048576	23	5290
2026-01-26 01:12:57.96	354.05	33.96	-31.6	-35.3	9.4	1.86e-02	0	44	102	1048576	23	5480
2026-01-26 01:12:58.82	353.86	34.11	-31.4	-34.5	9.9	1.27e-02	0	44	102	1048576	23	5139
2026-01-26 01:12:59.96	353.61	34.32	-30.9	-33.4	11.0	3.29e-03	0	44	102	1048576	22	4766
2026-01-26 01:13:00.83	353.42	34.48	-30.9	-33.3	11.2	2.10e-03	0	44	102	1048576	22	4726
2026-01-26 01:13:01.98	353.16	34.69	-30.8	-33.6	11.3	1.77e-03	0	44	102	1048576	21	4933
2026-01-26 01:13:02.84	352.96	34.84	-30.6	-32.8	12.0	3.86e-04	0	44	102	1048576	21	4642
2026-01-26 01:13:03.98	352.70	35.05	-30.7	-33.2	11.7	2.35e-03	0	44	102	1048576	21	4794
2026-01-26 01:13:04.84	352.49	35.21	-30.4	-32.4	12.2	2.42e-04	0	44	102	1048576	21	4517
2026-01-26 01:13:05.99	352.22	35.42	-30.5	-32.7	12.0	2.81e-04	0	44	102	1048576	21	4612
2026-01-26 01:13:06.86	352.01	35.58	-30.6	-33.0	11.6	3.46e-04	0	44	102	1048576	21	4750
2026-01-26 01:13:08.00	351.74	35.79	-30.5	-32.7	12.0	2.64e-04	0	44	102	1048576	21	4607
2026-01-26 01:13:08.86	351.52	35.95	-30.4	-32.4	12.2	2.06e-04	0	44	102	1048576	21	4505
2026-01-26 01:13:10.01	351.24	36.16	-30.4	-32.8	12.3	2.85e-04	0	44	102	1048576	20	4742
2026-01-26 01:13:10.87	351.02	36.32	-30.2	-32.3	12.1	2.08e-04	0	44	102	1048576	20	4572
2026-01-26 01:13:12.01	350.73	36.54	-30.4	-32.8	12.2	9.76e-05	0	44	102	1048576	20	4733
2026-01-26 01:13:12.87	350.51	36.70	-30.2	-32.1	12.7	7.40e-05	0	44	102	1048576	20	4486
2026-01-26 01:13:14.02	350.21	36.91	-30.3	-32.6	12.4	2.54e-03	0	44	102	1048576	20	4681
2026-01-26 01:13:14.88	349.99	37.07	-30.2	-31.8	12.6	4.68e-04	0	44	102	1048576	21	4310
2026-01-26 01:13:16.03	349.68	37.29	-30.4	-32.9	12.2	1.53e-04	0	44	102	1048576	20	4763
2026-01-26 01:13:16.89	349.45	37.45	-30.5	-32.7	12.0	2.99e-04	0	44	102	1048576	21	4627
2026-01-26 01:13:18.04	349.13	37.67	-30.5	-33.1	12.1	5.45e-04	0	44	102	1048576	20	4873
2026-01-26 01:13:18.90	348.90	37.83	-30.6	-32.9	11.8	3.65e-04	0	44	102	1048576	21	4692
2026-01-26 01:13:20.05	348.58	38.05	-30.6	-32.8	11.9	6.26e-04	0	44	102	1048576	21	4673
2026-01-26 01:13:20.91	348.33	38.21	-31.0	-33.8	10.8	8.80e-04	0	44	102	1048576	22	4961
2026-01-26 01:13:22.05	348.01	38.43	-30.8	-33.5	11.3	3.01e-03	0	44	102	1048576	21	4923
2026-01-26 01:13:22.91	347.76	38.59	-30.6	-32.9	11.9	8.09e-04	0	44	102	1048576	21	4686
2026-01-26 01:13:24.05	347.42	38.81	-30.2	-31.7	12.7	9.00e-05	0	44	102	1048576	21	4262
2026-01-26 01:13:24.91	347.17	38.97	-30.0	-31.7	12.9	8.23e-05	0	44	102	1048576	20	4379
2026-01-26 01:13:26.06	346.82	39.19	-30.3	-32.6	12.4	1.81e-03	0	44	102	1048576	20	4683
2026-01-26 01:13:26.92	346.56	39.36	-30.4	-32.9	12.1	1.43e-04	0	44	102	1048576	20	4797
2026-01-26 01:13:28.07	346.21	39.57	-30.8	-33.8	11.2	2.66e-03	0	44	102	1048576	21	5046
2026-01-26 01:13:28.93	345.94	39.74	-31.0	-33.6	10.9	4.10e-03	0	44	102	1048576	22	4875
2026-01-26 01:13:30.08	345.58	39.96	-30.9	-33.4	11.0	1.70e-03	0	44	102	1048576	22	4813
2026-01-26 01:13:30.95	345.31	40.13	-30.7	-33.4	11.4	1.19e-03	0	44	102	1048576	21	4891
2026-01-26 01:13:32.10	344.93	40.35	-30.3	-32.1	12.3	2.53e-03	0	44	102	1048576	21	4428
2026-01-26 01:13:32.96	344.65	40.51	-30.1	-31.5	12.7	4.73e-05	0	44	102	1048576	21	4226
2026-01-26 01:13:34.10	344.28	40.73	-30.0	-31.8	12.9	2.44e-03	0	44	102	1048576	20	4420
2026-01-26 01:13:34.96	343.99	40.89	-29.9	-31.9	13.3	3.50e-05	0	44	102	1048576	19	4517
2026-01-26 01:13:36.11	343.60	41.11	-29.8	-31.0	13.4	1.75e-05	0	44	102	1048576	20	4149
2026-01-26 01:13:36.97	343.31	41.28	-30.0	-31.6	13.0	2.29e-03	0	44	102	1048576	20	4332
2026-01-26 01:13:38.12	342.91	41.49	-30.1	-31.9	12.8	2.46e-03	0	44	102	1048576	20	4453
2026-01-26 01:13:38.98	342.61	41.66	-30.5	-33.0	12.1	1.71e-04	0	44	102	1048576	20	4847
2026-01-26 01:13:40.13	342.20	41.88	-31.0	-33.8	10.8	3.49e-03	0	44	102	1048576	22	4964
2026-01-26 01:13:40.99	341.89	42.04	-31.3	-34.8	10.0	3.38e-03	0	44	102	1048576	22	5388
2026-01-26 01:13:42.14	341.48	42.26	-31.4	-34.5	9.8	8.31e-03	0	44	102	1048576	23	5166
2026-01-26 01:13:43.00	341.16	42.42	-31.4	-34.9	10.0	9.57e-03	0	44	102	1048576	22	5438
2026-01-26 01:13:44.15	340.73	42.64	-31.1	-33.9	10.8	2.21e-03	0	44	102	1048576	22	4984
2026-01-26 01:13:45.02	340.41	42.80	-31.0	-33.8	10.8	1.82e-03	0	44	102	1048576	22	4936
2026-01-26 01:13:46.16	339.97	43.02	-30.8	-33.5	11.4	3.50e-03	0	44	102	1048576	21	4926
2026-01-26 01:13:47.02	339.64	43.18	-30.6	-33.0	11.7	2.87e-03	0	44	102	1048576	21	4752
2026-01-26 01:13:48.17	339.19	43.39	-31.0	-34.3	10.8	1.66e-03	0	44	102	1048576	21	5275
2026-01-26 01:13:49.04	338.85	43.55	-31.1	-34.1	10.5	4.64e-03	0	44	102	1048576	22	5071
2026-01-26 01:13:50.19	338.39	43.77	-31.6	-35.3	9.3	7.00e-03	0	44	102	1048576	23	5495
2026-01-26 01:13:51.05	338.04	43.93	-31.6	-35.5	9.2	1.74e-02	0	44	102	1048576	23	5603
2026-01-26 01:13:52.20	337.57	44.14	-31.6	-35.4	9.4	1.63e-02	0	44	102	1048576	23	5537
2026-01-26 01:13:53.06	337.22	44.30	-31.8	-36.0	8.9	2.86e-02	0	44	102	1048576	23	5835
2026-01-26 01:13:54.21	336.74	44.51	-31.9	-36.2	8.9	2.21e-02	0	44	102	1048576	23	5911
2026-01-26 01:13:55.07	336.37	44.66	-31.8	-35.9	9.0	3.11e-02	0	44	102	1048576	23	5798
2026-01-26 01:13:56.22	335.88	44.87	-31.8	-36.0	8.9	2.55e-02	0	44	102	1048576	23	5819
2026-01-26 01:13:57.08	335.51	45.03	-31.6	-34.9	9.6	2.07e-02	0	44	102	1048576	23	5305
2026-01-26 01:13:58.22	335.01	45.23	-31.8	-35.6	9.3	1.65e-02	0	44	102	1048576	23	5631
2026-01-26 01:13:59.09	334.62	45.38	-31.4	-34.4	10.2	9.83e-03	0	44	102	1048576	23	5089
2026-01-26 01:14:00.24	334.11	45.59	-31.4	-34.4	10.2	7.66e-03	0	44	102	1048576	23	5062
2026-01-26 01:14:01.09	333.72	45.74	-31.6	-34.9	9.8	1.49e-02	0	44	102	1048576	23	5314
2026-01-26 01:14:02.24	333.20	45.94	-31.1	-33.3	11.0	6.45e-03	0	44	102	1048576	23	4650
2026-01-26 01:14:03.10	332.80	46.08	-30.3	-31.4	12.5	5.03e-04	0	44	102	1048576	22	4111
2026-01-26 01:14:04.25	332.26	46.28	-29.7	-30.7	13.6	1.67e-05	0	44	102	1048576	20	4073
2026-01-26 01:14:05.11	331.85	46.43	-29.4	-30.3	14.3	1.39e-03	0	44	102	1048576	19	4029
2026-01-26 01:14:06.26	331.30	46.62	-29.6	-30.9	14.0	1.50e-06	0	44	102	1048576	19	4179
2026-01-26 01:14:07.12	330.88	46.76	-30.0	-32.0	13.4	1.48e-03	0	44	102	1048576	19	4517
2026-01-26 01:14:08.27	330.32	46.95	-30.3	-32.6	12.6	9.53e-05	0	44	102	1048576	20	4644
2026-01-26 01:14:09.13	329.90	47.10	-30.7	-33.1	11.7	3.11e-04	0	44	102	1048576	21	4768
2026-01-26 01:14:10.28	329.32	47.28	-30.8	-33.6	11.3	1.09e-03	0	44	102	1048576	21	4924
2026-01-26 01:14:11.13	328.89	47.42	-30.5	-32.6	12.1	2.18e-03	0	44	102	1048576	21	4576
2026-01-26 01:14:12.28	328.31	47.60	-29.6	-30.5	13.8	1.29e-05	0	44	102	1048576	20	3986
2026-01-26 01:14:13.14	327.86	47.73	-29.4	-30.3	14.3	1.50e-06	0	44	102	1048576	19	4022
2026-01-26 01:14:14.29	327.26	47.91	-29.8	-31.5	13.6	6.80e-06	0	44	102	1048576	19	4387
2026-01-26 01:14:15.15	326.81	48.04	-30.1	-31.8	13.1	1.44e-05	0	44	102	1048576	20	4387
2026-01-26 01:14:16.29	326.21	48.21	-30.2	-32.2	12.8	9.53e-05	0	44	102	1048576	20	4518
2026-01-26 01:14:17.16	325.74	48.34	-30.0	-31.6	13.1	7.09e-05	0	44	102	1048576	20	4327
2026-01-26 01:14:18.30	325.12	48.51	-30.0	-31.6	13.3	1.98e-05	0	44	102	1048576	20	4317
2026-01-26 01:14:19.17	324.65	48.63	-29.9	-31.3	13.4	5.30e-06	0	44	102	1048576	20	4230
2026-01-26 01:14:20.31	324.02	48.79	-30.1	-31.9	12.9	2.36e-05	0	44	102	1048576	20	4444
2026-01-26 01:14:21.18	323.53	48.91	-30.1	-32.1	12.8	4.57e-05	0	44	102	1048576	20	4500
2026-01-26 01:14:22.33	322.89	49.07	-29.9	-32.7	11.2	2.91e-04	0	44	102	1048576	21	4963
2026-01-26 01:14:23.19	322.40	49.18	-30.6	-33.1	11.6	6.00e-04	0	44	102	1048576	21	4801
2026-01-26 01:14:24.33	321.75	49.33	-30.0	-31.7	12.3	1.79e-04	0	44	102	1048576	20	4400
2026-01-26 01:14:25.18	321.26	49.44	-29.6	-30.4	13.9	4.50e-06	0	44	102	1048576	20	3985
2026-01-26 01:14:26.33	320.59	49.58	-30.0	-31.5	13.2	6.80e-06	0	44	102	1048576	20	4317
2026-01-26 01:14:27.19	320.08	49.69	-30.2	-32.3	12.6	6.40e-05	0	44	102	1048576	20	4589
2026-01-26 01:14:28.34	319.40	49.83	-30.3	-32.5	12.6	1.08e-04	0	44	102	1048576	20	4644
2026-01-26 01:14:29.19	318.90	49.93	-30.2	-32.4	12.5	1.65e-04	0	44	102	1048576	20	4607
2026-01-26 01:14:30.34	318.21	50.06	-30.9	-34.1	10.9	3.30e-04	0	44	102	1048576	21	5194
2026-01-26 01:14:31.20	317.69	50.15	-31.4	-35.3	9.8	3.47e-03	0	44	102	1048576	22	5615
2026-01-26 01:14:32.35	316.99	50.27	-31.8	-36.3	8.4	2.93e-02	0	44	102	1048576	23	6053
2026-01-26 01:14:33.21	316.46	50.36	-31.7	-35.9	8.7	3.11e-02	0	44	102	1048576	23	5876
2026-01-26 01:14:34.35	315.76	50.48	-31.1	-34.3	10.2	1.24e-02	0	44	102	1048576	22	5215
2026-01-26 01:14:35.22	315.21	50.56	-30.9	-33.5	11.0	3.29e-03	0	44	102	1048576	22	4865
2026-01-26 01:14:36.36	314.50	50.67	-30.7	-33.3	11.4	8.99e-04	0	44	102	1048576	21	4895
2026-01-26 01:14:37.22	313.96	50.75	-30.5	-32.7	11.8	5.14e-04	0	44	102	1048576	21	4648
2026-01-26 01:14:38.38	313.22	50.85	-29.9	-31.1	12.9	1.60e-04	0	44	102	1048576	21	4132
2026-01-26 01:14:39.23	312.68	50.92	-29.8	-31.8	12.4	1.37e-05	0	44	102	1048576	19	4509
2026-01-26 01:14:40.38	311.95	51.01	-30.0	-31.8	12.7	2.13e-05	0	44	102	1048576	20	4455
2026-01-26 01:14:41.24	311.39	51.07	-30.3	-32.8	12.1	1.15e-04	0	44	102	1048576	20	4814
2026-01-26 01:14:42.38	310.66	51.16	-30.7	-33.5	11.4	2.91e-03	0	44	102	1048576	21	4963
2026-01-26 01:14:43.24	310.10	51.22	-30.8	-33.8	11.0	1.71e-03	0	44	102	1048576	21	5090
2026-01-26 01:14:44.39	309.35	51.29	-30.1	-31.7	12.5	6.67e-04	0	44	102	1048576	21	4330
2026-01-26 01:14:45.26	308.77	51.34	-29.8	-31.8	13.2	8.31e-05	0	44	102	1048576	19	4531
2026-01-26 01:14:46.40	308.02	51.41	-29.7	-31.3	13.6	1.60e-05	0	44	102	1048576	19	4366
2026-01-26 01:14:47.26	307.46	51.45	-29.3	-30.4	14.1	1.14e-05	0	44	102	1048576	19	4086
2026-01-26 01:14:48.40	306.70	51.51	-29.0	-30.0	14.7	1.45e-03	0	44	102	1048576	18	4060
2026-01-26 01:14:49.26	306.13	51.55	-28.5	-29.2	15.5	1.30e-03	0	44	102	1048576	17	3930
2026-01-26 01:14:50.41	305.36	51.59	-28.4	-29.0	15.6	0.00e+00	0	44	102	1048576	17	3882
2026-01-26 01:14:51.27	304.79	51.63	-28.5	-29.2	15.5	0.00e+00	0	44	102	1048576	17	3938
2026-01-26 01:14:52.42	304.01	51.66	-28.4	-29.0	15.7	1.37e-03	0	44	102	1048576	17	3862
2026-01-26 01:14:53.28	303.44	51.69	-28.3	-28.9	15.7	0.00e+00	0	44	102	1048576	17	3839
2026-01-26 01:14:54.43	302.66	51.72	-27.6	-28.3	16.3	0.00e+00	0	44	102	1048576	15	3882
2026-01-26 01:14:55.29	302.08	51.73	-27.3	-28.0	16.8	0.00e+00	0	44	102	1048576	14	3908
2026-01-26 01:14:56.44	301.31	51.75	-27.2	-27.9	16.8	0.00e+00	0	44	102	1048576	14	3893
2026-01-26 01:14:57.30	300.72	51.76	-27.7	-28.4	16.3	0.00e+00	0	44	102	1048576	15	3930
2026-01-26 01:14:58.44	299.95	51.77	-27.8	-28.7	16.0	9.94e-04	0	44	102	1048576	15	3999
2026-01-26 01:14:59.30	299.37	51.77	-27.7	-28.5	16.3	0.00e+00	0	44	102	1048576	15	3942
2026-01-26 01:15:00.45	298.59	51.77	-27.9	-29.1	15.9	1.36e-04	0	44	102	1048576	15	4103
2026-01-26 01:15:01.31	298.01	51.77	-28.2	-29.1	15.7	0.00e+00	0	44	102	1048576	16	3992
2026-01-26 01:15:02.46	297.23	51.76	-28.5	-29.4	15.3	1.50e-06	0	44	102	1048576	17	4002
2026-01-26 01:15:03.32	296.65	51.75	-28.6	-29.7	15.1	1.87e-04	0	44	102	1048576	17	4069
2026-01-26 01:15:04.46	295.88	51.73	-28.7	-29.9	15.0	0.00e+00	0	44	102	1048576	17	4132
2026-01-26 01:15:05.32	295.30	51.71	-28.5	-29.3	15.3	0.00e+00	0	44	102	1048576	17	3961
2026-01-26 01:15:06.46	294.54	51.68	-28.8	-30.1	14.9	2.82e-04	0	44	102	1048576	17	4186
2026-01-26 01:15:07.32	293.96	51.66	-28.9	-29.7	14.9	4.61e-04	0	44	102	1048576	18	3972
2026-01-26 01:15:08.48	293.18	51.62	-28.4	-28.6	15.7	7.00e-07	0	44	102	1048576	18	3669
2026-01-26 01:15:09.34	292.61	51.58	-28.7	-29.8	15.1	1.02e-03	0	44	102	1048576	17	4103
2026-01-26 01:15:10.49	291.84	51.54	-28.8	-30.1	14.9	8.09e-04	0	44	102	1048576	17	4176
2026-01-26 01:15:11.35	291.27	51.50	-29.0	-30.0	14.7	0.00e+00	0	44	102	1048576	18	4066
2026-01-26 01:15:12.50	290.50	51.44	-29.1	-30.4	14.5	8.32e-04	0	44	102	1048576	18	4180
2026-01-26 01:15:13.36	289.94	51.39	-29.3	-30.8	14.1	1.33e-03	0	44	102	1048576	18	4305
2026-01-26 01:15:14.51	289.18	51.33	-29.6	-31.1	13.7	3.80e-06	0	44	102	1048576	19	4300
2026-01-26 01:15:15.37	288.61	51.27	-29.3	-30.6	14.1	7.52e-04	0	44	102	1048576	19	4135
2026-01-26 01:15:16.52	287.86	51.20	-29.3	-30.9	14.2	1.01e-03	0	44	102	1048576	18	4337
2026-01-26 01:15:17.38	287.31	51.14	-29.3	-30.8	14.2	3.00e-06	0	44	102	1048576	18	4304
2026-01-26 01:15:18.52	286.57	51.06	-29.2	-30.6	14.4	3.00e-06	0	44	102	1048576	18	4219
2026-01-26 01:15:19.38	286.01	50.99	-28.3	-28.4	15.6	1.81e-04	0	44	102	1048576	18	3617
2026-01-26 01:15:20.53	285.28	50.90	-28.1	-28.4	16.0	0.00e+00	0	44	102	1048576	17	3728
2026-01-26 01:15:21.39	284.73	50.82	-28.6	-29.6	15.2	9.11e-04	0	44	102	1048576	17	4034
2026-01-26 01:15:22.54	284.00	50.72	-29.4	-31.2	14.0	7.00e-07	0	44	102	1048576	18	4427
2026-01-26 01:15:23.41	283.46	50.64	-29.5	-31.0	13.8	2.20e-06	0	44	102	1048576	19	4257
2026-01-26 01:15:24.56	282.74	50.54	-29.7	-31.5	13.4	3.61e-04	0	44	102	1048576	19	4425
2026-01-26 01:15:25.42	282.20	50.45	-29.2	-30.2	14.3	1.06e-05	0	44	102	1048576	19	4016
2026-01-26 01:15:26.57	281.49	50.33	-29.6	-31.1	13.6	4.50e-06	0	44	102	1048576	19	4295
2026-01-26 01:15:27.43	280.97	50.24	-29.7	-31.3	13.7	2.13e-03	0	44	102	1048576	19	4344
2026-01-26 01:15:28.59	280.26	50.12	-29.6	-30.9	13.9	5.30e-06	0	44	102	1048576	19	4222
2026-01-26 01:15:29.45	279.74	50.02	-29.5	-30.7	14.1	1.50e-06	0	44	102	1048576	19	4151
2026-01-26 01:15:30.60	279.05	49.89	-29.8	-31.5	13.7	4.79e-04	0	44	102	1048576	19	4394
2026-01-26 01:15:31.46	278.54	49.79	-30.0	-31.5	13.2	2.14e-03	0	44	102	1048576	20	4311
2026-01-26 01:15:32.61	277.86	49.65	-30.4	-32.8	12.4	9.46e-05	0	44	102	1048576	20	4729
2026-01-26 01:15:33.48	277.35	49.54	-30.4	-32.9	12.3	6.17e-05	0	44	102	1048576	20	4762
2026-01-26 01:15:34.62	276.69	49.40	-30.3	-32.4	12.7	1.77e-03	0	44	102	1048576	20	4598
2026-01-26 01:15:35.49	276.19	49.29	-30.2	-32.1	12.9	8.23e-05	0	44	102	1048576	20	4503
2026-01-26 01:15:36.63	275.53	49.14	-30.7	-33.1	11.7	3.40e-04	0	44	102	1048576	21	4753
2026-01-26 01:15:37.49	275.05	49.02	-31.2	-34.2	10.7	7.78e-04	0	44	102	1048576	22	5127
2026-01-26 01:15:38.64	274.40	48.87	-31.7	-35.6	9.3	1.62e-02	0	44	102	1048576	23	5634
2026-01-26 01:15:39.50	273.92	48.75	-31.3	-34.2	10.3	4.77e-03	0	44	102	1048576	23	5009
2026-01-26 01:15:40.66	273.28	48.58	-30.2	-31.7	12.7	5.09e-04	0	44	102	1048576	21	4280
2026-01-26 01:15:41.52	272.82	48.46	-29.9	-31.4	13.3	1.06e-05	0	44	102	1048576	20	4272
2026-01-26 01:15:42.67	272.19	48.29	-29.8	-31.5	13.7	5.30e-06	0	44	102	1048576	19	4380
2026-01-26 01:15:43.53	271.73	48.16	-29.7	-31.3	13.8	3.80e-06	0	44	102	1048576	19	4308
2026-01-26 01:15:44.68	271.12	47.99	-30.0	-32.0	13.4	3.00e-06	0	44	102	1048576	19	4529
2026-01-26 01:15:45.54	270.67	47.86	-30.0	-31.8	13.1	2.14e-03	0	44	102	1048576	20	4379
2026-01-26 01:15:46.69	270.07	47.68	-30.6	-32.9	12.0	1.90e-04	0	44	102	1048576	21	4688
2026-01-26 01:15:47.55	269.63	47.54	-30.9	-33.8	11.3	7.12e-04	0	44	102	1048576	21	5041
2026-01-26 01:15:48.70	269.05	47.36	-30.9	-33.3	11.2	1.61e-03	0	44	102	1048576	22	4743
2026-01-26 01:15:49.56	268.61	47.22	-30.5	-32.6	12.2	3.91e-04	0	44	102	1048576	21	4574
2026-01-26 01:15:50.71	268.04	47.03	-30.6	-32.8	12.1	1.79e-04	0	44	102	1048576	21	4644
2026-01-26 01:15:51.57	267.61	46.89	-30.7	-33.1	11.8	2.78e-04	0	44	102	1048576	21	4768
2026-01-26 01:15:52.72	267.05	46.70	-30.4	-32.9	12.2	3.59e-04	0	44	102	1048576	20	4752
2026-01-26 01:15:53.58	266.64	46.56	-30.1	-31.4	13.1	9.91e-05	0	44	102	1048576	21	4165
2026-01-26 01:15:54.73	266.09	46.36	-30.3	-32.4	12.7	7.09e-05	0	44	102	1048576	20	4581
2026-01-26 01:15:55.59	265.68	46.21	-30.5	-32.7	12.2	9.68e-05	0	44	102	1048576	21	4589
2026-01-26 01:15:56.74	265.14	46.02	-31.3	-34.3	10.7	1.29e-03	0	44	102	1048576	22	5134
2026-01-26 01:15:57.60	264.74	45.87	-31.5	-34.6	10.2	4.01e-03	0	44	102	1048576	23	5129
2026-01-26 01:15:58.74	264.22	45.67	-31.7	-34.7	10.2	7.04e-03	0	44	102	1048576	23	5109
2026-01-26 01:15:59.61	263.83	45.51	-31.5	-34.2	10.5	5.13e-03	0	44	102	1048576	23	4901
2026-01-26 01:16:00.76	263.31	45.31	-31.3	-34.0	11.2	3.34e-03	0	44	102	1048576	22	4906
2026-01-26 01:16:01.62	262.93	45.16	-31.8	-35.3	9.8	3.12e-03	0	44	102	1048576	23	5398
2026-01-26 01:16:02.77	262.43	44.95	-31.9	-35.6	9.5	2.10e-02	0	44	102	1048576	23	5530
2026-01-26 01:16:03.63	262.06	44.79	-31.8	-35.7	9.6	9.48e-03	0	44	102	1048576	22	5667
2026-01-26 01:16:04.77	261.57	44.59	-31.4	-33.8	10.8	6.07e-03	0	44	102	1048576	23	4779
2026-01-26 01:16:05.64	261.20	44.43	-31.5	-34.6	10.7	3.05e-03	0	44	102	1048576	22	5162
2026-01-26 01:16:06.79	260.72	44.22	-31.8	-35.4	9.7	4.31e-03	0	44	102	1048576	23	5422
2026-01-26 01:16:07.64	260.37	44.06	-31.8	-35.4	9.5	1.44e-02	0	44	102	1048576	23	5405
2026-01-26 01:16:08.79	259.90	43.85	-31.5	-34.1	10.6	8.08e-03	0	44	102	1048576	23	4894
2026-01-26 01:16:09.65	259.56	43.69	-31.2	-33.8	11.2	4.87e-03	0	44	102	1048576	22	4864
2026-01-26 01:16:10.80	259.10	43.47	-30.9	-32.9	11.8	1.14e-03	0	44	102	1048576	22	4543
2026-01-26 01:16:11.66	258.76	43.31	-30.7	-32.7	12.3	2.23e-04	0	44	102	1048576	21	4534
2026-01-26 01:16:12.80	258.32	43.10	-30.4	-32.4	12.9	2.61e-03	0	44	102	1048576	20	4529
2026-01-26 01:16:13.67	257.98	42.94	-30.4	-31.9	12.8	3.12e-05	0	44	102	1048576	21	4300
2026-01-26 01:16:14.82	257.55	42.72	-30.3	-32.1	13.0	4.27e-05	0	44	102	1048576	20	4430
2026-01-26 01:16:15.68	257.22	42.56	-30.5	-32.2	12.6	4.88e-05	0	44	102	1048576	21	4396
2026-01-26 01:16:16.83	256.80	42.34	-30.7	-32.8	12.3	1.77e-04	0	44	102	1048576	21	4573
2026-01-26 01:16:17.70	256.48	42.17	-31.3	-34.1	11.1	8.30e-04	0	44	102	1048576	22	4968
2026-01-26 01:16:18.84	256.06	41.96	-31.5	-34.3	10.4	9.27e-03	0	44	102	1048576	23	4985
2026-01-26 01:16:19.70	255.76	41.79	-31.5	-34.3	10.5	4.39e-03	0	44	102	1048576	23	4960
2026-01-26 01:16:20.85	255.35	41.57	-31.5	-34.4	10.5	5.91e-03	0	44	102	1048576	23	4997
2026-01-26 01:16:21.71	255.05	41.41	-31.9	-35.8	9.3	8.05e-03	0	44	102	1048576	23	5634
2026-01-26 01:16:22.86	254.65	41.19	-31.7	-35.1	9.8	1.24e-02	0	44	102	1048576	23	5294
2026-01-26 01:16:23.72	254.36	41.02	-31.3	-33.9	10.8	7.99e-03	0	44	102	1048576	23	4820
2026-01-26 01:16:24.86	253.97	40.81	-30.8	-32.5	12.1	3.56e-03	0	44	102	1048576	22	4408
2026-01-26 01:16:25.72	253.69	40.64	-31.0	-33.1	11.7	4.61e-04	0	44	102	1048576	22	4616
2026-01-26 01:16:26.87	253.31	40.42	-30.8	-33.1	12.0	2.67e-03	0	44	102	1048576	21	4714
2026-01-26 01:16:27.73	253.03	40.25	-30.9	-33.4	11.7	2.71e-03	0	44	102	1048576	21	4804
2026-01-26 01:16:28.88	252.66	40.03	-30.9	-33.5	11.7	6.20e-04	0	44	102	1048576	21	4836
2026-01-26 01:16:29.74	252.38	39.87	-31.0	-33.2	11.5	3.21e-03	0	44	102	1048576	22	4633
2026-01-26 01:16:30.89	252.02	39.65	-31.1	-33.5	11.4	4.14e-03	0	44	102	1048576	22	4766
2026-01-26 01:16:31.75	251.76	39.48	-31.0	-33.4	11.6	1.66e-03	0	44	102	1048576	22	4736
2026-01-26 01:16:32.90	251.40	39.26	-30.5	-32.4	12.4	3.33e-03	0	44	102	1048576	21	4459
2026-01-26 01:16:33.76	251.14	39.10	-30.4	-32.4	12.8	3.00e-03	0	44	102	1048576	20	4540
2026-01-26 01:16:34.91	250.80	38.88	-30.5	-32.1	12.6	5.40e-04	0	44	102	1048576	21	4368
2026-01-26 01:16:35.77	250.54	38.71	-30.8	-33.0	12.0	2.83e-03	0	44	102	1048576	21	4689
2026-01-26 01:16:36.92	250.21	38.50	-31.5	-34.8	10.4	5.86e-03	0	44	102	1048576	22	5280
2026-01-26 01:16:37.78	249.96	38.33	-32.0	-36.1	9.0	1.22e-02	0	44	102	1048576	23	5774
2026-01-26 01:16:38.93	249.63	38.11	-32.3	-37.0	7.9	6.32e-02	0	44	102	1048576	24	6211
2026-01-26 01:16:39.79	249.39	37.95	-32.2	-36.6	8.2	7.06e-02	0	44	102	1048576	24	6001
2026-01-26 01:16:40.94	249.07	37.73	-32.3	-37.1	7.7	1.07e-01	0	44	102	1048576	24	6268
2026-01-26 01:16:41.80	248.83	37.57	-32.3	-36.9	7.9	7.66e-02	0	44	102	1048576	24	6145
2026-01-26 01:16:42.95	248.52	37.35	-32.1	-36.3	8.4	5.79e-02	0	44	102	1048576	24	5813
2026-01-26 01:16:43.81	248.29	37.19	-32.3	-37.1	7.8	6.81e-02	0	44	102	1048576	24	6269
2026-01-26 01:16:44.96	247.98	36.97	-32.4	-36.9	7.6	1.05e-01	0	44	102	1048576	25	6027
2026-01-26 01:16:45.82	247.75	36.81	-32.1	-36.1	8.6	8.64e-02	0	44	102	1048576	24	5693
2026-01-26 01:16:46.97	247.45	36.59	-31.7	-34.6	9.8	2.53e-02	0	44	102	1048576	24	5044
2026-01-26 01:16:47.83	247.23	36.43	-31.3	-33.6	10.8	7.81e-03	0	44	102	1048576	23	4717
2026-01-26 01:16:48.97	246.94	36.22	-31.0	-33.1	11.6	1.06e-03	0	44	102	1048576	22	4618
2026-01-26 01:16:49.83	246.73	36.06	-31.0	-33.3	11.4	1.07e-03	0	44	102	1048576	22	4699
2026-01-26 01:16:50.98	246.44	35.84	-30.9	-33.0	11.6	3.63e-03	0	44	102	1048576	22	4567
2026-01-26 01:16:51.84	246.23	35.68	-30.6	-32.5	12.3	3.05e-03	0	44	102	1048576	21	4512
2026-01-26 01:16:52.99	245.95	35.47	-30.5	-32.3	12.5	1.16e-04	0	44	102	1048576	21	4429
2026-01-26 01:16:53.86	245.74	35.31	-30.6	-32.5	12.3	2.08e-04	0	44	102	1048576	21	4502
2026-01-26 01:16:55.01	245.47	35.10	-30.9	-33.4	11.7	3.33e-03	0	44	102	1048576	21	4808
2026-01-26 01:16:55.87	245.27	34.94	-31.0	-33.4	11.4	2.36e-03	0	44	102	1048576	22	4712
2026-01-26 01:16:57.02	245.00	34.73	-31.4	-34.5	10.6	1.74e-03	0	44	102	1048576	22	5155
2026-01-26 01:16:57.87	244.81	34.58	-31.6	-34.7	10.0	3.75e-03	0	44	102	1048576	23	5143
2026-01-26 01:16:59.02	244.55	34.37	-31.9	-35.9	9.2	1.43e-02	0	44	102	1048576	23	5704
2026-01-26 01:16:59.88	244.36	34.21	-31.9	-35.5	9.0	3.01e-02	0	44	102	1048576	24	5448
2026-01-26 01:17:01.03	244.10	34.00	-32.0	-35.9	8.8	2.36e-02	0	44	102	1048576	24	5647
2026-01-26 01:17:01.89	243.91	33.85	-32.0	-35.7	8.8	4.12e-02	0	44	102	1048576	24	5521
2026-01-26 01:17:03.04	243.66	33.64	-32.1	-36.0	8.6	3.41e-02	0	44	102	1048576	24	5676
2026-01-26 01:17:03.90	243.48	33.49	-31.9	-35.2	9.2	2.36e-02	0	44	102	1048576	24	5300
2026-01-26 01:17:05.05	243.24	33.28	-31.9	-35.5	9.0	9.98e-03	0	44	102	1048576	24	5426
2026-01-26 01:17:05.91	243.06	33.13	-31.7	-35.0	9.7	2.11e-02	0	44	102	1048576	23	5311
2026-01-26 01:17:07.06	242.82	32.92	-31.0	-33.2	11.4	2.04e-03	0	44	102	1048576	22	4666
2026-01-26 01:17:07.92	242.64	32.77	-30.7	-32.5	12.0	7.79e-04	0	44	102	1048576	22	4411
2026-01-26 01:17:09.06	242.41	32.57	-30.3	-31.7	12.8	1.09e-04	0	44	102	1048576	21	4243
2026-01-26 01:17:09.92	242.24	32.42	-30.2	-32.1	12.9	4.57e-05	0	44	102	1048576	20	4456
2026-01-26 01:17:11.07	242.01	32.22	-30.2	-32.0	12.9	3.66e-05	0	44	102	1048576	20	4432
2026-01-26 01:17:11.93	241.84	32.07	-30.5	-32.3	12.3	4.80e-05	0	44	102	1048576	21	4453
2026-01-26 01:17:13.08	241.62	31.87	-31.1	-33.7	11.0	8.61e-04	0	44	102	1048576	22	4865
2026-01-26 01:17:13.94	241.45	31.72	-31.5	-34.7	10.0	4.64e-03	0	44	102	1048576	23	5156
2026-01-26 01:17:15.08	241.24	31.53	-31.8	-35.8	9.0	1.97e-02	0	44	102	1048576	23	5672
2026-01-26 01:17:15.94	241.08	31.38	-31.8	-35.5	9.3	2.27e-02	0	44	102	1048576	23	5554
2026-01-26 01:17:17.08	240.87	31.18	-31.0	-33.3	10.8	3.78e-03	0	44	102	1048576	22	4715
2026-01-26 01:17:17.95	240.71	31.03	-30.6	-32.1	12.2	2.88e-04	0	44	102	1048576	22	4281
2026-01-26 01:17:19.10	240.50	30.84	-29.9	-31.2	13.5	9.90e-06	0	44	102	1048576	20	4173
2026-01-26 01:17:19.96	240.34	30.69	-29.7	-30.6	13.8	6.10e-06	0	44	102	1048576	20	3998
2026-01-26 01:17:21.11	240.14	30.50	-29.8	-31.3	13.8	7.60e-06	0	44	102	1048576	19	4287
2026-01-26 01:17:21.97	239.99	30.36	-29.7	-31.1	13.9	6.80e-06	0	44	102	1048576	19	4224
2026-01-26 01:17:23.12	239.79	30.16	-30.1	-31.7	13.1	2.05e-05	0	44	102	1048576	20	4331
2026-01-26 01:17:23.98	239.64	30.02	-30.3	-32.3	12.6	5.64e-05	0	44	102	1048576	20	4551
2026-01-26 01:17:25.13	239.44	29.83	-30.7	-33.1	11.7	2.66e-04	0	44	102	1048576	21	4738
2026-01-26 01:17:26.00	239.29	29.69	-31.0	-33.5	11.2	1.21e-03	0	44	102	1048576	22	4772
2026-01-26 01:17:27.15	239.10	29.50	-31.4	-34.8	10.2	5.40e-03	0	44	102	1048576	22	5304
2026-01-26 01:17:28.01	238.96	29.36	-31.4	-34.1	10.4	5.53e-03	0	44	102	1048576	23	4929
2026-01-26 01:17:29.16	238.77	29.17	-31.1	-33.8	10.9	3.79e-03	0	44	102	1048576	22	4880
2026-01-26 01:17:30.01	238.63	29.03	-31.0	-33.4	11.1	1.83e-03	0	44	102	1048576	22	4748
2026-01-26 01:17:31.16	238.45	28.85	-30.7	-32.4	11.9	5.26e-04	0	44	102	1048576	22	4396
2026-01-26 01:17:32.02	238.31	28.71	-30.2	-32.2	12.7	2.01e-04	0	44	102	1048576	20	4510
2026-01-26 01:17:33.17	238.13	28.52	-30.3	-32.5	12.4	7.19e-04	0	44	102	1048576	20	4613
2026-01-26 01:17:34.03	238.00	28.39	-30.3	-32.4	12.5	1.23e-04	0	44	102	1048576	20	4571
2026-01-26 01:17:35.17	237.82	28.21	-30.1	-31.8	12.9	6.33e-05	0	44	102	1048576	20	4398
2026-01-26 01:17:36.03	237.69	28.07	-30.2	-32.2	12.7	4.57e-05	0	44	102	1048576	20	4509
2026-01-26 01:17:37.19	237.52	27.89	-30.2	-32.1	12.8	1.99e-04	0	44	102	1048576	20	4464
2026-01-26 01:17:38.05	237.39	27.75	-30.3	-32.5	12.5	9.30e-05	0	44	102	1048576	20	4611
2026-01-26 01:17:39.20	237.22	27.57	-30.0	-31.6	13.1	2.24e-03	0	44	102	1048576	20	4324
2026-01-26 01:17:40.05	237.09	27.44	-29.9	-31.3	13.3	3.35e-05	0	44	102	1048576	20	4215
2026-01-26 01:17:41.20	236.93	27.26	-29.7	-31.1	13.8	2.16e-03	0	44	102	1048576	19	4239
2026-01-26 01:17:42.07	236.80	27.13	-29.7	-31.3	13.6	6.80e-06	0	44	102	1048576	19	4310
2026-01-26 01:17:43.21	236.64	26.95	-29.7	-31.3	13.6	3.10e-04	0	44	102	1048576	19	4302
2026-01-26 01:17:44.07	236.52	26.82	-30.0	-31.9	13.3	5.67e-04	0	44	102	1048576	19	4486
2026-01-26 01:17:45.22	236.36	26.65	-29.9	-31.2	13.3	2.13e-05	0	44	102	1048576	20	4206
2026-01-26 01:17:46.08	236.24	26.52	-30.1	-31.7	13.0	1.67e-05	0	44	102	1048576	20	4357
2026-01-26 01:17:47.23	236.08	26.34	-30.5	-32.4	12.2	3.60e-04	0	44	102	1048576	21	4488
2026-01-26 01:17:48.09	235.97	26.21	-30.8	-33.5	11.4	6.88e-04	0	44	102	1048576	21	4904
2026-01-26 01:17:49.23	235.81	26.04	-31.2	-34.1	10.6	2.95e-03	0	44	102	1048576	22	5033
2026-01-26 01:17:50.10	235.70	25.91	-31.3	-34.5	10.3	4.07e-03	0	44	102	1048576	22	5218
2026-01-26 01:17:51.25	235.55	25.74	-31.2	-34.1	10.6	5.30e-03	0	44	102	1048576	22	5040
2026-01-26 01:17:52.11	235.44	25.62	-31.2	-34.1	10.6	4.72e-03	0	44	102	1048576	22	5025
2026-01-26 01:17:53.26	235.29	25.45	-31.4	-34.8	10.0	6.72e-03	0	44	102	1048576	22	5332
2026-01-26 01:17:54.12	235.18	25.32	-31.1	-33.8	10.8	4.76e-03	0	44	102	1048576	22	4907
2026-01-26 01:17:55.27	235.03	25.15	-30.9	-33.2	11.2	1.59e-03	0	44	102	1048576	22	4712
2026-01-26 01:17:56.14	234.92	25.03	-30.6	-32.9	11.7	8.24e-04	0	44	102	1048576	21	4693
2026-01-26 01:17:57.28	234.78	24.86	-30.6	-33.0	11.7	2.71e-03	0	44	102	1048576	21	4702
2026-01-26 01:17:58.14	234.68	24.74	-30.6	-32.9	11.7	8.06e-04	0	44	102	1048576	21	4674
2026-01-26 01:17:59.29	234.53	24.58	-30.5	-32.4	12.1	2.95e-04	0	44	102	1048576	21	4503
2026-01-26 01:18:00.16	234.43	24.45	-30.4	-32.8	12.1	2.10e-04	0	44	102	1048576	20	4738
2026-01-26 01:18:01.30	234.29	24.29	-30.1	-31.9	12.8	2.99e-04	0	44	102	1048576	20	4421
2026-01-26 01:18:02.16	234.19	24.17	-30.0	-31.6	12.9	1.90e-03	0	44	102	1048576	20	4349
2026-01-26 01:18:03.31	234.06	24.01	-29.9	-31.4	13.1	3.81e-05	0	44	102	1048576	20	4281
2026-01-26 01:18:04.18	233.95	23.89	-30.2	-32.2	12.5	2.12e-04	0	44	102	1048576	20	4537
2026-01-26 01:18:05.32	233.82	23.73	-30.3	-32.5	12.3	1.39e-03	0	44	102	1048576	20	4652
2026-01-26 01:18:06.18	233.72	23.61	-30.6	-33.0	11.6	1.15e-03	0	44	102	1048576	21	4716
2026-01-26 01:18:07.33	233.59	23.45	-30.6	-33.0	11.6	6.78e-04	0	44	102	1048576	21	4738
2026-01-26 01:18:08.19	233.50	23.33	-30.6	-32.9	11.7	1.19e-03	0	44	102	1048576	21	4689
2026-01-26 01:18:09.34	233.37	23.17	-30.4	-32.5	11.9	4.07e-04	0	44	102	1048576	21	4550
2026-01-26 01:18:10.20	233.28	23.06	-30.4	-32.3	12.1	3.48e-04	0	44	102	1048576	21	4468
2026-01-26 01:18:11.35	233.15	22.90	-30.2	-32.3	12.4	6.99e-04	0	44	102	1048576	20	4573
2026-01-26 01:18:12.22	233.06	22.78	-30.1	-32.1	12.4	9.96e-04	0	44	102	1048576	20	4521
2026-01-26 01:18:13.37	232.93	22.63	-30.1	-32.0	12.6	1.10e-04	0	44	102	1048576	20	4488
2026-01-26 01:18:14.23	232.84	22.51	-30.1	-31.9	12.6	9.68e-05	0	44	102	1048576	20	4449
2026-01-26 01:18:15.38	232.72	22.36	-30.2	-32.3	12.4	2.08e-03	0	44	102	1048576	20	4568
2026-01-26 01:18:16.24	232.63	22.25	-30.3	-32.7	12.2	1.91e-04	0	44	102	1048576	20	4712
2026-01-26 01:18:17.39	232.51	22.09	-30.3	-32.7	12.1	1.98e-04	0	44	102	1048576	20	4735
2026-01-26 01:18:18.25	232.42	21.98	-30.5	-32.5	11.9	2.95e-03	0	44	102	1048576	21	4579
2026-01-26 01:18:19.39	232.31	21.83	-30.5	-32.7	11.8	4.19e-04	0	44	102	1048576	21	4642
2026-01-26 01:18:20.26	232.22	21.72	-30.5	-32.8	11.7	3.17e-03	0	44	102	1048576	21	4676
2026-01-26 01:18:21.40	232.10	21.57	-30.3	-32.5	12.2	3.44e-04	0	44	102	1048576	20	4670
2026-01-26 01:18:22.26	232.02	21.46	-30.3	-32.5	12.2	1.42e-03	0	44	102	1048576	20	4667
2026-01-26 01:18:23.41	231.90	21.31	-30.3	-32.5	12.3	2.08e-04	0	44	102	1048576	20	4644
2026-01-26 01:18:24.27	231.82	21.20	-30.3	-32.7	12.0	2.59e-04	0	44	102	1048576	20	4739
2026-01-26 01:18:25.42	231.71	21.06	-30.4	-33.0	11.8	4.90e-04	0	44	102	1048576	20	4853
2026-01-26 01:18:26.28	231.63	20.95	-30.4	-32.8	12.0	3.74e-03	0	44	102	1048576	20	4761
2026-01-26 01:18:27.43	231.52	20.80	-30.4	-32.9	11.9	3.95e-04	0	44	102	1048576	20	4809
2026-01-26 01:18:28.29	231.44	20.69	-30.4	-33.0	11.8	4.73e-04	0	44	102	1048576	20	4857
2026-01-26 01:18:29.44	231.33	20.55	-30.5	-32.9	11.5	7.27e-04	0	44	102	1048576	21	4710
2026-01-26 01:18:30.30	231.25	20.44	-30.7	-33.3	11.2	3.98e-03	0	44	102	1048576	21	4878
2026-01-26 01:18:31.45	231.14	20.30	-30.6	-32.9	11.5	1.02e-03	0	44	102	1048576	21	4737
2026-01-26 01:18:32.31	231.06	20.19	-30.7	-33.4	11.2	8.70e-04	0	44	102	1048576	21	4919
2026-01-26 01:18:33.46	230.96	20.05	-30.9	-34.0	10.7	3.23e-03	0	44	102	1048576	21	5156
2026-01-26 01:18:34.32	230.88	19.94	-30.7	-33.3	11.3	1.56e-03	0	44	102	1048576	21	4854
2026-01-26 01:18:35.46	230.78	19.81	-30.2	-31.9	12.1	4.57e-04	0	44	102	1048576	21	4385
2026-01-26 01:18:36.32	230.71	19.70	-30.1	-32.0	12.5	1.96e-04	0	44	102	1048576	20	4476
2026-01-26 01:18:37.47	230.61	19.56	-29.8	-31.3	12.8	6.25e-05	0	44	102	1048576	20	4254
2026-01-26 01:18:38.33	230.53	19.46	-29.9	-32.0	12.9	4.42e-05	0	44	102	1048576	19	4559
2026-01-26 01:18:39.47	230.43	19.32	-29.9	-32.0	12.8	5.03e-05	0	44	102	1048576	19	4591
2026-01-26 01:18:40.34	230.36	19.22	-30.0	-31.9	12.5	1.64e-04	0	44	102	1048576	20	4474
2026-01-26 01:18:41.48	230.26	19.08	-30.2	-32.3	11.5	1.69e-04	0	44	102	1048576	20	4587
2026-01-26 01:18:42.34	230.19	18.98	-30.0	-31.7	12.6	1.31e-04	0	44	102	1048576	20	4401
2026-01-26 01:18:43.49	230.09	18.84	-30.0	-32.1	12.0	6.56e-05	0	44	102	1048576	19	4626
2026-01-26 01:18:44.35	230.02	18.74	-29.8	-31.6	13.1	4.27e-05	0	44	102	1048576	19	4458
2026-01-26 01:18:45.50	229.93	18.61	-29.9	-31.6	12.7	6.17e-05	0	44	102	1048576	20	4355
2026-01-26 01:18:46.36	229.86	18.51	-29.8	-31.3	12.9	7.01e-05	0	44	102	1048576	20	4286
2026-01-26 01:18:47.51	229.76	18.38	-29.9	-32.0	12.8	4.73e-05	0	44	102	1048576	19	4593
2026-01-26 01:18:48.37	229.70	18.28	-30.0	-31.8	12.6	8.54e-05	0	44	102	1048576	20	4411
2026-01-26 01:18:49.52	229.60	18.14	-30.2	-32.4	12.1	1.62e-04	0	44	102	1048576	20	4638
2026-01-26 01:18:50.37	229.54	18.05	-30.1	-32.1	12.2	2.30e-04	0	44	102	1048576	20	4524
2026-01-26 01:18:51.52	229.45	17.92	-30.4	-32.9	11.8	2.72e-04	0	44	102	1048576	20	4803
2026-01-26 01:18:52.38	229.38	17.82	-30.5	-32.8	11.5	6.98e-04	0	44	102	1048576	21	4678
2026-01-26 01:18:53.53	229.29	17.69	-30.3	-32.6	12.0	2.48e-03	0	44	102	1048576	20	4694
2026-01-26 01:18:54.39	229.23	17.59	-30.0	-32.5	11.8	3.70e-04	0	44	102	1048576	20	4773
2026-01-26 01:18:55.55	229.14	17.46	-30.3	-32.6	12.0	3.59e-04	0	44	102	1048576	20	4714
2026-01-26 01:18:56.41	229.07	17.36	-30.2	-32.3	11.4	2.90e-04	0	44	102	1048576	20	4620
2026-01-26 01:18:57.55	228.99	17.24	-30.2	-32.3	12.2	4.30e-04	0	44	102	1048576	20	4597
2026-01-26 01:18:58.42	228.92	17.14	-30.1	-32.1	12.2	3.33e-04	0	44	102	1048576	20	4519
2026-01-26 01:18:59.57	228.84	17.01	-29.9	-32.1	12.7	2.21e-03	0	44	102	1048576	19	4604
2026-01-26 01:19:00.43	228.78	16.92	-30.0	-31.8	12.5	1.01e-04	0	44	102	1048576	20	4448
2026-01-26 01:19:01.58	228.69	16.79	-30.0	-31.7	12.5	1.91e-04	0	44	102	1048576	20	4410
2026-01-26 01:19:02.45	228.63	16.70	-29.7	-31.5	13.0	6.71e-05	0	44	102	1048576	19	4430
2026-01-26 01:19:03.60	228.55	16.57	-29.3	-30.9	13.8	4.51e-04	0	44	102	1048576	18	4318
2026-01-26 01:19:04.45	228.49	16.48	-29.3	-30.8	13.9	2.43e-03	0	44	102	1048576	18	4293
2026-01-26 01:19:05.60	228.41	16.36	-29.5	-31.0	13.4	6.10e-06	0	44	102	1048576	19	4247
2026-01-26 01:19:06.46	228.35	16.27	-29.8	-31.7	12.9	1.44e-05	0	44	102	1048576	19	4474
2026-01-26 01:19:07.61	228.27	16.14	-29.5	-30.9	13.4	2.56e-03	0	44	102	1048576	19	4237
2026-01-26 01:19:08.47	228.21	16.05	-29.5	-30.9	13.4	2.37e-03	0	44	102	1048576	19	4223
2026-01-26 01:19:09.62	228.13	15.93	-29.7	-31.5	13.1	1.83e-05	0	44	102	1048576	19	4416
2026-01-26 01:19:10.48	228.07	15.84	-29.8	-31.6	13.0	3.12e-05	0	44	102	1048576	19	4465
2026-01-26 01:19:11.63	227.99	15.72	-29.8	-31.6	12.9	2.84e-03	0	44	102	1048576	19	4472
2026-01-26 01:19:12.49	227.94	15.63	-30.0	-32.2	12.5	8.16e-05	0	44	102	1048576	19	4673
2026-01-26 01:19:13.63	227.86	15.51	-30.1	-32.1	12.1	3.01e-03	0	44	102	1048576	20	4556
2026-01-26 01:19:14.49	227.80	15.42	-30.1	-32.2	12.1	2.93e-03	0	44	102	1048576	20	4574
2026-01-26 01:19:15.64	227.73	15.30	-30.4	-33.0	11.6	1.37e-03	0	44	102	1048576	20	4867
2026-01-26 01:19:16.50	227.67	15.21	-30.3	-32.9	11.6	6.52e-04	0	44	102	1048576	20	4842
2026-01-26 01:19:17.65	227.60	15.09	-30.5	-32.9	11.3	4.02e-03	0	44	102	1048576	21	4739
2026-01-26 01:19:18.51	227.54	15.01	-30.5	-33.0	11.1	1.62e-03	0	44	102	1048576	21	4796
2026-01-26 01:19:19.65	227.47	14.89	-30.6	-33.1	11.1	3.84e-03	0	44	102	1048576	21	4838
2026-01-26 01:19:20.51	227.42	14.80	-30.5	-33.0	11.1	1.39e-03	0	44	102	1048576	21	4793
2026-01-26 01:19:21.66	227.34	14.69	-30.5	-33.1	11.1	2.73e-03	0	44	102	1048576	21	4823
2026-01-26 01:19:22.52	227.29	14.60	-30.4	-32.7	11.4	4.42e-03	0	44	102	1048576	21	4664
2026-01-26 01:19:23.67	227.22	14.48	-30.5	-33.0	11.1	4.24e-03	0	44	102	1048576	21	4782
2026-01-26 01:19:24.53	227.17	14.40	-30.6	-33.2	11.0	2.10e-03	0	44	102	1048576	21	4865
2026-01-26 01:19:25.67	227.10	14.28	-30.6	-33.2	10.9	4.72e-03	0	44	102	1048576	21	4880
2026-01-26 01:19:26.53	227.05	14.20	-30.7	-33.7	10.6	5.51e-03	0	44	102	1048576	21	5083
2026-01-26 01:19:27.66	226.98	14.09	-30.5	-33.0	11.0	2.68e-03	0	44	102	1048576	21	4805
2026-01-26 01:19:28.51	226.93	14.00	-30.3	-33.0	11.4	3.28e-03	0	44	102	1048576	20	4878
2026-01-26 01:19:29.66	226.86	13.89	-30.3	-32.9	11.5	3.18e-03	0	44	102	1048576	20	4843
2026-01-26 01:19:30.53	226.81	13.80	-30.4	-33.3	11.2	1.37e-03	0	44	102	1048576	20	5015
2026-01-26 01:19:31.67	226.74	13.69	-30.3	-32.9	11.5	3.87e-03	0	44	102	1048576	20	4845
2026-01-26 01:19:32.54	226.69	13.61	-30.3	-32.9	11.5	3.29e-03	0	44	102	1048576	20	4848
2026-01-26 01:19:33.69	226.63	13.50	-30.4	-33.1	11.3	1.33e-03	0	44	102	1048576	20	4956
2026-01-26 01:19:34.55	226.58	13.41	-30.3	-32.9	11.5	3.56e-03	0	44	102	1048576	20	4858
2026-01-26 01:19:35.70	226.51	13.30	-30.3	-33.1	11.3	3.61e-03	0	44	102	1048576	20	4922
2026-01-26 01:19:36.56	226.46	13.22	-30.5	-33.1	10.9	1.75e-03	0	44	102	1048576	21	4863
2026-01-26 01:19:37.71	226.40	13.11	-30.5	-33.1	10.9	2.27e-03	0	44	102	1048576	21	4837
2026-01-26 01:19:38.57	226.35	13.03	-30.5	-33.2	10.8	4.18e-03	0	44	102	1048576	21	4903
2026-01-26 01:19:39.73	226.29	12.92	-30.5	-33.1	10.9	3.52e-03	0	44	102	1048576	21	4843
2026-01-26 01:19:40.59	226.24	12.84	-30.4	-32.9	11.0	4.55e-03	0	44	102	1048576	21	4793
2026-01-26 01:19:41.74	226.18	12.73	-30.5	-33.2	10.8	1.75e-03	0	44	102	1048576	21	4875
2026-01-26 01:19:42.60	226.13	12.65	-30.5	-33.1	10.9	2.55e-03	0	44	102	1048576	21	4838
2026-01-26 01:19:43.76	226.07	12.54	-30.6	-33.3	10.6	4.76e-03	0	44	102	1048576	21	4935
2026-01-26 01:19:44.61	226.02	12.46	-30.7	-33.9	10.3	5.91e-03	0	44	102	1048576	21	5176
2026-01-26 01:19:45.75	225.96	12.36	-30.7	-33.7	10.4	4.72e-03	0	44	102	1048576	21	5116
2026-01-26 01:19:46.61	225.92	12.28	-30.6	-33.6	10.5	6.40e-03	0	44	102	1048576	21	5075
2026-01-26 01:19:47.77	225.85	12.17	-30.7	-33.8	10.3	4.55e-03	0	44	102	1048576	21	5150
2026-01-26 01:19:48.63	225.81	12.09	-30.7	-33.8	10.3	6.24e-03	0	44	102	1048576	21	5156
2026-01-26 01:19:49.78	225.75	11.99	-30.7	-33.8	10.3	5.73e-03	0	44	102	1048576	21	5164
2026-01-26 01:19:50.65	225.71	11.91	-30.8	-34.2	10.0	8.21e-03	0	44	102	1048576	21	5297
2026-01-26 01:19:51.79	225.65	11.81	-30.4	-32.9	10.9	4.07e-03	0	44	102	1048576	21	4798
2026-01-26 01:19:52.66	225.60	11.73	-30.4	-33.3	11.0	2.15e-03	0	44	102	1048576	20	5047
2026-01-26 01:19:53.81	225.55	11.62	-30.3	-33.1	11.2	1.52e-03	0	44	102	1048576	20	4940
2026-01-26 01:19:54.67	225.50	11.55	-30.2	-32.8	11.4	1.00e-03	0	44	102	1048576	20	4847
2026-01-26 01:19:55.82	225.45	11.44	-30.3	-32.9	11.3	1.23e-03	0	44	102	1048576	20	4876
2026-01-26 01:19:56.67	225.40	11.37	-30.3	-33.0	11.3	3.09e-03	0	44	102	1048576	20	4926
2026-01-26 01:19:57.82	225.35	11.27	-30.1	-32.5	11.6	6.77e-04	0	44	102	1048576	20	4744
2026-01-26 01:19:58.68	225.30	11.19	-30.2	-32.6	11.5	1.01e-03	0	44	102	1048576	20	4785
2026-01-26 01:19:59.82	225.25	11.09	-30.0	-32.2	11.8	7.64e-04	0	44	102	1048576	20	4603
2026-01-26 01:20:00.68	225.21	11.01	-30.0	-32.3	11.7	5.07e-04	0	44	102	1048576	20	4650
2026-01-26 01:20:01.82	225.15	10.91	-30.1	-32.5	11.5	7.42e-04	0	44	102	1048576	20	4755
2026-01-26 01:20:02.68	225.11	10.84	-30.1	-32.3	11.7	7.58e-04	0	44	102	1048576	20	4655
2026-01-26 01:20:03.83	225.06	10.74	-30.0	-32.3	11.7	6.57e-04	0	44	102	1048576	20	4662
2026-01-26 01:20:04.69	225.02	10.66	-30.1	-32.5	11.5	6.95e-04	0	44	102	1048576	20	4722
2026-01-26 01:20:05.84	224.96	10.56	-30.2	-32.7	11.3	1.14e-03	0	44	102	1048576	20	4813
2026-01-26 01:20:06.70	224.92	10.49	-30.1	-32.4	11.6	8.20e-04	0	44	102	1048576	20	4691
2026-01-26 01:20:07.85	224.87	10.39	-30.2	-32.9	11.2	8.31e-04	0	44	102	1048576	20	4906
2026-01-26 01:20:08.71	224.83	10.32	-30.2	-32.9	11.1	1.51e-03	0	44	102	1048576	20	4905
2026-01-26 01:20:09.85	224.78	10.22	-30.2	-32.7	11.3	1.11e-03	0	44	102	1048576	20	4813
2026-01-26 01:20:10.72	224.74	10.15	-30.3	-33.1	11.0	1.13e-03	0	44	102	1048576	20	4964
2026-01-26 01:20:11.86	224.69	10.05	-30.4	-33.3	10.8	2.52e-03	0	44	102	1048576	20	5071
2026-01-26 01:20:12.72	224.65	9.98	-30.2	-33.0	11.1	2.06e-03	0	44	102	1048576	20	4928
2026-01-26 01:20:13.86	224.60	9.88	-30.3	-33.3	10.9	2.00e-03	0	44	102	1048576	20	5072
2026-01-26 01:20:14.72	224.56	9.81	-30.3	-33.1	11.0	2.26e-03	0	44	102	1048576	20	4998
2026-01-26 01:20:15.87	224.51	9.71	-30.5	-33.7	10.2	2.68e-03	0	44	102	1048576	20	5221
2026-01-26 01:20:16.72	224.47	9.64	-30.4	-33.5	10.7	2.80e-03	0	44	102	1048576	20	5154
2026-01-26 01:20:17.87	224.42	9.55	-30.5	-33.5	10.3	4.19e-03	0	44	102	1048576	21	5045
2026-01-26 01:20:18.73	224.39	9.47	-30.6	-33.6	10.2	5.84e-03	0	44	102	1048576	21	5080
2026-01-26 01:20:19.87	224.34	9.38	-30.6	-33.5	10.3	6.28e-03	0	44	102	1048576	21	5070
2026-01-26 01:20:20.73	224.30	9.31	-30.6	-33.6	10.2	5.64e-03	0	44	102	1048576	21	5114
2026-01-26 01:20:21.87	224.25	9.21	-30.7	-33.9	9.9	9.05e-03	0	44	102	1048576	21	5225
2026-01-26 01:20:22.73	224.22	9.14	-30.7	-34.0	9.9	8.51e-03	0	44	102	1048576	21	5265
2026-01-26 01:20:23.88	224.17	9.05	-30.7	-34.1	9.8	9.49e-03	0	44	102	1048576	21	5326
2026-01-26 01:20:24.74	224.13	8.98	-30.6	-33.9	10.0	9.56e-03	0	44	102	1048576	21	5241
2026-01-26 01:20:25.88	224.09	8.89	-30.7	-34.2	9.7	9.32e-03	0	44	102	1048576	21	5352
2026-01-26 01:20:26.75	224.05	8.82	-30.8	-34.4	9.6	1.09e-02	0	44	102	1048576	21	5463
2026-01-26 01:20:27.90	224.00	8.72	-30.8	-34.6	9.4	1.81e-02	0	44	102	1048576	21	5543
2026-01-26 01:20:28.76	223.97	8.66	-29.9	-33.8	9.3	1.22e-02	0	44	102	1048576	21	5583
2026-01-26 01:20:29.90	223.92	8.56	-30.8	-34.6	9.4	1.31e-02	0	44	102	1048576	21	5543
2026-01-26 01:20:30.77	223.89	8.49	-30.9	-34.8	8.8	1.89e-02	0	44	102	1048576	21	5653
2026-01-26 01:20:31.91	223.84	8.40	-30.8	-34.4	9.5	2.19e-02	0	44	102	1048576	21	5477
2026-01-26 01:20:32.78	223.81	8.33	-31.0	-35.3	8.8	2.02e-02	0	44	102	1048576	21	5932
2026-01-26 01:20:33.92	223.76	8.24	-30.9	-34.9	9.1	4.90e-02	0	44	102	1048576	21	5714
2026-01-26 01:20:34.78	223.73	8.18	-30.7	-34.2	9.6	2.26e-02	0	44	102	1048576	21	5385
2026-01-26 01:20:35.93	223.69	8.09	-30.7	-34.3	9.5	1.46e-02	0	44	102	1048576	21	5441
2026-01-26 01:20:36.80	223.65	8.02	-30.6	-33.8	9.9	9.77e-03	0	44	102	1048576	21	5223
2026-01-26 01:20:37.95	223.61	7.93	-30.6	-33.8	9.8	1.12e-02	0	44	102	1048576	21	5230
2026-01-26 01:20:38.81	223.57	7.86	-30.6	-33.8	9.9	9.26e-03	0	44	102	1048576	21	5213
2026-01-26 01:20:39.96	223.53	7.77	-30.6	-33.8	9.8	1.08e-02	0	44	102	1048576	21	5237
