passes_logs/2026/01/26/R2M6_AANII_01/R2M6_AANII_01__20260126_112259_NOAA_20_JPSS-1_rec.log

#Pass ID: 20260126_112259_NOAA 20 (JPSS-1)
#Satellite: NOAA 20 (JPSS-1)
#Configuration: NOAA 20
#almurnet v.1.7.20240730
#Start time: 2026-01-26 11:23:00

#Version: 2.2.20231116
#Station: R2M6_AANII_01
#Location: 30.233357 lon 59.946436 lat
#TLE: 1 43013U 17073A   26025.83228772  .00000162  00000+0  97663-4 0  9996
#TLE: 2 43013  98.7646 326.6579 0001036  23.5840 336.5383 14.19540376424273

#Time	Az	El	Level	Level2	SNR	BER	BlckErr	Temp	State	Recorded	gain1	gain2
2026-01-26 11:23:00.74	194.02	7.07	-31.0	-36.4	5.2	1.21e+00	0	41	0	0	22	6696
2026-01-26 11:23:01.74	194.09	7.14	-31.4	-37.5	5.0	1.29e+00	0	41	104	0	23	7310
2026-01-26 11:23:02.74	194.15	7.21	-31.4	-37.8	7.4	8.74e-02	0	41	0	0	23	7482
2026-01-26 11:23:03.74	194.22	7.28	-31.4	-37.4	7.6	1.00e-01	0	41	0	1048576	23	7257
2026-01-26 11:23:04.75	194.28	7.36	-31.2	-36.9	8.1	6.87e-02	0	41	0	3145728	23	6907
2026-01-26 11:23:05.74	194.35	7.43	-30.9	-35.6	9.1	4.07e-02	0	42	0	5242880	23	6188
2026-01-26 11:23:06.75	194.41	7.50	-30.8	-35.1	9.5	1.89e-02	0	42	0	7340032	23	5931
2026-01-26 11:23:07.75	194.48	7.57	-30.9	-35.9	9.4	1.22e-02	0	42	0	9437184	22	6402
2026-01-26 11:23:08.75	194.55	7.65	-30.9	-36.1	9.1	1.82e-02	0	42	0	10485760	22	6551
2026-01-26 11:23:09.76	194.61	7.72	-30.8	-35.9	9.3	1.97e-02	0	42	0	12582912	22	6432
2026-01-26 11:23:10.75	194.68	7.79	-31.0	-36.5	8.9	2.24e-02	0	41	0	14680064	22	6761
2026-01-26 11:23:11.75	194.75	7.87	-30.9	-36.0	9.1	2.74e-02	0	42	0	16777216	22	6500
2026-01-26 11:23:12.75	194.82	7.94	-30.8	-35.9	9.3	1.94e-02	0	42	0	17825792	22	6430
2026-01-26 11:23:13.75	194.89	8.01	-30.8	-35.7	9.4	1.48e-02	0	42	0	19922944	22	6323
2026-01-26 11:23:14.75	194.95	8.09	-31.0	-36.5	8.8	3.05e-02	0	42	0	22020096	22	6791
2026-01-26 11:23:15.76	195.02	8.16	-30.9	-36.1	9.0	3.62e-02	0	42	0	24117248	22	6576
2026-01-26 11:23:16.76	195.09	8.24	-30.7	-35.6	9.3	2.02e-02	0	42	0	26214400	22	6293
2026-01-26 11:23:17.75	195.16	8.31	-30.6	-35.0	9.6	1.23e-02	0	42	0	27262976	22	6022
2026-01-26 11:23:18.75	195.23	8.38	-30.3	-34.4	9.9	1.05e-02	0	42	0	29360128	22	5738
2026-01-26 11:23:19.76	195.30	8.46	-30.1	-34.6	9.9	7.36e-03	0	42	0	31457280	21	5991
2026-01-26 11:23:20.76	195.37	8.53	-30.1	-34.7	9.7	1.23e-02	0	42	0	33554432	21	6070
2026-01-26 11:23:21.76	195.44	8.61	-30.0	-34.4	9.8	1.02e-02	0	42	0	35651584	21	5936
2026-01-26 11:23:22.77	195.52	8.69	-30.0	-34.3	9.8	9.36e-03	0	42	0	36700160	21	5900
2026-01-26 11:23:23.77	195.59	8.76	-30.1	-34.5	9.7	9.45e-03	0	42	0	38797312	21	5970
2026-01-26 11:23:24.78	195.66	8.84	-29.8	-34.2	10.0	9.15e-03	0	42	0	40894464	20	5986
2026-01-26 11:23:25.79	195.73	8.91	-29.7	-34.4	9.4	1.29e-02	0	42	0	42991616	20	6187
2026-01-26 11:23:26.79	195.81	8.99	-29.7	-34.1	9.7	1.41e-02	0	42	0	45088768	20	6028
2026-01-26 11:23:27.79	195.88	9.07	-29.7	-34.4	9.5	1.20e-02	0	42	0	46137344	20	6180
2026-01-26 11:23:28.80	195.96	9.14	-29.6	-33.8	10.0	1.07e-02	0	42	0	48234496	20	5855
2026-01-26 11:23:29.80	196.03	9.22	-29.7	-34.1	9.9	8.07e-03	0	42	0	50331648	20	5963
2026-01-26 11:23:30.80	196.10	9.30	-29.8	-34.6	9.6	1.18e-02	0	42	0	52428800	20	6202
2026-01-26 11:23:31.81	196.18	9.38	-29.7	-34.0	9.8	9.80e-03	0	42	0	54525952	20	5961
2026-01-26 11:23:32.81	196.25	9.45	-29.3	-34.0	9.4	1.14e-02	0	42	0	55574528	19	6236
2026-01-26 11:23:33.80	196.33	9.53	-29.0	-33.8	9.0	2.26e-02	0	42	0	57671680	19	6220
2026-01-26 11:23:34.80	196.40	9.61	-28.8	-33.9	8.8	2.70e-02	0	42	0	59768832	18	6520
2026-01-26 11:23:35.80	196.48	9.69	-27.9	-33.4	7.8	4.86e-02	0	42	0	61865984	17	6793
2026-01-26 11:23:36.80	196.56	9.76	-26.9	-33.0	6.9	9.95e-02	0	42	0	62914560	15	7317
2026-01-26 11:23:37.81	196.63	9.84	-26.0	-33.0	6.2	2.62e-01	0	42	0	65011712	13	8005
2026-01-26 11:23:38.81	196.71	9.92	-25.3	-32.5	5.8	3.61e-01	0	42	0	67108864	12	8269
2026-01-26 11:23:39.82	196.79	10.00	-24.9	-32.5	5.6	4.43e-01	0	42	0	69206016	11	8579
2026-01-26 11:23:40.82	196.87	10.08	-24.3	-32.2	5.2	5.11e-01	0	42	0	71303168	10	8975
2026-01-26 11:23:41.83	196.95	10.16	-23.6	-32.3	4.9	7.37e-01	0	42	0	72351744	8	9821
2026-01-26 11:23:42.83	197.03	10.24	-23.3	-31.9	4.8	8.23e-01	0	42	0	74448896	8	9638
2026-01-26 11:23:43.83	197.11	10.32	-23.4	-32.1	4.8	8.73e-01	0	42	0	76546048	8	9780
2026-01-26 11:23:44.83	197.19	10.40	-23.5	-32.1	4.8	7.97e-01	0	42	0	78643200	8	9705
2026-01-26 11:23:45.84	197.27	10.48	-23.6	-32.1	5.1	7.18e-01	0	42	0	80740352	8	9495
2026-01-26 11:23:46.84	197.35	10.56	-23.7	-32.2	5.0	6.91e-01	0	42	0	81788928	8	9654
2026-01-26 11:23:47.84	197.43	10.64	-24.3	-33.0	5.3	5.89e-01	0	43	0	83886080	8	9811
2026-01-26 11:23:48.84	197.51	10.72	-25.3	-33.1	6.0	3.90e-01	0	42	0	85983232	10	8886
2026-01-26 11:23:49.84	197.59	10.80	-25.6	-32.8	6.6	2.85e-01	0	43	0	88080384	11	8205
2026-01-26 11:23:50.84	197.68	10.88	-26.1	-33.0	6.7	2.13e-01	0	43	0	90177536	12	8023
2026-01-26 11:23:51.84	197.76	10.96	-26.9	-33.4	7.8	1.10e-01	0	42	0	91226112	13	7584
2026-01-26 11:23:52.84	197.84	11.04	-27.4	-33.4	8.3	6.32e-02	0	42	0	93323264	14	7223
2026-01-26 11:23:53.85	197.93	11.13	-27.9	-33.4	9.2	3.23e-02	0	43	0	95420416	15	6758
2026-01-26 11:23:54.85	198.01	11.21	-28.2	-33.3	9.6	1.25e-02	0	43	0	97517568	16	6442
2026-01-26 11:23:55.86	198.10	11.29	-28.4	-33.6	9.5	1.33e-02	0	43	0	99614720	16	6597
2026-01-26 11:23:56.86	198.18	11.37	-28.6	-33.3	10.1	8.17e-03	0	43	0	100663296	17	6180
2026-01-26 11:23:57.86	198.27	11.46	-28.7	-33.2	10.7	5.25e-03	0	43	0	102760448	17	6043
2026-01-26 11:23:58.87	198.35	11.54	-28.8	-33.3	10.7	2.82e-03	0	43	0	104857600	17	6068
2026-01-26 11:23:59.87	198.44	11.62	-28.8	-33.5	10.7	3.09e-03	0	42	0	106954752	17	6137
2026-01-26 11:24:00.87	198.53	11.71	-28.9	-33.5	10.7	3.32e-03	0	43	0	108003328	17	6117
2026-01-26 11:24:01.87	198.61	11.79	-29.0	-33.3	11.0	2.42e-03	0	43	0	110100480	18	5841
2026-01-26 11:24:02.87	198.70	11.87	-29.1	-33.1	11.6	1.07e-03	0	43	0	112197632	18	5665
2026-01-26 11:24:03.86	198.79	11.96	-29.4	-33.6	11.8	5.23e-04	0	43	0	114294784	18	5843
2026-01-26 11:24:04.87	198.88	12.04	-29.4	-33.6	12.0	3.55e-04	0	43	0	116391936	18	5798
2026-01-26 11:24:05.88	198.97	12.13	-29.5	-33.2	11.9	4.37e-04	0	43	0	117440512	19	5506
2026-01-26 11:24:06.88	199.06	12.21	-29.6	-33.4	11.8	4.20e-04	0	43	0	119537664	19	5596
2026-01-26 11:24:07.88	199.15	12.30	-29.6	-33.3	12.2	4.16e-04	0	43	0	121634816	19	5500
2026-01-26 11:24:08.89	199.24	12.38	-29.6	-33.3	12.2	2.14e-04	0	43	0	123731968	19	5509
2026-01-26 11:24:09.89	199.33	12.47	-29.6	-33.3	12.2	2.16e-04	0	43	0	125829120	19	5502
2026-01-26 11:24:10.89	199.42	12.55	-29.6	-33.3	12.2	2.73e-04	0	43	0	126877696	19	5496
2026-01-26 11:24:11.90	199.52	12.64	-29.8	-34.0	11.8	3.64e-04	0	43	0	128974848	19	5781
2026-01-26 11:24:12.90	199.61	12.73	-29.7	-33.4	12.1	3.12e-04	0	43	0	131072000	19	5555
2026-01-26 11:24:13.90	199.70	12.81	-29.6	-33.4	12.1	2.41e-04	0	43	0	133169152	19	5534
2026-01-26 11:24:14.91	199.80	12.90	-29.6	-33.2	12.3	2.62e-04	0	43	0	135266304	19	5478
2026-01-26 11:24:15.91	199.89	12.99	-29.6	-33.2	12.5	1.76e-04	0	43	0	136314880	19	5428
2026-01-26 11:24:16.91	199.99	13.07	-29.5	-32.9	12.7	9.61e-05	0	43	0	138412032	19	5328
2026-01-26 11:24:17.92	200.08	13.16	-29.8	-33.6	12.2	1.62e-04	0	43	0	140509184	19	5629
2026-01-26 11:24:18.92	200.18	13.25	-29.7	-33.4	12.5	1.08e-04	0	43	0	142606336	19	5505
2026-01-26 11:24:19.92	200.28	13.34	-29.6	-33.0	13.0	6.63e-05	0	43	0	144703488	19	5303
2026-01-26 11:24:20.93	200.38	13.43	-29.7	-33.1	13.0	3.89e-05	0	43	0	145752064	19	5331
2026-01-26 11:24:21.93	200.47	13.51	-29.7	-33.2	13.0	2.97e-05	0	43	0	147849216	19	5350
2026-01-26 11:24:22.94	200.57	13.60	-29.8	-33.4	12.8	5.11e-05	0	43	0	149946368	19	5453
2026-01-26 11:24:23.94	200.67	13.69	-29.7	-33.1	13.1	5.11e-05	0	43	0	152043520	19	5304
2026-01-26 11:24:24.94	200.77	13.78	-29.7	-33.0	13.2	2.82e-05	0	43	0	153092096	19	5253
2026-01-26 11:24:25.94	200.87	13.87	-29.7	-33.1	13.1	2.74e-05	0	43	0	155189248	19	5300
2026-01-26 11:24:26.95	200.97	13.96	-29.7	-33.0	13.2	2.97e-05	0	43	0	157286400	19	5269
2026-01-26 11:24:27.95	201.07	14.05	-29.7	-32.9	13.2	2.67e-05	0	43	0	159383552	19	5217
2026-01-26 11:24:28.96	201.18	14.14	-29.7	-33.0	13.2	2.51e-05	0	43	0	161480704	19	5263
2026-01-26 11:24:29.96	201.28	14.23	-29.8	-33.2	13.0	2.82e-05	0	43	0	163577856	19	5338
2026-01-26 11:24:30.97	201.38	14.32	-29.9	-33.6	12.8	5.87e-05	0	43	0	164626432	19	5511
2026-01-26 11:24:31.98	201.49	14.41	-29.7	-33.1	13.1	4.19e-05	0	43	0	166723584	19	5309
2026-01-26 11:24:32.99	201.59	14.51	-29.6	-32.6	13.4	1.60e-05	0	43	0	168820736	19	5123
2026-01-26 11:24:33.99	201.70	14.60	-29.5	-32.5	13.6	1.67e-05	0	43	0	170917888	19	5069
2026-01-26 11:24:34.99	201.80	14.69	-29.6	-32.7	13.5	4.50e-06	0	43	0	173015040	19	5152
2026-01-26 11:24:35.99	201.91	14.78	-29.5	-32.4	13.7	7.60e-06	0	43	0	174063616	19	5027
2026-01-26 11:24:36.99	202.02	14.87	-29.6	-32.6	13.6	3.80e-06	0	43	0	176160768	19	5089
2026-01-26 11:24:37.99	202.12	14.97	-29.6	-32.6	13.6	6.10e-06	0	43	0	178257920	19	5096
2026-01-26 11:24:38.99	202.23	15.06	-29.7	-33.0	13.4	1.37e-05	0	43	0	180355072	19	5251
2026-01-26 11:24:39.99	202.34	15.15	-29.6	-32.8	13.5	1.52e-05	0	43	0	181403648	19	5174
2026-01-26 11:24:40.99	202.45	15.24	-29.7	-33.0	13.3	9.10e-06	0	43	0	183500800	19	5271
2026-01-26 11:24:41.99	202.56	15.34	-29.6	-32.7	13.5	2.13e-05	0	43	0	185597952	19	5127
2026-01-26 11:24:43.00	202.67	15.43	-29.6	-32.6	13.6	7.60e-06	0	43	0	187695104	19	5105
2026-01-26 11:24:44.00	202.78	15.53	-29.6	-32.6	13.7	6.10e-06	0	43	0	189792256	19	5093
2026-01-26 11:24:45.01	202.90	15.62	-29.7	-32.8	13.6	1.52e-05	0	43	0	190840832	19	5159
2026-01-26 11:24:46.01	203.01	15.72	-29.7	-32.8	13.6	1.22e-05	0	43	0	192937984	19	5146
2026-01-26 11:24:47.01	203.12	15.81	-29.7	-32.9	13.6	1.37e-05	0	43	0	195035136	19	5181
2026-01-26 11:24:48.02	203.24	15.91	-29.8	-33.0	13.5	8.30e-06	0	43	0	197132288	19	5223
2026-01-26 11:24:49.02	203.35	16.00	-29.9	-33.4	13.3	2.05e-05	0	43	0	199229440	19	5364
2026-01-26 11:24:50.02	203.47	16.10	-29.8	-33.0	13.6	1.14e-05	0	43	0	200278016	19	5220
2026-01-26 11:24:51.02	203.58	16.19	-29.7	-32.9	13.7	9.10e-06	0	43	0	202375168	19	5170
2026-01-26 11:24:52.02	203.70	16.29	-29.8	-33.1	13.5	9.10e-06	0	43	0	204472320	19	5257
2026-01-26 11:24:53.02	203.82	16.38	-29.8	-32.9	13.6	6.10e-06	0	43	0	206569472	19	5192
2026-01-26 11:24:54.03	203.94	16.48	-29.8	-33.2	13.5	6.80e-06	0	43	0	208666624	19	5296
2026-01-26 11:24:55.03	204.06	16.58	-29.8	-33.1	13.5	1.29e-05	0	43	0	209715200	19	5246
2026-01-26 11:24:56.04	204.18	16.68	-29.8	-32.9	13.6	1.06e-05	0	43	0	211812352	19	5194
2026-01-26 11:24:57.04	204.30	16.77	-29.8	-33.2	13.5	3.80e-06	0	43	0	213909504	19	5280
2026-01-26 11:24:58.04	204.42	16.87	-29.8	-33.1	13.6	6.80e-06	0	43	0	216006656	19	5252
2026-01-26 11:24:59.04	204.54	16.97	-30.0	-33.5	13.3	1.83e-05	0	43	0	218103808	19	5399
2026-01-26 11:25:00.05	204.67	17.07	-29.8	-33.1	13.6	8.30e-06	0	43	0	219152384	19	5231
2026-01-26 11:25:01.05	204.79	17.17	-29.8	-33.1	13.6	3.80e-06	0	43	0	221249536	19	5257
2026-01-26 11:25:02.05	204.91	17.27	-29.9	-33.2	13.5	1.06e-05	0	43	0	223346688	19	5284
2026-01-26 11:25:03.06	205.04	17.37	-29.8	-33.1	13.6	2.20e-06	0	43	0	225443840	19	5264
2026-01-26 11:25:04.06	205.17	17.47	-29.9	-33.2	13.5	1.06e-05	0	43	0	226492416	19	5295
2026-01-26 11:25:05.06	205.29	17.56	-29.9	-33.3	13.5	1.06e-05	0	43	0	228589568	19	5324
2026-01-26 11:25:06.07	205.42	17.67	-29.8	-33.1	13.6	1.22e-05	0	43	0	230686720	19	5233
2026-01-26 11:25:07.07	205.55	17.77	-30.0	-33.0	13.3	1.14e-05	0	43	0	232783872	20	5101
2026-01-26 11:25:08.07	205.68	17.87	-29.9	-32.8	13.4	1.44e-05	0	43	0	234881024	20	5036
2026-01-26 11:25:09.08	205.81	17.97	-30.0	-33.1	13.2	1.98e-05	0	43	0	235929600	20	5146
2026-01-26 11:25:10.08	205.94	18.07	-30.0	-33.0	13.3	1.98e-05	0	43	0	238026752	20	5109
2026-01-26 11:25:11.08	206.08	18.17	-30.0	-33.1	13.3	2.13e-05	0	43	0	240123904	20	5136
2026-01-26 11:25:12.08	206.21	18.27	-30.0	-33.1	13.2	2.05e-05	0	43	0	242221056	20	5162
2026-01-26 11:25:13.08	206.34	18.37	-30.1	-33.4	13.1	2.97e-05	0	43	0	244318208	20	5245
2026-01-26 11:25:14.09	206.48	18.48	-30.1	-33.3	13.2	2.59e-05	0	43	0	245366784	20	5199
2026-01-26 11:25:15.09	206.61	18.58	-30.1	-33.2	13.2	2.44e-05	0	43	0	247463936	20	5183
2026-01-26 11:25:16.09	206.75	18.68	-30.1	-33.5	13.0	2.82e-05	0	44	0	249561088	20	5289
2026-01-26 11:25:17.08	206.89	18.78	-30.2	-33.7	12.9	4.19e-05	0	43	0	251658240	20	5354
2026-01-26 11:25:18.09	207.02	18.89	-30.1	-33.4	13.1	3.05e-05	0	43	0	253755392	20	5257
2026-01-26 11:25:19.08	207.16	18.99	-30.2	-33.6	12.9	2.44e-05	0	43	0	254803968	20	5353
2026-01-26 11:25:20.09	207.30	19.09	-30.1	-33.4	13.1	4.11e-05	0	43	0	256901120	20	5247
2026-01-26 11:25:21.08	207.44	19.20	-30.2	-33.6	13.0	4.42e-05	0	43	0	258998272	20	5327
2026-01-26 11:25:22.09	207.59	19.30	-30.3	-33.8	12.8	5.18e-05	0	43	0	261095424	20	5444
2026-01-26 11:25:23.09	207.73	19.41	-30.2	-33.6	13.0	5.64e-05	0	43	0	263192576	20	5355
2026-01-26 11:25:24.10	207.87	19.51	-30.3	-34.1	12.6	8.16e-05	0	43	0	264241152	20	5541
2026-01-26 11:25:25.10	208.02	19.62	-30.4	-34.4	12.4	1.18e-04	0	43	0	266338304	20	5670
2026-01-26 11:25:26.10	208.16	19.72	-30.4	-34.3	12.5	1.03e-04	0	43	0	268435456	20	5650
2026-01-26 11:25:27.10	208.31	19.83	-30.5	-34.2	12.3	1.54e-04	0	43	0	270532608	21	5461
2026-01-26 11:25:28.11	208.46	19.93	-30.7	-34.7	11.9	2.80e-04	0	43	0	272629760	21	5669
2026-01-26 11:25:29.11	208.61	20.04	-31.0	-35.4	11.4	6.51e-04	0	43	0	273678336	21	6002
2026-01-26 11:25:30.11	208.76	20.15	-30.9	-35.1	11.7	5.78e-04	0	43	0	275775488	21	5841
2026-01-26 11:25:31.11	208.91	20.25	-31.0	-35.1	11.3	9.83e-04	0	43	0	277872640	22	5754
2026-01-26 11:25:32.11	209.06	20.36	-31.2	-35.7	10.8	1.85e-03	0	43	0	279969792	22	6037
2026-01-26 11:25:33.11	209.21	20.47	-31.0	-34.9	11.5	1.62e-03	0	43	0	281018368	22	5633
2026-01-26 11:25:34.12	209.37	20.57	-30.8	-34.4	11.8	5.84e-04	0	43	0	283115520	22	5452
2026-01-26 11:25:35.13	209.52	20.68	-30.6	-33.8	12.2	3.01e-04	0	43	0	285212672	22	5217
2026-01-26 11:25:36.14	209.68	20.79	-30.5	-33.3	12.5	1.65e-04	0	43	0	287309824	22	5021
2026-01-26 11:25:37.14	209.84	20.90	-30.4	-33.2	12.6	1.28e-04	0	43	0	289406976	22	4983
2026-01-26 11:25:38.15	210.00	21.01	-30.4	-33.2	12.6	9.68e-05	0	43	0	290455552	22	4961
2026-01-26 11:25:39.14	210.15	21.12	-30.3	-33.4	12.9	6.33e-05	0	44	0	292552704	21	5134
2026-01-26 11:25:40.14	210.31	21.23	-30.3	-33.4	12.8	6.02e-05	0	43	0	294649856	21	5158
2026-01-26 11:25:41.14	210.47	21.34	-30.2	-33.1	13.1	4.57e-05	0	43	0	296747008	21	5022
2026-01-26 11:25:42.14	210.64	21.44	-30.1	-32.8	13.2	2.74e-05	0	43	0	298844160	21	4922
2026-01-26 11:25:43.15	210.80	21.56	-30.1	-32.8	13.3	1.44e-05	0	43	0	299892736	21	4917
2026-01-26 11:25:44.15	210.97	21.67	-30.1	-32.9	13.3	2.67e-05	0	44	0	301989888	21	4925
2026-01-26 11:25:45.15	211.13	21.78	-30.1	-32.7	13.3	9.90e-06	0	43	0	304087040	21	4878
2026-01-26 11:25:46.16	211.30	21.89	-30.1	-32.9	13.2	1.67e-05	0	43	0	306184192	21	4929
2026-01-26 11:25:47.16	211.47	22.00	-30.1	-32.9	13.2	2.97e-05	0	43	0	308281344	21	4940
2026-01-26 11:25:48.16	211.64	22.11	-30.1	-32.7	13.3	1.83e-05	0	43	0	309329920	21	4890
2026-01-26 11:25:49.17	211.81	22.22	-30.0	-32.5	13.5	1.52e-05	0	43	0	311427072	21	4798
2026-01-26 11:25:50.17	211.98	22.33	-30.0	-32.5	13.5	9.90e-06	0	43	0	313524224	21	4789
2026-01-26 11:25:51.17	212.15	22.44	-30.1	-32.7	13.4	1.14e-05	0	43	0	315621376	21	4888
2026-01-26 11:25:52.17	212.33	22.55	-30.0	-32.4	13.6	1.29e-05	0	44	0	317718528	21	4776
2026-01-26 11:25:53.17	212.50	22.67	-30.0	-32.5	13.5	1.29e-05	0	43	0	318767104	21	4808
2026-01-26 11:25:54.18	212.68	22.78	-30.1	-32.7	13.3	1.83e-05	0	43	0	320864256	21	4882
2026-01-26 11:25:55.18	212.86	22.89	-30.1	-32.8	13.4	1.14e-05	0	43	0	322961408	21	4882
2026-01-26 11:25:56.19	213.04	23.01	-30.2	-32.9	13.3	1.44e-05	0	44	0	325058560	21	4930
2026-01-26 11:25:57.19	213.22	23.12	-30.3	-33.2	13.1	3.73e-05	0	44	0	327155712	21	5050
2026-01-26 11:25:58.19	213.40	23.23	-30.1	-32.7	13.4	1.14e-05	0	43	0	328204288	21	4873
2026-01-26 11:25:59.20	213.58	23.35	-30.1	-32.7	13.5	1.14e-05	0	44	0	330301440	21	4861
2026-01-26 11:26:00.20	213.77	23.46	-30.1	-32.9	13.3	1.14e-05	0	43	0	332398592	21	4931
2026-01-26 11:26:01.20	213.95	23.57	-30.2	-33.1	13.1	2.36e-05	0	44	0	334495744	21	5028
2026-01-26 11:26:02.20	214.14	23.69	-30.0	-32.4	13.6	8.30e-06	0	43	0	335544320	21	4761
2026-01-26 11:26:03.21	214.33	23.80	-29.9	-32.2	13.8	3.80e-06	0	44	0	337641472	21	4681
2026-01-26 11:26:04.21	214.52	23.92	-29.8	-32.0	13.9	3.00e-06	0	43	0	339738624	21	4633
2026-01-26 11:26:05.22	214.71	24.03	-29.9	-32.1	13.8	3.80e-06	0	43	0	341835776	21	4663
2026-01-26 11:26:06.22	214.90	24.15	-29.7	-32.3	14.0	3.00e-06	0	43	0	343932928	20	4819
2026-01-26 11:26:07.22	215.10	24.26	-29.7	-32.1	14.1	2.20e-06	0	44	0	344981504	20	4769
2026-01-26 11:26:08.22	215.29	24.38	-29.8	-32.4	14.0	3.80e-06	0	43	0	347078656	20	4851
2026-01-26 11:26:09.22	215.49	24.49	-29.7	-32.0	14.2	7.00e-07	0	44	0	349175808	20	4735
2026-01-26 11:26:10.22	215.69	24.61	-29.6	-31.9	14.3	3.00e-06	0	44	0	351272960	20	4699
2026-01-26 11:26:11.22	215.88	24.72	-29.6	-31.9	14.3	7.00e-07	0	44	0	353370112	20	4702
2026-01-26 11:26:12.23	216.09	24.84	-29.7	-32.0	14.2	1.50e-06	0	43	0	354418688	20	4730
2026-01-26 11:26:13.23	216.29	24.95	-29.6	-31.9	14.3	1.50e-06	0	44	0	356515840	20	4686
2026-01-26 11:26:14.23	216.49	25.07	-29.6	-31.9	14.3	1.50e-06	0	43	0	358612992	20	4699
2026-01-26 11:26:15.23	216.70	25.18	-29.7	-32.0	14.3	7.00e-07	0	44	0	360710144	20	4733
2026-01-26 11:26:16.23	216.90	25.30	-29.7	-32.2	14.1	0.00e+00	0	43	0	362807296	20	4788
2026-01-26 11:26:17.24	217.11	25.42	-29.5	-31.6	14.5	7.00e-07	0	43	0	363855872	20	4600
2026-01-26 11:26:18.24	217.32	25.53	-29.6	-31.8	14.4	0.00e+00	0	43	0	365953024	20	4642
2026-01-26 11:26:19.25	217.53	25.65	-29.5	-31.7	14.5	7.00e-07	0	44	0	368050176	20	4620
2026-01-26 11:26:20.26	217.75	25.77	-29.5	-31.7	14.4	7.00e-07	0	44	0	370147328	20	4619
2026-01-26 11:26:21.26	217.96	25.89	-29.4	-31.4	14.6	0.00e+00	0	43	0	372244480	20	4531
2026-01-26 11:26:22.26	218.18	26.00	-29.5	-31.5	14.6	0.00e+00	0	44	0	373293056	20	4557
2026-01-26 11:26:23.27	218.40	26.12	-29.5	-31.6	14.6	7.00e-07	0	44	0	375390208	20	4577
2026-01-26 11:26:24.28	218.62	26.24	-29.6	-31.7	14.5	0.00e+00	0	43	0	377487360	20	4634
2026-01-26 11:26:25.28	218.84	26.36	-29.6	-31.8	14.4	3.00e-06	0	44	0	379584512	20	4656
2026-01-26 11:26:26.29	219.06	26.47	-29.7	-32.0	14.3	3.00e-06	0	43	0	380633088	20	4727
2026-01-26 11:26:27.29	219.28	26.59	-29.7	-32.2	14.2	3.80e-06	0	44	0	382730240	20	4771
2026-01-26 11:26:28.29	219.51	26.71	-29.6	-31.9	14.3	7.00e-07	0	44	0	384827392	20	4699
2026-01-26 11:26:29.30	219.74	26.83	-29.7	-32.2	14.2	0.00e+00	0	44	0	386924544	20	4779
2026-01-26 11:26:30.30	219.97	26.94	-29.7	-32.2	14.2	1.50e-06	0	44	0	389021696	20	4795
2026-01-26 11:26:31.30	220.20	27.06	-29.7	-32.2	14.2	2.20e-06	0	44	0	391118848	20	4781
2026-01-26 11:26:32.30	220.43	27.18	-29.8	-32.3	14.1	2.20e-06	0	43	0	392167424	20	4825
2026-01-26 11:26:33.31	220.66	27.30	-29.8	-32.4	14.1	2.20e-06	0	43	0	394264576	20	4855
2026-01-26 11:26:34.31	220.90	27.41	-29.7	-32.1	14.3	3.80e-06	0	44	0	396361728	20	4746
2026-01-26 11:26:35.31	221.13	27.53	-29.8	-32.3	14.1	1.50e-06	0	44	0	398458880	20	4832
2026-01-26 11:26:36.31	221.37	27.65	-29.8	-32.3	14.1	0.00e+00	0	44	0	399507456	20	4828
2026-01-26 11:26:37.31	221.61	27.76	-29.9	-32.7	13.9	3.00e-06	0	44	0	401604608	20	4948
2026-01-26 11:26:38.31	221.85	27.88	-29.9	-32.7	13.9	7.00e-07	0	44	0	403701760	20	4963
2026-01-26 11:26:39.32	222.10	28.00	-30.0	-33.0	13.6	3.00e-06	0	44	0	405798912	20	5083
2026-01-26 11:26:40.32	222.34	28.12	-30.0	-33.0	13.6	1.14e-05	0	44	0	407896064	20	5089
2026-01-26 11:26:41.33	222.59	28.23	-30.1	-33.1	13.6	8.30e-06	0	44	0	408944640	20	5126
2026-01-26 11:26:42.34	222.84	28.35	-30.1	-33.1	13.6	6.10e-06	0	44	0	411041792	20	5105
2026-01-26 11:26:43.34	223.10	28.47	-29.9	-32.7	13.9	3.80e-06	0	44	0	413138944	20	4962
2026-01-26 11:26:44.34	223.35	28.59	-30.0	-32.9	13.8	4.50e-06	0	44	0	415236096	20	5028
2026-01-26 11:26:45.34	223.60	28.70	-30.1	-33.3	13.5	1.37e-05	0	44	0	417333248	20	5161
2026-01-26 11:26:46.34	223.86	28.82	-30.2	-33.4	13.5	7.60e-06	0	44	0	418381824	20	5202
2026-01-26 11:26:47.33	224.11	28.93	-30.5	-34.3	12.8	2.51e-05	0	44	0	420478976	20	5566
2026-01-26 11:26:48.33	224.37	29.05	-30.5	-33.9	12.8	3.81e-05	0	44	0	422576128	21	5290
2026-01-26 11:26:49.33	224.63	29.17	-30.8	-34.6	12.3	1.58e-04	0	43	0	424673280	21	5585
2026-01-26 11:26:50.34	224.90	29.28	-30.8	-34.7	12.2	1.34e-04	0	44	0	425721856	21	5636
2026-01-26 11:26:51.34	225.16	29.40	-30.8	-34.8	12.1	2.65e-04	0	44	0	427819008	21	5696
2026-01-26 11:26:52.34	225.43	29.52	-30.8	-34.7	12.3	2.00e-04	0	44	0	429916160	21	5620
2026-01-26 11:26:53.34	225.70	29.63	-30.8	-34.8	12.2	2.19e-04	0	44	0	432013312	21	5677
2026-01-26 11:26:54.34	225.97	29.75	-30.9	-35.0	12.1	3.07e-04	0	44	0	434110464	21	5749
2026-01-26 11:26:55.34	226.24	29.86	-31.0	-34.9	11.9	4.03e-04	0	44	0	435159040	22	5590
2026-01-26 11:26:56.34	226.52	29.98	-31.2	-35.3	11.6	7.23e-04	0	44	0	437256192	22	5773
2026-01-26 11:26:57.33	226.79	30.09	-31.2	-35.4	11.5	6.96e-04	0	44	0	439353344	22	5822
2026-01-26 11:26:58.33	227.07	30.20	-31.2	-35.2	11.6	8.53e-04	0	44	0	441450496	22	5734
2026-01-26 11:26:59.34	227.35	30.32	-31.0	-34.8	11.9	5.96e-04	0	44	0	443547648	22	5563
2026-01-26 11:27:00.35	227.64	30.43	-31.0	-34.8	11.9	4.45e-04	0	44	0	444596224	22	5539
2026-01-26 11:27:01.35	227.92	30.55	-31.1	-35.1	11.6	4.15e-04	0	43	0	446693376	22	5701
2026-01-26 11:27:02.35	228.21	30.66	-31.3	-35.7	11.2	1.49e-03	0	44	0	448790528	22	5977
2026-01-26 11:27:03.35	228.50	30.77	-31.5	-36.3	10.9	1.45e-03	0	44	0	450887680	22	6260
2026-01-26 11:27:04.36	228.79	30.88	-31.8	-36.8	10.0	4.55e-03	0	44	0	452984832	23	6442
2026-01-26 11:27:05.36	229.08	31.00	-31.9	-37.3	9.7	8.32e-03	0	44	0	454033408	23	6678
2026-01-26 11:27:06.36	229.37	31.11	-32.1	-37.4	9.3	1.62e-02	0	44	0	456130560	24	6639
2026-01-26 11:27:07.37	229.67	31.22	-32.2	-37.9	8.8	2.40e-02	0	44	0	458227712	24	6955
2026-01-26 11:27:08.38	229.97	31.33	-32.3	-38.2	8.6	3.60e-02	0	44	0	460324864	24	7102
2026-01-26 11:27:09.38	230.27	31.44	-32.3	-38.3	8.6	3.91e-02	0	44	0	462422016	24	7186
2026-01-26 11:27:10.39	230.58	31.55	-32.4	-38.5	8.4	4.01e-02	0	44	0	463470592	24	7326
2026-01-26 11:27:11.39	230.88	31.66	-32.4	-38.6	8.3	4.53e-02	0	44	0	465567744	24	7398
2026-01-26 11:27:12.39	231.19	31.77	-32.3	-38.4	8.5	5.15e-02	0	44	0	467664896	24	7252
2026-01-26 11:27:13.39	231.50	31.88	-32.1	-37.6	9.1	2.88e-02	0	44	0	469762048	24	6758
2026-01-26 11:27:14.40	231.81	31.99	-31.9	-36.9	9.6	1.74e-02	0	44	0	471859200	24	6374
2026-01-26 11:27:15.40	232.12	32.10	-32.0	-37.1	9.5	1.33e-02	0	44	0	472907776	24	6448
2026-01-26 11:27:16.40	232.44	32.20	-32.0	-37.2	9.5	1.42e-02	0	44	0	475004928	24	6499
2026-01-26 11:27:17.40	232.75	32.31	-32.2	-37.9	9.0	2.12e-02	0	44	0	477102080	24	6899
2026-01-26 11:27:18.40	233.07	32.41	-32.3	-38.0	8.8	2.24e-02	0	43	0	479199232	24	6990
2026-01-26 11:27:19.40	233.39	32.52	-32.3	-38.1	8.8	3.34e-02	0	44	0	481296384	24	7005
2026-01-26 11:27:20.41	233.72	32.63	-32.2	-37.6	9.2	2.56e-02	0	44	0	482344960	24	6704
2026-01-26 11:27:21.41	234.04	32.73	-32.1	-37.2	9.5	1.69e-02	0	44	0	484442112	24	6512
2026-01-26 11:27:22.41	234.37	32.83	-32.0	-36.8	9.8	1.22e-02	0	44	0	486539264	24	6284
2026-01-26 11:27:23.42	234.70	32.94	-32.0	-36.8	9.8	9.37e-03	0	44	0	488636416	24	6269
2026-01-26 11:27:24.42	235.03	33.04	-32.0	-36.8	9.9	8.36e-03	0	44	0	489684992	24	6248
2026-01-26 11:27:25.43	235.37	33.14	-32.0	-36.9	9.7	1.04e-02	0	44	0	491782144	24	6311
2026-01-26 11:27:26.43	235.70	33.24	-31.9	-36.5	10.1	7.91e-03	0	43	0	493879296	24	6112
2026-01-26 11:27:27.43	236.04	33.34	-31.9	-36.5	10.1	6.70e-03	0	44	0	495976448	24	6094
2026-01-26 11:27:28.44	236.38	33.44	-31.9	-36.3	10.2	5.88e-03	0	44	0	498073600	24	6004
2026-01-26 11:27:29.44	236.72	33.54	-31.8	-36.2	10.3	6.10e-03	0	44	0	499122176	24	5972
2026-01-26 11:27:30.45	237.07	33.64	-31.7	-35.8	10.6	3.94e-03	0	44	0	501219328	24	5741
2026-01-26 11:27:31.45	237.41	33.73	-31.7	-35.9	10.5	3.48e-03	0	44	0	503316480	24	5815
2026-01-26 11:27:32.46	237.76	33.83	-31.7	-35.9	10.5	3.62e-03	0	44	0	505413632	24	5823
2026-01-26 11:27:33.45	238.11	33.92	-31.8	-36.2	10.3	5.73e-03	0	44	0	507510784	24	5943
2026-01-26 11:27:34.46	238.46	34.02	-31.8	-36.2	10.3	5.27e-03	0	44	0	508559360	24	5966
2026-01-26 11:27:35.46	238.81	34.11	-31.9	-36.5	10.1	6.34e-03	0	44	0	510656512	24	6123
2026-01-26 11:27:36.46	239.17	34.20	-31.8	-36.1	10.4	4.86e-03	0	44	0	512753664	24	5895
2026-01-26 11:27:37.46	239.52	34.29	-31.6	-35.5	10.9	3.46e-03	0	44	0	514850816	24	5625
2026-01-26 11:27:38.46	239.88	34.38	-31.5	-35.2	11.1	1.98e-03	0	44	0	516947968	24	5468
2026-01-26 11:27:39.47	240.25	34.47	-31.5	-35.2	11.1	1.91e-03	0	44	0	517996544	24	5487
2026-01-26 11:27:40.46	240.61	34.56	-31.6	-35.3	11.0	1.30e-03	0	44	0	520093696	24	5522
2026-01-26 11:27:41.47	240.97	34.65	-31.7	-35.8	10.6	3.10e-03	0	43	0	522190848	24	5757
2026-01-26 11:27:42.46	241.34	34.73	-31.6	-35.5	10.9	2.11e-03	0	44	0	524288000	24	5595
2026-01-26 11:27:43.46	241.70	34.82	-31.5	-35.1	11.2	1.48e-03	0	44	0	526385152	24	5422
2026-01-26 11:27:44.47	242.08	34.90	-31.3	-34.6	11.5	9.97e-04	0	44	0	527433728	24	5229
2026-01-26 11:27:45.46	242.45	34.99	-31.3	-34.8	11.7	7.05e-04	0	44	0	529530880	23	5391
2026-01-26 11:27:46.47	242.82	35.07	-31.1	-34.2	12.2	3.39e-04	0	44	0	531628032	23	5150
2026-01-26 11:27:47.47	243.20	35.15	-30.8	-33.5	12.7	1.53e-04	0	44	0	533725184	23	4897
2026-01-26 11:27:48.48	243.58	35.23	-30.6	-33.2	13.2	3.81e-05	0	44	0	534773760	22	4884
2026-01-26 11:27:49.48	243.96	35.31	-30.4	-32.7	13.5	1.14e-05	0	44	0	536870912	22	4712
2026-01-26 11:27:50.48	244.34	35.38	-30.4	-32.6	13.5	1.22e-05	0	44	0	538968064	22	4676
2026-01-26 11:27:51.48	244.72	35.46	-30.5	-33.0	13.3	8.30e-06	0	44	0	541065216	22	4821
2026-01-26 11:27:52.49	245.11	35.54	-30.5	-33.1	13.3	2.28e-05	0	44	0	543162368	22	4856
2026-01-26 11:27:53.49	245.50	35.61	-30.5	-33.0	13.3	1.90e-05	0	44	0	545259520	22	4815
2026-01-26 11:27:54.49	245.88	35.68	-30.6	-33.2	13.2	1.37e-05	0	44	0	546308096	22	4885
2026-01-26 11:27:55.49	246.27	35.75	-30.6	-33.4	13.1	2.13e-05	0	44	0	548405248	22	4954
2026-01-26 11:27:56.50	246.67	35.82	-30.5	-33.0	13.4	2.13e-05	0	44	0	550502400	22	4795
2026-01-26 11:27:57.50	247.06	35.89	-30.4	-32.8	13.5	1.37e-05	0	44	0	552599552	22	4733
2026-01-26 11:27:58.51	247.46	35.96	-30.4	-32.7	13.5	1.37e-05	0	44	0	553648128	22	4709
2026-01-26 11:27:59.51	247.86	36.02	-30.5	-33.0	13.4	1.37e-05	0	44	0	555745280	22	4795
2026-01-26 11:28:00.51	248.25	36.09	-30.6	-33.3	13.2	1.90e-05	0	44	0	557842432	22	4936
2026-01-26 11:28:01.52	248.66	36.15	-30.7	-33.6	13.0	4.27e-05	0	44	0	559939584	22	5013
2026-01-26 11:28:02.52	249.06	36.21	-30.7	-33.5	13.0	3.50e-05	0	44	0	562036736	22	4993
2026-01-26 11:28:03.52	249.46	36.27	-30.8	-34.0	12.7	6.02e-05	0	44	0	563085312	22	5189
2026-01-26 11:28:04.52	249.86	36.33	-30.8	-33.8	12.8	1.04e-04	0	44	0	565182464	22	5092
2026-01-26 11:28:05.53	250.27	36.39	-30.7	-33.6	12.9	5.79e-05	0	44	0	567279616	22	5045
2026-01-26 11:28:06.53	250.68	36.44	-30.6	-33.5	13.0	5.49e-05	0	44	0	569376768	22	4996
2026-01-26 11:28:07.54	251.09	36.50	-30.7	-33.5	13.0	3.96e-05	0	44	0	571473920	22	4995
2026-01-26 11:28:08.54	251.50	36.55	-30.6	-33.4	13.0	4.65e-05	0	44	0	572522496	22	4970
2026-01-26 11:28:09.55	251.91	36.60	-30.6	-33.4	13.1	4.57e-05	0	44	0	574619648	22	4960
2026-01-26 11:28:10.55	252.32	36.65	-30.6	-33.4	13.0	1.60e-05	0	44	0	576716800	22	4962
2026-01-26 11:28:11.56	252.74	36.70	-30.7	-33.8	12.8	7.24e-05	0	44	0	578813952	22	5093
2026-01-26 11:28:12.56	253.15	36.74	-30.8	-33.8	12.8	5.11e-05	0	44	0	580911104	22	5131
2026-01-26 11:28:13.56	253.57	36.79	-30.9	-34.1	12.6	1.17e-04	0	44	0	581959680	22	5224
2026-01-26 11:28:14.56	253.99	36.83	-30.8	-33.8	12.8	7.70e-05	0	44	0	584056832	22	5119
2026-01-26 11:28:15.57	254.41	36.87	-30.8	-33.9	12.8	1.01e-04	0	44	0	586153984	22	5155
2026-01-26 11:28:16.57	254.83	36.91	-30.9	-34.1	12.6	8.01e-05	0	44	0	588251136	22	5220
2026-01-26 11:28:17.57	255.24	36.95	-31.2	-34.9	12.1	1.91e-04	0	44	0	590348288	22	5569
2026-01-26 11:28:18.57	255.66	36.99	-31.3	-35.4	11.6	5.14e-04	0	44	0	591396864	22	5787
2026-01-26 11:28:19.58	256.09	37.02	-31.6	-35.8	11.0	8.23e-04	0	44	0	593494016	23	5863
2026-01-26 11:28:20.58	256.51	37.06	-31.8	-36.4	10.5	3.73e-03	0	44	0	595591168	23	6133
2026-01-26 11:28:21.58	256.93	37.09	-31.7	-36.0	10.9	2.96e-03	0	44	0	597688320	23	5941
2026-01-26 11:28:22.58	257.36	37.12	-31.6	-35.9	10.9	2.29e-03	0	44	0	598736896	23	5900
2026-01-26 11:28:23.59	257.78	37.14	-31.5	-35.4	11.3	1.45e-03	0	44	0	600834048	23	5683
2026-01-26 11:28:24.59	258.21	37.17	-31.3	-34.7	11.7	7.50e-04	0	44	0	602931200	23	5380
2026-01-26 11:28:25.60	258.64	37.20	-31.2	-34.7	11.9	4.03e-04	0	44	0	605028352	23	5345
2026-01-26 11:28:26.60	259.06	37.22	-31.5	-35.3	11.4	7.55e-04	0	44	0	607125504	23	5627
2026-01-26 11:28:27.61	259.50	37.24	-31.6	-35.9	11.0	2.16e-03	0	44	0	608174080	23	5911
2026-01-26 11:28:28.61	259.92	37.26	-32.0	-37.1	10.1	3.19e-03	0	44	0	610271232	23	6519
2026-01-26 11:28:29.61	260.35	37.28	-32.1	-36.9	9.8	1.01e-02	0	44	0	612368384	24	6318
2026-01-26 11:28:30.62	260.78	37.29	-32.0	-36.7	10.0	8.73e-03	0	44	0	614465536	24	6202
2026-01-26 11:28:31.61	261.21	37.31	-32.0	-36.7	10.0	7.46e-03	0	44	0	616562688	24	6193
2026-01-26 11:28:32.62	261.64	37.32	-32.1	-37.0	9.8	8.53e-03	0	44	0	617611264	24	6331
2026-01-26 11:28:33.62	262.07	37.33	-32.1	-37.1	9.6	1.24e-02	0	44	0	619708416	24	6415
2026-01-26 11:28:34.62	262.50	37.34	-32.0	-36.7	10.1	8.60e-03	0	44	0	621805568	24	6169
2026-01-26 11:28:35.62	262.93	37.34	-31.9	-36.4	10.3	6.32e-03	0	44	0	623902720	24	6028
2026-01-26 11:28:36.62	263.36	37.35	-31.9	-36.5	10.1	5.86e-03	0	44	0	625999872	24	6075
2026-01-26 11:28:37.62	263.79	37.35	-32.0	-36.6	10.1	5.59e-03	0	44	0	627048448	24	6121
2026-01-26 11:28:38.62	264.21	37.35	-32.0	-36.8	10.0	9.09e-03	0	44	0	629145600	24	6242
2026-01-26 11:28:39.63	264.65	37.35	-32.2	-37.5	9.5	1.01e-02	0	44	0	631242752	24	6595
2026-01-26 11:28:40.63	265.08	37.35	-32.2	-37.3	9.5	1.65e-02	0	44	0	633339904	24	6505
2026-01-26 11:28:41.63	265.51	37.35	-31.9	-36.4	10.3	8.39e-03	0	43	0	635437056	24	6016
2026-01-26 11:28:42.64	265.94	37.34	-31.4	-34.8	11.4	2.88e-03	0	44	0	636485632	24	5284
2026-01-26 11:28:43.64	266.37	37.34	-30.9	-33.6	12.6	1.88e-04	0	44	0	638582784	23	4941
2026-01-26 11:28:44.64	266.80	37.33	-30.5	-32.9	13.4	2.21e-05	0	44	0	640679936	22	4782
2026-01-26 11:28:45.65	267.23	37.32	-30.5	-32.9	13.4	1.67e-05	0	44	0	642777088	22	4762
2026-01-26 11:28:46.65	267.66	37.30	-30.7	-33.6	13.0	1.83e-05	0	44	0	644874240	22	5016
2026-01-26 11:28:47.65	268.09	37.29	-31.1	-34.7	12.2	1.50e-04	0	44	0	645922816	22	5462
2026-01-26 11:28:48.65	268.52	37.27	-31.2	-35.0	12.0	3.60e-04	0	44	0	648019968	22	5585
2026-01-26 11:28:49.65	268.94	37.26	-30.9	-34.3	12.5	2.31e-04	0	44	0	650117120	22	5299
2026-01-26 11:28:50.65	269.37	37.24	-30.7	-33.6	12.9	6.71e-05	0	44	0	652214272	22	5043
2026-01-26 11:28:51.65	269.80	37.21	-30.6	-33.3	13.2	2.74e-05	0	44	0	653262848	22	4901
2026-01-26 11:28:52.65	270.22	37.19	-30.5	-32.9	13.4	1.90e-05	0	44	0	655360000	22	4771
2026-01-26 11:28:53.66	270.65	37.17	-30.4	-32.8	13.5	1.83e-05	0	44	0	657457152	22	4751
2026-01-26 11:28:54.66	271.08	37.14	-30.5	-33.0	13.4	9.10e-06	0	44	0	659554304	22	4796
2026-01-26 11:28:55.67	271.50	37.11	-30.9	-34.1	12.7	3.89e-05	0	44	0	661651456	22	5210
2026-01-26 11:28:56.67	271.93	37.08	-31.2	-35.0	12.1	1.50e-04	0	44	0	662700032	22	5563
2026-01-26 11:28:57.68	272.35	37.05	-31.2	-35.0	12.0	4.03e-04	0	44	0	664797184	22	5574
2026-01-26 11:28:58.68	272.77	37.02	-31.1	-34.7	12.2	3.07e-04	0	44	0	666894336	22	5438
2026-01-26 11:28:59.68	273.19	36.98	-31.1	-34.8	12.2	1.93e-04	0	44	0	668991488	22	5489
2026-01-26 11:29:00.67	273.61	36.95	-31.1	-34.6	12.3	2.37e-04	0	44	0	671088640	22	5422
2026-01-26 11:29:01.67	274.03	36.91	-31.0	-34.3	12.5	1.75e-04	0	44	0	672137216	22	5305
2026-01-26 11:29:02.67	274.44	36.87	-30.9	-34.1	12.6	1.05e-04	0	44	0	674234368	22	5213
2026-01-26 11:29:03.68	274.86	36.83	-30.9	-34.2	12.5	7.93e-05	0	44	0	676331520	22	5270
2026-01-26 11:29:04.69	275.28	36.78	-31.2	-35.2	11.9	3.04e-04	0	44	0	678428672	22	5667
2026-01-26 11:29:05.69	275.70	36.74	-31.5	-35.5	11.3	8.59e-04	0	44	0	680525824	23	5739
2026-01-26 11:29:06.70	276.11	36.69	-31.8	-36.3	10.7	1.75e-03	0	44	0	681574400	23	6100
2026-01-26 11:29:07.70	276.53	36.64	-31.9	-36.9	10.3	4.01e-03	0	44	0	683671552	23	6363
2026-01-26 11:29:08.70	276.94	36.59	-31.8	-36.5	10.5	4.64e-03	0	44	0	685768704	23	6188
2026-01-26 11:29:09.71	277.35	36.54	-31.6	-35.7	11.2	2.25e-03	0	44	0	687865856	23	5792
2026-01-26 11:29:10.72	277.76	36.49	-31.4	-35.3	11.5	8.46e-04	0	44	0	689963008	23	5597
2026-01-26 11:29:11.72	278.17	36.44	-31.4	-35.1	11.6	8.18e-04	0	44	0	691011584	23	5529
2026-01-26 11:29:12.73	278.58	36.38	-31.5	-35.5	11.3	7.41e-04	0	44	0	693108736	23	5677
2026-01-26 11:29:13.73	278.98	36.32	-31.6	-35.8	11.0	1.48e-03	0	44	0	695205888	23	5826
2026-01-26 11:29:14.74	279.39	36.26	-31.6	-35.9	11.0	1.81e-03	0	44	0	697303040	23	5892
2026-01-26 11:29:15.74	279.79	36.20	-31.6	-35.8	11.1	1.67e-03	0	44	0	699400192	23	5855
2026-01-26 11:29:16.74	280.19	36.14	-31.5	-35.3	11.4	1.18e-03	0	44	0	700448768	23	5627
2026-01-26 11:29:17.74	280.59	36.08	-31.6	-35.9	11.0	1.40e-03	0	44	0	702545920	23	5905
2026-01-26 11:29:18.73	280.98	36.02	-31.6	-35.8	11.1	1.63e-03	0	44	0	704643072	23	5841
2026-01-26 11:29:19.74	281.38	35.95	-31.4	-35.3	11.4	1.35e-03	0	44	0	706740224	23	5598
2026-01-26 11:29:20.74	281.77	35.88	-31.2	-34.6	12.0	5.97e-04	0	44	0	707788800	23	5307
2026-01-26 11:29:21.73	282.16	35.82	-30.9	-33.6	12.6	1.26e-04	0	44	0	709885952	23	4918
2026-01-26 11:29:22.74	282.55	35.75	-30.8	-33.4	12.7	8.01e-05	0	44	0	711983104	23	4837
2026-01-26 11:29:23.74	282.94	35.67	-30.8	-33.5	12.7	6.17e-05	0	44	0	714080256	23	4876
2026-01-26 11:29:24.74	283.33	35.60	-30.7	-33.5	13.0	5.03e-05	0	44	0	716177408	22	4996
2026-01-26 11:29:25.74	283.71	35.53	-30.8	-33.8	12.8	3.89e-05	0	44	0	717225984	22	5100
2026-01-26 11:29:26.75	284.10	35.45	-30.8	-33.7	12.9	8.16e-05	0	44	0	719323136	22	5075
2026-01-26 11:29:27.76	284.49	35.38	-30.5	-33.0	13.3	2.28e-05	0	44	0	721420288	22	4793
2026-01-26 11:29:28.77	284.87	35.30	-30.4	-32.8	13.5	6.10e-06	0	44	0	723517440	22	4723
2026-01-26 11:29:29.76	285.24	35.22	-30.4	-32.9	13.5	1.29e-05	0	44	0	725614592	22	4762
2026-01-26 11:29:30.77	285.62	35.14	-30.3	-32.6	13.6	1.44e-05	0	44	0	726663168	22	4658
2026-01-26 11:29:31.77	286.00	35.06	-30.2	-32.6	13.9	5.30e-06	0	44	0	728760320	21	4767
2026-01-26 11:29:32.77	286.37	34.98	-30.1	-32.4	14.0	3.80e-06	0	44	0	730857472	21	4695
2026-01-26 11:29:33.77	286.74	34.90	-29.9	-31.8	14.4	7.00e-07	0	44	0	732954624	21	4503
2026-01-26 11:29:34.78	287.11	34.81	-29.8	-32.2	14.5	0.00e+00	0	44	0	735051776	20	4719
2026-01-26 11:29:35.78	287.48	34.73	-30.0	-32.6	14.3	1.50e-06	0	44	0	736100352	20	4888
2026-01-26 11:29:36.79	287.85	34.64	-30.3	-33.6	13.6	5.30e-06	0	44	0	738197504	20	5237
2026-01-26 11:29:37.79	288.21	34.56	-30.7	-34.0	13.0	3.12e-05	0	44	0	740294656	21	5299
2026-01-26 11:29:38.79	288.57	34.47	-30.6	-33.8	13.2	4.57e-05	0	44	0	742391808	21	5200
2026-01-26 11:29:39.79	288.93	34.38	-30.3	-33.1	13.6	1.44e-05	0	44	0	744488960	21	4942
2026-01-26 11:29:40.79	289.29	34.29	-30.1	-32.5	14.0	4.50e-06	0	44	0	745537536	21	4735
2026-01-26 11:29:41.79	289.64	34.20	-30.4	-33.2	13.5	6.80e-06	0	44	0	747634688	21	4978
2026-01-26 11:29:42.79	290.00	34.11	-30.5	-33.5	13.3	1.37e-05	0	44	0	749731840	21	5109
2026-01-26 11:29:43.80	290.35	34.01	-30.6	-33.8	13.2	2.59e-05	0	44	0	751828992	21	5212
2026-01-26 11:29:44.80	290.70	33.92	-30.6	-33.8	13.1	2.89e-05	0	44	0	753926144	21	5195
2026-01-26 11:29:45.80	291.05	33.82	-30.3	-33.0	13.7	1.83e-05	0	44	0	754974720	21	4908
2026-01-26 11:29:46.81	291.40	33.73	-30.0	-32.3	14.1	3.80e-06	0	44	0	757071872	21	4660
2026-01-26 11:29:47.81	291.74	33.63	-30.0	-32.1	14.3	0.00e+00	0	44	0	759169024	21	4585
2026-01-26 11:29:48.82	292.08	33.53	-30.3	-33.1	13.6	3.80e-06	0	44	0	761266176	21	4951
2026-01-26 11:29:49.82	292.42	33.44	-30.8	-34.3	12.9	2.21e-05	0	44	0	762314752	21	5391
2026-01-26 11:29:50.82	292.76	33.34	-31.2	-35.0	12.0	1.11e-04	0	44	0	764411904	22	5583
2026-01-26 11:29:51.82	293.10	33.24	-31.0	-34.6	12.3	2.25e-04	0	44	0	766509056	22	5411
2026-01-26 11:29:52.82	293.43	33.14	-30.8	-33.8	12.8	1.04e-04	0	44	0	768606208	22	5105
2026-01-26 11:29:53.83	293.76	33.04	-30.7	-33.6	12.9	4.04e-05	0	44	0	770703360	22	5015
2026-01-26 11:29:54.83	294.09	32.94	-31.0	-34.3	12.5	4.42e-05	0	44	0	771751936	22	5311
2026-01-26 11:29:55.84	294.42	32.83	-31.4	-35.5	11.7	3.43e-04	0	44	0	773849088	22	5805
2026-01-26 11:29:56.84	294.75	32.73	-31.8	-36.6	10.5	1.62e-03	0	44	0	775946240	23	6237
2026-01-26 11:29:57.84	295.07	32.63	-32.1	-36.9	9.9	7.04e-03	0	44	0	778043392	24	6274
2026-01-26 11:29:58.84	295.39	32.52	-31.8	-36.0	10.6	5.07e-03	0	44	0	780140544	24	5819
2026-01-26 11:29:59.85	295.71	32.42	-31.4	-34.6	11.6	1.38e-03	0	44	0	781189120	24	5214
2026-01-26 11:30:00.85	296.03	32.31	-31.1	-34.2	12.2	3.23e-04	0	44	0	783286272	23	5132
2026-01-26 11:30:01.86	296.35	32.21	-31.1	-34.3	12.1	2.17e-04	0	44	0	785383424	23	5205
2026-01-26 11:30:02.86	296.66	32.10	-31.3	-34.7	11.8	4.31e-04	0	44	0	787480576	23	5371
2026-01-26 11:30:03.87	296.98	31.99	-31.7	-36.0	10.9	1.08e-03	0	44	0	789577728	23	5948
2026-01-26 11:30:04.87	297.28	31.88	-31.6	-35.8	11.0	2.89e-03	0	44	0	790626304	23	5864
2026-01-26 11:30:05.88	297.59	31.78	-31.2	-34.7	11.8	9.22e-04	0	44	0	792723456	23	5368
2026-01-26 11:30:06.88	297.90	31.67	-30.8	-33.4	12.7	1.59e-04	0	44	0	794820608	23	4845
2026-01-26 11:30:07.88	298.20	31.56	-30.7	-33.5	13.0	4.34e-05	0	44	0	796917760	22	4980
2026-01-26 11:30:08.88	298.50	31.45	-30.7	-33.6	13.0	4.11e-05	0	44	0	799014912	22	5007
2026-01-26 11:30:09.89	298.80	31.34	-30.9	-34.3	12.5	6.02e-05	0	44	0	800063488	22	5302
2026-01-26 11:30:10.89	299.10	31.23	-31.4	-35.8	11.4	3.63e-04	0	44	0	802160640	22	5971
2026-01-26 11:30:11.89	299.40	31.12	-31.5	-35.6	11.2	1.30e-03	0	44	0	804257792	23	5750
2026-01-26 11:30:12.90	299.69	31.01	-31.4	-35.3	11.4	1.23e-03	0	44	0	806354944	23	5623
2026-01-26 11:30:13.89	299.98	30.90	-31.1	-34.3	12.2	4.69e-04	0	44	0	808452096	23	5174
2026-01-26 11:30:14.90	300.27	30.78	-31.1	-34.1	12.2	2.28e-04	0	44	0	809500672	23	5134
2026-01-26 11:30:15.90	300.56	30.67	-31.3	-34.8	11.7	3.23e-04	0	44	0	811597824	23	5416
2026-01-26 11:30:16.89	300.84	30.56	-31.6	-35.9	11.0	8.15e-04	0	44	0	813694976	23	5880
2026-01-26 11:30:17.90	301.13	30.45	-32.0	-37.1	10.0	3.89e-03	0	44	0	815792128	23	6526
2026-01-26 11:30:18.91	301.41	30.33	-31.8	-36.2	10.4	6.06e-03	0	44	0	817889280	24	5925
2026-01-26 11:30:19.91	301.69	30.22	-31.4	-34.6	11.5	1.92e-03	0	44	0	818937856	24	5206
2026-01-26 11:30:20.91	301.97	30.11	-30.6	-33.3	13.1	1.98e-04	0	44	0	821035008	22	4924
2026-01-26 11:30:21.91	302.24	29.99	-30.5	-33.0	13.4	1.29e-05	0	44	0	823132160	22	4798
2026-01-26 11:30:22.91	302.51	29.88	-30.7	-33.5	13.0	2.36e-05	0	44	0	825229312	22	4985
2026-01-26 11:30:23.91	302.79	29.76	-30.9	-34.3	12.5	6.48e-05	0	44	0	826277888	22	5296
2026-01-26 11:30:24.92	303.06	29.65	-31.4	-35.8	11.4	3.13e-04	0	44	0	828375040	22	5945
2026-01-26 11:30:25.92	303.33	29.53	-31.4	-35.3	11.3	1.40e-03	0	44	0	830472192	23	5643
2026-01-26 11:30:26.92	303.59	29.42	-31.1	-34.3	12.0	5.87e-04	0	44	0	832569344	23	5217
2026-01-26 11:30:27.93	303.86	29.30	-30.6	-33.2	13.1	8.39e-05	0	44	0	834666496	22	4879
2026-01-26 11:30:28.93	304.12	29.19	-30.5	-33.1	13.2	2.21e-05	0	44	0	835715072	22	4841
2026-01-26 11:30:29.93	304.38	29.07	-30.8	-33.8	12.8	3.43e-05	0	44	0	837812224	22	5106
2026-01-26 11:30:30.93	304.64	28.96	-31.2	-35.0	11.9	1.40e-04	0	44	0	839909376	22	5609
2026-01-26 11:30:31.93	304.89	28.84	-31.9	-36.9	10.2	1.31e-03	0	44	0	842006528	23	6383
2026-01-26 11:30:32.93	305.15	28.73	-32.1	-37.1	9.6	1.20e-02	0	44	0	844103680	24	6412
2026-01-26 11:30:33.93	305.40	28.61	-32.1	-37.2	9.5	1.58e-02	0	44	0	845152256	24	6489
2026-01-26 11:30:34.94	305.66	28.49	-31.5	-35.0	11.2	6.16e-03	0	44	0	847249408	24	5388
2026-01-26 11:30:35.94	305.90	28.38	-30.9	-33.6	12.5	2.41e-04	0	44	0	849346560	23	4939
2026-01-26 11:30:36.94	306.15	28.26	-30.6	-33.2	13.2	4.27e-05	0	44	0	851443712	22	4883
2026-01-26 11:30:37.95	306.40	28.14	-30.7	-33.7	12.8	2.97e-05	0	44	0	853540864	22	5066
2026-01-26 11:30:38.94	306.64	28.03	-31.1	-34.7	12.1	9.00e-05	0	44	0	854589440	22	5473
2026-01-26 11:30:39.95	306.89	27.91	-31.4	-35.9	11.3	7.46e-04	0	44	0	856686592	22	6005
2026-01-26 11:30:40.95	307.13	27.80	-31.4	-35.3	11.3	1.54e-03	0	44	0	858783744	23	5645
2026-01-26 11:30:41.95	307.37	27.68	-30.9	-33.8	12.4	6.06e-04	0	44	0	860880896	23	5007
2026-01-26 11:30:42.96	307.61	27.56	-30.4	-32.7	13.4	2.13e-05	0	44	0	862978048	22	4721
2026-01-26 11:30:43.95	307.84	27.45	-29.9	-32.0	14.2	4.50e-06	0	44	0	864026624	21	4585
2026-01-26 11:30:44.95	308.07	27.33	-29.9	-32.1	14.2	0.00e+00	0	44	0	866123776	21	4596
2026-01-26 11:30:45.95	308.30	27.21	-30.0	-32.3	14.0	3.00e-06	0	44	0	868220928	21	4678
2026-01-26 11:30:46.96	308.54	27.10	-30.5	-33.5	13.3	6.80e-06	0	44	0	870318080	21	5092
2026-01-26 11:30:47.97	308.77	26.98	-30.9	-34.7	12.4	6.33e-05	0	44	0	871366656	21	5605
2026-01-26 11:30:48.97	309.00	26.86	-31.0	-34.6	12.2	2.17e-04	0	44	0	873463808	22	5417
2026-01-26 11:30:49.97	309.22	26.75	-30.7	-33.6	12.9	7.32e-05	0	44	0	875560960	22	5017
2026-01-26 11:30:50.98	309.45	26.63	-30.2	-32.8	13.7	1.37e-05	0	44	0	877658112	21	4840
2026-01-26 11:30:51.98	309.67	26.51	-29.9	-32.0	14.2	3.00e-06	0	44	0	879755264	21	4583
2026-01-26 11:30:52.98	309.89	26.40	-30.2	-32.6	13.8	3.80e-06	0	44	0	880803840	21	4783
2026-01-26 11:30:53.99	310.11	26.28	-30.1	-32.4	14.0	2.20e-06	0	44	0	882900992	21	4712
2026-01-26 11:30:54.99	310.33	26.16	-30.3	-32.9	13.6	3.80e-06	0	44	0	884998144	21	4897
2026-01-26 11:30:56.00	310.55	26.05	-30.6	-33.8	13.0	2.51e-05	0	44	0	887095296	21	5219
2026-01-26 11:30:57.00	310.76	25.93	-30.5	-33.7	13.1	3.81e-05	0	44	0	889192448	21	5190
2026-01-26 11:30:58.00	310.98	25.82	-30.4	-33.3	13.3	2.89e-05	0	44	0	890241024	21	5037
2026-01-26 11:30:59.00	311.19	25.70	-30.2	-32.7	13.8	1.14e-05	0	44	0	892338176	21	4809
2026-01-26 11:31:00.01	311.40	25.58	-30.0	-32.2	14.1	3.00e-06	0	44	0	894435328	21	4625
2026-01-26 11:31:01.01	311.61	25.47	-30.0	-32.3	14.0	5.30e-06	0	44	0	896532480	21	4664
2026-01-26 11:31:02.01	311.81	25.35	-29.6	-31.8	14.6	0.00e+00	0	44	0	898629632	20	4622
2026-01-26 11:31:03.01	312.02	25.24	-29.6	-31.7	14.6	0.00e+00	0	44	0	899678208	20	4584
2026-01-26 11:31:04.01	312.22	25.12	-29.7	-32.0	14.5	0.00e+00	0	44	0	901775360	20	4671
2026-01-26 11:31:05.01	312.43	25.01	-30.0	-32.7	14.1	7.00e-07	0	44	0	903872512	20	4909
2026-01-26 11:31:06.01	312.63	24.89	-29.9	-32.6	14.1	3.00e-06	0	44	0	905969664	20	4876
2026-01-26 11:31:07.02	312.83	24.78	-29.9	-32.5	14.1	1.50e-06	0	44	0	908066816	20	4873
2026-01-26 11:31:08.02	313.03	24.66	-29.8	-32.4	14.2	1.50e-06	0	44	0	909115392	20	4807
2026-01-26 11:31:09.03	313.23	24.55	-29.8	-32.3	14.3	7.00e-07	0	44	0	911212544	20	4777
2026-01-26 11:31:10.03	313.42	24.43	-30.0	-32.7	14.0	3.80e-06	0	44	0	913309696	20	4909
2026-01-26 11:31:11.03	313.62	24.32	-30.2	-33.3	13.6	3.80e-06	0	44	0	915406848	20	5144
2026-01-26 11:31:12.03	313.81	24.21	-29.9	-32.5	14.1	4.50e-06	0	44	0	916455424	20	4857
2026-01-26 11:31:13.03	314.00	24.09	-29.9	-32.5	14.1	7.00e-07	0	44	0	918552576	20	4848
2026-01-26 11:31:14.03	314.19	23.98	-29.9	-32.6	14.1	3.00e-06	0	44	0	920649728	20	4882
2026-01-26 11:31:15.04	314.38	23.86	-30.0	-32.9	13.9	4.50e-06	0	44	0	922746880	20	4991
2026-01-26 11:31:16.03	314.57	23.75	-30.0	-32.9	13.9	2.20e-06	0	44	0	924844032	20	4989
2026-01-26 11:31:17.04	314.75	23.64	-29.9	-32.6	14.0	6.10e-06	0	44	0	925892608	20	4890
2026-01-26 11:31:18.04	314.94	23.53	-30.1	-33.1	13.7	6.10e-06	0	44	0	927989760	20	5074
2026-01-26 11:31:19.05	315.12	23.41	-29.6	-31.6	14.6	2.20e-06	0	44	0	930086912	20	4556
2026-01-26 11:31:20.06	315.31	23.30	-29.1	-31.0	15.4	0.00e+00	0	44	0	932184064	19	4477
2026-01-26 11:31:21.06	315.49	23.19	-28.8	-30.2	15.9	0.00e+00	0	44	0	934281216	19	4221
2026-01-26 11:31:22.06	315.67	23.07	-28.6	-30.1	16.2	0.00e+00	0	44	0	935329792	18	4310
2026-01-26 11:31:23.06	315.85	22.96	-28.9	-31.0	15.7	0.00e+00	0	44	0	937426944	18	4561
2026-01-26 11:31:24.06	316.02	22.85	-29.1	-31.4	15.4	0.00e+00	0	44	0	939524096	18	4712
2026-01-26 11:31:25.07	316.20	22.74	-29.1	-31.6	15.3	0.00e+00	0	44	0	941621248	18	4762
2026-01-26 11:31:26.07	316.38	22.63	-29.3	-32.0	15.1	0.00e+00	0	44	0	943718400	18	4897
2026-01-26 11:31:27.07	316.55	22.52	-29.4	-32.1	15.0	0.00e+00	0	44	0	944766976	18	4955
2026-01-26 11:31:28.07	316.72	22.41	-29.3	-32.0	15.1	0.00e+00	0	44	0	946864128	18	4893
2026-01-26 11:31:29.07	316.89	22.30	-29.3	-31.9	15.1	0.00e+00	0	44	0	948961280	18	4877
2026-01-26 11:31:30.08	317.06	22.18	-29.0	-31.3	15.5	0.00e+00	0	44	0	951058432	18	4672
2026-01-26 11:31:31.08	317.23	22.07	-29.2	-31.8	15.2	0.00e+00	0	44	0	953155584	18	4831
2026-01-26 11:31:32.09	317.40	21.96	-28.9	-31.1	15.6	0.00e+00	0	44	0	954204160	18	4614
2026-01-26 11:31:33.09	317.57	21.85	-28.8	-30.8	15.8	0.00e+00	0	44	0	956301312	18	4513
2026-01-26 11:31:34.09	317.73	21.74	-28.9	-31.0	15.7	0.00e+00	0	44	0	958398464	18	4580
2026-01-26 11:31:35.10	317.90	21.63	-29.2	-31.7	15.2	0.00e+00	0	44	0	960495616	18	4813
2026-01-26 11:31:36.09	318.06	21.53	-29.3	-31.9	15.1	0.00e+00	0	44	0	962592768	18	4882
2026-01-26 11:31:37.09	318.22	21.42	-29.5	-32.1	14.6	7.00e-07	0	44	0	963641344	19	4849
2026-01-26 11:31:38.10	318.38	21.31	-29.5	-32.0	14.7	0.00e+00	0	44	0	965738496	19	4807
2026-01-26 11:31:39.10	318.54	21.20	-29.5	-32.0	14.7	0.00e+00	0	44	0	967835648	19	4815
2026-01-26 11:31:40.10	318.70	21.09	-29.5	-32.1	14.7	0.00e+00	0	44	0	969932800	19	4835
2026-01-26 11:31:41.11	318.86	20.99	-29.5	-31.9	14.8	0.00e+00	0	44	0	970981376	19	4776
2026-01-26 11:31:42.11	319.02	20.88	-29.5	-32.1	14.6	0.00e+00	0	44	0	973078528	19	4854
2026-01-26 11:31:43.11	319.17	20.77	-29.3	-31.4	15.1	0.00e+00	0	44	0	975175680	19	4612
2026-01-26 11:31:44.11	319.33	20.66	-29.2	-31.3	15.1	0.00e+00	0	44	0	977272832	19	4576
2026-01-26 11:31:45.12	319.48	20.56	-29.3	-31.5	15.0	0.00e+00	0	44	0	979369984	19	4634
2026-01-26 11:31:46.13	319.64	20.45	-29.2	-31.3	15.1	0.00e+00	0	44	0	980418560	19	4581
2026-01-26 11:31:47.13	319.79	20.34	-29.4	-31.7	14.9	0.00e+00	0	44	0	982515712	19	4697
2026-01-26 11:31:48.13	319.94	20.24	-29.4	-31.8	14.8	0.00e+00	0	44	0	984612864	19	4733
2026-01-26 11:31:49.14	320.09	20.13	-29.4	-31.9	14.8	7.00e-07	0	44	0	986710016	19	4758
2026-01-26 11:31:50.13	320.24	20.03	-29.4	-31.8	14.8	0.00e+00	0	44	0	988807168	19	4751
2026-01-26 11:31:51.14	320.38	19.92	-29.2	-31.3	15.1	0.00e+00	0	44	0	989855744	19	4594
2026-01-26 11:31:52.14	320.53	19.82	-29.1	-31.3	15.0	0.00e+00	0	44	0	991952896	19	4619
2026-01-26 11:31:53.15	320.68	19.71	-28.9	-31.1	14.9	0.00e+00	0	44	0	994050048	19	4668
2026-01-26 11:31:54.15	320.82	19.61	-28.7	-31.5	14.9	0.00e+00	0	44	0	996147200	18	4930
2026-01-26 11:31:55.16	320.97	19.50	-29.0	-31.7	14.9	0.00e+00	0	44	0	998244352	18	4925
2026-01-26 11:31:56.16	321.11	19.40	-29.3	-32.3	14.7	0.00e+00	0	44	0	999292928	18	5065
2026-01-26 11:31:57.16	321.25	19.29	-29.3	-32.3	14.6	7.00e-07	0	44	0	1001390080	18	5084
2026-01-26 11:31:58.17	321.39	19.19	-29.5	-32.4	14.3	1.50e-06	0	44	0	1003487232	19	4999
2026-01-26 11:31:59.17	321.53	19.09	-29.5	-32.2	14.4	1.50e-06	0	44	0	1005584384	19	4926
2026-01-26 11:32:00.16	321.67	18.99	-29.6	-32.3	14.4	1.50e-06	0	44	0	1007681536	19	4957
2026-01-26 11:32:01.17	321.81	18.88	-29.7	-32.6	14.2	1.50e-06	0	44	0	1008730112	19	5042
2026-01-26 11:32:02.17	321.95	18.78	-29.6	-32.3	14.4	0.00e+00	0	44	0	1010827264	19	4931
2026-01-26 11:32:03.17	322.08	18.68	-29.7	-32.5	14.3	2.20e-06	0	44	0	1012924416	19	4966
2026-01-26 11:32:04.17	322.22	18.58	-29.6	-32.2	14.5	1.50e-06	0	44	0	1015021568	19	4866
2026-01-26 11:32:05.17	322.35	18.48	-29.8	-32.7	14.2	7.00e-07	0	44	0	1016070144	19	5060
2026-01-26 11:32:06.17	322.49	18.38	-29.4	-31.9	14.7	7.00e-07	0	44	0	1018167296	19	4760
2026-01-26 11:32:07.16	322.62	18.28	-29.6	-32.2	14.5	7.00e-07	0	44	0	1020264448	19	4886
2026-01-26 11:32:08.17	322.75	18.17	-29.8	-32.7	14.2	0.00e+00	0	44	0	1022361600	19	5058
2026-01-26 11:32:09.16	322.88	18.08	-29.8	-32.8	14.1	1.50e-06	0	44	0	1024458752	19	5082
2026-01-26 11:32:10.17	323.01	17.97	-30.1	-33.2	13.4	1.50e-06	0	44	0	1025507328	20	5143
2026-01-26 11:32:11.17	323.14	17.88	-30.2	-33.4	13.3	1.14e-05	0	44	0	1027604480	20	5234
2026-01-26 11:32:12.17	323.27	17.78	-30.3	-33.6	13.1	1.75e-05	0	44	0	1029701632	20	5322
2026-01-26 11:32:13.18	323.40	17.68	-30.5	-33.8	12.7	6.17e-05	0	44	0	1031798784	21	5269
2026-01-26 11:32:14.18	323.52	17.58	-30.5	-33.7	12.7	6.10e-05	0	44	0	1033895936	21	5247
2026-01-26 11:32:15.18	323.65	17.48	-30.5	-34.0	12.5	9.23e-05	0	44	0	1034944512	21	5343
2026-01-26 11:32:16.18	323.78	17.38	-30.4	-33.5	12.8	7.70e-05	0	44	0	1037041664	21	5171
2026-01-26 11:32:17.19	323.90	17.28	-30.2	-33.0	13.2	2.82e-05	0	44	0	1039138816	21	4953
2026-01-26 11:32:18.19	324.03	17.18	-30.2	-32.9	13.3	1.98e-05	0	44	0	1041235968	21	4942
2026-01-26 11:32:19.19	324.15	17.09	-30.2	-32.9	13.3	2.44e-05	0	44	0	1043333120	21	4931
2026-01-26 11:32:20.19	324.27	16.99	-30.0	-33.0	13.5	1.44e-05	0	44	0	1044381696	20	5062
2026-01-26 11:32:21.19	324.39	16.89	-30.2	-33.5	13.2	2.21e-05	0	44	0	1046478848	20	5246
2026-01-26 11:32:22.20	324.51	16.79	-30.0	-32.9	13.5	9.10e-06	0	44	0	1048576000	20	5048
2026-01-26 11:32:23.20	324.63	16.70	-30.3	-33.7	13.0	1.98e-05	0	44	0	1050673152	20	5350
2026-01-26 11:32:24.21	324.75	16.60	-30.3	-33.7	13.0	3.05e-05	0	44	0	1052770304	20	5347
2026-01-26 11:32:25.21	324.87	16.51	-30.4	-34.1	12.7	7.09e-05	0	44	0	1053818880	20	5523
2026-01-26 11:32:26.21	324.99	16.41	-30.5	-33.9	12.5	9.61e-05	0	44	0	1055916032	21	5319
2026-01-26 11:32:27.21	325.11	16.31	-30.6	-34.3	12.3	1.42e-04	0	44	0	1058013184	21	5474
2026-01-26 11:32:28.21	325.22	16.22	-30.6	-34.2	12.3	1.52e-04	0	44	0	1060110336	21	5464
2026-01-26 11:32:29.21	325.34	16.12	-30.7	-34.6	12.0	2.72e-04	0	44	0	1061158912	21	5624
2026-01-26 11:32:30.21	325.45	16.03	-30.5	-34.0	12.4	2.20e-04	0	44	0	1063256064	21	5367
2026-01-26 11:32:31.21	325.57	15.94	-30.5	-34.0	12.4	1.36e-04	0	44	0	1065353216	21	5349
2026-01-26 11:32:32.22	325.68	15.84	-30.5	-33.8	12.5	1.18e-04	0	44	0	1067450368	21	5285
2026-01-26 11:32:33.22	325.80	15.75	-30.4	-33.7	12.6	9.76e-05	0	44	0	1069547520	21	5236
2026-01-26 11:32:34.23	325.91	15.65	-30.3	-33.4	12.8	6.33e-05	0	44	0	1070596096	21	5122
2026-01-26 11:32:35.23	326.02	15.56	-30.2	-33.0	13.1	3.43e-05	0	44	0	1072693248	21	4963
2026-01-26 11:32:36.23	326.13	15.47	-30.1	-32.7	13.3	2.44e-05	0	44	0	1074790400	21	4858
2026-01-26 11:32:37.24	326.24	15.37	-30.2	-33.1	13.0	2.21e-05	0	44	0	1076887552	21	5026
2026-01-26 11:32:38.24	326.35	15.28	-30.1	-32.8	13.2	3.81e-05	0	44	0	1078984704	21	4908
2026-01-26 11:32:39.24	326.46	15.19	-30.2	-33.1	13.0	3.28e-05	0	44	0	1080033280	21	5023
2026-01-26 11:32:40.24	326.57	15.10	-30.4	-33.6	12.6	6.86e-05	0	44	0	1082130432	21	5233
2026-01-26 11:32:41.25	326.68	15.00	-30.5	-33.9	12.5	1.16e-04	0	44	0	1084227584	21	5317
2026-01-26 11:32:42.25	326.79	14.91	-30.5	-34.1	12.3	1.46e-04	0	44	0	1086324736	21	5414
2026-01-26 11:32:43.25	326.89	14.82	-30.6	-34.3	12.1	2.09e-04	0	44	0	1088421888	21	5490
2026-01-26 11:32:44.26	327.00	14.73	-30.5	-34.1	12.3	1.55e-04	0	44	0	1089470464	21	5427
2026-01-26 11:32:45.26	327.10	14.64	-30.5	-34.0	12.3	1.55e-04	0	44	0	1091567616	21	5366
2026-01-26 11:32:46.26	327.21	14.55	-30.5	-33.9	12.3	2.08e-04	0	44	0	1093664768	21	5351
2026-01-26 11:32:47.27	327.31	14.46	-30.4	-33.6	12.6	9.91e-05	0	44	0	1095761920	21	5223
2026-01-26 11:32:48.28	327.42	14.37	-30.3	-33.5	12.6	7.93e-05	0	44	0	1097859072	21	5174
2026-01-26 11:32:49.28	327.52	14.28	-30.2	-33.2	12.8	5.87e-05	0	44	0	1098907648	21	5075
2026-01-26 11:32:50.28	327.62	14.19	-30.3	-33.5	12.7	6.86e-05	0	44	0	1101004800	21	5190
2026-01-26 11:32:51.28	327.72	14.10	-30.3	-33.4	12.7	9.53e-05	0	44	0	1103101952	21	5140
2026-01-26 11:32:52.28	327.82	14.01	-30.0	-32.6	13.2	2.67e-05	0	44	0	1105199104	21	4860
2026-01-26 11:32:53.27	327.92	13.92	-30.0	-32.6	13.2	2.28e-05	0	44	0	1106247680	21	4848
2026-01-26 11:32:54.28	328.02	13.83	-30.0	-32.5	13.3	2.89e-05	0	44	0	1108344832	21	4814
2026-01-26 11:32:55.29	328.12	13.74	-30.0	-32.7	13.2	2.82e-05	0	44	0	1110441984	21	4866
2026-01-26 11:32:56.29	328.22	13.66	-30.0	-32.5	13.3	1.29e-05	0	44	0	1112539136	21	4796
2026-01-26 11:32:57.30	328.32	13.57	-29.9	-32.3	13.4	1.67e-05	0	44	0	1114636288	21	4731
2026-01-26 11:32:58.30	328.42	13.48	-30.0	-32.5	13.3	1.75e-05	0	44	0	1116733440	21	4811
2026-01-26 11:32:59.30	328.52	13.39	-30.1	-32.9	13.0	5.87e-05	0	44	0	1117782016	21	4956
2026-01-26 11:33:00.30	328.61	13.31	-30.0	-32.7	13.1	2.82e-05	0	44	0	1119879168	21	4881
2026-01-26 11:33:01.30	328.71	13.22	-30.0	-32.5	13.2	1.44e-05	0	44	0	1121976320	21	4831
2026-01-26 11:33:02.29	328.80	13.13	-30.0	-32.7	13.1	2.89e-05	0	44	0	1124073472	21	4871
2026-01-26 11:33:03.30	328.90	13.05	-30.1	-33.0	12.9	4.65e-05	0	44	0	1125122048	21	4980
2026-01-26 11:33:04.30	328.99	12.96	-30.1	-32.9	13.0	6.25e-05	0	44	0	1127219200	21	4972
2026-01-26 11:33:05.31	329.09	12.87	-30.3	-33.4	12.6	5.79e-05	0	44	0	1129316352	21	5137
2026-01-26 11:33:06.31	329.18	12.79	-30.2	-33.1	12.8	5.64e-05	0	44	0	1131413504	21	5035
2026-01-26 11:33:07.31	329.27	12.70	-30.3	-33.5	12.5	3.35e-05	0	44	0	1133510656	21	5201
2026-01-26 11:33:08.32	329.37	12.62	-30.3	-33.5	12.6	9.53e-05	0	44	0	1134559232	21	5184
2026-01-26 11:33:09.32	329.46	12.53	-30.2	-33.2	12.8	6.25e-05	0	44	0	1136656384	21	5065
2026-01-26 11:33:10.33	329.55	12.45	-30.1	-32.8	12.9	1.07e-04	0	44	0	1138753536	21	4947
2026-01-26 11:33:11.33	329.64	12.36	-30.2	-33.3	12.7	4.73e-05	0	44	0	1140850688	21	5133
2026-01-26 11:33:12.33	329.73	12.28	-30.2	-33.1	12.8	8.31e-05	0	44	0	1142947840	21	5044
2026-01-26 11:33:13.33	329.82	12.20	-30.0	-32.6	13.1	3.05e-05	0	44	0	1143996416	21	4857
2026-01-26 11:33:14.34	329.91	12.11	-30.1	-32.8	12.9	4.57e-05	0	44	0	1146093568	21	4950
2026-01-26 11:33:15.34	330.00	12.03	-30.1	-32.8	13.0	3.28e-05	0	44	0	1148190720	21	4925
2026-01-26 11:33:16.35	330.09	11.94	-30.2	-33.3	12.6	1.21e-04	0	44	0	1150287872	21	5128
2026-01-26 11:33:17.35	330.18	11.86	-30.0	-32.7	13.0	2.97e-05	0	44	0	1152385024	21	4897
2026-01-26 11:33:18.35	330.27	11.78	-29.9	-32.5	13.1	2.82e-05	0	44	0	1153433600	21	4827
2026-01-26 11:33:19.35	330.35	11.70	-30.0	-32.8	13.0	3.66e-05	0	44	0	1155530752	21	4922
2026-01-26 11:33:20.35	330.44	11.61	-30.1	-32.8	12.9	3.50e-05	0	44	0	1157627904	21	4959
2026-01-26 11:33:21.35	330.53	11.53	-30.3	-33.6	12.4	7.93e-05	0	44	0	1159725056	21	5227
2026-01-26 11:33:22.35	330.61	11.45	-30.2	-33.2	12.6	1.37e-04	0	44	0	1161822208	21	5090
2026-01-26 11:33:23.35	330.70	11.37	-30.4	-33.7	12.3	1.44e-04	0	44	0	1162870784	21	5300
2026-01-26 11:33:24.35	330.78	11.29	-30.2	-33.1	12.7	1.16e-04	0	44	0	1164967936	21	5068
2026-01-26 11:33:25.36	330.87	11.21	-30.3	-33.4	12.5	8.77e-05	0	44	0	1167065088	21	5181
2026-01-26 11:33:26.37	330.95	11.12	-30.3	-33.5	12.4	1.27e-04	0	44	0	1169162240	21	5231
2026-01-26 11:33:27.37	331.03	11.04	-30.4	-34.0	12.1	1.56e-04	0	44	0	1170210816	21	5397
2026-01-26 11:33:28.37	331.12	10.96	-30.4	-33.9	12.1	3.41e-04	0	44	0	1172307968	21	5372
2026-01-26 11:33:29.38	331.20	10.88	-30.3	-33.5	12.4	1.52e-04	0	44	0	1174405120	21	5231
2026-01-26 11:33:30.38	331.28	10.80	-30.2	-33.3	12.6	1.35e-04	0	44	0	1176502272	21	5132
2026-01-26 11:33:31.38	331.36	10.72	-30.3	-33.6	12.4	1.08e-04	0	44	0	1178599424	21	5241
2026-01-26 11:33:32.38	331.45	10.64	-30.1	-33.0	12.7	1.28e-04	0	44	0	1179648000	21	5037
2026-01-26 11:33:33.38	331.53	10.56	-30.2	-33.3	12.5	1.22e-04	0	44	0	1181745152	21	5147
2026-01-26 11:33:34.38	331.61	10.48	-30.2	-33.2	12.6	1.11e-04	0	44	0	1183842304	21	5089
2026-01-26 11:33:35.39	331.69	10.40	-30.3	-33.4	12.4	1.48e-04	0	44	0	1185939456	21	5188
2026-01-26 11:33:36.40	331.77	10.32	-30.2	-33.3	12.5	1.08e-04	0	44	0	1188036608	21	5146
2026-01-26 11:33:37.40	331.85	10.25	-30.2	-33.2	12.6	9.53e-05	0	44	0	1189085184	21	5083
2026-01-26 11:33:38.40	331.93	10.17	-30.3	-33.5	12.4	8.77e-05	0	44	0	1191182336	21	5203
2026-01-26 11:33:39.39	332.00	10.09	-30.2	-33.4	12.5	1.54e-04	0	44	0	1193279488	21	5162
2026-01-26 11:33:40.40	332.08	10.01	-30.3	-33.5	12.4	1.63e-04	0	44	0	1195376640	21	5236
2026-01-26 11:33:41.40	332.16	9.93	-30.3	-33.6	12.3	1.57e-04	0	44	0	1197473792	21	5271
2026-01-26 11:33:42.40	332.24	9.86	-30.3	-33.6	12.2	2.64e-04	0	44	0	1198522368	21	5275
2026-01-26 11:33:43.40	332.31	9.78	-30.2	-33.4	12.4	1.53e-04	0	44	0	1200619520	21	5178
2026-01-26 11:33:44.40	332.39	9.70	-30.2	-33.4	12.4	1.34e-04	0	44	0	1202716672	21	5191
2026-01-26 11:33:45.40	332.47	9.62	-30.3	-33.7	12.2	1.75e-04	0	44	0	1204813824	21	5292
2026-01-26 11:33:46.41	332.54	9.55	-30.3	-33.7	12.2	2.29e-04	0	44	0	1206910976	21	5293
2026-01-26 11:33:47.41	332.62	9.47	-30.4	-33.8	12.1	1.91e-04	0	44	0	1207959552	21	5362
2026-01-26 11:33:48.41	332.69	9.39	-30.3	-33.7	12.1	3.58e-04	0	44	0	1210056704	21	5321
2026-01-26 11:33:49.41	332.77	9.32	-30.4	-33.9	12.0	1.81e-04	0	44	0	1212153856	21	5390
2026-01-26 11:33:50.41	332.84	9.24	-30.4	-33.8	12.1	2.60e-04	0	44	0	1214251008	21	5325
2026-01-26 11:33:51.42	332.92	9.16	-30.5	-34.3	11.7	5.15e-04	0	44	0	1215299584	21	5555
2026-01-26 11:33:52.41	332.99	9.09	-30.5	-34.3	11.7	3.72e-04	0	44	0	1217396736	21	5582
2026-01-26 11:33:53.42	333.06	9.01	-30.5	-34.4	11.7	7.29e-04	0	44	0	1219493888	21	5606
2026-01-26 11:33:54.42	333.14	8.94	-30.5	-34.3	11.7	5.29e-04	0	44	0	1221591040	21	5546
2026-01-26 11:33:55.42	333.21	8.86	-30.6	-34.6	11.5	5.91e-04	0	44	0	1223688192	21	5701
2026-01-26 11:33:56.43	333.28	8.79	-30.6	-34.6	11.5	1.19e-03	0	44	0	1224736768	21	5701
2026-01-26 11:33:57.43	333.35	8.71	-30.6	-34.5	11.5	8.54e-04	0	44	0	1226833920	21	5647
2026-01-26 11:33:58.44	333.42	8.64	-30.6	-34.7	11.4	1.05e-03	0	44	0	1228931072	21	5773
2026-01-26 11:33:59.44	333.50	8.56	-30.6	-34.7	11.4	7.65e-04	0	44	0	1231028224	21	5739
2026-01-26 11:34:00.45	333.57	8.49	-30.8	-35.1	11.0	2.13e-03	0	44	0	1233125376	21	5952
2026-01-26 11:34:01.45	333.64	8.41	-30.8	-35.4	10.8	1.47e-03	0	44	0	1234173952	21	6081
2026-01-26 11:34:02.45	333.71	8.34	-30.8	-35.4	10.9	2.68e-03	0	44	0	1236271104	21	6069
2026-01-26 11:34:03.45	333.78	8.27	-30.8	-35.2	11.0	2.42e-03	0	44	0	1238368256	21	5984
2026-01-26 11:34:04.45	333.85	8.19	-30.8	-35.1	11.0	2.42e-03	0	44	0	1240465408	21	5965
2026-01-26 11:34:05.46	333.92	8.12	-30.8	-35.3	10.9	1.60e-03	0	44	0	1242562560	21	6019
2026-01-26 11:34:06.46	333.98	8.05	-30.8	-35.5	10.7	2.83e-03	0	44	0	1243611136	21	6125
2026-01-26 11:34:07.47	334.05	7.97	-30.8	-35.4	10.8	2.46e-03	0	44	0	1245708288	21	6118
2026-01-26 11:34:08.47	334.12	7.90	-31.0	-35.9	10.4	4.64e-03	0	44	0	1247805440	21	6344
2026-01-26 11:34:09.47	334.19	7.83	-30.8	-35.3	10.8	2.84e-03	0	44	0	1249902592	21	6023
2026-01-26 11:34:10.47	334.26	7.76	-30.7	-35.0	11.0	2.21e-03	0	44	0	1251999744	21	5902
2026-01-26 11:34:11.48	334.33	7.68	-30.8	-35.3	10.8	2.02e-03	0	44	0	1253048320	21	6037
2026-01-26 11:34:12.48	334.39	7.61	-30.8	-35.4	10.7	2.46e-03	0	44	0	1255145472	21	6127
2026-01-26 11:34:13.48	334.46	7.54	-30.7	-34.9	11.1	2.23e-03	0	44	0	1257242624	21	5868
2026-01-26 11:34:14.48	334.52	7.47	-30.9	-35.7	10.5	4.54e-03	0	44	0	1259339776	21	6243
2026-01-26 11:34:15.49	334.59	7.40	-30.6	-34.9	11.0	2.41e-03	0	44	0	1260388352	21	5861
2026-01-26 11:34:16.49	334.66	7.32	-30.8	-35.5	10.6	2.30e-03	0	44	0	1262485504	21	6185
2026-01-26 11:34:17.50	334.72	7.25	-31.0	-36.0	10.2	5.02e-03	0	44	0	1264582656	21	6402
2026-01-26 11:34:18.50	334.79	7.18	-30.9	-35.8	10.4	4.77e-03	0	44	0	1266679808	21	6302
2026-01-26 11:34:19.49	334.85	7.11	-30.9	-35.7	10.4	4.91e-03	0	44	0	1268776960	21	6251
2026-01-26 11:34:20.50	334.92	7.04	-33.0	-46.8	3.8	3.74e-01	0	44	104	1269825536	26	17612
2026-01-26 11:34:21.50	334.98	6.97	-33.3	-47.5	3.8	1.49e+00	0	44	104	1269825536	26	18413
2026-01-26 11:34:22.50	335.05	6.90	-33.6	-47.4	3.9	1.49e+00	0	44	104	1269825536	27	17657

#Closed at: 2026-01-26 11:34:23
#Recorded file [1269 MB]: D:/data/31010_260126_142302.dat