passes_logs/2026/01/26/R2M6_AANII_01/R2M6_AANII_01__20260126_003920_NOAA_21_JPSS-2_rec.log

#Pass ID: 20260126_003920_NOAA 21 (JPSS-2)
#Satellite: NOAA 21 (JPSS-2)
#Configuration: NOAA 21
#almurnet v.1.7.20240730
#Start time: 2026-01-26 00:39:21

#Version: 2.2.20231116
#Station: R2M6_AANII_01
#Location: 30.233357 lon 59.946436 lat
#TLE: 1 54234U 22150A   26025.44451686  .00000186  00000+0  10896-3 0  9992
#TLE: 2 54234  98.7509 326.2184 0000763 215.1852 144.9274 14.19539183166293

#Time	Az	El	Level	Level2	SNR	BER	BlckErr	Temp	State	Recorded	gain1	gain2
2026-01-26 00:39:21.59	16.53	7.11	-30.8	-36.3	4.5	1.41e+00	0	42	0	0	21	6765
2026-01-26 00:39:22.60	16.52	7.18	-31.1	-36.7	4.5	1.43e+00	0	42	104	0	22	6834
2026-01-26 00:39:23.61	16.51	7.26	-31.1	-36.0	7.5	9.85e-02	0	42	0	0	22	6293
2026-01-26 00:39:24.61	16.49	7.34	-30.9	-35.8	7.9	8.48e-02	0	42	102	1048576	21	6289
2026-01-26 00:39:25.61	16.48	7.42	-30.8	-35.4	8.2	6.28e-02	0	42	102	1048576	21	6109
2026-01-26 00:39:26.62	16.47	7.50	-30.6	-34.6	8.8	3.67e-02	0	42	102	1048576	21	5726
2026-01-26 00:39:27.63	16.45	7.58	-30.2	-34.0	9.7	1.98e-02	0	42	102	1048576	20	5539
2026-01-26 00:39:28.63	16.44	7.65	-30.1	-33.4	10.1	1.28e-02	0	42	102	1048576	20	5296
2026-01-26 00:39:29.63	16.42	7.73	-29.8	-32.8	10.6	4.80e-03	0	42	102	1048576	20	5044
2026-01-26 00:39:30.63	16.41	7.81	-29.6	-32.6	11.2	6.33e-03	0	42	102	1048576	19	5073
2026-01-26 00:39:31.64	16.40	7.89	-29.8	-33.0	10.9	6.91e-03	0	42	102	1048576	19	5217
2026-01-26 00:39:32.64	16.38	7.97	-29.9	-33.5	10.6	3.48e-03	0	42	102	1048576	19	5406
2026-01-26 00:39:33.64	16.37	8.05	-29.7	-32.7	11.1	1.69e-03	0	42	102	1048576	19	5100
2026-01-26 00:39:34.65	16.35	8.13	-29.9	-33.4	10.6	7.70e-03	0	42	102	1048576	19	5387
2026-01-26 00:39:35.65	16.34	8.21	-29.9	-32.9	10.6	5.16e-03	0	42	102	1048576	20	5074
2026-01-26 00:39:36.65	16.32	8.29	-29.7	-32.7	11.1	6.45e-03	0	42	102	1048576	19	5097
2026-01-26 00:39:37.66	16.31	8.37	-29.7	-32.7	11.1	1.55e-03	0	42	102	1048576	19	5099
2026-01-26 00:39:38.67	16.29	8.45	-29.9	-33.4	10.7	3.01e-03	0	42	102	1048576	19	5377
2026-01-26 00:39:39.67	16.28	8.53	-30.0	-33.1	10.5	8.23e-03	0	42	102	1048576	20	5150
2026-01-26 00:39:40.68	16.26	8.62	-29.9	-32.8	10.7	8.28e-03	0	42	102	1048576	20	5029
2026-01-26 00:39:41.68	16.25	8.70	-30.0	-33.2	10.5	3.83e-03	0	42	102	1048576	20	5179
2026-01-26 00:39:42.69	16.23	8.78	-30.0	-33.0	10.6	4.29e-03	0	42	102	1048576	20	5103
2026-01-26 00:39:43.69	16.22	8.86	-29.8	-33.0	11.0	1.79e-03	0	42	102	1048576	19	5206
2026-01-26 00:39:44.70	16.20	8.95	-29.9	-33.3	10.8	2.89e-03	0	43	102	1048576	19	5310
2026-01-26 00:39:45.69	16.19	9.03	-29.7	-32.8	11.2	6.91e-03	0	42	102	1048576	19	5133
2026-01-26 00:39:46.70	16.17	9.11	-29.3	-32.1	11.9	4.68e-04	0	42	102	1048576	18	4986
2026-01-26 00:39:47.70	16.16	9.19	-29.3	-32.1	12.0	3.71e-04	0	43	102	1048576	18	4987
2026-01-26 00:39:48.70	16.14	9.28	-28.9	-31.0	12.6	1.21e-04	0	43	102	1048576	18	4622
2026-01-26 00:39:49.71	16.12	9.36	-28.7	-31.2	12.8	5.56e-05	0	42	102	1048576	17	4785
2026-01-26 00:39:50.72	16.11	9.45	-28.6	-30.8	13.1	4.04e-05	0	43	102	1048576	17	4668
2026-01-26 00:39:51.73	16.09	9.53	-28.9	-31.6	12.6	7.93e-05	0	43	102	1048576	17	4916
2026-01-26 00:39:52.74	16.08	9.62	-28.6	-31.0	13.0	4.27e-05	0	43	102	1048576	17	4712
2026-01-26 00:39:53.74	16.06	9.70	-28.4	-30.5	13.3	1.75e-05	0	43	102	1048576	17	4563
2026-01-26 00:39:54.75	16.04	9.79	-28.5	-30.6	13.2	2.36e-05	0	43	102	1048576	17	4595
2026-01-26 00:39:55.76	16.02	9.88	-28.5	-30.7	13.2	1.37e-05	0	43	102	1048576	17	4622
2026-01-26 00:39:56.76	16.01	9.96	-28.6	-30.8	13.1	2.51e-05	0	43	102	1048576	17	4642
2026-01-26 00:39:57.76	15.99	10.05	-28.6	-30.8	13.1	3.50e-05	0	43	102	1048576	17	4639
2026-01-26 00:39:58.77	15.97	10.14	-28.6	-30.8	13.1	2.13e-05	0	43	102	1048576	17	4665
2026-01-26 00:39:59.77	15.96	10.22	-28.8	-31.3	12.8	5.18e-05	0	43	102	1048576	17	4821
2026-01-26 00:40:00.77	15.94	10.31	-28.7	-31.2	12.9	6.25e-05	0	43	102	1048576	17	4797
2026-01-26 00:40:01.78	15.92	10.40	-28.7	-31.0	13.0	3.35e-05	0	43	102	1048576	17	4734
2026-01-26 00:40:02.78	15.90	10.48	-28.3	-30.2	13.5	9.10e-06	0	43	102	1048576	17	4483
2026-01-26 00:40:03.78	15.89	10.57	-28.3	-30.7	12.8	9.10e-06	0	43	102	1048576	16	4734
2026-01-26 00:40:04.79	15.87	10.66	-28.2	-30.4	13.6	3.80e-06	0	43	102	1048576	16	4624
2026-01-26 00:40:05.78	15.85	10.75	-28.3	-30.7	13.5	5.30e-06	0	43	102	1048576	16	4735
2026-01-26 00:40:06.78	15.83	10.84	-28.0	-30.4	13.8	4.50e-06	0	43	102	1048576	15	4766
2026-01-26 00:40:07.79	15.81	10.93	-28.3	-30.6	13.6	9.64e-04	0	43	102	1048576	16	4698
2026-01-26 00:40:08.79	15.80	11.02	-28.2	-30.3	13.8	6.80e-06	0	43	102	1048576	16	4616
2026-01-26 00:40:09.80	15.78	11.11	-27.9	-30.3	13.9	3.00e-06	0	43	102	1048576	15	4738
2026-01-26 00:40:10.80	15.76	11.20	-28.0	-30.4	13.9	4.50e-06	0	43	102	1048576	15	4746
2026-01-26 00:40:11.81	15.74	11.29	-28.0	-30.0	14.0	5.30e-06	0	43	102	1048576	16	4505
2026-01-26 00:40:12.81	15.72	11.38	-27.8	-29.9	14.1	9.89e-04	0	43	102	1048576	15	4603
2026-01-26 00:40:13.82	15.70	11.47	-27.7	-29.8	14.2	1.00e-03	0	43	102	1048576	15	4565
2026-01-26 00:40:14.82	15.68	11.56	-27.7	-29.7	14.3	7.00e-07	0	43	102	1048576	15	4540
2026-01-26 00:40:15.82	15.66	11.66	-27.7	-29.8	14.2	7.00e-07	0	43	102	1048576	15	4585
2026-01-26 00:40:16.82	15.64	11.75	-27.5	-29.3	14.5	2.28e-05	0	43	102	1048576	15	4436
2026-01-26 00:40:17.82	15.62	11.84	-27.8	-30.1	14.1	0.00e+00	0	43	102	1048576	15	4653
2026-01-26 00:40:18.83	15.60	11.93	-27.6	-29.5	14.4	8.59e-04	0	43	102	1048576	15	4484
2026-01-26 00:40:19.84	15.58	12.03	-27.5	-29.3	14.5	9.57e-04	0	43	102	1048576	15	4427
2026-01-26 00:40:20.84	15.56	12.12	-27.5	-29.3	14.6	0.00e+00	0	43	102	1048576	15	4423
2026-01-26 00:40:21.85	15.54	12.22	-27.5	-29.7	14.6	9.33e-04	0	43	102	1048576	14	4658
2026-01-26 00:40:22.86	15.52	12.31	-27.5	-29.2	14.7	8.03e-04	0	43	102	1048576	15	4379
2026-01-26 00:40:23.86	15.50	12.41	-27.5	-29.6	14.7	1.50e-06	0	43	102	1048576	14	4632
2026-01-26 00:40:24.86	15.48	12.50	-27.5	-29.3	14.6	1.10e-03	0	43	102	1048576	15	4419
2026-01-26 00:40:25.87	15.46	12.60	-27.4	-29.0	14.8	1.30e-03	0	43	102	1048576	15	4320
2026-01-26 00:40:26.87	15.44	12.69	-27.4	-29.6	14.7	0.00e+00	0	43	102	1048576	14	4613
2026-01-26 00:40:27.87	15.42	12.79	-27.4	-29.5	14.8	1.47e-03	0	43	102	1048576	14	4580
2026-01-26 00:40:28.88	15.39	12.89	-27.3	-29.2	14.9	1.31e-03	0	43	102	1048576	14	4496
2026-01-26 00:40:29.88	15.37	12.98	-27.2	-29.0	15.1	0.00e+00	0	43	102	1048576	14	4448
2026-01-26 00:40:30.88	15.35	13.08	-27.4	-29.5	14.8	4.49e-04	0	43	102	1048576	14	4582
2026-01-26 00:40:31.88	15.33	13.18	-27.5	-29.2	14.7	1.50e-06	0	43	102	1048576	15	4380
2026-01-26 00:40:32.89	15.31	13.28	-27.5	-29.3	14.7	0.00e+00	0	43	102	1048576	15	4417
2026-01-26 00:40:33.89	15.28	13.38	-27.2	-28.8	14.8	1.38e-03	0	43	102	1048576	15	4311
2026-01-26 00:40:34.88	15.26	13.47	-26.4	-28.4	14.6	1.27e-03	0	43	102	1048576	14	4540
2026-01-26 00:40:35.88	15.24	13.57	-27.2	-29.1	12.6	0.00e+00	0	43	102	1048576	14	4469
2026-01-26 00:40:36.88	15.22	13.67	-27.3	-29.3	13.6	0.00e+00	0	43	102	1048576	14	4529
2026-01-26 00:40:37.89	15.19	13.77	-27.2	-29.0	15.1	1.02e-03	0	43	102	1048576	14	4444
2026-01-26 00:40:38.88	15.17	13.87	-27.2	-29.1	15.1	0.00e+00	0	43	102	1048576	14	4461
2026-01-26 00:40:39.88	15.15	13.97	-27.1	-28.9	15.2	1.12e-03	0	43	102	1048576	14	4402
2026-01-26 00:40:40.89	15.12	14.08	-27.2	-29.1	15.0	0.00e+00	0	43	102	1048576	14	4472
2026-01-26 00:40:41.89	15.10	14.18	-27.2	-29.0	15.1	4.42e-03	0	43	102	1048576	14	4436
2026-01-26 00:40:42.90	15.08	14.28	-27.1	-28.8	15.2	4.06e-03	0	43	102	1048576	14	4384
2026-01-26 00:40:43.91	15.05	14.39	-27.2	-29.0	15.2	9.19e-04	0	43	102	1048576	14	4426
2026-01-26 00:40:44.91	15.03	14.49	-27.3	-29.4	15.0	0.00e+00	0	43	102	1048576	14	4544
2026-01-26 00:40:45.91	15.00	14.59	-27.2	-29.1	15.1	0.00e+00	0	43	102	1048576	14	4464
2026-01-26 00:40:46.92	14.98	14.70	-27.2	-28.9	15.2	6.03e-04	0	43	102	1048576	14	4414
2026-01-26 00:40:47.93	14.95	14.80	-27.2	-29.1	15.1	4.49e-03	0	43	102	1048576	14	4454
2026-01-26 00:40:48.93	14.93	14.91	-27.2	-29.1	15.1	4.45e-03	0	43	102	1048576	14	4473
2026-01-26 00:40:49.93	14.90	15.01	-27.2	-29.1	15.2	0.00e+00	0	43	102	1048576	14	4456
2026-01-26 00:40:50.94	14.88	15.12	-27.4	-29.4	15.0	0.00e+00	0	43	102	1048576	14	4556
2026-01-26 00:40:51.94	14.85	15.22	-27.3	-29.3	15.0	4.12e-03	0	43	102	1048576	14	4514
2026-01-26 00:40:52.95	14.82	15.33	-27.3	-29.3	15.0	6.48e-04	0	43	102	1048576	14	4525
2026-01-26 00:40:53.95	14.80	15.44	-27.3	-29.3	15.0	4.06e-03	0	43	102	1048576	14	4531
2026-01-26 00:40:54.95	14.77	15.55	-27.5	-29.6	14.8	4.43e-03	0	43	102	1048576	14	4623
2026-01-26 00:40:55.96	14.74	15.66	-27.3	-29.4	15.0	6.54e-04	0	43	102	1048576	14	4537
2026-01-26 00:40:56.96	14.72	15.76	-27.4	-29.5	14.9	4.50e-03	0	43	102	1048576	14	4593
2026-01-26 00:40:57.97	14.69	15.87	-27.7	-29.6	14.6	4.37e-03	0	43	102	1048576	15	4482
2026-01-26 00:40:58.97	14.66	15.98	-27.7	-29.8	14.5	6.46e-04	0	43	102	1048576	15	4550
2026-01-26 00:40:59.98	14.63	16.09	-27.5	-29.3	14.8	4.41e-03	0	43	102	1048576	15	4411
2026-01-26 00:41:00.98	14.61	16.21	-27.6	-29.4	14.7	7.00e-07	0	44	102	1048576	15	4426
2026-01-26 00:41:01.99	14.58	16.32	-27.6	-29.4	14.7	7.00e-07	0	43	102	1048576	15	4438
2026-01-26 00:41:03.00	14.55	16.43	-27.5	-29.3	14.8	4.09e-03	0	43	102	1048576	15	4408
2026-01-26 00:41:04.00	14.52	16.54	-27.5	-29.2	14.8	4.46e-03	0	44	102	1048576	15	4387
2026-01-26 00:41:05.01	14.49	16.66	-27.6	-29.4	14.8	6.58e-04	0	43	102	1048576	15	4433
2026-01-26 00:41:06.01	14.46	16.77	-27.6	-29.5	14.7	7.00e-07	0	43	102	1048576	15	4476
2026-01-26 00:41:07.02	14.43	16.88	-27.5	-29.3	14.8	7.00e-07	0	44	102	1048576	15	4405
2026-01-26 00:41:08.02	14.40	17.00	-27.5	-29.1	14.9	6.84e-04	0	43	102	1048576	15	4359
2026-01-26 00:41:09.03	14.37	17.11	-27.5	-29.6	14.9	4.38e-03	0	43	102	1048576	14	4622
2026-01-26 00:41:10.03	14.34	17.23	-27.5	-29.1	14.9	3.60e-03	0	43	102	1048576	15	4350
2026-01-26 00:41:11.04	14.31	17.34	-27.5	-29.2	14.9	0.00e+00	0	43	102	1048576	15	4377
2026-01-26 00:41:12.04	14.28	17.46	-27.4	-29.6	15.0	7.00e-07	0	44	102	1048576	14	4596
2026-01-26 00:41:13.04	14.25	17.58	-27.5	-29.2	14.9	0.00e+00	0	44	102	1048576	15	4377
2026-01-26 00:41:14.05	14.22	17.69	-27.7	-29.6	14.6	7.00e-07	0	43	102	1048576	15	4505
2026-01-26 00:41:15.05	14.19	17.81	-27.5	-29.2	14.9	0.00e+00	0	44	102	1048576	15	4372
2026-01-26 00:41:16.05	14.16	17.93	-27.5	-29.6	14.9	0.00e+00	0	43	102	1048576	14	4611
2026-01-26 00:41:17.05	14.13	18.05	-27.6	-29.3	14.8	0.00e+00	0	43	102	1048576	15	4411
2026-01-26 00:41:18.06	14.09	18.17	-27.7	-29.7	14.6	7.00e-07	0	44	102	1048576	15	4518
2026-01-26 00:41:19.06	14.06	18.29	-27.6	-29.3	14.8	0.00e+00	0	44	102	1048576	15	4409
2026-01-26 00:41:20.07	14.03	18.41	-27.5	-29.3	14.8	0.00e+00	0	44	102	1048576	15	4398
2026-01-26 00:41:21.07	13.99	18.53	-27.5	-29.2	14.9	0.00e+00	0	43	102	1048576	15	4381
2026-01-26 00:41:22.07	13.96	18.66	-27.6	-29.4	14.8	0.00e+00	0	43	102	1048576	15	4444
2026-01-26 00:41:23.07	13.93	18.78	-27.6	-29.3	14.8	0.00e+00	0	44	102	1048576	15	4413
2026-01-26 00:41:24.07	13.89	18.90	-27.6	-29.4	14.8	0.00e+00	0	44	102	1048576	15	4421
2026-01-26 00:41:25.07	13.86	19.02	-27.6	-29.3	14.8	0.00e+00	0	43	102	1048576	15	4416
2026-01-26 00:41:26.08	13.82	19.15	-27.6	-29.3	14.9	0.00e+00	0	43	102	1048576	15	4408
2026-01-26 00:41:27.08	13.79	19.27	-27.5	-29.3	14.9	0.00e+00	0	44	102	1048576	15	4397
2026-01-26 00:41:28.08	13.75	19.40	-27.7	-29.6	14.7	0.00e+00	0	44	102	1048576	15	4502
2026-01-26 00:41:29.09	13.72	19.53	-27.5	-29.1	15.0	0.00e+00	0	44	102	1048576	15	4342
2026-01-26 00:41:30.09	13.68	19.65	-27.4	-29.5	15.0	7.00e-07	0	44	102	1048576	14	4574
2026-01-26 00:41:31.09	13.65	19.78	-27.4	-29.5	15.0	1.48e-03	0	44	102	1048576	14	4582
2026-01-26 00:41:32.09	13.61	19.91	-27.4	-29.4	15.1	0.00e+00	0	44	102	1048576	14	4532
2026-01-26 00:41:33.10	13.57	20.04	-27.3	-29.3	15.2	0.00e+00	0	43	102	1048576	14	4509
2026-01-26 00:41:34.10	13.53	20.17	-27.3	-29.3	15.2	0.00e+00	0	44	102	1048576	14	4511
2026-01-26 00:41:35.10	13.50	20.30	-27.4	-29.4	15.1	0.00e+00	0	44	102	1048576	14	4538
2026-01-26 00:41:36.10	13.46	20.43	-27.2	-29.0	15.3	1.52e-03	0	44	102	1048576	14	4432
2026-01-26 00:41:37.10	13.42	20.56	-27.2	-29.0	15.3	0.00e+00	0	44	102	1048576	14	4425
2026-01-26 00:41:38.10	13.38	20.69	-27.2	-29.0	15.3	0.00e+00	0	43	102	1048576	14	4439
2026-01-26 00:41:39.11	13.34	20.83	-27.2	-29.0	15.4	0.00e+00	0	44	102	1048576	14	4419
2026-01-26 00:41:40.11	13.30	20.96	-27.1	-28.8	15.5	0.00e+00	0	44	102	1048576	14	4365
2026-01-26 00:41:41.12	13.26	21.09	-27.2	-28.9	15.4	0.00e+00	0	44	102	1048576	14	4413
2026-01-26 00:41:42.12	13.22	21.23	-27.2	-29.0	15.4	9.96e-04	0	44	102	1048576	14	4429
2026-01-26 00:41:43.12	13.18	21.36	-27.0	-28.6	15.6	0.00e+00	0	44	102	1048576	14	4311
2026-01-26 00:41:44.12	13.14	21.50	-26.9	-28.3	15.8	0.00e+00	0	44	102	1048576	14	4240
2026-01-26 00:41:45.13	13.10	21.64	-26.9	-28.8	15.8	8.93e-04	0	44	102	1048576	13	4473
2026-01-26 00:41:46.13	13.06	21.78	-26.8	-28.5	15.9	9.69e-04	0	44	102	1048576	13	4399
2026-01-26 00:41:47.13	13.02	21.91	-26.6	-28.2	16.1	0.00e+00	0	44	102	1048576	13	4309
2026-01-26 00:41:48.14	12.97	22.05	-26.6	-28.2	16.2	1.01e-03	0	44	102	1048576	13	4302
2026-01-26 00:41:49.14	12.93	22.19	-26.7	-28.4	16.0	0.00e+00	0	44	102	1048576	13	4364
2026-01-26 00:41:50.14	12.89	22.34	-26.9	-28.8	15.9	0.00e+00	0	44	102	1048576	13	4466
2026-01-26 00:41:51.14	12.84	22.48	-26.7	-28.2	16.1	1.37e-03	0	44	102	1048576	13	4319
2026-01-26 00:41:52.14	12.80	22.62	-26.5	-28.3	16.3	1.08e-03	0	44	102	1048576	12	4462
2026-01-26 00:41:53.15	12.75	22.76	-26.4	-28.1	16.5	0.00e+00	0	44	102	1048576	12	4395
2026-01-26 00:41:54.15	12.71	22.91	-26.4	-28.1	16.5	0.00e+00	0	44	102	1048576	12	4398
2026-01-26 00:41:55.15	12.66	23.05	-26.4	-28.3	16.4	1.08e-03	0	44	102	1048576	12	4446
2026-01-26 00:41:56.16	12.61	23.20	-26.2	-27.8	16.7	0.00e+00	0	44	102	1048576	12	4310
2026-01-26 00:41:57.17	12.57	23.35	-26.3	-27.9	16.6	8.73e-04	0	44	102	1048576	12	4337
2026-01-26 00:41:58.17	12.52	23.49	-26.2	-27.8	16.7	6.46e-04	0	44	102	1048576	12	4315
2026-01-26 00:41:59.18	12.47	23.64	-26.4	-28.1	16.5	0.00e+00	0	44	102	1048576	12	4404
2026-01-26 00:42:00.19	12.42	23.79	-26.3	-27.9	16.6	0.00e+00	0	44	102	1048576	12	4344
2026-01-26 00:42:01.19	12.38	23.94	-26.5	-27.8	16.4	4.23e-04	0	44	102	1048576	13	4191
2026-01-26 00:42:02.19	12.33	24.09	-26.3	-27.5	16.5	0.00e+00	0	44	102	1048576	13	4121
2026-01-26 00:42:03.19	12.28	24.24	-26.3	-27.9	16.6	4.26e-04	0	44	102	1048576	12	4334
2026-01-26 00:42:04.20	12.23	24.39	-26.3	-27.9	16.6	0.00e+00	0	44	102	1048576	12	4331
2026-01-26 00:42:05.20	12.18	24.55	-26.3	-27.9	16.6	0.00e+00	0	44	102	1048576	12	4341
2026-01-26 00:42:06.21	12.12	24.70	-25.7	-27.6	16.4	4.26e-04	0	44	102	1048576	12	4470
2026-01-26 00:42:07.21	12.07	24.86	-26.4	-28.3	16.1	4.59e-04	0	44	102	1048576	12	4446
2026-01-26 00:42:08.21	12.02	25.01	-26.4	-28.3	13.9	0.00e+00	0	44	102	1048576	12	4446
2026-01-26 00:42:09.21	11.97	25.17	-26.6	-28.0	16.1	0.00e+00	0	44	102	1048576	13	4259
2026-01-26 00:42:10.22	11.91	25.33	-26.7	-28.5	16.0	0.00e+00	0	44	102	1048576	13	4384
2026-01-26 00:42:11.22	11.86	25.49	-26.7	-28.4	16.1	3.11e-03	0	44	102	1048576	13	4373
2026-01-26 00:42:12.22	11.81	25.64	-26.7	-28.4	16.1	5.13e-04	0	44	102	1048576	13	4362
2026-01-26 00:42:13.23	11.75	25.81	-26.8	-28.5	16.0	0.00e+00	0	44	102	1048576	13	4396
2026-01-26 00:42:14.24	11.69	25.97	-26.9	-28.7	15.9	0.00e+00	0	44	102	1048576	13	4448
2026-01-26 00:42:15.24	11.64	26.13	-26.9	-28.7	15.9	0.00e+00	0	44	102	1048576	13	4454
2026-01-26 00:42:16.24	11.58	26.29	-27.0	-28.5	15.8	0.00e+00	0	44	102	1048576	14	4290
2026-01-26 00:42:17.25	11.52	26.46	-27.1	-28.7	15.7	3.28e-03	0	44	102	1048576	14	4343
2026-01-26 00:42:18.25	11.46	26.62	-27.3	-29.1	15.5	0.00e+00	0	44	102	1048576	14	4446
2026-01-26 00:42:19.25	11.40	26.79	-27.3	-29.1	15.5	0.00e+00	0	44	102	1048576	14	4432
2026-01-26 00:42:20.26	11.34	26.96	-27.4	-29.3	15.4	3.32e-03	0	44	102	1048576	14	4501
2026-01-26 00:42:21.26	11.28	27.13	-27.3	-29.2	15.4	3.14e-03	0	44	102	1048576	14	4463
2026-01-26 00:42:22.27	11.22	27.30	-27.3	-29.3	15.4	0.00e+00	0	44	102	1048576	14	4489
2026-01-26 00:42:23.28	11.16	27.47	-27.3	-29.2	15.5	0.00e+00	0	44	102	1048576	14	4464
2026-01-26 00:42:24.28	11.10	27.64	-27.4	-29.4	15.3	0.00e+00	0	44	102	1048576	14	4519
2026-01-26 00:42:25.29	11.03	27.81	-27.4	-29.4	15.4	0.00e+00	0	44	102	1048576	14	4509
2026-01-26 00:42:26.29	10.97	27.98	-27.6	-29.4	15.1	3.00e-03	0	44	102	1048576	15	4398
2026-01-26 00:42:27.30	10.91	28.16	-27.8	-29.9	14.8	2.98e-03	0	44	102	1048576	15	4557
2026-01-26 00:42:28.30	10.84	28.34	-27.9	-30.0	14.7	7.00e-07	0	44	102	1048576	15	4590
2026-01-26 00:42:29.30	10.77	28.51	-27.8	-29.8	14.8	2.92e-03	0	44	102	1048576	15	4542
2026-01-26 00:42:30.30	10.71	28.69	-27.8	-29.8	14.9	2.70e-03	0	44	102	1048576	15	4511
2026-01-26 00:42:31.31	10.64	28.87	-27.8	-29.8	14.9	0.00e+00	0	44	102	1048576	15	4518
2026-01-26 00:42:32.31	10.57	29.05	-27.8	-29.8	14.9	2.91e-03	0	44	102	1048576	15	4530
2026-01-26 00:42:33.32	10.50	29.23	-27.8	-29.7	14.9	3.12e-03	0	43	102	1048576	15	4492
2026-01-26 00:42:34.32	10.43	29.41	-27.5	-29.1	15.3	0.00e+00	0	44	102	1048576	15	4313
2026-01-26 00:42:35.31	10.36	29.59	-27.4	-28.8	15.4	2.10e-03	0	44	102	1048576	15	4240
2026-01-26 00:42:36.31	10.29	29.78	-27.3	-29.1	15.5	1.57e-03	0	44	102	1048576	14	4430
2026-01-26 00:42:37.31	10.22	29.96	-27.2	-29.0	15.5	0.00e+00	0	44	102	1048576	14	4427
2026-01-26 00:42:38.32	10.14	30.15	-27.2	-29.0	15.5	9.18e-04	0	44	102	1048576	14	4427
2026-01-26 00:42:39.33	10.07	30.34	-27.2	-28.9	15.6	0.00e+00	0	44	102	1048576	14	4389
2026-01-26 00:42:40.33	9.99	30.53	-27.4	-28.9	15.3	0.00e+00	0	44	102	1048576	15	4284
2026-01-26 00:42:41.33	9.92	30.72	-27.2	-28.4	15.6	1.30e-03	0	44	102	1048576	15	4148
2026-01-26 00:42:42.33	9.84	30.91	-26.9	-28.3	15.9	1.02e-03	0	44	102	1048576	14	4216
2026-01-26 00:42:43.34	9.76	31.10	-26.9	-28.3	16.0	0.00e+00	0	44	102	1048576	14	4222
2026-01-26 00:42:44.34	9.68	31.29	-26.9	-28.7	16.0	0.00e+00	0	44	102	1048576	13	4438
2026-01-26 00:42:45.34	9.60	31.49	-26.8	-28.7	16.0	0.00e+00	0	44	102	1048576	13	4432
2026-01-26 00:42:46.35	9.52	31.69	-26.9	-28.7	16.0	0.00e+00	0	44	102	1048576	13	4443
2026-01-26 00:42:47.35	9.44	31.88	-27.0	-28.5	15.9	1.90e-03	0	44	102	1048576	14	4267
2026-01-26 00:42:48.35	9.35	32.08	-27.3	-29.1	15.5	0.00e+00	0	44	102	1048576	14	4445
2026-01-26 00:42:49.35	9.27	32.28	-27.4	-29.3	15.4	0.00e+00	0	44	102	1048576	14	4508
2026-01-26 00:42:50.35	9.19	32.48	-27.4	-29.4	15.4	0.00e+00	0	44	102	1048576	14	4517
2026-01-26 00:42:51.35	9.10	32.68	-27.7	-29.5	15.0	0.00e+00	0	44	102	1048576	15	4445
2026-01-26 00:42:52.35	9.01	32.89	-27.6	-29.4	15.1	0.00e+00	0	44	102	1048576	15	4415
2026-01-26 00:42:53.36	8.92	33.09	-27.8	-29.9	14.8	0.00e+00	0	44	102	1048576	15	4554
2026-01-26 00:42:54.36	8.83	33.30	-27.7	-29.6	15.0	0.00e+00	0	44	102	1048576	15	4472
2026-01-26 00:42:55.37	8.74	33.51	-27.7	-29.7	15.0	0.00e+00	0	44	102	1048576	15	4500
2026-01-26 00:42:56.38	8.65	33.72	-27.7	-29.6	15.0	0.00e+00	0	44	102	1048576	15	4477
2026-01-26 00:42:57.39	8.55	33.93	-27.5	-29.6	14.8	7.00e-07	0	44	102	1048576	15	4555
2026-01-26 00:42:58.39	8.46	34.14	-28.0	-30.2	14.7	0.00e+00	0	44	102	1048576	15	4647
2026-01-26 00:42:59.40	8.36	34.36	-28.3	-30.4	14.4	1.50e-06	0	44	102	1048576	16	4574
2026-01-26 00:43:00.40	8.26	34.57	-28.2	-30.0	14.7	7.00e-07	0	44	102	1048576	16	4474
2026-01-26 00:43:01.41	8.16	34.79	-28.2	-30.2	14.6	7.00e-07	0	44	102	1048576	16	4513
2026-01-26 00:43:02.41	8.06	35.00	-28.2	-30.2	14.6	1.50e-06	0	44	102	1048576	16	4516
2026-01-26 00:43:03.42	7.96	35.22	-28.2	-30.2	14.5	2.89e-04	0	44	102	1048576	16	4532
2026-01-26 00:43:04.42	7.86	35.44	-28.3	-30.4	14.4	7.00e-07	0	44	102	1048576	16	4570
2026-01-26 00:43:05.42	7.75	35.67	-28.5	-30.2	14.2	7.00e-07	0	44	102	1048576	17	4424
2026-01-26 00:43:06.42	7.65	35.89	-28.4	-30.6	14.3	2.20e-06	0	44	102	1048576	16	4650
2026-01-26 00:43:07.42	7.54	36.11	-28.5	-30.4	14.1	7.00e-07	0	44	102	1048576	17	4483
2026-01-26 00:43:08.43	7.43	36.34	-28.7	-30.7	14.0	2.08e-04	0	44	102	1048576	17	4558
2026-01-26 00:43:09.43	7.32	36.57	-28.9	-31.2	13.7	1.34e-04	0	44	102	1048576	17	4725
2026-01-26 00:43:10.44	7.21	36.80	-29.1	-31.2	13.4	1.14e-05	0	44	102	1048576	18	4620
2026-01-26 00:43:11.44	7.09	37.03	-29.3	-31.7	13.1	1.83e-05	0	44	102	1048576	18	4762
2026-01-26 00:43:12.45	6.97	37.26	-29.3	-31.7	13.1	3.58e-05	0	44	102	1048576	18	4773
2026-01-26 00:43:13.45	6.86	37.49	-29.0	-31.0	13.5	9.90e-06	0	44	102	1048576	18	4550
2026-01-26 00:43:14.45	6.74	37.73	-28.8	-31.0	13.8	3.46e-04	0	44	102	1048576	17	4659
2026-01-26 00:43:15.45	6.62	37.96	-28.6	-30.7	14.0	3.94e-04	0	44	102	1048576	17	4553
2026-01-26 00:43:16.45	6.49	38.20	-28.7	-30.7	14.0	3.80e-06	0	44	102	1048576	17	4576
2026-01-26 00:43:17.46	6.37	38.44	-28.6	-30.6	14.1	5.09e-04	0	44	102	1048576	17	4524
2026-01-26 00:43:18.46	6.24	38.68	-28.6	-30.6	14.0	4.90e-04	0	44	102	1048576	17	4544
2026-01-26 00:43:19.46	6.11	38.92	-28.8	-31.0	13.9	1.50e-06	0	44	102	1048576	17	4648
2026-01-26 00:43:20.46	5.98	39.17	-28.8	-31.0	13.8	5.61e-04	0	44	102	1048576	17	4655
2026-01-26 00:43:21.46	5.85	39.41	-29.0	-31.0	13.6	6.26e-04	0	44	102	1048576	18	4537
2026-01-26 00:43:22.46	5.72	39.66	-29.0	-31.0	13.6	5.30e-06	0	44	102	1048576	18	4538
2026-01-26 00:43:23.47	5.58	39.91	-29.0	-31.0	13.6	5.90e-04	0	44	102	1048576	18	4534
2026-01-26 00:43:24.47	5.44	40.16	-29.1	-31.2	13.4	5.64e-04	0	44	102	1048576	18	4594
2026-01-26 00:43:25.48	5.30	40.41	-29.0	-31.1	13.4	1.44e-05	0	44	102	1048576	18	4590
2026-01-26 00:43:26.48	5.16	40.67	-29.0	-30.9	13.6	5.25e-04	0	44	102	1048576	18	4528
2026-01-26 00:43:27.49	5.01	40.92	-29.1	-31.2	13.4	1.22e-05	0	44	102	1048576	18	4621
2026-01-26 00:43:28.49	4.86	41.18	-29.2	-31.6	13.2	2.28e-05	0	44	102	1048576	18	4719
2026-01-26 00:43:29.50	4.71	41.44	-29.2	-31.6	13.2	3.52e-04	0	44	102	1048576	18	4734
2026-01-26 00:43:30.50	4.56	41.70	-29.5	-32.2	12.8	3.13e-04	0	44	102	1048576	18	4939
2026-01-26 00:43:31.50	4.40	41.96	-29.5	-31.8	12.7	7.78e-05	0	44	102	1048576	19	4693
2026-01-26 00:43:32.50	4.24	42.22	-29.7	-32.2	12.6	9.84e-05	0	44	102	1048576	19	4815
2026-01-26 00:43:33.51	4.08	42.49	-29.5	-31.7	12.9	1.13e-04	0	44	102	1048576	19	4658
2026-01-26 00:43:34.52	3.91	42.76	-29.2	-30.9	13.3	2.21e-05	0	44	102	1048576	19	4397
2026-01-26 00:43:35.52	3.75	43.03	-29.0	-31.0	13.6	8.30e-06	0	44	102	1048576	18	4532
2026-01-26 00:43:36.52	3.58	43.29	-28.9	-30.9	13.7	9.10e-06	0	44	102	1048576	18	4506
2026-01-26 00:43:37.52	3.41	43.57	-29.0	-30.9	13.6	6.10e-06	0	44	102	1048576	18	4514
2026-01-26 00:43:38.53	3.23	43.84	-29.1	-31.4	13.4	1.67e-05	0	44	102	1048576	18	4657
2026-01-26 00:43:39.53	3.05	44.11	-29.2	-31.4	13.3	2.13e-05	0	44	102	1048576	18	4678
2026-01-26 00:43:40.53	2.87	44.39	-29.2	-31.7	12.2	2.89e-05	0	44	102	1048576	18	4805
2026-01-26 00:43:41.54	2.68	44.67	-29.3	-31.7	13.2	3.58e-05	0	44	102	1048576	18	4746
2026-01-26 00:43:42.54	2.50	44.95	-29.1	-31.3	13.4	1.22e-05	0	44	102	1048576	18	4639
2026-01-26 00:43:43.54	2.31	45.23	-28.9	-31.3	13.7	7.60e-06	0	44	102	1048576	17	4745
2026-01-26 00:43:44.54	2.11	45.51	-29.0	-31.1	13.6	3.82e-03	0	44	102	1048576	18	4558
2026-01-26 00:43:45.55	1.91	45.80	-29.1	-31.4	13.4	8.30e-06	0	44	102	1048576	18	4643
2026-01-26 00:43:46.55	1.71	46.08	-29.1	-31.3	13.4	1.37e-05	0	44	102	1048576	18	4641
2026-01-26 00:43:47.55	1.50	46.37	-29.0	-31.1	13.5	1.75e-05	0	44	102	1048576	18	4563
2026-01-26 00:43:48.55	1.29	46.66	-29.0	-30.9	13.7	2.21e-05	0	44	102	1048576	18	4521
2026-01-26 00:43:49.55	1.08	46.95	-28.7	-30.8	13.9	3.65e-03	0	44	102	1048576	17	4587
2026-01-26 00:43:50.55	0.86	47.24	-28.4	-30.7	14.3	3.38e-03	0	44	102	1048576	16	4668
2026-01-26 00:43:51.55	0.64	47.53	-28.3	-30.3	14.5	7.00e-07	0	44	102	1048576	16	4548
2026-01-26 00:43:52.56	0.41	47.83	-28.4	-30.7	14.3	7.00e-07	0	44	102	1048576	16	4670
2026-01-26 00:43:53.57	0.18	48.13	-28.5	-30.3	14.3	3.89e-03	0	44	102	1048576	17	4438
2026-01-26 00:43:54.57	359.94	48.43	-28.5	-30.4	14.2	1.39e-04	0	44	102	1048576	17	4467
2026-01-26 00:43:55.58	359.70	48.73	-28.5	-30.3	14.2	3.81e-03	0	44	102	1048576	17	4450
2026-01-26 00:43:56.58	359.45	49.03	-28.5	-30.3	14.3	1.50e-06	0	44	102	1048576	17	4441
2026-01-26 00:43:57.59	359.20	49.34	-28.5	-30.3	14.2	1.50e-06	0	44	102	1048576	17	4449
2026-01-26 00:43:58.59	358.95	49.64	-28.7	-30.7	14.0	3.69e-03	0	44	102	1048576	17	4559
2026-01-26 00:43:59.60	358.68	49.95	-28.7	-30.7	14.0	3.39e-03	0	44	102	1048576	17	4572
2026-01-26 00:44:00.61	358.42	50.26	-28.9	-31.3	13.7	1.15e-04	0	44	102	1048576	17	4745
2026-01-26 00:44:01.62	358.14	50.57	-28.9	-31.3	13.7	3.44e-03	0	44	102	1048576	17	4738
2026-01-26 00:44:02.62	357.87	50.88	-28.8	-31.1	13.8	3.69e-03	0	44	102	1048576	17	4692
2026-01-26 00:44:03.63	357.58	51.20	-28.9	-31.2	13.7	1.27e-04	0	44	102	1048576	17	4726
2026-01-26 00:44:04.63	357.29	51.51	-28.9	-30.7	13.7	3.86e-03	0	44	102	1048576	18	4455
2026-01-26 00:44:05.63	357.00	51.82	-29.1	-31.2	13.5	3.75e-03	0	44	102	1048576	18	4594
2026-01-26 00:44:06.64	356.69	52.14	-29.1	-31.4	13.4	1.77e-04	0	44	102	1048576	18	4663
2026-01-26 00:44:07.64	356.38	52.46	-29.0	-31.0	13.6	4.50e-06	0	44	102	1048576	18	4552
2026-01-26 00:44:08.65	356.07	52.78	-28.8	-31.2	13.8	5.30e-06	0	44	102	1048576	17	4715
2026-01-26 00:44:09.65	355.74	53.09	-28.5	-30.3	14.3	1.88e-04	0	44	102	1048576	17	4431
2026-01-26 00:44:10.66	355.41	53.42	-27.9	-29.5	15.0	2.83e-03	0	44	102	1048576	16	4314
2026-01-26 00:44:11.66	355.08	53.74	-27.7	-29.4	15.2	2.73e-03	0	44	102	1048576	15	4418
2026-01-26 00:44:12.67	354.73	54.06	-27.6	-29.3	15.3	0.00e+00	0	44	102	1048576	15	4385
2026-01-26 00:44:13.67	354.38	54.38	-27.7	-29.5	15.1	0.00e+00	0	44	102	1048576	15	4446
2026-01-26 00:44:14.68	354.01	54.71	-27.8	-29.7	15.1	2.72e-03	0	44	102	1048576	15	4490
2026-01-26 00:44:15.68	353.64	55.03	-27.6	-29.2	15.2	2.01e-04	0	44	102	1048576	15	4363
2026-01-26 00:44:16.68	353.27	55.36	-27.3	-29.1	15.6	0.00e+00	0	44	102	1048576	14	4446
2026-01-26 00:44:17.69	352.88	55.69	-27.1	-28.6	15.9	0.00e+00	0	44	102	1048576	14	4301
2026-01-26 00:44:18.69	352.48	56.01	-26.9	-28.3	16.1	0.00e+00	0	44	102	1048576	14	4211
2026-01-26 00:44:19.70	352.07	56.35	-27.1	-28.6	15.9	0.00e+00	0	44	102	1048576	14	4289
2026-01-26 00:44:20.70	351.66	56.67	-27.3	-29.2	15.6	0.00e+00	0	44	102	1048576	14	4460
2026-01-26 00:44:21.71	351.23	57.00	-27.2	-28.9	15.8	0.00e+00	0	44	102	1048576	14	4379
2026-01-26 00:44:22.71	350.79	57.33	-27.3	-29.2	15.6	0.00e+00	0	44	102	1048576	14	4462
2026-01-26 00:44:23.71	350.35	57.66	-27.3	-29.0	15.7	0.00e+00	0	44	102	1048576	14	4411
2026-01-26 00:44:24.71	349.89	57.99	-27.1	-28.7	15.9	0.00e+00	0	44	102	1048576	14	4319
2026-01-26 00:44:25.71	349.42	58.32	-26.8	-28.4	16.3	0.00e+00	0	44	102	1048576	13	4362
2026-01-26 00:44:26.72	348.94	58.65	-26.8	-28.4	16.3	0.00e+00	0	44	102	1048576	13	4356
2026-01-26 00:44:27.73	348.44	58.98	-26.8	-28.6	16.2	0.00e+00	0	44	102	1048576	13	4395
2026-01-26 00:44:28.74	347.93	59.31	-27.1	-28.7	15.9	0.00e+00	0	44	102	1048576	14	4327
2026-01-26 00:44:29.74	347.41	59.64	-27.2	-29.0	15.7	0.00e+00	0	44	102	1048576	14	4395
2026-01-26 00:44:30.75	346.87	59.97	-27.6	-29.3	15.3	0.00e+00	0	44	102	1048576	15	4369
2026-01-26 00:44:31.74	346.33	60.29	-27.2	-28.5	15.7	0.00e+00	0	44	102	1048576	15	4149
2026-01-26 00:44:32.74	345.77	60.62	-26.9	-28.3	16.1	0.00e+00	0	44	102	1048576	14	4210
2026-01-26 00:44:33.74	345.20	60.95	-26.5	-27.4	16.6	0.00e+00	0	44	102	1048576	14	3979
2026-01-26 00:44:34.75	344.61	61.27	-26.5	-27.9	16.5	0.00e+00	0	44	102	1048576	13	4219
2026-01-26 00:44:35.75	344.00	61.60	-26.5	-27.8	16.6	0.00e+00	0	44	102	1048576	13	4186
2026-01-26 00:44:36.76	343.37	61.92	-26.5	-27.9	16.5	0.00e+00	0	44	102	1048576	13	4225
2026-01-26 00:44:37.76	342.73	62.24	-26.3	-27.3	16.9	5.56e-05	0	44	102	1048576	13	4049
2026-01-26 00:44:38.77	342.07	62.56	-26.0	-27.2	17.2	0.00e+00	0	44	102	1048576	12	4143
2026-01-26 00:44:39.77	341.40	62.88	-25.8	-26.7	17.5	0.00e+00	0	44	102	1048576	12	4025
2026-01-26 00:44:40.78	340.70	63.20	-25.7	-26.5	17.6	0.00e+00	0	44	102	1048576	12	3975
2026-01-26 00:44:41.78	339.99	63.51	-25.8	-27.2	17.5	0.00e+00	0	44	102	1048576	11	4265
2026-01-26 00:44:42.79	339.26	63.83	-25.3	-26.2	18.0	0.00e+00	0	44	102	1048576	11	4006
2026-01-26 00:44:43.79	338.51	64.13	-25.2	-26.6	18.1	0.00e+00	0	44	102	1048576	10	4207
2026-01-26 00:44:44.80	337.73	64.44	-25.5	-27.1	17.9	0.00e+00	0	44	102	1048576	10	4335
2026-01-26 00:44:45.80	336.94	64.74	-25.6	-26.9	17.7	0.00e+00	0	44	102	1048576	11	4171
2026-01-26 00:44:46.81	336.12	65.05	-25.8	-27.3	17.5	0.00e+00	0	44	102	1048576	11	4269
2026-01-26 00:44:47.81	335.29	65.34	-25.9	-27.4	17.4	0.00e+00	0	44	102	1048576	11	4315
2026-01-26 00:44:48.81	334.43	65.63	-25.9	-27.1	17.3	0.00e+00	0	44	102	1048576	12	4127
2026-01-26 00:44:49.81	333.55	65.92	-25.7	-26.7	17.4	0.00e+00	0	44	102	1048576	12	4022
2026-01-26 00:44:50.80	332.66	66.20	-26.1	-27.5	17.0	0.00e+00	0	44	102	1048576	12	4234
2026-01-26 00:44:51.81	331.72	66.48	-26.3	-27.9	16.8	0.00e+00	0	44	102	1048576	12	4330
2026-01-26 00:44:52.82	330.76	66.76	-26.1	-27.4	17.0	0.00e+00	0	44	102	1048576	12	4208
2026-01-26 00:44:53.83	329.78	67.03	-26.1	-27.5	17.1	0.00e+00	0	44	102	1048576	12	4224
2026-01-26 00:44:54.83	328.78	67.29	-25.6	-26.5	17.5	0.00e+00	0	44	102	1048576	12	3973
2026-01-26 00:44:55.84	327.74	67.55	-25.4	-25.8	17.9	0.00e+00	0	44	102	1048576	12	3804
2026-01-26 00:44:56.84	326.69	67.80	-26.0	-27.6	17.3	0.00e+00	0	44	102	1048576	11	4368
2026-01-26 00:44:57.85	325.60	68.05	-26.1	-27.4	17.1	0.00e+00	0	44	102	1048576	12	4210
2026-01-26 00:44:58.85	324.50	68.29	-25.9	-27.0	17.3	0.00e+00	0	44	102	1048576	12	4105
2026-01-26 00:44:59.86	323.35	68.52	-25.9	-27.0	17.3	0.00e+00	0	44	102	1048576	12	4098
2026-01-26 00:45:00.86	322.20	68.75	-25.9	-27.0	17.3	0.00e+00	0	44	102	1048576	12	4104
2026-01-26 00:45:01.87	321.00	68.97	-25.9	-27.1	17.3	0.00e+00	0	44	102	1048576	12	4126
2026-01-26 00:45:02.87	319.79	69.17	-26.0	-27.2	17.2	0.00e+00	0	44	102	1048576	12	4157
2026-01-26 00:45:03.88	318.54	69.37	-25.7	-26.6	17.5	0.00e+00	0	44	102	1048576	12	3984
2026-01-26 00:45:04.88	317.28	69.57	-25.4	-26.0	17.8	0.00e+00	0	44	102	1048576	12	3857
2026-01-26 00:45:05.89	315.98	69.75	-25.6	-26.4	17.6	0.00e+00	0	44	102	1048576	12	3948
2026-01-26 00:45:06.90	314.66	69.92	-25.6	-26.3	17.6	0.00e+00	0	44	102	1048576	12	3924
2026-01-26 00:45:07.90	313.32	70.08	-25.3	-26.3	18.0	8.39e-05	0	44	102	1048576	11	4022
2026-01-26 00:45:08.91	311.95	70.24	-25.1	-25.7	18.3	0.00e+00	0	44	102	1048576	11	3872
2026-01-26 00:45:09.92	310.55	70.38	-25.8	-27.2	17.5	0.00e+00	0	44	102	1048576	11	4260
2026-01-26 00:45:10.92	309.15	70.51	-26.0	-27.2	17.3	0.00e+00	0	44	102	1048576	12	4135
2026-01-26 00:45:11.92	307.73	70.63	-26.3	-27.9	16.9	0.00e+00	0	44	102	1048576	12	4317
2026-01-26 00:45:12.93	306.28	70.74	-26.0	-27.2	17.2	5.56e-05	0	44	102	1048576	12	4154
2026-01-26 00:45:13.94	304.81	70.84	-25.5	-26.2	17.7	3.77e-04	0	44	102	1048576	12	3883
2026-01-26 00:45:14.95	303.32	70.93	-25.2	-25.9	18.1	0.00e+00	0	44	102	1048576	11	3924
2026-01-26 00:45:15.95	301.84	71.00	-25.0	-25.6	18.3	0.00e+00	0	44	102	1048576	11	3855
2026-01-26 00:45:16.96	300.33	71.06	-25.9	-27.6	17.3	0.00e+00	0	44	102	1048576	11	4350
2026-01-26 00:45:17.96	298.83	71.11	-26.0	-27.2	17.2	0.00e+00	0	44	102	1048576	12	4146
2026-01-26 00:45:18.97	297.30	71.15	-25.5	-26.8	17.6	1.31e-03	0	44	102	1048576	11	4136
2026-01-26 00:45:19.97	295.78	71.17	-25.3	-26.2	17.9	2.09e-03	0	44	102	1048576	11	3991
2026-01-26 00:45:20.98	294.25	71.18	-25.9	-27.6	17.3	0.00e+00	0	44	102	1048576	11	4369
2026-01-26 00:45:21.98	292.73	71.18	-26.1	-27.4	17.1	2.29e-03	0	44	102	1048576	12	4201
2026-01-26 00:45:22.99	291.19	71.17	-26.1	-27.5	17.1	2.33e-03	0	44	102	1048576	12	4215
2026-01-26 00:45:23.99	289.68	71.14	-26.3	-27.9	16.7	0.00e+00	0	44	102	1048576	12	4336
2026-01-26 00:45:25.00	288.15	71.10	-26.2	-27.6	17.0	1.94e-03	0	44	102	1048576	12	4262
2026-01-26 00:45:26.01	286.63	71.05	-25.9	-27.6	17.3	1.72e-03	0	44	102	1048576	11	4355
2026-01-26 00:45:27.01	285.14	70.98	-25.5	-26.6	17.8	0.00e+00	0	44	102	1048576	11	4085
2026-01-26 00:45:28.01	283.66	70.91	-25.7	-27.0	17.6	3.56e-03	0	44	102	1048576	11	4196
2026-01-26 00:45:29.01	282.19	70.82	-26.3	-27.9	16.9	3.16e-03	0	44	102	1048576	12	4333
2026-01-26 00:45:30.01	280.74	70.72	-26.2	-27.7	16.9	0.00e+00	0	44	102	1048576	12	4282
2026-01-26 00:45:31.02	279.29	70.61	-25.8	-26.7	17.4	0.00e+00	0	44	102	1048576	12	4030
2026-01-26 00:45:32.02	277.87	70.49	-25.3	-26.2	17.9	0.00e+00	0	44	102	1048576	11	3996
2026-01-26 00:45:33.02	276.47	70.36	-25.6	-26.9	17.7	0.00e+00	0	44	102	1048576	11	4170
2026-01-26 00:45:34.03	275.08	70.21	-25.7	-27.0	17.7	1.99e-03	0	44	102	1048576	11	4198
2026-01-26 00:45:35.03	273.72	70.06	-25.9	-27.6	17.3	2.59e-03	0	44	102	1048576	11	4357
2026-01-26 00:45:36.04	272.38	69.89	-25.6	-26.8	17.8	0.00e+00	0	44	102	1048576	11	4151
2026-01-26 00:45:37.04	271.07	69.72	-25.4	-26.5	17.9	0.00e+00	0	44	102	1048576	11	4067
2026-01-26 00:45:38.05	269.77	69.53	-25.3	-26.7	18.0	0.00e+00	0	44	102	1048576	10	4227
2026-01-26 00:45:39.05	268.51	69.34	-25.1	-26.3	18.2	0.00e+00	0	44	102	1048576	10	4139
2026-01-26 00:45:40.06	267.27	69.14	-26.1	-27.5	17.0	2.61e-03	0	44	102	1048576	12	4230
2026-01-26 00:45:41.06	266.06	68.93	-26.4	-28.1	16.7	0.00e+00	0	44	102	1048576	12	4376
2026-01-26 00:45:42.06	264.88	68.71	-26.8	-28.6	16.1	0.00e+00	0	44	102	1048576	13	4412
2026-01-26 00:45:43.07	263.72	68.48	-26.0	-27.2	17.1	0.00e+00	0	44	102	1048576	12	4157
2026-01-26 00:45:44.07	262.59	68.25	-25.4	-26.4	17.9	3.57e-03	0	44	102	1048576	11	4037
2026-01-26 00:45:45.08	261.47	68.01	-25.1	-25.7	18.3	0.00e+00	0	44	102	1048576	11	3876
2026-01-26 00:45:46.08	260.40	67.76	-25.5	-26.7	17.7	0.00e+00	0	44	102	1048576	11	4110
2026-01-26 00:45:47.09	259.34	67.50	-25.9	-27.5	16.8	0.00e+00	0	44	102	1048576	12	4305
2026-01-26 00:45:48.09	258.32	67.25	-26.8	-28.6	16.1	0.00e+00	0	44	102	1048576	13	4428
2026-01-26 00:45:49.10	257.31	66.98	-26.0	-26.7	16.0	0.00e+00	0	44	102	1048576	13	3919
2026-01-26 00:45:50.09	256.35	66.71	-25.4	-26.5	17.4	1.42e-04	0	44	102	1048576	11	4084
2026-01-26 00:45:51.10	255.39	66.43	-25.4	-26.5	17.8	0.00e+00	0	44	102	1048576	11	4070
2026-01-26 00:45:52.10	254.47	66.15	-25.9	-27.5	17.2	0.00e+00	0	44	102	1048576	11	4349
2026-01-26 00:45:53.10	253.57	65.87	-26.1	-27.5	16.9	0.00e+00	0	44	102	1048576	12	4213
2026-01-26 00:45:54.11	252.68	65.58	-26.3	-28.0	16.7	0.00e+00	0	44	102	1048576	12	4368
2026-01-26 00:45:55.11	251.83	65.28	-26.2	-27.8	16.8	3.64e-04	0	44	102	1048576	12	4297
2026-01-26 00:45:56.12	250.99	64.98	-25.5	-26.3	17.5	0.00e+00	0	44	102	1048576	12	3909
2026-01-26 00:45:57.12	250.18	64.68	-24.9	-25.3	18.4	0.00e+00	0	44	102	1048576	11	3787
2026-01-26 00:45:58.12	249.39	64.38	-24.8	-26.2	18.4	0.00e+00	0	44	102	1048576	9	4220
2026-01-26 00:45:59.13	248.62	64.07	-25.6	-27.0	17.6	0.00e+00	0	44	102	1048576	11	4188
2026-01-26 00:46:00.13	247.87	63.76	-27.1	-28.6	15.8	0.00e+00	0	44	102	1048576	14	4313
2026-01-26 00:46:01.14	247.14	63.45	-27.7	-29.6	14.9	4.34e-04	0	44	102	1048576	15	4487
2026-01-26 00:46:02.14	246.43	63.13	-27.1	-28.1	15.6	2.77e-04	0	44	102	1048576	15	4077
2026-01-26 00:46:03.14	245.74	62.82	-26.3	-26.9	16.6	0.00e+00	0	44	102	1048576	14	3854
2026-01-26 00:46:04.15	245.06	62.50	-26.0	-27.4	17.0	0.00e+00	0	44	102	1048576	12	4183
2026-01-26 00:46:05.15	244.41	62.18	-25.8	-26.9	17.2	0.00e+00	0	44	102	1048576	12	4058
2026-01-26 00:46:06.15	243.77	61.86	-25.9	-27.1	17.0	0.00e+00	0	44	102	1048576	12	4117
2026-01-26 00:46:07.16	243.15	61.53	-26.7	-28.3	16.2	0.00e+00	0	44	102	1048576	13	4327
2026-01-26 00:46:08.16	242.55	61.20	-27.2	-29.0	15.6	0.00e+00	0	44	102	1048576	14	4430
2026-01-26 00:46:09.17	241.95	60.88	-26.8	-28.1	16.0	0.00e+00	0	44	102	1048576	14	4172
2026-01-26 00:46:10.17	241.38	60.55	-26.0	-26.8	17.0	6.80e-06	0	44	102	1048576	13	3937
2026-01-26 00:46:11.18	240.82	60.22	-26.1	-27.4	17.0	1.38e-04	0	44	102	1048576	12	4199
2026-01-26 00:46:12.18	240.27	59.89	-27.0	-28.9	15.9	0.00e+00	0	44	102	1048576	13	4486
2026-01-26 00:46:13.18	239.74	59.56	-27.5	-29.2	15.1	0.00e+00	0	44	102	1048576	15	4362
2026-01-26 00:46:14.19	239.22	59.23	-28.4	-30.6	14.2	3.00e-06	0	44	102	1048576	16	4641
2026-01-26 00:46:15.19	238.72	58.90	-28.5	-30.5	14.0	5.30e-06	0	44	102	1048576	17	4508
2026-01-26 00:46:16.20	238.22	58.57	-28.2	-30.1	14.5	2.53e-04	0	44	102	1048576	16	4482
2026-01-26 00:46:17.20	237.74	58.24	-27.7	-29.0	15.1	2.72e-04	0	44	102	1048576	16	4172
2026-01-26 00:46:18.21	237.27	57.91	-27.1	-28.1	15.6	0.00e+00	0	44	102	1048576	15	4068
2026-01-26 00:46:19.21	236.81	57.58	-26.8	-28.0	16.0	0.00e+00	0	44	102	1048576	14	4140
2026-01-26 00:46:20.21	236.37	57.25	-27.2	-29.0	15.6	2.19e-04	0	44	102	1048576	14	4407
2026-01-26 00:46:21.22	235.93	56.91	-27.9	-30.0	14.7	0.00e+00	0	44	102	1048576	15	4586
2026-01-26 00:46:22.22	235.51	56.59	-28.9	-31.4	13.4	2.20e-04	0	44	102	1048576	17	4786
2026-01-26 00:46:23.23	235.09	56.25	-29.1	-31.3	13.3	1.83e-05	0	44	102	1048576	18	4657
2026-01-26 00:46:24.23	234.68	55.93	-29.1	-31.4	13.2	3.73e-05	0	44	102	1048576	18	4694
2026-01-26 00:46:25.24	234.29	55.60	-28.2	-29.6	14.5	2.20e-06	0	44	102	1048576	17	4248
2026-01-26 00:46:26.24	233.90	55.27	-27.4	-28.3	15.6	3.20e-04	0	44	102	1048576	16	4007
2026-01-26 00:46:27.24	233.53	54.94	-26.7	-27.8	16.2	0.00e+00	0	44	102	1048576	14	4099
2026-01-26 00:46:28.25	233.15	54.61	-26.5	-27.9	16.4	0.00e+00	0	44	102	1048576	13	4230
2026-01-26 00:46:29.26	232.79	54.29	-26.9	-28.8	15.9	0.00e+00	0	44	102	1048576	13	4484
2026-01-26 00:46:30.26	232.44	53.96	-26.8	-28.5	14.7	0.00e+00	0	44	102	1048576	15	4384
2026-01-26 00:46:31.27	232.09	53.64	-29.0	-31.3	12.6	3.50e-05	0	44	102	1048576	18	4649
2026-01-26 00:46:32.28	231.75	53.31	-29.6	-32.2	12.3	6.48e-04	0	44	102	1048576	19	4873
2026-01-26 00:46:33.28	231.43	52.99	-29.6	-32.1	12.2	2.94e-04	0	44	102	1048576	19	4806
2026-01-26 00:46:34.29	231.10	52.67	-28.6	-30.6	13.8	1.60e-05	0	44	102	1048576	17	4560
2026-01-26 00:46:35.29	230.79	52.35	-27.7	-29.1	15.0	7.00e-07	0	44	102	1048576	16	4220
2026-01-26 00:46:36.30	230.48	52.03	-27.3	-28.6	15.5	1.66e-03	0	44	102	1048576	15	4184
2026-01-26 00:46:37.30	230.18	51.72	-27.3	-29.3	15.3	1.35e-03	0	44	102	1048576	14	4489
2026-01-26 00:46:38.30	229.88	51.40	-27.7	-29.5	14.9	0.00e+00	0	44	102	1048576	15	4457
2026-01-26 00:46:39.30	229.59	51.09	-28.1	-30.0	14.5	0.00e+00	0	44	102	1048576	16	4468
2026-01-26 00:46:40.31	229.31	50.77	-28.4	-30.8	14.1	7.00e-07	0	44	102	1048576	16	4720
2026-01-26 00:46:41.31	229.03	50.46	-28.8	-31.1	13.5	1.90e-05	0	44	102	1048576	17	4714
2026-01-26 00:46:42.32	228.76	50.15	-29.1	-31.3	13.1	5.53e-04	0	44	102	1048576	18	4664
2026-01-26 00:46:43.33	228.49	49.84	-29.4	-32.1	12.7	3.81e-04	0	44	102	1048576	18	4921
2026-01-26 00:46:44.33	228.23	49.54	-29.6	-32.2	12.1	3.26e-04	0	44	102	1048576	19	4840
2026-01-26 00:46:45.33	227.98	49.23	-29.3	-31.3	12.5	1.27e-04	0	44	102	1048576	19	4552
2026-01-26 00:46:46.33	227.73	48.93	-29.2	-31.5	12.8	5.42e-04	0	44	102	1048576	18	4727
2026-01-26 00:46:47.33	227.48	48.63	-29.2	-31.5	12.9	6.33e-05	0	44	102	1048576	18	4713
2026-01-26 00:46:48.33	227.24	48.33	-28.8	-30.7	13.5	4.52e-04	0	44	102	1048576	18	4466
2026-01-26 00:46:49.33	227.01	48.03	-28.9	-30.9	13.4	8.30e-06	0	44	102	1048576	18	4541
2026-01-26 00:46:50.34	226.78	47.73	-29.4	-32.1	12.6	5.41e-05	0	44	102	1048576	18	4933
2026-01-26 00:46:51.34	226.55	47.43	-29.7	-32.5	12.0	1.11e-03	0	44	102	1048576	19	4956
2026-01-26 00:46:52.35	226.33	47.13	-29.5	-31.8	12.5	1.19e-03	0	44	102	1048576	19	4701
2026-01-26 00:46:53.35	226.11	46.84	-29.2	-31.2	12.9	5.49e-05	0	44	102	1048576	19	4509
2026-01-26 00:46:54.35	225.89	46.55	-29.1	-31.3	13.2	1.44e-03	0	44	102	1048576	18	4658
2026-01-26 00:46:55.36	225.68	46.26	-29.2	-31.6	13.0	1.26e-03	0	44	102	1048576	18	4751
2026-01-26 00:46:56.36	225.48	45.97	-29.4	-32.2	12.6	7.62e-05	0	44	102	1048576	18	4958
2026-01-26 00:46:57.37	225.27	45.68	-29.5	-31.9	12.3	4.22e-04	0	44	102	1048576	19	4748
2026-01-26 00:46:58.38	225.07	45.39	-29.6	-32.2	11.9	5.75e-04	0	44	102	1048576	19	4870
2026-01-26 00:46:59.38	224.88	45.11	-29.6	-32.3	11.9	3.32e-04	0	44	102	1048576	19	4881
2026-01-26 00:47:00.38	224.69	44.83	-29.6	-32.3	12.1	3.81e-04	0	44	102	1048576	19	4878
2026-01-26 00:47:01.39	224.50	44.55	-29.2	-31.2	12.8	6.10e-05	0	44	102	1048576	19	4531
2026-01-26 00:47:02.39	224.31	44.27	-28.9	-30.4	13.3	3.35e-05	0	44	102	1048576	19	4280
2026-01-26 00:47:03.39	224.13	43.99	-28.6	-30.2	13.6	1.72e-04	0	44	102	1048576	18	4329
2026-01-26 00:47:04.39	223.95	43.72	-28.6	-30.2	13.5	9.90e-06	0	44	102	1048576	18	4335
2026-01-26 00:47:05.40	223.78	43.44	-28.8	-30.7	13.4	6.80e-06	0	44	102	1048576	18	4473
2026-01-26 00:47:06.40	223.60	43.17	-29.0	-31.1	13.2	2.59e-05	0	44	102	1048576	18	4594
2026-01-26 00:47:07.40	223.44	42.90	-29.1	-31.5	13.0	4.43e-04	0	44	102	1048576	18	4720
2026-01-26 00:47:08.41	223.27	42.63	-29.3	-32.0	12.7	6.33e-05	0	44	102	1048576	18	4900
2026-01-26 00:47:09.41	223.10	42.36	-29.4	-32.3	12.5	9.46e-05	0	44	102	1048576	18	5001
2026-01-26 00:47:10.42	222.94	42.09	-29.5	-31.9	12.5	1.43e-04	0	44	102	1048576	19	4738
2026-01-26 00:47:11.42	222.78	41.83	-29.3	-31.5	12.7	9.53e-05	0	44	102	1048576	19	4617
2026-01-26 00:47:12.42	222.63	41.57	-29.3	-32.0	12.7	6.48e-05	0	44	102	1048576	18	4885
2026-01-26 00:47:13.43	222.47	41.31	-29.1	-31.4	13.1	3.90e-04	0	44	102	1048576	18	4697
2026-01-26 00:47:14.43	222.32	41.05	-28.4	-29.7	14.1	3.00e-06	0	44	102	1048576	18	4183
2026-01-26 00:47:15.44	222.17	40.79	-27.9	-29.0	14.7	0.00e+00	0	44	102	1048576	17	4082
2026-01-26 00:47:16.44	222.03	40.53	-27.7	-29.0	15.0	0.00e+00	0	44	102	1048576	16	4185
2026-01-26 00:47:17.45	221.88	40.28	-27.6	-28.8	15.1	0.00e+00	0	44	102	1048576	16	4141
2026-01-26 00:47:18.45	221.74	40.03	-27.5	-28.7	15.2	8.16e-05	0	44	102	1048576	16	4110
2026-01-26 00:47:19.45	221.60	39.78	-27.5	-28.5	15.3	0.00e+00	0	44	102	1048576	16	4053
2026-01-26 00:47:20.45	221.47	39.53	-27.7	-29.0	15.0	0.00e+00	0	44	102	1048576	16	4201
2026-01-26 00:47:21.46	221.33	39.28	-28.1	-30.1	14.3	1.50e-06	0	44	102	1048576	16	4506
2026-01-26 00:47:22.47	221.20	39.03	-28.5	-30.9	13.9	3.80e-06	0	44	102	1048576	16	4753
2026-01-26 00:47:23.48	221.07	38.78	-28.8	-31.2	13.5	7.60e-06	0	44	102	1048576	17	4741
2026-01-26 00:47:24.48	220.94	38.54	-29.1	-31.4	13.0	1.44e-05	0	44	102	1048576	18	4718
2026-01-26 00:47:25.49	220.81	38.30	-29.1	-31.4	13.0	4.27e-05	0	44	102	1048576	18	4717
2026-01-26 00:47:26.50	220.69	38.05	-29.1	-31.5	13.0	5.11e-05	0	44	102	1048576	18	4736
2026-01-26 00:47:27.50	220.56	37.82	-29.0	-31.2	13.2	2.97e-05	0	44	102	1048576	18	4629
2026-01-26 00:47:28.51	220.44	37.58	-28.8	-30.8	13.4	1.37e-05	0	44	102	1048576	18	4505
2026-01-26 00:47:29.51	220.32	37.34	-28.7	-30.5	13.6	1.29e-05	0	44	102	1048576	18	4402
2026-01-26 00:47:30.52	220.20	37.11	-28.8	-30.6	13.5	6.48e-05	0	44	102	1048576	18	4447
2026-01-26 00:47:31.52	220.09	36.88	-28.7	-30.4	13.7	2.05e-05	0	44	102	1048576	18	4378
2026-01-26 00:47:32.52	219.97	36.65	-28.4	-29.7	14.1	2.20e-06	0	44	102	1048576	18	4177
2026-01-26 00:47:33.53	219.86	36.41	-28.5	-29.9	14.0	2.82e-05	0	44	102	1048576	18	4227
2026-01-26 00:47:34.54	219.75	36.18	-28.6	-30.1	13.8	4.34e-05	0	44	102	1048576	18	4306
2026-01-26 00:47:35.54	219.64	35.96	-28.6	-30.3	13.8	2.20e-06	0	44	102	1048576	18	4345
2026-01-26 00:47:36.54	219.53	35.73	-28.5	-29.9	14.0	5.56e-05	0	44	102	1048576	18	4231
2026-01-26 00:47:37.55	219.42	35.51	-28.4	-30.2	14.1	5.11e-05	0	44	102	1048576	17	4424
2026-01-26 00:47:38.56	219.32	35.29	-28.1	-29.6	14.4	0.00e+00	0	44	102	1048576	17	4244
2026-01-26 00:47:39.57	219.21	35.06	-27.7	-29.2	14.9	4.50e-05	0	44	102	1048576	16	4250
2026-01-26 00:47:40.58	219.11	34.84	-27.6	-29.0	15.0	1.58e-04	0	44	102	1048576	16	4186
2026-01-26 00:47:41.58	219.01	34.63	-27.5	-28.7	15.2	0.00e+00	0	44	102	1048576	16	4127
2026-01-26 00:47:42.59	218.91	34.41	-27.5	-29.1	15.1	6.10e-06	0	44	102	1048576	15	4334
2026-01-26 00:47:43.59	218.81	34.19	-27.6	-29.5	14.8	0.00e+00	0	44	102	1048576	15	4452
2026-01-26 00:47:44.60	218.72	33.98	-27.8	-29.9	14.6	0.00e+00	0	44	102	1048576	15	4590
2026-01-26 00:47:45.60	218.62	33.77	-27.8	-30.0	14.6	3.80e-04	0	44	102	1048576	15	4601
2026-01-26 00:47:46.60	218.53	33.56	-27.8	-29.8	14.6	0.00e+00	0	44	102	1048576	15	4544
2026-01-26 00:47:47.61	218.43	33.34	-27.5	-29.2	15.0	0.00e+00	0	44	102	1048576	15	4384
2026-01-26 00:47:48.61	218.34	33.14	-27.4	-28.9	15.2	1.06e-05	0	44	102	1048576	15	4290
2026-01-26 00:47:49.62	218.25	32.93	-27.1	-28.7	15.5	3.12e-04	0	44	102	1048576	14	4346
2026-01-26 00:47:50.63	218.16	32.72	-26.7	-27.8	16.1	0.00e+00	0	44	102	1048576	14	4094
2026-01-26 00:47:51.64	218.07	32.52	-26.4	-27.7	16.4	8.30e-06	0	44	102	1048576	13	4174
2026-01-26 00:47:52.64	217.99	32.31	-26.2	-27.3	16.6	0.00e+00	0	44	102	1048576	13	4074
2026-01-26 00:47:53.65	217.90	32.11	-26.3	-27.9	14.8	0.00e+00	0	44	102	1048576	12	4354
2026-01-26 00:47:54.64	217.82	31.91	-26.5	-28.0	15.0	6.80e-06	0	44	102	1048576	13	4259
2026-01-26 00:47:55.64	217.73	31.71	-26.6	-28.2	16.1	0.00e+00	0	44	102	1048576	13	4304
2026-01-26 00:47:56.65	217.65	31.51	-26.6	-28.2	16.1	0.00e+00	0	44	102	1048576	13	4323
2026-01-26 00:47:57.66	217.57	31.32	-26.7	-28.3	16.0	7.00e-07	0	44	102	1048576	13	4340
2026-01-26 00:47:58.66	217.49	31.12	-26.6	-28.2	16.1	0.00e+00	0	44	102	1048576	13	4302
2026-01-26 00:47:59.67	217.41	30.93	-27.0	-29.0	15.6	0.00e+00	0	44	102	1048576	13	4534
2026-01-26 00:48:00.68	217.33	30.73	-27.0	-28.5	15.6	8.60e-04	0	44	102	1048576	14	4293
2026-01-26 00:48:01.68	217.25	30.54	-27.0	-28.6	15.6	0.00e+00	0	44	102	1048576	14	4308
2026-01-26 00:48:02.69	217.18	30.35	-27.1	-28.7	15.5	0.00e+00	0	44	102	1048576	14	4338
2026-01-26 00:48:03.69	217.10	30.16	-27.2	-29.1	15.3	5.30e-06	0	44	102	1048576	14	4452
2026-01-26 00:48:04.70	217.02	29.97	-27.4	-29.4	15.1	0.00e+00	0	44	102	1048576	14	4550
2026-01-26 00:48:05.71	216.95	29.78	-27.4	-29.5	15.0	0.00e+00	0	44	102	1048576	14	4592
2026-01-26 00:48:06.71	216.88	29.60	-27.5	-29.6	15.0	2.31e-04	0	44	102	1048576	14	4623
2026-01-26 00:48:07.72	216.80	29.41	-27.5	-29.3	14.9	0.00e+00	0	44	102	1048576	15	4410
2026-01-26 00:48:08.72	216.73	29.23	-27.9	-30.2	14.3	7.00e-07	0	44	102	1048576	15	4671
2026-01-26 00:48:09.72	216.66	29.05	-27.9	-29.6	14.6	3.13e-03	0	44	102	1048576	16	4373
2026-01-26 00:48:10.72	216.59	28.87	-27.5	-28.6	15.1	0.00e+00	0	44	102	1048576	16	4102
2026-01-26 00:48:11.72	216.53	28.69	-27.0	-28.6	15.5	3.26e-03	0	44	102	1048576	14	4310
2026-01-26 00:48:12.73	216.46	28.51	-26.7	-28.5	15.8	3.77e-03	0	44	102	1048576	13	4403
2026-01-26 00:48:13.73	216.39	28.33	-26.6	-28.1	16.0	0.00e+00	0	44	102	1048576	13	4301
2026-01-26 00:48:14.74	216.32	28.15	-26.6	-28.1	16.0	4.00e-03	0	44	102	1048576	13	4287
2026-01-26 00:48:15.74	216.26	27.98	-26.5	-28.0	16.0	3.97e-03	0	44	102	1048576	13	4255
2026-01-26 00:48:16.75	216.19	27.80	-26.5	-27.9	16.1	0.00e+00	0	44	102	1048576	13	4240
2026-01-26 00:48:17.75	216.13	27.63	-26.5	-28.4	16.0	4.20e-03	0	44	102	1048576	12	4495
2026-01-26 00:48:18.75	216.06	27.45	-26.4	-28.1	16.2	0.00e+00	0	44	102	1048576	12	4417
2026-01-26 00:48:19.76	216.00	27.28	-26.2	-27.7	16.4	2.05e-05	0	44	102	1048576	12	4304
2026-01-26 00:48:20.76	215.94	27.11	-26.0	-27.2	16.7	3.86e-03	0	44	102	1048576	12	4166
2026-01-26 00:48:21.76	215.88	26.94	-26.0	-27.4	16.6	4.37e-03	0	44	102	1048576	12	4203
2026-01-26 00:48:22.77	215.82	26.77	-26.0	-27.3	16.6	8.77e-05	0	44	102	1048576	12	4183
2026-01-26 00:48:23.77	215.76	26.61	-26.1	-27.5	16.5	0.00e+00	0	44	102	1048576	12	4230
2026-01-26 00:48:24.77	215.70	26.44	-26.1	-27.5	16.5	0.00e+00	0	44	102	1048576	12	4240
2026-01-26 00:48:25.77	215.64	26.28	-26.2	-27.9	16.3	1.66e-04	0	44	102	1048576	12	4346
2026-01-26 00:48:26.77	215.58	26.11	-26.3	-28.0	16.2	3.88e-03	0	44	102	1048576	12	4389
2026-01-26 00:48:27.76	215.53	25.95	-26.5	-28.4	16.1	3.59e-03	0	44	102	1048576	12	4494
2026-01-26 00:48:28.77	215.47	25.79	-26.4	-27.7	16.2	0.00e+00	0	44	102	1048576	13	4178
2026-01-26 00:48:29.77	215.41	25.62	-26.3	-28.1	16.2	0.00e+00	0	44	102	1048576	12	4395
2026-01-26 00:48:30.78	215.36	25.46	-26.3	-28.0	16.2	3.78e-03	0	44	102	1048576	12	4384
2026-01-26 00:48:31.78	215.30	25.30	-26.3	-27.9	16.3	2.75e-04	0	44	102	1048576	12	4360
2026-01-26 00:48:32.78	215.25	25.15	-26.3	-28.0	16.2	1.18e-03	0	44	102	1048576	12	4392
2026-01-26 00:48:33.78	215.19	24.99	-26.3	-28.1	16.2	0.00e+00	0	44	102	1048576	12	4409
2026-01-26 00:48:34.79	215.14	24.83	-26.3	-28.0	16.3	0.00e+00	0	44	102	1048576	12	4375
2026-01-26 00:48:35.80	215.09	24.67	-25.7	-27.4	15.8	0.00e+00	0	44	102	1048576	12	4407
2026-01-26 00:48:36.80	215.03	24.52	-26.4	-28.2	14.8	3.01e-03	0	44	102	1048576	12	4447
2026-01-26 00:48:37.80	214.98	24.36	-26.5	-28.4	16.0	0.00e+00	0	44	102	1048576	12	4496
2026-01-26 00:48:38.80	214.93	24.21	-26.6	-28.2	15.8	0.00e+00	0	44	102	1048576	13	4340
2026-01-26 00:48:39.81	214.88	24.06	-26.9	-28.9	15.5	0.00e+00	0	44	102	1048576	13	4532
2026-01-26 00:48:40.81	214.83	23.91	-26.8	-28.5	15.7	0.00e+00	0	44	102	1048576	13	4422
2026-01-26 00:48:41.82	214.78	23.75	-26.6	-28.2	15.9	1.51e-03	0	44	102	1048576	13	4329
2026-01-26 00:48:42.83	214.73	23.60	-26.5	-28.4	16.0	0.00e+00	0	44	102	1048576	12	4509
2026-01-26 00:48:43.83	214.68	23.45	-26.6	-28.1	15.9	0.00e+00	0	44	102	1048576	13	4310
2026-01-26 00:48:44.83	214.63	23.31	-26.6	-28.1	15.9	0.00e+00	0	44	102	1048576	13	4304
2026-01-26 00:48:45.84	214.59	23.16	-26.5	-28.0	15.9	7.08e-04	0	44	102	1048576	13	4271
2026-01-26 00:48:46.84	214.54	23.01	-26.6	-28.2	15.8	0.00e+00	0	44	102	1048576	13	4332
2026-01-26 00:48:47.84	214.49	22.87	-26.6	-28.2	15.8	6.42e-04	0	44	102	1048576	13	4336
2026-01-26 00:48:48.84	214.45	22.72	-26.6	-28.1	15.8	0.00e+00	0	44	102	1048576	13	4311
2026-01-26 00:48:49.85	214.40	22.58	-26.7	-28.4	15.7	0.00e+00	0	44	102	1048576	13	4384
2026-01-26 00:48:50.86	214.35	22.43	-26.6	-28.3	15.7	5.46e-04	0	44	102	1048576	13	4351
2026-01-26 00:48:51.86	214.31	22.29	-26.9	-28.8	15.5	5.69e-04	0	44	102	1048576	13	4501
2026-01-26 00:48:52.87	214.27	22.15	-26.7	-28.5	15.6	0.00e+00	0	44	102	1048576	13	4423
2026-01-26 00:48:53.87	214.22	22.01	-26.6	-28.2	15.8	5.00e-04	0	44	102	1048576	13	4334
2026-01-26 00:48:54.88	214.18	21.86	-26.6	-28.3	15.7	0.00e+00	0	44	102	1048576	13	4366
2026-01-26 00:48:55.89	214.13	21.72	-26.6	-28.1	15.8	0.00e+00	0	44	102	1048576	13	4314
2026-01-26 00:48:56.90	214.09	21.58	-26.6	-28.2	15.8	3.91e-04	0	44	102	1048576	13	4329
2026-01-26 00:48:57.90	214.05	21.45	-26.5	-28.0	15.9	3.73e-04	0	44	102	1048576	13	4277
2026-01-26 00:48:58.91	214.01	21.31	-26.5	-27.9	15.9	0.00e+00	0	44	102	1048576	13	4254
2026-01-26 00:48:59.91	213.96	21.17	-26.6	-28.2	15.8	1.50e-06	0	44	102	1048576	13	4342
2026-01-26 00:49:00.91	213.92	21.04	-26.5	-27.9	15.9	3.23e-04	0	44	102	1048576	13	4264
2026-01-26 00:49:01.91	213.88	20.90	-26.5	-27.9	15.9	0.00e+00	0	44	102	1048576	13	4252
2026-01-26 00:49:02.91	213.84	20.77	-26.5	-27.9	15.9	3.20e-04	0	44	102	1048576	13	4268
2026-01-26 00:49:03.91	213.80	20.63	-26.5	-28.0	15.9	2.97e-04	0	44	102	1048576	13	4274
2026-01-26 00:49:04.92	213.76	20.50	-26.5	-28.1	15.8	0.00e+00	0	44	102	1048576	13	4312
2026-01-26 00:49:05.92	213.72	20.37	-26.4	-27.7	16.0	3.45e-04	0	44	102	1048576	13	4204
2026-01-26 00:49:06.92	213.68	20.24	-26.3	-28.1	16.0	2.90e-04	0	44	102	1048576	12	4432
2026-01-26 00:49:07.93	213.65	20.10	-26.3	-28.1	16.1	0.00e+00	0	44	102	1048576	12	4422
2026-01-26 00:49:08.93	213.61	19.97	-26.3	-28.2	16.0	2.78e-04	0	44	102	1048576	12	4441
2026-01-26 00:49:09.94	213.57	19.84	-26.3	-28.0	16.1	0.00e+00	0	44	102	1048576	12	4399
2026-01-26 00:49:10.94	213.53	19.71	-26.3	-28.0	16.1	0.00e+00	0	44	102	1048576	12	4406
2026-01-26 00:49:11.95	213.49	19.58	-26.3	-28.0	16.1	0.00e+00	0	44	102	1048576	12	4386
2026-01-26 00:49:12.94	213.46	19.46	-26.3	-28.1	16.0	1.62e-04	0	44	102	1048576	12	4420
2026-01-26 00:49:13.95	213.42	19.33	-26.4	-28.2	16.0	0.00e+00	0	44	102	1048576	12	4442
2026-01-26 00:49:14.96	213.38	19.20	-26.4	-28.2	16.0	1.14e-05	0	44	102	1048576	12	4468
2026-01-26 00:49:15.96	213.35	19.08	-26.4	-28.4	15.9	0.00e+00	0	44	102	1048576	12	4504
2026-01-26 00:49:16.96	213.31	18.95	-26.5	-28.1	15.7	0.00e+00	0	44	102	1048576	13	4307
2026-01-26 00:49:17.97	213.28	18.83	-26.5	-28.0	15.8	1.85e-04	0	44	102	1048576	13	4286
2026-01-26 00:49:18.97	213.24	18.70	-26.6	-28.4	15.6	0.00e+00	0	44	102	1048576	13	4383
2026-01-26 00:49:19.97	213.21	18.58	-26.6	-28.2	15.7	0.00e+00	0	44	102	1048576	13	4330
2026-01-26 00:49:20.98	213.17	18.46	-26.6	-28.3	15.6	0.00e+00	0	44	102	1048576	13	4377
2026-01-26 00:49:21.99	213.14	18.33	-26.8	-28.8	15.3	0.00e+00	0	44	102	1048576	13	4502
2026-01-26 00:49:23.00	213.11	18.21	-26.6	-28.3	15.5	0.00e+00	0	44	102	1048576	13	4378
2026-01-26 00:49:24.00	213.07	18.09	-26.8	-28.7	15.4	2.67e-03	0	44	102	1048576	13	4469
2026-01-26 00:49:25.01	213.04	17.97	-26.8	-28.7	15.3	0.00e+00	0	44	102	1048576	13	4488
2026-01-26 00:49:26.01	213.01	17.85	-26.8	-28.8	15.4	0.00e+00	0	44	102	1048576	13	4496
2026-01-26 00:49:27.02	212.97	17.73	-26.8	-28.7	15.4	0.00e+00	0	44	102	1048576	13	4479
2026-01-26 00:49:28.03	212.94	17.61	-26.8	-28.6	15.4	0.00e+00	0	44	102	1048576	13	4465
2026-01-26 00:49:29.03	212.91	17.49	-26.8	-28.6	15.4	2.08e-03	0	44	102	1048576	13	4469
2026-01-26 00:49:30.04	212.88	17.37	-26.8	-28.8	15.3	1.97e-03	0	44	102	1048576	13	4497
2026-01-26 00:49:31.04	212.85	17.26	-26.9	-29.0	15.2	0.00e+00	0	44	102	1048576	13	4560
2026-01-26 00:49:32.04	212.81	17.14	-26.9	-28.9	15.2	0.00e+00	0	44	102	1048576	13	4550
2026-01-26 00:49:33.04	212.78	17.02	-26.8	-28.8	15.3	1.85e-03	0	44	102	1048576	13	4520
2026-01-26 00:49:34.04	212.75	16.91	-26.9	-29.0	15.1	0.00e+00	0	44	102	1048576	13	4575
2026-01-26 00:49:35.05	212.72	16.79	-26.9	-28.9	15.2	1.82e-03	0	44	102	1048576	13	4536
2026-01-26 00:49:36.05	212.69	16.68	-26.9	-29.0	15.1	0.00e+00	0	44	102	1048576	13	4566
2026-01-26 00:49:37.06	212.66	16.56	-27.0	-29.1	15.1	0.00e+00	0	44	102	1048576	13	4611
2026-01-26 00:49:38.06	212.63	16.45	-27.0	-29.1	15.0	2.38e-03	0	44	102	1048576	13	4616
2026-01-26 00:49:39.07	212.60	16.34	-27.0	-28.8	15.0	2.40e-03	0	44	102	1048576	14	4395
2026-01-26 00:49:40.07	212.57	16.23	-27.2	-29.1	14.8	0.00e+00	0	44	102	1048576	14	4484
2026-01-26 00:49:41.06	212.54	16.11	-27.1	-29.0	14.8	2.44e-03	0	44	102	1048576	14	4466
2026-01-26 00:49:42.06	212.52	16.00	-27.3	-29.3	14.7	0.00e+00	0	44	102	1048576	14	4550
2026-01-26 00:49:43.07	212.49	15.89	-27.2	-29.1	14.8	0.00e+00	0	44	102	1048576	14	4486
2026-01-26 00:49:44.08	212.46	15.78	-27.2	-29.3	14.7	2.34e-03	0	44	102	1048576	14	4541
2026-01-26 00:49:45.08	212.43	15.67	-27.4	-29.7	14.4	2.42e-03	0	44	102	1048576	14	4666
2026-01-26 00:49:46.08	212.40	15.56	-27.3	-29.3	14.6	7.00e-07	0	44	102	1048576	14	4558
2026-01-26 00:49:47.09	212.38	15.45	-27.1	-29.0	14.8	7.00e-07	0	44	102	1048576	14	4467
2026-01-26 00:49:48.10	212.35	15.34	-27.1	-29.0	14.8	2.47e-03	0	44	102	1048576	14	4456
2026-01-26 00:49:49.10	212.32	15.24	-27.1	-29.0	14.8	0.00e+00	0	44	102	1048576	14	4466
2026-01-26 00:49:50.10	212.29	15.13	-27.3	-29.4	14.6	2.60e-03	0	44	102	1048576	14	4585
2026-01-26 00:49:51.11	212.27	15.02	-27.2	-29.1	14.7	2.63e-03	0	44	102	1048576	14	4496
2026-01-26 00:49:52.12	212.24	14.91	-27.2	-29.1	14.7	0.00e+00	0	44	102	1048576	14	4505
2026-01-26 00:49:53.12	212.21	14.81	-27.1	-29.0	14.7	0.00e+00	0	44	102	1048576	14	4473
2026-01-26 00:49:54.12	212.19	14.70	-27.2	-29.2	14.7	2.22e-03	0	44	102	1048576	14	4512
2026-01-26 00:49:55.12	212.16	14.60	-27.2	-29.1	14.7	0.00e+00	0	44	102	1048576	14	4493
2026-01-26 00:49:56.13	212.14	14.49	-27.3	-29.4	14.5	2.46e-03	0	44	102	1048576	14	4594
2026-01-26 00:49:57.13	212.11	14.39	-27.2	-29.1	14.7	7.00e-07	0	44	102	1048576	14	4491
2026-01-26 00:49:58.13	212.09	14.29	-27.1	-29.0	14.8	0.00e+00	0	44	102	1048576	14	4454
2026-01-26 00:49:59.13	212.06	14.18	-27.2	-29.2	14.6	2.46e-03	0	44	102	1048576	14	4532
2026-01-26 00:50:00.14	212.03	14.08	-27.2	-29.2	14.6	2.64e-03	0	44	102	1048576	14	4521
2026-01-26 00:50:01.13	212.01	13.98	-27.2	-29.2	14.6	0.00e+00	0	44	102	1048576	14	4522
2026-01-26 00:50:02.12	211.99	13.88	-27.3	-29.4	14.5	0.00e+00	0	44	102	1048576	14	4573
2026-01-26 00:50:03.13	211.96	13.77	-27.4	-29.6	14.4	2.20e-06	0	44	102	1048576	14	4641
2026-01-26 00:50:04.14	211.94	13.67	-27.3	-29.3	14.5	0.00e+00	0	44	102	1048576	14	4568
2026-01-26 00:50:05.15	211.91	13.57	-27.2	-29.1	14.6	2.71e-03	0	44	102	1048576	14	4500
2026-01-26 00:50:06.15	211.89	13.47	-27.2	-29.3	14.5	0.00e+00	0	44	102	1048576	14	4544
2026-01-26 00:50:07.16	211.87	13.37	-27.6	-29.6	14.0	3.00e-06	0	44	102	1048576	15	4547
2026-01-26 00:50:08.16	211.84	13.27	-27.4	-29.2	14.2	9.10e-06	0	44	102	1048576	15	4433
2026-01-26 00:50:09.16	211.82	13.17	-27.5	-29.5	14.1	2.20e-06	0	44	102	1048576	15	4500
2026-01-26 00:50:10.16	211.80	13.07	-27.3	-29.0	14.3	7.00e-07	0	44	102	1048576	15	4378
2026-01-26 00:50:11.16	211.77	12.97	-27.3	-29.5	14.4	7.00e-07	0	44	102	1048576	14	4611
2026-01-26 00:50:12.16	211.75	12.88	-27.4	-29.7	14.2	2.20e-06	0	44	102	1048576	14	4680
2026-01-26 00:50:13.17	211.73	12.78	-27.4	-29.6	14.3	7.00e-07	0	44	102	1048576	14	4642
2026-01-26 00:50:14.17	211.71	12.68	-27.4	-29.8	14.2	5.30e-06	0	44	102	1048576	14	4704
2026-01-26 00:50:15.17	211.68	12.58	-27.4	-29.6	14.2	1.50e-06	0	44	102	1048576	14	4663
2026-01-26 00:50:16.17	211.66	12.49	-27.5	-29.5	14.0	3.00e-06	0	44	102	1048576	15	4506
2026-01-26 00:50:17.18	211.64	12.39	-27.7	-30.0	13.7	5.30e-06	0	44	102	1048576	15	4657
2026-01-26 00:50:18.18	211.62	12.30	-27.5	-29.4	14.1	7.00e-07	0	44	102	1048576	15	4471
2026-01-26 00:50:19.18	211.60	12.20	-27.4	-29.3	14.2	7.00e-07	0	44	102	1048576	15	4447
2026-01-26 00:50:20.18	211.57	12.11	-27.4	-29.6	14.2	3.80e-06	0	44	102	1048576	14	4666
2026-01-26 00:50:21.19	211.55	12.01	-27.4	-29.6	14.2	7.00e-07	0	44	102	1048576	14	4661
2026-01-26 00:50:22.19	211.53	11.92	-27.5	-29.5	14.0	4.50e-06	0	44	102	1048576	15	4520
2026-01-26 00:50:23.19	211.51	11.82	-27.5	-29.4	14.0	5.30e-06	0	44	102	1048576	15	4503
2026-01-26 00:50:24.20	211.49	11.73	-27.5	-29.5	14.0	3.00e-06	0	44	102	1048576	15	4506
2026-01-26 00:50:25.20	211.47	11.64	-27.6	-29.7	13.9	4.50e-06	0	44	102	1048576	15	4572
2026-01-26 00:50:26.21	211.45	11.54	-27.5	-29.4	14.0	1.14e-05	0	44	102	1048576	15	4483
2026-01-26 00:50:27.21	211.43	11.45	-27.5	-29.4	14.0	1.50e-06	0	44	102	1048576	15	4491
2026-01-26 00:50:28.22	211.41	11.36	-27.5	-29.5	14.0	3.80e-06	0	44	102	1048576	15	4509
2026-01-26 00:50:29.22	211.39	11.27	-27.5	-29.4	14.0	1.22e-05	0	44	102	1048576	15	4479
2026-01-26 00:50:30.23	211.37	11.17	-27.6	-29.6	13.8	1.50e-06	0	44	102	1048576	15	4566
2026-01-26 00:50:31.23	211.35	11.08	-27.6	-29.7	13.8	3.00e-06	0	44	102	1048576	15	4570
2026-01-26 00:50:32.23	211.33	10.99	-27.5	-29.5	14.0	2.20e-06	0	44	102	1048576	15	4510
2026-01-26 00:50:33.23	211.31	10.90	-27.6	-29.7	13.7	7.00e-07	0	44	102	1048576	15	4598
2026-01-26 00:50:34.23	211.29	10.81	-27.6	-29.7	13.8	1.50e-06	0	44	102	1048576	15	4579
2026-01-26 00:50:35.23	211.27	10.72	-27.5	-29.5	13.9	1.29e-05	0	44	102	1048576	15	4525
2026-01-26 00:50:36.24	211.25	10.63	-27.7	-30.0	13.6	6.10e-06	0	44	102	1048576	15	4670
2026-01-26 00:50:37.24	211.23	10.54	-27.6	-29.6	13.8	3.00e-06	0	44	102	1048576	15	4550
2026-01-26 00:50:38.25	211.21	10.45	-27.6	-29.8	13.7	3.80e-06	0	44	102	1048576	15	4611
2026-01-26 00:50:39.25	211.19	10.37	-27.5	-29.5	13.9	5.30e-06	0	44	102	1048576	15	4533
2026-01-26 00:50:40.26	211.18	10.28	-27.7	-29.9	13.6	6.10e-06	0	44	102	1048576	15	4647
2026-01-26 00:50:41.26	211.16	10.19	-27.8	-30.1	13.5	1.06e-05	0	44	102	1048576	15	4724
2026-01-26 00:50:42.28	211.14	10.10	-27.4	-29.3	13.9	6.10e-06	0	44	102	1048576	15	4471
2026-01-26 00:50:43.28	211.12	10.01	-27.6	-29.7	13.7	5.30e-06	0	44	102	1048576	15	4604
2026-01-26 00:50:44.28	211.10	9.93	-27.6	-29.8	13.7	4.50e-06	0	44	102	1048576	15	4619
2026-01-26 00:50:45.29	211.08	9.84	-27.7	-30.1	13.5	1.06e-05	0	44	102	1048576	15	4699
2026-01-26 00:50:46.29	211.07	9.75	-27.7	-29.9	13.6	9.10e-06	0	44	102	1048576	15	4641
2026-01-26 00:50:47.30	211.05	9.67	-27.7	-29.8	13.6	1.14e-05	0	44	102	1048576	15	4633
2026-01-26 00:50:48.30	211.03	9.58	-27.7	-29.9	13.6	6.10e-06	0	44	102	1048576	15	4639
2026-01-26 00:50:49.31	211.01	9.49	-27.7	-29.9	13.5	1.14e-05	0	44	102	1048576	15	4661
2026-01-26 00:50:50.31	211.00	9.41	-27.6	-29.6	13.7	1.44e-05	0	44	102	1048576	15	4565
2026-01-26 00:50:51.32	210.98	9.32	-27.7	-29.9	13.5	6.80e-06	0	44	102	1048576	15	4646
2026-01-26 00:50:52.32	210.96	9.24	-27.7	-30.0	13.4	6.80e-06	0	44	102	1048576	15	4700
