passes_logs/2026/01/26/R2M6_AANII_01/R2M6_AANII_01__20260126_224033_NOAA_21_JPSS-2_rec.log

#Pass ID: 20260126_224033_NOAA 21 (JPSS-2)
#Satellite: NOAA 21 (JPSS-2)
#Configuration: NOAA 21
#almurnet v.1.7.20240730
#Start time: 2026-01-26 22:40:34

#Version: 2.2.20231116
#Station: R2M6_AANII_01
#Location: 30.233357 lon 59.946436 lat
#TLE: 1 54234U 22150A   26026.43130734  .00000179  00000+0  10559-3 0  9998
#TLE: 2 54234  98.7509 327.1934 0000805 209.8356 150.2774 14.19539635166435

#Time	Az	El	Level	Level2	SNR	BER	BlckErr	Temp	State	Recorded	gain1	gain2
2026-01-26 22:40:34.58	30.67	7.08	-31.2	-36.7	4.5	1.40e+00	0	41	0	0	22	6762
2026-01-26 22:40:35.58	30.77	7.14	-31.9	-38.5	4.3	1.44e+00	0	41	104	0	24	7692
2026-01-26 22:40:36.58	30.87	7.20	-31.9	-38.2	6.0	2.86e-01	0	41	0	0	23	7401
2026-01-26 22:40:37.58	30.96	7.26	-31.9	-37.8	6.0	3.54e-01	0	41	0	3145728	24	7099
2026-01-26 22:40:38.59	31.06	7.32	-31.7	-36.8	6.6	2.38e-01	0	42	0	6291456	24	6499
2026-01-26 22:40:39.60	31.16	7.39	-31.5	-36.4	7.2	1.38e-01	0	42	0	9437184	23	6343
2026-01-26 22:40:40.60	31.26	7.45	-31.2	-36.0	8.0	8.77e-02	0	42	0	12582912	22	6188
2026-01-26 22:40:41.60	31.36	7.51	-31.1	-35.3	8.5	4.84e-02	0	42	0	15728640	22	5876
2026-01-26 22:40:42.61	31.46	7.57	-30.7	-34.2	9.2	2.48e-02	0	42	0	18874368	22	5389
2026-01-26 22:40:43.61	31.56	7.64	-30.5	-34.0	9.8	1.24e-02	0	42	0	22020096	21	5381
2026-01-26 22:40:44.62	31.67	7.70	-30.3	-34.0	9.9	7.19e-03	0	42	0	24117248	20	5492
2026-01-26 22:40:45.63	31.77	7.76	-30.3	-34.0	9.8	5.83e-03	0	42	0	27262976	20	5493
2026-01-26 22:40:46.63	31.87	7.82	-30.2	-33.6	10.4	6.14e-03	0	42	0	30408704	20	5319
2026-01-26 22:40:47.64	31.97	7.89	-30.0	-33.4	11.0	2.60e-03	0	42	0	34603008	19	5332
2026-01-26 22:40:48.63	32.08	7.95	-29.7	-32.7	11.4	1.15e-03	0	42	0	37748736	19	5088
2026-01-26 22:40:49.63	32.18	8.01	-29.7	-32.6	11.6	6.88e-04	0	42	0	40894464	19	5024
2026-01-26 22:40:50.64	32.28	8.07	-29.6	-32.4	11.7	2.10e-03	0	42	0	44040192	19	4975
2026-01-26 22:40:51.64	32.39	8.14	-30.0	-32.8	11.3	2.58e-03	0	42	0	47185920	20	4982
2026-01-26 22:40:52.63	32.49	8.20	-29.8	-32.5	11.4	1.22e-03	0	42	0	49283072	20	4888
2026-01-26 22:40:53.64	32.60	8.26	-29.7	-32.6	11.6	8.57e-04	0	42	0	52428800	19	5041
2026-01-26 22:40:54.64	32.70	8.33	-29.7	-32.7	11.6	7.21e-04	0	42	0	55574528	19	5048
2026-01-26 22:40:55.65	32.81	8.39	-29.7	-32.7	11.6	7.67e-04	0	42	0	58720256	19	5065
2026-01-26 22:40:56.65	32.92	8.45	-29.6	-32.4	11.8	1.45e-03	0	42	0	61865984	19	4952
2026-01-26 22:40:57.66	33.02	8.52	-29.5	-32.2	11.9	3.46e-04	0	42	0	65011712	19	4868
2026-01-26 22:40:58.67	33.13	8.58	-29.4	-31.9	12.2	2.62e-04	0	42	0	68157440	19	4764
2026-01-26 22:40:59.68	33.24	8.64	-29.4	-31.8	12.2	1.27e-03	0	42	0	71303168	19	4754
2026-01-26 22:41:00.68	33.35	8.71	-29.4	-32.4	12.2	1.23e-03	0	42	0	74448896	18	5057
2026-01-26 22:41:01.68	33.46	8.77	-29.2	-31.8	12.6	1.08e-04	0	42	0	77594624	18	4834
2026-01-26 22:41:02.69	33.57	8.83	-29.1	-31.5	12.7	8.80e-04	0	42	0	80740352	18	4745
2026-01-26 22:41:03.69	33.68	8.90	-29.1	-31.6	12.7	6.40e-05	0	42	0	83886080	18	4774
2026-01-26 22:41:04.70	33.79	8.96	-29.1	-31.6	12.6	8.62e-05	0	42	0	87031808	18	4764
2026-01-26 22:41:05.70	33.90	9.03	-29.2	-31.7	12.6	7.12e-04	0	42	0	90177536	18	4815
2026-01-26 22:41:06.70	34.01	9.09	-29.3	-31.9	12.5	7.98e-04	0	42	0	93323264	18	4898
2026-01-26 22:41:07.71	34.12	9.16	-29.2	-31.8	12.5	1.15e-04	0	42	0	96468992	18	4853
2026-01-26 22:41:08.71	34.23	9.22	-29.1	-31.6	12.7	7.50e-04	0	42	0	99614720	18	4772
2026-01-26 22:41:09.70	34.34	9.28	-28.9	-31.6	12.9	6.77e-04	0	42	0	102760448	17	4892
2026-01-26 22:41:10.70	34.46	9.35	-29.0	-31.7	12.9	5.34e-05	0	42	0	105906176	17	4932
2026-01-26 22:41:11.70	34.57	9.41	-28.9	-31.1	12.9	6.08e-04	0	42	0	109051904	18	4612
2026-01-26 22:41:12.69	34.68	9.47	-28.9	-31.6	13.0	6.57e-04	0	42	0	112197632	17	4881
2026-01-26 22:41:13.70	34.80	9.54	-28.8	-31.4	13.0	5.18e-05	0	42	0	115343360	17	4819
2026-01-26 22:41:14.70	34.91	9.60	-28.8	-31.2	13.2	5.90e-04	0	42	0	118489088	17	4752
2026-01-26 22:41:15.70	35.03	9.67	-28.6	-30.8	13.4	5.31e-04	0	42	0	121634816	17	4638
2026-01-26 22:41:16.71	35.14	9.73	-28.6	-30.8	13.5	9.90e-06	0	42	0	124780544	17	4633
2026-01-26 22:41:17.72	35.26	9.80	-28.6	-30.8	13.5	5.63e-04	0	42	0	127926272	17	4639
2026-01-26 22:41:18.72	35.38	9.86	-28.7	-31.0	13.3	1.14e-05	0	43	0	131072000	17	4714
2026-01-26 22:41:19.73	35.50	9.93	-28.7	-31.1	13.2	2.05e-05	0	42	0	134217728	17	4733
2026-01-26 22:41:20.73	35.61	9.99	-28.7	-31.2	13.3	6.02e-04	0	42	0	137363456	17	4752
2026-01-26 22:41:21.73	35.73	10.06	-28.7	-31.0	13.2	5.13e-04	0	43	0	140509184	17	4709
2026-01-26 22:41:22.74	35.85	10.13	-28.9	-31.4	13.0	3.05e-05	0	43	0	143654912	17	4849
2026-01-26 22:41:23.73	35.97	10.19	-28.8	-31.3	13.2	3.05e-05	0	43	0	146800640	17	4803
2026-01-26 22:41:24.74	36.09	10.26	-28.7	-30.9	13.4	1.14e-05	0	43	0	149946368	17	4678
2026-01-26 22:41:25.75	36.21	10.32	-28.6	-30.7	13.4	7.60e-06	0	43	0	153092096	17	4608
2026-01-26 22:41:26.75	36.33	10.39	-28.5	-30.5	13.7	2.64e-04	0	43	0	156237824	17	4530
2026-01-26 22:41:27.76	36.45	10.45	-28.6	-30.7	13.6	2.10e-04	0	43	0	159383552	17	4615
2026-01-26 22:41:28.76	36.58	10.52	-28.5	-30.5	13.7	6.80e-06	0	43	0	162529280	17	4543
2026-01-26 22:41:29.76	36.70	10.58	-28.4	-30.3	13.8	5.30e-06	0	43	0	165675008	17	4474
2026-01-26 22:41:30.76	36.82	10.65	-28.4	-30.3	13.8	7.60e-06	0	43	0	168820736	17	4480
2026-01-26 22:41:31.76	36.94	10.71	-28.4	-30.2	13.8	5.11e-05	0	43	0	171966464	17	4464
2026-01-26 22:41:32.76	37.07	10.78	-28.4	-30.3	13.8	1.85e-04	0	43	0	175112192	17	4487
2026-01-26 22:41:33.76	37.19	10.85	-28.4	-30.3	13.8	1.50e-06	0	43	0	178257920	17	4490
2026-01-26 22:41:34.77	37.32	10.91	-28.4	-30.3	13.7	6.10e-06	0	43	0	181403648	17	4477
2026-01-26 22:41:35.77	37.44	10.98	-28.4	-30.3	13.8	6.80e-06	0	43	0	184549376	17	4480
2026-01-26 22:41:36.77	37.57	11.04	-28.3	-30.0	14.0	8.30e-06	0	43	0	187695104	17	4398
2026-01-26 22:41:37.77	37.70	11.11	-28.2	-29.8	14.0	7.00e-07	0	43	0	190840832	17	4347
2026-01-26 22:41:38.77	37.82	11.18	-28.2	-29.8	14.1	7.00e-07	0	43	0	193986560	17	4324
2026-01-26 22:41:39.77	37.95	11.24	-28.3	-29.9	14.0	3.00e-06	0	43	0	197132288	17	4372
2026-01-26 22:41:40.77	38.08	11.31	-28.4	-30.2	13.8	9.00e-05	0	43	0	200278016	17	4462
2026-01-26 22:41:41.77	38.21	11.37	-28.2	-29.8	14.1	3.00e-06	0	43	0	203423744	17	4332
2026-01-26 22:41:42.78	38.34	11.44	-28.1	-30.0	14.3	2.58e-04	0	43	0	206569472	16	4501
2026-01-26 22:41:43.78	38.47	11.51	-28.2	-30.3	14.1	1.50e-06	0	43	0	209715200	16	4575
2026-01-26 22:41:44.79	38.60	11.57	-28.2	-30.2	14.1	2.20e-06	0	43	0	212860928	16	4563
2026-01-26 22:41:45.79	38.73	11.64	-28.3	-30.5	14.0	1.79e-04	0	43	0	216006656	16	4647
2026-01-26 22:41:46.80	38.86	11.71	-28.3	-30.6	14.0	1.51e-04	0	43	0	219152384	16	4675
2026-01-26 22:41:47.80	39.00	11.77	-28.3	-30.6	13.8	1.50e-06	0	43	0	222298112	16	4686
2026-01-26 22:41:48.80	39.13	11.84	-28.5	-30.6	13.7	1.05e-04	0	43	0	225443840	17	4573
2026-01-26 22:41:49.80	39.26	11.91	-28.8	-31.2	13.3	2.51e-05	0	43	0	228589568	17	4768
2026-01-26 22:41:50.80	39.40	11.97	-28.6	-30.8	13.5	1.52e-05	0	43	0	231735296	17	4630
2026-01-26 22:41:51.80	39.53	12.04	-28.3	-30.1	14.0	8.39e-05	0	43	0	234881024	17	4416
2026-01-26 22:41:52.81	39.67	12.11	-28.1	-29.6	14.3	5.87e-05	0	43	0	238026752	17	4264
2026-01-26 22:41:53.81	39.80	12.18	-28.0	-29.2	14.5	0.00e+00	0	43	0	241172480	17	4165
2026-01-26 22:41:54.81	39.94	12.24	-27.8	-28.9	14.6	9.10e-06	0	43	0	244318208	17	4088
2026-01-26 22:41:55.82	40.08	12.31	-27.9	-29.1	14.6	1.36e-04	0	43	0	247463936	17	4126
2026-01-26 22:41:56.83	40.22	12.38	-27.9	-29.1	14.6	1.50e-06	0	43	0	250609664	17	4138
2026-01-26 22:41:57.83	40.35	12.44	-28.0	-29.9	14.4	2.14e-04	0	43	0	253755392	16	4457
2026-01-26 22:41:58.83	40.49	12.51	-28.0	-29.9	14.4	1.42e-04	0	43	0	256901120	16	4469
2026-01-26 22:41:59.84	40.63	12.58	-28.2	-30.3	14.2	2.20e-06	0	43	0	260046848	16	4595
2026-01-26 22:42:00.83	40.77	12.64	-28.2	-30.2	14.2	1.50e-06	0	43	0	263192576	16	4556
2026-01-26 22:42:01.84	40.91	12.71	-28.3	-30.5	14.1	6.80e-06	0	43	0	266338304	16	4652
2026-01-26 22:42:02.84	41.05	12.78	-28.3	-30.5	14.1	7.00e-07	0	43	0	269484032	16	4655
2026-01-26 22:42:03.84	41.20	12.85	-28.3	-30.6	14.0	5.30e-06	0	43	0	272629760	16	4668
2026-01-26 22:42:04.85	41.34	12.91	-28.3	-30.6	14.0	2.20e-06	0	43	0	275775488	16	4681
2026-01-26 22:42:05.84	41.48	12.98	-28.3	-30.5	14.1	7.00e-07	0	43	0	278921216	16	4659
2026-01-26 22:42:06.85	41.63	13.05	-28.2	-30.4	14.2	8.08e-05	0	43	0	282066944	16	4613
2026-01-26 22:42:07.86	41.77	13.12	-28.2	-30.4	14.1	6.33e-05	0	43	0	285212672	16	4598
2026-01-26 22:42:08.86	41.92	13.18	-28.2	-30.3	14.2	2.20e-06	0	43	0	288358400	16	4581
2026-01-26 22:42:09.87	42.06	13.25	-28.1	-30.0	14.4	1.50e-06	0	43	0	291504128	16	4504
2026-01-26 22:42:10.87	42.21	13.32	-28.1	-30.0	14.3	7.00e-07	0	43	0	294649856	16	4505
2026-01-26 22:42:11.88	42.36	13.39	-28.4	-30.7	14.0	3.00e-06	0	43	0	297795584	16	4693
2026-01-26 22:42:12.89	42.51	13.46	-28.2	-30.3	14.2	1.50e-06	0	43	0	300941312	16	4567
2026-01-26 22:42:13.90	42.66	13.52	-28.0	-29.8	14.5	9.90e-06	0	43	0	304087040	16	4422
2026-01-26 22:42:14.89	42.81	13.59	-27.9	-29.6	14.7	7.00e-07	0	43	0	307232768	16	4361
2026-01-26 22:42:15.89	42.95	13.66	-27.9	-29.6	14.6	0.00e+00	0	43	0	310378496	16	4386
2026-01-26 22:42:16.90	43.11	13.73	-27.8	-29.3	14.8	0.00e+00	0	43	0	313524224	16	4281
2026-01-26 22:42:17.90	43.26	13.79	-27.8	-29.3	14.8	0.00e+00	0	43	0	316669952	16	4279
2026-01-26 22:42:18.90	43.41	13.86	-27.8	-29.2	14.9	0.00e+00	0	43	0	319815680	16	4263
2026-01-26 22:42:19.90	43.56	13.93	-27.6	-29.4	14.9	0.00e+00	0	43	0	322961408	15	4434
2026-01-26 22:42:20.91	43.72	14.00	-27.6	-29.3	14.9	0.00e+00	0	43	0	325058560	15	4409
2026-01-26 22:42:21.91	43.87	14.06	-27.6	-29.4	14.8	0.00e+00	0	43	0	328204288	15	4446
2026-01-26 22:42:22.91	44.02	14.13	-27.8	-29.8	14.8	0.00e+00	0	43	0	331350016	15	4536
2026-01-26 22:42:23.91	44.18	14.20	-27.7	-29.7	14.7	0.00e+00	0	43	0	334495744	15	4514
2026-01-26 22:42:24.92	44.34	14.27	-27.7	-29.6	14.8	1.50e-06	0	43	0	337641472	15	4499
2026-01-26 22:42:25.93	44.49	14.33	-27.7	-29.7	14.8	0.00e+00	0	43	0	341835776	15	4515
2026-01-26 22:42:26.93	44.65	14.40	-27.8	-29.9	14.6	0.00e+00	0	43	0	344981504	15	4566
2026-01-26 22:42:27.93	44.81	14.47	-27.6	-29.5	14.9	0.00e+00	0	43	0	348127232	15	4448
2026-01-26 22:42:28.93	44.97	14.54	-27.5	-29.3	15.0	0.00e+00	0	43	0	350224384	15	4389
2026-01-26 22:42:29.94	45.13	14.60	-27.6	-29.3	15.0	7.00e-07	0	44	0	353370112	15	4397
2026-01-26 22:42:30.94	45.29	14.67	-27.5	-29.1	15.2	0.00e+00	0	43	0	356515840	15	4329
2026-01-26 22:42:31.94	45.45	14.74	-27.5	-29.2	15.1	0.00e+00	0	43	0	359661568	15	4356
2026-01-26 22:42:32.94	45.61	14.81	-27.5	-29.2	15.1	7.00e-07	0	43	0	362807296	15	4368
2026-01-26 22:42:33.95	45.77	14.87	-27.5	-29.2	15.1	0.00e+00	0	43	0	365953024	15	4384
2026-01-26 22:42:34.96	45.94	14.94	-27.7	-29.7	14.8	0.00e+00	0	43	0	369098752	15	4523
2026-01-26 22:42:35.96	46.10	15.01	-27.6	-29.5	14.9	0.00e+00	0	43	0	372244480	15	4443
2026-01-26 22:42:36.96	46.26	15.08	-27.6	-29.4	15.0	0.00e+00	0	43	0	375390208	15	4422
2026-01-26 22:42:37.96	46.43	15.14	-27.6	-29.3	15.0	0.00e+00	0	43	0	378535936	15	4405
2026-01-26 22:42:38.96	46.59	15.21	-27.6	-29.3	15.1	0.00e+00	0	43	0	381681664	15	4389
2026-01-26 22:42:39.97	46.76	15.28	-27.5	-29.2	15.1	0.00e+00	0	43	0	384827392	15	4355
2026-01-26 22:42:40.98	46.93	15.35	-27.7	-29.5	15.0	0.00e+00	0	43	0	387973120	15	4438
2026-01-26 22:42:41.98	47.10	15.41	-27.4	-29.0	15.2	0.00e+00	0	43	0	391118848	15	4309
2026-01-26 22:42:42.98	47.27	15.48	-27.4	-28.8	15.3	0.00e+00	0	43	0	394264576	15	4261
2026-01-26 22:42:43.98	47.43	15.55	-27.4	-28.9	15.3	0.00e+00	0	43	0	397410304	15	4276
2026-01-26 22:42:44.98	47.60	15.61	-27.3	-28.7	15.3	0.00e+00	0	43	0	400556032	15	4224
2026-01-26 22:42:45.99	47.78	15.68	-27.4	-28.9	15.3	7.00e-07	0	43	0	403701760	15	4287
2026-01-26 22:42:46.99	47.95	15.75	-27.4	-28.8	15.3	0.00e+00	0	43	0	406847488	15	4261
2026-01-26 22:42:48.00	48.12	15.82	-27.4	-28.9	15.3	0.00e+00	0	43	0	409993216	15	4288
2026-01-26 22:42:49.00	48.29	15.88	-27.4	-29.0	15.2	0.00e+00	0	43	0	413138944	15	4300
2026-01-26 22:42:50.00	48.47	15.95	-27.5	-29.2	15.2	0.00e+00	0	43	0	416284672	15	4357
2026-01-26 22:42:51.00	48.64	16.02	-27.4	-28.9	15.3	0.00e+00	0	43	0	419430400	15	4269
2026-01-26 22:42:52.00	48.82	16.08	-27.5	-29.1	15.2	0.00e+00	0	43	0	422576128	15	4327
2026-01-26 22:42:53.00	48.99	16.15	-27.6	-29.3	15.1	0.00e+00	0	43	0	425721856	15	4383
2026-01-26 22:42:54.01	49.17	16.22	-27.4	-28.8	15.4	0.00e+00	0	43	0	428867584	15	4257
2026-01-26 22:42:55.01	49.35	16.28	-27.4	-28.9	15.4	0.00e+00	0	43	0	432013312	15	4269
2026-01-26 22:42:56.01	49.53	16.35	-27.3	-28.7	15.4	0.00e+00	0	43	0	435159040	15	4228
2026-01-26 22:42:57.01	49.71	16.41	-27.4	-28.9	15.4	0.00e+00	0	44	0	438304768	15	4268
2026-01-26 22:42:58.02	49.89	16.48	-27.5	-29.0	15.2	0.00e+00	0	43	0	441450496	15	4315
2026-01-26 22:42:59.02	50.07	16.55	-27.4	-28.9	15.3	0.00e+00	0	43	0	444596224	15	4285
2026-01-26 22:43:00.03	50.25	16.61	-27.5	-29.1	15.2	0.00e+00	0	43	0	447741952	15	4329
2026-01-26 22:43:01.03	50.43	16.68	-27.6	-29.4	15.0	0.00e+00	0	43	0	450887680	15	4427
2026-01-26 22:43:02.03	50.62	16.75	-27.5	-29.2	15.2	0.00e+00	0	43	0	454033408	15	4376
2026-01-26 22:43:03.04	50.80	16.81	-27.5	-29.1	15.3	0.00e+00	0	43	0	457179136	15	4341
2026-01-26 22:43:04.04	50.99	16.88	-27.5	-29.2	15.2	0.00e+00	0	43	0	460324864	15	4372
2026-01-26 22:43:05.04	51.17	16.94	-27.6	-29.4	15.1	0.00e+00	0	43	0	463470592	15	4405
2026-01-26 22:43:06.04	51.36	17.01	-27.6	-29.3	15.2	0.00e+00	0	43	0	466616320	15	4384
2026-01-26 22:43:07.05	51.55	17.07	-27.5	-29.2	15.2	0.00e+00	0	43	0	469762048	15	4352
2026-01-26 22:43:08.06	51.74	17.14	-27.6	-29.3	15.2	0.00e+00	0	43	0	472907776	15	4382
2026-01-26 22:43:09.06	51.92	17.20	-27.8	-29.7	14.9	0.00e+00	0	43	0	476053504	15	4514
2026-01-26 22:43:10.07	52.12	17.27	-27.6	-29.4	15.1	0.00e+00	0	43	0	479199232	15	4430
2026-01-26 22:43:11.08	52.31	17.33	-27.5	-29.1	15.3	0.00e+00	0	43	0	482344960	15	4331
2026-01-26 22:43:12.08	52.50	17.40	-27.5	-29.1	15.0	0.00e+00	0	44	0	485490688	15	4339
2026-01-26 22:43:13.08	52.69	17.46	-27.6	-29.3	15.1	0.00e+00	0	44	0	488636416	15	4375
2026-01-26 22:43:14.08	52.88	17.53	-27.5	-29.1	15.3	0.00e+00	0	44	0	491782144	15	4328
2026-01-26 22:43:15.09	53.08	17.59	-27.6	-29.3	15.1	0.00e+00	0	44	0	494927872	15	4389
2026-01-26 22:43:16.09	53.27	17.66	-27.5	-29.1	15.3	1.01e-03	0	44	0	498073600	15	4319
2026-01-26 22:43:17.10	53.47	17.72	-27.6	-29.4	15.1	0.00e+00	0	44	0	501219328	15	4406
2026-01-26 22:43:18.10	53.66	17.79	-27.8	-29.8	14.8	0.00e+00	0	44	0	504365056	15	4548
2026-01-26 22:43:19.11	53.86	17.85	-27.6	-29.3	15.1	0.00e+00	0	43	0	507510784	15	4396
2026-01-26 22:43:20.12	54.06	17.91	-27.5	-29.0	15.4	0.00e+00	0	43	0	510656512	15	4306
2026-01-26 22:43:21.12	54.26	17.98	-27.4	-28.9	15.4	5.79e-04	0	43	0	513802240	15	4281
2026-01-26 22:43:22.13	54.46	18.04	-27.5	-29.0	15.3	4.45e-04	0	43	0	516947968	15	4312
2026-01-26 22:43:23.13	54.66	18.10	-27.5	-29.2	15.3	0.00e+00	0	43	0	520093696	15	4353
2026-01-26 22:43:24.13	54.86	18.17	-27.6	-29.5	15.1	0.00e+00	0	43	0	523239424	15	4434
2026-01-26 22:43:25.14	55.06	18.23	-27.6	-29.4	15.1	0.00e+00	0	44	0	526385152	15	4413
2026-01-26 22:43:26.14	55.27	18.29	-27.6	-29.3	15.1	0.00e+00	0	43	0	529530880	15	4390
2026-01-26 22:43:27.14	55.47	18.35	-27.6	-29.4	15.1	3.81e-04	0	43	0	532676608	15	4412
2026-01-26 22:43:28.15	55.67	18.42	-27.5	-29.0	15.3	4.78e-04	0	44	0	535822336	15	4311
2026-01-26 22:43:29.15	55.88	18.48	-27.5	-29.0	15.4	0.00e+00	0	43	0	538968064	15	4297
2026-01-26 22:43:30.16	56.09	18.54	-27.5	-29.1	15.3	6.25e-05	0	44	0	542113792	15	4320
2026-01-26 22:43:31.17	56.29	18.60	-27.4	-28.8	15.4	7.85e-05	0	44	0	545259520	15	4255
2026-01-26 22:43:32.17	56.50	18.66	-27.4	-29.0	15.4	0.00e+00	0	43	0	548405248	15	4304
2026-01-26 22:43:33.18	56.71	18.72	-27.6	-29.3	15.1	1.35e-04	0	43	0	551550976	15	4397
2026-01-26 22:43:34.19	56.92	18.79	-27.5	-29.1	15.3	3.16e-04	0	44	0	554696704	15	4320
2026-01-26 22:43:35.19	57.13	18.85	-27.4	-28.9	15.4	0.00e+00	0	43	0	557842432	15	4289
2026-01-26 22:43:36.19	57.34	18.91	-27.5	-29.1	15.3	8.25e-04	0	44	0	560988160	15	4338
2026-01-26 22:43:37.19	57.55	18.97	-27.5	-29.0	15.3	6.58e-04	0	43	0	564133888	15	4319
2026-01-26 22:43:38.20	57.77	19.03	-27.5	-29.1	15.3	0.00e+00	0	44	0	567279616	15	4328
2026-01-26 22:43:39.20	57.98	19.09	-27.5	-29.1	15.3	5.35e-04	0	43	0	570425344	15	4328
2026-01-26 22:43:40.20	58.19	19.15	-27.5	-29.2	15.2	0.00e+00	0	44	0	573571072	15	4366
2026-01-26 22:43:41.21	58.41	19.21	-27.4	-28.9	15.4	0.00e+00	0	44	0	576716800	15	4268
2026-01-26 22:43:42.21	58.62	19.26	-27.3	-28.8	15.4	2.62e-04	0	43	0	579862528	15	4235
2026-01-26 22:43:43.21	58.84	19.32	-27.5	-29.1	15.3	3.71e-04	0	44	0	583008256	15	4321
2026-01-26 22:43:44.22	59.06	19.38	-27.4	-28.9	15.5	0.00e+00	0	43	0	586153984	15	4264
2026-01-26 22:43:45.22	59.28	19.44	-27.5	-29.1	15.3	0.00e+00	0	44	0	589299712	15	4337
2026-01-26 22:43:46.23	59.50	19.50	-27.6	-29.3	15.2	0.00e+00	0	44	0	592445440	15	4380
2026-01-26 22:43:47.24	59.72	19.56	-27.4	-28.9	15.4	0.00e+00	0	44	0	595591168	15	4268
2026-01-26 22:43:48.23	59.94	19.61	-27.4	-29.0	15.4	1.01e-04	0	43	0	598736896	15	4292
2026-01-26 22:43:49.24	60.16	19.67	-27.4	-28.9	15.4	4.27e-05	0	43	0	601882624	15	4273
2026-01-26 22:43:50.24	60.38	19.73	-27.4	-28.9	15.5	0.00e+00	0	44	0	605028352	15	4260
2026-01-26 22:43:51.24	60.60	19.78	-27.4	-28.9	15.4	0.00e+00	0	44	0	608174080	15	4271
2026-01-26 22:43:52.24	60.83	19.84	-27.4	-28.9	15.4	1.17e-04	0	44	0	611319808	15	4271
2026-01-26 22:43:53.25	61.05	19.90	-27.2	-28.5	15.7	0.00e+00	0	44	0	614465536	15	4160
2026-01-26 22:43:54.25	61.28	19.95	-27.2	-28.5	15.7	0.00e+00	0	44	0	617611264	15	4150
2026-01-26 22:43:55.25	61.51	20.01	-27.3	-28.6	15.6	0.00e+00	0	43	0	620756992	15	4179
2026-01-26 22:43:56.25	61.73	20.06	-27.2	-28.3	15.7	0.00e+00	0	44	0	623902720	15	4123
2026-01-26 22:43:57.25	61.96	20.12	-27.2	-28.3	15.8	0.00e+00	0	44	0	627048448	15	4112
2026-01-26 22:43:58.26	62.19	20.17	-27.2	-29.0	15.6	6.55e-04	0	44	0	630194176	14	4405
2026-01-26 22:43:59.26	62.42	20.23	-27.2	-29.0	15.7	0.00e+00	0	43	0	633339904	14	4406
2026-01-26 22:44:00.26	62.65	20.28	-27.3	-29.1	15.6	0.00e+00	0	44	0	636485632	14	4429
2026-01-26 22:44:01.26	62.88	20.33	-27.3	-29.1	15.6	0.00e+00	0	43	0	639631360	14	4453
2026-01-26 22:44:02.26	63.11	20.39	-27.2	-28.9	15.7	0.00e+00	0	43	0	642777088	14	4372
2026-01-26 22:44:03.27	63.34	20.44	-27.1	-28.7	15.8	2.07e-03	0	43	0	645922816	14	4334
2026-01-26 22:44:04.27	63.58	20.49	-27.1	-28.7	15.8	0.00e+00	0	43	0	649068544	14	4339
2026-01-26 22:44:05.27	63.81	20.54	-27.1	-28.6	15.9	0.00e+00	0	44	0	651165696	14	4291
2026-01-26 22:44:06.28	64.05	20.59	-27.1	-28.7	15.9	0.00e+00	0	44	0	655360000	14	4317
2026-01-26 22:44:07.28	64.28	20.64	-27.2	-28.8	15.8	0.00e+00	0	44	0	658505728	14	4367
2026-01-26 22:44:08.28	64.52	20.70	-27.1	-28.6	15.9	0.00e+00	0	43	0	661651456	14	4314
2026-01-26 22:44:09.28	64.76	20.75	-27.1	-28.7	15.8	0.00e+00	0	43	0	664797184	14	4318
2026-01-26 22:44:10.29	65.00	20.80	-27.1	-28.7	15.8	0.00e+00	0	43	0	667942912	14	4327
2026-01-26 22:44:11.29	65.23	20.85	-27.2	-28.9	15.7	0.00e+00	0	43	0	671088640	14	4375
2026-01-26 22:44:12.29	65.47	20.89	-27.2	-28.9	15.7	0.00e+00	0	44	0	673185792	14	4378
2026-01-26 22:44:13.30	65.71	20.94	-27.1	-28.7	15.8	0.00e+00	0	43	0	676331520	14	4337
2026-01-26 22:44:14.30	65.95	20.99	-27.1	-28.7	15.8	0.00e+00	0	43	0	679477248	14	4339
2026-01-26 22:44:15.30	66.20	21.04	-27.0	-28.5	15.9	1.50e-06	0	44	0	682622976	14	4269
2026-01-26 22:44:16.30	66.44	21.09	-27.2	-28.9	15.7	0.00e+00	0	44	0	685768704	14	4371
2026-01-26 22:44:17.31	66.68	21.14	-27.3	-29.1	15.6	0.00e+00	0	44	0	688914432	14	4435
2026-01-26 22:44:18.31	66.93	21.18	-27.3	-29.3	15.5	0.00e+00	0	44	0	692060160	14	4487
2026-01-26 22:44:19.31	67.17	21.23	-27.4	-29.4	15.4	0.00e+00	0	44	0	695205888	14	4523
2026-01-26 22:44:20.31	67.42	21.27	-27.3	-29.1	15.6	0.00e+00	0	44	0	698351616	14	4430
2026-01-26 22:44:21.32	67.66	21.32	-27.1	-28.7	15.8	0.00e+00	0	43	0	701497344	14	4313
2026-01-26 22:44:22.32	67.91	21.36	-27.1	-28.6	15.9	0.00e+00	0	44	0	704643072	14	4293
2026-01-26 22:44:23.33	68.16	21.41	-27.0	-28.5	15.9	0.00e+00	0	44	0	707788800	14	4269
2026-01-26 22:44:24.34	68.41	21.45	-26.9	-28.2	16.1	0.00e+00	0	43	0	710934528	14	4198
2026-01-26 22:44:25.34	68.66	21.50	-27.0	-28.4	16.0	0.00e+00	0	44	0	714080256	14	4247
2026-01-26 22:44:26.34	68.91	21.54	-26.9	-28.2	16.1	0.00e+00	0	44	0	717225984	14	4194
2026-01-26 22:44:27.35	69.16	21.58	-27.0	-28.4	16.0	0.00e+00	0	43	0	720371712	14	4235
2026-01-26 22:44:28.35	69.41	21.63	-27.1	-28.6	15.9	0.00e+00	0	44	0	723517440	14	4301
2026-01-26 22:44:29.35	69.66	21.67	-27.1	-28.8	15.8	0.00e+00	0	44	0	726663168	14	4350
2026-01-26 22:44:30.35	69.91	21.71	-27.1	-28.7	15.9	0.00e+00	0	44	0	729808896	14	4321
2026-01-26 22:44:31.36	70.17	21.75	-27.0	-28.5	16.0	0.00e+00	0	44	0	732954624	14	4258
2026-01-26 22:44:32.36	70.42	21.79	-27.0	-28.5	16.0	0.00e+00	0	43	0	736100352	14	4263
2026-01-26 22:44:33.36	70.67	21.83	-27.0	-28.5	16.0	0.00e+00	0	43	0	739246080	14	4260
2026-01-26 22:44:34.37	70.93	21.87	-26.9	-28.1	16.2	0.00e+00	0	43	0	742391808	14	4168
2026-01-26 22:44:35.37	71.19	21.91	-26.8	-28.1	16.2	0.00e+00	0	44	0	745537536	14	4153
2026-01-26 22:44:36.38	71.44	21.95	-26.9	-28.3	16.1	0.00e+00	0	44	0	748683264	14	4208
2026-01-26 22:44:37.38	71.70	21.98	-26.9	-28.1	16.2	0.00e+00	0	43	0	751828992	14	4172
2026-01-26 22:44:38.39	71.96	22.02	-26.9	-28.2	16.1	0.00e+00	0	44	0	754974720	14	4200
2026-01-26 22:44:39.40	72.22	22.06	-27.0	-28.5	16.0	0.00e+00	0	44	0	758120448	14	4268
2026-01-26 22:44:40.40	72.48	22.09	-27.1	-28.6	15.9	0.00e+00	0	44	0	761266176	14	4301
2026-01-26 22:44:41.40	72.74	22.13	-26.8	-28.1	16.2	0.00e+00	0	44	0	764411904	14	4155
2026-01-26 22:44:42.40	73.00	22.16	-26.8	-28.1	16.2	0.00e+00	0	43	0	767557632	14	4162
2026-01-26 22:44:43.40	73.26	22.20	-26.9	-28.2	16.2	0.00e+00	0	44	0	770703360	14	4179
2026-01-26 22:44:44.41	73.52	22.23	-26.9	-28.3	16.1	0.00e+00	0	44	0	773849088	14	4229
2026-01-26 22:44:45.41	73.78	22.27	-27.0	-28.4	16.0	0.00e+00	0	44	0	776994816	14	4255
2026-01-26 22:44:46.41	74.04	22.30	-27.0	-28.4	16.0	0.00e+00	0	44	0	780140544	14	4239
2026-01-26 22:44:47.41	74.30	22.33	-27.0	-28.5	16.0	0.00e+00	0	44	0	783286272	14	4275
2026-01-26 22:44:48.42	74.57	22.36	-27.0	-28.5	16.0	0.00e+00	0	44	0	786432000	14	4263
2026-01-26 22:44:49.42	74.83	22.39	-26.9	-28.2	16.2	0.00e+00	0	44	0	789577728	14	4178
2026-01-26 22:44:50.43	75.10	22.42	-26.8	-28.1	16.2	0.00e+00	0	43	0	792723456	14	4161
2026-01-26 22:44:51.43	75.36	22.45	-26.9	-28.3	16.1	0.00e+00	0	44	0	795869184	14	4223
2026-01-26 22:44:52.44	75.63	22.48	-26.9	-28.3	16.1	0.00e+00	0	44	0	799014912	14	4215
2026-01-26 22:44:53.44	75.89	22.51	-27.1	-28.6	15.4	0.00e+00	0	44	0	802160640	14	4292
2026-01-26 22:44:54.44	76.16	22.54	-27.0	-28.5	15.8	0.00e+00	0	44	0	805306368	14	4275
2026-01-26 22:44:55.45	76.43	22.57	-27.1	-28.7	15.9	0.00e+00	0	44	0	808452096	14	4317
2026-01-26 22:44:56.45	76.70	22.60	-27.0	-28.4	16.1	0.00e+00	0	44	0	811597824	14	4238
2026-01-26 22:44:57.46	76.97	22.62	-26.7	-27.9	16.3	0.00e+00	0	44	0	814743552	14	4104
2026-01-26 22:44:58.47	77.24	22.65	-26.7	-27.8	16.4	0.00e+00	0	44	0	817889280	14	4072
2026-01-26 22:44:59.47	77.50	22.67	-26.7	-27.7	16.4	7.00e-07	0	44	0	821035008	14	4054
2026-01-26 22:45:00.47	77.77	22.70	-26.7	-28.2	16.4	4.42e-04	0	44	0	824180736	13	4295
2026-01-26 22:45:01.48	78.04	22.72	-26.6	-28.0	16.5	0.00e+00	0	43	0	827326464	13	4243
2026-01-26 22:45:02.48	78.31	22.74	-26.6	-28.1	16.4	0.00e+00	0	44	0	830472192	13	4275
2026-01-26 22:45:03.48	78.58	22.77	-26.6	-28.2	16.4	0.00e+00	0	44	0	833617920	13	4294
2026-01-26 22:45:04.49	78.85	22.79	-26.7	-28.4	16.3	0.00e+00	0	44	0	836763648	13	4360
2026-01-26 22:45:05.49	79.12	22.81	-26.8	-28.6	16.2	6.03e-04	0	44	0	839909376	13	4413
2026-01-26 22:45:06.49	79.40	22.83	-26.9	-28.7	16.1	5.65e-04	0	44	0	843055104	13	4432
2026-01-26 22:45:07.49	79.67	22.85	-27.0	-28.9	16.0	0.00e+00	0	44	0	846200832	13	4491
2026-01-26 22:45:08.49	79.94	22.87	-27.0	-28.9	16.0	4.50e-06	0	44	0	849346560	13	4499
2026-01-26 22:45:09.50	80.21	22.89	-27.1	-28.6	15.9	0.00e+00	0	44	0	852492288	14	4306
2026-01-26 22:45:10.50	80.48	22.91	-26.9	-28.3	16.1	0.00e+00	0	43	0	855638016	14	4215
2026-01-26 22:45:11.50	80.76	22.93	-26.7	-27.8	16.3	3.58e-04	0	44	0	858783744	14	4095
2026-01-26 22:45:12.51	81.03	22.94	-26.7	-27.9	16.3	3.25e-04	0	44	0	861929472	14	4106
2026-01-26 22:45:13.51	81.31	22.96	-26.8	-28.0	16.2	0.00e+00	0	44	0	865075200	14	4138
2026-01-26 22:45:14.51	81.58	22.97	-26.9	-28.2	16.2	2.01e-04	0	44	0	868220928	14	4189
2026-01-26 22:45:15.51	81.85	22.99	-26.9	-28.2	16.1	1.57e-04	0	44	0	871366656	14	4199
2026-01-26 22:45:16.52	82.13	23.00	-26.8	-28.1	16.2	0.00e+00	0	44	0	874512384	14	4160
2026-01-26 22:45:17.52	82.40	23.02	-26.8	-28.0	16.2	1.15e-04	0	44	0	877658112	14	4143
2026-01-26 22:45:18.53	82.68	23.03	-26.8	-28.1	16.2	1.45e-04	0	44	0	880803840	14	4168
2026-01-26 22:45:19.52	82.95	23.04	-26.9	-28.2	16.1	0.00e+00	0	44	0	883949568	14	4203
2026-01-26 22:45:20.52	83.23	23.05	-27.0	-28.4	16.0	8.85e-05	0	44	0	887095296	14	4242
2026-01-26 22:45:21.53	83.50	23.06	-27.0	-28.6	15.9	6.63e-05	0	44	0	890241024	14	4298
2026-01-26 22:45:22.53	83.78	23.08	-27.1	-28.6	15.9	0.00e+00	0	44	0	893386752	14	4310
2026-01-26 22:45:23.54	84.06	23.08	-26.9	-28.4	16.1	8.30e-06	0	44	0	896532480	14	4233
2026-01-26 22:45:24.53	84.33	23.09	-26.9	-28.2	16.1	0.00e+00	0	44	0	899678208	14	4195
2026-01-26 22:45:25.54	84.61	23.10	-26.9	-28.2	16.1	0.00e+00	0	44	0	902823936	14	4203
2026-01-26 22:45:26.54	84.88	23.11	-26.9	-28.3	16.1	0.00e+00	0	44	0	905969664	14	4206
2026-01-26 22:45:27.54	85.16	23.12	-27.0	-28.4	16.0	0.00e+00	0	43	0	909115392	14	4248
2026-01-26 22:45:28.55	85.44	23.12	-27.0	-28.6	15.9	0.00e+00	0	44	0	912261120	14	4289
2026-01-26 22:45:29.55	85.71	23.13	-27.0	-28.4	16.0	0.00e+00	0	44	0	915406848	14	4239
2026-01-26 22:45:30.55	85.99	23.13	-26.9	-28.3	16.0	9.10e-06	0	44	0	918552576	14	4230
2026-01-26 22:45:31.56	86.27	23.14	-27.0	-28.4	16.0	0.00e+00	0	44	0	921698304	14	4242
2026-01-26 22:45:32.55	86.54	23.14	-26.9	-28.3	16.1	2.13e-05	0	44	0	924844032	14	4226
2026-01-26 22:45:33.56	86.82	23.14	-26.9	-28.1	16.1	0.00e+00	0	44	0	927989760	14	4176
2026-01-26 22:45:34.57	87.10	23.15	-26.8	-28.0	16.3	0.00e+00	0	44	0	931135488	14	4134
2026-01-26 22:45:35.57	87.38	23.15	-26.8	-28.1	16.2	0.00e+00	0	44	0	934281216	14	4174
2026-01-26 22:45:36.57	87.65	23.15	-26.9	-28.4	16.1	0.00e+00	0	44	0	937426944	14	4234
2026-01-26 22:45:37.58	87.93	23.15	-26.9	-28.3	16.1	0.00e+00	0	44	0	940572672	14	4231
2026-01-26 22:45:38.59	88.21	23.15	-27.0	-28.4	16.0	0.00e+00	0	44	0	943718400	14	4245
2026-01-26 22:45:39.59	88.49	23.15	-26.9	-28.3	16.1	0.00e+00	0	44	0	946864128	14	4210
2026-01-26 22:45:40.60	88.77	23.14	-26.9	-28.1	16.2	0.00e+00	0	44	0	950009856	14	4168
2026-01-26 22:45:41.60	89.04	23.14	-26.8	-28.0	16.3	0.00e+00	0	44	0	953155584	14	4143
2026-01-26 22:45:42.61	89.32	23.14	-26.9	-28.3	16.1	2.19e-04	0	43	0	956301312	14	4216
2026-01-26 22:45:43.61	89.60	23.13	-26.9	-28.4	16.1	0.00e+00	0	44	0	959447040	14	4233
2026-01-26 22:45:44.61	89.88	23.13	-26.9	-28.2	16.2	0.00e+00	0	44	0	962592768	14	4184
2026-01-26 22:45:45.62	90.16	23.12	-26.8	-27.9	16.3	0.00e+00	0	44	0	965738496	14	4125
2026-01-26 22:45:46.62	90.43	23.12	-26.8	-28.0	16.3	0.00e+00	0	44	0	968884224	14	4132
2026-01-26 22:45:47.62	90.71	23.11	-26.7	-27.7	16.4	0.00e+00	0	44	0	972029952	14	4068
2026-01-26 22:45:48.62	90.98	23.10	-26.5	-27.4	16.5	0.00e+00	0	44	0	974127104	14	3984
2026-01-26 22:45:49.62	91.26	23.10	-26.5	-27.4	16.5	0.00e+00	0	44	0	977272832	14	3998
2026-01-26 22:45:50.62	91.53	23.09	-26.5	-27.4	16.6	0.00e+00	0	44	0	980418560	14	3992
2026-01-26 22:45:51.62	91.81	23.08	-26.5	-27.4	16.5	0.00e+00	0	44	0	983564288	14	3992
2026-01-26 22:45:52.62	92.09	23.07	-26.6	-27.7	16.4	0.00e+00	0	44	0	986710016	14	4054
2026-01-26 22:45:53.61	92.36	23.06	-26.7	-27.8	16.3	0.00e+00	0	44	0	989855744	14	4087
2026-01-26 22:45:54.61	92.63	23.05	-26.7	-27.9	16.3	7.00e-07	0	44	0	993001472	14	4105
2026-01-26 22:45:55.62	92.91	23.03	-26.8	-28.0	16.3	0.00e+00	0	44	0	996147200	14	4142
2026-01-26 22:45:56.62	93.19	23.02	-26.8	-28.0	16.2	0.00e+00	0	44	0	999292928	14	4132
2026-01-26 22:45:57.62	93.46	23.01	-26.8	-28.1	16.2	0.00e+00	0	44	0	1002438656	14	4171
2026-01-26 22:45:58.63	93.74	22.99	-26.7	-27.8	16.3	0.00e+00	0	44	0	1005584384	14	4087
2026-01-26 22:45:59.64	94.01	22.98	-26.7	-27.9	16.3	0.00e+00	0	44	0	1008730112	14	4105
2026-01-26 22:46:00.64	94.29	22.96	-26.7	-27.7	16.4	0.00e+00	0	44	0	1011875840	14	4064
2026-01-26 22:46:01.65	94.56	22.95	-26.5	-27.4	16.6	0.00e+00	0	44	0	1015021568	14	3978
2026-01-26 22:46:02.65	94.84	22.93	-26.4	-27.2	16.6	0.00e+00	0	44	0	1018167296	14	3936
2026-01-26 22:46:03.66	95.11	22.91	-26.4	-27.1	16.7	0.00e+00	0	44	0	1021313024	14	3913
2026-01-26 22:46:04.66	95.38	22.89	-26.4	-27.1	16.7	0.00e+00	0	44	0	1024458752	14	3919
2026-01-26 22:46:05.66	95.66	22.88	-26.5	-27.4	16.6	0.00e+00	0	44	0	1027604480	14	3972
2026-01-26 22:46:06.66	95.93	22.86	-26.5	-27.4	16.5	0.00e+00	0	44	0	1030750208	14	3989
2026-01-26 22:46:07.67	96.20	22.84	-26.6	-27.5	16.5	0.00e+00	0	44	0	1033895936	14	4009
2026-01-26 22:46:08.67	96.47	22.82	-26.6	-27.5	16.5	0.00e+00	0	44	0	1037041664	14	4016
2026-01-26 22:46:09.68	96.75	22.79	-26.6	-27.5	16.5	0.00e+00	0	44	0	1040187392	14	4017
2026-01-26 22:46:10.68	97.02	22.77	-26.7	-27.7	16.4	0.00e+00	0	44	0	1043333120	14	4065
2026-01-26 22:46:11.69	97.29	22.75	-26.7	-27.8	16.3	0.00e+00	0	43	0	1046478848	14	4091
2026-01-26 22:46:12.69	97.56	22.73	-26.7	-27.7	16.4	0.00e+00	0	44	0	1049624576	14	4066
2026-01-26 22:46:13.69	97.83	22.70	-26.7	-27.8	16.3	0.00e+00	0	44	0	1052770304	14	4084
2026-01-26 22:46:14.70	98.10	22.68	-26.8	-28.1	16.1	0.00e+00	0	44	0	1055916032	14	4180
2026-01-26 22:46:15.70	98.37	22.65	-26.8	-28.1	16.1	0.00e+00	0	44	0	1059061760	14	4169
2026-01-26 22:46:16.71	98.64	22.63	-26.7	-27.9	16.3	0.00e+00	0	44	0	1062207488	14	4105
2026-01-26 22:46:17.71	98.91	22.60	-26.7	-27.9	16.3	0.00e+00	0	44	0	1065353216	14	4104
2026-01-26 22:46:18.71	99.18	22.57	-26.8	-28.0	16.2	0.00e+00	0	44	0	1068498944	14	4131
2026-01-26 22:46:19.72	99.44	22.55	-26.7	-27.7	16.3	7.00e-07	0	44	0	1071644672	14	4076
2026-01-26 22:46:20.73	99.71	22.52	-26.7	-27.7	16.3	0.00e+00	0	44	0	1074790400	14	4066
2026-01-26 22:46:21.73	99.98	22.49	-26.6	-27.5	16.5	0.00e+00	0	44	0	1077936128	14	4012
2026-01-26 22:46:22.74	100.25	22.46	-26.6	-27.6	16.4	0.00e+00	0	44	0	1081081856	14	4038
2026-01-26 22:46:23.74	100.51	22.43	-26.7	-27.8	16.3	0.00e+00	0	44	0	1084227584	14	4087
2026-01-26 22:46:24.75	100.78	22.40	-26.7	-27.9	16.2	0.00e+00	0	44	0	1087373312	14	4112
2026-01-26 22:46:25.75	101.04	22.37	-26.7	-27.8	16.3	3.00e-06	0	44	0	1090519040	14	4082
2026-01-26 22:46:26.76	101.31	22.34	-26.6	-27.6	16.4	0.00e+00	0	44	0	1093664768	14	4026
2026-01-26 22:46:27.76	101.57	22.30	-26.5	-27.5	16.5	0.00e+00	0	44	0	1096810496	14	3999
2026-01-26 22:46:28.76	101.83	22.27	-26.7	-27.8	16.3	5.30e-06	0	44	0	1099956224	14	4086
2026-01-26 22:46:29.76	102.10	22.24	-26.6	-27.6	16.4	0.00e+00	0	44	0	1103101952	14	4040
2026-01-26 22:46:30.77	102.36	22.20	-26.6	-27.6	16.4	0.00e+00	0	44	0	1106247680	14	4046
2026-01-26 22:46:31.78	102.62	22.17	-26.8	-28.0	16.2	0.00e+00	0	44	0	1109393408	14	4142
2026-01-26 22:46:32.78	102.88	22.13	-26.9	-28.3	16.0	0.00e+00	0	44	0	1112539136	14	4224
2026-01-26 22:46:33.79	103.15	22.10	-26.9	-28.2	16.1	0.00e+00	0	44	0	1115684864	14	4201
2026-01-26 22:46:34.80	103.41	22.06	-26.8	-28.0	16.2	0.00e+00	0	44	0	1118830592	14	4144
2026-01-26 22:46:35.80	103.67	22.03	-26.9	-28.3	16.0	0.00e+00	0	44	0	1121976320	14	4225
2026-01-26 22:46:36.81	103.93	21.99	-26.8	-28.1	16.1	0.00e+00	0	44	0	1125122048	14	4177
2026-01-26 22:46:37.82	104.19	21.95	-27.0	-28.4	15.8	0.00e+00	0	44	0	1128267776	14	4258
2026-01-26 22:46:38.82	104.44	21.91	-26.9	-28.3	16.0	0.00e+00	0	44	0	1131413504	14	4239
2026-01-26 22:46:39.82	104.70	21.87	-27.1	-28.7	15.8	0.00e+00	0	44	0	1134559232	14	4331
2026-01-26 22:46:40.83	104.96	21.83	-26.8	-28.6	16.1	4.15e-04	0	44	0	1137704960	13	4405
2026-01-26 22:46:41.84	105.21	21.79	-26.9	-28.7	16.0	0.00e+00	0	44	0	1140850688	13	4452
2026-01-26 22:46:42.84	105.47	21.75	-26.8	-28.6	16.1	0.00e+00	0	44	0	1143996416	13	4405
2026-01-26 22:46:43.85	105.72	21.71	-26.8	-28.6	16.1	0.00e+00	0	44	0	1147142144	13	4427
2026-01-26 22:46:44.85	105.98	21.67	-27.0	-28.9	15.9	7.01e-05	0	44	0	1150287872	13	4513
2026-01-26 22:46:45.85	106.23	21.63	-27.1	-28.8	15.7	0.00e+00	0	44	0	1153433600	14	4347
2026-01-26 22:46:46.85	106.48	21.59	-27.3	-29.2	15.5	2.47e-04	0	44	0	1156579328	14	4482
2026-01-26 22:46:47.85	106.73	21.54	-27.2	-29.0	15.6	0.00e+00	0	44	0	1159725056	14	4416
2026-01-26 22:46:48.85	106.98	21.50	-27.0	-28.6	15.8	0.00e+00	0	44	0	1162870784	14	4297
2026-01-26 22:46:49.86	107.23	21.46	-26.9	-28.4	16.0	1.46e-04	0	44	0	1166016512	14	4236
2026-01-26 22:46:50.86	107.48	21.41	-27.0	-28.4	15.9	2.27e-04	0	44	0	1169162240	14	4243
2026-01-26 22:46:51.87	107.73	21.37	-27.0	-28.4	15.9	0.00e+00	0	44	0	1172307968	14	4261
2026-01-26 22:46:52.87	107.98	21.32	-26.9	-28.3	16.0	3.34e-04	0	44	0	1175453696	14	4221
2026-01-26 22:46:53.88	108.23	21.28	-26.9	-28.3	16.0	0.00e+00	0	44	0	1178599424	14	4211
2026-01-26 22:46:54.89	108.48	21.23	-26.8	-28.2	16.0	0.00e+00	0	44	0	1181745152	14	4193
2026-01-26 22:46:55.89	108.72	21.18	-26.9	-28.3	15.9	9.15e-05	0	44	0	1184890880	14	4237
2026-01-26 22:46:56.89	108.97	21.14	-27.0	-28.6	15.8	7.40e-05	0	44	0	1188036608	14	4314
2026-01-26 22:46:57.90	109.21	21.09	-26.8	-28.2	16.0	0.00e+00	0	44	0	1191182336	14	4191
2026-01-26 22:46:58.90	109.45	21.04	-26.9	-28.2	16.0	0.00e+00	0	44	0	1194328064	14	4203
2026-01-26 22:46:59.90	109.70	20.99	-27.0	-28.6	15.7	1.94e-04	0	44	0	1197473792	14	4316
2026-01-26 22:47:00.90	109.94	20.94	-27.0	-28.5	15.8	0.00e+00	0	44	0	1200619520	14	4278
2026-01-26 22:47:01.90	110.18	20.90	-27.0	-28.5	15.8	5.82e-04	0	44	0	1203765248	14	4278
2026-01-26 22:47:02.91	110.42	20.85	-27.0	-28.5	15.8	6.58e-04	0	44	0	1206910976	14	4296
2026-01-26 22:47:03.91	110.66	20.80	-27.1	-28.8	15.6	0.00e+00	0	44	0	1210056704	14	4375
2026-01-26 22:47:04.92	110.90	20.75	-27.1	-28.7	15.7	7.61e-04	0	44	0	1213202432	14	4327
2026-01-26 22:47:05.92	111.14	20.69	-27.3	-29.1	15.5	8.31e-04	0	44	0	1216348160	14	4456
2026-01-26 22:47:06.92	111.38	20.64	-27.2	-28.9	15.6	0.00e+00	0	44	0	1219493888	14	4403
2026-01-26 22:47:07.92	111.61	20.59	-27.3	-29.2	15.4	6.44e-04	0	44	0	1222639616	14	4486
2026-01-26 22:47:08.93	111.85	20.54	-27.1	-28.8	15.6	0.00e+00	0	44	0	1225785344	14	4384
2026-01-26 22:47:09.92	112.08	20.49	-26.9	-28.4	15.8	0.00e+00	0	44	0	1228931072	14	4267
2026-01-26 22:47:10.93	112.32	20.44	-26.9	-28.2	15.9	1.69e-04	0	44	0	1232076800	14	4221
2026-01-26 22:47:11.93	112.55	20.38	-26.8	-28.2	16.0	8.01e-05	0	44	0	1235222528	14	4190
2026-01-26 22:47:12.93	112.78	20.33	-26.7	-27.8	16.2	0.00e+00	0	44	0	1238368256	14	4090
2026-01-26 22:47:13.94	113.02	20.28	-26.6	-27.6	16.3	0.00e+00	0	44	0	1241513984	14	4060
2026-01-26 22:47:14.94	113.25	20.22	-26.7	-27.9	16.1	0.00e+00	0	44	0	1244659712	14	4136
2026-01-26 22:47:15.95	113.48	20.17	-26.8	-28.1	16.0	0.00e+00	0	44	0	1247805440	14	4174
2026-01-26 22:47:16.95	113.71	20.11	-27.0	-28.5	15.8	5.41e-04	0	44	0	1250951168	14	4304
2026-01-26 22:47:17.95	113.94	20.06	-26.9	-28.5	15.8	4.26e-04	0	44	0	1254096896	14	4287
2026-01-26 22:47:18.95	114.17	20.00	-26.9	-28.4	15.8	0.00e+00	0	44	0	1257242624	14	4285
2026-01-26 22:47:19.94	114.39	19.95	-26.9	-28.8	15.8	0.00e+00	0	44	0	1260388352	13	4507
2026-01-26 22:47:20.95	114.62	19.89	-27.0	-29.0	15.7	0.00e+00	0	44	0	1263534080	13	4541
2026-01-26 22:47:21.96	114.85	19.83	-26.9	-28.4	15.8	0.00e+00	0	44	0	1266679808	14	4270
2026-01-26 22:47:22.96	115.07	19.78	-26.9	-28.4	15.8	2.01e-04	0	44	0	1269825536	14	4268
2026-01-26 22:47:23.97	115.30	19.72	-27.0	-28.6	15.7	0.00e+00	0	44	0	1272971264	14	4307
2026-01-26 22:47:24.97	115.52	19.66	-26.9	-28.4	15.8	3.00e-06	0	44	0	1276116992	14	4263
2026-01-26 22:47:25.97	115.74	19.61	-27.0	-28.6	15.7	0.00e+00	0	44	0	1279262720	14	4322
2026-01-26 22:47:26.98	115.97	19.55	-27.0	-28.7	15.6	0.00e+00	0	44	0	1282408448	14	4339
2026-01-26 22:47:27.98	116.19	19.49	-27.2	-29.0	15.5	3.00e-06	0	44	0	1285554176	14	4419
2026-01-26 22:47:28.99	116.41	19.43	-27.1	-28.7	15.6	0.00e+00	0	44	0	1288699904	14	4360
2026-01-26 22:47:29.99	116.63	19.37	-27.2	-28.9	15.5	0.00e+00	0	44	0	1291845632	14	4408
2026-01-26 22:47:31.00	116.85	19.31	-27.2	-29.0	15.4	7.00e-07	0	44	0	1294991360	14	4431
2026-01-26 22:47:32.00	117.06	19.25	-27.2	-29.0	15.4	0.00e+00	0	44	0	1298137088	14	4434
2026-01-26 22:47:33.01	117.28	19.19	-27.1	-28.8	15.5	0.00e+00	0	44	0	1301282816	14	4388
2026-01-26 22:47:34.01	117.50	19.14	-27.2	-28.9	15.4	3.00e-06	0	44	0	1304428544	14	4425
2026-01-26 22:47:35.02	117.71	19.07	-27.3	-29.3	15.2	0.00e+00	0	44	0	1307574272	14	4523
2026-01-26 22:47:36.02	117.93	19.01	-27.4	-29.4	15.2	0.00e+00	0	44	0	1310720000	14	4549
2026-01-26 22:47:37.02	118.14	18.95	-27.4	-29.4	15.2	0.00e+00	0	44	0	1313865728	14	4560
2026-01-26 22:47:38.02	118.35	18.89	-27.4	-29.6	15.1	0.00e+00	0	44	0	1317011456	14	4609
2026-01-26 22:47:39.03	118.57	18.83	-27.4	-29.4	15.1	0.00e+00	0	44	0	1320157184	14	4556
2026-01-26 22:47:40.03	118.78	18.77	-27.3	-29.3	15.2	0.00e+00	0	44	0	1323302912	14	4533
2026-01-26 22:47:41.04	118.99	18.71	-27.4	-29.4	15.2	0.00e+00	0	44	0	1326448640	14	4551
2026-01-26 22:47:42.04	119.20	18.65	-27.6	-29.4	14.9	0.00e+00	0	44	0	1329594368	15	4447
2026-01-26 22:47:43.04	119.41	18.59	-28.2	-30.2	14.3	7.00e-07	0	44	0	1332740096	16	4562
2026-01-26 22:47:44.05	119.62	18.52	-27.8	-29.3	14.9	0.00e+00	0	44	0	1335885824	16	4286
2026-01-26 22:47:45.04	119.82	18.46	-27.5	-28.8	15.1	0.00e+00	0	44	0	1339031552	16	4144
2026-01-26 22:47:46.04	120.03	18.40	-27.3	-28.2	15.4	0.00e+00	0	44	0	1342177280	16	4005
2026-01-26 22:47:47.05	120.23	18.34	-27.1	-28.2	15.5	0.00e+00	0	44	0	1344274432	15	4102
2026-01-26 22:47:48.04	120.43	18.28	-27.1	-28.3	15.5	0.00e+00	0	44	0	1347420160	15	4120
2026-01-26 22:47:49.05	120.64	18.21	-27.1	-28.2	15.5	0.00e+00	0	44	0	1350565888	15	4114
2026-01-26 22:47:50.06	120.84	18.15	-27.2	-28.6	15.3	0.00e+00	0	44	0	1353711616	15	4226
2026-01-26 22:47:51.06	121.04	18.09	-27.0	-28.1	15.6	0.00e+00	0	44	0	1356857344	15	4084
2026-01-26 22:47:52.06	121.25	18.02	-26.9	-27.7	15.8	0.00e+00	0	44	0	1360003072	15	3987
2026-01-26 22:47:53.06	121.45	17.96	-26.8	-27.6	15.8	0.00e+00	0	44	0	1363148800	15	3960
2026-01-26 22:47:54.06	121.64	17.89	-26.8	-27.6	15.9	0.00e+00	0	44	0	1366294528	15	3946
2026-01-26 22:47:55.07	121.84	17.83	-26.7	-28.0	15.9	0.00e+00	0	44	0	1369440256	14	4146
2026-01-26 22:47:56.07	122.04	17.77	-26.8	-28.0	15.9	0.00e+00	0	44	0	1372585984	14	4159
2026-01-26 22:47:57.07	122.24	17.70	-26.9	-28.2	15.8	0.00e+00	0	44	0	1375731712	14	4210
2026-01-26 22:47:58.08	122.44	17.64	-26.9	-28.2	15.8	0.00e+00	0	44	0	1378877440	14	4216
2026-01-26 22:47:59.08	122.63	17.57	-26.9	-28.3	15.7	0.00e+00	0	44	0	1382023168	14	4235
2026-01-26 22:48:00.08	122.83	17.51	-27.0	-28.7	15.5	0.00e+00	0	44	0	1385168896	14	4334
2026-01-26 22:48:01.09	123.02	17.44	-26.9	-28.4	15.6	0.00e+00	0	44	0	1388314624	14	4282
2026-01-26 22:48:02.09	123.21	17.38	-27.0	-28.5	15.6	0.00e+00	0	44	0	1391460352	14	4316
2026-01-26 22:48:03.09	123.41	17.31	-27.0	-28.6	15.5	0.00e+00	0	44	0	1394606080	14	4340
2026-01-26 22:48:04.09	123.60	17.25	-27.1	-28.7	15.5	0.00e+00	0	44	0	1397751808	14	4361
2026-01-26 22:48:05.09	123.79	17.18	-27.0	-28.6	15.5	0.00e+00	0	44	0	1400897536	14	4338
2026-01-26 22:48:06.10	123.98	17.12	-27.0	-28.7	15.5	0.00e+00	0	44	0	1404043264	14	4351
2026-01-26 22:48:07.10	124.17	17.05	-27.0	-28.6	15.5	0.00e+00	0	44	0	1407188992	14	4331
2026-01-26 22:48:08.10	124.35	16.98	-27.0	-28.6	15.5	0.00e+00	0	44	0	1410334720	14	4330
2026-01-26 22:48:09.10	124.54	16.92	-27.0	-28.6	15.6	0.00e+00	0	44	0	1413480448	14	4310
2026-01-26 22:48:10.11	124.73	16.85	-27.1	-28.8	15.4	0.00e+00	0	44	0	1416626176	14	4378
2026-01-26 22:48:11.12	124.92	16.78	-27.0	-28.5	15.5	0.00e+00	0	44	0	1419771904	14	4306
2026-01-26 22:48:12.12	125.10	16.72	-27.0	-28.6	15.5	0.00e+00	0	44	0	1422917632	14	4315
2026-01-26 22:48:13.13	125.29	16.65	-27.0	-28.7	15.5	0.00e+00	0	44	0	1426063360	14	4359
2026-01-26 22:48:14.14	125.47	16.58	-27.0	-28.7	15.5	0.00e+00	0	44	0	1429209088	14	4345
2026-01-26 22:48:15.14	125.65	16.52	-27.1	-28.9	15.3	1.83e-05	0	44	0	1432354816	14	4422
2026-01-26 22:48:16.15	125.84	16.45	-27.1	-28.9	15.3	2.67e-05	0	44	0	1435500544	14	4416
2026-01-26 22:48:17.15	126.02	16.38	-27.1	-28.8	15.4	0.00e+00	0	44	0	1438646272	14	4396
2026-01-26 22:48:18.16	126.20	16.32	-27.1	-29.0	15.3	0.00e+00	0	44	0	1441792000	14	4437
2026-01-26 22:48:19.16	126.38	16.25	-27.2	-29.1	15.2	0.00e+00	0	44	0	1444937728	14	4476
2026-01-26 22:48:20.16	126.56	16.18	-27.1	-28.9	15.3	0.00e+00	0	44	0	1448083456	14	4425
2026-01-26 22:48:21.16	126.73	16.12	-27.1	-28.9	15.3	6.48e-05	0	44	0	1451229184	14	4400
2026-01-26 22:48:22.16	126.91	16.05	-27.0	-28.7	15.3	0.00e+00	0	44	0	1454374912	14	4354
2026-01-26 22:48:23.16	127.09	15.98	-27.1	-28.8	15.3	0.00e+00	0	44	0	1457520640	14	4377
2026-01-26 22:48:24.16	127.26	15.91	-27.2	-29.0	15.2	7.00e-07	0	44	0	1460666368	14	4449
2026-01-26 22:48:25.17	127.44	15.85	-27.1	-28.7	15.4	1.06e-05	0	44	0	1463812096	14	4369
2026-01-26 22:48:26.18	127.61	15.78	-27.0	-28.6	15.4	5.18e-05	0	44	0	1466957824	14	4350
2026-01-26 22:48:27.18	127.79	15.71	-27.0	-28.8	15.3	4.50e-06	0	44	0	1470103552	14	4416
2026-01-26 22:48:28.19	127.96	15.64	-27.1	-29.0	15.2	0.00e+00	0	44	0	1473249280	14	4463
2026-01-26 22:48:29.19	128.13	15.58	-27.1	-29.0	15.1	0.00e+00	0	44	0	1476395008	14	4489
2026-01-26 22:48:30.20	128.30	15.51	-27.2	-29.1	15.0	6.10e-06	0	44	0	1479540736	14	4528
2026-01-26 22:48:31.20	128.47	15.44	-27.1	-29.1	15.0	2.62e-04	0	44	0	1482686464	14	4514
2026-01-26 22:48:32.20	128.64	15.37	-27.3	-29.4	14.9	0.00e+00	0	44	0	1485832192	14	4600
2026-01-26 22:48:33.21	128.81	15.30	-27.5	-29.8	14.6	5.30e-06	0	44	0	1488977920	14	4730
2026-01-26 22:48:34.21	128.98	15.24	-27.5	-29.9	14.7	7.00e-07	0	44	0	1492123648	14	4723
2026-01-26 22:48:35.21	129.15	15.17	-27.6	-29.7	14.5	9.91e-05	0	44	0	1495269376	15	4550
2026-01-26 22:48:36.22	129.32	15.10	-27.7	-29.7	14.5	0.00e+00	0	44	0	1498415104	15	4547
2026-01-26 22:48:37.22	129.48	15.03	-27.7	-29.8	14.4	7.00e-07	0	44	0	1501560832	15	4561
2026-01-26 22:48:38.22	129.65	14.96	-27.8	-29.9	14.4	1.50e-06	0	44	0	1504706560	15	4588
2026-01-26 22:48:39.23	129.81	14.90	-27.9	-30.1	14.2	4.50e-06	0	44	0	1507852288	15	4651
2026-01-26 22:48:40.24	129.98	14.83	-27.8	-29.9	14.3	1.69e-04	0	44	0	1510998016	15	4613
2026-01-26 22:48:41.24	130.14	14.76	-27.9	-30.1	14.2	1.88e-04	0	44	0	1514143744	15	4682
2026-01-26 22:48:42.25	130.30	14.69	-28.1	-30.2	14.0	6.10e-06	0	44	0	1517289472	16	4582
2026-01-26 22:48:43.25	130.46	14.62	-28.0	-29.9	14.2	5.03e-04	0	44	0	1520435200	16	4514
2026-01-26 22:48:44.26	130.63	14.55	-27.9	-29.8	14.2	6.52e-04	0	44	0	1523580928	16	4463
2026-01-26 22:48:45.27	130.79	14.49	-28.0	-29.9	14.2	1.50e-06	0	44	0	1526726656	16	4488
2026-01-26 22:48:46.27	130.95	14.42	-27.8	-30.1	14.1	6.48e-04	0	44	0	1529872384	15	4691
2026-01-26 22:48:47.28	131.11	14.35	-27.8	-30.0	14.2	5.73e-04	0	44	0	1533018112	15	4635
2026-01-26 22:48:48.28	131.26	14.28	-27.7	-29.9	14.3	7.00e-07	0	44	0	1536163840	15	4594
2026-01-26 22:48:49.29	131.42	14.21	-27.8	-29.9	14.2	2.20e-06	0	44	0	1539309568	15	4604
2026-01-26 22:48:50.29	131.58	14.14	-27.6	-29.6	14.4	3.88e-04	0	44	0	1542455296	15	4534
2026-01-26 22:48:51.29	131.73	14.08	-27.6	-29.7	14.3	1.50e-06	0	44	0	1545601024	15	4565
2026-01-26 22:48:52.30	131.89	14.01	-27.7	-29.8	14.2	4.05e-04	0	44	0	1548746752	15	4613
2026-01-26 22:48:53.30	132.04	13.94	-27.5	-29.3	14.5	4.84e-04	0	44	0	1551892480	15	4460
2026-01-26 22:48:54.31	132.20	13.87	-27.4	-29.3	14.5	1.50e-06	0	44	0	1555038208	15	4454
2026-01-26 22:48:55.31	132.35	13.80	-27.6	-29.6	14.4	7.00e-07	0	44	0	1558183936	15	4535
2026-01-26 22:48:56.31	132.50	13.73	-27.5	-29.5	14.4	3.51e-04	0	44	0	1561329664	15	4525
2026-01-26 22:48:57.32	132.66	13.66	-27.6	-29.7	14.3	0.00e+00	0	44	0	1564475392	15	4571
2026-01-26 22:48:58.32	132.81	13.60	-27.7	-29.9	14.2	0.00e+00	0	44	0	1567621120	15	4615
2026-01-26 22:48:59.33	132.96	13.53	-27.9	-30.2	14.1	1.50e-06	0	44	0	1570766848	15	4688
2026-01-26 22:49:00.33	133.11	13.46	-27.9	-30.3	14.0	1.50e-06	0	44	0	1573912576	15	4741
2026-01-26 22:49:01.34	133.26	13.39	-28.2	-30.3	13.8	6.10e-06	0	44	0	1577058304	16	4613
2026-01-26 22:49:02.34	133.41	13.32	-28.1	-30.3	13.8	1.02e-04	0	44	0	1580204032	16	4620
2026-01-26 22:49:03.34	133.55	13.26	-28.2	-30.4	13.7	6.10e-06	0	44	0	1583349760	16	4676
2026-01-26 22:49:04.35	133.70	13.19	-28.1	-30.3	13.8	4.50e-06	0	44	0	1586495488	16	4636
2026-01-26 22:49:05.36	133.85	13.12	-28.2	-30.6	13.6	6.80e-06	0	44	0	1589641216	16	4730
2026-01-26 22:49:06.36	134.00	13.05	-28.2	-30.7	13.6	1.14e-05	0	44	0	1592786944	16	4758
2026-01-26 22:49:07.36	134.14	12.98	-28.1	-30.4	13.7	9.76e-04	0	44	0	1595932672	16	4661
2026-01-26 22:49:08.37	134.29	12.91	-28.2	-30.5	13.7	6.80e-06	0	44	0	1599078400	16	4696
2026-01-26 22:49:09.37	134.43	12.85	-28.1	-30.3	13.8	7.60e-06	0	44	0	1602224128	16	4644
2026-01-26 22:49:10.37	134.57	12.78	-28.0	-30.1	13.9	3.80e-06	0	44	0	1605369856	16	4571
2026-01-26 22:49:11.37	134.71	12.71	-28.0	-30.1	13.9	4.50e-06	0	44	0	1608515584	16	4578
2026-01-26 22:49:12.38	134.86	12.64	-28.0	-30.0	13.9	7.00e-07	0	44	0	1611661312	16	4550
2026-01-26 22:49:13.39	135.00	12.57	-28.0	-30.1	13.9	3.00e-06	0	44	0	1614807040	16	4567
2026-01-26 22:49:14.39	135.14	12.51	-28.1	-30.3	13.8	6.80e-06	0	44	0	1617952768	16	4646
2026-01-26 22:49:15.39	135.28	12.44	-28.2	-30.4	13.7	1.14e-05	0	44	0	1621098496	16	4682
2026-01-26 22:49:16.40	135.42	12.37	-28.1	-30.3	13.7	5.30e-06	0	43	0	1624244224	16	4657
2026-01-26 22:49:17.41	135.56	12.30	-28.2	-30.6	13.5	1.29e-05	0	44	0	1627389952	16	4748
2026-01-26 22:49:18.41	135.70	12.23	-28.3	-30.8	13.4	9.90e-06	0	44	0	1630535680	16	4800
2026-01-26 22:49:19.42	135.84	12.17	-28.4	-31.0	13.3	2.21e-05	0	44	0	1633681408	16	4867
2026-01-26 22:49:20.43	135.97	12.10	-28.4	-31.1	13.2	2.21e-05	0	44	0	1636827136	16	4901
2026-01-26 22:49:21.44	136.11	12.03	-28.4	-31.0	13.2	2.21e-05	0	44	0	1639972864	16	4893
2026-01-26 22:49:22.44	136.25	11.96	-28.3	-30.9	13.3	1.29e-05	0	44	0	1643118592	16	4862
2026-01-26 22:49:23.44	136.38	11.89	-28.2	-30.8	13.4	1.22e-05	0	44	0	1646264320	16	4818
2026-01-26 22:49:24.45	136.52	11.83	-28.1	-30.5	13.5	1.14e-05	0	44	0	1649410048	16	4748
2026-01-26 22:49:25.46	136.65	11.76	-28.0	-30.3	13.6	9.90e-06	0	44	0	1652555776	16	4698
2026-01-26 22:49:26.46	136.79	11.69	-27.9	-30.6	13.5	1.06e-05	0	44	0	1655701504	15	4914
2026-01-26 22:49:27.47	136.92	11.62	-28.0	-30.8	13.4	1.52e-05	0	44	0	1658847232	15	4978
2026-01-26 22:49:28.47	137.05	11.56	-28.2	-30.7	13.3	1.75e-05	0	44	0	1661992960	16	4816
2026-01-26 22:49:29.47	137.18	11.49	-28.2	-30.6	13.4	2.36e-05	0	44	0	1665138688	16	4776
2026-01-26 22:49:30.47	137.31	11.42	-28.2	-30.6	13.4	1.67e-05	0	44	0	1668284416	16	4760
2026-01-26 22:49:31.46	137.44	11.36	-28.2	-30.7	13.3	9.10e-06	0	44	0	1671430144	16	4801
2026-01-26 22:49:32.46	137.57	11.29	-28.2	-30.6	13.4	2.44e-05	0	44	0	1674575872	16	4729
2026-01-26 22:49:33.46	137.70	11.22	-28.2	-30.5	13.5	1.06e-05	0	44	0	1677721600	16	4713
2026-01-26 22:49:34.47	137.83	11.16	-28.2	-30.6	13.4	5.30e-06	0	44	0	1680867328	16	4716
2026-01-26 22:49:35.48	137.96	11.09	-28.2	-30.6	13.4	7.60e-06	0	44	0	1684013056	16	4730
2026-01-26 22:49:36.49	138.09	11.02	-28.3	-30.7	13.4	2.36e-05	0	44	0	1687158784	16	4766
2026-01-26 22:49:37.50	138.22	10.95	-28.2	-30.7	13.3	1.22e-05	0	44	0	1690304512	16	4775
2026-01-26 22:49:38.50	138.34	10.89	-28.2	-30.6	13.4	1.60e-05	0	44	0	1693450240	16	4753
2026-01-26 22:49:39.50	138.47	10.82	-28.1	-30.5	13.4	1.60e-05	0	44	0	1696595968	16	4726
2026-01-26 22:49:40.50	138.59	10.75	-28.2	-30.6	13.4	1.44e-05	0	44	0	1699741696	16	4747
2026-01-26 22:49:41.49	138.72	10.69	-28.2	-30.7	13.3	1.90e-05	0	44	0	1702887424	16	4774
2026-01-26 22:49:42.50	138.84	10.62	-28.2	-30.6	13.3	1.37e-05	0	44	0	1706033152	16	4757
2026-01-26 22:49:43.51	138.97	10.55	-28.3	-30.7	13.3	1.98e-05	0	44	0	1709178880	16	4781
2026-01-26 22:49:44.51	139.09	10.49	-28.3	-30.8	13.2	2.51e-05	0	44	0	1712324608	16	4805
2026-01-26 22:49:45.52	139.21	10.42	-28.3	-30.8	13.3	1.98e-05	0	44	0	1715470336	16	4788
2026-01-26 22:49:46.51	139.33	10.36	-28.3	-30.9	13.2	2.51e-05	0	44	0	1717567488	16	4825
2026-01-26 22:49:47.52	139.46	10.29	-28.3	-30.9	13.2	2.51e-05	0	44	0	1720713216	16	4826
2026-01-26 22:49:48.51	139.58	10.22	-28.3	-30.8	13.2	1.90e-05	0	44	0	1723858944	16	4822
2026-01-26 22:49:49.51	139.70	10.16	-28.4	-31.1	13.0	2.44e-05	0	44	0	1727004672	16	4902
2026-01-26 22:49:50.51	139.82	10.09	-28.4	-31.2	12.9	4.50e-05	0	44	0	1730150400	16	4962
2026-01-26 22:49:51.51	139.93	10.03	-28.4	-31.3	12.9	5.26e-05	0	44	0	1733296128	16	4987
2026-01-26 22:49:52.52	140.05	9.96	-28.4	-31.2	12.9	5.56e-05	0	44	0	1736441856	16	4964
2026-01-26 22:49:53.52	140.17	9.89	-28.6	-31.1	12.7	9.15e-05	0	44	0	1739587584	17	4815
2026-01-26 22:49:54.52	140.29	9.83	-28.6	-31.3	12.0	1.06e-03	0	44	0	1742733312	17	4874
2026-01-26 22:49:55.53	140.41	9.76	-28.7	-31.3	12.4	1.33e-04	0	44	0	1745879040	17	4878
2026-01-26 22:49:56.53	140.53	9.70	-28.6	-31.1	12.6	8.77e-05	0	44	0	1749024768	17	4815
2026-01-26 22:49:57.54	140.64	9.63	-28.6	-31.1	12.6	1.24e-04	0	44	0	1752170496	17	4822
2026-01-26 22:49:58.54	140.76	9.57	-28.4	-30.7	12.8	4.95e-05	0	44	0	1755316224	17	4683
2026-01-26 22:49:59.54	140.87	9.50	-28.4	-30.6	12.9	5.03e-05	0	44	0	1758461952	17	4656
2026-01-26 22:50:00.55	140.99	9.44	-28.5	-30.8	12.7	6.48e-05	0	44	0	1761607680	17	4709
2026-01-26 22:50:01.55	141.10	9.37	-28.5	-30.9	12.7	7.78e-05	0	44	0	1764753408	17	4744
2026-01-26 22:50:02.55	141.22	9.31	-28.6	-31.1	12.5	9.53e-05	0	44	0	1767899136	17	4820
2026-01-26 22:50:03.56	141.33	9.24	-28.6	-31.2	12.5	1.60e-04	0	44	0	1771044864	17	4845
2026-01-26 22:50:04.56	141.44	9.17	-28.5	-31.3	12.7	1.03e-03	0	44	0	1774190592	16	4986
2026-01-26 22:50:05.57	141.56	9.11	-28.5	-30.9	12.6	7.62e-05	0	44	0	1777336320	17	4745
2026-01-26 22:50:06.57	141.67	9.04	-28.5	-30.9	12.6	9.84e-05	0	44	0	1780482048	17	4737
2026-01-26 22:50:07.58	141.78	8.98	-28.5	-31.0	12.4	1.33e-04	0	44	0	1783627776	17	4799
2026-01-26 22:50:08.58	141.89	8.92	-28.6	-31.2	12.3	1.49e-04	0	44	0	1786773504	17	4875
2026-01-26 22:50:09.59	142.00	8.85	-28.5	-31.1	12.4	8.11e-04	0	44	0	1789919232	17	4819
2026-01-26 22:50:10.59	142.11	8.79	-28.6	-31.3	12.2	6.68e-04	0	44	0	1793064960	17	4874
2026-01-26 22:50:11.60	142.22	8.72	-28.7	-31.4	12.2	2.27e-04	0	44	0	1796210688	17	4915
2026-01-26 22:50:12.60	142.33	8.66	-28.6	-31.3	12.2	2.07e-04	0	44	0	1799356416	17	4900
2026-01-26 22:50:13.60	142.44	8.59	-28.6	-31.5	12.0	2.71e-04	0	44	0	1802502144	17	4986
2026-01-26 22:50:14.60	142.55	8.53	-28.7	-31.5	11.9	3.56e-04	0	44	0	1805647872	17	5001
2026-01-26 22:50:15.61	142.66	8.46	-28.7	-31.5	12.0	9.16e-04	0	44	0	1808793600	17	4995
2026-01-26 22:50:16.61	142.76	8.40	-28.7	-31.7	11.8	1.16e-03	0	44	0	1811939328	17	5052
2026-01-26 22:50:17.62	142.87	8.34	-28.7	-31.6	11.9	3.89e-04	0	44	0	1815085056	17	5028
2026-01-26 22:50:18.63	142.98	8.27	-28.7	-31.7	11.8	1.72e-03	0	44	0	1818230784	17	5055
2026-01-26 22:50:19.63	143.09	8.21	-28.8	-31.7	11.8	1.60e-03	0	44	0	1821376512	17	5066
2026-01-26 22:50:20.63	143.19	8.14	-28.9	-32.0	11.6	5.58e-04	0	44	0	1824522240	17	5180
2026-01-26 22:50:21.64	143.30	8.08	-28.9	-32.3	11.4	2.51e-03	0	44	0	1827667968	17	5275
2026-01-26 22:50:22.64	143.40	8.02	-29.0	-31.9	11.3	3.18e-03	0	44	0	1830813696	18	5019
2026-01-26 22:50:23.65	143.51	7.95	-29.0	-31.8	11.4	9.70e-04	0	44	0	1833959424	18	4990
2026-01-26 22:50:24.66	143.61	7.89	-29.1	-32.0	11.3	4.19e-03	0	44	0	1837105152	18	5040
2026-01-26 22:50:25.66	143.71	7.82	-29.0	-31.9	11.4	4.39e-03	0	44	0	1840250880	18	5005
2026-01-26 22:50:26.66	143.82	7.76	-29.0	-31.8	11.4	9.72e-04	0	44	0	1843396608	18	4980
2026-01-26 22:50:27.67	143.92	7.70	-29.1	-32.0	11.3	4.73e-03	0	44	0	1846542336	18	5050
2026-01-26 22:50:28.67	144.02	7.64	-28.9	-31.7	11.5	1.11e-03	0	44	0	1849688064	18	4930
2026-01-26 22:50:29.67	144.12	7.57	-28.8	-31.3	11.7	6.80e-04	0	44	0	1852833792	18	4815
2026-01-26 22:50:30.68	144.22	7.51	-28.8	-31.7	11.7	3.97e-03	0	44	0	1855979520	17	5076
2026-01-26 22:50:31.68	144.33	7.45	-28.8	-31.9	11.6	3.68e-03	0	44	0	1859125248	17	5120
2026-01-26 22:50:32.68	144.43	7.38	-28.8	-31.8	11.7	8.09e-04	0	44	0	1862270976	17	5091
2026-01-26 22:50:33.68	144.52	7.32	-28.8	-32.0	11.6	6.83e-04	0	44	0	1865416704	17	5155
2026-01-26 22:50:34.68	144.62	7.26	-28.9	-32.0	11.5	8.14e-04	0	44	0	1868562432	17	5178
2026-01-26 22:50:35.69	144.72	7.20	-28.9	-32.1	11.5	8.71e-04	0	44	0	1871708160	17	5195
2026-01-26 22:50:36.69	144.82	7.13	-29.1	-32.0	11.2	4.13e-03	0	44	0	1874853888	18	5059
2026-01-26 22:50:37.70	144.92	7.07	-32.3	-44.7	3.8	1.20e+00	0	44	104	1876951040	24	14983
2026-01-26 22:50:38.70	145.02	7.01	-33.4	-45.6	3.8	1.49e+00	0	44	104	1876951040	26	14686

#Closed at: 2026-01-26 22:50:38
#Recorded file [1876 MB]: D:/data/31010_260127_014036.dat