passes_logs/2026/01/26/R2M6_AANII_01/R2M6_AANII_01__20260126_152217_FENGYUN_3E_rec.log

#Pass ID: 20260126_152217_FENGYUN 3E
#Satellite: FENGYUN 3E
#Configuration: FENGYUN 3E
#almurnet v.1.7.20240730
#Start time: 2026-01-26 15:22:18

#Version: 2.2.20231116
#Station: R2M6_AANII_01
#Location: 30.233357 lon 59.946436 lat
#TLE: 1 49008U 21062A   26025.99868676  .00000027  00000+0  33666-4 0  9992
#TLE: 2 49008  98.7499  30.9985 0002454 117.4834 242.6592 14.19886826236404

#Time	Az	El	Level	Level2	SNR	BER	BlckErr	Temp	State	Recorded	gain1	gain2
2026-01-26 15:22:18.09	184.46	7.05	-27.2	-29.0	5.7	7.59e-01	0	42	0	0	14	4420
2026-01-26 15:22:19.09	184.51	7.13	-29.1	-31.6	5.3	7.74e-01	0	42	104	0	18	4803
2026-01-26 15:22:20.09	184.56	7.20	-28.8	-30.9	9.9	8.17e-03	0	42	0	0	18	4541
2026-01-26 15:22:21.09	184.61	7.28	-29.0	-31.3	9.6	1.07e-02	0	42	0	7340032	18	4688
2026-01-26 15:22:22.10	184.66	7.35	-28.4	-29.8	10.5	6.92e-03	0	42	0	14680064	18	4232
2026-01-26 15:22:23.10	184.71	7.43	-28.2	-29.7	10.9	3.86e-03	0	42	0	22020096	17	4301
2026-01-26 15:22:24.10	184.76	7.50	-27.6	-28.8	11.7	1.05e-03	0	42	0	28311552	16	4140
2026-01-26 15:22:25.10	184.81	7.58	-26.9	-27.8	12.5	1.93e-04	0	42	0	35651584	15	3981
2026-01-26 15:22:26.10	184.86	7.66	-26.6	-27.5	12.9	1.14e-04	0	42	0	42991616	14	4012
2026-01-26 15:22:27.11	184.91	7.73	-26.8	-27.9	12.7	6.63e-05	0	42	0	50331648	14	4114
2026-01-26 15:22:28.11	184.96	7.81	-27.0	-28.5	12.4	2.37e-04	0	42	0	57671680	14	4281
2026-01-26 15:22:29.11	185.01	7.89	-26.8	-28.0	12.7	8.35e-05	0	42	0	65011712	14	4121
2026-01-26 15:22:30.11	185.06	7.96	-26.8	-27.9	12.7	9.72e-05	0	42	0	72351744	14	4116
2026-01-26 15:22:31.12	185.11	8.04	-27.1	-28.8	12.2	1.33e-04	0	42	0	79691776	14	4373
2026-01-26 15:22:32.12	185.16	8.12	-26.5	-27.4	13.0	6.75e-05	0	42	0	85983232	14	3984
2026-01-26 15:22:33.13	185.21	8.19	-27.3	-29.1	12.1	2.06e-04	0	42	0	93323264	14	4432
2026-01-26 15:22:34.12	185.26	8.27	-27.0	-28.6	12.4	8.92e-05	0	42	0	100663296	14	4290
2026-01-26 15:22:35.12	185.32	8.35	-27.0	-28.5	12.4	1.81e-04	0	42	0	108003328	14	4282
2026-01-26 15:22:36.13	185.37	8.43	-27.0	-28.5	12.4	1.77e-04	0	42	0	115343360	14	4268
2026-01-26 15:22:37.14	185.42	8.51	-27.2	-28.9	12.2	1.28e-04	0	42	0	122683392	14	4385
2026-01-26 15:22:38.14	185.48	8.59	-27.7	-29.6	11.5	8.66e-04	0	42	0	130023424	15	4483
2026-01-26 15:22:39.15	185.53	8.66	-27.3	-28.7	12.0	3.70e-04	0	42	0	137363456	15	4223
2026-01-26 15:22:40.15	185.58	8.74	-26.8	-28.1	12.7	7.32e-05	0	43	0	144703488	14	4151
2026-01-26 15:22:41.16	185.64	8.82	-26.5	-27.4	13.1	4.23e-05	0	42	0	152043520	14	3976
2026-01-26 15:22:42.16	185.69	8.90	-26.0	-27.2	13.7	1.83e-05	0	43	0	159383552	12	4149
2026-01-26 15:22:43.17	185.74	8.98	-26.3	-27.9	13.3	1.25e-05	0	43	0	166723584	12	4325
2026-01-26 15:22:44.17	185.80	9.06	-26.3	-27.9	13.4	1.94e-05	0	42	0	173015040	12	4323
2026-01-26 15:22:45.17	185.85	9.14	-26.0	-27.2	13.7	4.50e-06	0	42	0	180355072	12	4148
2026-01-26 15:22:46.18	185.91	9.22	-26.0	-27.3	13.7	1.60e-05	0	43	0	187695104	12	4181
2026-01-26 15:22:47.18	185.97	9.31	-26.1	-27.5	13.6	2.28e-05	0	43	0	195035136	12	4237
2026-01-26 15:22:48.17	186.02	9.39	-26.0	-27.3	13.7	1.02e-05	0	43	0	202375168	12	4157
2026-01-26 15:22:49.17	186.08	9.47	-26.0	-27.3	13.7	1.48e-05	0	43	0	209715200	12	4168
2026-01-26 15:22:50.17	186.13	9.55	-26.0	-27.2	13.8	6.80e-06	0	43	0	217055232	12	4148
2026-01-26 15:22:51.17	186.19	9.63	-26.3	-28.0	13.3	1.14e-05	0	43	0	224395264	12	4352
2026-01-26 15:22:52.17	186.25	9.71	-26.2	-27.7	13.5	2.20e-06	0	43	0	230686720	12	4292
2026-01-26 15:22:53.17	186.30	9.79	-25.6	-26.3	14.2	2.20e-06	0	43	0	238026752	12	3927
2026-01-26 15:22:54.17	186.36	9.87	-25.6	-26.5	14.2	1.10e-06	0	43	0	245366784	12	3952
2026-01-26 15:22:55.18	186.42	9.96	-25.8	-26.7	14.1	1.10e-06	0	43	0	252706816	12	4016
2026-01-26 15:22:56.19	186.48	10.04	-25.7	-26.5	14.2	3.40e-06	0	43	0	260046848	12	3971
2026-01-26 15:22:57.20	186.54	10.13	-25.9	-26.9	13.9	5.70e-06	0	43	0	267386880	12	4083
2026-01-26 15:22:58.21	186.59	10.21	-25.7	-26.5	14.2	2.20e-06	0	43	0	274726912	12	3951
2026-01-26 15:22:59.21	186.65	10.29	-25.4	-25.9	14.5	0.00e+00	0	43	0	282066944	12	3819
2026-01-26 15:23:00.22	186.71	10.38	-25.5	-26.6	14.5	0.00e+00	0	43	0	289406976	11	4085
2026-01-26 15:23:01.22	186.77	10.46	-25.5	-26.7	14.4	0.00e+00	0	43	0	296747008	11	4125
2026-01-26 15:23:02.22	186.83	10.55	-25.7	-27.2	14.1	3.40e-06	0	43	0	304087040	11	4249
2026-01-26 15:23:03.23	186.89	10.63	-25.6	-26.8	14.4	0.00e+00	0	43	0	311427072	11	4146
2026-01-26 15:23:04.23	186.95	10.72	-25.2	-26.0	14.8	0.00e+00	0	43	0	317718528	11	3945
2026-01-26 15:23:05.23	187.02	10.80	-25.1	-25.7	14.9	0.00e+00	0	43	0	325058560	11	3873
2026-01-26 15:23:06.23	187.08	10.89	-25.3	-26.2	14.7	0.00e+00	0	43	0	332398592	11	3985
2026-01-26 15:23:07.23	187.14	10.97	-25.4	-26.4	14.6	0.00e+00	0	43	0	339738624	11	4037
2026-01-26 15:23:08.23	187.20	11.06	-25.0	-26.1	15.0	0.00e+00	0	43	0	347078656	10	4082
2026-01-26 15:23:09.24	187.26	11.15	-25.3	-26.6	14.8	0.00e+00	0	43	0	354418688	10	4195
2026-01-26 15:23:10.23	187.32	11.23	-25.1	-26.3	14.9	0.00e+00	0	43	0	361758720	10	4123
2026-01-26 15:23:11.24	187.39	11.32	-25.2	-26.6	14.8	0.00e+00	0	43	0	369098752	10	4194
2026-01-26 15:23:12.25	187.45	11.41	-25.1	-26.3	15.0	0.00e+00	0	43	0	376438784	10	4123
2026-01-26 15:23:13.25	187.52	11.49	-25.1	-26.4	14.9	0.00e+00	0	43	0	383778816	10	4156
2026-01-26 15:23:14.25	187.58	11.58	-25.0	-26.2	15.0	0.00e+00	0	43	0	391118848	10	4099
2026-01-26 15:23:15.25	187.64	11.67	-25.0	-26.0	15.1	0.00e+00	0	43	0	398458880	10	4041
2026-01-26 15:23:16.25	187.71	11.76	-24.9	-26.0	15.1	0.00e+00	0	43	0	404750336	10	4041
2026-01-26 15:23:17.26	187.78	11.85	-24.9	-25.8	15.2	0.00e+00	0	43	0	412090368	10	4005
2026-01-26 15:23:18.26	187.84	11.94	-25.2	-26.6	14.8	0.00e+00	0	43	0	419430400	10	4215
2026-01-26 15:23:19.25	187.91	12.02	-25.0	-26.1	15.1	0.00e+00	0	43	0	426770432	10	4082
2026-01-26 15:23:20.26	187.97	12.11	-24.9	-25.8	15.2	0.00e+00	0	43	0	434110464	10	4006
2026-01-26 15:23:21.26	188.04	12.20	-25.0	-26.0	15.1	0.00e+00	0	43	0	441450496	10	4065
2026-01-26 15:23:22.26	188.11	12.29	-24.9	-26.0	15.1	0.00e+00	0	43	0	448790528	10	4049
2026-01-26 15:23:23.27	188.17	12.39	-24.8	-25.6	15.4	0.00e+00	0	43	0	456130560	10	3966
2026-01-26 15:23:24.27	188.24	12.48	-24.7	-25.9	15.4	0.00e+00	0	43	0	462422016	9	4159
2026-01-26 15:23:25.27	188.31	12.57	-24.9	-26.3	15.2	0.00e+00	0	43	0	469762048	9	4243
2026-01-26 15:23:26.28	188.38	12.66	-24.8	-26.3	15.2	0.00e+00	0	43	0	477102080	9	4244
2026-01-26 15:23:27.28	188.45	12.75	-24.8	-26.2	15.2	0.00e+00	0	43	0	484442112	9	4238
2026-01-26 15:23:28.28	188.52	12.84	-24.7	-26.0	15.4	0.00e+00	0	43	0	491782144	9	4170
2026-01-26 15:23:29.28	188.59	12.93	-24.8	-25.7	15.3	0.00e+00	0	43	0	499122176	10	3992
2026-01-26 15:23:30.28	188.66	13.03	-25.1	-26.3	15.0	0.00e+00	0	43	0	506462208	10	4146
2026-01-26 15:23:31.29	188.73	13.12	-25.0	-26.1	15.1	0.00e+00	0	43	0	513802240	10	4096
2026-01-26 15:23:32.30	188.80	13.21	-25.0	-26.1	15.1	0.00e+00	0	43	0	521142272	10	4095
2026-01-26 15:23:33.31	188.87	13.31	-25.1	-26.5	14.9	1.10e-06	0	43	0	528482304	10	4187
2026-01-26 15:23:34.31	188.95	13.40	-25.0	-26.2	15.0	1.10e-06	0	43	0	535822336	10	4119
2026-01-26 15:23:35.32	189.02	13.50	-24.8	-25.8	15.3	1.10e-06	0	43	0	543162368	10	4015
2026-01-26 15:23:36.32	189.09	13.59	-24.8	-25.7	15.3	0.00e+00	0	43	0	549453824	10	3990
2026-01-26 15:23:37.32	189.17	13.69	-24.8	-25.8	15.3	0.00e+00	0	43	0	556793856	10	4015
2026-01-26 15:23:38.33	189.24	13.78	-25.1	-26.4	15.0	0.00e+00	0	43	0	564133888	10	4160
2026-01-26 15:23:39.32	189.31	13.88	-24.8	-25.6	15.4	1.10e-06	0	43	0	571473920	10	3962
2026-01-26 15:23:40.33	189.39	13.97	-24.9	-25.9	15.2	0.00e+00	0	43	0	578813952	10	4050
2026-01-26 15:23:41.33	189.46	14.07	-24.6	-25.4	15.5	0.00e+00	0	43	0	586153984	10	3914
2026-01-26 15:23:42.34	189.54	14.17	-24.4	-24.9	15.8	0.00e+00	0	43	0	593494016	10	3811
2026-01-26 15:23:43.35	189.62	14.26	-24.6	-25.2	15.6	0.00e+00	0	44	0	600834048	10	3881
2026-01-26 15:23:44.35	189.69	14.36	-24.5	-25.0	15.7	2.20e-06	0	43	0	608174080	10	3839
2026-01-26 15:23:45.35	189.77	14.46	-24.7	-26.1	15.4	0.00e+00	0	44	0	615514112	9	4200
2026-01-26 15:23:46.36	189.85	14.56	-24.6	-25.7	15.6	0.00e+00	0	43	0	622854144	9	4115
2026-01-26 15:23:47.37	189.93	14.66	-24.4	-25.4	15.8	1.10e-06	0	43	0	630194176	9	4020
2026-01-26 15:23:48.38	190.01	14.76	-24.3	-25.1	15.9	0.00e+00	0	44	0	636485632	9	3961
2026-01-26 15:23:49.37	190.09	14.85	-24.3	-25.2	15.9	0.00e+00	0	44	0	643825664	9	3983
2026-01-26 15:23:50.38	190.17	14.95	-24.2	-24.9	16.1	4.50e-06	0	43	0	651165696	9	3914
2026-01-26 15:23:51.38	190.25	15.05	-24.3	-25.1	16.0	0.00e+00	0	44	0	658505728	9	3962
2026-01-26 15:23:52.39	190.33	15.15	-24.1	-24.7	16.2	0.00e+00	0	44	0	665845760	9	3846
2026-01-26 15:23:53.39	190.41	15.25	-24.1	-24.8	16.2	0.00e+00	0	43	0	673185792	9	3870
2026-01-26 15:23:54.40	190.49	15.36	-24.1	-24.6	16.2	0.00e+00	0	44	0	680525824	9	3840
2026-01-26 15:23:55.40	190.57	15.46	-24.1	-25.2	16.2	0.00e+00	0	44	0	687865856	8	4079
2026-01-26 15:23:56.40	190.66	15.56	-24.1	-25.3	16.2	0.00e+00	0	43	0	695205888	8	4099
2026-01-26 15:23:57.40	190.74	15.66	-24.0	-24.9	16.3	0.00e+00	0	44	0	702545920	8	4015
2026-01-26 15:23:58.40	190.82	15.76	-24.0	-25.0	16.3	0.00e+00	0	44	0	709885952	8	4029
2026-01-26 15:23:59.41	190.91	15.87	-23.9	-24.8	16.4	0.00e+00	0	44	0	716177408	8	3983
2026-01-26 15:24:00.41	190.99	15.97	-24.4	-25.8	15.9	0.00e+00	0	44	0	723517440	8	4246
2026-01-26 15:24:01.41	191.08	16.07	-23.9	-24.8	16.4	0.00e+00	0	44	0	730857472	8	3979
2026-01-26 15:24:02.40	191.16	16.17	-24.1	-25.2	16.3	0.00e+00	0	44	0	738197504	8	4066
2026-01-26 15:24:03.41	191.25	16.28	-23.8	-24.6	16.6	0.00e+00	0	44	0	745537536	8	3920
2026-01-26 15:24:04.41	191.34	16.38	-23.9	-24.7	16.5	0.00e+00	0	44	0	752877568	8	3964
2026-01-26 15:24:05.42	191.43	16.49	-23.9	-24.8	16.5	0.00e+00	0	44	0	760217600	8	3979
2026-01-26 15:24:06.42	191.51	16.59	-24.1	-25.1	16.4	0.00e+00	0	44	0	767557632	8	4040
2026-01-26 15:24:07.43	191.60	16.70	-23.9	-24.7	16.5	0.00e+00	0	44	0	774897664	8	3945
2026-01-26 15:24:08.43	191.69	16.81	-23.8	-24.6	16.6	0.00e+00	0	44	0	781189120	8	3926
2026-01-26 15:24:09.43	191.78	16.91	-23.9	-24.7	16.5	0.00e+00	0	44	0	788529152	8	3950
2026-01-26 15:24:10.44	191.87	17.02	-23.7	-24.3	16.7	0.00e+00	0	44	0	796917760	8	3855
2026-01-26 15:24:11.44	191.97	17.13	-23.8	-24.5	16.6	0.00e+00	0	44	0	803209216	8	3889
2026-01-26 15:24:12.44	192.06	17.24	-23.7	-24.3	16.8	0.00e+00	0	44	0	810549248	8	3849
2026-01-26 15:24:13.43	192.15	17.34	-23.7	-24.3	16.8	0.00e+00	0	44	0	817889280	8	3848
2026-01-26 15:24:14.43	192.24	17.45	-23.6	-24.2	16.8	0.00e+00	0	44	0	825229312	8	3822
2026-01-26 15:24:15.43	192.34	17.56	-23.7	-24.3	16.8	0.00e+00	0	44	0	832569344	8	3845
2026-01-26 15:24:16.44	192.43	17.67	-23.8	-24.4	16.7	0.00e+00	0	44	0	839909376	8	3875
2026-01-26 15:24:17.44	192.53	17.78	-23.8	-24.4	16.7	0.00e+00	0	44	0	847249408	8	3879
2026-01-26 15:24:18.44	192.62	17.89	-23.7	-24.2	16.8	0.00e+00	0	44	0	854589440	8	3832
2026-01-26 15:24:19.45	192.72	18.00	-23.7	-24.2	16.8	0.00e+00	0	44	0	861929472	8	3827
2026-01-26 15:24:20.46	192.82	18.11	-23.7	-24.2	16.9	0.00e+00	0	44	0	868220928	8	3818
2026-01-26 15:24:21.46	192.92	18.22	-23.3	-24.0	17.2	0.00e+00	0	44	0	875560960	7	3863
2026-01-26 15:24:22.46	193.02	18.34	-23.5	-24.4	17.0	0.00e+00	0	44	0	882900992	7	3975
2026-01-26 15:24:23.46	193.11	18.45	-23.5	-24.4	17.0	0.00e+00	0	44	0	890241024	7	3974
2026-01-26 15:24:24.47	193.22	18.56	-23.6	-24.5	16.9	0.00e+00	0	44	0	897581056	7	3997
2026-01-26 15:24:25.47	193.32	18.67	-23.3	-23.9	17.3	0.00e+00	0	44	0	904921088	7	3842
2026-01-26 15:24:26.47	193.42	18.79	-23.3	-23.8	17.3	0.00e+00	0	44	0	912261120	7	3831
2026-01-26 15:24:27.48	193.52	18.90	-23.2	-23.7	17.3	0.00e+00	0	44	0	919601152	7	3817
2026-01-26 15:24:28.48	193.62	19.02	-23.3	-23.8	17.3	0.00e+00	0	44	0	925892608	7	3833
2026-01-26 15:24:29.47	193.73	19.13	-23.2	-23.7	17.3	0.00e+00	0	44	0	933232640	7	3805
2026-01-26 15:24:30.48	193.83	19.25	-23.2	-23.8	17.3	0.00e+00	0	44	0	940572672	7	3823
2026-01-26 15:24:31.48	193.94	19.36	-23.2	-23.8	17.3	0.00e+00	0	44	0	947912704	7	3826
2026-01-26 15:24:32.48	194.04	19.48	-23.1	-23.5	17.4	0.00e+00	0	44	0	955252736	7	3769
2026-01-26 15:24:33.48	194.15	19.60	-23.2	-23.7	17.3	0.00e+00	0	44	0	962592768	7	3811
2026-01-26 15:24:34.48	194.26	19.71	-23.2	-23.6	17.3	0.00e+00	0	44	0	969932800	7	3803
2026-01-26 15:24:35.47	194.36	19.83	-23.1	-23.5	17.4	0.00e+00	0	44	0	977272832	7	3780
2026-01-26 15:24:36.48	194.48	19.95	-23.2	-23.7	17.3	0.00e+00	0	44	0	984612864	7	3809
2026-01-26 15:24:37.48	194.59	20.07	-23.2	-23.7	17.3	0.00e+00	0	44	0	990904320	7	3819
2026-01-26 15:24:38.48	194.70	20.19	-23.3	-23.9	17.1	0.00e+00	0	44	0	998244352	7	3884
2026-01-26 15:24:39.49	194.81	20.31	-23.2	-23.8	17.2	0.00e+00	0	44	0	1006632960	7	3861
2026-01-26 15:24:40.49	194.92	20.43	-23.2	-23.8	17.2	0.00e+00	0	44	0	1012924416	7	3853
2026-01-26 15:24:41.49	195.03	20.55	-23.2	-23.8	17.2	0.00e+00	0	44	0	1020264448	7	3861
2026-01-26 15:24:42.49	195.15	20.67	-23.1	-23.7	17.3	0.00e+00	0	44	0	1027604480	7	3818
2026-01-26 15:24:43.50	195.26	20.79	-23.4	-24.3	16.9	0.00e+00	0	44	0	1034944512	7	3977
2026-01-26 15:24:44.50	195.38	20.91	-23.4	-24.2	17.0	0.00e+00	0	44	0	1042284544	7	3954
2026-01-26 15:24:45.50	195.50	21.03	-23.4	-24.2	17.0	0.00e+00	0	44	0	1049624576	7	3971
2026-01-26 15:24:46.49	195.61	21.16	-23.4	-24.2	17.0	0.00e+00	0	44	0	1056964608	7	3950
2026-01-26 15:24:47.49	195.73	21.28	-23.6	-24.7	16.7	0.00e+00	0	44	0	1064304640	7	4096
2026-01-26 15:24:48.49	195.85	21.40	-23.4	-24.3	16.9	0.00e+00	0	44	0	1070596096	7	3989
2026-01-26 15:24:49.50	195.97	21.53	-23.2	-23.8	17.2	0.00e+00	0	44	0	1077936128	7	3858
2026-01-26 15:24:50.50	196.10	21.65	-23.2	-23.8	17.2	0.00e+00	0	44	0	1085276160	7	3857
2026-01-26 15:24:51.50	196.22	21.78	-23.3	-23.9	17.2	0.00e+00	0	44	0	1092616192	7	3891
2026-01-26 15:24:52.50	196.34	21.90	-23.3	-23.9	17.2	0.00e+00	0	44	0	1099956224	7	3893
2026-01-26 15:24:53.51	196.47	22.03	-23.1	-24.0	17.4	0.00e+00	0	44	0	1107296256	6	4015
2026-01-26 15:24:54.51	196.59	22.16	-23.0	-23.9	17.4	0.00e+00	0	44	0	1114636288	6	3994
2026-01-26 15:24:55.51	196.72	22.28	-23.0	-23.9	17.4	0.00e+00	0	44	0	1121976320	6	3992
2026-01-26 15:24:56.52	196.85	22.41	-23.0	-23.9	17.4	0.00e+00	0	44	0	1129316352	6	4005
2026-01-26 15:24:57.51	196.97	22.54	-23.1	-24.1	17.3	0.00e+00	0	44	0	1135607808	6	4041
2026-01-26 15:24:58.51	197.10	22.67	-22.9	-23.8	17.5	0.00e+00	0	44	0	1142947840	6	3969
2026-01-26 15:24:59.51	197.23	22.80	-22.8	-23.6	17.6	0.00e+00	0	44	0	1150287872	6	3921
2026-01-26 15:25:00.51	197.36	22.93	-22.9	-23.6	17.6	0.00e+00	0	44	0	1157627904	6	3927
2026-01-26 15:25:01.51	197.50	23.06	-22.9	-23.7	17.6	0.00e+00	0	44	0	1164967936	6	3939
2026-01-26 15:25:02.52	197.63	23.19	-22.9	-23.6	17.6	0.00e+00	0	44	0	1172307968	6	3916
2026-01-26 15:25:03.52	197.77	23.32	-22.8	-24.0	17.6	0.00e+00	0	44	0	1179648000	5	4130
2026-01-26 15:25:04.52	197.90	23.45	-22.8	-23.5	17.7	0.00e+00	0	44	0	1186988032	6	3897
2026-01-26 15:25:05.53	198.04	23.58	-22.8	-23.4	17.7	0.00e+00	0	44	0	1194328064	6	3883
2026-01-26 15:25:06.52	198.18	23.72	-22.7	-23.3	17.7	0.00e+00	0	44	0	1200619520	6	3844
2026-01-26 15:25:07.53	198.32	23.85	-22.8	-23.5	17.6	0.00e+00	0	44	0	1207959552	6	3904
2026-01-26 15:25:08.53	198.46	23.98	-23.1	-24.1	17.4	0.00e+00	0	44	0	1215299584	6	4038
2026-01-26 15:25:09.54	198.60	24.12	-23.0	-23.8	17.5	0.00e+00	0	44	0	1222639616	6	3957
2026-01-26 15:25:10.55	198.74	24.26	-22.8	-23.5	17.7	0.00e+00	0	44	0	1229979648	6	3898
2026-01-26 15:25:11.55	198.89	24.39	-22.8	-23.5	17.7	0.00e+00	0	44	0	1237319680	6	3894
2026-01-26 15:25:12.56	199.04	24.53	-22.8	-23.4	17.7	0.00e+00	0	44	0	1244659712	6	3881
2026-01-26 15:25:13.56	199.18	24.66	-22.8	-23.5	17.7	0.00e+00	0	44	0	1251999744	6	3877
2026-01-26 15:25:14.57	199.33	24.80	-22.9	-23.6	17.6	0.00e+00	0	44	0	1259339776	6	3907
2026-01-26 15:25:15.57	199.48	24.94	-22.8	-23.4	17.8	0.00e+00	0	44	0	1266679808	6	3860
2026-01-26 15:25:16.57	199.63	25.08	-22.9	-23.7	17.6	0.00e+00	0	44	0	1274019840	6	3939
2026-01-26 15:25:17.57	199.78	25.22	-22.8	-23.4	17.7	0.00e+00	0	44	0	1280311296	6	3870
2026-01-26 15:25:18.58	199.93	25.36	-22.6	-23.0	17.9	0.00e+00	0	44	0	1287651328	6	3774
2026-01-26 15:25:19.58	200.09	25.49	-22.6	-23.5	18.0	0.00e+00	0	44	0	1294991360	5	3983
2026-01-26 15:25:20.58	200.24	25.63	-22.4	-23.0	18.2	0.00e+00	0	44	0	1302331392	5	3882
2026-01-26 15:25:21.59	200.40	25.78	-22.4	-23.1	18.1	0.00e+00	0	44	0	1309671424	5	3903
2026-01-26 15:25:22.60	200.56	25.92	-22.7	-23.6	17.9	0.00e+00	0	44	0	1317011456	5	4024
2026-01-26 15:25:23.59	200.72	26.06	-22.6	-23.4	18.0	0.00e+00	0	44	0	1324351488	5	3961
2026-01-26 15:25:24.60	200.88	26.20	-22.5	-23.4	18.0	0.00e+00	0	44	0	1331691520	5	3980
2026-01-26 15:25:25.61	201.05	26.35	-22.3	-22.9	18.2	0.00e+00	0	44	0	1339031552	5	3853
2026-01-26 15:25:26.62	201.21	26.49	-22.4	-23.1	18.1	0.00e+00	0	44	0	1346371584	5	3904
2026-01-26 15:25:27.62	201.38	26.63	-22.4	-23.1	18.1	0.00e+00	0	44	0	1353711616	5	3904
2026-01-26 15:25:28.62	201.54	26.78	-22.5	-23.2	18.0	0.00e+00	0	44	0	1361051648	5	3925
2026-01-26 15:25:29.62	201.71	26.92	-22.5	-23.3	18.0	0.00e+00	0	44	0	1367343104	5	3955
2026-01-26 15:25:30.63	201.88	27.07	-22.4	-23.0	18.2	0.00e+00	0	44	0	1374683136	5	3860
2026-01-26 15:25:31.62	202.05	27.21	-22.6	-23.4	18.1	0.00e+00	0	44	0	1382023168	5	3964
2026-01-26 15:25:32.62	202.22	27.36	-22.4	-23.0	18.2	0.00e+00	0	44	0	1389363200	5	3872
2026-01-26 15:25:33.63	202.40	27.51	-22.4	-23.0	18.3	0.00e+00	0	44	0	1396703232	5	3858
2026-01-26 15:25:34.63	202.58	27.66	-22.1	-22.4	18.5	0.00e+00	0	44	0	1404043264	5	3726
2026-01-26 15:25:35.63	202.75	27.80	-22.1	-22.8	18.6	0.00e+00	0	44	0	1411383296	4	3935
2026-01-26 15:25:36.63	202.93	27.95	-22.2	-23.2	18.4	0.00e+00	0	44	0	1418723328	4	4013
2026-01-26 15:25:37.63	203.11	28.10	-22.2	-23.1	18.5	0.00e+00	0	44	0	1426063360	4	3985
2026-01-26 15:25:38.63	203.29	28.25	-22.4	-23.5	18.2	0.00e+00	0	44	0	1432354816	4	4105
2026-01-26 15:25:39.63	203.48	28.40	-22.3	-23.2	18.4	0.00e+00	0	44	0	1439694848	4	4026
2026-01-26 15:25:40.63	203.66	28.55	-22.1	-22.9	18.6	0.00e+00	0	44	0	1447034880	4	3948
2026-01-26 15:25:41.63	203.85	28.70	-22.5	-23.8	18.2	0.00e+00	0	44	0	1454374912	4	4158
2026-01-26 15:25:42.64	204.04	28.85	-22.5	-23.8	18.2	0.00e+00	0	44	0	1461714944	4	4149
2026-01-26 15:25:43.64	204.23	29.00	-22.5	-23.8	18.2	0.00e+00	0	44	0	1469054976	4	4164
2026-01-26 15:25:44.64	204.42	29.16	-22.6	-23.4	18.1	0.00e+00	0	44	0	1476395008	5	3958
2026-01-26 15:25:45.65	204.62	29.31	-22.9	-24.2	17.7	0.00e+00	0	44	0	1483735040	5	4147
2026-01-26 15:25:46.65	204.82	29.46	-22.9	-24.1	17.9	0.00e+00	0	44	0	1491075072	5	4118
2026-01-26 15:25:47.66	205.02	29.62	-23.0	-24.3	17.7	0.00e+00	0	44	0	1498415104	5	4181
2026-01-26 15:25:48.66	205.22	29.77	-22.9	-23.7	17.7	0.00e+00	0	44	0	1505755136	6	3927
2026-01-26 15:25:49.67	205.42	29.93	-22.7	-23.3	18.0	0.00e+00	0	44	0	1512046592	6	3833
2026-01-26 15:25:50.66	205.62	30.08	-22.6	-22.9	18.1	0.00e+00	0	44	0	1519386624	6	3748
2026-01-26 15:25:51.66	205.83	30.24	-22.6	-23.0	18.1	0.00e+00	0	44	0	1526726656	6	3760
2026-01-26 15:25:52.67	206.04	30.39	-22.7	-23.3	17.9	0.00e+00	0	44	0	1534066688	6	3835
2026-01-26 15:25:53.67	206.25	30.55	-22.6	-23.1	18.0	0.00e+00	0	44	0	1541406720	6	3801
2026-01-26 15:25:54.68	206.46	30.71	-22.7	-23.3	17.9	0.00e+00	0	44	0	1548746752	6	3851
2026-01-26 15:25:55.68	206.67	30.87	-22.5	-22.9	18.1	0.00e+00	0	44	0	1556086784	6	3742
2026-01-26 15:25:56.67	206.89	31.02	-22.3	-23.0	18.3	0.00e+00	0	44	0	1563426816	5	3889
2026-01-26 15:25:57.68	207.11	31.18	-22.2	-22.7	18.4	0.00e+00	0	44	0	1570766848	5	3816
2026-01-26 15:25:58.68	207.33	31.34	-22.2	-22.7	18.4	0.00e+00	0	44	0	1577058304	5	3816
2026-01-26 15:25:59.69	207.55	31.50	-22.2	-22.8	18.3	0.00e+00	0	44	0	1585446912	5	3848
2026-01-26 15:26:00.70	207.78	31.66	-22.2	-22.8	18.3	0.00e+00	0	44	0	1592786944	5	3849
2026-01-26 15:26:01.70	208.00	31.82	-22.1	-22.5	18.4	0.00e+00	0	44	0	1599078400	5	3775
2026-01-26 15:26:02.71	208.23	31.98	-22.0	-22.3	18.6	0.00e+00	0	44	0	1606418432	5	3717
2026-01-26 15:26:03.71	208.46	32.14	-22.3	-23.0	18.3	0.00e+00	0	44	0	1613758464	5	3870
2026-01-26 15:26:04.72	208.70	32.31	-22.2	-22.6	18.4	0.00e+00	0	44	0	1621098496	5	3791
2026-01-26 15:26:05.72	208.93	32.47	-21.9	-22.1	18.7	0.00e+00	0	44	0	1628438528	5	3668
2026-01-26 15:26:06.72	209.17	32.63	-22.0	-22.7	18.7	0.00e+00	0	44	0	1635778560	4	3904
2026-01-26 15:26:07.72	209.41	32.79	-22.0	-22.8	18.6	0.00e+00	0	44	0	1643118592	4	3935
2026-01-26 15:26:08.73	209.65	32.95	-22.2	-23.1	18.5	0.00e+00	0	44	0	1650458624	4	3996
2026-01-26 15:26:09.72	209.90	33.11	-22.1	-22.9	18.6	0.00e+00	0	44	0	1656750080	4	3959
2026-01-26 15:26:10.73	210.15	33.28	-22.0	-22.7	18.7	0.00e+00	0	44	0	1664090112	4	3902
2026-01-26 15:26:11.73	210.40	33.44	-22.1	-22.8	18.6	0.00e+00	0	44	0	1671430144	4	3928
2026-01-26 15:26:12.73	210.65	33.61	-21.9	-22.6	18.7	0.00e+00	0	44	0	1678770176	4	3864
2026-01-26 15:26:13.73	210.90	33.77	-21.9	-22.5	18.8	0.00e+00	0	44	0	1686110208	4	3842
2026-01-26 15:26:14.74	211.16	33.93	-22.0	-22.7	18.7	0.00e+00	0	44	0	1693450240	4	3890
2026-01-26 15:26:15.75	211.42	34.10	-22.4	-23.0	19.3	0.00e+00	0	44	0	1700790272	4	3844
2026-01-26 15:26:16.76	211.69	34.27	-22.4	-22.9	19.3	0.00e+00	0	44	0	1708130304	4	3832
2026-01-26 15:26:17.76	211.95	34.43	-22.6	-23.0	19.1	0.00e+00	0	44	0	1715470336	5	3733
2026-01-26 15:26:18.77	212.22	34.60	-22.7	-23.0	19.0	0.00e+00	0	44	0	1722810368	5	3754
2026-01-26 15:26:19.77	212.49	34.76	-22.8	-23.2	19.0	0.00e+00	0	44	0	1730150400	5	3795
2026-01-26 15:26:20.78	212.77	34.93	-22.8	-23.3	18.9	0.00e+00	0	44	0	1737490432	5	3813
2026-01-26 15:26:21.78	213.04	35.09	-22.7	-23.1	19.0	0.00e+00	0	44	0	1743781888	5	3769
2026-01-26 15:26:22.78	213.32	35.26	-22.8	-23.4	18.9	0.00e+00	0	44	0	1751121920	5	3831
2026-01-26 15:26:23.78	213.60	35.42	-22.9	-23.5	18.8	0.00e+00	0	44	0	1758461952	5	3860
2026-01-26 15:26:24.79	213.89	35.59	-23.1	-23.5	18.6	0.00e+00	0	44	0	1765801984	6	3753
2026-01-26 15:26:25.78	214.17	35.76	-23.2	-23.7	18.5	0.00e+00	0	44	0	1773142016	6	3796
2026-01-26 15:26:26.79	214.46	35.92	-23.1	-23.4	18.6	0.00e+00	0	44	0	1780482048	6	3725
2026-01-26 15:26:27.79	214.76	36.09	-22.9	-23.0	18.8	0.00e+00	0	44	0	1787822080	6	3645
2026-01-26 15:26:28.79	215.05	36.25	-23.0	-23.2	18.7	0.00e+00	0	44	0	1795162112	6	3684
2026-01-26 15:26:29.79	215.35	36.42	-22.9	-22.9	18.9	0.00e+00	0	44	0	1802502144	6	3615
2026-01-26 15:26:30.80	215.65	36.59	-22.9	-23.0	18.9	0.00e+00	0	44	0	1809842176	6	3638
2026-01-26 15:26:31.79	215.96	36.75	-23.0	-23.1	18.8	0.00e+00	0	44	0	1817182208	6	3660
2026-01-26 15:26:32.80	216.27	36.92	-22.8	-22.7	19.0	0.00e+00	0	44	0	1824522240	6	3569
2026-01-26 15:26:33.80	216.58	37.08	-22.7	-22.6	19.1	0.00e+00	0	44	0	1830813696	6	3559
2026-01-26 15:26:34.81	216.89	37.25	-22.7	-22.6	19.1	0.00e+00	0	44	0	1838153728	6	3555
2026-01-26 15:26:35.81	217.21	37.42	-22.8	-22.9	18.9	0.00e+00	0	44	0	1845493760	6	3611
2026-01-26 15:26:36.81	217.53	37.58	-22.9	-23.1	18.9	0.00e+00	0	44	0	1852833792	6	3649
2026-01-26 15:26:37.81	217.85	37.75	-23.0	-23.2	18.8	0.00e+00	0	44	0	1860173824	6	3691
2026-01-26 15:26:38.81	218.18	37.91	-23.2	-23.6	18.6	0.00e+00	0	44	0	1867513856	6	3769
2026-01-26 15:26:39.82	218.51	38.08	-23.2	-23.7	18.6	0.00e+00	0	44	0	1874853888	6	3800
2026-01-26 15:26:40.82	218.84	38.24	-23.3	-23.8	18.5	0.00e+00	0	44	0	1882193920	6	3827
2026-01-26 15:26:41.82	219.18	38.41	-23.1	-23.3	18.7	0.00e+00	0	44	0	1888485376	6	3716
2026-01-26 15:26:42.82	219.52	38.57	-23.2	-23.7	18.5	0.00e+00	0	44	0	1895825408	6	3800
2026-01-26 15:26:43.81	219.86	38.73	-23.1	-23.3	18.7	0.00e+00	0	44	0	1903165440	6	3713
2026-01-26 15:26:44.82	220.21	38.90	-23.0	-23.3	18.7	0.00e+00	0	44	0	1910505472	6	3696
2026-01-26 15:26:45.81	220.56	39.06	-23.1	-23.3	18.7	0.00e+00	0	44	0	1917845504	6	3711
2026-01-26 15:26:46.81	220.91	39.22	-23.2	-23.6	18.6	0.00e+00	0	44	0	1925185536	6	3775
2026-01-26 15:26:47.82	221.27	39.38	-23.2	-23.6	18.6	0.00e+00	0	44	0	1932525568	6	3760
2026-01-26 15:26:48.82	221.63	39.55	-23.1	-23.3	18.7	0.00e+00	0	44	0	1939865600	6	3700
2026-01-26 15:26:49.82	221.99	39.71	-23.2	-23.7	18.6	0.00e+00	0	44	0	1947205632	6	3784
2026-01-26 15:26:50.83	222.37	39.87	-23.1	-23.5	18.7	0.00e+00	0	44	0	1953497088	6	3743
2026-01-26 15:26:51.83	222.74	40.03	-23.1	-23.3	18.7	0.00e+00	0	44	0	1960837120	6	3710
2026-01-26 15:26:52.84	223.11	40.19	-23.1	-23.5	18.7	0.00e+00	0	44	0	1968177152	6	3750
2026-01-26 15:26:53.84	223.49	40.35	-23.2	-23.6	18.6	0.00e+00	0	44	0	1975517184	6	3779
2026-01-26 15:26:54.83	223.87	40.50	-23.2	-23.7	18.6	0.00e+00	0	44	0	1982857216	6	3801
2026-01-26 15:26:55.83	224.26	40.66	-23.5	-24.3	18.3	0.00e+00	0	44	0	1990197248	6	3926
2026-01-26 15:26:56.84	224.65	40.82	-23.4	-24.0	18.4	0.00e+00	0	44	0	1997537280	6	3869
2026-01-26 15:26:57.84	225.04	40.97	-23.2	-23.7	18.6	0.00e+00	0	44	0	2004877312	6	3792
2026-01-26 15:26:58.85	225.44	41.13	-23.2	-23.5	18.7	0.00e+00	0	44	0	2012217344	6	3754
2026-01-26 15:26:59.85	225.84	41.28	-23.2	-23.7	18.6	0.00e+00	0	44	0	2019557376	6	3789
2026-01-26 15:27:00.85	226.25	41.44	-23.1	-23.5	18.7	0.00e+00	0	44	0	2026897408	6	3740
2026-01-26 15:27:01.85	226.66	41.59	-23.4	-24.0	18.5	0.00e+00	0	44	0	2034237440	6	3854
2026-01-26 15:27:02.85	227.07	41.74	-23.1	-23.4	18.7	0.00e+00	0	44	0	2040528896	6	3729
2026-01-26 15:27:03.86	227.49	41.89	-22.9	-23.0	19.0	0.00e+00	0	44	0	2047868928	6	3634
2026-01-26 15:27:04.86	227.91	42.04	-23.0	-23.3	18.8	0.00e+00	0	44	0	2055208960	6	3700
2026-01-26 15:27:05.86	228.33	42.19	-23.2	-23.6	18.7	0.00e+00	0	44	0	2062548992	6	3777
2026-01-26 15:27:06.87	228.76	42.34	-23.3	-23.8	18.6	0.00e+00	0	44	0	2069889024	6	3807
2026-01-26 15:27:07.88	229.20	42.48	-23.2	-23.6	18.6	0.00e+00	0	44	0	2077229056	6	3759
2026-01-26 15:27:08.88	229.63	42.63	-23.1	-23.4	18.8	0.00e+00	0	44	0	2084569088	6	3721
2026-01-26 15:27:09.89	230.08	42.77	-22.9	-23.0	19.0	0.00e+00	0	44	0	2091909120	6	3632
2026-01-26 15:27:10.89	230.52	42.91	-22.7	-22.6	19.1	0.00e+00	0	44	0	2098200576	6	3546
2026-01-26 15:27:11.89	230.97	43.05	-22.8	-22.7	19.1	0.00e+00	0	44	0	2105540608	6	3576
2026-01-26 15:27:12.88	231.41	43.19	-22.8	-22.8	19.1	0.00e+00	0	44	0	2112880640	6	3592
2026-01-26 15:27:13.89	231.87	43.33	-23.1	-23.4	18.8	0.00e+00	0	44	0	2120220672	6	3728
2026-01-26 15:27:14.89	232.33	43.47	-23.3	-23.8	18.5	0.00e+00	0	44	0	2127560704	6	3813
2026-01-26 15:27:15.89	232.79	43.60	-23.7	-24.2	18.1	0.00e+00	0	44	0	2134900736	7	3796
2026-01-26 15:27:16.90	233.26	43.73	-23.7	-24.2	18.1	0.00e+00	0	44	0	2142240768	7	3809
2026-01-26 15:27:17.90	233.73	43.87	-23.5	-23.8	18.3	0.00e+00	0	44	0	2149580800	7	3710
2026-01-26 15:27:18.90	234.20	44.00	-23.3	-23.3	18.6	0.00e+00	0	44	0	2156920832	7	3611
2026-01-26 15:27:19.90	234.68	44.12	-23.4	-23.5	18.5	0.00e+00	0	44	0	2164260864	7	3656
2026-01-26 15:27:20.91	235.17	44.25	-23.5	-23.8	18.4	2.20e-06	0	44	0	2171600896	7	3705
2026-01-26 15:27:21.91	235.65	44.37	-23.5	-23.7	18.4	0.00e+00	0	44	0	2178940928	7	3685
2026-01-26 15:27:22.91	236.14	44.50	-23.5	-23.7	18.4	0.00e+00	0	44	0	2185232384	7	3687
2026-01-26 15:27:23.91	236.63	44.62	-23.5	-23.7	18.4	0.00e+00	0	44	0	2192572416	7	3679
2026-01-26 15:27:24.91	237.13	44.74	-23.5	-23.6	18.5	0.00e+00	0	44	0	2199912448	7	3675
2026-01-26 15:27:25.91	237.63	44.85	-23.2	-23.1	18.7	0.00e+00	0	44	0	2207252480	7	3558
2026-01-26 15:27:26.92	238.14	44.97	-23.2	-23.0	18.8	0.00e+00	0	44	0	2214592512	7	3522
2026-01-26 15:27:27.92	238.64	45.08	-23.3	-23.2	18.7	0.00e+00	0	44	0	2221932544	7	3579
2026-01-26 15:27:28.92	239.15	45.19	-23.3	-23.4	18.6	0.00e+00	0	44	0	2229272576	7	3614
2026-01-26 15:27:29.92	239.67	45.30	-23.5	-23.6	18.4	0.00e+00	0	44	0	2236612608	7	3674
2026-01-26 15:27:30.93	240.19	45.41	-23.3	-23.3	18.6	0.00e+00	0	44	0	2243952640	7	3602
2026-01-26 15:27:31.92	240.70	45.51	-23.1	-23.0	18.8	0.00e+00	0	44	0	2250244096	7	3525
2026-01-26 15:27:32.92	241.23	45.61	-23.3	-23.4	18.6	0.00e+00	0	44	0	2257584128	7	3621
2026-01-26 15:27:33.93	241.76	45.71	-23.2	-23.1	18.8	0.00e+00	0	44	0	2264924160	7	3555
2026-01-26 15:27:34.93	242.29	45.81	-23.7	-24.1	18.2	0.00e+00	0	45	0	2272264192	7	3789
2026-01-26 15:27:35.93	242.82	45.90	-23.9	-24.6	17.9	0.00e+00	0	44	0	2279604224	7	3894
2026-01-26 15:27:36.92	243.35	45.99	-24.2	-24.7	17.7	0.00e+00	0	44	0	2286944256	8	3807
2026-01-26 15:27:37.92	243.89	46.08	-24.2	-24.8	17.6	0.00e+00	0	44	0	2294284288	8	3836
2026-01-26 15:27:38.92	244.44	46.17	-24.2	-24.6	17.7	0.00e+00	0	44	0	2301624320	8	3795
2026-01-26 15:27:39.92	244.98	46.25	-24.1	-24.5	17.8	0.00e+00	0	44	0	2307915776	8	3764
2026-01-26 15:27:40.93	245.54	46.33	-24.2	-24.6	17.7	0.00e+00	0	44	0	2315255808	8	3803
2026-01-26 15:27:41.93	246.09	46.41	-24.2	-24.8	17.7	0.00e+00	0	44	0	2322595840	8	3834
2026-01-26 15:27:42.93	246.64	46.49	-24.1	-24.5	17.8	0.00e+00	0	44	0	2329935872	8	3768
2026-01-26 15:27:43.94	247.20	46.56	-23.9	-24.0	18.1	0.00e+00	0	44	0	2337275904	8	3645
2026-01-26 15:27:44.94	247.76	46.63	-23.8	-23.9	18.1	0.00e+00	0	44	0	2344615936	8	3630
2026-01-26 15:27:45.95	248.33	46.70	-23.8	-23.8	18.1	0.00e+00	0	44	0	2351955968	8	3616
2026-01-26 15:27:46.95	248.89	46.76	-24.0	-24.2	17.9	0.00e+00	0	44	0	2359296000	8	3699
2026-01-26 15:27:47.95	249.46	46.83	-23.7	-23.6	18.2	0.00e+00	0	44	0	2366636032	8	3576
2026-01-26 15:27:48.95	250.03	46.88	-24.0	-24.2	18.0	0.00e+00	0	44	0	2373976064	8	3701
2026-01-26 15:27:49.95	250.60	46.94	-23.9	-24.1	18.0	0.00e+00	0	44	0	2381316096	8	3681
2026-01-26 15:27:50.96	251.17	46.99	-24.0	-24.3	17.9	0.00e+00	0	44	0	2388656128	8	3715
2026-01-26 15:27:51.97	251.75	47.04	-24.0	-24.3	17.9	0.00e+00	0	44	0	2394947584	8	3719
2026-01-26 15:27:52.96	252.32	47.09	-24.2	-24.7	17.7	0.00e+00	0	44	0	2402287616	8	3816
2026-01-26 15:27:53.96	252.90	47.13	-24.1	-24.5	17.8	0.00e+00	0	44	0	2409627648	8	3762
2026-01-26 15:27:54.96	253.48	47.17	-24.4	-25.0	17.5	0.00e+00	0	44	0	2416967680	8	3888
2026-01-26 15:27:55.97	254.07	47.21	-23.9	-24.1	18.0	0.00e+00	0	44	0	2424307712	8	3668
2026-01-26 15:27:56.97	254.65	47.25	-23.6	-23.4	18.4	0.00e+00	0	44	0	2431647744	8	3508
2026-01-26 15:27:57.98	255.24	47.28	-23.5	-23.2	18.5	0.00e+00	0	44	0	2438987776	8	3476
2026-01-26 15:27:58.98	255.82	47.31	-23.5	-23.7	18.4	0.00e+00	0	44	0	2446327808	7	3689
2026-01-26 15:27:59.98	256.41	47.33	-23.5	-23.7	18.5	0.00e+00	0	44	0	2452619264	7	3681
2026-01-26 15:28:00.99	257.00	47.35	-23.8	-24.4	18.1	0.00e+00	0	44	0	2461007872	7	3845
2026-01-26 15:28:01.99	257.58	47.37	-23.9	-24.6	17.9	0.00e+00	0	44	0	2468347904	7	3886
2026-01-26 15:28:03.00	258.18	47.39	-24.2	-24.8	17.7	0.00e+00	0	44	0	2474639360	8	3825
2026-01-26 15:28:04.00	258.76	47.40	-24.2	-24.6	17.8	0.00e+00	0	44	0	2481979392	8	3779
2026-01-26 15:28:05.00	259.35	47.41	-24.2	-24.6	17.7	0.00e+00	0	44	0	2489319424	8	3792
2026-01-26 15:28:05.99	259.94	47.41	-24.1	-24.5	17.8	0.00e+00	0	44	0	2496659456	8	3771
2026-01-26 15:28:06.99	260.52	47.42	-23.7	-23.7	18.1	0.00e+00	0	44	0	2503999488	8	3584
2026-01-26 15:28:07.99	261.11	47.42	-23.8	-23.8	18.2	0.00e+00	0	44	0	2511339520	8	3596
2026-01-26 15:28:09.00	261.71	47.41	-23.6	-23.4	18.3	0.00e+00	0	44	0	2518679552	8	3520
2026-01-26 15:28:10.00	262.29	47.40	-23.7	-23.6	18.3	0.00e+00	0	44	0	2526019584	8	3558
2026-01-26 15:28:11.00	262.88	47.39	-23.6	-23.5	18.3	0.00e+00	0	44	0	2533359616	8	3547
2026-01-26 15:28:12.01	263.48	47.38	-23.7	-23.6	18.3	0.00e+00	0	44	0	2539651072	8	3566
2026-01-26 15:28:13.02	264.07	47.36	-23.7	-23.6	18.3	0.00e+00	0	44	0	2546991104	8	3562
2026-01-26 15:28:14.02	264.65	47.34	-23.6	-23.5	18.3	0.00e+00	0	44	0	2554331136	8	3535
2026-01-26 15:28:15.03	265.25	47.32	-23.7	-23.6	18.3	0.00e+00	0	44	0	2561671168	8	3572
2026-01-26 15:28:16.03	265.83	47.29	-24.0	-24.3	17.9	0.00e+00	0	44	0	2569011200	8	3716
2026-01-26 15:28:17.03	266.41	47.26	-23.9	-24.1	18.1	0.00e+00	0	44	0	2576351232	8	3669
2026-01-26 15:28:18.03	266.99	47.23	-23.8	-23.8	18.2	0.00e+00	0	44	0	2583691264	8	3612
2026-01-26 15:28:19.04	267.58	47.20	-23.7	-23.6	18.3	0.00e+00	0	44	0	2591031296	8	3551
2026-01-26 15:28:20.04	268.16	47.16	-23.7	-23.6	18.3	3.40e-06	0	44	0	2598371328	8	3560
2026-01-26 15:28:21.04	268.74	47.11	-23.5	-23.3	18.4	0.00e+00	0	45	0	2605711360	8	3487
2026-01-26 15:28:22.05	269.32	47.07	-23.7	-23.6	18.3	0.00e+00	0	44	0	2613051392	8	3566
2026-01-26 15:28:23.05	269.89	47.02	-23.7	-23.5	18.2	0.00e+00	0	44	0	2620391424	8	3543
2026-01-26 15:28:24.06	270.47	46.97	-24.0	-24.2	18.0	0.00e+00	0	44	0	2626682880	8	3703
2026-01-26 15:28:25.06	271.04	46.91	-23.9	-24.0	18.1	0.00e+00	0	45	0	2634022912	8	3648
2026-01-26 15:28:26.06	271.61	46.86	-23.7	-23.7	18.2	0.00e+00	0	44	0	2641362944	8	3589
2026-01-26 15:28:27.07	272.18	46.80	-23.8	-23.7	18.2	0.00e+00	0	44	0	2648702976	8	3592
2026-01-26 15:28:28.06	272.74	46.73	-23.7	-23.6	18.3	0.00e+00	0	44	0	2656043008	8	3557
2026-01-26 15:28:29.07	273.31	46.67	-23.8	-23.8	18.2	0.00e+00	0	44	0	2663383040	8	3598
2026-01-26 15:28:30.07	273.87	46.60	-24.0	-24.3	17.9	0.00e+00	0	45	0	2670723072	8	3714
2026-01-26 15:28:31.08	274.43	46.53	-24.0	-24.3	17.9	0.00e+00	0	44	0	2678063104	8	3730
2026-01-26 15:28:32.08	274.99	46.45	-24.1	-24.4	17.9	0.00e+00	0	44	0	2684354560	8	3743
2026-01-26 15:28:33.08	275.54	46.38	-23.9	-24.1	18.0	0.00e+00	0	44	0	2691694592	8	3675
2026-01-26 15:28:34.08	276.09	46.30	-23.9	-24.1	18.1	0.00e+00	0	44	0	2699034624	8	3665
2026-01-26 15:28:35.09	276.64	46.21	-24.1	-24.4	17.9	0.00e+00	0	44	0	2706374656	8	3740
2026-01-26 15:28:36.09	277.18	46.13	-24.1	-24.5	17.8	0.00e+00	0	44	0	2713714688	8	3761
2026-01-26 15:28:37.09	277.72	46.04	-24.4	-25.1	17.5	0.00e+00	0	45	0	2721054720	8	3910
2026-01-26 15:28:38.10	278.27	45.95	-24.2	-24.7	17.7	0.00e+00	0	44	0	2728394752	8	3814
2026-01-26 15:28:39.10	278.80	45.86	-24.0	-24.3	17.9	0.00e+00	0	44	0	2735734784	8	3722
2026-01-26 15:28:40.11	279.34	45.76	-23.8	-23.9	18.2	0.00e+00	0	44	0	2743074816	8	3630
2026-01-26 15:28:41.11	279.87	45.66	-23.5	-23.3	18.5	0.00e+00	0	45	0	2750414848	8	3500
2026-01-26 15:28:42.11	280.39	45.56	-23.5	-23.2	18.5	0.00e+00	0	44	0	2757754880	8	3484
2026-01-26 15:28:43.11	280.91	45.46	-23.6	-23.5	18.4	0.00e+00	0	44	0	2765094912	8	3536
2026-01-26 15:28:44.12	281.44	45.36	-23.7	-23.7	18.2	0.00e+00	0	44	0	2771386368	8	3579
2026-01-26 15:28:45.13	281.96	45.25	-23.5	-23.1	18.5	0.00e+00	0	44	0	2778726400	8	3465
2026-01-26 15:28:46.13	282.47	45.14	-23.5	-23.3	18.4	0.00e+00	0	44	0	2786066432	8	3493
2026-01-26 15:28:47.13	282.97	45.03	-23.7	-23.6	18.3	0.00e+00	0	44	0	2793406464	8	3564
2026-01-26 15:28:48.13	283.48	44.92	-23.5	-23.2	18.5	0.00e+00	0	44	0	2800746496	8	3482
2026-01-26 15:28:49.13	283.98	44.80	-23.3	-23.3	18.6	0.00e+00	0	44	0	2808086528	7	3598
2026-01-26 15:28:50.13	284.47	44.68	-23.5	-23.7	18.5	0.00e+00	0	44	0	2815426560	7	3675
2026-01-26 15:28:51.12	284.96	44.57	-23.7	-24.2	18.2	0.00e+00	0	44	0	2822766592	7	3788
2026-01-26 15:28:52.13	285.46	44.44	-23.7	-24.2	18.2	0.00e+00	0	44	0	2830106624	7	3791
2026-01-26 15:28:53.13	285.94	44.32	-23.7	-24.0	18.3	0.00e+00	0	44	0	2836398080	7	3750
2026-01-26 15:28:54.12	286.42	44.20	-23.4	-23.4	18.6	0.00e+00	0	44	0	2843738112	7	3623
2026-01-26 15:28:55.13	286.90	44.07	-23.3	-23.3	18.7	0.00e+00	0	45	0	2851078144	7	3591
2026-01-26 15:28:56.13	287.38	43.94	-23.5	-23.7	18.5	0.00e+00	0	44	0	2858418176	7	3690
2026-01-26 15:28:57.13	287.85	43.81	-23.5	-23.8	18.4	0.00e+00	0	44	0	2865758208	7	3700
2026-01-26 15:28:58.14	288.32	43.68	-23.5	-23.7	18.5	0.00e+00	0	44	0	2873098240	7	3680
2026-01-26 15:28:59.14	288.78	43.54	-23.5	-23.7	18.5	0.00e+00	0	44	0	2880438272	7	3689
2026-01-26 15:29:00.13	289.24	43.41	-23.5	-23.8	18.4	0.00e+00	0	44	0	2887778304	7	3709
2026-01-26 15:29:01.12	289.69	43.28	-23.6	-23.9	18.4	0.00e+00	0	44	0	2894069760	7	3728
2026-01-26 15:29:02.12	290.14	43.14	-23.7	-24.1	18.2	0.00e+00	0	44	0	2901409792	7	3790
2026-01-26 15:29:03.13	290.59	43.00	-23.6	-23.9	18.3	0.00e+00	0	44	0	2908749824	7	3742
2026-01-26 15:29:04.13	291.04	42.86	-23.4	-23.6	18.5	0.00e+00	0	44	0	2916089856	7	3660
2026-01-26 15:29:05.14	291.48	42.72	-23.5	-23.8	18.4	0.00e+00	0	44	0	2923429888	7	3702
2026-01-26 15:29:06.14	291.92	42.57	-23.6	-23.9	18.3	0.00e+00	0	44	0	2930769920	7	3742
2026-01-26 15:29:07.14	292.35	42.43	-23.6	-23.9	18.4	0.00e+00	0	44	0	2938109952	7	3730
2026-01-26 15:29:08.14	292.78	42.28	-23.6	-23.8	18.4	0.00e+00	0	44	0	2945449984	7	3720
2026-01-26 15:29:09.15	293.21	42.13	-23.6	-23.9	18.4	0.00e+00	0	44	0	2952790016	7	3733
2026-01-26 15:29:10.15	293.63	41.99	-23.5	-23.7	18.4	0.00e+00	0	44	0	2960130048	7	3694
2026-01-26 15:29:11.15	294.04	41.84	-23.5	-23.6	18.5	0.00e+00	0	44	0	2967470080	7	3674
2026-01-26 15:29:12.15	294.46	41.69	-23.5	-23.7	18.5	0.00e+00	0	44	0	2974810112	7	3682
2026-01-26 15:29:13.16	294.87	41.54	-23.2	-23.1	18.8	0.00e+00	0	44	0	2981101568	7	3551
2026-01-26 15:29:14.16	295.27	41.38	-23.2	-23.1	18.8	0.00e+00	0	44	0	2988441600	7	3546
2026-01-26 15:29:15.16	295.68	41.23	-23.2	-23.1	18.7	0.00e+00	0	44	0	2995781632	7	3554
2026-01-26 15:29:16.17	296.08	41.08	-23.1	-22.8	18.9	0.00e+00	0	44	0	3003121664	7	3500
2026-01-26 15:29:17.17	296.47	40.92	-23.0	-22.7	19.0	0.00e+00	0	44	0	3010461696	7	3470
2026-01-26 15:29:18.18	296.87	40.76	-23.1	-22.8	18.9	0.00e+00	0	44	0	3017801728	7	3500
2026-01-26 15:29:19.18	297.25	40.61	-23.2	-23.1	18.7	0.00e+00	0	44	0	3025141760	7	3565
2026-01-26 15:29:20.18	297.64	40.45	-23.1	-23.0	18.8	0.00e+00	0	44	0	3032481792	7	3529
2026-01-26 15:29:21.18	298.02	40.29	-23.1	-23.0	18.8	0.00e+00	0	44	0	3038773248	7	3532
2026-01-26 15:29:22.18	298.39	40.14	-23.2	-23.0	18.8	0.00e+00	0	44	0	3046113280	7	3543
2026-01-26 15:29:23.18	298.76	39.98	-23.1	-22.9	18.9	0.00e+00	0	44	0	3053453312	7	3510
2026-01-26 15:29:24.19	299.14	39.82	-23.2	-23.1	18.7	0.00e+00	0	44	0	3060793344	7	3553
2026-01-26 15:29:25.18	299.50	39.66	-23.5	-23.6	18.5	0.00e+00	0	44	0	3068133376	7	3673
2026-01-26 15:29:26.19	299.86	39.50	-23.4	-23.5	18.4	0.00e+00	0	44	0	3075473408	7	3646
2026-01-26 15:29:27.19	300.22	39.34	-23.8	-24.3	18.1	1.10e-06	0	44	0	3082813440	7	3820
2026-01-26 15:29:28.19	300.57	39.17	-23.7	-24.2	18.2	0.00e+00	0	44	0	3090153472	7	3798
2026-01-26 15:29:29.20	300.93	39.01	-23.8	-24.2	18.2	0.00e+00	0	44	0	3097493504	7	3810
2026-01-26 15:29:30.20	301.28	38.85	-23.6	-24.0	18.3	0.00e+00	0	44	0	3104833536	7	3750
2026-01-26 15:29:31.20	301.62	38.69	-23.6	-23.9	18.2	0.00e+00	0	44	0	3112173568	7	3725
2026-01-26 15:29:32.20	301.96	38.52	-23.7	-24.2	18.2	0.00e+00	0	44	0	3119513600	7	3795
2026-01-26 15:29:33.20	302.30	38.36	-23.4	-23.5	18.6	0.00e+00	0	45	0	3125805056	7	3631
2026-01-26 15:29:34.20	302.63	38.20	-23.2	-23.2	18.7	0.00e+00	0	44	0	3133145088	7	3568
2026-01-26 15:29:35.20	302.96	38.03	-23.3	-23.3	18.6	0.00e+00	0	44	0	3140485120	7	3609
2026-01-26 15:29:36.21	303.29	37.87	-23.5	-23.8	18.4	0.00e+00	0	44	0	3147825152	7	3707
2026-01-26 15:29:37.21	303.62	37.70	-23.8	-24.3	18.1	0.00e+00	0	44	0	3155165184	7	3815
2026-01-26 15:29:38.21	303.94	37.54	-23.5	-23.7	18.4	0.00e+00	0	44	0	3162505216	7	3684
2026-01-26 15:29:39.22	304.26	37.37	-23.3	-23.4	18.6	0.00e+00	0	44	0	3169845248	7	3613
2026-01-26 15:29:40.22	304.57	37.21	-23.2	-23.1	18.7	0.00e+00	0	44	0	3177185280	7	3555
2026-01-26 15:29:41.23	304.89	37.04	-23.2	-23.0	18.8	0.00e+00	0	44	0	3184525312	7	3538
2026-01-26 15:29:42.23	305.20	36.88	-23.1	-22.8	18.8	0.00e+00	0	44	0	3190816768	7	3502
2026-01-26 15:29:43.24	305.51	36.71	-22.8	-22.7	19.2	0.00e+00	0	44	0	3199205376	6	3570
2026-01-26 15:29:44.25	305.81	36.54	-22.9	-22.9	19.1	1.10e-06	0	44	0	3206545408	6	3605
2026-01-26 15:29:45.25	306.11	36.38	-23.0	-23.3	18.9	0.00e+00	0	44	0	3212836864	6	3688
2026-01-26 15:29:46.26	306.41	36.21	-22.8	-22.8	19.1	0.00e+00	0	44	0	3220176896	6	3588
2026-01-26 15:29:47.26	306.70	36.05	-22.8	-22.7	19.1	0.00e+00	0	44	0	3227516928	6	3579
2026-01-26 15:29:48.26	306.99	35.88	-23.0	-23.1	19.0	0.00e+00	0	44	0	3234856960	6	3658
2026-01-26 15:29:49.26	307.28	35.72	-23.1	-23.4	18.8	0.00e+00	0	44	0	3242196992	6	3729
2026-01-26 15:29:50.26	307.57	35.55	-23.3	-23.7	18.6	0.00e+00	0	44	0	3249537024	6	3796
2026-01-26 15:29:51.26	307.85	35.39	-23.3	-23.8	18.6	6.80e-06	0	44	0	3256877056	6	3819
2026-01-26 15:29:52.25	308.12	35.23	-23.4	-24.0	18.4	4.50e-06	0	44	0	3264217088	6	3855
2026-01-26 15:29:53.25	308.40	35.06	-23.5	-23.8	18.3	0.00e+00	0	44	0	3270508544	7	3717
2026-01-26 15:29:54.26	308.68	34.90	-23.6	-24.0	18.3	0.00e+00	0	45	0	3277848576	7	3747
2026-01-26 15:29:55.26	308.95	34.73	-23.6	-24.0	18.3	0.00e+00	0	44	0	3285188608	7	3754
2026-01-26 15:29:56.26	309.22	34.57	-23.4	-23.5	18.5	0.00e+00	0	44	0	3292528640	7	3652
2026-01-26 15:29:57.27	309.48	34.40	-23.5	-23.8	18.4	0.00e+00	0	44	0	3299868672	7	3708
2026-01-26 15:29:58.27	309.75	34.24	-23.5	-23.7	18.4	1.10e-06	0	44	0	3307208704	7	3690
2026-01-26 15:29:59.27	310.01	34.08	-23.1	-22.9	18.8	1.10e-06	0	45	0	3314548736	7	3523
2026-01-26 15:30:00.27	310.26	33.91	-22.9	-22.9	19.1	0.00e+00	0	45	0	3321888768	6	3606
2026-01-26 15:30:01.27	310.52	33.75	-22.8	-22.7	19.1	0.00e+00	0	45	0	3329228800	6	3569
2026-01-26 15:30:02.27	310.77	33.59	-22.8	-22.7	19.1	0.00e+00	0	44	0	3335520256	6	3566
2026-01-26 15:30:03.26	311.02	33.43	-22.7	-22.5	19.2	0.00e+00	0	44	0	3342860288	6	3529
2026-01-26 15:30:04.27	311.27	33.26	-22.9	-22.9	19.0	0.00e+00	0	44	0	3350200320	6	3620
2026-01-26 15:30:05.27	311.52	33.10	-22.8	-22.8	19.0	0.00e+00	0	44	0	3357540352	6	3599
2026-01-26 15:30:06.28	311.76	32.94	-23.0	-23.2	18.9	0.00e+00	0	44	0	3364880384	6	3678
2026-01-26 15:30:07.28	312.00	32.78	-22.9	-23.0	18.9	0.00e+00	0	44	0	3372220416	6	3643
2026-01-26 15:30:08.28	312.24	32.62	-23.0	-23.2	18.8	0.00e+00	0	44	0	3379560448	6	3680
2026-01-26 15:30:09.28	312.48	32.46	-23.1	-23.5	18.7	0.00e+00	0	44	0	3386900480	6	3744
2026-01-26 15:30:10.29	312.71	32.29	-23.2	-23.7	18.6	0.00e+00	0	44	0	3394240512	6	3785
2026-01-26 15:30:11.29	312.94	32.13	-23.3	-23.8	18.5	0.00e+00	0	44	0	3401580544	6	3815
2026-01-26 15:30:12.30	313.18	31.97	-23.4	-23.9	18.5	0.00e+00	0	44	0	3408920576	6	3850
2026-01-26 15:30:13.30	313.40	31.81	-23.3	-23.9	18.5	0.00e+00	0	45	0	3416260608	6	3829
2026-01-26 15:30:14.30	313.63	31.66	-23.4	-23.9	18.5	0.00e+00	0	44	0	3422552064	6	3846
2026-01-26 15:30:15.31	313.85	31.50	-23.4	-24.0	18.4	0.00e+00	0	44	0	3429892096	6	3851
2026-01-26 15:30:16.31	314.07	31.34	-23.4	-24.1	18.4	0.00e+00	0	44	0	3437232128	6	3887
2026-01-26 15:30:17.32	314.29	31.18	-23.3	-23.7	18.6	0.00e+00	0	44	0	3444572160	6	3796
2026-01-26 15:30:18.32	314.51	31.02	-23.3	-23.7	18.6	1.10e-06	0	44	0	3451912192	6	3794
2026-01-26 15:30:19.32	314.72	30.87	-23.2	-23.7	18.6	0.00e+00	0	45	0	3459252224	6	3789
2026-01-26 15:30:20.32	314.94	30.71	-23.1	-23.5	18.7	0.00e+00	0	44	0	3466592256	6	3741
2026-01-26 15:30:21.32	315.15	30.55	-23.2	-23.6	18.6	0.00e+00	0	44	0	3473932288	6	3777
2026-01-26 15:30:22.32	315.36	30.40	-23.3	-23.8	18.5	0.00e+00	0	44	0	3480223744	6	3823
2026-01-26 15:30:23.32	315.56	30.24	-23.4	-24.0	18.4	0.00e+00	0	44	0	3487563776	6	3859
2026-01-26 15:30:24.33	315.77	30.09	-23.3	-23.8	18.5	0.00e+00	0	44	0	3494903808	6	3820
2026-01-26 15:30:25.34	315.97	29.93	-23.3	-23.8	18.5	0.00e+00	0	44	0	3502243840	6	3824
2026-01-26 15:30:26.35	316.18	29.78	-23.4	-24.0	18.4	0.00e+00	0	44	0	3509583872	6	3870
2026-01-26 15:30:27.35	316.37	29.62	-23.6	-24.4	18.2	0.00e+00	0	44	0	3516923904	6	3950
2026-01-26 15:30:28.36	316.57	29.47	-23.6	-24.0	18.2	0.00e+00	0	45	0	3524263936	7	3768
2026-01-26 15:30:29.36	316.77	29.32	-23.8	-24.4	17.9	0.00e+00	0	44	0	3531603968	7	3852
2026-01-26 15:30:30.36	316.96	29.17	-23.9	-24.6	17.8	0.00e+00	0	44	0	3538944000	7	3904
2026-01-26 15:30:31.37	317.15	29.01	-23.8	-24.4	18.0	0.00e+00	0	44	0	3546284032	7	3844
2026-01-26 15:30:32.37	317.34	28.86	-23.9	-24.6	17.8	0.00e+00	0	44	0	3553624064	7	3894
2026-01-26 15:30:33.38	317.53	28.71	-23.8	-24.5	17.9	0.00e+00	0	44	0	3560964096	7	3866
2026-01-26 15:30:34.38	317.72	28.56	-23.8	-24.4	17.9	0.00e+00	0	45	0	3567255552	7	3841
2026-01-26 15:30:35.37	317.90	28.41	-23.7	-24.2	18.1	1.10e-06	0	44	0	3574595584	7	3801
2026-01-26 15:30:36.38	318.09	28.26	-23.6	-23.9	18.2	0.00e+00	0	44	0	3581935616	7	3743
2026-01-26 15:30:37.39	318.27	28.12	-23.6	-23.9	18.2	0.00e+00	0	44	0	3589275648	7	3727
2026-01-26 15:30:38.39	318.45	27.97	-23.5	-23.8	18.2	0.00e+00	0	44	0	3596615680	7	3717
2026-01-26 15:30:39.40	318.63	27.82	-23.3	-23.3	18.5	0.00e+00	0	44	0	3603955712	7	3593
2026-01-26 15:30:40.40	318.81	27.67	-23.3	-23.3	18.5	0.00e+00	0	44	0	3611295744	7	3592
2026-01-26 15:30:41.40	318.98	27.53	-23.3	-23.2	18.5	0.00e+00	0	44	0	3618635776	7	3584
2026-01-26 15:30:42.41	319.16	27.38	-23.1	-22.9	18.7	0.00e+00	0	44	0	3625975808	7	3520
2026-01-26 15:30:43.42	319.33	27.23	-23.1	-22.9	18.7	0.00e+00	0	44	0	3633315840	7	3517
2026-01-26 15:30:44.43	319.50	27.09	-23.1	-22.8	18.7	0.00e+00	0	44	0	3640655872	7	3500
2026-01-26 15:30:45.42	319.67	26.94	-23.1	-22.8	18.7	0.00e+00	0	44	0	3646947328	7	3499
2026-01-26 15:30:46.43	319.84	26.80	-23.2	-23.1	18.5	0.00e+00	0	44	0	3654287360	7	3563
2026-01-26 15:30:47.43	320.01	26.66	-23.1	-22.9	18.6	1.10e-06	0	44	0	3661627392	7	3525
2026-01-26 15:30:48.43	320.17	26.51	-23.2	-23.0	18.6	0.00e+00	0	44	0	3668967424	7	3535
2026-01-26 15:30:49.44	320.33	26.37	-23.2	-23.2	18.5	0.00e+00	0	45	0	3676307456	7	3573
2026-01-26 15:30:50.44	320.50	26.23	-23.3	-23.2	18.5	0.00e+00	0	44	0	3683647488	7	3580
2026-01-26 15:30:51.44	320.66	26.09	-23.3	-23.3	18.5	0.00e+00	0	44	0	3690987520	7	3599
2026-01-26 15:30:52.44	320.81	25.95	-23.3	-23.3	18.4	0.00e+00	0	44	0	3698327552	7	3612
2026-01-26 15:30:53.45	320.97	25.81	-23.4	-23.4	18.4	0.00e+00	0	44	0	3705667584	7	3628
2026-01-26 15:30:54.44	321.13	25.67	-23.4	-23.5	18.3	0.00e+00	0	44	0	3713007616	7	3648
2026-01-26 15:30:55.45	321.28	25.53	-23.4	-23.6	18.3	0.00e+00	0	44	0	3720347648	7	3666
2026-01-26 15:30:56.45	321.44	25.39	-23.5	-23.7	18.2	0.00e+00	0	44	0	3727687680	7	3689
2026-01-26 15:30:57.45	321.59	25.25	-23.6	-23.9	18.2	0.00e+00	0	44	0	3733979136	7	3725
2026-01-26 15:30:58.46	321.74	25.11	-23.4	-23.6	18.3	0.00e+00	0	44	0	3741319168	7	3669
2026-01-26 15:30:59.46	321.89	24.97	-23.4	-23.5	18.3	0.00e+00	0	44	0	3748659200	7	3646
2026-01-26 15:31:00.46	322.04	24.84	-23.4	-23.6	18.3	0.00e+00	0	45	0	3755999232	7	3663
2026-01-26 15:31:01.45	322.19	24.70	-23.3	-23.3	18.4	0.00e+00	0	44	0	3763339264	7	3598
2026-01-26 15:31:02.46	322.33	24.57	-23.4	-23.5	18.3	0.00e+00	0	44	0	3770679296	7	3647
2026-01-26 15:31:03.46	322.48	24.43	-23.4	-23.6	18.3	0.00e+00	0	44	0	3778019328	7	3664
2026-01-26 15:31:04.47	322.62	24.30	-23.3	-23.4	18.4	0.00e+00	0	44	0	3785359360	7	3616
2026-01-26 15:31:05.47	322.77	24.16	-23.4	-23.5	18.3	0.00e+00	0	44	0	3792699392	7	3638
2026-01-26 15:31:06.47	322.91	24.03	-23.5	-23.7	18.2	0.00e+00	0	45	0	3798990848	7	3685
2026-01-26 15:31:07.47	323.05	23.90	-23.4	-23.6	18.3	0.00e+00	0	44	0	3806330880	7	3671
2026-01-26 15:31:08.47	323.19	23.77	-23.6	-23.9	18.1	0.00e+00	0	44	0	3813670912	7	3736
2026-01-26 15:31:09.47	323.32	23.63	-23.7	-24.1	18.0	0.00e+00	0	44	0	3821010944	7	3791
2026-01-26 15:31:10.47	323.46	23.50	-23.7	-24.1	18.0	0.00e+00	0	44	0	3828350976	7	3788
2026-01-26 15:31:11.46	323.59	23.37	-23.6	-24.0	18.1	0.00e+00	0	44	0	3835691008	7	3756
2026-01-26 15:31:12.47	323.73	23.24	-23.7	-24.2	17.9	0.00e+00	0	44	0	3843031040	7	3802
2026-01-26 15:31:13.47	323.86	23.11	-23.8	-24.3	17.8	0.00e+00	0	44	0	3850371072	7	3831
2026-01-26 15:31:14.48	324.00	22.98	-23.7	-24.2	18.0	0.00e+00	0	44	0	3856662528	7	3798
2026-01-26 15:31:15.48	324.13	22.85	-23.7	-24.2	17.9	0.00e+00	0	44	0	3864002560	7	3801
2026-01-26 15:31:16.48	324.26	22.72	-23.6	-23.8	18.1	0.00e+00	0	44	0	3871342592	7	3720
2026-01-26 15:31:17.47	324.39	22.60	-23.6	-24.0	17.9	0.00e+00	0	45	0	3878682624	7	3758
2026-01-26 15:31:18.48	324.51	22.47	-23.5	-23.7	18.1	0.00e+00	0	44	0	3886022656	7	3690
2026-01-26 15:31:19.48	324.64	22.34	-23.6	-23.8	18.1	0.00e+00	0	44	0	3893362688	7	3724
2026-01-26 15:31:20.49	324.77	22.22	-23.6	-23.9	18.0	0.00e+00	0	44	0	3900702720	7	3742
2026-01-26 15:31:21.49	324.89	22.09	-23.8	-24.3	17.8	0.00e+00	0	44	0	3908042752	7	3821
2026-01-26 15:31:22.48	325.02	21.97	-23.9	-24.5	17.8	1.10e-06	0	44	0	3915382784	7	3874
2026-01-26 15:31:23.49	325.14	21.84	-23.9	-24.5	17.7	0.00e+00	0	45	0	3922722816	7	3880
2026-01-26 15:31:24.50	325.26	21.71	-24.0	-24.7	17.6	0.00e+00	0	44	0	3930062848	7	3923
2026-01-26 15:31:25.50	325.39	21.59	-23.9	-24.6	17.7	0.00e+00	0	44	0	3937402880	7	3905
2026-01-26 15:31:26.50	325.51	21.47	-24.2	-24.7	17.4	0.00e+00	0	44	0	3943694336	8	3826
2026-01-26 15:31:27.51	325.63	21.34	-24.3	-24.9	17.3	0.00e+00	0	44	0	3951034368	8	3868
2026-01-26 15:31:28.51	325.75	21.22	-24.3	-24.8	17.3	0.00e+00	0	44	0	3958374400	8	3849
2026-01-26 15:31:29.51	325.86	21.10	-24.1	-24.5	17.5	0.00e+00	0	44	0	3965714432	8	3775
2026-01-26 15:31:30.51	325.98	20.98	-24.2	-24.6	17.4	0.00e+00	0	44	0	3973054464	8	3797
2026-01-26 15:31:31.51	326.10	20.86	-24.2	-24.7	17.4	0.00e+00	0	45	0	3980394496	8	3825
2026-01-26 15:31:32.51	326.21	20.74	-24.2	-24.8	17.3	0.00e+00	0	44	0	3987734528	8	3827
2026-01-26 15:31:33.52	326.33	20.61	-24.4	-25.2	17.1	0.00e+00	0	44	0	3995074560	8	3928
2026-01-26 15:31:34.52	326.44	20.50	-24.3	-24.5	17.2	0.00e+00	0	44	0	4001366016	9	3662
2026-01-26 15:31:35.53	326.55	20.38	-24.2	-24.2	17.4	0.00e+00	0	44	0	4008706048	9	3597
2026-01-26 15:31:36.53	326.66	20.26	-24.1	-24.0	17.4	0.00e+00	0	44	0	4016046080	9	3565
2026-01-26 15:31:37.53	326.78	20.14	-24.2	-24.2	17.4	0.00e+00	0	44	0	4023386112	9	3605
2026-01-26 15:31:38.53	326.89	20.02	-24.2	-24.2	17.3	0.00e+00	0	44	0	4030726144	9	3594
2026-01-26 15:31:39.54	327.00	19.90	-24.2	-24.2	17.3	0.00e+00	0	44	0	4038066176	9	3607
2026-01-26 15:31:40.53	327.10	19.79	-24.3	-24.3	17.3	4.50e-06	0	44	0	4045406208	9	3633
2026-01-26 15:31:41.54	327.21	19.67	-24.1	-24.1	17.4	0.00e+00	0	44	0	4052746240	9	3575
2026-01-26 15:31:42.55	327.32	19.55	-24.3	-24.4	17.2	0.00e+00	0	44	0	4060086272	9	3653
2026-01-26 15:31:43.56	327.43	19.44	-24.2	-24.2	17.3	1.10e-06	0	44	0	4067426304	9	3607
2026-01-26 15:31:44.57	327.53	19.32	-24.3	-24.3	17.3	0.00e+00	0	44	0	4074766336	9	3626
2026-01-26 15:31:45.57	327.64	19.21	-24.2	-24.3	17.3	0.00e+00	0	44	0	4082106368	9	3618
2026-01-26 15:31:46.57	327.74	19.09	-24.3	-24.3	17.2	0.00e+00	0	44	0	4088397824	9	3634
2026-01-26 15:31:47.58	327.84	18.98	-24.3	-24.5	17.2	1.48e-05	0	44	0	4095737856	9	3666
2026-01-26 15:31:48.58	327.95	18.86	-24.4	-24.7	17.1	1.71e-05	0	44	0	4103077888	9	3708
2026-01-26 15:31:49.59	328.05	18.75	-24.4	-24.7	17.1	0.00e+00	0	45	0	4110417920	9	3705
2026-01-26 15:31:50.58	328.15	18.64	-24.4	-24.7	17.0	0.00e+00	0	44	0	4117757952	9	3718
2026-01-26 15:31:51.59	328.25	18.53	-24.2	-24.3	17.3	0.00e+00	0	44	0	4125097984	9	3617
2026-01-26 15:31:52.59	328.35	18.41	-24.3	-24.3	17.2	2.20e-06	0	44	0	4132438016	9	3636
2026-01-26 15:31:53.59	328.45	18.30	-24.3	-24.3	17.2	0.00e+00	0	44	0	4139778048	9	3632
2026-01-26 15:31:54.59	328.55	18.19	-24.4	-24.6	17.1	2.20e-06	0	44	0	4147118080	9	3693
2026-01-26 15:31:55.60	328.64	18.08	-24.3	-24.5	17.1	3.40e-06	0	44	0	4154458112	9	3663
2026-01-26 15:31:56.60	328.74	17.97	-24.3	-24.3	17.2	1.37e-05	0	44	0	4161798144	9	3634
2026-01-26 15:31:57.60	328.84	17.86	-24.3	-24.5	17.2	0.00e+00	0	44	0	4169138176	9	3659
2026-01-26 15:31:58.61	328.93	17.75	-24.4	-24.6	17.1	1.10e-06	0	44	0	4175429632	9	3684
2026-01-26 15:31:59.61	329.03	17.64	-24.4	-24.6	17.1	0.00e+00	0	44	0	4182769664	9	3703
2026-01-26 15:32:00.61	329.12	17.54	-24.4	-24.7	17.0	0.00e+00	0	44	0	4190109696	9	3719
2026-01-26 15:32:01.61	329.22	17.43	-24.6	-25.1	16.8	0.00e+00	0	44	0	4197449728	9	3805
2026-01-26 15:32:02.61	329.31	17.32	-24.6	-25.1	16.8	0.00e+00	0	44	0	4204789760	9	3816
2026-01-26 15:32:03.62	329.40	17.21	-24.5	-24.9	16.8	0.00e+00	0	44	0	4212129792	9	3772
2026-01-26 15:32:04.63	329.49	17.11	-24.7	-25.3	16.7	0.00e+00	0	44	0	4219469824	9	3864
2026-01-26 15:32:05.63	329.58	17.00	-24.7	-25.4	16.6	0.00e+00	0	44	0	4226809856	9	3872
2026-01-26 15:32:06.63	329.68	16.89	-24.7	-25.3	16.7	0.00e+00	0	44	0	4233101312	9	3866
2026-01-26 15:32:07.64	329.77	16.79	-24.8	-25.5	16.6	0.00e+00	0	44	0	4241489920	9	3907
2026-01-26 15:32:08.64	329.85	16.68	-24.8	-25.6	16.5	0.00e+00	0	44	0	4248829952	9	3926
2026-01-26 15:32:09.64	329.94	16.58	-24.8	-25.6	16.5	0.00e+00	0	45	0	4255121408	9	3929
2026-01-26 15:32:10.64	330.03	16.47	-25.0	-25.9	16.3	2.20e-06	0	44	0	4262461440	9	3997
2026-01-26 15:32:11.65	330.12	16.37	-24.9	-25.7	16.4	0.00e+00	0	44	0	4269801472	9	3960
2026-01-26 15:32:12.65	330.21	16.27	-25.1	-26.1	16.2	0.00e+00	0	44	0	4277141504	9	4057
2026-01-26 15:32:13.65	330.29	16.16	-25.3	-26.1	16.0	0.00e+00	0	44	0	4284481536	10	3946
2026-01-26 15:32:14.66	330.38	16.06	-25.2	-25.9	16.1	0.00e+00	0	44	0	4291821568	10	3899
2026-01-26 15:32:15.67	330.46	15.96	-25.2	-25.8	16.1	0.00e+00	0	44	0	4299161600	10	3869
2026-01-26 15:32:16.66	330.55	15.86	-25.3	-26.0	16.0	0.00e+00	0	44	0	4306501632	10	3920
2026-01-26 15:32:17.66	330.63	15.75	-25.2	-25.8	16.1	0.00e+00	0	44	0	4313841664	10	3876
2026-01-26 15:32:18.66	330.72	15.65	-25.4	-26.2	15.9	0.00e+00	0	44	0	4320133120	10	3973
2026-01-26 15:32:19.66	330.80	15.55	-25.1	-25.6	16.2	0.00e+00	0	44	0	4327473152	10	3827
2026-01-26 15:32:20.67	330.88	15.45	-25.3	-26.1	16.0	1.10e-06	0	44	0	4334813184	10	3937
2026-01-26 15:32:21.67	330.96	15.35	-25.3	-26.1	15.9	0.00e+00	0	44	0	4342153216	10	3944
2026-01-26 15:32:22.68	331.05	15.25	-25.1	-25.6	16.2	0.00e+00	0	44	0	4349493248	10	3834
2026-01-26 15:32:23.68	331.13	15.15	-25.1	-25.7	16.2	1.10e-06	0	44	0	4356833280	10	3846
2026-01-26 15:32:24.68	331.21	15.05	-25.1	-25.7	16.1	0.00e+00	0	44	0	4364173312	10	3843
2026-01-26 15:32:25.68	331.29	14.95	-25.3	-26.0	16.0	0.00e+00	0	44	0	4371513344	10	3924
2026-01-26 15:32:26.69	331.37	14.86	-25.2	-25.9	16.0	1.10e-06	0	44	0	4378853376	10	3882
2026-01-26 15:32:27.69	331.45	14.76	-25.2	-25.9	16.0	0.00e+00	0	45	0	4386193408	10	3902
2026-01-26 15:32:28.69	331.52	14.66	-25.3	-26.1	15.9	1.10e-06	0	44	0	4393533440	10	3945
2026-01-26 15:32:29.70	331.60	14.56	-25.2	-25.9	15.9	0.00e+00	0	44	0	4399824896	10	3899
2026-01-26 15:32:30.70	331.68	14.47	-25.4	-26.3	15.8	0.00e+00	0	44	0	4407164928	10	4001
2026-01-26 15:32:31.70	331.76	14.37	-25.4	-26.4	15.7	0.00e+00	0	44	0	4414504960	10	4023
2026-01-26 15:32:32.70	331.83	14.27	-25.5	-26.6	15.6	1.10e-06	0	44	0	4421844992	10	4057
2026-01-26 15:32:33.70	331.91	14.18	-25.9	-26.8	15.2	1.10e-06	0	44	0	4429185024	11	4011
2026-01-26 15:32:34.70	331.99	14.08	-25.5	-26.0	15.6	0.00e+00	0	44	0	4436525056	11	3828
2026-01-26 15:32:35.70	332.06	13.99	-25.6	-26.3	15.5	1.10e-06	0	45	0	4443865088	11	3885
2026-01-26 15:32:36.70	332.14	13.89	-25.6	-26.2	15.5	0.00e+00	0	44	0	4451205120	11	3861
2026-01-26 15:32:37.70	332.21	13.80	-25.7	-26.4	15.4	0.00e+00	0	44	0	4458545152	11	3904
2026-01-26 15:32:38.70	332.28	13.70	-25.7	-26.5	15.4	0.00e+00	0	44	0	4464836608	11	3927
2026-01-26 15:32:39.70	332.36	13.61	-25.7	-26.5	15.4	0.00e+00	0	45	0	4472176640	11	3940
2026-01-26 15:32:40.70	332.43	13.52	-25.7	-26.4	15.4	0.00e+00	0	44	0	4479516672	11	3924
2026-01-26 15:32:41.71	332.50	13.42	-25.5	-26.1	15.6	0.00e+00	0	44	0	4486856704	11	3830
2026-01-26 15:32:42.71	332.58	13.33	-25.8	-26.6	15.3	0.00e+00	0	44	0	4494196736	11	3965
2026-01-26 15:32:43.71	332.65	13.24	-25.7	-26.5	15.4	0.00e+00	0	44	0	4501536768	11	3927
2026-01-26 15:32:44.72	332.72	13.14	-25.8	-26.6	15.3	0.00e+00	0	44	0	4508876800	11	3961
2026-01-26 15:32:45.72	332.79	13.05	-25.5	-26.1	15.5	1.10e-06	0	44	0	4516216832	11	3837
2026-01-26 15:32:46.72	332.86	12.96	-25.7	-26.4	15.4	1.10e-06	0	45	0	4523556864	11	3928
2026-01-26 15:32:47.73	332.93	12.87	-25.7	-26.4	15.4	1.10e-06	0	45	0	4529848320	11	3912
2026-01-26 15:32:48.73	333.00	12.78	-25.9	-26.8	15.2	0.00e+00	0	45	0	4537188352	11	4015
2026-01-26 15:32:49.73	333.07	12.69	-25.7	-26.4	15.4	0.00e+00	0	44	0	4544528384	11	3914
2026-01-26 15:32:50.73	333.14	12.60	-25.7	-26.5	15.3	1.10e-06	0	44	0	4551868416	11	3933
2026-01-26 15:32:51.73	333.21	12.51	-25.6	-26.3	15.4	0.00e+00	0	44	0	4559208448	11	3891
2026-01-26 15:32:52.72	333.27	12.42	-25.8	-26.6	15.2	0.00e+00	0	44	0	4566548480	11	3975
2026-01-26 15:32:53.72	333.34	12.33	-25.8	-26.7	15.2	0.00e+00	0	44	0	4573888512	11	3995
2026-01-26 15:32:54.73	333.41	12.24	-25.8	-26.7	15.2	0.00e+00	0	45	0	4581228544	11	3979
2026-01-26 15:32:55.74	333.48	12.15	-25.8	-26.7	15.2	1.10e-06	0	45	0	4587520000	11	3982
2026-01-26 15:32:56.74	333.54	12.06	-25.8	-26.6	15.2	0.00e+00	0	44	0	4595908608	11	3977
2026-01-26 15:32:57.75	333.61	11.97	-25.8	-26.8	15.1	0.00e+00	0	44	0	4603248640	11	4012
2026-01-26 15:32:58.75	333.68	11.88	-25.7	-26.6	15.2	0.00e+00	0	44	0	4609540096	11	3950
2026-01-26 15:32:59.76	333.74	11.79	-25.9	-27.0	15.0	0.00e+00	0	44	0	4616880128	11	4057
2026-01-26 15:33:00.77	333.81	11.71	-25.9	-26.9	15.1	0.00e+00	0	44	0	4624220160	11	4035
2026-01-26 15:33:01.77	333.87	11.62	-25.9	-26.9	15.0	0.00e+00	0	44	0	4631560192	11	4046
2026-01-26 15:33:02.77	333.94	11.53	-25.8	-26.8	15.1	0.00e+00	0	44	0	4638900224	11	4016
2026-01-26 15:33:03.77	334.00	11.44	-26.1	-27.3	14.8	0.00e+00	0	45	0	4646240256	11	4155
2026-01-26 15:33:04.77	334.06	11.36	-25.9	-26.4	14.9	0.00e+00	0	45	0	4653580288	12	3835
2026-01-26 15:33:05.77	334.13	11.27	-25.9	-26.4	14.9	0.00e+00	0	45	0	4660920320	12	3823
2026-01-26 15:33:06.77	334.19	11.19	-26.0	-26.6	14.8	0.00e+00	0	45	0	4668260352	12	3866
2026-01-26 15:33:07.78	334.25	11.10	-25.9	-26.4	14.9	1.10e-06	0	45	0	4674551808	12	3826
2026-01-26 15:33:08.78	334.31	11.02	-25.9	-26.3	14.9	0.00e+00	0	45	0	4681891840	12	3805
2026-01-26 15:33:09.78	334.38	10.93	-26.0	-26.7	14.7	0.00e+00	0	44	0	4689231872	12	3907
2026-01-26 15:33:10.78	334.44	10.85	-26.1	-26.8	14.7	0.00e+00	0	45	0	4696571904	12	3923
2026-01-26 15:33:11.78	334.50	10.76	-25.9	-26.5	14.8	0.00e+00	0	44	0	4703911936	12	3838
2026-01-26 15:33:12.79	334.56	10.68	-26.0	-26.6	14.8	0.00e+00	0	44	0	4711251968	12	3874
2026-01-26 15:33:13.79	334.62	10.59	-26.0	-26.6	14.8	0.00e+00	0	44	0	4718592000	12	3861
2026-01-26 15:33:14.79	334.68	10.51	-26.0	-26.6	14.7	0.00e+00	0	44	0	4725932032	12	3883
2026-01-26 15:33:15.79	334.74	10.43	-26.2	-27.1	14.5	0.00e+00	0	44	0	4733272064	12	3997
2026-01-26 15:33:16.80	334.80	10.34	-26.1	-27.0	14.6	0.00e+00	0	44	0	4740612096	12	3961
2026-01-26 15:33:17.80	334.86	10.26	-26.1	-26.8	14.6	1.10e-06	0	44	0	4747952128	12	3928
2026-01-26 15:33:18.79	334.92	10.18	-26.3	-27.2	14.4	0.00e+00	0	44	0	4755292160	12	4032
2026-01-26 15:33:19.80	334.98	10.09	-26.1	-27.0	14.5	1.10e-06	0	44	0	4761583616	12	3966
2026-01-26 15:33:20.80	335.04	10.01	-26.2	-27.1	14.4	4.50e-06	0	45	0	4768923648	12	4002
2026-01-26 15:33:21.81	335.10	9.93	-26.6	-28.0	14.0	5.70e-06	0	44	0	4776263680	12	4222
2026-01-26 15:33:22.81	335.15	9.85	-26.2	-27.2	14.4	1.10e-06	0	44	0	4783603712	12	4031
2026-01-26 15:33:23.81	335.21	9.77	-26.5	-27.7	14.1	3.40e-06	0	45	0	4790943744	12	4164
2026-01-26 15:33:24.81	335.27	9.69	-26.4	-27.6	14.2	0.00e+00	0	44	0	4798283776	12	4129
2026-01-26 15:33:25.82	335.33	9.60	-26.5	-27.9	14.0	1.10e-06	0	44	0	4805623808	12	4206
2026-01-26 15:33:26.82	335.38	9.52	-26.4	-27.6	14.2	0.00e+00	0	44	0	4812963840	12	4126
2026-01-26 15:33:27.83	335.44	9.44	-26.6	-28.0	13.9	2.20e-06	0	44	0	4819255296	12	4226
2026-01-26 15:33:28.84	335.50	9.36	-26.6	-27.6	13.8	1.10e-06	0	45	0	4827643904	13	4027
2026-01-26 15:33:29.84	335.55	9.28	-26.7	-27.7	13.8	4.50e-06	0	44	0	4834983936	13	4040
2026-01-26 15:33:30.85	335.61	9.20	-26.5	-27.4	13.9	9.10e-06	0	45	0	4841275392	13	3972
2026-01-26 15:33:31.86	335.66	9.12	-26.8	-28.0	13.6	9.10e-06	0	45	0	4848615424	13	4135
2026-01-26 15:33:32.86	335.72	9.04	-26.6	-27.6	13.8	8.00e-06	0	44	0	4855955456	13	4030
2026-01-26 15:33:33.86	335.77	8.96	-26.7	-27.8	13.7	5.70e-06	0	44	0	4863295488	13	4069
2026-01-26 15:33:34.86	335.83	8.88	-26.6	-27.6	13.8	2.20e-06	0	44	0	4870635520	13	4019
2026-01-26 15:33:35.87	335.88	8.80	-26.8	-27.9	13.6	1.25e-05	0	45	0	4877975552	13	4113
2026-01-26 15:33:36.87	335.94	8.73	-26.8	-27.9	13.6	6.80e-06	0	44	0	4885315584	13	4115
2026-01-26 15:33:37.87	335.99	8.65	-26.9	-28.1	13.5	1.02e-05	0	44	0	4892655616	13	4164
2026-01-26 15:33:38.87	336.04	8.57	-26.6	-27.7	13.7	4.50e-06	0	45	0	4899995648	13	4042
2026-01-26 15:33:39.88	336.10	8.49	-26.8	-28.0	13.5	2.17e-05	0	44	0	4906287104	13	4140
2026-01-26 15:33:40.88	336.15	8.42	-26.7	-27.8	13.7	6.80e-06	0	44	0	4913627136	13	4078
2026-01-26 15:33:41.88	336.20	8.34	-26.8	-28.0	13.5	6.80e-06	0	44	0	4920967168	13	4139
2026-01-26 15:33:42.88	336.25	8.26	-27.0	-28.4	13.3	2.86e-05	0	44	0	4928307200	13	4238
2026-01-26 15:33:43.88	336.31	8.18	-27.0	-28.4	13.3	1.60e-05	0	44	0	4935647232	13	4236
