passes_logs/2026/01/26/R2M6_AANII_01/R2M6_AANII_01__20260126_092203_SUOMI_NPP_rec.log

#Pass ID: 20260126_092203_SUOMI NPP
#Satellite: SUOMI NPP
#Configuration: NPP
#almurnet v.1.7.20240730
#Start time: 2026-01-26 09:22:03

#Version: 2.2.20231116
#Station: R2M6_AANII_01
#Location: 30.233357 lon 59.946436 lat
#TLE: 1 37849U 11061A   26025.81780576  .00000180  00000+0  10635-3 0  9993
#TLE: 2 37849  98.7822 327.7738 0002159  45.0809 315.0541 14.19529973738242

#Time	Az	El	Level	Level2	SNR	BER	BlckErr	Temp	State	Recorded	gain1	gain2
2026-01-26 09:22:03.86	128.35	7.02	-31.0	-34.8	5.1	1.27e+00	0	41	0	0	23	5572
2026-01-26 09:22:04.85	128.31	7.10	-31.8	-39.0	4.2	1.44e+00	0	41	104	0	24	8194
2026-01-26 09:22:05.85	128.25	7.17	-31.8	-38.6	5.2	7.22e-01	0	41	0	0	24	7856
2026-01-26 09:22:06.86	128.20	7.25	-31.8	-38.7	5.1	6.23e-01	0	41	0	1048576	24	7974
2026-01-26 09:22:07.86	128.15	7.32	-31.6	-37.3	6.0	4.29e-01	0	41	0	3145728	24	6913
2026-01-26 09:22:08.86	128.10	7.39	-31.4	-36.1	6.8	2.49e-01	0	41	0	5242880	24	6183
2026-01-26 09:22:09.86	128.05	7.47	-31.0	-34.8	8.3	1.20e-01	0	41	0	7340032	23	5537
2026-01-26 09:22:10.86	128.00	7.54	-30.7	-33.9	9.4	3.98e-02	0	41	0	9437184	22	5201
2026-01-26 09:22:11.86	127.95	7.62	-30.9	-34.5	8.9	1.59e-02	0	41	0	10485760	22	5471
2026-01-26 09:22:12.86	127.89	7.70	-30.7	-33.6	9.8	1.97e-02	0	42	0	12582912	22	5052
2026-01-26 09:22:13.87	127.84	7.77	-30.2	-32.6	10.8	4.80e-03	0	41	0	14680064	21	4735
2026-01-26 09:22:14.87	127.79	7.85	-30.4	-33.0	10.5	2.57e-03	0	41	0	16777216	21	4903
2026-01-26 09:22:15.87	127.73	7.92	-30.6	-34.1	9.7	3.98e-03	0	41	0	17825792	21	5344
2026-01-26 09:22:16.87	127.68	8.00	-30.6	-34.1	9.7	1.17e-02	0	42	0	19922944	21	5375
2026-01-26 09:22:17.87	127.63	8.08	-30.9	-35.3	8.7	2.80e-02	0	42	0	22020096	21	5971
2026-01-26 09:22:18.88	127.57	8.15	-31.3	-36.4	7.5	8.58e-02	0	42	0	24117248	22	6452
2026-01-26 09:22:19.87	127.52	8.23	-31.6	-37.3	6.5	1.31e-01	0	42	0	26214400	23	6908
2026-01-26 09:22:20.87	127.46	8.31	-31.7	-37.6	6.3	2.60e-01	0	42	0	27262976	23	7112
2026-01-26 09:22:21.88	127.41	8.39	-31.7	-37.5	6.4	2.64e-01	0	42	0	29360128	23	7034
2026-01-26 09:22:22.88	127.35	8.46	-31.4	-36.4	7.1	2.02e-01	0	42	0	31457280	23	6360
2026-01-26 09:22:23.88	127.30	8.54	-31.1	-35.0	8.2	6.27e-02	0	42	0	33554432	23	5616
2026-01-26 09:22:24.89	127.24	8.62	-30.7	-33.8	9.6	1.83e-02	0	42	0	35651584	22	5147
2026-01-26 09:22:25.89	127.18	8.70	-30.4	-32.6	10.5	6.44e-03	0	42	0	36700160	22	4645
2026-01-26 09:22:26.89	127.13	8.78	-30.2	-32.4	11.0	3.05e-03	0	42	0	38797312	21	4652
2026-01-26 09:22:27.90	127.07	8.86	-30.2	-32.6	10.9	1.90e-03	0	42	0	40894464	21	4713
2026-01-26 09:22:28.90	127.01	8.93	-30.0	-31.9	11.4	1.30e-03	0	42	0	42991616	21	4457
2026-01-26 09:22:29.90	126.95	9.01	-30.1	-32.2	11.2	1.70e-03	0	42	0	45088768	21	4564
2026-01-26 09:22:30.90	126.90	9.09	-30.4	-33.0	10.6	2.08e-03	0	42	0	46137344	21	4861
2026-01-26 09:22:31.90	126.84	9.17	-30.5	-33.5	10.3	4.61e-03	0	42	0	48234496	21	5078
2026-01-26 09:22:32.90	126.78	9.25	-31.0	-35.1	9.1	1.24e-02	0	42	0	50331648	21	5825
2026-01-26 09:22:33.90	126.72	9.33	-31.0	-35.1	9.0	2.58e-02	0	42	0	52428800	21	5822
2026-01-26 09:22:34.90	126.66	9.41	-31.3	-36.0	8.0	5.15e-02	0	42	0	53477376	22	6193
2026-01-26 09:22:35.91	126.60	9.49	-31.5	-36.7	7.5	8.11e-02	0	42	0	55574528	22	6548
2026-01-26 09:22:36.91	126.54	9.57	-31.2	-35.5	8.5	7.41e-02	0	42	0	57671680	22	5880
2026-01-26 09:22:37.91	126.48	9.65	-31.0	-34.4	9.3	2.16e-02	0	42	0	59768832	22	5370
2026-01-26 09:22:38.92	126.42	9.74	-30.6	-33.2	10.2	9.19e-03	0	42	0	61865984	22	4832
2026-01-26 09:22:39.93	126.36	9.82	-30.3	-32.1	11.0	3.08e-03	0	42	0	62914560	22	4426
2026-01-26 09:22:40.92	126.30	9.90	-30.2	-32.3	11.3	1.21e-03	0	42	0	65011712	21	4582
2026-01-26 09:22:41.93	126.23	9.98	-30.2	-32.3	11.3	1.23e-03	0	42	0	67108864	21	4588
2026-01-26 09:22:42.93	126.17	10.06	-30.4	-32.9	10.8	1.90e-03	0	42	0	69206016	21	4804
2026-01-26 09:22:43.93	126.11	10.15	-30.1	-32.2	11.4	1.63e-03	0	42	0	71303168	21	4545
2026-01-26 09:22:44.93	126.05	10.23	-30.4	-32.9	10.9	1.50e-03	0	42	0	72351744	21	4820
2026-01-26 09:22:45.93	125.98	10.31	-30.7	-33.9	10.1	5.42e-03	0	42	0	74448896	21	5238
2026-01-26 09:22:46.93	125.92	10.39	-30.8	-34.3	9.8	9.06e-03	0	42	0	76546048	21	5409
2026-01-26 09:22:47.94	125.86	10.48	-31.1	-34.8	9.1	1.63e-02	0	42	0	78643200	22	5562
2026-01-26 09:22:48.94	125.79	10.56	-30.9	-34.1	9.6	1.39e-02	0	42	0	80740352	22	5231
2026-01-26 09:22:49.94	125.73	10.65	-30.6	-33.1	10.4	9.14e-03	0	42	0	81788928	22	4801
2026-01-26 09:22:50.95	125.66	10.73	-30.2	-32.2	11.4	2.83e-03	0	42	0	83886080	21	4550
2026-01-26 09:22:51.95	125.60	10.82	-29.9	-31.4	12.0	4.48e-04	0	42	0	85983232	21	4275
2026-01-26 09:22:52.96	125.53	10.90	-29.7	-31.3	12.4	1.43e-04	0	42	0	88080384	20	4312
2026-01-26 09:22:53.96	125.46	10.99	-29.7	-31.2	12.4	1.17e-04	0	42	0	90177536	20	4300
2026-01-26 09:22:54.96	125.40	11.07	-29.6	-30.8	12.7	9.53e-05	0	42	0	91226112	20	4162
2026-01-26 09:22:55.96	125.33	11.16	-29.7	-31.3	12.5	5.56e-05	0	42	0	93323264	20	4297
2026-01-26 09:22:56.96	125.26	11.24	-29.8	-31.5	12.3	1.51e-04	0	42	0	95420416	20	4373
2026-01-26 09:22:57.97	125.19	11.33	-30.3	-33.0	11.3	7.15e-04	0	43	0	97517568	20	4904
2026-01-26 09:22:58.96	125.12	11.41	-30.4	-33.2	11.1	1.60e-03	0	43	0	99614720	20	5002
2026-01-26 09:22:59.96	125.06	11.50	-30.7	-33.8	10.3	3.17e-03	0	42	0	100663296	21	5157
2026-01-26 09:23:00.97	124.99	11.59	-30.6	-33.6	10.6	4.75e-03	0	43	0	102760448	21	5050
2026-01-26 09:23:01.97	124.92	11.67	-30.5	-33.1	10.9	3.28e-03	0	42	0	104857600	21	4854
2026-01-26 09:23:02.97	124.85	11.76	-30.4	-32.8	11.1	1.84e-03	0	43	0	106954752	21	4736
2026-01-26 09:23:03.97	124.78	11.85	-30.5	-33.0	10.9	1.93e-03	0	42	0	108003328	21	4819
2026-01-26 09:23:04.97	124.70	11.94	-30.1	-31.8	11.9	7.89e-04	0	43	0	110100480	21	4355
2026-01-26 09:23:05.98	124.63	12.02	-29.9	-31.2	12.3	2.37e-04	0	43	0	112197632	21	4183
2026-01-26 09:23:06.98	124.56	12.11	-29.9	-31.0	12.4	1.53e-04	0	43	0	114294784	21	4129
2026-01-26 09:23:07.99	124.49	12.20	-29.9	-31.2	12.3	1.81e-04	0	43	0	116391936	21	4188
2026-01-26 09:23:09.00	124.41	12.29	-29.9	-31.1	12.3	2.14e-04	0	43	0	117440512	21	4159
2026-01-26 09:23:10.01	124.34	12.38	-30.3	-32.3	11.5	3.94e-04	0	43	0	119537664	21	4565
2026-01-26 09:23:11.02	124.27	12.47	-30.2	-32.2	11.6	7.97e-04	0	43	0	121634816	21	4505
2026-01-26 09:23:12.02	124.19	12.56	-30.4	-32.6	11.3	1.03e-03	0	42	0	123731968	21	4683
2026-01-26 09:23:13.02	124.12	12.65	-30.3	-32.5	11.4	1.02e-03	0	43	0	125829120	21	4617
2026-01-26 09:23:14.03	124.04	12.74	-30.1	-31.9	11.9	5.51e-04	0	43	0	126877696	21	4407
2026-01-26 09:23:15.03	123.97	12.83	-30.0	-31.4	12.2	2.13e-04	0	43	0	128974848	21	4234
2026-01-26 09:23:16.03	123.89	12.92	-29.7	-31.1	12.8	1.04e-04	0	43	0	131072000	20	4241
2026-01-26 09:23:17.04	123.81	13.02	-29.7	-31.2	12.7	8.92e-05	0	43	0	133169152	20	4265
2026-01-26 09:23:18.04	123.74	13.11	-29.6	-30.8	12.9	6.79e-05	0	43	0	135266304	20	4149
2026-01-26 09:23:19.04	123.66	13.20	-29.7	-31.1	12.8	4.42e-05	0	43	0	136314880	20	4236
2026-01-26 09:23:20.05	123.58	13.29	-29.7	-31.1	12.8	4.88e-05	0	43	0	138412032	20	4249
2026-01-26 09:23:21.05	123.50	13.38	-29.8	-31.3	12.6	1.01e-04	0	43	0	140509184	20	4305
2026-01-26 09:23:22.06	123.42	13.48	-29.8	-31.3	12.7	7.78e-05	0	43	0	142606336	20	4286
2026-01-26 09:23:23.06	123.34	13.57	-29.9	-31.8	12.4	8.69e-05	0	43	0	144703488	20	4469
2026-01-26 09:23:24.06	123.26	13.66	-29.9	-31.6	12.5	1.54e-04	0	43	0	145752064	20	4387
2026-01-26 09:23:25.06	123.18	13.76	-29.8	-31.4	12.7	9.30e-05	0	43	0	147849216	20	4326
2026-01-26 09:23:26.06	123.10	13.85	-30.2	-32.5	11.8	2.59e-04	0	43	0	149946368	20	4707
2026-01-26 09:23:27.06	123.02	13.94	-30.1	-32.2	12.2	2.20e-04	0	43	0	152043520	20	4566
2026-01-26 09:23:28.07	122.94	14.04	-30.1	-32.1	12.3	2.34e-04	0	43	0	154140672	20	4558
2026-01-26 09:23:29.07	122.85	14.13	-30.0	-31.7	12.5	1.44e-04	0	43	0	155189248	20	4414
2026-01-26 09:23:30.08	122.77	14.23	-30.2	-32.4	12.0	1.81e-04	0	43	0	157286400	20	4628
2026-01-26 09:23:31.08	122.69	14.32	-30.1	-32.1	12.3	1.29e-04	0	43	0	159383552	20	4541
2026-01-26 09:23:32.08	122.60	14.42	-30.2	-32.3	12.1	2.20e-04	0	43	0	161480704	20	4612
2026-01-26 09:23:33.09	122.52	14.52	-29.9	-31.6	12.6	1.37e-04	0	43	0	163577856	20	4380
2026-01-26 09:23:34.09	122.43	14.61	-30.0	-32.0	12.3	1.86e-04	0	43	0	164626432	20	4486
2026-01-26 09:23:35.09	122.34	14.71	-29.7	-30.9	13.1	6.94e-05	0	43	0	166723584	20	4150
2026-01-26 09:23:36.09	122.26	14.81	-29.6	-30.6	13.3	1.14e-05	0	43	0	168820736	20	4063
2026-01-26 09:23:37.09	122.17	14.90	-29.6	-30.6	13.3	1.75e-05	0	43	0	170917888	20	4058
2026-01-26 09:23:38.09	122.08	15.00	-29.5	-30.4	13.5	1.37e-05	0	43	0	171966464	20	3987
2026-01-26 09:23:39.09	121.99	15.10	-29.7	-30.9	13.2	3.50e-05	0	43	0	174063616	20	4125
2026-01-26 09:23:40.09	121.91	15.20	-29.7	-31.0	13.1	2.21e-05	0	43	0	176160768	20	4168
2026-01-26 09:23:41.10	121.81	15.30	-29.8	-31.1	13.1	3.28e-05	0	43	0	178257920	20	4200
2026-01-26 09:23:42.10	121.72	15.40	-29.9	-31.4	12.8	4.80e-05	0	43	0	180355072	20	4283
2026-01-26 09:23:43.10	121.63	15.49	-29.8	-31.1	13.0	4.95e-05	0	43	0	181403648	20	4191
2026-01-26 09:23:44.11	121.54	15.59	-30.0	-31.9	12.6	2.51e-05	0	43	0	183500800	20	4449
2026-01-26 09:23:45.11	121.45	15.69	-29.8	-31.3	12.9	5.87e-05	0	43	0	185597952	20	4274
2026-01-26 09:23:46.11	121.36	15.79	-29.6	-30.7	13.3	2.21e-05	0	43	0	187695104	20	4079
2026-01-26 09:23:47.11	121.26	15.90	-29.7	-31.0	13.2	1.44e-05	0	43	0	189792256	20	4174
2026-01-26 09:23:48.11	121.17	16.00	-29.8	-31.3	13.0	2.97e-05	0	43	0	190840832	20	4269
2026-01-26 09:23:49.11	121.07	16.10	-29.9	-31.5	12.8	4.95e-05	0	43	0	192937984	20	4338
2026-01-26 09:23:50.12	120.98	16.20	-30.1	-32.0	12.5	1.12e-04	0	43	0	195035136	20	4503
2026-01-26 09:23:51.11	120.88	16.30	-30.2	-32.5	12.1	2.01e-04	0	43	0	197132288	20	4683
2026-01-26 09:23:52.12	120.79	16.40	-30.2	-32.5	12.1	1.54e-04	0	43	0	199229440	20	4672
2026-01-26 09:23:53.12	120.69	16.51	-29.9	-31.5	12.8	6.02e-05	0	43	0	200278016	20	4336
2026-01-26 09:23:54.12	120.59	16.61	-29.8	-31.4	12.9	4.11e-05	0	43	0	202375168	20	4303
2026-01-26 09:23:55.12	120.49	16.71	-29.9	-31.7	12.8	3.50e-05	0	43	0	204472320	20	4387
2026-01-26 09:23:56.11	120.39	16.81	-29.7	-30.9	13.2	2.74e-05	0	43	0	206569472	20	4162
2026-01-26 09:23:57.11	120.29	16.92	-29.7	-30.9	13.2	2.28e-05	0	43	0	208666624	20	4158
2026-01-26 09:23:58.12	120.19	17.02	-30.0	-31.8	12.7	5.64e-05	0	43	0	209715200	20	4434
2026-01-26 09:23:59.12	120.09	17.13	-29.9	-31.4	12.9	5.18e-05	0	43	0	211812352	20	4297
2026-01-26 09:24:00.13	119.99	17.23	-30.0	-31.8	12.7	3.35e-05	0	43	0	213909504	20	4428
2026-01-26 09:24:01.13	119.88	17.34	-30.0	-31.9	12.6	9.84e-05	0	43	0	216006656	20	4466
2026-01-26 09:24:02.14	119.78	17.45	-30.0	-31.7	12.6	1.10e-04	0	43	0	217055232	20	4388
2026-01-26 09:24:03.14	119.67	17.55	-29.8	-31.1	13.1	3.66e-05	0	43	0	219152384	20	4197
2026-01-26 09:24:04.14	119.57	17.66	-29.7	-30.9	13.3	2.51e-05	0	43	0	221249536	20	4146
2026-01-26 09:24:05.14	119.46	17.76	-29.5	-30.3	13.7	1.37e-05	0	43	0	223346688	20	3966
2026-01-26 09:24:06.15	119.36	17.87	-29.7	-31.0	13.2	2.28e-05	0	43	0	225443840	20	4179
2026-01-26 09:24:07.15	119.25	17.98	-29.8	-31.1	13.2	2.59e-05	0	43	0	226492416	20	4202
2026-01-26 09:24:08.16	119.14	18.09	-30.1	-32.0	12.6	3.28e-05	0	43	0	228589568	20	4487
2026-01-26 09:24:09.16	119.03	18.20	-30.0	-31.8	12.7	5.64e-05	0	43	0	230686720	20	4406
2026-01-26 09:24:10.16	118.92	18.31	-30.0	-31.9	12.6	1.07e-04	0	43	0	232783872	20	4460
2026-01-26 09:24:11.16	118.81	18.41	-29.9	-31.5	12.9	5.49e-05	0	43	0	234881024	20	4327
2026-01-26 09:24:12.17	118.70	18.52	-29.9	-31.4	13.0	4.19e-05	0	43	0	235929600	20	4307
2026-01-26 09:24:13.17	118.58	18.63	-29.8	-31.1	13.2	3.28e-05	0	43	0	238026752	20	4203
2026-01-26 09:24:14.17	118.47	18.74	-29.7	-31.0	13.3	2.44e-05	0	43	0	240123904	20	4164
2026-01-26 09:24:15.16	118.36	18.85	-29.7	-31.0	13.2	1.22e-05	0	43	0	242221056	20	4183
2026-01-26 09:24:16.17	118.24	18.97	-29.9	-31.5	12.9	2.74e-05	0	43	0	244318208	20	4331
2026-01-26 09:24:17.18	118.12	19.08	-29.8	-31.2	13.1	3.12e-05	0	43	0	245366784	20	4238
2026-01-26 09:24:18.19	118.01	19.19	-29.9	-31.5	12.9	2.05e-05	0	43	0	247463936	20	4342
2026-01-26 09:24:19.19	117.89	19.30	-29.8	-31.3	13.1	2.28e-05	0	43	0	249561088	20	4260
2026-01-26 09:24:20.20	117.77	19.42	-29.7	-30.9	13.4	1.60e-05	0	43	0	251658240	20	4135
2026-01-26 09:24:21.21	117.65	19.53	-29.4	-30.2	13.8	6.80e-06	0	43	0	253755392	20	3921
2026-01-26 09:24:22.21	117.53	19.64	-29.6	-30.6	13.6	1.06e-05	0	43	0	254803968	20	4047
2026-01-26 09:24:23.21	117.41	19.76	-29.8	-31.3	13.1	3.89e-05	0	43	0	256901120	20	4258
2026-01-26 09:24:24.22	117.28	19.87	-29.8	-31.2	13.2	1.83e-05	0	43	0	258998272	20	4232
2026-01-26 09:24:25.22	117.16	19.98	-29.9	-31.7	12.8	4.50e-05	0	43	0	261095424	20	4399
2026-01-26 09:24:26.22	117.04	20.10	-30.2	-32.4	12.3	1.75e-04	0	43	0	263192576	20	4655
2026-01-26 09:24:27.23	116.91	20.22	-30.0	-32.0	12.6	1.65e-04	0	43	0	264241152	20	4502
2026-01-26 09:24:28.23	116.79	20.33	-29.9	-31.7	12.9	6.86e-05	0	43	0	266338304	20	4383
2026-01-26 09:24:29.24	116.66	20.45	-29.8	-31.2	13.2	5.41e-05	0	43	0	268435456	20	4241
2026-01-26 09:24:30.23	116.53	20.56	-29.9	-31.4	13.0	2.82e-05	0	43	0	270532608	20	4302
2026-01-26 09:24:31.24	116.40	20.68	-30.0	-31.8	12.8	3.58e-05	0	43	0	271581184	20	4411
2026-01-26 09:24:32.24	116.27	20.80	-30.2	-32.5	12.3	1.18e-04	0	43	0	273678336	20	4655
2026-01-26 09:24:33.25	116.14	20.92	-30.3	-32.6	12.2	1.82e-04	0	43	0	275775488	20	4700
2026-01-26 09:24:34.25	116.01	21.03	-30.5	-32.7	11.8	3.65e-04	0	43	0	277872640	21	4629
2026-01-26 09:24:35.26	115.87	21.15	-30.2	-31.9	12.4	2.49e-04	0	43	0	279969792	21	4369
2026-01-26 09:24:36.27	115.74	21.27	-30.0	-31.2	12.9	5.64e-05	0	43	0	282066944	21	4129
2026-01-26 09:24:37.27	115.60	21.39	-30.0	-31.2	12.9	6.86e-05	0	43	0	283115520	21	4141
2026-01-26 09:24:38.27	115.47	21.51	-30.0	-31.2	12.9	4.73e-05	0	43	0	285212672	21	4134
2026-01-26 09:24:39.27	115.33	21.63	-30.1	-31.4	12.7	3.50e-05	0	43	0	287309824	21	4212
2026-01-26 09:24:40.28	115.19	21.75	-30.1	-31.5	12.7	5.87e-05	0	43	0	289406976	21	4242
2026-01-26 09:24:41.27	115.05	21.87	-30.2	-31.7	12.5	8.23e-05	0	43	0	290455552	21	4301
2026-01-26 09:24:42.27	114.91	21.99	-30.0	-31.0	13.0	7.93e-05	0	43	0	292552704	21	4076
2026-01-26 09:24:43.27	114.77	22.11	-29.9	-31.0	13.1	3.89e-05	0	43	0	294649856	21	4075
2026-01-26 09:24:44.27	114.63	22.23	-30.1	-31.5	12.7	3.81e-05	0	43	0	296747008	21	4229
2026-01-26 09:24:45.27	114.49	22.36	-30.2	-31.9	12.5	1.11e-04	0	43	0	298844160	21	4334
2026-01-26 09:24:46.27	114.34	22.48	-30.4	-32.2	12.3	9.76e-05	0	43	0	299892736	21	4440
2026-01-26 09:24:47.28	114.19	22.60	-30.7	-33.0	11.7	5.49e-04	0	44	0	301989888	21	4737
2026-01-26 09:24:48.28	114.05	22.72	-30.7	-33.3	11.6	4.16e-04	0	44	0	304087040	21	4827
2026-01-26 09:24:49.29	113.90	22.85	-30.7	-33.1	11.6	8.00e-04	0	43	0	306184192	21	4771
2026-01-26 09:24:50.29	113.75	22.97	-30.3	-31.9	12.5	3.76e-04	0	43	0	308281344	21	4337
2026-01-26 09:24:51.30	113.59	23.10	-30.2	-31.7	12.6	1.33e-04	0	43	0	309329920	21	4274
2026-01-26 09:24:52.30	113.44	23.22	-30.3	-31.9	12.6	1.46e-04	0	43	0	311427072	21	4320
2026-01-26 09:24:53.30	113.29	23.35	-30.2	-31.6	12.8	9.23e-05	0	43	0	313524224	21	4235
2026-01-26 09:24:54.30	113.13	23.47	-30.2	-31.6	12.8	5.79e-05	0	43	0	315621376	21	4223
2026-01-26 09:24:55.31	112.98	23.60	-30.4	-32.2	12.4	7.47e-05	0	44	0	317718528	21	4435
2026-01-26 09:24:56.31	112.82	23.73	-30.4	-32.2	12.4	9.61e-05	0	43	0	318767104	21	4443
2026-01-26 09:24:57.31	112.66	23.85	-30.2	-31.7	12.7	1.01e-04	0	43	0	320864256	21	4273
2026-01-26 09:24:58.32	112.50	23.98	-30.0	-31.0	13.2	1.16e-04	0	43	0	322961408	21	4048
2026-01-26 09:24:59.31	112.34	24.11	-30.1	-31.4	12.9	7.93e-05	0	43	0	325058560	21	4168
2026-01-26 09:25:00.31	112.18	24.23	-30.1	-31.2	13.1	2.44e-05	0	43	0	327155712	21	4084
2026-01-26 09:25:01.32	112.01	24.36	-30.2	-32.1	12.8	2.67e-05	0	43	0	328204288	20	4482
2026-01-26 09:25:02.32	111.85	24.49	-30.3	-32.3	12.8	8.16e-05	0	44	0	330301440	20	4535
2026-01-26 09:25:03.33	111.68	24.62	-30.3	-32.2	12.8	8.01e-05	0	43	0	332398592	20	4504
2026-01-26 09:25:04.33	111.51	24.75	-30.2	-32.1	12.9	3.96e-05	0	44	0	334495744	20	4460
2026-01-26 09:25:05.33	111.34	24.88	-30.0	-31.6	13.2	3.81e-05	0	43	0	335544320	20	4316
2026-01-26 09:25:06.33	111.17	25.01	-29.6	-30.4	13.9	1.83e-05	0	43	0	337641472	20	3959
2026-01-26 09:25:07.34	111.00	25.14	-29.9	-31.1	13.5	1.22e-05	0	44	0	339738624	20	4152
2026-01-26 09:25:08.34	110.83	25.27	-29.9	-31.2	13.4	1.14e-05	0	43	0	341835776	20	4186
2026-01-26 09:25:09.35	110.65	25.40	-30.1	-31.7	13.1	9.10e-06	0	43	0	343932928	20	4354
2026-01-26 09:25:10.35	110.47	25.54	-30.2	-31.9	13.0	3.58e-05	0	43	0	344981504	20	4412
2026-01-26 09:25:11.36	110.29	25.67	-29.9	-31.2	13.4	1.06e-05	0	43	0	347078656	20	4188
2026-01-26 09:25:12.36	110.11	25.80	-29.6	-30.6	13.8	2.20e-06	0	43	0	349175808	20	4036
2026-01-26 09:25:13.36	109.93	25.93	-29.6	-30.7	13.7	9.10e-06	0	44	0	351272960	20	4058
2026-01-26 09:25:14.37	109.75	26.07	-29.5	-30.3	14.0	3.80e-06	0	44	0	353370112	20	3932
2026-01-26 09:25:15.36	109.57	26.20	-29.7	-30.8	13.6	1.06e-05	0	44	0	354418688	20	4106
2026-01-26 09:25:16.36	109.38	26.33	-29.9	-31.5	13.2	8.30e-06	0	44	0	356515840	20	4297
2026-01-26 09:25:17.37	109.19	26.47	-30.3	-32.4	12.6	4.19e-05	0	43	0	358612992	20	4626
2026-01-26 09:25:18.38	109.00	26.60	-30.3	-32.5	12.5	1.27e-04	0	44	0	360710144	20	4661
2026-01-26 09:25:19.38	108.81	26.74	-30.5	-33.1	12.2	1.56e-04	0	44	0	362807296	20	4833
2026-01-26 09:25:20.38	108.62	26.87	-30.5	-32.5	12.2	2.88e-04	0	44	0	363855872	21	4560
2026-01-26 09:25:21.39	108.42	27.01	-30.4	-32.4	12.3	2.52e-04	0	44	0	365953024	21	4500
2026-01-26 09:25:22.39	108.23	27.14	-30.4	-32.3	12.3	3.17e-04	0	44	0	368050176	21	4482
2026-01-26 09:25:23.40	108.03	27.28	-30.7	-33.2	11.8	5.45e-04	0	43	0	370147328	21	4782
2026-01-26 09:25:24.41	107.83	27.42	-30.8	-33.6	11.4	7.73e-04	0	44	0	372244480	21	4946
2026-01-26 09:25:25.41	107.63	27.55	-30.9	-33.3	11.3	8.99e-04	0	43	0	373293056	22	4755
2026-01-26 09:25:26.41	107.43	27.69	-30.7	-32.5	11.9	6.49e-04	0	43	0	375390208	22	4474
2026-01-26 09:25:27.42	107.22	27.83	-30.6	-32.4	11.9	3.71e-04	0	43	0	377487360	22	4409
2026-01-26 09:25:28.42	107.01	27.96	-30.8	-33.1	11.5	5.05e-04	0	44	0	379584512	22	4672
2026-01-26 09:25:29.42	106.81	28.10	-31.1	-33.8	11.0	1.46e-03	0	44	0	381681664	22	4941
2026-01-26 09:25:30.43	106.59	28.24	-30.9	-33.4	11.3	1.42e-03	0	43	0	382730240	22	4782
2026-01-26 09:25:31.42	106.39	28.37	-30.9	-33.3	11.4	1.96e-03	0	44	0	384827392	22	4737
2026-01-26 09:25:32.43	106.17	28.51	-31.0	-33.8	11.0	1.80e-03	0	44	0	386924544	22	4928
2026-01-26 09:25:33.43	105.96	28.65	-31.3	-34.7	10.4	2.29e-03	0	44	0	389021696	22	5322
2026-01-26 09:25:34.43	105.74	28.79	-31.5	-35.2	10.0	5.97e-03	0	44	0	391118848	22	5550
2026-01-26 09:25:35.43	105.52	28.93	-31.4	-34.5	10.1	8.22e-03	0	44	0	392167424	23	5128
2026-01-26 09:25:36.43	105.30	29.07	-31.6	-35.0	9.7	7.54e-03	0	43	0	394264576	23	5364
2026-01-26 09:25:37.44	105.07	29.21	-31.3	-34.0	10.5	5.82e-03	0	44	0	396361728	23	4939
2026-01-26 09:25:38.43	104.85	29.35	-31.1	-33.5	10.9	1.97e-03	0	44	0	398458880	23	4746
2026-01-26 09:25:39.44	104.62	29.49	-31.4	-34.2	10.3	3.66e-03	0	43	0	399507456	23	5021
2026-01-26 09:25:40.45	104.39	29.63	-31.6	-35.3	9.4	9.54e-03	0	44	0	401604608	23	5511
2026-01-26 09:25:41.45	104.16	29.77	-31.8	-35.8	9.2	1.85e-02	0	44	0	403701760	23	5746
2026-01-26 09:25:42.44	103.93	29.91	-31.7	-35.4	9.5	1.80e-02	0	44	0	405798912	23	5525
2026-01-26 09:25:43.45	103.70	30.05	-31.5	-34.8	10.0	8.98e-03	0	43	0	407896064	23	5263
2026-01-26 09:25:44.46	103.46	30.19	-31.4	-34.4	10.3	7.57e-03	0	44	0	408944640	23	5070
2026-01-26 09:25:45.46	103.22	30.33	-31.3	-34.0	10.6	3.35e-03	0	43	0	411041792	23	4911
2026-01-26 09:25:46.47	102.97	30.47	-31.5	-34.4	10.3	3.50e-03	0	44	0	413138944	23	5081
2026-01-26 09:25:47.48	102.73	30.61	-31.2	-33.6	11.0	1.93e-03	0	44	0	415236096	23	4728
2026-01-26 09:25:48.48	102.48	30.75	-31.0	-33.0	11.3	1.23e-03	0	43	0	417333248	23	4526
2026-01-26 09:25:49.48	102.24	30.89	-31.0	-33.0	11.4	1.15e-03	0	44	0	418381824	23	4490
2026-01-26 09:25:50.48	101.99	31.03	-31.0	-32.9	11.5	7.32e-04	0	44	0	420478976	23	4487
2026-01-26 09:25:51.48	101.74	31.17	-31.2	-33.5	11.0	1.13e-03	0	43	0	422576128	23	4692
2026-01-26 09:25:52.49	101.48	31.32	-31.4	-34.1	10.6	2.42e-03	0	44	0	424673280	23	4924
2026-01-26 09:25:53.49	101.22	31.46	-31.4	-34.3	10.4	4.79e-03	0	44	0	426770432	23	5004
2026-01-26 09:25:54.49	100.97	31.60	-31.3	-33.9	10.7	2.86e-03	0	44	0	427819008	23	4836
2026-01-26 09:25:55.50	100.70	31.74	-31.2	-33.5	11.0	1.04e-03	0	44	0	429916160	23	4678
2026-01-26 09:25:56.50	100.44	31.88	-31.3	-34.0	10.7	2.19e-03	0	44	0	432013312	23	4904
2026-01-26 09:25:57.51	100.17	32.02	-31.2	-33.5	11.0	4.08e-03	0	44	0	434110464	23	4705
2026-01-26 09:25:58.51	99.90	32.16	-31.1	-33.4	11.0	1.62e-03	0	44	0	436207616	23	4687
2026-01-26 09:25:59.51	99.63	32.31	-31.0	-33.0	11.3	1.31e-03	0	44	0	437256192	23	4529
2026-01-26 09:26:00.51	99.36	32.45	-31.0	-33.0	11.4	8.84e-04	0	44	0	439353344	23	4519
2026-01-26 09:26:01.52	99.09	32.59	-31.1	-33.2	11.3	8.83e-04	0	44	0	441450496	23	4578
2026-01-26 09:26:02.52	98.81	32.73	-31.0	-32.9	11.4	1.40e-03	0	44	0	443547648	23	4484
2026-01-26 09:26:03.53	98.53	32.87	-30.9	-32.7	11.5	1.35e-03	0	44	0	445644800	23	4432
2026-01-26 09:26:04.53	98.24	33.01	-30.9	-32.5	11.7	6.97e-04	0	44	0	446693376	23	4344
2026-01-26 09:26:05.53	97.96	33.15	-31.0	-33.0	11.4	6.58e-04	0	44	0	448790528	23	4513
2026-01-26 09:26:06.53	97.67	33.29	-30.9	-32.6	11.7	7.91e-04	0	43	0	450887680	23	4364
2026-01-26 09:26:07.53	97.38	33.43	-30.8	-32.9	11.9	4.39e-04	0	44	0	452984832	22	4579
2026-01-26 09:26:08.54	97.09	33.57	-30.7	-32.6	12.0	4.44e-04	0	44	0	454033408	22	4478
2026-01-26 09:26:09.54	96.79	33.71	-30.6	-32.1	12.4	2.17e-04	0	44	0	456130560	22	4292
2026-01-26 09:26:10.53	96.50	33.85	-30.6	-32.3	12.3	1.26e-04	0	44	0	458227712	22	4348
2026-01-26 09:26:11.54	96.20	33.99	-30.7	-32.4	12.3	1.91e-04	0	44	0	460324864	22	4373
2026-01-26 09:26:12.54	95.90	34.13	-30.5	-31.9	12.5	1.72e-04	0	44	0	462422016	22	4236
2026-01-26 09:26:13.54	95.59	34.26	-30.6	-32.1	12.4	2.51e-04	0	44	0	463470592	22	4286
2026-01-26 09:26:14.55	95.28	34.40	-30.5	-31.9	12.5	1.98e-04	0	44	0	465567744	22	4236
2026-01-26 09:26:15.55	94.97	34.54	-30.6	-32.2	12.4	7.93e-05	0	44	0	467664896	22	4316
2026-01-26 09:26:16.55	94.66	34.68	-30.8	-32.8	11.9	1.58e-04	0	44	0	469762048	22	4517
2026-01-26 09:26:17.56	94.34	34.82	-31.2	-34.1	11.0	6.86e-04	0	44	0	471859200	22	5028
2026-01-26 09:26:18.56	94.02	34.95	-31.1	-33.7	11.2	1.49e-03	0	44	0	472907776	22	4874
2026-01-26 09:26:19.56	93.70	35.09	-31.4	-34.2	10.5	4.43e-03	0	44	0	475004928	23	4985
2026-01-26 09:26:20.57	93.38	35.23	-31.3	-34.2	10.5	4.88e-03	0	44	0	477102080	23	4985
2026-01-26 09:26:21.57	93.05	35.36	-31.6	-35.3	9.6	8.61e-03	0	44	0	479199232	23	5499
2026-01-26 09:26:22.58	92.72	35.50	-31.8	-36.2	8.9	2.43e-02	0	44	0	481296384	23	5954
2026-01-26 09:26:23.58	92.39	35.63	-32.0	-36.2	8.3	4.21e-02	0	44	0	482344960	24	5891
2026-01-26 09:26:24.59	92.05	35.77	-31.8	-35.4	9.1	3.80e-02	0	44	0	484442112	24	5500
2026-01-26 09:26:25.58	91.72	35.90	-31.8	-35.3	9.2	1.71e-02	0	44	0	486539264	24	5413
2026-01-26 09:26:26.58	91.38	36.03	-32.0	-36.1	8.7	2.57e-02	0	44	0	488636416	24	5767
2026-01-26 09:26:27.59	91.03	36.16	-32.0	-36.3	8.5	5.29e-02	0	43	0	490733568	24	5871
2026-01-26 09:26:28.59	90.68	36.29	-31.8	-35.4	9.2	2.63e-02	0	43	0	491782144	24	5421
2026-01-26 09:26:29.59	90.34	36.42	-31.6	-34.7	9.7	1.32e-02	0	44	0	493879296	24	5157
2026-01-26 09:26:30.60	89.98	36.56	-31.5	-34.2	10.1	6.69e-03	0	44	0	495976448	24	4918
2026-01-26 09:26:31.60	89.63	36.68	-31.2	-33.7	11.0	3.77e-03	0	44	0	498073600	23	4808
2026-01-26 09:26:32.61	89.27	36.81	-31.3	-34.0	10.6	2.82e-03	0	44	0	499122176	23	4933
2026-01-26 09:26:33.61	88.91	36.94	-31.1	-33.3	11.2	1.95e-03	0	44	0	501219328	23	4658
2026-01-26 09:26:34.62	88.54	37.07	-31.2	-33.8	11.0	1.10e-03	0	44	0	503316480	23	4836
2026-01-26 09:26:35.62	88.18	37.19	-31.4	-34.5	10.2	3.06e-03	0	44	0	505413632	23	5130
2026-01-26 09:26:36.62	87.81	37.32	-31.5	-34.7	10.1	5.62e-03	0	44	0	507510784	23	5215
2026-01-26 09:26:37.62	87.44	37.44	-31.5	-34.7	10.1	7.92e-03	0	44	0	509607936	23	5203
2026-01-26 09:26:38.62	87.07	37.57	-31.4	-34.2	10.5	4.50e-03	0	44	0	510656512	23	5003
2026-01-26 09:26:39.62	86.69	37.69	-31.4	-34.2	10.6	2.32e-03	0	44	0	512753664	23	4968
2026-01-26 09:26:40.62	86.31	37.81	-31.3	-33.7	10.9	2.38e-03	0	44	0	514850816	23	4780
2026-01-26 09:26:41.62	85.93	37.93	-31.6	-34.7	10.3	2.23e-03	0	44	0	516947968	23	5179
2026-01-26 09:26:42.62	85.54	38.05	-31.6	-34.8	10.1	9.25e-03	0	44	0	517996544	23	5231
2026-01-26 09:26:43.62	85.16	38.17	-31.6	-34.9	10.1	5.51e-03	0	44	0	520093696	23	5243
2026-01-26 09:26:44.63	84.76	38.29	-31.7	-35.2	9.9	8.14e-03	0	44	0	522190848	23	5384
2026-01-26 09:26:45.64	84.37	38.40	-31.9	-36.1	9.2	1.07e-02	0	44	0	524288000	23	5798
2026-01-26 09:26:46.64	83.97	38.52	-31.6	-34.8	10.1	1.31e-02	0	44	0	526385152	23	5228
2026-01-26 09:26:47.63	83.57	38.63	-31.1	-33.4	11.2	3.99e-03	0	44	0	527433728	23	4658
2026-01-26 09:26:48.64	83.17	38.74	-31.1	-33.3	11.3	1.34e-03	0	44	0	529530880	23	4628
2026-01-26 09:26:49.64	82.76	38.85	-31.1	-33.4	11.2	8.96e-04	0	43	0	531628032	23	4667
2026-01-26 09:26:50.64	82.36	38.96	-31.0	-32.9	11.5	1.18e-03	0	44	0	533725184	23	4505
2026-01-26 09:26:51.65	81.94	39.07	-30.5	-32.0	12.4	2.68e-04	0	44	0	535822336	22	4297
2026-01-26 09:26:52.65	81.53	39.18	-30.3	-31.9	12.9	5.95e-05	0	44	0	536870912	21	4349
2026-01-26 09:26:53.65	81.12	39.28	-30.0	-31.3	13.2	4.95e-05	0	44	0	538968064	21	4157
2026-01-26 09:26:54.66	80.69	39.39	-29.9	-31.4	13.4	9.10e-06	0	44	0	541065216	20	4285
2026-01-26 09:26:55.66	80.27	39.49	-29.6	-30.7	13.9	3.00e-06	0	44	0	543162368	20	4065
2026-01-26 09:26:56.66	79.85	39.59	-29.7	-30.8	13.8	6.10e-06	0	44	0	544210944	20	4094
2026-01-26 09:26:57.65	79.43	39.69	-30.0	-31.8	13.2	1.06e-05	0	44	0	546308096	20	4397
2026-01-26 09:26:58.66	78.99	39.79	-30.1	-32.0	13.1	4.34e-05	0	44	0	548405248	20	4488
2026-01-26 09:26:59.65	78.57	39.89	-30.2	-32.2	12.9	4.80e-05	0	44	0	550502400	20	4539
2026-01-26 09:27:00.65	78.13	39.98	-30.2	-32.3	12.8	3.58e-05	0	44	0	552599552	20	4563
2026-01-26 09:27:01.66	77.69	40.08	-30.2	-32.0	13.2	1.44e-05	0	44	0	553648128	20	4471
2026-01-26 09:27:02.66	77.25	40.17	-29.7	-30.9	13.9	1.06e-05	0	44	0	555745280	20	4097
2026-01-26 09:27:03.66	76.81	40.26	-29.4	-30.0	14.5	7.00e-07	0	44	0	557842432	20	3839
2026-01-26 09:27:04.67	76.37	40.35	-29.9	-31.3	13.6	7.00e-07	0	44	0	559939584	20	4230
2026-01-26 09:27:05.68	75.91	40.44	-30.1	-31.8	13.4	1.52e-05	0	44	0	562036736	20	4369
2026-01-26 09:27:06.68	75.47	40.52	-30.4	-32.0	12.9	7.01e-05	0	44	0	563085312	21	4351
2026-01-26 09:27:07.68	75.02	40.60	-30.2	-31.6	13.1	3.28e-05	0	44	0	565182464	21	4202
2026-01-26 09:27:08.68	74.56	40.68	-29.9	-30.8	13.7	1.83e-05	0	44	0	567279616	21	3980
2026-01-26 09:27:09.68	74.11	40.76	-30.1	-31.4	13.3	3.80e-06	0	44	0	569376768	21	4155
2026-01-26 09:27:10.69	73.64	40.84	-30.5	-32.4	12.7	2.44e-05	0	44	0	571473920	21	4462
2026-01-26 09:27:11.69	73.19	40.92	-31.0	-33.4	11.7	1.89e-04	0	44	0	572522496	22	4729
2026-01-26 09:27:12.69	72.72	40.99	-31.3	-33.8	11.0	2.72e-03	0	44	0	574619648	23	4787
2026-01-26 09:27:13.70	72.25	41.06	-30.8	-32.3	12.0	5.47e-04	0	44	0	576716800	23	4271
2026-01-26 09:27:14.71	71.78	41.13	-30.3	-31.3	13.0	1.29e-04	0	44	0	578813952	22	4036
2026-01-26 09:27:15.71	71.32	41.20	-30.3	-31.8	13.0	4.50e-05	0	44	0	580911104	21	4292
2026-01-26 09:27:16.70	70.85	41.27	-29.9	-30.9	13.6	1.52e-05	0	44	0	581959680	21	4033
2026-01-26 09:27:17.71	70.37	41.33	-29.9	-30.8	13.6	8.30e-06	0	44	0	584056832	21	3993
2026-01-26 09:27:18.72	69.90	41.39	-30.1	-31.2	13.3	1.67e-05	0	44	0	586153984	21	4100
2026-01-26 09:27:19.72	69.42	41.45	-30.0	-30.9	13.5	9.90e-06	0	44	0	588251136	21	4015
2026-01-26 09:27:20.73	68.94	41.51	-29.5	-30.1	14.4	1.50e-06	0	44	0	590348288	20	3875
2026-01-26 09:27:21.74	68.46	41.56	-29.5	-30.3	14.3	0.00e+00	0	44	0	591396864	20	3924
2026-01-26 09:27:22.75	67.97	41.62	-29.7	-30.8	14.0	6.80e-06	0	44	0	593494016	20	4085
2026-01-26 09:27:23.74	67.49	41.67	-30.0	-31.7	13.5	7.60e-06	0	44	0	595591168	20	4336
2026-01-26 09:27:24.75	67.00	41.72	-29.9	-31.4	13.6	1.37e-05	0	44	0	597688320	20	4254
2026-01-26 09:27:25.76	66.52	41.76	-29.6	-30.6	14.1	5.30e-06	0	44	0	599785472	20	4011
2026-01-26 09:27:26.76	66.03	41.80	-29.4	-30.0	14.4	1.50e-06	0	44	0	600834048	20	3855
2026-01-26 09:27:27.76	65.54	41.85	-29.3	-30.2	14.7	0.00e+00	0	44	0	602931200	19	3971
2026-01-26 09:27:28.76	65.05	41.89	-28.9	-29.0	15.4	0.00e+00	0	44	0	605028352	19	3660
2026-01-26 09:27:29.76	64.56	41.92	-29.0	-30.0	15.2	0.00e+00	0	44	0	607125504	18	4031
2026-01-26 09:27:30.77	64.07	41.96	-29.5	-30.8	14.4	0.00e+00	0	44	0	609222656	19	4167
2026-01-26 09:27:31.77	63.58	41.99	-29.6	-31.0	14.2	2.20e-06	0	44	0	610271232	19	4209
2026-01-26 09:27:32.77	63.08	42.02	-29.8	-31.3	14.2	2.20e-06	0	44	0	612368384	19	4318
2026-01-26 09:27:33.77	62.59	42.04	-29.9	-31.8	13.8	7.00e-07	0	44	0	614465536	19	4459
2026-01-26 09:27:34.77	62.10	42.07	-30.2	-32.3	13.0	1.06e-05	0	44	0	616562688	20	4550
2026-01-26 09:27:35.78	61.59	42.09	-30.1	-31.9	13.2	2.05e-05	0	44	0	618659840	20	4418
2026-01-26 09:27:36.78	61.10	42.11	-30.0	-31.7	13.4	1.44e-05	0	44	0	619708416	20	4348
2026-01-26 09:27:37.79	60.60	42.13	-30.1	-31.9	13.2	2.67e-05	0	44	0	621805568	20	4415
2026-01-26 09:27:38.79	60.10	42.15	-30.5	-32.6	12.4	4.27e-05	0	44	0	623902720	21	4569
2026-01-26 09:27:39.79	59.60	42.16	-30.8	-33.5	11.8	3.81e-04	0	44	0	625999872	21	4915
2026-01-26 09:27:40.80	59.10	42.17	-30.7	-33.1	12.2	2.06e-04	0	44	0	627048448	21	4756
2026-01-26 09:27:41.80	58.60	42.18	-30.6	-32.7	12.3	1.49e-04	0	44	0	629145600	21	4606
2026-01-26 09:27:42.80	58.11	42.18	-30.8	-33.5	11.8	2.76e-04	0	44	0	631242752	21	4902
2026-01-26 09:27:43.81	57.60	42.18	-30.5	-32.4	12.6	2.25e-04	0	44	0	633339904	21	4499
2026-01-26 09:27:44.81	57.10	42.18	-30.2	-31.7	13.0	8.16e-05	0	44	0	635437056	21	4260
2026-01-26 09:27:45.81	56.61	42.18	-30.2	-31.8	13.0	2.44e-05	0	44	0	636485632	21	4301
2026-01-26 09:27:46.82	56.10	42.18	-30.6	-32.8	12.2	1.64e-04	0	44	0	638582784	21	4643
2026-01-26 09:27:47.82	55.61	42.17	-31.1	-33.8	11.2	2.12e-03	0	44	0	640679936	22	4948
2026-01-26 09:27:48.82	55.11	42.16	-31.3	-34.7	10.5	3.42e-03	0	44	0	642777088	22	5339
2026-01-26 09:27:49.82	54.61	42.15	-31.6	-35.3	9.7	9.34e-03	0	44	0	644874240	23	5502
2026-01-26 09:27:50.83	54.11	42.14	-31.7	-35.7	9.4	1.71e-02	0	44	0	645922816	23	5686
2026-01-26 09:27:51.83	53.61	42.12	-31.6	-35.0	10.0	1.01e-02	0	44	0	648019968	23	5343
2026-01-26 09:27:52.84	53.11	42.10	-31.3	-34.0	10.8	3.30e-03	0	44	0	650117120	23	4894
2026-01-26 09:27:53.84	52.62	42.08	-31.8	-35.8	9.3	9.32e-03	0	44	0	652214272	23	5703
2026-01-26 09:27:54.84	52.12	42.05	-31.9	-35.6	9.1	2.01e-02	0	44	0	654311424	24	5528
2026-01-26 09:27:55.83	51.63	42.03	-31.9	-35.8	9.0	3.10e-02	0	44	0	655360000	24	5586
2026-01-26 09:27:56.83	51.14	42.00	-31.7	-35.0	9.9	1.37e-02	0	44	0	657457152	24	5241
2026-01-26 09:27:57.84	50.64	41.97	-31.7	-34.9	9.7	1.18e-02	0	44	0	659554304	24	5215
2026-01-26 09:27:58.84	50.15	41.93	-31.8	-35.5	9.1	1.34e-02	0	44	0	661651456	24	5508
2026-01-26 09:27:59.84	49.66	41.90	-32.0	-36.3	8.4	2.38e-02	0	44	0	663748608	24	5915
2026-01-26 09:28:00.84	49.17	41.86	-32.1	-36.6	8.2	4.88e-02	0	44	0	664797184	24	6061
2026-01-26 09:28:01.83	48.69	41.82	-32.3	-37.7	7.5	9.95e-02	0	44	0	666894336	24	6694
2026-01-26 09:28:02.83	48.21	41.78	-32.2	-37.0	8.0	9.16e-02	0	44	0	668991488	24	6264
2026-01-26 09:28:03.83	47.72	41.73	-32.0	-36.5	8.4	5.95e-02	0	44	0	671088640	24	5989
2026-01-26 09:28:04.83	47.24	41.69	-31.8	-35.6	9.2	4.06e-02	0	44	0	672137216	24	5574
2026-01-26 09:28:05.83	46.76	41.64	-31.6	-35.0	9.5	3.33e-02	0	44	0	674234368	24	5300
2026-01-26 09:28:06.83	46.28	41.59	-31.3	-34.3	10.3	1.60e-02	0	44	0	676331520	23	5089
2026-01-26 09:28:07.83	45.80	41.53	-31.5	-35.5	9.4	1.24e-02	0	44	0	678428672	23	5660
2026-01-26 09:28:08.84	45.31	41.47	-31.5	-35.3	9.4	1.74e-02	0	44	0	680525824	23	5595
2026-01-26 09:28:09.84	44.84	41.42	-31.6	-35.5	9.3	1.53e-02	0	44	0	681574400	23	5671
2026-01-26 09:28:10.84	44.37	41.36	-31.3	-34.5	10.2	4.56e-03	0	44	0	683671552	23	5210
2026-01-26 09:28:11.84	43.89	41.29	-31.3	-34.5	10.1	1.06e-02	0	44	0	685768704	23	5230
2026-01-26 09:28:12.84	43.42	41.23	-30.9	-33.3	10.9	5.66e-03	0	44	0	687865856	23	4710
2026-01-26 09:28:13.85	42.95	41.16	-30.4	-31.9	12.4	8.32e-04	0	44	0	689963008	22	4273
2026-01-26 09:28:14.86	42.48	41.09	-30.4	-31.7	12.6	1.06e-04	0	44	0	691011584	22	4204
2026-01-26 09:28:15.87	42.01	41.02	-30.3	-32.0	12.7	1.16e-04	0	44	0	693108736	21	4385
2026-01-26 09:28:16.87	41.55	40.95	-30.4	-32.2	12.6	6.86e-05	0	44	0	695205888	21	4444
2026-01-26 09:28:17.87	41.09	40.87	-29.9	-30.8	13.6	1.52e-05	0	44	0	697303040	21	4012
2026-01-26 09:28:18.88	40.63	40.80	-29.5	-30.2	14.2	2.20e-06	0	44	0	699400192	20	3919
2026-01-26 09:28:19.88	40.17	40.72	-29.9	-31.2	13.6	2.20e-06	0	44	0	700448768	20	4212
2026-01-26 09:28:20.88	39.72	40.64	-30.1	-31.8	13.3	8.30e-06	0	44	0	702545920	20	4407
2026-01-26 09:28:21.88	39.27	40.56	-30.0	-31.6	13.4	1.52e-05	0	44	0	704643072	20	4312
2026-01-26 09:28:22.89	38.81	40.47	-29.5	-30.3	14.1	6.10e-06	0	44	0	706740224	20	3952
2026-01-26 09:28:23.89	38.37	40.39	-29.1	-29.6	14.9	0.00e+00	0	44	0	708837376	19	3843
2026-01-26 09:28:24.88	37.93	40.30	-28.9	-29.2	15.2	0.00e+00	0	44	0	709885952	19	3734
2026-01-26 09:28:25.89	37.48	40.21	-28.9	-29.8	15.2	7.00e-07	0	44	0	711983104	18	3982
2026-01-26 09:28:26.89	37.04	40.12	-29.1	-30.1	15.0	0.00e+00	0	44	0	714080256	18	4077
2026-01-26 09:28:27.89	36.61	40.03	-29.4	-30.9	14.4	7.00e-07	0	44	0	716177408	18	4294
2026-01-26 09:28:28.89	36.17	39.93	-29.4	-30.9	14.6	1.50e-06	0	44	0	717225984	18	4299
2026-01-26 09:28:29.89	35.74	39.84	-29.1	-30.3	14.8	7.00e-07	0	44	0	719323136	18	4093
2026-01-26 09:28:30.90	35.31	39.74	-29.0	-29.8	15.1	0.00e+00	0	44	0	721420288	18	3967
2026-01-26 09:28:31.90	34.88	39.64	-29.1	-30.1	15.0	0.00e+00	0	44	0	723517440	18	4044
2026-01-26 09:28:32.91	34.46	39.54	-28.5	-28.7	15.8	0.00e+00	0	44	0	725614592	18	3663
2026-01-26 09:28:33.91	34.03	39.44	-28.1	-28.3	16.4	0.00e+00	0	44	0	726663168	17	3657
2026-01-26 09:28:34.91	33.62	39.33	-27.9	-27.8	16.6	0.00e+00	0	44	0	728760320	17	3539
2026-01-26 09:28:35.91	33.20	39.23	-28.5	-29.1	15.8	0.00e+00	0	44	0	730857472	17	3883
2026-01-26 09:28:36.91	32.79	39.12	-29.1	-30.2	14.9	0.00e+00	0	44	0	732954624	18	4081
2026-01-26 09:28:37.90	32.38	39.02	-29.3	-30.7	14.5	0.00e+00	0	44	0	735051776	18	4227
2026-01-26 09:28:38.90	31.98	38.91	-29.1	-30.2	14.8	0.00e+00	0	44	0	736100352	18	4081
2026-01-26 09:28:39.90	31.57	38.80	-29.5	-30.7	14.2	0.00e+00	0	44	0	738197504	19	4139
2026-01-26 09:28:40.90	31.17	38.69	-29.3	-30.1	14.5	0.00e+00	0	44	0	740294656	19	3967
2026-01-26 09:28:41.91	30.77	38.57	-28.9	-29.2	15.2	0.00e+00	0	44	0	742391808	19	3728
2026-01-26 09:28:42.91	30.37	38.46	-28.8	-29.3	15.4	0.00e+00	0	44	0	743440384	18	3833
2026-01-26 09:28:43.92	29.97	38.34	-29.6	-30.8	14.2	0.00e+00	0	44	0	745537536	19	4161
2026-01-26 09:28:44.92	29.58	38.23	-30.0	-31.4	13.5	8.30e-06	0	44	0	747634688	20	4235
2026-01-26 09:28:45.92	29.19	38.11	-30.0	-31.5	13.4	2.51e-05	0	44	0	749731840	20	4295
2026-01-26 09:28:46.92	28.81	37.99	-29.4	-29.8	14.5	3.80e-06	0	44	0	751828992	20	3796
2026-01-26 09:28:47.93	28.42	37.87	-29.1	-29.6	15.0	0.00e+00	0	44	0	753926144	19	3813
2026-01-26 09:28:48.93	28.04	37.75	-28.8	-28.9	15.4	0.00e+00	0	44	0	754974720	19	3636
2026-01-26 09:28:49.93	27.67	37.63	-28.9	-29.7	15.3	0.00e+00	0	44	0	757071872	18	3911
2026-01-26 09:28:50.93	27.29	37.51	-28.7	-28.9	15.7	0.00e+00	0	44	0	759169024	18	3717
2026-01-26 09:28:51.94	26.92	37.38	-29.4	-30.8	14.7	7.00e-07	0	44	0	761266176	18	4217
2026-01-26 09:28:52.95	26.55	37.26	-29.7	-31.1	14.1	0.00e+00	0	44	0	762314752	19	4224
2026-01-26 09:28:53.95	26.18	37.13	-30.7	-32.8	12.3	2.13e-05	0	44	0	764411904	21	4605
2026-01-26 09:28:54.96	25.82	37.00	-30.4	-32.1	12.7	1.68e-04	0	44	0	766509056	21	4382
2026-01-26 09:28:55.96	25.46	36.88	-30.5	-32.2	12.8	8.16e-05	0	44	0	768606208	21	4387
2026-01-26 09:28:56.96	25.10	36.75	-30.3	-31.7	13.1	2.36e-05	0	44	0	770703360	21	4232
2026-01-26 09:28:57.97	24.74	36.62	-31.1	-33.5	11.5	3.74e-04	0	44	0	771751936	22	4754
2026-01-26 09:28:58.97	24.39	36.49	-31.0	-33.2	11.7	5.52e-04	0	44	0	773849088	22	4648
2026-01-26 09:28:59.97	24.05	36.36	-31.0	-33.2	11.7	4.80e-04	0	44	0	775946240	22	4640
2026-01-26 09:29:00.96	23.70	36.23	-30.6	-32.1	12.4	4.82e-04	0	44	0	778043392	22	4249
2026-01-26 09:29:01.96	23.36	36.10	-30.7	-32.4	12.3	2.04e-04	0	44	0	780140544	22	4354
2026-01-26 09:29:02.97	23.02	35.97	-31.1	-33.6	11.4	4.42e-04	0	44	0	781189120	22	4789
2026-01-26 09:29:03.97	22.68	35.84	-31.4	-34.7	10.6	1.60e-03	0	44	0	783286272	22	5229
2026-01-26 09:29:04.97	22.35	35.71	-31.4	-34.3	10.9	2.25e-03	0	44	0	785383424	22	5074
2026-01-26 09:29:05.98	22.01	35.57	-31.1	-33.6	11.4	1.05e-03	0	44	0	787480576	22	4781
2026-01-26 09:29:06.98	21.68	35.44	-31.0	-33.3	11.6	5.77e-04	0	44	0	789577728	22	4665
2026-01-26 09:29:07.99	21.35	35.30	-31.7	-35.2	9.9	2.09e-03	0	44	0	790626304	23	5341
2026-01-26 09:29:08.99	21.03	35.17	-31.4	-33.9	10.8	3.63e-03	0	44	0	792723456	23	4830
2026-01-26 09:29:09.99	20.71	35.03	-30.9	-32.5	11.7	9.89e-04	0	44	0	794820608	23	4328
2026-01-26 09:29:11.00	20.39	34.89	-30.4	-31.6	12.7	1.95e-04	0	44	0	796917760	22	4121
2026-01-26 09:29:12.00	20.07	34.76	-30.5	-31.7	12.7	7.55e-05	0	44	0	799014912	22	4148
2026-01-26 09:29:13.01	19.76	34.62	-30.0	-30.8	13.5	1.90e-05	0	44	0	800063488	21	3972
2026-01-26 09:29:14.01	19.45	34.48	-29.5	-30.1	14.3	3.00e-06	0	44	0	802160640	20	3857
2026-01-26 09:29:15.02	19.14	34.34	-29.1	-29.6	15.0	0.00e+00	0	43	0	804257792	19	3805
2026-01-26 09:29:16.02	18.83	34.21	-29.5	-30.7	14.3	7.00e-07	0	44	0	806354944	19	4101
2026-01-26 09:29:17.03	18.53	34.07	-30.2	-32.0	13.2	2.20e-06	0	44	0	808452096	20	4416
2026-01-26 09:29:18.03	18.23	33.93	-30.8	-33.4	11.8	7.40e-05	0	44	0	809500672	21	4834
2026-01-26 09:29:19.04	17.93	33.79	-31.3	-34.3	10.8	1.86e-03	0	44	0	811597824	22	5072
2026-01-26 09:29:20.04	17.63	33.65	-30.9	-33.1	11.6	8.81e-04	0	43	0	813694976	22	4634
2026-01-26 09:29:21.05	17.34	33.51	-30.4	-31.5	12.7	2.07e-04	0	44	0	815792128	22	4089
2026-01-26 09:29:22.05	17.05	33.37	-30.2	-31.5	13.0	2.89e-05	0	44	0	816840704	21	4182
2026-01-26 09:29:23.06	16.76	33.23	-30.5	-32.3	12.5	6.79e-05	0	44	0	818937856	21	4443
2026-01-26 09:29:24.06	16.48	33.09	-30.8	-33.2	11.9	1.88e-04	0	44	0	821035008	21	4745
2026-01-26 09:29:25.06	16.19	32.95	-31.5	-34.5	10.2	3.33e-03	0	44	0	823132160	23	5077
2026-01-26 09:29:26.06	15.92	32.81	-31.7	-35.4	9.6	5.01e-03	0	44	0	825229312	23	5470
2026-01-26 09:29:27.06	15.64	32.67	-32.3	-37.1	7.9	3.21e-02	0	44	0	827326464	24	6276
2026-01-26 09:29:28.06	15.36	32.53	-32.8	-39.1	6.0	1.17e-01	0	44	0	828375040	25	7500
2026-01-26 09:29:29.06	15.09	32.39	-32.7	-38.9	6.1	3.18e-01	0	44	0	830472192	25	7328
2026-01-26 09:29:30.06	14.82	32.25	-32.0	-35.6	8.5	1.06e-01	0	44	0	832569344	25	5409
2026-01-26 09:29:31.06	14.55	32.11	-31.2	-33.6	10.8	1.34e-02	0	44	0	834666496	23	4712
2026-01-26 09:29:32.08	14.28	31.97	-31.0	-32.8	11.5	6.14e-04	0	44	0	835715072	23	4424
2026-01-26 09:29:33.08	14.02	31.83	-31.1	-33.0	11.3	4.81e-04	0	44	0	837812224	23	4522
2026-01-26 09:29:34.08	13.76	31.69	-31.3	-34.0	10.6	1.03e-03	0	44	0	839909376	23	4876
2026-01-26 09:29:35.08	13.50	31.55	-31.6	-34.9	9.9	3.80e-03	0	44	0	842006528	23	5275
2026-01-26 09:29:36.08	13.25	31.41	-31.5	-34.5	10.2	5.87e-03	0	44	0	844103680	23	5068
2026-01-26 09:29:37.09	12.99	31.27	-31.4	-34.0	10.5	5.23e-03	0	44	0	845152256	23	4903
2026-01-26 09:29:38.09	12.74	31.13	-31.1	-33.3	11.0	2.54e-03	0	44	0	847249408	23	4629
2026-01-26 09:29:39.10	12.49	30.99	-31.0	-32.8	11.4	9.32e-04	0	44	0	849346560	23	4452
2026-01-26 09:29:40.10	12.24	30.85	-31.0	-32.9	11.3	1.12e-03	0	44	0	851443712	23	4483
2026-01-26 09:29:41.10	12.00	30.71	-31.3	-33.8	10.6	1.04e-03	0	44	0	853540864	23	4817
2026-01-26 09:29:42.10	11.75	30.57	-31.0	-33.0	11.3	2.35e-03	0	44	0	854589440	23	4507
2026-01-26 09:29:43.11	11.51	30.43	-31.1	-33.4	11.0	1.69e-03	0	44	0	856686592	23	4653
2026-01-26 09:29:44.11	11.27	30.29	-31.3	-34.0	10.6	2.59e-03	0	44	0	858783744	23	4868
2026-01-26 09:29:45.12	11.03	30.14	-31.5	-34.6	10.2	5.24e-03	0	44	0	860880896	23	5108
2026-01-26 09:29:46.12	10.80	30.01	-31.5	-34.7	10.0	8.91e-03	0	44	0	862978048	23	5172
2026-01-26 09:29:47.13	10.56	29.86	-31.5	-34.4	10.2	4.72e-03	0	44	0	864026624	23	5048
2026-01-26 09:29:48.14	10.33	29.72	-31.3	-33.9	10.6	4.12e-03	0	44	0	866123776	23	4849
2026-01-26 09:29:49.14	10.10	29.59	-31.3	-33.7	10.8	3.07e-03	0	44	0	868220928	23	4768
2026-01-26 09:29:50.14	9.88	29.45	-31.3	-33.9	10.7	3.62e-03	0	44	0	870318080	23	4842
2026-01-26 09:29:51.14	9.65	29.31	-31.3	-33.7	10.8	3.25e-03	0	44	0	872415232	23	4770
2026-01-26 09:29:52.14	9.43	29.17	-31.4	-34.2	10.4	3.74e-03	0	44	0	873463808	23	4959
2026-01-26 09:29:53.14	9.21	29.03	-31.5	-34.6	10.0	5.98e-03	0	44	0	875560960	23	5122
2026-01-26 09:29:54.14	8.99	28.89	-31.6	-34.7	9.9	6.40e-03	0	44	0	877658112	23	5176
2026-01-26 09:29:55.15	8.77	28.75	-31.5	-34.4	10.2	8.79e-03	0	44	0	879755264	23	5053
2026-01-26 09:29:56.15	8.56	28.62	-31.3	-33.8	10.7	3.38e-03	0	44	0	880803840	23	4803
2026-01-26 09:29:57.15	8.34	28.48	-31.4	-34.2	10.5	5.21e-03	0	44	0	882900992	23	4961
2026-01-26 09:29:58.15	8.13	28.34	-31.2	-33.5	11.0	3.56e-03	0	44	0	884998144	23	4682
2026-01-26 09:29:59.15	7.92	28.21	-30.9	-32.5	11.5	8.44e-04	0	44	0	887095296	23	4349
2026-01-26 09:30:00.16	7.71	28.07	-30.8	-32.8	11.7	6.82e-04	0	44	0	889192448	22	4524
2026-01-26 09:30:01.16	7.51	27.93	-31.0	-33.3	11.3	7.66e-04	0	44	0	890241024	22	4719
2026-01-26 09:30:02.17	7.30	27.79	-30.9	-33.1	11.5	8.15e-04	0	44	0	892338176	22	4634
2026-01-26 09:30:03.17	7.10	27.66	-30.7	-32.5	11.9	4.87e-04	0	44	0	894435328	22	4423
2026-01-26 09:30:04.17	6.90	27.52	-30.5	-32.0	12.2	3.01e-04	0	44	0	896532480	22	4268
2026-01-26 09:30:05.18	6.70	27.39	-30.3	-31.5	12.6	1.79e-04	0	44	0	898629632	22	4102
2026-01-26 09:30:06.18	6.50	27.25	-30.5	-32.0	12.2	1.97e-04	0	44	0	899678208	22	4266
2026-01-26 09:30:07.19	6.31	27.12	-30.6	-32.2	12.1	2.64e-04	0	44	0	901775360	22	4337
2026-01-26 09:30:08.19	6.11	26.98	-30.5	-31.8	12.4	1.46e-04	0	44	0	903872512	22	4211
2026-01-26 09:30:09.19	5.92	26.85	-30.3	-31.4	12.6	1.02e-04	0	44	0	905969664	22	4073
2026-01-26 09:30:10.19	5.73	26.71	-30.4	-32.3	12.4	6.17e-05	0	44	0	908066816	21	4455
2026-01-26 09:30:11.19	5.54	26.58	-30.4	-32.1	12.4	1.12e-04	0	44	0	909115392	21	4390
2026-01-26 09:30:12.19	5.36	26.45	-30.3	-31.8	12.6	8.16e-05	0	44	0	911212544	21	4305
2026-01-26 09:30:13.20	5.17	26.31	-30.2	-31.7	12.7	6.02e-05	0	44	0	913309696	21	4261
2026-01-26 09:30:14.20	4.98	26.18	-30.1	-31.4	12.9	4.50e-05	0	44	0	915406848	21	4169
2026-01-26 09:30:15.20	4.80	26.05	-29.8	-31.0	13.5	2.28e-05	0	44	0	917504000	20	4137
2026-01-26 09:30:16.19	4.62	25.92	-29.7	-30.8	13.7	5.30e-06	0	44	0	918552576	20	4064
2026-01-26 09:30:17.20	4.44	25.78	-29.8	-30.9	13.6	8.30e-06	0	44	0	920649728	20	4101
2026-01-26 09:30:18.21	4.26	25.65	-29.9	-31.3	13.4	1.75e-05	0	44	0	922746880	20	4240
2026-01-26 09:30:19.21	4.09	25.52	-30.0	-31.6	13.1	1.29e-05	0	44	0	924844032	20	4302
2026-01-26 09:30:20.21	3.91	25.39	-30.2	-32.2	12.8	3.20e-05	0	44	0	925892608	20	4495
2026-01-26 09:30:21.21	3.74	25.26	-30.3	-32.4	12.6	6.33e-05	0	44	0	927989760	20	4577
2026-01-26 09:30:22.21	3.57	25.13	-30.4	-32.6	12.4	1.63e-04	0	44	0	930086912	20	4642
2026-01-26 09:30:23.20	3.40	25.00	-30.0	-31.7	13.0	4.42e-05	0	44	0	932184064	20	4353
2026-01-26 09:30:24.20	3.23	24.87	-29.9	-31.3	13.2	2.97e-05	0	44	0	934281216	20	4228
2026-01-26 09:30:25.21	3.06	24.74	-29.6	-30.4	13.9	7.60e-06	0	44	0	935329792	20	3948
2026-01-26 09:30:26.21	2.89	24.62	-29.3	-30.1	14.3	2.20e-06	0	44	0	937426944	19	3949
2026-01-26 09:30:27.21	2.73	24.49	-29.2	-29.8	14.6	0.00e+00	0	44	0	939524096	19	3873
2026-01-26 09:30:28.21	2.57	24.36	-29.2	-29.9	14.5	0.00e+00	0	44	0	941621248	19	3899
2026-01-26 09:30:29.21	2.40	24.23	-29.2	-29.9	14.6	7.00e-07	0	44	0	943718400	19	3891
2026-01-26 09:30:30.22	2.24	24.11	-29.8	-31.3	13.6	2.20e-06	0	44	0	944766976	19	4324
2026-01-26 09:30:31.22	2.08	23.98	-29.9	-31.7	13.4	6.80e-06	0	44	0	946864128	19	4450
2026-01-26 09:30:32.21	1.93	23.85	-30.3	-32.3	12.7	3.05e-05	0	44	0	948961280	20	4557
2026-01-26 09:30:33.22	1.77	23.73	-30.2	-32.2	12.6	7.24e-05	0	44	0	951058432	20	4535
2026-01-26 09:30:34.22	1.61	23.60	-30.5	-33.0	12.2	1.21e-04	0	44	0	953155584	20	4787
2026-01-26 09:30:35.22	1.46	23.48	-30.6	-32.7	11.9	3.76e-04	0	44	0	954204160	21	4615
2026-01-26 09:30:36.22	1.30	23.35	-30.5	-32.4	12.2	2.64e-04	0	44	0	956301312	21	4505
2026-01-26 09:30:37.23	1.15	23.23	-30.7	-33.1	11.7	4.62e-04	0	44	0	958398464	21	4746
2026-01-26 09:30:38.23	1.00	23.10	-30.7	-33.0	11.7	5.10e-04	0	44	0	960495616	21	4701
2026-01-26 09:30:39.24	0.85	22.98	-30.8	-33.5	11.3	7.48e-04	0	44	0	962592768	21	4912
2026-01-26 09:30:40.24	0.70	22.85	-30.9	-33.7	11.2	1.25e-03	0	44	0	963641344	21	4990
2026-01-26 09:30:41.25	0.55	22.73	-31.1	-33.7	10.9	2.00e-03	0	44	0	965738496	22	4887
2026-01-26 09:30:42.25	0.41	22.61	-31.3	-34.5	10.3	4.70e-03	0	44	0	967835648	22	5194
2026-01-26 09:30:43.26	0.26	22.49	-31.1	-33.8	10.8	4.53e-03	0	44	0	969932800	22	4921
2026-01-26 09:30:44.26	0.12	22.36	-30.7	-32.8	11.5	1.06e-03	0	44	0	970981376	22	4537
2026-01-26 09:30:45.25	359.98	22.24	-30.5	-32.0	12.0	3.77e-04	0	44	0	973078528	22	4294
2026-01-26 09:30:46.26	359.84	22.12	-30.2	-31.7	12.6	2.45e-04	0	44	0	975175680	21	4258
2026-01-26 09:30:47.27	359.69	22.00	-29.9	-30.9	13.1	5.18e-05	0	44	0	977272832	21	4017
2026-01-26 09:30:48.27	359.55	21.88	-29.9	-30.8	13.2	3.35e-05	0	44	0	979369984	21	3992
2026-01-26 09:30:49.27	359.42	21.76	-29.7	-30.8	13.5	1.67e-05	0	44	0	980418560	20	4086
2026-01-26 09:30:50.27	359.28	21.64	-29.5	-30.4	13.7	3.00e-06	0	44	0	982515712	20	3968
2026-01-26 09:30:51.27	359.14	21.52	-29.5	-30.3	13.8	7.60e-06	0	44	0	984612864	20	3944
2026-01-26 09:30:52.27	359.01	21.40	-29.5	-30.2	13.9	7.60e-06	0	44	0	986710016	20	3899
2026-01-26 09:30:53.27	358.88	21.29	-29.5	-30.2	13.9	3.00e-06	0	44	0	988807168	20	3906
2026-01-26 09:30:54.28	358.74	21.17	-29.5	-30.4	13.8	3.00e-06	0	44	0	989855744	20	3962
2026-01-26 09:30:55.29	358.61	21.05	-29.6	-30.6	13.6	6.10e-06	0	44	0	991952896	20	4036
2026-01-26 09:30:56.28	358.48	20.93	-29.6	-30.6	13.7	6.10e-06	0	44	0	994050048	20	4018
2026-01-26 09:30:57.28	358.35	20.82	-29.7	-30.8	13.5	1.06e-05	0	44	0	996147200	20	4103
2026-01-26 09:30:58.29	358.22	20.70	-29.9	-31.4	13.1	1.75e-05	0	44	0	998244352	20	4261
2026-01-26 09:30:59.29	358.09	20.58	-30.0	-31.8	12.8	3.05e-05	0	44	0	999292928	20	4407
2026-01-26 09:31:00.29	357.97	20.47	-30.1	-31.9	12.8	4.80e-05	0	44	0	1001390080	20	4430
2026-01-26 09:31:01.29	357.84	20.35	-30.1	-32.0	12.7	9.99e-05	0	44	0	1003487232	20	4484
2026-01-26 09:31:02.29	357.72	20.24	-30.1	-32.1	12.6	8.08e-05	0	44	0	1005584384	20	4499
2026-01-26 09:31:03.30	357.59	20.12	-30.0	-31.8	12.8	9.15e-05	0	44	0	1007681536	20	4390
2026-01-26 09:31:04.30	357.47	20.01	-30.1	-32.0	12.6	8.92e-05	0	44	0	1008730112	20	4466
2026-01-26 09:31:05.30	357.35	19.90	-30.1	-32.1	12.5	8.69e-05	0	44	0	1010827264	20	4494
2026-01-26 09:31:06.30	357.23	19.78	-30.2	-32.4	12.4	1.56e-04	0	44	0	1012924416	20	4595
2026-01-26 09:31:07.30	357.11	19.67	-30.0	-31.7	12.8	9.38e-05	0	44	0	1015021568	20	4381
2026-01-26 09:31:08.30	356.99	19.56	-29.9	-31.4	13.0	3.58e-05	0	44	0	1016070144	20	4285
2026-01-26 09:31:09.30	356.87	19.45	-29.9	-31.5	12.9	3.96e-05	0	44	0	1018167296	20	4320
2026-01-26 09:31:10.30	356.75	19.33	-30.0	-31.6	12.9	3.35e-05	0	44	0	1020264448	20	4348
2026-01-26 09:31:11.30	356.64	19.22	-30.1	-32.1	12.5	1.11e-04	0	44	0	1022361600	20	4502
2026-01-26 09:31:12.30	356.52	19.11	-30.4	-32.8	12.1	1.57e-04	0	44	0	1024458752	20	4742
2026-01-26 09:31:13.30	356.41	19.00	-30.4	-33.0	11.9	2.77e-04	0	44	0	1025507328	20	4834
2026-01-26 09:31:14.30	356.29	18.89	-30.5	-32.7	11.7	5.44e-04	0	44	0	1027604480	21	4649
2026-01-26 09:31:15.30	356.18	18.78	-30.6	-33.1	11.5	9.12e-04	0	44	0	1029701632	21	4794
2026-01-26 09:31:16.30	356.07	18.67	-30.6	-33.0	11.5	8.74e-04	0	44	0	1031798784	21	4735
2026-01-26 09:31:17.31	355.96	18.56	-30.6	-33.1	11.4	8.96e-04	0	44	0	1033895936	21	4799
2026-01-26 09:31:18.31	355.85	18.45	-30.6	-32.9	11.6	6.96e-04	0	44	0	1034944512	21	4703
2026-01-26 09:31:19.31	355.74	18.35	-30.6	-32.9	11.6	8.16e-04	0	44	0	1037041664	21	4717
2026-01-26 09:31:20.31	355.63	18.24	-30.5	-32.7	11.7	5.97e-04	0	44	0	1039138816	21	4644
2026-01-26 09:31:21.31	355.52	18.13	-30.5	-32.7	11.7	6.32e-04	0	44	0	1041235968	21	4627
2026-01-26 09:31:22.32	355.41	18.02	-30.6	-32.9	11.5	7.84e-04	0	44	0	1043333120	21	4705
2026-01-26 09:31:23.32	355.31	17.91	-30.4	-32.5	11.8	6.56e-04	0	44	0	1044381696	21	4571
2026-01-26 09:31:24.33	355.20	17.81	-30.4	-32.5	11.7	4.16e-04	0	44	0	1046478848	21	4568
2026-01-26 09:31:25.33	355.10	17.70	-30.5	-32.7	11.7	5.58e-04	0	44	0	1048576000	21	4653
2026-01-26 09:31:26.33	354.99	17.60	-30.4	-32.5	11.8	5.68e-04	0	44	0	1050673152	21	4559
2026-01-26 09:31:27.33	354.89	17.49	-30.4	-32.5	11.8	5.16e-04	0	44	0	1052770304	21	4586
2026-01-26 09:31:28.34	354.78	17.38	-30.4	-32.3	12.0	4.58e-04	0	44	0	1053818880	21	4505
2026-01-26 09:31:29.35	354.68	17.28	-30.2	-31.9	12.2	2.23e-04	0	44	0	1055916032	21	4372
2026-01-26 09:31:30.35	354.58	17.17	-30.2	-31.8	12.3	1.58e-04	0	44	0	1058013184	21	4345
2026-01-26 09:31:31.35	354.48	17.07	-30.3	-32.1	12.1	2.26e-04	0	44	0	1060110336	21	4449
2026-01-26 09:31:32.36	354.38	16.97	-30.3	-32.1	12.1	2.54e-04	0	44	0	1061158912	21	4450
2026-01-26 09:31:33.36	354.28	16.86	-30.2	-31.8	12.2	2.43e-04	0	44	0	1063256064	21	4353
2026-01-26 09:31:34.35	354.18	16.76	-30.2	-31.9	12.2	2.33e-04	0	44	0	1065353216	21	4360
2026-01-26 09:31:35.36	354.08	16.66	-30.2	-31.9	12.2	1.72e-04	0	44	0	1067450368	21	4368
2026-01-26 09:31:36.35	353.99	16.56	-30.2	-32.0	12.1	1.87e-04	0	44	0	1069547520	21	4401
2026-01-26 09:31:37.36	353.89	16.45	-30.3	-32.3	11.9	3.62e-04	0	44	0	1070596096	21	4508
2026-01-26 09:31:38.36	353.80	16.35	-30.3	-32.2	12.0	5.81e-04	0	44	0	1072693248	21	4462
2026-01-26 09:31:39.35	353.70	16.25	-30.4	-32.5	11.7	4.84e-04	0	44	0	1074790400	21	4578
2026-01-26 09:31:40.35	353.61	16.15	-30.4	-32.5	11.8	4.49e-04	0	44	0	1076887552	21	4574
2026-01-26 09:31:41.34	353.52	16.05	-30.2	-32.0	12.1	3.87e-04	0	44	0	1078984704	21	4423
2026-01-26 09:31:42.34	353.42	15.95	-30.3	-32.3	11.9	4.51e-04	0	44	0	1080033280	21	4491
2026-01-26 09:31:43.34	353.33	15.85	-30.0	-31.4	12.4	1.58e-04	0	44	0	1082130432	21	4231
2026-01-26 09:31:44.35	353.24	15.75	-30.0	-31.2	12.6	1.31e-04	0	44	0	1084227584	21	4154
2026-01-26 09:31:45.35	353.15	15.65	-30.0	-31.3	12.5	6.94e-05	0	44	0	1086324736	21	4169
2026-01-26 09:31:46.36	353.06	15.55	-30.0	-31.3	12.5	9.76e-05	0	44	0	1088421888	21	4194
2026-01-26 09:31:47.36	352.97	15.45	-30.1	-31.6	12.3	2.38e-04	0	44	0	1089470464	21	4270
2026-01-26 09:31:48.37	352.88	15.35	-30.0	-31.4	12.4	1.49e-04	0	44	0	1091567616	21	4230
2026-01-26 09:31:49.38	352.79	15.25	-30.1	-31.7	12.2	1.67e-04	0	44	0	1093664768	21	4327
2026-01-26 09:31:50.38	352.70	15.16	-30.3	-32.2	11.9	2.79e-04	0	44	0	1095761920	21	4465
2026-01-26 09:31:51.37	352.61	15.06	-30.2	-31.9	12.1	3.70e-04	0	44	0	1097859072	21	4373
2026-01-26 09:31:52.37	352.53	14.96	-30.4	-32.7	11.6	7.00e-04	0	44	0	1098907648	21	4644
2026-01-26 09:31:53.37	352.44	14.87	-30.6	-33.0	11.3	8.62e-04	0	44	0	1101004800	21	4773
2026-01-26 09:31:54.37	352.35	14.77	-30.7	-33.5	11.0	1.10e-03	0	44	0	1103101952	21	4977
2026-01-26 09:31:55.38	352.27	14.67	-30.8	-33.7	10.8	2.52e-03	0	44	0	1105199104	21	5050
2026-01-26 09:31:56.38	352.18	14.58	-30.7	-33.6	10.9	2.57e-03	0	44	0	1106247680	21	4996
2026-01-26 09:31:57.38	352.10	14.48	-30.9	-34.0	10.6	3.56e-03	0	44	0	1108344832	21	5170
2026-01-26 09:31:58.38	352.02	14.39	-30.8	-33.9	10.6	2.47e-03	0	44	0	1110441984	21	5127
2026-01-26 09:31:59.39	351.93	14.29	-30.8	-33.9	10.6	3.12e-03	0	44	0	1112539136	21	5123
2026-01-26 09:32:00.39	351.85	14.20	-30.7	-33.5	10.9	2.69e-03	0	44	0	1114636288	21	4975
2026-01-26 09:32:01.39	351.77	14.10	-30.8	-33.9	10.6	2.64e-03	0	44	0	1115684864	21	5126
2026-01-26 09:32:02.39	351.69	14.01	-30.7	-33.4	11.0	2.65e-03	0	44	0	1117782016	21	4912
2026-01-26 09:32:03.40	351.61	13.91	-30.6	-33.2	11.1	1.34e-03	0	44	0	1119879168	21	4841
2026-01-26 09:32:04.41	351.53	13.82	-30.4	-32.6	11.6	1.06e-03	0	44	0	1121976320	21	4620
2026-01-26 09:32:05.42	351.45	13.73	-30.4	-32.5	11.6	8.25e-04	0	44	0	1124073472	21	4596
2026-01-26 09:32:06.41	351.37	13.63	-30.4	-32.4	11.7	5.45e-04	0	44	0	1125122048	21	4569
2026-01-26 09:32:07.42	351.29	13.54	-30.3	-32.3	11.8	6.22e-04	0	44	0	1127219200	21	4532
2026-01-26 09:32:08.42	351.21	13.45	-30.2	-31.9	12.0	4.12e-04	0	44	0	1129316352	21	4402
2026-01-26 09:32:09.42	351.13	13.36	-30.1	-31.8	12.1	3.38e-04	0	44	0	1131413504	21	4361
2026-01-26 09:32:10.42	351.06	13.27	-30.2	-31.9	12.0	2.70e-04	0	44	0	1133510656	21	4382
2026-01-26 09:32:11.43	350.98	13.17	-30.2	-32.0	11.9	3.33e-04	0	44	0	1134559232	21	4410
2026-01-26 09:32:12.43	350.90	13.08	-30.1	-31.7	12.1	2.53e-04	0	44	0	1136656384	21	4312
2026-01-26 09:32:13.43	350.83	12.99	-30.3	-32.3	11.7	3.58e-04	0	44	0	1138753536	21	4520
2026-01-26 09:32:14.43	350.75	12.90	-30.4	-32.4	11.6	7.09e-04	0	44	0	1140850688	21	4573
2026-01-26 09:32:15.44	350.68	12.81	-30.2	-32.0	12.0	4.55e-04	0	44	0	1142947840	21	4418
2026-01-26 09:32:16.44	350.60	12.72	-30.1	-31.6	12.1	3.33e-04	0	44	0	1143996416	21	4302
2026-01-26 09:32:17.44	350.53	12.63	-30.1	-31.8	12.0	2.55e-04	0	44	0	1146093568	21	4368
2026-01-26 09:32:18.44	350.46	12.54	-30.3	-32.3	11.7	4.20e-04	0	44	0	1148190720	21	4530
2026-01-26 09:32:19.44	350.38	12.45	-30.2	-32.1	11.8	6.77e-04	0	44	0	1150287872	21	4472
2026-01-26 09:32:20.44	350.31	12.37	-30.3	-32.2	11.7	5.91e-04	0	44	0	1151336448	21	4509
2026-01-26 09:32:21.44	350.24	12.28	-30.4	-32.6	11.5	6.13e-04	0	44	0	1153433600	21	4635
2026-01-26 09:32:22.44	350.17	12.19	-30.3	-32.4	11.5	8.51e-04	0	44	0	1155530752	21	4588
2026-01-26 09:32:23.45	350.10	12.10	-30.5	-32.8	11.2	8.26e-04	0	44	0	1157627904	21	4734
2026-01-26 09:32:24.45	350.03	12.01	-30.4	-32.7	11.3	1.27e-03	0	44	0	1159725056	21	4675
2026-01-26 09:32:25.45	349.96	11.93	-30.5	-33.1	11.0	1.89e-03	0	44	0	1160773632	21	4841
2026-01-26 09:32:26.46	349.89	11.84	-30.5	-33.1	11.0	1.46e-03	0	44	0	1162870784	21	4858
2026-01-26 09:32:27.46	349.82	11.75	-30.6	-33.4	10.7	1.97e-03	0	44	0	1164967936	21	4972
2026-01-26 09:32:28.46	349.75	11.66	-30.7	-33.7	10.5	2.59e-03	0	44	0	1167065088	21	5095
2026-01-26 09:32:29.46	349.68	11.58	-30.5	-33.0	11.0	2.09e-03	0	44	0	1169162240	21	4804
2026-01-26 09:32:30.46	349.61	11.49	-30.7	-33.8	10.4	3.74e-03	0	44	0	1170210816	21	5131
2026-01-26 09:32:31.46	349.55	11.41	-30.8	-33.8	10.4	3.53e-03	0	44	0	1172307968	21	5131
2026-01-26 09:32:32.47	349.48	11.32	-30.7	-33.7	10.5	4.69e-03	0	44	0	1174405120	21	5104
2026-01-26 09:32:33.47	349.41	11.24	-30.7	-33.9	10.4	4.38e-03	0	44	0	1176502272	21	5151
2026-01-26 09:32:34.47	349.35	11.15	-30.7	-33.6	10.6	4.53e-03	0	44	0	1178599424	21	5045
2026-01-26 09:32:35.48	349.28	11.06	-30.8	-34.0	10.3	3.92e-03	0	44	0	1179648000	21	5198
2026-01-26 09:32:36.48	349.22	10.98	-30.7	-33.8	10.4	4.04e-03	0	44	0	1181745152	21	5146
2026-01-26 09:32:37.48	349.15	10.90	-30.8	-34.0	10.3	6.05e-03	0	44	0	1183842304	21	5206
2026-01-26 09:32:38.49	349.09	10.81	-30.9	-34.3	10.1	4.71e-03	0	44	0	1185939456	21	5335
2026-01-26 09:32:39.49	349.02	10.73	-30.8	-34.2	10.0	8.10e-03	0	44	0	1188036608	21	5314
2026-01-26 09:32:40.49	348.96	10.64	-30.7	-33.9	10.3	5.85e-03	0	44	0	1189085184	21	5179
2026-01-26 09:32:41.50	348.89	10.56	-30.7	-33.6	10.5	4.89e-03	0	44	0	1191182336	21	5065
2026-01-26 09:32:42.51	348.83	10.48	-30.7	-33.7	10.5	4.59e-03	0	44	0	1193279488	21	5092
2026-01-26 09:32:43.51	348.77	10.39	-30.7	-33.7	10.4	4.46e-03	0	44	0	1195376640	21	5089
2026-01-26 09:32:44.52	348.70	10.31	-30.5	-33.2	10.8	3.40e-03	0	44	0	1197473792	21	4898
2026-01-26 09:32:45.52	348.64	10.23	-30.7	-33.9	10.2	5.76e-03	0	44	0	1198522368	21	5193
2026-01-26 09:32:46.52	348.58	10.15	-30.7	-33.7	10.4	4.65e-03	0	44	0	1200619520	21	5120
2026-01-26 09:32:47.52	348.52	10.07	-30.7	-33.9	10.2	4.61e-03	0	44	0	1202716672	21	5183
2026-01-26 09:32:48.52	348.46	9.98	-30.6	-33.6	10.4	6.45e-03	0	44	0	1204813824	21	5058
2026-01-26 09:32:49.53	348.40	9.90	-30.6	-33.7	10.3	5.68e-03	0	44	0	1206910976	21	5091
2026-01-26 09:32:50.53	348.34	9.82	-30.8	-34.1	10.0	5.22e-03	0	44	0	1207959552	21	5271
2026-01-26 09:32:51.54	348.28	9.74	-30.7	-33.8	10.1	6.90e-03	0	44	0	1210056704	21	5165
2026-01-26 09:32:52.54	348.22	9.66	-30.8	-34.1	10.0	5.88e-03	0	44	0	1212153856	21	5282
2026-01-26 09:32:53.55	348.16	9.58	-30.8	-34.1	9.9	8.25e-03	0	44	0	1214251008	21	5299
2026-01-26 09:32:54.55	348.10	9.50	-30.8	-34.3	9.8	8.98e-03	0	44	0	1215299584	21	5376
2026-01-26 09:32:55.56	348.04	9.42	-30.6	-33.6	10.2	8.88e-03	0	44	0	1217396736	21	5067
2026-01-26 09:32:56.56	347.98	9.34	-30.7	-34.0	10.1	6.28e-03	0	44	0	1219493888	21	5222
2026-01-26 09:32:57.57	347.93	9.26	-30.8	-34.2	9.9	1.38e-02	0	44	0	1221591040	21	5326
2026-01-26 09:32:58.58	347.87	9.18	-30.6	-33.7	10.3	8.29e-03	0	44	0	1223688192	21	5112
2026-01-26 09:32:59.58	347.81	9.10	-30.7	-34.0	10.0	7.30e-03	0	44	0	1224736768	21	5250
2026-01-26 09:33:00.59	347.75	9.02	-30.7	-34.0	10.0	5.43e-03	0	44	0	1226833920	21	5258
2026-01-26 09:33:01.59	347.70	8.94	-30.6	-33.5	10.4	5.69e-03	0	44	0	1228931072	21	5028
2026-01-26 09:33:02.59	347.64	8.86	-30.7	-33.9	10.1	6.03e-03	0	44	0	1231028224	21	5200
2026-01-26 09:33:03.59	347.59	8.78	-30.5	-33.2	10.5	6.03e-03	0	44	0	1233125376	21	4925
2026-01-26 09:33:04.59	347.53	8.71	-30.5	-33.3	10.5	4.21e-03	0	44	0	1234173952	21	4969
2026-01-26 09:33:05.60	347.48	8.63	-30.5	-33.2	10.6	2.99e-03	0	44	0	1236271104	21	4912
2026-01-26 09:33:06.60	347.42	8.55	-30.5	-33.3	10.5	3.85e-03	0	44	0	1238368256	21	4958
2026-01-26 09:33:07.60	347.37	8.47	-30.5	-33.5	10.4	3.28e-03	0	44	0	1240465408	21	5028
2026-01-26 09:33:08.61	347.31	8.40	-30.5	-33.3	10.5	4.84e-03	0	44	0	1242562560	21	4982
2026-01-26 09:33:09.61	347.26	8.32	-30.4	-33.1	10.7	4.08e-03	0	44	0	1243611136	21	4873
2026-01-26 09:33:10.62	347.20	8.24	-30.6	-33.6	10.2	6.25e-03	0	44	0	1245708288	21	5089
2026-01-26 09:33:11.62	347.15	8.16	-30.7	-34.1	9.8	6.19e-03	0	44	0	1247805440	21	5290
2026-01-26 09:33:12.63	347.10	8.09	-30.6	-33.8	10.0	9.83e-03	0	44	0	1249902592	21	5187
2026-01-26 09:33:13.63	347.05	8.01	-30.6	-33.5	10.2	6.62e-03	0	44	0	1251999744	21	5057
2026-01-26 09:33:14.63	346.99	7.94	-30.5	-33.3	10.4	6.90e-03	0	44	0	1253048320	21	4962
2026-01-26 09:33:15.63	346.94	7.86	-30.6	-33.8	10.0	6.71e-03	0	44	0	1255145472	21	5206
2026-01-26 09:33:16.63	346.89	7.79	-30.6	-33.6	10.2	5.09e-03	0	44	0	1257242624	21	5083
2026-01-26 09:33:17.63	346.84	7.71	-30.8	-34.2	9.7	7.31e-03	0	44	0	1259339776	21	5379
2026-01-26 09:33:18.63	346.79	7.63	-30.8	-34.4	9.5	8.74e-03	0	44	0	1261436928	21	5453
2026-01-26 09:33:19.63	346.74	7.56	-30.7	-34.0	9.8	1.39e-02	0	44	0	1262485504	21	5282
2026-01-26 09:33:20.63	346.69	7.49	-30.7	-34.1	9.8	9.32e-03	0	44	0	1264582656	21	5331
2026-01-26 09:33:21.64	346.63	7.41	-30.8	-34.6	9.4	1.60e-02	0	44	0	1266679808	21	5561
2026-01-26 09:33:22.64	346.58	7.34	-30.8	-34.6	9.3	1.97e-02	0	44	0	1268776960	21	5548
2026-01-26 09:33:23.64	346.54	7.26	-30.9	-34.7	9.3	1.94e-02	0	44	0	1269825536	21	5626
2026-01-26 09:33:24.65	346.49	7.19	-31.0	-35.1	8.9	2.43e-02	0	44	0	1271922688	21	5828
2026-01-26 09:33:25.65	346.44	7.11	-31.0	-34.7	8.9	4.18e-02	0	44	0	1274019840	22	5527
2026-01-26 09:33:26.66	346.39	7.04	-32.7	-44.5	3.7	5.21e-01	0	44	104	1276116992	25	13987
2026-01-26 09:33:27.66	346.34	6.97	-33.0	-45.4	3.8	1.49e+00	0	44	104	1276116992	25	15100
2026-01-26 09:33:28.66	346.29	6.89	-33.3	-45.8	3.8	1.49e+00	0	44	104	1276116992	26	15148

#Closed at: 2026-01-26 09:33:29
#Recorded file [1276 MB]: D:/data/31010_260126_122205.dat