passes_logs/2026/01/11/R3.2S_Murmansk/R3.2S_Murmansk__20260111_101348_TY-42_rec.log

#Pass ID: 20260111_101348_TY-42
#Satellite: TY-42
#Configuration: TY-42_900M
#almurnet v.1.7.20251203
#Start time: 2026-01-11 10:13:48

#Version: 2.2.20231116
#Station: R3.2S_Murmansk
#Location: 33.079688 lon 68.888172 lat
#TLE: 1 64048U 25103A   26011.23840278  .00008009  00000-0  38191-3 0 09999
#TLE: 2 64048 097.4119 086.7264 0001784 091.7735 049.4293 15.19164602 36241

#Time	Az	El	Level	Level2	SNR	BER	BlckErr	Temp	State	Recorded	gain1	gain2
2026-01-11 10:13:48.94	21.60	2.00	-56.6	-59.8	6.2	0.00e+00	0	27	0	0	80	20321
2026-01-11 10:13:49.94	21.57	2.07	-56.7	-59.9	6.2	0.00e+00	0	28	104	0	80	20414
2026-01-11 10:13:50.95	21.54	2.14	-56.7	-59.8	6.2	0.00e+00	0	28	104	0	80	20390
2026-01-11 10:13:51.96	21.51	2.21	-56.7	-59.9	6.2	0.00e+00	0	28	104	0	80	20415
2026-01-11 10:13:52.96	21.47	2.28	-56.7	-59.9	6.2	0.00e+00	0	28	104	0	80	20490
2026-01-11 10:13:53.97	21.44	2.35	-56.7	-59.9	6.2	0.00e+00	0	28	104	0	80	20452
2026-01-11 10:13:54.98	21.41	2.42	-56.7	-59.9	6.2	0.00e+00	0	28	104	0	80	20492
2026-01-11 10:13:55.99	21.37	2.49	-56.7	-59.9	6.2	0.00e+00	0	28	104	0	80	20521
2026-01-11 10:13:57.00	21.34	2.56	-56.7	-59.9	6.2	0.00e+00	0	28	104	0	80	20466
2026-01-11 10:13:58.01	21.30	2.63	-56.7	-59.9	6.2	0.00e+00	0	28	104	0	80	20498
2026-01-11 10:13:59.02	21.27	2.70	-56.7	-59.9	6.2	0.00e+00	0	28	104	0	80	20461
2026-01-11 10:14:00.03	21.24	2.77	-56.7	-59.9	6.2	0.00e+00	0	28	104	0	80	20464
2026-01-11 10:14:01.03	21.20	2.85	-56.7	-59.9	6.2	0.00e+00	0	28	104	0	80	20428
2026-01-11 10:14:02.04	21.17	2.92	-56.7	-59.9	6.2	0.00e+00	0	28	104	0	80	20475
2026-01-11 10:14:03.05	21.13	2.99	-56.7	-59.9	6.2	0.00e+00	0	28	104	0	80	20422
2026-01-11 10:14:04.06	21.10	3.06	-56.7	-59.9	6.2	0.00e+00	0	29	104	0	80	20448
2026-01-11 10:14:05.07	21.06	3.13	-56.7	-59.9	6.2	0.00e+00	0	29	104	0	80	20515
2026-01-11 10:14:06.07	21.02	3.21	-56.7	-59.9	6.2	0.00e+00	0	29	104	0	80	20580
2026-01-11 10:14:07.08	20.99	3.28	-56.7	-59.9	6.2	0.00e+00	0	29	104	0	80	20606
2026-01-11 10:14:08.10	20.95	3.35	-56.7	-59.9	6.2	0.00e+00	0	29	104	0	80	20599
2026-01-11 10:14:09.10	20.92	3.43	-56.7	-59.9	6.2	0.00e+00	0	29	104	0	80	20598
2026-01-11 10:14:10.11	20.88	3.50	-56.7	-60.0	6.2	0.00e+00	0	29	104	0	80	20657
2026-01-11 10:14:11.11	20.84	3.57	-56.7	-59.9	6.2	0.00e+00	0	29	104	0	80	20627
2026-01-11 10:14:12.12	20.80	3.65	-56.7	-59.9	6.2	0.00e+00	0	29	104	0	80	20586
2026-01-11 10:14:13.13	20.77	3.72	-56.7	-59.9	6.2	0.00e+00	0	29	104	0	80	20594
2026-01-11 10:14:14.14	20.73	3.80	-56.7	-60.0	6.2	0.00e+00	0	29	104	0	80	20659
2026-01-11 10:14:15.15	20.69	3.87	-56.8	-59.9	6.2	0.00e+00	0	29	104	0	80	20595
2026-01-11 10:14:16.15	20.65	3.95	-56.7	-59.9	6.2	0.00e+00	0	29	104	0	80	20603
2026-01-11 10:14:17.16	20.61	4.02	-56.8	-60.0	6.2	0.00e+00	0	29	104	0	80	20652
2026-01-11 10:14:18.17	20.57	4.10	-56.8	-60.0	6.2	0.00e+00	0	29	104	0	80	20698
2026-01-11 10:14:19.18	20.53	4.17	-56.8	-60.0	6.2	0.00e+00	0	29	104	0	80	20684
2026-01-11 10:14:20.19	20.49	4.25	-56.8	-60.0	6.2	0.00e+00	0	29	104	0	80	20708
2026-01-11 10:14:21.20	20.45	4.33	-56.8	-60.0	6.2	0.00e+00	0	29	104	0	80	20742
2026-01-11 10:14:22.21	20.41	4.40	-56.8	-60.0	6.2	0.00e+00	0	29	104	0	80	20778
2026-01-11 10:14:23.22	20.37	4.48	-56.8	-60.1	6.2	0.00e+00	0	29	104	0	80	20887
2026-01-11 10:14:24.23	20.33	4.56	-56.8	-60.0	6.2	0.00e+00	0	30	104	0	80	20802
2026-01-11 10:14:25.24	20.29	4.64	-56.8	-60.0	6.2	0.00e+00	0	30	104	0	80	20772
2026-01-11 10:14:26.25	20.25	4.71	-56.8	-60.0	6.2	0.00e+00	0	30	104	0	80	20707
2026-01-11 10:14:27.26	20.21	4.79	-56.8	-60.0	6.2	0.00e+00	0	30	104	0	80	20739
2026-01-11 10:14:28.27	20.17	4.87	-56.8	-60.0	6.2	0.00e+00	0	30	104	0	80	20737
2026-01-11 10:14:29.28	20.12	4.95	-56.8	-60.0	6.2	0.00e+00	0	30	104	0	80	20709
2026-01-11 10:14:30.29	20.08	5.03	-56.8	-60.0	6.2	0.00e+00	0	30	104	0	80	20835
2026-01-11 10:14:31.29	20.04	5.11	-57.0	-60.2	6.2	0.00e+00	0	30	104	0	80	21193
2026-01-11 10:14:32.30	19.99	5.19	-56.9	-60.1	6.2	0.00e+00	0	30	104	0	80	20916
2026-01-11 10:14:33.31	19.95	5.27	-56.8	-60.0	6.2	0.00e+00	0	30	104	0	80	20643
2026-01-11 10:14:34.32	19.91	5.35	-56.9	-60.1	6.2	0.00e+00	0	30	104	0	80	20923
2026-01-11 10:14:35.32	19.86	5.43	-56.8	-60.0	6.2	0.00e+00	0	30	104	0	80	20784
2026-01-11 10:14:36.33	19.82	5.51	-56.9	-60.1	6.2	0.00e+00	0	30	104	0	80	21105
2026-01-11 10:14:37.34	19.77	5.59	-56.8	-60.0	6.2	0.00e+00	0	30	104	0	80	20776
2026-01-11 10:14:38.35	19.73	5.67	-56.9	-60.1	6.2	0.00e+00	0	30	104	0	80	20980
2026-01-11 10:14:39.36	19.68	5.75	-56.9	-60.1	6.2	0.00e+00	0	30	104	0	80	20918
2026-01-11 10:14:40.36	19.64	5.84	-56.9	-60.1	6.2	0.00e+00	0	30	104	0	80	21104
2026-01-11 10:14:41.37	19.59	5.92	-56.9	-60.1	6.2	0.00e+00	0	30	104	0	80	20882
2026-01-11 10:14:42.37	19.54	6.00	-56.9	-60.1	6.2	0.00e+00	0	30	104	0	80	21087
2026-01-11 10:14:43.38	19.49	6.08	-56.9	-60.1	6.2	0.00e+00	0	30	104	0	80	21039
2026-01-11 10:14:44.39	19.45	6.17	-57.0	-60.2	6.2	0.00e+00	0	30	104	0	80	21172
2026-01-11 10:14:45.40	19.40	6.25	-56.9	-60.1	6.2	0.00e+00	0	30	104	0	80	21002
2026-01-11 10:14:46.41	19.35	6.34	-57.0	-60.2	6.2	0.00e+00	0	30	104	0	80	21232
2026-01-11 10:14:47.42	19.30	6.42	-57.0	-60.2	6.2	0.00e+00	0	30	104	0	80	21174
2026-01-11 10:14:48.43	19.25	6.51	-57.0	-60.2	6.2	0.00e+00	0	30	104	0	80	21292
2026-01-11 10:14:49.44	19.20	6.59	-57.0	-60.2	6.2	0.00e+00	0	31	104	0	80	21172
2026-01-11 10:14:50.44	19.15	6.68	-57.0	-60.2	6.2	0.00e+00	0	31	104	0	80	21318
2026-01-11 10:14:51.45	19.10	6.76	-57.0	-60.2	6.2	0.00e+00	0	30	104	0	80	21313
2026-01-11 10:14:52.46	19.05	6.85	-57.1	-60.3	6.2	0.00e+00	0	31	104	0	80	21376
2026-01-11 10:14:53.46	19.00	6.94	-57.0	-60.2	6.2	0.00e+00	0	31	104	0	80	21348
2026-01-11 10:14:54.47	18.95	7.02	-57.1	-60.3	6.2	0.00e+00	0	31	104	0	80	21448
2026-01-11 10:14:55.48	18.90	7.11	-57.1	-60.3	6.2	0.00e+00	0	31	104	0	80	21512
2026-01-11 10:14:56.48	18.85	7.20	-57.1	-60.3	6.2	0.00e+00	0	31	104	0	80	21475
2026-01-11 10:14:57.49	18.79	7.29	-57.1	-60.2	6.2	0.00e+00	0	31	104	0	80	21348
2026-01-11 10:14:58.51	18.74	7.38	-57.1	-60.3	6.2	0.00e+00	0	31	104	0	80	21519
2026-01-11 10:14:59.51	18.69	7.46	-57.1	-60.3	6.2	0.00e+00	0	31	104	0	80	21472
2026-01-11 10:15:00.52	18.63	7.55	-57.1	-60.3	6.2	0.00e+00	0	31	104	0	80	21534
2026-01-11 10:15:01.53	18.58	7.64	-57.1	-60.3	6.2	0.00e+00	0	31	104	0	80	21500
2026-01-11 10:15:02.54	18.52	7.73	-57.2	-60.4	6.2	0.00e+00	0	31	104	0	80	21660
2026-01-11 10:15:03.55	18.47	7.82	-57.2	-60.4	6.2	0.00e+00	0	31	104	0	80	21659
2026-01-11 10:15:04.56	18.41	7.91	-57.1	-60.3	6.2	0.00e+00	0	31	104	0	80	21583
2026-01-11 10:15:05.56	18.36	8.01	-57.1	-60.3	6.2	0.00e+00	0	31	104	0	80	21593
2026-01-11 10:15:06.57	18.30	8.10	-57.2	-60.4	6.2	0.00e+00	0	31	104	0	80	21688
2026-01-11 10:15:07.58	18.24	8.19	-57.2	-60.4	6.2	0.00e+00	0	31	104	0	80	21761
2026-01-11 10:15:08.59	18.18	8.28	-57.2	-60.4	6.2	0.00e+00	0	31	104	0	80	21723
2026-01-11 10:15:09.59	18.13	8.37	-57.2	-60.4	6.2	0.00e+00	0	31	104	0	80	21738
2026-01-11 10:15:10.60	18.07	8.47	-57.2	-60.4	6.2	0.00e+00	0	31	104	0	80	21823
2026-01-11 10:15:11.60	18.01	8.56	-57.3	-60.4	6.2	0.00e+00	0	31	104	0	80	21856
2026-01-11 10:15:12.61	17.95	8.66	-57.2	-60.4	6.2	0.00e+00	0	31	104	0	80	21790
2026-01-11 10:15:13.62	17.89	8.75	-57.3	-60.5	6.2	0.00e+00	0	31	104	0	80	21895
2026-01-11 10:15:14.63	17.83	8.85	-57.2	-60.5	6.2	0.00e+00	0	31	104	0	80	21923
2026-01-11 10:15:15.64	17.77	8.94	-57.3	-60.5	6.2	0.00e+00	0	31	104	0	80	21994
2026-01-11 10:15:16.65	17.71	9.04	-57.2	-60.5	6.2	0.00e+00	0	31	104	0	80	21922
2026-01-11 10:15:17.66	17.64	9.14	-47.1	-47.6	9.4	0.00e+00	0	31	104	0	61	14868
2026-01-11 10:15:18.67	17.58	9.23	-53.5	-54.9	7.2	0.00e+00	0	32	104	50331648	72	18259
2026-01-11 10:15:19.67	17.52	9.33	-48.4	-49.0	9.2	0.00e+00	0	31	104	50331648	64	14677
2026-01-11 10:15:20.68	17.45	9.43	-44.9	-45.3	11.2	3.36e-02	0	32	0	75497472	57	14330
2026-01-11 10:15:21.68	17.39	9.53	-43.6	-43.9	11.7	3.36e-02	0	32	0	192937984	54	14602
2026-01-11 10:15:22.69	17.32	9.62	-42.9	-43.3	11.9	3.36e-02	0	32	0	310378496	53	14378
2026-01-11 10:15:23.70	17.26	9.72	-43.1	-43.5	11.7	4.64e-02	0	32	0	419430400	52	15493
2026-01-11 10:15:24.71	17.19	9.82	-42.7	-43.1	11.9	4.64e-02	0	32	0	536870912	52	14814
2026-01-11 10:15:25.72	17.12	9.93	-42.1	-42.5	12.1	4.64e-02	0	32	0	645922816	51	14614
2026-01-11 10:15:26.73	17.06	10.03	-42.2	-42.5	12.1	2.44e-02	0	32	0	763363328	51	14683
2026-01-11 10:15:27.73	16.99	10.13	-41.8	-42.1	12.2	2.44e-02	0	32	0	872415232	50	14937
2026-01-11 10:15:28.74	16.92	10.23	-41.5	-41.9	12.3	2.44e-02	0	32	0	989855744	50	14444
2026-01-11 10:15:29.75	16.85	10.33	-41.4	-41.7	12.4	1.33e-02	0	32	0	1098907648	50	14219
2026-01-11 10:15:30.76	16.78	10.44	-41.4	-41.7	12.3	1.33e-02	0	32	0	1216348160	49	15071
2026-01-11 10:15:31.77	16.71	10.54	-41.4	-41.7	12.3	1.33e-02	0	32	0	1325400064	49	15056
2026-01-11 10:15:32.78	16.64	10.64	-41.1	-41.4	12.4	1.10e-02	0	32	0	1442840576	49	14555
2026-01-11 10:15:33.79	16.57	10.75	-41.1	-41.4	12.4	1.10e-02	0	32	0	1551892480	49	14529
2026-01-11 10:15:34.80	16.49	10.85	-41.0	-41.3	12.5	8.58e-03	0	32	0	1669332992	49	14374
2026-01-11 10:15:35.80	16.42	10.96	-41.0	-41.3	12.5	8.58e-03	0	33	0	1786773504	49	14365
2026-01-11 10:15:36.81	16.35	11.07	-40.9	-41.3	12.5	8.44e-03	0	33	0	1895825408	49	14296
2026-01-11 10:15:37.81	16.27	11.17	-40.8	-41.2	12.4	8.44e-03	0	33	0	2004877312	48	14980
2026-01-11 10:15:38.83	16.20	11.28	-40.7	-41.1	12.4	8.44e-03	0	33	0	2122317824	48	14778
2026-01-11 10:15:39.84	16.12	11.39	-40.7	-41.1	12.4	7.82e-03	0	33	0	2231369728	48	14786
2026-01-11 10:15:40.84	16.05	11.50	-40.7	-41.0	12.5	7.82e-03	0	33	0	2348810240	48	14698
2026-01-11 10:15:41.85	15.97	11.61	-40.7	-41.1	12.5	7.82e-03	0	33	0	2466250752	48	14849
2026-01-11 10:15:42.86	15.89	11.72	-40.7	-41.0	12.5	8.26e-03	0	33	0	2575302656	48	14689
2026-01-11 10:15:43.87	15.81	11.83	-40.5	-40.9	12.5	8.26e-03	0	33	0	2692743168	48	14459
2026-01-11 10:15:44.88	15.73	11.94	-39.6	-39.9	12.4	8.28e-03	0	33	0	2801795072	46	14512
2026-01-11 10:15:45.89	15.65	12.05	-39.6	-40.0	12.4	8.28e-03	0	33	0	2910846976	46	14669
2026-01-11 10:15:46.90	15.57	12.16	-39.7	-40.0	12.4	8.28e-03	0	33	0	3028287488	46	14773
2026-01-11 10:15:47.91	15.49	12.28	-39.6	-39.9	12.4	8.28e-03	0	33	0	3145728000	46	14556
2026-01-11 10:15:48.92	15.40	12.39	-39.4	-39.7	12.5	1.07e-02	0	33	0	3254779904	46	14249
2026-01-11 10:15:49.93	15.32	12.50	-39.4	-39.8	12.4	1.07e-02	0	33	0	3372220416	46	14313
2026-01-11 10:15:50.93	15.24	12.62	-39.2	-39.6	12.4	1.07e-02	0	33	0	3481272320	45	14804
2026-01-11 10:15:51.94	15.15	12.73	-39.2	-39.6	12.4	9.76e-03	0	33	0	3598712832	45	14781
2026-01-11 10:15:52.96	15.06	12.85	-39.1	-39.4	12.4	9.76e-03	0	33	0	3716153344	45	14599
2026-01-11 10:15:53.96	14.98	12.97	-39.2	-39.6	12.3	9.76e-03	0	33	0	3825205248	45	14794
2026-01-11 10:15:54.97	14.89	13.08	-39.0	-39.4	12.4	9.67e-03	0	33	0	3934257152	45	14464
2026-01-11 10:15:55.98	14.80	13.20	-39.0	-39.3	12.4	9.67e-03	0	33	0	4051697664	45	14430
2026-01-11 10:15:56.98	14.71	13.32	-39.0	-39.3	12.5	9.67e-03	0	33	0	4160749568	45	14377
2026-01-11 10:15:57.99	14.62	13.44	-38.9	-39.2	12.5	8.37e-03	0	33	0	4278190080	45	14260
2026-01-11 10:15:59.00	14.53	13.56	-38.8	-39.1	12.5	8.37e-03	0	33	0	4395630592	44	14905
2026-01-11 10:16:00.01	14.44	13.68	-38.7	-39.1	12.5	8.37e-03	0	34	0	4504682496	44	14850
2026-01-11 10:16:01.01	14.35	13.80	-38.7	-39.0	12.5	6.98e-03	0	34	0	4622123008	44	14739
2026-01-11 10:16:02.02	14.25	13.93	-38.6	-38.9	12.6	6.98e-03	0	34	0	4731174912	44	14534
2026-01-11 10:16:03.03	14.16	14.05	-38.6	-39.0	12.6	5.43e-03	0	34	0	4840226816	44	14632
2026-01-11 10:16:04.04	14.06	14.17	-38.5	-38.9	12.6	5.43e-03	0	33	0	4957667328	44	14500
2026-01-11 10:16:05.05	13.96	14.30	-38.4	-38.8	12.6	5.38e-03	0	34	0	5075107840	44	14330
2026-01-11 10:16:06.06	13.86	14.42	-38.4	-38.7	12.6	5.38e-03	0	34	0	5184159744	44	14209
2026-01-11 10:16:07.07	13.76	14.55	-38.3	-38.6	12.5	5.38e-03	0	34	0	5301600256	43	14902
2026-01-11 10:16:08.08	13.66	14.68	-38.1	-38.4	12.6	4.86e-03	0	34	0	5410652160	43	14600
2026-01-11 10:16:09.08	13.56	14.80	-38.1	-38.4	12.6	4.86e-03	0	34	0	5528092672	43	14553
2026-01-11 10:16:10.09	13.46	14.93	-38.0	-38.3	12.7	3.75e-03	0	34	0	5645533184	43	14414
2026-01-11 10:16:11.10	13.36	15.06	-37.8	-38.2	12.7	3.75e-03	0	34	0	5754585088	42	14968
2026-01-11 10:16:12.10	13.25	15.19	-37.7	-38.1	12.7	3.75e-03	0	34	0	5863636992	42	14791
2026-01-11 10:16:13.12	13.15	15.32	-37.7	-38.1	12.7	2.73e-03	0	34	0	5981077504	42	14823
2026-01-11 10:16:14.13	13.04	15.46	-37.7	-38.0	12.7	2.73e-03	0	34	0	6090129408	42	14758
2026-01-11 10:16:15.13	12.93	15.59	-37.4	-37.8	12.8	2.73e-03	0	34	0	6207569920	42	14288
2026-01-11 10:16:16.14	12.82	15.72	-37.4	-37.7	12.8	2.43e-03	0	34	0	6325010432	42	14223
2026-01-11 10:16:17.16	12.71	15.86	-37.2	-37.6	12.7	2.43e-03	0	34	0	6434062336	41	14798
2026-01-11 10:16:18.17	12.60	15.99	-37.0	-37.3	12.8	2.43e-03	0	34	0	6551502848	41	14351
2026-01-11 10:16:19.17	12.49	16.13	-36.9	-37.2	12.8	1.98e-03	0	34	0	6660554752	41	14212
2026-01-11 10:16:20.18	12.37	16.27	-36.8	-37.1	12.7	1.98e-03	0	34	0	6769606656	40	14921
2026-01-11 10:16:21.19	12.26	16.40	-36.6	-37.0	12.8	1.67e-03	0	34	0	6887047168	40	14626
2026-01-11 10:16:22.20	12.14	16.54	-36.7	-37.1	12.8	1.67e-03	0	34	0	7004487680	40	14797
2026-01-11 10:16:23.21	12.02	16.68	-36.8	-37.1	12.8	1.67e-03	0	34	0	7113539584	40	14940
2026-01-11 10:16:24.22	11.90	16.82	-36.8	-37.1	12.9	1.30e-03	0	34	0	7230980096	40	14865
2026-01-11 10:16:25.23	11.78	16.97	-36.8	-37.1	12.9	1.30e-03	0	34	0	7340032000	40	14830
2026-01-11 10:16:26.24	11.66	17.11	-36.8	-37.1	12.9	7.15e-04	0	34	0	7449083904	40	14939
2026-01-11 10:16:27.24	11.54	17.25	-36.7	-37.0	12.9	7.15e-04	0	34	0	7574913024	40	14688
2026-01-11 10:16:28.25	11.41	17.39	-36.7	-37.0	12.9	7.15e-04	0	34	0	7683964928	40	14686
2026-01-11 10:16:29.26	11.29	17.54	-36.7	-37.0	13.0	6.44e-04	0	34	0	7793016832	40	14645
2026-01-11 10:16:30.27	11.16	17.69	-36.7	-37.1	13.0	6.44e-04	0	34	0	7910457344	40	14796
2026-01-11 10:16:31.28	11.03	17.83	-36.8	-37.0	13.0	6.44e-04	0	34	0	8019509248	40	14763
2026-01-11 10:16:32.29	10.90	17.98	-36.8	-37.1	12.9	5.72e-04	0	34	0	8136949760	40	14811
2026-01-11 10:16:33.30	10.77	18.13	-36.9	-37.2	12.9	5.72e-04	0	34	0	8254390272	40	15017
2026-01-11 10:16:34.31	10.63	18.28	-36.9	-37.2	12.9	5.72e-04	0	34	0	8363442176	40	14977
2026-01-11 10:16:35.32	10.50	18.43	-36.6	-36.9	13.0	5.43e-04	0	34	0	8480882688	40	14496
2026-01-11 10:16:36.33	10.36	18.59	-36.5	-36.8	13.0	5.43e-04	0	34	0	8589934592	40	14407
2026-01-11 10:16:37.33	10.22	18.74	-36.5	-36.8	13.0	5.96e-04	0	34	0	8698986496	40	14357
2026-01-11 10:16:38.34	10.08	18.89	-36.4	-36.7	13.0	5.96e-04	0	34	0	8816427008	40	14208
2026-01-11 10:16:39.35	9.94	19.05	-36.4	-36.7	13.0	5.96e-04	0	35	0	8933867520	40	14270
2026-01-11 10:16:40.36	9.79	19.21	-36.3	-36.6	12.9	6.34e-04	0	35	0	9042919424	39	14906
2026-01-11 10:16:41.37	9.65	19.36	-36.2	-36.6	12.9	6.34e-04	0	35	0	9160359936	39	14815
2026-01-11 10:16:42.38	9.50	19.52	-35.9	-36.2	13.0	6.34e-04	0	35	0	9269411840	39	14243
2026-01-11 10:16:43.38	9.35	19.68	-35.9	-36.2	13.0	5.96e-04	0	34	0	9386852352	39	14224
2026-01-11 10:16:44.39	9.20	19.84	-35.9	-36.2	13.0	5.96e-04	0	35	0	9504292864	39	14204
2026-01-11 10:16:45.40	9.05	20.01	-35.6	-35.9	13.0	5.96e-04	0	34	0	9613344768	38	14587
2026-01-11 10:16:46.41	8.89	20.17	-35.5	-35.8	13.1	4.15e-04	0	35	0	9722396672	38	14414
2026-01-11 10:16:47.42	8.74	20.33	-35.5	-35.8	13.1	4.15e-04	0	34	0	9839837184	38	14397
2026-01-11 10:16:48.43	8.58	20.50	-35.4	-35.7	13.1	4.15e-04	0	35	0	9948889088	38	14204
2026-01-11 10:16:49.43	8.42	20.66	-35.3	-35.6	13.0	2.24e-04	0	35	0	10066329600	37	14810
2026-01-11 10:16:50.45	8.26	20.83	-35.2	-35.5	13.1	2.24e-04	0	35	0	10183770112	37	14615
2026-01-11 10:16:51.45	8.09	21.00	-35.1	-35.4	13.1	1.95e-04	0	35	0	10292822016	37	14527
2026-01-11 10:16:52.46	7.92	21.17	-35.1	-35.4	13.1	1.95e-04	0	35	0	10410262528	37	14533
2026-01-11 10:16:53.46	7.76	21.34	-35.1	-35.4	13.1	1.95e-04	0	35	0	10519314432	37	14582
2026-01-11 10:16:54.47	7.59	21.51	-34.9	-35.2	13.1	1.10e-04	0	35	0	10628366336	37	14180
2026-01-11 10:16:55.48	7.41	21.69	-34.8	-35.1	13.1	1.10e-04	0	35	0	10745806848	36	14895
2026-01-11 10:16:56.49	7.24	21.86	-34.6	-34.9	13.1	1.10e-04	0	35	0	10863247360	36	14574
2026-01-11 10:16:57.50	7.06	22.04	-34.7	-34.9	13.1	1.14e-04	0	35	0	10972299264	36	14594
2026-01-11 10:16:58.51	6.88	22.22	-34.7	-35.0	13.1	1.14e-04	0	35	0	11089739776	36	14640
2026-01-11 10:16:59.51	6.70	22.40	-34.6	-34.9	13.2	8.10e-05	0	35	0	11198791680	36	14503
2026-01-11 10:17:00.49	6.52	22.57	-34.5	-34.8	13.2	8.10e-05	0	35	0	11316232192	36	14327
2026-01-11 10:17:01.50	6.33	22.75	-34.6	-34.8	13.2	8.10e-05	0	35	0	11425284096	36	14424
2026-01-11 10:17:02.51	6.14	22.93	-34.4	-34.7	13.2	4.76e-05	0	35	0	11534336000	36	14115
2026-01-11 10:17:03.52	5.95	23.12	-31.8	-32.1	13.0	4.76e-05	0	35	0	11651776512	30	14943
2026-01-11 10:17:04.53	5.75	23.30	-31.7	-32.0	13.1	1.72e-04	0	35	0	11760828416	30	14710
2026-01-11 10:17:05.54	5.55	23.49	-31.7	-32.0	13.0	1.72e-04	0	35	0	11878268928	30	14763
2026-01-11 10:17:06.55	5.35	23.68	-31.6	-31.9	13.1	1.72e-04	0	35	0	11995709440	30	14561
2026-01-11 10:17:07.55	5.15	23.87	-31.6	-31.9	13.1	1.86e-04	0	35	0	12104761344	30	14584
2026-01-11 10:17:08.56	4.94	24.06	-31.6	-31.9	13.1	1.86e-04	0	35	0	12213813248	30	14518
2026-01-11 10:17:09.57	4.73	24.25	-31.5	-31.8	13.1	1.86e-04	0	35	0	12331253760	30	14288
2026-01-11 10:17:10.58	4.52	24.44	-31.5	-31.8	13.1	1.19e-04	0	35	0	12440305664	30	14419
2026-01-11 10:17:11.59	4.31	24.64	-31.5	-31.8	13.1	1.19e-04	0	35	0	12557746176	30	14379
2026-01-11 10:17:12.60	4.09	24.83	-31.2	-31.6	13.1	1.19e-04	0	35	0	12675186688	29	14787
2026-01-11 10:17:13.61	3.87	25.03	-31.1	-31.4	13.2	8.58e-05	0	35	0	12784238592	29	14471
2026-01-11 10:17:14.62	3.64	25.23	-31.1	-31.4	13.1	8.58e-05	0	35	0	12901679104	29	14561
2026-01-11 10:17:15.62	3.42	25.43	-31.1	-31.4	13.2	3.81e-05	0	35	0	13010731008	29	14561
2026-01-11 10:17:16.63	3.19	25.63	-31.0	-31.3	13.2	3.81e-05	0	35	0	13119782912	29	14351
2026-01-11 10:17:17.63	2.95	25.83	-30.8	-31.1	13.2	3.81e-05	0	35	0	13237223424	28	14783
2026-01-11 10:17:18.64	2.72	26.03	-30.7	-31.0	13.2	3.81e-05	0	35	0	13354663936	28	14745
2026-01-11 10:17:19.65	2.48	26.24	-30.7	-31.0	13.2	3.81e-05	0	35	0	13463715840	28	14744
2026-01-11 10:17:20.66	2.23	26.45	-30.7	-31.0	13.2	4.29e-05	0	35	0	13581156352	28	14612
2026-01-11 10:17:21.67	1.98	26.66	-30.5	-30.8	13.2	4.29e-05	0	35	0	13690208256	28	14376
2026-01-11 10:17:22.68	1.73	26.86	-30.5	-30.8	13.2	3.33e-05	0	35	0	13807648768	28	14379
2026-01-11 10:17:23.68	1.48	27.07	-30.5	-30.8	13.2	3.33e-05	0	35	0	13916700672	28	14326
2026-01-11 10:17:24.69	1.22	27.29	-30.4	-30.7	13.3	3.33e-05	0	35	0	14034141184	28	14127
2026-01-11 10:17:25.70	0.96	27.50	-30.4	-30.6	13.3	1.43e-05	0	35	0	14143193088	28	14083
2026-01-11 10:17:26.71	0.69	27.72	-30.5	-30.8	13.2	1.43e-05	0	35	0	14260633600	27	15137
2026-01-11 10:17:27.72	0.42	27.93	-30.3	-30.6	13.2	1.43e-05	0	35	0	14369685504	27	14858
2026-01-11 10:17:28.73	0.14	28.15	-30.4	-30.7	13.2	4.29e-05	0	35	0	14487126016	27	14958
2026-01-11 10:17:29.74	359.86	28.37	-30.3	-30.5	13.3	4.29e-05	0	35	0	14596177920	27	14768
2026-01-11 10:17:30.75	359.58	28.59	-30.2	-30.5	13.3	2.86e-05	0	35	0	14713618432	27	14631
2026-01-11 10:17:31.75	359.30	28.81	-30.2	-30.5	13.3	2.86e-05	0	35	0	14831058944	27	14630
2026-01-11 10:17:32.76	359.00	29.03	-30.0	-30.3	13.3	2.38e-05	0	35	0	14940110848	27	14279
2026-01-11 10:17:33.77	358.71	29.26	-29.9	-30.2	13.4	2.38e-05	0	35	0	15049162752	27	14144
2026-01-11 10:17:34.78	358.40	29.49	-29.8	-30.1	13.3	2.38e-05	0	35	0	15166603264	26	14855
2026-01-11 10:17:35.79	358.10	29.71	-29.8	-30.1	13.3	2.38e-05	0	35	0	15275655168	26	14814
2026-01-11 10:17:36.80	357.79	29.94	-29.7	-30.0	13.3	2.38e-05	0	35	0	15393095680	26	14720
2026-01-11 10:17:37.81	357.47	30.17	-29.6	-29.9	13.3	2.38e-05	0	35	0	15510536192	26	14476
2026-01-11 10:17:38.81	357.15	30.40	-29.6	-29.9	13.3	1.43e-05	0	35	0	15619588096	26	14518
2026-01-11 10:17:39.82	356.83	30.63	-29.6	-29.9	13.3	1.43e-05	0	35	0	15737028608	26	14551
2026-01-11 10:17:40.83	356.50	30.87	-29.5	-29.7	13.4	4.70e-06	0	35	0	15846080512	26	14209
2026-01-11 10:17:41.84	356.16	31.10	-29.5	-29.7	13.4	4.70e-06	0	35	0	15963521024	26	14269
2026-01-11 10:17:42.85	355.82	31.34	-29.4	-29.7	13.4	4.70e-06	0	35	0	16072572928	26	14113
2026-01-11 10:17:43.86	355.47	31.57	-29.2	-29.5	13.3	4.70e-06	0	35	0	16190013440	25	14660
2026-01-11 10:17:44.87	355.12	31.81	-29.2	-29.5	13.3	4.70e-06	0	35	0	16299065344	25	14707
2026-01-11 10:17:45.88	354.76	32.05	-29.1	-29.4	13.4	4.70e-06	0	35	0	16416505856	25	14448
2026-01-11 10:17:46.89	354.40	32.29	-29.1	-29.3	13.4	1.43e-05	0	35	0	16533946368	25	14387
2026-01-11 10:17:47.90	354.03	32.53	-29.0	-29.3	13.4	1.43e-05	0	35	0	16642998272	25	14290
2026-01-11 10:17:48.91	353.65	32.78	-29.0	-29.2	13.4	0.00e+00	0	35	0	16760438784	25	14218
2026-01-11 10:17:49.92	353.27	33.02	-28.9	-29.2	13.4	0.00e+00	0	35	0	16869490688	25	14159
2026-01-11 10:17:50.93	352.88	33.26	-28.9	-29.2	13.4	0.00e+00	0	35	0	16978542592	25	14136
2026-01-11 10:17:51.94	352.48	33.51	-28.8	-29.1	13.3	4.70e-06	0	35	0	17095983104	24	14798
2026-01-11 10:17:52.95	352.08	33.76	-28.6	-28.9	13.4	4.70e-06	0	35	0	17213423616	24	14506
2026-01-11 10:17:53.95	351.68	34.00	-28.7	-28.9	13.4	4.70e-06	0	35	0	17322475520	24	14580
2026-01-11 10:17:54.96	351.27	34.25	-28.7	-28.9	13.3	0.00e+00	0	35	0	17439916032	24	14540
2026-01-11 10:17:55.97	350.84	34.50	-28.5	-28.8	13.4	0.00e+00	0	35	0	17548967936	24	14314
2026-01-11 10:17:56.98	350.42	34.74	-28.5	-28.7	13.3	0.00e+00	0	35	0	17666408448	24	14225
2026-01-11 10:17:57.99	349.98	34.99	-28.4	-28.7	13.4	0.00e+00	0	35	0	17775460352	24	14149
2026-01-11 10:17:59.00	349.54	35.24	-28.4	-28.6	13.3	0.00e+00	0	35	0	17892900864	23	14906
2026-01-11 10:18:00.01	349.09	35.49	-28.2	-28.4	13.3	0.00e+00	0	35	0	18001952768	23	14573
2026-01-11 10:18:01.02	348.63	35.74	-28.1	-28.4	13.4	0.00e+00	0	35	0	18119393280	23	14528
2026-01-11 10:18:02.02	348.17	35.99	-28.0	-28.3	13.4	0.00e+00	0	35	0	18228445184	23	14367
2026-01-11 10:18:03.03	347.70	36.24	-28.1	-28.4	13.3	9.50e-06	0	35	0	18345885696	23	14515
2026-01-11 10:18:04.04	347.22	36.49	-27.9	-28.2	13.4	9.50e-06	0	35	0	18463326208	23	14122
2026-01-11 10:18:05.05	346.73	36.75	-27.9	-28.1	13.3	0.00e+00	0	35	0	18572378112	22	14904
2026-01-11 10:18:06.06	346.23	37.00	-27.7	-28.0	13.4	0.00e+00	0	35	0	18689818624	22	14702
2026-01-11 10:18:07.07	345.73	37.25	-27.6	-27.9	13.4	0.00e+00	0	35	0	18798870528	22	14536
2026-01-11 10:18:08.07	345.22	37.49	-27.6	-27.9	13.4	4.70e-06	0	35	0	18907922432	22	14533
2026-01-11 10:18:09.08	344.70	37.74	-27.6	-27.8	13.4	4.70e-06	0	35	0	19025362944	22	14425
2026-01-11 10:18:10.09	344.17	37.99	-27.6	-27.8	13.4	4.70e-06	0	35	0	19134414848	22	14388
2026-01-11 10:18:11.10	343.63	38.24	-27.4	-27.7	13.4	4.70e-06	0	35	0	19251855360	22	14166
2026-01-11 10:18:12.10	343.09	38.49	-27.4	-27.7	13.4	4.70e-06	0	35	0	19369295872	22	14203
2026-01-11 10:18:13.11	342.54	38.74	-27.4	-27.6	13.4	4.70e-06	0	35	0	19478347776	22	14086
2026-01-11 10:18:14.12	341.97	38.98	-27.3	-27.6	13.4	0.00e+00	0	35	0	19595788288	21	14854
2026-01-11 10:18:15.13	341.40	39.23	-27.2	-27.4	13.4	0.00e+00	0	35	0	19704840192	21	14606
2026-01-11 10:18:16.14	340.81	39.47	-27.1	-27.3	13.4	0.00e+00	0	35	0	19813892096	21	14437
2026-01-11 10:18:17.15	340.22	39.72	-27.0	-27.3	13.4	0.00e+00	0	35	0	19931332608	21	14300
2026-01-11 10:18:18.16	339.62	39.96	-27.0	-27.3	13.4	0.00e+00	0	35	0	20048773120	21	14353
2026-01-11 10:18:19.16	339.01	40.19	-27.0	-27.2	13.4	4.70e-06	0	35	0	20157825024	21	14254
2026-01-11 10:18:20.17	338.39	40.43	-26.9	-27.2	13.4	4.70e-06	0	35	0	20275265536	21	14163
2026-01-11 10:18:21.18	337.76	40.67	-26.9	-27.2	13.4	4.70e-06	0	35	0	20384317440	21	14128
2026-01-11 10:18:22.19	337.12	40.90	-26.7	-27.0	13.3	0.00e+00	0	35	0	20501757952	20	14677
2026-01-11 10:18:23.19	336.48	41.13	-26.8	-27.1	13.3	0.00e+00	0	35	0	20619198464	20	14802
2026-01-11 10:18:24.20	335.82	41.36	-26.7	-27.0	13.3	9.50e-06	0	35	0	20728250368	20	14693
2026-01-11 10:18:25.21	335.15	41.59	-26.7	-27.0	13.3	9.50e-06	0	35	0	20837302272	20	14679
2026-01-11 10:18:26.22	334.47	41.81	-26.7	-26.9	13.3	9.50e-06	0	35	0	20954742784	20	14599
2026-01-11 10:18:27.23	333.78	42.03	-26.6	-26.9	13.3	9.50e-06	0	35	0	21063794688	20	14524
2026-01-11 10:18:28.24	333.09	42.25	-26.6	-26.9	13.3	4.70e-06	0	35	0	21181235200	20	14506
2026-01-11 10:18:29.24	332.38	42.46	-26.7	-27.0	13.3	4.70e-06	0	35	0	21298675712	20	14637
2026-01-11 10:18:30.25	331.67	42.68	-26.6	-26.9	13.3	4.70e-06	0	35	0	21407727616	20	14509
2026-01-11 10:18:31.26	330.94	42.88	-26.6	-26.8	13.3	4.70e-06	0	35	0	21525168128	20	14369
2026-01-11 10:18:32.27	330.20	43.09	-26.5	-26.7	13.4	4.70e-06	0	35	0	21634220032	20	14270
2026-01-11 10:18:33.28	329.45	43.29	-26.4	-26.6	13.4	0.00e+00	0	35	0	21743271936	20	14073
2026-01-11 10:18:34.29	328.69	43.48	-26.4	-26.7	13.3	0.00e+00	0	35	0	21860712448	19	14998
2026-01-11 10:18:35.30	327.93	43.67	-26.5	-26.7	13.3	4.70e-06	0	35	0	21978152960	19	15089
2026-01-11 10:18:36.31	327.15	43.86	-26.4	-26.7	13.3	4.70e-06	0	35	0	22087204864	19	14971
2026-01-11 10:18:37.31	326.37	44.04	-26.4	-26.6	13.3	4.70e-06	0	35	0	22204645376	19	14922
2026-01-11 10:18:38.31	325.58	44.22	-26.4	-26.6	13.3	4.70e-06	0	35	0	22313697280	19	14873
2026-01-11 10:18:39.32	324.78	44.39	-26.4	-26.6	13.3	4.70e-06	0	35	0	22431137792	19	14942
2026-01-11 10:18:40.33	323.97	44.55	-26.3	-26.6	13.3	0.00e+00	0	35	0	22540189696	19	14803
2026-01-11 10:18:41.33	323.15	44.71	-26.2	-26.5	13.3	0.00e+00	0	35	0	22649241600	19	14654
2026-01-11 10:18:42.34	322.32	44.87	-26.3	-26.5	13.3	0.00e+00	0	35	0	22766682112	19	14770
2026-01-11 10:18:43.35	321.48	45.02	-26.2	-26.5	13.3	0.00e+00	0	35	0	22884122624	19	14701
2026-01-11 10:18:44.36	320.63	45.16	-26.2	-26.4	13.3	0.00e+00	0	35	0	22993174528	19	14558
2026-01-11 10:18:45.37	319.78	45.30	-26.2	-26.4	13.3	0.00e+00	0	35	0	23110615040	19	14586
2026-01-11 10:18:46.37	318.93	45.43	-26.0	-26.3	13.4	0.00e+00	0	35	0	23219666944	19	14343
2026-01-11 10:18:47.38	318.06	45.55	-26.1	-26.4	13.3	0.00e+00	0	35	0	23328718848	19	14504
2026-01-11 10:18:48.39	317.18	45.67	-26.0	-26.3	13.3	0.00e+00	0	35	0	23454547968	19	14360
2026-01-11 10:18:49.40	316.30	45.78	-26.0	-26.3	13.4	0.00e+00	0	35	0	23563599872	19	14301
2026-01-11 10:18:50.41	315.41	45.88	-26.1	-26.4	13.4	0.00e+00	0	35	0	23672651776	19	14487
2026-01-11 10:18:51.42	314.51	45.98	-26.0	-26.2	13.4	0.00e+00	0	35	0	23790092288	19	14227
2026-01-11 10:18:52.43	313.61	46.07	-26.0	-26.2	13.4	0.00e+00	0	35	0	23899144192	19	14268
2026-01-11 10:18:53.44	312.71	46.15	-26.1	-26.3	13.4	0.00e+00	0	35	0	24016584704	19	14394
2026-01-11 10:18:54.45	311.79	46.22	-26.1	-26.4	13.3	0.00e+00	0	35	0	24134025216	19	14510
2026-01-11 10:18:55.45	310.89	46.29	-26.1	-26.3	13.3	0.00e+00	0	35	0	24243077120	19	14383
2026-01-11 10:18:56.46	309.97	46.35	-26.0	-26.2	13.4	0.00e+00	0	35	0	24360517632	19	14274
2026-01-11 10:18:57.47	309.05	46.40	-26.0	-26.3	13.4	4.70e-06	0	35	0	24469569536	19	14340
2026-01-11 10:18:58.48	308.12	46.44	-26.1	-26.3	13.4	4.70e-06	0	35	0	24578621440	19	14439
2026-01-11 10:18:59.49	307.20	46.48	-25.9	-26.1	13.4	4.70e-06	0	35	0	24696061952	19	14101
2026-01-11 10:19:00.50	306.27	46.50	-26.0	-26.2	13.4	0.00e+00	0	35	0	24813502464	19	14230
2026-01-11 10:19:01.50	305.35	46.52	-25.9	-26.1	13.4	0.00e+00	0	35	0	24922554368	18	14900
2026-01-11 10:19:02.51	304.41	46.53	-25.8	-26.0	13.4	0.00e+00	0	35	0	25039994880	18	14767
2026-01-11 10:19:03.52	303.48	46.54	-25.7	-26.0	13.4	0.00e+00	0	35	0	25149046784	18	14687
2026-01-11 10:19:04.53	302.55	46.53	-25.8	-26.1	13.4	0.00e+00	0	35	0	25258098688	18	14810
2026-01-11 10:19:05.54	301.62	46.52	-25.7	-26.0	13.5	0.00e+00	0	35	0	25383927808	18	14626
2026-01-11 10:19:06.55	300.69	46.50	-25.8	-26.1	13.4	0.00e+00	0	35	0	25492979712	18	14788
2026-01-11 10:19:07.56	299.76	46.47	-25.7	-26.0	13.4	0.00e+00	0	35	0	25602031616	18	14715
2026-01-11 10:19:08.56	298.84	46.43	-25.8	-26.0	13.4	4.70e-06	0	35	0	25719472128	18	14737
2026-01-11 10:19:09.57	297.92	46.39	-25.9	-26.1	13.4	4.70e-06	0	35	0	25828524032	18	14900
2026-01-11 10:19:10.58	297.00	46.33	-25.8	-26.1	13.4	4.70e-06	0	35	0	25945964544	18	14823
2026-01-11 10:19:11.58	296.09	46.27	-25.9	-26.2	13.4	4.70e-06	0	35	0	26055016448	18	14976
2026-01-11 10:19:12.59	295.17	46.20	-25.8	-26.1	13.4	4.70e-06	0	35	0	26164068352	18	14843
2026-01-11 10:19:13.59	294.27	46.13	-26.0	-26.2	13.4	4.70e-06	0	35	0	26281508864	18	15095
2026-01-11 10:19:14.60	293.37	46.04	-26.0	-26.2	13.4	1.43e-05	0	35	0	26398949376	18	15069
2026-01-11 10:19:15.61	292.47	45.95	-26.1	-26.3	13.4	1.43e-05	0	35	0	26508001280	18	15230
2026-01-11 10:19:16.61	291.58	45.86	-26.0	-26.3	13.4	1.43e-05	0	35	0	26625441792	18	15188
2026-01-11 10:19:17.62	290.69	45.75	-25.9	-26.1	13.4	9.50e-06	0	35	0	26734493696	18	14936
2026-01-11 10:19:18.63	289.81	45.64	-25.9	-26.2	13.4	9.50e-06	0	35	0	26851934208	18	15038
2026-01-11 10:19:19.64	288.94	45.52	-26.0	-26.3	13.4	9.50e-06	0	35	0	26960986112	18	15167
2026-01-11 10:19:20.65	288.07	45.39	-26.1	-26.3	13.4	0.00e+00	0	35	0	27078426624	18	15258
2026-01-11 10:19:21.65	287.22	45.26	-26.1	-26.4	13.4	0.00e+00	0	35	0	27187478528	18	15309
2026-01-11 10:19:22.65	286.37	45.12	-26.1	-26.4	13.3	0.00e+00	0	35	0	27304919040	18	15317
2026-01-11 10:19:23.66	285.52	44.98	-26.1	-26.4	13.3	4.70e-06	0	35	0	27413970944	18	15333
2026-01-11 10:19:24.67	284.69	44.83	-26.0	-26.3	13.3	4.70e-06	0	35	0	27531411456	18	15206
2026-01-11 10:19:25.67	283.86	44.67	-26.1	-26.4	13.3	4.70e-06	0	35	0	27640463360	18	15359
2026-01-11 10:19:26.68	283.04	44.51	-26.3	-26.5	13.3	0.00e+00	0	35	0	27757903872	18	15634
2026-01-11 10:19:27.69	282.23	44.34	-26.3	-26.5	13.3	0.00e+00	0	35	0	27866955776	18	15645
2026-01-11 10:19:28.69	281.44	44.17	-26.2	-26.5	13.3	0.00e+00	0	36	0	27984396288	18	15595
2026-01-11 10:19:29.70	280.64	43.99	-26.2	-26.4	13.3	0.00e+00	0	35	0	28093448192	18	15454
2026-01-11 10:19:30.72	279.85	43.81	-26.3	-26.6	13.3	0.00e+00	0	35	0	28210888704	18	15705
2026-01-11 10:19:31.73	279.07	43.62	-26.3	-26.6	13.3	9.50e-06	0	35	0	28319940608	18	15677
2026-01-11 10:19:32.73	278.32	43.43	-26.3	-26.6	13.3	9.50e-06	0	35	0	28437381120	18	15702
2026-01-11 10:19:33.74	277.56	43.23	-26.5	-26.7	13.3	0.00e+00	0	35	0	28554821632	18	16006
2026-01-11 10:19:34.75	276.81	43.03	-26.4	-26.7	13.3	0.00e+00	0	35	0	28663873536	18	15916
2026-01-11 10:19:35.76	276.08	42.82	-26.4	-26.7	13.3	1.43e-05	0	35	0	28781314048	18	15972
2026-01-11 10:19:36.77	275.35	42.61	-26.4	-26.7	13.3	1.43e-05	0	35	0	28890365952	18	15890
2026-01-11 10:19:37.77	274.64	42.40	-26.4	-26.7	13.3	0.00e+00	0	35	0	28999417856	18	15932
2026-01-11 10:19:38.78	273.93	42.19	-26.5	-26.8	13.3	0.00e+00	0	35	0	29116858368	18	16104
2026-01-11 10:19:39.79	273.23	41.97	-26.6	-26.9	13.3	0.00e+00	0	35	0	29225910272	18	16285
2026-01-11 10:19:40.79	272.55	41.75	-26.7	-26.9	13.4	9.50e-06	0	35	0	29343350784	19	15462
2026-01-11 10:19:41.80	271.88	41.52	-26.7	-26.9	13.4	9.50e-06	0	35	0	29460791296	19	15460
2026-01-11 10:19:42.81	271.21	41.29	-26.9	-27.1	13.4	9.50e-06	0	35	0	29569843200	19	15833
2026-01-11 10:19:43.82	270.55	41.06	-26.8	-27.1	13.4	4.70e-06	0	35	0	29687283712	19	15753
2026-01-11 10:19:44.82	269.91	40.83	-26.9	-27.1	13.4	4.70e-06	0	35	0	29796335616	19	15796
2026-01-11 10:19:45.83	269.27	40.60	-26.9	-27.2	13.4	4.70e-06	0	35	0	29905387520	19	15915
2026-01-11 10:19:46.84	268.64	40.36	-27.0	-27.2	13.4	4.70e-06	0	35	0	30022828032	19	16005
2026-01-11 10:19:47.85	268.02	40.12	-26.9	-27.2	13.4	4.70e-06	0	35	0	30140268544	19	15978
2026-01-11 10:19:48.86	267.41	39.88	-27.0	-27.3	13.4	4.70e-06	0	35	0	30249320448	20	15158
2026-01-11 10:19:49.87	266.81	39.64	-27.1	-27.4	13.4	4.70e-06	0	35	0	30366760960	20	15321
2026-01-11 10:19:50.87	266.22	39.39	-27.1	-27.4	13.4	0.00e+00	0	35	0	30475812864	20	15297
2026-01-11 10:19:51.88	265.64	39.15	-27.2	-27.5	13.4	0.00e+00	0	35	0	30584864768	20	15521
2026-01-11 10:19:52.89	265.07	38.90	-27.2	-27.5	13.4	4.70e-06	0	35	0	30702305280	20	15500
2026-01-11 10:19:53.90	264.51	38.66	-27.3	-27.5	13.4	4.70e-06	0	35	0	30819745792	20	15619
2026-01-11 10:19:54.91	263.95	38.41	-27.3	-27.6	13.4	4.70e-06	0	35	0	30928797696	20	15728
2026-01-11 10:19:55.91	263.41	38.16	-27.4	-27.7	13.4	4.70e-06	0	35	0	31046238208	20	15895
2026-01-11 10:19:56.93	262.87	37.91	-27.5	-27.7	13.4	4.70e-06	0	35	0	31155290112	20	15986
2026-01-11 10:19:57.94	262.34	37.66	-27.6	-27.9	13.4	4.70e-06	0	35	0	31272730624	20	16205
2026-01-11 10:19:58.95	261.82	37.41	-27.6	-27.9	13.4	4.70e-06	0	35	0	31390171136	20	16265
2026-01-11 10:19:59.95	261.31	37.16	-27.7	-28.0	13.4	9.50e-06	0	36	0	31499223040	21	15478
2026-01-11 10:20:00.96	260.81	36.91	-27.7	-28.0	13.4	9.50e-06	0	35	0	31616663552	21	15563
2026-01-11 10:20:01.97	260.32	36.65	-27.8	-28.0	13.4	9.50e-06	0	35	0	31725715456	21	15648
2026-01-11 10:20:02.98	259.83	36.40	-27.9	-28.2	13.4	4.70e-06	0	35	0	31834767360	21	15912
2026-01-11 10:20:03.98	259.35	36.15	-28.0	-28.2	13.4	4.70e-06	0	35	0	31952207872	21	16006
2026-01-11 10:20:04.99	258.88	35.90	-28.0	-28.2	13.4	3.33e-05	0	36	0	32069648384	21	15982
2026-01-11 10:20:06.00	258.42	35.65	-28.1	-28.3	13.4	3.33e-05	0	35	0	32178700288	21	16170
2026-01-11 10:20:07.01	257.96	35.40	-28.1	-28.4	13.4	3.33e-05	0	35	0	32296140800	21	16262
2026-01-11 10:20:08.02	257.51	35.15	-28.3	-28.5	13.4	2.38e-05	0	35	0	32405192704	22	15609
2026-01-11 10:20:09.03	257.07	34.90	-28.3	-28.5	13.4	2.38e-05	0	35	0	32514244608	22	15619
2026-01-11 10:20:10.04	256.64	34.65	-28.4	-28.7	13.4	2.38e-05	0	35	0	32640073728	22	15984
2026-01-11 10:20:11.05	256.21	34.40	-28.5	-28.7	13.4	1.90e-05	0	35	0	32749125632	22	15952
2026-01-11 10:20:12.06	255.79	34.15	-28.4	-28.7	13.4	1.90e-05	0	35	0	32858177536	22	15866
2026-01-11 10:20:13.06	255.38	33.90	-28.5	-28.8	13.4	1.43e-05	0	35	0	32975618048	22	16108
2026-01-11 10:20:14.07	254.97	33.66	-28.6	-28.9	13.4	1.43e-05	0	35	0	33084669952	23	15383
2026-01-11 10:20:15.08	254.57	33.41	-28.6	-28.9	13.4	1.43e-05	0	35	0	33202110464	23	15435
2026-01-11 10:20:16.09	254.18	33.16	-28.8	-29.0	13.4	4.70e-06	0	35	0	33311162368	23	15603
2026-01-11 10:20:17.10	253.79	32.92	-28.8	-29.0	13.4	4.70e-06	0	35	0	33428602880	23	15635
2026-01-11 10:20:18.11	253.41	32.67	-28.9	-29.2	13.4	4.70e-06	0	35	0	33546043392	23	15879
2026-01-11 10:20:19.12	253.04	32.43	-29.0	-29.2	13.4	3.81e-05	0	35	0	33655095296	23	15995
2026-01-11 10:20:20.12	252.67	32.19	-29.1	-29.4	13.4	3.81e-05	0	35	0	33764147200	23	16208
2026-01-11 10:20:21.13	252.31	31.95	-29.2	-29.4	13.4	3.81e-05	0	36	0	33881587712	24	15439
2026-01-11 10:20:22.14	251.95	31.71	-29.1	-29.4	13.4	1.43e-05	0	35	0	33990639616	24	15385
2026-01-11 10:20:23.15	251.60	31.47	-29.3	-29.6	13.3	1.43e-05	0	35	0	34108080128	24	15716
2026-01-11 10:20:24.15	251.25	31.24	-29.3	-29.6	13.3	4.70e-06	0	35	0	34225520640	24	15661
2026-01-11 10:20:25.16	250.91	31.00	-29.4	-29.7	13.3	4.70e-06	0	35	0	34334572544	24	15894
2026-01-11 10:20:26.17	250.58	30.76	-29.5	-29.8	13.3	4.70e-06	0	35	0	34443624448	24	16055
2026-01-11 10:20:27.18	250.25	30.53	-29.6	-29.8	13.3	1.43e-05	0	35	0	34561064960	24	16194
2026-01-11 10:20:28.19	249.92	30.30	-29.7	-30.0	13.3	1.43e-05	0	35	0	34670116864	25	15503
2026-01-11 10:20:29.20	249.60	30.06	-29.8	-30.0	13.3	1.43e-05	0	35	0	34787557376	25	15641
2026-01-11 10:20:30.20	249.29	29.84	-29.8	-30.1	13.3	1.43e-05	0	35	0	34904997888	25	15748
2026-01-11 10:20:31.21	248.98	29.61	-29.9	-30.2	13.3	1.43e-05	0	35	0	35014049792	25	15890
2026-01-11 10:20:32.22	248.67	29.38	-30.0	-30.3	13.3	1.43e-05	0	35	0	35131490304	25	16122
2026-01-11 10:20:33.23	248.37	29.15	-30.1	-30.4	13.3	5.24e-05	0	35	0	35240542208	26	15382
2026-01-11 10:20:34.23	248.08	28.93	-30.2	-30.5	13.3	5.24e-05	0	35	0	35349594112	26	15518
2026-01-11 10:20:35.24	247.78	28.71	-30.3	-30.5	13.2	5.24e-05	0	35	0	35475423232	26	15652
2026-01-11 10:20:36.24	247.50	28.49	-30.4	-30.6	13.2	1.90e-05	0	35	0	35584475136	26	15812
2026-01-11 10:20:37.24	247.22	28.27	-30.4	-30.6	13.2	1.90e-05	0	35	0	35693527040	26	15790
2026-01-11 10:20:38.25	246.94	28.05	-30.5	-30.8	13.2	3.33e-05	0	35	0	35810967552	26	16093
2026-01-11 10:20:39.26	246.67	27.83	-30.7	-30.9	13.2	3.33e-05	0	35	0	35920019456	27	15424
2026-01-11 10:20:40.27	246.39	27.61	-30.7	-30.9	13.2	3.33e-05	0	35	0	36037459968	27	15459
2026-01-11 10:20:41.28	246.13	27.40	-30.8	-31.1	13.2	3.33e-05	0	35	0	36146511872	27	15661
2026-01-11 10:20:42.29	245.86	27.18	-30.9	-31.2	13.2	2.86e-05	0	35	0	36255563776	27	15935
2026-01-11 10:20:43.30	245.61	26.97	-31.0	-31.3	13.2	2.86e-05	0	36	0	36373004288	27	16065
2026-01-11 10:20:44.31	245.35	26.76	-31.1	-31.4	13.2	2.86e-05	0	36	0	36490444800	27	16248
2026-01-11 10:20:45.31	245.10	26.55	-31.2	-31.4	13.2	6.67e-05	0	35	0	36599496704	28	15416
2026-01-11 10:20:46.32	244.85	26.34	-31.1	-31.3	13.2	6.67e-05	0	35	0	36716937216	28	15261
2026-01-11 10:20:47.33	244.61	26.13	-31.2	-31.4	13.1	4.76e-05	0	35	0	36825989120	28	15464
2026-01-11 10:20:48.34	244.37	25.93	-31.3	-31.5	13.1	4.76e-05	0	36	0	36943429632	28	15652
2026-01-11 10:20:49.35	244.13	25.72	-31.2	-31.5	13.1	4.76e-05	0	35	0	37060870144	28	15579
2026-01-11 10:20:50.36	243.90	25.52	-31.3	-31.6	13.1	6.67e-05	0	35	0	37169922048	28	15745
2026-01-11 10:20:51.37	243.67	25.32	-31.3	-31.5	13.1	6.67e-05	0	35	0	37278973952	28	15648
2026-01-11 10:20:52.37	243.44	25.12	-31.3	-31.6	13.1	8.58e-05	0	36	0	37396414464	28	15789
2026-01-11 10:20:53.37	243.22	24.92	-31.5	-31.8	13.1	8.58e-05	0	35	0	37505466368	28	16062
2026-01-11 10:20:54.39	243.00	24.72	-31.6	-31.9	13.1	8.58e-05	0	35	0	37622906880	29	15312
2026-01-11 10:20:55.39	242.78	24.53	-31.7	-32.0	13.1	1.24e-04	0	35	0	37731958784	29	15506
2026-01-11 10:20:56.40	242.56	24.33	-31.8	-32.0	13.1	1.24e-04	0	36	0	37849399296	29	15623
2026-01-11 10:20:57.40	242.35	24.14	-31.9	-32.2	13.0	1.24e-04	0	36	0	37966839808	29	15840
2026-01-11 10:20:58.41	242.15	23.95	-32.0	-32.2	13.0	7.62e-05	0	36	0	38075891712	29	15970
2026-01-11 10:20:59.42	241.94	23.76	-31.9	-32.2	13.0	7.62e-05	0	36	0	38184943616	29	15857
2026-01-11 10:21:00.43	241.74	23.57	-31.9	-32.1	13.0	1.48e-04	0	35	0	38302384128	29	15820
2026-01-11 10:21:01.44	241.53	23.38	-31.9	-32.2	13.0	1.48e-04	0	36	0	38411436032	29	15928
2026-01-11 10:21:02.45	241.34	23.19	-32.0	-32.3	13.0	1.48e-04	0	35	0	38528876544	29	16110
2026-01-11 10:21:03.46	241.14	23.01	-32.0	-32.3	13.0	1.57e-04	0	36	0	38646317056	29	16084
2026-01-11 10:21:04.47	240.95	22.82	-32.1	-32.3	13.0	1.57e-04	0	36	0	38755368960	30	15285
2026-01-11 10:21:05.48	240.76	22.64	-32.0	-32.2	13.0	1.57e-04	0	36	0	38864420864	30	15095
2026-01-11 10:21:06.48	240.57	22.46	-32.1	-32.4	13.0	1.19e-04	0	35	0	38981861376	30	15313
2026-01-11 10:21:07.49	240.39	22.28	-32.1	-32.4	13.0	1.19e-04	0	36	0	39099301888	30	15319
2026-01-11 10:21:08.50	240.20	22.10	-32.2	-32.5	13.0	1.19e-04	0	36	0	39208353792	30	15543
2026-01-11 10:21:09.51	240.02	21.92	-32.3	-32.6	13.0	1.29e-04	0	35	0	39325794304	30	15674
2026-01-11 10:21:10.52	239.85	21.74	-32.4	-32.7	13.0	1.29e-04	0	35	0	39434846208	30	15895
2026-01-11 10:21:11.53	239.67	21.57	-32.4	-32.7	13.0	1.29e-04	0	35	0	39552286720	30	15850
2026-01-11 10:21:12.54	239.50	21.39	-32.5	-32.8	13.0	1.05e-04	0	36	0	39661338624	30	16027
2026-01-11 10:21:13.54	239.33	21.22	-32.5	-32.8	13.0	1.05e-04	0	36	0	39778779136	30	16114
2026-01-11 10:21:14.55	239.16	21.05	-32.7	-33.0	13.0	1.05e-04	0	36	0	39896219648	31	15539
2026-01-11 10:21:15.56	238.99	20.88	-32.8	-33.0	13.0	1.48e-04	0	35	0	40005271552	31	15627
2026-01-11 10:21:16.56	238.83	20.71	-32.7	-33.0	13.0	1.48e-04	0	35	0	40114323456	31	15487
2026-01-11 10:21:17.57	238.66	20.54	-32.7	-33.0	13.0	1.33e-04	0	36	0	40231763968	31	15517
2026-01-11 10:21:18.58	238.50	20.38	-32.9	-33.1	12.9	1.33e-04	0	36	0	40340815872	31	15826
2026-01-11 10:21:19.59	238.34	20.21	-32.9	-33.2	12.9	1.33e-04	0	36	0	40458256384	31	15961
2026-01-11 10:21:20.60	238.19	20.05	-33.1	-33.4	12.9	2.19e-04	0	36	0	40575696896	32	15299
2026-01-11 10:21:21.61	238.03	19.88	-33.1	-33.4	12.9	2.19e-04	0	36	0	40684748800	32	15361
2026-01-11 10:21:22.61	237.88	19.72	-33.3	-33.6	12.9	2.72e-04	0	36	0	40793800704	32	15662
2026-01-11 10:21:23.62	237.73	19.56	-33.3	-33.6	12.9	2.72e-04	0	36	0	40911241216	32	15809
2026-01-11 10:21:24.63	237.58	19.40	-33.4	-33.7	12.9	2.72e-04	0	36	0	41020293120	32	15967
2026-01-11 10:21:25.63	237.44	19.24	-33.5	-33.8	12.9	2.72e-04	0	36	0	41137733632	32	16177
2026-01-11 10:21:26.64	237.29	19.08	-33.6	-33.9	12.9	4.15e-04	0	36	0	41255174144	32	16271
2026-01-11 10:21:27.65	237.15	18.93	-33.7	-33.9	12.9	4.15e-04	0	35	0	41364226048	33	15435
2026-01-11 10:21:28.66	237.00	18.77	-33.8	-34.1	12.8	5.05e-04	0	36	0	41481666560	33	15703
2026-01-11 10:21:29.67	236.86	18.62	-34.0	-34.2	12.8	5.05e-04	0	36	0	41590718464	33	15985
2026-01-11 10:21:30.68	236.72	18.46	-34.0	-34.2	12.8	5.05e-04	0	36	0	41699770368	33	15987
2026-01-11 10:21:31.68	236.59	18.31	-34.2	-34.5	12.8	5.05e-04	0	36	0	41817210880	34	15496
2026-01-11 10:21:32.69	236.45	18.16	-34.3	-34.5	12.7	6.58e-04	0	36	0	41934651392	34	15651
2026-01-11 10:21:33.70	236.32	18.01	-34.3	-34.5	12.7	6.58e-04	0	36	0	42043703296	34	15628
2026-01-11 10:21:34.71	236.19	17.86	-34.3	-34.6	12.7	9.68e-04	0	36	0	42161143808	34	15771
2026-01-11 10:21:35.72	236.05	17.71	-34.4	-34.7	12.6	9.68e-04	0	36	0	42270195712	34	15933
2026-01-11 10:21:36.72	235.93	17.56	-34.5	-34.8	12.6	9.68e-04	0	36	0	42387636224	34	16028
2026-01-11 10:21:37.73	235.80	17.42	-34.7	-35.0	12.5	2.72e-03	0	36	0	42496688128	35	15503
2026-01-11 10:21:38.74	235.67	17.27	-34.8	-35.1	12.5	2.72e-03	0	36	0	42614128640	35	15700
2026-01-11 10:21:39.74	235.55	17.13	-34.9	-35.2	12.5	5.36e-03	0	36	0	42723180544	35	15837
2026-01-11 10:21:40.74	235.43	16.99	-34.9	-35.3	12.4	5.36e-03	0	36	0	42840621056	35	16026
2026-01-11 10:21:41.75	235.30	16.84	-35.1	-35.4	12.4	5.36e-03	0	36	0	42949672960	35	16291
2026-01-11 10:21:42.76	235.18	16.70	-37.7	-38.0	12.6	6.77e-03	0	36	0	43067113472	41	15517
2026-01-11 10:21:43.77	235.06	16.56	-37.9	-38.2	12.5	6.77e-03	0	36	0	43176165376	41	15889
2026-01-11 10:21:44.78	234.94	16.42	-58.3	-61.5	6.2	6.77e-03	0	36	104	43251662848	82	22005
2026-01-11 10:21:45.78	234.83	16.28	-58.3	-61.5	6.1	6.77e-03	0	35	104	43251662848	82	21951
2026-01-11 10:21:46.78	234.71	16.15	-58.3	-61.5	6.2	6.77e-03	0	35	104	43251662848	82	21951
2026-01-11 10:21:47.79	234.60	16.01	-58.2	-61.5	6.2	2.62e-03	0	35	104	43251662848	82	21960
2026-01-11 10:21:48.80	234.49	15.87	-58.3	-61.5	6.2	2.62e-03	0	35	104	43251662848	82	21929
2026-01-11 10:21:49.81	234.37	15.74	-58.2	-61.5	6.2	2.62e-03	0	35	104	43251662848	82	21864
2026-01-11 10:21:50.82	234.26	15.60	-58.2	-61.5	6.1	2.62e-03	0	35	104	43251662848	82	21877
2026-01-11 10:21:51.83	234.15	15.47	-58.2	-61.4	6.2	2.62e-03	0	35	104	43251662848	82	21836
2026-01-11 10:21:52.84	234.04	15.33	-58.2	-61.4	6.2	2.62e-03	0	35	104	43251662848	82	21793
2026-01-11 10:21:53.85	233.94	15.20	-58.2	-61.4	6.2	2.62e-03	0	35	104	43251662848	82	21690
2026-01-11 10:21:54.86	233.83	15.07	-58.2	-61.4	6.2	2.62e-03	0	35	104	43251662848	82	21843
2026-01-11 10:21:55.86	233.73	14.94	-58.2	-61.4	6.1	2.62e-03	0	35	104	43251662848	82	21796
2026-01-11 10:21:56.87	233.62	14.81	-58.2	-61.4	6.2	2.62e-03	0	35	104	43251662848	82	21705
2026-01-11 10:21:57.88	233.52	14.68	-58.1	-61.3	6.2	0.00e+00	0	35	104	43251662848	82	21480
2026-01-11 10:21:58.89	233.42	14.56	-58.2	-61.4	6.1	0.00e+00	0	35	104	43251662848	82	21688
2026-01-11 10:21:59.90	233.32	14.43	-58.1	-61.4	6.2	0.00e+00	0	34	104	43251662848	82	21633
2026-01-11 10:22:00.91	233.22	14.30	-58.1	-61.3	6.2	0.00e+00	0	35	104	43251662848	82	21523
2026-01-11 10:22:01.92	233.12	14.18	-58.1	-61.3	6.2	0.00e+00	0	35	104	43251662848	82	21479
2026-01-11 10:22:02.93	233.02	14.05	-58.1	-61.3	6.2	0.00e+00	0	35	104	43251662848	82	21604
2026-01-11 10:22:03.94	232.93	13.93	-58.1	-61.4	6.2	0.00e+00	0	35	104	43251662848	82	21645
2026-01-11 10:22:04.94	232.83	13.80	-58.1	-61.3	6.2	0.00e+00	0	34	104	43251662848	82	21455
2026-01-11 10:22:05.95	232.74	13.68	-58.0	-61.2	6.2	0.00e+00	0	34	104	43251662848	82	21342
2026-01-11 10:22:06.96	232.64	13.56	-58.1	-61.3	6.2	0.00e+00	0	34	104	43251662848	82	21506
2026-01-11 10:22:07.97	232.55	13.44	-58.1	-61.3	6.2	0.00e+00	0	34	104	43251662848	82	21514
2026-01-11 10:22:08.98	232.46	13.32	-58.1	-61.3	6.2	0.00e+00	0	34	104	43251662848	82	21359
2026-01-11 10:22:09.99	232.37	13.20	-58.0	-61.2	6.1	0.00e+00	0	34	104	43251662848	82	21326
2026-01-11 10:22:11.00	232.28	13.08	-58.1	-61.3	6.2	0.00e+00	0	34	104	43251662848	82	21447
2026-01-11 10:22:12.01	232.19	12.96	-58.1	-61.3	6.1	0.00e+00	0	34	104	43251662848	82	21383
2026-01-11 10:22:13.02	232.10	12.84	-58.0	-61.2	6.1	0.00e+00	0	34	104	43251662848	82	21275
2026-01-11 10:22:14.02	232.01	12.72	-58.0	-61.2	6.2	0.00e+00	0	34	104	43251662848	82	21223
2026-01-11 10:22:15.03	231.93	12.61	-58.0	-61.2	6.2	0.00e+00	0	34	104	43251662848	82	21352
2026-01-11 10:22:16.03	231.84	12.49	-58.0	-61.3	6.2	0.00e+00	0	34	104	43251662848	82	21383
2026-01-11 10:22:17.04	231.76	12.38	-58.0	-61.2	6.1	0.00e+00	0	34	104	43251662848	82	21180
2026-01-11 10:22:18.05	231.67	12.26	-58.0	-61.2	6.2	0.00e+00	0	34	104	43251662848	82	21263
2026-01-11 10:22:19.06	231.59	12.15	-58.0	-61.3	6.2	0.00e+00	0	34	104	43251662848	82	21391
2026-01-11 10:22:20.07	231.51	12.04	-58.0	-61.2	6.2	0.00e+00	0	34	104	43251662848	82	21290
2026-01-11 10:22:21.08	231.43	11.92	-58.0	-61.2	6.2	0.00e+00	0	34	104	43251662848	82	21357
2026-01-11 10:22:22.09	231.35	11.81	-58.0	-61.2	6.2	0.00e+00	0	34	104	43251662848	82	21148
2026-01-11 10:22:23.10	231.27	11.70	-58.0	-61.2	6.2	0.00e+00	0	34	104	43251662848	82	21311
2026-01-11 10:22:24.11	231.19	11.59	-58.0	-61.2	6.2	0.00e+00	0	34	104	43251662848	82	21202
2026-01-11 10:22:25.11	231.11	11.48	-57.9	-61.2	6.2	0.00e+00	0	34	104	43251662848	82	21115
2026-01-11 10:22:26.12	231.03	11.37	-57.9	-61.1	6.2	0.00e+00	0	34	104	43251662848	82	20995
2026-01-11 10:22:27.12	230.95	11.26	-57.9	-61.1	6.2	0.00e+00	0	34	104	43251662848	82	21091
2026-01-11 10:22:28.13	230.88	11.15	-57.9	-61.1	6.2	0.00e+00	0	34	104	43251662848	82	21084
2026-01-11 10:22:29.14	230.80	11.05	-57.9	-61.1	6.2	0.00e+00	0	34	104	43251662848	82	21016
2026-01-11 10:22:30.15	230.73	10.94	-57.9	-61.1	6.2	0.00e+00	0	34	104	43251662848	82	20955
2026-01-11 10:22:31.15	230.65	10.83	-57.9	-61.1	6.2	0.00e+00	0	34	104	43251662848	82	20998
2026-01-11 10:22:32.16	230.58	10.73	-57.9	-61.1	6.1	0.00e+00	0	34	104	43251662848	82	20956
2026-01-11 10:22:33.17	230.51	10.62	-57.9	-61.1	6.2	0.00e+00	0	34	104	43251662848	82	20883
2026-01-11 10:22:34.18	230.43	10.52	-57.8	-61.1	6.2	0.00e+00	0	34	104	43251662848	82	20873
2026-01-11 10:22:35.18	230.36	10.41	-57.9	-61.1	6.1	0.00e+00	0	34	104	43251662848	82	20922
2026-01-11 10:22:36.19	230.29	10.31	-57.9	-61.1	6.2	0.00e+00	0	34	104	43251662848	82	20934
2026-01-11 10:22:37.20	230.22	10.21	-57.8	-61.0	6.1	0.00e+00	0	34	104	43251662848	82	20844
2026-01-11 10:22:38.21	230.15	10.10	-57.8	-61.0	6.2	0.00e+00	0	34	104	43251662848	82	20781
2026-01-11 10:22:39.22	230.08	10.00	-57.8	-61.0	6.2	0.00e+00	0	34	104	43251662848	82	20810
2026-01-11 10:22:40.22	230.02	9.90	-57.8	-61.0	6.2	0.00e+00	0	34	104	43251662848	82	20721
2026-01-11 10:22:41.23	229.95	9.80	-57.8	-61.0	6.2	0.00e+00	0	34	104	43251662848	82	20750
2026-01-11 10:22:42.24	229.88	9.70	-57.8	-61.0	6.2	0.00e+00	0	34	104	43251662848	82	20688
2026-01-11 10:22:43.24	229.81	9.60	-57.8	-61.0	6.2	0.00e+00	0	34	104	43251662848	82	20778
2026-01-11 10:22:44.25	229.75	9.50	-57.8	-61.0	6.2	0.00e+00	0	34	104	43251662848	82	20689
2026-01-11 10:22:45.26	229.68	9.40	-57.7	-60.9	6.2	0.00e+00	0	34	104	43251662848	82	20602
2026-01-11 10:22:46.27	229.62	9.30	-57.7	-61.0	6.1	0.00e+00	0	34	104	43251662848	82	20681
2026-01-11 10:22:47.28	229.55	9.20	-57.8	-60.9	6.1	0.00e+00	0	34	104	43251662848	82	20623
2026-01-11 10:22:48.29	229.49	9.11	-57.7	-60.9	6.2	0.00e+00	0	34	104	43251662848	82	20628
2026-01-11 10:22:49.30	229.43	9.01	-57.7	-60.9	6.1	0.00e+00	0	34	104	43251662848	82	20630
2026-01-11 10:22:50.31	229.36	8.91	-57.7	-60.9	6.2	0.00e+00	0	34	104	43251662848	82	20576
2026-01-11 10:22:51.32	229.30	8.81	-57.7	-60.9	6.2	0.00e+00	0	34	104	43251662848	82	20584
2026-01-11 10:22:52.32	229.24	8.72	-57.7	-60.9	6.2	0.00e+00	0	34	104	43251662848	82	20543
2026-01-11 10:22:53.33	229.18	8.62	-57.6	-60.9	6.2	0.00e+00	0	34	104	43251662848	82	20471
2026-01-11 10:22:54.34	229.12	8.53	-57.7	-60.9	6.2	0.00e+00	0	34	104	43251662848	82	20520
2026-01-11 10:22:55.35	229.06	8.43	-57.7	-60.9	6.2	0.00e+00	0	33	104	43251662848	82	20577
2026-01-11 10:22:56.36	229.00	8.34	-57.6	-60.9	6.2	0.00e+00	0	34	104	43251662848	82	20398
2026-01-11 10:22:57.36	228.94	8.25	-57.6	-60.8	6.2	0.00e+00	0	34	104	43251662848	82	20272
2026-01-11 10:22:58.37	228.88	8.15	-57.6	-60.8	6.2	0.00e+00	0	33	104	43251662848	82	20284
2026-01-11 10:22:59.38	228.82	8.06	-57.6	-60.8	6.2	0.00e+00	0	34	104	43251662848	82	20366
2026-01-11 10:23:00.39	228.76	7.97	-57.6	-60.8	6.1	0.00e+00	0	34	104	43251662848	82	20211
2026-01-11 10:23:01.39	228.71	7.88	-57.5	-60.8	6.2	0.00e+00	0	34	104	43251662848	82	20236
2026-01-11 10:23:02.40	228.65	7.79	-57.6	-60.8	6.2	0.00e+00	0	33	104	43251662848	82	20263
2026-01-11 10:23:03.41	228.59	7.69	-57.6	-60.8	6.2	0.00e+00	0	33	104	43251662848	82	20296
2026-01-11 10:23:04.42	228.54	7.60	-57.5	-60.8	6.2	0.00e+00	0	33	104	43251662848	82	20168
2026-01-11 10:23:05.42	228.48	7.51	-57.5	-60.7	6.2	0.00e+00	0	33	104	43251662848	82	20121
2026-01-11 10:23:06.43	228.43	7.42	-57.5	-60.7	6.2	0.00e+00	0	33	104	43251662848	82	20146
2026-01-11 10:23:07.44	228.37	7.33	-57.6	-60.7	6.2	0.00e+00	0	34	104	43251662848	82	20161
2026-01-11 10:23:08.45	228.32	7.25	-57.5	-60.7	6.2	0.00e+00	0	33	104	43251662848	82	20127
2026-01-11 10:23:09.45	228.27	7.16	-57.5	-60.7	6.2	0.00e+00	0	34	104	43251662848	82	20005
2026-01-11 10:23:10.46	228.21	7.07	-57.5	-60.7	6.2	0.00e+00	0	33	104	43251662848	82	20100
2026-01-11 10:23:11.47	228.16	6.98	-57.5	-60.7	6.2	0.00e+00	0	33	104	43251662848	82	20000
2026-01-11 10:23:12.48	228.11	6.89	-57.5	-60.7	6.2	0.00e+00	0	33	104	43251662848	82	19991
2026-01-11 10:23:13.49	228.06	6.81	-57.4	-60.6	6.2	0.00e+00	0	33	104	43251662848	82	19897
2026-01-11 10:23:14.49	228.01	6.72	-57.5	-60.7	6.2	0.00e+00	0	33	104	43251662848	82	20060
2026-01-11 10:23:15.49	227.95	6.63	-57.5	-60.7	6.2	0.00e+00	0	34	104	43251662848	82	20045
2026-01-11 10:23:16.50	227.90	6.55	-57.4	-60.6	6.2	0.00e+00	0	33	104	43251662848	82	19915
2026-01-11 10:23:17.51	227.85	6.46	-57.3	-60.5	6.2	0.00e+00	0	33	104	43251662848	81	20782
2026-01-11 10:23:18.51	227.80	6.38	-57.4	-60.6	6.2	0.00e+00	0	33	104	43251662848	81	20982
2026-01-11 10:23:19.52	227.75	6.29	-57.4	-60.6	6.2	0.00e+00	0	33	104	43251662848	81	20930
2026-01-11 10:23:20.53	227.71	6.21	-57.3	-60.5	6.2	0.00e+00	0	33	104	43251662848	81	20831
2026-01-11 10:23:21.54	227.66	6.12	-57.3	-60.5	6.2	0.00e+00	0	34	104	43251662848	81	20725
2026-01-11 10:23:22.55	227.61	6.04	-57.3	-60.5	6.2	0.00e+00	0	33	104	43251662848	81	20792
2026-01-11 10:23:23.56	227.56	5.96	-57.3	-60.5	6.2	0.00e+00	0	33	104	43251662848	81	20833
2026-01-11 10:23:24.57	227.51	5.87	-57.2	-60.5	6.2	0.00e+00	0	33	104	43251662848	81	20657
2026-01-11 10:23:25.58	227.47	5.79	-57.2	-60.4	6.1	0.00e+00	0	33	104	43251662848	81	20563
2026-01-11 10:23:26.58	227.42	5.71	-57.3	-60.5	6.2	0.00e+00	0	33	104	43251662848	81	20771
2026-01-11 10:23:27.59	227.37	5.63	-57.3	-60.5	6.2	0.00e+00	0	33	104	43251662848	81	20749
2026-01-11 10:23:28.59	227.33	5.54	-57.2	-60.4	6.2	0.00e+00	0	33	104	43251662848	81	20551
2026-01-11 10:23:29.60	227.28	5.46	-57.1	-60.3	6.2	0.00e+00	0	33	104	43251662848	81	20365
2026-01-11 10:23:30.61	227.23	5.38	-57.2	-60.4	6.2	0.00e+00	0	33	104	43251662848	81	20597
2026-01-11 10:23:31.61	227.19	5.30	-57.2	-60.4	6.2	0.00e+00	0	33	104	43251662848	81	20545
2026-01-11 10:23:32.61	227.15	5.22	-57.1	-60.3	6.2	0.00e+00	0	33	104	43251662848	81	20322
2026-01-11 10:23:33.62	227.10	5.14	-57.1	-60.3	6.2	0.00e+00	0	33	104	43251662848	81	20249
2026-01-11 10:23:34.63	227.06	5.06	-57.2	-60.4	6.2	0.00e+00	0	33	104	43251662848	81	20485
2026-01-11 10:23:35.64	227.01	4.98	-57.3	-60.5	6.2	0.00e+00	0	33	104	43251662848	81	20685
2026-01-11 10:23:36.65	226.97	4.90	-57.8	-61.0	6.2	0.00e+00	0	33	104	43251662848	81	21913
2026-01-11 10:23:37.65	226.93	4.82	-58.1	-61.3	6.1	0.00e+00	0	33	104	43251662848	81	22673
2026-01-11 10:23:38.66	226.88	4.74	-58.3	-61.5	6.2	0.00e+00	0	33	104	43251662848	82	22054
2026-01-11 10:23:39.67	226.84	4.66	-58.5	-61.7	6.2	0.00e+00	0	33	104	43251662848	82	22530
2026-01-11 10:23:40.68	226.80	4.59	-58.6	-61.8	6.2	0.00e+00	0	33	104	43251662848	82	22869
2026-01-11 10:23:41.69	226.76	4.51	-58.7	-62.0	6.2	0.00e+00	0	33	104	43251662848	83	21859
2026-01-11 10:23:42.70	226.71	4.43	-58.8	-62.0	6.1	0.00e+00	0	33	104	43251662848	83	22058
2026-01-11 10:23:43.71	226.67	4.35	-58.9	-62.1	6.2	0.00e+00	0	33	104	43251662848	83	22216
2026-01-11 10:23:44.72	226.63	4.27	-58.9	-62.2	6.2	0.00e+00	0	33	104	43251662848	83	22380
2026-01-11 10:23:45.73	226.59	4.20	-59.0	-62.2	6.2	0.00e+00	0	33	104	43251662848	83	22390
2026-01-11 10:23:46.73	226.55	4.12	-59.0	-62.2	6.2	0.00e+00	0	33	104	43251662848	83	22528
2026-01-11 10:23:47.73	226.51	4.05	-59.0	-62.3	6.2	0.00e+00	0	33	104	43251662848	83	22670
2026-01-11 10:23:48.75	226.47	3.97	-59.0	-62.3	6.2	0.00e+00	0	33	104	43251662848	83	22705
2026-01-11 10:23:49.76	226.43	3.89	-59.1	-62.3	6.2	0.00e+00	0	33	104	43251662848	83	22726
2026-01-11 10:23:50.77	226.39	3.82	-59.1	-62.3	6.2	0.00e+00	0	33	104	43251662848	83	22831
2026-01-11 10:23:51.77	226.35	3.74	-59.1	-62.4	6.2	0.00e+00	0	33	104	43251662848	83	22903
2026-01-11 10:23:52.78	226.31	3.67	-59.3	-62.5	6.2	0.00e+00	0	33	104	43251662848	84	22090
2026-01-11 10:23:53.79	226.28	3.59	-59.4	-62.6	6.1	0.00e+00	0	33	104	43251662848	84	22237
2026-01-11 10:23:54.80	226.24	3.52	-59.4	-62.7	6.2	0.00e+00	0	33	104	43251662848	84	22380
2026-01-11 10:23:55.80	226.20	3.44	-59.4	-62.7	6.2	0.00e+00	0	33	104	43251662848	84	22411
2026-01-11 10:23:56.81	226.16	3.37	-59.4	-62.7	6.2	0.00e+00	0	33	104	43251662848	84	22420
2026-01-11 10:23:57.82	226.12	3.30	-59.4	-62.7	6.2	0.00e+00	0	33	104	43251662848	84	22515
2026-01-11 10:23:58.83	226.09	3.22	-59.4	-62.6	6.2	0.00e+00	0	33	104	43251662848	84	22339
2026-01-11 10:23:59.84	226.05	3.15	-59.4	-62.7	6.1	0.00e+00	0	33	104	43251662848	84	22381
2026-01-11 10:24:00.85	226.01	3.08	-59.4	-62.6	6.2	0.00e+00	0	33	104	43251662848	84	22252
2026-01-11 10:24:01.85	225.98	3.00	-59.3	-62.6	6.2	0.00e+00	0	33	104	43251662848	84	22176
2026-01-11 10:24:02.86	225.94	2.93	-59.3	-62.6	6.2	0.00e+00	0	33	104	43251662848	84	22120
2026-01-11 10:24:03.87	225.90	2.86	-59.3	-62.6	6.2	0.00e+00	0	33	104	43251662848	84	22113
2026-01-11 10:24:04.88	225.87	2.79	-59.3	-62.5	6.2	0.00e+00	0	33	104	43251662848	84	22078
2026-01-11 10:24:05.89	225.83	2.72	-59.3	-62.5	6.2	0.00e+00	0	33	104	43251662848	84	22080
2026-01-11 10:24:06.90	225.80	2.64	-59.3	-62.5	6.1	0.00e+00	0	33	104	43251662848	84	21968
2026-01-11 10:24:07.90	225.76	2.57	-59.3	-62.5	6.2	0.00e+00	0	33	104	43251662848	84	22007
2026-01-11 10:24:08.91	225.73	2.50	-59.3	-62.5	6.2	0.00e+00	0	33	104	43251662848	84	21928
2026-01-11 10:24:09.92	225.69	2.43	-59.3	-62.5	6.2	0.00e+00	0	33	104	43251662848	84	21923
2026-01-11 10:24:10.93	225.66	2.36	-59.2	-62.5	6.2	0.00e+00	0	33	104	43251662848	84	21929
2026-01-11 10:24:11.94	225.62	2.29	-59.3	-62.5	6.2	0.00e+00	0	33	104	43251662848	84	21987
2026-01-11 10:24:12.95	225.59	2.22	-59.3	-62.5	6.2	0.00e+00	0	33	104	43251662848	84	21992
2026-01-11 10:24:13.96	225.56	2.15	-59.3	-62.5	6.2	0.00e+00	0	33	104	43251662848	84	21969
2026-01-11 10:24:14.97	225.52	2.08	-59.2	-62.5	6.2	0.00e+00	0	33	104	43251662848	84	21973
2026-01-11 10:24:15.98	225.49	2.01	-59.2	-62.5	6.2	0.00e+00	0	33	104	43251662848	84	21908
2026-01-11 10:24:16.98	225.46	1.94	-59.2	-62.4	6.1	0.00e+00	0	33	104	43251662848	84	21844

#Closed at: 2026-01-11 10:24:17
#Recorded file [43251 MB]: D:/lorett/data/31004_260111_131348.dat