passes_logs/2026/01/11/R3.2S_Murmansk/R3.2S_Murmansk__20260111_001638_NOAA_21_JPSS-2_rec.log

#Pass ID: 20260111_001638_NOAA 21 (JPSS-2)
#Satellite: NOAA 21 (JPSS-2)
#Configuration: NOAA-21
#almurnet v.1.7.20251203
#Start time: 2026-01-11 00:16:39

#Version: 2.2.20231116
#Station: R3.2S_Murmansk
#Location: 33.079688 lon 68.888172 lat
#TLE: 1 54234U 22150A   26009.79679979  .00000100  00000+0  68070-4 0  9993
#TLE: 2 54234  98.7494 310.7596 0000833 322.2782  37.8335 14.19533646164071

#Time	Az	El	Level	Level2	SNR	BER	BlckErr	Temp	State	Recorded	gain1	gain2
2026-01-11 00:16:39.45	23.05	2.05	-57.1	-70.8	3.8	1.49e+00	0	21	0	0	80	17386
2026-01-11 00:16:40.46	23.06	2.11	-57.1	-70.7	3.8	1.49e+00	0	21	104	0	79	18280
2026-01-11 00:16:41.46	23.08	2.17	-57.1	-70.7	3.8	1.49e+00	0	21	104	0	79	18182
2026-01-11 00:16:42.46	23.09	2.24	-57.1	-70.7	3.8	1.49e+00	0	21	104	0	79	18138
2026-01-11 00:16:43.46	23.11	2.30	-57.1	-70.7	3.8	1.49e+00	0	21	104	0	79	18110
2026-01-11 00:16:44.46	23.12	2.37	-57.1	-70.6	3.8	1.49e+00	0	21	104	0	79	18022
2026-01-11 00:16:45.45	23.14	2.43	-57.1	-70.6	3.8	1.49e+00	0	21	104	0	79	18092
2026-01-11 00:16:46.45	23.15	2.49	-57.1	-70.7	3.8	1.49e+00	0	21	104	0	79	18182
2026-01-11 00:16:47.45	23.17	2.56	-57.1	-70.6	3.8	1.49e+00	0	21	104	0	79	18035
2026-01-11 00:16:48.45	23.18	2.62	-57.1	-70.7	3.8	1.49e+00	0	21	104	0	79	18137
2026-01-11 00:16:49.45	23.20	2.69	-57.1	-70.6	3.8	1.49e+00	0	21	104	0	79	18014
2026-01-11 00:16:50.45	23.21	2.75	-57.1	-70.6	3.8	1.49e+00	0	21	104	0	79	17935
2026-01-11 00:16:51.46	23.23	2.82	-57.1	-70.4	3.8	1.49e+00	0	21	104	0	79	17624
2026-01-11 00:16:52.47	23.24	2.88	-57.0	-70.3	3.8	1.49e+00	0	21	104	0	79	17319
2026-01-11 00:16:53.47	23.26	2.95	-57.0	-70.2	3.8	1.49e+00	0	21	104	0	79	17172
2026-01-11 00:16:54.48	23.27	3.02	-57.0	-69.7	3.8	1.49e+00	0	21	104	0	79	16155
2026-01-11 00:16:55.48	23.29	3.08	-57.0	-69.4	3.8	1.49e+00	0	21	104	0	79	15649
2026-01-11 00:16:56.48	23.31	3.15	-56.9	-68.9	3.9	1.49e+00	0	21	104	0	79	14739
2026-01-11 00:16:57.48	23.32	3.21	-56.9	-67.6	3.9	1.46e+00	0	21	104	0	79	12747
2026-01-11 00:16:58.48	23.34	3.28	-56.9	-67.9	4.0	1.48e+00	0	21	104	0	79	13257
2026-01-11 00:16:59.47	23.35	3.35	-56.9	-67.6	3.9	1.47e+00	0	21	104	0	79	12710
2026-01-11 00:17:00.47	23.37	3.41	-56.9	-67.8	4.1	1.47e+00	0	21	104	0	79	13057
2026-01-11 00:17:01.47	23.38	3.48	-56.9	-68.8	3.8	1.48e+00	0	21	104	0	79	14631
2026-01-11 00:17:02.47	23.40	3.55	-56.9	-68.3	4.0	1.48e+00	0	21	104	0	79	13798
2026-01-11 00:17:03.47	23.41	3.61	-56.9	-68.1	3.9	1.48e+00	0	21	104	0	79	13522
2026-01-11 00:17:04.47	23.43	3.68	-56.9	-67.5	4.1	1.47e+00	0	21	104	0	79	12634
2026-01-11 00:17:05.48	23.45	3.75	-56.8	-66.4	4.1	1.46e+00	0	21	104	0	79	11154
2026-01-11 00:17:06.49	23.46	3.82	-56.6	-65.4	4.9	1.15e+00	0	21	104	0	79	9926
2026-01-11 00:17:07.50	23.48	3.89	-56.5	-64.3	5.5	4.39e-01	0	21	0	2097152	79	8694
2026-01-11 00:17:08.49	23.49	3.95	-56.1	-62.7	6.6	1.89e-01	0	21	0	5242880	78	7640
2026-01-11 00:17:09.49	23.51	4.02	-55.8	-61.3	7.8	6.94e-02	0	21	0	8388608	78	6570
2026-01-11 00:17:10.49	23.53	4.09	-55.5	-60.7	8.4	2.68e-02	0	21	0	11534336	77	6470
2026-01-11 00:17:11.50	23.54	4.16	-55.3	-60.0	9.0	1.95e-02	0	21	0	14680064	77	5986
2026-01-11 00:17:12.50	23.56	4.23	-54.9	-59.1	9.8	6.72e-03	0	21	0	17825792	76	5668
2026-01-11 00:17:13.51	23.58	4.30	-54.7	-58.7	10.1	2.98e-03	0	21	0	20971520	76	5454
2026-01-11 00:17:14.51	23.59	4.37	-54.3	-58.0	10.6	1.38e-03	0	21	0	24117248	75	5329
2026-01-11 00:17:15.52	23.61	4.43	-54.4	-58.2	10.5	1.30e-03	0	22	0	27262976	75	5414
2026-01-11 00:17:16.52	23.63	4.50	-54.3	-57.9	10.7	8.78e-04	0	21	0	30408704	75	5256
2026-01-11 00:17:17.52	23.64	4.57	-54.3	-57.9	10.7	5.32e-04	0	21	0	33554432	75	5262
2026-01-11 00:17:18.51	23.66	4.64	-54.3	-58.0	10.6	1.34e-03	0	21	0	36700160	75	5337
2026-01-11 00:17:19.51	23.68	4.71	-54.3	-58.0	10.6	4.10e-04	0	21	0	39845888	74	5635
2026-01-11 00:17:20.51	23.69	4.78	-54.5	-58.4	10.2	1.85e-03	0	22	0	42991616	74	5916
2026-01-11 00:17:21.52	23.71	4.85	-54.7	-58.9	9.8	3.16e-03	0	22	0	46137344	74	6206
2026-01-11 00:17:22.52	23.73	4.92	-54.8	-59.1	9.5	5.04e-03	0	22	0	49283072	74	6402
2026-01-11 00:17:23.52	23.74	4.99	-54.9	-59.4	9.3	6.90e-03	0	22	0	52428800	74	6618
2026-01-11 00:17:24.53	23.76	5.07	-54.8	-59.0	9.7	1.46e-02	0	22	0	55574528	75	5973
2026-01-11 00:17:25.53	23.78	5.14	-53.9	-57.1	11.4	2.16e-04	0	22	0	58720256	74	5080
2026-01-11 00:17:26.52	23.79	5.21	-55.2	-60.0	9.0	9.67e-04	0	22	0	61865984	75	6656
2026-01-11 00:17:27.52	23.81	5.28	-54.8	-58.9	9.6	1.06e-01	0	22	0	65011712	76	5587
2026-01-11 00:17:28.52	23.83	5.35	-54.5	-58.2	10.6	0.00e+00	0	22	0	68157440	73	6122
2026-01-11 00:17:29.53	23.85	5.42	-54.1	-57.5	10.9	1.13e+00	0	22	0	69206016	75	4989
2026-01-11 00:17:30.53	23.86	5.49	-50.9	-52.7	14.1	0.00e+00	0	22	0	72351744	68	4336
2026-01-11 00:17:31.52	23.88	5.57	-50.9	-52.8	14.0	0.00e+00	0	22	0	75497472	68	4364
2026-01-11 00:17:32.53	23.90	5.64	-51.0	-52.8	14.1	0.00e+00	0	22	0	78643200	68	4364
2026-01-11 00:17:33.53	23.92	5.71	-50.3	-52.0	14.4	0.00e+00	0	22	0	81788928	67	4221
2026-01-11 00:17:34.53	23.93	5.78	-50.5	-52.2	14.3	0.00e+00	0	22	0	84934656	67	4331
2026-01-11 00:17:35.54	23.95	5.86	-50.5	-52.2	14.3	0.00e+00	0	22	0	88080384	67	4322
2026-01-11 00:17:36.53	23.97	5.93	-50.5	-52.2	14.3	0.00e+00	0	22	0	91226112	67	4331
2026-01-11 00:17:37.53	23.99	6.00	-50.5	-52.2	14.3	0.00e+00	0	22	0	94371840	67	4316
2026-01-11 00:17:38.53	24.00	6.08	-50.4	-52.1	14.4	0.00e+00	0	22	0	97517568	67	4251
2026-01-11 00:17:39.53	24.02	6.15	-50.2	-51.9	14.5	0.00e+00	0	22	0	100663296	67	4176
2026-01-11 00:17:40.53	24.04	6.22	-50.4	-52.1	14.3	0.00e+00	0	22	0	103809024	67	4278
2026-01-11 00:17:41.53	24.06	6.30	-50.3	-51.9	14.5	0.00e+00	0	22	0	106954752	67	4193
2026-01-11 00:17:42.54	24.08	6.37	-50.2	-51.8	14.4	0.00e+00	0	22	0	110100480	66	4384
2026-01-11 00:17:43.54	24.09	6.45	-50.4	-52.1	14.2	0.00e+00	0	22	0	113246208	66	4541
2026-01-11 00:17:44.54	24.11	6.52	-49.9	-51.5	14.6	0.00e+00	0	22	0	116391936	66	4201
2026-01-11 00:17:45.54	24.13	6.60	-50.3	-52.0	14.3	0.00e+00	0	22	0	119537664	66	4442
2026-01-11 00:17:46.54	24.15	6.67	-50.0	-51.6	14.5	0.00e+00	0	22	0	122683392	66	4291
2026-01-11 00:17:47.54	24.17	6.75	-50.1	-51.7	14.5	0.00e+00	0	22	0	125829120	66	4321
2026-01-11 00:17:48.54	24.19	6.82	-50.1	-51.7	14.5	0.00e+00	0	22	0	128974848	66	4312
2026-01-11 00:17:49.54	24.20	6.90	-50.2	-51.8	14.4	0.00e+00	0	22	0	132120576	66	4364
2026-01-11 00:17:50.54	24.22	6.98	-50.0	-51.6	14.5	0.00e+00	0	22	0	135266304	66	4277
2026-01-11 00:17:51.54	24.24	7.05	-50.2	-51.8	14.4	0.00e+00	0	22	0	137363456	66	4387
2026-01-11 00:17:52.54	24.26	7.13	-50.0	-51.7	14.5	0.00e+00	0	22	0	140509184	66	4298
2026-01-11 00:17:53.54	24.28	7.20	-50.1	-51.8	14.4	0.00e+00	0	22	0	143654912	66	4353
2026-01-11 00:17:54.54	24.30	7.28	-50.0	-51.6	14.6	0.00e+00	0	22	0	146800640	66	4246
2026-01-11 00:17:55.54	24.32	7.36	-50.1	-51.7	14.5	0.00e+00	0	22	0	149946368	66	4310
2026-01-11 00:17:56.55	24.34	7.44	-50.0	-51.6	14.6	0.00e+00	0	22	0	153092096	66	4246
2026-01-11 00:17:57.55	24.36	7.51	-50.1	-51.7	14.5	0.00e+00	0	22	0	156237824	66	4308
2026-01-11 00:17:58.54	24.38	7.59	-50.1	-51.7	14.5	0.00e+00	0	22	0	159383552	66	4328
2026-01-11 00:17:59.55	24.39	7.67	-50.1	-51.7	14.5	0.00e+00	0	22	0	162529280	66	4308
2026-01-11 00:18:00.55	24.41	7.75	-50.2	-51.9	14.4	0.00e+00	0	22	0	165675008	66	4405
2026-01-11 00:18:01.55	24.43	7.83	-49.9	-51.5	14.7	0.00e+00	0	22	0	168820736	66	4229
2026-01-11 00:18:02.55	24.45	7.91	-49.9	-51.5	14.6	0.00e+00	0	22	0	171966464	66	4223
2026-01-11 00:18:03.55	24.47	7.99	-50.0	-51.6	14.5	0.00e+00	0	22	0	175112192	66	4289
2026-01-11 00:18:04.55	24.49	8.07	-50.1	-51.8	14.5	0.00e+00	0	22	0	178257920	66	4351
2026-01-11 00:18:05.56	24.51	8.15	-50.1	-51.7	14.5	0.00e+00	0	22	0	181403648	66	4308
2026-01-11 00:18:06.56	24.53	8.23	-49.9	-51.5	14.7	0.00e+00	0	22	0	184549376	66	4218
2026-01-11 00:18:07.56	24.55	8.31	-49.7	-51.3	14.8	0.00e+00	0	22	0	187695104	66	4102
2026-01-11 00:18:08.56	24.57	8.39	-49.9	-51.4	14.7	0.00e+00	0	22	0	190840832	66	4193
2026-01-11 00:18:09.57	24.59	8.47	-49.7	-51.2	14.8	0.00e+00	0	22	0	193986560	66	4085
2026-01-11 00:18:10.57	24.61	8.55	-49.5	-51.0	14.8	0.00e+00	0	22	0	197132288	65	4229
2026-01-11 00:18:11.57	24.63	8.63	-49.6	-51.1	14.7	0.00e+00	0	22	0	200278016	65	4290
2026-01-11 00:18:12.58	24.65	8.71	-49.5	-51.0	14.8	0.00e+00	0	22	0	203423744	65	4241
2026-01-11 00:18:13.57	24.68	8.79	-49.5	-51.0	14.8	0.00e+00	0	22	0	206569472	65	4241
2026-01-11 00:18:14.57	24.70	8.87	-49.4	-50.9	14.9	0.00e+00	0	22	0	209715200	65	4172
2026-01-11 00:18:15.57	24.72	8.96	-49.5	-51.0	14.8	0.00e+00	0	22	0	212860928	65	4226
2026-01-11 00:18:16.57	24.74	9.04	-49.4	-50.9	14.9	0.00e+00	0	22	0	216006656	65	4155
2026-01-11 00:18:17.56	24.76	9.12	-49.5	-50.9	14.9	0.00e+00	0	22	0	219152384	65	4187
2026-01-11 00:18:18.56	24.78	9.20	-49.4	-50.9	14.9	0.00e+00	0	22	0	222298112	65	4158
2026-01-11 00:18:19.56	24.80	9.29	-49.5	-50.9	14.9	0.00e+00	0	22	0	225443840	65	4186
2026-01-11 00:18:20.56	24.82	9.37	-49.4	-50.8	14.9	0.00e+00	0	22	0	228589568	65	4133
2026-01-11 00:18:21.56	24.84	9.45	-49.3	-50.8	14.9	0.00e+00	0	22	0	231735296	65	4121
2026-01-11 00:18:22.55	24.86	9.54	-49.3	-50.7	15.0	0.00e+00	0	22	0	234881024	65	4093
2026-01-11 00:18:23.55	24.89	9.62	-49.3	-50.8	15.0	0.00e+00	0	22	0	238026752	65	4109
2026-01-11 00:18:24.54	24.91	9.71	-49.3	-50.8	15.0	0.00e+00	0	22	0	241172480	65	4119
2026-01-11 00:18:25.55	24.93	9.79	-49.4	-50.9	14.9	0.00e+00	0	22	0	244318208	65	4149
2026-01-11 00:18:26.55	24.95	9.88	-49.3	-50.7	15.0	0.00e+00	0	22	0	247463936	65	4068
2026-01-11 00:18:27.55	24.97	9.96	-49.2	-50.6	14.9	0.00e+00	0	22	0	250609664	64	4266
2026-01-11 00:18:28.54	24.99	10.05	-49.1	-50.6	14.9	0.00e+00	0	22	0	253755392	64	4252
2026-01-11 00:18:29.55	25.02	10.13	-49.2	-50.7	14.9	0.00e+00	0	22	0	256901120	64	4299
2026-01-11 00:18:30.56	25.04	10.22	-49.3	-50.7	14.8	0.00e+00	0	22	0	260046848	64	4318
2026-01-11 00:18:31.56	25.06	10.31	-49.4	-50.8	14.8	0.00e+00	0	22	0	263192576	64	4375
2026-01-11 00:18:32.57	25.08	10.40	-49.3	-50.7	14.9	0.00e+00	0	22	0	266338304	64	4315
2026-01-11 00:18:33.57	25.11	10.48	-49.2	-50.6	14.9	0.00e+00	0	22	0	269484032	64	4283
2026-01-11 00:18:34.57	25.13	10.57	-49.0	-50.4	15.0	0.00e+00	0	22	0	272629760	64	4161
2026-01-11 00:18:35.57	25.15	10.66	-48.9	-50.3	15.0	0.00e+00	0	22	0	275775488	64	4135
2026-01-11 00:18:36.57	25.17	10.75	-49.0	-50.4	15.0	0.00e+00	0	22	0	278921216	64	4169
2026-01-11 00:18:37.56	25.20	10.84	-49.1	-50.5	14.9	0.00e+00	0	22	0	282066944	64	4229
2026-01-11 00:18:38.56	25.22	10.92	-49.0	-50.4	15.1	0.00e+00	0	22	0	285212672	64	4146
2026-01-11 00:18:39.57	25.24	11.01	-49.0	-50.3	15.0	0.00e+00	0	22	0	288358400	64	4142
2026-01-11 00:18:40.58	25.27	11.11	-48.9	-50.3	15.1	0.00e+00	0	22	0	291504128	64	4104
2026-01-11 00:18:41.58	25.29	11.20	-48.8	-50.2	15.1	0.00e+00	0	22	0	294649856	64	4074
2026-01-11 00:18:42.58	25.31	11.29	-48.8	-50.2	15.2	0.00e+00	0	22	0	297795584	64	4059
2026-01-11 00:18:43.58	25.34	11.38	-48.8	-50.2	15.1	0.00e+00	0	22	0	300941312	64	4057
2026-01-11 00:18:44.58	25.36	11.47	-48.8	-50.1	15.2	0.00e+00	0	22	0	304087040	64	4048
2026-01-11 00:18:45.58	25.39	11.56	-48.8	-50.1	15.2	0.00e+00	0	22	0	307232768	64	4051
2026-01-11 00:18:46.58	25.41	11.65	-48.7	-50.0	15.3	0.00e+00	0	22	0	310378496	64	3991
2026-01-11 00:18:47.58	25.43	11.74	-48.8	-50.2	15.2	0.00e+00	0	22	0	313524224	64	4057
2026-01-11 00:18:48.58	25.46	11.83	-48.7	-50.1	15.2	0.00e+00	0	22	0	316669952	64	4011
2026-01-11 00:18:49.59	25.48	11.93	-48.7	-50.0	15.2	0.00e+00	0	22	0	318767104	64	3997
2026-01-11 00:18:50.59	25.51	12.02	-48.8	-50.1	15.0	0.00e+00	0	22	0	321912832	63	4286
2026-01-11 00:18:51.59	25.53	12.11	-48.9	-50.3	14.9	0.00e+00	0	22	0	325058560	63	4363
2026-01-11 00:18:52.59	25.56	12.21	-48.8	-50.1	15.0	0.00e+00	0	22	0	328204288	63	4274
2026-01-11 00:18:53.59	25.58	12.30	-48.8	-50.2	15.0	0.00e+00	0	22	0	331350016	63	4295
2026-01-11 00:18:54.60	25.61	12.40	-48.8	-50.1	15.0	0.00e+00	0	22	0	334495744	63	4270
2026-01-11 00:18:55.60	25.63	12.49	-48.7	-50.1	15.1	0.00e+00	0	22	0	337641472	63	4255
2026-01-11 00:18:56.59	25.66	12.59	-48.8	-50.1	15.0	0.00e+00	0	22	0	340787200	63	4289
2026-01-11 00:18:57.60	25.68	12.68	-48.7	-50.1	15.1	0.00e+00	0	22	0	343932928	63	4243
2026-01-11 00:18:58.60	25.71	12.78	-48.7	-50.1	15.1	0.00e+00	0	22	0	347078656	63	4259
2026-01-11 00:18:59.60	25.73	12.87	-48.7	-50.0	15.1	0.00e+00	0	22	0	350224384	63	4225
2026-01-11 00:19:00.60	25.76	12.97	-48.8	-50.2	15.0	0.00e+00	0	22	0	353370112	63	4314
2026-01-11 00:19:01.60	25.79	13.07	-48.7	-50.0	15.1	0.00e+00	0	22	0	356515840	63	4234
2026-01-11 00:19:02.61	25.81	13.17	-48.7	-50.0	15.1	0.00e+00	0	22	0	359661568	63	4231
2026-01-11 00:19:03.61	25.84	13.26	-48.7	-50.1	15.1	0.00e+00	0	22	0	362807296	63	4246
2026-01-11 00:19:04.61	25.86	13.36	-48.7	-50.0	15.1	0.00e+00	0	22	0	365953024	63	4236
2026-01-11 00:19:05.62	25.89	13.46	-48.8	-50.1	15.1	0.00e+00	0	22	0	369098752	63	4272
2026-01-11 00:19:06.62	25.92	13.56	-48.7	-50.0	15.1	0.00e+00	0	22	0	372244480	63	4241
2026-01-11 00:19:07.61	25.94	13.66	-48.8	-50.1	15.0	0.00e+00	0	22	0	375390208	63	4277
2026-01-11 00:19:08.61	25.97	13.76	-48.7	-50.0	15.1	0.00e+00	0	22	0	378535936	63	4225
2026-01-11 00:19:09.61	26.00	13.86	-48.6	-50.0	15.1	0.00e+00	0	22	0	381681664	63	4205
2026-01-11 00:19:10.61	26.03	13.96	-48.6	-49.9	15.2	0.00e+00	0	22	0	384827392	63	4156
2026-01-11 00:19:11.61	26.05	14.06	-48.6	-49.9	15.2	0.00e+00	0	22	0	387973120	63	4156
2026-01-11 00:19:12.61	26.08	14.16	-48.6	-50.0	15.1	0.00e+00	0	22	0	391118848	63	4201
2026-01-11 00:19:13.60	26.11	14.26	-48.6	-49.9	15.1	0.00e+00	0	22	0	394264576	63	4178
2026-01-11 00:19:14.60	26.14	14.36	-48.5	-49.8	15.2	0.00e+00	0	22	0	397410304	63	4134
2026-01-11 00:19:15.60	26.17	14.47	-48.4	-49.7	15.3	0.00e+00	0	22	0	400556032	63	4082
2026-01-11 00:19:16.60	26.19	14.57	-48.5	-49.8	15.2	0.00e+00	0	22	0	403701760	63	4126
2026-01-11 00:19:17.61	26.22	14.67	-48.5	-49.8	15.2	0.00e+00	0	22	0	406847488	63	4121
2026-01-11 00:19:18.61	26.25	14.78	-48.5	-49.8	15.2	0.00e+00	0	22	0	409993216	63	4136
2026-01-11 00:19:19.61	26.28	14.88	-48.5	-49.8	15.2	0.00e+00	0	22	0	413138944	63	4131
2026-01-11 00:19:20.60	26.31	14.99	-48.5	-49.8	15.2	0.00e+00	0	23	0	416284672	63	4111
2026-01-11 00:19:21.61	26.34	15.09	-48.4	-49.7	15.2	0.00e+00	0	22	0	419430400	63	4092
2026-01-11 00:19:22.61	26.37	15.20	-48.6	-49.9	15.2	0.00e+00	0	22	0	422576128	63	4150
2026-01-11 00:19:23.60	26.40	15.30	-48.5	-49.8	15.2	0.00e+00	0	22	0	425721856	63	4139
2026-01-11 00:19:24.61	26.43	15.41	-48.4	-49.7	15.3	0.00e+00	0	22	0	428867584	63	4088
2026-01-11 00:19:25.61	26.46	15.52	-48.4	-49.7	15.3	0.00e+00	0	22	0	432013312	63	4060
2026-01-11 00:19:26.60	26.49	15.63	-48.4	-49.7	15.3	0.00e+00	0	22	0	435159040	63	4082
2026-01-11 00:19:27.61	26.52	15.73	-48.5	-49.8	15.2	0.00e+00	0	22	0	438304768	63	4106
2026-01-11 00:19:28.61	26.55	15.84	-48.5	-49.8	15.2	0.00e+00	0	22	0	441450496	63	4118
2026-01-11 00:19:29.62	26.58	15.95	-48.5	-49.8	15.3	0.00e+00	0	22	0	444596224	63	4112
2026-01-11 00:19:30.61	26.61	16.06	-48.4	-49.7	15.3	0.00e+00	0	22	0	447741952	63	4070
2026-01-11 00:19:31.62	26.64	16.17	-48.4	-49.7	15.3	0.00e+00	0	22	0	450887680	63	4063
2026-01-11 00:19:32.62	26.67	16.28	-48.4	-49.6	15.3	0.00e+00	0	22	0	454033408	63	4050
2026-01-11 00:19:33.62	26.70	16.39	-48.5	-49.8	15.3	0.00e+00	0	22	0	457179136	63	4103
2026-01-11 00:19:34.63	26.73	16.51	-48.4	-49.6	15.3	0.00e+00	0	22	0	460324864	63	4050
2026-01-11 00:19:35.63	26.77	16.62	-48.3	-49.6	15.3	0.00e+00	0	22	0	463470592	63	4016
2026-01-11 00:19:36.62	26.80	16.73	-48.3	-49.6	15.4	0.00e+00	0	22	0	466616320	63	4018
2026-01-11 00:19:37.63	26.83	16.84	-48.2	-49.5	15.4	0.00e+00	0	22	0	469762048	63	3970
2026-01-11 00:19:38.63	26.86	16.96	-48.3	-49.6	15.4	0.00e+00	0	22	0	472907776	63	4007
2026-01-11 00:19:39.64	26.89	17.07	-48.1	-49.3	15.3	0.00e+00	0	22	0	476053504	62	4143
2026-01-11 00:19:40.63	26.93	17.19	-48.2	-49.4	15.3	0.00e+00	0	22	0	479199232	62	4176
2026-01-11 00:19:41.63	26.96	17.30	-48.2	-49.5	15.3	0.00e+00	0	22	0	482344960	62	4194
2026-01-11 00:19:42.63	26.99	17.42	-48.1	-49.4	15.3	0.00e+00	0	22	0	485490688	62	4148
2026-01-11 00:19:43.63	27.03	17.53	-48.2	-49.4	15.3	0.00e+00	0	23	0	488636416	62	4175
2026-01-11 00:19:44.64	27.06	17.65	-48.1	-49.4	15.3	0.00e+00	0	22	0	491782144	62	4160
2026-01-11 00:19:45.64	27.09	17.77	-48.1	-49.3	15.3	0.00e+00	0	22	0	494927872	62	4138
2026-01-11 00:19:46.64	27.13	17.89	-48.1	-49.4	15.3	0.00e+00	0	22	0	498073600	62	4160
2026-01-11 00:19:47.65	27.16	18.01	-48.1	-49.3	15.3	0.00e+00	0	22	0	500170752	62	4144
2026-01-11 00:19:48.65	27.20	18.13	-48.1	-49.4	15.3	0.00e+00	0	22	0	503316480	62	4153
2026-01-11 00:19:49.64	27.23	18.24	-48.1	-49.4	15.3	0.00e+00	0	23	0	506462208	62	4173
2026-01-11 00:19:50.64	27.27	18.36	-48.2	-49.4	15.3	0.00e+00	0	22	0	509607936	62	4184
2026-01-11 00:19:51.64	27.30	18.48	-48.2	-49.4	15.3	0.00e+00	0	22	0	512753664	62	4183
2026-01-11 00:19:52.63	27.34	18.60	-48.2	-49.4	15.3	0.00e+00	0	22	0	515899392	62	4176
2026-01-11 00:19:53.63	27.37	18.73	-48.2	-49.5	15.2	0.00e+00	0	22	0	519045120	62	4214
2026-01-11 00:19:54.63	27.41	18.85	-48.1	-49.4	15.3	0.00e+00	0	22	0	522190848	62	4159
2026-01-11 00:19:55.64	27.45	18.97	-48.1	-49.3	15.3	0.00e+00	0	22	0	525336576	62	4137
2026-01-11 00:19:56.64	27.48	19.10	-48.1	-49.3	15.3	0.00e+00	0	22	0	528482304	62	4139
2026-01-11 00:19:57.65	27.52	19.22	-48.1	-49.4	15.3	0.00e+00	0	22	0	531628032	62	4165
2026-01-11 00:19:58.65	27.56	19.35	-48.2	-49.4	15.2	0.00e+00	0	22	0	534773760	62	4185
2026-01-11 00:19:59.64	27.60	19.47	-48.1	-49.4	15.3	0.00e+00	0	22	0	537919488	62	4166
2026-01-11 00:20:00.64	27.63	19.60	-48.3	-49.5	15.2	0.00e+00	0	22	0	541065216	62	4234
2026-01-11 00:20:01.65	27.67	19.73	-48.2	-49.5	15.3	0.00e+00	0	22	0	544210944	62	4198
2026-01-11 00:20:02.65	27.71	19.85	-48.1	-49.3	15.3	0.00e+00	0	22	0	547356672	62	4123
2026-01-11 00:20:03.64	27.75	19.98	-48.1	-49.3	15.3	0.00e+00	0	22	0	550502400	62	4126
2026-01-11 00:20:04.65	27.79	20.11	-48.1	-49.3	15.3	0.00e+00	0	22	0	553648128	62	4141
2026-01-11 00:20:05.64	27.83	20.24	-48.1	-49.4	15.3	0.00e+00	0	22	0	556793856	62	4153
2026-01-11 00:20:06.64	27.86	20.37	-48.1	-49.3	15.3	0.00e+00	0	22	0	559939584	62	4131
2026-01-11 00:20:07.64	27.90	20.50	-48.1	-49.3	15.3	0.00e+00	0	22	0	563085312	62	4125
2026-01-11 00:20:08.64	27.94	20.63	-48.1	-49.3	15.3	0.00e+00	0	22	0	566231040	62	4132
2026-01-11 00:20:09.64	27.98	20.76	-48.1	-49.3	15.3	0.00e+00	0	22	0	569376768	62	4125
2026-01-11 00:20:10.64	28.03	20.90	-48.1	-49.3	15.3	0.00e+00	0	22	0	572522496	62	4130
2026-01-11 00:20:11.64	28.07	21.03	-47.9	-49.2	15.4	0.00e+00	0	22	0	575668224	62	4054
2026-01-11 00:20:12.65	28.11	21.16	-47.9	-49.1	15.4	0.00e+00	0	23	0	578813952	62	4051
2026-01-11 00:20:13.65	28.15	21.30	-47.8	-49.0	15.5	0.00e+00	0	22	0	581959680	62	3981
2026-01-11 00:20:14.65	28.19	21.44	-47.8	-49.0	15.5	0.00e+00	0	22	0	585105408	62	3970
2026-01-11 00:20:15.65	28.23	21.57	-47.7	-48.9	15.5	0.00e+00	0	23	0	588251136	62	3936
2026-01-11 00:20:16.65	28.28	21.71	-47.6	-48.8	15.4	0.00e+00	0	22	0	591396864	61	4127
2026-01-11 00:20:17.65	28.32	21.85	-47.6	-48.7	15.4	0.00e+00	0	22	0	594542592	61	4096
2026-01-11 00:20:18.64	28.36	21.98	-47.5	-48.7	15.4	0.00e+00	0	22	0	597688320	61	4091
2026-01-11 00:20:19.64	28.41	22.12	-47.4	-48.6	15.5	0.00e+00	0	22	0	600834048	61	4005
2026-01-11 00:20:20.63	28.45	22.26	-47.4	-48.6	15.5	0.00e+00	0	22	0	603979776	61	4007
2026-01-11 00:20:21.63	28.49	22.40	-47.3	-48.4	15.6	0.00e+00	0	23	0	607125504	61	3954
2026-01-11 00:20:22.63	28.54	22.54	-47.1	-48.3	15.5	0.00e+00	0	22	0	610271232	60	4117
2026-01-11 00:20:23.62	28.58	22.68	-47.1	-48.3	15.5	0.00e+00	0	22	0	613416960	60	4107
2026-01-11 00:20:24.62	28.63	22.83	-47.0	-48.1	15.6	0.00e+00	0	22	0	616562688	60	4042
2026-01-11 00:20:25.61	28.67	22.97	-47.0	-48.1	15.5	0.00e+00	0	23	0	619708416	60	4047
2026-01-11 00:20:26.62	28.72	23.12	-47.0	-48.1	15.6	0.00e+00	0	22	0	622854144	60	4034
2026-01-11 00:20:27.63	28.77	23.26	-46.8	-48.0	15.6	0.00e+00	0	22	0	625999872	60	3972
2026-01-11 00:20:28.62	28.81	23.41	-46.9	-48.0	15.6	0.00e+00	0	23	0	629145600	60	3991
2026-01-11 00:20:29.62	28.86	23.56	-46.8	-48.0	15.6	0.00e+00	0	22	0	632291328	60	3973
2026-01-11 00:20:30.62	28.91	23.70	-46.8	-47.9	15.6	0.00e+00	0	23	0	635437056	60	3958
2026-01-11 00:20:31.61	28.96	23.85	-46.8	-47.9	15.7	0.00e+00	0	22	0	638582784	60	3947
2026-01-11 00:20:32.61	29.00	24.00	-46.8	-47.9	15.7	0.00e+00	0	22	0	641728512	60	3952
2026-01-11 00:20:33.61	29.05	24.15	-46.8	-47.9	15.7	0.00e+00	0	22	0	644874240	60	3932
2026-01-11 00:20:34.61	29.10	24.30	-46.8	-48.0	15.6	0.00e+00	0	22	0	648019968	60	3967
2026-01-11 00:20:35.61	29.15	24.45	-46.9	-48.0	15.6	0.00e+00	0	23	0	651165696	60	3987
2026-01-11 00:20:36.61	29.20	24.61	-46.9	-48.0	15.6	0.00e+00	0	22	0	654311424	60	3978
2026-01-11 00:20:37.62	29.25	24.76	-46.8	-48.0	15.6	0.00e+00	0	23	0	657457152	60	3967
2026-01-11 00:20:38.61	29.31	24.92	-46.9	-48.1	15.6	0.00e+00	0	22	0	659554304	60	4009
2026-01-11 00:20:39.62	29.36	25.07	-46.9	-48.0	15.6	0.00e+00	0	22	0	662700032	60	4000
2026-01-11 00:20:40.62	29.41	25.23	-47.0	-48.1	15.6	0.00e+00	0	23	0	665845760	60	4042
2026-01-11 00:20:41.62	29.46	25.39	-47.0	-48.2	15.5	0.00e+00	0	22	0	668991488	60	4059
2026-01-11 00:20:42.61	29.51	25.54	-47.2	-48.3	15.5	0.00e+00	0	22	0	672137216	60	4142
2026-01-11 00:20:43.61	29.57	25.70	-47.3	-48.5	15.4	0.00e+00	0	22	0	675282944	60	4208
2026-01-11 00:20:44.61	29.62	25.86	-47.5	-48.7	15.4	0.00e+00	0	22	0	678428672	60	4305
2026-01-11 00:20:45.60	29.68	26.02	-47.6	-48.8	15.3	0.00e+00	0	22	0	681574400	60	4348
2026-01-11 00:20:46.60	29.73	26.19	-47.7	-49.0	15.2	0.00e+00	0	22	0	684720128	60	4443
2026-01-11 00:20:47.60	29.79	26.35	-47.8	-49.0	15.2	0.00e+00	0	23	0	687865856	60	4454
2026-01-11 00:20:48.59	29.84	26.51	-47.9	-49.1	15.2	0.00e+00	0	22	0	691011584	60	4544
2026-01-11 00:20:49.60	29.90	26.68	-48.0	-49.3	15.2	0.00e+00	0	22	0	694157312	61	4343
2026-01-11 00:20:50.60	29.96	26.84	-48.2	-49.5	15.2	0.00e+00	0	22	0	697303040	61	4456
2026-01-11 00:20:51.59	30.01	27.01	-48.3	-49.6	15.1	0.00e+00	0	23	0	700448768	61	4516
2026-01-11 00:20:52.60	30.07	27.18	-48.5	-49.7	15.2	0.00e+00	0	22	0	703594496	62	4337
2026-01-11 00:20:53.60	30.13	27.35	-48.6	-49.9	15.1	0.00e+00	0	23	0	706740224	62	4400
2026-01-11 00:20:54.61	30.19	27.52	-48.6	-49.9	15.1	0.00e+00	0	22	0	709885952	62	4411
2026-01-11 00:20:55.60	30.25	27.69	-48.6	-49.9	15.1	0.00e+00	0	22	0	713031680	62	4426
2026-01-11 00:20:56.60	30.31	27.86	-48.7	-50.0	15.0	0.00e+00	0	22	0	716177408	62	4449
2026-01-11 00:20:57.60	30.37	28.04	-48.6	-49.9	15.1	0.00e+00	0	22	0	719323136	62	4398
2026-01-11 00:20:58.60	30.44	28.21	-48.6	-49.9	15.1	0.00e+00	0	23	0	722468864	62	4393
2026-01-11 00:20:59.60	30.50	28.39	-48.5	-49.8	15.1	0.00e+00	0	22	0	725614592	62	4352
2026-01-11 00:21:00.60	30.56	28.56	-48.5	-49.7	15.2	0.00e+00	0	23	0	728760320	62	4328
2026-01-11 00:21:01.60	30.63	28.74	-48.3	-49.5	15.3	0.00e+00	0	23	0	731906048	62	4239
2026-01-11 00:21:02.60	30.69	28.92	-48.3	-49.5	15.3	0.00e+00	0	22	0	735051776	62	4223
2026-01-11 00:21:03.60	30.76	29.10	-48.3	-49.5	15.3	0.00e+00	0	23	0	738197504	62	4211
2026-01-11 00:21:04.60	30.82	29.28	-48.0	-49.2	15.4	0.00e+00	0	23	0	741343232	62	4083
2026-01-11 00:21:05.60	30.89	29.46	-47.9	-49.1	15.4	0.00e+00	0	22	0	744488960	62	4047
2026-01-11 00:21:06.59	30.95	29.64	-48.1	-49.3	15.3	0.00e+00	0	22	0	747634688	62	4130
2026-01-11 00:21:07.59	31.02	29.83	-48.0	-49.2	15.4	0.00e+00	0	22	0	750780416	62	4085
2026-01-11 00:21:08.59	31.09	30.01	-48.0	-49.2	15.4	0.00e+00	0	22	0	753926144	62	4093
2026-01-11 00:21:09.59	31.16	30.20	-48.2	-49.4	15.3	0.00e+00	0	22	0	757071872	62	4172
2026-01-11 00:21:10.59	31.23	30.39	-48.2	-49.5	15.3	0.00e+00	0	22	0	760217600	62	4198
2026-01-11 00:21:11.60	31.30	30.58	-48.2	-49.4	15.3	0.00e+00	0	22	0	763363328	62	4168
2026-01-11 00:21:12.60	31.37	30.77	-48.2	-49.4	15.3	0.00e+00	0	22	0	766509056	62	4163
2026-01-11 00:21:13.60	31.45	30.96	-48.2	-49.5	15.2	0.00e+00	0	22	0	769654784	62	4209
2026-01-11 00:21:14.59	31.52	31.15	-48.3	-49.6	15.2	0.00e+00	0	23	0	772800512	62	4269
2026-01-11 00:21:15.59	31.59	31.34	-48.3	-49.6	15.2	0.00e+00	0	23	0	775946240	62	4260
2026-01-11 00:21:16.59	31.67	31.54	-48.3	-49.5	15.2	0.00e+00	0	22	0	779091968	62	4224
2026-01-11 00:21:17.59	31.75	31.74	-48.2	-49.5	15.3	0.00e+00	0	22	0	782237696	62	4197
2026-01-11 00:21:18.59	31.82	31.93	-48.2	-49.4	15.3	0.00e+00	0	23	0	785383424	62	4176
2026-01-11 00:21:19.59	31.90	32.13	-48.0	-49.3	15.4	0.00e+00	0	22	0	788529152	62	4102
2026-01-11 00:21:20.59	31.98	32.33	-48.1	-49.3	15.3	0.00e+00	0	23	0	791674880	62	4132
2026-01-11 00:21:21.59	32.06	32.53	-48.0	-49.2	15.4	0.00e+00	0	23	0	793772032	62	4076
2026-01-11 00:21:22.60	32.14	32.74	-48.2	-49.4	15.3	0.00e+00	0	22	0	796917760	62	4168
2026-01-11 00:21:23.59	32.22	32.94	-48.2	-49.4	15.3	0.00e+00	0	22	0	800063488	62	4173
2026-01-11 00:21:24.59	32.30	33.15	-48.4	-49.7	15.2	0.00e+00	0	23	0	803209216	62	4318
2026-01-11 00:21:25.59	32.39	33.35	-48.5	-49.7	15.1	0.00e+00	0	22	0	806354944	62	4333
2026-01-11 00:21:26.58	32.47	33.56	-48.7	-50.0	15.0	0.00e+00	0	22	0	809500672	62	4459
2026-01-11 00:21:27.58	32.56	33.77	-48.8	-50.1	15.0	0.00e+00	0	23	0	812646400	62	4500
2026-01-11 00:21:28.58	32.64	33.98	-49.0	-50.3	15.0	0.00e+00	0	22	0	815792128	63	4359
2026-01-11 00:21:29.58	32.73	34.19	-49.0	-50.4	15.0	0.00e+00	0	23	0	818937856	63	4412
2026-01-11 00:21:30.58	32.82	34.41	-49.2	-50.6	14.9	0.00e+00	0	23	0	822083584	63	4495
2026-01-11 00:21:31.58	32.91	34.62	-49.3	-50.7	14.9	0.00e+00	0	22	0	825229312	63	4547
2026-01-11 00:21:32.58	33.00	34.84	-49.4	-50.8	14.9	0.00e+00	0	23	0	828375040	64	4361
2026-01-11 00:21:33.57	33.09	35.05	-49.5	-50.9	14.9	0.00e+00	0	23	0	831520768	64	4401
2026-01-11 00:21:34.57	33.18	35.27	-49.5	-50.8	14.9	0.00e+00	0	23	0	834666496	64	4383
2026-01-11 00:21:35.56	33.28	35.49	-49.5	-50.9	14.9	0.00e+00	0	23	0	837812224	64	4401
2026-01-11 00:21:36.56	33.37	35.71	-49.6	-51.0	14.8	0.00e+00	0	23	0	840957952	64	4464
2026-01-11 00:21:37.56	33.47	35.94	-49.6	-51.0	14.8	0.00e+00	0	23	0	844103680	64	4480
2026-01-11 00:21:38.56	33.57	36.16	-49.8	-51.2	14.7	0.00e+00	0	23	0	847249408	64	4572
2026-01-11 00:21:39.56	33.67	36.39	-49.8	-51.2	14.7	0.00e+00	0	23	0	850395136	64	4596
2026-01-11 00:21:40.56	33.77	36.62	-50.0	-51.5	14.7	0.00e+00	0	22	0	853540864	65	4468
2026-01-11 00:21:41.56	33.87	36.85	-50.1	-51.6	14.6	0.00e+00	0	23	0	856686592	65	4506
2026-01-11 00:21:42.56	33.97	37.08	-50.1	-51.6	14.6	0.00e+00	0	23	0	859832320	65	4529
2026-01-11 00:21:43.56	34.08	37.31	-50.1	-51.6	14.7	0.00e+00	0	23	0	862978048	65	4531
2026-01-11 00:21:44.57	34.19	37.55	-50.1	-51.6	14.7	0.00e+00	0	23	0	866123776	65	4511
2026-01-11 00:21:45.57	34.30	37.79	-50.0	-51.5	14.7	0.00e+00	0	23	0	869269504	65	4475
2026-01-11 00:21:46.57	34.41	38.02	-49.8	-51.3	14.8	0.00e+00	0	23	0	872415232	65	4364
2026-01-11 00:21:47.57	34.52	38.26	-49.8	-51.3	14.8	0.00e+00	0	23	0	875560960	65	4352
2026-01-11 00:21:48.58	34.63	38.51	-49.8	-51.3	14.8	0.00e+00	0	23	0	878706688	65	4351
2026-01-11 00:21:49.58	34.74	38.75	-49.7	-51.1	14.9	0.00e+00	0	23	0	881852416	65	4289
2026-01-11 00:21:50.57	34.86	38.99	-49.8	-51.2	14.9	0.00e+00	0	23	0	884998144	65	4299
2026-01-11 00:21:51.57	34.98	39.24	-49.9	-51.4	14.8	0.00e+00	0	23	0	888143872	65	4404
2026-01-11 00:21:52.57	35.10	39.48	-50.1	-51.6	14.7	0.00e+00	0	23	0	891289600	65	4509
2026-01-11 00:21:53.57	35.22	39.73	-50.1	-51.6	14.7	0.00e+00	0	23	0	894435328	65	4521
2026-01-11 00:21:54.57	35.34	39.98	-50.2	-51.7	14.6	0.00e+00	0	22	0	897581056	65	4560
2026-01-11 00:21:55.56	35.46	40.23	-50.0	-51.5	14.7	0.00e+00	0	23	0	900726784	65	4454
2026-01-11 00:21:56.57	35.59	40.49	-50.0	-51.4	14.8	0.00e+00	0	23	0	903872512	65	4431
2026-01-11 00:21:57.57	35.72	40.74	-49.9	-51.3	14.8	0.00e+00	0	23	0	907018240	65	4387
2026-01-11 00:21:58.56	35.85	41.00	-50.1	-51.5	14.7	0.00e+00	0	23	0	910163968	65	4490
2026-01-11 00:21:59.56	35.98	41.26	-50.0	-51.5	14.7	0.00e+00	0	23	0	913309696	65	4469
2026-01-11 00:22:00.56	36.12	41.52	-50.1	-51.6	14.7	0.00e+00	0	23	0	916455424	65	4500
2026-01-11 00:22:01.55	36.25	41.78	-50.1	-51.6	14.7	0.00e+00	0	23	0	919601152	65	4500
2026-01-11 00:22:02.54	36.39	42.04	-50.2	-51.7	14.6	0.00e+00	0	23	0	922746880	65	4556
2026-01-11 00:22:03.55	36.53	42.31	-50.3	-51.7	14.6	0.00e+00	0	23	0	925892608	65	4591
2026-01-11 00:22:04.55	36.68	42.57	-50.2	-51.6	14.6	0.00e+00	0	23	0	927989760	65	4530
2026-01-11 00:22:05.54	36.82	42.84	-50.3	-51.7	14.6	0.00e+00	0	23	0	931135488	65	4597
2026-01-11 00:22:06.54	36.97	43.11	-50.4	-51.9	14.6	0.00e+00	0	23	0	934281216	66	4424
2026-01-11 00:22:07.54	37.12	43.39	-50.3	-51.7	14.7	0.00e+00	0	23	0	937426944	66	4336
2026-01-11 00:22:08.54	37.27	43.66	-50.1	-51.5	14.9	0.00e+00	0	23	0	940572672	66	4225
2026-01-11 00:22:09.54	37.43	43.94	-50.0	-51.5	14.9	0.00e+00	0	23	0	943718400	66	4198
2026-01-11 00:22:10.53	37.59	44.21	-50.0	-51.4	14.9	0.00e+00	0	23	0	946864128	66	4182
2026-01-11 00:22:11.53	37.75	44.49	-50.1	-51.5	14.8	0.00e+00	0	23	0	950009856	66	4223
2026-01-11 00:22:12.53	37.91	44.77	-50.1	-51.5	14.8	0.00e+00	0	23	0	953155584	66	4231
2026-01-11 00:22:13.52	38.08	45.05	-50.5	-52.0	14.5	0.00e+00	0	23	0	956301312	66	4475
2026-01-11 00:22:14.52	38.25	45.34	-50.8	-52.3	14.4	0.00e+00	0	23	0	959447040	66	4636
2026-01-11 00:22:15.53	38.42	45.63	-50.9	-52.5	14.3	0.00e+00	0	23	0	962592768	66	4717
2026-01-11 00:22:16.53	38.60	45.92	-50.9	-52.5	14.4	0.00e+00	0	23	0	965738496	67	4456
2026-01-11 00:22:17.52	38.77	46.20	-51.0	-52.6	14.4	0.00e+00	0	23	0	968884224	67	4495
2026-01-11 00:22:18.51	38.96	46.49	-50.8	-52.3	14.6	0.00e+00	0	23	0	972029952	67	4380
2026-01-11 00:22:19.50	39.14	46.78	-50.7	-52.2	14.6	0.00e+00	0	23	0	975175680	67	4340
2026-01-11 00:22:20.49	39.33	47.08	-50.7	-52.2	14.6	0.00e+00	0	23	0	978321408	67	4323
2026-01-11 00:22:21.49	39.52	47.37	-50.7	-52.3	14.6	0.00e+00	0	23	0	981467136	67	4357
2026-01-11 00:22:22.49	39.72	47.67	-50.5	-52.0	14.8	0.00e+00	0	23	0	984612864	67	4217
2026-01-11 00:22:23.48	39.91	47.97	-50.6	-52.1	14.7	0.00e+00	0	23	0	987758592	67	4261
2026-01-11 00:22:24.48	40.12	48.27	-50.6	-52.1	14.7	0.00e+00	0	23	0	990904320	67	4263
2026-01-11 00:22:25.48	40.32	48.58	-50.4	-51.9	14.9	0.00e+00	0	23	0	994050048	67	4153
2026-01-11 00:22:26.48	40.54	48.88	-50.2	-51.7	14.8	0.00e+00	0	23	0	997195776	66	4307
2026-01-11 00:22:27.48	40.75	49.19	-50.0	-51.3	15.0	0.00e+00	0	22	0	1000341504	66	4140
2026-01-11 00:22:28.48	40.97	49.50	-49.9	-51.3	15.0	0.00e+00	0	23	0	1003487232	66	4114
2026-01-11 00:22:29.49	41.20	49.82	-49.8	-51.1	15.1	0.00e+00	0	23	0	1006632960	66	4037
2026-01-11 00:22:30.49	41.43	50.13	-49.9	-51.3	15.0	0.00e+00	0	23	0	1009778688	66	4120
2026-01-11 00:22:31.49	41.66	50.44	-49.9	-51.3	15.0	0.00e+00	0	23	0	1012924416	66	4142
2026-01-11 00:22:32.49	41.90	50.76	-50.0	-51.5	14.9	0.00e+00	0	23	0	1016070144	66	4196
2026-01-11 00:22:33.49	42.15	51.08	-49.9	-51.3	15.0	0.00e+00	0	23	0	1019215872	66	4121
2026-01-11 00:22:34.49	42.39	51.40	-49.6	-50.9	15.0	0.00e+00	0	23	0	1022361600	65	4193
2026-01-11 00:22:35.49	42.65	51.72	-49.5	-50.8	15.1	0.00e+00	0	23	0	1025507328	65	4141
2026-01-11 00:22:36.48	42.91	52.04	-49.6	-50.9	15.0	0.00e+00	0	23	0	1028653056	65	4192
2026-01-11 00:22:37.48	43.17	52.36	-49.4	-50.8	15.1	0.00e+00	0	23	0	1031798784	65	4113
2026-01-11 00:22:38.48	43.44	52.69	-49.0	-50.3	15.2	0.00e+00	0	23	0	1034944512	64	4116
2026-01-11 00:22:39.48	43.72	53.02	-48.7	-49.9	15.2	0.00e+00	0	23	0	1038090240	63	4162
2026-01-11 00:22:40.48	44.00	53.35	-48.2	-49.4	15.5	0.00e+00	0	23	0	1041235968	63	3930
2026-01-11 00:22:41.48	44.29	53.68	-47.9	-49.1	15.4	0.00e+00	0	23	0	1044381696	62	4029
2026-01-11 00:22:42.48	44.59	54.01	-48.0	-49.2	15.4	0.00e+00	0	23	0	1047527424	62	4068
2026-01-11 00:22:43.49	44.90	54.35	-48.3	-49.5	15.3	0.00e+00	0	23	0	1050673152	62	4240
2026-01-11 00:22:44.50	45.21	54.68	-48.4	-49.7	15.2	0.00e+00	0	23	0	1053818880	62	4300
2026-01-11 00:22:45.50	45.53	55.02	-48.4	-49.7	15.2	0.00e+00	0	23	0	1056964608	62	4300
2026-01-11 00:22:46.50	45.85	55.36	-48.3	-49.6	15.3	0.00e+00	0	23	0	1060110336	62	4250
2026-01-11 00:22:47.50	46.19	55.70	-48.3	-49.5	15.3	0.00e+00	0	23	0	1062207488	62	4217
2026-01-11 00:22:48.49	46.52	56.03	-47.9	-49.1	15.5	0.00e+00	0	23	0	1065353216	62	4013
2026-01-11 00:22:49.50	46.88	56.38	-47.8	-49.0	15.5	0.00e+00	0	23	0	1068498944	62	3983
2026-01-11 00:22:50.49	47.23	56.71	-47.6	-48.7	15.5	0.00e+00	0	23	0	1071644672	61	4097
2026-01-11 00:22:51.49	47.60	57.06	-47.3	-48.4	15.6	0.00e+00	0	23	0	1074790400	61	3929
2026-01-11 00:22:52.49	47.97	57.40	-47.4	-48.5	15.6	0.00e+00	0	23	0	1077936128	61	3995
2026-01-11 00:22:53.48	48.36	57.74	-47.5	-48.7	15.5	0.00e+00	0	22	0	1081081856	61	4061
2026-01-11 00:22:54.48	48.75	58.09	-47.7	-48.9	15.4	0.00e+00	0	23	0	1084227584	61	4152
2026-01-11 00:22:55.48	49.16	58.43	-47.7	-48.8	15.4	0.00e+00	0	23	0	1087373312	61	4144
2026-01-11 00:22:56.49	49.58	58.79	-47.7	-48.8	15.5	0.00e+00	0	22	0	1090519040	61	4137
2026-01-11 00:22:57.49	50.00	59.13	-47.6	-48.8	15.5	0.00e+00	0	22	0	1093664768	61	4108
2026-01-11 00:22:58.48	50.44	59.48	-47.4	-48.5	15.5	0.00e+00	0	23	0	1096810496	61	4002
2026-01-11 00:22:59.47	50.88	59.82	-47.4	-48.5	15.5	0.00e+00	0	23	0	1099956224	61	4001
2026-01-11 00:23:00.48	51.35	60.18	-47.1	-48.3	15.5	0.00e+00	0	23	0	1103101952	60	4107
2026-01-11 00:23:01.49	51.83	60.53	-47.1	-48.2	15.6	0.00e+00	0	23	0	1106247680	60	4073
2026-01-11 00:23:02.49	52.32	60.88	-47.1	-48.3	15.5	0.00e+00	0	23	0	1109393408	60	4110
2026-01-11 00:23:03.49	52.82	61.23	-47.1	-48.3	15.6	0.00e+00	0	23	0	1112539136	60	4106
2026-01-11 00:23:04.48	53.33	61.57	-47.3	-48.4	15.5	0.00e+00	0	23	0	1115684864	60	4175
2026-01-11 00:23:05.48	53.86	61.92	-47.4	-48.6	15.4	0.00e+00	0	23	0	1118830592	60	4260
2026-01-11 00:23:06.49	54.42	62.28	-47.5	-48.7	15.4	0.00e+00	0	23	0	1121976320	60	4297
2026-01-11 00:23:07.49	54.98	62.62	-47.3	-48.4	15.5	0.00e+00	0	23	0	1125122048	60	4188
2026-01-11 00:23:08.48	55.55	62.97	-46.9	-48.0	15.6	0.00e+00	0	23	0	1128267776	60	3986
2026-01-11 00:23:09.47	56.14	63.31	-46.9	-48.0	15.6	0.00e+00	0	23	0	1131413504	60	3999
2026-01-11 00:23:10.47	56.75	63.66	-46.9	-48.0	15.6	0.00e+00	0	23	0	1134559232	60	3998
2026-01-11 00:23:11.47	57.38	64.00	-46.8	-47.9	15.7	0.00e+00	0	23	0	1137704960	60	3956
2026-01-11 00:23:12.47	58.03	64.35	-46.7	-47.8	15.7	0.00e+00	0	23	0	1140850688	60	3897
2026-01-11 00:23:13.45	58.69	64.68	-47.1	-48.2	15.5	0.00e+00	0	23	0	1143996416	59	4327
2026-01-11 00:23:14.46	59.38	65.03	-47.1	-48.2	15.5	0.00e+00	0	23	0	1147142144	59	4326
2026-01-11 00:23:15.46	60.09	65.37	-47.1	-48.2	15.6	0.00e+00	0	23	0	1150287872	60	4080
2026-01-11 00:23:16.46	60.83	65.70	-47.0	-48.1	15.6	0.00e+00	0	23	0	1153433600	60	4046
2026-01-11 00:23:17.46	61.58	66.04	-46.9	-48.0	15.7	0.00e+00	0	23	0	1156579328	60	3968
2026-01-11 00:23:18.46	62.36	66.37	-46.9	-48.1	15.7	0.00e+00	0	23	0	1159725056	60	4009
2026-01-11 00:23:19.45	63.15	66.70	-47.0	-48.1	15.6	0.00e+00	0	23	0	1162870784	60	4050
2026-01-11 00:23:20.45	63.98	67.03	-47.2	-48.3	15.6	0.00e+00	0	23	0	1166016512	60	4129
2026-01-11 00:23:21.44	64.83	67.35	-47.0	-48.1	15.6	0.00e+00	0	23	0	1169162240	60	4025
2026-01-11 00:23:22.43	65.70	67.66	-46.7	-47.8	15.7	0.00e+00	0	23	0	1172307968	60	3904
2026-01-11 00:23:23.43	66.61	67.98	-46.7	-47.8	15.7	0.00e+00	0	23	0	1175453696	60	3891
2026-01-11 00:23:24.42	67.53	68.29	-47.2	-48.3	15.5	0.00e+00	0	23	0	1178599424	59	4363
2026-01-11 00:23:25.42	68.50	68.60	-47.1	-48.3	15.5	0.00e+00	0	23	0	1181745152	59	4369
2026-01-11 00:23:26.41	69.48	68.90	-47.3	-48.5	15.4	0.00e+00	0	23	0	1184890880	59	4452
2026-01-11 00:23:27.42	70.52	69.20	-47.2	-48.4	15.5	0.00e+00	0	23	0	1188036608	59	4413
2026-01-11 00:23:28.42	71.58	69.49	-47.1	-48.3	15.4	0.00e+00	0	23	0	1191182336	59	4362
2026-01-11 00:23:29.41	72.65	69.78	-47.2	-48.3	15.4	0.00e+00	0	23	0	1194328064	59	4374
2026-01-11 00:23:30.41	73.78	70.06	-47.1	-48.3	15.5	0.00e+00	0	23	0	1196425216	59	4342
2026-01-11 00:23:31.41	74.94	70.33	-47.0	-48.2	15.5	0.00e+00	0	23	0	1199570944	59	4304
2026-01-11 00:23:32.42	76.14	70.60	-47.0	-48.1	15.6	0.00e+00	0	23	0	1202716672	59	4256
2026-01-11 00:23:33.42	77.37	70.87	-46.7	-47.8	15.6	0.00e+00	0	23	0	1205862400	59	4126
2026-01-11 00:23:34.42	78.63	71.12	-46.9	-48.0	15.5	0.00e+00	0	23	0	1209008128	59	4237
2026-01-11 00:23:35.41	79.91	71.36	-47.4	-48.6	15.4	0.00e+00	0	22	0	1212153856	59	4497
2026-01-11 00:23:36.42	81.26	71.60	-47.2	-48.4	15.5	0.00e+00	0	23	0	1215299584	60	4162
2026-01-11 00:23:37.41	82.62	71.82	-47.1	-48.3	15.6	0.00e+00	0	23	0	1218445312	60	4101
2026-01-11 00:23:38.42	84.04	72.04	-47.2	-48.3	15.5	0.00e+00	0	23	0	1221591040	60	4139
2026-01-11 00:23:39.42	85.48	72.25	-47.2	-48.4	15.4	0.00e+00	0	22	0	1224736768	60	4168
2026-01-11 00:23:40.42	86.95	72.45	-47.3	-48.5	15.4	0.00e+00	0	23	0	1227882496	60	4213
2026-01-11 00:23:41.42	88.46	72.63	-47.2	-48.3	15.5	0.00e+00	0	23	0	1231028224	60	4134
2026-01-11 00:23:42.41	89.99	72.81	-47.2	-48.3	15.5	0.00e+00	0	22	0	1234173952	60	4128
2026-01-11 00:23:43.41	91.57	72.97	-47.1	-48.2	15.6	0.00e+00	0	23	0	1237319680	60	4076
2026-01-11 00:23:44.42	93.19	73.12	-46.9	-48.0	15.6	0.00e+00	0	23	0	1240465408	59	4201
2026-01-11 00:23:45.42	94.83	73.26	-46.9	-48.0	15.6	0.00e+00	0	23	0	1243611136	59	4212
2026-01-11 00:23:46.42	96.49	73.38	-47.0	-48.1	15.5	0.00e+00	0	23	0	1246756864	59	4258
2026-01-11 00:23:47.43	98.19	73.50	-46.9	-48.0	15.5	0.00e+00	0	22	0	1249902592	59	4239
2026-01-11 00:23:48.43	99.90	73.59	-46.9	-48.0	15.6	0.00e+00	0	23	0	1253048320	59	4225
2026-01-11 00:23:49.43	101.63	73.68	-46.9	-48.1	15.6	0.00e+00	0	23	0	1256194048	59	4244
2026-01-11 00:23:50.42	103.36	73.75	-46.9	-48.0	15.6	0.00e+00	0	22	0	1259339776	59	4233
2026-01-11 00:23:51.42	105.13	73.80	-47.2	-48.4	15.5	0.00e+00	0	23	0	1262485504	59	4395
2026-01-11 00:23:52.42	106.90	73.84	-47.2	-48.3	15.5	0.00e+00	0	23	0	1265631232	59	4361
2026-01-11 00:23:53.42	108.68	73.87	-46.9	-48.0	15.5	0.00e+00	0	23	0	1268776960	59	4241
2026-01-11 00:23:54.42	110.46	73.88	-46.8	-47.9	15.6	0.00e+00	0	22	0	1271922688	59	4146
2026-01-11 00:23:55.42	112.25	73.87	-46.9	-48.0	15.6	0.00e+00	0	23	0	1275068416	59	4227
2026-01-11 00:23:56.42	114.03	73.86	-47.3	-48.4	15.4	0.00e+00	0	23	0	1278214144	59	4429
2026-01-11 00:23:57.42	115.80	73.82	-47.1	-48.3	15.5	0.00e+00	0	23	0	1281359872	60	4102
2026-01-11 00:23:58.41	117.55	73.77	-47.0	-48.1	15.6	0.00e+00	0	23	0	1284505600	60	4018
2026-01-11 00:23:59.42	119.33	73.71	-46.9	-48.0	15.6	0.00e+00	0	23	0	1287651328	60	3974
2026-01-11 00:24:00.42	121.06	73.63	-46.9	-48.0	15.6	0.00e+00	0	23	0	1290797056	60	3991
2026-01-11 00:24:01.42	122.78	73.54	-47.2	-48.4	15.5	0.00e+00	0	23	0	1293942784	60	4168
2026-01-11 00:24:02.42	124.48	73.44	-47.4	-48.6	15.4	0.00e+00	0	23	0	1297088512	60	4258
2026-01-11 00:24:03.42	126.16	73.32	-47.4	-48.6	15.4	0.00e+00	0	23	0	1300234240	60	4259
2026-01-11 00:24:04.41	127.79	73.19	-46.7	-47.8	15.8	0.00e+00	0	23	0	1303379968	60	3885
2026-01-11 00:24:05.40	129.40	73.04	-46.8	-47.9	15.6	0.00e+00	0	23	0	1306525696	59	4189
2026-01-11 00:24:06.40	130.99	72.89	-46.8	-47.9	15.6	0.00e+00	0	23	0	1309671424	59	4191
2026-01-11 00:24:07.40	132.55	72.72	-46.9	-48.1	15.6	0.00e+00	0	22	0	1312817152	59	4247
2026-01-11 00:24:08.41	134.09	72.53	-47.0	-48.1	15.5	0.00e+00	0	22	0	1315962880	59	4284
2026-01-11 00:24:09.40	135.57	72.34	-47.2	-48.3	15.5	0.00e+00	0	23	0	1319108608	59	4391
2026-01-11 00:24:10.40	137.03	72.14	-47.2	-48.4	15.5	0.00e+00	0	23	0	1322254336	59	4399
2026-01-11 00:24:11.40	138.45	71.93	-46.9	-48.1	15.6	0.00e+00	0	23	0	1325400064	59	4243
2026-01-11 00:24:12.40	139.84	71.71	-46.9	-48.0	15.6	0.00e+00	0	22	0	1328545792	59	4227
2026-01-11 00:24:13.40	141.19	71.47	-47.4	-48.6	15.4	0.00e+00	0	23	0	1331691520	59	4526
2026-01-11 00:24:14.41	142.52	71.23	-47.4	-48.5	15.5	0.00e+00	0	23	0	1334837248	60	4223
2026-01-11 00:24:15.41	143.80	70.98	-47.5	-48.7	15.4	0.00e+00	0	23	0	1337982976	60	4305
2026-01-11 00:24:16.40	145.03	70.73	-47.3	-48.4	15.3	0.00e+00	0	22	0	1340080128	60	4187
2026-01-11 00:24:17.39	146.23	70.47	-47.0	-48.1	15.5	0.00e+00	0	23	0	1343225856	60	4042
2026-01-11 00:24:18.39	147.41	70.19	-46.9	-48.0	15.6	0.00e+00	0	23	0	1346371584	60	4001
2026-01-11 00:24:19.39	148.55	69.92	-47.1	-48.2	15.6	0.00e+00	0	23	0	1349517312	60	4071
2026-01-11 00:24:20.39	149.65	69.63	-47.6	-48.8	15.4	0.00e+00	0	22	0	1352663040	60	4379
2026-01-11 00:24:21.39	150.73	69.34	-48.1	-49.4	15.3	0.00e+00	0	23	0	1355808768	61	4397
2026-01-11 00:24:22.39	151.77	69.04	-48.3	-49.5	15.2	0.00e+00	0	23	0	1358954496	61	4490
2026-01-11 00:24:23.38	152.77	68.74	-47.4	-48.6	15.6	0.00e+00	0	23	0	1362100224	61	4025
2026-01-11 00:24:24.39	153.76	68.44	-47.0	-48.2	15.6	0.00e+00	0	22	0	1365245952	59	4295
2026-01-11 00:24:25.38	154.70	68.13	-47.0	-48.1	15.5	0.00e+00	0	23	0	1368391680	59	4260
2026-01-11 00:24:26.38	155.62	67.81	-47.7	-48.9	15.3	0.00e+00	0	23	0	1371537408	60	4402
2026-01-11 00:24:27.38	156.52	67.49	-48.1	-49.4	15.2	0.00e+00	0	23	0	1374683136	61	4403
2026-01-11 00:24:28.37	157.38	67.17	-47.6	-48.8	15.3	0.00e+00	0	23	0	1377828864	61	4131
2026-01-11 00:24:29.38	158.22	66.84	-47.3	-48.4	15.5	0.00e+00	0	23	0	1380974592	61	3939
2026-01-11 00:24:30.38	159.04	66.51	-46.8	-47.9	15.6	0.00e+00	0	23	0	1384120320	60	3950
2026-01-11 00:24:31.37	159.82	66.19	-46.9	-48.0	15.6	0.00e+00	0	23	0	1387266048	59	4223
2026-01-11 00:24:32.36	160.58	65.85	-47.3	-48.4	15.4	0.00e+00	0	23	0	1390411776	59	4434
2026-01-11 00:24:33.36	161.32	65.52	-47.9	-49.1	15.1	0.00e+00	0	23	0	1393557504	60	4508
2026-01-11 00:24:34.36	162.05	65.18	-48.3	-49.6	15.2	0.00e+00	0	23	0	1396703232	61	4495
2026-01-11 00:24:35.36	162.75	64.84	-47.8	-49.0	15.3	0.00e+00	0	23	0	1399848960	61	4221
2026-01-11 00:24:36.37	163.43	64.49	-47.1	-48.2	15.5	0.00e+00	0	23	0	1402994688	60	4069
2026-01-11 00:24:37.36	164.08	64.15	-46.9	-48.1	15.6	0.00e+00	0	22	0	1406140416	60	4013
2026-01-11 00:24:38.35	164.72	63.81	-47.1	-48.2	15.5	0.00e+00	0	23	0	1409286144	59	4325
2026-01-11 00:24:39.35	165.34	63.46	-47.3	-48.5	15.4	0.00e+00	0	23	0	1412431872	59	4459
2026-01-11 00:24:40.36	165.95	63.11	-47.9	-49.1	15.2	0.00e+00	0	23	0	1415577600	60	4516
2026-01-11 00:24:41.36	166.53	62.76	-48.5	-49.8	15.1	0.00e+00	0	22	0	1418723328	62	4344
2026-01-11 00:24:42.36	167.10	62.41	-48.4	-49.7	15.3	0.00e+00	0	23	0	1421869056	62	4307
2026-01-11 00:24:43.35	167.65	62.07	-47.5	-48.6	15.5	0.00e+00	0	22	0	1425014784	61	4049
2026-01-11 00:24:44.36	168.20	61.72	-46.7	-47.8	15.6	0.00e+00	0	23	0	1428160512	60	3902
2026-01-11 00:24:45.36	168.72	61.36	-46.9	-48.0	15.5	0.00e+00	0	22	0	1431306240	59	4235
2026-01-11 00:24:46.36	169.23	61.01	-47.1	-48.2	15.4	0.00e+00	0	23	0	1434451968	59	4320
2026-01-11 00:24:47.36	169.72	60.66	-47.2	-48.3	15.4	0.00e+00	0	23	0	1437597696	60	4141
2026-01-11 00:24:48.36	170.20	60.31	-48.1	-49.3	15.2	0.00e+00	0	22	0	1440743424	61	4366
2026-01-11 00:24:49.36	170.67	59.96	-48.5	-49.7	15.2	0.00e+00	0	23	0	1443889152	62	4332
2026-01-11 00:24:50.36	171.13	59.61	-48.3	-49.5	15.3	0.00e+00	0	22	0	1447034880	62	4207
2026-01-11 00:24:51.36	171.57	59.26	-48.2	-49.4	15.3	0.00e+00	0	22	0	1450180608	62	4171
2026-01-11 00:24:52.35	172.00	58.92	-47.6	-48.8	15.4	0.00e+00	0	23	0	1453326336	61	4101
2026-01-11 00:24:53.35	172.42	58.57	-47.1	-48.2	15.5	0.00e+00	0	23	0	1456472064	60	4073
2026-01-11 00:24:54.35	172.83	58.22	-47.0	-48.1	15.6	0.00e+00	0	22	0	1459617792	60	4047
2026-01-11 00:24:55.35	173.23	57.88	-47.3	-48.5	15.5	0.00e+00	0	22	0	1462763520	60	4206
2026-01-11 00:24:56.35	173.62	57.53	-48.1	-49.3	15.3	0.00e+00	0	22	0	1464860672	61	4373
2026-01-11 00:24:57.35	174.00	57.19	-48.7	-50.0	15.1	0.00e+00	0	23	0	1468006400	62	4468
2026-01-11 00:24:58.34	174.37	56.84	-48.6	-49.8	15.1	0.00e+00	0	23	0	1471152128	62	4382
2026-01-11 00:24:59.33	174.73	56.50	-48.0	-49.2	15.3	0.00e+00	0	22	0	1474297856	62	4073
2026-01-11 00:25:00.33	175.08	56.16	-48.0	-49.1	15.4	0.00e+00	0	23	0	1477443584	62	4050
2026-01-11 00:25:01.33	175.43	55.82	-48.1	-49.3	15.4	0.00e+00	0	23	0	1480589312	62	4099
2026-01-11 00:25:02.32	175.76	55.48	-48.2	-49.4	15.3	0.00e+00	0	23	0	1483735040	62	4191
2026-01-11 00:25:03.32	176.09	55.15	-48.5	-49.7	15.2	0.00e+00	0	23	0	1486880768	62	4311
2026-01-11 00:25:04.32	176.41	54.81	-48.8	-50.1	15.1	0.00e+00	0	23	0	1490026496	62	4517
2026-01-11 00:25:05.31	176.72	54.48	-49.1	-50.4	15.0	0.00e+00	0	23	0	1493172224	63	4437
2026-01-11 00:25:06.30	177.03	54.14	-49.1	-50.4	15.0	0.00e+00	0	23	0	1496317952	63	4430
2026-01-11 00:25:07.30	177.33	53.81	-49.4	-50.7	14.9	0.00e+00	0	23	0	1499463680	63	4586
2026-01-11 00:25:08.30	177.62	53.48	-49.4	-50.8	15.0	0.00e+00	0	23	0	1502609408	64	4348
2026-01-11 00:25:09.30	177.91	53.15	-49.2	-50.5	15.1	0.00e+00	0	23	0	1505755136	64	4233
2026-01-11 00:25:10.31	178.19	52.82	-48.5	-49.8	15.3	0.00e+00	0	23	0	1508900864	63	4102
2026-01-11 00:25:11.31	178.46	52.49	-48.4	-49.5	15.5	0.00e+00	0	23	0	1512046592	63	3996
2026-01-11 00:25:12.31	178.73	52.16	-48.2	-49.4	15.5	0.00e+00	0	23	0	1515192320	63	3944
2026-01-11 00:25:13.30	178.99	51.84	-49.0	-50.3	15.1	0.00e+00	0	23	0	1518338048	63	4354
2026-01-11 00:25:14.29	179.25	51.52	-49.8	-51.2	14.7	0.00e+00	0	22	0	1521483776	64	4589
2026-01-11 00:25:15.29	179.50	51.20	-50.2	-51.7	14.6	0.00e+00	0	23	0	1524629504	65	4555
2026-01-11 00:25:16.29	179.75	50.88	-50.1	-51.5	14.7	0.00e+00	0	23	0	1527775232	65	4483
2026-01-11 00:25:17.28	179.98	50.56	-49.7	-51.1	15.0	0.00e+00	0	23	0	1530920960	65	4244
2026-01-11 00:25:18.28	180.22	50.25	-49.5	-50.8	15.1	0.00e+00	0	23	0	1534066688	65	4136
2026-01-11 00:25:19.28	180.45	49.93	-49.6	-50.9	15.0	0.00e+00	0	23	0	1537212416	65	4189
2026-01-11 00:25:20.28	180.68	49.62	-50.0	-51.4	14.7	0.00e+00	0	23	0	1540358144	65	4427
2026-01-11 00:25:21.27	180.90	49.31	-50.1	-51.6	14.6	0.00e+00	0	23	0	1543503872	65	4494
2026-01-11 00:25:22.27	181.12	49.00	-50.1	-51.6	14.7	0.00e+00	0	23	0	1546649600	65	4517
2026-01-11 00:25:23.27	181.33	48.69	-50.2	-51.7	14.7	0.00e+00	0	23	0	1549795328	65	4546
2026-01-11 00:25:24.26	181.54	48.39	-50.3	-51.7	14.5	0.00e+00	0	23	0	1552941056	65	4596
2026-01-11 00:25:25.25	181.74	48.09	-50.4	-51.9	14.4	0.00e+00	0	22	0	1556086784	65	4673
2026-01-11 00:25:26.25	181.95	47.79	-50.4	-51.9	14.6	0.00e+00	0	23	0	1559232512	66	4438
2026-01-11 00:25:27.25	182.14	47.49	-50.5	-52.0	14.6	0.00e+00	0	23	0	1562378240	66	4488
2026-01-11 00:25:28.25	182.34	47.19	-50.6	-52.2	14.4	0.00e+00	0	23	0	1565523968	66	4548
2026-01-11 00:25:29.26	182.53	46.89	-50.6	-52.2	14.5	0.00e+00	0	23	0	1568669696	66	4560
2026-01-11 00:25:30.26	182.72	46.59	-50.5	-52.0	14.6	0.00e+00	0	23	0	1571815424	66	4483
2026-01-11 00:25:31.26	182.90	46.30	-50.5	-52.0	14.6	0.00e+00	0	23	0	1574961152	66	4451
2026-01-11 00:25:32.25	183.08	46.01	-50.6	-52.1	14.5	0.00e+00	0	22	0	1577058304	66	4544
2026-01-11 00:25:33.25	183.26	45.72	-50.8	-52.3	14.5	0.00e+00	0	23	0	1580204032	66	4634
2026-01-11 00:25:34.24	183.43	45.43	-51.0	-52.6	14.4	0.00e+00	0	23	0	1583349760	67	4532
2026-01-11 00:25:35.24	183.60	45.14	-51.1	-52.7	14.3	0.00e+00	0	23	0	1586495488	67	4594
2026-01-11 00:25:36.23	183.77	44.86	-51.1	-52.7	14.3	0.00e+00	0	23	0	1589641216	67	4555
2026-01-11 00:25:37.23	183.94	44.58	-50.8	-52.3	14.5	0.00e+00	0	23	0	1592786944	67	4389
2026-01-11 00:25:38.22	184.10	44.30	-50.9	-52.5	14.4	0.00e+00	0	23	0	1595932672	67	4444
2026-01-11 00:25:39.22	184.26	44.02	-51.0	-52.6	14.4	0.00e+00	0	23	0	1599078400	67	4526
2026-01-11 00:25:40.22	184.41	43.74	-51.1	-52.8	14.2	0.00e+00	0	23	0	1602224128	67	4611
2026-01-11 00:25:41.22	184.57	43.47	-51.0	-52.6	14.2	0.00e+00	0	23	0	1605369856	67	4537
2026-01-11 00:25:42.22	184.72	43.19	-50.7	-52.3	14.5	0.00e+00	0	23	0	1608515584	67	4351
2026-01-11 00:25:43.21	184.87	42.92	-50.5	-52.0	14.7	0.00e+00	0	23	0	1611661312	67	4212
2026-01-11 00:25:44.22	185.02	42.65	-50.5	-52.0	14.7	0.00e+00	0	23	0	1614807040	67	4206
2026-01-11 00:25:45.22	185.16	42.38	-50.4	-51.8	14.8	0.00e+00	0	23	0	1617952768	67	4132
2026-01-11 00:25:46.22	185.30	42.11	-50.0	-51.4	14.9	0.00e+00	0	23	0	1621098496	66	4158
2026-01-11 00:25:47.23	185.44	41.84	-49.6	-51.0	15.0	0.00e+00	0	23	0	1624244224	65	4202
2026-01-11 00:25:48.22	185.58	41.58	-49.4	-50.7	15.1	0.00e+00	0	23	0	1627389952	65	4081
2026-01-11 00:25:49.21	185.72	41.32	-49.5	-50.8	15.1	0.00e+00	0	23	0	1630535680	65	4131
2026-01-11 00:25:50.20	185.85	41.06	-49.7	-51.0	15.0	0.00e+00	0	23	0	1633681408	65	4234
2026-01-11 00:25:51.19	185.98	40.81	-49.9	-51.3	14.8	0.00e+00	0	23	0	1636827136	65	4386
2026-01-11 00:25:52.19	186.11	40.55	-50.3	-51.7	14.6	0.00e+00	0	23	0	1639972864	65	4590
2026-01-11 00:25:53.19	186.24	40.29	-50.5	-52.0	14.6	0.00e+00	0	23	0	1643118592	66	4491
2026-01-11 00:25:54.18	186.36	40.04	-50.4	-51.9	14.7	0.00e+00	0	23	0	1646264320	66	4399
2026-01-11 00:25:55.18	186.48	39.79	-50.0	-51.5	14.9	0.00e+00	0	23	0	1649410048	66	4195
2026-01-11 00:25:56.18	186.61	39.54	-49.9	-51.3	15.0	0.00e+00	0	23	0	1652555776	66	4121
2026-01-11 00:25:57.19	186.73	39.29	-50.0	-51.4	14.9	0.00e+00	0	23	0	1655701504	66	4159
2026-01-11 00:25:58.18	186.84	39.04	-50.1	-51.6	14.8	0.00e+00	0	22	0	1658847232	66	4254
2026-01-11 00:25:59.18	186.96	38.80	-50.2	-51.7	14.8	0.00e+00	0	23	0	1661992960	66	4300
2026-01-11 00:26:00.18	187.08	38.55	-50.3	-51.8	14.7	0.00e+00	0	23	0	1665138688	66	4352
2026-01-11 00:26:01.17	187.19	38.31	-50.3	-51.8	14.7	0.00e+00	0	23	0	1668284416	66	4349
2026-01-11 00:26:02.17	187.30	38.07	-50.5	-52.0	14.6	0.00e+00	0	23	0	1671430144	66	4468
2026-01-11 00:26:03.17	187.41	37.83	-50.3	-51.8	14.7	0.00e+00	0	23	0	1674575872	66	4389
2026-01-11 00:26:04.17	187.52	37.60	-50.2	-51.6	14.8	0.00e+00	0	23	0	1677721600	66	4290
2026-01-11 00:26:05.16	187.63	37.36	-50.0	-51.5	14.9	0.00e+00	0	23	0	1680867328	66	4201
2026-01-11 00:26:06.16	187.73	37.13	-49.7	-51.1	15.1	0.00e+00	0	22	0	1684013056	66	4040
2026-01-11 00:26:07.16	187.84	36.90	-49.4	-50.7	15.1	0.00e+00	0	23	0	1687158784	65	4090
2026-01-11 00:26:08.16	187.94	36.66	-49.0	-50.3	15.2	0.00e+00	0	23	0	1690304512	64	4106
2026-01-11 00:26:09.16	188.04	36.43	-48.7	-50.0	15.4	0.00e+00	0	23	0	1693450240	64	3965
2026-01-11 00:26:10.15	188.14	36.21	-48.4	-49.6	15.4	0.00e+00	0	23	0	1696595968	63	4043
2026-01-11 00:26:11.15	188.24	35.98	-48.5	-49.7	15.3	0.00e+00	0	22	0	1698693120	63	4095
2026-01-11 00:26:12.14	188.33	35.76	-48.9	-50.2	15.1	0.00e+00	0	23	0	1701838848	63	4326
2026-01-11 00:26:13.15	188.43	35.53	-49.3	-50.6	14.9	0.00e+00	0	22	0	1704984576	63	4529
2026-01-11 00:26:14.16	188.53	35.31	-49.6	-51.0	14.9	0.00e+00	0	23	0	1709178880	64	4466
2026-01-11 00:26:15.15	188.62	35.09	-49.6	-51.0	14.8	0.00e+00	0	23	0	1711276032	64	4459
2026-01-11 00:26:16.15	188.71	34.87	-49.6	-51.0	14.8	0.00e+00	0	23	0	1714421760	64	4475
2026-01-11 00:26:17.15	188.80	34.65	-49.6	-51.0	14.9	0.00e+00	0	23	0	1717567488	64	4477
2026-01-11 00:26:18.15	188.89	34.44	-49.6	-51.0	14.9	0.00e+00	0	23	0	1720713216	64	4442
2026-01-11 00:26:19.15	188.98	34.22	-49.4	-50.7	15.0	0.00e+00	0	23	0	1723858944	64	4335
2026-01-11 00:26:20.14	189.07	34.01	-49.3	-50.6	15.1	0.00e+00	0	23	0	1727004672	64	4269
2026-01-11 00:26:21.13	189.16	33.80	-49.2	-50.5	15.1	0.00e+00	0	23	0	1730150400	64	4203
2026-01-11 00:26:22.13	189.24	33.59	-49.0	-50.3	15.2	0.00e+00	0	23	0	1733296128	64	4116
2026-01-11 00:26:23.12	189.33	33.38	-48.9	-50.2	15.3	0.00e+00	0	23	0	1736441856	64	4073
2026-01-11 00:26:24.11	189.41	33.17	-48.9	-50.2	15.2	0.00e+00	0	23	0	1739587584	64	4078
2026-01-11 00:26:25.11	189.49	32.97	-49.0	-50.3	15.2	0.00e+00	0	23	0	1742733312	64	4138
2026-01-11 00:26:26.10	189.57	32.76	-49.0	-50.3	15.2	0.00e+00	0	23	0	1745879040	64	4144
2026-01-11 00:26:27.10	189.65	32.56	-49.1	-50.4	15.1	0.00e+00	0	23	0	1749024768	64	4170
2026-01-11 00:26:28.09	189.73	32.36	-48.8	-50.1	15.3	0.00e+00	0	23	0	1752170496	64	4042
2026-01-11 00:26:29.08	189.81	32.16	-48.7	-50.0	15.4	0.00e+00	0	23	0	1755316224	64	3967
2026-01-11 00:26:30.08	189.89	31.96	-48.6	-49.9	15.2	0.00e+00	0	23	0	1758461952	63	4156
2026-01-11 00:26:31.07	189.97	31.76	-48.4	-49.6	15.3	0.00e+00	0	23	0	1761607680	63	4046
2026-01-11 00:26:32.07	190.04	31.56	-48.3	-49.6	15.3	0.00e+00	0	23	0	1764753408	63	4012
2026-01-11 00:26:33.06	190.12	31.37	-48.3	-49.5	15.4	0.00e+00	0	23	0	1767899136	63	3988
2026-01-11 00:26:34.04	190.19	31.18	-48.3	-49.6	15.3	0.00e+00	0	23	0	1771044864	63	4023
2026-01-11 00:26:35.04	190.26	30.98	-48.4	-49.6	15.3	0.00e+00	0	23	0	1774190592	63	4049
2026-01-11 00:26:36.04	190.34	30.79	-48.0	-49.3	15.4	0.00e+00	0	23	0	1777336320	62	4103
2026-01-11 00:26:37.04	190.41	30.60	-48.0	-49.2	15.4	0.00e+00	0	23	0	1780482048	62	4083
2026-01-11 00:26:38.04	190.48	30.41	-48.0	-49.2	15.4	0.00e+00	0	23	0	1783627776	62	4064
2026-01-11 00:26:39.04	190.55	30.22	-47.9	-49.1	15.4	0.00e+00	0	23	0	1786773504	62	4042
2026-01-11 00:26:40.04	190.62	30.03	-48.0	-49.2	15.4	0.00e+00	0	23	0	1789919232	62	4070
2026-01-11 00:26:41.04	190.69	29.84	-48.1	-49.3	15.3	0.00e+00	0	23	0	1793064960	62	4136
2026-01-11 00:26:42.03	190.76	29.66	-48.1	-49.4	15.3	0.00e+00	0	23	0	1796210688	62	4150
2026-01-11 00:26:43.03	190.82	29.48	-48.1	-49.4	15.3	0.00e+00	0	23	0	1798307840	62	4151
2026-01-11 00:26:44.03	190.89	29.29	-48.3	-49.5	15.3	0.00e+00	0	23	0	1801453568	62	4225
2026-01-11 00:26:45.03	190.96	29.11	-48.1	-49.4	15.3	0.00e+00	0	23	0	1804599296	62	4152
2026-01-11 00:26:46.02	191.02	28.93	-48.1	-49.3	15.4	0.00e+00	0	23	0	1807745024	62	4124
2026-01-11 00:26:47.02	191.09	28.75	-48.1	-49.3	15.3	0.00e+00	0	23	0	1810890752	62	4124
2026-01-11 00:26:48.02	191.15	28.57	-48.2	-49.4	15.3	0.00e+00	0	23	0	1814036480	62	4183
2026-01-11 00:26:49.03	191.21	28.39	-48.3	-49.5	15.2	0.00e+00	0	23	0	1817182208	62	4233
2026-01-11 00:26:50.03	191.28	28.22	-48.2	-49.5	15.3	0.00e+00	0	23	0	1820327936	62	4213
2026-01-11 00:26:51.03	191.34	28.04	-48.3	-49.5	15.3	0.00e+00	0	23	0	1823473664	62	4235
2026-01-11 00:26:52.03	191.40	27.87	-48.5	-49.8	15.1	0.00e+00	0	23	0	1826619392	62	4384
2026-01-11 00:26:53.02	191.46	27.70	-48.5	-49.8	15.1	0.00e+00	0	23	0	1829765120	62	4386
2026-01-11 00:26:54.02	191.52	27.52	-48.6	-49.9	15.1	0.00e+00	0	23	0	1832910848	62	4416
2026-01-11 00:26:55.02	191.58	27.35	-48.6	-49.9	15.1	0.00e+00	0	23	0	1836056576	62	4413
2026-01-11 00:26:56.02	191.64	27.18	-48.6	-49.9	15.1	0.00e+00	0	23	0	1839202304	62	4408
2026-01-11 00:26:57.02	191.70	27.01	-48.4	-49.7	15.1	0.00e+00	0	23	0	1842348032	62	4327
2026-01-11 00:26:58.02	191.76	26.84	-48.4	-49.7	15.2	0.00e+00	0	23	0	1845493760	62	4324
2026-01-11 00:26:59.01	191.81	26.68	-48.4	-49.6	15.2	0.00e+00	0	23	0	1848639488	62	4280
2026-01-11 00:27:00.01	191.87	26.51	-48.3	-49.5	15.2	0.00e+00	0	23	0	1851785216	62	4240
2026-01-11 00:27:01.01	191.92	26.35	-48.4	-49.7	15.2	0.00e+00	0	23	0	1854930944	62	4304
2026-01-11 00:27:02.01	191.98	26.18	-48.2	-49.5	15.2	0.00e+00	0	23	0	1858076672	62	4222
2026-01-11 00:27:03.01	192.04	26.02	-48.3	-49.6	15.2	0.00e+00	0	23	0	1861222400	62	4245
2026-01-11 00:27:04.01	192.09	25.86	-48.2	-49.5	15.3	0.00e+00	0	23	0	1864368128	62	4194
2026-01-11 00:27:05.01	192.14	25.70	-48.1	-49.4	15.3	0.00e+00	0	23	0	1867513856	62	4154
2026-01-11 00:27:06.02	192.20	25.53	-48.2	-49.4	15.3	0.00e+00	0	23	0	1870659584	62	4189
2026-01-11 00:27:07.01	192.25	25.38	-48.2	-49.4	15.3	0.00e+00	0	23	0	1873805312	62	4193
2026-01-11 00:27:08.02	192.30	25.22	-48.1	-49.3	15.3	0.00e+00	0	23	0	1876951040	62	4133
2026-01-11 00:27:09.02	192.36	25.06	-48.1	-49.4	15.3	0.00e+00	0	23	0	1880096768	62	4151
2026-01-11 00:27:10.01	192.41	24.90	-48.1	-49.3	15.3	0.00e+00	0	23	0	1883242496	62	4130
2026-01-11 00:27:11.01	192.46	24.75	-48.2	-49.5	15.2	0.00e+00	0	23	0	1886388224	62	4214
2026-01-11 00:27:12.01	192.51	24.59	-48.1	-49.4	15.3	0.00e+00	0	23	0	1889533952	62	4155
2026-01-11 00:27:13.00	192.56	24.44	-48.0	-49.3	15.3	0.00e+00	0	23	0	1892679680	62	4103
2026-01-11 00:27:14.00	192.61	24.29	-48.1	-49.4	15.3	0.00e+00	0	23	0	1895825408	62	4147
2026-01-11 00:27:15.01	192.66	24.13	-48.1	-49.3	15.3	0.00e+00	0	23	0	1898971136	62	4114
2026-01-11 00:27:16.00	192.71	23.98	-48.1	-49.4	15.3	0.00e+00	0	23	0	1902116864	62	4151
2026-01-11 00:27:17.00	192.76	23.83	-48.0	-49.2	15.3	0.00e+00	0	23	0	1905262592	62	4084
2026-01-11 00:27:18.00	192.80	23.68	-47.9	-49.2	15.4	0.00e+00	0	23	0	1908408320	62	4060
2026-01-11 00:27:19.00	192.85	23.53	-47.9	-49.2	15.4	0.00e+00	0	23	0	1911554048	62	4054
2026-01-11 00:27:20.00	192.90	23.39	-47.9	-49.1	15.4	0.00e+00	0	23	0	1914699776	62	4027
2026-01-11 00:27:21.00	192.95	23.24	-47.9	-49.1	15.4	0.00e+00	0	23	0	1917845504	62	4018
2026-01-11 00:27:21.99	192.99	23.09	-47.8	-49.0	15.4	0.00e+00	0	23	0	1920991232	62	3991
2026-01-11 00:27:22.99	193.04	22.95	-47.8	-49.0	15.4	0.00e+00	0	23	0	1924136960	62	3978
2026-01-11 00:27:23.97	193.08	22.81	-47.9	-49.1	15.4	0.00e+00	0	23	0	1927282688	62	4020
2026-01-11 00:27:24.97	193.13	22.66	-47.9	-49.1	15.4	0.00e+00	0	23	0	1930428416	62	4048
2026-01-11 00:27:25.96	193.17	22.52	-47.8	-49.0	15.4	0.00e+00	0	23	0	1932525568	62	3981
2026-01-11 00:27:26.95	193.22	22.38	-47.7	-48.9	15.5	0.00e+00	0	23	0	1935671296	62	3951
2026-01-11 00:27:27.96	193.26	22.24	-47.8	-49.0	15.5	0.00e+00	0	23	0	1938817024	62	3964
2026-01-11 00:27:28.96	193.30	22.10	-47.7	-48.9	15.5	0.00e+00	0	23	0	1941962752	62	3949
2026-01-11 00:27:29.96	193.35	21.96	-47.7	-48.9	15.5	0.00e+00	0	23	0	1945108480	62	3942
2026-01-11 00:27:30.95	193.39	21.82	-47.7	-48.9	15.5	0.00e+00	0	23	0	1948254208	62	3932
2026-01-11 00:27:31.95	193.43	21.68	-47.8	-49.0	15.4	0.00e+00	0	23	0	1951399936	62	3996
2026-01-11 00:27:32.96	193.48	21.54	-47.8	-49.0	15.4	0.00e+00	0	23	0	1954545664	62	3979
2026-01-11 00:27:33.95	193.52	21.40	-47.9	-49.1	15.4	0.00e+00	0	23	0	1957691392	62	4012
2026-01-11 00:27:34.93	193.56	21.27	-47.8	-49.0	15.4	0.00e+00	0	23	0	1960837120	62	3980
2026-01-11 00:27:35.92	193.60	21.14	-47.8	-49.0	15.4	0.00e+00	0	23	0	1963982848	62	3992
2026-01-11 00:27:36.92	193.64	21.00	-47.8	-49.0	15.4	0.00e+00	0	23	0	1967128576	62	3997
2026-01-11 00:27:37.92	193.68	20.87	-47.8	-49.0	15.5	0.00e+00	0	23	0	1970274304	62	3968
2026-01-11 00:27:38.92	193.72	20.73	-47.7	-48.9	15.5	0.00e+00	0	23	0	1973420032	62	3933
2026-01-11 00:27:39.91	193.76	20.60	-47.8	-49.0	15.4	0.00e+00	0	23	0	1976565760	62	3994
2026-01-11 00:27:40.90	193.80	20.47	-47.8	-49.0	15.5	0.00e+00	0	23	0	1979711488	62	3983
2026-01-11 00:27:41.89	193.84	20.34	-47.8	-49.0	15.4	0.00e+00	0	23	0	1982857216	62	3998
2026-01-11 00:27:42.89	193.88	20.21	-47.8	-49.0	15.4	0.00e+00	0	23	0	1986002944	62	3992
2026-01-11 00:27:43.90	193.92	20.08	-47.9	-49.1	15.4	0.00e+00	0	23	0	1989148672	62	4040
2026-01-11 00:27:44.89	193.96	19.95	-48.0	-49.3	15.3	0.00e+00	0	23	0	1992294400	62	4113
2026-01-11 00:27:45.89	193.99	19.82	-48.0	-49.3	15.3	0.00e+00	0	23	0	1995440128	62	4100
2026-01-11 00:27:46.89	194.03	19.69	-48.1	-49.3	15.3	0.00e+00	0	23	0	1998585856	62	4130
2026-01-11 00:27:47.89	194.07	19.56	-48.2	-49.5	15.2	0.00e+00	0	23	0	2001731584	62	4218
2026-01-11 00:27:48.89	194.11	19.44	-48.3	-49.5	15.2	0.00e+00	0	23	0	2004877312	62	4234
2026-01-11 00:27:49.90	194.15	19.31	-48.4	-49.7	15.1	0.00e+00	0	23	0	2008023040	62	4311
2026-01-11 00:27:50.89	194.18	19.19	-48.5	-49.8	15.1	0.00e+00	0	23	0	2011168768	62	4374
2026-01-11 00:27:51.89	194.22	19.06	-48.6	-49.9	15.0	0.00e+00	0	23	0	2014314496	62	4410
2026-01-11 00:27:52.89	194.25	18.94	-48.6	-49.9	15.0	0.00e+00	0	23	0	2017460224	62	4429
2026-01-11 00:27:53.88	194.29	18.81	-48.7	-50.1	15.0	0.00e+00	0	23	0	2020605952	62	4495
2026-01-11 00:27:54.88	194.33	18.69	-48.8	-50.2	14.9	0.00e+00	0	23	0	2023751680	62	4550
2026-01-11 00:27:55.88	194.36	18.57	-48.7	-50.0	15.0	0.00e+00	0	23	0	2026897408	62	4478
2026-01-11 00:27:56.88	194.40	18.45	-48.8	-50.2	14.9	0.00e+00	0	23	0	2030043136	62	4552
2026-01-11 00:27:57.88	194.43	18.32	-48.8	-50.1	14.9	0.00e+00	0	23	0	2033188864	62	4529
2026-01-11 00:27:58.87	194.47	18.20	-48.7	-50.1	15.0	0.00e+00	0	23	0	2036334592	62	4513
2026-01-11 00:27:59.87	194.50	18.08	-48.7	-50.1	15.0	0.00e+00	0	23	0	2039480320	62	4512
2026-01-11 00:28:00.87	194.54	17.96	-48.7	-50.1	15.0	0.00e+00	0	23	0	2041577472	62	4500
2026-01-11 00:28:01.87	194.57	17.85	-48.8	-50.1	14.9	0.00e+00	0	23	0	2044723200	62	4542
2026-01-11 00:28:02.87	194.60	17.73	-48.8	-50.2	14.9	0.00e+00	0	23	0	2047868928	62	4575
2026-01-11 00:28:03.86	194.64	17.61	-48.8	-50.2	15.0	0.00e+00	0	23	0	2051014656	63	4304
2026-01-11 00:28:04.86	194.67	17.49	-48.9	-50.3	15.0	0.00e+00	0	23	0	2054160384	63	4351
2026-01-11 00:28:05.86	194.70	17.38	-48.8	-50.2	15.0	0.00e+00	0	23	0	2057306112	63	4313
2026-01-11 00:28:06.85	194.74	17.26	-48.9	-50.2	15.0	0.00e+00	0	23	0	2060451840	63	4327
