passes_logs/2026/01/11/R3.2S_Murmansk/R3.2S_Murmansk__20260111_210630_SUOMI_NPP_rec.log

#Pass ID: 20260111_210630_SUOMI NPP
#Satellite: SUOMI NPP
#Configuration: NPP
#almurnet v.1.7.20251203
#Start time: 2026-01-11 21:06:32

#Version: 2.2.20231116
#Station: R3.2S_Murmansk
#Location: 33.079688 lon 68.888172 lat
#TLE: 1 37849U 11061A   26011.57971124  .00000103  00000+0  69927-4 0  9996
#TLE: 2 37849  98.7807 313.6578 0002518  69.5076 290.6370 14.19524515736228

#Time	Az	El	Level	Level2	SNR	BER	BlckErr	Temp	State	Recorded	gain1	gain2
2026-01-11 21:06:32.32	18.99	2.09	-56.7	-72.6	3.8	1.49e+00	0	21	0	0	79	22660
2026-01-11 21:06:33.32	19.09	2.13	-56.7	-72.5	3.8	1.49e+00	0	21	104	0	78	23637
2026-01-11 21:06:34.33	19.20	2.17	-56.7	-72.5	3.8	1.49e+00	0	21	104	0	78	23770
2026-01-11 21:06:35.34	19.30	2.21	-56.7	-72.6	3.8	1.49e+00	0	21	104	0	78	23872
2026-01-11 21:06:36.35	19.41	2.26	-56.7	-72.5	3.8	1.49e+00	0	21	104	0	78	23823
2026-01-11 21:06:37.36	19.52	2.30	-56.7	-72.6	3.8	1.49e+00	0	21	104	0	78	23878
2026-01-11 21:06:38.36	19.62	2.34	-56.7	-72.5	3.8	1.49e+00	0	21	104	0	78	23719
2026-01-11 21:06:39.37	19.73	2.38	-56.7	-72.6	3.8	1.49e+00	0	21	104	0	78	23859
2026-01-11 21:06:40.37	19.84	2.42	-56.7	-72.5	3.8	1.49e+00	0	21	104	0	78	23697
2026-01-11 21:06:41.38	19.95	2.46	-56.7	-72.5	3.8	1.49e+00	0	21	104	0	78	23782
2026-01-11 21:06:42.40	20.06	2.50	-56.7	-72.5	3.8	1.49e+00	0	21	104	0	78	23601
2026-01-11 21:06:43.40	20.16	2.54	-56.7	-72.4	3.8	1.49e+00	0	21	104	0	78	23560
2026-01-11 21:06:44.41	20.27	2.59	-56.7	-72.5	3.8	1.49e+00	0	21	104	0	78	23661
2026-01-11 21:06:45.42	20.38	2.63	-56.7	-72.5	3.8	1.49e+00	0	21	104	0	78	23637
2026-01-11 21:06:46.42	20.49	2.67	-56.7	-72.4	3.8	1.49e+00	0	21	104	0	78	23484
2026-01-11 21:06:47.43	20.60	2.71	-56.7	-72.6	3.8	1.49e+00	0	21	104	0	78	23946
2026-01-11 21:06:48.44	20.71	2.75	-56.7	-72.5	3.8	1.49e+00	0	21	104	0	78	23847
2026-01-11 21:06:49.45	20.82	2.79	-56.7	-72.5	3.8	1.49e+00	0	21	104	0	78	23793
2026-01-11 21:06:50.45	20.93	2.83	-56.7	-72.6	3.8	1.49e+00	0	21	104	0	78	23943
2026-01-11 21:06:51.46	21.04	2.87	-56.7	-72.6	3.8	1.49e+00	0	21	104	0	78	23958
2026-01-11 21:06:52.46	21.15	2.91	-56.7	-72.5	3.8	1.49e+00	0	21	104	0	78	23760
2026-01-11 21:06:53.47	21.27	2.95	-56.7	-72.5	3.8	1.49e+00	0	21	104	0	78	23846
2026-01-11 21:06:54.48	21.38	3.00	-56.7	-72.6	3.8	1.49e+00	0	21	104	0	78	24003
2026-01-11 21:06:55.48	21.49	3.04	-56.7	-72.6	3.8	1.49e+00	0	21	104	0	78	23993
2026-01-11 21:06:56.49	21.60	3.08	-56.7	-72.6	3.8	1.49e+00	0	21	104	0	78	23875
2026-01-11 21:06:57.49	21.71	3.12	-56.7	-72.5	3.8	1.49e+00	0	21	104	0	78	23640
2026-01-11 21:06:58.50	21.83	3.16	-56.7	-72.5	3.8	1.49e+00	0	21	104	0	78	23593
2026-01-11 21:06:59.51	21.94	3.20	-56.7	-72.6	3.8	1.49e+00	0	21	104	0	78	23875
2026-01-11 21:07:00.52	22.05	3.24	-56.7	-72.6	3.8	1.49e+00	0	21	104	0	78	23952
2026-01-11 21:07:01.53	22.17	3.28	-56.7	-72.6	3.8	1.49e+00	0	21	104	0	78	23980
2026-01-11 21:07:02.53	22.28	3.32	-56.7	-72.6	3.8	1.49e+00	0	21	104	0	78	23998
2026-01-11 21:07:03.54	22.40	3.36	-56.7	-72.6	3.8	1.49e+00	0	22	104	0	78	24022
2026-01-11 21:07:04.55	22.51	3.40	-56.7	-72.6	3.8	1.49e+00	0	22	104	0	78	23881
2026-01-11 21:07:05.56	22.63	3.44	-56.7	-72.5	3.8	1.49e+00	0	22	104	0	78	23841
2026-01-11 21:07:06.57	22.74	3.48	-56.7	-72.5	3.8	1.49e+00	0	22	104	0	78	23626
2026-01-11 21:07:07.58	22.86	3.52	-56.7	-72.4	3.8	1.49e+00	0	22	104	0	78	23454
2026-01-11 21:07:08.59	22.98	3.57	-56.7	-72.5	3.8	1.49e+00	0	22	104	0	78	23613
2026-01-11 21:07:09.60	23.09	3.61	-56.7	-72.5	3.8	1.49e+00	0	21	104	0	78	23664
2026-01-11 21:07:10.61	23.21	3.65	-56.7	-72.5	3.8	1.49e+00	0	22	104	0	78	23690
2026-01-11 21:07:11.62	23.33	3.69	-56.7	-72.6	3.8	1.49e+00	0	22	104	0	78	23990
2026-01-11 21:07:12.63	23.44	3.73	-56.7	-72.6	3.8	1.49e+00	0	22	104	0	78	23946
2026-01-11 21:07:13.64	23.56	3.77	-56.7	-72.6	3.8	1.49e+00	0	22	104	0	78	23927
2026-01-11 21:07:14.64	23.68	3.81	-56.6	-72.6	3.8	1.49e+00	0	22	104	0	78	23970
2026-01-11 21:07:15.65	23.80	3.85	-56.7	-72.6	3.8	1.49e+00	0	22	104	0	78	23999
2026-01-11 21:07:16.67	23.92	3.89	-56.7	-72.6	3.8	1.49e+00	0	22	104	0	78	23953
2026-01-11 21:07:17.67	24.03	3.93	-56.7	-72.6	3.8	1.49e+00	0	22	104	0	78	24076
2026-01-11 21:07:18.68	24.15	3.97	-56.7	-72.6	3.8	1.49e+00	0	22	104	0	78	24072
2026-01-11 21:07:19.69	24.27	4.01	-56.7	-72.6	3.8	1.49e+00	0	22	104	0	78	24108
2026-01-11 21:07:20.70	24.39	4.05	-56.7	-72.6	3.8	1.49e+00	0	22	104	0	78	23889
2026-01-11 21:07:21.71	24.51	4.09	-56.7	-72.6	3.8	1.49e+00	0	22	104	0	78	23980
2026-01-11 21:07:22.72	24.63	4.13	-56.7	-72.6	3.8	1.49e+00	0	22	104	0	78	24000
2026-01-11 21:07:23.73	24.76	4.17	-56.7	-72.6	3.8	1.49e+00	0	22	104	0	78	23890
2026-01-11 21:07:24.74	24.88	4.21	-56.7	-72.6	3.8	1.49e+00	0	22	104	0	78	23945
2026-01-11 21:07:25.75	25.00	4.25	-56.7	-72.6	3.8	1.49e+00	0	22	104	0	78	24075
2026-01-11 21:07:26.75	25.12	4.29	-56.7	-72.6	3.8	1.49e+00	0	22	104	0	78	24061
2026-01-11 21:07:27.76	25.24	4.33	-56.7	-72.4	3.8	1.49e+00	0	22	104	0	78	23410
2026-01-11 21:07:28.77	25.36	4.37	-56.7	-72.2	3.8	1.49e+00	0	22	104	0	78	22857
2026-01-11 21:07:29.78	25.49	4.41	-56.7	-71.9	3.8	1.49e+00	0	22	104	0	78	22175
2026-01-11 21:07:30.79	25.61	4.45	-56.7	-71.7	3.8	1.49e+00	0	22	104	0	78	21604
2026-01-11 21:07:31.80	25.73	4.49	-56.7	-71.5	3.8	1.49e+00	0	22	104	0	78	21176
2026-01-11 21:07:32.81	25.86	4.53	-56.6	-71.0	3.8	1.49e+00	0	22	104	0	78	20067
2026-01-11 21:07:33.81	25.98	4.57	-56.6	-69.9	3.9	1.49e+00	0	22	104	0	78	17509
2026-01-11 21:07:34.82	26.10	4.61	-56.4	-67.3	4.8	1.28e+00	0	22	0	0	78	12991
2026-01-11 21:07:35.83	26.23	4.65	-56.2	-64.9	6.3	3.23e-01	0	22	0	2097152	78	9926
2026-01-11 21:07:36.84	26.35	4.69	-55.9	-63.1	7.9	9.59e-02	0	22	0	4194304	78	8037
2026-01-11 21:07:37.84	26.48	4.72	-55.7	-62.5	8.5	3.49e-02	0	22	0	6291456	78	7459
2026-01-11 21:07:38.85	26.60	4.76	-55.4	-61.5	9.3	1.80e-02	0	22	0	8388608	77	7059
2026-01-11 21:07:39.86	26.73	4.80	-55.2	-60.8	9.9	4.08e-03	0	22	0	9437184	77	6518
2026-01-11 21:07:40.87	26.86	4.84	-55.3	-60.9	9.8	3.07e-03	0	22	0	11534336	77	6591
2026-01-11 21:07:41.88	26.98	4.88	-55.3	-61.1	9.6	4.84e-03	0	22	0	13631488	77	6760
2026-01-11 21:07:42.88	27.11	4.92	-55.6	-62.2	8.6	1.27e-02	0	22	0	15728640	77	7688
2026-01-11 21:07:43.89	27.24	4.96	-55.8	-63.1	7.8	3.82e-02	0	22	0	17825792	77	8478
2026-01-11 21:07:44.90	27.36	5.00	-56.0	-63.9	7.1	6.91e-02	0	22	0	18874368	77	9332
2026-01-11 21:07:45.91	27.49	5.04	-56.0	-64.2	6.9	1.33e-01	0	22	0	20971520	77	9653
2026-01-11 21:07:46.92	27.62	5.08	-56.2	-69.6	4.0	6.51e-01	0	22	0	23068672	77	17906
2026-01-11 21:07:47.93	27.75	5.11	-55.9	-62.1	9.1	7.71e-01	0	22	0	23068672	77	7613
2026-01-11 21:07:48.94	27.88	5.15	-53.8	-57.0	13.1	4.50e-06	0	22	0	25165824	74	5020
2026-01-11 21:07:49.94	28.01	5.19	-56.8	-67.1	5.2	1.16e-01	0	22	0	27262976	78	12770
2026-01-11 21:07:50.95	28.14	5.23	-53.9	-57.2	12.9	1.27e-01	0	22	0	28311552	74	5119
2026-01-11 21:07:51.96	28.27	5.27	-53.3	-56.2	13.5	0.00e+00	0	22	0	30408704	73	4853
2026-01-11 21:07:52.97	28.40	5.31	-53.3	-56.2	13.6	0.00e+00	0	22	0	32505856	73	4831
2026-01-11 21:07:53.97	28.53	5.35	-53.3	-56.3	13.5	0.00e+00	0	22	0	34603008	73	4872
2026-01-11 21:07:54.98	28.66	5.38	-53.5	-56.5	13.4	0.00e+00	0	23	0	36700160	73	4998
2026-01-11 21:07:55.99	28.79	5.42	-53.2	-56.1	13.6	0.00e+00	0	22	0	37748736	73	4777
2026-01-11 21:07:57.00	28.92	5.46	-53.1	-55.9	13.7	0.00e+00	0	22	0	39845888	72	4961
2026-01-11 21:07:58.01	29.05	5.50	-53.2	-56.0	13.6	0.00e+00	0	22	0	41943040	72	5016
2026-01-11 21:07:59.02	29.18	5.54	-53.1	-55.9	13.6	0.00e+00	0	22	0	44040192	72	4976
2026-01-11 21:08:00.02	29.32	5.57	-53.2	-56.1	13.5	0.00e+00	0	22	0	46137344	72	5061
2026-01-11 21:08:01.03	29.45	5.61	-53.2	-56.1	13.5	0.00e+00	0	22	0	47185920	72	5073
2026-01-11 21:08:02.03	29.58	5.65	-53.3	-56.1	13.5	0.00e+00	0	22	0	49283072	72	5094
2026-01-11 21:08:03.05	29.72	5.69	-53.3	-56.3	13.4	0.00e+00	0	22	0	51380224	72	5191
2026-01-11 21:08:04.05	29.85	5.73	-53.4	-56.4	13.3	0.00e+00	0	22	0	53477376	72	5266
2026-01-11 21:08:05.06	29.98	5.76	-53.2	-56.1	13.5	0.00e+00	0	22	0	55574528	72	5057
2026-01-11 21:08:06.06	30.12	5.80	-53.3	-56.2	13.4	0.00e+00	0	22	0	56623104	72	5158
2026-01-11 21:08:07.07	30.25	5.84	-53.3	-56.2	13.5	0.00e+00	0	22	0	58720256	72	5121
2026-01-11 21:08:08.08	30.39	5.88	-53.3	-56.2	13.5	0.00e+00	0	23	0	60817408	72	5106
2026-01-11 21:08:09.09	30.52	5.91	-53.1	-55.9	13.7	0.00e+00	0	22	0	62914560	72	4963
2026-01-11 21:08:10.10	30.66	5.95	-52.9	-55.6	13.9	0.00e+00	0	22	0	65011712	72	4770
2026-01-11 21:08:11.11	30.79	5.99	-52.6	-55.1	14.1	0.00e+00	0	22	0	66060288	71	4797
2026-01-11 21:08:12.12	30.93	6.02	-52.7	-55.2	14.0	0.00e+00	0	22	0	68157440	71	4854
2026-01-11 21:08:13.13	31.07	6.06	-53.2	-56.1	13.4	0.00e+00	0	22	0	70254592	71	5341
2026-01-11 21:08:14.13	31.20	6.10	-53.2	-56.0	13.4	0.00e+00	0	22	0	72351744	71	5327
2026-01-11 21:08:15.14	31.34	6.14	-53.0	-55.8	13.6	0.00e+00	0	22	0	74448896	71	5163
2026-01-11 21:08:16.15	31.48	6.17	-52.9	-55.5	13.8	0.00e+00	0	22	0	75497472	71	4993
2026-01-11 21:08:17.16	31.62	6.21	-53.0	-55.8	13.6	0.00e+00	0	22	0	77594624	71	5163
2026-01-11 21:08:18.17	31.76	6.25	-53.2	-56.0	13.5	0.00e+00	0	22	0	79691776	71	5298
2026-01-11 21:08:19.18	31.90	6.28	-53.3	-56.2	13.3	0.00e+00	0	22	0	81788928	71	5458
2026-01-11 21:08:20.18	32.03	6.32	-53.2	-56.0	13.4	0.00e+00	0	22	0	83886080	71	5333
2026-01-11 21:08:21.19	32.17	6.35	-53.3	-56.2	13.4	0.00e+00	0	23	0	84934656	71	5411
2026-01-11 21:08:22.20	32.31	6.39	-53.2	-56.1	13.4	0.00e+00	0	22	0	87031808	71	5347
2026-01-11 21:08:23.21	32.45	6.43	-53.1	-55.9	13.6	0.00e+00	0	23	0	89128960	71	5224
2026-01-11 21:08:24.22	32.59	6.46	-53.0	-55.7	13.7	0.00e+00	0	22	0	91226112	71	5117
2026-01-11 21:08:25.23	32.74	6.50	-53.0	-55.7	13.7	0.00e+00	0	22	0	93323264	71	5116
2026-01-11 21:08:26.24	32.88	6.53	-53.0	-55.6	13.7	0.00e+00	0	22	0	95420416	71	5085
2026-01-11 21:08:27.25	33.02	6.57	-52.9	-55.6	13.8	0.00e+00	0	22	0	96468992	71	5056
2026-01-11 21:08:28.26	33.16	6.61	-53.0	-55.6	13.8	0.00e+00	0	22	0	98566144	71	5088
2026-01-11 21:08:29.26	33.30	6.64	-53.0	-55.6	13.8	0.00e+00	0	22	0	100663296	71	5082
2026-01-11 21:08:30.27	33.44	6.68	-53.0	-55.7	13.7	0.00e+00	0	22	0	102760448	71	5138
2026-01-11 21:08:31.28	33.59	6.71	-53.0	-55.6	13.8	0.00e+00	0	23	0	104857600	71	5069
2026-01-11 21:08:32.29	33.73	6.75	-53.1	-55.8	13.6	0.00e+00	0	23	0	105906176	71	5192
2026-01-11 21:08:33.29	33.87	6.78	-53.1	-55.9	13.6	0.00e+00	0	23	0	108003328	71	5225
2026-01-11 21:08:34.30	34.02	6.82	-53.0	-55.8	13.7	0.00e+00	0	22	0	110100480	71	5176
2026-01-11 21:08:35.31	34.16	6.85	-53.2	-56.0	13.5	0.00e+00	0	22	0	112197632	71	5339
2026-01-11 21:08:36.32	34.31	6.89	-53.1	-56.0	13.6	0.00e+00	0	22	0	113246208	71	5281
2026-01-11 21:08:37.32	34.45	6.92	-53.1	-55.9	13.6	0.00e+00	0	23	0	115343360	71	5243
2026-01-11 21:08:38.33	34.59	6.96	-53.2	-56.1	13.5	0.00e+00	0	22	0	117440512	71	5348
2026-01-11 21:08:39.34	34.74	6.99	-53.2	-56.1	13.4	0.00e+00	0	22	0	119537664	71	5346
2026-01-11 21:08:40.35	34.89	7.03	-53.2	-56.1	13.4	0.00e+00	0	22	0	121634816	71	5344
2026-01-11 21:08:41.36	35.03	7.06	-53.1	-55.8	13.7	0.00e+00	0	23	0	123731968	71	5190
2026-01-11 21:08:42.37	35.18	7.10	-53.3	-56.1	13.4	0.00e+00	0	22	0	124780544	71	5395
2026-01-11 21:08:43.37	35.32	7.13	-53.2	-56.0	13.5	0.00e+00	0	23	0	126877696	71	5304
2026-01-11 21:08:44.37	35.47	7.16	-53.3	-56.1	13.4	0.00e+00	0	23	0	128974848	71	5401
2026-01-11 21:08:45.38	35.62	7.20	-53.4	-56.2	13.4	0.00e+00	0	23	0	131072000	71	5462
2026-01-11 21:08:46.39	35.77	7.23	-53.5	-56.4	13.4	0.00e+00	0	23	0	133169152	72	5250
2026-01-11 21:08:47.63	35.95	7.27	-53.4	-56.3	13.4	0.00e+00	0	23	0	134217728	72	5205
2026-01-11 21:08:48.41	36.06	7.30	-53.5	-56.4	13.4	0.00e+00	0	22	0	136314880	72	5254
2026-01-11 21:08:49.59	36.24	7.34	-53.5	-56.5	13.3	0.00e+00	0	23	0	138412032	72	5301
2026-01-11 21:08:50.46	36.37	7.37	-53.4	-56.2	13.5	0.00e+00	0	22	0	139460608	72	5157
2026-01-11 21:08:51.61	36.54	7.40	-53.4	-56.2	13.5	0.00e+00	0	23	0	141557760	72	5127
2026-01-11 21:08:52.48	36.67	7.43	-53.3	-56.1	13.6	0.00e+00	0	22	0	143654912	72	5083
2026-01-11 21:08:53.63	36.84	7.47	-53.2	-56.0	13.7	0.00e+00	0	23	0	145752064	72	4984
2026-01-11 21:08:54.49	36.97	7.50	-53.3	-56.0	13.6	0.00e+00	0	23	0	147849216	72	5025
2026-01-11 21:08:55.63	37.14	7.53	-53.1	-55.8	13.8	0.00e+00	0	23	0	149946368	72	4892
2026-01-11 21:08:56.50	37.27	7.56	-53.1	-55.8	13.9	0.00e+00	0	23	0	150994944	72	4879
2026-01-11 21:08:57.65	37.44	7.60	-53.2	-55.9	13.8	0.00e+00	0	22	0	153092096	72	4932
2026-01-11 21:08:58.51	37.57	7.63	-53.2	-55.9	13.7	0.00e+00	0	23	0	155189248	72	4979
2026-01-11 21:08:59.66	37.74	7.66	-53.2	-55.9	13.7	0.00e+00	0	23	0	157286400	72	4969
2026-01-11 21:09:00.53	37.87	7.69	-53.2	-55.9	13.7	0.00e+00	0	23	0	158334976	72	4981
2026-01-11 21:09:01.68	38.05	7.73	-53.1	-55.8	13.8	0.00e+00	0	23	0	160432128	72	4892
2026-01-11 21:09:02.54	38.18	7.76	-53.2	-55.9	13.7	0.00e+00	0	23	0	162529280	72	4973
2026-01-11 21:09:03.69	38.35	7.79	-53.2	-55.9	13.8	0.00e+00	0	23	0	164626432	72	4956
2026-01-11 21:09:04.56	38.49	7.82	-53.3	-56.1	13.6	0.00e+00	0	23	0	166723584	72	5078
2026-01-11 21:09:05.71	38.66	7.85	-53.3	-56.0	13.7	0.00e+00	0	23	0	168820736	72	5006
2026-01-11 21:09:06.57	38.79	7.88	-53.3	-56.1	13.6	0.00e+00	0	22	0	169869312	72	5044
2026-01-11 21:09:07.73	38.97	7.92	-53.4	-56.3	13.5	0.00e+00	0	23	0	171966464	72	5176
2026-01-11 21:09:08.59	39.10	7.94	-53.5	-56.4	13.4	0.00e+00	0	22	0	174063616	72	5235
2026-01-11 21:09:09.74	39.28	7.98	-53.6	-56.5	13.3	0.00e+00	0	23	0	176160768	72	5298
2026-01-11 21:09:10.60	39.41	8.00	-53.6	-56.5	13.3	0.00e+00	0	23	0	177209344	72	5340
2026-01-11 21:09:11.76	39.59	8.04	-53.3	-56.1	13.5	0.00e+00	0	23	0	180355072	72	5089
2026-01-11 21:09:12.62	39.73	8.07	-53.2	-55.9	13.8	0.00e+00	0	23	0	181403648	72	4959
2026-01-11 21:09:13.78	39.91	8.10	-53.1	-55.7	13.9	0.00e+00	0	23	0	183500800	72	4841
2026-01-11 21:09:14.63	40.04	8.13	-53.0	-55.6	13.9	0.00e+00	0	23	0	185597952	72	4807
2026-01-11 21:09:15.79	40.22	8.16	-52.9	-55.4	14.1	0.00e+00	0	23	0	187695104	72	4672
2026-01-11 21:09:16.65	40.35	8.19	-52.9	-55.4	14.1	0.00e+00	0	23	0	188743680	72	4662
2026-01-11 21:09:17.81	40.53	8.22	-52.9	-55.4	14.1	0.00e+00	0	23	0	190840832	72	4684
2026-01-11 21:09:18.67	40.67	8.25	-53.0	-55.6	13.9	0.00e+00	0	23	0	192937984	72	4799
2026-01-11 21:09:19.82	40.85	8.28	-53.3	-56.0	13.7	0.00e+00	0	23	0	195035136	72	5022
2026-01-11 21:09:20.69	40.99	8.30	-53.3	-56.0	13.7	0.00e+00	0	23	0	196083712	72	5007
2026-01-11 21:09:21.84	41.17	8.34	-53.5	-56.3	13.5	0.00e+00	0	23	0	198180864	72	5196
2026-01-11 21:09:22.70	41.30	8.36	-53.4	-56.2	13.6	0.00e+00	0	23	0	200278016	72	5121
2026-01-11 21:09:23.85	41.49	8.39	-53.4	-56.2	13.5	0.00e+00	0	23	0	202375168	72	5158
2026-01-11 21:09:24.71	41.62	8.42	-53.5	-56.3	13.5	0.00e+00	0	23	0	204472320	72	5181
2026-01-11 21:09:25.86	41.81	8.45	-53.4	-56.1	13.6	0.00e+00	0	23	0	206569472	72	5095
2026-01-11 21:09:26.73	41.94	8.48	-53.5	-56.3	13.5	0.00e+00	0	23	0	207618048	72	5171
2026-01-11 21:09:27.88	42.13	8.51	-53.4	-56.2	13.5	0.00e+00	0	23	0	209715200	72	5142
2026-01-11 21:09:28.74	42.26	8.53	-53.4	-56.2	13.5	0.00e+00	0	23	0	211812352	72	5128
2026-01-11 21:09:29.89	42.45	8.56	-53.4	-56.2	13.5	0.00e+00	0	23	0	213909504	72	5105
2026-01-11 21:09:30.76	42.59	8.59	-53.4	-56.2	13.5	0.00e+00	0	23	0	214958080	72	5156
2026-01-11 21:09:31.91	42.77	8.62	-53.5	-56.3	13.5	0.00e+00	0	23	0	218103808	72	5180
2026-01-11 21:09:32.78	42.91	8.64	-53.3	-56.0	13.7	0.00e+00	0	23	0	219152384	72	5018
2026-01-11 21:09:33.93	43.10	8.67	-53.1	-55.8	13.8	0.00e+00	0	23	0	221249536	72	4884
2026-01-11 21:09:34.79	43.24	8.70	-53.1	-55.7	13.9	0.00e+00	0	23	0	223346688	72	4815
2026-01-11 21:09:35.94	43.42	8.73	-53.1	-55.7	13.9	0.00e+00	0	23	0	225443840	72	4843
2026-01-11 21:09:36.80	43.56	8.75	-52.8	-55.3	14.1	0.00e+00	0	23	0	226492416	72	4628
2026-01-11 21:09:37.95	43.75	8.78	-52.8	-55.3	14.2	0.00e+00	0	23	0	228589568	72	4615
2026-01-11 21:09:38.82	43.89	8.80	-52.8	-55.3	14.2	0.00e+00	0	23	0	230686720	72	4605
2026-01-11 21:09:39.97	44.08	8.83	-52.8	-55.2	14.2	0.00e+00	0	23	0	232783872	72	4584
2026-01-11 21:09:40.83	44.22	8.85	-52.9	-55.4	14.1	0.00e+00	0	23	0	233832448	72	4676
2026-01-11 21:09:41.99	44.41	8.88	-53.1	-55.7	13.9	0.00e+00	0	23	0	236978176	72	4856
2026-01-11 21:09:42.85	44.55	8.91	-53.3	-55.9	13.8	0.00e+00	0	23	0	238026752	72	4974
2026-01-11 21:09:44.00	44.74	8.93	-53.4	-56.3	13.6	0.00e+00	0	23	0	240123904	72	5164
2026-01-11 21:09:44.86	44.88	8.96	-53.7	-56.7	13.2	0.00e+00	0	23	0	242221056	72	5426
2026-01-11 21:09:46.02	45.07	8.99	-54.0	-57.1	13.1	0.00e+00	0	23	0	244318208	73	5374
2026-01-11 21:09:46.89	45.22	9.01	-53.9	-57.1	13.1	0.00e+00	0	23	0	245366784	73	5343
2026-01-11 21:09:48.04	45.41	9.03	-54.0	-57.1	13.1	7.00e-07	0	23	0	247463936	73	5388
2026-01-11 21:09:48.90	45.55	9.06	-54.0	-57.1	13.1	7.00e-07	0	23	0	249561088	73	5363
2026-01-11 21:09:50.05	45.74	9.08	-53.8	-56.8	13.2	0.00e+00	0	22	0	251658240	73	5213
2026-01-11 21:09:50.92	45.88	9.10	-53.7	-56.7	13.4	0.00e+00	0	23	0	253755392	73	5105
2026-01-11 21:09:52.08	46.08	9.13	-53.5	-56.3	13.6	0.00e+00	0	23	0	255852544	73	4872
2026-01-11 21:09:52.94	46.22	9.15	-53.4	-56.1	13.8	0.00e+00	0	23	0	256901120	73	4764
2026-01-11 21:09:54.09	46.41	9.18	-53.2	-55.8	13.9	0.00e+00	0	23	0	258998272	72	4895
2026-01-11 21:09:54.96	46.56	9.20	-53.1	-55.7	13.9	0.00e+00	0	23	0	261095424	72	4847
2026-01-11 21:09:56.11	46.75	9.23	-53.1	-55.8	13.9	0.00e+00	0	23	0	263192576	72	4873
2026-01-11 21:09:56.98	46.89	9.25	-53.2	-55.9	13.8	0.00e+00	0	23	0	264241152	72	4933
2026-01-11 21:09:58.13	47.09	9.27	-53.3	-56.0	13.8	0.00e+00	0	23	0	266338304	72	4985
2026-01-11 21:09:58.99	47.23	9.29	-53.2	-55.8	13.8	0.00e+00	0	23	0	268435456	72	4908
2026-01-11 21:10:00.14	47.43	9.32	-53.0	-55.6	14.0	0.00e+00	0	23	0	270532608	72	4781
2026-01-11 21:10:01.00	47.57	9.34	-53.0	-55.5	14.0	0.00e+00	0	23	0	272629760	72	4750
2026-01-11 21:10:02.15	47.77	9.36	-52.8	-55.3	14.2	0.00e+00	0	23	0	274726912	72	4612
2026-01-11 21:10:03.02	47.91	9.38	-52.7	-55.1	14.3	0.00e+00	0	23	0	275775488	72	4528
2026-01-11 21:10:04.17	48.11	9.40	-52.8	-55.2	14.3	0.00e+00	0	23	0	277872640	72	4548
2026-01-11 21:10:05.03	48.25	9.42	-52.7	-55.1	14.2	0.00e+00	0	23	0	279969792	71	4764
2026-01-11 21:10:06.18	48.45	9.45	-52.8	-55.2	14.1	0.00e+00	0	23	0	282066944	71	4859
2026-01-11 21:10:07.05	48.60	9.46	-53.0	-55.5	13.9	0.00e+00	0	23	0	283115520	71	4994
2026-01-11 21:10:08.20	48.79	9.49	-53.2	-55.8	13.7	0.00e+00	0	23	0	285212672	71	5209
2026-01-11 21:10:09.07	48.94	9.51	-53.2	-55.9	13.6	0.00e+00	0	23	0	287309824	71	5279
2026-01-11 21:10:10.22	49.14	9.53	-53.4	-56.2	13.5	0.00e+00	0	23	0	289406976	71	5406
2026-01-11 21:10:11.08	49.28	9.55	-53.3	-56.1	13.6	0.00e+00	0	23	0	291504128	72	5050
2026-01-11 21:10:12.24	49.48	9.57	-53.2	-55.8	13.9	0.00e+00	0	23	0	293601280	72	4916
2026-01-11 21:10:13.10	49.63	9.59	-53.0	-55.6	14.0	0.00e+00	0	23	0	294649856	72	4769
2026-01-11 21:10:14.25	49.83	9.61	-52.8	-55.2	14.3	0.00e+00	0	23	0	296747008	72	4577
2026-01-11 21:10:15.11	49.98	9.63	-52.8	-55.3	14.2	0.00e+00	0	23	0	298844160	72	4605
2026-01-11 21:10:16.26	50.17	9.65	-52.9	-55.3	14.2	0.00e+00	0	23	0	300941312	72	4642
2026-01-11 21:10:17.12	50.32	9.66	-53.0	-55.5	14.1	0.00e+00	0	23	0	301989888	72	4741
2026-01-11 21:10:18.28	50.52	9.68	-53.1	-55.7	13.9	0.00e+00	0	23	0	304087040	72	4867
2026-01-11 21:10:19.14	50.67	9.70	-53.4	-56.1	13.6	0.00e+00	0	23	0	306184192	72	5081
2026-01-11 21:10:20.29	50.87	9.72	-53.5	-56.4	13.5	0.00e+00	0	23	0	308281344	72	5221
2026-01-11 21:10:21.16	51.02	9.74	-53.3	-56.0	13.7	0.00e+00	0	23	0	310378496	72	5036
2026-01-11 21:10:22.31	51.22	9.76	-53.1	-55.7	13.9	0.00e+00	0	23	0	312475648	72	4836
2026-01-11 21:10:23.18	51.37	9.77	-53.0	-55.5	14.0	0.00e+00	0	23	0	313524224	72	4754
2026-01-11 21:10:24.33	51.57	9.79	-52.9	-55.3	14.2	0.00e+00	0	23	0	315621376	72	4619
2026-01-11 21:10:25.19	51.72	9.81	-52.7	-55.1	14.3	0.00e+00	0	23	0	317718528	72	4523
2026-01-11 21:10:26.34	51.92	9.83	-52.7	-55.0	14.2	0.00e+00	0	23	0	319815680	71	4739
2026-01-11 21:10:27.21	52.07	9.84	-52.8	-55.2	14.1	0.00e+00	0	23	0	320864256	71	4822
2026-01-11 21:10:28.36	52.27	9.86	-52.8	-55.3	14.0	0.00e+00	0	23	0	322961408	71	4894
2026-01-11 21:10:29.22	52.42	9.87	-53.0	-55.5	13.9	0.00e+00	0	23	0	325058560	71	5029
2026-01-11 21:10:30.37	52.63	9.89	-53.1	-55.8	13.7	0.00e+00	0	23	0	327155712	71	5179
2026-01-11 21:10:31.24	52.78	9.91	-53.2	-55.9	13.7	0.00e+00	0	23	0	329252864	71	5221
2026-01-11 21:10:32.39	52.98	9.92	-53.2	-55.8	13.7	0.00e+00	0	23	0	331350016	71	5183
2026-01-11 21:10:33.26	53.13	9.94	-53.2	-55.9	13.6	0.00e+00	0	23	0	332398592	71	5257
2026-01-11 21:10:34.41	53.34	9.95	-53.1	-55.7	13.8	0.00e+00	0	23	0	334495744	71	5150
2026-01-11 21:10:35.27	53.49	9.97	-53.3	-56.0	13.5	0.00e+00	0	23	0	336592896	71	5334
2026-01-11 21:10:36.43	53.69	9.98	-53.5	-56.3	13.5	0.00e+00	0	23	0	338690048	72	5202
2026-01-11 21:10:37.29	53.84	10.00	-53.6	-56.5	13.4	0.00e+00	0	23	0	339738624	72	5314
2026-01-11 21:10:38.44	54.05	10.01	-54.1	-57.4	12.9	0.00e+00	0	23	0	341835776	73	5531
2026-01-11 21:10:39.30	54.20	10.02	-54.5	-58.0	12.6	0.00e+00	0	23	0	343932928	74	5640
2026-01-11 21:10:40.45	54.40	10.04	-54.6	-58.2	12.5	7.00e-07	0	23	0	346030080	74	5737
2026-01-11 21:10:41.32	54.55	10.05	-54.7	-58.4	12.3	1.50e-06	0	23	0	348127232	74	5860
2026-01-11 21:10:42.47	54.76	10.07	-54.6	-58.3	12.3	1.50e-06	0	23	0	350224384	74	5798
2026-01-11 21:10:43.33	54.91	10.08	-54.5	-57.9	12.6	0.00e+00	0	23	0	351272960	74	5591
2026-01-11 21:10:44.49	55.12	10.09	-54.2	-57.5	13.0	0.00e+00	0	23	0	353370112	74	5292
2026-01-11 21:10:45.35	55.27	10.10	-54.2	-57.5	13.0	0.00e+00	0	23	0	355467264	74	5280
2026-01-11 21:10:46.50	55.47	10.12	-54.0	-57.1	13.2	0.00e+00	0	23	0	357564416	74	5044
2026-01-11 21:10:47.36	55.63	10.13	-54.0	-57.2	13.2	0.00e+00	0	23	0	358612992	74	5103
2026-01-11 21:10:48.51	55.83	10.14	-54.1	-57.2	13.2	0.00e+00	0	23	0	361758720	74	5151
2026-01-11 21:10:49.38	55.99	10.15	-54.1	-57.2	13.2	0.00e+00	0	23	0	362807296	74	5117
2026-01-11 21:10:50.53	56.19	10.16	-54.1	-57.3	13.1	0.00e+00	0	23	0	364904448	74	5195
2026-01-11 21:10:51.40	56.35	10.17	-54.0	-57.1	13.2	0.00e+00	0	23	0	367001600	74	5094
2026-01-11 21:10:52.55	56.55	10.19	-54.1	-57.2	13.2	0.00e+00	0	23	0	369098752	74	5137
2026-01-11 21:10:53.41	56.71	10.20	-53.9	-56.9	13.4	0.00e+00	0	23	0	370147328	74	4951
2026-01-11 21:10:54.57	56.91	10.21	-53.8	-56.7	13.5	0.00e+00	0	23	0	372244480	74	4867
2026-01-11 21:10:55.43	57.07	10.22	-53.6	-56.4	13.6	0.00e+00	0	23	0	374341632	73	4955
2026-01-11 21:10:56.58	57.27	10.23	-53.5	-56.2	13.7	0.00e+00	0	23	0	376438784	73	4854
2026-01-11 21:10:57.45	57.43	10.24	-53.6	-56.4	13.6	0.00e+00	0	23	0	378535936	73	4950
2026-01-11 21:10:58.60	57.64	10.25	-53.6	-56.5	13.5	0.00e+00	0	23	0	380633088	73	5008
2026-01-11 21:10:59.46	57.79	10.25	-53.7	-56.6	13.5	0.00e+00	0	23	0	381681664	73	5044
2026-01-11 21:11:00.60	57.99	10.26	-53.7	-56.5	13.5	0.00e+00	0	23	0	383778816	73	5026
2026-01-11 21:11:01.47	58.15	10.27	-53.7	-56.6	13.5	0.00e+00	0	23	0	385875968	73	5050
2026-01-11 21:11:02.62	58.36	10.28	-53.6	-56.3	13.6	0.00e+00	0	23	0	387973120	73	4924
2026-01-11 21:11:03.49	58.51	10.29	-53.5	-56.3	13.7	0.00e+00	0	23	0	389021696	73	4886
2026-01-11 21:11:04.64	58.72	10.30	-53.5	-56.3	13.7	0.00e+00	0	23	0	391118848	73	4882
2026-01-11 21:11:05.50	58.88	10.30	-53.3	-56.0	13.9	0.00e+00	0	23	0	393216000	73	4726
2026-01-11 21:11:06.66	59.08	10.31	-53.1	-55.6	14.0	0.00e+00	0	23	0	395313152	72	4775
2026-01-11 21:11:07.52	59.24	10.32	-52.9	-55.4	14.1	0.00e+00	0	23	0	396361728	72	4680
2026-01-11 21:11:08.67	59.45	10.33	-53.1	-55.6	14.0	0.00e+00	0	23	0	399507456	72	4778
2026-01-11 21:11:09.54	59.60	10.33	-53.1	-55.6	14.0	0.00e+00	0	23	0	400556032	72	4797
2026-01-11 21:11:10.69	59.81	10.34	-53.1	-55.6	14.0	0.00e+00	0	23	0	402653184	72	4795
2026-01-11 21:11:11.56	59.97	10.35	-53.1	-55.6	14.0	0.00e+00	0	23	0	404750336	72	4808
2026-01-11 21:11:12.71	60.18	10.35	-53.1	-55.6	14.0	0.00e+00	0	23	0	406847488	72	4813
2026-01-11 21:11:13.57	60.33	10.36	-53.0	-55.5	14.0	0.00e+00	0	23	0	407896064	72	4732
2026-01-11 21:11:14.73	60.54	10.36	-52.9	-55.4	14.2	0.00e+00	0	23	0	409993216	72	4663
2026-01-11 21:11:15.59	60.70	10.37	-52.9	-55.4	14.1	0.00e+00	0	23	0	412090368	72	4654
2026-01-11 21:11:16.74	60.90	10.37	-52.9	-55.3	14.2	0.00e+00	0	23	0	414187520	72	4619
2026-01-11 21:11:17.61	61.06	10.38	-52.9	-55.4	14.1	0.00e+00	0	23	0	416284672	72	4663
2026-01-11 21:11:18.76	61.27	10.38	-52.9	-55.3	14.2	0.00e+00	0	23	0	418381824	72	4632
2026-01-11 21:11:19.62	61.43	10.39	-53.1	-55.6	14.0	0.00e+00	0	23	0	419430400	72	4804
2026-01-11 21:11:20.77	61.63	10.39	-53.1	-55.7	13.9	0.00e+00	0	23	0	421527552	72	4850
2026-01-11 21:11:21.63	61.79	10.39	-53.1	-55.6	14.0	0.00e+00	0	23	0	423624704	72	4809
2026-01-11 21:11:22.79	62.00	10.40	-53.0	-55.6	14.0	0.00e+00	0	23	0	425721856	72	4762
2026-01-11 21:11:23.65	62.16	10.40	-53.0	-55.5	14.1	0.00e+00	0	23	0	426770432	72	4721
2026-01-11 21:11:24.80	62.36	10.40	-52.9	-55.4	14.1	0.00e+00	0	23	0	428867584	72	4662
2026-01-11 21:11:25.67	62.52	10.41	-52.6	-55.0	14.2	0.00e+00	0	23	0	430964736	71	4714
2026-01-11 21:11:26.82	62.73	10.41	-52.5	-54.8	14.3	0.00e+00	0	23	0	433061888	71	4647
2026-01-11 21:11:27.69	62.89	10.41	-52.4	-54.7	14.5	0.00e+00	0	23	0	435159040	71	4562
2026-01-11 21:11:28.84	63.10	10.41	-52.4	-54.7	14.4	0.00e+00	0	23	0	437256192	71	4583
2026-01-11 21:11:29.71	63.26	10.41	-52.4	-54.7	14.4	0.00e+00	0	23	0	438304768	71	4576
2026-01-11 21:11:30.86	63.46	10.42	-52.5	-54.8	14.3	0.00e+00	0	23	0	440401920	71	4647
2026-01-11 21:11:31.72	63.62	10.42	-52.5	-54.8	14.4	0.00e+00	0	23	0	442499072	71	4620
2026-01-11 21:11:32.88	63.83	10.42	-52.3	-54.6	14.5	0.00e+00	0	23	0	444596224	71	4509
2026-01-11 21:11:33.74	63.99	10.42	-52.3	-54.6	14.5	0.00e+00	0	23	0	445644800	71	4504
2026-01-11 21:11:34.89	64.20	10.42	-52.1	-54.3	14.5	0.00e+00	0	23	0	447741952	70	4630
2026-01-11 21:11:35.76	64.35	10.42	-52.2	-54.3	14.5	0.00e+00	0	23	0	449839104	70	4637
2026-01-11 21:11:36.91	64.56	10.42	-52.1	-54.2	14.6	0.00e+00	0	23	0	451936256	70	4568
2026-01-11 21:11:37.78	64.72	10.42	-52.2	-54.4	14.4	0.00e+00	0	23	0	454033408	70	4704
2026-01-11 21:11:38.92	64.93	10.42	-52.1	-54.2	14.5	0.00e+00	0	23	0	456130560	70	4584
2026-01-11 21:11:39.78	65.08	10.42	-52.3	-54.5	14.4	0.00e+00	0	23	0	457179136	70	4732
2026-01-11 21:11:40.93	65.29	10.41	-52.4	-54.7	14.2	0.00e+00	0	23	0	459276288	70	4867
2026-01-11 21:11:41.79	65.45	10.41	-52.5	-54.8	14.2	0.00e+00	0	23	0	461373440	70	4898
2026-01-11 21:11:42.95	65.66	10.41	-52.6	-54.9	14.1	0.00e+00	0	23	0	463470592	70	4960
2026-01-11 21:11:43.81	65.81	10.41	-52.4	-54.7	14.2	0.00e+00	0	23	0	464519168	70	4825
2026-01-11 21:11:44.96	66.02	10.41	-52.5	-54.8	14.2	0.00e+00	0	23	0	466616320	70	4879
2026-01-11 21:11:45.82	66.18	10.40	-52.4	-54.7	14.3	0.00e+00	0	23	0	468713472	70	4827
2026-01-11 21:11:46.97	66.39	10.40	-52.3	-54.6	14.3	0.00e+00	0	23	0	470810624	70	4780
2026-01-11 21:11:47.84	66.55	10.40	-52.2	-54.4	14.4	0.00e+00	0	23	0	472907776	70	4704
2026-01-11 21:11:48.99	66.75	10.40	-52.3	-54.5	14.4	0.00e+00	0	23	0	475004928	70	4728
2026-01-11 21:11:49.85	66.91	10.39	-52.3	-54.5	14.4	0.00e+00	0	23	0	476053504	70	4721
2026-01-11 21:11:51.00	67.12	10.39	-52.3	-54.6	14.3	0.00e+00	0	23	0	478150656	70	4765
2026-01-11 21:11:51.86	67.27	10.38	-52.4	-54.6	14.3	0.00e+00	0	23	0	480247808	70	4811
2026-01-11 21:11:53.01	67.48	10.38	-52.3	-54.6	14.3	0.00e+00	0	23	0	482344960	70	4788
2026-01-11 21:11:53.88	67.64	10.38	-52.5	-54.8	14.2	0.00e+00	0	23	0	483393536	70	4910
2026-01-11 21:11:55.03	67.85	10.37	-52.3	-54.6	14.3	0.00e+00	0	23	0	485490688	70	4765
2026-01-11 21:11:55.90	68.01	10.37	-52.3	-54.5	14.3	0.00e+00	0	23	0	487587840	70	4744
2026-01-11 21:11:57.05	68.21	10.36	-52.1	-54.3	14.5	0.00e+00	0	23	0	489684992	70	4609
2026-01-11 21:11:57.92	68.37	10.36	-52.2	-54.4	14.5	0.00e+00	0	23	0	491782144	70	4654
2026-01-11 21:11:59.07	68.58	10.35	-52.0	-54.1	14.6	0.00e+00	0	23	0	493879296	70	4511
2026-01-11 21:11:59.93	68.73	10.34	-52.1	-54.3	14.5	0.00e+00	0	23	0	494927872	70	4622
2026-01-11 21:12:01.08	68.94	10.34	-52.0	-54.2	14.6	0.00e+00	0	23	0	497025024	70	4563
2026-01-11 21:12:01.94	69.10	10.33	-52.0	-54.1	14.6	0.00e+00	0	23	0	499122176	70	4526
2026-01-11 21:12:03.10	69.31	10.32	-52.1	-54.3	14.5	0.00e+00	0	23	0	501219328	70	4599
2026-01-11 21:12:03.96	69.46	10.32	-52.0	-54.1	14.6	0.00e+00	0	23	0	502267904	70	4508
2026-01-11 21:12:05.12	69.67	10.31	-51.9	-53.9	14.7	0.00e+00	0	23	0	504365056	70	4441
2026-01-11 21:12:05.98	69.83	10.30	-51.9	-54.0	14.6	0.00e+00	0	23	0	506462208	70	4483
2026-01-11 21:12:07.13	70.03	10.29	-51.7	-53.7	14.8	0.00e+00	0	23	0	508559360	70	4304
2026-01-11 21:12:08.00	70.19	10.29	-51.5	-53.4	14.8	0.00e+00	0	23	0	510656512	69	4433
2026-01-11 21:12:09.15	70.40	10.28	-51.3	-53.2	14.9	0.00e+00	0	23	0	512753664	69	4301
2026-01-11 21:12:10.01	70.55	10.27	-51.3	-53.1	15.0	0.00e+00	0	23	0	513802240	69	4289
2026-01-11 21:12:11.16	70.76	10.26	-51.3	-53.2	15.0	0.00e+00	0	23	0	515899392	69	4292
2026-01-11 21:12:12.03	70.91	10.25	-51.4	-53.3	14.9	0.00e+00	0	23	0	517996544	69	4352
2026-01-11 21:12:13.18	71.12	10.24	-51.5	-53.4	14.8	0.00e+00	0	23	0	520093696	69	4425
2026-01-11 21:12:14.05	71.28	10.23	-51.6	-53.6	14.7	0.00e+00	0	23	0	521142272	69	4533
2026-01-11 21:12:15.20	71.48	10.22	-51.9	-54.0	14.5	0.00e+00	0	23	0	524288000	69	4723
2026-01-11 21:12:16.06	71.64	10.21	-52.0	-54.1	14.4	0.00e+00	0	23	0	525336576	69	4793
2026-01-11 21:12:17.21	71.84	10.20	-51.8	-53.9	14.5	0.00e+00	0	23	0	527433728	69	4686
2026-01-11 21:12:18.07	72.00	10.19	-51.7	-53.8	14.6	0.00e+00	0	23	0	529530880	69	4605
2026-01-11 21:12:19.22	72.20	10.18	-51.6	-53.6	14.7	0.00e+00	0	23	0	531628032	69	4515
2026-01-11 21:12:20.09	72.36	10.17	-51.7	-53.7	14.7	0.00e+00	0	23	0	532676608	69	4559
2026-01-11 21:12:21.24	72.56	10.16	-51.7	-53.8	14.6	0.00e+00	0	23	0	534773760	69	4631
2026-01-11 21:12:22.11	72.72	10.15	-51.8	-53.8	14.6	0.00e+00	0	23	0	536870912	69	4646
2026-01-11 21:12:23.26	72.92	10.13	-51.9	-54.0	14.5	0.00e+00	0	23	0	538968064	69	4723
2026-01-11 21:12:24.12	73.08	10.12	-51.9	-54.0	14.5	0.00e+00	0	23	0	540016640	69	4712
2026-01-11 21:12:25.28	73.28	10.11	-51.8	-54.0	14.5	0.00e+00	0	23	0	543162368	69	4706
2026-01-11 21:12:26.14	73.44	10.10	-51.9	-54.0	14.5	0.00e+00	0	23	0	544210944	69	4717
2026-01-11 21:12:27.29	73.64	10.09	-51.7	-53.8	14.6	0.00e+00	0	23	0	546308096	69	4614
2026-01-11 21:12:28.16	73.80	10.07	-51.8	-53.9	14.6	0.00e+00	0	23	0	548405248	69	4671
2026-01-11 21:12:29.31	74.00	10.06	-51.7	-53.8	14.5	0.00e+00	0	23	0	550502400	69	4632
2026-01-11 21:12:30.18	74.15	10.05	-51.7	-53.8	14.6	0.00e+00	0	23	0	551550976	69	4615
2026-01-11 21:12:31.33	74.36	10.03	-51.9	-54.0	14.5	0.00e+00	0	23	0	553648128	69	4732
2026-01-11 21:12:32.18	74.51	10.02	-51.8	-53.9	14.6	0.00e+00	0	23	0	555745280	69	4655
2026-01-11 21:12:33.33	74.71	10.00	-51.9	-54.0	14.4	0.00e+00	0	23	0	557842432	69	4709
2026-01-11 21:12:34.20	74.87	9.99	-51.9	-54.0	14.5	0.00e+00	0	23	0	559939584	69	4720
2026-01-11 21:12:35.35	75.07	9.98	-52.1	-54.3	14.4	0.00e+00	0	23	0	562036736	69	4885
2026-01-11 21:12:36.21	75.22	9.96	-52.1	-54.2	14.4	0.00e+00	0	23	0	563085312	69	4861
2026-01-11 21:12:37.36	75.42	9.95	-52.2	-54.4	14.2	0.00e+00	0	23	0	565182464	69	4964
2026-01-11 21:12:38.22	75.57	9.93	-52.2	-54.5	14.2	0.00e+00	0	23	0	567279616	69	4997
2026-01-11 21:12:39.37	75.78	9.91	-52.5	-54.9	14.2	0.00e+00	0	23	0	569376768	70	4951
2026-01-11 21:12:40.23	75.93	9.90	-52.6	-55.0	14.1	0.00e+00	0	23	0	570425344	70	5011
2026-01-11 21:12:41.38	76.13	9.88	-52.6	-55.0	14.1	0.00e+00	0	23	0	572522496	70	5002
2026-01-11 21:12:42.24	76.28	9.87	-52.3	-54.6	14.3	0.00e+00	0	23	0	574619648	70	4788
2026-01-11 21:12:43.40	76.48	9.85	-52.2	-54.5	14.4	0.00e+00	0	23	0	576716800	70	4721
2026-01-11 21:12:44.26	76.63	9.84	-52.0	-54.1	14.6	0.00e+00	0	23	0	577765376	70	4515
2026-01-11 21:12:45.41	76.83	9.82	-51.9	-54.0	14.6	0.00e+00	0	23	0	580911104	70	4490
2026-01-11 21:12:46.28	76.99	9.80	-51.8	-53.8	14.7	0.00e+00	0	23	0	581959680	70	4375
2026-01-11 21:12:47.43	77.19	9.78	-51.7	-53.7	14.7	0.00e+00	0	23	0	584056832	69	4581
2026-01-11 21:12:48.29	77.34	9.77	-51.5	-53.4	14.8	0.00e+00	0	23	0	586153984	69	4440
2026-01-11 21:12:49.45	77.54	9.75	-51.4	-53.3	14.9	0.00e+00	0	23	0	588251136	69	4364
2026-01-11 21:12:50.31	77.69	9.73	-51.4	-53.4	14.8	0.00e+00	0	23	0	589299712	69	4399
2026-01-11 21:12:51.46	77.89	9.71	-51.1	-52.9	14.9	0.00e+00	0	23	0	591396864	68	4425
2026-01-11 21:12:52.33	78.04	9.70	-51.2	-53.1	14.8	0.00e+00	0	23	0	593494016	68	4514
2026-01-11 21:12:53.48	78.24	9.67	-51.1	-53.0	14.8	0.00e+00	0	23	0	595591168	68	4465
2026-01-11 21:12:54.35	78.39	9.66	-50.8	-52.6	15.1	0.00e+00	0	23	0	597688320	68	4272
2026-01-11 21:12:55.50	78.59	9.64	-50.8	-52.6	15.1	0.00e+00	0	23	0	599785472	68	4276
2026-01-11 21:12:56.36	78.73	9.62	-50.8	-52.5	15.1	0.00e+00	0	23	0	600834048	68	4241
2026-01-11 21:12:57.52	78.93	9.60	-50.9	-52.8	15.0	0.00e+00	0	23	0	602931200	68	4348
2026-01-11 21:12:58.38	79.08	9.58	-51.2	-53.1	14.8	0.00e+00	0	23	0	605028352	68	4515
2026-01-11 21:12:59.53	79.28	9.56	-51.3	-53.3	14.7	0.00e+00	0	23	0	607125504	68	4604
2026-01-11 21:13:00.40	79.43	9.54	-51.4	-53.4	14.7	0.00e+00	0	23	0	608174080	68	4660
2026-01-11 21:13:01.55	79.63	9.52	-51.5	-53.5	14.6	0.00e+00	0	23	0	610271232	68	4759
2026-01-11 21:13:02.41	79.77	9.50	-51.5	-53.6	14.5	0.00e+00	0	23	0	612368384	68	4779
2026-01-11 21:13:03.56	79.97	9.48	-51.5	-53.5	14.6	0.00e+00	0	23	0	614465536	68	4720
2026-01-11 21:13:04.43	80.12	9.46	-51.3	-53.3	14.7	0.00e+00	0	23	0	616562688	68	4615
2026-01-11 21:13:05.57	80.31	9.43	-51.2	-53.2	14.8	0.00e+00	0	23	0	618659840	68	4548
2026-01-11 21:13:06.44	80.46	9.42	-51.5	-53.5	14.6	0.00e+00	0	23	0	619708416	68	4714
2026-01-11 21:13:07.59	80.66	9.39	-51.4	-53.4	14.6	0.00e+00	0	23	0	621805568	68	4695
2026-01-11 21:13:08.45	80.80	9.37	-51.3	-53.3	14.7	0.00e+00	0	23	0	623902720	68	4632
2026-01-11 21:13:09.61	81.00	9.35	-51.3	-53.3	14.7	0.00e+00	0	23	0	625999872	68	4627
2026-01-11 21:13:10.47	81.14	9.33	-51.5	-53.5	14.6	0.00e+00	0	23	0	627048448	68	4721
2026-01-11 21:13:11.62	81.34	9.30	-51.4	-53.4	14.6	0.00e+00	0	23	0	629145600	68	4691
2026-01-11 21:13:12.49	81.48	9.28	-51.4	-53.5	14.6	0.00e+00	0	23	0	631242752	68	4710
2026-01-11 21:13:13.64	81.68	9.26	-51.6	-53.6	14.6	0.00e+00	0	23	0	633339904	68	4778
2026-01-11 21:13:14.51	81.82	9.24	-51.6	-53.6	14.5	0.00e+00	0	23	0	635437056	68	4782
2026-01-11 21:13:15.66	82.02	9.21	-51.6	-53.6	14.5	0.00e+00	0	23	0	637534208	68	4803
2026-01-11 21:13:16.52	82.16	9.19	-51.5	-53.6	14.6	0.00e+00	0	23	0	638582784	68	4775
2026-01-11 21:13:17.67	82.35	9.16	-51.5	-53.5	14.6	0.00e+00	0	23	0	640679936	68	4732
2026-01-11 21:13:18.54	82.50	9.14	-51.2	-53.2	14.7	0.00e+00	0	23	0	642777088	68	4569
2026-01-11 21:13:19.69	82.69	9.12	-50.9	-52.7	15.0	0.00e+00	0	23	0	644874240	68	4340
2026-01-11 21:13:20.54	82.83	9.10	-50.8	-52.6	15.1	0.00e+00	0	23	0	645922816	68	4253
2026-01-11 21:13:21.70	83.03	9.07	-50.9	-52.8	15.0	0.00e+00	0	23	0	648019968	68	4348
2026-01-11 21:13:22.56	83.17	9.05	-50.8	-52.6	15.1	0.00e+00	0	23	0	650117120	68	4274
2026-01-11 21:13:23.71	83.36	9.02	-51.0	-52.8	14.9	0.00e+00	0	23	0	652214272	68	4379
2026-01-11 21:13:24.58	83.50	9.00	-51.1	-53.0	14.9	0.00e+00	0	23	0	654311424	68	4462
2026-01-11 21:13:25.73	83.69	8.97	-51.2	-53.1	14.8	0.00e+00	0	23	0	656408576	68	4532
2026-01-11 21:13:26.60	83.84	8.95	-51.4	-53.4	14.6	0.00e+00	0	23	0	657457152	68	4693
2026-01-11 21:13:27.75	84.03	8.92	-51.4	-53.4	14.6	0.00e+00	0	23	0	659554304	68	4690
2026-01-11 21:13:28.61	84.17	8.90	-51.5	-53.5	14.6	0.00e+00	0	23	0	661651456	68	4746
2026-01-11 21:13:29.76	84.36	8.87	-51.3	-53.3	14.7	0.00e+00	0	23	0	663748608	68	4623
2026-01-11 21:13:30.63	84.50	8.84	-51.4	-53.3	14.7	0.00e+00	0	23	0	664797184	68	4651
2026-01-11 21:13:31.78	84.69	8.81	-51.4	-53.4	14.7	0.00e+00	0	23	0	666894336	68	4673
2026-01-11 21:13:32.64	84.83	8.79	-51.4	-53.3	14.7	0.00e+00	0	23	0	668991488	68	4649
2026-01-11 21:13:33.80	85.02	8.76	-51.4	-53.4	14.6	0.00e+00	0	23	0	671088640	68	4703
2026-01-11 21:13:34.66	85.16	8.74	-51.5	-53.6	14.5	0.00e+00	0	23	0	673185792	68	4777
2026-01-11 21:13:35.81	85.34	8.71	-51.5	-53.6	14.5	0.00e+00	0	23	0	675282944	68	4795
2026-01-11 21:13:36.68	85.49	8.69	-51.7	-53.8	14.5	0.00e+00	0	23	0	676331520	68	4871
2026-01-11 21:13:37.83	85.67	8.65	-52.0	-54.2	14.3	0.00e+00	0	23	0	678428672	69	4832
2026-01-11 21:13:38.69	85.81	8.63	-52.2	-54.4	14.2	0.00e+00	0	23	0	680525824	69	4981
2026-01-11 21:13:39.84	86.00	8.60	-52.4	-54.8	14.0	0.00e+00	0	23	0	682622976	69	5183
2026-01-11 21:13:40.70	86.14	8.58	-52.6	-55.0	14.0	0.00e+00	0	23	0	683671552	70	5025
2026-01-11 21:13:41.85	86.32	8.54	-52.6	-55.1	13.9	0.00e+00	0	23	0	685768704	70	5044
2026-01-11 21:13:42.72	86.46	8.52	-52.7	-55.2	13.9	0.00e+00	0	23	0	687865856	70	5121
2026-01-11 21:13:43.87	86.64	8.49	-52.9	-55.5	13.7	0.00e+00	0	23	0	689963008	70	5309
2026-01-11 21:13:44.73	86.78	8.46	-52.9	-55.5	13.8	0.00e+00	0	23	0	692060160	71	5031
2026-01-11 21:13:45.89	86.97	8.43	-52.8	-55.3	14.0	0.00e+00	0	23	0	694157312	71	4906
2026-01-11 21:13:46.75	87.10	8.41	-52.8	-55.3	14.0	0.00e+00	0	23	0	695205888	71	4886
2026-01-11 21:13:47.91	87.29	8.37	-52.7	-55.2	14.0	0.00e+00	0	23	0	697303040	71	4855
2026-01-11 21:13:48.77	87.42	8.35	-52.7	-55.2	14.0	0.00e+00	0	23	0	699400192	71	4850
2026-01-11 21:13:49.92	87.61	8.32	-52.9	-55.4	13.9	0.00e+00	0	23	0	701497344	71	4958
2026-01-11 21:13:50.78	87.74	8.29	-52.8	-55.3	13.9	0.00e+00	0	23	0	702545920	71	4898
2026-01-11 21:13:51.94	87.93	8.26	-52.8	-55.4	13.9	0.00e+00	0	23	0	704643072	71	4957
2026-01-11 21:13:52.80	88.06	8.23	-52.8	-55.3	14.0	0.00e+00	0	23	0	706740224	71	4905
2026-01-11 21:13:53.95	88.24	8.20	-52.8	-55.3	13.9	0.00e+00	0	23	0	708837376	71	4918
2026-01-11 21:13:54.82	88.38	8.17	-52.7	-55.2	14.0	0.00e+00	0	23	0	710934528	71	4863
2026-01-11 21:13:55.97	88.56	8.14	-52.8	-55.3	14.0	0.00e+00	0	23	0	713031680	71	4890
2026-01-11 21:13:56.83	88.69	8.11	-52.8	-55.3	13.9	0.00e+00	0	23	0	714080256	71	4917
2026-01-11 21:13:57.98	88.87	8.08	-52.9	-55.6	13.7	0.00e+00	0	23	0	716177408	71	5050
2026-01-11 21:13:58.84	89.01	8.05	-52.9	-55.5	13.8	0.00e+00	0	23	0	718274560	71	4989
2026-01-11 21:14:00.00	89.19	8.02	-53.0	-55.7	13.7	0.00e+00	0	23	0	720371712	71	5133
2026-01-11 21:14:00.86	89.32	7.99	-52.9	-55.6	13.8	0.00e+00	0	23	0	721420288	71	5052
2026-01-11 21:14:02.01	89.50	7.95	-53.2	-55.9	13.5	0.00e+00	0	23	0	724566016	71	5278
2026-01-11 21:14:02.87	89.63	7.93	-53.2	-56.1	13.4	0.00e+00	0	23	0	725614592	71	5367
2026-01-11 21:14:04.02	89.81	7.89	-53.3	-56.3	13.3	0.00e+00	0	23	0	727711744	71	5466
2026-01-11 21:14:04.89	89.94	7.86	-53.2	-56.0	13.5	0.00e+00	0	23	0	729808896	71	5314
2026-01-11 21:14:06.04	90.12	7.83	-53.1	-55.9	13.5	0.00e+00	0	23	0	731906048	71	5220
2026-01-11 21:14:06.91	90.25	7.80	-53.1	-55.8	13.6	0.00e+00	0	23	0	732954624	71	5186
2026-01-11 21:14:08.06	90.42	7.77	-53.3	-56.2	13.4	0.00e+00	0	23	0	735051776	71	5411
2026-01-11 21:14:08.93	90.56	7.74	-53.3	-56.1	13.4	0.00e+00	0	23	0	737148928	71	5383
2026-01-11 21:14:10.08	90.73	7.70	-53.6	-56.6	13.2	0.00e+00	0	23	0	739246080	72	5377
2026-01-11 21:14:10.94	90.86	7.67	-53.8	-57.0	12.8	0.00e+00	0	23	0	740294656	72	5651
2026-01-11 21:14:12.09	91.04	7.64	-53.9	-57.1	12.9	0.00e+00	0	23	0	742391808	73	5362
2026-01-11 21:14:12.95	91.17	7.61	-54.1	-57.5	12.7	0.00e+00	0	23	0	744488960	73	5633
2026-01-11 21:14:14.11	91.34	7.57	-54.3	-57.9	12.4	7.00e-07	0	23	0	746586112	73	5879
2026-01-11 21:14:14.97	91.47	7.54	-54.1	-57.5	12.6	0.00e+00	0	23	0	748683264	73	5654
2026-01-11 21:14:16.13	91.65	7.51	-54.1	-57.6	12.6	7.00e-07	0	23	0	750780416	73	5700
2026-01-11 21:14:16.99	91.77	7.48	-54.0	-57.3	12.8	7.00e-07	0	23	0	751828992	73	5472
2026-01-11 21:14:18.14	91.95	7.44	-53.9	-57.2	12.9	0.00e+00	0	23	0	753926144	73	5408
2026-01-11 21:14:19.00	92.07	7.41	-53.8	-57.0	13.0	0.00e+00	0	23	0	756023296	73	5297
2026-01-11 21:14:20.15	92.25	7.37	-53.7	-56.8	13.2	0.00e+00	0	23	0	758120448	73	5208
2026-01-11 21:14:21.01	92.37	7.35	-53.7	-56.8	13.2	0.00e+00	0	23	0	759169024	73	5201
2026-01-11 21:14:22.17	92.55	7.31	-53.7	-56.8	13.1	0.00e+00	0	23	0	762314752	73	5188
2026-01-11 21:14:23.03	92.67	7.28	-53.7	-56.8	13.1	7.00e-07	0	23	0	763363328	73	5190
2026-01-11 21:14:24.18	92.84	7.24	-53.6	-56.6	13.3	0.00e+00	0	23	0	765460480	73	5096
2026-01-11 21:14:25.05	92.97	7.21	-53.7	-56.8	13.1	0.00e+00	0	23	0	767557632	73	5175
2026-01-11 21:14:26.20	93.14	7.17	-53.6	-56.7	13.2	0.00e+00	0	23	0	769654784	73	5125
2026-01-11 21:14:27.07	93.27	7.14	-53.8	-57.0	13.0	0.00e+00	0	23	0	770703360	73	5283
2026-01-11 21:14:28.22	93.43	7.10	-53.8	-57.1	12.9	0.00e+00	0	23	0	772800512	73	5358
2026-01-11 21:14:29.08	93.56	7.07	-53.7	-56.9	13.0	0.00e+00	0	23	0	774897664	73	5273
2026-01-11 21:14:30.24	93.73	7.03	-53.9	-57.2	12.9	0.00e+00	0	23	0	776994816	73	5404
2026-01-11 21:14:31.10	93.85	7.00	-53.8	-57.0	12.9	0.00e+00	0	23	0	779091968	73	5332
2026-01-11 21:14:32.25	94.02	6.96	-53.7	-56.9	13.0	0.00e+00	0	23	0	781189120	73	5230
2026-01-11 21:14:33.12	94.15	6.93	-53.9	-57.2	12.8	0.00e+00	0	23	0	782237696	73	5432
2026-01-11 21:14:34.27	94.31	6.89	-54.0	-57.5	12.6	0.00e+00	0	23	0	784334848	73	5612
2026-01-11 21:14:35.13	94.44	6.87	-53.9	-57.3	12.7	0.00e+00	0	23	0	786432000	73	5490
2026-01-11 21:14:36.29	94.60	6.82	-54.0	-57.5	12.6	0.00e+00	0	23	0	788529152	73	5631
2026-01-11 21:14:37.15	94.73	6.79	-53.8	-57.0	13.0	0.00e+00	0	23	0	789577728	73	5333
2026-01-11 21:14:38.30	94.89	6.75	-53.8	-57.1	12.9	0.00e+00	0	23	0	791674880	73	5360
2026-01-11 21:14:39.16	95.01	6.72	-53.9	-57.3	12.8	0.00e+00	0	23	0	793772032	73	5468
2026-01-11 21:14:40.31	95.18	6.68	-53.6	-56.6	13.2	0.00e+00	0	23	0	795869184	73	5100
2026-01-11 21:14:41.17	95.30	6.65	-53.6	-56.7	13.2	0.00e+00	0	23	0	797966336	73	5144
2026-01-11 21:14:42.33	95.46	6.61	-53.6	-56.7	13.2	0.00e+00	0	23	0	800063488	73	5110
2026-01-11 21:14:43.19	95.58	6.58	-53.4	-56.4	13.4	0.00e+00	0	23	0	801112064	73	4950
2026-01-11 21:14:44.35	95.75	6.54	-53.5	-56.6	13.3	0.00e+00	0	23	0	803209216	73	5061
2026-01-11 21:14:45.21	95.87	6.51	-53.4	-56.5	13.4	0.00e+00	0	23	0	805306368	73	4985
2026-01-11 21:14:46.36	96.03	6.47	-53.5	-56.5	13.3	0.00e+00	0	23	0	807403520	73	5008
2026-01-11 21:14:47.22	96.15	6.44	-53.3	-56.2	13.5	0.00e+00	0	23	0	808452096	73	4823
2026-01-11 21:14:48.37	96.31	6.40	-53.3	-56.3	13.3	0.00e+00	0	23	0	810549248	72	5204
2026-01-11 21:14:49.24	96.43	6.36	-53.6	-56.7	13.0	0.00e+00	0	23	0	812646400	72	5438
2026-01-11 21:14:50.39	96.59	6.32	-53.4	-56.5	13.2	0.00e+00	0	23	0	814743552	72	5297
2026-01-11 21:14:51.25	96.71	6.29	-53.4	-56.3	13.3	0.00e+00	0	23	0	816840704	72	5204
2026-01-11 21:14:52.41	96.87	6.25	-53.2	-56.1	13.4	0.00e+00	0	23	0	818937856	72	5084
2026-01-11 21:14:53.27	96.99	6.22	-53.1	-55.9	13.7	0.00e+00	0	23	0	819986432	72	4931
2026-01-11 21:14:54.42	97.15	6.18	-53.1	-56.0	13.4	0.00e+00	0	23	0	822083584	72	4995
2026-01-11 21:14:55.29	97.27	6.14	-53.1	-56.0	13.4	0.00e+00	0	23	0	824180736	72	5012
2026-01-11 21:14:56.44	97.42	6.10	-53.1	-55.9	13.5	0.00e+00	0	23	0	826277888	72	4973
2026-01-11 21:14:57.30	97.54	6.07	-53.1	-55.9	13.6	0.00e+00	0	23	0	827326464	72	4963
2026-01-11 21:14:58.46	97.70	6.03	-53.2	-56.1	13.4	0.00e+00	0	23	0	829423616	72	5047
2026-01-11 21:14:59.32	97.82	6.00	-53.1	-56.0	13.4	0.00e+00	0	23	0	831520768	72	5000
2026-01-11 21:15:00.48	97.97	5.95	-53.1	-56.0	13.3	0.00e+00	0	23	0	833617920	72	5013
2026-01-11 21:15:01.34	98.09	5.92	-53.0	-55.8	13.5	0.00e+00	0	23	0	835715072	72	4924
2026-01-11 21:15:02.48	98.24	5.88	-52.9	-55.7	13.7	0.00e+00	0	23	0	837812224	72	4817
2026-01-11 21:15:03.34	98.36	5.85	-53.2	-56.2	13.4	0.00e+00	0	23	0	838860800	72	5103
2026-01-11 21:15:04.50	98.52	5.80	-53.2	-56.1	13.4	0.00e+00	0	23	0	840957952	72	5060
2026-01-11 21:15:05.36	98.63	5.77	-53.1	-56.0	13.4	0.00e+00	0	23	0	843055104	72	5040
2026-01-11 21:15:06.52	98.79	5.73	-53.1	-56.0	13.5	0.00e+00	0	23	0	845152256	72	4995
2026-01-11 21:15:07.38	98.90	5.69	-53.2	-56.1	13.4	0.00e+00	0	23	0	846200832	72	5065
2026-01-11 21:15:08.54	99.05	5.65	-53.2	-56.1	13.3	0.00e+00	0	23	0	848297984	72	5092
2026-01-11 21:15:09.40	99.17	5.62	-53.3	-56.3	13.3	0.00e+00	0	23	0	850395136	72	5185
2026-01-11 21:15:10.56	99.32	5.57	-53.3	-56.4	13.2	0.00e+00	0	23	0	852492288	72	5225
2026-01-11 21:15:11.42	99.44	5.54	-53.3	-56.2	13.2	0.00e+00	0	23	0	854589440	72	5158
2026-01-11 21:15:12.57	99.59	5.50	-53.3	-56.3	13.2	0.00e+00	0	23	0	856686592	72	5204
2026-01-11 21:15:13.43	99.70	5.47	-53.3	-56.4	13.2	0.00e+00	0	23	0	857735168	72	5228
2026-01-11 21:15:14.59	99.85	5.42	-53.4	-56.6	13.1	0.00e+00	0	23	0	859832320	72	5355
2026-01-11 21:15:15.45	99.96	5.39	-53.5	-56.6	13.0	0.00e+00	0	23	0	861929472	72	5385
2026-01-11 21:15:16.61	100.11	5.34	-53.4	-56.5	13.1	0.00e+00	0	23	0	864026624	72	5308
2026-01-11 21:15:17.47	100.23	5.31	-53.2	-56.2	13.2	0.00e+00	0	23	0	865075200	72	5127
2026-01-11 21:15:18.62	100.38	5.27	-53.0	-55.9	13.5	0.00e+00	0	23	0	867172352	72	4947
2026-01-11 21:15:19.48	100.49	5.23	-53.0	-55.8	13.5	0.00e+00	0	23	0	869269504	72	4910
2026-01-11 21:15:20.64	100.64	5.19	-52.8	-55.6	13.7	0.00e+00	0	23	0	871366656	72	4771
2026-01-11 21:15:21.50	100.75	5.16	-52.6	-55.3	13.8	0.00e+00	0	23	0	873463808	71	4874
2026-01-11 21:15:22.65	100.89	5.11	-52.5	-55.2	13.8	0.00e+00	0	23	0	875560960	71	4820
2026-01-11 21:15:23.52	101.01	5.08	-52.5	-55.1	13.8	0.00e+00	0	23	0	876609536	71	4760
2026-01-11 21:15:24.67	101.15	5.03	-52.6	-55.3	13.8	0.00e+00	0	23	0	878706688	71	4907
2026-01-11 21:15:25.54	101.26	5.00	-52.6	-55.3	13.8	0.00e+00	0	23	0	880803840	71	4873
2026-01-11 21:15:26.69	101.41	4.96	-57.4	-73.3	3.8	1.49e+00	0	23	104	881852416	79	24560
2026-01-11 21:15:27.56	101.52	4.92	-57.7	-73.7	3.8	1.49e+00	0	23	104	881852416	80	24226
2026-01-11 21:15:28.71	101.66	4.88	-58.0	-74.0	3.9	1.49e+00	0	23	104	881852416	81	23713
2026-01-11 21:15:29.57	101.77	4.84	-58.1	-74.2	3.8	1.49e+00	0	23	104	881852416	81	24179
2026-01-11 21:15:30.72	101.92	4.80	-58.3	-74.3	3.8	1.49e+00	0	23	104	881852416	81	24674
2026-01-11 21:15:31.59	102.03	4.76	-58.5	-74.5	3.8	1.49e+00	0	23	104	881852416	82	23723
2026-01-11 21:15:32.74	102.17	4.72	-58.6	-74.7	3.8	1.49e+00	0	23	104	881852416	82	24207
2026-01-11 21:15:33.60	102.28	4.68	-58.7	-74.7	3.8	1.49e+00	0	23	104	881852416	82	24398
2026-01-11 21:15:34.76	102.42	4.64	-58.8	-74.9	3.8	1.49e+00	0	23	104	881852416	82	24747
2026-01-11 21:15:35.62	102.53	4.61	-58.9	-74.9	3.8	1.49e+00	0	23	104	881852416	82	24936
2026-01-11 21:15:36.78	102.67	4.56	-59.0	-75.0	3.8	1.49e+00	0	23	104	881852416	83	23783
2026-01-11 21:15:37.64	102.78	4.53	-59.0	-75.1	3.8	1.49e+00	0	23	104	881852416	83	23954
2026-01-11 21:15:38.79	102.92	4.48	-59.1	-75.1	3.8	1.49e+00	0	23	104	881852416	83	23991
2026-01-11 21:15:39.66	103.03	4.45	-59.1	-75.2	3.8	1.49e+00	0	23	104	881852416	83	24186
2026-01-11 21:15:40.81	103.17	4.40	-59.1	-75.2	3.8	1.49e+00	0	23	104	881852416	83	24265
2026-01-11 21:15:41.67	103.27	4.37	-59.2	-75.2	3.8	1.49e+00	0	23	104	881852416	83	24397
2026-01-11 21:15:42.83	103.41	4.32	-59.2	-75.3	3.8	1.49e+00	0	23	104	881852416	83	24572
2026-01-11 21:15:43.69	103.52	4.29	-59.3	-75.3	3.8	1.49e+00	0	23	104	881852416	83	24517
2026-01-11 21:15:44.85	103.66	4.24	-59.3	-75.4	3.8	1.49e+00	0	23	104	881852416	83	24753
2026-01-11 21:15:45.71	103.76	4.21	-59.3	-75.4	3.8	1.49e+00	0	23	104	881852416	83	24754
2026-01-11 21:15:46.87	103.90	4.16	-59.4	-75.4	3.8	1.49e+00	0	23	104	881852416	83	24869
2026-01-11 21:15:47.73	104.01	4.12	-59.3	-75.4	3.8	1.49e+00	0	23	104	881852416	83	24914
2026-01-11 21:15:48.88	104.14	4.08	-59.4	-75.4	3.8	1.49e+00	0	23	104	881852416	83	24962
2026-01-11 21:15:49.75	104.25	4.04	-59.4	-75.4	3.8	1.49e+00	0	23	104	881852416	83	24907
2026-01-11 21:15:50.90	104.38	4.00	-59.6	-75.7	3.8	1.49e+00	0	23	104	881852416	84	24252
2026-01-11 21:15:51.76	104.49	3.96	-59.7	-75.7	3.8	1.49e+00	0	23	104	881852416	84	24280
2026-01-11 21:15:52.91	104.62	3.92	-59.7	-75.7	3.8	1.49e+00	0	23	104	881852416	84	24403
2026-01-11 21:15:53.78	104.73	3.88	-59.7	-75.8	3.8	1.49e+00	0	23	104	881852416	84	24487
2026-01-11 21:15:54.93	104.86	3.84	-59.7	-75.8	3.8	1.49e+00	0	23	104	881852416	84	24432
2026-01-11 21:15:55.79	104.96	3.80	-59.7	-75.7	3.8	1.49e+00	0	23	104	881852416	84	24305
2026-01-11 21:15:56.95	105.10	3.75	-59.7	-75.7	3.8	1.49e+00	0	23	104	881852416	84	24330
2026-01-11 21:15:57.81	105.20	3.72	-59.7	-75.7	3.8	1.49e+00	0	23	104	881852416	84	24306
2026-01-11 21:15:58.96	105.33	3.67	-59.6	-75.7	3.8	1.49e+00	0	23	104	881852416	84	24190
2026-01-11 21:15:59.83	105.44	3.64	-59.6	-75.7	3.8	1.49e+00	0	23	104	881852416	84	24200
2026-01-11 21:16:00.98	105.57	3.59	-59.6	-75.7	3.8	1.49e+00	0	23	104	881852416	84	24190
2026-01-11 21:16:01.84	105.67	3.56	-59.6	-75.7	3.8	1.49e+00	0	23	104	881852416	84	24203
2026-01-11 21:16:02.99	105.80	3.51	-59.6	-75.7	3.8	1.49e+00	0	23	104	881852416	84	24139
2026-01-11 21:16:03.86	105.90	3.48	-59.6	-75.7	3.8	1.49e+00	0	23	104	881852416	84	24144
2026-01-11 21:16:05.01	106.03	3.43	-59.6	-75.7	3.8	1.49e+00	0	23	104	881852416	84	24138
2026-01-11 21:16:05.87	106.13	3.39	-59.6	-75.6	3.8	1.49e+00	0	23	104	881852416	84	24055
2026-01-11 21:16:07.02	106.26	3.35	-59.6	-75.6	3.8	1.49e+00	0	23	104	881852416	84	24042
2026-01-11 21:16:07.89	106.36	3.31	-59.6	-75.6	3.8	1.49e+00	0	23	104	881852416	84	24024
2026-01-11 21:16:09.04	106.49	3.26	-59.6	-75.6	3.8	1.49e+00	0	23	104	881852416	84	24086
2026-01-11 21:16:09.91	106.59	3.23	-59.6	-75.6	3.8	1.49e+00	0	23	104	881852416	84	24009
2026-01-11 21:16:11.06	106.72	3.18	-59.6	-75.6	3.8	1.49e+00	0	23	104	881852416	84	24027
2026-01-11 21:16:11.92	106.82	3.15	-59.6	-75.6	3.8	1.49e+00	0	23	104	881852416	84	24015
2026-01-11 21:16:13.08	106.95	3.10	-59.6	-75.6	3.8	1.49e+00	0	23	104	881852416	84	23990
2026-01-11 21:16:13.94	107.05	3.06	-59.6	-75.6	3.8	1.49e+00	0	23	104	881852416	84	23956
2026-01-11 21:16:15.10	107.18	3.02	-59.5	-75.6	3.8	1.49e+00	0	23	104	881852416	84	23871
2026-01-11 21:16:15.96	107.27	2.98	-59.5	-75.6	3.8	1.49e+00	0	23	104	881852416	84	23917
2026-01-11 21:16:17.12	107.40	2.93	-59.5	-75.6	3.8	1.49e+00	0	23	104	881852416	84	23899
2026-01-11 21:16:17.98	107.50	2.90	-59.5	-75.6	3.8	1.49e+00	0	23	104	881852416	84	23901
2026-01-11 21:16:19.13	107.62	2.85	-59.5	-75.6	3.8	1.49e+00	0	23	104	881852416	84	23897
2026-01-11 21:16:20.00	107.72	2.82	-59.5	-75.6	3.8	1.49e+00	0	23	104	881852416	84	23888
2026-01-11 21:16:21.15	107.85	2.77	-59.5	-75.6	3.8	1.49e+00	0	23	104	881852416	84	23933
2026-01-11 21:16:22.01	107.94	2.73	-59.5	-75.6	3.8	1.49e+00	0	23	104	881852416	84	23881
2026-01-11 21:16:23.17	108.07	2.69	-59.5	-75.5	3.8	1.49e+00	0	23	104	881852416	84	23814
2026-01-11 21:16:24.03	108.16	2.65	-59.5	-75.6	3.8	1.49e+00	0	23	104	881852416	84	23862
2026-01-11 21:16:25.19	108.29	2.60	-59.5	-75.5	3.8	1.49e+00	0	23	104	881852416	84	23773
2026-01-11 21:16:26.06	108.38	2.57	-59.5	-75.6	3.8	1.49e+00	0	23	104	881852416	84	23880
2026-01-11 21:16:27.21	108.51	2.52	-59.5	-75.6	3.8	1.49e+00	0	23	104	881852416	84	23855
2026-01-11 21:16:28.08	108.60	2.48	-59.5	-75.5	3.8	1.49e+00	0	23	104	881852416	84	23799
2026-01-11 21:16:29.23	108.73	2.44	-59.5	-75.5	3.8	1.49e+00	0	23	104	881852416	84	23793
2026-01-11 21:16:30.09	108.82	2.40	-59.5	-75.5	3.8	1.49e+00	0	23	104	881852416	84	23770
2026-01-11 21:16:31.24	108.94	2.35	-59.5	-75.5	3.8	1.49e+00	0	23	104	881852416	84	23818
2026-01-11 21:16:32.10	109.03	2.32	-59.5	-75.5	3.8	1.49e+00	0	23	104	881852416	84	23815
2026-01-11 21:16:33.26	109.16	2.27	-59.5	-75.5	3.8	1.49e+00	0	23	104	881852416	84	23805
2026-01-11 21:16:34.12	109.25	2.24	-59.5	-75.5	3.8	1.49e+00	0	23	104	881852416	84	23809
2026-01-11 21:16:35.27	109.37	2.19	-59.5	-75.5	3.8	1.49e+00	0	23	104	881852416	84	23822
2026-01-11 21:16:36.13	109.46	2.15	-59.5	-75.5	3.8	1.49e+00	0	23	104	881852416	84	23839
2026-01-11 21:16:37.29	109.58	2.10	-59.5	-75.5	3.8	1.49e+00	0	23	104	881852416	84	23751
2026-01-11 21:16:38.15	109.67	2.07	-59.5	-75.5	3.8	1.49e+00	0	23	104	881852416	84	23788
2026-01-11 21:16:39.30	109.80	2.02	-59.5	-75.5	3.8	1.49e+00	0	23	104	881852416	84	23795
2026-01-11 21:16:40.17	109.89	1.99	-59.5	-75.5	3.8	1.49e+00	0	23	104	881852416	84	23762

#Closed at: 2026-01-11 21:16:40
#Recorded file [881 MB]: D:/lorett/data/31004_260112_000632.dat