passes_logs/2026/01/11/R3.2S_Murmansk/R3.2S_Murmansk__20260111_074431_NOAA_20_JPSS-1_rec.log

#Pass ID: 20260111_074431_NOAA 20 (JPSS-1)
#Satellite: NOAA 20 (JPSS-1)
#Configuration: NOAA 20
#almurnet v.1.7.20251203
#Start time: 2026-01-11 07:44:31

#Version: 2.2.20231116
#Station: R3.2S_Murmansk
#Location: 33.079688 lon 68.888172 lat
#TLE: 1 43013U 17073A   26010.88944318  .00000078  00000+0  57801-4 0  9992
#TLE: 2 43013  98.7631 311.8723 0001655  45.1140 315.0170 14.19535117422152

#Time	Az	El	Level	Level2	SNR	BER	BlckErr	Temp	State	Recorded	gain1	gain2
2026-01-11 07:44:31.19	110.66	2.01	-57.3	-73.2	3.8	1.49e+00	0	21	0	0	81	21659
2026-01-11 07:44:32.20	110.62	2.07	-57.2	-73.1	3.8	1.49e+00	0	21	104	0	79	24123
2026-01-11 07:44:33.22	110.58	2.14	-57.2	-73.1	3.8	1.49e+00	0	21	104	0	79	23993
2026-01-11 07:44:34.22	110.54	2.20	-57.2	-73.1	3.8	1.49e+00	0	21	104	0	79	24006
2026-01-11 07:44:35.23	110.50	2.26	-57.2	-73.1	3.8	1.49e+00	0	21	104	0	79	24086
2026-01-11 07:44:36.24	110.46	2.32	-57.2	-73.2	3.8	1.49e+00	0	22	104	0	79	24207
2026-01-11 07:44:37.24	110.42	2.39	-57.2	-73.2	3.8	1.49e+00	0	22	104	0	79	24264
2026-01-11 07:44:38.25	110.38	2.45	-57.2	-73.2	3.8	1.49e+00	0	22	104	0	79	24232
2026-01-11 07:44:39.26	110.34	2.51	-57.2	-73.2	3.8	1.49e+00	0	22	104	0	79	24253
2026-01-11 07:44:40.27	110.30	2.57	-57.2	-73.2	3.8	1.49e+00	0	22	104	0	79	24159
2026-01-11 07:44:41.28	110.26	2.64	-57.2	-73.1	3.8	1.49e+00	0	22	104	0	79	24122
2026-01-11 07:44:42.29	110.22	2.70	-57.2	-73.1	3.8	1.49e+00	0	22	104	0	79	24108
2026-01-11 07:44:43.30	110.18	2.77	-57.2	-73.1	3.8	1.49e+00	0	22	104	0	79	24104
2026-01-11 07:44:44.31	110.14	2.83	-57.2	-73.1	3.8	1.49e+00	0	22	104	0	79	24115
2026-01-11 07:44:45.32	110.09	2.89	-57.2	-73.1	3.8	1.49e+00	0	22	104	0	79	23982
2026-01-11 07:44:46.32	110.05	2.96	-57.2	-73.1	3.8	1.49e+00	0	22	104	0	79	23953
2026-01-11 07:44:47.33	110.01	3.02	-57.2	-73.1	3.8	1.49e+00	0	22	104	0	79	24051
2026-01-11 07:44:48.34	109.97	3.09	-57.2	-73.1	3.8	1.49e+00	0	22	104	0	79	23950
2026-01-11 07:44:49.35	109.93	3.15	-57.2	-73.1	3.8	1.49e+00	0	22	104	0	79	24071
2026-01-11 07:44:50.35	109.89	3.21	-57.2	-73.1	3.8	1.49e+00	0	22	104	0	79	23997
2026-01-11 07:44:51.36	109.84	3.28	-57.2	-73.1	3.8	1.49e+00	0	22	104	0	79	23874
2026-01-11 07:44:52.37	109.80	3.34	-57.2	-73.0	3.8	1.49e+00	0	22	104	0	79	23684
2026-01-11 07:44:53.38	109.76	3.41	-57.2	-73.0	3.8	1.49e+00	0	22	104	0	79	23679
2026-01-11 07:44:54.39	109.71	3.47	-57.2	-72.9	3.8	1.49e+00	0	22	104	0	79	23437
2026-01-11 07:44:55.40	109.67	3.54	-57.2	-72.9	3.8	1.49e+00	0	22	104	0	79	23503
2026-01-11 07:44:56.41	109.63	3.60	-57.2	-72.9	3.8	1.49e+00	0	22	104	0	79	23513
2026-01-11 07:44:57.41	109.58	3.67	-57.2	-73.0	3.8	1.49e+00	0	22	104	0	79	23608
2026-01-11 07:44:58.42	109.54	3.73	-57.2	-73.1	3.8	1.49e+00	0	22	104	0	79	24046
2026-01-11 07:44:59.43	109.50	3.80	-57.2	-73.2	3.8	1.49e+00	0	22	104	0	79	24332
2026-01-11 07:45:00.44	109.45	3.87	-57.2	-73.2	3.8	1.49e+00	0	22	104	0	79	24249
2026-01-11 07:45:01.44	109.41	3.93	-57.2	-72.9	3.8	1.49e+00	0	22	104	0	79	23552
2026-01-11 07:45:02.45	109.36	4.00	-57.2	-72.4	3.8	1.49e+00	0	22	104	0	79	22023
2026-01-11 07:45:03.46	109.32	4.06	-57.2	-71.5	3.8	1.49e+00	0	22	104	0	79	19869
2026-01-11 07:45:04.46	109.27	4.13	-57.1	-70.5	3.9	1.48e+00	0	22	104	0	79	17840
2026-01-11 07:45:05.47	109.23	4.20	-57.1	-69.3	4.3	1.37e+00	0	22	0	0	79	15479
2026-01-11 07:45:06.49	109.18	4.26	-57.0	-68.3	4.6	1.01e+00	0	22	0	1048576	79	13758
2026-01-11 07:45:07.49	109.14	4.33	-56.9	-67.6	5.0	6.97e-01	0	22	0	3145728	79	12677
2026-01-11 07:45:08.50	109.09	4.40	-56.8	-66.6	5.5	4.80e-01	0	22	0	5242880	79	11403
2026-01-11 07:45:09.51	109.04	4.47	-56.8	-66.2	5.7	3.83e-01	0	22	0	7340032	79	10873
2026-01-11 07:45:10.52	109.00	4.53	-56.6	-65.3	6.5	2.15e-01	0	22	0	8388608	79	9720
2026-01-11 07:45:11.53	108.95	4.60	-56.6	-64.9	6.7	1.72e-01	0	22	0	10485760	79	9352
2026-01-11 07:45:12.54	108.90	4.67	-56.5	-64.1	7.5	1.14e-01	0	22	0	12582912	79	8491
2026-01-11 07:45:13.55	108.85	4.74	-56.4	-63.9	7.6	6.83e-02	0	22	0	14680064	79	8300
2026-01-11 07:45:14.55	108.81	4.80	-56.3	-63.1	8.4	4.16e-02	0	22	0	16777216	79	7590
2026-01-11 07:45:15.56	108.76	4.87	-56.1	-62.5	8.8	1.93e-02	0	22	0	17825792	78	7504
2026-01-11 07:45:16.57	108.71	4.94	-56.0	-62.2	9.1	1.37e-02	0	22	0	19922944	78	7250
2026-01-11 07:45:17.58	108.66	5.01	-55.9	-61.8	9.5	8.98e-03	0	22	0	22020096	78	6920
2026-01-11 07:45:18.59	108.62	5.08	-55.8	-61.4	9.9	3.43e-03	0	23	0	24117248	78	6638
2026-01-11 07:45:19.60	108.57	5.15	-55.1	-59.3	11.6	2.21e-03	0	23	0	26214400	76	5816
2026-01-11 07:45:20.60	108.52	5.21	-56.7	-64.7	7.5	2.74e-05	0	22	0	27262976	78	9674
2026-01-11 07:45:21.61	108.47	5.28	-56.6	-63.3	8.4	4.42e-01	0	22	0	29360128	79	7768
2026-01-11 07:45:22.62	108.42	5.35	-54.4	-58.0	12.6	3.33e-02	0	23	0	31457280	75	5290
2026-01-11 07:45:23.63	108.37	5.42	-54.3	-57.9	12.7	2.20e-06	0	23	0	33554432	75	5229
2026-01-11 07:45:24.64	108.32	5.49	-54.3	-57.8	12.7	7.00e-07	0	23	0	34603008	75	5188
2026-01-11 07:45:25.65	108.27	5.56	-53.8	-57.0	13.2	0.00e+00	0	22	0	36700160	74	4992
2026-01-11 07:45:26.66	108.22	5.63	-53.6	-56.5	13.4	0.00e+00	0	23	0	38797312	73	5019
2026-01-11 07:45:27.67	108.17	5.70	-53.9	-57.0	13.0	0.00e+00	0	23	0	40894464	73	5334
2026-01-11 07:45:28.68	108.12	5.77	-53.6	-56.7	13.3	0.00e+00	0	23	0	42991616	73	5126
2026-01-11 07:45:29.68	108.07	5.84	-53.4	-56.4	13.5	0.00e+00	0	23	0	45088768	73	4929
2026-01-11 07:45:30.69	108.01	5.91	-53.7	-56.9	13.2	0.00e+00	0	23	0	46137344	73	5219
2026-01-11 07:45:31.69	107.96	5.98	-53.6	-56.7	13.3	0.00e+00	0	23	0	48234496	73	5136
2026-01-11 07:45:32.70	107.91	6.05	-53.5	-56.4	13.5	0.00e+00	0	23	0	50331648	73	4964
2026-01-11 07:45:33.71	107.86	6.12	-53.4	-56.3	13.7	0.00e+00	0	23	0	52428800	73	4885
2026-01-11 07:45:34.72	107.81	6.20	-53.4	-56.2	13.7	0.00e+00	0	23	0	54525952	73	4833
2026-01-11 07:45:35.73	107.75	6.27	-53.4	-56.3	13.6	0.00e+00	0	23	0	55574528	73	4889
2026-01-11 07:45:36.73	107.70	6.34	-53.4	-56.2	13.6	0.00e+00	0	23	0	57671680	73	4861
2026-01-11 07:45:37.74	107.65	6.41	-53.4	-56.3	13.6	0.00e+00	0	23	0	59768832	73	4903
2026-01-11 07:45:38.75	107.59	6.48	-53.3	-56.1	13.8	0.00e+00	0	23	0	61865984	73	4778
2026-01-11 07:45:39.75	107.54	6.55	-53.3	-56.0	13.8	0.00e+00	0	23	0	63963136	73	4759
2026-01-11 07:45:40.76	107.49	6.63	-53.3	-56.0	13.8	0.00e+00	0	23	0	65011712	73	4749
2026-01-11 07:45:41.77	107.43	6.70	-53.3	-56.0	13.8	0.00e+00	0	23	0	67108864	73	4751
2026-01-11 07:45:42.78	107.38	6.77	-53.2	-55.9	13.9	0.00e+00	0	23	0	69206016	73	4695
2026-01-11 07:45:43.79	107.32	6.84	-53.2	-55.9	13.9	0.00e+00	0	23	0	71303168	73	4677
2026-01-11 07:45:44.80	107.27	6.92	-53.1	-55.7	13.8	0.00e+00	0	23	0	73400320	72	4865
2026-01-11 07:45:45.81	107.21	6.99	-53.1	-55.8	13.8	0.00e+00	0	23	0	74448896	72	4908
2026-01-11 07:45:46.81	107.15	7.06	-53.1	-55.8	13.8	0.00e+00	0	23	0	76546048	72	4898
2026-01-11 07:45:47.82	107.10	7.14	-53.1	-55.7	13.9	0.00e+00	0	23	0	78643200	72	4859
2026-01-11 07:45:48.83	107.04	7.21	-53.0	-55.6	14.0	0.00e+00	0	23	0	80740352	72	4806
2026-01-11 07:45:49.83	106.98	7.28	-53.0	-55.7	13.9	0.00e+00	0	23	0	82837504	72	4815
2026-01-11 07:45:50.84	106.93	7.36	-53.0	-55.6	14.0	0.00e+00	0	23	0	83886080	72	4782
2026-01-11 07:45:51.85	106.87	7.43	-53.0	-55.5	14.0	0.00e+00	0	23	0	85983232	72	4756
2026-01-11 07:45:52.86	106.81	7.51	-52.9	-55.5	14.1	0.00e+00	0	23	0	88080384	72	4713
2026-01-11 07:45:53.87	106.75	7.58	-52.9	-55.4	14.1	0.00e+00	0	23	0	90177536	72	4679
2026-01-11 07:45:54.87	106.70	7.66	-52.9	-55.4	14.1	0.00e+00	0	23	0	92274688	72	4690
2026-01-11 07:45:55.88	106.64	7.73	-52.8	-55.3	14.2	0.00e+00	0	23	0	93323264	72	4624
2026-01-11 07:45:56.89	106.58	7.81	-52.8	-55.3	14.1	0.00e+00	0	23	0	95420416	72	4648
2026-01-11 07:45:57.90	106.52	7.88	-52.8	-55.2	14.2	0.00e+00	0	23	0	97517568	72	4577
2026-01-11 07:45:58.90	106.46	7.96	-52.8	-55.2	14.3	0.00e+00	0	23	0	99614720	72	4555
2026-01-11 07:45:59.92	106.40	8.03	-52.8	-55.3	14.2	0.00e+00	0	23	0	101711872	72	4619
2026-01-11 07:46:00.93	106.34	8.11	-52.6	-55.0	14.2	0.00e+00	0	23	0	102760448	71	4746
2026-01-11 07:46:01.93	106.28	8.18	-52.6	-55.0	14.2	0.00e+00	0	23	0	104857600	71	4755
2026-01-11 07:46:02.94	106.22	8.26	-52.7	-55.1	14.2	0.00e+00	0	23	0	106954752	71	4777
2026-01-11 07:46:03.95	106.15	8.34	-52.6	-55.0	14.2	0.00e+00	0	23	0	109051904	71	4717
2026-01-11 07:46:04.96	106.09	8.41	-52.6	-54.9	14.3	0.00e+00	0	23	0	111149056	71	4698
2026-01-11 07:46:05.96	106.03	8.49	-52.6	-55.0	14.2	0.00e+00	0	23	0	112197632	71	4756
2026-01-11 07:46:06.97	105.97	8.57	-52.7	-55.1	14.1	0.00e+00	0	23	0	114294784	71	4813
2026-01-11 07:46:07.98	105.91	8.65	-52.6	-55.1	14.2	0.00e+00	0	23	0	116391936	71	4764
2026-01-11 07:46:08.99	105.84	8.72	-52.7	-55.0	14.2	0.00e+00	0	23	0	118489088	71	4755
2026-01-11 07:46:09.99	105.78	8.80	-52.6	-55.0	14.3	0.00e+00	0	23	0	120586240	71	4716
2026-01-11 07:46:11.00	105.72	8.88	-52.6	-55.0	14.3	0.00e+00	0	23	0	121634816	71	4718
2026-01-11 07:46:12.01	105.65	8.96	-52.6	-54.9	14.3	0.00e+00	0	23	0	123731968	71	4693
2026-01-11 07:46:13.02	105.59	9.03	-52.7	-55.1	14.2	0.00e+00	0	23	0	125829120	71	4792
2026-01-11 07:46:14.02	105.52	9.11	-52.6	-55.0	14.3	0.00e+00	0	23	0	127926272	71	4711
2026-01-11 07:46:15.03	105.46	9.19	-52.6	-55.0	14.2	0.00e+00	0	23	0	130023424	71	4747
2026-01-11 07:46:16.04	105.39	9.27	-52.6	-55.0	14.2	0.00e+00	0	23	0	131072000	71	4758
2026-01-11 07:46:17.04	105.33	9.35	-52.7	-55.1	14.2	0.00e+00	0	23	0	133169152	71	4764
2026-01-11 07:46:18.05	105.26	9.43	-52.7	-55.1	14.2	0.00e+00	0	23	0	135266304	71	4784
2026-01-11 07:46:19.06	105.19	9.51	-52.6	-55.1	14.2	0.00e+00	0	23	0	137363456	71	4765
2026-01-11 07:46:20.07	105.13	9.59	-52.7	-55.1	14.2	0.00e+00	0	23	0	139460608	71	4794
2026-01-11 07:46:21.08	105.06	9.67	-52.8	-55.2	14.1	0.00e+00	0	23	0	140509184	71	4845
2026-01-11 07:46:22.09	104.99	9.75	-52.6	-55.0	14.2	0.00e+00	0	23	0	142606336	71	4753
2026-01-11 07:46:23.10	104.92	9.83	-52.5	-54.9	14.3	0.00e+00	0	23	0	144703488	71	4668
2026-01-11 07:46:24.11	104.85	9.91	-52.6	-54.9	14.3	0.00e+00	0	23	0	146800640	71	4679
2026-01-11 07:46:25.12	104.78	9.99	-52.6	-54.9	14.3	0.00e+00	0	23	0	148897792	71	4687
2026-01-11 07:46:26.12	104.71	10.07	-52.5	-54.8	14.3	0.00e+00	0	23	0	149946368	71	4648
2026-01-11 07:46:27.13	104.64	10.15	-52.6	-54.9	14.3	0.00e+00	0	23	0	152043520	71	4685
2026-01-11 07:46:28.14	104.57	10.24	-52.6	-54.9	14.3	0.00e+00	0	23	0	154140672	71	4703
2026-01-11 07:46:29.14	104.50	10.32	-52.5	-54.9	14.4	0.00e+00	0	23	0	156237824	71	4657
2026-01-11 07:46:30.15	104.43	10.40	-52.6	-54.9	14.3	0.00e+00	0	23	0	158334976	71	4689
2026-01-11 07:46:31.15	104.36	10.48	-52.6	-55.0	14.3	0.00e+00	0	23	0	159383552	71	4718
2026-01-11 07:46:32.15	104.29	10.56	-52.6	-54.9	14.3	0.00e+00	0	23	0	161480704	71	4701
2026-01-11 07:46:33.16	104.22	10.65	-52.7	-55.0	14.2	0.00e+00	0	23	0	163577856	71	4749
2026-01-11 07:46:34.17	104.15	10.73	-52.5	-54.8	14.4	0.00e+00	0	23	0	165675008	71	4631
2026-01-11 07:46:35.18	104.07	10.81	-52.4	-54.7	14.5	0.00e+00	0	23	0	167772160	71	4555
2026-01-11 07:46:36.19	104.00	10.90	-52.5	-54.7	14.4	0.00e+00	0	23	0	168820736	71	4593
2026-01-11 07:46:37.19	103.92	10.98	-52.6	-54.9	14.4	0.00e+00	0	23	0	170917888	71	4658
2026-01-11 07:46:38.20	103.85	11.06	-52.5	-54.7	14.4	0.00e+00	0	23	0	173015040	71	4589
2026-01-11 07:46:39.21	103.77	11.15	-52.5	-54.7	14.5	0.00e+00	0	23	0	175112192	71	4583
2026-01-11 07:46:40.22	103.70	11.23	-52.5	-54.7	14.5	0.00e+00	0	23	0	177209344	71	4590
2026-01-11 07:46:41.23	103.62	11.32	-52.5	-54.7	14.4	0.00e+00	0	23	0	178257920	71	4594
2026-01-11 07:46:42.23	103.55	11.40	-52.5	-54.8	14.4	0.00e+00	0	23	0	180355072	71	4624
2026-01-11 07:46:43.24	103.47	11.49	-52.4	-54.7	14.5	0.00e+00	0	23	0	182452224	71	4554
2026-01-11 07:46:44.25	103.39	11.57	-52.4	-54.7	14.5	0.00e+00	0	23	0	184549376	71	4568
2026-01-11 07:46:45.25	103.32	11.66	-52.4	-54.6	14.5	0.00e+00	0	23	0	186646528	71	4531
2026-01-11 07:46:46.26	103.24	11.74	-52.3	-54.5	14.6	0.00e+00	0	23	0	187695104	71	4490
2026-01-11 07:46:47.26	103.16	11.83	-52.3	-54.5	14.6	0.00e+00	0	23	0	189792256	71	4465
2026-01-11 07:46:48.27	103.08	11.91	-52.3	-54.5	14.6	0.00e+00	0	23	0	191889408	71	4473
2026-01-11 07:46:49.28	103.00	12.00	-52.2	-54.4	14.7	0.00e+00	0	23	0	193986560	71	4393
2026-01-11 07:46:50.29	102.92	12.09	-52.2	-54.3	14.7	0.00e+00	0	23	0	196083712	71	4383
2026-01-11 07:46:51.30	102.84	12.17	-52.3	-54.4	14.6	0.00e+00	0	23	0	198180864	71	4435
2026-01-11 07:46:52.30	102.76	12.26	-52.3	-54.4	14.7	0.00e+00	0	23	0	199229440	71	4423
2026-01-11 07:46:53.31	102.68	12.35	-52.3	-54.5	14.6	0.00e+00	0	23	0	201326592	71	4443
2026-01-11 07:46:54.31	102.60	12.44	-52.3	-54.5	14.6	0.00e+00	0	23	0	203423744	71	4483
2026-01-11 07:46:55.32	102.51	12.52	-52.3	-54.5	14.6	0.00e+00	0	23	0	205520896	71	4462
2026-01-11 07:46:56.33	102.43	12.61	-52.4	-54.6	14.5	0.00e+00	0	23	0	206569472	71	4534
2026-01-11 07:46:57.34	102.35	12.70	-52.3	-54.5	14.6	0.00e+00	0	23	0	208666624	71	4452
2026-01-11 07:46:58.35	102.26	12.79	-52.3	-54.5	14.6	0.00e+00	0	23	0	210763776	71	4456
2026-01-11 07:46:59.36	102.18	12.88	-52.2	-54.4	14.7	0.00e+00	0	23	0	212860928	71	4392
2026-01-11 07:47:00.37	102.09	12.97	-52.3	-54.4	14.7	0.00e+00	0	23	0	214958080	71	4417
2026-01-11 07:47:01.38	102.00	13.06	-52.3	-54.4	14.7	0.00e+00	0	23	0	216006656	71	4432
2026-01-11 07:47:02.38	101.92	13.15	-52.3	-54.5	14.6	0.00e+00	0	23	0	218103808	71	4458
2026-01-11 07:47:03.39	101.83	13.24	-52.2	-54.3	14.7	0.00e+00	0	23	0	220200960	71	4367
2026-01-11 07:47:04.39	101.75	13.33	-52.2	-54.4	14.7	0.00e+00	0	23	0	222298112	71	4418
2026-01-11 07:47:05.40	101.66	13.42	-52.2	-54.4	14.7	0.00e+00	0	23	0	224395264	71	4402
2026-01-11 07:47:06.41	101.57	13.51	-52.2	-54.4	14.7	0.00e+00	0	23	0	226492416	71	4416
2026-01-11 07:47:07.42	101.48	13.60	-52.2	-54.3	14.8	0.00e+00	0	23	0	227540992	71	4368
2026-01-11 07:47:08.43	101.39	13.69	-52.2	-54.4	14.7	0.00e+00	0	23	0	229638144	71	4397
2026-01-11 07:47:09.43	101.30	13.79	-52.0	-54.1	14.7	0.00e+00	0	23	0	231735296	70	4528
2026-01-11 07:47:10.44	101.21	13.88	-52.0	-54.1	14.7	0.00e+00	0	23	0	233832448	70	4516
2026-01-11 07:47:11.45	101.12	13.97	-52.0	-54.1	14.7	0.00e+00	0	23	0	235929600	70	4517
2026-01-11 07:47:12.46	101.02	14.06	-52.1	-54.1	14.7	0.00e+00	0	23	0	236978176	70	4541
2026-01-11 07:47:13.46	100.93	14.16	-52.1	-54.3	14.6	0.00e+00	0	23	0	239075328	70	4604
2026-01-11 07:47:14.47	100.84	14.25	-52.1	-54.3	14.6	0.00e+00	0	23	0	241172480	70	4605
2026-01-11 07:47:15.48	100.75	14.34	-52.2	-54.3	14.6	0.00e+00	0	23	0	243269632	70	4608
2026-01-11 07:47:16.48	100.65	14.44	-52.0	-54.1	14.7	0.00e+00	0	23	0	244318208	70	4523
2026-01-11 07:47:17.49	100.56	14.53	-52.0	-54.1	14.7	0.00e+00	0	23	0	246415360	70	4512
2026-01-11 07:47:18.50	100.46	14.62	-52.0	-54.1	14.7	0.00e+00	0	23	0	248512512	70	4504
2026-01-11 07:47:19.51	100.36	14.72	-51.9	-54.0	14.8	0.00e+00	0	23	0	250609664	70	4448
2026-01-11 07:47:20.51	100.27	14.81	-51.9	-54.0	14.8	0.00e+00	0	23	0	252706816	70	4449
2026-01-11 07:47:21.52	100.17	14.91	-52.0	-54.1	14.8	0.00e+00	0	23	0	254803968	70	4494
2026-01-11 07:47:22.53	100.07	15.00	-52.0	-54.0	14.7	0.00e+00	0	23	0	255852544	70	4480
2026-01-11 07:47:23.54	99.97	15.10	-52.0	-54.0	14.7	0.00e+00	0	23	0	257949696	70	4480
2026-01-11 07:47:24.55	99.87	15.20	-51.9	-54.0	14.8	0.00e+00	0	23	0	260046848	70	4448
2026-01-11 07:47:25.55	99.77	15.29	-51.9	-54.0	14.8	0.00e+00	0	23	0	262144000	70	4445
2026-01-11 07:47:26.56	99.67	15.39	-51.9	-53.9	14.8	0.00e+00	0	23	0	264241152	70	4417
2026-01-11 07:47:27.56	99.57	15.48	-51.9	-53.9	14.8	0.00e+00	0	23	0	265289728	70	4436
2026-01-11 07:47:28.57	99.47	15.58	-51.8	-53.8	14.9	0.00e+00	0	23	0	267386880	70	4359
2026-01-11 07:47:29.58	99.37	15.68	-51.8	-53.8	14.9	0.00e+00	0	23	0	269484032	70	4377
2026-01-11 07:47:30.59	99.26	15.78	-51.8	-53.7	14.9	0.00e+00	0	23	0	271581184	70	4336
2026-01-11 07:47:31.59	99.16	15.88	-51.8	-53.7	15.0	0.00e+00	0	23	0	273678336	70	4340
2026-01-11 07:47:32.60	99.05	15.97	-51.9	-53.8	14.9	0.00e+00	0	23	0	274726912	70	4388
2026-01-11 07:47:33.61	98.95	16.07	-51.9	-53.8	14.9	0.00e+00	0	23	0	276824064	70	4384
2026-01-11 07:47:34.62	98.84	16.17	-51.8	-53.8	14.9	0.00e+00	0	23	0	278921216	70	4365
2026-01-11 07:47:35.63	98.73	16.27	-51.8	-53.8	14.9	0.00e+00	0	23	0	281018368	70	4362
2026-01-11 07:47:36.64	98.63	16.37	-51.8	-53.8	14.9	0.00e+00	0	23	0	283115520	70	4364
2026-01-11 07:47:37.65	98.52	16.47	-51.8	-53.8	14.9	0.00e+00	0	23	0	284164096	70	4372
2026-01-11 07:47:38.66	98.41	16.57	-51.8	-53.8	14.9	0.00e+00	0	23	0	286261248	70	4374
2026-01-11 07:47:39.66	98.30	16.67	-51.8	-53.8	14.9	0.00e+00	0	23	0	288358400	70	4369
2026-01-11 07:47:40.67	98.19	16.77	-51.8	-53.8	14.9	0.00e+00	0	23	0	290455552	70	4363
2026-01-11 07:47:41.68	98.08	16.87	-51.9	-53.8	14.9	0.00e+00	0	23	0	292552704	70	4385
2026-01-11 07:47:42.69	97.96	16.97	-51.9	-54.0	14.8	0.00e+00	0	23	0	293601280	70	4446
2026-01-11 07:47:43.70	97.85	17.08	-51.9	-53.9	14.9	0.00e+00	0	23	0	295698432	70	4408
2026-01-11 07:47:44.71	97.74	17.18	-52.0	-54.0	14.8	0.00e+00	0	23	0	297795584	70	4452
2026-01-11 07:47:45.72	97.62	17.28	-52.0	-54.0	14.8	0.00e+00	0	23	0	299892736	70	4452
2026-01-11 07:47:46.72	97.51	17.38	-51.9	-53.9	14.9	0.00e+00	0	23	0	301989888	70	4410
2026-01-11 07:47:47.73	97.39	17.49	-51.9	-53.9	14.9	0.00e+00	0	23	0	303038464	70	4416
2026-01-11 07:47:48.74	97.27	17.59	-52.0	-54.0	14.8	0.00e+00	0	23	0	305135616	70	4459
2026-01-11 07:47:49.74	97.15	17.69	-51.9	-53.8	14.9	0.00e+00	0	23	0	307232768	70	4387
2026-01-11 07:47:50.75	97.04	17.80	-51.8	-53.8	14.9	0.00e+00	0	23	0	309329920	70	4360
2026-01-11 07:47:51.76	96.92	17.90	-51.8	-53.7	15.0	0.00e+00	0	23	0	311427072	70	4313
2026-01-11 07:47:52.77	96.79	18.01	-51.8	-53.7	15.0	0.00e+00	0	23	0	312475648	70	4313
2026-01-11 07:47:53.78	96.67	18.11	-51.7	-53.6	15.0	0.00e+00	0	23	0	314572800	70	4278
2026-01-11 07:47:54.79	96.55	18.22	-51.8	-53.7	15.0	0.00e+00	0	23	0	316669952	70	4315
2026-01-11 07:47:55.80	96.43	18.32	-51.8	-53.7	14.9	0.00e+00	0	23	0	318767104	70	4337
2026-01-11 07:47:56.80	96.30	18.43	-51.8	-53.7	15.0	0.00e+00	0	23	0	320864256	70	4306
2026-01-11 07:47:57.81	96.18	18.53	-51.8	-53.7	15.0	0.00e+00	0	23	0	321912832	70	4329
2026-01-11 07:47:58.82	96.05	18.64	-51.6	-53.5	14.9	0.00e+00	0	23	0	324009984	69	4462
2026-01-11 07:47:59.83	95.93	18.75	-51.7	-53.6	14.9	0.00e+00	0	23	0	326107136	69	4508
2026-01-11 07:48:00.84	95.80	18.85	-51.7	-53.6	14.9	0.00e+00	0	23	0	328204288	69	4510
2026-01-11 07:48:01.84	95.67	18.96	-51.7	-53.6	14.8	0.00e+00	0	23	0	330301440	69	4533
2026-01-11 07:48:02.85	95.54	19.07	-51.7	-53.6	14.9	0.00e+00	0	23	0	331350016	69	4514
2026-01-11 07:48:03.86	95.41	19.18	-51.7	-53.7	14.8	0.00e+00	0	23	0	333447168	69	4570
2026-01-11 07:48:04.87	95.28	19.28	-51.8	-53.7	14.8	0.00e+00	0	23	0	335544320	69	4591
2026-01-11 07:48:05.87	95.15	19.39	-51.9	-53.9	14.7	0.00e+00	0	23	0	337641472	69	4662
2026-01-11 07:48:06.88	95.01	19.50	-51.9	-53.9	14.7	0.00e+00	0	23	0	339738624	69	4666
2026-01-11 07:48:07.89	94.88	19.61	-52.0	-54.0	14.6	0.00e+00	0	23	0	340787200	69	4747
2026-01-11 07:48:08.90	94.74	19.72	-52.0	-54.0	14.7	0.00e+00	0	23	0	342884352	69	4724
2026-01-11 07:48:09.91	94.61	19.83	-52.1	-54.1	14.6	0.00e+00	0	23	0	344981504	69	4781
2026-01-11 07:48:10.92	94.47	19.94	-52.1	-54.2	14.5	0.00e+00	0	23	0	347078656	69	4852
2026-01-11 07:48:11.93	94.33	20.05	-52.1	-54.2	14.5	0.00e+00	0	23	0	349175808	69	4848
2026-01-11 07:48:12.93	94.19	20.16	-52.1	-54.1	14.6	0.00e+00	0	23	0	350224384	69	4802
2026-01-11 07:48:13.94	94.05	20.27	-52.1	-54.1	14.6	0.00e+00	0	23	0	352321536	69	4797
2026-01-11 07:48:14.95	93.91	20.38	-52.1	-54.2	14.5	0.00e+00	0	23	0	354418688	69	4817
2026-01-11 07:48:15.96	93.77	20.49	-52.1	-54.2	14.5	0.00e+00	0	23	0	356515840	69	4847
2026-01-11 07:48:16.97	93.63	20.61	-52.2	-54.3	14.5	0.00e+00	0	24	0	358612992	69	4920
2026-01-11 07:48:17.97	93.48	20.72	-52.2	-54.3	14.5	0.00e+00	0	23	0	359661568	69	4906
2026-01-11 07:48:18.98	93.34	20.83	-52.3	-54.4	14.4	0.00e+00	0	23	0	361758720	69	4967
2026-01-11 07:48:19.99	93.19	20.94	-52.2	-54.3	14.5	0.00e+00	0	23	0	363855872	69	4909
2026-01-11 07:48:21.00	93.04	21.06	-52.3	-54.5	14.4	0.00e+00	0	23	0	365953024	69	4997
2026-01-11 07:48:22.01	92.89	21.17	-52.3	-54.4	14.4	0.00e+00	0	23	0	368050176	69	4938
2026-01-11 07:48:23.01	92.74	21.28	-52.3	-54.4	14.4	0.00e+00	0	23	0	369098752	69	4959
2026-01-11 07:48:24.02	92.59	21.40	-52.3	-54.5	14.4	0.00e+00	0	23	0	371195904	69	4988
2026-01-11 07:48:25.03	92.44	21.51	-52.3	-54.4	14.4	0.00e+00	0	23	0	373293056	69	4980
2026-01-11 07:48:26.04	92.29	21.63	-52.3	-54.4	14.4	0.00e+00	0	23	0	375390208	69	4971
2026-01-11 07:48:27.05	92.13	21.74	-52.4	-54.5	14.4	0.00e+00	0	24	0	377487360	69	5033
2026-01-11 07:48:28.06	91.98	21.86	-52.5	-54.6	14.5	0.00e+00	0	23	0	379584512	70	4809
2026-01-11 07:48:29.07	91.82	21.97	-52.3	-54.4	14.6	0.00e+00	0	23	0	380633088	70	4701
2026-01-11 07:48:30.08	91.66	22.09	-52.2	-54.3	14.6	0.00e+00	0	23	0	382730240	70	4627
2026-01-11 07:48:31.09	91.50	22.21	-52.3	-54.3	14.6	0.00e+00	0	23	0	384827392	70	4649
2026-01-11 07:48:32.09	91.34	22.32	-52.2	-54.3	14.7	0.00e+00	0	23	0	386924544	70	4627
2026-01-11 07:48:33.10	91.18	22.44	-52.3	-54.3	14.6	0.00e+00	0	23	0	389021696	70	4641
2026-01-11 07:48:34.11	91.02	22.55	-52.1	-54.2	14.7	0.00e+00	0	23	0	390070272	70	4547
2026-01-11 07:48:35.11	90.85	22.67	-52.1	-54.1	14.8	0.00e+00	0	23	0	392167424	70	4508
2026-01-11 07:48:36.12	90.69	22.79	-52.1	-54.1	14.8	0.00e+00	0	23	0	394264576	70	4524
2026-01-11 07:48:37.13	90.52	22.91	-52.0	-53.9	14.9	0.00e+00	0	23	0	396361728	70	4410
2026-01-11 07:48:38.14	90.35	23.02	-51.9	-53.9	14.9	0.00e+00	0	23	0	398458880	70	4393
2026-01-11 07:48:39.15	90.18	23.14	-51.9	-53.8	15.0	0.00e+00	0	23	0	399507456	70	4357
2026-01-11 07:48:40.16	90.01	23.26	-51.9	-53.9	14.9	0.00e+00	0	23	0	401604608	70	4408
2026-01-11 07:48:41.16	89.84	23.38	-51.9	-53.9	14.9	0.00e+00	0	23	0	403701760	70	4398
2026-01-11 07:48:42.17	89.67	23.50	-51.9	-53.8	15.0	0.00e+00	0	23	0	405798912	70	4349
2026-01-11 07:48:43.18	89.49	23.62	-52.0	-53.9	14.9	0.00e+00	0	23	0	407896064	70	4421
2026-01-11 07:48:44.18	89.32	23.74	-51.9	-53.9	14.9	0.00e+00	0	23	0	408944640	70	4403
2026-01-11 07:48:45.19	89.14	23.86	-52.0	-53.9	14.9	0.00e+00	0	23	0	411041792	70	4417
2026-01-11 07:48:46.20	88.96	23.98	-52.0	-54.0	14.8	0.00e+00	0	23	0	413138944	70	4466
2026-01-11 07:48:47.21	88.78	24.10	-52.0	-54.0	14.9	0.00e+00	0	23	0	415236096	70	4459
2026-01-11 07:48:48.22	88.60	24.22	-52.0	-54.0	14.8	0.00e+00	0	23	0	417333248	70	4472
2026-01-11 07:48:49.23	88.42	24.34	-52.0	-54.0	14.8	0.00e+00	0	23	0	418381824	70	4482
2026-01-11 07:48:50.23	88.23	24.46	-52.1	-54.1	14.8	0.00e+00	0	23	0	420478976	70	4503
2026-01-11 07:48:51.24	88.05	24.58	-52.2	-54.2	14.7	0.00e+00	0	24	0	422576128	70	4578
2026-01-11 07:48:52.25	87.86	24.70	-52.2	-54.2	14.7	0.00e+00	0	23	0	424673280	70	4598
2026-01-11 07:48:53.25	87.67	24.82	-52.3	-54.3	14.7	0.00e+00	0	23	0	426770432	70	4628
2026-01-11 07:48:54.25	87.48	24.95	-52.3	-54.4	14.6	0.00e+00	0	23	0	427819008	70	4669
2026-01-11 07:48:55.26	87.29	25.07	-52.3	-54.4	14.6	0.00e+00	0	23	0	429916160	70	4671
2026-01-11 07:48:56.27	87.10	25.19	-52.2	-54.3	14.7	0.00e+00	0	23	0	432013312	70	4613
2026-01-11 07:48:57.28	86.90	25.31	-52.2	-54.2	14.7	0.00e+00	0	23	0	434110464	70	4591
2026-01-11 07:48:58.29	86.71	25.44	-52.2	-54.3	14.7	0.00e+00	0	23	0	436207616	70	4603
2026-01-11 07:48:59.29	86.51	25.56	-52.2	-54.2	14.7	0.00e+00	0	23	0	437256192	70	4577
2026-01-11 07:49:00.30	86.31	25.68	-52.3	-54.4	14.6	0.00e+00	0	23	0	439353344	70	4673
2026-01-11 07:49:01.31	86.11	25.81	-52.5	-54.7	14.5	0.00e+00	0	23	0	441450496	70	4823
2026-01-11 07:49:02.32	85.91	25.93	-52.7	-54.9	14.3	0.00e+00	0	23	0	443547648	70	4962
2026-01-11 07:49:03.33	85.70	26.05	-53.0	-55.2	14.2	0.00e+00	0	23	0	445644800	71	4868
2026-01-11 07:49:04.33	85.50	26.18	-53.1	-55.4	14.2	0.00e+00	0	24	0	446693376	71	4937
2026-01-11 07:49:05.34	85.29	26.30	-53.2	-55.6	14.1	0.00e+00	0	23	0	448790528	71	5066
2026-01-11 07:49:06.35	85.08	26.42	-53.3	-55.8	14.0	0.00e+00	0	23	0	450887680	71	5161
2026-01-11 07:49:07.36	84.87	26.55	-53.4	-55.8	13.9	0.00e+00	0	23	0	452984832	71	5218
2026-01-11 07:49:08.37	84.66	26.67	-53.4	-55.9	13.9	0.00e+00	0	23	0	455081984	71	5258
2026-01-11 07:49:09.37	84.45	26.80	-53.4	-55.9	14.0	0.00e+00	0	23	0	456130560	72	4978
2026-01-11 07:49:10.38	84.23	26.92	-53.6	-56.1	13.9	0.00e+00	0	23	0	458227712	72	5083
2026-01-11 07:49:11.39	84.01	27.05	-53.6	-56.2	13.8	0.00e+00	0	23	0	460324864	72	5116
2026-01-11 07:49:12.39	83.79	27.17	-53.6	-56.1	13.9	0.00e+00	0	23	0	462422016	72	5061
2026-01-11 07:49:13.40	83.57	27.30	-53.6	-56.2	13.8	0.00e+00	0	23	0	464519168	72	5142
2026-01-11 07:49:14.41	83.35	27.42	-53.7	-56.2	13.8	0.00e+00	0	23	0	465567744	72	5145
2026-01-11 07:49:15.42	83.12	27.55	-53.7	-56.4	13.7	0.00e+00	0	23	0	467664896	72	5223
2026-01-11 07:49:16.43	82.90	27.67	-53.7	-56.4	13.7	0.00e+00	0	23	0	469762048	72	5224
2026-01-11 07:49:17.43	82.67	27.80	-53.6	-56.1	13.9	0.00e+00	0	24	0	471859200	72	5054
2026-01-11 07:49:18.44	82.44	27.92	-53.5	-56.0	14.0	0.00e+00	0	24	0	473956352	72	5008
2026-01-11 07:49:19.45	82.21	28.05	-53.5	-56.0	14.0	0.00e+00	0	23	0	475004928	72	5010
2026-01-11 07:49:20.46	81.98	28.17	-53.4	-55.8	14.1	0.00e+00	0	23	0	477102080	72	4889
2026-01-11 07:49:21.47	81.74	28.30	-53.4	-55.9	14.0	0.00e+00	0	23	0	479199232	72	4952
2026-01-11 07:49:22.47	81.50	28.42	-53.5	-56.0	14.0	0.00e+00	0	23	0	481296384	72	5016
2026-01-11 07:49:23.48	81.27	28.55	-53.7	-56.4	13.7	0.00e+00	0	23	0	483393536	72	5226
2026-01-11 07:49:24.49	81.02	28.68	-53.7	-56.2	13.8	0.00e+00	0	23	0	484442112	72	5146
2026-01-11 07:49:25.50	80.78	28.80	-53.7	-56.2	13.9	0.00e+00	0	23	0	486539264	72	5123
2026-01-11 07:49:26.51	80.54	28.93	-53.7	-56.2	13.8	0.00e+00	0	23	0	488636416	72	5141
2026-01-11 07:49:27.52	80.29	29.05	-53.7	-56.2	13.8	0.00e+00	0	23	0	490733568	72	5139
2026-01-11 07:49:28.52	80.04	29.18	-53.7	-56.2	13.8	0.00e+00	0	23	0	492830720	72	5138
2026-01-11 07:49:29.53	79.79	29.30	-53.7	-56.4	13.7	0.00e+00	0	23	0	493879296	72	5230
2026-01-11 07:49:30.54	79.54	29.43	-53.7	-56.3	13.8	0.00e+00	0	23	0	495976448	72	5173
2026-01-11 07:49:31.54	79.28	29.55	-53.6	-56.1	13.9	0.00e+00	0	23	0	498073600	72	5066
2026-01-11 07:49:32.55	79.03	29.68	-53.6	-56.1	13.9	0.00e+00	0	23	0	500170752	72	5075
2026-01-11 07:49:33.56	78.77	29.80	-53.7	-56.2	13.9	0.00e+00	0	23	0	502267904	72	5121
2026-01-11 07:49:34.57	78.51	29.93	-53.7	-56.3	13.8	0.00e+00	0	23	0	503316480	72	5179
2026-01-11 07:49:35.58	78.24	30.05	-53.8	-56.4	13.8	0.00e+00	0	23	0	505413632	72	5222
2026-01-11 07:49:36.58	77.98	30.18	-53.8	-56.4	13.7	0.00e+00	0	23	0	507510784	72	5272
2026-01-11 07:49:37.59	77.71	30.30	-53.5	-56.0	14.0	0.00e+00	0	23	0	509607936	72	5034
2026-01-11 07:49:38.60	77.44	30.43	-53.5	-56.0	14.0	0.00e+00	0	23	0	511705088	72	5019
2026-01-11 07:49:39.60	77.18	30.55	-53.6	-56.1	13.9	0.00e+00	0	23	0	512753664	72	5042
2026-01-11 07:49:40.61	76.90	30.67	-53.6	-56.0	13.9	0.00e+00	0	23	0	514850816	72	5036
2026-01-11 07:49:41.62	76.63	30.80	-53.6	-56.1	13.9	0.00e+00	0	23	0	516947968	72	5048
2026-01-11 07:49:42.63	76.35	30.92	-53.5	-56.0	14.0	0.00e+00	0	23	0	519045120	72	5006
2026-01-11 07:49:43.64	76.07	31.04	-53.4	-55.8	14.1	0.00e+00	0	23	0	521142272	72	4884
2026-01-11 07:49:44.65	75.79	31.17	-53.3	-55.7	14.2	0.00e+00	0	24	0	523239424	72	4817
2026-01-11 07:49:45.66	75.50	31.29	-53.3	-55.6	14.2	0.00e+00	0	23	0	524288000	72	4783
2026-01-11 07:49:46.67	75.22	31.41	-53.2	-55.5	14.3	0.00e+00	0	23	0	526385152	72	4729
2026-01-11 07:49:47.68	74.93	31.54	-53.4	-55.8	14.1	0.00e+00	0	23	0	528482304	72	4907
2026-01-11 07:49:48.68	74.64	31.66	-53.6	-56.1	13.9	0.00e+00	0	23	0	530579456	72	5064
2026-01-11 07:49:49.69	74.35	31.78	-54.1	-56.8	13.6	0.00e+00	0	23	0	532676608	73	5185
2026-01-11 07:49:50.70	74.05	31.90	-54.0	-56.6	13.7	0.00e+00	0	23	0	533725184	73	5099
2026-01-11 07:49:51.71	73.75	32.02	-54.0	-56.7	13.7	0.00e+00	0	23	0	535822336	73	5109
2026-01-11 07:49:52.71	73.46	32.14	-54.1	-56.8	13.6	0.00e+00	0	23	0	537919488	73	5206
2026-01-11 07:49:53.72	73.15	32.26	-54.2	-57.0	13.5	0.00e+00	0	24	0	540016640	73	5324
2026-01-11 07:49:54.72	72.85	32.38	-54.3	-57.1	13.5	0.00e+00	0	23	0	541065216	73	5371
2026-01-11 07:49:55.73	72.55	32.50	-54.4	-57.3	13.4	0.00e+00	0	24	0	543162368	74	5212
2026-01-11 07:49:56.74	72.24	32.62	-54.6	-57.6	13.2	0.00e+00	0	23	0	545259520	74	5347
2026-01-11 07:49:57.75	71.93	32.73	-54.4	-57.2	13.5	0.00e+00	0	23	0	547356672	74	5130
2026-01-11 07:49:58.76	71.61	32.85	-54.5	-57.5	13.3	0.00e+00	0	24	0	549453824	74	5322
2026-01-11 07:49:59.77	71.30	32.97	-54.7	-57.8	13.1	0.00e+00	0	24	0	551550976	74	5486
2026-01-11 07:50:00.77	70.98	33.08	-54.9	-58.1	12.8	0.00e+00	0	23	0	552599552	74	5669
2026-01-11 07:50:01.78	70.66	33.20	-54.8	-58.0	12.9	0.00e+00	0	24	0	554696704	74	5637
2026-01-11 07:50:02.79	70.34	33.32	-54.7	-57.7	13.2	0.00e+00	0	23	0	556793856	74	5463
2026-01-11 07:50:03.80	70.02	33.43	-54.8	-57.9	13.0	0.00e+00	0	23	0	558891008	74	5565
2026-01-11 07:50:04.80	69.69	33.54	-55.1	-58.5	12.7	0.00e+00	0	23	0	560988160	75	5616
2026-01-11 07:50:05.81	69.36	33.66	-55.6	-59.3	12.3	0.00e+00	0	23	0	562036736	76	5801
2026-01-11 07:50:06.82	69.03	33.77	-55.6	-59.3	12.2	3.80e-06	0	23	0	564133888	76	5841
2026-01-11 07:50:07.83	68.70	33.88	-55.7	-59.5	12.1	5.30e-06	0	23	0	566231040	76	5983
2026-01-11 07:50:08.84	68.36	34.00	-55.8	-59.8	11.8	8.30e-06	0	23	0	568328192	76	6189
2026-01-11 07:50:09.85	68.02	34.11	-56.1	-60.3	11.6	2.05e-05	0	23	0	570425344	77	6176
2026-01-11 07:50:10.86	67.68	34.22	-56.1	-60.4	11.5	5.72e-05	0	23	0	571473920	77	6210
2026-01-11 07:50:11.87	67.34	34.33	-56.1	-60.6	11.3	7.70e-05	0	24	0	573571072	77	6356
2026-01-11 07:50:12.87	67.00	34.43	-56.0	-60.3	11.6	6.71e-05	0	23	0	575668224	77	6147
2026-01-11 07:50:13.88	66.65	34.54	-55.7	-59.5	12.2	2.05e-05	0	23	0	577765376	77	5637
2026-01-11 07:50:14.88	66.30	34.65	-55.5	-59.0	12.6	7.00e-07	0	23	0	579862528	77	5306
2026-01-11 07:50:15.89	65.95	34.75	-55.0	-58.2	13.1	0.00e+00	0	23	0	580911104	76	5143
2026-01-11 07:50:16.90	65.60	34.86	-54.9	-58.0	13.3	0.00e+00	0	23	0	583008256	76	5020
2026-01-11 07:50:17.91	65.24	34.96	-54.9	-57.9	13.3	0.00e+00	0	23	0	585105408	76	4963
2026-01-11 07:50:18.91	64.88	35.06	-54.9	-57.9	13.3	0.00e+00	0	23	0	587202560	76	4964
2026-01-11 07:50:19.92	64.52	35.17	-54.8	-57.7	13.4	0.00e+00	0	23	0	589299712	76	4857
2026-01-11 07:50:20.93	64.16	35.27	-54.5	-57.4	13.6	0.00e+00	0	23	0	590348288	75	4982
2026-01-11 07:50:21.94	63.79	35.37	-54.4	-57.2	13.7	0.00e+00	0	23	0	592445440	75	4841
2026-01-11 07:50:22.95	63.42	35.47	-54.4	-57.2	13.6	0.00e+00	0	23	0	594542592	75	4849
2026-01-11 07:50:23.95	63.06	35.56	-54.4	-57.2	13.6	0.00e+00	0	23	0	596639744	75	4861
2026-01-11 07:50:24.96	62.68	35.66	-54.3	-57.1	13.7	0.00e+00	0	23	0	598736896	75	4792
2026-01-11 07:50:25.97	62.31	35.76	-54.3	-57.0	13.8	0.00e+00	0	23	0	599785472	75	4718
2026-01-11 07:50:26.98	61.93	35.85	-53.9	-56.5	14.0	0.00e+00	0	23	0	601882624	74	4707
2026-01-11 07:50:27.99	61.55	35.95	-53.5	-55.9	14.2	0.00e+00	0	23	0	603979776	73	4678
2026-01-11 07:50:28.99	61.17	36.04	-53.4	-55.8	14.4	0.00e+00	0	23	0	606076928	73	4608
2026-01-11 07:50:30.00	60.79	36.13	-52.9	-55.0	14.6	0.00e+00	0	24	0	608174080	72	4485
2026-01-11 07:50:31.01	60.40	36.22	-52.7	-54.8	14.8	0.00e+00	0	23	0	609222656	72	4360
2026-01-11 07:50:32.02	60.02	36.31	-52.6	-54.7	14.7	0.00e+00	0	23	0	611319808	71	4548
2026-01-11 07:50:33.02	59.63	36.40	-52.5	-54.5	14.8	0.00e+00	0	23	0	613416960	71	4458
2026-01-11 07:50:34.03	59.24	36.48	-52.4	-54.4	14.9	0.00e+00	0	24	0	615514112	71	4402
2026-01-11 07:50:35.03	58.85	36.57	-52.4	-54.4	14.9	0.00e+00	0	23	0	617611264	71	4412
2026-01-11 07:50:36.05	58.45	36.65	-52.4	-54.3	14.9	0.00e+00	0	23	0	618659840	71	4369
2026-01-11 07:50:37.05	58.05	36.73	-52.3	-54.3	14.9	0.00e+00	0	23	0	620756992	71	4359
2026-01-11 07:50:38.06	57.65	36.81	-52.3	-54.2	14.9	0.00e+00	0	23	0	622854144	71	4321
2026-01-11 07:50:39.07	57.25	36.89	-52.2	-54.1	14.8	0.00e+00	0	23	0	624951296	70	4539
2026-01-11 07:50:40.08	56.85	36.97	-52.2	-54.1	14.8	0.00e+00	0	23	0	627048448	70	4509
2026-01-11 07:50:41.09	56.44	37.05	-51.9	-53.8	15.0	0.00e+00	0	23	0	628097024	70	4344
2026-01-11 07:50:42.09	56.04	37.12	-51.8	-53.6	15.1	0.00e+00	0	24	0	630194176	70	4279
2026-01-11 07:50:43.10	55.63	37.20	-51.7	-53.5	15.2	0.00e+00	0	23	0	632291328	70	4210
2026-01-11 07:50:44.11	55.21	37.27	-51.9	-53.7	15.1	0.00e+00	0	23	0	634388480	70	4315
2026-01-11 07:50:45.12	54.80	37.34	-52.0	-53.9	15.0	0.00e+00	0	23	0	636485632	70	4402
2026-01-11 07:50:46.13	54.39	37.41	-51.9	-53.7	15.0	0.00e+00	0	23	0	637534208	70	4336
2026-01-11 07:50:47.14	53.97	37.47	-51.7	-53.5	15.2	0.00e+00	0	23	0	639631360	70	4212
2026-01-11 07:50:48.14	53.55	37.54	-51.8	-53.6	15.1	0.00e+00	0	23	0	641728512	70	4283
2026-01-11 07:50:49.15	53.13	37.60	-51.5	-53.2	15.2	0.00e+00	0	23	0	643825664	69	4301
2026-01-11 07:50:50.16	52.71	37.67	-51.5	-53.2	15.2	0.00e+00	0	23	0	645922816	69	4307
2026-01-11 07:50:51.17	52.29	37.73	-51.3	-53.0	15.3	0.00e+00	0	23	0	646971392	69	4203
2026-01-11 07:50:52.18	51.86	37.79	-51.0	-52.6	15.3	0.00e+00	0	23	0	649068544	68	4280
2026-01-11 07:50:53.19	51.43	37.84	-50.7	-52.3	15.5	0.00e+00	0	23	0	651165696	68	4116
2026-01-11 07:50:54.19	51.01	37.90	-50.8	-52.4	15.4	0.00e+00	0	23	0	653262848	68	4153
2026-01-11 07:50:55.20	50.58	37.95	-51.0	-52.7	15.3	0.00e+00	0	23	0	655360000	68	4295
2026-01-11 07:50:56.21	50.15	38.01	-51.1	-52.7	15.2	0.00e+00	0	23	0	656408576	68	4330
2026-01-11 07:50:57.22	49.72	38.06	-51.1	-52.8	15.2	0.00e+00	0	23	0	658505728	68	4374
2026-01-11 07:50:58.23	49.28	38.11	-51.2	-52.9	15.1	0.00e+00	0	23	0	660602880	68	4425
2026-01-11 07:50:59.24	48.85	38.15	-51.1	-52.8	15.2	0.00e+00	0	23	0	662700032	68	4343
2026-01-11 07:51:00.24	48.42	38.20	-51.2	-52.9	15.2	0.00e+00	0	24	0	664797184	68	4418
2026-01-11 07:51:01.25	47.98	38.24	-51.0	-52.6	15.3	0.00e+00	0	24	0	665845760	68	4280
2026-01-11 07:51:02.26	47.54	38.28	-50.8	-52.3	15.5	0.00e+00	0	24	0	667942912	68	4145
2026-01-11 07:51:03.27	47.10	38.32	-50.5	-52.0	15.4	0.00e+00	0	23	0	670040064	67	4233
2026-01-11 07:51:04.28	46.66	38.36	-50.5	-52.1	15.4	0.00e+00	0	24	0	672137216	67	4264
2026-01-11 07:51:05.28	46.22	38.39	-50.3	-51.8	15.5	0.00e+00	0	23	0	674234368	67	4140
2026-01-11 07:51:06.29	45.78	38.43	-50.3	-51.8	15.5	0.00e+00	0	23	0	675282944	67	4139
2026-01-11 07:51:07.30	45.34	38.46	-50.2	-51.7	15.5	0.00e+00	0	23	0	677380096	67	4083
2026-01-11 07:51:08.30	44.90	38.49	-50.3	-51.9	15.5	0.00e+00	0	23	0	679477248	67	4150
2026-01-11 07:51:09.31	44.45	38.52	-50.4	-51.9	15.5	0.00e+00	0	23	0	681574400	67	4164
2026-01-11 07:51:10.31	44.01	38.54	-50.5	-52.0	15.4	0.00e+00	0	23	0	683671552	67	4228
2026-01-11 07:51:11.32	43.56	38.57	-50.7	-52.3	15.2	0.00e+00	0	24	0	684720128	67	4352
2026-01-11 07:51:12.33	43.11	38.59	-50.8	-52.5	15.2	0.00e+00	0	23	0	686817280	67	4450
2026-01-11 07:51:13.33	42.67	38.61	-51.0	-52.7	15.1	0.00e+00	0	23	0	688914432	67	4573
2026-01-11 07:51:14.34	42.22	38.63	-51.1	-52.8	15.0	0.00e+00	0	23	0	691011584	67	4648
2026-01-11 07:51:15.35	41.77	38.65	-51.2	-52.9	14.9	0.00e+00	0	23	0	693108736	67	4669
2026-01-11 07:51:16.36	41.32	38.66	-51.3	-53.1	14.9	0.00e+00	0	23	0	694157312	67	4763
2026-01-11 07:51:17.37	40.87	38.67	-51.7	-53.6	14.8	0.00e+00	0	23	0	696254464	68	4776
2026-01-11 07:51:18.38	40.42	38.68	-51.9	-53.8	14.9	0.00e+00	0	23	0	698351616	69	4616
2026-01-11 07:51:19.39	39.97	38.69	-52.0	-53.8	14.8	0.00e+00	0	23	0	700448768	69	4643
2026-01-11 07:51:20.39	39.53	38.70	-52.1	-53.9	14.8	0.00e+00	0	23	0	702545920	69	4703
2026-01-11 07:51:21.40	39.08	38.70	-52.1	-54.1	14.7	0.00e+00	0	23	0	704643072	69	4782
2026-01-11 07:51:22.41	38.63	38.70	-52.4	-54.5	14.5	0.00e+00	0	23	0	705691648	70	4748
2026-01-11 07:51:23.42	38.18	38.70	-52.2	-54.9	14.5	0.00e+00	0	23	0	707788800	70	4935
2026-01-11 07:51:24.43	37.73	38.70	-52.6	-54.7	14.6	0.00e+00	0	23	0	709885952	70	4823
2026-01-11 07:51:25.43	37.28	38.70	-52.5	-54.5	14.6	0.00e+00	0	23	0	711983104	70	4744
2026-01-11 07:51:26.44	36.83	38.69	-52.6	-54.6	14.6	0.00e+00	0	23	0	714080256	70	4774
2026-01-11 07:51:27.45	36.38	38.68	-52.6	-54.6	14.6	0.00e+00	0	23	0	715128832	70	4785
2026-01-11 07:51:28.46	35.93	38.67	-52.6	-54.7	14.6	0.00e+00	0	23	0	717225984	70	4835
2026-01-11 07:51:29.46	35.48	38.66	-52.6	-54.6	14.6	0.00e+00	0	23	0	719323136	70	4789
2026-01-11 07:51:30.47	35.03	38.65	-52.6	-54.7	14.5	0.00e+00	0	23	0	721420288	70	4825
2026-01-11 07:51:31.47	34.59	38.63	-52.8	-54.9	14.4	0.00e+00	0	23	0	722468864	70	4951
2026-01-11 07:51:32.48	34.14	38.61	-52.8	-54.9	14.4	0.00e+00	0	23	0	724566016	70	4965
2026-01-11 07:51:33.49	33.69	38.60	-52.9	-55.0	14.4	0.00e+00	0	23	0	726663168	70	5021
2026-01-11 07:51:34.50	33.25	38.57	-53.1	-55.4	14.3	0.00e+00	0	23	0	728760320	71	4951
2026-01-11 07:51:35.50	32.80	38.55	-53.3	-55.5	14.2	0.00e+00	0	23	0	730857472	71	5036
2026-01-11 07:51:36.51	32.36	38.52	-53.4	-55.7	14.1	0.00e+00	0	23	0	732954624	71	5137
2026-01-11 07:51:37.52	31.91	38.50	-53.3	-55.6	14.2	0.00e+00	0	23	0	734003200	71	5050
2026-01-11 07:51:38.53	31.47	38.47	-53.5	-55.8	14.1	0.00e+00	0	23	0	736100352	72	4918
2026-01-11 07:51:39.53	31.03	38.44	-53.7	-56.1	13.9	0.00e+00	0	23	0	738197504	72	5097
2026-01-11 07:51:40.54	30.59	38.40	-53.7	-56.1	14.0	0.00e+00	0	23	0	740294656	72	5059
2026-01-11 07:51:41.55	30.14	38.37	-53.7	-56.1	14.0	0.00e+00	0	23	0	742391808	72	5060
2026-01-11 07:51:42.56	29.70	38.33	-53.8	-56.3	13.9	0.00e+00	0	23	0	743440384	72	5182
2026-01-11 07:51:43.57	29.26	38.29	-54.0	-56.6	13.8	0.00e+00	0	23	0	745537536	73	5061
2026-01-11 07:51:44.58	28.83	38.25	-54.0	-56.7	13.8	0.00e+00	0	23	0	747634688	73	5105
2026-01-11 07:51:45.59	28.39	38.21	-54.0	-56.6	13.8	0.00e+00	0	23	0	749731840	73	5098
2026-01-11 07:51:46.60	27.95	38.16	-54.2	-56.8	13.7	0.00e+00	0	24	0	751828992	73	5216
2026-01-11 07:51:47.60	27.52	38.12	-54.3	-57.0	13.6	0.00e+00	0	23	0	752877568	73	5315
2026-01-11 07:51:48.61	27.09	38.07	-54.2	-56.9	13.7	0.00e+00	0	24	0	754974720	73	5220
2026-01-11 07:51:49.63	26.65	38.02	-54.0	-56.6	13.8	0.00e+00	0	23	0	757071872	73	5080
2026-01-11 07:51:50.63	26.22	37.96	-53.8	-56.3	14.0	0.00e+00	0	23	0	759169024	73	4908
2026-01-11 07:51:51.64	25.79	37.91	-53.9	-56.4	14.0	0.00e+00	0	23	0	761266176	73	4933
2026-01-11 07:51:52.65	25.37	37.86	-53.9	-56.4	14.0	0.00e+00	0	23	0	762314752	73	4949
2026-01-11 07:51:53.66	24.94	37.80	-53.8	-56.3	14.0	0.00e+00	0	23	0	764411904	73	4898
2026-01-11 07:51:54.67	24.51	37.74	-53.8	-56.3	14.0	0.00e+00	0	23	0	766509056	73	4900
2026-01-11 07:51:55.67	24.09	37.68	-53.6	-55.9	14.3	0.00e+00	0	23	0	768606208	73	4671
2026-01-11 07:51:56.67	23.68	37.62	-53.3	-55.5	14.5	0.00e+00	0	23	0	770703360	73	4486
2026-01-11 07:51:57.68	23.26	37.55	-53.0	-55.1	14.6	0.00e+00	0	23	0	771751936	72	4513
2026-01-11 07:51:58.69	22.84	37.49	-53.0	-55.1	14.6	0.00e+00	0	23	0	773849088	72	4516
2026-01-11 07:51:59.70	22.42	37.42	-52.7	-54.8	14.8	0.00e+00	0	23	0	775946240	72	4344
2026-01-11 07:52:00.70	22.01	37.35	-52.5	-54.5	14.8	0.00e+00	0	24	0	778043392	71	4463
2026-01-11 07:52:01.71	21.60	37.28	-52.4	-54.4	14.9	0.00e+00	0	23	0	780140544	71	4421
2026-01-11 07:52:02.72	21.18	37.21	-52.3	-54.2	15.0	0.00e+00	0	23	0	781189120	71	4340
2026-01-11 07:52:03.72	20.78	37.14	-51.8	-53.6	15.1	0.00e+00	0	23	0	783286272	70	4252
2026-01-11 07:52:04.73	20.37	37.06	-51.7	-53.5	15.2	0.00e+00	0	23	0	785383424	70	4199
2026-01-11 07:52:05.74	19.96	36.99	-51.6	-53.3	15.2	0.00e+00	0	23	0	787480576	69	4380
2026-01-11 07:52:06.75	19.56	36.91	-51.2	-52.9	15.3	0.00e+00	0	23	0	789577728	69	4149
2026-01-11 07:52:07.75	19.16	36.83	-51.2	-52.8	15.2	0.00e+00	0	23	0	790626304	68	4371
2026-01-11 07:52:08.76	18.76	36.75	-51.2	-52.8	15.2	0.00e+00	0	23	0	792723456	68	4385
2026-01-11 07:52:09.77	18.36	36.67	-51.1	-52.8	15.2	0.00e+00	0	23	0	794820608	68	4342
2026-01-11 07:52:10.78	17.97	36.59	-51.0	-52.6	15.3	0.00e+00	0	23	0	796917760	68	4265
2026-01-11 07:52:11.79	17.57	36.50	-50.8	-52.4	15.4	0.00e+00	0	23	0	799014912	68	4156
2026-01-11 07:52:12.80	17.18	36.41	-50.7	-52.3	15.5	0.00e+00	0	23	0	800063488	68	4102
2026-01-11 07:52:13.81	16.79	36.33	-50.9	-52.5	15.4	0.00e+00	0	23	0	802160640	68	4225
2026-01-11 07:52:14.82	16.40	36.24	-51.1	-52.8	15.2	0.00e+00	0	23	0	804257792	68	4363
2026-01-11 07:52:15.82	16.02	36.15	-51.3	-53.0	15.1	0.00e+00	0	23	0	806354944	68	4442
2026-01-11 07:52:16.83	15.64	36.06	-51.3	-53.0	15.1	0.00e+00	0	23	0	808452096	68	4446
2026-01-11 07:52:17.84	15.26	35.97	-51.2	-52.9	15.1	0.00e+00	0	23	0	809500672	68	4421
2026-01-11 07:52:18.85	14.88	35.87	-51.4	-53.1	15.1	0.00e+00	0	23	0	811597824	68	4500
2026-01-11 07:52:19.86	14.50	35.78	-51.5	-53.2	15.0	0.00e+00	0	23	0	813694976	68	4597
2026-01-11 07:52:20.87	14.13	35.68	-51.7	-53.5	14.9	0.00e+00	0	23	0	815792128	68	4724
2026-01-11 07:52:21.88	13.75	35.59	-51.7	-53.6	14.8	0.00e+00	0	23	0	817889280	68	4761
2026-01-11 07:52:22.89	13.38	35.49	-51.9	-53.8	14.7	0.00e+00	0	24	0	818937856	68	4881
2026-01-11 07:52:23.90	13.01	35.39	-51.9	-53.8	14.9	0.00e+00	0	23	0	821035008	69	4630
2026-01-11 07:52:24.91	12.65	35.29	-51.9	-53.7	14.9	0.00e+00	0	24	0	823132160	69	4575
2026-01-11 07:52:25.92	12.28	35.19	-51.8	-53.6	15.0	0.00e+00	0	23	0	825229312	69	4529
2026-01-11 07:52:26.93	11.92	35.09	-52.0	-53.9	14.8	0.00e+00	0	23	0	827326464	69	4671
2026-01-11 07:52:27.94	11.56	34.98	-52.1	-54.1	14.7	0.00e+00	0	23	0	828375040	69	4766
2026-01-11 07:52:28.94	11.21	34.88	-52.3	-54.3	14.6	0.00e+00	0	24	0	830472192	69	4895
2026-01-11 07:52:29.95	10.86	34.78	-52.4	-54.4	14.5	0.00e+00	0	24	0	832569344	69	4960
2026-01-11 07:52:30.96	10.50	34.67	-52.4	-54.4	14.6	0.00e+00	0	24	0	834666496	69	4951
2026-01-11 07:52:31.97	10.15	34.56	-52.5	-54.5	14.5	0.00e+00	0	23	0	836763648	70	4740
2026-01-11 07:52:32.98	9.81	34.46	-52.3	-54.3	14.7	0.00e+00	0	24	0	837812224	70	4629
2026-01-11 07:52:33.99	9.46	34.35	-52.3	-54.2	14.8	0.00e+00	0	24	0	839909376	70	4574
2026-01-11 07:52:34.99	9.12	34.24	-52.4	-54.4	14.7	0.00e+00	0	24	0	842006528	70	4686
2026-01-11 07:52:35.99	8.79	34.13	-52.4	-54.4	14.7	0.00e+00	0	23	0	844103680	70	4679
2026-01-11 07:52:37.00	8.45	34.02	-52.4	-54.4	14.7	0.00e+00	0	23	0	846200832	70	4667
2026-01-11 07:52:38.01	8.11	33.91	-52.5	-54.5	14.6	0.00e+00	0	23	0	847249408	70	4719
2026-01-11 07:52:39.02	7.78	33.80	-52.5	-54.5	14.7	0.00e+00	0	24	0	849346560	70	4710
2026-01-11 07:52:40.03	7.45	33.69	-52.3	-54.2	14.8	0.00e+00	0	23	0	851443712	70	4562
2026-01-11 07:52:41.04	7.12	33.57	-52.2	-54.1	14.8	0.00e+00	0	24	0	853540864	70	4512
2026-01-11 07:52:42.04	6.79	33.46	-52.2	-54.1	14.8	0.00e+00	0	24	0	855638016	70	4538
2026-01-11 07:52:43.05	6.47	33.35	-52.4	-54.3	14.7	0.00e+00	0	23	0	857735168	70	4632
2026-01-11 07:52:44.06	6.15	33.23	-52.3	-54.3	14.7	0.00e+00	0	24	0	858783744	70	4612
2026-01-11 07:52:45.06	5.83	33.12	-52.4	-54.4	14.6	0.00e+00	0	23	0	860880896	70	4680
2026-01-11 07:52:46.07	5.51	33.00	-52.7	-54.8	14.5	0.00e+00	0	23	0	862978048	70	4905
2026-01-11 07:52:47.08	5.20	32.88	-53.0	-55.2	14.4	0.00e+00	0	23	0	865075200	71	4833
2026-01-11 07:52:48.09	4.88	32.77	-53.2	-55.4	14.3	0.00e+00	0	24	0	866123776	71	4954
2026-01-11 07:52:49.09	4.58	32.65	-53.0	-55.2	14.4	0.00e+00	0	23	0	868220928	71	4854
2026-01-11 07:52:50.10	4.27	32.53	-53.0	-55.2	14.4	0.00e+00	0	23	0	870318080	71	4845
2026-01-11 07:52:51.11	3.96	32.41	-53.2	-55.5	14.2	0.00e+00	0	23	0	872415232	71	4991
2026-01-11 07:52:52.11	3.66	32.29	-53.3	-55.6	14.1	0.00e+00	0	24	0	874512384	71	5099
2026-01-11 07:52:53.12	3.36	32.17	-53.5	-55.9	14.1	0.00e+00	0	23	0	875560960	72	4932
2026-01-11 07:52:54.13	3.06	32.05	-53.6	-56.0	14.0	0.00e+00	0	24	0	877658112	72	5025
2026-01-11 07:52:55.14	2.76	31.93	-53.7	-56.1	14.0	0.00e+00	0	23	0	879755264	72	5083
2026-01-11 07:52:56.15	2.47	31.81	-53.8	-56.2	13.9	0.00e+00	0	23	0	881852416	72	5146
2026-01-11 07:52:57.15	2.18	31.69	-53.8	-56.3	13.9	0.00e+00	0	23	0	883949568	72	5190
2026-01-11 07:52:58.16	1.89	31.57	-53.9	-56.4	13.8	0.00e+00	0	24	0	886046720	72	5240
2026-01-11 07:52:59.17	1.60	31.45	-53.8	-56.4	13.8	0.00e+00	0	24	0	887095296	72	5240
2026-01-11 07:53:00.18	1.31	31.33	-54.0	-56.5	13.8	0.00e+00	0	23	0	889192448	73	5032
2026-01-11 07:53:01.19	1.03	31.20	-54.0	-56.5	13.9	0.00e+00	0	23	0	891289600	73	5033
2026-01-11 07:53:02.20	0.75	31.08	-53.9	-56.4	14.0	0.00e+00	0	23	0	893386752	73	4958
2026-01-11 07:53:03.21	0.47	30.96	-53.7	-56.2	14.1	0.00e+00	0	23	0	895483904	73	4817
2026-01-11 07:53:04.21	0.19	30.84	-53.6	-56.0	14.2	0.00e+00	0	23	0	896532480	73	4752
2026-01-11 07:53:05.22	359.92	30.71	-53.6	-56.0	14.2	0.00e+00	0	23	0	898629632	73	4713
2026-01-11 07:53:06.22	359.65	30.59	-53.4	-55.7	14.4	0.00e+00	0	23	0	900726784	73	4598
2026-01-11 07:53:07.23	359.37	30.47	-53.5	-55.8	14.3	0.00e+00	0	23	0	902823936	73	4619
2026-01-11 07:53:08.23	359.11	30.34	-53.6	-56.0	14.2	0.00e+00	0	23	0	903872512	73	4735
2026-01-11 07:53:09.24	358.84	30.22	-53.6	-56.1	14.2	0.00e+00	0	23	0	905969664	73	4761
2026-01-11 07:53:10.25	358.58	30.09	-53.5	-55.9	14.3	0.00e+00	0	24	0	908066816	73	4685
2026-01-11 07:53:11.26	358.31	29.97	-53.4	-55.7	14.4	0.00e+00	0	23	0	910163968	73	4562
2026-01-11 07:53:12.27	358.05	29.85	-53.4	-55.7	14.4	0.00e+00	0	24	0	912261120	73	4559
2026-01-11 07:53:13.28	357.79	29.72	-53.1	-55.3	14.5	0.00e+00	0	23	0	914358272	72	4638
2026-01-11 07:53:14.29	357.54	29.60	-53.0	-55.1	14.6	0.00e+00	0	23	0	915406848	72	4509
2026-01-11 07:53:15.30	357.28	29.47	-52.9	-55.0	14.7	0.00e+00	0	23	0	917504000	72	4459
2026-01-11 07:53:16.30	357.03	29.35	-52.8	-54.9	14.7	0.00e+00	0	23	0	919601152	72	4406
2026-01-11 07:53:17.32	356.78	29.22	-52.6	-54.6	14.8	0.00e+00	0	24	0	921698304	71	4504
2026-01-11 07:53:18.32	356.53	29.10	-52.5	-54.5	14.8	0.00e+00	0	23	0	923795456	71	4471
2026-01-11 07:53:19.34	356.28	28.97	-52.5	-54.5	14.8	0.00e+00	0	23	0	924844032	71	4468
2026-01-11 07:53:20.34	356.04	28.85	-52.6	-54.6	14.7	0.00e+00	0	23	0	926941184	71	4527
2026-01-11 07:53:21.35	355.80	28.72	-52.6	-54.6	14.7	0.00e+00	0	24	0	929038336	71	4543
2026-01-11 07:53:22.36	355.55	28.59	-52.5	-54.5	14.8	0.00e+00	0	24	0	931135488	71	4454
2026-01-11 07:53:23.37	355.32	28.47	-52.5	-54.5	14.7	0.00e+00	0	23	0	933232640	71	4490
2026-01-11 07:53:24.37	355.08	28.35	-52.6	-54.6	14.7	0.00e+00	0	24	0	934281216	71	4531
2026-01-11 07:53:25.38	354.85	28.22	-52.4	-54.4	14.9	0.00e+00	0	23	0	936378368	71	4404
2026-01-11 07:53:26.39	354.61	28.09	-52.2	-54.1	15.0	0.00e+00	0	23	0	938475520	71	4275
2026-01-11 07:53:27.39	354.38	27.97	-52.0	-53.9	14.9	0.00e+00	0	24	0	940572672	70	4419
2026-01-11 07:53:28.40	354.15	27.85	-52.0	-53.9	15.0	0.00e+00	0	24	0	942669824	70	4393
2026-01-11 07:53:29.40	353.93	27.72	-51.9	-53.7	15.0	0.00e+00	0	24	0	943718400	70	4333
2026-01-11 07:53:30.42	353.70	27.59	-52.0	-53.9	15.0	0.00e+00	0	23	0	945815552	70	4408
2026-01-11 07:53:31.42	353.48	27.47	-52.1	-54.0	14.9	0.00e+00	0	23	0	947912704	70	4474
2026-01-11 07:53:32.42	353.25	27.35	-52.0	-53.9	15.0	0.00e+00	0	23	0	950009856	70	4419
2026-01-11 07:53:33.43	353.03	27.22	-52.1	-53.9	14.9	0.00e+00	0	24	0	952107008	70	4440
2026-01-11 07:53:34.44	352.81	27.10	-52.0	-53.9	15.0	0.00e+00	0	23	0	953155584	70	4392
2026-01-11 07:53:35.45	352.60	26.97	-52.0	-53.9	15.0	0.00e+00	0	23	0	955252736	70	4434
2026-01-11 07:53:36.46	352.38	26.85	-52.0	-53.9	15.0	0.00e+00	0	23	0	957349888	70	4416
2026-01-11 07:53:37.47	352.17	26.72	-52.0	-53.9	15.0	0.00e+00	0	23	0	959447040	70	4395
2026-01-11 07:53:38.48	351.95	26.60	-52.1	-54.0	14.9	0.00e+00	0	24	0	961544192	70	4447
2026-01-11 07:53:39.48	351.75	26.48	-52.0	-53.9	15.0	0.00e+00	0	23	0	962592768	70	4397
2026-01-11 07:53:40.49	351.54	26.35	-52.1	-54.0	14.9	0.00e+00	0	23	0	964689920	70	4457
2026-01-11 07:53:41.50	351.33	26.23	-52.0	-53.8	15.0	0.00e+00	0	24	0	966787072	70	4383
2026-01-11 07:53:42.50	351.12	26.11	-52.0	-53.8	15.0	0.00e+00	0	23	0	968884224	70	4380
2026-01-11 07:53:43.51	350.92	25.98	-52.0	-53.9	15.0	0.00e+00	0	23	0	970981376	70	4423
2026-01-11 07:53:44.52	350.72	25.86	-51.9	-53.8	15.0	0.00e+00	0	23	0	972029952	70	4352
2026-01-11 07:53:45.53	350.52	25.74	-51.8	-53.6	15.1	0.00e+00	0	23	0	974127104	70	4273
2026-01-11 07:53:46.54	350.32	25.61	-51.8	-53.7	15.1	0.00e+00	0	23	0	976224256	70	4297
2026-01-11 07:53:47.54	350.12	25.49	-51.8	-53.6	15.1	0.00e+00	0	24	0	978321408	70	4254
2026-01-11 07:53:48.55	349.93	25.37	-51.8	-53.6	15.2	0.00e+00	0	23	0	980418560	70	4249
2026-01-11 07:53:49.56	349.73	25.25	-51.5	-53.2	15.1	0.00e+00	0	24	0	981467136	69	4321
2026-01-11 07:53:50.57	349.54	25.12	-51.5	-53.2	15.1	0.00e+00	0	24	0	983564288	69	4336
2026-01-11 07:53:51.58	349.35	25.00	-51.5	-53.2	15.1	0.00e+00	0	23	0	985661440	69	4337
2026-01-11 07:53:52.58	349.16	24.88	-51.5	-53.2	15.2	0.00e+00	0	24	0	987758592	69	4327
2026-01-11 07:53:53.59	348.97	24.76	-51.4	-53.2	15.2	0.00e+00	0	24	0	989855744	69	4298
2026-01-11 07:53:54.60	348.78	24.64	-51.6	-53.4	15.1	0.00e+00	0	23	0	990904320	69	4396
2026-01-11 07:53:55.61	348.60	24.52	-51.6	-53.4	15.1	0.00e+00	0	23	0	993001472	69	4413
2026-01-11 07:53:56.61	348.41	24.40	-51.7	-53.5	15.0	0.00e+00	0	23	0	995098624	69	4480
2026-01-11 07:53:57.62	348.23	24.28	-51.7	-53.5	15.0	0.00e+00	0	23	0	997195776	69	4446
2026-01-11 07:53:58.63	348.05	24.16	-51.7	-53.6	15.0	0.00e+00	0	23	0	999292928	69	4502
2026-01-11 07:53:59.64	347.87	24.04	-51.8	-53.7	14.9	0.00e+00	0	23	0	1000341504	69	4567
2026-01-11 07:54:00.65	347.69	23.92	-51.8	-53.7	14.9	0.00e+00	0	23	0	1002438656	69	4547
2026-01-11 07:54:01.66	347.51	23.80	-51.9	-53.8	14.8	0.00e+00	0	23	0	1004535808	69	4615
2026-01-11 07:54:02.66	347.34	23.68	-51.8	-53.6	14.9	0.00e+00	0	23	0	1006632960	69	4539
2026-01-11 07:54:03.67	347.16	23.56	-51.7	-53.5	15.0	0.00e+00	0	23	0	1008730112	69	4469
2026-01-11 07:54:04.68	346.99	23.44	-51.7	-53.6	14.9	0.00e+00	0	24	0	1009778688	69	4507
2026-01-11 07:54:05.69	346.82	23.32	-51.9	-53.7	14.8	0.00e+00	0	24	0	1011875840	69	4594
2026-01-11 07:54:06.69	346.65	23.20	-51.8	-53.7	14.9	0.00e+00	0	24	0	1013972992	69	4573
2026-01-11 07:54:07.70	346.48	23.08	-52.0	-53.9	14.8	0.00e+00	0	23	0	1016070144	69	4656
2026-01-11 07:54:08.71	346.31	22.97	-52.1	-54.0	14.7	0.00e+00	0	23	0	1018167296	69	4731
2026-01-11 07:54:09.72	346.14	22.85	-52.2	-54.1	14.6	0.00e+00	0	24	0	1019215872	69	4801
2026-01-11 07:54:10.72	345.98	22.73	-52.2	-54.2	14.6	0.00e+00	0	24	0	1021313024	69	4868
2026-01-11 07:54:11.73	345.82	22.62	-52.2	-54.2	14.6	0.00e+00	0	24	0	1023410176	69	4846
2026-01-11 07:54:12.74	345.65	22.50	-52.4	-54.4	14.5	0.00e+00	0	23	0	1025507328	69	4941
2026-01-11 07:54:13.75	345.49	22.38	-52.3	-54.4	14.5	0.00e+00	0	24	0	1027604480	69	4929
2026-01-11 07:54:14.76	345.33	22.27	-52.3	-54.4	14.5	0.00e+00	0	24	0	1028653056	69	4934
2026-01-11 07:54:15.77	345.17	22.15	-52.4	-54.4	14.5	0.00e+00	0	23	0	1030750208	69	4969
2026-01-11 07:54:16.78	345.01	22.03	-52.5	-54.5	14.6	0.00e+00	0	23	0	1032847360	70	4734
2026-01-11 07:54:17.78	344.86	21.92	-52.5	-54.5	14.5	0.00e+00	0	23	0	1034944512	70	4750
2026-01-11 07:54:18.79	344.70	21.80	-52.5	-54.6	14.5	0.00e+00	0	23	0	1037041664	70	4769
2026-01-11 07:54:19.79	344.55	21.69	-52.4	-54.4	14.6	0.00e+00	0	23	0	1039138816	70	4689
2026-01-11 07:54:20.80	344.40	21.58	-52.4	-54.5	14.6	0.00e+00	0	23	0	1040187392	70	4726
2026-01-11 07:54:21.81	344.24	21.46	-52.5	-54.5	14.6	0.00e+00	0	23	0	1042284544	70	4733
2026-01-11 07:54:22.82	344.09	21.35	-52.5	-54.5	14.6	0.00e+00	0	23	0	1044381696	70	4749
2026-01-11 07:54:23.82	343.95	21.24	-52.5	-54.5	14.5	0.00e+00	0	23	0	1046478848	70	4747
2026-01-11 07:54:24.83	343.80	21.12	-52.4	-54.5	14.6	0.00e+00	0	23	0	1047527424	70	4708
2026-01-11 07:54:25.84	343.65	21.01	-52.4	-54.5	14.6	0.00e+00	0	23	0	1049624576	70	4708
2026-01-11 07:54:26.84	343.50	20.90	-52.4	-54.5	14.6	0.00e+00	0	23	0	1051721728	70	4727
2026-01-11 07:54:27.85	343.36	20.78	-52.4	-54.4	14.6	0.00e+00	0	23	0	1053818880	70	4704
2026-01-11 07:54:28.86	343.21	20.67	-52.4	-54.4	14.6	0.00e+00	0	23	0	1055916032	70	4676
2026-01-11 07:54:29.87	343.07	20.56	-52.5	-54.6	14.5	0.00e+00	0	24	0	1056964608	70	4766
2026-01-11 07:54:30.87	342.93	20.45	-52.5	-54.6	14.5	0.00e+00	0	23	0	1059061760	70	4796
2026-01-11 07:54:31.87	342.79	20.34	-52.5	-54.6	14.5	0.00e+00	0	23	0	1061158912	70	4778
2026-01-11 07:54:32.88	342.65	20.23	-52.6	-54.7	14.4	0.00e+00	0	23	0	1063256064	70	4828
2026-01-11 07:54:33.89	342.51	20.12	-52.5	-54.6	14.5	0.00e+00	0	24	0	1065353216	70	4781
2026-01-11 07:54:34.90	342.37	20.01	-52.6	-54.7	14.5	0.00e+00	0	23	0	1067450368	70	4824
2026-01-11 07:54:35.90	342.24	19.90	-52.5	-54.5	14.5	0.00e+00	0	24	0	1068498944	70	4755
2026-01-11 07:54:36.91	342.10	19.79	-52.4	-54.4	14.6	0.00e+00	0	24	0	1070596096	70	4704
2026-01-11 07:54:37.91	341.97	19.68	-52.4	-54.4	14.6	0.00e+00	0	23	0	1072693248	70	4682
2026-01-11 07:54:38.92	341.83	19.57	-52.4	-54.4	14.6	0.00e+00	0	23	0	1074790400	70	4674
2026-01-11 07:54:39.93	341.70	19.46	-52.4	-54.4	14.6	0.00e+00	0	23	0	1075838976	70	4704
2026-01-11 07:54:40.94	341.57	19.35	-52.3	-54.3	14.7	0.00e+00	0	24	0	1077936128	70	4634
2026-01-11 07:54:41.94	341.44	19.25	-52.3	-54.3	14.6	0.00e+00	0	24	0	1080033280	70	4615
2026-01-11 07:54:42.95	341.31	19.14	-52.3	-54.3	14.7	0.00e+00	0	23	0	1082130432	70	4613
2026-01-11 07:54:43.96	341.18	19.03	-52.2	-54.2	14.7	0.00e+00	0	23	0	1084227584	70	4597
2026-01-11 07:54:44.97	341.05	18.93	-52.2	-54.2	14.8	0.00e+00	0	23	0	1085276160	70	4550
2026-01-11 07:54:45.97	340.92	18.82	-52.2	-54.1	14.8	0.00e+00	0	23	0	1087373312	70	4539
2026-01-11 07:54:46.98	340.80	18.71	-52.2	-54.2	14.8	0.00e+00	0	23	0	1089470464	70	4552
2026-01-11 07:54:47.99	340.67	18.61	-52.2	-54.1	14.8	0.00e+00	0	24	0	1091567616	70	4534
2026-01-11 07:54:49.00	340.55	18.50	-52.2	-54.2	14.8	0.00e+00	0	23	0	1093664768	70	4554
2026-01-11 07:54:50.00	340.42	18.40	-52.3	-54.3	14.7	0.00e+00	0	24	0	1095761920	70	4629
2026-01-11 07:54:51.01	340.30	18.29	-52.3	-54.3	14.6	0.00e+00	0	24	0	1096810496	70	4629
2026-01-11 07:54:52.01	340.18	18.19	-52.4	-54.4	14.6	0.00e+00	0	23	0	1098907648	70	4691
2026-01-11 07:54:53.02	340.06	18.08	-52.4	-54.4	14.6	0.00e+00	0	24	0	1101004800	70	4692
2026-01-11 07:54:54.03	339.94	17.98	-52.4	-54.4	14.6	0.00e+00	0	23	0	1103101952	70	4698
2026-01-11 07:54:55.04	339.82	17.87	-52.4	-54.5	14.5	0.00e+00	0	23	0	1104150528	70	4709
2026-01-11 07:54:56.05	339.70	17.77	-52.4	-54.4	14.6	2.20e-06	0	24	0	1106247680	70	4696
2026-01-11 07:54:57.05	339.58	17.67	-52.3	-54.4	14.6	0.00e+00	0	24	0	1108344832	70	4679
2026-01-11 07:54:58.06	339.46	17.56	-52.4	-54.4	14.6	4.50e-06	0	24	0	1110441984	70	4691
2026-01-11 07:54:59.07	339.35	17.46	-52.3	-54.4	14.6	0.00e+00	0	24	0	1112539136	70	4682
2026-01-11 07:55:00.07	339.23	17.36	-52.4	-54.5	14.5	0.00e+00	0	23	0	1113587712	70	4743
2026-01-11 07:55:01.07	339.12	17.26	-52.3	-54.4	14.6	0.00e+00	0	23	0	1115684864	70	4673
2026-01-11 07:55:02.08	339.01	17.16	-52.3	-54.4	14.6	0.00e+00	0	24	0	1117782016	70	4670
2026-01-11 07:55:03.09	338.89	17.05	-52.3	-54.3	14.6	0.00e+00	0	24	0	1119879168	70	4631
2026-01-11 07:55:04.09	338.78	16.95	-52.2	-54.3	14.6	0.00e+00	0	24	0	1121976320	70	4612
2026-01-11 07:55:05.10	338.67	16.85	-52.3	-54.3	14.6	0.00e+00	0	24	0	1124073472	70	4637
2026-01-11 07:55:06.11	338.56	16.75	-52.3	-54.3	14.6	0.00e+00	0	23	0	1125122048	70	4619
2026-01-11 07:55:07.12	338.45	16.65	-52.3	-54.3	14.6	0.00e+00	0	23	0	1127219200	70	4622
2026-01-11 07:55:08.13	338.34	16.55	-52.3	-54.3	14.6	0.00e+00	0	23	0	1129316352	70	4618
2026-01-11 07:55:09.14	338.23	16.45	-52.1	-54.1	14.7	0.00e+00	0	23	0	1131413504	70	4526
2026-01-11 07:55:10.15	338.12	16.35	-52.0	-54.0	14.8	0.00e+00	0	23	0	1133510656	70	4464
2026-01-11 07:55:11.15	338.02	16.25	-52.1	-54.0	14.8	0.00e+00	0	24	0	1134559232	70	4492
2026-01-11 07:55:12.16	337.91	16.15	-51.9	-53.8	14.9	0.00e+00	0	23	0	1136656384	70	4361
2026-01-11 07:55:13.17	337.81	16.06	-51.9	-53.8	14.9	0.00e+00	0	23	0	1138753536	70	4362
2026-01-11 07:55:14.18	337.70	15.96	-51.8	-53.7	15.0	0.00e+00	0	24	0	1140850688	70	4329
2026-01-11 07:55:15.18	337.60	15.86	-51.8	-53.7	15.0	0.00e+00	0	23	0	1141899264	70	4334
2026-01-11 07:55:16.19	337.49	15.76	-51.9	-53.8	15.0	0.00e+00	0	23	0	1143996416	70	4354
2026-01-11 07:55:17.19	337.39	15.67	-51.9	-53.9	14.9	0.00e+00	0	23	0	1146093568	70	4402
2026-01-11 07:55:18.20	337.29	15.57	-52.1	-54.1	14.7	0.00e+00	0	23	0	1148190720	70	4509
2026-01-11 07:55:19.21	337.19	15.47	-52.2	-54.2	14.7	0.00e+00	0	23	0	1150287872	70	4562
2026-01-11 07:55:20.22	337.09	15.37	-52.3	-54.4	14.6	0.00e+00	0	23	0	1152385024	70	4656
2026-01-11 07:55:21.23	336.99	15.28	-52.4	-54.5	14.5	0.00e+00	0	23	0	1153433600	70	4712
2026-01-11 07:55:22.23	336.89	15.18	-52.5	-54.6	14.4	0.00e+00	0	23	0	1155530752	70	4796
2026-01-11 07:55:23.24	336.79	15.09	-52.5	-54.6	14.5	0.00e+00	0	23	0	1157627904	70	4795
2026-01-11 07:55:24.25	336.69	14.99	-52.6	-54.8	14.3	0.00e+00	0	23	0	1159725056	70	4895
2026-01-11 07:55:25.26	336.60	14.90	-52.5	-54.7	14.4	0.00e+00	0	23	0	1161822208	70	4855
2026-01-11 07:55:26.26	336.50	14.80	-52.6	-54.7	14.4	0.00e+00	0	24	0	1162870784	70	4859
2026-01-11 07:55:27.27	336.40	14.71	-52.6	-54.8	14.3	0.00e+00	0	24	0	1164967936	70	4895
2026-01-11 07:55:28.28	336.31	14.61	-52.5	-54.7	14.4	0.00e+00	0	23	0	1167065088	70	4853
2026-01-11 07:55:29.29	336.21	14.52	-52.6	-54.8	14.4	0.00e+00	0	23	0	1169162240	70	4879
2026-01-11 07:55:30.30	336.12	14.43	-52.5	-54.7	14.4	0.00e+00	0	23	0	1171259392	70	4825
2026-01-11 07:55:31.31	336.03	14.33	-52.6	-54.8	14.4	0.00e+00	0	23	0	1172307968	70	4872
2026-01-11 07:55:32.31	335.93	14.24	-52.5	-54.7	14.4	0.00e+00	0	23	0	1174405120	70	4848
2026-01-11 07:55:33.33	335.84	14.15	-52.5	-54.7	14.4	0.00e+00	0	23	0	1176502272	70	4815
2026-01-11 07:55:34.33	335.75	14.05	-52.5	-54.7	14.4	0.00e+00	0	23	0	1178599424	70	4836
2026-01-11 07:55:35.34	335.66	13.96	-52.6	-54.8	14.3	0.00e+00	0	23	0	1180696576	70	4879
2026-01-11 07:55:36.35	335.57	13.87	-52.6	-54.8	14.4	0.00e+00	0	23	0	1181745152	70	4874
2026-01-11 07:55:37.35	335.48	13.78	-52.6	-54.8	14.3	0.00e+00	0	24	0	1183842304	70	4917
2026-01-11 07:55:38.35	335.39	13.69	-52.6	-54.8	14.3	0.00e+00	0	23	0	1185939456	70	4895
2026-01-11 07:55:39.35	335.30	13.60	-52.7	-54.9	14.2	0.00e+00	0	24	0	1188036608	70	4957
2026-01-11 07:55:40.37	335.21	13.51	-52.7	-54.9	14.2	0.00e+00	0	23	0	1190133760	70	4967
2026-01-11 07:55:41.37	335.12	13.42	-52.7	-55.0	14.2	0.00e+00	0	23	0	1191182336	70	5003
2026-01-11 07:55:42.38	335.04	13.33	-52.8	-55.1	14.1	0.00e+00	0	23	0	1193279488	70	5051
2026-01-11 07:55:43.38	334.95	13.24	-52.8	-55.1	14.1	0.00e+00	0	23	0	1195376640	70	5092
2026-01-11 07:55:44.40	334.86	13.15	-52.9	-55.2	14.1	0.00e+00	0	23	0	1197473792	70	5119
2026-01-11 07:55:45.40	334.78	13.06	-53.0	-55.3	14.1	0.00e+00	0	23	0	1199570944	71	4904
2026-01-11 07:55:46.41	334.69	12.97	-53.1	-55.5	14.0	0.00e+00	0	23	0	1200619520	71	5016
2026-01-11 07:55:47.42	334.61	12.88	-53.1	-55.5	14.0	0.00e+00	0	24	0	1202716672	71	5020
2026-01-11 07:55:48.43	334.53	12.79	-53.2	-55.7	13.9	0.00e+00	0	24	0	1204813824	71	5119
2026-01-11 07:55:49.44	334.44	12.70	-53.2	-55.7	13.9	0.00e+00	0	23	0	1206910976	71	5144
2026-01-11 07:55:50.45	334.36	12.61	-53.2	-55.6	13.9	0.00e+00	0	24	0	1209008128	71	5100
2026-01-11 07:55:51.45	334.28	12.52	-53.1	-55.6	14.0	0.00e+00	0	23	0	1210056704	71	5074
2026-01-11 07:55:52.46	334.20	12.44	-53.1	-55.6	14.0	0.00e+00	0	23	0	1212153856	71	5054
2026-01-11 07:55:53.46	334.12	12.35	-53.2	-55.7	13.9	0.00e+00	0	23	0	1214251008	71	5111
2026-01-11 07:55:54.47	334.03	12.26	-53.1	-55.6	14.0	0.00e+00	0	23	0	1216348160	71	5062
2026-01-11 07:55:55.48	333.95	12.18	-53.1	-55.6	13.9	0.00e+00	0	23	0	1218445312	71	5091
2026-01-11 07:55:56.48	333.87	12.09	-53.2	-55.7	13.9	0.00e+00	0	24	0	1219493888	71	5119
2026-01-11 07:55:57.49	333.80	12.00	-53.2	-55.8	13.9	0.00e+00	0	23	0	1221591040	71	5168
2026-01-11 07:55:58.50	333.72	11.92	-53.3	-55.8	13.8	0.00e+00	0	23	0	1223688192	71	5193
2026-01-11 07:55:59.51	333.64	11.83	-53.3	-55.9	13.8	0.00e+00	0	23	0	1225785344	71	5243
2026-01-11 07:56:00.52	333.56	11.74	-53.4	-56.0	13.7	0.00e+00	0	23	0	1227882496	71	5289
2026-01-11 07:56:01.53	333.48	11.66	-53.3	-55.9	13.8	0.00e+00	0	23	0	1228931072	71	5232
2026-01-11 07:56:02.54	333.41	11.57	-53.5	-56.1	13.7	0.00e+00	0	23	0	1231028224	72	5099
2026-01-11 07:56:03.55	333.33	11.49	-53.5	-56.1	13.7	0.00e+00	0	23	0	1233125376	72	5073
2026-01-11 07:56:04.56	333.25	11.40	-53.5	-56.2	13.7	0.00e+00	0	24	0	1235222528	72	5152
2026-01-11 07:56:05.57	333.18	11.32	-53.4	-56.1	13.8	0.00e+00	0	23	0	1237319680	72	5060
2026-01-11 07:56:06.58	333.10	11.23	-53.4	-56.0	13.8	0.00e+00	0	23	0	1238368256	72	5035
