passes_logs/2026/01/11/R3.2S_Murmansk/R3.2S_Murmansk__20260111_060543_NOAA_20_JPSS-1_rec.log

#Pass ID: 20260111_060543_NOAA 20 (JPSS-1)
#Satellite: NOAA 20 (JPSS-1)
#Configuration: NOAA 20
#almurnet v.1.7.20251203
#Start time: 2026-01-11 06:05:43

#Version: 2.2.20231116
#Station: R3.2S_Murmansk
#Location: 33.079688 lon 68.888172 lat
#TLE: 1 43013U 17073A   26009.69119415  .00000109  00000+0  72598-4 0  9996
#TLE: 2 43013  98.7631 310.6868 0001678  46.7442 313.3874 14.19534878421981

#Time	Az	El	Level	Level2	SNR	BER	BlckErr	Temp	State	Recorded	gain1	gain2
2026-01-11 06:05:43.94	77.50	2.04	-57.3	-73.3	3.8	1.49e+00	0	22	0	0	81	21785
2026-01-11 06:05:44.94	77.44	2.09	-57.2	-73.2	3.8	1.49e+00	0	23	104	0	79	24361
2026-01-11 06:05:45.94	77.38	2.15	-57.2	-73.2	3.8	1.49e+00	0	23	104	0	79	24357
2026-01-11 06:05:46.94	77.32	2.21	-57.2	-73.2	3.8	1.49e+00	0	23	104	0	79	24376
2026-01-11 06:05:47.94	77.26	2.27	-57.2	-73.2	3.8	1.49e+00	0	23	104	0	79	24310
2026-01-11 06:05:48.94	77.19	2.33	-57.2	-73.2	3.8	1.49e+00	0	23	104	0	79	24327
2026-01-11 06:05:49.95	77.13	2.38	-57.2	-73.2	3.8	1.49e+00	0	23	104	0	79	24334
2026-01-11 06:05:50.95	77.07	2.44	-57.2	-73.2	3.8	1.49e+00	0	23	104	0	79	24194
2026-01-11 06:05:51.95	77.01	2.50	-57.2	-73.2	3.8	1.49e+00	0	23	104	0	79	24285
2026-01-11 06:05:52.71	76.96	2.55	-57.2	-73.2	3.8	1.49e+00	0	23	104	0	79	24290
2026-01-11 06:05:54.00	76.88	2.62	-57.2	-73.2	3.8	1.49e+00	0	23	104	0	79	24317
2026-01-11 06:05:54.72	76.83	2.66	-57.2	-73.2	3.8	1.49e+00	0	23	104	0	79	24252
2026-01-11 06:05:56.01	76.75	2.74	-57.2	-73.2	3.8	1.49e+00	0	23	104	0	79	24343
2026-01-11 06:05:56.71	76.71	2.78	-57.2	-73.2	3.8	1.49e+00	0	23	104	0	79	24257
2026-01-11 06:05:58.03	76.62	2.86	-57.2	-73.2	3.8	1.49e+00	0	23	104	0	79	24353
2026-01-11 06:05:58.74	76.58	2.90	-57.2	-73.2	3.8	1.49e+00	0	23	104	0	79	24370
2026-01-11 06:06:00.03	76.49	2.97	-57.2	-73.2	3.8	1.49e+00	0	23	104	0	79	24404
2026-01-11 06:06:00.74	76.45	3.02	-57.2	-73.2	3.8	1.49e+00	0	23	104	0	79	24388
2026-01-11 06:06:02.02	76.36	3.09	-57.2	-73.2	3.8	1.49e+00	0	23	104	0	79	24384
2026-01-11 06:06:02.75	76.32	3.13	-57.2	-73.2	3.8	1.49e+00	0	23	104	0	79	24366
2026-01-11 06:06:04.04	76.23	3.21	-57.2	-73.2	3.8	1.49e+00	0	23	104	0	79	24356
2026-01-11 06:06:04.75	76.19	3.25	-57.2	-73.2	3.8	1.49e+00	0	23	104	0	79	24322
2026-01-11 06:06:06.04	76.10	3.33	-57.2	-73.2	3.8	1.49e+00	0	23	104	0	79	24238
2026-01-11 06:06:06.75	76.05	3.37	-57.2	-73.2	3.8	1.49e+00	0	23	104	0	79	24245
2026-01-11 06:06:08.04	75.97	3.45	-57.2	-73.2	3.8	1.49e+00	0	23	104	0	79	24268
2026-01-11 06:06:08.76	75.92	3.49	-57.2	-73.2	3.8	1.49e+00	0	23	104	0	79	24320
2026-01-11 06:06:10.04	75.83	3.57	-57.3	-73.3	3.8	1.49e+00	0	23	104	0	79	24451
2026-01-11 06:06:10.75	75.78	3.61	-57.3	-73.3	3.8	1.49e+00	0	23	104	0	79	24458
2026-01-11 06:06:12.04	75.70	3.69	-57.3	-73.3	3.8	1.49e+00	0	23	104	0	79	24453
2026-01-11 06:06:12.75	75.65	3.73	-57.3	-73.3	3.8	1.49e+00	0	23	104	0	79	24422
2026-01-11 06:06:14.03	75.56	3.81	-57.3	-73.2	3.8	1.49e+00	0	23	104	0	79	24263
2026-01-11 06:06:14.76	75.51	3.85	-57.2	-73.2	3.8	1.49e+00	0	23	104	0	79	24168
2026-01-11 06:06:16.06	75.42	3.93	-57.2	-73.1	3.8	1.49e+00	0	23	104	0	79	24121
2026-01-11 06:06:16.77	75.37	3.97	-57.2	-73.2	3.8	1.49e+00	0	23	104	0	79	24227
2026-01-11 06:06:18.06	75.28	4.05	-57.2	-73.2	3.8	1.49e+00	0	23	104	0	79	24357
2026-01-11 06:06:18.78	75.23	4.10	-57.2	-73.2	3.8	1.49e+00	0	24	104	0	79	24403
2026-01-11 06:06:20.06	75.14	4.17	-57.2	-73.2	3.8	1.49e+00	0	24	104	0	79	24150
2026-01-11 06:06:20.77	75.09	4.22	-57.2	-73.1	3.8	1.49e+00	0	24	104	0	79	23935
2026-01-11 06:06:22.07	75.00	4.30	-57.2	-72.4	3.8	1.49e+00	0	24	104	0	79	22182
2026-01-11 06:06:22.78	74.95	4.34	-57.2	-72.0	3.8	1.49e+00	0	24	104	0	79	21225
2026-01-11 06:06:24.06	74.86	4.42	-57.2	-71.2	3.8	1.49e+00	0	24	104	0	79	19356
2026-01-11 06:06:24.78	74.81	4.46	-57.1	-70.7	4.0	1.49e+00	0	24	104	0	79	18128
2026-01-11 06:06:26.07	74.71	4.54	-57.1	-69.5	4.2	1.41e+00	0	24	0	0	79	15920
2026-01-11 06:06:26.79	74.66	4.58	-57.1	-69.0	4.4	1.33e+00	69	24	0	0	79	14917
2026-01-11 06:06:28.08	74.57	4.66	-57.0	-67.8	4.9	8.16e-01	0	24	0	2097152	79	13060
2026-01-11 06:06:28.79	74.52	4.71	-57.0	-68.1	4.8	7.56e-01	0	24	0	4194304	79	13477
2026-01-11 06:06:30.09	74.42	4.79	-56.8	-66.3	5.7	5.34e-01	0	24	0	6291456	79	11021
2026-01-11 06:06:30.81	74.37	4.83	-56.8	-66.0	5.9	3.28e-01	0	24	0	7340032	79	10654
2026-01-11 06:06:32.10	74.27	4.91	-56.7	-65.4	6.3	2.08e-01	0	24	0	9437184	79	9867
2026-01-11 06:06:32.82	74.22	4.96	-56.6	-65.0	6.6	1.82e-01	0	24	0	11534336	79	9471
2026-01-11 06:06:34.12	74.12	5.04	-56.5	-64.1	7.4	1.91e-01	0	24	0	13631488	79	8559
2026-01-11 06:06:34.83	74.07	5.08	-56.2	-62.3	9.2	3.27e-02	0	24	0	14680064	79	6911
2026-01-11 06:06:36.12	73.97	5.16	-55.9	-61.5	10.0	1.64e-04	0	24	0	17825792	77	7046
2026-01-11 06:06:36.83	73.92	5.21	-57.2	-71.1	3.8	9.15e-01	0	24	104	18874368	79	19155
2026-01-11 06:06:38.12	73.82	5.29	-56.3	-62.5	8.7	4.46e-01	0	24	0	19922944	79	7121
2026-01-11 06:06:38.84	73.76	5.33	-55.7	-60.8	10.3	8.22e-03	0	24	0	20971520	77	6570
2026-01-11 06:06:40.13	73.67	5.41	-54.9	-59.0	11.7	7.00e-07	0	24	0	23068672	75	5967
2026-01-11 06:06:40.85	73.61	5.46	-55.7	-60.9	10.1	5.02e-04	0	24	0	25165824	76	6988
2026-01-11 06:06:42.13	73.51	5.54	-54.4	-58.0	12.4	0.00e+00	0	24	0	27262976	75	5337
2026-01-11 06:06:42.85	73.45	5.58	-54.5	-58.2	12.3	7.00e-07	0	24	0	28311552	75	5428
2026-01-11 06:06:44.13	73.35	5.66	-54.2	-57.5	12.7	0.00e+00	0	24	0	31457280	74	5339
2026-01-11 06:06:44.86	73.30	5.71	-54.4	-57.9	12.4	7.00e-07	0	24	0	32505856	74	5573
2026-01-11 06:06:46.15	73.20	5.79	-54.1	-57.5	12.8	7.00e-07	0	24	0	34603008	74	5284
2026-01-11 06:06:46.87	73.14	5.84	-54.1	-57.4	12.8	0.00e+00	0	24	0	36700160	74	5250
2026-01-11 06:06:48.15	73.04	5.92	-54.4	-57.9	12.5	0.00e+00	0	24	0	38797312	74	5579
2026-01-11 06:06:48.86	72.98	5.96	-54.2	-57.6	12.7	7.00e-07	0	24	0	39845888	74	5362
2026-01-11 06:06:50.20	72.87	6.05	-54.3	-57.7	12.6	0.00e+00	0	24	0	41943040	74	5448
2026-01-11 06:06:50.92	72.81	6.10	-54.2	-57.6	12.7	1.50e-06	0	24	0	44040192	74	5352
2026-01-11 06:06:52.19	72.71	6.18	-54.1	-57.3	12.9	0.00e+00	0	24	0	46137344	74	5190
2026-01-11 06:06:52.92	72.65	6.22	-54.0	-57.1	13.1	0.00e+00	0	24	0	47185920	74	5049
2026-01-11 06:06:54.20	72.55	6.31	-53.9	-57.0	13.1	0.00e+00	0	24	0	50331648	74	5005
2026-01-11 06:06:54.93	72.49	6.35	-53.9	-57.0	13.1	0.00e+00	0	24	0	51380224	74	5014
2026-01-11 06:06:56.22	72.38	6.44	-54.0	-57.2	13.0	0.00e+00	0	24	0	53477376	74	5118
2026-01-11 06:06:56.94	72.32	6.48	-54.2	-57.4	12.8	0.00e+00	0	24	0	55574528	74	5266
2026-01-11 06:06:58.22	72.22	6.56	-53.8	-56.8	13.3	0.00e+00	0	24	0	57671680	74	4922
2026-01-11 06:06:58.96	72.15	6.61	-53.9	-56.9	13.2	0.00e+00	0	24	0	58720256	74	4971
2026-01-11 06:07:00.25	72.04	6.70	-53.7	-56.5	13.5	0.00e+00	0	24	0	60817408	74	4757
2026-01-11 06:07:00.96	71.98	6.74	-53.6	-56.6	13.3	0.00e+00	0	24	0	62914560	73	5043
2026-01-11 06:07:02.26	71.87	6.83	-53.9	-56.9	13.1	0.00e+00	0	24	0	65011712	73	5263
2026-01-11 06:07:02.99	71.81	6.87	-53.8	-56.9	13.2	0.00e+00	0	24	0	66060288	73	5219
2026-01-11 06:07:04.27	71.70	6.96	-53.8	-56.8	13.2	0.00e+00	0	24	0	69206016	73	5196
2026-01-11 06:07:04.98	71.64	7.00	-53.7	-56.7	13.3	0.00e+00	0	24	0	70254592	73	5116
2026-01-11 06:07:06.27	71.53	7.09	-53.9	-57.0	13.1	0.00e+00	0	24	0	72351744	73	5313
2026-01-11 06:07:06.99	71.47	7.13	-53.9	-57.0	13.0	0.00e+00	0	24	0	74448896	73	5320
2026-01-11 06:07:08.27	71.36	7.22	-53.8	-56.8	13.2	0.00e+00	0	24	0	76546048	73	5194
2026-01-11 06:07:08.98	71.29	7.27	-54.0	-57.2	12.9	0.00e+00	0	24	0	77594624	73	5427
2026-01-11 06:07:10.27	71.18	7.35	-53.6	-56.5	13.4	0.00e+00	0	24	0	79691776	73	4997
2026-01-11 06:07:10.99	71.12	7.40	-53.6	-56.5	13.4	0.00e+00	0	24	0	81788928	73	4999
2026-01-11 06:07:12.29	71.00	7.48	-53.8	-56.7	13.3	0.00e+00	0	24	0	83886080	73	5115
2026-01-11 06:07:13.01	70.94	7.53	-53.8	-56.7	13.3	0.00e+00	0	24	0	84934656	73	5141
2026-01-11 06:07:14.29	70.82	7.62	-53.8	-56.7	13.3	0.00e+00	0	24	0	88080384	73	5121
2026-01-11 06:07:15.02	70.76	7.66	-53.8	-56.7	13.3	0.00e+00	0	24	0	89128960	73	5111
2026-01-11 06:07:16.31	70.64	7.75	-53.7	-56.6	13.4	0.00e+00	0	24	0	91226112	73	5058
2026-01-11 06:07:17.02	70.57	7.80	-53.6	-56.4	13.5	0.00e+00	0	24	0	92274688	73	4979
2026-01-11 06:07:18.34	70.45	7.88	-53.7	-56.5	13.4	0.00e+00	0	24	0	95420416	73	5006
2026-01-11 06:07:19.05	70.39	7.93	-53.8	-56.7	13.3	0.00e+00	0	25	0	96468992	73	5136
2026-01-11 06:07:20.37	70.27	8.02	-53.7	-56.6	13.4	0.00e+00	0	24	0	98566144	73	5063
2026-01-11 06:07:21.07	70.20	8.07	-53.7	-56.6	13.4	0.00e+00	0	24	0	100663296	73	5064
2026-01-11 06:07:22.42	70.08	8.16	-53.7	-56.6	13.4	0.00e+00	0	24	0	102760448	73	5071
2026-01-11 06:07:23.14	70.01	8.21	-53.8	-56.7	13.4	0.00e+00	0	25	0	103809024	73	5116
2026-01-11 06:07:24.43	69.89	8.29	-53.9	-56.9	13.2	0.00e+00	0	24	0	106954752	73	5235
2026-01-11 06:07:25.15	69.82	8.34	-53.8	-56.7	13.3	0.00e+00	0	25	0	108003328	73	5149
2026-01-11 06:07:26.43	69.70	8.43	-54.1	-57.3	13.0	0.00e+00	0	25	0	110100480	73	5468
2026-01-11 06:07:27.17	69.63	8.48	-54.2	-57.3	12.9	0.00e+00	0	24	0	112197632	73	5507
2026-01-11 06:07:28.45	69.50	8.56	-54.0	-57.0	13.1	0.00e+00	0	25	0	114294784	73	5335
2026-01-11 06:07:29.19	69.43	8.61	-53.8	-56.6	13.4	0.00e+00	0	25	0	115343360	73	5090
2026-01-11 06:07:30.48	69.31	8.70	-53.9	-56.9	13.2	0.00e+00	0	25	0	118489088	73	5240
2026-01-11 06:07:31.20	69.24	8.75	-53.8	-56.7	13.3	0.00e+00	0	25	0	119537664	73	5104
2026-01-11 06:07:32.48	69.11	8.84	-53.7	-56.5	13.4	0.00e+00	0	24	0	121634816	73	5023
2026-01-11 06:07:33.20	69.04	8.89	-53.8	-56.7	13.3	0.00e+00	0	24	0	122683392	73	5121
2026-01-11 06:07:34.49	68.91	8.97	-53.8	-56.6	13.4	0.00e+00	0	25	0	125829120	73	5069
2026-01-11 06:07:35.20	68.84	9.02	-53.8	-56.6	13.4	0.00e+00	0	25	0	126877696	73	5070
2026-01-11 06:07:36.51	68.71	9.11	-53.6	-56.4	13.6	0.00e+00	0	25	0	128974848	73	4928
2026-01-11 06:07:37.22	68.64	9.16	-53.6	-56.3	13.6	0.00e+00	0	24	0	131072000	73	4925
2026-01-11 06:07:38.50	68.51	9.25	-53.7	-56.5	13.5	0.00e+00	0	24	0	133169152	73	4999
2026-01-11 06:07:39.22	68.44	9.30	-53.6	-56.3	13.6	0.00e+00	0	24	0	134217728	73	4909
2026-01-11 06:07:40.51	68.31	9.39	-53.5	-56.1	13.8	0.00e+00	0	24	0	136314880	73	4779
2026-01-11 06:07:41.23	68.24	9.44	-53.5	-56.1	13.7	0.00e+00	0	24	0	138412032	73	4797
2026-01-11 06:07:42.54	68.10	9.53	-53.4	-56.0	13.8	0.00e+00	0	25	0	140509184	73	4720
2026-01-11 06:07:43.25	68.03	9.58	-53.3	-55.9	13.9	0.00e+00	0	25	0	141557760	73	4665
2026-01-11 06:07:44.54	67.89	9.67	-53.3	-55.9	13.9	0.00e+00	0	25	0	144703488	73	4664
2026-01-11 06:07:45.25	67.82	9.72	-53.4	-55.9	13.9	0.00e+00	0	25	0	145752064	73	4704
2026-01-11 06:07:46.53	67.69	9.80	-53.3	-55.8	13.9	0.00e+00	0	24	0	147849216	73	4636
2026-01-11 06:07:47.26	67.61	9.86	-53.3	-55.8	13.9	0.00e+00	0	25	0	149946368	73	4635
2026-01-11 06:07:48.54	67.47	9.94	-53.3	-55.8	13.9	0.00e+00	0	25	0	152043520	73	4647
2026-01-11 06:07:49.26	67.40	9.99	-53.3	-55.8	14.0	0.00e+00	0	25	0	153092096	73	4605
2026-01-11 06:07:50.54	67.26	10.08	-53.2	-55.7	14.0	0.00e+00	0	24	0	155189248	73	4562
2026-01-11 06:07:51.25	67.18	10.13	-53.3	-55.7	14.0	0.00e+00	0	24	0	157286400	73	4587
2026-01-11 06:07:52.54	67.04	10.22	-53.4	-55.9	13.9	0.00e+00	0	24	0	159383552	73	4676
2026-01-11 06:07:53.25	66.97	10.27	-53.3	-55.8	13.9	0.00e+00	0	24	0	160432128	73	4632
2026-01-11 06:07:54.53	66.83	10.36	-53.3	-55.8	14.0	0.00e+00	0	25	0	163577856	73	4626
2026-01-11 06:07:55.27	66.75	10.42	-53.3	-55.7	14.0	0.00e+00	0	25	0	164626432	73	4584
2026-01-11 06:07:56.56	66.61	10.51	-53.3	-55.7	14.0	0.00e+00	0	25	0	166723584	73	4598
2026-01-11 06:07:57.27	66.53	10.56	-53.3	-55.8	14.0	0.00e+00	0	25	0	167772160	73	4632
2026-01-11 06:07:58.55	66.38	10.65	-53.4	-55.9	13.9	0.00e+00	0	25	0	170917888	73	4682
2026-01-11 06:07:59.28	66.30	10.70	-53.4	-55.9	13.9	0.00e+00	0	25	0	171966464	73	4685
2026-01-11 06:08:00.56	66.16	10.79	-53.4	-55.9	13.9	0.00e+00	0	25	0	174063616	73	4702
2026-01-11 06:08:01.27	66.08	10.84	-53.4	-55.9	13.9	0.00e+00	0	25	0	176160768	73	4691
2026-01-11 06:08:02.57	65.93	10.93	-53.5	-56.1	13.8	0.00e+00	0	25	0	178257920	73	4781
2026-01-11 06:08:03.29	65.85	10.98	-53.4	-56.0	13.8	0.00e+00	0	25	0	179306496	73	4745
2026-01-11 06:08:04.57	65.70	11.08	-53.4	-55.9	13.9	0.00e+00	0	24	0	182452224	73	4696
2026-01-11 06:08:05.30	65.62	11.13	-53.4	-56.0	13.9	0.00e+00	0	25	0	183500800	73	4711
2026-01-11 06:08:06.59	65.47	11.22	-53.4	-55.9	13.9	0.00e+00	0	25	0	185597952	73	4681
2026-01-11 06:08:07.30	65.39	11.27	-53.4	-55.9	13.9	0.00e+00	0	25	0	186646528	73	4697
2026-01-11 06:08:08.59	65.24	11.36	-53.4	-55.9	13.9	0.00e+00	0	24	0	189792256	73	4653
2026-01-11 06:08:09.30	65.15	11.41	-53.4	-55.9	13.9	0.00e+00	0	24	0	190840832	73	4667
2026-01-11 06:08:10.59	65.00	11.51	-53.4	-56.0	13.9	0.00e+00	0	25	0	192937984	73	4710
2026-01-11 06:08:11.34	64.91	11.56	-53.3	-55.7	14.0	0.00e+00	0	25	0	195035136	73	4593
2026-01-11 06:08:12.63	64.76	11.65	-53.3	-55.7	14.0	0.00e+00	0	25	0	197132288	73	4598
2026-01-11 06:08:13.35	64.67	11.70	-53.3	-55.7	14.1	0.00e+00	0	25	0	198180864	73	4567
2026-01-11 06:08:14.63	64.52	11.80	-53.3	-55.8	14.0	0.00e+00	0	25	0	200278016	73	4605
2026-01-11 06:08:15.35	64.43	11.85	-53.2	-55.6	14.1	0.00e+00	0	25	0	202375168	73	4531
2026-01-11 06:08:16.63	64.28	11.94	-53.1	-55.5	14.1	0.00e+00	0	25	0	204472320	72	4722
2026-01-11 06:08:17.39	64.18	12.00	-53.2	-55.6	14.0	0.00e+00	0	25	0	205520896	72	4801
2026-01-11 06:08:18.67	64.03	12.09	-53.1	-55.4	14.1	0.00e+00	0	25	0	208666624	72	4685
2026-01-11 06:08:19.38	63.94	12.14	-53.1	-55.5	14.1	0.00e+00	0	25	0	209715200	72	4735
2026-01-11 06:08:20.67	63.78	12.23	-53.2	-55.6	14.0	0.00e+00	0	25	0	211812352	72	4769
2026-01-11 06:08:21.38	63.69	12.29	-53.1	-55.4	14.1	0.00e+00	0	25	0	213909504	72	4700
2026-01-11 06:08:22.69	63.52	12.38	-53.0	-55.4	14.1	0.00e+00	0	25	0	216006656	72	4676
2026-01-11 06:08:23.40	63.44	12.43	-53.1	-55.4	14.1	0.00e+00	0	25	0	217055232	72	4693
2026-01-11 06:08:24.69	63.27	12.53	-53.0	-55.3	14.2	0.00e+00	0	25	0	219152384	72	4624
2026-01-11 06:08:25.40	63.18	12.58	-53.0	-55.3	14.2	0.00e+00	0	25	0	221249536	72	4625
2026-01-11 06:08:26.68	63.02	12.67	-53.1	-55.5	14.1	0.00e+00	0	25	0	223346688	72	4707
2026-01-11 06:08:27.40	62.92	12.73	-53.0	-55.3	14.2	0.00e+00	0	25	0	224395264	72	4628
2026-01-11 06:08:28.69	62.76	12.82	-52.9	-55.1	14.3	0.00e+00	0	25	0	227540992	72	4541
2026-01-11 06:08:29.42	62.66	12.87	-52.8	-55.0	14.3	0.00e+00	0	25	0	228589568	72	4485
2026-01-11 06:08:30.71	62.49	12.97	-52.8	-55.1	14.3	0.00e+00	0	25	0	230686720	72	4503
2026-01-11 06:08:31.42	62.40	13.02	-52.8	-55.0	14.3	0.00e+00	0	25	0	232783872	72	4491
2026-01-11 06:08:32.71	62.23	13.12	-52.8	-55.0	14.3	0.00e+00	0	25	0	234881024	72	4476
2026-01-11 06:08:33.42	62.14	13.17	-52.8	-55.1	14.3	0.00e+00	0	25	0	235929600	72	4496
2026-01-11 06:08:34.73	61.96	13.26	-53.0	-55.3	14.2	0.00e+00	0	25	0	238026752	72	4615
2026-01-11 06:08:35.44	61.87	13.32	-52.9	-55.1	14.3	0.00e+00	0	25	0	240123904	72	4542
2026-01-11 06:08:36.75	61.69	13.41	-52.9	-55.1	14.3	0.00e+00	0	25	0	242221056	72	4522
2026-01-11 06:08:37.46	61.59	13.47	-52.9	-55.2	14.3	0.00e+00	0	25	0	243269632	72	4558
2026-01-11 06:08:38.75	61.42	13.56	-52.8	-55.1	14.3	0.00e+00	0	25	0	246415360	72	4495
2026-01-11 06:08:39.47	61.32	13.61	-52.9	-55.2	14.3	0.00e+00	0	25	0	247463936	72	4552
2026-01-11 06:08:40.75	61.14	13.71	-52.9	-55.1	14.3	0.00e+00	0	25	0	249561088	72	4525
2026-01-11 06:08:41.50	61.04	13.76	-52.8	-55.0	14.4	0.00e+00	0	25	0	251658240	72	4475
2026-01-11 06:08:42.80	60.86	13.86	-52.8	-55.0	14.4	0.00e+00	0	25	0	253755392	72	4490
2026-01-11 06:08:43.52	60.76	13.91	-52.7	-54.8	14.5	0.00e+00	0	25	0	254803968	72	4385
2026-01-11 06:08:44.80	60.58	14.01	-52.6	-54.8	14.4	0.00e+00	0	25	0	256901120	71	4629
2026-01-11 06:08:45.51	60.48	14.06	-52.7	-54.8	14.3	0.00e+00	0	25	0	258998272	71	4643
2026-01-11 06:08:46.82	60.29	14.16	-52.6	-54.7	14.4	0.00e+00	0	25	0	261095424	71	4594
2026-01-11 06:08:47.54	60.19	14.21	-52.6	-54.7	14.4	0.00e+00	0	25	0	262144000	71	4573
2026-01-11 06:08:48.82	60.01	14.31	-52.5	-54.6	14.4	0.00e+00	0	25	0	265289728	71	4535
2026-01-11 06:08:49.53	59.91	14.36	-52.5	-54.6	14.5	0.00e+00	0	25	0	266338304	71	4513
2026-01-11 06:08:50.85	59.72	14.46	-52.4	-54.4	14.5	0.00e+00	0	25	0	268435456	71	4428
2026-01-11 06:08:51.56	59.61	14.51	-52.4	-54.4	14.6	0.00e+00	0	25	0	270532608	71	4428
2026-01-11 06:08:52.84	59.43	14.61	-52.4	-54.4	14.6	0.00e+00	0	25	0	272629760	71	4415
2026-01-11 06:08:53.56	59.32	14.66	-52.3	-54.4	14.6	0.00e+00	0	25	0	273678336	71	4401
2026-01-11 06:08:54.83	59.13	14.76	-52.3	-54.4	14.6	0.00e+00	0	25	0	275775488	71	4409
2026-01-11 06:08:55.56	59.02	14.81	-52.4	-54.4	14.5	0.00e+00	0	25	0	277872640	71	4432
2026-01-11 06:08:56.84	58.83	14.91	-52.4	-54.4	14.6	0.00e+00	0	25	0	279969792	71	4418
2026-01-11 06:08:57.57	58.72	14.96	-52.4	-54.4	14.6	0.00e+00	0	25	0	281018368	71	4420
2026-01-11 06:08:58.85	58.53	15.06	-52.5	-54.6	14.5	0.00e+00	0	25	0	284164096	71	4509
2026-01-11 06:08:59.59	58.42	15.11	-52.5	-54.7	14.4	0.00e+00	0	25	0	285212672	71	4546
2026-01-11 06:09:00.88	58.22	15.21	-52.5	-54.6	14.5	0.00e+00	0	25	0	287309824	71	4518
2026-01-11 06:09:01.63	58.11	15.27	-52.6	-54.7	14.4	0.00e+00	0	25	0	289406976	71	4565
2026-01-11 06:09:02.91	57.91	15.36	-52.6	-54.7	14.4	0.00e+00	0	25	0	291504128	71	4571
2026-01-11 06:09:03.65	57.79	15.42	-52.7	-54.8	14.4	0.00e+00	0	25	0	292552704	71	4625
2026-01-11 06:09:04.94	57.59	15.52	-52.7	-54.8	14.3	0.00e+00	0	25	0	294649856	71	4628
2026-01-11 06:09:05.66	57.48	15.57	-52.7	-54.8	14.3	0.00e+00	0	25	0	296747008	71	4634
2026-01-11 06:09:06.94	57.28	15.67	-52.7	-54.9	14.3	0.00e+00	0	25	0	298844160	71	4680
2026-01-11 06:09:07.65	57.17	15.72	-52.7	-54.9	14.3	0.00e+00	0	25	0	299892736	71	4675
2026-01-11 06:09:08.94	56.96	15.82	-52.8	-55.0	14.3	0.00e+00	0	25	0	303038464	71	4709
2026-01-11 06:09:09.66	56.85	15.87	-52.7	-54.8	14.4	0.00e+00	0	25	0	304087040	71	4624
2026-01-11 06:09:10.95	56.64	15.97	-52.7	-54.9	14.3	0.00e+00	0	25	0	306184192	71	4659
2026-01-11 06:09:11.66	56.53	16.02	-52.7	-54.8	14.3	0.00e+00	0	25	0	307232768	71	4642
2026-01-11 06:09:12.96	56.32	16.12	-52.7	-54.8	14.4	0.00e+00	0	25	0	310378496	71	4642
2026-01-11 06:09:13.67	56.20	16.17	-52.7	-54.9	14.3	0.00e+00	0	25	0	311427072	71	4666
2026-01-11 06:09:14.96	55.99	16.27	-52.7	-54.9	14.3	0.00e+00	0	25	0	313524224	71	4671
2026-01-11 06:09:15.67	55.87	16.32	-52.8	-55.0	14.2	0.00e+00	0	25	0	315621376	71	4719
2026-01-11 06:09:16.96	55.66	16.42	-52.9	-55.1	14.1	0.00e+00	0	25	0	317718528	71	4808
2026-01-11 06:09:17.67	55.54	16.47	-52.9	-55.1	14.2	0.00e+00	0	25	0	318767104	71	4796
2026-01-11 06:09:18.96	55.33	16.57	-52.9	-55.1	14.2	0.00e+00	0	25	0	321912832	71	4787
2026-01-11 06:09:19.68	55.21	16.62	-52.9	-55.1	14.2	0.00e+00	0	25	0	322961408	71	4804
2026-01-11 06:09:20.96	54.99	16.72	-52.8	-54.9	14.3	0.00e+00	0	25	0	325058560	71	4692
2026-01-11 06:09:21.67	54.87	16.77	-52.8	-55.0	14.3	0.00e+00	0	25	0	326107136	71	4710
2026-01-11 06:09:22.97	54.65	16.87	-52.8	-54.9	14.3	0.00e+00	0	25	0	329252864	71	4700
2026-01-11 06:09:23.69	54.52	16.92	-52.8	-54.9	14.3	0.00e+00	0	25	0	330301440	71	4700
2026-01-11 06:09:24.97	54.30	17.02	-52.8	-55.0	14.3	0.00e+00	0	25	0	332398592	71	4730
2026-01-11 06:09:25.68	54.18	17.07	-52.9	-55.1	14.2	0.00e+00	0	25	0	334495744	71	4761
2026-01-11 06:09:26.98	53.95	17.17	-53.0	-55.2	14.1	0.00e+00	0	25	0	336592896	71	4854
2026-01-11 06:09:27.70	53.83	17.22	-53.0	-55.2	14.1	0.00e+00	0	25	0	337641472	71	4851
2026-01-11 06:09:28.99	53.60	17.32	-53.0	-55.2	14.1	0.00e+00	0	25	0	339738624	71	4858
2026-01-11 06:09:29.70	53.48	17.37	-53.1	-55.3	14.1	0.00e+00	0	25	0	341835776	71	4913
2026-01-11 06:09:30.99	53.25	17.47	-53.1	-55.4	14.1	0.00e+00	0	25	0	343932928	71	4931
2026-01-11 06:09:31.70	53.12	17.52	-53.2	-55.5	14.0	0.00e+00	0	25	0	344981504	71	5009
2026-01-11 06:09:32.98	52.89	17.62	-53.1	-55.4	14.0	0.00e+00	0	25	0	348127232	71	4973
2026-01-11 06:09:33.70	52.76	17.67	-53.0	-55.3	14.1	0.00e+00	0	25	0	349175808	71	4883
2026-01-11 06:09:34.99	52.53	17.76	-53.0	-55.2	14.2	0.00e+00	0	25	0	351272960	71	4843
2026-01-11 06:09:35.70	52.40	17.82	-52.9	-55.0	14.2	0.00e+00	0	25	0	352321536	71	4751
2026-01-11 06:09:36.98	52.17	17.91	-52.9	-55.1	14.2	0.00e+00	0	25	0	355467264	71	4814
2026-01-11 06:09:37.70	52.03	17.97	-52.9	-55.0	14.3	0.00e+00	0	25	0	356515840	71	4742
2026-01-11 06:09:38.98	51.80	18.06	-52.7	-54.9	14.3	0.00e+00	0	25	0	358612992	71	4654
2026-01-11 06:09:39.69	51.66	18.11	-52.8	-55.0	14.3	0.00e+00	0	25	0	360710144	71	4734
2026-01-11 06:09:40.97	51.43	18.21	-52.7	-54.9	14.3	0.00e+00	0	25	0	362807296	71	4670
2026-01-11 06:09:41.68	51.29	18.26	-52.7	-54.9	14.3	0.00e+00	0	25	0	363855872	71	4670
2026-01-11 06:09:42.97	51.05	18.35	-52.6	-54.7	14.4	0.00e+00	0	25	0	365953024	71	4593
2026-01-11 06:09:43.70	50.91	18.41	-52.7	-54.8	14.4	0.00e+00	0	25	0	368050176	71	4635
2026-01-11 06:09:44.98	50.67	18.50	-52.7	-54.9	14.3	0.00e+00	0	25	0	370147328	71	4657
2026-01-11 06:09:45.72	50.53	18.56	-52.7	-54.8	14.4	0.00e+00	0	25	0	371195904	71	4639
2026-01-11 06:09:46.99	50.28	18.65	-52.6	-54.7	14.4	0.00e+00	0	25	0	374341632	71	4597
2026-01-11 06:09:47.71	50.14	18.70	-52.6	-54.6	14.5	0.00e+00	0	25	0	375390208	71	4531
2026-01-11 06:09:49.00	49.89	18.79	-52.4	-54.4	14.6	0.00e+00	0	25	0	377487360	71	4434
2026-01-11 06:09:49.71	49.76	18.85	-52.4	-54.5	14.6	0.00e+00	0	25	0	379584512	71	4444
2026-01-11 06:09:50.99	49.50	18.94	-52.4	-54.4	14.6	0.00e+00	0	25	0	381681664	71	4441
2026-01-11 06:09:51.72	49.36	18.99	-52.4	-54.4	14.6	0.00e+00	0	25	0	382730240	71	4434
2026-01-11 06:09:53.00	49.11	19.08	-52.4	-54.3	14.6	0.00e+00	0	25	0	384827392	71	4390
2026-01-11 06:09:53.74	48.96	19.14	-52.3	-54.3	14.6	0.00e+00	0	25	0	386924544	71	4381
2026-01-11 06:09:55.01	48.71	19.23	-52.1	-54.0	14.6	0.00e+00	0	25	0	389021696	70	4485
2026-01-11 06:09:55.74	48.56	19.28	-52.0	-53.9	14.7	0.00e+00	0	25	0	390070272	70	4409
2026-01-11 06:09:57.02	48.30	19.37	-52.0	-53.9	14.6	0.00e+00	0	25	0	393216000	70	4431
2026-01-11 06:09:57.76	48.15	19.43	-51.9	-53.8	14.7	0.00e+00	0	25	0	394264576	70	4356
2026-01-11 06:09:59.04	47.89	19.52	-51.7	-53.5	14.9	0.00e+00	0	25	0	396361728	70	4202
2026-01-11 06:09:59.78	47.74	19.57	-51.6	-53.3	14.8	0.00e+00	0	25	0	398458880	69	4388
2026-01-11 06:10:01.06	47.48	19.66	-51.3	-53.1	15.0	0.00e+00	0	25	0	400556032	69	4250
2026-01-11 06:10:01.81	47.32	19.71	-51.3	-53.0	15.0	0.00e+00	0	25	0	401604608	69	4220
2026-01-11 06:10:03.09	47.06	19.80	-51.3	-53.0	15.0	0.00e+00	0	25	0	403701760	69	4229
2026-01-11 06:10:03.80	46.91	19.85	-51.1	-52.8	14.9	0.00e+00	0	25	0	405798912	68	4377
2026-01-11 06:10:05.09	46.64	19.95	-51.1	-52.8	14.9	0.00e+00	0	25	0	407896064	68	4373
2026-01-11 06:10:05.80	46.49	20.00	-51.1	-52.7	15.0	0.00e+00	0	25	0	408944640	68	4338
2026-01-11 06:10:07.09	46.22	20.08	-50.9	-52.6	15.1	0.00e+00	0	25	0	412090368	68	4254
2026-01-11 06:10:07.80	46.07	20.13	-51.0	-52.7	15.0	0.00e+00	0	25	0	413138944	68	4301
2026-01-11 06:10:09.09	45.79	20.22	-51.0	-52.7	15.0	0.00e+00	0	25	0	415236096	68	4292
2026-01-11 06:10:09.80	45.64	20.27	-50.9	-52.6	15.1	0.00e+00	0	25	0	416284672	68	4262
2026-01-11 06:10:11.09	45.36	20.36	-51.0	-52.7	15.0	0.00e+00	0	25	0	419430400	68	4295
2026-01-11 06:10:11.81	45.21	20.41	-50.9	-52.5	15.1	0.00e+00	0	25	0	420478976	68	4240
2026-01-11 06:10:13.11	44.93	20.50	-50.9	-52.5	15.1	0.00e+00	0	25	0	422576128	68	4216
2026-01-11 06:10:13.82	44.77	20.55	-50.9	-52.5	15.1	0.00e+00	0	25	0	424673280	68	4241
2026-01-11 06:10:15.13	44.48	20.64	-50.9	-52.5	15.1	0.00e+00	0	25	0	426770432	68	4228
2026-01-11 06:10:15.84	44.33	20.68	-50.8	-52.4	15.1	0.00e+00	0	25	0	427819008	68	4181
2026-01-11 06:10:17.13	44.04	20.77	-50.8	-52.5	15.1	0.00e+00	0	25	0	430964736	68	4198
2026-01-11 06:10:17.85	43.88	20.82	-50.8	-52.4	15.2	0.00e+00	0	25	0	432013312	68	4156
2026-01-11 06:10:19.13	43.60	20.91	-50.8	-52.4	15.2	0.00e+00	0	25	0	434110464	68	4171
2026-01-11 06:10:19.85	43.44	20.95	-50.7	-52.2	15.2	0.00e+00	0	25	0	435159040	68	4096
2026-01-11 06:10:21.14	43.15	21.04	-50.7	-52.2	15.2	0.00e+00	0	25	0	438304768	68	4092
2026-01-11 06:10:21.85	42.98	21.09	-50.4	-52.0	15.1	0.00e+00	0	25	0	439353344	67	4220
2026-01-11 06:10:23.14	42.69	21.17	-50.5	-52.1	15.1	0.00e+00	0	25	0	441450496	67	4266
2026-01-11 06:10:23.86	42.53	21.22	-50.5	-52.1	15.1	0.00e+00	0	25	0	443547648	67	4248
2026-01-11 06:10:25.15	42.23	21.30	-50.4	-52.0	15.2	0.00e+00	0	25	0	445644800	67	4199
2026-01-11 06:10:25.86	42.07	21.35	-50.4	-51.9	15.2	0.00e+00	0	25	0	446693376	67	4186
2026-01-11 06:10:27.15	41.77	21.43	-50.4	-52.0	15.2	0.00e+00	0	25	0	448790528	67	4202
2026-01-11 06:10:27.86	41.61	21.47	-50.4	-51.9	15.2	0.00e+00	0	25	0	450887680	67	4176
2026-01-11 06:10:29.17	41.30	21.56	-50.4	-52.0	15.2	0.00e+00	0	25	0	452984832	67	4213
2026-01-11 06:10:29.89	41.13	21.60	-50.5	-52.1	15.1	0.00e+00	0	25	0	454033408	67	4254
2026-01-11 06:10:31.18	40.83	21.68	-50.4	-52.0	15.2	0.00e+00	0	25	0	457179136	67	4204
2026-01-11 06:10:31.91	40.66	21.73	-50.5	-52.0	15.1	0.00e+00	0	25	0	458227712	67	4223
2026-01-11 06:10:33.18	40.36	21.81	-50.6	-52.2	15.1	0.00e+00	0	25	0	460324864	67	4335
2026-01-11 06:10:33.91	40.19	21.85	-50.7	-52.3	15.0	0.00e+00	0	25	0	462422016	67	4391
2026-01-11 06:10:35.19	39.88	21.93	-50.7	-52.3	15.0	0.00e+00	0	25	0	464519168	67	4351
2026-01-11 06:10:35.91	39.71	21.98	-50.7	-52.3	15.0	0.00e+00	0	25	0	465567744	67	4385
2026-01-11 06:10:37.20	39.40	22.05	-50.6	-52.2	15.0	0.00e+00	0	25	0	467664896	67	4307
2026-01-11 06:10:37.92	39.22	22.10	-50.6	-52.1	15.1	0.00e+00	0	25	0	469762048	67	4287
2026-01-11 06:10:39.21	38.91	22.18	-50.7	-52.3	15.0	0.00e+00	0	25	0	471859200	67	4345
2026-01-11 06:10:39.93	38.74	22.22	-50.8	-52.4	15.0	0.00e+00	0	25	0	472907776	67	4407
2026-01-11 06:10:41.21	38.42	22.29	-50.8	-52.4	15.0	0.00e+00	0	25	0	476053504	67	4409
2026-01-11 06:10:41.93	38.25	22.34	-50.8	-52.4	15.0	0.00e+00	0	25	0	477102080	67	4410
2026-01-11 06:10:43.21	37.93	22.41	-50.8	-52.4	14.9	0.00e+00	0	25	0	479199232	67	4433
2026-01-11 06:10:43.94	37.75	22.45	-50.7	-52.3	15.0	0.00e+00	0	25	0	480247808	67	4373
2026-01-11 06:10:45.23	37.43	22.53	-50.6	-52.2	15.1	0.00e+00	0	25	0	483393536	67	4307
2026-01-11 06:10:45.95	37.25	22.57	-50.5	-52.1	15.1	0.00e+00	0	25	0	484442112	67	4264
2026-01-11 06:10:47.24	36.93	22.64	-50.5	-52.1	15.1	0.00e+00	0	25	0	486539264	67	4248
2026-01-11 06:10:47.96	36.75	22.68	-50.6	-52.1	15.1	0.00e+00	0	25	0	488636416	67	4280
2026-01-11 06:10:49.24	36.43	22.75	-50.6	-52.2	15.0	0.00e+00	0	25	0	490733568	67	4315
2026-01-11 06:10:49.95	36.25	22.79	-50.6	-52.2	15.1	0.00e+00	0	25	0	491782144	67	4302
2026-01-11 06:10:51.24	35.92	22.86	-50.5	-52.1	15.1	0.00e+00	0	25	0	494927872	67	4249
2026-01-11 06:10:52.02	35.72	22.90	-50.5	-52.1	15.1	0.00e+00	0	25	0	495976448	67	4246
2026-01-11 06:10:53.27	35.41	22.97	-50.4	-52.0	15.2	0.00e+00	0	25	0	498073600	67	4211
2026-01-11 06:10:54.08	35.20	23.01	-50.4	-52.0	15.2	0.00e+00	0	25	0	500170752	67	4208
2026-01-11 06:10:55.22	34.90	23.07	-50.4	-52.0	15.1	0.00e+00	0	25	0	502267904	67	4212
2026-01-11 06:10:56.08	34.68	23.11	-50.5	-52.0	15.2	0.00e+00	0	25	0	503316480	67	4224
2026-01-11 06:10:57.22	34.39	23.17	-50.4	-51.9	15.2	0.00e+00	0	25	0	505413632	67	4191
2026-01-11 06:10:58.06	34.17	23.22	-50.3	-51.8	15.3	0.00e+00	0	25	0	507510784	67	4121
2026-01-11 06:10:59.20	33.87	23.27	-50.1	-51.6	15.2	0.00e+00	0	25	0	509607936	66	4275
2026-01-11 06:11:00.06	33.65	23.32	-50.1	-51.6	15.2	0.00e+00	0	25	0	510656512	66	4258
2026-01-11 06:11:01.19	33.35	23.37	-50.1	-51.6	15.2	0.00e+00	0	25	0	512753664	66	4271
2026-01-11 06:11:02.05	33.13	23.41	-50.0	-51.5	15.2	0.00e+00	0	25	0	514850816	66	4226
2026-01-11 06:11:03.18	32.83	23.47	-50.0	-51.5	15.2	0.00e+00	0	25	0	516947968	66	4240
2026-01-11 06:11:04.03	32.60	23.51	-50.1	-51.6	15.2	0.00e+00	0	25	0	517996544	66	4267
2026-01-11 06:11:05.17	32.30	23.56	-50.1	-51.6	15.2	0.00e+00	0	25	0	520093696	66	4288
2026-01-11 06:11:06.03	32.07	23.60	-50.1	-51.7	15.1	0.00e+00	0	25	0	522190848	66	4297
2026-01-11 06:11:07.18	31.77	23.65	-50.3	-51.9	15.1	0.00e+00	0	25	0	524288000	66	4414
2026-01-11 06:11:08.03	31.54	23.69	-50.4	-52.0	15.0	0.00e+00	0	25	0	526385152	66	4444
2026-01-11 06:11:09.17	31.23	23.74	-50.4	-52.0	15.0	0.00e+00	0	25	0	528482304	66	4452
2026-01-11 06:11:10.03	31.00	23.78	-50.5	-52.1	14.9	0.00e+00	0	25	0	529530880	66	4528
2026-01-11 06:11:11.17	30.69	23.83	-50.6	-52.2	14.9	0.00e+00	0	25	0	531628032	66	4557
2026-01-11 06:11:12.03	30.46	23.87	-50.7	-52.4	14.9	0.00e+00	0	25	0	533725184	66	4661
2026-01-11 06:11:13.16	30.15	23.91	-50.6	-52.2	14.9	0.00e+00	0	25	0	535822336	66	4546
2026-01-11 06:11:14.01	29.92	23.95	-50.6	-52.2	14.9	0.00e+00	0	25	0	536870912	66	4561
2026-01-11 06:11:15.15	29.61	24.00	-50.5	-52.1	15.0	0.00e+00	0	25	0	538968064	66	4501
2026-01-11 06:11:16.01	29.38	24.03	-50.6	-52.2	14.9	0.00e+00	0	25	0	541065216	66	4550
2026-01-11 06:11:17.15	29.06	24.08	-50.7	-52.3	14.9	0.00e+00	0	25	0	543162368	66	4630
2026-01-11 06:11:18.01	28.83	24.11	-50.8	-52.4	14.8	0.00e+00	0	25	0	544210944	66	4676
2026-01-11 06:11:19.16	28.51	24.15	-51.0	-52.6	14.9	0.00e+00	0	25	0	546308096	67	4535
2026-01-11 06:11:20.02	28.27	24.18	-50.9	-52.6	14.9	0.00e+00	0	25	0	548405248	67	4525
2026-01-11 06:11:21.16	27.96	24.23	-51.0	-52.7	14.9	0.00e+00	0	25	0	550502400	67	4549
2026-01-11 06:11:22.02	27.72	24.26	-51.1	-52.8	14.8	0.00e+00	0	25	0	552599552	67	4631
2026-01-11 06:11:23.16	27.40	24.30	-51.6	-53.4	14.7	0.00e+00	0	25	0	554696704	68	4690
2026-01-11 06:11:24.01	27.17	24.33	-51.7	-53.5	14.6	0.00e+00	0	25	0	555745280	68	4752
2026-01-11 06:11:25.16	26.84	24.37	-51.9	-53.8	14.5	0.00e+00	0	25	0	557842432	68	4881
2026-01-11 06:11:26.02	26.60	24.40	-51.9	-53.7	14.5	0.00e+00	0	25	0	559939584	68	4848
2026-01-11 06:11:27.16	26.28	24.43	-51.9	-53.7	14.7	0.00e+00	0	25	0	562036736	69	4573
2026-01-11 06:11:28.02	26.04	24.46	-51.9	-53.8	14.7	0.00e+00	0	25	0	563085312	69	4601
2026-01-11 06:11:29.16	25.72	24.50	-52.0	-53.9	14.6	0.00e+00	0	25	0	565182464	69	4654
2026-01-11 06:11:30.02	25.48	24.52	-52.1	-53.9	14.6	0.00e+00	0	25	0	567279616	69	4699
2026-01-11 06:11:31.15	25.16	24.56	-52.0	-53.9	14.6	0.00e+00	0	25	0	569376768	69	4671
2026-01-11 06:11:32.01	24.91	24.58	-52.1	-54.0	14.5	0.00e+00	0	25	0	570425344	69	4747
2026-01-11 06:11:33.15	24.59	24.61	-52.0	-53.9	14.6	0.00e+00	0	25	0	572522496	69	4666
2026-01-11 06:11:34.01	24.35	24.64	-52.0	-53.9	14.6	0.00e+00	0	25	0	574619648	69	4658
2026-01-11 06:11:35.16	24.02	24.67	-52.0	-53.9	14.6	0.00e+00	0	25	0	576716800	69	4681
2026-01-11 06:11:36.02	23.77	24.69	-52.1	-54.0	14.6	0.00e+00	0	25	0	578813952	69	4717
2026-01-11 06:11:37.16	23.45	24.72	-52.1	-54.0	14.5	0.00e+00	0	25	0	580911104	69	4753
2026-01-11 06:11:38.01	23.20	24.74	-52.2	-54.1	14.5	0.00e+00	0	25	0	581959680	69	4775
2026-01-11 06:11:39.15	22.88	24.77	-52.3	-54.2	14.5	0.00e+00	0	25	0	584056832	69	4829
2026-01-11 06:11:40.01	22.63	24.79	-52.2	-54.1	14.5	0.00e+00	0	25	0	586153984	69	4809
2026-01-11 06:11:41.15	22.30	24.81	-52.3	-54.3	14.4	0.00e+00	0	25	0	588251136	69	4905
2026-01-11 06:11:42.01	22.06	24.83	-52.5	-54.5	14.4	0.00e+00	0	25	0	589299712	70	4731
2026-01-11 06:11:43.15	21.73	24.85	-52.5	-54.5	14.4	0.00e+00	0	25	0	591396864	70	4750
2026-01-11 06:11:44.01	21.48	24.87	-52.6	-54.6	14.4	0.00e+00	0	25	0	593494016	70	4773
2026-01-11 06:11:45.16	21.15	24.89	-52.5	-54.5	14.4	0.00e+00	0	25	0	595591168	70	4732
2026-01-11 06:11:46.01	20.90	24.91	-52.4	-54.4	14.5	0.00e+00	0	25	0	596639744	70	4672
2026-01-11 06:11:47.16	20.57	24.93	-52.5	-54.5	14.4	0.00e+00	0	25	0	599785472	70	4753
2026-01-11 06:11:48.02	20.32	24.94	-52.4	-54.4	14.5	0.00e+00	0	25	0	600834048	70	4665
2026-01-11 06:11:49.16	19.99	24.96	-52.4	-54.4	14.5	0.00e+00	0	25	0	602931200	70	4675
2026-01-11 06:11:50.02	19.74	24.98	-52.3	-54.2	14.6	0.00e+00	0	25	0	605028352	70	4552
2026-01-11 06:11:51.16	19.40	24.99	-52.3	-54.2	14.6	0.00e+00	0	25	0	607125504	70	4550
2026-01-11 06:11:52.01	19.16	25.00	-52.3	-54.2	14.6	0.00e+00	0	25	0	608174080	70	4593
2026-01-11 06:11:53.15	18.82	25.02	-52.3	-54.2	14.6	0.00e+00	0	25	0	610271232	70	4581
2026-01-11 06:11:54.00	18.58	25.03	-52.5	-54.5	14.4	0.00e+00	0	25	0	612368384	70	4754
2026-01-11 06:11:55.14	18.24	25.04	-52.6	-54.6	14.4	0.00e+00	0	25	0	614465536	70	4803
2026-01-11 06:11:56.00	17.99	25.05	-52.6	-54.7	14.4	0.00e+00	0	25	0	615514112	70	4818
2026-01-11 06:11:57.14	17.66	25.06	-52.6	-54.6	14.4	0.00e+00	0	25	0	617611264	70	4805
2026-01-11 06:11:57.99	17.41	25.07	-52.5	-54.5	14.4	0.00e+00	0	25	0	619708416	70	4754
2026-01-11 06:11:59.13	17.08	25.08	-52.3	-54.3	14.6	0.00e+00	0	25	0	621805568	70	4600
2026-01-11 06:11:59.98	16.83	25.08	-52.4	-54.4	14.5	0.00e+00	0	25	0	622854144	70	4674
2026-01-11 06:12:01.13	16.49	25.09	-52.4	-54.4	14.5	0.00e+00	0	25	0	624951296	70	4657
2026-01-11 06:12:01.98	16.24	25.10	-52.3	-54.2	14.6	0.00e+00	0	25	0	627048448	70	4580
2026-01-11 06:12:03.11	15.91	25.10	-52.1	-54.0	14.7	0.00e+00	0	25	0	629145600	70	4466
2026-01-11 06:12:03.97	15.66	25.11	-52.1	-54.0	14.7	0.00e+00	0	25	0	631242752	70	4458
2026-01-11 06:12:05.11	15.33	25.11	-52.2	-54.1	14.6	0.00e+00	0	25	0	633339904	70	4530
2026-01-11 06:12:05.96	15.08	25.11	-52.3	-54.2	14.6	0.00e+00	0	25	0	634388480	70	4585
2026-01-11 06:12:07.09	14.74	25.11	-52.2	-54.1	14.7	0.00e+00	0	25	0	636485632	70	4510
2026-01-11 06:12:07.95	14.49	25.11	-52.3	-54.1	14.6	0.00e+00	0	25	0	638582784	70	4541
2026-01-11 06:12:09.08	14.16	25.11	-52.1	-53.9	14.8	0.00e+00	0	25	0	640679936	70	4418
2026-01-11 06:12:09.94	13.91	25.11	-52.0	-53.8	14.8	0.00e+00	0	25	0	641728512	70	4368
2026-01-11 06:12:11.08	13.57	25.11	-51.8	-53.5	14.9	0.00e+00	0	25	0	643825664	70	4241
2026-01-11 06:12:11.94	13.32	25.11	-51.5	-53.2	14.9	0.00e+00	0	25	0	645922816	69	4325
2026-01-11 06:12:13.08	12.99	25.10	-51.5	-53.2	15.0	0.00e+00	0	25	0	648019968	69	4297
2026-01-11 06:12:13.95	12.73	25.10	-51.4	-53.1	15.0	0.00e+00	0	25	0	649068544	69	4279
2026-01-11 06:12:15.08	12.40	25.09	-51.5	-53.2	14.9	0.00e+00	0	25	0	651165696	69	4294
2026-01-11 06:12:15.94	12.15	25.09	-51.4	-53.1	15.0	0.00e+00	0	25	0	653262848	69	4274
2026-01-11 06:12:17.08	11.82	25.08	-51.3	-53.0	15.0	0.00e+00	0	25	0	655360000	69	4220
2026-01-11 06:12:17.94	11.56	25.08	-51.3	-53.0	15.1	0.00e+00	0	25	0	657457152	69	4209
2026-01-11 06:12:19.08	11.23	25.07	-51.3	-52.9	15.1	0.00e+00	0	25	0	659554304	69	4183
2026-01-11 06:12:19.93	10.98	25.06	-51.1	-52.7	15.0	0.00e+00	0	25	0	660602880	68	4313
2026-01-11 06:12:21.07	10.65	25.05	-50.9	-52.5	15.1	0.00e+00	0	25	0	662700032	68	4222
2026-01-11 06:12:21.93	10.40	25.04	-50.9	-52.5	15.1	0.00e+00	0	25	0	664797184	68	4235
2026-01-11 06:12:23.07	10.07	25.02	-50.9	-52.5	15.1	0.00e+00	0	25	0	666894336	68	4231
2026-01-11 06:12:23.92	9.82	25.01	-51.0	-52.7	15.1	0.00e+00	0	25	0	667942912	68	4292
2026-01-11 06:12:25.07	9.48	25.00	-50.7	-52.2	15.3	0.00e+00	0	25	0	670040064	68	4098
2026-01-11 06:12:25.92	9.24	24.99	-50.3	-51.9	15.2	0.00e+00	0	25	0	672137216	67	4148
2026-01-11 06:12:27.07	8.90	24.97	-50.3	-51.8	15.3	0.00e+00	0	25	0	674234368	67	4106
2026-01-11 06:12:27.93	8.65	24.96	-50.1	-51.6	15.2	0.00e+00	0	25	0	675282944	66	4247
2026-01-11 06:12:29.07	8.32	24.94	-50.1	-51.5	15.2	0.00e+00	0	25	0	677380096	66	4236
2026-01-11 06:12:29.93	8.07	24.92	-50.1	-51.5	15.2	0.00e+00	0	25	0	679477248	66	4242
2026-01-11 06:12:31.06	7.74	24.90	-50.1	-51.6	15.1	0.00e+00	0	25	0	681574400	66	4256
2026-01-11 06:12:31.92	7.50	24.89	-50.1	-51.6	15.2	0.00e+00	0	25	0	683671552	66	4276
2026-01-11 06:12:33.06	7.17	24.86	-50.1	-51.6	15.1	0.00e+00	0	25	0	685768704	66	4262
2026-01-11 06:12:33.91	6.92	24.85	-50.1	-51.6	15.2	0.00e+00	0	25	0	686817280	66	4272
2026-01-11 06:12:35.05	6.59	24.82	-50.0	-51.5	15.2	0.00e+00	0	25	0	688914432	66	4214
2026-01-11 06:12:35.91	6.35	24.80	-50.0	-51.4	15.2	0.00e+00	0	25	0	691011584	66	4187
2026-01-11 06:12:37.05	6.02	24.78	-50.0	-51.4	15.2	0.00e+00	0	25	0	693108736	66	4184
2026-01-11 06:12:37.91	5.77	24.76	-49.9	-51.3	15.3	0.00e+00	0	25	0	694157312	66	4140
2026-01-11 06:12:39.05	5.44	24.73	-49.9	-51.3	15.3	0.00e+00	0	25	0	696254464	66	4132
2026-01-11 06:12:39.91	5.20	24.71	-49.9	-51.4	15.3	0.00e+00	0	25	0	698351616	66	4162
2026-01-11 06:12:41.05	4.87	24.68	-50.1	-51.6	15.2	0.00e+00	0	25	0	700448768	66	4259
2026-01-11 06:12:41.91	4.63	24.66	-50.1	-51.6	15.2	0.00e+00	0	25	0	701497344	66	4280
2026-01-11 06:12:43.04	4.31	24.63	-50.2	-51.8	15.1	0.00e+00	0	25	0	703594496	66	4348
2026-01-11 06:12:43.90	4.06	24.60	-50.3	-51.8	15.1	0.00e+00	0	25	0	705691648	66	4356
2026-01-11 06:12:45.04	3.74	24.57	-50.3	-51.8	15.1	0.00e+00	0	25	0	707788800	66	4363
2026-01-11 06:12:45.89	3.50	24.54	-50.3	-51.8	15.1	0.00e+00	0	25	0	709885952	66	4375
2026-01-11 06:12:47.03	3.18	24.51	-50.3	-51.8	15.1	0.00e+00	0	25	0	711983104	66	4361
2026-01-11 06:12:47.89	2.93	24.48	-50.3	-51.9	15.1	0.00e+00	0	25	0	713031680	66	4396
2026-01-11 06:12:49.03	2.61	24.45	-50.3	-51.8	15.1	0.00e+00	0	25	0	715128832	66	4376
2026-01-11 06:12:49.89	2.37	24.42	-50.5	-52.0	15.0	0.00e+00	0	25	0	717225984	66	4475
2026-01-11 06:12:51.03	2.05	24.38	-50.6	-52.2	14.9	0.00e+00	0	25	0	719323136	66	4549
2026-01-11 06:12:51.89	1.81	24.35	-50.7	-52.3	14.9	0.00e+00	0	25	0	720371712	66	4618
2026-01-11 06:12:53.03	1.49	24.32	-50.7	-52.4	14.9	0.00e+00	0	25	0	722468864	66	4652
2026-01-11 06:12:53.88	1.26	24.29	-50.7	-52.3	14.9	0.00e+00	0	25	0	724566016	66	4635
2026-01-11 06:12:55.02	0.94	24.24	-50.8	-52.4	14.8	0.00e+00	0	25	0	726663168	66	4690
2026-01-11 06:12:55.87	0.71	24.21	-50.8	-52.4	14.8	0.00e+00	0	25	0	727711744	66	4691
2026-01-11 06:12:57.01	0.39	24.17	-50.8	-52.4	14.8	0.00e+00	0	25	0	729808896	66	4701
2026-01-11 06:12:57.86	0.16	24.14	-51.0	-52.6	14.9	0.00e+00	0	25	0	731906048	67	4531
2026-01-11 06:12:59.00	359.84	24.10	-51.0	-52.6	14.9	0.00e+00	0	25	0	734003200	67	4526
2026-01-11 06:12:59.85	359.61	24.06	-51.0	-52.7	14.9	0.00e+00	0	25	0	735051776	67	4557
2026-01-11 06:13:00.98	359.30	24.02	-51.2	-52.8	14.8	0.00e+00	0	25	0	738197504	67	4650
2026-01-11 06:13:01.83	359.07	23.98	-51.2	-52.9	14.8	0.00e+00	0	25	0	739246080	67	4659
2026-01-11 06:13:02.97	358.76	23.94	-51.2	-52.9	14.8	0.00e+00	0	25	0	741343232	67	4653
2026-01-11 06:13:03.82	358.53	23.90	-51.2	-52.9	14.8	0.00e+00	0	25	0	743440384	67	4656
2026-01-11 06:13:04.95	358.22	23.85	-51.2	-52.9	14.8	0.00e+00	0	25	0	745537536	67	4657
2026-01-11 06:13:05.82	357.98	23.82	-51.3	-53.0	14.7	0.00e+00	0	25	0	746586112	67	4743
2026-01-11 06:13:06.96	357.68	23.77	-51.4	-53.1	14.7	0.00e+00	0	25	0	748683264	67	4779
2026-01-11 06:13:07.82	357.45	23.73	-51.6	-53.4	14.7	0.00e+00	0	25	0	750780416	68	4672
2026-01-11 06:13:08.96	357.14	23.68	-51.8	-53.6	14.6	0.00e+00	0	25	0	752877568	68	4772
2026-01-11 06:13:09.81	356.91	23.64	-51.8	-53.6	14.6	0.00e+00	0	25	0	753926144	68	4770
2026-01-11 06:13:10.96	356.61	23.59	-51.9	-53.7	14.5	0.00e+00	0	25	0	756023296	68	4858
2026-01-11 06:13:11.81	356.38	23.55	-52.0	-53.9	14.6	0.00e+00	0	25	0	758120448	69	4658
2026-01-11 06:13:12.95	356.08	23.49	-52.0	-53.8	14.6	0.00e+00	0	25	0	760217600	69	4647
2026-01-11 06:13:13.80	355.86	23.45	-52.0	-53.8	14.6	0.00e+00	0	25	0	761266176	69	4650
2026-01-11 06:13:14.94	355.56	23.40	-52.0	-53.8	14.6	0.00e+00	0	25	0	763363328	69	4649
2026-01-11 06:13:15.80	355.33	23.36	-51.8	-53.6	14.7	0.00e+00	0	25	0	765460480	69	4541
2026-01-11 06:13:16.94	355.03	23.30	-52.0	-53.8	14.7	0.00e+00	0	25	0	767557632	69	4611
2026-01-11 06:13:17.80	354.81	23.26	-52.0	-53.9	14.6	0.00e+00	0	25	0	769654784	69	4679
2026-01-11 06:13:18.95	354.51	23.20	-52.1	-54.0	14.6	0.00e+00	0	25	0	771751936	69	4732
2026-01-11 06:13:19.80	354.29	23.16	-52.2	-54.1	14.5	0.00e+00	0	25	0	772800512	69	4774
2026-01-11 06:13:20.94	354.00	23.10	-52.3	-54.2	14.5	0.00e+00	0	25	0	774897664	69	4832
2026-01-11 06:13:21.81	353.77	23.05	-52.3	-54.3	14.4	0.00e+00	0	25	0	776994816	69	4887
2026-01-11 06:13:22.96	353.48	22.99	-52.2	-54.1	14.5	0.00e+00	0	25	0	779091968	69	4773
2026-01-11 06:13:23.81	353.26	22.95	-52.3	-54.2	14.4	0.00e+00	0	25	0	780140544	69	4846
2026-01-11 06:13:24.95	352.97	22.89	-52.1	-54.0	14.6	0.00e+00	0	25	0	782237696	69	4737
2026-01-11 06:13:25.81	352.75	22.84	-52.2	-54.1	14.5	0.00e+00	0	25	0	784334848	69	4783
2026-01-11 06:13:26.95	352.46	22.78	-52.1	-53.9	14.6	0.00e+00	0	25	0	786432000	69	4703
2026-01-11 06:13:27.81	352.25	22.73	-52.0	-53.9	14.6	0.00e+00	0	25	0	788529152	69	4678
2026-01-11 06:13:28.95	351.96	22.67	-52.1	-53.9	14.6	0.00e+00	0	25	0	789577728	69	4701
2026-01-11 06:13:29.81	351.75	22.62	-52.3	-54.2	14.4	0.00e+00	0	25	0	791674880	69	4845
2026-01-11 06:13:30.95	351.46	22.55	-52.4	-54.3	14.5	0.00e+00	0	25	0	793772032	70	4651
2026-01-11 06:13:31.81	351.25	22.51	-52.6	-54.6	14.4	0.00e+00	0	25	0	795869184	70	4792
2026-01-11 06:13:32.96	350.96	22.44	-52.6	-54.6	14.3	0.00e+00	0	25	0	797966336	70	4787
2026-01-11 06:13:33.81	350.75	22.39	-52.5	-54.5	14.4	0.00e+00	0	25	0	799014912	70	4727
2026-01-11 06:13:34.95	350.47	22.32	-52.3	-54.2	14.6	0.00e+00	0	25	0	801112064	70	4596
2026-01-11 06:13:35.81	350.26	22.27	-52.2	-54.1	14.6	0.00e+00	0	25	0	803209216	70	4539
2026-01-11 06:13:36.95	349.99	22.21	-52.1	-54.0	14.7	0.00e+00	0	25	0	805306368	70	4473
2026-01-11 06:13:37.81	349.78	22.16	-52.1	-54.0	14.7	0.00e+00	0	25	0	806354944	70	4447
2026-01-11 06:13:38.95	349.50	22.09	-52.3	-54.2	14.6	0.00e+00	0	25	0	808452096	70	4563
2026-01-11 06:13:39.81	349.29	22.04	-52.2	-54.1	14.6	0.00e+00	0	25	0	810549248	70	4541
2026-01-11 06:13:40.95	349.02	21.97	-52.2	-54.1	14.6	0.00e+00	0	25	0	812646400	70	4529
2026-01-11 06:13:41.80	348.82	21.92	-52.2	-54.0	14.7	0.00e+00	0	25	0	813694976	70	4480
2026-01-11 06:13:42.94	348.55	21.85	-52.3	-54.2	14.6	0.00e+00	0	25	0	816840704	70	4560
2026-01-11 06:13:43.79	348.35	21.79	-52.2	-54.1	14.6	0.00e+00	0	25	0	817889280	70	4520
2026-01-11 06:13:44.93	348.08	21.72	-52.1	-53.9	14.7	0.00e+00	0	25	0	819986432	70	4430
2026-01-11 06:13:45.79	347.87	21.67	-52.0	-53.9	14.7	0.00e+00	0	25	0	822083584	70	4405
2026-01-11 06:13:46.93	347.61	21.60	-52.1	-53.9	14.7	0.00e+00	0	25	0	824180736	70	4423
2026-01-11 06:13:47.79	347.41	21.54	-51.9	-53.7	14.9	0.00e+00	0	25	0	825229312	70	4292
2026-01-11 06:13:48.93	347.14	21.47	-51.8	-53.6	14.9	0.00e+00	0	25	0	827326464	70	4283
2026-01-11 06:13:49.79	346.94	21.41	-51.8	-53.5	14.9	0.00e+00	0	25	0	829423616	70	4234
2026-01-11 06:13:50.93	346.68	21.34	-51.6	-53.4	14.8	0.00e+00	0	25	0	831520768	69	4400
2026-01-11 06:13:51.78	346.49	21.29	-51.6	-53.3	14.9	0.00e+00	0	25	0	832569344	69	4384
2026-01-11 06:13:52.92	346.23	21.21	-51.6	-53.4	14.8	0.00e+00	0	25	0	834666496	69	4408
2026-01-11 06:13:53.78	346.03	21.16	-51.6	-53.3	14.8	0.00e+00	0	25	0	836763648	69	4376
2026-01-11 06:13:54.92	345.77	21.08	-51.4	-53.1	15.0	0.00e+00	0	25	0	838860800	69	4264
2026-01-11 06:13:55.78	345.58	21.03	-51.4	-53.1	14.9	0.00e+00	0	25	0	840957952	69	4276
2026-01-11 06:13:56.92	345.32	20.95	-51.4	-53.1	14.9	0.00e+00	0	25	0	843055104	69	4282
2026-01-11 06:13:57.78	345.13	20.89	-51.5	-53.3	14.9	0.00e+00	0	25	0	844103680	69	4353
2026-01-11 06:13:58.91	344.88	20.82	-51.5	-53.2	14.9	0.00e+00	0	25	0	846200832	69	4317
2026-01-11 06:13:59.77	344.69	20.76	-51.5	-53.3	14.9	0.00e+00	0	25	0	848297984	69	4353
2026-01-11 06:14:00.91	344.44	20.68	-51.6	-53.3	14.9	0.00e+00	0	25	0	850395136	69	4364
2026-01-11 06:14:01.77	344.25	20.62	-51.6	-53.3	14.8	0.00e+00	0	25	0	851443712	69	4382
2026-01-11 06:14:02.90	344.00	20.55	-51.5	-53.2	14.9	0.00e+00	0	25	0	853540864	69	4334
2026-01-11 06:14:03.76	343.81	20.49	-51.4	-53.2	14.9	0.00e+00	0	25	0	855638016	69	4299
2026-01-11 06:14:04.90	343.57	20.41	-51.5	-53.2	14.9	0.00e+00	0	25	0	857735168	69	4334
2026-01-11 06:14:05.75	343.38	20.35	-51.6	-53.3	14.8	0.00e+00	0	25	0	858783744	69	4374
2026-01-11 06:14:06.89	343.14	20.28	-51.5	-53.2	14.9	0.00e+00	0	25	0	860880896	69	4335
2026-01-11 06:14:07.74	342.96	20.22	-51.5	-53.2	14.9	0.00e+00	0	25	0	862978048	69	4305
2026-01-11 06:14:08.88	342.71	20.14	-51.5	-53.2	14.9	0.00e+00	0	25	0	865075200	69	4305
2026-01-11 06:14:09.74	342.53	20.08	-51.5	-53.2	14.9	0.00e+00	0	25	0	866123776	69	4320
2026-01-11 06:14:10.86	342.29	20.00	-51.6	-53.4	14.8	0.00e+00	0	25	0	869269504	69	4405
2026-01-11 06:14:11.72	342.11	19.94	-51.5	-53.3	14.9	0.00e+00	0	25	0	870318080	69	4344
2026-01-11 06:14:12.86	341.88	19.86	-51.5	-53.3	14.9	0.00e+00	0	25	0	872415232	69	4351
2026-01-11 06:14:13.71	341.70	19.80	-51.6	-53.3	14.9	0.00e+00	0	25	0	874512384	69	4384
2026-01-11 06:14:14.85	341.46	19.72	-51.6	-53.3	14.9	0.00e+00	0	25	0	876609536	69	4385
2026-01-11 06:14:15.70	341.29	19.66	-51.6	-53.4	14.8	0.00e+00	0	25	0	877658112	69	4399
2026-01-11 06:14:16.85	341.05	19.58	-51.6	-53.3	14.8	0.00e+00	0	25	0	879755264	69	4387
2026-01-11 06:14:17.70	340.88	19.52	-51.6	-53.3	14.9	0.00e+00	0	25	0	881852416	69	4369
2026-01-11 06:14:18.84	340.65	19.44	-51.5	-53.2	14.9	0.00e+00	0	25	0	883949568	69	4306
2026-01-11 06:14:19.70	340.47	19.38	-51.4	-53.2	14.9	0.00e+00	0	25	0	884998144	69	4293
2026-01-11 06:14:20.85	340.24	19.29	-51.5	-53.2	14.9	0.00e+00	0	25	0	887095296	69	4306
2026-01-11 06:14:21.71	340.07	19.23	-51.5	-53.2	14.9	0.00e+00	0	25	0	889192448	69	4293
2026-01-11 06:14:22.85	339.84	19.15	-51.4	-53.1	15.0	0.00e+00	0	25	0	891289600	69	4245
2026-01-11 06:14:23.70	339.67	19.09	-51.2	-52.9	15.1	0.00e+00	0	25	0	892338176	69	4170
2026-01-11 06:14:24.84	339.45	19.01	-51.3	-52.9	15.0	0.00e+00	0	25	0	894435328	69	4189
2026-01-11 06:14:25.70	339.28	18.94	-51.2	-52.9	15.0	0.00e+00	0	25	0	896532480	69	4177
2026-01-11 06:14:26.84	339.06	18.86	-51.3	-53.0	15.0	0.00e+00	0	25	0	898629632	69	4214
2026-01-11 06:14:27.70	338.89	18.80	-51.2	-52.8	15.1	0.00e+00	0	25	0	900726784	69	4137
2026-01-11 06:14:28.85	338.67	18.72	-51.2	-52.9	14.9	0.00e+00	0	25	0	902823936	68	4397
2026-01-11 06:14:29.70	338.50	18.65	-51.1	-52.7	15.0	0.00e+00	0	25	0	903872512	68	4323
2026-01-11 06:14:30.85	338.28	18.57	-51.1	-52.7	15.0	0.00e+00	0	25	0	905969664	68	4325
2026-01-11 06:14:31.71	338.12	18.51	-51.1	-52.7	15.0	0.00e+00	0	25	0	908066816	68	4318
2026-01-11 06:14:32.85	337.90	18.42	-51.0	-52.6	15.0	0.00e+00	0	25	0	910163968	68	4264
2026-01-11 06:14:33.71	337.74	18.36	-51.0	-52.7	15.0	0.00e+00	0	25	0	911212544	68	4302
2026-01-11 06:14:34.85	337.52	18.28	-50.9	-52.6	15.0	0.00e+00	0	25	0	913309696	68	4246
2026-01-11 06:14:35.70	337.37	18.21	-50.9	-52.5	15.1	0.00e+00	0	25	0	915406848	68	4219
2026-01-11 06:14:36.84	337.15	18.13	-50.9	-52.5	15.1	0.00e+00	0	25	0	917504000	68	4210
2026-01-11 06:14:37.70	336.99	18.07	-50.9	-52.6	15.0	0.00e+00	0	25	0	918552576	68	4243
2026-01-11 06:14:38.84	336.78	17.98	-50.7	-52.3	15.2	0.00e+00	0	25	0	920649728	68	4110
2026-01-11 06:14:39.70	336.63	17.92	-50.8	-52.4	15.1	0.00e+00	0	25	0	922746880	68	4160
2026-01-11 06:14:40.84	336.42	17.83	-50.8	-52.4	15.1	0.00e+00	0	25	0	924844032	68	4175
2026-01-11 06:14:41.69	336.26	17.77	-50.8	-52.4	15.1	0.00e+00	0	25	0	926941184	68	4169
2026-01-11 06:14:42.83	336.06	17.69	-50.8	-52.4	15.2	0.00e+00	0	25	0	929038336	68	4153
2026-01-11 06:14:43.69	335.90	17.62	-50.8	-52.4	15.2	0.00e+00	0	25	0	930086912	68	4149
2026-01-11 06:14:44.83	335.70	17.54	-50.8	-52.4	15.1	0.00e+00	0	25	0	932184064	68	4166
2026-01-11 06:14:45.68	335.55	17.47	-50.9	-52.5	15.1	0.00e+00	0	25	0	934281216	68	4198
2026-01-11 06:14:46.82	335.34	17.39	-50.7	-52.3	15.2	0.00e+00	0	25	0	936378368	68	4137
2026-01-11 06:14:47.68	335.19	17.33	-50.7	-52.3	15.2	0.00e+00	0	25	0	937426944	68	4114
2026-01-11 06:14:48.82	334.99	17.24	-50.5	-52.0	15.1	0.00e+00	0	25	0	939524096	67	4232
2026-01-11 06:14:49.67	334.84	17.18	-50.4	-51.9	15.2	0.00e+00	0	25	0	941621248	67	4191
2026-01-11 06:14:50.82	334.64	17.09	-50.5	-52.1	15.1	0.00e+00	0	25	0	943718400	67	4260
2026-01-11 06:14:51.67	334.50	17.03	-50.4	-51.9	15.1	0.00e+00	0	25	0	944766976	67	4186
2026-01-11 06:14:52.81	334.30	16.94	-50.4	-51.9	15.1	0.00e+00	0	25	0	947912704	67	4183
2026-01-11 06:14:53.66	334.16	16.88	-50.4	-51.9	15.1	0.00e+00	0	25	0	948961280	67	4193
2026-01-11 06:14:54.80	333.96	16.79	-50.5	-52.0	15.1	0.00e+00	0	25	0	951058432	67	4226
2026-01-11 06:14:55.66	333.82	16.73	-50.5	-52.1	15.1	0.00e+00	0	25	0	953155584	67	4269
2026-01-11 06:14:56.80	333.62	16.64	-50.6	-52.2	15.0	0.00e+00	0	25	0	955252736	67	4306
2026-01-11 06:14:57.65	333.48	16.58	-50.6	-52.3	15.0	0.00e+00	0	25	0	956301312	67	4344
2026-01-11 06:14:58.80	333.29	16.50	-50.7	-52.4	14.9	0.00e+00	0	25	0	958398464	67	4395
2026-01-11 06:14:59.66	333.15	16.43	-50.6	-52.2	15.0	0.00e+00	0	25	0	960495616	67	4292
2026-01-11 06:15:00.78	332.96	16.35	-50.7	-52.3	15.0	0.00e+00	0	25	0	962592768	67	4372
2026-01-11 06:15:01.63	332.82	16.28	-50.7	-52.3	15.0	0.00e+00	0	25	0	963641344	67	4350
2026-01-11 06:15:02.77	332.64	16.20	-50.6	-52.3	15.0	0.00e+00	0	25	0	965738496	67	4350
2026-01-11 06:15:03.62	332.50	16.13	-50.7	-52.3	15.0	0.00e+00	0	25	0	967835648	67	4376
2026-01-11 06:15:04.76	332.31	16.05	-50.7	-52.3	15.0	0.00e+00	0	25	0	969932800	67	4368
2026-01-11 06:15:05.61	332.18	15.98	-50.6	-52.2	15.0	0.00e+00	0	25	0	970981376	67	4339
2026-01-11 06:15:06.74	332.00	15.90	-50.6	-52.2	15.0	0.00e+00	0	25	0	973078528	67	4309
2026-01-11 06:15:07.59	331.86	15.84	-50.6	-52.3	15.0	0.00e+00	0	25	0	975175680	67	4351
2026-01-11 06:15:08.73	331.68	15.75	-50.7	-52.3	15.0	0.00e+00	0	25	0	977272832	67	4370
2026-01-11 06:15:09.58	331.54	15.69	-50.8	-52.4	14.9	0.00e+00	0	25	0	978321408	67	4417
2026-01-11 06:15:10.71	331.37	15.60	-50.8	-52.5	14.9	0.00e+00	0	25	0	981467136	67	4458
2026-01-11 06:15:11.57	331.23	15.54	-50.8	-52.4	14.9	0.00e+00	0	25	0	982515712	67	4440
2026-01-11 06:15:12.71	331.06	15.45	-50.8	-52.4	14.9	0.00e+00	0	25	0	984612864	67	4407
2026-01-11 06:15:13.57	330.92	15.39	-50.9	-52.5	14.9	0.00e+00	0	25	0	986710016	67	4474
2026-01-11 06:15:14.70	330.75	15.30	-50.9	-52.6	14.8	0.00e+00	0	25	0	988807168	67	4529
2026-01-11 06:15:15.57	330.62	15.24	-51.0	-52.7	14.8	0.00e+00	0	25	0	989855744	67	4583
2026-01-11 06:15:16.70	330.44	15.15	-51.2	-53.0	14.7	0.00e+00	0	25	0	991952896	67	4721
2026-01-11 06:15:17.55	330.31	15.09	-51.3	-53.1	14.6	0.00e+00	0	25	0	994050048	67	4793
2026-01-11 06:15:18.70	330.14	15.00	-51.3	-53.1	14.6	0.00e+00	0	25	0	996147200	67	4799
2026-01-11 06:15:19.56	330.01	14.94	-51.4	-53.2	14.6	0.00e+00	0	25	0	997195776	67	4823
2026-01-11 06:15:20.70	329.84	14.86	-51.7	-53.5	14.6	0.00e+00	0	25	0	999292928	68	4724
2026-01-11 06:15:21.56	329.71	14.79	-51.6	-53.4	14.6	0.00e+00	0	25	0	1001390080	68	4694
2026-01-11 06:15:22.70	329.55	14.71	-51.6	-53.5	14.6	0.00e+00	0	25	0	1003487232	68	4720
2026-01-11 06:15:23.56	329.42	14.64	-51.6	-53.4	14.7	0.00e+00	0	25	0	1004535808	68	4659
2026-01-11 06:15:24.70	329.25	14.56	-51.5	-53.3	14.7	2.20e-06	0	25	0	1006632960	68	4651
2026-01-11 06:15:25.55	329.13	14.49	-51.5	-53.3	14.7	0.00e+00	0	25	0	1008730112	68	4625
2026-01-11 06:15:26.68	328.97	14.41	-51.6	-53.4	14.6	0.00e+00	0	25	0	1010827264	68	4688
2026-01-11 06:15:27.53	328.84	14.35	-51.5	-53.3	14.6	0.00e+00	0	25	0	1012924416	68	4642
2026-01-11 06:15:28.68	328.68	14.26	-51.5	-53.3	14.7	0.00e+00	0	25	0	1015021568	68	4610
2026-01-11 06:15:29.53	328.56	14.20	-51.6	-53.4	14.6	0.00e+00	0	25	0	1016070144	68	4654
2026-01-11 06:15:30.67	328.40	14.11	-51.6	-53.4	14.6	0.00e+00	0	25	0	1018167296	68	4695
2026-01-11 06:15:31.52	328.28	14.05	-51.7	-53.6	14.5	0.00e+00	0	25	0	1020264448	68	4761
2026-01-11 06:15:32.66	328.12	13.96	-51.8	-53.7	14.5	0.00e+00	0	25	0	1022361600	68	4819
2026-01-11 06:15:33.52	328.00	13.90	-51.8	-53.7	14.5	0.00e+00	0	25	0	1023410176	68	4855
2026-01-11 06:15:34.67	327.84	13.82	-51.9	-53.8	14.4	0.00e+00	0	25	0	1025507328	68	4908
2026-01-11 06:15:35.52	327.72	13.75	-51.9	-53.8	14.5	0.00e+00	0	25	0	1027604480	69	4651
2026-01-11 06:15:36.67	327.56	13.67	-52.0	-53.9	14.5	0.00e+00	0	25	0	1029701632	69	4662
2026-01-11 06:15:37.53	327.44	13.60	-51.8	-53.7	14.6	0.00e+00	0	25	0	1030750208	69	4577
2026-01-11 06:15:38.66	327.29	13.52	-51.9	-53.8	14.6	0.00e+00	0	25	0	1033895936	69	4610
2026-01-11 06:15:39.52	327.17	13.46	-51.9	-53.8	14.5	0.00e+00	0	25	0	1034944512	69	4640
2026-01-11 06:15:40.66	327.02	13.37	-51.9	-53.8	14.5	0.00e+00	0	25	0	1037041664	69	4644
2026-01-11 06:15:41.52	326.90	13.31	-52.0	-53.9	14.5	0.00e+00	0	25	0	1039138816	69	4674
2026-01-11 06:15:42.66	326.75	13.23	-52.0	-53.9	14.5	0.00e+00	0	25	0	1041235968	69	4679
2026-01-11 06:15:43.52	326.64	13.16	-52.0	-53.9	14.5	0.00e+00	0	25	0	1042284544	69	4698
2026-01-11 06:15:44.67	326.49	13.08	-51.9	-53.8	14.5	0.00e+00	0	25	0	1044381696	69	4648
2026-01-11 06:15:45.52	326.37	13.02	-52.0	-53.9	14.5	0.00e+00	0	25	0	1046478848	69	4677
2026-01-11 06:15:46.66	326.23	12.93	-52.0	-53.9	14.5	0.00e+00	0	25	0	1048576000	69	4685
2026-01-11 06:15:47.51	326.12	12.87	-52.0	-53.9	14.5	0.00e+00	0	25	0	1049624576	69	4686
2026-01-11 06:15:48.66	325.97	12.79	-51.9	-53.9	14.5	0.00e+00	0	25	0	1051721728	69	4652
2026-01-11 06:15:49.52	325.86	12.72	-52.0	-53.9	14.5	0.00e+00	0	26	0	1053818880	69	4672
2026-01-11 06:15:50.66	325.71	12.64	-52.0	-54.0	14.5	0.00e+00	0	25	0	1055916032	69	4706
2026-01-11 06:15:51.53	325.60	12.58	-52.0	-54.0	14.5	0.00e+00	0	25	0	1056964608	69	4708
2026-01-11 06:15:52.67	325.45	12.49	-52.1	-54.1	14.4	0.00e+00	0	25	0	1060110336	69	4803
2026-01-11 06:15:53.53	325.35	12.43	-52.1	-54.1	14.4	0.00e+00	0	25	0	1061158912	69	4784
2026-01-11 06:15:54.67	325.20	12.35	-52.2	-54.2	14.4	0.00e+00	0	25	0	1063256064	69	4826
2026-01-11 06:15:55.53	325.10	12.28	-52.2	-54.2	14.4	0.00e+00	0	25	0	1065353216	69	4833
2026-01-11 06:15:56.67	324.95	12.20	-52.2	-54.3	14.3	0.00e+00	0	25	0	1067450368	69	4887
2026-01-11 06:15:57.54	324.85	12.14	-52.3	-54.3	14.3	0.00e+00	0	25	0	1068498944	69	4919
2026-01-11 06:15:58.68	324.71	12.06	-52.4	-54.4	14.2	0.00e+00	0	25	0	1070596096	69	4980
2026-01-11 06:15:59.54	324.60	11.99	-52.4	-54.4	14.2	0.00e+00	0	25	0	1072693248	69	4965
2026-01-11 06:16:00.68	324.46	11.91	-52.4	-54.5	14.2	0.00e+00	0	25	0	1074790400	69	4990
2026-01-11 06:16:01.53	324.36	11.85	-52.3	-54.4	14.3	0.00e+00	0	25	0	1075838976	69	4953
2026-01-11 06:16:02.67	324.22	11.77	-52.3	-54.4	14.2	0.00e+00	0	25	0	1077936128	69	4941
2026-01-11 06:16:03.52	324.12	11.71	-52.4	-54.4	14.2	0.00e+00	0	25	0	1080033280	69	4982
2026-01-11 06:16:04.66	323.98	11.62	-52.2	-54.2	14.3	0.00e+00	0	25	0	1082130432	69	4852
2026-01-11 06:16:05.52	323.88	11.56	-52.3	-54.4	14.2	0.00e+00	0	25	0	1084227584	69	4935
2026-01-11 06:16:06.65	323.75	11.48	-52.3	-54.4	14.2	0.00e+00	0	25	0	1086324736	69	4966
2026-01-11 06:16:07.50	323.65	11.42	-52.4	-54.5	14.2	0.00e+00	0	25	0	1087373312	69	5007
2026-01-11 06:16:08.64	323.52	11.34	-52.5	-54.6	14.2	0.00e+00	0	25	0	1089470464	70	4787
2026-01-11 06:16:09.49	323.42	11.28	-52.5	-54.6	14.2	0.00e+00	0	25	0	1091567616	70	4802
2026-01-11 06:16:10.63	323.28	11.20	-52.5	-54.7	14.2	0.00e+00	0	25	0	1093664768	70	4818
2026-01-11 06:16:11.48	323.19	11.14	-52.5	-54.7	14.2	0.00e+00	0	25	0	1094713344	70	4821
2026-01-11 06:16:12.62	323.06	11.06	-52.6	-54.7	14.2	0.00e+00	0	25	0	1096810496	70	4863
2026-01-11 06:16:13.47	322.96	11.00	-52.6	-54.8	14.1	0.00e+00	0	25	0	1098907648	70	4903
2026-01-11 06:16:14.61	322.83	10.91	-52.8	-55.0	14.0	0.00e+00	0	25	0	1101004800	70	4999
2026-01-11 06:16:15.47	322.73	10.85	-52.8	-55.0	14.1	0.00e+00	0	25	0	1102053376	70	4997
2026-01-11 06:16:16.61	322.60	10.77	-52.8	-55.1	14.0	0.00e+00	0	25	0	1104150528	70	5073
2026-01-11 06:16:17.47	322.51	10.71	-52.8	-55.1	14.0	0.00e+00	0	25	0	1106247680	70	5068
2026-01-11 06:16:18.60	322.38	10.63	-52.9	-55.2	13.9	0.00e+00	0	25	0	1108344832	70	5104
2026-01-11 06:16:19.45	322.29	10.57	-52.9	-55.2	14.1	0.00e+00	0	25	0	1109393408	71	4817
2026-01-11 06:16:20.60	322.16	10.49	-53.0	-55.3	14.0	0.00e+00	0	25	0	1111490560	71	4890
2026-01-11 06:16:21.46	322.07	10.43	-53.1	-55.4	13.9	0.00e+00	0	25	0	1113587712	71	4956
2026-01-11 06:16:22.60	321.94	10.35	-53.0	-55.3	14.0	0.00e+00	0	25	0	1115684864	71	4896
2026-01-11 06:16:23.45	321.85	10.29	-53.1	-55.4	14.0	0.00e+00	0	25	0	1117782016	71	4952
2026-01-11 06:16:24.60	321.73	10.21	-53.1	-55.5	13.9	0.00e+00	0	25	0	1119879168	71	5023
2026-01-11 06:16:25.46	321.63	10.15	-53.2	-55.6	13.8	0.00e+00	0	25	0	1120927744	71	5049
2026-01-11 06:16:26.60	321.51	10.07	-53.1	-55.5	13.9	0.00e+00	0	25	0	1123024896	71	5017
2026-01-11 06:16:27.46	321.42	10.01	-53.2	-55.7	13.8	0.00e+00	0	25	0	1125122048	71	5117
2026-01-11 06:16:28.60	321.30	9.93	-53.2	-55.7	13.8	0.00e+00	0	25	0	1127219200	71	5121
2026-01-11 06:16:29.46	321.21	9.87	-53.3	-55.8	13.7	0.00e+00	0	25	0	1128267776	71	5191
2026-01-11 06:16:30.60	321.09	9.79	-53.4	-55.9	13.6	0.00e+00	0	25	0	1130364928	71	5258
2026-01-11 06:16:31.46	321.00	9.73	-53.4	-55.9	13.7	0.00e+00	0	25	0	1132462080	72	4967
2026-01-11 06:16:32.59	320.88	9.65	-53.4	-55.9	13.8	0.00e+00	0	25	0	1134559232	72	4940
2026-01-11 06:16:33.46	320.79	9.59	-53.4	-55.9	13.8	0.00e+00	0	25	0	1135607808	72	4947
2026-01-11 06:16:34.59	320.68	9.52	-53.3	-55.8	13.8	0.00e+00	0	25	0	1137704960	72	4911
2026-01-11 06:16:35.45	320.59	9.46	-53.4	-55.9	13.8	0.00e+00	0	25	0	1139802112	72	4951
2026-01-11 06:16:36.59	320.47	9.38	-53.3	-55.7	13.8	0.00e+00	0	25	0	1141899264	72	4858
2026-01-11 06:16:37.45	320.39	9.32	-53.3	-55.8	13.8	0.00e+00	0	25	0	1143996416	72	4877
2026-01-11 06:16:38.59	320.27	9.24	-53.3	-55.7	13.8	0.00e+00	0	25	0	1146093568	72	4856
2026-01-11 06:16:39.45	320.18	9.18	-53.3	-55.7	13.9	0.00e+00	0	25	0	1147142144	72	4843
2026-01-11 06:16:40.58	320.07	9.10	-53.3	-55.7	13.9	0.00e+00	0	25	0	1149239296	72	4848
2026-01-11 06:16:41.43	319.99	9.05	-53.2	-55.6	13.9	0.00e+00	0	25	0	1151336448	72	4799
2026-01-11 06:16:42.57	319.87	8.97	-53.2	-55.7	13.9	0.00e+00	0	25	0	1153433600	72	4831
2026-01-11 06:16:43.43	319.79	8.91	-53.2	-55.7	13.8	0.00e+00	0	25	0	1154482176	72	4847
2026-01-11 06:16:44.57	319.68	8.83	-53.3	-55.8	13.8	0.00e+00	0	25	0	1156579328	72	4892
2026-01-11 06:16:45.42	319.60	8.77	-53.2	-55.7	13.8	0.00e+00	0	25	0	1158676480	72	4851
2026-01-11 06:16:46.57	319.48	8.70	-53.3	-55.8	13.8	0.00e+00	0	25	0	1160773632	72	4903
2026-01-11 06:16:47.43	319.40	8.64	-53.3	-55.8	13.7	0.00e+00	0	25	0	1161822208	72	4909
2026-01-11 06:16:48.57	319.29	8.56	-53.4	-56.0	13.7	0.00e+00	0	25	0	1163919360	72	4998
2026-01-11 06:16:49.42	319.21	8.50	-53.4	-56.0	13.6	0.00e+00	0	25	0	1166016512	72	5017
2026-01-11 06:16:50.56	319.10	8.43	-53.5	-56.1	13.6	0.00e+00	0	25	0	1168113664	72	5060
2026-01-11 06:16:51.42	319.02	8.37	-53.4	-56.0	13.6	0.00e+00	0	25	0	1170210816	72	5007
2026-01-11 06:16:52.56	318.91	8.29	-53.5	-56.0	13.6	0.00e+00	0	25	0	1172307968	72	5030
2026-01-11 06:16:53.42	318.83	8.23	-53.4	-56.0	13.7	0.00e+00	0	25	0	1173356544	72	4991
2026-01-11 06:16:54.56	318.73	8.16	-53.4	-56.0	13.6	0.00e+00	0	26	0	1175453696	72	5024
2026-01-11 06:16:55.41	318.65	8.10	-53.4	-56.0	13.6	0.00e+00	0	25	0	1177550848	72	5029
2026-01-11 06:16:56.55	318.54	8.02	-53.5	-56.1	13.6	0.00e+00	0	25	0	1179648000	72	5069
2026-01-11 06:16:57.41	318.46	7.97	-53.4	-56.0	13.6	0.00e+00	0	25	0	1180696576	72	5035
2026-01-11 06:16:58.55	318.36	7.89	-53.5	-56.1	13.5	0.00e+00	0	26	0	1182793728	72	5099
2026-01-11 06:16:59.40	318.28	7.83	-53.5	-56.2	13.5	0.00e+00	0	25	0	1184890880	72	5106
2026-01-11 06:17:00.54	318.18	7.76	-53.6	-56.3	13.5	0.00e+00	0	25	0	1186988032	72	5180
2026-01-11 06:17:01.40	318.10	7.70	-53.6	-56.3	13.4	0.00e+00	0	25	0	1188036608	72	5214
2026-01-11 06:17:02.54	318.00	7.63	-53.7	-56.4	13.3	0.00e+00	0	25	0	1190133760	72	5274
2026-01-11 06:17:03.39	317.92	7.57	-53.6	-56.3	13.4	0.00e+00	0	25	0	1192230912	72	5205
2026-01-11 06:17:04.53	317.82	7.50	-53.8	-56.5	13.3	0.00e+00	0	25	0	1194328064	72	5339
2026-01-11 06:17:05.39	317.74	7.44	-53.8	-56.6	13.3	0.00e+00	0	25	0	1196425216	72	5355
2026-01-11 06:17:06.52	317.64	7.36	-53.8	-56.7	13.2	0.00e+00	0	25	0	1198522368	72	5437
2026-01-11 06:17:07.38	317.57	7.31	-53.8	-56.7	13.1	0.00e+00	0	25	0	1199570944	72	5448
2026-01-11 06:17:08.51	317.47	7.23	-53.9	-56.8	13.0	0.00e+00	0	25	0	1201668096	72	5507
2026-01-11 06:17:09.37	317.39	7.18	-53.9	-56.8	13.2	0.00e+00	0	25	0	1203765248	73	5185
2026-01-11 06:17:10.52	317.29	7.10	-54.0	-56.9	13.2	0.00e+00	0	25	0	1205862400	73	5246
2026-01-11 06:17:11.37	317.22	7.05	-54.0	-56.9	13.1	0.00e+00	0	25	0	1206910976	73	5271
2026-01-11 06:17:12.51	317.12	6.97	-54.0	-57.0	13.1	0.00e+00	0	25	0	1209008128	73	5325
2026-01-11 06:17:13.36	317.05	6.92	-54.1	-57.1	13.0	0.00e+00	0	25	0	1211105280	73	5389
2026-01-11 06:17:14.51	316.95	6.84	-54.1	-57.1	13.0	0.00e+00	0	26	0	1213202432	73	5380
2026-01-11 06:17:15.37	316.88	6.79	-54.0	-57.1	13.0	0.00e+00	0	25	0	1214251008	73	5361
2026-01-11 06:17:16.51	316.78	6.71	-54.1	-57.1	13.0	0.00e+00	0	25	0	1216348160	73	5402
2026-01-11 06:17:17.36	316.71	6.66	-54.1	-57.1	13.0	0.00e+00	0	25	0	1218445312	73	5386
