passes_logs/2026/01/11/R3.2S_Murmansk/R3.2S_Murmansk__20260111_230742_NOAA_20_JPSS-1_rec.log

#Pass ID: 20260111_230742_NOAA 20 (JPSS-1)
#Satellite: NOAA 20 (JPSS-1)
#Configuration: NOAA 20
#almurnet v.1.7.20251203
#Start time: 2026-01-11 23:07:43

#Version: 2.2.20231116
#Station: R3.2S_Murmansk
#Location: 33.079688 lon 68.888172 lat
#TLE: 1 43013U 17073A   26011.59429536  .00000082  00000+0  59704-4 0  9990
#TLE: 2 43013  98.7632 312.5697 0001637  44.2118 315.9188 14.19535307422256

#Time	Az	El	Level	Level2	SNR	BER	BlckErr	Temp	State	Recorded	gain1	gain2
2026-01-11 23:07:43.79	20.10	2.06	-58.1	-74.1	3.8	1.49e+00	0	21	0	0	81	24061
2026-01-11 23:07:44.80	20.14	2.13	-58.1	-74.1	3.8	1.49e+00	0	21	104	0	81	24091
2026-01-11 23:07:45.80	20.19	2.19	-58.1	-74.1	3.8	1.49e+00	0	21	104	0	81	24116
2026-01-11 23:07:46.81	20.24	2.25	-58.1	-74.1	3.8	1.49e+00	0	21	104	0	81	24092
2026-01-11 23:07:47.82	20.29	2.31	-58.1	-74.1	3.8	1.49e+00	0	21	104	0	81	24070
2026-01-11 23:07:48.83	20.34	2.37	-58.1	-74.1	3.8	1.49e+00	0	21	104	0	81	24004
2026-01-11 23:07:49.84	20.39	2.43	-58.1	-74.1	3.8	1.49e+00	0	21	104	0	81	24065
2026-01-11 23:07:50.84	20.44	2.49	-58.1	-74.1	3.8	1.49e+00	0	21	104	0	81	24064
2026-01-11 23:07:51.85	20.48	2.55	-58.1	-74.1	3.8	1.49e+00	0	21	104	0	81	24049
2026-01-11 23:07:52.86	20.53	2.61	-58.1	-74.1	3.8	1.49e+00	0	21	104	0	81	24045
2026-01-11 23:07:53.87	20.58	2.67	-58.1	-74.1	3.8	1.49e+00	0	21	104	0	81	24070
2026-01-11 23:07:54.88	20.63	2.74	-58.1	-74.1	3.8	1.49e+00	0	22	104	0	81	23977
2026-01-11 23:07:55.89	20.68	2.80	-58.1	-74.1	3.8	1.49e+00	0	21	104	0	81	24056
2026-01-11 23:07:56.90	20.73	2.86	-58.1	-74.1	3.8	1.49e+00	0	21	104	0	81	24083
2026-01-11 23:07:57.91	20.78	2.92	-58.1	-74.1	3.8	1.49e+00	0	21	104	0	81	24080
2026-01-11 23:07:58.92	20.84	2.98	-58.1	-74.1	3.8	1.49e+00	0	22	104	0	81	24079
2026-01-11 23:07:59.93	20.89	3.05	-58.1	-74.1	3.8	1.49e+00	0	22	104	0	81	24080
2026-01-11 23:08:00.93	20.94	3.11	-58.1	-74.1	3.8	1.49e+00	0	21	104	0	81	24092
2026-01-11 23:08:01.94	20.99	3.17	-58.1	-74.1	3.8	1.49e+00	0	22	104	0	81	24103
2026-01-11 23:08:02.95	21.04	3.23	-58.1	-74.1	3.8	1.49e+00	0	21	104	0	81	24086
2026-01-11 23:08:03.96	21.09	3.30	-58.1	-74.1	3.8	1.49e+00	0	22	104	0	81	24087
2026-01-11 23:08:04.97	21.14	3.36	-58.1	-74.1	3.8	1.49e+00	0	22	104	0	81	24115
2026-01-11 23:08:05.98	21.19	3.42	-58.1	-74.1	3.8	1.49e+00	0	22	104	0	81	24129
2026-01-11 23:08:06.99	21.25	3.49	-58.1	-74.2	3.8	1.49e+00	0	22	104	0	81	24144
2026-01-11 23:08:08.00	21.30	3.55	-58.1	-74.1	3.8	1.49e+00	0	22	104	0	81	24120
2026-01-11 23:08:09.00	21.35	3.61	-58.1	-74.1	3.8	1.49e+00	0	22	104	0	81	24097
2026-01-11 23:08:10.02	21.41	3.68	-58.1	-74.1	3.8	1.49e+00	0	22	104	0	81	24066
2026-01-11 23:08:11.02	21.46	3.74	-58.2	-74.2	3.8	1.49e+00	0	22	104	0	81	24180
2026-01-11 23:08:12.03	21.51	3.80	-58.1	-74.2	3.8	1.49e+00	0	22	104	0	81	24147
2026-01-11 23:08:13.04	21.56	3.87	-58.1	-74.1	3.8	1.49e+00	0	22	104	0	81	24107
2026-01-11 23:08:14.06	21.62	3.93	-58.1	-74.1	3.8	1.49e+00	0	22	104	0	81	24112
2026-01-11 23:08:15.06	21.67	4.00	-58.1	-74.1	3.8	1.49e+00	0	22	104	0	81	24076
2026-01-11 23:08:16.07	21.73	4.06	-58.1	-74.2	3.8	1.49e+00	0	22	104	0	81	24169
2026-01-11 23:08:17.08	21.78	4.13	-58.1	-74.2	3.8	1.49e+00	0	22	104	0	81	24152
2026-01-11 23:08:18.09	21.84	4.19	-58.1	-74.1	3.8	1.49e+00	0	22	104	0	81	24101
2026-01-11 23:08:19.10	21.89	4.25	-58.1	-74.1	3.8	1.49e+00	0	22	104	0	81	24118
2026-01-11 23:08:20.11	21.95	4.32	-58.2	-74.1	3.8	1.49e+00	0	22	104	0	81	24099
2026-01-11 23:08:21.12	22.00	4.38	-58.1	-74.2	3.8	1.49e+00	0	22	104	0	81	24139
2026-01-11 23:08:22.13	22.06	4.45	-58.1	-74.1	3.8	1.49e+00	0	22	104	0	81	24121
2026-01-11 23:08:23.14	22.11	4.52	-58.1	-74.2	3.8	1.49e+00	0	22	104	0	81	24144
2026-01-11 23:08:24.14	22.17	4.58	-58.1	-74.2	3.8	1.49e+00	0	22	104	0	81	24196
2026-01-11 23:08:25.15	22.22	4.65	-58.1	-74.2	3.8	1.49e+00	0	22	104	0	81	24135
2026-01-11 23:08:26.16	22.28	4.71	-58.1	-74.2	3.8	1.49e+00	0	22	104	0	81	24201
2026-01-11 23:08:27.17	22.34	4.78	-58.1	-74.2	3.8	1.49e+00	0	22	104	0	81	24166
2026-01-11 23:08:28.18	22.39	4.84	-58.1	-74.1	3.8	1.49e+00	0	22	104	0	81	24128
2026-01-11 23:08:29.19	22.45	4.91	-58.1	-74.2	3.8	1.49e+00	0	22	104	0	81	24137
2026-01-11 23:08:30.20	22.51	4.98	-58.1	-74.2	3.8	1.49e+00	0	22	104	0	81	24176
2026-01-11 23:08:31.21	22.56	5.04	-58.1	-74.1	3.8	1.49e+00	0	22	104	0	81	24103
2026-01-11 23:08:32.22	22.62	5.11	-58.1	-74.2	3.8	1.49e+00	0	22	104	0	81	24136
2026-01-11 23:08:33.23	22.68	5.18	-58.1	-74.2	3.8	1.49e+00	0	22	104	0	81	24174
2026-01-11 23:08:34.24	22.74	5.24	-58.1	-74.2	3.8	1.49e+00	0	22	104	0	81	24184
2026-01-11 23:08:35.24	22.80	5.31	-58.2	-74.2	3.8	1.49e+00	0	22	104	0	81	24152
2026-01-11 23:08:36.25	22.86	5.38	-58.1	-74.2	3.8	1.49e+00	0	22	104	0	81	24246
2026-01-11 23:08:37.26	22.91	5.44	-58.1	-74.1	3.8	1.49e+00	0	22	104	0	81	24101
2026-01-11 23:08:38.26	22.97	5.51	-58.1	-74.2	3.8	1.49e+00	0	22	104	0	81	24155
2026-01-11 23:08:39.27	23.03	5.58	-58.2	-74.2	3.8	1.49e+00	0	22	104	0	81	24141
2026-01-11 23:08:40.28	23.09	5.65	-58.1	-74.2	3.8	1.49e+00	0	22	104	0	81	24152
2026-01-11 23:08:41.29	23.15	5.72	-58.1	-74.1	3.8	1.49e+00	0	22	104	0	81	24052
2026-01-11 23:08:42.30	23.21	5.78	-58.1	-74.1	3.8	1.49e+00	0	22	104	0	81	24102
2026-01-11 23:08:43.31	23.27	5.85	-58.1	-74.2	3.8	1.49e+00	0	22	104	0	81	24178
2026-01-11 23:08:44.32	23.33	5.92	-58.1	-74.1	3.8	1.49e+00	0	22	104	0	81	24116
2026-01-11 23:08:45.33	23.40	5.99	-58.1	-74.2	3.8	1.49e+00	0	22	104	0	81	24163
2026-01-11 23:08:46.34	23.46	6.06	-58.1	-74.2	3.8	1.49e+00	0	22	104	0	81	24156
2026-01-11 23:08:47.35	23.52	6.13	-58.1	-74.1	3.8	1.49e+00	0	22	104	0	81	24109
2026-01-11 23:08:48.36	23.58	6.20	-58.1	-74.2	3.8	1.49e+00	0	22	104	0	81	24169
2026-01-11 23:08:49.37	23.64	6.26	-58.1	-74.1	3.8	1.49e+00	0	22	104	0	81	24116
2026-01-11 23:08:50.37	23.70	6.33	-58.1	-74.2	3.8	1.49e+00	0	22	104	0	81	24159
2026-01-11 23:08:51.38	23.77	6.40	-58.1	-74.2	3.8	1.49e+00	0	22	104	0	81	24150
2026-01-11 23:08:52.39	23.83	6.47	-58.1	-74.2	3.8	1.49e+00	0	22	104	0	81	24136
2026-01-11 23:08:53.40	23.89	6.54	-58.1	-74.2	3.8	1.49e+00	0	22	104	0	81	24139
2026-01-11 23:08:54.41	23.96	6.61	-58.1	-74.1	3.8	1.49e+00	0	22	104	0	81	24127
2026-01-11 23:08:55.42	24.02	6.68	-58.1	-74.2	3.8	1.49e+00	0	22	104	0	81	24136
2026-01-11 23:08:56.43	24.08	6.75	-58.1	-74.2	3.8	1.49e+00	0	22	104	0	81	24175
2026-01-11 23:08:57.44	24.15	6.82	-58.1	-74.1	3.8	1.49e+00	0	22	104	0	81	24104
2026-01-11 23:08:58.45	24.21	6.89	-58.1	-74.2	3.8	1.49e+00	0	22	104	0	81	24144
2026-01-11 23:08:59.46	24.28	6.97	-58.1	-74.1	3.8	1.49e+00	0	22	104	0	81	24091
2026-01-11 23:09:00.46	24.34	7.04	-58.1	-74.1	3.8	1.49e+00	0	22	104	0	81	24094
2026-01-11 23:09:01.47	24.41	7.11	-58.1	-74.2	3.8	1.49e+00	0	22	104	0	81	24164
2026-01-11 23:09:02.48	24.47	7.18	-58.1	-74.1	3.8	1.49e+00	0	22	104	0	81	24078
2026-01-11 23:09:03.49	24.54	7.25	-58.1	-74.1	3.8	1.49e+00	0	22	104	0	81	24122
2026-01-11 23:09:04.49	24.61	7.32	-58.1	-74.1	3.8	1.49e+00	0	23	104	0	81	24128
2026-01-11 23:09:05.49	24.67	7.39	-58.2	-74.2	3.8	1.49e+00	0	23	104	0	81	24212
2026-01-11 23:09:06.50	24.74	7.46	-58.2	-74.1	3.8	1.49e+00	0	23	104	0	81	24113
2026-01-11 23:09:07.51	24.81	7.54	-58.1	-74.2	3.8	1.49e+00	0	22	104	0	81	24177
2026-01-11 23:09:08.51	24.87	7.61	-58.1	-74.2	3.8	1.49e+00	0	22	104	0	81	24181
2026-01-11 23:09:09.52	24.94	7.68	-58.1	-74.2	3.8	1.49e+00	0	23	104	0	81	24173
2026-01-11 23:09:10.53	25.01	7.75	-58.1	-74.2	3.8	1.49e+00	0	23	104	0	81	24132
2026-01-11 23:09:11.54	25.08	7.83	-58.1	-74.2	3.8	1.49e+00	0	23	104	0	81	24203
2026-01-11 23:09:12.55	25.15	7.90	-58.1	-74.2	3.8	1.49e+00	0	23	104	0	81	24164
2026-01-11 23:09:13.56	25.22	7.97	-58.1	-74.1	3.8	1.49e+00	0	23	104	0	81	24121
2026-01-11 23:09:14.57	25.29	8.05	-58.1	-74.2	3.8	1.49e+00	0	23	104	0	81	24188
2026-01-11 23:09:15.53	25.35	8.12	-58.1	-74.1	3.8	1.49e+00	0	23	104	0	81	24070
2026-01-11 23:09:16.53	25.42	8.19	-58.1	-74.1	3.8	1.49e+00	0	22	104	0	81	24107
2026-01-11 23:09:17.53	25.49	8.26	-58.1	-74.1	3.8	1.49e+00	0	23	104	0	81	24058
2026-01-11 23:09:18.54	25.56	8.34	-58.1	-74.1	3.8	1.49e+00	0	23	104	0	81	24060
2026-01-11 23:09:19.55	25.63	8.41	-58.1	-74.1	3.8	1.49e+00	0	23	104	0	81	24099
2026-01-11 23:09:20.56	25.71	8.49	-58.1	-74.1	3.8	1.49e+00	0	22	104	0	81	24095
2026-01-11 23:09:21.57	25.78	8.56	-58.1	-74.2	3.8	1.49e+00	0	23	104	0	81	24149
2026-01-11 23:09:22.58	25.85	8.64	-58.1	-74.1	3.8	1.49e+00	0	22	104	0	81	24098
2026-01-11 23:09:23.59	25.92	8.71	-58.2	-74.1	3.8	1.49e+00	0	23	104	0	81	24129
2026-01-11 23:09:24.60	26.00	8.79	-58.1	-74.1	3.8	1.49e+00	0	23	104	0	81	24057
2026-01-11 23:09:25.61	26.07	8.86	-58.1	-74.1	3.8	1.49e+00	0	23	104	0	81	23947
2026-01-11 23:09:26.61	26.14	8.94	-58.1	-74.1	3.8	1.49e+00	0	23	104	0	81	23877
2026-01-11 23:09:27.63	26.22	9.01	-58.1	-74.0	3.8	1.49e+00	0	23	104	0	81	23715
2026-01-11 23:09:28.64	26.29	9.09	-58.1	-74.0	3.8	1.49e+00	0	23	104	0	81	23714
2026-01-11 23:09:29.64	26.37	9.17	-58.1	-73.9	3.8	1.49e+00	0	23	104	0	81	23553
2026-01-11 23:09:30.66	26.44	9.24	-58.1	-73.9	3.8	1.49e+00	0	23	104	0	81	23517
2026-01-11 23:09:31.66	26.52	9.32	-58.1	-73.9	3.8	1.49e+00	0	23	104	0	81	23464
2026-01-11 23:09:32.67	26.59	9.40	-58.1	-74.0	3.8	1.49e+00	0	23	104	0	81	23716
2026-01-11 23:09:33.68	26.67	9.47	-58.1	-74.0	3.8	1.49e+00	0	23	104	0	81	23787
2026-01-11 23:09:34.69	26.74	9.55	-58.1	-74.1	3.8	1.49e+00	0	23	104	0	81	23924
2026-01-11 23:09:35.70	26.82	9.63	-58.1	-74.1	3.8	1.49e+00	0	23	104	0	81	24035
2026-01-11 23:09:36.70	26.90	9.70	-58.1	-74.1	3.8	1.49e+00	0	23	104	0	81	24122
2026-01-11 23:09:37.71	26.98	9.78	-58.1	-74.1	3.8	1.49e+00	0	23	104	0	81	24042
2026-01-11 23:09:38.72	27.05	9.86	-58.1	-74.1	3.8	1.49e+00	0	23	104	0	81	24032
2026-01-11 23:09:39.73	27.13	9.94	-58.1	-74.1	3.8	1.49e+00	0	23	104	0	81	24124
2026-01-11 23:09:40.74	27.21	10.02	-58.1	-74.1	3.8	1.49e+00	0	23	104	0	81	24064
2026-01-11 23:09:41.75	27.29	10.10	-58.1	-74.1	3.8	1.49e+00	0	23	104	0	81	24128
2026-01-11 23:09:42.76	27.37	10.18	-58.1	-74.1	3.8	1.49e+00	0	23	104	0	81	24024
2026-01-11 23:09:43.76	27.45	10.25	-58.1	-74.2	3.8	1.49e+00	0	23	104	0	81	24138
2026-01-11 23:09:44.77	27.53	10.33	-58.1	-74.2	3.8	1.49e+00	0	23	104	0	81	24166
2026-01-11 23:09:45.78	27.61	10.41	-58.1	-74.2	3.8	1.49e+00	0	23	104	0	81	24186
2026-01-11 23:09:46.79	27.69	10.49	-58.1	-74.2	3.8	1.49e+00	0	23	104	0	81	24230
2026-01-11 23:09:47.80	27.77	10.57	-58.2	-74.2	3.8	1.49e+00	0	23	104	0	81	24145
2026-01-11 23:09:48.81	27.86	10.65	-58.2	-74.2	3.8	1.49e+00	0	23	104	0	81	24181
2026-01-11 23:09:49.81	27.94	10.73	-58.1	-74.2	3.8	1.49e+00	0	23	104	0	81	24174
2026-01-11 23:09:50.82	28.02	10.81	-58.2	-74.2	3.8	1.49e+00	0	23	104	0	81	24160
2026-01-11 23:09:51.83	28.11	10.89	-58.2	-74.2	3.8	1.49e+00	0	23	104	0	81	24220
2026-01-11 23:09:52.84	28.19	10.97	-58.2	-74.2	3.8	1.49e+00	0	23	104	0	81	24163
2026-01-11 23:09:53.85	28.27	11.06	-58.1	-74.2	3.8	1.49e+00	0	23	104	0	81	24192
2026-01-11 23:09:54.85	28.36	11.14	-58.1	-74.2	3.8	1.49e+00	0	23	104	0	81	24221
2026-01-11 23:09:55.86	28.44	11.22	-58.2	-74.2	3.8	1.49e+00	0	23	104	0	81	24223
2026-01-11 23:09:56.87	28.53	11.30	-58.2	-74.2	3.8	1.49e+00	0	23	104	0	81	24172
2026-01-11 23:09:57.88	28.61	11.38	-58.2	-74.2	3.8	1.49e+00	0	23	104	0	81	24200
2026-01-11 23:09:58.89	28.70	11.46	-58.1	-74.2	3.8	1.49e+00	0	23	104	0	81	24196
2026-01-11 23:09:59.90	28.79	11.55	-58.2	-74.2	3.8	1.49e+00	0	23	104	0	81	24163
2026-01-11 23:10:00.91	28.88	11.63	-58.2	-74.2	3.8	1.49e+00	0	23	104	0	81	24173
2026-01-11 23:10:01.92	28.96	11.71	-58.1	-74.2	3.8	1.49e+00	0	23	104	0	81	24226
2026-01-11 23:10:02.93	29.05	11.80	-58.1	-74.2	3.8	1.49e+00	0	23	104	0	81	24172
2026-01-11 23:10:03.94	29.14	11.88	-58.1	-74.2	3.8	1.49e+00	0	23	104	0	81	24135
2026-01-11 23:10:04.94	29.23	11.96	-58.1	-74.1	3.8	1.49e+00	0	23	104	0	81	24084
2026-01-11 23:10:05.95	29.32	12.05	-58.1	-74.1	3.8	1.49e+00	0	23	104	0	81	24077
2026-01-11 23:10:06.96	29.41	12.13	-58.1	-74.1	3.8	1.49e+00	0	23	104	0	81	24109
2026-01-11 23:10:07.96	29.50	12.21	-58.1	-74.1	3.8	1.49e+00	0	23	104	0	81	24124
2026-01-11 23:10:08.98	29.59	12.30	-58.1	-74.2	3.8	1.49e+00	0	23	104	0	81	24179
2026-01-11 23:10:09.98	29.68	12.38	-58.1	-74.1	3.8	1.49e+00	0	23	104	0	81	24068
2026-01-11 23:10:10.99	29.78	12.47	-58.1	-74.1	3.8	1.49e+00	0	23	104	0	81	24055
2026-01-11 23:10:12.01	29.87	12.55	-58.1	-74.1	3.8	1.49e+00	0	23	104	0	81	24085
2026-01-11 23:10:13.02	29.96	12.64	-58.1	-74.1	3.8	1.49e+00	0	23	104	0	81	24038
2026-01-11 23:10:14.03	30.06	12.73	-58.1	-74.1	3.8	1.49e+00	0	23	104	0	81	24102
2026-01-11 23:10:15.04	30.15	12.81	-58.1	-74.2	3.8	1.49e+00	0	23	104	0	81	24134
2026-01-11 23:10:16.04	30.24	12.90	-58.1	-74.1	3.8	1.49e+00	0	23	104	0	81	24037
2026-01-11 23:10:17.05	30.34	12.98	-58.1	-74.2	3.8	1.49e+00	0	23	104	0	81	24177
2026-01-11 23:10:18.06	30.44	13.07	-58.1	-74.1	3.8	1.49e+00	0	23	104	0	81	24095
2026-01-11 23:10:19.07	30.53	13.16	-58.1	-74.1	3.8	1.49e+00	0	23	104	0	81	24120
2026-01-11 23:10:20.08	30.63	13.24	-58.1	-74.1	3.8	1.49e+00	0	23	104	0	81	24107
2026-01-11 23:10:21.09	30.73	13.33	-58.1	-74.1	3.8	1.49e+00	0	23	104	0	81	24096
2026-01-11 23:10:22.09	30.82	13.42	-58.1	-74.2	3.8	1.49e+00	0	23	104	0	81	24140
2026-01-11 23:10:23.10	30.92	13.51	-58.1	-74.1	3.8	1.49e+00	0	23	104	0	81	24102
2026-01-11 23:10:24.11	31.02	13.59	-58.1	-74.1	3.8	1.49e+00	0	23	104	0	81	24072
2026-01-11 23:10:25.12	31.12	13.68	-58.1	-74.1	3.8	1.49e+00	0	23	104	0	81	24126
2026-01-11 23:10:26.13	31.22	13.77	-58.1	-74.2	3.8	1.49e+00	0	23	104	0	81	24183
2026-01-11 23:10:27.14	31.32	13.86	-58.1	-74.1	3.8	1.49e+00	0	23	104	0	81	24128
2026-01-11 23:10:28.15	31.43	13.95	-58.1	-74.2	3.8	1.49e+00	0	23	104	0	81	24141
2026-01-11 23:10:29.16	31.53	14.04	-58.1	-74.1	3.8	1.49e+00	0	23	104	0	81	24113
2026-01-11 23:10:30.17	31.63	14.13	-58.1	-74.1	3.8	1.49e+00	0	23	104	0	81	24104
2026-01-11 23:10:31.18	31.73	14.22	-58.1	-74.1	3.8	1.49e+00	0	23	104	0	81	24055
2026-01-11 23:10:32.18	31.84	14.31	-58.1	-74.1	3.8	1.49e+00	0	23	104	0	81	24024
2026-01-11 23:10:33.19	31.94	14.40	-58.1	-74.1	3.8	1.49e+00	0	23	104	0	81	24058
2026-01-11 23:10:34.21	32.05	14.49	-58.1	-74.1	3.8	1.49e+00	0	23	104	0	81	24053
2026-01-11 23:10:35.21	32.15	14.58	-58.1	-74.1	3.8	1.49e+00	0	23	104	0	81	24041
2026-01-11 23:10:36.22	32.26	14.67	-58.1	-74.1	3.8	1.49e+00	0	23	104	0	81	24070
2026-01-11 23:10:37.23	32.37	14.76	-58.1	-74.1	3.8	1.49e+00	0	23	104	0	81	24063
2026-01-11 23:10:38.23	32.47	14.85	-58.1	-74.1	3.8	1.49e+00	0	23	104	0	81	24050
2026-01-11 23:10:39.24	32.58	14.95	-58.1	-74.1	3.8	1.49e+00	0	23	104	0	81	23996
2026-01-11 23:10:40.25	32.69	15.04	-58.1	-74.1	3.8	1.49e+00	0	23	104	0	81	24082
2026-01-11 23:10:41.27	32.80	15.13	-58.1	-74.1	3.8	1.49e+00	0	23	104	0	81	24107
2026-01-11 23:10:42.27	32.91	15.22	-58.1	-74.1	3.8	1.49e+00	0	23	104	0	81	23973
2026-01-11 23:10:43.28	33.02	15.32	-58.1	-74.1	3.8	1.49e+00	0	23	104	0	81	23981
2026-01-11 23:10:44.29	33.13	15.41	-58.1	-74.1	3.8	1.49e+00	0	23	104	0	81	24031
2026-01-11 23:10:45.29	33.24	15.50	-58.1	-74.1	3.8	1.49e+00	0	23	104	0	81	24010
2026-01-11 23:10:46.30	33.35	15.60	-58.1	-74.1	3.8	1.49e+00	0	23	104	0	81	24030
2026-01-11 23:10:47.31	33.47	15.69	-58.1	-74.1	3.8	1.49e+00	0	23	104	0	81	24056
2026-01-11 23:10:48.32	33.58	15.78	-58.1	-74.1	3.8	1.49e+00	0	23	104	0	81	24027
2026-01-11 23:10:49.33	33.70	15.88	-58.1	-74.1	3.8	1.49e+00	0	23	104	0	81	24036
2026-01-11 23:10:50.33	33.81	15.97	-58.1	-74.1	3.8	1.49e+00	0	23	104	0	81	24034
2026-01-11 23:10:51.34	33.93	16.07	-58.1	-74.1	3.8	1.49e+00	0	23	104	0	81	24022
2026-01-11 23:10:52.35	34.05	16.16	-58.1	-74.1	3.8	1.49e+00	0	23	104	0	81	24027
2026-01-11 23:10:53.35	34.16	16.26	-58.1	-74.1	3.8	1.49e+00	0	23	104	0	81	24013
2026-01-11 23:10:54.36	34.28	16.35	-58.1	-74.1	3.8	1.49e+00	0	23	104	0	81	24005
2026-01-11 23:10:55.37	34.40	16.45	-58.1	-74.1	3.8	1.49e+00	0	23	104	0	81	23981
2026-01-11 23:10:56.38	34.52	16.55	-58.1	-74.1	3.8	1.49e+00	0	23	104	0	81	23923
2026-01-11 23:10:57.39	34.64	16.64	-58.1	-74.1	3.8	1.49e+00	0	23	104	0	81	24019
2026-01-11 23:10:58.40	34.76	16.74	-58.1	-74.1	3.8	1.49e+00	0	23	104	0	81	23940
2026-01-11 23:10:59.41	34.88	16.84	-58.1	-74.1	3.8	1.49e+00	0	23	104	0	81	23997
2026-01-11 23:11:00.42	35.01	16.93	-58.1	-74.1	3.8	1.49e+00	0	23	104	0	81	24020
2026-01-11 23:11:01.43	35.13	17.03	-58.1	-74.1	3.8	1.49e+00	0	23	104	0	81	24015
2026-01-11 23:11:02.43	35.25	17.13	-58.1	-74.1	3.8	1.49e+00	0	23	104	0	81	23965
2026-01-11 23:11:03.44	35.38	17.23	-58.1	-74.1	3.8	1.49e+00	0	23	104	0	81	24000
2026-01-11 23:11:04.45	35.50	17.33	-58.1	-74.1	3.8	1.49e+00	0	23	104	0	81	23957
2026-01-11 23:11:05.46	35.63	17.42	-58.1	-74.1	3.8	1.49e+00	0	23	104	0	81	23941
2026-01-11 23:11:06.47	35.76	17.52	-58.1	-74.1	3.8	1.49e+00	0	23	104	0	81	23989
2026-01-11 23:11:07.47	35.89	17.62	-58.1	-74.1	3.8	1.49e+00	0	23	104	0	81	23935
2026-01-11 23:11:08.48	36.02	17.72	-58.1	-74.1	3.8	1.49e+00	0	23	104	0	81	23935
2026-01-11 23:11:09.49	36.15	17.82	-58.1	-74.1	3.8	1.49e+00	0	23	104	0	81	23985
2026-01-11 23:11:10.50	36.28	17.92	-58.1	-74.1	3.8	1.49e+00	0	23	104	0	81	24023
2026-01-11 23:11:11.51	36.41	18.02	-58.1	-74.1	3.8	1.49e+00	0	23	104	0	81	23953
2026-01-11 23:11:12.52	36.54	18.12	-58.1	-74.1	3.8	1.49e+00	0	23	104	0	81	23947
2026-01-11 23:11:13.53	36.67	18.22	-58.1	-74.1	3.8	1.49e+00	0	23	104	0	81	23916
2026-01-11 23:11:14.54	36.81	18.33	-58.1	-74.1	3.8	1.49e+00	0	23	104	0	81	23939
2026-01-11 23:11:15.55	36.94	18.43	-58.1	-74.0	3.8	1.49e+00	0	23	104	0	81	23853
2026-01-11 23:11:16.56	37.08	18.53	-58.1	-74.0	3.8	1.49e+00	0	23	104	0	81	23823
2026-01-11 23:11:17.57	37.22	18.63	-58.1	-74.0	3.8	1.49e+00	0	23	104	0	81	23829
2026-01-11 23:11:18.58	37.35	18.73	-58.1	-74.0	3.8	1.49e+00	0	23	104	0	81	23721
2026-01-11 23:11:19.59	37.49	18.84	-58.1	-74.0	3.8	1.49e+00	0	23	104	0	81	23708
2026-01-11 23:11:20.60	37.63	18.94	-58.1	-74.0	3.8	1.49e+00	0	23	104	0	81	23794
2026-01-11 23:11:21.61	37.77	19.04	-58.1	-74.0	3.8	1.49e+00	0	23	104	0	81	23762
2026-01-11 23:11:22.61	37.91	19.14	-58.1	-74.0	3.8	1.49e+00	0	23	104	0	81	23813
2026-01-11 23:11:23.61	38.05	19.25	-58.1	-74.1	3.8	1.49e+00	0	23	104	0	81	23870
2026-01-11 23:11:24.62	38.20	19.35	-58.1	-74.0	3.8	1.49e+00	0	23	104	0	81	23795
2026-01-11 23:11:25.63	38.34	19.45	-58.1	-74.1	3.8	1.49e+00	0	23	104	0	81	23887
2026-01-11 23:11:26.63	38.48	19.56	-58.1	-74.1	3.8	1.49e+00	0	23	104	0	81	23894
2026-01-11 23:11:27.64	38.63	19.66	-58.1	-74.1	3.8	1.49e+00	0	23	104	0	81	23916
2026-01-11 23:11:28.66	38.78	19.77	-58.1	-74.1	3.8	1.49e+00	0	23	104	0	81	23912
2026-01-11 23:11:29.67	38.93	19.87	-58.1	-74.1	3.8	1.49e+00	0	23	104	0	81	23889
2026-01-11 23:11:30.67	39.07	19.98	-58.1	-74.1	3.8	1.49e+00	0	23	104	0	81	23878
2026-01-11 23:11:31.68	39.22	20.08	-58.1	-74.1	3.8	1.49e+00	0	23	104	0	81	23879
2026-01-11 23:11:32.69	39.38	20.19	-58.1	-74.1	3.8	1.49e+00	0	23	104	0	81	23918
2026-01-11 23:11:33.70	39.53	20.30	-58.1	-74.1	3.8	1.49e+00	0	23	104	0	81	23944
2026-01-11 23:11:34.71	39.68	20.40	-58.1	-74.0	3.8	1.49e+00	0	23	104	0	81	23847
2026-01-11 23:11:35.72	39.83	20.51	-58.1	-74.1	3.8	1.49e+00	0	23	104	0	81	23904
2026-01-11 23:11:36.73	39.99	20.62	-58.1	-74.1	3.8	1.49e+00	0	23	104	0	81	23904
2026-01-11 23:11:37.72	40.14	20.72	-58.1	-74.1	3.8	1.49e+00	0	23	104	0	81	24004
2026-01-11 23:11:38.73	40.30	20.83	-58.1	-74.1	3.8	1.49e+00	0	23	104	0	81	23940
2026-01-11 23:11:39.74	40.46	20.94	-58.1	-74.1	3.8	1.49e+00	0	23	104	0	81	23960
2026-01-11 23:11:40.75	40.62	21.05	-58.1	-74.1	3.8	1.49e+00	0	23	104	0	81	23915
2026-01-11 23:11:41.75	40.78	21.15	-58.1	-74.1	3.8	1.49e+00	0	23	104	0	81	23903
2026-01-11 23:11:42.76	40.94	21.26	-58.1	-74.1	3.8	1.49e+00	0	23	104	0	81	23925
2026-01-11 23:11:43.77	41.10	21.37	-58.1	-74.1	3.8	1.49e+00	0	23	104	0	81	23898
2026-01-11 23:11:44.78	41.26	21.48	-58.1	-74.1	3.8	1.49e+00	0	23	104	0	81	23886
2026-01-11 23:11:45.79	41.43	21.59	-58.1	-74.1	3.8	1.49e+00	0	23	104	0	81	23904
2026-01-11 23:11:46.80	41.60	21.70	-58.1	-74.1	3.8	1.49e+00	0	23	104	0	81	23877
2026-01-11 23:11:47.80	41.76	21.81	-58.0	-74.1	3.8	1.49e+00	0	23	104	0	81	23936
2026-01-11 23:11:48.82	41.93	21.92	-58.1	-74.1	3.8	1.49e+00	0	23	104	0	81	23934
2026-01-11 23:11:49.83	42.10	22.03	-58.0	-74.1	3.8	1.49e+00	0	23	104	0	81	23865
2026-01-11 23:11:50.83	42.27	22.14	-58.1	-74.1	3.8	1.49e+00	0	23	104	0	81	23916
2026-01-11 23:11:51.84	42.44	22.25	-58.0	-74.0	3.8	1.49e+00	0	23	104	0	81	23830
2026-01-11 23:11:52.85	42.61	22.36	-58.0	-74.1	3.8	1.49e+00	0	23	104	0	81	23871
2026-01-11 23:11:53.86	42.79	22.47	-58.0	-74.0	3.8	1.49e+00	0	23	104	0	81	23783
2026-01-11 23:11:54.87	42.96	22.58	-58.0	-74.0	3.8	1.49e+00	0	23	104	0	81	23803
2026-01-11 23:11:55.88	43.14	22.69	-58.0	-74.1	3.8	1.49e+00	0	23	104	0	81	23864
2026-01-11 23:11:56.89	43.32	22.81	-58.0	-74.0	3.9	1.49e+00	0	23	104	0	81	23841
2026-01-11 23:11:57.90	43.50	22.92	-58.0	-74.0	3.8	1.49e+00	0	23	104	0	81	23826
2026-01-11 23:11:58.91	43.68	23.03	-58.0	-74.0	3.8	1.49e+00	0	23	104	0	81	23848
2026-01-11 23:11:59.92	43.86	23.14	-58.0	-74.0	3.8	1.49e+00	0	23	104	0	81	23795
2026-01-11 23:12:00.93	44.04	23.26	-58.0	-74.0	3.8	1.49e+00	0	23	104	0	81	23771
2026-01-11 23:12:01.94	44.23	23.37	-58.0	-74.0	3.8	1.49e+00	0	23	104	0	81	23652
2026-01-11 23:12:02.94	44.41	23.48	-58.0	-73.9	3.8	1.49e+00	0	23	104	0	81	23567
2026-01-11 23:12:03.95	44.60	23.59	-58.0	-73.9	3.8	1.49e+00	0	23	104	0	81	23374
2026-01-11 23:12:04.96	44.79	23.71	-58.0	-73.9	3.8	1.49e+00	0	23	104	0	81	23446
2026-01-11 23:12:05.97	44.98	23.82	-58.0	-73.9	3.8	1.49e+00	0	23	104	0	81	23437
2026-01-11 23:12:06.98	45.17	23.93	-58.0	-74.0	3.8	1.49e+00	0	23	104	0	81	23629
2026-01-11 23:12:07.98	45.36	24.05	-58.0	-74.0	3.8	1.49e+00	0	23	104	0	81	23730
2026-01-11 23:12:08.99	45.55	24.16	-58.0	-74.0	3.8	1.49e+00	0	23	104	0	81	23788
2026-01-11 23:12:10.00	45.74	24.28	-58.0	-74.0	3.8	1.49e+00	0	23	104	0	81	23823
2026-01-11 23:12:11.01	45.94	24.39	-58.0	-74.0	3.8	1.49e+00	0	23	104	0	81	23832
2026-01-11 23:12:12.02	46.14	24.50	-58.0	-74.0	3.8	1.49e+00	0	23	104	0	81	23768
2026-01-11 23:12:13.03	46.34	24.62	-58.0	-74.0	3.8	1.49e+00	0	23	104	0	81	23699
2026-01-11 23:12:14.04	46.54	24.73	-58.0	-74.0	3.8	1.49e+00	0	23	104	0	81	23715
2026-01-11 23:12:15.05	46.74	24.85	-58.0	-74.0	3.8	1.49e+00	0	23	104	0	81	23764
2026-01-11 23:12:16.06	46.94	24.96	-58.0	-74.0	3.8	1.49e+00	0	23	104	0	81	23797
2026-01-11 23:12:17.07	47.15	25.08	-58.0	-74.0	3.8	1.49e+00	0	23	104	0	81	23734
2026-01-11 23:12:18.08	47.35	25.20	-58.0	-74.0	3.8	1.49e+00	0	23	104	0	81	23742
2026-01-11 23:12:19.09	47.56	25.31	-58.0	-74.0	3.8	1.49e+00	0	23	104	0	81	23735
2026-01-11 23:12:20.10	47.77	25.43	-58.0	-74.0	3.8	1.49e+00	0	23	104	0	81	23752
2026-01-11 23:12:21.11	47.98	25.54	-58.0	-74.0	3.8	1.49e+00	0	23	104	0	81	23736
2026-01-11 23:12:22.11	48.19	25.66	-58.0	-74.0	3.8	1.49e+00	0	23	104	0	81	23766
2026-01-11 23:12:23.12	48.41	25.77	-58.0	-74.0	3.8	1.49e+00	0	23	104	0	81	23713
2026-01-11 23:12:24.13	48.62	25.89	-58.0	-74.0	3.8	1.49e+00	0	23	104	0	81	23757
2026-01-11 23:12:25.14	48.84	26.01	-58.0	-74.0	3.8	1.49e+00	0	23	104	0	81	23723
2026-01-11 23:12:26.14	49.06	26.12	-58.0	-74.0	3.8	1.49e+00	0	23	104	0	81	23736
2026-01-11 23:12:27.15	49.28	26.24	-58.0	-74.0	3.8	1.49e+00	0	23	104	0	81	23823
2026-01-11 23:12:28.15	49.49	26.35	-58.0	-74.0	3.8	1.49e+00	0	23	104	0	81	23756
2026-01-11 23:12:29.16	49.72	26.47	-58.0	-74.0	3.8	1.49e+00	0	23	104	0	81	23798
2026-01-11 23:12:30.17	49.94	26.59	-58.0	-74.0	3.8	1.49e+00	0	23	104	0	81	23714
2026-01-11 23:12:31.18	50.17	26.70	-58.0	-74.0	3.8	1.49e+00	0	23	104	0	81	23698
2026-01-11 23:12:32.18	50.39	26.82	-58.0	-74.0	3.8	1.49e+00	0	23	104	0	81	23778
2026-01-11 23:12:33.19	50.62	26.93	-58.0	-74.0	3.8	1.49e+00	0	23	104	0	81	23757
2026-01-11 23:12:34.20	50.86	27.05	-58.0	-74.0	3.8	1.49e+00	0	23	104	0	81	23817
2026-01-11 23:12:35.21	51.09	27.17	-58.0	-74.0	3.8	1.49e+00	0	23	104	0	81	23769
2026-01-11 23:12:36.22	51.32	27.28	-58.0	-74.0	3.8	1.49e+00	0	23	104	0	81	23716
2026-01-11 23:12:37.23	51.56	27.40	-58.0	-74.0	3.8	1.49e+00	0	23	104	0	81	23691
2026-01-11 23:12:38.23	51.80	27.52	-58.0	-74.0	3.8	1.49e+00	0	23	104	0	81	23680
2026-01-11 23:12:39.24	52.03	27.63	-58.0	-74.0	3.8	1.49e+00	0	23	104	0	81	23694
2026-01-11 23:12:40.25	52.28	27.75	-58.0	-74.0	3.8	1.49e+00	0	23	104	0	81	23739
2026-01-11 23:12:41.26	52.52	27.87	-58.0	-74.0	3.8	1.49e+00	0	23	104	0	81	23752
2026-01-11 23:12:42.27	52.76	27.98	-58.0	-74.0	3.8	1.49e+00	0	23	104	0	81	23810
2026-01-11 23:12:43.28	53.01	28.10	-58.0	-74.0	3.8	1.49e+00	0	23	104	0	81	23655
2026-01-11 23:12:44.29	53.26	28.22	-58.0	-74.0	3.8	1.49e+00	0	23	104	0	81	23684
2026-01-11 23:12:45.30	53.51	28.33	-58.0	-74.0	3.8	1.49e+00	0	23	104	0	81	23652
2026-01-11 23:12:46.31	53.76	28.45	-58.0	-74.0	3.8	1.49e+00	0	23	104	0	81	23617
2026-01-11 23:12:47.32	54.02	28.57	-58.0	-74.0	3.8	1.49e+00	0	23	104	0	81	23655
2026-01-11 23:12:48.33	54.27	28.68	-58.0	-74.0	3.8	1.49e+00	0	23	104	0	81	23667
2026-01-11 23:12:49.33	54.53	28.80	-58.0	-74.0	3.8	1.49e+00	0	23	104	0	81	23658
2026-01-11 23:12:50.34	54.79	28.91	-58.0	-74.0	3.8	1.49e+00	0	23	104	0	81	23623
2026-01-11 23:12:51.35	55.05	29.03	-58.0	-74.0	3.8	1.49e+00	0	23	104	0	81	23709
2026-01-11 23:12:52.36	55.31	29.14	-58.0	-74.0	3.8	1.49e+00	0	23	104	0	81	23691
2026-01-11 23:12:53.37	55.57	29.26	-58.0	-74.0	3.8	1.49e+00	0	23	104	0	81	23663
2026-01-11 23:12:54.37	55.84	29.37	-58.0	-74.0	3.8	1.49e+00	0	23	104	0	81	23657
2026-01-11 23:12:55.38	56.11	29.49	-58.0	-74.0	3.8	1.49e+00	0	23	104	0	81	23682
2026-01-11 23:12:56.39	56.38	29.60	-58.0	-74.0	3.8	1.49e+00	0	23	104	0	81	23680
2026-01-11 23:12:57.40	56.65	29.72	-58.0	-74.0	3.8	1.49e+00	0	23	104	0	81	23745
2026-01-11 23:12:58.41	56.92	29.83	-58.0	-74.0	3.8	1.49e+00	0	23	104	0	81	23678
2026-01-11 23:12:59.42	57.20	29.94	-58.0	-74.0	3.8	1.49e+00	0	23	104	0	81	23661
2026-01-11 23:13:00.43	57.48	30.06	-58.0	-74.0	3.8	1.49e+00	0	23	104	0	81	23616
2026-01-11 23:13:01.44	57.76	30.17	-58.0	-74.0	3.8	1.49e+00	0	23	104	0	81	23663
2026-01-11 23:13:02.45	58.04	30.29	-58.0	-74.0	3.8	1.49e+00	0	23	104	0	81	23646
2026-01-11 23:13:03.45	58.32	30.40	-58.0	-74.0	3.8	1.49e+00	0	23	104	0	81	23653
2026-01-11 23:13:04.47	58.61	30.51	-58.0	-74.0	3.8	1.49e+00	0	23	104	0	81	23586
2026-01-11 23:13:05.47	58.89	30.62	-57.9	-73.9	3.8	1.49e+00	0	23	104	0	81	23546
2026-01-11 23:13:06.48	59.18	30.73	-57.9	-74.0	3.8	1.49e+00	0	23	104	0	81	23615
2026-01-11 23:13:07.49	59.48	30.85	-58.0	-74.0	3.8	1.49e+00	0	23	104	0	81	23684
2026-01-11 23:13:08.49	59.77	30.96	-58.0	-74.0	3.8	1.49e+00	0	23	104	0	81	23647
2026-01-11 23:13:09.50	60.06	31.07	-58.0	-74.0	3.8	1.49e+00	0	23	104	0	81	23592
2026-01-11 23:13:10.51	60.36	31.18	-58.0	-74.0	3.8	1.49e+00	0	23	104	0	81	23611
2026-01-11 23:13:11.52	60.66	31.29	-58.0	-74.0	3.8	1.49e+00	0	23	104	0	81	23656
2026-01-11 23:13:12.53	60.96	31.40	-58.0	-74.0	3.8	1.49e+00	0	23	104	0	81	23681
2026-01-11 23:13:13.54	61.26	31.51	-58.0	-74.0	3.8	1.49e+00	0	23	104	0	81	23658
2026-01-11 23:13:14.55	61.57	31.61	-58.0	-74.0	3.8	1.49e+00	0	23	104	0	81	23584
2026-01-11 23:13:15.56	61.88	31.72	-58.0	-74.0	3.8	1.49e+00	0	23	104	0	81	23603
2026-01-11 23:13:16.57	62.19	31.83	-57.9	-74.0	3.8	1.49e+00	0	23	104	0	81	23599
2026-01-11 23:13:17.58	62.50	31.94	-57.9	-74.0	3.8	1.49e+00	0	23	104	0	81	23625
2026-01-11 23:13:18.59	62.81	32.04	-58.0	-74.0	3.8	1.49e+00	0	23	104	0	81	23649
2026-01-11 23:13:19.60	63.13	32.15	-57.9	-73.9	3.8	1.49e+00	0	23	104	0	81	23553
2026-01-11 23:13:20.61	63.45	32.26	-57.9	-73.9	3.8	1.49e+00	0	23	104	0	81	23574
2026-01-11 23:13:21.62	63.77	32.36	-58.0	-74.0	3.8	1.49e+00	0	23	104	0	81	23640
2026-01-11 23:13:22.63	64.09	32.47	-58.0	-74.0	3.8	1.49e+00	0	23	104	0	81	23677
2026-01-11 23:13:23.63	64.41	32.57	-58.0	-74.0	3.8	1.49e+00	0	23	104	0	81	23584
2026-01-11 23:13:24.64	64.73	32.67	-57.9	-74.0	3.8	1.49e+00	0	23	104	0	81	23603
2026-01-11 23:13:25.65	65.06	32.77	-58.0	-74.0	3.8	1.49e+00	0	23	104	0	81	23601
2026-01-11 23:13:26.66	65.39	32.88	-58.0	-74.0	3.8	1.49e+00	0	23	104	0	81	23583
2026-01-11 23:13:27.67	65.72	32.98	-57.9	-73.9	3.8	1.49e+00	0	23	104	0	81	23574
2026-01-11 23:13:28.68	66.06	33.08	-57.9	-74.0	3.8	1.49e+00	0	23	104	0	81	23650
2026-01-11 23:13:29.69	66.39	33.18	-58.0	-74.0	3.8	1.49e+00	0	23	104	0	81	23611
2026-01-11 23:13:30.70	66.73	33.27	-57.9	-73.9	3.8	1.49e+00	0	23	104	0	81	23550
2026-01-11 23:13:31.70	67.07	33.37	-57.9	-74.0	3.8	1.49e+00	0	23	104	0	81	23614
2026-01-11 23:13:32.71	67.41	33.47	-57.9	-73.9	3.8	1.49e+00	0	23	104	0	81	23546
2026-01-11 23:13:33.72	67.76	33.57	-57.9	-74.0	3.8	1.49e+00	0	23	104	0	81	23592
2026-01-11 23:13:34.73	68.10	33.66	-57.9	-73.9	3.8	1.49e+00	0	23	104	0	81	23545
2026-01-11 23:13:35.74	68.45	33.76	-57.9	-73.9	3.8	1.49e+00	0	23	104	0	81	23549
2026-01-11 23:13:36.75	68.80	33.85	-57.9	-73.9	3.8	1.49e+00	0	23	104	0	81	23536
2026-01-11 23:13:37.75	69.15	33.94	-57.9	-73.9	3.8	1.49e+00	0	23	104	0	81	23543
2026-01-11 23:13:38.76	69.50	34.03	-57.9	-73.9	3.8	1.49e+00	0	23	104	0	81	23578
2026-01-11 23:13:39.77	69.86	34.13	-57.9	-73.9	3.8	1.49e+00	0	23	104	0	81	23537
2026-01-11 23:13:40.78	70.22	34.22	-57.9	-73.9	3.8	1.49e+00	0	23	104	0	81	23502
2026-01-11 23:13:41.79	70.58	34.31	-57.9	-73.9	3.8	1.49e+00	0	23	104	0	81	23542
2026-01-11 23:13:42.80	70.94	34.39	-57.9	-73.9	3.8	1.49e+00	0	23	104	0	81	23549
2026-01-11 23:13:43.81	71.30	34.48	-57.9	-73.9	3.8	1.49e+00	0	23	104	0	81	23534
2026-01-11 23:13:44.82	71.67	34.57	-57.9	-73.9	3.8	1.49e+00	0	23	104	0	81	23538
2026-01-11 23:13:45.82	72.03	34.65	-57.9	-73.9	3.8	1.49e+00	0	23	104	0	81	23526
2026-01-11 23:13:46.83	72.40	34.74	-57.9	-73.9	3.8	1.49e+00	0	23	104	0	81	23509
2026-01-11 23:13:47.84	72.78	34.82	-57.9	-73.9	3.8	1.49e+00	0	23	104	0	81	23457
2026-01-11 23:13:48.85	73.15	34.90	-57.9	-73.9	3.8	1.49e+00	0	23	104	0	81	23453
2026-01-11 23:13:49.86	73.52	34.98	-57.9	-73.9	3.8	1.49e+00	0	23	104	0	81	23507
2026-01-11 23:13:50.87	73.90	35.06	-57.9	-73.9	3.8	1.49e+00	0	23	104	0	81	23525
2026-01-11 23:13:51.88	74.28	35.14	-57.9	-73.9	3.8	1.49e+00	0	23	104	0	81	23499
2026-01-11 23:13:52.89	74.66	35.22	-57.9	-73.9	3.8	1.49e+00	0	23	104	0	81	23503
2026-01-11 23:13:53.89	75.04	35.29	-57.9	-73.9	3.8	1.49e+00	0	23	104	0	81	23504
2026-01-11 23:13:54.91	75.43	35.37	-57.9	-73.9	3.8	1.49e+00	0	23	104	0	81	23519
2026-01-11 23:13:55.92	75.81	35.44	-57.9	-73.9	3.8	1.49e+00	0	23	104	0	81	23496
2026-01-11 23:13:56.93	76.20	35.52	-57.9	-73.9	3.8	1.49e+00	0	23	104	0	81	23465
2026-01-11 23:13:57.94	76.59	35.59	-57.9	-73.9	3.8	1.49e+00	0	23	104	0	81	23498
2026-01-11 23:13:58.95	76.98	35.66	-57.9	-73.9	3.8	1.49e+00	0	23	104	0	81	23471
2026-01-11 23:13:59.96	77.37	35.73	-57.9	-73.9	3.8	1.49e+00	0	23	104	0	81	23463
2026-01-11 23:14:00.97	77.77	35.79	-57.9	-73.9	3.8	1.49e+00	0	23	104	0	81	23431
2026-01-11 23:14:01.98	78.16	35.86	-57.9	-73.9	3.8	1.49e+00	0	23	104	0	81	23483
2026-01-11 23:14:02.99	78.56	35.92	-57.9	-73.9	3.8	1.49e+00	0	23	104	0	81	23494
2026-01-11 23:14:03.99	78.96	35.99	-57.9	-73.9	3.8	1.49e+00	0	23	104	0	81	23448
2026-01-11 23:14:05.00	79.36	36.05	-57.9	-73.9	3.8	1.49e+00	0	23	104	0	81	23451
2026-01-11 23:14:06.01	79.76	36.11	-57.9	-73.9	3.8	1.49e+00	0	23	104	0	81	23428
2026-01-11 23:14:07.02	80.16	36.17	-57.9	-73.9	3.9	1.49e+00	0	23	104	0	81	23414
2026-01-11 23:14:08.03	80.57	36.22	-57.9	-73.9	3.8	1.49e+00	0	23	104	0	81	23466
2026-01-11 23:14:09.03	80.97	36.28	-57.9	-73.9	3.8	1.49e+00	0	23	104	0	81	23425
2026-01-11 23:14:10.04	81.38	36.33	-57.9	-73.9	3.8	1.49e+00	0	23	104	0	81	23423
2026-01-11 23:14:11.05	81.79	36.39	-57.9	-73.9	3.8	1.49e+00	0	23	104	0	81	23436
2026-01-11 23:14:12.06	82.20	36.44	-57.9	-73.9	3.8	1.49e+00	0	23	104	0	81	23443
2026-01-11 23:14:13.07	82.61	36.49	-57.9	-73.9	3.8	1.49e+00	0	23	104	0	81	23403
2026-01-11 23:14:14.08	83.02	36.54	-57.9	-73.9	3.8	1.49e+00	0	23	104	0	81	23430
2026-01-11 23:14:15.09	83.44	36.58	-57.9	-73.9	3.8	1.49e+00	0	23	104	0	81	23414
2026-01-11 23:14:16.10	83.85	36.63	-57.9	-73.9	3.8	1.49e+00	0	23	104	0	81	23406
2026-01-11 23:14:17.11	84.27	36.67	-57.9	-73.9	3.8	1.49e+00	0	23	104	0	81	23400
2026-01-11 23:14:18.12	84.69	36.71	-57.9	-73.8	3.8	1.49e+00	0	23	104	0	81	23269
2026-01-11 23:14:19.12	85.10	36.75	-57.9	-73.9	3.8	1.49e+00	0	23	104	0	81	23357
2026-01-11 23:14:20.13	85.52	36.79	-57.9	-73.9	3.8	1.49e+00	0	23	104	0	81	23374
2026-01-11 23:14:21.14	85.94	36.83	-57.9	-73.9	3.8	1.49e+00	0	23	104	0	81	23313
2026-01-11 23:14:22.15	86.36	36.86	-57.9	-73.9	3.8	1.49e+00	0	23	104	0	81	23314
2026-01-11 23:14:23.16	86.78	36.90	-57.9	-73.8	3.8	1.49e+00	0	23	104	0	81	23273
2026-01-11 23:14:24.17	87.21	36.93	-57.9	-73.9	3.8	1.49e+00	0	23	104	0	81	23332
2026-01-11 23:14:25.18	87.63	36.96	-57.9	-73.9	3.8	1.49e+00	0	23	104	0	81	23414
2026-01-11 23:14:26.19	88.05	36.99	-57.9	-73.9	3.8	1.49e+00	0	23	104	0	81	23343
2026-01-11 23:14:27.19	88.48	37.02	-57.9	-73.8	3.8	1.49e+00	0	23	104	0	81	23278
2026-01-11 23:14:28.20	88.90	37.04	-57.8	-73.8	3.8	1.49e+00	0	23	104	0	81	23304
2026-01-11 23:14:29.21	89.33	37.07	-57.8	-73.9	3.8	1.49e+00	0	23	104	0	81	23313
2026-01-11 23:14:30.22	89.76	37.09	-57.8	-73.8	3.8	1.49e+00	0	23	104	0	81	23267
2026-01-11 23:14:31.22	90.18	37.11	-57.8	-73.8	3.8	1.49e+00	0	23	104	0	81	23254
2026-01-11 23:14:32.24	90.61	37.13	-57.8	-73.8	3.8	1.49e+00	0	23	104	0	81	23311
2026-01-11 23:14:33.25	91.04	37.14	-57.8	-73.9	3.8	1.49e+00	0	23	104	0	81	23347
2026-01-11 23:14:34.26	91.47	37.16	-57.8	-73.8	3.8	1.49e+00	0	23	104	0	81	23240
2026-01-11 23:14:35.27	91.90	37.17	-57.8	-73.8	3.8	1.49e+00	0	23	104	0	81	23292
2026-01-11 23:14:36.27	92.33	37.18	-57.8	-73.8	3.8	1.49e+00	0	23	104	0	81	23274
2026-01-11 23:14:37.28	92.76	37.19	-57.8	-73.8	3.8	1.49e+00	0	23	104	0	81	23277
2026-01-11 23:14:38.29	93.19	37.20	-57.8	-73.8	3.8	1.49e+00	0	23	104	0	81	23270
2026-01-11 23:14:39.29	93.61	37.20	-57.8	-73.8	3.8	1.49e+00	0	23	104	0	81	23270
2026-01-11 23:14:40.30	94.04	37.21	-57.8	-73.8	3.8	1.49e+00	0	23	104	0	81	23219
2026-01-11 23:14:41.31	94.47	37.21	-57.8	-73.9	3.8	1.49e+00	0	23	104	0	81	23321
2026-01-11 23:14:42.32	94.90	37.21	-57.8	-73.8	3.8	1.49e+00	0	23	104	0	81	23281
2026-01-11 23:14:43.33	95.34	37.21	-57.8	-73.8	3.8	1.49e+00	0	23	104	0	81	23223
2026-01-11 23:14:44.34	95.77	37.21	-57.8	-73.8	3.8	1.49e+00	0	23	104	0	81	23187
2026-01-11 23:14:45.35	96.20	37.20	-57.8	-73.8	3.8	1.49e+00	0	23	104	0	81	23269
2026-01-11 23:14:46.36	96.63	37.20	-57.8	-73.8	3.8	1.49e+00	0	23	104	0	81	23226
2026-01-11 23:14:47.37	97.06	37.19	-57.8	-73.8	3.8	1.49e+00	0	23	104	0	81	23200
2026-01-11 23:14:48.38	97.49	37.18	-57.8	-73.8	3.8	1.49e+00	0	23	104	0	81	23286
2026-01-11 23:14:49.39	97.92	37.17	-57.8	-73.8	3.8	1.49e+00	0	23	104	0	81	23175
2026-01-11 23:14:50.40	98.35	37.15	-57.8	-73.8	3.8	1.49e+00	0	23	104	0	81	23132
2026-01-11 23:14:51.41	98.78	37.14	-57.8	-73.8	3.8	1.49e+00	0	23	104	0	81	23193
2026-01-11 23:14:52.41	99.20	37.12	-57.8	-73.8	3.8	1.49e+00	0	23	104	0	81	23196
2026-01-11 23:14:53.42	99.63	37.10	-57.8	-73.8	3.8	1.49e+00	0	23	104	0	81	23179
2026-01-11 23:14:54.43	100.06	37.08	-57.8	-73.8	3.8	1.49e+00	0	23	104	0	81	23206
2026-01-11 23:14:55.44	100.49	37.06	-57.8	-73.8	3.8	1.49e+00	0	23	104	0	81	23205
2026-01-11 23:14:56.45	100.91	37.03	-57.8	-73.8	3.8	1.49e+00	0	23	104	0	81	23189
2026-01-11 23:14:57.46	101.34	37.01	-57.8	-73.8	3.8	1.49e+00	0	23	104	0	81	23131
2026-01-11 23:14:58.47	101.76	36.98	-57.8	-73.8	3.8	1.49e+00	0	23	104	0	81	23142
2026-01-11 23:14:59.48	102.19	36.95	-57.8	-73.8	3.8	1.49e+00	0	23	104	0	81	23147
2026-01-11 23:15:00.49	102.61	36.92	-57.8	-73.8	3.8	1.49e+00	0	23	104	0	81	23194
2026-01-11 23:15:01.50	103.04	36.89	-57.8	-73.8	3.8	1.49e+00	0	23	104	0	81	23153
2026-01-11 23:15:02.51	103.46	36.85	-57.8	-73.8	3.8	1.49e+00	0	23	104	0	81	23119
2026-01-11 23:15:03.52	103.88	36.82	-57.8	-73.8	3.8	1.49e+00	0	23	104	0	81	23144
2026-01-11 23:15:04.53	104.30	36.78	-57.8	-73.8	3.8	1.49e+00	0	23	104	0	81	23117
2026-01-11 23:15:05.54	104.72	36.74	-57.8	-73.8	3.8	1.49e+00	0	23	104	0	81	23090
2026-01-11 23:15:06.54	105.13	36.70	-57.8	-73.8	3.8	1.49e+00	0	23	104	0	81	23165
2026-01-11 23:15:07.55	105.55	36.66	-57.8	-73.8	3.8	1.49e+00	0	23	104	0	81	23123
2026-01-11 23:15:08.56	105.97	36.61	-57.8	-73.8	3.8	1.49e+00	0	23	104	0	81	23083
2026-01-11 23:15:09.57	106.38	36.57	-57.8	-73.8	3.8	1.49e+00	0	23	104	0	81	23136
2026-01-11 23:15:10.58	106.80	36.52	-57.8	-73.8	3.8	1.49e+00	0	23	104	0	81	23093
2026-01-11 23:15:11.58	107.21	36.47	-57.8	-73.8	3.8	1.49e+00	0	23	104	0	81	23075
2026-01-11 23:15:12.60	107.62	36.42	-57.8	-73.8	3.8	1.49e+00	0	23	104	0	81	23153
2026-01-11 23:15:13.61	108.03	36.37	-57.8	-73.8	3.8	1.49e+00	0	23	104	0	81	23109
2026-01-11 23:15:14.62	108.44	36.32	-57.8	-73.7	3.8	1.49e+00	0	23	104	0	81	23039
2026-01-11 23:15:15.62	108.85	36.26	-57.8	-73.8	3.8	1.49e+00	0	23	104	0	81	23128
2026-01-11 23:15:16.63	109.25	36.21	-57.7	-73.7	3.8	1.49e+00	0	23	104	0	81	22998
2026-01-11 23:15:17.64	109.66	36.15	-57.7	-73.7	3.8	1.49e+00	0	23	104	0	81	22989
2026-01-11 23:15:18.65	110.06	36.09	-57.7	-73.7	3.8	1.49e+00	0	23	104	0	81	23025
2026-01-11 23:15:19.66	110.46	36.03	-57.8	-73.7	3.8	1.49e+00	0	23	104	0	81	23009
2026-01-11 23:15:20.67	110.86	35.97	-57.7	-73.7	3.8	1.49e+00	0	23	104	0	81	23016
2026-01-11 23:15:21.68	111.26	35.90	-57.7	-73.7	3.8	1.49e+00	0	23	104	0	81	22989
2026-01-11 23:15:22.69	111.66	35.84	-57.7	-73.8	3.8	1.49e+00	0	23	104	0	81	23066
2026-01-11 23:15:23.70	112.06	35.77	-57.7	-73.7	3.8	1.49e+00	0	23	104	0	81	23041
2026-01-11 23:15:24.70	112.45	35.70	-57.7	-73.7	3.8	1.49e+00	0	23	104	0	81	22985
2026-01-11 23:15:25.71	112.84	35.63	-57.7	-73.7	3.8	1.49e+00	0	23	104	0	81	23022
2026-01-11 23:15:26.72	113.23	35.56	-57.7	-73.7	3.8	1.49e+00	0	23	104	0	81	22962
2026-01-11 23:15:27.72	113.62	35.49	-57.7	-73.7	3.8	1.49e+00	0	23	104	0	81	22943
2026-01-11 23:15:28.73	114.00	35.42	-57.7	-73.7	3.8	1.49e+00	0	23	104	0	81	23001
2026-01-11 23:15:29.74	114.39	35.34	-57.7	-73.7	3.8	1.49e+00	0	23	104	0	81	22972
2026-01-11 23:15:30.75	114.78	35.27	-57.7	-73.7	3.8	1.49e+00	0	23	104	0	81	22951
2026-01-11 23:15:31.76	115.16	35.19	-57.7	-73.7	3.8	1.49e+00	0	23	104	0	81	22965
2026-01-11 23:15:32.77	115.54	35.11	-57.7	-73.7	3.8	1.49e+00	0	23	104	0	81	22910
2026-01-11 23:15:33.78	115.92	35.04	-57.7	-73.7	3.8	1.49e+00	0	23	104	0	81	22975
2026-01-11 23:15:34.79	116.29	34.96	-57.7	-73.7	3.8	1.49e+00	0	23	104	0	81	22930
2026-01-11 23:15:35.80	116.67	34.87	-57.7	-73.7	3.8	1.49e+00	0	23	104	0	81	22861
2026-01-11 23:15:36.81	117.04	34.79	-57.7	-73.7	3.8	1.49e+00	0	23	104	0	81	22912
2026-01-11 23:15:37.81	117.41	34.71	-57.7	-73.7	3.8	1.49e+00	0	23	104	0	81	22896
2026-01-11 23:15:38.82	117.78	34.62	-57.7	-73.7	3.8	1.49e+00	0	23	104	0	81	22916
2026-01-11 23:15:39.83	118.15	34.54	-57.7	-73.7	3.8	1.49e+00	0	23	104	0	81	22925
2026-01-11 23:15:40.84	118.52	34.45	-57.7	-73.7	3.8	1.49e+00	0	23	104	0	81	22887
2026-01-11 23:15:41.85	118.88	34.36	-57.7	-73.7	3.8	1.49e+00	0	23	104	0	81	22898
2026-01-11 23:15:42.86	119.24	34.27	-57.7	-73.7	3.8	1.49e+00	0	23	104	0	81	22892
2026-01-11 23:15:43.87	119.60	34.18	-57.7	-73.7	3.8	1.49e+00	0	23	104	0	81	22847
2026-01-11 23:15:44.88	119.96	34.09	-57.7	-73.7	3.8	1.49e+00	0	23	104	0	81	22821
2026-01-11 23:15:45.89	120.32	34.00	-57.7	-73.7	3.8	1.49e+00	0	23	104	0	81	22863
2026-01-11 23:15:46.90	120.67	33.91	-57.7	-73.7	3.8	1.49e+00	0	23	104	0	81	22821
2026-01-11 23:15:47.90	121.02	33.82	-57.7	-73.7	3.8	1.49e+00	0	23	104	0	81	22880
2026-01-11 23:15:48.91	121.37	33.72	-57.7	-73.7	3.8	1.49e+00	0	23	104	0	81	22809
2026-01-11 23:15:49.91	121.72	33.63	-57.7	-73.7	3.8	1.49e+00	0	23	104	0	81	22868
2026-01-11 23:15:50.92	122.06	33.53	-57.7	-73.7	3.8	1.49e+00	0	23	104	0	81	22856
2026-01-11 23:15:51.93	122.41	33.43	-57.7	-73.7	3.8	1.49e+00	0	23	104	0	81	22798
2026-01-11 23:15:52.94	122.75	33.34	-57.7	-73.7	3.9	1.49e+00	0	23	104	0	81	22893
2026-01-11 23:15:53.95	123.09	33.24	-57.7	-73.7	3.8	1.49e+00	0	23	104	0	81	22857
2026-01-11 23:15:54.96	123.43	33.14	-57.7	-73.7	3.8	1.49e+00	0	23	104	0	81	22858
2026-01-11 23:15:55.97	123.76	33.04	-57.7	-73.7	3.8	1.49e+00	0	23	104	0	81	22860
2026-01-11 23:15:56.98	124.10	32.94	-57.7	-73.7	3.8	1.49e+00	0	23	104	0	81	22838
2026-01-11 23:15:57.98	124.43	32.84	-57.7	-73.6	3.8	1.49e+00	0	23	104	0	81	22770
2026-01-11 23:15:58.99	124.76	32.73	-57.7	-73.7	3.8	1.49e+00	0	23	104	0	81	22842
2026-01-11 23:16:00.00	125.09	32.63	-57.6	-73.7	3.8	1.49e+00	0	23	104	0	81	22787
2026-01-11 23:16:01.01	125.41	32.53	-57.6	-73.7	3.8	1.49e+00	0	23	104	0	81	22790
2026-01-11 23:16:02.02	125.74	32.42	-57.6	-73.6	3.8	1.49e+00	0	23	104	0	81	22757
2026-01-11 23:16:03.03	126.06	32.32	-57.6	-73.6	3.8	1.49e+00	0	23	104	0	81	22739
2026-01-11 23:16:04.03	126.37	32.21	-57.7	-73.6	3.8	1.49e+00	0	23	104	0	81	22723
2026-01-11 23:16:05.04	126.69	32.11	-57.7	-73.7	3.8	1.49e+00	0	23	104	0	81	22789
2026-01-11 23:16:06.06	127.01	32.00	-57.6	-73.7	3.8	1.49e+00	0	23	104	0	81	22788
2026-01-11 23:16:07.07	127.33	31.89	-57.6	-73.6	3.8	1.49e+00	0	23	104	0	81	22728
2026-01-11 23:16:08.08	127.64	31.78	-57.6	-73.6	3.8	1.49e+00	0	23	104	0	81	22763
2026-01-11 23:16:09.08	127.94	31.68	-57.6	-73.6	3.8	1.49e+00	0	23	104	0	81	22680
2026-01-11 23:16:10.09	128.25	31.57	-57.6	-73.6	3.8	1.49e+00	0	23	104	0	81	22727
2026-01-11 23:16:11.10	128.56	31.46	-57.6	-73.6	3.8	1.49e+00	0	23	104	0	81	22757
2026-01-11 23:16:12.11	128.86	31.35	-57.6	-73.6	3.8	1.49e+00	0	23	104	0	81	22713
2026-01-11 23:16:13.12	129.16	31.24	-57.6	-73.6	3.8	1.49e+00	0	23	104	0	81	22674
2026-01-11 23:16:14.13	129.46	31.13	-57.6	-73.6	3.8	1.49e+00	0	23	104	0	81	22772
2026-01-11 23:16:15.14	129.76	31.02	-57.6	-73.6	3.8	1.49e+00	0	23	104	0	81	22676
2026-01-11 23:16:16.15	130.06	30.91	-57.6	-73.6	3.8	1.49e+00	0	23	104	0	81	22751
2026-01-11 23:16:17.16	130.35	30.79	-57.6	-73.6	3.8	1.49e+00	0	23	104	0	81	22698
2026-01-11 23:16:18.17	130.64	30.68	-57.6	-73.6	3.8	1.49e+00	0	23	104	0	81	22633
2026-01-11 23:16:19.18	130.93	30.57	-57.6	-73.6	3.8	1.49e+00	0	23	104	0	81	22646
2026-01-11 23:16:20.18	131.22	30.46	-57.6	-73.6	3.8	1.49e+00	0	23	104	0	81	22652
2026-01-11 23:16:21.19	131.50	30.34	-57.6	-73.6	3.8	1.49e+00	0	23	104	0	81	22720
2026-01-11 23:16:22.20	131.79	30.23	-57.6	-73.6	3.8	1.49e+00	0	23	104	0	81	22658
2026-01-11 23:16:23.21	132.07	30.12	-57.6	-73.6	3.8	1.49e+00	0	23	104	0	81	22659
2026-01-11 23:16:24.22	132.35	30.00	-57.6	-73.6	3.8	1.49e+00	0	23	104	0	81	22581
2026-01-11 23:16:25.23	132.63	29.89	-57.6	-73.6	3.8	1.49e+00	0	23	104	0	81	22619
2026-01-11 23:16:26.24	132.90	29.77	-57.6	-73.6	3.8	1.49e+00	0	23	104	0	81	22610
2026-01-11 23:16:27.25	133.18	29.66	-57.6	-73.6	3.8	1.49e+00	0	23	104	0	81	22595
2026-01-11 23:16:28.26	133.45	29.54	-57.6	-73.6	3.8	1.49e+00	0	23	104	0	81	22633
2026-01-11 23:16:29.26	133.72	29.43	-57.6	-73.6	3.8	1.49e+00	0	23	104	0	81	22598
2026-01-11 23:16:30.27	133.99	29.31	-57.6	-73.6	3.8	1.49e+00	0	23	104	0	81	22711
2026-01-11 23:16:31.29	134.25	29.20	-57.6	-73.6	3.8	1.49e+00	0	23	104	0	81	22590
2026-01-11 23:16:32.29	134.52	29.08	-57.6	-73.6	3.8	1.49e+00	0	23	104	0	81	22599
2026-01-11 23:16:33.30	134.78	28.97	-57.6	-73.6	3.8	1.49e+00	0	23	104	0	81	22598
2026-01-11 23:16:34.31	135.04	28.85	-57.6	-73.6	3.8	1.49e+00	0	23	104	0	81	22541
2026-01-11 23:16:35.32	135.30	28.73	-57.6	-73.6	3.8	1.49e+00	0	23	104	0	81	22592
2026-01-11 23:16:36.33	135.56	28.62	-57.6	-73.6	3.8	1.49e+00	0	23	104	0	81	22616
2026-01-11 23:16:37.34	135.81	28.50	-57.6	-73.6	3.8	1.49e+00	0	23	104	0	81	22529
2026-01-11 23:16:38.35	136.07	28.38	-57.6	-73.5	3.8	1.49e+00	0	23	104	0	81	22503
2026-01-11 23:16:39.36	136.32	28.27	-57.6	-73.5	3.8	1.49e+00	0	23	104	0	81	22506
2026-01-11 23:16:40.36	136.57	28.15	-57.6	-73.5	3.8	1.49e+00	0	23	104	0	81	22481
2026-01-11 23:16:41.37	136.81	28.03	-57.6	-73.6	3.8	1.49e+00	0	23	104	0	81	22565
2026-01-11 23:16:42.37	137.06	27.92	-57.6	-73.6	3.8	1.49e+00	0	23	104	0	81	22528
2026-01-11 23:16:43.38	137.30	27.80	-57.5	-73.5	3.8	1.49e+00	0	23	104	0	81	22424
2026-01-11 23:16:44.39	137.55	27.68	-57.5	-73.5	3.8	1.49e+00	0	23	104	0	81	22450
2026-01-11 23:16:45.40	137.79	27.57	-57.5	-73.5	3.8	1.49e+00	0	23	104	0	81	22501
2026-01-11 23:16:46.41	138.03	27.45	-57.5	-73.5	3.8	1.49e+00	0	23	104	0	81	22495
2026-01-11 23:16:47.42	138.27	27.33	-57.5	-73.5	3.8	1.49e+00	0	23	104	0	81	22383
2026-01-11 23:16:48.42	138.50	27.22	-57.5	-73.5	3.8	1.49e+00	0	23	104	0	81	22435
2026-01-11 23:16:49.43	138.74	27.10	-57.5	-73.5	3.8	1.49e+00	0	23	104	0	81	22413
2026-01-11 23:16:50.44	138.97	26.98	-57.5	-73.5	3.8	1.49e+00	0	23	104	0	81	22375
2026-01-11 23:16:51.45	139.20	26.86	-57.5	-73.5	3.8	1.49e+00	0	23	104	0	81	22403
2026-01-11 23:16:52.46	139.43	26.75	-57.5	-73.5	3.8	1.49e+00	0	23	104	0	81	22440
2026-01-11 23:16:53.47	139.66	26.63	-57.5	-73.5	3.8	1.49e+00	0	23	104	0	81	22400
2026-01-11 23:16:54.48	139.88	26.51	-57.5	-73.5	3.8	1.49e+00	0	23	104	0	81	22340
2026-01-11 23:16:55.48	140.11	26.40	-57.5	-73.5	3.8	1.49e+00	0	23	104	0	81	22343
2026-01-11 23:16:56.49	140.33	26.28	-57.5	-73.5	3.8	1.49e+00	0	23	104	0	81	22402
2026-01-11 23:16:57.50	140.55	26.16	-57.5	-73.5	3.8	1.49e+00	0	23	104	0	81	22396
2026-01-11 23:16:58.51	140.77	26.04	-57.5	-73.5	3.8	1.49e+00	0	23	104	0	81	22395
2026-01-11 23:16:59.52	140.99	25.93	-57.5	-73.5	3.8	1.49e+00	0	23	104	0	81	22336
2026-01-11 23:17:00.53	141.21	25.81	-57.5	-73.5	3.8	1.49e+00	0	23	104	0	81	22388
2026-01-11 23:17:01.54	141.42	25.69	-57.5	-73.5	3.8	1.49e+00	0	23	104	0	81	22364
2026-01-11 23:17:02.55	141.63	25.58	-57.5	-73.5	3.8	1.49e+00	0	23	104	0	81	22309
2026-01-11 23:17:03.56	141.85	25.46	-57.5	-73.5	3.8	1.49e+00	0	23	104	0	81	22300
2026-01-11 23:17:04.57	142.06	25.35	-57.5	-73.4	3.8	1.49e+00	0	23	104	0	81	22229
2026-01-11 23:17:05.58	142.27	25.23	-57.5	-73.5	3.8	1.49e+00	0	23	104	0	81	22324
2026-01-11 23:17:06.58	142.47	25.11	-57.5	-73.5	3.8	1.49e+00	0	23	104	0	81	22318
2026-01-11 23:17:07.59	142.68	25.00	-57.5	-73.4	3.8	1.49e+00	0	23	104	0	81	22259
2026-01-11 23:17:08.60	142.88	24.88	-57.5	-73.5	3.8	1.49e+00	0	23	104	0	81	22334
2026-01-11 23:17:09.61	143.09	24.77	-57.5	-73.5	3.8	1.49e+00	0	23	104	0	81	22280
2026-01-11 23:17:10.62	143.29	24.65	-57.5	-73.4	3.8	1.49e+00	0	23	104	0	81	22245
2026-01-11 23:17:11.62	143.49	24.54	-57.4	-73.4	3.8	1.49e+00	0	23	104	0	81	22252
2026-01-11 23:17:12.63	143.69	24.42	-57.5	-73.4	3.8	1.49e+00	0	23	104	0	81	22192
2026-01-11 23:17:13.64	143.88	24.31	-57.4	-73.4	3.8	1.49e+00	0	23	104	0	81	22220
2026-01-11 23:17:14.65	144.08	24.19	-57.4	-73.4	3.8	1.49e+00	0	23	104	0	81	22222
2026-01-11 23:17:15.66	144.27	24.08	-57.4	-73.4	3.8	1.49e+00	0	23	104	0	81	22221
2026-01-11 23:17:16.67	144.47	23.96	-57.4	-73.4	3.8	1.49e+00	0	23	104	0	81	22153
2026-01-11 23:17:17.68	144.66	23.85	-57.4	-73.4	3.8	1.49e+00	0	23	104	0	81	22165
2026-01-11 23:17:18.69	144.85	23.73	-57.4	-73.4	3.8	1.49e+00	0	23	104	0	81	22102
2026-01-11 23:17:19.70	145.04	23.62	-57.4	-73.4	3.8	1.49e+00	0	23	104	0	81	22117
2026-01-11 23:17:20.70	145.23	23.51	-57.4	-73.4	3.8	1.49e+00	0	23	104	0	81	22192
2026-01-11 23:17:21.71	145.41	23.39	-57.4	-73.4	3.8	1.49e+00	0	23	104	0	81	22067
2026-01-11 23:17:22.72	145.60	23.28	-57.4	-73.4	3.8	1.49e+00	0	23	104	0	81	22143
2026-01-11 23:17:23.73	145.78	23.16	-57.4	-73.4	3.8	1.49e+00	0	23	104	0	81	22074
2026-01-11 23:17:24.74	145.96	23.05	-57.4	-73.4	3.8	1.49e+00	0	23	104	0	81	22140
2026-01-11 23:17:25.74	146.14	22.94	-57.4	-73.4	3.8	1.49e+00	0	23	104	0	81	22137
2026-01-11 23:17:26.75	146.32	22.83	-57.4	-73.4	3.8	1.49e+00	0	23	104	0	81	22089
2026-01-11 23:17:27.76	146.50	22.71	-57.4	-73.4	3.8	1.49e+00	0	23	104	0	81	22047
2026-01-11 23:17:28.76	146.68	22.60	-57.4	-73.4	3.8	1.49e+00	0	23	104	0	81	22041
2026-01-11 23:17:29.77	146.86	22.49	-57.4	-73.4	3.8	1.49e+00	0	23	104	0	81	22022
2026-01-11 23:17:30.78	147.03	22.38	-57.4	-73.4	3.8	1.49e+00	0	23	104	0	81	22070
2026-01-11 23:17:31.79	147.21	22.27	-57.4	-73.4	3.8	1.49e+00	0	23	104	0	81	22059
2026-01-11 23:17:32.80	147.38	22.16	-57.4	-73.3	3.8	1.49e+00	0	23	104	0	81	21988
2026-01-11 23:17:33.81	147.55	22.04	-57.4	-73.4	3.8	1.49e+00	0	23	104	0	81	22020
2026-01-11 23:17:34.82	147.72	21.93	-57.4	-73.3	3.8	1.49e+00	0	23	104	0	81	21982
2026-01-11 23:17:35.82	147.89	21.82	-57.4	-73.3	3.8	1.49e+00	0	23	104	0	81	21945
2026-01-11 23:17:36.83	148.06	21.71	-57.3	-73.3	3.8	1.49e+00	0	23	104	0	81	21976
2026-01-11 23:17:37.84	148.22	21.60	-57.3	-73.3	3.8	1.49e+00	0	23	104	0	81	21962
2026-01-11 23:17:38.85	148.39	21.49	-57.3	-73.3	3.8	1.49e+00	0	23	104	0	81	21927
2026-01-11 23:17:39.86	148.55	21.38	-57.3	-73.3	3.8	1.49e+00	0	23	104	0	81	21951
2026-01-11 23:17:40.86	148.72	21.27	-57.3	-73.3	3.8	1.49e+00	0	23	104	0	81	21953
2026-01-11 23:17:41.87	148.88	21.17	-57.3	-73.3	3.8	1.49e+00	0	23	104	0	81	21941
2026-01-11 23:17:42.88	149.04	21.06	-57.3	-73.3	3.8	1.49e+00	0	23	104	0	81	21861
2026-01-11 23:17:43.89	149.20	20.95	-57.3	-73.3	3.8	1.49e+00	0	23	104	0	81	21922
2026-01-11 23:17:44.90	149.36	20.84	-57.3	-73.3	3.8	1.49e+00	0	23	104	0	81	21894
2026-01-11 23:17:45.91	149.52	20.73	-57.3	-73.3	3.8	1.49e+00	0	23	104	0	81	21853
2026-01-11 23:17:46.92	149.67	20.62	-57.3	-73.3	3.8	1.49e+00	0	23	104	0	81	21879
2026-01-11 23:17:47.93	149.83	20.51	-57.3	-73.3	3.8	1.49e+00	0	23	104	0	81	21876
2026-01-11 23:17:48.93	149.98	20.41	-57.3	-73.3	3.8	1.49e+00	0	23	104	0	81	21854
2026-01-11 23:17:49.94	150.14	20.30	-57.3	-73.3	3.8	1.49e+00	0	23	104	0	81	21799
2026-01-11 23:17:50.95	150.29	20.19	-57.3	-73.3	3.8	1.49e+00	0	23	104	0	81	21798
2026-01-11 23:17:51.96	150.44	20.09	-57.3	-73.3	3.8	1.49e+00	0	23	104	0	81	21784
2026-01-11 23:17:52.97	150.59	19.98	-57.3	-73.3	3.8	1.49e+00	0	23	104	0	81	21792
2026-01-11 23:17:53.98	150.74	19.87	-57.3	-73.3	3.8	1.49e+00	0	23	104	0	81	21773
2026-01-11 23:17:54.99	150.89	19.77	-57.3	-73.2	3.8	1.49e+00	0	23	104	0	81	21704
2026-01-11 23:17:55.99	151.04	19.66	-57.3	-73.2	3.8	1.49e+00	0	23	104	0	81	21754
2026-01-11 23:17:57.00	151.18	19.56	-57.3	-73.2	3.8	1.49e+00	0	23	104	0	81	21715
2026-01-11 23:17:58.01	151.33	19.45	-57.2	-73.2	3.8	1.49e+00	0	23	104	0	81	21645
2026-01-11 23:17:59.01	151.47	19.35	-57.3	-73.2	3.8	1.49e+00	0	23	104	0	81	21660
2026-01-11 23:18:00.03	151.62	19.24	-57.2	-73.2	3.8	1.49e+00	0	23	104	0	81	21635
2026-01-11 23:18:01.03	151.76	19.14	-57.2	-73.2	3.8	1.49e+00	0	23	104	0	81	21673
2026-01-11 23:18:02.04	151.90	19.04	-57.2	-73.2	3.8	1.49e+00	0	23	104	0	81	21661
2026-01-11 23:18:03.05	152.04	18.93	-57.2	-73.2	3.8	1.49e+00	0	23	104	0	81	21624
2026-01-11 23:18:04.06	152.18	18.83	-57.2	-73.2	3.8	1.49e+00	0	23	104	0	81	21604
2026-01-11 23:18:05.07	152.32	18.73	-57.2	-73.2	3.8	1.49e+00	0	23	104	0	81	21567
2026-01-11 23:18:06.08	152.46	18.62	-57.2	-73.2	3.8	1.49e+00	0	23	104	0	81	21553
2026-01-11 23:18:07.09	152.60	18.52	-57.2	-73.2	3.8	1.49e+00	0	23	104	0	81	21556
2026-01-11 23:18:08.10	152.74	18.42	-57.2	-73.2	3.8	1.49e+00	0	23	104	0	81	21545
2026-01-11 23:18:09.10	152.87	18.32	-57.2	-73.2	3.8	1.49e+00	0	23	104	0	81	21551
2026-01-11 23:18:10.11	153.00	18.21	-57.2	-73.2	3.8	1.49e+00	0	23	104	0	81	21570
2026-01-11 23:18:11.12	153.14	18.11	-57.2	-73.1	3.8	1.49e+00	0	23	104	0	81	21491
2026-01-11 23:18:12.12	153.27	18.01	-57.2	-73.2	3.8	1.49e+00	0	23	104	0	81	21513
2026-01-11 23:18:13.14	153.40	17.91	-57.2	-73.1	3.8	1.49e+00	0	23	104	0	81	21487
2026-01-11 23:18:14.15	153.53	17.81	-57.2	-73.1	3.8	1.49e+00	0	23	104	0	81	21481
2026-01-11 23:18:15.16	153.67	17.71	-57.2	-73.2	3.8	1.49e+00	0	23	104	0	81	21514
2026-01-11 23:18:16.17	153.80	17.61	-57.1	-73.1	3.8	1.49e+00	0	23	104	0	80	22611
2026-01-11 23:18:17.18	153.92	17.51	-57.1	-73.1	3.8	1.49e+00	0	23	104	0	80	22604
2026-01-11 23:18:18.19	154.05	17.41	-57.1	-73.1	3.8	1.49e+00	0	23	104	0	80	22527
2026-01-11 23:18:19.20	154.18	17.31	-57.1	-73.0	3.8	1.49e+00	0	23	104	0	80	22492
2026-01-11 23:18:20.21	154.31	17.21	-57.1	-73.0	3.8	1.49e+00	0	23	104	0	80	22488
2026-01-11 23:18:21.22	154.43	17.11	-57.1	-73.1	3.8	1.49e+00	0	23	104	0	80	22521
2026-01-11 23:18:22.23	154.56	17.01	-57.1	-73.0	3.8	1.49e+00	0	23	104	0	80	22520
2026-01-11 23:18:23.23	154.68	16.91	-57.1	-73.0	3.8	1.49e+00	0	23	104	0	80	22478
2026-01-11 23:18:24.24	154.80	16.82	-57.1	-73.0	3.8	1.49e+00	0	23	104	0	80	22470
2026-01-11 23:18:25.25	154.92	16.72	-57.1	-73.0	3.8	1.49e+00	0	23	104	0	80	22449
2026-01-11 23:18:26.25	155.05	16.62	-57.0	-73.0	3.8	1.49e+00	0	23	104	0	80	22345
2026-01-11 23:18:27.26	155.17	16.52	-57.0	-73.0	3.8	1.49e+00	0	23	104	0	80	22414
2026-01-11 23:18:28.28	155.29	16.43	-57.0	-73.0	3.8	1.49e+00	0	23	104	0	80	22409
2026-01-11 23:18:29.28	155.41	16.33	-57.0	-73.0	3.8	1.49e+00	0	23	104	0	80	22374
2026-01-11 23:18:30.29	155.53	16.23	-57.0	-73.0	3.8	1.49e+00	0	23	104	0	80	22323
2026-01-11 23:18:31.30	155.64	16.14	-57.0	-72.9	3.8	1.49e+00	0	23	104	0	80	22238
2026-01-11 23:18:32.31	155.76	16.04	-57.0	-73.0	3.8	1.49e+00	0	23	104	0	80	22294
2026-01-11 23:18:33.32	155.88	15.95	-57.0	-72.9	3.8	1.49e+00	0	23	104	0	80	22238
2026-01-11 23:18:34.33	155.99	15.85	-57.0	-72.9	3.8	1.49e+00	0	23	104	0	80	22232
2026-01-11 23:18:35.34	156.11	15.75	-57.0	-72.9	3.8	1.49e+00	0	23	104	0	80	22191
2026-01-11 23:18:36.35	156.22	15.66	-57.0	-72.9	3.8	1.49e+00	0	23	104	0	80	22206
2026-01-11 23:18:37.36	156.34	15.57	-57.1	-73.0	3.8	1.49e+00	0	23	104	0	80	22411
2026-01-11 23:18:38.36	156.45	15.47	-57.6	-73.6	3.8	1.49e+00	0	23	104	0	80	23894
2026-01-11 23:18:39.37	156.56	15.38	-58.0	-74.1	3.8	1.49e+00	0	23	104	0	81	24047
2026-01-11 23:18:40.38	156.67	15.28	-58.2	-74.2	3.8	1.49e+00	0	23	104	0	81	24392
2026-01-11 23:18:41.39	156.78	15.19	-58.4	-74.4	3.8	1.49e+00	0	23	104	0	81	24813
2026-01-11 23:18:42.40	156.89	15.10	-58.6	-74.6	3.8	1.49e+00	0	23	104	0	82	23912
2026-01-11 23:18:43.41	157.00	15.00	-58.7	-74.7	3.8	1.49e+00	0	23	104	0	82	24158
2026-01-11 23:18:44.42	157.11	14.91	-58.7	-74.8	3.8	1.49e+00	0	24	104	0	82	24437
2026-01-11 23:18:45.42	157.22	14.82	-58.8	-74.8	3.8	1.49e+00	0	23	104	0	82	24682
2026-01-11 23:18:46.43	157.33	14.73	-58.8	-74.9	3.8	1.49e+00	0	23	104	0	82	24807
2026-01-11 23:18:47.44	157.44	14.63	-58.9	-74.9	3.8	1.49e+00	0	23	104	0	82	24907
2026-01-11 23:18:48.45	157.54	14.54	-58.9	-74.9	3.8	1.49e+00	0	23	104	0	82	24926
2026-01-11 23:18:49.46	157.65	14.45	-58.9	-74.9	3.8	1.49e+00	0	23	104	0	82	24956
2026-01-11 23:18:50.47	157.75	14.36	-59.0	-75.0	3.8	1.49e+00	0	23	104	0	83	23744
2026-01-11 23:18:51.48	157.86	14.27	-59.0	-75.1	3.8	1.49e+00	0	23	104	0	83	23855
2026-01-11 23:18:52.49	157.96	14.18	-59.0	-75.1	3.8	1.49e+00	0	23	104	0	83	23886
2026-01-11 23:18:53.50	158.07	14.09	-59.1	-75.1	3.8	1.49e+00	0	23	104	0	83	24034
2026-01-11 23:18:54.51	158.17	14.00	-59.1	-75.1	3.8	1.49e+00	0	23	104	0	83	24068
2026-01-11 23:18:55.52	158.27	13.91	-59.1	-75.2	3.8	1.49e+00	0	23	104	0	83	24163
2026-01-11 23:18:56.52	158.37	13.82	-59.1	-75.2	3.8	1.49e+00	0	23	104	0	83	24177
2026-01-11 23:18:57.53	158.47	13.73	-59.1	-75.2	3.8	1.49e+00	0	23	104	0	83	24192
2026-01-11 23:18:58.54	158.57	13.64	-59.1	-75.2	3.8	1.49e+00	0	23	104	0	83	24212
2026-01-11 23:18:59.55	158.67	13.55	-59.1	-75.2	3.8	1.49e+00	0	23	104	0	83	24207
2026-01-11 23:19:00.56	158.77	13.46	-59.1	-75.2	3.8	1.49e+00	0	23	104	0	83	24173
2026-01-11 23:19:01.57	158.87	13.37	-59.1	-75.2	3.8	1.49e+00	0	23	104	0	83	24205
2026-01-11 23:19:02.58	158.97	13.29	-59.1	-75.2	3.8	1.49e+00	0	23	104	0	83	24181
2026-01-11 23:19:03.59	159.07	13.20	-59.1	-75.1	3.8	1.49e+00	0	23	104	0	83	24125
2026-01-11 23:19:04.60	159.16	13.11	-59.1	-75.1	3.8	1.49e+00	0	23	104	0	83	24126
2026-01-11 23:19:05.61	159.26	13.02	-59.1	-75.1	3.8	1.49e+00	0	23	104	0	83	24058
2026-01-11 23:19:06.62	159.36	12.93	-59.1	-75.1	3.8	1.49e+00	0	23	104	0	83	24024
2026-01-11 23:19:07.63	159.45	12.85	-59.1	-75.1	3.8	1.49e+00	0	23	104	0	83	24064
2026-01-11 23:19:08.64	159.55	12.76	-59.0	-75.1	3.8	1.49e+00	0	23	104	0	83	23926
2026-01-11 23:19:09.65	159.64	12.67	-59.0	-75.0	3.8	1.49e+00	0	23	104	0	83	23737
2026-01-11 23:19:10.66	159.74	12.59	-59.0	-75.0	3.8	1.49e+00	0	23	104	0	83	23683
2026-01-11 23:19:11.66	159.83	12.50	-58.9	-74.9	3.8	1.49e+00	0	23	104	0	83	23559
2026-01-11 23:19:12.67	159.92	12.42	-58.9	-74.9	3.8	1.49e+00	0	23	104	0	83	23448
2026-01-11 23:19:13.68	160.01	12.33	-58.8	-74.9	3.8	1.49e+00	0	23	104	0	83	23339
2026-01-11 23:19:14.69	160.10	12.25	-58.8	-74.8	3.8	1.49e+00	0	23	104	0	83	23205
2026-01-11 23:19:15.70	160.20	12.16	-58.7	-74.7	3.8	1.49e+00	0	23	104	0	83	23023
2026-01-11 23:19:16.71	160.29	12.08	-58.7	-74.7	3.8	1.49e+00	0	23	104	0	83	22866
2026-01-11 23:19:17.71	160.38	11.99	-58.6	-74.3	3.8	1.49e+00	0	23	104	0	83	21898
2026-01-11 23:19:18.72	160.47	11.91	-58.5	-74.3	3.8	1.49e+00	0	23	104	0	83	21907
2026-01-11 23:19:19.73	160.56	11.82	-56.2	-60.6	5.6	1.49e+00	0	23	104	0	79	5718
2026-01-11 23:19:20.74	160.64	11.74	-52.7	-54.9	14.6	0.00e+00	0	23	0	1048576	72	4408
2026-01-11 23:19:21.75	160.73	11.66	-53.0	-55.3	14.4	0.00e+00	0	23	0	3145728	72	4611
2026-01-11 23:19:22.76	160.82	11.57	-54.9	-58.4	12.6	0.00e+00	0	23	0	4194304	74	5875
2026-01-11 23:19:23.76	160.91	11.49	-55.9	-60.3	11.4	0.00e+00	0	23	0	6291456	76	6508
2026-01-11 23:19:24.78	161.00	11.41	-57.2	-65.1	7.3	9.79e-03	0	23	0	8388608	79	9585
2026-01-11 23:19:25.79	161.08	11.32	-53.3	-55.8	14.0	5.18e-05	0	23	0	10485760	72	4920
2026-01-11 23:19:26.79	161.17	11.24	-52.8	-55.0	14.5	0.00e+00	0	23	0	12582912	72	4479
2026-01-11 23:19:27.80	161.25	11.16	-52.8	-55.1	14.5	0.00e+00	0	23	0	13631488	72	4522
2026-01-11 23:19:28.81	161.34	11.08	-52.8	-55.1	14.5	0.00e+00	0	23	0	15728640	72	4540
2026-01-11 23:19:29.81	161.42	11.00	-52.6	-54.8	14.5	0.00e+00	0	23	0	17825792	71	4632
2026-01-11 23:19:30.82	161.51	10.91	-52.7	-54.9	14.4	0.00e+00	0	23	0	19922944	71	4676
2026-01-11 23:19:31.83	161.59	10.83	-52.7	-54.9	14.4	0.00e+00	0	23	0	22020096	71	4704
2026-01-11 23:19:32.84	161.67	10.75	-52.7	-55.0	14.3	0.00e+00	0	23	0	23068672	71	4749
2026-01-11 23:19:33.85	161.76	10.67	-52.7	-55.0	14.4	0.00e+00	0	23	0	25165824	71	4740
2026-01-11 23:19:34.86	161.84	10.59	-52.7	-55.0	14.3	0.00e+00	0	23	0	27262976	71	4743
2026-01-11 23:19:35.87	161.92	10.51	-52.7	-55.0	14.4	0.00e+00	0	23	0	29360128	71	4742
2026-01-11 23:19:36.88	162.00	10.43	-52.7	-55.0	14.4	0.00e+00	0	23	0	31457280	71	4736
2026-01-11 23:19:37.89	162.08	10.35	-52.8	-55.2	14.2	0.00e+00	0	23	0	32505856	71	4826
2026-01-11 23:19:38.89	162.16	10.27	-52.8	-55.1	14.3	0.00e+00	0	23	0	34603008	71	4803
2026-01-11 23:19:39.90	162.24	10.19	-52.7	-55.0	14.3	0.00e+00	0	24	0	36700160	71	4746
2026-01-11 23:19:40.91	162.32	10.11	-52.8	-55.2	14.3	0.00e+00	0	23	0	38797312	71	4822
2026-01-11 23:19:41.91	162.40	10.03	-52.8	-55.1	14.3	0.00e+00	0	23	0	40894464	71	4812
2026-01-11 23:19:42.92	162.48	9.95	-52.9	-55.3	14.2	0.00e+00	0	23	0	41943040	71	4879
2026-01-11 23:19:43.93	162.56	9.87	-52.9	-55.3	14.1	0.00e+00	0	23	0	44040192	71	4898
2026-01-11 23:19:44.94	162.64	9.79	-53.0	-55.4	14.1	0.00e+00	0	23	0	46137344	71	4964
2026-01-11 23:19:45.95	162.72	9.71	-53.1	-55.6	14.0	0.00e+00	0	23	0	48234496	71	5058
2026-01-11 23:19:46.95	162.79	9.64	-53.0	-55.5	14.1	0.00e+00	0	23	0	50331648	71	4993
2026-01-11 23:19:47.96	162.87	9.56	-53.1	-55.6	13.9	0.00e+00	0	23	0	51380224	71	5083
2026-01-11 23:19:48.97	162.95	9.48	-53.1	-55.7	13.9	0.00e+00	0	23	0	53477376	71	5111
2026-01-11 23:19:49.98	163.02	9.40	-53.1	-55.7	13.9	0.00e+00	0	23	0	55574528	71	5107
2026-01-11 23:19:50.99	163.10	9.33	-53.2	-55.8	13.8	0.00e+00	0	23	0	57671680	71	5210
2026-01-11 23:19:52.00	163.18	9.25	-53.2	-55.9	13.8	0.00e+00	0	23	0	59768832	71	5222
2026-01-11 23:19:53.01	163.25	9.17	-53.3	-55.9	13.8	0.00e+00	0	23	0	60817408	71	5240
2026-01-11 23:19:54.02	163.33	9.09	-53.3	-56.0	13.6	0.00e+00	0	23	0	62914560	71	5333
2026-01-11 23:19:55.03	163.40	9.02	-53.2	-55.8	13.8	0.00e+00	0	23	0	65011712	71	5172
2026-01-11 23:19:56.04	163.47	8.94	-53.3	-56.0	13.7	0.00e+00	0	23	0	67108864	71	5295
2026-01-11 23:19:57.05	163.55	8.86	-53.3	-56.0	13.7	0.00e+00	0	23	0	69206016	71	5312
2026-01-11 23:19:58.05	163.62	8.79	-53.4	-56.1	13.6	0.00e+00	0	23	0	71303168	71	5361
2026-01-11 23:19:59.07	163.69	8.71	-53.3	-56.0	13.6	0.00e+00	0	23	0	72351744	71	5311
2026-01-11 23:20:00.07	163.77	8.64	-53.3	-56.1	13.6	0.00e+00	0	23	0	74448896	71	5344
2026-01-11 23:20:01.08	163.84	8.56	-53.3	-55.9	13.7	0.00e+00	0	23	0	76546048	71	5252
2026-01-11 23:20:02.09	163.91	8.49	-53.3	-56.0	13.7	0.00e+00	0	23	0	78643200	71	5294
2026-01-11 23:20:03.10	163.98	8.41	-53.3	-56.0	13.6	0.00e+00	0	23	0	80740352	71	5299
2026-01-11 23:20:04.11	164.05	8.34	-53.3	-56.0	13.6	0.00e+00	0	23	0	81788928	71	5300
2026-01-11 23:20:05.12	164.12	8.26	-53.3	-55.9	13.7	0.00e+00	0	23	0	83886080	71	5277
2026-01-11 23:20:06.13	164.19	8.19	-53.3	-56.0	13.7	0.00e+00	0	23	0	85983232	71	5312
2026-01-11 23:20:07.13	164.26	8.11	-53.3	-56.0	13.7	0.00e+00	0	23	0	88080384	71	5291
2026-01-11 23:20:08.14	164.33	8.04	-53.3	-56.0	13.6	0.00e+00	0	23	0	90177536	71	5300
