passes_logs/2026/01/11/R3.2S_Murmansk/R3.2S_Murmansk__20260111_114321_FENGYUN_3D_rec.log

#Pass ID: 20260111_114321_FENGYUN 3D
#Satellite: FENGYUN 3D
#Configuration: FENGYUN 3D
#almurnet v.1.7.20251203
#Start time: 2026-01-11 11:43:21

#Version: 2.2.20231116
#Station: R3.2S_Murmansk
#Location: 33.079688 lon 68.888172 lat
#TLE: 1 43010U 17072A   26010.98637270  .00000005  00000+0  24269-4 0  9997
#TLE: 2 43010  98.9936 342.7405 0002213 115.1030 245.0375 14.19693961422685

#Time	Az	El	Level	Level2	SNR	BER	BlckErr	Temp	State	Recorded	gain1	gain2
2026-01-11 11:43:21.46	155.57	1.98	-57.2	-70.1	3.8	8.47e-01	0	21	0	0	80	16092
2026-01-11 11:43:22.47	155.57	2.05	-57.1	-70.1	3.8	8.45e-01	0	21	104	0	79	16972
2026-01-11 11:43:23.48	155.58	2.11	-57.1	-70.1	3.8	8.46e-01	0	21	104	0	79	16935
2026-01-11 11:43:24.49	155.59	2.18	-57.1	-70.0	3.8	8.45e-01	0	21	104	0	79	16858
2026-01-11 11:43:25.50	155.60	2.24	-57.1	-70.0	3.8	8.46e-01	0	21	104	0	79	16850
2026-01-11 11:43:26.51	155.61	2.31	-57.1	-70.0	3.8	8.45e-01	0	21	104	0	79	16782
2026-01-11 11:43:27.51	155.61	2.37	-57.1	-70.0	3.8	8.45e-01	0	21	104	0	79	16760
2026-01-11 11:43:28.52	155.62	2.44	-57.1	-70.0	3.8	8.47e-01	0	21	104	0	79	16771
2026-01-11 11:43:29.53	155.63	2.51	-57.1	-70.0	3.8	8.46e-01	0	21	104	0	79	16812
2026-01-11 11:43:30.54	155.64	2.57	-57.1	-70.0	3.8	8.46e-01	0	21	104	0	79	16704
2026-01-11 11:43:31.55	155.65	2.64	-57.1	-69.9	3.8	8.46e-01	0	21	104	0	79	16676
2026-01-11 11:43:32.56	155.66	2.70	-57.1	-69.9	3.8	8.46e-01	0	21	104	0	79	16532
2026-01-11 11:43:33.57	155.66	2.77	-57.1	-69.7	3.8	8.45e-01	0	21	104	0	79	16283
2026-01-11 11:43:34.58	155.67	2.84	-57.1	-69.6	3.8	8.46e-01	0	21	104	0	79	15964
2026-01-11 11:43:35.59	155.68	2.90	-57.1	-69.4	3.8	8.45e-01	0	21	104	0	79	15619
2026-01-11 11:43:36.59	155.69	2.97	-57.1	-69.2	3.8	8.46e-01	0	22	104	0	79	15358
2026-01-11 11:43:37.60	155.70	3.04	-57.1	-69.2	3.8	8.46e-01	0	22	104	0	79	15381
2026-01-11 11:43:38.61	155.71	3.10	-57.1	-69.3	3.8	8.45e-01	0	21	104	0	79	15551
2026-01-11 11:43:39.62	155.71	3.17	-57.1	-69.5	3.8	8.46e-01	0	21	104	0	79	15921
2026-01-11 11:43:40.62	155.72	3.24	-57.1	-70.0	3.8	8.45e-01	0	22	104	0	79	16748
2026-01-11 11:43:41.63	155.73	3.31	-57.1	-70.1	3.8	8.46e-01	0	22	104	0	79	17050
2026-01-11 11:43:42.64	155.74	3.37	-57.1	-70.0	3.8	8.46e-01	0	21	104	0	79	16708
2026-01-11 11:43:43.65	155.75	3.44	-57.1	-69.3	3.8	8.44e-01	0	22	104	0	79	15443
2026-01-11 11:43:44.66	155.76	3.51	-57.0	-68.3	3.8	8.46e-01	0	22	104	0	79	13793
2026-01-11 11:43:45.66	155.77	3.58	-56.9	-67.1	3.9	8.45e-01	0	22	104	0	79	12012
2026-01-11 11:43:46.67	155.77	3.65	-56.8	-65.8	4.4	8.29e-01	0	22	0	0	79	10320
2026-01-11 11:43:47.68	155.78	3.72	-56.5	-64.4	5.1	7.78e-01	0	22	0	0	79	8790
2026-01-11 11:43:48.69	155.79	3.79	-56.3	-63.1	5.8	3.92e-01	0	22	0	2097152	79	7621
2026-01-11 11:43:49.70	155.80	3.85	-55.9	-61.7	6.9	2.24e-01	0	22	0	8388608	78	6873
2026-01-11 11:43:50.71	155.81	3.92	-55.7	-61.0	7.5	1.15e-01	0	22	0	13631488	78	6298
2026-01-11 11:43:51.72	155.82	3.99	-55.4	-60.4	8.0	6.02e-02	0	22	0	19922944	77	6254
2026-01-11 11:43:52.73	155.83	4.06	-55.2	-59.7	8.7	3.63e-02	0	22	0	25165824	77	5766
2026-01-11 11:43:53.74	155.84	4.13	-54.8	-58.8	9.4	1.42e-02	0	22	0	30408704	76	5512
2026-01-11 11:43:54.75	155.84	4.20	-54.3	-58.0	10.1	3.92e-03	0	22	0	36700160	75	5300
2026-01-11 11:43:55.76	155.85	4.27	-53.9	-57.3	10.6	1.57e-03	0	22	0	41943040	74	5197
2026-01-11 11:43:56.77	155.86	4.34	-53.4	-56.5	11.3	2.84e-04	0	22	0	48234496	73	4997
2026-01-11 11:43:57.78	155.87	4.41	-52.7	-55.4	12.1	3.20e-05	0	22	0	53477376	72	4672
2026-01-11 11:43:58.79	155.88	4.49	-52.3	-54.8	12.5	1.60e-05	0	22	0	58720256	71	4621
2026-01-11 11:43:59.79	155.89	4.56	-51.9	-54.2	12.8	1.10e-06	0	22	0	65011712	70	4591
2026-01-11 11:44:00.80	155.90	4.63	-51.3	-53.5	13.3	0.00e+00	0	22	0	70254592	69	4447
2026-01-11 11:44:01.81	155.91	4.70	-50.9	-52.9	13.6	0.00e+00	0	22	0	76546048	68	4419
2026-01-11 11:44:02.82	155.92	4.77	-50.8	-52.7	13.7	1.10e-06	0	22	0	81788928	68	4334
2026-01-11 11:44:03.83	155.93	4.84	-50.3	-52.2	13.9	0.00e+00	0	22	0	88080384	67	4335
2026-01-11 11:44:04.84	155.93	4.91	-50.1	-51.9	14.0	0.00e+00	0	22	0	93323264	66	4415
2026-01-11 11:44:05.85	155.94	4.99	-50.3	-52.2	13.8	0.00e+00	0	22	0	98566144	66	4556
2026-01-11 11:44:06.85	155.95	5.06	-50.4	-52.3	13.7	0.00e+00	0	22	0	104857600	66	4606
2026-01-11 11:44:07.86	155.96	5.13	-50.4	-52.4	13.6	0.00e+00	0	22	0	110100480	66	4667
2026-01-11 11:44:08.87	155.97	5.20	-52.1	-54.5	12.6	0.00e+00	0	22	0	116391936	69	5041
2026-01-11 11:44:09.87	155.98	5.27	-54.2	-58.0	10.0	3.09e-04	0	22	0	121634816	73	5959
2026-01-11 11:44:10.88	155.99	5.35	-55.3	-60.3	8.0	8.43e-03	0	22	0	126877696	75	6926
2026-01-11 11:44:11.89	156.00	5.42	-48.6	-50.1	14.7	1.14e-05	0	22	0	133169152	63	4271
2026-01-11 11:44:12.90	156.01	5.49	-48.8	-50.4	14.5	0.00e+00	0	22	0	138412032	63	4407
2026-01-11 11:44:13.90	156.02	5.57	-48.7	-50.3	14.6	0.00e+00	0	22	0	143654912	63	4348
2026-01-11 11:44:14.91	156.03	5.64	-48.7	-50.3	14.6	0.00e+00	0	22	0	149946368	63	4344
2026-01-11 11:44:15.92	156.04	5.72	-48.7	-50.3	14.6	0.00e+00	0	22	0	155189248	63	4359
2026-01-11 11:44:16.93	156.05	5.79	-48.7	-50.3	14.6	0.00e+00	0	22	0	161480704	63	4379
2026-01-11 11:44:17.93	156.06	5.86	-48.6	-50.2	14.7	0.00e+00	0	22	0	166723584	63	4299
2026-01-11 11:44:18.95	156.07	5.94	-48.6	-50.2	14.7	0.00e+00	0	22	0	173015040	63	4299
2026-01-11 11:44:19.95	156.08	6.01	-48.6	-50.2	14.7	0.00e+00	0	22	0	178257920	63	4317
2026-01-11 11:44:20.96	156.08	6.09	-48.5	-50.1	14.7	0.00e+00	0	22	0	184549376	63	4265
2026-01-11 11:44:21.97	156.09	6.16	-48.6	-50.2	14.7	0.00e+00	0	23	0	189792256	63	4294
2026-01-11 11:44:22.98	156.10	6.24	-48.6	-50.1	14.7	0.00e+00	0	22	0	195035136	63	4287
2026-01-11 11:44:23.99	156.11	6.32	-48.7	-50.2	14.7	0.00e+00	0	22	0	201326592	63	4332
2026-01-11 11:44:24.99	156.12	6.39	-48.6	-50.1	14.8	0.00e+00	0	23	0	206569472	63	4274
2026-01-11 11:44:26.01	156.13	6.47	-48.5	-50.0	14.8	0.00e+00	0	23	0	212860928	63	4223
2026-01-11 11:44:27.02	156.14	6.54	-48.5	-50.0	14.8	0.00e+00	0	22	0	218103808	63	4227
2026-01-11 11:44:28.02	156.15	6.62	-48.5	-50.1	14.8	0.00e+00	0	22	0	223346688	63	4245
2026-01-11 11:44:29.03	156.16	6.70	-48.5	-50.0	14.9	0.00e+00	0	22	0	229638144	63	4215
2026-01-11 11:44:30.04	156.17	6.77	-48.6	-50.1	14.8	0.00e+00	0	23	0	234881024	63	4268
2026-01-11 11:44:31.05	156.18	6.85	-48.3	-49.8	14.9	0.00e+00	0	22	0	240123904	63	4139
2026-01-11 11:44:32.06	156.19	6.93	-48.4	-49.9	14.9	0.00e+00	0	23	0	246415360	63	4169
2026-01-11 11:44:33.06	156.20	7.01	-48.4	-49.9	14.9	0.00e+00	0	22	0	251658240	63	4190
2026-01-11 11:44:34.07	156.21	7.08	-48.2	-49.7	15.0	0.00e+00	0	23	0	257949696	63	4080
2026-01-11 11:44:35.08	156.22	7.16	-48.4	-49.9	15.0	0.00e+00	0	22	0	263192576	63	4151
2026-01-11 11:44:36.09	156.23	7.24	-48.0	-49.4	15.0	0.00e+00	0	22	0	269484032	62	4188
2026-01-11 11:44:37.10	156.24	7.32	-48.2	-49.7	14.9	0.00e+00	0	22	0	274726912	62	4295
2026-01-11 11:44:38.11	156.25	7.40	-48.2	-49.7	14.9	0.00e+00	0	22	0	281018368	62	4312
2026-01-11 11:44:39.12	156.26	7.48	-48.1	-49.5	15.0	0.00e+00	0	22	0	286261248	62	4232
2026-01-11 11:44:40.13	156.27	7.56	-48.1	-49.5	15.0	0.00e+00	0	22	0	291504128	62	4238
2026-01-11 11:44:41.14	156.28	7.64	-48.1	-49.6	14.9	0.00e+00	0	22	0	297795584	62	4276
2026-01-11 11:44:42.14	156.29	7.72	-48.1	-49.6	15.0	0.00e+00	0	22	0	303038464	62	4250
2026-01-11 11:44:43.15	156.30	7.80	-48.1	-49.5	15.0	0.00e+00	0	22	0	308281344	62	4241
2026-01-11 11:44:44.16	156.32	7.88	-47.9	-49.3	15.1	0.00e+00	0	23	0	314572800	62	4136
2026-01-11 11:44:45.17	156.33	7.96	-47.9	-49.4	15.1	0.00e+00	0	22	0	319815680	62	4169
2026-01-11 11:44:46.17	156.34	8.04	-47.9	-49.4	15.1	0.00e+00	0	23	0	326107136	62	4156
2026-01-11 11:44:47.18	156.35	8.12	-48.0	-49.5	15.0	0.00e+00	0	22	0	331350016	62	4196
2026-01-11 11:44:48.19	156.36	8.20	-48.0	-49.5	15.0	0.00e+00	0	22	0	336592896	62	4208
2026-01-11 11:44:49.20	156.37	8.29	-48.0	-49.4	15.1	0.00e+00	0	23	0	342884352	62	4181
2026-01-11 11:44:50.21	156.38	8.37	-47.9	-49.4	15.1	0.00e+00	0	22	0	348127232	62	4165
2026-01-11 11:44:51.22	156.39	8.45	-48.0	-49.5	15.0	0.00e+00	0	23	0	354418688	62	4217
2026-01-11 11:44:52.23	156.40	8.53	-48.0	-49.4	15.1	0.00e+00	0	23	0	359661568	62	4183
2026-01-11 11:44:53.24	156.41	8.62	-47.8	-49.3	15.1	0.00e+00	0	22	0	365953024	62	4110
2026-01-11 11:44:54.25	156.42	8.70	-47.7	-49.1	15.2	0.00e+00	0	23	0	371195904	62	4034
2026-01-11 11:44:55.26	156.43	8.78	-47.7	-49.1	15.2	0.00e+00	0	23	0	377487360	62	4038
2026-01-11 11:44:56.27	156.44	8.87	-47.8	-49.2	15.2	0.00e+00	0	22	0	382730240	62	4065
2026-01-11 11:44:57.28	156.45	8.95	-47.8	-49.2	15.2	0.00e+00	0	23	0	387973120	62	4054
2026-01-11 11:44:58.29	156.47	9.03	-47.8	-49.2	15.2	0.00e+00	0	23	0	394264576	62	4059
2026-01-11 11:44:59.30	156.48	9.12	-47.8	-49.2	15.2	0.00e+00	0	22	0	399507456	62	4058
2026-01-11 11:45:00.30	156.49	9.20	-47.7	-49.1	15.2	0.00e+00	0	23	0	404750336	62	4047
2026-01-11 11:45:01.31	156.50	9.29	-47.7	-49.1	15.2	0.00e+00	0	23	0	411041792	62	4051
2026-01-11 11:45:02.32	156.51	9.37	-47.6	-49.0	15.1	0.00e+00	0	23	0	416284672	61	4241
2026-01-11 11:45:03.32	156.52	9.46	-47.6	-49.0	15.1	0.00e+00	0	23	0	422576128	61	4218
2026-01-11 11:45:04.33	156.53	9.55	-47.6	-49.0	15.1	0.00e+00	0	23	0	427819008	61	4223
2026-01-11 11:45:05.34	156.54	9.63	-47.6	-49.0	15.1	0.00e+00	0	23	0	433061888	61	4232
2026-01-11 11:45:06.35	156.55	9.72	-47.5	-48.9	15.2	0.00e+00	0	23	0	439353344	61	4150
2026-01-11 11:45:07.36	156.57	9.81	-47.4	-48.8	15.3	0.00e+00	0	23	0	444596224	61	4127
2026-01-11 11:45:08.37	156.58	9.89	-47.4	-48.7	15.3	0.00e+00	0	23	0	450887680	61	4093
2026-01-11 11:45:09.37	156.59	9.98	-47.4	-48.7	15.3	0.00e+00	0	23	0	456130560	61	4083
2026-01-11 11:45:10.38	156.60	10.07	-47.4	-48.8	15.3	0.00e+00	0	23	0	462422016	61	4114
2026-01-11 11:45:11.39	156.61	10.16	-47.5	-48.9	15.2	0.00e+00	0	23	0	467664896	61	4168
2026-01-11 11:45:12.40	156.62	10.25	-47.4	-48.7	15.3	0.00e+00	0	23	0	472907776	61	4098
2026-01-11 11:45:13.41	156.64	10.33	-47.3	-48.7	15.3	0.00e+00	0	23	0	479199232	61	4065
2026-01-11 11:45:14.42	156.65	10.42	-47.3	-48.7	15.3	0.00e+00	0	23	0	484442112	61	4089
2026-01-11 11:45:15.43	156.66	10.51	-47.3	-48.7	15.3	0.00e+00	0	23	0	490733568	61	4065
2026-01-11 11:45:16.43	156.67	10.60	-47.3	-48.7	15.3	0.00e+00	0	23	0	495976448	61	4077
2026-01-11 11:45:17.44	156.68	10.69	-47.3	-48.6	15.4	0.00e+00	0	23	0	501219328	61	4035
2026-01-11 11:45:18.45	156.69	10.78	-47.3	-48.6	15.4	0.00e+00	0	23	0	507510784	61	4043
2026-01-11 11:45:19.46	156.71	10.87	-47.3	-48.6	15.4	0.00e+00	0	23	0	512753664	61	4034
2026-01-11 11:45:20.47	156.72	10.96	-47.4	-48.7	15.3	0.00e+00	0	23	0	519045120	61	4095
2026-01-11 11:45:21.48	156.73	11.06	-47.3	-48.7	15.3	0.00e+00	0	23	0	524288000	61	4073
2026-01-11 11:45:22.49	156.74	11.15	-47.4	-48.7	15.3	0.00e+00	0	23	0	529530880	61	4086
2026-01-11 11:45:23.50	156.76	11.24	-47.2	-48.6	15.4	0.00e+00	0	23	0	535822336	61	4024
2026-01-11 11:45:24.50	156.77	11.33	-47.3	-48.6	15.4	0.00e+00	0	23	0	541065216	61	4036
2026-01-11 11:45:25.51	156.78	11.43	-47.2	-48.6	15.4	0.00e+00	0	23	0	547356672	61	4017
2026-01-11 11:45:26.52	156.79	11.52	-47.1	-48.4	15.3	0.00e+00	0	23	0	552599552	60	4168
2026-01-11 11:45:27.53	156.80	11.61	-47.2	-48.5	15.3	0.00e+00	0	23	0	558891008	60	4228
2026-01-11 11:45:28.54	156.82	11.71	-47.1	-48.5	15.2	0.00e+00	0	23	0	564133888	60	4212
2026-01-11 11:45:29.55	156.83	11.80	-47.1	-48.5	15.3	0.00e+00	0	23	0	569376768	60	4211
2026-01-11 11:45:30.56	156.84	11.90	-47.1	-48.4	15.3	0.00e+00	0	23	0	575668224	60	4167
2026-01-11 11:45:31.56	156.85	11.99	-47.0	-48.3	15.4	0.00e+00	0	23	0	580911104	60	4124
2026-01-11 11:45:32.57	156.87	12.09	-46.9	-48.3	15.4	0.00e+00	0	23	0	587202560	60	4106
2026-01-11 11:45:33.58	156.88	12.18	-46.9	-48.2	15.4	0.00e+00	0	23	0	592445440	60	4082
2026-01-11 11:45:34.59	156.89	12.28	-46.9	-48.2	15.4	0.00e+00	0	23	0	597688320	60	4076
2026-01-11 11:45:35.59	156.91	12.37	-46.9	-48.2	15.4	0.00e+00	0	23	0	603979776	60	4081
2026-01-11 11:45:36.60	156.92	12.47	-46.8	-48.1	15.5	0.00e+00	0	23	0	609222656	60	4040
2026-01-11 11:45:37.61	156.93	12.57	-46.8	-48.1	15.5	0.00e+00	0	23	0	615514112	60	4051
2026-01-11 11:45:38.62	156.95	12.67	-46.7	-48.0	15.5	0.00e+00	0	23	0	620756992	60	4003
2026-01-11 11:45:39.63	156.96	12.76	-46.8	-48.1	15.5	0.00e+00	0	23	0	625999872	60	4015
2026-01-11 11:45:40.63	156.97	12.86	-46.8	-48.1	15.5	0.00e+00	0	23	0	632291328	60	4018
2026-01-11 11:45:41.64	156.98	12.96	-46.9	-48.3	15.3	0.00e+00	0	23	0	637534208	59	4353
2026-01-11 11:45:42.65	157.00	13.06	-46.9	-48.3	15.3	0.00e+00	0	23	0	643825664	59	4366
2026-01-11 11:45:43.66	157.01	13.16	-47.0	-48.3	15.3	0.00e+00	0	23	0	649068544	59	4374
2026-01-11 11:45:44.67	157.03	13.26	-47.0	-48.3	15.3	0.00e+00	0	23	0	655360000	59	4359
2026-01-11 11:45:45.67	157.04	13.36	-46.9	-48.2	15.3	0.00e+00	0	23	0	660602880	59	4333
2026-01-11 11:45:46.68	157.05	13.46	-46.9	-48.3	15.3	0.00e+00	0	23	0	665845760	59	4342
2026-01-11 11:45:47.69	157.07	13.56	-46.8	-48.1	15.3	0.00e+00	0	23	0	672137216	59	4288
2026-01-11 11:45:48.70	157.08	13.66	-46.9	-48.2	15.3	0.00e+00	0	23	0	677380096	59	4312
2026-01-11 11:45:49.71	157.09	13.77	-46.8	-48.2	15.3	0.00e+00	0	23	0	683671552	59	4297
2026-01-11 11:45:50.72	157.11	13.87	-46.8	-48.2	15.3	0.00e+00	0	23	0	688914432	59	4304
2026-01-11 11:45:51.73	157.12	13.97	-46.9	-48.3	15.3	0.00e+00	0	23	0	694157312	59	4350
2026-01-11 11:45:52.74	157.14	14.08	-46.8	-48.2	15.3	0.00e+00	0	23	0	700448768	59	4293
2026-01-11 11:45:53.75	157.15	14.18	-46.7	-48.1	15.4	0.00e+00	0	23	0	705691648	59	4254
2026-01-11 11:45:54.75	157.16	14.28	-46.7	-48.0	15.4	0.00e+00	0	23	0	711983104	59	4235
2026-01-11 11:45:55.76	157.18	14.39	-46.6	-47.9	15.4	0.00e+00	0	23	0	717225984	59	4192
2026-01-11 11:45:56.77	157.19	14.49	-46.8	-48.1	15.4	0.00e+00	0	23	0	722468864	59	4268
2026-01-11 11:45:57.78	157.21	14.60	-46.6	-47.9	15.5	0.00e+00	0	23	0	728760320	59	4176
2026-01-11 11:45:58.79	157.22	14.71	-46.6	-48.0	15.4	0.00e+00	0	23	0	734003200	59	4202
2026-01-11 11:45:59.80	157.24	14.81	-46.5	-47.8	15.5	0.00e+00	0	23	0	740294656	59	4139
2026-01-11 11:46:00.80	157.25	14.92	-46.5	-47.8	15.6	0.00e+00	0	23	0	745537536	59	4114
2026-01-11 11:46:01.80	157.26	15.03	-46.5	-47.8	15.5	0.00e+00	0	23	0	750780416	59	4143
2026-01-11 11:46:02.80	157.28	15.13	-46.6	-48.0	15.4	0.00e+00	0	23	0	757071872	59	4201
2026-01-11 11:46:03.81	157.29	15.24	-46.4	-47.7	15.6	0.00e+00	0	23	0	762314752	59	4062
2026-01-11 11:46:04.82	157.31	15.35	-46.5	-47.8	15.5	0.00e+00	0	23	0	768606208	59	4118
2026-01-11 11:46:05.83	157.32	15.46	-46.4	-47.7	15.6	0.00e+00	0	23	0	773849088	59	4068
2026-01-11 11:46:06.84	157.34	15.57	-46.4	-47.7	15.6	0.00e+00	0	23	0	779091968	59	4078
2026-01-11 11:46:07.85	157.35	15.68	-46.4	-47.7	15.6	0.00e+00	0	23	0	785383424	59	4058
2026-01-11 11:46:08.86	157.37	15.79	-46.3	-47.6	15.6	0.00e+00	0	23	0	790626304	59	4049
2026-01-11 11:46:09.86	157.39	15.90	-46.4	-47.7	15.6	0.00e+00	0	23	0	796917760	59	4059
2026-01-11 11:46:10.87	157.40	16.01	-46.5	-47.8	15.5	0.00e+00	0	23	0	802160640	59	4111
2026-01-11 11:46:11.88	157.42	16.13	-46.2	-47.5	15.7	0.00e+00	0	23	0	807403520	59	3996
2026-01-11 11:46:12.89	157.43	16.24	-46.3	-47.5	15.7	0.00e+00	0	23	0	813694976	59	4003
2026-01-11 11:46:13.90	157.45	16.35	-46.2	-47.5	15.7	0.00e+00	0	23	0	818937856	59	3990
2026-01-11 11:46:14.91	157.46	16.47	-46.3	-47.6	15.7	0.00e+00	0	23	0	825229312	59	4018
2026-01-11 11:46:15.91	157.48	16.58	-46.3	-47.6	15.6	0.00e+00	0	23	0	830472192	59	4041
2026-01-11 11:46:16.91	157.50	16.70	-46.3	-47.6	15.6	0.00e+00	0	23	0	836763648	59	4031
2026-01-11 11:46:17.92	157.51	16.81	-46.3	-47.6	15.7	0.00e+00	0	23	0	842006528	59	4005
2026-01-11 11:46:18.93	157.53	16.93	-46.2	-47.5	15.5	0.00e+00	0	23	0	847249408	58	4202
2026-01-11 11:46:19.94	157.54	17.05	-46.1	-47.4	15.5	0.00e+00	0	23	0	853540864	58	4192
2026-01-11 11:46:20.95	157.56	17.16	-46.1	-47.4	15.5	0.00e+00	0	23	0	858783744	58	4188
2026-01-11 11:46:21.96	157.58	17.28	-46.1	-47.4	15.5	0.00e+00	0	23	0	865075200	58	4166
2026-01-11 11:46:22.97	157.59	17.40	-46.0	-47.3	15.6	0.00e+00	0	23	0	870318080	58	4130
2026-01-11 11:46:23.97	157.61	17.52	-46.0	-47.3	15.6	0.00e+00	0	23	0	875560960	58	4136
2026-01-11 11:46:24.98	157.63	17.64	-46.0	-47.3	15.6	0.00e+00	0	23	0	881852416	58	4140
2026-01-11 11:46:25.99	157.64	17.76	-45.9	-47.2	15.7	0.00e+00	0	23	0	887095296	58	4070
2026-01-11 11:46:27.00	157.66	17.88	-45.9	-47.2	15.7	0.00e+00	0	23	0	893386752	58	4073
2026-01-11 11:46:28.01	157.68	18.00	-45.9	-47.2	15.6	0.00e+00	0	23	0	898629632	58	4078
2026-01-11 11:46:29.01	157.70	18.12	-45.9	-47.2	15.7	0.00e+00	0	23	0	903872512	58	4059
2026-01-11 11:46:30.02	157.71	18.25	-45.9	-47.2	15.6	0.00e+00	0	23	0	910163968	58	4061
2026-01-11 11:46:31.03	157.73	18.37	-45.6	-46.9	15.8	0.00e+00	0	23	0	915406848	57	4166
2026-01-11 11:46:32.04	157.75	18.49	-45.7	-47.0	15.6	0.00e+00	0	23	0	921698304	57	4195
2026-01-11 11:46:33.05	157.77	18.62	-45.6	-46.8	15.6	0.00e+00	0	23	0	926941184	57	4130
2026-01-11 11:46:34.06	157.78	18.74	-45.6	-46.8	15.6	0.00e+00	0	23	0	933232640	57	4139
2026-01-11 11:46:35.06	157.80	18.87	-45.4	-46.7	15.7	0.00e+00	0	23	0	938475520	57	4057
2026-01-11 11:46:36.07	157.82	18.99	-45.4	-46.6	15.7	0.00e+00	0	23	0	943718400	57	4048
2026-01-11 11:46:37.07	157.84	19.12	-45.4	-46.6	15.7	0.00e+00	0	23	0	950009856	57	4025
2026-01-11 11:46:38.08	157.86	19.25	-45.3	-46.6	15.8	0.00e+00	0	23	0	955252736	57	4006
2026-01-11 11:46:39.09	157.87	19.38	-45.3	-46.5	15.8	0.00e+00	0	23	0	960495616	57	3983
2026-01-11 11:46:40.10	157.89	19.51	-45.3	-46.5	15.8	0.00e+00	0	23	0	966787072	57	3985
2026-01-11 11:46:41.11	157.91	19.64	-45.2	-46.4	15.8	0.00e+00	0	23	0	972029952	57	3953
2026-01-11 11:46:42.12	157.93	19.77	-45.2	-46.4	15.8	0.00e+00	0	23	0	978321408	57	3954
2026-01-11 11:46:43.13	157.95	19.90	-45.2	-46.4	15.8	0.00e+00	0	23	0	983564288	57	3946
2026-01-11 11:46:44.14	157.97	20.03	-45.3	-46.5	15.8	0.00e+00	0	23	0	989855744	57	3994
2026-01-11 11:46:45.14	157.99	20.16	-45.3	-46.5	15.8	0.00e+00	0	23	0	995098624	57	3975
2026-01-11 11:46:46.15	158.01	20.30	-45.2	-46.4	15.8	0.00e+00	0	23	0	1000341504	57	3957
2026-01-11 11:46:47.15	158.03	20.43	-45.3	-46.5	15.8	0.00e+00	0	23	0	1006632960	57	3999
2026-01-11 11:46:48.16	158.05	20.56	-45.1	-46.3	15.7	0.00e+00	0	23	0	1011875840	56	4134
2026-01-11 11:46:49.18	158.07	20.70	-45.1	-46.4	15.7	0.00e+00	0	23	0	1018167296	56	4158
2026-01-11 11:46:50.19	158.09	20.84	-45.2	-46.4	15.7	0.00e+00	0	23	0	1023410176	56	4173
2026-01-11 11:46:51.20	158.11	20.97	-45.2	-46.5	15.6	0.00e+00	0	23	0	1028653056	56	4199
2026-01-11 11:46:52.20	158.13	21.11	-45.1	-46.4	15.7	0.00e+00	0	23	0	1034944512	56	4148
2026-01-11 11:46:53.21	158.15	21.25	-45.2	-46.4	15.6	0.00e+00	0	23	0	1040187392	56	4176
2026-01-11 11:46:54.21	158.17	21.39	-45.1	-46.3	15.7	0.00e+00	0	23	0	1046478848	56	4132
2026-01-11 11:46:55.22	158.19	21.53	-45.1	-46.4	15.7	0.00e+00	0	23	0	1051721728	56	4154
2026-01-11 11:46:56.22	158.21	21.67	-45.2	-46.5	15.6	0.00e+00	0	23	0	1056964608	56	4201
2026-01-11 11:46:57.23	158.23	21.81	-45.1	-46.4	15.7	0.00e+00	0	23	0	1063256064	56	4154
2026-01-11 11:46:58.24	158.25	21.95	-45.2	-46.4	15.6	0.00e+00	0	23	0	1068498944	56	4178
2026-01-11 11:46:59.25	158.27	22.09	-45.0	-46.2	15.7	0.00e+00	0	23	0	1074790400	56	4092
2026-01-11 11:47:00.27	158.29	22.24	-45.0	-46.2	15.7	0.00e+00	0	23	0	1080033280	56	4076
2026-01-11 11:47:01.27	158.31	22.38	-45.0	-46.2	15.7	0.00e+00	0	23	0	1086324736	56	4092
2026-01-11 11:47:02.28	158.34	22.53	-44.9	-46.2	15.8	0.00e+00	0	23	0	1091567616	56	4053
2026-01-11 11:47:03.28	158.36	22.67	-45.1	-46.3	15.7	0.00e+00	0	23	0	1096810496	56	4120
2026-01-11 11:47:04.29	158.38	22.82	-45.0	-46.2	15.7	0.00e+00	0	23	0	1103101952	56	4094
2026-01-11 11:47:05.30	158.40	22.97	-45.0	-46.2	15.8	0.00e+00	0	23	0	1108344832	56	4068
2026-01-11 11:47:06.31	158.42	23.12	-44.9	-46.1	15.8	0.00e+00	0	23	0	1114636288	56	4046
2026-01-11 11:47:07.32	158.45	23.27	-44.9	-46.1	15.8	0.00e+00	0	23	0	1119879168	56	4044
2026-01-11 11:47:08.32	158.47	23.42	-45.0	-46.3	15.7	0.00e+00	0	23	0	1125122048	56	4105
2026-01-11 11:47:09.33	158.49	23.57	-44.9	-46.2	15.8	0.00e+00	0	23	0	1131413504	56	4064
2026-01-11 11:47:10.34	158.52	23.72	-45.0	-46.2	15.8	0.00e+00	0	23	0	1136656384	56	4075
2026-01-11 11:47:11.34	158.54	23.87	-45.0	-46.2	15.8	0.00e+00	0	23	0	1141899264	56	4077
2026-01-11 11:47:12.35	158.56	24.03	-45.0	-46.2	15.8	0.00e+00	0	23	0	1148190720	56	4077
2026-01-11 11:47:13.36	158.59	24.18	-44.9	-46.1	15.8	0.00e+00	0	23	0	1153433600	56	4018
2026-01-11 11:47:14.37	158.61	24.34	-44.8	-46.0	15.9	0.00e+00	0	23	0	1159725056	56	3970
2026-01-11 11:47:15.37	158.63	24.49	-44.5	-45.7	15.8	0.00e+00	0	23	0	1164967936	55	4063
2026-01-11 11:47:16.38	158.66	24.65	-44.4	-45.6	15.8	0.00e+00	0	23	0	1171259392	55	4030
2026-01-11 11:47:17.39	158.68	24.81	-44.4	-45.6	15.8	0.00e+00	0	23	0	1176502272	55	4009
2026-01-11 11:47:18.40	158.71	24.97	-44.3	-45.5	15.9	0.00e+00	0	23	0	1181745152	55	3994
2026-01-11 11:47:19.41	158.73	25.13	-44.4	-45.6	15.9	0.00e+00	0	23	0	1188036608	55	4022
2026-01-11 11:47:20.41	158.76	25.29	-44.3	-45.5	15.9	0.00e+00	0	23	0	1193279488	55	3977
2026-01-11 11:47:21.42	158.78	25.45	-44.3	-45.5	15.9	0.00e+00	0	23	0	1199570944	55	3993
2026-01-11 11:47:22.43	158.81	25.62	-44.3	-45.5	15.9	0.00e+00	0	23	0	1204813824	55	3984
2026-01-11 11:47:23.44	158.83	25.78	-44.4	-45.6	15.8	0.00e+00	0	23	0	1210056704	55	4022
2026-01-11 11:47:24.44	158.86	25.95	-44.5	-45.7	15.8	0.00e+00	0	23	0	1216348160	55	4054
2026-01-11 11:47:25.45	158.89	26.11	-44.3	-45.5	15.9	0.00e+00	0	23	0	1221591040	55	3981
2026-01-11 11:47:26.46	158.91	26.28	-44.3	-45.5	15.9	0.00e+00	0	23	0	1227882496	55	3998
2026-01-11 11:47:27.47	158.94	26.45	-44.4	-45.6	15.9	0.00e+00	0	23	0	1233125376	55	4013
2026-01-11 11:47:28.48	158.97	26.62	-44.2	-45.4	15.9	0.00e+00	0	23	0	1238368256	55	3950
2026-01-11 11:47:29.49	159.00	26.79	-44.2	-45.4	15.9	0.00e+00	0	23	0	1244659712	55	3947
2026-01-11 11:47:30.50	159.02	26.96	-44.3	-45.4	15.9	0.00e+00	0	23	0	1249902592	55	3955
2026-01-11 11:47:31.51	159.05	27.14	-44.2	-45.4	15.9	0.00e+00	0	23	0	1256194048	55	3928
2026-01-11 11:47:32.52	159.08	27.31	-44.2	-45.4	15.9	0.00e+00	0	23	0	1261436928	55	3941
2026-01-11 11:47:33.52	159.11	27.49	-44.2	-45.4	15.9	0.00e+00	0	23	0	1267728384	55	3934
2026-01-11 11:47:34.53	159.14	27.66	-44.2	-45.4	15.9	0.00e+00	0	23	0	1272971264	55	3953
2026-01-11 11:47:35.55	159.16	27.84	-44.3	-45.5	15.9	0.00e+00	0	23	0	1278214144	55	3973
2026-01-11 11:47:36.55	159.19	28.02	-44.3	-45.5	15.9	0.00e+00	0	23	0	1284505600	55	4000
2026-01-11 11:47:37.56	159.22	28.20	-44.3	-45.5	15.9	0.00e+00	0	23	0	1289748480	55	3988
2026-01-11 11:47:38.57	159.25	28.38	-44.4	-45.6	15.8	0.00e+00	0	23	0	1296039936	55	4019
2026-01-11 11:47:39.58	159.28	28.56	-44.4	-45.6	15.8	0.00e+00	0	23	0	1301282816	55	4049
2026-01-11 11:47:40.59	159.31	28.75	-44.4	-45.6	15.8	0.00e+00	0	23	0	1306525696	55	4025
2026-01-11 11:47:41.60	159.34	28.93	-44.5	-45.7	15.8	0.00e+00	0	23	0	1312817152	55	4080
2026-01-11 11:47:42.60	159.37	29.12	-44.4	-45.6	15.8	0.00e+00	0	23	0	1318060032	55	4051
2026-01-11 11:47:43.61	159.41	29.30	-44.3	-45.6	15.9	0.00e+00	0	23	0	1324351488	55	4010
2026-01-11 11:47:44.62	159.44	29.49	-44.3	-45.5	15.9	0.00e+00	0	23	0	1329594368	55	3960
2026-01-11 11:47:45.63	159.47	29.68	-44.3	-45.5	16.0	0.00e+00	0	23	0	1334837248	55	3962
2026-01-11 11:47:46.63	159.50	29.87	-44.3	-45.5	15.9	0.00e+00	0	23	0	1341128704	55	3959
2026-01-11 11:47:47.64	159.53	30.06	-44.1	-45.3	15.8	0.00e+00	0	23	0	1346371584	54	4141
2026-01-11 11:47:48.65	159.57	30.26	-44.1	-45.3	15.8	0.00e+00	0	23	0	1352663040	54	4138
2026-01-11 11:47:49.66	159.60	30.45	-44.1	-45.3	15.8	0.00e+00	0	23	0	1357905920	54	4132
2026-01-11 11:47:50.67	159.63	30.65	-44.1	-45.3	15.8	0.00e+00	0	23	0	1364197376	54	4109
2026-01-11 11:47:51.68	159.67	30.85	-44.0	-45.1	15.9	0.00e+00	0	23	0	1369440256	54	4044
2026-01-11 11:47:52.69	159.70	31.04	-43.9	-45.1	15.9	0.00e+00	0	23	0	1374683136	54	4010
2026-01-11 11:47:53.70	159.74	31.24	-43.8	-45.0	15.9	0.00e+00	0	23	0	1380974592	54	3989
2026-01-11 11:47:54.70	159.77	31.44	-44.0	-45.1	15.9	0.00e+00	0	23	0	1386217472	54	4042
2026-01-11 11:47:55.71	159.81	31.65	-43.9	-45.1	15.9	0.00e+00	0	23	0	1392508928	54	4029
2026-01-11 11:47:56.72	159.84	31.85	-44.0	-45.1	15.8	0.00e+00	0	23	0	1397751808	54	4047
2026-01-11 11:47:57.73	159.88	32.06	-44.1	-45.2	15.8	0.00e+00	0	23	0	1402994688	54	4097
2026-01-11 11:47:58.74	159.92	32.26	-44.0	-45.2	15.9	0.00e+00	0	23	0	1409286144	54	4054
2026-01-11 11:47:59.75	159.95	32.47	-44.0	-45.2	15.8	0.00e+00	0	23	0	1414529024	54	4085
2026-01-11 11:48:00.76	159.99	32.68	-44.1	-45.2	15.8	0.00e+00	0	23	0	1420820480	54	4097
2026-01-11 11:48:01.76	160.03	32.89	-44.2	-45.4	15.8	0.00e+00	0	23	0	1426063360	54	4163
2026-01-11 11:48:02.77	160.07	33.11	-44.2	-45.5	15.8	0.00e+00	0	23	0	1431306240	54	4197
2026-01-11 11:48:03.78	160.11	33.32	-44.2	-45.4	15.8	0.00e+00	0	23	0	1437597696	54	4157
2026-01-11 11:48:04.79	160.15	33.54	-44.2	-45.4	15.7	0.00e+00	0	23	0	1442840576	54	4181
2026-01-11 11:48:05.80	160.19	33.75	-44.0	-45.2	15.8	0.00e+00	0	23	0	1449132032	54	4089
2026-01-11 11:48:06.81	160.23	33.97	-44.0	-45.2	15.8	0.00e+00	0	23	0	1454374912	54	4064
2026-01-11 11:48:07.82	160.27	34.19	-44.0	-45.2	15.8	0.00e+00	0	23	0	1460666368	54	4071
2026-01-11 11:48:08.83	160.31	34.42	-44.0	-45.1	15.9	0.00e+00	0	23	0	1465909248	54	4051
2026-01-11 11:48:09.84	160.35	34.64	-43.9	-45.1	15.9	0.00e+00	0	23	0	1471152128	54	4030
2026-01-11 11:48:10.85	160.39	34.87	-43.9	-45.1	15.9	0.00e+00	0	23	0	1477443584	54	4024
2026-01-11 11:48:11.85	160.44	35.09	-43.9	-45.1	15.9	0.00e+00	0	23	0	1482686464	54	4028
2026-01-11 11:48:12.86	160.48	35.32	-43.7	-44.9	16.0	0.00e+00	0	23	0	1488977920	54	3937
2026-01-11 11:48:13.87	160.53	35.55	-43.7	-44.8	15.8	0.00e+00	0	23	0	1494220800	53	4136
2026-01-11 11:48:14.88	160.57	35.78	-43.4	-44.6	15.9	0.00e+00	0	23	0	1499463680	53	4027
2026-01-11 11:48:15.88	160.61	36.01	-43.5	-44.6	15.9	0.00e+00	0	23	0	1505755136	53	4047
2026-01-11 11:48:16.89	160.66	36.25	-43.6	-44.7	15.9	0.00e+00	0	23	0	1510998016	53	4079
2026-01-11 11:48:17.90	160.71	36.49	-43.6	-44.7	15.9	0.00e+00	0	23	0	1516240896	53	4081
2026-01-11 11:48:18.90	160.75	36.72	-43.6	-44.8	15.9	0.00e+00	0	23	0	1522532352	53	4103
2026-01-11 11:48:19.91	160.80	36.96	-43.6	-44.8	15.8	0.00e+00	0	23	0	1527775232	53	4123
2026-01-11 11:48:20.92	160.85	37.20	-43.7	-44.8	15.8	0.00e+00	0	23	0	1534066688	53	4143
2026-01-11 11:48:21.93	160.90	37.45	-43.7	-44.8	15.9	0.00e+00	0	23	0	1539309568	53	4106
2026-01-11 11:48:22.94	160.95	37.69	-43.8	-44.8	15.8	0.00e+00	0	23	0	1545601024	53	4134
2026-01-11 11:48:23.95	161.00	37.94	-43.8	-44.9	15.8	0.00e+00	0	23	0	1550843904	53	4160
2026-01-11 11:48:24.96	161.05	38.19	-43.9	-45.0	15.8	0.00e+00	0	23	0	1557135360	53	4195
2026-01-11 11:48:25.97	161.10	38.44	-43.9	-44.9	15.8	0.00e+00	0	23	0	1562378240	53	4193
2026-01-11 11:48:26.97	161.15	38.69	-43.9	-45.0	15.8	0.00e+00	0	23	0	1567621120	53	4202
2026-01-11 11:48:27.99	161.21	38.95	-43.9	-44.9	15.8	0.00e+00	0	23	0	1573912576	53	4185
2026-01-11 11:48:28.99	161.26	39.20	-44.0	-45.0	15.8	0.00e+00	0	23	0	1579155456	53	4238
2026-01-11 11:48:30.00	161.32	39.46	-44.0	-45.1	15.8	0.00e+00	0	23	0	1584398336	53	4245
2026-01-11 11:48:31.00	161.37	39.72	-44.1	-45.2	15.8	0.00e+00	0	23	0	1590689792	53	4298
2026-01-11 11:48:32.01	161.43	39.98	-44.2	-45.2	15.7	0.00e+00	0	23	0	1595932672	53	4338
2026-01-11 11:48:33.02	161.49	40.25	-44.2	-45.2	15.8	0.00e+00	0	23	0	1602224128	53	4323
2026-01-11 11:48:34.03	161.55	40.51	-44.3	-45.4	15.7	0.00e+00	0	23	0	1607467008	53	4411
2026-01-11 11:48:35.04	161.60	40.78	-44.5	-45.6	15.8	0.00e+00	0	23	0	1612709888	54	4250
2026-01-11 11:48:36.04	161.66	41.05	-44.6	-45.6	15.7	0.00e+00	0	23	0	1619001344	54	4289
2026-01-11 11:48:37.05	161.73	41.32	-44.5	-45.6	15.7	0.00e+00	0	23	0	1624244224	54	4245
2026-01-11 11:48:38.06	161.79	41.60	-44.7	-45.7	15.7	0.00e+00	0	23	0	1630535680	54	4330
2026-01-11 11:48:39.07	161.85	41.87	-44.4	-45.5	15.8	0.00e+00	0	23	0	1635778560	54	4206
2026-01-11 11:48:40.08	161.92	42.15	-44.5	-45.5	15.8	0.00e+00	0	23	0	1642070016	54	4222
2026-01-11 11:48:41.09	161.98	42.43	-44.5	-45.5	15.7	0.00e+00	0	23	0	1647312896	54	4239
2026-01-11 11:48:42.09	162.05	42.71	-44.6	-45.6	15.7	0.00e+00	0	23	0	1652555776	54	4285
2026-01-11 11:48:43.10	162.11	43.00	-44.3	-45.3	15.8	0.00e+00	0	23	0	1658847232	54	4141
2026-01-11 11:48:44.11	162.18	43.29	-44.3	-45.4	15.8	0.00e+00	0	23	0	1664090112	54	4151
2026-01-11 11:48:45.11	162.25	43.57	-44.3	-45.4	15.8	0.00e+00	0	23	0	1670381568	54	4153
2026-01-11 11:48:46.12	162.32	43.86	-44.5	-45.5	15.7	0.00e+00	0	23	0	1675624448	54	4234
2026-01-11 11:48:47.13	162.39	44.16	-44.5	-45.5	15.7	0.00e+00	0	23	0	1680867328	54	4232
2026-01-11 11:48:48.13	162.47	44.45	-44.5	-45.6	15.7	0.00e+00	0	23	0	1687158784	54	4249
2026-01-11 11:48:49.14	162.54	44.75	-44.4	-45.5	15.8	0.00e+00	0	23	0	1692401664	54	4208
2026-01-11 11:48:50.15	162.62	45.05	-44.5	-45.6	15.7	0.00e+00	0	23	0	1697644544	54	4245
2026-01-11 11:48:51.16	162.70	45.35	-44.4	-45.5	15.8	0.00e+00	0	23	0	1703936000	54	4220
2026-01-11 11:48:52.17	162.77	45.65	-44.2	-45.3	15.8	0.00e+00	0	23	0	1709178880	54	4132
2026-01-11 11:48:53.18	162.86	45.96	-44.3	-45.4	15.8	0.00e+00	0	23	0	1715470336	54	4178
2026-01-11 11:48:54.19	162.94	46.27	-44.6	-45.6	15.7	0.00e+00	0	23	0	1720713216	54	4285
2026-01-11 11:48:55.19	163.02	46.58	-44.6	-45.7	15.7	0.00e+00	0	23	0	1727004672	54	4299
2026-01-11 11:48:56.20	163.10	46.89	-44.5	-45.6	15.7	0.00e+00	0	23	0	1732247552	54	4270
2026-01-11 11:48:57.21	163.19	47.20	-44.4	-45.5	15.8	0.00e+00	0	23	0	1738539008	54	4214
2026-01-11 11:48:58.22	163.28	47.52	-44.3	-45.3	15.8	0.00e+00	0	23	0	1743781888	54	4139
2026-01-11 11:48:59.23	163.37	47.84	-44.3	-45.4	15.8	0.00e+00	0	23	0	1749024768	54	4158
2026-01-11 11:49:00.23	163.46	48.16	-44.4	-45.5	15.8	0.00e+00	0	23	0	1755316224	54	4195
2026-01-11 11:49:01.24	163.55	48.49	-44.4	-45.4	15.8	0.00e+00	0	23	0	1760559104	54	4191
2026-01-11 11:49:02.25	163.65	48.81	-44.1	-45.1	15.8	0.00e+00	0	23	0	1765801984	54	4041
2026-01-11 11:49:03.26	163.75	49.14	-44.1	-45.1	15.8	0.00e+00	0	23	0	1772093440	54	4017
2026-01-11 11:49:04.27	163.85	49.48	-44.4	-45.4	15.8	0.00e+00	0	23	0	1777336320	54	4176
2026-01-11 11:49:05.27	163.95	49.81	-44.7	-45.8	15.7	0.00e+00	0	23	0	1783627776	54	4378
2026-01-11 11:49:06.28	164.05	50.14	-44.9	-46.0	15.7	0.00e+00	0	23	0	1788870656	55	4218
2026-01-11 11:49:07.29	164.16	50.48	-44.8	-45.8	15.8	0.00e+00	0	23	0	1794113536	55	4127
2026-01-11 11:49:08.30	164.27	50.83	-44.7	-45.7	15.8	0.00e+00	0	23	0	1800404992	55	4078
2026-01-11 11:49:09.31	164.38	51.17	-44.8	-45.8	15.7	0.00e+00	0	23	0	1805647872	55	4141
2026-01-11 11:49:10.32	164.49	51.52	-45.2	-46.3	15.6	0.00e+00	0	23	0	1811939328	55	4366
2026-01-11 11:49:11.33	164.61	51.86	-45.4	-46.5	15.6	0.00e+00	0	23	0	1817182208	55	4475
2026-01-11 11:49:12.34	164.73	52.22	-45.6	-46.7	15.6	0.00e+00	0	23	0	1823473664	56	4326
2026-01-11 11:49:13.35	164.85	52.57	-45.8	-46.9	15.6	0.00e+00	0	23	0	1828716544	56	4409
2026-01-11 11:49:14.36	164.97	52.93	-45.8	-47.0	15.6	0.00e+00	0	23	0	1835008000	56	4444
2026-01-11 11:49:15.37	165.10	53.28	-45.9	-47.0	15.5	0.00e+00	0	23	0	1840250880	56	4481
2026-01-11 11:49:16.38	165.23	53.65	-45.9	-47.1	15.6	0.00e+00	0	23	0	1845493760	57	4252
2026-01-11 11:49:17.38	165.36	54.01	-45.8	-47.0	15.6	0.00e+00	0	23	0	1851785216	57	4202
2026-01-11 11:49:18.38	165.50	54.37	-45.8	-46.9	15.6	0.00e+00	0	23	0	1857028096	57	4166
2026-01-11 11:49:19.39	165.64	54.74	-45.8	-46.9	15.6	0.00e+00	0	23	0	1862270976	57	4190
2026-01-11 11:49:20.40	165.78	55.11	-45.7	-46.8	15.7	0.00e+00	0	23	0	1868562432	57	4140
2026-01-11 11:49:21.40	165.93	55.48	-45.8	-46.9	15.7	0.00e+00	0	23	0	1873805312	57	4153
2026-01-11 11:49:22.41	166.08	55.85	-45.7	-46.8	15.7	0.00e+00	0	23	0	1880096768	57	4133
2026-01-11 11:49:23.42	166.23	56.23	-45.7	-46.8	15.7	0.00e+00	0	23	0	1885339648	57	4108
2026-01-11 11:49:24.43	166.39	56.61	-45.6	-46.7	15.8	0.00e+00	0	23	0	1890582528	57	4063
2026-01-11 11:49:25.43	166.55	56.99	-45.6	-46.7	15.7	0.00e+00	0	23	0	1896873984	57	4052
2026-01-11 11:49:26.44	166.72	57.37	-45.3	-46.3	15.9	0.00e+00	0	23	0	1902116864	57	3907
2026-01-11 11:49:27.45	166.90	57.76	-45.0	-46.1	15.8	0.00e+00	0	23	0	1908408320	56	4020
2026-01-11 11:49:28.46	167.07	58.15	-45.1	-46.2	15.8	0.00e+00	0	23	0	1913651200	56	4061
2026-01-11 11:49:29.47	167.26	58.54	-44.9	-46.0	15.8	0.00e+00	0	23	0	1919942656	56	3986
2026-01-11 11:49:30.48	167.45	58.94	-44.9	-46.0	15.8	0.00e+00	0	23	0	1925185536	56	3987
2026-01-11 11:49:31.48	167.64	59.33	-44.8	-45.8	15.9	0.00e+00	0	23	0	1930428416	56	3898
2026-01-11 11:49:32.49	167.84	59.73	-44.3	-45.4	15.9	0.00e+00	0	23	0	1936719872	55	3928
2026-01-11 11:49:33.50	168.04	60.13	-44.5	-45.5	15.9	0.00e+00	0	23	0	1941962752	55	3998
2026-01-11 11:49:34.51	168.26	60.54	-44.3	-45.3	15.9	0.00e+00	0	23	0	1948254208	55	3890
2026-01-11 11:49:35.52	168.48	60.94	-44.1	-45.1	15.8	0.00e+00	0	23	0	1953497088	54	4014
2026-01-11 11:49:36.53	168.70	61.35	-44.3	-45.4	15.8	0.00e+00	0	23	0	1958739968	54	4176
2026-01-11 11:49:37.53	168.93	61.75	-44.7	-45.8	15.7	0.00e+00	0	23	0	1965031424	54	4381
2026-01-11 11:49:38.54	169.18	62.17	-44.7	-45.8	15.7	0.00e+00	0	23	0	1970274304	54	4355
2026-01-11 11:49:39.55	169.43	62.58	-44.4	-45.5	15.7	0.00e+00	0	23	0	1975517184	54	4203
2026-01-11 11:49:40.56	169.68	63.00	-44.1	-45.2	15.8	0.00e+00	0	23	0	1981808640	54	4067
2026-01-11 11:49:41.57	169.95	63.42	-43.9	-44.9	15.9	0.00e+00	0	23	0	1987051520	54	3924
2026-01-11 11:49:42.57	170.23	63.83	-43.6	-44.6	15.9	0.00e+00	0	23	0	1993342976	53	4026
2026-01-11 11:49:43.58	170.51	64.25	-43.6	-44.6	15.9	0.00e+00	0	23	0	1998585856	53	4031
2026-01-11 11:49:44.59	170.81	64.68	-43.4	-44.4	16.0	0.00e+00	0	23	0	2004877312	53	3943
2026-01-11 11:49:45.60	171.12	65.10	-43.4	-44.5	15.9	0.00e+00	0	23	0	2010120192	53	3959
2026-01-11 11:49:46.61	171.44	65.53	-43.7	-44.7	15.9	0.00e+00	0	23	0	2016411648	53	4077
2026-01-11 11:49:47.62	171.77	65.96	-43.8	-44.8	15.9	0.00e+00	0	23	0	2021654528	53	4137
2026-01-11 11:49:48.63	172.12	66.39	-43.9	-45.0	15.8	0.00e+00	0	23	0	2026897408	53	4211
2026-01-11 11:49:49.64	172.48	66.82	-43.9	-45.0	15.8	0.00e+00	0	23	0	2033188864	53	4206
2026-01-11 11:49:50.64	172.85	67.25	-43.9	-44.9	15.8	0.00e+00	0	23	0	2038431744	53	4190
2026-01-11 11:49:51.65	173.24	67.69	-43.6	-44.6	15.9	0.00e+00	0	23	0	2043674624	53	4051
2026-01-11 11:49:52.66	173.65	68.12	-43.3	-44.3	16.0	0.00e+00	0	23	0	2049966080	53	3910
2026-01-11 11:49:53.67	174.07	68.56	-43.5	-44.5	15.9	0.00e+00	0	23	0	2055208960	53	3979
2026-01-11 11:49:54.68	174.52	69.00	-43.5	-44.5	15.9	0.00e+00	0	23	0	2061500416	53	4002
2026-01-11 11:49:55.69	174.98	69.44	-43.4	-44.4	15.9	0.00e+00	0	23	0	2066743296	53	3928
2026-01-11 11:49:56.70	175.47	69.88	-43.5	-44.5	15.9	0.00e+00	0	23	0	2071986176	53	4003
2026-01-11 11:49:57.70	175.97	70.31	-43.2	-44.2	16.0	0.00e+00	0	23	0	2078277632	53	3866
2026-01-11 11:49:58.72	176.51	70.76	-43.3	-44.3	16.0	0.00e+00	0	23	0	2083520512	53	3885
2026-01-11 11:49:59.73	177.07	71.20	-43.4	-44.5	16.0	0.00e+00	0	23	0	2089811968	53	3960
2026-01-11 11:50:00.73	177.66	71.64	-43.2	-44.2	16.0	0.00e+00	0	23	0	2095054848	53	3836
2026-01-11 11:50:01.74	178.28	72.08	-43.0	-44.0	15.9	0.00e+00	0	23	0	2101346304	52	3983
2026-01-11 11:50:02.75	178.93	72.52	-43.0	-44.0	15.9	0.00e+00	0	23	0	2106589184	52	3967
2026-01-11 11:50:03.75	179.61	72.95	-43.1	-44.1	15.9	0.00e+00	0	23	0	2112880640	52	4030
2026-01-11 11:50:04.76	180.33	73.39	-42.9	-43.9	16.0	0.00e+00	0	23	0	2118123520	52	3931
2026-01-11 11:50:05.77	181.10	73.83	-42.7	-43.7	16.0	0.00e+00	0	23	0	2123366400	52	3828
2026-01-11 11:50:06.78	181.91	74.27	-42.7	-43.7	15.9	0.00e+00	0	23	0	2129657856	51	4075
2026-01-11 11:50:07.79	182.77	74.70	-42.7	-43.7	15.9	0.00e+00	0	23	0	2134900736	51	4092
2026-01-11 11:50:08.80	183.68	75.14	-42.6	-43.6	15.9	0.00e+00	0	23	0	2140143616	51	4049
2026-01-11 11:50:09.80	184.64	75.57	-42.5	-43.4	16.0	0.00e+00	0	23	0	2146435072	51	3958
2026-01-11 11:50:10.81	185.66	75.99	-42.5	-43.5	15.9	0.00e+00	0	23	0	2151677952	51	3991
2026-01-11 11:50:11.82	186.76	76.42	-42.5	-43.5	16.0	0.00e+00	0	23	0	2157969408	51	3965
2026-01-11 11:50:12.83	187.93	76.84	-42.3	-43.3	16.0	0.00e+00	0	23	0	2163212288	51	3898
2026-01-11 11:50:13.84	189.17	77.26	-42.3	-43.3	16.0	0.00e+00	0	23	0	2168455168	51	3897
2026-01-11 11:50:14.85	190.50	77.67	-42.3	-43.2	16.0	0.00e+00	0	23	0	2174746624	51	3857
2026-01-11 11:50:15.85	191.91	78.07	-42.0	-42.9	15.9	0.00e+00	0	23	0	2179989504	50	3956
2026-01-11 11:50:16.86	193.44	78.47	-41.9	-42.9	16.0	0.00e+00	0	23	0	2186280960	50	3924
2026-01-11 11:50:17.87	195.08	78.86	-42.1	-43.1	16.0	0.00e+00	0	23	0	2191523840	50	4017
2026-01-11 11:50:18.88	196.83	79.25	-41.8	-42.8	16.0	0.00e+00	0	23	0	2197815296	50	3896
2026-01-11 11:50:19.89	198.72	79.62	-41.7	-42.7	16.0	0.00e+00	0	23	0	2203058176	50	3853
2026-01-11 11:50:20.89	200.73	79.98	-41.5	-42.5	16.0	0.00e+00	0	23	0	2208301056	49	3961
2026-01-11 11:50:21.90	202.90	80.33	-41.5	-42.5	16.0	0.00e+00	0	23	0	2214592512	49	3981
2026-01-11 11:50:22.91	205.24	80.66	-41.9	-42.9	16.0	0.00e+00	0	23	0	2219835392	49	4171
2026-01-11 11:50:23.92	207.76	80.98	-41.8	-42.9	16.0	0.00e+00	0	23	0	2226126848	49	4146
2026-01-11 11:50:24.93	210.45	81.28	-42.0	-43.0	15.9	0.00e+00	0	23	0	2231369728	49	4196
2026-01-11 11:50:25.93	213.30	81.56	-41.8	-42.8	15.9	0.00e+00	0	23	0	2236612608	49	4104
2026-01-11 11:50:26.94	216.38	81.82	-41.6	-42.6	15.9	0.00e+00	0	23	0	2242904064	49	4038
2026-01-11 11:50:27.94	219.61	82.06	-41.9	-42.9	15.9	0.00e+00	0	23	0	2248146944	49	4155
2026-01-11 11:50:28.95	223.07	82.27	-41.8	-42.8	16.0	0.00e+00	0	23	0	2253389824	49	4125
2026-01-11 11:50:29.96	226.70	82.45	-41.7	-42.7	16.0	0.00e+00	0	23	0	2259681280	49	4075
2026-01-11 11:50:30.96	230.46	82.59	-41.9	-42.9	16.0	0.00e+00	0	23	0	2264924160	49	4187
2026-01-11 11:50:31.97	234.40	82.71	-41.9	-42.9	15.9	0.00e+00	0	23	0	2271215616	49	4152
2026-01-11 11:50:32.98	238.44	82.79	-42.0	-43.0	16.0	0.00e+00	0	23	0	2276458496	49	4209
2026-01-11 11:50:33.99	242.55	82.83	-42.0	-43.0	15.9	0.00e+00	0	23	0	2282749952	49	4213
2026-01-11 11:50:35.00	246.70	82.84	-41.9	-42.8	15.9	0.00e+00	0	23	0	2287992832	49	4142
2026-01-11 11:50:36.01	250.83	82.81	-41.7	-42.7	15.9	0.00e+00	0	23	0	2294284288	49	4055
2026-01-11 11:50:37.01	254.86	82.74	-41.8	-42.8	15.9	0.00e+00	0	23	0	2299527168	49	4118
2026-01-11 11:50:38.02	258.85	82.64	-41.7	-42.6	16.0	0.00e+00	0	23	0	2304770048	49	4046
2026-01-11 11:50:39.03	262.70	82.51	-41.6	-42.5	15.9	0.00e+00	0	23	0	2311061504	49	3989
2026-01-11 11:50:40.04	266.40	82.34	-41.6	-42.5	16.0	0.00e+00	0	23	0	2316304384	49	4003
2026-01-11 11:50:41.05	269.93	82.14	-41.7	-42.7	16.0	0.00e+00	0	23	0	2321547264	49	4063
2026-01-11 11:50:42.06	273.27	81.92	-41.6	-42.5	16.0	0.00e+00	0	23	0	2327838720	49	4001
2026-01-11 11:50:43.07	276.42	81.67	-41.5	-42.5	16.0	0.00e+00	0	23	0	2333081600	49	3994
2026-01-11 11:50:44.07	279.35	81.40	-41.5	-42.5	16.0	0.00e+00	0	23	0	2339373056	49	3960
2026-01-11 11:50:45.08	282.11	81.10	-41.5	-42.4	16.0	0.00e+00	0	23	0	2344615936	49	3945
2026-01-11 11:50:46.09	284.69	80.79	-41.8	-42.8	16.0	0.00e+00	0	23	0	2349858816	49	4101
2026-01-11 11:50:47.10	287.10	80.46	-41.7	-42.7	15.9	0.00e+00	0	23	0	2356150272	49	4054
2026-01-11 11:50:48.11	289.34	80.12	-41.9	-42.8	15.9	0.00e+00	0	23	0	2361393152	49	4139
2026-01-11 11:50:49.12	291.42	79.76	-42.3	-43.3	15.9	0.00e+00	0	23	0	2367684608	49	4354
2026-01-11 11:50:50.13	293.36	79.39	-42.1	-43.1	15.9	0.00e+00	0	23	0	2372927488	49	4263
2026-01-11 11:50:51.13	295.14	79.01	-42.3	-43.3	15.9	0.00e+00	0	23	0	2379218944	49	4362
2026-01-11 11:50:52.14	296.82	78.63	-42.5	-43.6	15.9	0.00e+00	0	23	0	2384461824	50	4253
2026-01-11 11:50:53.15	298.39	78.23	-42.6	-43.6	15.9	0.00e+00	0	23	0	2389704704	50	4280
2026-01-11 11:50:54.16	299.85	77.83	-42.5	-43.5	15.9	0.00e+00	0	23	0	2395996160	50	4210
2026-01-11 11:50:55.17	301.22	77.42	-42.6	-43.6	15.9	0.00e+00	0	23	0	2401239040	50	4268
2026-01-11 11:50:56.18	302.50	77.00	-42.5	-43.5	15.9	0.00e+00	0	23	0	2407530496	50	4196
2026-01-11 11:50:57.19	303.69	76.58	-42.6	-43.6	15.9	0.00e+00	0	23	0	2412773376	50	4288
2026-01-11 11:50:58.19	304.80	76.16	-42.8	-43.8	15.9	0.00e+00	0	23	0	2418016256	50	4385
2026-01-11 11:50:59.21	305.86	75.73	-42.9	-43.9	15.9	0.00e+00	0	23	0	2424307712	51	4172
2026-01-11 11:51:00.22	306.85	75.30	-42.8	-43.8	15.9	0.00e+00	0	23	0	2429550592	51	4139
2026-01-11 11:51:01.23	307.78	74.87	-43.0	-44.0	15.9	0.00e+00	0	23	0	2435842048	51	4232
2026-01-11 11:51:02.24	308.66	74.44	-43.3	-44.4	15.9	0.00e+00	0	23	0	2441084928	51	4397
2026-01-11 11:51:03.24	309.48	74.00	-43.3	-44.3	15.9	0.00e+00	0	23	0	2446327808	51	4364
2026-01-11 11:51:04.24	310.25	73.57	-43.2	-44.2	15.9	0.00e+00	0	23	0	2452619264	51	4324
2026-01-11 11:51:05.25	311.00	73.13	-43.4	-44.4	15.9	0.00e+00	0	23	0	2457862144	52	4189
2026-01-11 11:51:06.26	311.70	72.69	-43.3	-44.3	15.9	0.00e+00	0	23	0	2464153600	52	4129
2026-01-11 11:51:07.27	312.36	72.25	-43.2	-44.2	15.9	0.00e+00	0	23	0	2469396480	52	4091
2026-01-11 11:51:08.28	312.99	71.81	-43.2	-44.2	15.9	0.00e+00	0	23	0	2475687936	52	4097
2026-01-11 11:51:09.29	313.59	71.37	-43.4	-44.4	15.9	0.00e+00	0	23	0	2480930816	52	4179
2026-01-11 11:51:10.30	314.16	70.93	-43.2	-44.2	15.9	0.00e+00	0	23	0	2486173696	52	4095
2026-01-11 11:51:11.31	314.71	70.49	-43.2	-44.2	15.9	0.00e+00	0	23	0	2492465152	52	4053
2026-01-11 11:51:12.32	315.23	70.05	-43.4	-44.4	15.9	0.00e+00	0	23	0	2497708032	52	4174
2026-01-11 11:51:13.33	315.72	69.61	-43.4	-44.5	15.8	0.00e+00	0	23	0	2503999488	52	4204
2026-01-11 11:51:14.34	316.19	69.17	-43.5	-44.5	15.8	0.00e+00	0	23	0	2509242368	52	4226
2026-01-11 11:51:15.36	316.65	68.73	-43.8	-44.8	15.8	0.00e+00	0	23	0	2515533824	52	4384
2026-01-11 11:51:16.37	317.08	68.29	-43.8	-44.8	15.8	0.00e+00	0	23	0	2520776704	52	4382
2026-01-11 11:51:17.37	317.49	67.86	-43.4	-44.5	15.8	0.00e+00	0	23	0	2526019584	52	4194
2026-01-11 11:51:18.38	317.89	67.43	-43.4	-44.4	15.8	0.00e+00	0	23	0	2532311040	52	4154
2026-01-11 11:51:19.39	318.27	66.99	-43.6	-44.6	15.8	0.00e+00	0	23	0	2537553920	52	4255
2026-01-11 11:51:20.40	318.63	66.56	-43.6	-44.7	15.8	0.00e+00	0	23	0	2542796800	52	4301
2026-01-11 11:51:21.40	318.98	66.14	-43.7	-44.8	15.8	0.00e+00	0	23	0	2549088256	52	4343
2026-01-11 11:51:22.41	319.32	65.71	-43.3	-44.3	15.8	0.00e+00	0	23	0	2554331136	52	4134
2026-01-11 11:51:23.42	319.64	65.28	-43.5	-44.5	15.9	0.00e+00	0	23	0	2560622592	52	4238
2026-01-11 11:51:24.43	319.96	64.85	-43.7	-44.8	15.8	0.00e+00	0	23	0	2565865472	52	4361
2026-01-11 11:51:25.44	320.26	64.43	-43.9	-45.0	15.8	0.00e+00	0	23	0	2572156928	53	4204
2026-01-11 11:51:26.45	320.55	64.01	-44.0	-45.0	15.8	0.00e+00	0	23	0	2577399808	53	4242
2026-01-11 11:51:27.46	320.83	63.59	-44.0	-45.0	15.8	0.00e+00	0	23	0	2583691264	53	4217
2026-01-11 11:51:28.47	321.10	63.17	-44.0	-45.0	15.8	0.00e+00	0	23	0	2588934144	53	4238
2026-01-11 11:51:29.48	321.36	62.75	-44.2	-45.3	15.8	0.00e+00	0	23	0	2594177024	53	4368
2026-01-11 11:51:30.49	321.61	62.34	-44.4	-45.5	15.7	0.00e+00	0	23	0	2600468480	53	4445
2026-01-11 11:51:31.50	321.86	61.93	-44.2	-45.3	15.8	0.00e+00	0	23	0	2605711360	53	4346
2026-01-11 11:51:32.51	322.10	61.52	-44.1	-45.2	15.8	0.00e+00	0	23	0	2612002816	53	4299
2026-01-11 11:51:33.51	322.32	61.11	-44.3	-45.3	15.7	0.00e+00	0	23	0	2617245696	53	4382
2026-01-11 11:51:34.52	322.54	60.71	-44.4	-45.4	15.7	0.00e+00	0	23	0	2622488576	53	4426
2026-01-11 11:51:35.53	322.76	60.30	-44.2	-45.2	15.8	0.00e+00	0	23	0	2628780032	53	4325
2026-01-11 11:51:36.54	322.97	59.90	-44.1	-45.1	15.8	0.00e+00	0	23	0	2634022912	53	4253
2026-01-11 11:51:37.55	323.17	59.50	-44.3	-45.3	15.8	0.00e+00	0	23	0	2639265792	53	4369
2026-01-11 11:51:38.56	323.37	59.11	-44.5	-45.5	15.8	0.00e+00	0	23	0	2645557248	54	4226
2026-01-11 11:51:39.57	323.56	58.71	-44.7	-45.8	15.7	0.00e+00	0	23	0	2650800128	54	4368
2026-01-11 11:51:40.57	323.74	58.32	-44.9	-46.0	15.7	0.00e+00	0	23	0	2657091584	55	4227
2026-01-11 11:51:41.58	323.92	57.93	-45.1	-46.2	15.7	0.00e+00	0	23	0	2662334464	55	4299
2026-01-11 11:51:42.59	324.10	57.55	-45.2	-46.2	15.7	0.00e+00	0	23	0	2668625920	55	4340
2026-01-11 11:51:43.59	324.26	57.17	-44.9	-45.9	15.8	0.00e+00	0	23	0	2673868800	55	4193
2026-01-11 11:51:44.60	324.43	56.78	-44.9	-45.9	15.7	0.00e+00	0	23	0	2679111680	55	4159
2026-01-11 11:51:45.60	324.59	56.41	-45.0	-46.0	15.7	0.00e+00	0	23	0	2685403136	55	4217
2026-01-11 11:51:46.61	324.75	56.03	-45.4	-46.5	15.6	0.00e+00	0	23	0	2690646016	55	4448
2026-01-11 11:51:47.62	324.90	55.65	-45.6	-46.7	15.7	0.00e+00	0	23	0	2696937472	56	4302
2026-01-11 11:51:48.62	325.05	55.28	-45.5	-46.6	15.7	0.00e+00	0	23	0	2702180352	56	4256
2026-01-11 11:51:49.63	325.19	54.91	-45.6	-46.6	15.7	0.00e+00	0	23	0	2707423232	56	4284
2026-01-11 11:51:50.64	325.33	54.54	-45.3	-46.4	15.7	0.00e+00	0	23	0	2713714688	56	4160
2026-01-11 11:51:51.64	325.47	54.18	-45.3	-46.4	15.7	0.00e+00	0	23	0	2718957568	56	4185
2026-01-11 11:51:52.65	325.61	53.82	-45.5	-46.6	15.7	0.00e+00	0	23	0	2724200448	56	4263
2026-01-11 11:51:53.66	325.74	53.46	-45.5	-46.6	15.7	0.00e+00	0	23	0	2730491904	56	4274
2026-01-11 11:51:54.67	325.87	53.10	-45.6	-46.7	15.7	0.00e+00	0	23	0	2735734784	56	4297
2026-01-11 11:51:55.67	325.99	52.74	-45.6	-46.7	15.7	0.00e+00	0	23	0	2742026240	56	4302
2026-01-11 11:51:56.68	326.11	52.39	-45.7	-46.8	15.6	0.00e+00	0	23	0	2747269120	56	4362
2026-01-11 11:51:57.69	326.23	52.04	-45.7	-46.7	15.6	0.00e+00	0	23	0	2753560576	56	4340
2026-01-11 11:51:58.70	326.35	51.69	-45.6	-46.7	15.7	0.00e+00	0	23	0	2758803456	56	4309
2026-01-11 11:51:59.71	326.46	51.34	-45.4	-46.4	15.7	0.00e+00	0	23	0	2765094912	56	4190
2026-01-11 11:52:00.72	326.58	51.00	-45.3	-46.4	15.7	0.00e+00	0	23	0	2770337792	56	4161
2026-01-11 11:52:01.72	326.68	50.66	-45.1	-46.2	15.8	0.00e+00	0	23	0	2775580672	56	4068
2026-01-11 11:52:02.73	326.79	50.32	-44.7	-45.8	15.9	0.00e+00	0	23	0	2781872128	56	3882
2026-01-11 11:52:03.74	326.90	49.98	-44.9	-45.9	15.9	0.00e+00	0	23	0	2787115008	56	3951
2026-01-11 11:52:04.75	327.00	49.65	-45.0	-46.1	15.8	0.00e+00	0	23	0	2792357888	56	4025
2026-01-11 11:52:05.76	327.10	49.32	-45.0	-46.1	15.8	0.00e+00	0	23	0	2798649344	56	4016
2026-01-11 11:52:06.77	327.20	48.99	-44.9	-46.0	15.8	0.00e+00	0	23	0	2803892224	56	3966
2026-01-11 11:52:07.77	327.29	48.66	-44.9	-46.0	15.8	0.00e+00	0	23	0	2810183680	56	3972
2026-01-11 11:52:08.78	327.39	48.34	-44.9	-45.9	15.9	0.00e+00	0	23	0	2815426560	56	3949
2026-01-11 11:52:09.79	327.48	48.02	-44.5	-45.5	15.9	0.00e+00	0	23	0	2820669440	55	3983
2026-01-11 11:52:10.79	327.57	47.70	-44.4	-45.4	15.9	0.00e+00	0	23	0	2826960896	55	3951
2026-01-11 11:52:11.80	327.66	47.38	-44.3	-45.3	15.9	0.00e+00	0	23	0	2832203776	55	3894
2026-01-11 11:52:12.82	327.75	47.06	-44.3	-45.3	15.9	0.00e+00	0	23	0	2838495232	55	3904
2026-01-11 11:52:13.82	327.83	46.75	-44.2	-45.2	16.0	0.00e+00	0	23	0	2843738112	55	3852
2026-01-11 11:52:14.82	327.92	46.44	-44.3	-45.3	15.9	0.00e+00	0	23	0	2850029568	55	3904
2026-01-11 11:52:15.83	328.00	46.13	-44.3	-45.3	15.9	0.00e+00	0	23	0	2855272448	55	3912
2026-01-11 11:52:16.84	328.08	45.83	-44.2	-45.2	16.0	0.00e+00	0	23	0	2860515328	55	3864
2026-01-11 11:52:17.85	328.16	45.52	-44.2	-45.2	16.0	0.00e+00	0	23	0	2866806784	55	3845
2026-01-11 11:52:18.86	328.24	45.22	-44.2	-45.3	15.8	0.00e+00	0	23	0	2872049664	54	4110
2026-01-11 11:52:19.87	328.31	44.92	-44.2	-45.2	15.8	0.00e+00	0	23	0	2878341120	54	4076
2026-01-11 11:52:20.88	328.39	44.62	-44.1	-45.1	15.9	0.00e+00	0	23	0	2883584000	54	4046
2026-01-11 11:52:21.89	328.46	44.33	-44.1	-45.1	15.9	0.00e+00	0	23	0	2888826880	54	4045
2026-01-11 11:52:22.90	328.54	44.03	-44.0	-45.0	15.9	0.00e+00	0	23	0	2895118336	54	3988
2026-01-11 11:52:23.90	328.61	43.75	-44.0	-45.0	15.9	0.00e+00	0	23	0	2900361216	54	3976
2026-01-11 11:52:24.91	328.68	43.46	-44.0	-45.0	15.9	0.00e+00	0	23	0	2906652672	54	4001
2026-01-11 11:52:25.92	328.75	43.17	-44.0	-45.1	15.9	0.00e+00	0	23	0	2911895552	54	4021
2026-01-11 11:52:26.93	328.82	42.88	-44.0	-45.1	15.9	0.00e+00	0	23	0	2917138432	54	4012
2026-01-11 11:52:27.94	328.88	42.60	-44.0	-45.1	15.9	0.00e+00	0	23	0	2923429888	54	4011
2026-01-11 11:52:28.95	328.95	42.32	-44.1	-45.1	15.8	0.00e+00	0	23	0	2928672768	54	4039
2026-01-11 11:52:29.96	329.01	42.04	-44.1	-45.2	15.8	0.00e+00	0	23	0	2934964224	54	4053
2026-01-11 11:52:30.97	329.08	41.77	-44.2	-45.2	15.8	0.00e+00	0	23	0	2940207104	54	4078
2026-01-11 11:52:31.98	329.14	41.49	-44.2	-45.3	15.8	0.00e+00	0	23	0	2946498560	54	4101
2026-01-11 11:52:32.99	329.20	41.22	-44.0	-45.0	15.9	0.00e+00	0	23	0	2951741440	54	3991
2026-01-11 11:52:33.99	329.26	40.95	-43.9	-45.0	15.9	0.00e+00	0	23	0	2956984320	54	3970
2026-01-11 11:52:35.00	329.32	40.68	-43.8	-44.8	15.9	0.00e+00	0	23	0	2963275776	54	3913
2026-01-11 11:52:36.01	329.38	40.42	-43.9	-44.9	15.9	0.00e+00	0	23	0	2968518656	54	3934
2026-01-11 11:52:37.02	329.44	40.15	-43.8	-44.8	16.0	0.00e+00	0	23	0	2974810112	54	3890
2026-01-11 11:52:38.03	329.50	39.89	-43.8	-44.8	15.9	0.00e+00	0	23	0	2980052992	54	3910
2026-01-11 11:52:39.04	329.55	39.63	-43.8	-44.9	15.9	0.00e+00	0	23	0	2985295872	54	3915
2026-01-11 11:52:40.05	329.61	39.37	-43.8	-44.8	16.0	0.00e+00	0	23	0	2991587328	54	3879
2026-01-11 11:52:41.06	329.66	39.11	-43.8	-44.8	15.9	0.00e+00	0	23	0	2996830208	54	3912
2026-01-11 11:52:42.07	329.72	38.86	-43.7	-44.7	16.0	0.00e+00	0	23	0	3003121664	54	3859
2026-01-11 11:52:43.09	329.77	38.60	-43.8	-44.8	15.9	0.00e+00	0	23	0	3008364544	54	3901
2026-01-11 11:52:44.09	329.82	38.35	-43.8	-44.9	15.9	0.00e+00	0	23	0	3013607424	54	3915
2026-01-11 11:52:45.10	329.87	38.10	-43.7	-44.8	16.0	0.00e+00	0	23	0	3019898880	54	3870
2026-01-11 11:52:46.11	329.93	37.86	-43.6	-44.6	15.9	0.00e+00	0	23	0	3025141760	53	4048
2026-01-11 11:52:47.11	329.98	37.61	-43.5	-44.6	15.9	0.00e+00	0	23	0	3031433216	53	4011
2026-01-11 11:52:48.12	330.02	37.37	-43.6	-44.6	15.9	0.00e+00	0	23	0	3036676096	53	4033
2026-01-11 11:52:49.13	330.07	37.13	-43.6	-44.6	15.9	0.00e+00	0	23	0	3042967552	53	4032
2026-01-11 11:52:50.14	330.12	36.89	-43.5	-44.5	15.9	0.00e+00	0	23	0	3048210432	53	4003
2026-01-11 11:52:51.15	330.17	36.65	-43.5	-44.5	15.9	0.00e+00	0	23	0	3054501888	53	3980
2026-01-11 11:52:52.16	330.22	36.41	-43.6	-44.6	15.9	0.00e+00	0	23	0	3059744768	53	4041
2026-01-11 11:52:53.17	330.26	36.17	-43.7	-44.8	15.9	0.00e+00	0	23	0	3064987648	53	4108
2026-01-11 11:52:54.19	330.31	35.94	-43.9	-44.9	15.8	0.00e+00	0	23	0	3071279104	53	4179
2026-01-11 11:52:55.19	330.35	35.71	-43.9	-45.0	15.8	0.00e+00	0	23	0	3076521984	53	4208
2026-01-11 11:52:56.20	330.40	35.48	-44.1	-45.2	15.8	0.00e+00	0	23	0	3081764864	53	4307
2026-01-11 11:52:57.21	330.44	35.25	-44.0	-45.1	15.8	0.00e+00	0	23	0	3088056320	53	4270
2026-01-11 11:52:58.21	330.49	35.02	-44.1	-45.2	15.7	0.00e+00	0	23	0	3093299200	53	4306
2026-01-11 11:52:59.22	330.53	34.80	-44.1	-45.2	15.7	0.00e+00	0	23	0	3099590656	53	4324
2026-01-11 11:53:00.23	330.57	34.58	-44.1	-45.1	15.7	0.00e+00	0	23	0	3104833536	53	4284
2026-01-11 11:53:01.24	330.61	34.35	-44.1	-45.1	15.8	0.00e+00	0	23	0	3110076416	53	4289
2026-01-11 11:53:02.25	330.65	34.13	-43.8	-44.8	15.8	0.00e+00	0	23	0	3116367872	53	4145
2026-01-11 11:53:03.25	330.70	33.92	-43.8	-44.8	15.8	0.00e+00	0	23	0	3121610752	53	4117
2026-01-11 11:53:04.26	330.74	33.70	-43.7	-44.7	15.8	0.00e+00	0	23	0	3127902208	53	4082
2026-01-11 11:53:05.27	330.78	33.48	-43.7	-44.7	15.8	0.00e+00	0	23	0	3133145088	53	4063
2026-01-11 11:53:06.28	330.81	33.27	-43.7	-44.7	15.9	0.00e+00	0	23	0	3139436544	53	4071
2026-01-11 11:53:07.29	330.85	33.05	-43.8	-44.8	15.8	0.00e+00	0	23	0	3144679424	53	4123
2026-01-11 11:53:08.30	330.89	32.84	-43.8	-44.8	15.8	0.00e+00	0	23	0	3149922304	53	4120
2026-01-11 11:53:09.31	330.93	32.63	-43.8	-44.8	15.8	0.00e+00	0	23	0	3156213760	53	4137
2026-01-11 11:53:10.32	330.97	32.42	-43.8	-44.9	15.8	0.00e+00	0	23	0	3161456640	53	4157
2026-01-11 11:53:11.33	331.01	32.22	-43.9	-44.9	15.8	0.00e+00	0	23	0	3167748096	53	4188
2026-01-11 11:53:12.34	331.04	32.01	-43.9	-44.9	15.8	0.00e+00	0	23	0	3172990976	53	4185
2026-01-11 11:53:13.35	331.08	31.81	-44.0	-45.0	15.8	0.00e+00	0	23	0	3178233856	53	4241
2026-01-11 11:53:14.36	331.11	31.60	-44.0	-45.1	15.8	0.00e+00	0	23	0	3184525312	53	4252
2026-01-11 11:53:15.37	331.15	31.40	-44.1	-45.2	15.8	0.00e+00	0	23	0	3189768192	53	4292
2026-01-11 11:53:16.38	331.19	31.20	-44.1	-45.2	15.8	0.00e+00	0	23	0	3196059648	53	4297
2026-01-11 11:53:17.38	331.22	31.00	-44.2	-45.2	15.7	0.00e+00	0	23	0	3201302528	53	4328
2026-01-11 11:53:18.39	331.25	30.81	-44.2	-45.2	15.8	0.00e+00	0	23	0	3206545408	53	4329
2026-01-11 11:53:19.40	331.29	30.61	-44.2	-45.2	15.8	0.00e+00	0	23	0	3212836864	53	4340
2026-01-11 11:53:20.40	331.32	30.42	-44.2	-45.2	15.8	0.00e+00	0	23	0	3218079744	53	4311
2026-01-11 11:53:21.41	331.36	30.22	-44.2	-45.3	15.7	0.00e+00	0	23	0	3224371200	53	4358
2026-01-11 11:53:22.42	331.39	30.03	-44.2	-45.3	15.8	0.00e+00	0	23	0	3229614080	53	4342
2026-01-11 11:53:23.43	331.42	29.84	-44.3	-45.3	15.7	0.00e+00	0	23	0	3235905536	53	4382
2026-01-11 11:53:24.44	331.45	29.65	-44.2	-45.3	15.8	0.00e+00	0	23	0	3241148416	53	4344
2026-01-11 11:53:25.44	331.49	29.46	-44.1	-45.2	15.8	0.00e+00	0	23	0	3246391296	53	4298
2026-01-11 11:53:26.45	331.52	29.28	-44.2	-45.2	15.7	0.00e+00	0	23	0	3252682752	53	4334
2026-01-11 11:53:27.46	331.55	29.09	-44.1	-45.2	15.7	0.00e+00	0	23	0	3257925632	53	4313
2026-01-11 11:53:28.47	331.58	28.91	-44.3	-45.3	15.7	0.00e+00	0	23	0	3264217088	53	4372
2026-01-11 11:53:29.47	331.61	28.72	-44.2	-45.3	15.7	0.00e+00	0	23	0	3269459968	53	4370
2026-01-11 11:53:30.48	331.64	28.54	-44.3	-45.4	15.7	0.00e+00	0	23	0	3274702848	53	4402
2026-01-11 11:53:31.49	331.67	28.36	-44.2	-45.3	15.7	0.00e+00	0	23	0	3280994304	53	4372
2026-01-11 11:53:32.50	331.70	28.18	-44.2	-45.3	15.7	0.00e+00	0	23	0	3286237184	53	4366
2026-01-11 11:53:33.51	331.73	28.00	-44.2	-45.3	15.7	0.00e+00	0	23	0	3292528640	53	4350
2026-01-11 11:53:34.52	331.76	27.82	-44.2	-45.2	15.7	0.00e+00	0	23	0	3297771520	53	4335
2026-01-11 11:53:35.53	331.79	27.65	-44.2	-45.3	15.7	0.00e+00	0	24	0	3303014400	53	4351
2026-01-11 11:53:36.53	331.82	27.47	-44.2	-45.2	15.7	0.00e+00	0	23	0	3309305856	53	4331
2026-01-11 11:53:37.54	331.85	27.30	-44.1	-45.1	15.8	0.00e+00	0	23	0	3314548736	53	4265
2026-01-11 11:53:38.55	331.88	27.12	-44.1	-45.1	15.7	0.00e+00	0	23	0	3320840192	53	4289
2026-01-11 11:53:39.56	331.90	26.95	-44.0	-45.1	15.7	0.00e+00	0	23	0	3326083072	53	4260
2026-01-11 11:53:40.57	331.93	26.78	-44.1	-45.1	15.7	0.00e+00	0	23	0	3332374528	53	4262
2026-01-11 11:53:41.58	331.96	26.61	-44.0	-45.0	15.8	0.00e+00	0	23	0	3337617408	53	4215
2026-01-11 11:53:42.59	331.99	26.44	-43.9	-44.9	15.8	0.00e+00	0	23	0	3342860288	53	4191
2026-01-11 11:53:43.60	332.01	26.27	-44.0	-45.0	15.8	0.00e+00	0	23	0	3349151744	53	4216
2026-01-11 11:53:44.61	332.04	26.11	-44.1	-45.1	15.7	0.00e+00	0	23	0	3354394624	53	4276
2026-01-11 11:53:45.62	332.07	25.94	-44.1	-45.2	15.7	0.00e+00	0	23	0	3360686080	53	4293
2026-01-11 11:53:46.63	332.09	25.78	-44.1	-45.1	15.8	0.00e+00	0	23	0	3365928960	53	4264
2026-01-11 11:53:47.64	332.12	25.61	-44.2	-45.3	15.7	0.00e+00	0	23	0	3371171840	53	4353
2026-01-11 11:53:48.64	332.14	25.45	-44.3	-45.4	15.7	0.00e+00	0	23	0	3377463296	53	4403
2026-01-11 11:53:49.65	332.17	25.29	-44.3	-45.4	15.7	0.00e+00	0	23	0	3382706176	53	4409
2026-01-11 11:53:50.66	332.20	25.13	-44.5	-45.6	15.7	0.00e+00	0	23	0	3388997632	54	4257
2026-01-11 11:53:51.67	332.22	24.97	-44.6	-45.7	15.7	0.00e+00	0	23	0	3394240512	54	4299
2026-01-11 11:53:52.68	332.25	24.81	-44.6	-45.7	15.7	0.00e+00	0	24	0	3399483392	54	4308
2026-01-11 11:53:53.69	332.27	24.65	-44.7	-45.8	15.7	0.00e+00	0	23	0	3405774848	54	4348
2026-01-11 11:53:54.70	332.30	24.49	-44.7	-45.8	15.7	0.00e+00	0	23	0	3411017728	54	4385
2026-01-11 11:53:55.70	332.32	24.34	-44.8	-45.9	15.7	0.00e+00	0	23	0	3417309184	54	4407
2026-01-11 11:53:56.71	332.34	24.18	-44.9	-46.0	15.6	0.00e+00	0	23	0	3422552064	54	4449
2026-01-11 11:53:57.72	332.37	24.03	-44.8	-45.9	15.6	0.00e+00	0	23	0	3428843520	54	4423
2026-01-11 11:53:58.73	332.39	23.88	-44.9	-46.0	15.7	0.00e+00	0	23	0	3434086400	54	4444
2026-01-11 11:53:59.74	332.42	23.72	-44.9	-46.0	15.7	0.00e+00	0	23	0	3439329280	55	4229
2026-01-11 11:54:00.75	332.44	23.57	-44.9	-46.0	15.7	0.00e+00	0	23	0	3445620736	55	4240
2026-01-11 11:54:01.75	332.46	23.42	-44.9	-46.0	15.7	0.00e+00	0	23	0	3450863616	55	4209
2026-01-11 11:54:02.76	332.48	23.27	-44.9	-46.0	15.7	0.00e+00	0	23	0	3457155072	55	4232
2026-01-11 11:54:03.77	332.51	23.12	-44.9	-46.0	15.7	0.00e+00	0	23	0	3462397952	55	4232
2026-01-11 11:54:04.77	332.53	22.98	-44.9	-46.0	15.7	0.00e+00	0	23	0	3467640832	55	4228
2026-01-11 11:54:05.78	332.55	22.83	-44.9	-46.0	15.7	0.00e+00	0	23	0	3473932288	55	4229
2026-01-11 11:54:06.79	332.58	22.68	-44.9	-46.0	15.7	0.00e+00	0	23	0	3479175168	55	4210
2026-01-11 11:54:07.80	332.60	22.54	-44.9	-46.0	15.7	0.00e+00	0	23	0	3484418048	55	4220
2026-01-11 11:54:08.81	332.62	22.39	-44.9	-46.0	15.7	0.00e+00	0	23	0	3490709504	55	4225
2026-01-11 11:54:09.81	332.64	22.25	-45.0	-46.1	15.7	0.00e+00	0	23	0	3495952384	55	4267
2026-01-11 11:54:10.82	332.66	22.11	-45.0	-46.1	15.6	0.00e+00	0	23	0	3502243840	55	4275
2026-01-11 11:54:11.83	332.68	21.97	-45.0	-46.1	15.7	0.00e+00	0	23	0	3507486720	55	4250
2026-01-11 11:54:12.84	332.71	21.82	-45.1	-46.2	15.6	0.00e+00	0	23	0	3512729600	55	4326
2026-01-11 11:54:13.85	332.73	21.68	-45.1	-46.2	15.6	0.00e+00	0	23	0	3519021056	55	4303
2026-01-11 11:54:14.86	332.75	21.54	-45.0	-46.1	15.7	0.00e+00	0	23	0	3525312512	55	4243
2026-01-11 11:54:15.86	332.77	21.41	-45.1	-46.2	15.6	0.00e+00	0	23	0	3530555392	55	4305
2026-01-11 11:54:16.87	332.79	21.27	-45.2	-46.2	15.6	0.00e+00	0	23	0	3535798272	55	4336
2026-01-11 11:54:17.88	332.81	21.13	-45.1	-46.2	15.6	0.00e+00	0	23	0	3542089728	55	4307
2026-01-11 11:54:18.89	332.83	20.99	-45.1	-46.2	15.6	0.00e+00	0	23	0	3547332608	55	4319
2026-01-11 11:54:19.90	332.85	20.86	-45.1	-46.2	15.6	0.00e+00	0	23	0	3552575488	55	4331
2026-01-11 11:54:20.90	332.87	20.72	-45.1	-46.2	15.6	0.00e+00	0	23	0	3558866944	55	4311
2026-01-11 11:54:21.91	332.89	20.59	-45.1	-46.2	15.6	0.00e+00	0	23	0	3564109824	55	4321
2026-01-11 11:54:22.92	332.91	20.45	-45.2	-46.3	15.6	0.00e+00	0	23	0	3570401280	55	4355
2026-01-11 11:54:23.93	332.93	20.32	-45.2	-46.3	15.6	0.00e+00	0	23	0	3575644160	55	4343
2026-01-11 11:54:24.94	332.95	20.19	-45.2	-46.3	15.6	0.00e+00	0	23	0	3580887040	55	4342
2026-01-11 11:54:25.94	332.97	20.06	-45.1	-46.2	15.6	0.00e+00	0	23	0	3587178496	55	4332
2026-01-11 11:54:26.95	332.99	19.92	-45.3	-46.3	15.6	0.00e+00	0	23	0	3592421376	55	4391
2026-01-11 11:54:27.96	333.01	19.79	-45.2	-46.3	15.6	0.00e+00	0	23	0	3598712832	55	4356
2026-01-11 11:54:28.97	333.03	19.66	-45.3	-46.4	15.5	0.00e+00	0	23	0	3603955712	55	4408
2026-01-11 11:54:29.98	333.05	19.53	-45.3	-46.4	15.5	0.00e+00	0	24	0	3609198592	55	4430
2026-01-11 11:54:30.99	333.07	19.41	-45.6	-46.8	15.6	0.00e+00	0	23	0	3615490048	56	4346
2026-01-11 11:54:32.00	333.09	19.28	-45.5	-46.6	15.6	0.00e+00	0	23	0	3620732928	56	4258
2026-01-11 11:54:33.01	333.10	19.15	-45.6	-46.7	15.6	0.00e+00	0	23	0	3627024384	56	4305
2026-01-11 11:54:34.02	333.12	19.02	-45.6	-46.7	15.6	0.00e+00	0	23	0	3632267264	56	4306
2026-01-11 11:54:35.02	333.14	18.90	-45.6	-46.7	15.6	0.00e+00	0	23	0	3638558720	56	4325
2026-01-11 11:54:36.03	333.16	18.77	-45.7	-46.8	15.5	0.00e+00	0	23	0	3643801600	56	4389
2026-01-11 11:54:37.04	333.18	18.65	-45.7	-46.8	15.6	0.00e+00	0	23	0	3649044480	56	4358
2026-01-11 11:54:38.05	333.20	18.53	-45.7	-46.8	15.5	0.00e+00	0	23	0	3655335936	56	4366
2026-01-11 11:54:39.05	333.21	18.40	-45.7	-46.8	15.5	0.00e+00	0	23	0	3660578816	56	4387
2026-01-11 11:54:40.06	333.23	18.28	-45.7	-46.9	15.5	0.00e+00	0	23	0	3666870272	56	4395
2026-01-11 11:54:41.08	333.25	18.16	-45.8	-46.9	15.5	0.00e+00	0	23	0	3672113152	56	4412
2026-01-11 11:54:42.09	333.27	18.04	-45.8	-46.9	15.5	0.00e+00	0	23	0	3677356032	56	4409
2026-01-11 11:54:43.09	333.28	17.92	-45.8	-46.9	15.5	0.00e+00	0	23	0	3683647488	56	4434
2026-01-11 11:54:44.10	333.30	17.80	-45.8	-46.9	15.5	0.00e+00	0	23	0	3688890368	56	4439
2026-01-11 11:54:45.11	333.32	17.68	-45.8	-47.0	15.5	0.00e+00	0	23	0	3695181824	56	4452
2026-01-11 11:54:46.12	333.34	17.56	-45.9	-47.0	15.5	0.00e+00	0	23	0	3700424704	56	4480
2026-01-11 11:54:47.13	333.35	17.44	-45.9	-47.1	15.5	0.00e+00	0	24	0	3705667584	57	4251
2026-01-11 11:54:48.13	333.37	17.32	-45.9	-47.0	15.6	0.00e+00	0	23	0	3711959040	57	4222
