passes_logs/2026/01/11/R3.2S_Murmansk/R3.2S_Murmansk__20260111_050627_FENGYUN_3D_rec.log

#Pass ID: 20260111_050627_FENGYUN 3D
#Satellite: FENGYUN 3D
#Configuration: FENGYUN 3D
#almurnet v.1.7.20251203
#Start time: 2026-01-11 05:06:29

#Version: 2.2.20231116
#Station: R3.2S_Murmansk
#Location: 33.079688 lon 68.888172 lat
#TLE: 1 43010U 17072A   26009.92921666 -.00000228  00000+0 -86059-4 0  9998
#TLE: 2 43010  98.9936 341.6668 0002176 116.7510 243.3888 14.19693142422537

#Time	Az	El	Level	Level2	SNR	BER	BlckErr	Temp	State	Recorded	gain1	gain2
2026-01-11 05:06:29.64	38.55	2.11	-57.2	-70.2	3.8	8.45e-01	0	22	0	0	81	15288
2026-01-11 05:06:30.63	38.51	2.17	-57.2	-70.2	3.8	8.46e-01	0	23	104	0	79	17142
2026-01-11 05:06:31.63	38.46	2.23	-57.2	-70.2	3.8	8.45e-01	0	23	104	0	79	17126
2026-01-11 05:06:32.64	38.41	2.29	-57.2	-70.1	3.8	8.45e-01	0	23	104	0	79	17073
2026-01-11 05:06:33.65	38.36	2.35	-57.2	-70.1	3.8	8.46e-01	0	23	104	0	79	17069
2026-01-11 05:06:34.65	38.32	2.42	-57.2	-70.2	3.8	8.45e-01	0	23	104	0	79	17087
2026-01-11 05:06:35.64	38.27	2.48	-57.2	-70.1	3.8	8.46e-01	0	23	104	0	79	17054
2026-01-11 05:06:36.64	38.22	2.54	-57.2	-70.2	3.8	8.47e-01	0	23	104	0	79	17096
2026-01-11 05:06:37.65	38.17	2.60	-57.2	-70.1	3.8	8.46e-01	0	23	104	0	79	17036
2026-01-11 05:06:38.64	38.13	2.66	-57.2	-70.1	3.8	8.45e-01	0	23	104	0	79	17023
2026-01-11 05:06:39.65	38.08	2.72	-57.2	-70.2	3.8	8.45e-01	0	23	104	0	79	17105
2026-01-11 05:06:40.65	38.03	2.78	-57.2	-70.0	3.8	8.45e-01	0	23	104	0	79	16821
2026-01-11 05:06:41.65	37.98	2.84	-57.1	-70.0	3.8	8.46e-01	0	23	104	0	79	16716
2026-01-11 05:06:42.65	37.93	2.91	-57.2	-70.0	3.8	8.46e-01	0	23	104	0	79	16752
2026-01-11 05:06:43.65	37.88	2.97	-57.1	-70.0	3.8	8.47e-01	0	23	104	0	79	16742
2026-01-11 05:06:44.65	37.83	3.03	-57.1	-70.0	3.8	8.45e-01	0	23	104	0	79	16783
2026-01-11 05:06:45.65	37.78	3.09	-57.2	-70.1	3.8	8.46e-01	0	23	104	0	79	16897
2026-01-11 05:06:46.65	37.73	3.15	-57.2	-70.0	3.8	8.45e-01	0	23	104	0	79	16803
2026-01-11 05:06:47.65	37.68	3.22	-57.2	-70.0	3.8	8.46e-01	0	23	104	0	79	16823
2026-01-11 05:06:48.65	37.63	3.28	-57.2	-70.1	3.8	8.45e-01	0	23	104	0	79	17070
2026-01-11 05:06:49.65	37.58	3.34	-57.2	-70.1	3.8	8.47e-01	0	23	104	0	79	17060
2026-01-11 05:06:50.66	37.53	3.40	-57.2	-70.2	3.8	8.46e-01	0	24	104	0	79	17126
2026-01-11 05:06:51.66	37.47	3.47	-57.2	-70.1	3.8	8.45e-01	0	23	104	0	79	17029
2026-01-11 05:06:52.65	37.42	3.53	-57.2	-70.1	3.8	8.45e-01	0	23	104	0	79	16969
2026-01-11 05:06:53.65	37.37	3.59	-57.2	-70.0	3.8	8.46e-01	0	23	104	0	79	16884
2026-01-11 05:06:54.65	37.32	3.65	-57.2	-70.1	3.8	8.46e-01	0	23	104	0	79	16916
2026-01-11 05:06:55.65	37.27	3.72	-57.2	-70.1	3.8	8.46e-01	0	24	104	0	79	16909
2026-01-11 05:06:56.65	37.21	3.78	-57.2	-70.1	3.8	8.45e-01	0	24	104	0	79	16906
2026-01-11 05:06:57.64	37.16	3.84	-57.2	-70.0	3.8	8.45e-01	0	24	104	0	79	16780
2026-01-11 05:06:58.65	37.11	3.91	-57.2	-69.8	3.8	8.46e-01	0	24	104	0	79	16476
2026-01-11 05:06:59.64	37.05	3.97	-57.1	-69.6	3.8	8.44e-01	0	24	104	0	79	16011
2026-01-11 05:07:00.64	37.00	4.04	-57.1	-69.2	3.8	8.46e-01	0	24	104	0	79	15314
2026-01-11 05:07:01.64	36.95	4.10	-57.0	-68.4	3.8	8.45e-01	0	24	104	0	79	13905
2026-01-11 05:07:02.65	36.89	4.16	-57.1	-68.6	3.8	8.44e-01	0	24	104	0	79	14320
2026-01-11 05:07:03.65	36.84	4.23	-57.0	-67.5	4.0	8.43e-01	0	24	104	0	79	12546
2026-01-11 05:07:04.65	36.78	4.29	-56.8	-66.3	4.3	8.34e-01	0	24	0	0	79	10998
2026-01-11 05:07:05.65	36.73	4.36	-56.9	-66.8	4.1	8.35e-01	0	24	0	0	79	11602
2026-01-11 05:07:06.64	36.67	4.42	-56.7	-65.0	4.7	8.29e-01	0	24	0	0	79	9408
2026-01-11 05:07:07.64	36.62	4.49	-56.6	-64.7	4.8	7.62e-01	0	24	0	0	79	9157
2026-01-11 05:07:08.64	36.56	4.55	-56.5	-63.9	5.3	7.34e-01	0	24	0	0	79	8296
2026-01-11 05:07:09.64	36.51	4.62	-56.1	-62.2	6.4	2.80e-01	0	24	0	4194304	78	7232
2026-01-11 05:07:10.65	36.45	4.68	-55.9	-61.6	7.0	1.49e-01	0	24	0	10485760	78	6756
2026-01-11 05:07:11.65	36.39	4.75	-55.4	-60.1	8.2	4.78e-02	0	24	0	15728640	77	6051
2026-01-11 05:07:12.65	36.34	4.81	-55.4	-60.1	8.2	3.99e-02	0	24	0	20971520	77	6036
2026-01-11 05:07:13.66	36.28	4.88	-54.9	-59.0	9.2	1.73e-02	0	24	0	27262976	76	5632
2026-01-11 05:07:14.66	36.22	4.94	-54.5	-58.4	9.6	7.95e-03	0	24	0	32505856	75	5542
2026-01-11 05:07:15.66	36.16	5.01	-54.6	-58.5	9.6	4.91e-03	0	24	0	37748736	75	5605
2026-01-11 05:07:16.66	36.11	5.08	-54.8	-58.9	9.2	1.39e-02	0	24	0	44040192	75	5903
2026-01-11 05:07:17.66	36.05	5.14	-55.7	-61.0	7.6	1.92e-02	0	24	0	49283072	76	7046
2026-01-11 05:07:18.66	35.99	5.21	-55.2	-59.8	8.5	1.35e-02	0	24	0	55574528	76	6147
2026-01-11 05:07:19.66	35.93	5.27	-52.2	-54.4	12.7	1.77e-02	0	24	0	60817408	71	4428
2026-01-11 05:07:20.66	35.87	5.34	-55.8	-61.5	7.1	1.60e-05	0	24	0	66060288	76	7508
2026-01-11 05:07:21.66	35.81	5.41	-53.2	-55.8	11.7	8.16e-02	0	24	0	70254592	73	4638
2026-01-11 05:07:22.67	35.75	5.47	-50.8	-52.5	13.8	0.00e+00	0	24	0	75497472	68	4229
2026-01-11 05:07:23.66	35.69	5.54	-50.2	-51.8	14.1	0.00e+00	0	24	0	80740352	67	4145
2026-01-11 05:07:24.66	35.63	5.61	-49.7	-51.3	14.2	0.00e+00	0	24	0	87031808	65	4351
2026-01-11 05:07:25.66	35.57	5.68	-49.8	-51.4	14.1	0.00e+00	0	24	0	92274688	65	4415
2026-01-11 05:07:26.66	35.51	5.74	-49.9	-51.5	14.0	0.00e+00	0	24	0	97517568	65	4493
2026-01-11 05:07:27.65	35.45	5.81	-49.5	-51.0	14.3	0.00e+00	0	24	0	103809024	65	4219
2026-01-11 05:07:28.65	35.39	5.88	-49.2	-50.6	14.4	0.00e+00	0	24	0	109051904	64	4282
2026-01-11 05:07:29.64	35.33	5.94	-49.3	-50.9	14.3	0.00e+00	0	24	0	114294784	64	4395
2026-01-11 05:07:30.64	35.27	6.01	-49.1	-50.6	14.4	0.00e+00	0	24	0	120586240	64	4252
2026-01-11 05:07:31.63	35.21	6.08	-49.0	-50.5	14.5	0.00e+00	0	24	0	125829120	64	4206
2026-01-11 05:07:32.63	35.14	6.15	-49.1	-50.6	14.4	0.00e+00	0	24	0	131072000	64	4243
2026-01-11 05:07:33.64	35.08	6.22	-49.0	-50.4	14.5	0.00e+00	0	24	0	137363456	64	4175
2026-01-11 05:07:34.63	35.02	6.28	-48.8	-50.2	14.7	0.00e+00	0	24	0	142606336	64	4083
2026-01-11 05:07:35.63	34.95	6.35	-48.9	-50.3	14.6	0.00e+00	0	24	0	147849216	64	4113
2026-01-11 05:07:36.62	34.89	6.42	-48.9	-50.3	14.6	0.00e+00	0	24	0	154140672	64	4135
2026-01-11 05:07:37.61	34.83	6.49	-48.8	-50.2	14.6	0.00e+00	0	24	0	159383552	64	4097
2026-01-11 05:07:38.62	34.76	6.56	-48.7	-50.1	14.6	0.00e+00	0	24	0	164626432	63	4273
2026-01-11 05:07:39.62	34.70	6.63	-48.8	-50.3	14.5	0.00e+00	0	24	0	170917888	63	4341
2026-01-11 05:07:40.62	34.63	6.70	-48.7	-50.1	14.6	0.00e+00	0	24	0	176160768	63	4260
2026-01-11 05:07:41.61	34.57	6.77	-48.8	-50.3	14.5	0.00e+00	0	24	0	182452224	63	4344
2026-01-11 05:07:42.62	34.50	6.84	-48.6	-49.9	14.7	0.00e+00	0	24	0	187695104	63	4193
2026-01-11 05:07:43.61	34.44	6.91	-48.7	-50.1	14.6	0.00e+00	0	24	0	192937984	63	4270
2026-01-11 05:07:44.62	34.37	6.98	-48.7	-50.1	14.6	0.00e+00	0	24	0	199229440	63	4248
2026-01-11 05:07:45.62	34.30	7.05	-48.6	-50.0	14.6	0.00e+00	0	24	0	204472320	63	4203
2026-01-11 05:07:46.62	34.24	7.12	-48.5	-49.9	14.7	0.00e+00	0	24	0	209715200	63	4154
2026-01-11 05:07:47.61	34.17	7.19	-48.5	-49.9	14.7	0.00e+00	0	24	0	216006656	63	4160
2026-01-11 05:07:48.61	34.10	7.26	-48.7	-50.2	14.6	0.00e+00	0	24	0	221249536	63	4292
2026-01-11 05:07:49.61	34.03	7.33	-48.8	-50.2	14.6	0.00e+00	0	24	0	226492416	63	4302
2026-01-11 05:07:50.61	33.96	7.40	-48.4	-49.8	14.8	0.00e+00	0	25	0	232783872	63	4132
2026-01-11 05:07:51.62	33.89	7.47	-48.6	-49.9	14.7	0.00e+00	0	24	0	238026752	63	4185
2026-01-11 05:07:52.61	33.83	7.54	-48.5	-49.8	14.7	0.00e+00	0	24	0	244318208	63	4138
2026-01-11 05:07:53.61	33.76	7.61	-48.6	-50.0	14.7	0.00e+00	0	24	0	249561088	63	4196
2026-01-11 05:07:54.61	33.69	7.68	-48.6	-49.9	14.7	0.00e+00	0	24	0	254803968	63	4183
2026-01-11 05:07:55.61	33.62	7.75	-48.5	-49.8	14.8	0.00e+00	0	25	0	261095424	63	4130
2026-01-11 05:07:56.62	33.55	7.83	-48.3	-49.7	14.9	0.00e+00	0	24	0	266338304	63	4063
2026-01-11 05:07:57.61	33.47	7.90	-48.5	-49.8	14.8	0.00e+00	0	25	0	271581184	63	4130
2026-01-11 05:07:58.61	33.40	7.97	-48.5	-49.8	14.8	0.00e+00	0	24	0	277872640	63	4124
2026-01-11 05:07:59.62	33.33	8.04	-48.5	-49.9	14.7	0.00e+00	0	24	0	283115520	63	4173
2026-01-11 05:08:00.62	33.26	8.12	-48.6	-49.9	14.7	0.00e+00	0	24	0	288358400	63	4193
2026-01-11 05:08:01.61	33.19	8.19	-48.6	-49.9	14.7	0.00e+00	0	25	0	294649856	63	4190
2026-01-11 05:08:02.61	33.11	8.26	-48.5	-49.9	14.7	0.00e+00	0	25	0	299892736	63	4168
2026-01-11 05:08:03.61	33.04	8.33	-48.5	-49.8	14.8	0.00e+00	0	24	0	306184192	63	4139
2026-01-11 05:08:04.62	32.97	8.41	-48.4	-49.7	14.8	0.00e+00	0	24	0	311427072	63	4085
2026-01-11 05:08:05.61	32.89	8.48	-48.4	-49.7	14.9	0.00e+00	0	24	0	316669952	63	4070
2026-01-11 05:08:06.61	32.82	8.55	-48.4	-49.8	14.8	0.00e+00	0	24	0	322961408	63	4109
2026-01-11 05:08:07.62	32.74	8.63	-48.4	-49.8	14.8	0.00e+00	0	24	0	328204288	63	4103
2026-01-11 05:08:08.62	32.67	8.70	-48.4	-49.7	14.8	0.00e+00	0	25	0	333447168	63	4093
2026-01-11 05:08:09.62	32.59	8.77	-48.5	-49.8	14.8	0.00e+00	0	25	0	339738624	63	4135
2026-01-11 05:08:10.62	32.52	8.85	-48.4	-49.8	14.8	0.00e+00	0	25	0	344981504	63	4104
2026-01-11 05:08:11.61	32.44	8.92	-48.6	-49.9	14.7	0.00e+00	0	24	0	350224384	63	4190
2026-01-11 05:08:12.61	32.36	9.00	-48.6	-49.9	14.7	0.00e+00	0	24	0	356515840	63	4182
2026-01-11 05:08:13.60	32.29	9.07	-48.4	-49.7	14.9	0.00e+00	0	24	0	361758720	63	4063
2026-01-11 05:08:14.60	32.21	9.15	-48.5	-49.8	14.8	0.00e+00	0	25	0	368050176	63	4139
2026-01-11 05:08:15.60	32.13	9.22	-48.2	-49.5	15.0	0.00e+00	0	25	0	373293056	63	3962
2026-01-11 05:08:16.60	32.05	9.30	-48.1	-49.4	14.9	0.00e+00	0	25	0	378535936	62	4183
2026-01-11 05:08:17.60	31.97	9.37	-48.1	-49.4	14.9	0.00e+00	0	25	0	384827392	62	4169
2026-01-11 05:08:18.59	31.90	9.45	-48.1	-49.4	14.8	0.00e+00	0	25	0	390070272	62	4180
2026-01-11 05:08:19.60	31.81	9.52	-48.1	-49.4	14.9	0.00e+00	0	25	0	395313152	62	4172
2026-01-11 05:08:20.60	31.73	9.60	-48.1	-49.4	14.9	0.00e+00	0	25	0	401604608	62	4183
2026-01-11 05:08:21.59	31.65	9.67	-48.1	-49.4	14.9	0.00e+00	0	25	0	406847488	62	4168
2026-01-11 05:08:22.59	31.57	9.75	-48.0	-49.3	15.0	0.00e+00	0	25	0	412090368	62	4100
2026-01-11 05:08:23.59	31.49	9.83	-48.0	-49.2	14.9	0.00e+00	0	25	0	418381824	62	4090
2026-01-11 05:08:24.60	31.41	9.90	-47.9	-49.2	15.0	0.00e+00	0	25	0	423624704	62	4079
2026-01-11 05:08:25.59	31.33	9.98	-47.9	-49.1	15.0	0.00e+00	0	25	0	429916160	62	4050
2026-01-11 05:08:26.58	31.25	10.05	-47.9	-49.2	15.0	0.00e+00	0	25	0	435159040	62	4058
2026-01-11 05:08:27.58	31.16	10.13	-48.0	-49.3	14.9	0.00e+00	0	25	0	440401920	62	4108
2026-01-11 05:08:28.58	31.08	10.21	-48.0	-49.2	15.0	0.00e+00	0	25	0	445644800	62	4091
2026-01-11 05:08:29.57	31.00	10.29	-48.1	-49.3	14.9	0.00e+00	0	25	0	451936256	62	4143
2026-01-11 05:08:30.57	30.91	10.36	-48.1	-49.4	14.9	0.00e+00	0	25	0	457179136	62	4156
2026-01-11 05:08:31.56	30.83	10.44	-47.8	-49.1	15.0	0.00e+00	0	25	0	462422016	62	4027
2026-01-11 05:08:32.56	30.74	10.52	-47.8	-49.1	15.0	0.00e+00	0	25	0	468713472	62	4021
2026-01-11 05:08:33.56	30.65	10.60	-47.8	-49.1	15.0	0.00e+00	0	25	0	473956352	62	4022
2026-01-11 05:08:34.56	30.57	10.67	-47.7	-49.0	15.1	0.00e+00	0	25	0	480247808	62	3968
2026-01-11 05:08:35.55	30.48	10.75	-47.7	-49.0	15.1	0.00e+00	0	25	0	485490688	62	3980
2026-01-11 05:08:36.55	30.39	10.83	-47.8	-49.0	15.1	0.00e+00	0	25	0	490733568	62	3995
2026-01-11 05:08:37.55	30.31	10.91	-47.7	-49.0	15.1	0.00e+00	0	25	0	497025024	62	3964
2026-01-11 05:08:38.55	30.22	10.99	-47.6	-48.8	15.0	0.00e+00	0	25	0	502267904	61	4131
2026-01-11 05:08:39.55	30.13	11.07	-47.6	-48.8	15.0	0.00e+00	0	25	0	507510784	61	4145
2026-01-11 05:08:40.55	30.04	11.15	-47.5	-48.7	15.1	0.00e+00	0	25	0	513802240	61	4083
2026-01-11 05:08:41.56	29.95	11.23	-47.5	-48.7	15.1	0.00e+00	0	25	0	519045120	61	4086
2026-01-11 05:08:42.56	29.86	11.31	-47.5	-48.7	15.0	0.00e+00	0	25	0	524288000	61	4086
2026-01-11 05:08:43.56	29.77	11.39	-47.3	-48.5	15.2	0.00e+00	0	25	0	530579456	61	3998
2026-01-11 05:08:44.56	29.67	11.47	-47.4	-48.6	15.1	0.00e+00	0	25	0	535822336	61	4032
2026-01-11 05:08:45.57	29.58	11.55	-47.5	-48.7	15.1	0.00e+00	0	25	0	542113792	61	4091
2026-01-11 05:08:46.57	29.49	11.63	-47.3	-48.6	15.1	0.00e+00	0	25	0	547356672	61	4012
2026-01-11 05:08:47.57	29.39	11.71	-47.4	-48.6	15.1	0.00e+00	0	25	0	552599552	61	4043
2026-01-11 05:08:48.57	29.30	11.79	-47.4	-48.7	15.1	0.00e+00	0	25	0	558891008	61	4066
2026-01-11 05:08:49.57	29.21	11.87	-47.5	-48.7	15.1	0.00e+00	0	25	0	564133888	61	4074
2026-01-11 05:08:50.57	29.11	11.95	-47.4	-48.6	15.1	0.00e+00	0	25	0	569376768	61	4026
2026-01-11 05:08:51.57	29.02	12.04	-47.5	-48.7	15.1	0.00e+00	0	25	0	575668224	61	4089
2026-01-11 05:08:52.57	28.92	12.12	-47.6	-48.8	15.0	0.00e+00	0	25	0	580911104	61	4121
2026-01-11 05:08:53.56	28.82	12.20	-47.6	-48.8	15.0	0.00e+00	0	25	0	587202560	61	4133
2026-01-11 05:08:54.56	28.73	12.28	-47.7	-48.9	15.0	0.00e+00	0	25	0	592445440	61	4181
2026-01-11 05:08:55.55	28.63	12.36	-47.6	-48.9	15.0	0.00e+00	0	25	0	597688320	61	4161
2026-01-11 05:08:56.55	28.53	12.44	-47.6	-48.8	15.0	0.00e+00	0	25	0	603979776	61	4119
2026-01-11 05:08:57.55	28.43	12.53	-47.6	-48.9	15.0	0.00e+00	0	25	0	609222656	61	4150
2026-01-11 05:08:58.55	28.33	12.61	-47.6	-48.8	15.0	0.00e+00	0	25	0	614465536	61	4133
2026-01-11 05:08:59.55	28.23	12.69	-47.6	-48.9	15.0	0.00e+00	0	25	0	620756992	61	4150
2026-01-11 05:09:00.55	28.13	12.78	-47.5	-48.7	15.1	0.00e+00	0	25	0	625999872	61	4083
2026-01-11 05:09:01.55	28.03	12.86	-47.3	-48.5	15.2	0.00e+00	0	25	0	631242752	61	3987
2026-01-11 05:09:02.55	27.93	12.94	-47.3	-48.5	15.2	0.00e+00	0	25	0	637534208	61	3993
2026-01-11 05:09:03.55	27.83	13.03	-47.3	-48.5	15.2	0.00e+00	0	25	0	642777088	61	4001
2026-01-11 05:09:04.55	27.73	13.11	-47.2	-48.4	15.2	0.00e+00	0	25	0	649068544	61	3950
2026-01-11 05:09:05.55	27.62	13.19	-47.3	-48.5	15.2	0.00e+00	0	25	0	654311424	61	3963
2026-01-11 05:09:06.54	27.52	13.28	-47.2	-48.4	15.2	0.00e+00	0	25	0	659554304	61	3947
2026-01-11 05:09:07.54	27.42	13.36	-47.2	-48.5	15.2	0.00e+00	0	25	0	665845760	61	3963
2026-01-11 05:09:08.54	27.31	13.45	-47.3	-48.5	15.2	0.00e+00	0	25	0	671088640	61	3971
2026-01-11 05:09:09.54	27.20	13.53	-47.2	-48.4	15.1	0.00e+00	0	25	0	676331520	60	4161
2026-01-11 05:09:10.55	27.10	13.62	-47.2	-48.4	15.0	0.00e+00	0	25	0	682622976	60	4191
2026-01-11 05:09:11.54	26.99	13.70	-47.2	-48.4	15.1	0.00e+00	0	25	0	687865856	60	4169
2026-01-11 05:09:12.54	26.88	13.79	-47.2	-48.5	15.0	0.00e+00	0	25	0	693108736	60	4199
2026-01-11 05:09:13.54	26.77	13.87	-47.2	-48.4	15.1	0.00e+00	0	25	0	699400192	60	4188
2026-01-11 05:09:14.54	26.66	13.96	-47.2	-48.4	15.1	0.00e+00	0	25	0	704643072	60	4156
2026-01-11 05:09:15.55	26.55	14.05	-47.0	-48.1	15.2	0.00e+00	0	25	0	710934528	60	4051
2026-01-11 05:09:16.55	26.44	14.13	-46.9	-48.1	15.2	0.00e+00	0	25	0	716177408	60	4038
2026-01-11 05:09:17.54	26.33	14.22	-46.8	-48.0	15.3	0.00e+00	0	25	0	721420288	60	3963
2026-01-11 05:09:18.53	26.22	14.31	-46.8	-48.0	15.2	0.00e+00	0	25	0	726663168	60	3988
2026-01-11 05:09:19.53	26.11	14.39	-46.8	-48.0	15.2	0.00e+00	0	25	0	732954624	60	3978
2026-01-11 05:09:20.53	26.00	14.48	-46.9	-48.0	15.2	0.00e+00	0	25	0	738197504	60	3997
2026-01-11 05:09:21.53	25.88	14.57	-46.9	-48.0	15.2	0.00e+00	0	25	0	743440384	60	3996
2026-01-11 05:09:22.52	25.77	14.65	-46.8	-48.0	15.3	0.00e+00	0	25	0	749731840	60	3964
2026-01-11 05:09:23.52	25.65	14.74	-46.8	-47.9	15.3	0.00e+00	0	25	0	754974720	60	3941
2026-01-11 05:09:24.51	25.54	14.83	-46.8	-47.9	15.3	0.00e+00	0	25	0	761266176	60	3945
2026-01-11 05:09:25.51	25.42	14.92	-46.7	-47.8	15.3	0.00e+00	0	25	0	766509056	60	3908
2026-01-11 05:09:26.50	25.31	15.00	-47.1	-48.3	15.0	0.00e+00	0	25	0	771751936	59	4358
2026-01-11 05:09:27.50	25.19	15.09	-47.1	-48.4	15.0	0.00e+00	0	25	0	778043392	59	4396
2026-01-11 05:09:28.49	25.07	15.18	-47.2	-48.5	15.0	0.00e+00	0	25	0	783286272	59	4450
2026-01-11 05:09:29.48	24.95	15.27	-47.1	-48.4	15.0	0.00e+00	0	25	0	788529152	59	4392
2026-01-11 05:09:30.48	24.83	15.36	-47.1	-48.4	15.0	0.00e+00	0	25	0	793772032	59	4401
2026-01-11 05:09:31.47	24.71	15.45	-47.0	-48.2	15.1	0.00e+00	0	25	0	800063488	59	4335
2026-01-11 05:09:32.46	24.59	15.53	-47.1	-48.3	15.0	0.00e+00	0	25	0	805306368	59	4363
2026-01-11 05:09:33.46	24.47	15.62	-47.1	-48.3	15.1	0.00e+00	0	25	0	811597824	59	4356
2026-01-11 05:09:34.45	24.35	15.71	-47.0	-48.2	15.1	0.00e+00	0	25	0	816840704	59	4301
2026-01-11 05:09:35.45	24.22	15.80	-47.1	-48.3	15.1	0.00e+00	0	25	0	822083584	59	4360
2026-01-11 05:09:36.45	24.10	15.89	-47.1	-48.3	15.0	0.00e+00	0	25	0	828375040	59	4353
2026-01-11 05:09:37.45	23.97	15.98	-46.9	-48.1	15.1	0.00e+00	0	25	0	833617920	59	4286
2026-01-11 05:09:38.44	23.85	16.07	-46.9	-48.1	15.1	0.00e+00	0	25	0	838860800	59	4276
2026-01-11 05:09:39.44	23.72	16.16	-46.9	-48.0	15.1	0.00e+00	0	25	0	845152256	59	4237
2026-01-11 05:09:40.44	23.59	16.26	-46.9	-48.1	15.1	0.00e+00	0	25	0	850395136	59	4247
2026-01-11 05:09:41.44	23.46	16.35	-46.8	-48.0	15.2	0.00e+00	0	25	0	855638016	59	4195
2026-01-11 05:09:42.44	23.34	16.44	-46.9	-48.0	15.1	0.00e+00	0	25	0	861929472	59	4237
2026-01-11 05:09:43.44	23.20	16.53	-46.8	-48.0	15.1	0.00e+00	0	25	0	867172352	59	4231
2026-01-11 05:09:44.44	23.07	16.62	-46.8	-48.0	15.1	0.00e+00	0	25	0	873463808	59	4241
2026-01-11 05:09:45.45	22.94	16.71	-46.8	-48.0	15.2	0.00e+00	0	25	0	878706688	59	4201
2026-01-11 05:09:46.44	22.81	16.81	-46.7	-47.9	15.2	0.00e+00	0	25	0	883949568	59	4180
2026-01-11 05:09:47.44	22.68	16.90	-46.7	-47.9	15.2	0.00e+00	0	25	0	890241024	59	4151
2026-01-11 05:09:48.44	22.54	16.99	-46.6	-47.7	15.3	0.00e+00	0	25	0	895483904	59	4088
2026-01-11 05:09:49.44	22.41	17.08	-46.6	-47.7	15.2	0.00e+00	0	25	0	900726784	59	4083
2026-01-11 05:09:50.44	22.27	17.18	-46.6	-47.7	15.3	0.00e+00	0	25	0	907018240	59	4079
2026-01-11 05:09:51.44	22.13	17.27	-46.3	-47.5	15.4	0.00e+00	0	25	0	912261120	59	3972
2026-01-11 05:09:52.44	21.99	17.36	-46.3	-47.4	15.4	0.00e+00	0	25	0	917504000	59	3951
2026-01-11 05:09:53.44	21.86	17.46	-46.3	-47.5	15.4	0.00e+00	0	25	0	923795456	59	3979
2026-01-11 05:09:54.44	21.72	17.55	-46.3	-47.4	15.4	0.00e+00	0	25	0	929038336	59	3937
2026-01-11 05:09:55.43	21.58	17.64	-46.4	-47.5	15.3	0.00e+00	0	25	0	934281216	59	3980
2026-01-11 05:09:56.43	21.44	17.74	-46.4	-47.6	15.3	0.00e+00	0	25	0	940572672	59	4025
2026-01-11 05:09:57.42	21.29	17.83	-46.5	-47.6	15.3	0.00e+00	0	25	0	945815552	59	4049
2026-01-11 05:09:58.42	21.15	17.92	-46.4	-47.5	15.3	0.00e+00	0	25	0	951058432	59	4000
2026-01-11 05:09:59.42	21.01	18.02	-46.4	-47.5	15.4	0.00e+00	0	25	0	957349888	59	3980
2026-01-11 05:10:00.42	20.86	18.11	-46.4	-47.6	15.3	0.00e+00	0	25	0	962592768	59	4020
2026-01-11 05:10:01.41	20.72	18.21	-46.3	-47.4	15.4	0.00e+00	0	25	0	967835648	59	3938
2026-01-11 05:10:02.41	20.57	18.30	-46.2	-47.3	15.4	0.00e+00	0	25	0	974127104	59	3898
2026-01-11 05:10:03.41	20.42	18.40	-46.1	-47.3	15.3	0.00e+00	0	25	0	979369984	58	4100
2026-01-11 05:10:04.41	20.27	18.49	-46.2	-47.3	15.3	0.00e+00	0	25	0	985661440	58	4144
2026-01-11 05:10:05.41	20.12	18.59	-46.1	-47.2	15.3	0.00e+00	0	25	0	990904320	58	4084
2026-01-11 05:10:06.42	19.97	18.68	-46.1	-47.2	15.3	0.00e+00	0	25	0	996147200	58	4082
2026-01-11 05:10:07.41	19.82	18.78	-46.1	-47.2	15.3	0.00e+00	0	25	0	1002438656	58	4072
2026-01-11 05:10:08.41	19.67	18.88	-46.0	-47.1	15.3	0.00e+00	0	25	0	1007681536	58	4049
2026-01-11 05:10:09.41	19.51	18.97	-46.1	-47.2	15.3	0.00e+00	0	25	0	1012924416	58	4089
2026-01-11 05:10:10.41	19.36	19.07	-46.1	-47.2	15.3	0.00e+00	0	25	0	1019215872	58	4071
2026-01-11 05:10:11.41	19.20	19.16	-46.3	-47.4	15.2	0.00e+00	0	25	0	1024458752	58	4172
2026-01-11 05:10:12.41	19.05	19.26	-46.3	-47.5	15.2	0.00e+00	0	25	0	1029701632	58	4204
2026-01-11 05:10:13.41	18.89	19.36	-46.2	-47.3	15.3	0.00e+00	0	25	0	1035993088	58	4143
2026-01-11 05:10:14.41	18.73	19.46	-46.3	-47.4	15.2	0.00e+00	0	25	0	1041235968	58	4190
2026-01-11 05:10:15.41	18.57	19.55	-46.3	-47.4	15.2	0.00e+00	0	25	0	1047527424	58	4173
2026-01-11 05:10:16.40	18.41	19.65	-46.2	-47.4	15.3	0.00e+00	0	25	0	1052770304	58	4151
2026-01-11 05:10:17.40	18.25	19.75	-46.1	-47.2	15.3	0.00e+00	0	25	0	1058013184	58	4066
2026-01-11 05:10:18.40	18.09	19.84	-45.9	-47.0	15.4	0.00e+00	0	25	0	1064304640	58	3988
2026-01-11 05:10:19.40	17.92	19.94	-45.9	-47.0	15.4	0.00e+00	0	25	0	1069547520	58	3970
2026-01-11 05:10:20.40	17.76	20.04	-45.7	-46.8	15.5	0.00e+00	0	25	0	1074790400	58	3893
2026-01-11 05:10:21.40	17.59	20.14	-45.8	-46.9	15.4	0.00e+00	0	25	0	1081081856	58	3920
2026-01-11 05:10:22.39	17.43	20.23	-45.8	-46.8	15.4	0.00e+00	0	25	0	1086324736	58	3910
2026-01-11 05:10:23.40	17.26	20.33	-45.7	-46.8	15.5	0.00e+00	0	25	0	1092616192	58	3893
2026-01-11 05:10:24.40	17.09	20.43	-45.8	-46.9	15.5	0.00e+00	0	25	0	1097859072	58	3916
2026-01-11 05:10:25.39	16.92	20.53	-45.6	-46.7	15.3	0.00e+00	0	25	0	1103101952	57	4096
2026-01-11 05:10:26.39	16.75	20.63	-45.6	-46.8	15.4	0.00e+00	0	25	0	1109393408	57	4103
2026-01-11 05:10:27.38	16.58	20.72	-45.7	-46.8	15.3	0.00e+00	0	25	0	1114636288	57	4124
2026-01-11 05:10:28.37	16.40	20.82	-45.8	-46.9	15.3	0.00e+00	0	25	0	1119879168	57	4160
2026-01-11 05:10:29.36	16.23	20.92	-45.9	-47.0	15.3	0.00e+00	0	25	0	1125122048	57	4236
2026-01-11 05:10:30.37	16.05	21.02	-46.0	-47.1	15.2	0.00e+00	0	25	0	1131413504	57	4288
2026-01-11 05:10:31.36	15.88	21.12	-46.0	-47.1	15.3	0.00e+00	0	25	0	1136656384	57	4279
2026-01-11 05:10:32.36	15.70	21.22	-46.1	-47.2	15.2	0.00e+00	0	25	0	1142947840	57	4309
2026-01-11 05:10:33.35	15.52	21.31	-46.0	-47.2	15.2	0.00e+00	0	25	0	1148190720	57	4307
2026-01-11 05:10:34.34	15.34	21.41	-46.1	-47.3	15.2	0.00e+00	0	25	0	1153433600	57	4349
2026-01-11 05:10:35.34	15.16	21.51	-45.9	-47.0	15.3	0.00e+00	0	25	0	1159725056	57	4227
2026-01-11 05:10:36.34	14.98	21.61	-45.6	-46.7	15.4	0.00e+00	0	25	0	1164967936	57	4089
2026-01-11 05:10:37.34	14.79	21.71	-45.6	-46.8	15.4	0.00e+00	0	25	0	1170210816	57	4099
2026-01-11 05:10:38.33	14.61	21.81	-45.6	-46.7	15.4	0.00e+00	0	25	0	1175453696	57	4056
2026-01-11 05:10:39.32	14.42	21.91	-45.5	-46.6	15.4	0.00e+00	0	25	0	1181745152	57	4012
2026-01-11 05:10:40.32	14.24	22.01	-45.5	-46.6	15.4	0.00e+00	0	25	0	1186988032	57	4050
2026-01-11 05:10:41.32	14.05	22.11	-45.6	-46.7	15.4	0.00e+00	0	25	0	1193279488	57	4095
2026-01-11 05:10:42.31	13.86	22.21	-45.5	-46.6	15.4	0.00e+00	0	25	0	1198522368	57	4050
2026-01-11 05:10:43.31	13.67	22.31	-45.4	-46.5	15.4	0.00e+00	0	25	0	1203765248	57	3991
2026-01-11 05:10:44.32	13.47	22.41	-45.5	-46.6	15.4	0.00e+00	0	25	0	1210056704	57	4008
2026-01-11 05:10:45.33	13.28	22.51	-45.6	-46.7	15.4	0.00e+00	0	25	0	1215299584	57	4055
2026-01-11 05:10:46.33	13.08	22.61	-45.6	-46.6	15.4	0.00e+00	0	25	0	1220542464	57	4051
2026-01-11 05:10:47.33	12.88	22.71	-45.4	-46.5	15.4	0.00e+00	0	25	0	1226833920	57	3994
2026-01-11 05:10:48.33	12.69	22.81	-45.4	-46.6	15.4	0.00e+00	0	25	0	1232076800	57	4008
2026-01-11 05:10:49.33	12.49	22.91	-45.5	-46.6	15.4	0.00e+00	0	25	0	1237319680	57	4047
2026-01-11 05:10:50.33	12.29	23.01	-45.3	-46.4	15.5	0.00e+00	0	25	0	1243611136	57	3943
2026-01-11 05:10:51.33	12.08	23.11	-45.3	-46.4	15.5	0.00e+00	0	25	0	1248854016	57	3927
2026-01-11 05:10:52.33	11.88	23.21	-45.2	-46.3	15.5	0.00e+00	0	25	0	1255145472	57	3897
2026-01-11 05:10:53.34	11.67	23.31	-45.3	-46.3	15.5	0.00e+00	0	25	0	1260388352	57	3913
2026-01-11 05:10:54.34	11.47	23.41	-45.2	-46.3	15.6	0.00e+00	0	25	0	1266679808	57	3870
2026-01-11 05:10:55.35	11.26	23.51	-45.1	-46.2	15.4	0.00e+00	0	25	0	1271922688	56	4054
2026-01-11 05:10:56.35	11.05	23.61	-45.1	-46.2	15.4	0.00e+00	0	25	0	1277165568	56	4083
2026-01-11 05:10:57.35	10.84	23.71	-45.1	-46.2	15.4	0.00e+00	0	25	0	1283457024	56	4076
2026-01-11 05:10:58.34	10.63	23.81	-45.2	-46.3	15.4	0.00e+00	0	25	0	1288699904	56	4115
2026-01-11 05:10:59.35	10.42	23.91	-45.3	-46.4	15.4	0.00e+00	0	25	0	1293942784	56	4154
2026-01-11 05:11:00.35	10.20	24.01	-45.3	-46.4	15.3	0.00e+00	0	25	0	1300234240	56	4182
2026-01-11 05:11:01.35	9.99	24.11	-45.4	-46.5	15.3	0.00e+00	0	25	0	1305477120	56	4218
2026-01-11 05:11:02.35	9.77	24.21	-45.4	-46.5	15.3	0.00e+00	0	25	0	1310720000	56	4215
2026-01-11 05:11:03.35	9.55	24.31	-45.4	-46.5	15.3	0.00e+00	0	25	0	1317011456	56	4222
2026-01-11 05:11:04.35	9.33	24.41	-45.3	-46.4	15.3	0.00e+00	0	25	0	1322254336	56	4186
2026-01-11 05:11:05.34	9.11	24.51	-45.2	-46.3	15.4	0.00e+00	0	25	0	1328545792	56	4113
2026-01-11 05:11:06.34	8.89	24.61	-44.9	-46.0	15.5	0.00e+00	0	25	0	1333788672	56	3965
2026-01-11 05:11:07.34	8.67	24.71	-44.9	-46.0	15.5	0.00e+00	0	25	0	1339031552	56	3963
2026-01-11 05:11:08.34	8.44	24.80	-44.8	-45.9	15.5	0.00e+00	0	25	0	1345323008	56	3938
2026-01-11 05:11:09.35	8.21	24.90	-44.8	-45.9	15.5	0.00e+00	0	25	0	1350565888	56	3938
2026-01-11 05:11:10.34	7.99	25.00	-44.9	-46.0	15.5	0.00e+00	0	25	0	1355808768	56	3970
2026-01-11 05:11:11.35	7.75	25.10	-44.9	-46.0	15.5	0.00e+00	0	25	0	1362100224	56	3964
2026-01-11 05:11:12.35	7.52	25.20	-44.8	-45.9	15.5	0.00e+00	0	25	0	1367343104	56	3941
2026-01-11 05:11:13.34	7.29	25.30	-44.9	-46.0	15.5	0.00e+00	0	25	0	1372585984	56	3960
2026-01-11 05:11:14.35	7.06	25.40	-44.9	-46.0	15.5	0.00e+00	0	25	0	1378877440	56	3960
2026-01-11 05:11:15.35	6.82	25.50	-44.7	-45.8	15.6	0.00e+00	0	25	0	1384120320	56	3883
2026-01-11 05:11:16.35	6.58	25.59	-44.8	-45.9	15.5	0.00e+00	0	25	0	1390411776	56	3920
2026-01-11 05:11:17.36	6.34	25.69	-44.7	-45.8	15.6	0.00e+00	0	25	0	1395654656	56	3874
2026-01-11 05:11:18.36	6.10	25.79	-44.6	-45.6	15.5	0.00e+00	0	25	0	1400897536	55	4039
2026-01-11 05:11:19.37	5.86	25.89	-44.5	-45.6	15.5	0.00e+00	0	25	0	1407188992	55	4025
2026-01-11 05:11:20.37	5.62	25.99	-44.5	-45.5	15.5	0.00e+00	0	25	0	1412431872	55	3987
2026-01-11 05:11:21.37	5.37	26.08	-44.4	-45.4	15.5	0.00e+00	0	25	0	1417674752	55	3958
2026-01-11 05:11:22.37	5.12	26.18	-44.3	-45.4	15.5	0.00e+00	0	25	0	1423966208	55	3929
2026-01-11 05:11:23.37	4.88	26.28	-44.4	-45.4	15.5	0.00e+00	0	25	0	1429209088	55	3957
2026-01-11 05:11:24.36	4.63	26.37	-44.4	-45.4	15.5	0.00e+00	0	25	0	1434451968	55	3946
2026-01-11 05:11:25.36	4.38	26.47	-44.4	-45.4	15.5	0.00e+00	0	25	0	1440743424	55	3945
2026-01-11 05:11:26.36	4.13	26.56	-44.5	-45.5	15.5	0.00e+00	0	25	0	1445986304	55	3993
2026-01-11 05:11:27.36	3.87	26.66	-44.6	-45.6	15.5	0.00e+00	0	25	0	1452277760	55	4042
2026-01-11 05:11:28.36	3.62	26.75	-44.6	-45.6	15.5	0.00e+00	0	25	0	1457520640	55	4034
2026-01-11 05:11:29.36	3.36	26.85	-44.6	-45.7	15.4	0.00e+00	0	25	0	1462763520	55	4081
2026-01-11 05:11:30.36	3.10	26.94	-44.7	-45.7	15.4	0.00e+00	0	25	0	1469054976	55	4093
2026-01-11 05:11:31.36	2.84	27.04	-44.5	-45.6	15.4	0.00e+00	0	25	0	1474297856	55	4027
2026-01-11 05:11:32.36	2.58	27.13	-44.6	-45.7	15.4	0.00e+00	0	25	0	1479540736	55	4070
2026-01-11 05:11:33.35	2.32	27.22	-44.5	-45.6	15.5	0.00e+00	0	25	0	1485832192	55	4028
2026-01-11 05:11:34.35	2.06	27.32	-44.5	-45.6	15.5	0.00e+00	0	25	0	1491075072	55	4018
2026-01-11 05:11:35.35	1.79	27.41	-44.6	-45.6	15.5	0.00e+00	0	25	0	1496317952	55	4029
2026-01-11 05:11:36.35	1.52	27.50	-44.5	-45.5	15.5	0.00e+00	0	25	0	1502609408	55	3996
2026-01-11 05:11:37.35	1.25	27.59	-44.6	-45.6	15.5	0.00e+00	0	25	0	1507852288	55	4040
2026-01-11 05:11:38.34	0.98	27.68	-44.6	-45.6	15.5	0.00e+00	0	25	0	1514143744	55	4036
2026-01-11 05:11:39.34	0.71	27.77	-44.5	-45.6	15.5	0.00e+00	0	25	0	1519386624	55	4010
2026-01-11 05:11:40.33	0.44	27.86	-44.4	-45.5	15.5	0.00e+00	0	25	0	1524629504	55	3964
2026-01-11 05:11:41.33	0.17	27.95	-44.5	-45.6	15.5	0.00e+00	0	25	0	1529872384	55	4005
2026-01-11 05:11:42.33	359.89	28.04	-44.5	-45.5	15.5	0.00e+00	0	25	0	1536163840	55	4002
2026-01-11 05:11:43.33	359.61	28.13	-44.5	-45.6	15.5	0.00e+00	0	25	0	1541406720	55	4022
2026-01-11 05:11:44.33	359.33	28.22	-44.5	-45.6	15.5	0.00e+00	0	25	0	1546649600	55	4023
2026-01-11 05:11:45.32	359.05	28.31	-44.5	-45.6	15.5	0.00e+00	0	25	0	1552941056	55	4030
2026-01-11 05:11:46.32	358.77	28.40	-44.5	-45.5	15.5	0.00e+00	0	25	0	1558183936	55	3982
2026-01-11 05:11:47.31	358.48	28.49	-44.1	-45.1	15.5	0.00e+00	0	25	0	1564475392	54	4036
2026-01-11 05:11:48.31	358.20	28.57	-44.1	-45.1	15.5	0.00e+00	0	25	0	1569718272	54	4037
2026-01-11 05:11:49.31	357.91	28.66	-44.2	-45.2	15.5	0.00e+00	0	25	0	1574961152	54	4064
2026-01-11 05:11:50.31	357.62	28.74	-44.2	-45.3	15.4	0.00e+00	0	25	0	1581252608	54	4116
2026-01-11 05:11:51.30	357.33	28.83	-44.3	-45.4	15.4	0.00e+00	0	25	0	1586495488	54	4169
2026-01-11 05:11:52.30	357.04	28.91	-44.4	-45.5	15.4	0.00e+00	0	25	0	1591738368	54	4200
2026-01-11 05:11:53.30	356.75	29.00	-44.4	-45.5	15.4	0.00e+00	0	25	0	1598029824	54	4209
2026-01-11 05:11:54.30	356.45	29.08	-44.4	-45.5	15.4	0.00e+00	0	25	0	1603272704	54	4218
2026-01-11 05:11:55.31	356.15	29.16	-44.5	-45.5	15.4	0.00e+00	0	25	0	1608515584	54	4234
2026-01-11 05:11:56.30	355.85	29.25	-44.6	-45.7	15.4	0.00e+00	0	25	0	1614807040	54	4294
2026-01-11 05:11:57.30	355.55	29.33	-44.6	-45.6	15.4	0.00e+00	0	25	0	1620049920	54	4278
2026-01-11 05:11:58.29	355.25	29.41	-44.5	-45.5	15.4	0.00e+00	0	25	0	1626341376	54	4242
2026-01-11 05:11:59.28	354.95	29.49	-44.3	-45.4	15.4	0.00e+00	0	25	0	1631584256	54	4154
2026-01-11 05:12:00.28	354.65	29.57	-44.3	-45.4	15.4	0.00e+00	0	25	0	1636827136	54	4157
2026-01-11 05:12:01.27	354.34	29.65	-44.4	-45.5	15.4	0.00e+00	0	25	0	1642070016	54	4194
2026-01-11 05:12:02.27	354.04	29.72	-44.3	-45.4	15.4	0.00e+00	0	25	0	1648361472	54	4160
2026-01-11 05:12:03.27	353.73	29.80	-44.4	-45.4	15.4	0.00e+00	0	25	0	1653604352	54	4190
2026-01-11 05:12:04.27	353.41	29.88	-44.3	-45.3	15.4	0.00e+00	0	25	0	1659895808	54	4141
2026-01-11 05:12:05.28	353.10	29.95	-44.3	-45.3	15.4	0.00e+00	0	25	0	1665138688	54	4144
2026-01-11 05:12:06.28	352.79	30.03	-44.4	-45.5	15.4	0.00e+00	0	25	0	1670381568	54	4197
2026-01-11 05:12:07.27	352.47	30.10	-44.4	-45.5	15.4	0.00e+00	0	25	0	1676673024	54	4207
2026-01-11 05:12:08.27	352.16	30.18	-44.5	-45.6	15.4	0.00e+00	0	25	0	1681915904	54	4253
2026-01-11 05:12:09.27	351.84	30.25	-44.3	-45.4	15.4	0.00e+00	0	25	0	1687158784	54	4154
2026-01-11 05:12:10.27	351.52	30.32	-44.2	-45.3	15.4	0.00e+00	0	25	0	1693450240	54	4120
2026-01-11 05:12:11.26	351.20	30.39	-44.3	-45.3	15.4	0.00e+00	0	25	0	1698693120	54	4125
2026-01-11 05:12:12.26	350.88	30.46	-44.2	-45.2	15.5	0.00e+00	0	25	0	1703936000	54	4083
2026-01-11 05:12:13.26	350.55	30.53	-44.1	-45.1	15.5	0.00e+00	0	25	0	1710227456	54	4045
2026-01-11 05:12:14.26	350.23	30.60	-44.1	-45.2	15.5	0.00e+00	0	25	0	1715470336	54	4060
2026-01-11 05:12:15.25	349.90	30.67	-44.1	-45.2	15.5	0.00e+00	0	25	0	1721761792	54	4064
2026-01-11 05:12:16.25	349.57	30.74	-44.0	-45.0	15.5	0.00e+00	0	25	0	1727004672	54	3998
2026-01-11 05:12:17.25	349.24	30.80	-44.1	-45.1	15.5	0.00e+00	0	25	0	1732247552	54	4034
2026-01-11 05:12:18.25	348.91	30.87	-44.2	-45.2	15.4	0.00e+00	0	25	0	1738539008	54	4089
2026-01-11 05:12:19.25	348.58	30.93	-44.2	-45.2	15.5	0.00e+00	0	25	0	1743781888	54	4081
2026-01-11 05:12:20.25	348.25	30.99	-44.2	-45.2	15.5	0.00e+00	0	25	0	1749024768	54	4088
2026-01-11 05:12:21.25	347.91	31.06	-44.1	-45.1	15.5	0.00e+00	0	25	0	1755316224	54	4032
2026-01-11 05:12:22.25	347.58	31.12	-44.1	-45.2	15.5	0.00e+00	0	25	0	1760559104	54	4067
2026-01-11 05:12:23.25	347.24	31.18	-43.8	-44.9	15.6	0.00e+00	0	25	0	1765801984	54	3918
2026-01-11 05:12:24.25	346.90	31.24	-43.8	-44.8	15.6	0.00e+00	0	25	0	1772093440	54	3910
2026-01-11 05:12:25.25	346.56	31.29	-44.0	-45.1	15.5	0.00e+00	0	25	0	1777336320	54	4009
2026-01-11 05:12:26.25	346.22	31.35	-44.1	-45.2	15.5	0.00e+00	0	25	0	1783627776	54	4056
2026-01-11 05:12:27.25	345.87	31.41	-44.2	-45.2	15.5	0.00e+00	0	25	0	1788870656	54	4083
2026-01-11 05:12:28.25	345.53	31.46	-44.1	-45.2	15.5	0.00e+00	0	25	0	1794113536	54	4055
2026-01-11 05:12:29.25	345.19	31.52	-44.0	-45.1	15.5	0.00e+00	0	25	0	1800404992	54	4011
2026-01-11 05:12:30.25	344.84	31.57	-44.1	-45.1	15.5	0.00e+00	0	25	0	1805647872	54	4036
2026-01-11 05:12:31.24	344.50	31.62	-44.0	-45.0	15.5	0.00e+00	0	25	0	1810890752	54	4000
2026-01-11 05:12:32.25	344.14	31.67	-44.0	-45.0	15.5	0.00e+00	0	25	0	1817182208	54	3990
2026-01-11 05:12:33.24	343.80	31.72	-44.0	-45.0	15.5	0.00e+00	0	25	0	1822425088	54	3974
2026-01-11 05:12:34.23	343.45	31.77	-44.0	-45.0	15.5	0.00e+00	0	25	0	1827667968	54	3972
2026-01-11 05:12:35.22	343.10	31.82	-44.0	-45.0	15.5	0.00e+00	0	25	0	1833959424	54	3990
2026-01-11 05:12:36.22	342.75	31.86	-43.9	-44.9	15.6	0.00e+00	0	25	0	1839202304	54	3930
2026-01-11 05:12:37.22	342.40	31.91	-43.9	-44.9	15.6	0.00e+00	0	25	0	1844445184	54	3923
2026-01-11 05:12:38.21	342.05	31.95	-43.9	-44.9	15.5	0.00e+00	0	25	0	1850736640	54	3949
2026-01-11 05:12:39.21	341.69	31.99	-44.0	-45.0	15.5	0.00e+00	0	25	0	1855979520	54	3991
2026-01-11 05:12:40.21	341.33	32.03	-44.1	-45.1	15.5	0.00e+00	0	25	0	1861222400	54	4029
2026-01-11 05:12:41.20	340.98	32.07	-44.1	-45.2	15.5	0.00e+00	0	25	0	1867513856	54	4056
2026-01-11 05:12:42.20	340.62	32.11	-44.1	-45.1	15.5	0.00e+00	0	25	0	1872756736	54	4031
2026-01-11 05:12:43.19	340.27	32.15	-43.9	-44.9	15.5	0.00e+00	0	25	0	1877999616	54	3950
2026-01-11 05:12:44.19	339.91	32.19	-43.9	-44.9	15.6	0.00e+00	0	25	0	1884291072	54	3925
2026-01-11 05:12:45.19	339.55	32.22	-43.8	-44.8	15.6	0.00e+00	0	25	0	1889533952	54	3897
2026-01-11 05:12:46.19	339.18	32.26	-43.9	-44.9	15.6	0.00e+00	0	25	0	1895825408	54	3927
2026-01-11 05:12:47.19	338.82	32.29	-43.8	-44.8	15.6	0.00e+00	0	25	0	1901068288	54	3887
2026-01-11 05:12:48.20	338.46	32.32	-43.8	-44.9	15.6	0.00e+00	0	25	0	1906311168	54	3918
2026-01-11 05:12:49.20	338.09	32.35	-43.9	-44.9	15.6	0.00e+00	0	25	0	1912602624	54	3948
2026-01-11 05:12:50.20	337.73	32.38	-43.9	-44.9	15.5	0.00e+00	0	25	0	1917845504	54	3944
2026-01-11 05:12:51.20	337.36	32.41	-43.9	-44.9	15.6	0.00e+00	0	25	0	1923088384	54	3930
2026-01-11 05:12:52.21	336.99	32.44	-43.9	-45.0	15.5	0.00e+00	0	25	0	1929379840	54	3962
2026-01-11 05:12:53.21	336.63	32.46	-43.9	-44.9	15.6	0.00e+00	0	25	0	1934622720	54	3928
2026-01-11 05:12:54.21	336.26	32.49	-43.9	-44.9	15.6	0.00e+00	0	25	0	1939865600	54	3926
2026-01-11 05:12:55.21	335.89	32.51	-43.8	-44.8	15.6	0.00e+00	0	25	0	1946157056	54	3885
2026-01-11 05:12:56.21	335.53	32.53	-43.6	-44.6	15.5	0.00e+00	0	25	0	1951399936	53	4032
2026-01-11 05:12:57.21	335.16	32.55	-43.6	-44.6	15.5	0.00e+00	0	25	0	1957691392	53	4035
2026-01-11 05:12:58.21	334.79	32.57	-43.6	-44.6	15.5	0.00e+00	0	25	0	1962934272	53	4043
2026-01-11 05:12:59.21	334.42	32.58	-43.7	-44.8	15.5	0.00e+00	0	25	0	1968177152	53	4100
2026-01-11 05:13:00.21	334.05	32.60	-44.0	-45.0	15.4	0.00e+00	0	25	0	1974468608	53	4236
2026-01-11 05:13:01.20	333.68	32.61	-44.1	-45.1	15.4	0.00e+00	0	25	0	1979711488	53	4291
2026-01-11 05:13:02.20	333.31	32.63	-44.0	-45.0	15.4	0.00e+00	0	25	0	1984954368	53	4218
2026-01-11 05:13:03.20	332.94	32.64	-44.0	-45.0	15.4	0.00e+00	0	25	0	1991245824	53	4236
2026-01-11 05:13:04.19	332.58	32.65	-43.9	-45.0	15.4	0.00e+00	0	25	0	1996488704	53	4203
2026-01-11 05:13:05.18	332.21	32.66	-43.8	-44.9	15.5	0.00e+00	0	25	0	2001731584	53	4152
2026-01-11 05:13:06.18	331.84	32.67	-43.9	-44.9	15.4	0.00e+00	0	25	0	2008023040	53	4174
2026-01-11 05:13:07.19	331.46	32.67	-43.9	-44.9	15.4	0.00e+00	0	25	0	2013265920	53	4177
2026-01-11 05:13:08.18	331.09	32.68	-43.9	-44.9	15.4	0.00e+00	0	25	0	2018508800	53	4181
2026-01-11 05:13:09.19	330.72	32.68	-43.9	-44.9	15.4	0.00e+00	0	25	0	2024800256	53	4156
2026-01-11 05:13:10.19	330.35	32.68	-43.8	-44.9	15.4	0.00e+00	0	25	0	2030043136	53	4147
2026-01-11 05:13:11.19	329.98	32.69	-43.7	-44.7	15.5	0.00e+00	0	25	0	2036334592	53	4095
2026-01-11 05:13:12.20	329.60	32.69	-43.7	-44.7	15.5	0.00e+00	0	25	0	2041577472	53	4064
2026-01-11 05:13:13.19	329.23	32.68	-43.7	-44.7	15.5	0.00e+00	0	25	0	2046820352	53	4086
2026-01-11 05:13:14.19	328.86	32.68	-43.7	-44.7	15.5	0.00e+00	0	25	0	2053111808	53	4087
2026-01-11 05:13:15.18	328.49	32.68	-43.8	-44.8	15.5	0.00e+00	0	25	0	2058354688	53	4134
2026-01-11 05:13:16.18	328.12	32.67	-43.7	-44.7	15.5	0.00e+00	0	25	0	2063597568	53	4087
2026-01-11 05:13:17.19	327.75	32.66	-43.7	-44.8	15.4	0.00e+00	0	25	0	2069889024	53	4100
2026-01-11 05:13:18.19	327.38	32.65	-43.8	-44.8	15.5	0.00e+00	0	25	0	2075131904	53	4114
2026-01-11 05:13:19.19	327.01	32.64	-44.0	-45.0	15.4	0.00e+00	0	25	0	2081423360	53	4221
2026-01-11 05:13:20.19	326.63	32.63	-44.0	-45.1	15.4	0.00e+00	0	25	0	2086666240	53	4250
2026-01-11 05:13:21.19	326.26	32.62	-44.1	-45.1	15.4	0.00e+00	0	25	0	2091909120	53	4275
2026-01-11 05:13:22.20	325.89	32.61	-43.9	-44.9	15.4	0.00e+00	0	25	0	2098200576	53	4178
2026-01-11 05:13:23.19	325.52	32.59	-43.9	-44.9	15.4	0.00e+00	0	25	0	2103443456	53	4162
2026-01-11 05:13:24.19	325.15	32.57	-43.8	-44.9	15.5	0.00e+00	0	25	0	2108686336	53	4161
2026-01-11 05:13:25.19	324.79	32.56	-43.8	-44.8	15.4	0.00e+00	0	25	0	2114977792	53	4143
2026-01-11 05:13:26.19	324.42	32.54	-43.7	-44.7	15.5	0.00e+00	0	25	0	2120220672	53	4066
2026-01-11 05:13:27.18	324.05	32.52	-43.5	-44.5	15.5	0.00e+00	0	25	0	2125463552	53	3996
2026-01-11 05:13:28.18	323.69	32.49	-43.5	-44.6	15.5	0.00e+00	0	25	0	2131755008	53	4007
2026-01-11 05:13:29.18	323.32	32.47	-43.6	-44.6	15.5	0.00e+00	0	25	0	2136997888	53	4010
2026-01-11 05:13:30.18	322.95	32.45	-43.8	-44.8	15.5	0.00e+00	0	25	0	2142240768	53	4124
2026-01-11 05:13:31.17	322.59	32.42	-43.9	-44.9	15.4	0.00e+00	0	25	0	2148532224	53	4181
2026-01-11 05:13:32.17	322.22	32.39	-43.9	-45.0	15.4	0.00e+00	0	25	0	2153775104	53	4194
2026-01-11 05:13:33.18	321.86	32.36	-43.8	-44.9	15.4	0.00e+00	0	25	0	2159017984	53	4153
2026-01-11 05:13:34.17	321.49	32.33	-43.8	-44.8	15.4	0.00e+00	0	25	0	2165309440	53	4142
2026-01-11 05:13:35.17	321.13	32.30	-43.9	-45.0	15.4	0.00e+00	0	25	0	2170552320	53	4203
2026-01-11 05:13:36.17	320.77	32.27	-44.0	-45.1	15.4	0.00e+00	0	25	0	2175795200	53	4249
2026-01-11 05:13:37.17	320.41	32.24	-44.1	-45.2	15.4	0.00e+00	0	26	0	2182086656	53	4294
2026-01-11 05:13:38.16	320.05	32.20	-44.1	-45.2	15.4	0.00e+00	0	25	0	2187329536	53	4295
2026-01-11 05:13:39.15	319.69	32.17	-44.1	-45.1	15.4	0.00e+00	0	25	0	2193620992	53	4280
2026-01-11 05:13:40.15	319.33	32.13	-44.1	-45.1	15.4	0.00e+00	0	25	0	2198863872	53	4273
2026-01-11 05:13:41.15	318.97	32.09	-44.0	-45.0	15.4	0.00e+00	0	26	0	2204106752	53	4222
2026-01-11 05:13:42.16	318.61	32.05	-43.9	-44.9	15.4	0.00e+00	0	25	0	2210398208	53	4175
2026-01-11 05:13:43.16	318.26	32.01	-43.9	-44.9	15.4	0.00e+00	0	25	0	2215641088	53	4178
2026-01-11 05:13:44.17	317.90	31.97	-43.9	-44.9	15.4	0.00e+00	0	25	0	2220883968	53	4183
2026-01-11 05:13:45.17	317.54	31.92	-43.9	-44.9	15.4	0.00e+00	0	25	0	2227175424	53	4163
2026-01-11 05:13:46.17	317.19	31.88	-43.9	-44.9	15.4	0.00e+00	0	25	0	2232418304	53	4190
2026-01-11 05:13:47.18	316.83	31.83	-43.9	-45.0	15.4	0.00e+00	0	25	0	2238709760	53	4198
2026-01-11 05:13:48.17	316.48	31.79	-44.0	-45.0	15.4	0.00e+00	0	25	0	2243952640	53	4221
2026-01-11 05:13:49.18	316.13	31.74	-44.0	-45.0	15.4	0.00e+00	0	25	0	2249195520	53	4236
2026-01-11 05:13:50.18	315.78	31.69	-44.0	-45.0	15.4	0.00e+00	0	25	0	2255486976	53	4222
2026-01-11 05:13:51.18	315.43	31.64	-44.0	-45.0	15.4	0.00e+00	0	25	0	2260729856	53	4230
2026-01-11 05:13:52.19	315.08	31.59	-43.9	-45.0	15.4	0.00e+00	0	25	0	2267021312	53	4196
2026-01-11 05:13:53.20	314.73	31.53	-43.9	-45.0	15.4	0.00e+00	0	25	0	2272264192	53	4202
2026-01-11 05:13:54.20	314.38	31.48	-44.1	-45.2	15.4	0.00e+00	0	25	0	2277507072	53	4297
2026-01-11 05:13:55.20	314.03	31.42	-44.1	-45.2	15.4	0.00e+00	0	25	0	2283798528	53	4312
2026-01-11 05:13:56.20	313.69	31.37	-44.1	-45.2	15.4	0.00e+00	0	25	0	2289041408	53	4302
2026-01-11 05:13:57.20	313.35	31.31	-44.1	-45.2	15.4	0.00e+00	0	25	0	2294284288	53	4294
2026-01-11 05:13:58.20	313.01	31.25	-44.2	-45.2	15.4	0.00e+00	0	25	0	2300575744	53	4332
2026-01-11 05:13:59.20	312.67	31.19	-44.1	-45.2	15.4	0.00e+00	0	25	0	2305818624	53	4315
2026-01-11 05:14:00.20	312.33	31.13	-44.1	-45.1	15.4	0.00e+00	0	26	0	2312110080	53	4266
2026-01-11 05:14:01.20	311.99	31.07	-44.0	-45.0	15.4	0.00e+00	0	25	0	2317352960	53	4233
2026-01-11 05:14:02.20	311.66	31.01	-43.9	-45.0	15.4	0.00e+00	0	26	0	2322595840	53	4198
2026-01-11 05:14:03.20	311.32	30.95	-44.0	-45.0	15.4	0.00e+00	0	25	0	2328887296	53	4224
2026-01-11 05:14:04.19	310.99	30.89	-44.2	-45.3	15.4	0.00e+00	0	25	0	2334130176	53	4353
2026-01-11 05:14:05.19	310.66	30.82	-44.2	-45.3	15.4	0.00e+00	0	25	0	2339373056	53	4373
2026-01-11 05:14:06.19	310.33	30.75	-44.2	-45.2	15.4	0.00e+00	0	25	0	2345664512	53	4331
2026-01-11 05:14:07.19	310.00	30.69	-44.2	-45.2	15.4	0.00e+00	0	25	0	2350907392	53	4338
2026-01-11 05:14:08.19	309.67	30.62	-44.2	-45.3	15.4	0.00e+00	0	25	0	2356150272	53	4347
2026-01-11 05:14:09.20	309.34	30.55	-44.1	-45.1	15.4	0.00e+00	0	25	0	2362441728	53	4289
2026-01-11 05:14:10.20	309.02	30.48	-44.3	-45.4	15.4	0.00e+00	0	25	0	2367684608	53	4392
2026-01-11 05:14:11.21	308.69	30.41	-44.4	-45.4	15.4	0.00e+00	0	25	0	2373976064	53	4434
2026-01-11 05:14:12.20	308.37	30.34	-44.4	-45.5	15.4	0.00e+00	0	26	0	2379218944	54	4210
2026-01-11 05:14:13.20	308.05	30.27	-44.5	-45.5	15.4	0.00e+00	0	26	0	2384461824	54	4231
2026-01-11 05:14:14.20	307.73	30.20	-44.5	-45.5	15.4	0.00e+00	0	25	0	2390753280	54	4231
2026-01-11 05:14:15.19	307.42	30.12	-44.4	-45.5	15.4	0.00e+00	0	25	0	2395996160	54	4203
2026-01-11 05:14:16.19	307.10	30.05	-44.4	-45.5	15.4	0.00e+00	0	25	0	2401239040	54	4219
2026-01-11 05:14:17.19	306.79	29.97	-44.5	-45.5	15.4	0.00e+00	0	26	0	2407530496	54	4226
2026-01-11 05:14:18.19	306.47	29.90	-44.3	-45.3	15.4	0.00e+00	0	25	0	2412773376	54	4141
2026-01-11 05:14:19.20	306.16	29.82	-44.3	-45.3	15.4	0.00e+00	0	25	0	2418016256	54	4116
2026-01-11 05:14:20.20	305.85	29.74	-44.3	-45.3	15.4	0.00e+00	0	26	0	2424307712	54	4137
2026-01-11 05:14:21.20	305.54	29.66	-44.4	-45.4	15.4	0.00e+00	0	25	0	2429550592	54	4187
2026-01-11 05:14:22.21	305.23	29.59	-44.4	-45.5	15.4	0.00e+00	0	25	0	2435842048	54	4216
2026-01-11 05:14:23.21	304.92	29.51	-44.6	-45.7	15.4	0.00e+00	0	25	0	2441084928	54	4297
2026-01-11 05:14:24.21	304.62	29.43	-44.5	-45.6	15.4	0.00e+00	0	25	0	2446327808	54	4273
2026-01-11 05:14:25.21	304.31	29.34	-44.6	-45.6	15.4	0.00e+00	0	25	0	2452619264	54	4283
2026-01-11 05:14:26.21	304.01	29.26	-44.4	-45.5	15.4	0.00e+00	0	25	0	2457862144	54	4216
2026-01-11 05:14:27.21	303.71	29.18	-44.3	-45.4	15.4	0.00e+00	0	25	0	2463105024	54	4158
2026-01-11 05:14:28.21	303.41	29.10	-44.2	-45.3	15.4	0.00e+00	0	25	0	2469396480	54	4103
2026-01-11 05:14:29.21	303.12	29.01	-44.2	-45.3	15.4	0.00e+00	0	25	0	2474639360	54	4106
2026-01-11 05:14:30.21	302.82	28.93	-44.4	-45.5	15.4	0.00e+00	0	25	0	2479882240	54	4200
2026-01-11 05:14:31.21	302.53	28.85	-44.4	-45.5	15.4	0.00e+00	0	25	0	2486173696	54	4207
2026-01-11 05:14:32.20	302.24	28.76	-44.5	-45.6	15.4	0.00e+00	0	26	0	2491416576	54	4260
2026-01-11 05:14:33.20	301.95	28.67	-44.5	-45.6	15.4	0.00e+00	0	25	0	2497708032	54	4249
2026-01-11 05:14:34.20	301.66	28.59	-44.5	-45.5	15.4	0.00e+00	0	25	0	2502950912	54	4222
2026-01-11 05:14:35.20	301.37	28.50	-44.4	-45.4	15.4	0.00e+00	0	25	0	2508193792	54	4191
2026-01-11 05:14:36.20	301.09	28.41	-44.4	-45.4	15.4	0.00e+00	0	25	0	2514485248	54	4188
2026-01-11 05:14:37.19	300.81	28.33	-44.6	-45.6	15.4	0.00e+00	0	25	0	2519728128	54	4282
2026-01-11 05:14:38.19	300.52	28.24	-44.6	-45.7	15.4	0.00e+00	0	25	0	2524971008	54	4296
2026-01-11 05:14:39.18	300.24	28.15	-44.7	-45.8	15.3	0.00e+00	0	25	0	2530213888	54	4364
2026-01-11 05:14:40.18	299.96	28.06	-44.8	-45.8	15.3	0.00e+00	0	25	0	2536505344	54	4387
2026-01-11 05:14:41.17	299.69	27.97	-44.7	-45.7	15.4	0.00e+00	0	25	0	2541748224	54	4333
2026-01-11 05:14:42.17	299.41	27.88	-44.6	-45.7	15.3	0.00e+00	0	25	0	2548039680	54	4321
2026-01-11 05:14:43.17	299.14	27.79	-44.7	-45.7	15.4	0.00e+00	0	26	0	2553282560	54	4327
2026-01-11 05:14:44.17	298.86	27.70	-44.7	-45.8	15.3	0.00e+00	0	25	0	2558525440	54	4365
2026-01-11 05:14:45.17	298.59	27.61	-44.9	-46.0	15.3	0.00e+00	0	25	0	2564816896	54	4463
2026-01-11 05:14:46.16	298.33	27.52	-44.9	-45.9	15.3	0.00e+00	0	26	0	2570059776	54	4430
2026-01-11 05:14:47.16	298.06	27.42	-44.9	-46.0	15.3	0.00e+00	0	25	0	2575302656	54	4442
2026-01-11 05:14:48.17	297.79	27.33	-44.8	-45.9	15.3	0.00e+00	0	25	0	2581594112	54	4416
2026-01-11 05:14:49.17	297.52	27.24	-44.9	-45.9	15.3	0.00e+00	0	25	0	2586836992	54	4441
2026-01-11 05:14:50.17	297.26	27.14	-45.0	-46.1	15.3	0.00e+00	0	25	0	2592079872	55	4255
2026-01-11 05:14:51.17	297.00	27.05	-45.0	-46.0	15.3	0.00e+00	0	26	0	2598371328	55	4232
2026-01-11 05:14:52.17	296.73	26.96	-45.0	-46.1	15.3	0.00e+00	0	26	0	2603614208	55	4261
2026-01-11 05:14:53.18	296.47	26.86	-45.0	-46.0	15.3	0.00e+00	0	25	0	2609905664	55	4230
2026-01-11 05:14:54.18	296.21	26.76	-45.0	-46.0	15.3	0.00e+00	0	25	0	2615148544	55	4236
2026-01-11 05:14:55.18	295.96	26.67	-44.9	-45.9	15.4	0.00e+00	0	26	0	2620391424	55	4175
2026-01-11 05:14:56.18	295.70	26.57	-44.8	-45.9	15.4	0.00e+00	0	25	0	2626682880	55	4160
2026-01-11 05:14:57.17	295.45	26.48	-44.9	-46.0	15.4	0.00e+00	0	26	0	2631925760	55	4196
2026-01-11 05:14:58.17	295.20	26.38	-44.9	-46.0	15.4	0.00e+00	0	25	0	2637168640	55	4221
2026-01-11 05:14:59.17	294.95	26.29	-45.0	-46.0	15.3	0.00e+00	0	25	0	2643460096	55	4234
2026-01-11 05:15:00.16	294.71	26.19	-45.0	-46.1	15.3	0.00e+00	0	26	0	2648702976	55	4265
2026-01-11 05:15:01.13	294.47	26.10	-45.0	-46.1	15.3	0.00e+00	0	25	0	2653945856	55	4269
2026-01-11 05:15:02.13	294.22	26.00	-45.0	-46.0	15.3	0.00e+00	0	26	0	2660237312	55	4224
2026-01-11 05:15:03.14	293.97	25.90	-44.9	-45.9	15.4	0.00e+00	0	26	0	2665480192	55	4173
2026-01-11 05:15:04.13	293.73	25.81	-44.9	-46.0	15.4	0.00e+00	0	25	0	2670723072	55	4214
2026-01-11 05:15:05.14	293.49	25.71	-45.0	-46.0	15.3	0.00e+00	0	25	0	2677014528	55	4223
2026-01-11 05:15:06.13	293.25	25.61	-45.0	-46.0	15.3	0.00e+00	0	25	0	2682257408	55	4239
2026-01-11 05:15:07.14	293.01	25.51	-45.0	-46.0	15.3	0.00e+00	0	25	0	2688548864	55	4240
2026-01-11 05:15:08.14	292.78	25.41	-44.9	-46.0	15.3	0.00e+00	0	26	0	2693791744	55	4224
2026-01-11 05:15:09.14	292.54	25.31	-44.9	-46.0	15.4	0.00e+00	0	25	0	2699034624	55	4195
2026-01-11 05:15:10.14	292.31	25.21	-44.9	-46.0	15.4	0.00e+00	0	25	0	2705326080	55	4196
2026-01-11 05:15:11.14	292.08	25.12	-44.9	-45.9	15.4	0.00e+00	0	26	0	2710568960	55	4184
2026-01-11 05:15:12.14	291.85	25.02	-45.0	-46.1	15.3	0.00e+00	0	26	0	2715811840	55	4244
2026-01-11 05:15:13.14	291.62	24.92	-45.2	-46.3	15.3	0.00e+00	0	26	0	2722103296	55	4352
2026-01-11 05:15:14.15	291.39	24.82	-45.3	-46.4	15.3	0.00e+00	0	25	0	2727346176	55	4399
2026-01-11 05:15:15.15	291.16	24.72	-45.3	-46.4	15.3	0.00e+00	0	25	0	2733637632	55	4400
2026-01-11 05:15:16.15	290.94	24.62	-45.2	-46.3	15.3	0.00e+00	0	25	0	2738880512	55	4372
2026-01-11 05:15:17.16	290.71	24.52	-45.3	-46.3	15.3	0.00e+00	0	26	0	2744123392	55	4387
2026-01-11 05:15:18.16	290.49	24.42	-45.2	-46.3	15.3	0.00e+00	0	25	0	2750414848	55	4361
2026-01-11 05:15:19.15	290.27	24.32	-45.3	-46.4	15.3	0.00e+00	0	26	0	2755657728	55	4396
2026-01-11 05:15:20.16	290.05	24.22	-45.2	-46.3	15.3	0.00e+00	0	26	0	2760900608	55	4359
2026-01-11 05:15:21.16	289.83	24.12	-45.3	-46.4	15.3	0.00e+00	0	25	0	2767192064	55	4410
2026-01-11 05:15:22.16	289.61	24.02	-45.1	-46.1	15.3	0.00e+00	0	25	0	2772434944	55	4286
2026-01-11 05:15:23.16	289.40	23.92	-45.1	-46.1	15.3	0.00e+00	0	25	0	2777677824	55	4288
2026-01-11 05:15:24.16	289.19	23.82	-45.1	-46.2	15.3	0.00e+00	0	25	0	2783969280	55	4322
2026-01-11 05:15:25.16	288.97	23.72	-45.3	-46.4	15.3	0.00e+00	0	25	0	2789212160	55	4400
2026-01-11 05:15:26.15	288.76	23.62	-45.3	-46.4	15.3	0.00e+00	0	25	0	2795503616	55	4398
2026-01-11 05:15:27.16	288.55	23.52	-45.4	-46.5	15.3	0.00e+00	0	25	0	2800746496	55	4447
2026-01-11 05:15:28.16	288.34	23.42	-45.2	-46.3	15.3	0.00e+00	0	26	0	2805989376	55	4362
2026-01-11 05:15:29.16	288.14	23.32	-45.2	-46.3	15.3	0.00e+00	0	25	0	2812280832	55	4352
2026-01-11 05:15:30.16	287.93	23.22	-45.3	-46.3	15.3	0.00e+00	0	25	0	2817523712	55	4390
2026-01-11 05:15:31.15	287.73	23.12	-45.2	-46.3	15.3	0.00e+00	0	25	0	2822766592	55	4351
2026-01-11 05:15:32.15	287.53	23.02	-45.3	-46.4	15.3	0.00e+00	0	25	0	2829058048	55	4397
2026-01-11 05:15:33.16	287.32	22.92	-45.3	-46.4	15.3	0.00e+00	0	25	0	2834300928	55	4410
2026-01-11 05:15:34.16	287.12	22.82	-45.3	-46.4	15.3	0.00e+00	0	25	0	2839543808	55	4423
2026-01-11 05:15:35.15	286.93	22.72	-45.3	-46.4	15.3	0.00e+00	0	25	0	2845835264	55	4433
2026-01-11 05:15:36.15	286.73	22.62	-45.3	-46.4	15.3	0.00e+00	0	25	0	2851078144	55	4420
2026-01-11 05:15:37.15	286.53	22.52	-45.3	-46.4	15.3	0.00e+00	0	25	0	2857369600	55	4419
2026-01-11 05:15:38.15	286.34	22.42	-45.3	-46.4	15.3	0.00e+00	0	25	0	2862612480	55	4438
2026-01-11 05:15:39.15	286.14	22.32	-45.3	-46.4	15.3	0.00e+00	0	25	0	2867855360	55	4433
2026-01-11 05:15:40.14	285.95	22.22	-45.4	-46.4	15.2	0.00e+00	0	25	0	2874146816	55	4440
2026-01-11 05:15:41.14	285.76	22.12	-45.3	-46.4	15.3	0.00e+00	0	25	0	2879389696	55	4417
2026-01-11 05:15:42.13	285.57	22.02	-45.3	-46.4	15.2	0.00e+00	0	25	0	2884632576	55	4433
2026-01-11 05:15:43.14	285.38	21.92	-45.2	-46.3	15.3	0.00e+00	0	26	0	2890924032	55	4364
2026-01-11 05:15:44.14	285.20	21.82	-45.2	-46.3	15.3	0.00e+00	0	25	0	2896166912	55	4375
2026-01-11 05:15:45.13	285.01	21.72	-45.3	-46.4	15.3	0.00e+00	0	25	0	2901409792	55	4398
2026-01-11 05:15:46.13	284.83	21.62	-45.2	-46.2	15.3	0.00e+00	0	25	0	2907701248	55	4333
2026-01-11 05:15:47.13	284.64	21.52	-45.3	-46.4	15.3	0.00e+00	0	25	0	2912944128	55	4395
2026-01-11 05:15:48.13	284.46	21.42	-45.2	-46.3	15.3	0.00e+00	0	25	0	2918187008	55	4371
2026-01-11 05:15:49.12	284.28	21.32	-45.2	-46.3	15.3	0.00e+00	0	25	0	2924478464	55	4381
2026-01-11 05:15:50.13	284.10	21.22	-45.3	-46.3	15.3	0.00e+00	0	25	0	2929721344	55	4383
2026-01-11 05:15:51.13	283.92	21.12	-45.2	-46.3	15.3	0.00e+00	0	25	0	2934964224	55	4377
2026-01-11 05:15:52.13	283.74	21.02	-45.3	-46.3	15.3	0.00e+00	0	26	0	2941255680	55	4391
2026-01-11 05:15:53.13	283.56	20.92	-45.2	-46.3	15.3	0.00e+00	0	26	0	2946498560	55	4388
2026-01-11 05:15:54.13	283.39	20.83	-45.3	-46.4	15.2	0.00e+00	0	25	0	2952790016	55	4417
2026-01-11 05:15:55.13	283.21	20.73	-45.3	-46.4	15.3	0.00e+00	0	25	0	2958032896	55	4425
2026-01-11 05:15:56.14	283.04	20.63	-45.6	-46.7	15.3	0.00e+00	0	25	0	2964324352	56	4315
2026-01-11 05:15:57.13	282.87	20.53	-45.7	-46.8	15.2	0.00e+00	0	25	0	2969567232	56	4351
2026-01-11 05:15:58.13	282.70	20.43	-45.6	-46.7	15.2	0.00e+00	0	25	0	2974810112	56	4332
2026-01-11 05:15:59.13	282.53	20.33	-45.7	-46.8	15.2	0.00e+00	0	25	0	2980052992	56	4358
2026-01-11 05:16:00.14	282.36	20.23	-45.9	-47.0	15.2	0.00e+00	0	25	0	2986344448	56	4448
2026-01-11 05:16:01.13	282.19	20.14	-45.7	-46.9	15.2	0.00e+00	0	25	0	2991587328	56	4393
2026-01-11 05:16:02.13	282.02	20.04	-45.9	-47.0	15.2	0.00e+00	0	25	0	2996830208	56	4472
2026-01-11 05:16:03.12	281.86	19.94	-45.8	-46.9	15.2	0.00e+00	0	26	0	3003121664	56	4417
2026-01-11 05:16:04.12	281.69	19.84	-45.8	-46.9	15.2	0.00e+00	0	25	0	3008364544	56	4434
2026-01-11 05:16:05.12	281.53	19.74	-45.7	-46.8	15.2	0.00e+00	0	25	0	3014656000	56	4376
2026-01-11 05:16:06.12	281.37	19.65	-45.6	-46.7	15.2	0.00e+00	0	25	0	3019898880	56	4329
2026-01-11 05:16:07.12	281.21	19.55	-45.8	-46.9	15.2	0.00e+00	0	26	0	3025141760	56	4415
2026-01-11 05:16:08.12	281.05	19.45	-45.9	-47.0	15.2	0.00e+00	0	26	0	3031433216	56	4453
2026-01-11 05:16:09.12	280.89	19.35	-45.9	-47.0	15.2	0.00e+00	0	25	0	3036676096	57	4241
2026-01-11 05:16:10.11	280.73	19.26	-45.9	-47.0	15.3	0.00e+00	0	25	0	3041918976	57	4210
2026-01-11 05:16:11.10	280.57	19.16	-46.0	-47.1	15.2	0.00e+00	0	25	0	3048210432	57	4267
2026-01-11 05:16:12.09	280.42	19.07	-46.0	-47.1	15.2	0.00e+00	0	25	0	3053453312	57	4274
2026-01-11 05:16:13.09	280.26	18.97	-46.0	-47.1	15.2	0.00e+00	0	25	0	3058696192	57	4251
2026-01-11 05:16:14.09	280.11	18.87	-46.1	-47.2	15.2	0.00e+00	0	25	0	3064987648	57	4300
2026-01-11 05:16:15.09	279.96	18.78	-46.1	-47.2	15.2	0.00e+00	0	26	0	3070230528	57	4325
2026-01-11 05:16:16.09	279.80	18.68	-46.0	-47.2	15.2	0.00e+00	0	25	0	3076521984	57	4299
2026-01-11 05:16:17.09	279.65	18.59	-46.2	-47.3	15.2	0.00e+00	0	25	0	3081764864	57	4382
2026-01-11 05:16:18.09	279.50	18.49	-46.2	-47.3	15.2	0.00e+00	0	25	0	3087007744	57	4369
2026-01-11 05:16:19.09	279.35	18.39	-46.2	-47.3	15.2	0.00e+00	0	25	0	3093299200	57	4373
2026-01-11 05:16:20.09	279.20	18.30	-46.3	-47.4	15.2	0.00e+00	0	25	0	3098542080	57	4416
2026-01-11 05:16:21.10	279.05	18.20	-46.3	-47.4	15.1	0.00e+00	0	25	0	3103784960	57	4421
2026-01-11 05:16:22.10	278.91	18.11	-46.3	-47.4	15.1	0.00e+00	0	26	0	3110076416	57	4407
2026-01-11 05:16:23.10	278.76	18.01	-46.2	-47.4	15.2	0.00e+00	0	25	0	3115319296	57	4401
2026-01-11 05:16:24.11	278.62	17.92	-46.3	-47.4	15.1	0.00e+00	0	26	0	3120562176	57	4430
2026-01-11 05:16:25.10	278.47	17.82	-46.2	-47.3	15.2	0.00e+00	0	25	0	3126853632	57	4378
2026-01-11 05:16:26.10	278.33	17.73	-46.2	-47.4	15.2	0.00e+00	0	25	0	3132096512	57	4405
2026-01-11 05:16:27.10	278.19	17.63	-46.4	-47.5	15.1	0.00e+00	0	25	0	3138387968	57	4460
2026-01-11 05:16:28.10	278.05	17.54	-46.4	-47.6	15.1	0.00e+00	0	26	0	3143630848	57	4506
2026-01-11 05:16:29.10	277.91	17.45	-46.5	-47.7	15.2	0.00e+00	0	26	0	3148873728	58	4294
2026-01-11 05:16:30.10	277.77	17.35	-46.6	-47.8	15.1	0.00e+00	0	26	0	3155165184	58	4347
2026-01-11 05:16:31.10	277.63	17.26	-46.6	-47.8	15.1	0.00e+00	0	25	0	3160408064	58	4352
2026-01-11 05:16:32.10	277.49	17.17	-46.7	-47.8	15.1	0.00e+00	0	26	0	3165650944	58	4390
2026-01-11 05:16:33.10	277.35	17.07	-46.7	-47.9	15.1	0.00e+00	0	26	0	3171942400	58	4393
2026-01-11 05:16:34.09	277.22	16.98	-46.6	-47.8	15.1	0.00e+00	0	25	0	3177185280	58	4347
2026-01-11 05:16:35.09	277.08	16.89	-46.6	-47.8	15.1	0.00e+00	0	26	0	3182428160	58	4364
2026-01-11 05:16:36.09	276.95	16.80	-46.6	-47.8	15.1	0.00e+00	0	26	0	3188719616	58	4349
2026-01-11 05:16:37.08	276.82	16.70	-46.7	-47.9	15.1	0.00e+00	0	25	0	3193962496	58	4419
2026-01-11 05:16:38.07	276.69	16.61	-46.8	-48.0	15.0	0.00e+00	0	26	0	3199205376	58	4476
2026-01-11 05:16:39.06	276.56	16.52	-46.9	-48.0	15.0	0.00e+00	0	25	0	3205496832	58	4489
2026-01-11 05:16:40.06	276.43	16.43	-47.0	-48.2	15.1	0.00e+00	0	26	0	3210739712	59	4298
2026-01-11 05:16:41.06	276.30	16.34	-47.1	-48.2	15.1	0.00e+00	0	25	0	3215982592	59	4338
2026-01-11 05:16:42.06	276.17	16.25	-47.2	-48.4	15.0	0.00e+00	0	25	0	3222274048	59	4431
2026-01-11 05:16:43.05	276.04	16.16	-47.0	-48.2	15.1	0.00e+00	0	25	0	3227516928	59	4323
2026-01-11 05:16:44.05	275.91	16.06	-46.9	-48.1	15.1	0.00e+00	0	25	0	3232759808	59	4257
2026-01-11 05:16:45.05	275.78	15.97	-47.0	-48.2	15.1	0.00e+00	0	25	0	3239051264	59	4300
2026-01-11 05:16:46.05	275.66	15.88	-47.0	-48.2	15.1	0.00e+00	0	26	0	3244294144	59	4327
2026-01-11 05:16:47.05	275.53	15.79	-47.0	-48.1	15.1	0.00e+00	0	26	0	3250585600	59	4287
2026-01-11 05:16:48.05	275.41	15.70	-47.1	-48.2	15.1	0.00e+00	0	26	0	3255828480	59	4339
2026-01-11 05:16:49.04	275.29	15.61	-46.9	-48.1	15.1	0.00e+00	0	26	0	3261071360	59	4254
2026-01-11 05:16:50.04	275.16	15.52	-47.0	-48.2	15.1	0.00e+00	0	26	0	3267362816	59	4313
2026-01-11 05:16:51.04	275.04	15.43	-47.1	-48.3	15.0	0.00e+00	0	26	0	3272605696	59	4363
2026-01-11 05:16:52.03	274.92	15.34	-47.2	-48.4	15.0	0.00e+00	0	26	0	3277848576	59	4411
2026-01-11 05:16:53.03	274.80	15.26	-47.2	-48.4	15.0	0.00e+00	0	26	0	3283091456	59	4399
2026-01-11 05:16:54.03	274.68	15.17	-47.2	-48.4	15.0	0.00e+00	0	26	0	3289382912	59	4403
2026-01-11 05:16:55.03	274.56	15.08	-47.1	-48.3	15.0	0.00e+00	0	26	0	3294625792	59	4383
2026-01-11 05:16:56.03	274.44	14.99	-47.2	-48.4	15.0	0.00e+00	0	25	0	3300917248	59	4407
2026-01-11 05:16:57.03	274.32	14.90	-47.2	-48.4	15.0	0.00e+00	0	26	0	3306160128	59	4440
2026-01-11 05:16:58.03	274.21	14.81	-47.4	-48.6	15.0	0.00e+00	0	25	0	3311403008	59	4502
2026-01-11 05:16:59.03	274.09	14.72	-47.3	-48.5	15.0	0.00e+00	0	26	0	3317694464	59	4477
2026-01-11 05:17:00.02	273.97	14.64	-47.3	-48.5	15.0	0.00e+00	0	25	0	3322937344	59	4461
2026-01-11 05:17:01.03	273.86	14.55	-47.3	-48.5	15.0	0.00e+00	0	26	0	3328180224	59	4449
2026-01-11 05:17:02.03	273.74	14.46	-47.4	-48.6	14.9	0.00e+00	0	25	0	3334471680	59	4525
2026-01-11 05:17:03.03	273.63	14.37	-47.1	-48.3	15.1	0.00e+00	0	25	0	3339714560	60	4131
2026-01-11 05:17:04.03	273.52	14.29	-47.1	-48.2	15.1	0.00e+00	0	26	0	3344957440	60	4092
2026-01-11 05:17:05.03	273.40	14.20	-47.0	-48.2	15.1	0.00e+00	0	26	0	3351248896	60	4079
2026-01-11 05:17:06.03	273.29	14.11	-47.1	-48.3	15.1	0.00e+00	0	26	0	3356491776	60	4115
2026-01-11 05:17:07.04	273.18	14.02	-47.3	-48.5	15.0	0.00e+00	0	26	0	3362783232	60	4200
2026-01-11 05:17:08.03	273.07	13.94	-47.2	-48.3	15.1	0.00e+00	0	26	0	3368026112	60	4139
2026-01-11 05:17:09.03	272.96	13.85	-47.2	-48.4	15.1	0.00e+00	0	25	0	3373268992	60	4150
2026-01-11 05:17:10.03	272.85	13.77	-47.3	-48.5	15.0	0.00e+00	0	25	0	3379560448	60	4203
2026-01-11 05:17:11.03	272.74	13.68	-47.4	-48.5	15.0	0.00e+00	0	25	0	3384803328	60	4241
2026-01-11 05:17:12.03	272.64	13.60	-47.3	-48.4	15.0	0.00e+00	0	25	0	3390046208	60	4192
2026-01-11 05:17:13.03	272.53	13.51	-47.3	-48.5	15.0	0.00e+00	0	26	0	3396337664	60	4229
2026-01-11 05:17:14.04	272.42	13.42	-47.3	-48.5	15.0	0.00e+00	0	25	0	3401580544	60	4200
2026-01-11 05:17:15.04	272.32	13.34	-47.2	-48.4	15.1	0.00e+00	0	26	0	3407872000	60	4164
2026-01-11 05:17:16.05	272.21	13.25	-47.2	-48.4	15.0	0.00e+00	0	26	0	3413114880	60	4180
2026-01-11 05:17:17.04	272.11	13.17	-47.3	-48.5	15.0	0.00e+00	0	26	0	3418357760	60	4219
2026-01-11 05:17:18.05	272.00	13.08	-47.3	-48.5	15.0	0.00e+00	0	26	0	3424649216	60	4236
2026-01-11 05:17:19.05	271.90	13.00	-47.4	-48.6	15.0	0.00e+00	0	26	0	3429892096	60	4277
2026-01-11 05:17:20.05	271.79	12.92	-47.4	-48.6	15.0	0.00e+00	0	26	0	3436183552	60	4265
2026-01-11 05:17:21.05	271.69	12.83	-47.5	-48.7	14.9	0.00e+00	0	26	0	3441426432	60	4316
2026-01-11 05:17:22.05	271.59	12.75	-47.4	-48.6	14.9	0.00e+00	0	26	0	3446669312	60	4284
2026-01-11 05:17:23.05	271.49	12.67	-47.5	-48.7	14.9	0.00e+00	0	26	0	3452960768	60	4312
2026-01-11 05:17:24.05	271.39	12.58	-47.4	-48.7	15.0	0.00e+00	0	25	0	3458203648	60	4296
2026-01-11 05:17:25.05	271.29	12.50	-47.4	-48.7	14.9	0.00e+00	0	26	0	3463446528	60	4292
2026-01-11 05:17:26.05	271.19	12.42	-47.4	-48.6	15.0	0.00e+00	0	26	0	3469737984	60	4257
2026-01-11 05:17:27.06	271.09	12.33	-47.4	-48.6	15.0	0.00e+00	0	26	0	3474980864	60	4273
2026-01-11 05:17:28.06	270.99	12.25	-47.4	-48.6	15.0	0.00e+00	0	26	0	3480223744	60	4265
2026-01-11 05:17:29.06	270.89	12.17	-47.4	-48.6	15.0	0.00e+00	0	25	0	3486515200	60	4276
2026-01-11 05:17:30.06	270.80	12.09	-47.4	-48.6	14.9	0.00e+00	0	26	0	3491758080	60	4287
2026-01-11 05:17:31.07	270.70	12.00	-47.4	-48.6	14.9	0.00e+00	0	25	0	3498049536	60	4269
2026-01-11 05:17:32.06	270.61	11.92	-47.3	-48.5	15.0	0.00e+00	0	26	0	3503292416	60	4238
2026-01-11 05:17:33.06	270.51	11.84	-47.4	-48.6	14.9	0.00e+00	0	26	0	3508535296	60	4287
2026-01-11 05:17:34.05	270.42	11.76	-47.4	-48.6	15.0	0.00e+00	0	26	0	3514826752	60	4252
2026-01-11 05:17:35.05	270.32	11.68	-47.5	-48.7	14.9	0.00e+00	0	26	0	3520069632	60	4315
2026-01-11 05:17:36.05	270.23	11.60	-47.5	-48.7	14.9	0.00e+00	0	26	0	3525312512	60	4331
2026-01-11 05:17:37.05	270.14	11.52	-47.5	-48.8	14.9	0.00e+00	0	26	0	3531603968	60	4357
2026-01-11 05:17:38.05	270.04	11.44	-47.6	-48.9	14.9	0.00e+00	0	26	0	3536846848	60	4394
2026-01-11 05:17:39.04	269.95	11.36	-47.8	-49.0	14.8	0.00e+00	0	26	0	3542089728	60	4477
2026-01-11 05:17:40.04	269.86	11.28	-47.9	-49.1	14.7	0.00e+00	0	26	0	3548381184	60	4540
2026-01-11 05:17:41.04	269.77	11.20	-47.8	-49.1	14.7	0.00e+00	0	26	0	3553624064	60	4531
2026-01-11 05:17:42.04	269.68	11.12	-47.9	-49.2	14.7	0.00e+00	0	25	0	3558866944	60	4567
2026-01-11 05:17:43.04	269.59	11.04	-48.0	-49.3	14.8	0.00e+00	0	25	0	3565158400	61	4383
2026-01-11 05:17:44.04	269.50	10.96	-48.1	-49.4	14.7	0.00e+00	0	26	0	3570401280	61	4392
2026-01-11 05:17:45.04	269.41	10.88	-48.0	-49.3	14.8	0.00e+00	0	25	0	3576692736	61	4343
2026-01-11 05:17:46.04	269.32	10.80	-48.0	-49.3	14.7	0.00e+00	0	26	0	3581935616	61	4369
2026-01-11 05:17:47.04	269.23	10.72	-48.3	-49.6	14.6	0.00e+00	0	25	0	3587178496	61	4504
2026-01-11 05:17:48.03	269.15	10.64	-48.5	-49.8	14.6	0.00e+00	0	25	0	3592421376	62	4382
2026-01-11 05:17:49.02	269.06	10.57	-48.5	-49.9	14.6	0.00e+00	0	26	0	3598712832	62	4405
2026-01-11 05:17:50.03	268.97	10.49	-48.9	-50.3	14.4	0.00e+00	0	26	0	3603955712	62	4621
2026-01-11 05:17:51.04	268.88	10.41	-49.4	-50.8	14.2	0.00e+00	0	26	0	3610247168	63	4646
2026-01-11 05:17:52.02	268.80	10.33	-49.8	-51.3	14.0	0.00e+00	0	25	0	3615490048	64	4629
2026-01-11 05:17:53.02	268.72	10.25	-50.2	-51.9	13.8	0.00e+00	0	26	0	3620732928	65	4663
2026-01-11 05:17:54.03	268.63	10.18	-50.7	-52.4	13.6	0.00e+00	0	26	0	3627024384	66	4683
2026-01-11 05:17:55.03	268.55	10.10	-50.9	-52.8	13.5	0.00e+00	0	26	0	3632267264	67	4600
