passes_logs/2026/01/11/R3.2S_Murmansk/R3.2S_Murmansk__20260111_014559_FENGYUN_3D_rec.log

#Pass ID: 20260111_014559_FENGYUN 3D
#Satellite: FENGYUN 3D
#Configuration: FENGYUN 3D
#almurnet v.1.7.20251203
#Start time: 2026-01-11 01:46:00

#Version: 2.2.20231116
#Station: R3.2S_Murmansk
#Location: 33.079688 lon 68.888172 lat
#TLE: 1 43010U 17072A   26009.92921666 -.00000228  00000+0 -86059-4 0  9998
#TLE: 2 43010  98.9936 341.6668 0002176 116.7510 243.3888 14.19693142422537

#Time	Az	El	Level	Level2	SNR	BER	BlckErr	Temp	State	Recorded	gain1	gain2
2026-01-11 01:46:00.07	21.97	2.05	-53.3	-66.3	3.8	8.45e-01	0	24	0	0	71	17307
2026-01-11 01:46:01.07	22.01	2.11	-53.4	-66.3	3.8	8.46e-01	0	24	104	0	71	17386
2026-01-11 01:46:02.08	22.04	2.17	-53.4	-66.3	3.8	8.46e-01	0	24	104	0	71	17413
2026-01-11 01:46:03.07	22.07	2.23	-53.4	-66.3	3.8	8.46e-01	0	24	104	0	71	17408
2026-01-11 01:46:04.08	22.10	2.30	-53.4	-66.3	3.8	8.45e-01	0	24	104	0	71	17382
2026-01-11 01:46:05.08	22.14	2.36	-53.4	-66.3	3.8	8.47e-01	0	24	104	0	71	17371
2026-01-11 01:46:06.08	22.17	2.42	-53.4	-66.3	3.8	8.46e-01	0	24	104	0	71	17323
2026-01-11 01:46:07.09	22.20	2.49	-53.4	-66.4	3.8	8.46e-01	0	24	104	0	71	17489
2026-01-11 01:46:08.09	22.23	2.55	-53.4	-66.3	3.8	8.44e-01	0	24	104	0	71	17394
2026-01-11 01:46:09.10	22.27	2.61	-53.4	-66.3	3.8	8.46e-01	0	24	104	0	71	17445
2026-01-11 01:46:10.10	22.30	2.68	-53.4	-66.3	3.8	8.45e-01	0	24	104	0	71	17431
2026-01-11 01:46:11.09	22.33	2.74	-53.4	-66.3	3.8	8.45e-01	0	24	104	0	71	17465
2026-01-11 01:46:12.09	22.37	2.80	-53.4	-66.3	3.8	8.45e-01	0	25	104	0	71	17421
2026-01-11 01:46:13.09	22.40	2.87	-53.4	-66.3	3.8	8.46e-01	0	25	104	0	71	17373
2026-01-11 01:46:14.09	22.43	2.93	-53.4	-66.3	3.8	8.46e-01	0	25	104	0	71	17463
2026-01-11 01:46:15.10	22.47	3.00	-53.4	-66.3	3.8	8.44e-01	0	25	104	0	71	17374
2026-01-11 01:46:16.09	22.50	3.06	-53.4	-66.3	3.8	8.46e-01	0	25	104	0	71	17413
2026-01-11 01:46:17.10	22.53	3.12	-53.5	-66.3	3.8	8.45e-01	0	25	104	0	72	16480
2026-01-11 01:46:18.10	22.57	3.19	-53.4	-66.3	3.8	8.45e-01	0	25	104	0	72	16406
2026-01-11 01:46:19.10	22.60	3.25	-53.4	-66.3	3.8	8.44e-01	0	25	104	0	72	16450
2026-01-11 01:46:20.10	22.64	3.32	-53.5	-66.4	3.8	8.46e-01	0	25	104	0	72	16535
2026-01-11 01:46:21.10	22.67	3.38	-53.5	-66.4	3.8	8.46e-01	0	25	104	0	72	16516
2026-01-11 01:46:22.09	22.70	3.45	-53.5	-66.4	3.8	8.46e-01	0	25	104	0	72	16536
2026-01-11 01:46:23.09	22.74	3.51	-53.5	-66.4	3.8	8.45e-01	0	25	104	0	72	16553
2026-01-11 01:46:24.08	22.77	3.58	-53.5	-66.4	3.8	8.45e-01	0	25	104	0	72	16541
2026-01-11 01:46:25.09	22.81	3.64	-53.5	-66.4	3.8	8.44e-01	0	25	104	0	72	16537
2026-01-11 01:46:26.09	22.84	3.71	-53.5	-66.4	3.8	8.44e-01	0	25	104	0	72	16526
2026-01-11 01:46:27.09	22.88	3.78	-53.5	-66.4	3.8	8.46e-01	0	25	104	0	72	16531
2026-01-11 01:46:28.08	22.91	3.84	-53.5	-66.4	3.8	8.45e-01	0	25	104	0	72	16512
2026-01-11 01:46:29.09	22.95	3.91	-53.5	-66.4	3.8	8.45e-01	0	25	104	0	72	16530
2026-01-11 01:46:30.09	22.99	3.97	-53.5	-66.4	3.8	8.45e-01	0	25	104	0	72	16575
2026-01-11 01:46:31.09	23.02	4.04	-53.5	-66.4	3.8	8.45e-01	0	25	104	0	72	16586
2026-01-11 01:46:32.09	23.06	4.11	-53.5	-66.4	3.8	8.46e-01	0	25	104	0	72	16549
2026-01-11 01:46:33.09	23.09	4.17	-53.5	-66.4	3.8	8.45e-01	0	25	104	0	72	16600
2026-01-11 01:46:34.10	23.13	4.24	-53.5	-66.4	3.8	8.45e-01	0	25	104	0	72	16611
2026-01-11 01:46:35.10	23.17	4.31	-53.5	-66.4	3.8	8.46e-01	0	25	104	0	72	16645
2026-01-11 01:46:36.09	23.20	4.37	-53.5	-66.4	3.8	8.46e-01	0	25	104	0	72	16668
2026-01-11 01:46:37.09	23.24	4.44	-53.5	-66.4	3.8	8.45e-01	0	25	104	0	72	16659
2026-01-11 01:46:38.09	23.28	4.51	-53.5	-66.4	3.8	8.45e-01	0	25	104	0	72	16652
2026-01-11 01:46:39.09	23.31	4.58	-53.5	-66.5	3.8	8.46e-01	0	25	104	0	72	16706
2026-01-11 01:46:40.10	23.35	4.65	-53.5	-66.4	3.8	8.47e-01	0	25	104	0	72	16616
2026-01-11 01:46:41.10	23.39	4.71	-53.5	-66.4	3.8	8.46e-01	0	25	104	0	72	16661
2026-01-11 01:46:42.11	23.42	4.78	-53.5	-66.4	3.8	8.46e-01	0	25	104	0	72	16642
2026-01-11 01:46:43.11	23.46	4.85	-53.5	-66.4	3.8	8.46e-01	0	25	104	0	72	16642
2026-01-11 01:46:44.11	23.50	4.92	-53.5	-66.5	3.8	8.45e-01	0	25	104	0	72	16722
2026-01-11 01:46:45.11	23.54	4.99	-53.5	-66.4	3.8	8.45e-01	0	25	104	0	72	16690
2026-01-11 01:46:46.11	23.58	5.06	-53.5	-66.4	3.8	8.45e-01	0	25	104	0	72	16678
2026-01-11 01:46:47.12	23.61	5.13	-53.5	-66.4	3.8	8.47e-01	0	25	104	0	72	16681
2026-01-11 01:46:48.13	23.65	5.20	-53.5	-66.4	3.8	8.45e-01	0	25	104	0	72	16673
2026-01-11 01:46:49.12	23.69	5.27	-53.5	-66.4	3.8	8.45e-01	0	26	104	0	72	16585
2026-01-11 01:46:50.12	23.73	5.34	-53.5	-66.4	3.8	8.46e-01	0	25	104	0	72	16685
2026-01-11 01:46:51.13	23.77	5.41	-53.5	-66.4	3.8	8.46e-01	0	25	104	0	72	16630
2026-01-11 01:46:52.12	23.81	5.48	-53.5	-66.5	3.8	8.45e-01	0	26	104	0	72	16712
2026-01-11 01:46:53.12	23.85	5.55	-53.5	-66.4	3.8	8.45e-01	0	25	104	0	72	16680
2026-01-11 01:46:54.12	23.89	5.62	-53.5	-66.4	3.8	8.46e-01	0	26	104	0	72	16645
2026-01-11 01:46:55.12	23.92	5.69	-53.5	-66.4	3.8	8.46e-01	0	25	104	0	72	16636
2026-01-11 01:46:56.11	23.96	5.76	-53.5	-66.4	3.8	8.47e-01	0	25	104	0	72	16637
2026-01-11 01:46:57.11	24.00	5.83	-53.5	-66.5	3.8	8.44e-01	0	25	104	0	72	16704
2026-01-11 01:46:58.12	24.04	5.90	-53.5	-66.4	3.8	8.45e-01	0	26	104	0	72	16663
2026-01-11 01:46:59.12	24.08	5.97	-53.5	-66.4	3.8	8.45e-01	0	26	104	0	72	16659
2026-01-11 01:47:00.12	24.12	6.04	-53.5	-66.4	3.8	8.47e-01	0	26	104	0	72	16645
2026-01-11 01:47:01.12	24.16	6.11	-53.5	-66.5	3.8	8.45e-01	0	26	104	0	72	16713
2026-01-11 01:47:02.13	24.21	6.19	-53.5	-66.4	3.8	8.45e-01	0	26	104	0	72	16682
2026-01-11 01:47:03.13	24.25	6.26	-53.5	-66.5	3.8	8.46e-01	0	26	104	0	72	16706
2026-01-11 01:47:04.11	24.29	6.33	-53.5	-66.4	3.8	8.46e-01	0	26	104	0	72	16684
2026-01-11 01:47:05.11	24.33	6.40	-53.5	-66.5	3.8	8.46e-01	0	26	104	0	72	16744
2026-01-11 01:47:06.11	24.37	6.47	-53.5	-66.5	3.8	8.45e-01	0	26	104	0	72	16701
2026-01-11 01:47:07.11	24.41	6.55	-53.5	-66.5	3.8	8.46e-01	0	26	104	0	72	16717
2026-01-11 01:47:08.11	24.45	6.62	-53.5	-66.5	3.8	8.44e-01	0	26	104	0	72	16746
2026-01-11 01:47:09.12	24.49	6.69	-53.6	-66.5	3.8	8.46e-01	0	26	104	0	72	16740
2026-01-11 01:47:10.12	24.54	6.77	-53.5	-66.5	3.8	8.46e-01	0	26	104	0	72	16761
2026-01-11 01:47:11.12	24.58	6.84	-53.5	-66.5	3.8	8.46e-01	0	26	104	0	72	16744
2026-01-11 01:47:12.12	24.62	6.91	-53.5	-66.5	3.8	8.45e-01	0	26	104	0	72	16776
2026-01-11 01:47:13.13	24.66	6.99	-53.5	-66.5	3.8	8.47e-01	0	26	104	0	72	16769
2026-01-11 01:47:14.13	24.71	7.06	-53.5	-66.5	3.8	8.45e-01	0	26	104	0	72	16717
2026-01-11 01:47:15.14	24.75	7.14	-53.5	-66.5	3.8	8.46e-01	0	26	104	0	72	16739
2026-01-11 01:47:16.14	24.79	7.21	-53.5	-66.5	3.8	8.45e-01	0	26	104	0	72	16788
2026-01-11 01:47:17.14	24.84	7.29	-53.6	-66.5	3.8	8.45e-01	0	26	104	0	72	16763
2026-01-11 01:47:18.14	24.88	7.36	-53.5	-66.5	3.8	8.47e-01	0	26	104	0	72	16725
2026-01-11 01:47:19.13	24.92	7.44	-53.5	-66.5	3.8	8.46e-01	0	26	104	0	72	16782
2026-01-11 01:47:20.14	24.97	7.51	-53.6	-66.5	3.8	8.47e-01	0	26	104	0	72	16748
2026-01-11 01:47:21.14	25.01	7.59	-53.5	-66.5	3.8	8.45e-01	0	26	104	0	72	16750
2026-01-11 01:47:22.13	25.06	7.66	-53.5	-66.5	3.8	8.46e-01	0	26	104	0	72	16746
2026-01-11 01:47:23.13	25.10	7.74	-53.5	-66.5	3.8	8.45e-01	0	26	104	0	72	16765
2026-01-11 01:47:24.13	25.15	7.82	-53.5	-66.5	3.8	8.45e-01	0	26	104	0	72	16734
2026-01-11 01:47:25.13	25.19	7.89	-53.6	-66.5	3.8	8.46e-01	0	26	104	0	72	16788
2026-01-11 01:47:26.13	25.24	7.97	-53.6	-66.5	3.8	8.45e-01	0	26	104	0	72	16791
2026-01-11 01:47:27.13	25.28	8.05	-53.5	-66.5	3.8	8.44e-01	0	26	104	0	72	16771
2026-01-11 01:47:28.12	25.33	8.12	-53.6	-66.5	3.8	8.45e-01	0	26	104	0	72	16811
2026-01-11 01:47:29.12	25.37	8.20	-53.6	-66.5	3.8	8.46e-01	0	26	104	0	72	16782
2026-01-11 01:47:30.13	25.42	8.28	-53.6	-66.5	3.8	8.46e-01	0	26	104	0	72	16750
2026-01-11 01:47:31.13	25.47	8.36	-53.6	-66.5	3.8	8.45e-01	0	26	104	0	72	16774
2026-01-11 01:47:32.12	25.51	8.43	-53.6	-66.5	3.8	8.45e-01	0	26	104	0	72	16800
2026-01-11 01:47:33.13	25.56	8.51	-53.5	-66.5	3.8	8.46e-01	0	26	104	0	72	16777
2026-01-11 01:47:34.13	25.61	8.59	-53.6	-66.5	3.8	8.45e-01	0	26	104	0	72	16750
2026-01-11 01:47:35.13	25.65	8.67	-53.6	-66.5	3.8	8.46e-01	0	26	104	0	72	16786
2026-01-11 01:47:36.13	25.70	8.75	-53.6	-66.5	3.8	8.45e-01	0	26	104	0	72	16745
2026-01-11 01:47:37.13	25.75	8.83	-53.5	-66.5	3.8	8.46e-01	0	26	104	0	72	16748
2026-01-11 01:47:38.12	25.80	8.91	-53.6	-66.5	3.8	8.46e-01	0	26	104	0	72	16799
2026-01-11 01:47:39.13	25.85	8.99	-53.6	-66.5	3.8	8.46e-01	0	26	104	0	72	16752
2026-01-11 01:47:40.13	25.89	9.07	-53.6	-66.5	3.8	8.46e-01	0	26	104	0	72	16757
2026-01-11 01:47:41.13	25.94	9.15	-53.6	-66.5	3.8	8.46e-01	0	26	104	0	72	16763
2026-01-11 01:47:42.14	25.99	9.23	-53.6	-66.5	3.8	8.45e-01	0	26	104	0	72	16774
2026-01-11 01:47:43.13	26.04	9.31	-53.6	-66.5	3.8	8.46e-01	0	26	104	0	72	16763
2026-01-11 01:47:44.14	26.09	9.39	-53.6	-66.5	3.8	8.44e-01	0	26	104	0	72	16754
2026-01-11 01:47:45.14	26.14	9.47	-53.6	-66.5	3.8	8.45e-01	0	26	104	0	72	16712
2026-01-11 01:47:46.15	26.19	9.55	-53.6	-66.5	3.8	8.45e-01	0	26	104	0	72	16779
2026-01-11 01:47:47.15	26.24	9.64	-53.6	-66.5	3.8	8.46e-01	0	26	104	0	72	16712
2026-01-11 01:47:48.15	26.29	9.72	-53.6	-66.5	3.8	8.45e-01	0	26	104	0	72	16736
2026-01-11 01:47:49.16	26.34	9.80	-53.6	-66.5	3.8	8.45e-01	0	26	104	0	72	16791
2026-01-11 01:47:50.16	26.39	9.88	-53.6	-66.5	3.8	8.46e-01	0	26	104	0	72	16710
2026-01-11 01:47:51.16	26.45	9.97	-53.6	-66.5	3.8	8.46e-01	0	26	104	0	72	16742
2026-01-11 01:47:52.16	26.50	10.05	-53.6	-66.5	3.8	8.45e-01	0	26	104	0	72	16733
2026-01-11 01:47:53.16	26.55	10.13	-53.6	-66.5	3.8	8.45e-01	0	26	104	0	72	16765
2026-01-11 01:47:54.15	26.60	10.21	-53.6	-66.5	3.8	8.46e-01	0	26	104	0	72	16816
2026-01-11 01:47:55.16	26.65	10.30	-53.6	-66.5	3.8	8.45e-01	0	26	104	0	72	16751
2026-01-11 01:47:56.16	26.71	10.38	-53.6	-66.5	3.8	8.44e-01	0	26	104	0	72	16822
2026-01-11 01:47:57.16	26.76	10.47	-53.6	-66.5	3.8	8.45e-01	0	26	104	0	72	16861
2026-01-11 01:47:58.16	26.81	10.55	-53.6	-66.5	3.8	8.45e-01	0	26	104	0	72	16767
2026-01-11 01:47:59.17	26.87	10.64	-53.6	-66.5	3.8	8.46e-01	0	27	104	0	72	16792
2026-01-11 01:48:00.17	26.92	10.72	-53.6	-66.5	3.8	8.46e-01	0	27	104	0	72	16802
2026-01-11 01:48:01.17	26.97	10.81	-53.6	-66.5	3.8	8.45e-01	0	27	104	0	72	16795
2026-01-11 01:48:02.17	27.03	10.89	-53.6	-66.5	3.8	8.45e-01	0	26	104	0	72	16815
2026-01-11 01:48:03.17	27.08	10.98	-53.6	-66.5	3.8	8.45e-01	0	26	104	0	72	16801
2026-01-11 01:48:04.17	27.14	11.07	-53.6	-66.5	3.8	8.46e-01	0	26	104	0	72	16800
2026-01-11 01:48:05.17	27.19	11.15	-53.6	-66.5	3.8	8.46e-01	0	26	104	0	72	16797
2026-01-11 01:48:06.18	27.25	11.24	-53.6	-66.5	3.8	8.45e-01	0	26	104	0	72	16779
2026-01-11 01:48:07.18	27.30	11.33	-53.6	-66.5	3.8	8.45e-01	0	26	104	0	72	16788
2026-01-11 01:48:08.17	27.36	11.41	-53.6	-66.5	3.8	8.47e-01	0	26	104	0	72	16818
2026-01-11 01:48:09.17	27.42	11.50	-53.6	-66.5	3.8	8.46e-01	0	26	104	0	72	16852
2026-01-11 01:48:10.17	27.47	11.59	-53.6	-66.5	3.8	8.46e-01	0	26	104	0	72	16820
2026-01-11 01:48:11.18	27.53	11.68	-53.6	-66.5	3.8	8.45e-01	0	26	104	0	72	16832
2026-01-11 01:48:12.19	27.59	11.77	-53.6	-66.5	3.8	8.45e-01	0	26	104	0	72	16841
2026-01-11 01:48:13.19	27.65	11.86	-53.6	-66.5	3.8	8.45e-01	0	26	104	0	72	16822
2026-01-11 01:48:14.19	27.70	11.94	-53.6	-66.5	3.8	8.46e-01	0	27	104	0	72	16873
2026-01-11 01:48:15.19	27.76	12.03	-53.6	-66.5	3.8	8.46e-01	0	26	104	0	72	16808
2026-01-11 01:48:16.19	27.82	12.12	-53.6	-66.5	3.8	8.46e-01	0	27	104	0	72	16850
2026-01-11 01:48:17.19	27.88	12.21	-53.6	-66.5	3.8	8.46e-01	0	26	104	0	72	16864
2026-01-11 01:48:18.20	27.94	12.31	-53.6	-66.5	3.8	8.47e-01	0	26	104	0	72	16792
2026-01-11 01:48:19.20	28.00	12.40	-53.6	-66.5	3.8	8.46e-01	0	26	104	0	72	16836
2026-01-11 01:48:20.20	28.06	12.49	-53.6	-66.5	3.8	8.45e-01	0	27	104	0	72	16785
2026-01-11 01:48:21.21	28.12	12.58	-53.6	-66.5	3.8	8.46e-01	0	26	104	0	72	16809
2026-01-11 01:48:22.21	28.18	12.67	-53.6	-66.5	3.8	8.46e-01	0	26	104	0	72	16873
2026-01-11 01:48:23.21	28.24	12.76	-53.6	-66.6	3.8	8.45e-01	0	27	104	0	72	16944
2026-01-11 01:48:24.20	28.30	12.85	-53.6	-66.5	3.8	8.47e-01	0	27	104	0	72	16877
2026-01-11 01:48:25.20	28.36	12.95	-53.6	-66.6	3.8	8.46e-01	0	27	104	0	72	16898
2026-01-11 01:48:26.19	28.43	13.04	-53.6	-66.5	3.8	8.45e-01	0	26	104	0	72	16839
2026-01-11 01:48:27.20	28.49	13.13	-53.6	-66.5	3.8	8.47e-01	0	26	104	0	72	16819
2026-01-11 01:48:28.19	28.55	13.23	-53.6	-66.5	3.8	8.45e-01	0	26	104	0	72	16828
2026-01-11 01:48:29.19	28.61	13.32	-53.6	-66.5	3.8	8.46e-01	0	27	104	0	72	16808
2026-01-11 01:48:30.19	28.68	13.41	-53.6	-66.5	3.8	8.46e-01	0	26	104	0	72	16859
2026-01-11 01:48:31.19	28.74	13.51	-53.6	-66.5	3.8	8.46e-01	0	26	104	0	72	16841
2026-01-11 01:48:32.18	28.81	13.60	-53.6	-66.5	3.8	8.46e-01	0	26	104	0	72	16846
2026-01-11 01:48:33.18	28.87	13.70	-53.6	-66.5	3.8	8.47e-01	0	26	104	0	72	16835
2026-01-11 01:48:34.18	28.94	13.79	-53.6	-66.5	3.8	8.45e-01	0	26	104	0	72	16886
2026-01-11 01:48:35.18	29.00	13.89	-53.6	-66.5	3.8	8.45e-01	0	27	104	0	72	16869
2026-01-11 01:48:36.17	29.07	13.98	-53.6	-66.5	3.8	8.46e-01	0	26	104	0	72	16886
2026-01-11 01:48:37.17	29.13	14.08	-53.6	-66.5	3.8	8.46e-01	0	27	104	0	72	16876
2026-01-11 01:48:38.17	29.20	14.18	-53.6	-66.6	3.8	8.45e-01	0	27	104	0	72	16904
2026-01-11 01:48:39.18	29.27	14.28	-53.6	-66.5	3.8	8.46e-01	0	27	104	0	72	16876
2026-01-11 01:48:40.18	29.33	14.37	-53.6	-66.6	3.8	8.45e-01	0	27	104	0	72	16913
2026-01-11 01:48:41.18	29.40	14.47	-53.6	-66.6	3.8	8.45e-01	0	27	104	0	72	16893
2026-01-11 01:48:42.18	29.47	14.57	-53.6	-66.5	3.8	8.45e-01	0	27	104	0	72	16828
2026-01-11 01:48:43.19	29.54	14.67	-53.6	-66.5	3.8	8.46e-01	0	26	104	0	72	16882
2026-01-11 01:48:44.19	29.61	14.77	-53.6	-66.5	3.8	8.46e-01	0	27	104	0	72	16858
2026-01-11 01:48:45.19	29.68	14.87	-53.6	-66.6	3.8	8.44e-01	0	27	104	0	72	16953
2026-01-11 01:48:46.18	29.75	14.97	-53.6	-66.5	3.8	8.46e-01	0	27	104	0	72	16864
2026-01-11 01:48:47.19	29.82	15.07	-53.6	-66.6	3.8	8.46e-01	0	27	104	0	72	16923
2026-01-11 01:48:48.20	29.89	15.17	-53.6	-66.5	3.8	8.46e-01	0	26	104	0	72	16864
2026-01-11 01:48:49.20	29.96	15.27	-53.6	-66.5	3.8	8.46e-01	0	27	104	0	72	16854
2026-01-11 01:48:50.21	30.03	15.38	-53.6	-66.5	3.8	8.46e-01	0	26	104	0	72	16845
2026-01-11 01:48:51.21	30.11	15.48	-53.6	-66.5	3.8	8.45e-01	0	27	104	0	72	16869
2026-01-11 01:48:52.21	30.18	15.58	-53.6	-66.5	3.8	8.46e-01	0	27	104	0	72	16883
2026-01-11 01:48:53.20	30.25	15.68	-53.6	-66.5	3.8	8.45e-01	0	27	104	0	72	16826
2026-01-11 01:48:54.20	30.33	15.78	-53.6	-66.5	3.8	8.45e-01	0	26	104	0	72	16872
2026-01-11 01:48:55.20	30.40	15.89	-53.6	-66.5	3.8	8.44e-01	0	26	104	0	72	16841
2026-01-11 01:48:56.21	30.48	15.99	-53.6	-66.6	3.8	8.46e-01	0	27	104	0	72	16915
2026-01-11 01:48:57.22	30.55	16.10	-53.6	-66.5	3.8	8.45e-01	0	27	104	0	72	16884
2026-01-11 01:48:58.22	30.63	16.20	-53.6	-66.6	3.8	8.45e-01	0	27	104	0	72	16903
2026-01-11 01:48:59.22	30.70	16.31	-53.6	-66.6	3.8	8.45e-01	0	27	104	0	72	16900
2026-01-11 01:49:00.22	30.78	16.41	-53.6	-66.6	3.8	8.44e-01	0	27	104	0	72	16913
2026-01-11 01:49:01.22	30.86	16.52	-53.6	-66.5	3.8	8.45e-01	0	27	104	0	72	16860
2026-01-11 01:49:02.22	30.93	16.62	-53.6	-66.5	3.8	8.46e-01	0	27	104	0	72	16875
2026-01-11 01:49:03.22	31.01	16.73	-53.6	-66.6	3.8	8.44e-01	0	26	104	0	72	16924
2026-01-11 01:49:04.22	31.09	16.84	-53.6	-66.6	3.8	8.46e-01	0	27	104	0	72	16976
2026-01-11 01:49:05.22	31.17	16.95	-53.6	-66.6	3.8	8.46e-01	0	27	104	0	72	16935
2026-01-11 01:49:06.21	31.25	17.05	-53.6	-66.6	3.8	8.45e-01	0	26	104	0	72	16918
2026-01-11 01:49:07.22	31.33	17.16	-53.6	-66.5	3.8	8.45e-01	0	27	104	0	72	16876
2026-01-11 01:49:08.22	31.41	17.27	-53.6	-66.5	3.8	8.46e-01	0	27	104	0	72	16873
2026-01-11 01:49:09.22	31.49	17.38	-53.6	-66.5	3.8	8.46e-01	0	26	104	0	72	16861
2026-01-11 01:49:10.23	31.58	17.49	-53.6	-66.6	3.8	8.45e-01	0	27	104	0	72	16968
2026-01-11 01:49:11.23	31.66	17.60	-53.6	-66.5	3.8	8.45e-01	0	27	104	0	72	16849
2026-01-11 01:49:12.23	31.74	17.71	-53.6	-66.6	3.8	8.45e-01	0	27	104	0	72	16914
2026-01-11 01:49:13.24	31.83	17.82	-53.6	-66.6	3.8	8.46e-01	0	27	104	0	72	16940
2026-01-11 01:49:14.24	31.91	17.94	-53.6	-66.6	3.8	8.47e-01	0	27	104	0	72	16947
2026-01-11 01:49:15.25	32.00	18.05	-53.6	-66.6	3.8	8.46e-01	0	27	104	0	72	16925
2026-01-11 01:49:16.25	32.08	18.16	-53.6	-66.6	3.8	8.45e-01	0	27	104	0	72	16902
2026-01-11 01:49:17.25	32.17	18.27	-53.6	-66.6	3.8	8.45e-01	0	27	104	0	72	16907
2026-01-11 01:49:18.26	32.26	18.39	-53.6	-66.6	3.8	8.45e-01	0	27	104	0	72	16919
2026-01-11 01:49:19.26	32.34	18.50	-53.6	-66.6	3.8	8.47e-01	0	27	104	0	72	16913
2026-01-11 01:49:20.26	32.43	18.62	-53.6	-66.6	3.8	8.46e-01	0	27	104	0	72	16929
2026-01-11 01:49:21.26	32.52	18.73	-53.6	-66.6	3.8	8.46e-01	0	27	104	0	72	16948
2026-01-11 01:49:22.26	32.61	18.85	-53.6	-66.6	3.8	8.46e-01	0	27	104	0	72	16916
2026-01-11 01:49:23.26	32.70	18.96	-53.6	-66.5	3.8	8.45e-01	0	27	104	0	72	16880
2026-01-11 01:49:24.26	32.79	19.08	-53.6	-66.5	3.8	8.45e-01	0	27	104	0	72	16884
2026-01-11 01:49:25.26	32.88	19.20	-53.6	-66.5	3.8	8.45e-01	0	27	104	0	72	16886
2026-01-11 01:49:26.26	32.97	19.31	-53.6	-66.6	3.8	8.45e-01	0	27	104	0	72	16968
2026-01-11 01:49:27.26	33.06	19.43	-53.6	-66.5	3.8	8.46e-01	0	27	104	0	72	16870
2026-01-11 01:49:28.26	33.16	19.55	-53.6	-66.6	3.8	8.46e-01	0	27	104	0	72	16913
2026-01-11 01:49:29.25	33.25	19.67	-53.6	-66.6	3.8	8.45e-01	0	27	104	0	72	16920
2026-01-11 01:49:30.24	33.34	19.78	-53.6	-66.6	3.8	8.47e-01	0	27	104	0	72	16897
2026-01-11 01:49:31.24	33.44	19.90	-53.6	-66.6	3.8	8.46e-01	0	27	104	0	72	16904
2026-01-11 01:49:32.24	33.54	20.02	-53.6	-66.6	3.8	8.46e-01	0	27	104	0	72	16936
2026-01-11 01:49:33.25	33.63	20.15	-53.6	-66.6	3.8	8.46e-01	0	27	104	0	72	16956
2026-01-11 01:49:34.25	33.73	20.27	-53.6	-66.5	3.8	8.46e-01	0	27	104	0	72	16878
2026-01-11 01:49:35.24	33.83	20.39	-53.6	-66.5	3.8	8.45e-01	0	27	104	0	72	16881
2026-01-11 01:49:36.24	33.93	20.51	-53.6	-66.5	3.8	8.45e-01	0	27	104	0	72	16882
2026-01-11 01:49:37.24	34.03	20.63	-53.6	-66.6	3.8	8.46e-01	0	27	104	0	72	16907
2026-01-11 01:49:38.24	34.13	20.76	-53.6	-66.6	3.8	8.45e-01	0	27	104	0	72	16942
2026-01-11 01:49:39.24	34.23	20.88	-53.6	-66.6	3.8	8.46e-01	0	27	104	0	72	16898
2026-01-11 01:49:40.24	34.33	21.00	-53.6	-66.6	3.8	8.45e-01	0	27	104	0	72	16936
2026-01-11 01:49:41.25	34.43	21.13	-53.6	-66.6	3.8	8.46e-01	0	27	104	0	72	16895
2026-01-11 01:49:42.25	34.54	21.26	-53.6	-66.5	3.8	8.45e-01	0	27	104	0	72	16869
2026-01-11 01:49:43.25	34.64	21.38	-53.6	-66.6	3.8	8.46e-01	0	27	104	0	72	16934
2026-01-11 01:49:44.25	34.75	21.51	-53.6	-66.5	3.8	8.45e-01	0	27	104	0	72	16878
2026-01-11 01:49:45.25	34.85	21.63	-53.6	-66.5	3.8	8.46e-01	0	27	104	0	72	16879
2026-01-11 01:49:46.25	34.96	21.76	-53.6	-66.6	3.8	8.47e-01	0	27	104	0	72	16916
2026-01-11 01:49:47.25	35.07	21.89	-53.6	-66.6	3.8	8.46e-01	0	27	104	0	72	16949
2026-01-11 01:49:48.26	35.18	22.02	-53.6	-66.5	3.8	8.44e-01	0	27	104	0	72	16870
2026-01-11 01:49:49.25	35.28	22.15	-53.6	-66.6	3.8	8.46e-01	0	27	104	0	72	16900
2026-01-11 01:49:50.25	35.40	22.28	-53.6	-66.6	3.8	8.45e-01	0	27	104	0	72	16953
2026-01-11 01:49:51.26	35.51	22.41	-53.6	-66.6	3.8	8.47e-01	0	27	104	0	72	16926
2026-01-11 01:49:52.26	35.62	22.54	-53.6	-66.6	3.8	8.45e-01	0	27	104	0	72	16915
2026-01-11 01:49:53.25	35.73	22.67	-53.6	-66.6	3.8	8.45e-01	0	27	104	0	72	16916
2026-01-11 01:49:54.26	35.85	22.80	-53.6	-66.6	3.8	8.46e-01	0	27	104	0	72	16908
2026-01-11 01:49:55.26	35.96	22.94	-53.6	-66.6	3.8	8.46e-01	0	27	104	0	72	16900
2026-01-11 01:49:56.27	36.08	23.07	-53.6	-66.6	3.8	8.46e-01	0	27	104	0	72	16945
2026-01-11 01:49:57.27	36.19	23.21	-53.6	-66.6	3.8	8.45e-01	0	27	104	0	72	16937
2026-01-11 01:49:58.27	36.31	23.34	-53.6	-66.6	3.8	8.46e-01	0	27	104	0	72	16931
2026-01-11 01:49:59.27	36.43	23.47	-53.6	-66.6	3.8	8.46e-01	0	27	104	0	72	16943
2026-01-11 01:50:00.26	36.55	23.61	-53.6	-66.6	3.8	8.45e-01	0	27	104	0	72	16905
2026-01-11 01:50:01.26	36.67	23.74	-53.6	-66.6	3.8	8.46e-01	0	27	104	0	72	16897
2026-01-11 01:50:02.27	36.79	23.88	-53.6	-66.6	3.8	8.45e-01	0	27	104	0	72	16922
2026-01-11 01:50:03.27	36.92	24.02	-53.6	-66.6	3.8	8.45e-01	0	27	104	0	72	16931
2026-01-11 01:50:04.27	37.04	24.16	-53.6	-66.6	3.8	8.46e-01	0	27	104	0	72	16945
2026-01-11 01:50:05.28	37.17	24.30	-53.6	-66.6	3.8	8.46e-01	0	27	104	0	72	16908
2026-01-11 01:50:06.28	37.29	24.44	-53.6	-66.6	3.8	8.46e-01	0	27	104	0	72	16920
2026-01-11 01:50:07.27	37.42	24.58	-53.6	-66.6	3.8	8.45e-01	0	27	104	0	72	16952
2026-01-11 01:50:08.27	37.55	24.72	-53.6	-66.6	3.8	8.46e-01	0	27	104	0	72	16939
2026-01-11 01:50:09.27	37.67	24.86	-53.6	-66.6	3.8	8.45e-01	0	27	104	0	72	16915
2026-01-11 01:50:10.27	37.81	25.00	-53.6	-66.6	3.8	8.46e-01	0	27	104	0	72	16929
2026-01-11 01:50:11.27	37.94	25.14	-53.6	-66.5	3.8	8.45e-01	0	27	104	0	72	16859
2026-01-11 01:50:12.27	38.07	25.28	-53.6	-66.6	3.8	8.46e-01	0	27	104	0	72	16901
2026-01-11 01:50:13.26	38.20	25.43	-53.6	-66.5	3.8	8.46e-01	0	27	104	0	72	16848
2026-01-11 01:50:14.26	38.34	25.57	-53.6	-66.6	3.8	8.45e-01	0	27	104	0	72	16925
2026-01-11 01:50:15.27	38.47	25.72	-53.6	-66.6	3.8	8.45e-01	0	27	104	0	72	16915
2026-01-11 01:50:16.27	38.61	25.86	-53.6	-66.6	3.8	8.46e-01	0	27	104	0	72	16989
2026-01-11 01:50:17.27	38.75	26.01	-53.6	-66.6	3.8	8.46e-01	0	27	104	0	72	16930
2026-01-11 01:50:18.27	38.89	26.15	-53.6	-66.6	3.8	8.46e-01	0	27	104	0	72	16927
2026-01-11 01:50:19.27	39.03	26.30	-53.6	-66.6	3.8	8.45e-01	0	27	104	0	72	16917
2026-01-11 01:50:20.27	39.17	26.45	-53.6	-66.6	3.8	8.45e-01	0	27	104	0	72	16947
2026-01-11 01:50:21.27	39.32	26.60	-53.6	-66.6	3.8	8.46e-01	0	27	104	0	72	16942
2026-01-11 01:50:22.27	39.46	26.75	-53.6	-66.6	3.8	8.45e-01	0	27	104	0	72	16920
2026-01-11 01:50:23.27	39.61	26.90	-53.6	-66.6	3.8	8.46e-01	0	27	104	0	72	16903
2026-01-11 01:50:24.27	39.76	27.05	-53.6	-66.6	3.8	8.44e-01	0	27	104	0	72	16958
2026-01-11 01:50:25.27	39.90	27.20	-53.6	-66.6	3.8	8.46e-01	0	27	104	0	72	16987
2026-01-11 01:50:26.27	40.05	27.35	-53.6	-66.6	3.8	8.45e-01	0	27	104	0	72	16933
2026-01-11 01:50:27.27	40.21	27.50	-53.6	-66.6	3.8	8.45e-01	0	27	104	0	72	16944
2026-01-11 01:50:28.27	40.36	27.65	-53.6	-66.6	3.8	8.45e-01	0	27	104	0	72	16963
2026-01-11 01:50:29.27	40.51	27.81	-53.6	-66.6	3.8	8.45e-01	0	27	104	0	72	16916
2026-01-11 01:50:30.27	40.67	27.96	-53.6	-66.6	3.8	8.46e-01	0	27	104	0	72	16965
2026-01-11 01:50:31.26	40.83	28.12	-53.6	-66.6	3.9	8.47e-01	0	27	104	0	72	16946
2026-01-11 01:50:32.26	40.98	28.27	-53.6	-66.6	3.8	8.46e-01	0	27	104	0	72	16912
2026-01-11 01:50:33.25	41.14	28.43	-53.6	-66.6	3.8	8.46e-01	0	27	104	0	72	16939
2026-01-11 01:50:34.25	41.31	28.58	-53.6	-66.6	3.8	8.45e-01	0	27	104	0	72	16950
2026-01-11 01:50:35.25	41.47	28.74	-53.6	-66.6	3.8	8.46e-01	0	27	104	0	72	16932
2026-01-11 01:50:36.25	41.63	28.90	-53.6	-66.6	3.8	8.46e-01	0	27	104	0	72	16959
2026-01-11 01:50:37.26	41.80	29.06	-53.7	-66.6	3.8	8.46e-01	0	27	104	0	72	16918
2026-01-11 01:50:38.26	41.97	29.22	-53.6	-66.6	3.8	8.44e-01	0	27	104	0	72	16936
2026-01-11 01:50:39.27	42.14	29.38	-53.6	-66.6	3.8	8.47e-01	0	27	104	0	72	16925
2026-01-11 01:50:40.27	42.31	29.54	-53.6	-66.6	3.8	8.44e-01	0	27	104	0	72	16933
2026-01-11 01:50:41.27	42.49	29.70	-53.6	-66.6	3.8	8.46e-01	0	27	104	0	72	16912
2026-01-11 01:50:42.27	42.66	29.86	-53.6	-66.5	3.8	8.47e-01	0	27	104	0	72	16868
2026-01-11 01:50:43.28	42.84	30.03	-53.6	-66.6	3.8	8.46e-01	0	27	104	0	72	16943
2026-01-11 01:50:44.28	43.02	30.19	-53.6	-66.6	3.8	8.45e-01	0	27	104	0	72	16938
2026-01-11 01:50:45.27	43.20	30.35	-53.6	-66.6	3.8	8.46e-01	0	27	104	0	72	16896
2026-01-11 01:50:46.27	43.38	30.52	-53.6	-66.5	3.8	8.46e-01	0	27	104	0	72	16878
2026-01-11 01:50:47.27	43.56	30.68	-53.6	-66.6	3.8	8.44e-01	0	27	104	0	72	16925
2026-01-11 01:50:48.28	43.75	30.85	-53.6	-66.6	3.8	8.43e-01	0	27	104	0	72	16927
2026-01-11 01:50:49.29	43.94	31.02	-53.6	-66.6	3.8	8.46e-01	0	27	104	0	72	16986
2026-01-11 01:50:50.29	44.13	31.19	-53.6	-66.6	3.8	8.45e-01	0	27	104	0	72	16951
2026-01-11 01:50:51.29	44.32	31.35	-53.6	-66.6	3.8	8.46e-01	0	27	104	0	72	16959
2026-01-11 01:50:52.29	44.51	31.52	-53.7	-66.6	3.8	8.46e-01	0	27	104	0	72	16994
2026-01-11 01:50:53.28	44.71	31.69	-53.6	-66.6	3.8	8.44e-01	0	27	104	0	72	16968
2026-01-11 01:50:54.29	44.91	31.86	-53.7	-66.6	3.8	8.46e-01	0	27	104	0	72	17012
2026-01-11 01:50:55.30	45.11	32.03	-53.6	-66.6	3.8	8.46e-01	0	27	104	0	72	16950
2026-01-11 01:50:56.30	45.31	32.20	-53.7	-66.6	3.8	8.46e-01	0	27	104	0	72	16990
2026-01-11 01:50:57.30	45.51	32.38	-53.6	-66.6	3.8	8.45e-01	0	27	104	0	72	16948
2026-01-11 01:50:58.30	45.72	32.55	-53.6	-66.6	3.8	8.45e-01	0	27	104	0	72	16937
2026-01-11 01:50:59.30	45.93	32.72	-53.6	-66.6	3.8	8.46e-01	0	27	104	0	72	16938
2026-01-11 01:51:00.31	46.14	32.90	-53.6	-66.6	3.8	8.45e-01	0	27	104	0	72	16969
2026-01-11 01:51:01.32	46.35	33.07	-53.6	-66.6	3.8	8.45e-01	0	27	104	0	72	16986
2026-01-11 01:51:02.32	46.57	33.25	-53.6	-66.6	3.8	8.46e-01	0	27	104	0	72	16958
2026-01-11 01:51:03.32	46.78	33.42	-53.6	-66.6	3.8	8.45e-01	0	27	104	0	72	16917
2026-01-11 01:51:04.32	47.00	33.60	-53.6	-66.6	3.8	8.45e-01	0	27	104	0	72	16942
2026-01-11 01:51:05.32	47.23	33.77	-53.6	-66.6	3.8	8.45e-01	0	27	104	0	72	16943
2026-01-11 01:51:06.32	47.45	33.95	-53.6	-66.6	3.8	8.46e-01	0	27	104	0	72	16912
2026-01-11 01:51:07.32	47.67	34.13	-53.6	-66.6	3.8	8.46e-01	0	27	104	0	72	16954
2026-01-11 01:51:08.33	47.91	34.31	-53.6	-66.6	3.8	8.46e-01	0	27	104	0	72	16908
2026-01-11 01:51:09.33	48.14	34.49	-53.6	-66.6	3.8	8.45e-01	0	27	104	0	72	16909
2026-01-11 01:51:10.33	48.37	34.66	-53.6	-66.6	3.8	8.45e-01	0	27	104	0	72	16983
2026-01-11 01:51:11.32	48.60	34.84	-53.6	-66.6	3.8	8.45e-01	0	27	104	0	72	16947
2026-01-11 01:51:12.32	48.84	35.02	-53.6	-66.6	3.8	8.45e-01	0	27	104	0	72	16923
2026-01-11 01:51:13.32	49.08	35.20	-53.6	-66.6	3.8	8.46e-01	0	27	104	0	72	16923
2026-01-11 01:51:14.32	49.33	35.38	-53.6	-66.6	3.8	8.45e-01	0	27	104	0	72	16969
2026-01-11 01:51:15.33	49.58	35.57	-53.6	-66.6	3.8	8.45e-01	0	27	104	0	72	16935
2026-01-11 01:51:16.33	49.83	35.75	-53.6	-66.6	3.8	8.46e-01	0	27	104	0	72	16964
2026-01-11 01:51:17.34	50.08	35.93	-53.6	-66.6	3.8	8.45e-01	0	27	104	0	72	17003
2026-01-11 01:51:18.35	50.34	36.12	-53.6	-66.6	3.8	8.46e-01	0	27	104	0	72	16960
2026-01-11 01:51:19.35	50.60	36.30	-53.6	-66.6	3.8	8.45e-01	0	27	104	0	72	16951
2026-01-11 01:51:20.34	50.85	36.48	-53.6	-66.6	3.8	8.47e-01	0	27	104	0	72	16944
2026-01-11 01:51:21.35	51.12	36.67	-53.7	-66.6	3.8	8.46e-01	0	27	104	0	72	16985
2026-01-11 01:51:22.35	51.39	36.85	-53.7	-66.6	3.8	8.45e-01	0	27	104	0	72	16960
2026-01-11 01:51:23.35	51.65	37.04	-53.6	-66.6	3.8	8.46e-01	0	27	104	0	72	16935
2026-01-11 01:51:24.35	51.93	37.22	-53.7	-66.6	3.8	8.45e-01	0	27	104	0	72	16984
2026-01-11 01:51:25.35	52.20	37.41	-53.7	-66.6	3.8	8.46e-01	0	27	104	0	72	16959
2026-01-11 01:51:26.35	52.48	37.59	-53.7	-66.6	3.8	8.45e-01	0	27	104	0	72	16984
2026-01-11 01:51:27.36	52.77	37.78	-53.6	-66.6	3.8	8.45e-01	0	27	104	0	72	16999
2026-01-11 01:51:28.36	53.05	37.97	-53.6	-66.6	3.8	8.46e-01	0	27	104	0	72	16972
2026-01-11 01:51:29.36	53.34	38.15	-53.7	-66.6	3.8	8.45e-01	0	27	104	0	72	16965
2026-01-11 01:51:30.36	53.63	38.34	-53.7	-66.6	3.8	8.47e-01	0	27	104	0	72	16990
2026-01-11 01:51:31.36	53.92	38.53	-53.7	-66.6	3.8	8.46e-01	0	27	104	0	72	16981
2026-01-11 01:51:32.36	54.22	38.71	-53.7	-66.6	3.8	8.45e-01	0	27	104	0	72	16986
2026-01-11 01:51:33.36	54.52	38.90	-53.7	-66.6	3.8	8.46e-01	0	27	104	0	72	16962
2026-01-11 01:51:34.35	54.83	39.09	-53.7	-66.6	3.8	8.46e-01	0	27	104	0	72	16988
2026-01-11 01:51:35.35	55.13	39.27	-53.7	-66.6	3.8	8.46e-01	0	27	104	0	72	16984
2026-01-11 01:51:36.35	55.45	39.46	-53.7	-66.6	3.8	8.46e-01	0	27	104	0	72	16970
2026-01-11 01:51:37.35	55.76	39.65	-53.7	-66.6	3.8	8.45e-01	0	27	104	0	72	17001
2026-01-11 01:51:38.35	56.08	39.84	-53.6	-66.6	3.8	8.45e-01	0	27	104	0	72	17013
2026-01-11 01:51:39.35	56.40	40.03	-53.7	-66.6	3.8	8.46e-01	0	27	104	0	72	16975
2026-01-11 01:51:40.34	56.73	40.21	-53.7	-66.6	3.8	8.46e-01	0	27	104	0	72	17020
2026-01-11 01:51:41.34	57.06	40.40	-53.7	-66.6	3.8	8.45e-01	0	27	104	0	72	17001
2026-01-11 01:51:42.33	57.39	40.59	-53.7	-66.6	3.8	8.45e-01	0	27	104	0	72	16958
2026-01-11 01:51:43.33	57.72	40.77	-53.7	-66.6	3.8	8.46e-01	0	27	104	0	72	16985
2026-01-11 01:51:44.33	58.07	40.96	-53.7	-66.6	3.8	8.45e-01	0	27	104	0	72	17003
2026-01-11 01:51:45.33	58.41	41.15	-53.7	-66.6	3.8	8.45e-01	0	27	104	0	72	16975
2026-01-11 01:51:46.33	58.76	41.34	-53.6	-66.6	3.8	8.46e-01	0	27	104	0	72	16902
2026-01-11 01:51:47.33	59.11	41.52	-53.6	-66.6	3.8	8.45e-01	0	27	104	0	72	16933
2026-01-11 01:51:48.34	59.48	41.71	-53.7	-66.6	3.8	8.45e-01	0	27	104	0	72	17003
2026-01-11 01:51:49.35	59.84	41.90	-53.7	-66.6	3.8	8.46e-01	0	27	104	0	72	17012
2026-01-11 01:51:50.35	60.21	42.09	-53.7	-66.6	3.8	8.46e-01	0	27	104	0	72	16955
2026-01-11 01:51:51.35	60.58	42.27	-53.7	-66.6	3.8	8.45e-01	0	27	104	0	72	17002
2026-01-11 01:51:52.35	60.95	42.46	-53.7	-66.6	3.8	8.46e-01	0	27	104	0	72	16968
2026-01-11 01:51:53.35	61.33	42.64	-53.6	-66.6	3.8	8.45e-01	0	27	104	0	72	16953
2026-01-11 01:51:54.34	61.71	42.83	-53.6	-66.6	3.8	8.45e-01	0	27	104	0	72	16987
2026-01-11 01:51:55.35	62.10	43.01	-53.6	-66.6	3.8	8.45e-01	0	27	104	0	72	16907
2026-01-11 01:51:56.35	62.49	43.20	-53.7	-66.6	3.8	8.46e-01	0	27	104	0	72	16993
2026-01-11 01:51:57.34	62.88	43.38	-53.7	-66.6	3.8	8.44e-01	0	27	104	0	72	16953
2026-01-11 01:51:58.34	63.29	43.56	-53.7	-66.6	3.8	8.46e-01	0	27	104	0	72	16980
2026-01-11 01:51:59.35	63.69	43.74	-53.7	-66.6	3.8	8.46e-01	0	27	104	0	72	17017
2026-01-11 01:52:00.34	64.10	43.92	-53.7	-66.6	3.8	8.46e-01	0	27	104	0	72	16991
2026-01-11 01:52:01.34	64.51	44.10	-53.7	-66.6	3.8	8.46e-01	0	27	104	0	72	16975
2026-01-11 01:52:02.33	64.93	44.28	-53.7	-66.6	3.8	8.45e-01	0	27	104	0	72	17025
2026-01-11 01:52:03.33	65.35	44.46	-53.7	-66.6	3.8	8.45e-01	0	27	104	0	72	16974
2026-01-11 01:52:04.33	65.78	44.64	-53.7	-66.6	3.8	8.45e-01	0	27	104	0	72	16969
2026-01-11 01:52:05.32	66.21	44.81	-53.6	-66.6	3.8	8.46e-01	0	27	104	0	72	16980
2026-01-11 01:52:06.32	66.65	44.99	-53.7	-66.6	3.8	8.46e-01	0	27	104	0	72	16969
2026-01-11 01:52:07.32	67.09	45.16	-53.7	-66.6	3.8	8.47e-01	0	27	104	0	72	16984
2026-01-11 01:52:08.32	67.54	45.34	-53.7	-66.6	3.8	8.47e-01	0	27	104	0	72	16948
2026-01-11 01:52:09.32	67.99	45.51	-53.7	-66.6	3.8	8.45e-01	0	27	104	0	72	16993
2026-01-11 01:52:10.33	68.45	45.68	-53.6	-66.6	3.8	8.46e-01	0	27	104	0	72	16952
2026-01-11 01:52:11.33	68.92	45.85	-53.6	-66.6	3.8	8.46e-01	0	27	104	0	72	16949
2026-01-11 01:52:12.33	69.38	46.02	-53.6	-66.6	3.8	8.45e-01	0	27	104	0	72	16951
2026-01-11 01:52:13.33	69.85	46.19	-53.7	-66.6	3.8	8.47e-01	0	27	104	0	72	16995
2026-01-11 01:52:14.34	70.34	46.36	-53.7	-66.6	3.8	8.45e-01	0	27	104	0	72	16984
2026-01-11 01:52:15.34	70.82	46.52	-53.6	-66.6	3.8	8.46e-01	0	27	104	0	72	16972
2026-01-11 01:52:16.34	71.31	46.68	-53.7	-66.6	3.8	8.45e-01	0	27	104	0	72	16974
2026-01-11 01:52:17.35	71.80	46.85	-53.7	-66.6	3.8	8.45e-01	0	27	104	0	72	17010
2026-01-11 01:52:18.36	72.31	47.01	-53.7	-66.6	3.8	8.45e-01	0	27	104	0	72	16997
2026-01-11 01:52:19.36	72.81	47.17	-53.7	-66.6	3.8	8.45e-01	0	27	104	0	72	16971
2026-01-11 01:52:20.36	73.32	47.32	-53.6	-66.6	3.8	8.44e-01	0	27	104	0	72	16933
2026-01-11 01:52:21.37	73.83	47.48	-53.6	-66.6	3.8	8.46e-01	0	27	104	0	72	16935
2026-01-11 01:52:22.37	74.35	47.63	-53.7	-66.6	3.8	8.45e-01	0	27	104	0	72	17027
2026-01-11 01:52:23.37	74.87	47.78	-53.7	-66.6	3.8	8.46e-01	0	27	104	0	72	17005
2026-01-11 01:52:24.37	75.40	47.93	-53.7	-66.6	3.8	8.46e-01	0	27	104	0	72	16985
2026-01-11 01:52:25.36	75.93	48.07	-53.7	-66.6	3.8	8.45e-01	0	27	104	0	72	16949
2026-01-11 01:52:26.37	76.47	48.22	-53.7	-66.6	3.8	8.45e-01	0	27	104	0	72	16966
2026-01-11 01:52:27.37	77.02	48.36	-53.7	-66.6	3.8	8.45e-01	0	27	104	0	72	16985
2026-01-11 01:52:28.36	77.56	48.50	-53.6	-66.6	3.8	8.46e-01	0	27	104	0	72	16991
2026-01-11 01:52:29.37	78.12	48.64	-53.6	-66.6	3.8	8.46e-01	0	27	104	0	72	16972
2026-01-11 01:52:30.37	78.67	48.77	-53.6	-66.6	3.8	8.46e-01	0	27	104	0	72	17011
2026-01-11 01:52:31.37	79.23	48.91	-53.6	-66.6	3.8	8.46e-01	0	27	104	0	72	16941
2026-01-11 01:52:32.37	79.80	49.04	-53.7	-66.6	3.8	8.46e-01	0	27	104	0	72	16984
2026-01-11 01:52:33.38	80.38	49.16	-53.7	-66.6	3.8	8.46e-01	0	27	104	0	72	16963
2026-01-11 01:52:34.38	80.96	49.29	-53.7	-66.6	3.8	8.45e-01	0	27	104	0	72	16984
2026-01-11 01:52:35.38	81.54	49.41	-53.7	-66.6	3.8	8.45e-01	0	27	104	0	72	16993
2026-01-11 01:52:36.38	82.12	49.53	-53.7	-66.6	3.8	8.46e-01	0	27	104	0	72	16974
2026-01-11 01:52:37.38	82.71	49.65	-53.7	-66.6	3.8	8.46e-01	0	27	104	0	72	16959
2026-01-11 01:52:38.38	83.31	49.76	-53.7	-66.6	3.8	8.46e-01	0	27	104	0	72	16973
2026-01-11 01:52:39.38	83.91	49.87	-53.6	-66.6	3.8	8.44e-01	0	27	104	0	72	16976
2026-01-11 01:52:40.38	84.51	49.98	-53.7	-66.6	3.8	8.45e-01	0	27	104	0	72	16995
2026-01-11 01:52:41.38	85.12	50.08	-53.6	-66.6	3.8	8.46e-01	0	27	104	0	72	16955
2026-01-11 01:52:42.38	85.73	50.18	-53.6	-66.6	3.8	8.44e-01	0	27	104	0	72	16963
2026-01-11 01:52:43.38	86.34	50.28	-53.6	-66.6	3.8	8.46e-01	0	27	104	0	72	16962
2026-01-11 01:52:44.38	86.96	50.38	-53.6	-66.6	3.8	8.45e-01	0	27	104	0	72	16963
2026-01-11 01:52:45.38	87.59	50.47	-53.6	-66.6	3.8	8.45e-01	0	27	104	0	72	16980
2026-01-11 01:52:46.38	88.21	50.56	-53.6	-66.6	3.8	8.45e-01	0	27	104	0	72	16982
2026-01-11 01:52:47.39	88.85	50.64	-53.7	-66.6	3.8	8.45e-01	0	27	104	0	72	16997
2026-01-11 01:52:48.39	89.49	50.72	-53.7	-66.6	3.8	8.45e-01	0	27	104	0	72	16961
2026-01-11 01:52:49.40	90.13	50.80	-53.7	-66.6	3.8	8.45e-01	0	27	104	0	72	16942
2026-01-11 01:52:50.39	90.76	50.87	-53.7	-66.6	3.8	8.46e-01	0	27	104	0	72	16965
2026-01-11 01:52:51.40	91.41	50.95	-53.7	-66.6	3.8	8.46e-01	0	27	104	0	72	16993
2026-01-11 01:52:52.40	92.06	51.01	-53.7	-66.6	3.8	8.46e-01	0	27	104	0	72	16936
2026-01-11 01:52:53.40	92.71	51.08	-53.7	-66.6	3.8	8.45e-01	0	27	104	0	72	16958
2026-01-11 01:52:54.40	93.36	51.14	-53.7	-66.6	3.8	8.45e-01	0	27	104	0	72	16948
2026-01-11 01:52:55.40	94.02	51.19	-53.7	-66.6	3.8	8.45e-01	0	27	104	0	72	16958
2026-01-11 01:52:56.40	94.67	51.24	-53.7	-66.6	3.8	8.45e-01	0	27	104	0	72	16945
2026-01-11 01:52:57.40	95.33	51.29	-53.7	-66.6	3.8	8.46e-01	0	27	104	0	72	16966
2026-01-11 01:52:58.40	95.99	51.34	-53.7	-66.6	3.8	8.46e-01	0	27	104	0	72	17042
2026-01-11 01:52:59.41	96.66	51.38	-53.7	-66.6	3.8	8.46e-01	0	27	104	0	72	16995
2026-01-11 01:53:00.42	97.34	51.41	-53.7	-66.6	3.8	8.46e-01	0	27	104	0	72	16955
2026-01-11 01:53:01.42	98.00	51.45	-53.7	-66.6	3.8	8.46e-01	0	27	104	0	72	16977
2026-01-11 01:53:02.42	98.67	51.47	-53.7	-66.6	3.8	8.46e-01	0	27	104	0	72	16947
2026-01-11 01:53:03.42	99.34	51.50	-53.7	-66.6	3.8	8.45e-01	0	27	104	0	72	16919
2026-01-11 01:53:04.42	100.01	51.52	-53.7	-66.6	3.8	8.45e-01	0	27	104	0	72	17012
2026-01-11 01:53:05.42	100.68	51.54	-53.7	-66.6	3.8	8.45e-01	0	27	104	0	72	16981
2026-01-11 01:53:06.42	101.35	51.55	-53.7	-66.6	3.8	8.45e-01	0	27	104	0	72	16986
2026-01-11 01:53:07.42	102.02	51.56	-53.7	-66.6	3.9	8.45e-01	0	27	104	0	72	16968
2026-01-11 01:53:08.41	102.69	51.56	-53.7	-66.6	3.8	8.45e-01	0	27	104	0	72	16975
2026-01-11 01:53:09.42	103.37	51.56	-53.7	-66.6	3.8	8.44e-01	0	27	104	0	72	16932
2026-01-11 01:53:10.42	104.04	51.56	-53.6	-66.6	3.8	8.45e-01	0	27	104	0	72	16916
2026-01-11 01:53:11.42	104.71	51.55	-53.7	-66.6	3.8	8.45e-01	0	27	104	0	72	16992
2026-01-11 01:53:12.43	105.39	51.54	-53.7	-66.6	3.8	8.45e-01	0	27	104	0	72	16990
2026-01-11 01:53:13.43	106.06	51.52	-53.6	-66.6	3.8	8.45e-01	0	27	104	0	72	16969
2026-01-11 01:53:14.44	106.74	51.50	-53.7	-66.6	3.8	8.44e-01	0	27	104	0	72	16987
2026-01-11 01:53:15.44	107.41	51.48	-53.7	-66.6	3.8	8.46e-01	0	27	104	0	72	16949
2026-01-11 01:53:16.44	108.08	51.45	-53.7	-66.6	3.8	8.45e-01	0	27	104	0	72	16982
2026-01-11 01:53:17.44	108.75	51.42	-53.7	-66.6	3.8	8.45e-01	0	27	104	0	72	17046
2026-01-11 01:53:18.44	109.41	51.39	-53.7	-66.6	3.8	8.46e-01	0	27	104	0	72	16991
2026-01-11 01:53:19.44	110.07	51.35	-53.7	-66.6	3.8	8.46e-01	0	27	104	0	72	16992
2026-01-11 01:53:20.44	110.74	51.30	-53.7	-66.6	3.8	8.45e-01	0	27	104	0	72	16993
2026-01-11 01:53:21.44	111.40	51.25	-53.7	-66.6	3.8	8.46e-01	0	27	104	0	72	17061
2026-01-11 01:53:22.44	112.05	51.20	-53.7	-66.6	3.8	8.45e-01	0	27	104	0	72	17030
2026-01-11 01:53:23.45	112.72	51.15	-53.7	-66.6	3.8	8.46e-01	0	27	104	0	72	17003
2026-01-11 01:53:24.44	113.36	51.09	-53.7	-66.6	3.8	8.45e-01	0	27	104	0	72	17007
2026-01-11 01:53:25.45	114.02	51.03	-53.7	-66.6	3.8	8.45e-01	0	27	104	0	72	16946
2026-01-11 01:53:26.45	114.67	50.96	-53.7	-66.6	3.8	8.45e-01	0	27	104	0	72	17044
2026-01-11 01:53:27.45	115.31	50.89	-53.7	-66.6	3.8	8.46e-01	0	27	104	0	72	17011
2026-01-11 01:53:28.45	115.96	50.82	-53.7	-66.6	3.8	8.45e-01	0	27	104	0	72	17041
2026-01-11 01:53:29.44	116.59	50.74	-53.7	-66.6	3.8	8.45e-01	0	27	104	0	72	17006
2026-01-11 01:53:30.44	117.22	50.66	-53.7	-66.6	3.8	8.45e-01	0	27	104	0	72	17009
2026-01-11 01:53:31.44	117.86	50.58	-53.7	-66.6	3.8	8.45e-01	0	27	104	0	72	16957
2026-01-11 01:53:32.45	118.49	50.49	-53.7	-66.6	3.8	8.46e-01	0	27	104	0	72	17018
2026-01-11 01:53:33.44	119.11	50.40	-53.7	-66.6	3.8	8.46e-01	0	27	104	0	72	16983
2026-01-11 01:53:34.44	119.73	50.30	-53.7	-66.6	3.8	8.46e-01	0	27	104	0	72	16958
2026-01-11 01:53:35.44	120.35	50.21	-53.7	-66.6	3.8	8.46e-01	0	27	104	0	72	16976
2026-01-11 01:53:36.44	120.96	50.11	-53.7	-66.6	3.8	8.46e-01	0	27	104	0	72	17028
2026-01-11 01:53:37.43	121.56	50.00	-53.7	-66.6	3.8	8.45e-01	0	27	104	0	72	16962
2026-01-11 01:53:38.43	122.17	49.90	-53.7	-66.6	3.8	8.46e-01	0	27	104	0	72	16963
2026-01-11 01:53:39.43	122.77	49.79	-53.7	-66.6	3.8	8.46e-01	0	27	104	0	72	16971
2026-01-11 01:53:40.43	123.37	49.67	-53.7	-66.6	3.8	8.46e-01	0	27	104	0	72	16970
2026-01-11 01:53:41.42	123.95	49.56	-53.7	-66.6	3.8	8.45e-01	0	27	104	0	72	17019
2026-01-11 01:53:42.42	124.54	49.44	-53.7	-66.6	3.8	8.46e-01	0	27	104	0	72	17019
2026-01-11 01:53:43.42	125.12	49.32	-53.7	-66.6	3.8	8.45e-01	0	27	104	0	72	16993
2026-01-11 01:53:44.42	125.70	49.19	-53.7	-66.6	3.8	8.44e-01	0	27	104	0	72	17014
2026-01-11 01:53:45.43	126.28	49.07	-53.7	-66.6	3.8	8.45e-01	0	27	104	0	72	16977
2026-01-11 01:53:46.43	126.85	48.94	-53.7	-66.6	3.8	8.46e-01	0	27	104	0	72	17009
2026-01-11 01:53:47.43	127.41	48.80	-53.7	-66.6	3.8	8.46e-01	0	27	104	0	72	17005
2026-01-11 01:53:48.43	127.97	48.67	-53.7	-66.6	3.8	8.45e-01	0	27	104	0	72	17007
2026-01-11 01:53:49.43	128.53	48.53	-53.7	-66.6	3.8	8.46e-01	0	27	104	0	72	17028
2026-01-11 01:53:50.43	129.08	48.39	-53.7	-66.6	3.8	8.47e-01	0	27	104	0	72	16983
2026-01-11 01:53:51.43	129.62	48.25	-53.7	-66.6	3.8	8.45e-01	0	27	104	0	72	16993
2026-01-11 01:53:52.43	130.16	48.11	-53.7	-66.6	3.8	8.45e-01	0	27	104	0	72	17045
2026-01-11 01:53:53.44	130.70	47.96	-53.7	-66.6	3.8	8.46e-01	0	27	104	0	72	16990
2026-01-11 01:53:54.44	131.23	47.81	-53.7	-66.6	3.8	8.47e-01	0	27	104	0	72	17015
2026-01-11 01:53:55.44	131.76	47.66	-53.7	-66.6	3.8	8.46e-01	0	27	104	0	72	17041
2026-01-11 01:53:56.45	132.28	47.51	-53.7	-66.6	3.8	8.44e-01	0	27	104	0	72	16975
2026-01-11 01:53:57.44	132.79	47.35	-53.7	-66.6	3.8	8.46e-01	0	27	104	0	72	16998
2026-01-11 01:53:58.45	133.31	47.20	-53.7	-66.6	3.8	8.44e-01	0	27	104	0	72	16992
2026-01-11 01:53:59.46	133.82	47.04	-53.7	-66.6	3.8	8.45e-01	0	27	104	0	72	16967
2026-01-11 01:54:00.46	134.32	46.88	-53.7	-66.6	3.8	8.46e-01	0	27	104	0	72	16994
2026-01-11 01:54:01.46	134.81	46.72	-53.7	-66.6	3.8	8.45e-01	0	27	104	0	72	17032
2026-01-11 01:54:02.47	135.31	46.55	-53.7	-66.6	3.8	8.47e-01	0	27	104	0	72	16981
2026-01-11 01:54:03.47	135.79	46.39	-53.7	-66.6	3.8	8.45e-01	0	27	104	0	72	16974
2026-01-11 01:54:04.48	136.27	46.22	-53.7	-66.6	3.8	8.45e-01	0	27	104	0	72	17020
2026-01-11 01:54:05.48	136.75	46.05	-53.7	-66.6	3.8	8.46e-01	0	27	104	0	72	17008
2026-01-11 01:54:06.48	137.22	45.88	-53.7	-66.6	3.8	8.46e-01	0	27	104	0	72	16954
2026-01-11 01:54:07.48	137.68	45.71	-53.7	-66.6	3.8	8.46e-01	0	27	104	0	72	17019
2026-01-11 01:54:08.48	138.14	45.54	-53.7	-66.6	3.8	8.45e-01	0	27	104	0	72	17002
2026-01-11 01:54:09.48	138.60	45.37	-53.7	-66.6	3.8	8.46e-01	0	27	104	0	72	17019
2026-01-11 01:54:10.48	139.05	45.19	-53.7	-66.6	3.8	8.46e-01	0	27	104	0	72	16985
2026-01-11 01:54:11.49	139.49	45.02	-53.7	-66.6	3.8	8.46e-01	0	27	104	0	72	16943
2026-01-11 01:54:12.48	139.93	44.84	-53.7	-66.6	3.8	8.46e-01	0	27	104	0	72	17022
2026-01-11 01:54:13.49	140.37	44.66	-53.7	-66.6	3.8	8.45e-01	0	27	104	0	72	16962
2026-01-11 01:54:14.49	140.80	44.48	-53.7	-66.6	3.8	8.46e-01	0	27	104	0	72	17049
2026-01-11 01:54:15.50	141.23	44.30	-53.7	-66.6	3.8	8.46e-01	0	27	104	0	72	17060
2026-01-11 01:54:16.50	141.65	44.12	-53.7	-66.6	3.8	8.45e-01	0	27	104	0	72	16994
2026-01-11 01:54:17.51	142.07	43.94	-53.7	-66.6	3.8	8.46e-01	0	27	104	0	72	17017
2026-01-11 01:54:18.51	142.48	43.76	-53.7	-66.6	3.8	8.46e-01	0	27	104	0	72	16955
2026-01-11 01:54:19.51	142.89	43.58	-53.7	-66.6	3.8	8.45e-01	0	27	104	0	72	16977
2026-01-11 01:54:20.52	143.30	43.39	-53.7	-66.6	3.8	8.46e-01	0	27	104	0	72	17018
2026-01-11 01:54:21.52	143.69	43.21	-53.7	-66.6	3.8	8.45e-01	0	27	104	0	72	17032
2026-01-11 01:54:22.53	144.09	43.02	-53.7	-66.6	3.8	8.46e-01	0	27	104	0	72	17042
2026-01-11 01:54:23.53	144.48	42.84	-53.7	-66.6	3.8	8.45e-01	0	27	104	0	72	17067
2026-01-11 01:54:24.54	144.87	42.65	-53.7	-66.6	3.8	8.45e-01	0	27	104	0	72	17067
2026-01-11 01:54:25.55	145.25	42.46	-53.7	-66.6	3.8	8.46e-01	0	27	104	0	72	16975
2026-01-11 01:54:26.55	145.63	42.28	-53.7	-66.7	3.8	8.46e-01	0	27	104	0	72	17090
2026-01-11 01:54:27.55	146.00	42.09	-53.7	-66.6	3.8	8.44e-01	0	27	104	0	72	17019
2026-01-11 01:54:28.54	146.36	41.90	-53.7	-66.6	3.8	8.45e-01	0	27	104	0	72	17025
2026-01-11 01:54:29.55	146.73	41.72	-53.7	-66.6	3.8	8.46e-01	0	27	104	0	72	16995
2026-01-11 01:54:30.55	147.09	41.53	-53.7	-66.6	3.8	8.45e-01	0	27	104	0	72	17000
2026-01-11 01:54:31.56	147.45	41.34	-53.7	-66.6	3.8	8.46e-01	0	27	104	0	72	17022
2026-01-11 01:54:32.56	147.80	41.15	-53.7	-66.6	3.8	8.46e-01	0	27	104	0	72	17066
2026-01-11 01:54:33.56	148.14	40.96	-53.7	-66.6	3.8	8.46e-01	0	27	104	0	72	17055
2026-01-11 01:54:34.55	148.48	40.78	-53.7	-66.6	3.8	8.45e-01	0	27	104	0	72	17024
2026-01-11 01:54:35.55	148.82	40.59	-53.7	-66.6	3.8	8.46e-01	0	27	104	0	72	17022
2026-01-11 01:54:36.55	149.16	40.40	-53.7	-66.6	3.8	8.46e-01	0	27	104	0	72	17004
2026-01-11 01:54:37.54	149.49	40.21	-53.7	-66.6	3.8	8.46e-01	0	27	104	0	72	16997
2026-01-11 01:54:38.54	149.81	40.02	-53.7	-66.6	3.8	8.45e-01	0	27	104	0	72	17046
2026-01-11 01:54:39.54	150.14	39.83	-53.7	-66.6	3.8	8.45e-01	0	27	104	0	72	16971
2026-01-11 01:54:40.54	150.46	39.65	-53.7	-66.6	3.8	8.44e-01	0	27	104	0	72	17005
2026-01-11 01:54:41.54	150.77	39.46	-53.7	-66.6	3.8	8.46e-01	0	27	104	0	72	16942
2026-01-11 01:54:42.54	151.09	39.27	-53.7	-66.6	3.8	8.46e-01	0	27	104	0	72	16950
2026-01-11 01:54:43.54	151.40	39.08	-53.7	-66.6	3.8	8.46e-01	0	27	104	0	72	16992
2026-01-11 01:54:44.55	151.70	38.89	-53.7	-66.6	3.8	8.45e-01	0	27	104	0	72	16966
2026-01-11 01:54:45.54	152.00	38.70	-53.7	-66.6	3.8	8.45e-01	0	27	104	0	72	16950
2026-01-11 01:54:46.55	152.31	38.51	-53.7	-66.6	3.8	8.45e-01	0	27	104	0	72	16969
2026-01-11 01:54:47.55	152.60	38.33	-53.7	-66.6	3.8	8.45e-01	0	27	104	0	72	16986
2026-01-11 01:54:48.55	152.89	38.14	-53.7	-66.6	3.8	8.44e-01	0	27	104	0	72	16948
2026-01-11 01:54:49.55	153.18	37.95	-53.7	-66.6	3.8	8.46e-01	0	27	104	0	72	16922
2026-01-11 01:54:50.54	153.47	37.77	-53.7	-66.6	3.8	8.46e-01	0	27	104	0	72	16981
2026-01-11 01:54:51.54	153.75	37.58	-53.7	-66.6	3.8	8.46e-01	0	27	104	0	72	16986
2026-01-11 01:54:52.54	154.03	37.39	-53.6	-66.6	3.8	8.45e-01	0	27	104	0	72	16961
2026-01-11 01:54:53.55	154.31	37.20	-53.7	-66.6	3.8	8.45e-01	0	27	104	0	72	16957
2026-01-11 01:54:54.55	154.58	37.02	-53.6	-66.6	3.8	8.45e-01	0	27	104	0	72	16989
2026-01-11 01:54:55.56	154.85	36.83	-53.7	-66.6	3.8	8.46e-01	0	27	104	0	72	16953
2026-01-11 01:54:56.57	155.12	36.64	-53.7	-66.6	3.8	8.45e-01	0	27	104	0	72	16998
2026-01-11 01:54:57.57	155.39	36.46	-53.6	-66.6	3.8	8.46e-01	0	27	104	0	72	16949
2026-01-11 01:54:58.57	155.65	36.27	-53.7	-66.6	3.8	8.46e-01	0	27	104	0	72	16915
2026-01-11 01:54:59.58	155.91	36.09	-53.7	-66.6	3.8	8.45e-01	0	27	104	0	72	17012
2026-01-11 01:55:00.58	156.16	35.91	-53.7	-66.6	3.8	8.46e-01	0	27	104	0	72	16982
2026-01-11 01:55:01.58	156.42	35.72	-53.7	-66.6	3.8	8.45e-01	0	27	104	0	72	17040
2026-01-11 01:55:02.58	156.67	35.54	-53.7	-66.6	3.8	8.46e-01	0	27	104	0	72	16997
2026-01-11 01:55:03.59	156.92	35.36	-53.7	-66.6	3.8	8.45e-01	0	27	104	0	72	16932
2026-01-11 01:55:04.59	157.16	35.17	-53.6	-66.6	3.8	8.45e-01	0	27	104	0	72	16939
2026-01-11 01:55:05.60	157.41	34.99	-53.6	-66.6	3.8	8.46e-01	0	27	104	0	72	16978
2026-01-11 01:55:06.60	157.64	34.81	-53.7	-66.6	3.8	8.46e-01	0	27	104	0	72	16920
2026-01-11 01:55:07.60	157.88	34.63	-53.6	-66.6	3.8	8.45e-01	0	27	104	0	72	16959
2026-01-11 01:55:08.60	158.11	34.45	-53.7	-66.6	3.8	8.45e-01	0	27	104	0	72	16988
2026-01-11 01:55:09.60	158.35	34.27	-53.7	-66.6	3.8	8.45e-01	0	27	104	0	72	17015
2026-01-11 01:55:10.60	158.58	34.09	-53.7	-66.6	3.8	8.45e-01	0	27	104	0	72	17031
2026-01-11 01:55:11.60	158.80	33.91	-53.7	-66.6	3.8	8.46e-01	0	27	104	0	72	17024
2026-01-11 01:55:12.59	159.02	33.74	-53.7	-66.6	3.8	8.46e-01	0	27	104	0	72	16959
2026-01-11 01:55:13.60	159.25	33.56	-53.7	-66.6	3.8	8.46e-01	0	27	104	0	72	16984
2026-01-11 01:55:14.60	159.47	33.38	-53.7	-66.6	3.8	8.45e-01	0	27	104	0	72	16959
2026-01-11 01:55:15.60	159.69	33.21	-53.7	-66.6	3.8	8.45e-01	0	27	104	0	72	16983
2026-01-11 01:55:16.61	159.90	33.03	-53.7	-66.6	3.8	8.45e-01	0	27	104	0	72	16995
2026-01-11 01:55:17.60	160.11	32.86	-53.7	-66.6	3.8	8.46e-01	0	27	104	0	72	17021
2026-01-11 01:55:18.60	160.32	32.68	-53.7	-66.6	3.8	8.45e-01	0	27	104	0	72	16977
2026-01-11 01:55:19.60	160.53	32.51	-53.7	-66.6	3.8	8.44e-01	0	27	104	0	72	16975
2026-01-11 01:55:20.61	160.74	32.33	-53.7	-66.6	3.8	8.44e-01	0	27	104	0	72	17030
2026-01-11 01:55:21.62	160.95	32.16	-53.7	-66.6	3.8	8.46e-01	0	27	104	0	72	17024
2026-01-11 01:55:22.62	161.15	31.99	-53.7	-66.6	3.8	8.45e-01	0	27	104	0	72	16979
2026-01-11 01:55:23.62	161.35	31.82	-53.7	-66.6	3.8	8.46e-01	0	27	104	0	72	16969
2026-01-11 01:55:24.62	161.55	31.65	-53.7	-66.6	3.8	8.47e-01	0	27	104	0	72	16979
2026-01-11 01:55:25.62	161.74	31.48	-53.7	-66.6	3.8	8.46e-01	0	27	104	0	72	17050
2026-01-11 01:55:26.62	161.93	31.31	-53.7	-66.6	3.8	8.47e-01	0	27	104	0	72	17003
2026-01-11 01:55:27.62	162.13	31.14	-53.7	-66.6	3.8	8.46e-01	0	27	104	0	72	17035
2026-01-11 01:55:28.62	162.32	30.97	-53.7	-66.6	3.8	8.46e-01	0	27	104	0	72	16986
2026-01-11 01:55:29.61	162.50	30.81	-53.7	-66.6	3.8	8.45e-01	0	27	104	0	72	17010
2026-01-11 01:55:30.61	162.69	30.64	-53.7	-66.6	3.8	8.45e-01	0	27	104	0	72	16990
2026-01-11 01:55:31.61	162.87	30.47	-53.7	-66.6	3.8	8.46e-01	0	27	104	0	72	17046
2026-01-11 01:55:32.60	163.05	30.31	-53.7	-66.6	3.8	8.45e-01	0	27	104	0	72	17009
2026-01-11 01:55:33.61	163.24	30.14	-53.7	-66.6	3.8	8.47e-01	0	27	104	0	72	16977
2026-01-11 01:55:34.61	163.41	29.98	-53.6	-66.6	3.8	8.45e-01	0	27	104	0	72	16950
2026-01-11 01:55:35.60	163.59	29.82	-53.7	-66.6	3.8	8.46e-01	0	27	104	0	72	16983
2026-01-11 01:55:36.60	163.77	29.65	-53.7	-66.6	3.8	8.46e-01	0	27	104	0	72	17022
2026-01-11 01:55:37.60	163.94	29.49	-53.7	-66.6	3.8	8.45e-01	0	27	104	0	72	16997
2026-01-11 01:55:38.59	164.11	29.33	-53.7	-66.6	3.8	8.46e-01	0	27	104	0	72	16917
2026-01-11 01:55:39.60	164.28	29.17	-53.6	-66.6	3.8	8.45e-01	0	27	104	0	72	17005
2026-01-11 01:55:40.60	164.45	29.01	-53.7	-66.6	3.8	8.46e-01	0	27	104	0	72	16960
2026-01-11 01:55:41.60	164.62	28.85	-53.7	-66.6	3.8	8.45e-01	0	27	104	0	72	17003
2026-01-11 01:55:42.59	164.78	28.69	-53.7	-66.6	3.8	8.47e-01	0	27	104	0	72	16945
2026-01-11 01:55:43.59	164.94	28.53	-53.7	-66.6	3.8	8.45e-01	0	27	104	0	72	16985
2026-01-11 01:55:44.60	165.11	28.37	-53.7	-66.6	3.8	8.45e-01	0	27	104	0	72	16987
2026-01-11 01:55:45.59	165.27	28.22	-53.7	-66.6	3.8	8.45e-01	0	27	104	0	72	16988
2026-01-11 01:55:46.60	165.43	28.06	-53.7	-66.6	3.8	8.44e-01	0	27	104	0	72	16978
2026-01-11 01:55:47.60	165.59	27.90	-53.7	-66.6	3.8	8.45e-01	0	27	104	0	72	16965
2026-01-11 01:55:48.59	165.74	27.75	-53.7	-66.6	3.8	8.46e-01	0	27	104	0	72	16974
2026-01-11 01:55:49.60	165.90	27.60	-53.6	-66.6	3.8	8.46e-01	0	27	104	0	72	16967
2026-01-11 01:55:50.59	166.05	27.44	-53.7	-66.6	3.8	8.46e-01	0	27	104	0	72	16941
2026-01-11 01:55:51.59	166.20	27.29	-53.7	-66.6	3.8	8.44e-01	0	27	104	0	72	16996
2026-01-11 01:55:52.59	166.35	27.14	-53.7	-66.6	3.8	8.46e-01	0	27	104	0	72	17020
2026-01-11 01:55:53.59	166.50	26.99	-53.7	-66.6	3.8	8.45e-01	0	27	104	0	72	16966
2026-01-11 01:55:54.58	166.65	26.84	-53.7	-66.6	3.8	8.46e-01	0	27	104	0	72	16994
2026-01-11 01:55:55.58	166.79	26.69	-53.7	-66.6	3.8	8.46e-01	0	27	104	0	72	16932
2026-01-11 01:55:56.59	166.94	26.53	-53.7	-66.6	3.8	8.45e-01	0	27	104	0	72	16968
2026-01-11 01:55:57.60	167.08	26.38	-53.7	-66.6	3.8	8.46e-01	0	27	104	0	72	16966
2026-01-11 01:55:58.60	167.23	26.23	-53.7	-66.6	3.8	8.45e-01	0	27	104	0	72	16991
2026-01-11 01:55:59.60	167.37	26.09	-53.7	-66.6	3.8	8.45e-01	0	27	104	0	72	16989
2026-01-11 01:56:00.60	167.51	25.94	-53.7	-66.6	3.8	8.46e-01	0	27	104	0	72	16965
2026-01-11 01:56:01.61	167.65	25.79	-53.7	-66.6	3.8	8.46e-01	0	27	104	0	72	16947
2026-01-11 01:56:02.62	167.79	25.64	-53.7	-66.6	3.8	8.46e-01	0	27	104	0	72	17006
2026-01-11 01:56:03.62	167.92	25.50	-53.7	-66.6	3.8	8.47e-01	0	27	104	0	72	16973
2026-01-11 01:56:04.62	168.06	25.35	-53.7	-66.6	3.8	8.46e-01	0	27	104	0	72	16940
2026-01-11 01:56:05.61	168.19	25.21	-53.7	-66.6	3.8	8.45e-01	0	27	104	0	72	16960
2026-01-11 01:56:06.61	168.32	25.07	-53.7	-66.6	3.8	8.46e-01	0	27	104	0	72	16951
2026-01-11 01:56:07.62	168.46	24.92	-53.6	-66.6	3.8	8.45e-01	0	27	104	0	72	16916
2026-01-11 01:56:08.62	168.59	24.78	-53.7	-66.6	3.8	8.46e-01	0	27	104	0	72	16975
2026-01-11 01:56:09.61	168.71	24.64	-53.7	-66.6	3.8	8.45e-01	0	27	104	0	72	17016
2026-01-11 01:56:10.61	168.84	24.50	-53.7	-66.6	3.8	8.45e-01	0	27	104	0	72	16947
2026-01-11 01:56:11.61	168.97	24.36	-53.6	-66.6	3.8	8.47e-01	0	27	104	0	72	17010
2026-01-11 01:56:12.61	169.10	24.22	-53.7	-66.6	3.8	8.45e-01	0	27	104	0	72	17009
2026-01-11 01:56:13.61	169.22	24.08	-53.7	-66.6	3.8	8.45e-01	0	27	104	0	72	16958
2026-01-11 01:56:14.62	169.35	23.94	-53.7	-66.6	3.8	8.45e-01	0	27	104	0	72	16957
2026-01-11 01:56:15.62	169.47	23.80	-53.7	-66.6	3.8	8.44e-01	0	27	104	0	72	16975
2026-01-11 01:56:16.61	169.59	23.67	-53.7	-66.6	3.8	8.46e-01	0	27	104	0	72	16962
2026-01-11 01:56:17.62	169.71	23.53	-53.6	-66.6	3.8	8.45e-01	0	27	104	0	72	16947
2026-01-11 01:56:18.61	169.83	23.39	-53.6	-66.6	3.8	8.45e-01	0	27	104	0	72	16977
2026-01-11 01:56:19.62	169.95	23.26	-53.7	-66.6	3.8	8.46e-01	0	27	104	0	72	16939
2026-01-11 01:56:20.62	170.07	23.12	-53.7	-66.6	3.8	8.45e-01	0	27	104	0	72	16974
2026-01-11 01:56:21.62	170.18	22.99	-53.7	-66.6	3.8	8.45e-01	0	27	104	0	72	16926
2026-01-11 01:56:22.62	170.30	22.85	-53.7	-66.6	3.8	8.45e-01	0	27	104	0	72	16947
2026-01-11 01:56:23.63	170.41	22.72	-53.7	-66.6	3.8	8.45e-01	0	27	104	0	72	16964
2026-01-11 01:56:24.63	170.53	22.59	-53.7	-66.6	3.8	8.45e-01	0	27	104	0	72	16976
2026-01-11 01:56:25.63	170.64	22.45	-53.7	-66.6	3.8	8.46e-01	0	27	104	0	72	17027
2026-01-11 01:56:26.63	170.75	22.32	-53.6	-66.6	3.8	8.46e-01	0	27	104	0	72	16951
2026-01-11 01:56:27.63	170.86	22.19	-53.7	-66.6	3.8	8.46e-01	0	27	104	0	72	16975
2026-01-11 01:56:28.63	170.97	22.06	-53.7	-66.6	3.8	8.47e-01	0	27	104	0	72	17021
2026-01-11 01:56:29.63	171.08	21.93	-53.7	-66.6	3.8	8.45e-01	0	27	104	0	72	17003
2026-01-11 01:56:30.63	171.19	21.80	-53.7	-66.6	3.8	8.44e-01	0	27	104	0	72	16975
2026-01-11 01:56:31.63	171.30	21.67	-53.7	-66.6	3.8	8.46e-01	0	27	104	0	72	16936
2026-01-11 01:56:32.63	171.41	21.54	-53.6	-66.6	3.8	8.45e-01	0	27	104	0	72	16968
2026-01-11 01:56:33.64	171.51	21.42	-53.6	-66.6	3.8	8.46e-01	0	27	104	0	72	16925
2026-01-11 01:56:34.64	171.62	21.29	-53.6	-66.6	3.8	8.45e-01	0	27	104	0	72	16963
2026-01-11 01:56:35.64	171.72	21.16	-53.6	-66.6	3.8	8.46e-01	0	27	104	0	72	16971
2026-01-11 01:56:36.64	171.83	21.04	-53.6	-66.6	3.8	8.45e-01	0	27	104	0	72	16952
2026-01-11 01:56:37.64	171.93	20.91	-53.7	-66.6	3.8	8.44e-01	0	27	104	0	72	16904
2026-01-11 01:56:38.63	172.03	20.79	-53.6	-66.6	3.8	8.45e-01	0	27	104	0	72	17021
2026-01-11 01:56:39.63	172.13	20.66	-53.6	-66.6	3.8	8.45e-01	0	27	104	0	72	16924
2026-01-11 01:56:40.63	172.23	20.54	-53.7	-66.6	3.8	8.47e-01	0	27	104	0	72	16925
2026-01-11 01:56:41.64	172.33	20.41	-53.6	-66.6	3.8	8.47e-01	0	27	104	0	72	16975
2026-01-11 01:56:42.63	172.43	20.29	-53.7	-66.6	3.8	8.46e-01	0	27	104	0	72	16963
2026-01-11 01:56:43.63	172.53	20.17	-53.7	-66.6	3.8	8.45e-01	0	27	104	0	72	16948
2026-01-11 01:56:44.63	172.62	20.05	-53.7	-66.6	3.8	8.46e-01	0	27	104	0	72	16964
2026-01-11 01:56:45.63	172.72	19.93	-53.7	-66.6	3.8	8.46e-01	0	27	104	0	72	16939
2026-01-11 01:56:46.63	172.82	19.81	-53.7	-66.6	3.8	8.47e-01	0	27	104	0	72	17040
2026-01-11 01:56:47.63	172.91	19.69	-53.7	-66.6	3.8	8.45e-01	0	27	104	0	72	16982
2026-01-11 01:56:48.62	173.01	19.57	-53.7	-66.6	3.8	8.46e-01	0	27	104	0	72	17027
2026-01-11 01:56:49.62	173.10	19.45	-53.7	-66.6	3.8	8.46e-01	0	27	104	0	72	17001
2026-01-11 01:56:50.62	173.19	19.33	-53.7	-66.6	3.8	8.45e-01	0	27	104	0	72	16972
2026-01-11 01:56:51.63	173.29	19.21	-53.7	-66.6	3.8	8.45e-01	0	27	104	0	72	16946
2026-01-11 01:56:52.63	173.38	19.09	-53.7	-66.6	3.8	8.43e-01	0	27	104	0	72	16991
2026-01-11 01:56:53.63	173.47	18.98	-53.7	-66.6	3.8	8.45e-01	0	27	104	0	72	16965
2026-01-11 01:56:54.64	173.56	18.86	-53.7	-66.6	3.8	8.44e-01	0	27	104	0	72	16936
2026-01-11 01:56:55.63	173.65	18.74	-53.6	-66.6	3.8	8.44e-01	0	27	104	0	72	16957
2026-01-11 01:56:56.63	173.74	18.63	-53.7	-66.6	3.8	8.46e-01	0	27	104	0	72	16967
2026-01-11 01:56:57.63	173.83	18.51	-53.6	-66.6	3.8	8.46e-01	0	27	104	0	72	16962
2026-01-11 01:56:58.63	173.91	18.40	-53.7	-66.6	3.8	8.46e-01	0	27	104	0	72	16960
2026-01-11 01:56:59.63	174.00	18.28	-53.7	-66.6	3.8	8.45e-01	0	27	104	0	72	16955
2026-01-11 01:57:00.63	174.09	18.17	-53.7	-66.6	3.8	8.45e-01	0	27	104	0	72	17018
2026-01-11 01:57:01.63	174.17	18.06	-53.7	-66.6	3.8	8.44e-01	0	27	104	0	72	16967
2026-01-11 01:57:02.63	174.26	17.94	-53.7	-66.6	3.8	8.46e-01	0	27	104	0	72	16977
2026-01-11 01:57:03.63	174.34	17.83	-53.6	-66.6	3.8	8.46e-01	0	27	104	0	72	16916
2026-01-11 01:57:04.64	174.43	17.72	-53.6	-66.6	3.8	8.46e-01	0	27	104	0	72	16941
2026-01-11 01:57:05.64	174.51	17.61	-53.6	-66.6	3.8	8.46e-01	0	27	104	0	72	16924
2026-01-11 01:57:06.64	174.59	17.49	-53.7	-66.6	3.8	8.46e-01	0	27	104	0	72	16914
2026-01-11 01:57:07.64	174.68	17.38	-53.7	-66.6	3.8	8.45e-01	0	27	104	0	72	16963
2026-01-11 01:57:08.64	174.76	17.27	-53.7	-66.6	3.8	8.45e-01	0	27	104	0	72	16973
2026-01-11 01:57:09.64	174.84	17.16	-53.6	-66.6	3.8	8.45e-01	0	27	104	0	72	16945
2026-01-11 01:57:10.64	174.92	17.05	-53.6	-66.6	3.8	8.46e-01	0	27	104	0	72	16973
2026-01-11 01:57:11.63	175.00	16.95	-53.7	-66.6	3.8	8.45e-01	0	27	104	0	72	16981
2026-01-11 01:57:12.63	175.08	16.84	-53.7	-66.6	3.8	8.45e-01	0	27	104	0	72	16959
2026-01-11 01:57:13.63	175.16	16.73	-53.7	-66.6	3.8	8.46e-01	0	27	104	0	72	17021
2026-01-11 01:57:14.63	175.24	16.62	-53.7	-66.6	3.8	8.45e-01	0	27	104	0	72	16989
2026-01-11 01:57:15.63	175.31	16.52	-53.7	-66.6	3.8	8.45e-01	0	27	104	0	72	16959
2026-01-11 01:57:16.63	175.39	16.41	-53.7	-66.6	3.8	8.46e-01	0	27	104	0	72	16917
2026-01-11 01:57:17.63	175.47	16.30	-53.7	-66.6	3.8	8.46e-01	0	27	104	0	72	16942
2026-01-11 01:57:18.63	175.54	16.20	-53.7	-66.6	3.8	8.46e-01	0	27	104	0	72	16994
2026-01-11 01:57:19.63	175.62	16.09	-53.6	-66.6	3.8	8.45e-01	0	27	104	0	72	16923
2026-01-11 01:57:20.63	175.69	15.99	-53.7	-66.6	3.8	8.47e-01	0	27	104	0	72	16944
2026-01-11 01:57:21.63	175.77	15.88	-53.7	-66.6	3.8	8.45e-01	0	27	104	0	72	16955
2026-01-11 01:57:22.64	175.84	15.78	-53.6	-66.6	3.8	8.46e-01	0	27	104	0	72	16940
2026-01-11 01:57:23.64	175.92	15.67	-53.6	-66.6	3.8	8.46e-01	0	27	104	0	72	16962
2026-01-11 01:57:24.63	175.99	15.57	-53.6	-66.6	3.8	8.44e-01	0	27	104	0	72	16933
2026-01-11 01:57:25.63	176.06	15.47	-53.6	-66.6	3.8	8.46e-01	0	27	104	0	72	16961
2026-01-11 01:57:26.63	176.14	15.36	-53.6	-66.6	3.8	8.46e-01	0	27	104	0	72	16913
2026-01-11 01:57:27.64	176.21	15.26	-53.7	-66.6	3.8	8.46e-01	0	27	104	0	72	16992
2026-01-11 01:57:28.64	176.28	15.16	-53.7	-66.6	3.8	8.45e-01	0	27	104	0	72	16951
2026-01-11 01:57:29.65	176.35	15.06	-53.6	-66.6	3.8	8.47e-01	0	27	104	0	72	16936
2026-01-11 01:57:30.65	176.42	14.95	-53.7	-66.6	3.8	8.45e-01	0	27	104	0	72	16973
2026-01-11 01:57:31.65	176.49	14.85	-53.6	-66.6	3.8	8.45e-01	0	27	104	0	72	16966
2026-01-11 01:57:32.66	176.56	14.75	-53.6	-66.6	3.8	8.46e-01	0	27	104	0	72	16956
2026-01-11 01:57:33.66	176.63	14.65	-53.7	-66.6	3.8	8.45e-01	0	27	104	0	72	16918
2026-01-11 01:57:34.65	176.70	14.55	-53.6	-66.6	3.8	8.46e-01	0	27	104	0	72	16947
2026-01-11 01:57:35.66	176.77	14.45	-53.7	-66.6	3.8	8.45e-01	0	27	104	0	72	16971
2026-01-11 01:57:36.65	176.84	14.36	-53.7	-66.6	3.8	8.46e-01	0	27	104	0	72	17021
2026-01-11 01:57:37.65	176.90	14.26	-53.7	-66.6	3.8	8.46e-01	0	27	104	0	72	16940
2026-01-11 01:57:38.65	176.97	14.16	-53.7	-66.6	3.8	8.46e-01	0	27	104	0	72	16920
2026-01-11 01:57:39.65	177.04	14.06	-53.7	-66.6	3.8	8.45e-01	0	27	104	0	72	16972
2026-01-11 01:57:40.65	177.10	13.96	-53.7	-66.6	3.8	8.44e-01	0	27	104	0	72	17002
2026-01-11 01:57:41.65	177.17	13.87	-53.7	-66.6	3.8	8.45e-01	0	27	104	0	72	16944
2026-01-11 01:57:42.65	177.24	13.77	-53.7	-66.6	3.8	8.45e-01	0	27	104	0	72	16994
2026-01-11 01:57:43.66	177.30	13.67	-53.7	-66.6	3.8	8.46e-01	0	27	104	0	72	16965
2026-01-11 01:57:44.65	177.37	13.58	-53.7	-66.6	3.8	8.44e-01	0	27	104	0	72	16968
2026-01-11 01:57:45.65	177.43	13.48	-53.7	-66.6	3.8	8.46e-01	0	27	104	0	72	17033
2026-01-11 01:57:46.65	177.49	13.39	-53.7	-66.6	3.8	8.45e-01	0	27	104	0	72	16957
2026-01-11 01:57:47.65	177.56	13.29	-53.7	-66.6	3.8	8.44e-01	0	27	104	0	72	16969
2026-01-11 01:57:48.65	177.62	13.20	-53.7	-66.6	3.8	8.46e-01	0	27	104	0	72	17032
2026-01-11 01:57:49.65	177.68	13.10	-53.7	-66.6	3.8	8.45e-01	0	27	104	0	72	16932
2026-01-11 01:57:50.64	177.75	13.01	-53.6	-66.6	3.8	8.45e-01	0	27	104	0	72	16928
2026-01-11 01:57:51.65	177.81	12.92	-53.6	-66.6	3.8	8.45e-01	0	27	104	0	72	16952
2026-01-11 01:57:52.64	177.87	12.82	-53.7	-66.6	3.8	8.45e-01	0	27	104	0	72	16935
2026-01-11 01:57:53.64	177.93	12.73	-53.7	-66.6	3.8	8.46e-01	0	27	104	0	72	16983
2026-01-11 01:57:54.65	177.99	12.64	-53.7	-66.6	3.8	8.46e-01	0	27	104	0	72	16960
2026-01-11 01:57:55.65	178.05	12.54	-53.7	-66.6	3.8	8.46e-01	0	27	104	0	72	16944
2026-01-11 01:57:56.65	178.11	12.45	-53.7	-66.6	3.8	8.46e-01	0	27	104	0	72	16938
2026-01-11 01:57:57.65	178.17	12.36	-53.7	-66.6	3.8	8.45e-01	0	27	104	0	72	16955
2026-01-11 01:57:58.66	178.23	12.27	-53.7	-66.6	3.8	8.45e-01	0	27	104	0	72	16982
2026-01-11 01:57:59.66	178.29	12.18	-53.7	-66.6	3.8	8.46e-01	0	27	104	0	72	17000
2026-01-11 01:58:00.66	178.35	12.09	-53.6	-66.6	3.8	8.45e-01	0	27	104	0	72	16963
2026-01-11 01:58:01.67	178.41	11.99	-53.6	-66.6	3.8	8.45e-01	0	27	104	0	72	16920
2026-01-11 01:58:02.67	178.47	11.90	-53.6	-66.6	3.8	8.44e-01	0	27	104	0	72	16940
2026-01-11 01:58:03.67	178.53	11.82	-53.7	-66.6	3.8	8.45e-01	0	27	104	0	72	16894
2026-01-11 01:58:04.67	178.58	11.73	-53.7	-66.6	3.8	8.45e-01	0	27	104	0	72	16973
2026-01-11 01:58:05.67	178.64	11.64	-53.7	-66.6	3.8	8.45e-01	0	27	104	0	72	16944
2026-01-11 01:58:06.67	178.70	11.55	-53.7	-66.6	3.8	8.46e-01	0	27	104	0	72	16948
2026-01-11 01:58:07.68	178.75	11.46	-53.7	-66.6	3.8	8.46e-01	0	27	104	0	72	16951
2026-01-11 01:58:08.68	178.81	11.37	-53.7	-66.6	3.8	8.46e-01	0	27	104	0	72	16974
2026-01-11 01:58:09.68	178.87	11.28	-53.7	-66.6	3.8	8.45e-01	0	27	104	0	72	17024
2026-01-11 01:58:10.67	178.92	11.19	-53.7	-66.6	3.8	8.47e-01	0	27	104	0	72	16999
2026-01-11 01:58:11.68	178.98	11.11	-53.6	-66.6	3.8	8.45e-01	0	27	104	0	72	16956
2026-01-11 01:58:12.68	179.03	11.02	-53.6	-66.6	3.8	8.46e-01	0	27	104	0	72	16969
2026-01-11 01:58:13.68	179.09	10.93	-53.6	-66.6	3.8	8.46e-01	0	27	104	0	72	16953
2026-01-11 01:58:14.69	179.14	10.85	-53.7	-66.6	3.8	8.45e-01	0	27	104	0	72	16942
2026-01-11 01:58:15.69	179.20	10.76	-53.6	-66.6	3.8	8.44e-01	0	27	104	0	72	16947
2026-01-11 01:58:16.70	179.25	10.67	-53.7	-66.6	3.8	8.45e-01	0	27	104	0	72	16896
2026-01-11 01:58:17.70	179.30	10.59	-53.7	-66.6	3.8	8.45e-01	0	27	104	0	72	16945
2026-01-11 01:58:18.70	179.36	10.50	-53.7	-66.6	3.8	8.47e-01	0	27	104	0	72	16949
2026-01-11 01:58:19.70	179.41	10.42	-53.7	-66.6	3.8	8.45e-01	0	27	104	0	72	16986
2026-01-11 01:58:20.70	179.46	10.33	-53.7	-66.6	3.8	8.47e-01	0	27	104	0	72	16949
