passes_logs/2026/01/11/R3.2S_Murmansk/R3.2S_Murmansk__20260111_092403_NOAA_20_JPSS-1_rec.log

#Pass ID: 20260111_092403_NOAA 20 (JPSS-1)
#Satellite: NOAA 20 (JPSS-1)
#Configuration: NOAA 20
#almurnet v.1.7.20251203
#Start time: 2026-01-11 09:24:04

#Version: 2.2.20231116
#Station: R3.2S_Murmansk
#Location: 33.079688 lon 68.888172 lat
#TLE: 1 43013U 17073A   26010.88944318  .00000078  00000+0  57801-4 0  9992
#TLE: 2 43013  98.7631 311.8723 0001655  45.1140 315.0170 14.19535117422152

#Time	Az	El	Level	Level2	SNR	BER	BlckErr	Temp	State	Recorded	gain1	gain2
2026-01-11 09:24:04.16	148.73	2.05	-57.0	-72.9	3.8	1.49e+00	0	21	0	0	79	23579
2026-01-11 09:24:05.17	148.73	2.12	-57.0	-72.9	3.8	1.49e+00	0	21	104	0	79	23569
2026-01-11 09:24:06.17	148.73	2.18	-57.0	-72.9	3.8	1.49e+00	0	21	104	0	79	23515
2026-01-11 09:24:07.18	148.73	2.25	-57.0	-72.9	3.8	1.49e+00	0	21	104	0	79	23569
2026-01-11 09:24:08.18	148.73	2.31	-57.0	-73.0	3.8	1.49e+00	0	21	104	0	79	23589
2026-01-11 09:24:09.19	148.73	2.38	-57.0	-72.9	3.8	1.49e+00	0	21	104	0	79	23547
2026-01-11 09:24:10.20	148.73	2.45	-57.0	-72.9	3.8	1.49e+00	0	21	104	0	79	23562
2026-01-11 09:24:11.21	148.73	2.51	-57.0	-73.0	3.8	1.49e+00	0	21	104	0	79	23618
2026-01-11 09:24:12.22	148.73	2.58	-57.0	-72.9	3.8	1.49e+00	0	21	104	0	79	23575
2026-01-11 09:24:13.23	148.73	2.64	-57.0	-73.0	3.8	1.49e+00	0	21	104	0	79	23596
2026-01-11 09:24:14.24	148.73	2.71	-57.0	-73.0	3.8	1.49e+00	0	21	104	0	79	23633
2026-01-11 09:24:15.25	148.73	2.78	-57.0	-73.0	3.8	1.49e+00	0	21	104	0	79	23599
2026-01-11 09:24:16.26	148.73	2.84	-57.0	-72.9	3.8	1.49e+00	0	21	104	0	79	23520
2026-01-11 09:24:17.27	148.73	2.91	-57.0	-72.9	3.8	1.49e+00	0	21	104	0	79	23476
2026-01-11 09:24:18.28	148.72	2.98	-57.0	-72.9	3.8	1.49e+00	0	21	104	0	79	23448
2026-01-11 09:24:19.28	148.72	3.04	-57.0	-72.9	3.8	1.49e+00	0	21	104	0	79	23389
2026-01-11 09:24:20.29	148.72	3.11	-57.0	-72.8	3.8	1.49e+00	0	22	104	0	79	23236
2026-01-11 09:24:21.30	148.72	3.18	-57.0	-72.8	3.8	1.49e+00	0	21	104	0	79	23249
2026-01-11 09:24:22.31	148.72	3.25	-57.0	-72.7	3.8	1.49e+00	0	22	104	0	79	22983
2026-01-11 09:24:23.32	148.72	3.32	-57.0	-72.6	3.8	1.49e+00	0	21	104	0	79	22624
2026-01-11 09:24:24.32	148.72	3.38	-57.0	-72.3	3.8	1.49e+00	0	22	104	0	79	21934
2026-01-11 09:24:25.33	148.72	3.45	-57.0	-72.0	3.8	1.49e+00	0	22	104	0	79	21243
2026-01-11 09:24:26.34	148.72	3.52	-56.9	-71.6	3.8	1.49e+00	0	22	104	0	79	20193
2026-01-11 09:24:27.34	148.72	3.59	-56.9	-71.2	3.8	1.49e+00	0	21	104	0	79	19195
2026-01-11 09:24:28.35	148.72	3.66	-56.9	-70.3	4.0	1.48e+00	0	22	104	0	79	17473
2026-01-11 09:24:29.36	148.72	3.72	-56.8	-69.8	4.1	1.46e+00	0	22	0	0	79	16365
2026-01-11 09:24:30.37	148.72	3.79	-56.8	-69.1	4.3	1.40e+00	0	22	0	0	79	15162
2026-01-11 09:24:31.38	148.71	3.86	-56.7	-67.5	4.9	8.39e-01	0	22	0	1048576	79	12663
2026-01-11 09:24:32.39	148.71	3.93	-56.6	-66.8	5.2	6.73e-01	0	22	0	3145728	79	11594
2026-01-11 09:24:33.39	148.71	4.00	-56.5	-65.6	6.0	3.70e-01	0	22	0	5242880	79	10169
2026-01-11 09:24:34.40	148.71	4.07	-56.4	-64.6	6.8	2.37e-01	0	22	0	6291456	79	9061
2026-01-11 09:24:35.41	148.71	4.14	-56.2	-63.9	7.4	1.26e-01	0	22	0	8388608	79	8331
2026-01-11 09:24:36.42	148.71	4.21	-56.0	-63.0	8.3	5.10e-02	0	22	0	10485760	78	7909
2026-01-11 09:24:37.43	148.71	4.28	-55.8	-62.1	9.1	2.46e-02	0	22	0	12582912	78	7125
2026-01-11 09:24:38.43	148.71	4.35	-55.6	-61.6	9.5	5.31e-03	0	22	0	14680064	77	7127
2026-01-11 09:24:39.44	148.71	4.42	-55.4	-60.8	10.2	4.40e-03	0	22	0	15728640	77	6502
2026-01-11 09:24:40.44	148.71	4.49	-55.3	-60.4	10.5	1.45e-03	0	22	0	17825792	77	6245
2026-01-11 09:24:41.46	148.71	4.56	-55.1	-59.9	10.8	6.50e-04	0	22	0	19922944	76	6257
2026-01-11 09:24:42.46	148.70	4.64	-55.0	-59.6	11.1	2.33e-04	0	22	0	22020096	76	6031
2026-01-11 09:24:43.47	148.70	4.71	-54.9	-59.4	11.3	2.49e-04	0	22	0	24117248	76	5901
2026-01-11 09:24:44.48	148.70	4.78	-54.9	-59.4	11.3	1.52e-04	0	22	0	25165824	76	5906
2026-01-11 09:24:45.49	148.70	4.85	-54.8	-59.2	11.5	8.39e-05	0	22	0	27262976	76	5752
2026-01-11 09:24:46.49	148.70	4.92	-54.8	-59.1	11.6	6.94e-05	0	22	0	29360128	76	5673
2026-01-11 09:24:47.50	148.70	4.99	-54.9	-59.4	11.3	9.30e-05	0	22	0	31457280	76	5878
2026-01-11 09:24:48.51	148.70	5.07	-54.9	-59.1	11.8	1.96e-04	0	22	0	33554432	76	5715
2026-01-11 09:24:49.51	148.70	5.14	-55.6	-61.3	9.8	3.95e-03	0	22	0	34603008	76	7370
2026-01-11 09:24:50.52	148.69	5.21	-55.0	-59.6	11.0	4.10e-01	0	22	0	36700160	76	6028
2026-01-11 09:24:51.53	148.69	5.28	-54.2	-57.8	12.5	4.50e-06	0	22	0	38797312	74	5515
2026-01-11 09:24:52.54	148.69	5.36	-54.2	-57.9	12.5	1.44e-04	0	22	0	40894464	74	5589
2026-01-11 09:24:53.54	148.69	5.43	-54.8	-59.1	11.3	1.90e-01	0	22	0	42991616	76	5683
2026-01-11 09:24:54.55	148.69	5.50	-54.0	-57.5	12.8	1.50e-06	0	22	0	44040192	74	5280
2026-01-11 09:24:55.56	148.69	5.58	-53.9	-57.4	12.8	7.00e-07	0	22	0	46137344	74	5225
2026-01-11 09:24:56.57	148.69	5.65	-53.9	-57.3	12.9	0.00e+00	0	22	0	48234496	74	5213
2026-01-11 09:24:57.57	148.69	5.73	-53.8	-57.2	13.0	0.00e+00	0	22	0	50331648	74	5110
2026-01-11 09:24:58.58	148.68	5.80	-53.9	-57.3	12.9	0.00e+00	0	22	0	52428800	74	5166
2026-01-11 09:24:59.59	148.68	5.87	-54.0	-57.4	12.8	7.00e-07	0	22	0	53477376	74	5266
2026-01-11 09:25:00.60	148.68	5.95	-54.0	-57.5	12.8	7.00e-07	0	22	0	55574528	74	5283
2026-01-11 09:25:01.61	148.68	6.02	-54.0	-57.5	12.8	0.00e+00	0	22	0	57671680	74	5299
2026-01-11 09:25:02.62	148.68	6.10	-54.0	-57.4	12.9	7.00e-07	0	22	0	59768832	74	5273
2026-01-11 09:25:03.62	148.68	6.18	-53.9	-57.3	13.0	0.00e+00	0	22	0	61865984	74	5174
2026-01-11 09:25:04.63	148.67	6.25	-53.9	-57.3	13.0	7.00e-07	0	22	0	62914560	74	5176
2026-01-11 09:25:05.64	148.67	6.33	-53.8	-57.1	13.1	7.00e-07	0	22	0	65011712	74	5067
2026-01-11 09:25:06.65	148.67	6.40	-53.9	-57.2	13.0	0.00e+00	0	22	0	67108864	74	5159
2026-01-11 09:25:07.65	148.67	6.48	-53.9	-57.2	13.1	0.00e+00	0	22	0	69206016	74	5145
2026-01-11 09:25:08.67	148.67	6.56	-53.9	-57.2	13.1	0.00e+00	0	22	0	71303168	74	5116
2026-01-11 09:25:09.68	148.67	6.63	-53.9	-57.1	13.2	7.00e-07	0	22	0	73400320	74	5077
2026-01-11 09:25:10.68	148.66	6.71	-53.8	-57.0	13.2	7.00e-07	0	22	0	74448896	74	5007
2026-01-11 09:25:11.69	148.66	6.79	-53.9	-57.1	13.2	0.00e+00	0	22	0	76546048	74	5058
2026-01-11 09:25:12.69	148.66	6.86	-53.8	-57.0	13.3	0.00e+00	0	22	0	78643200	74	4999
2026-01-11 09:25:13.70	148.66	6.94	-53.8	-56.9	13.3	0.00e+00	0	22	0	80740352	74	4974
2026-01-11 09:25:14.70	148.66	7.02	-53.7	-56.7	13.4	0.00e+00	0	22	0	82837504	74	4866
2026-01-11 09:25:15.71	148.66	7.10	-53.8	-56.8	13.3	0.00e+00	0	22	0	83886080	74	4924
2026-01-11 09:25:16.72	148.65	7.18	-53.7	-56.7	13.4	0.00e+00	0	22	0	85983232	74	4870
2026-01-11 09:25:17.73	148.65	7.25	-53.8	-56.8	13.4	0.00e+00	0	22	0	88080384	74	4926
2026-01-11 09:25:18.74	148.65	7.33	-53.8	-56.9	13.4	0.00e+00	0	22	0	90177536	74	4939
2026-01-11 09:25:19.74	148.65	7.41	-53.8	-56.8	13.4	0.00e+00	0	22	0	91226112	74	4904
2026-01-11 09:25:20.75	148.65	7.49	-53.7	-56.7	13.5	0.00e+00	0	22	0	93323264	74	4865
2026-01-11 09:25:21.76	148.64	7.57	-53.7	-56.8	13.5	0.00e+00	0	22	0	95420416	74	4871
2026-01-11 09:25:22.76	148.64	7.65	-53.8	-56.9	13.4	0.00e+00	0	22	0	97517568	74	4929
2026-01-11 09:25:23.77	148.64	7.73	-53.7	-56.7	13.5	0.00e+00	0	22	0	99614720	74	4837
2026-01-11 09:25:24.78	148.64	7.81	-53.7	-56.7	13.5	0.00e+00	0	23	0	101711872	74	4834
2026-01-11 09:25:25.79	148.63	7.89	-53.7	-56.7	13.6	0.00e+00	0	23	0	102760448	74	4846
2026-01-11 09:25:26.80	148.63	7.97	-53.6	-56.6	13.5	0.00e+00	0	22	0	104857600	73	5073
2026-01-11 09:25:27.80	148.63	8.05	-53.5	-56.4	13.6	0.00e+00	0	22	0	106954752	73	4961
2026-01-11 09:25:28.81	148.63	8.14	-53.6	-56.5	13.5	0.00e+00	0	22	0	109051904	73	5028
2026-01-11 09:25:29.82	148.63	8.22	-53.6	-56.5	13.5	0.00e+00	0	22	0	111149056	73	5027
2026-01-11 09:25:30.83	148.62	8.30	-53.6	-56.5	13.6	0.00e+00	0	22	0	112197632	73	5006
2026-01-11 09:25:31.84	148.62	8.38	-53.5	-56.4	13.6	0.00e+00	0	23	0	114294784	73	4946
2026-01-11 09:25:32.84	148.62	8.46	-53.6	-56.5	13.6	0.00e+00	0	22	0	116391936	73	4988
2026-01-11 09:25:33.85	148.62	8.55	-53.6	-56.4	13.6	0.00e+00	0	22	0	118489088	73	4980
2026-01-11 09:25:34.86	148.61	8.63	-53.5	-56.4	13.6	0.00e+00	0	22	0	120586240	73	4972
2026-01-11 09:25:35.87	148.61	8.71	-53.5	-56.3	13.7	0.00e+00	0	23	0	121634816	73	4908
2026-01-11 09:25:36.88	148.61	8.80	-53.4	-56.2	13.8	0.00e+00	0	22	0	123731968	73	4856
2026-01-11 09:25:37.89	148.61	8.88	-53.5	-56.3	13.8	0.00e+00	0	23	0	125829120	73	4890
2026-01-11 09:25:38.89	148.60	8.97	-53.5	-56.3	13.7	0.00e+00	0	23	0	127926272	73	4906
2026-01-11 09:25:39.90	148.60	9.05	-53.4	-56.2	13.8	0.00e+00	0	23	0	130023424	73	4843
2026-01-11 09:25:40.91	148.60	9.13	-53.4	-56.2	13.8	0.00e+00	0	22	0	131072000	73	4845
2026-01-11 09:25:41.92	148.60	9.22	-53.4	-56.2	13.8	0.00e+00	0	23	0	133169152	73	4822
2026-01-11 09:25:42.92	148.59	9.30	-53.3	-56.0	13.9	0.00e+00	0	22	0	135266304	73	4753
2026-01-11 09:25:43.93	148.59	9.39	-53.4	-56.2	13.8	0.00e+00	0	23	0	137363456	73	4818
2026-01-11 09:25:44.94	148.59	9.48	-53.4	-56.1	13.9	0.00e+00	0	23	0	139460608	73	4795
2026-01-11 09:25:45.94	148.58	9.56	-53.4	-56.1	13.9	0.00e+00	0	23	0	140509184	73	4800
2026-01-11 09:25:46.95	148.58	9.65	-53.4	-56.1	13.9	0.00e+00	0	23	0	142606336	73	4784
2026-01-11 09:25:47.96	148.58	9.74	-53.3	-56.0	14.0	0.00e+00	0	22	0	144703488	73	4714
2026-01-11 09:25:48.97	148.58	9.82	-53.3	-55.9	14.0	0.00e+00	0	23	0	146800640	73	4677
2026-01-11 09:25:49.98	148.57	9.91	-53.4	-56.0	14.0	0.00e+00	0	23	0	148897792	73	4744
2026-01-11 09:25:50.99	148.57	10.00	-53.4	-56.1	13.9	0.00e+00	0	23	0	149946368	73	4760
2026-01-11 09:25:52.00	148.57	10.09	-53.3	-55.9	14.0	0.00e+00	0	23	0	152043520	73	4703
2026-01-11 09:25:53.01	148.56	10.17	-53.4	-56.1	13.9	0.00e+00	0	23	0	154140672	73	4779
2026-01-11 09:25:54.01	148.56	10.26	-53.3	-55.9	14.1	0.00e+00	0	23	0	156237824	73	4660
2026-01-11 09:25:55.02	148.56	10.35	-53.3	-55.9	14.0	0.00e+00	0	23	0	158334976	73	4693
2026-01-11 09:25:56.03	148.55	10.44	-53.2	-55.9	14.1	0.00e+00	0	23	0	159383552	73	4660
2026-01-11 09:25:57.04	148.55	10.53	-53.3	-56.0	14.0	0.00e+00	0	22	0	161480704	73	4706
2026-01-11 09:25:58.04	148.55	10.62	-53.3	-55.9	14.0	0.00e+00	0	22	0	163577856	73	4702
2026-01-11 09:25:59.05	148.54	10.71	-53.2	-55.8	14.1	0.00e+00	0	22	0	165675008	73	4613
2026-01-11 09:26:00.06	148.54	10.80	-53.2	-55.8	14.0	0.00e+00	0	23	0	167772160	72	4910
2026-01-11 09:26:01.08	148.54	10.89	-53.1	-55.7	14.0	0.00e+00	0	23	0	168820736	72	4850
2026-01-11 09:26:02.08	148.53	10.98	-53.1	-55.7	14.0	0.00e+00	0	22	0	170917888	72	4831
2026-01-11 09:26:03.09	148.53	11.08	-53.2	-55.8	14.0	0.00e+00	0	22	0	173015040	72	4903
2026-01-11 09:26:04.10	148.53	11.17	-53.1	-55.6	14.1	0.00e+00	0	23	0	175112192	72	4769
2026-01-11 09:26:05.11	148.52	11.26	-53.0	-55.5	14.2	0.00e+00	0	23	0	177209344	72	4707
2026-01-11 09:26:06.12	148.52	11.35	-53.0	-55.5	14.2	0.00e+00	0	23	0	178257920	72	4714
2026-01-11 09:26:07.12	148.51	11.45	-53.1	-55.5	14.2	0.00e+00	0	23	0	180355072	72	4756
2026-01-11 09:26:08.13	148.51	11.54	-53.1	-55.6	14.1	0.00e+00	0	23	0	182452224	72	4762
2026-01-11 09:26:09.14	148.51	11.63	-52.9	-55.4	14.3	0.00e+00	0	23	0	184549376	72	4661
2026-01-11 09:26:10.14	148.50	11.73	-53.0	-55.5	14.2	0.00e+00	0	23	0	186646528	72	4720
2026-01-11 09:26:11.15	148.50	11.82	-53.0	-55.4	14.3	0.00e+00	0	23	0	187695104	72	4682
2026-01-11 09:26:12.16	148.50	11.92	-52.9	-55.3	14.3	0.00e+00	0	23	0	189792256	72	4651
2026-01-11 09:26:13.17	148.49	12.01	-53.0	-55.5	14.2	0.00e+00	0	23	0	191889408	72	4743
2026-01-11 09:26:14.17	148.49	12.11	-53.0	-55.4	14.2	0.00e+00	0	23	0	193986560	72	4704
2026-01-11 09:26:15.18	148.48	12.20	-53.0	-55.5	14.2	0.00e+00	0	23	0	196083712	72	4718
2026-01-11 09:26:16.19	148.48	12.30	-52.9	-55.4	14.3	0.00e+00	0	23	0	197132288	72	4657
2026-01-11 09:26:17.20	148.47	12.40	-53.0	-55.4	14.3	0.00e+00	0	23	0	199229440	72	4666
2026-01-11 09:26:18.21	148.47	12.49	-53.0	-55.4	14.3	0.00e+00	0	23	0	201326592	72	4688
2026-01-11 09:26:19.22	148.47	12.59	-53.0	-55.4	14.3	0.00e+00	0	23	0	203423744	72	4673
2026-01-11 09:26:20.23	148.46	12.69	-52.8	-55.1	14.5	0.00e+00	0	23	0	205520896	72	4525
2026-01-11 09:26:21.23	148.46	12.79	-52.7	-55.0	14.5	0.00e+00	0	23	0	206569472	72	4473
2026-01-11 09:26:22.23	148.45	12.89	-52.7	-55.0	14.5	0.00e+00	0	23	0	208666624	72	4479
2026-01-11 09:26:23.24	148.45	12.98	-52.7	-55.0	14.6	0.00e+00	0	23	0	210763776	72	4447
2026-01-11 09:26:24.25	148.44	13.08	-52.7	-55.0	14.4	0.00e+00	0	23	0	212860928	71	4719
2026-01-11 09:26:25.26	148.44	13.18	-52.7	-55.1	14.4	0.00e+00	0	23	0	214958080	71	4766
2026-01-11 09:26:26.26	148.43	13.28	-52.7	-55.0	14.4	0.00e+00	0	22	0	216006656	71	4718
2026-01-11 09:26:27.27	148.43	13.38	-52.6	-54.9	14.4	0.00e+00	0	23	0	218103808	71	4691
2026-01-11 09:26:28.28	148.42	13.49	-52.6	-54.8	14.5	0.00e+00	0	23	0	220200960	71	4627
2026-01-11 09:26:29.29	148.42	13.59	-52.6	-54.9	14.5	0.00e+00	0	23	0	222298112	71	4672
2026-01-11 09:26:30.30	148.42	13.69	-52.6	-54.9	14.5	0.00e+00	0	23	0	224395264	71	4679
2026-01-11 09:26:31.31	148.41	13.79	-52.6	-54.9	14.4	0.00e+00	0	23	0	226492416	71	4698
2026-01-11 09:26:32.32	148.41	13.90	-52.5	-54.8	14.6	0.00e+00	0	23	0	227540992	71	4611
2026-01-11 09:26:33.33	148.40	14.00	-52.5	-54.7	14.6	0.00e+00	0	23	0	229638144	71	4593
2026-01-11 09:26:34.33	148.40	14.10	-52.5	-54.7	14.6	0.00e+00	0	23	0	231735296	71	4587
2026-01-11 09:26:35.34	148.39	14.21	-52.5	-54.7	14.6	0.00e+00	0	23	0	233832448	71	4576
2026-01-11 09:26:36.35	148.38	14.31	-52.5	-54.7	14.6	0.00e+00	0	23	0	234881024	71	4558
2026-01-11 09:26:37.36	148.38	14.42	-52.4	-54.6	14.6	0.00e+00	0	23	0	236978176	71	4537
2026-01-11 09:26:38.37	148.37	14.52	-52.3	-54.5	14.7	0.00e+00	0	23	0	239075328	71	4460
2026-01-11 09:26:39.37	148.37	14.63	-52.3	-54.5	14.8	0.00e+00	0	23	0	241172480	71	4454
2026-01-11 09:26:40.38	148.36	14.73	-52.4	-54.5	14.7	0.00e+00	0	23	0	243269632	71	4490
2026-01-11 09:26:41.39	148.36	14.84	-52.3	-54.4	14.8	0.00e+00	0	23	0	244318208	71	4411
2026-01-11 09:26:42.40	148.35	14.95	-52.3	-54.3	14.8	0.00e+00	0	23	0	246415360	71	4391
2026-01-11 09:26:43.40	148.35	15.06	-52.2	-54.3	14.8	0.00e+00	0	23	0	248512512	71	4389
2026-01-11 09:26:44.41	148.34	15.16	-52.2	-54.3	14.9	0.00e+00	0	23	0	250609664	71	4349
2026-01-11 09:26:45.42	148.33	15.27	-52.1	-54.2	14.8	0.00e+00	0	23	0	252706816	70	4558
2026-01-11 09:26:46.42	148.33	15.38	-52.1	-54.2	14.7	0.00e+00	0	23	0	254803968	70	4560
2026-01-11 09:26:47.43	148.32	15.49	-52.1	-54.1	14.8	0.00e+00	0	23	0	255852544	70	4539
2026-01-11 09:26:48.44	148.32	15.60	-52.1	-54.2	14.7	0.00e+00	0	23	0	257949696	70	4561
2026-01-11 09:26:49.45	148.31	15.71	-52.2	-54.3	14.7	0.00e+00	0	23	0	260046848	70	4622
2026-01-11 09:26:50.46	148.30	15.82	-52.2	-54.3	14.7	0.00e+00	0	22	0	262144000	70	4609
2026-01-11 09:26:51.47	148.30	15.94	-52.1	-54.1	14.8	0.00e+00	0	23	0	264241152	70	4523
2026-01-11 09:26:52.48	148.29	16.05	-51.9	-53.9	14.9	0.00e+00	0	23	0	265289728	70	4435
2026-01-11 09:26:53.48	148.29	16.16	-51.9	-53.9	14.9	0.00e+00	0	23	0	267386880	70	4413
2026-01-11 09:26:54.49	148.28	16.27	-51.9	-53.9	15.0	0.00e+00	0	23	0	269484032	70	4416
2026-01-11 09:26:55.50	148.27	16.39	-51.8	-53.7	15.1	0.00e+00	0	23	0	271581184	70	4325
2026-01-11 09:26:56.51	148.27	16.50	-51.8	-53.8	15.0	0.00e+00	0	23	0	273678336	70	4359
2026-01-11 09:26:57.52	148.26	16.62	-51.8	-53.7	15.0	0.00e+00	0	23	0	274726912	70	4332
2026-01-11 09:26:58.52	148.25	16.73	-51.8	-53.8	15.0	0.00e+00	0	23	0	276824064	70	4356
2026-01-11 09:26:59.53	148.25	16.85	-51.7	-53.6	15.1	0.00e+00	0	23	0	278921216	70	4258
2026-01-11 09:27:00.54	148.24	16.97	-51.6	-53.5	15.0	0.00e+00	0	23	0	281018368	69	4450
2026-01-11 09:27:01.54	148.23	17.08	-51.6	-53.5	15.0	0.00e+00	0	23	0	283115520	69	4477
2026-01-11 09:27:02.55	148.22	17.20	-51.6	-53.4	15.0	0.00e+00	0	23	0	284164096	69	4435
2026-01-11 09:27:03.56	148.22	17.32	-51.6	-53.5	15.0	0.00e+00	0	23	0	286261248	69	4451
2026-01-11 09:27:04.57	148.21	17.44	-51.7	-53.6	15.0	0.00e+00	0	23	0	288358400	69	4498
2026-01-11 09:27:05.57	148.20	17.56	-51.6	-53.4	15.1	0.00e+00	0	23	0	290455552	69	4427
2026-01-11 09:27:06.58	148.19	17.68	-51.5	-53.4	15.1	0.00e+00	0	23	0	292552704	69	4407
2026-01-11 09:27:07.59	148.19	17.80	-51.5	-53.4	15.1	0.00e+00	0	23	0	293601280	69	4396
2026-01-11 09:27:08.60	148.18	17.92	-51.6	-53.5	15.0	0.00e+00	0	23	0	295698432	69	4444
2026-01-11 09:27:09.60	148.17	18.04	-51.6	-53.4	15.1	0.00e+00	0	23	0	297795584	69	4418
2026-01-11 09:27:10.61	148.16	18.16	-51.4	-53.2	15.2	0.00e+00	0	23	0	299892736	69	4319
2026-01-11 09:27:11.62	148.16	18.29	-51.4	-53.3	15.1	0.00e+00	0	23	0	301989888	69	4343
2026-01-11 09:27:12.64	148.15	18.41	-51.4	-53.3	15.2	0.00e+00	0	23	0	303038464	69	4342
2026-01-11 09:27:13.64	148.14	18.53	-51.4	-53.2	15.2	0.00e+00	0	23	0	305135616	69	4301
2026-01-11 09:27:14.65	148.13	18.66	-51.5	-53.3	15.1	0.00e+00	0	23	0	307232768	69	4371
2026-01-11 09:27:15.66	148.12	18.79	-51.5	-53.3	15.1	0.00e+00	0	23	0	309329920	69	4369
2026-01-11 09:27:16.67	148.12	18.91	-51.4	-53.2	15.2	0.00e+00	0	23	0	311427072	69	4317
2026-01-11 09:27:17.67	148.11	19.04	-51.3	-53.1	15.3	0.00e+00	0	23	0	312475648	69	4276
2026-01-11 09:27:18.68	148.10	19.17	-51.3	-53.1	15.3	0.00e+00	0	23	0	314572800	69	4259
2026-01-11 09:27:19.69	148.09	19.29	-51.3	-53.1	15.3	0.00e+00	0	23	0	316669952	69	4266
2026-01-11 09:27:20.70	148.08	19.42	-51.3	-53.1	15.2	0.00e+00	0	23	0	318767104	69	4271
2026-01-11 09:27:21.71	148.07	19.55	-51.4	-53.2	15.2	0.00e+00	0	23	0	320864256	69	4296
2026-01-11 09:27:22.72	148.06	19.68	-51.3	-53.1	15.3	0.00e+00	0	23	0	321912832	69	4267
2026-01-11 09:27:23.73	148.05	19.81	-51.3	-53.2	15.2	0.00e+00	0	23	0	324009984	69	4293
2026-01-11 09:27:24.73	148.04	19.94	-51.4	-53.3	15.2	0.00e+00	0	23	0	326107136	69	4352
2026-01-11 09:27:25.74	148.04	20.08	-51.3	-53.1	15.3	0.00e+00	0	23	0	328204288	69	4277
2026-01-11 09:27:26.75	148.03	20.21	-51.3	-53.0	15.3	0.00e+00	0	23	0	330301440	69	4240
2026-01-11 09:27:27.76	148.02	20.34	-51.3	-53.1	15.3	0.00e+00	0	23	0	331350016	69	4262
2026-01-11 09:27:28.77	148.01	20.48	-51.4	-53.2	15.2	0.00e+00	0	23	0	333447168	69	4313
2026-01-11 09:27:29.77	148.00	20.61	-51.4	-53.2	15.2	0.00e+00	0	23	0	335544320	69	4296
2026-01-11 09:27:30.78	147.99	20.75	-51.4	-53.2	15.2	0.00e+00	0	23	0	337641472	69	4299
2026-01-11 09:27:31.78	147.98	20.88	-51.3	-53.1	15.3	0.00e+00	0	23	0	339738624	69	4247
2026-01-11 09:27:32.79	147.97	21.02	-51.3	-53.0	15.3	0.00e+00	0	23	0	340787200	69	4230
2026-01-11 09:27:33.80	147.96	21.16	-51.3	-53.0	15.3	0.00e+00	0	23	0	342884352	69	4240
2026-01-11 09:27:34.81	147.95	21.30	-51.2	-53.0	15.3	0.00e+00	0	23	0	344981504	69	4213
2026-01-11 09:27:35.82	147.94	21.44	-51.2	-53.0	15.4	0.00e+00	0	23	0	347078656	69	4211
2026-01-11 09:27:36.82	147.93	21.58	-51.1	-52.9	15.2	0.00e+00	0	23	0	349175808	68	4405
2026-01-11 09:27:37.83	147.91	21.72	-51.2	-53.0	15.2	0.00e+00	0	23	0	350224384	68	4456
2026-01-11 09:27:38.84	147.90	21.86	-51.3	-53.1	15.1	0.00e+00	0	23	0	352321536	68	4515
2026-01-11 09:27:39.85	147.89	22.01	-51.2	-52.9	15.2	0.00e+00	0	23	0	354418688	68	4431
2026-01-11 09:27:40.85	147.88	22.15	-51.2	-53.0	15.2	0.00e+00	0	23	0	356515840	68	4470
2026-01-11 09:27:41.86	147.87	22.29	-51.4	-53.2	15.0	0.00e+00	0	23	0	358612992	68	4563
2026-01-11 09:27:42.87	147.86	22.44	-51.3	-53.1	15.1	0.00e+00	0	23	0	359661568	68	4527
2026-01-11 09:27:43.88	147.85	22.58	-51.3	-53.1	15.1	0.00e+00	0	23	0	361758720	68	4527
2026-01-11 09:27:44.88	147.84	22.73	-51.3	-53.1	15.1	0.00e+00	0	23	0	363855872	68	4521
2026-01-11 09:27:45.89	147.82	22.88	-51.2	-53.0	15.2	0.00e+00	0	23	0	365953024	68	4442
2026-01-11 09:27:46.90	147.81	23.03	-51.3	-53.0	15.1	0.00e+00	0	23	0	368050176	68	4488
2026-01-11 09:27:47.91	147.80	23.18	-51.4	-53.2	15.0	0.00e+00	0	23	0	369098752	68	4583
2026-01-11 09:27:48.92	147.79	23.33	-51.3	-53.1	15.1	0.00e+00	0	23	0	371195904	68	4498
2026-01-11 09:27:49.93	147.77	23.48	-51.4	-53.2	15.1	0.00e+00	0	23	0	373293056	68	4546
2026-01-11 09:27:50.94	147.76	23.63	-51.1	-52.9	15.2	0.00e+00	0	23	0	375390208	68	4402
2026-01-11 09:27:51.95	147.75	23.78	-51.2	-52.9	15.2	0.00e+00	0	23	0	377487360	68	4416
2026-01-11 09:27:52.96	147.74	23.94	-51.1	-52.8	15.2	0.00e+00	0	23	0	379584512	68	4381
2026-01-11 09:27:53.96	147.72	24.09	-51.2	-52.9	15.2	0.00e+00	0	23	0	380633088	68	4440
2026-01-11 09:27:54.97	147.71	24.25	-51.2	-52.9	15.2	0.00e+00	0	23	0	382730240	68	4436
2026-01-11 09:27:55.98	147.70	24.40	-51.3	-53.0	15.2	0.00e+00	0	23	0	384827392	68	4476
2026-01-11 09:27:56.98	147.68	24.56	-51.4	-53.1	15.1	0.00e+00	0	23	0	386924544	68	4542
2026-01-11 09:27:57.99	147.67	24.72	-51.4	-53.2	15.0	0.00e+00	0	23	0	387973120	68	4572
2026-01-11 09:27:59.00	147.66	24.88	-51.5	-53.3	15.0	0.00e+00	0	23	0	390070272	68	4617
2026-01-11 09:27:59.99	147.64	25.04	-51.5	-53.3	15.0	0.00e+00	0	23	0	392167424	68	4621
2026-01-11 09:28:01.00	147.63	25.20	-51.4	-53.2	15.0	0.00e+00	0	23	0	394264576	68	4586
2026-01-11 09:28:02.01	147.61	25.36	-51.5	-53.3	15.0	0.00e+00	0	23	0	396361728	68	4651
2026-01-11 09:28:03.02	147.60	25.52	-51.4	-53.2	15.0	0.00e+00	0	23	0	397410304	68	4575
2026-01-11 09:28:04.03	147.58	25.69	-51.4	-53.2	15.0	0.00e+00	0	23	0	399507456	68	4573
2026-01-11 09:28:05.04	147.57	25.85	-51.4	-53.2	15.0	0.00e+00	0	23	0	401604608	68	4587
2026-01-11 09:28:06.05	147.55	26.02	-51.5	-53.3	15.0	0.00e+00	0	23	0	403701760	68	4606
2026-01-11 09:28:07.06	147.54	26.19	-51.5	-53.3	15.0	0.00e+00	0	23	0	405798912	68	4642
2026-01-11 09:28:08.06	147.52	26.36	-51.5	-53.3	15.0	0.00e+00	0	23	0	407896064	68	4627
2026-01-11 09:28:09.07	147.51	26.53	-51.5	-53.3	15.0	0.00e+00	0	23	0	408944640	68	4643
2026-01-11 09:28:10.08	147.49	26.70	-51.6	-53.4	14.9	0.00e+00	0	23	0	411041792	68	4670
2026-01-11 09:28:11.09	147.47	26.87	-51.6	-53.4	14.9	0.00e+00	0	23	0	413138944	68	4701
2026-01-11 09:28:12.10	147.46	27.04	-51.6	-53.4	14.9	0.00e+00	0	23	0	415236096	68	4703
2026-01-11 09:28:13.10	147.44	27.21	-51.6	-53.4	14.9	0.00e+00	0	23	0	416284672	68	4675
2026-01-11 09:28:14.11	147.42	27.39	-51.6	-53.4	14.9	0.00e+00	0	23	0	418381824	68	4696
2026-01-11 09:28:15.11	147.41	27.56	-51.7	-53.6	14.8	0.00e+00	0	23	0	420478976	68	4761
2026-01-11 09:28:16.12	147.39	27.74	-51.8	-53.6	14.8	0.00e+00	0	23	0	422576128	68	4814
2026-01-11 09:28:17.12	147.37	27.92	-51.8	-53.7	14.8	0.00e+00	0	23	0	424673280	68	4844
2026-01-11 09:28:18.13	147.35	28.10	-52.0	-54.0	14.8	0.00e+00	0	23	0	425721856	69	4711
2026-01-11 09:28:19.14	147.34	28.28	-52.0	-53.9	14.8	0.00e+00	0	23	0	427819008	69	4680
2026-01-11 09:28:20.15	147.32	28.46	-52.2	-54.2	14.6	0.00e+00	0	23	0	429916160	69	4858
2026-01-11 09:28:21.15	147.30	28.64	-52.4	-54.4	14.6	0.00e+00	0	23	0	432013312	69	4954
2026-01-11 09:28:22.16	147.28	28.83	-52.4	-54.4	14.6	0.00e+00	0	23	0	434110464	69	4969
2026-01-11 09:28:23.17	147.26	29.01	-52.6	-54.7	14.5	0.00e+00	0	23	0	436207616	70	4844
2026-01-11 09:28:24.18	147.24	29.20	-52.7	-54.9	14.4	0.00e+00	0	23	0	437256192	70	4947
2026-01-11 09:28:25.19	147.22	29.39	-52.8	-54.9	14.4	0.00e+00	0	23	0	439353344	70	4972
2026-01-11 09:28:26.19	147.20	29.58	-53.0	-55.2	14.4	0.00e+00	0	23	0	441450496	71	4834
2026-01-11 09:28:27.20	147.18	29.77	-53.1	-55.3	14.3	0.00e+00	0	23	0	443547648	71	4908
2026-01-11 09:28:28.21	147.16	29.96	-53.3	-55.6	14.2	0.00e+00	0	23	0	445644800	71	5076
2026-01-11 09:28:29.22	147.14	30.15	-53.4	-55.7	14.1	0.00e+00	0	23	0	446693376	71	5153
2026-01-11 09:28:30.22	147.12	30.34	-53.6	-56.1	14.0	0.00e+00	0	23	0	448790528	72	5047
2026-01-11 09:28:31.23	147.10	30.54	-53.7	-56.2	14.0	0.00e+00	0	23	0	450887680	72	5113
2026-01-11 09:28:32.24	147.08	30.74	-53.8	-56.4	13.8	0.00e+00	0	23	0	452984832	72	5238
2026-01-11 09:28:33.25	147.05	30.94	-53.8	-56.4	13.8	0.00e+00	0	23	0	455081984	72	5226
2026-01-11 09:28:34.26	147.03	31.14	-53.8	-56.4	13.8	0.00e+00	0	23	0	456130560	72	5260
2026-01-11 09:28:35.27	147.01	31.34	-53.9	-56.6	13.9	0.00e+00	0	23	0	458227712	73	5042
2026-01-11 09:28:36.28	146.99	31.54	-53.9	-56.5	13.9	0.00e+00	0	23	0	460324864	73	5028
2026-01-11 09:28:37.29	146.96	31.74	-53.9	-56.5	13.9	0.00e+00	0	23	0	462422016	73	4986
2026-01-11 09:28:38.29	146.94	31.95	-54.0	-56.6	13.9	0.00e+00	0	23	0	464519168	73	5054
2026-01-11 09:28:39.30	146.92	32.15	-54.0	-56.6	13.9	0.00e+00	0	23	0	465567744	73	5078
2026-01-11 09:28:40.31	146.89	32.36	-53.8	-56.4	14.0	0.00e+00	0	23	0	467664896	73	4941
2026-01-11 09:28:41.31	146.87	32.57	-53.9	-56.4	14.0	0.00e+00	0	23	0	469762048	73	4965
2026-01-11 09:28:42.33	146.84	32.78	-53.9	-56.5	13.9	0.00e+00	0	23	0	471859200	73	5011
2026-01-11 09:28:43.33	146.82	32.99	-53.8	-56.4	14.0	0.00e+00	0	23	0	473956352	73	4957
2026-01-11 09:28:44.34	146.79	33.21	-53.7	-56.2	14.1	0.00e+00	0	23	0	475004928	73	4864
2026-01-11 09:28:45.34	146.76	33.42	-53.6	-56.1	14.2	0.00e+00	0	23	0	477102080	73	4783
2026-01-11 09:28:46.35	146.74	33.64	-53.5	-55.8	14.4	0.00e+00	0	23	0	479199232	73	4645
2026-01-11 09:28:47.36	146.71	33.86	-53.4	-55.7	14.4	0.00e+00	0	23	0	481296384	73	4578
2026-01-11 09:28:48.38	146.68	34.08	-53.4	-55.7	14.4	0.00e+00	0	23	0	483393536	73	4583
2026-01-11 09:28:49.38	146.66	34.30	-53.2	-55.5	14.6	0.00e+00	0	23	0	484442112	73	4449
2026-01-11 09:28:50.39	146.63	34.52	-53.1	-55.3	14.6	0.00e+00	0	23	0	486539264	72	4605
2026-01-11 09:28:51.40	146.60	34.75	-52.9	-55.0	14.7	0.00e+00	0	23	0	488636416	72	4484
2026-01-11 09:28:52.41	146.57	34.98	-52.7	-54.8	14.9	0.00e+00	0	23	0	490733568	72	4365
2026-01-11 09:28:53.42	146.54	35.21	-52.7	-54.8	14.9	0.00e+00	0	23	0	492830720	72	4347
2026-01-11 09:28:54.42	146.51	35.43	-52.7	-54.7	14.7	0.00e+00	0	23	0	493879296	71	4582
2026-01-11 09:28:55.43	146.48	35.66	-52.0	-53.9	15.0	0.00e+00	0	23	0	495976448	70	4396
2026-01-11 09:28:56.44	146.45	35.90	-51.5	-53.3	15.2	0.00e+00	0	23	0	498073600	69	4342
2026-01-11 09:28:57.45	146.42	36.13	-51.4	-53.1	15.3	0.00e+00	0	23	0	500170752	69	4255
2026-01-11 09:28:58.46	146.38	36.37	-51.2	-52.9	15.4	0.00e+00	0	23	0	502267904	69	4179
2026-01-11 09:28:59.47	146.35	36.61	-51.0	-52.7	15.3	0.00e+00	0	23	0	503316480	68	4293
2026-01-11 09:29:00.48	146.32	36.85	-51.1	-52.7	15.3	0.00e+00	0	23	0	505413632	68	4324
2026-01-11 09:29:01.48	146.29	37.09	-50.7	-52.3	15.6	0.00e+00	0	23	0	507510784	68	4128
2026-01-11 09:29:02.49	146.25	37.33	-50.4	-52.0	15.5	0.00e+00	0	23	0	509607936	67	4214
2026-01-11 09:29:03.50	146.22	37.58	-50.4	-52.0	15.5	0.00e+00	0	23	0	511705088	67	4222
2026-01-11 09:29:04.51	146.18	37.83	-50.5	-52.0	15.5	0.00e+00	0	23	0	512753664	67	4241
2026-01-11 09:29:05.52	146.14	38.07	-50.3	-51.8	15.6	0.00e+00	0	23	0	514850816	67	4125
2026-01-11 09:29:06.53	146.11	38.33	-50.4	-51.9	15.5	0.00e+00	0	23	0	516947968	67	4187
2026-01-11 09:29:07.54	146.07	38.58	-50.4	-51.9	15.5	0.00e+00	0	23	0	519045120	67	4179
2026-01-11 09:29:08.54	146.03	38.83	-50.5	-52.1	15.4	0.00e+00	0	23	0	521142272	67	4276
2026-01-11 09:29:09.55	145.99	39.09	-50.4	-52.0	15.5	0.00e+00	0	23	0	522190848	67	4215
2026-01-11 09:29:10.56	145.96	39.35	-50.5	-52.1	15.4	0.00e+00	0	23	0	524288000	67	4279
2026-01-11 09:29:11.56	145.92	39.60	-50.7	-52.2	15.4	0.00e+00	0	23	0	526385152	67	4339
2026-01-11 09:29:12.57	145.88	39.87	-50.8	-52.4	15.3	0.00e+00	0	23	0	528482304	67	4408
2026-01-11 09:29:13.58	145.83	40.13	-50.8	-52.5	15.3	0.00e+00	0	23	0	530579456	67	4452
2026-01-11 09:29:14.59	145.79	40.40	-51.0	-52.7	15.2	0.00e+00	0	23	0	531628032	67	4560
2026-01-11 09:29:15.59	145.75	40.66	-51.2	-52.9	15.0	0.00e+00	0	23	0	533725184	67	4678
2026-01-11 09:29:16.60	145.71	40.93	-51.3	-53.1	14.9	0.00e+00	0	23	0	535822336	67	4785
2026-01-11 09:29:17.61	145.66	41.21	-51.7	-53.5	14.9	0.00e+00	0	23	0	537919488	68	4715
2026-01-11 09:29:18.62	145.62	41.48	-51.7	-53.5	14.9	0.00e+00	0	23	0	540016640	68	4735
2026-01-11 09:29:19.63	145.57	41.76	-51.7	-53.5	14.9	0.00e+00	0	23	0	541065216	68	4753
2026-01-11 09:29:20.64	145.52	42.03	-51.7	-53.5	14.9	0.00e+00	0	23	0	543162368	68	4735
2026-01-11 09:29:21.65	145.48	42.32	-51.8	-53.6	14.9	0.00e+00	0	23	0	545259520	68	4807
2026-01-11 09:29:22.65	145.43	42.59	-51.7	-53.4	15.0	0.00e+00	0	23	0	547356672	68	4702
2026-01-11 09:29:23.66	145.38	42.88	-51.7	-53.6	14.9	0.00e+00	0	23	0	549453824	68	4760
2026-01-11 09:29:24.66	145.33	43.16	-51.6	-53.4	15.0	0.00e+00	0	23	0	550502400	68	4678
2026-01-11 09:29:25.67	145.28	43.45	-51.8	-53.7	14.8	0.00e+00	0	23	0	552599552	68	4838
2026-01-11 09:29:26.68	145.22	43.74	-52.0	-53.9	14.9	0.00e+00	0	23	0	554696704	69	4683
2026-01-11 09:29:27.69	145.17	44.04	-52.2	-54.1	14.7	0.00e+00	0	23	0	556793856	69	4801
2026-01-11 09:29:28.69	145.12	44.33	-52.4	-54.4	14.6	0.00e+00	0	23	0	558891008	69	4944
2026-01-11 09:29:29.70	145.06	44.63	-52.6	-54.6	14.6	0.00e+00	0	23	0	560988160	70	4780
2026-01-11 09:29:30.71	145.00	44.93	-52.7	-54.8	14.5	0.00e+00	0	23	0	562036736	70	4892
2026-01-11 09:29:31.71	144.95	45.23	-53.0	-55.1	14.5	0.00e+00	0	23	0	564133888	71	4792
2026-01-11 09:29:32.72	144.89	45.53	-53.1	-55.3	14.4	0.00e+00	0	23	0	566231040	71	4874
2026-01-11 09:29:33.73	144.83	45.84	-53.2	-55.5	14.3	0.00e+00	0	23	0	568328192	71	4986
2026-01-11 09:29:34.74	144.77	46.15	-53.4	-55.7	14.2	0.00e+00	0	23	0	569376768	71	5114
2026-01-11 09:29:35.75	144.70	46.46	-53.6	-56.0	14.1	0.00e+00	0	23	0	571473920	72	5005
2026-01-11 09:29:36.75	144.64	46.77	-53.9	-56.4	13.9	0.00e+00	0	23	0	573571072	72	5245
2026-01-11 09:29:37.76	144.57	47.09	-54.1	-56.7	13.8	0.00e+00	0	23	0	575668224	73	5143
2026-01-11 09:29:38.77	144.51	47.40	-54.3	-57.0	13.6	0.00e+00	0	23	0	577765376	73	5309
2026-01-11 09:29:39.78	144.44	47.72	-54.3	-57.0	13.6	0.00e+00	0	23	0	578813952	73	5319
2026-01-11 09:29:40.79	144.37	48.05	-54.5	-57.4	13.5	0.00e+00	0	23	0	580911104	74	5224
2026-01-11 09:29:41.79	144.30	48.37	-54.4	-57.1	13.7	0.00e+00	0	23	0	583008256	74	5065
2026-01-11 09:29:42.80	144.22	48.70	-54.3	-57.0	13.8	0.00e+00	0	23	0	585105408	74	5024
2026-01-11 09:29:43.80	144.15	49.02	-54.1	-56.8	14.0	0.00e+00	0	23	0	587202560	74	4879
2026-01-11 09:29:44.81	144.07	49.36	-53.6	-55.9	14.4	0.00e+00	0	23	0	589299712	73	4673
2026-01-11 09:29:45.81	143.99	49.69	-53.2	-55.4	14.7	0.00e+00	0	23	0	590348288	73	4428
2026-01-11 09:29:46.82	143.91	50.03	-52.6	-54.7	14.8	0.00e+00	0	23	0	592445440	71	4551
2026-01-11 09:29:47.82	143.83	50.36	-52.0	-53.9	15.1	0.00e+00	0	23	0	594542592	70	4399
2026-01-11 09:29:48.83	143.75	50.70	-51.8	-53.6	15.2	0.00e+00	0	23	0	596639744	70	4254
2026-01-11 09:29:49.84	143.66	51.05	-51.6	-53.4	15.2	0.00e+00	0	23	0	597688320	69	4400
2026-01-11 09:29:50.85	143.58	51.40	-51.0	-52.6	15.4	0.00e+00	0	23	0	599785472	68	4261
2026-01-11 09:29:51.86	143.49	51.75	-50.8	-52.3	15.6	0.00e+00	0	23	0	601882624	68	4139
2026-01-11 09:29:52.87	143.39	52.10	-50.0	-51.5	15.6	0.00e+00	0	23	0	603979776	66	4230
2026-01-11 09:29:53.88	143.30	52.45	-49.9	-51.3	15.7	0.00e+00	0	23	0	606076928	66	4129
2026-01-11 09:29:54.89	143.20	52.81	-49.8	-51.3	15.7	0.00e+00	0	23	0	607125504	66	4114
2026-01-11 09:29:55.89	143.10	53.17	-49.9	-51.4	15.6	0.00e+00	0	23	0	609222656	66	4166
2026-01-11 09:29:56.90	143.00	53.53	-50.0	-51.4	15.6	0.00e+00	0	23	0	611319808	66	4193
2026-01-11 09:29:57.91	142.90	53.89	-50.2	-51.7	15.5	0.00e+00	0	23	0	613416960	66	4307
2026-01-11 09:29:58.92	142.79	54.26	-50.4	-51.9	15.4	0.00e+00	0	23	0	615514112	66	4425
2026-01-11 09:29:59.92	142.68	54.63	-50.5	-52.1	15.3	0.00e+00	0	23	0	617611264	66	4494
2026-01-11 09:30:00.93	142.56	55.00	-50.6	-52.2	15.2	0.00e+00	0	23	0	618659840	66	4582
2026-01-11 09:30:01.94	142.45	55.37	-50.9	-52.6	15.2	0.00e+00	0	23	0	620756992	67	4515
2026-01-11 09:30:02.95	142.33	55.75	-51.3	-53.0	15.0	0.00e+00	0	23	0	622854144	67	4750
2026-01-11 09:30:03.96	142.20	56.13	-51.9	-53.7	14.8	0.00e+00	0	23	0	624951296	68	4862
2026-01-11 09:30:04.97	142.08	56.51	-52.7	-54.7	14.6	0.00e+00	0	23	0	627048448	70	4841
2026-01-11 09:30:05.97	141.95	56.89	-53.4	-55.7	14.2	0.00e+00	0	23	0	628097024	71	5149
2026-01-11 09:30:06.98	141.81	57.28	-54.0	-56.6	14.0	0.00e+00	0	23	0	630194176	73	5070
2026-01-11 09:30:07.99	141.68	57.67	-54.7	-57.7	13.3	0.00e+00	0	23	0	632291328	74	5446
2026-01-11 09:30:08.99	141.53	58.06	-55.0	-58.0	13.2	0.00e+00	0	23	0	634388480	75	5336
2026-01-11 09:30:10.01	141.39	58.46	-55.1	-58.3	13.1	0.00e+00	0	23	0	636485632	75	5487
2026-01-11 09:30:11.01	141.24	58.85	-55.0	-58.2	13.1	0.00e+00	0	23	0	637534208	75	5420
2026-01-11 09:30:12.02	141.08	59.25	-54.9	-58.0	13.3	0.00e+00	0	23	0	639631360	75	5295
2026-01-11 09:30:13.02	140.92	59.65	-54.3	-57.0	13.9	0.00e+00	0	23	0	641728512	75	4745
2026-01-11 09:30:14.03	140.76	60.05	-53.4	-55.7	14.5	0.00e+00	0	23	0	643825664	73	4570
2026-01-11 09:30:15.04	140.58	60.46	-52.8	-54.8	14.9	0.00e+00	0	23	0	645922816	72	4363
2026-01-11 09:30:16.04	140.41	60.86	-52.6	-54.6	14.9	0.00e+00	0	23	0	646971392	71	4506
2026-01-11 09:30:17.05	140.22	61.27	-52.0	-53.9	15.1	0.00e+00	0	23	0	649068544	70	4401
2026-01-11 09:30:18.05	140.04	61.68	-51.5	-53.1	15.3	0.00e+00	0	23	0	651165696	69	4287
2026-01-11 09:30:19.06	139.84	62.10	-51.4	-53.0	15.4	0.00e+00	0	23	0	653262848	69	4229
2026-01-11 09:30:20.06	139.64	62.51	-51.1	-52.8	15.3	0.00e+00	0	23	0	655360000	68	4355
2026-01-11 09:30:21.07	139.43	62.93	-51.0	-52.6	15.4	0.00e+00	0	23	0	656408576	68	4266
2026-01-11 09:30:22.08	139.21	63.35	-50.4	-51.9	15.6	0.00e+00	0	23	0	658505728	67	4163
2026-01-11 09:30:23.09	138.99	63.78	-50.2	-51.7	15.5	0.00e+00	0	23	0	660602880	66	4308
2026-01-11 09:30:24.10	138.75	64.20	-50.4	-51.9	15.4	0.00e+00	0	23	0	662700032	66	4416
2026-01-11 09:30:25.11	138.51	64.63	-50.5	-52.1	15.3	0.00e+00	0	23	0	664797184	66	4494
2026-01-11 09:30:26.12	138.26	65.06	-50.8	-52.4	15.1	0.00e+00	0	23	0	665845760	66	4703
2026-01-11 09:30:27.12	138.00	65.49	-51.1	-52.8	15.1	0.00e+00	0	23	0	667942912	67	4632
2026-01-11 09:30:28.13	137.72	65.93	-51.9	-53.7	14.9	0.00e+00	0	23	0	670040064	68	4835
2026-01-11 09:30:29.14	137.44	66.36	-52.6	-54.5	14.8	0.00e+00	0	23	0	672137216	70	4737
2026-01-11 09:30:30.15	137.14	66.80	-52.9	-55.0	14.7	0.00e+00	0	23	0	674234368	71	4749
2026-01-11 09:30:31.15	136.83	67.24	-53.0	-55.1	14.6	0.00e+00	0	23	0	675282944	71	4760
2026-01-11 09:30:32.16	136.51	67.68	-52.8	-54.8	14.7	0.00e+00	0	23	0	677380096	71	4622
2026-01-11 09:30:33.17	136.17	68.12	-52.8	-54.9	14.7	0.00e+00	0	23	0	679477248	71	4673
2026-01-11 09:30:34.18	135.82	68.56	-52.6	-54.5	14.9	0.00e+00	0	23	0	681574400	71	4489
2026-01-11 09:30:35.19	135.45	69.01	-52.1	-53.9	15.1	0.00e+00	0	23	0	683671552	70	4437
2026-01-11 09:30:36.19	135.07	69.45	-51.8	-53.5	15.4	0.00e+00	0	23	0	684720128	70	4199
2026-01-11 09:30:37.20	134.67	69.90	-52.0	-53.8	15.1	0.00e+00	0	23	0	686817280	70	4384
2026-01-11 09:30:38.21	134.24	70.35	-52.2	-54.1	15.0	0.00e+00	0	23	0	688914432	70	4532
2026-01-11 09:30:39.21	133.80	70.80	-52.0	-53.7	15.2	0.00e+00	0	23	0	691011584	70	4331
2026-01-11 09:30:40.21	133.33	71.24	-52.0	-53.8	15.2	0.00e+00	0	23	0	693108736	70	4342
2026-01-11 09:30:41.22	132.84	71.69	-52.2	-54.0	15.0	0.00e+00	0	23	0	694157312	70	4473
2026-01-11 09:30:42.23	132.32	72.15	-52.0	-53.8	15.1	0.00e+00	0	23	0	696254464	70	4384
2026-01-11 09:30:43.24	131.77	72.60	-51.8	-53.5	15.3	0.00e+00	0	23	0	698351616	70	4230
2026-01-11 09:30:44.25	131.19	73.05	-51.9	-53.7	15.3	0.00e+00	0	23	0	700448768	70	4316
2026-01-11 09:30:45.25	130.58	73.50	-52.5	-54.5	14.8	0.00e+00	0	23	0	702545920	70	4714
2026-01-11 09:30:46.25	129.94	73.95	-53.0	-55.1	14.6	0.00e+00	0	23	0	703594496	71	4767
2026-01-11 09:30:47.26	129.25	74.40	-53.3	-55.5	14.3	0.00e+00	0	23	0	705691648	71	5005
2026-01-11 09:30:48.27	128.52	74.85	-53.1	-55.2	14.5	0.00e+00	0	23	0	707788800	71	4862
2026-01-11 09:30:49.28	127.74	75.30	-52.5	-54.4	15.0	0.00e+00	0	23	0	709885952	71	4422
2026-01-11 09:30:50.29	126.91	75.75	-52.4	-54.3	15.0	0.00e+00	0	23	0	711983104	71	4367
2026-01-11 09:30:51.30	126.02	76.20	-53.0	-55.1	14.6	0.00e+00	0	23	0	713031680	71	4784
2026-01-11 09:30:52.31	125.07	76.65	-53.2	-55.4	14.4	0.00e+00	0	23	0	715128832	71	4944
2026-01-11 09:30:53.31	124.06	77.09	-53.3	-55.5	14.4	0.00e+00	0	23	0	717225984	71	5015
2026-01-11 09:30:54.32	122.97	77.53	-53.8	-56.2	14.1	0.00e+00	0	23	0	719323136	72	5124
2026-01-11 09:30:55.33	121.80	77.96	-53.6	-55.9	14.3	0.00e+00	0	23	0	721420288	72	4955
2026-01-11 09:30:56.34	120.54	78.40	-53.1	-55.1	14.7	0.00e+00	0	23	0	722468864	72	4543
2026-01-11 09:30:57.35	119.18	78.82	-52.4	-54.3	15.1	0.00e+00	0	23	0	724566016	71	4348
2026-01-11 09:30:58.36	117.71	79.24	-52.0	-53.7	15.2	0.00e+00	0	23	0	726663168	70	4329
2026-01-11 09:30:59.37	116.11	79.66	-51.2	-52.9	15.5	0.00e+00	0	23	0	728760320	69	4151
2026-01-11 09:31:00.38	114.38	80.07	-51.3	-53.0	15.3	0.00e+00	0	23	0	730857472	68	4458
2026-01-11 09:31:01.39	112.50	80.47	-51.5	-53.2	15.2	0.00e+00	0	23	0	731906048	68	4574
2026-01-11 09:31:02.40	110.46	80.85	-51.8	-53.5	15.0	0.00e+00	0	23	0	734003200	68	4736
2026-01-11 09:31:03.40	108.26	81.23	-52.3	-54.3	14.8	0.00e+00	0	23	0	736100352	69	4871
2026-01-11 09:31:04.41	105.84	81.59	-52.5	-54.5	14.8	0.00e+00	0	23	0	738197504	70	4720
2026-01-11 09:31:05.42	103.20	81.94	-52.4	-54.3	14.9	0.00e+00	0	23	0	740294656	70	4632
2026-01-11 09:31:06.43	100.33	82.27	-52.5	-54.4	14.9	0.00e+00	0	23	0	741343232	70	4655
2026-01-11 09:31:07.43	97.24	82.57	-52.9	-54.9	14.6	0.00e+00	0	23	0	743440384	70	4943
2026-01-11 09:31:08.44	93.86	82.86	-52.6	-54.5	15.0	0.00e+00	0	23	0	745537536	71	4452
2026-01-11 09:31:09.45	90.21	83.12	-52.0	-53.8	15.2	0.00e+00	0	23	0	747634688	70	4351
2026-01-11 09:31:10.46	86.29	83.35	-51.6	-53.2	15.3	0.00e+00	0	23	0	749731840	69	4335
2026-01-11 09:31:11.47	82.10	83.54	-51.5	-53.1	15.4	0.00e+00	0	23	0	750780416	69	4286
2026-01-11 09:31:12.48	77.68	83.70	-51.8	-53.6	15.1	0.00e+00	0	23	0	752877568	69	4502
2026-01-11 09:31:13.49	73.05	83.83	-52.2	-54.1	14.9	0.00e+00	0	23	0	754974720	69	4774
2026-01-11 09:31:14.49	68.32	83.90	-53.0	-55.1	14.7	0.00e+00	0	23	0	757071872	71	4777
2026-01-11 09:31:15.51	63.40	83.94	-53.1	-55.1	14.5	0.00e+00	0	23	0	759169024	71	4803
2026-01-11 09:31:16.51	58.55	83.93	-52.9	-54.9	14.7	0.00e+00	0	23	0	760217600	71	4694
2026-01-11 09:31:17.52	53.70	83.88	-53.0	-55.0	14.6	0.00e+00	0	23	0	762314752	71	4753
2026-01-11 09:31:18.53	48.96	83.79	-52.8	-54.8	14.8	0.00e+00	0	23	0	764411904	71	4642
2026-01-11 09:31:19.54	44.40	83.66	-53.2	-55.3	14.5	0.00e+00	0	23	0	766509056	71	4887
2026-01-11 09:31:20.55	40.05	83.48	-53.5	-55.8	14.4	0.00e+00	0	23	0	768606208	72	4881
2026-01-11 09:31:21.56	35.95	83.28	-54.0	-56.4	14.2	0.00e+00	0	23	0	770703360	73	4969
2026-01-11 09:31:22.56	32.16	83.04	-54.1	-56.6	14.0	0.00e+00	0	23	0	771751936	73	5075
2026-01-11 09:31:23.57	28.59	82.77	-54.0	-56.4	14.2	0.00e+00	0	23	0	773849088	73	4941
2026-01-11 09:31:24.58	25.30	82.48	-53.6	-55.9	14.5	0.00e+00	0	23	0	775946240	73	4658
2026-01-11 09:31:25.59	22.26	82.16	-53.9	-56.2	14.3	0.00e+00	0	23	0	778043392	73	4842
2026-01-11 09:31:26.59	19.50	81.83	-53.8	-56.2	14.3	0.00e+00	0	23	0	779091968	73	4825
2026-01-11 09:31:27.60	16.93	81.48	-53.4	-55.5	14.7	0.00e+00	0	23	0	781189120	73	4480
2026-01-11 09:31:28.61	14.58	81.11	-53.3	-55.5	14.8	0.00e+00	0	23	0	783286272	73	4445
2026-01-11 09:31:29.62	12.41	80.73	-52.5	-54.4	15.0	0.00e+00	0	23	0	785383424	71	4424
2026-01-11 09:31:30.63	10.43	80.34	-52.1	-53.8	15.2	0.00e+00	0	23	0	787480576	70	4373
2026-01-11 09:31:31.64	8.60	79.94	-51.7	-53.3	15.3	0.00e+00	0	23	0	788529152	69	4379
2026-01-11 09:31:32.65	6.92	79.53	-51.7	-53.4	15.2	0.00e+00	0	23	0	790626304	69	4399
2026-01-11 09:31:33.66	5.37	79.11	-52.2	-54.0	14.9	0.00e+00	0	23	0	792723456	69	4739
2026-01-11 09:31:34.67	3.93	78.69	-52.8	-54.8	14.7	0.00e+00	0	23	0	794820608	70	4877
2026-01-11 09:31:35.67	2.62	78.26	-53.0	-55.0	14.7	0.00e+00	0	23	0	796917760	71	4740
2026-01-11 09:31:36.67	1.40	77.83	-53.1	-55.1	14.6	0.00e+00	0	23	0	799014912	71	4806
2026-01-11 09:31:37.68	0.25	77.39	-52.9	-54.9	14.8	0.00e+00	0	23	0	800063488	71	4671
2026-01-11 09:31:38.69	359.18	76.95	-52.9	-54.9	14.8	0.00e+00	0	23	0	802160640	71	4683
2026-01-11 09:31:39.70	358.19	76.51	-53.0	-55.0	14.7	0.00e+00	0	23	0	804257792	71	4735
2026-01-11 09:31:40.71	357.26	76.06	-52.8	-54.7	14.8	0.00e+00	0	23	0	806354944	71	4574
2026-01-11 09:31:41.72	356.39	75.62	-52.6	-54.5	15.0	0.00e+00	0	23	0	808452096	71	4458
2026-01-11 09:31:42.73	355.58	75.17	-52.7	-54.7	14.9	0.00e+00	0	23	0	809500672	71	4546
2026-01-11 09:31:43.73	354.82	74.72	-53.0	-55.0	14.7	0.00e+00	0	23	0	811597824	71	4720
2026-01-11 09:31:44.74	354.10	74.27	-53.0	-55.1	14.7	0.00e+00	0	23	0	813694976	71	4766
2026-01-11 09:31:45.75	353.43	73.82	-52.6	-54.6	14.9	0.00e+00	0	23	0	815792128	71	4514
2026-01-11 09:31:46.75	352.80	73.37	-52.1	-53.9	15.3	0.00e+00	0	23	0	816840704	70	4394
2026-01-11 09:31:47.75	352.20	72.92	-51.5	-53.1	15.4	0.00e+00	0	23	0	818937856	69	4274
2026-01-11 09:31:48.76	351.63	72.47	-50.9	-52.5	15.5	0.00e+00	0	23	0	821035008	68	4194
2026-01-11 09:31:49.77	351.09	72.02	-50.8	-52.4	15.6	0.00e+00	0	23	0	823132160	68	4150
2026-01-11 09:31:50.78	350.58	71.57	-50.8	-52.3	15.6	0.00e+00	0	23	0	825229312	68	4139
2026-01-11 09:31:51.79	350.09	71.12	-51.0	-52.5	15.5	0.00e+00	0	23	0	827326464	68	4233
2026-01-11 09:31:52.79	349.63	70.67	-51.4	-53.1	15.3	0.00e+00	0	23	0	828375040	68	4503
2026-01-11 09:31:53.80	349.19	70.22	-52.2	-54.1	14.9	0.00e+00	0	23	0	830472192	69	4770
2026-01-11 09:31:54.81	348.78	69.77	-52.8	-54.7	14.7	0.00e+00	0	23	0	832569344	70	4854
2026-01-11 09:31:55.81	348.38	69.33	-52.9	-54.9	14.7	0.00e+00	0	23	0	834666496	71	4655
2026-01-11 09:31:56.82	348.00	68.88	-53.1	-55.1	14.6	0.00e+00	0	23	0	836763648	71	4783
2026-01-11 09:31:57.83	347.64	68.44	-53.4	-55.5	14.4	0.00e+00	0	23	0	837812224	71	5039
2026-01-11 09:31:58.84	347.29	68.00	-54.3	-56.9	13.8	0.00e+00	0	23	0	839909376	73	5229
2026-01-11 09:31:59.85	346.96	67.55	-54.8	-57.7	13.4	0.00e+00	0	23	0	842006528	74	5418
2026-01-11 09:32:00.85	346.64	67.12	-54.8	-57.6	13.5	0.00e+00	0	23	0	844103680	74	5399
2026-01-11 09:32:01.86	346.34	66.68	-54.2	-56.7	14.1	0.00e+00	0	23	0	846200832	74	4850
2026-01-11 09:32:02.87	346.04	66.24	-53.5	-55.7	14.6	0.00e+00	0	23	0	847249408	73	4584
2026-01-11 09:32:03.87	345.77	65.81	-53.1	-55.1	14.8	0.00e+00	0	23	0	849346560	72	4516
2026-01-11 09:32:04.88	345.50	65.38	-52.5	-54.3	15.1	0.00e+00	0	23	0	851443712	71	4390
2026-01-11 09:32:05.89	345.24	64.95	-51.9	-53.7	15.2	0.00e+00	0	23	0	853540864	70	4306
2026-01-11 09:32:06.89	344.99	64.52	-51.1	-52.7	15.4	0.00e+00	0	23	0	855638016	68	4294
2026-01-11 09:32:07.90	344.75	64.10	-50.3	-51.8	15.7	0.00e+00	0	23	0	856686592	67	4115
2026-01-11 09:32:08.91	344.52	63.67	-50.3	-51.7	15.8	0.00e+00	0	23	0	858783744	67	4077
2026-01-11 09:32:09.91	344.30	63.25	-50.1	-51.6	15.6	0.00e+00	0	23	0	860880896	66	4272
2026-01-11 09:32:10.92	344.08	62.83	-50.3	-51.9	15.5	0.00e+00	0	23	0	862978048	66	4395
2026-01-11 09:32:11.92	343.88	62.42	-50.1	-51.5	15.6	0.00e+00	0	23	0	865075200	66	4235
2026-01-11 09:32:12.93	343.67	62.00	-50.1	-51.5	15.6	0.00e+00	0	23	0	866123776	66	4231
2026-01-11 09:32:13.94	343.48	61.59	-50.2	-51.6	15.5	0.00e+00	0	23	0	868220928	66	4278
2026-01-11 09:32:14.95	343.29	61.18	-50.2	-51.6	15.5	0.00e+00	0	23	0	870318080	66	4280
2026-01-11 09:32:15.95	343.11	60.77	-51.0	-52.7	15.2	0.00e+00	0	23	0	872415232	67	4548
2026-01-11 09:32:16.96	342.94	60.36	-52.5	-54.4	14.8	0.00e+00	0	23	0	874512384	70	4683
2026-01-11 09:32:17.97	342.77	59.96	-53.2	-55.3	14.5	0.00e+00	0	23	0	875560960	71	4886
2026-01-11 09:32:18.98	342.60	59.56	-53.1	-55.2	14.6	0.00e+00	0	23	0	877658112	71	4841
2026-01-11 09:32:19.98	342.45	59.16	-53.0	-55.0	14.7	0.00e+00	0	23	0	879755264	71	4746
2026-01-11 09:32:20.99	342.29	58.76	-53.1	-55.2	14.6	0.00e+00	0	23	0	881852416	71	4858
2026-01-11 09:32:21.99	342.14	58.37	-53.4	-55.6	14.5	0.00e+00	0	23	0	883949568	72	4777
2026-01-11 09:32:22.99	342.00	57.98	-53.5	-55.7	14.4	0.00e+00	0	23	0	884998144	72	4861
2026-01-11 09:32:24.00	341.86	57.59	-54.1	-56.5	14.1	0.00e+00	0	23	0	887095296	73	5023
2026-01-11 09:32:25.01	341.72	57.20	-54.3	-56.9	13.9	0.00e+00	0	23	0	889192448	73	5232
2026-01-11 09:32:26.01	341.59	56.82	-54.0	-56.4	14.1	0.00e+00	0	23	0	891289600	73	4955
2026-01-11 09:32:27.02	341.46	56.44	-53.1	-55.2	14.8	0.00e+00	0	23	0	893386752	72	4556
2026-01-11 09:32:28.02	341.34	56.06	-51.8	-53.4	15.4	0.00e+00	0	23	0	894435328	70	4188
2026-01-11 09:32:29.03	341.21	55.69	-51.3	-52.9	15.5	0.00e+00	0	23	0	896532480	69	4161
2026-01-11 09:32:30.04	341.10	55.31	-51.4	-53.0	15.4	0.00e+00	0	23	0	898629632	69	4225
2026-01-11 09:32:31.05	340.98	54.94	-51.5	-53.1	15.4	0.00e+00	0	23	0	900726784	69	4281
2026-01-11 09:32:32.05	340.87	54.57	-51.3	-52.9	15.5	0.00e+00	0	23	0	902823936	69	4164
2026-01-11 09:32:33.06	340.76	54.20	-51.0	-52.5	15.5	0.00e+00	0	23	0	903872512	68	4241
2026-01-11 09:32:34.07	340.65	53.84	-50.8	-52.3	15.6	0.00e+00	0	23	0	905969664	68	4113
2026-01-11 09:32:35.08	340.55	53.47	-50.8	-52.4	15.6	0.00e+00	0	23	0	908066816	68	4161
2026-01-11 09:32:36.09	340.45	53.11	-50.6	-52.1	15.5	0.00e+00	0	23	0	910163968	67	4263
2026-01-11 09:32:37.09	340.35	52.76	-50.7	-52.2	15.5	0.00e+00	0	23	0	912261120	67	4320
2026-01-11 09:32:38.10	340.25	52.40	-50.9	-52.4	15.3	0.00e+00	0	23	0	913309696	67	4435
2026-01-11 09:32:39.11	340.16	52.05	-51.6	-53.3	15.1	0.00e+00	0	23	0	915406848	68	4642
2026-01-11 09:32:40.12	340.07	51.70	-52.6	-54.5	14.8	0.00e+00	0	23	0	917504000	70	4751
2026-01-11 09:32:41.13	339.98	51.35	-53.2	-55.4	14.5	0.00e+00	0	23	0	919601152	71	4971
2026-01-11 09:32:42.13	339.89	51.01	-53.4	-55.6	14.4	0.00e+00	0	23	0	921698304	71	5066
2026-01-11 09:32:43.14	339.81	50.67	-53.5	-55.7	14.4	0.00e+00	0	23	0	922746880	72	4840
2026-01-11 09:32:44.15	339.72	50.33	-53.4	-55.6	14.5	0.00e+00	0	23	0	924844032	72	4777
2026-01-11 09:32:45.15	339.64	49.99	-53.5	-55.7	14.4	0.00e+00	0	23	0	926941184	72	4829
2026-01-11 09:32:46.16	339.56	49.65	-53.3	-55.4	14.6	0.00e+00	0	23	0	929038336	72	4671
2026-01-11 09:32:47.16	339.49	49.32	-53.5	-55.8	14.4	0.00e+00	0	23	0	931135488	72	4881
2026-01-11 09:32:48.17	339.41	48.99	-53.8	-56.1	14.2	0.00e+00	0	23	0	932184064	72	5062
2026-01-11 09:32:49.18	339.34	48.66	-54.3	-56.9	13.8	0.00e+00	0	23	0	934281216	73	5234
2026-01-11 09:32:50.19	339.26	48.34	-54.7	-57.5	13.6	0.00e+00	0	23	0	936378368	74	5289
2026-01-11 09:32:51.20	339.19	48.01	-54.8	-57.6	13.5	0.00e+00	0	23	0	938475520	74	5402
2026-01-11 09:32:52.20	339.12	47.70	-54.1	-56.5	14.2	0.00e+00	0	23	0	940572672	74	4757
2026-01-11 09:32:53.21	339.06	47.38	-53.6	-55.8	14.5	0.00e+00	0	23	0	941621248	73	4638
2026-01-11 09:32:54.22	338.99	47.06	-53.4	-55.5	14.6	0.00e+00	0	23	0	943718400	73	4484
2026-01-11 09:32:55.23	338.92	46.75	-53.1	-55.2	14.7	0.00e+00	0	23	0	945815552	72	4549
2026-01-11 09:32:56.23	338.86	46.44	-52.9	-54.8	14.9	0.00e+00	0	23	0	947912704	72	4376
2026-01-11 09:32:57.24	338.80	46.13	-52.9	-54.9	14.7	0.00e+00	0	23	0	950009856	71	4687
2026-01-11 09:32:58.25	338.74	45.82	-53.1	-55.2	14.6	0.00e+00	0	23	0	951058432	71	4852
2026-01-11 09:32:59.26	338.68	45.51	-53.7	-56.0	14.2	0.00e+00	0	23	0	953155584	72	5006
2026-01-11 09:33:00.26	338.62	45.21	-53.8	-56.3	14.0	0.00e+00	0	23	0	955252736	72	5175
2026-01-11 09:33:01.27	338.56	44.91	-54.1	-56.6	13.9	0.00e+00	0	23	0	957349888	73	5081
2026-01-11 09:33:02.28	338.51	44.61	-53.8	-56.3	14.2	0.00e+00	0	23	0	959447040	73	4871
2026-01-11 09:33:03.29	338.45	44.32	-53.2	-55.4	14.8	0.00e+00	0	23	0	960495616	73	4412
2026-01-11 09:33:04.30	338.40	44.02	-52.7	-54.6	15.1	0.00e+00	0	23	0	962592768	72	4284
2026-01-11 09:33:05.31	338.34	43.73	-52.3	-54.2	15.2	0.00e+00	0	23	0	964689920	71	4297
2026-01-11 09:33:06.31	338.29	43.44	-52.2	-54.0	15.2	0.00e+00	0	23	0	966787072	71	4229
2026-01-11 09:33:07.32	338.24	43.16	-51.9	-53.7	15.2	0.00e+00	0	23	0	968884224	70	4295
2026-01-11 09:33:08.33	338.19	42.87	-52.2	-54.1	15.0	0.00e+00	0	23	0	969932800	70	4506
2026-01-11 09:33:09.34	338.14	42.59	-52.8	-54.8	14.6	0.00e+00	0	23	0	972029952	70	4913
2026-01-11 09:33:10.34	338.09	42.31	-53.7	-56.0	14.2	0.00e+00	0	23	0	974127104	72	5035
2026-01-11 09:33:11.35	338.05	42.03	-54.0	-56.5	14.1	0.00e+00	0	23	0	976224256	73	5031
2026-01-11 09:33:12.36	338.00	41.75	-54.3	-56.9	13.7	0.00e+00	0	23	0	978321408	73	5273
2026-01-11 09:33:13.36	337.96	41.48	-54.4	-57.1	13.8	0.00e+00	0	23	0	979369984	74	5093
2026-01-11 09:33:14.37	337.91	41.21	-54.5	-57.2	13.7	0.00e+00	0	23	0	981467136	74	5133
2026-01-11 09:33:15.38	337.87	40.94	-54.2	-56.7	14.1	0.00e+00	0	23	0	983564288	74	4850
2026-01-11 09:33:16.39	337.82	40.67	-54.1	-56.5	14.2	0.00e+00	0	23	0	985661440	74	4759
2026-01-11 09:33:17.39	337.78	40.40	-53.6	-55.9	14.4	0.00e+00	0	23	0	987758592	73	4671
2026-01-11 09:33:18.41	337.74	40.14	-53.3	-55.4	14.7	0.00e+00	0	23	0	988807168	73	4431
2026-01-11 09:33:19.41	337.70	39.88	-53.1	-55.2	14.7	0.00e+00	0	23	0	990904320	72	4580
2026-01-11 09:33:20.42	337.66	39.61	-53.1	-55.2	14.7	0.00e+00	0	23	0	993001472	72	4564
2026-01-11 09:33:21.43	337.62	39.35	-53.2	-55.4	14.6	0.00e+00	0	23	0	995098624	72	4653
2026-01-11 09:33:22.44	337.58	39.10	-53.4	-55.6	14.4	0.00e+00	0	23	0	997195776	72	4785
2026-01-11 09:33:23.45	337.54	38.84	-53.7	-56.1	14.1	0.00e+00	0	23	0	998244352	72	5089
2026-01-11 09:33:24.45	337.51	38.59	-54.0	-56.5	14.0	0.00e+00	0	23	0	1000341504	73	5012
2026-01-11 09:33:25.46	337.47	38.34	-54.1	-56.7	13.8	0.00e+00	0	23	0	1002438656	73	5146
2026-01-11 09:33:26.47	337.43	38.09	-54.5	-57.2	13.7	0.00e+00	0	23	0	1004535808	74	5133
2026-01-11 09:33:27.47	337.40	37.84	-54.6	-57.4	13.6	0.00e+00	0	23	0	1006632960	74	5247
2026-01-11 09:33:28.48	337.36	37.60	-54.7	-57.6	13.5	0.00e+00	0	23	0	1007681536	74	5348
2026-01-11 09:33:29.49	337.33	37.35	-54.6	-57.4	13.5	0.00e+00	0	23	0	1009778688	74	5257
2026-01-11 09:33:30.50	337.29	37.11	-54.4	-57.2	13.7	0.00e+00	0	23	0	1011875840	74	5119
2026-01-11 09:33:31.50	337.26	36.87	-54.1	-56.6	14.1	0.00e+00	0	23	0	1013972992	74	4782
2026-01-11 09:33:32.51	337.23	36.63	-53.8	-56.2	14.4	0.00e+00	0	23	0	1016070144	74	4563
2026-01-11 09:33:33.52	337.20	36.40	-53.7	-56.0	14.3	0.00e+00	0	23	0	1017118720	73	4725
2026-01-11 09:33:34.53	337.16	36.16	-53.5	-55.8	14.4	0.00e+00	0	23	0	1019215872	73	4627
2026-01-11 09:33:35.54	337.13	35.93	-53.3	-55.4	14.7	0.00e+00	0	23	0	1021313024	73	4437
2026-01-11 09:33:36.54	337.10	35.70	-53.3	-55.4	14.7	0.00e+00	0	23	0	1023410176	73	4437
2026-01-11 09:33:37.55	337.07	35.47	-53.3	-55.5	14.7	0.00e+00	0	23	0	1025507328	73	4451
2026-01-11 09:33:38.56	337.04	35.24	-53.3	-55.5	14.6	0.00e+00	0	23	0	1026555904	73	4453
2026-01-11 09:33:39.57	337.01	35.01	-53.4	-55.6	14.6	0.00e+00	0	23	0	1028653056	73	4520
2026-01-11 09:33:40.58	336.99	34.78	-53.6	-55.9	14.4	0.00e+00	0	23	0	1030750208	73	4666
2026-01-11 09:33:41.58	336.96	34.56	-53.7	-56.1	14.2	0.00e+00	0	23	0	1032847360	73	4793
2026-01-11 09:33:42.59	336.93	34.34	-54.1	-56.7	13.9	0.00e+00	0	23	0	1034944512	73	5136
2026-01-11 09:33:43.60	336.90	34.12	-54.3	-56.9	13.7	0.00e+00	0	23	0	1035993088	73	5274
2026-01-11 09:33:44.61	336.87	33.90	-54.5	-57.3	13.6	0.00e+00	0	23	0	1038090240	74	5193
2026-01-11 09:33:45.61	336.85	33.68	-54.6	-57.5	13.5	0.00e+00	0	23	0	1040187392	74	5288
2026-01-11 09:33:46.62	336.82	33.47	-54.6	-57.4	13.5	0.00e+00	0	23	0	1042284544	74	5279
2026-01-11 09:33:47.62	336.80	33.25	-54.6	-57.6	13.4	0.00e+00	0	23	0	1044381696	74	5345
2026-01-11 09:33:48.62	336.77	33.04	-54.6	-57.5	13.3	0.00e+00	0	23	0	1045430272	74	5338
2026-01-11 09:33:49.63	336.75	32.83	-54.6	-57.5	13.4	0.00e+00	0	23	0	1047527424	74	5325
2026-01-11 09:33:50.64	336.72	32.62	-54.5	-57.3	13.6	0.00e+00	0	23	0	1049624576	74	5185
2026-01-11 09:33:51.64	336.70	32.41	-54.4	-57.1	13.7	0.00e+00	0	23	0	1051721728	74	5071
2026-01-11 09:33:52.65	336.67	32.21	-54.2	-56.8	13.9	0.00e+00	0	23	0	1053818880	74	4893
2026-01-11 09:33:53.66	336.65	32.00	-54.2	-56.8	13.9	0.00e+00	0	23	0	1054867456	74	4895
2026-01-11 09:33:54.67	336.63	31.79	-54.0	-56.5	14.1	0.00e+00	0	23	0	1056964608	74	4752
2026-01-11 09:33:55.68	336.60	31.59	-53.9	-56.4	14.2	0.00e+00	0	23	0	1059061760	74	4677
2026-01-11 09:33:56.69	336.58	31.39	-53.8	-56.1	14.4	0.00e+00	0	23	0	1061158912	74	4541
2026-01-11 09:33:57.70	336.56	31.19	-53.5	-55.9	14.4	0.00e+00	0	23	0	1063256064	73	4659
2026-01-11 09:33:58.70	336.54	30.99	-53.6	-55.9	14.3	0.00e+00	0	23	0	1065353216	73	4702
2026-01-11 09:33:59.71	336.52	30.79	-53.7	-56.0	14.2	0.00e+00	0	23	0	1066401792	73	4744
2026-01-11 09:34:00.72	336.49	30.60	-53.7	-56.1	14.2	0.00e+00	0	23	0	1068498944	73	4780
2026-01-11 09:34:01.73	336.47	30.40	-53.7	-56.2	14.2	0.00e+00	0	23	0	1070596096	73	4819
2026-01-11 09:34:02.74	336.45	30.21	-53.7	-56.1	14.2	0.00e+00	0	23	0	1072693248	73	4786
2026-01-11 09:34:03.75	336.43	30.02	-53.8	-56.2	14.1	0.00e+00	0	23	0	1073741824	73	4870
2026-01-11 09:34:04.75	336.41	29.83	-53.7	-56.1	14.2	0.00e+00	0	23	0	1075838976	73	4781
2026-01-11 09:34:05.76	336.39	29.64	-53.7	-56.1	14.2	0.00e+00	0	23	0	1077936128	73	4796
2026-01-11 09:34:06.77	336.37	29.45	-53.7	-56.1	14.2	0.00e+00	0	23	0	1080033280	73	4781
2026-01-11 09:34:07.78	336.35	29.26	-53.6	-56.0	14.3	0.00e+00	0	23	0	1082130432	73	4732
2026-01-11 09:34:08.78	336.34	29.08	-53.6	-56.0	14.3	0.00e+00	0	23	0	1083179008	73	4739
2026-01-11 09:34:09.79	336.32	28.89	-53.6	-56.0	14.3	0.00e+00	0	23	0	1085276160	73	4717
2026-01-11 09:34:10.80	336.30	28.71	-53.6	-55.9	14.3	0.00e+00	0	23	0	1087373312	73	4680
2026-01-11 09:34:11.80	336.28	28.53	-53.5	-55.8	14.4	0.00e+00	0	23	0	1089470464	73	4635
2026-01-11 09:34:12.81	336.26	28.35	-53.4	-55.7	14.5	0.00e+00	0	23	0	1091567616	73	4578
2026-01-11 09:34:13.82	336.24	28.17	-53.1	-55.2	14.6	0.00e+00	0	23	0	1093664768	72	4571
2026-01-11 09:34:14.83	336.23	27.99	-53.0	-55.2	14.6	0.00e+00	0	23	0	1094713344	72	4566
2026-01-11 09:34:15.84	336.21	27.81	-52.9	-55.0	14.8	0.00e+00	0	23	0	1096810496	72	4452
2026-01-11 09:34:16.85	336.19	27.63	-52.9	-54.9	14.8	0.00e+00	0	23	0	1098907648	72	4435
2026-01-11 09:34:17.85	336.18	27.46	-52.5	-54.4	14.9	0.00e+00	0	23	0	1101004800	71	4419
2026-01-11 09:34:18.86	336.16	27.28	-52.1	-54.0	15.0	0.00e+00	0	23	0	1103101952	70	4468
2026-01-11 09:34:19.87	336.14	27.11	-52.1	-53.9	15.1	0.00e+00	0	23	0	1104150528	70	4420
2026-01-11 09:34:20.88	336.13	26.94	-52.0	-53.9	15.0	0.00e+00	0	23	0	1106247680	70	4401
2026-01-11 09:34:21.89	336.11	26.77	-51.9	-53.7	15.2	0.00e+00	0	23	0	1108344832	70	4293
2026-01-11 09:34:22.89	336.10	26.60	-51.8	-53.5	15.2	0.00e+00	0	23	0	1110441984	70	4240
2026-01-11 09:34:23.90	336.08	26.43	-51.7	-53.5	15.3	0.00e+00	0	23	0	1111490560	70	4199
2026-01-11 09:34:24.91	336.06	26.26	-51.7	-53.4	15.1	0.00e+00	0	23	0	1113587712	69	4437
2026-01-11 09:34:25.92	336.05	26.09	-51.6	-53.3	15.2	0.00e+00	0	23	0	1115684864	69	4376
2026-01-11 09:34:26.93	336.03	25.93	-51.7	-53.5	15.1	0.00e+00	0	23	0	1117782016	69	4471
2026-01-11 09:34:27.93	336.02	25.76	-51.7	-53.5	15.1	0.00e+00	0	23	0	1119879168	69	4450
2026-01-11 09:34:28.94	336.01	25.60	-51.7	-53.5	15.1	0.00e+00	0	23	0	1121976320	69	4452
2026-01-11 09:34:29.95	335.99	25.44	-51.6	-53.4	15.1	0.00e+00	0	23	0	1123024896	69	4417
2026-01-11 09:34:30.96	335.98	25.27	-51.7	-53.5	15.1	0.00e+00	0	23	0	1125122048	69	4488
2026-01-11 09:34:31.97	335.96	25.11	-51.7	-53.5	15.1	0.00e+00	0	23	0	1127219200	69	4473
2026-01-11 09:34:32.97	335.95	24.96	-51.7	-53.6	15.0	0.00e+00	0	23	0	1129316352	69	4499
2026-01-11 09:34:33.98	335.94	24.80	-51.8	-53.6	15.0	0.00e+00	0	23	0	1131413504	69	4509
2026-01-11 09:34:34.99	335.92	24.64	-51.8	-53.6	15.0	0.00e+00	0	23	0	1132462080	69	4513
2026-01-11 09:34:36.00	335.91	24.48	-51.9	-53.7	15.0	0.00e+00	0	23	0	1134559232	69	4571
2026-01-11 09:34:37.00	335.90	24.33	-51.9	-53.7	15.0	0.00e+00	0	23	0	1136656384	69	4596
2026-01-11 09:34:38.01	335.88	24.17	-51.7	-53.5	15.1	0.00e+00	0	23	0	1138753536	69	4487
2026-01-11 09:34:39.02	335.87	24.02	-51.7	-53.6	15.0	0.00e+00	0	23	0	1140850688	69	4511
2026-01-11 09:34:40.03	335.86	23.86	-51.6	-53.4	15.1	0.00e+00	0	23	0	1141899264	69	4435
2026-01-11 09:34:41.03	335.85	23.71	-51.5	-53.2	15.2	0.00e+00	0	23	0	1143996416	69	4327
2026-01-11 09:34:42.04	335.83	23.56	-51.5	-53.3	15.2	0.00e+00	0	23	0	1146093568	69	4376
2026-01-11 09:34:43.05	335.82	23.41	-51.5	-53.3	15.2	0.00e+00	0	23	0	1148190720	69	4369
2026-01-11 09:34:44.06	335.81	23.26	-51.5	-53.2	15.2	0.00e+00	0	23	0	1150287872	69	4330
2026-01-11 09:34:45.07	335.80	23.11	-51.3	-53.0	15.3	0.00e+00	0	23	0	1151336448	69	4214
2026-01-11 09:34:46.08	335.79	22.96	-51.3	-53.1	15.3	0.00e+00	0	23	0	1153433600	69	4257
2026-01-11 09:34:47.09	335.78	22.81	-51.1	-52.7	15.2	0.00e+00	0	23	0	1155530752	68	4340
2026-01-11 09:34:48.10	335.76	22.67	-51.0	-52.7	15.3	0.00e+00	0	23	0	1157627904	68	4313
2026-01-11 09:34:49.10	335.75	22.52	-51.1	-52.8	15.2	0.00e+00	0	23	0	1159725056	68	4380
2026-01-11 09:34:50.12	335.74	22.38	-51.1	-52.8	15.3	0.00e+00	0	23	0	1160773632	68	4367
2026-01-11 09:34:51.12	335.73	22.24	-51.1	-52.8	15.3	0.00e+00	0	23	0	1162870784	68	4379
2026-01-11 09:34:52.14	335.72	22.09	-51.1	-52.8	15.3	0.00e+00	0	23	0	1164967936	68	4375
2026-01-11 09:34:53.14	335.71	21.95	-51.0	-52.7	15.3	0.00e+00	0	23	0	1167065088	68	4307
2026-01-11 09:34:54.15	335.70	21.81	-51.1	-52.7	15.3	0.00e+00	0	23	0	1169162240	68	4335
2026-01-11 09:34:55.16	335.69	21.67	-51.2	-52.9	15.2	0.00e+00	0	23	0	1170210816	68	4392
2026-01-11 09:34:56.17	335.68	21.53	-51.2	-52.9	15.2	0.00e+00	0	23	0	1172307968	68	4405
2026-01-11 09:34:57.18	335.67	21.39	-51.2	-53.0	15.2	0.00e+00	0	23	0	1174405120	68	4450
2026-01-11 09:34:58.18	335.66	21.25	-51.2	-53.0	15.2	0.00e+00	0	23	0	1176502272	68	4451
2026-01-11 09:34:59.19	335.65	21.11	-51.4	-53.1	15.1	0.00e+00	0	23	0	1178599424	68	4538
2026-01-11 09:35:00.20	335.64	20.98	-51.5	-53.2	15.0	0.00e+00	0	23	0	1179648000	68	4589
2026-01-11 09:35:01.20	335.63	20.84	-51.5	-53.3	14.9	0.00e+00	0	23	0	1181745152	68	4649
2026-01-11 09:35:02.21	335.62	20.70	-51.6	-53.4	14.9	0.00e+00	0	23	0	1183842304	68	4679
2026-01-11 09:35:03.22	335.61	20.57	-51.7	-53.5	14.9	0.00e+00	0	23	0	1185939456	68	4740
2026-01-11 09:35:04.23	335.60	20.44	-51.6	-53.5	14.9	0.00e+00	0	23	0	1188036608	68	4712
2026-01-11 09:35:05.24	335.59	20.30	-51.7	-53.5	14.9	0.00e+00	0	23	0	1189085184	68	4742
2026-01-11 09:35:06.25	335.58	20.17	-51.8	-53.7	14.8	0.00e+00	0	23	0	1191182336	68	4827
2026-01-11 09:35:07.26	335.58	20.04	-51.8	-53.6	14.8	0.00e+00	0	23	0	1193279488	68	4808
2026-01-11 09:35:08.26	335.57	19.91	-51.8	-53.6	14.8	0.00e+00	0	23	0	1195376640	68	4812
2026-01-11 09:35:09.27	335.56	19.78	-51.8	-53.7	14.8	0.00e+00	0	23	0	1197473792	68	4845
2026-01-11 09:35:10.28	335.55	19.65	-51.8	-53.6	14.8	0.00e+00	0	23	0	1198522368	68	4804
2026-01-11 09:35:11.29	335.54	19.52	-51.9	-53.8	14.7	0.00e+00	0	23	0	1200619520	68	4888
2026-01-11 09:35:12.30	335.53	19.39	-51.9	-53.8	14.9	0.00e+00	0	23	0	1202716672	69	4631
2026-01-11 09:35:13.31	335.52	19.26	-51.9	-53.8	14.9	0.00e+00	0	23	0	1204813824	69	4622
2026-01-11 09:35:14.32	335.52	19.13	-52.0	-53.9	14.8	0.00e+00	0	23	0	1206910976	69	4672
2026-01-11 09:35:15.33	335.51	19.01	-52.0	-53.9	14.8	0.00e+00	0	23	0	1207959552	69	4667
2026-01-11 09:35:16.33	335.50	18.88	-52.1	-54.1	14.7	0.00e+00	0	23	0	1210056704	69	4781
2026-01-11 09:35:17.34	335.49	18.76	-51.9	-53.8	14.8	0.00e+00	0	23	0	1212153856	69	4635
2026-01-11 09:35:18.35	335.48	18.63	-51.8	-53.7	14.9	0.00e+00	0	23	0	1214251008	69	4568
2026-01-11 09:35:19.35	335.48	18.51	-51.9	-53.7	14.9	0.00e+00	0	23	0	1216348160	69	4598
2026-01-11 09:35:20.36	335.47	18.39	-51.9	-53.9	14.8	0.00e+00	0	23	0	1218445312	69	4661
2026-01-11 09:35:21.37	335.46	18.26	-52.0	-53.9	14.8	0.00e+00	0	23	0	1219493888	69	4688
2026-01-11 09:35:22.38	335.45	18.14	-52.0	-53.9	14.8	0.00e+00	0	23	0	1221591040	69	4683
2026-01-11 09:35:23.39	335.45	18.02	-52.0	-53.9	14.8	0.00e+00	0	23	0	1223688192	69	4690
2026-01-11 09:35:24.40	335.44	17.90	-51.9	-53.8	14.8	0.00e+00	0	23	0	1225785344	69	4642
2026-01-11 09:35:25.40	335.43	17.78	-52.0	-53.9	14.8	0.00e+00	0	23	0	1227882496	69	4702
2026-01-11 09:35:26.42	335.43	17.66	-52.0	-53.9	14.8	0.00e+00	0	23	0	1228931072	69	4691
2026-01-11 09:35:27.42	335.42	17.54	-52.0	-53.9	14.8	0.00e+00	0	23	0	1231028224	69	4700
2026-01-11 09:35:28.43	335.41	17.42	-52.0	-54.0	14.7	0.00e+00	0	23	0	1233125376	69	4739
2026-01-11 09:35:29.44	335.41	17.30	-52.1	-54.1	14.7	0.00e+00	0	23	0	1235222528	69	4771
2026-01-11 09:35:30.45	335.40	17.19	-52.1	-54.1	14.7	0.00e+00	0	23	0	1236271104	69	4761
2026-01-11 09:35:31.45	335.39	17.07	-52.2	-54.2	14.6	0.00e+00	0	23	0	1238368256	69	4846
2026-01-11 09:35:32.46	335.39	16.95	-52.2	-54.2	14.6	0.00e+00	0	23	0	1240465408	69	4823
2026-01-11 09:35:33.47	335.38	16.84	-52.3	-54.3	14.5	0.00e+00	0	23	0	1242562560	69	4911
2026-01-11 09:35:34.48	335.37	16.72	-52.3	-54.3	14.5	0.00e+00	0	23	0	1244659712	69	4912
2026-01-11 09:35:35.49	335.37	16.61	-52.1	-54.1	14.7	0.00e+00	0	23	0	1246756864	69	4809
