passes_logs/2026/01/11/R3.2S_Murmansk/R3.2S_Murmansk__20260111_083357_NOAA_21_JPSS-2_rec.log

#Pass ID: 20260111_083357_NOAA 21 (JPSS-2)
#Satellite: NOAA 21 (JPSS-2)
#Configuration: NOAA-21
#almurnet v.1.7.20251203
#Start time: 2026-01-11 08:33:59

#Version: 2.2.20231116
#Station: R3.2S_Murmansk
#Location: 33.079688 lon 68.888172 lat
#TLE: 1 54234U 22150A   26010.92456470  .00000095  00000+0  65865-4 0  9991
#TLE: 2 54234  98.7494 311.8737 0000784 316.5119  43.5995 14.19533975164234

#Time	Az	El	Level	Level2	SNR	BER	BlckErr	Temp	State	Recorded	gain1	gain2
2026-01-11 08:33:59.49	129.17	2.10	-56.9	-70.6	3.8	1.49e+00	0	21	0	0	79	18021
2026-01-11 08:34:00.50	129.15	2.16	-56.9	-70.6	3.8	1.49e+00	0	21	104	0	78	19086
2026-01-11 08:34:01.50	129.12	2.22	-56.9	-70.6	3.8	1.49e+00	0	21	104	0	78	19033
2026-01-11 08:34:02.52	129.10	2.29	-56.9	-70.6	3.8	1.49e+00	0	21	104	0	78	18993
2026-01-11 08:34:03.52	129.08	2.35	-56.9	-70.6	3.8	1.49e+00	0	21	104	0	78	19109
2026-01-11 08:34:04.53	129.06	2.42	-56.9	-70.6	3.8	1.49e+00	0	21	104	0	78	19034
2026-01-11 08:34:05.54	129.04	2.48	-56.9	-70.6	3.8	1.49e+00	0	21	104	0	78	19107
2026-01-11 08:34:06.55	129.01	2.55	-56.9	-70.6	3.8	1.49e+00	0	21	104	0	78	19020
2026-01-11 08:34:07.56	128.99	2.61	-56.9	-70.6	3.8	1.49e+00	0	21	104	0	78	19040
2026-01-11 08:34:08.57	128.97	2.68	-56.9	-70.6	3.8	1.49e+00	0	21	104	0	78	18971
2026-01-11 08:34:09.57	128.95	2.75	-56.9	-70.6	3.8	1.49e+00	0	21	104	0	78	19071
2026-01-11 08:34:10.58	128.93	2.81	-56.9	-70.6	3.8	1.49e+00	0	21	104	0	78	19025
2026-01-11 08:34:11.59	128.90	2.88	-56.9	-70.6	3.8	1.49e+00	0	21	104	0	78	19026
2026-01-11 08:34:12.60	128.88	2.94	-56.9	-70.6	3.8	1.49e+00	0	21	104	0	78	19050
2026-01-11 08:34:13.61	128.86	3.01	-56.9	-70.6	3.8	1.49e+00	0	21	104	0	78	18999
2026-01-11 08:34:14.62	128.83	3.08	-56.9	-70.5	3.8	1.49e+00	0	21	104	0	78	18913
2026-01-11 08:34:15.63	128.81	3.14	-56.8	-70.5	3.8	1.49e+00	0	21	104	0	78	18798
2026-01-11 08:34:16.63	128.79	3.21	-56.9	-70.5	3.8	1.49e+00	0	21	104	0	78	18768
2026-01-11 08:34:17.64	128.76	3.28	-56.9	-70.4	3.8	1.49e+00	0	22	104	0	78	18529
2026-01-11 08:34:18.65	128.74	3.34	-56.8	-70.3	3.8	1.49e+00	0	22	104	0	78	18324
2026-01-11 08:34:19.66	128.72	3.41	-56.8	-69.9	3.8	1.49e+00	0	21	104	0	78	17680
2026-01-11 08:34:20.67	128.69	3.48	-56.8	-69.7	3.8	1.49e+00	0	21	104	0	78	17107
2026-01-11 08:34:21.68	128.67	3.54	-56.8	-68.7	3.9	1.49e+00	0	21	104	0	78	15401
2026-01-11 08:34:22.69	128.64	3.61	-56.7	-68.1	3.9	1.49e+00	0	21	104	0	78	14238
2026-01-11 08:34:23.70	128.62	3.68	-56.7	-67.4	4.1	1.47e+00	0	22	104	0	78	13131
2026-01-11 08:34:24.71	128.60	3.75	-56.5	-66.4	3.9	1.44e+00	0	22	104	0	78	11791
2026-01-11 08:34:25.71	128.57	3.82	-56.5	-65.8	4.6	1.20e+00	0	22	104	0	78	10973
2026-01-11 08:34:26.72	128.55	3.88	-56.4	-65.0	5.0	7.66e-01	0	22	0	0	78	9954
2026-01-11 08:34:27.74	128.52	3.95	-56.3	-64.4	5.3	5.81e-01	0	22	0	3145728	78	9305
2026-01-11 08:34:28.73	128.50	4.02	-56.1	-63.4	5.9	3.53e-01	0	22	0	6291456	78	8357
2026-01-11 08:34:29.74	128.47	4.09	-55.9	-62.4	6.8	1.57e-01	0	22	0	9437184	78	7375
2026-01-11 08:34:30.75	128.45	4.16	-55.5	-61.2	7.7	1.05e-01	0	22	0	12582912	77	6811
2026-01-11 08:34:31.75	128.42	4.23	-55.2	-60.1	8.8	2.65e-02	0	22	0	15728640	77	6006
2026-01-11 08:34:32.76	128.40	4.30	-54.8	-59.0	9.7	8.25e-03	0	22	0	18874368	76	5633
2026-01-11 08:34:33.77	128.37	4.36	-54.1	-57.8	10.6	1.37e-03	0	22	0	22020096	74	5508
2026-01-11 08:34:34.78	128.35	4.43	-53.8	-57.1	11.3	2.84e-04	0	22	0	25165824	74	5067
2026-01-11 08:34:35.79	128.32	4.50	-53.0	-55.8	12.1	7.60e-06	0	22	0	28311552	72	4890
2026-01-11 08:34:36.80	128.29	4.57	-52.3	-54.8	12.9	7.00e-07	0	22	0	31457280	71	4609
2026-01-11 08:34:37.80	128.27	4.64	-51.8	-54.0	13.3	0.00e+00	0	22	0	34603008	70	4465
2026-01-11 08:34:38.81	128.24	4.71	-51.9	-54.2	13.2	0.00e+00	0	22	0	37748736	70	4584
2026-01-11 08:34:39.82	128.22	4.78	-51.6	-53.7	13.4	0.00e+00	0	22	0	40894464	69	4595
2026-01-11 08:34:40.83	128.19	4.86	-51.3	-53.4	13.6	0.00e+00	0	22	0	44040192	69	4436
2026-01-11 08:34:41.83	128.16	4.93	-51.1	-53.2	13.6	0.00e+00	0	22	0	47185920	68	4560
2026-01-11 08:34:42.84	128.14	5.00	-51.6	-53.9	13.1	0.00e+00	0	22	0	50331648	68	4952
2026-01-11 08:34:43.85	128.11	5.07	-50.9	-52.9	13.8	0.00e+00	0	22	0	53477376	68	4415
2026-01-11 08:34:44.85	128.08	5.14	-54.4	-58.3	10.2	6.10e-06	0	22	0	56623104	73	6160
2026-01-11 08:34:45.86	128.05	5.21	-51.6	-53.8	13.2	0.00e+00	0	22	0	59768832	68	4888
2026-01-11 08:34:46.87	128.03	5.28	-52.4	-54.9	12.6	0.00e+00	0	22	0	62914560	69	5229
2026-01-11 08:34:47.88	128.00	5.35	-54.6	-59.1	9.6	1.59e-04	0	22	0	66060288	74	6383
2026-01-11 08:34:48.88	127.97	5.43	-51.2	-53.2	13.8	0.00e+00	0	22	0	69206016	69	4299
2026-01-11 08:34:49.89	127.94	5.50	-50.7	-52.5	14.2	0.00e+00	0	22	0	72351744	68	4221
2026-01-11 08:34:50.90	127.92	5.57	-50.7	-52.6	13.9	0.00e+00	0	22	0	75497472	67	4525
2026-01-11 08:34:51.91	127.89	5.64	-50.4	-52.2	14.2	0.00e+00	0	22	0	78643200	67	4313
2026-01-11 08:34:52.92	127.86	5.72	-50.5	-52.3	14.1	0.00e+00	0	22	0	81788928	67	4375
2026-01-11 08:34:53.93	127.83	5.79	-50.4	-52.2	14.2	0.00e+00	0	22	0	84934656	67	4309
2026-01-11 08:34:54.94	127.80	5.86	-50.5	-52.3	14.1	0.00e+00	0	22	0	88080384	67	4380
2026-01-11 08:34:55.94	127.77	5.94	-50.5	-52.3	14.1	0.00e+00	0	22	0	91226112	67	4355
2026-01-11 08:34:56.95	127.75	6.01	-50.5	-52.2	14.2	0.00e+00	0	22	0	94371840	67	4336
2026-01-11 08:34:57.96	127.72	6.08	-50.4	-52.2	14.2	0.00e+00	0	22	0	97517568	67	4332
2026-01-11 08:34:58.97	127.69	6.16	-50.3	-52.0	14.3	0.00e+00	0	22	0	100663296	67	4229
2026-01-11 08:34:59.97	127.66	6.23	-50.4	-52.2	14.2	0.00e+00	0	22	0	103809024	67	4297
2026-01-11 08:35:00.98	127.63	6.31	-50.4	-52.2	14.2	0.00e+00	0	22	0	106954752	67	4313
2026-01-11 08:35:01.99	127.60	6.38	-50.4	-52.2	14.2	0.00e+00	0	22	0	110100480	67	4302
2026-01-11 08:35:03.00	127.57	6.46	-50.3	-52.0	14.3	0.00e+00	0	22	0	113246208	67	4218
2026-01-11 08:35:04.01	127.54	6.53	-50.3	-52.0	14.3	0.00e+00	0	22	0	116391936	67	4239
2026-01-11 08:35:05.02	127.51	6.61	-50.3	-52.0	14.3	0.00e+00	0	22	0	119537664	67	4238
2026-01-11 08:35:06.03	127.48	6.68	-50.1	-51.8	14.3	0.00e+00	0	22	0	122683392	66	4342
2026-01-11 08:35:07.04	127.45	6.76	-50.1	-51.7	14.4	0.00e+00	0	22	0	125829120	66	4338
2026-01-11 08:35:08.05	127.42	6.83	-50.1	-51.8	14.3	0.00e+00	0	22	0	128974848	66	4369
2026-01-11 08:35:09.06	127.38	6.91	-50.1	-51.8	14.3	0.00e+00	0	22	0	132120576	66	4343
2026-01-11 08:35:10.06	127.35	6.99	-50.0	-51.7	14.4	0.00e+00	0	22	0	135266304	66	4315
2026-01-11 08:35:11.07	127.32	7.06	-50.0	-51.7	14.4	0.00e+00	0	22	0	138412032	66	4302
2026-01-11 08:35:12.08	127.29	7.14	-50.1	-51.7	14.4	0.00e+00	0	22	0	141557760	66	4329
2026-01-11 08:35:13.09	127.26	7.22	-50.0	-51.6	14.4	0.00e+00	0	22	0	144703488	66	4286
2026-01-11 08:35:14.10	127.23	7.29	-50.1	-51.8	14.4	0.00e+00	0	22	0	147849216	66	4350
2026-01-11 08:35:15.11	127.20	7.37	-50.0	-51.6	14.5	0.00e+00	0	22	0	150994944	66	4265
2026-01-11 08:35:16.12	127.16	7.45	-50.0	-51.6	14.5	0.00e+00	0	22	0	154140672	66	4278
2026-01-11 08:35:17.13	127.13	7.53	-49.9	-51.5	14.5	0.00e+00	0	22	0	157286400	66	4238
2026-01-11 08:35:18.14	127.10	7.61	-49.8	-51.4	14.6	0.00e+00	0	22	0	160432128	66	4185
2026-01-11 08:35:19.14	127.07	7.68	-49.8	-51.4	14.6	0.00e+00	0	22	0	163577856	66	4190
2026-01-11 08:35:20.15	127.03	7.76	-49.8	-51.4	14.6	0.00e+00	0	22	0	166723584	66	4182
2026-01-11 08:35:21.16	127.00	7.84	-49.7	-51.3	14.7	0.00e+00	0	22	0	169869312	66	4120
2026-01-11 08:35:22.17	126.97	7.92	-49.8	-51.4	14.6	0.00e+00	0	22	0	173015040	66	4179
2026-01-11 08:35:23.18	126.93	8.00	-49.9	-51.5	14.6	0.00e+00	0	22	0	176160768	66	4204
2026-01-11 08:35:24.18	126.90	8.08	-49.6	-51.2	14.7	0.00e+00	0	22	0	179306496	65	4293
2026-01-11 08:35:25.19	126.86	8.16	-49.6	-51.2	14.6	0.00e+00	0	22	0	182452224	65	4304
2026-01-11 08:35:26.20	126.83	8.24	-49.6	-51.2	14.6	0.00e+00	0	22	0	185597952	65	4305
2026-01-11 08:35:27.21	126.80	8.32	-49.6	-51.1	14.6	0.00e+00	0	22	0	188743680	65	4262
2026-01-11 08:35:28.22	126.76	8.40	-49.5	-51.0	14.7	0.00e+00	0	22	0	191889408	65	4237
2026-01-11 08:35:29.23	126.73	8.48	-49.5	-51.0	14.7	0.00e+00	0	22	0	195035136	65	4217
2026-01-11 08:35:30.23	126.69	8.56	-49.5	-51.0	14.7	0.00e+00	0	22	0	198180864	65	4227
2026-01-11 08:35:31.24	126.66	8.64	-49.4	-50.9	14.8	0.00e+00	0	22	0	201326592	65	4179
2026-01-11 08:35:32.25	126.62	8.72	-49.5	-51.0	14.8	0.00e+00	0	22	0	204472320	65	4198
2026-01-11 08:35:33.26	126.58	8.81	-49.3	-50.8	14.8	0.00e+00	0	22	0	207618048	65	4139
2026-01-11 08:35:34.27	126.55	8.89	-49.3	-50.8	14.9	0.00e+00	0	22	0	210763776	65	4102
2026-01-11 08:35:35.28	126.51	8.97	-49.4	-50.9	14.8	0.00e+00	0	22	0	213909504	65	4155
2026-01-11 08:35:36.28	126.48	9.05	-49.4	-50.9	14.8	0.00e+00	0	22	0	217055232	65	4158
2026-01-11 08:35:37.29	126.44	9.14	-49.4	-50.9	14.8	0.00e+00	0	22	0	220200960	65	4151
2026-01-11 08:35:38.30	126.40	9.22	-49.3	-50.8	14.9	0.00e+00	0	22	0	223346688	65	4101
2026-01-11 08:35:39.31	126.37	9.30	-49.2	-50.7	14.9	0.00e+00	0	22	0	226492416	65	4083
2026-01-11 08:35:40.31	126.33	9.38	-49.3	-50.8	14.9	0.00e+00	0	22	0	229638144	65	4108
2026-01-11 08:35:41.32	126.29	9.47	-49.3	-50.8	14.9	0.00e+00	0	23	0	232783872	65	4117
2026-01-11 08:35:42.33	126.25	9.55	-49.2	-50.7	15.0	0.00e+00	0	23	0	235929600	65	4068
2026-01-11 08:35:43.34	126.22	9.64	-49.1	-50.5	14.8	0.00e+00	0	22	0	239075328	64	4233
2026-01-11 08:35:44.35	126.18	9.72	-49.1	-50.6	14.8	0.00e+00	0	22	0	242221056	64	4262
2026-01-11 08:35:45.35	126.14	9.81	-49.0	-50.5	14.9	0.00e+00	0	22	0	245366784	64	4204
2026-01-11 08:35:46.36	126.10	9.89	-49.1	-50.5	14.8	0.00e+00	0	23	0	248512512	64	4237
2026-01-11 08:35:47.37	126.06	9.98	-49.1	-50.6	14.8	0.00e+00	0	23	0	251658240	64	4250
2026-01-11 08:35:48.38	126.02	10.06	-49.2	-50.7	14.8	0.00e+00	0	22	0	254803968	64	4307
2026-01-11 08:35:49.39	125.98	10.15	-49.0	-50.4	14.9	0.00e+00	0	22	0	257949696	64	4180
2026-01-11 08:35:50.40	125.94	10.24	-48.9	-50.3	15.0	0.00e+00	0	22	0	261095424	64	4127
2026-01-11 08:35:51.41	125.90	10.32	-49.0	-50.4	15.0	0.00e+00	0	22	0	264241152	64	4162
2026-01-11 08:35:52.42	125.86	10.41	-49.0	-50.5	14.9	0.00e+00	0	23	0	267386880	64	4205
2026-01-11 08:35:53.42	125.82	10.50	-48.9	-50.3	15.0	0.00e+00	0	23	0	270532608	64	4100
2026-01-11 08:35:54.43	125.78	10.58	-48.9	-50.3	15.0	0.00e+00	0	23	0	273678336	64	4107
2026-01-11 08:35:55.44	125.74	10.67	-48.8	-50.2	15.1	0.00e+00	0	23	0	276824064	64	4079
2026-01-11 08:35:56.45	125.70	10.76	-48.9	-50.3	15.0	0.00e+00	0	22	0	279969792	64	4113
2026-01-11 08:35:57.45	125.66	10.85	-48.8	-50.2	15.1	0.00e+00	0	23	0	283115520	64	4066
2026-01-11 08:35:58.46	125.62	10.94	-48.9	-50.3	15.0	0.00e+00	0	23	0	286261248	64	4100
2026-01-11 08:35:59.47	125.57	11.03	-48.8	-50.1	15.1	0.00e+00	0	23	0	289406976	64	4044
2026-01-11 08:36:00.47	125.53	11.12	-48.7	-50.0	15.0	0.00e+00	0	22	0	292552704	63	4232
2026-01-11 08:36:01.47	125.49	11.20	-48.7	-50.1	15.0	0.00e+00	0	23	0	295698432	63	4253
2026-01-11 08:36:02.48	125.45	11.29	-48.7	-50.0	15.0	0.00e+00	0	23	0	298844160	63	4239
2026-01-11 08:36:03.49	125.40	11.38	-48.7	-50.0	15.0	0.00e+00	0	23	0	301989888	63	4233
2026-01-11 08:36:04.50	125.36	11.48	-48.6	-50.0	15.0	0.00e+00	0	23	0	305135616	63	4224
2026-01-11 08:36:05.50	125.32	11.57	-48.6	-49.9	15.1	0.00e+00	0	23	0	308281344	63	4184
2026-01-11 08:36:06.51	125.27	11.66	-48.5	-49.9	15.1	0.00e+00	0	23	0	311427072	63	4162
2026-01-11 08:36:07.52	125.23	11.75	-48.6	-49.9	15.1	0.00e+00	0	23	0	314572800	63	4178
2026-01-11 08:36:08.53	125.18	11.84	-48.6	-50.0	15.0	0.00e+00	0	22	0	317718528	63	4198
2026-01-11 08:36:09.54	125.14	11.93	-48.7	-50.1	15.0	0.00e+00	0	23	0	320864256	63	4247
2026-01-11 08:36:10.55	125.09	12.03	-48.7	-50.0	15.0	0.00e+00	0	22	0	324009984	63	4238
2026-01-11 08:36:11.56	125.05	12.12	-48.5	-49.9	15.1	0.00e+00	0	22	0	327155712	63	4150
2026-01-11 08:36:12.56	125.00	12.21	-48.5	-49.8	15.1	0.00e+00	0	22	0	330301440	63	4127
2026-01-11 08:36:13.57	124.96	12.31	-48.6	-49.9	15.1	0.00e+00	0	22	0	333447168	63	4183
2026-01-11 08:36:14.58	124.91	12.40	-48.5	-49.8	15.1	0.00e+00	0	23	0	336592896	63	4139
2026-01-11 08:36:15.59	124.86	12.49	-48.5	-49.8	15.1	0.00e+00	0	23	0	339738624	63	4140
2026-01-11 08:36:16.60	124.81	12.59	-48.5	-49.8	15.1	0.00e+00	0	23	0	342884352	63	4122
2026-01-11 08:36:17.60	124.77	12.68	-48.5	-49.8	15.1	0.00e+00	0	22	0	346030080	63	4137
2026-01-11 08:36:18.61	124.72	12.78	-48.6	-49.9	15.1	0.00e+00	0	23	0	349175808	63	4166
2026-01-11 08:36:19.61	124.67	12.87	-48.6	-49.9	15.1	0.00e+00	0	23	0	352321536	63	4188
2026-01-11 08:36:20.62	124.62	12.97	-48.6	-49.9	15.1	0.00e+00	0	22	0	355467264	63	4189
2026-01-11 08:36:21.62	124.58	13.06	-48.6	-50.0	15.0	0.00e+00	0	23	0	358612992	63	4208
2026-01-11 08:36:22.63	124.53	13.16	-48.6	-49.9	15.1	0.00e+00	0	23	0	361758720	63	4175
2026-01-11 08:36:23.64	124.48	13.26	-48.5	-49.9	15.1	0.00e+00	0	23	0	364904448	63	4159
2026-01-11 08:36:24.65	124.43	13.36	-48.5	-49.8	15.1	0.00e+00	0	23	0	368050176	63	4136
2026-01-11 08:36:25.66	124.38	13.45	-48.5	-49.8	15.1	0.00e+00	0	23	0	371195904	63	4130
2026-01-11 08:36:26.67	124.33	13.55	-48.6	-50.0	15.0	0.00e+00	0	22	0	374341632	63	4212
2026-01-11 08:36:27.68	124.28	13.65	-48.6	-49.9	15.1	0.00e+00	0	23	0	377487360	63	4193
2026-01-11 08:36:28.69	124.22	13.75	-48.5	-49.9	15.1	0.00e+00	0	23	0	381681664	63	4149
2026-01-11 08:36:29.70	124.17	13.85	-48.5	-49.8	15.2	0.00e+00	0	23	0	383778816	63	4121
2026-01-11 08:36:30.70	124.12	13.95	-48.5	-49.8	15.1	0.00e+00	0	23	0	386924544	63	4134
2026-01-11 08:36:31.71	124.07	14.05	-48.5	-49.8	15.2	0.00e+00	0	22	0	390070272	63	4122
2026-01-11 08:36:32.70	124.02	14.15	-48.4	-49.7	15.2	0.00e+00	0	23	0	393216000	63	4082
2026-01-11 08:36:33.70	123.96	14.25	-48.5	-49.8	15.2	0.00e+00	0	23	0	396361728	63	4120
2026-01-11 08:36:34.71	123.91	14.35	-48.6	-49.9	15.1	0.00e+00	0	23	0	399507456	63	4172
2026-01-11 08:36:35.72	123.86	14.45	-48.6	-49.9	15.1	0.00e+00	0	23	0	403701760	63	4166
2026-01-11 08:36:36.73	123.80	14.55	-48.5	-49.8	15.2	0.00e+00	0	23	0	406847488	63	4124
2026-01-11 08:36:37.73	123.75	14.65	-48.5	-49.8	15.2	0.00e+00	0	23	0	408944640	63	4130
2026-01-11 08:36:38.74	123.69	14.76	-48.4	-49.7	15.2	0.00e+00	0	22	0	412090368	63	4096
2026-01-11 08:36:39.75	123.64	14.86	-48.4	-49.7	15.2	0.00e+00	0	23	0	415236096	63	4082
2026-01-11 08:36:40.75	123.58	14.96	-48.5	-49.8	15.2	0.00e+00	0	23	0	418381824	63	4115
2026-01-11 08:36:41.76	123.53	15.07	-48.5	-49.8	15.2	0.00e+00	0	22	0	421527552	63	4112
2026-01-11 08:36:42.77	123.47	15.17	-48.5	-49.8	15.2	0.00e+00	0	23	0	425721856	63	4114
2026-01-11 08:36:43.78	123.41	15.28	-48.4	-49.7	15.2	0.00e+00	0	23	0	428867584	63	4097
2026-01-11 08:36:44.79	123.35	15.38	-48.4	-49.7	15.2	0.00e+00	0	22	0	430964736	63	4094
2026-01-11 08:36:45.79	123.30	15.49	-48.4	-49.7	15.2	0.00e+00	0	23	0	434110464	63	4060
2026-01-11 08:36:46.80	123.24	15.59	-48.3	-49.6	15.2	0.00e+00	0	23	0	437256192	63	4031
2026-01-11 08:36:47.81	123.18	15.70	-48.3	-49.6	15.2	0.00e+00	0	23	0	440401920	63	4041
2026-01-11 08:36:48.82	123.12	15.81	-48.4	-49.6	15.2	0.00e+00	0	23	0	444596224	63	4050
2026-01-11 08:36:49.82	123.06	15.91	-48.4	-49.7	15.2	0.00e+00	0	23	0	447741952	63	4072
2026-01-11 08:36:50.83	123.00	16.02	-48.5	-49.8	15.1	0.00e+00	0	23	0	450887680	63	4144
2026-01-11 08:36:51.84	122.94	16.13	-48.4	-49.7	15.2	0.00e+00	0	23	0	454033408	63	4085
2026-01-11 08:36:52.85	122.88	16.24	-48.5	-49.8	15.2	0.00e+00	0	23	0	456130560	63	4118
2026-01-11 08:36:53.86	122.82	16.35	-48.5	-49.8	15.2	0.00e+00	0	23	0	459276288	63	4120
2026-01-11 08:36:54.86	122.76	16.46	-48.5	-49.8	15.2	0.00e+00	0	23	0	463470592	63	4139
2026-01-11 08:36:55.87	122.69	16.57	-48.5	-49.8	15.2	0.00e+00	0	23	0	466616320	63	4140
2026-01-11 08:36:56.88	122.63	16.68	-48.5	-49.8	15.2	0.00e+00	0	23	0	469762048	63	4134
2026-01-11 08:36:57.89	122.57	16.79	-48.6	-50.0	15.1	0.00e+00	0	23	0	472907776	63	4194
2026-01-11 08:36:58.90	122.50	16.90	-48.7	-50.0	15.0	0.00e+00	0	23	0	476053504	63	4234
2026-01-11 08:36:59.90	122.44	17.01	-48.7	-50.0	15.1	0.00e+00	0	23	0	478150656	63	4222
2026-01-11 08:37:00.91	122.37	17.13	-48.7	-50.0	15.1	0.00e+00	0	23	0	482344960	63	4230
2026-01-11 08:37:01.92	122.31	17.24	-48.7	-50.0	15.1	0.00e+00	0	23	0	485490688	63	4203
2026-01-11 08:37:02.93	122.24	17.35	-48.8	-50.1	15.0	0.00e+00	0	23	0	488636416	63	4269
2026-01-11 08:37:03.94	122.17	17.47	-48.7	-50.1	15.1	0.00e+00	0	23	0	491782144	63	4248
2026-01-11 08:37:04.95	122.11	17.58	-48.8	-50.2	15.0	0.00e+00	0	23	0	494927872	63	4307
2026-01-11 08:37:05.96	122.04	17.70	-48.7	-50.0	15.1	0.00e+00	0	23	0	498073600	63	4235
2026-01-11 08:37:06.97	121.97	17.81	-48.8	-50.2	15.0	0.00e+00	0	23	0	501219328	63	4300
2026-01-11 08:37:07.98	121.90	17.93	-48.7	-50.1	15.1	0.00e+00	0	23	0	504365056	63	4257
2026-01-11 08:37:08.99	121.83	18.04	-48.7	-50.0	15.1	0.00e+00	0	23	0	507510784	63	4232
2026-01-11 08:37:10.00	121.76	18.16	-48.8	-50.1	15.0	0.00e+00	0	23	0	510656512	63	4268
2026-01-11 08:37:11.00	121.69	18.28	-48.7	-50.1	15.1	0.00e+00	0	23	0	513802240	63	4243
2026-01-11 08:37:12.02	121.62	18.40	-48.7	-50.1	15.0	0.00e+00	0	23	0	516947968	63	4251
2026-01-11 08:37:13.03	121.55	18.52	-48.7	-50.0	15.1	0.00e+00	0	23	0	520093696	63	4219
2026-01-11 08:37:14.03	121.48	18.63	-48.7	-50.0	15.1	0.00e+00	0	23	0	523239424	63	4230
2026-01-11 08:37:15.04	121.41	18.75	-48.6	-50.0	15.1	0.00e+00	0	23	0	526385152	63	4201
2026-01-11 08:37:16.05	121.33	18.87	-48.6	-49.9	15.1	0.00e+00	0	23	0	529530880	63	4172
2026-01-11 08:37:17.06	121.26	18.99	-48.7	-50.0	15.1	0.00e+00	0	23	0	532676608	63	4230
2026-01-11 08:37:18.06	121.18	19.11	-48.6	-49.9	15.2	0.00e+00	0	23	0	535822336	63	4169
2026-01-11 08:37:19.07	121.11	19.24	-48.5	-49.8	15.2	0.00e+00	0	23	0	538968064	63	4099
2026-01-11 08:37:20.08	121.03	19.36	-48.4	-49.7	15.3	0.00e+00	0	23	0	542113792	63	4052
2026-01-11 08:37:21.09	120.96	19.48	-48.4	-49.6	15.3	0.00e+00	0	23	0	545259520	63	4042
2026-01-11 08:37:22.10	120.88	19.60	-48.4	-49.7	15.3	0.00e+00	0	23	0	548405248	63	4061
2026-01-11 08:37:23.11	120.80	19.73	-48.4	-49.6	15.3	0.00e+00	0	23	0	551550976	63	4035
2026-01-11 08:37:24.12	120.72	19.85	-48.4	-49.6	15.3	0.00e+00	0	23	0	554696704	63	4050
2026-01-11 08:37:25.12	120.65	19.98	-48.5	-49.8	15.2	0.00e+00	0	23	0	557842432	63	4108
2026-01-11 08:37:26.13	120.57	20.10	-48.2	-49.4	15.4	0.00e+00	0	23	0	560988160	63	3955
2026-01-11 08:37:27.14	120.49	20.23	-48.1	-49.4	15.2	0.00e+00	0	23	0	564133888	62	4160
2026-01-11 08:37:28.15	120.40	20.36	-48.1	-49.4	15.2	0.00e+00	0	23	0	567279616	62	4158
2026-01-11 08:37:29.16	120.32	20.48	-48.0	-49.2	15.3	0.00e+00	0	23	0	570425344	62	4093
2026-01-11 08:37:30.17	120.24	20.61	-48.0	-49.2	15.3	0.00e+00	0	23	0	573571072	62	4098
2026-01-11 08:37:31.18	120.16	20.74	-48.0	-49.2	15.3	0.00e+00	0	23	0	576716800	62	4092
2026-01-11 08:37:32.18	120.07	20.87	-47.9	-49.1	15.4	0.00e+00	0	23	0	579862528	62	4020
2026-01-11 08:37:33.19	119.99	21.00	-47.9	-49.2	15.3	0.00e+00	0	23	0	583008256	62	4054
2026-01-11 08:37:34.20	119.90	21.13	-47.9	-49.1	15.4	0.00e+00	0	23	0	586153984	62	4040
2026-01-11 08:37:35.21	119.82	21.26	-47.9	-49.1	15.4	0.00e+00	0	23	0	589299712	62	4023
2026-01-11 08:37:36.22	119.73	21.39	-47.8	-49.0	15.4	0.00e+00	0	23	0	592445440	62	3995
2026-01-11 08:37:37.22	119.64	21.52	-47.6	-48.8	15.4	0.00e+00	0	23	0	595591168	61	4103
2026-01-11 08:37:38.23	119.55	21.65	-47.5	-48.7	15.4	0.00e+00	0	23	0	598736896	61	4052
2026-01-11 08:37:39.24	119.47	21.79	-47.3	-48.5	15.5	0.00e+00	0	23	0	601882624	61	3986
2026-01-11 08:37:40.25	119.38	21.92	-47.4	-48.6	15.4	0.00e+00	0	23	0	605028352	61	4022
2026-01-11 08:37:41.26	119.28	22.06	-47.4	-48.6	15.4	0.00e+00	0	23	0	608174080	61	4045
2026-01-11 08:37:42.27	119.19	22.19	-47.2	-48.4	15.6	0.00e+00	0	23	0	611319808	61	3922
2026-01-11 08:37:43.27	119.10	22.33	-47.1	-48.2	15.4	0.00e+00	0	23	0	614465536	60	4097
2026-01-11 08:37:44.28	119.01	22.46	-47.0	-48.1	15.5	0.00e+00	0	23	0	617611264	60	4036
2026-01-11 08:37:45.29	118.91	22.60	-47.0	-48.2	15.5	0.00e+00	0	23	0	620756992	60	4054
2026-01-11 08:37:46.30	118.82	22.74	-47.0	-48.1	15.5	0.00e+00	0	23	0	623902720	60	4042
2026-01-11 08:37:47.31	118.72	22.88	-47.0	-48.1	15.5	0.00e+00	0	23	0	627048448	60	4050
2026-01-11 08:37:48.32	118.63	23.02	-46.9	-48.0	15.6	0.00e+00	0	23	0	630194176	60	3991
2026-01-11 08:37:49.32	118.53	23.16	-46.9	-48.0	15.5	0.00e+00	0	23	0	633339904	60	3994
2026-01-11 08:37:50.33	118.43	23.30	-46.8	-47.9	15.6	0.00e+00	0	23	0	636485632	60	3948
2026-01-11 08:37:51.33	118.33	23.44	-46.9	-48.0	15.6	0.00e+00	0	23	0	639631360	60	3991
2026-01-11 08:37:52.34	118.23	23.58	-46.9	-48.0	15.6	0.00e+00	0	23	0	642777088	60	3984
2026-01-11 08:37:53.34	118.13	23.72	-47.0	-48.1	15.5	0.00e+00	0	23	0	645922816	60	4049
2026-01-11 08:37:54.35	118.03	23.86	-47.0	-48.2	15.5	0.00e+00	0	23	0	649068544	60	4059
2026-01-11 08:37:55.36	117.92	24.01	-47.1	-48.2	15.5	0.00e+00	0	23	0	652214272	60	4082
2026-01-11 08:37:56.37	117.82	24.15	-47.0	-48.2	15.5	0.00e+00	0	23	0	655360000	60	4078
2026-01-11 08:37:57.38	117.71	24.30	-47.1	-48.3	15.5	0.00e+00	0	23	0	658505728	60	4102
2026-01-11 08:37:58.39	117.61	24.44	-47.1	-48.3	15.5	0.00e+00	0	23	0	661651456	60	4127
2026-01-11 08:37:59.40	117.50	24.59	-47.2	-48.4	15.4	0.00e+00	0	23	0	664797184	60	4157
2026-01-11 08:38:00.41	117.39	24.74	-47.3	-48.4	15.4	0.00e+00	0	23	0	667942912	60	4190
2026-01-11 08:38:01.41	117.28	24.88	-47.2	-48.4	15.4	0.00e+00	0	23	0	671088640	60	4167
2026-01-11 08:38:02.43	117.17	25.03	-47.3	-48.5	15.4	0.00e+00	0	23	0	674234368	60	4218
2026-01-11 08:38:03.44	117.06	25.18	-47.4	-48.6	15.4	0.00e+00	0	23	0	677380096	60	4248
2026-01-11 08:38:04.45	116.95	25.33	-47.4	-48.5	15.4	0.00e+00	0	23	0	680525824	60	4235
2026-01-11 08:38:05.46	116.83	25.48	-47.5	-48.6	15.3	0.00e+00	0	23	0	683671552	60	4286
2026-01-11 08:38:06.46	116.72	25.63	-47.6	-48.7	15.3	0.00e+00	0	23	0	686817280	60	4333
2026-01-11 08:38:07.47	116.60	25.79	-47.7	-48.9	15.2	0.00e+00	0	23	0	689963008	60	4419
2026-01-11 08:38:08.48	116.49	25.94	-47.8	-49.0	15.2	0.00e+00	0	23	0	693108736	60	4478
2026-01-11 08:38:09.49	116.37	26.09	-47.9	-49.1	15.2	0.00e+00	0	23	0	696254464	60	4525
2026-01-11 08:38:10.50	116.25	26.25	-48.0	-49.2	15.2	0.00e+00	0	23	0	699400192	61	4307
2026-01-11 08:38:11.51	116.13	26.40	-47.9	-49.2	15.2	0.00e+00	0	23	0	702545920	61	4305
2026-01-11 08:38:12.52	116.01	26.56	-48.2	-49.4	15.1	0.00e+00	0	23	0	705691648	61	4418
2026-01-11 08:38:13.53	115.88	26.72	-48.2	-49.5	15.1	0.00e+00	0	23	0	708837376	61	4446
2026-01-11 08:38:14.54	115.76	26.87	-48.2	-49.5	15.1	0.00e+00	0	23	0	711983104	61	4444
2026-01-11 08:38:15.55	115.63	27.03	-48.3	-49.6	15.1	0.00e+00	0	23	0	715128832	61	4505
2026-01-11 08:38:16.55	115.51	27.19	-48.4	-49.7	15.1	0.00e+00	0	23	0	718274560	62	4340
2026-01-11 08:38:17.56	115.38	27.35	-48.5	-49.7	15.1	0.00e+00	0	23	0	721420288	62	4338
2026-01-11 08:38:18.56	115.25	27.51	-48.6	-49.9	15.0	0.00e+00	0	23	0	724566016	62	4409
2026-01-11 08:38:19.57	115.12	27.67	-48.6	-49.9	15.0	0.00e+00	0	23	0	727711744	62	4433
2026-01-11 08:38:20.57	114.99	27.83	-48.7	-50.0	15.0	0.00e+00	0	23	0	730857472	62	4457
2026-01-11 08:38:21.58	114.86	28.00	-48.8	-50.1	15.0	0.00e+00	0	23	0	734003200	62	4533
2026-01-11 08:38:22.59	114.72	28.16	-48.7	-50.0	15.0	0.00e+00	0	23	0	737148928	62	4492
2026-01-11 08:38:23.60	114.58	28.32	-48.7	-50.0	15.0	0.00e+00	0	23	0	740294656	62	4491
2026-01-11 08:38:24.61	114.45	28.49	-48.7	-50.0	15.0	0.00e+00	0	23	0	743440384	62	4480
2026-01-11 08:38:25.61	114.31	28.65	-48.7	-50.0	15.0	0.00e+00	0	23	0	746586112	62	4461
2026-01-11 08:38:26.62	114.17	28.82	-48.8	-50.1	14.9	0.00e+00	0	23	0	749731840	62	4542
2026-01-11 08:38:27.63	114.03	28.99	-48.5	-49.8	15.1	0.00e+00	0	23	0	752877568	62	4361
2026-01-11 08:38:28.64	113.88	29.16	-48.6	-49.9	15.1	0.00e+00	0	23	0	756023296	62	4407
2026-01-11 08:38:29.65	113.74	29.33	-48.7	-50.0	15.0	0.00e+00	0	23	0	759169024	62	4450
2026-01-11 08:38:30.66	113.59	29.50	-48.6	-49.9	15.1	0.00e+00	0	23	0	762314752	62	4412
2026-01-11 08:38:31.66	113.44	29.67	-48.5	-49.8	15.1	0.00e+00	0	23	0	765460480	62	4374
2026-01-11 08:38:32.67	113.29	29.84	-48.4	-49.7	15.1	0.00e+00	0	23	0	768606208	62	4323
2026-01-11 08:38:33.68	113.14	30.01	-48.4	-49.6	15.2	0.00e+00	0	23	0	771751936	62	4285
2026-01-11 08:38:34.69	112.99	30.19	-48.4	-49.7	15.1	0.00e+00	0	23	0	774897664	62	4323
2026-01-11 08:38:35.70	112.83	30.36	-48.2	-49.5	15.2	0.00e+00	0	23	0	778043392	62	4208
2026-01-11 08:38:36.70	112.68	30.53	-48.3	-49.6	15.2	0.00e+00	0	23	0	781189120	62	4264
2026-01-11 08:38:37.71	112.52	30.71	-48.1	-49.3	15.3	0.00e+00	0	23	0	784334848	62	4131
2026-01-11 08:38:38.72	112.36	30.89	-48.1	-49.3	15.3	0.00e+00	0	23	0	787480576	62	4132
2026-01-11 08:38:39.72	112.20	31.06	-48.1	-49.3	15.3	0.00e+00	0	23	0	790626304	62	4109
2026-01-11 08:38:40.73	112.03	31.24	-47.9	-49.1	15.4	0.00e+00	0	23	0	793772032	62	4006
2026-01-11 08:38:41.74	111.87	31.42	-47.9	-49.1	15.4	0.00e+00	0	23	0	796917760	62	4042
2026-01-11 08:38:42.75	111.70	31.60	-48.1	-49.3	15.3	0.00e+00	0	23	0	800063488	62	4119
2026-01-11 08:38:43.76	111.53	31.78	-48.1	-49.3	15.2	0.00e+00	0	23	0	803209216	62	4141
2026-01-11 08:38:44.77	111.36	31.96	-48.2	-49.4	15.2	0.00e+00	0	23	0	806354944	62	4186
2026-01-11 08:38:45.78	111.18	32.14	-48.4	-49.6	15.1	0.00e+00	0	23	0	809500672	62	4279
2026-01-11 08:38:46.78	111.01	32.33	-48.4	-49.6	15.2	0.00e+00	0	23	0	812646400	62	4279
2026-01-11 08:38:47.79	110.83	32.51	-48.4	-49.7	15.2	0.00e+00	0	23	0	815792128	62	4310
2026-01-11 08:38:48.80	110.65	32.70	-48.4	-49.7	15.1	0.00e+00	0	23	0	818937856	62	4325
2026-01-11 08:38:49.81	110.47	32.88	-48.3	-49.5	15.2	0.00e+00	0	23	0	822083584	62	4238
2026-01-11 08:38:50.82	110.29	33.07	-48.3	-49.5	15.2	0.00e+00	0	23	0	825229312	62	4234
2026-01-11 08:38:51.83	110.10	33.25	-48.3	-49.6	15.2	0.00e+00	0	23	0	828375040	62	4252
2026-01-11 08:38:52.84	109.91	33.44	-48.2	-49.4	15.3	0.00e+00	0	23	0	831520768	62	4167
2026-01-11 08:38:53.85	109.72	33.63	-48.2	-49.4	15.3	0.00e+00	0	23	0	834666496	62	4153
2026-01-11 08:38:54.86	109.53	33.82	-48.3	-49.5	15.2	0.00e+00	0	23	0	837812224	62	4205
2026-01-11 08:38:55.87	109.33	34.01	-48.4	-49.7	15.1	0.00e+00	0	23	0	840957952	62	4295
2026-01-11 08:38:56.88	109.14	34.20	-48.7	-49.9	15.0	0.00e+00	0	23	0	844103680	62	4427
2026-01-11 08:38:57.89	108.94	34.40	-48.9	-50.2	14.9	0.00e+00	0	23	0	847249408	62	4592
2026-01-11 08:38:58.89	108.74	34.59	-49.0	-50.3	15.0	0.00e+00	0	23	0	850395136	63	4389
2026-01-11 08:38:59.89	108.53	34.78	-49.4	-50.7	14.8	0.00e+00	0	23	0	853540864	63	4586
2026-01-11 08:39:00.90	108.33	34.97	-49.4	-50.8	14.9	0.00e+00	0	23	0	856686592	64	4369
2026-01-11 08:39:01.91	108.12	35.17	-49.5	-50.9	14.9	0.00e+00	0	23	0	859832320	64	4401
2026-01-11 08:39:02.92	107.91	35.36	-49.5	-50.9	14.9	0.00e+00	0	23	0	862978048	64	4403
2026-01-11 08:39:03.92	107.69	35.56	-49.5	-50.9	14.8	0.00e+00	0	23	0	866123776	64	4427
2026-01-11 08:39:04.93	107.48	35.76	-49.4	-50.8	14.9	0.00e+00	0	23	0	869269504	64	4345
2026-01-11 08:39:05.94	107.26	35.95	-49.5	-50.9	14.9	0.00e+00	0	23	0	872415232	64	4407
2026-01-11 08:39:06.95	107.03	36.15	-49.4	-50.8	14.9	0.00e+00	0	23	0	875560960	64	4353
2026-01-11 08:39:07.96	106.81	36.35	-49.6	-51.0	14.8	0.00e+00	0	23	0	878706688	64	4478
2026-01-11 08:39:08.97	106.58	36.55	-49.6	-51.0	14.8	0.00e+00	0	23	0	881852416	64	4489
2026-01-11 08:39:09.98	106.35	36.75	-49.9	-51.3	14.6	0.00e+00	0	23	0	884998144	64	4640
2026-01-11 08:39:10.99	106.11	36.96	-50.1	-51.6	14.6	0.00e+00	0	23	0	888143872	65	4504
2026-01-11 08:39:12.00	105.88	37.16	-50.2	-51.7	14.6	0.00e+00	0	23	0	891289600	65	4572
2026-01-11 08:39:13.01	105.64	37.36	-50.1	-51.5	14.7	0.00e+00	0	23	0	894435328	65	4479
2026-01-11 08:39:14.02	105.39	37.56	-50.2	-51.7	14.6	0.00e+00	0	23	0	897581056	65	4573
2026-01-11 08:39:15.03	105.15	37.77	-50.3	-51.8	14.5	0.00e+00	0	23	0	900726784	65	4638
2026-01-11 08:39:16.03	104.90	37.97	-50.2	-51.7	14.6	0.00e+00	0	23	0	903872512	65	4578
2026-01-11 08:39:17.04	104.65	38.18	-50.2	-51.6	14.6	0.00e+00	0	23	0	907018240	65	4544
2026-01-11 08:39:18.05	104.39	38.38	-50.3	-51.8	14.5	0.00e+00	0	23	0	910163968	65	4601
2026-01-11 08:39:19.05	104.14	38.59	-50.3	-51.8	14.5	0.00e+00	0	23	0	913309696	65	4638
2026-01-11 08:39:20.06	103.88	38.80	-50.3	-51.8	14.5	0.00e+00	0	23	0	916455424	65	4646
2026-01-11 08:39:21.06	103.61	39.00	-50.4	-51.9	14.5	0.00e+00	0	23	0	919601152	65	4682
2026-01-11 08:39:22.07	103.34	39.21	-50.3	-51.8	14.7	0.00e+00	0	23	0	922746880	66	4367
2026-01-11 08:39:23.08	103.07	39.42	-50.2	-51.7	14.7	0.00e+00	0	23	0	925892608	66	4298
2026-01-11 08:39:24.09	102.79	39.63	-50.2	-51.6	14.7	0.00e+00	0	23	0	929038336	66	4284
2026-01-11 08:39:25.09	102.52	39.84	-50.0	-51.5	14.9	0.00e+00	0	23	0	932184064	66	4195
2026-01-11 08:39:26.09	102.24	40.04	-50.0	-51.5	14.8	0.00e+00	0	23	0	935329792	66	4203
2026-01-11 08:39:27.10	101.95	40.26	-50.0	-51.5	14.9	0.00e+00	0	23	0	938475520	66	4194
2026-01-11 08:39:28.11	101.66	40.47	-50.1	-51.5	14.8	0.00e+00	0	23	0	941621248	66	4220
2026-01-11 08:39:29.12	101.36	40.68	-50.1	-51.5	14.8	0.00e+00	0	23	0	944766976	66	4235
2026-01-11 08:39:30.13	101.07	40.89	-49.8	-51.2	15.0	0.00e+00	0	23	0	947912704	66	4061
2026-01-11 08:39:31.14	100.76	41.10	-49.7	-51.0	15.1	0.00e+00	0	23	0	951058432	66	4002
2026-01-11 08:39:32.14	100.46	41.31	-50.0	-51.4	14.9	0.00e+00	0	23	0	954204160	66	4160
2026-01-11 08:39:33.15	100.15	41.53	-50.1	-51.6	14.8	0.00e+00	0	23	0	957349888	66	4262
2026-01-11 08:39:34.16	99.83	41.74	-50.1	-51.6	14.8	0.00e+00	0	23	0	960495616	66	4260
2026-01-11 08:39:35.16	99.52	41.95	-50.3	-51.8	14.7	0.00e+00	0	23	0	963641344	66	4345
2026-01-11 08:39:36.17	99.19	42.16	-50.3	-51.8	14.7	0.00e+00	0	23	0	966787072	66	4360
2026-01-11 08:39:37.18	98.87	42.38	-50.1	-51.5	14.8	0.00e+00	0	23	0	969932800	66	4200
2026-01-11 08:39:38.19	98.53	42.59	-50.1	-51.5	14.8	0.00e+00	0	23	0	973078528	66	4204
2026-01-11 08:39:39.20	98.20	42.81	-49.9	-51.3	15.0	0.00e+00	0	23	0	976224256	66	4112
2026-01-11 08:39:40.21	97.86	43.02	-50.0	-51.4	14.9	0.00e+00	0	23	0	979369984	66	4171
2026-01-11 08:39:41.22	97.51	43.24	-50.1	-51.5	14.8	0.00e+00	0	23	0	982515712	66	4229
2026-01-11 08:39:42.22	97.16	43.45	-50.3	-51.7	14.6	0.00e+00	0	23	0	985661440	66	4314
2026-01-11 08:39:43.23	96.81	43.66	-50.5	-52.0	14.4	0.00e+00	0	23	0	988807168	66	4454
2026-01-11 08:39:44.24	96.45	43.88	-50.7	-52.3	14.3	0.00e+00	0	23	0	991952896	66	4621
2026-01-11 08:39:45.25	96.08	44.09	-50.6	-52.2	14.4	0.00e+00	0	23	0	995098624	66	4562
2026-01-11 08:39:46.25	95.72	44.30	-50.6	-52.1	14.5	0.00e+00	0	23	0	998244352	66	4533
2026-01-11 08:39:47.26	95.34	44.52	-50.5	-52.0	14.5	0.00e+00	0	23	0	1001390080	66	4476
2026-01-11 08:39:48.27	94.96	44.73	-50.3	-51.8	14.7	0.00e+00	0	23	0	1004535808	66	4345
2026-01-11 08:39:49.27	94.58	44.94	-50.3	-51.7	14.7	0.00e+00	0	23	0	1007681536	66	4328
2026-01-11 08:39:50.28	94.19	45.15	-50.5	-52.0	14.5	0.00e+00	0	23	0	1010827264	66	4472
2026-01-11 08:39:51.29	93.80	45.37	-50.7	-52.2	14.4	0.00e+00	0	23	0	1013972992	66	4583
2026-01-11 08:39:52.30	93.40	45.58	-50.7	-52.3	14.4	0.00e+00	0	23	0	1017118720	66	4613
2026-01-11 08:39:53.31	92.99	45.79	-50.7	-52.3	14.4	0.00e+00	0	23	0	1020264448	66	4635
2026-01-11 08:39:54.32	92.58	46.00	-50.5	-52.0	14.6	0.00e+00	0	23	0	1023410176	66	4461
2026-01-11 08:39:55.33	92.16	46.21	-50.2	-51.7	14.8	0.00e+00	0	23	0	1026555904	66	4300
2026-01-11 08:39:56.34	91.74	46.42	-50.1	-51.5	14.8	0.00e+00	0	23	0	1029701632	66	4239
2026-01-11 08:39:57.35	91.31	46.63	-50.0	-51.5	14.9	0.00e+00	0	23	0	1032847360	66	4198
2026-01-11 08:39:58.35	90.88	46.84	-50.0	-51.4	14.9	0.00e+00	0	23	0	1035993088	66	4182
2026-01-11 08:39:59.36	90.44	47.04	-49.9	-51.3	14.9	0.00e+00	0	23	0	1039138816	66	4125
2026-01-11 08:40:00.36	90.00	47.25	-50.0	-51.4	14.9	0.00e+00	0	23	0	1042284544	66	4173
2026-01-11 08:40:01.37	89.54	47.45	-50.3	-51.8	14.7	0.00e+00	0	23	0	1045430272	66	4342
2026-01-11 08:40:02.37	89.09	47.66	-50.4	-51.9	14.7	0.00e+00	0	23	0	1048576000	66	4406
2026-01-11 08:40:03.37	88.63	47.86	-50.3	-51.8	14.7	0.00e+00	0	23	0	1051721728	66	4351
2026-01-11 08:40:04.38	88.16	48.06	-50.1	-51.5	14.9	0.00e+00	0	23	0	1054867456	66	4230
2026-01-11 08:40:05.39	87.68	48.26	-50.1	-51.5	14.9	0.00e+00	0	23	0	1058013184	66	4213
2026-01-11 08:40:06.40	87.20	48.46	-49.9	-51.3	15.0	0.00e+00	0	23	0	1061158912	66	4099
2026-01-11 08:40:07.41	86.71	48.66	-50.1	-51.6	14.8	0.00e+00	0	23	0	1064304640	66	4243
2026-01-11 08:40:08.42	86.22	48.86	-50.3	-51.8	14.7	0.00e+00	0	23	0	1067450368	66	4347
2026-01-11 08:40:09.43	85.72	49.06	-50.1	-51.5	14.8	0.00e+00	0	23	0	1070596096	66	4233
2026-01-11 08:40:10.44	85.21	49.25	-50.0	-51.5	14.9	0.00e+00	0	23	0	1073741824	66	4198
2026-01-11 08:40:11.44	84.70	49.44	-49.9	-51.3	15.0	0.00e+00	0	23	0	1076887552	66	4126
2026-01-11 08:40:12.45	84.18	49.63	-49.8	-51.2	15.0	0.00e+00	0	23	0	1080033280	66	4060
2026-01-11 08:40:13.45	83.65	49.82	-50.0	-51.4	14.9	0.00e+00	0	23	0	1083179008	66	4173
2026-01-11 08:40:14.46	83.12	50.01	-49.9	-51.3	15.0	0.00e+00	0	23	0	1086324736	66	4131
2026-01-11 08:40:15.46	82.58	50.19	-49.8	-51.2	15.1	0.00e+00	0	23	0	1089470464	66	4059
2026-01-11 08:40:16.47	82.04	50.37	-49.4	-50.7	15.1	0.00e+00	0	23	0	1092616192	65	4068
2026-01-11 08:40:17.48	81.48	50.56	-49.2	-50.5	15.1	0.00e+00	0	23	0	1095761920	64	4207
2026-01-11 08:40:18.49	80.92	50.74	-49.1	-50.4	15.2	0.00e+00	0	23	0	1098907648	64	4169
2026-01-11 08:40:19.50	80.35	50.91	-49.3	-50.6	15.0	0.00e+00	0	23	0	1102053376	64	4286
2026-01-11 08:40:20.50	79.79	51.09	-49.3	-50.7	15.0	0.00e+00	0	23	0	1105199104	64	4293
2026-01-11 08:40:21.51	79.20	51.26	-49.2	-50.5	15.0	0.00e+00	0	23	0	1108344832	64	4224
2026-01-11 08:40:22.52	78.62	51.43	-49.1	-50.4	15.1	0.00e+00	0	23	0	1111490560	64	4169
2026-01-11 08:40:23.53	78.02	51.59	-49.0	-50.3	15.1	0.00e+00	0	23	0	1114636288	64	4135
2026-01-11 08:40:24.54	77.42	51.76	-48.8	-50.1	15.3	0.00e+00	0	23	0	1117782016	64	4027
2026-01-11 08:40:25.55	76.81	51.92	-48.8	-50.0	15.3	0.00e+00	0	23	0	1120927744	64	3984
2026-01-11 08:40:26.56	76.20	52.08	-48.6	-49.8	15.3	0.00e+00	0	23	0	1124073472	63	4125
2026-01-11 08:40:27.57	75.58	52.24	-48.5	-49.7	15.3	0.00e+00	0	23	0	1127219200	63	4097
2026-01-11 08:40:28.58	74.95	52.39	-48.6	-49.8	15.3	0.00e+00	0	23	0	1130364928	63	4111
2026-01-11 08:40:29.58	74.32	52.54	-48.7	-49.9	15.2	0.00e+00	0	23	0	1133510656	63	4168
2026-01-11 08:40:30.59	73.68	52.68	-48.7	-50.0	15.2	0.00e+00	0	23	0	1136656384	63	4208
2026-01-11 08:40:31.60	73.04	52.83	-48.8	-50.1	15.2	0.00e+00	0	23	0	1139802112	63	4256
2026-01-11 08:40:32.61	72.39	52.97	-48.8	-50.1	15.2	0.00e+00	0	23	0	1142947840	63	4244
2026-01-11 08:40:33.62	71.73	53.10	-48.9	-50.2	15.1	0.00e+00	0	23	0	1147142144	63	4310
2026-01-11 08:40:34.63	71.06	53.23	-49.0	-50.3	15.0	0.00e+00	0	23	0	1150287872	63	4387
2026-01-11 08:40:35.64	70.39	53.36	-49.2	-50.5	15.0	0.00e+00	0	23	0	1152385024	63	4459
2026-01-11 08:40:36.65	69.71	53.49	-49.3	-50.7	14.9	0.00e+00	0	23	0	1155530752	63	4555
2026-01-11 08:40:37.66	69.03	53.61	-49.1	-50.4	15.0	0.00e+00	0	23	0	1158676480	63	4401
2026-01-11 08:40:38.67	68.34	53.73	-48.8	-50.1	15.1	0.00e+00	0	23	0	1162870784	63	4261
2026-01-11 08:40:39.68	67.65	53.84	-49.0	-50.3	15.1	0.00e+00	0	23	0	1166016512	63	4355
2026-01-11 08:40:40.69	66.95	53.95	-48.8	-50.0	15.2	0.00e+00	0	23	0	1169162240	63	4242
2026-01-11 08:40:41.70	66.24	54.06	-48.9	-50.1	15.1	0.00e+00	0	23	0	1172307968	63	4276
2026-01-11 08:40:42.71	65.53	54.16	-48.6	-49.9	15.2	0.00e+00	0	23	0	1174405120	63	4154
2026-01-11 08:40:43.71	64.83	54.25	-48.7	-49.9	15.2	0.00e+00	0	23	0	1177550848	63	4179
2026-01-11 08:40:44.72	64.11	54.35	-48.5	-49.8	15.3	0.00e+00	0	23	0	1181745152	63	4099
2026-01-11 08:40:45.73	63.38	54.44	-48.5	-49.7	15.3	0.00e+00	0	23	0	1184890880	63	4084
2026-01-11 08:40:46.74	62.66	54.52	-48.4	-49.6	15.3	0.00e+00	0	23	0	1188036608	63	4008
2026-01-11 08:40:47.75	61.92	54.60	-47.6	-49.0	15.5	0.00e+00	0	23	0	1191182336	62	3979
2026-01-11 08:40:48.76	61.19	54.67	-48.1	-49.3	15.3	0.00e+00	0	23	0	1194328064	62	4131
2026-01-11 08:40:49.77	60.45	54.74	-48.3	-49.6	15.2	0.00e+00	0	23	0	1197473792	62	4252
2026-01-11 08:40:50.78	59.70	54.81	-48.8	-50.1	15.0	0.00e+00	0	23	0	1200619520	62	4518
2026-01-11 08:40:51.79	58.96	54.87	-48.9	-50.2	15.1	0.00e+00	0	23	0	1203765248	63	4331
2026-01-11 08:40:52.79	58.21	54.92	-49.0	-50.3	15.1	0.00e+00	0	23	0	1206910976	63	4364
2026-01-11 08:40:53.80	57.46	54.97	-48.8	-50.1	15.1	0.00e+00	0	23	0	1210056704	63	4252
2026-01-11 08:40:54.81	56.71	55.02	-48.8	-50.1	15.2	0.00e+00	0	23	0	1213202432	63	4244
2026-01-11 08:40:55.82	55.95	55.06	-48.7	-50.0	15.2	0.00e+00	0	23	0	1216348160	63	4199
2026-01-11 08:40:56.83	55.19	55.10	-48.7	-49.9	15.2	0.00e+00	0	23	0	1219493888	63	4185
2026-01-11 08:40:57.84	54.43	55.13	-48.9	-50.2	15.1	0.00e+00	0	23	0	1222639616	63	4296
2026-01-11 08:40:58.85	53.66	55.15	-48.5	-49.8	15.3	0.00e+00	0	23	0	1225785344	63	4111
2026-01-11 08:40:59.86	52.90	55.18	-48.6	-49.8	15.3	0.00e+00	0	23	0	1228931072	63	4123
2026-01-11 08:41:00.86	52.14	55.19	-48.5	-49.7	15.3	0.00e+00	0	23	0	1232076800	63	4096
2026-01-11 08:41:01.87	51.38	55.20	-48.5	-49.8	15.3	0.00e+00	0	23	0	1235222528	63	4108
2026-01-11 08:41:02.88	50.61	55.21	-48.9	-50.2	15.1	0.00e+00	0	23	0	1238368256	63	4316
2026-01-11 08:41:03.89	49.84	55.21	-49.3	-50.6	14.9	0.00e+00	0	23	0	1241513984	63	4528
2026-01-11 08:41:04.89	49.08	55.20	-49.1	-50.4	15.0	0.00e+00	0	23	0	1244659712	63	4437
2026-01-11 08:41:05.91	48.31	55.19	-49.0	-50.3	15.1	0.00e+00	0	23	0	1247805440	63	4362
2026-01-11 08:41:06.91	47.55	55.18	-48.7	-49.9	15.2	0.00e+00	0	23	0	1250951168	63	4175
2026-01-11 08:41:07.92	46.79	55.16	-48.6	-49.9	15.3	0.00e+00	0	23	0	1254096896	63	4148
2026-01-11 08:41:08.93	46.02	55.14	-48.9	-50.2	15.1	0.00e+00	0	23	0	1257242624	63	4295
2026-01-11 08:41:09.94	45.26	55.11	-49.0	-50.3	15.1	0.00e+00	0	23	0	1260388352	63	4342
2026-01-11 08:41:10.95	44.50	55.07	-49.3	-50.7	14.9	0.00e+00	0	23	0	1263534080	63	4562
2026-01-11 08:41:11.96	43.75	55.03	-49.2	-50.5	15.0	0.00e+00	0	23	0	1266679808	63	4464
2026-01-11 08:41:12.97	42.99	54.99	-48.9	-50.1	15.1	0.00e+00	0	23	0	1269825536	63	4291
2026-01-11 08:41:13.97	42.24	54.94	-48.6	-49.8	15.3	0.00e+00	0	23	0	1272971264	63	4119
2026-01-11 08:41:14.98	41.49	54.88	-48.5	-49.8	15.3	0.00e+00	0	23	0	1276116992	63	4114
2026-01-11 08:41:15.99	40.75	54.83	-49.1	-50.4	15.0	0.00e+00	0	23	0	1279262720	63	4400
2026-01-11 08:41:17.00	40.00	54.76	-48.8	-50.1	15.1	0.00e+00	0	23	0	1282408448	63	4271
2026-01-11 08:41:18.01	39.26	54.69	-48.9	-50.2	15.0	0.00e+00	0	23	0	1285554176	63	4331
2026-01-11 08:41:19.02	38.52	54.62	-48.6	-49.9	15.2	0.00e+00	0	23	0	1288699904	63	4151
2026-01-11 08:41:20.03	37.79	54.54	-48.3	-49.5	15.4	0.00e+00	0	23	0	1291845632	63	3994
2026-01-11 08:41:21.03	37.07	54.46	-48.2	-49.4	15.4	0.00e+00	0	23	0	1294991360	62	4152
2026-01-11 08:41:22.04	36.34	54.37	-48.2	-49.5	15.3	0.00e+00	0	23	0	1298137088	62	4194
2026-01-11 08:41:23.05	35.62	54.28	-48.8	-50.1	15.1	0.00e+00	0	23	0	1301282816	62	4526
2026-01-11 08:41:24.06	34.91	54.19	-48.9	-50.2	15.1	0.00e+00	0	23	0	1304428544	63	4326
2026-01-11 08:41:25.07	34.20	54.09	-48.8	-50.0	15.2	0.00e+00	0	23	0	1307574272	63	4226
2026-01-11 08:41:26.07	33.50	53.98	-48.4	-49.7	15.4	0.00e+00	0	23	0	1310720000	63	4059
2026-01-11 08:41:27.08	32.80	53.87	-48.3	-49.5	15.4	0.00e+00	0	23	0	1313865728	63	4000
2026-01-11 08:41:28.09	32.11	53.76	-48.8	-50.0	15.2	0.00e+00	0	23	0	1317011456	63	4233
2026-01-11 08:41:29.10	31.42	53.65	-49.4	-50.7	15.0	0.00e+00	0	23	0	1320157184	64	4315
2026-01-11 08:41:30.11	30.73	53.52	-49.9	-51.3	14.7	0.00e+00	0	23	0	1323302912	64	4646
2026-01-11 08:41:31.12	30.05	53.40	-49.6	-51.0	15.0	0.00e+00	0	23	0	1326448640	65	4207
2026-01-11 08:41:32.13	29.38	53.27	-49.1	-50.4	15.2	0.00e+00	0	23	0	1329594368	64	4187
2026-01-11 08:41:33.14	28.72	53.14	-48.9	-50.2	15.3	0.00e+00	0	23	0	1332740096	64	4066
2026-01-11 08:41:34.15	28.06	53.01	-48.2	-49.4	15.5	0.00e+00	0	23	0	1335885824	63	3942
2026-01-11 08:41:35.16	27.40	52.87	-48.5	-49.7	15.2	0.00e+00	0	23	0	1339031552	62	4305
2026-01-11 08:41:36.16	26.76	52.73	-49.4	-50.7	14.9	0.00e+00	0	23	0	1342177280	63	4576
2026-01-11 08:41:37.17	26.12	52.58	-49.7	-51.0	14.8	0.00e+00	0	23	0	1345323008	64	4489
2026-01-11 08:41:38.18	25.48	52.43	-49.3	-50.6	15.0	0.00e+00	0	23	0	1348468736	64	4283
2026-01-11 08:41:39.19	24.86	52.28	-48.8	-50.1	15.3	0.00e+00	0	23	0	1351614464	64	4023
2026-01-11 08:41:40.20	24.23	52.13	-48.8	-50.1	15.3	0.00e+00	0	23	0	1354760192	64	4012
2026-01-11 08:41:41.21	23.62	51.97	-48.9	-50.1	15.2	0.00e+00	0	23	0	1357905920	64	4033
2026-01-11 08:41:42.22	23.01	51.81	-49.6	-51.0	14.8	0.00e+00	0	23	0	1361051648	64	4448
2026-01-11 08:41:43.22	22.41	51.65	-50.2	-51.7	14.6	0.00e+00	0	23	0	1364197376	65	4559
2026-01-11 08:41:44.23	21.82	51.48	-49.7	-51.1	14.9	0.00e+00	0	23	0	1367343104	65	4260
2026-01-11 08:41:45.24	21.23	51.31	-49.0	-50.3	15.2	0.00e+00	0	23	0	1370488832	64	4119
2026-01-11 08:41:46.25	20.65	51.14	-48.9	-50.2	15.2	0.00e+00	0	23	0	1373634560	64	4080
2026-01-11 08:41:47.26	20.07	50.97	-49.2	-50.5	15.1	0.00e+00	0	23	0	1376780288	64	4206
2026-01-11 08:41:48.27	19.50	50.79	-49.6	-51.0	14.9	0.00e+00	0	23	0	1379926016	64	4465
2026-01-11 08:41:49.27	18.95	50.61	-50.5	-52.1	14.6	0.00e+00	0	23	0	1383071744	66	4495
2026-01-11 08:41:50.28	18.39	50.43	-50.5	-52.0	14.6	0.00e+00	0	23	0	1386217472	66	4452
2026-01-11 08:41:51.29	17.84	50.25	-49.8	-51.2	15.0	0.00e+00	0	23	0	1389363200	66	4075
2026-01-11 08:41:52.30	17.30	50.07	-49.5	-50.8	15.0	0.00e+00	0	23	0	1392508928	65	4144
2026-01-11 08:41:53.31	16.77	49.88	-49.4	-50.8	15.1	0.00e+00	0	23	0	1395654656	65	4109
2026-01-11 08:41:54.32	16.24	49.69	-49.7	-51.1	14.9	0.00e+00	0	23	0	1398800384	65	4254
2026-01-11 08:41:55.33	15.72	49.50	-49.7	-51.0	14.9	0.00e+00	0	23	0	1401946112	65	4242
2026-01-11 08:41:56.34	15.20	49.31	-49.9	-51.3	14.8	0.00e+00	0	23	0	1405091840	65	4384
2026-01-11 08:41:57.35	14.69	49.12	-50.7	-52.3	14.4	0.00e+00	0	23	0	1408237568	66	4621
2026-01-11 08:41:58.35	14.19	48.92	-50.9	-52.4	14.3	0.00e+00	0	23	0	1411383296	67	4441
2026-01-11 08:41:59.36	13.70	48.73	-50.0	-51.4	14.7	0.00e+00	0	23	0	1414529024	66	4183
2026-01-11 08:42:00.37	13.21	48.53	-49.5	-50.8	15.0	0.00e+00	0	23	0	1417674752	65	4119
2026-01-11 08:42:01.38	12.72	48.33	-49.5	-50.9	15.0	0.00e+00	0	23	0	1420820480	65	4163
2026-01-11 08:42:02.39	12.25	48.13	-49.9	-51.3	14.8	0.00e+00	0	23	0	1423966208	65	4348
2026-01-11 08:42:03.40	11.77	47.93	-50.5	-52.1	14.4	0.00e+00	0	23	0	1427111936	66	4495
2026-01-11 08:42:04.41	11.31	47.72	-51.3	-53.0	14.1	0.00e+00	0	23	0	1430257664	67	4712
2026-01-11 08:42:05.42	10.85	47.52	-51.9	-53.7	13.9	0.00e+00	0	23	0	1433403392	68	4816
2026-01-11 08:42:06.42	10.40	47.32	-51.9	-53.8	14.0	0.00e+00	0	23	0	1436549120	69	4605
2026-01-11 08:42:07.43	9.96	47.11	-51.7	-53.4	14.2	0.00e+00	0	23	0	1439694848	69	4412
2026-01-11 08:42:08.44	9.51	46.90	-51.1	-52.7	14.5	0.00e+00	0	23	0	1442840576	68	4307
2026-01-11 08:42:09.45	9.08	46.70	-49.9	-51.2	14.9	0.00e+00	0	23	0	1445986304	66	4094
2026-01-11 08:42:10.45	8.65	46.49	-49.6	-50.9	15.0	0.00e+00	0	23	0	1449132032	65	4190
2026-01-11 08:42:11.46	8.23	46.28	-49.8	-51.2	14.8	0.00e+00	0	23	0	1452277760	65	4317
2026-01-11 08:42:12.47	7.81	46.07	-50.7	-52.2	14.4	0.00e+00	0	23	0	1455423488	66	4596
2026-01-11 08:42:13.48	7.40	45.86	-51.7	-53.4	14.1	0.00e+00	0	23	0	1458569216	68	4660
2026-01-11 08:42:14.48	7.00	45.65	-51.5	-53.2	14.3	0.00e+00	0	23	0	1461714944	68	4557
2026-01-11 08:42:15.50	6.59	45.44	-51.0	-52.5	14.6	0.00e+00	0	23	0	1464860672	68	4236
2026-01-11 08:42:16.51	6.19	45.23	-50.9	-52.4	14.7	0.00e+00	0	23	0	1468006400	68	4176
2026-01-11 08:42:17.51	5.81	45.02	-50.7	-52.2	14.8	0.00e+00	0	23	0	1471152128	68	4083
2026-01-11 08:42:18.52	5.42	44.80	-49.9	-51.2	15.0	0.00e+00	0	23	0	1474297856	66	4098
2026-01-11 08:42:19.53	5.04	44.59	-49.6	-51.0	15.0	0.00e+00	0	23	0	1477443584	65	4202
2026-01-11 08:42:20.53	4.67	44.38	-49.6	-51.0	15.0	0.00e+00	0	23	0	1480589312	65	4197
2026-01-11 08:42:21.54	4.30	44.17	-50.0	-51.5	14.6	0.00e+00	0	23	0	1483735040	65	4442
2026-01-11 08:42:22.55	3.93	43.95	-51.0	-52.6	14.3	0.00e+00	0	23	0	1486880768	67	4510
2026-01-11 08:42:23.55	3.58	43.74	-51.8	-53.6	14.0	0.00e+00	0	23	0	1490026496	68	4793
2026-01-11 08:42:24.56	3.22	43.53	-51.5	-53.2	14.1	0.00e+00	0	23	0	1493172224	68	4581
2026-01-11 08:42:25.57	2.87	43.31	-50.4	-51.9	14.7	0.00e+00	0	23	0	1496317952	67	4165
2026-01-11 08:42:26.58	2.52	43.10	-49.9	-51.2	15.0	0.00e+00	0	23	0	1499463680	66	4086
2026-01-11 08:42:27.59	2.18	42.89	-49.2	-50.5	15.2	0.00e+00	0	23	0	1502609408	65	3981
2026-01-11 08:42:28.60	1.85	42.67	-48.8	-50.0	15.3	0.00e+00	0	23	0	1505755136	64	3988
2026-01-11 08:42:29.61	1.51	42.46	-49.2	-50.4	15.1	0.00e+00	0	23	0	1508900864	64	4188
2026-01-11 08:42:30.62	1.18	42.25	-49.4	-50.7	15.0	0.00e+00	0	23	0	1512046592	64	4327
2026-01-11 08:42:31.63	0.86	42.03	-49.6	-50.9	14.9	0.00e+00	0	23	0	1515192320	64	4421
2026-01-11 08:42:32.64	0.54	41.82	-50.0	-51.4	14.8	0.00e+00	0	23	0	1518338048	65	4409
2026-01-11 08:42:33.64	0.23	41.61	-50.6	-52.2	14.5	0.00e+00	0	23	0	1521483776	66	4546
2026-01-11 08:42:34.65	359.92	41.40	-51.3	-53.0	14.1	0.00e+00	0	23	0	1524629504	67	4753
2026-01-11 08:42:35.66	359.61	41.18	-51.6	-53.3	14.0	0.00e+00	0	23	0	1527775232	68	4651
2026-01-11 08:42:36.67	359.31	40.97	-51.0	-52.5	14.4	0.00e+00	0	23	0	1530920960	68	4236
2026-01-11 08:42:37.68	359.01	40.76	-50.3	-51.7	14.8	0.00e+00	0	23	0	1534066688	67	4081
2026-01-11 08:42:38.68	358.72	40.55	-50.1	-51.5	14.8	0.00e+00	0	23	0	1537212416	66	4230
2026-01-11 08:42:39.69	358.43	40.34	-49.9	-51.3	14.9	0.00e+00	0	23	0	1540358144	66	4126
2026-01-11 08:42:40.71	358.13	40.13	-50.1	-51.5	14.7	0.00e+00	0	23	0	1543503872	66	4228
2026-01-11 08:42:41.71	357.85	39.92	-50.5	-52.0	14.5	0.00e+00	0	23	0	1546649600	66	4476
2026-01-11 08:42:42.72	357.57	39.71	-50.6	-52.2	14.5	0.00e+00	0	23	0	1549795328	66	4559
2026-01-11 08:42:43.74	357.29	39.50	-50.5	-52.0	14.6	0.00e+00	0	23	0	1552941056	66	4479
2026-01-11 08:42:44.74	357.02	39.29	-50.2	-51.6	14.8	0.00e+00	0	23	0	1556086784	66	4265
2026-01-11 08:42:45.75	356.76	39.09	-49.8	-51.1	15.1	0.00e+00	0	23	0	1559232512	66	4044
2026-01-11 08:42:46.76	356.49	38.88	-49.5	-50.8	15.1	0.00e+00	0	23	0	1562378240	65	4127
2026-01-11 08:42:47.76	356.23	38.67	-49.5	-50.8	15.0	0.00e+00	0	23	0	1565523968	65	4143
2026-01-11 08:42:48.77	355.97	38.47	-49.8	-51.1	14.9	0.00e+00	0	23	0	1568669696	65	4281
2026-01-11 08:42:49.78	355.71	38.26	-50.0	-51.4	14.7	0.00e+00	0	23	0	1571815424	65	4440
2026-01-11 08:42:50.78	355.46	38.06	-50.1	-51.6	14.7	0.00e+00	0	23	0	1574961152	65	4527
2026-01-11 08:42:51.79	355.22	37.85	-50.1	-51.6	14.7	0.00e+00	0	23	0	1578106880	65	4513
2026-01-11 08:42:52.80	354.97	37.65	-50.2	-51.7	14.6	0.00e+00	0	23	0	1581252608	65	4561
2026-01-11 08:42:53.81	354.73	37.45	-50.1	-51.6	14.7	0.00e+00	0	23	0	1584398336	65	4520
2026-01-11 08:42:54.82	354.49	37.25	-50.3	-51.8	14.6	0.00e+00	0	23	0	1587544064	65	4621
2026-01-11 08:42:55.82	354.25	37.05	-50.4	-51.9	14.5	0.00e+00	0	23	0	1590689792	65	4679
2026-01-11 08:42:56.83	354.02	36.84	-50.3	-51.7	14.6	0.00e+00	0	23	0	1593835520	65	4597
2026-01-11 08:42:57.84	353.79	36.64	-50.0	-51.4	14.7	0.00e+00	0	23	0	1596981248	65	4437
2026-01-11 08:42:58.85	353.56	36.44	-49.4	-50.8	15.1	0.00e+00	0	23	0	1600126976	65	4103
2026-01-11 08:42:59.85	353.33	36.25	-49.2	-50.5	15.2	0.00e+00	0	23	0	1603272704	65	3965
2026-01-11 08:43:00.86	353.11	36.05	-48.8	-50.0	15.3	0.00e+00	0	23	0	1606418432	64	3971
2026-01-11 08:43:01.87	352.89	35.85	-48.8	-50.1	15.2	0.00e+00	0	23	0	1609564160	64	4005
2026-01-11 08:43:02.88	352.67	35.65	-49.0	-50.3	15.1	0.00e+00	0	23	0	1612709888	64	4101
2026-01-11 08:43:03.88	352.46	35.46	-49.2	-50.5	15.0	0.00e+00	0	23	0	1615855616	64	4217
2026-01-11 08:43:04.89	352.25	35.26	-49.4	-50.7	14.9	0.00e+00	0	23	0	1619001344	64	4335
2026-01-11 08:43:05.90	352.04	35.07	-49.5	-50.8	14.9	0.00e+00	0	23	0	1622147072	64	4386
2026-01-11 08:43:06.91	351.83	34.87	-49.4	-50.7	14.9	0.00e+00	0	23	0	1625292800	64	4331
2026-01-11 08:43:07.92	351.63	34.68	-49.3	-50.6	15.0	0.00e+00	0	23	0	1628438528	64	4274
2026-01-11 08:43:08.93	351.42	34.49	-49.2	-50.6	15.0	0.00e+00	0	23	0	1631584256	64	4251
2026-01-11 08:43:09.94	351.23	34.30	-49.1	-50.4	15.2	0.00e+00	0	23	0	1634729984	64	4154
2026-01-11 08:43:10.95	351.03	34.11	-49.0	-50.2	15.2	0.00e+00	0	23	0	1637875712	64	4091
2026-01-11 08:43:11.96	350.83	33.92	-49.0	-50.3	15.2	0.00e+00	0	23	0	1641021440	64	4113
2026-01-11 08:43:12.97	350.64	33.73	-48.9	-50.1	15.2	0.00e+00	0	23	0	1644167168	64	4050
2026-01-11 08:43:13.98	350.45	33.54	-48.9	-50.2	15.2	0.00e+00	0	23	0	1647312896	64	4083
2026-01-11 08:43:14.99	350.26	33.35	-48.9	-50.2	15.2	0.00e+00	0	23	0	1650458624	64	4072
2026-01-11 08:43:16.00	350.08	33.16	-48.9	-50.2	15.3	0.00e+00	0	23	0	1653604352	64	4057
2026-01-11 08:43:17.01	349.89	32.98	-48.8	-50.1	15.3	0.00e+00	0	23	0	1656750080	64	4030
2026-01-11 08:43:18.02	349.71	32.79	-48.9	-50.2	15.2	0.00e+00	0	23	0	1659895808	64	4075
2026-01-11 08:43:19.03	349.53	32.61	-49.0	-50.3	15.2	0.00e+00	0	23	0	1663041536	64	4124
2026-01-11 08:43:20.04	349.35	32.42	-49.0	-50.3	15.2	0.00e+00	0	23	0	1666187264	64	4136
2026-01-11 08:43:21.05	349.18	32.24	-48.8	-50.1	15.2	0.00e+00	0	23	0	1669332992	64	4046
2026-01-11 08:43:22.05	349.00	32.06	-48.7	-50.0	15.3	0.00e+00	0	23	0	1672478720	64	3981
2026-01-11 08:43:23.06	348.83	31.88	-48.6	-49.9	15.2	0.00e+00	0	23	0	1675624448	63	4175
2026-01-11 08:43:24.07	348.66	31.70	-48.6	-49.8	15.2	0.00e+00	0	23	0	1678770176	63	4125
2026-01-11 08:43:25.08	348.50	31.52	-48.4	-49.6	15.3	0.00e+00	0	23	0	1681915904	63	4045
2026-01-11 08:43:26.09	348.33	31.34	-48.2	-49.4	15.4	0.00e+00	0	23	0	1685061632	63	3941
2026-01-11 08:43:27.10	348.17	31.16	-47.8	-49.0	15.5	0.00e+00	0	23	0	1688207360	62	3961
2026-01-11 08:43:28.11	348.00	30.98	-47.7	-48.8	15.5	0.00e+00	0	23	0	1692401664	62	3907
2026-01-11 08:43:29.12	347.84	30.81	-47.4	-48.5	15.5	0.00e+00	0	23	0	1695547392	61	3978
2026-01-11 08:43:30.13	347.68	30.63	-47.3	-48.4	15.6	0.00e+00	0	23	0	1698693120	61	3933
2026-01-11 08:43:31.14	347.53	30.46	-47.4	-48.5	15.5	0.00e+00	0	23	0	1701838848	61	3999
2026-01-11 08:43:32.15	347.37	30.28	-47.6	-48.7	15.4	0.00e+00	0	23	0	1703936000	61	4079
2026-01-11 08:43:33.16	347.22	30.11	-47.9	-49.0	15.3	0.00e+00	0	23	0	1707081728	61	4242
2026-01-11 08:43:34.17	347.07	29.94	-48.2	-49.4	15.2	0.00e+00	0	23	0	1711276032	61	4431
2026-01-11 08:43:35.17	346.92	29.77	-48.4	-49.6	15.1	0.00e+00	0	23	0	1714421760	61	4537
2026-01-11 08:43:36.18	346.77	29.60	-48.6	-49.9	15.1	0.00e+00	0	23	0	1717567488	62	4415
2026-01-11 08:43:37.19	346.62	29.43	-48.7	-50.0	15.0	0.00e+00	0	23	0	1720713216	62	4486
2026-01-11 08:43:38.20	346.48	29.26	-48.8	-50.1	15.0	0.00e+00	0	23	0	1723858944	62	4526
2026-01-11 08:43:39.21	346.33	29.09	-48.8	-50.1	15.0	0.00e+00	0	23	0	1725956096	62	4507
2026-01-11 08:43:40.22	346.19	28.92	-48.6	-49.8	15.1	0.00e+00	0	23	0	1730150400	62	4381
2026-01-11 08:43:41.22	346.05	28.76	-48.6	-49.8	15.1	0.00e+00	0	23	0	1733296128	62	4381
2026-01-11 08:43:42.23	345.91	28.59	-48.4	-49.7	15.1	0.00e+00	0	23	0	1736441856	62	4317
2026-01-11 08:43:43.24	345.78	28.43	-48.4	-49.7	15.2	0.00e+00	0	23	0	1739587584	62	4294
2026-01-11 08:43:44.25	345.64	28.26	-48.0	-49.2	15.4	0.00e+00	0	23	0	1742733312	62	4065
2026-01-11 08:43:45.26	345.50	28.10	-47.9	-49.0	15.4	0.00e+00	0	23	0	1745879040	62	4002
2026-01-11 08:43:46.27	345.37	27.94	-47.6	-48.8	15.4	0.00e+00	0	23	0	1749024768	61	4100
2026-01-11 08:43:47.28	345.24	27.77	-47.4	-48.6	15.5	0.00e+00	0	23	0	1752170496	61	4026
2026-01-11 08:43:48.29	345.11	27.61	-47.5	-48.6	15.5	0.00e+00	0	23	0	1755316224	61	4031
2026-01-11 08:43:49.30	344.98	27.45	-47.3	-48.5	15.5	0.00e+00	0	23	0	1758461952	61	3977
2026-01-11 08:43:50.30	344.85	27.29	-47.2	-48.3	15.6	0.00e+00	0	23	0	1761607680	61	3892
2026-01-11 08:43:51.31	344.72	27.13	-47.2	-48.3	15.6	0.00e+00	0	23	0	1764753408	61	3907
2026-01-11 08:43:52.32	344.60	26.98	-47.1	-48.3	15.5	0.00e+00	0	23	0	1767899136	60	4110
2026-01-11 08:43:53.34	344.47	26.82	-47.3	-48.4	15.4	0.00e+00	0	23	0	1771044864	60	4166
2026-01-11 08:43:54.35	344.35	26.66	-47.3	-48.4	15.4	0.00e+00	0	23	0	1774190592	60	4186
2026-01-11 08:43:55.35	344.23	26.51	-47.3	-48.4	15.4	0.00e+00	0	23	0	1777336320	60	4190
2026-01-11 08:43:56.36	344.11	26.35	-47.4	-48.6	15.4	0.00e+00	0	23	0	1780482048	60	4257
2026-01-11 08:43:57.38	343.99	26.19	-47.4	-48.5	15.4	0.00e+00	0	23	0	1783627776	60	4235
2026-01-11 08:43:58.38	343.87	26.04	-47.5	-48.6	15.3	0.00e+00	0	23	0	1786773504	60	4285
2026-01-11 08:43:59.40	343.75	25.89	-47.6	-48.7	15.3	0.00e+00	0	23	0	1789919232	60	4340
2026-01-11 08:44:00.40	343.64	25.74	-47.6	-48.8	15.3	0.00e+00	0	23	0	1793064960	60	4374
2026-01-11 08:44:01.41	343.52	25.59	-47.8	-48.9	15.2	0.00e+00	0	23	0	1796210688	60	4441
2026-01-11 08:44:02.42	343.41	25.44	-47.7	-48.9	15.2	0.00e+00	0	23	0	1799356416	60	4425
2026-01-11 08:44:03.42	343.30	25.29	-47.7	-48.9	15.2	0.00e+00	0	23	0	1802502144	60	4422
2026-01-11 08:44:04.44	343.19	25.14	-47.8	-49.0	15.2	0.00e+00	0	23	0	1805647872	60	4448
2026-01-11 08:44:05.44	343.08	24.99	-47.8	-49.1	15.2	0.00e+00	0	23	0	1808793600	60	4502
2026-01-11 08:44:06.45	342.97	24.84	-47.9	-49.2	15.2	0.00e+00	0	23	0	1811939328	61	4292
2026-01-11 08:44:07.46	342.86	24.69	-47.9	-49.2	15.2	0.00e+00	0	23	0	1815085056	61	4293
2026-01-11 08:44:08.47	342.75	24.55	-48.0	-49.3	15.2	0.00e+00	0	23	0	1818230784	61	4350
2026-01-11 08:44:09.48	342.65	24.40	-48.1	-49.4	15.1	0.00e+00	0	23	0	1821376512	61	4393
2026-01-11 08:44:10.49	342.54	24.26	-48.2	-49.4	15.1	0.00e+00	0	23	0	1824522240	61	4440
2026-01-11 08:44:11.50	342.44	24.11	-48.1	-49.4	15.1	0.00e+00	0	23	0	1827667968	61	4395
2026-01-11 08:44:12.50	342.34	23.97	-48.1	-49.3	15.1	0.00e+00	0	23	0	1830813696	61	4388
2026-01-11 08:44:13.51	342.23	23.83	-47.9	-49.2	15.2	0.00e+00	0	23	0	1833959424	61	4295
2026-01-11 08:44:14.52	342.13	23.68	-48.0	-49.2	15.2	0.00e+00	0	23	0	1837105152	61	4308
2026-01-11 08:44:15.53	342.03	23.54	-47.8	-49.0	15.2	0.00e+00	0	23	0	1840250880	61	4234
2026-01-11 08:44:16.53	341.93	23.40	-47.7	-48.9	15.3	0.00e+00	0	23	0	1843396608	61	4174
2026-01-11 08:44:17.54	341.83	23.26	-47.6	-48.8	15.4	0.00e+00	0	23	0	1846542336	61	4106
2026-01-11 08:44:18.55	341.74	23.12	-47.6	-48.7	15.4	0.00e+00	0	23	0	1849688064	61	4097
2026-01-11 08:44:19.56	341.64	22.98	-47.6	-48.8	15.4	0.00e+00	0	23	0	1852833792	61	4104
2026-01-11 08:44:20.56	341.55	22.85	-47.7	-48.8	15.3	0.00e+00	0	23	0	1855979520	61	4139
2026-01-11 08:44:21.57	341.45	22.71	-47.6	-48.8	15.4	0.00e+00	0	23	0	1859125248	61	4105
2026-01-11 08:44:22.58	341.36	22.57	-47.6	-48.8	15.3	0.00e+00	0	23	0	1862270976	61	4134
2026-01-11 08:44:23.58	341.26	22.44	-47.6	-48.8	15.4	0.00e+00	0	23	0	1865416704	61	4133
2026-01-11 08:44:24.59	341.17	22.30	-47.7	-48.9	15.4	0.00e+00	0	23	0	1868562432	61	4147
2026-01-11 08:44:25.60	341.08	22.17	-47.7	-48.9	15.3	0.00e+00	0	23	0	1871708160	61	4184
2026-01-11 08:44:26.61	340.99	22.03	-47.7	-48.9	15.3	0.00e+00	0	23	0	1874853888	61	4187
2026-01-11 08:44:27.62	340.90	21.90	-47.9	-49.1	15.3	0.00e+00	0	23	0	1877999616	61	4253
2026-01-11 08:44:28.62	340.81	21.77	-47.9	-49.1	15.3	0.00e+00	0	23	0	1881145344	61	4266
2026-01-11 08:44:29.63	340.72	21.63	-47.9	-49.1	15.2	0.00e+00	0	23	0	1884291072	61	4284
2026-01-11 08:44:30.64	340.64	21.50	-47.9	-49.1	15.2	0.00e+00	0	23	0	1887436800	61	4278
2026-01-11 08:44:31.65	340.55	21.37	-47.9	-49.1	15.2	0.00e+00	0	23	0	1890582528	61	4269
2026-01-11 08:44:32.66	340.46	21.24	-47.8	-49.0	15.3	0.00e+00	0	23	0	1893728256	61	4211
2026-01-11 08:44:33.67	340.38	21.11	-47.8	-49.0	15.3	0.00e+00	0	23	0	1896873984	61	4199
2026-01-11 08:44:34.68	340.29	20.98	-47.7	-48.8	15.3	0.00e+00	0	23	0	1900019712	61	4144
2026-01-11 08:44:35.68	340.21	20.85	-47.6	-48.8	15.4	0.00e+00	0	23	0	1903165440	61	4126
2026-01-11 08:44:36.69	340.13	20.72	-47.6	-48.8	15.4	0.00e+00	0	23	0	1906311168	61	4126
2026-01-11 08:44:37.70	340.05	20.60	-47.6	-48.8	15.4	0.00e+00	0	23	0	1909456896	61	4128
2026-01-11 08:44:38.71	339.96	20.47	-47.6	-48.8	15.4	0.00e+00	0	23	0	1912602624	61	4121
2026-01-11 08:44:39.72	339.88	20.34	-47.7	-48.9	15.3	0.00e+00	0	23	0	1915748352	61	4154
2026-01-11 08:44:40.73	339.80	20.22	-47.7	-48.9	15.3	0.00e+00	0	23	0	1918894080	61	4183
2026-01-11 08:44:41.73	339.73	20.09	-47.7	-48.9	15.3	0.00e+00	0	23	0	1922039808	61	4188
2026-01-11 08:44:42.74	339.65	19.97	-47.7	-48.9	15.3	0.00e+00	0	23	0	1925185536	61	4171
2026-01-11 08:44:43.74	339.57	19.84	-47.8	-49.1	15.3	0.00e+00	0	23	0	1928331264	61	4253
2026-01-11 08:44:44.74	339.49	19.72	-47.8	-49.0	15.3	0.00e+00	0	23	0	1931476992	61	4215
2026-01-11 08:44:45.75	339.42	19.60	-47.8	-49.1	15.3	0.00e+00	0	23	0	1934622720	61	4245
2026-01-11 08:44:46.75	339.34	19.48	-47.8	-49.0	15.3	0.00e+00	0	23	0	1937768448	61	4221
2026-01-11 08:44:47.76	339.26	19.35	-47.8	-49.0	15.3	0.00e+00	0	23	0	1940914176	61	4227
2026-01-11 08:44:48.77	339.19	19.23	-47.8	-49.1	15.2	7.00e-07	0	23	0	1944059904	61	4254
2026-01-11 08:44:49.77	339.12	19.11	-47.8	-49.1	15.2	0.00e+00	0	23	0	1947205632	61	4251
2026-01-11 08:44:50.77	339.04	18.99	-47.9	-49.1	15.2	0.00e+00	0	23	0	1950351360	61	4260
2026-01-11 08:44:51.78	338.97	18.87	-47.9	-49.1	15.2	0.00e+00	0	23	0	1953497088	61	4288
2026-01-11 08:44:52.79	338.90	18.75	-47.9	-49.2	15.2	0.00e+00	0	23	0	1956642816	61	4298
2026-01-11 08:44:53.80	338.83	18.63	-47.9	-49.1	15.2	0.00e+00	0	23	0	1959788544	61	4268
2026-01-11 08:44:54.81	338.75	18.52	-47.9	-49.1	15.2	0.00e+00	0	23	0	1962934272	61	4264
2026-01-11 08:44:55.81	338.68	18.40	-47.9	-49.1	15.2	0.00e+00	0	23	0	1966080000	61	4284
2026-01-11 08:44:56.82	338.61	18.28	-47.9	-49.1	15.2	0.00e+00	0	23	0	1969225728	61	4264
2026-01-11 08:44:57.82	338.55	18.17	-47.8	-49.0	15.2	0.00e+00	0	23	0	1972371456	61	4240
2026-01-11 08:44:58.83	338.48	18.05	-47.8	-49.0	15.3	0.00e+00	0	23	0	1975517184	61	4213
2026-01-11 08:44:59.84	338.41	17.93	-47.8	-49.0	15.3	0.00e+00	0	23	0	1978662912	61	4242
2026-01-11 08:45:00.84	338.34	17.82	-47.8	-49.1	15.2	0.00e+00	0	23	0	1981808640	61	4244
2026-01-11 08:45:01.85	338.27	17.70	-47.8	-49.0	15.2	0.00e+00	0	23	0	1984954368	61	4227
2026-01-11 08:45:02.86	338.21	17.59	-47.9	-49.1	15.2	0.00e+00	0	23	0	1988100096	61	4249
2026-01-11 08:45:03.87	338.14	17.48	-47.9	-49.1	15.2	0.00e+00	0	23	0	1991245824	61	4282
2026-01-11 08:45:04.88	338.07	17.36	-47.9	-49.1	15.2	0.00e+00	0	23	0	1994391552	61	4273
2026-01-11 08:45:05.89	338.01	17.25	-47.9	-49.2	15.2	0.00e+00	0	23	0	1997537280	61	4296
2026-01-11 08:45:06.90	337.94	17.14	-48.0	-49.2	15.1	0.00e+00	0	23	0	2000683008	61	4334
2026-01-11 08:45:07.90	337.88	17.03	-48.0	-49.3	15.1	0.00e+00	0	23	0	2003828736	61	4347
2026-01-11 08:45:08.92	337.82	16.91	-48.1	-49.4	15.1	0.00e+00	0	23	0	2006974464	61	4403
2026-01-11 08:45:09.93	337.75	16.80	-48.1	-49.4	15.1	0.00e+00	0	23	0	2010120192	61	4397
2026-01-11 08:45:10.94	337.69	16.69	-48.1	-49.4	15.1	0.00e+00	0	23	0	2013265920	61	4398
2026-01-11 08:45:11.95	337.63	16.58	-48.2	-49.5	15.1	0.00e+00	0	23	0	2016411648	61	4449
2026-01-11 08:45:12.95	337.57	16.47	-48.2	-49.5	15.0	0.00e+00	0	23	0	2019557376	61	4452
2026-01-11 08:45:13.97	337.50	16.36	-48.3	-49.6	15.0	0.00e+00	0	23	0	2022703104	61	4516
2026-01-11 08:45:14.98	337.44	16.25	-48.4	-49.6	15.0	0.00e+00	0	23	0	2025848832	61	4544
2026-01-11 08:45:15.98	337.38	16.15	-48.3	-49.6	15.0	0.00e+00	0	23	0	2028994560	61	4528
2026-01-11 08:45:16.98	337.33	16.04	-48.3	-49.6	15.0	0.00e+00	0	23	0	2032140288	61	4528
2026-01-11 08:45:17.99	337.27	15.93	-48.4	-49.7	15.0	0.00e+00	0	23	0	2035286016	61	4561
2026-01-11 08:45:19.00	337.21	15.82	-48.5	-49.8	15.0	0.00e+00	0	23	0	2038431744	62	4347
2026-01-11 08:45:20.01	337.15	15.72	-48.5	-49.7	15.0	0.00e+00	0	23	0	2041577472	62	4340
2026-01-11 08:45:21.01	337.09	15.61	-48.5	-49.8	15.0	0.00e+00	0	23	0	2044723200	62	4378
2026-01-11 08:45:22.02	337.03	15.51	-48.5	-49.8	15.0	0.00e+00	0	23	0	2047868928	62	4381
2026-01-11 08:45:23.02	336.98	15.40	-48.6	-49.9	15.0	0.00e+00	0	23	0	2051014656	62	4392
2026-01-11 08:45:24.03	336.92	15.30	-48.6	-50.0	15.0	0.00e+00	0	23	0	2054160384	62	4442
2026-01-11 08:45:25.04	336.86	15.19	-48.5	-49.8	15.0	0.00e+00	0	23	0	2057306112	62	4381
2026-01-11 08:45:26.05	336.81	15.09	-48.6	-49.9	15.0	0.00e+00	0	23	0	2060451840	62	4402
2026-01-11 08:45:27.06	336.75	14.99	-48.6	-49.9	15.0	0.00e+00	0	23	0	2063597568	62	4406
2026-01-11 08:45:28.06	336.70	14.88	-48.6	-50.0	14.9	0.00e+00	0	23	0	2066743296	62	4451
2026-01-11 08:45:29.07	336.64	14.78	-48.5	-49.8	15.0	0.00e+00	0	23	0	2069889024	62	4382
2026-01-11 08:45:30.07	336.59	14.68	-48.6	-49.9	15.0	0.00e+00	0	23	0	2073034752	62	4420
