passes_logs/2026/01/11/R3.2S_Murmansk/R3.2S_Murmansk__20260111_193238_TY-42_rec.log

#Pass ID: 20260111_193238_TY-42
#Satellite: TY-42
#Configuration: TY-42_900M
#almurnet v.1.7.20251203
#Start time: 2026-01-11 19:32:39

#Version: 2.2.20231116
#Station: R3.2S_Murmansk
#Location: 33.079688 lon 68.888172 lat
#TLE: 1 64048U 25103A   26011.68099537  .00008011  00000-0  38191-3 0 09995
#TLE: 2 64048 097.4120 087.1608 0001830 092.1753 308.0209 15.19172866 36317

#Time	Az	El	Level	Level2	SNR	BER	BlckErr	Temp	State	Recorded	gain1	gain2
2026-01-11 19:32:39.10	177.51	2.02	-56.8	-60.1	6.2	0.00e+00	0	27	0	0	80	20914
2026-01-11 19:32:40.11	177.55	2.09	-56.9	-60.1	6.2	0.00e+00	0	28	104	0	81	19838
2026-01-11 19:32:41.12	177.59	2.16	-56.9	-60.1	6.2	0.00e+00	0	28	104	0	81	19820
2026-01-11 19:32:42.12	177.63	2.23	-56.9	-60.1	6.2	0.00e+00	0	28	104	0	81	19853
2026-01-11 19:32:43.13	177.67	2.30	-56.9	-60.1	6.2	0.00e+00	0	28	104	0	81	19849
2026-01-11 19:32:44.14	177.71	2.37	-56.9	-60.1	6.2	0.00e+00	0	28	104	0	81	19819
2026-01-11 19:32:45.15	177.75	2.44	-57.0	-60.1	6.2	0.00e+00	0	28	104	0	81	19904
2026-01-11 19:32:46.16	177.79	2.51	-56.9	-60.1	6.2	0.00e+00	0	28	104	0	81	19916
2026-01-11 19:32:47.16	177.83	2.58	-56.9	-60.2	6.2	0.00e+00	0	28	104	0	81	19941
2026-01-11 19:32:48.17	177.87	2.65	-56.9	-60.1	6.2	0.00e+00	0	28	104	0	81	19927
2026-01-11 19:32:49.18	177.91	2.72	-56.9	-60.1	6.2	0.00e+00	0	28	104	0	81	19902
2026-01-11 19:32:50.18	177.95	2.79	-56.9	-60.1	6.2	0.00e+00	0	28	104	0	81	19865
2026-01-11 19:32:51.18	178.00	2.86	-56.9	-60.1	6.2	0.00e+00	0	28	104	0	81	19905
2026-01-11 19:32:52.19	178.04	2.94	-56.9	-60.1	6.2	0.00e+00	0	28	104	0	81	19885
2026-01-11 19:32:53.20	178.08	3.01	-56.9	-60.1	6.2	0.00e+00	0	29	104	0	81	19911
2026-01-11 19:32:54.21	178.12	3.08	-56.9	-60.1	6.2	0.00e+00	0	29	104	0	81	19923
2026-01-11 19:32:55.21	178.17	3.15	-56.9	-60.2	6.2	0.00e+00	0	29	104	0	81	19946
2026-01-11 19:32:56.21	178.21	3.23	-56.9	-60.1	6.2	0.00e+00	0	29	104	0	81	19902
2026-01-11 19:32:57.22	178.25	3.30	-57.0	-60.2	6.2	0.00e+00	0	29	104	0	81	19961
2026-01-11 19:32:58.22	178.30	3.37	-57.0	-60.1	6.2	0.00e+00	0	29	104	0	81	19898
2026-01-11 19:32:59.23	178.34	3.45	-57.0	-60.2	6.2	0.00e+00	0	29	104	0	81	19959
2026-01-11 19:33:00.24	178.38	3.52	-57.0	-60.2	6.2	0.00e+00	0	29	104	0	81	19974
2026-01-11 19:33:01.25	178.43	3.59	-57.0	-60.2	6.2	0.00e+00	0	29	104	0	81	19937
2026-01-11 19:33:02.26	178.47	3.67	-57.0	-60.1	6.2	0.00e+00	0	29	104	0	81	19921
2026-01-11 19:33:03.27	178.52	3.74	-57.0	-60.2	6.2	0.00e+00	0	29	104	0	81	20000
2026-01-11 19:33:04.28	178.56	3.82	-57.0	-60.2	6.2	0.00e+00	0	29	104	0	81	20022
2026-01-11 19:33:05.28	178.61	3.89	-57.0	-60.2	6.2	0.00e+00	0	29	104	0	81	19981
2026-01-11 19:33:06.29	178.65	3.97	-57.0	-60.2	6.2	0.00e+00	0	29	104	0	81	19946
2026-01-11 19:33:07.30	178.70	4.04	-57.0	-60.1	6.2	0.00e+00	0	29	104	0	81	19913
2026-01-11 19:33:08.30	178.75	4.12	-57.0	-60.2	6.2	0.00e+00	0	29	104	0	81	19966
2026-01-11 19:33:09.31	178.79	4.19	-57.0	-60.2	6.2	0.00e+00	0	29	104	0	81	19965
2026-01-11 19:33:10.32	178.84	4.27	-57.0	-60.2	6.2	0.00e+00	0	29	104	0	81	19994
2026-01-11 19:33:11.33	178.89	4.35	-57.0	-60.2	6.2	0.00e+00	0	29	104	0	81	20018
2026-01-11 19:33:12.34	178.93	4.42	-57.0	-60.2	6.2	0.00e+00	0	29	104	0	81	20026
2026-01-11 19:33:13.34	178.98	4.50	-57.0	-60.2	6.2	0.00e+00	0	29	104	0	81	20058
2026-01-11 19:33:14.35	179.03	4.58	-57.0	-60.2	6.2	0.00e+00	0	29	104	0	81	20046
2026-01-11 19:33:15.36	179.08	4.66	-57.0	-60.2	6.2	0.00e+00	0	29	104	0	81	19937
2026-01-11 19:33:16.36	179.13	4.73	-57.0	-60.2	6.2	0.00e+00	0	29	104	0	81	20021
2026-01-11 19:33:17.37	179.18	4.81	-57.0	-60.2	6.2	0.00e+00	0	30	104	0	81	20083
2026-01-11 19:33:18.38	179.22	4.89	-57.0	-60.2	6.2	0.00e+00	0	30	104	0	81	20013
2026-01-11 19:33:19.39	179.27	4.97	-57.0	-60.2	6.2	0.00e+00	0	30	104	0	81	20086
2026-01-11 19:33:20.39	179.32	5.05	-57.0	-60.2	6.2	0.00e+00	0	30	104	0	81	20069
2026-01-11 19:33:21.39	179.37	5.13	-57.1	-60.3	6.2	0.00e+00	0	30	104	0	81	20231
2026-01-11 19:33:22.40	179.42	5.21	-57.1	-60.2	6.2	0.00e+00	0	30	104	0	81	20136
2026-01-11 19:33:23.40	179.47	5.29	-57.0	-60.2	6.2	0.00e+00	0	30	104	0	81	20018
2026-01-11 19:33:24.41	179.53	5.37	-57.0	-60.2	6.2	0.00e+00	0	30	104	0	81	20135
2026-01-11 19:33:25.40	179.58	5.45	-43.2	-43.6	11.6	0.00e+00	0	31	0	50331648	53	14820
2026-01-11 19:33:26.41	179.63	5.53	-42.9	-43.2	11.7	0.00e+00	0	31	0	159383552	52	15100
2026-01-11 19:33:27.41	179.68	5.61	-42.9	-43.3	11.7	4.91e-02	0	31	0	276824064	52	15132
2026-01-11 19:33:28.42	179.73	5.69	-42.9	-43.2	11.7	4.91e-02	0	31	0	385875968	52	15065
2026-01-11 19:33:29.42	179.78	5.77	-42.7	-43.1	11.8	4.91e-02	0	31	0	503316480	52	14779
2026-01-11 19:33:30.43	179.84	5.86	-42.6	-43.0	11.8	3.72e-02	0	31	0	612368384	52	14616
2026-01-11 19:33:31.44	179.89	5.94	-42.4	-42.7	11.9	3.72e-02	0	31	0	729808896	51	15034
2026-01-11 19:33:32.45	179.95	6.02	-42.4	-42.8	11.8	3.03e-02	0	31	0	847249408	51	15163
2026-01-11 19:33:33.45	180.00	6.10	-42.6	-42.9	11.8	3.03e-02	0	31	0	956301312	51	15398
2026-01-11 19:33:34.45	180.05	6.19	-42.7	-43.1	11.7	3.03e-02	0	31	0	1065353216	51	15738
2026-01-11 19:33:35.45	180.11	6.27	-42.6	-43.0	11.8	3.10e-02	0	31	0	1182793728	51	15535
2026-01-11 19:33:36.45	180.16	6.35	-42.7	-43.0	11.8	3.10e-02	0	31	0	1291845632	51	15568
2026-01-11 19:33:37.45	180.22	6.44	-42.6	-42.9	11.8	3.10e-02	0	31	0	1409286144	51	15408
2026-01-11 19:33:38.45	180.27	6.52	-42.3	-42.6	11.9	2.97e-02	0	32	0	1518338048	51	14888
2026-01-11 19:33:39.46	180.33	6.61	-42.4	-42.7	11.9	2.97e-02	0	32	0	1635778560	51	15045
2026-01-11 19:33:40.47	180.39	6.69	-42.3	-42.6	12.0	2.37e-02	0	32	0	1744830464	51	14903
2026-01-11 19:33:41.48	180.44	6.78	-42.3	-42.6	12.0	2.37e-02	0	32	0	1853882368	51	14895
2026-01-11 19:33:42.48	180.50	6.87	-42.1	-42.4	12.1	2.37e-02	0	32	0	1971322880	51	14566
2026-01-11 19:33:43.48	180.56	6.95	-42.2	-42.5	12.0	2.18e-02	0	32	0	2080374784	51	14775
2026-01-11 19:33:44.49	180.62	7.04	-42.2	-42.6	12.0	2.18e-02	0	32	0	2197815296	51	14790
2026-01-11 19:33:45.50	180.68	7.13	-42.2	-42.5	12.0	2.18e-02	0	32	0	2315255808	51	14698
2026-01-11 19:33:46.50	180.74	7.22	-42.1	-42.4	12.1	2.45e-02	0	32	0	2424307712	51	14606
2026-01-11 19:33:47.50	180.79	7.30	-42.2	-42.5	12.0	2.45e-02	0	32	0	2533359616	51	14730
2026-01-11 19:33:48.51	180.85	7.39	-42.2	-42.6	12.1	2.45e-02	0	32	0	2650800128	51	14789
2026-01-11 19:33:49.52	180.92	7.48	-42.0	-42.3	12.1	2.53e-02	0	32	0	2759852032	51	14408
2026-01-11 19:33:50.52	180.98	7.57	-42.1	-42.5	12.1	2.53e-02	0	32	0	2877292544	51	14616
2026-01-11 19:33:51.53	181.04	7.66	-42.2	-42.5	12.1	2.53e-02	0	32	0	2986344448	51	14681
2026-01-11 19:33:52.53	181.10	7.75	-42.0	-42.4	12.1	2.29e-02	0	32	0	3103784960	51	14452
2026-01-11 19:33:53.53	181.16	7.84	-41.8	-42.2	12.1	2.29e-02	0	32	0	3212836864	50	14962
2026-01-11 19:33:54.54	181.22	7.93	-41.8	-42.1	12.2	2.29e-02	0	32	0	3321888768	50	14888
2026-01-11 19:33:55.55	181.29	8.02	-41.8	-42.1	12.1	2.29e-02	0	32	0	3439329280	50	14939
2026-01-11 19:33:56.56	181.35	8.12	-41.8	-42.1	12.1	2.00e-02	0	32	0	3556769792	50	14937
2026-01-11 19:33:57.56	181.41	8.21	-41.7	-42.0	12.2	2.00e-02	0	32	0	3665821696	50	14756
2026-01-11 19:33:58.57	181.48	8.30	-41.5	-41.8	12.3	2.00e-02	0	33	0	3783262208	50	14400
2026-01-11 19:33:59.58	181.54	8.39	-41.4	-41.7	12.4	1.75e-02	0	32	0	3892314112	50	14273
2026-01-11 19:34:00.58	181.61	8.49	-41.5	-41.8	12.3	1.75e-02	0	33	0	4001366016	50	14360
2026-01-11 19:34:01.58	181.67	8.58	-41.5	-41.8	12.3	1.56e-02	0	32	0	4118806528	50	14433
2026-01-11 19:34:02.59	181.74	8.68	-41.6	-41.9	12.3	1.56e-02	0	32	0	4227858432	50	14527
2026-01-11 19:34:03.60	181.81	8.77	-41.3	-41.6	12.3	1.49e-02	0	33	0	4345298944	49	14827
2026-01-11 19:34:04.61	181.88	8.87	-41.3	-41.6	12.3	1.49e-02	0	33	0	4462739456	49	14838
2026-01-11 19:34:05.61	181.94	8.96	-41.3	-41.6	12.3	1.49e-02	0	33	0	4571791360	49	14794
2026-01-11 19:34:06.61	182.01	9.06	-41.3	-41.6	12.3	1.32e-02	0	33	0	4689231872	49	14795
2026-01-11 19:34:07.60	182.08	9.15	-41.3	-41.6	12.3	1.32e-02	0	33	0	4798283776	49	14779
2026-01-11 19:34:08.61	182.15	9.25	-41.1	-41.4	12.4	1.32e-02	0	33	0	4907335680	49	14516
2026-01-11 19:34:09.61	182.22	9.35	-41.0	-41.3	12.4	1.26e-02	0	33	0	5024776192	49	14410
2026-01-11 19:34:10.62	182.29	9.45	-40.9	-41.2	12.5	1.26e-02	0	33	0	5133828096	49	14198
2026-01-11 19:34:11.62	182.36	9.54	-41.0	-41.3	12.4	1.26e-02	0	33	0	5251268608	49	14298
2026-01-11 19:34:12.63	182.43	9.64	-40.8	-41.1	12.4	1.07e-02	0	33	0	5360320512	48	14888
2026-01-11 19:34:13.64	182.50	9.74	-40.8	-41.1	12.4	1.07e-02	0	33	0	5477761024	48	14930
2026-01-11 19:34:14.64	182.58	9.84	-40.8	-41.1	12.4	1.07e-02	0	33	0	5586812928	48	14835
2026-01-11 19:34:15.64	182.65	9.94	-40.7	-41.0	12.5	9.89e-03	0	33	0	5695864832	48	14642
2026-01-11 19:34:16.65	182.72	10.04	-40.6	-40.9	12.5	9.89e-03	0	33	0	5813305344	48	14508
2026-01-11 19:34:17.65	182.80	10.15	-40.6	-40.9	12.5	8.63e-03	0	33	0	5930745856	48	14537
2026-01-11 19:34:18.66	182.87	10.25	-40.7	-41.0	12.5	8.63e-03	0	33	0	6039797760	48	14644
2026-01-11 19:34:19.67	182.95	10.35	-40.6	-40.9	12.5	7.82e-03	0	33	0	6157238272	48	14451
2026-01-11 19:34:20.67	183.03	10.45	-40.5	-40.8	12.5	7.82e-03	0	33	0	6266290176	48	14306
2026-01-11 19:34:21.67	183.10	10.56	-40.5	-40.7	12.6	7.82e-03	0	33	0	6375342080	48	14274
2026-01-11 19:34:22.67	183.18	10.66	-40.6	-40.8	12.5	6.87e-03	0	33	0	6492782592	48	14429
2026-01-11 19:34:23.68	183.26	10.77	-40.4	-40.7	12.6	6.87e-03	0	33	0	6601834496	48	14221
2026-01-11 19:34:24.68	183.34	10.87	-39.5	-39.8	12.5	7.40e-03	0	34	0	6719275008	46	14336
2026-01-11 19:34:25.68	183.42	10.98	-39.5	-39.8	12.5	7.40e-03	0	33	0	6828326912	46	14416
2026-01-11 19:34:26.69	183.50	11.08	-39.5	-39.8	12.5	7.40e-03	0	33	0	6945767424	46	14346
2026-01-11 19:34:27.70	183.58	11.19	-39.5	-39.8	12.5	7.40e-03	0	34	0	7063207936	46	14389
2026-01-11 19:34:28.70	183.66	11.30	-39.5	-39.8	12.5	8.73e-03	0	34	0	7172259840	46	14329
2026-01-11 19:34:29.70	183.74	11.40	-39.4	-39.7	12.5	8.73e-03	0	34	0	7281311744	46	14232
2026-01-11 19:34:30.71	183.82	11.51	-39.3	-39.6	12.5	7.50e-03	0	34	0	7398752256	45	14841
2026-01-11 19:34:31.72	183.91	11.62	-39.2	-39.5	12.5	7.50e-03	0	34	0	7507804160	45	14770
2026-01-11 19:34:32.72	183.99	11.73	-39.1	-39.4	12.5	7.50e-03	0	34	0	7625244672	45	14533
2026-01-11 19:34:33.72	184.08	11.84	-39.1	-39.4	12.5	7.50e-03	0	34	0	7734296576	45	14529
2026-01-11 19:34:34.73	184.16	11.95	-39.1	-39.4	12.5	4.83e-03	0	34	0	7843348480	45	14497
2026-01-11 19:34:35.73	184.25	12.07	-39.1	-39.3	12.6	4.83e-03	0	34	0	7960788992	45	14412
2026-01-11 19:34:36.73	184.34	12.18	-39.0	-39.3	12.6	4.83e-03	0	34	0	8069840896	45	14284
2026-01-11 19:34:37.74	184.42	12.29	-39.1	-39.3	12.6	5.43e-03	0	34	0	8187281408	45	14409
2026-01-11 19:34:38.74	184.51	12.40	-39.0	-39.3	12.6	5.43e-03	0	34	0	8296333312	45	14344
2026-01-11 19:34:39.74	184.60	12.52	-38.8	-39.1	12.6	5.43e-03	0	34	0	8413773824	44	14795
2026-01-11 19:34:40.74	184.69	12.63	-38.8	-39.1	12.6	5.02e-03	0	34	0	8522825728	44	14815
2026-01-11 19:34:41.75	184.78	12.75	-38.7	-39.0	12.6	5.02e-03	0	34	0	8640266240	44	14624
2026-01-11 19:34:42.76	184.88	12.87	-38.7	-39.0	12.6	4.54e-03	0	34	0	8749318144	44	14697
2026-01-11 19:34:43.76	184.97	12.98	-38.6	-38.9	12.6	4.54e-03	0	34	0	8866758656	44	14553
2026-01-11 19:34:44.77	185.06	13.10	-38.6	-38.9	12.6	4.54e-03	0	34	0	8975810560	44	14569
2026-01-11 19:34:45.77	185.16	13.22	-38.5	-38.7	12.7	3.65e-03	0	34	0	9093251072	44	14266
2026-01-11 19:34:46.77	185.25	13.34	-38.3	-38.6	12.7	3.65e-03	0	34	0	9202302976	43	14835
2026-01-11 19:34:47.77	185.35	13.45	-38.3	-38.6	12.7	3.65e-03	0	34	0	9311354880	43	14875
2026-01-11 19:34:48.78	185.45	13.58	-38.4	-38.6	12.6	3.25e-03	0	34	0	9428795392	43	14918
2026-01-11 19:34:49.79	185.54	13.70	-38.3	-38.5	12.7	3.25e-03	0	34	0	9537847296	43	14741
2026-01-11 19:34:50.79	185.64	13.82	-38.2	-38.5	12.7	3.32e-03	0	34	0	9655287808	43	14613
2026-01-11 19:34:51.80	185.74	13.94	-38.2	-38.5	12.7	3.32e-03	0	34	0	9772728320	43	14684
2026-01-11 19:34:52.81	185.84	14.07	-38.0	-38.2	12.7	3.32e-03	0	34	0	9881780224	43	14262
2026-01-11 19:34:53.81	185.95	14.19	-38.0	-38.2	12.8	2.64e-03	0	34	0	9999220736	43	14244
2026-01-11 19:34:54.82	186.05	14.31	-37.9	-38.2	12.8	2.64e-03	0	34	0	10108272640	43	14194
2026-01-11 19:34:55.83	186.15	14.44	-37.8	-38.1	12.7	2.64e-03	0	34	0	10217324544	42	14811
2026-01-11 19:34:56.83	186.26	14.57	-37.9	-38.1	12.7	2.23e-03	0	34	0	10334765056	42	14932
2026-01-11 19:34:57.83	186.36	14.69	-37.8	-38.0	12.8	2.23e-03	0	35	0	10443816960	42	14773
2026-01-11 19:34:58.84	186.47	14.82	-37.6	-37.9	12.8	2.23e-03	0	34	0	10561257472	42	14542
2026-01-11 19:34:59.84	186.58	14.95	-37.8	-38.0	12.8	1.62e-03	0	34	0	10670309376	42	14715
2026-01-11 19:35:00.86	186.69	15.08	-37.6	-37.9	12.8	1.62e-03	0	34	0	10787749888	42	14518
2026-01-11 19:35:01.86	186.80	15.21	-37.6	-37.9	12.8	1.76e-03	0	34	0	10905190400	42	14526
2026-01-11 19:35:02.87	186.91	15.34	-37.6	-37.9	12.8	1.76e-03	0	34	0	11014242304	42	14514
2026-01-11 19:35:03.88	187.02	15.47	-37.6	-37.9	12.8	1.76e-03	0	34	0	11123294208	42	14504
2026-01-11 19:35:04.89	187.14	15.61	-37.7	-38.0	12.8	1.77e-03	0	35	0	11240734720	42	14628
2026-01-11 19:35:05.89	187.25	15.74	-37.6	-37.8	12.8	1.77e-03	0	34	0	11349786624	42	14421
2026-01-11 19:35:06.90	187.37	15.88	-37.4	-37.7	12.9	1.77e-03	0	34	0	11467227136	42	14194
2026-01-11 19:35:07.91	187.49	16.01	-37.4	-37.7	12.9	1.72e-03	0	34	0	11584667648	42	14172
2026-01-11 19:35:08.91	187.60	16.15	-37.4	-37.7	12.9	1.72e-03	0	35	0	11693719552	42	14190
2026-01-11 19:35:09.92	187.72	16.29	-37.3	-37.6	12.8	1.72e-03	0	35	0	11811160064	41	14841
2026-01-11 19:35:10.92	187.84	16.42	-37.4	-37.7	12.8	1.42e-03	0	35	0	11920211968	41	15022
2026-01-11 19:35:11.93	187.97	16.56	-37.4	-37.7	12.8	1.42e-03	0	35	0	12029263872	41	15006
2026-01-11 19:35:12.93	188.09	16.70	-37.3	-37.5	12.8	1.42e-03	0	35	0	12146704384	41	14751
2026-01-11 19:35:13.93	188.21	16.84	-37.2	-37.5	12.8	1.30e-03	0	35	0	12255756288	41	14637
2026-01-11 19:35:14.93	188.34	16.98	-37.2	-37.4	12.9	1.30e-03	0	35	0	12373196800	41	14594
2026-01-11 19:35:15.93	188.46	17.12	-37.3	-37.6	12.8	1.13e-03	0	35	0	12482248704	41	14791
2026-01-11 19:35:16.94	188.59	17.27	-37.1	-37.4	12.9	1.13e-03	0	35	0	12591300608	41	14481
2026-01-11 19:35:17.95	188.72	17.41	-37.1	-37.3	12.9	1.13e-03	0	35	0	12717129728	41	14434
2026-01-11 19:35:18.96	188.86	17.56	-36.8	-37.0	12.9	1.13e-03	0	35	0	12826181632	40	14748
2026-01-11 19:35:19.96	188.99	17.71	-36.8	-37.0	12.9	1.01e-03	0	35	0	12935233536	40	14738
2026-01-11 19:35:20.97	189.12	17.85	-36.7	-37.0	12.9	1.01e-03	0	35	0	13052674048	40	14720
2026-01-11 19:35:21.97	189.26	18.00	-36.7	-36.9	12.9	1.01e-03	0	35	0	13161725952	40	14572
2026-01-11 19:35:22.98	189.40	18.15	-36.5	-36.8	13.0	7.63e-04	0	35	0	13279166464	40	14374
2026-01-11 19:35:23.98	189.53	18.30	-36.5	-36.8	13.0	7.63e-04	0	35	0	13388218368	40	14366
2026-01-11 19:35:24.98	189.67	18.45	-36.5	-36.8	13.0	7.63e-04	0	35	0	13497270272	40	14322
2026-01-11 19:35:25.99	189.82	18.60	-36.4	-36.7	13.0	6.87e-04	0	35	0	13614710784	40	14193
2026-01-11 19:35:27.00	189.96	18.76	-36.4	-36.7	13.0	6.87e-04	0	35	0	13732151296	40	14191
2026-01-11 19:35:28.00	190.10	18.91	-36.4	-36.7	13.0	6.87e-04	0	35	0	13841203200	40	14136
2026-01-11 19:35:29.01	190.25	19.07	-36.4	-36.7	13.0	5.72e-04	0	35	0	13958643712	40	14185
2026-01-11 19:35:30.02	190.40	19.23	-36.4	-36.7	13.0	5.72e-04	0	35	0	14067695616	40	14173
2026-01-11 19:35:31.02	190.55	19.38	-36.2	-36.4	13.0	5.72e-04	0	35	0	14185136128	39	14558
2026-01-11 19:35:32.03	190.70	19.54	-36.1	-36.4	13.0	4.67e-04	0	35	0	14294188032	39	14541
2026-01-11 19:35:33.04	190.86	19.70	-36.2	-36.5	13.0	4.67e-04	0	35	0	14403239936	39	14617
2026-01-11 19:35:34.05	191.01	19.87	-35.9	-36.1	13.1	3.29e-04	0	35	0	14520680448	39	14086
2026-01-11 19:35:35.05	191.17	20.03	-35.8	-36.1	13.0	3.29e-04	0	35	0	14638120960	38	14829
2026-01-11 19:35:36.05	191.33	20.19	-35.7	-36.0	13.0	3.29e-04	0	35	0	14747172864	38	14632
2026-01-11 19:35:37.05	191.49	20.35	-35.7	-35.9	13.0	2.91e-04	0	35	0	14864613376	38	14566
2026-01-11 19:35:38.05	191.65	20.52	-35.6	-35.9	13.1	2.91e-04	0	35	0	14973665280	38	14441
2026-01-11 19:35:39.05	191.81	20.69	-35.5	-35.7	13.1	2.91e-04	0	35	0	15082717184	38	14265
2026-01-11 19:35:40.06	191.98	20.85	-35.4	-35.7	13.1	2.76e-04	0	35	0	15200157696	38	14170
2026-01-11 19:35:41.07	192.15	21.02	-35.3	-35.6	13.1	2.76e-04	0	35	0	15309209600	37	14835
2026-01-11 19:35:42.08	192.32	21.20	-35.3	-35.6	13.0	2.00e-04	0	35	0	15426650112	37	14866
2026-01-11 19:35:43.08	192.49	21.37	-35.3	-35.6	13.1	2.00e-04	0	35	0	15535702016	37	14888
2026-01-11 19:35:44.09	192.67	21.54	-35.3	-35.6	13.1	2.00e-04	0	35	0	15653142528	37	14892
2026-01-11 19:35:45.10	192.85	21.71	-35.4	-35.7	13.0	1.76e-04	0	35	0	15770583040	37	15070
2026-01-11 19:35:46.10	193.03	21.89	-35.4	-35.7	13.0	1.76e-04	0	35	0	15879634944	37	14999
2026-01-11 19:35:47.11	193.21	22.07	-35.3	-35.6	13.1	2.24e-04	0	35	0	15988686848	37	14796
2026-01-11 19:35:48.12	193.40	22.25	-35.3	-35.6	13.1	2.24e-04	0	35	0	16106127360	37	14805
2026-01-11 19:35:49.12	193.58	22.42	-35.3	-35.6	13.1	2.24e-04	0	35	0	16215179264	37	14828
2026-01-11 19:35:50.12	193.77	22.60	-35.2	-35.5	13.1	1.62e-04	0	35	0	16332619776	37	14672
2026-01-11 19:35:51.13	193.96	22.79	-35.0	-35.2	13.1	1.62e-04	0	35	0	16441671680	37	14266
2026-01-11 19:35:52.14	194.15	22.97	-34.9	-35.2	13.2	1.62e-04	0	35	0	16559112192	37	14167
2026-01-11 19:35:53.14	194.35	23.15	-34.7	-35.0	13.1	1.62e-04	0	35	0	16668164096	36	14619
2026-01-11 19:35:54.14	194.55	23.34	-34.7	-35.0	13.1	9.05e-05	0	35	0	16777216000	36	14650
2026-01-11 19:35:55.15	194.75	23.53	-34.8	-35.0	13.1	9.05e-05	0	35	0	16894656512	36	14765
2026-01-11 19:35:56.15	194.95	23.71	-34.6	-34.9	13.1	8.58e-05	0	35	0	17012097024	36	14478
2026-01-11 19:35:57.15	195.16	23.90	-34.5	-34.7	13.2	8.58e-05	0	35	0	17121148928	36	14256
2026-01-11 19:35:58.16	195.37	24.09	-34.5	-34.7	13.2	8.58e-05	0	35	0	17238589440	36	14204
2026-01-11 19:35:59.16	195.58	24.28	-34.4	-34.7	13.2	8.58e-05	0	35	0	17347641344	36	14175
2026-01-11 19:36:00.17	195.80	24.48	-34.4	-34.7	13.2	7.62e-05	0	35	0	17456693248	36	14190
2026-01-11 19:36:01.18	196.01	24.68	-34.5	-34.7	13.2	7.62e-05	0	35	0	17574133760	36	14258
2026-01-11 19:36:02.18	196.23	24.87	-34.4	-34.7	13.2	7.62e-05	0	35	0	17683185664	36	14118
2026-01-11 19:36:03.19	196.46	25.07	-31.9	-32.1	13.0	8.10e-05	0	35	0	17800626176	30	14929
2026-01-11 19:36:04.19	196.68	25.27	-31.6	-31.9	13.1	8.10e-05	0	35	0	17909678080	30	14576
2026-01-11 19:36:05.20	196.92	25.47	-31.6	-31.9	13.1	1.86e-04	0	35	0	18027118592	30	14445
2026-01-11 19:36:06.21	197.15	25.67	-31.6	-31.9	13.1	1.86e-04	0	35	0	18144559104	30	14452
2026-01-11 19:36:07.21	197.39	25.87	-31.7	-31.9	13.1	1.00e-04	0	35	0	18253611008	30	14567
2026-01-11 19:36:08.20	197.62	26.08	-31.5	-31.8	13.1	1.00e-04	0	35	0	18362662912	30	14371
2026-01-11 19:36:09.21	197.87	26.28	-31.5	-31.8	13.1	1.33e-04	0	35	0	18480103424	30	14384
2026-01-11 19:36:10.21	198.11	26.49	-31.2	-31.5	13.1	1.33e-04	0	35	0	18589155328	29	14665
2026-01-11 19:36:11.21	198.36	26.70	-31.2	-31.4	13.1	1.33e-04	0	35	0	18706595840	29	14561
2026-01-11 19:36:12.21	198.61	26.91	-31.1	-31.4	13.1	1.33e-04	0	35	0	18815647744	29	14453
2026-01-11 19:36:13.21	198.87	27.12	-30.9	-31.2	13.1	7.62e-05	0	35	0	18924699648	29	14254
2026-01-11 19:36:14.22	199.13	27.33	-30.9	-31.2	13.2	7.62e-05	0	35	0	19042140160	29	14167
2026-01-11 19:36:15.22	199.39	27.55	-30.7	-31.0	13.1	7.62e-05	0	35	0	19151192064	28	14706
2026-01-11 19:36:16.23	199.66	27.76	-30.7	-31.0	13.1	7.15e-05	0	35	0	19268632576	28	14701
2026-01-11 19:36:17.23	199.93	27.98	-30.7	-30.9	13.1	7.15e-05	0	35	0	19377684480	28	14599
2026-01-11 19:36:18.23	200.21	28.20	-30.6	-30.9	13.1	6.19e-05	0	35	0	19495124992	28	14536
2026-01-11 19:36:19.24	200.49	28.42	-30.7	-31.0	13.1	6.19e-05	0	35	0	19604176896	28	14650
2026-01-11 19:36:20.23	200.77	28.64	-30.5	-30.7	13.2	6.19e-05	0	35	0	19713228800	28	14249
2026-01-11 19:36:21.24	201.06	28.86	-30.4	-30.7	13.1	5.72e-05	0	35	0	19830669312	27	15002
2026-01-11 19:36:22.24	201.35	29.08	-30.4	-30.7	13.1	5.72e-05	0	35	0	19939721216	27	15019
2026-01-11 19:36:23.25	201.65	29.31	-30.5	-30.8	13.1	5.72e-05	0	35	0	20057161728	27	15155
2026-01-11 19:36:24.25	201.95	29.54	-30.2	-30.5	13.1	1.43e-05	0	35	0	20174602240	27	14713
2026-01-11 19:36:25.25	202.26	29.76	-30.3	-30.6	13.1	1.43e-05	0	35	0	20283654144	27	14795
2026-01-11 19:36:26.26	202.57	29.99	-30.0	-30.3	13.2	1.43e-05	0	35	0	20392706048	27	14309
2026-01-11 19:36:27.27	202.89	30.23	-30.1	-30.3	13.2	3.81e-05	0	35	0	20510146560	27	14426
2026-01-11 19:36:28.28	203.21	30.46	-30.1	-30.4	13.2	3.81e-05	0	35	0	20619198464	27	14448
2026-01-11 19:36:29.29	203.54	30.70	-29.8	-30.1	13.2	3.81e-05	0	35	0	20736638976	26	14784
2026-01-11 19:36:30.29	203.87	30.93	-29.7	-29.9	13.2	1.90e-05	0	35	0	20845690880	26	14595
2026-01-11 19:36:31.30	204.21	31.17	-29.8	-30.0	13.2	1.90e-05	0	35	0	20963131392	26	14740
2026-01-11 19:36:32.30	204.55	31.40	-29.7	-29.9	13.2	1.90e-05	0	35	0	21080571904	26	14545
2026-01-11 19:36:33.31	204.89	31.64	-29.5	-29.7	13.2	1.90e-05	0	35	0	21189623808	26	14248
2026-01-11 19:36:34.32	205.25	31.88	-29.4	-29.7	13.2	1.90e-05	0	35	0	21298675712	26	14188
2026-01-11 19:36:35.32	205.60	32.12	-29.3	-29.6	13.2	1.90e-05	0	35	0	21416116224	25	14779
2026-01-11 19:36:36.33	205.97	32.37	-29.1	-29.4	13.2	2.86e-05	0	35	0	21525168128	25	14497
2026-01-11 19:36:37.33	206.34	32.61	-29.1	-29.4	13.2	2.86e-05	0	35	0	21642608640	25	14472
2026-01-11 19:36:38.34	206.71	32.86	-28.9	-29.2	13.3	2.86e-05	0	35	0	21751660544	25	14150
2026-01-11 19:36:39.35	207.10	33.10	-28.8	-29.1	13.2	9.50e-06	0	35	0	21869101056	24	14787
2026-01-11 19:36:40.36	207.49	33.35	-28.7	-29.0	13.2	9.50e-06	0	35	0	21986541568	24	14618
2026-01-11 19:36:41.37	207.88	33.60	-28.6	-28.9	13.3	9.50e-06	0	35	0	22095593472	24	14451
2026-01-11 19:36:42.37	208.28	33.85	-28.5	-28.8	13.2	4.70e-06	0	35	0	22204645376	24	14366
2026-01-11 19:36:43.37	208.68	34.09	-28.5	-28.8	13.3	4.70e-06	0	35	0	22322085888	24	14335
2026-01-11 19:36:44.38	209.10	34.34	-28.5	-28.8	13.3	4.70e-06	0	35	0	22431137792	24	14308
2026-01-11 19:36:45.38	209.52	34.59	-28.5	-28.7	13.3	0.00e+00	0	35	0	22548578304	24	14272
2026-01-11 19:36:46.38	209.94	34.84	-28.2	-28.5	13.2	0.00e+00	0	35	0	22657630208	23	14701
2026-01-11 19:36:47.38	210.37	35.09	-28.1	-28.3	13.3	0.00e+00	0	35	0	22766682112	23	14413
2026-01-11 19:36:48.39	210.81	35.35	-28.0	-28.3	13.3	0.00e+00	0	35	0	22884122624	23	14364
2026-01-11 19:36:49.39	211.26	35.60	-28.1	-28.4	13.3	0.00e+00	0	35	0	22993174528	23	14500
2026-01-11 19:36:50.40	211.72	35.86	-28.0	-28.3	13.3	0.00e+00	0	35	0	23110615040	23	14374
2026-01-11 19:36:51.40	212.18	36.11	-28.0	-28.3	13.3	4.70e-06	0	35	0	23228055552	23	14311
2026-01-11 19:36:52.40	212.64	36.36	-27.8	-28.1	13.3	4.70e-06	0	35	0	23337107456	22	14783
2026-01-11 19:36:53.41	213.12	36.62	-27.7	-28.0	13.3	4.70e-06	0	35	0	23454547968	22	14696
2026-01-11 19:36:54.41	213.61	36.87	-27.7	-28.0	13.3	4.70e-06	0	35	0	23563599872	22	14700
2026-01-11 19:36:55.41	214.10	37.12	-27.7	-28.0	13.3	4.70e-06	0	35	0	23672651776	22	14651
2026-01-11 19:36:56.42	214.60	37.38	-27.6	-27.9	13.3	0.00e+00	0	35	0	23790092288	22	14497
2026-01-11 19:36:57.42	215.11	37.63	-27.5	-27.8	13.3	0.00e+00	0	35	0	23899144192	22	14297
2026-01-11 19:36:58.43	215.63	37.89	-27.5	-27.7	13.3	0.00e+00	0	35	0	24016584704	22	14249
2026-01-11 19:36:59.43	216.15	38.14	-27.4	-27.7	13.3	0.00e+00	0	35	0	24125636608	22	14169
2026-01-11 19:37:00.44	216.69	38.40	-27.5	-27.7	13.3	0.00e+00	0	35	0	24234688512	22	14212
2026-01-11 19:37:01.44	217.23	38.65	-27.3	-27.6	13.3	0.00e+00	0	35	0	24352129024	21	14828
2026-01-11 19:37:02.44	217.78	38.90	-27.3	-27.6	13.3	0.00e+00	0	35	0	24461180928	21	14787
2026-01-11 19:37:03.45	218.35	39.15	-27.3	-27.6	13.3	0.00e+00	0	35	0	24578621440	21	14830
2026-01-11 19:37:04.45	218.92	39.40	-27.1	-27.4	13.3	4.70e-06	0	35	0	24696061952	21	14578
2026-01-11 19:37:05.45	219.49	39.65	-27.1	-27.4	13.3	4.70e-06	0	35	0	24805113856	21	14485
2026-01-11 19:37:06.46	220.08	39.90	-27.1	-27.4	13.3	4.70e-06	0	35	0	24922554368	21	14468
2026-01-11 19:37:07.46	220.68	40.14	-26.9	-27.1	13.4	4.70e-06	0	35	0	25031606272	21	14104
2026-01-11 19:37:08.46	221.28	40.39	-27.0	-27.3	13.4	4.70e-06	0	35	0	25140658176	21	14316
2026-01-11 19:37:09.47	221.91	40.63	-27.0	-27.2	13.4	0.00e+00	0	35	0	25258098688	21	14242
2026-01-11 19:37:10.48	222.54	40.88	-26.9	-27.1	13.4	0.00e+00	0	35	0	25367150592	21	14062
2026-01-11 19:37:11.49	223.18	41.12	-26.7	-27.0	13.4	9.50e-06	0	35	0	25484591104	20	14634
2026-01-11 19:37:12.49	223.82	41.36	-26.8	-27.1	13.4	9.50e-06	0	35	0	25593643008	20	14858
2026-01-11 19:37:13.49	224.47	41.59	-26.7	-27.0	13.4	9.50e-06	0	35	0	25711083520	20	14669
2026-01-11 19:37:14.49	225.14	41.82	-26.5	-26.8	13.4	4.70e-06	0	35	0	25820135424	20	14370
2026-01-11 19:37:15.50	225.82	42.06	-26.5	-26.8	13.4	4.70e-06	0	35	0	25937575936	20	14400
2026-01-11 19:37:16.51	226.51	42.29	-26.5	-26.8	13.4	4.70e-06	0	35	0	26046627840	20	14278
2026-01-11 19:37:17.51	227.20	42.51	-26.4	-26.6	13.4	4.70e-06	0	35	0	26164068352	20	14099
2026-01-11 19:37:18.51	227.90	42.73	-26.4	-26.7	13.4	4.70e-06	0	35	0	26273120256	19	15036
2026-01-11 19:37:19.52	228.62	42.95	-26.4	-26.7	13.3	4.70e-06	0	35	0	26390560768	19	14956
2026-01-11 19:37:20.52	229.35	43.17	-26.5	-26.8	13.4	0.00e+00	0	35	0	26499612672	19	15168
2026-01-11 19:37:21.52	230.08	43.38	-26.3	-26.6	13.4	0.00e+00	0	35	0	26608664576	19	14865
2026-01-11 19:37:22.53	230.83	43.59	-26.2	-26.5	13.4	0.00e+00	0	35	0	26726105088	19	14667
2026-01-11 19:37:23.53	231.58	43.79	-26.2	-26.5	13.4	0.00e+00	0	35	0	26835156992	19	14610
2026-01-11 19:37:24.53	232.34	43.99	-26.1	-26.4	13.4	0.00e+00	0	35	0	26952597504	19	14474
2026-01-11 19:37:25.53	233.12	44.19	-26.1	-26.3	13.4	0.00e+00	0	35	0	27061649408	19	14411
2026-01-11 19:37:26.53	233.90	44.38	-26.0	-26.3	13.4	0.00e+00	0	35	0	27179089920	19	14285
2026-01-11 19:37:27.53	234.69	44.57	-25.9	-26.2	13.4	0.00e+00	0	35	0	27288141824	19	14179
2026-01-11 19:37:28.53	235.49	44.75	-26.0	-26.3	13.4	0.00e+00	0	35	0	27397193728	19	14284
2026-01-11 19:37:29.54	236.31	44.92	-25.9	-26.2	13.4	0.00e+00	0	35	0	27514634240	19	14130
2026-01-11 19:37:30.55	237.14	45.10	-25.8	-26.1	13.4	0.00e+00	0	35	0	27632074752	18	14824
2026-01-11 19:37:31.56	237.98	45.26	-25.8	-26.1	13.4	0.00e+00	0	35	0	27741126656	18	14851
2026-01-11 19:37:32.56	238.81	45.42	-25.7	-26.0	13.4	0.00e+00	0	36	0	27858567168	18	14702
2026-01-11 19:37:33.56	239.66	45.58	-25.8	-26.0	13.4	0.00e+00	0	35	0	27967619072	18	14761
2026-01-11 19:37:34.57	240.52	45.72	-25.7	-26.0	13.4	0.00e+00	0	35	0	28076670976	18	14638
2026-01-11 19:37:35.58	241.39	45.87	-25.7	-26.0	13.4	0.00e+00	0	35	0	28194111488	18	14624
2026-01-11 19:37:36.59	242.27	46.00	-25.7	-26.0	13.4	0.00e+00	0	35	0	28303163392	18	14713
2026-01-11 19:37:37.59	243.15	46.13	-25.6	-25.9	13.4	0.00e+00	0	35	0	28420603904	18	14509
2026-01-11 19:37:38.59	244.04	46.25	-25.6	-25.8	13.4	0.00e+00	0	35	0	28529655808	18	14416
2026-01-11 19:37:39.60	244.94	46.37	-25.5	-25.8	13.4	0.00e+00	0	35	0	28647096320	18	14287
2026-01-11 19:37:40.60	245.83	46.48	-25.5	-25.8	13.4	0.00e+00	0	35	0	28764536832	18	14298
2026-01-11 19:37:41.60	246.74	46.58	-25.6	-25.8	13.4	0.00e+00	0	35	0	28873588736	18	14436
2026-01-11 19:37:42.61	247.66	46.67	-25.6	-25.8	13.4	0.00e+00	0	35	0	28982640640	18	14376
2026-01-11 19:37:43.61	248.57	46.76	-25.6	-25.9	13.4	0.00e+00	0	36	0	29100081152	18	14449
2026-01-11 19:37:44.62	249.50	46.83	-25.7	-25.9	13.4	0.00e+00	0	36	0	29209133056	18	14590
2026-01-11 19:37:45.63	250.44	46.91	-25.7	-25.9	13.3	0.00e+00	0	35	0	29326573568	18	14591
2026-01-11 19:37:46.63	251.37	46.97	-25.6	-25.9	13.4	0.00e+00	0	35	0	29435625472	18	14459
2026-01-11 19:37:47.63	252.30	47.02	-25.6	-25.9	13.4	0.00e+00	0	35	0	29544677376	18	14511
2026-01-11 19:37:48.64	253.24	47.07	-25.7	-25.9	13.4	4.70e-06	0	35	0	29662117888	18	14547
2026-01-11 19:37:49.65	254.19	47.11	-25.6	-25.9	13.4	4.70e-06	0	35	0	29779558400	18	14535
2026-01-11 19:37:50.66	255.14	47.14	-25.7	-26.0	13.4	0.00e+00	0	35	0	29888610304	18	14655
2026-01-11 19:37:51.66	256.08	47.16	-25.8	-26.0	13.3	0.00e+00	0	35	0	30006050816	18	14712
2026-01-11 19:37:52.67	257.03	47.18	-25.7	-26.0	13.4	0.00e+00	0	35	0	30115102720	18	14697
2026-01-11 19:37:53.67	257.98	47.18	-25.8	-26.1	13.3	0.00e+00	0	35	0	30232543232	18	14818
2026-01-11 19:37:54.67	258.92	47.18	-25.8	-26.1	13.3	0.00e+00	0	35	0	30341595136	18	14820
2026-01-11 19:37:55.68	259.87	47.17	-25.8	-26.0	13.3	0.00e+00	0	36	0	30450647040	18	14694
2026-01-11 19:37:56.69	260.82	47.15	-25.8	-26.1	13.3	0.00e+00	0	35	0	30568087552	18	14780
2026-01-11 19:37:57.70	261.77	47.13	-25.8	-26.1	13.3	0.00e+00	0	35	0	30685528064	18	14900
2026-01-11 19:37:58.71	262.72	47.09	-25.8	-26.0	13.3	0.00e+00	0	36	0	30794579968	18	14764
2026-01-11 19:37:59.71	263.66	47.05	-25.7	-25.9	13.4	4.70e-06	0	36	0	30912020480	18	14568
2026-01-11 19:38:00.72	264.60	47.00	-25.7	-25.9	13.4	4.70e-06	0	35	0	31021072384	18	14602
2026-01-11 19:38:01.72	265.53	46.94	-25.7	-25.9	13.3	4.70e-06	0	35	0	31138512896	18	14548
2026-01-11 19:38:02.73	266.47	46.87	-25.6	-25.9	13.3	0.00e+00	0	35	0	31247564800	18	14497
2026-01-11 19:38:03.73	267.39	46.80	-25.7	-26.0	13.3	0.00e+00	0	36	0	31356616704	18	14661
2026-01-11 19:38:04.74	268.32	46.71	-25.8	-26.0	13.3	0.00e+00	0	35	0	31474057216	18	14766
2026-01-11 19:38:05.75	269.24	46.62	-25.7	-25.9	13.3	0.00e+00	0	35	0	31591497728	18	14579
2026-01-11 19:38:06.75	270.14	46.53	-25.7	-26.0	13.3	0.00e+00	0	35	0	31700549632	18	14685
2026-01-11 19:38:07.75	271.04	46.42	-25.8	-26.0	13.3	4.70e-06	0	36	0	31817990144	18	14739
2026-01-11 19:38:08.76	271.95	46.31	-25.8	-26.0	13.3	4.70e-06	0	35	0	31927042048	18	14752
2026-01-11 19:38:09.76	272.83	46.19	-25.9	-26.1	13.3	4.70e-06	0	35	0	32044482560	18	14921
2026-01-11 19:38:10.77	273.72	46.07	-25.8	-26.1	13.3	4.70e-06	0	35	0	32153534464	18	14791
2026-01-11 19:38:11.78	274.60	45.94	-25.9	-26.2	13.3	4.70e-06	0	35	0	32262586368	18	15008
2026-01-11 19:38:12.78	275.47	45.80	-25.9	-26.2	13.3	4.70e-06	0	35	0	32380026880	18	14981
2026-01-11 19:38:13.79	276.34	45.65	-26.0	-26.3	13.3	0.00e+00	0	35	0	32489078784	18	15222
2026-01-11 19:38:14.79	277.18	45.50	-26.1	-26.3	13.3	0.00e+00	0	35	0	32606519296	18	15268
2026-01-11 19:38:15.80	278.03	45.34	-26.2	-26.5	13.2	4.70e-06	0	35	0	32723959808	18	15583
2026-01-11 19:38:16.79	278.86	45.18	-26.2	-26.4	13.3	4.70e-06	0	35	0	32824623104	18	15448
2026-01-11 19:38:17.80	279.69	45.01	-26.3	-26.6	13.2	4.70e-06	0	35	0	32942063616	18	15738
2026-01-11 19:38:18.80	280.50	44.84	-26.3	-26.5	13.2	4.70e-06	0	36	0	33059504128	18	15584
2026-01-11 19:38:19.80	281.31	44.66	-26.3	-26.6	13.2	4.70e-06	0	35	0	33168556032	18	15748
2026-01-11 19:38:20.80	282.10	44.48	-26.4	-26.6	13.2	4.70e-06	0	35	0	33285996544	18	15823
2026-01-11 19:38:21.81	282.90	44.29	-26.4	-26.7	13.2	1.90e-05	0	35	0	33395048448	18	15927
2026-01-11 19:38:22.75	283.63	44.11	-26.5	-26.7	13.2	1.90e-05	0	35	0	33512488960	18	15993
2026-01-11 19:38:23.75	284.39	43.91	-26.3	-26.6	13.2	1.90e-05	0	35	0	33621540864	18	15780
2026-01-11 19:38:24.75	285.15	43.71	-26.4	-26.7	13.2	4.70e-06	0	35	0	33730592768	18	15856
2026-01-11 19:38:25.76	285.91	43.51	-26.3	-26.6	13.3	4.70e-06	0	35	0	33848033280	18	15782
2026-01-11 19:38:26.76	286.64	43.30	-26.4	-26.7	13.3	1.43e-05	0	35	0	33957085184	18	15866
2026-01-11 19:38:27.76	287.37	43.09	-26.4	-26.7	13.3	1.43e-05	0	35	0	34074525696	18	15869
2026-01-11 19:38:28.77	288.09	42.87	-26.5	-26.8	13.3	1.43e-05	0	35	0	34191966208	18	16043
2026-01-11 19:38:29.78	288.81	42.65	-26.5	-26.8	13.3	9.50e-06	0	36	0	34301018112	18	16172
2026-01-11 19:38:30.78	289.51	42.42	-26.6	-26.9	13.3	9.50e-06	0	35	0	34418458624	18	16257
2026-01-11 19:38:31.78	290.19	42.20	-26.7	-26.9	13.3	9.50e-06	0	36	0	34527510528	19	15451
2026-01-11 19:38:32.79	290.88	41.97	-26.7	-27.0	13.3	9.50e-06	0	35	0	34636562432	19	15503
2026-01-11 19:38:33.80	291.55	41.74	-26.8	-27.1	13.3	9.50e-06	0	36	0	34754002944	19	15750
2026-01-11 19:38:34.81	292.22	41.50	-26.9	-27.2	13.3	9.50e-06	0	36	0	34863054848	19	15889
2026-01-11 19:38:35.80	292.86	41.27	-26.9	-27.2	13.3	1.43e-05	0	36	0	34980495360	19	15864
2026-01-11 19:38:36.81	293.50	41.03	-26.9	-27.2	13.3	1.43e-05	0	36	0	35089547264	19	15927
2026-01-11 19:38:37.81	294.13	40.79	-27.1	-27.3	13.3	1.43e-05	0	35	0	35198599168	19	16170
2026-01-11 19:38:38.82	294.75	40.54	-26.9	-27.2	13.3	4.70e-06	0	36	0	35316039680	20	15079
2026-01-11 19:38:39.82	295.36	40.30	-27.1	-27.3	13.3	4.70e-06	0	35	0	35433480192	20	15289
2026-01-11 19:38:40.83	295.97	40.06	-27.0	-27.3	13.3	4.70e-06	0	35	0	35542532096	20	15134
2026-01-11 19:38:41.84	296.57	39.81	-27.1	-27.4	13.3	0.00e+00	0	35	0	35659972608	20	15319
2026-01-11 19:38:42.84	297.15	39.56	-27.1	-27.4	13.3	0.00e+00	0	36	0	35769024512	20	15322
2026-01-11 19:38:43.85	297.72	39.31	-27.1	-27.3	13.3	0.00e+00	0	35	0	35886465024	20	15289
2026-01-11 19:38:44.85	298.29	39.06	-27.1	-27.4	13.3	0.00e+00	0	36	0	35995516928	20	15315
2026-01-11 19:38:45.85	298.84	38.81	-27.1	-27.4	13.3	0.00e+00	0	36	0	36104568832	20	15305
2026-01-11 19:38:46.86	299.39	38.56	-27.2	-27.5	13.3	0.00e+00	0	35	0	36222009344	20	15516
2026-01-11 19:38:47.86	299.93	38.31	-27.2	-27.5	13.3	0.00e+00	0	36	0	36331061248	20	15619
2026-01-11 19:38:48.86	300.45	38.06	-27.2	-27.5	13.3	4.70e-06	0	36	0	36448501760	20	15601
2026-01-11 19:38:49.87	300.98	37.80	-27.4	-27.6	13.3	4.70e-06	0	35	0	36565942272	20	15832
2026-01-11 19:38:50.88	301.49	37.55	-27.4	-27.6	13.3	4.70e-06	0	36	0	36674994176	20	15804
2026-01-11 19:38:51.88	302.00	37.30	-27.4	-27.7	13.3	4.70e-06	0	35	0	36784046080	20	15921
2026-01-11 19:38:52.89	302.50	37.04	-27.5	-27.8	13.3	4.70e-06	0	36	0	36901486592	20	16023
2026-01-11 19:38:53.89	302.98	36.79	-27.6	-27.9	13.3	0.00e+00	0	35	0	37010538496	20	16243
2026-01-11 19:38:54.90	303.47	36.53	-27.7	-27.9	13.3	0.00e+00	0	36	0	37127979008	21	15426
2026-01-11 19:38:55.91	303.94	36.28	-27.7	-28.0	13.3	0.00e+00	0	36	0	37237030912	21	15489
2026-01-11 19:38:56.92	304.41	36.03	-27.8	-28.1	13.3	1.43e-05	0	36	0	37354471424	21	15667
2026-01-11 19:38:57.92	304.86	35.77	-27.9	-28.1	13.3	1.43e-05	0	35	0	37471911936	21	15789
2026-01-11 19:38:58.93	305.32	35.52	-28.0	-28.3	13.3	1.43e-05	0	36	0	37580963840	21	16037
2026-01-11 19:38:59.94	305.76	35.27	-28.1	-28.4	13.2	4.70e-06	0	36	0	37690015744	21	16255
2026-01-11 19:39:00.94	306.20	35.02	-28.2	-28.5	13.3	4.70e-06	0	36	0	37807456256	22	15536
2026-01-11 19:39:01.95	306.63	34.77	-28.2	-28.5	13.3	4.70e-06	0	36	0	37916508160	22	15564
2026-01-11 19:39:02.96	307.05	34.51	-28.4	-28.7	13.2	4.70e-06	0	36	0	38033948672	22	15858
2026-01-11 19:39:03.97	307.47	34.26	-28.5	-28.8	13.2	4.70e-06	0	36	0	38151389184	22	16023
2026-01-11 19:39:04.97	307.88	34.02	-28.5	-28.8	13.2	4.70e-06	0	36	0	38260441088	22	16140
2026-01-11 19:39:05.97	308.28	33.77	-28.6	-28.9	13.2	4.70e-06	0	36	0	38377881600	23	15297
2026-01-11 19:39:06.98	308.67	33.52	-28.7	-29.0	13.2	4.70e-06	0	36	0	38486933504	23	15607
2026-01-11 19:39:07.98	309.06	33.28	-28.7	-29.0	13.2	4.70e-06	0	36	0	38595985408	23	15604
2026-01-11 19:39:08.99	309.45	33.03	-28.8	-29.1	13.2	4.70e-06	0	36	0	38713425920	23	15695
2026-01-11 19:39:10.00	309.83	32.79	-28.9	-29.2	13.2	4.70e-06	0	36	0	38822477824	23	15848
2026-01-11 19:39:11.00	310.20	32.54	-28.8	-29.1	13.2	4.70e-06	0	36	0	38939918336	23	15730
2026-01-11 19:39:12.00	310.56	32.30	-29.0	-29.3	13.2	4.70e-06	0	36	0	39048970240	23	16040
2026-01-11 19:39:13.01	310.92	32.06	-28.9	-29.2	13.2	4.70e-06	0	35	0	39158022144	23	16007
2026-01-11 19:39:14.02	311.28	31.82	-29.0	-29.3	13.2	1.43e-05	0	36	0	39275462656	23	16108
2026-01-11 19:39:15.03	311.63	31.58	-29.1	-29.4	13.2	1.43e-05	0	36	0	39392903168	23	16247
2026-01-11 19:39:16.03	311.97	31.35	-29.3	-29.5	13.2	2.38e-05	0	36	0	39501955072	24	15636
2026-01-11 19:39:17.03	312.31	31.11	-29.4	-29.6	13.2	2.38e-05	0	36	0	39619395584	24	15808
2026-01-11 19:39:18.04	312.64	30.88	-29.4	-29.7	13.1	2.38e-05	0	36	0	39728447488	24	15976
2026-01-11 19:39:19.04	312.97	30.64	-29.6	-29.9	13.1	1.43e-05	0	36	0	39845888000	24	16203
2026-01-11 19:39:20.04	313.29	30.41	-29.7	-30.0	13.1	1.43e-05	0	36	0	39954939904	25	15599
2026-01-11 19:39:21.05	313.61	30.18	-29.8	-30.1	13.1	1.43e-05	0	35	0	40063991808	25	15709
2026-01-11 19:39:22.05	313.92	29.95	-29.8	-30.1	13.1	3.81e-05	0	36	0	40181432320	25	15792
2026-01-11 19:39:23.06	314.23	29.72	-29.8	-30.1	13.1	3.81e-05	0	36	0	40290484224	25	15750
2026-01-11 19:39:24.07	314.54	29.50	-29.9	-30.2	13.1	3.33e-05	0	36	0	40407924736	25	15968
2026-01-11 19:39:25.07	314.84	29.27	-30.1	-30.3	13.1	3.33e-05	0	36	0	40525365248	25	16185
2026-01-11 19:39:26.08	315.13	29.05	-30.1	-30.4	13.1	3.81e-05	0	36	0	40634417152	25	16243
2026-01-11 19:39:27.08	315.42	28.82	-30.2	-30.5	13.1	3.81e-05	0	36	0	40743469056	26	15539
2026-01-11 19:39:28.08	315.71	28.60	-30.3	-30.5	13.1	3.81e-05	0	36	0	40860909568	26	15631
2026-01-11 19:39:29.08	315.99	28.38	-30.3	-30.6	13.1	3.33e-05	0	36	0	40969961472	26	15822
2026-01-11 19:39:30.09	316.27	28.17	-30.5	-30.8	13.1	3.33e-05	0	36	0	41087401984	26	16094
2026-01-11 19:39:31.10	316.54	27.95	-30.6	-30.9	13.1	7.15e-05	0	36	0	41196453888	26	16215
2026-01-11 19:39:32.11	316.81	27.73	-30.5	-30.8	13.1	7.15e-05	0	36	0	41313894400	27	15277
2026-01-11 19:39:33.12	317.08	27.51	-30.5	-30.8	13.1	7.15e-05	0	36	0	41422946304	27	15175
2026-01-11 19:39:34.12	317.34	27.30	-30.6	-30.9	13.1	2.86e-05	0	36	0	41540386816	27	15297
2026-01-11 19:39:35.13	317.60	27.09	-30.6	-30.9	13.1	2.86e-05	0	36	0	41649438720	27	15388
2026-01-11 19:39:36.14	317.86	26.88	-30.8	-31.1	13.0	4.76e-05	0	36	0	41766879232	27	15668
2026-01-11 19:39:37.14	318.11	26.67	-31.0	-31.3	13.0	4.76e-05	0	35	0	41875931136	27	16048
2026-01-11 19:39:38.14	318.36	26.46	-31.1	-31.4	13.0	4.76e-05	0	36	0	41993371648	27	16211
2026-01-11 19:39:39.14	318.60	26.26	-31.0	-31.3	13.1	1.52e-04	0	36	0	42102423552	28	15190
2026-01-11 19:39:40.15	318.84	26.05	-31.1	-31.4	13.1	1.52e-04	0	36	0	42219864064	28	15360
2026-01-11 19:39:41.16	319.08	25.85	-31.1	-31.4	13.1	1.52e-04	0	36	0	42328915968	28	15409
2026-01-11 19:39:42.16	319.31	25.65	-31.2	-31.5	13.0	1.52e-04	0	36	0	42437967872	28	15616
2026-01-11 19:39:43.17	319.55	25.45	-31.3	-31.6	13.0	8.10e-05	0	36	0	42555408384	28	15700
2026-01-11 19:39:44.18	319.78	25.25	-31.4	-31.6	13.0	8.10e-05	0	36	0	42672848896	28	15828
2026-01-11 19:39:45.18	320.00	25.05	-31.4	-31.6	13.0	1.43e-04	0	36	0	42781900800	28	15809
2026-01-11 19:39:46.18	320.22	24.86	-31.5	-31.8	13.0	1.43e-04	0	36	0	42899341312	28	16089
2026-01-11 19:39:47.19	320.44	24.66	-31.5	-31.8	12.8	1.43e-04	0	36	0	43008393216	28	16155
2026-01-11 19:39:48.20	320.66	24.47	-31.6	-31.9	13.0	2.34e-04	0	36	0	43117445120	29	15356
2026-01-11 19:39:49.21	320.87	24.27	-31.7	-32.0	13.0	2.34e-04	0	36	0	43234885632	29	15477
2026-01-11 19:39:50.22	321.08	24.08	-31.7	-31.9	12.9	2.34e-04	0	36	0	43352326144	29	15464
2026-01-11 19:39:51.22	321.29	23.89	-31.7	-32.0	12.8	2.38e-04	0	36	0	43461378048	29	15550
2026-01-11 19:39:52.23	321.50	23.70	-31.8	-32.1	13.0	2.38e-04	0	36	0	43578818560	29	15675
2026-01-11 19:39:53.24	321.70	23.52	-31.9	-32.1	13.0	2.38e-04	0	36	0	43687870464	29	15831
2026-01-11 19:39:54.23	321.90	23.33	-31.9	-32.2	13.0	2.38e-04	0	36	0	43805310976	29	15966
2026-01-11 19:39:55.24	322.09	23.15	-32.0	-32.3	13.0	2.62e-04	0	36	0	43914362880	30	15210
2026-01-11 19:39:56.25	322.29	22.96	-32.0	-32.2	13.0	2.62e-04	0	36	0	44023414784	30	15101
2026-01-11 19:39:57.25	322.48	22.78	-32.0	-32.3	13.0	2.62e-04	0	36	0	44140855296	30	15128
2026-01-11 19:39:58.26	322.67	22.60	-32.0	-32.3	12.9	2.62e-04	0	36	0	44249907200	30	15140
2026-01-11 19:39:59.26	322.86	22.42	-32.1	-32.4	12.9	1.67e-04	0	36	0	44367347712	30	15379
2026-01-11 19:40:00.27	323.04	22.25	-32.1	-32.4	13.0	1.67e-04	0	36	0	44484788224	30	15377
2026-01-11 19:40:01.28	323.23	22.07	-32.2	-32.5	13.0	1.67e-04	0	36	0	44593840128	30	15496
2026-01-11 19:40:02.28	323.41	21.89	-32.3	-32.6	12.9	1.67e-04	0	36	0	44711280640	30	15671
2026-01-11 19:40:03.29	323.59	21.72	-32.5	-32.8	12.9	1.67e-04	0	36	0	44820332544	30	16065
2026-01-11 19:40:04.30	323.76	21.55	-32.5	-32.7	12.8	2.62e-04	0	36	0	44929384448	31	15115
2026-01-11 19:40:05.30	323.94	21.37	-32.8	-33.1	12.8	2.62e-04	0	36	0	45046824960	31	15687
2026-01-11 19:40:06.30	324.11	21.20	-32.8	-33.1	12.8	7.15e-04	0	36	0	45155876864	31	15753
2026-01-11 19:40:07.30	324.28	21.04	-32.9	-33.2	12.8	7.15e-04	0	36	0	45273317376	31	15907
2026-01-11 19:40:08.31	324.45	20.87	-32.8	-33.1	12.9	4.86e-04	0	36	0	45382369280	31	15678
2026-01-11 19:40:09.31	324.61	20.70	-32.8	-33.1	12.9	4.86e-04	0	36	0	45491421184	31	15742
2026-01-11 19:40:10.31	324.77	20.54	-32.9	-33.2	12.9	4.86e-04	0	36	0	45608861696	31	15838
2026-01-11 19:40:11.32	324.94	20.37	-32.8	-33.1	12.8	4.86e-04	0	36	0	45726302208	31	15797
2026-01-11 19:40:12.33	325.10	20.21	-32.9	-33.2	12.7	6.53e-04	0	36	0	45835354112	31	15900
2026-01-11 19:40:13.34	325.26	20.04	-33.0	-33.3	12.8	6.53e-04	0	36	0	45952794624	31	16125
2026-01-11 19:40:14.35	325.41	19.88	-33.0	-33.3	12.9	6.53e-04	0	36	0	46061846528	32	15197
2026-01-11 19:40:15.35	325.57	19.72	-33.1	-33.4	12.9	7.34e-04	0	36	0	46179287040	32	15440
2026-01-11 19:40:16.35	325.72	19.57	-33.0	-33.3	12.9	7.34e-04	0	36	0	46288338944	32	15256
2026-01-11 19:40:17.35	325.87	19.41	-33.0	-33.3	12.9	7.34e-04	0	36	0	46397390848	32	15232
2026-01-11 19:40:18.36	326.02	19.25	-33.2	-33.4	12.9	3.86e-04	0	36	0	46514831360	32	15464
2026-01-11 19:40:19.37	326.17	19.09	-33.2	-33.5	12.8	3.86e-04	0	36	0	46632271872	32	15513
2026-01-11 19:40:20.38	326.31	18.94	-33.2	-33.5	12.8	4.43e-04	0	36	0	46741323776	32	15641
2026-01-11 19:40:21.39	326.46	18.79	-33.3	-33.6	12.8	4.43e-04	0	36	0	46858764288	32	15732
2026-01-11 19:40:22.39	326.60	18.63	-33.3	-33.6	12.8	5.82e-04	0	36	0	46967816192	32	15719
2026-01-11 19:40:23.40	326.74	18.48	-33.4	-33.7	12.8	5.82e-04	0	36	0	47085256704	32	15994
2026-01-11 19:40:24.41	326.88	18.33	-33.5	-33.8	12.8	5.82e-04	0	36	0	47194308608	32	16116
2026-01-11 19:40:25.41	327.02	18.18	-33.5	-33.8	12.8	7.06e-04	0	36	0	47303360512	32	16188
2026-01-11 19:40:26.42	327.16	18.03	-33.5	-33.8	12.7	7.06e-04	0	36	0	47420801024	32	16086
2026-01-11 19:40:27.42	327.29	17.89	-33.6	-33.9	12.8	4.77e-04	0	36	0	47538241536	33	15304
2026-01-11 19:40:28.42	327.42	17.74	-33.6	-33.9	12.8	4.77e-04	0	36	0	47647293440	33	15312
2026-01-11 19:40:29.42	327.56	17.60	-33.6	-33.9	12.8	4.77e-04	0	36	0	47764733952	33	15462
2026-01-11 19:40:30.43	327.69	17.45	-33.6	-34.0	12.8	4.00e-04	0	36	0	47873785856	33	15495
2026-01-11 19:40:31.44	327.82	17.31	-33.7	-34.0	12.8	4.00e-04	0	36	0	47982837760	33	15508
2026-01-11 19:40:32.45	327.95	17.16	-33.7	-34.1	12.7	4.00e-04	0	36	0	48100278272	33	15658
2026-01-11 19:40:33.45	328.07	17.02	-33.7	-34.0	12.7	5.29e-04	0	36	0	48209330176	33	15646
2026-01-11 19:40:34.46	328.20	16.88	-33.8	-34.2	12.7	5.29e-04	0	36	0	48326770688	33	15853
2026-01-11 19:40:35.46	328.32	16.74	-33.9	-34.2	12.7	7.44e-04	0	36	0	48435822592	33	16009
2026-01-11 19:40:36.47	328.44	16.60	-34.0	-34.3	12.7	7.44e-04	0	36	0	48553263104	33	16158
2026-01-11 19:40:37.47	328.56	16.47	-34.0	-34.3	12.7	7.44e-04	0	36	0	48670703616	33	16043
2026-01-11 19:40:38.48	328.69	16.33	-34.0	-34.3	12.7	8.44e-04	0	36	0	48779755520	33	16077
2026-01-11 19:40:39.48	328.80	16.19	-34.1	-34.4	12.7	8.44e-04	0	36	0	48888807424	33	16253
2026-01-11 19:40:40.48	328.92	16.06	-34.1	-34.4	12.7	8.44e-04	0	36	0	49006247936	34	15452
2026-01-11 19:40:41.48	329.04	15.92	-34.3	-34.6	12.7	9.68e-04	0	36	0	49115299840	34	15783
2026-01-11 19:40:42.49	329.15	15.79	-34.2	-34.6	12.7	9.68e-04	0	36	0	49232740352	34	15657
2026-01-11 19:40:43.49	329.27	15.66	-34.3	-34.6	12.7	1.02e-03	0	36	0	49341792256	34	15813
2026-01-11 19:40:44.50	329.38	15.52	-34.5	-34.8	12.6	1.02e-03	0	36	0	49450844160	34	16053
2026-01-11 19:40:45.51	329.49	15.39	-34.4	-34.8	12.6	1.02e-03	0	36	0	49568284672	34	16036
2026-01-11 19:40:46.52	329.60	15.26	-34.6	-35.0	12.6	1.38e-03	0	36	0	49685725184	35	15492
2026-01-11 19:40:47.53	329.71	15.13	-34.6	-34.9	12.6	1.38e-03	0	36	0	49794777088	35	15340
2026-01-11 19:40:48.53	329.82	15.00	-34.6	-34.9	12.6	1.53e-03	0	36	0	49912217600	35	15347
2026-01-11 19:40:49.53	329.93	14.88	-34.7	-35.0	12.6	1.53e-03	0	36	0	50021269504	35	15609
2026-01-11 19:40:50.54	330.04	14.75	-34.8	-35.1	12.6	1.53e-03	0	36	0	50138710016	35	15764
2026-01-11 19:40:51.54	330.14	14.62	-34.8	-35.1	12.6	1.75e-03	0	36	0	50247761920	35	15696
2026-01-11 19:40:52.54	330.25	14.50	-34.8	-35.1	12.6	1.75e-03	0	36	0	50356813824	35	15807
2026-01-11 19:40:53.54	330.35	14.37	-34.8	-35.1	12.6	1.75e-03	0	36	0	50474254336	35	15801
2026-01-11 19:40:54.54	330.45	14.25	-35.0	-35.3	12.5	2.01e-03	0	36	0	50583306240	35	16058
2026-01-11 19:40:55.55	330.55	14.13	-34.9	-35.2	12.6	2.01e-03	0	36	0	50700746752	35	15940
2026-01-11 19:40:56.55	330.65	14.01	-34.9	-35.2	12.6	2.01e-03	0	36	0	50809798656	35	15957
2026-01-11 19:40:57.56	330.75	13.88	-34.9	-35.2	12.5	2.20e-03	0	36	0	50918850560	35	16008
2026-01-11 19:40:58.57	330.85	13.76	-35.0	-35.3	12.5	2.20e-03	0	36	0	51044679680	35	16100
2026-01-11 19:40:59.58	330.95	13.64	-35.0	-35.3	12.5	2.52e-03	0	36	0	51153731584	35	16186
2026-01-11 19:41:00.58	331.05	13.52	-35.0	-35.3	12.5	2.52e-03	0	36	0	51262783488	35	16166
2026-01-11 19:41:01.59	331.15	13.40	-35.0	-35.4	12.5	2.52e-03	0	36	0	51380224000	35	16255
2026-01-11 19:41:02.60	331.24	13.28	-35.1	-35.4	12.5	2.52e-03	0	36	0	51489275904	35	16307
2026-01-11 19:41:03.61	331.34	13.17	-37.7	-38.0	12.7	2.81e-03	0	36	0	51606716416	41	15622
2026-01-11 19:41:04.62	331.43	13.05	-37.7	-38.1	12.7	2.81e-03	0	36	0	51724156928	41	15668
2026-01-11 19:41:05.62	331.52	12.93	-37.8	-38.1	12.6	1.44e-03	0	36	0	51833208832	41	15761
2026-01-11 19:41:06.62	331.61	12.82	-37.9	-38.2	12.6	1.44e-03	0	36	0	51950649344	41	15900
2026-01-11 19:41:07.63	331.71	12.70	-38.0	-38.3	12.6	1.44e-03	0	36	0	52059701248	41	16041
2026-01-11 19:41:08.63	331.80	12.59	-38.0	-38.3	12.6	1.29e-03	0	36	0	52168753152	41	16055
2026-01-11 19:41:09.63	331.89	12.48	-38.1	-38.4	12.6	1.29e-03	0	36	0	52286193664	41	16315
2026-01-11 19:41:10.63	331.97	12.36	-38.1	-38.4	12.6	1.29e-03	0	36	0	52395245568	42	15389
2026-01-11 19:41:11.64	332.06	12.25	-38.2	-38.5	12.6	1.48e-03	0	36	0	52512686080	42	15488
2026-01-11 19:41:12.65	332.15	12.14	-38.2	-38.5	12.6	1.48e-03	0	36	0	52621737984	42	15649
2026-01-11 19:41:13.66	332.24	12.03	-38.4	-38.7	12.6	1.58e-03	0	36	0	52730789888	42	15872
2026-01-11 19:41:14.66	332.32	11.92	-38.3	-38.7	12.6	1.58e-03	0	36	0	52848230400	42	15841
2026-01-11 19:41:15.67	332.41	11.81	-38.3	-38.7	12.6	1.79e-03	0	36	0	52965670912	42	15840
2026-01-11 19:41:16.68	332.49	11.70	-38.4	-38.7	12.5	1.79e-03	0	36	0	53074722816	42	15992
2026-01-11 19:41:17.68	332.58	11.59	-38.5	-38.8	12.5	1.79e-03	0	36	0	53192163328	42	16154
2026-01-11 19:41:18.69	332.66	11.48	-38.5	-38.8	12.5	2.06e-03	0	36	0	53301215232	42	16107
2026-01-11 19:41:19.69	332.74	11.37	-38.4	-38.8	12.5	2.06e-03	0	36	0	53418655744	42	16045
2026-01-11 19:41:20.69	332.82	11.27	-38.6	-38.9	12.5	2.45e-03	0	36	0	53527707648	42	16359
2026-01-11 19:41:21.69	332.90	11.16	-38.7	-39.0	12.5	2.45e-03	0	36	0	53636759552	43	15492
2026-01-11 19:41:22.69	332.98	11.05	-38.6	-38.9	12.5	2.45e-03	0	36	0	53754200064	43	15340
2026-01-11 19:41:23.69	333.06	10.95	-38.5	-38.8	12.5	2.26e-03	0	36	0	53863251968	43	15256
2026-01-11 19:41:24.70	333.14	10.84	-38.5	-38.8	12.5	2.26e-03	0	36	0	53980692480	43	15273
2026-01-11 19:41:25.70	333.22	10.74	-38.6	-38.9	12.5	2.26e-03	0	36	0	54089744384	43	15399
2026-01-11 19:41:26.70	333.30	10.64	-38.7	-39.0	12.5	2.20e-03	0	36	0	54198796288	43	15642
2026-01-11 19:41:27.71	333.37	10.53	-38.9	-39.2	12.5	2.20e-03	0	36	0	54316236800	43	15863
2026-01-11 19:41:28.71	333.45	10.43	-38.9	-39.2	12.4	2.74e-03	0	36	0	54425288704	43	16007
2026-01-11 19:41:29.72	333.52	10.33	-38.8	-39.1	12.5	2.74e-03	0	36	0	54542729216	43	15716
2026-01-11 19:41:30.73	333.60	10.23	-38.9	-39.2	12.4	2.74e-03	0	36	0	54660169728	43	15903
2026-01-11 19:41:31.74	333.68	10.13	-38.8	-39.1	12.5	3.22e-03	0	36	0	54769221632	43	15729
2026-01-11 19:41:32.74	333.75	10.03	-38.8	-39.2	12.4	3.22e-03	0	36	0	54886662144	43	15860
2026-01-11 19:41:33.75	333.82	9.93	-38.9	-39.2	12.4	3.22e-03	0	37	0	54995714048	43	15909
2026-01-11 19:41:34.75	333.90	9.83	-38.9	-39.3	12.4	3.27e-03	0	36	0	55104765952	43	16043
2026-01-11 19:41:35.76	333.97	9.73	-39.0	-39.3	12.4	3.27e-03	0	36	0	55222206464	43	16131
2026-01-11 19:41:36.76	334.04	9.63	-39.2	-39.5	12.4	3.27e-03	0	36	0	55331258368	44	15530
2026-01-11 19:41:37.76	334.11	9.53	-39.1	-39.4	12.4	3.86e-03	0	36	0	55448698880	44	15431
2026-01-11 19:41:38.76	334.18	9.44	-39.1	-39.4	12.4	3.86e-03	0	36	0	55557750784	44	15423
2026-01-11 19:41:39.77	334.25	9.34	-39.2	-39.5	12.4	4.11e-03	0	36	0	55666802688	44	15541
2026-01-11 19:41:40.77	334.32	9.24	-39.2	-39.5	12.4	4.11e-03	0	36	0	55792631808	44	15603
2026-01-11 19:41:41.77	334.39	9.15	-39.2	-39.6	12.4	4.11e-03	0	36	0	55901683712	44	15690
2026-01-11 19:41:42.78	334.46	9.05	-39.3	-39.7	12.3	4.48e-03	0	36	0	56010735616	44	15913
2026-01-11 19:41:43.78	334.52	8.96	-39.4	-39.7	12.3	4.48e-03	0	36	0	56128176128	44	16007
2026-01-11 19:41:44.79	334.59	8.86	-39.5	-39.8	12.3	4.48e-03	0	36	0	56237228032	44	16116
2026-01-11 19:41:45.79	334.66	8.77	-39.5	-39.8	12.3	4.48e-03	0	36	0	56354668544	44	16134
2026-01-11 19:41:46.80	334.73	8.67	-39.6	-40.0	12.3	5.63e-03	0	36	0	56463720448	45	15520
2026-01-11 19:41:47.80	334.79	8.58	-39.7	-40.0	12.3	5.63e-03	0	36	0	56572772352	45	15576
2026-01-11 19:41:48.81	334.86	8.49	-39.7	-40.1	12.3	6.47e-03	0	36	0	56690212864	45	15674
2026-01-11 19:41:49.81	334.92	8.39	-39.8	-40.2	12.2	6.47e-03	0	36	0	56799264768	45	15860
2026-01-11 19:41:50.82	334.99	8.30	-40.0	-40.3	12.2	7.47e-03	0	36	0	56916705280	45	16128
2026-01-11 19:41:51.83	335.05	8.21	-40.0	-40.4	12.2	7.47e-03	0	36	0	57034145792	45	16215
2026-01-11 19:41:52.83	335.12	8.12	-39.9	-40.2	12.2	7.47e-03	0	36	0	57143197696	45	15985
2026-01-11 19:41:53.84	335.18	8.03	-39.9	-40.2	12.2	8.61e-03	0	36	0	57260638208	45	16012
2026-01-11 19:41:54.84	335.24	7.94	-40.0	-40.3	12.2	8.61e-03	0	36	0	57369690112	45	16153
2026-01-11 19:41:55.84	335.30	7.85	-40.1	-40.4	12.2	8.61e-03	0	36	0	57478742016	45	16315
2026-01-11 19:41:56.85	335.37	7.76	-40.1	-40.4	12.1	9.04e-03	0	36	0	57596182528	45	16383
2026-01-11 19:41:57.85	335.43	7.67	-40.2	-40.5	12.2	9.04e-03	0	36	0	57705234432	46	15571
2026-01-11 19:41:58.86	335.49	7.58	-40.2	-40.6	12.1	9.04e-03	0	36	0	57822674944	46	15751
2026-01-11 19:41:59.86	335.55	7.49	-40.2	-40.5	12.1	9.04e-03	0	36	0	57931726848	46	15593
2026-01-11 19:42:00.87	335.61	7.40	-40.3	-40.7	12.1	1.06e-02	0	36	0	58040778752	46	15879
2026-01-11 19:42:01.87	335.67	7.31	-40.2	-40.6	12.1	1.06e-02	0	36	0	58158219264	46	15708
2026-01-11 19:42:02.88	335.73	7.23	-40.5	-40.8	12.1	1.06e-02	0	36	0	58275659776	46	16136
2026-01-11 19:42:03.89	335.79	7.14	-40.5	-40.9	12.0	1.16e-02	0	36	0	58384711680	46	16242
2026-01-11 19:42:04.90	335.85	7.05	-40.5	-40.9	12.1	1.16e-02	0	36	0	58502152192	47	15326
2026-01-11 19:42:05.91	335.90	6.97	-40.6	-40.9	12.1	1.31e-02	0	36	0	58611204096	47	15378
2026-01-11 19:42:06.92	335.96	6.88	-40.7	-41.0	12.0	1.31e-02	0	36	0	58728644608	47	15613
2026-01-11 19:42:07.92	336.02	6.79	-40.6	-40.9	12.1	1.31e-02	0	36	0	58846085120	47	15447
2026-01-11 19:42:08.93	336.08	6.71	-40.7	-41.0	12.0	1.31e-02	0	36	0	58955137024	47	15567
2026-01-11 19:42:09.93	336.13	6.62	-40.7	-41.0	12.0	1.36e-02	0	37	0	59064188928	47	15584
2026-01-11 19:42:10.93	336.19	6.54	-40.8	-41.2	12.0	1.36e-02	0	37	0	59181629440	47	15919
2026-01-11 19:42:11.95	336.24	6.46	-41.0	-41.3	11.9	1.36e-02	0	36	0	59290681344	47	16186
2026-01-11 19:42:12.95	336.30	6.37	-40.8	-41.2	12.0	1.67e-02	0	36	0	59408121856	47	15863
2026-01-11 19:42:13.96	336.36	6.29	-40.8	-41.1	12.0	1.67e-02	0	36	0	59517173760	47	15782
2026-01-11 19:42:14.97	336.41	6.20	-41.0	-41.3	11.9	1.67e-02	0	36	0	59626225664	47	16137
2026-01-11 19:42:15.97	336.46	6.12	-40.8	-41.2	12.0	1.71e-02	0	36	0	59752054784	47	15877
2026-01-11 19:42:16.98	336.52	6.04	-40.9	-41.3	11.9	1.71e-02	0	36	0	59861106688	47	16104
2026-01-11 19:42:17.98	336.57	5.96	-41.9	-42.3	12.0	1.71e-02	0	36	0	59970158592	49	16062
2026-01-11 19:42:19.00	336.63	5.87	-41.9	-42.3	12.0	1.71e-02	0	36	0	60087599104	49	16048
2026-01-11 19:42:20.00	336.68	5.79	-42.0	-42.3	12.0	1.54e-02	0	36	0	60196651008	49	16156
2026-01-11 19:42:21.00	336.73	5.71	-41.8	-42.1	12.0	1.54e-02	0	37	0	60314091520	49	15828
2026-01-11 19:42:22.01	336.78	5.63	-42.1	-42.4	12.0	1.46e-02	0	36	0	60423143424	49	16307
2026-01-11 19:42:23.00	336.84	5.55	-41.9	-42.2	12.0	1.46e-02	0	37	0	60532195328	49	15960
2026-01-11 19:42:24.01	336.89	5.47	-42.0	-42.4	12.0	1.46e-02	0	36	0	60649635840	49	16218
2026-01-11 19:42:25.01	336.94	5.39	-41.9	-42.2	12.0	1.48e-02	0	36	0	60758687744	49	15990
2026-01-11 19:42:26.02	336.99	5.31	-42.1	-42.4	11.9	1.48e-02	0	36	0	60876128256	49	16362
2026-01-11 19:42:27.03	337.04	5.23	-42.4	-42.7	11.9	1.48e-02	0	37	0	60993568768	50	15975
2026-01-11 19:42:28.03	337.09	5.15	-42.4	-42.7	11.9	1.48e-02	0	37	0	61102620672	50	15944
2026-01-11 19:42:29.04	337.14	5.08	-42.3	-42.6	11.9	1.87e-02	0	37	0	61220061184	50	15749
2026-01-11 19:42:30.04	337.19	5.00	-42.2	-42.5	11.9	1.87e-02	0	36	0	61329113088	50	15588
2026-01-11 19:42:31.05	337.24	4.92	-56.3	-58.5	6.4	3.99e-02	0	36	104	61404610560	78	19582
2026-01-11 19:42:32.06	337.29	4.84	-58.3	-61.5	6.1	3.99e-02	0	36	104	61404610560	82	21940
2026-01-11 19:42:33.07	337.34	4.76	-58.6	-61.8	6.1	3.99e-02	0	36	104	61404610560	82	22743
2026-01-11 19:42:34.08	337.39	4.69	-58.8	-62.1	6.2	3.99e-02	0	36	104	61404610560	83	22179
2026-01-11 19:42:35.08	337.44	4.61	-59.0	-62.2	6.2	3.99e-02	0	36	104	61404610560	83	22595
2026-01-11 19:42:36.10	337.48	4.53	-59.3	-62.5	6.2	0.00e+00	0	36	104	61404610560	84	22083
2026-01-11 19:42:37.10	337.53	4.45	-59.4	-62.7	6.2	0.00e+00	0	36	104	61404610560	84	22465
2026-01-11 19:42:38.11	337.58	4.38	-59.5	-62.8	6.2	0.00e+00	0	36	104	61404610560	84	22633
2026-01-11 19:42:39.12	337.63	4.30	-59.6	-62.8	6.1	0.00e+00	0	36	104	61404610560	84	22879
2026-01-11 19:42:40.13	337.67	4.23	-59.7	-62.9	6.2	0.00e+00	0	36	104	61404610560	85	21753
2026-01-11 19:42:41.13	337.72	4.15	-59.7	-62.9	6.2	0.00e+00	0	36	104	61404610560	85	21829
2026-01-11 19:42:42.14	337.77	4.08	-59.8	-63.0	6.2	0.00e+00	0	35	104	61404610560	85	21912
2026-01-11 19:42:43.15	337.81	4.00	-59.8	-63.0	6.1	0.00e+00	0	35	104	61404610560	85	21950
2026-01-11 19:42:44.16	337.86	3.93	-59.8	-63.0	6.1	0.00e+00	0	35	104	61404610560	85	21952
2026-01-11 19:42:45.17	337.90	3.85	-59.8	-63.0	6.1	0.00e+00	0	35	104	61404610560	85	22066
2026-01-11 19:42:46.17	337.95	3.78	-59.8	-63.1	6.2	0.00e+00	0	35	104	61404610560	85	22130
2026-01-11 19:42:47.18	337.99	3.70	-59.9	-63.1	6.1	0.00e+00	0	35	104	61404610560	85	22281
2026-01-11 19:42:48.19	338.04	3.63	-59.9	-63.1	6.2	0.00e+00	0	35	104	61404610560	85	22240
2026-01-11 19:42:49.20	338.08	3.56	-59.9	-63.1	6.1	0.00e+00	0	35	104	61404610560	85	22227
2026-01-11 19:42:50.20	338.13	3.48	-59.9	-63.1	6.2	0.00e+00	0	35	104	61404610560	85	22214
2026-01-11 19:42:51.21	338.17	3.41	-59.9	-63.1	6.1	0.00e+00	0	35	104	61404610560	85	22260
2026-01-11 19:42:52.23	338.22	3.34	-59.9	-63.1	6.2	0.00e+00	0	35	104	61404610560	85	22336
2026-01-11 19:42:53.24	338.26	3.26	-59.8	-63.1	6.2	0.00e+00	0	35	104	61404610560	85	22173
2026-01-11 19:42:54.25	338.30	3.19	-59.8	-63.1	6.1	0.00e+00	0	35	104	61404610560	85	22124
2026-01-11 19:42:55.26	338.35	3.12	-59.8	-63.1	6.1	0.00e+00	0	35	104	61404610560	85	22124
2026-01-11 19:42:56.26	338.39	3.05	-59.8	-63.0	6.2	0.00e+00	0	35	104	61404610560	85	21961
2026-01-11 19:42:57.27	338.43	2.98	-59.8	-63.0	6.1	0.00e+00	0	35	104	61404610560	85	21965
2026-01-11 19:42:58.27	338.47	2.91	-59.8	-63.0	6.2	0.00e+00	0	35	104	61404610560	85	21953
2026-01-11 19:42:59.29	338.52	2.83	-59.7	-63.0	6.2	0.00e+00	0	35	104	61404610560	85	21903
2026-01-11 19:43:00.30	338.56	2.76	-59.8	-63.0	6.1	0.00e+00	0	35	104	61404610560	85	21922
2026-01-11 19:43:01.30	338.60	2.69	-59.7	-62.9	6.2	0.00e+00	0	35	104	61404610560	85	21843
2026-01-11 19:43:02.31	338.64	2.62	-59.7	-62.9	6.2	0.00e+00	0	35	104	61404610560	85	21842
2026-01-11 19:43:03.32	338.68	2.55	-59.7	-62.9	6.2	0.00e+00	0	35	104	61404610560	85	21828
2026-01-11 19:43:04.33	338.73	2.48	-59.7	-62.9	6.2	0.00e+00	0	35	104	61404610560	85	21833
2026-01-11 19:43:05.34	338.77	2.41	-59.7	-63.0	6.1	0.00e+00	0	35	104	61404610560	85	21891
2026-01-11 19:43:06.35	338.81	2.34	-59.7	-62.9	6.1	0.00e+00	0	35	104	61404610560	85	21837
2026-01-11 19:43:07.36	338.85	2.27	-59.7	-62.9	6.2	0.00e+00	0	35	104	61404610560	85	21781
2026-01-11 19:43:08.37	338.89	2.20	-59.7	-62.9	6.2	0.00e+00	0	35	104	61404610560	85	21736
2026-01-11 19:43:09.37	338.93	2.14	-59.6	-62.9	6.2	0.00e+00	0	35	104	61404610560	85	21721
2026-01-11 19:43:10.38	338.97	2.07	-59.7	-62.9	6.2	0.00e+00	0	35	104	61404610560	85	21709
2026-01-11 19:43:11.39	339.01	2.00	-59.7	-62.9	6.1	0.00e+00	0	35	104	61404610560	85	21675
2026-01-11 19:43:12.40	339.05	1.93	-59.6	-62.9	6.2	0.00e+00	0	35	104	61404610560	85	21642
2026-01-11 19:43:13.40	339.09	1.86	-59.6	-62.9	6.2	0.00e+00	0	35	104	61404610560	85	21629

#Closed at: 2026-01-11 19:43:13
#Recorded file [61404 MB]: D:/lorett/data/31004_260111_223238.dat