passes_logs/2026/01/11/R3.2S_Murmansk/R3.2S_Murmansk__20260111_124349_AQUA_rec.log

#Pass ID: 20260111_124349_AQUA
#Satellite: AQUA
#Configuration: AQUA
#almurnet v.1.7.20251203
#Start time: 2026-01-11 12:43:50

#Version: 2.2.20231116
#Station: R3.2S_Murmansk
#Location: 33.079688 lon 68.888172 lat
#TLE: 1 27424U 02022A   26010.91777001  .00001106  00000+0  23130-3 0  9995
#TLE: 2 27424  98.4077 337.2768 0002031  83.1713 340.5382 14.61814337260293

#Time	Az	El	Level	Level2	SNR	BER	BlckErr	Temp	State	Recorded	gain1	gain2
2026-01-11 12:43:50.98	190.20	2.10	-56.9	-75.8	3.8	7.47e-01	0	21	0	0	82	31853
2026-01-11 12:43:51.99	190.25	2.16	-56.8	-75.7	3.8	7.50e-01	0	21	104	0	81	33445
2026-01-11 12:43:52.99	190.30	2.22	-56.8	-75.9	3.8	7.46e-01	0	21	104	0	81	34135
2026-01-11 12:43:54.01	190.36	2.29	-56.8	-75.8	3.8	7.47e-01	0	21	104	0	81	34001
2026-01-11 12:43:55.02	190.41	2.35	-56.8	-76.0	3.8	7.45e-01	0	21	104	0	81	34548
2026-01-11 12:43:56.03	190.46	2.42	-56.8	-76.0	3.8	7.48e-01	0	21	104	0	81	34772
2026-01-11 12:43:57.03	190.52	2.48	-56.8	-76.0	3.8	7.46e-01	0	21	104	0	81	34712
2026-01-11 12:43:58.04	190.57	2.54	-56.8	-76.0	3.8	7.44e-01	0	21	104	0	81	34553
2026-01-11 12:43:59.05	190.63	2.61	-56.8	-75.8	3.8	7.47e-01	0	21	104	0	81	33849
2026-01-11 12:44:00.06	190.68	2.67	-56.8	-75.7	3.8	7.46e-01	0	21	104	0	81	33659
2026-01-11 12:44:01.07	190.74	2.74	-56.8	-75.6	3.8	7.47e-01	0	21	104	0	81	33301
2026-01-11 12:44:02.07	190.79	2.80	-56.8	-75.7	3.8	7.48e-01	0	21	104	0	81	33660
2026-01-11 12:44:03.08	190.85	2.87	-56.8	-75.8	3.8	7.44e-01	0	22	104	0	81	34018
2026-01-11 12:44:04.09	190.90	2.93	-56.8	-75.8	3.8	7.44e-01	0	22	104	0	81	33977
2026-01-11 12:44:05.10	190.96	3.00	-56.8	-75.8	3.8	7.46e-01	0	22	104	0	81	33879
2026-01-11 12:44:06.11	191.02	3.06	-56.8	-75.6	3.8	7.45e-01	0	22	104	0	81	33090
2026-01-11 12:44:07.11	191.07	3.13	-56.8	-75.6	3.8	7.43e-01	0	22	104	0	81	32964
2026-01-11 12:44:08.12	191.13	3.20	-56.8	-75.6	3.8	7.45e-01	0	22	104	0	81	33070
2026-01-11 12:44:09.13	191.19	3.26	-56.8	-75.4	3.8	7.45e-01	0	22	104	0	81	32483
2026-01-11 12:44:10.14	191.24	3.33	-56.8	-75.3	3.8	7.46e-01	0	21	104	0	81	31822
2026-01-11 12:44:11.14	191.30	3.39	-56.8	-75.5	3.8	7.45e-01	0	22	104	0	81	32768
2026-01-11 12:44:12.15	191.36	3.46	-56.8	-75.3	3.8	7.46e-01	0	22	104	0	81	31843
2026-01-11 12:44:13.16	191.42	3.53	-56.8	-75.2	3.8	7.45e-01	0	22	104	0	81	31493
2026-01-11 12:44:14.17	191.48	3.59	-56.8	-74.8	3.9	7.43e-01	0	22	104	0	81	30296
2026-01-11 12:44:15.17	191.53	3.66	-56.8	-74.9	3.8	7.47e-01	0	22	104	0	81	30476
2026-01-11 12:44:16.18	191.59	3.73	-56.8	-75.0	3.8	7.43e-01	0	22	104	0	81	30803
2026-01-11 12:44:17.19	191.65	3.79	-56.8	-75.4	3.8	7.44e-01	0	22	104	0	81	32376
2026-01-11 12:44:18.20	191.71	3.86	-56.8	-76.0	3.8	7.46e-01	0	22	104	0	81	34837
2026-01-11 12:44:19.20	191.77	3.93	-56.8	-75.9	3.8	7.43e-01	0	22	104	0	81	34410
2026-01-11 12:44:20.21	191.83	4.00	-56.8	-74.4	3.8	7.43e-01	0	22	104	0	81	28984
2026-01-11 12:44:21.22	191.89	4.06	-56.7	-71.6	4.5	7.22e-01	0	22	104	0	81	20826
2026-01-11 12:44:22.23	191.95	4.13	-56.6	-69.0	5.8	6.87e-01	92	22	0	0	81	15580
2026-01-11 12:44:23.23	192.01	4.20	-56.4	-67.0	7.4	6.51e-01	92	22	0	2097152	81	12300
2026-01-11 12:44:24.25	192.08	4.27	-56.3	-65.6	8.6	6.34e-01	0	22	0	3670016	81	10505
2026-01-11 12:44:25.25	192.14	4.34	-56.1	-64.6	9.6	6.24e-01	0	22	0	5767168	81	9310
2026-01-11 12:44:26.26	192.20	4.41	-55.9	-63.5	10.5	6.17e-01	0	22	0	7340032	80	8662
2026-01-11 12:44:27.27	192.26	4.48	-55.7	-62.7	11.2	6.15e-01	0	22	0	9437184	80	7985
2026-01-11 12:44:28.27	192.32	4.54	-55.6	-62.0	11.8	6.14e-01	0	22	0	11534336	80	7314
2026-01-11 12:44:29.28	192.39	4.61	-55.5	-61.6	12.1	6.11e-01	0	22	0	13107200	80	7007
2026-01-11 12:44:30.29	192.45	4.68	-55.1	-60.6	12.8	6.10e-01	0	22	0	15204352	79	6645
2026-01-11 12:44:31.30	192.51	4.75	-54.8	-59.9	13.2	6.06e-01	0	22	0	17301504	78	6459
2026-01-11 12:44:32.31	192.58	4.82	-54.5	-58.9	13.9	6.06e-01	0	22	0	18874368	78	5782
2026-01-11 12:44:33.31	192.64	4.89	-53.7	-57.5	14.4	6.08e-01	0	22	0	20971520	76	5528
2026-01-11 12:44:34.32	192.70	4.96	-53.0	-56.3	15.0	6.07e-01	0	22	0	22544384	75	5090
2026-01-11 12:44:35.33	192.77	5.03	-52.6	-55.6	15.3	6.06e-01	0	22	0	24641536	74	4952
2026-01-11 12:44:36.34	192.83	5.10	-53.6	-57.4	14.5	6.06e-01	0	22	0	26738688	74	6090
2026-01-11 12:44:37.35	192.90	5.17	-55.1	-60.7	12.0	6.10e-01	0	22	0	28311552	79	6650
2026-01-11 12:44:38.36	192.97	5.25	-52.4	-55.3	15.1	6.06e-01	0	22	0	29884416	72	5398
2026-01-11 12:44:39.36	193.03	5.32	-53.6	-57.1	14.6	6.06e-01	0	22	0	31981568	76	5247
2026-01-11 12:44:40.37	193.10	5.39	-51.1	-53.5	15.7	6.06e-01	0	22	0	34078720	71	4613
2026-01-11 12:44:41.38	193.16	5.46	-50.8	-53.1	15.8	6.06e-01	0	22	0	35651584	70	4660
2026-01-11 12:44:42.39	193.23	5.53	-50.7	-52.9	15.8	6.06e-01	0	22	0	37748736	70	4589
2026-01-11 12:44:43.39	193.30	5.60	-50.6	-52.7	16.0	6.07e-01	0	22	0	39321600	70	4479
2026-01-11 12:44:44.40	193.37	5.67	-50.8	-53.1	15.8	6.06e-01	0	22	0	41418752	70	4663
2026-01-11 12:44:45.41	193.43	5.75	-50.7	-52.9	15.9	6.05e-01	0	22	0	43515904	70	4572
2026-01-11 12:44:46.42	193.50	5.82	-50.8	-53.0	15.8	6.07e-01	0	22	0	45088768	70	4623
2026-01-11 12:44:47.42	193.57	5.89	-50.4	-52.6	16.0	6.07e-01	0	22	0	47185920	70	4404
2026-01-11 12:44:48.42	193.64	5.96	-50.3	-52.4	15.9	6.07e-01	0	22	0	48758784	69	4568
2026-01-11 12:44:49.43	193.71	6.04	-50.4	-52.5	15.8	6.08e-01	0	22	0	50855936	69	4638
2026-01-11 12:44:50.44	193.78	6.11	-50.5	-52.7	15.8	6.06e-01	0	22	0	52953088	69	4725
2026-01-11 12:44:51.45	193.85	6.18	-50.4	-52.6	15.8	6.05e-01	0	22	0	54525952	69	4670
2026-01-11 12:44:52.46	193.92	6.26	-50.6	-52.7	15.7	6.05e-01	0	22	0	56623104	69	4746
2026-01-11 12:44:53.47	193.99	6.33	-50.6	-52.7	15.7	6.05e-01	0	22	0	58195968	69	4751
2026-01-11 12:44:54.48	194.06	6.40	-50.4	-52.5	15.9	6.06e-01	0	22	0	60293120	69	4600
2026-01-11 12:44:55.48	194.13	6.48	-50.4	-52.6	15.8	6.07e-01	0	22	0	62390272	69	4664
2026-01-11 12:44:56.49	194.21	6.55	-50.6	-52.8	15.7	6.07e-01	0	22	0	63963136	69	4761
2026-01-11 12:44:57.50	194.28	6.63	-50.5	-52.6	15.8	6.06e-01	0	22	0	66060288	69	4683
2026-01-11 12:44:58.51	194.35	6.70	-50.3	-52.4	15.9	6.07e-01	0	23	0	67633152	69	4586
2026-01-11 12:44:59.52	194.42	6.78	-50.3	-52.4	15.9	6.05e-01	0	22	0	69730304	69	4568
2026-01-11 12:45:00.52	194.50	6.85	-50.3	-52.4	15.9	6.06e-01	0	22	0	71827456	69	4554
2026-01-11 12:45:01.53	194.57	6.93	-50.6	-52.7	15.8	6.06e-01	0	23	0	73400320	69	4726
2026-01-11 12:45:02.54	194.65	7.00	-50.5	-52.7	15.8	6.07e-01	0	22	0	75497472	69	4719
2026-01-11 12:45:03.55	194.72	7.08	-50.6	-52.8	15.7	6.07e-01	0	22	0	77594624	69	4769
2026-01-11 12:45:04.55	194.79	7.15	-50.6	-52.7	15.7	6.07e-01	0	23	0	79167488	69	4747
2026-01-11 12:45:05.56	194.87	7.23	-50.5	-52.6	15.8	6.07e-01	0	22	0	81264640	69	4655
2026-01-11 12:45:06.57	194.95	7.31	-50.3	-52.4	15.9	6.05e-01	0	22	0	82837504	69	4554
2026-01-11 12:45:07.58	195.02	7.38	-50.3	-52.3	15.9	6.05e-01	0	23	0	84934656	69	4538
2026-01-11 12:45:08.59	195.10	7.46	-50.4	-52.4	15.9	6.06e-01	0	22	0	87031808	69	4596
2026-01-11 12:45:09.60	195.18	7.54	-50.2	-52.2	16.0	6.08e-01	0	22	0	88604672	69	4484
2026-01-11 12:45:10.61	195.25	7.62	-50.2	-52.3	16.0	6.06e-01	0	23	0	90701824	69	4500
2026-01-11 12:45:11.62	195.33	7.69	-50.3	-52.4	15.9	6.07e-01	0	22	0	92274688	69	4559
2026-01-11 12:45:12.63	195.41	7.77	-50.3	-52.3	16.0	6.07e-01	0	23	0	94371840	69	4521
2026-01-11 12:45:13.63	195.49	7.85	-50.3	-52.3	15.9	6.05e-01	0	23	0	96468992	69	4543
2026-01-11 12:45:14.64	195.57	7.93	-50.2	-52.2	16.0	6.06e-01	0	22	0	98041856	69	4481
2026-01-11 12:45:15.65	195.65	8.01	-50.2	-52.2	16.0	6.05e-01	0	23	0	100139008	69	4486
2026-01-11 12:45:16.66	195.73	8.08	-50.2	-52.2	16.0	6.07e-01	0	23	0	101711872	69	4454
2026-01-11 12:45:17.66	195.81	8.16	-50.2	-52.2	16.0	6.06e-01	0	23	0	103809024	69	4478
2026-01-11 12:45:18.67	195.89	8.24	-50.2	-52.2	16.0	6.06e-01	0	22	0	105906176	69	4480
2026-01-11 12:45:19.67	195.97	8.32	-50.3	-52.3	16.0	6.06e-01	0	23	0	107479040	69	4507
2026-01-11 12:45:20.67	196.05	8.40	-50.2	-52.2	16.0	6.04e-01	0	23	0	109576192	69	4485
2026-01-11 12:45:21.68	196.14	8.48	-50.2	-52.1	16.0	6.05e-01	0	23	0	111149056	69	4434
2026-01-11 12:45:22.69	196.22	8.56	-50.1	-52.1	16.1	6.07e-01	0	22	0	113246208	69	4393
2026-01-11 12:45:23.70	196.30	8.64	-50.1	-52.1	16.1	6.05e-01	0	23	0	115343360	69	4395
2026-01-11 12:45:24.70	196.39	8.72	-50.0	-52.0	16.1	6.07e-01	0	22	0	116916224	69	4351
2026-01-11 12:45:25.71	196.47	8.80	-50.0	-51.9	16.1	6.05e-01	0	23	0	119013376	69	4314
2026-01-11 12:45:26.72	196.56	8.88	-50.0	-51.9	16.1	6.06e-01	0	23	0	120586240	69	4322
2026-01-11 12:45:27.73	196.64	8.96	-50.0	-51.9	15.9	6.06e-01	0	23	0	122683392	68	4576
2026-01-11 12:45:28.74	196.73	9.05	-49.9	-51.8	15.9	6.07e-01	0	23	0	124780544	68	4529
2026-01-11 12:45:29.75	196.81	9.13	-49.8	-51.7	16.0	6.04e-01	0	23	0	126353408	68	4477
2026-01-11 12:45:30.76	196.90	9.21	-49.9	-51.8	15.9	6.05e-01	0	23	0	128450560	68	4541
2026-01-11 12:45:31.76	196.99	9.29	-49.7	-51.6	16.1	6.08e-01	0	23	0	130023424	68	4419
2026-01-11 12:45:32.77	197.07	9.37	-49.8	-51.7	16.0	6.06e-01	0	23	0	132120576	68	4460
2026-01-11 12:45:33.78	197.16	9.46	-49.9	-51.8	16.0	6.07e-01	0	23	0	134217728	68	4520
2026-01-11 12:45:34.79	197.25	9.54	-50.0	-51.9	15.9	6.06e-01	0	23	0	135790592	68	4565
2026-01-11 12:45:35.79	197.34	9.62	-49.8	-51.7	16.0	6.06e-01	0	23	0	137887744	68	4483
2026-01-11 12:45:36.80	197.43	9.71	-49.9	-51.8	15.9	6.07e-01	0	23	0	139460608	68	4530
2026-01-11 12:45:37.81	197.52	9.79	-49.9	-51.8	15.9	6.06e-01	0	23	0	141557760	68	4524
2026-01-11 12:45:38.82	197.61	9.88	-49.8	-51.7	16.0	6.06e-01	0	23	0	143654912	68	4477
2026-01-11 12:45:39.83	197.70	9.96	-49.7	-51.6	16.1	6.06e-01	0	23	0	145227776	68	4402
2026-01-11 12:45:40.84	197.80	10.04	-49.8	-51.7	16.0	6.06e-01	0	23	0	147324928	68	4462
2026-01-11 12:45:41.85	197.89	10.13	-49.8	-51.7	16.0	6.07e-01	0	23	0	148897792	68	4442
2026-01-11 12:45:42.86	197.98	10.22	-49.8	-51.6	16.0	6.06e-01	0	23	0	150994944	68	4432
2026-01-11 12:45:43.86	198.08	10.30	-49.7	-51.6	16.0	6.07e-01	0	23	0	153092096	68	4412
2026-01-11 12:45:44.87	198.17	10.39	-49.6	-51.5	16.1	6.07e-01	0	22	0	154664960	68	4352
2026-01-11 12:45:45.88	198.27	10.47	-49.6	-51.4	16.1	6.08e-01	0	23	0	156762112	68	4325
2026-01-11 12:45:46.89	198.36	10.56	-49.6	-51.4	16.1	6.06e-01	0	23	0	158859264	68	4329
2026-01-11 12:45:47.90	198.46	10.64	-49.6	-51.4	16.1	6.06e-01	0	23	0	160432128	68	4320
2026-01-11 12:45:48.90	198.55	10.73	-49.6	-51.5	16.1	6.07e-01	0	23	0	162529280	68	4358
2026-01-11 12:45:49.91	198.65	10.82	-49.6	-51.5	16.1	6.08e-01	0	23	0	164102144	68	4351
2026-01-11 12:45:50.92	198.75	10.91	-49.6	-51.4	16.1	6.05e-01	0	23	0	166199296	68	4296
2026-01-11 12:45:51.93	198.85	10.99	-49.6	-51.4	16.1	6.07e-01	0	23	0	168296448	68	4332
2026-01-11 12:45:52.94	198.95	11.08	-49.7	-51.5	16.1	6.05e-01	0	23	0	169869312	68	4376
2026-01-11 12:45:53.95	199.05	11.17	-49.7	-51.5	16.0	6.05e-01	0	23	0	171966464	68	4379
2026-01-11 12:45:54.96	199.15	11.26	-49.5	-51.3	16.1	6.07e-01	0	23	0	173539328	68	4272
2026-01-11 12:45:55.97	199.25	11.35	-49.6	-51.4	16.1	6.06e-01	0	23	0	175636480	68	4323
2026-01-11 12:45:56.97	199.35	11.44	-49.5	-51.3	16.2	6.06e-01	0	23	0	177733632	68	4287
2026-01-11 12:45:57.99	199.45	11.53	-49.4	-51.2	16.2	6.06e-01	0	23	0	179306496	68	4209
2026-01-11 12:45:58.99	199.55	11.61	-49.3	-51.1	16.0	6.07e-01	0	23	0	181403648	67	4434
2026-01-11 12:46:00.00	199.66	11.70	-49.3	-51.1	16.0	6.05e-01	0	23	0	182976512	67	4427
2026-01-11 12:46:01.01	199.76	11.80	-49.3	-51.1	16.0	6.03e-01	0	23	0	185073664	67	4434
2026-01-11 12:46:02.01	199.87	11.88	-49.2	-51.0	16.1	6.06e-01	0	23	0	187170816	67	4348
2026-01-11 12:46:03.02	199.97	11.98	-49.3	-51.1	16.0	6.07e-01	0	23	0	188743680	67	4401
2026-01-11 12:46:04.03	200.08	12.07	-49.2	-51.0	16.1	6.06e-01	0	23	0	190840832	67	4344
2026-01-11 12:46:05.04	200.19	12.16	-49.3	-51.1	16.1	6.09e-01	0	23	0	192413696	67	4400
2026-01-11 12:46:06.04	200.29	12.25	-49.4	-51.2	16.0	6.06e-01	0	23	0	194510848	67	4459
2026-01-11 12:46:07.05	200.40	12.34	-49.2	-51.0	16.1	6.06e-01	0	23	0	196608000	67	4359
2026-01-11 12:46:08.06	200.51	12.43	-51.3	-53.5	15.9	6.07e-01	0	23	0	198180864	70	4925
2026-01-11 12:46:09.07	200.62	12.53	-50.7	-52.8	15.9	6.05e-01	0	23	0	200278016	70	4528
2026-01-11 12:46:10.08	200.73	12.62	-50.4	-52.4	16.1	6.06e-01	0	23	0	202375168	70	4332
2026-01-11 12:46:11.08	200.84	12.71	-49.8	-51.7	16.2	6.08e-01	0	23	0	203948032	68	4459
2026-01-11 12:46:12.09	200.95	12.81	-49.7	-51.6	16.1	6.06e-01	0	23	0	206045184	68	4395
2026-01-11 12:46:13.10	201.06	12.90	-49.5	-51.3	16.2	6.07e-01	0	23	0	207618048	68	4244
2026-01-11 12:46:14.11	201.18	12.99	-49.4	-51.2	16.2	6.07e-01	0	23	0	209715200	68	4230
2026-01-11 12:46:15.12	201.29	13.09	-49.3	-51.1	16.0	6.06e-01	0	23	0	211288064	67	4393
2026-01-11 12:46:16.12	201.41	13.18	-49.2	-51.0	16.1	6.06e-01	0	23	0	213385216	67	4376
2026-01-11 12:46:17.13	201.52	13.28	-49.2	-51.0	16.1	6.05e-01	0	23	0	215482368	67	4358
2026-01-11 12:46:18.14	201.64	13.37	-49.3	-51.0	16.1	6.05e-01	0	23	0	217055232	67	4381
2026-01-11 12:46:19.15	201.76	13.47	-49.2	-50.9	16.1	6.07e-01	0	23	0	219152384	67	4321
2026-01-11 12:46:20.15	201.87	13.56	-49.1	-50.8	16.1	6.07e-01	0	23	0	220725248	67	4290
2026-01-11 12:46:21.16	201.99	13.66	-49.0	-50.7	16.2	6.07e-01	0	23	0	222822400	67	4209
2026-01-11 12:46:22.17	202.11	13.76	-48.9	-50.6	16.3	6.07e-01	0	23	0	224919552	67	4166
2026-01-11 12:46:23.17	202.23	13.85	-48.9	-50.6	16.3	6.07e-01	0	23	0	226492416	67	4185
2026-01-11 12:46:24.18	202.35	13.95	-48.8	-50.5	16.1	6.08e-01	0	23	0	228589568	66	4358
2026-01-11 12:46:25.19	202.47	14.05	-48.8	-50.5	16.1	6.07e-01	0	23	0	230686720	66	4373
2026-01-11 12:46:26.19	202.60	14.15	-48.9	-50.6	16.1	6.07e-01	0	23	0	232259584	66	4410
2026-01-11 12:46:27.20	202.72	14.24	-48.9	-50.6	16.0	6.06e-01	0	23	0	234356736	66	4405
2026-01-11 12:46:28.20	202.84	14.34	-49.0	-50.7	16.0	6.06e-01	0	23	0	235929600	66	4457
2026-01-11 12:46:29.21	202.97	14.44	-49.0	-50.8	16.0	6.06e-01	0	23	0	238026752	66	4498
2026-01-11 12:46:30.22	203.09	14.54	-49.0	-50.7	16.0	6.05e-01	0	23	0	239599616	66	4453
2026-01-11 12:46:31.23	203.22	14.64	-48.8	-50.5	16.1	6.07e-01	0	23	0	241696768	66	4388
2026-01-11 12:46:32.23	203.35	14.74	-48.9	-50.5	16.1	6.07e-01	0	23	0	243793920	66	4385
2026-01-11 12:46:33.23	203.48	14.84	-48.7	-50.4	16.1	6.06e-01	0	23	0	245366784	66	4322
2026-01-11 12:46:34.24	203.61	14.94	-48.8	-50.5	16.1	6.08e-01	0	23	0	247463936	66	4367
2026-01-11 12:46:35.24	203.74	15.04	-48.8	-50.5	16.1	6.08e-01	0	23	0	249036800	66	4388
2026-01-11 12:46:36.25	203.87	15.14	-48.8	-50.5	16.1	6.06e-01	0	23	0	251133952	66	4381
2026-01-11 12:46:37.26	204.00	15.24	-48.8	-50.5	16.1	6.06e-01	0	23	0	253231104	66	4373
2026-01-11 12:46:38.26	204.13	15.34	-48.8	-50.5	16.1	6.08e-01	0	23	0	254803968	66	4345
2026-01-11 12:46:39.27	204.27	15.45	-48.7	-50.4	16.2	6.07e-01	0	23	0	256901120	66	4293
2026-01-11 12:46:40.28	204.40	15.55	-48.8	-50.4	16.1	6.04e-01	0	23	0	258998272	66	4333
2026-01-11 12:46:41.28	204.54	15.65	-48.8	-50.4	16.1	6.07e-01	0	23	0	260571136	66	4336
2026-01-11 12:46:42.29	204.67	15.75	-48.8	-50.5	16.1	6.07e-01	0	23	0	262668288	66	4344
2026-01-11 12:46:43.29	204.81	15.86	-48.8	-50.5	16.1	6.08e-01	0	23	0	264241152	66	4354
2026-01-11 12:46:44.30	204.95	15.96	-48.8	-50.5	16.1	6.06e-01	0	23	0	266338304	66	4362
2026-01-11 12:46:45.30	205.09	16.06	-48.9	-50.6	16.1	6.06e-01	0	23	0	267911168	66	4403
2026-01-11 12:46:46.30	205.23	16.17	-48.8	-50.5	16.1	6.06e-01	0	23	0	270008320	66	4344
2026-01-11 12:46:47.31	205.37	16.27	-48.8	-50.5	16.1	6.06e-01	0	23	0	272105472	66	4374
2026-01-11 12:46:48.32	205.51	16.38	-48.8	-50.5	16.1	6.06e-01	0	23	0	273678336	66	4361
2026-01-11 12:46:49.33	205.66	16.48	-48.8	-50.4	16.1	6.07e-01	0	23	0	275775488	66	4337
2026-01-11 12:46:50.34	205.80	16.59	-48.8	-50.5	16.1	6.07e-01	0	23	0	277348352	66	4350
2026-01-11 12:46:51.35	205.95	16.70	-48.9	-50.5	16.1	6.07e-01	0	23	0	279445504	66	4379
2026-01-11 12:46:52.35	206.10	16.80	-48.8	-50.4	16.1	6.05e-01	0	23	0	281542656	66	4337
2026-01-11 12:46:53.36	206.25	16.91	-48.8	-50.4	16.1	6.06e-01	0	23	0	283115520	66	4324
2026-01-11 12:46:54.37	206.39	17.02	-48.8	-50.4	16.1	6.08e-01	0	23	0	285212672	66	4337
2026-01-11 12:46:55.37	206.54	17.12	-48.7	-50.4	16.1	6.06e-01	0	23	0	286785536	66	4322
2026-01-11 12:46:56.38	206.70	17.23	-48.7	-50.3	16.1	6.08e-01	0	23	0	288882688	66	4281
2026-01-11 12:46:57.39	206.85	17.34	-48.7	-50.3	16.2	6.08e-01	0	23	0	290979840	66	4276
2026-01-11 12:46:58.40	207.00	17.45	-48.7	-50.4	16.1	6.05e-01	0	23	0	292552704	66	4315
2026-01-11 12:46:59.41	207.16	17.56	-48.8	-50.4	16.1	6.07e-01	0	23	0	294649856	66	4334
2026-01-11 12:47:00.41	207.31	17.67	-48.8	-50.5	16.1	6.06e-01	0	23	0	296222720	66	4379
2026-01-11 12:47:01.42	207.47	17.78	-48.8	-50.5	16.1	6.07e-01	0	23	0	298319872	66	4380
2026-01-11 12:47:02.43	207.63	17.89	-48.8	-50.5	16.1	6.06e-01	0	23	0	300417024	66	4368
2026-01-11 12:47:03.44	207.79	18.00	-48.9	-50.5	16.1	6.06e-01	0	23	0	301989888	66	4381
2026-01-11 12:47:04.45	207.95	18.11	-48.8	-50.5	16.1	6.07e-01	0	23	0	304087040	66	4359
2026-01-11 12:47:05.46	208.11	18.22	-48.9	-50.5	16.1	6.07e-01	0	23	0	305659904	66	4387
2026-01-11 12:47:06.47	208.28	18.33	-49.0	-50.6	16.0	6.05e-01	0	23	0	307757056	66	4440
2026-01-11 12:47:07.47	208.44	18.44	-48.9	-50.6	16.1	6.07e-01	0	23	0	309854208	66	4396
2026-01-11 12:47:08.48	208.61	18.55	-48.8	-50.4	16.1	6.07e-01	0	23	0	311427072	66	4318
2026-01-11 12:47:09.49	208.77	18.67	-48.7	-50.4	16.1	6.07e-01	0	23	0	313524224	66	4294
2026-01-11 12:47:10.50	208.94	18.78	-48.8	-50.5	16.1	6.06e-01	0	23	0	315621376	66	4354
2026-01-11 12:47:11.51	209.11	18.89	-48.8	-50.4	16.1	6.07e-01	0	23	0	317194240	66	4324
2026-01-11 12:47:12.51	209.28	19.00	-48.8	-50.4	16.1	6.06e-01	0	23	0	319291392	66	4331
2026-01-11 12:47:13.52	209.45	19.12	-48.8	-50.4	16.1	6.05e-01	0	23	0	320864256	66	4340
2026-01-11 12:47:14.53	209.63	19.23	-48.8	-50.5	16.1	6.06e-01	0	23	0	322961408	66	4349
2026-01-11 12:47:15.54	209.80	19.35	-48.8	-50.5	16.1	6.06e-01	0	23	0	325058560	66	4348
2026-01-11 12:47:16.55	209.98	19.46	-48.9	-50.5	16.1	6.07e-01	0	23	0	326631424	66	4380
2026-01-11 12:47:17.55	210.16	19.58	-48.8	-50.5	16.1	6.07e-01	0	23	0	328728576	66	4361
2026-01-11 12:47:18.57	210.34	19.69	-48.8	-50.5	16.1	6.06e-01	0	23	0	330301440	66	4352
2026-01-11 12:47:19.57	210.52	19.81	-48.9	-50.6	16.1	6.05e-01	0	23	0	332398592	66	4407
2026-01-11 12:47:20.58	210.70	19.92	-48.9	-50.5	16.1	6.06e-01	0	23	0	334495744	66	4380
2026-01-11 12:47:21.58	210.88	20.04	-48.7	-50.3	16.2	6.06e-01	0	23	0	336068608	66	4287
2026-01-11 12:47:22.59	211.07	20.16	-48.7	-50.4	16.2	6.07e-01	0	23	0	338165760	66	4309
2026-01-11 12:47:23.60	211.25	20.27	-48.8	-50.5	16.1	6.07e-01	0	23	0	339738624	66	4364
2026-01-11 12:47:24.60	211.44	20.39	-48.9	-50.5	16.1	6.07e-01	0	23	0	341835776	66	4388
2026-01-11 12:47:25.61	211.63	20.51	-48.9	-50.6	16.1	6.07e-01	0	23	0	343932928	66	4403
2026-01-11 12:47:26.62	211.82	20.63	-48.8	-50.4	16.1	6.06e-01	0	23	0	345505792	66	4325
2026-01-11 12:47:27.63	212.01	20.74	-48.8	-50.4	16.1	6.07e-01	0	23	0	347602944	66	4328
2026-01-11 12:47:28.64	212.20	20.86	-48.6	-50.2	16.2	6.06e-01	0	23	0	349175808	66	4239
2026-01-11 12:47:29.64	212.40	20.98	-48.7	-50.4	16.1	6.07e-01	0	23	0	351272960	66	4306
2026-01-11 12:47:30.65	212.59	21.10	-48.9	-50.5	16.1	6.06e-01	0	23	0	353370112	66	4389
2026-01-11 12:47:31.65	212.79	21.22	-48.8	-50.5	16.0	6.06e-01	0	23	0	354942976	66	4370
2026-01-11 12:47:32.66	212.99	21.34	-48.9	-50.5	16.0	6.08e-01	0	23	0	357040128	66	4380
2026-01-11 12:47:33.66	213.19	21.46	-48.9	-50.6	16.0	6.05e-01	0	23	0	358612992	66	4396
2026-01-11 12:47:34.67	213.39	21.58	-48.7	-50.4	16.1	6.06e-01	0	23	0	360710144	66	4293
2026-01-11 12:47:35.68	213.60	21.70	-48.9	-50.5	16.1	6.06e-01	0	23	0	362807296	66	4391
2026-01-11 12:47:36.68	213.80	21.82	-48.8	-50.5	16.1	6.06e-01	0	23	0	364380160	66	4347
2026-01-11 12:47:37.69	214.01	21.94	-48.9	-50.5	16.0	6.07e-01	0	23	0	366477312	66	4380
2026-01-11 12:47:38.70	214.22	22.06	-48.9	-50.5	16.1	6.06e-01	0	23	0	368050176	66	4373
2026-01-11 12:47:39.71	214.43	22.18	-49.0	-50.7	16.0	6.07e-01	0	23	0	370147328	66	4466
2026-01-11 12:47:40.71	214.64	22.30	-49.0	-50.6	16.0	6.07e-01	0	23	0	372244480	66	4431
2026-01-11 12:47:41.72	214.86	22.43	-48.9	-50.5	16.0	6.07e-01	0	23	0	373817344	66	4385
2026-01-11 12:47:42.73	215.08	22.55	-48.9	-50.5	16.1	6.04e-01	0	23	0	375914496	66	4382
2026-01-11 12:47:43.74	215.29	22.67	-48.9	-50.5	16.1	6.06e-01	0	23	0	377487360	66	4377
2026-01-11 12:47:44.75	215.51	22.79	-49.0	-50.6	16.0	6.06e-01	0	23	0	379584512	66	4427
2026-01-11 12:47:45.76	215.74	22.92	-49.0	-50.7	16.0	6.06e-01	0	23	0	381681664	66	4463
2026-01-11 12:47:46.77	215.96	23.04	-49.0	-50.7	16.0	6.05e-01	0	23	0	383254528	66	4480
2026-01-11 12:47:47.78	216.19	23.17	-49.0	-50.7	16.0	6.08e-01	0	23	0	385351680	66	4469
2026-01-11 12:47:48.79	216.41	23.29	-49.1	-50.8	16.0	6.06e-01	0	23	0	387448832	66	4511
2026-01-11 12:47:49.79	216.64	23.41	-49.2	-50.9	15.9	6.08e-01	0	23	0	389021696	66	4555
2026-01-11 12:47:50.80	216.87	23.54	-49.1	-50.8	15.9	6.07e-01	0	23	0	391118848	66	4517
2026-01-11 12:47:51.81	217.10	23.66	-48.9	-50.5	16.1	6.07e-01	0	23	0	392691712	66	4380
2026-01-11 12:47:52.82	217.34	23.79	-48.9	-50.6	16.0	6.03e-01	0	23	0	394788864	66	4401
2026-01-11 12:47:53.83	217.58	23.91	-49.0	-50.7	16.0	6.07e-01	0	23	0	396886016	66	4450
2026-01-11 12:47:54.84	217.81	24.04	-49.2	-50.9	15.9	6.04e-01	0	23	0	398458880	66	4588
2026-01-11 12:47:55.85	218.06	24.16	-49.1	-50.8	15.9	6.06e-01	0	23	0	400556032	66	4537
2026-01-11 12:47:56.85	218.30	24.28	-49.0	-50.7	16.0	6.06e-01	0	23	0	402128896	66	4463
2026-01-11 12:47:57.86	218.54	24.41	-49.2	-50.8	16.0	6.06e-01	0	23	0	404226048	66	4543
2026-01-11 12:47:58.87	218.79	24.54	-49.2	-50.9	15.9	6.07e-01	0	23	0	405798912	66	4554
2026-01-11 12:47:59.88	219.04	24.66	-49.1	-50.8	15.9	6.06e-01	0	23	0	407896064	66	4524
2026-01-11 12:48:00.89	219.29	24.79	-48.8	-50.5	16.1	6.08e-01	0	23	0	409993216	66	4349
2026-01-11 12:48:01.90	219.54	24.91	-48.9	-50.6	16.0	6.08e-01	0	23	0	411566080	66	4413
2026-01-11 12:48:02.91	219.79	25.04	-49.2	-50.9	15.9	6.07e-01	0	23	0	413663232	66	4551
2026-01-11 12:48:03.92	220.05	25.16	-49.2	-50.8	15.9	6.04e-01	0	23	0	415760384	66	4543
2026-01-11 12:48:04.92	220.31	25.29	-49.1	-50.8	15.9	6.06e-01	0	23	0	417333248	66	4513
2026-01-11 12:48:05.93	220.57	25.42	-49.1	-50.8	15.9	6.04e-01	0	23	0	419430400	66	4536
2026-01-11 12:48:06.94	220.83	25.54	-49.1	-50.8	16.0	6.06e-01	0	23	0	421003264	66	4505
2026-01-11 12:48:07.95	221.10	25.67	-49.0	-50.7	16.0	6.06e-01	0	23	0	423100416	66	4457
2026-01-11 12:48:08.96	221.36	25.79	-49.0	-50.7	16.0	6.07e-01	0	23	0	425197568	66	4479
2026-01-11 12:48:09.97	221.63	25.92	-49.0	-50.6	16.0	6.05e-01	0	23	0	426770432	66	4428
2026-01-11 12:48:10.97	221.90	26.05	-49.0	-50.7	16.0	6.05e-01	0	23	0	428867584	66	4454
2026-01-11 12:48:11.98	222.18	26.17	-49.2	-50.9	15.9	6.07e-01	0	23	0	430440448	66	4557
2026-01-11 12:48:12.99	222.45	26.30	-49.2	-50.9	15.9	6.06e-01	0	23	0	432537600	66	4569
2026-01-11 12:48:14.00	222.73	26.42	-49.2	-50.9	15.9	6.09e-01	0	23	0	434634752	66	4554
2026-01-11 12:48:15.01	223.01	26.55	-49.1	-50.8	15.9	6.04e-01	0	23	0	436207616	66	4527
2026-01-11 12:48:16.01	223.29	26.67	-49.2	-50.9	15.9	6.06e-01	0	23	0	438304768	66	4578
2026-01-11 12:48:17.02	223.58	26.80	-49.1	-50.8	15.9	6.07e-01	0	23	0	440401920	66	4534
2026-01-11 12:48:18.03	223.87	26.93	-49.1	-50.8	15.9	6.06e-01	0	23	0	441974784	66	4515
2026-01-11 12:48:19.04	224.16	27.05	-49.1	-50.7	16.0	6.05e-01	0	23	0	444071936	66	4488
2026-01-11 12:48:20.05	224.45	27.18	-49.3	-51.0	15.9	6.05e-01	0	23	0	445644800	66	4627
2026-01-11 12:48:21.05	224.74	27.30	-49.3	-51.0	15.9	6.04e-01	0	23	0	447741952	66	4650
2026-01-11 12:48:22.06	225.04	27.43	-49.2	-50.9	15.9	6.07e-01	0	23	0	449314816	66	4552
2026-01-11 12:48:23.07	225.34	27.55	-49.1	-50.8	16.0	6.08e-01	0	23	0	451411968	66	4520
2026-01-11 12:48:24.08	225.64	27.68	-49.1	-50.8	15.9	6.08e-01	0	23	0	453509120	66	4516
2026-01-11 12:48:25.09	225.94	27.80	-49.2	-50.8	15.9	6.08e-01	0	23	0	455081984	66	4538
2026-01-11 12:48:26.10	226.25	27.93	-49.1	-50.8	16.0	6.07e-01	0	23	0	457179136	66	4511
2026-01-11 12:48:27.11	226.56	28.05	-49.1	-50.8	16.0	6.05e-01	0	23	0	458752000	66	4507
2026-01-11 12:48:28.12	226.87	28.18	-49.0	-50.6	16.0	6.08e-01	0	23	0	460849152	66	4417
2026-01-11 12:48:29.13	227.18	28.30	-49.0	-50.7	16.0	6.07e-01	0	23	0	462946304	66	4468
2026-01-11 12:48:30.13	227.50	28.42	-49.1	-50.8	16.0	6.07e-01	0	23	0	464519168	66	4522
2026-01-11 12:48:31.14	227.81	28.54	-49.0	-50.7	16.0	6.09e-01	0	23	0	466616320	66	4462
2026-01-11 12:48:32.15	228.14	28.67	-49.0	-50.7	16.0	6.06e-01	0	23	0	468713472	66	4445
2026-01-11 12:48:33.15	228.46	28.79	-49.2	-50.9	15.9	6.05e-01	0	23	0	470286336	66	4547
2026-01-11 12:48:34.16	228.78	28.91	-49.1	-50.8	15.9	6.07e-01	0	23	0	472383488	66	4530
2026-01-11 12:48:35.17	229.11	29.03	-49.1	-50.7	16.0	6.09e-01	0	23	0	473956352	66	4492
2026-01-11 12:48:36.18	229.44	29.15	-49.0	-50.7	16.0	6.05e-01	0	23	0	476053504	66	4463
2026-01-11 12:48:37.18	229.77	29.27	-49.1	-50.8	15.9	6.07e-01	0	23	0	478150656	66	4527
2026-01-11 12:48:38.19	230.11	29.39	-49.2	-50.9	15.9	6.06e-01	0	23	0	479723520	66	4569
2026-01-11 12:48:39.20	230.45	29.51	-49.2	-50.9	15.9	6.07e-01	0	23	0	481820672	66	4567
2026-01-11 12:48:40.21	230.79	29.63	-49.2	-50.9	15.9	6.07e-01	0	23	0	483393536	66	4556
2026-01-11 12:48:41.22	231.13	29.75	-49.2	-50.9	15.9	6.07e-01	0	23	0	485490688	66	4558
2026-01-11 12:48:42.22	231.48	29.87	-49.1	-50.8	15.9	6.06e-01	0	23	0	487063552	66	4522
2026-01-11 12:48:43.23	231.83	29.98	-49.0	-50.6	16.0	6.07e-01	0	23	0	489160704	66	4418
2026-01-11 12:48:44.24	232.18	30.10	-48.9	-50.6	16.0	6.05e-01	0	23	0	491257856	66	4412
2026-01-11 12:48:45.25	232.53	30.22	-49.0	-50.7	16.0	6.06e-01	0	23	0	492830720	66	4455
2026-01-11 12:48:46.26	232.89	30.33	-49.0	-50.7	16.0	6.07e-01	0	23	0	494927872	66	4465
2026-01-11 12:48:47.27	233.25	30.45	-49.2	-50.8	16.0	6.08e-01	0	23	0	497025024	66	4536
2026-01-11 12:48:48.27	233.61	30.56	-49.0	-50.7	16.0	6.05e-01	0	23	0	498597888	66	4443
2026-01-11 12:48:49.28	233.97	30.67	-49.0	-50.6	16.0	6.06e-01	0	23	0	500695040	66	4415
2026-01-11 12:48:50.29	234.34	30.79	-49.0	-50.7	16.0	6.07e-01	0	23	0	502267904	66	4467
2026-01-11 12:48:51.30	234.71	30.90	-49.2	-50.9	15.9	6.08e-01	0	23	0	504365056	66	4551
2026-01-11 12:48:52.31	235.08	31.01	-48.9	-50.5	16.1	6.07e-01	0	23	0	506462208	66	4359
2026-01-11 12:48:53.31	235.45	31.12	-49.0	-50.7	16.0	6.05e-01	0	23	0	508035072	66	4444
2026-01-11 12:48:54.33	235.83	31.23	-49.0	-50.7	16.0	6.04e-01	0	23	0	510132224	66	4453
2026-01-11 12:48:55.34	236.21	31.34	-48.8	-50.4	16.1	6.06e-01	0	23	0	512229376	66	4332
2026-01-11 12:48:56.35	236.60	31.45	-48.9	-50.5	16.0	6.07e-01	0	23	0	513802240	66	4388
2026-01-11 12:48:57.35	236.98	31.55	-49.0	-50.6	16.0	6.07e-01	0	23	0	515899392	66	4425
2026-01-11 12:48:58.36	237.37	31.66	-49.0	-50.7	16.0	6.07e-01	0	23	0	517472256	66	4460
2026-01-11 12:48:59.37	237.76	31.76	-49.1	-50.8	16.0	6.07e-01	0	23	0	519569408	66	4531
2026-01-11 12:49:00.38	238.15	31.87	-49.0	-50.7	16.0	6.07e-01	0	23	0	521666560	66	4454
2026-01-11 12:49:01.39	238.55	31.97	-49.1	-50.8	15.9	6.06e-01	0	23	0	523239424	66	4530
2026-01-11 12:49:02.40	238.94	32.07	-49.0	-50.7	16.0	6.05e-01	0	23	0	525336576	66	4445
2026-01-11 12:49:03.41	239.34	32.17	-49.1	-50.7	16.0	6.06e-01	0	23	0	526909440	66	4488
2026-01-11 12:49:04.42	239.75	32.27	-48.9	-50.6	16.0	6.06e-01	0	23	0	529006592	66	4401
2026-01-11 12:49:05.42	240.15	32.37	-49.1	-50.7	16.0	6.07e-01	0	23	0	531103744	66	4475
2026-01-11 12:49:06.44	240.56	32.47	-49.0	-50.6	16.0	6.05e-01	0	23	0	532676608	66	4437
2026-01-11 12:49:07.45	240.97	32.56	-49.0	-50.6	16.0	6.07e-01	0	23	0	534773760	66	4412
2026-01-11 12:49:08.45	241.38	32.65	-49.0	-50.7	16.0	6.06e-01	0	23	0	536346624	66	4444
2026-01-11 12:49:09.46	241.80	32.75	-49.0	-50.6	16.0	6.07e-01	0	23	0	538443776	66	4429
2026-01-11 12:49:10.48	242.22	32.84	-49.0	-50.6	15.7	6.05e-01	0	23	0	540540928	66	4412
2026-01-11 12:49:11.48	242.63	32.93	-48.8	-50.4	16.1	6.07e-01	0	23	0	542113792	66	4316
2026-01-11 12:49:12.49	243.06	33.02	-48.8	-50.5	16.1	6.07e-01	0	23	0	544210944	66	4347
2026-01-11 12:49:13.49	243.48	33.11	-48.9	-50.5	16.0	6.08e-01	0	23	0	545783808	66	4374
2026-01-11 12:49:14.50	243.90	33.19	-48.8	-50.4	16.1	6.05e-01	0	23	0	547880960	66	4338
2026-01-11 12:49:15.51	244.33	33.28	-48.9	-50.6	16.0	6.06e-01	0	23	0	549978112	66	4404
2026-01-11 12:49:16.52	244.77	33.36	-49.0	-50.7	16.0	6.07e-01	0	23	0	551550976	66	4461
2026-01-11 12:49:17.52	245.19	33.44	-48.8	-50.5	16.0	6.07e-01	0	23	0	553648128	66	4357
2026-01-11 12:49:18.54	245.63	33.52	-48.8	-50.4	16.1	6.05e-01	0	23	0	555220992	66	4326
2026-01-11 12:49:19.55	246.07	33.60	-48.7	-50.3	16.1	6.08e-01	0	23	0	557318144	66	4264
2026-01-11 12:49:20.55	246.51	33.68	-48.8	-50.4	16.1	6.06e-01	0	23	0	559415296	66	4301
2026-01-11 12:49:21.55	246.95	33.75	-48.9	-50.6	16.0	6.06e-01	0	23	0	560988160	66	4404
2026-01-11 12:49:22.56	247.39	33.83	-48.9	-50.5	16.1	6.06e-01	0	23	0	563085312	66	4355
2026-01-11 12:49:23.57	247.84	33.90	-48.8	-50.5	16.1	6.05e-01	0	23	0	564658176	66	4343
2026-01-11 12:49:24.58	248.29	33.97	-48.8	-50.4	16.1	6.05e-01	0	23	0	566755328	66	4327
2026-01-11 12:49:25.59	248.74	34.04	-48.7	-50.3	16.1	6.06e-01	0	23	0	568852480	66	4268
2026-01-11 12:49:26.59	249.18	34.11	-48.7	-50.3	16.1	6.07e-01	0	23	0	570425344	66	4274
2026-01-11 12:49:27.60	249.64	34.17	-48.9	-50.5	16.0	6.05e-01	0	23	0	572522496	66	4358
2026-01-11 12:49:28.61	250.09	34.23	-48.9	-50.5	16.0	6.08e-01	0	23	0	574095360	66	4375
2026-01-11 12:49:29.62	250.55	34.30	-48.7	-50.3	16.1	6.06e-01	0	23	0	576192512	66	4260
2026-01-11 12:49:30.63	251.01	34.36	-48.8	-50.5	16.1	6.05e-01	0	23	0	578289664	66	4341
2026-01-11 12:49:31.63	251.47	34.41	-48.9	-50.5	16.1	6.05e-01	0	23	0	579862528	66	4364
2026-01-11 12:49:32.64	251.93	34.47	-48.7	-50.3	16.1	6.08e-01	0	23	0	581959680	66	4259
2026-01-11 12:49:33.65	252.39	34.52	-48.8	-50.4	16.1	6.08e-01	0	23	0	583532544	66	4329
2026-01-11 12:49:34.66	252.86	34.58	-48.7	-50.3	16.1	6.07e-01	0	23	0	585629696	66	4284
2026-01-11 12:49:35.66	253.32	34.63	-48.8	-50.4	16.1	6.04e-01	0	23	0	587726848	66	4309
2026-01-11 12:49:36.67	253.79	34.67	-48.8	-50.4	16.1	6.06e-01	0	23	0	589299712	66	4305
2026-01-11 12:49:37.68	254.26	34.72	-48.8	-50.4	16.1	6.05e-01	0	23	0	591396864	66	4301
2026-01-11 12:49:38.69	254.73	34.76	-48.7	-50.2	16.2	6.06e-01	0	23	0	593494016	66	4235
2026-01-11 12:49:39.69	255.20	34.81	-48.7	-50.4	16.1	6.06e-01	0	23	0	595066880	66	4295
2026-01-11 12:49:40.70	255.67	34.85	-48.7	-50.3	16.1	6.05e-01	0	23	0	597164032	66	4274
2026-01-11 12:49:41.71	256.15	34.89	-48.6	-50.1	16.2	6.06e-01	0	23	0	598736896	66	4189
2026-01-11 12:49:42.72	256.62	34.92	-48.5	-50.1	16.2	6.08e-01	0	23	0	600834048	66	4172
2026-01-11 12:49:43.73	257.10	34.96	-48.7	-50.3	16.1	6.05e-01	0	23	0	602931200	66	4260
2026-01-11 12:49:44.74	257.58	34.99	-48.7	-50.3	16.1	6.06e-01	0	23	0	604504064	66	4276
2026-01-11 12:49:45.75	258.06	35.02	-48.6	-50.2	16.2	6.09e-01	0	23	0	606601216	66	4225
2026-01-11 12:49:46.75	258.53	35.05	-48.9	-50.5	16.0	6.04e-01	0	23	0	608174080	66	4365
2026-01-11 12:49:47.76	259.01	35.07	-48.6	-50.1	16.2	6.06e-01	0	23	0	610271232	66	4186
2026-01-11 12:49:48.77	259.50	35.09	-48.6	-50.1	16.2	6.07e-01	0	23	0	611844096	66	4190
2026-01-11 12:49:49.78	259.98	35.12	-48.7	-50.3	16.1	6.07e-01	0	23	0	613941248	66	4282
2026-01-11 12:49:50.78	260.45	35.13	-48.6	-50.2	16.1	6.07e-01	0	23	0	616038400	66	4213
2026-01-11 12:49:51.79	260.94	35.15	-48.7	-50.3	16.1	6.05e-01	0	23	0	617611264	66	4271
2026-01-11 12:49:52.80	261.42	35.17	-48.6	-50.1	16.2	6.02e-01	0	23	0	619708416	66	4181
2026-01-11 12:49:53.81	261.91	35.18	-48.7	-50.3	16.1	6.01e-01	0	23	0	621805568	66	4284
2026-01-11 12:49:54.82	262.39	35.19	-48.6	-50.2	16.2	6.03e-01	0	23	0	623378432	66	4198
2026-01-11 12:49:55.83	262.87	35.20	-48.6	-50.2	16.2	6.02e-01	0	23	0	625475584	66	4194
2026-01-11 12:49:56.84	263.36	35.20	-48.5	-50.1	16.2	6.03e-01	0	23	0	627048448	66	4159
2026-01-11 12:49:57.84	263.84	35.21	-48.4	-50.0	16.2	6.02e-01	0	23	0	629145600	66	4114
2026-01-11 12:49:58.86	264.33	35.21	-48.6	-50.2	16.2	6.03e-01	0	23	0	631242752	66	4220
2026-01-11 12:49:59.86	264.81	35.21	-48.5	-50.1	16.2	6.01e-01	0	23	0	632815616	66	4165
2026-01-11 12:50:00.87	265.29	35.20	-48.6	-50.2	16.1	6.00e-01	0	23	0	634912768	66	4204
2026-01-11 12:50:01.88	265.78	35.20	-48.7	-50.2	16.1	6.01e-01	0	23	0	637009920	66	4239
2026-01-11 12:50:02.89	266.26	35.19	-48.5	-50.0	16.2	6.05e-01	0	23	0	638582784	66	4138
2026-01-11 12:50:03.89	266.74	35.18	-48.5	-50.1	16.2	6.04e-01	0	23	0	640679936	66	4166
2026-01-11 12:50:04.90	267.23	35.17	-48.6	-50.1	16.2	6.05e-01	0	23	0	642252800	66	4177
2026-01-11 12:50:05.90	267.70	35.16	-48.6	-50.1	16.2	6.03e-01	0	23	0	644349952	66	4189
2026-01-11 12:50:06.91	268.19	35.14	-48.5	-50.0	16.2	6.02e-01	0	23	0	645922816	66	4130
2026-01-11 12:50:07.92	268.67	35.12	-48.4	-50.0	16.2	6.02e-01	0	23	0	648019968	66	4114
2026-01-11 12:50:08.93	269.15	35.10	-48.5	-50.1	16.2	6.01e-01	0	23	0	650117120	66	4159
2026-01-11 12:50:09.94	269.63	35.08	-48.5	-50.1	16.2	6.04e-01	0	23	0	651689984	66	4174
2026-01-11 12:50:10.94	270.11	35.06	-48.6	-50.2	16.2	6.01e-01	0	23	0	653787136	66	4208
2026-01-11 12:50:11.95	270.59	35.03	-48.6	-50.2	16.2	6.03e-01	0	23	0	655360000	66	4200
2026-01-11 12:50:12.96	271.07	35.00	-48.4	-50.0	16.2	6.03e-01	0	23	0	657457152	66	4108
2026-01-11 12:50:13.97	271.54	34.97	-48.6	-50.1	16.2	6.01e-01	0	23	0	659554304	66	4185
2026-01-11 12:50:14.98	272.02	34.94	-48.6	-50.1	16.2	6.03e-01	0	23	0	661127168	66	4188
2026-01-11 12:50:15.99	272.50	34.90	-48.5	-50.1	16.2	6.05e-01	0	23	0	663224320	66	4152
2026-01-11 12:50:16.99	272.97	34.86	-48.3	-49.9	16.1	6.01e-01	0	23	0	665321472	65	4293
2026-01-11 12:50:18.00	273.44	34.82	-48.3	-49.9	16.1	6.03e-01	0	23	0	666894336	65	4297
2026-01-11 12:50:19.01	273.91	34.78	-48.3	-49.8	16.1	6.03e-01	0	23	0	668991488	65	4285
2026-01-11 12:50:20.02	274.39	34.74	-48.4	-49.9	16.0	6.02e-01	0	23	0	670564352	65	4335
2026-01-11 12:50:21.02	274.85	34.69	-48.2	-49.7	16.1	6.02e-01	0	23	0	672661504	65	4230
2026-01-11 12:50:22.03	275.32	34.65	-48.3	-49.8	16.1	6.03e-01	0	23	0	674758656	65	4267
2026-01-11 12:50:23.04	275.79	34.60	-48.3	-49.8	16.1	6.03e-01	0	23	0	676331520	65	4263
2026-01-11 12:50:24.05	276.25	34.55	-48.2	-49.8	16.1	6.04e-01	0	23	0	678428672	65	4255
2026-01-11 12:50:25.06	276.72	34.49	-48.3	-49.8	16.1	6.01e-01	0	23	0	680001536	65	4289
2026-01-11 12:50:26.06	277.17	34.44	-48.1	-49.7	16.1	6.03e-01	0	23	0	682098688	65	4196
2026-01-11 12:50:27.07	277.64	34.38	-48.2	-49.8	16.1	6.01e-01	0	23	0	683671552	65	4258
2026-01-11 12:50:28.08	278.10	34.32	-48.3	-49.8	16.1	6.01e-01	0	23	0	685768704	65	4271
2026-01-11 12:50:29.09	278.55	34.26	-48.3	-49.8	16.1	6.04e-01	0	23	0	687865856	65	4278
2026-01-11 12:50:30.10	279.01	34.20	-48.2	-49.8	16.1	6.03e-01	0	23	0	689438720	65	4264
2026-01-11 12:50:31.11	279.46	34.13	-48.3	-49.8	16.1	6.01e-01	0	23	0	691535872	65	4265
2026-01-11 12:50:32.11	279.91	34.07	-48.2	-49.7	16.1	6.02e-01	0	23	0	693633024	65	4228
2026-01-11 12:50:33.12	280.36	34.00	-48.3	-49.9	16.1	6.01e-01	0	23	0	695205888	65	4301
2026-01-11 12:50:34.13	280.81	33.93	-48.2	-49.8	16.1	6.03e-01	0	23	0	697303040	65	4243
2026-01-11 12:50:35.14	281.26	33.86	-48.0	-49.5	16.2	6.00e-01	0	23	0	698875904	65	4128
2026-01-11 12:50:36.15	281.70	33.78	-48.1	-49.7	16.2	6.02e-01	0	23	0	700973056	65	4202
2026-01-11 12:50:37.15	282.14	33.71	-48.1	-49.7	16.2	6.04e-01	0	23	0	703070208	65	4204
2026-01-11 12:50:38.16	282.58	33.63	-48.1	-49.7	16.2	6.03e-01	0	23	0	704643072	65	4196
2026-01-11 12:50:39.17	283.02	33.56	-48.1	-49.7	16.2	6.05e-01	0	23	0	706740224	65	4200
2026-01-11 12:50:40.18	283.45	33.48	-48.0	-49.5	16.2	6.03e-01	0	23	0	708313088	65	4141
2026-01-11 12:50:41.19	283.89	33.40	-48.0	-49.5	16.2	6.04e-01	0	23	0	710410240	65	4138
2026-01-11 12:50:42.19	284.31	33.31	-48.0	-49.5	16.2	6.01e-01	0	23	0	712507392	65	4125
2026-01-11 12:50:43.20	284.74	33.23	-48.0	-49.5	16.2	6.02e-01	0	23	0	714080256	65	4136
2026-01-11 12:50:44.21	285.17	33.14	-47.9	-49.4	16.3	6.03e-01	0	23	0	716177408	65	4086
2026-01-11 12:50:45.22	285.59	33.06	-47.9	-49.4	16.2	6.03e-01	0	23	0	717750272	65	4093
2026-01-11 12:50:46.22	286.01	32.97	-47.9	-49.4	16.3	6.02e-01	0	23	0	719847424	65	4081
2026-01-11 12:50:47.23	286.43	32.88	-48.1	-49.6	16.2	6.02e-01	0	23	0	721944576	65	4164
2026-01-11 12:50:48.24	286.85	32.79	-47.8	-49.3	16.1	6.03e-01	0	23	0	723517440	64	4275
2026-01-11 12:50:49.25	287.27	32.70	-47.9	-49.4	16.1	6.04e-01	0	23	0	725614592	64	4305
2026-01-11 12:50:50.25	287.67	32.60	-48.0	-49.5	16.1	6.02e-01	0	23	0	727187456	64	4365
2026-01-11 12:50:51.26	288.09	32.51	-48.0	-49.5	16.1	6.02e-01	0	23	0	729284608	64	4362
2026-01-11 12:50:52.27	288.49	32.41	-47.9	-49.4	16.1	6.01e-01	0	23	0	731381760	64	4323
2026-01-11 12:50:53.27	288.90	32.32	-47.9	-49.4	16.1	6.04e-01	0	23	0	732954624	64	4301
2026-01-11 12:50:54.28	289.30	32.22	-47.9	-49.4	16.1	6.02e-01	0	23	0	735051776	64	4312
2026-01-11 12:50:55.29	289.70	32.12	-47.7	-49.2	16.1	6.03e-01	0	23	0	736624640	64	4237
2026-01-11 12:50:56.30	290.10	32.02	-47.7	-49.2	16.1	6.02e-01	0	23	0	738721792	64	4229
2026-01-11 12:50:57.31	290.49	31.92	-47.9	-49.4	16.1	6.00e-01	0	23	0	740818944	64	4307
2026-01-11 12:50:58.31	290.88	31.82	-47.9	-49.4	16.1	6.03e-01	0	23	0	742391808	64	4307
2026-01-11 12:50:59.32	291.27	31.71	-47.9	-49.4	16.1	6.02e-01	0	23	0	744488960	64	4311
2026-01-11 12:51:00.34	291.66	31.61	-47.9	-49.5	16.1	6.02e-01	0	23	0	746586112	64	4341
2026-01-11 12:51:01.34	292.05	31.50	-47.8	-49.3	16.1	6.03e-01	0	23	0	748158976	64	4270
2026-01-11 12:51:02.35	292.43	31.39	-47.8	-49.3	16.2	6.02e-01	0	23	0	750256128	64	4260
2026-01-11 12:51:03.36	292.81	31.29	-47.7	-49.2	16.1	6.01e-01	0	23	0	751828992	64	4225
2026-01-11 12:51:04.37	293.19	31.18	-47.8	-49.3	16.1	6.01e-01	0	23	0	753926144	64	4274
2026-01-11 12:51:05.38	293.56	31.07	-47.8	-49.3	16.1	6.01e-01	0	23	0	756023296	64	4279
2026-01-11 12:51:06.38	293.93	30.96	-47.8	-49.3	16.1	6.02e-01	0	23	0	757596160	64	4288
2026-01-11 12:51:07.39	294.30	30.85	-47.8	-49.3	16.1	6.00e-01	0	23	0	759693312	64	4273
2026-01-11 12:51:08.40	294.67	30.74	-47.9	-49.4	16.1	6.03e-01	0	23	0	761266176	64	4301
2026-01-11 12:51:09.41	295.03	30.62	-48.0	-49.5	16.1	6.02e-01	0	23	0	763363328	64	4363
2026-01-11 12:51:10.42	295.40	30.51	-47.9	-49.4	16.1	6.03e-01	0	23	0	764936192	64	4300
2026-01-11 12:51:11.42	295.75	30.40	-47.7	-49.1	16.2	6.03e-01	0	23	0	767033344	64	4177
2026-01-11 12:51:12.43	296.11	30.28	-47.8	-49.3	16.1	6.05e-01	0	23	0	769130496	64	4263
2026-01-11 12:51:13.44	296.46	30.17	-47.9	-49.5	16.1	6.04e-01	0	23	0	770703360	64	4343
2026-01-11 12:51:14.45	296.81	30.05	-47.9	-49.4	16.1	6.03e-01	0	23	0	772800512	64	4311
2026-01-11 12:51:15.46	297.16	29.93	-48.0	-49.5	16.1	6.02e-01	0	23	0	774897664	64	4358
2026-01-11 12:51:16.46	297.51	29.82	-47.8	-49.3	16.1	6.03e-01	0	23	0	776470528	64	4255
2026-01-11 12:51:17.47	297.85	29.70	-47.9	-49.5	16.1	6.02e-01	0	23	0	778567680	64	4348
2026-01-11 12:51:18.48	298.19	29.58	-48.1	-49.6	16.0	6.01e-01	0	23	0	780140544	64	4422
2026-01-11 12:51:19.49	298.53	29.46	-48.1	-49.6	16.0	6.01e-01	0	23	0	782237696	64	4431
2026-01-11 12:51:20.50	298.87	29.34	-47.9	-49.4	16.1	6.04e-01	0	23	0	784334848	64	4327
2026-01-11 12:51:21.51	299.20	29.22	-47.9	-49.4	16.1	6.04e-01	0	23	0	785907712	64	4310
2026-01-11 12:51:22.51	299.53	29.10	-48.0	-49.5	16.0	6.03e-01	0	23	0	788004864	64	4371
2026-01-11 12:51:23.52	299.86	28.98	-48.1	-49.6	16.0	6.03e-01	0	23	0	789577728	64	4439
2026-01-11 12:51:24.53	300.19	28.86	-48.0	-49.5	16.1	6.04e-01	0	23	0	791674880	64	4390
2026-01-11 12:51:25.54	300.51	28.74	-47.9	-49.5	16.1	6.03e-01	0	23	0	793772032	64	4343
2026-01-11 12:51:26.55	300.83	28.62	-48.0	-49.5	16.1	6.03e-01	0	23	0	795344896	64	4354
2026-01-11 12:51:27.56	301.15	28.50	-48.0	-49.5	16.1	6.03e-01	0	23	0	797442048	64	4389
2026-01-11 12:51:28.57	301.47	28.37	-48.0	-49.5	16.1	6.04e-01	0	23	0	799014912	64	4359
2026-01-11 12:51:29.58	301.78	28.25	-48.1	-49.6	16.1	6.02e-01	0	23	0	801112064	64	4409
2026-01-11 12:51:30.58	302.09	28.13	-48.2	-49.8	16.0	6.03e-01	0	23	0	803209216	64	4500
2026-01-11 12:51:31.59	302.40	28.00	-48.2	-49.7	16.0	6.01e-01	0	23	0	804782080	64	4487
2026-01-11 12:51:32.60	302.70	27.88	-48.1	-49.7	16.0	6.04e-01	0	23	0	806879232	64	4463
2026-01-11 12:51:33.61	303.01	27.76	-48.3	-49.8	16.0	6.02e-01	0	23	0	808452096	64	4518
2026-01-11 12:51:34.62	303.31	27.63	-48.2	-49.7	16.0	6.02e-01	0	23	0	810549248	64	4491
2026-01-11 12:51:35.63	303.61	27.51	-48.1	-49.6	16.0	6.02e-01	0	23	0	812646400	64	4418
2026-01-11 12:51:36.63	303.90	27.39	-48.2	-49.7	16.0	6.04e-01	0	23	0	814219264	64	4481
2026-01-11 12:51:37.64	304.20	27.26	-48.3	-49.9	15.9	6.03e-01	0	23	0	816316416	64	4564
2026-01-11 12:51:38.64	304.49	27.14	-48.3	-49.9	15.9	6.02e-01	0	23	0	818413568	64	4567
2026-01-11 12:51:39.65	304.78	27.01	-48.3	-49.8	15.9	6.03e-01	0	23	0	819986432	64	4542
2026-01-11 12:51:40.66	305.07	26.89	-48.3	-49.9	15.9	6.03e-01	0	23	0	822083584	64	4558
2026-01-11 12:51:41.67	305.35	26.76	-48.2	-49.8	16.0	6.03e-01	0	23	0	823656448	64	4511
2026-01-11 12:51:42.68	305.64	26.64	-48.4	-49.9	15.9	6.02e-01	0	23	0	825753600	64	4587
2026-01-11 12:51:43.68	305.91	26.51	-48.5	-50.1	15.9	6.02e-01	0	23	0	827850752	64	4667
2026-01-11 12:51:44.69	306.19	26.39	-48.5	-50.1	15.9	6.03e-01	0	23	0	829423616	64	4682
2026-01-11 12:51:45.70	306.47	26.26	-48.5	-50.1	15.9	6.02e-01	0	23	0	831520768	64	4676
2026-01-11 12:51:46.71	306.74	26.14	-48.6	-50.2	15.9	6.01e-01	0	23	0	833093632	65	4487
2026-01-11 12:51:47.71	307.01	26.01	-48.5	-50.0	16.0	6.02e-01	0	23	0	835190784	65	4378
2026-01-11 12:51:48.72	307.28	25.89	-48.5	-50.0	16.0	6.05e-01	0	23	0	837287936	65	4382
2026-01-11 12:51:49.72	307.55	25.76	-48.5	-50.0	16.0	6.05e-01	0	23	0	838860800	65	4384
2026-01-11 12:51:50.73	307.81	25.64	-48.6	-50.2	16.0	6.02e-01	0	23	0	840957952	65	4463
2026-01-11 12:51:51.74	308.08	25.51	-48.5	-50.1	16.0	6.02e-01	0	23	0	842530816	65	4397
2026-01-11 12:51:52.74	308.34	25.39	-48.5	-50.1	16.0	6.04e-01	0	23	0	844627968	65	4402
2026-01-11 12:51:53.75	308.59	25.26	-48.6	-50.2	16.0	6.02e-01	0	23	0	846725120	65	4451
2026-01-11 12:51:54.76	308.85	25.13	-48.4	-50.0	16.0	6.04e-01	0	23	0	848297984	65	4360
2026-01-11 12:51:55.76	309.10	25.01	-48.5	-50.1	16.0	6.02e-01	0	23	0	850395136	65	4407
2026-01-11 12:51:56.77	309.36	24.89	-48.6	-50.2	16.0	6.05e-01	0	23	0	851968000	65	4464
2026-01-11 12:51:57.78	309.61	24.76	-48.7	-50.4	15.9	6.03e-01	0	23	0	854065152	65	4565
2026-01-11 12:51:58.78	309.85	24.64	-48.8	-50.5	15.9	6.03e-01	0	23	0	856162304	65	4627
2026-01-11 12:51:59.79	310.10	24.51	-48.8	-50.5	15.9	6.05e-01	0	23	0	857735168	65	4619
2026-01-11 12:52:00.80	310.35	24.39	-48.6	-50.2	16.0	6.02e-01	0	23	0	859832320	65	4488
2026-01-11 12:52:01.80	310.59	24.26	-48.6	-50.2	16.0	6.04e-01	0	23	0	861405184	65	4455
2026-01-11 12:52:02.81	310.83	24.14	-48.5	-50.1	16.0	6.02e-01	0	23	0	863502336	65	4426
2026-01-11 12:52:03.82	311.07	24.01	-48.6	-50.2	16.0	6.02e-01	0	23	0	865075200	65	4483
2026-01-11 12:52:04.82	311.30	23.89	-48.6	-50.2	16.0	6.03e-01	0	23	0	867172352	65	4467
2026-01-11 12:52:05.84	311.54	23.77	-48.6	-50.2	16.0	6.03e-01	0	23	0	869269504	65	4449
2026-01-11 12:52:06.84	311.77	23.64	-48.5	-50.1	16.0	6.04e-01	0	23	0	870842368	65	4400
2026-01-11 12:52:07.84	312.00	23.52	-48.6	-50.2	16.0	6.04e-01	0	23	0	872939520	65	4455
2026-01-11 12:52:08.85	312.23	23.40	-48.5	-50.1	16.0	6.02e-01	0	23	0	875036672	65	4424
2026-01-11 12:52:09.87	312.46	23.27	-48.5	-50.1	16.0	6.00e-01	0	23	0	876609536	65	4399
2026-01-11 12:52:10.88	312.68	23.15	-48.5	-50.1	16.0	6.03e-01	0	23	0	878706688	65	4431
2026-01-11 12:52:11.88	312.91	23.03	-48.5	-50.1	16.0	6.02e-01	0	23	0	880279552	65	4436
2026-01-11 12:52:12.89	313.13	22.91	-48.5	-50.1	16.0	6.02e-01	0	23	0	882376704	65	4423
2026-01-11 12:52:13.90	313.35	22.78	-48.5	-50.1	16.0	6.03e-01	0	23	0	884473856	65	4392
2026-01-11 12:52:14.91	313.57	22.66	-48.5	-50.1	16.0	6.03e-01	0	23	0	886046720	65	4405
2026-01-11 12:52:15.92	313.79	22.54	-48.5	-50.1	16.0	6.05e-01	0	23	0	888143872	65	4394
2026-01-11 12:52:16.92	314.00	22.42	-48.5	-50.1	16.0	6.03e-01	0	23	0	889716736	65	4423
2026-01-11 12:52:17.93	314.21	22.30	-48.5	-50.1	16.0	6.01e-01	0	23	0	891813888	65	4436
2026-01-11 12:52:18.94	314.42	22.18	-48.5	-50.2	16.0	6.01e-01	0	23	0	893911040	65	4443
2026-01-11 12:52:19.95	314.63	22.06	-48.6	-50.2	16.0	6.01e-01	0	23	0	895483904	65	4477
2026-01-11 12:52:20.96	314.84	21.93	-48.6	-50.3	16.0	6.04e-01	0	23	0	897581056	65	4494
2026-01-11 12:52:21.96	315.05	21.82	-48.6	-50.2	15.9	6.04e-01	0	23	0	899153920	65	4493
2026-01-11 12:52:22.97	315.25	21.70	-48.6	-50.2	16.0	6.04e-01	0	23	0	901251072	65	4477
2026-01-11 12:52:23.98	315.46	21.58	-48.6	-50.2	16.0	6.01e-01	0	23	0	903348224	65	4475
2026-01-11 12:52:24.99	315.66	21.46	-48.7	-50.3	16.0	6.02e-01	0	23	0	904921088	65	4518
2026-01-11 12:52:25.99	315.86	21.34	-48.5	-50.1	16.0	6.01e-01	0	23	0	907018240	65	4416
2026-01-11 12:52:27.00	316.06	21.22	-48.6	-50.2	16.0	6.04e-01	0	23	0	908591104	65	4483
2026-01-11 12:52:28.01	316.25	21.10	-48.6	-50.1	16.0	6.02e-01	0	23	0	910688256	65	4439
2026-01-11 12:52:29.02	316.45	20.98	-48.4	-50.0	16.0	6.00e-01	0	23	0	912785408	65	4356
2026-01-11 12:52:30.03	316.64	20.86	-48.4	-50.0	16.0	6.03e-01	0	23	0	914358272	65	4341
2026-01-11 12:52:31.04	316.84	20.75	-48.3	-49.9	16.1	6.02e-01	0	23	0	916455424	65	4314
2026-01-11 12:52:32.05	317.03	20.63	-48.3	-49.9	16.0	6.04e-01	0	23	0	918028288	65	4322
2026-01-11 12:52:33.05	317.21	20.51	-48.3	-49.9	16.1	6.01e-01	0	23	0	920125440	65	4299
2026-01-11 12:52:34.06	317.40	20.39	-48.4	-49.9	16.1	6.02e-01	0	23	0	922222592	65	4333
2026-01-11 12:52:35.06	317.59	20.28	-48.4	-50.0	16.1	6.03e-01	0	23	0	923795456	65	4349
2026-01-11 12:52:36.07	317.77	20.16	-48.5	-50.1	16.0	6.02e-01	0	23	0	925892608	65	4419
2026-01-11 12:52:37.07	317.96	20.05	-48.5	-50.1	16.0	6.02e-01	0	23	0	927465472	65	4434
2026-01-11 12:52:38.07	318.14	19.93	-48.5	-50.1	16.0	6.02e-01	0	23	0	929562624	65	4409
2026-01-11 12:52:39.08	318.32	19.82	-48.4	-50.0	16.0	6.02e-01	0	23	0	931659776	65	4381
2026-01-11 12:52:40.10	318.50	19.70	-48.5	-50.1	16.0	6.04e-01	0	23	0	933232640	65	4423
2026-01-11 12:52:41.10	318.67	19.59	-48.4	-50.0	16.0	6.03e-01	0	23	0	935329792	65	4384
2026-01-11 12:52:42.11	318.85	19.47	-48.4	-50.0	16.0	6.04e-01	0	23	0	936902656	65	4376
2026-01-11 12:52:43.12	319.03	19.36	-48.3	-49.9	16.1	6.03e-01	0	23	0	938999808	65	4311
2026-01-11 12:52:44.13	319.20	19.25	-48.3	-49.8	16.1	6.02e-01	0	23	0	941096960	65	4278
2026-01-11 12:52:45.13	319.37	19.13	-48.2	-49.7	16.1	6.02e-01	0	23	0	942669824	65	4231
2026-01-11 12:52:46.14	319.54	19.02	-48.2	-49.7	16.1	6.02e-01	0	23	0	944766976	65	4242
2026-01-11 12:52:47.15	319.72	18.91	-48.1	-49.7	16.2	6.03e-01	0	23	0	946339840	65	4200
2026-01-11 12:52:48.15	319.88	18.80	-48.2	-49.7	16.1	6.01e-01	0	23	0	948436992	65	4237
2026-01-11 12:52:49.16	320.05	18.68	-48.2	-49.7	16.1	6.04e-01	0	23	0	950534144	65	4230
2026-01-11 12:52:50.17	320.22	18.57	-48.2	-49.8	16.1	6.02e-01	0	23	0	952107008	65	4257
2026-01-11 12:52:51.18	320.38	18.46	-48.2	-49.8	16.1	6.04e-01	0	23	0	954204160	65	4266
2026-01-11 12:52:52.18	320.54	18.35	-48.3	-49.9	16.1	6.04e-01	0	23	0	956301312	65	4293
2026-01-11 12:52:53.18	320.71	18.24	-48.3	-49.9	16.1	6.03e-01	0	23	0	957874176	65	4298
2026-01-11 12:52:54.19	320.87	18.13	-48.4	-50.0	16.1	6.03e-01	0	23	0	959971328	65	4354
2026-01-11 12:52:55.20	321.03	18.02	-48.4	-50.0	16.1	6.01e-01	0	23	0	961544192	65	4353
2026-01-11 12:52:56.20	321.19	17.91	-48.5	-50.1	16.0	6.01e-01	0	23	0	963641344	65	4424
2026-01-11 12:52:57.21	321.34	17.80	-48.5	-50.1	16.0	6.03e-01	0	23	0	965214208	65	4418
2026-01-11 12:52:58.22	321.50	17.69	-48.4	-50.0	16.0	6.02e-01	0	23	0	967311360	65	4375
2026-01-11 12:52:59.23	321.66	17.58	-48.2	-49.7	16.1	6.04e-01	0	23	0	969408512	65	4237
2026-01-11 12:53:00.24	321.81	17.48	-48.2	-49.8	16.1	6.04e-01	0	23	0	970981376	65	4256
2026-01-11 12:53:01.25	321.96	17.37	-48.2	-49.7	16.2	6.02e-01	0	23	0	973078528	65	4237
2026-01-11 12:53:02.25	322.11	17.26	-48.2	-49.7	16.1	6.03e-01	0	23	0	974651392	65	4224
2026-01-11 12:53:03.26	322.27	17.15	-48.1	-49.7	16.1	6.03e-01	0	23	0	976748544	65	4225
2026-01-11 12:53:04.27	322.42	17.05	-48.2	-49.8	16.1	6.01e-01	0	23	0	978845696	65	4249
2026-01-11 12:53:05.28	322.57	16.94	-48.2	-49.8	16.1	5.99e-01	0	23	0	980418560	65	4276
2026-01-11 12:53:06.29	322.71	16.83	-48.3	-49.9	16.1	6.02e-01	0	23	0	982515712	65	4307
2026-01-11 12:53:07.29	322.86	16.73	-48.3	-49.9	16.1	6.01e-01	0	23	0	984612864	65	4301
2026-01-11 12:53:08.30	323.00	16.62	-48.2	-49.8	16.1	6.02e-01	0	23	0	986185728	65	4273
2026-01-11 12:53:09.31	323.15	16.52	-48.2	-49.8	16.1	6.03e-01	0	23	0	988282880	65	4277
2026-01-11 12:53:10.32	323.29	16.41	-48.2	-49.8	16.1	6.03e-01	0	23	0	989855744	65	4266
2026-01-11 12:53:11.33	323.44	16.31	-48.2	-49.8	16.1	6.02e-01	0	23	0	991952896	65	4280
2026-01-11 12:53:12.34	323.58	16.20	-48.3	-49.9	16.0	6.05e-01	0	23	0	994050048	65	4313
2026-01-11 12:53:13.35	323.72	16.10	-48.3	-49.9	16.0	6.00e-01	0	23	0	995622912	65	4324
2026-01-11 12:53:14.36	323.86	16.00	-48.3	-49.9	16.0	6.03e-01	0	23	0	997720064	65	4337
2026-01-11 12:53:15.36	324.00	15.89	-48.4	-50.0	16.0	6.02e-01	0	23	0	999292928	65	4348
2026-01-11 12:53:16.37	324.13	15.79	-48.2	-49.8	16.1	6.04e-01	0	23	0	1001390080	65	4248
2026-01-11 12:53:17.38	324.27	15.69	-48.3	-49.8	16.1	6.04e-01	0	23	0	1003487232	65	4291
2026-01-11 12:53:18.39	324.41	15.59	-48.2	-49.8	16.1	6.03e-01	0	23	0	1005060096	65	4274
2026-01-11 12:53:19.40	324.54	15.48	-48.3	-49.8	16.1	6.04e-01	0	23	0	1007157248	65	4291
2026-01-11 12:53:20.41	324.67	15.38	-48.2	-49.8	16.1	6.02e-01	0	23	0	1008730112	65	4283
2026-01-11 12:53:21.41	324.81	15.28	-48.3	-50.0	16.1	6.01e-01	0	23	0	1010827264	65	4342
2026-01-11 12:53:22.42	324.94	15.18	-48.3	-49.9	16.0	6.03e-01	0	23	0	1012924416	65	4331
2026-01-11 12:53:23.43	325.07	15.08	-48.3	-50.0	16.0	6.04e-01	0	23	0	1014497280	65	4349
2026-01-11 12:53:24.43	325.20	14.98	-48.4	-50.0	16.0	6.02e-01	0	23	0	1016594432	65	4354
2026-01-11 12:53:25.44	325.33	14.88	-48.4	-50.0	16.0	6.01e-01	0	23	0	1018167296	65	4377
2026-01-11 12:53:26.45	325.46	14.78	-48.4	-50.0	16.0	6.05e-01	0	23	0	1020264448	65	4376
2026-01-11 12:53:27.46	325.58	14.68	-48.3	-50.0	16.0	6.02e-01	0	23	0	1022361600	65	4342
2026-01-11 12:53:28.46	325.71	14.58	-48.3	-49.9	16.1	6.00e-01	0	23	0	1023934464	65	4328
2026-01-11 12:53:29.47	325.84	14.49	-48.4	-50.0	16.0	6.04e-01	0	23	0	1026031616	65	4352
2026-01-11 12:53:30.48	325.96	14.39	-48.4	-50.0	16.0	6.02e-01	0	23	0	1028128768	65	4390
2026-01-11 12:53:31.49	326.08	14.29	-48.4	-50.0	16.0	6.04e-01	0	23	0	1029701632	65	4370
2026-01-11 12:53:32.50	326.21	14.19	-48.4	-50.1	16.0	6.03e-01	0	23	0	1031798784	65	4392
2026-01-11 12:53:33.51	326.33	14.09	-48.4	-50.0	16.0	6.01e-01	0	23	0	1033371648	65	4370
2026-01-11 12:53:34.52	326.45	14.00	-48.3	-50.0	16.0	6.00e-01	0	23	0	1035468800	65	4347
2026-01-11 12:53:35.52	326.57	13.90	-48.4	-50.0	16.0	6.04e-01	0	23	0	1037041664	65	4374
2026-01-11 12:53:36.53	326.69	13.80	-48.4	-50.1	16.0	6.04e-01	0	23	0	1039138816	65	4392
2026-01-11 12:53:37.54	326.81	13.71	-48.3	-49.9	16.0	6.02e-01	0	23	0	1041235968	65	4312
2026-01-11 12:53:38.55	326.93	13.61	-48.3	-49.9	16.1	6.03e-01	0	23	0	1042808832	65	4302
2026-01-11 12:53:39.56	327.05	13.52	-48.4	-50.0	16.0	6.02e-01	0	23	0	1044905984	65	4349
2026-01-11 12:53:40.57	327.16	13.42	-48.3	-49.9	16.0	6.02e-01	0	23	0	1046478848	65	4315
2026-01-11 12:53:41.57	327.28	13.33	-48.4	-50.0	16.0	6.04e-01	0	23	0	1048576000	65	4358
2026-01-11 12:53:42.58	327.40	13.23	-48.4	-50.0	16.0	6.01e-01	0	23	0	1050673152	65	4365
2026-01-11 12:53:43.59	327.51	13.14	-48.4	-50.1	16.0	6.02e-01	0	23	0	1052246016	65	4407
2026-01-11 12:53:44.60	327.62	13.05	-48.4	-50.1	16.0	6.02e-01	0	23	0	1054343168	65	4397
2026-01-11 12:53:45.61	327.74	12.95	-48.5	-50.1	16.0	6.05e-01	0	23	0	1056440320	65	4423
2026-01-11 12:53:46.62	327.85	12.86	-48.4	-50.1	16.0	6.04e-01	0	23	0	1058013184	65	4395
2026-01-11 12:53:47.63	327.96	12.77	-48.5	-50.1	16.0	6.02e-01	0	23	0	1060110336	65	4411
2026-01-11 12:53:48.64	328.07	12.67	-48.5	-50.2	16.0	6.02e-01	0	23	0	1061683200	65	4445
2026-01-11 12:53:49.65	328.18	12.58	-48.5	-50.1	16.0	6.03e-01	0	23	0	1063780352	65	4425
2026-01-11 12:53:50.65	328.29	12.49	-48.6	-50.2	15.9	5.98e-01	0	23	0	1065877504	65	4476
2026-01-11 12:53:51.66	328.40	12.40	-48.6	-50.2	15.9	6.03e-01	0	23	0	1067450368	65	4489
2026-01-11 12:53:52.67	328.51	12.31	-48.6	-50.2	16.0	6.04e-01	0	23	0	1069547520	65	4487
2026-01-11 12:53:53.68	328.62	12.22	-48.6	-50.3	16.0	6.04e-01	0	23	0	1071120384	65	4508
2026-01-11 12:53:54.69	328.72	12.12	-48.7	-50.4	15.9	6.01e-01	0	23	0	1073217536	65	4553
2026-01-11 12:53:55.70	328.83	12.03	-48.7	-50.4	15.9	6.00e-01	0	23	0	1075314688	65	4549
2026-01-11 12:53:56.71	328.93	11.94	-48.8	-50.5	15.9	6.03e-01	0	23	0	1076887552	65	4628
2026-01-11 12:53:57.71	329.04	11.85	-48.8	-50.6	15.9	6.03e-01	0	23	0	1078984704	65	4654
2026-01-11 12:53:58.72	329.14	11.76	-48.8	-50.5	15.9	6.02e-01	0	23	0	1080557568	65	4647
2026-01-11 12:53:59.73	329.25	11.67	-48.8	-50.5	15.9	6.03e-01	0	23	0	1082654720	65	4629
2026-01-11 12:54:00.74	329.35	11.59	-48.8	-50.5	15.9	6.02e-01	0	23	0	1084751872	65	4623
2026-01-11 12:54:01.75	329.45	11.50	-48.7	-50.4	15.9	6.02e-01	0	23	0	1086324736	65	4572
2026-01-11 12:54:02.76	329.55	11.41	-48.8	-50.5	15.9	6.04e-01	0	23	0	1088421888	65	4647
2026-01-11 12:54:03.77	329.65	11.32	-48.8	-50.5	15.9	6.02e-01	0	23	0	1089994752	65	4634
2026-01-11 12:54:04.78	329.75	11.23	-48.7	-50.4	15.9	6.04e-01	0	23	0	1092091904	65	4582
2026-01-11 12:54:05.79	329.85	11.14	-48.8	-50.5	15.9	6.05e-01	0	23	0	1094189056	65	4622
2026-01-11 12:54:06.79	329.95	11.06	-48.8	-50.5	15.9	6.02e-01	0	23	0	1095761920	65	4616
2026-01-11 12:54:07.80	330.05	10.97	-48.8	-50.5	15.8	6.03e-01	0	23	0	1097859072	65	4639
2026-01-11 12:54:08.81	330.15	10.88	-48.9	-50.7	15.8	6.01e-01	0	23	0	1099431936	65	4725
2026-01-11 12:54:09.82	330.25	10.80	-49.0	-50.7	15.8	6.03e-01	0	23	0	1101529088	65	4752
2026-01-11 12:54:10.83	330.34	10.71	-49.0	-50.8	15.8	6.02e-01	0	23	0	1103626240	65	4769
2026-01-11 12:54:11.83	330.44	10.63	-48.9	-50.6	15.8	6.04e-01	0	23	0	1105199104	65	4676
2026-01-11 12:54:12.84	330.53	10.54	-48.9	-50.7	15.8	6.03e-01	0	23	0	1107296256	65	4720
2026-01-11 12:54:13.85	330.63	10.45	-49.0	-50.7	15.8	6.02e-01	0	23	0	1109393408	65	4749
2026-01-11 12:54:14.86	330.72	10.37	-48.9	-50.7	15.8	6.02e-01	0	23	0	1110966272	65	4716
2026-01-11 12:54:15.86	330.82	10.28	-49.0	-50.8	15.7	6.03e-01	0	23	0	1113063424	65	4782
2026-01-11 12:54:16.87	330.91	10.20	-48.9	-50.6	15.8	6.04e-01	0	23	0	1114636288	65	4680
2026-01-11 12:54:17.87	331.00	10.12	-49.0	-50.8	15.7	6.01e-01	0	23	0	1116733440	65	4781
2026-01-11 12:54:18.88	331.09	10.03	-49.0	-50.8	15.7	6.03e-01	0	23	0	1118830592	65	4804
2026-01-11 12:54:19.89	331.18	9.95	-49.1	-50.8	15.7	6.01e-01	0	23	0	1120403456	65	4808
2026-01-11 12:54:20.90	331.28	9.86	-49.0	-50.8	15.7	6.03e-01	0	23	0	1122500608	65	4798
2026-01-11 12:54:21.91	331.37	9.78	-49.1	-50.9	15.7	6.05e-01	0	23	0	1124073472	65	4821
2026-01-11 12:54:22.91	331.46	9.70	-49.2	-51.0	15.8	6.04e-01	0	23	0	1126170624	66	4632
2026-01-11 12:54:23.92	331.55	9.62	-49.3	-51.1	15.8	6.03e-01	0	23	0	1127743488	66	4659
2026-01-11 12:54:24.92	331.63	9.53	-49.1	-50.9	15.8	6.03e-01	0	23	0	1129840640	66	4587
2026-01-11 12:54:25.93	331.72	9.45	-49.1	-50.9	15.8	6.02e-01	0	23	0	1131937792	66	4581
2026-01-11 12:54:26.94	331.81	9.37	-49.2	-50.9	15.8	6.02e-01	0	23	0	1133510656	66	4597
2026-01-11 12:54:27.95	331.90	9.29	-49.2	-50.9	15.8	6.02e-01	0	23	0	1135607808	66	4598
2026-01-11 12:54:28.95	331.98	9.21	-49.2	-51.0	15.8	6.03e-01	0	23	0	1137704960	66	4634
2026-01-11 12:54:29.96	332.07	9.12	-49.3	-51.1	15.8	6.04e-01	0	23	0	1139277824	66	4665
2026-01-11 12:54:30.97	332.16	9.04	-49.2	-51.0	15.8	6.03e-01	0	23	0	1141374976	66	4610
2026-01-11 12:54:31.98	332.24	8.96	-49.2	-51.0	15.8	6.02e-01	0	23	0	1142947840	66	4642
2026-01-11 12:54:32.99	332.33	8.88	-49.3	-51.1	15.8	6.03e-01	0	23	0	1145044992	66	4689
2026-01-11 12:54:34.00	332.41	8.80	-49.3	-51.2	15.8	6.02e-01	0	23	0	1147142144	66	4710
2026-01-11 12:54:35.00	332.49	8.72	-49.2	-51.0	15.8	6.00e-01	0	23	0	1148715008	66	4642
2026-01-11 12:54:36.01	332.58	8.64	-49.3	-51.2	15.7	6.04e-01	0	23	0	1150812160	66	4723
2026-01-11 12:54:37.02	332.66	8.56	-49.3	-51.2	15.7	6.04e-01	0	23	0	1152385024	66	4723
2026-01-11 12:54:38.02	332.74	8.48	-49.5	-51.4	15.7	6.04e-01	0	23	0	1154482176	66	4837
2026-01-11 12:54:39.03	332.83	8.40	-49.5	-51.4	15.7	6.03e-01	0	23	0	1156579328	66	4819
2026-01-11 12:54:40.03	332.91	8.33	-49.4	-51.3	15.7	6.03e-01	0	23	0	1158152192	66	4772
2026-01-11 12:54:41.04	332.99	8.25	-49.4	-51.3	15.7	6.03e-01	0	23	0	1160249344	66	4793
2026-01-11 12:54:42.04	333.07	8.17	-49.5	-51.4	15.7	6.02e-01	0	23	0	1161822208	66	4815
2026-01-11 12:54:43.05	333.15	8.09	-49.5	-51.4	15.7	6.04e-01	0	23	0	1163919360	66	4824
2026-01-11 12:54:44.06	333.23	8.01	-49.5	-51.4	15.7	6.02e-01	0	23	0	1166016512	66	4869
2026-01-11 12:54:45.07	333.31	7.94	-49.5	-51.4	15.7	6.02e-01	0	23	0	1167589376	66	4839
2026-01-11 12:54:46.08	333.39	7.86	-49.5	-51.4	15.7	6.03e-01	0	23	0	1169686528	66	4860
2026-01-11 12:54:47.09	333.47	7.78	-49.6	-51.5	15.7	6.01e-01	0	23	0	1171259392	66	4887
2026-01-11 12:54:48.10	333.55	7.70	-49.7	-51.7	15.7	6.02e-01	0	23	0	1173356544	67	4718
2026-01-11 12:54:49.10	333.62	7.63	-49.5	-51.4	15.8	6.03e-01	0	23	0	1175453696	67	4568
2026-01-11 12:54:50.11	333.70	7.55	-49.5	-51.4	15.9	6.03e-01	0	23	0	1177026560	67	4560
2026-01-11 12:54:51.12	333.78	7.47	-49.6	-51.5	15.8	6.04e-01	0	23	0	1179123712	67	4599
2026-01-11 12:54:52.12	333.85	7.40	-49.6	-51.5	15.8	6.02e-01	0	23	0	1180696576	67	4632
2026-01-11 12:54:53.12	333.93	7.32	-49.7	-51.6	15.8	6.05e-01	0	23	0	1182793728	67	4676
2026-01-11 12:54:54.12	334.00	7.25	-49.7	-51.6	15.7	6.02e-01	0	23	0	1184366592	67	4696
2026-01-11 12:54:55.13	334.08	7.17	-49.7	-51.6	15.7	6.04e-01	0	23	0	1186463744	67	4698
2026-01-11 12:54:56.14	334.15	7.10	-49.6	-51.5	15.8	6.06e-01	0	23	0	1188560896	67	4616
2026-01-11 12:54:57.14	334.23	7.02	-49.7	-51.6	15.7	6.01e-01	0	23	0	1190133760	67	4690
2026-01-11 12:54:58.15	334.30	6.95	-49.9	-51.9	15.6	6.02e-01	0	23	0	1192230912	67	4830
2026-01-11 12:54:59.16	334.38	6.87	-50.0	-52.0	15.6	6.01e-01	0	23	0	1194328064	67	4907
2026-01-11 12:55:00.17	334.45	6.80	-50.1	-52.1	15.6	6.04e-01	0	23	0	1195900928	67	4966
2026-01-11 12:55:01.18	334.52	6.72	-49.9	-51.9	15.6	6.03e-01	0	23	0	1197998080	67	4835
2026-01-11 12:55:02.19	334.60	6.65	-49.8	-51.8	15.6	6.03e-01	0	23	0	1199570944	67	4803
2026-01-11 12:55:03.19	334.67	6.57	-49.9	-51.9	15.6	6.01e-01	0	23	0	1201668096	67	4824
2026-01-11 12:55:04.20	334.74	6.50	-49.8	-51.8	15.6	6.05e-01	0	23	0	1203765248	67	4788
2026-01-11 12:55:05.20	334.81	6.43	-49.9	-51.9	15.6	6.03e-01	0	23	0	1205338112	67	4829
2026-01-11 12:55:06.21	334.88	6.35	-49.9	-51.9	15.6	6.04e-01	0	23	0	1207435264	67	4848
2026-01-11 12:55:07.22	334.95	6.28	-50.0	-52.0	15.6	6.02e-01	0	23	0	1209008128	67	4891
2026-01-11 12:55:08.22	335.02	6.21	-50.0	-52.0	15.6	6.01e-01	0	23	0	1211105280	67	4908
2026-01-11 12:55:09.23	335.09	6.14	-49.9	-52.0	15.6	6.02e-01	0	23	0	1213202432	67	4878
2026-01-11 12:55:10.24	335.16	6.06	-50.0	-52.1	15.6	6.04e-01	0	23	0	1214775296	67	4941
2026-01-11 12:55:11.25	335.23	5.99	-50.0	-52.0	15.6	6.04e-01	0	23	0	1216872448	67	4896
2026-01-11 12:55:12.26	335.30	5.92	-50.0	-52.0	15.6	6.00e-01	0	23	0	1218445312	67	4908
2026-01-11 12:55:13.26	335.37	5.85	-50.0	-52.1	15.6	6.04e-01	0	23	0	1220542464	67	4928
2026-01-11 12:55:14.27	335.44	5.78	-50.1	-52.2	15.5	6.03e-01	0	23	0	1222639616	67	4992
2026-01-11 12:55:15.28	335.51	5.70	-50.4	-52.6	15.5	6.04e-01	0	23	0	1224212480	68	4928
2026-01-11 12:55:16.29	335.57	5.63	-50.3	-52.5	15.5	6.01e-01	0	23	0	1226309632	68	4890
2026-01-11 12:55:17.30	335.64	5.56	-50.5	-52.7	15.4	6.03e-01	0	23	0	1227882496	68	5015
2026-01-11 12:55:18.31	335.71	5.49	-50.6	-52.8	15.4	6.00e-01	0	23	0	1229979648	68	5069
2026-01-11 12:55:19.31	335.77	5.42	-50.7	-52.9	15.6	6.03e-01	0	23	0	1232076800	69	4861
2026-01-11 12:55:20.32	335.84	5.35	-50.8	-53.2	15.4	6.04e-01	0	23	0	1233649664	69	5012
2026-01-11 12:55:21.33	335.91	5.28	-50.8	-53.1	15.4	6.01e-01	0	23	0	1235746816	69	4964
2026-01-11 12:55:22.34	335.97	5.21	-50.8	-53.2	15.4	6.05e-01	0	23	0	1237319680	69	5002
2026-01-11 12:55:23.35	336.04	5.14	-50.7	-53.0	15.5	6.04e-01	0	23	0	1239416832	69	4904
