passes_logs/2026/01/11/R3.2S_Murmansk/R3.2S_Murmansk__20260111_212711_NOAA_20_JPSS-1_rec.log

#Pass ID: 20260111_212711_NOAA 20 (JPSS-1)
#Satellite: NOAA 20 (JPSS-1)
#Configuration: NOAA 20
#almurnet v.1.7.20251203
#Start time: 2026-01-11 21:27:14

#Version: 2.2.20231116
#Station: R3.2S_Murmansk
#Location: 33.079688 lon 68.888172 lat
#TLE: 1 43013U 17073A   26011.59429536  .00000082  00000+0  59704-4 0  9990
#TLE: 2 43013  98.7632 312.5697 0001637  44.2118 315.9188 14.19535307422256

#Time	Az	El	Level	Level2	SNR	BER	BlckErr	Temp	State	Recorded	gain1	gain2
2026-01-11 21:27:14.04	18.58	2.11	-56.9	-72.8	3.8	1.49e+00	0	21	0	0	80	21850
2026-01-11 21:27:15.04	18.68	2.15	-56.9	-72.8	3.8	1.49e+00	0	21	104	0	78	24581
2026-01-11 21:27:16.05	18.77	2.20	-56.9	-72.8	3.8	1.49e+00	0	21	104	0	78	24422
2026-01-11 21:27:17.07	18.87	2.25	-56.9	-72.8	3.8	1.49e+00	0	21	104	0	78	24422
2026-01-11 21:27:18.07	18.96	2.29	-56.9	-72.8	3.8	1.49e+00	0	21	104	0	78	24485
2026-01-11 21:27:19.08	19.06	2.34	-56.9	-72.7	3.8	1.49e+00	0	21	104	0	78	24174
2026-01-11 21:27:20.09	19.16	2.39	-56.9	-72.7	3.8	1.49e+00	0	21	104	0	78	24133
2026-01-11 21:27:21.10	19.25	2.43	-56.9	-72.7	3.8	1.49e+00	0	21	104	0	78	24370
2026-01-11 21:27:22.11	19.35	2.48	-56.9	-72.8	3.8	1.49e+00	0	21	104	0	78	24421
2026-01-11 21:27:23.12	19.45	2.53	-56.9	-72.6	3.8	1.49e+00	0	21	104	0	78	24115
2026-01-11 21:27:24.13	19.55	2.57	-56.9	-72.7	3.8	1.49e+00	0	21	104	0	78	24280
2026-01-11 21:27:25.14	19.65	2.62	-56.9	-72.7	3.8	1.49e+00	0	21	104	0	78	24392
2026-01-11 21:27:26.15	19.74	2.67	-56.9	-72.8	3.8	1.49e+00	0	21	104	0	78	24486
2026-01-11 21:27:27.15	19.84	2.71	-56.9	-72.8	3.8	1.49e+00	0	21	104	0	78	24519
2026-01-11 21:27:28.16	19.94	2.76	-56.9	-72.8	3.8	1.49e+00	0	21	104	0	78	24676
2026-01-11 21:27:29.17	20.04	2.81	-56.9	-72.9	3.8	1.49e+00	0	21	104	0	78	24753
2026-01-11 21:27:30.18	20.14	2.86	-56.9	-72.8	3.8	1.49e+00	0	21	104	0	78	24687
2026-01-11 21:27:31.19	20.24	2.90	-56.9	-72.8	3.8	1.49e+00	0	21	104	0	78	24665
2026-01-11 21:27:32.19	20.34	2.95	-56.9	-72.9	3.8	1.49e+00	0	21	104	0	78	24735
2026-01-11 21:27:33.20	20.44	3.00	-56.9	-72.9	3.8	1.49e+00	0	21	104	0	78	24733
2026-01-11 21:27:34.21	20.54	3.04	-56.9	-72.8	3.8	1.49e+00	0	21	104	0	78	24609
2026-01-11 21:27:35.22	20.64	3.09	-56.9	-72.8	3.8	1.49e+00	0	21	104	0	78	24543
2026-01-11 21:27:36.23	20.74	3.14	-56.9	-72.7	3.8	1.49e+00	0	21	104	0	78	24388
2026-01-11 21:27:37.24	20.85	3.18	-56.9	-72.7	3.8	1.49e+00	0	21	104	0	78	24322
2026-01-11 21:27:38.24	20.95	3.23	-56.9	-72.7	3.8	1.49e+00	0	21	104	0	78	24343
2026-01-11 21:27:39.25	21.05	3.28	-56.9	-72.8	3.8	1.49e+00	0	21	104	0	78	24494
2026-01-11 21:27:40.26	21.15	3.33	-56.9	-72.9	3.8	1.49e+00	0	21	104	0	78	24701
2026-01-11 21:27:41.27	21.25	3.37	-56.9	-72.8	3.8	1.49e+00	0	21	104	0	78	24681
2026-01-11 21:27:42.28	21.36	3.42	-56.9	-72.9	3.8	1.49e+00	0	21	104	0	78	24798
2026-01-11 21:27:43.29	21.46	3.47	-56.9	-72.8	3.8	1.49e+00	0	21	104	0	78	24659
2026-01-11 21:27:44.30	21.57	3.51	-56.9	-72.8	3.8	1.49e+00	0	22	104	0	78	24576
2026-01-11 21:27:45.31	21.67	3.56	-56.9	-72.8	3.8	1.49e+00	0	21	104	0	78	24634
2026-01-11 21:27:46.32	21.77	3.61	-56.9	-72.8	3.8	1.49e+00	0	21	104	0	78	24672
2026-01-11 21:27:47.32	21.88	3.66	-56.9	-72.8	3.8	1.49e+00	0	21	104	0	78	24678
2026-01-11 21:27:48.34	21.98	3.70	-56.9	-72.9	3.8	1.49e+00	0	22	104	0	78	24758
2026-01-11 21:27:49.34	22.09	3.75	-56.9	-72.8	3.8	1.49e+00	0	22	104	0	78	24584
2026-01-11 21:27:50.35	22.20	3.80	-56.9	-72.7	3.8	1.49e+00	0	22	104	0	78	24279
2026-01-11 21:27:51.36	22.30	3.84	-56.9	-72.6	3.8	1.49e+00	0	22	104	0	78	23994
2026-01-11 21:27:52.37	22.41	3.89	-56.9	-72.5	3.8	1.49e+00	0	22	104	0	78	23842
2026-01-11 21:27:53.38	22.52	3.94	-56.9	-72.7	3.8	1.49e+00	0	22	104	0	78	24203
2026-01-11 21:27:54.39	22.62	3.99	-56.9	-72.7	3.8	1.49e+00	0	22	104	0	78	24358
2026-01-11 21:27:55.39	22.73	4.03	-56.9	-72.8	3.8	1.49e+00	0	22	104	0	78	24652
2026-01-11 21:27:56.40	22.84	4.08	-56.9	-72.8	3.8	1.49e+00	0	22	104	0	78	24599
2026-01-11 21:27:57.41	22.94	4.13	-56.9	-72.7	3.8	1.49e+00	0	22	104	0	78	24292
2026-01-11 21:27:58.42	23.05	4.17	-56.9	-72.3	3.8	1.49e+00	0	22	104	0	78	23307
2026-01-11 21:27:59.43	23.16	4.22	-56.9	-71.8	3.8	1.49e+00	0	22	104	0	78	21781
2026-01-11 21:28:00.44	23.27	4.27	-56.8	-71.2	3.8	1.49e+00	0	22	104	0	78	20421
2026-01-11 21:28:01.45	23.38	4.32	-56.8	-70.8	3.8	1.49e+00	0	22	104	0	78	19605
2026-01-11 21:28:02.46	23.49	4.36	-56.9	-71.2	3.8	1.49e+00	0	22	104	0	78	20348
2026-01-11 21:28:03.47	23.60	4.41	-56.9	-71.5	3.8	1.49e+00	0	22	104	0	78	21041
2026-01-11 21:28:04.48	23.71	4.46	-56.8	-70.0	4.1	1.48e+00	0	22	0	0	78	17740
2026-01-11 21:28:05.48	23.82	4.50	-56.6	-67.1	5.0	1.09e+00	0	22	0	1048576	78	12789
2026-01-11 21:28:06.49	23.93	4.55	-56.3	-64.9	6.4	3.96e-01	0	22	0	2097152	78	9926
2026-01-11 21:28:07.50	24.04	4.60	-55.9	-62.8	8.4	4.24e-02	0	22	0	4194304	78	7745
2026-01-11 21:28:08.51	24.16	4.65	-55.5	-61.1	9.8	7.30e-03	0	22	0	6291456	77	6793
2026-01-11 21:28:09.52	24.27	4.69	-55.2	-60.3	10.6	2.27e-03	0	22	0	8388608	77	6183
2026-01-11 21:28:10.52	24.38	4.74	-55.0	-59.7	11.0	5.42e-04	0	22	0	9437184	76	6116
2026-01-11 21:28:11.53	24.49	4.79	-55.0	-59.8	10.9	3.43e-04	0	22	0	11534336	76	6154
2026-01-11 21:28:12.54	24.61	4.83	-55.1	-60.0	10.8	4.02e-04	0	22	0	13631488	76	6323
2026-01-11 21:28:13.55	24.72	4.88	-55.1	-60.2	10.6	6.32e-04	0	22	0	15728640	76	6442
2026-01-11 21:28:14.55	24.83	4.93	-55.5	-61.2	9.7	3.02e-03	0	22	0	17825792	76	7233
2026-01-11 21:28:15.56	24.95	4.98	-55.7	-62.1	8.9	8.62e-03	0	22	0	19922944	76	8030
2026-01-11 21:28:16.58	25.06	5.02	-56.0	-63.2	7.9	2.44e-02	0	22	0	20971520	77	8619
2026-01-11 21:28:17.58	25.18	5.07	-55.5	-61.0	9.9	3.91e-02	0	22	0	23068672	77	6712
2026-01-11 21:28:18.59	25.29	5.12	-56.3	-66.3	5.5	1.86e-02	0	22	0	25165824	77	12288
2026-01-11 21:28:19.60	25.41	5.16	-56.0	-62.7	8.4	1.30e+00	0	22	0	26214400	78	7645
2026-01-11 21:28:20.61	25.52	5.21	-54.4	-58.2	12.2	3.20e-03	0	22	0	28311552	75	5432
2026-01-11 21:28:21.61	25.64	5.26	-56.4	-64.4	7.4	3.87e-04	0	22	0	30408704	77	9835
2026-01-11 21:28:22.62	25.76	5.30	-55.4	-60.5	10.3	5.42e-01	0	22	0	32505856	77	6332
2026-01-11 21:28:23.63	25.87	5.35	-53.4	-56.3	13.5	7.00e-07	0	22	0	33554432	73	4926
2026-01-11 21:28:24.64	25.99	5.40	-53.2	-56.1	13.7	0.00e+00	0	22	0	35651584	73	4794
2026-01-11 21:28:25.64	26.11	5.45	-53.1	-55.9	13.7	0.00e+00	0	22	0	37748736	72	4936
2026-01-11 21:28:26.65	26.23	5.49	-53.2	-56.1	13.6	0.00e+00	0	22	0	39845888	72	5051
2026-01-11 21:28:27.66	26.35	5.54	-53.2	-56.0	13.6	0.00e+00	0	22	0	41943040	72	5035
2026-01-11 21:28:28.67	26.46	5.59	-52.9	-55.7	13.9	0.00e+00	0	22	0	42991616	72	4822
2026-01-11 21:28:29.67	26.58	5.63	-52.9	-55.5	14.0	0.00e+00	0	22	0	45088768	72	4742
2026-01-11 21:28:30.68	26.70	5.68	-53.1	-55.9	13.8	0.00e+00	0	22	0	47185920	72	4928
2026-01-11 21:28:31.70	26.82	5.73	-53.2	-56.0	13.6	0.00e+00	0	22	0	49283072	72	5028
2026-01-11 21:28:32.70	26.94	5.77	-52.8	-55.4	14.1	0.00e+00	0	22	0	51380224	72	4688
2026-01-11 21:28:33.71	27.06	5.82	-52.9	-55.6	14.0	0.00e+00	0	22	0	52428800	72	4795
2026-01-11 21:28:34.72	27.18	5.87	-52.9	-55.5	14.1	0.00e+00	0	22	0	54525952	72	4716
2026-01-11 21:28:35.73	27.31	5.91	-52.6	-55.1	14.1	0.00e+00	0	22	0	56623104	71	4787
2026-01-11 21:28:36.74	27.43	5.96	-52.6	-55.1	14.2	0.00e+00	0	22	0	58720256	71	4805
2026-01-11 21:28:37.75	27.55	6.01	-52.7	-55.3	14.0	0.00e+00	0	22	0	60817408	71	4908
2026-01-11 21:28:38.76	27.67	6.06	-52.7	-55.3	14.0	0.00e+00	0	22	0	61865984	71	4881
2026-01-11 21:28:39.77	27.80	6.10	-52.8	-55.4	14.0	0.00e+00	0	22	0	63963136	71	4930
2026-01-11 21:28:40.77	27.92	6.15	-52.9	-55.6	13.8	0.00e+00	0	22	0	66060288	71	5065
2026-01-11 21:28:41.78	28.04	6.20	-52.7	-55.3	14.0	0.00e+00	0	22	0	68157440	71	4895
2026-01-11 21:28:42.79	28.17	6.24	-52.7	-55.2	14.1	0.00e+00	0	22	0	70254592	71	4869
2026-01-11 21:28:43.79	28.29	6.29	-52.8	-55.4	14.0	0.00e+00	0	22	0	71303168	71	4958
2026-01-11 21:28:44.80	28.42	6.33	-52.7	-55.3	14.1	0.00e+00	0	22	0	73400320	71	4892
2026-01-11 21:28:45.81	28.54	6.38	-52.7	-55.2	14.1	0.00e+00	0	22	0	75497472	71	4858
2026-01-11 21:28:46.82	28.67	6.43	-52.6	-55.1	14.2	0.00e+00	0	22	0	77594624	71	4767
2026-01-11 21:28:47.82	28.79	6.47	-52.5	-55.0	14.3	0.00e+00	0	22	0	79691776	71	4706
2026-01-11 21:28:48.83	28.92	6.52	-52.6	-55.0	14.3	0.00e+00	0	22	0	80740352	71	4747
2026-01-11 21:28:49.84	29.05	6.57	-52.5	-55.0	14.3	0.00e+00	0	22	0	82837504	71	4715
2026-01-11 21:28:50.85	29.17	6.61	-52.5	-55.0	14.3	0.00e+00	0	22	0	84934656	71	4714
2026-01-11 21:28:51.86	29.30	6.66	-52.4	-54.8	14.4	0.00e+00	0	22	0	87031808	71	4626
2026-01-11 21:28:52.87	29.43	6.71	-52.5	-54.9	14.3	0.00e+00	0	23	0	89128960	71	4662
2026-01-11 21:28:53.87	29.56	6.75	-52.5	-54.8	14.4	0.00e+00	0	22	0	90177536	71	4641
2026-01-11 21:28:54.88	29.68	6.80	-52.5	-54.8	14.4	0.00e+00	0	22	0	92274688	71	4641
2026-01-11 21:28:55.88	29.81	6.84	-52.5	-54.9	14.4	0.00e+00	0	22	0	94371840	71	4677
2026-01-11 21:28:56.89	29.94	6.89	-52.4	-54.8	14.4	0.00e+00	0	22	0	96468992	71	4624
2026-01-11 21:28:57.90	30.07	6.94	-52.5	-54.9	14.4	0.00e+00	0	22	0	98566144	71	4653
2026-01-11 21:28:58.91	30.20	6.98	-52.5	-54.9	14.4	0.00e+00	0	22	0	99614720	71	4665
2026-01-11 21:28:59.92	30.33	7.03	-52.5	-54.8	14.4	0.00e+00	0	22	0	101711872	71	4646
2026-01-11 21:29:00.92	30.46	7.08	-52.4	-54.8	14.4	0.00e+00	0	22	0	103809024	71	4607
2026-01-11 21:29:01.93	30.60	7.12	-52.4	-54.7	14.5	0.00e+00	0	22	0	105906176	71	4560
2026-01-11 21:29:02.94	30.73	7.17	-52.4	-54.8	14.4	0.00e+00	0	22	0	108003328	71	4614
2026-01-11 21:29:03.95	30.86	7.21	-52.6	-55.0	14.3	0.00e+00	0	22	0	109051904	71	4716
2026-01-11 21:29:04.95	30.99	7.26	-52.5	-54.9	14.4	0.00e+00	0	22	0	111149056	71	4669
2026-01-11 21:29:05.96	31.12	7.31	-52.5	-54.9	14.4	0.00e+00	0	22	0	113246208	71	4680
2026-01-11 21:29:06.97	31.26	7.35	-52.4	-54.8	14.4	0.00e+00	0	23	0	115343360	71	4619
2026-01-11 21:29:07.97	31.39	7.40	-52.3	-54.6	14.5	0.00e+00	0	22	0	117440512	71	4543
2026-01-11 21:29:08.98	31.53	7.44	-52.5	-54.8	14.4	0.00e+00	0	22	0	118489088	71	4617
2026-01-11 21:29:09.98	31.66	7.49	-52.4	-54.7	14.5	0.00e+00	0	22	0	120586240	71	4565
2026-01-11 21:29:10.99	31.79	7.53	-52.4	-54.7	14.5	0.00e+00	0	22	0	122683392	71	4573
2026-01-11 21:29:12.00	31.93	7.58	-52.4	-54.7	14.5	0.00e+00	0	22	0	124780544	71	4597
2026-01-11 21:29:13.01	32.07	7.62	-52.4	-54.7	14.5	0.00e+00	0	22	0	126877696	71	4588
2026-01-11 21:29:14.02	32.20	7.67	-52.5	-54.8	14.4	0.00e+00	0	22	0	127926272	71	4632
2026-01-11 21:29:15.03	32.34	7.72	-52.5	-54.8	14.4	0.00e+00	0	22	0	130023424	71	4618
2026-01-11 21:29:16.04	32.48	7.76	-52.4	-54.7	14.5	0.00e+00	0	22	0	132120576	71	4574
2026-01-11 21:29:17.04	32.61	7.81	-52.4	-54.7	14.5	0.00e+00	0	22	0	134217728	71	4551
2026-01-11 21:29:18.05	32.75	7.85	-52.3	-54.6	14.6	0.00e+00	0	22	0	136314880	71	4500
2026-01-11 21:29:19.06	32.89	7.90	-52.4	-54.7	14.5	0.00e+00	0	22	0	137363456	71	4587
2026-01-11 21:29:20.07	33.03	7.94	-52.4	-54.7	14.5	0.00e+00	0	23	0	139460608	71	4597
2026-01-11 21:29:21.08	33.17	7.99	-52.2	-54.4	14.7	0.00e+00	0	23	0	141557760	71	4421
2026-01-11 21:29:22.09	33.31	8.03	-52.3	-54.5	14.6	0.00e+00	0	22	0	143654912	71	4478
2026-01-11 21:29:23.10	33.45	8.08	-52.2	-54.4	14.7	0.00e+00	0	22	0	145752064	71	4420
2026-01-11 21:29:24.10	33.59	8.12	-52.4	-54.6	14.6	0.00e+00	0	22	0	146800640	71	4539
2026-01-11 21:29:25.11	33.73	8.17	-52.3	-54.5	14.6	0.00e+00	0	22	0	148897792	71	4492
2026-01-11 21:29:26.12	33.87	8.21	-52.3	-54.6	14.6	0.00e+00	0	23	0	150994944	71	4514
2026-01-11 21:29:27.13	34.01	8.26	-52.4	-54.6	14.6	0.00e+00	0	23	0	153092096	71	4533
2026-01-11 21:29:28.14	34.15	8.30	-52.3	-54.6	14.6	0.00e+00	0	23	0	155189248	71	4497
2026-01-11 21:29:29.14	34.30	8.34	-52.4	-54.7	14.5	0.00e+00	0	22	0	157286400	71	4576
2026-01-11 21:29:30.14	34.44	8.39	-52.5	-54.8	14.5	0.00e+00	0	23	0	158334976	71	4613
2026-01-11 21:29:31.15	34.58	8.43	-52.4	-54.7	14.5	0.00e+00	0	22	0	160432128	71	4552
2026-01-11 21:29:32.16	34.72	8.48	-52.5	-54.8	14.5	0.00e+00	0	22	0	162529280	71	4601
2026-01-11 21:29:33.17	34.87	8.52	-52.4	-54.7	14.5	0.00e+00	0	23	0	164626432	71	4559
2026-01-11 21:29:34.18	35.01	8.57	-52.5	-54.9	14.4	0.00e+00	0	22	0	165675008	71	4670
2026-01-11 21:29:35.19	35.16	8.61	-52.5	-54.8	14.4	0.00e+00	0	22	0	167772160	71	4621
2026-01-11 21:29:36.20	35.31	8.65	-52.4	-54.6	14.5	0.00e+00	0	22	0	169869312	71	4545
2026-01-11 21:29:37.20	35.45	8.70	-52.5	-54.7	14.5	0.00e+00	0	22	0	171966464	71	4596
2026-01-11 21:29:38.21	35.60	8.74	-52.5	-54.9	14.4	0.00e+00	0	23	0	174063616	71	4655
2026-01-11 21:29:39.22	35.74	8.78	-52.4	-54.7	14.5	0.00e+00	0	22	0	175112192	71	4564
2026-01-11 21:29:40.22	35.89	8.83	-52.4	-54.7	14.5	0.00e+00	0	23	0	177209344	71	4562
2026-01-11 21:29:41.23	36.04	8.87	-52.4	-54.7	14.5	0.00e+00	0	23	0	179306496	71	4584
2026-01-11 21:29:42.24	36.19	8.92	-52.5	-54.8	14.5	0.00e+00	0	23	0	181403648	71	4604
2026-01-11 21:29:43.25	36.33	8.96	-52.6	-55.0	14.4	0.00e+00	0	22	0	183500800	71	4717
2026-01-11 21:29:44.25	36.48	9.00	-52.5	-54.8	14.5	0.00e+00	0	22	0	185597952	71	4637
2026-01-11 21:29:45.26	36.63	9.04	-52.5	-54.9	14.4	0.00e+00	0	23	0	186646528	71	4653
2026-01-11 21:29:46.27	36.78	9.09	-52.5	-54.8	14.4	0.00e+00	0	23	0	188743680	71	4644
2026-01-11 21:29:47.28	36.93	9.13	-52.4	-54.6	14.6	0.00e+00	0	22	0	190840832	71	4534
2026-01-11 21:29:48.29	37.08	9.17	-52.4	-54.6	14.6	0.00e+00	0	22	0	192937984	71	4535
2026-01-11 21:29:49.30	37.23	9.22	-52.4	-54.7	14.5	0.00e+00	0	23	0	195035136	71	4569
2026-01-11 21:29:50.31	37.38	9.26	-52.4	-54.7	14.6	0.00e+00	0	22	0	196083712	71	4552
2026-01-11 21:29:51.31	37.54	9.30	-52.3	-54.6	14.6	0.00e+00	0	22	0	198180864	71	4495
2026-01-11 21:29:52.32	37.69	9.34	-52.4	-54.7	14.5	0.00e+00	0	23	0	200278016	71	4564
2026-01-11 21:29:53.32	37.84	9.39	-52.4	-54.7	14.6	0.00e+00	0	22	0	202375168	71	4566
2026-01-11 21:29:54.33	37.99	9.43	-52.5	-54.8	14.5	0.00e+00	0	22	0	204472320	71	4634
2026-01-11 21:29:55.34	38.15	9.47	-52.5	-54.7	14.5	0.00e+00	0	22	0	205520896	71	4591
2026-01-11 21:29:56.35	38.30	9.51	-52.6	-54.9	14.4	0.00e+00	0	23	0	207618048	71	4683
2026-01-11 21:29:57.35	38.45	9.56	-52.7	-55.0	14.3	0.00e+00	0	23	0	209715200	71	4754
2026-01-11 21:29:58.36	38.61	9.60	-52.6	-54.9	14.4	0.00e+00	0	23	0	211812352	71	4674
2026-01-11 21:29:59.37	38.76	9.64	-52.6	-55.0	14.3	0.00e+00	0	22	0	213909504	71	4739
2026-01-11 21:30:00.38	38.92	9.68	-52.6	-54.9	14.4	0.00e+00	0	23	0	214958080	71	4660
2026-01-11 21:30:01.39	39.08	9.72	-52.6	-55.0	14.3	0.00e+00	0	22	0	217055232	71	4724
2026-01-11 21:30:02.40	39.23	9.76	-52.6	-54.9	14.4	0.00e+00	0	23	0	219152384	71	4660
2026-01-11 21:30:03.40	39.39	9.81	-52.5	-54.8	14.4	0.00e+00	0	23	0	221249536	71	4645
2026-01-11 21:30:04.41	39.55	9.85	-52.5	-54.8	14.5	0.00e+00	0	23	0	223346688	71	4603
2026-01-11 21:30:05.42	39.71	9.89	-52.5	-54.8	14.5	0.00e+00	0	23	0	224395264	71	4643
2026-01-11 21:30:06.43	39.86	9.93	-52.6	-54.9	14.4	0.00e+00	0	23	0	226492416	71	4654
2026-01-11 21:30:07.44	40.02	9.97	-52.7	-55.0	14.4	0.00e+00	0	23	0	228589568	71	4742
2026-01-11 21:30:08.45	40.18	10.01	-52.8	-55.2	14.2	0.00e+00	0	23	0	230686720	71	4835
2026-01-11 21:30:09.46	40.34	10.05	-52.8	-55.1	14.2	0.00e+00	0	23	0	232783872	71	4812
2026-01-11 21:30:10.46	40.50	10.09	-52.7	-55.1	14.3	0.00e+00	0	23	0	233832448	71	4786
2026-01-11 21:30:11.47	40.66	10.13	-52.7	-55.1	14.3	0.00e+00	0	23	0	235929600	71	4804
2026-01-11 21:30:12.48	40.82	10.17	-52.7	-55.1	14.3	0.00e+00	0	23	0	238026752	71	4795
2026-01-11 21:30:13.49	40.98	10.21	-52.8	-55.2	14.2	0.00e+00	0	23	0	240123904	71	4819
2026-01-11 21:30:14.50	41.15	10.25	-52.7	-55.1	14.3	0.00e+00	0	23	0	242221056	71	4806
2026-01-11 21:30:15.51	41.31	10.29	-52.6	-55.0	14.4	0.00e+00	0	23	0	243269632	71	4708
2026-01-11 21:30:16.52	41.47	10.33	-52.7	-55.1	14.3	0.00e+00	0	23	0	245366784	71	4777
2026-01-11 21:30:17.53	41.63	10.37	-52.8	-55.2	14.2	0.00e+00	0	23	0	247463936	71	4835
2026-01-11 21:30:18.53	41.80	10.41	-52.7	-55.0	14.4	0.00e+00	0	23	0	249561088	71	4743
2026-01-11 21:30:19.54	41.96	10.45	-52.7	-55.0	14.3	0.00e+00	0	23	0	251658240	71	4743
2026-01-11 21:30:20.54	42.12	10.49	-52.8	-55.2	14.3	0.00e+00	0	23	0	252706816	71	4830
2026-01-11 21:30:21.55	42.29	10.53	-52.7	-55.1	14.3	0.00e+00	0	23	0	254803968	71	4795
2026-01-11 21:30:22.56	42.45	10.57	-52.8	-55.2	14.2	0.00e+00	0	23	0	256901120	71	4846
2026-01-11 21:30:23.57	42.62	10.61	-52.7	-55.1	14.3	0.00e+00	0	23	0	258998272	71	4792
2026-01-11 21:30:24.57	42.78	10.64	-52.9	-55.4	14.1	0.00e+00	0	22	0	261095424	71	4928
2026-01-11 21:30:25.58	42.95	10.68	-52.8	-55.3	14.2	0.00e+00	0	23	0	262144000	71	4886
2026-01-11 21:30:26.59	43.12	10.72	-52.8	-55.1	14.3	0.00e+00	0	23	0	264241152	71	4803
2026-01-11 21:30:27.60	43.29	10.76	-52.7	-55.1	14.3	0.00e+00	0	23	0	266338304	71	4790
2026-01-11 21:30:28.60	43.45	10.80	-52.8	-55.1	14.3	0.00e+00	0	23	0	268435456	71	4811
2026-01-11 21:30:29.60	43.62	10.83	-52.7	-55.0	14.4	0.00e+00	0	23	0	270532608	71	4719
2026-01-11 21:30:30.60	43.79	10.87	-52.5	-54.8	14.5	0.00e+00	0	23	0	271581184	71	4634
2026-01-11 21:30:31.61	43.95	10.91	-52.6	-54.9	14.4	0.00e+00	0	23	0	273678336	71	4705
2026-01-11 21:30:32.62	44.12	10.95	-52.5	-54.8	14.5	0.00e+00	0	23	0	275775488	71	4636
2026-01-11 21:30:33.63	44.29	10.98	-52.5	-54.8	14.5	0.00e+00	0	22	0	277872640	71	4620
2026-01-11 21:30:34.64	44.46	11.02	-52.5	-54.8	14.5	0.00e+00	0	23	0	279969792	71	4611
2026-01-11 21:30:35.64	44.63	11.06	-52.5	-54.8	14.5	0.00e+00	0	23	0	281018368	71	4618
2026-01-11 21:30:36.65	44.81	11.09	-52.5	-54.7	14.5	0.00e+00	0	23	0	283115520	71	4571
2026-01-11 21:30:37.66	44.98	11.13	-52.5	-54.8	14.5	0.00e+00	0	23	0	285212672	71	4612
2026-01-11 21:30:38.67	45.15	11.17	-52.6	-54.9	14.3	0.00e+00	0	23	0	287309824	71	4700
2026-01-11 21:30:39.68	45.32	11.20	-52.7	-55.1	14.3	0.00e+00	0	22	0	289406976	71	4792
2026-01-11 21:30:40.69	45.49	11.24	-52.8	-55.2	14.3	0.00e+00	0	23	0	290455552	71	4841
2026-01-11 21:30:41.69	45.67	11.27	-52.8	-55.1	14.2	0.00e+00	0	23	0	292552704	71	4803
2026-01-11 21:30:42.69	45.84	11.31	-52.8	-55.2	14.2	0.00e+00	0	23	0	294649856	71	4850
2026-01-11 21:30:43.70	46.01	11.35	-52.9	-55.3	14.1	0.00e+00	0	23	0	296747008	71	4911
2026-01-11 21:30:44.71	46.19	11.38	-52.8	-55.2	14.2	0.00e+00	0	22	0	298844160	71	4861
2026-01-11 21:30:45.72	46.36	11.42	-52.8	-55.2	14.2	0.00e+00	0	23	0	299892736	71	4866
2026-01-11 21:30:46.73	46.54	11.45	-52.8	-55.2	14.3	0.00e+00	0	23	0	301989888	71	4833
2026-01-11 21:30:47.73	46.71	11.49	-52.8	-55.1	14.3	0.00e+00	0	23	0	304087040	71	4801
2026-01-11 21:30:48.74	46.89	11.52	-52.7	-55.0	14.3	0.00e+00	0	22	0	306184192	71	4757
2026-01-11 21:30:49.75	47.06	11.55	-52.6	-54.9	14.4	0.00e+00	0	23	0	308281344	71	4699
2026-01-11 21:30:50.76	47.24	11.59	-52.7	-55.1	14.3	0.00e+00	0	23	0	309329920	71	4764
2026-01-11 21:30:51.77	47.42	11.62	-52.8	-55.1	14.3	0.00e+00	0	23	0	311427072	71	4806
2026-01-11 21:30:52.78	47.60	11.66	-52.8	-55.1	14.3	0.00e+00	0	22	0	313524224	71	4802
2026-01-11 21:30:53.79	47.77	11.69	-52.8	-55.2	14.2	0.00e+00	0	22	0	315621376	71	4839
2026-01-11 21:30:54.80	47.95	11.72	-52.8	-55.2	14.2	0.00e+00	0	23	0	317718528	71	4823
2026-01-11 21:30:55.81	48.13	11.76	-52.9	-55.3	14.2	0.00e+00	0	23	0	318767104	71	4883
2026-01-11 21:30:56.82	48.31	11.79	-52.8	-55.2	14.2	0.00e+00	0	23	0	320864256	71	4821
2026-01-11 21:30:57.82	48.49	11.82	-52.8	-55.2	14.2	0.00e+00	0	23	0	322961408	71	4825
2026-01-11 21:30:58.82	48.67	11.85	-52.8	-55.2	14.2	0.00e+00	0	23	0	325058560	71	4842
2026-01-11 21:30:59.83	48.85	11.89	-52.7	-55.1	14.3	0.00e+00	0	23	0	327155712	71	4782
2026-01-11 21:31:00.84	49.03	11.92	-52.6	-55.0	14.4	0.00e+00	0	23	0	328204288	71	4712
2026-01-11 21:31:01.85	49.21	11.95	-52.8	-55.2	14.3	0.00e+00	0	23	0	330301440	71	4832
2026-01-11 21:31:02.86	49.39	11.98	-52.9	-55.3	14.2	0.00e+00	0	23	0	332398592	71	4886
2026-01-11 21:31:03.87	49.57	12.01	-52.9	-55.4	14.1	0.00e+00	0	23	0	334495744	71	4935
2026-01-11 21:31:04.88	49.76	12.04	-53.0	-55.5	14.0	0.00e+00	0	23	0	336592896	71	5038
2026-01-11 21:31:05.89	49.94	12.08	-53.0	-55.5	14.1	0.00e+00	0	23	0	338690048	71	5021
2026-01-11 21:31:06.89	50.12	12.11	-53.0	-55.5	14.1	0.00e+00	0	23	0	339738624	71	4995
2026-01-11 21:31:07.90	50.30	12.14	-52.7	-55.1	14.3	0.00e+00	0	23	0	341835776	71	4768
2026-01-11 21:31:08.91	50.49	12.17	-52.8	-55.1	14.3	0.00e+00	0	23	0	343932928	71	4804
2026-01-11 21:31:09.92	50.67	12.20	-52.7	-55.0	14.3	0.00e+00	0	23	0	346030080	71	4757
2026-01-11 21:31:10.92	50.86	12.23	-52.6	-54.9	14.4	0.00e+00	0	23	0	347078656	71	4674
2026-01-11 21:31:11.93	51.04	12.26	-52.5	-54.7	14.5	0.00e+00	0	23	0	349175808	71	4593
2026-01-11 21:31:12.93	51.22	12.29	-52.3	-54.5	14.6	0.00e+00	0	23	0	351272960	71	4480
2026-01-11 21:31:13.95	51.41	12.32	-52.3	-54.5	14.7	0.00e+00	0	23	0	353370112	71	4469
2026-01-11 21:31:14.95	51.60	12.34	-52.4	-54.6	14.7	0.00e+00	0	23	0	355467264	71	4510
2026-01-11 21:31:15.96	51.78	12.37	-52.2	-54.3	14.8	0.00e+00	0	23	0	356515840	71	4377
2026-01-11 21:31:16.97	51.97	12.40	-52.2	-54.3	14.6	0.00e+00	0	23	0	358612992	70	4645
2026-01-11 21:31:17.98	52.16	12.43	-52.3	-54.5	14.5	0.00e+00	0	23	0	360710144	70	4751
2026-01-11 21:31:18.99	52.34	12.46	-52.4	-54.6	14.4	0.00e+00	0	22	0	362807296	70	4805
2026-01-11 21:31:19.99	52.53	12.49	-52.4	-54.6	14.4	0.00e+00	0	23	0	364904448	70	4804
2026-01-11 21:31:21.00	52.72	12.51	-52.4	-54.7	14.4	0.00e+00	0	23	0	367001600	70	4827
2026-01-11 21:31:22.01	52.91	12.54	-52.5	-54.7	14.4	0.00e+00	0	23	0	368050176	70	4851
2026-01-11 21:31:23.02	53.10	12.57	-52.4	-54.6	14.4	0.00e+00	0	23	0	370147328	70	4774
2026-01-11 21:31:24.03	53.29	12.59	-52.3	-54.5	14.5	0.00e+00	0	23	0	372244480	70	4738
2026-01-11 21:31:25.03	53.47	12.62	-52.4	-54.6	14.4	0.00e+00	0	23	0	374341632	70	4784
2026-01-11 21:31:26.05	53.66	12.65	-52.1	-54.2	14.6	0.00e+00	0	23	0	376438784	70	4590
2026-01-11 21:31:27.05	53.85	12.67	-52.1	-54.1	14.7	0.00e+00	0	23	0	377487360	70	4541
2026-01-11 21:31:28.05	54.04	12.70	-51.9	-53.9	14.8	0.00e+00	0	23	0	379584512	70	4437
2026-01-11 21:31:29.06	54.23	12.72	-51.9	-53.9	14.9	0.00e+00	0	23	0	381681664	70	4436
2026-01-11 21:31:30.07	54.42	12.75	-52.0	-54.0	14.8	0.00e+00	0	23	0	383778816	70	4489
2026-01-11 21:31:31.08	54.62	12.77	-51.9	-53.9	14.9	0.00e+00	0	23	0	384827392	70	4414
2026-01-11 21:31:32.09	54.81	12.80	-52.0	-54.0	14.8	0.00e+00	0	23	0	386924544	70	4477
2026-01-11 21:31:33.10	55.00	12.82	-51.9	-53.9	14.8	0.00e+00	0	23	0	389021696	70	4441
2026-01-11 21:31:34.11	55.19	12.85	-52.1	-54.2	14.7	0.00e+00	0	23	0	391118848	70	4564
2026-01-11 21:31:35.11	55.38	12.87	-52.3	-54.5	14.6	0.00e+00	0	23	0	393216000	70	4717
2026-01-11 21:31:36.12	55.58	12.90	-52.5	-54.7	14.4	0.00e+00	0	23	0	395313152	70	4848
2026-01-11 21:31:37.13	55.77	12.92	-52.5	-54.8	14.3	0.00e+00	0	23	0	396361728	70	4881
2026-01-11 21:31:38.14	55.96	12.94	-52.7	-55.0	14.2	0.00e+00	0	23	0	398458880	70	5017
2026-01-11 21:31:39.15	56.16	12.96	-52.7	-55.1	14.2	0.00e+00	0	23	0	400556032	70	5048
2026-01-11 21:31:40.15	56.35	12.99	-52.7	-55.0	14.2	0.00e+00	0	23	0	402653184	70	5012
2026-01-11 21:31:41.16	56.54	13.01	-52.7	-55.0	14.2	0.00e+00	0	23	0	404750336	70	5017
2026-01-11 21:31:42.17	56.74	13.03	-52.6	-54.9	14.3	0.00e+00	0	23	0	405798912	70	4947
2026-01-11 21:31:43.17	56.93	13.05	-52.6	-54.9	14.3	0.00e+00	0	23	0	407896064	70	4948
2026-01-11 21:31:44.18	57.13	13.07	-52.6	-54.8	14.3	0.00e+00	0	23	0	409993216	70	4908
2026-01-11 21:31:45.19	57.32	13.10	-52.6	-54.8	14.3	0.00e+00	0	23	0	412090368	70	4906
2026-01-11 21:31:46.20	57.52	13.12	-52.6	-54.8	14.3	0.00e+00	0	23	0	414187520	70	4907
2026-01-11 21:31:47.21	57.72	13.14	-52.7	-55.0	14.3	0.00e+00	0	23	0	415236096	70	5001
2026-01-11 21:31:48.22	57.91	13.16	-52.7	-55.1	14.2	0.00e+00	0	23	0	417333248	70	5068
2026-01-11 21:31:49.23	58.11	13.18	-52.8	-55.3	14.1	0.00e+00	0	23	0	419430400	70	5161
2026-01-11 21:31:50.24	58.31	13.20	-52.9	-55.4	14.1	0.00e+00	0	23	0	421527552	71	4946
2026-01-11 21:31:51.24	58.50	13.22	-53.0	-55.5	14.0	0.00e+00	0	23	0	423624704	71	5022
2026-01-11 21:31:52.25	58.70	13.24	-53.1	-55.6	13.9	0.00e+00	0	23	0	424673280	71	5092
2026-01-11 21:31:53.26	58.90	13.25	-53.0	-55.5	14.1	0.00e+00	0	23	0	426770432	71	5004
2026-01-11 21:31:54.27	59.09	13.27	-53.0	-55.5	14.1	0.00e+00	0	23	0	428867584	71	5013
2026-01-11 21:31:55.27	59.29	13.29	-53.0	-55.4	14.1	0.00e+00	0	23	0	430964736	71	4979
2026-01-11 21:31:56.27	59.49	13.31	-52.8	-55.1	14.3	0.00e+00	0	23	0	433061888	71	4811
2026-01-11 21:31:57.28	59.69	13.33	-52.8	-55.2	14.3	0.00e+00	0	23	0	434110464	71	4848
2026-01-11 21:31:58.28	59.88	13.34	-52.7	-55.0	14.4	0.00e+00	0	23	0	436207616	71	4725
2026-01-11 21:31:59.29	60.08	13.36	-52.7	-54.9	14.4	0.00e+00	0	23	0	438304768	71	4704
2026-01-11 21:32:00.30	60.28	13.38	-52.7	-55.0	14.3	0.00e+00	0	23	0	440401920	71	4737
2026-01-11 21:32:01.31	60.48	13.39	-52.7	-55.0	14.4	0.00e+00	0	23	0	442499072	71	4728
2026-01-11 21:32:02.31	60.68	13.41	-52.8	-55.1	14.3	0.00e+00	0	23	0	443547648	71	4794
2026-01-11 21:32:03.32	60.88	13.43	-52.8	-55.1	14.3	0.00e+00	0	23	0	445644800	71	4795
2026-01-11 21:32:04.33	61.08	13.44	-52.8	-55.1	14.3	0.00e+00	0	23	0	447741952	71	4798
2026-01-11 21:32:05.34	61.28	13.46	-52.8	-55.1	14.3	0.00e+00	0	23	0	449839104	71	4788
2026-01-11 21:32:06.35	61.48	13.47	-52.7	-55.1	14.3	0.00e+00	0	23	0	451936256	71	4777
2026-01-11 21:32:07.36	61.68	13.49	-52.7	-55.0	14.4	0.00e+00	0	23	0	452984832	71	4714
2026-01-11 21:32:08.37	61.88	13.50	-52.7	-55.0	14.4	0.00e+00	0	23	0	455081984	71	4723
2026-01-11 21:32:09.38	62.08	13.52	-52.8	-55.1	14.3	0.00e+00	0	23	0	457179136	71	4773
2026-01-11 21:32:10.38	62.28	13.53	-52.7	-55.0	14.4	0.00e+00	0	23	0	459276288	71	4738
2026-01-11 21:32:11.39	62.48	13.54	-52.6	-54.9	14.4	0.00e+00	0	23	0	461373440	71	4677
2026-01-11 21:32:12.40	62.69	13.56	-52.7	-55.0	14.4	0.00e+00	0	23	0	462422016	71	4709
2026-01-11 21:32:13.41	62.89	13.57	-52.5	-54.7	14.5	0.00e+00	0	23	0	464519168	71	4584
2026-01-11 21:32:14.42	63.09	13.58	-52.6	-54.8	14.5	0.00e+00	0	23	0	466616320	71	4623
2026-01-11 21:32:15.42	63.29	13.59	-52.5	-54.7	14.6	0.00e+00	0	23	0	468713472	71	4581
2026-01-11 21:32:16.43	63.49	13.60	-52.6	-54.9	14.4	0.00e+00	0	23	0	470810624	71	4671
2026-01-11 21:32:17.44	63.70	13.62	-52.7	-54.9	14.4	0.00e+00	0	23	0	471859200	71	4705
2026-01-11 21:32:18.45	63.90	13.63	-52.7	-54.9	14.4	0.00e+00	0	23	0	473956352	71	4704
2026-01-11 21:32:19.46	64.10	13.64	-52.6	-54.9	14.4	0.00e+00	0	23	0	476053504	71	4679
2026-01-11 21:32:20.47	64.30	13.65	-52.5	-54.8	14.5	0.00e+00	0	23	0	478150656	71	4608
2026-01-11 21:32:21.48	64.51	13.66	-52.4	-54.6	14.6	0.00e+00	0	23	0	480247808	71	4514
2026-01-11 21:32:22.49	64.71	13.67	-52.5	-54.7	14.6	0.00e+00	0	23	0	481296384	71	4576
2026-01-11 21:32:23.50	64.92	13.68	-52.3	-54.5	14.7	0.00e+00	0	23	0	483393536	71	4454
2026-01-11 21:32:24.50	65.12	13.69	-52.3	-54.5	14.7	0.00e+00	0	23	0	485490688	71	4462
2026-01-11 21:32:25.51	65.32	13.70	-52.3	-54.5	14.7	0.00e+00	0	23	0	487587840	71	4458
2026-01-11 21:32:26.52	65.52	13.70	-52.4	-54.5	14.6	0.00e+00	0	23	0	489684992	71	4484
2026-01-11 21:32:27.53	65.73	13.71	-52.3	-54.5	14.7	0.00e+00	0	23	0	491782144	71	4449
2026-01-11 21:32:28.54	65.93	13.72	-52.4	-54.5	14.7	0.00e+00	0	23	0	492830720	71	4467
2026-01-11 21:32:29.55	66.14	13.73	-52.3	-54.5	14.7	0.00e+00	0	23	0	494927872	71	4453
2026-01-11 21:32:30.55	66.34	13.74	-52.4	-54.5	14.7	0.00e+00	0	23	0	497025024	71	4463
2026-01-11 21:32:31.56	66.54	13.74	-52.3	-54.4	14.7	0.00e+00	0	23	0	499122176	71	4429
2026-01-11 21:32:32.58	66.75	13.75	-52.3	-54.4	14.8	0.00e+00	0	23	0	500170752	71	4409
2026-01-11 21:32:33.58	66.95	13.76	-52.2	-54.3	14.8	0.00e+00	0	23	0	502267904	71	4387
2026-01-11 21:32:34.59	67.16	13.76	-52.1	-54.2	14.7	0.00e+00	0	23	0	504365056	70	4551
2026-01-11 21:32:35.60	67.36	13.77	-52.1	-54.2	14.7	0.00e+00	0	23	0	506462208	70	4562
2026-01-11 21:32:36.61	67.57	13.77	-52.1	-54.1	14.7	0.00e+00	0	23	0	508559360	70	4531
2026-01-11 21:32:37.61	67.77	13.78	-52.2	-54.3	14.6	0.00e+00	0	23	0	509607936	70	4610
2026-01-11 21:32:38.62	67.97	13.78	-52.1	-54.2	14.7	0.00e+00	0	23	0	511705088	70	4596
2026-01-11 21:32:39.63	68.18	13.79	-52.2	-54.3	14.6	0.00e+00	0	23	0	513802240	70	4627
2026-01-11 21:32:40.64	68.38	13.79	-52.0	-54.1	14.8	0.00e+00	0	23	0	515899392	70	4514
2026-01-11 21:32:41.65	68.59	13.79	-52.1	-54.2	14.7	0.00e+00	0	23	0	517996544	70	4570
2026-01-11 21:32:42.66	68.79	13.80	-52.0	-54.0	14.9	0.00e+00	0	23	0	520093696	70	4458
2026-01-11 21:32:43.66	69.00	13.80	-51.8	-53.8	15.0	0.00e+00	0	23	0	521142272	70	4351
2026-01-11 21:32:44.67	69.20	13.80	-51.7	-53.7	15.1	0.00e+00	0	23	0	523239424	70	4293
2026-01-11 21:32:45.67	69.41	13.80	-51.7	-53.6	15.1	0.00e+00	0	23	0	525336576	70	4289
2026-01-11 21:32:46.68	69.61	13.81	-51.5	-53.5	15.0	0.00e+00	0	23	0	527433728	69	4445
2026-01-11 21:32:47.69	69.82	13.81	-51.5	-53.4	15.0	0.00e+00	0	23	0	529530880	69	4422
2026-01-11 21:32:48.70	70.02	13.81	-51.4	-53.2	15.1	0.00e+00	0	23	0	530579456	69	4332
2026-01-11 21:32:49.70	70.23	13.81	-51.5	-53.3	15.0	0.00e+00	0	23	0	532676608	69	4389
2026-01-11 21:32:50.71	70.43	13.81	-51.5	-53.4	15.0	0.00e+00	0	23	0	534773760	69	4411
2026-01-11 21:32:51.72	70.64	13.81	-51.6	-53.6	14.9	0.00e+00	0	23	0	536870912	69	4498
2026-01-11 21:32:52.72	70.84	13.81	-51.7	-53.7	14.8	0.00e+00	0	23	0	537919488	69	4567
2026-01-11 21:32:53.72	71.04	13.81	-51.9	-53.9	14.7	0.00e+00	0	23	0	540016640	69	4685
2026-01-11 21:32:54.73	71.25	13.81	-51.9	-53.9	14.7	0.00e+00	0	23	0	542113792	69	4669
2026-01-11 21:32:55.74	71.45	13.81	-51.9	-53.9	14.7	0.00e+00	0	23	0	544210944	69	4689
2026-01-11 21:32:56.75	71.66	13.81	-51.9	-53.9	14.7	0.00e+00	0	23	0	546308096	69	4679
2026-01-11 21:32:57.76	71.87	13.80	-51.9	-53.9	14.7	0.00e+00	0	23	0	548405248	69	4704
2026-01-11 21:32:58.77	72.07	13.80	-51.9	-54.0	14.7	0.00e+00	0	23	0	549453824	69	4720
2026-01-11 21:32:59.78	72.28	13.80	-51.6	-53.6	14.9	0.00e+00	0	23	0	551550976	69	4517
2026-01-11 21:33:00.79	72.48	13.80	-51.7	-53.6	14.9	0.00e+00	0	23	0	553648128	69	4516
2026-01-11 21:33:01.79	72.68	13.79	-51.5	-53.4	15.0	0.00e+00	0	23	0	555745280	69	4411
2026-01-11 21:33:02.80	72.89	13.79	-51.3	-53.2	15.1	0.00e+00	0	23	0	557842432	69	4310
2026-01-11 21:33:03.81	73.09	13.79	-51.2	-53.0	15.2	0.00e+00	0	23	0	558891008	69	4239
2026-01-11 21:33:04.82	73.30	13.78	-51.3	-53.1	15.2	0.00e+00	0	23	0	560988160	69	4278
2026-01-11 21:33:05.83	73.51	13.78	-51.3	-53.2	15.2	0.00e+00	0	23	0	563085312	69	4295
2026-01-11 21:33:06.84	73.71	13.77	-51.3	-53.1	15.2	0.00e+00	0	23	0	565182464	69	4273
2026-01-11 21:33:07.85	73.92	13.77	-51.2	-53.0	15.2	0.00e+00	0	23	0	567279616	69	4238
2026-01-11 21:33:08.85	74.12	13.76	-51.3	-53.2	15.2	0.00e+00	0	23	0	568328192	69	4296
2026-01-11 21:33:09.86	74.32	13.76	-51.3	-53.2	15.1	0.00e+00	0	23	0	570425344	69	4294
2026-01-11 21:33:10.87	74.53	13.75	-51.2	-53.1	15.2	0.00e+00	0	23	0	572522496	69	4251
2026-01-11 21:33:11.88	74.73	13.74	-51.4	-53.2	15.1	0.00e+00	0	23	0	574619648	69	4337
2026-01-11 21:33:12.88	74.93	13.74	-51.5	-53.4	15.0	0.00e+00	0	23	0	576716800	69	4417
2026-01-11 21:33:13.89	75.14	13.73	-51.6	-53.6	14.9	0.00e+00	0	23	0	577765376	69	4505
2026-01-11 21:33:14.90	75.34	13.72	-51.7	-53.7	14.8	0.00e+00	0	23	0	579862528	69	4554
2026-01-11 21:33:15.90	75.55	13.72	-51.8	-53.8	14.7	0.00e+00	0	23	0	581959680	69	4632
2026-01-11 21:33:16.91	75.75	13.71	-51.8	-53.9	14.7	0.00e+00	0	23	0	584056832	69	4653
2026-01-11 21:33:17.92	75.95	13.70	-51.7	-53.7	14.8	0.00e+00	0	23	0	586153984	69	4564
2026-01-11 21:33:18.93	76.16	13.69	-51.7	-53.7	14.8	0.00e+00	0	23	0	587202560	69	4550
2026-01-11 21:33:19.93	76.36	13.68	-51.6	-53.5	14.9	0.00e+00	0	23	0	589299712	69	4463
2026-01-11 21:33:20.94	76.56	13.67	-51.5	-53.4	15.0	0.00e+00	0	23	0	591396864	69	4412
2026-01-11 21:33:21.95	76.77	13.66	-51.6	-53.5	14.9	0.00e+00	0	23	0	593494016	69	4487
2026-01-11 21:33:22.96	76.97	13.65	-51.6	-53.5	14.9	0.00e+00	0	23	0	595591168	69	4486
2026-01-11 21:33:23.96	77.17	13.64	-51.6	-53.6	14.9	0.00e+00	0	23	0	596639744	69	4502
2026-01-11 21:33:24.97	77.37	13.63	-51.5	-53.5	15.0	0.00e+00	0	23	0	598736896	69	4443
2026-01-11 21:33:25.98	77.58	13.62	-51.6	-53.5	14.9	0.00e+00	0	23	0	600834048	69	4488
2026-01-11 21:33:26.99	77.78	13.61	-51.6	-53.6	14.9	0.00e+00	0	23	0	602931200	69	4508
2026-01-11 21:33:28.00	77.98	13.60	-51.5	-53.4	15.0	0.00e+00	0	23	0	605028352	69	4409
2026-01-11 21:33:29.00	78.18	13.58	-51.4	-53.3	15.1	0.00e+00	0	23	0	606076928	69	4362
2026-01-11 21:33:30.01	78.39	13.57	-51.4	-53.3	15.0	0.00e+00	0	23	0	608174080	69	4362
2026-01-11 21:33:31.02	78.59	13.56	-51.3	-53.2	15.1	0.00e+00	0	23	0	610271232	69	4293
2026-01-11 21:33:32.02	78.79	13.55	-51.4	-53.3	15.1	0.00e+00	0	23	0	612368384	69	4369
2026-01-11 21:33:33.03	78.99	13.53	-51.4	-53.3	15.0	0.00e+00	0	23	0	614465536	69	4378
2026-01-11 21:33:34.04	79.19	13.52	-51.5	-53.4	15.0	0.00e+00	0	23	0	615514112	69	4435
2026-01-11 21:33:35.05	79.39	13.51	-51.7	-53.6	14.9	0.00e+00	0	23	0	617611264	69	4534
2026-01-11 21:33:36.06	79.60	13.49	-51.8	-53.8	14.7	0.00e+00	0	23	0	619708416	69	4651
2026-01-11 21:33:37.07	79.80	13.48	-52.0	-54.1	14.6	0.00e+00	0	23	0	621805568	69	4761
2026-01-11 21:33:38.07	80.00	13.46	-52.0	-54.1	14.6	0.00e+00	0	23	0	623902720	69	4811
2026-01-11 21:33:39.08	80.20	13.45	-52.0	-54.1	14.6	0.00e+00	0	23	0	624951296	69	4769
2026-01-11 21:33:40.09	80.40	13.43	-51.8	-53.9	14.7	0.00e+00	0	23	0	627048448	69	4662
2026-01-11 21:33:41.10	80.60	13.42	-51.8	-53.8	14.7	0.00e+00	0	23	0	629145600	69	4646
2026-01-11 21:33:42.11	80.80	13.40	-51.6	-53.6	14.9	0.00e+00	0	23	0	631242752	69	4514
2026-01-11 21:33:43.12	81.00	13.38	-51.7	-53.7	14.9	0.00e+00	0	23	0	633339904	69	4549
2026-01-11 21:33:44.12	81.20	13.37	-51.5	-53.4	15.0	0.00e+00	0	23	0	634388480	69	4437
2026-01-11 21:33:45.13	81.40	13.35	-51.3	-53.1	15.2	0.00e+00	0	23	0	636485632	69	4264
2026-01-11 21:33:46.14	81.59	13.33	-51.3	-53.1	15.2	0.00e+00	0	23	0	638582784	69	4286
2026-01-11 21:33:47.15	81.79	13.31	-51.4	-53.2	15.1	0.00e+00	0	23	0	640679936	69	4320
2026-01-11 21:33:48.15	81.99	13.30	-51.1	-52.9	15.1	0.00e+00	0	23	0	642777088	68	4423
2026-01-11 21:33:49.16	82.19	13.28	-51.1	-52.9	15.1	0.00e+00	0	23	0	643825664	68	4392
2026-01-11 21:33:50.17	82.39	13.26	-50.9	-52.6	15.2	0.00e+00	0	23	0	645922816	68	4285
2026-01-11 21:33:51.18	82.59	13.24	-50.9	-52.7	15.3	0.00e+00	0	23	0	648019968	68	4295
2026-01-11 21:33:52.18	82.78	13.22	-50.8	-52.5	15.3	0.00e+00	0	23	0	650117120	68	4239
2026-01-11 21:33:53.19	82.98	13.20	-50.9	-52.7	15.2	0.00e+00	0	23	0	652214272	68	4301
2026-01-11 21:33:54.20	83.18	13.18	-51.1	-52.9	15.1	0.00e+00	0	23	0	653262848	68	4431
2026-01-11 21:33:55.21	83.37	13.16	-51.0	-52.8	15.1	0.00e+00	0	23	0	655360000	68	4379
2026-01-11 21:33:56.22	83.57	13.14	-51.2	-53.1	15.0	0.00e+00	0	23	0	657457152	68	4516
2026-01-11 21:33:57.23	83.77	13.12	-51.3	-53.2	14.9	0.00e+00	0	23	0	659554304	68	4579
2026-01-11 21:33:58.24	83.96	13.10	-51.3	-53.2	14.9	0.00e+00	0	23	0	661651456	68	4587
2026-01-11 21:33:59.24	84.16	13.08	-51.3	-53.2	14.9	0.00e+00	0	23	0	663748608	68	4582
2026-01-11 21:34:00.25	84.35	13.06	-51.3	-53.2	14.9	0.00e+00	0	23	0	664797184	68	4583
2026-01-11 21:34:01.26	84.55	13.04	-51.3	-53.1	15.0	0.00e+00	0	23	0	666894336	68	4531
2026-01-11 21:34:02.27	84.75	13.01	-51.3	-53.1	14.9	0.00e+00	0	23	0	668991488	68	4527
2026-01-11 21:34:03.27	84.94	12.99	-51.2	-53.1	15.0	0.00e+00	0	23	0	671088640	68	4525
2026-01-11 21:34:04.28	85.13	12.97	-51.1	-52.9	15.1	0.00e+00	0	23	0	673185792	68	4413
2026-01-11 21:34:05.29	85.33	12.95	-51.1	-52.9	15.1	0.00e+00	0	23	0	674234368	68	4416
2026-01-11 21:34:06.30	85.52	12.92	-51.1	-52.9	15.1	0.00e+00	0	23	0	676331520	68	4441
2026-01-11 21:34:07.30	85.71	12.90	-51.1	-52.9	15.1	0.00e+00	0	23	0	678428672	68	4401
2026-01-11 21:34:08.32	85.91	12.88	-51.1	-52.9	15.1	0.00e+00	0	23	0	680525824	68	4410
2026-01-11 21:34:09.32	86.10	12.85	-51.0	-52.8	15.1	0.00e+00	0	23	0	681574400	68	4391
2026-01-11 21:34:10.33	86.29	12.83	-51.1	-52.9	15.1	0.00e+00	0	23	0	683671552	68	4417
2026-01-11 21:34:11.34	86.49	12.80	-51.1	-53.0	15.0	0.00e+00	0	23	0	685768704	68	4454
2026-01-11 21:34:12.35	86.68	12.78	-51.2	-53.0	15.0	0.00e+00	0	23	0	687865856	68	4471
2026-01-11 21:34:13.36	86.87	12.75	-51.2	-53.0	15.0	0.00e+00	0	23	0	689963008	68	4480
2026-01-11 21:34:14.36	87.06	12.73	-51.2	-53.0	15.0	0.00e+00	0	23	0	692060160	68	4474
2026-01-11 21:34:15.37	87.25	12.70	-51.3	-53.1	14.9	0.00e+00	0	23	0	693108736	68	4540
2026-01-11 21:34:16.38	87.44	12.68	-51.3	-53.1	15.0	0.00e+00	0	23	0	695205888	68	4534
2026-01-11 21:34:17.39	87.63	12.65	-51.3	-53.2	14.9	0.00e+00	0	23	0	697303040	68	4595
2026-01-11 21:34:18.40	87.82	12.63	-51.2	-53.1	15.0	0.00e+00	0	23	0	699400192	68	4502
2026-01-11 21:34:19.41	88.01	12.60	-51.2	-53.1	15.0	0.00e+00	0	23	0	701497344	68	4522
2026-01-11 21:34:20.42	88.20	12.57	-51.1	-52.9	15.1	0.00e+00	0	23	0	702545920	68	4422
2026-01-11 21:34:21.42	88.39	12.55	-51.0	-52.9	15.1	0.00e+00	0	23	0	704643072	68	4393
2026-01-11 21:34:22.43	88.58	12.52	-51.0	-52.8	15.1	0.00e+00	0	23	0	706740224	68	4380
2026-01-11 21:34:23.44	88.77	12.49	-51.1	-53.0	15.0	0.00e+00	0	23	0	708837376	68	4452
2026-01-11 21:34:24.45	88.96	12.46	-51.1	-52.9	15.1	0.00e+00	0	23	0	710934528	68	4424
2026-01-11 21:34:25.46	89.15	12.43	-51.1	-52.9	15.1	0.00e+00	0	23	0	711983104	68	4393
2026-01-11 21:34:26.46	89.33	12.41	-51.0	-52.8	15.1	0.00e+00	0	23	0	714080256	68	4383
2026-01-11 21:34:27.47	89.52	12.38	-51.0	-52.8	15.1	0.00e+00	0	23	0	716177408	68	4363
2026-01-11 21:34:28.48	89.71	12.35	-51.0	-52.9	15.1	0.00e+00	0	23	0	718274560	68	4398
2026-01-11 21:34:29.48	89.89	12.32	-51.0	-52.8	15.1	0.00e+00	0	23	0	720371712	68	4360
2026-01-11 21:34:30.49	90.08	12.29	-51.1	-52.9	15.1	0.00e+00	0	23	0	721420288	68	4400
2026-01-11 21:34:31.50	90.26	12.26	-51.1	-52.9	15.1	0.00e+00	0	23	0	723517440	68	4411
2026-01-11 21:34:32.51	90.45	12.23	-51.2	-53.0	15.0	0.00e+00	0	23	0	725614592	68	4474
2026-01-11 21:34:33.52	90.63	12.20	-51.2	-53.1	15.0	0.00e+00	0	23	0	727711744	68	4499
2026-01-11 21:34:34.52	90.82	12.17	-51.3	-53.2	14.9	0.00e+00	0	23	0	729808896	68	4567
2026-01-11 21:34:35.53	91.00	12.14	-51.4	-53.4	14.8	0.00e+00	0	23	0	730857472	68	4659
2026-01-11 21:34:36.54	91.19	12.11	-51.5	-53.4	14.8	0.00e+00	0	23	0	732954624	68	4701
2026-01-11 21:34:37.55	91.37	12.08	-51.6	-53.6	14.7	0.00e+00	0	23	0	735051776	68	4793
2026-01-11 21:34:38.56	91.55	12.05	-51.7	-53.8	14.6	0.00e+00	0	23	0	737148928	68	4883
2026-01-11 21:34:39.56	91.74	12.02	-51.8	-53.8	14.6	0.00e+00	0	23	0	739246080	68	4888
2026-01-11 21:34:40.57	91.92	11.99	-51.8	-53.8	14.6	0.00e+00	0	23	0	740294656	68	4926
2026-01-11 21:34:41.58	92.10	11.95	-51.8	-53.9	14.5	0.00e+00	0	23	0	742391808	68	4963
2026-01-11 21:34:42.59	92.28	11.92	-52.0	-54.1	14.6	0.00e+00	0	23	0	744488960	69	4761
2026-01-11 21:34:43.60	92.46	11.89	-52.0	-54.1	14.5	0.00e+00	0	23	0	746586112	69	4807
2026-01-11 21:34:44.60	92.64	11.86	-52.1	-54.3	14.4	0.00e+00	0	23	0	748683264	69	4876
2026-01-11 21:34:45.61	92.82	11.82	-52.1	-54.3	14.4	0.00e+00	0	23	0	749731840	69	4905
2026-01-11 21:34:46.62	93.00	11.79	-52.3	-54.5	14.3	0.00e+00	0	23	0	751828992	69	5010
2026-01-11 21:34:47.63	93.18	11.76	-52.3	-54.5	14.3	0.00e+00	0	23	0	753926144	69	5016
2026-01-11 21:34:48.64	93.36	11.73	-52.3	-54.6	14.3	0.00e+00	0	23	0	756023296	69	5051
2026-01-11 21:34:49.64	93.54	11.69	-52.3	-54.5	14.3	0.00e+00	0	23	0	758120448	69	5033
2026-01-11 21:34:50.65	93.72	11.66	-52.3	-54.5	14.3	0.00e+00	0	23	0	759169024	69	5027
2026-01-11 21:34:51.66	93.90	11.62	-52.2	-54.4	14.3	0.00e+00	0	23	0	761266176	69	4981
2026-01-11 21:34:52.67	94.08	11.59	-52.2	-54.4	14.4	0.00e+00	0	23	0	763363328	69	4958
2026-01-11 21:34:53.67	94.25	11.56	-52.2	-54.4	14.3	0.00e+00	0	23	0	765460480	69	4956
2026-01-11 21:34:54.68	94.43	11.52	-52.2	-54.5	14.3	0.00e+00	0	23	0	767557632	69	4997
2026-01-11 21:34:55.68	94.60	11.49	-52.3	-54.6	14.3	0.00e+00	0	23	0	768606208	69	5056
2026-01-11 21:34:56.69	94.78	11.45	-52.5	-54.9	14.2	0.00e+00	0	23	0	770703360	70	4936
2026-01-11 21:34:57.70	94.96	11.42	-52.8	-55.2	14.0	0.00e+00	0	23	0	772800512	70	5137
2026-01-11 21:34:58.71	95.13	11.38	-52.8	-55.3	14.0	0.00e+00	0	23	0	774897664	70	5188
2026-01-11 21:34:59.72	95.31	11.35	-53.1	-55.6	13.9	0.00e+00	0	23	0	776994816	71	5085
2026-01-11 21:35:00.73	95.48	11.31	-53.2	-55.8	13.8	0.00e+00	0	23	0	778043392	71	5185
2026-01-11 21:35:01.74	95.66	11.28	-53.2	-55.9	13.7	0.00e+00	0	23	0	780140544	71	5269
2026-01-11 21:35:02.75	95.83	11.24	-53.4	-56.1	13.6	0.00e+00	0	23	0	782237696	71	5363
2026-01-11 21:35:03.76	96.00	11.20	-53.4	-56.1	13.6	0.00e+00	0	23	0	784334848	71	5401
2026-01-11 21:35:04.77	96.18	11.17	-53.5	-56.2	13.6	0.00e+00	0	23	0	786432000	72	5159
2026-01-11 21:35:05.78	96.35	11.13	-53.7	-56.5	13.4	0.00e+00	0	23	0	787480576	72	5336
2026-01-11 21:35:06.78	96.52	11.09	-53.8	-56.8	13.3	0.00e+00	0	23	0	789577728	72	5468
2026-01-11 21:35:07.79	96.69	11.06	-53.9	-56.9	13.2	0.00e+00	0	23	0	791674880	72	5561
2026-01-11 21:35:08.80	96.86	11.02	-54.0	-57.1	13.1	0.00e+00	0	23	0	793772032	73	5366
2026-01-11 21:35:09.81	97.04	10.98	-54.0	-57.1	13.1	7.00e-07	0	23	0	795869184	73	5376
2026-01-11 21:35:10.81	97.20	10.95	-53.9	-57.0	13.2	0.00e+00	0	23	0	796917760	73	5320
2026-01-11 21:35:11.82	97.37	10.91	-53.8	-56.8	13.4	0.00e+00	0	23	0	799014912	73	5165
2026-01-11 21:35:12.83	97.54	10.87	-53.8	-56.7	13.5	0.00e+00	0	23	0	801112064	73	5111
2026-01-11 21:35:13.83	97.71	10.83	-53.6	-56.4	13.7	0.00e+00	0	23	0	803209216	73	4949
2026-01-11 21:35:14.84	97.88	10.80	-53.4	-56.1	13.9	0.00e+00	0	23	0	805306368	73	4784
2026-01-11 21:35:15.85	98.05	10.76	-53.4	-56.1	13.9	0.00e+00	0	23	0	806354944	73	4772
2026-01-11 21:35:16.86	98.22	10.72	-53.3	-55.9	14.0	0.00e+00	0	23	0	808452096	73	4682
2026-01-11 21:35:17.87	98.39	10.68	-53.3	-55.9	14.0	0.00e+00	0	23	0	810549248	73	4701
2026-01-11 21:35:18.88	98.55	10.64	-53.3	-55.9	14.0	0.00e+00	0	23	0	812646400	73	4686
2026-01-11 21:35:19.88	98.72	10.60	-53.4	-56.1	13.9	0.00e+00	0	23	0	814743552	73	4767
2026-01-11 21:35:20.89	98.88	10.56	-53.4	-56.2	13.8	0.00e+00	0	23	0	816840704	73	4834
2026-01-11 21:35:21.90	99.05	10.53	-53.5	-56.2	13.8	0.00e+00	0	23	0	817889280	73	4852
2026-01-11 21:35:22.91	99.22	10.49	-53.6	-56.4	13.7	0.00e+00	0	23	0	819986432	73	4935
2026-01-11 21:35:23.92	99.38	10.45	-53.6	-56.5	13.6	0.00e+00	0	23	0	822083584	73	5018
2026-01-11 21:35:24.92	99.54	10.41	-53.7	-56.7	13.5	0.00e+00	0	23	0	824180736	73	5106
2026-01-11 21:35:25.93	99.71	10.37	-53.9	-56.9	13.3	0.00e+00	0	23	0	826277888	73	5233
2026-01-11 21:35:26.95	99.87	10.33	-53.9	-56.9	13.3	0.00e+00	0	23	0	827326464	73	5263
2026-01-11 21:35:27.96	100.04	10.29	-53.9	-56.9	13.3	0.00e+00	0	23	0	829423616	73	5275
2026-01-11 21:35:28.96	100.20	10.25	-53.8	-56.9	13.3	0.00e+00	0	23	0	831520768	73	5235
2026-01-11 21:35:29.97	100.36	10.21	-53.8	-56.8	13.4	0.00e+00	0	23	0	833617920	73	5175
2026-01-11 21:35:30.98	100.52	10.17	-53.7	-56.6	13.5	0.00e+00	0	23	0	834666496	73	5097
2026-01-11 21:35:31.99	100.69	10.13	-53.5	-56.4	13.7	0.00e+00	0	23	0	836763648	73	4934
2026-01-11 21:35:32.99	100.85	10.09	-53.6	-56.4	13.7	0.00e+00	0	23	0	838860800	73	4963
2026-01-11 21:35:34.00	101.01	10.05	-53.4	-56.1	13.8	0.00e+00	0	23	0	840957952	73	4811
2026-01-11 21:35:35.01	101.17	10.00	-53.3	-55.9	14.0	0.00e+00	0	23	0	843055104	73	4672
2026-01-11 21:35:36.02	101.33	9.96	-53.3	-55.9	14.0	0.00e+00	0	23	0	845152256	73	4682
2026-01-11 21:35:37.02	101.48	9.92	-53.4	-56.0	13.9	0.00e+00	0	23	0	846200832	73	4752
2026-01-11 21:35:38.03	101.64	9.88	-53.3	-55.9	14.0	0.00e+00	0	23	0	848297984	73	4685
2026-01-11 21:35:39.04	101.80	9.84	-53.4	-56.1	13.8	0.00e+00	0	23	0	850395136	73	4814
2026-01-11 21:35:40.04	101.96	9.80	-53.3	-56.0	13.9	0.00e+00	0	23	0	852492288	73	4707
2026-01-11 21:35:41.05	102.12	9.76	-53.1	-55.7	14.0	0.00e+00	0	23	0	854589440	72	4819
2026-01-11 21:35:42.06	102.27	9.72	-53.0	-55.5	14.1	0.00e+00	0	23	0	855638016	72	4715
2026-01-11 21:35:43.06	102.43	9.67	-52.9	-55.4	14.2	0.00e+00	0	23	0	857735168	72	4665
2026-01-11 21:35:44.07	102.59	9.63	-52.8	-55.2	14.3	0.00e+00	0	23	0	859832320	72	4559
2026-01-11 21:35:45.08	102.74	9.59	-52.6	-55.0	14.3	0.00e+00	0	23	0	861929472	71	4729
2026-01-11 21:35:46.08	102.90	9.55	-52.6	-54.9	14.3	0.00e+00	0	23	0	864026624	71	4697
2026-01-11 21:35:47.09	103.05	9.51	-52.7	-55.0	14.3	0.00e+00	0	23	0	865075200	71	4756
2026-01-11 21:35:48.10	103.21	9.46	-52.6	-55.0	14.3	0.00e+00	0	23	0	867172352	71	4736
2026-01-11 21:35:49.11	103.36	9.42	-52.5	-54.9	14.3	0.00e+00	0	23	0	869269504	71	4658
2026-01-11 21:35:50.12	103.51	9.38	-52.7	-55.0	14.3	0.00e+00	0	23	0	871366656	71	4756
2026-01-11 21:35:51.13	103.67	9.34	-52.8	-55.3	14.1	0.00e+00	0	23	0	873463808	71	4885
2026-01-11 21:35:52.14	103.82	9.29	-52.8	-55.3	14.1	0.00e+00	0	23	0	874512384	71	4906
2026-01-11 21:35:53.14	103.97	9.25	-52.8	-55.3	14.1	0.00e+00	0	23	0	876609536	71	4890
2026-01-11 21:35:54.15	104.12	9.21	-52.9	-55.3	14.0	0.00e+00	0	23	0	878706688	71	4920
2026-01-11 21:35:55.16	104.28	9.16	-52.9	-55.5	13.9	0.00e+00	0	23	0	880803840	71	4997
2026-01-11 21:35:56.17	104.43	9.12	-53.0	-55.6	13.9	0.00e+00	0	23	0	882900992	71	5084
2026-01-11 21:35:57.18	104.58	9.08	-52.9	-55.4	14.0	0.00e+00	0	23	0	883949568	71	4931
2026-01-11 21:35:58.19	104.73	9.03	-52.9	-55.4	14.0	0.00e+00	0	23	0	886046720	71	4968
2026-01-11 21:35:59.20	104.88	8.99	-53.0	-55.6	13.9	0.00e+00	0	23	0	888143872	71	5083
2026-01-11 21:36:00.20	105.03	8.95	-53.0	-55.6	13.9	0.00e+00	0	23	0	890241024	71	5066
2026-01-11 21:36:01.21	105.18	8.90	-53.0	-55.5	13.9	0.00e+00	0	23	0	892338176	71	5012
2026-01-11 21:36:02.22	105.33	8.86	-52.8	-55.2	14.1	0.00e+00	0	23	0	893386752	71	4842
2026-01-11 21:36:03.23	105.47	8.81	-52.8	-55.3	14.1	0.00e+00	0	23	0	895483904	71	4899
2026-01-11 21:36:04.24	105.62	8.77	-52.8	-55.2	14.1	0.00e+00	0	23	0	897581056	71	4839
2026-01-11 21:36:05.25	105.77	8.73	-52.6	-55.0	14.3	0.00e+00	0	23	0	899678208	71	4730
2026-01-11 21:36:06.26	105.92	8.68	-52.5	-54.8	14.4	0.00e+00	0	23	0	901775360	71	4614
2026-01-11 21:36:07.26	106.06	8.64	-52.3	-54.5	14.6	0.00e+00	0	23	0	902823936	71	4463
2026-01-11 21:36:08.27	106.21	8.59	-52.1	-54.2	14.6	0.00e+00	0	23	0	904921088	70	4586
2026-01-11 21:36:09.28	106.35	8.55	-52.2	-54.4	14.5	0.00e+00	0	23	0	907018240	70	4669
2026-01-11 21:36:10.28	106.50	8.51	-52.1	-54.2	14.6	0.00e+00	0	23	0	909115392	70	4589
2026-01-11 21:36:11.29	106.64	8.46	-52.1	-54.3	14.5	0.00e+00	0	23	0	911212544	70	4640
2026-01-11 21:36:12.30	106.79	8.42	-52.2	-54.4	14.4	0.00e+00	0	23	0	912261120	70	4701
2026-01-11 21:36:13.30	106.93	8.37	-52.3	-54.6	14.4	0.00e+00	0	23	0	914358272	70	4760
2026-01-11 21:36:14.31	107.07	8.33	-52.4	-54.7	14.3	0.00e+00	0	23	0	916455424	70	4837
2026-01-11 21:36:15.32	107.22	8.28	-52.4	-54.8	14.3	0.00e+00	0	23	0	918552576	70	4873
2026-01-11 21:36:16.32	107.36	8.24	-52.4	-54.7	14.2	0.00e+00	0	23	0	920649728	70	4857
2026-01-11 21:36:17.32	107.50	8.19	-52.4	-54.7	14.3	0.00e+00	0	23	0	921698304	70	4824
2026-01-11 21:36:18.33	107.64	8.15	-52.3	-54.6	14.3	0.00e+00	0	23	0	923795456	70	4804
2026-01-11 21:36:19.34	107.78	8.10	-52.4	-54.7	14.3	0.00e+00	0	23	0	925892608	70	4831
2026-01-11 21:36:20.34	107.92	8.06	-52.2	-54.4	14.5	0.00e+00	0	23	0	927989760	70	4676
2026-01-11 21:36:21.35	108.06	8.01	-52.3	-54.5	14.4	0.00e+00	0	23	0	930086912	70	4728
2026-01-11 21:36:22.36	108.20	7.97	-52.3	-54.5	14.4	0.00e+00	0	23	0	931135488	70	4731
2026-01-11 21:36:23.37	108.34	7.92	-52.3	-54.6	14.4	0.00e+00	0	23	0	933232640	70	4764
2026-01-11 21:36:24.38	108.48	7.88	-52.2	-54.5	14.5	0.00e+00	0	23	0	935329792	70	4713
2026-01-11 21:36:25.39	108.62	7.83	-52.4	-54.7	14.3	0.00e+00	0	23	0	937426944	70	4866
2026-01-11 21:36:26.39	108.76	7.79	-52.5	-54.9	14.2	0.00e+00	0	23	0	939524096	70	4951
2026-01-11 21:36:27.40	108.90	7.74	-52.4	-54.8	14.2	0.00e+00	0	23	0	940572672	70	4882
2026-01-11 21:36:28.41	109.03	7.69	-52.4	-54.7	14.2	0.00e+00	0	23	0	942669824	70	4868
2026-01-11 21:36:29.42	109.17	7.65	-52.4	-54.7	14.3	0.00e+00	0	23	0	944766976	70	4854
2026-01-11 21:36:30.43	109.31	7.60	-52.3	-54.6	14.3	0.00e+00	0	23	0	946864128	70	4808
2026-01-11 21:36:31.44	109.45	7.56	-52.4	-54.7	14.3	0.00e+00	0	23	0	948961280	70	4855
2026-01-11 21:36:32.45	109.58	7.51	-52.3	-54.6	14.3	0.00e+00	0	23	0	950009856	70	4806
2026-01-11 21:36:33.45	109.72	7.47	-52.3	-54.6	14.3	0.00e+00	0	23	0	952107008	70	4794
2026-01-11 21:36:34.46	109.85	7.42	-52.3	-54.6	14.4	0.00e+00	0	23	0	954204160	70	4778
2026-01-11 21:36:35.47	109.99	7.37	-52.2	-54.5	14.4	0.00e+00	0	23	0	956301312	70	4736
2026-01-11 21:36:36.48	110.12	7.33	-52.2	-54.5	14.4	0.00e+00	0	23	0	958398464	70	4732
2026-01-11 21:36:37.48	110.25	7.28	-52.4	-54.7	14.3	0.00e+00	0	23	0	959447040	70	4825
2026-01-11 21:36:38.49	110.39	7.24	-52.4	-54.7	14.3	0.00e+00	0	23	0	961544192	70	4835
2026-01-11 21:36:39.50	110.52	7.19	-52.5	-54.9	14.1	0.00e+00	0	23	0	963641344	70	4959
2026-01-11 21:36:40.50	110.65	7.14	-52.6	-55.1	14.0	0.00e+00	0	23	0	965738496	70	5048
2026-01-11 21:36:41.51	110.78	7.10	-52.5	-54.9	14.1	0.00e+00	0	23	0	967835648	70	4938
2026-01-11 21:36:42.52	110.92	7.05	-52.4	-54.8	14.2	0.00e+00	0	23	0	968884224	70	4911
2026-01-11 21:36:43.52	111.05	7.00	-52.3	-54.7	14.3	0.00e+00	0	23	0	970981376	70	4828
2026-01-11 21:36:44.53	111.18	6.96	-52.4	-54.8	14.2	0.00e+00	0	23	0	973078528	70	4882
2026-01-11 21:36:45.54	111.31	6.91	-52.5	-54.8	14.2	0.00e+00	0	23	0	975175680	70	4921
2026-01-11 21:36:46.54	111.44	6.87	-52.3	-54.7	14.3	0.00e+00	0	23	0	977272832	70	4830
2026-01-11 21:36:47.55	111.57	6.82	-52.2	-54.5	14.4	0.00e+00	0	23	0	978321408	70	4750
2026-01-11 21:36:48.56	111.70	6.77	-52.2	-54.5	14.4	0.00e+00	0	23	0	980418560	70	4706
2026-01-11 21:36:49.57	111.83	6.73	-52.2	-54.4	14.4	0.00e+00	0	23	0	982515712	70	4701
2026-01-11 21:36:50.58	111.96	6.68	-52.3	-54.7	14.3	0.00e+00	0	23	0	984612864	70	4823
2026-01-11 21:36:51.58	112.08	6.63	-52.4	-54.8	14.2	0.00e+00	0	23	0	986710016	70	4891
2026-01-11 21:36:52.59	112.21	6.59	-52.5	-54.9	14.1	0.00e+00	0	23	0	987758592	70	4969
2026-01-11 21:36:53.60	112.34	6.54	-52.6	-55.1	14.0	0.00e+00	0	23	0	989855744	70	5052
2026-01-11 21:36:54.61	112.47	6.49	-52.6	-55.1	14.0	0.00e+00	0	23	0	991952896	70	5062
2026-01-11 21:36:55.61	112.59	6.45	-52.6	-55.2	13.9	0.00e+00	0	23	0	994050048	70	5125
2026-01-11 21:36:56.62	112.72	6.40	-52.7	-55.2	13.9	0.00e+00	0	23	0	996147200	70	5125
2026-01-11 21:36:57.63	112.84	6.35	-52.7	-55.3	13.8	0.00e+00	0	23	0	997195776	70	5195
2026-01-11 21:36:58.64	112.97	6.30	-52.7	-55.3	13.8	0.00e+00	0	23	0	999292928	70	5164
2026-01-11 21:36:59.64	113.09	6.26	-52.5	-55.0	14.0	0.00e+00	0	23	0	1001390080	70	4986
2026-01-11 21:37:00.65	113.22	6.21	-52.4	-54.9	14.1	0.00e+00	0	23	0	1003487232	70	4930
2026-01-11 21:37:01.66	113.34	6.16	-52.4	-54.8	14.1	0.00e+00	0	23	0	1005584384	70	4911
2026-01-11 21:37:02.67	113.47	6.12	-52.6	-55.2	13.9	0.00e+00	0	23	0	1006632960	70	5110
2026-01-11 21:37:03.67	113.59	6.07	-52.5	-55.0	14.0	0.00e+00	0	23	0	1008730112	70	5026
2026-01-11 21:37:04.68	113.71	6.02	-52.7	-55.3	13.8	0.00e+00	0	23	0	1010827264	70	5160
2026-01-11 21:37:05.69	113.84	5.98	-52.6	-55.2	13.9	0.00e+00	0	23	0	1012924416	70	5126
2026-01-11 21:37:06.70	113.96	5.93	-52.7	-55.3	13.7	0.00e+00	0	23	0	1015021568	70	5216
2026-01-11 21:37:07.71	114.08	5.88	-52.8	-55.5	13.7	0.00e+00	0	23	0	1016070144	70	5304
2026-01-11 21:37:08.72	114.20	5.83	-52.9	-55.7	13.7	0.00e+00	0	23	0	1018167296	71	5110
2026-01-11 21:37:09.72	114.32	5.79	-53.1	-56.0	13.4	0.00e+00	0	23	0	1020264448	71	5297
2026-01-11 21:37:10.72	114.44	5.74	-53.1	-56.0	13.4	0.00e+00	0	23	0	1022361600	71	5309
2026-01-11 21:37:11.73	114.56	5.69	-53.2	-56.2	13.3	0.00e+00	0	23	0	1024458752	71	5426
2026-01-11 21:37:12.74	114.69	5.65	-53.0	-55.9	13.5	0.00e+00	0	23	0	1026555904	71	5235
2026-01-11 21:37:13.75	114.81	5.60	-52.9	-55.6	13.7	0.00e+00	0	23	0	1027604480	71	5100
2026-01-11 21:37:14.76	114.92	5.55	-52.9	-55.7	13.6	0.00e+00	0	23	0	1029701632	71	5114
2026-01-11 21:37:15.77	115.04	5.50	-53.0	-55.8	13.5	0.00e+00	0	23	0	1031798784	71	5204
2026-01-11 21:37:16.77	115.16	5.46	-53.1	-56.1	13.4	0.00e+00	0	23	0	1033895936	71	5362
2026-01-11 21:37:17.78	115.28	5.41	-53.0	-55.9	13.5	0.00e+00	0	23	0	1034944512	71	5222
2026-01-11 21:37:18.79	115.40	5.36	-53.0	-55.9	13.4	0.00e+00	0	23	0	1037041664	71	5246
2026-01-11 21:37:19.79	115.52	5.31	-52.8	-55.7	13.6	0.00e+00	0	23	0	1039138816	71	5109
2026-01-11 21:37:20.80	115.63	5.27	-53.3	-56.5	13.0	0.00e+00	0	23	0	1041235968	71	5622
2026-01-11 21:37:21.81	115.75	5.22	-53.2	-56.3	13.1	0.00e+00	0	23	0	1043333120	71	5500
2026-01-11 21:37:22.82	115.87	5.17	-53.3	-56.6	12.9	0.00e+00	0	23	0	1044381696	71	5667
2026-01-11 21:37:23.83	115.98	5.12	-53.2	-56.3	13.2	0.00e+00	0	23	0	1046478848	72	5179
2026-01-11 21:37:24.84	116.10	5.08	-53.6	-56.9	12.7	0.00e+00	0	23	0	1048576000	72	5578
2026-01-11 21:37:25.85	116.21	5.03	-53.2	-56.2	13.3	0.00e+00	0	23	0	1050673152	72	5158
2026-01-11 21:37:26.85	116.33	4.98	-56.7	-66.9	5.8	7.78e-04	0	23	0	1052770304	78	12430
2026-01-11 21:37:27.86	116.44	4.93	-57.6	-73.5	3.8	1.49e+00	0	23	104	1052770304	80	23640
2026-01-11 21:37:28.87	116.56	4.89	-57.8	-73.8	3.8	1.49e+00	0	23	104	1052770304	80	24600
2026-01-11 21:37:29.88	116.67	4.84	-58.1	-74.1	3.8	1.49e+00	0	23	104	1052770304	81	24012
2026-01-11 21:37:30.89	116.79	4.79	-58.3	-74.3	3.8	1.49e+00	0	23	104	1052770304	81	24444
2026-01-11 21:37:31.90	116.90	4.74	-58.4	-74.5	3.8	1.49e+00	0	23	104	1052770304	81	24992
2026-01-11 21:37:32.91	117.01	4.70	-58.7	-74.7	3.8	1.49e+00	0	23	104	1052770304	82	24296
2026-01-11 21:37:33.92	117.13	4.65	-58.7	-74.8	3.8	1.49e+00	0	23	104	1052770304	82	24486
2026-01-11 21:37:34.93	117.24	4.60	-58.8	-74.9	3.8	1.49e+00	0	23	104	1052770304	82	24695
2026-01-11 21:37:35.93	117.35	4.55	-58.9	-74.9	3.8	1.49e+00	0	23	104	1052770304	82	24908
2026-01-11 21:37:36.95	117.46	4.51	-59.0	-75.0	3.8	1.49e+00	0	23	104	1052770304	83	23778
2026-01-11 21:37:37.95	117.57	4.46	-59.0	-75.1	3.8	1.49e+00	0	23	104	1052770304	83	23866
2026-01-11 21:37:38.96	117.68	4.41	-59.1	-75.1	3.8	1.49e+00	0	23	104	1052770304	83	24030
2026-01-11 21:37:39.97	117.79	4.36	-59.1	-75.1	3.8	1.49e+00	0	23	104	1052770304	83	24113
2026-01-11 21:37:40.98	117.90	4.32	-59.1	-75.2	3.8	1.49e+00	0	23	104	1052770304	83	24169
2026-01-11 21:37:41.99	118.01	4.27	-59.1	-75.2	3.8	1.49e+00	0	23	104	1052770304	83	24281
2026-01-11 21:37:43.00	118.12	4.22	-59.2	-75.2	3.8	1.49e+00	0	23	104	1052770304	83	24290
2026-01-11 21:37:44.01	118.23	4.17	-59.2	-75.2	3.8	1.49e+00	0	23	104	1052770304	83	24337
2026-01-11 21:37:45.02	118.34	4.13	-59.2	-75.3	3.8	1.49e+00	0	23	104	1052770304	83	24440
2026-01-11 21:37:46.03	118.45	4.08	-59.2	-75.3	3.8	1.49e+00	0	23	104	1052770304	83	24495
2026-01-11 21:37:47.04	118.56	4.03	-59.2	-75.3	3.8	1.49e+00	0	23	104	1052770304	83	24500
2026-01-11 21:37:48.05	118.67	3.98	-59.2	-75.3	3.8	1.49e+00	0	23	104	1052770304	83	24523
2026-01-11 21:37:49.06	118.78	3.94	-59.3	-75.3	3.8	1.49e+00	0	23	104	1052770304	83	24628
2026-01-11 21:37:50.07	118.88	3.89	-59.3	-75.4	3.8	1.49e+00	0	23	104	1052770304	83	24743
2026-01-11 21:37:51.07	118.99	3.84	-59.3	-75.4	3.8	1.49e+00	0	23	104	1052770304	83	24860
2026-01-11 21:37:52.08	119.10	3.79	-59.4	-75.4	3.9	1.49e+00	0	23	104	1052770304	83	24904
2026-01-11 21:37:53.09	119.20	3.75	-59.4	-75.5	3.8	1.49e+00	0	23	104	1052770304	83	24988
2026-01-11 21:37:54.10	119.31	3.70	-59.4	-75.5	3.8	1.49e+00	0	23	104	1052770304	83	25009
2026-01-11 21:37:55.11	119.41	3.65	-59.4	-75.5	3.8	1.49e+00	0	23	104	1052770304	83	25070
2026-01-11 21:37:56.12	119.52	3.60	-59.6	-75.7	3.8	1.49e+00	0	23	104	1052770304	84	24159
2026-01-11 21:37:57.13	119.62	3.56	-59.6	-75.6	3.8	1.49e+00	0	23	104	1052770304	84	24035
2026-01-11 21:37:58.14	119.73	3.51	-59.6	-75.6	3.8	1.49e+00	0	23	104	1052770304	84	24057
2026-01-11 21:37:59.15	119.83	3.46	-59.6	-75.6	3.8	1.49e+00	0	23	104	1052770304	84	23968
2026-01-11 21:38:00.16	119.94	3.41	-59.5	-75.6	3.8	1.49e+00	0	23	104	1052770304	84	23960
2026-01-11 21:38:01.17	120.04	3.37	-59.5	-75.6	3.8	1.49e+00	0	23	104	1052770304	84	23917
2026-01-11 21:38:02.18	120.14	3.32	-59.5	-75.6	3.8	1.49e+00	0	23	104	1052770304	84	24004
2026-01-11 21:38:03.19	120.25	3.27	-59.5	-75.6	3.8	1.49e+00	0	23	104	1052770304	84	23898
2026-01-11 21:38:04.20	120.35	3.22	-59.5	-75.6	3.8	1.49e+00	0	23	104	1052770304	84	23866
2026-01-11 21:38:05.21	120.45	3.18	-59.5	-75.6	3.8	1.49e+00	0	23	104	1052770304	84	23927
2026-01-11 21:38:06.22	120.55	3.13	-59.5	-75.5	3.8	1.49e+00	0	23	104	1052770304	84	23811
2026-01-11 21:38:07.23	120.66	3.08	-59.5	-75.5	3.8	1.49e+00	0	23	104	1052770304	84	23836
2026-01-11 21:38:08.24	120.76	3.03	-59.5	-75.5	3.8	1.49e+00	0	23	104	1052770304	84	23817
2026-01-11 21:38:09.24	120.86	2.99	-59.5	-75.6	3.8	1.49e+00	0	23	104	1052770304	84	23877
2026-01-11 21:38:10.26	120.96	2.94	-59.5	-75.5	3.8	1.49e+00	0	23	104	1052770304	84	23796
2026-01-11 21:38:11.26	121.06	2.89	-59.5	-75.5	3.8	1.49e+00	0	23	104	1052770304	84	23805
2026-01-11 21:38:12.27	121.16	2.84	-59.5	-75.5	3.8	1.49e+00	0	23	104	1052770304	84	23728
2026-01-11 21:38:13.28	121.26	2.80	-59.5	-75.5	3.8	1.49e+00	0	23	104	1052770304	84	23821
2026-01-11 21:38:14.28	121.36	2.75	-59.5	-75.5	3.8	1.49e+00	0	23	104	1052770304	84	23813
2026-01-11 21:38:15.29	121.46	2.70	-59.5	-75.5	3.8	1.49e+00	0	23	104	1052770304	84	23716
2026-01-11 21:38:16.30	121.56	2.65	-59.5	-75.5	3.8	1.49e+00	0	23	104	1052770304	84	23697
2026-01-11 21:38:17.31	121.66	2.61	-59.5	-75.5	3.8	1.49e+00	0	23	104	1052770304	84	23733
2026-01-11 21:38:18.32	121.75	2.56	-59.5	-75.5	3.8	1.49e+00	0	23	104	1052770304	84	23708
2026-01-11 21:38:19.33	121.85	2.51	-59.5	-75.5	3.8	1.49e+00	0	23	104	1052770304	84	23684
2026-01-11 21:38:20.34	121.95	2.46	-59.4	-75.5	3.8	1.49e+00	0	23	104	1052770304	84	23699
2026-01-11 21:38:21.35	122.05	2.42	-59.5	-75.5	3.8	1.49e+00	0	23	104	1052770304	84	23633
2026-01-11 21:38:22.36	122.15	2.37	-59.4	-75.5	3.8	1.49e+00	0	23	104	1052770304	84	23624
2026-01-11 21:38:23.37	122.24	2.32	-59.4	-75.5	3.8	1.49e+00	0	23	104	1052770304	84	23643
2026-01-11 21:38:24.38	122.34	2.28	-59.4	-75.5	3.8	1.49e+00	0	23	104	1052770304	84	23617
2026-01-11 21:38:25.39	122.44	2.23	-59.4	-75.5	3.8	1.49e+00	0	23	104	1052770304	84	23673
2026-01-11 21:38:26.40	122.53	2.18	-59.4	-75.5	3.8	1.49e+00	0	23	104	1052770304	84	23679
2026-01-11 21:38:27.40	122.63	2.13	-59.4	-75.5	3.8	1.49e+00	0	23	104	1052770304	84	23650
2026-01-11 21:38:28.41	122.72	2.09	-59.4	-75.5	3.8	1.49e+00	0	23	104	1052770304	84	23665
2026-01-11 21:38:29.42	122.82	2.04	-59.4	-75.5	3.8	1.49e+00	0	23	104	1052770304	84	23644
2026-01-11 21:38:30.43	122.91	1.99	-59.4	-75.5	3.8	1.49e+00	0	23	104	1052770304	84	23624

#Closed at: 2026-01-11 21:38:31
#Recorded file [1052 MB]: D:/lorett/data/31004_260112_002713.dat