passes_logs/2026/01/11/R3.2S_Murmansk/R3.2S_Murmansk__20260111_024712_NOAA_20_JPSS-1_rec.log

#Pass ID: 20260111_024712_NOAA 20 (JPSS-1)
#Satellite: NOAA 20 (JPSS-1)
#Configuration: NOAA 20
#almurnet v.1.7.20251203
#Start time: 2026-01-11 02:47:12

#Version: 2.2.20231116
#Station: R3.2S_Murmansk
#Location: 33.079688 lon 68.888172 lat
#TLE: 1 43013U 17073A   26009.69119415  .00000109  00000+0  72598-4 0  9996
#TLE: 2 43013  98.7631 310.6868 0001678  46.7442 313.3874 14.19534878421981

#Time	Az	El	Level	Level2	SNR	BER	BlckErr	Temp	State	Recorded	gain1	gain2
2026-01-11 02:47:12.12	35.98	2.01	-53.2	-69.1	3.8	1.49e+00	0	23	0	0	71	24024
2026-01-11 02:47:13.12	35.94	2.07	-53.2	-69.2	3.8	1.49e+00	0	23	104	0	71	24193
2026-01-11 02:47:14.13	35.89	2.13	-53.2	-69.2	3.8	1.49e+00	0	24	104	0	71	24177
2026-01-11 02:47:15.13	35.85	2.19	-53.2	-69.2	3.8	1.49e+00	0	24	104	0	71	24250
2026-01-11 02:47:16.13	35.81	2.25	-53.2	-69.2	3.8	1.49e+00	0	24	104	0	71	24168
2026-01-11 02:47:17.13	35.76	2.31	-53.2	-69.2	3.8	1.49e+00	0	24	104	0	71	24254
2026-01-11 02:47:18.13	35.72	2.37	-53.2	-69.2	3.8	1.49e+00	0	24	104	0	71	24197
2026-01-11 02:47:19.14	35.67	2.44	-53.3	-69.2	3.8	1.49e+00	0	24	104	0	71	24182
2026-01-11 02:47:20.14	35.63	2.50	-53.2	-69.2	3.8	1.49e+00	0	24	104	0	71	24233
2026-01-11 02:47:21.14	35.58	2.56	-53.3	-69.2	3.8	1.49e+00	0	24	104	0	71	24270
2026-01-11 02:47:22.15	35.54	2.62	-53.3	-69.2	3.8	1.49e+00	0	24	104	0	71	24247
2026-01-11 02:47:23.14	35.49	2.68	-53.3	-69.2	3.8	1.49e+00	0	24	104	0	71	24228
2026-01-11 02:47:24.15	35.45	2.74	-53.3	-69.2	3.8	1.49e+00	0	24	104	0	71	24342
2026-01-11 02:47:25.15	35.40	2.81	-53.3	-69.2	3.8	1.49e+00	0	24	104	0	71	24289
2026-01-11 02:47:26.16	35.35	2.87	-53.3	-69.2	3.8	1.49e+00	0	24	104	0	71	24246
2026-01-11 02:47:27.15	35.31	2.93	-53.3	-69.2	3.8	1.49e+00	0	24	104	0	71	24236
2026-01-11 02:47:28.16	35.26	2.99	-53.3	-69.2	3.8	1.49e+00	0	24	104	0	71	24172
2026-01-11 02:47:29.16	35.22	3.06	-53.3	-69.2	3.8	1.49e+00	0	24	104	0	71	24206
2026-01-11 02:47:30.16	35.17	3.12	-53.3	-69.2	3.8	1.49e+00	0	24	104	0	71	24246
2026-01-11 02:47:31.16	35.12	3.18	-53.3	-69.2	3.8	1.49e+00	0	24	104	0	71	24250
2026-01-11 02:47:32.17	35.07	3.25	-53.3	-69.2	3.8	1.49e+00	0	24	104	0	71	24255
2026-01-11 02:47:33.16	35.03	3.31	-53.3	-69.2	3.8	1.49e+00	0	24	104	0	71	24285
2026-01-11 02:47:34.16	34.98	3.37	-53.3	-69.2	3.9	1.49e+00	0	24	104	0	71	24238
2026-01-11 02:47:35.17	34.93	3.44	-53.3	-69.2	3.8	1.49e+00	0	24	104	0	71	24295
2026-01-11 02:47:36.18	34.88	3.50	-53.3	-69.2	3.8	1.49e+00	0	24	104	0	71	24313
2026-01-11 02:47:37.18	34.83	3.56	-53.3	-69.2	3.8	1.49e+00	0	24	104	0	71	24331
2026-01-11 02:47:38.18	34.79	3.63	-53.3	-69.2	3.8	1.49e+00	0	24	104	0	71	24274
2026-01-11 02:47:39.19	34.74	3.69	-53.3	-69.2	3.8	1.49e+00	0	24	104	0	71	24352
2026-01-11 02:47:40.20	34.69	3.76	-53.3	-69.2	3.8	1.49e+00	0	24	104	0	71	24362
2026-01-11 02:47:41.20	34.64	3.82	-53.3	-69.2	3.8	1.49e+00	0	24	104	0	71	24289
2026-01-11 02:47:42.20	34.59	3.88	-53.3	-69.2	3.8	1.49e+00	0	24	104	0	71	24349
2026-01-11 02:47:43.20	34.54	3.95	-53.3	-69.2	3.8	1.49e+00	0	25	104	0	71	24335
2026-01-11 02:47:44.20	34.49	4.01	-53.3	-69.3	3.8	1.49e+00	0	24	104	0	71	24415
2026-01-11 02:47:45.20	34.44	4.08	-53.3	-69.2	3.8	1.49e+00	0	25	104	0	71	24358
2026-01-11 02:47:46.21	34.39	4.14	-53.3	-69.2	3.8	1.49e+00	0	25	104	0	71	24329
2026-01-11 02:47:47.22	34.34	4.21	-53.3	-69.2	3.8	1.49e+00	0	25	104	0	71	24336
2026-01-11 02:47:48.21	34.29	4.27	-53.3	-69.2	3.8	1.49e+00	0	25	104	0	71	24391
2026-01-11 02:47:49.22	34.24	4.34	-53.3	-69.2	3.8	1.49e+00	0	25	104	0	71	24357
2026-01-11 02:47:50.22	34.18	4.40	-53.3	-69.2	3.8	1.49e+00	0	25	104	0	71	24389
2026-01-11 02:47:51.22	34.13	4.47	-53.3	-69.3	3.8	1.49e+00	0	25	104	0	71	24468
2026-01-11 02:47:52.23	34.08	4.53	-53.3	-69.3	3.8	1.49e+00	0	25	104	0	71	24448
2026-01-11 02:47:53.23	34.03	4.60	-53.3	-69.2	3.8	1.49e+00	0	25	104	0	71	24340
2026-01-11 02:47:54.23	33.98	4.67	-53.3	-69.2	3.8	1.49e+00	0	25	104	0	71	24384
2026-01-11 02:47:55.23	33.92	4.73	-53.3	-69.2	3.8	1.49e+00	0	25	104	0	71	24371
2026-01-11 02:47:56.23	33.87	4.80	-53.3	-69.3	3.8	1.49e+00	0	25	104	0	71	24422
2026-01-11 02:47:57.23	33.82	4.86	-53.3	-69.2	3.8	1.49e+00	0	25	104	0	71	24356
2026-01-11 02:47:58.23	33.76	4.93	-53.3	-69.2	3.8	1.49e+00	0	25	104	0	71	24382
2026-01-11 02:47:59.23	33.71	5.00	-53.3	-69.3	3.8	1.49e+00	0	25	104	0	71	24435
2026-01-11 02:48:00.23	33.66	5.06	-53.3	-69.3	3.8	1.49e+00	0	25	104	0	71	24502
2026-01-11 02:48:01.23	33.60	5.13	-53.3	-69.3	3.8	1.49e+00	0	25	104	0	71	24492
2026-01-11 02:48:02.23	33.55	5.20	-53.3	-69.3	3.8	1.49e+00	0	25	104	0	71	24460
2026-01-11 02:48:03.23	33.49	5.26	-53.3	-69.3	3.8	1.49e+00	0	25	104	0	71	24471
2026-01-11 02:48:04.22	33.44	5.33	-53.3	-69.3	3.8	1.49e+00	0	25	104	0	71	24493
2026-01-11 02:48:05.23	33.38	5.40	-53.3	-69.3	3.8	1.49e+00	0	25	104	0	71	24466
2026-01-11 02:48:06.23	33.33	5.47	-53.3	-69.3	3.8	1.49e+00	0	25	104	0	71	24469
2026-01-11 02:48:07.24	33.27	5.53	-53.3	-69.3	3.8	1.49e+00	0	25	104	0	71	24466
2026-01-11 02:48:08.24	33.21	5.60	-53.3	-69.3	3.8	1.49e+00	0	25	104	0	71	24457
2026-01-11 02:48:09.24	33.16	5.67	-53.3	-69.3	3.8	1.49e+00	0	25	104	0	71	24420
2026-01-11 02:48:10.24	33.10	5.74	-53.3	-69.3	3.8	1.49e+00	0	25	104	0	71	24435
2026-01-11 02:48:11.24	33.04	5.81	-53.3	-69.3	3.8	1.49e+00	0	25	104	0	71	24488
2026-01-11 02:48:12.24	32.99	5.87	-53.3	-69.3	3.8	1.49e+00	0	25	104	0	71	24448
2026-01-11 02:48:13.25	32.93	5.94	-53.3	-69.3	3.8	1.49e+00	0	25	104	0	71	24460
2026-01-11 02:48:14.25	32.87	6.01	-53.3	-69.3	3.8	1.49e+00	0	25	104	0	71	24447
2026-01-11 02:48:15.25	32.81	6.08	-53.3	-69.3	3.8	1.49e+00	0	25	104	0	71	24536
2026-01-11 02:48:16.25	32.76	6.15	-53.3	-69.3	3.8	1.49e+00	0	25	104	0	71	24474
2026-01-11 02:48:17.25	32.70	6.22	-53.3	-69.3	3.8	1.49e+00	0	25	104	0	71	24472
2026-01-11 02:48:18.25	32.64	6.29	-53.4	-69.3	3.8	1.49e+00	0	25	104	0	71	24538
2026-01-11 02:48:19.26	32.58	6.36	-53.4	-69.3	3.8	1.49e+00	0	25	104	0	71	24522
2026-01-11 02:48:20.27	32.52	6.43	-53.4	-69.3	3.8	1.49e+00	0	25	104	0	71	24512
2026-01-11 02:48:21.27	32.46	6.50	-53.4	-69.3	3.8	1.49e+00	0	25	104	0	71	24510
2026-01-11 02:48:22.27	32.40	6.57	-53.4	-69.3	3.8	1.49e+00	0	25	104	0	71	24515
2026-01-11 02:48:23.27	32.34	6.64	-53.4	-69.3	3.8	1.49e+00	0	25	104	0	71	24582
2026-01-11 02:48:24.27	32.28	6.71	-53.3	-69.3	3.8	1.49e+00	0	25	104	0	71	24517
2026-01-11 02:48:25.27	32.22	6.78	-53.3	-69.3	3.8	1.49e+00	0	25	104	0	71	24529
2026-01-11 02:48:26.28	32.15	6.85	-53.4	-69.3	3.8	1.49e+00	0	25	104	0	71	24575
2026-01-11 02:48:27.27	32.09	6.92	-53.4	-69.3	3.8	1.49e+00	0	25	104	0	71	24523
2026-01-11 02:48:28.27	32.03	6.99	-53.4	-69.3	3.8	1.49e+00	0	25	104	0	71	24558
2026-01-11 02:48:29.27	31.97	7.06	-53.4	-69.3	3.8	1.49e+00	0	25	104	0	71	24517
2026-01-11 02:48:30.28	31.90	7.13	-53.4	-69.3	3.8	1.49e+00	0	25	104	0	71	24585
2026-01-11 02:48:31.28	31.84	7.20	-53.4	-69.3	3.8	1.49e+00	0	25	104	0	71	24490
2026-01-11 02:48:32.28	31.78	7.28	-53.4	-69.3	3.8	1.49e+00	0	25	104	0	71	24519
2026-01-11 02:48:33.29	31.71	7.35	-53.4	-69.3	3.8	1.49e+00	0	26	104	0	71	24546
2026-01-11 02:48:34.29	31.65	7.42	-53.4	-69.3	3.8	1.49e+00	0	25	104	0	71	24576
2026-01-11 02:48:35.30	31.58	7.49	-53.4	-69.3	3.8	1.49e+00	0	25	104	0	71	24585
2026-01-11 02:48:36.30	31.52	7.57	-53.4	-69.3	3.8	1.49e+00	0	25	104	0	71	24533
2026-01-11 02:48:37.30	31.46	7.64	-53.4	-69.3	3.8	1.49e+00	0	26	104	0	71	24604
2026-01-11 02:48:38.30	31.39	7.71	-53.4	-69.3	3.8	1.49e+00	0	26	104	0	71	24602
2026-01-11 02:48:39.31	31.32	7.78	-53.4	-69.3	3.8	1.49e+00	0	26	104	0	71	24616
2026-01-11 02:48:40.31	31.26	7.86	-53.4	-69.3	3.8	1.49e+00	0	25	104	0	71	24544
2026-01-11 02:48:41.31	31.19	7.93	-53.4	-69.3	3.8	1.49e+00	0	26	104	0	71	24563
2026-01-11 02:48:42.31	31.12	8.00	-53.4	-69.3	3.8	1.49e+00	0	25	104	0	71	24652
2026-01-11 02:48:43.32	31.06	8.08	-53.4	-69.3	3.8	1.49e+00	0	26	104	0	71	24582
2026-01-11 02:48:44.32	30.99	8.15	-53.4	-69.3	3.8	1.49e+00	0	26	104	0	71	24600
2026-01-11 02:48:45.32	30.92	8.22	-53.4	-69.3	3.8	1.49e+00	0	26	104	0	71	24640
2026-01-11 02:48:46.32	30.85	8.30	-53.4	-69.3	3.8	1.49e+00	0	26	104	0	71	24581
2026-01-11 02:48:47.32	30.78	8.37	-53.4	-69.3	3.8	1.49e+00	0	26	104	0	71	24566
2026-01-11 02:48:48.33	30.71	8.45	-53.4	-69.3	3.8	1.49e+00	0	26	104	0	71	24540
2026-01-11 02:48:49.33	30.64	8.52	-53.4	-69.3	3.8	1.49e+00	0	26	104	0	71	24562
2026-01-11 02:48:50.33	30.58	8.60	-53.4	-69.3	3.8	1.49e+00	0	26	104	0	71	24605
2026-01-11 02:48:51.34	30.50	8.67	-53.4	-69.3	3.8	1.49e+00	0	26	104	0	71	24574
2026-01-11 02:48:52.34	30.43	8.75	-53.4	-69.3	3.8	1.49e+00	0	26	104	0	71	24534
2026-01-11 02:48:53.34	30.36	8.82	-53.4	-69.3	3.8	1.49e+00	0	25	104	0	71	24568
2026-01-11 02:48:54.34	30.29	8.90	-53.4	-69.3	3.8	1.49e+00	0	26	104	0	71	24600
2026-01-11 02:48:55.34	30.22	8.97	-53.4	-69.3	3.8	1.49e+00	0	26	104	0	71	24548
2026-01-11 02:48:56.35	30.15	9.05	-53.4	-69.3	3.8	1.49e+00	0	26	104	0	71	24537
2026-01-11 02:48:57.34	30.08	9.12	-53.4	-69.3	3.8	1.49e+00	0	26	104	0	71	24591
2026-01-11 02:48:58.34	30.00	9.20	-53.4	-69.3	3.8	1.49e+00	0	26	104	0	71	24629
2026-01-11 02:48:59.34	29.93	9.28	-53.4	-69.3	3.8	1.49e+00	0	26	104	0	71	24587
2026-01-11 02:49:00.33	29.86	9.35	-53.4	-69.3	3.8	1.49e+00	0	26	104	0	71	24579
2026-01-11 02:49:01.34	29.78	9.43	-53.4	-69.3	3.8	1.49e+00	0	26	104	0	71	24553
2026-01-11 02:49:02.34	29.71	9.51	-53.4	-69.3	3.8	1.49e+00	0	26	104	0	71	24596
2026-01-11 02:49:03.34	29.63	9.58	-53.4	-69.3	3.8	1.49e+00	0	26	104	0	71	24670
2026-01-11 02:49:04.34	29.56	9.66	-53.4	-69.3	3.8	1.49e+00	0	26	104	0	71	24626
2026-01-11 02:49:05.33	29.48	9.74	-53.4	-69.3	3.8	1.49e+00	0	26	104	0	71	24581
2026-01-11 02:49:06.33	29.41	9.81	-53.4	-69.3	3.8	1.49e+00	0	26	104	0	71	24632
2026-01-11 02:49:07.33	29.33	9.89	-53.4	-69.3	3.8	1.49e+00	0	26	104	0	71	24663
2026-01-11 02:49:08.33	29.25	9.97	-53.4	-69.3	3.8	1.49e+00	0	26	104	0	71	24650
2026-01-11 02:49:09.34	29.18	10.05	-53.4	-69.3	3.8	1.49e+00	0	26	104	0	71	24624
2026-01-11 02:49:10.34	29.10	10.13	-53.4	-69.3	3.8	1.49e+00	0	26	104	0	71	24636
2026-01-11 02:49:11.34	29.02	10.21	-53.4	-69.4	3.8	1.49e+00	0	26	104	0	71	24716
2026-01-11 02:49:12.35	28.94	10.28	-53.4	-69.3	3.8	1.49e+00	0	26	104	0	71	24640
2026-01-11 02:49:13.35	28.86	10.36	-53.4	-69.3	3.8	1.49e+00	0	26	104	0	71	24687
2026-01-11 02:49:14.35	28.78	10.44	-53.4	-69.3	3.8	1.49e+00	0	26	104	0	71	24656
2026-01-11 02:49:15.35	28.70	10.52	-53.4	-69.3	3.8	1.49e+00	0	26	104	0	71	24625
2026-01-11 02:49:16.35	28.62	10.60	-53.4	-69.3	3.8	1.49e+00	0	26	104	0	71	24633
2026-01-11 02:49:17.35	28.54	10.68	-53.4	-69.3	3.8	1.49e+00	0	26	104	0	71	24648
2026-01-11 02:49:18.35	28.46	10.76	-53.4	-69.3	3.8	1.49e+00	0	26	104	0	71	24655
2026-01-11 02:49:19.35	28.38	10.84	-53.4	-69.4	3.8	1.49e+00	0	26	104	0	71	24724
2026-01-11 02:49:20.35	28.29	10.92	-53.4	-69.4	3.8	1.49e+00	0	26	104	0	71	24695
2026-01-11 02:49:21.35	28.21	11.00	-53.4	-69.3	3.8	1.49e+00	0	26	104	0	71	24601
2026-01-11 02:49:22.35	28.13	11.08	-53.4	-69.3	3.8	1.49e+00	0	26	104	0	71	24647
2026-01-11 02:49:23.35	28.04	11.16	-53.4	-69.3	3.8	1.49e+00	0	26	104	0	71	24663
2026-01-11 02:49:24.35	27.96	11.24	-53.4	-69.3	3.8	1.49e+00	0	26	104	0	71	24620
2026-01-11 02:49:25.36	27.87	11.33	-53.4	-69.3	3.8	1.49e+00	0	26	104	0	71	24667
2026-01-11 02:49:26.36	27.79	11.41	-53.4	-69.3	3.8	1.49e+00	0	26	104	0	71	24603
2026-01-11 02:49:27.36	27.70	11.49	-53.4	-69.3	3.8	1.49e+00	0	26	104	0	71	24672
2026-01-11 02:49:28.36	27.62	11.57	-53.4	-69.3	3.8	1.49e+00	0	26	104	0	71	24660
2026-01-11 02:49:29.36	27.53	11.65	-53.4	-69.3	3.8	1.49e+00	0	26	104	0	71	24630
2026-01-11 02:49:30.36	27.44	11.74	-53.4	-69.3	3.8	1.49e+00	0	26	104	0	71	24667
2026-01-11 02:49:31.36	27.35	11.82	-53.4	-69.4	3.8	1.49e+00	0	26	104	0	71	24696
2026-01-11 02:49:32.37	27.27	11.90	-53.4	-69.3	3.8	1.49e+00	0	26	104	0	71	24678
2026-01-11 02:49:33.37	27.18	11.99	-53.4	-69.4	3.8	1.49e+00	0	26	104	0	71	24741
2026-01-11 02:49:34.38	27.09	12.07	-53.4	-69.3	3.8	1.49e+00	0	26	104	0	71	24665
2026-01-11 02:49:35.38	27.00	12.15	-53.4	-69.3	3.8	1.49e+00	0	26	104	0	71	24648
2026-01-11 02:49:36.38	26.91	12.24	-53.4	-69.3	3.8	1.49e+00	0	26	104	0	71	24614
2026-01-11 02:49:37.39	26.81	12.32	-53.4	-69.3	3.8	1.49e+00	0	26	104	0	71	24677
2026-01-11 02:49:38.39	26.72	12.41	-53.4	-69.3	3.8	1.49e+00	0	26	104	0	71	24682
2026-01-11 02:49:39.39	26.63	12.49	-53.4	-69.4	3.8	1.49e+00	0	26	104	0	71	24697
2026-01-11 02:49:40.40	26.54	12.57	-53.4	-69.3	3.8	1.49e+00	0	26	104	0	71	24631
2026-01-11 02:49:41.40	26.44	12.66	-53.4	-69.4	3.8	1.49e+00	0	26	104	0	71	24748
2026-01-11 02:49:42.40	26.35	12.74	-53.4	-69.3	3.8	1.49e+00	0	26	104	0	71	24690
2026-01-11 02:49:43.40	26.26	12.83	-53.4	-69.3	3.8	1.49e+00	0	26	104	0	71	24628
2026-01-11 02:49:44.41	26.16	12.92	-53.4	-69.3	3.8	1.49e+00	0	26	104	0	71	24642
2026-01-11 02:49:45.40	26.07	13.00	-53.4	-69.3	3.8	1.49e+00	0	26	104	0	71	24654
2026-01-11 02:49:46.41	25.97	13.09	-53.4	-69.4	3.9	1.49e+00	0	26	104	0	71	24697
2026-01-11 02:49:47.41	25.87	13.17	-53.4	-69.4	3.8	1.49e+00	0	26	104	0	71	24705
2026-01-11 02:49:48.41	25.78	13.26	-53.4	-69.4	3.8	1.49e+00	0	26	104	0	72	23335
2026-01-11 02:49:49.42	25.68	13.35	-53.5	-69.4	3.8	1.49e+00	0	26	104	0	72	23375
2026-01-11 02:49:50.42	25.58	13.43	-53.5	-69.4	3.8	1.49e+00	0	26	104	0	72	23344
2026-01-11 02:49:51.42	25.48	13.52	-53.4	-69.4	3.8	1.49e+00	0	26	104	0	72	23350
2026-01-11 02:49:52.42	25.38	13.61	-53.4	-69.4	3.8	1.49e+00	0	26	104	0	72	23350
2026-01-11 02:49:53.42	25.28	13.69	-53.4	-69.4	3.8	1.49e+00	0	26	104	0	72	23354
2026-01-11 02:49:54.42	25.18	13.78	-53.4	-69.4	3.8	1.49e+00	0	26	104	0	72	23366
2026-01-11 02:49:55.42	25.08	13.87	-53.5	-69.4	3.8	1.49e+00	0	26	104	0	72	23337
2026-01-11 02:49:56.41	24.98	13.96	-53.5	-69.4	3.8	1.49e+00	0	26	104	0	72	23339
2026-01-11 02:49:57.41	24.87	14.05	-53.4	-69.4	3.8	1.49e+00	0	26	104	0	72	23369
2026-01-11 02:49:58.42	24.77	14.13	-53.5	-69.4	3.8	1.49e+00	0	26	104	0	72	23419
2026-01-11 02:49:59.41	24.67	14.22	-53.5	-69.4	3.8	1.49e+00	0	26	104	0	72	23343
2026-01-11 02:50:00.41	24.56	14.31	-53.5	-69.4	3.8	1.49e+00	0	26	104	0	72	23323
2026-01-11 02:50:01.41	24.46	14.40	-53.5	-69.4	3.8	1.49e+00	0	26	104	0	72	23355
2026-01-11 02:50:02.41	24.35	14.49	-53.5	-69.4	3.8	1.49e+00	0	26	104	0	72	23343
2026-01-11 02:50:03.42	24.24	14.58	-53.4	-69.3	3.8	1.49e+00	0	26	104	0	72	23309
2026-01-11 02:50:04.42	24.14	14.67	-53.5	-69.4	3.8	1.49e+00	0	26	104	0	72	23372
2026-01-11 02:50:05.42	24.03	14.76	-53.4	-69.4	3.8	1.49e+00	0	26	104	0	72	23341
2026-01-11 02:50:06.41	23.92	14.85	-53.4	-69.4	3.8	1.49e+00	0	26	104	0	72	23354
2026-01-11 02:50:07.41	23.81	14.94	-53.5	-69.4	3.8	1.49e+00	0	26	104	0	72	23342
2026-01-11 02:50:08.41	23.70	15.03	-53.5	-69.4	3.8	1.49e+00	0	26	104	0	72	23400
2026-01-11 02:50:09.41	23.59	15.12	-53.5	-69.4	3.8	1.49e+00	0	26	104	0	72	23403
2026-01-11 02:50:10.41	23.48	15.21	-53.4	-69.4	3.8	1.49e+00	0	26	104	0	72	23372
2026-01-11 02:50:11.41	23.37	15.30	-53.5	-69.4	3.8	1.49e+00	0	26	104	0	72	23328
2026-01-11 02:50:12.41	23.26	15.40	-53.5	-69.4	3.8	1.49e+00	0	26	104	0	72	23413
2026-01-11 02:50:13.41	23.14	15.49	-53.5	-69.4	3.8	1.49e+00	0	26	104	0	72	23396
2026-01-11 02:50:14.40	23.03	15.58	-53.5	-69.4	3.8	1.49e+00	0	26	104	0	72	23365
2026-01-11 02:50:15.41	22.91	15.67	-53.5	-69.4	3.8	1.49e+00	0	26	104	0	72	23364
2026-01-11 02:50:16.42	22.80	15.77	-53.5	-69.4	3.8	1.49e+00	0	26	104	0	72	23377
2026-01-11 02:50:17.42	22.68	15.86	-53.5	-69.3	3.8	1.49e+00	0	26	104	0	72	23306
2026-01-11 02:50:18.42	22.56	15.95	-53.5	-69.4	3.8	1.49e+00	0	26	104	0	72	23329
2026-01-11 02:50:19.43	22.44	16.05	-53.5	-69.4	3.8	1.49e+00	0	26	104	0	72	23375
2026-01-11 02:50:20.43	22.33	16.14	-53.5	-69.4	3.8	1.49e+00	0	26	104	0	72	23412
2026-01-11 02:50:21.43	22.21	16.23	-53.5	-69.4	3.8	1.49e+00	0	26	104	0	72	23331
2026-01-11 02:50:22.43	22.09	16.33	-53.5	-69.4	3.8	1.49e+00	0	26	104	0	72	23373
2026-01-11 02:50:23.43	21.97	16.42	-53.5	-69.3	3.8	1.49e+00	0	26	104	0	72	23306
2026-01-11 02:50:24.43	21.84	16.52	-53.5	-69.4	3.8	1.49e+00	0	26	104	0	72	23322
2026-01-11 02:50:25.43	21.72	16.61	-53.4	-69.4	3.8	1.49e+00	0	26	104	0	72	23323
2026-01-11 02:50:26.43	21.60	16.71	-53.4	-69.4	3.8	1.49e+00	0	26	104	0	72	23312
2026-01-11 02:50:27.43	21.47	16.80	-53.5	-69.4	3.8	1.49e+00	0	26	104	0	72	23344
2026-01-11 02:50:28.43	21.35	16.90	-53.5	-69.4	3.8	1.49e+00	0	26	104	0	72	23321
2026-01-11 02:50:29.43	21.22	16.99	-53.5	-69.4	3.8	1.49e+00	0	26	104	0	72	23381
2026-01-11 02:50:30.43	21.10	17.09	-53.5	-69.4	3.8	1.49e+00	0	26	104	0	72	23382
2026-01-11 02:50:31.43	20.97	17.18	-53.5	-69.4	3.8	1.49e+00	0	26	104	0	72	23360
2026-01-11 02:50:32.44	20.84	17.28	-53.5	-69.4	3.8	1.49e+00	0	26	104	0	72	23432
2026-01-11 02:50:33.44	20.71	17.38	-53.5	-69.4	3.8	1.49e+00	0	26	104	0	72	23430
2026-01-11 02:50:34.45	20.58	17.47	-53.5	-69.4	3.8	1.49e+00	0	26	104	0	72	23370
2026-01-11 02:50:35.45	20.45	17.57	-53.5	-69.4	3.8	1.49e+00	0	26	104	0	72	23318
2026-01-11 02:50:36.45	20.32	17.67	-53.5	-69.4	3.8	1.49e+00	0	26	104	0	72	23326
2026-01-11 02:50:37.45	20.19	17.77	-53.5	-69.3	3.8	1.49e+00	0	26	104	0	72	23289
2026-01-11 02:50:38.45	20.05	17.86	-53.5	-69.3	3.8	1.49e+00	0	26	104	0	72	23269
2026-01-11 02:50:39.45	19.92	17.96	-53.4	-69.3	3.8	1.49e+00	0	26	104	0	72	23298
2026-01-11 02:50:40.46	19.78	18.06	-53.5	-69.3	3.8	1.49e+00	0	26	104	0	72	23284
2026-01-11 02:50:41.46	19.64	18.16	-53.5	-69.4	3.8	1.49e+00	0	26	104	0	72	23313
2026-01-11 02:50:42.47	19.51	18.26	-53.5	-69.3	3.8	1.49e+00	0	26	104	0	72	23278
2026-01-11 02:50:43.47	19.37	18.36	-53.5	-69.4	3.8	1.49e+00	0	26	104	0	72	23375
2026-01-11 02:50:44.47	19.23	18.46	-53.5	-69.4	3.8	1.49e+00	0	26	104	0	72	23399
2026-01-11 02:50:45.47	19.09	18.55	-53.5	-69.4	3.8	1.49e+00	0	26	104	0	72	23363
2026-01-11 02:50:46.48	18.95	18.66	-53.5	-69.4	3.8	1.49e+00	0	26	104	0	72	23318
2026-01-11 02:50:47.48	18.81	18.75	-53.5	-69.4	3.8	1.49e+00	0	26	104	0	72	23332
2026-01-11 02:50:48.49	18.66	18.86	-53.5	-69.4	3.8	1.49e+00	0	26	104	0	72	23394
2026-01-11 02:50:49.49	18.52	18.96	-53.5	-69.4	3.8	1.49e+00	0	26	104	0	72	23324
2026-01-11 02:50:50.49	18.37	19.06	-53.5	-69.4	3.8	1.49e+00	0	26	104	0	72	23468
2026-01-11 02:50:51.50	18.23	19.16	-53.5	-69.4	3.8	1.49e+00	0	26	104	0	72	23403
2026-01-11 02:50:52.50	18.08	19.26	-53.5	-69.4	3.8	1.49e+00	0	26	104	0	72	23393
2026-01-11 02:50:53.50	17.93	19.36	-53.5	-69.4	3.8	1.49e+00	0	26	104	0	72	23341
2026-01-11 02:50:54.50	17.79	19.46	-53.5	-69.3	3.8	1.49e+00	0	26	104	0	72	23302
2026-01-11 02:50:55.50	17.64	19.56	-53.5	-69.4	3.8	1.49e+00	0	26	104	0	72	23349
2026-01-11 02:50:56.50	17.49	19.66	-53.5	-69.4	3.8	1.49e+00	0	26	104	0	72	23368
2026-01-11 02:50:57.49	17.34	19.76	-53.5	-69.4	3.8	1.49e+00	0	26	104	0	72	23337
2026-01-11 02:50:58.49	17.18	19.87	-53.4	-69.4	3.8	1.49e+00	0	26	104	0	72	23340
2026-01-11 02:50:59.49	17.03	19.97	-53.5	-69.4	3.8	1.49e+00	0	26	104	0	72	23396
2026-01-11 02:51:00.50	16.87	20.07	-53.5	-69.4	3.8	1.49e+00	0	26	104	0	72	23384
2026-01-11 02:51:01.50	16.72	20.17	-53.5	-69.4	3.8	1.49e+00	0	26	104	0	72	23401
2026-01-11 02:51:02.50	16.56	20.28	-53.5	-69.4	3.8	1.49e+00	0	26	104	0	72	23404
2026-01-11 02:51:03.50	16.40	20.38	-53.5	-69.4	3.8	1.49e+00	0	26	104	0	72	23379
2026-01-11 02:51:04.50	16.24	20.48	-53.5	-69.4	3.8	1.49e+00	0	26	104	0	72	23407
2026-01-11 02:51:05.50	16.08	20.58	-53.5	-69.4	3.8	1.49e+00	0	26	104	0	72	23400
2026-01-11 02:51:06.50	15.92	20.69	-53.4	-69.4	3.8	1.49e+00	0	26	104	0	72	23395
2026-01-11 02:51:07.50	15.76	20.79	-53.5	-69.4	3.8	1.49e+00	0	26	104	0	72	23426
2026-01-11 02:51:08.50	15.60	20.90	-53.5	-69.4	3.8	1.49e+00	0	26	104	0	72	23475
2026-01-11 02:51:09.50	15.43	21.00	-53.5	-69.4	3.8	1.49e+00	0	26	104	0	72	23357
2026-01-11 02:51:10.50	15.27	21.10	-53.4	-69.4	3.8	1.49e+00	0	26	104	0	72	23367
2026-01-11 02:51:11.50	15.10	21.21	-53.5	-69.4	3.8	1.49e+00	0	26	104	0	72	23355
2026-01-11 02:51:12.50	14.93	21.31	-53.5	-69.4	3.8	1.49e+00	0	26	104	0	72	23322
2026-01-11 02:51:13.51	14.76	21.42	-53.5	-69.4	3.8	1.49e+00	0	26	104	0	72	23429
2026-01-11 02:51:14.52	14.59	21.52	-53.5	-69.4	3.8	1.49e+00	0	26	104	0	72	23436
2026-01-11 02:51:15.52	14.42	21.63	-53.5	-69.4	3.8	1.49e+00	0	26	104	0	72	23406
2026-01-11 02:51:16.53	14.24	21.74	-53.5	-69.4	3.8	1.49e+00	0	26	104	0	72	23390
2026-01-11 02:51:17.54	14.07	21.84	-53.5	-69.4	3.8	1.49e+00	0	26	104	0	72	23413
2026-01-11 02:51:18.54	13.89	21.95	-53.5	-69.4	3.8	1.49e+00	0	26	104	0	72	23467
2026-01-11 02:51:19.54	13.72	22.05	-53.5	-69.4	3.8	1.49e+00	0	26	104	0	72	23430
2026-01-11 02:51:20.55	13.54	22.16	-53.5	-69.4	3.8	1.49e+00	0	26	104	0	72	23415
2026-01-11 02:51:21.55	13.36	22.27	-53.5	-69.4	3.8	1.49e+00	0	26	104	0	72	23490
2026-01-11 02:51:22.55	13.18	22.37	-53.5	-69.4	3.8	1.49e+00	0	26	104	0	72	23416
2026-01-11 02:51:23.55	13.00	22.48	-53.5	-69.4	3.8	1.49e+00	0	26	104	0	72	23345
2026-01-11 02:51:24.55	12.82	22.58	-53.5	-69.4	3.8	1.49e+00	0	26	104	0	72	23444
2026-01-11 02:51:25.54	12.63	22.69	-53.5	-69.4	3.8	1.49e+00	0	26	104	0	72	23446
2026-01-11 02:51:26.54	12.45	22.80	-53.5	-69.4	3.8	1.49e+00	0	26	104	0	72	23396
2026-01-11 02:51:27.55	12.26	22.90	-53.5	-69.4	3.8	1.49e+00	0	26	104	0	72	23468
2026-01-11 02:51:28.55	12.07	23.01	-53.5	-69.4	3.8	1.49e+00	0	26	104	0	72	23504
2026-01-11 02:51:29.54	11.89	23.12	-53.5	-69.4	3.8	1.49e+00	0	26	104	0	72	23430
2026-01-11 02:51:30.54	11.70	23.22	-53.5	-69.4	3.8	1.49e+00	0	26	104	0	72	23468
2026-01-11 02:51:31.54	11.50	23.33	-53.5	-69.4	3.8	1.49e+00	0	26	104	0	72	23385
2026-01-11 02:51:32.55	11.31	23.44	-53.5	-69.4	3.8	1.49e+00	0	26	104	0	72	23425
2026-01-11 02:51:33.55	11.12	23.55	-53.5	-69.4	3.8	1.49e+00	0	26	104	0	72	23451
2026-01-11 02:51:34.55	10.92	23.65	-53.5	-69.4	3.8	1.49e+00	0	26	104	0	72	23408
2026-01-11 02:51:35.55	10.72	23.76	-53.5	-69.4	3.8	1.49e+00	0	26	104	0	72	23340
2026-01-11 02:51:36.54	10.53	23.87	-53.5	-69.4	3.8	1.49e+00	0	26	104	0	72	23399
2026-01-11 02:51:37.55	10.32	23.97	-53.5	-69.4	3.8	1.49e+00	0	26	104	0	72	23469
2026-01-11 02:51:38.55	10.12	24.08	-53.5	-69.4	3.8	1.49e+00	0	26	104	0	72	23425
2026-01-11 02:51:39.55	9.92	24.19	-53.5	-69.4	3.8	1.49e+00	0	26	104	0	72	23462
2026-01-11 02:51:40.56	9.72	24.30	-53.5	-69.4	3.8	1.49e+00	0	26	104	0	72	23436
2026-01-11 02:51:41.57	9.51	24.41	-53.5	-69.4	3.8	1.49e+00	0	26	104	0	72	23489
2026-01-11 02:51:42.57	9.30	24.52	-53.5	-69.4	3.8	1.49e+00	0	26	104	0	72	23478
2026-01-11 02:51:43.57	9.09	24.62	-53.5	-69.4	3.8	1.49e+00	0	26	104	0	72	23451
2026-01-11 02:51:44.57	8.88	24.73	-53.5	-69.4	3.8	1.49e+00	0	26	104	0	72	23469
2026-01-11 02:51:45.58	8.67	24.84	-53.5	-69.4	3.8	1.49e+00	0	26	104	0	72	23391
2026-01-11 02:51:46.58	8.46	24.95	-53.5	-69.4	3.8	1.49e+00	0	26	104	0	72	23460
2026-01-11 02:51:47.58	8.24	25.06	-53.5	-69.4	3.8	1.49e+00	0	26	104	0	72	23436
2026-01-11 02:51:48.58	8.03	25.16	-53.5	-69.4	3.8	1.49e+00	0	26	104	0	72	23445
2026-01-11 02:51:49.58	7.81	25.27	-53.5	-69.4	3.8	1.49e+00	0	26	104	0	72	23514
2026-01-11 02:51:50.59	7.59	25.38	-53.5	-69.4	3.8	1.49e+00	0	26	104	0	72	23448
2026-01-11 02:51:51.59	7.37	25.49	-53.5	-69.4	3.8	1.49e+00	0	26	104	0	72	23483
2026-01-11 02:51:52.59	7.15	25.60	-53.5	-69.4	3.8	1.49e+00	0	26	104	0	72	23449
2026-01-11 02:51:53.59	6.92	25.70	-53.5	-69.4	3.8	1.49e+00	0	26	104	0	72	23412
2026-01-11 02:51:54.60	6.70	25.81	-53.5	-69.4	3.8	1.49e+00	0	26	104	0	72	23434
2026-01-11 02:51:55.59	6.47	25.92	-53.5	-69.4	3.8	1.49e+00	0	26	104	0	72	23466
2026-01-11 02:51:56.60	6.24	26.03	-53.5	-69.4	3.8	1.49e+00	0	26	104	0	72	23434
2026-01-11 02:51:57.60	6.01	26.13	-53.5	-69.4	3.8	1.49e+00	0	26	104	0	72	23483
2026-01-11 02:51:58.60	5.78	26.24	-53.5	-69.4	3.8	1.49e+00	0	26	104	0	72	23451
2026-01-11 02:51:59.60	5.55	26.35	-53.5	-69.4	3.8	1.49e+00	0	26	104	0	72	23439
2026-01-11 02:52:00.60	5.32	26.46	-53.5	-69.4	3.8	1.49e+00	0	26	104	0	72	23431
2026-01-11 02:52:01.60	5.08	26.56	-53.5	-69.4	3.8	1.49e+00	0	26	104	0	72	23392
2026-01-11 02:52:02.60	4.84	26.67	-53.5	-69.4	3.8	1.49e+00	0	26	104	0	72	23458
2026-01-11 02:52:03.60	4.60	26.78	-53.5	-69.4	3.8	1.49e+00	0	26	104	0	72	23454
2026-01-11 02:52:04.60	4.36	26.88	-53.5	-69.4	3.8	1.49e+00	0	26	104	0	72	23437
2026-01-11 02:52:05.60	4.12	26.99	-53.5	-69.4	3.8	1.49e+00	0	26	104	0	72	23442
2026-01-11 02:52:06.59	3.88	27.09	-53.5	-69.4	3.8	1.49e+00	0	26	104	0	72	23482
2026-01-11 02:52:07.59	3.63	27.20	-53.5	-69.4	3.8	1.49e+00	0	26	104	0	72	23437
2026-01-11 02:52:08.59	3.39	27.31	-53.5	-69.4	3.8	1.49e+00	0	26	104	0	72	23428
2026-01-11 02:52:09.59	3.14	27.41	-53.5	-69.4	3.8	1.49e+00	0	26	104	0	72	23445
2026-01-11 02:52:10.59	2.89	27.52	-53.5	-69.4	3.8	1.49e+00	0	26	104	0	72	23547
2026-01-11 02:52:11.59	2.63	27.62	-53.5	-69.4	3.8	1.49e+00	0	26	104	0	72	23482
2026-01-11 02:52:12.61	2.38	27.73	-53.5	-69.4	3.8	1.49e+00	0	26	104	0	72	23482
2026-01-11 02:52:13.61	2.12	27.84	-53.5	-69.4	3.8	1.49e+00	0	26	104	0	72	23459
2026-01-11 02:52:14.61	1.86	27.94	-53.5	-69.4	3.8	1.49e+00	0	26	104	0	72	23442
2026-01-11 02:52:15.62	1.60	28.05	-53.5	-69.4	3.8	1.49e+00	0	26	104	0	72	23446
2026-01-11 02:52:16.62	1.34	28.15	-53.5	-69.4	3.8	1.49e+00	0	26	104	0	72	23458
2026-01-11 02:52:17.62	1.08	28.25	-53.5	-69.4	3.8	1.49e+00	0	26	104	0	72	23474
2026-01-11 02:52:18.62	0.81	28.36	-53.5	-69.4	3.8	1.49e+00	0	26	104	0	72	23429
2026-01-11 02:52:19.62	0.55	28.46	-53.5	-69.4	3.8	1.49e+00	0	26	104	0	72	23466
2026-01-11 02:52:20.62	0.28	28.56	-53.5	-69.4	3.8	1.49e+00	0	26	104	0	72	23448
2026-01-11 02:52:21.62	0.01	28.67	-53.5	-69.4	3.8	1.49e+00	0	26	104	0	72	23465
2026-01-11 02:52:22.63	359.74	28.77	-53.5	-69.4	3.8	1.49e+00	0	26	104	0	72	23468
2026-01-11 02:52:23.63	359.46	28.87	-53.5	-69.4	3.8	1.49e+00	0	26	104	0	72	23485
2026-01-11 02:52:24.64	359.19	28.97	-53.5	-69.4	3.8	1.49e+00	0	26	104	0	72	23486
2026-01-11 02:52:25.64	358.91	29.08	-53.5	-69.4	3.8	1.49e+00	0	26	104	0	72	23461
2026-01-11 02:52:26.64	358.63	29.18	-53.5	-69.4	3.8	1.49e+00	0	26	104	0	72	23418
2026-01-11 02:52:27.64	358.35	29.28	-53.5	-69.4	3.8	1.49e+00	0	26	104	0	72	23476
2026-01-11 02:52:28.65	358.07	29.38	-53.5	-69.4	3.8	1.49e+00	0	26	104	0	72	23474
2026-01-11 02:52:29.65	357.78	29.48	-53.5	-69.4	3.8	1.49e+00	0	26	104	0	72	23500
2026-01-11 02:52:30.65	357.50	29.58	-53.5	-69.4	3.8	1.49e+00	0	27	104	0	72	23449
2026-01-11 02:52:31.64	357.21	29.67	-53.5	-69.4	3.8	1.49e+00	0	26	104	0	72	23496
2026-01-11 02:52:32.65	356.92	29.77	-53.5	-69.4	3.8	1.49e+00	0	26	104	0	72	23505
2026-01-11 02:52:33.65	356.63	29.87	-53.5	-69.4	3.8	1.49e+00	0	26	104	0	72	23455
2026-01-11 02:52:34.65	356.34	29.97	-53.5	-69.4	3.8	1.49e+00	0	26	104	0	72	23423
2026-01-11 02:52:35.65	356.04	30.07	-53.5	-69.4	3.8	1.49e+00	0	26	104	0	72	23436
2026-01-11 02:52:36.65	355.75	30.16	-53.5	-69.4	3.8	1.49e+00	0	26	104	0	72	23486
2026-01-11 02:52:37.65	355.45	30.26	-53.5	-69.4	3.8	1.49e+00	0	26	104	0	72	23481
2026-01-11 02:52:38.65	355.15	30.35	-53.5	-69.4	3.8	1.49e+00	0	26	104	0	72	23443
2026-01-11 02:52:39.65	354.85	30.45	-53.5	-69.4	3.8	1.49e+00	0	26	104	0	72	23482
2026-01-11 02:52:40.65	354.55	30.54	-53.5	-69.4	3.8	1.49e+00	0	26	104	0	72	23422
2026-01-11 02:52:41.66	354.24	30.63	-53.5	-69.4	3.8	1.49e+00	0	26	104	0	72	23457
2026-01-11 02:52:42.66	353.93	30.73	-53.5	-69.4	3.8	1.49e+00	0	26	104	0	72	23461
2026-01-11 02:52:43.66	353.62	30.82	-53.5	-69.4	3.8	1.49e+00	0	26	104	0	72	23397
2026-01-11 02:52:44.67	353.31	30.91	-53.5	-69.4	3.8	1.49e+00	0	26	104	0	72	23470
2026-01-11 02:52:45.67	353.00	31.00	-53.5	-69.4	3.8	1.49e+00	0	26	104	0	72	23482
2026-01-11 02:52:46.67	352.68	31.09	-53.5	-69.4	3.8	1.49e+00	0	27	104	0	72	23467
2026-01-11 02:52:47.66	352.37	31.18	-53.5	-69.4	3.8	1.49e+00	0	26	104	0	72	23463
2026-01-11 02:52:48.67	352.05	31.27	-53.5	-69.4	3.8	1.49e+00	0	26	104	0	72	23495
2026-01-11 02:52:49.67	351.73	31.36	-53.5	-69.4	3.8	1.49e+00	0	26	104	0	72	23511
2026-01-11 02:52:50.68	351.41	31.45	-53.5	-69.4	3.8	1.49e+00	0	26	104	0	72	23502
2026-01-11 02:52:51.68	351.08	31.53	-53.5	-69.4	3.8	1.49e+00	0	26	104	0	72	23438
2026-01-11 02:52:52.68	350.76	31.62	-53.5	-69.4	3.8	1.49e+00	0	26	104	0	72	23431
2026-01-11 02:52:53.68	350.43	31.70	-53.5	-69.4	3.8	1.49e+00	0	26	104	0	72	23421
2026-01-11 02:52:54.69	350.10	31.79	-53.5	-69.4	3.8	1.49e+00	0	26	104	0	72	23515
2026-01-11 02:52:55.69	349.77	31.87	-53.5	-69.4	3.8	1.49e+00	0	26	104	0	72	23491
2026-01-11 02:52:56.69	349.44	31.95	-53.5	-69.4	3.9	1.49e+00	0	26	104	0	72	23432
2026-01-11 02:52:57.69	349.11	32.03	-53.5	-69.4	3.8	1.49e+00	0	26	104	0	72	23483
2026-01-11 02:52:58.69	348.77	32.11	-53.5	-69.4	3.8	1.49e+00	0	26	104	0	72	23476
2026-01-11 02:52:59.70	348.43	32.19	-53.5	-69.4	3.8	1.49e+00	0	26	104	0	72	23448
2026-01-11 02:53:00.69	348.10	32.27	-53.5	-69.4	3.8	1.49e+00	0	27	104	0	72	23489
2026-01-11 02:53:01.70	347.76	32.35	-53.5	-69.4	3.8	1.49e+00	0	26	104	0	72	23492
2026-01-11 02:53:02.69	347.42	32.43	-53.5	-69.4	3.8	1.49e+00	0	26	104	0	72	23494
2026-01-11 02:53:03.70	347.07	32.50	-53.5	-69.4	3.8	1.49e+00	0	26	104	0	72	23506
2026-01-11 02:53:04.70	346.73	32.58	-53.5	-69.4	3.8	1.49e+00	0	26	104	0	72	23510
2026-01-11 02:53:05.70	346.38	32.65	-53.5	-69.4	3.8	1.49e+00	0	26	104	0	72	23482
2026-01-11 02:53:06.70	346.04	32.72	-53.5	-69.4	3.8	1.49e+00	0	26	104	0	72	23407
2026-01-11 02:53:07.70	345.69	32.80	-53.5	-69.4	3.8	1.49e+00	0	26	104	0	72	23463
2026-01-11 02:53:08.70	345.34	32.87	-53.5	-69.4	3.8	1.49e+00	0	26	104	0	72	23459
2026-01-11 02:53:09.70	344.98	32.94	-53.5	-69.4	3.8	1.49e+00	0	26	104	0	72	23425
2026-01-11 02:53:10.69	344.63	33.00	-53.5	-69.4	3.8	1.49e+00	0	26	104	0	72	23425
2026-01-11 02:53:11.69	344.28	33.07	-53.5	-69.4	3.8	1.49e+00	0	26	104	0	72	23459
2026-01-11 02:53:12.69	343.92	33.14	-53.5	-69.4	3.8	1.49e+00	0	26	104	0	72	23498
2026-01-11 02:53:13.69	343.56	33.20	-53.5	-69.4	3.8	1.49e+00	0	26	104	0	72	23428
2026-01-11 02:53:14.69	343.20	33.27	-53.5	-69.4	3.8	1.49e+00	0	26	104	0	72	23477
2026-01-11 02:53:15.69	342.84	33.33	-53.5	-69.4	3.8	1.49e+00	0	26	104	0	72	23476
2026-01-11 02:53:16.68	342.48	33.39	-53.5	-69.4	3.8	1.49e+00	0	26	104	0	72	23440
2026-01-11 02:53:17.68	342.12	33.45	-53.5	-69.4	3.8	1.49e+00	0	26	104	0	72	23508
2026-01-11 02:53:18.69	341.75	33.51	-53.5	-69.4	3.8	1.49e+00	0	26	104	0	72	23416
2026-01-11 02:53:19.69	341.39	33.57	-53.5	-69.4	3.8	1.49e+00	0	26	104	0	72	23496
2026-01-11 02:53:20.69	341.02	33.63	-53.5	-69.4	3.8	1.49e+00	0	26	104	0	72	23485
2026-01-11 02:53:21.69	340.65	33.68	-53.5	-69.4	3.8	1.49e+00	0	26	104	0	72	23493
2026-01-11 02:53:22.69	340.28	33.74	-53.5	-69.4	3.8	1.49e+00	0	26	104	0	72	23549
2026-01-11 02:53:23.70	339.90	33.79	-53.5	-69.4	3.8	1.49e+00	0	26	104	0	72	23409
2026-01-11 02:53:24.70	339.53	33.84	-53.5	-69.4	3.8	1.49e+00	0	26	104	0	72	23484
2026-01-11 02:53:25.71	339.15	33.89	-53.5	-69.4	3.8	1.49e+00	0	26	104	0	72	23455
2026-01-11 02:53:26.71	338.78	33.94	-53.5	-69.4	3.8	1.49e+00	0	26	104	0	72	23479
2026-01-11 02:53:27.71	338.40	33.99	-53.5	-69.4	3.8	1.49e+00	0	26	104	0	72	23456
2026-01-11 02:53:28.72	338.02	34.04	-53.5	-69.4	3.8	1.49e+00	0	26	104	0	72	23379
2026-01-11 02:53:29.73	337.64	34.08	-53.5	-69.4	3.8	1.49e+00	0	26	104	0	72	23491
2026-01-11 02:53:30.73	337.26	34.13	-53.5	-69.4	3.8	1.49e+00	0	26	104	0	72	23457
2026-01-11 02:53:31.73	336.88	34.17	-53.5	-69.4	3.8	1.49e+00	0	26	104	0	72	23444
2026-01-11 02:53:32.73	336.50	34.21	-53.5	-69.4	3.8	1.49e+00	0	26	104	0	72	23399
2026-01-11 02:53:33.72	336.12	34.25	-53.5	-69.4	3.8	1.49e+00	0	26	104	0	72	23400
2026-01-11 02:53:34.73	335.73	34.29	-53.5	-69.4	3.8	1.49e+00	0	26	104	0	72	23429
2026-01-11 02:53:35.72	335.35	34.32	-53.5	-69.4	3.8	1.49e+00	0	26	104	0	72	23455
2026-01-11 02:53:36.72	334.96	34.36	-53.5	-69.4	3.8	1.49e+00	0	26	104	0	72	23374
2026-01-11 02:53:37.72	334.58	34.39	-53.5	-69.4	3.8	1.49e+00	0	26	104	0	72	23423
2026-01-11 02:53:38.72	334.19	34.43	-53.5	-69.4	3.8	1.49e+00	0	26	104	0	72	23446
2026-01-11 02:53:39.72	333.80	34.46	-53.5	-69.4	3.8	1.49e+00	0	26	104	0	72	23460
2026-01-11 02:53:40.71	333.42	34.49	-53.5	-69.4	3.8	1.49e+00	0	26	104	0	72	23484
2026-01-11 02:53:41.72	333.03	34.52	-53.5	-69.4	3.8	1.49e+00	0	26	104	0	72	23389
2026-01-11 02:53:42.72	332.64	34.54	-53.5	-69.4	3.8	1.49e+00	0	26	104	0	72	23399
2026-01-11 02:53:43.72	332.25	34.57	-53.5	-69.4	3.8	1.49e+00	0	26	104	0	72	23398
2026-01-11 02:53:44.73	331.85	34.59	-53.5	-69.4	3.8	1.49e+00	0	26	104	0	72	23435
2026-01-11 02:53:45.73	331.46	34.61	-53.5	-69.4	3.8	1.49e+00	0	26	104	0	72	23462
2026-01-11 02:53:46.72	331.07	34.63	-53.5	-69.4	3.8	1.49e+00	0	26	104	0	72	23460
2026-01-11 02:53:47.73	330.68	34.65	-53.5	-69.4	3.8	1.49e+00	0	26	104	0	72	23421
2026-01-11 02:53:48.73	330.28	34.67	-53.5	-69.4	3.8	1.49e+00	0	26	104	0	72	23437
2026-01-11 02:53:49.74	329.89	34.69	-53.5	-69.4	3.8	1.49e+00	0	26	104	0	72	23399
2026-01-11 02:53:50.74	329.49	34.70	-53.5	-69.4	3.8	1.49e+00	0	26	104	0	72	23376
2026-01-11 02:53:51.74	329.10	34.71	-53.5	-69.4	3.8	1.49e+00	0	26	104	0	72	23399
2026-01-11 02:53:52.74	328.70	34.73	-53.5	-69.4	3.8	1.49e+00	0	26	104	0	72	23470
2026-01-11 02:53:53.75	328.31	34.74	-53.5	-69.4	3.8	1.49e+00	0	26	104	0	72	23423
2026-01-11 02:53:54.76	327.91	34.74	-53.5	-69.4	3.8	1.49e+00	0	26	104	0	72	23415
2026-01-11 02:53:55.76	327.51	34.75	-53.5	-69.4	3.8	1.49e+00	0	26	104	0	72	23458
2026-01-11 02:53:56.76	327.12	34.76	-53.5	-69.4	3.8	1.49e+00	0	26	104	0	72	23430
2026-01-11 02:53:57.76	326.72	34.76	-53.5	-69.4	3.8	1.49e+00	0	26	104	0	72	23485
2026-01-11 02:53:58.77	326.32	34.76	-53.5	-69.4	3.8	1.49e+00	0	26	104	0	72	23463
2026-01-11 02:53:59.77	325.93	34.76	-53.5	-69.4	3.8	1.49e+00	0	26	104	0	72	23460
2026-01-11 02:54:00.78	325.53	34.76	-53.5	-69.4	3.8	1.49e+00	0	26	104	0	72	23471
2026-01-11 02:54:01.78	325.13	34.76	-53.5	-69.4	3.8	1.49e+00	0	26	104	0	72	23385
2026-01-11 02:54:02.77	324.74	34.75	-53.5	-69.4	3.8	1.49e+00	0	26	104	0	72	23460
2026-01-11 02:54:03.77	324.35	34.75	-53.5	-69.4	3.8	1.49e+00	0	26	104	0	72	23435
2026-01-11 02:54:04.77	323.95	34.74	-53.5	-69.4	3.8	1.49e+00	0	26	104	0	72	23440
2026-01-11 02:54:05.77	323.56	34.73	-53.5	-69.4	3.8	1.49e+00	0	26	104	0	72	23420
2026-01-11 02:54:06.77	323.16	34.72	-53.5	-69.4	3.8	1.49e+00	0	26	104	0	72	23441
2026-01-11 02:54:07.77	322.77	34.71	-53.5	-69.4	3.8	1.49e+00	0	26	104	0	72	23370
2026-01-11 02:54:08.78	322.37	34.70	-53.5	-69.4	3.8	1.49e+00	0	26	104	0	72	23449
2026-01-11 02:54:09.77	321.98	34.68	-53.5	-69.4	3.8	1.49e+00	0	26	104	0	72	23487
2026-01-11 02:54:10.77	321.59	34.67	-53.5	-69.4	3.8	1.49e+00	0	26	104	0	72	23475
2026-01-11 02:54:11.78	321.19	34.65	-53.5	-69.4	3.8	1.49e+00	0	26	104	0	72	23424
2026-01-11 02:54:12.77	320.80	34.63	-53.5	-69.4	3.8	1.49e+00	0	26	104	0	72	23473
2026-01-11 02:54:13.77	320.41	34.61	-53.5	-69.4	3.8	1.49e+00	0	26	104	0	72	23443
2026-01-11 02:54:14.76	320.02	34.58	-53.5	-69.4	3.8	1.49e+00	0	26	104	0	72	23450
2026-01-11 02:54:15.77	319.63	34.56	-53.5	-69.4	3.8	1.49e+00	0	26	104	0	72	23467
2026-01-11 02:54:16.75	319.25	34.54	-53.5	-69.4	3.8	1.49e+00	0	26	104	0	72	23467
2026-01-11 02:54:17.75	318.86	34.51	-53.5	-69.4	3.8	1.49e+00	0	26	104	0	72	23480
2026-01-11 02:54:18.75	318.47	34.48	-53.5	-69.4	3.8	1.49e+00	0	26	104	0	72	23476
2026-01-11 02:54:19.75	318.08	34.45	-53.5	-69.4	3.8	1.49e+00	0	26	104	0	72	23453
2026-01-11 02:54:20.75	317.69	34.42	-53.5	-69.4	3.8	1.49e+00	0	26	104	0	72	23466
2026-01-11 02:54:21.76	317.30	34.39	-53.5	-69.4	3.8	1.49e+00	0	26	104	0	72	23459
2026-01-11 02:54:22.76	316.92	34.35	-53.5	-69.4	3.8	1.49e+00	0	26	104	0	72	23405
2026-01-11 02:54:23.76	316.53	34.32	-53.5	-69.4	3.8	1.49e+00	0	26	104	0	72	23406
2026-01-11 02:54:24.76	316.15	34.28	-53.5	-69.4	3.8	1.49e+00	0	26	104	0	72	23406
2026-01-11 02:54:25.76	315.76	34.24	-53.5	-69.4	3.8	1.49e+00	0	26	104	0	72	23491
2026-01-11 02:54:26.76	315.38	34.20	-53.5	-69.4	3.8	1.49e+00	0	26	104	0	72	23385
2026-01-11 02:54:27.77	315.00	34.16	-53.5	-69.4	3.8	1.49e+00	0	26	104	0	72	23403
2026-01-11 02:54:28.77	314.61	34.11	-53.5	-69.4	3.8	1.49e+00	0	26	104	0	72	23490
2026-01-11 02:54:29.77	314.24	34.07	-53.5	-69.4	3.8	1.49e+00	0	26	104	0	72	23422
2026-01-11 02:54:30.77	313.86	34.02	-53.5	-69.4	3.8	1.49e+00	0	26	104	0	72	23450
2026-01-11 02:54:31.77	313.48	33.98	-53.5	-69.4	3.8	1.49e+00	0	26	104	0	72	23443
2026-01-11 02:54:32.77	313.10	33.93	-53.5	-69.4	3.8	1.49e+00	0	26	104	0	72	23436
2026-01-11 02:54:33.77	312.73	33.88	-53.5	-69.4	3.8	1.49e+00	0	26	104	0	72	23504
2026-01-11 02:54:34.78	312.35	33.83	-53.5	-69.4	3.8	1.49e+00	0	26	104	0	72	23444
2026-01-11 02:54:35.78	311.98	33.78	-53.5	-69.4	3.8	1.49e+00	0	26	104	0	72	23438
2026-01-11 02:54:36.79	311.60	33.72	-53.5	-69.4	3.8	1.49e+00	0	26	104	0	72	23399
2026-01-11 02:54:37.79	311.23	33.67	-53.5	-69.4	3.8	1.49e+00	0	26	104	0	72	23457
2026-01-11 02:54:38.79	310.86	33.61	-53.5	-69.4	3.8	1.49e+00	0	26	104	0	72	23378
2026-01-11 02:54:39.79	310.50	33.55	-53.5	-69.4	3.8	1.49e+00	0	26	104	0	72	23428
2026-01-11 02:54:40.79	310.13	33.50	-53.5	-69.4	3.8	1.49e+00	0	26	104	0	72	23396
2026-01-11 02:54:41.79	309.76	33.44	-53.5	-69.4	3.8	1.49e+00	0	26	104	0	72	23403
2026-01-11 02:54:42.79	309.40	33.37	-53.5	-69.4	3.8	1.49e+00	0	26	104	0	72	23381
2026-01-11 02:54:43.78	309.04	33.31	-53.5	-69.4	3.8	1.49e+00	0	26	104	0	72	23372
2026-01-11 02:54:44.78	308.68	33.25	-53.5	-69.4	3.8	1.49e+00	0	26	104	0	72	23411
2026-01-11 02:54:45.78	308.32	33.19	-53.5	-69.4	3.8	1.49e+00	0	26	104	0	72	23398
2026-01-11 02:54:46.79	307.96	33.12	-53.5	-69.4	3.8	1.49e+00	0	26	104	0	72	23397
2026-01-11 02:54:47.79	307.60	33.05	-53.5	-69.4	3.8	1.49e+00	0	26	104	0	72	23431
2026-01-11 02:54:48.80	307.24	32.98	-53.5	-69.4	3.8	1.49e+00	0	26	104	0	72	23425
2026-01-11 02:54:49.80	306.89	32.91	-53.5	-69.4	3.8	1.49e+00	0	26	104	0	72	23379
2026-01-11 02:54:50.79	306.54	32.85	-53.5	-69.4	3.8	1.49e+00	0	27	104	0	72	23407
2026-01-11 02:54:51.80	306.19	32.77	-53.5	-69.4	3.8	1.49e+00	0	26	104	0	72	23410
2026-01-11 02:54:52.79	305.84	32.70	-53.5	-69.4	3.8	1.49e+00	0	26	104	0	72	23472
2026-01-11 02:54:53.80	305.49	32.63	-53.5	-69.4	3.8	1.49e+00	0	26	104	0	72	23418
2026-01-11 02:54:54.80	305.15	32.55	-53.5	-69.4	3.8	1.49e+00	0	26	104	0	72	23480
2026-01-11 02:54:55.81	304.80	32.48	-53.5	-69.4	3.8	1.49e+00	0	26	104	0	72	23441
2026-01-11 02:54:56.81	304.46	32.40	-53.5	-69.4	3.8	1.49e+00	0	26	104	0	72	23444
2026-01-11 02:54:57.81	304.11	32.33	-53.5	-69.4	3.8	1.49e+00	0	26	104	0	72	23435
2026-01-11 02:54:58.80	303.78	32.25	-53.5	-69.4	3.8	1.49e+00	0	26	104	0	72	23400
2026-01-11 02:54:59.80	303.44	32.17	-53.5	-69.4	3.8	1.49e+00	0	26	104	0	72	23457
2026-01-11 02:55:00.81	303.10	32.09	-53.5	-69.4	3.8	1.49e+00	0	26	104	0	72	23438
2026-01-11 02:55:01.81	302.77	32.01	-53.5	-69.4	3.8	1.49e+00	0	26	104	0	72	23459
2026-01-11 02:55:02.81	302.43	31.93	-53.5	-69.4	3.8	1.49e+00	0	26	104	0	72	23444
2026-01-11 02:55:03.82	302.10	31.84	-53.5	-69.4	3.8	1.49e+00	0	26	104	0	72	23443
2026-01-11 02:55:04.82	301.77	31.76	-53.5	-69.4	3.8	1.49e+00	0	26	104	0	72	23454
2026-01-11 02:55:05.83	301.44	31.67	-53.5	-69.4	3.8	1.49e+00	0	26	104	0	72	23422
2026-01-11 02:55:06.83	301.11	31.59	-53.5	-69.4	3.8	1.49e+00	0	26	104	0	72	23473
2026-01-11 02:55:07.83	300.79	31.50	-53.5	-69.4	3.8	1.49e+00	0	26	104	0	72	23405
2026-01-11 02:55:08.84	300.46	31.42	-53.5	-69.4	3.8	1.49e+00	0	26	104	0	72	23447
2026-01-11 02:55:09.83	300.15	31.33	-53.5	-69.4	3.8	1.49e+00	0	26	104	0	72	23470
2026-01-11 02:55:10.83	299.83	31.24	-53.5	-69.4	3.8	1.49e+00	0	26	104	0	72	23404
2026-01-11 02:55:11.83	299.51	31.15	-53.5	-69.4	3.8	1.49e+00	0	26	104	0	72	23403
2026-01-11 02:55:12.83	299.19	31.06	-53.5	-69.4	3.8	1.49e+00	0	26	104	0	72	23450
2026-01-11 02:55:13.83	298.88	30.97	-53.5	-69.4	3.8	1.49e+00	0	26	104	0	72	23423
2026-01-11 02:55:14.84	298.57	30.88	-53.5	-69.4	3.8	1.49e+00	0	26	104	0	72	23390
2026-01-11 02:55:15.84	298.26	30.79	-53.5	-69.4	3.8	1.49e+00	0	26	104	0	72	23396
2026-01-11 02:55:16.84	297.95	30.70	-53.5	-69.4	3.8	1.49e+00	0	26	104	0	72	23404
2026-01-11 02:55:17.84	297.64	30.60	-53.5	-69.4	3.8	1.49e+00	0	26	104	0	72	23426
2026-01-11 02:55:18.85	297.33	30.51	-53.5	-69.4	3.8	1.49e+00	0	26	104	0	72	23400
2026-01-11 02:55:19.85	297.03	30.41	-53.5	-69.4	3.8	1.49e+00	0	26	104	0	72	23428
2026-01-11 02:55:20.84	296.73	30.32	-53.5	-69.4	3.8	1.49e+00	0	26	104	0	72	23439
2026-01-11 02:55:21.84	296.43	30.23	-53.5	-69.4	3.8	1.49e+00	0	26	104	0	72	23421
2026-01-11 02:55:22.84	296.13	30.13	-53.5	-69.4	3.8	1.49e+00	0	26	104	0	72	23394
2026-01-11 02:55:23.84	295.84	30.03	-53.5	-69.4	3.8	1.49e+00	0	26	104	0	72	23428
2026-01-11 02:55:24.84	295.54	29.94	-53.5	-69.4	3.8	1.49e+00	0	26	104	0	72	23470
2026-01-11 02:55:25.84	295.25	29.84	-53.5	-69.4	3.8	1.49e+00	0	26	104	0	72	23431
2026-01-11 02:55:26.84	294.96	29.74	-53.5	-69.4	3.8	1.49e+00	0	26	104	0	72	23454
2026-01-11 02:55:27.85	294.67	29.64	-53.5	-69.4	3.8	1.49e+00	0	26	104	0	72	23446
2026-01-11 02:55:28.85	294.38	29.54	-53.5	-69.4	3.8	1.49e+00	0	26	104	0	72	23446
2026-01-11 02:55:29.85	294.10	29.44	-53.5	-69.4	3.8	1.49e+00	0	26	104	0	72	23486
2026-01-11 02:55:30.85	293.81	29.34	-53.5	-69.4	3.8	1.49e+00	0	26	104	0	72	23443
2026-01-11 02:55:31.85	293.53	29.24	-53.5	-69.4	3.8	1.49e+00	0	26	104	0	72	23506
2026-01-11 02:55:32.85	293.25	29.14	-53.5	-69.4	3.8	1.49e+00	0	26	104	0	72	23422
2026-01-11 02:55:33.85	292.97	29.04	-53.5	-69.4	3.8	1.49e+00	0	26	104	0	72	23445
2026-01-11 02:55:34.85	292.70	28.94	-53.5	-69.4	3.8	1.49e+00	0	26	104	0	72	23469
2026-01-11 02:55:35.85	292.42	28.84	-53.5	-69.4	3.8	1.49e+00	0	26	104	0	72	23421
2026-01-11 02:55:36.85	292.15	28.74	-53.5	-69.4	3.8	1.49e+00	0	26	104	0	72	23433
2026-01-11 02:55:37.85	291.88	28.63	-53.5	-69.4	3.8	1.49e+00	0	26	104	0	72	23392
2026-01-11 02:55:38.86	291.61	28.53	-53.5	-69.4	3.8	1.49e+00	0	26	104	0	72	23366
2026-01-11 02:55:39.86	291.34	28.43	-53.5	-69.4	3.8	1.49e+00	0	26	104	0	72	23386
2026-01-11 02:55:40.86	291.07	28.32	-53.5	-69.4	3.8	1.49e+00	0	26	104	0	72	23378
2026-01-11 02:55:41.86	290.81	28.22	-53.5	-69.4	3.8	1.49e+00	0	26	104	0	72	23397
2026-01-11 02:55:42.86	290.54	28.11	-53.5	-69.4	3.8	1.49e+00	0	26	104	0	72	23386
2026-01-11 02:55:43.86	290.28	28.01	-53.5	-69.4	3.8	1.49e+00	0	26	104	0	72	23409
2026-01-11 02:55:44.85	290.03	27.91	-53.5	-69.4	3.8	1.49e+00	0	27	104	0	72	23390
2026-01-11 02:55:45.85	289.77	27.80	-53.5	-69.4	3.8	1.49e+00	0	27	104	0	72	23390
2026-01-11 02:55:46.84	289.52	27.70	-53.5	-69.4	3.8	1.49e+00	0	26	104	0	72	23408
2026-01-11 02:55:47.84	289.26	27.59	-53.5	-69.4	3.8	1.49e+00	0	26	104	0	72	23372
2026-01-11 02:55:48.84	289.01	27.49	-53.5	-69.4	3.8	1.49e+00	0	27	104	0	72	23324
2026-01-11 02:55:49.84	288.76	27.38	-53.5	-69.4	3.8	1.49e+00	0	26	104	0	72	23360
2026-01-11 02:55:50.84	288.51	27.27	-53.5	-69.4	3.8	1.49e+00	0	26	104	0	72	23351
2026-01-11 02:55:51.84	288.26	27.17	-53.5	-69.4	3.8	1.49e+00	0	26	104	0	72	23437
2026-01-11 02:55:52.84	288.02	27.06	-53.5	-69.4	3.8	1.49e+00	0	26	104	0	72	23436
2026-01-11 02:55:53.84	287.77	26.95	-53.5	-69.4	3.8	1.49e+00	0	26	104	0	72	23375
2026-01-11 02:55:54.85	287.53	26.85	-53.5	-69.4	3.8	1.49e+00	0	26	104	0	72	23414
2026-01-11 02:55:55.85	287.29	26.74	-53.5	-69.4	3.8	1.49e+00	0	26	104	0	72	23383
2026-01-11 02:55:56.85	287.05	26.63	-53.5	-69.4	3.8	1.49e+00	0	26	104	0	72	23406
2026-01-11 02:55:57.86	286.81	26.52	-53.5	-69.4	3.8	1.49e+00	0	26	104	0	72	23396
2026-01-11 02:55:58.86	286.57	26.42	-53.5	-69.4	3.8	1.49e+00	0	26	104	0	72	23336
2026-01-11 02:55:59.86	286.34	26.31	-53.5	-69.4	3.8	1.49e+00	0	26	104	0	72	23414
2026-01-11 02:56:00.86	286.11	26.20	-53.5	-69.4	3.8	1.49e+00	0	26	104	0	72	23334
2026-01-11 02:56:01.86	285.88	26.10	-53.5	-69.4	3.8	1.49e+00	0	26	104	0	72	23367
2026-01-11 02:56:02.86	285.65	25.99	-53.5	-69.4	3.8	1.49e+00	0	26	104	0	72	23378
2026-01-11 02:56:03.86	285.42	25.88	-53.5	-69.4	3.8	1.49e+00	0	26	104	0	72	23398
2026-01-11 02:56:04.86	285.19	25.77	-53.5	-69.4	3.8	1.49e+00	0	26	104	0	72	23448
2026-01-11 02:56:05.85	284.97	25.67	-53.5	-69.4	3.8	1.49e+00	0	26	104	0	72	23422
2026-01-11 02:56:06.85	284.75	25.56	-53.5	-69.4	3.8	1.49e+00	0	26	104	0	72	23374
2026-01-11 02:56:07.85	284.52	25.45	-53.5	-69.4	3.8	1.49e+00	0	26	104	0	72	23417
2026-01-11 02:56:08.86	284.30	25.34	-53.5	-69.4	3.8	1.49e+00	0	26	104	0	72	23413
2026-01-11 02:56:09.87	284.08	25.23	-53.5	-69.4	3.8	1.49e+00	0	26	104	0	72	23393
2026-01-11 02:56:10.87	283.86	25.12	-53.5	-69.4	3.8	1.49e+00	0	26	104	0	72	23435
2026-01-11 02:56:11.87	283.65	25.02	-53.5	-69.4	3.8	1.49e+00	0	26	104	0	72	23392
2026-01-11 02:56:12.87	283.43	24.91	-53.5	-69.4	3.8	1.49e+00	0	26	104	0	72	23372
2026-01-11 02:56:13.87	283.22	24.80	-53.5	-69.4	3.8	1.49e+00	0	26	104	0	72	23427
2026-01-11 02:56:14.87	283.01	24.69	-53.5	-69.4	3.8	1.49e+00	0	27	104	0	72	23379
2026-01-11 02:56:15.87	282.80	24.58	-53.5	-69.4	3.8	1.49e+00	0	26	104	0	72	23424
2026-01-11 02:56:16.87	282.59	24.48	-53.5	-69.4	3.8	1.49e+00	0	26	104	0	72	23424
2026-01-11 02:56:17.86	282.39	24.37	-53.5	-69.4	3.8	1.49e+00	0	26	104	0	72	23377
2026-01-11 02:56:18.87	282.18	24.26	-53.5	-69.4	3.8	1.49e+00	0	26	104	0	72	23365
2026-01-11 02:56:19.87	281.97	24.15	-53.5	-69.4	3.8	1.49e+00	0	26	104	0	72	23483
2026-01-11 02:56:20.87	281.77	24.04	-53.5	-69.4	3.8	1.49e+00	0	26	104	0	72	23409
2026-01-11 02:56:21.87	281.57	23.94	-53.5	-69.4	3.8	1.49e+00	0	26	104	0	72	23391
2026-01-11 02:56:22.86	281.37	23.83	-53.5	-69.4	3.8	1.49e+00	0	26	104	0	72	23403
2026-01-11 02:56:23.86	281.17	23.72	-53.5	-69.4	3.8	1.49e+00	0	26	104	0	72	23377
2026-01-11 02:56:24.86	280.98	23.61	-53.5	-69.4	3.8	1.49e+00	0	26	104	0	72	23365
2026-01-11 02:56:25.87	280.78	23.51	-53.5	-69.4	3.8	1.49e+00	0	26	104	0	72	23377
2026-01-11 02:56:26.87	280.59	23.40	-53.5	-69.4	3.8	1.49e+00	0	26	104	0	72	23413
2026-01-11 02:56:27.87	280.39	23.29	-53.5	-69.4	3.8	1.49e+00	0	26	104	0	72	23399
2026-01-11 02:56:28.88	280.20	23.18	-53.5	-69.4	3.8	1.49e+00	0	26	104	0	72	23426
2026-01-11 02:56:29.88	280.01	23.08	-53.5	-69.4	3.8	1.49e+00	0	26	104	0	72	23429
2026-01-11 02:56:30.89	279.82	22.97	-53.5	-69.4	3.8	1.49e+00	0	26	104	0	72	23473
2026-01-11 02:56:31.88	279.63	22.86	-53.5	-69.4	3.8	1.49e+00	0	26	104	0	72	23369
2026-01-11 02:56:32.88	279.45	22.76	-53.5	-69.4	3.8	1.49e+00	0	26	104	0	72	23442
2026-01-11 02:56:33.88	279.26	22.65	-53.5	-69.4	3.8	1.49e+00	0	26	104	0	72	23437
2026-01-11 02:56:34.89	279.07	22.54	-53.5	-69.4	3.8	1.49e+00	0	26	104	0	72	23465
2026-01-11 02:56:35.89	278.89	22.43	-53.5	-69.4	3.8	1.49e+00	0	26	104	0	72	23422
2026-01-11 02:56:36.89	278.71	22.33	-53.5	-69.4	3.8	1.49e+00	0	26	104	0	72	23405
2026-01-11 02:56:37.88	278.53	22.22	-53.5	-69.4	3.8	1.49e+00	0	26	104	0	72	23436
2026-01-11 02:56:38.88	278.35	22.12	-53.5	-69.4	3.8	1.49e+00	0	26	104	0	72	23453
2026-01-11 02:56:39.89	278.17	22.01	-53.5	-69.4	3.8	1.49e+00	0	26	104	0	72	23516
2026-01-11 02:56:40.88	278.00	21.91	-53.5	-69.4	3.8	1.49e+00	0	26	104	0	72	23381
2026-01-11 02:56:41.88	277.82	21.80	-53.5	-69.4	3.8	1.49e+00	0	26	104	0	72	23455
2026-01-11 02:56:42.88	277.65	21.69	-53.5	-69.4	3.8	1.49e+00	0	26	104	0	72	23422
2026-01-11 02:56:43.88	277.48	21.59	-53.5	-69.4	3.8	1.49e+00	0	26	104	0	72	23391
2026-01-11 02:56:44.87	277.31	21.48	-53.5	-69.4	3.8	1.49e+00	0	26	104	0	72	23467
2026-01-11 02:56:45.88	277.14	21.38	-53.5	-69.4	3.8	1.49e+00	0	26	104	0	72	23412
2026-01-11 02:56:46.88	276.97	21.27	-53.5	-69.4	3.8	1.49e+00	0	26	104	0	72	23352
2026-01-11 02:56:47.88	276.80	21.17	-53.5	-69.4	3.8	1.49e+00	0	26	104	0	72	23493
2026-01-11 02:56:48.87	276.63	21.07	-53.5	-69.4	3.8	1.49e+00	0	26	104	0	72	23481
2026-01-11 02:56:49.87	276.47	20.96	-53.5	-69.4	3.8	1.49e+00	0	26	104	0	72	23363
2026-01-11 02:56:50.87	276.30	20.86	-53.5	-69.4	3.8	1.49e+00	0	26	104	0	72	23448
2026-01-11 02:56:51.87	276.14	20.75	-53.5	-69.4	3.8	1.49e+00	0	26	104	0	72	23398
2026-01-11 02:56:52.88	275.97	20.65	-53.5	-69.4	3.8	1.49e+00	0	26	104	0	72	23414
2026-01-11 02:56:53.88	275.81	20.55	-53.5	-69.4	3.8	1.49e+00	0	26	104	0	72	23383
2026-01-11 02:56:54.88	275.65	20.44	-53.5	-69.4	3.8	1.49e+00	0	26	104	0	72	23437
2026-01-11 02:56:55.88	275.49	20.34	-53.5	-69.4	3.8	1.49e+00	0	26	104	0	72	23398
2026-01-11 02:56:56.88	275.34	20.24	-53.5	-69.4	3.8	1.49e+00	0	26	104	0	72	23393
2026-01-11 02:56:57.88	275.18	20.13	-53.5	-69.4	3.8	1.49e+00	0	26	104	0	72	23422
2026-01-11 02:56:58.88	275.02	20.03	-53.5	-69.4	3.8	1.49e+00	0	26	104	0	72	23471
2026-01-11 02:56:59.88	274.87	19.93	-53.5	-69.4	3.8	1.49e+00	0	26	104	0	72	23400
2026-01-11 02:57:00.87	274.72	19.83	-53.5	-69.4	3.8	1.49e+00	0	26	104	0	72	23428
2026-01-11 02:57:01.88	274.56	19.72	-53.5	-69.4	3.8	1.49e+00	0	26	104	0	72	23410
2026-01-11 02:57:02.88	274.41	19.62	-53.5	-69.4	3.8	1.49e+00	0	26	104	0	72	23430
2026-01-11 02:57:03.88	274.26	19.52	-53.5	-69.4	3.8	1.49e+00	0	26	104	0	72	23398
2026-01-11 02:57:04.88	274.11	19.42	-53.5	-69.4	3.8	1.49e+00	0	26	104	0	72	23401
2026-01-11 02:57:05.88	273.96	19.32	-53.5	-69.4	3.8	1.49e+00	0	26	104	0	72	23394
2026-01-11 02:57:06.89	273.81	19.22	-53.5	-69.4	3.8	1.49e+00	0	26	104	0	72	23479
2026-01-11 02:57:07.89	273.66	19.11	-53.5	-69.4	3.8	1.49e+00	0	26	104	0	72	23469
2026-01-11 02:57:08.90	273.52	19.01	-53.5	-69.4	3.8	1.49e+00	0	26	104	0	72	23429
2026-01-11 02:57:09.90	273.37	18.91	-53.5	-69.4	3.8	1.49e+00	0	26	104	0	72	23400
2026-01-11 02:57:10.89	273.23	18.81	-53.5	-69.4	3.8	1.49e+00	0	26	104	0	72	23401
2026-01-11 02:57:11.89	273.09	18.71	-53.5	-69.4	3.8	1.49e+00	0	26	104	0	72	23457
2026-01-11 02:57:12.89	272.95	18.61	-53.5	-69.4	3.8	1.49e+00	0	26	104	0	72	23413
2026-01-11 02:57:13.89	272.81	18.51	-53.5	-69.4	3.8	1.49e+00	0	26	104	0	72	23441
2026-01-11 02:57:14.89	272.67	18.41	-53.5	-69.4	3.8	1.49e+00	0	26	104	0	72	23411
2026-01-11 02:57:15.89	272.53	18.32	-53.5	-69.4	3.8	1.49e+00	0	26	104	0	72	23424
2026-01-11 02:57:16.89	272.39	18.22	-53.5	-69.4	3.8	1.49e+00	0	26	104	0	72	23471
2026-01-11 02:57:17.88	272.25	18.12	-53.5	-69.4	3.8	1.49e+00	0	26	104	0	72	23357
2026-01-11 02:57:18.89	272.11	18.02	-53.5	-69.4	3.9	1.49e+00	0	26	104	0	72	23454
2026-01-11 02:57:19.88	271.98	17.92	-53.5	-69.4	3.8	1.49e+00	0	26	104	0	72	23441
2026-01-11 02:57:20.88	271.85	17.82	-53.5	-69.4	3.8	1.49e+00	0	26	104	0	72	23350
2026-01-11 02:57:21.89	271.71	17.73	-53.5	-69.4	3.8	1.49e+00	0	26	104	0	72	23447
2026-01-11 02:57:22.89	271.58	17.63	-53.5	-69.4	3.8	1.49e+00	0	26	104	0	72	23466
2026-01-11 02:57:23.89	271.45	17.53	-53.5	-69.4	3.8	1.49e+00	0	26	104	0	72	23491
2026-01-11 02:57:24.89	271.32	17.43	-53.5	-69.4	3.8	1.49e+00	0	26	104	0	72	23376
2026-01-11 02:57:25.90	271.18	17.34	-53.5	-69.4	3.8	1.49e+00	0	26	104	0	72	23377
2026-01-11 02:57:26.90	271.05	17.24	-53.5	-69.4	3.8	1.49e+00	0	26	104	0	72	23413
2026-01-11 02:57:27.90	270.93	17.14	-53.5	-69.4	3.8	1.49e+00	0	26	104	0	72	23461
2026-01-11 02:57:28.91	270.80	17.05	-53.5	-69.4	3.8	1.49e+00	0	26	104	0	72	23508
2026-01-11 02:57:29.91	270.67	16.95	-53.5	-69.4	3.8	1.49e+00	0	26	104	0	72	23363
2026-01-11 02:57:30.90	270.55	16.86	-53.5	-69.4	3.8	1.49e+00	0	26	104	0	72	23424
2026-01-11 02:57:31.90	270.42	16.76	-53.5	-69.4	3.8	1.49e+00	0	26	104	0	72	23412
2026-01-11 02:57:32.90	270.30	16.66	-53.5	-69.4	3.8	1.49e+00	0	26	104	0	72	23451
2026-01-11 02:57:33.90	270.17	16.57	-53.5	-69.4	3.8	1.49e+00	0	26	104	0	72	23425
2026-01-11 02:57:34.90	270.05	16.47	-53.5	-69.4	3.8	1.49e+00	0	26	104	0	72	23429
2026-01-11 02:57:35.90	269.93	16.38	-53.5	-69.4	3.8	1.49e+00	0	26	104	0	72	23474
2026-01-11 02:57:36.89	269.81	16.29	-53.5	-69.4	3.8	1.49e+00	0	26	104	0	72	23368
2026-01-11 02:57:37.89	269.69	16.19	-53.5	-69.4	3.8	1.49e+00	0	26	104	0	72	23441
2026-01-11 02:57:38.89	269.57	16.10	-53.5	-69.4	3.8	1.49e+00	0	26	104	0	72	23429
2026-01-11 02:57:39.90	269.45	16.00	-53.5	-69.4	3.8	1.49e+00	0	26	104	0	72	23394
2026-01-11 02:57:40.90	269.33	15.91	-53.5	-69.4	3.8	1.49e+00	0	26	104	0	72	23388
2026-01-11 02:57:41.90	269.21	15.82	-53.5	-69.4	3.8	1.49e+00	0	26	104	0	72	23378
2026-01-11 02:57:42.90	269.10	15.72	-53.5	-69.4	3.8	1.49e+00	0	26	104	0	72	23393
2026-01-11 02:57:43.90	268.98	15.63	-53.5	-69.4	3.8	1.49e+00	0	26	104	0	72	23481
2026-01-11 02:57:44.89	268.87	15.54	-53.5	-69.4	3.8	1.49e+00	0	26	104	0	72	23422
2026-01-11 02:57:45.89	268.75	15.45	-53.5	-69.4	3.8	1.49e+00	0	26	104	0	72	23441
2026-01-11 02:57:46.90	268.64	15.36	-53.5	-69.4	3.8	1.49e+00	0	26	104	0	72	23367
2026-01-11 02:57:47.90	268.52	15.26	-53.5	-69.4	3.8	1.49e+00	0	26	104	0	72	23464
2026-01-11 02:57:48.91	268.41	15.17	-53.5	-69.4	3.8	1.49e+00	0	26	104	0	72	23372
2026-01-11 02:57:49.91	268.30	15.08	-53.5	-69.4	3.8	1.49e+00	0	26	104	0	72	23318
2026-01-11 02:57:50.91	268.19	14.99	-53.5	-69.4	3.8	1.49e+00	0	26	104	0	72	23370
2026-01-11 02:57:51.92	268.08	14.90	-53.5	-69.4	3.8	1.49e+00	0	26	104	0	72	23421
2026-01-11 02:57:52.92	267.97	14.81	-53.5	-69.4	3.8	1.49e+00	0	26	104	0	72	23413
2026-01-11 02:57:53.92	267.86	14.72	-53.5	-69.4	3.8	1.49e+00	0	26	104	0	72	23401
2026-01-11 02:57:54.92	267.75	14.63	-53.5	-69.4	3.8	1.49e+00	0	26	104	0	72	23459
2026-01-11 02:57:55.92	267.64	14.54	-53.5	-69.4	3.8	1.49e+00	0	26	104	0	72	23401
2026-01-11 02:57:56.93	267.53	14.45	-53.5	-69.4	3.8	1.49e+00	0	26	104	0	72	23418
2026-01-11 02:57:57.93	267.43	14.36	-53.5	-69.4	3.8	1.49e+00	0	26	104	0	72	23380
2026-01-11 02:57:58.93	267.32	14.27	-53.5	-69.4	3.8	1.49e+00	0	26	104	0	72	23484
2026-01-11 02:57:59.93	267.22	14.18	-53.5	-69.4	3.8	1.49e+00	0	26	104	0	72	23389
2026-01-11 02:58:00.93	267.11	14.09	-53.5	-69.4	3.8	1.49e+00	0	26	104	0	72	23407
2026-01-11 02:58:01.93	267.01	14.00	-53.5	-69.4	3.8	1.49e+00	0	26	104	0	72	23464
2026-01-11 02:58:02.92	266.91	13.91	-53.5	-69.4	3.8	1.49e+00	0	26	104	0	72	23407
2026-01-11 02:58:03.92	266.81	13.82	-53.5	-69.4	3.8	1.49e+00	0	26	104	0	72	23413
2026-01-11 02:58:04.92	266.70	13.74	-53.5	-69.4	3.8	1.49e+00	0	26	104	0	72	23423
2026-01-11 02:58:05.92	266.60	13.65	-53.5	-69.4	3.8	1.49e+00	0	26	104	0	72	23361
2026-01-11 02:58:06.92	266.50	13.56	-53.5	-69.4	3.8	1.49e+00	0	26	104	0	72	23472
2026-01-11 02:58:07.92	266.40	13.47	-53.5	-69.4	3.8	1.49e+00	0	26	104	0	72	23410
2026-01-11 02:58:08.92	266.30	13.39	-53.5	-69.4	3.8	1.49e+00	0	26	104	0	72	23454
2026-01-11 02:58:09.92	266.20	13.30	-53.5	-69.4	3.8	1.49e+00	0	26	104	0	72	23395
2026-01-11 02:58:10.92	266.11	13.21	-53.5	-69.4	3.8	1.49e+00	0	26	104	0	72	23443
2026-01-11 02:58:11.91	266.01	13.13	-53.5	-69.4	3.8	1.49e+00	0	26	104	0	72	23411
2026-01-11 02:58:12.90	265.91	13.04	-53.5	-69.4	3.8	1.49e+00	0	26	104	0	72	23445
2026-01-11 02:58:13.90	265.82	12.96	-53.5	-69.4	3.8	1.49e+00	0	26	104	0	72	23365
2026-01-11 02:58:14.89	265.72	12.87	-53.5	-69.4	3.8	1.49e+00	0	26	104	0	72	23371
2026-01-11 02:58:15.89	265.63	12.79	-53.5	-69.4	3.8	1.49e+00	0	26	104	0	72	23404
2026-01-11 02:58:16.90	265.53	12.70	-53.5	-69.4	3.8	1.49e+00	0	26	104	0	72	23384
2026-01-11 02:58:17.90	265.44	12.62	-53.5	-69.4	3.8	1.49e+00	0	26	104	0	72	23372
2026-01-11 02:58:18.90	265.34	12.53	-53.5	-69.4	3.8	1.49e+00	0	26	104	0	72	23443
2026-01-11 02:58:19.90	265.25	12.45	-53.5	-69.4	3.8	1.49e+00	0	26	104	0	72	23395
2026-01-11 02:58:20.91	265.16	12.36	-53.5	-69.4	3.8	1.49e+00	0	26	104	0	72	23439
2026-01-11 02:58:21.91	265.07	12.28	-53.5	-69.4	3.8	1.49e+00	0	26	104	0	72	23490
2026-01-11 02:58:22.91	264.98	12.19	-53.5	-69.4	3.8	1.49e+00	0	26	104	0	72	23368
2026-01-11 02:58:23.91	264.88	12.11	-53.5	-69.4	3.8	1.49e+00	0	26	104	0	72	23379
2026-01-11 02:58:24.91	264.79	12.03	-53.5	-69.4	3.8	1.49e+00	0	26	104	0	72	23432
2026-01-11 02:58:25.91	264.70	11.94	-53.5	-69.4	3.8	1.49e+00	0	26	104	0	72	23390
2026-01-11 02:58:26.91	264.62	11.86	-53.5	-69.4	3.8	1.49e+00	0	26	104	0	72	23359
2026-01-11 02:58:27.90	264.53	11.78	-53.5	-69.4	3.8	1.49e+00	0	26	104	0	72	23430
2026-01-11 02:58:28.92	264.44	11.69	-53.5	-69.4	3.8	1.49e+00	0	26	104	0	72	23337
2026-01-11 02:58:29.92	264.35	11.61	-53.5	-69.4	3.8	1.49e+00	0	26	104	0	72	23394
2026-01-11 02:58:30.92	264.26	11.53	-53.5	-69.4	3.8	1.49e+00	0	26	104	0	72	23379
2026-01-11 02:58:31.92	264.18	11.45	-53.5	-69.4	3.8	1.49e+00	0	26	104	0	72	23364
2026-01-11 02:58:32.92	264.09	11.36	-53.5	-69.4	3.8	1.49e+00	0	26	104	0	72	23382
2026-01-11 02:58:33.91	264.01	11.28	-53.5	-69.4	3.8	1.49e+00	0	26	104	0	72	23404
2026-01-11 02:58:34.91	263.92	11.20	-53.5	-69.4	3.8	1.49e+00	0	26	104	0	72	23355
2026-01-11 02:58:35.91	263.84	11.12	-53.5	-69.4	3.8	1.49e+00	0	26	104	0	72	23389
2026-01-11 02:58:36.91	263.75	11.04	-53.5	-69.4	3.8	1.49e+00	0	26	104	0	72	23429
2026-01-11 02:58:37.91	263.67	10.96	-53.5	-69.4	3.8	1.49e+00	0	26	104	0	72	23371
2026-01-11 02:58:38.91	263.58	10.88	-53.5	-69.4	3.8	1.49e+00	0	26	104	0	72	23354
2026-01-11 02:58:39.92	263.50	10.80	-53.5	-69.4	3.8	1.49e+00	0	26	104	0	72	23378
2026-01-11 02:58:40.92	263.42	10.72	-53.4	-69.4	3.8	1.49e+00	0	26	104	0	72	23312
2026-01-11 02:58:41.92	263.34	10.64	-53.5	-69.4	3.8	1.49e+00	0	26	104	0	72	23391
2026-01-11 02:58:42.92	263.26	10.56	-53.5	-69.4	3.8	1.49e+00	0	26	104	0	72	23351
2026-01-11 02:58:43.92	263.17	10.48	-53.5	-69.4	3.8	1.49e+00	0	26	104	0	72	23427
2026-01-11 02:58:44.92	263.09	10.40	-53.5	-69.4	3.8	1.49e+00	0	26	104	0	72	23443
2026-01-11 02:58:45.92	263.01	10.32	-53.5	-69.4	3.8	1.49e+00	0	26	104	0	72	23442
2026-01-11 02:58:46.92	262.93	10.24	-53.5	-69.4	3.8	1.49e+00	0	26	104	0	72	23365
2026-01-11 02:58:47.92	262.86	10.16	-53.5	-69.4	3.8	1.49e+00	0	26	104	0	72	23441
2026-01-11 02:58:48.92	262.78	10.08	-53.5	-69.4	3.8	1.49e+00	0	26	104	0	72	23376
2026-01-11 02:58:49.92	262.70	10.00	-53.5	-69.4	3.8	1.49e+00	0	26	104	0	72	23369
2026-01-11 02:58:50.92	262.62	9.93	-53.5	-69.4	3.8	1.49e+00	0	26	104	0	72	23425
2026-01-11 02:58:51.92	262.54	9.85	-53.5	-69.4	3.8	1.49e+00	0	26	104	0	72	23416
2026-01-11 02:58:52.93	262.47	9.77	-53.5	-69.4	3.8	1.49e+00	0	26	104	0	72	23444
2026-01-11 02:58:53.92	262.39	9.69	-53.5	-69.4	3.8	1.49e+00	0	26	104	0	72	23399
2026-01-11 02:58:54.92	262.31	9.62	-53.5	-69.4	3.8	1.49e+00	0	26	104	0	72	23440
2026-01-11 02:58:55.93	262.24	9.54	-53.5	-69.4	3.8	1.49e+00	0	26	104	0	72	23371
2026-01-11 02:58:56.93	262.16	9.46	-53.5	-69.4	3.8	1.49e+00	0	26	104	0	72	23420
2026-01-11 02:58:57.93	262.09	9.38	-53.5	-69.4	3.8	1.49e+00	0	26	104	0	72	23387
2026-01-11 02:58:58.93	262.01	9.31	-53.5	-69.4	3.9	1.49e+00	0	26	104	0	72	23401
2026-01-11 02:58:59.93	261.94	9.23	-53.5	-69.4	3.8	1.49e+00	0	26	104	0	72	23386
2026-01-11 02:59:00.94	261.86	9.15	-53.5	-69.4	3.8	1.49e+00	0	26	104	0	72	23406
2026-01-11 02:59:01.94	261.79	9.08	-53.5	-69.4	3.8	1.49e+00	0	26	104	0	72	23455
2026-01-11 02:59:02.94	261.72	9.00	-53.5	-69.4	3.8	1.49e+00	0	26	104	0	72	23456
2026-01-11 02:59:03.94	261.65	8.93	-53.5	-69.4	3.8	1.49e+00	0	26	104	0	72	23382
2026-01-11 02:59:04.93	261.57	8.85	-53.5	-69.4	3.8	1.49e+00	0	26	104	0	72	23400
2026-01-11 02:59:05.94	261.50	8.77	-53.5	-69.4	3.8	1.49e+00	0	26	104	0	72	23461
2026-01-11 02:59:06.94	261.43	8.70	-53.5	-69.4	3.8	1.49e+00	0	26	104	0	72	23399
2026-01-11 02:59:07.94	261.36	8.62	-53.5	-69.4	3.8	1.49e+00	0	26	104	0	72	23373
2026-01-11 02:59:08.93	261.29	8.55	-53.5	-69.4	3.8	1.49e+00	0	26	104	0	72	23387
2026-01-11 02:59:09.93	261.22	8.48	-53.5	-69.4	3.8	1.49e+00	0	26	104	0	72	23423
2026-01-11 02:59:10.94	261.15	8.40	-53.5	-69.4	3.8	1.49e+00	0	26	104	0	72	23394
2026-01-11 02:59:11.94	261.08	8.33	-53.5	-69.4	3.8	1.49e+00	0	26	104	0	72	23420
2026-01-11 02:59:12.93	261.01	8.25	-53.5	-69.4	3.8	1.49e+00	0	26	104	0	72	23406
2026-01-11 02:59:13.93	260.94	8.18	-53.5	-69.4	3.8	1.49e+00	0	26	104	0	72	23496
2026-01-11 02:59:14.93	260.88	8.11	-53.5	-69.4	3.8	1.49e+00	0	26	104	0	72	23408
2026-01-11 02:59:15.94	260.81	8.03	-53.5	-69.4	3.8	1.49e+00	0	26	104	0	72	23465
2026-01-11 02:59:16.94	260.74	7.96	-53.5	-69.4	3.8	1.49e+00	0	26	104	0	72	23495
2026-01-11 02:59:17.93	260.67	7.88	-53.5	-69.4	3.8	1.49e+00	0	26	104	0	72	23453
2026-01-11 02:59:18.93	260.61	7.81	-53.5	-69.4	3.8	1.49e+00	0	26	104	0	72	23485
2026-01-11 02:59:19.93	260.54	7.74	-53.5	-69.4	3.8	1.49e+00	0	26	104	0	72	23392
2026-01-11 02:59:20.92	260.47	7.67	-53.5	-69.4	3.8	1.49e+00	0	26	104	0	72	23471
2026-01-11 02:59:21.92	260.41	7.59	-53.5	-69.4	3.8	1.49e+00	0	26	104	0	72	23474
2026-01-11 02:59:22.92	260.34	7.52	-53.5	-69.4	3.8	1.49e+00	0	26	104	0	72	23414
2026-01-11 02:59:23.92	260.28	7.45	-53.5	-69.4	3.8	1.49e+00	0	26	104	0	72	23463
2026-01-11 02:59:24.92	260.21	7.38	-53.5	-69.4	3.8	1.49e+00	0	26	104	0	72	23486
2026-01-11 02:59:25.92	260.15	7.31	-53.5	-69.4	3.8	1.49e+00	0	26	104	0	72	23446
2026-01-11 02:59:26.92	260.08	7.23	-53.5	-69.4	3.8	1.49e+00	0	26	104	0	72	23432
2026-01-11 02:59:27.92	260.02	7.16	-53.5	-69.4	3.8	1.49e+00	0	26	104	0	72	23511
2026-01-11 02:59:28.92	259.96	7.09	-53.5	-69.4	3.8	1.49e+00	0	26	104	0	72	23421
2026-01-11 02:59:29.93	259.89	7.02	-53.5	-69.4	3.8	1.49e+00	0	26	104	0	72	23436
2026-01-11 02:59:30.93	259.83	6.95	-53.5	-69.4	3.8	1.49e+00	0	26	104	0	72	23458
2026-01-11 02:59:31.94	259.77	6.88	-53.5	-69.4	3.8	1.49e+00	0	26	104	0	72	23512
2026-01-11 02:59:32.94	259.70	6.81	-53.5	-69.4	3.8	1.49e+00	0	26	104	0	72	23448
