passes_logs/2026/01/11/R3.2S_Murmansk/R3.2S_Murmansk__20260111_132107_TY-42_rec.log

#Pass ID: 20260111_132107_TY-42
#Satellite: TY-42
#Configuration: TY-42_900M
#almurnet v.1.7.20251203
#Start time: 2026-01-11 13:21:09

#Version: 2.2.20231116
#Station: R3.2S_Murmansk
#Location: 33.079688 lon 68.888172 lat
#TLE: 1 64048U 25103A   26011.23840278  .00008009  00000-0  38191-3 0 09999
#TLE: 2 64048 097.4119 086.7264 0001784 091.7735 049.4293 15.19164602 36241

#Time	Az	El	Level	Level2	SNR	BER	BlckErr	Temp	State	Recorded	gain1	gain2
2026-01-11 13:21:09.66	37.78	2.12	-56.4	-59.6	6.1	0.00e+00	0	28	0	0	78	22123
2026-01-11 13:21:10.67	37.66	2.18	-56.4	-59.6	6.2	0.00e+00	0	28	104	0	80	19791
2026-01-11 13:21:11.67	37.54	2.23	-56.4	-59.6	6.2	0.00e+00	0	28	104	0	80	19809
2026-01-11 13:21:12.68	37.42	2.28	-56.4	-59.6	6.2	0.00e+00	0	28	104	0	80	19797
2026-01-11 13:21:13.69	37.30	2.34	-56.4	-59.6	6.2	0.00e+00	0	28	104	0	80	19808
2026-01-11 13:21:14.70	37.17	2.39	-56.5	-59.6	6.2	0.00e+00	0	28	104	0	80	19920
2026-01-11 13:21:15.71	37.05	2.44	-56.4	-59.6	6.2	0.00e+00	0	28	104	0	80	19879
2026-01-11 13:21:16.72	36.93	2.50	-56.4	-59.6	6.2	0.00e+00	0	28	104	0	80	19878
2026-01-11 13:21:17.73	36.80	2.55	-56.5	-59.7	6.2	0.00e+00	0	28	104	0	80	19958
2026-01-11 13:21:18.75	36.68	2.61	-56.5	-59.6	6.2	0.00e+00	0	29	104	0	80	19926
2026-01-11 13:21:19.75	36.55	2.66	-56.5	-59.7	6.2	0.00e+00	0	29	104	0	80	19974
2026-01-11 13:21:20.77	36.42	2.72	-56.5	-59.7	6.2	0.00e+00	0	29	104	0	80	20006
2026-01-11 13:21:21.78	36.30	2.77	-56.5	-59.7	6.2	0.00e+00	0	29	104	0	80	20028
2026-01-11 13:21:22.78	36.17	2.82	-56.5	-59.7	6.2	0.00e+00	0	29	104	0	80	20016
2026-01-11 13:21:23.79	36.04	2.88	-56.5	-59.7	6.2	0.00e+00	0	29	104	0	80	20011
2026-01-11 13:21:24.80	35.91	2.93	-56.5	-59.7	6.2	0.00e+00	0	29	104	0	80	20014
2026-01-11 13:21:25.81	35.79	2.99	-56.5	-59.7	6.2	0.00e+00	0	29	104	0	80	20014
2026-01-11 13:21:26.82	35.66	3.04	-56.5	-59.7	6.2	0.00e+00	0	29	104	0	80	20018
2026-01-11 13:21:27.83	35.53	3.09	-56.5	-59.7	6.2	0.00e+00	0	29	104	0	80	19940
2026-01-11 13:21:28.84	35.39	3.15	-56.5	-59.7	6.2	0.00e+00	0	29	104	0	80	20122
2026-01-11 13:21:29.84	35.26	3.20	-56.5	-59.7	6.2	0.00e+00	0	29	104	0	80	20071
2026-01-11 13:21:30.85	35.13	3.26	-56.5	-59.7	6.2	0.00e+00	0	29	104	0	80	20070
2026-01-11 13:21:31.86	35.00	3.31	-56.5	-59.7	6.2	0.00e+00	0	29	104	0	80	20069
2026-01-11 13:21:32.87	34.86	3.37	-56.5	-59.7	6.2	0.00e+00	0	29	104	0	80	20064
2026-01-11 13:21:33.88	34.73	3.42	-56.5	-59.7	6.2	0.00e+00	0	29	104	0	80	20081
2026-01-11 13:21:34.89	34.60	3.47	-56.5	-59.7	6.2	0.00e+00	0	30	104	0	80	20110
2026-01-11 13:21:35.89	34.46	3.53	-56.5	-59.7	6.2	0.00e+00	0	29	104	0	80	20102
2026-01-11 13:21:36.90	34.33	3.58	-56.5	-59.7	6.2	0.00e+00	0	29	104	0	80	20133
2026-01-11 13:21:37.90	34.19	3.64	-56.5	-59.7	6.2	0.00e+00	0	29	104	0	80	20055
2026-01-11 13:21:38.91	34.05	3.69	-56.5	-59.7	6.2	0.00e+00	0	29	104	0	80	20107
2026-01-11 13:21:39.91	33.92	3.75	-56.5	-59.7	6.2	0.00e+00	0	29	104	0	80	20103
2026-01-11 13:21:40.92	33.78	3.80	-56.5	-59.7	6.2	0.00e+00	0	30	104	0	80	20076
2026-01-11 13:21:41.93	33.64	3.86	-56.5	-59.8	6.2	0.00e+00	0	29	104	0	80	20183
2026-01-11 13:21:42.93	33.50	3.91	-56.5	-59.7	6.2	0.00e+00	0	30	104	0	80	20147
2026-01-11 13:21:43.94	33.36	3.96	-56.6	-59.8	6.2	0.00e+00	0	30	104	0	80	20192
2026-01-11 13:21:44.94	33.22	4.02	-56.6	-59.7	6.2	0.00e+00	0	30	104	0	80	20139
2026-01-11 13:21:45.95	33.07	4.07	-56.6	-59.8	6.2	0.00e+00	0	30	104	0	80	20184
2026-01-11 13:21:46.96	32.93	4.13	-56.6	-59.8	6.2	0.00e+00	0	30	104	0	80	20229
2026-01-11 13:21:47.97	32.79	4.18	-56.5	-59.8	6.2	0.00e+00	0	30	104	0	80	20190
2026-01-11 13:21:48.98	32.64	4.24	-56.5	-59.7	6.2	0.00e+00	0	30	104	0	80	20155
2026-01-11 13:21:49.99	32.50	4.29	-56.5	-59.7	6.2	0.00e+00	0	30	104	0	80	20119
2026-01-11 13:21:50.99	32.35	4.34	-56.6	-59.8	6.2	0.00e+00	0	30	104	0	80	20253
2026-01-11 13:21:52.00	32.21	4.40	-56.5	-59.8	6.2	0.00e+00	0	30	104	0	80	20205
2026-01-11 13:21:53.01	32.06	4.45	-56.6	-59.8	6.2	0.00e+00	0	30	104	0	80	20177
2026-01-11 13:21:54.02	31.91	4.51	-56.6	-59.8	6.2	0.00e+00	0	30	104	0	80	20182
2026-01-11 13:21:55.03	31.76	4.56	-56.5	-59.7	6.2	0.00e+00	0	30	104	0	80	20114
2026-01-11 13:21:56.03	31.62	4.62	-56.5	-59.8	6.2	0.00e+00	0	30	104	0	80	20179
2026-01-11 13:21:57.04	31.47	4.67	-56.5	-59.7	6.2	0.00e+00	0	30	104	0	80	20144
2026-01-11 13:21:58.05	31.32	4.73	-56.6	-59.8	6.2	0.00e+00	0	30	104	0	80	20179
2026-01-11 13:21:59.06	31.16	4.78	-56.6	-59.7	6.2	0.00e+00	0	30	104	0	80	20145
2026-01-11 13:22:00.07	31.01	4.84	-56.6	-59.8	6.2	0.00e+00	0	30	104	0	80	20183
2026-01-11 13:22:01.07	30.86	4.89	-56.6	-59.8	6.2	0.00e+00	0	30	104	0	80	20213
2026-01-11 13:22:02.09	30.71	4.95	-56.6	-59.8	6.2	0.00e+00	0	30	104	0	80	20219
2026-01-11 13:22:03.10	30.55	5.00	-56.6	-59.8	6.2	0.00e+00	0	30	104	0	80	20276
2026-01-11 13:22:04.10	30.40	5.05	-56.6	-59.8	6.2	0.00e+00	0	31	104	0	80	20202
2026-01-11 13:22:05.11	30.24	5.11	-56.7	-59.9	6.2	0.00e+00	0	31	104	0	80	20593
2026-01-11 13:22:06.12	30.09	5.16	-56.9	-60.1	6.2	0.00e+00	0	31	104	0	80	21033
2026-01-11 13:22:07.13	29.93	5.22	-56.3	-59.6	6.2	0.00e+00	0	31	104	0	79	20933
2026-01-11 13:22:08.14	29.77	5.27	-56.8	-60.0	6.2	0.00e+00	0	31	104	0	79	22037
2026-01-11 13:22:09.15	29.61	5.33	-56.7	-59.9	6.2	0.00e+00	0	31	104	0	79	21651
2026-01-11 13:22:10.16	29.45	5.38	-56.9	-60.2	6.2	0.00e+00	0	31	104	0	79	22422
2026-01-11 13:22:11.16	29.29	5.43	-56.6	-59.8	6.2	0.00e+00	0	31	104	0	79	21451
2026-01-11 13:22:12.17	29.13	5.49	-56.9	-60.1	6.2	0.00e+00	0	31	104	0	79	22208
2026-01-11 13:22:13.18	28.97	5.54	-56.8	-60.0	6.2	0.00e+00	0	31	104	0	79	22018
2026-01-11 13:22:14.19	28.81	5.60	-57.0	-60.2	6.2	0.00e+00	0	31	104	0	79	22509
2026-01-11 13:22:15.20	28.64	5.65	-56.6	-59.9	6.2	0.00e+00	0	31	104	0	79	21631
2026-01-11 13:22:16.21	28.48	5.71	-56.9	-60.1	6.2	0.00e+00	0	31	104	0	79	22194
2026-01-11 13:22:17.21	28.32	5.76	-56.8	-60.1	6.2	0.00e+00	0	31	104	0	79	22118
2026-01-11 13:22:18.22	28.15	5.81	-57.0	-60.2	6.2	0.00e+00	0	31	104	0	79	22487
2026-01-11 13:22:19.23	27.98	5.87	-56.7	-59.8	6.1	0.00e+00	0	31	104	0	79	21604
2026-01-11 13:22:20.23	27.82	5.92	-56.9	-60.1	6.2	0.00e+00	0	31	104	0	79	22355
2026-01-11 13:22:21.24	27.65	5.98	-56.9	-60.1	6.2	0.00e+00	0	31	104	0	79	22228
2026-01-11 13:22:22.25	27.48	6.03	-57.0	-60.3	6.2	0.00e+00	0	31	104	0	79	22649
2026-01-11 13:22:23.26	27.31	6.08	-56.8	-60.0	6.2	0.00e+00	0	31	104	0	79	21938
2026-01-11 13:22:24.26	27.14	6.14	-57.0	-60.2	6.2	0.00e+00	0	31	104	0	79	22492
2026-01-11 13:22:25.27	26.97	6.19	-56.9	-60.1	6.2	0.00e+00	0	31	104	0	79	22348
2026-01-11 13:22:26.28	26.80	6.24	-57.1	-60.3	6.1	0.00e+00	0	31	104	0	79	22758
2026-01-11 13:22:27.29	26.63	6.30	-56.9	-60.1	6.2	0.00e+00	0	31	104	0	79	22255
2026-01-11 13:22:28.30	26.45	6.35	-57.0	-60.2	6.2	0.00e+00	0	31	104	0	79	22597
2026-01-11 13:22:29.31	26.28	6.41	-57.0	-60.2	6.2	0.00e+00	0	31	104	0	79	22609
2026-01-11 13:22:30.31	26.10	6.46	-57.1	-60.3	6.2	0.00e+00	0	31	104	0	80	21544
2026-01-11 13:22:31.31	25.93	6.51	-57.0	-60.2	6.2	0.00e+00	0	31	104	0	80	21228
2026-01-11 13:22:32.32	25.75	6.56	-57.1	-60.3	6.2	0.00e+00	0	31	104	0	80	21446
2026-01-11 13:22:33.33	25.57	6.62	-50.1	-50.9	8.7	0.00e+00	5313	32	104	0	67	15371
2026-01-11 13:22:34.34	25.40	6.67	-50.1	-50.8	8.9	0.00e+00	5511	33	0	92274688	67	15207
2026-01-11 13:22:35.35	25.22	6.72	-48.8	-49.4	9.4	0.00e+00	5514	33	0	201326592	64	15346
2026-01-11 13:22:36.36	25.04	6.78	-48.5	-49.1	9.6	4.27e-01	5514	33	0	318767104	64	14788
2026-01-11 13:22:37.36	24.86	6.83	-47.2	-47.7	10.2	4.27e-01	5071	33	0	436207616	61	15058
2026-01-11 13:22:38.37	24.67	6.88	-46.9	-47.4	10.3	4.27e-01	2864	33	0	545259520	59	16211
2026-01-11 13:22:39.37	24.49	6.94	-45.9	-46.4	10.8	3.13e-01	5	33	0	654311424	59	14484
2026-01-11 13:22:40.38	24.31	6.99	-44.5	-44.9	11.3	3.13e-01	0	33	0	771751936	56	14454
2026-01-11 13:22:41.39	24.13	7.04	-44.4	-44.8	11.4	3.13e-01	0	33	0	880803840	55	15165
2026-01-11 13:22:42.40	23.94	7.09	-43.3	-43.7	11.8	1.04e-01	0	33	0	998244352	53	14949
2026-01-11 13:22:43.41	23.75	7.15	-42.6	-42.9	12.0	1.04e-01	0	33	0	1115684864	52	14550
2026-01-11 13:22:44.42	23.57	7.20	-41.9	-42.2	12.3	3.43e-02	0	33	0	1224736768	51	14267
2026-01-11 13:22:45.43	23.38	7.25	-42.2	-42.5	12.2	3.43e-02	0	33	0	1342177280	51	14664
2026-01-11 13:22:46.44	23.19	7.30	-42.0	-42.3	12.2	3.43e-02	0	33	0	1451229184	51	14411
2026-01-11 13:22:47.45	23.00	7.35	-42.2	-42.5	12.2	2.03e-02	0	33	0	1560281088	51	14701
2026-01-11 13:22:48.46	22.81	7.41	-42.1	-42.4	12.2	2.03e-02	0	33	0	1686110208	51	14455
2026-01-11 13:22:49.46	22.62	7.46	-42.3	-42.6	12.1	1.83e-02	0	33	0	1795162112	51	14919
2026-01-11 13:22:50.47	22.43	7.51	-41.9	-42.2	12.2	1.83e-02	0	33	0	1904214016	50	15059
2026-01-11 13:22:51.48	22.24	7.56	-41.9	-42.2	12.2	1.83e-02	0	33	0	2021654528	50	15107
2026-01-11 13:22:52.49	22.04	7.61	-41.8	-42.1	12.3	1.85e-02	0	33	0	2130706432	50	14781
2026-01-11 13:22:53.49	21.85	7.66	-41.9	-42.2	12.2	1.85e-02	0	33	0	2248146944	50	15069
2026-01-11 13:22:54.49	21.65	7.71	-41.8	-42.1	12.3	1.85e-02	0	33	0	2357198848	50	14872
2026-01-11 13:22:55.50	21.46	7.77	-41.8	-42.1	12.3	1.54e-02	0	33	0	2466250752	50	14933
2026-01-11 13:22:56.51	21.26	7.82	-41.8	-42.1	12.3	1.54e-02	0	33	0	2583691264	50	14885
2026-01-11 13:22:57.52	21.06	7.87	-41.8	-42.1	12.2	1.54e-02	0	33	0	2701131776	50	14923
2026-01-11 13:22:58.53	20.86	7.92	-41.7	-42.1	12.3	1.69e-02	0	33	0	2810183680	50	14787
2026-01-11 13:22:59.54	20.66	7.97	-41.8	-42.1	12.3	1.69e-02	0	33	0	2927624192	50	14828
2026-01-11 13:23:00.55	20.46	8.02	-42.0	-42.3	12.2	1.69e-02	0	33	0	3036676096	50	15268
2026-01-11 13:23:01.56	20.26	8.07	-41.9	-42.3	12.2	1.56e-02	0	33	0	3154116608	50	15135
2026-01-11 13:23:02.57	20.06	8.12	-41.8	-42.1	12.2	1.56e-02	0	33	0	3271557120	50	14901
2026-01-11 13:23:03.57	19.86	8.17	-41.7	-42.0	12.3	1.65e-02	0	33	0	3380609024	50	14716
2026-01-11 13:23:04.58	19.65	8.22	-41.8	-42.1	12.3	1.65e-02	0	33	0	3489660928	50	14858
2026-01-11 13:23:05.59	19.45	8.27	-41.8	-42.1	12.3	1.54e-02	0	33	0	3607101440	50	14842
2026-01-11 13:23:06.60	19.24	8.32	-41.6	-42.0	12.3	1.54e-02	0	34	0	3716153344	50	14612
2026-01-11 13:23:07.61	19.03	8.37	-41.9	-42.2	12.2	1.54e-02	0	33	0	3833593856	50	14996
2026-01-11 13:23:08.62	18.83	8.42	-41.6	-41.9	12.3	1.42e-02	0	33	0	3951034368	50	14519
2026-01-11 13:23:09.62	18.62	8.46	-41.6	-41.9	12.3	1.42e-02	0	33	0	4060086272	50	14578
2026-01-11 13:23:10.63	18.41	8.51	-41.6	-41.9	12.3	1.42e-02	0	33	0	4177526784	50	14584
2026-01-11 13:23:11.64	18.20	8.56	-41.6	-41.9	12.4	1.42e-02	0	34	0	4286578688	50	14476
2026-01-11 13:23:12.65	17.99	8.61	-41.5	-41.8	12.4	1.42e-02	0	34	0	4395630592	50	14399
2026-01-11 13:23:13.66	17.78	8.66	-41.5	-41.8	12.4	1.16e-02	0	34	0	4513071104	50	14396
2026-01-11 13:23:14.66	17.57	8.71	-41.7	-42.0	12.3	1.16e-02	0	34	0	4630511616	50	14646
2026-01-11 13:23:15.67	17.35	8.75	-41.5	-41.8	12.4	1.16e-02	0	33	0	4739563520	50	14413
2026-01-11 13:23:16.68	17.14	8.80	-41.6	-41.9	12.4	1.36e-02	0	34	0	4857004032	50	14519
2026-01-11 13:23:17.69	16.92	8.85	-41.6	-41.9	12.4	1.36e-02	0	34	0	4966055936	50	14501
2026-01-11 13:23:18.69	16.71	8.90	-41.5	-41.8	12.4	1.36e-02	0	34	0	5083496448	50	14386
2026-01-11 13:23:19.70	16.49	8.94	-41.3	-41.6	12.4	1.24e-02	0	34	0	5192548352	49	14850
2026-01-11 13:23:20.70	16.27	8.99	-41.5	-41.8	12.3	1.24e-02	0	34	0	5309988864	49	15154
2026-01-11 13:23:21.71	16.05	9.03	-41.4	-41.7	12.3	1.24e-02	0	34	0	5419040768	49	15107
2026-01-11 13:23:22.72	15.83	9.08	-41.4	-41.7	12.3	1.34e-02	0	34	0	5536481280	49	15061
2026-01-11 13:23:23.73	15.61	9.13	-41.3	-41.6	12.4	1.34e-02	0	34	0	5645533184	49	14827
2026-01-11 13:23:24.74	15.39	9.17	-41.2	-41.5	12.4	1.34e-02	0	34	0	5762973696	49	14713
2026-01-11 13:23:25.74	15.17	9.22	-41.3	-41.6	12.4	1.15e-02	0	34	0	5872025600	49	14935
2026-01-11 13:23:26.75	14.95	9.26	-41.3	-41.6	12.3	1.15e-02	0	34	0	5989466112	49	14846
2026-01-11 13:23:27.76	14.72	9.31	-41.2	-41.5	12.3	1.31e-02	0	34	0	6106906624	49	14639
2026-01-11 13:23:28.77	14.50	9.35	-41.2	-41.5	12.3	1.31e-02	0	34	0	6215958528	49	14659
2026-01-11 13:23:29.78	14.27	9.40	-41.1	-41.5	12.4	1.61e-02	0	34	0	6325010432	49	14618
2026-01-11 13:23:30.79	14.04	9.44	-41.2	-41.5	12.3	1.61e-02	0	34	0	6442450944	49	14667
2026-01-11 13:23:31.80	13.82	9.49	-41.3	-41.6	12.3	1.61e-02	0	34	0	6551502848	49	14797
2026-01-11 13:23:32.80	13.59	9.53	-41.1	-41.4	12.4	1.55e-02	0	34	0	6668943360	49	14595
2026-01-11 13:23:33.81	13.36	9.57	-41.2	-41.5	12.4	1.55e-02	0	34	0	6786383872	49	14622
2026-01-11 13:23:34.82	13.13	9.62	-41.2	-41.5	12.4	1.08e-02	0	34	0	6895435776	49	14709
2026-01-11 13:23:35.83	12.90	9.66	-41.1	-41.4	12.4	1.08e-02	0	34	0	7012876288	49	14544
2026-01-11 13:23:36.84	12.67	9.70	-41.1	-41.4	12.5	1.08e-02	0	34	0	7121928192	49	14479
2026-01-11 13:23:37.84	12.44	9.74	-41.1	-41.5	12.4	1.02e-02	0	34	0	7230980096	49	14626
2026-01-11 13:23:38.85	12.20	9.79	-41.1	-41.4	12.4	1.02e-02	0	34	0	7348420608	49	14482
2026-01-11 13:23:39.86	11.97	9.83	-41.1	-41.4	12.4	1.02e-02	0	34	0	7465861120	49	14473
2026-01-11 13:23:40.86	11.73	9.87	-41.1	-41.4	12.4	9.42e-03	0	34	0	7574913024	49	14483
2026-01-11 13:23:41.87	11.50	9.91	-41.0	-41.3	12.4	9.42e-03	0	35	0	7692353536	49	14393
2026-01-11 13:23:42.88	11.26	9.95	-41.1	-41.4	12.4	9.42e-03	0	34	0	7801405440	49	14496
2026-01-11 13:23:43.89	11.02	9.99	-41.0	-41.3	12.5	9.02e-03	0	34	0	7910457344	49	14334
2026-01-11 13:23:44.90	10.78	10.03	-41.0	-41.3	12.5	9.02e-03	0	35	0	8036286464	49	14318
2026-01-11 13:23:45.91	10.55	10.07	-41.1	-41.4	12.4	9.02e-03	0	35	0	8145338368	49	14509
2026-01-11 13:23:46.92	10.31	10.11	-41.0	-41.3	12.4	8.66e-03	0	35	0	8254390272	49	14382
2026-01-11 13:23:47.93	10.06	10.15	-41.0	-41.3	12.5	8.66e-03	0	35	0	8371830784	49	14367
2026-01-11 13:23:48.93	9.82	10.19	-41.0	-41.3	12.4	8.29e-03	0	35	0	8480882688	49	14430
2026-01-11 13:23:49.94	9.58	10.23	-41.1	-41.4	12.4	8.29e-03	0	35	0	8598323200	49	14500
2026-01-11 13:23:50.95	9.34	10.27	-41.1	-41.4	12.4	8.29e-03	0	35	0	8707375104	49	14480
2026-01-11 13:23:51.95	9.10	10.30	-41.0	-41.3	12.5	8.53e-03	0	35	0	8816427008	49	14346
2026-01-11 13:23:52.96	8.85	10.34	-41.1	-41.4	12.4	8.53e-03	0	35	0	8942256128	49	14533
2026-01-11 13:23:53.96	8.61	10.38	-41.0	-41.4	12.4	8.53e-03	0	35	0	9051308032	49	14456
2026-01-11 13:23:54.97	8.36	10.42	-41.2	-41.5	12.4	8.72e-03	0	35	0	9160359936	49	14686
2026-01-11 13:23:55.97	8.12	10.45	-41.1	-41.4	12.4	8.72e-03	0	35	0	9277800448	49	14520
2026-01-11 13:23:56.97	7.87	10.49	-41.1	-41.4	12.4	8.85e-03	0	35	0	9386852352	49	14606
2026-01-11 13:23:57.97	7.63	10.52	-41.0	-41.3	12.5	8.85e-03	0	35	0	9504292864	49	14383
2026-01-11 13:23:58.97	7.38	10.56	-41.1	-41.4	12.4	8.68e-03	0	35	0	9613344768	49	14524
2026-01-11 13:23:59.97	7.13	10.59	-41.1	-41.4	12.4	8.68e-03	0	35	0	9722396672	49	14495
2026-01-11 13:24:00.97	6.88	10.63	-41.1	-41.5	12.4	8.68e-03	0	35	0	9839837184	49	14611
2026-01-11 13:24:01.98	6.63	10.66	-41.1	-41.4	12.4	8.66e-03	0	35	0	9948889088	49	14550
2026-01-11 13:24:02.97	6.38	10.69	-41.1	-41.4	12.4	8.66e-03	0	35	0	10066329600	49	14469
2026-01-11 13:24:03.97	6.13	10.73	-41.1	-41.4	12.4	8.66e-03	0	35	0	10175381504	49	14577
2026-01-11 13:24:04.97	5.88	10.76	-41.0	-41.2	12.5	8.66e-03	0	35	0	10284433408	49	14255
2026-01-11 13:24:05.97	5.63	10.79	-40.9	-41.2	12.5	7.71e-03	0	35	0	10401873920	49	14127
2026-01-11 13:24:06.98	5.37	10.82	-41.0	-41.2	12.4	7.71e-03	0	35	0	10510925824	48	15111
2026-01-11 13:24:07.98	5.12	10.86	-41.0	-41.3	12.4	7.53e-03	0	35	0	10628366336	48	15131
2026-01-11 13:24:08.99	4.86	10.89	-40.9	-41.2	12.4	7.53e-03	0	35	0	10737418240	48	15084
2026-01-11 13:24:09.98	4.61	10.92	-40.9	-41.2	12.4	7.53e-03	0	35	0	10854858752	48	15086
2026-01-11 13:24:10.98	4.36	10.95	-41.0	-41.3	12.4	7.57e-03	0	35	0	10963910656	48	15143
2026-01-11 13:24:11.98	4.10	10.98	-40.9	-41.2	12.4	7.57e-03	0	35	0	11072962560	48	15075
2026-01-11 13:24:12.98	3.84	11.01	-40.9	-41.2	12.4	7.57e-03	0	35	0	11190403072	48	14996
2026-01-11 13:24:13.99	3.58	11.04	-40.9	-41.2	12.4	7.95e-03	0	35	0	11299454976	48	15107
2026-01-11 13:24:14.99	3.33	11.07	-41.0	-41.3	12.3	7.95e-03	0	35	0	11416895488	48	15162
2026-01-11 13:24:16.00	3.06	11.09	-40.9	-41.2	12.4	7.87e-03	0	35	0	11534336000	48	14978
2026-01-11 13:24:17.01	2.80	11.12	-41.0	-41.3	12.3	7.87e-03	0	35	0	11643387904	48	15203
2026-01-11 13:24:18.01	2.54	11.15	-41.0	-41.3	12.3	7.87e-03	0	35	0	11752439808	48	15200
2026-01-11 13:24:19.02	2.28	11.18	-40.9	-41.2	12.3	8.91e-03	0	35	0	11869880320	48	15089
2026-01-11 13:24:20.02	2.02	11.20	-40.8	-41.1	12.4	8.91e-03	0	35	0	11978932224	48	14932
2026-01-11 13:24:21.03	1.76	11.23	-40.8	-41.1	12.4	8.12e-03	0	35	0	12096372736	48	14928
2026-01-11 13:24:22.04	1.49	11.25	-40.8	-41.1	12.4	8.12e-03	0	35	0	12205424640	48	14898
2026-01-11 13:24:23.05	1.23	11.28	-40.9	-41.2	12.3	8.03e-03	0	35	0	12322865152	48	15034
2026-01-11 13:24:24.06	0.96	11.30	-40.9	-41.2	12.3	8.03e-03	0	35	0	12440305664	48	15073
2026-01-11 13:24:25.07	0.69	11.33	-40.9	-41.2	12.3	8.03e-03	0	35	0	12549357568	48	15046
2026-01-11 13:24:26.08	0.43	11.35	-41.0	-41.3	12.3	8.65e-03	0	35	0	12658409472	48	15280
2026-01-11 13:24:27.09	0.16	11.38	-41.0	-41.3	12.3	8.65e-03	0	35	0	12775849984	48	15146
2026-01-11 13:24:28.10	359.89	11.40	-40.9	-41.2	12.3	8.65e-03	0	35	0	12884901888	48	15101
2026-01-11 13:24:29.11	359.62	11.42	-40.9	-41.2	12.3	9.29e-03	0	35	0	13002342400	48	15075
2026-01-11 13:24:30.12	359.35	11.44	-40.9	-41.2	12.3	9.29e-03	0	35	0	13119782912	48	15111
2026-01-11 13:24:31.12	359.09	11.46	-41.0	-41.3	12.3	9.29e-03	0	35	0	13228834816	48	15260
2026-01-11 13:24:32.13	358.82	11.48	-41.0	-41.3	12.3	1.02e-02	0	35	0	13346275328	48	15136
2026-01-11 13:24:33.14	358.55	11.50	-41.0	-41.3	12.3	1.02e-02	0	35	0	13455327232	48	15277
2026-01-11 13:24:34.15	358.28	11.52	-41.0	-41.3	12.2	1.02e-02	0	35	0	13564379136	48	15250
2026-01-11 13:24:35.16	358.01	11.54	-41.0	-41.4	12.2	1.11e-02	0	35	0	13681819648	48	15306
2026-01-11 13:24:36.17	357.73	11.56	-41.0	-41.3	12.3	1.11e-02	0	35	0	13799260160	48	15217
2026-01-11 13:24:37.17	357.47	11.58	-41.1	-41.4	12.2	1.11e-02	0	35	0	13908312064	48	15308
2026-01-11 13:24:38.18	357.19	11.60	-41.0	-41.3	12.2	1.11e-02	0	35	0	14025752576	48	15253
2026-01-11 13:24:39.19	356.92	11.61	-41.0	-41.3	12.2	1.11e-02	0	35	0	14134804480	48	15240
2026-01-11 13:24:40.19	356.65	11.63	-41.0	-41.4	12.2	1.11e-02	0	35	0	14252244992	48	15303
2026-01-11 13:24:41.20	356.38	11.65	-41.2	-41.5	12.2	1.10e-02	0	35	0	14361296896	48	15532
2026-01-11 13:24:42.21	356.10	11.66	-41.2	-41.5	12.2	1.10e-02	0	35	0	14478737408	48	15531
2026-01-11 13:24:43.22	355.83	11.68	-41.1	-41.5	12.2	1.10e-02	0	35	0	14587789312	48	15497
2026-01-11 13:24:44.23	355.55	11.69	-41.1	-41.5	12.2	1.24e-02	0	35	0	14705229824	48	15477
2026-01-11 13:24:45.23	355.28	11.71	-41.2	-41.5	12.1	1.24e-02	0	35	0	14814281728	48	15574
2026-01-11 13:24:46.24	355.01	11.72	-41.2	-41.5	12.1	1.24e-02	0	35	0	14931722240	48	15627
2026-01-11 13:24:47.25	354.73	11.73	-41.2	-41.5	12.1	1.24e-02	0	35	0	15040774144	48	15594
2026-01-11 13:24:48.26	354.46	11.74	-41.3	-41.6	12.1	1.33e-02	0	35	0	15158214656	48	15727
2026-01-11 13:24:49.27	354.18	11.76	-41.4	-41.7	12.1	1.33e-02	0	35	0	15275655168	48	15988
2026-01-11 13:24:50.28	353.90	11.77	-41.3	-41.6	12.1	1.33e-02	0	35	0	15384707072	48	15712
2026-01-11 13:24:51.28	353.63	11.78	-41.4	-41.7	12.1	1.51e-02	0	35	0	15493758976	48	15909
2026-01-11 13:24:52.29	353.35	11.79	-41.4	-41.8	12.1	1.51e-02	0	35	0	15611199488	48	16025
2026-01-11 13:24:53.30	353.07	11.80	-41.4	-41.8	12.1	1.54e-02	0	35	0	15720251392	48	16023
2026-01-11 13:24:54.31	352.80	11.81	-41.4	-41.7	12.1	1.54e-02	0	35	0	15837691904	48	16014
2026-01-11 13:24:55.31	352.52	11.81	-41.4	-41.7	12.1	1.54e-02	0	35	0	15955132416	48	15960
2026-01-11 13:24:56.31	352.25	11.82	-41.5	-41.8	12.1	1.54e-02	0	35	0	16064184320	48	16061
2026-01-11 13:24:57.32	351.97	11.83	-41.6	-41.9	12.1	1.54e-02	0	35	0	16181624832	49	15398
2026-01-11 13:24:58.33	351.69	11.84	-41.5	-41.8	12.1	1.51e-02	0	35	0	16290676736	49	15243
2026-01-11 13:24:59.34	351.41	11.84	-41.3	-41.6	12.2	1.51e-02	0	35	0	16399728640	49	14862
2026-01-11 13:25:00.35	351.14	11.85	-41.3	-41.6	12.2	1.40e-02	0	35	0	16517169152	49	14859
2026-01-11 13:25:01.35	350.86	11.85	-41.4	-41.7	12.2	1.40e-02	0	35	0	16626221056	49	14977
2026-01-11 13:25:02.36	350.58	11.86	-41.2	-41.5	12.3	1.40e-02	0	35	0	16743661568	49	14694
2026-01-11 13:25:03.37	350.30	11.86	-41.2	-41.5	12.3	1.13e-02	0	35	0	16861102080	49	14751
2026-01-11 13:25:04.38	350.02	11.87	-41.2	-41.5	12.3	1.13e-02	0	35	0	16970153984	49	14649
2026-01-11 13:25:05.38	349.75	11.87	-41.3	-41.6	12.3	1.14e-02	0	35	0	17079205888	49	14835
2026-01-11 13:25:06.39	349.47	11.87	-41.3	-41.6	12.3	1.14e-02	0	35	0	17196646400	49	14811
2026-01-11 13:25:07.39	349.19	11.87	-41.3	-41.6	12.3	1.14e-02	0	36	0	17305698304	49	14853
2026-01-11 13:25:08.40	348.91	11.87	-41.3	-41.6	12.3	1.13e-02	0	35	0	17423138816	49	14865
2026-01-11 13:25:09.41	348.64	11.87	-41.4	-41.7	12.2	1.13e-02	0	35	0	17540579328	49	15012
2026-01-11 13:25:10.41	348.36	11.87	-41.4	-41.7	12.2	1.13e-02	0	35	0	17649631232	49	15068
2026-01-11 13:25:11.42	348.08	11.87	-41.3	-41.6	12.3	1.17e-02	0	35	0	17767071744	49	14827
2026-01-11 13:25:12.43	347.80	11.87	-41.3	-41.6	12.3	1.17e-02	0	35	0	17876123648	49	14927
2026-01-11 13:25:13.43	347.53	11.87	-41.3	-41.6	12.3	1.17e-02	0	35	0	17985175552	49	14840
2026-01-11 13:25:14.44	347.25	11.87	-41.3	-41.6	12.3	1.07e-02	0	35	0	18102616064	49	14847
2026-01-11 13:25:15.45	346.97	11.87	-41.3	-41.6	12.3	1.07e-02	0	36	0	18211667968	49	14928
2026-01-11 13:25:16.46	346.69	11.86	-41.2	-41.5	12.4	1.07e-02	0	35	0	18329108480	49	14657
2026-01-11 13:25:17.47	346.41	11.86	-41.3	-41.6	12.3	1.07e-02	0	35	0	18446548992	49	14820
2026-01-11 13:25:18.48	346.13	11.85	-41.2	-41.5	12.4	1.07e-02	0	35	0	18555600896	49	14692
2026-01-11 13:25:19.49	345.85	11.85	-41.1	-41.4	12.4	1.00e-02	0	35	0	18673041408	49	14533
2026-01-11 13:25:20.49	345.58	11.84	-41.1	-41.4	12.4	1.00e-02	0	36	0	18782093312	49	14524
2026-01-11 13:25:21.50	345.30	11.84	-41.0	-41.3	12.4	1.00e-02	0	36	0	18891145216	49	14418
2026-01-11 13:25:22.51	345.02	11.83	-41.0	-41.3	12.5	9.21e-03	0	36	0	19008585728	49	14346
2026-01-11 13:25:23.51	344.75	11.82	-41.0	-41.3	12.4	9.21e-03	0	35	0	19126026240	49	14427
2026-01-11 13:25:24.52	344.47	11.82	-41.0	-41.3	12.4	9.76e-03	0	35	0	19235078144	49	14421
2026-01-11 13:25:25.52	344.19	11.81	-41.2	-41.5	12.4	9.76e-03	0	36	0	19352518656	49	14735
2026-01-11 13:25:26.53	343.92	11.80	-41.1	-41.5	12.4	9.76e-03	0	36	0	19461570560	49	14610
2026-01-11 13:25:27.54	343.64	11.79	-41.0	-41.4	12.4	1.09e-02	0	36	0	19579011072	49	14442
2026-01-11 13:25:28.55	343.36	11.78	-41.0	-41.3	12.4	1.09e-02	0	35	0	19688062976	49	14319
2026-01-11 13:25:29.56	343.09	11.77	-41.0	-41.3	12.4	9.08e-03	0	36	0	19805503488	49	14361
2026-01-11 13:25:30.57	342.81	11.76	-41.0	-41.3	12.4	9.08e-03	0	36	0	19914555392	49	14401
2026-01-11 13:25:31.58	342.53	11.74	-41.0	-41.3	12.4	9.08e-03	0	36	0	20031995904	49	14407
2026-01-11 13:25:32.58	342.26	11.73	-41.0	-41.3	12.4	9.61e-03	0	36	0	20141047808	49	14281
2026-01-11 13:25:33.59	341.98	11.72	-41.1	-41.4	12.4	9.61e-03	0	36	0	20258488320	49	14583
2026-01-11 13:25:34.60	341.71	11.71	-41.0	-41.3	12.4	9.61e-03	0	36	0	20367540224	49	14303
2026-01-11 13:25:35.61	341.43	11.69	-41.0	-41.3	12.4	1.05e-02	0	36	0	20484980736	49	14362
2026-01-11 13:25:36.62	341.16	11.68	-41.0	-41.3	12.5	1.05e-02	0	36	0	20602421248	49	14309
2026-01-11 13:25:37.62	340.89	11.66	-41.0	-41.3	12.4	1.05e-02	0	36	0	20711473152	49	14371
2026-01-11 13:25:38.63	340.61	11.65	-41.1	-41.4	12.3	1.07e-02	0	36	0	20820525056	49	14497
2026-01-11 13:25:39.63	340.34	11.63	-41.1	-41.4	12.4	1.07e-02	0	36	0	20937965568	49	14472
2026-01-11 13:25:40.63	340.07	11.62	-41.0	-41.3	12.5	1.22e-02	0	36	0	21047017472	49	14360
2026-01-11 13:25:41.64	339.80	11.60	-41.1	-41.4	12.4	1.22e-02	0	36	0	21164457984	49	14543
2026-01-11 13:25:42.64	339.53	11.58	-41.1	-41.4	12.4	1.22e-02	0	36	0	21273509888	49	14539
2026-01-11 13:25:43.65	339.26	11.56	-41.2	-41.5	12.4	9.40e-03	0	36	0	21382561792	49	14666
2026-01-11 13:25:44.65	338.99	11.54	-41.0	-41.3	12.5	9.40e-03	0	36	0	21508390912	49	14413
2026-01-11 13:25:45.65	338.72	11.52	-41.0	-41.3	12.4	9.40e-03	0	36	0	21617442816	49	14397
2026-01-11 13:25:46.66	338.45	11.51	-41.0	-41.4	12.4	9.17e-03	0	36	0	21726494720	49	14468
2026-01-11 13:25:47.67	338.18	11.48	-41.1	-41.4	12.4	9.17e-03	0	36	0	21843935232	49	14590
2026-01-11 13:25:48.67	337.91	11.46	-41.1	-41.4	12.4	9.17e-03	0	36	0	21952987136	49	14557
2026-01-11 13:25:49.68	337.64	11.44	-41.1	-41.4	12.4	9.15e-03	0	36	0	22070427648	49	14590
2026-01-11 13:25:50.69	337.37	11.42	-41.2	-41.5	12.4	9.15e-03	0	36	0	22179479552	49	14739
2026-01-11 13:25:51.70	337.10	11.40	-41.1	-41.4	12.4	9.15e-03	0	36	0	22288531456	49	14503
2026-01-11 13:25:52.70	336.84	11.38	-41.1	-41.4	12.4	9.82e-03	0	36	0	22405971968	49	14571
2026-01-11 13:25:53.71	336.57	11.35	-41.1	-41.4	12.4	9.82e-03	0	36	0	22523412480	49	14477
2026-01-11 13:25:54.71	336.31	11.33	-41.0	-41.3	12.4	9.82e-03	0	36	0	22632464384	49	14396
2026-01-11 13:25:55.72	336.04	11.31	-41.0	-41.4	12.4	9.59e-03	0	36	0	22749904896	49	14491
2026-01-11 13:25:56.73	335.77	11.28	-41.2	-41.5	12.4	9.59e-03	0	36	0	22858956800	49	14736
2026-01-11 13:25:57.73	335.51	11.26	-41.1	-41.4	12.4	9.47e-03	0	36	0	22976397312	49	14528
2026-01-11 13:25:58.72	335.25	11.23	-41.2	-41.5	12.4	9.47e-03	0	35	0	23085449216	49	14639
2026-01-11 13:25:59.72	334.99	11.21	-41.1	-41.4	12.4	9.47e-03	0	36	0	23194501120	49	14600
2026-01-11 13:26:00.72	334.73	11.18	-41.0	-41.3	12.4	9.78e-03	0	36	0	23311941632	49	14399
2026-01-11 13:26:01.73	334.47	11.15	-41.1	-41.4	12.4	9.78e-03	0	36	0	23420993536	49	14488
2026-01-11 13:26:02.74	334.20	11.12	-41.0	-41.4	12.3	9.78e-03	0	36	0	23538434048	49	14451
2026-01-11 13:26:03.74	333.94	11.10	-41.0	-41.3	12.4	1.27e-02	0	36	0	23647485952	49	14419
2026-01-11 13:26:04.75	333.68	11.07	-41.1	-41.4	12.4	1.27e-02	0	36	0	23756537856	49	14532
2026-01-11 13:26:05.76	333.42	11.04	-41.1	-41.5	12.4	9.81e-03	0	36	0	23882366976	49	14626
2026-01-11 13:26:06.77	333.16	11.01	-41.1	-41.4	12.4	9.81e-03	0	36	0	23991418880	49	14515
2026-01-11 13:26:07.77	332.91	10.98	-41.1	-41.4	12.4	9.81e-03	0	36	0	24100470784	49	14547
2026-01-11 13:26:08.77	332.65	10.95	-41.1	-41.5	12.4	9.81e-03	0	36	0	24217911296	49	14619
2026-01-11 13:26:09.77	332.39	10.92	-41.1	-41.5	12.4	1.02e-02	0	36	0	24326963200	49	14610
2026-01-11 13:26:10.78	332.14	10.89	-41.2	-41.5	12.4	1.02e-02	0	36	0	24444403712	49	14692
2026-01-11 13:26:11.78	331.88	10.86	-41.1	-41.5	12.4	1.15e-02	0	36	0	24553455616	49	14627
2026-01-11 13:26:12.77	331.63	10.83	-41.2	-41.5	12.3	1.15e-02	0	36	0	24662507520	49	14733
2026-01-11 13:26:13.78	331.38	10.80	-41.2	-41.5	12.3	1.15e-02	0	36	0	24779948032	49	14769
2026-01-11 13:26:14.79	331.12	10.76	-41.2	-41.5	12.3	1.17e-02	0	36	0	24888999936	49	14727
2026-01-11 13:26:15.79	330.87	10.73	-41.2	-41.5	12.3	1.17e-02	0	36	0	25006440448	49	14752
2026-01-11 13:26:16.80	330.62	10.70	-41.2	-41.6	12.3	1.17e-02	0	36	0	25115492352	49	14856
2026-01-11 13:26:17.80	330.37	10.66	-41.2	-41.5	12.3	1.17e-02	0	36	0	25232932864	49	14765
2026-01-11 13:26:18.81	330.11	10.63	-41.1	-41.5	12.4	1.32e-02	0	36	0	25350373376	49	14632
2026-01-11 13:26:19.81	329.87	10.60	-41.2	-41.5	12.3	1.32e-02	0	36	0	25459425280	49	14695
2026-01-11 13:26:20.81	329.62	10.56	-41.4	-41.7	12.3	1.20e-02	0	36	0	25568477184	49	15009
2026-01-11 13:26:21.82	329.37	10.53	-41.3	-41.6	12.3	1.20e-02	0	36	0	25685917696	49	14815
2026-01-11 13:26:22.83	329.12	10.49	-41.3	-41.6	12.3	1.20e-02	0	36	0	25794969600	49	14931
2026-01-11 13:26:23.84	328.87	10.45	-41.4	-41.7	12.3	1.20e-02	0	36	0	25912410112	49	14986
2026-01-11 13:26:24.84	328.62	10.42	-41.5	-41.8	12.2	1.39e-02	0	36	0	26021462016	49	15268
2026-01-11 13:26:25.84	328.38	10.38	-41.4	-41.7	12.3	1.39e-02	0	36	0	26130513920	49	15034
2026-01-11 13:26:26.84	328.14	10.34	-41.4	-41.8	12.3	1.39e-02	0	36	0	26247954432	49	15122
2026-01-11 13:26:27.85	327.89	10.31	-41.8	-42.2	12.1	1.30e-02	0	36	0	26357006336	49	15908
2026-01-11 13:26:28.85	327.65	10.27	-41.4	-41.8	12.2	1.30e-02	0	36	0	26474446848	49	15181
2026-01-11 13:26:29.85	327.41	10.23	-41.5	-41.8	12.2	1.35e-02	0	36	0	26583498752	49	15270
2026-01-11 13:26:30.86	327.17	10.19	-41.3	-41.7	12.3	1.35e-02	0	36	0	26700939264	49	14990
2026-01-11 13:26:31.87	326.92	10.15	-41.4	-41.7	12.3	1.21e-02	0	36	0	26818379776	49	15032
2026-01-11 13:26:32.87	326.68	10.11	-41.4	-41.7	12.3	1.21e-02	0	36	0	26927431680	49	15064
2026-01-11 13:26:33.88	326.44	10.07	-41.4	-41.7	12.3	1.21e-02	0	36	0	27036483584	49	15079
2026-01-11 13:26:34.88	326.21	10.04	-41.4	-41.7	12.3	1.31e-02	0	36	0	27153924096	49	15065
2026-01-11 13:26:35.89	325.97	9.99	-41.4	-41.8	12.3	1.31e-02	0	36	0	27262976000	49	15149
2026-01-11 13:26:36.89	325.73	9.95	-41.3	-41.7	12.3	1.29e-02	0	36	0	27380416512	49	14992
2026-01-11 13:26:37.89	325.50	9.91	-41.4	-41.8	12.3	1.29e-02	0	36	0	27489468416	49	15137
2026-01-11 13:26:38.89	325.26	9.87	-41.5	-41.9	12.1	1.29e-02	0	36	0	27598520320	49	15317
2026-01-11 13:26:39.90	325.03	9.83	-41.6	-42.0	12.1	2.43e-02	0	36	0	27715960832	49	15544
2026-01-11 13:26:40.89	324.80	9.79	-41.3	-41.7	12.2	2.43e-02	0	36	0	27825012736	49	14958
2026-01-11 13:26:41.90	324.56	9.75	-41.3	-41.7	12.2	2.43e-02	0	36	0	27942453248	49	14964
2026-01-11 13:26:42.90	324.33	9.71	-41.3	-41.6	12.2	2.77e-02	0	36	0	28059893760	49	14895
2026-01-11 13:26:43.90	324.10	9.66	-41.3	-41.7	12.2	2.77e-02	0	36	0	28168945664	49	14981
2026-01-11 13:26:44.91	323.87	9.62	-41.3	-41.6	12.2	2.77e-02	0	36	0	28286386176	49	14894
2026-01-11 13:26:45.91	323.64	9.58	-41.3	-41.6	12.2	2.62e-02	0	36	0	28395438080	49	14910
2026-01-11 13:26:46.91	323.41	9.54	-41.3	-41.6	12.2	2.62e-02	0	36	0	28504489984	49	14942
2026-01-11 13:26:47.92	323.18	9.49	-41.3	-41.7	12.2	2.56e-02	0	36	0	28621930496	49	14992
2026-01-11 13:26:48.92	322.96	9.45	-41.4	-41.8	12.1	2.56e-02	0	36	0	28730982400	49	15136
2026-01-11 13:26:49.93	322.73	9.40	-41.3	-41.6	12.2	2.75e-02	0	36	0	28848422912	49	14867
2026-01-11 13:26:50.93	322.51	9.36	-41.3	-41.7	12.2	2.75e-02	0	36	0	28957474816	49	14949
2026-01-11 13:26:51.93	322.28	9.32	-41.3	-41.6	12.2	2.75e-02	0	36	0	29066526720	49	14895
2026-01-11 13:26:52.94	322.06	9.27	-41.4	-41.7	12.2	2.74e-02	0	36	0	29183967232	49	15060
2026-01-11 13:26:53.94	321.84	9.23	-41.3	-41.6	12.2	2.74e-02	0	36	0	29293019136	49	14882
2026-01-11 13:26:54.94	321.62	9.18	-41.4	-41.7	12.2	2.76e-02	0	36	0	29410459648	49	15017
2026-01-11 13:26:55.94	321.40	9.13	-41.4	-41.8	12.1	2.76e-02	0	36	0	29519511552	49	15179
2026-01-11 13:26:56.95	321.18	9.09	-41.5	-41.8	12.1	2.76e-02	0	36	0	29628563456	49	15289
2026-01-11 13:26:57.95	320.96	9.04	-41.5	-41.9	12.1	2.76e-02	0	36	0	29746003968	49	15340
2026-01-11 13:26:58.95	320.74	9.00	-41.6	-41.9	12.1	2.76e-02	0	36	0	29855055872	49	15449
2026-01-11 13:26:59.95	320.52	8.95	-41.7	-42.1	12.1	3.07e-02	0	36	0	29972496384	49	15653
2026-01-11 13:27:00.95	320.31	8.90	-41.5	-41.9	12.1	3.07e-02	0	36	0	30081548288	49	15359
2026-01-11 13:27:01.95	320.09	8.86	-41.5	-41.9	12.1	3.20e-02	0	36	0	30198988800	49	15328
2026-01-11 13:27:02.95	319.88	8.81	-41.6	-42.0	12.1	3.20e-02	0	36	0	30316429312	49	15478
2026-01-11 13:27:03.96	319.66	8.76	-41.6	-42.0	12.1	3.20e-02	0	36	0	30425481216	49	15504
2026-01-11 13:27:04.97	319.45	8.72	-41.5	-41.9	12.1	3.16e-02	0	36	0	30534533120	49	15383
2026-01-11 13:27:05.98	319.24	8.67	-41.6	-41.9	12.1	3.16e-02	0	36	0	30651973632	49	15444
2026-01-11 13:27:06.99	319.02	8.62	-41.6	-42.0	12.1	3.16e-02	0	36	0	30761025536	49	15540
2026-01-11 13:27:07.99	318.81	8.57	-41.6	-42.0	12.1	3.32e-02	0	36	0	30878466048	49	15503
2026-01-11 13:27:08.99	318.60	8.52	-41.7	-42.0	12.1	3.32e-02	0	36	0	30987517952	49	15603
2026-01-11 13:27:10.00	318.39	8.47	-41.7	-42.0	12.0	3.46e-02	0	36	0	31096569856	49	15633
2026-01-11 13:27:11.00	318.19	8.43	-41.7	-42.1	12.0	3.46e-02	0	36	0	31214010368	49	15735
2026-01-11 13:27:12.01	317.98	8.38	-41.8	-42.1	12.0	3.46e-02	0	36	0	31331450880	49	15819
2026-01-11 13:27:13.02	317.77	8.33	-41.8	-42.2	12.0	3.47e-02	0	36	0	31440502784	49	15885
2026-01-11 13:27:14.02	317.57	8.28	-41.8	-42.2	12.0	3.47e-02	0	36	0	31557943296	49	15860
2026-01-11 13:27:15.02	317.36	8.23	-41.8	-42.1	12.0	3.47e-02	0	36	0	31666995200	49	15815
2026-01-11 13:27:16.03	317.16	8.18	-41.8	-42.2	12.0	3.80e-02	0	36	0	31784435712	49	15860
2026-01-11 13:27:17.03	316.96	8.13	-41.8	-42.2	12.0	3.80e-02	0	36	0	31893487616	49	15909
2026-01-11 13:27:18.03	316.75	8.08	-41.9	-42.3	12.0	3.80e-02	0	36	0	32002539520	49	16102
2026-01-11 13:27:19.04	316.55	8.03	-41.9	-42.3	12.0	3.84e-02	0	36	0	32119980032	49	16072
2026-01-11 13:27:20.04	316.35	7.98	-42.1	-42.4	11.9	3.84e-02	0	36	0	32229031936	49	16344
2026-01-11 13:27:21.05	316.15	7.93	-42.0	-42.4	11.9	3.84e-02	0	36	0	32346472448	49	16224
2026-01-11 13:27:22.06	315.95	7.88	-42.0	-42.4	11.9	3.95e-02	0	36	0	32463912960	49	16328
2026-01-11 13:27:23.06	315.76	7.83	-42.1	-42.5	12.0	3.95e-02	0	36	0	32572964864	50	15579
2026-01-11 13:27:24.06	315.56	7.78	-42.1	-42.5	12.0	4.02e-02	0	36	0	32690405376	50	15509
2026-01-11 13:27:25.06	315.37	7.73	-42.1	-42.5	11.9	4.02e-02	0	36	0	32799457280	50	15537
2026-01-11 13:27:26.06	315.17	7.68	-42.2	-42.5	11.9	4.02e-02	0	36	0	32908509184	50	15576
2026-01-11 13:27:27.06	314.98	7.63	-42.2	-42.5	11.9	4.05e-02	0	36	0	33025949696	50	15611
2026-01-11 13:27:28.07	314.78	7.57	-42.2	-42.5	11.9	4.05e-02	0	36	0	33135001600	50	15600
2026-01-11 13:27:29.07	314.59	7.52	-42.2	-42.6	11.9	4.21e-02	0	36	0	33252442112	50	15751
2026-01-11 13:27:30.08	314.40	7.47	-42.4	-42.7	11.9	4.21e-02	0	36	0	33361494016	50	15998
2026-01-11 13:27:31.09	314.21	7.42	-42.4	-42.7	11.9	4.21e-02	0	36	0	33470545920	50	15949
2026-01-11 13:27:32.09	314.02	7.37	-42.5	-42.9	11.8	4.35e-02	0	36	0	33587986432	50	16225
2026-01-11 13:27:33.10	313.83	7.32	-42.5	-42.8	11.8	4.35e-02	0	36	0	33697038336	50	16152
2026-01-11 13:27:34.10	313.64	7.26	-42.4	-42.8	11.8	4.35e-02	0	36	0	33814478848	50	16110
2026-01-11 13:27:35.11	313.45	7.21	-42.4	-42.8	11.8	4.49e-02	0	36	0	33931919360	50	16080
2026-01-11 13:27:36.12	313.26	7.16	-42.5	-42.9	11.8	4.49e-02	0	36	0	34040971264	50	16234
2026-01-11 13:27:37.12	313.08	7.11	-42.5	-42.8	11.8	4.38e-02	0	36	0	34158411776	50	16139
2026-01-11 13:27:38.13	312.89	7.06	-42.4	-42.8	11.8	4.38e-02	0	36	0	34267463680	50	16157
2026-01-11 13:27:39.13	312.71	7.00	-42.7	-43.0	11.8	4.38e-02	0	36	0	34376515584	51	15635
2026-01-11 13:27:40.14	312.53	6.95	-42.7	-43.0	11.8	4.54e-02	0	36	0	34493956096	51	15597
2026-01-11 13:27:41.15	312.34	6.90	-42.6	-43.0	11.8	4.54e-02	0	37	0	34603008000	51	15569
2026-01-11 13:27:42.15	312.16	6.84	-42.7	-43.1	11.8	4.52e-02	0	36	0	34720448512	51	15788
2026-01-11 13:27:43.16	311.98	6.79	-42.7	-43.1	11.8	4.52e-02	0	36	0	34837889024	51	15665
2026-01-11 13:27:44.16	311.80	6.74	-42.7	-43.1	11.8	4.52e-02	0	36	0	34946940928	51	15784
2026-01-11 13:27:45.17	311.62	6.69	-42.8	-43.1	11.8	4.63e-02	0	36	0	35064381440	51	15812
2026-01-11 13:27:46.17	311.44	6.63	-42.6	-43.0	11.8	4.63e-02	0	36	0	35173433344	51	15553
2026-01-11 13:27:47.18	311.26	6.58	-42.8	-43.2	11.7	4.48e-02	0	36	0	35282485248	51	15931
2026-01-11 13:27:48.18	311.09	6.53	-42.8	-43.1	11.8	4.48e-02	0	36	0	35399925760	51	15822
2026-01-11 13:27:49.19	310.91	6.47	-42.6	-43.0	11.8	4.48e-02	0	36	0	35508977664	51	15525
2026-01-11 13:27:50.19	310.74	6.42	-43.0	-43.3	11.7	4.64e-02	0	36	0	35626418176	51	16158
2026-01-11 13:27:51.20	310.56	6.37	-42.5	-42.9	11.9	4.64e-02	0	36	0	35735470080	51	15331
2026-01-11 13:27:52.21	310.39	6.31	-42.6	-42.9	11.8	4.64e-02	0	36	0	35852910592	51	15412
2026-01-11 13:27:53.21	310.22	6.26	-42.6	-42.9	11.9	4.32e-02	0	36	0	35961962496	51	15427
2026-01-11 13:27:54.22	310.04	6.21	-42.8	-43.2	11.8	4.32e-02	0	36	0	36079403008	51	15878
2026-01-11 13:27:55.22	309.87	6.15	-42.7	-43.0	11.8	4.27e-02	0	36	0	36188454912	51	15635
2026-01-11 13:27:56.22	309.70	6.10	-42.7	-43.1	11.8	4.27e-02	0	36	0	36305895424	51	15695
2026-01-11 13:27:57.22	309.54	6.05	-42.8	-43.2	11.8	4.27e-02	0	36	0	36414947328	51	15868
2026-01-11 13:27:58.23	309.37	5.99	-43.0	-43.3	11.7	4.27e-02	0	36	0	36532387840	51	16188
2026-01-11 13:27:59.23	309.20	5.94	-42.8	-43.1	11.8	4.33e-02	0	36	0	36641439744	51	15829
2026-01-11 13:28:00.24	309.03	5.88	-43.2	-43.6	11.6	4.33e-02	0	36	0	36750491648	52	15688
2026-01-11 13:28:01.25	308.86	5.83	-42.9	-43.3	11.7	4.75e-02	0	36	0	36867932160	52	15153
2026-01-11 13:28:02.25	308.70	5.78	-43.1	-43.5	11.6	4.75e-02	0	36	0	36976984064	52	15581
2026-01-11 13:28:03.25	308.54	5.72	-42.9	-43.2	11.8	4.79e-02	0	36	0	37094424576	52	15093
2026-01-11 13:28:04.26	308.37	5.67	-42.8	-43.1	11.8	4.79e-02	0	36	0	37211865088	52	14912
2026-01-11 13:28:05.27	308.21	5.61	-42.9	-43.2	11.8	4.79e-02	0	36	0	37320916992	52	15090
2026-01-11 13:28:06.28	308.04	5.56	-42.8	-43.1	11.8	4.48e-02	0	36	0	37429968896	52	14892
2026-01-11 13:28:07.28	307.88	5.51	-42.8	-43.1	11.8	4.48e-02	0	36	0	37547409408	52	14939
2026-01-11 13:28:08.28	307.72	5.45	-43.2	-43.6	11.6	4.48e-02	0	36	0	37656461312	52	15777
2026-01-11 13:28:09.28	307.56	5.40	-43.1	-43.4	11.7	5.03e-02	0	36	0	37773901824	52	15450
2026-01-11 13:28:10.29	307.40	5.34	-43.1	-43.5	11.7	5.03e-02	0	36	0	37882953728	52	15538
2026-01-11 13:28:11.29	307.24	5.29	-43.1	-43.5	11.7	5.03e-02	0	36	0	38000394240	52	15573
2026-01-11 13:28:12.30	307.09	5.24	-43.4	-43.8	11.5	5.17e-02	0	36	0	38109446144	52	16113
2026-01-11 13:28:13.30	306.93	5.18	-43.1	-43.5	11.6	5.17e-02	0	36	0	38218498048	52	15557
2026-01-11 13:28:14.30	306.77	5.13	-43.3	-43.6	11.6	5.17e-02	0	37	0	38335938560	52	15804
2026-01-11 13:28:15.31	306.62	5.07	-43.2	-43.5	11.6	5.59e-02	0	36	0	38453379072	52	15644
2026-01-11 13:28:16.32	306.46	5.02	-43.4	-43.8	11.5	5.59e-02	0	36	0	38562430976	52	16086
2026-01-11 13:28:17.33	306.31	4.96	-57.5	-60.6	6.2	4.20e-02	0	36	104	38612762624	80	22167
2026-01-11 13:28:18.33	306.15	4.91	-58.0	-61.1	6.1	4.20e-02	0	36	104	38612762624	81	22220
2026-01-11 13:28:19.34	306.00	4.85	-58.3	-61.5	6.2	4.20e-02	0	36	104	38612762624	82	21971
2026-01-11 13:28:20.35	305.85	4.80	-58.6	-61.8	6.1	4.20e-02	0	35	104	38612762624	82	22825
2026-01-11 13:28:21.36	305.70	4.75	-58.8	-62.0	6.1	4.20e-02	0	36	104	38612762624	83	22107
2026-01-11 13:28:22.36	305.55	4.69	-58.9	-62.1	6.2	0.00e+00	0	36	104	38612762624	83	22287
2026-01-11 13:28:23.37	305.40	4.64	-59.0	-62.3	6.1	0.00e+00	0	35	104	38612762624	83	22668
2026-01-11 13:28:24.38	305.25	4.58	-59.3	-62.5	6.2	0.00e+00	0	35	104	38612762624	84	22064
2026-01-11 13:28:25.39	305.10	4.53	-59.4	-62.7	6.2	0.00e+00	0	35	104	38612762624	84	22379
2026-01-11 13:28:26.39	304.95	4.47	-59.5	-62.7	6.1	0.00e+00	0	35	104	38612762624	84	22584
2026-01-11 13:28:27.40	304.80	4.42	-59.6	-62.8	6.1	0.00e+00	0	36	104	38612762624	84	22692
2026-01-11 13:28:28.41	304.66	4.36	-59.6	-62.9	6.1	0.00e+00	0	35	104	38612762624	84	22954
2026-01-11 13:28:29.42	304.51	4.31	-59.7	-62.9	6.2	0.00e+00	0	35	104	38612762624	85	21752
2026-01-11 13:28:30.42	304.36	4.26	-59.8	-63.0	6.2	0.00e+00	0	35	104	38612762624	85	21943
2026-01-11 13:28:31.43	304.22	4.20	-59.8	-63.0	6.2	0.00e+00	0	35	104	38612762624	85	22085
2026-01-11 13:28:32.44	304.08	4.15	-59.8	-63.0	6.2	0.00e+00	0	35	104	38612762624	85	22100
2026-01-11 13:28:33.46	303.93	4.09	-59.8	-63.1	6.2	0.00e+00	0	35	104	38612762624	85	22111
2026-01-11 13:28:34.46	303.79	4.04	-59.8	-63.1	6.2	0.00e+00	0	35	104	38612762624	85	22117
2026-01-11 13:28:35.47	303.65	3.98	-59.8	-63.0	6.1	0.00e+00	0	35	104	38612762624	85	22085
2026-01-11 13:28:36.48	303.51	3.93	-59.8	-63.1	6.2	0.00e+00	0	35	104	38612762624	85	22187
2026-01-11 13:28:37.49	303.37	3.87	-59.9	-63.1	6.2	0.00e+00	0	35	104	38612762624	85	22205
2026-01-11 13:28:38.50	303.23	3.82	-59.9	-63.1	6.1	0.00e+00	0	35	104	38612762624	85	22234
2026-01-11 13:28:39.50	303.09	3.76	-59.9	-63.1	6.1	0.00e+00	0	35	104	38612762624	85	22223
2026-01-11 13:28:40.51	302.95	3.71	-59.8	-63.0	6.2	0.00e+00	0	35	104	38612762624	85	22097
2026-01-11 13:28:41.51	302.81	3.66	-59.8	-63.0	6.2	0.00e+00	0	35	104	38612762624	85	22071
2026-01-11 13:28:42.52	302.67	3.60	-59.8	-63.0	6.1	0.00e+00	0	35	104	38612762624	85	22066
2026-01-11 13:28:43.52	302.54	3.55	-59.7	-63.0	6.2	0.00e+00	0	35	104	38612762624	85	21935
2026-01-11 13:28:44.53	302.40	3.49	-59.7	-62.9	6.1	0.00e+00	0	35	104	38612762624	85	21844
2026-01-11 13:28:45.54	302.27	3.44	-59.7	-63.0	6.2	0.00e+00	0	35	104	38612762624	85	21885
2026-01-11 13:28:46.54	302.13	3.38	-59.7	-62.9	6.2	0.00e+00	0	35	104	38612762624	85	21720
2026-01-11 13:28:47.55	302.00	3.33	-59.7	-63.0	6.2	0.00e+00	0	35	104	38612762624	85	21859
2026-01-11 13:28:48.56	301.87	3.27	-59.7	-62.9	6.1	0.00e+00	0	35	104	38612762624	85	21768
2026-01-11 13:28:49.57	301.73	3.22	-59.7	-62.9	6.2	0.00e+00	0	35	104	38612762624	85	21737
2026-01-11 13:28:50.57	301.60	3.17	-59.7	-62.9	6.2	0.00e+00	0	35	104	38612762624	85	21733
2026-01-11 13:28:51.58	301.47	3.11	-59.7	-62.9	6.1	0.00e+00	0	35	104	38612762624	85	21720
2026-01-11 13:28:52.59	301.34	3.06	-59.6	-62.9	6.2	0.00e+00	0	35	104	38612762624	85	21727
2026-01-11 13:28:53.60	301.21	3.00	-59.6	-62.9	6.2	0.00e+00	0	35	104	38612762624	85	21656
2026-01-11 13:28:54.61	301.08	2.95	-59.6	-62.9	6.2	0.00e+00	0	35	104	38612762624	85	21700
2026-01-11 13:28:55.61	300.95	2.90	-59.6	-62.9	6.1	0.00e+00	0	34	104	38612762624	85	21674
2026-01-11 13:28:56.62	300.82	2.84	-59.6	-62.9	6.2	0.00e+00	0	35	104	38612762624	85	21656
2026-01-11 13:28:57.63	300.70	2.79	-59.6	-62.9	6.2	0.00e+00	0	35	104	38612762624	85	21657
2026-01-11 13:28:58.64	300.57	2.73	-59.6	-62.8	6.2	0.00e+00	0	34	104	38612762624	85	21554
2026-01-11 13:28:59.64	300.44	2.68	-59.6	-62.8	6.2	0.00e+00	0	34	104	38612762624	85	21580
2026-01-11 13:29:00.65	300.32	2.62	-59.6	-62.9	6.1	0.00e+00	0	34	104	38612762624	85	21614
2026-01-11 13:29:01.65	300.19	2.57	-59.6	-62.8	6.2	0.00e+00	0	35	104	38612762624	85	21561
2026-01-11 13:29:02.66	300.07	2.52	-59.6	-62.8	6.2	0.00e+00	0	35	104	38612762624	85	21558
2026-01-11 13:29:03.67	299.94	2.46	-59.6	-62.8	6.2	0.00e+00	0	35	104	38612762624	85	21551
2026-01-11 13:29:04.68	299.82	2.41	-59.6	-62.8	6.2	0.00e+00	0	34	104	38612762624	85	21595
2026-01-11 13:29:05.69	299.70	2.35	-59.6	-62.8	6.1	0.00e+00	0	34	104	38612762624	85	21577
2026-01-11 13:29:06.69	299.58	2.30	-59.6	-62.8	6.1	0.00e+00	0	34	104	38612762624	85	21562
2026-01-11 13:29:07.70	299.45	2.25	-59.6	-62.8	6.1	0.00e+00	0	34	104	38612762624	85	21487
2026-01-11 13:29:08.71	299.33	2.19	-59.6	-62.8	6.2	0.00e+00	0	34	104	38612762624	85	21482
2026-01-11 13:29:09.72	299.21	2.14	-59.6	-62.8	6.1	0.00e+00	0	34	104	38612762624	85	21522
2026-01-11 13:29:10.72	299.09	2.09	-59.6	-62.8	6.2	0.00e+00	0	34	104	38612762624	85	21439
2026-01-11 13:29:11.73	298.97	2.03	-59.6	-62.8	6.2	0.00e+00	0	34	104	38612762624	85	21460
2026-01-11 13:29:12.74	298.85	1.98	-59.5	-62.8	6.2	0.00e+00	0	34	104	38612762624	85	21453
2026-01-11 13:29:13.75	298.73	1.93	-59.5	-62.8	6.1	0.00e+00	0	34	104	38612762624	85	21427

#Closed at: 2026-01-11 13:29:14
#Recorded file [38612 MB]: D:/lorett/data/31004_260111_162109.dat