passes_logs/2026/01/11/R3.2S_Murmansk/R3.2S_Murmansk__20260111_042647_NOAA_20_JPSS-1_rec.log

#Pass ID: 20260111_042647_NOAA 20 (JPSS-1)
#Satellite: NOAA 20 (JPSS-1)
#Configuration: NOAA 20
#almurnet v.1.7.20251203
#Start time: 2026-01-11 04:26:49

#Version: 2.2.20231116
#Station: R3.2S_Murmansk
#Location: 33.079688 lon 68.888172 lat
#TLE: 1 43013U 17073A   26009.69119415  .00000109  00000+0  72598-4 0  9996
#TLE: 2 43013  98.7631 310.6868 0001678  46.7442 313.3874 14.19534878421981

#Time	Az	El	Level	Level2	SNR	BER	BlckErr	Temp	State	Recorded	gain1	gain2
2026-01-11 04:26:49.22	52.21	2.12	-57.4	-73.4	3.8	1.49e+00	0	23	0	0	81	22025
2026-01-11 04:26:50.21	52.15	2.17	-57.3	-73.3	3.8	1.49e+00	0	23	104	0	79	24667
2026-01-11 04:26:51.20	52.08	2.23	-57.3	-73.3	3.8	1.49e+00	0	23	104	0	79	24598
2026-01-11 04:26:52.19	52.02	2.29	-57.3	-73.3	3.8	1.49e+00	0	23	104	0	79	24637
2026-01-11 04:26:53.19	51.96	2.35	-57.3	-73.3	3.8	1.49e+00	0	23	104	0	79	24684
2026-01-11 04:26:54.18	51.90	2.40	-57.3	-73.3	3.8	1.49e+00	0	23	104	0	79	24568
2026-01-11 04:26:55.16	51.83	2.46	-57.3	-73.3	3.8	1.49e+00	0	23	104	0	79	24566
2026-01-11 04:26:56.15	51.77	2.52	-57.3	-73.3	3.8	1.49e+00	0	23	104	0	79	24576
2026-01-11 04:26:57.15	51.70	2.57	-57.3	-73.3	3.8	1.49e+00	0	23	104	0	79	24537
2026-01-11 04:26:58.15	51.64	2.63	-57.3	-73.3	3.8	1.49e+00	0	23	104	0	79	24526
2026-01-11 04:26:59.15	51.58	2.69	-57.3	-73.3	3.8	1.49e+00	0	23	104	0	79	24556
2026-01-11 04:27:00.14	51.51	2.75	-57.3	-73.3	3.8	1.49e+00	0	23	104	0	79	24589
2026-01-11 04:27:01.14	51.45	2.81	-57.3	-73.3	3.8	1.49e+00	0	23	104	0	79	24589
2026-01-11 04:27:02.14	51.38	2.86	-57.3	-73.3	3.8	1.49e+00	0	23	104	0	79	24572
2026-01-11 04:27:03.12	51.31	2.92	-57.3	-73.3	3.8	1.49e+00	0	23	104	0	79	24578
2026-01-11 04:27:04.11	51.25	2.98	-57.3	-73.3	3.8	1.49e+00	0	23	104	0	79	24646
2026-01-11 04:27:05.09	51.18	3.04	-57.3	-73.3	3.8	1.49e+00	0	23	104	0	79	24564
2026-01-11 04:27:06.08	51.12	3.09	-57.3	-73.3	3.8	1.49e+00	0	23	104	0	79	24552
2026-01-11 04:27:07.08	51.05	3.15	-57.3	-73.3	3.8	1.49e+00	0	23	104	0	79	24640
2026-01-11 04:27:08.08	50.98	3.21	-57.3	-73.3	3.8	1.49e+00	0	23	104	0	79	24659
2026-01-11 04:27:09.08	50.92	3.27	-57.3	-73.4	3.8	1.49e+00	0	23	104	0	79	24709
2026-01-11 04:27:10.06	50.85	3.33	-57.3	-73.3	3.8	1.49e+00	0	23	104	0	79	24615
2026-01-11 04:27:11.05	50.78	3.39	-57.3	-73.3	3.8	1.49e+00	0	23	104	0	79	24683
2026-01-11 04:27:12.05	50.71	3.44	-57.3	-73.3	3.8	1.49e+00	0	23	104	0	79	24542
2026-01-11 04:27:13.04	50.64	3.50	-57.3	-73.3	3.8	1.49e+00	0	24	104	0	79	24535
2026-01-11 04:27:14.03	50.58	3.56	-57.3	-73.3	3.8	1.49e+00	0	24	104	0	79	24537
2026-01-11 04:27:15.02	50.51	3.62	-57.3	-73.3	3.8	1.49e+00	0	24	104	0	79	24624
2026-01-11 04:27:16.01	50.44	3.68	-57.3	-73.3	3.8	1.49e+00	0	24	104	0	79	24583
2026-01-11 04:27:17.00	50.37	3.74	-57.3	-73.3	3.8	1.49e+00	0	24	104	0	79	24650
2026-01-11 04:27:17.99	50.30	3.80	-57.3	-73.3	3.8	1.49e+00	0	24	104	0	79	24626
2026-01-11 04:27:18.98	50.23	3.86	-57.3	-73.3	3.8	1.49e+00	0	24	104	0	79	24679
2026-01-11 04:27:19.97	50.16	3.92	-57.3	-73.3	3.8	1.49e+00	0	24	104	0	79	24582
2026-01-11 04:27:20.96	50.09	3.97	-57.3	-73.3	3.8	1.49e+00	0	24	104	0	79	24495
2026-01-11 04:27:21.95	50.02	4.03	-57.3	-73.2	3.8	1.49e+00	0	24	104	0	79	24276
2026-01-11 04:27:22.95	49.95	4.09	-57.3	-73.3	3.8	1.49e+00	0	24	104	0	79	24505
2026-01-11 04:27:23.94	49.88	4.15	-57.3	-73.3	3.8	1.49e+00	0	24	104	0	79	24534
2026-01-11 04:27:24.92	49.80	4.21	-57.3	-73.3	3.8	1.49e+00	0	24	104	0	79	24675
2026-01-11 04:27:25.91	49.73	4.27	-57.4	-73.4	3.8	1.49e+00	0	24	104	0	79	24708
2026-01-11 04:27:26.90	49.66	4.33	-57.3	-73.3	3.8	1.49e+00	0	24	104	0	79	24474
2026-01-11 04:27:27.89	49.59	4.39	-57.3	-73.0	3.8	1.49e+00	0	24	104	0	79	23783
2026-01-11 04:27:28.87	49.52	4.45	-57.3	-72.6	3.8	1.49e+00	0	24	104	0	79	22595
2026-01-11 04:27:29.86	49.44	4.51	-57.3	-72.0	3.8	1.49e+00	0	24	104	0	79	21217
2026-01-11 04:27:30.85	49.37	4.57	-57.3	-71.4	3.8	1.49e+00	0	24	104	0	79	19743
2026-01-11 04:27:31.85	49.29	4.63	-57.2	-70.8	3.9	1.49e+00	0	24	104	0	79	18369
2026-01-11 04:27:32.84	49.22	4.69	-57.2	-70.0	4.1	1.41e+00	0	24	0	0	79	16752
2026-01-11 04:27:33.84	49.14	4.75	-57.1	-69.0	4.5	1.27e+00	21	24	0	1048576	79	14900
2026-01-11 04:27:34.83	49.07	4.81	-57.1	-68.1	4.8	9.01e-01	0	24	0	2097152	79	13555
2026-01-11 04:27:35.82	48.99	4.87	-57.0	-67.5	5.1	6.09e-01	0	24	0	4194304	79	12623
2026-01-11 04:27:36.81	48.92	4.93	-56.9	-66.9	5.4	5.65e-01	0	24	0	6291456	79	11710
2026-01-11 04:27:37.80	48.84	5.00	-56.9	-66.1	5.9	4.08e-01	0	24	0	8388608	79	10763
2026-01-11 04:27:38.80	48.77	5.06	-56.8	-65.2	6.6	2.10e-01	0	24	0	9437184	79	9676
2026-01-11 04:27:39.79	48.69	5.12	-56.5	-63.2	8.4	7.76e-02	0	24	0	11534336	79	7644
2026-01-11 04:27:40.79	48.61	5.18	-57.2	-71.0	4.0	8.45e-02	0	24	0	13631488	79	18750
2026-01-11 04:27:41.80	48.53	5.24	-57.4	-69.6	4.4	1.49e+00	61	24	104	13631488	79	15979
2026-01-11 04:27:42.79	48.46	5.30	-55.5	-60.1	10.9	3.70e-01	0	24	0	13631488	77	6030
2026-01-11 04:27:43.80	48.38	5.36	-55.6	-60.5	10.6	3.81e-04	0	24	0	15728640	77	6323
2026-01-11 04:27:44.80	48.30	5.43	-55.4	-60.0	11.1	4.36e-04	0	24	0	16777216	77	5984
2026-01-11 04:27:45.79	48.22	5.49	-54.8	-58.7	12.0	1.22e-05	0	24	0	18874368	76	5412
2026-01-11 04:27:46.79	48.14	5.55	-54.9	-58.9	11.9	6.80e-06	0	24	0	20971520	76	5563
2026-01-11 04:27:47.78	48.06	5.61	-55.0	-59.1	11.8	1.60e-05	0	24	0	23068672	76	5675
2026-01-11 04:27:48.78	47.98	5.67	-54.4	-57.9	12.6	7.00e-07	0	24	0	25165824	75	5220
2026-01-11 04:27:49.78	47.90	5.74	-54.6	-58.2	12.3	2.20e-06	0	24	0	26214400	75	5443
2026-01-11 04:27:50.79	47.82	5.80	-54.5	-58.2	12.4	1.50e-06	0	24	0	28311552	75	5423
2026-01-11 04:27:51.79	47.74	5.86	-54.4	-57.8	12.6	2.20e-06	0	24	0	30408704	75	5209
2026-01-11 04:27:52.79	47.65	5.93	-54.1	-57.3	12.9	0.00e+00	0	24	0	32505856	74	5206
2026-01-11 04:27:53.78	47.57	5.99	-54.1	-57.3	12.9	0.00e+00	0	24	0	34603008	74	5200
2026-01-11 04:27:54.77	47.49	6.05	-54.0	-57.2	13.0	0.00e+00	0	24	0	35651584	74	5130
2026-01-11 04:27:55.77	47.41	6.11	-54.0	-57.1	13.1	0.00e+00	0	24	0	37748736	74	5046
2026-01-11 04:27:56.77	47.32	6.18	-54.1	-57.2	13.0	0.00e+00	0	24	0	39845888	74	5148
2026-01-11 04:27:57.76	47.24	6.24	-54.1	-57.2	13.0	0.00e+00	0	24	0	41943040	74	5142
2026-01-11 04:27:58.75	47.16	6.30	-54.1	-57.2	13.0	0.00e+00	0	24	0	42991616	74	5113
2026-01-11 04:27:59.74	47.08	6.36	-54.1	-57.3	13.0	0.00e+00	0	24	0	45088768	74	5179
2026-01-11 04:28:00.73	46.99	6.43	-54.1	-57.2	13.1	0.00e+00	0	24	0	47185920	74	5104
2026-01-11 04:28:01.73	46.91	6.49	-54.0	-57.2	13.1	0.00e+00	0	24	0	49283072	74	5101
2026-01-11 04:28:02.72	46.82	6.55	-54.1	-57.2	13.0	0.00e+00	0	24	0	50331648	74	5104
2026-01-11 04:28:03.71	46.74	6.62	-54.0	-57.0	13.2	0.00e+00	0	24	0	52428800	74	5027
2026-01-11 04:28:04.70	46.65	6.68	-54.0	-57.0	13.2	0.00e+00	0	24	0	54525952	74	5015
2026-01-11 04:28:05.69	46.56	6.74	-54.0	-57.1	13.1	0.00e+00	0	25	0	56623104	74	5046
2026-01-11 04:28:06.68	46.48	6.81	-54.0	-57.0	13.2	0.00e+00	0	24	0	58720256	74	4993
2026-01-11 04:28:07.67	46.39	6.87	-54.0	-57.0	13.2	0.00e+00	0	24	0	59768832	74	5036
2026-01-11 04:28:08.67	46.30	6.93	-54.0	-57.1	13.2	0.00e+00	0	25	0	61865984	74	5052
2026-01-11 04:28:09.65	46.22	7.00	-54.0	-56.9	13.3	0.00e+00	0	24	0	63963136	74	4977
2026-01-11 04:28:10.64	46.13	7.06	-53.9	-56.9	13.3	0.00e+00	0	25	0	66060288	74	4953
2026-01-11 04:28:11.64	46.04	7.13	-53.8	-56.7	13.4	0.00e+00	0	25	0	67108864	74	4852
2026-01-11 04:28:12.63	45.95	7.19	-53.7	-56.6	13.5	0.00e+00	0	25	0	69206016	74	4768
2026-01-11 04:28:13.62	45.86	7.25	-53.9	-56.8	13.3	0.00e+00	0	25	0	71303168	74	4887
2026-01-11 04:28:14.62	45.77	7.32	-53.9	-56.8	13.3	0.00e+00	0	25	0	73400320	74	4913
2026-01-11 04:28:15.60	45.68	7.38	-54.0	-56.9	13.3	0.00e+00	0	25	0	74448896	74	4966
2026-01-11 04:28:16.60	45.59	7.45	-54.0	-57.0	13.3	0.00e+00	0	25	0	76546048	74	4989
2026-01-11 04:28:17.59	45.50	7.51	-53.9	-56.8	13.4	0.00e+00	0	25	0	78643200	74	4873
2026-01-11 04:28:18.58	45.41	7.58	-54.0	-56.9	13.3	0.00e+00	0	25	0	80740352	74	4943
2026-01-11 04:28:19.58	45.32	7.64	-54.0	-57.0	13.2	0.00e+00	0	25	0	82837504	74	5012
2026-01-11 04:28:20.58	45.22	7.71	-54.0	-56.9	13.3	0.00e+00	0	25	0	83886080	74	4964
2026-01-11 04:28:21.57	45.13	7.77	-54.0	-56.9	13.3	0.00e+00	0	25	0	85983232	74	4952
2026-01-11 04:28:22.56	45.04	7.84	-54.0	-57.0	13.3	0.00e+00	0	25	0	88080384	74	4996
2026-01-11 04:28:23.55	44.95	7.90	-53.9	-56.8	13.4	0.00e+00	0	25	0	90177536	74	4910
2026-01-11 04:28:24.53	44.85	7.97	-53.9	-56.8	13.4	0.00e+00	0	25	0	91226112	74	4887
2026-01-11 04:28:25.52	44.76	8.03	-53.9	-56.8	13.4	0.00e+00	0	25	0	93323264	74	4884
2026-01-11 04:28:26.51	44.66	8.10	-53.9	-56.8	13.4	0.00e+00	0	25	0	95420416	74	4888
2026-01-11 04:28:27.51	44.57	8.16	-54.0	-56.9	13.3	0.00e+00	0	25	0	97517568	74	4955
2026-01-11 04:28:28.51	44.47	8.23	-53.8	-56.6	13.5	0.00e+00	0	25	0	99614720	74	4801
2026-01-11 04:28:29.50	44.38	8.29	-53.9	-56.8	13.4	0.00e+00	0	25	0	100663296	74	4892
2026-01-11 04:28:30.50	44.28	8.36	-53.9	-56.8	13.4	0.00e+00	0	25	0	102760448	74	4871
2026-01-11 04:28:31.50	44.18	8.43	-53.9	-56.7	13.4	0.00e+00	0	25	0	104857600	74	4865
2026-01-11 04:28:32.50	44.08	8.49	-53.9	-56.7	13.5	0.00e+00	0	25	0	106954752	74	4857
2026-01-11 04:28:33.50	43.98	8.56	-53.8	-56.6	13.5	0.00e+00	0	25	0	109051904	74	4806
2026-01-11 04:28:34.50	43.89	8.63	-53.8	-56.6	13.5	0.00e+00	0	25	0	110100480	74	4802
2026-01-11 04:28:35.49	43.79	8.69	-53.9	-56.7	13.5	0.00e+00	0	25	0	112197632	74	4843
2026-01-11 04:28:36.49	43.69	8.76	-53.7	-56.5	13.6	0.00e+00	0	25	0	114294784	74	4716
2026-01-11 04:28:37.49	43.59	8.83	-53.5	-56.2	13.7	0.00e+00	0	25	0	116391936	73	4825
2026-01-11 04:28:38.48	43.49	8.89	-53.6	-56.3	13.6	0.00e+00	0	25	0	117440512	73	4875
2026-01-11 04:28:39.48	43.38	8.96	-53.6	-56.2	13.6	0.00e+00	0	25	0	119537664	73	4865
2026-01-11 04:28:40.48	43.28	9.03	-53.6	-56.2	13.7	0.00e+00	0	25	0	121634816	73	4853
2026-01-11 04:28:41.48	43.18	9.09	-53.5	-56.1	13.8	0.00e+00	0	25	0	123731968	73	4762
2026-01-11 04:28:42.49	43.08	9.16	-53.4	-55.9	13.9	0.00e+00	0	25	0	125829120	73	4691
2026-01-11 04:28:43.48	42.97	9.23	-53.4	-55.9	13.8	0.00e+00	0	25	0	126877696	73	4702
2026-01-11 04:28:44.49	42.87	9.30	-53.3	-55.8	13.9	0.00e+00	0	25	0	128974848	73	4620
2026-01-11 04:28:45.49	42.76	9.36	-53.4	-55.9	13.9	0.00e+00	0	25	0	131072000	73	4666
2026-01-11 04:28:46.49	42.66	9.43	-53.4	-55.9	13.9	0.00e+00	0	25	0	133169152	73	4672
2026-01-11 04:28:47.48	42.55	9.50	-53.4	-55.9	13.9	0.00e+00	0	25	0	135266304	73	4701
2026-01-11 04:28:48.48	42.45	9.57	-53.5	-56.1	13.8	0.00e+00	0	25	0	136314880	73	4768
2026-01-11 04:28:49.48	42.34	9.64	-53.5	-56.1	13.8	0.00e+00	0	25	0	138412032	73	4769
2026-01-11 04:28:50.48	42.24	9.70	-53.5	-56.1	13.8	0.00e+00	0	25	0	140509184	73	4777
2026-01-11 04:28:51.48	42.13	9.77	-53.4	-55.9	13.9	0.00e+00	0	25	0	142606336	73	4695
2026-01-11 04:28:52.48	42.02	9.84	-53.4	-55.9	13.9	0.00e+00	0	25	0	143654912	73	4666
2026-01-11 04:28:53.48	41.91	9.91	-53.5	-56.1	13.8	0.00e+00	0	25	0	145752064	73	4778
2026-01-11 04:28:54.47	41.80	9.98	-53.4	-55.9	13.9	0.00e+00	0	25	0	147849216	73	4671
2026-01-11 04:28:55.48	41.69	10.05	-53.4	-55.9	13.9	0.00e+00	0	25	0	149946368	73	4667
2026-01-11 04:28:56.48	41.58	10.11	-53.5	-56.0	13.8	0.00e+00	0	25	0	152043520	73	4747
2026-01-11 04:28:57.48	41.47	10.18	-53.5	-56.0	13.8	0.00e+00	0	25	0	153092096	73	4733
2026-01-11 04:28:58.48	41.36	10.25	-53.5	-56.1	13.8	0.00e+00	0	25	0	155189248	73	4788
2026-01-11 04:28:59.48	41.25	10.32	-53.6	-56.1	13.8	0.00e+00	0	25	0	157286400	73	4808
2026-01-11 04:29:00.47	41.14	10.39	-53.5	-56.1	13.8	0.00e+00	0	25	0	159383552	73	4797
2026-01-11 04:29:01.47	41.02	10.46	-53.6	-56.1	13.8	0.00e+00	0	25	0	160432128	73	4803
2026-01-11 04:29:02.47	40.91	10.53	-53.5	-56.1	13.8	0.00e+00	0	25	0	162529280	73	4786
2026-01-11 04:29:03.47	40.80	10.60	-53.6	-56.2	13.7	0.00e+00	0	25	0	164626432	73	4822
2026-01-11 04:29:04.46	40.68	10.66	-53.7	-56.3	13.6	0.00e+00	0	25	0	166723584	73	4900
2026-01-11 04:29:05.47	40.57	10.73	-53.6	-56.2	13.7	0.00e+00	0	25	0	168820736	73	4851
2026-01-11 04:29:06.47	40.45	10.80	-53.6	-56.2	13.7	0.00e+00	0	25	0	169869312	73	4839
2026-01-11 04:29:07.47	40.34	10.87	-53.7	-56.3	13.7	0.00e+00	0	25	0	171966464	73	4886
2026-01-11 04:29:08.47	40.22	10.94	-53.6	-56.1	13.8	0.00e+00	0	25	0	174063616	73	4792
2026-01-11 04:29:09.46	40.10	11.01	-53.5	-56.1	13.8	0.00e+00	0	25	0	176160768	73	4781
2026-01-11 04:29:10.47	39.98	11.08	-53.5	-56.0	13.9	0.00e+00	0	25	0	178257920	73	4728
2026-01-11 04:29:11.46	39.87	11.15	-53.5	-56.0	13.9	0.00e+00	0	25	0	179306496	73	4710
2026-01-11 04:29:12.45	39.75	11.22	-53.4	-55.9	13.9	0.00e+00	0	25	0	181403648	73	4678
2026-01-11 04:29:13.45	39.63	11.29	-53.4	-55.8	14.0	0.00e+00	0	25	0	183500800	73	4649
2026-01-11 04:29:14.45	39.51	11.36	-53.4	-55.8	14.0	0.00e+00	0	25	0	185597952	73	4646
2026-01-11 04:29:15.45	39.39	11.43	-53.4	-55.9	13.9	0.00e+00	0	25	0	187695104	73	4672
2026-01-11 04:29:16.45	39.27	11.50	-53.4	-55.8	14.0	0.00e+00	0	25	0	188743680	73	4639
2026-01-11 04:29:17.44	39.15	11.57	-53.4	-55.9	13.9	0.00e+00	0	25	0	190840832	73	4672
2026-01-11 04:29:18.44	39.02	11.64	-53.4	-55.8	14.0	0.00e+00	0	25	0	192937984	73	4633
2026-01-11 04:29:19.44	38.90	11.71	-53.4	-55.8	14.0	0.00e+00	0	25	0	195035136	73	4629
2026-01-11 04:29:20.44	38.78	11.78	-53.3	-55.8	14.0	0.00e+00	0	25	0	196083712	73	4600
2026-01-11 04:29:21.44	38.65	11.85	-53.3	-55.6	14.1	0.00e+00	0	25	0	198180864	73	4544
2026-01-11 04:29:22.44	38.53	11.92	-53.3	-55.6	14.1	0.00e+00	0	25	0	200278016	73	4531
2026-01-11 04:29:23.43	38.40	11.99	-53.3	-55.6	14.1	0.00e+00	0	25	0	202375168	73	4541
2026-01-11 04:29:24.42	38.28	12.06	-53.3	-55.6	14.1	0.00e+00	0	25	0	204472320	73	4540
2026-01-11 04:29:25.41	38.15	12.13	-53.3	-55.6	14.1	0.00e+00	0	25	0	205520896	73	4531
2026-01-11 04:29:26.41	38.02	12.20	-53.1	-55.5	14.1	0.00e+00	0	25	0	207618048	72	4706
2026-01-11 04:29:27.40	37.90	12.28	-53.1	-55.4	14.1	0.00e+00	0	25	0	209715200	72	4654
2026-01-11 04:29:28.40	37.77	12.35	-53.1	-55.5	14.0	0.00e+00	0	25	0	211812352	72	4715
2026-01-11 04:29:29.40	37.64	12.42	-53.1	-55.4	14.1	0.00e+00	0	25	0	212860928	72	4695
2026-01-11 04:29:30.40	37.51	12.49	-53.0	-55.3	14.1	0.00e+00	0	25	0	214958080	72	4647
2026-01-11 04:29:31.40	37.38	12.56	-53.0	-55.3	14.2	0.00e+00	0	25	0	217055232	72	4632
2026-01-11 04:29:32.39	37.25	12.63	-53.0	-55.3	14.2	0.00e+00	0	25	0	219152384	72	4611
2026-01-11 04:29:33.39	37.12	12.70	-53.0	-55.3	14.2	0.00e+00	0	25	0	221249536	72	4630
2026-01-11 04:29:34.38	36.98	12.77	-53.0	-55.2	14.2	0.00e+00	0	25	0	222298112	72	4590
2026-01-11 04:29:35.38	36.85	12.84	-53.0	-55.2	14.2	0.00e+00	0	25	0	224395264	72	4596
2026-01-11 04:29:36.37	36.72	12.91	-53.0	-55.3	14.2	0.00e+00	0	25	0	226492416	72	4645
2026-01-11 04:29:37.37	36.58	12.99	-53.1	-55.4	14.1	0.00e+00	0	25	0	228589568	72	4665
2026-01-11 04:29:38.37	36.45	13.06	-53.1	-55.5	14.1	0.00e+00	0	25	0	229638144	72	4712
2026-01-11 04:29:39.36	36.31	13.13	-53.0	-55.3	14.2	0.00e+00	0	25	0	231735296	72	4630
2026-01-11 04:29:40.36	36.18	13.20	-52.9	-55.1	14.2	0.00e+00	0	25	0	233832448	72	4538
2026-01-11 04:29:41.36	36.04	13.27	-52.9	-55.1	14.3	0.00e+00	0	25	0	235929600	72	4499
2026-01-11 04:29:42.36	35.90	13.34	-52.9	-55.2	14.3	0.00e+00	0	25	0	238026752	72	4561
2026-01-11 04:29:43.36	35.76	13.42	-52.8	-55.0	14.3	0.00e+00	0	25	0	239075328	72	4475
2026-01-11 04:29:44.34	35.63	13.49	-52.8	-55.0	14.4	0.00e+00	0	25	0	241172480	72	4450
2026-01-11 04:29:45.35	35.49	13.56	-52.8	-55.0	14.3	0.00e+00	0	25	0	243269632	72	4460
2026-01-11 04:29:46.34	35.35	13.63	-52.8	-54.9	14.4	0.00e+00	0	25	0	245366784	72	4428
2026-01-11 04:29:47.34	35.20	13.70	-52.6	-54.7	14.4	0.00e+00	0	25	0	247463936	71	4548
2026-01-11 04:29:48.34	35.06	13.77	-52.6	-54.7	14.4	0.00e+00	0	25	0	248512512	71	4552
2026-01-11 04:29:49.33	34.92	13.85	-52.5	-54.6	14.4	0.00e+00	0	25	0	250609664	71	4523
2026-01-11 04:29:50.33	34.78	13.92	-52.6	-54.7	14.3	0.00e+00	0	25	0	252706816	71	4591
2026-01-11 04:29:51.34	34.63	13.99	-52.5	-54.6	14.4	0.00e+00	0	25	0	254803968	71	4523
2026-01-11 04:29:52.33	34.49	14.06	-52.5	-54.6	14.4	0.00e+00	0	25	0	255852544	71	4517
2026-01-11 04:29:53.33	34.34	14.13	-52.5	-54.5	14.5	0.00e+00	0	25	0	257949696	71	4493
2026-01-11 04:29:54.33	34.20	14.21	-52.5	-54.5	14.5	0.00e+00	0	25	0	260046848	71	4485
2026-01-11 04:29:55.33	34.05	14.28	-52.4	-54.4	14.5	0.00e+00	0	25	0	262144000	71	4440
2026-01-11 04:29:56.33	33.90	14.35	-52.4	-54.4	14.6	0.00e+00	0	25	0	264241152	71	4417
2026-01-11 04:29:57.33	33.75	14.42	-52.4	-54.5	14.5	0.00e+00	0	25	0	265289728	71	4457
2026-01-11 04:29:58.33	33.60	14.50	-52.4	-54.4	14.5	0.00e+00	0	25	0	267386880	71	4429
2026-01-11 04:29:59.33	33.45	14.57	-52.5	-54.6	14.5	0.00e+00	0	25	0	269484032	71	4517
2026-01-11 04:30:00.33	33.30	14.64	-52.6	-54.7	14.4	0.00e+00	0	25	0	271581184	71	4556
2026-01-11 04:30:01.33	33.15	14.71	-52.6	-54.8	14.4	0.00e+00	0	25	0	273678336	71	4607
2026-01-11 04:30:02.33	33.00	14.78	-52.7	-54.8	14.3	0.00e+00	0	25	0	274726912	71	4617
2026-01-11 04:30:03.33	32.85	14.86	-52.8	-54.9	14.3	0.00e+00	0	25	0	276824064	71	4687
2026-01-11 04:30:04.33	32.69	14.93	-52.8	-54.9	14.3	0.00e+00	0	25	0	278921216	71	4684
2026-01-11 04:30:05.32	32.54	15.00	-52.7	-54.9	14.3	0.00e+00	0	25	0	281018368	71	4673
2026-01-11 04:30:06.32	32.38	15.07	-52.7	-54.9	14.3	0.00e+00	0	25	0	282066944	71	4670
2026-01-11 04:30:07.32	32.23	15.15	-52.7	-54.9	14.3	0.00e+00	0	25	0	284164096	71	4666
2026-01-11 04:30:08.31	32.07	15.22	-52.8	-54.9	14.3	0.00e+00	0	25	0	286261248	71	4702
2026-01-11 04:30:09.31	31.91	15.29	-52.8	-55.0	14.2	0.00e+00	0	25	0	288358400	71	4737
2026-01-11 04:30:10.31	31.75	15.36	-52.9	-55.1	14.2	0.00e+00	0	25	0	290455552	71	4803
2026-01-11 04:30:11.31	31.60	15.43	-52.9	-55.1	14.2	0.00e+00	0	25	0	291504128	71	4788
2026-01-11 04:30:12.31	31.44	15.51	-52.9	-55.1	14.2	0.00e+00	0	25	0	293601280	71	4772
2026-01-11 04:30:13.32	31.27	15.58	-52.9	-55.2	14.1	0.00e+00	0	25	0	295698432	71	4816
2026-01-11 04:30:14.31	31.11	15.65	-53.0	-55.2	14.1	0.00e+00	0	25	0	297795584	71	4822
2026-01-11 04:30:15.31	30.95	15.72	-52.9	-55.1	14.2	0.00e+00	0	25	0	299892736	71	4797
2026-01-11 04:30:16.30	30.79	15.79	-53.0	-55.3	14.1	0.00e+00	0	25	0	300941312	71	4885
2026-01-11 04:30:17.30	30.62	15.87	-53.0	-55.3	14.1	0.00e+00	0	25	0	303038464	71	4873
2026-01-11 04:30:18.31	30.46	15.94	-53.0	-55.3	14.1	0.00e+00	0	25	0	305135616	71	4890
2026-01-11 04:30:19.31	30.29	16.01	-53.0	-55.2	14.1	0.00e+00	0	25	0	307232768	71	4850
2026-01-11 04:30:20.30	30.13	16.08	-53.0	-55.3	14.1	0.00e+00	0	25	0	308281344	71	4873
2026-01-11 04:30:21.30	29.96	16.16	-53.0	-55.3	14.1	0.00e+00	0	25	0	310378496	71	4883
2026-01-11 04:30:22.30	29.79	16.23	-53.0	-55.2	14.1	0.00e+00	0	25	0	312475648	71	4854
2026-01-11 04:30:23.30	29.62	16.30	-53.1	-55.3	14.1	0.00e+00	0	25	0	314572800	71	4897
2026-01-11 04:30:24.29	29.46	16.37	-53.0	-55.3	14.1	0.00e+00	0	25	0	316669952	71	4877
2026-01-11 04:30:25.29	29.28	16.44	-53.2	-55.4	14.0	0.00e+00	0	25	0	317718528	71	4973
2026-01-11 04:30:26.29	29.11	16.51	-53.1	-55.4	14.0	0.00e+00	0	25	0	319815680	71	4955
2026-01-11 04:30:27.29	28.94	16.59	-53.2	-55.5	14.0	0.00e+00	0	25	0	321912832	71	5002
2026-01-11 04:30:28.28	28.77	16.66	-53.1	-55.4	14.0	0.00e+00	0	25	0	324009984	71	4928
2026-01-11 04:30:29.27	28.60	16.73	-53.1	-55.4	14.0	0.00e+00	0	25	0	325058560	71	4952
2026-01-11 04:30:30.27	28.42	16.80	-53.1	-55.4	14.0	0.00e+00	0	25	0	327155712	71	4944
2026-01-11 04:30:31.27	28.25	16.87	-53.2	-55.5	14.0	0.00e+00	0	25	0	329252864	71	4994
2026-01-11 04:30:32.27	28.07	16.94	-53.2	-55.5	14.0	0.00e+00	0	25	0	331350016	71	4996
2026-01-11 04:30:33.27	27.89	17.01	-53.2	-55.5	14.0	0.00e+00	0	25	0	333447168	71	4993
2026-01-11 04:30:34.26	27.72	17.09	-53.2	-55.5	14.0	0.00e+00	0	25	0	334495744	71	5016
2026-01-11 04:30:35.26	27.54	17.16	-53.2	-55.5	14.0	0.00e+00	0	25	0	336592896	71	4996
2026-01-11 04:30:36.25	27.36	17.23	-53.3	-55.6	13.9	0.00e+00	0	25	0	338690048	71	5087
2026-01-11 04:30:37.25	27.18	17.30	-53.3	-55.6	13.9	0.00e+00	0	25	0	340787200	71	5066
2026-01-11 04:30:38.24	27.00	17.37	-53.2	-55.5	14.0	0.00e+00	0	25	0	342884352	71	5011
2026-01-11 04:30:39.24	26.82	17.44	-53.2	-55.4	14.0	0.00e+00	0	25	0	343932928	71	4972
2026-01-11 04:30:40.24	26.63	17.51	-53.2	-55.5	14.0	0.00e+00	0	25	0	346030080	71	5006
2026-01-11 04:30:41.23	26.45	17.58	-53.2	-55.4	14.0	0.00e+00	0	25	0	348127232	71	4965
2026-01-11 04:30:42.23	26.27	17.65	-53.1	-55.3	14.1	0.00e+00	0	25	0	350224384	71	4924
2026-01-11 04:30:43.24	26.08	17.72	-53.1	-55.4	14.1	0.00e+00	0	25	0	352321536	71	4930
2026-01-11 04:30:44.22	25.90	17.79	-53.2	-55.4	14.0	0.00e+00	0	25	0	353370112	71	4978
2026-01-11 04:30:45.23	25.71	17.86	-53.0	-55.3	14.1	0.00e+00	0	25	0	355467264	71	4873
2026-01-11 04:30:46.23	25.52	17.93	-53.1	-55.4	14.1	0.00e+00	0	25	0	357564416	71	4929
2026-01-11 04:30:47.23	25.33	18.00	-53.0	-55.2	14.2	0.00e+00	0	25	0	359661568	71	4842
2026-01-11 04:30:48.22	25.14	18.07	-53.0	-55.3	14.1	0.00e+00	0	25	0	360710144	71	4875
2026-01-11 04:30:49.23	24.95	18.14	-52.9	-55.0	14.2	0.00e+00	0	25	0	362807296	71	4758
2026-01-11 04:30:50.23	24.75	18.21	-53.0	-55.1	14.2	0.00e+00	0	25	0	364904448	71	4804
2026-01-11 04:30:51.23	24.56	18.28	-53.0	-55.1	14.2	0.00e+00	0	25	0	367001600	71	4809
2026-01-11 04:30:52.23	24.37	18.35	-52.9	-55.0	14.3	0.00e+00	0	25	0	369098752	71	4728
2026-01-11 04:30:53.23	24.17	18.42	-52.9	-55.1	14.2	0.00e+00	0	25	0	370147328	71	4770
2026-01-11 04:30:54.23	23.98	18.49	-52.6	-54.7	14.4	0.00e+00	0	25	0	372244480	71	4570
2026-01-11 04:30:55.23	23.78	18.56	-52.5	-54.5	14.5	0.00e+00	0	25	0	374341632	71	4482
2026-01-11 04:30:56.22	23.58	18.63	-52.4	-54.4	14.6	0.00e+00	0	25	0	376438784	71	4434
2026-01-11 04:30:57.22	23.39	18.69	-52.3	-54.2	14.7	0.00e+00	0	25	0	377487360	71	4320
2026-01-11 04:30:58.21	23.19	18.76	-52.2	-54.1	14.7	0.00e+00	0	25	0	379584512	71	4271
2026-01-11 04:30:59.20	22.99	18.83	-52.0	-53.9	14.7	0.00e+00	0	25	0	381681664	70	4395
2026-01-11 04:31:00.19	22.79	18.90	-51.9	-53.7	14.8	0.00e+00	0	25	0	383778816	70	4311
2026-01-11 04:31:01.19	22.59	18.96	-51.9	-53.7	14.8	0.00e+00	0	25	0	385875968	70	4300
2026-01-11 04:31:02.19	22.39	19.03	-51.7	-53.4	14.9	0.00e+00	0	25	0	386924544	70	4188
2026-01-11 04:31:03.19	22.18	19.10	-51.5	-53.3	14.9	0.00e+00	0	25	0	389021696	69	4346
2026-01-11 04:31:04.19	21.98	19.17	-51.5	-53.2	14.9	0.00e+00	0	25	0	391118848	69	4339
2026-01-11 04:31:05.19	21.77	19.23	-51.5	-53.2	14.9	0.00e+00	0	25	0	393216000	69	4308
2026-01-11 04:31:06.19	21.57	19.30	-51.5	-53.3	14.9	0.00e+00	0	25	0	395313152	69	4342
2026-01-11 04:31:07.19	21.36	19.37	-51.5	-53.2	14.9	0.00e+00	0	25	0	396361728	69	4316
2026-01-11 04:31:08.19	21.15	19.43	-51.4	-53.1	15.0	0.00e+00	0	25	0	398458880	69	4248
2026-01-11 04:31:09.20	20.94	19.50	-51.3	-53.0	15.0	0.00e+00	0	25	0	400556032	69	4202
2026-01-11 04:31:10.20	20.73	19.57	-51.3	-53.1	15.0	0.00e+00	0	25	0	402653184	69	4246
2026-01-11 04:31:11.20	20.52	19.63	-51.3	-53.0	15.0	0.00e+00	0	25	0	403701760	69	4231
2026-01-11 04:31:12.20	20.30	19.70	-51.3	-53.0	15.0	0.00e+00	0	25	0	405798912	69	4208
2026-01-11 04:31:13.20	20.09	19.76	-51.2	-52.9	15.1	0.00e+00	0	25	0	407896064	69	4168
2026-01-11 04:31:14.20	19.88	19.83	-51.2	-52.9	15.1	0.00e+00	0	25	0	409993216	69	4177
2026-01-11 04:31:15.20	19.66	19.89	-51.2	-52.8	15.1	0.00e+00	0	25	0	412090368	69	4134
2026-01-11 04:31:16.20	19.45	19.96	-51.1	-52.7	15.0	0.00e+00	0	25	0	413138944	68	4325
2026-01-11 04:31:17.20	19.23	20.02	-51.2	-52.9	14.9	0.00e+00	0	25	0	415236096	68	4401
2026-01-11 04:31:18.20	19.01	20.09	-51.1	-52.7	15.0	0.00e+00	0	25	0	417333248	68	4321
2026-01-11 04:31:19.19	18.80	20.15	-51.1	-52.7	15.0	0.00e+00	0	25	0	419430400	68	4312
2026-01-11 04:31:20.19	18.58	20.21	-51.0	-52.6	15.0	0.00e+00	0	25	0	421527552	68	4287
2026-01-11 04:31:21.20	18.35	20.28	-51.0	-52.6	15.0	0.00e+00	0	25	0	422576128	68	4282
2026-01-11 04:31:22.19	18.13	20.34	-51.0	-52.7	15.0	0.00e+00	0	25	0	424673280	68	4301
2026-01-11 04:31:23.20	17.91	20.40	-50.9	-52.5	15.1	0.00e+00	0	25	0	426770432	68	4225
2026-01-11 04:31:24.19	17.69	20.46	-50.9	-52.5	15.1	0.00e+00	0	25	0	428867584	68	4214
2026-01-11 04:31:25.19	17.47	20.52	-50.8	-52.3	15.1	0.00e+00	0	25	0	430964736	68	4143
2026-01-11 04:31:26.18	17.24	20.59	-50.9	-52.5	15.1	0.00e+00	0	25	0	432013312	68	4215
2026-01-11 04:31:27.18	17.02	20.65	-50.8	-52.4	15.1	0.00e+00	0	25	0	434110464	68	4189
2026-01-11 04:31:28.17	16.79	20.71	-50.9	-52.5	15.1	0.00e+00	0	25	0	436207616	68	4195
2026-01-11 04:31:29.17	16.56	20.77	-50.9	-52.5	15.1	0.00e+00	0	25	0	438304768	68	4239
2026-01-11 04:31:30.17	16.34	20.83	-50.9	-52.5	15.1	0.00e+00	0	25	0	439353344	68	4211
2026-01-11 04:31:31.17	16.11	20.89	-50.9	-52.5	15.1	0.00e+00	0	25	0	441450496	68	4216
2026-01-11 04:31:32.16	15.88	20.95	-50.8	-52.4	15.1	0.00e+00	0	25	0	443547648	68	4173
2026-01-11 04:31:33.17	15.64	21.01	-50.9	-52.4	15.1	0.00e+00	0	25	0	445644800	68	4191
2026-01-11 04:31:34.16	15.42	21.06	-51.0	-52.6	15.0	0.00e+00	0	25	0	447741952	68	4270
2026-01-11 04:31:35.15	15.18	21.12	-51.0	-52.6	15.0	0.00e+00	0	25	0	448790528	68	4287
2026-01-11 04:31:36.16	14.95	21.18	-51.0	-52.6	15.0	0.00e+00	0	25	0	450887680	68	4269
2026-01-11 04:31:37.15	14.72	21.24	-51.1	-52.7	15.0	0.00e+00	0	25	0	452984832	68	4308
2026-01-11 04:31:38.15	14.48	21.30	-51.0	-52.6	15.0	0.00e+00	0	25	0	455081984	68	4290
2026-01-11 04:31:39.14	14.25	21.35	-51.0	-52.6	15.0	0.00e+00	0	25	0	456130560	68	4253
2026-01-11 04:31:40.14	14.01	21.41	-51.0	-52.6	15.0	0.00e+00	0	25	0	458227712	68	4276
2026-01-11 04:31:41.13	13.77	21.46	-51.1	-52.7	15.0	0.00e+00	0	25	0	460324864	68	4308
2026-01-11 04:31:42.14	13.53	21.52	-51.1	-52.7	15.0	0.00e+00	0	25	0	462422016	68	4325
2026-01-11 04:31:43.14	13.29	21.58	-51.1	-52.8	15.0	0.00e+00	0	25	0	464519168	68	4347
2026-01-11 04:31:44.13	13.05	21.63	-51.1	-52.8	15.0	0.00e+00	0	25	0	465567744	68	4360
2026-01-11 04:31:45.14	12.81	21.69	-51.1	-52.7	15.0	0.00e+00	0	25	0	467664896	68	4310
2026-01-11 04:31:46.13	12.57	21.74	-51.1	-52.7	15.0	0.00e+00	0	25	0	469762048	68	4307
2026-01-11 04:31:47.14	12.32	21.79	-51.1	-52.7	15.0	0.00e+00	0	26	0	471859200	68	4312
2026-01-11 04:31:48.13	12.08	21.85	-50.8	-52.4	15.1	0.00e+00	0	25	0	473956352	68	4178
2026-01-11 04:31:49.12	11.84	21.90	-50.9	-52.5	15.1	0.00e+00	0	25	0	475004928	68	4201
2026-01-11 04:31:50.12	11.59	21.95	-50.7	-52.3	15.2	0.00e+00	0	25	0	477102080	68	4108
2026-01-11 04:31:51.12	11.34	22.00	-50.5	-52.0	15.1	0.00e+00	0	25	0	479199232	67	4224
2026-01-11 04:31:52.13	11.09	22.05	-50.5	-52.0	15.1	0.00e+00	0	25	0	481296384	67	4240
2026-01-11 04:31:53.13	10.85	22.11	-50.5	-52.0	15.1	0.00e+00	0	25	0	483393536	67	4234
2026-01-11 04:31:54.12	10.60	22.16	-50.5	-52.1	15.1	0.00e+00	0	25	0	484442112	67	4245
2026-01-11 04:31:55.12	10.35	22.21	-50.4	-52.0	15.1	0.00e+00	0	25	0	486539264	67	4212
2026-01-11 04:31:56.11	10.10	22.25	-50.5	-52.1	15.1	0.00e+00	0	25	0	488636416	67	4265
2026-01-11 04:31:57.12	9.85	22.30	-50.5	-52.0	15.1	0.00e+00	0	25	0	490733568	67	4232
2026-01-11 04:31:58.12	9.59	22.35	-50.4	-52.0	15.2	0.00e+00	0	25	0	491782144	67	4208
2026-01-11 04:31:59.12	9.34	22.40	-50.5	-52.0	15.1	0.00e+00	0	25	0	493879296	67	4223
2026-01-11 04:32:00.12	9.09	22.45	-50.5	-52.0	15.1	0.00e+00	0	25	0	495976448	67	4228
2026-01-11 04:32:01.12	8.83	22.49	-50.3	-51.8	15.2	0.00e+00	0	25	0	498073600	67	4137
2026-01-11 04:32:02.12	8.57	22.54	-50.3	-51.9	15.2	0.00e+00	0	25	0	500170752	67	4153
2026-01-11 04:32:03.12	8.32	22.59	-50.1	-51.6	15.2	0.00e+00	0	25	0	501219328	66	4258
2026-01-11 04:32:04.11	8.06	22.63	-50.1	-51.6	15.1	0.00e+00	0	25	0	503316480	66	4280
2026-01-11 04:32:05.11	7.81	22.68	-50.2	-51.7	15.1	0.00e+00	0	25	0	505413632	66	4329
2026-01-11 04:32:06.11	7.55	22.72	-50.2	-51.7	15.1	0.00e+00	0	25	0	507510784	66	4339
2026-01-11 04:32:07.11	7.29	22.76	-50.3	-51.8	15.1	0.00e+00	0	25	0	508559360	66	4373
2026-01-11 04:32:08.11	7.03	22.81	-50.2	-51.7	15.1	0.00e+00	0	25	0	510656512	66	4323
2026-01-11 04:32:09.11	6.77	22.85	-50.2	-51.7	15.1	0.00e+00	0	25	0	512753664	66	4336
2026-01-11 04:32:10.11	6.50	22.89	-50.2	-51.7	15.1	0.00e+00	0	25	0	514850816	66	4325
2026-01-11 04:32:11.11	6.24	22.93	-50.3	-51.9	15.0	0.00e+00	0	25	0	516947968	66	4400
2026-01-11 04:32:12.10	5.98	22.97	-50.5	-52.1	14.9	0.00e+00	0	25	0	517996544	66	4505
2026-01-11 04:32:13.10	5.72	23.01	-50.6	-52.2	14.9	0.00e+00	0	25	0	520093696	66	4552
2026-01-11 04:32:14.10	5.45	23.05	-50.7	-52.3	14.9	0.00e+00	0	25	0	522190848	66	4608
2026-01-11 04:32:15.10	5.19	23.09	-50.6	-52.2	14.9	0.00e+00	0	25	0	524288000	66	4593
2026-01-11 04:32:16.10	4.92	23.13	-50.5	-52.1	15.0	0.00e+00	0	25	0	526385152	66	4506
2026-01-11 04:32:17.10	4.66	23.17	-50.5	-52.0	15.0	0.00e+00	0	25	0	527433728	66	4465
2026-01-11 04:32:18.11	4.39	23.21	-50.6	-52.1	14.9	0.00e+00	0	25	0	529530880	66	4543
2026-01-11 04:32:19.11	4.12	23.24	-50.7	-52.3	14.9	0.00e+00	0	25	0	531628032	66	4608
2026-01-11 04:32:20.11	3.85	23.28	-50.8	-52.4	14.8	0.00e+00	0	25	0	533725184	66	4656
2026-01-11 04:32:21.11	3.58	23.31	-50.8	-52.4	14.8	0.00e+00	0	25	0	534773760	66	4687
2026-01-11 04:32:22.11	3.31	23.35	-50.8	-52.4	14.8	0.00e+00	0	25	0	536870912	66	4703
2026-01-11 04:32:23.11	3.04	23.38	-51.0	-52.7	14.8	0.00e+00	0	25	0	538968064	67	4581
2026-01-11 04:32:24.10	2.77	23.42	-51.3	-53.0	14.7	0.00e+00	0	25	0	541065216	67	4722
2026-01-11 04:32:25.10	2.50	23.45	-51.7	-53.5	14.6	0.00e+00	0	25	0	543162368	68	4740
2026-01-11 04:32:26.09	2.23	23.48	-51.8	-53.6	14.6	0.00e+00	0	25	0	544210944	68	4813
2026-01-11 04:32:27.09	1.96	23.51	-51.8	-53.6	14.6	0.00e+00	0	25	0	546308096	68	4801
2026-01-11 04:32:28.08	1.69	23.54	-51.8	-53.6	14.6	0.00e+00	0	25	0	548405248	68	4775
2026-01-11 04:32:29.08	1.42	23.57	-51.8	-53.6	14.6	0.00e+00	0	25	0	550502400	68	4807
2026-01-11 04:32:30.08	1.14	23.60	-51.8	-53.6	14.6	0.00e+00	0	25	0	552599552	68	4778
2026-01-11 04:32:31.08	0.87	23.63	-51.8	-53.6	14.6	0.00e+00	0	25	0	553648128	68	4780
2026-01-11 04:32:32.07	0.60	23.66	-52.0	-53.9	14.6	0.00e+00	0	25	0	555745280	69	4674
2026-01-11 04:32:33.07	0.32	23.69	-52.2	-54.1	14.5	0.00e+00	0	25	0	557842432	69	4769
2026-01-11 04:32:34.07	0.05	23.71	-52.1	-54.0	14.5	0.00e+00	0	25	0	559939584	69	4722
2026-01-11 04:32:35.06	359.77	23.74	-51.9	-53.8	14.7	0.00e+00	0	25	0	560988160	69	4602
2026-01-11 04:32:36.05	359.50	23.76	-51.9	-53.7	14.6	0.00e+00	0	25	0	563085312	69	4595
2026-01-11 04:32:37.05	359.22	23.79	-52.0	-53.8	14.6	0.00e+00	0	25	0	565182464	69	4638
2026-01-11 04:32:38.04	358.95	23.81	-52.2	-54.1	14.5	0.00e+00	0	25	0	567279616	69	4765
2026-01-11 04:32:39.03	358.67	23.83	-52.3	-54.3	14.4	0.00e+00	0	25	0	569376768	69	4901
2026-01-11 04:32:40.03	358.39	23.86	-52.4	-54.4	14.4	0.00e+00	0	25	0	570425344	69	4946
2026-01-11 04:32:41.03	358.11	23.88	-52.5	-54.5	14.4	0.00e+00	0	25	0	572522496	70	4710
2026-01-11 04:32:42.03	357.83	23.90	-52.4	-54.3	14.5	0.00e+00	0	25	0	574619648	70	4636
2026-01-11 04:32:43.03	357.55	23.92	-52.3	-54.2	14.6	0.00e+00	0	25	0	576716800	70	4575
2026-01-11 04:32:44.03	357.27	23.94	-52.4	-54.4	14.5	0.00e+00	0	25	0	578813952	70	4670
2026-01-11 04:32:45.02	357.00	23.96	-52.5	-54.5	14.4	0.00e+00	0	25	0	579862528	70	4738
2026-01-11 04:32:46.02	356.71	23.98	-52.7	-54.7	14.3	0.00e+00	0	25	0	581959680	70	4861
2026-01-11 04:32:47.02	356.43	23.99	-52.8	-54.9	14.3	0.00e+00	0	25	0	584056832	70	4929
2026-01-11 04:32:48.02	356.15	24.01	-52.7	-54.8	14.3	0.00e+00	0	25	0	586153984	70	4884
2026-01-11 04:32:49.03	355.87	24.03	-52.7	-54.8	14.3	0.00e+00	0	25	0	587202560	70	4875
2026-01-11 04:32:50.03	355.59	24.04	-52.5	-54.5	14.4	0.00e+00	0	25	0	589299712	70	4714
2026-01-11 04:32:51.02	355.31	24.06	-52.5	-54.5	14.4	0.00e+00	0	25	0	591396864	70	4732
2026-01-11 04:32:52.02	355.02	24.07	-52.4	-54.3	14.5	0.00e+00	0	25	0	593494016	70	4620
2026-01-11 04:32:53.02	354.74	24.08	-52.5	-54.4	14.5	0.00e+00	0	25	0	595591168	70	4680
2026-01-11 04:32:54.02	354.46	24.10	-52.3	-54.3	14.5	0.00e+00	0	25	0	596639744	70	4603
2026-01-11 04:32:55.02	354.17	24.11	-52.4	-54.3	14.5	0.00e+00	0	25	0	598736896	70	4638
2026-01-11 04:32:56.02	353.89	24.12	-52.4	-54.4	14.5	0.00e+00	0	25	0	600834048	70	4653
2026-01-11 04:32:57.02	353.61	24.13	-52.5	-54.4	14.5	0.00e+00	0	25	0	602931200	70	4694
2026-01-11 04:32:58.02	353.32	24.14	-52.4	-54.3	14.5	0.00e+00	0	25	0	603979776	70	4645
2026-01-11 04:32:59.02	353.04	24.14	-52.5	-54.4	14.5	0.00e+00	0	25	0	606076928	70	4700
2026-01-11 04:33:00.02	352.76	24.15	-52.4	-54.3	14.5	0.00e+00	0	25	0	608174080	70	4624
2026-01-11 04:33:01.02	352.47	24.16	-52.4	-54.3	14.5	0.00e+00	0	25	0	610271232	70	4624
2026-01-11 04:33:02.03	352.18	24.17	-52.5	-54.4	14.4	0.00e+00	0	25	0	612368384	70	4685
2026-01-11 04:33:03.03	351.90	24.17	-52.4	-54.3	14.5	0.00e+00	0	25	0	614465536	70	4633
2026-01-11 04:33:04.02	351.62	24.18	-52.4	-54.3	14.5	0.00e+00	0	25	0	615514112	70	4623
2026-01-11 04:33:05.02	351.33	24.18	-52.5	-54.4	14.5	0.00e+00	0	25	0	617611264	70	4685
2026-01-11 04:33:06.02	351.05	24.18	-52.2	-54.1	14.6	0.00e+00	0	25	0	619708416	70	4539
2026-01-11 04:33:07.02	350.76	24.18	-52.0	-53.8	14.8	0.00e+00	0	25	0	621805568	70	4376
2026-01-11 04:33:08.02	350.48	24.19	-52.0	-53.8	14.8	0.00e+00	0	25	0	622854144	70	4380
2026-01-11 04:33:09.02	350.19	24.19	-52.1	-54.0	14.7	0.00e+00	0	25	0	624951296	70	4457
2026-01-11 04:33:10.02	349.91	24.19	-52.3	-54.1	14.6	0.00e+00	0	25	0	627048448	70	4541
2026-01-11 04:33:11.02	349.63	24.19	-52.1	-54.0	14.7	0.00e+00	0	25	0	629145600	70	4453
2026-01-11 04:33:12.02	349.34	24.18	-52.0	-53.8	14.8	0.00e+00	0	25	0	631242752	70	4380
2026-01-11 04:33:13.02	349.06	24.18	-51.9	-53.7	14.9	0.00e+00	0	25	0	632291328	70	4294
2026-01-11 04:33:14.02	348.77	24.18	-51.9	-53.7	14.8	0.00e+00	0	25	0	634388480	70	4298
2026-01-11 04:33:15.01	348.49	24.18	-51.6	-53.4	14.8	0.00e+00	0	25	0	636485632	69	4399
2026-01-11 04:33:16.01	348.20	24.17	-51.5	-53.2	14.9	0.00e+00	0	25	0	638582784	69	4301
2026-01-11 04:33:17.00	347.92	24.17	-51.6	-53.3	14.9	0.00e+00	0	25	0	639631360	69	4369
2026-01-11 04:33:18.01	347.64	24.16	-51.6	-53.4	14.8	0.00e+00	0	25	0	641728512	69	4405
2026-01-11 04:33:19.01	347.35	24.15	-51.5	-53.2	14.9	0.00e+00	0	25	0	643825664	69	4319
2026-01-11 04:33:20.01	347.07	24.14	-51.5	-53.2	14.9	0.00e+00	0	25	0	645922816	69	4302
2026-01-11 04:33:21.01	346.78	24.14	-51.4	-53.1	15.0	0.00e+00	0	25	0	648019968	69	4287
2026-01-11 04:33:22.00	346.50	24.13	-51.2	-52.8	15.1	0.00e+00	0	25	0	649068544	69	4145
2026-01-11 04:33:23.00	346.22	24.12	-51.2	-52.9	15.1	0.00e+00	0	25	0	651165696	69	4152
2026-01-11 04:33:23.99	345.94	24.11	-51.0	-52.6	15.1	0.00e+00	0	25	0	653262848	68	4262
2026-01-11 04:33:24.99	345.66	24.09	-50.9	-52.5	15.1	0.00e+00	0	25	0	655360000	68	4214
2026-01-11 04:33:25.99	345.37	24.08	-50.9	-52.5	15.1	0.00e+00	0	25	0	657457152	68	4210
2026-01-11 04:33:26.99	345.09	24.07	-50.9	-52.5	15.1	0.00e+00	0	25	0	658505728	68	4235
2026-01-11 04:33:27.99	344.81	24.06	-50.8	-52.4	15.1	0.00e+00	0	25	0	660602880	68	4178
2026-01-11 04:33:28.99	344.52	24.04	-50.7	-52.3	15.2	0.00e+00	0	25	0	662700032	68	4113
2026-01-11 04:33:29.99	344.24	24.03	-50.4	-51.9	15.2	0.00e+00	0	25	0	664797184	67	4180
2026-01-11 04:33:30.98	343.96	24.01	-50.3	-51.9	15.2	0.00e+00	0	25	0	665845760	67	4146
2026-01-11 04:33:31.97	343.68	23.99	-50.3	-51.8	15.3	0.00e+00	0	25	0	667942912	67	4100
2026-01-11 04:33:32.96	343.41	23.98	-50.3	-51.8	15.2	0.00e+00	0	25	0	670040064	67	4141
2026-01-11 04:33:33.94	343.13	23.96	-50.2	-51.6	15.3	0.00e+00	0	25	0	672137216	67	4051
2026-01-11 04:33:34.94	342.85	23.94	-50.0	-51.5	15.2	0.00e+00	0	25	0	674234368	66	4227
2026-01-11 04:33:35.93	342.57	23.92	-50.1	-51.5	15.2	0.00e+00	0	25	0	675282944	66	4241
2026-01-11 04:33:36.92	342.30	23.90	-50.0	-51.4	15.2	0.00e+00	0	25	0	677380096	66	4177
2026-01-11 04:33:37.91	342.02	23.88	-50.0	-51.5	15.2	0.00e+00	0	25	0	679477248	66	4205
2026-01-11 04:33:38.91	341.74	23.86	-50.0	-51.5	15.2	0.00e+00	0	25	0	681574400	66	4204
2026-01-11 04:33:39.91	341.46	23.84	-50.0	-51.5	15.2	0.00e+00	0	25	0	682622976	66	4208
2026-01-11 04:33:40.90	341.19	23.81	-50.0	-51.4	15.2	0.00e+00	0	25	0	684720128	66	4185
2026-01-11 04:33:41.90	340.91	23.79	-49.9	-51.3	15.3	0.00e+00	0	25	0	686817280	66	4120
2026-01-11 04:33:42.89	340.63	23.76	-49.8	-51.3	15.3	0.00e+00	0	25	0	688914432	66	4105
2026-01-11 04:33:43.89	340.36	23.74	-49.9	-51.4	15.2	0.00e+00	0	25	0	691011584	66	4147
2026-01-11 04:33:44.88	340.08	23.71	-50.0	-51.4	15.2	0.00e+00	0	25	0	692060160	66	4174
2026-01-11 04:33:45.87	339.81	23.69	-49.9	-51.3	15.2	0.00e+00	0	25	0	694157312	66	4127
2026-01-11 04:33:46.87	339.53	23.66	-50.0	-51.4	15.2	0.00e+00	0	25	0	696254464	66	4184
2026-01-11 04:33:47.87	339.26	23.63	-50.0	-51.5	15.2	0.00e+00	0	25	0	698351616	66	4227
2026-01-11 04:33:48.87	338.99	23.60	-50.2	-51.7	15.1	0.00e+00	0	25	0	699400192	66	4292
2026-01-11 04:33:49.88	338.71	23.57	-50.2	-51.7	15.1	0.00e+00	0	25	0	701497344	66	4332
2026-01-11 04:33:50.88	338.43	23.54	-50.3	-51.8	15.0	0.00e+00	0	25	0	703594496	66	4382
2026-01-11 04:33:51.88	338.16	23.51	-50.3	-51.9	15.0	0.00e+00	0	25	0	705691648	66	4393
2026-01-11 04:33:52.88	337.89	23.48	-50.3	-51.8	15.1	0.00e+00	0	25	0	707788800	66	4345
2026-01-11 04:33:53.89	337.61	23.45	-50.4	-51.9	15.0	0.00e+00	0	25	0	708837376	66	4409
2026-01-11 04:33:54.89	337.34	23.41	-50.4	-51.9	15.0	0.00e+00	0	25	0	710934528	66	4423
2026-01-11 04:33:55.89	337.07	23.38	-50.5	-52.1	15.0	0.00e+00	0	25	0	713031680	66	4499
2026-01-11 04:33:56.89	336.80	23.35	-50.6	-52.1	14.9	0.00e+00	0	25	0	715128832	66	4535
2026-01-11 04:33:57.88	336.54	23.31	-50.7	-52.3	14.9	0.00e+00	0	25	0	717225984	66	4605
2026-01-11 04:33:58.89	336.26	23.28	-50.6	-52.2	14.9	0.00e+00	0	25	0	718274560	66	4578
2026-01-11 04:33:59.89	336.00	23.24	-50.7	-52.3	14.8	0.00e+00	0	25	0	720371712	66	4619
2026-01-11 04:34:00.88	335.73	23.21	-50.8	-52.4	14.8	0.00e+00	0	25	0	722468864	66	4703
2026-01-11 04:34:01.89	335.46	23.17	-51.1	-52.7	14.8	0.00e+00	0	25	0	724566016	67	4582
2026-01-11 04:34:02.89	335.19	23.13	-51.1	-52.8	14.8	0.00e+00	0	25	0	726663168	67	4628
2026-01-11 04:34:03.89	334.93	23.09	-51.1	-52.8	14.8	0.00e+00	0	25	0	727711744	67	4601
2026-01-11 04:34:04.89	334.66	23.05	-51.2	-52.8	14.8	0.00e+00	0	25	0	729808896	67	4642
2026-01-11 04:34:05.89	334.40	23.01	-51.2	-52.8	14.8	0.00e+00	0	25	0	731906048	67	4645
2026-01-11 04:34:06.89	334.14	22.97	-51.2	-52.9	14.8	0.00e+00	0	25	0	734003200	67	4667
2026-01-11 04:34:07.89	333.87	22.93	-51.2	-52.8	14.8	0.00e+00	0	25	0	735051776	67	4633
2026-01-11 04:34:08.89	333.61	22.89	-51.2	-52.9	14.7	0.00e+00	0	25	0	737148928	67	4665
2026-01-11 04:34:09.89	333.35	22.85	-51.2	-52.9	14.7	0.00e+00	0	25	0	739246080	67	4695
2026-01-11 04:34:10.90	333.08	22.81	-51.3	-53.0	14.7	0.00e+00	0	25	0	741343232	67	4740
2026-01-11 04:34:11.89	332.83	22.76	-51.4	-53.1	14.7	0.00e+00	0	25	0	743440384	67	4772
2026-01-11 04:34:12.89	332.57	22.72	-51.6	-53.4	14.7	0.00e+00	0	25	0	744488960	68	4665
2026-01-11 04:34:13.90	332.31	22.67	-51.7	-53.5	14.6	0.00e+00	0	25	0	746586112	68	4724
2026-01-11 04:34:14.89	332.05	22.63	-51.8	-53.5	14.6	0.00e+00	0	25	0	748683264	68	4754
2026-01-11 04:34:15.89	331.79	22.58	-51.8	-53.6	14.6	0.00e+00	0	25	0	750780416	68	4780
2026-01-11 04:34:16.89	331.54	22.54	-51.9	-53.7	14.6	0.00e+00	0	25	0	752877568	68	4817
2026-01-11 04:34:17.89	331.28	22.49	-52.0	-53.8	14.6	0.00e+00	0	25	0	753926144	69	4607
2026-01-11 04:34:18.90	331.02	22.44	-51.9	-53.7	14.7	0.00e+00	0	25	0	756023296	69	4564
2026-01-11 04:34:19.90	330.77	22.40	-52.0	-53.8	14.6	0.00e+00	0	25	0	758120448	69	4611
2026-01-11 04:34:20.90	330.52	22.35	-51.9	-53.7	14.7	0.00e+00	0	25	0	760217600	69	4571
2026-01-11 04:34:21.90	330.26	22.30	-51.9	-53.7	14.7	0.00e+00	0	25	0	761266176	69	4578
2026-01-11 04:34:22.90	330.01	22.25	-51.9	-53.7	14.6	0.00e+00	0	25	0	763363328	69	4596
2026-01-11 04:34:23.90	329.76	22.20	-52.0	-53.9	14.6	0.00e+00	0	25	0	765460480	69	4667
2026-01-11 04:34:24.89	329.51	22.15	-52.1	-53.9	14.5	0.00e+00	0	25	0	767557632	69	4696
2026-01-11 04:34:25.88	329.27	22.10	-52.2	-54.1	14.5	0.00e+00	0	25	0	769654784	69	4772
2026-01-11 04:34:26.87	329.02	22.05	-52.2	-54.0	14.5	0.00e+00	0	25	0	770703360	69	4757
2026-01-11 04:34:27.87	328.77	22.00	-52.3	-54.2	14.4	0.00e+00	0	26	0	772800512	69	4823
2026-01-11 04:34:28.86	328.53	21.95	-52.3	-54.3	14.4	0.00e+00	0	25	0	774897664	69	4873
2026-01-11 04:34:29.86	328.28	21.90	-52.3	-54.2	14.4	0.00e+00	0	25	0	776994816	69	4852
2026-01-11 04:34:30.86	328.04	21.84	-52.3	-54.2	14.5	0.00e+00	0	25	0	778043392	69	4823
2026-01-11 04:34:31.85	327.80	21.79	-52.1	-54.0	14.6	0.00e+00	0	25	0	780140544	69	4710
2026-01-11 04:34:32.84	327.55	21.74	-52.1	-53.9	14.6	0.00e+00	0	26	0	782237696	69	4676
2026-01-11 04:34:33.83	327.31	21.68	-52.1	-53.9	14.6	0.00e+00	0	25	0	784334848	69	4699
2026-01-11 04:34:34.84	327.07	21.63	-52.1	-54.0	14.6	0.00e+00	0	25	0	786432000	69	4717
2026-01-11 04:34:35.83	326.83	21.58	-52.2	-54.1	14.5	0.00e+00	0	25	0	787480576	69	4806
2026-01-11 04:34:36.83	326.59	21.52	-52.5	-54.5	14.4	0.00e+00	0	25	0	789577728	70	4751
2026-01-11 04:34:37.83	326.35	21.46	-52.5	-54.5	14.4	0.00e+00	0	25	0	791674880	70	4732
2026-01-11 04:34:38.82	326.12	21.41	-52.5	-54.5	14.4	0.00e+00	0	25	0	793772032	70	4741
2026-01-11 04:34:39.82	325.88	21.35	-52.4	-54.4	14.5	0.00e+00	0	25	0	795869184	70	4658
2026-01-11 04:34:40.82	325.64	21.30	-52.3	-54.2	14.6	0.00e+00	0	25	0	796917760	70	4590
2026-01-11 04:34:41.81	325.41	21.24	-52.2	-54.1	14.6	0.00e+00	0	25	0	799014912	70	4532
2026-01-11 04:34:42.82	325.17	21.18	-52.3	-54.2	14.6	0.00e+00	0	25	0	801112064	70	4555
2026-01-11 04:34:43.81	324.94	21.12	-52.1	-54.0	14.7	0.00e+00	0	25	0	803209216	70	4456
2026-01-11 04:34:44.81	324.71	21.06	-52.1	-54.0	14.7	0.00e+00	0	25	0	804257792	70	4469
2026-01-11 04:34:45.81	324.47	21.00	-52.1	-53.9	14.7	0.00e+00	0	25	0	806354944	70	4430
2026-01-11 04:34:46.81	324.24	20.95	-52.2	-54.0	14.6	0.00e+00	0	25	0	808452096	70	4483
2026-01-11 04:34:47.82	324.01	20.89	-52.3	-54.1	14.6	0.00e+00	0	25	0	810549248	70	4535
2026-01-11 04:34:48.82	323.78	20.83	-52.2	-54.1	14.6	0.00e+00	0	25	0	812646400	70	4524
2026-01-11 04:34:49.81	323.55	20.77	-52.1	-54.0	14.7	0.00e+00	0	25	0	813694976	70	4445
2026-01-11 04:34:50.80	323.33	20.71	-52.2	-54.0	14.7	0.00e+00	0	25	0	815792128	70	4478
2026-01-11 04:34:51.80	323.10	20.64	-52.0	-53.8	14.7	0.00e+00	0	25	0	817889280	70	4385
2026-01-11 04:34:52.81	322.87	20.58	-51.8	-53.5	14.9	0.00e+00	0	25	0	819986432	70	4231
2026-01-11 04:34:53.80	322.65	20.52	-51.7	-53.4	15.0	0.00e+00	0	25	0	822083584	70	4181
2026-01-11 04:34:54.80	322.43	20.46	-51.6	-53.3	14.9	0.00e+00	0	25	0	823132160	69	4363
2026-01-11 04:34:55.79	322.21	20.40	-51.6	-53.3	14.8	0.00e+00	0	25	0	825229312	69	4387
2026-01-11 04:34:56.79	321.98	20.34	-51.6	-53.3	14.8	0.00e+00	0	25	0	827326464	69	4376
2026-01-11 04:34:57.78	321.76	20.27	-51.6	-53.3	14.8	0.00e+00	0	25	0	829423616	69	4389
2026-01-11 04:34:58.78	321.54	20.21	-51.6	-53.3	14.8	0.00e+00	0	25	0	830472192	69	4367
2026-01-11 04:34:59.77	321.33	20.15	-51.6	-53.3	14.7	0.00e+00	0	25	0	832569344	69	4377
2026-01-11 04:35:00.77	321.11	20.08	-51.7	-53.5	14.8	0.00e+00	0	25	0	834666496	69	4447
2026-01-11 04:35:01.77	320.89	20.02	-51.7	-53.5	14.7	0.00e+00	0	25	0	836763648	69	4477
2026-01-11 04:35:02.77	320.67	19.96	-51.8	-53.6	14.7	0.00e+00	0	25	0	838860800	69	4535
2026-01-11 04:35:03.76	320.46	19.89	-51.8	-53.6	14.7	0.00e+00	0	25	0	839909376	69	4504
2026-01-11 04:35:04.76	320.24	19.83	-51.9	-53.7	14.7	0.00e+00	0	25	0	842006528	69	4560
2026-01-11 04:35:05.76	320.03	19.76	-51.7	-53.5	14.8	0.00e+00	0	25	0	844103680	69	4477
2026-01-11 04:35:06.76	319.82	19.70	-51.8	-53.6	14.7	0.00e+00	0	25	0	846200832	69	4511
2026-01-11 04:35:07.75	319.61	19.63	-51.7	-53.5	14.8	0.00e+00	0	25	0	847249408	69	4448
2026-01-11 04:35:08.75	319.40	19.57	-51.8	-53.5	14.7	0.00e+00	0	25	0	849346560	69	4492
2026-01-11 04:35:09.76	319.18	19.50	-51.7	-53.5	14.8	0.00e+00	0	25	0	851443712	69	4456
2026-01-11 04:35:10.76	318.97	19.43	-51.7	-53.5	14.7	0.00e+00	0	25	0	853540864	69	4467
2026-01-11 04:35:11.76	318.77	19.37	-51.7	-53.5	14.7	0.00e+00	0	25	0	855638016	69	4481
2026-01-11 04:35:12.76	318.56	19.30	-51.6	-53.4	14.8	0.00e+00	0	25	0	856686592	69	4421
2026-01-11 04:35:13.76	318.35	19.23	-51.7	-53.5	14.8	0.00e+00	0	25	0	858783744	69	4448
2026-01-11 04:35:14.76	318.15	19.17	-51.7	-53.5	14.8	0.00e+00	0	25	0	860880896	69	4458
2026-01-11 04:35:15.76	317.94	19.10	-51.8	-53.5	14.7	0.00e+00	0	25	0	862978048	69	4492
2026-01-11 04:35:16.75	317.74	19.03	-51.7	-53.5	14.7	0.00e+00	0	25	0	865075200	69	4475
2026-01-11 04:35:17.75	317.54	18.97	-51.8	-53.5	14.7	0.00e+00	0	25	0	866123776	69	4492
2026-01-11 04:35:18.75	317.33	18.90	-51.8	-53.6	14.7	0.00e+00	0	25	0	868220928	69	4494
2026-01-11 04:35:19.75	317.13	18.83	-51.8	-53.6	14.7	0.00e+00	0	25	0	870318080	69	4505
2026-01-11 04:35:20.74	316.93	18.76	-51.7	-53.5	14.8	0.00e+00	0	25	0	872415232	69	4458
2026-01-11 04:35:21.74	316.73	18.69	-51.8	-53.7	14.7	0.00e+00	0	25	0	874512384	69	4552
2026-01-11 04:35:22.73	316.54	18.63	-51.8	-53.6	14.7	0.00e+00	0	25	0	875560960	69	4523
2026-01-11 04:35:23.73	316.34	18.56	-51.8	-53.6	14.7	0.00e+00	0	25	0	877658112	69	4541
2026-01-11 04:35:24.73	316.14	18.49	-51.8	-53.6	14.7	0.00e+00	0	25	0	879755264	69	4519
2026-01-11 04:35:25.72	315.95	18.42	-51.9	-53.8	14.6	0.00e+00	0	25	0	881852416	69	4599
2026-01-11 04:35:26.71	315.76	18.35	-51.8	-53.7	14.7	0.00e+00	0	25	0	882900992	69	4553
2026-01-11 04:35:27.72	315.56	18.28	-51.8	-53.6	14.7	0.00e+00	0	25	0	884998144	69	4517
2026-01-11 04:35:28.72	315.37	18.21	-51.8	-53.6	14.7	0.00e+00	0	25	0	887095296	69	4513
2026-01-11 04:35:29.71	315.18	18.14	-51.7	-53.5	14.7	0.00e+00	0	25	0	889192448	69	4475
2026-01-11 04:35:30.71	314.99	18.07	-51.8	-53.6	14.7	0.00e+00	0	25	0	891289600	69	4507
2026-01-11 04:35:31.70	314.80	18.00	-51.7	-53.5	14.8	0.00e+00	0	25	0	892338176	69	4444
2026-01-11 04:35:32.71	314.61	17.93	-51.8	-53.5	14.7	0.00e+00	0	25	0	894435328	69	4493
2026-01-11 04:35:33.70	314.42	17.86	-51.7	-53.5	14.7	0.00e+00	0	25	0	896532480	69	4452
2026-01-11 04:35:34.71	314.23	17.79	-51.7	-53.5	14.7	0.00e+00	0	26	0	898629632	69	4448
2026-01-11 04:35:35.70	314.04	17.72	-51.6	-53.4	14.8	0.00e+00	0	25	0	899678208	69	4414
2026-01-11 04:35:36.69	313.86	17.65	-51.6	-53.4	14.8	0.00e+00	0	25	0	901775360	69	4426
2026-01-11 04:35:37.68	313.68	17.58	-51.6	-53.3	14.8	0.00e+00	0	25	0	903872512	69	4379
2026-01-11 04:35:38.68	313.49	17.51	-51.6	-53.3	14.8	0.00e+00	0	25	0	905969664	69	4373
2026-01-11 04:35:39.67	313.31	17.44	-51.5	-53.3	14.9	0.00e+00	0	25	0	908066816	69	4354
2026-01-11 04:35:40.67	313.13	17.37	-51.6	-53.3	14.8	0.00e+00	0	25	0	909115392	69	4366
2026-01-11 04:35:41.73	312.94	17.30	-51.5	-53.2	14.9	0.00e+00	0	25	0	911212544	69	4328
2026-01-11 04:35:42.64	312.77	17.23	-51.5	-53.2	14.9	0.00e+00	0	25	0	913309696	69	4303
2026-01-11 04:35:43.66	312.59	17.16	-51.4	-53.1	14.9	0.00e+00	0	25	0	915406848	69	4255
2026-01-11 04:35:44.65	312.41	17.09	-51.4	-53.1	14.9	0.00e+00	0	25	0	916455424	69	4278
2026-01-11 04:35:45.65	312.23	17.02	-51.3	-53.0	15.0	0.00e+00	0	25	0	918552576	69	4226
2026-01-11 04:35:46.65	312.05	16.95	-51.2	-52.9	15.0	0.00e+00	0	25	0	920649728	69	4168
2026-01-11 04:35:47.66	311.88	16.87	-51.3	-53.0	15.0	0.00e+00	0	26	0	922746880	69	4198
2026-01-11 04:35:48.67	311.70	16.80	-51.1	-52.8	14.9	0.00e+00	0	25	0	924844032	68	4342
2026-01-11 04:35:49.67	311.52	16.73	-51.2	-52.9	14.9	0.00e+00	0	25	0	925892608	68	4407
2026-01-11 04:35:50.67	311.35	16.66	-51.2	-52.9	14.9	0.00e+00	0	25	0	927989760	68	4400
2026-01-11 04:35:51.67	311.18	16.59	-51.3	-53.0	14.8	0.00e+00	0	25	0	930086912	68	4464
2026-01-11 04:35:52.67	311.00	16.51	-51.2	-52.9	14.8	0.00e+00	0	25	0	932184064	68	4430
2026-01-11 04:35:53.67	310.83	16.44	-51.3	-53.0	14.8	0.00e+00	0	26	0	933232640	68	4449
2026-01-11 04:35:54.67	310.66	16.37	-51.2	-52.9	14.9	0.00e+00	0	25	0	935329792	68	4421
2026-01-11 04:35:55.67	310.49	16.30	-51.0	-52.7	15.0	0.00e+00	0	25	0	937426944	68	4316
2026-01-11 04:35:56.67	310.32	16.23	-51.1	-52.7	14.9	0.00e+00	0	25	0	939524096	68	4339
2026-01-11 04:35:57.67	310.15	16.15	-51.0	-52.7	15.0	0.00e+00	0	25	0	941621248	68	4297
2026-01-11 04:35:58.67	309.99	16.08	-51.0	-52.6	15.0	0.00e+00	0	25	0	942669824	68	4277
2026-01-11 04:35:59.67	309.82	16.01	-50.9	-52.5	15.0	0.00e+00	0	25	0	944766976	68	4232
2026-01-11 04:36:00.67	309.65	15.94	-50.9	-52.5	15.0	0.00e+00	0	25	0	946864128	68	4231
2026-01-11 04:36:01.67	309.49	15.87	-50.9	-52.5	15.1	0.00e+00	0	25	0	948961280	68	4200
2026-01-11 04:36:02.68	309.32	15.79	-50.8	-52.4	15.1	0.00e+00	0	25	0	951058432	68	4192
2026-01-11 04:36:03.68	309.16	15.72	-50.9	-52.6	15.0	0.00e+00	0	25	0	952107008	68	4251
2026-01-11 04:36:04.68	309.00	15.65	-51.0	-52.7	15.0	0.00e+00	0	25	0	954204160	68	4303
2026-01-11 04:36:05.68	308.84	15.58	-50.9	-52.6	15.0	0.00e+00	0	26	0	956301312	68	4257
2026-01-11 04:36:06.67	308.68	15.50	-51.1	-52.7	14.9	0.00e+00	0	25	0	958398464	68	4330
2026-01-11 04:36:07.67	308.52	15.43	-51.0	-52.7	15.0	0.00e+00	0	25	0	960495616	68	4306
2026-01-11 04:36:08.67	308.36	15.36	-51.1	-52.8	14.9	0.00e+00	0	26	0	961544192	68	4360
2026-01-11 04:36:09.67	308.20	15.29	-51.0	-52.7	15.0	0.00e+00	0	25	0	963641344	68	4304
2026-01-11 04:36:10.67	308.04	15.21	-50.9	-52.6	15.0	0.00e+00	0	25	0	965738496	68	4248
2026-01-11 04:36:11.66	307.89	15.14	-50.9	-52.6	15.0	0.00e+00	0	25	0	967835648	68	4256
2026-01-11 04:36:12.67	307.73	15.07	-50.9	-52.6	15.0	0.00e+00	0	25	0	968884224	68	4250
2026-01-11 04:36:13.67	307.57	15.00	-50.9	-52.5	15.0	0.00e+00	0	25	0	970981376	68	4235
2026-01-11 04:36:14.67	307.42	14.92	-50.9	-52.6	15.0	0.00e+00	0	25	0	973078528	68	4258
2026-01-11 04:36:15.67	307.26	14.85	-51.0	-52.6	15.0	0.00e+00	0	25	0	975175680	68	4289
2026-01-11 04:36:16.67	307.11	14.78	-51.0	-52.7	15.0	0.00e+00	0	25	0	977272832	68	4316
2026-01-11 04:36:17.67	306.96	14.71	-51.1	-52.7	14.9	0.00e+00	0	25	0	978321408	68	4329
2026-01-11 04:36:18.68	306.81	14.63	-51.0	-52.7	14.9	0.00e+00	0	25	0	980418560	68	4310
2026-01-11 04:36:19.68	306.65	14.56	-51.1	-52.8	14.9	0.00e+00	0	25	0	982515712	68	4341
2026-01-11 04:36:20.67	306.51	14.49	-51.1	-52.7	14.9	0.00e+00	0	25	0	984612864	68	4338
2026-01-11 04:36:21.67	306.36	14.42	-51.1	-52.8	14.9	0.00e+00	0	25	0	986710016	68	4363
2026-01-11 04:36:22.67	306.21	14.35	-51.1	-52.8	14.9	0.00e+00	0	25	0	987758592	68	4370
2026-01-11 04:36:23.67	306.06	14.27	-51.2	-52.9	14.9	0.00e+00	0	25	0	989855744	68	4399
2026-01-11 04:36:24.67	305.91	14.20	-51.2	-52.9	14.9	0.00e+00	0	25	0	991952896	68	4413
2026-01-11 04:36:25.67	305.77	14.13	-51.3	-53.0	14.8	0.00e+00	0	26	0	994050048	68	4485
2026-01-11 04:36:26.67	305.62	14.06	-51.4	-53.1	14.8	0.00e+00	0	25	0	995098624	68	4518
2026-01-11 04:36:27.67	305.47	13.99	-51.4	-53.2	14.7	0.00e+00	0	25	0	997195776	68	4574
2026-01-11 04:36:28.67	305.33	13.91	-51.5	-53.4	14.6	0.00e+00	0	25	0	999292928	68	4654
2026-01-11 04:36:29.68	305.19	13.84	-51.6	-53.5	14.6	0.00e+00	0	25	0	1001390080	68	4717
2026-01-11 04:36:30.69	305.04	13.77	-51.7	-53.5	14.6	0.00e+00	0	25	0	1003487232	68	4736
2026-01-11 04:36:31.68	304.90	13.70	-51.8	-53.7	14.5	0.00e+00	0	25	0	1004535808	68	4816
2026-01-11 04:36:32.67	304.76	13.62	-51.7	-53.6	14.5	0.00e+00	0	25	0	1006632960	68	4779
2026-01-11 04:36:33.67	304.62	13.55	-51.7	-53.6	14.5	0.00e+00	0	25	0	1008730112	68	4776
2026-01-11 04:36:34.67	304.48	13.48	-51.7	-53.6	14.5	0.00e+00	0	25	0	1010827264	68	4770
2026-01-11 04:36:35.67	304.34	13.41	-51.7	-53.5	14.6	0.00e+00	0	25	0	1012924416	68	4727
2026-01-11 04:36:36.68	304.20	13.34	-51.6	-53.5	14.6	0.00e+00	0	25	0	1013972992	68	4709
2026-01-11 04:36:37.67	304.06	13.27	-51.6	-53.4	14.6	0.00e+00	0	25	0	1016070144	68	4669
2026-01-11 04:36:38.67	303.93	13.19	-51.7	-53.5	14.6	0.00e+00	0	25	0	1018167296	68	4727
2026-01-11 04:36:39.66	303.79	13.12	-51.5	-53.3	14.6	0.00e+00	0	26	0	1020264448	68	4640
2026-01-11 04:36:40.65	303.66	13.05	-51.5	-53.3	14.6	0.00e+00	0	25	0	1022361600	68	4637
2026-01-11 04:36:41.65	303.52	12.98	-51.6	-53.4	14.6	0.00e+00	0	25	0	1023410176	68	4693
2026-01-11 04:36:42.65	303.39	12.91	-51.7	-53.5	14.5	0.00e+00	0	25	0	1025507328	68	4755
2026-01-11 04:36:43.64	303.25	12.84	-51.8	-53.7	14.4	0.00e+00	0	25	0	1027604480	68	4838
2026-01-11 04:36:44.63	303.12	12.77	-51.9	-53.8	14.4	0.00e+00	0	25	0	1029701632	68	4903
2026-01-11 04:36:45.63	302.99	12.70	-52.0	-53.9	14.5	0.00e+00	0	25	0	1030750208	69	4692
2026-01-11 04:36:46.62	302.86	12.62	-52.1	-54.0	14.4	0.00e+00	0	25	0	1032847360	69	4756
2026-01-11 04:36:47.63	302.72	12.55	-52.1	-54.0	14.4	0.00e+00	0	25	0	1034944512	69	4745
2026-01-11 04:36:48.62	302.60	12.48	-52.0	-54.0	14.4	0.00e+00	0	25	0	1037041664	69	4716
2026-01-11 04:36:49.62	302.46	12.41	-52.0	-53.9	14.5	0.00e+00	0	25	0	1039138816	69	4688
2026-01-11 04:36:50.62	302.34	12.34	-51.9	-53.9	14.5	0.00e+00	0	25	0	1040187392	69	4666
2026-01-11 04:36:51.62	302.21	12.27	-52.0	-54.0	14.5	0.00e+00	0	25	0	1042284544	69	4707
2026-01-11 04:36:52.62	302.08	12.20	-52.0	-53.9	14.5	0.00e+00	0	25	0	1044381696	69	4673
2026-01-11 04:36:53.61	301.95	12.13	-52.0	-53.9	14.5	0.00e+00	0	25	0	1046478848	69	4688
2026-01-11 04:36:54.61	301.83	12.06	-52.1	-54.1	14.4	0.00e+00	0	25	0	1047527424	69	4761
2026-01-11 04:36:55.61	301.70	11.99	-52.1	-54.0	14.4	0.00e+00	0	25	0	1049624576	69	4749
2026-01-11 04:36:56.61	301.57	11.92	-52.1	-54.0	14.4	0.00e+00	0	25	0	1051721728	69	4755
2026-01-11 04:36:57.62	301.45	11.84	-52.1	-54.1	14.4	0.00e+00	0	26	0	1053818880	69	4804
2026-01-11 04:36:58.62	301.32	11.77	-52.1	-54.1	14.4	0.00e+00	0	26	0	1055916032	69	4798
2026-01-11 04:36:59.61	301.20	11.70	-52.2	-54.2	14.3	0.00e+00	0	25	0	1056964608	69	4845
2026-01-11 04:37:00.61	301.08	11.63	-52.2	-54.2	14.3	0.00e+00	0	25	0	1059061760	69	4815
2026-01-11 04:37:01.60	300.95	11.56	-52.2	-54.2	14.3	0.00e+00	0	25	0	1061158912	69	4860
2026-01-11 04:37:02.61	300.83	11.49	-52.3	-54.4	14.2	0.00e+00	0	25	0	1063256064	69	4940
2026-01-11 04:37:03.61	300.71	11.42	-52.2	-54.3	14.3	0.00e+00	0	26	0	1065353216	69	4873
2026-01-11 04:37:04.61	300.59	11.35	-52.3	-54.3	14.3	0.00e+00	0	26	0	1066401792	69	4901
2026-01-11 04:37:05.62	300.47	11.28	-52.2	-54.3	14.3	0.00e+00	0	25	0	1068498944	69	4884
2026-01-11 04:37:06.62	300.35	11.21	-52.3	-54.4	14.2	0.00e+00	0	25	0	1070596096	69	4936
2026-01-11 04:37:07.63	300.23	11.14	-52.4	-54.4	14.2	0.00e+00	0	26	0	1072693248	69	4979
2026-01-11 04:37:08.63	300.11	11.07	-52.5	-54.6	14.2	0.00e+00	0	25	0	1073741824	70	4788
2026-01-11 04:37:09.63	299.99	11.00	-52.5	-54.6	14.3	0.00e+00	0	25	0	1075838976	70	4760
2026-01-11 04:37:10.62	299.88	10.93	-52.5	-54.6	14.2	0.00e+00	0	25	0	1077936128	70	4802
2026-01-11 04:37:11.62	299.76	10.86	-52.5	-54.7	14.2	0.00e+00	0	25	0	1080033280	70	4830
2026-01-11 04:37:12.62	299.64	10.79	-52.6	-54.8	14.2	0.00e+00	0	25	0	1082130432	70	4890
2026-01-11 04:37:13.61	299.53	10.72	-52.6	-54.7	14.2	0.00e+00	0	25	0	1083179008	70	4860
2026-01-11 04:37:14.61	299.41	10.65	-52.7	-54.9	14.1	0.00e+00	0	25	0	1085276160	70	4928
2026-01-11 04:37:15.61	299.30	10.59	-52.6	-54.8	14.1	0.00e+00	0	25	0	1087373312	70	4912
2026-01-11 04:37:16.61	299.18	10.52	-52.6	-54.8	14.1	0.00e+00	0	25	0	1089470464	70	4881
2026-01-11 04:37:17.61	299.07	10.45	-52.6	-54.7	14.2	0.00e+00	0	25	0	1091567616	70	4858
2026-01-11 04:37:18.61	298.96	10.38	-52.6	-54.8	14.1	0.00e+00	0	25	0	1092616192	70	4874
2026-01-11 04:37:19.61	298.85	10.31	-52.5	-54.6	14.2	0.00e+00	0	25	0	1094713344	70	4765
2026-01-11 04:37:20.60	298.73	10.24	-52.4	-54.5	14.3	0.00e+00	0	25	0	1096810496	70	4755
2026-01-11 04:37:21.61	298.62	10.17	-52.5	-54.6	14.2	0.00e+00	0	25	0	1098907648	70	4812
2026-01-11 04:37:22.61	298.51	10.10	-52.5	-54.6	14.2	0.00e+00	0	25	0	1101004800	70	4766
2026-01-11 04:37:23.60	298.40	10.03	-52.5	-54.6	14.2	0.00e+00	0	25	0	1102053376	70	4807
2026-01-11 04:37:24.60	298.29	9.97	-52.5	-54.6	14.2	0.00e+00	0	25	0	1104150528	70	4808
2026-01-11 04:37:25.60	298.18	9.90	-52.6	-54.8	14.1	0.00e+00	0	25	0	1106247680	70	4878
2026-01-11 04:37:26.60	298.07	9.83	-52.7	-54.9	14.1	0.00e+00	0	25	0	1108344832	70	4945
2026-01-11 04:37:27.60	297.97	9.76	-52.8	-55.0	14.0	0.00e+00	0	25	0	1109393408	70	5035
2026-01-11 04:37:28.60	297.86	9.69	-53.0	-55.3	14.0	0.00e+00	0	25	0	1111490560	71	4894
2026-01-11 04:37:29.59	297.75	9.63	-53.0	-55.3	14.0	0.00e+00	0	25	0	1113587712	71	4888
2026-01-11 04:37:30.58	297.65	9.56	-53.0	-55.4	13.9	0.00e+00	0	25	0	1115684864	71	4963
2026-01-11 04:37:31.57	297.54	9.49	-53.0	-55.3	14.0	0.00e+00	0	25	0	1117782016	71	4895
2026-01-11 04:37:32.58	297.44	9.42	-53.2	-55.6	13.8	0.00e+00	0	25	0	1118830592	71	5074
2026-01-11 04:37:33.57	297.33	9.36	-53.1	-55.5	13.8	0.00e+00	0	25	0	1120927744	71	5033
2026-01-11 04:37:34.57	297.23	9.29	-53.1	-55.6	13.8	0.00e+00	0	25	0	1123024896	71	5048
2026-01-11 04:37:35.57	297.12	9.22	-53.1	-55.5	13.8	0.00e+00	0	25	0	1125122048	71	5041
2026-01-11 04:37:36.56	297.02	9.15	-53.1	-55.5	13.8	0.00e+00	0	25	0	1126170624	71	4993
2026-01-11 04:37:37.56	296.92	9.09	-53.1	-55.5	13.8	0.00e+00	0	25	0	1128267776	71	5015
2026-01-11 04:37:38.56	296.82	9.02	-53.2	-55.6	13.8	0.00e+00	0	25	0	1130364928	71	5046
2026-01-11 04:37:39.55	296.71	8.95	-53.2	-55.7	13.7	0.00e+00	0	25	0	1132462080	71	5136
2026-01-11 04:37:40.55	296.61	8.88	-53.3	-55.7	13.7	0.00e+00	0	25	0	1134559232	71	5148
2026-01-11 04:37:41.55	296.51	8.82	-53.4	-55.9	13.6	0.00e+00	0	25	0	1135607808	71	5261
2026-01-11 04:37:42.55	296.41	8.75	-53.3	-55.8	13.6	0.00e+00	0	25	0	1137704960	71	5206
2026-01-11 04:37:43.55	296.31	8.68	-53.4	-56.0	13.5	0.00e+00	0	26	0	1139802112	71	5308
2026-01-11 04:37:44.54	296.21	8.62	-53.5	-56.1	13.6	0.00e+00	0	25	0	1141899264	72	5066
2026-01-11 04:37:45.54	296.11	8.55	-53.6	-56.2	13.5	0.00e+00	0	25	0	1143996416	72	5146
2026-01-11 04:37:46.53	296.01	8.49	-53.6	-56.3	13.5	0.00e+00	0	25	0	1145044992	72	5201
2026-01-11 04:37:47.53	295.92	8.42	-53.6	-56.3	13.4	0.00e+00	0	25	0	1147142144	72	5208
2026-01-11 04:37:48.53	295.82	8.35	-53.7	-56.4	13.4	0.00e+00	0	25	0	1149239296	72	5257
2026-01-11 04:37:49.52	295.72	8.29	-53.6	-56.2	13.5	0.00e+00	0	26	0	1151336448	72	5133
2026-01-11 04:37:50.52	295.63	8.22	-53.6	-56.2	13.5	0.00e+00	0	25	0	1152385024	72	5144
2026-01-11 04:37:51.51	295.53	8.16	-53.5	-56.2	13.5	0.00e+00	0	25	0	1154482176	72	5119
2026-01-11 04:37:52.52	295.43	8.09	-53.5	-56.2	13.5	0.00e+00	0	25	0	1156579328	72	5117
2026-01-11 04:37:53.51	295.34	8.02	-53.5	-56.2	13.5	0.00e+00	0	25	0	1158676480	72	5114
2026-01-11 04:37:54.51	295.24	7.96	-53.5	-56.1	13.6	0.00e+00	0	26	0	1160773632	72	5063
2026-01-11 04:37:55.51	295.15	7.89	-53.5	-56.1	13.6	0.00e+00	0	25	0	1161822208	72	5045
2026-01-11 04:37:56.51	295.05	7.83	-53.4	-56.0	13.6	0.00e+00	0	25	0	1163919360	72	4994
2026-01-11 04:37:57.51	294.96	7.76	-53.5	-56.2	13.5	0.00e+00	0	25	0	1166016512	72	5114
2026-01-11 04:37:58.51	294.87	7.70	-53.5	-56.1	13.5	0.00e+00	0	25	0	1168113664	72	5084
2026-01-11 04:37:59.50	294.77	7.63	-53.5	-56.1	13.6	0.00e+00	0	25	0	1170210816	72	5058
2026-01-11 04:38:00.50	294.68	7.57	-53.5	-56.2	13.5	0.00e+00	0	25	0	1171259392	72	5138
2026-01-11 04:38:01.51	294.59	7.50	-53.6	-56.3	13.4	0.00e+00	0	25	0	1173356544	72	5182
2026-01-11 04:38:02.51	294.50	7.43	-53.7	-56.4	13.4	0.00e+00	0	25	0	1175453696	72	5254
2026-01-11 04:38:03.51	294.41	7.37	-53.6	-56.3	13.4	0.00e+00	0	25	0	1177550848	72	5171
2026-01-11 04:38:04.52	294.31	7.30	-53.6	-56.4	13.4	0.00e+00	0	26	0	1178599424	72	5229
2026-01-11 04:38:05.52	294.22	7.24	-53.6	-56.4	13.4	0.00e+00	0	25	0	1180696576	72	5231
2026-01-11 04:38:06.51	294.13	7.18	-53.8	-56.6	13.2	0.00e+00	0	25	0	1182793728	72	5367
2026-01-11 04:38:07.51	294.04	7.11	-53.8	-56.7	13.2	0.00e+00	0	26	0	1184890880	72	5416
2026-01-11 04:38:08.51	293.96	7.05	-53.7	-56.5	13.3	0.00e+00	0	25	0	1186988032	72	5316
2026-01-11 04:38:09.52	293.87	6.98	-53.8	-56.7	13.2	0.00e+00	0	25	0	1188036608	72	5439
2026-01-11 04:38:10.52	293.78	6.92	-53.9	-56.8	13.1	0.00e+00	0	25	0	1190133760	72	5470
2026-01-11 04:38:11.52	293.69	6.85	-53.9	-56.8	13.1	0.00e+00	0	25	0	1192230912	72	5471
2026-01-11 04:38:12.51	293.60	6.79	-53.8	-56.7	13.1	0.00e+00	0	25	0	1194328064	72	5444
2026-01-11 04:38:13.52	293.51	6.72	-54.0	-57.0	13.0	0.00e+00	0	26	0	1196425216	73	5328
2026-01-11 04:38:14.52	293.43	6.66	-53.9	-56.9	13.1	0.00e+00	0	25	0	1197473792	73	5223
2026-01-11 04:38:15.51	293.34	6.60	-54.0	-57.0	13.1	0.00e+00	0	26	0	1199570944	73	5302
2026-01-11 04:38:16.51	293.26	6.53	-54.0	-57.0	13.1	0.00e+00	0	25	0	1201668096	73	5304
2026-01-11 04:38:17.51	293.17	6.47	-53.9	-56.8	13.2	0.00e+00	0	25	0	1203765248	73	5183
2026-01-11 04:38:18.51	293.09	6.41	-54.0	-57.0	13.1	0.00e+00	0	25	0	1204813824	73	5295
2026-01-11 04:38:19.51	293.00	6.34	-54.1	-57.2	13.0	0.00e+00	0	25	0	1206910976	73	5415
