passes_logs/2026/01/11/R3.2S_Murmansk/R3.2S_Murmansk__20260111_104420_2024-110A_rec.log

#Pass ID: 20260111_104420_2024-110A
#Satellite: 2024-110A
#Configuration: 01B_900M
#almurnet v.1.7.20251203
#Start time: 2026-01-11 10:44:20

#Version: 2.2.20231116
#Station: R3.2S_Murmansk
#Location: 33.079688 lon 68.888172 lat
#TLE: 1 60012U 24110A   26010.96754270  .00007426  00000+0  45014-3 0  9991
#TLE: 2 60012  97.5746 104.0141 0010540  79.5319 280.7098 15.10812818 88155

#Time	Az	El	Level	Level2	SNR	BER	BlckErr	Temp	State	Recorded	gain1	gain2
2026-01-11 10:44:20.99	21.38	2.03	-56.5	-59.5	6.2	0.00e+00	0	24	0	0	80	19703
2026-01-11 10:44:21.99	21.38	2.10	-56.7	-59.8	6.2	0.00e+00	0	23	104	0	80	20272
2026-01-11 10:44:23.00	21.38	2.17	-56.7	-59.9	6.2	0.00e+00	0	24	104	0	80	20431
2026-01-11 10:44:24.01	21.38	2.24	-56.7	-59.9	6.2	0.00e+00	0	24	104	0	80	20449
2026-01-11 10:44:25.02	21.38	2.31	-56.7	-59.9	6.2	0.00e+00	0	24	104	0	80	20483
2026-01-11 10:44:26.03	21.38	2.39	-56.7	-59.9	6.2	0.00e+00	0	24	104	0	80	20609
2026-01-11 10:44:27.03	21.37	2.46	-56.7	-59.9	6.2	0.00e+00	0	24	104	0	80	20555
2026-01-11 10:44:28.04	21.37	2.53	-56.7	-59.9	6.2	0.00e+00	0	24	104	0	80	20430
2026-01-11 10:44:29.05	21.37	2.60	-56.7	-59.8	6.2	0.00e+00	0	24	104	0	80	20386
2026-01-11 10:44:30.06	21.37	2.67	-56.7	-59.8	6.2	0.00e+00	0	24	104	0	80	20346
2026-01-11 10:44:31.06	21.37	2.74	-56.6	-59.8	6.2	0.00e+00	0	24	104	0	80	20243
2026-01-11 10:44:32.07	21.37	2.81	-56.6	-59.8	6.2	0.00e+00	0	24	104	0	80	20206
2026-01-11 10:44:33.08	21.36	2.89	-56.6	-59.8	6.2	0.00e+00	0	24	104	0	80	20212
2026-01-11 10:44:34.09	21.36	2.96	-56.6	-59.8	6.2	0.00e+00	0	24	104	0	80	20213
2026-01-11 10:44:35.10	21.36	3.03	-56.7	-59.8	6.2	0.00e+00	0	24	104	0	80	20270
2026-01-11 10:44:36.11	21.36	3.11	-56.7	-59.8	6.2	0.00e+00	0	24	104	0	80	20352
2026-01-11 10:44:37.12	21.36	3.18	-56.7	-59.9	6.2	0.00e+00	0	24	104	0	80	20445
2026-01-11 10:44:38.12	21.35	3.25	-56.7	-59.9	6.2	0.00e+00	0	24	104	0	80	20491
2026-01-11 10:44:39.14	21.35	3.33	-56.7	-59.9	6.2	0.00e+00	0	24	104	0	80	20516
2026-01-11 10:44:40.14	21.35	3.40	-56.7	-59.9	6.2	0.00e+00	0	24	104	0	80	20570
2026-01-11 10:44:41.15	21.35	3.48	-56.7	-59.9	6.2	0.00e+00	0	24	104	0	80	20621
2026-01-11 10:44:42.16	21.34	3.55	-56.7	-59.9	6.2	0.00e+00	0	24	104	0	80	20521
2026-01-11 10:44:43.17	21.34	3.63	-56.7	-59.9	6.2	0.00e+00	0	24	104	0	80	20483
2026-01-11 10:44:44.18	21.34	3.70	-56.7	-59.9	6.2	0.00e+00	0	24	104	0	80	20437
2026-01-11 10:44:45.19	21.34	3.78	-56.7	-59.9	6.2	0.00e+00	0	24	104	0	80	20537
2026-01-11 10:44:46.20	21.33	3.85	-56.7	-59.9	6.2	0.00e+00	0	24	104	0	80	20410
2026-01-11 10:44:47.21	21.33	3.93	-56.7	-59.8	6.2	0.00e+00	0	24	104	0	80	20378
2026-01-11 10:44:48.21	21.33	4.00	-56.7	-59.8	6.2	0.00e+00	0	24	104	0	80	20382
2026-01-11 10:44:49.22	21.33	4.08	-56.7	-59.8	6.2	0.00e+00	0	24	104	0	80	20349
2026-01-11 10:44:50.23	21.32	4.16	-56.7	-59.9	6.2	0.00e+00	0	25	104	0	80	20425
2026-01-11 10:44:51.25	21.32	4.24	-56.7	-59.9	6.2	0.00e+00	0	24	104	0	80	20405
2026-01-11 10:44:52.25	21.32	4.31	-56.7	-59.9	6.2	0.00e+00	0	25	104	0	80	20473
2026-01-11 10:44:53.26	21.32	4.39	-56.7	-59.9	6.2	0.00e+00	0	25	104	0	80	20463
2026-01-11 10:44:54.27	21.31	4.47	-56.7	-59.9	6.2	0.00e+00	0	25	104	0	80	20480
2026-01-11 10:44:55.27	21.31	4.55	-56.7	-59.9	6.2	0.00e+00	0	25	104	0	80	20538
2026-01-11 10:44:56.29	21.31	4.63	-56.7	-59.9	6.2	0.00e+00	0	25	104	0	80	20414
2026-01-11 10:44:57.29	21.30	4.70	-56.7	-59.9	6.2	0.00e+00	0	25	104	0	80	20529
2026-01-11 10:44:58.30	21.30	4.78	-56.7	-59.9	6.2	0.00e+00	0	25	104	0	80	20536
2026-01-11 10:44:59.31	21.30	4.86	-56.7	-59.9	6.2	0.00e+00	0	25	104	0	80	20511
2026-01-11 10:45:00.32	21.29	4.94	-56.7	-59.9	6.2	0.00e+00	0	25	104	0	80	20547
2026-01-11 10:45:01.33	21.29	5.02	-56.7	-59.9	6.2	0.00e+00	0	25	104	0	80	20481
2026-01-11 10:45:02.33	21.29	5.10	-56.8	-59.9	6.2	0.00e+00	0	25	104	0	80	20617
2026-01-11 10:45:03.34	21.28	5.18	-56.9	-60.1	6.2	0.00e+00	0	25	104	0	80	20965
2026-01-11 10:45:04.34	21.28	5.26	-56.9	-60.1	6.2	0.00e+00	0	25	104	0	80	20882
2026-01-11 10:45:05.35	21.28	5.35	-56.7	-60.0	6.2	0.00e+00	0	25	104	0	80	20645
2026-01-11 10:45:06.35	21.27	5.43	-56.8	-60.0	6.2	0.00e+00	0	25	104	0	80	20809
2026-01-11 10:45:07.35	21.27	5.51	-56.9	-60.1	6.2	0.00e+00	0	25	104	0	80	20929
2026-01-11 10:45:08.34	21.27	5.59	-56.9	-60.1	6.2	0.00e+00	0	25	104	0	80	20965
2026-01-11 10:45:09.32	21.26	5.67	-56.8	-60.0	6.2	0.00e+00	0	25	104	0	80	20750
2026-01-11 10:45:10.29	21.26	5.75	-56.8	-60.0	6.2	0.00e+00	0	25	104	0	80	20829
2026-01-11 10:45:11.26	21.26	5.83	-56.9	-60.1	6.2	0.00e+00	0	25	104	0	80	20922
2026-01-11 10:45:12.23	21.25	5.91	-57.0	-60.1	6.2	0.00e+00	0	25	104	0	80	21082
2026-01-11 10:45:13.20	21.25	5.99	-56.8	-60.0	6.2	0.00e+00	0	25	104	0	80	20782
2026-01-11 10:45:14.17	21.25	6.07	-56.9	-60.1	6.2	0.00e+00	0	25	104	0	80	20988
2026-01-11 10:45:15.14	21.24	6.15	-56.9	-60.1	6.2	0.00e+00	0	25	104	0	80	20991
2026-01-11 10:45:16.10	21.24	6.23	-57.0	-60.2	6.2	0.00e+00	0	25	104	0	80	21228
2026-01-11 10:45:17.07	21.23	6.32	-56.8	-60.0	6.2	0.00e+00	0	25	104	0	80	20852
2026-01-11 10:45:18.03	21.23	6.40	-56.9	-60.1	6.2	0.00e+00	0	25	104	0	80	21104
2026-01-11 10:45:19.01	21.23	6.48	-56.9	-60.1	6.2	0.00e+00	0	25	104	0	80	21061
2026-01-11 10:45:19.98	21.22	6.57	-57.1	-60.3	6.2	0.00e+00	0	25	104	0	80	21393
2026-01-11 10:45:20.95	21.22	6.65	-56.9	-60.1	6.2	0.00e+00	0	25	104	0	80	20959
2026-01-11 10:45:21.91	21.21	6.73	-57.0	-60.2	6.2	0.00e+00	0	25	104	0	80	21184
2026-01-11 10:45:22.88	21.21	6.82	-57.0	-60.2	6.2	0.00e+00	0	25	104	0	80	21129
2026-01-11 10:45:23.85	21.20	6.90	-57.1	-60.3	6.2	0.00e+00	0	25	104	0	80	21449
2026-01-11 10:45:24.82	21.20	6.99	-56.9	-60.1	6.2	0.00e+00	0	25	104	0	80	21078
2026-01-11 10:45:25.79	21.20	7.07	-57.0	-60.2	6.2	0.00e+00	0	25	104	0	80	21224
2026-01-11 10:45:26.75	21.19	7.16	-57.0	-60.2	6.2	0.00e+00	0	25	104	0	80	21324
2026-01-11 10:45:27.72	21.19	7.24	-57.1	-60.3	6.2	0.00e+00	0	25	104	0	80	21509
2026-01-11 10:45:28.69	21.18	7.33	-57.0	-60.2	6.2	0.00e+00	0	25	104	0	80	21330
2026-01-11 10:45:29.66	21.18	7.42	-57.0	-60.2	6.2	0.00e+00	0	25	104	0	80	21288
2026-01-11 10:45:30.63	21.17	7.50	-57.0	-60.3	6.2	0.00e+00	0	25	104	0	80	21394
2026-01-11 10:45:31.59	21.17	7.59	-57.1	-60.3	6.2	0.00e+00	0	25	104	0	80	21582
2026-01-11 10:45:32.56	21.16	7.68	-57.1	-60.3	6.2	0.00e+00	0	25	104	0	80	21493
2026-01-11 10:45:33.53	21.16	7.77	-57.1	-60.2	6.2	0.00e+00	0	25	104	0	80	21331
2026-01-11 10:45:34.49	21.15	7.85	-57.1	-60.3	6.2	0.00e+00	0	25	104	0	80	21384
2026-01-11 10:45:35.46	21.15	7.94	-57.1	-60.3	6.2	0.00e+00	0	25	104	0	80	21585
2026-01-11 10:45:36.43	21.14	8.03	-57.1	-60.4	6.2	0.00e+00	0	26	104	0	80	21610
2026-01-11 10:45:37.40	21.14	8.12	-57.1	-60.3	6.2	0.00e+00	0	25	104	0	80	21368
2026-01-11 10:45:38.36	21.13	8.21	-57.1	-60.3	6.2	0.00e+00	0	25	104	0	80	21512
2026-01-11 10:45:39.33	21.13	8.30	-57.1	-60.3	6.2	0.00e+00	0	25	104	0	80	21477
2026-01-11 10:45:40.30	21.12	8.39	-57.2	-60.4	6.2	0.00e+00	0	25	104	0	80	21671
2026-01-11 10:45:41.26	21.12	8.48	-57.1	-60.2	6.2	0.00e+00	0	25	104	0	80	21351
2026-01-11 10:45:42.23	21.11	8.58	-57.1	-60.3	6.2	0.00e+00	0	26	104	0	80	21586
2026-01-11 10:45:43.19	21.10	8.67	-57.1	-60.3	6.2	0.00e+00	0	26	104	0	80	21566
2026-01-11 10:45:44.16	21.10	8.76	-57.2	-60.4	6.2	0.00e+00	0	26	104	0	80	21831
2026-01-11 10:45:45.12	21.09	8.85	-57.1	-60.3	6.2	0.00e+00	0	25	104	0	80	21398
2026-01-11 10:45:46.09	21.09	8.95	-57.2	-60.3	6.2	0.00e+00	0	26	104	0	80	21599
2026-01-11 10:45:47.06	21.08	9.04	-57.2	-60.4	6.2	0.00e+00	0	26	104	0	80	21636
2026-01-11 10:45:48.03	21.07	9.14	-57.3	-60.5	6.2	0.00e+00	0	26	104	0	80	21993
2026-01-11 10:45:49.00	21.07	9.23	-57.1	-60.3	6.2	0.00e+00	0	26	104	0	80	21579
2026-01-11 10:45:49.97	21.06	9.33	-57.2	-60.4	6.2	0.00e+00	0	26	104	0	80	21680
2026-01-11 10:45:50.93	21.06	9.42	-57.2	-60.4	6.2	0.00e+00	0	26	104	0	80	21706
2026-01-11 10:45:51.90	21.05	9.52	-57.3	-60.5	6.2	0.00e+00	0	26	104	0	80	22028
2026-01-11 10:45:52.87	21.04	9.62	-57.2	-60.4	6.2	0.00e+00	0	26	104	0	80	21666
2026-01-11 10:45:53.83	21.04	9.71	-57.2	-60.4	6.2	0.00e+00	0	26	104	0	80	21790
2026-01-11 10:45:54.81	21.03	9.81	-57.3	-60.5	6.2	0.00e+00	0	25	104	0	80	21921
2026-01-11 10:45:55.78	21.02	9.91	-57.3	-60.5	6.2	0.00e+00	0	26	104	0	80	22056
2026-01-11 10:45:56.74	21.02	10.01	-57.2	-60.4	6.2	0.00e+00	0	26	104	0	80	21611
2026-01-11 10:45:57.71	21.01	10.11	-57.2	-60.4	6.2	0.00e+00	0	26	104	0	80	21784
2026-01-11 10:45:58.68	21.00	10.21	-57.3	-60.5	6.2	0.00e+00	0	26	104	0	80	21861
2026-01-11 10:45:59.65	21.00	10.31	-57.4	-60.5	6.2	0.00e+00	0	26	104	0	80	22089
2026-01-11 10:46:00.62	20.99	10.41	-57.3	-60.5	6.2	0.00e+00	0	26	104	0	80	21903
2026-01-11 10:46:01.58	20.98	10.51	-57.3	-60.5	6.2	0.00e+00	0	26	104	0	80	21864
2026-01-11 10:46:02.55	20.97	10.62	-57.3	-60.5	6.2	0.00e+00	0	26	104	0	80	21967
2026-01-11 10:46:03.52	20.97	10.72	-57.3	-60.5	6.2	0.00e+00	0	26	104	0	80	22038
2026-01-11 10:46:04.49	20.96	10.82	-57.3	-60.5	6.1	0.00e+00	0	26	104	0	80	22071
2026-01-11 10:46:05.45	20.95	10.93	-57.3	-60.4	6.2	0.00e+00	0	26	104	0	80	21829
2026-01-11 10:46:06.42	20.94	11.03	-57.3	-60.5	6.2	0.00e+00	0	26	104	0	80	21905
2026-01-11 10:46:07.39	20.94	11.14	-57.4	-60.6	6.2	0.00e+00	0	26	104	0	80	22121
2026-01-11 10:46:08.36	20.93	11.24	-57.4	-60.6	6.2	0.00e+00	0	26	104	0	80	22258
2026-01-11 10:46:09.32	20.92	11.35	-57.3	-60.4	6.2	0.00e+00	0	26	104	0	80	21763
2026-01-11 10:46:10.29	20.91	11.45	-57.3	-60.4	6.2	0.00e+00	0	26	104	0	80	21691
2026-01-11 10:46:11.26	20.90	11.56	-57.4	-60.6	6.2	0.00e+00	0	26	104	0	80	22160
2026-01-11 10:46:12.22	20.89	11.67	-57.4	-60.6	6.2	0.00e+00	0	26	104	0	80	22290
2026-01-11 10:46:13.19	20.89	11.78	-57.3	-60.4	6.2	0.00e+00	0	26	104	0	80	21737
2026-01-11 10:46:14.16	20.88	11.89	-57.3	-60.4	6.2	0.00e+00	0	26	104	0	80	21652
2026-01-11 10:46:15.12	20.87	12.00	-57.4	-60.6	6.2	0.00e+00	0	26	104	0	80	22186
2026-01-11 10:46:16.10	20.86	12.11	-57.4	-60.7	6.2	0.00e+00	0	26	104	0	80	22386
2026-01-11 10:46:17.06	20.85	12.22	-57.3	-60.4	6.2	0.00e+00	0	26	104	0	80	21610
2026-01-11 10:46:18.03	20.84	12.33	-57.3	-60.5	6.2	0.00e+00	0	26	104	0	80	22015
2026-01-11 10:46:19.00	20.83	12.44	-57.4	-60.6	6.2	0.00e+00	0	26	104	0	80	22165
2026-01-11 10:46:19.97	20.82	12.56	-57.5	-60.6	6.2	0.00e+00	0	26	104	0	80	22365
2026-01-11 10:46:20.93	20.81	12.67	-57.3	-60.3	6.2	0.00e+00	0	26	104	0	80	21575
2026-01-11 10:46:21.90	20.80	12.78	-57.4	-60.6	6.2	0.00e+00	0	26	104	0	80	22164
2026-01-11 10:46:22.87	20.79	12.90	-57.4	-60.6	6.2	0.00e+00	0	26	104	0	80	22263
2026-01-11 10:46:23.84	20.78	13.02	-57.5	-60.6	6.2	0.00e+00	0	26	104	0	80	22338
2026-01-11 10:46:24.81	20.77	13.13	-57.3	-60.5	6.2	0.00e+00	0	26	104	0	80	21869
2026-01-11 10:46:25.78	20.76	13.25	-57.4	-60.6	6.2	0.00e+00	0	26	104	0	80	22289
2026-01-11 10:46:26.75	20.75	13.37	-57.4	-60.6	6.2	0.00e+00	0	26	104	0	80	22147
2026-01-11 10:46:27.72	20.74	13.49	-57.5	-60.7	6.2	0.00e+00	0	26	104	0	80	22398
2026-01-11 10:46:28.68	20.73	13.61	-57.4	-60.6	6.2	0.00e+00	0	26	104	0	80	22188
2026-01-11 10:46:29.65	20.72	13.73	-57.4	-60.6	6.2	0.00e+00	0	26	104	0	80	22310
2026-01-11 10:46:30.61	20.71	13.85	-56.5	-59.0	6.2	0.00e+00	0	26	104	0	78	20776
2026-01-11 10:46:31.58	20.70	13.97	-55.9	-57.9	6.4	0.00e+00	0	26	104	0	79	17271
2026-01-11 10:46:32.54	20.69	14.09	-54.9	-56.5	6.8	0.00e+00	0	26	104	0	77	16419
2026-01-11 10:46:33.50	20.68	14.21	-54.5	-55.9	7.0	0.00e+00	0	26	104	0	76	16323
2026-01-11 10:46:34.47	20.67	14.34	-53.7	-55.0	7.3	0.00e+00	0	26	104	0	74	16492
2026-01-11 10:46:35.44	20.66	14.46	-54.0	-55.4	7.2	0.00e+00	0	26	104	0	74	17165
2026-01-11 10:46:36.41	20.64	14.59	-55.6	-57.5	6.5	0.00e+00	0	26	104	0	76	19613
2026-01-11 10:46:37.37	20.63	14.71	-56.6	-59.1	6.2	0.00e+00	0	26	104	0	79	19782
2026-01-11 10:46:38.34	20.62	14.84	-53.3	-54.4	7.6	0.00e+00	0	26	104	0	73	16261
2026-01-11 10:46:39.31	20.61	14.97	-56.6	-59.1	6.2	0.00e+00	0	26	104	0	79	19808
2026-01-11 10:46:40.28	20.60	15.10	-53.0	-54.1	7.7	0.00e+00	0	26	104	0	73	15667
2026-01-11 10:46:41.24	20.58	15.23	-40.6	-40.8	13.4	1.71e-05	0	26	0	50331648	48	14355
2026-01-11 10:46:42.21	20.57	15.36	-39.5	-39.7	13.4	2.09e-05	0	26	0	159383552	46	14182
2026-01-11 10:46:43.18	20.56	15.49	-39.5	-39.7	13.4	4.00e-05	0	26	0	268435456	46	14175
2026-01-11 10:46:44.15	20.55	15.63	-39.5	-39.8	13.3	2.47e-05	0	26	0	385875968	46	14283
2026-01-11 10:46:45.12	20.53	15.76	-39.3	-39.5	13.3	2.09e-05	0	26	0	486539264	45	14745
2026-01-11 10:46:46.08	20.52	15.89	-39.2	-39.4	13.4	9.50e-06	0	26	0	595591168	45	14542
2026-01-11 10:46:47.04	20.51	16.03	-39.2	-39.4	13.4	1.52e-05	0	26	0	713031680	45	14554
2026-01-11 10:46:48.01	20.49	16.16	-39.1	-39.4	13.4	1.14e-05	0	26	0	813694976	45	14495
2026-01-11 10:46:48.98	20.48	16.30	-39.1	-39.3	13.4	1.90e-05	0	26	0	922746880	45	14392
2026-01-11 10:46:49.95	20.46	16.44	-39.1	-39.3	13.4	1.90e-05	0	26	0	1031798784	45	14361
2026-01-11 10:46:50.91	20.45	16.58	-39.1	-39.4	13.4	5.70e-06	0	26	0	1140850688	45	14492
2026-01-11 10:46:51.88	20.44	16.72	-39.0	-39.2	13.5	7.60e-06	0	26	0	1249902592	45	14177
2026-01-11 10:46:52.85	20.42	16.86	-38.9	-39.1	13.5	9.50e-06	0	26	0	1358954496	45	14068
2026-01-11 10:46:53.81	20.41	17.00	-38.8	-39.0	13.4	1.33e-05	0	26	0	1468006400	44	14748
2026-01-11 10:46:54.78	20.39	17.15	-38.7	-39.0	13.5	2.09e-05	0	26	0	1577058304	44	14641
2026-01-11 10:46:55.74	20.38	17.29	-38.7	-38.9	13.5	9.50e-06	0	26	0	1686110208	44	14504
2026-01-11 10:46:56.71	20.36	17.44	-38.7	-39.0	13.5	1.33e-05	0	27	0	1795162112	44	14640
2026-01-11 10:46:57.68	20.34	17.58	-38.6	-38.9	13.5	5.70e-06	0	27	0	1904214016	44	14451
2026-01-11 10:46:58.64	20.33	17.73	-38.5	-38.7	13.6	5.70e-06	0	27	0	2013265920	44	14241
2026-01-11 10:46:59.61	20.31	17.88	-38.5	-38.7	13.6	3.80e-06	0	27	0	2122317824	44	14214
2026-01-11 10:47:00.57	20.30	18.03	-38.5	-38.7	13.6	3.80e-06	0	27	0	2231369728	44	14263
2026-01-11 10:47:01.54	20.28	18.18	-38.5	-38.7	13.6	1.90e-06	0	27	0	2332033024	44	14241
2026-01-11 10:47:02.50	20.26	18.33	-38.3	-38.6	13.5	7.60e-06	0	27	0	2449473536	43	14837
2026-01-11 10:47:03.47	20.25	18.48	-38.2	-38.4	13.6	5.70e-06	0	27	0	2550136832	43	14586
2026-01-11 10:47:04.44	20.23	18.64	-38.2	-38.4	13.6	1.90e-06	0	27	0	2659188736	43	14558
2026-01-11 10:47:05.41	20.21	18.80	-38.1	-38.4	13.6	7.60e-06	0	27	0	2776629248	43	14445
2026-01-11 10:47:06.38	20.19	18.95	-38.0	-38.3	13.7	3.80e-06	0	27	0	2877292544	43	14292
2026-01-11 10:47:07.35	20.18	19.11	-38.0	-38.2	13.7	1.90e-06	0	27	0	2994733056	43	14205
2026-01-11 10:47:08.32	20.16	19.27	-37.9	-38.1	13.7	1.90e-06	0	26	0	3103784960	43	14057
2026-01-11 10:47:09.28	20.14	19.43	-37.9	-38.1	13.6	1.90e-06	0	27	0	3204448256	42	14883
2026-01-11 10:47:10.25	20.12	19.59	-37.9	-38.1	13.6	1.90e-06	0	27	0	3321888768	42	14887
2026-01-11 10:47:11.22	20.10	19.76	-37.9	-38.1	13.6	5.70e-06	0	27	0	3422552064	42	14827
2026-01-11 10:47:12.19	20.08	19.92	-37.8	-38.0	13.6	7.60e-06	0	27	0	3531603968	42	14694
2026-01-11 10:47:13.15	20.06	20.09	-37.7	-37.9	13.7	7.60e-06	0	26	0	3649044480	42	14546
2026-01-11 10:47:14.12	20.04	20.26	-37.6	-37.9	13.7	3.80e-06	0	27	0	3749707776	42	14447
2026-01-11 10:47:15.09	20.02	20.43	-37.5	-37.7	13.7	0.00e+00	0	27	0	3858759680	42	14208
2026-01-11 10:47:16.05	20.00	20.60	-37.5	-37.7	13.8	5.70e-06	0	27	0	3967811584	42	14157
2026-01-11 10:47:17.02	19.98	20.77	-37.4	-37.7	13.8	1.90e-06	0	27	0	4076863488	42	14120
2026-01-11 10:47:17.99	19.96	20.94	-37.3	-37.5	13.7	1.90e-06	0	27	0	4185915392	41	14706
2026-01-11 10:47:18.96	19.94	21.12	-37.2	-37.5	13.7	3.80e-06	0	27	0	4294967296	41	14621
2026-01-11 10:47:19.92	19.91	21.29	-37.3	-37.5	13.7	1.90e-06	0	27	0	4404019200	41	14710
2026-01-11 10:47:20.89	19.89	21.47	-37.2	-37.4	13.7	0.00e+00	0	27	0	4513071104	41	14605
2026-01-11 10:47:21.86	19.87	21.65	-37.0	-37.3	13.8	1.90e-06	0	27	0	4622123008	41	14298
2026-01-11 10:47:22.82	19.85	21.83	-37.0	-37.2	13.9	0.00e+00	0	27	0	4731174912	41	14211
2026-01-11 10:47:23.80	19.82	22.01	-37.0	-37.2	13.9	0.00e+00	0	27	0	4840226816	41	14215
2026-01-11 10:47:24.76	19.80	22.20	-36.8	-37.0	13.8	1.90e-06	0	27	0	4949278720	40	14719
2026-01-11 10:47:25.73	19.78	22.38	-36.8	-37.0	13.8	1.90e-06	0	27	0	5058330624	40	14726
2026-01-11 10:47:26.70	19.75	22.57	-36.7	-36.9	13.9	0.00e+00	0	27	0	5167382528	40	14578
2026-01-11 10:47:27.66	19.73	22.76	-36.7	-36.9	13.9	0.00e+00	0	27	0	5276434432	40	14604
2026-01-11 10:47:28.63	19.70	22.95	-36.6	-36.8	13.9	3.80e-06	0	27	0	5385486336	40	14439
2026-01-11 10:47:29.59	19.68	23.14	-36.7	-36.9	13.9	1.90e-06	0	27	0	5494538240	40	14502
2026-01-11 10:47:30.56	19.65	23.33	-36.5	-36.8	14.0	0.00e+00	0	27	0	5603590144	40	14296
2026-01-11 10:47:31.53	19.62	23.53	-36.4	-36.6	14.0	1.90e-06	0	27	0	5712642048	40	14081
2026-01-11 10:47:32.50	19.60	23.73	-36.4	-36.6	14.0	0.00e+00	0	27	0	5821693952	40	14086
2026-01-11 10:47:33.47	19.57	23.93	-36.5	-36.7	14.0	0.00e+00	0	27	0	5930745856	40	14136
2026-01-11 10:47:34.44	19.54	24.13	-49.5	-50.1	9.7	8.15e-03	0	27	0	6039797760	64	16665
2026-01-11 10:47:35.40	19.51	24.33	-51.5	-52.2	8.7	8.96e-05	0	27	0	6039797760	70	15035
2026-01-11 10:47:36.37	19.49	24.54	-51.0	-51.7	8.8	1.98e-04	0	27	0	6039797760	68	15989
2026-01-11 10:47:37.34	19.46	24.75	-49.9	-50.5	9.6	1.01e-02	0	27	0	6073352192	67	14735
2026-01-11 10:47:38.30	19.43	24.95	-49.5	-50.1	9.8	1.04e-02	0	27	0	6140461056	66	14818
2026-01-11 10:47:39.27	19.40	25.17	-48.2	-48.7	10.5	5.72e-03	0	27	0	6249512960	63	15023
2026-01-11 10:47:40.24	19.37	25.38	-47.0	-47.3	11.3	2.57e-03	0	27	0	6350176256	61	14424
2026-01-11 10:47:41.21	19.34	25.59	-45.7	-46.1	11.8	1.16e-03	0	27	0	6467616768	58	14817
2026-01-11 10:47:42.17	19.30	25.81	-44.4	-44.7	12.4	3.68e-04	0	27	0	6568280064	56	14128
2026-01-11 10:47:43.14	19.27	26.03	-42.8	-43.1	12.9	9.53e-05	0	27	0	6677331968	52	14788
2026-01-11 10:47:44.11	19.24	26.25	-41.3	-41.5	13.3	1.33e-05	0	27	0	6794772480	49	14678
2026-01-11 10:47:45.07	19.21	26.47	-39.1	-39.3	13.5	7.60e-06	0	27	0	6895435776	45	14431
2026-01-11 10:47:46.04	19.17	26.70	-37.9	-38.2	13.8	1.90e-06	0	27	0	7004487680	43	14132
2026-01-11 10:47:47.00	19.14	26.93	-37.0	-37.2	14.0	0.00e+00	0	27	0	7113539584	41	14164
2026-01-11 10:47:47.97	19.10	27.16	-36.4	-36.6	13.9	0.00e+00	0	27	0	7222591488	39	14814
2026-01-11 10:47:48.93	19.07	27.39	-36.0	-36.3	14.1	0.00e+00	0	27	0	7331643392	39	14278
2026-01-11 10:47:49.90	19.03	27.63	-35.5	-35.7	14.1	0.00e+00	0	27	0	7440695296	38	14232
2026-01-11 10:47:50.87	19.00	27.86	-35.1	-35.3	14.1	0.00e+00	0	27	0	7549747200	37	14427
2026-01-11 10:47:51.84	18.96	28.10	-35.2	-35.4	14.1	0.00e+00	0	27	0	7658799104	37	14450
2026-01-11 10:47:52.81	18.92	28.35	-35.3	-35.5	14.1	0.00e+00	0	27	0	7767851008	37	14631
2026-01-11 10:47:53.78	18.88	28.59	-35.0	-35.2	14.2	0.00e+00	0	27	0	7876902912	37	14247
2026-01-11 10:47:54.74	18.84	28.84	-34.9	-35.1	14.2	0.00e+00	0	27	0	7985954816	37	14072
2026-01-11 10:47:55.71	18.80	29.09	-34.9	-35.1	14.2	0.00e+00	0	27	0	8095006720	37	14037
2026-01-11 10:47:56.68	18.76	29.34	-34.8	-35.0	14.1	0.00e+00	0	27	0	8204058624	36	14632
2026-01-11 10:47:57.65	18.72	29.60	-34.9	-35.1	14.1	0.00e+00	0	27	0	8313110528	36	14790
2026-01-11 10:47:58.61	18.68	29.85	-34.6	-34.8	14.2	0.00e+00	0	27	0	8422162432	36	14321
2026-01-11 10:47:59.58	18.63	30.12	-34.5	-34.7	14.3	0.00e+00	0	27	0	8531214336	36	14131
2026-01-11 10:48:00.55	18.59	30.38	-34.7	-34.9	14.2	0.00e+00	0	27	0	8640266240	36	14449
2026-01-11 10:48:01.52	18.54	30.65	-34.4	-34.6	14.3	0.00e+00	0	27	0	8749318144	36	14079
2026-01-11 10:48:02.49	18.50	30.92	-31.8	-32.0	14.1	0.00e+00	0	27	0	8858370048	30	14761
2026-01-11 10:48:03.46	18.45	31.19	-31.7	-31.9	14.1	0.00e+00	0	27	0	8967421952	30	14522
2026-01-11 10:48:04.42	18.40	31.46	-31.5	-31.7	14.2	0.00e+00	0	27	0	9076473856	30	14221
2026-01-11 10:48:05.39	18.35	31.74	-31.5	-31.7	14.2	0.00e+00	0	27	0	9185525760	30	14239
2026-01-11 10:48:06.35	18.30	32.02	-31.7	-31.9	14.1	0.00e+00	0	27	0	9294577664	30	14542
2026-01-11 10:48:07.32	18.25	32.31	-31.4	-31.6	14.2	0.00e+00	0	27	0	9403629568	30	14073
2026-01-11 10:48:08.29	18.20	32.59	-31.3	-31.5	14.1	0.00e+00	0	27	0	9504292864	29	14702
2026-01-11 10:48:09.26	18.15	32.89	-31.2	-31.4	14.2	0.00e+00	0	27	0	9621733376	29	14594
2026-01-11 10:48:10.23	18.09	33.18	-31.0	-31.2	14.2	0.00e+00	0	27	0	9730785280	29	14248
2026-01-11 10:48:11.19	18.04	33.48	-30.9	-31.1	14.3	0.00e+00	0	27	0	9831448576	29	14111
2026-01-11 10:48:12.16	17.98	33.78	-31.0	-31.2	14.3	0.00e+00	0	27	0	9948889088	29	14190
2026-01-11 10:48:13.12	17.93	34.08	-30.9	-31.1	14.3	0.00e+00	0	27	0	10049552384	29	14057
2026-01-11 10:48:14.09	17.87	34.39	-30.9	-31.1	14.3	0.00e+00	0	27	0	10158604288	29	13988
2026-01-11 10:48:15.06	17.81	34.70	-30.6	-30.8	14.3	0.00e+00	0	27	0	10276044800	28	14340
2026-01-11 10:48:16.02	17.75	35.01	-30.5	-30.7	14.3	0.00e+00	0	27	0	10376708096	28	14220
2026-01-11 10:48:16.98	17.68	35.33	-30.6	-30.8	14.2	0.00e+00	0	27	0	10485760000	28	14416
2026-01-11 10:48:17.95	17.62	35.65	-30.4	-30.6	14.3	0.00e+00	0	27	0	10603200512	28	14042
2026-01-11 10:48:18.92	17.55	35.97	-30.3	-30.5	14.3	0.00e+00	0	27	0	10703863808	27	14750
2026-01-11 10:48:19.89	17.49	36.30	-30.4	-30.6	14.2	0.00e+00	0	27	0	10812915712	27	14862
2026-01-11 10:48:20.85	17.42	36.63	-30.3	-30.5	14.3	0.00e+00	0	27	0	10921967616	27	14727
2026-01-11 10:48:21.82	17.35	36.97	-30.0	-30.2	14.3	0.00e+00	0	27	0	11031019520	27	14257
2026-01-11 10:48:22.79	17.28	37.31	-30.0	-30.2	14.4	0.00e+00	0	27	0	11140071424	27	14142
2026-01-11 10:48:23.76	17.20	37.66	-29.9	-30.1	14.4	0.00e+00	0	27	0	11249123328	27	14076
2026-01-11 10:48:24.72	17.13	38.00	-29.8	-30.0	14.3	0.00e+00	0	27	0	11358175232	26	14647
2026-01-11 10:48:25.68	17.05	38.35	-29.6	-29.8	14.3	0.00e+00	0	27	0	11467227136	26	14436
2026-01-11 10:48:26.65	16.97	38.71	-29.8	-30.0	14.3	0.00e+00	0	27	0	11576279040	26	14717
2026-01-11 10:48:27.62	16.89	39.07	-29.7	-29.9	14.3	0.00e+00	0	27	0	11685330944	26	14602
2026-01-11 10:48:28.59	16.81	39.44	-29.6	-29.8	14.4	0.00e+00	0	27	0	11794382848	26	14277
2026-01-11 10:48:29.56	16.72	39.81	-29.4	-29.6	14.5	0.00e+00	0	27	0	11903434752	26	14054
2026-01-11 10:48:30.53	16.64	40.19	-29.3	-29.5	14.3	0.00e+00	0	27	0	12012486656	25	14731
2026-01-11 10:48:31.49	16.55	40.56	-29.1	-29.4	14.4	0.00e+00	0	27	0	12121538560	25	14444
2026-01-11 10:48:32.46	16.46	40.95	-29.1	-29.3	14.4	0.00e+00	0	27	0	12230590464	25	14313
2026-01-11 10:48:33.43	16.36	41.33	-29.1	-29.4	14.4	0.00e+00	0	27	0	12339642368	25	14443
2026-01-11 10:48:34.40	16.27	41.73	-29.1	-29.3	14.4	0.00e+00	0	27	0	12448694272	25	14356
2026-01-11 10:48:35.37	16.17	42.13	-28.9	-29.1	14.5	0.00e+00	0	27	0	12557746176	25	13971
2026-01-11 10:48:36.33	16.07	42.52	-28.9	-29.1	14.3	0.00e+00	0	27	0	12666798080	24	14824
2026-01-11 10:48:37.30	15.96	42.93	-28.6	-28.8	14.4	0.00e+00	0	27	0	12775849984	24	14377
2026-01-11 10:48:38.26	15.86	43.34	-28.6	-28.8	14.4	0.00e+00	0	27	0	12884901888	24	14424
2026-01-11 10:48:39.23	15.75	43.76	-28.5	-28.7	14.5	0.00e+00	0	27	0	12993953792	24	14113
2026-01-11 10:48:40.20	15.63	44.18	-28.5	-28.7	14.4	0.00e+00	0	27	0	13103005696	24	14137
2026-01-11 10:48:41.17	15.52	44.61	-28.5	-28.7	14.4	0.00e+00	0	27	0	13212057600	24	14174
2026-01-11 10:48:42.13	15.40	45.03	-28.2	-28.4	14.4	0.00e+00	0	27	0	13312720896	23	14574
2026-01-11 10:48:43.10	15.27	45.47	-28.2	-28.5	14.4	0.00e+00	0	27	0	13430161408	23	14609
2026-01-11 10:48:44.07	15.15	45.91	-28.1	-28.3	14.4	0.00e+00	0	27	0	13539213312	23	14325
2026-01-11 10:48:45.03	15.02	46.36	-28.0	-28.2	14.5	0.00e+00	0	27	0	13639876608	23	14138
2026-01-11 10:48:46.00	14.88	46.81	-28.1	-28.3	14.4	0.00e+00	0	27	0	13757317120	23	14338
2026-01-11 10:48:46.96	14.74	47.26	-27.9	-28.1	14.5	0.00e+00	0	27	0	13857980416	23	14053
2026-01-11 10:48:47.93	14.60	47.72	-28.0	-28.1	14.5	0.00e+00	0	27	0	13967032320	23	14106
2026-01-11 10:48:48.90	14.45	48.19	-27.7	-27.9	14.5	0.00e+00	0	27	0	14084472832	22	14569
2026-01-11 10:48:49.86	14.30	48.66	-27.8	-28.0	14.4	0.00e+00	0	27	0	14185136128	22	14626
2026-01-11 10:48:50.83	14.14	49.14	-27.6	-27.8	14.5	0.00e+00	0	27	0	14294188032	22	14379
2026-01-11 10:48:51.80	13.98	49.63	-27.5	-27.7	14.5	0.00e+00	0	27	0	14411628544	22	14257
2026-01-11 10:48:52.76	13.81	50.11	-27.5	-27.7	14.5	0.00e+00	0	27	0	14512291840	22	14148
2026-01-11 10:48:53.73	13.63	50.61	-27.5	-27.7	14.5	0.00e+00	0	27	0	14621343744	22	14199
2026-01-11 10:48:54.70	13.45	51.11	-27.5	-27.7	14.5	0.00e+00	0	27	0	14730395648	22	14157
2026-01-11 10:48:55.67	13.26	51.62	-27.2	-27.4	14.5	0.00e+00	0	27	0	14839447552	21	14552
2026-01-11 10:48:56.64	13.07	52.13	-27.2	-27.5	14.5	0.00e+00	0	27	0	14948499456	21	14623
2026-01-11 10:48:57.60	12.87	52.65	-27.1	-27.3	14.5	0.00e+00	0	27	0	15057551360	21	14416
2026-01-11 10:48:58.57	12.66	53.17	-27.2	-27.4	14.5	0.00e+00	0	27	0	15166603264	21	14548
2026-01-11 10:48:59.54	12.44	53.70	-27.1	-27.3	14.5	0.00e+00	0	27	0	15275655168	21	14415
2026-01-11 10:49:00.51	12.22	54.24	-27.0	-27.3	14.5	0.00e+00	0	27	0	15384707072	21	14280
2026-01-11 10:49:01.48	11.98	54.78	-26.9	-27.1	14.6	0.00e+00	0	27	0	15493758976	21	14101
2026-01-11 10:49:02.44	11.74	55.32	-27.0	-27.2	14.6	0.00e+00	0	27	0	15602810880	21	14156
2026-01-11 10:49:03.41	11.49	55.87	-27.1	-27.3	14.5	0.00e+00	0	27	0	15711862784	21	14317
2026-01-11 10:49:04.37	11.23	56.42	-26.9	-27.1	14.6	0.00e+00	0	27	0	15820914688	21	14086
2026-01-11 10:49:05.34	10.95	56.99	-26.8	-27.0	14.5	0.00e+00	0	27	0	15929966592	20	14708
2026-01-11 10:49:06.31	10.66	57.56	-26.8	-27.0	14.5	0.00e+00	0	27	0	16039018496	20	14663
2026-01-11 10:49:07.27	10.37	58.13	-26.8	-27.1	14.5	0.00e+00	0	28	0	16148070400	20	14786
2026-01-11 10:49:08.24	10.05	58.71	-26.7	-26.9	14.5	0.00e+00	0	27	0	16248733696	20	14507
2026-01-11 10:49:09.21	9.72	59.29	-26.6	-26.8	14.5	0.00e+00	0	27	0	16366174208	20	14372
2026-01-11 10:49:10.18	9.38	59.88	-26.6	-26.8	14.5	0.00e+00	0	27	0	16475226112	20	14411
2026-01-11 10:49:11.14	9.02	60.47	-26.6	-26.8	14.5	0.00e+00	0	27	0	16584278016	20	14283
2026-01-11 10:49:12.11	8.65	61.07	-26.6	-26.8	14.5	0.00e+00	0	27	0	16693329920	20	14308
2026-01-11 10:49:13.07	8.25	61.67	-26.5	-26.7	14.6	0.00e+00	0	27	0	16793993216	20	14160
2026-01-11 10:49:14.05	7.83	62.29	-26.5	-26.7	14.5	0.00e+00	0	27	0	16911433728	20	14234
2026-01-11 10:49:15.01	7.40	62.90	-26.4	-26.6	14.6	0.00e+00	0	27	0	17020485632	20	14019
2026-01-11 10:49:15.98	6.94	63.51	-26.3	-26.5	14.5	0.00e+00	0	27	0	17121148928	19	14756
2026-01-11 10:49:16.94	6.45	64.13	-26.3	-26.5	14.5	0.00e+00	0	27	0	17238589440	19	14739
2026-01-11 10:49:17.92	5.93	64.76	-26.3	-26.5	14.5	0.00e+00	0	28	0	17347641344	19	14705
2026-01-11 10:49:18.88	5.39	65.39	-26.2	-26.5	14.5	0.00e+00	0	27	0	17448304640	19	14624
2026-01-11 10:49:19.85	4.81	66.02	-26.2	-26.5	14.5	0.00e+00	0	27	0	17565745152	19	14643
2026-01-11 10:49:20.82	4.20	66.66	-26.2	-26.4	14.5	0.00e+00	0	27	0	17666408448	19	14483
2026-01-11 10:49:21.78	3.56	67.29	-26.3	-26.5	14.5	0.00e+00	0	27	0	17775460352	19	14661
2026-01-11 10:49:22.75	2.86	67.94	-26.2	-26.4	14.5	0.00e+00	0	27	0	17892900864	19	14561
2026-01-11 10:49:23.72	2.12	68.58	-26.1	-26.3	14.5	0.00e+00	0	27	0	17993564160	19	14404
2026-01-11 10:49:24.68	1.34	69.22	-26.1	-26.3	14.5	0.00e+00	0	27	0	18102616064	19	14406
2026-01-11 10:49:25.65	0.50	69.87	-26.1	-26.3	14.5	0.00e+00	0	27	0	18211667968	19	14410
2026-01-11 10:49:26.62	359.59	70.51	-26.1	-26.3	14.5	0.00e+00	0	27	0	18320719872	19	14342
2026-01-11 10:49:27.58	358.63	71.15	-26.1	-26.3	14.5	0.00e+00	0	27	0	18429771776	19	14355
2026-01-11 10:49:28.55	357.59	71.80	-26.0	-26.3	14.5	0.00e+00	0	27	0	18538823680	19	14282
2026-01-11 10:49:29.52	356.46	72.44	-26.0	-26.2	14.6	0.00e+00	0	27	0	18647875584	19	14242
2026-01-11 10:49:30.48	355.26	73.08	-26.0	-26.2	14.6	0.00e+00	0	27	0	18756927488	19	14176
2026-01-11 10:49:31.45	353.94	73.71	-26.1	-26.3	14.5	0.00e+00	0	27	0	18865979392	19	14399
2026-01-11 10:49:32.42	352.51	74.34	-26.0	-26.2	14.6	0.00e+00	0	27	0	18975031296	19	14140
2026-01-11 10:49:33.39	350.95	74.97	-26.0	-26.2	14.6	0.00e+00	0	27	0	19084083200	19	14146
2026-01-11 10:49:34.36	349.26	75.58	-25.9	-26.1	14.6	0.00e+00	0	27	0	19193135104	19	14067
2026-01-11 10:49:35.33	347.40	76.19	-25.9	-26.1	14.6	0.00e+00	0	27	0	19302187008	19	14028
2026-01-11 10:49:36.29	345.40	76.78	-25.9	-26.1	14.6	0.00e+00	0	27	0	19411238912	19	14004
2026-01-11 10:49:37.26	343.18	77.35	-25.9	-26.1	14.6	0.00e+00	0	28	0	19520290816	19	14051
2026-01-11 10:49:38.23	340.74	77.91	-25.9	-26.1	14.6	0.00e+00	0	27	0	19629342720	19	13994
2026-01-11 10:49:39.20	338.07	78.45	-25.9	-26.2	14.5	0.00e+00	0	27	0	19738394624	18	14965
2026-01-11 10:49:40.17	335.14	78.96	-25.9	-26.1	14.5	0.00e+00	0	27	0	19847446528	18	14851
2026-01-11 10:49:41.14	331.92	79.45	-25.8	-26.1	14.5	0.00e+00	0	27	0	19956498432	18	14809
2026-01-11 10:49:42.11	328.39	79.90	-26.0	-26.2	14.4	0.00e+00	0	27	0	20065550336	18	15092
2026-01-11 10:49:43.07	324.59	80.30	-26.1	-26.3	14.4	0.00e+00	0	28	0	20174602240	18	15257
2026-01-11 10:49:44.04	320.43	80.66	-26.1	-26.3	14.4	0.00e+00	0	28	0	20283654144	18	15273
2026-01-11 10:49:45.01	315.95	80.98	-25.9	-26.1	14.5	0.00e+00	0	27	0	20392706048	18	14831
2026-01-11 10:49:45.97	311.22	81.23	-26.0	-26.2	14.5	0.00e+00	0	27	0	20501757952	18	14994
2026-01-11 10:49:46.94	306.20	81.42	-25.7	-25.9	14.5	0.00e+00	0	28	0	20602421248	18	14607
2026-01-11 10:49:47.91	300.98	81.54	-25.9	-26.1	14.5	0.00e+00	0	27	0	20719861760	18	14808
2026-01-11 10:49:48.87	295.71	81.59	-25.7	-25.9	14.5	0.00e+00	0	27	0	20828913664	18	14592
2026-01-11 10:49:49.84	290.37	81.58	-25.8	-26.0	14.5	0.00e+00	0	27	0	20929576960	18	14649
2026-01-11 10:49:50.81	285.09	81.48	-25.8	-26.1	14.5	0.00e+00	0	27	0	21047017472	18	14813
2026-01-11 10:49:51.77	280.02	81.33	-25.8	-26.0	14.5	0.00e+00	0	27	0	21147680768	18	14759
2026-01-11 10:49:52.74	275.12	81.10	-25.8	-26.0	14.5	0.00e+00	0	27	0	21256732672	18	14774
2026-01-11 10:49:53.71	270.50	80.81	-25.8	-26.0	14.5	0.00e+00	0	27	0	21374173184	18	14670
2026-01-11 10:49:54.68	266.19	80.47	-25.8	-26.0	14.5	0.00e+00	0	27	0	21474836480	18	14685
2026-01-11 10:49:55.64	262.24	80.09	-25.9	-26.1	14.5	0.00e+00	0	27	0	21592276992	18	14822
2026-01-11 10:49:56.61	258.57	79.66	-25.8	-26.0	14.5	0.00e+00	0	27	0	21701328896	18	14701
2026-01-11 10:49:57.58	255.21	79.19	-25.8	-26.0	14.5	0.00e+00	0	27	0	21801992192	18	14722
2026-01-11 10:49:58.55	252.15	78.69	-25.8	-26.1	14.5	0.00e+00	0	27	0	21919432704	18	14799
2026-01-11 10:49:59.52	249.36	78.16	-25.9	-26.1	14.5	0.00e+00	0	27	0	22020096000	18	14818
2026-01-11 10:50:00.48	246.84	77.62	-26.0	-26.2	14.5	0.00e+00	0	27	0	22129147904	18	14968
2026-01-11 10:50:01.45	244.52	77.05	-25.9	-26.1	14.5	0.00e+00	0	27	0	22246588416	18	14843
2026-01-11 10:50:02.41	242.43	76.47	-25.9	-26.2	14.5	0.00e+00	0	27	0	22347251712	18	14986
2026-01-11 10:50:03.38	240.50	75.87	-26.0	-26.2	14.5	0.00e+00	0	28	0	22456303616	18	14984
2026-01-11 10:50:04.35	238.73	75.26	-25.9	-26.2	14.5	0.00e+00	0	27	0	22565355520	18	14975
2026-01-11 10:50:05.32	237.11	74.63	-26.0	-26.2	14.5	0.00e+00	0	27	0	22674407424	18	15037
2026-01-11 10:50:06.29	235.62	74.01	-26.0	-26.2	14.4	0.00e+00	0	27	0	22783459328	18	15036
2026-01-11 10:50:07.25	234.27	73.38	-26.1	-26.3	14.4	0.00e+00	0	27	0	22892511232	18	15219
2026-01-11 10:50:08.22	233.00	72.74	-56.2	-51.0	4.1	0.00e+00	0	27	104	22984785920	42	65535
2026-01-11 10:50:09.18	231.84	72.10	-57.8	-61.6	6.2	0.00e+00	0	27	104	22984785920	81	23650
2026-01-11 10:50:10.15	230.76	71.46	-57.8	-61.6	6.2	0.00e+00	0	27	104	22984785920	81	23531
2026-01-11 10:50:11.11	229.76	70.82	-58.0	-61.6	6.2	0.00e+00	0	27	104	22984785920	81	23663
2026-01-11 10:50:12.08	228.83	70.17	-58.6	-61.9	6.2	0.00e+00	0	27	104	22984785920	82	23002
2026-01-11 10:50:13.05	227.96	69.52	-58.8	-62.0	6.2	0.00e+00	0	27	104	22984785920	83	21922
2026-01-11 10:50:14.02	227.14	68.88	-58.8	-62.0	6.2	0.00e+00	0	27	104	22984785920	83	21938
2026-01-11 10:50:14.99	226.38	68.23	-58.8	-62.0	6.2	0.00e+00	0	27	104	22984785920	83	22037
2026-01-11 10:50:15.96	225.66	67.59	-58.7	-62.0	6.2	0.00e+00	0	27	104	22984785920	83	21902
2026-01-11 10:50:16.94	224.99	66.94	-58.7	-62.0	6.2	0.00e+00	0	27	104	22984785920	83	21866
2026-01-11 10:50:17.91	224.36	66.30	-58.8	-62.0	6.2	0.00e+00	0	27	104	22984785920	83	21927
2026-01-11 10:50:18.88	223.76	65.66	-58.8	-62.0	6.2	0.00e+00	0	27	104	22984785920	83	22050
2026-01-11 10:50:19.86	223.20	65.02	-58.6	-62.0	6.2	0.00e+00	0	27	104	22984785920	83	21876
2026-01-11 10:50:20.84	222.66	64.39	-58.7	-62.0	6.2	0.00e+00	0	27	104	22984785920	83	21885
2026-01-11 10:50:21.82	222.16	63.75	-58.8	-62.0	6.2	0.00e+00	0	27	104	22984785920	83	21985
2026-01-11 10:50:22.79	221.69	63.13	-58.8	-62.0	6.2	0.00e+00	0	27	104	22984785920	83	22048
2026-01-11 10:50:23.77	221.23	62.51	-58.7	-62.0	6.2	0.00e+00	0	27	104	22984785920	83	21907
2026-01-11 10:50:24.74	220.81	61.90	-58.7	-61.9	6.2	0.00e+00	0	27	104	22984785920	83	21812
2026-01-11 10:50:25.72	220.40	61.28	-58.7	-62.0	6.2	0.00e+00	0	27	104	22984785920	83	21917
2026-01-11 10:50:26.70	220.01	60.67	-58.8	-62.0	6.1	0.00e+00	0	27	104	22984785920	83	21970
2026-01-11 10:50:27.68	219.64	60.07	-58.7	-61.9	6.2	0.00e+00	0	27	104	22984785920	83	21817
2026-01-11 10:50:28.65	219.29	59.48	-58.7	-61.9	6.2	0.00e+00	0	27	104	22984785920	83	21824
2026-01-11 10:50:29.63	218.95	58.88	-58.7	-62.0	6.2	0.00e+00	0	27	104	22984785920	83	21895
2026-01-11 10:50:30.61	218.63	58.29	-58.8	-62.0	6.2	0.00e+00	0	27	104	22984785920	83	21898
2026-01-11 10:50:31.58	218.33	57.72	-58.7	-61.9	6.2	0.00e+00	0	27	104	22984785920	83	21853
2026-01-11 10:50:32.55	218.04	57.14	-58.7	-61.9	6.2	0.00e+00	0	27	104	22984785920	83	21753
2026-01-11 10:50:33.52	217.76	56.58	-58.7	-61.9	6.2	0.00e+00	0	27	104	22984785920	83	21775
2026-01-11 10:50:34.50	217.49	56.01	-58.7	-61.9	6.2	0.00e+00	0	27	104	22984785920	83	21852
2026-01-11 10:50:35.48	217.23	55.45	-58.7	-61.9	6.2	0.00e+00	0	27	104	22984785920	83	21707
2026-01-11 10:50:36.45	216.98	54.90	-58.7	-61.9	6.2	0.00e+00	0	27	104	22984785920	83	21650
2026-01-11 10:50:37.43	216.74	54.35	-58.7	-61.9	6.2	0.00e+00	0	27	104	22984785920	83	21669
2026-01-11 10:50:38.41	216.51	53.81	-58.7	-61.9	6.2	0.00e+00	0	27	104	22984785920	83	21735
2026-01-11 10:50:39.39	216.29	53.27	-58.7	-61.9	6.2	0.00e+00	0	27	104	22984785920	83	21708
2026-01-11 10:50:40.37	216.07	52.74	-58.7	-61.9	6.2	0.00e+00	0	27	104	22984785920	83	21664
2026-01-11 10:50:41.35	215.87	52.21	-58.6	-61.9	6.2	0.00e+00	0	27	104	22984785920	83	21624
2026-01-11 10:50:42.32	215.67	51.70	-58.6	-61.8	6.2	0.00e+00	0	27	104	22984785920	83	21600
2026-01-11 10:50:43.31	215.48	51.18	-58.6	-61.9	6.2	0.00e+00	0	27	104	22984785920	83	21610
2026-01-11 10:50:44.29	215.30	50.67	-58.6	-61.8	6.2	0.00e+00	0	27	104	22984785920	83	21557
2026-01-11 10:50:45.27	215.12	50.17	-58.6	-61.8	6.2	0.00e+00	0	27	104	22984785920	83	21498
2026-01-11 10:50:46.25	214.95	49.67	-58.6	-61.8	6.2	0.00e+00	0	27	104	22984785920	83	21594
2026-01-11 10:50:47.23	214.78	49.18	-58.6	-61.8	6.1	0.00e+00	0	27	104	22984785920	83	21504
2026-01-11 10:50:48.21	214.62	48.69	-58.6	-61.8	6.2	0.00e+00	0	27	104	22984785920	83	21506
2026-01-11 10:50:49.19	214.46	48.21	-58.6	-61.8	6.2	0.00e+00	0	27	104	22984785920	83	21450
2026-01-11 10:50:50.16	214.31	47.74	-58.6	-61.8	6.2	0.00e+00	0	27	104	22984785920	83	21448
2026-01-11 10:50:51.14	214.17	47.27	-58.6	-61.8	6.2	0.00e+00	0	27	104	22984785920	83	21520
2026-01-11 10:50:52.11	214.03	46.81	-58.6	-61.8	6.2	0.00e+00	0	27	104	22984785920	83	21546
2026-01-11 10:50:53.09	213.89	46.35	-58.6	-61.8	6.2	0.00e+00	0	27	104	22984785920	83	21391
2026-01-11 10:50:54.06	213.76	45.90	-58.6	-61.8	6.2	0.00e+00	0	27	104	22984785920	83	21461
2026-01-11 10:50:55.03	213.63	45.46	-58.6	-61.8	6.2	0.00e+00	0	27	104	22984785920	83	21502
2026-01-11 10:50:56.01	213.50	45.02	-58.5	-61.8	6.2	0.00e+00	0	27	104	22984785920	83	21392
2026-01-11 10:50:56.98	213.38	44.59	-58.5	-61.7	6.2	0.00e+00	0	27	104	22984785920	83	21354
2026-01-11 10:50:57.96	213.27	44.15	-58.5	-61.8	6.2	0.00e+00	0	27	104	22984785920	83	21447
2026-01-11 10:50:58.93	213.15	43.73	-58.6	-61.8	6.2	0.00e+00	0	27	104	22984785920	83	21429
2026-01-11 10:50:59.90	213.04	43.31	-58.5	-61.8	6.2	0.00e+00	0	27	104	22984785920	83	21370
2026-01-11 10:51:00.88	212.93	42.90	-58.5	-61.7	6.2	0.00e+00	0	27	104	22984785920	83	21318
2026-01-11 10:51:01.86	212.83	42.48	-58.5	-61.7	6.2	0.00e+00	0	27	104	22984785920	83	21334
2026-01-11 10:51:02.84	212.72	42.08	-58.5	-61.8	6.2	0.00e+00	0	27	104	22984785920	83	21365
2026-01-11 10:51:03.82	212.62	41.67	-58.5	-61.8	6.2	0.00e+00	0	27	104	22984785920	83	21364
2026-01-11 10:51:04.79	212.53	41.28	-58.5	-61.7	6.2	0.00e+00	0	27	104	22984785920	83	21287
2026-01-11 10:51:05.77	212.43	40.89	-58.5	-61.7	6.2	0.00e+00	0	27	104	22984785920	83	21304
2026-01-11 10:51:06.74	212.34	40.50	-58.5	-61.7	6.2	0.00e+00	0	27	104	22984785920	83	21298
2026-01-11 10:51:07.72	212.25	40.12	-58.5	-61.7	6.2	0.00e+00	0	27	104	22984785920	83	21202
2026-01-11 10:51:08.70	212.16	39.74	-58.5	-61.7	6.2	0.00e+00	0	27	104	22984785920	83	21244
2026-01-11 10:51:09.68	212.08	39.36	-58.5	-61.7	6.1	0.00e+00	0	27	104	22984785920	83	21155
2026-01-11 10:51:10.66	211.99	38.99	-58.5	-61.7	6.2	0.00e+00	0	27	104	22984785920	83	21196
2026-01-11 10:51:11.63	211.91	38.63	-58.5	-61.7	6.1	0.00e+00	0	27	104	22984785920	83	21243
2026-01-11 10:51:12.61	211.83	38.27	-58.5	-61.7	6.2	0.00e+00	0	27	104	22984785920	83	21205
2026-01-11 10:51:13.60	211.75	37.91	-58.4	-61.7	6.2	0.00e+00	0	27	104	22984785920	83	21129
2026-01-11 10:51:14.58	211.68	37.56	-58.5	-61.7	6.2	0.00e+00	0	27	104	22984785920	83	21145
2026-01-11 10:51:15.56	211.60	37.21	-58.4	-61.7	6.2	0.00e+00	0	27	104	22984785920	83	21196
2026-01-11 10:51:16.53	211.53	36.87	-58.4	-61.6	6.2	0.00e+00	0	27	104	22984785920	83	21070
2026-01-11 10:51:17.50	211.46	36.53	-58.4	-61.6	6.2	0.00e+00	0	27	104	22984785920	83	21050
2026-01-11 10:51:18.48	211.39	36.19	-58.4	-61.6	6.2	0.00e+00	0	27	104	22984785920	83	21033
2026-01-11 10:51:19.45	211.33	35.86	-58.4	-61.6	6.2	0.00e+00	0	27	104	22984785920	83	21031
2026-01-11 10:51:20.43	211.26	35.53	-58.4	-61.6	6.2	0.00e+00	0	27	104	22984785920	83	20991
2026-01-11 10:51:21.40	211.20	35.21	-58.4	-61.6	6.2	0.00e+00	0	27	104	22984785920	83	20990
2026-01-11 10:51:22.37	211.13	34.89	-58.4	-61.6	6.1	0.00e+00	0	27	104	22984785920	83	20947
2026-01-11 10:51:23.35	211.07	34.57	-58.4	-61.6	6.2	0.00e+00	0	27	104	22984785920	83	21044
2026-01-11 10:51:24.33	211.01	34.26	-58.4	-61.6	6.2	0.00e+00	0	27	104	22984785920	83	20946
2026-01-11 10:51:25.30	210.95	33.95	-58.4	-61.6	6.2	0.00e+00	0	27	104	22984785920	83	20961
2026-01-11 10:51:26.29	210.89	33.64	-58.4	-61.6	6.2	0.00e+00	0	27	104	22984785920	83	20912
2026-01-11 10:51:27.26	210.84	33.34	-58.4	-61.6	6.2	0.00e+00	0	27	104	22984785920	83	20922
2026-01-11 10:51:28.24	210.78	33.04	-58.3	-61.5	6.2	0.00e+00	0	27	104	22984785920	83	20848
2026-01-11 10:51:29.22	210.73	32.74	-58.4	-61.6	6.2	0.00e+00	0	27	104	22984785920	83	20882
2026-01-11 10:51:30.19	210.67	32.45	-58.3	-61.6	6.2	0.00e+00	0	27	104	22984785920	83	20879
2026-01-11 10:51:31.17	210.62	32.16	-58.3	-61.6	6.2	0.00e+00	0	27	104	22984785920	83	20902
2026-01-11 10:51:32.16	210.57	31.87	-58.3	-61.5	6.2	0.00e+00	0	27	104	22984785920	83	20872
2026-01-11 10:51:33.14	210.52	31.59	-58.3	-61.5	6.2	0.00e+00	0	27	104	22984785920	83	20804
2026-01-11 10:51:34.11	210.47	31.31	-58.3	-61.5	6.2	0.00e+00	0	27	104	22984785920	83	20709
2026-01-11 10:51:35.09	210.42	31.03	-58.3	-61.5	6.2	0.00e+00	0	27	104	22984785920	83	20739
2026-01-11 10:51:36.07	210.37	30.76	-58.3	-61.5	6.2	0.00e+00	0	27	104	22984785920	83	20690
2026-01-11 10:51:37.05	210.33	30.48	-58.3	-61.5	6.2	0.00e+00	0	27	104	22984785920	83	20790
2026-01-11 10:51:38.03	210.28	30.21	-58.3	-61.4	6.2	0.00e+00	0	27	104	22984785920	83	20630
2026-01-11 10:51:39.00	210.24	29.95	-58.3	-61.5	6.2	0.00e+00	0	27	104	22984785920	83	20766
2026-01-11 10:51:39.98	210.19	29.69	-58.3	-61.4	6.2	0.00e+00	0	27	104	22984785920	83	20613
2026-01-11 10:51:40.96	210.15	29.43	-58.3	-61.4	6.2	0.00e+00	0	27	104	22984785920	83	20598
2026-01-11 10:51:41.94	210.11	29.17	-58.2	-61.4	6.2	0.00e+00	0	27	104	22984785920	83	20614
2026-01-11 10:51:42.91	210.07	28.92	-58.3	-61.5	6.2	0.00e+00	0	27	104	22984785920	83	20703
2026-01-11 10:51:43.88	210.03	28.67	-58.2	-61.5	6.2	0.00e+00	0	27	104	22984785920	83	20694
2026-01-11 10:51:44.86	209.99	28.42	-58.3	-61.5	6.2	0.00e+00	0	27	104	22984785920	83	20703
2026-01-11 10:51:45.84	209.95	28.17	-58.2	-61.4	6.2	0.00e+00	0	27	104	22984785920	83	20591
2026-01-11 10:51:46.81	209.91	27.93	-58.2	-61.4	6.2	0.00e+00	0	27	104	22984785920	83	20538
2026-01-11 10:51:47.78	209.87	27.69	-58.2	-61.4	6.2	0.00e+00	0	27	104	22984785920	83	20511
2026-01-11 10:51:48.77	209.83	27.45	-58.2	-61.4	6.2	0.00e+00	0	27	104	22984785920	83	20569
2026-01-11 10:51:49.75	209.80	27.21	-58.2	-61.4	6.2	0.00e+00	0	27	104	22984785920	83	20536
2026-01-11 10:51:50.73	209.76	26.97	-58.2	-61.4	6.2	0.00e+00	0	27	104	22984785920	83	20567
2026-01-11 10:51:51.70	209.73	26.74	-58.1	-61.3	6.2	0.00e+00	0	27	104	22984785920	83	20243
2026-01-11 10:51:52.68	209.69	26.51	-58.2	-61.4	6.2	0.00e+00	0	27	104	22984785920	83	20441
2026-01-11 10:51:53.65	209.66	26.29	-58.2	-61.3	6.2	0.00e+00	0	27	104	22984785920	83	20354
2026-01-11 10:51:54.62	209.63	26.06	-58.2	-61.4	6.2	0.00e+00	0	27	104	22984785920	83	20437
2026-01-11 10:51:55.60	209.59	25.84	-58.1	-61.3	6.2	0.00e+00	0	27	104	22984785920	83	20303
2026-01-11 10:51:56.57	209.56	25.62	-58.1	-61.3	6.2	0.00e+00	0	27	104	22984785920	83	20189
2026-01-11 10:51:57.55	209.53	25.40	-58.0	-61.0	6.2	0.00e+00	0	27	104	22984785920	83	19629
2026-01-11 10:51:58.52	209.50	25.19	-58.1	-61.2	6.2	0.00e+00	0	27	104	22984785920	83	20084
2026-01-11 10:51:59.49	209.47	24.97	-55.7	-57.5	6.5	0.00e+00	0	27	104	22984785920	78	17476
2026-01-11 10:52:00.47	209.44	24.76	-53.1	-54.3	7.1	0.00e+00	0	27	104	22984785920	71	18007
2026-01-11 10:52:01.44	209.41	24.55	-50.2	-51.0	7.6	0.00e+00	0	27	104	22984785920	67	15538
2026-01-11 10:52:02.42	209.38	24.34	-53.5	-54.8	7.0	0.00e+00	0	27	104	22984785920	72	18154
2026-01-11 10:52:03.40	209.35	24.14	-56.6	-58.9	6.3	0.00e+00	0	27	104	22984785920	80	18312
2026-01-11 10:52:04.38	209.32	23.93	-56.8	-59.1	6.3	0.00e+00	0	27	104	22984785920	79	19837
2026-01-11 10:52:05.35	209.29	23.73	-57.3	-60.0	6.2	0.00e+00	0	27	104	22984785920	80	20832
2026-01-11 10:52:06.33	209.26	23.53	-57.8	-60.8	6.2	0.00e+00	0	27	104	22984785920	81	21424
2026-01-11 10:52:07.30	209.24	23.33	-58.0	-61.2	6.1	0.00e+00	0	27	104	22984785920	81	22470
2026-01-11 10:52:08.28	209.21	23.14	-58.0	-61.1	6.2	0.00e+00	0	27	104	22984785920	81	22331
2026-01-11 10:52:09.26	209.18	22.94	-58.0	-61.2	6.2	0.00e+00	0	27	104	22984785920	81	22481
2026-01-11 10:52:10.23	209.16	22.75	-58.0	-61.2	6.2	0.00e+00	0	27	104	22984785920	81	22442
2026-01-11 10:52:11.20	209.13	22.56	-58.0	-61.1	6.2	0.00e+00	0	27	104	22984785920	81	22184
2026-01-11 10:52:12.18	209.11	22.37	-58.0	-61.2	6.2	0.00e+00	0	27	104	22984785920	81	22366
2026-01-11 10:52:13.16	209.08	22.18	-58.0	-61.2	6.2	0.00e+00	0	27	104	22984785920	81	22446
2026-01-11 10:52:14.14	209.06	21.99	-57.9	-61.2	6.2	0.00e+00	0	27	104	22984785920	81	22381
2026-01-11 10:52:15.12	209.04	21.81	-58.0	-61.2	6.1	0.00e+00	0	27	104	22984785920	81	22429
2026-01-11 10:52:16.10	209.01	21.62	-57.9	-61.1	6.2	0.00e+00	0	27	104	22984785920	81	22328
2026-01-11 10:52:17.07	208.99	21.44	-57.9	-61.2	6.2	0.00e+00	0	27	104	22984785920	81	22420
2026-01-11 10:52:18.05	208.97	21.26	-57.9	-61.2	6.2	0.00e+00	0	27	104	22984785920	81	22412
2026-01-11 10:52:19.02	208.94	21.08	-58.0	-61.2	6.2	0.00e+00	0	27	104	22984785920	81	22400
2026-01-11 10:52:20.00	208.92	20.91	-57.9	-61.1	6.2	0.00e+00	0	27	104	22984785920	81	22354
2026-01-11 10:52:20.98	208.90	20.73	-58.0	-61.2	6.2	0.00e+00	0	27	104	22984785920	81	22450
2026-01-11 10:52:21.96	208.88	20.56	-57.9	-61.1	6.2	0.00e+00	0	27	104	22984785920	81	22295
2026-01-11 10:52:22.93	208.86	20.38	-57.9	-61.1	6.2	0.00e+00	0	27	104	22984785920	81	22345
2026-01-11 10:52:23.91	208.84	20.21	-57.9	-61.1	6.1	0.00e+00	0	27	104	22984785920	81	22206
2026-01-11 10:52:24.89	208.82	20.04	-57.9	-61.2	6.2	0.00e+00	0	27	104	22984785920	81	22403
2026-01-11 10:52:25.86	208.80	19.88	-57.9	-61.1	6.2	0.00e+00	0	27	104	22984785920	81	22241
2026-01-11 10:52:26.84	208.78	19.71	-57.9	-61.1	6.2	0.00e+00	0	27	104	22984785920	81	22313
2026-01-11 10:52:27.82	208.76	19.54	-57.9	-61.1	6.2	0.00e+00	0	27	104	22984785920	81	22228
2026-01-11 10:52:28.79	208.74	19.38	-57.9	-61.1	6.2	0.00e+00	0	27	104	22984785920	81	22222
2026-01-11 10:52:29.77	208.72	19.22	-57.9	-61.1	6.2	0.00e+00	0	27	104	22984785920	81	22217
2026-01-11 10:52:30.76	208.70	19.05	-57.9	-61.1	6.2	0.00e+00	0	27	104	22984785920	81	22195
2026-01-11 10:52:31.74	208.68	18.89	-57.9	-61.1	6.2	0.00e+00	0	27	104	22984785920	81	22181
2026-01-11 10:52:32.72	208.66	18.73	-57.8	-61.0	6.2	0.00e+00	0	27	104	22984785920	81	22048
2026-01-11 10:52:33.71	208.64	18.57	-57.8	-61.0	6.2	0.00e+00	0	27	104	22984785920	81	22078
2026-01-11 10:52:34.68	208.63	18.42	-57.8	-61.1	6.2	0.00e+00	0	27	104	22984785920	81	22177
2026-01-11 10:52:35.67	208.61	18.26	-57.8	-61.0	6.2	0.00e+00	0	27	104	22984785920	81	22062
2026-01-11 10:52:36.65	208.59	18.10	-57.8	-61.0	6.2	0.00e+00	0	27	104	22984785920	81	22060
2026-01-11 10:52:37.63	208.57	17.95	-57.8	-61.1	6.2	0.00e+00	0	27	104	22984785920	81	22154
2026-01-11 10:52:38.60	208.56	17.80	-57.8	-61.0	6.2	0.00e+00	0	27	104	22984785920	81	22048
2026-01-11 10:52:39.57	208.54	17.65	-57.8	-61.0	6.2	0.00e+00	0	27	104	22984785920	81	21988
2026-01-11 10:52:40.55	208.52	17.50	-57.8	-61.0	6.2	0.00e+00	0	27	104	22984785920	81	21940
2026-01-11 10:52:41.53	208.51	17.35	-57.8	-61.0	6.2	0.00e+00	0	27	104	22984785920	81	21947
2026-01-11 10:52:42.50	208.49	17.21	-57.8	-61.0	6.2	0.00e+00	0	27	104	22984785920	81	21986
2026-01-11 10:52:43.48	208.48	17.06	-57.8	-61.0	6.2	0.00e+00	0	27	104	22984785920	81	21931
2026-01-11 10:52:44.45	208.46	16.92	-57.7	-60.9	6.2	0.00e+00	0	27	104	22984785920	81	21799
2026-01-11 10:52:45.43	208.45	16.77	-57.8	-60.9	6.2	0.00e+00	0	27	104	22984785920	81	21855
2026-01-11 10:52:46.41	208.43	16.63	-57.8	-60.9	6.2	0.00e+00	0	27	104	22984785920	81	21816
2026-01-11 10:52:47.38	208.42	16.49	-57.8	-61.0	6.2	0.00e+00	0	27	104	22984785920	81	21898
2026-01-11 10:52:48.35	208.40	16.35	-57.8	-61.0	6.2	0.00e+00	0	27	104	22984785920	81	21908
2026-01-11 10:52:49.33	208.39	16.21	-57.8	-60.9	6.2	0.00e+00	0	27	104	22984785920	81	21855
2026-01-11 10:52:50.29	208.37	16.07	-57.7	-60.9	6.2	0.00e+00	0	27	104	22984785920	81	21843
2026-01-11 10:52:51.26	208.36	15.94	-57.8	-61.0	6.2	0.00e+00	0	27	104	22984785920	81	21906
2026-01-11 10:52:52.23	208.34	15.80	-57.7	-60.9	6.2	0.00e+00	0	27	104	22984785920	81	21785
2026-01-11 10:52:53.20	208.33	15.66	-57.7	-61.0	6.2	0.00e+00	0	27	104	22984785920	81	21858
2026-01-11 10:52:54.17	208.32	15.53	-57.7	-60.9	6.2	0.00e+00	0	27	104	22984785920	81	21800
2026-01-11 10:52:55.14	208.30	15.40	-57.7	-60.9	6.2	0.00e+00	0	27	104	22984785920	81	21851
2026-01-11 10:52:56.11	208.29	15.27	-57.7	-60.9	6.2	0.00e+00	0	27	104	22984785920	81	21700
2026-01-11 10:52:57.07	208.28	15.14	-57.7	-60.9	6.2	0.00e+00	0	27	104	22984785920	81	21755
2026-01-11 10:52:58.04	208.26	15.01	-57.7	-60.9	6.2	0.00e+00	0	27	104	22984785920	81	21695
2026-01-11 10:52:59.01	208.25	14.88	-57.7	-60.9	6.2	0.00e+00	0	27	104	22984785920	81	21721
2026-01-11 10:52:59.98	208.24	14.75	-57.7	-60.9	6.2	0.00e+00	0	27	104	22984785920	81	21717
2026-01-11 10:53:00.95	208.23	14.62	-57.7	-60.9	6.2	0.00e+00	0	27	104	22984785920	81	21772
2026-01-11 10:53:01.91	208.22	14.49	-57.7	-60.9	6.2	0.00e+00	0	27	104	22984785920	81	21707
2026-01-11 10:53:02.88	208.20	14.37	-57.7	-60.9	6.2	0.00e+00	0	27	104	22984785920	81	21814
2026-01-11 10:53:03.85	208.19	14.24	-57.7	-60.9	6.2	0.00e+00	0	27	104	22984785920	81	21648
2026-01-11 10:53:04.81	208.18	14.12	-57.7	-60.9	6.2	0.00e+00	0	27	104	22984785920	81	21714
2026-01-11 10:53:05.78	208.17	14.00	-57.6	-60.8	6.2	0.00e+00	0	27	104	22984785920	81	21594
2026-01-11 10:53:06.74	208.16	13.87	-57.7	-60.8	6.2	0.00e+00	0	27	104	22984785920	81	21599
2026-01-11 10:53:07.71	208.15	13.75	-57.6	-60.8	6.2	0.00e+00	0	27	104	22984785920	81	21562
2026-01-11 10:53:08.67	208.13	13.63	-57.6	-60.8	6.2	0.00e+00	0	27	104	22984785920	81	21593
2026-01-11 10:53:09.64	208.12	13.51	-57.6	-60.8	6.2	0.00e+00	0	27	104	22984785920	81	21515
2026-01-11 10:53:10.61	208.11	13.39	-57.6	-60.8	6.2	0.00e+00	0	27	104	22984785920	81	21498
2026-01-11 10:53:11.57	208.10	13.27	-57.6	-60.9	6.2	0.00e+00	0	27	104	22984785920	81	21622
2026-01-11 10:53:12.54	208.09	13.16	-57.6	-60.8	6.2	0.00e+00	0	27	104	22984785920	81	21551
2026-01-11 10:53:13.51	208.08	13.04	-57.6	-60.8	6.2	0.00e+00	0	27	104	22984785920	81	21431
2026-01-11 10:53:14.47	208.07	12.92	-57.6	-60.8	6.2	0.00e+00	0	27	104	22984785920	81	21494
2026-01-11 10:53:15.44	208.06	12.81	-57.6	-60.8	6.2	0.00e+00	0	27	104	22984785920	81	21568
2026-01-11 10:53:16.41	208.05	12.69	-57.6	-60.8	6.2	0.00e+00	0	27	104	22984785920	81	21497
2026-01-11 10:53:17.38	208.04	12.58	-57.6	-60.8	6.2	0.00e+00	0	27	104	22984785920	81	21479
2026-01-11 10:53:18.35	208.03	12.46	-57.6	-60.8	6.2	0.00e+00	0	27	104	22984785920	81	21504
2026-01-11 10:53:19.31	208.02	12.35	-57.6	-60.8	6.2	0.00e+00	0	27	104	22984785920	81	21448
2026-01-11 10:53:20.28	208.01	12.24	-57.6	-60.8	6.2	0.00e+00	0	27	104	22984785920	81	21492
2026-01-11 10:53:21.24	208.00	12.13	-57.6	-60.8	6.2	0.00e+00	0	27	104	22984785920	81	21386
2026-01-11 10:53:22.21	207.99	12.01	-57.5	-60.7	6.2	0.00e+00	0	27	104	22984785920	81	21314
2026-01-11 10:53:23.18	207.98	11.90	-57.6	-60.8	6.2	0.00e+00	0	27	104	22984785920	81	21430
2026-01-11 10:53:24.14	207.97	11.79	-57.5	-60.8	6.2	0.00e+00	0	27	104	22984785920	81	21368
2026-01-11 10:53:25.11	207.97	11.68	-57.5	-60.7	6.2	0.00e+00	0	27	104	22984785920	81	21358
2026-01-11 10:53:26.08	207.96	11.58	-57.5	-60.7	6.2	0.00e+00	0	27	104	22984785920	81	21343
2026-01-11 10:53:27.05	207.95	11.47	-57.6	-60.8	6.2	0.00e+00	0	27	104	22984785920	81	21386
2026-01-11 10:53:28.02	207.94	11.36	-57.5	-60.7	6.2	0.00e+00	0	27	104	22984785920	81	21280
2026-01-11 10:53:28.99	207.93	11.25	-57.5	-60.7	6.2	0.00e+00	0	27	104	22984785920	81	21225
2026-01-11 10:53:29.95	207.92	11.15	-57.5	-60.7	6.2	0.00e+00	0	27	104	22984785920	81	21184
2026-01-11 10:53:30.92	207.91	11.04	-57.5	-60.7	6.2	0.00e+00	0	27	104	22984785920	81	21256
2026-01-11 10:53:31.89	207.90	10.94	-57.5	-60.7	6.2	0.00e+00	0	27	104	22984785920	81	21245
2026-01-11 10:53:32.85	207.90	10.83	-57.5	-60.7	6.2	0.00e+00	0	27	104	22984785920	81	21274
2026-01-11 10:53:33.82	207.89	10.73	-57.4	-60.7	6.2	0.00e+00	0	27	104	22984785920	81	21163
2026-01-11 10:53:34.79	207.88	10.63	-57.5	-60.7	6.2	0.00e+00	0	27	104	22984785920	81	21203
2026-01-11 10:53:35.76	207.87	10.52	-57.5	-60.7	6.2	0.00e+00	0	27	104	22984785920	81	21146
2026-01-11 10:53:36.72	207.86	10.42	-57.5	-60.7	6.2	0.00e+00	0	27	104	22984785920	81	21140
2026-01-11 10:53:37.69	207.86	10.32	-57.4	-60.6	6.2	0.00e+00	0	27	104	22984785920	81	21009
2026-01-11 10:53:38.65	207.85	10.22	-57.5	-60.7	6.2	0.00e+00	0	27	104	22984785920	81	21121
2026-01-11 10:53:39.62	207.84	10.12	-57.4	-60.7	6.2	0.00e+00	0	27	104	22984785920	81	21152
2026-01-11 10:53:40.58	207.83	10.02	-57.4	-60.6	6.2	0.00e+00	0	27	104	22984785920	81	21059
2026-01-11 10:53:41.54	207.83	9.92	-57.4	-60.6	6.2	0.00e+00	0	26	104	22984785920	81	21053
2026-01-11 10:53:42.51	207.82	9.82	-57.4	-60.6	6.2	0.00e+00	0	27	104	22984785920	81	21109
2026-01-11 10:53:43.47	207.81	9.72	-57.4	-60.6	6.2	0.00e+00	0	27	104	22984785920	81	21015
2026-01-11 10:53:44.44	207.81	9.62	-57.4	-60.6	6.2	0.00e+00	0	27	104	22984785920	81	21020
2026-01-11 10:53:45.41	207.80	9.53	-57.4	-60.6	6.2	0.00e+00	0	27	104	22984785920	81	20925
2026-01-11 10:53:46.37	207.79	9.43	-57.4	-60.6	6.2	0.00e+00	0	27	104	22984785920	81	20935
2026-01-11 10:53:47.34	207.78	9.33	-57.4	-60.6	6.2	0.00e+00	0	27	104	22984785920	81	20976
2026-01-11 10:53:48.31	207.78	9.24	-57.4	-60.6	6.2	0.00e+00	0	27	104	22984785920	81	20913
2026-01-11 10:53:49.28	207.77	9.14	-57.3	-60.5	6.2	0.00e+00	0	27	104	22984785920	81	20844
2026-01-11 10:53:50.24	207.76	9.05	-57.3	-60.5	6.2	0.00e+00	0	27	104	22984785920	81	20854
2026-01-11 10:53:51.21	207.76	8.95	-57.4	-60.6	6.2	0.00e+00	0	27	104	22984785920	81	20919
2026-01-11 10:53:52.18	207.75	8.86	-57.3	-60.5	6.2	0.00e+00	0	27	104	22984785920	81	20869
2026-01-11 10:53:53.15	207.75	8.76	-57.3	-60.5	6.2	0.00e+00	0	27	104	22984785920	81	20848
2026-01-11 10:53:54.12	207.74	8.67	-57.3	-60.5	6.1	0.00e+00	0	27	104	22984785920	81	20796
2026-01-11 10:53:55.09	207.73	8.58	-57.4	-60.6	6.2	0.00e+00	0	27	104	22984785920	81	20924
2026-01-11 10:53:56.06	207.73	8.48	-57.3	-60.5	6.2	0.00e+00	0	27	104	22984785920	81	20822
2026-01-11 10:53:57.02	207.72	8.39	-57.3	-60.5	6.2	0.00e+00	0	27	104	22984785920	81	20824
2026-01-11 10:53:57.99	207.71	8.30	-57.3	-60.5	6.2	0.00e+00	0	27	104	22984785920	81	20742
2026-01-11 10:53:58.96	207.71	8.21	-57.3	-60.6	6.2	0.00e+00	0	27	104	22984785920	81	20899
2026-01-11 10:53:59.93	207.70	8.12	-57.3	-60.5	6.2	0.00e+00	0	27	104	22984785920	81	20813
2026-01-11 10:54:00.90	207.70	8.03	-57.3	-60.5	6.2	0.00e+00	0	27	104	22984785920	81	20731
2026-01-11 10:54:01.87	207.69	7.94	-57.3	-60.5	6.2	0.00e+00	0	27	104	22984785920	81	20645
2026-01-11 10:54:02.83	207.69	7.85	-57.3	-60.5	6.2	0.00e+00	0	27	104	22984785920	81	20840
2026-01-11 10:54:03.80	207.68	7.76	-57.3	-60.5	6.2	0.00e+00	0	27	104	22984785920	81	20676
2026-01-11 10:54:04.77	207.67	7.67	-57.3	-60.4	6.2	0.00e+00	0	27	104	22984785920	81	20614
2026-01-11 10:54:05.74	207.67	7.58	-57.2	-60.4	6.2	0.00e+00	0	27	104	22984785920	81	20555
2026-01-11 10:54:06.70	207.66	7.50	-57.3	-60.5	6.2	0.00e+00	0	27	104	22984785920	81	20680
2026-01-11 10:54:07.67	207.66	7.41	-57.2	-60.4	6.2	0.00e+00	0	27	104	22984785920	81	20580
2026-01-11 10:54:08.63	207.65	7.32	-57.2	-60.4	6.2	0.00e+00	0	27	104	22984785920	81	20514
2026-01-11 10:54:09.60	207.65	7.24	-57.2	-60.4	6.2	0.00e+00	0	27	104	22984785920	81	20527
2026-01-11 10:54:10.56	207.64	7.15	-57.2	-60.4	6.2	0.00e+00	0	27	104	22984785920	81	20583
2026-01-11 10:54:11.53	207.64	7.06	-57.2	-60.4	6.2	0.00e+00	0	27	104	22984785920	81	20549
2026-01-11 10:54:12.50	207.63	6.98	-57.2	-60.4	6.2	0.00e+00	0	27	104	22984785920	81	20430
2026-01-11 10:54:13.47	207.63	6.89	-57.2	-60.4	6.2	0.00e+00	0	27	104	22984785920	81	20429
2026-01-11 10:54:14.43	207.62	6.81	-57.2	-60.4	6.2	0.00e+00	0	27	104	22984785920	81	20477
2026-01-11 10:54:15.40	207.62	6.72	-57.2	-60.4	6.2	0.00e+00	0	27	104	22984785920	81	20496
2026-01-11 10:54:16.36	207.61	6.64	-57.2	-60.4	6.2	0.00e+00	0	27	104	22984785920	81	20410
2026-01-11 10:54:17.33	207.61	6.56	-57.1	-60.3	6.2	0.00e+00	0	27	104	22984785920	81	20394
2026-01-11 10:54:18.29	207.60	6.47	-57.1	-60.3	6.2	0.00e+00	0	27	104	22984785920	81	20356
2026-01-11 10:54:19.26	207.60	6.39	-57.2	-60.4	6.2	0.00e+00	0	27	104	22984785920	81	20530
2026-01-11 10:54:20.23	207.59	6.31	-57.1	-60.3	6.2	0.00e+00	0	27	104	22984785920	81	20348
2026-01-11 10:54:21.20	207.59	6.22	-57.1	-60.3	6.2	0.00e+00	0	27	104	22984785920	81	20344
2026-01-11 10:54:22.17	207.59	6.14	-57.1	-60.3	6.2	0.00e+00	0	27	104	22984785920	81	20269
2026-01-11 10:54:23.13	207.58	6.06	-57.2	-60.4	6.2	0.00e+00	0	27	104	22984785920	81	20424
2026-01-11 10:54:24.10	207.58	5.98	-57.1	-60.3	6.2	0.00e+00	0	27	104	22984785920	81	20292
2026-01-11 10:54:25.07	207.57	5.90	-57.1	-60.3	6.2	0.00e+00	0	27	104	22984785920	81	20224
2026-01-11 10:54:26.03	207.57	5.82	-57.0	-60.2	6.2	0.00e+00	0	27	104	22984785920	81	20063
2026-01-11 10:54:27.00	207.56	5.74	-57.1	-60.3	6.2	0.00e+00	0	27	104	22984785920	81	20325
2026-01-11 10:54:27.97	207.56	5.66	-57.1	-60.3	6.2	0.00e+00	0	27	104	22984785920	81	20172
2026-01-11 10:54:28.93	207.56	5.58	-57.0	-60.2	6.2	0.00e+00	0	27	104	22984785920	81	20078
2026-01-11 10:54:29.90	207.55	5.50	-57.0	-60.2	6.2	0.00e+00	0	27	104	22984785920	81	19953
2026-01-11 10:54:30.87	207.55	5.42	-57.1	-60.3	6.2	0.00e+00	0	27	104	22984785920	81	20172
2026-01-11 10:54:31.83	207.54	5.34	-57.0	-60.2	6.2	0.00e+00	0	27	104	22984785920	81	20000
2026-01-11 10:54:32.80	207.54	5.26	-57.0	-60.2	6.2	0.00e+00	0	27	104	22984785920	81	20010
2026-01-11 10:54:33.77	207.54	5.18	-56.9	-60.1	6.2	0.00e+00	0	27	104	22984785920	81	19826
2026-01-11 10:54:34.73	207.53	5.11	-57.0	-60.2	6.2	0.00e+00	0	27	104	22984785920	81	20108
2026-01-11 10:54:35.70	207.53	5.03	-57.0	-60.2	6.2	0.00e+00	0	27	104	22984785920	81	19971
2026-01-11 10:54:36.67	207.52	4.95	-57.1	-60.3	6.2	0.00e+00	0	27	104	22984785920	81	20180
2026-01-11 10:54:37.64	207.52	4.87	-57.5	-60.7	6.2	0.00e+00	0	27	104	22984785920	81	21192
2026-01-11 10:54:38.61	207.52	4.80	-57.7	-61.0	6.2	0.00e+00	0	27	104	22984785920	81	21948
2026-01-11 10:54:39.58	207.51	4.72	-57.9	-61.1	6.1	0.00e+00	0	27	104	22984785920	81	22274
2026-01-11 10:54:40.54	207.51	4.65	-58.1	-61.3	6.2	0.00e+00	0	27	104	22984785920	81	22631
2026-01-11 10:54:41.51	207.51	4.57	-58.2	-61.4	6.2	0.00e+00	0	27	104	22984785920	82	21791
2026-01-11 10:54:42.48	207.50	4.49	-58.3	-61.5	6.2	0.00e+00	0	27	104	22984785920	82	22031
2026-01-11 10:54:43.45	207.50	4.42	-58.4	-61.7	6.2	0.00e+00	0	27	104	22984785920	82	22368
2026-01-11 10:54:44.42	207.50	4.34	-58.5	-61.7	6.2	0.00e+00	0	27	104	22984785920	82	22511
2026-01-11 10:54:45.39	207.49	4.27	-58.5	-61.8	6.1	0.00e+00	0	27	104	22984785920	82	22633
2026-01-11 10:54:46.35	207.49	4.19	-58.6	-61.8	6.2	0.00e+00	0	27	104	22984785920	82	22785
2026-01-11 10:54:47.32	207.49	4.12	-58.7	-61.9	6.2	0.00e+00	0	27	104	22984785920	83	21796
2026-01-11 10:54:48.28	207.48	4.05	-58.7	-61.9	6.2	0.00e+00	0	27	104	22984785920	83	21833
2026-01-11 10:54:49.25	207.48	3.97	-58.8	-62.0	6.2	0.00e+00	0	27	104	22984785920	83	21892
2026-01-11 10:54:50.22	207.48	3.90	-58.8	-62.0	6.2	0.00e+00	0	27	104	22984785920	83	21922
2026-01-11 10:54:51.19	207.47	3.83	-58.8	-62.0	6.2	0.00e+00	0	27	104	22984785920	83	22045
2026-01-11 10:54:52.16	207.47	3.75	-58.8	-62.1	6.2	0.00e+00	0	27	104	22984785920	83	22128
2026-01-11 10:54:53.13	207.47	3.68	-58.9	-62.1	6.2	0.00e+00	0	27	104	22984785920	83	22196
2026-01-11 10:54:54.09	207.47	3.61	-58.9	-62.1	6.2	0.00e+00	0	27	104	22984785920	83	22321
2026-01-11 10:54:55.06	207.46	3.53	-58.9	-62.1	6.2	0.00e+00	0	27	104	22984785920	83	22296
2026-01-11 10:54:56.03	207.46	3.46	-59.0	-62.2	6.2	0.00e+00	0	27	104	22984785920	83	22446
2026-01-11 10:54:56.99	207.46	3.39	-59.0	-62.2	6.2	0.00e+00	0	27	104	22984785920	83	22436
2026-01-11 10:54:57.97	207.45	3.32	-59.0	-62.2	6.2	0.00e+00	0	27	104	22984785920	83	22601
2026-01-11 10:54:58.93	207.45	3.25	-59.1	-62.3	6.2	0.00e+00	0	27	104	22984785920	83	22695
2026-01-11 10:54:59.90	207.45	3.18	-59.0	-62.3	6.2	0.00e+00	0	27	104	22984785920	83	22637
2026-01-11 10:55:00.86	207.45	3.11	-59.0	-62.2	6.2	0.00e+00	0	27	104	22984785920	83	22481
2026-01-11 10:55:01.84	207.44	3.04	-59.0	-62.2	6.2	0.00e+00	0	27	104	22984785920	83	22500
2026-01-11 10:55:02.80	207.44	2.97	-59.0	-62.2	6.2	0.00e+00	0	27	104	22984785920	83	22460
2026-01-11 10:55:03.77	207.44	2.90	-59.0	-62.2	6.2	0.00e+00	0	27	104	22984785920	83	22442
2026-01-11 10:55:04.74	207.43	2.83	-58.9	-62.2	6.1	0.00e+00	0	27	104	22984785920	83	22425
2026-01-11 10:55:05.71	207.43	2.76	-58.9	-62.2	6.2	0.00e+00	0	27	104	22984785920	83	22438
2026-01-11 10:55:06.68	207.43	2.69	-58.9	-62.2	6.2	0.00e+00	0	27	104	22984785920	83	22408
2026-01-11 10:55:07.65	207.43	2.62	-58.9	-62.1	6.2	0.00e+00	0	27	104	22984785920	83	22351
2026-01-11 10:55:08.62	207.43	2.55	-58.9	-62.1	6.2	0.00e+00	0	27	104	22984785920	83	22216
2026-01-11 10:55:09.58	207.42	2.48	-58.9	-62.1	6.2	0.00e+00	0	27	104	22984785920	83	22281
2026-01-11 10:55:10.55	207.42	2.41	-58.9	-62.1	6.2	0.00e+00	0	27	104	22984785920	83	22207
2026-01-11 10:55:11.52	207.42	2.34	-58.9	-62.1	6.2	0.00e+00	0	27	104	22984785920	83	22294
2026-01-11 10:55:12.49	207.42	2.27	-58.9	-62.1	6.2	0.00e+00	0	27	104	22984785920	83	22147
2026-01-11 10:55:13.45	207.41	2.21	-58.9	-62.1	6.2	0.00e+00	0	27	104	22984785920	83	22120
2026-01-11 10:55:14.42	207.41	2.14	-58.9	-62.1	6.2	0.00e+00	0	27	104	22984785920	83	22187
2026-01-11 10:55:15.39	207.41	2.07	-58.8	-62.1	6.2	0.00e+00	0	27	104	22984785920	83	22114
2026-01-11 10:55:16.35	207.41	2.00	-58.9	-62.1	6.2	0.00e+00	0	27	104	22984785920	83	22184

#Closed at: 2026-01-11 10:55:17
#Recorded file [22984 MB]: D:/lorett/data/31004_260111_134420.dat