passes_logs/2026/01/11/R3.2S_Murmansk/R3.2S_Murmansk__20260111_072409_SUOMI_NPP_rec.log

#Pass ID: 20260111_072409_SUOMI NPP
#Satellite: SUOMI NPP
#Configuration: NPP
#almurnet v.1.7.20251203
#Start time: 2026-01-11 07:24:10

#Version: 2.2.20231116
#Station: R3.2S_Murmansk
#Location: 33.079688 lon 68.888172 lat
#TLE: 1 37849U 11061A   26010.94533966  .00000106  00000+0  71276-4 0  9997
#TLE: 2 37849  98.7807 313.0290 0002520  70.6146 289.5303 14.19524339736134

#Time	Az	El	Level	Level2	SNR	BER	BlckErr	Temp	State	Recorded	gain1	gain2
2026-01-11 07:24:10.82	101.75	2.09	-57.1	-73.1	3.8	1.49e+00	0	21	0	0	80	22624
2026-01-11 07:24:11.83	101.71	2.15	-57.1	-73.1	3.8	1.49e+00	0	22	104	0	79	23915
2026-01-11 07:24:12.85	101.66	2.22	-57.1	-73.1	3.8	1.49e+00	0	21	104	0	79	23888
2026-01-11 07:24:13.85	101.61	2.28	-57.1	-73.1	3.8	1.49e+00	0	22	104	0	79	23995
2026-01-11 07:24:14.87	101.57	2.34	-57.1	-73.1	3.8	1.49e+00	0	22	104	0	79	23944
2026-01-11 07:24:15.87	101.52	2.40	-57.1	-73.1	3.8	1.49e+00	0	21	104	0	79	23923
2026-01-11 07:24:16.88	101.47	2.46	-57.1	-73.1	3.8	1.49e+00	0	22	104	0	79	24025
2026-01-11 07:24:17.89	101.42	2.52	-57.1	-73.1	3.8	1.49e+00	0	22	104	0	79	24007
2026-01-11 07:24:18.90	101.38	2.59	-57.1	-73.1	3.8	1.49e+00	0	22	104	0	79	23932
2026-01-11 07:24:19.90	101.33	2.65	-57.1	-73.1	3.8	1.49e+00	0	22	104	0	79	23983
2026-01-11 07:24:20.91	101.28	2.71	-57.1	-73.1	3.8	1.49e+00	0	22	104	0	79	24056
2026-01-11 07:24:21.92	101.23	2.77	-57.1	-73.1	3.8	1.49e+00	0	22	104	0	79	24067
2026-01-11 07:24:22.93	101.18	2.83	-57.1	-73.1	3.8	1.49e+00	0	22	104	0	79	23976
2026-01-11 07:24:23.94	101.13	2.90	-57.1	-73.1	3.8	1.49e+00	0	22	104	0	79	23861
2026-01-11 07:24:24.95	101.08	2.96	-57.1	-73.1	3.8	1.49e+00	0	22	104	0	79	23910
2026-01-11 07:24:25.96	101.03	3.02	-57.1	-73.1	3.8	1.49e+00	0	22	104	0	79	23961
2026-01-11 07:24:26.97	100.98	3.09	-57.1	-73.1	3.8	1.49e+00	0	22	104	0	79	23914
2026-01-11 07:24:27.97	100.94	3.15	-57.1	-73.1	3.8	1.49e+00	0	22	104	0	79	23922
2026-01-11 07:24:28.98	100.89	3.21	-57.1	-73.1	3.8	1.49e+00	0	22	104	0	79	23969
2026-01-11 07:24:29.99	100.83	3.28	-57.1	-73.1	3.8	1.49e+00	0	22	104	0	79	23976
2026-01-11 07:24:31.00	100.78	3.34	-57.1	-73.1	3.8	1.49e+00	0	22	104	0	79	23931
2026-01-11 07:24:32.01	100.73	3.40	-57.1	-73.0	3.8	1.49e+00	0	22	104	0	79	23747
2026-01-11 07:24:33.02	100.68	3.47	-57.1	-73.0	3.8	1.49e+00	0	22	104	0	79	23653
2026-01-11 07:24:34.03	100.63	3.53	-57.1	-72.9	3.8	1.49e+00	0	22	104	0	79	23477
2026-01-11 07:24:35.03	100.58	3.59	-57.1	-72.9	3.8	1.49e+00	0	22	104	0	79	23498
2026-01-11 07:24:36.04	100.53	3.66	-57.1	-73.0	3.8	1.49e+00	0	22	104	0	79	23583
2026-01-11 07:24:37.05	100.48	3.72	-57.1	-73.0	3.8	1.49e+00	0	22	104	0	79	23622
2026-01-11 07:24:38.05	100.42	3.79	-57.1	-73.0	3.8	1.49e+00	0	22	104	0	79	23847
2026-01-11 07:24:39.07	100.37	3.85	-57.1	-73.1	3.8	1.49e+00	0	22	104	0	79	24068
2026-01-11 07:24:40.07	100.32	3.92	-57.1	-73.1	3.8	1.49e+00	0	22	104	0	79	23945
2026-01-11 07:24:41.07	100.27	3.98	-57.1	-72.9	3.8	1.49e+00	0	23	104	0	79	23530
2026-01-11 07:24:42.08	100.21	4.04	-57.1	-72.6	3.8	1.49e+00	0	22	104	0	79	22652
2026-01-11 07:24:43.09	100.16	4.11	-57.1	-72.1	3.8	1.49e+00	0	22	104	0	79	21374
2026-01-11 07:24:44.10	100.11	4.17	-57.1	-71.3	3.8	1.49e+00	0	23	104	0	79	19557
2026-01-11 07:24:45.11	100.05	4.24	-57.0	-70.6	3.8	1.49e+00	0	22	104	0	79	18061
2026-01-11 07:24:46.12	100.00	4.31	-57.0	-69.4	4.2	1.44e+00	0	22	0	0	79	15671
2026-01-11 07:24:47.13	99.94	4.37	-56.9	-68.7	4.4	1.26e+00	13	22	0	1048576	79	14461
2026-01-11 07:24:48.15	99.89	4.44	-56.9	-68.1	4.7	9.32e-01	0	23	0	3145728	79	13501
2026-01-11 07:24:49.15	99.83	4.50	-56.8	-67.4	5.0	7.13e-01	0	23	0	4194304	79	12461
2026-01-11 07:24:50.16	99.78	4.57	-56.8	-66.8	5.4	6.08e-01	0	23	0	6291456	79	11618
2026-01-11 07:24:51.17	99.72	4.64	-56.7	-66.0	5.8	3.35e-01	0	23	0	8388608	79	10655
2026-01-11 07:24:52.18	99.67	4.70	-56.6	-65.5	6.2	3.28e-01	0	23	0	10485760	79	10042
2026-01-11 07:24:53.19	99.61	4.77	-56.6	-65.6	6.2	2.13e-01	0	23	0	12582912	79	10103
2026-01-11 07:24:54.20	99.55	4.83	-56.3	-63.9	7.5	1.90e-01	0	23	0	13631488	79	8309
2026-01-11 07:24:55.21	99.50	4.90	-56.6	-65.7	6.1	1.87e-01	0	23	0	15728640	79	10288
2026-01-11 07:24:56.22	99.44	4.97	-56.4	-64.3	7.1	1.75e-01	0	23	0	17825792	79	8743
2026-01-11 07:24:57.22	99.38	5.03	-56.4	-64.4	7.0	1.26e-01	0	23	0	19922944	79	8851
2026-01-11 07:24:58.23	99.33	5.10	-56.3	-63.6	7.8	1.02e-01	0	23	0	22020096	79	7994
2026-01-11 07:24:59.24	99.27	5.17	-55.3	-59.9	11.1	1.54e-04	0	23	0	24117248	76	6273
2026-01-11 07:25:00.25	99.21	5.24	-57.0	-68.4	4.5	6.30e-01	3	23	0	25165824	79	13926
2026-01-11 07:25:01.25	99.15	5.30	-56.5	-63.4	7.9	2.00e-01	0	23	0	26214400	79	7839
2026-01-11 07:25:02.26	99.09	5.37	-55.0	-59.5	11.2	5.72e-05	0	23	0	28311552	75	6313
2026-01-11 07:25:03.27	99.03	5.44	-54.9	-59.1	11.5	3.81e-05	0	23	0	30408704	75	6049
2026-01-11 07:25:04.27	98.98	5.51	-54.4	-58.2	12.3	1.50e-06	0	23	0	32505856	75	5416
2026-01-11 07:25:05.28	98.92	5.57	-54.4	-58.1	12.3	3.80e-06	0	23	0	34603008	75	5393
2026-01-11 07:25:06.29	98.86	5.64	-54.1	-57.7	12.6	1.50e-06	0	23	0	36700160	74	5410
2026-01-11 07:25:07.29	98.80	5.71	-53.9	-57.2	12.9	7.00e-07	0	23	0	37748736	74	5154
2026-01-11 07:25:08.30	98.74	5.78	-53.5	-56.4	13.4	0.00e+00	0	23	0	39845888	73	4970
2026-01-11 07:25:09.31	98.68	5.85	-53.8	-57.0	12.9	0.00e+00	0	23	0	41943040	73	5326
2026-01-11 07:25:10.32	98.61	5.92	-53.8	-57.0	13.0	0.00e+00	0	23	0	44040192	73	5284
2026-01-11 07:25:11.33	98.55	5.99	-53.6	-56.7	13.2	0.00e+00	0	23	0	46137344	73	5108
2026-01-11 07:25:12.34	98.49	6.05	-53.6	-56.7	13.1	0.00e+00	0	23	0	47185920	73	5138
2026-01-11 07:25:13.34	98.43	6.12	-53.5	-56.5	13.3	0.00e+00	0	23	0	49283072	73	4994
2026-01-11 07:25:14.35	98.37	6.19	-53.2	-56.0	13.7	0.00e+00	0	23	0	51380224	73	4710
2026-01-11 07:25:15.36	98.31	6.26	-53.4	-56.3	13.5	0.00e+00	0	23	0	53477376	73	4907
2026-01-11 07:25:16.37	98.24	6.33	-53.5	-56.4	13.4	0.00e+00	0	23	0	55574528	73	4960
2026-01-11 07:25:17.38	98.18	6.40	-53.4	-56.3	13.5	0.00e+00	0	23	0	56623104	73	4898
2026-01-11 07:25:18.39	98.12	6.47	-53.6	-56.6	13.3	0.00e+00	0	23	0	58720256	73	5054
2026-01-11 07:25:19.39	98.05	6.54	-53.6	-56.7	13.2	0.00e+00	0	23	0	60817408	73	5106
2026-01-11 07:25:20.40	97.99	6.61	-53.7	-56.8	13.2	0.00e+00	0	23	0	62914560	73	5193
2026-01-11 07:25:21.41	97.92	6.68	-53.7	-56.9	13.1	0.00e+00	0	23	0	65011712	73	5256
2026-01-11 07:25:22.41	97.86	6.75	-53.5	-56.5	13.4	0.00e+00	0	23	0	66060288	73	4994
2026-01-11 07:25:23.42	97.80	6.82	-53.8	-56.9	13.0	0.00e+00	0	23	0	68157440	73	5256
2026-01-11 07:25:24.43	97.73	6.90	-53.4	-56.3	13.5	0.00e+00	0	23	0	70254592	73	4895
2026-01-11 07:25:25.44	97.66	6.97	-53.3	-56.2	13.4	0.00e+00	0	23	0	72351744	72	5118
2026-01-11 07:25:26.44	97.60	7.04	-53.3	-56.1	13.4	0.00e+00	0	23	0	74448896	72	5098
2026-01-11 07:25:27.45	97.53	7.11	-53.3	-56.2	13.4	0.00e+00	0	23	0	75497472	72	5128
2026-01-11 07:25:28.46	97.47	7.18	-53.1	-55.7	13.7	0.00e+00	0	23	0	77594624	72	4869
2026-01-11 07:25:29.47	97.40	7.25	-53.2	-55.9	13.6	0.00e+00	0	23	0	79691776	72	4978
2026-01-11 07:25:30.48	97.33	7.32	-53.1	-55.8	13.7	0.00e+00	0	23	0	81788928	72	4925
2026-01-11 07:25:31.49	97.26	7.40	-53.0	-55.7	13.8	0.00e+00	0	23	0	83886080	72	4842
2026-01-11 07:25:32.50	97.19	7.47	-53.1	-55.8	13.7	0.00e+00	0	23	0	84934656	72	4900
2026-01-11 07:25:33.51	97.13	7.54	-53.2	-56.1	13.6	0.00e+00	0	23	0	87031808	72	5047
2026-01-11 07:25:34.51	97.06	7.61	-53.0	-56.1	13.6	0.00e+00	0	23	0	89128960	72	5076
2026-01-11 07:25:35.52	96.99	7.69	-52.9	-55.9	13.7	0.00e+00	0	23	0	91226112	72	4950
2026-01-11 07:25:36.53	96.92	7.76	-53.0	-56.0	13.6	0.00e+00	0	23	0	93323264	72	5026
2026-01-11 07:25:37.53	96.85	7.83	-52.6	-55.5	13.8	0.00e+00	0	23	0	94371840	71	4999
2026-01-11 07:25:38.54	96.78	7.90	-52.7	-55.7	13.7	0.00e+00	0	23	0	96468992	71	5125
2026-01-11 07:25:39.54	96.71	7.98	-52.6	-55.6	13.8	0.00e+00	0	23	0	98566144	71	5051
2026-01-11 07:25:40.54	96.64	8.05	-52.7	-55.6	13.7	0.00e+00	0	23	0	100663296	71	5084
2026-01-11 07:25:41.55	96.57	8.12	-52.4	-55.1	14.1	0.00e+00	0	23	0	102760448	71	4806
2026-01-11 07:25:42.56	96.50	8.20	-52.4	-55.2	14.0	0.00e+00	0	23	0	103809024	71	4870
2026-01-11 07:25:43.57	96.42	8.27	-52.5	-55.4	13.9	0.00e+00	0	23	0	105906176	71	4936
2026-01-11 07:25:44.58	96.35	8.35	-52.5	-55.3	13.9	0.00e+00	0	23	0	108003328	71	4911
2026-01-11 07:25:45.59	96.28	8.42	-52.7	-55.7	13.7	0.00e+00	0	23	0	110100480	71	5105
2026-01-11 07:25:46.60	96.20	8.50	-52.7	-55.7	13.7	0.00e+00	0	23	0	112197632	71	5107
2026-01-11 07:25:47.61	96.13	8.57	-52.6	-55.5	13.8	0.00e+00	0	23	0	113246208	71	5038
2026-01-11 07:25:48.62	96.06	8.65	-52.7	-55.7	13.7	0.00e+00	0	23	0	115343360	71	5150
2026-01-11 07:25:49.62	95.98	8.72	-52.9	-55.9	13.6	0.00e+00	0	23	0	117440512	71	5271
2026-01-11 07:25:50.63	95.91	8.80	-52.5	-55.4	13.9	0.00e+00	0	23	0	119537664	71	4934
2026-01-11 07:25:51.64	95.83	8.87	-52.6	-55.5	13.9	0.00e+00	0	23	0	121634816	71	5008
2026-01-11 07:25:52.65	95.76	8.95	-52.5	-55.3	14.0	0.00e+00	0	23	0	122683392	71	4911
2026-01-11 07:25:53.66	95.68	9.02	-52.6	-55.5	13.8	0.00e+00	0	23	0	124780544	71	5029
2026-01-11 07:25:54.67	95.60	9.10	-52.3	-55.0	14.2	0.00e+00	0	23	0	126877696	71	4706
2026-01-11 07:25:55.68	95.53	9.18	-52.3	-55.1	14.0	0.00e+00	0	23	0	128974848	70	5042
2026-01-11 07:25:56.69	95.45	9.25	-52.5	-55.3	13.8	0.00e+00	0	23	0	131072000	70	5210
2026-01-11 07:25:57.70	95.37	9.33	-52.3	-55.0	14.0	0.00e+00	0	23	0	132120576	70	5035
2026-01-11 07:25:58.71	95.29	9.41	-52.3	-55.1	14.0	0.00e+00	0	23	0	134217728	70	5048
2026-01-11 07:25:59.72	95.21	9.48	-52.5	-55.3	13.8	0.00e+00	0	23	0	136314880	70	5206
2026-01-11 07:26:00.72	95.13	9.56	-52.4	-55.2	13.9	0.00e+00	0	23	0	138412032	70	5148
2026-01-11 07:26:01.73	95.05	9.64	-52.3	-55.1	14.0	0.00e+00	0	23	0	140509184	70	5087
2026-01-11 07:26:02.74	94.97	9.71	-52.1	-54.7	14.2	0.00e+00	0	23	0	141557760	70	4868
2026-01-11 07:26:03.74	94.90	9.79	-52.2	-55.0	14.0	0.00e+00	0	23	0	143654912	70	5002
2026-01-11 07:26:04.75	94.81	9.87	-52.3	-55.0	14.1	0.00e+00	0	23	0	145752064	70	5011
2026-01-11 07:26:05.76	94.73	9.95	-52.1	-54.7	14.2	0.00e+00	0	23	0	147849216	70	4864
2026-01-11 07:26:06.76	94.65	10.03	-52.2	-54.8	14.2	0.00e+00	0	23	0	149946368	70	4890
2026-01-11 07:26:07.77	94.57	10.10	-52.3	-55.0	14.0	0.00e+00	0	23	0	150994944	70	5014
2026-01-11 07:26:08.78	94.49	10.18	-52.3	-55.0	14.0	0.00e+00	0	23	0	153092096	70	5013
2026-01-11 07:26:09.79	94.40	10.26	-52.3	-55.0	14.0	0.00e+00	0	23	0	155189248	70	5008
2026-01-11 07:26:10.80	94.32	10.34	-52.3	-55.0	14.0	0.00e+00	0	23	0	157286400	70	4998
2026-01-11 07:26:11.81	94.24	10.42	-52.4	-55.1	14.0	0.00e+00	0	23	0	159383552	70	5075
2026-01-11 07:26:12.82	94.15	10.50	-52.1	-54.7	14.2	0.00e+00	0	23	0	160432128	70	4868
2026-01-11 07:26:13.82	94.07	10.58	-52.2	-54.9	14.1	0.00e+00	0	23	0	162529280	70	4947
2026-01-11 07:26:14.84	93.98	10.66	-52.4	-55.1	14.0	0.00e+00	0	23	0	164626432	70	5064
2026-01-11 07:26:15.85	93.89	10.74	-52.3	-55.0	14.1	0.00e+00	0	23	0	166723584	70	5004
2026-01-11 07:26:16.86	93.81	10.82	-52.4	-55.1	13.9	0.00e+00	0	23	0	168820736	70	5089
2026-01-11 07:26:17.87	93.72	10.90	-52.4	-55.1	14.0	0.00e+00	0	23	0	169869312	70	5043
2026-01-11 07:26:18.88	93.63	10.98	-52.2	-54.8	14.2	0.00e+00	0	23	0	171966464	70	4924
2026-01-11 07:26:19.88	93.55	11.06	-52.3	-54.9	14.1	0.00e+00	0	23	0	174063616	70	4965
2026-01-11 07:26:20.89	93.46	11.14	-52.5	-55.2	13.9	0.00e+00	0	23	0	176160768	70	5126
2026-01-11 07:26:21.90	93.37	11.22	-52.3	-54.9	14.1	0.00e+00	0	23	0	178257920	70	4968
2026-01-11 07:26:22.91	93.28	11.30	-52.2	-54.7	14.2	0.00e+00	0	23	0	179306496	70	4857
2026-01-11 07:26:23.92	93.19	11.39	-52.2	-54.9	14.1	0.00e+00	0	23	0	181403648	70	4928
2026-01-11 07:26:24.93	93.10	11.47	-52.3	-55.0	14.1	0.00e+00	0	23	0	183500800	70	4986
2026-01-11 07:26:25.93	93.01	11.55	-52.3	-54.9	14.1	0.00e+00	0	23	0	185597952	70	4980
2026-01-11 07:26:26.94	92.92	11.63	-52.4	-55.1	14.0	0.00e+00	0	23	0	187695104	70	5066
2026-01-11 07:26:27.95	92.82	11.71	-52.4	-55.0	14.0	0.00e+00	0	23	0	189792256	70	5034
2026-01-11 07:26:28.96	92.73	11.80	-52.2	-54.9	14.1	0.00e+00	0	23	0	190840832	70	4958
2026-01-11 07:26:29.97	92.64	11.88	-51.9	-54.4	14.5	0.00e+00	0	23	0	192937984	70	4671
2026-01-11 07:26:30.98	92.54	11.96	-51.9	-54.4	14.5	0.00e+00	0	23	0	195035136	70	4654
2026-01-11 07:26:31.98	92.45	12.05	-51.7	-54.1	14.6	0.00e+00	0	23	0	197132288	70	4526
2026-01-11 07:26:32.99	92.35	12.13	-51.8	-54.2	14.6	0.00e+00	0	23	0	199229440	70	4548
2026-01-11 07:26:34.00	92.26	12.21	-51.7	-54.0	14.7	0.00e+00	0	23	0	200278016	70	4485
2026-01-11 07:26:35.00	92.16	12.30	-51.7	-54.0	14.5	0.00e+00	0	23	0	202375168	69	4750
2026-01-11 07:26:36.01	92.07	12.38	-51.6	-54.0	14.5	0.00e+00	0	23	0	204472320	69	4738
2026-01-11 07:26:37.01	91.97	12.46	-51.8	-54.2	14.4	0.00e+00	0	23	0	206569472	69	4837
2026-01-11 07:26:38.02	91.87	12.55	-51.7	-54.1	14.5	0.00e+00	0	23	0	208666624	69	4769
2026-01-11 07:26:39.03	91.78	12.63	-51.7	-54.1	14.5	0.00e+00	0	23	0	209715200	69	4781
2026-01-11 07:26:40.04	91.68	12.72	-51.6	-53.9	14.6	0.00e+00	0	23	0	211812352	69	4680
2026-01-11 07:26:41.04	91.58	12.80	-51.7	-54.0	14.6	0.00e+00	0	24	0	213909504	69	4723
2026-01-11 07:26:42.04	91.48	12.89	-51.6	-53.9	14.6	0.00e+00	0	23	0	216006656	69	4685
2026-01-11 07:26:43.05	91.38	12.97	-51.6	-53.9	14.6	0.00e+00	0	23	0	218103808	69	4673
2026-01-11 07:26:44.06	91.28	13.06	-51.6	-53.9	14.6	0.00e+00	0	23	0	219152384	69	4699
2026-01-11 07:26:45.07	91.17	13.14	-51.7	-54.0	14.5	0.00e+00	0	23	0	221249536	69	4737
2026-01-11 07:26:46.07	91.07	13.23	-51.7	-54.0	14.5	0.00e+00	0	23	0	223346688	69	4738
2026-01-11 07:26:47.07	90.97	13.32	-51.7	-53.9	14.6	0.00e+00	0	24	0	225443840	69	4701
2026-01-11 07:26:48.08	90.87	13.40	-51.6	-53.8	14.6	0.00e+00	0	23	0	227540992	69	4624
2026-01-11 07:26:49.08	90.76	13.49	-51.7	-53.9	14.6	0.00e+00	0	23	0	228589568	69	4679
2026-01-11 07:26:50.09	90.66	13.58	-51.6	-53.7	14.7	0.00e+00	0	23	0	230686720	69	4584
2026-01-11 07:26:51.09	90.55	13.66	-51.5	-53.7	14.7	0.00e+00	0	23	0	232783872	69	4561
2026-01-11 07:26:52.10	90.45	13.75	-51.6	-53.8	14.6	0.00e+00	0	24	0	234881024	69	4603
2026-01-11 07:26:53.10	90.34	13.84	-51.6	-53.8	14.7	0.00e+00	0	23	0	235929600	69	4600
2026-01-11 07:26:54.11	90.23	13.92	-51.5	-53.6	14.7	0.00e+00	0	23	0	238026752	69	4522
2026-01-11 07:26:55.12	90.13	14.01	-51.6	-53.8	14.7	0.00e+00	0	23	0	240123904	69	4623
2026-01-11 07:26:56.13	90.02	14.10	-51.6	-53.9	14.6	0.00e+00	0	24	0	242221056	69	4654
2026-01-11 07:26:57.14	89.91	14.19	-51.6	-53.8	14.6	0.00e+00	0	23	0	244318208	69	4625
2026-01-11 07:26:58.15	89.80	14.28	-51.6	-53.8	14.6	0.00e+00	0	23	0	246415360	69	4605
2026-01-11 07:26:59.16	89.69	14.37	-51.6	-53.7	14.7	0.00e+00	0	23	0	247463936	69	4591
2026-01-11 07:27:00.17	89.57	14.46	-51.6	-53.8	14.7	0.00e+00	0	23	0	249561088	69	4610
2026-01-11 07:27:01.18	89.46	14.55	-51.7	-53.9	14.6	0.00e+00	0	24	0	251658240	69	4688
2026-01-11 07:27:02.19	89.35	14.63	-51.7	-53.9	14.6	0.00e+00	0	23	0	253755392	69	4665
2026-01-11 07:27:03.20	89.24	14.72	-51.7	-53.9	14.6	0.00e+00	0	23	0	255852544	69	4687
2026-01-11 07:27:04.20	89.12	14.81	-51.7	-54.0	14.5	0.00e+00	0	23	0	256901120	69	4744
2026-01-11 07:27:05.21	89.01	14.90	-51.7	-54.0	14.5	0.00e+00	0	23	0	258998272	69	4744
2026-01-11 07:27:06.21	88.89	14.99	-51.7	-54.0	14.6	0.00e+00	0	24	0	261095424	69	4708
2026-01-11 07:27:07.22	88.78	15.08	-51.7	-54.0	14.6	0.00e+00	0	23	0	263192576	69	4709
2026-01-11 07:27:08.23	88.66	15.18	-51.8	-54.2	14.5	0.00e+00	0	23	0	265289728	69	4816
2026-01-11 07:27:09.24	88.54	15.27	-51.5	-53.8	14.7	0.00e+00	0	23	0	266338304	69	4615
2026-01-11 07:27:10.25	88.42	15.36	-51.6	-54.0	14.6	0.00e+00	0	23	0	268435456	69	4711
2026-01-11 07:27:11.25	88.30	15.45	-51.5	-53.9	14.6	0.00e+00	0	23	0	270532608	69	4656
2026-01-11 07:27:12.26	88.18	15.54	-51.4	-53.7	14.8	0.00e+00	0	23	0	272629760	69	4548
2026-01-11 07:27:13.27	88.06	15.63	-51.6	-54.0	14.6	0.00e+00	0	23	0	274726912	69	4714
2026-01-11 07:27:14.28	87.94	15.72	-51.6	-54.0	14.6	0.00e+00	0	23	0	275775488	69	4720
2026-01-11 07:27:15.29	87.82	15.82	-51.7	-54.1	14.5	0.00e+00	0	23	0	277872640	69	4785
2026-01-11 07:27:16.30	87.69	15.91	-51.9	-54.3	14.4	0.00e+00	0	23	0	279969792	69	4901
2026-01-11 07:27:17.30	87.57	16.00	-51.6	-53.9	14.6	0.00e+00	0	23	0	282066944	69	4670
2026-01-11 07:27:18.31	87.45	16.10	-51.6	-53.8	14.7	0.00e+00	0	23	0	284164096	69	4649
2026-01-11 07:27:19.32	87.32	16.19	-51.5	-53.7	14.7	0.00e+00	0	23	0	285212672	69	4565
2026-01-11 07:27:20.33	87.19	16.28	-51.5	-53.6	14.8	0.00e+00	0	23	0	287309824	69	4540
2026-01-11 07:27:21.34	87.07	16.38	-51.6	-53.8	14.7	0.00e+00	0	23	0	289406976	69	4599
2026-01-11 07:27:22.35	86.94	16.47	-51.4	-53.5	14.9	0.00e+00	0	23	0	291504128	69	4479
2026-01-11 07:27:23.36	86.81	16.56	-51.6	-53.8	14.7	0.00e+00	0	23	0	293601280	69	4626
2026-01-11 07:27:24.37	86.68	16.66	-51.7	-54.0	14.6	0.00e+00	0	24	0	294649856	69	4717
2026-01-11 07:27:25.38	86.55	16.75	-51.6	-53.8	14.7	0.00e+00	0	23	0	296747008	69	4633
2026-01-11 07:27:26.39	86.42	16.85	-51.5	-53.7	14.7	0.00e+00	0	23	0	298844160	69	4559
2026-01-11 07:27:27.39	86.29	16.94	-51.4	-53.5	14.8	0.00e+00	0	24	0	300941312	69	4453
2026-01-11 07:27:28.40	86.15	17.04	-51.4	-53.5	14.9	0.00e+00	0	23	0	303038464	69	4453
2026-01-11 07:27:29.41	86.02	17.13	-51.2	-53.2	15.0	0.00e+00	0	23	0	304087040	69	4338
2026-01-11 07:27:30.42	85.89	17.23	-51.2	-53.2	14.9	0.00e+00	0	23	0	306184192	68	4577
2026-01-11 07:27:31.42	85.75	17.32	-51.5	-53.7	14.6	0.00e+00	0	23	0	308281344	68	4843
2026-01-11 07:27:32.43	85.61	17.42	-51.8	-54.1	14.4	0.00e+00	0	23	0	310378496	68	5047
2026-01-11 07:27:33.44	85.48	17.52	-52.0	-54.3	14.4	0.00e+00	0	24	0	312475648	69	4908
2026-01-11 07:27:34.45	85.34	17.61	-52.2	-54.6	14.3	0.00e+00	0	23	0	313524224	69	5068
2026-01-11 07:27:35.45	85.20	17.71	-52.3	-54.8	14.1	0.00e+00	0	24	0	315621376	69	5181
2026-01-11 07:27:36.46	85.06	17.80	-52.3	-54.8	14.1	0.00e+00	0	24	0	317718528	69	5196
2026-01-11 07:27:37.47	84.92	17.90	-52.3	-54.7	14.2	0.00e+00	0	24	0	319815680	69	5141
2026-01-11 07:27:38.48	84.78	18.00	-52.3	-54.8	14.2	0.00e+00	0	24	0	321912832	69	5160
2026-01-11 07:27:39.49	84.63	18.10	-52.3	-54.8	14.1	0.00e+00	0	23	0	322961408	69	5216
2026-01-11 07:27:40.50	84.49	18.19	-52.4	-54.9	14.2	0.00e+00	0	24	0	325058560	70	4930
2026-01-11 07:27:41.50	84.35	18.29	-52.3	-54.8	14.2	0.00e+00	0	23	0	327155712	70	4911
2026-01-11 07:27:42.52	84.20	18.39	-52.3	-54.8	14.3	0.00e+00	0	23	0	329252864	70	4890
2026-01-11 07:27:43.52	84.05	18.49	-52.1	-54.5	14.4	0.00e+00	0	23	0	331350016	70	4742
2026-01-11 07:27:44.53	83.91	18.59	-52.0	-54.4	14.5	0.00e+00	0	23	0	332398592	70	4657
2026-01-11 07:27:45.54	83.76	18.68	-52.0	-54.3	14.6	0.00e+00	0	24	0	334495744	70	4635
2026-01-11 07:27:46.54	83.61	18.78	-52.2	-54.5	14.4	0.00e+00	0	23	0	336592896	70	4736
2026-01-11 07:27:47.55	83.46	18.88	-51.9	-54.1	14.7	0.00e+00	0	24	0	338690048	70	4535
2026-01-11 07:27:48.56	83.31	18.98	-51.7	-53.9	14.8	0.00e+00	0	24	0	340787200	70	4405
2026-01-11 07:27:49.57	83.15	19.08	-51.7	-53.9	14.6	0.00e+00	0	24	0	341835776	69	4671
2026-01-11 07:27:50.57	83.00	19.18	-51.6	-53.9	14.7	0.00e+00	0	24	0	343932928	69	4662
2026-01-11 07:27:51.57	82.85	19.28	-51.6	-53.8	14.7	0.00e+00	0	24	0	346030080	69	4624
2026-01-11 07:27:52.58	82.69	19.38	-51.7	-53.9	14.6	0.00e+00	0	23	0	348127232	69	4704
2026-01-11 07:27:53.59	82.54	19.48	-51.9	-54.3	14.4	0.00e+00	0	24	0	350224384	69	4878
2026-01-11 07:27:54.60	82.38	19.58	-51.9	-54.4	14.4	0.00e+00	0	23	0	351272960	69	4928
2026-01-11 07:27:55.61	82.22	19.68	-51.9	-54.2	14.5	0.00e+00	0	24	0	353370112	69	4849
2026-01-11 07:27:56.62	82.06	19.78	-51.8	-54.1	14.5	0.00e+00	0	23	0	355467264	69	4793
2026-01-11 07:27:57.63	81.90	19.88	-51.8	-54.0	14.6	0.00e+00	0	23	0	357564416	69	4755
2026-01-11 07:27:58.63	81.74	19.98	-51.7	-53.9	14.6	0.00e+00	0	24	0	359661568	69	4695
2026-01-11 07:27:59.64	81.58	20.08	-51.8	-54.2	14.5	0.00e+00	0	24	0	360710144	69	4815
2026-01-11 07:28:00.65	81.41	20.18	-51.8	-54.1	14.5	0.00e+00	0	24	0	362807296	69	4796
2026-01-11 07:28:01.65	81.25	20.28	-51.8	-54.1	14.5	0.00e+00	0	23	0	364904448	69	4800
2026-01-11 07:28:02.65	81.08	20.38	-51.9	-54.2	14.5	0.00e+00	0	23	0	367001600	69	4828
2026-01-11 07:28:03.66	80.91	20.48	-51.8	-54.1	14.5	0.00e+00	0	23	0	369098752	69	4761
2026-01-11 07:28:04.67	80.75	20.59	-52.0	-54.2	14.5	0.00e+00	0	23	0	371195904	69	4867
2026-01-11 07:28:05.68	80.58	20.69	-51.9	-54.2	14.5	0.00e+00	0	24	0	372244480	69	4824
2026-01-11 07:28:06.68	80.41	20.79	-51.9	-54.1	14.6	0.00e+00	0	24	0	374341632	69	4778
2026-01-11 07:28:07.69	80.23	20.89	-52.0	-54.3	14.5	0.00e+00	0	24	0	376438784	69	4872
2026-01-11 07:28:08.70	80.06	20.99	-52.0	-54.3	14.5	0.00e+00	0	24	0	378535936	69	4872
2026-01-11 07:28:09.70	79.89	21.09	-52.0	-54.3	14.5	0.00e+00	0	24	0	379584512	69	4884
2026-01-11 07:28:10.71	79.71	21.20	-52.1	-54.4	14.3	0.00e+00	0	24	0	381681664	69	4972
2026-01-11 07:28:11.72	79.54	21.30	-52.3	-54.8	14.2	0.00e+00	0	24	0	383778816	69	5167
2026-01-11 07:28:12.73	79.36	21.40	-52.3	-54.7	14.2	0.00e+00	0	24	0	385875968	69	5130
2026-01-11 07:28:13.74	79.18	21.51	-52.3	-54.8	14.3	0.00e+00	0	24	0	387973120	70	4875
2026-01-11 07:28:14.75	79.00	21.61	-52.2	-54.7	14.3	0.00e+00	0	24	0	389021696	70	4842
2026-01-11 07:28:15.76	78.82	21.71	-52.3	-54.8	14.3	0.00e+00	0	23	0	391118848	70	4912
2026-01-11 07:28:16.76	78.64	21.82	-52.2	-54.6	14.4	0.00e+00	0	23	0	393216000	70	4801
2026-01-11 07:28:17.77	78.45	21.92	-52.1	-54.6	14.4	0.00e+00	0	24	0	395313152	70	4796
2026-01-11 07:28:18.77	78.27	22.02	-52.0	-54.5	14.5	0.00e+00	0	24	0	397410304	70	4734
2026-01-11 07:28:19.78	78.08	22.12	-52.0	-54.4	14.6	0.00e+00	0	24	0	399507456	70	4669
2026-01-11 07:28:20.79	77.89	22.23	-51.8	-54.1	14.7	0.00e+00	0	23	0	400556032	70	4515
2026-01-11 07:28:21.79	77.71	22.33	-51.6	-53.9	14.7	0.00e+00	0	24	0	402653184	69	4704
2026-01-11 07:28:22.80	77.52	22.44	-51.6	-53.8	14.7	0.00e+00	0	24	0	404750336	69	4646
2026-01-11 07:28:23.81	77.32	22.54	-51.7	-53.9	14.6	0.00e+00	0	24	0	406847488	69	4704
2026-01-11 07:28:24.82	77.13	22.64	-51.6	-53.9	14.7	0.00e+00	0	23	0	408944640	69	4660
2026-01-11 07:28:25.83	76.94	22.75	-51.7	-53.9	14.7	0.00e+00	0	24	0	409993216	69	4705
2026-01-11 07:28:26.84	76.74	22.85	-51.7	-53.9	14.7	0.00e+00	0	23	0	412090368	69	4678
2026-01-11 07:28:27.84	76.55	22.96	-51.6	-53.8	14.8	0.00e+00	0	23	0	414187520	69	4602
2026-01-11 07:28:28.85	76.35	23.06	-51.5	-53.5	15.0	0.00e+00	0	24	0	416284672	69	4483
2026-01-11 07:28:29.86	76.15	23.16	-51.7	-53.9	14.7	0.00e+00	0	24	0	417333248	69	4657
2026-01-11 07:28:30.87	75.95	23.27	-51.8	-53.9	14.7	0.00e+00	0	24	0	419430400	69	4702
2026-01-11 07:28:31.87	75.75	23.37	-51.7	-53.9	14.7	0.00e+00	0	24	0	421527552	69	4653
2026-01-11 07:28:32.88	75.54	23.48	-51.7	-53.8	14.7	0.00e+00	0	23	0	423624704	69	4636
2026-01-11 07:28:33.89	75.34	23.58	-51.8	-53.9	14.7	0.00e+00	0	24	0	425721856	69	4680
2026-01-11 07:28:34.90	75.13	23.69	-51.9	-54.1	14.5	0.00e+00	0	24	0	427819008	69	4811
2026-01-11 07:28:35.91	74.92	23.79	-51.9	-54.1	14.5	0.00e+00	0	24	0	428867584	69	4778
2026-01-11 07:28:36.91	74.72	23.89	-51.9	-54.1	14.6	0.00e+00	0	24	0	430964736	69	4765
2026-01-11 07:28:37.92	74.50	24.00	-51.9	-54.0	14.5	0.00e+00	0	24	0	433061888	69	4743
2026-01-11 07:28:38.93	74.29	24.10	-51.5	-53.6	14.8	0.00e+00	0	24	0	435159040	69	4517
2026-01-11 07:28:39.93	74.08	24.21	-51.5	-53.6	14.8	0.00e+00	0	23	0	437256192	69	4508
2026-01-11 07:28:40.94	73.87	24.31	-51.6	-53.7	14.8	0.00e+00	0	24	0	438304768	69	4567
2026-01-11 07:28:41.95	73.65	24.42	-51.8	-54.0	14.6	0.00e+00	0	24	0	440401920	69	4739
2026-01-11 07:28:42.95	73.43	24.52	-51.8	-54.0	14.6	0.00e+00	0	24	0	442499072	69	4729
2026-01-11 07:28:43.96	73.21	24.62	-51.6	-53.8	14.7	0.00e+00	0	23	0	444596224	69	4615
2026-01-11 07:28:44.97	72.99	24.73	-51.6	-53.8	14.7	0.00e+00	0	24	0	445644800	69	4606
2026-01-11 07:28:45.98	72.77	24.83	-51.5	-53.6	14.8	0.00e+00	0	24	0	447741952	69	4533
2026-01-11 07:28:46.98	72.55	24.93	-51.6	-53.8	14.7	0.00e+00	0	24	0	449839104	69	4648
2026-01-11 07:28:47.99	72.32	25.04	-51.5	-53.7	14.8	0.00e+00	0	24	0	451936256	69	4551
2026-01-11 07:28:49.00	72.10	25.14	-51.9	-54.2	14.5	0.00e+00	0	24	0	454033408	69	4845
2026-01-11 07:28:50.01	71.87	25.25	-51.9	-54.1	14.6	0.00e+00	0	24	0	456130560	69	4802
2026-01-11 07:28:51.02	71.64	25.35	-51.7	-53.9	14.7	0.00e+00	0	24	0	457179136	69	4661
2026-01-11 07:28:52.02	71.41	25.45	-51.7	-53.9	14.8	0.00e+00	0	24	0	459276288	69	4652
2026-01-11 07:28:53.03	71.18	25.56	-51.6	-53.7	14.8	0.00e+00	0	23	0	461373440	69	4570
2026-01-11 07:28:54.04	70.94	25.66	-52.1	-54.3	14.5	0.00e+00	0	23	0	463470592	69	4895
2026-01-11 07:28:55.05	70.71	25.76	-52.2	-54.5	14.4	0.00e+00	0	23	0	465567744	69	5010
2026-01-11 07:28:56.06	70.47	25.87	-52.2	-54.5	14.4	0.00e+00	0	24	0	466616320	69	4985
2026-01-11 07:28:57.07	70.23	25.97	-52.2	-54.4	14.4	0.00e+00	0	24	0	468713472	69	4983
2026-01-11 07:28:58.07	69.99	26.07	-52.1	-54.3	14.5	0.00e+00	0	24	0	470810624	69	4913
2026-01-11 07:28:59.09	69.75	26.18	-52.1	-54.2	14.5	0.00e+00	0	24	0	472907776	69	4869
2026-01-11 07:29:00.09	69.51	26.28	-51.8	-53.9	14.7	0.00e+00	0	24	0	475004928	69	4658
2026-01-11 07:29:01.10	69.26	26.38	-51.7	-53.8	14.7	0.00e+00	0	24	0	476053504	69	4645
2026-01-11 07:29:02.11	69.01	26.48	-51.5	-53.5	14.9	0.00e+00	0	24	0	478150656	69	4452
2026-01-11 07:29:03.11	68.77	26.58	-50.9	-52.8	15.1	0.00e+00	0	24	0	480247808	68	4355
2026-01-11 07:29:04.12	68.52	26.69	-50.8	-52.6	15.2	0.00e+00	0	24	0	482344960	68	4274
2026-01-11 07:29:05.13	68.26	26.79	-50.5	-52.3	15.2	0.00e+00	0	24	0	484442112	67	4368
2026-01-11 07:29:06.14	68.01	26.89	-50.4	-52.2	15.2	0.00e+00	0	23	0	485490688	67	4338
2026-01-11 07:29:07.14	67.76	26.99	-50.2	-52.0	15.4	0.00e+00	0	23	0	487587840	67	4240
2026-01-11 07:29:08.15	67.50	27.09	-50.3	-52.2	15.2	0.00e+00	0	24	0	489684992	67	4323
2026-01-11 07:29:09.16	67.24	27.19	-50.6	-52.5	15.1	0.00e+00	0	24	0	491782144	67	4477
2026-01-11 07:29:10.17	66.98	27.29	-51.1	-53.3	14.7	0.00e+00	0	23	0	493879296	67	4903
2026-01-11 07:29:11.18	66.72	27.39	-51.3	-53.5	14.6	0.00e+00	0	24	0	494927872	67	5040
2026-01-11 07:29:12.19	66.46	27.49	-51.2	-53.4	14.7	0.00e+00	0	24	0	497025024	67	4949
2026-01-11 07:29:13.19	66.20	27.59	-51.2	-53.2	14.6	0.00e+00	0	24	0	499122176	67	4868
2026-01-11 07:29:14.20	65.93	27.69	-51.0	-53.0	14.8	0.00e+00	0	24	0	501219328	67	4739
2026-01-11 07:29:15.21	65.66	27.79	-51.4	-53.6	14.5	0.00e+00	0	24	0	503316480	67	5051
2026-01-11 07:29:16.22	65.39	27.88	-52.0	-54.5	14.3	0.00e+00	0	24	0	504365056	69	4986
2026-01-11 07:29:17.23	65.12	27.98	-52.4	-55.0	14.2	0.00e+00	0	24	0	506462208	70	5036
2026-01-11 07:29:18.24	64.85	28.08	-52.6	-55.2	14.0	0.00e+00	0	24	0	508559360	70	5151
2026-01-11 07:29:19.24	64.57	28.18	-52.5	-55.1	14.1	0.00e+00	0	24	0	510656512	70	5088
2026-01-11 07:29:20.25	64.30	28.27	-52.5	-55.1	14.1	0.00e+00	0	24	0	512753664	70	5079
2026-01-11 07:29:21.26	64.02	28.37	-52.2	-54.5	14.4	0.00e+00	0	24	0	513802240	70	4757
2026-01-11 07:29:22.27	63.74	28.47	-52.4	-54.9	14.3	0.00e+00	0	24	0	515899392	70	4946
2026-01-11 07:29:23.27	63.46	28.56	-52.2	-54.6	14.4	0.00e+00	0	24	0	517996544	70	4781
2026-01-11 07:29:24.28	63.18	28.66	-52.1	-54.4	14.5	0.00e+00	0	24	0	520093696	70	4679
2026-01-11 07:29:25.29	62.89	28.75	-52.1	-54.4	14.4	0.00e+00	0	24	0	522190848	70	4700
2026-01-11 07:29:26.30	62.60	28.84	-52.2	-54.6	14.4	0.00e+00	0	24	0	523239424	70	4782
2026-01-11 07:29:27.30	62.32	28.94	-52.3	-54.8	14.3	0.00e+00	0	24	0	525336576	70	4884
2026-01-11 07:29:28.31	62.03	29.03	-52.3	-54.8	14.3	0.00e+00	0	23	0	527433728	70	4895
2026-01-11 07:29:29.32	61.74	29.12	-52.5	-55.3	14.0	0.00e+00	0	24	0	529530880	70	5162
2026-01-11 07:29:30.33	61.44	29.21	-52.7	-55.6	13.8	0.00e+00	0	24	0	531628032	70	5368
2026-01-11 07:29:31.34	61.15	29.31	-53.2	-56.3	13.5	0.00e+00	0	24	0	532676608	71	5507
2026-01-11 07:29:32.34	60.85	29.40	-53.1	-56.1	13.7	0.00e+00	0	24	0	534773760	71	5374
2026-01-11 07:29:33.35	60.56	29.49	-53.2	-56.3	13.5	0.00e+00	0	24	0	536870912	71	5494
2026-01-11 07:29:34.36	60.26	29.58	-53.2	-56.2	13.5	0.00e+00	0	24	0	538968064	71	5445
2026-01-11 07:29:35.37	59.95	29.67	-53.7	-57.1	13.2	0.00e+00	0	24	0	541065216	72	5666
2026-01-11 07:29:36.38	59.65	29.75	-54.1	-57.7	13.0	0.00e+00	0	24	0	542113792	73	5739
2026-01-11 07:29:37.38	59.35	29.84	-54.0	-57.5	13.0	7.00e-07	0	24	0	544210944	73	5655
2026-01-11 07:29:38.39	59.04	29.93	-54.2	-57.9	12.7	0.00e+00	0	24	0	546308096	73	5918
2026-01-11 07:29:39.40	58.73	30.01	-54.0	-57.5	13.0	0.00e+00	0	24	0	548405248	73	5623
2026-01-11 07:29:40.41	58.42	30.10	-54.0	-57.5	13.1	0.00e+00	0	24	0	550502400	73	5632
2026-01-11 07:29:41.42	58.11	30.19	-53.8	-57.1	13.3	0.00e+00	0	24	0	551550976	73	5386
2026-01-11 07:29:42.42	57.80	30.27	-53.5	-56.7	13.6	0.00e+00	0	24	0	553648128	73	5107
2026-01-11 07:29:43.43	57.48	30.35	-53.0	-55.7	14.0	0.00e+00	0	24	0	555745280	72	4842
2026-01-11 07:29:44.44	57.17	30.44	-53.0	-55.8	14.0	0.00e+00	0	24	0	557842432	72	4876
2026-01-11 07:29:45.45	56.85	30.52	-53.0	-55.8	14.0	0.00e+00	0	24	0	559939584	72	4881
2026-01-11 07:29:46.45	56.53	30.60	-53.3	-56.3	13.7	0.00e+00	0	24	0	560988160	72	5191
2026-01-11 07:29:47.45	56.21	30.68	-53.3	-56.3	13.6	0.00e+00	0	24	0	563085312	72	5216
2026-01-11 07:29:48.46	55.89	30.76	-53.2	-56.2	13.6	0.00e+00	0	24	0	565182464	72	5146
2026-01-11 07:29:49.47	55.56	30.84	-53.2	-56.5	13.5	0.00e+00	0	23	0	567279616	72	5327
2026-01-11 07:29:50.48	55.24	30.92	-53.3	-56.8	13.3	0.00e+00	0	24	0	569376768	72	5493
2026-01-11 07:29:51.49	54.91	30.99	-53.4	-57.1	13.0	0.00e+00	0	24	0	570425344	72	5688
2026-01-11 07:29:52.50	54.58	31.07	-53.3	-56.7	13.4	0.00e+00	0	24	0	572522496	72	5424
2026-01-11 07:29:53.51	54.25	31.15	-53.1	-56.4	13.5	0.00e+00	0	24	0	574619648	72	5264
2026-01-11 07:29:54.52	53.92	31.22	-53.0	-56.1	13.7	0.00e+00	0	24	0	576716800	72	5074
2026-01-11 07:29:55.53	53.58	31.29	-52.8	-55.8	13.9	0.00e+00	0	24	0	578813952	72	4922
2026-01-11 07:29:56.54	53.25	31.37	-52.6	-55.6	13.9	0.00e+00	0	24	0	580911104	71	5094
2026-01-11 07:29:57.55	52.91	31.44	-52.5	-55.4	14.0	0.00e+00	0	24	0	581959680	71	4980
2026-01-11 07:29:58.56	52.57	31.51	-52.3	-55.0	14.3	0.00e+00	0	24	0	584056832	71	4756
2026-01-11 07:29:59.57	52.23	31.58	-52.4	-55.1	14.3	0.00e+00	0	24	0	586153984	71	4785
2026-01-11 07:30:00.58	51.89	31.65	-52.4	-55.1	14.3	0.00e+00	0	24	0	588251136	71	4767
2026-01-11 07:30:01.58	51.55	31.72	-52.6	-55.3	14.1	0.00e+00	0	24	0	590348288	71	4917
2026-01-11 07:30:02.59	51.20	31.78	-52.5	-55.3	14.1	0.00e+00	0	24	0	591396864	71	4881
2026-01-11 07:30:03.59	50.86	31.85	-52.6	-55.3	14.2	0.00e+00	0	24	0	593494016	71	4887
2026-01-11 07:30:04.59	50.52	31.91	-52.5	-55.2	14.2	0.00e+00	0	24	0	595591168	71	4861
2026-01-11 07:30:05.60	50.17	31.98	-52.5	-55.3	14.0	0.00e+00	0	23	0	597688320	70	5177
2026-01-11 07:30:06.61	49.82	32.04	-52.7	-55.6	13.8	0.00e+00	0	24	0	598736896	70	5370
2026-01-11 07:30:07.62	49.47	32.10	-52.8	-55.7	13.9	0.00e+00	0	24	0	600834048	71	5121
2026-01-11 07:30:08.63	49.11	32.16	-53.1	-56.3	13.5	0.00e+00	0	24	0	602931200	71	5471
2026-01-11 07:30:09.64	48.76	32.22	-53.0	-56.2	13.6	0.00e+00	0	24	0	605028352	71	5445
2026-01-11 07:30:10.64	48.41	32.28	-52.9	-56.0	13.7	0.00e+00	0	24	0	607125504	71	5296
2026-01-11 07:30:11.65	48.05	32.34	-52.5	-55.3	14.1	0.00e+00	0	24	0	609222656	71	4925
2026-01-11 07:30:12.66	47.69	32.39	-52.2	-54.7	14.5	0.00e+00	0	24	0	610271232	71	4584
2026-01-11 07:30:13.67	47.33	32.45	-51.8	-54.2	14.6	0.00e+00	0	24	0	612368384	70	4565
2026-01-11 07:30:14.68	46.97	32.50	-52.1	-54.7	14.4	0.00e+00	0	24	0	614465536	70	4822
2026-01-11 07:30:15.69	46.61	32.56	-52.6	-55.4	14.0	0.00e+00	0	24	0	616562688	70	5224
2026-01-11 07:30:16.70	46.25	32.61	-52.6	-55.3	14.0	0.00e+00	0	24	0	618659840	70	5216
2026-01-11 07:30:17.71	45.88	32.66	-52.6	-55.2	14.1	0.00e+00	0	24	0	619708416	70	5144
2026-01-11 07:30:18.72	45.52	32.71	-52.4	-54.9	14.2	0.00e+00	0	24	0	621805568	70	4977
2026-01-11 07:30:19.73	45.15	32.75	-52.0	-54.5	14.5	0.00e+00	0	24	0	623902720	70	4718
2026-01-11 07:30:20.74	44.78	32.80	-51.8	-54.2	14.6	0.00e+00	0	24	0	625999872	70	4555
2026-01-11 07:30:21.74	44.42	32.85	-51.3	-53.5	14.9	0.00e+00	0	24	0	628097024	69	4449
2026-01-11 07:30:22.75	44.05	32.89	-51.0	-53.0	15.0	0.00e+00	0	24	0	629145600	68	4477
2026-01-11 07:30:23.76	43.68	32.93	-50.9	-52.9	15.0	0.00e+00	0	24	0	631242752	68	4441
2026-01-11 07:30:24.77	43.31	32.97	-51.0	-53.0	15.0	0.00e+00	0	24	0	633339904	68	4483
2026-01-11 07:30:25.78	42.94	33.01	-50.8	-52.8	15.1	0.00e+00	0	24	0	635437056	68	4352
2026-01-11 07:30:26.78	42.57	33.05	-50.3	-52.2	15.2	0.00e+00	0	24	0	637534208	67	4313
2026-01-11 07:30:27.79	42.19	33.09	-50.4	-52.3	15.1	0.00e+00	0	24	0	638582784	67	4356
2026-01-11 07:30:28.80	41.82	33.13	-51.2	-53.3	14.6	0.00e+00	0	24	0	640679936	67	4904
2026-01-11 07:30:29.80	41.45	33.16	-52.4	-55.1	14.0	0.00e+00	0	24	0	642777088	69	5350
2026-01-11 07:30:30.81	41.07	33.19	-53.1	-56.3	13.6	0.00e+00	0	24	0	644874240	71	5489
2026-01-11 07:30:31.82	40.69	33.22	-52.7	-55.6	13.9	0.00e+00	0	24	0	646971392	71	5042
2026-01-11 07:30:32.83	40.31	33.26	-52.2	-54.7	14.5	0.00e+00	0	24	0	648019968	71	4553
2026-01-11 07:30:33.84	39.94	33.28	-52.0	-54.3	14.6	0.00e+00	0	24	0	650117120	70	4649
2026-01-11 07:30:34.85	39.56	33.31	-52.4	-54.8	14.3	0.00e+00	0	24	0	652214272	70	4925
2026-01-11 07:30:35.86	39.18	33.34	-52.8	-55.5	13.9	0.00e+00	0	24	0	654311424	70	5309
2026-01-11 07:30:36.87	38.80	33.36	-52.9	-55.7	13.9	0.00e+00	0	24	0	656408576	71	5102
2026-01-11 07:30:37.87	38.42	33.39	-52.5	-55.0	14.4	0.00e+00	0	24	0	657457152	71	4745
2026-01-11 07:30:38.88	38.04	33.41	-52.3	-54.7	14.6	0.00e+00	0	24	0	659554304	71	4549
2026-01-11 07:30:39.89	37.66	33.43	-52.1	-54.3	14.6	0.00e+00	0	24	0	661651456	70	4627
2026-01-11 07:30:40.89	37.28	33.45	-51.7	-53.7	14.9	0.00e+00	0	24	0	663748608	70	4330
2026-01-11 07:30:41.90	36.89	33.47	-51.6	-53.6	14.8	0.00e+00	0	24	0	665845760	69	4543
2026-01-11 07:30:42.91	36.51	33.48	-51.7	-53.7	14.8	0.00e+00	0	24	0	666894336	69	4594
2026-01-11 07:30:43.91	36.13	33.50	-51.8	-54.0	14.6	0.00e+00	0	24	0	668991488	69	4754
2026-01-11 07:30:44.92	35.75	33.51	-52.1	-54.4	14.4	0.00e+00	0	24	0	671088640	69	4958
2026-01-11 07:30:45.92	35.37	33.52	-52.6	-55.2	14.1	0.00e+00	0	24	0	673185792	70	5120
2026-01-11 07:30:46.93	34.98	33.53	-53.0	-55.7	14.0	0.00e+00	0	24	0	675282944	71	5149
2026-01-11 07:30:47.94	34.60	33.54	-53.3	-56.2	13.6	0.00e+00	0	24	0	676331520	71	5458
2026-01-11 07:30:48.95	34.21	33.55	-53.5	-56.6	13.5	0.00e+00	0	24	0	678428672	72	5368
2026-01-11 07:30:49.95	33.83	33.56	-53.3	-56.3	13.7	0.00e+00	0	24	0	680525824	72	5194
2026-01-11 07:30:50.96	33.45	33.56	-53.3	-56.3	13.7	0.00e+00	0	24	0	682622976	72	5216
2026-01-11 07:30:51.96	33.06	33.56	-53.3	-56.2	13.8	0.00e+00	0	24	0	684720128	72	5125
2026-01-11 07:30:52.97	32.68	33.57	-53.5	-56.7	13.5	0.00e+00	0	24	0	685768704	72	5411
2026-01-11 07:30:53.98	32.29	33.57	-53.4	-56.5	13.6	0.00e+00	0	24	0	687865856	72	5339
2026-01-11 07:30:54.98	31.91	33.57	-53.0	-55.9	13.9	0.00e+00	0	24	0	689963008	72	4945
2026-01-11 07:30:55.99	31.53	33.56	-52.6	-55.3	14.2	0.00e+00	0	24	0	692060160	71	4882
2026-01-11 07:30:57.00	31.14	33.56	-52.2	-54.6	14.6	0.00e+00	0	24	0	694157312	71	4536
2026-01-11 07:30:58.01	30.76	33.55	-52.3	-54.6	14.6	0.00e+00	0	24	0	695205888	71	4545
2026-01-11 07:30:59.02	30.37	33.55	-52.2	-54.6	14.4	0.00e+00	0	24	0	697303040	70	4793
2026-01-11 07:31:00.02	29.99	33.54	-52.2	-54.6	14.4	0.00e+00	0	24	0	699400192	70	4785
2026-01-11 07:31:01.03	29.60	33.53	-52.2	-54.7	14.4	0.00e+00	0	24	0	701497344	70	4826
2026-01-11 07:31:02.04	29.22	33.52	-52.5	-55.2	14.0	0.00e+00	0	24	0	703594496	70	5144
2026-01-11 07:31:03.05	28.84	33.50	-52.7	-55.4	13.9	0.00e+00	0	24	0	704643072	70	5272
2026-01-11 07:31:04.06	28.45	33.49	-52.7	-55.4	14.1	0.00e+00	0	24	0	706740224	71	4957
2026-01-11 07:31:05.07	28.07	33.47	-52.3	-54.7	14.6	0.00e+00	0	24	0	708837376	71	4565
2026-01-11 07:31:06.07	27.69	33.46	-52.0	-54.3	14.6	0.00e+00	0	24	0	710934528	70	4637
2026-01-11 07:31:07.08	27.31	33.44	-52.2	-54.6	14.4	0.00e+00	0	24	0	713031680	70	4784
2026-01-11 07:31:08.08	26.93	33.42	-52.6	-55.3	14.0	0.00e+00	0	24	0	714080256	70	5178
2026-01-11 07:31:09.09	26.55	33.40	-52.8	-55.7	13.9	0.00e+00	0	24	0	716177408	71	5116
2026-01-11 07:31:10.10	26.17	33.37	-53.5	-56.7	13.4	0.00e+00	0	24	0	718274560	72	5453
2026-01-11 07:31:11.11	25.79	33.35	-53.5	-56.8	13.4	0.00e+00	0	24	0	720371712	72	5465
2026-01-11 07:31:12.12	25.41	33.32	-53.2	-56.2	13.8	0.00e+00	0	24	0	722468864	72	5105
2026-01-11 07:31:13.12	25.03	33.30	-52.8	-55.5	14.2	0.00e+00	0	24	0	723517440	72	4752
2026-01-11 07:31:14.13	24.65	33.27	-52.7	-55.5	14.0	0.00e+00	0	24	0	725614592	71	5017
2026-01-11 07:31:15.14	24.27	33.24	-52.6	-55.4	14.1	0.00e+00	0	24	0	727711744	71	4954
2026-01-11 07:31:16.15	23.90	33.21	-52.7	-55.5	14.1	0.00e+00	0	24	0	729808896	71	5030
2026-01-11 07:31:17.16	23.52	33.17	-52.6	-55.2	14.3	0.00e+00	0	24	0	731906048	71	4837
2026-01-11 07:31:18.16	23.15	33.14	-52.5	-55.1	14.3	0.00e+00	0	24	0	732954624	71	4802
2026-01-11 07:31:19.17	22.77	33.10	-52.4	-55.0	14.3	0.00e+00	0	24	0	735051776	71	4736
2026-01-11 07:31:20.18	22.40	33.07	-52.4	-55.1	14.3	0.00e+00	0	24	0	737148928	71	4785
2026-01-11 07:31:21.18	22.03	33.03	-52.6	-55.4	14.0	0.00e+00	0	24	0	739246080	71	4946
2026-01-11 07:31:22.19	21.66	32.99	-52.9	-56.0	13.6	0.00e+00	0	24	0	741343232	71	5322
2026-01-11 07:31:23.20	21.29	32.95	-52.8	-55.8	13.8	0.00e+00	0	24	0	742391808	71	5167
2026-01-11 07:31:24.21	20.92	32.91	-52.8	-55.7	13.9	0.00e+00	0	24	0	744488960	71	5119
2026-01-11 07:31:25.22	20.55	32.86	-52.7	-55.4	14.1	0.00e+00	0	24	0	746586112	71	4981
2026-01-11 07:31:26.23	20.18	32.82	-52.7	-55.4	14.1	0.00e+00	0	24	0	748683264	71	4959
2026-01-11 07:31:27.23	19.81	32.77	-53.0	-55.9	13.8	0.00e+00	0	24	0	750780416	71	5231
2026-01-11 07:31:28.25	19.44	32.73	-52.7	-55.5	14.1	0.00e+00	0	24	0	751828992	71	4984
2026-01-11 07:31:29.26	19.08	32.68	-52.6	-55.4	14.1	0.00e+00	0	24	0	753926144	71	4969
2026-01-11 07:31:30.26	18.72	32.63	-52.6	-55.5	14.1	0.00e+00	0	24	0	756023296	71	4993
2026-01-11 07:31:31.27	18.36	32.58	-52.4	-55.0	14.4	0.00e+00	0	24	0	758120448	71	4743
2026-01-11 07:31:32.28	17.99	32.52	-52.5	-55.1	14.3	0.00e+00	0	24	0	760217600	71	4812
2026-01-11 07:31:33.28	17.64	32.47	-52.4	-55.1	14.3	0.00e+00	0	24	0	762314752	71	4808
2026-01-11 07:31:34.29	17.28	32.42	-51.9	-54.4	14.6	0.00e+00	0	24	0	763363328	70	4658
2026-01-11 07:31:35.30	16.92	32.36	-51.7	-54.1	14.7	0.00e+00	0	24	0	765460480	70	4512
2026-01-11 07:31:36.31	16.56	32.30	-51.3	-53.6	14.8	0.00e+00	0	24	0	767557632	69	4496
2026-01-11 07:31:37.32	16.21	32.25	-51.5	-53.8	14.7	0.00e+00	0	24	0	769654784	69	4635
2026-01-11 07:31:38.32	15.86	32.19	-52.1	-54.7	14.3	0.00e+00	0	24	0	771751936	69	5119
2026-01-11 07:31:39.33	15.50	32.13	-52.7	-55.5	14.0	0.00e+00	0	24	0	772800512	70	5315
2026-01-11 07:31:40.34	15.15	32.07	-52.9	-55.8	13.8	0.00e+00	0	24	0	774897664	70	5526
2026-01-11 07:31:41.35	14.80	32.00	-52.9	-55.7	13.9	0.00e+00	0	24	0	776994816	71	5111
2026-01-11 07:31:42.36	14.45	31.94	-52.6	-55.2	14.2	0.00e+00	0	24	0	779091968	71	4867
2026-01-11 07:31:43.36	14.11	31.88	-52.2	-54.6	14.6	0.00e+00	0	24	0	780140544	71	4509
2026-01-11 07:31:44.37	13.76	31.81	-52.1	-54.4	14.5	0.00e+00	0	24	0	782237696	70	4705
2026-01-11 07:31:45.38	13.42	31.74	-52.4	-55.0	14.2	0.00e+00	0	24	0	784334848	70	5016
2026-01-11 07:31:46.39	13.07	31.68	-52.6	-55.3	14.1	0.00e+00	0	24	0	786432000	70	5179
2026-01-11 07:31:47.39	12.73	31.61	-52.7	-55.5	13.9	0.00e+00	0	24	0	788529152	70	5294
2026-01-11 07:31:48.40	12.39	31.54	-52.8	-55.7	13.7	0.00e+00	0	24	0	790626304	70	5424
2026-01-11 07:31:49.41	12.05	31.47	-53.0	-55.9	13.7	0.00e+00	0	24	0	791674880	71	5260
2026-01-11 07:31:50.42	11.72	31.40	-52.9	-55.9	13.8	0.00e+00	0	24	0	793772032	71	5265
2026-01-11 07:31:51.43	11.38	31.32	-53.2	-56.4	13.5	0.00e+00	0	24	0	795869184	71	5552
2026-01-11 07:31:52.43	11.05	31.25	-53.3	-56.5	13.5	0.00e+00	0	24	0	797966336	72	5300
2026-01-11 07:31:53.44	10.72	31.18	-53.5	-56.8	13.4	0.00e+00	0	24	0	800063488	72	5496
2026-01-11 07:31:54.45	10.39	31.10	-53.2	-56.3	13.7	0.00e+00	0	24	0	801112064	72	5180
2026-01-11 07:31:55.45	10.06	31.03	-53.2	-56.2	13.7	0.00e+00	0	24	0	803209216	72	5133
2026-01-11 07:31:56.46	9.73	30.95	-52.9	-55.7	14.1	0.00e+00	0	24	0	805306368	72	4856
2026-01-11 07:31:57.47	9.40	30.87	-52.7	-55.3	14.3	0.00e+00	0	24	0	807403520	72	4635
2026-01-11 07:31:58.48	9.08	30.79	-52.5	-55.1	14.3	0.00e+00	0	24	0	809500672	71	4762
2026-01-11 07:31:59.49	8.76	30.71	-52.5	-55.1	14.3	0.00e+00	0	24	0	810549248	71	4778
2026-01-11 07:32:00.49	8.44	30.63	-52.4	-54.9	14.4	0.00e+00	0	24	0	812646400	71	4689
2026-01-11 07:32:01.50	8.12	30.55	-52.2	-54.7	14.5	0.00e+00	0	24	0	814743552	71	4573
2026-01-11 07:32:02.51	7.80	30.47	-51.9	-54.3	14.6	0.00e+00	0	24	0	816840704	70	4614
2026-01-11 07:32:03.52	7.48	30.39	-52.1	-54.5	14.4	0.00e+00	0	24	0	818937856	70	4733
2026-01-11 07:32:04.52	7.17	30.31	-52.1	-54.5	14.4	0.00e+00	0	24	0	819986432	70	4759
2026-01-11 07:32:05.53	6.85	30.22	-51.6	-53.8	14.7	0.00e+00	0	24	0	822083584	69	4631
2026-01-11 07:32:06.54	6.54	30.14	-51.0	-53.1	14.9	0.00e+00	0	24	0	824180736	68	4499
2026-01-11 07:32:07.55	6.23	30.05	-50.6	-52.5	15.0	0.00e+00	0	24	0	826277888	67	4491
2026-01-11 07:32:08.55	5.93	29.97	-50.6	-52.5	15.0	0.00e+00	0	24	0	828375040	67	4477
2026-01-11 07:32:09.56	5.62	29.88	-50.8	-52.8	14.8	0.00e+00	0	24	0	829423616	67	4649
2026-01-11 07:32:10.57	5.31	29.79	-51.3	-53.6	14.5	0.00e+00	0	24	0	831520768	67	5044
2026-01-11 07:32:11.58	5.01	29.70	-52.0	-54.5	14.3	0.00e+00	0	24	0	833617920	69	5029
2026-01-11 07:32:12.58	4.71	29.62	-52.8	-55.7	13.8	0.00e+00	0	24	0	835715072	70	5415
2026-01-11 07:32:13.59	4.41	29.53	-53.4	-56.6	13.4	0.00e+00	0	24	0	837812224	71	5674
2026-01-11 07:32:14.60	4.11	29.44	-53.3	-56.4	13.6	0.00e+00	0	24	0	838860800	72	5273
2026-01-11 07:32:15.61	3.81	29.35	-52.6	-55.2	14.2	0.00e+00	0	24	0	840957952	71	4847
2026-01-11 07:32:16.62	3.52	29.26	-51.5	-53.8	14.7	0.00e+00	0	24	0	843055104	69	4603
2026-01-11 07:32:17.63	3.23	29.16	-51.4	-53.6	14.9	0.00e+00	0	24	0	845152256	69	4504
2026-01-11 07:32:18.63	2.94	29.07	-51.8	-54.0	14.6	0.00e+00	0	24	0	847249408	69	4753
2026-01-11 07:32:19.64	2.65	28.98	-52.3	-54.8	14.2	0.00e+00	0	24	0	848297984	69	5195
2026-01-11 07:32:20.65	2.36	28.89	-53.2	-56.2	13.6	0.00e+00	0	24	0	850395136	71	5407
2026-01-11 07:32:21.65	2.07	28.79	-53.5	-56.8	13.4	0.00e+00	0	24	0	852492288	72	5470
2026-01-11 07:32:22.66	1.79	28.70	-53.5	-56.7	13.4	0.00e+00	0	24	0	854589440	72	5443
2026-01-11 07:32:23.66	1.51	28.61	-53.1	-56.0	13.9	0.00e+00	0	24	0	856686592	72	5002
2026-01-11 07:32:24.67	1.23	28.51	-53.0	-55.7	14.1	0.00e+00	0	24	0	857735168	72	4844
2026-01-11 07:32:25.67	0.95	28.42	-53.1	-55.9	14.0	0.00e+00	0	24	0	859832320	72	4933
2026-01-11 07:32:26.68	0.67	28.32	-53.3	-56.2	13.8	0.00e+00	0	24	0	861929472	72	5122
2026-01-11 07:32:27.69	0.39	28.22	-52.9	-55.6	14.2	0.00e+00	0	24	0	864026624	72	4769
2026-01-11 07:32:28.70	0.12	28.13	-52.7	-55.2	14.4	0.00e+00	0	24	0	866123776	72	4588
2026-01-11 07:32:29.71	359.84	28.03	-52.7	-55.2	14.2	0.00e+00	0	24	0	867172352	71	4865
2026-01-11 07:32:30.72	359.57	27.93	-53.2	-56.0	13.8	0.00e+00	0	24	0	869269504	71	5298
2026-01-11 07:32:31.73	359.30	27.83	-53.1	-55.8	13.9	0.00e+00	0	24	0	871366656	71	5192
2026-01-11 07:32:32.74	359.03	27.74	-52.7	-55.2	14.1	0.00e+00	0	24	0	873463808	71	4835
2026-01-11 07:32:33.75	358.77	27.64	-52.3	-54.6	14.6	0.00e+00	0	24	0	875560960	71	4519
2026-01-11 07:32:34.75	358.50	27.54	-51.8	-53.9	14.8	0.00e+00	0	24	0	876609536	70	4421
2026-01-11 07:32:35.76	358.24	27.44	-51.4	-53.4	14.9	0.00e+00	0	24	0	878706688	69	4407
2026-01-11 07:32:36.77	357.98	27.34	-51.2	-53.1	15.1	0.00e+00	0	24	0	880803840	69	4287
2026-01-11 07:32:37.78	357.72	27.24	-51.3	-53.2	15.1	0.00e+00	0	24	0	882900992	69	4318
2026-01-11 07:32:38.78	357.46	27.14	-51.4	-53.4	14.9	0.00e+00	0	24	0	884998144	69	4405
2026-01-11 07:32:39.78	357.21	27.04	-51.8	-53.9	14.6	0.00e+00	0	24	0	886046720	69	4666
2026-01-11 07:32:40.79	356.95	26.94	-51.9	-54.1	14.5	0.00e+00	0	24	0	888143872	69	4802
2026-01-11 07:32:41.80	356.70	26.84	-52.0	-54.2	14.5	0.00e+00	0	24	0	890241024	69	4853
2026-01-11 07:32:42.81	356.45	26.74	-51.9	-54.1	14.4	0.00e+00	0	24	0	892338176	69	4798
2026-01-11 07:32:43.81	356.20	26.64	-51.9	-54.1	14.5	0.00e+00	0	24	0	894435328	69	4808
2026-01-11 07:32:44.82	355.95	26.54	-51.6	-53.7	14.8	0.00e+00	0	24	0	895483904	69	4560
2026-01-11 07:32:45.83	355.70	26.43	-51.5	-53.5	14.9	0.00e+00	0	24	0	897581056	69	4453
2026-01-11 07:32:46.84	355.46	26.33	-51.3	-53.3	15.0	0.00e+00	0	24	0	899678208	69	4371
2026-01-11 07:32:47.85	355.21	26.23	-51.5	-53.5	14.9	0.00e+00	0	24	0	901775360	69	4479
2026-01-11 07:32:48.86	354.97	26.13	-51.5	-53.6	14.9	0.00e+00	0	24	0	903872512	69	4509
2026-01-11 07:32:49.87	354.73	26.03	-51.6	-53.6	14.8	0.00e+00	0	24	0	904921088	69	4533
2026-01-11 07:32:50.88	354.49	25.92	-51.6	-53.7	14.8	0.00e+00	0	24	0	907018240	69	4583
2026-01-11 07:32:51.89	354.25	25.82	-51.5	-53.5	14.8	0.00e+00	0	24	0	909115392	69	4475
2026-01-11 07:32:52.90	354.02	25.72	-51.5	-53.4	14.9	0.00e+00	0	24	0	911212544	69	4439
2026-01-11 07:32:53.90	353.79	25.61	-51.2	-53.1	14.9	0.00e+00	0	24	0	913309696	68	4541
2026-01-11 07:32:54.91	353.55	25.51	-51.2	-53.1	14.9	0.00e+00	0	24	0	914358272	68	4537
2026-01-11 07:32:55.93	353.32	25.41	-50.9	-52.7	15.1	0.00e+00	0	24	0	916455424	68	4326
2026-01-11 07:32:56.93	353.09	25.30	-50.8	-52.6	15.2	0.00e+00	0	24	0	918552576	68	4247
2026-01-11 07:32:57.94	352.86	25.20	-50.4	-52.1	15.2	0.00e+00	0	24	0	920649728	67	4289
2026-01-11 07:32:58.95	352.64	25.10	-50.4	-52.1	15.2	0.00e+00	0	24	0	922746880	67	4262
2026-01-11 07:32:59.96	352.41	24.99	-50.2	-51.9	15.3	0.00e+00	0	24	0	923795456	67	4185
2026-01-11 07:33:00.97	352.19	24.89	-50.4	-52.2	15.2	0.00e+00	0	24	0	925892608	67	4326
2026-01-11 07:33:01.98	351.96	24.78	-50.7	-52.5	15.0	0.00e+00	0	24	0	927989760	67	4468
2026-01-11 07:33:02.99	351.74	24.68	-50.9	-52.9	14.9	0.00e+00	0	24	0	930086912	67	4658
2026-01-11 07:33:03.99	351.53	24.58	-50.8	-52.7	14.9	0.00e+00	0	24	0	932184064	67	4576
2026-01-11 07:33:05.00	351.31	24.47	-50.6	-52.5	15.1	0.00e+00	0	24	0	933232640	67	4464
2026-01-11 07:33:06.01	351.09	24.37	-50.2	-51.9	15.3	0.00e+00	0	24	0	935329792	67	4174
2026-01-11 07:33:07.01	350.88	24.27	-49.9	-51.6	15.3	0.00e+00	0	24	0	937426944	66	4261
2026-01-11 07:33:08.02	350.67	24.16	-50.0	-51.7	15.3	0.00e+00	0	24	0	939524096	66	4297
2026-01-11 07:33:09.03	350.45	24.06	-50.2	-51.9	15.1	0.00e+00	0	24	0	941621248	66	4413
2026-01-11 07:33:10.04	350.24	23.95	-50.3	-52.0	15.0	0.00e+00	0	24	0	943718400	66	4489
2026-01-11 07:33:11.05	350.03	23.85	-50.5	-52.3	15.0	0.00e+00	0	24	0	944766976	66	4610
2026-01-11 07:33:12.05	349.83	23.74	-50.6	-52.4	14.9	0.00e+00	0	24	0	946864128	66	4699
2026-01-11 07:33:13.06	349.62	23.64	-50.4	-52.2	15.0	0.00e+00	0	24	0	948961280	66	4558
2026-01-11 07:33:14.07	349.42	23.54	-50.4	-52.2	15.0	0.00e+00	0	24	0	951058432	66	4567
2026-01-11 07:33:15.08	349.21	23.43	-50.5	-52.3	15.0	0.00e+00	0	24	0	953155584	66	4614
2026-01-11 07:33:16.09	349.01	23.33	-50.6	-52.5	14.9	0.00e+00	0	24	0	954204160	66	4737
2026-01-11 07:33:17.10	348.81	23.22	-50.5	-52.3	14.9	0.00e+00	0	24	0	956301312	66	4649
2026-01-11 07:33:18.11	348.61	23.12	-50.6	-52.5	14.8	0.00e+00	0	24	0	958398464	66	4730
2026-01-11 07:33:19.12	348.41	23.02	-50.5	-52.4	14.9	0.00e+00	0	24	0	960495616	66	4662
2026-01-11 07:33:20.13	348.21	22.91	-50.4	-52.2	15.0	0.00e+00	0	24	0	962592768	66	4593
2026-01-11 07:33:21.14	348.02	22.81	-50.3	-52.1	15.1	0.00e+00	0	24	0	963641344	66	4495
2026-01-11 07:33:22.15	347.82	22.70	-50.6	-52.4	14.9	0.00e+00	0	24	0	965738496	66	4698
2026-01-11 07:33:23.16	347.63	22.60	-50.7	-52.5	14.8	0.00e+00	0	24	0	967835648	66	4754
2026-01-11 07:33:24.16	347.44	22.50	-50.6	-52.5	14.9	0.00e+00	0	24	0	969932800	66	4706
2026-01-11 07:33:25.16	347.25	22.39	-51.0	-52.9	14.8	0.00e+00	0	24	0	972029952	67	4668
2026-01-11 07:33:26.17	347.06	22.29	-50.7	-52.6	15.0	0.00e+00	0	24	0	973078528	67	4507
2026-01-11 07:33:27.17	346.88	22.19	-50.8	-52.6	14.9	0.00e+00	0	24	0	975175680	67	4544
2026-01-11 07:33:28.18	346.69	22.08	-50.8	-52.6	15.0	0.00e+00	0	24	0	977272832	67	4530
2026-01-11 07:33:29.19	346.50	21.98	-50.7	-52.6	15.0	0.00e+00	0	24	0	979369984	67	4508
2026-01-11 07:33:30.20	346.32	21.88	-50.6	-52.4	15.1	0.00e+00	0	24	0	981467136	67	4415
2026-01-11 07:33:31.21	346.14	21.77	-50.8	-52.7	14.9	0.00e+00	0	24	0	982515712	67	4584
2026-01-11 07:33:32.22	345.96	21.67	-51.0	-52.9	14.8	0.00e+00	0	24	0	984612864	67	4698
2026-01-11 07:33:33.23	345.77	21.57	-51.3	-53.3	14.6	0.00e+00	0	24	0	986710016	67	4886
2026-01-11 07:33:34.24	345.60	21.47	-51.2	-53.1	14.7	0.00e+00	0	24	0	988807168	67	4813
2026-01-11 07:33:35.24	345.42	21.36	-51.1	-53.0	14.8	0.00e+00	0	24	0	990904320	67	4750
2026-01-11 07:33:36.25	345.24	21.26	-51.2	-53.1	14.7	0.00e+00	0	24	0	991952896	67	4810
2026-01-11 07:33:37.26	345.07	21.16	-51.1	-53.1	14.8	0.00e+00	0	24	0	994050048	67	4766
2026-01-11 07:33:38.25	344.90	21.06	-51.2	-53.1	14.7	0.00e+00	0	24	0	996147200	67	4805
2026-01-11 07:33:39.26	344.72	20.96	-51.3	-53.3	14.6	0.00e+00	0	24	0	998244352	67	4910
2026-01-11 07:33:40.27	344.55	20.85	-51.8	-53.9	14.5	0.00e+00	0	24	0	1000341504	68	4942
2026-01-11 07:33:41.28	344.38	20.75	-51.7	-53.7	14.7	0.00e+00	0	24	0	1001390080	69	4586
2026-01-11 07:33:42.29	344.21	20.65	-52.1	-54.4	14.4	0.00e+00	0	24	0	1003487232	69	4960
2026-01-11 07:33:43.30	344.04	20.55	-52.4	-54.8	14.3	0.00e+00	0	24	0	1005584384	70	4892
2026-01-11 07:33:44.31	343.87	20.45	-52.3	-54.6	14.4	0.00e+00	0	24	0	1007681536	70	4786
2026-01-11 07:33:45.31	343.71	20.35	-52.1	-54.3	14.6	0.00e+00	0	24	0	1009778688	70	4622
2026-01-11 07:33:46.32	343.54	20.25	-51.7	-53.8	14.9	0.00e+00	0	24	0	1010827264	70	4364
2026-01-11 07:33:47.33	343.38	20.14	-51.5	-53.4	14.9	0.00e+00	0	24	0	1012924416	69	4440
2026-01-11 07:33:48.34	343.22	20.04	-51.4	-53.3	14.9	0.00e+00	0	24	0	1015021568	69	4386
2026-01-11 07:33:49.35	343.05	19.94	-51.4	-53.4	14.9	0.00e+00	0	24	0	1017118720	69	4420
2026-01-11 07:33:50.35	342.89	19.84	-51.4	-53.3	14.9	0.00e+00	0	24	0	1019215872	69	4356
2026-01-11 07:33:51.36	342.73	19.74	-51.3	-53.3	15.0	0.00e+00	0	24	0	1020264448	69	4345
2026-01-11 07:33:52.37	342.58	19.64	-51.3	-53.3	14.8	0.00e+00	0	24	0	1022361600	68	4623
2026-01-11 07:33:53.38	342.42	19.54	-51.3	-53.2	14.8	0.00e+00	0	24	0	1024458752	68	4585
2026-01-11 07:33:54.39	342.26	19.44	-51.3	-53.2	14.8	0.00e+00	0	24	0	1026555904	68	4591
2026-01-11 07:33:55.40	342.11	19.34	-51.2	-53.2	14.8	0.00e+00	0	24	0	1028653056	68	4584
2026-01-11 07:33:56.40	341.95	19.24	-51.0	-52.9	15.0	0.00e+00	0	24	0	1029701632	68	4434
2026-01-11 07:33:57.40	341.80	19.15	-50.8	-52.7	15.1	0.00e+00	0	24	0	1031798784	68	4294
2026-01-11 07:33:58.41	341.65	19.05	-50.5	-52.3	15.1	0.00e+00	0	24	0	1033895936	67	4362
2026-01-11 07:33:59.42	341.50	18.95	-50.5	-52.3	15.1	0.00e+00	0	24	0	1035993088	67	4379
2026-01-11 07:34:00.43	341.35	18.85	-50.5	-52.3	15.1	0.00e+00	0	24	0	1038090240	67	4348
2026-01-11 07:34:01.44	341.20	18.75	-50.5	-52.3	15.1	0.00e+00	0	24	0	1039138816	67	4349
2026-01-11 07:34:02.45	341.05	18.65	-50.6	-52.4	15.1	0.00e+00	0	24	0	1041235968	67	4433
2026-01-11 07:34:03.46	340.90	18.55	-50.3	-52.1	15.2	0.00e+00	0	24	0	1043333120	67	4261
2026-01-11 07:34:04.46	340.75	18.46	-50.5	-52.3	15.1	0.00e+00	0	24	0	1045430272	67	4350
2026-01-11 07:34:05.47	340.61	18.36	-50.6	-52.4	15.0	0.00e+00	0	24	0	1047527424	67	4410
2026-01-11 07:34:06.47	340.47	18.26	-50.8	-52.6	15.0	0.00e+00	0	24	0	1048576000	67	4513
2026-01-11 07:34:07.48	340.32	18.16	-50.6	-52.4	15.1	0.00e+00	0	24	0	1050673152	67	4397
2026-01-11 07:34:08.49	340.18	18.07	-50.6	-52.4	15.0	0.00e+00	0	24	0	1052770304	67	4433
2026-01-11 07:34:09.49	340.04	17.97	-50.9	-52.7	14.9	0.00e+00	0	24	0	1054867456	67	4588
2026-01-11 07:34:10.49	339.90	17.87	-50.8	-52.6	15.0	0.00e+00	0	24	0	1056964608	67	4523
2026-01-11 07:34:11.50	339.76	17.78	-50.8	-52.7	14.9	0.00e+00	0	24	0	1058013184	67	4550
2026-01-11 07:34:12.51	339.62	17.68	-50.8	-52.6	14.9	2.20e-06	0	24	0	1060110336	67	4534
2026-01-11 07:34:13.52	339.48	17.59	-50.8	-52.6	14.9	0.00e+00	0	24	0	1062207488	67	4545
2026-01-11 07:34:14.53	339.34	17.49	-50.7	-52.6	14.9	0.00e+00	0	24	0	1064304640	67	4515
2026-01-11 07:34:15.54	339.21	17.39	-50.8	-52.7	14.9	0.00e+00	0	24	0	1066401792	67	4548
2026-01-11 07:34:16.55	339.07	17.30	-50.8	-52.7	14.9	0.00e+00	0	24	0	1067450368	67	4578
2026-01-11 07:34:17.56	338.94	17.20	-51.0	-52.9	14.8	0.00e+00	0	24	0	1069547520	67	4703
2026-01-11 07:34:18.57	338.80	17.11	-51.6	-53.6	14.6	0.00e+00	0	24	0	1071644672	68	4801
2026-01-11 07:34:19.57	338.67	17.01	-51.8	-54.0	14.4	0.00e+00	0	24	0	1073741824	68	5032
2026-01-11 07:34:20.58	338.54	16.92	-52.4	-54.8	14.1	0.00e+00	0	24	0	1075838976	69	5190
2026-01-11 07:34:21.58	338.41	16.82	-52.8	-55.4	13.9	0.00e+00	0	24	0	1076887552	70	5227
2026-01-11 07:34:22.59	338.28	16.73	-53.1	-55.9	13.7	0.00e+00	0	24	0	1078984704	71	5251
2026-01-11 07:34:23.60	338.15	16.64	-53.2	-56.2	13.6	0.00e+00	0	24	0	1081081856	71	5406
2026-01-11 07:34:24.60	338.02	16.54	-53.2	-56.1	13.6	0.00e+00	0	24	0	1083179008	71	5391
2026-01-11 07:34:25.61	337.89	16.45	-53.0	-55.6	13.9	0.00e+00	0	24	0	1085276160	71	5090
2026-01-11 07:34:26.62	337.77	16.35	-52.5	-54.9	14.4	0.00e+00	0	24	0	1086324736	71	4672
2026-01-11 07:34:27.63	337.64	16.26	-52.3	-54.7	14.5	0.00e+00	0	24	0	1088421888	71	4555
2026-01-11 07:34:28.64	337.51	16.17	-52.2	-54.5	14.6	0.00e+00	0	24	0	1090519040	71	4442
2026-01-11 07:34:29.65	337.39	16.08	-51.9	-54.1	14.7	0.00e+00	0	24	0	1092616192	70	4512
2026-01-11 07:34:30.66	337.27	15.98	-51.7	-53.8	14.9	0.00e+00	0	24	0	1094713344	70	4342
2026-01-11 07:34:31.67	337.14	15.89	-51.6	-53.7	14.8	0.00e+00	0	24	0	1096810496	69	4550
2026-01-11 07:34:32.68	337.02	15.80	-51.5	-53.5	14.9	0.00e+00	0	24	0	1097859072	69	4459
2026-01-11 07:34:33.69	336.90	15.71	-51.4	-53.4	14.9	0.00e+00	0	24	0	1099956224	69	4437
2026-01-11 07:34:34.70	336.78	15.61	-51.8	-53.9	14.6	0.00e+00	0	24	0	1102053376	69	4682
2026-01-11 07:34:35.70	336.66	15.52	-51.9	-54.1	14.5	0.00e+00	0	24	0	1104150528	69	4785
2026-01-11 07:34:36.71	336.54	15.43	-52.1	-54.4	14.3	0.00e+00	0	24	0	1105199104	69	4961
2026-01-11 07:34:37.72	336.42	15.34	-52.3	-54.7	14.1	0.00e+00	0	24	0	1107296256	69	5117
2026-01-11 07:34:38.73	336.30	15.25	-52.5	-55.0	14.2	0.00e+00	0	24	0	1109393408	70	4989
2026-01-11 07:34:39.74	336.19	15.16	-52.5	-54.9	14.1	0.00e+00	0	24	0	1111490560	70	4983
2026-01-11 07:34:40.75	336.07	15.07	-52.6	-55.1	14.1	0.00e+00	0	24	0	1113587712	70	5054
2026-01-11 07:34:41.75	335.95	14.98	-52.4	-54.8	14.3	0.00e+00	0	24	0	1114636288	70	4897
2026-01-11 07:34:42.76	335.84	14.89	-52.2	-54.6	14.4	0.00e+00	0	24	0	1116733440	70	4771
2026-01-11 07:34:43.77	335.73	14.80	-52.1	-54.4	14.5	0.00e+00	0	24	0	1118830592	70	4679
2026-01-11 07:34:44.78	335.61	14.71	-52.1	-54.4	14.4	0.00e+00	0	24	0	1120927744	70	4671
2026-01-11 07:34:45.78	335.50	14.62	-52.0	-54.3	14.6	0.00e+00	0	24	0	1123024896	70	4618
2026-01-11 07:34:46.79	335.39	14.53	-52.0	-54.3	14.5	0.00e+00	0	24	0	1125122048	70	4617
2026-01-11 07:34:47.80	335.28	14.44	-51.9	-54.2	14.6	0.00e+00	0	24	0	1126170624	70	4551
2026-01-11 07:34:48.80	335.17	14.35	-52.0	-54.3	14.5	0.00e+00	0	24	0	1128267776	70	4624
2026-01-11 07:34:49.81	335.06	14.26	-52.1	-54.4	14.5	0.00e+00	0	24	0	1130364928	70	4687
2026-01-11 07:34:50.82	334.95	14.18	-52.0	-54.3	14.5	0.00e+00	0	24	0	1132462080	70	4600
2026-01-11 07:34:51.83	334.84	14.09	-52.1	-54.4	14.4	0.00e+00	0	24	0	1134559232	70	4700
2026-01-11 07:34:52.84	334.73	14.00	-52.1	-54.5	14.4	0.00e+00	0	24	0	1135607808	70	4711
2026-01-11 07:34:53.85	334.62	13.91	-52.2	-54.5	14.4	0.00e+00	0	24	0	1137704960	70	4744
2026-01-11 07:34:54.85	334.52	13.83	-52.3	-54.7	14.2	0.00e+00	0	24	0	1139802112	70	4848
2026-01-11 07:34:55.86	334.41	13.74	-52.3	-54.7	14.3	0.00e+00	0	24	0	1141899264	70	4829
2026-01-11 07:34:56.87	334.31	13.65	-52.2	-54.6	14.3	0.00e+00	0	24	0	1143996416	70	4786
2026-01-11 07:34:57.88	334.20	13.56	-52.3	-54.7	14.3	0.00e+00	0	24	0	1145044992	70	4852
2026-01-11 07:34:58.89	334.10	13.48	-52.3	-54.7	14.2	0.00e+00	0	24	0	1147142144	70	4843
2026-01-11 07:34:59.89	333.99	13.39	-52.4	-54.8	14.2	0.00e+00	0	24	0	1149239296	70	4896
2026-01-11 07:35:00.90	333.89	13.30	-52.4	-54.8	14.2	0.00e+00	0	24	0	1151336448	70	4913
2026-01-11 07:35:01.90	333.79	13.22	-52.3	-54.7	14.2	0.00e+00	0	24	0	1153433600	70	4848
2026-01-11 07:35:02.90	333.69	13.13	-52.2	-54.6	14.3	0.00e+00	0	24	0	1154482176	70	4779
2026-01-11 07:35:03.91	333.59	13.05	-52.1	-54.3	14.4	0.00e+00	0	24	0	1156579328	70	4647
2026-01-11 07:35:04.92	333.49	12.96	-52.0	-54.2	14.5	0.00e+00	0	24	0	1158676480	70	4563
2026-01-11 07:35:05.92	333.39	12.88	-51.9	-54.0	14.6	0.00e+00	0	24	0	1160773632	70	4489
2026-01-11 07:35:06.93	333.29	12.79	-51.9	-54.0	14.6	0.00e+00	0	24	0	1162870784	70	4484
2026-01-11 07:35:07.94	333.19	12.71	-51.8	-53.9	14.7	0.00e+00	0	24	0	1163919360	70	4440
2026-01-11 07:35:08.94	333.09	12.62	-51.6	-53.7	14.6	2.20e-06	0	24	0	1166016512	69	4596
2026-01-11 07:35:09.95	333.00	12.54	-51.5	-53.6	14.7	0.00e+00	0	24	0	1168113664	69	4502
2026-01-11 07:35:10.96	332.90	12.46	-51.5	-53.5	14.8	0.00e+00	0	24	0	1170210816	69	4457
2026-01-11 07:35:11.97	332.80	12.37	-51.5	-53.5	14.8	0.00e+00	0	24	0	1172307968	69	4484
2026-01-11 07:35:12.97	332.71	12.29	-51.7	-53.8	14.6	0.00e+00	0	24	0	1173356544	69	4606
2026-01-11 07:35:13.98	332.61	12.21	-51.8	-54.0	14.5	0.00e+00	0	24	0	1175453696	69	4733
2026-01-11 07:35:14.99	332.52	12.12	-51.9	-54.2	14.4	5.30e-06	0	24	0	1177550848	69	4815
2026-01-11 07:35:16.00	332.42	12.04	-52.3	-54.6	14.1	0.00e+00	0	24	0	1179648000	69	5093
2026-01-11 07:35:17.01	332.33	11.96	-52.5	-55.0	14.1	0.00e+00	0	24	0	1181745152	70	5016
2026-01-11 07:35:18.02	332.24	11.87	-52.8	-55.5	13.8	0.00e+00	0	24	0	1182793728	70	5282
2026-01-11 07:35:19.02	332.15	11.79	-53.1	-55.9	13.7	0.00e+00	0	24	0	1184890880	71	5219
2026-01-11 07:35:20.03	332.05	11.71	-53.2	-56.1	13.6	0.00e+00	0	24	0	1186988032	71	5346
2026-01-11 07:35:21.04	331.96	11.63	-53.4	-56.4	13.3	0.00e+00	0	24	0	1189085184	71	5587
2026-01-11 07:35:22.05	331.87	11.54	-53.7	-56.8	13.2	0.00e+00	0	24	0	1191182336	72	5505
2026-01-11 07:35:23.06	331.78	11.46	-53.6	-56.8	13.2	0.00e+00	0	24	0	1192230912	72	5478
2026-01-11 07:35:24.07	331.69	11.38	-53.6	-56.7	13.2	0.00e+00	0	24	0	1194328064	72	5460
2026-01-11 07:35:25.07	331.60	11.30	-53.6	-56.8	13.2	0.00e+00	0	24	0	1196425216	72	5472
2026-01-11 07:35:26.08	331.51	11.22	-53.5	-56.6	13.3	0.00e+00	0	24	0	1198522368	72	5388
2026-01-11 07:35:27.09	331.43	11.14	-53.5	-56.6	13.3	0.00e+00	0	24	0	1200619520	72	5357
2026-01-11 07:35:28.09	331.34	11.06	-53.5	-56.5	13.4	0.00e+00	0	24	0	1201668096	72	5310
2026-01-11 07:35:29.10	331.25	10.98	-53.3	-56.2	13.6	0.00e+00	0	24	0	1203765248	72	5130
2026-01-11 07:35:30.10	331.16	10.90	-53.1	-55.9	13.7	0.00e+00	0	24	0	1205862400	72	4964
2026-01-11 07:35:31.11	331.08	10.82	-53.0	-55.8	13.9	0.00e+00	0	24	0	1207959552	72	4887
2026-01-11 07:35:32.12	330.99	10.74	-53.1	-55.9	13.8	0.00e+00	0	24	0	1210056704	72	4944
2026-01-11 07:35:33.13	330.91	10.66	-52.8	-55.5	14.0	0.00e+00	0	24	0	1211105280	72	4709
2026-01-11 07:35:34.14	330.82	10.58	-52.7	-55.4	14.0	0.00e+00	0	24	0	1213202432	72	4656
2026-01-11 07:35:35.14	330.74	10.50	-52.7	-55.3	13.9	0.00e+00	0	24	0	1215299584	71	4903
2026-01-11 07:35:36.16	330.65	10.42	-52.5	-55.0	14.1	0.00e+00	0	24	0	1217396736	71	4743
2026-01-11 07:35:37.16	330.57	10.34	-52.4	-54.9	14.2	0.00e+00	0	24	0	1219493888	71	4667
2026-01-11 07:35:38.17	330.49	10.26	-52.4	-54.9	14.2	1.50e-06	0	24	0	1220542464	71	4685
2026-01-11 07:35:39.17	330.41	10.18	-52.3	-54.7	14.3	0.00e+00	0	24	0	1222639616	71	4591
2026-01-11 07:35:40.18	330.32	10.11	-52.3	-54.8	14.3	0.00e+00	0	24	0	1224736768	71	4607
2026-01-11 07:35:41.19	330.24	10.03	-52.2	-54.6	14.2	7.60e-06	0	24	0	1226833920	70	4784
2026-01-11 07:35:42.20	330.16	9.95	-52.1	-54.5	14.3	0.00e+00	0	24	0	1228931072	70	4725
2026-01-11 07:35:43.21	330.08	9.87	-52.1	-54.5	14.3	1.50e-06	0	24	0	1229979648	70	4710
2026-01-11 07:35:44.22	330.00	9.79	-52.0	-54.3	14.4	0.00e+00	0	24	0	1232076800	70	4650
2026-01-11 07:35:45.22	329.92	9.72	-52.1	-54.4	14.4	0.00e+00	0	24	0	1234173952	70	4672
2026-01-11 07:35:46.23	329.84	9.64	-52.2	-54.6	14.3	0.00e+00	0	24	0	1236271104	70	4773
2026-01-11 07:35:47.24	329.76	9.56	-52.1	-54.5	14.3	0.00e+00	0	24	0	1238368256	70	4743
2026-01-11 07:35:48.25	329.69	9.49	-52.2	-54.6	14.2	0.00e+00	0	24	0	1239416832	70	4783
