passes_logs/2026/01/11/R3.2S_Murmansk/R3.2S_Murmansk__20260111_010702_NOAA_20_JPSS-1_rec.log

#Pass ID: 20260111_010702_NOAA 20 (JPSS-1)
#Satellite: NOAA 20 (JPSS-1)
#Configuration: NOAA 20
#almurnet v.1.7.20251203
#Start time: 2026-01-11 01:07:01

#Version: 2.2.20231116
#Station: R3.2S_Murmansk
#Location: 33.079688 lon 68.888172 lat
#TLE: 1 43013U 17073A   26009.69119415  .00000109  00000+0  72598-4 0  9996
#TLE: 2 43013  98.7631 310.6868 0001678  46.7442 313.3874 14.19534878421981

#Time	Az	El	Level	Level2	SNR	BER	BlckErr	Temp	State	Recorded	gain1	gain2
2026-01-11 01:07:01.62	26.27	1.97	-57.0	-72.9	3.8	1.49e+00	0	22	0	0	80	22185
2026-01-11 01:07:02.63	26.26	2.03	-56.9	-72.9	3.8	1.49e+00	0	22	104	0	78	24777
2026-01-11 01:07:03.63	26.25	2.10	-56.9	-72.9	3.8	1.49e+00	0	22	104	0	78	24792
2026-01-11 01:07:04.63	26.24	2.16	-56.9	-72.9	3.8	1.49e+00	0	22	104	0	78	24804
2026-01-11 01:07:05.64	26.24	2.23	-57.0	-72.9	3.8	1.49e+00	0	22	104	0	79	23495
2026-01-11 01:07:06.64	26.23	2.29	-57.0	-73.0	3.8	1.49e+00	0	22	104	0	79	23584
2026-01-11 01:07:07.64	26.22	2.36	-57.0	-72.9	3.8	1.49e+00	0	22	104	0	79	23513
2026-01-11 01:07:08.63	26.21	2.42	-57.0	-72.9	3.8	1.49e+00	0	22	104	0	79	23529
2026-01-11 01:07:09.64	26.21	2.49	-56.9	-72.9	3.8	1.49e+00	0	22	104	0	79	23534
2026-01-11 01:07:10.64	26.20	2.55	-57.0	-72.9	3.8	1.49e+00	0	22	104	0	79	23563
2026-01-11 01:07:11.63	26.19	2.61	-57.0	-73.0	3.8	1.49e+00	0	22	104	0	79	23590
2026-01-11 01:07:12.64	26.18	2.68	-57.0	-72.9	3.8	1.49e+00	0	22	104	0	79	23508
2026-01-11 01:07:13.64	26.17	2.75	-57.0	-72.9	3.8	1.49e+00	0	22	104	0	79	23413
2026-01-11 01:07:14.64	26.17	2.81	-57.0	-72.9	3.8	1.49e+00	0	22	104	0	79	23402
2026-01-11 01:07:15.64	26.16	2.88	-56.9	-72.8	3.8	1.49e+00	0	22	104	0	79	23219
2026-01-11 01:07:16.64	26.15	2.94	-57.0	-72.8	3.8	1.49e+00	0	22	104	0	79	23225
2026-01-11 01:07:17.64	26.14	3.01	-57.0	-72.7	3.8	1.49e+00	0	22	104	0	79	22925
2026-01-11 01:07:18.63	26.13	3.07	-57.0	-72.6	3.8	1.49e+00	0	22	104	0	79	22704
2026-01-11 01:07:19.63	26.13	3.14	-57.0	-72.7	3.8	1.49e+00	0	22	104	0	79	22919
2026-01-11 01:07:20.63	26.12	3.21	-57.0	-72.6	3.8	1.49e+00	0	23	104	0	79	22703
2026-01-11 01:07:21.63	26.11	3.27	-57.0	-72.6	3.8	1.49e+00	0	22	104	0	79	22598
2026-01-11 01:07:22.63	26.10	3.34	-57.0	-72.6	3.8	1.49e+00	0	22	104	0	79	22667
2026-01-11 01:07:23.62	26.09	3.41	-57.0	-72.7	3.8	1.49e+00	0	22	104	0	79	22850
2026-01-11 01:07:24.62	26.08	3.47	-57.0	-72.7	3.8	1.49e+00	0	23	104	0	79	22961
2026-01-11 01:07:25.61	26.07	3.54	-57.0	-72.8	3.8	1.49e+00	0	23	104	0	79	23140
2026-01-11 01:07:26.61	26.07	3.61	-57.0	-72.8	3.8	1.49e+00	0	23	104	0	79	23252
2026-01-11 01:07:27.61	26.06	3.68	-57.0	-72.9	3.8	1.49e+00	0	23	104	0	79	23453
2026-01-11 01:07:28.60	26.05	3.74	-57.0	-72.9	3.8	1.49e+00	0	23	104	0	79	23485
2026-01-11 01:07:29.60	26.04	3.81	-57.0	-72.9	3.8	1.49e+00	0	23	104	0	79	23376
2026-01-11 01:07:30.60	26.03	3.88	-56.9	-72.6	3.8	1.49e+00	0	23	104	0	79	22730
2026-01-11 01:07:31.60	26.02	3.95	-56.9	-72.2	3.8	1.49e+00	0	23	104	0	79	21515
2026-01-11 01:07:32.60	26.01	4.01	-56.9	-71.3	3.8	1.49e+00	0	23	104	0	79	19593
2026-01-11 01:07:33.61	26.00	4.08	-56.9	-70.2	3.9	1.49e+00	0	23	104	0	79	17198
2026-01-11 01:07:34.61	25.99	4.15	-56.8	-69.1	4.3	1.38e+00	0	23	0	0	79	15059
2026-01-11 01:07:35.61	25.98	4.22	-56.7	-68.2	4.6	9.96e-01	0	23	0	1048576	79	13627
2026-01-11 01:07:36.60	25.97	4.29	-56.7	-67.6	4.9	8.87e-01	0	23	0	3145728	79	12666
2026-01-11 01:07:37.61	25.97	4.36	-56.7	-67.1	5.1	6.64e-01	0	23	0	4194304	79	11958
2026-01-11 01:07:38.60	25.96	4.43	-56.6	-66.6	5.4	5.26e-01	0	23	0	6291456	79	11320
2026-01-11 01:07:39.60	25.95	4.50	-56.6	-66.1	5.7	4.02e-01	0	23	0	8388608	79	10721
2026-01-11 01:07:40.60	25.94	4.57	-56.5	-65.7	6.0	3.35e-01	0	23	0	10485760	79	10224
2026-01-11 01:07:41.60	25.93	4.64	-56.5	-65.4	6.2	2.68e-01	0	23	0	12582912	79	9868
2026-01-11 01:07:42.61	25.92	4.71	-56.5	-65.3	6.2	1.98e-01	0	23	0	13631488	79	9760
2026-01-11 01:07:43.60	25.91	4.78	-56.5	-65.5	6.2	2.16e-01	0	23	0	15728640	79	9961
2026-01-11 01:07:44.60	25.90	4.85	-56.5	-65.8	5.9	2.91e-01	0	23	0	17825792	79	10326
2026-01-11 01:07:45.61	25.89	4.92	-56.5	-65.3	6.3	2.26e-01	0	23	0	19922944	79	9760
2026-01-11 01:07:46.61	25.88	4.99	-56.6	-66.0	5.8	2.97e-01	0	23	0	22020096	79	10571
2026-01-11 01:07:47.61	25.87	5.06	-56.6	-64.9	6.9	3.17e-01	0	23	0	23068672	79	9282
2026-01-11 01:07:48.61	25.86	5.13	-55.8	-61.3	9.9	1.27e-01	0	23	0	25165824	78	6570
2026-01-11 01:07:49.62	25.85	5.21	-56.7	-66.8	5.4	3.09e-02	0	23	0	27262976	78	12313
2026-01-11 01:07:50.61	25.84	5.28	-56.4	-63.8	7.4	1.30e+00	0	23	0	28311552	78	8748
2026-01-11 01:07:51.61	25.83	5.35	-56.2	-63.9	7.7	6.10e-03	0	23	0	30408704	77	9356
2026-01-11 01:07:52.61	25.82	5.42	-55.9	-61.7	9.1	7.27e-01	0	23	0	32505856	78	6867
2026-01-11 01:07:53.61	25.80	5.49	-55.1	-59.4	11.5	6.56e-05	0	23	0	33554432	76	5875
2026-01-11 01:07:54.61	25.79	5.57	-54.5	-58.2	12.3	2.67e-05	0	23	0	35651584	75	5447
2026-01-11 01:07:55.60	25.78	5.64	-54.5	-58.2	12.3	2.20e-06	0	23	0	37748736	75	5450
2026-01-11 01:07:56.59	25.77	5.71	-54.6	-58.4	12.2	7.60e-06	0	23	0	39845888	75	5529
2026-01-11 01:07:57.60	25.76	5.78	-54.6	-58.5	12.1	3.00e-06	0	23	0	41943040	75	5604
2026-01-11 01:07:58.60	25.75	5.86	-54.6	-58.4	12.2	5.30e-06	0	23	0	42991616	75	5551
2026-01-11 01:07:59.60	25.74	5.93	-54.6	-58.4	12.2	0.00e+00	0	23	0	45088768	75	5565
2026-01-11 01:08:00.60	25.73	6.00	-54.7	-58.5	12.1	4.50e-06	0	23	0	47185920	75	5649
2026-01-11 01:08:01.60	25.72	6.08	-54.6	-58.5	12.2	4.50e-06	0	23	0	49283072	75	5605
2026-01-11 01:08:02.61	25.71	6.15	-54.7	-58.7	12.0	7.60e-06	0	23	0	51380224	75	5742
2026-01-11 01:08:03.61	25.70	6.23	-54.8	-58.8	12.0	3.00e-06	0	23	0	52428800	75	5804
2026-01-11 01:08:04.61	25.68	6.30	-54.7	-58.5	12.2	6.80e-06	0	23	0	54525952	75	5599
2026-01-11 01:08:05.60	25.67	6.37	-54.4	-57.8	12.7	7.00e-07	0	23	0	56623104	75	5209
2026-01-11 01:08:06.59	25.66	6.45	-54.2	-57.5	13.0	7.00e-07	0	23	0	58720256	75	5015
2026-01-11 01:08:07.60	25.65	6.52	-54.1	-57.4	12.9	0.00e+00	0	23	0	59768832	74	5234
2026-01-11 01:08:08.60	25.64	6.60	-54.2	-57.6	12.8	0.00e+00	0	23	0	61865984	74	5369
2026-01-11 01:08:09.60	25.63	6.68	-54.2	-57.5	12.9	7.00e-07	0	24	0	63963136	74	5322
2026-01-11 01:08:10.60	25.61	6.75	-54.2	-57.5	12.9	7.00e-07	0	23	0	66060288	74	5327
2026-01-11 01:08:11.61	25.60	6.83	-54.0	-57.1	13.2	0.00e+00	0	24	0	68157440	74	5098
2026-01-11 01:08:12.61	25.59	6.90	-53.9	-57.0	13.2	7.00e-07	0	24	0	69206016	74	5030
2026-01-11 01:08:13.61	25.58	6.98	-53.9	-57.0	13.2	0.00e+00	0	24	0	71303168	74	5025
2026-01-11 01:08:14.62	25.57	7.06	-53.9	-56.9	13.3	0.00e+00	0	24	0	73400320	74	4970
2026-01-11 01:08:15.62	25.55	7.14	-53.6	-56.4	13.5	0.00e+00	0	24	0	75497472	73	4978
2026-01-11 01:08:16.62	25.54	7.21	-53.6	-56.5	13.5	0.00e+00	0	23	0	77594624	73	5037
2026-01-11 01:08:17.62	25.53	7.29	-53.6	-56.4	13.6	0.00e+00	0	24	0	78643200	73	4943
2026-01-11 01:08:18.61	25.52	7.37	-53.8	-56.8	13.3	0.00e+00	0	24	0	80740352	73	5194
2026-01-11 01:08:19.62	25.50	7.44	-53.6	-56.5	13.5	0.00e+00	0	24	0	82837504	73	5031
2026-01-11 01:08:20.62	25.49	7.52	-53.7	-56.6	13.4	0.00e+00	0	24	0	84934656	73	5045
2026-01-11 01:08:21.62	25.48	7.60	-53.5	-56.3	13.6	0.00e+00	0	24	0	87031808	73	4911
2026-01-11 01:08:22.62	25.46	7.68	-53.5	-56.3	13.6	0.00e+00	0	24	0	88080384	73	4905
2026-01-11 01:08:23.61	25.45	7.76	-53.6	-56.5	13.6	0.00e+00	0	24	0	90177536	73	4999
2026-01-11 01:08:24.61	25.44	7.84	-53.6	-56.4	13.6	0.00e+00	0	23	0	92274688	73	4974
2026-01-11 01:08:25.60	25.42	7.92	-53.6	-56.4	13.6	0.00e+00	0	24	0	94371840	73	4951
2026-01-11 01:08:26.60	25.41	7.99	-53.6	-56.5	13.6	0.00e+00	0	24	0	95420416	73	4995
2026-01-11 01:08:27.60	25.40	8.07	-53.6	-56.4	13.6	0.00e+00	0	24	0	97517568	73	4939
2026-01-11 01:08:28.59	25.38	8.15	-53.5	-56.2	13.7	0.00e+00	0	24	0	99614720	73	4846
2026-01-11 01:08:29.58	25.37	8.23	-53.5	-56.2	13.7	0.00e+00	0	24	0	101711872	73	4838
2026-01-11 01:08:30.57	25.36	8.31	-53.5	-56.3	13.7	0.00e+00	0	24	0	103809024	73	4880
2026-01-11 01:08:31.56	25.34	8.39	-53.5	-56.2	13.8	0.00e+00	0	24	0	104857600	73	4819
2026-01-11 01:08:32.56	25.33	8.47	-53.4	-56.1	13.8	0.00e+00	0	24	0	106954752	73	4778
2026-01-11 01:08:33.56	25.32	8.56	-53.4	-56.1	13.9	0.00e+00	0	24	0	109051904	73	4767
2026-01-11 01:08:34.56	25.30	8.64	-53.4	-56.1	13.8	0.00e+00	0	24	0	111149056	73	4768
2026-01-11 01:08:35.56	25.29	8.72	-53.5	-56.2	13.8	0.00e+00	0	24	0	112197632	73	4836
2026-01-11 01:08:36.56	25.27	8.80	-53.6	-56.3	13.7	0.00e+00	0	24	0	114294784	73	4899
2026-01-11 01:08:37.57	25.26	8.88	-53.3	-55.9	13.9	0.00e+00	0	24	0	116391936	73	4694
2026-01-11 01:08:38.57	25.24	8.97	-53.4	-56.0	13.9	0.00e+00	0	24	0	118489088	73	4731
2026-01-11 01:08:39.57	25.23	9.05	-53.4	-56.0	13.9	0.00e+00	0	24	0	120586240	73	4728
2026-01-11 01:08:40.57	25.21	9.13	-53.4	-56.0	13.9	0.00e+00	0	24	0	121634816	73	4717
2026-01-11 01:08:41.56	25.20	9.22	-53.4	-56.0	13.9	0.00e+00	0	24	0	123731968	73	4720
2026-01-11 01:08:42.56	25.19	9.30	-53.3	-55.9	14.0	0.00e+00	0	24	0	125829120	73	4660
2026-01-11 01:08:43.56	25.17	9.38	-53.3	-55.8	14.0	0.00e+00	0	24	0	127926272	73	4641
2026-01-11 01:08:44.55	25.16	9.47	-53.4	-56.0	13.9	0.00e+00	0	24	0	130023424	73	4720
2026-01-11 01:08:45.55	25.14	9.55	-53.2	-55.7	14.0	0.00e+00	0	24	0	131072000	73	4590
2026-01-11 01:08:46.55	25.12	9.64	-53.1	-55.6	14.0	0.00e+00	0	24	0	133169152	72	4790
2026-01-11 01:08:47.55	25.11	9.72	-53.2	-55.7	14.0	0.00e+00	0	24	0	135266304	72	4836
2026-01-11 01:08:48.55	25.09	9.81	-53.2	-55.6	14.0	0.00e+00	0	24	0	137363456	72	4812
2026-01-11 01:08:49.55	25.08	9.89	-53.2	-55.7	14.0	0.00e+00	0	24	0	138412032	72	4820
2026-01-11 01:08:50.55	25.06	9.98	-53.1	-55.5	14.1	0.00e+00	0	24	0	140509184	72	4745
2026-01-11 01:08:51.55	25.05	10.06	-53.1	-55.5	14.1	0.00e+00	0	24	0	142606336	72	4736
2026-01-11 01:08:52.55	25.03	10.15	-53.1	-55.6	14.0	0.00e+00	0	24	0	144703488	72	4769
2026-01-11 01:08:53.55	25.01	10.24	-53.1	-55.6	14.1	0.00e+00	0	24	0	146800640	72	4777
2026-01-11 01:08:54.55	25.00	10.32	-53.0	-55.5	14.1	0.00e+00	0	24	0	147849216	72	4706
2026-01-11 01:08:55.55	24.98	10.41	-53.1	-55.5	14.1	0.00e+00	0	24	0	149946368	72	4751
2026-01-11 01:08:56.55	24.96	10.50	-53.0	-55.4	14.2	0.00e+00	0	24	0	152043520	72	4673
2026-01-11 01:08:57.55	24.95	10.59	-53.1	-55.5	14.1	0.00e+00	0	24	0	154140672	72	4707
2026-01-11 01:08:58.54	24.93	10.68	-53.1	-55.5	14.1	0.00e+00	0	24	0	156237824	72	4718
2026-01-11 01:08:59.54	24.91	10.76	-53.0	-55.3	14.2	0.00e+00	0	24	0	157286400	72	4643
2026-01-11 01:09:00.54	24.90	10.85	-53.0	-55.3	14.2	0.00e+00	0	24	0	159383552	72	4635
2026-01-11 01:09:01.54	24.88	10.94	-53.0	-55.4	14.2	0.00e+00	0	24	0	161480704	72	4656
2026-01-11 01:09:02.54	24.86	11.03	-53.0	-55.4	14.2	0.00e+00	0	24	0	163577856	72	4652
2026-01-11 01:09:03.54	24.84	11.12	-52.9	-55.2	14.3	0.00e+00	0	24	0	165675008	72	4560
2026-01-11 01:09:04.54	24.83	11.21	-52.9	-55.2	14.3	0.00e+00	0	24	0	166723584	72	4554
2026-01-11 01:09:05.54	24.81	11.30	-52.9	-55.2	14.3	0.00e+00	0	24	0	168820736	72	4575
2026-01-11 01:09:06.54	24.79	11.40	-52.9	-55.3	14.2	0.00e+00	0	24	0	170917888	72	4603
2026-01-11 01:09:07.55	24.77	11.49	-52.8	-55.1	14.3	0.00e+00	0	24	0	173015040	72	4531
2026-01-11 01:09:08.54	24.75	11.58	-52.8	-55.1	14.4	0.00e+00	0	24	0	174063616	72	4526
2026-01-11 01:09:09.55	24.74	11.67	-53.0	-55.3	14.3	0.00e+00	0	24	0	176160768	72	4614
2026-01-11 01:09:10.56	24.72	11.76	-52.8	-55.0	14.4	0.00e+00	0	24	0	178257920	72	4465
2026-01-11 01:09:11.55	24.70	11.86	-52.8	-55.1	14.4	0.00e+00	0	24	0	180355072	72	4519
2026-01-11 01:09:12.55	24.68	11.95	-52.8	-55.1	14.4	0.00e+00	0	24	0	182452224	72	4511
2026-01-11 01:09:13.55	24.66	12.04	-52.7	-54.9	14.5	0.00e+00	0	24	0	183500800	72	4425
2026-01-11 01:09:14.54	24.64	12.14	-52.8	-55.0	14.4	0.00e+00	0	24	0	185597952	72	4470
2026-01-11 01:09:15.55	24.62	12.23	-52.7	-54.9	14.5	0.00e+00	0	24	0	187695104	72	4432
2026-01-11 01:09:16.55	24.60	12.33	-52.6	-54.8	14.4	0.00e+00	0	24	0	189792256	71	4646
2026-01-11 01:09:17.54	24.58	12.42	-52.6	-54.8	14.4	0.00e+00	0	24	0	191889408	71	4616
2026-01-11 01:09:18.54	24.56	12.51	-52.6	-54.7	14.4	0.00e+00	0	24	0	192937984	71	4593
2026-01-11 01:09:19.54	24.54	12.61	-52.6	-54.8	14.4	0.00e+00	0	24	0	195035136	71	4616
2026-01-11 01:09:20.54	24.52	12.71	-52.6	-54.8	14.4	0.00e+00	0	24	0	197132288	71	4610
2026-01-11 01:09:21.53	24.50	12.80	-52.6	-54.7	14.5	0.00e+00	0	24	0	199229440	71	4586
2026-01-11 01:09:22.53	24.48	12.90	-52.6	-54.8	14.4	0.00e+00	0	24	0	201326592	71	4610
2026-01-11 01:09:23.52	24.46	12.99	-52.5	-54.7	14.5	0.00e+00	0	24	0	202375168	71	4558
2026-01-11 01:09:24.51	24.44	13.09	-52.5	-54.6	14.5	0.00e+00	0	24	0	204472320	71	4506
2026-01-11 01:09:25.51	24.42	13.19	-52.6	-54.7	14.5	0.00e+00	0	24	0	206569472	71	4567
2026-01-11 01:09:26.49	24.40	13.28	-52.5	-54.6	14.5	0.00e+00	0	24	0	208666624	71	4535
2026-01-11 01:09:27.50	24.38	13.38	-52.5	-54.6	14.5	0.00e+00	0	24	0	209715200	71	4505
2026-01-11 01:09:28.50	24.36	13.48	-52.4	-54.5	14.6	0.00e+00	0	24	0	211812352	71	4454
2026-01-11 01:09:29.50	24.34	13.58	-52.4	-54.5	14.6	0.00e+00	0	24	0	213909504	71	4451
2026-01-11 01:09:30.49	24.32	13.68	-52.3	-54.4	14.6	0.00e+00	0	24	0	216006656	71	4413
2026-01-11 01:09:31.48	24.30	13.78	-52.4	-54.5	14.6	0.00e+00	0	24	0	218103808	71	4465
2026-01-11 01:09:32.48	24.27	13.88	-52.4	-54.5	14.6	0.00e+00	0	24	0	219152384	71	4451
2026-01-11 01:09:33.47	24.25	13.98	-52.4	-54.4	14.6	0.00e+00	0	24	0	221249536	71	4433
2026-01-11 01:09:34.48	24.23	14.08	-52.3	-54.4	14.7	0.00e+00	0	24	0	223346688	71	4402
2026-01-11 01:09:35.48	24.21	14.19	-52.2	-54.2	14.7	0.00e+00	0	24	0	225443840	71	4340
2026-01-11 01:09:36.48	24.18	14.29	-52.3	-54.3	14.7	0.00e+00	0	24	0	226492416	71	4358
2026-01-11 01:09:37.48	24.16	14.39	-52.2	-54.2	14.8	0.00e+00	0	24	0	228589568	71	4337
2026-01-11 01:09:38.48	24.14	14.49	-52.3	-54.3	14.7	0.00e+00	0	24	0	230686720	71	4350
2026-01-11 01:09:39.47	24.11	14.60	-52.2	-54.2	14.6	0.00e+00	0	24	0	232783872	70	4548
2026-01-11 01:09:40.46	24.09	14.70	-52.1	-54.1	14.7	0.00e+00	0	24	0	234881024	70	4505
2026-01-11 01:09:41.46	24.07	14.80	-52.1	-54.0	14.7	0.00e+00	0	24	0	235929600	70	4479
2026-01-11 01:09:42.46	24.04	14.91	-52.1	-54.0	14.7	0.00e+00	0	24	0	238026752	70	4483
2026-01-11 01:09:43.46	24.02	15.02	-52.1	-54.1	14.7	0.00e+00	0	24	0	240123904	70	4514
2026-01-11 01:09:44.46	24.00	15.12	-52.0	-53.9	14.8	0.00e+00	0	24	0	242221056	70	4438
2026-01-11 01:09:45.46	23.97	15.23	-52.1	-54.0	14.7	0.00e+00	0	25	0	243269632	70	4471
2026-01-11 01:09:46.46	23.95	15.33	-52.1	-54.0	14.7	0.00e+00	0	24	0	245366784	70	4462
2026-01-11 01:09:47.46	23.92	15.44	-52.0	-54.0	14.7	0.00e+00	0	24	0	247463936	70	4458
2026-01-11 01:09:48.46	23.90	15.55	-51.9	-53.8	14.8	0.00e+00	0	24	0	249561088	70	4381
2026-01-11 01:09:49.46	23.87	15.66	-51.9	-53.7	14.9	0.00e+00	0	25	0	251658240	70	4332
2026-01-11 01:09:50.46	23.85	15.77	-51.8	-53.7	14.9	0.00e+00	0	25	0	252706816	70	4309
2026-01-11 01:09:51.46	23.82	15.87	-51.9	-53.7	14.9	0.00e+00	0	25	0	254803968	70	4337
2026-01-11 01:09:52.46	23.79	15.98	-51.8	-53.7	14.9	0.00e+00	0	24	0	256901120	70	4325
2026-01-11 01:09:53.46	23.77	16.09	-51.9	-53.7	14.9	0.00e+00	0	25	0	258998272	70	4336
2026-01-11 01:09:54.46	23.74	16.21	-51.8	-53.6	15.0	0.00e+00	0	25	0	261095424	70	4265
2026-01-11 01:09:55.46	23.72	16.32	-51.8	-53.7	14.9	0.00e+00	0	24	0	262144000	70	4299
2026-01-11 01:09:56.45	23.69	16.43	-51.7	-53.5	15.0	0.00e+00	0	25	0	264241152	70	4239
2026-01-11 01:09:57.45	23.66	16.54	-51.5	-53.3	14.9	0.00e+00	0	24	0	266338304	69	4364
2026-01-11 01:09:58.45	23.63	16.65	-51.6	-53.4	14.9	0.00e+00	0	24	0	268435456	69	4397
2026-01-11 01:09:59.45	23.61	16.76	-51.6	-53.4	14.9	0.00e+00	0	24	0	269484032	69	4400
2026-01-11 01:10:00.45	23.58	16.88	-51.5	-53.3	14.9	0.00e+00	0	25	0	271581184	69	4374
2026-01-11 01:10:01.44	23.55	16.99	-51.5	-53.2	15.0	0.00e+00	0	24	0	273678336	69	4340
2026-01-11 01:10:02.44	23.52	17.11	-51.5	-53.3	15.0	0.00e+00	0	24	0	275775488	69	4345
2026-01-11 01:10:03.43	23.50	17.22	-51.5	-53.2	15.0	0.00e+00	0	24	0	277872640	69	4337
2026-01-11 01:10:04.43	23.47	17.34	-51.4	-53.2	15.0	0.00e+00	0	25	0	278921216	69	4314
2026-01-11 01:10:05.43	23.44	17.45	-51.3	-53.0	15.1	0.00e+00	0	25	0	281018368	69	4211
2026-01-11 01:10:06.43	23.41	17.57	-51.3	-53.0	15.1	0.00e+00	0	24	0	283115520	69	4233
2026-01-11 01:10:07.42	23.38	17.68	-51.3	-53.1	15.1	0.00e+00	0	25	0	285212672	69	4256
2026-01-11 01:10:08.42	23.35	17.80	-51.3	-53.0	15.1	0.00e+00	0	25	0	286261248	69	4206
2026-01-11 01:10:09.42	23.32	17.92	-51.2	-53.0	15.1	0.00e+00	0	25	0	288358400	69	4197
2026-01-11 01:10:10.42	23.29	18.04	-51.3	-53.0	15.1	0.00e+00	0	25	0	290455552	69	4206
2026-01-11 01:10:11.43	23.26	18.16	-51.3	-53.0	15.1	0.00e+00	0	24	0	292552704	69	4234
2026-01-11 01:10:12.43	23.23	18.28	-51.2	-53.0	15.1	0.00e+00	0	24	0	294649856	69	4205
2026-01-11 01:10:13.43	23.20	18.40	-51.2	-52.9	15.1	0.00e+00	0	25	0	296747008	69	4168
2026-01-11 01:10:14.42	23.17	18.52	-51.1	-52.8	15.1	0.00e+00	0	24	0	297795584	68	4349
2026-01-11 01:10:15.42	23.13	18.64	-51.0	-52.7	15.1	0.00e+00	0	25	0	299892736	68	4324
2026-01-11 01:10:16.41	23.10	18.77	-51.0	-52.6	15.1	0.00e+00	0	25	0	301989888	68	4276
2026-01-11 01:10:17.41	23.07	18.89	-51.0	-52.6	15.1	0.00e+00	0	25	0	304087040	68	4275
2026-01-11 01:10:18.41	23.04	19.01	-50.9	-52.6	15.1	0.00e+00	0	24	0	305135616	68	4265
2026-01-11 01:10:19.41	23.00	19.14	-51.0	-52.7	15.1	0.00e+00	0	24	0	307232768	68	4299
2026-01-11 01:10:20.42	22.97	19.26	-50.9	-52.5	15.2	0.00e+00	0	25	0	309329920	68	4212
2026-01-11 01:10:21.42	22.94	19.39	-50.9	-52.5	15.2	0.00e+00	0	24	0	311427072	68	4230
2026-01-11 01:10:22.42	22.90	19.51	-50.9	-52.5	15.2	0.00e+00	0	25	0	313524224	68	4206
2026-01-11 01:10:23.42	22.87	19.64	-50.8	-52.4	15.2	0.00e+00	0	25	0	314572800	68	4190
2026-01-11 01:10:24.42	22.83	19.77	-50.8	-52.3	15.2	0.00e+00	0	25	0	316669952	68	4143
2026-01-11 01:10:25.41	22.80	19.90	-50.8	-52.4	15.2	0.00e+00	0	25	0	318767104	68	4165
2026-01-11 01:10:26.41	22.77	20.02	-50.8	-52.4	15.2	0.00e+00	0	25	0	320864256	68	4175
2026-01-11 01:10:27.41	22.73	20.15	-50.9	-52.5	15.1	0.00e+00	0	25	0	321912832	68	4240
2026-01-11 01:10:28.40	22.69	20.28	-50.9	-52.5	15.2	0.00e+00	0	25	0	324009984	68	4220
2026-01-11 01:10:29.40	22.66	20.41	-50.9	-52.5	15.1	0.00e+00	0	25	0	326107136	68	4235
2026-01-11 01:10:30.40	22.62	20.55	-50.7	-52.3	15.3	0.00e+00	0	25	0	328204288	68	4127
2026-01-11 01:10:31.40	22.59	20.68	-50.7	-52.3	15.3	0.00e+00	0	25	0	330301440	68	4110
2026-01-11 01:10:32.40	22.55	20.81	-50.5	-52.1	15.2	0.00e+00	0	25	0	331350016	67	4270
2026-01-11 01:10:33.39	22.51	20.94	-50.4	-52.0	15.2	0.00e+00	0	25	0	333447168	67	4202
2026-01-11 01:10:34.38	22.47	21.07	-50.4	-52.0	15.2	0.00e+00	0	25	0	335544320	67	4197
2026-01-11 01:10:35.38	22.44	21.21	-50.4	-52.0	15.2	0.00e+00	0	25	0	337641472	67	4225
2026-01-11 01:10:36.38	22.40	21.35	-50.4	-51.9	15.2	0.00e+00	0	25	0	339738624	67	4184
2026-01-11 01:10:37.38	22.36	21.48	-50.4	-52.0	15.2	0.00e+00	0	25	0	340787200	67	4211
2026-01-11 01:10:38.38	22.32	21.62	-50.5	-52.1	15.2	0.00e+00	0	25	0	342884352	67	4266
2026-01-11 01:10:39.37	22.28	21.76	-50.4	-52.0	15.2	0.00e+00	0	25	0	344981504	67	4207
2026-01-11 01:10:40.38	22.24	21.89	-50.5	-52.0	15.2	0.00e+00	0	25	0	347078656	67	4242
2026-01-11 01:10:41.37	22.20	22.03	-50.4	-52.0	15.2	0.00e+00	0	25	0	348127232	67	4208
2026-01-11 01:10:42.37	22.16	22.17	-50.5	-52.1	15.2	0.00e+00	0	25	0	350224384	67	4247
2026-01-11 01:10:43.37	22.12	22.31	-50.5	-52.1	15.2	0.00e+00	0	25	0	352321536	67	4274
2026-01-11 01:10:44.37	22.08	22.45	-50.4	-51.9	15.2	0.00e+00	0	25	0	354418688	67	4181
2026-01-11 01:10:45.36	22.03	22.60	-50.4	-51.9	15.3	0.00e+00	0	25	0	356515840	67	4161
2026-01-11 01:10:46.36	21.99	22.74	-50.3	-51.9	15.3	0.00e+00	0	25	0	357564416	67	4156
2026-01-11 01:10:47.36	21.95	22.88	-50.4	-52.0	15.2	0.00e+00	0	25	0	359661568	67	4195
2026-01-11 01:10:48.36	21.91	23.03	-50.4	-52.0	15.2	0.00e+00	0	25	0	361758720	67	4216
2026-01-11 01:10:49.35	21.86	23.17	-50.4	-52.0	15.2	0.00e+00	0	25	0	363855872	67	4194
2026-01-11 01:10:50.35	21.82	23.32	-50.5	-52.1	15.2	0.00e+00	0	25	0	365953024	67	4247
2026-01-11 01:10:51.34	21.77	23.46	-50.6	-52.1	15.2	0.00e+00	0	25	0	367001600	67	4282
2026-01-11 01:10:52.34	21.73	23.61	-50.5	-52.1	15.2	0.00e+00	0	25	0	369098752	67	4264
2026-01-11 01:10:53.34	21.68	23.76	-50.5	-52.1	15.2	0.00e+00	0	25	0	371195904	67	4247
2026-01-11 01:10:54.34	21.64	23.91	-50.6	-52.2	15.1	0.00e+00	0	25	0	373293056	67	4298
2026-01-11 01:10:55.34	21.59	24.06	-50.7	-52.3	15.1	0.00e+00	0	25	0	374341632	67	4360
2026-01-11 01:10:56.34	21.54	24.21	-50.6	-52.2	15.1	0.00e+00	0	25	0	376438784	67	4333
2026-01-11 01:10:57.34	21.50	24.36	-50.7	-52.4	15.0	0.00e+00	0	25	0	378535936	67	4396
2026-01-11 01:10:58.33	21.45	24.51	-50.7	-52.3	15.0	0.00e+00	0	25	0	380633088	67	4386
2026-01-11 01:10:59.33	21.40	24.67	-50.8	-52.4	15.0	0.00e+00	0	25	0	382730240	67	4403
2026-01-11 01:11:00.33	21.35	24.82	-50.7	-52.4	15.0	0.00e+00	0	25	0	383778816	67	4400
2026-01-11 01:11:01.33	21.30	24.98	-50.8	-52.5	15.0	0.00e+00	0	25	0	385875968	67	4443
2026-01-11 01:11:02.33	21.25	25.13	-50.9	-52.6	14.9	0.00e+00	0	25	0	387973120	67	4520
2026-01-11 01:11:03.33	21.20	25.29	-51.1	-52.8	14.8	0.00e+00	0	25	0	390070272	67	4601
2026-01-11 01:11:04.32	21.15	25.45	-51.0	-52.6	14.9	0.00e+00	0	25	0	392167424	67	4531
2026-01-11 01:11:05.32	21.10	25.61	-51.1	-52.8	14.8	0.00e+00	0	25	0	393216000	67	4602
2026-01-11 01:11:06.31	21.05	25.77	-51.0	-52.7	14.9	0.00e+00	0	25	0	395313152	67	4570
2026-01-11 01:11:07.31	20.99	25.93	-51.1	-52.8	14.8	0.00e+00	0	25	0	397410304	67	4651
2026-01-11 01:11:08.30	20.94	26.09	-51.1	-52.8	14.8	0.00e+00	0	25	0	399507456	67	4624
2026-01-11 01:11:09.30	20.89	26.25	-51.2	-52.9	14.8	0.00e+00	0	25	0	400556032	67	4669
2026-01-11 01:11:10.30	20.83	26.41	-51.2	-52.9	14.8	0.00e+00	0	25	0	402653184	67	4674
2026-01-11 01:11:11.30	20.78	26.58	-51.2	-52.9	14.7	0.00e+00	0	25	0	404750336	67	4705
2026-01-11 01:11:12.30	20.72	26.74	-51.3	-53.1	14.7	0.00e+00	0	25	0	406847488	67	4772
2026-01-11 01:11:13.29	20.66	26.91	-51.5	-53.3	14.8	0.00e+00	0	25	0	408944640	68	4605
2026-01-11 01:11:14.29	20.61	27.08	-51.6	-53.3	14.8	0.00e+00	0	25	0	409993216	68	4650
2026-01-11 01:11:15.29	20.55	27.25	-51.8	-53.6	14.6	0.00e+00	0	25	0	412090368	68	4813
2026-01-11 01:11:16.29	20.49	27.42	-51.8	-53.6	14.6	0.00e+00	0	25	0	414187520	68	4796
2026-01-11 01:11:17.29	20.43	27.59	-51.8	-53.6	14.6	0.00e+00	0	25	0	416284672	68	4806
2026-01-11 01:11:18.29	20.37	27.76	-52.0	-53.8	14.7	0.00e+00	0	25	0	417333248	69	4629
2026-01-11 01:11:19.28	20.31	27.93	-52.1	-54.0	14.6	0.00e+00	0	25	0	419430400	69	4728
2026-01-11 01:11:20.28	20.25	28.10	-52.2	-54.1	14.5	0.00e+00	0	25	0	421527552	69	4804
2026-01-11 01:11:21.28	20.19	28.28	-52.3	-54.3	14.4	0.00e+00	0	25	0	423624704	69	4876
2026-01-11 01:11:22.28	20.13	28.45	-52.6	-54.5	14.5	0.00e+00	0	25	0	425721856	70	4758
2026-01-11 01:11:23.27	20.06	28.63	-52.7	-54.7	14.4	0.00e+00	0	25	0	426770432	70	4867
2026-01-11 01:11:24.27	20.00	28.81	-52.8	-54.9	14.3	0.00e+00	0	25	0	428867584	70	4940
2026-01-11 01:11:25.27	19.93	28.99	-53.1	-55.2	14.3	0.00e+00	0	25	0	430964736	71	4843
2026-01-11 01:11:26.27	19.87	29.17	-53.1	-55.3	14.2	0.00e+00	0	25	0	433061888	71	4885
2026-01-11 01:11:27.27	19.80	29.35	-53.3	-55.5	14.1	0.00e+00	0	25	0	434110464	71	5012
2026-01-11 01:11:28.26	19.74	29.53	-53.3	-55.6	14.1	0.00e+00	0	25	0	436207616	71	5061
2026-01-11 01:11:29.26	19.67	29.71	-53.5	-55.7	14.1	0.00e+00	0	25	0	438304768	72	4865
2026-01-11 01:11:30.26	19.60	29.90	-53.6	-55.8	14.0	0.00e+00	0	25	0	440401920	72	4924
2026-01-11 01:11:31.26	19.53	30.09	-53.6	-55.9	14.0	0.00e+00	0	25	0	442499072	72	4936
2026-01-11 01:11:32.26	19.46	30.27	-54.0	-56.5	13.7	0.00e+00	0	25	0	443547648	73	4984
2026-01-11 01:11:33.26	19.39	30.46	-59.0	-75.0	3.8	4.11e-01	0	25	104	445644800	83	23649
2026-01-11 01:11:34.25	19.31	30.65	-58.9	-74.9	3.8	1.49e+00	0	25	104	445644800	83	23552
2026-01-11 01:11:35.24	19.24	30.84	-58.6	-74.7	3.8	1.49e+00	0	25	104	445644800	83	22787
2026-01-11 01:11:36.24	19.17	31.03	-57.5	-73.5	3.8	1.49e+00	0	25	104	445644800	81	22382
2026-01-11 01:11:37.24	19.09	31.22	-53.7	-69.6	3.8	1.49e+00	0	25	104	445644800	74	21338
2026-01-11 01:11:38.24	19.02	31.42	-53.6	-69.5	3.8	1.49e+00	0	25	104	445644800	73	22397
2026-01-11 01:11:39.24	18.94	31.61	-53.6	-69.5	3.8	1.49e+00	0	25	104	445644800	73	22362
2026-01-11 01:11:40.23	18.86	31.81	-53.6	-69.5	3.8	1.49e+00	0	25	104	445644800	73	22314
2026-01-11 01:11:41.23	18.78	32.01	-53.6	-69.5	3.8	1.49e+00	0	25	104	445644800	73	22313
2026-01-11 01:11:42.24	18.70	32.21	-53.6	-69.5	3.8	1.49e+00	0	25	104	445644800	73	22349
2026-01-11 01:11:43.24	18.62	32.41	-53.6	-69.5	3.8	1.49e+00	0	25	104	445644800	73	22317
2026-01-11 01:11:44.23	18.54	32.61	-53.6	-69.5	3.8	1.49e+00	0	25	104	445644800	73	22328
2026-01-11 01:11:45.23	18.46	32.81	-53.5	-69.4	3.8	1.49e+00	0	25	104	445644800	73	22247
2026-01-11 01:11:46.22	18.37	33.02	-53.6	-69.5	3.8	1.49e+00	0	25	104	445644800	73	22384
2026-01-11 01:11:47.22	18.29	33.22	-53.6	-69.5	3.8	1.49e+00	0	25	104	445644800	73	22324
2026-01-11 01:11:48.23	18.20	33.43	-53.6	-69.5	3.8	1.49e+00	0	25	104	445644800	73	22284
2026-01-11 01:11:49.23	18.11	33.64	-53.6	-69.5	3.8	1.49e+00	0	25	104	445644800	73	22354
2026-01-11 01:11:50.22	18.03	33.85	-53.6	-69.5	3.8	1.49e+00	0	25	104	445644800	73	22345
2026-01-11 01:11:51.23	17.94	34.06	-53.6	-69.5	3.8	1.49e+00	0	25	104	445644800	73	22304
2026-01-11 01:11:52.24	17.84	34.28	-53.6	-69.5	3.8	1.49e+00	0	25	104	445644800	73	22355
2026-01-11 01:11:53.24	17.75	34.49	-53.6	-69.5	3.8	1.49e+00	0	25	104	445644800	73	22394
2026-01-11 01:11:54.24	17.66	34.71	-53.6	-69.5	3.8	1.49e+00	0	25	104	445644800	73	22319
2026-01-11 01:11:55.24	17.56	34.92	-53.6	-69.5	3.8	1.49e+00	0	25	104	445644800	73	22360
2026-01-11 01:11:56.25	17.46	35.14	-53.6	-69.5	3.8	1.49e+00	0	25	104	445644800	73	22330
2026-01-11 01:11:57.24	17.37	35.36	-53.6	-69.5	3.8	1.49e+00	0	25	104	445644800	73	22337
2026-01-11 01:11:58.25	17.27	35.58	-53.6	-69.5	3.8	1.49e+00	0	25	104	445644800	73	22307
2026-01-11 01:11:59.24	17.17	35.80	-53.6	-69.5	3.8	1.49e+00	0	25	104	445644800	73	22268
2026-01-11 01:12:00.25	17.06	36.03	-53.6	-69.5	3.8	1.49e+00	0	25	104	445644800	73	22324
2026-01-11 01:12:01.25	16.96	36.26	-53.6	-69.5	3.8	1.49e+00	0	25	104	445644800	73	22317
2026-01-11 01:12:02.25	16.86	36.48	-53.5	-69.5	3.8	1.49e+00	0	25	104	445644800	73	22348
2026-01-11 01:12:03.24	16.75	36.71	-53.6	-69.5	3.8	1.49e+00	0	25	104	445644800	73	22272
2026-01-11 01:12:04.24	16.64	36.94	-53.6	-69.5	3.8	1.49e+00	0	25	104	445644800	73	22360
2026-01-11 01:12:05.24	16.53	37.17	-53.5	-69.4	3.8	1.49e+00	0	25	104	445644800	73	22233
2026-01-11 01:12:06.24	16.42	37.40	-53.6	-69.5	3.8	1.49e+00	0	25	104	445644800	73	22336
2026-01-11 01:12:07.24	16.31	37.64	-53.6	-69.5	3.8	1.49e+00	0	25	104	445644800	73	22270
2026-01-11 01:12:08.24	16.19	37.87	-53.5	-69.5	3.8	1.49e+00	0	25	104	445644800	73	22305
2026-01-11 01:12:09.24	16.08	38.11	-53.5	-69.5	3.8	1.49e+00	0	25	104	445644800	73	22295
2026-01-11 01:12:10.24	15.96	38.35	-53.5	-69.4	3.8	1.49e+00	0	25	104	445644800	73	22249
2026-01-11 01:12:11.24	15.84	38.59	-53.5	-69.5	3.8	1.49e+00	0	25	104	445644800	73	22330
2026-01-11 01:12:12.24	15.72	38.83	-53.5	-69.5	3.8	1.49e+00	0	25	104	445644800	73	22301
2026-01-11 01:12:13.24	15.59	39.08	-53.6	-69.5	3.8	1.49e+00	0	25	104	445644800	73	22290
2026-01-11 01:12:14.24	15.47	39.32	-53.6	-69.5	3.8	1.49e+00	0	25	104	445644800	73	22331
2026-01-11 01:12:15.24	15.34	39.57	-53.6	-69.5	3.8	1.49e+00	0	25	104	445644800	73	22336
2026-01-11 01:12:16.25	15.21	39.82	-53.6	-69.5	3.8	1.49e+00	0	25	104	445644800	73	22358
2026-01-11 01:12:17.25	15.08	40.07	-53.5	-69.5	3.8	1.49e+00	0	25	104	445644800	73	22279
2026-01-11 01:12:18.25	14.94	40.32	-53.5	-69.5	3.8	1.49e+00	0	25	104	445644800	73	22306
2026-01-11 01:12:19.25	14.81	40.58	-53.5	-69.4	3.8	1.49e+00	0	25	104	445644800	73	22220
2026-01-11 01:12:20.25	14.67	40.83	-53.5	-69.4	3.8	1.49e+00	0	25	104	445644800	73	22210
2026-01-11 01:12:21.25	14.53	41.09	-53.6	-69.5	3.8	1.49e+00	0	26	104	445644800	73	22279
2026-01-11 01:12:22.25	14.39	41.35	-53.6	-69.5	3.8	1.49e+00	0	25	104	445644800	73	22326
2026-01-11 01:12:23.25	14.24	41.61	-53.6	-69.5	3.8	1.49e+00	0	25	104	445644800	73	22320
2026-01-11 01:12:24.25	14.09	41.87	-53.6	-69.5	3.8	1.49e+00	0	25	104	445644800	73	22335
2026-01-11 01:12:25.25	13.94	42.13	-53.5	-69.4	3.8	1.49e+00	0	25	104	445644800	73	22242
2026-01-11 01:12:26.25	13.79	42.40	-53.6	-69.5	3.8	1.49e+00	0	25	104	445644800	73	22330
2026-01-11 01:12:27.25	13.64	42.66	-53.6	-69.5	3.8	1.49e+00	0	25	104	445644800	73	22290
2026-01-11 01:12:28.25	13.48	42.93	-53.6	-69.5	3.8	1.49e+00	0	25	104	445644800	73	22323
2026-01-11 01:12:29.25	13.32	43.20	-53.6	-69.5	3.8	1.49e+00	0	25	104	445644800	73	22294
2026-01-11 01:12:30.25	13.15	43.47	-53.6	-69.5	3.8	1.49e+00	0	25	104	445644800	73	22400
2026-01-11 01:12:31.26	12.99	43.75	-53.6	-69.5	3.8	1.49e+00	0	25	104	445644800	73	22300
2026-01-11 01:12:32.26	12.82	44.02	-53.6	-69.5	3.8	1.49e+00	0	25	104	445644800	73	22337
2026-01-11 01:12:33.26	12.64	44.30	-53.6	-69.5	3.8	1.49e+00	0	25	104	445644800	73	22312
2026-01-11 01:12:34.26	12.47	44.58	-53.6	-69.5	3.8	1.49e+00	0	25	104	445644800	73	22389
2026-01-11 01:12:35.26	12.29	44.86	-53.6	-69.5	3.8	1.49e+00	0	25	104	445644800	73	22435
2026-01-11 01:12:36.25	12.11	45.14	-53.6	-69.5	3.8	1.49e+00	0	25	104	445644800	73	22296
2026-01-11 01:12:37.24	11.93	45.42	-53.6	-69.5	3.8	1.49e+00	0	25	104	445644800	73	22332
2026-01-11 01:12:38.25	11.74	45.70	-53.6	-69.5	3.8	1.49e+00	0	25	104	445644800	73	22332
2026-01-11 01:12:39.25	11.54	45.99	-53.6	-69.5	3.8	1.49e+00	0	25	104	445644800	73	22303
2026-01-11 01:12:40.26	11.35	46.28	-53.6	-69.5	3.8	1.49e+00	0	25	104	445644800	73	22309
2026-01-11 01:12:41.25	11.15	46.57	-53.6	-69.5	3.8	1.49e+00	0	25	104	445644800	73	22403
2026-01-11 01:12:42.26	10.94	46.86	-53.6	-69.5	3.8	1.49e+00	0	25	104	445644800	73	22287
2026-01-11 01:12:43.25	10.74	47.15	-53.6	-69.5	3.8	1.49e+00	0	25	104	445644800	73	22359
2026-01-11 01:12:44.25	10.53	47.45	-53.6	-69.5	3.8	1.49e+00	0	26	104	445644800	73	22317
2026-01-11 01:12:45.26	10.31	47.75	-53.6	-69.5	3.8	1.49e+00	0	25	104	445644800	73	22286
2026-01-11 01:12:46.26	10.09	48.05	-53.6	-69.5	3.8	1.49e+00	0	25	104	445644800	73	22382
2026-01-11 01:12:47.26	9.87	48.35	-53.6	-69.5	3.8	1.49e+00	0	25	104	445644800	73	22288
2026-01-11 01:12:48.25	9.64	48.64	-53.5	-69.5	3.8	1.49e+00	0	26	104	445644800	73	22265
2026-01-11 01:12:49.25	9.41	48.95	-53.5	-69.5	3.8	1.49e+00	0	25	104	445644800	73	22310
2026-01-11 01:12:50.25	9.17	49.25	-53.5	-69.5	3.8	1.49e+00	0	25	104	445644800	73	22342
2026-01-11 01:12:51.25	8.93	49.56	-53.6	-69.5	3.8	1.49e+00	0	26	104	445644800	73	22355
2026-01-11 01:12:52.25	8.68	49.86	-53.6	-69.5	3.8	1.49e+00	0	25	104	445644800	73	22394
2026-01-11 01:12:53.25	8.43	50.17	-53.6	-69.5	3.8	1.49e+00	0	26	104	445644800	73	22354
2026-01-11 01:12:54.25	8.17	50.48	-53.6	-69.5	3.8	1.49e+00	0	25	104	445644800	73	22299
2026-01-11 01:12:55.25	7.91	50.80	-53.6	-69.5	3.8	1.49e+00	0	25	104	445644800	73	22326
2026-01-11 01:12:56.25	7.64	51.11	-53.6	-69.5	3.8	1.49e+00	0	25	104	445644800	73	22302
2026-01-11 01:12:57.26	7.36	51.43	-53.6	-69.5	3.8	1.49e+00	0	26	104	445644800	73	22295
2026-01-11 01:12:58.25	7.09	51.74	-53.6	-69.5	3.8	1.49e+00	0	26	104	445644800	73	22352
2026-01-11 01:12:59.25	6.80	52.06	-53.6	-69.5	3.8	1.49e+00	0	25	104	445644800	73	22400
2026-01-11 01:13:00.25	6.51	52.38	-53.6	-69.5	3.8	1.49e+00	0	26	104	445644800	73	22319
2026-01-11 01:13:01.23	6.21	52.69	-53.6	-69.5	3.8	1.49e+00	0	25	104	445644800	73	22366
2026-01-11 01:13:02.23	5.91	53.01	-53.6	-69.5	3.8	1.49e+00	0	25	104	445644800	73	22378
2026-01-11 01:13:03.23	5.59	53.33	-53.6	-69.5	3.8	1.49e+00	0	25	104	445644800	73	22301
2026-01-11 01:13:04.22	5.28	53.65	-53.6	-69.5	3.8	1.49e+00	0	25	104	445644800	73	22342
2026-01-11 01:13:05.23	4.95	53.98	-53.6	-69.5	3.8	1.49e+00	0	26	104	445644800	73	22309
2026-01-11 01:13:06.23	4.61	54.31	-53.6	-69.5	3.8	1.49e+00	0	25	104	445644800	73	22337
2026-01-11 01:13:07.23	4.27	54.63	-53.6	-69.5	3.8	1.49e+00	0	25	104	445644800	73	22292
2026-01-11 01:13:08.23	3.92	54.96	-53.6	-69.5	3.8	1.49e+00	0	26	104	445644800	73	22301
2026-01-11 01:13:09.24	3.56	55.29	-53.6	-69.5	3.8	1.49e+00	0	26	104	445644800	73	22324
2026-01-11 01:13:10.23	3.19	55.62	-53.6	-69.5	3.8	1.49e+00	0	26	104	445644800	73	22372
2026-01-11 01:13:11.24	2.81	55.95	-53.6	-69.5	3.8	1.49e+00	0	26	104	445644800	73	22314
2026-01-11 01:13:12.24	2.43	56.29	-53.6	-69.5	3.8	1.49e+00	0	26	104	445644800	73	22274
2026-01-11 01:13:13.24	2.03	56.62	-53.6	-69.5	3.8	1.49e+00	0	25	104	445644800	73	22399
2026-01-11 01:13:14.24	1.63	56.95	-53.6	-69.5	3.8	1.49e+00	0	25	104	445644800	73	22346
2026-01-11 01:13:15.25	1.21	57.29	-53.6	-69.5	3.8	1.49e+00	0	26	104	445644800	73	22331
2026-01-11 01:13:16.24	0.79	57.62	-53.6	-69.5	3.8	1.49e+00	0	25	104	445644800	73	22327
2026-01-11 01:13:17.24	0.35	57.95	-53.6	-69.5	3.8	1.49e+00	0	26	104	445644800	73	22374
2026-01-11 01:13:18.24	359.91	58.29	-53.6	-69.5	3.8	1.49e+00	0	26	104	445644800	73	22346
2026-01-11 01:13:19.24	359.45	58.62	-53.6	-69.5	3.8	1.49e+00	0	26	104	445644800	73	22340
2026-01-11 01:13:20.25	358.97	58.96	-53.6	-69.5	3.8	1.49e+00	0	26	104	445644800	73	22327
2026-01-11 01:13:21.25	358.49	59.29	-53.6	-69.5	3.8	1.49e+00	0	26	104	445644800	73	22385
2026-01-11 01:13:22.25	358.00	59.63	-53.6	-69.5	3.8	1.49e+00	0	26	104	445644800	73	22359
2026-01-11 01:13:23.25	357.49	59.96	-53.6	-69.5	3.8	1.49e+00	0	26	104	445644800	73	22286
2026-01-11 01:13:24.26	356.96	60.30	-53.6	-69.5	3.8	1.49e+00	0	26	104	445644800	73	22374
2026-01-11 01:13:25.25	356.43	60.63	-53.6	-69.5	3.8	1.49e+00	0	26	104	445644800	73	22344
2026-01-11 01:13:26.25	355.88	60.96	-53.6	-69.5	3.8	1.49e+00	0	26	104	445644800	73	22338
2026-01-11 01:13:27.26	355.31	61.30	-53.6	-69.5	3.8	1.49e+00	0	26	104	445644800	73	22362
2026-01-11 01:13:28.26	354.73	61.63	-53.6	-69.5	3.8	1.49e+00	0	25	104	445644800	73	22379
2026-01-11 01:13:29.26	354.13	61.96	-53.6	-69.5	3.8	1.49e+00	0	26	104	445644800	73	22313
2026-01-11 01:13:30.26	353.52	62.29	-53.6	-69.5	3.8	1.49e+00	0	26	104	445644800	73	22314
2026-01-11 01:13:31.27	352.89	62.62	-53.6	-69.5	3.8	1.49e+00	0	26	104	445644800	73	22288
2026-01-11 01:13:32.27	352.24	62.95	-53.6	-69.5	3.8	1.49e+00	0	26	104	445644800	73	22361
2026-01-11 01:13:33.27	351.58	63.27	-53.6	-69.5	3.8	1.49e+00	0	26	104	445644800	73	22303
2026-01-11 01:13:34.26	350.90	63.59	-53.6	-69.5	3.8	1.49e+00	0	26	104	445644800	73	22354
2026-01-11 01:13:35.26	350.20	63.91	-53.6	-69.5	3.8	1.49e+00	0	26	104	445644800	73	22420
2026-01-11 01:13:36.26	349.47	64.23	-53.6	-69.5	3.8	1.49e+00	0	26	104	445644800	73	22462
2026-01-11 01:13:37.26	348.73	64.55	-53.6	-69.5	3.8	1.49e+00	0	26	104	445644800	73	22309
2026-01-11 01:13:38.27	347.96	64.87	-53.6	-69.5	3.8	1.49e+00	0	26	104	445644800	73	22375
2026-01-11 01:13:39.27	347.18	65.18	-53.6	-69.5	3.8	1.49e+00	0	26	104	445644800	73	22327
2026-01-11 01:13:40.27	346.37	65.49	-53.6	-69.5	3.8	1.49e+00	0	26	104	445644800	73	22369
2026-01-11 01:13:41.27	345.54	65.79	-53.6	-69.5	3.8	1.49e+00	0	26	104	445644800	73	22361
2026-01-11 01:13:42.27	344.69	66.09	-53.6	-69.5	3.8	1.49e+00	0	26	104	445644800	73	22357
2026-01-11 01:13:43.26	343.82	66.38	-53.6	-69.5	3.8	1.49e+00	0	26	104	445644800	73	22366
2026-01-11 01:13:44.27	342.91	66.68	-53.6	-69.5	3.8	1.49e+00	0	26	104	445644800	73	22377
2026-01-11 01:13:45.27	341.98	66.97	-53.6	-69.5	3.8	1.49e+00	0	26	104	445644800	73	22385
2026-01-11 01:13:46.27	341.03	67.25	-53.6	-69.5	3.8	1.49e+00	0	26	104	445644800	73	22380
2026-01-11 01:13:47.27	340.05	67.53	-53.6	-69.5	3.8	1.49e+00	0	26	104	445644800	73	22366
2026-01-11 01:13:48.27	339.04	67.81	-53.6	-69.5	3.8	1.49e+00	0	26	104	445644800	73	22369
2026-01-11 01:13:49.27	338.01	68.07	-53.6	-69.5	3.8	1.49e+00	0	26	104	445644800	73	22412
2026-01-11 01:13:50.27	336.95	68.34	-53.6	-69.5	3.8	1.49e+00	0	26	104	445644800	73	22377
2026-01-11 01:13:51.27	335.86	68.59	-53.6	-69.5	3.8	1.49e+00	0	26	104	445644800	73	22421
2026-01-11 01:13:52.27	334.75	68.84	-53.6	-69.5	3.8	1.49e+00	0	26	104	445644800	73	22368
2026-01-11 01:13:53.27	333.60	69.08	-53.6	-69.5	3.8	1.49e+00	0	26	104	445644800	73	22376
2026-01-11 01:13:54.28	332.42	69.32	-53.6	-69.5	3.8	1.49e+00	0	26	104	445644800	73	22418
2026-01-11 01:13:55.28	331.22	69.55	-53.6	-69.5	3.8	1.49e+00	0	26	104	445644800	73	22348
2026-01-11 01:13:56.28	329.98	69.76	-53.6	-69.5	3.8	1.49e+00	0	26	104	445644800	73	22341
2026-01-11 01:13:57.29	328.71	69.98	-53.6	-69.5	3.8	1.49e+00	0	26	104	445644800	73	22344
2026-01-11 01:13:58.29	327.43	70.18	-53.6	-69.5	3.8	1.49e+00	0	26	104	445644800	73	22348
2026-01-11 01:13:59.29	326.11	70.37	-53.6	-69.5	3.8	1.49e+00	0	26	104	445644800	73	22334
2026-01-11 01:14:00.28	324.78	70.55	-53.6	-69.5	3.8	1.49e+00	0	26	104	445644800	73	22349
2026-01-11 01:14:01.29	323.40	70.72	-53.6	-69.5	3.8	1.49e+00	0	26	104	445644800	73	22329
2026-01-11 01:14:02.29	322.01	70.89	-53.6	-69.5	3.8	1.49e+00	0	26	104	445644800	73	22326
2026-01-11 01:14:03.29	320.59	71.04	-53.6	-69.5	3.8	1.49e+00	0	26	104	445644800	73	22348
2026-01-11 01:14:04.30	319.13	71.18	-53.6	-69.5	3.8	1.49e+00	0	26	104	445644800	73	22403
2026-01-11 01:14:05.30	317.67	71.31	-53.6	-69.5	3.8	1.49e+00	0	26	104	445644800	73	22331
2026-01-11 01:14:06.30	316.18	71.43	-53.6	-69.5	3.8	1.49e+00	0	26	104	445644800	73	22367
2026-01-11 01:14:07.30	314.68	71.53	-53.6	-69.5	3.8	1.49e+00	0	26	104	445644800	73	22338
2026-01-11 01:14:08.30	313.15	71.63	-53.6	-69.5	3.8	1.49e+00	0	26	104	445644800	73	22339
2026-01-11 01:14:09.30	311.62	71.71	-53.6	-69.5	3.8	1.49e+00	0	26	104	445644800	73	22372
2026-01-11 01:14:10.30	310.07	71.78	-53.6	-69.5	3.8	1.49e+00	0	26	104	445644800	73	22278
2026-01-11 01:14:11.31	308.49	71.83	-53.6	-69.5	3.8	1.49e+00	0	26	104	445644800	73	22319
2026-01-11 01:14:12.31	306.92	71.88	-53.6	-69.5	3.8	1.49e+00	0	26	104	445644800	73	22372
2026-01-11 01:14:13.31	305.34	71.91	-53.6	-69.5	3.8	1.49e+00	0	26	104	445644800	73	22373
2026-01-11 01:14:14.32	303.74	71.92	-53.6	-69.5	3.8	1.49e+00	0	26	104	445644800	73	22378
2026-01-11 01:14:15.33	302.14	71.93	-53.6	-69.5	3.8	1.49e+00	0	26	104	445644800	73	22355
2026-01-11 01:14:16.33	300.55	71.92	-53.6	-69.5	3.8	1.49e+00	0	26	104	445644800	73	22360
2026-01-11 01:14:17.34	298.96	71.89	-53.6	-69.5	3.8	1.49e+00	0	26	104	445644800	73	22344
2026-01-11 01:14:18.34	297.38	71.86	-53.6	-69.5	3.8	1.49e+00	0	26	104	445644800	73	22357
2026-01-11 01:14:19.35	295.80	71.81	-53.6	-69.5	3.8	1.49e+00	0	26	104	445644800	73	22359
2026-01-11 01:14:20.35	294.24	71.75	-53.6	-69.5	3.8	1.49e+00	0	26	104	445644800	73	22396
2026-01-11 01:14:21.36	292.68	71.67	-53.6	-69.5	3.8	1.49e+00	0	26	104	445644800	73	22348
2026-01-11 01:14:22.37	291.13	71.58	-53.6	-69.5	3.8	1.49e+00	0	26	104	445644800	73	22404
2026-01-11 01:14:23.37	289.62	71.49	-53.6	-69.5	3.8	1.49e+00	0	26	104	445644800	73	22379
2026-01-11 01:14:24.37	288.12	71.37	-53.6	-69.5	3.8	1.49e+00	0	26	104	445644800	73	22384
2026-01-11 01:14:25.37	286.65	71.25	-53.6	-69.5	3.8	1.49e+00	0	26	104	445644800	73	22384
2026-01-11 01:14:26.37	285.19	71.12	-53.6	-69.5	3.8	1.49e+00	0	26	104	445644800	73	22391
2026-01-11 01:14:27.38	283.74	70.97	-53.6	-69.5	3.8	1.49e+00	0	26	104	445644800	73	22428
2026-01-11 01:14:28.38	282.34	70.81	-53.6	-69.5	3.8	1.49e+00	0	26	104	445644800	73	22409
2026-01-11 01:14:29.38	280.95	70.65	-53.6	-69.5	3.8	1.49e+00	0	26	104	445644800	73	22370
2026-01-11 01:14:30.38	279.60	70.47	-53.6	-69.5	3.8	1.49e+00	0	26	104	445644800	73	22363
2026-01-11 01:14:31.39	278.25	70.28	-53.6	-69.5	3.8	1.49e+00	0	26	104	445644800	73	22377
2026-01-11 01:14:32.39	276.95	70.08	-53.6	-69.5	3.9	1.49e+00	0	26	104	445644800	73	22442
2026-01-11 01:14:33.39	275.67	69.88	-53.6	-69.5	3.8	1.49e+00	0	26	104	445644800	73	22425
2026-01-11 01:14:34.38	274.44	69.67	-53.6	-69.5	3.8	1.49e+00	0	26	104	445644800	73	22341
2026-01-11 01:14:35.38	273.22	69.44	-53.6	-69.5	3.8	1.49e+00	0	26	104	445644800	73	22378
2026-01-11 01:14:36.38	272.03	69.21	-53.6	-69.5	3.8	1.49e+00	0	26	104	445644800	73	22387
2026-01-11 01:14:37.37	270.88	68.98	-53.6	-69.5	3.8	1.49e+00	0	26	104	445644800	73	22343
2026-01-11 01:14:38.36	269.76	68.73	-53.6	-69.5	3.8	1.49e+00	0	26	104	445644800	73	22398
2026-01-11 01:14:39.37	268.64	68.48	-53.6	-69.5	3.8	1.49e+00	0	26	104	445644800	73	22399
2026-01-11 01:14:40.37	267.57	68.22	-53.6	-69.5	3.8	1.49e+00	0	26	104	445644800	73	22425
2026-01-11 01:14:41.38	266.51	67.95	-53.6	-69.5	3.8	1.49e+00	0	26	104	445644800	73	22446
2026-01-11 01:14:42.38	265.49	67.68	-53.6	-69.5	3.8	1.49e+00	0	26	104	445644800	73	22361
2026-01-11 01:14:43.37	264.50	67.41	-53.6	-69.5	3.8	1.49e+00	0	26	104	445644800	73	22384
2026-01-11 01:14:44.38	263.53	67.12	-53.6	-69.5	3.8	1.49e+00	0	26	104	445644800	73	22380
2026-01-11 01:14:45.38	262.58	66.84	-53.6	-69.5	3.8	1.49e+00	0	26	104	445644800	73	22479
2026-01-11 01:14:46.38	261.67	66.55	-53.6	-69.5	3.8	1.49e+00	0	26	104	445644800	73	22450
2026-01-11 01:14:47.38	260.78	66.25	-53.6	-69.5	3.8	1.49e+00	0	26	104	445644800	73	22393
2026-01-11 01:14:48.38	259.91	65.95	-53.6	-69.5	3.8	1.49e+00	0	26	104	445644800	73	22437
2026-01-11 01:14:49.38	259.07	65.65	-53.6	-69.5	3.8	1.49e+00	0	26	104	445644800	73	22395
2026-01-11 01:14:50.39	258.24	65.34	-53.6	-69.5	3.8	1.49e+00	0	26	104	445644800	73	22379
2026-01-11 01:14:51.39	257.44	65.03	-53.6	-69.5	3.8	1.49e+00	0	26	104	445644800	73	22394
2026-01-11 01:14:52.39	256.66	64.72	-53.6	-69.5	3.8	1.49e+00	0	26	104	445644800	73	22428
2026-01-11 01:14:53.39	255.91	64.40	-53.6	-69.5	3.8	1.49e+00	0	26	104	445644800	73	22409
2026-01-11 01:14:54.40	255.17	64.08	-53.6	-69.5	3.8	1.49e+00	0	26	104	445644800	73	22435
2026-01-11 01:14:55.40	254.45	63.76	-53.6	-69.5	3.8	1.49e+00	0	26	104	445644800	73	22411
2026-01-11 01:14:56.41	253.75	63.43	-53.6	-69.5	3.8	1.49e+00	0	26	104	445644800	73	22429
2026-01-11 01:14:57.41	253.08	63.11	-53.6	-69.5	3.8	1.49e+00	0	26	104	445644800	73	22368
2026-01-11 01:14:58.42	252.41	62.78	-53.6	-69.5	3.8	1.49e+00	0	26	104	445644800	73	22369
2026-01-11 01:14:59.42	251.78	62.45	-53.6	-69.5	3.8	1.49e+00	0	26	104	445644800	73	22411
2026-01-11 01:15:00.41	251.16	62.13	-53.6	-69.5	3.8	1.49e+00	0	26	104	445644800	73	22361
2026-01-11 01:15:01.41	250.56	61.80	-53.6	-69.5	3.8	1.49e+00	0	26	104	445644800	73	22380
2026-01-11 01:15:02.41	249.97	61.46	-53.6	-69.5	3.8	1.49e+00	0	26	104	445644800	73	22422
2026-01-11 01:15:03.41	249.39	61.13	-53.6	-69.5	3.8	1.49e+00	0	26	104	445644800	73	22376
2026-01-11 01:15:04.41	248.83	60.80	-53.6	-69.5	3.8	1.49e+00	0	26	104	445644800	73	22438
2026-01-11 01:15:05.41	248.29	60.47	-53.6	-69.5	3.8	1.49e+00	0	26	104	445644800	73	22417
2026-01-11 01:15:06.42	247.76	60.13	-53.6	-69.5	3.8	1.49e+00	0	26	104	445644800	73	22351
2026-01-11 01:15:07.42	247.24	59.79	-53.6	-69.5	3.8	1.49e+00	0	26	104	445644800	73	22429
2026-01-11 01:15:08.42	246.74	59.46	-53.6	-69.5	3.8	1.49e+00	0	26	104	445644800	73	22464
2026-01-11 01:15:09.42	246.25	59.12	-53.6	-69.5	3.8	1.49e+00	0	26	104	445644800	73	22401
2026-01-11 01:15:10.42	245.77	58.79	-53.6	-69.5	3.8	1.49e+00	0	26	104	445644800	73	22380
2026-01-11 01:15:11.42	245.31	58.45	-53.6	-69.5	3.8	1.49e+00	0	26	104	445644800	73	22434
2026-01-11 01:15:12.42	244.85	58.12	-53.6	-69.5	3.8	1.49e+00	0	26	104	445644800	73	22457
2026-01-11 01:15:13.42	244.41	57.78	-53.6	-69.5	3.8	1.49e+00	0	26	104	445644800	73	22361
2026-01-11 01:15:14.42	243.98	57.45	-53.6	-69.5	3.8	1.49e+00	0	26	104	445644800	73	22420
2026-01-11 01:15:15.42	243.56	57.11	-53.6	-69.5	3.8	1.49e+00	0	26	104	445644800	73	22452
2026-01-11 01:15:16.42	243.15	56.78	-53.6	-69.5	3.8	1.49e+00	0	26	104	445644800	73	22391
2026-01-11 01:15:17.42	242.75	56.45	-53.6	-69.5	3.8	1.49e+00	0	26	104	445644800	73	22411
2026-01-11 01:15:18.42	242.36	56.11	-53.6	-69.5	3.8	1.49e+00	0	26	104	445644800	73	22409
2026-01-11 01:15:19.43	241.97	55.78	-53.6	-69.5	3.8	1.49e+00	0	26	104	445644800	73	22417
2026-01-11 01:15:20.43	241.60	55.45	-53.6	-69.5	3.8	1.49e+00	0	26	104	445644800	73	22449
2026-01-11 01:15:21.43	241.24	55.12	-53.6	-69.5	3.8	1.49e+00	0	26	104	445644800	73	22439
2026-01-11 01:15:22.42	240.88	54.79	-53.6	-69.5	3.8	1.49e+00	0	26	104	445644800	73	22354
2026-01-11 01:15:23.42	240.54	54.46	-53.6	-69.5	3.8	1.49e+00	0	26	104	445644800	73	22445
2026-01-11 01:15:24.43	240.19	54.13	-53.6	-69.5	3.8	1.49e+00	0	26	104	445644800	73	22407
2026-01-11 01:15:25.43	239.86	53.81	-53.6	-69.5	3.8	1.49e+00	0	26	104	445644800	73	22383
2026-01-11 01:15:26.44	239.53	53.48	-53.6	-69.5	3.8	1.49e+00	0	26	104	445644800	73	22397
2026-01-11 01:15:27.45	239.21	53.15	-53.6	-69.5	3.8	1.49e+00	0	26	104	445644800	73	22376
2026-01-11 01:15:28.44	238.91	52.83	-53.6	-69.5	3.8	1.49e+00	0	26	104	445644800	73	22420
2026-01-11 01:15:29.44	238.60	52.51	-53.6	-69.5	3.8	1.49e+00	0	26	104	445644800	73	22432
2026-01-11 01:15:30.44	238.31	52.19	-53.6	-69.5	3.8	1.49e+00	0	26	104	445644800	73	22392
2026-01-11 01:15:31.44	238.02	51.87	-53.6	-69.5	3.8	1.49e+00	0	26	104	445644800	73	22395
2026-01-11 01:15:32.45	237.73	51.55	-53.6	-69.5	3.8	1.49e+00	0	26	104	445644800	73	22451
2026-01-11 01:15:33.45	237.45	51.24	-53.6	-69.5	3.8	1.49e+00	0	26	104	445644800	73	22447
2026-01-11 01:15:34.45	237.18	50.92	-53.6	-69.5	3.8	1.49e+00	0	26	104	445644800	73	22358
2026-01-11 01:15:35.45	236.92	50.61	-53.6	-69.5	3.8	1.49e+00	0	26	104	445644800	73	22388
2026-01-11 01:15:36.45	236.65	50.30	-53.6	-69.5	3.8	1.49e+00	0	26	104	445644800	73	22447
2026-01-11 01:15:37.44	236.40	49.99	-53.6	-69.5	3.8	1.49e+00	0	26	104	445644800	73	22432
2026-01-11 01:15:38.43	236.15	49.68	-53.6	-69.5	3.8	1.49e+00	0	26	104	445644800	73	22404
2026-01-11 01:15:39.43	235.91	49.38	-53.6	-69.5	3.8	1.49e+00	0	26	104	445644800	73	22454
2026-01-11 01:15:40.43	235.67	49.07	-53.6	-69.5	3.8	1.49e+00	0	26	104	445644800	73	22426
2026-01-11 01:15:41.43	235.43	48.77	-53.6	-69.5	3.8	1.49e+00	0	26	104	445644800	73	22402
2026-01-11 01:15:42.43	235.20	48.46	-53.6	-69.5	3.8	1.49e+00	0	26	104	445644800	73	22394
2026-01-11 01:15:43.42	234.98	48.17	-53.6	-69.5	3.8	1.49e+00	0	26	104	445644800	73	22404
2026-01-11 01:15:44.43	234.75	47.86	-53.6	-69.5	3.8	1.49e+00	0	26	104	445644800	73	22401
2026-01-11 01:15:45.42	234.54	47.57	-53.6	-69.5	3.8	1.49e+00	0	26	104	445644800	73	22441
2026-01-11 01:15:46.43	234.32	47.27	-53.6	-69.5	3.8	1.49e+00	0	26	104	445644800	73	22402
2026-01-11 01:15:47.42	234.12	46.98	-53.6	-69.5	3.8	1.49e+00	0	26	104	445644800	73	22417
2026-01-11 01:15:48.42	233.91	46.68	-53.6	-69.5	3.8	1.49e+00	0	26	104	445644800	73	22417
2026-01-11 01:15:49.43	233.71	46.39	-53.6	-69.5	3.8	1.49e+00	0	26	104	445644800	73	22429
2026-01-11 01:15:50.43	233.51	46.10	-53.6	-69.5	3.8	1.49e+00	0	26	104	445644800	73	22463
2026-01-11 01:15:51.42	233.32	45.82	-53.6	-69.5	3.8	1.49e+00	0	26	104	445644800	73	22396
2026-01-11 01:15:52.42	233.13	45.53	-53.6	-69.5	3.8	1.49e+00	0	26	104	445644800	73	22436
2026-01-11 01:15:53.41	232.94	45.25	-53.6	-69.5	3.8	1.49e+00	0	26	104	445644800	73	22445
2026-01-11 01:15:54.41	232.76	44.96	-53.6	-69.5	3.8	1.49e+00	0	26	104	445644800	73	22428
2026-01-11 01:15:55.41	232.58	44.68	-53.6	-69.5	3.8	1.49e+00	0	26	104	445644800	73	22431
2026-01-11 01:15:56.42	232.40	44.40	-53.6	-69.5	3.8	1.49e+00	0	26	104	445644800	73	22496
2026-01-11 01:15:57.42	232.22	44.12	-53.6	-69.5	3.8	1.49e+00	0	26	104	445644800	73	22429
2026-01-11 01:15:58.42	232.05	43.85	-53.6	-69.5	3.8	1.49e+00	0	26	104	445644800	73	22413
2026-01-11 01:15:59.42	231.88	43.57	-53.6	-69.5	3.8	1.49e+00	0	26	104	445644800	73	22407
2026-01-11 01:16:00.42	231.72	43.30	-53.6	-69.5	3.8	1.49e+00	0	26	104	445644800	73	22415
2026-01-11 01:16:01.42	231.56	43.03	-53.6	-69.5	3.8	1.49e+00	0	26	104	445644800	73	22460
2026-01-11 01:16:02.42	231.40	42.76	-53.6	-69.5	3.8	1.49e+00	0	26	104	445644800	73	22434
2026-01-11 01:16:03.42	231.24	42.49	-53.6	-69.5	3.8	1.49e+00	0	26	104	445644800	73	22411
2026-01-11 01:16:04.42	231.09	42.22	-53.6	-69.5	3.8	1.49e+00	0	26	104	445644800	73	22480
2026-01-11 01:16:05.42	230.93	41.96	-53.6	-69.5	3.8	1.49e+00	0	26	104	445644800	73	22374
2026-01-11 01:16:06.42	230.78	41.69	-53.6	-69.5	3.8	1.49e+00	0	26	104	445644800	73	22401
2026-01-11 01:16:07.42	230.64	41.43	-53.6	-69.5	3.8	1.49e+00	0	26	104	445644800	73	22416
2026-01-11 01:16:08.42	230.49	41.17	-53.6	-69.5	3.8	1.49e+00	0	26	104	445644800	73	22425
2026-01-11 01:16:09.42	230.35	40.92	-53.6	-69.5	3.8	1.49e+00	0	26	104	445644800	73	22462
2026-01-11 01:16:10.42	230.21	40.66	-53.6	-69.5	3.8	1.49e+00	0	26	104	445644800	73	22427
2026-01-11 01:16:11.42	230.07	40.40	-53.6	-69.5	3.8	1.49e+00	0	26	104	445644800	73	22461
2026-01-11 01:16:12.42	229.94	40.15	-53.6	-69.5	3.8	1.49e+00	0	26	104	445644800	73	22429
2026-01-11 01:16:13.43	229.81	39.90	-53.6	-69.5	3.8	1.49e+00	0	26	104	445644800	73	22462
2026-01-11 01:16:14.42	229.68	39.65	-53.6	-69.5	3.8	1.49e+00	0	26	104	445644800	73	22458
2026-01-11 01:16:15.43	229.55	39.40	-53.6	-69.5	3.8	1.49e+00	0	26	104	445644800	73	22473
2026-01-11 01:16:16.42	229.42	39.15	-53.6	-69.5	3.8	1.49e+00	0	26	104	445644800	73	22481
2026-01-11 01:16:17.42	229.29	38.91	-53.6	-69.5	3.8	1.49e+00	0	26	104	445644800	73	22421
2026-01-11 01:16:18.43	229.17	38.66	-53.6	-69.5	3.8	1.49e+00	0	26	104	445644800	73	22410
2026-01-11 01:16:19.43	229.05	38.42	-53.6	-69.5	3.8	1.49e+00	0	26	104	445644800	73	22430
2026-01-11 01:16:20.44	228.93	38.18	-53.6	-69.5	3.8	1.49e+00	0	26	104	445644800	73	22387
2026-01-11 01:16:21.44	228.81	37.94	-53.6	-69.5	3.8	1.49e+00	0	26	104	445644800	73	22456
2026-01-11 01:16:22.44	228.69	37.70	-53.6	-69.5	3.8	1.49e+00	0	26	104	445644800	73	22467
2026-01-11 01:16:23.44	228.58	37.47	-53.6	-69.5	3.8	1.49e+00	0	26	104	445644800	73	22427
2026-01-11 01:16:24.43	228.47	37.23	-53.6	-69.5	3.8	1.49e+00	0	26	104	445644800	73	22437
2026-01-11 01:16:25.43	228.36	37.00	-53.6	-69.5	3.8	1.49e+00	0	26	104	445644800	73	22431
2026-01-11 01:16:26.44	228.25	36.77	-53.6	-69.5	3.8	1.49e+00	0	26	104	445644800	73	22436
2026-01-11 01:16:27.44	228.14	36.54	-53.6	-69.5	3.8	1.49e+00	0	26	104	445644800	73	22428
2026-01-11 01:16:28.44	228.03	36.31	-53.6	-69.5	3.9	1.49e+00	0	26	104	445644800	73	22498
2026-01-11 01:16:29.45	227.93	36.08	-53.6	-69.6	3.8	1.49e+00	0	26	104	445644800	73	22546
2026-01-11 01:16:30.45	227.83	35.85	-53.6	-69.5	3.8	1.49e+00	0	26	104	445644800	73	22454
2026-01-11 01:16:31.45	227.72	35.63	-53.6	-69.5	3.8	1.49e+00	0	26	104	445644800	73	22455
2026-01-11 01:16:32.45	227.62	35.41	-53.6	-69.5	3.8	1.49e+00	0	26	104	445644800	73	22454
2026-01-11 01:16:33.45	227.53	35.19	-53.6	-69.5	3.8	1.49e+00	0	26	104	445644800	73	22464
2026-01-11 01:16:34.46	227.43	34.97	-53.6	-69.5	3.8	1.49e+00	0	26	104	445644800	73	22434
2026-01-11 01:16:35.45	227.33	34.75	-53.6	-69.5	3.8	1.49e+00	0	26	104	445644800	73	22468
2026-01-11 01:16:36.45	227.24	34.53	-53.6	-69.5	3.8	1.49e+00	0	26	104	445644800	73	22453
2026-01-11 01:16:37.45	227.14	34.32	-53.6	-69.5	3.8	1.49e+00	0	26	104	445644800	73	22446
2026-01-11 01:16:38.44	227.05	34.11	-53.6	-69.5	3.8	1.49e+00	0	26	104	445644800	73	22502
2026-01-11 01:16:39.45	226.96	33.89	-53.6	-69.5	3.8	1.49e+00	0	26	104	445644800	73	22451
2026-01-11 01:16:40.45	226.87	33.68	-53.6	-69.5	3.8	1.49e+00	0	26	104	445644800	73	22484
2026-01-11 01:16:41.45	226.78	33.47	-53.6	-69.5	3.8	1.49e+00	0	26	104	445644800	73	22467
2026-01-11 01:16:42.45	226.69	33.26	-53.6	-69.5	3.8	1.49e+00	0	26	104	445644800	73	22443
2026-01-11 01:16:43.45	226.61	33.05	-53.6	-69.5	3.8	1.49e+00	0	26	104	445644800	73	22405
2026-01-11 01:16:44.44	226.52	32.85	-53.6	-69.5	3.8	1.49e+00	0	26	104	445644800	73	22434
2026-01-11 01:16:45.44	226.44	32.65	-53.6	-69.5	3.8	1.49e+00	0	26	104	445644800	73	22463
2026-01-11 01:16:46.44	226.36	32.44	-53.6	-69.5	3.8	1.49e+00	0	26	104	445644800	73	22476
2026-01-11 01:16:47.43	226.28	32.24	-53.6	-69.5	3.8	1.49e+00	0	26	104	445644800	73	22472
2026-01-11 01:16:48.43	226.20	32.04	-53.6	-69.5	3.8	1.49e+00	0	26	104	445644800	73	22477
2026-01-11 01:16:49.44	226.11	31.84	-53.6	-69.5	3.8	1.49e+00	0	26	104	445644800	73	22426
2026-01-11 01:16:50.44	226.04	31.64	-53.6	-69.5	3.8	1.49e+00	0	26	104	445644800	73	22475
2026-01-11 01:16:51.44	225.96	31.45	-53.6	-69.5	3.8	1.49e+00	0	26	104	445644800	73	22459
2026-01-11 01:16:52.45	225.88	31.25	-53.6	-69.5	3.8	1.49e+00	0	26	104	445644800	73	22475
2026-01-11 01:16:53.45	225.80	31.05	-53.6	-69.5	3.8	1.49e+00	0	26	104	445644800	73	22427
2026-01-11 01:16:54.45	225.73	30.86	-53.6	-69.5	3.8	1.49e+00	0	26	104	445644800	73	22411
2026-01-11 01:16:55.44	225.66	30.67	-53.6	-69.5	3.8	1.49e+00	0	26	104	445644800	73	22461
2026-01-11 01:16:56.44	225.58	30.48	-53.6	-69.5	3.8	1.49e+00	0	26	104	445644800	73	22489
2026-01-11 01:16:57.44	225.51	30.29	-53.6	-69.5	3.8	1.49e+00	0	26	104	445644800	73	22442
2026-01-11 01:16:58.44	225.44	30.10	-53.6	-69.5	3.8	1.49e+00	0	26	104	445644800	73	22454
2026-01-11 01:16:59.44	225.37	29.92	-53.6	-69.5	3.8	1.49e+00	0	26	104	445644800	73	22478
2026-01-11 01:17:00.44	225.30	29.73	-53.6	-69.5	3.8	1.49e+00	0	26	104	445644800	73	22435
2026-01-11 01:17:01.44	225.23	29.55	-53.6	-69.5	3.8	1.49e+00	0	26	104	445644800	73	22472
2026-01-11 01:17:02.44	225.16	29.36	-53.6	-69.5	3.8	1.49e+00	0	26	104	445644800	73	22449
2026-01-11 01:17:03.45	225.10	29.18	-53.6	-69.5	3.8	1.49e+00	0	26	104	445644800	73	22484
2026-01-11 01:17:04.45	225.03	29.00	-53.6	-69.5	3.8	1.49e+00	0	26	104	445644800	73	22400
2026-01-11 01:17:05.45	224.96	28.82	-53.6	-69.5	3.8	1.49e+00	0	26	104	445644800	73	22453
2026-01-11 01:17:06.45	224.90	28.64	-53.6	-69.5	3.8	1.49e+00	0	26	104	445644800	73	22466
2026-01-11 01:17:07.46	224.83	28.46	-53.6	-69.5	3.8	1.49e+00	0	26	104	445644800	73	22399
2026-01-11 01:17:08.45	224.77	28.28	-53.6	-69.5	3.8	1.49e+00	0	26	104	445644800	73	22410
2026-01-11 01:17:09.45	224.71	28.11	-53.6	-69.5	3.8	1.49e+00	0	26	104	445644800	73	22453
2026-01-11 01:17:10.44	224.65	27.93	-53.6	-69.5	3.8	1.49e+00	0	26	104	445644800	73	22437
2026-01-11 01:17:11.44	224.59	27.76	-53.6	-69.5	3.8	1.49e+00	0	26	104	445644800	73	22421
2026-01-11 01:17:12.44	224.53	27.59	-53.6	-69.5	3.8	1.49e+00	0	26	104	445644800	73	22367
2026-01-11 01:17:13.43	224.47	27.42	-53.6	-69.5	3.8	1.49e+00	0	26	104	445644800	73	22474
2026-01-11 01:17:14.43	224.41	27.25	-53.6	-69.5	3.8	1.49e+00	0	26	104	445644800	73	22336
2026-01-11 01:17:15.43	224.35	27.08	-53.6	-69.5	3.8	1.49e+00	0	26	104	445644800	73	22477
2026-01-11 01:17:16.43	224.29	26.91	-53.6	-69.5	3.8	1.49e+00	0	26	104	445644800	73	22454
2026-01-11 01:17:17.43	224.23	26.74	-53.6	-69.5	3.8	1.49e+00	0	26	104	445644800	73	22428
2026-01-11 01:17:18.43	224.18	26.57	-53.6	-69.5	3.8	1.49e+00	0	26	104	445644800	73	22487
2026-01-11 01:17:19.44	224.12	26.41	-53.6	-69.5	3.8	1.49e+00	0	26	104	445644800	73	22444
2026-01-11 01:17:20.44	224.07	26.24	-53.6	-69.5	3.8	1.49e+00	0	26	104	445644800	73	22424
2026-01-11 01:17:21.43	224.01	26.08	-53.6	-69.5	3.8	1.49e+00	0	26	104	445644800	73	22491
2026-01-11 01:17:22.43	223.96	25.92	-53.6	-69.5	3.8	1.49e+00	0	26	104	445644800	73	22492
2026-01-11 01:17:23.43	223.90	25.75	-53.6	-69.5	3.8	1.49e+00	0	26	104	445644800	73	22368
2026-01-11 01:17:24.42	223.85	25.60	-53.6	-69.6	3.8	1.49e+00	0	26	104	445644800	73	22524
2026-01-11 01:17:25.43	223.80	25.43	-53.6	-69.5	3.8	1.49e+00	0	26	104	445644800	73	22472
2026-01-11 01:17:26.43	223.75	25.27	-53.6	-69.5	3.8	1.49e+00	0	26	104	445644800	73	22462
2026-01-11 01:17:27.44	223.69	25.12	-53.6	-69.5	3.8	1.49e+00	0	26	104	445644800	73	22451
2026-01-11 01:17:28.44	223.64	24.96	-53.6	-69.5	3.8	1.49e+00	0	26	104	445644800	73	22417
2026-01-11 01:17:29.44	223.59	24.80	-53.6	-69.5	3.8	1.49e+00	0	26	104	445644800	73	22425
2026-01-11 01:17:30.45	223.54	24.65	-53.6	-69.5	3.8	1.49e+00	0	26	104	445644800	73	22458
2026-01-11 01:17:31.45	223.49	24.49	-53.6	-69.5	3.8	1.49e+00	0	26	104	445644800	73	22459
2026-01-11 01:17:32.45	223.45	24.34	-53.6	-69.5	3.8	1.49e+00	0	26	104	445644800	73	22388
2026-01-11 01:17:33.45	223.40	24.18	-53.6	-69.5	3.8	1.49e+00	0	26	104	445644800	73	22409
2026-01-11 01:17:34.45	223.35	24.03	-53.6	-69.5	3.8	1.49e+00	0	26	104	445644800	73	22455
2026-01-11 01:17:35.45	223.30	23.88	-53.6	-69.5	3.8	1.49e+00	0	26	104	445644800	73	22415
2026-01-11 01:17:36.45	223.26	23.73	-53.6	-69.5	3.8	1.49e+00	0	26	104	445644800	73	22420
2026-01-11 01:17:37.45	223.21	23.58	-53.6	-69.5	3.8	1.49e+00	0	26	104	445644800	73	22419
2026-01-11 01:17:38.45	223.16	23.43	-53.6	-69.5	3.8	1.49e+00	0	26	104	445644800	73	22368
2026-01-11 01:17:39.45	223.12	23.29	-53.6	-69.5	3.8	1.49e+00	0	26	104	445644800	73	22435
2026-01-11 01:17:40.45	223.07	23.14	-53.6	-69.5	3.8	1.49e+00	0	26	104	445644800	73	22400
2026-01-11 01:17:41.45	223.03	22.99	-53.6	-69.5	3.8	1.49e+00	0	26	104	445644800	73	22392
2026-01-11 01:17:42.45	222.99	22.85	-53.6	-69.5	3.8	1.49e+00	0	26	104	445644800	73	22435
2026-01-11 01:17:43.45	222.94	22.70	-53.6	-69.5	3.8	1.49e+00	0	26	104	445644800	73	22423
2026-01-11 01:17:44.44	222.90	22.56	-53.6	-69.5	3.8	1.49e+00	0	26	104	445644800	73	22427
2026-01-11 01:17:45.44	222.86	22.42	-53.6	-69.5	3.8	1.49e+00	0	26	104	445644800	73	22351
2026-01-11 01:17:46.45	222.81	22.28	-53.6	-69.5	3.8	1.49e+00	0	26	104	445644800	73	22368
2026-01-11 01:17:47.44	222.77	22.14	-53.6	-69.5	3.8	1.49e+00	0	26	104	445644800	73	22425
2026-01-11 01:17:48.44	222.73	22.00	-53.6	-69.5	3.8	1.49e+00	0	26	104	445644800	73	22470
2026-01-11 01:17:49.44	222.69	21.86	-53.6	-69.5	3.8	1.49e+00	0	26	104	445644800	73	22437
2026-01-11 01:17:50.45	222.65	21.72	-53.6	-69.6	3.8	1.49e+00	0	26	104	445644800	73	22555
2026-01-11 01:17:51.45	222.61	21.58	-53.6	-69.5	3.8	1.49e+00	0	26	104	445644800	73	22452
2026-01-11 01:17:52.45	222.57	21.44	-53.6	-69.5	3.8	1.49e+00	0	26	104	445644800	73	22429
2026-01-11 01:17:53.45	222.53	21.30	-53.6	-69.5	3.8	1.49e+00	0	26	104	445644800	73	22419
2026-01-11 01:17:54.45	222.49	21.17	-53.6	-69.5	3.8	1.49e+00	0	26	104	445644800	73	22388
2026-01-11 01:17:55.45	222.45	21.03	-53.6	-69.5	3.8	1.49e+00	0	26	104	445644800	73	22408
2026-01-11 01:17:56.46	222.41	20.89	-53.6	-69.5	3.8	1.49e+00	0	26	104	445644800	73	22454
2026-01-11 01:17:57.46	222.38	20.76	-53.6	-69.5	3.8	1.49e+00	0	26	104	445644800	73	22425
2026-01-11 01:17:58.47	222.34	20.63	-53.6	-69.5	3.8	1.49e+00	0	26	104	445644800	73	22416
2026-01-11 01:17:59.46	222.30	20.50	-53.6	-69.5	3.8	1.49e+00	0	26	104	445644800	73	22450
2026-01-11 01:18:00.46	222.26	20.36	-53.6	-69.5	3.8	1.49e+00	0	26	104	445644800	73	22441
2026-01-11 01:18:01.46	222.23	20.23	-53.6	-69.5	3.8	1.49e+00	0	26	104	445644800	73	22403
2026-01-11 01:18:02.46	222.19	20.10	-53.6	-69.5	3.8	1.49e+00	0	26	104	445644800	73	22466
2026-01-11 01:18:03.45	222.16	19.97	-53.6	-69.5	3.8	1.49e+00	0	26	104	445644800	73	22473
2026-01-11 01:18:04.45	222.12	19.84	-53.6	-69.5	3.8	1.49e+00	0	26	104	445644800	73	22449
2026-01-11 01:18:05.45	222.09	19.72	-53.6	-69.5	3.8	1.49e+00	0	26	104	445644800	73	22458
2026-01-11 01:18:06.45	222.05	19.59	-53.6	-69.5	3.8	1.49e+00	0	26	104	445644800	73	22438
2026-01-11 01:18:07.45	222.02	19.46	-53.6	-69.5	3.8	1.49e+00	0	26	104	445644800	73	22417
2026-01-11 01:18:08.45	221.98	19.33	-53.6	-69.5	3.8	1.49e+00	0	26	104	445644800	73	22394
2026-01-11 01:18:09.45	221.95	19.21	-53.6	-69.5	3.8	1.49e+00	0	26	104	445644800	73	22397
2026-01-11 01:18:10.45	221.91	19.08	-53.6	-69.5	3.8	1.49e+00	0	26	104	445644800	73	22452
2026-01-11 01:18:11.45	221.88	18.96	-53.6	-69.5	3.8	1.49e+00	0	26	104	445644800	73	22420
2026-01-11 01:18:12.44	221.85	18.83	-53.6	-69.5	3.8	1.49e+00	0	26	104	445644800	73	22403
2026-01-11 01:18:13.44	221.81	18.71	-53.6	-69.5	3.8	1.49e+00	0	26	104	445644800	73	22406
2026-01-11 01:18:14.44	221.78	18.59	-53.6	-69.5	3.8	1.49e+00	0	26	104	445644800	73	22409
2026-01-11 01:18:15.44	221.75	18.47	-53.6	-69.5	3.8	1.49e+00	0	26	104	445644800	73	22426
2026-01-11 01:18:16.44	221.72	18.34	-53.6	-69.5	3.8	1.49e+00	0	26	104	445644800	73	22447
2026-01-11 01:18:17.44	221.69	18.22	-53.6	-69.5	3.8	1.49e+00	0	26	104	445644800	73	22391
2026-01-11 01:18:18.44	221.66	18.10	-53.6	-69.5	3.8	1.49e+00	0	26	104	445644800	73	22429
2026-01-11 01:18:19.44	221.62	17.98	-53.6	-69.5	3.8	1.49e+00	0	26	104	445644800	73	22408
2026-01-11 01:18:20.45	221.59	17.86	-53.6	-69.5	3.8	1.49e+00	0	26	104	445644800	73	22437
2026-01-11 01:18:21.44	221.56	17.74	-53.6	-69.5	3.8	1.49e+00	0	26	104	445644800	73	22420
2026-01-11 01:18:22.44	221.53	17.63	-53.6	-69.5	3.8	1.49e+00	0	26	104	445644800	73	22470
2026-01-11 01:18:23.44	221.50	17.51	-53.6	-69.5	3.8	1.49e+00	0	26	104	445644800	73	22431
