passes_logs/2026/01/11/R3.2S_Murmansk/R3.2S_Murmansk__20260111_044014_AQUA_rec.log

#Pass ID: 20260111_044014_AQUA
#Satellite: AQUA
#Configuration: AQUA
#almurnet v.1.7.20251203
#Start time: 2026-01-11 04:40:14

#Version: 2.2.20231116
#Station: R3.2S_Murmansk
#Location: 33.079688 lon 68.888172 lat
#TLE: 1 27424U 02022A   26009.89520876  .00001045  00000+0  21914-3 0  9996
#TLE: 2 27424  98.4076 336.2372 0002032  84.5955   1.0356 14.61811442260144

#Time	Az	El	Level	Level2	SNR	BER	BlckErr	Temp	State	Recorded	gain1	gain2
2026-01-11 04:40:14.55	34.42	2.03	-57.0	-76.3	3.8	7.51e-01	0	26	0	0	83	32036
2026-01-11 04:40:15.53	34.36	2.09	-56.9	-76.2	3.8	7.47e-01	0	25	104	0	81	35557
2026-01-11 04:40:16.53	34.30	2.15	-56.9	-76.2	3.8	7.46e-01	0	25	104	0	81	35652
2026-01-11 04:40:17.53	34.24	2.21	-56.9	-76.2	3.8	7.48e-01	0	25	104	0	81	35584
2026-01-11 04:40:18.53	34.18	2.27	-56.8	-76.2	3.8	7.46e-01	0	25	104	0	81	35628
2026-01-11 04:40:19.54	34.12	2.33	-56.8	-76.2	3.8	7.45e-01	0	25	104	0	81	35626
2026-01-11 04:40:20.53	34.06	2.39	-56.8	-76.2	3.8	7.44e-01	0	26	104	0	81	35481
2026-01-11 04:40:21.53	33.99	2.45	-56.9	-76.2	3.8	7.50e-01	0	26	104	0	81	35544
2026-01-11 04:40:22.53	33.93	2.52	-56.8	-76.2	3.8	7.43e-01	0	26	104	0	81	35548
2026-01-11 04:40:23.52	33.87	2.58	-56.8	-76.2	3.8	7.46e-01	0	26	104	0	81	35451
2026-01-11 04:40:24.53	33.81	2.64	-56.8	-76.2	3.8	7.48e-01	0	25	104	0	81	35486
2026-01-11 04:40:25.53	33.75	2.70	-56.8	-76.2	3.8	7.43e-01	0	25	104	0	81	35554
2026-01-11 04:40:26.52	33.68	2.76	-56.8	-76.2	3.8	7.46e-01	0	25	104	0	81	35403
2026-01-11 04:40:27.52	33.62	2.83	-56.8	-76.2	3.8	7.47e-01	0	26	104	0	81	35343
2026-01-11 04:40:28.52	33.56	2.89	-56.8	-76.2	3.8	7.49e-01	0	25	104	0	81	35435
2026-01-11 04:40:29.52	33.49	2.95	-56.8	-76.2	3.8	7.45e-01	0	25	104	0	81	35324
2026-01-11 04:40:30.52	33.43	3.02	-56.8	-76.2	3.8	7.46e-01	0	25	104	0	81	35478
2026-01-11 04:40:31.52	33.37	3.08	-56.8	-76.2	3.8	7.47e-01	0	25	104	0	81	35288
2026-01-11 04:40:32.52	33.30	3.14	-56.8	-76.2	3.8	7.46e-01	0	25	104	0	81	35435
2026-01-11 04:40:33.52	33.24	3.21	-56.8	-76.2	3.8	7.51e-01	0	25	104	0	81	35462
2026-01-11 04:40:34.52	33.17	3.27	-56.8	-76.2	3.8	7.45e-01	0	25	104	0	81	35397
2026-01-11 04:40:35.52	33.11	3.33	-56.8	-76.2	3.8	7.44e-01	0	26	104	0	81	35474
2026-01-11 04:40:36.52	33.04	3.40	-56.8	-76.1	3.8	7.46e-01	0	26	104	0	81	35282
2026-01-11 04:40:37.51	32.97	3.46	-56.8	-76.1	3.8	7.46e-01	0	25	104	0	81	35153
2026-01-11 04:40:38.51	32.91	3.52	-56.8	-76.1	3.8	7.43e-01	0	25	104	0	81	35220
2026-01-11 04:40:39.50	32.84	3.59	-56.8	-76.1	3.8	7.45e-01	0	25	104	0	81	35283
2026-01-11 04:40:40.50	32.77	3.65	-56.8	-76.1	3.8	7.45e-01	0	25	104	0	81	34967
2026-01-11 04:40:41.49	32.71	3.71	-56.8	-76.1	3.8	7.48e-01	0	26	104	0	81	35228
2026-01-11 04:40:42.50	32.64	3.78	-56.8	-76.2	3.8	7.45e-01	0	25	104	0	81	35367
2026-01-11 04:40:43.50	32.57	3.84	-56.8	-76.1	3.8	7.49e-01	0	25	104	0	81	35134
2026-01-11 04:40:44.50	32.50	3.91	-56.8	-76.1	3.8	7.45e-01	0	25	104	0	81	35110
2026-01-11 04:40:45.50	32.43	3.97	-56.8	-76.1	3.8	7.46e-01	0	25	104	0	81	35180
2026-01-11 04:40:46.50	32.36	4.04	-56.8	-76.1	3.8	7.48e-01	0	25	104	0	81	35067
2026-01-11 04:40:47.50	32.29	4.10	-56.8	-76.1	3.8	7.50e-01	0	26	104	0	81	34991
2026-01-11 04:40:48.50	32.22	4.17	-56.8	-76.1	3.8	7.44e-01	0	25	104	0	81	35014
2026-01-11 04:40:49.50	32.15	4.23	-56.8	-76.1	3.8	7.45e-01	0	26	104	0	81	35167
2026-01-11 04:40:50.49	32.08	4.30	-56.8	-76.1	3.8	7.46e-01	0	25	104	0	81	35252
2026-01-11 04:40:51.49	32.01	4.36	-56.8	-76.1	3.8	7.47e-01	0	25	104	0	81	35277
2026-01-11 04:40:52.49	31.94	4.43	-56.8	-76.1	3.8	7.44e-01	0	25	104	0	81	35113
2026-01-11 04:40:53.49	31.87	4.50	-56.8	-75.9	3.8	7.47e-01	0	26	104	0	81	34239
2026-01-11 04:40:54.50	31.80	4.56	-56.7	-75.5	3.8	7.43e-01	0	25	104	0	81	32748
2026-01-11 04:40:55.49	31.72	4.63	-56.6	-75.1	3.8	7.44e-01	0	26	104	0	81	31178
2026-01-11 04:40:56.50	31.65	4.70	-56.5	-74.4	3.8	7.44e-01	0	25	104	0	81	28938
2026-01-11 04:40:57.50	31.58	4.76	-56.4	-73.9	3.8	7.45e-01	0	25	104	0	81	27104
2026-01-11 04:40:58.50	31.50	4.83	-56.3	-73.0	3.8	7.46e-01	0	26	104	0	81	24627
2026-01-11 04:40:59.49	31.43	4.89	-56.1	-72.6	3.8	7.47e-01	0	26	104	0	81	23334
2026-01-11 04:41:00.50	31.35	4.96	-56.0	-71.9	3.8	7.47e-01	0	25	104	0	81	21696
2026-01-11 04:41:01.50	31.28	5.03	-55.8	-71.4	3.8	7.46e-01	0	26	104	0	80	21738
2026-01-11 04:41:02.51	31.20	5.10	-55.8	-71.1	3.8	7.46e-01	0	26	104	0	80	21016
2026-01-11 04:41:03.51	31.13	5.16	-56.2	-72.4	3.8	7.50e-01	0	26	104	0	80	24148
2026-01-11 04:41:04.51	31.05	5.23	-55.8	-71.1	3.8	7.46e-01	0	26	104	0	80	20939
2026-01-11 04:41:05.52	30.97	5.30	-54.8	-68.4	3.9	7.46e-01	0	26	104	0	78	17220
2026-01-11 04:41:06.53	30.90	5.37	-55.6	-70.5	3.8	7.52e-01	0	25	104	0	78	21993
2026-01-11 04:41:07.53	30.82	5.44	-55.7	-71.0	3.9	7.46e-01	0	25	104	0	80	20563
2026-01-11 04:41:08.53	30.74	5.50	-53.0	-65.5	3.8	7.48e-01	0	25	104	0	75	14553
2026-01-11 04:41:09.53	30.66	5.57	-52.0	-64.1	3.8	7.48e-01	0	26	104	0	73	13933
2026-01-11 04:41:10.53	30.58	5.64	-55.0	-68.5	3.8	7.46e-01	0	26	104	0	77	18490
2026-01-11 04:41:11.53	30.50	5.71	-56.0	-71.1	4.0	7.46e-01	0	26	104	0	81	19649
2026-01-11 04:41:12.53	30.42	5.78	-55.9	-71.0	3.8	7.46e-01	0	25	104	0	79	21769
2026-01-11 04:41:13.53	30.34	5.85	-56.3	-72.2	3.9	7.42e-01	0	25	104	0	81	22304
2026-01-11 04:41:14.53	30.26	5.92	-54.6	-68.0	3.9	7.44e-01	0	26	104	0	78	16426
2026-01-11 04:41:15.53	30.18	5.98	-53.3	-65.8	3.8	7.45e-01	0	26	104	0	75	15136
2026-01-11 04:41:16.53	30.10	6.05	-53.0	-65.4	3.8	7.46e-01	0	25	104	0	75	14533
2026-01-11 04:41:17.53	30.02	6.12	-52.2	-64.4	3.8	7.47e-01	0	25	104	0	73	14394
2026-01-11 04:41:18.53	29.94	6.19	-52.3	-64.5	3.8	7.46e-01	0	25	104	0	73	14570
2026-01-11 04:41:19.53	29.86	6.26	-52.9	-65.2	3.8	7.46e-01	0	26	104	0	73	15874
2026-01-11 04:41:20.53	29.77	6.33	-55.8	-70.6	3.8	7.46e-01	0	25	104	0	79	20977
2026-01-11 04:41:21.53	29.69	6.40	-56.3	-72.1	3.9	7.47e-01	0	26	104	0	81	22018
2026-01-11 04:41:22.53	29.61	6.47	-54.6	-67.9	3.9	7.47e-01	0	25	104	0	78	16187
2026-01-11 04:41:23.54	29.52	6.54	-53.1	-65.5	3.8	7.43e-01	0	25	104	0	75	14590
2026-01-11 04:41:24.54	29.44	6.61	-52.8	-65.0	3.8	7.46e-01	0	26	104	0	74	14703
2026-01-11 04:41:25.55	29.35	6.69	-52.7	-65.1	3.8	7.46e-01	0	25	104	0	74	14727
2026-01-11 04:41:26.55	29.26	6.76	-51.9	-63.8	3.8	7.42e-01	0	25	104	0	73	13569
2026-01-11 04:41:27.55	29.18	6.83	-53.1	-65.5	3.9	7.48e-01	0	26	104	0	73	16457
2026-01-11 04:41:28.55	29.09	6.90	-56.1	-71.2	3.9	7.49e-01	0	26	104	0	79	22343
2026-01-11 04:41:29.55	29.00	6.97	-56.4	-71.8	3.9	7.47e-01	0	25	104	0	81	21430
2026-01-11 04:41:30.56	28.91	7.04	-53.9	-66.6	3.9	7.46e-01	0	26	104	0	77	14806
2026-01-11 04:41:31.56	28.83	7.11	-52.8	-65.0	3.8	7.43e-01	0	26	104	0	74	14708
2026-01-11 04:41:32.56	28.74	7.19	-52.8	-65.1	3.8	7.47e-01	0	26	104	0	74	14780
2026-01-11 04:41:33.56	28.65	7.26	-52.0	-64.0	3.8	7.45e-01	0	25	104	0	73	13748
2026-01-11 04:41:34.57	28.56	7.33	-51.9	-63.8	3.8	7.46e-01	0	25	104	0	72	14335
2026-01-11 04:41:35.57	28.47	7.40	-53.5	-66.1	3.9	7.45e-01	0	25	104	0	74	16584
2026-01-11 04:41:36.58	28.38	7.48	-56.1	-71.0	3.8	7.49e-01	0	25	104	0	79	21864
2026-01-11 04:41:37.57	28.29	7.55	-56.4	-71.7	3.8	7.47e-01	0	26	104	0	81	21246
2026-01-11 04:41:38.57	28.19	7.62	-53.9	-66.8	3.9	7.46e-01	0	25	104	0	77	15086
2026-01-11 04:41:39.57	28.10	7.69	-52.7	-64.9	3.8	7.45e-01	0	25	104	0	74	14444
2026-01-11 04:41:40.56	28.01	7.77	-52.4	-64.5	3.8	7.46e-01	0	25	104	0	74	13747
2026-01-11 04:41:41.55	27.92	7.84	-51.7	-63.6	3.8	7.42e-01	0	25	104	0	72	13886
2026-01-11 04:41:42.56	27.82	7.91	-51.2	-62.9	3.8	7.46e-01	0	25	104	0	71	13672
2026-01-11 04:41:43.56	27.73	7.99	-52.5	-64.6	3.8	7.47e-01	0	26	104	0	72	15687
2026-01-11 04:41:44.55	27.63	8.06	-56.1	-71.0	3.8	7.51e-01	0	25	104	0	79	21918
2026-01-11 04:41:45.55	27.54	8.13	-56.5	-71.8	3.8	7.46e-01	0	26	104	0	82	20140
2026-01-11 04:41:46.54	27.44	8.21	-54.5	-67.6	3.9	7.43e-01	0	26	104	0	78	15623
2026-01-11 04:41:47.55	27.35	8.28	-52.3	-64.4	3.8	7.46e-01	0	25	104	0	73	14442
2026-01-11 04:41:48.54	27.25	8.35	-52.4	-64.4	3.8	7.47e-01	0	25	104	0	73	14535
2026-01-11 04:41:49.55	27.15	8.43	-52.5	-64.6	3.8	7.46e-01	0	26	104	0	73	14723
2026-01-11 04:41:50.54	27.05	8.50	-53.0	-65.3	3.8	7.46e-01	0	26	104	0	73	16108
2026-01-11 04:41:51.54	26.95	8.58	-54.9	-68.3	3.9	7.47e-01	0	26	104	0	77	17967
2026-01-11 04:41:52.54	26.86	8.65	-55.8	-70.1	3.8	7.50e-01	0	26	104	0	79	19795
2026-01-11 04:41:53.54	26.76	8.73	-55.8	-69.9	3.9	7.42e-01	0	25	104	0	80	18231
2026-01-11 04:41:54.54	26.65	8.80	-55.6	-69.5	3.8	7.50e-01	0	26	104	0	78	19518
2026-01-11 04:41:55.55	26.55	8.88	-55.2	-68.8	3.9	7.46e-01	0	26	104	0	79	16996
2026-01-11 04:41:56.55	26.45	8.96	-52.5	-64.6	3.8	7.45e-01	0	25	104	0	74	13922
2026-01-11 04:41:57.56	26.35	9.03	-51.9	-63.8	3.8	7.46e-01	0	26	104	0	73	13442
2026-01-11 04:41:58.55	26.25	9.11	-54.2	-66.9	3.8	7.44e-01	0	26	104	0	75	17194
2026-01-11 04:41:59.55	26.14	9.19	-54.7	-67.8	3.9	7.44e-01	0	25	104	0	78	16071
2026-01-11 04:42:00.55	26.04	9.26	-56.1	-70.7	3.9	7.49e-01	0	25	104	0	79	21079
2026-01-11 04:42:01.55	25.93	9.34	-56.5	-71.7	3.8	7.47e-01	0	26	104	0	82	19927
2026-01-11 04:42:02.54	25.83	9.41	-53.8	-66.8	3.9	7.42e-01	0	25	104	0	77	15081
2026-01-11 04:42:03.54	25.72	9.49	-51.7	-63.6	3.8	7.45e-01	0	25	104	0	72	13912
2026-01-11 04:42:04.54	25.62	9.57	-51.8	-63.6	3.9	7.43e-01	0	26	104	0	72	14003
2026-01-11 04:42:05.55	25.51	9.65	-50.9	-62.6	3.9	7.45e-01	0	25	104	0	71	13154
2026-01-11 04:42:06.54	25.40	9.72	-50.5	-62.1	3.9	7.46e-01	0	26	104	0	70	13154
2026-01-11 04:42:07.55	25.29	9.80	-52.3	-64.3	3.9	7.44e-01	0	26	104	0	72	15210
2026-01-11 04:42:08.55	25.18	9.88	-56.0	-70.6	3.8	7.47e-01	0	26	104	0	79	20855
2026-01-11 04:42:09.54	25.07	9.96	-56.4	-71.5	3.9	7.42e-01	0	25	104	0	82	19428
2026-01-11 04:42:10.54	24.96	10.04	-54.1	-66.8	3.9	7.45e-01	0	26	104	0	77	15126
2026-01-11 04:42:11.55	24.85	10.11	-51.7	-63.4	3.9	7.45e-01	0	26	104	0	72	13625
2026-01-11 04:42:12.55	24.74	10.19	-51.7	-63.5	3.9	7.46e-01	0	26	104	0	72	13800
2026-01-11 04:42:13.54	24.63	10.27	-50.9	-62.5	3.9	7.46e-01	0	26	104	0	71	13062
2026-01-11 04:42:14.54	24.51	10.35	-50.4	-61.9	3.8	7.46e-01	0	25	104	0	70	12947
2026-01-11 04:42:15.55	24.40	10.43	-52.0	-63.8	3.8	7.45e-01	0	25	104	0	71	15186
2026-01-11 04:42:16.55	24.28	10.51	-56.0	-70.4	3.8	7.45e-01	0	25	104	0	79	20416
2026-01-11 04:42:17.55	24.17	10.59	-56.5	-71.6	3.9	7.47e-01	0	25	104	0	82	19741
2026-01-11 04:42:18.56	24.05	10.67	-53.3	-65.8	3.9	7.42e-01	0	26	104	0	76	14249
2026-01-11 04:42:19.55	23.94	10.75	-51.5	-63.2	3.9	7.45e-01	0	26	104	0	72	13390
2026-01-11 04:42:20.55	23.82	10.83	-51.5	-63.3	3.8	7.44e-01	0	25	104	0	72	13467
2026-01-11 04:42:21.55	23.70	10.91	-50.7	-62.3	3.9	7.43e-01	0	26	104	0	70	13448
2026-01-11 04:42:22.55	23.58	10.99	-50.1	-61.6	3.9	7.47e-01	0	25	104	0	69	13126
2026-01-11 04:42:23.55	23.46	11.07	-52.0	-63.9	3.8	7.50e-01	0	25	104	0	71	15365
2026-01-11 04:42:24.55	23.34	11.15	-56.0	-70.3	3.8	7.44e-01	0	25	104	0	79	20225
2026-01-11 04:42:25.55	23.22	11.23	-56.5	-71.6	3.9	7.46e-01	0	25	104	0	82	19665
2026-01-11 04:42:26.56	23.10	11.31	-53.3	-65.7	3.9	7.45e-01	0	26	104	0	76	14163
2026-01-11 04:42:27.55	22.98	11.39	-51.3	-63.0	3.8	7.50e-01	0	25	104	0	71	13763
2026-01-11 04:42:28.55	22.85	11.47	-51.4	-63.1	3.8	7.47e-01	0	26	104	0	71	13943
2026-01-11 04:42:29.55	22.73	11.56	-51.2	-62.9	3.8	7.47e-01	0	25	104	0	71	13700
2026-01-11 04:42:30.56	22.60	11.64	-50.4	-61.9	3.8	7.45e-01	0	25	104	0	70	12959
2026-01-11 04:42:31.56	22.48	11.72	-53.3	-65.7	3.9	7.47e-01	0	26	104	0	74	15768
2026-01-11 04:42:32.56	22.35	11.80	-55.9	-70.1	3.8	7.49e-01	0	26	104	0	79	19632
2026-01-11 04:42:33.56	22.23	11.88	-54.8	-67.5	3.9	7.45e-01	0	26	104	0	78	15577
2026-01-11 04:42:34.56	22.10	11.97	-55.7	-69.9	3.8	7.48e-01	0	26	104	0	79	19340
2026-01-11 04:42:35.56	21.97	12.05	-54.5	-67.4	3.9	7.41e-01	0	25	104	0	78	15243
2026-01-11 04:42:36.57	21.84	12.13	-51.2	-62.8	3.9	7.48e-01	0	25	104	0	71	13489
2026-01-11 04:42:37.57	21.71	12.22	-50.6	-62.1	3.9	7.43e-01	0	26	104	0	70	13249
2026-01-11 04:42:38.57	21.58	12.30	-56.1	-70.2	3.8	7.50e-01	0	25	104	0	79	20033
2026-01-11 04:42:39.57	21.44	12.38	-55.5	-69.4	3.9	7.44e-01	0	26	104	0	80	17119
2026-01-11 04:42:40.57	21.31	12.47	-56.0	-70.1	3.8	7.47e-01	0	25	104	0	79	19666
2026-01-11 04:42:41.57	21.18	12.55	-56.5	-71.3	3.8	7.48e-01	0	26	104	0	81	20177
2026-01-11 04:42:42.58	21.04	12.63	-53.0	-65.2	3.9	7.43e-01	0	26	104	0	75	14172
2026-01-11 04:42:43.58	20.91	12.72	-50.9	-62.5	3.8	7.44e-01	0	25	104	0	71	13004
2026-01-11 04:42:44.58	20.77	12.80	-50.7	-62.2	3.9	7.44e-01	0	26	104	0	70	13387
2026-01-11 04:42:45.58	20.63	12.89	-50.0	-61.4	3.9	7.43e-01	0	25	104	0	69	12878
2026-01-11 04:42:46.57	20.50	12.97	-49.6	-61.1	3.9	7.45e-01	0	25	104	0	68	13119
2026-01-11 04:42:47.57	20.36	13.06	-52.0	-63.9	3.8	7.47e-01	0	25	104	0	71	15231
2026-01-11 04:42:48.58	20.22	13.14	-55.9	-69.8	3.8	7.45e-01	0	26	104	0	79	19064
2026-01-11 04:42:49.57	20.08	13.23	-56.5	-71.3	3.8	7.48e-01	0	25	104	0	82	19133
2026-01-11 04:42:50.57	19.94	13.31	-53.0	-65.2	3.9	7.45e-01	0	25	104	0	75	14070
2026-01-11 04:42:51.57	19.80	13.40	-51.2	-62.9	3.8	7.43e-01	0	26	104	0	71	13593
2026-01-11 04:42:52.57	19.65	13.48	-51.3	-63.0	3.8	7.47e-01	0	25	104	0	71	13778
2026-01-11 04:42:53.58	19.51	13.57	-51.1	-62.7	3.9	7.46e-01	0	25	104	0	70	14136
2026-01-11 04:42:54.57	19.36	13.65	-50.7	-62.2	3.9	7.45e-01	0	25	104	0	70	13361
2026-01-11 04:42:55.57	19.22	13.74	-53.3	-65.6	3.8	7.43e-01	0	26	104	0	74	15709
2026-01-11 04:42:56.57	19.07	13.82	-55.8	-69.7	3.9	7.47e-01	0	25	104	0	79	18825
2026-01-11 04:42:57.57	18.92	13.91	-54.5	-67.3	3.9	7.47e-01	0	25	104	0	78	15139
2026-01-11 04:42:58.57	18.77	14.00	-55.5	-69.0	3.8	7.48e-01	0	25	104	0	78	18414
2026-01-11 04:42:59.57	18.62	14.08	-54.1	-66.6	3.9	7.44e-01	0	25	104	0	77	14829
2026-01-11 04:43:00.57	18.47	14.17	-50.7	-62.2	3.8	7.42e-01	0	25	104	0	70	13381
2026-01-11 04:43:01.57	18.32	14.26	-50.6	-62.1	3.9	7.44e-01	0	26	104	0	70	13115
2026-01-11 04:43:02.57	18.17	14.34	-53.9	-66.4	3.8	7.48e-01	0	25	104	0	75	16302
2026-01-11 04:43:03.57	18.02	14.43	-54.4	-67.2	3.9	7.41e-01	0	26	104	0	78	14954
2026-01-11 04:43:04.57	17.86	14.52	-56.0	-69.9	3.8	7.49e-01	0	25	104	0	79	19219
2026-01-11 04:43:05.57	17.71	14.61	-56.6	-71.5	3.8	7.47e-01	0	25	104	0	82	19436
2026-01-11 04:43:06.58	17.55	14.70	-53.0	-65.1	3.9	7.42e-01	0	25	104	0	75	13964
2026-01-11 04:43:07.58	17.39	14.78	-50.8	-62.4	3.8	7.48e-01	0	25	104	0	70	13579
2026-01-11 04:43:08.57	17.23	14.87	-50.6	-62.1	3.8	7.45e-01	0	25	104	0	70	13128
2026-01-11 04:43:09.57	17.07	14.96	-49.9	-61.3	3.9	7.46e-01	0	25	104	0	69	12725
2026-01-11 04:43:10.57	16.91	15.05	-50.5	-62.0	3.8	7.44e-01	0	25	104	0	68	14643
2026-01-11 04:43:11.56	16.75	15.13	-52.0	-63.7	3.8	7.42e-01	0	25	104	0	71	14959
2026-01-11 04:43:12.56	16.59	15.22	-55.8	-69.7	3.8	7.44e-01	0	25	104	0	79	18755
2026-01-11 04:43:13.56	16.43	15.31	-56.6	-71.3	3.9	7.49e-01	0	25	104	0	82	19054
2026-01-11 04:43:14.56	16.26	15.40	-52.9	-65.0	3.9	7.44e-01	0	26	104	0	75	13834
2026-01-11 04:43:15.56	16.10	15.49	-50.8	-62.3	3.9	7.45e-01	0	25	104	0	70	13558
2026-01-11 04:43:16.56	15.93	15.58	-50.6	-62.2	3.9	7.47e-01	0	25	104	0	70	13361
2026-01-11 04:43:17.56	15.76	15.67	-50.0	-61.4	3.8	7.44e-01	0	26	104	0	69	12931
2026-01-11 04:43:18.56	15.59	15.76	-50.2	-61.8	3.8	7.45e-01	0	26	104	0	68	14252
2026-01-11 04:43:19.56	15.42	15.84	-52.8	-65.0	3.8	7.46e-01	0	25	104	0	73	15409
2026-01-11 04:43:20.56	15.25	15.93	-55.9	-69.7	3.8	7.45e-01	0	26	104	0	79	18925
2026-01-11 04:43:21.57	15.08	16.02	-56.7	-71.6	3.9	7.47e-01	0	25	104	0	82	19829
2026-01-11 04:43:22.57	14.90	16.11	-52.9	-65.0	3.9	7.42e-01	0	25	104	0	75	13873
2026-01-11 04:43:23.57	14.73	16.20	-50.7	-62.2	3.8	7.45e-01	0	25	104	0	70	13286
2026-01-11 04:43:24.57	14.55	16.29	-50.5	-62.1	3.8	7.44e-01	0	25	104	0	70	13111
2026-01-11 04:43:25.57	14.38	16.38	-50.4	-61.9	3.9	7.47e-01	0	25	104	0	69	13674
2026-01-11 04:43:26.57	14.20	16.47	-50.0	-61.4	3.8	7.42e-01	0	25	104	0	69	12844
2026-01-11 04:43:27.57	14.02	16.56	-52.6	-64.4	3.8	7.45e-01	0	25	104	0	72	15365
2026-01-11 04:43:28.58	13.84	16.66	-55.9	-69.7	3.8	7.43e-01	0	25	104	0	79	18781
2026-01-11 04:43:29.58	13.65	16.75	-54.6	-67.3	3.9	7.48e-01	0	25	104	0	78	15198
2026-01-11 04:43:30.59	13.47	16.84	-55.3	-68.7	3.8	7.47e-01	0	25	104	0	78	17728
2026-01-11 04:43:31.59	13.29	16.93	-53.7	-65.9	3.9	7.44e-01	0	26	104	0	76	14459
2026-01-11 04:43:32.59	13.10	17.02	-50.4	-61.8	3.9	7.45e-01	0	25	104	0	70	12806
2026-01-11 04:43:33.59	12.91	17.11	-50.2	-61.7	3.8	7.48e-01	0	25	104	0	69	13268
2026-01-11 04:43:34.59	12.73	17.20	-53.9	-66.4	3.8	7.48e-01	0	25	104	0	75	16273
2026-01-11 04:43:35.60	12.54	17.29	-54.7	-67.6	3.9	7.47e-01	0	25	104	0	78	15683
2026-01-11 04:43:36.60	12.34	17.38	-56.3	-70.7	3.8	7.48e-01	0	25	104	0	80	19934
2026-01-11 04:43:37.60	12.15	17.47	-57.0	-72.2	3.8	7.49e-01	0	25	104	0	82	21047
2026-01-11 04:43:38.60	11.96	17.56	-52.3	-64.4	3.9	7.47e-01	0	25	104	0	74	13578
2026-01-11 04:43:39.60	11.77	17.65	-51.5	-63.1	3.8	7.45e-01	0	25	104	0	72	13208
2026-01-11 04:43:40.58	11.58	17.74	-51.6	-63.2	3.8	7.45e-01	0	26	104	0	72	13405
2026-01-11 04:43:41.58	11.38	17.84	-51.6	-63.3	3.8	7.46e-01	0	25	104	0	72	13462
2026-01-11 04:43:42.58	11.18	17.93	-51.6	-63.3	3.8	7.42e-01	0	25	104	0	72	13453
2026-01-11 04:43:43.58	10.98	18.02	-53.4	-65.6	3.8	7.44e-01	0	25	104	0	74	15650
2026-01-11 04:43:44.58	10.78	18.11	-56.0	-69.8	3.8	7.46e-01	0	25	104	0	79	19112
2026-01-11 04:43:45.58	10.58	18.20	-54.7	-67.4	3.9	7.45e-01	0	25	104	0	78	15327
2026-01-11 04:43:46.58	10.38	18.29	-55.4	-68.6	3.8	7.49e-01	0	26	104	0	78	17664
2026-01-11 04:43:47.57	10.18	18.38	-53.6	-65.9	3.9	7.46e-01	0	25	104	0	76	14400
2026-01-11 04:43:48.57	9.97	18.47	-50.4	-61.8	3.8	7.44e-01	0	25	104	0	70	12716
2026-01-11 04:43:49.56	9.77	18.56	-50.2	-61.7	3.8	7.45e-01	0	25	104	0	69	13294
2026-01-11 04:43:50.56	9.56	18.65	-55.5	-68.9	3.8	7.48e-01	0	25	104	0	78	18223
2026-01-11 04:43:51.56	9.35	18.75	-54.9	-67.9	3.9	7.44e-01	0	25	104	0	79	15289
2026-01-11 04:43:52.56	9.14	18.84	-56.0	-69.8	3.8	7.46e-01	0	25	104	0	79	19005
2026-01-11 04:43:53.56	8.93	18.93	-56.9	-71.8	3.8	7.46e-01	0	25	104	0	82	20294
2026-01-11 04:43:54.56	8.71	19.02	-53.1	-65.1	3.9	7.45e-01	0	25	104	0	75	13938
2026-01-11 04:43:55.56	8.50	19.11	-50.6	-62.1	3.8	7.44e-01	0	25	104	0	70	13190
2026-01-11 04:43:56.56	8.28	19.20	-50.4	-61.8	3.8	7.46e-01	0	25	104	0	70	12810
2026-01-11 04:43:57.56	8.06	19.29	-49.8	-61.2	3.8	7.43e-01	0	26	104	0	68	13275
2026-01-11 04:43:58.56	7.84	19.38	-49.7	-61.1	3.9	7.43e-01	0	26	104	0	68	13138
2026-01-11 04:43:59.56	7.62	19.47	-52.6	-64.6	3.9	7.49e-01	0	26	104	0	72	15637
2026-01-11 04:44:00.56	7.40	19.56	-56.0	-69.8	3.8	7.47e-01	0	25	104	0	79	19083
2026-01-11 04:44:01.56	7.18	19.66	-57.0	-72.1	3.8	7.46e-01	0	25	104	0	82	20855
2026-01-11 04:44:02.57	6.95	19.75	-53.6	-65.9	3.9	7.43e-01	0	26	104	0	76	14393
2026-01-11 04:44:03.56	6.73	19.84	-51.3	-63.0	3.8	7.43e-01	0	25	104	0	71	13803
2026-01-11 04:44:04.57	6.50	19.93	-51.4	-63.0	3.9	7.45e-01	0	25	104	0	71	13840
2026-01-11 04:44:05.57	6.27	20.02	-51.3	-62.9	3.8	7.45e-01	0	25	104	0	71	13611
2026-01-11 04:44:06.58	6.04	20.11	-51.5	-63.1	3.9	7.47e-01	0	25	104	0	71	14026
2026-01-11 04:44:07.58	5.80	20.20	-53.3	-65.4	3.8	7.46e-01	0	26	104	0	74	15375
2026-01-11 04:44:08.58	5.57	20.29	-56.2	-70.1	3.8	7.45e-01	0	26	104	0	79	19622
2026-01-11 04:44:09.59	5.33	20.38	-54.7	-67.3	3.9	7.43e-01	0	26	104	0	78	15196
2026-01-11 04:44:10.59	5.10	20.47	-55.3	-68.5	3.8	7.43e-01	0	26	104	0	78	17419
2026-01-11 04:44:11.59	4.86	20.56	-53.6	-65.8	3.9	7.46e-01	0	25	104	0	76	14288
2026-01-11 04:44:12.60	4.62	20.65	-50.6	-62.1	3.9	7.42e-01	0	25	104	0	70	13232
2026-01-11 04:44:13.60	4.38	20.74	-50.5	-62.0	3.8	7.42e-01	0	25	104	0	70	13035
2026-01-11 04:44:14.60	4.14	20.83	-56.1	-69.9	3.8	7.48e-01	0	26	104	0	79	19384
2026-01-11 04:44:15.60	3.89	20.92	-55.2	-68.5	3.9	7.44e-01	0	26	104	0	79	16338
2026-01-11 04:44:16.60	3.65	21.01	-56.5	-70.8	3.8	7.48e-01	0	26	104	0	80	20222
2026-01-11 04:44:17.59	3.40	21.09	-57.2	-72.5	3.8	7.45e-01	0	26	104	0	83	20670
2026-01-11 04:44:18.59	3.15	21.18	-53.6	-65.8	3.9	7.44e-01	0	25	104	0	76	14369
2026-01-11 04:44:19.59	2.90	21.27	-51.2	-62.8	3.9	7.43e-01	0	26	104	0	71	13522
2026-01-11 04:44:20.60	2.65	21.36	-51.0	-62.5	3.9	7.45e-01	0	25	104	0	71	13063
2026-01-11 04:44:21.60	2.40	21.45	-50.4	-61.8	3.9	7.43e-01	0	25	104	0	70	12761
2026-01-11 04:44:22.59	2.15	21.53	-50.2	-61.7	3.8	7.43e-01	0	25	104	0	69	13273
2026-01-11 04:44:23.59	1.89	21.62	-52.4	-64.3	3.9	7.47e-01	0	25	104	0	72	15059
2026-01-11 04:44:24.59	1.63	21.71	-56.3	-70.4	3.8	7.47e-01	0	25	104	0	80	19309
2026-01-11 04:44:25.59	1.37	21.80	-54.0	-66.5	3.9	7.47e-01	0	25	104	0	77	14632
2026-01-11 04:44:26.59	1.11	21.88	-55.3	-68.5	3.8	7.48e-01	0	25	104	0	78	17376
2026-01-11 04:44:27.59	0.85	21.97	-53.3	-65.5	3.9	7.47e-01	0	26	104	0	76	13799
2026-01-11 04:44:28.59	0.59	22.05	-50.4	-61.9	3.8	7.48e-01	0	25	104	0	69	13578
2026-01-11 04:44:29.58	0.33	22.14	-50.3	-61.7	3.9	7.44e-01	0	25	104	0	69	13350
2026-01-11 04:44:30.59	0.06	22.22	-55.4	-68.7	3.8	7.47e-01	0	26	104	0	78	17872
2026-01-11 04:44:31.59	359.79	22.31	-55.7	-69.2	3.9	7.44e-01	0	25	104	0	80	16759
2026-01-11 04:44:32.59	359.52	22.39	-56.2	-70.4	3.9	7.49e-01	0	26	104	0	80	19271
2026-01-11 04:44:33.59	359.25	22.48	-57.2	-72.7	3.8	7.43e-01	0	26	104	0	83	21039
2026-01-11 04:44:34.59	358.97	22.56	-53.7	-65.8	3.9	7.47e-01	0	25	104	0	76	14232
2026-01-11 04:44:35.60	358.70	22.65	-51.3	-62.8	3.8	7.46e-01	0	25	104	0	71	13561
2026-01-11 04:44:36.60	358.42	22.73	-51.3	-62.8	3.8	7.45e-01	0	25	104	0	71	13561
2026-01-11 04:44:37.60	358.14	22.81	-51.4	-63.1	3.8	7.47e-01	0	25	104	0	71	13965
2026-01-11 04:44:38.61	357.86	22.89	-50.6	-62.1	3.8	7.47e-01	0	25	104	0	70	13219
2026-01-11 04:44:39.61	357.58	22.98	-53.0	-65.0	3.8	7.49e-01	0	25	104	0	73	15462
2026-01-11 04:44:40.61	357.30	23.06	-56.9	-71.6	3.8	7.49e-01	0	25	104	0	81	20856
2026-01-11 04:44:41.60	357.02	23.14	-54.2	-66.5	3.9	7.44e-01	0	26	104	0	77	14602
2026-01-11 04:44:42.61	356.73	23.22	-56.0	-69.6	3.8	7.47e-01	0	25	104	0	79	18633
2026-01-11 04:44:43.61	356.44	23.30	-53.0	-65.0	3.9	7.41e-01	0	25	104	0	75	13862
2026-01-11 04:44:44.61	356.15	23.38	-50.9	-62.4	3.8	7.46e-01	0	25	104	0	71	12938
2026-01-11 04:44:45.61	355.86	23.46	-50.9	-62.5	3.9	7.47e-01	0	25	104	0	70	13768
2026-01-11 04:44:46.61	355.57	23.53	-57.1	-72.4	3.8	7.50e-01	0	25	104	0	81	22807
2026-01-11 04:44:47.60	355.28	23.61	-55.8	-69.2	3.8	7.47e-01	0	26	104	0	80	16766
2026-01-11 04:44:48.60	354.99	23.69	-56.7	-71.4	3.9	7.50e-01	0	26	104	0	81	20501
2026-01-11 04:44:49.60	354.69	23.77	-57.4	-73.1	3.8	7.46e-01	0	25	104	0	83	22078
2026-01-11 04:44:50.61	354.39	23.84	-52.9	-64.9	3.9	7.41e-01	0	25	104	0	75	13711
2026-01-11 04:44:51.61	354.09	23.92	-51.3	-62.8	3.8	7.42e-01	0	25	104	0	71	13568
2026-01-11 04:44:52.61	353.79	23.99	-51.2	-62.8	3.8	7.45e-01	0	25	104	0	71	13467
2026-01-11 04:44:53.61	353.49	24.07	-50.8	-62.2	3.8	7.44e-01	0	26	104	0	70	13378
2026-01-11 04:44:54.61	353.19	24.14	-50.9	-62.4	3.8	7.42e-01	0	26	104	0	70	13705
2026-01-11 04:44:55.61	352.88	24.22	-52.9	-64.8	3.8	7.45e-01	0	26	104	0	73	15129
2026-01-11 04:44:56.60	352.58	24.29	-56.9	-71.7	3.8	7.48e-01	0	25	104	0	81	21108
2026-01-11 04:44:57.60	352.27	24.36	-54.1	-66.5	3.9	7.46e-01	0	25	104	0	77	14624
2026-01-11 04:44:58.60	351.96	24.43	-56.0	-69.6	3.8	7.46e-01	0	25	104	0	79	18539
2026-01-11 04:44:59.59	351.65	24.50	-53.9	-66.3	3.9	7.44e-01	0	25	104	0	77	14316
2026-01-11 04:45:00.59	351.34	24.57	-51.2	-62.6	3.8	7.44e-01	0	26	104	0	71	13221
2026-01-11 04:45:01.59	351.02	24.64	-51.0	-62.5	3.8	7.48e-01	0	25	104	0	71	13046
2026-01-11 04:45:02.59	350.71	24.71	-55.9	-69.5	3.8	7.46e-01	0	26	104	0	79	18349
2026-01-11 04:45:03.59	350.39	24.78	-56.0	-69.7	3.9	7.41e-01	0	26	104	0	81	16735
2026-01-11 04:45:04.59	350.07	24.84	-56.3	-70.3	3.8	7.46e-01	0	26	104	0	80	18990
2026-01-11 04:45:05.59	349.75	24.91	-57.4	-73.1	3.8	7.47e-01	0	26	104	0	83	22109
2026-01-11 04:45:06.59	349.43	24.98	-53.7	-65.8	3.9	7.47e-01	0	25	104	0	76	14247
2026-01-11 04:45:07.59	349.11	25.04	-51.1	-62.6	3.8	7.46e-01	0	26	104	0	71	13119
2026-01-11 04:45:08.59	348.79	25.10	-50.9	-62.4	3.8	7.46e-01	0	25	104	0	71	12825
2026-01-11 04:45:09.60	348.46	25.17	-50.2	-61.6	3.8	7.45e-01	0	25	104	0	69	13136
2026-01-11 04:45:10.60	348.13	25.23	-50.0	-61.3	3.8	7.48e-01	0	25	104	0	68	13457
2026-01-11 04:45:11.60	347.80	25.29	-52.7	-64.8	3.8	7.46e-01	0	26	104	0	73	15119
2026-01-11 04:45:12.61	347.47	25.35	-57.1	-72.2	3.8	7.48e-01	0	25	104	0	81	22491
2026-01-11 04:45:13.60	347.14	25.41	-53.4	-65.5	3.9	7.42e-01	0	25	104	0	76	13846
2026-01-11 04:45:14.61	346.81	25.47	-55.9	-69.4	3.8	7.45e-01	0	25	104	0	79	18126
2026-01-11 04:45:15.61	346.47	25.53	-52.1	-63.8	3.9	7.47e-01	0	26	104	0	73	13488
2026-01-11 04:45:16.61	346.14	25.59	-50.0	-61.3	3.9	7.44e-01	0	25	104	0	69	12794
2026-01-11 04:45:17.61	345.80	25.64	-49.8	-61.1	3.9	7.45e-01	0	26	104	0	68	13252
2026-01-11 04:45:18.60	345.47	25.70	-56.2	-69.4	3.8	7.51e-01	0	26	104	0	79	18281
2026-01-11 04:45:19.60	345.13	25.75	-55.3	-68.3	3.8	7.45e-01	0	25	104	0	79	16032
2026-01-11 04:45:20.60	344.79	25.81	-56.8	-71.3	3.8	7.49e-01	0	25	104	0	81	20074
2026-01-11 04:45:21.60	344.45	25.86	-57.7	-73.8	3.8	7.46e-01	0	25	104	0	83	23867
2026-01-11 04:45:22.60	344.11	25.91	-52.1	-63.7	3.9	7.43e-01	0	26	104	0	73	13385
2026-01-11 04:45:23.61	343.76	25.96	-50.2	-61.7	3.8	7.47e-01	0	25	104	0	69	13302
2026-01-11 04:45:24.61	343.42	26.01	-50.1	-61.4	3.9	7.46e-01	0	25	104	0	69	12956
2026-01-11 04:45:25.61	343.07	26.06	-50.1	-61.5	3.8	7.45e-01	0	25	104	0	69	13011
2026-01-11 04:45:26.61	342.72	26.11	-49.8	-61.1	3.8	7.45e-01	0	25	104	0	68	13156
2026-01-11 04:45:27.61	342.38	26.15	-52.6	-64.4	3.8	7.49e-01	0	25	104	0	72	15345
2026-01-11 04:45:28.61	342.03	26.20	-57.2	-72.5	3.8	7.47e-01	0	25	104	0	82	21911
2026-01-11 04:45:29.61	341.68	26.24	-53.1	-65.1	3.9	7.43e-01	0	25	104	0	75	13903
2026-01-11 04:45:30.62	341.32	26.29	-55.9	-69.3	3.8	7.48e-01	0	25	104	0	79	17983
2026-01-11 04:45:31.62	340.97	26.33	-52.1	-63.8	3.9	7.45e-01	0	25	104	0	73	13492
2026-01-11 04:45:32.63	340.62	26.37	-50.0	-61.4	3.9	7.47e-01	0	25	104	0	69	12823
2026-01-11 04:45:33.63	340.26	26.41	-49.5	-60.8	3.8	7.48e-01	0	26	104	0	68	12703
2026-01-11 04:45:34.63	339.91	26.45	-54.6	-67.2	3.8	7.46e-01	0	26	104	0	76	16708
2026-01-11 04:45:35.63	339.55	26.49	-54.9	-67.7	3.8	7.49e-01	0	25	104	0	78	15804
2026-01-11 04:45:36.63	339.20	26.52	-56.9	-71.5	3.8	7.49e-01	0	26	104	0	81	20556
2026-01-11 04:45:37.63	338.84	26.56	-57.8	-74.0	3.8	7.48e-01	0	25	104	0	83	24635
2026-01-11 04:45:38.63	338.48	26.59	-52.1	-63.8	3.9	7.45e-01	0	26	104	0	73	13458
2026-01-11 04:45:39.63	338.12	26.63	-50.1	-61.5	3.8	7.47e-01	0	25	104	0	69	13077
2026-01-11 04:45:40.64	337.76	26.66	-50.1	-61.4	3.8	7.41e-01	0	26	104	0	69	12829
2026-01-11 04:45:41.63	337.40	26.69	-50.0	-61.4	3.9	7.48e-01	0	25	104	0	69	12864
2026-01-11 04:45:42.63	337.04	26.72	-50.0	-61.2	3.8	7.45e-01	0	26	104	0	69	12654
2026-01-11 04:45:43.62	336.68	26.75	-52.8	-64.7	3.8	7.43e-01	0	26	104	0	73	14948
2026-01-11 04:45:44.62	336.32	26.78	-57.4	-72.7	3.8	7.47e-01	0	25	104	0	82	22321
2026-01-11 04:45:45.62	335.96	26.80	-53.0	-65.0	3.9	7.44e-01	0	25	104	0	75	13731
2026-01-11 04:45:46.63	335.59	26.83	-56.0	-69.4	3.8	7.46e-01	0	25	104	0	79	18235
2026-01-11 04:45:47.63	335.22	26.85	-52.0	-63.7	3.9	7.44e-01	0	26	104	0	73	13391
2026-01-11 04:45:48.63	334.86	26.87	-50.1	-61.3	3.9	7.45e-01	0	25	104	0	69	12774
2026-01-11 04:45:49.62	334.50	26.89	-50.1	-61.5	3.8	7.41e-01	0	25	104	0	69	12990
2026-01-11 04:45:50.62	334.13	26.91	-55.9	-69.3	3.8	7.44e-01	0	25	104	0	79	17998
2026-01-11 04:45:51.62	333.77	26.93	-55.4	-68.4	3.8	7.45e-01	0	25	104	0	80	15378
2026-01-11 04:45:52.62	333.40	26.95	-57.0	-71.6	3.8	7.49e-01	0	25	104	0	81	20852
2026-01-11 04:45:53.62	333.03	26.97	-58.1	-74.4	3.8	7.48e-01	0	25	104	0	84	24152
2026-01-11 04:45:54.62	332.66	26.98	-52.1	-63.8	3.9	7.47e-01	0	26	104	0	73	13528
2026-01-11 04:45:55.62	332.30	27.00	-50.1	-61.5	3.8	7.47e-01	0	25	104	0	69	13056
2026-01-11 04:45:56.62	331.93	27.01	-49.9	-61.2	3.8	7.49e-01	0	25	104	0	69	12633
2026-01-11 04:45:57.62	331.56	27.02	-49.5	-60.8	3.8	7.44e-01	0	25	104	0	68	12788
2026-01-11 04:45:58.62	331.19	27.03	-50.0	-61.4	3.8	7.45e-01	0	25	104	0	68	13650
2026-01-11 04:45:59.61	330.83	27.04	-52.5	-64.2	3.8	7.45e-01	0	25	104	0	72	15038
2026-01-11 04:46:00.61	330.46	27.05	-57.5	-73.0	3.8	7.48e-01	0	25	104	0	82	23059
2026-01-11 04:46:01.62	330.08	27.05	-53.0	-64.9	3.9	7.44e-01	0	25	104	0	75	13598
2026-01-11 04:46:02.62	329.71	27.06	-56.0	-69.3	3.8	7.45e-01	0	25	104	0	79	18047
2026-01-11 04:46:03.62	329.34	27.06	-52.1	-63.8	3.8	7.42e-01	0	26	104	0	73	13497
2026-01-11 04:46:04.62	328.97	27.06	-50.0	-61.4	3.8	7.44e-01	0	25	104	0	69	12917
2026-01-11 04:46:05.62	328.60	27.07	-49.6	-60.9	3.8	7.43e-01	0	25	104	0	68	12817
2026-01-11 04:46:06.63	328.23	27.07	-54.6	-67.1	3.8	7.47e-01	0	25	104	0	76	16545
2026-01-11 04:46:07.63	327.86	27.06	-55.0	-67.8	3.8	7.47e-01	0	25	104	0	78	16098
2026-01-11 04:46:08.63	327.49	27.06	-57.7	-72.4	3.8	7.49e-01	0	25	104	0	82	21702
2026-01-11 04:46:09.63	327.12	27.06	-58.1	-74.6	3.8	7.45e-01	0	25	104	0	84	24705
2026-01-11 04:46:10.64	326.75	27.05	-52.0	-63.7	3.9	7.45e-01	0	25	104	0	73	13397
2026-01-11 04:46:11.64	326.38	27.05	-50.2	-61.6	3.8	7.46e-01	0	26	104	0	69	13239
2026-01-11 04:46:12.64	326.01	27.04	-50.0	-61.4	3.8	7.46e-01	0	25	104	0	69	12860
2026-01-11 04:46:13.64	325.64	27.03	-49.7	-61.0	3.8	7.43e-01	0	25	104	0	68	12966
2026-01-11 04:46:14.64	325.27	27.02	-50.1	-61.5	3.8	7.45e-01	0	25	104	0	68	13743
2026-01-11 04:46:15.64	324.90	27.01	-52.6	-64.4	3.8	7.50e-01	0	25	104	0	72	15325
2026-01-11 04:46:16.64	324.53	26.99	-57.5	-73.0	3.8	7.47e-01	0	26	104	0	82	23222
2026-01-11 04:46:17.64	324.17	26.98	-53.0	-65.0	3.9	7.47e-01	0	26	104	0	75	13738
2026-01-11 04:46:18.64	323.80	26.96	-56.2	-70.1	3.8	7.48e-01	0	25	104	0	80	18574
2026-01-11 04:46:19.64	323.43	26.95	-52.1	-63.8	3.9	7.44e-01	0	25	104	0	73	13434
2026-01-11 04:46:20.65	323.06	26.93	-49.9	-61.3	3.8	7.42e-01	0	25	104	0	69	12733
2026-01-11 04:46:21.64	322.70	26.91	-49.9	-61.2	3.8	7.45e-01	0	25	104	0	68	13377
2026-01-11 04:46:22.64	322.33	26.89	-56.4	-70.2	3.8	7.47e-01	0	25	104	0	80	18940
2026-01-11 04:46:23.65	321.96	26.87	-55.6	-68.8	3.8	7.43e-01	0	26	104	0	80	15976
2026-01-11 04:46:24.65	321.60	26.85	-57.6	-73.1	3.8	7.45e-01	0	25	104	0	82	23366
2026-01-11 04:46:25.65	321.23	26.82	-58.3	-75.3	3.8	7.46e-01	0	26	104	0	84	26850
2026-01-11 04:46:26.64	320.87	26.80	-52.0	-63.7	3.8	7.49e-01	0	25	104	0	73	13384
2026-01-11 04:46:27.64	320.51	26.77	-50.3	-61.5	3.8	7.46e-01	0	25	104	0	69	13101
2026-01-11 04:46:28.65	320.14	26.74	-50.4	-61.6	3.8	7.47e-01	0	26	104	0	69	13222
2026-01-11 04:46:29.64	319.79	26.71	-50.6	-62.2	3.8	7.45e-01	0	25	104	0	69	14207
2026-01-11 04:46:30.64	319.42	26.68	-50.4	-62.0	3.8	7.47e-01	0	25	104	0	69	13815
2026-01-11 04:46:31.64	319.06	26.65	-53.7	-65.5	3.9	7.46e-01	0	25	104	0	74	15515
2026-01-11 04:46:32.63	318.71	26.62	-57.6	-73.1	3.8	7.46e-01	0	25	104	0	82	23425
2026-01-11 04:46:33.63	318.35	26.59	-53.8	-65.9	3.9	7.48e-01	0	25	104	0	77	13671
2026-01-11 04:46:34.63	317.99	26.55	-56.5	-70.9	3.8	7.45e-01	0	25	104	0	80	20455
2026-01-11 04:46:35.62	317.64	26.52	-52.9	-65.4	3.9	7.45e-01	0	25	104	0	75	14450
2026-01-11 04:46:36.62	317.28	26.48	-50.3	-61.3	3.8	7.45e-01	0	25	104	0	69	12725
2026-01-11 04:46:37.62	316.92	26.44	-50.2	-60.8	3.8	7.44e-01	0	25	104	0	69	12009
2026-01-11 04:46:38.62	316.57	26.40	-57.9	-74.2	3.7	7.52e-01	0	26	104	0	83	25248
2026-01-11 04:46:39.63	316.21	26.36	-55.9	-70.2	3.8	7.41e-01	0	26	104	0	81	17847
2026-01-11 04:46:40.62	315.86	26.32	-57.5	-73.0	3.7	7.46e-01	0	25	104	0	82	23286
2026-01-11 04:46:41.63	315.51	26.28	-58.1	-66.9	9.5	6.21e-01	0	25	0	524288	84	10220
2026-01-11 04:46:42.62	315.16	26.24	-51.3	-53.2	15.5	6.04e-01	0	26	0	2097152	72	4239
2026-01-11 04:46:43.62	314.81	26.19	-50.6	-52.5	15.4	6.04e-01	0	25	0	4194304	69	4606
2026-01-11 04:46:44.61	314.47	26.15	-50.2	-52.0	15.5	6.03e-01	0	25	0	6291456	68	4625
2026-01-11 04:46:45.61	314.12	26.10	-49.2	-50.8	15.7	6.03e-01	0	25	0	7864320	67	4280
2026-01-11 04:46:46.60	313.77	26.05	-49.7	-51.3	15.6	6.02e-01	0	25	0	9961472	68	4291
2026-01-11 04:46:47.60	313.43	26.00	-50.6	-52.5	15.4	6.05e-01	0	25	0	11534336	69	4615
2026-01-11 04:46:48.59	313.09	25.95	-49.9	-51.7	15.5	6.04e-01	0	25	0	13631488	67	4718
2026-01-11 04:46:49.59	312.74	25.90	-49.5	-51.1	15.8	6.01e-01	0	26	0	15204352	68	4156
2026-01-11 04:46:50.58	312.41	25.85	-49.7	-51.4	15.6	6.05e-01	0	25	0	17301504	68	4303
2026-01-11 04:46:51.58	312.06	25.80	-50.2	-52.0	15.5	6.04e-01	0	25	0	18874368	68	4609
2026-01-11 04:46:52.59	311.72	25.74	-49.8	-51.5	15.5	6.06e-01	0	25	0	20971520	67	4643
2026-01-11 04:46:53.59	311.38	25.69	-49.5	-51.2	15.7	6.05e-01	0	25	0	23068672	68	4209
2026-01-11 04:46:54.58	311.05	25.64	-49.8	-51.4	15.6	6.01e-01	0	26	0	24641536	68	4337
2026-01-11 04:46:55.58	310.71	25.58	-49.5	-51.2	15.7	6.05e-01	0	25	0	26738688	68	4198
2026-01-11 04:46:56.57	310.38	25.52	-49.4	-51.1	15.7	6.03e-01	0	25	0	28311552	68	4151
2026-01-11 04:46:57.57	310.05	25.46	-50.1	-51.9	15.4	6.03e-01	0	25	0	30408704	67	4827
2026-01-11 04:46:58.57	309.71	25.40	-49.9	-51.7	15.5	6.04e-01	0	25	0	32505856	67	4718
2026-01-11 04:46:59.57	309.38	25.34	-49.5	-51.1	15.6	6.03e-01	0	25	0	34078720	67	4427
2026-01-11 04:47:00.56	309.06	25.28	-49.7	-51.5	15.5	6.03e-01	0	26	0	36175872	67	4599
2026-01-11 04:47:01.56	308.73	25.22	-49.8	-51.5	15.5	6.01e-01	0	26	0	37748736	67	4629
2026-01-11 04:47:02.56	308.40	25.16	-49.5	-51.1	15.6	6.04e-01	0	25	0	39845888	67	4441
2026-01-11 04:47:03.56	308.08	25.10	-49.5	-51.1	15.6	6.03e-01	0	25	0	41418752	67	4416
2026-01-11 04:47:04.56	307.75	25.03	-49.6	-51.3	15.6	6.03e-01	0	25	0	43515904	67	4500
2026-01-11 04:47:05.56	307.43	24.97	-49.6	-51.3	15.5	6.04e-01	0	25	0	45613056	67	4538
2026-01-11 04:47:06.56	307.11	24.90	-50.0	-51.7	15.4	6.06e-01	0	25	0	47185920	67	4748
2026-01-11 04:47:07.57	306.78	24.83	-49.4	-51.1	15.6	6.01e-01	0	25	0	49283072	67	4406
2026-01-11 04:47:08.57	306.46	24.77	-49.2	-50.8	15.7	6.03e-01	0	25	0	50855936	67	4271
2026-01-11 04:47:09.56	306.15	24.70	-50.1	-51.9	15.5	6.03e-01	0	25	0	52953088	68	4568
2026-01-11 04:47:10.56	305.83	24.63	-50.2	-52.0	15.5	6.02e-01	0	25	0	54525952	68	4621
2026-01-11 04:47:11.57	305.52	24.56	-49.5	-51.1	15.8	6.04e-01	0	25	0	56623104	68	4193
2026-01-11 04:47:12.57	305.20	24.49	-49.5	-51.2	15.7	6.03e-01	0	25	0	58720256	68	4197
2026-01-11 04:47:13.57	304.89	24.42	-49.8	-51.5	15.6	6.01e-01	0	25	0	60293120	68	4384
2026-01-11 04:47:14.57	304.58	24.35	-50.0	-51.7	15.5	6.00e-01	0	25	0	62390272	68	4490
2026-01-11 04:47:15.57	304.27	24.28	-49.2	-50.8	15.7	6.02e-01	0	25	0	63963136	67	4280
2026-01-11 04:47:16.58	303.96	24.20	-49.9	-51.7	15.5	6.04e-01	0	26	0	66060288	68	4450
2026-01-11 04:47:17.58	303.66	24.13	-50.3	-52.2	15.4	6.03e-01	0	25	0	67633152	68	4713
2026-01-11 04:47:18.57	303.36	24.06	-48.9	-50.4	15.8	6.02e-01	0	25	0	69730304	67	4087
2026-01-11 04:47:19.57	303.05	23.98	-50.1	-51.9	15.4	6.05e-01	0	25	0	71827456	68	4590
2026-01-11 04:47:20.57	302.75	23.91	-49.9	-51.6	15.4	6.02e-01	0	25	0	73400320	67	4693
2026-01-11 04:47:21.57	302.45	23.83	-49.2	-50.8	15.7	6.03e-01	0	25	0	75497472	67	4243
2026-01-11 04:47:22.56	302.16	23.75	-50.2	-52.0	15.4	6.04e-01	0	25	0	77070336	68	4623
2026-01-11 04:47:23.57	301.86	23.68	-50.0	-51.8	15.5	6.02e-01	0	25	0	79167488	68	4503
2026-01-11 04:47:24.57	301.56	23.60	-49.5	-51.1	15.7	6.05e-01	0	25	0	80740352	68	4162
2026-01-11 04:47:25.56	301.27	23.52	-50.1	-51.9	15.5	6.03e-01	0	26	0	82837504	68	4585
2026-01-11 04:47:26.56	300.98	23.44	-49.7	-51.4	15.5	6.03e-01	0	25	0	84934656	67	4593
2026-01-11 04:47:27.55	300.69	23.37	-49.7	-51.4	15.7	6.04e-01	0	25	0	86507520	68	4305
2026-01-11 04:47:28.56	300.40	23.28	-50.6	-52.5	15.3	6.04e-01	0	25	0	88604672	68	4872
2026-01-11 04:47:29.56	300.12	23.20	-49.4	-51.0	15.7	6.03e-01	0	25	0	90177536	67	4353
2026-01-11 04:47:30.55	299.83	23.13	-50.0	-51.8	15.5	6.04e-01	0	25	0	92274688	68	4514
2026-01-11 04:47:31.55	299.55	23.04	-49.8	-51.6	15.4	6.03e-01	0	25	0	94371840	67	4668
2026-01-11 04:47:32.55	299.27	22.96	-49.7	-51.3	15.6	6.01e-01	0	25	0	95944704	68	4290
2026-01-11 04:47:33.55	298.99	22.88	-50.1	-51.8	15.5	6.02e-01	0	25	0	98041856	68	4522
2026-01-11 04:47:34.54	298.71	22.80	-50.3	-52.0	15.5	6.03e-01	0	25	0	99614720	68	4636
2026-01-11 04:47:35.55	298.43	22.72	-50.2	-52.0	15.5	6.05e-01	0	25	0	101711872	68	4606
2026-01-11 04:47:36.55	298.15	22.63	-50.1	-51.9	15.5	6.05e-01	0	25	0	103284736	68	4546
2026-01-11 04:47:37.55	297.88	22.55	-50.2	-52.0	15.5	6.02e-01	0	25	0	105381888	68	4608
2026-01-11 04:47:38.55	297.60	22.46	-50.5	-52.4	15.4	6.03e-01	0	25	0	107479040	68	4840
2026-01-11 04:47:39.55	297.33	22.38	-49.8	-51.5	15.6	6.03e-01	0	25	0	109051904	68	4348
2026-01-11 04:47:40.55	297.06	22.30	-49.8	-51.6	15.6	6.04e-01	0	25	0	111149056	68	4402
2026-01-11 04:47:41.54	296.80	22.21	-49.8	-51.5	15.6	6.04e-01	0	25	0	112721920	68	4372
2026-01-11 04:47:42.54	296.53	22.13	-50.3	-52.1	15.4	6.04e-01	0	25	0	114819072	68	4688
2026-01-11 04:47:43.54	296.26	22.04	-49.5	-51.1	15.8	6.07e-01	0	25	0	116391936	68	4152
2026-01-11 04:47:44.55	296.00	21.95	-50.0	-51.8	15.5	6.06e-01	0	25	0	118489088	68	4520
2026-01-11 04:47:45.54	295.74	21.87	-49.5	-51.1	15.8	6.04e-01	0	25	0	120061952	68	4151
2026-01-11 04:47:46.55	295.47	21.78	-50.4	-52.3	15.4	6.04e-01	0	25	0	122159104	68	4765
2026-01-11 04:47:47.55	295.21	21.69	-49.8	-51.4	15.6	6.02e-01	0	25	0	124256256	68	4330
2026-01-11 04:47:48.54	294.96	21.61	-50.3	-52.1	15.4	6.05e-01	0	25	0	125829120	68	4684
2026-01-11 04:47:49.54	294.70	21.52	-49.6	-51.3	15.7	6.02e-01	0	25	0	127926272	68	4250
2026-01-11 04:47:50.54	294.45	21.43	-49.5	-51.2	15.7	6.02e-01	0	25	0	129499136	68	4194
2026-01-11 04:47:51.54	294.19	21.34	-50.0	-51.8	15.5	6.04e-01	0	25	0	131596288	68	4512
2026-01-11 04:47:52.55	293.94	21.26	-49.9	-51.6	15.6	6.05e-01	0	25	0	133693440	68	4407
2026-01-11 04:47:53.55	293.69	21.17	-50.0	-51.7	15.6	6.03e-01	0	25	0	135266304	68	4467
2026-01-11 04:47:54.54	293.44	21.08	-49.7	-51.4	15.6	6.05e-01	0	25	0	137363456	68	4323
2026-01-11 04:47:55.54	293.20	20.99	-49.8	-51.5	15.6	6.05e-01	0	25	0	138936320	68	4375
2026-01-11 04:47:56.53	292.95	20.90	-49.8	-51.5	15.6	6.00e-01	0	25	0	141033472	68	4358
2026-01-11 04:47:57.53	292.71	20.81	-49.6	-51.3	15.7	6.02e-01	0	25	0	142606336	68	4274
2026-01-11 04:47:58.53	292.47	20.72	-50.0	-51.7	15.5	6.02e-01	0	25	0	144703488	68	4486
2026-01-11 04:47:59.52	292.23	20.64	-49.2	-50.8	15.7	6.02e-01	0	25	0	146276352	67	4279
2026-01-11 04:48:00.52	291.99	20.55	-49.8	-51.6	15.5	6.03e-01	0	25	0	148373504	67	4673
2026-01-11 04:48:01.53	291.75	20.46	-50.0	-51.8	15.5	6.04e-01	0	25	0	150470656	68	4522
2026-01-11 04:48:02.53	291.51	20.37	-49.4	-51.1	15.8	6.04e-01	0	25	0	152043520	68	4146
2026-01-11 04:48:03.53	291.28	20.27	-50.0	-51.8	15.5	6.04e-01	0	25	0	154140672	68	4502
2026-01-11 04:48:04.53	291.04	20.18	-49.5	-51.1	15.7	6.02e-01	0	25	0	155713536	68	4177
2026-01-11 04:48:05.52	290.81	20.10	-49.6	-51.2	15.6	6.06e-01	0	25	0	157810688	67	4490
2026-01-11 04:48:06.52	290.58	20.00	-50.0	-51.8	15.4	6.02e-01	0	25	0	159907840	67	4814
2026-01-11 04:48:07.52	290.35	19.91	-49.4	-51.0	15.6	6.02e-01	0	25	0	161480704	67	4362
2026-01-11 04:48:08.52	290.12	19.82	-49.6	-51.2	15.5	6.03e-01	0	25	0	163577856	67	4488
2026-01-11 04:48:09.51	289.90	19.73	-50.2	-52.0	15.5	6.03e-01	0	25	0	165150720	68	4609
2026-01-11 04:48:10.52	289.67	19.64	-49.7	-51.3	15.7	6.04e-01	0	25	0	167247872	68	4290
2026-01-11 04:48:11.52	289.45	19.55	-49.8	-51.5	15.7	6.02e-01	0	25	0	168820736	68	4346
2026-01-11 04:48:12.53	289.22	19.46	-50.0	-51.8	15.5	6.04e-01	0	25	0	170917888	68	4500
2026-01-11 04:48:13.53	289.00	19.37	-49.6	-51.2	15.7	6.04e-01	0	25	0	173015040	68	4228
2026-01-11 04:48:14.52	288.79	19.28	-49.6	-51.3	15.7	6.04e-01	0	25	0	174587904	68	4271
2026-01-11 04:48:15.53	288.56	19.19	-50.2	-52.0	15.5	6.04e-01	0	25	0	176685056	68	4620
2026-01-11 04:48:16.53	288.35	19.09	-49.9	-51.7	15.5	6.03e-01	0	25	0	178257920	68	4444
2026-01-11 04:48:17.53	288.13	19.00	-49.9	-51.7	15.6	6.03e-01	0	25	0	180355072	68	4447
2026-01-11 04:48:18.53	287.92	18.91	-50.6	-52.5	15.3	6.07e-01	0	25	0	181927936	68	4886
2026-01-11 04:48:19.53	287.71	18.82	-50.2	-52.0	15.4	6.03e-01	0	25	0	184025088	68	4618
2026-01-11 04:48:20.53	287.49	18.73	-50.1	-51.9	15.5	6.03e-01	0	25	0	186122240	68	4563
2026-01-11 04:48:21.52	287.29	18.64	-50.2	-52.0	15.4	6.04e-01	0	25	0	187695104	68	4649
2026-01-11 04:48:22.52	287.08	18.55	-50.3	-52.2	15.4	6.06e-01	0	25	0	189792256	68	4719
2026-01-11 04:48:23.53	286.87	18.45	-49.3	-50.9	15.7	6.02e-01	0	25	0	191365120	67	4334
2026-01-11 04:48:24.52	286.67	18.36	-49.0	-50.6	15.8	6.03e-01	0	25	0	193462272	67	4161
2026-01-11 04:48:25.53	286.46	18.27	-49.6	-51.4	15.5	6.02e-01	0	25	0	195035136	67	4573
2026-01-11 04:48:26.53	286.26	18.18	-49.8	-51.6	15.4	6.04e-01	0	25	0	197132288	67	4696
2026-01-11 04:48:27.53	286.05	18.09	-49.6	-51.3	15.5	6.03e-01	0	25	0	199229440	67	4498
2026-01-11 04:48:28.53	285.85	18.00	-49.7	-51.4	15.5	6.03e-01	0	25	0	200802304	67	4552
2026-01-11 04:48:29.53	285.65	17.91	-50.4	-52.3	15.4	6.04e-01	0	25	0	202899456	68	4776
2026-01-11 04:48:30.53	285.46	17.81	-50.0	-51.8	15.5	6.02e-01	0	25	0	204472320	68	4516
2026-01-11 04:48:31.53	285.26	17.72	-49.2	-50.8	15.7	6.04e-01	0	25	0	206569472	67	4257
2026-01-11 04:48:32.52	285.06	17.63	-49.4	-51.0	15.6	6.05e-01	0	25	0	208142336	67	4369
2026-01-11 04:48:33.52	284.87	17.54	-50.1	-51.9	15.3	6.04e-01	0	25	0	210239488	67	4863
2026-01-11 04:48:34.53	284.68	17.45	-50.0	-51.8	15.5	6.05e-01	0	25	0	212336640	68	4544
2026-01-11 04:48:35.53	284.48	17.36	-49.6	-51.2	15.7	6.03e-01	0	25	0	213909504	68	4239
2026-01-11 04:48:36.52	284.30	17.27	-49.4	-51.1	15.8	6.06e-01	0	25	0	216006656	68	4146
2026-01-11 04:48:37.52	284.11	17.18	-49.8	-51.6	15.6	6.03e-01	0	25	0	217579520	68	4392
2026-01-11 04:48:38.52	283.92	17.09	-50.3	-52.2	15.4	6.02e-01	0	25	0	219676672	68	4727
2026-01-11 04:48:39.52	283.73	17.00	-50.0	-51.8	15.5	6.03e-01	0	25	0	221773824	68	4537
2026-01-11 04:48:40.52	283.55	16.90	-49.5	-51.2	15.7	6.05e-01	0	25	0	223346688	68	4206
2026-01-11 04:48:41.52	283.36	16.81	-49.6	-51.2	15.7	6.03e-01	0	25	0	225443840	68	4230
2026-01-11 04:48:42.53	283.18	16.72	-49.8	-51.5	15.6	6.05e-01	0	25	0	227016704	68	4385
2026-01-11 04:48:43.53	282.99	16.63	-50.1	-51.9	15.5	6.02e-01	0	25	0	229113856	68	4574
2026-01-11 04:48:44.52	282.81	16.54	-49.9	-51.7	15.5	6.04e-01	0	25	0	230686720	68	4490
2026-01-11 04:48:45.52	282.63	16.45	-49.5	-51.1	15.7	6.04e-01	0	25	0	232783872	68	4188
2026-01-11 04:48:46.53	282.45	16.36	-49.3	-50.9	15.7	6.04e-01	0	25	0	234881024	67	4319
2026-01-11 04:48:47.53	282.28	16.27	-49.3	-51.0	15.6	6.06e-01	0	25	0	236453888	67	4364
2026-01-11 04:48:48.53	282.10	16.18	-49.6	-51.3	15.5	6.02e-01	0	25	0	238551040	67	4524
2026-01-11 04:48:49.53	281.93	16.09	-49.7	-51.5	15.5	6.02e-01	0	25	0	240123904	67	4614
2026-01-11 04:48:50.53	281.75	16.00	-49.7	-51.5	15.5	6.03e-01	0	25	0	242221056	67	4634
2026-01-11 04:48:51.53	281.58	15.91	-49.5	-51.2	15.5	6.04e-01	0	25	0	243793920	67	4490
2026-01-11 04:48:52.53	281.41	15.82	-49.4	-51.1	15.6	6.04e-01	0	25	0	245891072	67	4427
2026-01-11 04:48:53.53	281.24	15.73	-49.5	-51.3	15.5	6.03e-01	0	25	0	247988224	67	4504
2026-01-11 04:48:54.52	281.07	15.64	-49.7	-51.4	15.5	6.03e-01	0	25	0	249561088	67	4590
2026-01-11 04:48:55.52	280.90	15.55	-49.8	-51.5	15.5	6.04e-01	0	25	0	251658240	67	4650
2026-01-11 04:48:56.52	280.73	15.47	-49.9	-51.7	15.4	6.04e-01	0	25	0	253231104	67	4719
2026-01-11 04:48:57.51	280.57	15.38	-49.7	-51.5	15.4	6.05e-01	0	25	0	255328256	67	4632
2026-01-11 04:48:58.52	280.40	15.29	-49.6	-51.3	15.5	6.04e-01	0	25	0	256901120	67	4519
2026-01-11 04:48:59.51	280.24	15.20	-49.5	-51.2	15.5	6.04e-01	0	25	0	258998272	67	4489
2026-01-11 04:49:00.51	280.08	15.11	-49.4	-51.1	15.6	6.05e-01	0	25	0	261095424	67	4434
2026-01-11 04:49:01.51	279.91	15.02	-49.5	-51.2	15.6	6.03e-01	0	25	0	262668288	67	4454
2026-01-11 04:49:02.49	279.76	14.94	-49.7	-51.5	15.5	6.01e-01	0	25	0	264765440	67	4615
2026-01-11 04:49:03.50	279.59	14.85	-49.9	-51.7	15.4	6.04e-01	0	25	0	266338304	67	4720
2026-01-11 04:49:04.49	279.44	14.76	-49.9	-51.7	15.4	6.03e-01	0	25	0	268435456	67	4715
2026-01-11 04:49:05.49	279.28	14.67	-49.7	-51.5	15.5	6.06e-01	0	25	0	270008320	67	4606
2026-01-11 04:49:06.48	279.12	14.58	-49.6	-51.3	15.5	6.01e-01	0	25	0	272105472	67	4527
2026-01-11 04:49:07.49	278.96	14.50	-49.6	-51.3	15.5	6.02e-01	0	25	0	273678336	67	4543
2026-01-11 04:49:08.49	278.81	14.41	-49.6	-51.3	15.5	6.05e-01	0	25	0	275775488	67	4515
2026-01-11 04:49:09.49	278.66	14.32	-49.6	-51.3	15.5	6.04e-01	0	25	0	277872640	67	4527
2026-01-11 04:49:10.49	278.50	14.23	-49.7	-51.4	15.5	6.02e-01	0	25	0	279445504	67	4598
2026-01-11 04:49:11.49	278.35	14.15	-49.8	-51.6	15.4	6.05e-01	0	25	0	281542656	67	4680
2026-01-11 04:49:12.49	278.20	14.06	-49.9	-51.7	15.4	6.02e-01	0	25	0	283115520	67	4749
2026-01-11 04:49:13.49	278.05	13.97	-49.9	-51.7	15.4	6.04e-01	0	25	0	285212672	67	4727
2026-01-11 04:49:14.49	277.90	13.89	-49.7	-51.5	15.5	6.02e-01	0	25	0	287309824	67	4637
2026-01-11 04:49:15.49	277.75	13.80	-49.7	-51.5	15.5	6.05e-01	0	25	0	288882688	67	4632
2026-01-11 04:49:16.49	277.60	13.71	-49.8	-51.6	15.4	6.01e-01	0	25	0	290979840	67	4665
2026-01-11 04:49:17.49	277.46	13.63	-49.6	-51.4	15.5	6.03e-01	0	25	0	292552704	67	4563
2026-01-11 04:49:18.49	277.31	13.54	-49.6	-51.3	15.5	6.02e-01	0	25	0	294649856	67	4526
2026-01-11 04:49:19.48	277.17	13.46	-49.7	-51.4	15.5	6.03e-01	0	25	0	296222720	67	4578
2026-01-11 04:49:20.49	277.02	13.37	-49.7	-51.5	15.4	6.03e-01	0	25	0	298319872	67	4634
2026-01-11 04:49:21.49	276.88	13.28	-49.8	-51.6	15.4	6.03e-01	0	25	0	300417024	67	4665
2026-01-11 04:49:22.49	276.74	13.20	-49.9	-51.7	15.4	6.04e-01	0	25	0	301989888	67	4741
2026-01-11 04:49:23.49	276.60	13.11	-49.9	-51.8	15.4	6.05e-01	0	25	0	304087040	67	4768
2026-01-11 04:49:24.49	276.46	13.03	-50.0	-51.8	15.4	6.04e-01	0	25	0	305659904	67	4787
2026-01-11 04:49:25.48	276.32	12.94	-49.8	-51.6	15.4	6.03e-01	0	25	0	307757056	67	4704
2026-01-11 04:49:26.48	276.18	12.86	-49.7	-51.4	15.5	6.04e-01	0	25	0	309329920	67	4590
2026-01-11 04:49:27.48	276.05	12.78	-49.6	-51.4	15.5	6.02e-01	0	25	0	311427072	67	4567
2026-01-11 04:49:28.48	275.91	12.69	-49.7	-51.4	15.5	6.04e-01	0	25	0	313524224	67	4591
2026-01-11 04:49:29.48	275.77	12.61	-49.7	-51.5	15.5	6.03e-01	0	25	0	315097088	67	4627
2026-01-11 04:49:30.48	275.64	12.52	-49.7	-51.4	15.5	6.03e-01	0	25	0	317194240	67	4597
2026-01-11 04:49:31.48	275.50	12.44	-49.8	-51.7	15.4	6.04e-01	0	25	0	318767104	67	4706
2026-01-11 04:49:32.48	275.37	12.36	-49.9	-51.7	15.4	6.03e-01	0	25	0	320864256	67	4748
2026-01-11 04:49:33.49	275.24	12.27	-50.0	-51.8	15.4	6.03e-01	0	25	0	322437120	67	4793
2026-01-11 04:49:34.49	275.11	12.19	-49.9	-51.8	15.4	6.04e-01	0	25	0	324534272	67	4775
2026-01-11 04:49:35.49	274.98	12.10	-50.0	-51.8	15.4	6.04e-01	0	25	0	326631424	67	4795
2026-01-11 04:49:36.48	274.85	12.02	-49.9	-51.7	15.4	6.04e-01	0	25	0	328204288	67	4736
2026-01-11 04:49:37.48	274.72	11.94	-49.8	-51.6	15.4	6.05e-01	0	25	0	330301440	67	4658
2026-01-11 04:49:38.48	274.59	11.86	-49.8	-51.6	15.4	6.04e-01	0	25	0	331874304	67	4705
2026-01-11 04:49:39.49	274.46	11.77	-49.9	-51.7	15.4	6.03e-01	0	25	0	333971456	67	4736
2026-01-11 04:49:40.49	274.33	11.69	-49.9	-51.7	15.4	6.01e-01	0	25	0	336068608	67	4725
2026-01-11 04:49:41.49	274.21	11.61	-49.9	-51.7	15.4	6.03e-01	0	25	0	337641472	67	4742
2026-01-11 04:49:42.49	274.08	11.53	-50.0	-51.8	15.4	6.03e-01	0	25	0	339738624	67	4807
2026-01-11 04:49:43.49	273.96	11.45	-49.9	-51.8	15.4	6.03e-01	0	25	0	341311488	67	4768
2026-01-11 04:49:44.49	273.83	11.36	-50.0	-51.9	15.3	6.02e-01	0	25	0	343408640	67	4825
2026-01-11 04:49:45.49	273.71	11.28	-50.1	-52.0	15.4	6.03e-01	0	25	0	344981504	68	4621
2026-01-11 04:49:46.49	273.59	11.20	-50.0	-51.8	15.5	6.02e-01	0	25	0	347078656	68	4544
2026-01-11 04:49:47.49	273.47	11.12	-50.0	-51.8	15.5	6.03e-01	0	25	0	349175808	68	4525
2026-01-11 04:49:48.49	273.35	11.04	-50.1	-52.0	15.4	6.04e-01	0	25	0	350748672	68	4615
2026-01-11 04:49:49.49	273.23	10.96	-50.1	-51.9	15.5	6.05e-01	0	25	0	352845824	68	4597
2026-01-11 04:49:50.49	273.11	10.88	-50.0	-51.9	15.5	6.02e-01	0	25	0	354418688	68	4567
2026-01-11 04:49:51.49	272.99	10.80	-50.1	-52.0	15.5	6.03e-01	0	25	0	356515840	68	4623
2026-01-11 04:49:52.48	272.87	10.72	-50.1	-52.0	15.5	6.02e-01	0	25	0	358088704	68	4608
2026-01-11 04:49:53.48	272.76	10.64	-50.1	-51.9	15.5	6.03e-01	0	25	0	360185856	68	4582
2026-01-11 04:49:54.48	272.64	10.56	-50.1	-52.0	15.4	6.06e-01	0	25	0	362283008	68	4623
2026-01-11 04:49:55.48	272.52	10.48	-50.1	-52.0	15.4	6.05e-01	0	25	0	363855872	68	4622
2026-01-11 04:49:56.47	272.41	10.40	-50.2	-52.0	15.4	6.03e-01	0	25	0	365953024	68	4647
2026-01-11 04:49:57.47	272.29	10.32	-50.2	-52.1	15.4	6.04e-01	0	25	0	367525888	68	4698
2026-01-11 04:49:58.47	272.18	10.24	-50.3	-52.3	15.4	6.04e-01	0	25	0	369623040	68	4767
2026-01-11 04:49:59.46	272.07	10.16	-50.3	-52.2	15.4	6.03e-01	0	25	0	371195904	68	4746
2026-01-11 04:50:00.45	271.96	10.09	-50.3	-52.2	15.4	6.05e-01	0	25	0	373293056	68	4728
2026-01-11 04:50:01.44	271.85	10.01	-50.3	-52.2	15.4	6.02e-01	0	25	0	374865920	68	4748
2026-01-11 04:50:02.45	271.74	9.93	-50.3	-52.2	15.3	6.03e-01	0	25	0	376963072	68	4756
2026-01-11 04:50:03.45	271.63	9.85	-50.2	-52.1	15.4	6.05e-01	0	25	0	379060224	68	4700
2026-01-11 04:50:04.44	271.52	9.77	-50.2	-52.1	15.4	6.03e-01	0	25	0	380633088	68	4671
2026-01-11 04:50:05.44	271.41	9.70	-50.1	-52.1	15.4	6.03e-01	0	25	0	382730240	68	4652
2026-01-11 04:50:06.44	271.30	9.62	-49.9	-51.7	15.5	6.02e-01	0	25	0	384303104	68	4465
2026-01-11 04:50:07.44	271.19	9.54	-49.8	-51.7	15.5	6.02e-01	0	25	0	386400256	68	4461
2026-01-11 04:50:08.44	271.08	9.46	-50.1	-51.9	15.5	6.03e-01	0	25	0	387973120	68	4598
2026-01-11 04:50:09.44	270.98	9.39	-50.5	-52.5	15.2	6.04e-01	0	25	0	390070272	68	4905
2026-01-11 04:50:10.44	270.87	9.31	-50.8	-53.0	15.2	6.03e-01	0	25	0	392167424	69	4887
2026-01-11 04:50:11.44	270.77	9.23	-51.3	-53.5	15.1	6.04e-01	0	25	0	393740288	70	4926
2026-01-11 04:50:12.44	270.66	9.16	-51.7	-54.2	15.0	6.02e-01	0	25	0	395837440	71	5037
2026-01-11 04:50:13.45	270.56	9.08	-52.2	-54.9	14.7	6.04e-01	0	25	0	397934592	72	5115
2026-01-11 04:50:14.44	270.45	9.00	-52.4	-55.3	14.7	6.02e-01	0	25	0	399507456	72	5374
2026-01-11 04:50:15.44	270.35	8.93	-52.6	-55.7	14.6	6.04e-01	0	25	0	401080320	73	5300
2026-01-11 04:50:16.44	270.25	8.85	-52.7	-55.9	14.5	6.04e-01	0	25	0	403177472	73	5406
2026-01-11 04:50:17.43	270.15	8.78	-52.7	-55.9	14.5	6.00e-01	0	25	0	405274624	73	5432
2026-01-11 04:50:18.44	270.05	8.70	-52.8	-56.1	14.4	6.03e-01	0	25	0	406847488	73	5554
2026-01-11 04:50:19.44	269.95	8.62	-52.9	-56.3	14.2	6.03e-01	0	25	0	408944640	73	5717
2026-01-11 04:50:20.44	269.85	8.55	-53.2	-57.0	14.1	6.02e-01	0	25	0	410517504	74	5791
2026-01-11 04:50:21.44	269.75	8.47	-53.4	-57.4	13.8	6.03e-01	0	25	0	412614656	74	6119
2026-01-11 04:50:22.45	269.65	8.40	-53.8	-58.3	13.4	6.03e-01	0	25	0	414711808	75	6375
2026-01-11 04:50:23.45	269.55	8.32	-54.1	-59.0	13.0	6.04e-01	0	25	0	416284672	75	6900
2026-01-11 04:50:24.44	269.45	8.25	-54.5	-60.0	12.4	6.08e-01	0	25	0	418381824	76	7307
2026-01-11 04:50:25.43	269.36	8.18	-54.8	-60.6	12.2	6.04e-01	0	25	0	419954688	77	7422
2026-01-11 04:50:26.43	269.26	8.10	-54.9	-61.1	11.7	6.08e-01	0	25	0	422051840	77	7887
2026-01-11 04:50:27.42	269.17	8.03	-54.9	-61.3	11.6	6.07e-01	0	25	0	423624704	77	8007
2026-01-11 04:50:28.43	269.07	7.95	-54.9	-61.3	11.6	6.07e-01	0	25	0	425721856	77	8041
2026-01-11 04:50:29.43	268.97	7.88	-54.8	-60.8	12.0	6.07e-01	0	25	0	427819008	77	7594
2026-01-11 04:50:30.42	268.88	7.81	-54.8	-60.7	12.0	6.04e-01	0	25	0	429391872	77	7512
2026-01-11 04:50:31.43	268.79	7.73	-54.6	-60.2	12.4	6.05e-01	0	25	0	431489024	77	7048
2026-01-11 04:50:32.43	268.69	7.66	-54.4	-59.6	12.8	6.05e-01	0	25	0	433061888	77	6619
2026-01-11 04:50:33.43	268.60	7.59	-54.3	-59.1	13.1	6.04e-01	0	25	0	435159040	77	6272
2026-01-11 04:50:34.44	268.51	7.51	-54.2	-58.8	13.4	6.05e-01	0	25	0	436731904	77	6016
2026-01-11 04:50:35.43	268.42	7.44	-54.1	-58.5	13.6	6.04e-01	0	25	0	438829056	77	5840
2026-01-11 04:50:36.43	268.32	7.37	-54.1	-58.5	13.6	6.02e-01	0	25	0	440926208	77	5821
2026-01-11 04:50:37.42	268.23	7.30	-54.1	-58.4	13.7	6.05e-01	0	25	0	442499072	77	5768
2026-01-11 04:50:38.42	268.14	7.23	-53.8	-57.7	14.0	6.04e-01	0	25	0	444596224	76	5637
2026-01-11 04:50:39.42	268.05	7.15	-53.2	-56.7	14.4	6.05e-01	0	25	0	446169088	75	5293
2026-01-11 04:50:40.42	267.97	7.08	-52.9	-56.2	14.7	6.05e-01	0	25	0	448266240	75	4988
2026-01-11 04:50:41.42	267.88	7.01	-52.6	-55.7	14.8	6.02e-01	0	25	0	449839104	74	4985
2026-01-11 04:50:42.42	267.79	6.94	-52.1	-54.8	15.0	6.04e-01	0	25	0	451936256	73	4806
2026-01-11 04:50:43.42	267.70	6.87	-51.8	-54.3	15.2	6.03e-01	0	25	0	454033408	72	4778
2026-01-11 04:50:44.42	267.61	6.80	-51.8	-54.3	15.1	6.03e-01	0	25	0	455606272	72	4762
2026-01-11 04:50:45.42	267.53	6.72	-50.9	-53.1	15.5	6.01e-01	0	25	0	457703424	71	4421
2026-01-11 04:50:46.42	267.44	6.65	-50.7	-52.9	15.4	6.03e-01	0	25	0	459276288	70	4551
2026-01-11 04:50:47.42	267.35	6.58	-50.6	-52.7	15.4	6.03e-01	0	25	0	461373440	70	4492
2026-01-11 04:50:48.42	267.27	6.51	-50.4	-52.5	15.6	6.04e-01	0	25	0	463470592	70	4342
2026-01-11 04:50:49.42	267.18	6.44	-50.6	-52.7	15.5	6.02e-01	0	25	0	465043456	70	4473
2026-01-11 04:50:50.42	267.10	6.37	-50.7	-52.8	15.4	6.03e-01	0	25	0	467140608	70	4534
2026-01-11 04:50:51.41	267.02	6.30	-50.8	-52.9	15.4	6.04e-01	0	25	0	468713472	70	4596
2026-01-11 04:50:52.41	266.93	6.23	-50.9	-53.0	15.4	6.04e-01	0	25	0	470810624	70	4639
2026-01-11 04:50:53.42	266.85	6.16	-50.8	-53.0	15.4	6.03e-01	0	25	0	472383488	70	4628
2026-01-11 04:50:54.42	266.77	6.09	-50.8	-53.0	15.4	6.04e-01	0	25	0	474480640	70	4618
2026-01-11 04:50:55.42	266.68	6.02	-51.0	-53.2	15.2	6.02e-01	0	25	0	476577792	70	4745
2026-01-11 04:50:56.41	266.60	5.95	-51.1	-53.3	15.2	6.05e-01	0	25	0	478150656	70	4801
2026-01-11 04:50:57.41	266.52	5.88	-51.1	-53.3	15.2	6.01e-01	0	25	0	480247808	70	4799
2026-01-11 04:50:58.42	266.44	5.81	-50.9	-53.1	15.3	6.05e-01	0	25	0	481820672	70	4693
2026-01-11 04:50:59.41	266.36	5.75	-51.0	-53.2	15.3	6.02e-01	0	25	0	483917824	70	4739
2026-01-11 04:51:00.41	266.28	5.68	-51.0	-53.2	15.3	6.04e-01	0	25	0	485490688	70	4745
2026-01-11 04:51:01.40	266.20	5.61	-51.2	-53.4	15.2	6.02e-01	0	25	0	487587840	70	4850
2026-01-11 04:51:02.40	266.12	5.54	-51.1	-53.4	15.2	6.01e-01	0	25	0	489684992	70	4839
2026-01-11 04:51:03.39	266.04	5.47	-51.1	-53.4	15.2	6.04e-01	0	25	0	491257856	70	4820
2026-01-11 04:51:04.39	265.97	5.41	-51.1	-53.4	15.2	6.04e-01	0	25	0	493355008	70	4834
2026-01-11 04:51:05.38	265.89	5.34	-51.2	-53.5	15.2	6.03e-01	0	25	0	494927872	70	4884
2026-01-11 04:51:06.39	265.81	5.27	-51.0	-53.3	15.2	6.02e-01	0	25	0	497025024	70	4768
2026-01-11 04:51:07.39	265.73	5.20	-51.3	-53.6	15.1	6.04e-01	0	25	0	498597888	70	4946
2026-01-11 04:51:08.38	265.66	5.13	-51.2	-53.5	15.1	6.03e-01	0	25	0	500695040	70	4911
2026-01-11 04:51:09.39	265.58	5.07	-51.4	-53.7	15.1	6.04e-01	0	25	0	502267904	70	5023
2026-01-11 04:51:10.38	265.51	5.00	-51.9	-54.5	14.9	6.02e-01	0	25	0	504365056	71	5177
2026-01-11 04:51:11.37	265.43	4.93	-57.6	-76.0	3.9	7.46e-01	0	25	104	505413632	82	32914
2026-01-11 04:51:12.37	265.36	4.87	-57.9	-77.3	3.8	7.49e-01	0	25	104	505413632	83	35735
2026-01-11 04:51:13.38	265.28	4.80	-57.8	-77.4	3.8	7.47e-01	0	25	104	505413632	83	36211
2026-01-11 04:51:14.37	265.21	4.73	-58.4	-77.8	3.8	7.46e-01	0	26	104	505413632	84	36088
2026-01-11 04:51:15.38	265.13	4.67	-58.7	-78.1	3.8	7.49e-01	0	25	104	505413632	85	34927
2026-01-11 04:51:16.38	265.06	4.60	-58.8	-78.2	3.8	7.42e-01	0	25	104	505413632	85	35457
2026-01-11 04:51:17.38	264.99	4.53	-58.9	-78.3	3.8	7.48e-01	0	25	104	505413632	85	35802
2026-01-11 04:51:18.38	264.91	4.47	-59.0	-78.4	3.8	7.49e-01	0	25	104	505413632	85	36193
2026-01-11 04:51:19.38	264.84	4.40	-59.1	-78.5	3.8	7.47e-01	0	25	104	505413632	85	36597
2026-01-11 04:51:20.37	264.77	4.34	-59.3	-78.6	3.8	7.45e-01	0	25	104	505413632	86	35138
2026-01-11 04:51:21.37	264.70	4.27	-59.3	-78.7	3.8	7.46e-01	0	25	104	505413632	86	35420
2026-01-11 04:51:22.37	264.63	4.20	-59.4	-78.7	3.8	7.48e-01	0	25	104	505413632	86	35642
2026-01-11 04:51:23.37	264.56	4.14	-59.4	-78.8	3.8	7.51e-01	0	25	104	505413632	86	35898
2026-01-11 04:51:24.36	264.49	4.07	-59.5	-78.8	3.8	7.46e-01	0	26	104	505413632	86	36030
2026-01-11 04:51:25.35	264.42	4.01	-59.6	-78.9	3.8	7.45e-01	0	26	104	505413632	86	36273
2026-01-11 04:51:26.35	264.35	3.94	-59.6	-78.9	3.8	7.45e-01	0	25	104	505413632	86	36493
2026-01-11 04:51:27.36	264.28	3.88	-59.6	-79.2	3.8	7.46e-01	0	26	104	505413632	87	35552
2026-01-11 04:51:28.35	264.21	3.81	-59.7	-79.1	3.8	7.47e-01	0	25	104	505413632	87	34945
2026-01-11 04:51:29.35	264.14	3.75	-59.7	-79.0	3.8	7.44e-01	0	26	104	505413632	87	34829
2026-01-11 04:51:30.35	264.07	3.69	-59.7	-79.1	3.8	7.45e-01	0	26	104	505413632	87	34934
2026-01-11 04:51:31.35	264.00	3.62	-59.7	-79.1	3.8	7.46e-01	0	26	104	505413632	87	34918
2026-01-11 04:51:32.35	263.93	3.56	-59.7	-79.0	3.8	7.47e-01	0	26	104	505413632	87	34856
2026-01-11 04:51:33.35	263.87	3.49	-59.6	-79.0	3.8	7.47e-01	0	25	104	505413632	87	34788
2026-01-11 04:51:34.36	263.80	3.43	-59.6	-79.0	3.8	7.48e-01	0	25	104	505413632	87	34557
2026-01-11 04:51:35.35	263.73	3.36	-59.6	-79.0	3.8	7.47e-01	0	26	104	505413632	87	34503
2026-01-11 04:51:36.35	263.67	3.30	-59.5	-78.9	3.8	7.45e-01	0	26	104	505413632	87	34302
2026-01-11 04:51:37.35	263.60	3.24	-59.5	-78.9	3.8	7.45e-01	0	26	104	505413632	87	34280
2026-01-11 04:51:38.35	263.53	3.17	-59.5	-78.9	3.8	7.48e-01	0	25	104	505413632	87	34193
2026-01-11 04:51:39.35	263.47	3.11	-59.5	-78.9	3.8	7.48e-01	0	26	104	505413632	87	34226
2026-01-11 04:51:40.35	263.40	3.05	-59.5	-78.9	3.8	7.48e-01	0	25	104	505413632	87	34094
2026-01-11 04:51:41.35	263.34	2.98	-59.5	-78.8	3.8	7.45e-01	0	25	104	505413632	87	34002
2026-01-11 04:51:42.35	263.27	2.92	-59.4	-78.8	3.8	7.49e-01	0	26	104	505413632	87	33927
2026-01-11 04:51:43.34	263.21	2.86	-59.4	-78.8	3.8	7.44e-01	0	25	104	505413632	87	33920
2026-01-11 04:51:44.34	263.15	2.80	-59.4	-78.8	3.8	7.46e-01	0	26	104	505413632	87	33907
2026-01-11 04:51:45.34	263.08	2.73	-59.4	-78.8	3.8	7.47e-01	0	26	104	505413632	87	33930
2026-01-11 04:51:46.35	263.02	2.67	-59.4	-78.8	3.8	7.47e-01	0	26	104	505413632	87	33815
2026-01-11 04:51:47.35	262.96	2.61	-59.4	-78.8	3.8	7.49e-01	0	25	104	505413632	87	33976
2026-01-11 04:51:48.35	262.89	2.55	-59.4	-78.8	3.8	7.47e-01	0	25	104	505413632	87	33857
2026-01-11 04:51:49.35	262.83	2.48	-59.4	-78.7	3.8	7.45e-01	0	26	104	505413632	87	33689
2026-01-11 04:51:50.35	262.77	2.42	-59.4	-78.7	3.8	7.48e-01	0	26	104	505413632	87	33566
2026-01-11 04:51:51.36	262.71	2.36	-59.3	-78.7	3.8	7.47e-01	0	25	104	505413632	87	33563
2026-01-11 04:51:52.36	262.65	2.30	-59.3	-78.7	3.8	7.48e-01	0	25	104	505413632	87	33497
2026-01-11 04:51:53.35	262.58	2.24	-59.3	-78.7	3.8	7.47e-01	0	26	104	505413632	87	33534
2026-01-11 04:51:54.35	262.52	2.17	-59.3	-78.7	3.8	7.46e-01	0	26	104	505413632	87	33440
2026-01-11 04:51:55.35	262.46	2.11	-59.3	-78.7	3.8	7.45e-01	0	26	104	505413632	87	33451
2026-01-11 04:51:56.35	262.40	2.05	-59.3	-78.7	3.8	7.48e-01	0	25	104	505413632	87	33457
2026-01-11 04:51:57.34	262.34	1.99	-59.3	-78.7	3.8	7.48e-01	0	25	104	505413632	87	33367
2026-01-11 04:51:58.34	262.28	1.93	-59.3	-78.7	3.8	7.46e-01	0	26	104	505413632	87	33357

#Closed at: 2026-01-11 04:51:58
#Recorded file [505 MB]: D:/lorett/data/31004_260111_074014.dat