passes_logs/2026/01/11/R3.2S_Murmansk/R3.2S_Murmansk__20260111_004618_SUOMI_NPP_rec.log

#Pass ID: 20260111_004618_SUOMI NPP
#Satellite: SUOMI NPP
#Configuration: NPP
#almurnet v.1.7.20251203
#Start time: 2026-01-11 00:46:19

#Version: 2.2.20231116
#Station: R3.2S_Murmansk
#Location: 33.079688 lon 68.888172 lat
#TLE: 1 37849U 11061A   26009.81756760  .00000113  00000+0  74747-4 0  9994
#TLE: 2 37849  98.7806 311.9110 0002525  72.5604 287.5848 14.19524046735974

#Time	Az	El	Level	Level2	SNR	BER	BlckErr	Temp	State	Recorded	gain1	gain2
2026-01-11 00:46:19.95	24.60	2.11	-56.9	-72.9	3.8	1.49e+00	0	21	0	0	80	22056
2026-01-11 00:46:20.95	24.60	2.18	-56.8	-72.8	3.8	1.49e+00	0	21	104	0	78	24506
2026-01-11 00:46:21.94	24.61	2.24	-56.8	-72.8	3.8	1.49e+00	0	21	104	0	78	24576
2026-01-11 00:46:22.94	24.61	2.30	-56.8	-72.8	3.8	1.49e+00	0	21	104	0	78	24530
2026-01-11 00:46:23.93	24.61	2.37	-56.9	-72.8	3.8	1.49e+00	0	21	104	0	78	24593
2026-01-11 00:46:24.93	24.62	2.43	-56.9	-72.8	3.8	1.49e+00	0	21	104	0	78	24552
2026-01-11 00:46:25.94	24.62	2.50	-56.9	-72.8	3.8	1.49e+00	0	21	104	0	78	24553
2026-01-11 00:46:26.95	24.62	2.56	-56.8	-72.8	3.8	1.49e+00	0	21	104	0	78	24467
2026-01-11 00:46:27.95	24.63	2.63	-56.9	-72.7	3.8	1.49e+00	0	21	104	0	78	24356
2026-01-11 00:46:28.95	24.63	2.69	-56.9	-72.7	3.8	1.49e+00	0	21	104	0	78	24153
2026-01-11 00:46:29.95	24.63	2.76	-56.9	-72.6	3.8	1.49e+00	0	21	104	0	78	24073
2026-01-11 00:46:30.95	24.64	2.82	-56.9	-72.4	3.8	1.49e+00	0	21	104	0	78	23577
2026-01-11 00:46:31.95	24.64	2.89	-56.8	-72.4	3.8	1.49e+00	0	21	104	0	78	23323
2026-01-11 00:46:32.94	24.64	2.96	-56.8	-72.2	3.8	1.49e+00	0	21	104	0	78	22966
2026-01-11 00:46:33.94	24.65	3.02	-56.8	-72.0	3.8	1.49e+00	0	21	104	0	78	22316
2026-01-11 00:46:34.94	24.65	3.09	-56.8	-72.1	3.8	1.49e+00	0	21	104	0	78	22632
2026-01-11 00:46:35.95	24.65	3.16	-56.8	-72.1	3.8	1.49e+00	0	21	104	0	78	22689
2026-01-11 00:46:36.95	24.66	3.22	-56.8	-72.0	3.8	1.49e+00	0	21	104	0	78	22484
2026-01-11 00:46:37.95	24.66	3.29	-56.8	-72.1	3.8	1.49e+00	0	21	104	0	78	22705
2026-01-11 00:46:38.96	24.67	3.36	-56.8	-72.4	3.8	1.49e+00	0	21	104	0	78	23340
2026-01-11 00:46:39.95	24.67	3.42	-56.9	-72.5	3.8	1.49e+00	0	21	104	0	78	23708
2026-01-11 00:46:40.94	24.67	3.49	-56.8	-72.4	3.8	1.49e+00	0	21	104	0	78	23525
2026-01-11 00:46:41.95	24.68	3.56	-56.8	-72.2	3.8	1.49e+00	0	21	104	0	78	22921
2026-01-11 00:46:42.95	24.68	3.62	-56.8	-72.0	3.8	1.49e+00	0	22	104	0	78	22359
2026-01-11 00:46:43.95	24.68	3.69	-56.8	-71.3	3.8	1.49e+00	0	21	104	0	78	20760
2026-01-11 00:46:44.95	24.69	3.76	-56.8	-70.7	3.8	1.49e+00	0	21	104	0	78	19241
2026-01-11 00:46:45.95	24.69	3.83	-56.8	-69.8	4.1	1.47e+00	0	21	0	0	78	17480
2026-01-11 00:46:46.96	24.69	3.90	-56.6	-68.2	4.5	1.36e+00	0	22	0	0	78	14461
2026-01-11 00:46:47.96	24.70	3.97	-56.6	-67.8	4.7	9.03e-01	0	22	0	2097152	78	13750
2026-01-11 00:46:48.96	24.70	4.03	-56.5	-66.8	5.1	6.64e-01	0	22	0	3145728	78	12344
2026-01-11 00:46:49.96	24.70	4.10	-56.5	-66.2	5.6	4.77e-01	0	22	0	5242880	78	11454
2026-01-11 00:46:50.96	24.71	4.17	-56.4	-66.1	5.7	3.95e-01	0	22	0	7340032	78	11289
2026-01-11 00:46:51.97	24.71	4.24	-56.4	-65.5	6.0	3.61e-01	0	22	0	9437184	78	10614
2026-01-11 00:46:52.96	24.71	4.31	-56.3	-64.8	6.5	2.25e-01	0	22	0	11534336	78	9783
2026-01-11 00:46:53.95	24.72	4.38	-56.3	-64.8	6.5	2.35e-01	0	21	0	12582912	78	9819
2026-01-11 00:46:54.96	24.72	4.45	-56.3	-64.8	6.6	1.62e-01	0	22	0	14680064	78	9718
2026-01-11 00:46:55.96	24.72	4.52	-56.3	-64.9	6.5	1.83e-01	0	22	0	16777216	78	9841
2026-01-11 00:46:56.96	24.73	4.59	-56.2	-64.6	6.7	2.03e-01	0	22	0	18874368	78	9497
2026-01-11 00:46:57.96	24.73	4.66	-56.3	-64.8	6.6	1.56e-01	0	22	0	20971520	78	9733
2026-01-11 00:46:58.95	24.73	4.73	-56.3	-65.3	6.2	2.02e-01	0	22	0	22020096	78	10309
2026-01-11 00:46:59.96	24.74	4.80	-56.4	-65.6	6.0	2.73e-01	0	22	0	24117248	78	10698
2026-01-11 00:47:00.96	24.74	4.87	-56.4	-65.6	6.0	2.86e-01	0	22	0	26214400	78	10675
2026-01-11 00:47:01.95	24.74	4.94	-56.4	-65.7	5.9	3.49e-01	0	22	0	28311552	78	10821
2026-01-11 00:47:02.95	24.75	5.01	-56.5	-66.4	5.5	4.24e-01	0	22	0	30408704	78	11719
2026-01-11 00:47:03.93	24.75	5.08	-55.8	-61.9	9.2	1.08e-01	0	22	0	31457280	78	7014
2026-01-11 00:47:04.94	24.75	5.15	-56.2	-64.1	7.1	2.80e-02	0	22	0	33554432	78	9059
2026-01-11 00:47:05.94	24.76	5.23	-56.8	-69.0	4.3	2.03e-01	88	22	0	35651584	78	15821
2026-01-11 00:47:06.94	24.76	5.30	-54.9	-59.2	11.5	1.28e-01	0	22	0	36700160	76	5787
2026-01-11 00:47:07.94	24.76	5.37	-56.7	-70.3	3.8	2.18e-01	0	22	104	38797312	78	18370
2026-01-11 00:47:08.95	24.77	5.44	-54.9	-59.2	11.5	7.76e-01	0	22	0	38797312	76	5771
2026-01-11 00:47:09.94	24.77	5.51	-54.8	-59.0	11.7	3.20e-05	0	22	0	40894464	76	5642
2026-01-11 00:47:10.94	24.77	5.59	-54.5	-58.5	12.1	1.67e-05	0	22	0	42991616	75	5597
2026-01-11 00:47:11.93	24.77	5.66	-54.6	-58.7	11.9	1.90e-05	0	22	0	45088768	75	5763
2026-01-11 00:47:12.94	24.78	5.73	-54.7	-58.8	11.8	4.04e-05	0	22	0	46137344	75	5808
2026-01-11 00:47:13.94	24.78	5.81	-54.7	-58.8	11.8	5.03e-05	0	22	0	48234496	75	5818
2026-01-11 00:47:14.94	24.78	5.88	-54.8	-59.0	11.6	4.27e-05	0	22	0	50331648	75	5964
2026-01-11 00:47:15.94	24.79	5.95	-54.5	-58.5	12.1	1.90e-05	0	22	0	52428800	75	5626
2026-01-11 00:47:16.94	24.79	6.03	-54.5	-58.3	12.2	7.60e-06	0	22	0	54525952	75	5512
2026-01-11 00:47:17.94	24.79	6.10	-54.4	-58.2	12.3	9.90e-06	0	22	0	55574528	75	5461
2026-01-11 00:47:18.94	24.80	6.18	-54.3	-58.0	12.5	1.50e-06	0	22	0	57671680	75	5296
2026-01-11 00:47:19.93	24.80	6.25	-54.4	-58.1	12.4	3.00e-06	0	22	0	59768832	75	5348
2026-01-11 00:47:20.92	24.80	6.32	-54.3	-57.8	12.6	1.50e-06	0	22	0	61865984	75	5214
2026-01-11 00:47:21.93	24.81	6.40	-54.0	-57.4	12.9	7.00e-07	0	22	0	62914560	74	5263
2026-01-11 00:47:22.92	24.81	6.47	-54.1	-57.6	12.8	7.00e-07	0	22	0	65011712	74	5352
2026-01-11 00:47:23.93	24.81	6.55	-53.8	-57.1	13.1	0.00e+00	0	22	0	67108864	74	5045
2026-01-11 00:47:24.93	24.82	6.63	-54.0	-57.3	13.0	7.00e-07	0	22	0	69206016	74	5168
2026-01-11 00:47:25.93	24.82	6.70	-53.9	-57.1	13.1	0.00e+00	0	22	0	71303168	74	5099
2026-01-11 00:47:26.94	24.82	6.78	-54.0	-57.3	12.9	0.00e+00	0	22	0	72351744	74	5217
2026-01-11 00:47:27.94	24.83	6.85	-54.0	-57.3	13.0	7.00e-07	0	22	0	74448896	74	5194
2026-01-11 00:47:28.95	24.83	6.93	-54.0	-57.2	13.1	0.00e+00	0	22	0	76546048	74	5141
2026-01-11 00:47:29.94	24.83	7.01	-54.0	-57.3	13.0	0.00e+00	0	22	0	78643200	74	5162
2026-01-11 00:47:30.94	24.83	7.08	-54.0	-57.4	13.0	7.00e-07	0	22	0	80740352	74	5227
2026-01-11 00:47:31.94	24.84	7.16	-54.0	-57.3	13.0	0.00e+00	0	22	0	81788928	74	5187
2026-01-11 00:47:32.94	24.84	7.24	-54.0	-57.3	13.0	0.00e+00	0	22	0	83886080	74	5210
2026-01-11 00:47:33.94	24.84	7.32	-54.0	-57.3	13.0	0.00e+00	0	22	0	85983232	74	5198
2026-01-11 00:47:34.94	24.85	7.39	-53.9	-57.0	13.3	0.00e+00	0	22	0	88080384	74	4997
2026-01-11 00:47:35.94	24.85	7.47	-53.9	-57.1	13.2	0.00e+00	0	22	0	89128960	74	5072
2026-01-11 00:47:36.94	24.85	7.55	-53.9	-57.0	13.2	0.00e+00	0	22	0	91226112	74	5024
2026-01-11 00:47:37.93	24.86	7.63	-53.7	-56.8	13.4	0.00e+00	0	22	0	93323264	74	4883
2026-01-11 00:47:38.93	24.86	7.71	-53.8	-56.9	13.3	0.00e+00	0	22	0	95420416	74	4969
2026-01-11 00:47:39.93	24.86	7.79	-53.8	-56.8	13.4	0.00e+00	0	22	0	97517568	74	4918
2026-01-11 00:47:40.93	24.87	7.87	-53.9	-57.0	13.3	0.00e+00	0	22	0	98566144	74	4987
2026-01-11 00:47:41.92	24.87	7.95	-53.8	-56.8	13.4	0.00e+00	0	22	0	100663296	74	4914
2026-01-11 00:47:42.91	24.87	8.02	-53.8	-56.9	13.4	0.00e+00	0	22	0	102760448	74	4932
2026-01-11 00:47:43.91	24.87	8.10	-53.8	-56.9	13.4	0.00e+00	0	22	0	104857600	74	4937
2026-01-11 00:47:44.91	24.88	8.18	-53.8	-56.7	13.5	7.00e-07	0	22	0	106954752	74	4851
2026-01-11 00:47:45.91	24.88	8.27	-53.6	-56.6	13.4	0.00e+00	0	22	0	108003328	73	5081
2026-01-11 00:47:46.91	24.88	8.35	-53.7	-56.6	13.4	0.00e+00	0	22	0	110100480	73	5096
2026-01-11 00:47:47.92	24.89	8.43	-53.6	-56.6	13.4	0.00e+00	0	22	0	112197632	73	5075
2026-01-11 00:47:48.92	24.89	8.51	-53.8	-56.9	13.2	0.00e+00	0	22	0	114294784	73	5269
2026-01-11 00:47:49.91	24.89	8.59	-53.7	-56.7	13.4	0.00e+00	0	22	0	116391936	73	5140
2026-01-11 00:47:50.91	24.90	8.67	-53.9	-57.0	13.1	0.00e+00	0	22	0	117440512	73	5322
2026-01-11 00:47:51.90	24.90	8.75	-53.8	-56.9	13.3	0.00e+00	0	22	0	119537664	73	5223
2026-01-11 00:47:52.90	24.90	8.84	-53.6	-56.5	13.5	0.00e+00	0	22	0	121634816	73	5027
2026-01-11 00:47:53.91	24.90	8.92	-53.7	-56.7	13.4	0.00e+00	0	22	0	123731968	73	5127
2026-01-11 00:47:54.91	24.91	9.00	-53.8	-56.8	13.4	0.00e+00	0	22	0	124780544	73	5162
2026-01-11 00:47:55.91	24.91	9.09	-53.6	-56.5	13.6	0.00e+00	0	22	0	126877696	73	4986
2026-01-11 00:47:56.90	24.91	9.17	-53.6	-56.4	13.6	0.00e+00	0	22	0	128974848	73	4980
2026-01-11 00:47:57.90	24.92	9.25	-53.7	-56.6	13.4	0.00e+00	0	22	0	131072000	73	5097
2026-01-11 00:47:58.90	24.92	9.34	-53.6	-56.4	13.6	0.00e+00	0	22	0	133169152	73	4952
2026-01-11 00:47:59.89	24.92	9.42	-53.7	-56.6	13.5	0.00e+00	0	22	0	134217728	73	5049
2026-01-11 00:48:00.89	24.92	9.51	-53.4	-56.2	13.8	0.00e+00	0	22	0	136314880	73	4824
2026-01-11 00:48:01.89	24.93	9.59	-53.5	-56.3	13.7	0.00e+00	0	22	0	138412032	73	4877
2026-01-11 00:48:02.89	24.93	9.68	-53.4	-56.2	13.8	0.00e+00	0	22	0	140509184	73	4822
2026-01-11 00:48:03.88	24.93	9.76	-53.4	-56.1	13.8	0.00e+00	0	22	0	141557760	73	4789
2026-01-11 00:48:04.88	24.94	9.85	-53.3	-56.0	14.0	0.00e+00	0	23	0	143654912	73	4720
2026-01-11 00:48:05.88	24.94	9.93	-53.3	-56.0	13.9	0.00e+00	0	22	0	145752064	73	4748
2026-01-11 00:48:06.88	24.94	10.02	-53.1	-55.8	13.9	0.00e+00	0	22	0	147849216	72	4875
2026-01-11 00:48:07.88	24.94	10.11	-53.2	-55.9	13.9	0.00e+00	0	22	0	149946368	72	4939
2026-01-11 00:48:08.88	24.95	10.19	-53.2	-55.8	13.9	0.00e+00	0	22	0	150994944	72	4900
2026-01-11 00:48:09.87	24.95	10.28	-53.2	-55.8	13.9	0.00e+00	0	22	0	153092096	72	4912
2026-01-11 00:48:10.87	24.95	10.37	-53.2	-55.8	13.9	0.00e+00	0	22	0	155189248	72	4895
2026-01-11 00:48:11.87	24.96	10.46	-53.1	-55.6	14.0	0.00e+00	0	22	0	157286400	72	4812
2026-01-11 00:48:12.87	24.96	10.54	-53.0	-55.5	14.1	0.00e+00	0	22	0	159383552	72	4738
2026-01-11 00:48:13.87	24.96	10.63	-53.0	-55.4	14.2	0.00e+00	0	22	0	160432128	72	4697
2026-01-11 00:48:14.87	24.96	10.72	-53.0	-55.5	14.1	0.00e+00	0	22	0	162529280	72	4737
2026-01-11 00:48:15.88	24.97	10.81	-53.1	-55.7	14.0	0.00e+00	0	22	0	164626432	72	4847
2026-01-11 00:48:16.87	24.97	10.90	-53.1	-55.6	14.1	0.00e+00	0	22	0	166723584	72	4774
2026-01-11 00:48:17.87	24.97	10.99	-53.0	-55.5	14.1	0.00e+00	0	22	0	167772160	72	4745
2026-01-11 00:48:18.87	24.97	11.08	-52.9	-55.4	14.2	0.00e+00	0	22	0	169869312	72	4673
2026-01-11 00:48:19.87	24.98	11.17	-53.0	-55.5	14.1	0.00e+00	0	23	0	171966464	72	4747
2026-01-11 00:48:20.87	24.98	11.26	-52.9	-55.4	14.2	0.00e+00	0	23	0	174063616	72	4677
2026-01-11 00:48:21.86	24.98	11.35	-52.8	-55.2	14.3	0.00e+00	0	23	0	176160768	72	4574
2026-01-11 00:48:22.87	24.99	11.45	-52.8	-55.2	14.4	0.00e+00	0	23	0	177209344	72	4587
2026-01-11 00:48:23.87	24.99	11.54	-52.8	-55.2	14.4	0.00e+00	0	23	0	179306496	72	4553
2026-01-11 00:48:24.86	24.99	11.63	-52.6	-54.9	14.4	0.00e+00	0	23	0	181403648	71	4684
2026-01-11 00:48:25.86	24.99	11.72	-52.6	-54.9	14.4	0.00e+00	0	23	0	183500800	71	4698
2026-01-11 00:48:26.85	25.00	11.81	-52.7	-55.1	14.3	0.00e+00	0	23	0	185597952	71	4802
2026-01-11 00:48:27.85	25.00	11.91	-52.7	-55.0	14.3	0.00e+00	0	22	0	186646528	71	4736
2026-01-11 00:48:28.85	25.00	12.00	-52.6	-54.9	14.4	0.00e+00	0	23	0	188743680	71	4680
2026-01-11 00:48:29.85	25.00	12.10	-52.5	-54.8	14.4	0.00e+00	0	23	0	190840832	71	4614
2026-01-11 00:48:30.85	25.01	12.19	-52.5	-54.7	14.5	0.00e+00	0	22	0	192937984	71	4595
2026-01-11 00:48:31.86	25.01	12.29	-52.5	-54.8	14.5	0.00e+00	0	23	0	195035136	71	4606
2026-01-11 00:48:32.86	25.01	12.38	-52.5	-54.8	14.4	0.00e+00	0	22	0	196083712	71	4634
2026-01-11 00:48:33.85	25.01	12.48	-52.5	-54.7	14.5	0.00e+00	0	22	0	198180864	71	4565
2026-01-11 00:48:34.85	25.02	12.57	-52.4	-54.7	14.5	0.00e+00	0	22	0	200278016	71	4552
2026-01-11 00:48:35.85	25.02	12.67	-52.3	-54.5	14.6	0.00e+00	0	22	0	202375168	71	4471
2026-01-11 00:48:36.85	25.02	12.76	-52.3	-54.5	14.6	0.00e+00	0	23	0	203423744	71	4465
2026-01-11 00:48:37.85	25.02	12.86	-52.3	-54.4	14.7	0.00e+00	0	23	0	205520896	71	4440
2026-01-11 00:48:38.85	25.03	12.96	-52.3	-54.4	14.7	0.00e+00	0	23	0	207618048	71	4415
2026-01-11 00:48:39.85	25.03	13.06	-52.2	-54.3	14.6	0.00e+00	0	23	0	209715200	70	4624
2026-01-11 00:48:40.85	25.03	13.16	-52.1	-54.3	14.6	0.00e+00	0	22	0	211812352	70	4608
2026-01-11 00:48:41.84	25.03	13.25	-52.1	-54.2	14.6	0.00e+00	0	23	0	212860928	70	4597
2026-01-11 00:48:42.84	25.04	13.35	-52.0	-54.1	14.7	0.00e+00	0	22	0	214958080	70	4526
2026-01-11 00:48:43.85	25.04	13.45	-52.0	-54.1	14.8	0.00e+00	0	23	0	217055232	70	4500
2026-01-11 00:48:44.85	25.04	13.55	-51.9	-54.0	14.9	0.00e+00	0	23	0	219152384	70	4442
2026-01-11 00:48:45.85	25.04	13.65	-51.8	-53.8	14.9	0.00e+00	0	23	0	221249536	70	4361
2026-01-11 00:48:46.84	25.05	13.75	-51.9	-53.9	14.9	0.00e+00	0	22	0	222298112	70	4392
2026-01-11 00:48:47.84	25.05	13.85	-51.9	-53.9	14.9	0.00e+00	0	23	0	224395264	70	4393
2026-01-11 00:48:48.84	25.05	13.96	-51.9	-53.9	14.8	0.00e+00	0	23	0	226492416	70	4423
2026-01-11 00:48:49.84	25.05	14.06	-51.6	-53.6	14.9	0.00e+00	0	23	0	228589568	69	4503
2026-01-11 00:48:50.84	25.06	14.16	-51.5	-53.4	15.0	0.00e+00	0	23	0	230686720	69	4424
2026-01-11 00:48:51.83	25.06	14.26	-51.6	-53.5	14.9	0.00e+00	0	22	0	231735296	69	4456
2026-01-11 00:48:52.84	25.06	14.37	-51.5	-53.4	15.0	0.00e+00	0	23	0	233832448	69	4430
2026-01-11 00:48:53.83	25.06	14.47	-51.4	-53.3	15.0	0.00e+00	0	22	0	235929600	69	4374
2026-01-11 00:48:54.83	25.06	14.57	-51.4	-53.3	15.0	0.00e+00	0	23	0	238026752	69	4379
2026-01-11 00:48:55.82	25.07	14.68	-51.5	-53.3	15.0	0.00e+00	0	23	0	239075328	69	4384
2026-01-11 00:48:56.82	25.07	14.78	-51.2	-53.1	15.2	0.00e+00	0	23	0	241172480	69	4243
2026-01-11 00:48:57.81	25.07	14.89	-51.3	-53.1	15.2	0.00e+00	0	22	0	243269632	69	4259
2026-01-11 00:48:58.81	25.07	14.99	-51.3	-53.1	15.2	0.00e+00	0	23	0	245366784	69	4272
2026-01-11 00:48:59.81	25.08	15.10	-51.3	-53.2	15.1	0.00e+00	0	22	0	247463936	69	4299
2026-01-11 00:49:00.80	25.08	15.20	-51.4	-53.3	15.1	0.00e+00	0	22	0	248512512	69	4350
2026-01-11 00:49:01.80	25.08	15.31	-51.4	-53.2	15.1	0.00e+00	0	23	0	250609664	69	4319
2026-01-11 00:49:02.80	25.08	15.42	-51.4	-53.2	15.1	0.00e+00	0	23	0	252706816	69	4332
2026-01-11 00:49:03.81	25.08	15.53	-51.3	-53.1	15.1	0.00e+00	0	23	0	254803968	69	4271
2026-01-11 00:49:04.81	25.09	15.64	-51.4	-53.3	15.1	0.00e+00	0	23	0	255852544	69	4346
2026-01-11 00:49:05.81	25.09	15.75	-51.4	-53.3	15.1	0.00e+00	0	23	0	257949696	69	4342
2026-01-11 00:49:06.80	25.09	15.86	-51.3	-53.1	15.2	0.00e+00	0	23	0	260046848	69	4252
2026-01-11 00:49:07.79	25.09	15.97	-51.3	-53.1	15.1	0.00e+00	0	23	0	262144000	69	4288
2026-01-11 00:49:08.79	25.09	16.08	-51.2	-53.0	15.2	0.00e+00	0	23	0	264241152	69	4220
2026-01-11 00:49:09.79	25.10	16.19	-51.3	-53.2	15.1	0.00e+00	0	23	0	265289728	69	4304
2026-01-11 00:49:10.77	25.10	16.30	-51.3	-53.2	15.1	0.00e+00	0	23	0	267386880	69	4314
2026-01-11 00:49:11.76	25.10	16.41	-51.2	-53.0	15.2	0.00e+00	0	23	0	269484032	69	4209
2026-01-11 00:49:12.77	25.10	16.52	-51.2	-53.0	15.1	0.00e+00	0	23	0	271581184	68	4463
2026-01-11 00:49:13.78	25.10	16.64	-51.2	-53.1	15.0	0.00e+00	0	23	0	272629760	68	4508
2026-01-11 00:49:14.78	25.11	16.75	-51.1	-52.9	15.1	0.00e+00	0	23	0	274726912	68	4404
2026-01-11 00:49:15.78	25.11	16.87	-51.2	-53.0	15.1	0.00e+00	0	23	0	276824064	68	4443
2026-01-11 00:49:16.78	25.11	16.98	-51.1	-52.9	15.1	0.00e+00	0	23	0	278921216	68	4401
2026-01-11 00:49:17.78	25.11	17.10	-51.1	-52.9	15.1	0.00e+00	0	23	0	281018368	68	4408
2026-01-11 00:49:18.78	25.11	17.21	-51.2	-53.0	15.0	0.00e+00	0	23	0	282066944	68	4482
2026-01-11 00:49:19.77	25.12	17.33	-51.0	-52.8	15.1	0.00e+00	0	23	0	284164096	68	4375
2026-01-11 00:49:20.77	25.12	17.45	-51.0	-52.8	15.2	0.00e+00	0	23	0	286261248	68	4349
2026-01-11 00:49:21.77	25.12	17.56	-51.1	-52.9	15.1	0.00e+00	0	23	0	288358400	68	4419
2026-01-11 00:49:22.77	25.12	17.68	-50.9	-52.7	15.2	0.00e+00	0	23	0	290455552	68	4293
2026-01-11 00:49:23.77	25.12	17.80	-51.0	-52.8	15.1	0.00e+00	0	23	0	291504128	68	4367
2026-01-11 00:49:24.76	25.13	17.92	-51.0	-52.8	15.2	0.00e+00	0	23	0	293601280	68	4345
2026-01-11 00:49:25.76	25.13	18.04	-51.0	-52.7	15.2	0.00e+00	0	23	0	295698432	68	4338
2026-01-11 00:49:26.76	25.13	18.16	-51.0	-52.8	15.2	0.00e+00	0	23	0	297795584	68	4367
2026-01-11 00:49:27.76	25.13	18.28	-50.9	-52.7	15.2	0.00e+00	0	23	0	298844160	68	4299
2026-01-11 00:49:28.77	25.13	18.40	-51.0	-52.8	15.2	0.00e+00	0	23	0	300941312	68	4376
2026-01-11 00:49:29.76	25.13	18.53	-51.1	-52.8	15.1	0.00e+00	0	23	0	303038464	68	4391
2026-01-11 00:49:30.76	25.14	18.65	-51.0	-52.7	15.2	0.00e+00	0	23	0	305135616	68	4338
2026-01-11 00:49:31.75	25.14	18.77	-51.2	-53.0	15.1	0.00e+00	0	23	0	307232768	68	4442
2026-01-11 00:49:32.75	25.14	18.90	-51.2	-53.0	15.1	0.00e+00	0	23	0	308281344	68	4475
2026-01-11 00:49:33.75	25.14	19.02	-51.3	-53.2	14.9	0.00e+00	0	23	0	310378496	68	4559
2026-01-11 00:49:34.74	25.14	19.14	-51.3	-53.1	15.0	0.00e+00	0	23	0	312475648	68	4532
2026-01-11 00:49:35.74	25.14	19.27	-51.3	-53.1	15.0	0.00e+00	0	23	0	314572800	68	4515
2026-01-11 00:49:36.74	25.14	19.40	-51.3	-53.2	15.0	0.00e+00	0	23	0	316669952	68	4572
2026-01-11 00:49:37.74	25.15	19.53	-51.4	-53.2	14.9	0.00e+00	0	23	0	317718528	68	4594
2026-01-11 00:49:38.74	25.15	19.65	-51.2	-53.1	15.0	0.00e+00	0	23	0	319815680	68	4504
2026-01-11 00:49:39.72	25.15	19.78	-51.4	-53.3	14.9	0.00e+00	0	23	0	321912832	68	4606
2026-01-11 00:49:40.72	25.15	19.91	-51.4	-53.3	15.0	0.00e+00	0	23	0	324009984	68	4600
2026-01-11 00:49:41.72	25.15	20.04	-51.3	-53.1	15.0	0.00e+00	0	23	0	325058560	68	4509
2026-01-11 00:49:42.72	25.15	20.17	-51.3	-53.1	15.0	0.00e+00	0	23	0	327155712	68	4514
2026-01-11 00:49:43.71	25.16	20.30	-51.4	-53.2	14.9	0.00e+00	0	23	0	329252864	68	4591
2026-01-11 00:49:44.72	25.16	20.43	-51.4	-53.2	14.9	0.00e+00	0	23	0	331350016	68	4584
2026-01-11 00:49:45.72	25.16	20.57	-51.4	-53.3	14.9	0.00e+00	0	22	0	333447168	68	4624
2026-01-11 00:49:46.71	25.16	20.70	-51.2	-53.1	15.0	0.00e+00	0	23	0	334495744	68	4495
2026-01-11 00:49:47.71	25.16	20.83	-51.4	-53.3	14.9	0.00e+00	0	23	0	336592896	68	4615
2026-01-11 00:49:48.70	25.16	20.97	-51.3	-53.2	15.0	0.00e+00	0	23	0	338690048	68	4555
2026-01-11 00:49:49.70	25.16	21.10	-51.5	-53.4	14.9	0.00e+00	0	23	0	340787200	68	4667
2026-01-11 00:49:50.70	25.16	21.24	-51.5	-53.4	14.9	0.00e+00	0	23	0	342884352	68	4664
2026-01-11 00:49:51.70	25.17	21.38	-51.4	-53.3	14.9	0.00e+00	0	23	0	343932928	68	4607
2026-01-11 00:49:52.70	25.17	21.52	-51.4	-53.2	14.9	0.00e+00	0	23	0	346030080	68	4593
2026-01-11 00:49:53.70	25.17	21.66	-51.5	-53.4	14.9	0.00e+00	0	23	0	348127232	68	4661
2026-01-11 00:49:54.70	25.17	21.79	-51.3	-53.2	15.0	0.00e+00	0	23	0	350224384	68	4553
2026-01-11 00:49:55.70	25.17	21.94	-51.6	-53.5	14.8	0.00e+00	0	23	0	351272960	68	4736
2026-01-11 00:49:56.70	25.17	22.08	-51.6	-53.6	14.8	0.00e+00	0	23	0	353370112	68	4770
2026-01-11 00:49:57.70	25.17	22.22	-51.5	-53.4	14.9	0.00e+00	0	23	0	355467264	68	4677
2026-01-11 00:49:58.69	25.17	22.36	-51.4	-53.3	14.9	0.00e+00	0	23	0	357564416	68	4618
2026-01-11 00:49:59.68	25.17	22.50	-51.5	-53.3	14.9	0.00e+00	0	23	0	359661568	68	4640
2026-01-11 00:50:00.67	25.17	22.64	-51.5	-53.4	14.9	0.00e+00	0	23	0	360710144	68	4670
2026-01-11 00:50:01.67	25.18	22.79	-51.5	-53.3	14.9	0.00e+00	0	23	0	362807296	68	4638
2026-01-11 00:50:02.66	25.18	22.93	-51.3	-53.1	15.0	0.00e+00	0	23	0	364904448	68	4505
2026-01-11 00:50:03.67	25.18	23.08	-51.4	-53.3	14.9	0.00e+00	0	23	0	367001600	68	4611
2026-01-11 00:50:04.66	25.18	23.23	-51.4	-53.2	14.9	0.00e+00	0	23	0	368050176	68	4596
2026-01-11 00:50:05.66	25.18	23.38	-51.3	-53.1	15.0	0.00e+00	0	23	0	370147328	68	4540
2026-01-11 00:50:06.65	25.18	23.53	-51.3	-53.1	15.0	0.00e+00	0	23	0	372244480	68	4519
2026-01-11 00:50:07.65	25.18	23.68	-51.4	-53.2	15.0	0.00e+00	0	23	0	374341632	68	4582
2026-01-11 00:50:08.64	25.18	23.83	-51.6	-53.4	14.8	0.00e+00	0	23	0	376438784	68	4701
2026-01-11 00:50:09.64	25.18	23.98	-51.5	-53.3	14.9	0.00e+00	0	23	0	377487360	68	4649
2026-01-11 00:50:10.65	25.18	24.13	-51.4	-53.2	15.0	0.00e+00	0	23	0	379584512	68	4556
2026-01-11 00:50:11.64	25.18	24.28	-51.6	-53.5	14.8	0.00e+00	0	23	0	381681664	68	4718
2026-01-11 00:50:12.65	25.18	24.44	-51.5	-53.3	14.9	0.00e+00	0	23	0	383778816	68	4620
2026-01-11 00:50:13.65	25.18	24.60	-51.3	-53.1	15.0	0.00e+00	0	23	0	385875968	68	4521
2026-01-11 00:50:14.65	25.18	24.75	-51.4	-53.2	14.9	0.00e+00	0	23	0	386924544	68	4588
2026-01-11 00:50:15.65	25.18	24.91	-51.3	-53.0	15.0	0.00e+00	0	23	0	389021696	68	4483
2026-01-11 00:50:16.64	25.18	25.07	-51.4	-53.2	15.0	0.00e+00	0	23	0	391118848	68	4552
2026-01-11 00:50:17.64	25.18	25.23	-51.1	-52.8	15.2	0.00e+00	0	23	0	393216000	68	4379
2026-01-11 00:50:18.64	25.19	25.39	-51.1	-52.8	15.2	0.00e+00	0	23	0	394264576	68	4379
2026-01-11 00:50:19.64	25.19	25.55	-51.1	-52.8	15.2	0.00e+00	0	23	0	396361728	68	4367
2026-01-11 00:50:20.64	25.19	25.71	-51.2	-53.0	15.1	0.00e+00	0	23	0	398458880	68	4447
2026-01-11 00:50:21.64	25.19	25.87	-51.2	-52.9	15.1	0.00e+00	0	23	0	400556032	68	4435
2026-01-11 00:50:22.64	25.19	26.04	-51.3	-53.0	15.1	0.00e+00	0	23	0	402653184	68	4489
2026-01-11 00:50:23.64	25.19	26.20	-51.5	-53.3	14.9	0.00e+00	0	23	0	403701760	68	4648
2026-01-11 00:50:24.65	25.19	26.37	-51.6	-53.4	14.9	0.00e+00	0	23	0	405798912	68	4692
2026-01-11 00:50:25.64	25.19	26.54	-51.5	-53.3	14.9	0.00e+00	0	23	0	407896064	68	4648
2026-01-11 00:50:26.63	25.19	26.70	-51.7	-53.5	14.8	0.00e+00	0	23	0	409993216	68	4756
2026-01-11 00:50:27.63	25.19	26.87	-51.5	-53.3	14.9	0.00e+00	0	23	0	412090368	68	4614
2026-01-11 00:50:28.63	25.19	27.05	-51.4	-53.1	15.0	0.00e+00	0	23	0	413138944	68	4532
2026-01-11 00:50:29.63	25.19	27.22	-51.5	-53.3	14.9	0.00e+00	0	23	0	415236096	68	4619
2026-01-11 00:50:30.63	25.19	27.39	-51.5	-53.3	14.9	0.00e+00	0	23	0	417333248	68	4629
2026-01-11 00:50:31.63	25.18	27.56	-51.7	-53.5	14.8	0.00e+00	0	23	0	419430400	68	4729
2026-01-11 00:50:32.63	25.18	27.74	-51.4	-53.1	15.0	0.00e+00	0	23	0	420478976	68	4529
2026-01-11 00:50:33.63	25.18	27.91	-51.4	-53.2	15.0	0.00e+00	0	23	0	422576128	68	4572
2026-01-11 00:50:34.62	25.18	28.09	-51.7	-53.5	14.8	0.00e+00	0	23	0	424673280	68	4758
2026-01-11 00:50:35.62	25.18	28.27	-51.8	-53.6	14.9	0.00e+00	0	23	0	426770432	69	4529
2026-01-11 00:50:36.62	25.18	28.45	-51.9	-53.8	14.8	0.00e+00	0	23	0	428867584	69	4644
2026-01-11 00:50:37.62	25.18	28.63	-52.4	-54.5	14.6	0.00e+00	0	23	0	429916160	70	4717
2026-01-11 00:50:38.62	25.18	28.81	-52.6	-54.8	14.4	0.00e+00	0	23	0	432013312	70	4884
2026-01-11 00:50:39.62	25.18	28.99	-52.8	-54.9	14.4	0.00e+00	0	23	0	434110464	70	4981
2026-01-11 00:50:40.62	25.18	29.18	-52.9	-55.1	14.4	0.00e+00	0	23	0	436207616	71	4804
2026-01-11 00:50:41.63	25.18	29.37	-52.8	-55.0	14.5	0.00e+00	0	23	0	438304768	71	4716
2026-01-11 00:50:42.62	25.18	29.55	-53.1	-55.5	14.2	0.00e+00	0	23	0	439353344	71	5011
2026-01-11 00:50:43.62	25.18	29.74	-52.8	-55.1	14.4	0.00e+00	0	23	0	441450496	71	4769
2026-01-11 00:50:44.62	25.18	29.93	-52.8	-55.0	14.5	0.00e+00	0	23	0	443547648	71	4729
2026-01-11 00:50:45.62	25.18	30.12	-53.2	-55.7	14.0	0.00e+00	0	23	0	445644800	71	5116
2026-01-11 00:50:46.62	25.17	30.31	-53.0	-55.3	14.3	0.00e+00	0	23	0	446693376	71	4917
2026-01-11 00:50:47.62	25.17	30.50	-52.9	-55.2	14.4	0.00e+00	0	23	0	448790528	71	4848
2026-01-11 00:50:48.63	25.17	30.70	-53.2	-55.7	14.2	0.00e+00	0	23	0	450887680	72	4815
2026-01-11 00:50:49.62	25.17	30.89	-53.5	-56.0	14.0	0.00e+00	0	23	0	452984832	72	5005
2026-01-11 00:50:50.63	25.17	31.09	-53.6	-56.2	13.9	0.00e+00	0	23	0	455081984	72	5129
2026-01-11 00:50:51.62	25.17	31.29	-53.5	-56.0	14.1	0.00e+00	0	23	0	456130560	72	4994
2026-01-11 00:50:52.62	25.17	31.49	-53.5	-56.0	14.0	0.00e+00	0	23	0	458227712	72	5007
2026-01-11 00:50:53.62	25.17	31.69	-53.4	-55.8	14.1	0.00e+00	0	23	0	460324864	72	4918
2026-01-11 00:50:54.61	25.16	31.89	-53.3	-55.6	14.2	0.00e+00	0	23	0	462422016	72	4794
2026-01-11 00:50:55.61	25.16	32.09	-53.0	-55.3	14.5	0.00e+00	0	23	0	464519168	72	4608
2026-01-11 00:50:56.60	25.16	32.30	-53.0	-55.3	14.5	0.00e+00	0	23	0	465567744	72	4620
2026-01-11 00:50:57.59	25.16	32.50	-53.0	-55.2	14.5	0.00e+00	0	23	0	467664896	72	4578
2026-01-11 00:50:58.59	25.16	32.71	-53.1	-55.3	14.4	0.00e+00	0	23	0	469762048	72	4651
2026-01-11 00:50:59.59	25.15	32.92	-53.2	-55.5	14.3	0.00e+00	0	23	0	471859200	72	4739
2026-01-11 00:51:00.59	25.15	33.13	-53.2	-55.5	14.3	0.00e+00	0	23	0	472907776	72	4759
2026-01-11 00:51:01.59	25.15	33.34	-53.2	-55.6	14.3	0.00e+00	0	23	0	475004928	72	4762
2026-01-11 00:51:02.59	25.15	33.56	-53.3	-55.7	14.3	0.00e+00	0	23	0	477102080	72	4854
2026-01-11 00:51:03.59	25.15	33.77	-52.9	-55.1	14.6	0.00e+00	0	23	0	479199232	72	4528
2026-01-11 00:51:04.59	25.14	33.99	-52.9	-55.1	14.5	0.00e+00	0	23	0	481296384	72	4535
2026-01-11 00:51:05.59	25.14	34.21	-52.5	-54.6	14.7	0.00e+00	0	23	0	482344960	71	4529
2026-01-11 00:51:06.59	25.14	34.43	-52.3	-54.3	14.9	0.00e+00	0	23	0	484442112	71	4364
2026-01-11 00:51:07.59	25.14	34.65	-52.0	-54.0	15.0	0.00e+00	0	23	0	486539264	70	4451
2026-01-11 00:51:08.59	25.13	34.87	-51.8	-53.7	14.9	0.00e+00	0	23	0	488636416	69	4553
2026-01-11 00:51:09.59	25.13	35.10	-51.3	-53.0	15.3	0.00e+00	0	23	0	490733568	69	4221
2026-01-11 00:51:10.58	25.13	35.32	-51.5	-53.3	15.1	0.00e+00	0	23	0	491782144	69	4358
2026-01-11 00:51:11.58	25.12	35.55	-51.3	-53.1	15.2	0.00e+00	0	23	0	493879296	69	4270
2026-01-11 00:51:12.58	25.12	35.78	-51.1	-52.8	15.2	0.00e+00	0	23	0	495976448	68	4389
2026-01-11 00:51:13.57	25.12	36.01	-50.8	-52.5	15.4	0.00e+00	0	23	0	498073600	68	4196
2026-01-11 00:51:14.57	25.11	36.24	-50.8	-52.5	15.4	0.00e+00	0	23	0	499122176	68	4197
2026-01-11 00:51:15.56	25.11	36.47	-50.4	-52.0	15.4	0.00e+00	0	23	0	501219328	67	4206
2026-01-11 00:51:16.56	25.11	36.71	-50.2	-51.8	15.3	0.00e+00	0	23	0	503316480	66	4356
2026-01-11 00:51:17.56	25.10	36.95	-50.0	-51.5	15.5	0.00e+00	0	23	0	505413632	66	4215
2026-01-11 00:51:18.56	25.10	37.19	-50.0	-51.6	15.4	0.00e+00	0	23	0	507510784	66	4258
2026-01-11 00:51:19.56	25.10	37.43	-50.0	-51.6	15.5	0.00e+00	0	23	0	508559360	66	4244
2026-01-11 00:51:20.56	25.09	37.67	-50.2	-51.8	15.3	0.00e+00	0	23	0	510656512	66	4378
2026-01-11 00:51:21.56	25.09	37.92	-50.3	-51.9	15.3	0.00e+00	0	23	0	512753664	66	4419
2026-01-11 00:51:22.55	25.08	38.16	-50.1	-51.6	15.4	0.00e+00	0	23	0	514850816	66	4282
2026-01-11 00:51:23.55	25.08	38.41	-50.4	-51.9	15.2	0.00e+00	0	23	0	516947968	66	4440
2026-01-11 00:51:24.55	25.07	38.66	-50.2	-51.7	15.4	0.00e+00	0	23	0	517996544	66	4314
2026-01-11 00:51:25.54	25.07	38.91	-50.1	-51.6	15.4	0.00e+00	0	23	0	520093696	66	4283
2026-01-11 00:51:26.54	25.07	39.17	-50.0	-51.5	15.5	0.00e+00	0	23	0	522190848	66	4216
2026-01-11 00:51:27.54	25.06	39.43	-50.2	-51.7	15.4	0.00e+00	0	23	0	524288000	66	4310
2026-01-11 00:51:28.54	25.05	39.68	-50.4	-52.0	15.3	0.00e+00	0	23	0	525336576	66	4442
2026-01-11 00:51:29.54	25.05	39.94	-50.6	-52.2	15.2	0.00e+00	0	23	0	527433728	66	4571
2026-01-11 00:51:30.54	25.04	40.21	-50.6	-52.3	15.1	0.00e+00	0	23	0	529530880	66	4602
2026-01-11 00:51:31.54	25.04	40.47	-50.7	-52.3	15.3	0.00e+00	0	23	0	531628032	67	4388
2026-01-11 00:51:32.53	25.03	40.73	-50.6	-52.2	15.3	0.00e+00	0	23	0	533725184	67	4335
2026-01-11 00:51:33.53	25.03	41.00	-50.9	-52.7	15.1	0.00e+00	0	23	0	534773760	67	4551
2026-01-11 00:51:34.53	25.02	41.27	-50.7	-52.4	15.2	0.00e+00	0	23	0	536870912	67	4423
2026-01-11 00:51:35.53	25.02	41.54	-50.4	-52.0	15.4	0.00e+00	0	23	0	538968064	67	4214
2026-01-11 00:51:36.53	25.01	41.82	-50.7	-52.4	15.2	0.00e+00	0	23	0	541065216	67	4400
2026-01-11 00:51:37.52	25.00	42.09	-50.7	-52.3	15.3	0.00e+00	0	23	0	542113792	67	4385
2026-01-11 00:51:38.52	25.00	42.37	-50.6	-52.2	15.4	0.00e+00	0	23	0	544210944	67	4310
2026-01-11 00:51:39.51	24.99	42.65	-50.5	-52.1	15.4	0.00e+00	0	23	0	546308096	67	4244
2026-01-11 00:51:40.51	24.98	42.93	-50.7	-52.3	15.3	0.00e+00	0	23	0	548405248	67	4361
2026-01-11 00:51:41.51	24.97	43.22	-50.4	-52.0	15.4	0.00e+00	0	23	0	550502400	67	4217
2026-01-11 00:51:42.50	24.97	43.50	-50.5	-52.1	15.4	0.00e+00	0	23	0	551550976	67	4265
2026-01-11 00:51:43.50	24.96	43.79	-50.7	-52.3	15.3	0.00e+00	0	23	0	553648128	67	4369
2026-01-11 00:51:44.51	24.95	44.08	-50.7	-52.3	15.3	0.00e+00	0	23	0	555745280	67	4377
2026-01-11 00:51:45.51	24.94	44.38	-50.9	-52.5	15.2	0.00e+00	0	23	0	557842432	67	4452
2026-01-11 00:51:46.51	24.93	44.67	-51.0	-52.6	15.1	0.00e+00	0	23	0	559939584	67	4528
2026-01-11 00:51:47.51	24.93	44.97	-51.9	-53.7	14.7	0.00e+00	0	23	0	560988160	68	4859
2026-01-11 00:51:48.52	24.92	45.27	-52.3	-54.2	14.7	0.00e+00	0	23	0	563085312	69	4834
2026-01-11 00:51:49.53	24.91	45.58	-52.8	-54.9	14.5	0.00e+00	0	23	0	565182464	70	4933
2026-01-11 00:51:50.52	24.90	45.88	-53.1	-55.3	14.4	0.00e+00	0	23	0	567279616	71	4894
2026-01-11 00:51:51.51	24.89	46.18	-52.9	-55.0	14.6	0.00e+00	0	23	0	569376768	71	4740
2026-01-11 00:51:52.51	24.88	46.49	-52.8	-55.0	14.5	0.00e+00	0	23	0	570425344	71	4715
2026-01-11 00:51:53.50	24.87	46.80	-52.6	-54.6	14.8	0.00e+00	0	23	0	572522496	71	4538
2026-01-11 00:51:54.50	24.86	47.12	-52.6	-54.6	14.7	0.00e+00	0	23	0	574619648	71	4543
2026-01-11 00:51:55.49	24.85	47.43	-52.8	-54.9	14.6	0.00e+00	0	23	0	576716800	71	4663
2026-01-11 00:51:56.49	24.84	47.75	-52.8	-54.9	14.6	0.00e+00	0	23	0	577765376	71	4677
2026-01-11 00:51:57.49	24.83	48.07	-53.3	-55.5	14.3	0.00e+00	0	23	0	579862528	72	4756
2026-01-11 00:51:58.49	24.81	48.39	-53.4	-55.8	14.2	0.00e+00	0	23	0	581959680	72	4900
2026-01-11 00:51:59.49	24.80	48.72	-53.3	-55.6	14.4	0.00e+00	0	23	0	584056832	72	4790
2026-01-11 00:52:00.49	24.79	49.05	-53.2	-55.5	14.4	0.00e+00	0	23	0	586153984	72	4714
2026-01-11 00:52:01.49	24.78	49.38	-52.8	-54.9	14.8	0.00e+00	0	23	0	587202560	72	4403
2026-01-11 00:52:02.48	24.76	49.71	-52.7	-54.8	14.6	0.00e+00	0	23	0	589299712	71	4631
2026-01-11 00:52:03.48	24.75	50.04	-52.5	-54.5	14.8	0.00e+00	0	23	0	591396864	71	4486
2026-01-11 00:52:04.47	24.74	50.38	-52.1	-53.9	15.0	0.00e+00	0	23	0	593494016	70	4441
2026-01-11 00:52:05.46	24.72	50.71	-51.4	-53.1	15.2	0.00e+00	0	23	0	594542592	69	4274
2026-01-11 00:52:06.46	24.71	51.06	-51.1	-52.8	15.2	0.00e+00	0	23	0	596639744	68	4358
2026-01-11 00:52:07.46	24.69	51.40	-51.1	-52.7	15.3	0.00e+00	0	23	0	598736896	68	4339
2026-01-11 00:52:08.46	24.68	51.75	-50.9	-52.6	15.3	0.00e+00	0	23	0	600834048	68	4263
2026-01-11 00:52:09.46	24.66	52.10	-51.0	-52.7	15.3	0.00e+00	0	23	0	602931200	68	4292
2026-01-11 00:52:10.46	24.64	52.46	-51.3	-53.0	15.2	0.00e+00	0	23	0	603979776	68	4474
2026-01-11 00:52:11.44	24.63	52.80	-51.0	-52.7	15.3	0.00e+00	0	23	0	606076928	68	4303
2026-01-11 00:52:12.45	24.61	53.17	-50.4	-52.0	15.5	0.00e+00	0	23	0	608174080	67	4199
2026-01-11 00:52:13.44	24.59	53.52	-50.2	-51.7	15.4	0.00e+00	0	23	0	610271232	66	4294
2026-01-11 00:52:14.44	24.57	53.89	-49.6	-51.0	15.5	0.00e+00	0	23	0	611319808	65	4222
2026-01-11 00:52:15.44	24.55	54.25	-49.6	-51.0	15.6	0.00e+00	0	23	0	613416960	65	4196
2026-01-11 00:52:16.43	24.53	54.62	-50.0	-51.5	15.3	0.00e+00	0	23	0	615514112	65	4478
2026-01-11 00:52:17.44	24.51	54.99	-50.7	-52.4	15.1	0.00e+00	0	23	0	617611264	66	4661
2026-01-11 00:52:18.44	24.49	55.37	-50.7	-52.3	15.3	0.00e+00	0	23	0	619708416	67	4359
2026-01-11 00:52:19.44	24.47	55.75	-50.4	-51.9	15.4	0.00e+00	0	23	0	621805568	67	4192
2026-01-11 00:52:20.44	24.45	56.12	-49.9	-51.4	15.5	0.00e+00	0	23	0	622854144	66	4178
2026-01-11 00:52:21.44	24.43	56.51	-49.6	-51.0	15.6	0.00e+00	0	23	0	624951296	65	4204
2026-01-11 00:52:22.43	24.40	56.89	-49.9	-51.3	15.4	0.00e+00	0	23	0	627048448	65	4385
2026-01-11 00:52:23.44	24.38	57.28	-50.1	-51.6	15.3	0.00e+00	0	23	0	629145600	65	4512
2026-01-11 00:52:24.43	24.35	57.67	-50.3	-51.9	15.3	0.00e+00	0	23	0	630194176	66	4397
2026-01-11 00:52:25.42	24.33	58.05	-50.3	-51.9	15.3	0.00e+00	0	23	0	632291328	66	4405
2026-01-11 00:52:26.42	24.30	58.45	-51.1	-52.8	15.1	0.00e+00	0	23	0	634388480	67	4648
2026-01-11 00:52:27.42	24.27	58.85	-51.8	-53.7	14.8	0.00e+00	0	23	0	636485632	68	4827
2026-01-11 00:52:28.42	24.24	59.25	-52.2	-54.2	14.8	0.00e+00	0	23	0	638582784	69	4839
2026-01-11 00:52:29.41	24.21	59.65	-51.9	-53.7	14.9	0.00e+00	0	23	0	639631360	69	4593
2026-01-11 00:52:30.41	24.18	60.05	-51.4	-53.0	15.3	0.00e+00	0	23	0	641728512	69	4242
2026-01-11 00:52:31.41	24.15	60.46	-51.3	-53.0	15.3	0.00e+00	0	23	0	643825664	69	4222
2026-01-11 00:52:32.40	24.11	60.87	-51.5	-53.2	15.2	0.00e+00	0	23	0	645922816	69	4305
2026-01-11 00:52:33.39	24.08	61.28	-51.5	-53.2	15.2	0.00e+00	0	23	0	646971392	69	4337
2026-01-11 00:52:34.40	24.04	61.70	-50.9	-52.5	15.4	0.00e+00	0	23	0	649068544	68	4196
2026-01-11 00:52:35.40	24.00	62.12	-49.9	-51.3	15.6	0.00e+00	0	23	0	651165696	66	4117
2026-01-11 00:52:36.40	23.97	62.54	-49.1	-50.5	15.6	0.00e+00	0	23	0	653262848	64	4194
2026-01-11 00:52:37.39	23.93	62.96	-48.9	-50.2	15.8	0.00e+00	0	23	0	655360000	64	4094
2026-01-11 00:52:38.38	23.88	63.38	-48.7	-50.0	15.7	0.00e+00	0	23	0	656408576	63	4229
2026-01-11 00:52:39.38	23.84	63.81	-48.9	-50.2	15.6	0.00e+00	0	23	0	658505728	63	4335
2026-01-11 00:52:40.38	23.79	64.24	-49.3	-50.7	15.4	0.00e+00	0	23	0	660602880	63	4577
2026-01-11 00:52:41.38	23.75	64.67	-50.2	-51.7	15.3	0.00e+00	0	23	0	662700032	65	4586
2026-01-11 00:52:42.38	23.70	65.11	-50.2	-51.7	15.2	0.00e+00	0	23	0	663748608	65	4581
2026-01-11 00:52:43.38	23.65	65.55	-50.1	-51.6	15.3	0.00e+00	0	23	0	665845760	65	4507
2026-01-11 00:52:44.38	23.59	65.99	-49.9	-51.3	15.4	0.00e+00	0	23	0	667942912	65	4391
2026-01-11 00:52:45.39	23.53	66.44	-50.4	-52.0	15.3	0.00e+00	0	23	0	670040064	66	4469
2026-01-11 00:52:46.39	23.48	66.89	-51.1	-52.8	15.1	0.00e+00	0	23	0	672137216	67	4613
2026-01-11 00:52:47.39	23.41	67.34	-50.7	-52.3	15.3	0.00e+00	0	23	0	673185792	67	4370
2026-01-11 00:52:48.39	23.35	67.79	-50.8	-52.4	15.3	0.00e+00	0	23	0	675282944	67	4437
2026-01-11 00:52:49.39	23.28	68.24	-51.2	-52.9	15.0	0.00e+00	0	23	0	677380096	67	4687
2026-01-11 00:52:50.39	23.21	68.70	-52.0	-53.7	14.8	0.00e+00	0	23	0	679477248	69	4594
2026-01-11 00:52:51.39	23.14	69.15	-52.8	-54.8	14.5	0.00e+00	0	23	0	681574400	70	4912
2026-01-11 00:52:52.39	23.06	69.62	-53.8	-56.2	14.0	0.00e+00	0	23	0	682622976	72	5156
2026-01-11 00:52:53.39	22.97	70.08	-55.0	-57.9	13.4	0.00e+00	0	23	0	684720128	76	4959
2026-01-11 00:52:54.38	22.89	70.54	-55.3	-58.4	13.2	0.00e+00	0	23	0	686817280	76	5230
2026-01-11 00:52:55.39	22.80	71.01	-55.0	-57.8	13.6	0.00e+00	0	23	0	688914432	76	4894
2026-01-11 00:52:56.40	22.70	71.48	-55.7	-59.1	12.6	0.00e+00	0	23	0	691011584	76	5707
2026-01-11 00:52:57.40	22.59	71.95	-56.2	-60.5	11.7	5.30e-06	0	23	0	692060160	77	6277
2026-01-11 00:52:58.40	22.49	72.43	-55.9	-59.7	12.3	2.13e-05	0	23	0	694157312	77	5752
2026-01-11 00:52:59.40	22.37	72.90	-54.7	-57.6	13.7	0.00e+00	0	23	0	696254464	76	4762
2026-01-11 00:53:00.38	22.25	73.37	-52.9	-54.9	14.8	0.00e+00	0	23	0	698351616	72	4408
2026-01-11 00:53:01.38	22.12	73.85	-52.7	-54.7	14.9	0.00e+00	0	23	0	699400192	72	4331
2026-01-11 00:53:02.37	21.98	74.33	-53.1	-55.3	14.4	0.00e+00	0	23	0	701497344	71	4881
2026-01-11 00:53:03.37	21.84	74.81	-52.9	-55.1	14.6	0.00e+00	0	23	0	703594496	71	4761
2026-01-11 00:53:04.36	21.68	75.29	-52.7	-54.6	14.8	0.00e+00	0	23	0	705691648	71	4530
2026-01-11 00:53:05.36	21.51	75.77	-52.4	-54.2	15.0	0.00e+00	0	23	0	707788800	71	4323
2026-01-11 00:53:06.36	21.33	76.26	-53.2	-55.3	14.3	0.00e+00	0	23	0	708837376	71	4884
2026-01-11 00:53:07.36	21.13	76.75	-55.0	-58.0	13.3	0.00e+00	0	23	0	710934528	75	5300
2026-01-11 00:53:08.36	20.92	77.24	-55.2	-58.2	13.4	7.00e-07	0	23	0	713031680	76	5134
2026-01-11 00:53:09.36	20.69	77.73	-54.3	-56.9	14.1	0.00e+00	0	23	0	715128832	75	4657
2026-01-11 00:53:10.34	20.44	78.22	-55.3	-58.5	12.9	0.00e+00	0	23	0	717225984	75	5621
2026-01-11 00:53:11.34	20.17	78.71	-56.3	-60.4	11.8	2.89e-05	0	23	0	718274560	78	5871
2026-01-11 00:53:12.34	19.87	79.21	-54.5	-57.3	13.8	0.00e+00	0	23	0	720371712	75	4886
2026-01-11 00:53:13.33	19.54	79.70	-53.3	-55.4	14.6	0.00e+00	0	23	0	722468864	73	4406
2026-01-11 00:53:14.33	19.18	80.20	-52.6	-54.5	15.0	0.00e+00	0	23	0	724566016	71	4461
2026-01-11 00:53:15.33	18.78	80.69	-52.3	-54.2	14.9	0.00e+00	0	23	0	725614592	70	4569
2026-01-11 00:53:16.33	18.33	81.19	-53.3	-55.6	14.3	0.00e+00	0	23	0	727711744	71	5071
2026-01-11 00:53:17.32	17.83	81.69	-54.6	-57.5	13.6	0.00e+00	0	23	0	729808896	74	5334
2026-01-11 00:53:18.33	17.25	82.19	-53.6	-56.4	14.2	0.00e+00	0	23	0	731906048	74	4694
2026-01-11 00:53:19.32	16.61	82.69	-52.7	-54.7	14.9	0.00e+00	0	23	0	734003200	72	4313
2026-01-11 00:53:20.32	15.86	83.19	-52.4	-54.4	14.9	0.00e+00	0	23	0	735051776	71	4395
2026-01-11 00:53:21.33	14.99	83.69	-51.2	-52.8	15.4	0.00e+00	0	23	0	737148928	69	4141
2026-01-11 00:53:22.32	13.98	84.18	-50.4	-51.8	15.5	0.00e+00	0	23	0	739246080	67	4143
2026-01-11 00:53:23.32	12.77	84.68	-50.6	-52.2	15.2	0.00e+00	0	23	0	741343232	66	4573
2026-01-11 00:53:24.33	11.30	85.18	-51.2	-52.8	15.1	0.00e+00	0	23	0	742391808	67	4628
2026-01-11 00:53:25.33	9.50	85.67	-50.8	-52.4	15.3	0.00e+00	0	23	0	744488960	67	4396
2026-01-11 00:53:26.33	7.24	86.16	-50.8	-52.4	15.3	0.00e+00	0	23	0	746586112	67	4433
2026-01-11 00:53:27.33	4.33	86.64	-51.2	-52.9	15.1	0.00e+00	0	23	0	748683264	67	4671
2026-01-11 00:53:28.34	0.41	87.11	-53.1	-55.2	14.5	0.00e+00	0	23	0	750780416	71	4820
2026-01-11 00:53:29.33	355.12	87.56	-53.9	-56.3	14.2	0.00e+00	0	23	0	751828992	73	4884
2026-01-11 00:53:30.33	347.48	87.98	-54.3	-56.9	13.8	0.00e+00	0	23	0	753926144	73	5263
2026-01-11 00:53:31.33	336.15	88.34	-55.5	-59.0	12.8	0.00e+00	0	23	0	756023296	76	5599
2026-01-11 00:53:32.32	319.69	88.61	-53.0	-55.1	14.7	0.00e+00	0	23	0	758120448	72	4517
2026-01-11 00:53:33.32	297.93	88.72	-52.5	-54.4	15.0	0.00e+00	0	23	0	760217600	71	4405
2026-01-11 00:53:34.32	275.83	88.63	-53.6	-56.0	14.4	0.00e+00	0	23	0	761266176	73	4730
2026-01-11 00:53:35.32	258.60	88.38	-51.5	-53.2	15.3	0.00e+00	0	23	0	763363328	69	4293
2026-01-11 00:53:36.32	246.81	88.02	-50.9	-52.5	15.2	0.00e+00	0	23	0	765460480	67	4473
2026-01-11 00:53:37.31	238.94	87.61	-53.6	-55.9	14.2	0.00e+00	0	23	0	767557632	72	4981
2026-01-11 00:53:38.31	233.40	87.16	-53.3	-55.5	14.5	0.00e+00	0	23	0	769654784	72	4729
2026-01-11 00:53:39.31	229.40	86.69	-51.9	-53.7	15.1	0.00e+00	0	23	0	770703360	70	4300
2026-01-11 00:53:40.30	226.43	86.22	-51.9	-53.7	14.9	0.00e+00	0	23	0	772800512	69	4576
2026-01-11 00:53:41.31	224.08	85.73	-51.8	-53.6	15.0	0.00e+00	0	23	0	774897664	69	4529
2026-01-11 00:53:42.31	222.24	85.23	-51.1	-52.7	15.3	0.00e+00	0	23	0	776994816	68	4314
2026-01-11 00:53:43.32	220.73	84.73	-50.8	-52.4	15.5	0.00e+00	0	23	0	778043392	68	4178
2026-01-11 00:53:44.32	219.50	84.24	-50.1	-51.5	15.5	0.00e+00	0	23	0	780140544	66	4240
2026-01-11 00:53:45.33	218.46	83.73	-49.1	-50.4	15.7	0.00e+00	0	23	0	782237696	64	4180
2026-01-11 00:53:46.33	217.58	83.23	-50.3	-51.8	15.2	0.00e+00	0	23	0	784334848	65	4632
2026-01-11 00:53:47.34	216.81	82.73	-50.9	-52.5	15.1	0.00e+00	0	23	0	786432000	66	4741
2026-01-11 00:53:48.34	216.16	82.23	-51.9	-53.6	15.0	0.00e+00	0	23	0	787480576	68	4766
2026-01-11 00:53:49.35	215.57	81.72	-52.2	-54.1	15.0	0.00e+00	0	23	0	789577728	70	4516
2026-01-11 00:53:50.34	215.07	81.23	-50.7	-52.2	15.6	0.00e+00	0	23	0	791674880	68	4071
2026-01-11 00:53:51.34	214.62	80.73	-50.4	-51.8	15.3	0.00e+00	0	23	0	793772032	66	4387
2026-01-11 00:53:52.35	214.21	80.23	-51.6	-53.3	15.0	0.00e+00	0	23	0	795869184	68	4618
2026-01-11 00:53:53.34	213.84	79.73	-51.7	-53.4	15.0	0.00e+00	0	23	0	796917760	68	4683
2026-01-11 00:53:54.34	213.51	79.24	-52.9	-55.0	14.5	0.00e+00	0	23	0	799014912	71	4729
2026-01-11 00:53:55.34	213.21	78.74	-53.3	-55.5	14.4	0.00e+00	0	23	0	801112064	72	4712
2026-01-11 00:53:56.33	212.94	78.25	-51.5	-53.2	15.3	0.00e+00	0	23	0	803209216	69	4303
2026-01-11 00:53:57.33	212.69	77.76	-51.6	-53.3	15.0	0.00e+00	0	23	0	804257792	68	4629
2026-01-11 00:53:58.33	212.46	77.26	-52.0	-53.9	14.9	0.00e+00	0	23	0	806354944	69	4652
2026-01-11 00:53:59.34	212.24	76.77	-52.3	-54.2	14.8	0.00e+00	0	23	0	808452096	70	4585
2026-01-11 00:54:00.34	212.04	76.28	-51.9	-53.7	15.0	0.00e+00	0	23	0	810549248	69	4573
2026-01-11 00:54:01.34	211.86	75.79	-52.7	-54.7	14.6	0.00e+00	0	23	0	812646400	70	4844
2026-01-11 00:54:02.33	211.69	75.31	-52.6	-54.6	14.6	0.00e+00	0	23	0	813694976	70	4788
2026-01-11 00:54:03.33	211.53	74.82	-52.1	-53.9	15.1	0.00e+00	0	23	0	815792128	70	4404
2026-01-11 00:54:04.33	211.38	74.34	-51.8	-53.6	15.3	0.00e+00	0	23	0	817889280	70	4250
2026-01-11 00:54:05.32	211.25	73.86	-51.8	-53.5	15.0	0.00e+00	0	23	0	819986432	69	4474
2026-01-11 00:54:06.32	211.12	73.38	-51.8	-53.6	15.1	0.00e+00	0	23	0	822083584	69	4495
2026-01-11 00:54:07.31	210.99	72.91	-52.7	-54.7	14.5	0.00e+00	0	23	0	823132160	70	4869
2026-01-11 00:54:08.32	210.88	72.43	-54.3	-57.0	13.8	0.00e+00	0	23	0	825229312	73	5288
2026-01-11 00:54:09.32	210.77	71.96	-55.0	-57.9	13.5	0.00e+00	0	23	0	827326464	75	5273
2026-01-11 00:54:10.31	210.67	71.49	-56.2	-60.2	12.2	3.00e-06	0	23	0	829423616	77	6120
2026-01-11 00:54:11.30	210.57	71.02	-57.2	-62.7	10.1	2.82e-04	0	23	0	831520768	79	7238
2026-01-11 00:54:12.30	210.48	70.56	-57.6	-64.3	8.6	4.59e-03	0	23	0	832569344	80	8249
2026-01-11 00:54:13.29	210.39	70.10	-56.6	-61.0	11.4	1.12e-03	0	23	0	834666496	79	5944
2026-01-11 00:54:14.29	210.31	69.63	-54.3	-56.9	14.1	0.00e+00	0	23	0	836763648	75	4659
2026-01-11 00:54:15.29	210.23	69.17	-53.4	-55.5	14.6	0.00e+00	0	23	0	838860800	73	4477
2026-01-11 00:54:16.28	210.16	68.72	-53.2	-55.3	14.6	0.00e+00	0	23	0	839909376	72	4623
2026-01-11 00:54:17.28	210.08	68.26	-52.8	-54.8	14.9	0.00e+00	0	23	0	842006528	72	4355
2026-01-11 00:54:18.28	210.02	67.81	-52.7	-54.6	14.8	0.00e+00	0	23	0	844103680	71	4542
2026-01-11 00:54:19.28	209.95	67.35	-52.7	-54.7	14.8	0.00e+00	0	23	0	846200832	71	4580
2026-01-11 00:54:20.28	209.89	66.90	-52.3	-54.1	15.1	0.00e+00	0	23	0	848297984	71	4275
2026-01-11 00:54:21.28	209.83	66.46	-52.0	-53.7	15.1	0.00e+00	0	23	0	849346560	70	4339
2026-01-11 00:54:22.28	209.77	66.01	-51.2	-52.8	15.3	0.00e+00	0	23	0	851443712	68	4389
2026-01-11 00:54:23.28	209.72	65.57	-50.9	-52.5	15.5	0.00e+00	0	23	0	853540864	68	4200
2026-01-11 00:54:24.28	209.67	65.13	-49.7	-51.1	15.7	0.00e+00	0	23	0	855638016	66	4042
2026-01-11 00:54:25.27	209.62	64.70	-49.5	-50.9	15.6	0.00e+00	0	23	0	856686592	65	4181
2026-01-11 00:54:26.27	209.57	64.26	-50.4	-51.9	15.3	0.00e+00	0	23	0	858783744	66	4409
2026-01-11 00:54:27.28	209.52	63.82	-50.8	-52.4	15.1	0.00e+00	0	23	0	860880896	66	4673
2026-01-11 00:54:28.28	209.48	63.39	-49.9	-51.4	15.6	0.00e+00	0	23	0	862978048	66	4157
2026-01-11 00:54:29.28	209.44	62.97	-50.1	-51.6	15.5	0.00e+00	0	23	0	865075200	66	4250
2026-01-11 00:54:30.27	209.40	62.55	-49.6	-51.1	15.5	0.00e+00	0	23	0	866123776	65	4255
2026-01-11 00:54:31.28	209.36	62.12	-49.4	-50.8	15.7	0.00e+00	0	23	0	868220928	65	4139
2026-01-11 00:54:32.27	209.32	61.70	-49.4	-50.8	15.5	0.00e+00	0	23	0	870318080	64	4364
2026-01-11 00:54:33.26	209.28	61.29	-50.6	-52.2	15.2	0.00e+00	0	23	0	872415232	66	4582
2026-01-11 00:54:34.26	209.25	60.88	-52.6	-54.6	14.7	0.00e+00	0	23	0	874512384	70	4804
2026-01-11 00:54:35.26	209.21	60.46	-54.0	-56.5	14.0	0.00e+00	0	23	0	875560960	73	5026
2026-01-11 00:54:36.27	209.18	60.05	-53.9	-56.3	14.1	0.00e+00	0	23	0	877658112	73	4900
2026-01-11 00:54:37.27	209.15	59.64	-52.8	-54.8	14.9	0.00e+00	0	23	0	879755264	72	4348
2026-01-11 00:54:38.26	209.12	59.24	-52.8	-54.8	14.9	0.00e+00	0	23	0	881852416	72	4362
2026-01-11 00:54:39.26	209.09	58.84	-52.3	-54.1	15.0	0.00e+00	0	23	0	882900992	71	4285
2026-01-11 00:54:40.26	209.06	58.44	-50.8	-52.3	15.5	0.00e+00	0	23	0	884998144	68	4121
2026-01-11 00:54:41.27	209.03	58.04	-50.0	-51.4	15.5	0.00e+00	0	23	0	887095296	66	4178
2026-01-11 00:54:42.27	209.01	57.65	-50.2	-51.6	15.4	0.00e+00	0	23	0	889192448	66	4284
2026-01-11 00:54:43.27	208.98	57.26	-50.4	-51.9	15.3	0.00e+00	0	23	0	891289600	66	4404
2026-01-11 00:54:44.27	208.96	56.87	-50.6	-52.2	15.2	0.00e+00	0	23	0	892338176	66	4574
2026-01-11 00:54:45.28	208.93	56.48	-50.2	-51.7	15.4	0.00e+00	0	23	0	894435328	66	4315
2026-01-11 00:54:46.27	208.91	56.10	-49.7	-51.1	15.7	0.00e+00	0	23	0	896532480	66	4020
2026-01-11 00:54:47.28	208.89	55.72	-48.7	-50.0	15.9	0.00e+00	0	23	0	898629632	64	3961
2026-01-11 00:54:48.28	208.86	55.34	-48.7	-50.0	15.7	0.00e+00	0	23	0	900726784	63	4227
2026-01-11 00:54:49.26	208.84	54.97	-49.9	-51.3	15.3	0.00e+00	0	23	0	901775360	64	4646
2026-01-11 00:54:50.26	208.82	54.60	-51.1	-52.8	15.1	0.00e+00	0	23	0	903872512	67	4615
2026-01-11 00:54:51.27	208.80	54.23	-52.2	-54.2	14.8	0.00e+00	0	23	0	905969664	69	4824
2026-01-11 00:54:52.26	208.78	53.86	-52.0	-53.8	14.9	0.00e+00	0	23	0	908066816	69	4628
2026-01-11 00:54:53.26	208.76	53.50	-51.9	-53.7	15.0	0.00e+00	0	23	0	910163968	69	4549
2026-01-11 00:54:54.25	208.75	53.14	-51.0	-52.6	15.4	0.00e+00	0	23	0	911212544	68	4255
2026-01-11 00:54:55.26	208.73	52.78	-50.8	-52.4	15.3	0.00e+00	0	23	0	913309696	67	4393
2026-01-11 00:54:56.26	208.71	52.42	-52.6	-54.6	14.7	0.00e+00	0	23	0	915406848	70	4767
2026-01-11 00:54:57.25	208.69	52.07	-54.7	-57.7	13.4	0.00e+00	0	23	0	917504000	74	5448
2026-01-11 00:54:58.25	208.68	51.72	-55.1	-58.6	12.9	0.00e+00	0	23	0	918552576	75	5686
2026-01-11 00:54:59.25	208.66	51.37	-54.6	-57.6	13.6	0.00e+00	0	23	0	920649728	75	5054
2026-01-11 00:55:00.24	208.65	51.03	-52.9	-55.0	14.7	0.00e+00	0	23	0	922746880	72	4476
2026-01-11 00:55:01.23	208.63	50.69	-52.0	-53.8	15.1	0.00e+00	0	23	0	924844032	70	4375
2026-01-11 00:55:02.23	208.62	50.34	-52.0	-53.8	14.9	0.00e+00	0	23	0	926941184	69	4636
2026-01-11 00:55:03.23	208.60	50.01	-52.0	-53.9	14.8	0.00e+00	0	23	0	927989760	69	4660
2026-01-11 00:55:04.22	208.59	49.67	-52.0	-53.9	14.9	0.00e+00	0	23	0	930086912	69	4656
2026-01-11 00:55:05.22	208.58	49.34	-51.5	-53.2	15.3	0.00e+00	0	23	0	932184064	69	4326
2026-01-11 00:55:06.22	208.56	49.01	-52.3	-54.3	14.7	0.00e+00	0	23	0	934281216	69	4877
2026-01-11 00:55:07.21	208.55	48.68	-54.2	-56.9	13.7	0.00e+00	0	23	0	935329792	73	5223
2026-01-11 00:55:08.21	208.54	48.35	-56.1	-60.3	11.8	1.50e-06	0	23	0	937426944	77	6190
2026-01-11 00:55:09.20	208.53	48.03	-54.8	-57.6	13.7	7.00e-07	0	23	0	939524096	76	4814
2026-01-11 00:55:10.20	208.52	47.71	-52.7	-54.7	14.9	0.00e+00	0	23	0	941621248	72	4314
2026-01-11 00:55:11.19	208.51	47.39	-51.3	-52.9	15.4	0.00e+00	0	23	0	943718400	69	4181
2026-01-11 00:55:12.19	208.49	47.08	-51.2	-52.9	15.3	0.00e+00	0	23	0	944766976	68	4393
2026-01-11 00:55:13.19	208.48	46.76	-51.5	-53.2	15.0	0.00e+00	0	23	0	946864128	68	4567
2026-01-11 00:55:14.19	208.47	46.45	-52.0	-53.8	14.9	0.00e+00	0	23	0	948961280	69	4617
2026-01-11 00:55:15.18	208.46	46.14	-52.6	-54.6	14.6	0.00e+00	0	23	0	951058432	70	4796
2026-01-11 00:55:16.19	208.45	45.83	-54.3	-57.1	13.6	0.00e+00	0	23	0	952107008	73	5352
2026-01-11 00:55:17.20	208.44	45.52	-55.6	-59.3	12.5	0.00e+00	0	23	0	954204160	76	5827
2026-01-11 00:55:18.19	208.43	45.22	-56.7	-61.7	10.8	2.59e-05	0	23	0	956301312	78	6816
2026-01-11 00:55:19.19	208.43	44.92	-56.7	-61.6	11.0	1.07e-03	0	23	0	958398464	79	6390
2026-01-11 00:55:20.19	208.42	44.62	-55.4	-58.7	13.0	3.00e-06	0	23	0	960495616	77	5119
2026-01-11 00:55:21.18	208.41	44.33	-53.3	-55.6	14.5	0.00e+00	0	23	0	961544192	73	4499
2026-01-11 00:55:22.18	208.40	44.04	-52.2	-54.1	15.1	0.00e+00	0	23	0	963641344	71	4275
2026-01-11 00:55:23.18	208.39	43.74	-52.7	-54.7	14.6	0.00e+00	0	23	0	965738496	70	4837
2026-01-11 00:55:24.17	208.38	43.46	-52.5	-54.5	14.7	0.00e+00	0	23	0	967835648	70	4725
2026-01-11 00:55:25.17	208.38	43.17	-53.4	-55.8	14.2	0.00e+00	0	23	0	969932800	71	5175
2026-01-11 00:55:26.18	208.37	42.88	-53.8	-56.3	14.0	0.00e+00	0	23	0	970981376	72	5178
2026-01-11 00:55:27.18	208.36	42.60	-54.6	-57.7	13.4	0.00e+00	0	23	0	973078528	74	5407
2026-01-11 00:55:28.18	208.35	42.32	-54.8	-58.0	13.3	0.00e+00	0	23	0	975175680	75	5336
2026-01-11 00:55:29.17	208.35	42.04	-56.2	-60.8	11.5	7.00e-07	0	23	0	977272832	77	6530
2026-01-11 00:55:30.16	208.34	41.77	-56.5	-61.6	10.8	2.53e-04	0	23	0	979369984	78	6777
2026-01-11 00:55:31.16	208.33	41.49	-56.3	-60.8	11.5	7.01e-05	0	23	0	980418560	78	6170
2026-01-11 00:55:32.16	208.33	41.22	-55.7	-59.5	12.3	6.80e-06	0	23	0	982515712	77	5627
2026-01-11 00:55:33.16	208.32	40.95	-54.4	-57.3	13.8	0.00e+00	0	23	0	984612864	75	4893
2026-01-11 00:55:34.16	208.31	40.68	-53.1	-55.3	14.5	0.00e+00	0	23	0	986710016	72	4634
2026-01-11 00:55:35.16	208.31	40.41	-52.1	-53.9	15.0	0.00e+00	0	23	0	987758592	70	4431
2026-01-11 00:55:36.16	208.30	40.15	-51.9	-53.7	15.0	0.00e+00	0	23	0	989855744	69	4560
2026-01-11 00:55:37.15	208.30	39.89	-51.6	-53.3	15.2	0.00e+00	0	23	0	991952896	69	4386
2026-01-11 00:55:38.15	208.29	39.63	-52.2	-54.0	14.8	0.00e+00	0	23	0	994050048	69	4749
2026-01-11 00:55:39.15	208.29	39.37	-53.1	-55.3	14.4	0.00e+00	0	23	0	996147200	71	4891
2026-01-11 00:55:40.15	208.28	39.11	-54.0	-56.5	14.0	0.00e+00	0	23	0	997195776	73	4998
2026-01-11 00:55:41.14	208.28	38.86	-54.3	-56.9	13.8	0.00e+00	0	23	0	999292928	74	4975
2026-01-11 00:55:42.14	208.27	38.60	-54.8	-57.8	13.3	0.00e+00	0	23	0	1001390080	74	5481
2026-01-11 00:55:43.13	208.27	38.36	-55.0	-58.2	13.1	0.00e+00	0	23	0	1003487232	75	5413
2026-01-11 00:55:44.13	208.26	38.11	-54.8	-57.9	13.2	0.00e+00	0	23	0	1004535808	75	5235
2026-01-11 00:55:45.12	208.26	37.86	-54.6	-57.5	13.5	0.00e+00	0	23	0	1006632960	75	5001
2026-01-11 00:55:46.12	208.25	37.61	-54.5	-57.4	13.6	0.00e+00	0	23	0	1008730112	75	4932
2026-01-11 00:55:47.11	208.25	37.37	-53.6	-56.0	14.2	0.00e+00	0	23	0	1010827264	73	4724
2026-01-11 00:55:48.10	208.25	37.13	-53.2	-55.5	14.5	0.00e+00	0	23	0	1012924416	72	4713
2026-01-11 00:55:49.10	208.24	36.89	-53.4	-55.7	14.3	0.00e+00	0	23	0	1013972992	72	4862
2026-01-11 00:55:50.10	208.24	36.65	-53.0	-55.1	14.6	0.00e+00	0	23	0	1016070144	72	4539
2026-01-11 00:55:51.09	208.23	36.42	-52.8	-54.8	14.8	0.00e+00	0	23	0	1018167296	72	4363
2026-01-11 00:55:52.09	208.23	36.18	-52.7	-54.7	14.7	0.00e+00	0	23	0	1020264448	71	4569
2026-01-11 00:55:53.09	208.23	35.95	-52.5	-54.5	14.8	0.00e+00	0	23	0	1021313024	71	4462
2026-01-11 00:55:54.09	208.22	35.72	-52.5	-54.5	14.8	0.00e+00	0	23	0	1023410176	71	4462
2026-01-11 00:55:55.09	208.22	35.49	-52.9	-55.0	14.5	0.00e+00	0	23	0	1025507328	71	4737
2026-01-11 00:55:56.09	208.22	35.26	-53.3	-55.5	14.2	0.00e+00	0	23	0	1027604480	71	5023
2026-01-11 00:55:57.09	208.21	35.03	-53.3	-55.5	14.3	0.00e+00	0	23	0	1029701632	72	4747
2026-01-11 00:55:58.09	208.21	34.81	-54.5	-57.4	13.5	0.00e+00	0	23	0	1030750208	74	5265
2026-01-11 00:55:59.08	208.21	34.58	-55.8	-59.7	12.1	0.00e+00	0	23	0	1032847360	76	6081
2026-01-11 00:56:00.08	208.20	34.36	-56.2	-60.5	11.6	3.73e-05	0	23	0	1034944512	77	6334
2026-01-11 00:56:01.08	208.20	34.14	-56.9	-62.2	10.3	6.80e-04	0	23	0	1037041664	79	6862
2026-01-11 00:56:02.08	208.20	33.92	-57.2	-63.3	9.3	5.56e-03	0	23	0	1039138816	79	7800
2026-01-11 00:56:03.07	208.19	33.71	-56.7	-61.7	10.8	1.43e-03	0	23	0	1040187392	79	6464
2026-01-11 00:56:04.06	208.19	33.49	-56.4	-60.9	11.4	5.81e-04	0	23	0	1042284544	79	5877
2026-01-11 00:56:05.06	208.19	33.28	-55.5	-59.0	12.7	1.60e-05	0	23	0	1044381696	77	5324
2026-01-11 00:56:06.06	208.19	33.06	-54.9	-58.0	13.3	0.00e+00	0	23	0	1046478848	76	5008
2026-01-11 00:56:07.06	208.19	32.85	-54.0	-56.6	14.0	0.00e+00	0	23	0	1047527424	74	4777
2026-01-11 00:56:08.06	208.18	32.64	-53.5	-55.8	14.4	0.00e+00	0	23	0	1049624576	73	4609
2026-01-11 00:56:09.06	208.18	32.43	-52.8	-54.9	14.7	0.00e+00	0	23	0	1051721728	72	4429
2026-01-11 00:56:10.06	208.18	32.23	-52.6	-54.7	14.7	0.00e+00	0	23	0	1053818880	71	4554
2026-01-11 00:56:11.04	208.18	32.03	-53.0	-55.2	14.4	0.00e+00	0	23	0	1055916032	71	4837
2026-01-11 00:56:12.03	208.17	31.82	-53.4	-55.7	14.1	0.00e+00	0	23	0	1056964608	71	5143
2026-01-11 00:56:13.04	208.17	31.62	-53.5	-55.9	14.3	0.00e+00	0	23	0	1059061760	72	4940
2026-01-11 00:56:14.03	208.17	31.42	-53.4	-55.7	14.2	0.00e+00	0	23	0	1061158912	72	4841
2026-01-11 00:56:15.04	208.17	31.22	-53.5	-55.9	14.1	0.00e+00	0	23	0	1063256064	72	4966
2026-01-11 00:56:16.04	208.17	31.02	-53.5	-55.9	14.1	0.00e+00	0	23	0	1064304640	72	4937
2026-01-11 00:56:17.04	208.17	30.82	-53.3	-55.6	14.3	0.00e+00	0	23	0	1066401792	72	4775
2026-01-11 00:56:18.05	208.16	30.62	-53.6	-56.0	14.1	0.00e+00	0	23	0	1068498944	72	5016
2026-01-11 00:56:19.04	208.16	30.43	-53.3	-55.6	14.3	0.00e+00	0	23	0	1070596096	72	4770
2026-01-11 00:56:20.04	208.16	30.23	-53.6	-56.1	14.0	0.00e+00	0	23	0	1072693248	72	5048
2026-01-11 00:56:21.04	208.16	30.04	-54.4	-57.3	13.5	0.00e+00	0	23	0	1074790400	74	5176
2026-01-11 00:56:22.04	208.16	29.85	-55.0	-58.3	12.9	0.00e+00	0	23	0	1075838976	75	5465
2026-01-11 00:56:23.03	208.16	29.66	-55.5	-59.2	12.3	0.00e+00	0	23	0	1077936128	76	5782
2026-01-11 00:56:24.03	208.16	29.48	-55.7	-59.5	12.2	9.90e-06	0	23	0	1080033280	76	5960
2026-01-11 00:56:25.03	208.15	29.29	-56.0	-60.1	11.8	8.30e-06	0	23	0	1082130432	77	6056
2026-01-11 00:56:26.03	208.15	29.10	-55.8	-59.7	12.4	1.83e-05	0	23	0	1083179008	77	5747
2026-01-11 00:56:27.03	208.15	28.92	-55.1	-58.4	13.0	7.00e-07	0	23	0	1085276160	76	5227
2026-01-11 00:56:28.03	208.15	28.73	-54.4	-57.4	13.6	0.00e+00	0	23	0	1087373312	75	4930
2026-01-11 00:56:29.03	208.15	28.55	-53.8	-56.4	14.1	0.00e+00	0	23	0	1089470464	74	4674
2026-01-11 00:56:30.02	208.15	28.37	-53.0	-55.2	14.6	0.00e+00	0	23	0	1091567616	72	4551
2026-01-11 00:56:31.02	208.15	28.19	-52.7	-54.9	14.8	0.00e+00	0	23	0	1092616192	72	4400
2026-01-11 00:56:32.01	208.15	28.01	-52.3	-54.3	14.9	0.00e+00	0	23	0	1094713344	71	4388
2026-01-11 00:56:33.01	208.15	27.84	-51.7	-53.5	15.1	0.00e+00	0	23	0	1096810496	69	4485
2026-01-11 00:56:34.02	208.15	27.66	-51.4	-53.1	15.2	0.00e+00	0	23	0	1098907648	69	4283
2026-01-11 00:56:35.01	208.15	27.48	-51.1	-52.8	15.2	0.00e+00	0	23	0	1099956224	68	4371
2026-01-11 00:56:36.01	208.15	27.31	-51.1	-52.8	15.2	0.00e+00	0	23	0	1102053376	68	4362
2026-01-11 00:56:37.01	208.14	27.14	-50.9	-52.5	15.5	0.00e+00	0	23	0	1104150528	68	4207
2026-01-11 00:56:38.01	208.14	26.97	-51.2	-52.9	15.1	0.00e+00	0	23	0	1106247680	68	4436
2026-01-11 00:56:39.01	208.14	26.79	-51.1	-52.7	15.2	0.00e+00	0	23	0	1108344832	68	4335
2026-01-11 00:56:40.00	208.14	26.63	-51.0	-52.6	15.3	0.00e+00	0	23	0	1109393408	68	4282
2026-01-11 00:56:41.00	208.14	26.46	-50.9	-52.6	15.3	0.00e+00	0	23	0	1111490560	68	4245
2026-01-11 00:56:41.99	208.14	26.29	-50.8	-52.4	15.4	0.00e+00	0	23	0	1113587712	68	4169
2026-01-11 00:56:42.99	208.14	26.12	-50.9	-52.6	15.3	0.00e+00	0	23	0	1115684864	68	4255
2026-01-11 00:56:44.00	208.14	25.96	-51.0	-52.6	15.3	0.00e+00	0	23	0	1117782016	68	4277
2026-01-11 00:56:45.00	208.14	25.79	-51.1	-52.8	15.2	0.00e+00	0	23	0	1118830592	68	4367
2026-01-11 00:56:46.00	208.14	25.63	-51.4	-53.2	15.0	0.00e+00	0	23	0	1120927744	68	4585
2026-01-11 00:56:47.00	208.14	25.46	-51.4	-53.2	15.0	0.00e+00	0	23	0	1123024896	68	4587
2026-01-11 00:56:48.00	208.14	25.30	-51.7	-53.6	14.8	0.00e+00	0	23	0	1125122048	68	4796
2026-01-11 00:56:49.00	208.14	25.14	-51.8	-53.7	14.7	0.00e+00	0	23	0	1126170624	68	4825
2026-01-11 00:56:50.00	208.14	24.98	-52.0	-54.0	14.7	0.00e+00	0	23	0	1128267776	69	4720
2026-01-11 00:56:51.00	208.14	24.82	-51.9	-53.9	14.8	0.00e+00	0	23	0	1130364928	69	4654
2026-01-11 00:56:52.00	208.14	24.67	-51.7	-53.6	14.9	0.00e+00	0	23	0	1132462080	69	4511
2026-01-11 00:56:53.00	208.14	24.51	-51.7	-53.6	14.9	0.00e+00	0	23	0	1134559232	69	4507
2026-01-11 00:56:54.00	208.14	24.35	-51.8	-53.7	14.9	0.00e+00	0	23	0	1135607808	69	4563
2026-01-11 00:56:55.00	208.14	24.20	-51.7	-53.6	14.9	0.00e+00	0	23	0	1137704960	69	4510
2026-01-11 00:56:56.00	208.14	24.04	-51.6	-53.5	15.0	0.00e+00	0	23	0	1139802112	69	4462
2026-01-11 00:56:57.00	208.14	23.89	-51.6	-53.5	15.0	0.00e+00	0	23	0	1141899264	69	4475
2026-01-11 00:56:58.00	208.14	23.74	-51.8	-53.7	14.9	0.00e+00	0	23	0	1143996416	69	4574
2026-01-11 00:56:59.00	208.14	23.59	-51.7	-53.6	14.9	0.00e+00	0	23	0	1145044992	69	4506
2026-01-11 00:56:59.99	208.14	23.44	-51.8	-53.7	14.9	0.00e+00	0	23	0	1147142144	69	4552
2026-01-11 00:57:00.99	208.14	23.29	-51.9	-53.8	14.8	0.00e+00	0	23	0	1149239296	69	4651
2026-01-11 00:57:01.99	208.14	23.14	-52.0	-53.9	14.7	0.00e+00	0	23	0	1151336448	69	4704
2026-01-11 00:57:02.99	208.14	22.99	-52.2	-54.2	14.6	0.00e+00	0	23	0	1152385024	69	4854
2026-01-11 00:57:03.98	208.14	22.84	-52.3	-54.3	14.5	0.00e+00	0	23	0	1154482176	69	4897
2026-01-11 00:57:04.98	208.14	22.70	-52.2	-54.2	14.6	0.00e+00	0	23	0	1156579328	69	4836
2026-01-11 00:57:05.97	208.14	22.55	-52.0	-53.9	14.8	0.00e+00	0	23	0	1158676480	69	4671
2026-01-11 00:57:06.96	208.15	22.41	-52.1	-54.1	14.7	0.00e+00	0	23	0	1160773632	69	4781
2026-01-11 00:57:07.96	208.15	22.27	-51.6	-53.4	15.0	0.00e+00	0	23	0	1161822208	69	4427
2026-01-11 00:57:08.95	208.15	22.13	-51.5	-53.2	15.1	0.00e+00	0	23	0	1163919360	69	4336
2026-01-11 00:57:09.95	208.15	21.98	-51.3	-53.0	15.3	0.00e+00	0	23	0	1166016512	69	4212
2026-01-11 00:57:10.94	208.15	21.84	-50.8	-52.4	15.4	0.00e+00	0	23	0	1168113664	68	4168
2026-01-11 00:57:11.94	208.15	21.70	-50.6	-52.2	15.3	0.00e+00	0	23	0	1170210816	67	4340
2026-01-11 00:57:12.94	208.15	21.56	-50.4	-52.0	15.4	0.00e+00	0	23	0	1171259392	67	4238
2026-01-11 00:57:13.94	208.15	21.42	-50.2	-51.7	15.4	0.00e+00	0	23	0	1173356544	66	4322
2026-01-11 00:57:14.93	208.15	21.29	-50.2	-51.8	15.3	0.00e+00	0	23	0	1175453696	66	4346
2026-01-11 00:57:15.93	208.15	21.15	-50.2	-51.8	15.3	0.00e+00	0	23	0	1177550848	66	4371
2026-01-11 00:57:16.92	208.15	21.01	-50.3	-51.9	15.3	0.00e+00	0	23	0	1178599424	66	4409
2026-01-11 00:57:17.91	208.15	20.88	-50.5	-52.1	15.2	0.00e+00	0	23	0	1180696576	66	4538
2026-01-11 00:57:18.91	208.15	20.74	-50.5	-52.1	15.2	0.00e+00	0	23	0	1182793728	66	4514
2026-01-11 00:57:19.90	208.15	20.61	-50.6	-52.3	15.1	0.00e+00	0	23	0	1184890880	66	4609
2026-01-11 00:57:20.90	208.16	20.47	-50.7	-52.4	15.0	0.00e+00	0	23	0	1186988032	66	4689
2026-01-11 00:57:21.90	208.16	20.34	-50.7	-52.4	15.0	0.00e+00	0	23	0	1188036608	66	4697
2026-01-11 00:57:22.90	208.16	20.21	-50.7	-52.5	15.0	0.00e+00	0	23	0	1190133760	66	4723
2026-01-11 00:57:23.90	208.16	20.08	-50.8	-52.6	15.1	0.00e+00	0	23	0	1192230912	67	4495
2026-01-11 00:57:24.89	208.16	19.95	-50.9	-52.6	15.1	0.00e+00	0	23	0	1194328064	67	4514
2026-01-11 00:57:25.88	208.16	19.82	-51.1	-52.9	14.9	0.00e+00	0	23	0	1195376640	67	4680
2026-01-11 00:57:26.87	208.16	19.69	-51.0	-52.8	15.0	0.00e+00	0	23	0	1197473792	67	4643
2026-01-11 00:57:27.87	208.16	19.56	-50.9	-52.6	15.1	0.00e+00	0	23	0	1199570944	67	4527
2026-01-11 00:57:28.87	208.16	19.43	-51.0	-52.8	15.0	0.00e+00	0	23	0	1201668096	67	4633
2026-01-11 00:57:29.86	208.16	19.30	-51.0	-52.8	15.0	0.00e+00	0	23	0	1203765248	67	4611
2026-01-11 00:57:30.86	208.17	19.18	-51.1	-52.9	14.9	0.00e+00	0	23	0	1204813824	67	4697
2026-01-11 00:57:31.86	208.17	19.05	-51.2	-53.0	14.9	0.00e+00	0	23	0	1206910976	67	4753
2026-01-11 00:57:32.86	208.17	18.93	-51.2	-53.1	14.8	0.00e+00	0	23	0	1209008128	67	4778
2026-01-11 00:57:33.86	208.17	18.80	-51.6	-53.4	14.8	0.00e+00	0	23	0	1211105280	68	4702
2026-01-11 00:57:34.87	208.17	18.67	-51.8	-53.7	14.7	0.00e+00	0	23	0	1212153856	68	4830
2026-01-11 00:57:35.88	208.17	18.55	-51.8	-53.7	14.7	0.00e+00	0	23	0	1214251008	68	4848
2026-01-11 00:57:36.87	208.17	18.43	-52.2	-54.3	14.5	0.00e+00	0	23	0	1216348160	69	4871
2026-01-11 00:57:37.88	208.17	18.30	-52.4	-54.5	14.4	0.00e+00	0	23	0	1218445312	69	5014
2026-01-11 00:57:38.88	208.17	18.18	-52.5	-54.6	14.5	0.00e+00	0	23	0	1220542464	70	4811
2026-01-11 00:57:39.87	208.18	18.06	-52.7	-55.0	14.3	0.00e+00	0	23	0	1221591040	70	5000
2026-01-11 00:57:40.87	208.18	17.94	-53.0	-55.3	14.2	0.00e+00	0	23	0	1223688192	71	4920
2026-01-11 00:57:41.87	208.18	17.82	-52.9	-55.2	14.3	0.00e+00	0	23	0	1225785344	71	4846
2026-01-11 00:57:42.86	208.18	17.70	-53.1	-55.6	14.1	0.00e+00	0	23	0	1227882496	71	5055
2026-01-11 00:57:43.87	208.18	17.58	-53.2	-55.6	14.1	0.00e+00	0	23	0	1229979648	71	5078
2026-01-11 00:57:44.87	208.18	17.46	-52.9	-55.2	14.3	0.00e+00	0	23	0	1231028224	71	4828
2026-01-11 00:57:45.87	208.18	17.34	-52.9	-55.1	14.3	0.00e+00	0	23	0	1233125376	71	4811
2026-01-11 00:57:46.86	208.19	17.23	-52.8	-55.1	14.3	0.00e+00	0	23	0	1235222528	71	4784
2026-01-11 00:57:47.86	208.19	17.11	-52.7	-55.0	14.4	0.00e+00	0	23	0	1237319680	71	4716
2026-01-11 00:57:48.86	208.19	16.99	-52.7	-55.0	14.4	0.00e+00	0	23	0	1239416832	71	4707
