passes_logs/2026/01/11/R3.2S_Murmansk/R3.2S_Murmansk__20260111_235748_NOAA_21_JPSS-2_rec.log

#Pass ID: 20260111_235748_NOAA 21 (JPSS-2)
#Satellite: NOAA 21 (JPSS-2)
#Configuration: NOAA-21
#almurnet v.1.7.20251203
#Start time: 2026-01-11 23:57:50

#Version: 2.2.20231116
#Station: R3.2S_Murmansk
#Location: 33.079688 lon 68.888172 lat
#TLE: 1 54234U 22150A   26011.55893233  .00000075  00000+0  56634-4 0  9995
#TLE: 2 54234  98.7494 312.5004 0000755 313.1908  46.9205 14.19534095164321

#Time	Az	El	Level	Level2	SNR	BER	BlckErr	Temp	State	Recorded	gain1	gain2
2026-01-11 23:57:50.77	22.11	2.12	-57.1	-70.0	3.8	1.49e+00	0	21	0	0	80	15829
2026-01-11 23:57:51.77	22.13	2.18	-57.1	-69.7	3.8	1.49e+00	0	21	104	0	79	16292
2026-01-11 23:57:52.77	22.15	2.24	-57.1	-69.5	3.8	1.49e+00	0	21	104	0	79	15782
2026-01-11 23:57:53.79	22.18	2.31	-57.1	-69.5	3.8	1.49e+00	0	21	104	0	79	15790
2026-01-11 23:57:54.80	22.20	2.37	-57.1	-69.5	3.8	1.49e+00	0	21	104	0	79	15920
2026-01-11 23:57:55.81	22.23	2.44	-57.1	-69.9	3.8	1.49e+00	0	21	104	0	79	16565
2026-01-11 23:57:56.81	22.25	2.50	-57.1	-70.2	3.8	1.49e+00	0	22	104	0	79	17163
2026-01-11 23:57:57.82	22.28	2.57	-57.1	-69.5	3.8	1.49e+00	0	21	104	0	79	15792
2026-01-11 23:57:58.83	22.30	2.63	-57.1	-70.0	3.8	1.49e+00	0	22	104	0	79	16805
2026-01-11 23:57:59.84	22.32	2.70	-57.1	-69.7	3.8	1.49e+00	0	21	104	0	79	16231
2026-01-11 23:58:00.85	22.35	2.76	-57.1	-69.5	3.8	1.49e+00	0	21	104	0	79	15902
2026-01-11 23:58:01.85	22.37	2.83	-57.1	-69.4	3.8	1.49e+00	0	21	104	0	79	15736
2026-01-11 23:58:02.87	22.40	2.89	-57.0	-67.9	4.1	1.48e+00	0	21	104	0	79	13120
2026-01-11 23:58:03.87	22.42	2.96	-56.9	-67.8	3.9	1.46e+00	0	22	104	0	79	12991
2026-01-11 23:58:04.88	22.45	3.02	-56.8	-66.9	4.4	1.45e+00	0	22	104	0	79	11710
2026-01-11 23:58:05.89	22.47	3.09	-56.8	-67.4	3.9	1.43e+00	0	22	104	0	79	12451
2026-01-11 23:58:06.90	22.50	3.15	-56.8	-66.6	4.4	1.40e+00	0	22	104	0	79	11320
2026-01-11 23:58:07.91	22.52	3.22	-56.7	-65.4	4.9	1.38e+00	2	22	104	0	79	9921
2026-01-11 23:58:08.92	22.55	3.29	-56.8	-66.6	4.0	7.14e-01	0	22	104	1048576	79	11404
2026-01-11 23:58:09.93	22.57	3.35	-56.8	-65.8	4.7	9.83e-01	2	22	104	1048576	79	10383
2026-01-11 23:58:10.94	22.60	3.42	-56.7	-65.2	5.0	9.21e-01	0	22	0	1048576	79	9678
2026-01-11 23:58:11.94	22.62	3.49	-56.6	-64.6	5.4	4.64e-01	0	22	0	4194304	79	8994
2026-01-11 23:58:12.95	22.65	3.55	-56.5	-64.4	5.5	4.52e-01	0	22	0	7340032	79	8810
2026-01-11 23:58:13.96	22.68	3.62	-56.2	-62.8	6.6	1.83e-01	0	22	0	10485760	79	7370
2026-01-11 23:58:14.97	22.70	3.69	-55.9	-61.8	7.5	1.02e-01	0	22	0	13631488	78	6929
2026-01-11 23:58:15.98	22.73	3.75	-55.5	-60.6	8.5	4.73e-02	0	22	0	16777216	77	6365
2026-01-11 23:58:16.98	22.75	3.82	-55.2	-59.8	9.3	1.34e-02	0	22	0	19922944	77	5810
2026-01-11 23:58:17.99	22.78	3.89	-54.9	-58.9	10.0	4.04e-03	0	22	0	23068672	76	5590
2026-01-11 23:58:18.99	22.81	3.96	-54.2	-57.7	11.0	5.22e-04	0	22	0	26214400	75	5137
2026-01-11 23:58:20.01	22.83	4.02	-53.8	-57.0	11.6	8.31e-05	0	22	0	29360128	74	4984
2026-01-11 23:58:21.01	22.86	4.09	-53.4	-56.3	12.0	2.28e-05	0	22	0	32505856	73	4889
2026-01-11 23:58:22.02	22.88	4.16	-53.0	-55.7	12.4	4.50e-06	0	22	0	35651584	72	4829
2026-01-11 23:58:23.04	22.91	4.23	-52.7	-55.2	12.6	7.00e-07	0	22	0	38797312	71	4842
2026-01-11 23:58:24.04	22.94	4.30	-52.4	-54.8	13.0	0.00e+00	0	22	0	41943040	71	4605
2026-01-11 23:58:25.05	22.97	4.37	-52.1	-54.3	13.2	0.00e+00	0	22	0	45088768	70	4628
2026-01-11 23:58:26.06	22.99	4.44	-52.4	-54.8	12.9	0.00e+00	0	22	0	48234496	70	4871
2026-01-11 23:58:27.08	23.02	4.51	-52.4	-54.8	12.8	0.00e+00	0	22	0	51380224	70	4889
2026-01-11 23:58:28.08	23.05	4.57	-52.4	-54.9	12.8	0.00e+00	0	22	0	54525952	70	4940
2026-01-11 23:58:29.09	23.07	4.64	-52.8	-55.4	12.4	7.00e-07	0	22	0	57671680	70	5219
2026-01-11 23:58:30.10	23.10	4.71	-53.2	-56.1	11.9	2.20e-06	0	22	0	60817408	71	5370
2026-01-11 23:58:31.11	23.13	4.78	-53.8	-57.1	11.2	3.96e-05	0	22	0	63963136	72	5657
2026-01-11 23:58:32.12	23.16	4.85	-54.0	-57.5	11.0	2.07e-04	0	22	0	67108864	73	5595
2026-01-11 23:58:33.13	23.18	4.92	-54.4	-58.2	10.4	8.53e-04	0	22	0	70254592	73	6075
2026-01-11 23:58:34.14	23.21	4.99	-54.8	-58.9	9.8	2.93e-03	0	22	0	73400320	74	6242
2026-01-11 23:58:35.15	23.24	5.07	-55.0	-59.6	9.3	8.20e-03	0	22	0	76546048	75	6348
2026-01-11 23:58:36.16	23.27	5.14	-53.8	-56.9	11.6	8.39e-05	0	22	0	79691776	74	4951
2026-01-11 23:58:37.17	23.30	5.21	-55.5	-60.7	8.3	2.37e-02	0	22	0	82837504	76	6830
2026-01-11 23:58:38.17	23.32	5.28	-56.4	-63.5	6.1	2.02e-01	0	22	0	85983232	78	8412
2026-01-11 23:58:39.18	23.35	5.35	-52.6	-55.0	12.9	7.00e-07	0	22	0	89128960	71	4718
2026-01-11 23:58:40.18	23.38	5.42	-56.4	-64.0	5.6	5.94e-01	0	22	0	92274688	78	8919
2026-01-11 23:58:41.19	23.41	5.49	-52.4	-54.6	13.2	0.00e+00	0	22	0	95420416	71	4526
2026-01-11 23:58:42.20	23.44	5.56	-52.0	-54.2	13.4	0.00e+00	0	22	0	98566144	70	4546
2026-01-11 23:58:43.21	23.47	5.64	-51.6	-53.6	13.7	0.00e+00	0	22	0	101711872	69	4499
2026-01-11 23:58:44.22	23.50	5.71	-51.0	-52.9	14.0	0.00e+00	0	22	0	104857600	68	4396
2026-01-11 23:58:45.23	23.52	5.78	-50.7	-52.5	14.3	0.00e+00	0	22	0	108003328	68	4197
2026-01-11 23:58:46.24	23.55	5.85	-50.8	-52.6	14.2	0.00e+00	0	22	0	111149056	68	4264
2026-01-11 23:58:47.25	23.58	5.93	-50.8	-52.6	14.2	0.00e+00	0	22	0	114294784	68	4265
2026-01-11 23:58:48.26	23.61	6.00	-50.9	-52.7	14.1	0.00e+00	0	22	0	117440512	68	4313
2026-01-11 23:58:49.26	23.64	6.07	-50.8	-52.6	14.2	0.00e+00	0	22	0	120586240	68	4263
2026-01-11 23:58:50.27	23.67	6.15	-50.4	-52.1	14.3	0.00e+00	0	22	0	123731968	67	4268
2026-01-11 23:58:51.28	23.70	6.22	-50.6	-52.3	14.2	0.00e+00	0	22	0	126877696	67	4372
2026-01-11 23:58:52.29	23.73	6.29	-50.5	-52.2	14.2	0.00e+00	0	22	0	130023424	67	4334
2026-01-11 23:58:53.29	23.76	6.37	-50.4	-52.1	14.3	0.00e+00	0	22	0	133169152	67	4275
2026-01-11 23:58:54.31	23.79	6.44	-50.3	-52.0	14.4	0.00e+00	0	22	0	136314880	67	4204
2026-01-11 23:58:55.32	23.82	6.52	-50.1	-51.8	14.4	0.00e+00	0	22	0	139460608	66	4344
2026-01-11 23:58:56.32	23.85	6.59	-50.3	-52.0	14.3	0.00e+00	0	22	0	142606336	66	4463
2026-01-11 23:58:57.33	23.88	6.67	-50.4	-52.1	14.2	0.00e+00	0	22	0	145752064	66	4497
2026-01-11 23:58:58.34	23.91	6.74	-50.5	-52.2	14.1	0.00e+00	0	22	0	148897792	66	4582
2026-01-11 23:58:59.35	23.94	6.82	-50.4	-52.1	14.2	0.00e+00	0	22	0	152043520	66	4526
2026-01-11 23:59:00.36	23.98	6.89	-50.4	-52.1	14.2	0.00e+00	0	23	0	155189248	66	4496
2026-01-11 23:59:01.37	24.01	6.97	-50.5	-52.2	14.2	0.00e+00	0	22	0	158334976	66	4563
2026-01-11 23:59:02.38	24.04	7.04	-50.2	-51.8	14.4	0.00e+00	0	22	0	161480704	66	4390
2026-01-11 23:59:03.39	24.07	7.12	-50.1	-51.7	14.5	0.00e+00	0	22	0	164626432	66	4302
2026-01-11 23:59:04.39	24.10	7.20	-50.2	-51.9	14.4	0.00e+00	0	22	0	167772160	66	4397
2026-01-11 23:59:05.41	24.13	7.27	-50.3	-52.0	14.3	0.00e+00	0	22	0	170917888	66	4458
2026-01-11 23:59:06.42	24.16	7.35	-50.3	-52.0	14.3	0.00e+00	0	22	0	174063616	66	4472
2026-01-11 23:59:07.43	24.20	7.43	-50.2	-51.8	14.4	0.00e+00	0	23	0	177209344	66	4382
2026-01-11 23:59:08.43	24.23	7.50	-50.2	-51.8	14.4	0.00e+00	0	22	0	180355072	66	4380
2026-01-11 23:59:09.44	24.26	7.58	-50.1	-51.7	14.5	0.00e+00	0	22	0	183500800	66	4327
2026-01-11 23:59:10.45	24.29	7.66	-50.1	-51.7	14.5	0.00e+00	0	23	0	186646528	66	4321
2026-01-11 23:59:11.46	24.33	7.74	-50.0	-51.6	14.5	0.00e+00	0	23	0	189792256	66	4283
2026-01-11 23:59:12.47	24.36	7.82	-50.1	-51.7	14.5	0.00e+00	0	23	0	192937984	66	4333
2026-01-11 23:59:13.48	24.39	7.90	-50.0	-51.6	14.5	0.00e+00	0	22	0	196083712	66	4288
2026-01-11 23:59:14.49	24.42	7.97	-50.1	-51.7	14.5	0.00e+00	0	23	0	199229440	66	4301
2026-01-11 23:59:15.50	24.46	8.05	-50.1	-51.7	14.5	0.00e+00	0	23	0	202375168	66	4340
2026-01-11 23:59:16.51	24.49	8.13	-50.0	-51.6	14.6	0.00e+00	0	23	0	205520896	66	4250
2026-01-11 23:59:17.52	24.52	8.21	-50.0	-51.6	14.5	0.00e+00	0	23	0	208666624	66	4276
2026-01-11 23:59:18.53	24.56	8.29	-50.1	-51.7	14.5	0.00e+00	0	22	0	211812352	66	4303
2026-01-11 23:59:19.53	24.59	8.37	-49.9	-51.5	14.6	0.00e+00	0	23	0	214958080	66	4220
2026-01-11 23:59:20.54	24.63	8.45	-49.9	-51.4	14.7	0.00e+00	0	23	0	218103808	66	4186
2026-01-11 23:59:21.55	24.66	8.53	-49.9	-51.4	14.7	0.00e+00	0	23	0	221249536	66	4192
2026-01-11 23:59:22.56	24.69	8.61	-49.9	-51.5	14.6	0.00e+00	0	22	0	224395264	66	4214
2026-01-11 23:59:23.57	24.73	8.69	-49.9	-51.5	14.6	0.00e+00	0	23	0	227540992	66	4217
2026-01-11 23:59:24.57	24.76	8.77	-49.8	-51.3	14.8	0.00e+00	0	23	0	230686720	66	4117
2026-01-11 23:59:25.58	24.80	8.86	-49.8	-51.4	14.7	0.00e+00	0	22	0	233832448	66	4148
2026-01-11 23:59:26.59	24.83	8.94	-49.7	-51.2	14.8	0.00e+00	0	23	0	236978176	66	4096
2026-01-11 23:59:27.60	24.87	9.02	-49.6	-51.1	14.7	0.00e+00	0	23	0	240123904	65	4280
2026-01-11 23:59:28.61	24.90	9.10	-49.5	-51.0	14.8	0.00e+00	0	23	0	243269632	65	4216
2026-01-11 23:59:29.62	24.94	9.19	-49.6	-51.1	14.7	0.00e+00	0	23	0	246415360	65	4255
2026-01-11 23:59:30.63	24.97	9.27	-49.6	-51.0	14.7	0.00e+00	0	23	0	249561088	65	4234
2026-01-11 23:59:31.63	25.01	9.35	-49.6	-51.1	14.7	0.00e+00	0	23	0	252706816	65	4243
2026-01-11 23:59:32.64	25.05	9.43	-49.6	-51.1	14.7	0.00e+00	0	23	0	255852544	65	4288
2026-01-11 23:59:33.65	25.08	9.52	-49.4	-50.9	14.8	0.00e+00	0	23	0	258998272	65	4173
2026-01-11 23:59:34.65	25.12	9.60	-49.4	-50.9	14.9	0.00e+00	0	23	0	262144000	65	4154
2026-01-11 23:59:35.66	25.16	9.69	-49.4	-50.8	14.9	0.00e+00	0	23	0	265289728	65	4120
2026-01-11 23:59:36.67	25.19	9.77	-49.3	-50.8	14.9	0.00e+00	0	23	0	268435456	65	4109
2026-01-11 23:59:37.68	25.23	9.85	-49.3	-50.7	15.0	0.00e+00	0	23	0	271581184	65	4088
2026-01-11 23:59:38.69	25.27	9.94	-49.4	-50.8	14.9	0.00e+00	0	23	0	274726912	65	4127
2026-01-11 23:59:39.69	25.30	10.02	-49.3	-50.8	14.9	0.00e+00	0	23	0	277872640	65	4100
2026-01-11 23:59:40.70	25.34	10.11	-49.4	-50.8	14.9	0.00e+00	0	23	0	281018368	65	4123
2026-01-11 23:59:41.71	25.38	10.20	-49.3	-50.8	14.9	0.00e+00	0	23	0	284164096	65	4109
2026-01-11 23:59:42.72	25.42	10.28	-49.4	-50.9	14.9	0.00e+00	0	23	0	287309824	65	4156
2026-01-11 23:59:43.73	25.45	10.37	-49.3	-50.7	15.0	0.00e+00	0	23	0	290455552	65	4069
2026-01-11 23:59:44.74	25.49	10.46	-49.3	-50.7	15.0	0.00e+00	0	23	0	293601280	65	4062
2026-01-11 23:59:45.75	25.53	10.54	-49.3	-50.7	15.0	0.00e+00	0	23	0	296747008	65	4064
2026-01-11 23:59:46.76	25.57	10.63	-49.2	-50.7	15.0	0.00e+00	0	23	0	299892736	65	4053
2026-01-11 23:59:47.77	25.61	10.72	-49.2	-50.6	15.1	0.00e+00	0	23	0	303038464	65	4019
2026-01-11 23:59:48.77	25.65	10.80	-49.1	-50.5	14.9	0.00e+00	0	23	0	306184192	64	4213
2026-01-11 23:59:49.78	25.69	10.89	-49.1	-50.5	14.9	0.00e+00	0	23	0	309329920	64	4240
2026-01-11 23:59:50.79	25.73	10.98	-49.2	-50.6	14.9	0.00e+00	0	23	0	312475648	64	4261
2026-01-11 23:59:51.80	25.77	11.07	-49.2	-50.6	14.8	0.00e+00	0	23	0	315621376	64	4283
2026-01-11 23:59:52.81	25.81	11.16	-49.1	-50.5	14.9	0.00e+00	0	23	0	318767104	64	4205
2026-01-11 23:59:53.81	25.85	11.25	-49.0	-50.4	14.9	0.00e+00	0	23	0	321912832	64	4188
2026-01-11 23:59:54.82	25.89	11.34	-49.0	-50.4	15.0	0.00e+00	0	23	0	325058560	64	4146
2026-01-11 23:59:55.83	25.93	11.43	-48.9	-50.3	15.0	0.00e+00	0	23	0	328204288	64	4133
2026-01-11 23:59:56.84	25.97	11.52	-49.0	-50.3	15.0	0.00e+00	0	23	0	331350016	64	4139
2026-01-11 23:59:57.85	26.01	11.61	-48.9	-50.3	15.0	0.00e+00	0	23	0	334495744	64	4120
2026-01-11 23:59:58.86	26.05	11.70	-48.9	-50.3	15.1	0.00e+00	0	23	0	337641472	64	4101
2026-01-11 23:59:59.87	26.09	11.79	-48.9	-50.3	15.0	0.00e+00	0	23	0	340787200	64	4108
2026-01-12 00:00:00.88	26.13	11.88	-48.9	-50.3	15.0	0.00e+00	0	23	0	343932928	64	4111
2026-01-12 00:00:01.89	26.18	11.98	-48.7	-50.1	15.2	0.00e+00	0	23	0	347078656	64	4013
2026-01-12 00:00:02.89	26.22	12.07	-48.7	-50.1	15.2	0.00e+00	0	23	0	350224384	64	4009
2026-01-12 00:00:03.90	26.26	12.16	-48.8	-50.1	15.1	0.00e+00	0	23	0	353370112	64	4029
2026-01-12 00:00:04.91	26.30	12.25	-48.8	-50.1	15.1	0.00e+00	0	23	0	356515840	64	4032
2026-01-12 00:00:05.92	26.34	12.35	-48.9	-50.2	15.1	0.00e+00	0	23	0	359661568	64	4083
2026-01-12 00:00:06.93	26.39	12.44	-48.9	-50.2	15.1	0.00e+00	0	23	0	362807296	64	4075
2026-01-12 00:00:07.94	26.43	12.54	-48.6	-50.0	15.1	0.00e+00	0	23	0	365953024	63	4203
2026-01-12 00:00:08.95	26.48	12.63	-48.7	-50.0	15.0	0.00e+00	0	23	0	369098752	63	4215
2026-01-12 00:00:09.96	26.52	12.73	-48.7	-50.1	15.0	0.00e+00	0	23	0	372244480	63	4261
2026-01-12 00:00:10.97	26.56	12.82	-48.9	-50.3	14.9	0.00e+00	0	23	0	375390208	63	4341
2026-01-12 00:00:11.98	26.61	12.92	-48.7	-50.0	15.0	0.00e+00	0	23	0	379584512	63	4213
2026-01-12 00:00:12.99	26.65	13.01	-48.6	-50.0	15.1	0.00e+00	0	23	0	382730240	63	4210
2026-01-12 00:00:13.99	26.70	13.11	-48.6	-50.0	15.1	0.00e+00	0	23	0	384827392	63	4200
2026-01-12 00:00:15.00	26.74	13.21	-48.6	-49.9	15.1	0.00e+00	0	23	0	387973120	63	4153
2026-01-12 00:00:16.01	26.79	13.30	-48.6	-49.9	15.0	0.00e+00	0	23	0	391118848	63	4189
2026-01-12 00:00:17.02	26.83	13.40	-48.6	-49.9	15.1	0.00e+00	0	23	0	394264576	63	4176
2026-01-12 00:00:18.02	26.88	13.50	-48.6	-49.9	15.1	0.00e+00	0	23	0	398458880	63	4181
2026-01-12 00:00:19.04	26.93	13.60	-48.7	-50.0	15.0	0.00e+00	0	23	0	401604608	63	4225
2026-01-12 00:00:20.04	26.97	13.69	-48.7	-50.0	15.0	0.00e+00	0	23	0	404750336	63	4232
2026-01-12 00:00:21.05	27.02	13.79	-48.7	-50.0	15.0	0.00e+00	0	23	0	407896064	63	4234
2026-01-12 00:00:22.06	27.07	13.89	-48.5	-49.9	15.1	0.00e+00	0	23	0	409993216	63	4147
2026-01-12 00:00:23.07	27.11	13.99	-48.6	-49.9	15.1	0.00e+00	0	23	0	413138944	63	4169
2026-01-12 00:00:24.08	27.16	14.09	-48.3	-49.6	15.2	0.00e+00	0	23	0	417333248	63	4034
2026-01-12 00:00:25.09	27.21	14.19	-48.4	-49.7	15.2	0.00e+00	0	23	0	420478976	63	4052
2026-01-12 00:00:26.09	27.26	14.29	-48.5	-49.8	15.2	0.00e+00	0	23	0	423624704	63	4124
2026-01-12 00:00:27.10	27.31	14.39	-48.6	-49.9	15.1	0.00e+00	0	23	0	426770432	63	4148
2026-01-12 00:00:28.11	27.35	14.50	-48.4	-49.7	15.2	0.00e+00	0	23	0	429916160	63	4080
2026-01-12 00:00:29.12	27.40	14.60	-48.4	-49.7	15.2	0.00e+00	0	23	0	432013312	63	4075
2026-01-12 00:00:30.12	27.45	14.70	-48.5	-49.8	15.1	0.00e+00	0	23	0	435159040	63	4142
2026-01-12 00:00:31.13	27.50	14.80	-48.4	-49.7	15.2	0.00e+00	0	23	0	439353344	63	4064
2026-01-12 00:00:32.14	27.55	14.91	-48.4	-49.7	15.2	0.00e+00	0	23	0	442499072	63	4092
2026-01-12 00:00:33.15	27.60	15.01	-48.4	-49.7	15.2	0.00e+00	0	23	0	445644800	63	4091
2026-01-12 00:00:34.16	27.65	15.12	-48.4	-49.7	15.2	0.00e+00	0	23	0	448790528	63	4075
2026-01-12 00:00:35.16	27.70	15.22	-48.5	-49.8	15.2	0.00e+00	0	23	0	451936256	63	4127
2026-01-12 00:00:36.17	27.76	15.32	-48.4	-49.7	15.2	0.00e+00	0	23	0	455081984	63	4066
2026-01-12 00:00:37.18	27.81	15.43	-48.5	-49.8	15.2	0.00e+00	0	23	0	458227712	63	4104
2026-01-12 00:00:38.19	27.86	15.54	-48.3	-49.6	15.3	0.00e+00	0	23	0	461373440	63	4018
2026-01-12 00:00:39.20	27.91	15.64	-48.4	-49.7	15.2	0.00e+00	0	23	0	464519168	63	4053
2026-01-12 00:00:40.21	27.96	15.75	-48.3	-49.6	15.2	0.00e+00	0	23	0	467664896	63	4036
2026-01-12 00:00:41.21	28.02	15.86	-48.5	-49.7	15.2	0.00e+00	0	23	0	470810624	63	4095
2026-01-12 00:00:42.22	28.07	15.96	-48.4	-49.7	15.2	0.00e+00	0	23	0	473956352	63	4062
2026-01-12 00:00:43.23	28.12	16.07	-48.2	-49.4	15.3	0.00e+00	0	23	0	477102080	63	3956
2026-01-12 00:00:44.24	28.18	16.18	-48.2	-49.5	15.2	0.00e+00	0	23	0	480247808	62	4197
2026-01-12 00:00:45.24	28.23	16.29	-48.2	-49.5	15.2	0.00e+00	0	23	0	483393536	62	4197
2026-01-12 00:00:46.25	28.29	16.40	-48.2	-49.5	15.2	0.00e+00	0	23	0	486539264	62	4228
2026-01-12 00:00:47.26	28.34	16.51	-48.3	-49.6	15.1	0.00e+00	0	23	0	489684992	62	4254
2026-01-12 00:00:48.27	28.40	16.62	-48.3	-49.5	15.1	0.00e+00	0	23	0	492830720	62	4237
2026-01-12 00:00:49.27	28.45	16.73	-48.3	-49.5	15.1	0.00e+00	0	23	0	495976448	62	4239
2026-01-12 00:00:50.28	28.51	16.84	-48.2	-49.5	15.2	0.00e+00	0	23	0	499122176	62	4221
2026-01-12 00:00:51.29	28.57	16.95	-48.3	-49.6	15.1	0.00e+00	0	23	0	502267904	62	4264
2026-01-12 00:00:52.30	28.62	17.07	-48.4	-49.6	15.1	0.00e+00	0	23	0	505413632	62	4281
2026-01-12 00:00:53.31	28.68	17.18	-48.3	-49.6	15.1	0.00e+00	0	23	0	508559360	62	4272
2026-01-12 00:00:54.31	28.74	17.29	-48.4	-49.7	15.1	0.00e+00	0	23	0	511705088	62	4312
2026-01-12 00:00:55.32	28.80	17.41	-48.3	-49.6	15.1	0.00e+00	0	23	0	514850816	62	4274
2026-01-12 00:00:56.33	28.86	17.52	-48.4	-49.7	15.1	0.00e+00	0	23	0	517996544	62	4319
2026-01-12 00:00:57.34	28.92	17.64	-48.4	-49.6	15.1	0.00e+00	0	23	0	521142272	62	4278
2026-01-12 00:00:58.35	28.98	17.75	-48.2	-49.5	15.2	0.00e+00	0	23	0	524288000	62	4223
2026-01-12 00:00:59.36	29.04	17.87	-48.3	-49.5	15.1	0.00e+00	0	23	0	527433728	62	4232
2026-01-12 00:01:00.37	29.10	17.99	-48.3	-49.6	15.1	0.00e+00	0	23	0	530579456	62	4248
2026-01-12 00:01:01.38	29.16	18.10	-48.4	-49.7	15.1	0.00e+00	0	23	0	533725184	62	4306
2026-01-12 00:01:02.39	29.22	18.22	-48.3	-49.6	15.1	0.00e+00	0	23	0	536870912	62	4270
2026-01-12 00:01:03.40	29.28	18.34	-48.4	-49.6	15.1	0.00e+00	0	23	0	540016640	62	4290
2026-01-12 00:01:04.41	29.34	18.46	-48.5	-49.7	15.1	0.00e+00	0	23	0	543162368	62	4334
2026-01-12 00:01:05.42	29.40	18.58	-48.4	-49.7	15.1	0.00e+00	0	23	0	546308096	62	4325
2026-01-12 00:01:06.42	29.47	18.70	-48.4	-49.7	15.1	0.00e+00	0	23	0	549453824	62	4322
2026-01-12 00:01:07.43	29.53	18.82	-48.6	-49.9	15.0	0.00e+00	0	23	0	552599552	62	4392
2026-01-12 00:01:08.44	29.59	18.94	-48.5	-49.8	15.0	0.00e+00	0	23	0	555745280	62	4359
2026-01-12 00:01:09.45	29.66	19.06	-48.6	-49.9	15.0	0.00e+00	0	23	0	558891008	62	4412
2026-01-12 00:01:10.46	29.72	19.18	-48.7	-50.0	15.0	0.00e+00	0	23	0	562036736	62	4450
2026-01-12 00:01:11.47	29.79	19.31	-48.6	-50.0	15.0	0.00e+00	0	23	0	565182464	62	4448
2026-01-12 00:01:12.48	29.86	19.43	-48.6	-49.9	15.0	0.00e+00	0	23	0	568328192	62	4395
2026-01-12 00:01:13.49	29.92	19.55	-48.6	-49.9	15.0	0.00e+00	0	23	0	571473920	62	4400
2026-01-12 00:01:14.50	29.99	19.68	-48.5	-49.8	15.0	0.00e+00	0	23	0	574619648	62	4370
2026-01-12 00:01:15.50	30.06	19.80	-48.5	-49.8	15.0	0.00e+00	0	23	0	577765376	62	4368
2026-01-12 00:01:16.51	30.12	19.93	-48.5	-49.8	15.0	0.00e+00	0	23	0	580911104	62	4377
2026-01-12 00:01:17.52	30.19	20.05	-48.5	-49.8	15.1	0.00e+00	0	23	0	584056832	62	4346
2026-01-12 00:01:18.52	30.26	20.18	-48.5	-49.8	15.0	0.00e+00	0	23	0	587202560	62	4350
2026-01-12 00:01:19.53	30.33	20.31	-48.4	-49.7	15.1	0.00e+00	0	23	0	590348288	62	4301
2026-01-12 00:01:20.54	30.40	20.43	-48.2	-49.5	15.2	0.00e+00	0	23	0	593494016	62	4207
2026-01-12 00:01:21.55	30.47	20.56	-48.2	-49.4	15.2	0.00e+00	0	23	0	596639744	62	4192
2026-01-12 00:01:22.56	30.54	20.69	-48.1	-49.3	15.3	0.00e+00	0	23	0	599785472	62	4136
2026-01-12 00:01:23.57	30.61	20.82	-48.0	-49.2	15.3	0.00e+00	0	23	0	602931200	62	4078
2026-01-12 00:01:24.58	30.69	20.95	-47.9	-49.2	15.3	0.00e+00	0	23	0	606076928	62	4055
2026-01-12 00:01:25.59	30.76	21.09	-47.8	-49.1	15.4	0.00e+00	0	23	0	609222656	62	4009
2026-01-12 00:01:26.59	30.83	21.22	-47.7	-49.0	15.4	0.00e+00	0	23	0	612368384	62	3963
2026-01-12 00:01:27.60	30.91	21.35	-47.8	-49.1	15.4	0.00e+00	0	23	0	615514112	62	4011
2026-01-12 00:01:28.61	30.98	21.48	-47.6	-48.8	15.3	0.00e+00	0	23	0	618659840	61	4129
2026-01-12 00:01:29.62	31.06	21.62	-47.4	-48.6	15.4	0.00e+00	0	23	0	621805568	61	4041
2026-01-12 00:01:30.63	31.13	21.75	-47.4	-48.6	15.4	0.00e+00	0	23	0	624951296	61	4022
2026-01-12 00:01:31.64	31.21	21.89	-47.3	-48.5	15.5	0.00e+00	0	23	0	628097024	61	3971
2026-01-12 00:01:32.65	31.29	22.02	-47.2	-48.4	15.5	0.00e+00	0	23	0	631242752	61	3922
2026-01-12 00:01:33.66	31.36	22.16	-47.3	-48.5	15.5	0.00e+00	0	23	0	634388480	61	3990
2026-01-12 00:01:34.66	31.44	22.29	-47.2	-48.4	15.5	0.00e+00	0	23	0	637534208	61	3920
2026-01-12 00:01:35.66	31.52	22.43	-47.1	-48.3	15.4	0.00e+00	0	23	0	640679936	60	4102
2026-01-12 00:01:36.67	31.60	22.57	-47.1	-48.3	15.4	0.00e+00	0	23	0	643825664	60	4099
2026-01-12 00:01:37.67	31.68	22.71	-47.0	-48.1	15.5	0.00e+00	0	23	0	646971392	60	4048
2026-01-12 00:01:38.68	31.76	22.85	-47.0	-48.2	15.4	0.00e+00	0	23	0	650117120	60	4071
2026-01-12 00:01:39.69	31.84	22.99	-47.1	-48.2	15.4	0.00e+00	0	23	0	653262848	60	4082
2026-01-12 00:01:40.70	31.93	23.13	-47.1	-48.2	15.4	0.00e+00	0	23	0	656408576	60	4092
2026-01-12 00:01:41.70	32.01	23.27	-47.1	-48.3	15.4	0.00e+00	0	23	0	659554304	60	4104
2026-01-12 00:01:42.72	32.09	23.42	-47.0	-48.2	15.4	0.00e+00	0	23	0	662700032	60	4056
2026-01-12 00:01:43.72	32.18	23.56	-46.9	-48.1	15.5	0.00e+00	0	23	0	665845760	60	4025
2026-01-12 00:01:44.73	32.26	23.70	-46.9	-48.0	15.5	0.00e+00	0	23	0	668991488	60	4004
2026-01-12 00:01:45.74	32.35	23.85	-47.0	-48.1	15.5	0.00e+00	0	23	0	672137216	60	4027
2026-01-12 00:01:46.75	32.44	23.99	-47.0	-48.2	15.5	0.00e+00	0	23	0	675282944	60	4062
2026-01-12 00:01:47.76	32.52	24.14	-47.1	-48.2	15.4	0.00e+00	0	23	0	678428672	60	4074
2026-01-12 00:01:48.76	32.61	24.29	-47.1	-48.2	15.5	0.00e+00	0	23	0	681574400	60	4078
2026-01-12 00:01:49.77	32.70	24.44	-47.1	-48.3	15.4	0.00e+00	0	23	0	684720128	60	4109
2026-01-12 00:01:50.78	32.79	24.58	-47.2	-48.3	15.4	0.00e+00	0	23	0	687865856	60	4134
2026-01-12 00:01:51.79	32.88	24.73	-47.2	-48.4	15.4	0.00e+00	0	23	0	691011584	60	4147
2026-01-12 00:01:52.80	32.97	24.89	-47.4	-48.5	15.3	0.00e+00	0	23	0	694157312	60	4232
2026-01-12 00:01:53.80	33.07	25.04	-47.4	-48.6	15.3	0.00e+00	0	23	0	697303040	60	4253
2026-01-12 00:01:54.81	33.16	25.19	-47.4	-48.6	15.3	0.00e+00	0	23	0	700448768	60	4264
2026-01-12 00:01:55.83	33.25	25.34	-47.5	-48.7	15.3	0.00e+00	0	23	0	703594496	60	4319
2026-01-12 00:01:56.83	33.35	25.49	-47.6	-48.8	15.2	0.00e+00	0	23	0	706740224	60	4355
2026-01-12 00:01:57.84	33.44	25.65	-47.7	-48.9	15.2	0.00e+00	0	23	0	709885952	60	4411
2026-01-12 00:01:58.85	33.54	25.80	-47.6	-48.8	15.2	0.00e+00	0	23	0	713031680	60	4375
2026-01-12 00:01:59.86	33.64	25.96	-47.7	-48.9	15.2	0.00e+00	0	23	0	716177408	60	4412
2026-01-12 00:02:00.86	33.74	26.12	-47.7	-48.9	15.2	0.00e+00	0	23	0	719323136	60	4441
2026-01-12 00:02:01.87	33.84	26.27	-47.8	-49.1	15.1	0.00e+00	0	23	0	722468864	60	4496
2026-01-12 00:02:02.88	33.94	26.43	-47.9	-49.1	15.1	0.00e+00	0	23	0	725614592	60	4509
2026-01-12 00:02:03.89	34.04	26.59	-48.1	-49.3	15.1	0.00e+00	0	23	0	728760320	61	4371
2026-01-12 00:02:04.90	34.14	26.75	-48.2	-49.5	15.1	0.00e+00	0	23	0	731906048	61	4445
2026-01-12 00:02:05.90	34.24	26.91	-48.3	-49.5	15.1	0.00e+00	0	23	0	735051776	61	4477
2026-01-12 00:02:06.91	34.35	27.08	-48.3	-49.6	15.0	0.00e+00	0	23	0	738197504	61	4519
2026-01-12 00:02:07.93	34.46	27.24	-48.5	-49.7	15.1	0.00e+00	0	23	0	741343232	62	4327
2026-01-12 00:02:08.94	34.56	27.41	-48.5	-49.8	15.0	0.00e+00	0	23	0	744488960	62	4373
2026-01-12 00:02:09.95	34.67	27.57	-48.6	-49.9	15.0	0.00e+00	0	23	0	747634688	62	4429
2026-01-12 00:02:10.95	34.78	27.73	-48.6	-49.9	15.0	0.00e+00	0	23	0	750780416	62	4415
2026-01-12 00:02:11.96	34.89	27.90	-48.8	-50.2	14.9	0.00e+00	0	23	0	753926144	62	4550
2026-01-12 00:02:12.97	35.00	28.07	-48.8	-50.2	14.9	0.00e+00	0	23	0	757071872	62	4565
2026-01-12 00:02:13.98	35.11	28.24	-48.8	-50.1	14.9	0.00e+00	0	23	0	760217600	62	4520
2026-01-12 00:02:14.99	35.22	28.41	-48.7	-50.0	15.0	0.00e+00	0	23	0	763363328	62	4472
2026-01-12 00:02:15.99	35.34	28.58	-48.6	-49.9	15.0	0.00e+00	0	23	0	766509056	62	4392
2026-01-12 00:02:17.00	35.45	28.75	-48.6	-49.9	15.0	0.00e+00	0	23	0	769654784	62	4403
2026-01-12 00:02:18.01	35.57	28.92	-48.4	-49.7	15.1	0.00e+00	0	23	0	772800512	62	4292
2026-01-12 00:02:19.02	35.69	29.09	-48.3	-49.5	15.2	0.00e+00	0	23	0	775946240	62	4237
2026-01-12 00:02:20.03	35.81	29.27	-48.4	-49.6	15.1	0.00e+00	0	23	0	779091968	62	4281
2026-01-12 00:02:21.03	35.93	29.44	-48.4	-49.7	15.1	0.00e+00	0	23	0	782237696	62	4292
2026-01-12 00:02:22.05	36.05	29.62	-48.2	-49.4	15.2	0.00e+00	0	23	0	785383424	62	4192
2026-01-12 00:02:23.05	36.17	29.79	-48.3	-49.5	15.2	0.00e+00	0	23	0	788529152	62	4235
2026-01-12 00:02:24.06	36.30	29.97	-48.2	-49.5	15.2	0.00e+00	0	23	0	791674880	62	4218
2026-01-12 00:02:25.07	36.42	30.15	-48.3	-49.5	15.2	0.00e+00	0	23	0	794820608	62	4219
2026-01-12 00:02:26.08	36.55	30.33	-48.3	-49.6	15.1	0.00e+00	0	23	0	797966336	62	4250
2026-01-12 00:02:27.09	36.68	30.51	-48.3	-49.6	15.1	0.00e+00	0	23	0	801112064	62	4250
2026-01-12 00:02:28.10	36.81	30.69	-48.3	-49.6	15.2	0.00e+00	0	23	0	804257792	62	4245
2026-01-12 00:02:29.11	36.94	30.88	-48.2	-49.5	15.2	0.00e+00	0	23	0	807403520	62	4198
2026-01-12 00:02:30.12	37.07	31.06	-48.2	-49.5	15.2	0.00e+00	0	23	0	810549248	62	4194
2026-01-12 00:02:31.13	37.20	31.25	-48.2	-49.4	15.2	0.00e+00	0	23	0	813694976	62	4172
2026-01-12 00:02:32.13	37.34	31.43	-48.3	-49.5	15.2	0.00e+00	0	23	0	816840704	62	4228
2026-01-12 00:02:33.14	37.48	31.62	-48.3	-49.5	15.2	0.00e+00	0	23	0	819986432	62	4233
2026-01-12 00:02:34.15	37.62	31.81	-48.2	-49.5	15.2	0.00e+00	0	23	0	823132160	62	4204
2026-01-12 00:02:35.16	37.76	31.99	-48.2	-49.5	15.2	0.00e+00	0	23	0	826277888	62	4215
2026-01-12 00:02:36.16	37.90	32.18	-48.1	-49.3	15.3	0.00e+00	0	23	0	829423616	62	4118
2026-01-12 00:02:37.17	38.04	32.37	-48.1	-49.3	15.3	0.00e+00	0	23	0	832569344	62	4131
2026-01-12 00:02:38.18	38.18	32.57	-48.2	-49.4	15.2	0.00e+00	0	23	0	835715072	62	4162
2026-01-12 00:02:39.19	38.33	32.76	-48.3	-49.5	15.2	0.00e+00	0	23	0	838860800	62	4222
2026-01-12 00:02:40.20	38.48	32.95	-48.3	-49.5	15.2	0.00e+00	0	23	0	842006528	62	4233
2026-01-12 00:02:41.21	38.63	33.15	-48.4	-49.7	15.1	0.00e+00	0	23	0	845152256	62	4295
2026-01-12 00:02:42.22	38.78	33.35	-48.5	-49.8	15.1	0.00e+00	0	23	0	848297984	62	4358
2026-01-12 00:02:43.22	38.93	33.54	-48.6	-49.9	15.1	0.00e+00	0	23	0	851443712	62	4409
2026-01-12 00:02:44.23	39.09	33.74	-48.7	-50.0	15.0	0.00e+00	0	23	0	854589440	62	4450
2026-01-12 00:02:45.24	39.25	33.94	-48.8	-50.1	15.0	0.00e+00	0	23	0	857735168	62	4499
2026-01-12 00:02:46.26	39.41	34.14	-48.9	-50.2	15.1	0.00e+00	0	23	0	860880896	63	4299
2026-01-12 00:02:47.26	39.57	34.34	-49.0	-50.3	15.0	0.00e+00	0	23	0	864026624	63	4363
2026-01-12 00:02:48.27	39.73	34.54	-49.1	-50.5	14.9	0.00e+00	0	23	0	867172352	63	4454
2026-01-12 00:02:49.28	39.90	34.75	-49.2	-50.5	14.9	0.00e+00	0	23	0	870318080	63	4486
2026-01-12 00:02:50.29	40.06	34.95	-49.3	-50.7	14.8	0.00e+00	0	23	0	873463808	63	4573
2026-01-12 00:02:51.30	40.23	35.16	-49.3	-50.7	14.8	0.00e+00	0	23	0	876609536	63	4555
2026-01-12 00:02:52.30	40.40	35.36	-49.4	-50.7	14.9	0.00e+00	0	23	0	879755264	64	4330
2026-01-12 00:02:53.31	40.58	35.57	-49.5	-50.9	14.8	0.00e+00	0	23	0	882900992	64	4433
2026-01-12 00:02:54.32	40.75	35.78	-49.5	-50.9	14.8	0.00e+00	0	23	0	886046720	64	4396
2026-01-12 00:02:55.33	40.93	35.99	-49.5	-50.9	14.8	0.00e+00	0	23	0	889192448	64	4407
2026-01-12 00:02:56.34	41.11	36.20	-49.5	-50.9	14.8	0.00e+00	0	23	0	892338176	64	4436
2026-01-12 00:02:57.35	41.29	36.42	-49.7	-51.1	14.7	0.00e+00	0	23	0	895483904	64	4529
2026-01-12 00:02:58.36	41.48	36.63	-49.9	-51.3	14.6	0.00e+00	0	23	0	898629632	64	4637
2026-01-12 00:02:59.37	41.66	36.84	-49.9	-51.4	14.7	0.00e+00	0	23	0	901775360	65	4413
2026-01-12 00:03:00.37	41.85	37.06	-49.9	-51.4	14.7	0.00e+00	0	23	0	904921088	65	4424
2026-01-12 00:03:01.38	42.04	37.28	-49.9	-51.3	14.8	0.00e+00	0	23	0	908066816	65	4360
2026-01-12 00:03:02.39	42.24	37.49	-49.7	-51.1	14.9	0.00e+00	0	23	0	911212544	65	4256
2026-01-12 00:03:03.40	42.44	37.71	-49.7	-51.1	14.9	0.00e+00	0	23	0	914358272	65	4246
2026-01-12 00:03:04.41	42.64	37.93	-49.5	-50.9	15.0	0.00e+00	0	23	0	917504000	65	4171
2026-01-12 00:03:05.42	42.84	38.15	-49.7	-51.1	14.9	0.00e+00	0	23	0	920649728	65	4257
2026-01-12 00:03:06.42	43.04	38.37	-49.8	-51.2	14.8	0.00e+00	0	23	0	923795456	65	4313
2026-01-12 00:03:07.43	43.25	38.60	-50.1	-51.6	14.6	0.00e+00	0	23	0	926941184	65	4518
2026-01-12 00:03:08.44	43.46	38.82	-50.1	-51.6	14.6	0.00e+00	0	23	0	930086912	65	4506
2026-01-12 00:03:09.45	43.67	39.05	-50.1	-51.5	14.7	0.00e+00	0	23	0	933232640	65	4473
2026-01-12 00:03:10.45	43.89	39.27	-50.1	-51.6	14.6	0.00e+00	0	23	0	936378368	65	4511
2026-01-12 00:03:11.46	44.11	39.50	-50.1	-51.6	14.6	0.00e+00	0	23	0	939524096	65	4509
2026-01-12 00:03:12.47	44.33	39.73	-49.9	-51.3	14.7	0.00e+00	0	23	0	942669824	65	4366
2026-01-12 00:03:13.48	44.56	39.96	-49.9	-51.4	14.7	0.00e+00	0	23	0	945815552	65	4398
2026-01-12 00:03:14.49	44.78	40.19	-49.9	-51.3	14.7	0.00e+00	0	23	0	948961280	65	4369
2026-01-12 00:03:15.50	45.02	40.42	-50.1	-51.6	14.6	0.00e+00	0	23	0	952107008	65	4497
2026-01-12 00:03:16.51	45.25	40.65	-50.4	-51.9	14.4	0.00e+00	0	23	0	955252736	65	4673
2026-01-12 00:03:17.52	45.49	40.89	-50.6	-52.1	14.5	0.00e+00	0	23	0	958398464	66	4530
2026-01-12 00:03:18.52	45.73	41.12	-50.7	-52.3	14.4	0.00e+00	0	23	0	962592768	66	4620
2026-01-12 00:03:19.53	45.98	41.35	-50.8	-52.4	14.3	0.00e+00	0	23	0	964689920	66	4676
2026-01-12 00:03:20.54	46.22	41.59	-50.9	-52.5	14.3	0.00e+00	0	23	0	967835648	66	4722
2026-01-12 00:03:21.55	46.48	41.83	-50.8	-52.3	14.5	0.00e+00	0	23	0	970981376	67	4380
2026-01-12 00:03:22.56	46.73	42.07	-50.8	-52.4	14.5	0.00e+00	0	23	0	974127104	67	4414
2026-01-12 00:03:23.57	46.99	42.31	-50.7	-52.2	14.6	0.00e+00	0	23	0	977272832	67	4323
2026-01-12 00:03:24.58	47.26	42.55	-50.9	-52.4	14.5	0.00e+00	0	23	0	981467136	67	4417
2026-01-12 00:03:25.59	47.52	42.79	-50.9	-52.5	14.4	0.00e+00	0	23	0	984612864	67	4465
2026-01-12 00:03:26.59	47.79	43.03	-51.0	-52.6	14.4	0.00e+00	0	23	0	986710016	67	4538
2026-01-12 00:03:27.60	48.07	43.27	-51.2	-52.9	14.2	0.00e+00	0	23	0	989855744	67	4654
2026-01-12 00:03:28.61	48.35	43.51	-51.4	-53.0	14.1	0.00e+00	0	23	0	993001472	67	4745
2026-01-12 00:03:29.61	48.63	43.76	-51.6	-53.3	14.2	0.00e+00	0	23	0	996147200	68	4614
2026-01-12 00:03:30.61	48.92	44.00	-51.6	-53.3	14.1	0.00e+00	0	23	0	999292928	68	4645
2026-01-12 00:03:31.62	49.21	44.25	-51.6	-53.2	14.1	0.00e+00	0	23	0	1002438656	68	4597
2026-01-12 00:03:32.63	49.51	44.49	-50.9	-52.4	14.6	0.00e+00	0	23	0	1006632960	68	4186
2026-01-12 00:03:33.64	49.81	44.74	-50.5	-51.9	14.7	0.00e+00	0	23	0	1009778688	67	4176
2026-01-12 00:03:34.65	50.12	44.99	-50.4	-51.8	14.8	0.00e+00	0	23	0	1011875840	67	4139
2026-01-12 00:03:35.65	50.42	45.23	-50.5	-51.9	14.7	0.00e+00	0	23	0	1015021568	67	4175
2026-01-12 00:03:36.65	50.74	45.48	-50.6	-52.1	14.6	0.00e+00	0	23	0	1018167296	67	4265
2026-01-12 00:03:37.66	51.06	45.73	-50.8	-52.4	14.5	0.00e+00	0	23	0	1021313024	67	4420
2026-01-12 00:03:38.67	51.38	45.98	-50.9	-52.5	14.4	0.00e+00	0	23	0	1024458752	67	4450
2026-01-12 00:03:39.68	51.71	46.23	-50.9	-52.5	14.4	0.00e+00	0	23	0	1028653056	67	4476
2026-01-12 00:03:40.69	52.05	46.49	-50.7	-52.2	14.6	0.00e+00	0	23	0	1031798784	67	4316
2026-01-12 00:03:41.70	52.39	46.74	-50.2	-51.7	14.9	0.00e+00	0	23	0	1033895936	67	4062
2026-01-12 00:03:42.71	52.74	46.99	-50.1	-51.5	14.8	0.00e+00	0	23	0	1037041664	66	4207
2026-01-12 00:03:43.72	53.09	47.24	-50.0	-51.5	14.9	0.00e+00	0	23	0	1040187392	66	4201
2026-01-12 00:03:44.72	53.45	47.50	-50.4	-51.8	14.6	0.00e+00	0	23	0	1044381696	66	4377
2026-01-12 00:03:45.73	53.81	47.75	-50.6	-52.1	14.5	0.00e+00	0	23	0	1047527424	66	4520
2026-01-12 00:03:46.73	54.18	48.00	-50.9	-52.5	14.3	0.00e+00	0	23	0	1050673152	66	4743
2026-01-12 00:03:47.74	54.56	48.26	-51.2	-52.9	14.2	0.00e+00	0	23	0	1053818880	67	4672
2026-01-12 00:03:48.75	54.94	48.51	-51.1	-52.7	14.3	0.00e+00	0	23	0	1056964608	67	4575
2026-01-12 00:03:49.76	55.33	48.76	-50.8	-52.4	14.5	0.00e+00	0	23	0	1059061760	67	4401
2026-01-12 00:03:50.77	55.72	49.02	-50.5	-52.0	14.7	0.00e+00	0	23	0	1062207488	67	4216
2026-01-12 00:03:51.78	56.13	49.27	-50.3	-51.8	14.9	0.00e+00	0	23	0	1066401792	67	4104
2026-01-12 00:03:52.78	56.53	49.53	-49.8	-51.2	15.0	0.00e+00	0	23	0	1069547520	66	4083
2026-01-12 00:03:53.79	56.95	49.78	-49.7	-51.0	15.1	0.00e+00	0	23	0	1072693248	66	3999
2026-01-12 00:03:54.80	57.37	50.04	-49.8	-51.1	14.9	0.00e+00	0	23	0	1075838976	65	4288
2026-01-12 00:03:55.81	57.80	50.29	-49.8	-51.2	14.8	0.00e+00	0	23	0	1078984704	65	4339
2026-01-12 00:03:56.81	58.23	50.54	-49.9	-51.3	14.7	0.00e+00	0	23	0	1082130432	65	4375
2026-01-12 00:03:57.82	58.67	50.79	-49.9	-51.3	14.8	0.00e+00	0	23	0	1084227584	65	4361
2026-01-12 00:03:58.83	59.12	51.05	-49.8	-51.2	14.9	0.00e+00	0	23	0	1088421888	65	4292
2026-01-12 00:03:59.84	59.58	51.30	-49.7	-51.0	14.9	0.00e+00	0	23	0	1091567616	65	4229
2026-01-12 00:04:00.84	60.04	51.55	-49.7	-51.1	14.9	0.00e+00	0	23	0	1094713344	65	4273
2026-01-12 00:04:01.85	60.52	51.80	-49.8	-51.3	14.8	0.00e+00	0	23	0	1097859072	65	4347
2026-01-12 00:04:02.86	61.00	52.05	-49.7	-51.1	14.9	0.00e+00	0	23	0	1101004800	65	4252
2026-01-12 00:04:03.87	61.49	52.30	-49.7	-51.1	14.8	0.00e+00	0	23	0	1104150528	65	4277
2026-01-12 00:04:04.88	61.99	52.55	-49.7	-51.1	14.8	0.00e+00	0	23	0	1107296256	65	4280
2026-01-12 00:04:05.89	62.50	52.80	-49.8	-51.2	14.9	0.00e+00	0	23	0	1110441984	65	4297
2026-01-12 00:04:06.90	63.01	53.05	-49.9	-51.3	14.8	0.00e+00	0	23	0	1113587712	65	4366
2026-01-12 00:04:07.91	63.54	53.29	-49.7	-51.1	14.9	0.00e+00	0	23	0	1116733440	65	4262
2026-01-12 00:04:08.91	64.07	53.54	-49.3	-50.7	15.1	0.00e+00	0	23	0	1119879168	65	4061
2026-01-12 00:04:09.92	64.61	53.78	-49.0	-50.3	15.1	0.00e+00	0	23	0	1123024896	64	4111
2026-01-12 00:04:10.93	65.16	54.02	-48.8	-50.0	15.3	0.00e+00	0	23	0	1126170624	64	3996
2026-01-12 00:04:11.93	65.71	54.26	-48.5	-49.7	15.3	0.00e+00	0	23	0	1129316352	63	4067
2026-01-12 00:04:12.94	66.28	54.50	-48.7	-50.0	15.2	0.00e+00	0	23	0	1132462080	63	4214
2026-01-12 00:04:13.95	66.86	54.74	-49.1	-50.4	15.0	0.00e+00	0	23	0	1135607808	63	4406
2026-01-12 00:04:14.96	67.45	54.97	-49.2	-50.6	14.9	0.00e+00	0	23	0	1138753536	63	4494
2026-01-12 00:04:15.97	68.05	55.21	-49.1	-50.4	14.9	0.00e+00	0	23	0	1141899264	63	4428
2026-01-12 00:04:16.97	68.65	55.44	-49.0	-50.3	15.0	0.00e+00	0	23	0	1145044992	63	4344
2026-01-12 00:04:17.98	69.27	55.66	-48.7	-50.0	15.1	0.00e+00	0	23	0	1148190720	63	4219
2026-01-12 00:04:18.99	69.90	55.89	-48.5	-49.7	15.2	0.00e+00	0	23	0	1151336448	63	4076
2026-01-12 00:04:20.00	70.54	56.12	-48.5	-49.7	15.3	0.00e+00	0	23	0	1154482176	63	4086
2026-01-12 00:04:21.01	71.19	56.34	-48.3	-49.5	15.4	0.00e+00	0	23	0	1157627904	63	3997
2026-01-12 00:04:22.02	71.85	56.56	-48.6	-49.9	15.2	0.00e+00	0	23	0	1160773632	63	4164
2026-01-12 00:04:23.03	72.52	56.77	-48.7	-50.0	15.2	0.00e+00	0	23	0	1163919360	63	4199
2026-01-12 00:04:24.04	73.20	56.99	-48.6	-49.8	15.2	0.00e+00	0	23	0	1167065088	63	4108
2026-01-12 00:04:25.05	73.89	57.20	-48.3	-49.5	15.4	0.00e+00	0	23	0	1170210816	63	3962
2026-01-12 00:04:26.06	74.59	57.41	-47.9	-49.0	15.4	0.00e+00	0	23	0	1173356544	62	3989
2026-01-12 00:04:27.07	75.30	57.61	-47.7	-48.9	15.4	0.00e+00	0	23	0	1176502272	62	3931
2026-01-12 00:04:28.08	76.02	57.81	-47.8	-49.0	15.4	0.00e+00	0	23	0	1179648000	62	3974
2026-01-12 00:04:29.09	76.76	58.01	-48.0	-49.1	15.4	0.00e+00	0	23	0	1182793728	62	4050
2026-01-12 00:04:30.09	77.49	58.20	-48.0	-49.2	15.4	0.00e+00	0	23	0	1185939456	62	4054
2026-01-12 00:04:31.10	78.25	58.39	-48.0	-49.2	15.4	0.00e+00	0	23	0	1189085184	62	4056
2026-01-12 00:04:32.11	79.01	58.57	-48.0	-49.2	15.4	0.00e+00	0	23	0	1192230912	62	4060
2026-01-12 00:04:33.12	79.79	58.75	-48.1	-49.3	15.3	0.00e+00	0	23	0	1195376640	62	4144
2026-01-12 00:04:34.13	80.57	58.93	-48.3	-49.5	15.2	0.00e+00	0	23	0	1198522368	62	4217
2026-01-12 00:04:35.14	81.37	59.10	-48.1	-49.3	15.3	0.00e+00	0	23	0	1201668096	62	4142
2026-01-12 00:04:36.15	82.18	59.27	-48.1	-49.3	15.3	0.00e+00	0	23	0	1204813824	62	4118
2026-01-12 00:04:37.16	83.00	59.43	-47.9	-49.1	15.4	0.00e+00	0	23	0	1207959552	62	4042
2026-01-12 00:04:38.16	83.81	59.59	-47.9	-49.1	15.4	0.00e+00	0	23	0	1211105280	62	4039
2026-01-12 00:04:39.17	84.65	59.74	-48.0	-49.2	15.4	0.00e+00	0	23	0	1214251008	62	4075
2026-01-12 00:04:40.18	85.50	59.89	-47.9	-49.1	15.4	0.00e+00	0	23	0	1217396736	62	4011
2026-01-12 00:04:41.19	86.36	60.04	-47.7	-48.8	15.5	0.00e+00	0	23	0	1220542464	62	3911
2026-01-12 00:04:42.20	87.22	60.17	-47.8	-48.9	15.3	0.00e+00	0	23	0	1223688192	61	4193
2026-01-12 00:04:43.21	88.10	60.31	-47.9	-49.1	15.3	0.00e+00	0	23	0	1226833920	61	4268
2026-01-12 00:04:44.22	88.98	60.43	-47.9	-49.1	15.3	0.00e+00	0	23	0	1229979648	61	4269
2026-01-12 00:04:45.24	89.88	60.55	-47.9	-49.0	15.3	0.00e+00	0	23	0	1233125376	61	4237
2026-01-12 00:04:46.25	90.78	60.67	-47.7	-48.9	15.4	0.00e+00	0	23	0	1236271104	61	4161
2026-01-12 00:04:47.26	91.69	60.78	-47.4	-48.6	15.5	0.00e+00	0	23	0	1239416832	61	4010
2026-01-12 00:04:48.26	92.60	60.88	-47.6	-48.7	15.4	0.00e+00	0	23	0	1242562560	61	4082
2026-01-12 00:04:49.27	93.52	60.97	-47.7	-48.8	15.4	0.00e+00	0	23	0	1245708288	61	4141
2026-01-12 00:04:50.28	94.45	61.06	-47.5	-48.7	15.4	0.00e+00	0	23	0	1248854016	61	4072
2026-01-12 00:04:51.29	95.39	61.15	-47.6	-48.7	15.4	0.00e+00	0	23	0	1251999744	61	4091
2026-01-12 00:04:52.30	96.33	61.22	-47.6	-48.7	15.4	0.00e+00	0	23	0	1255145472	61	4078
2026-01-12 00:04:53.31	97.28	61.29	-47.8	-49.0	15.3	0.00e+00	0	23	0	1258291200	61	4207
2026-01-12 00:04:54.32	98.23	61.36	-47.6	-48.7	15.4	0.00e+00	0	23	0	1261436928	61	4089
2026-01-12 00:04:55.33	99.19	61.41	-47.4	-48.5	15.5	0.00e+00	0	23	0	1264582656	61	3986
2026-01-12 00:04:56.33	100.14	61.46	-47.6	-48.8	15.4	0.00e+00	0	23	0	1267728384	61	4101
2026-01-12 00:04:57.34	101.11	61.50	-47.5	-48.7	15.4	0.00e+00	0	23	0	1270874112	61	4063
2026-01-12 00:04:58.35	102.08	61.54	-47.4	-48.5	15.5	0.00e+00	0	23	0	1274019840	61	4001
2026-01-12 00:04:59.36	103.05	61.57	-47.5	-48.6	15.4	0.00e+00	0	23	0	1277165568	61	4037
2026-01-12 00:05:00.37	104.02	61.59	-48.0	-49.2	15.2	0.00e+00	0	23	0	1280311296	61	4300
2026-01-12 00:05:01.38	105.00	61.60	-48.1	-49.3	15.2	0.00e+00	0	23	0	1283457024	61	4365
2026-01-12 00:05:02.39	105.97	61.61	-47.8	-49.0	15.3	0.00e+00	0	23	0	1286602752	61	4196
2026-01-12 00:05:03.39	106.94	61.61	-47.9	-49.1	15.3	0.00e+00	0	23	0	1289748480	61	4268
2026-01-12 00:05:04.40	107.92	61.61	-48.1	-49.4	15.2	0.00e+00	0	23	0	1292894208	61	4396
2026-01-12 00:05:05.41	108.89	61.59	-47.9	-49.1	15.3	0.00e+00	0	23	0	1296039936	61	4264
2026-01-12 00:05:06.42	109.86	61.57	-47.8	-49.0	15.3	0.00e+00	0	23	0	1299185664	61	4203
2026-01-12 00:05:07.43	110.84	61.54	-47.5	-48.6	15.5	0.00e+00	0	23	0	1302331392	61	4047
2026-01-12 00:05:08.43	111.79	61.51	-47.5	-48.6	15.5	0.00e+00	0	23	0	1305477120	61	4024
2026-01-12 00:05:09.44	112.76	61.47	-47.2	-48.3	15.6	0.00e+00	0	23	0	1308622848	61	3904
2026-01-12 00:05:10.45	113.72	61.42	-47.0	-48.1	15.5	0.00e+00	0	23	0	1311768576	60	4024
2026-01-12 00:05:11.46	114.68	61.36	-47.3	-48.4	15.4	0.00e+00	0	23	0	1314914304	60	4193
2026-01-12 00:05:12.47	115.64	61.30	-47.6	-48.7	15.3	0.00e+00	0	23	0	1318060032	60	4329
2026-01-12 00:05:13.48	116.59	61.23	-47.6	-48.8	15.3	0.00e+00	0	23	0	1321205760	60	4363
2026-01-12 00:05:14.49	117.53	61.15	-47.7	-48.8	15.3	0.00e+00	0	23	0	1324351488	60	4377
2026-01-12 00:05:15.50	118.47	61.07	-47.7	-48.9	15.2	0.00e+00	0	23	0	1327497216	60	4408
2026-01-12 00:05:16.50	119.39	60.98	-47.6	-48.7	15.3	0.00e+00	0	23	0	1330642944	60	4316
2026-01-12 00:05:17.51	120.32	60.89	-47.4	-48.5	15.4	0.00e+00	0	23	0	1333788672	60	4239
2026-01-12 00:05:18.52	121.23	60.79	-47.6	-48.8	15.3	0.00e+00	0	23	0	1336934400	60	4345
2026-01-12 00:05:19.53	122.14	60.68	-47.9	-49.0	15.2	0.00e+00	0	23	0	1340080128	60	4492
2026-01-12 00:05:20.54	123.05	60.57	-47.8	-48.9	15.3	0.00e+00	0	23	0	1343225856	60	4434
2026-01-12 00:05:21.55	123.94	60.45	-47.5	-48.7	15.3	0.00e+00	0	23	0	1346371584	60	4307
2026-01-12 00:05:22.56	124.83	60.32	-47.6	-48.8	15.3	0.00e+00	0	23	0	1349517312	60	4373
2026-01-12 00:05:23.57	125.70	60.19	-47.6	-48.8	15.3	0.00e+00	0	23	0	1352663040	60	4368
2026-01-12 00:05:24.57	126.56	60.05	-47.5	-48.6	15.4	0.00e+00	0	23	0	1355808768	60	4277
2026-01-12 00:05:25.58	127.42	59.91	-47.5	-48.7	15.3	0.00e+00	0	23	0	1358954496	60	4297
2026-01-12 00:05:26.60	128.28	59.76	-47.4	-48.6	15.4	0.00e+00	0	23	0	1362100224	60	4243
2026-01-12 00:05:27.60	129.11	59.61	-47.2	-48.4	15.4	0.00e+00	0	23	0	1365245952	60	4162
2026-01-12 00:05:28.61	129.94	59.45	-47.2	-48.4	15.4	0.00e+00	0	23	0	1368391680	60	4151
2026-01-12 00:05:29.63	130.77	59.29	-47.4	-48.5	15.4	0.00e+00	0	23	0	1371537408	60	4241
2026-01-12 00:05:30.64	131.58	59.12	-47.6	-48.8	15.3	0.00e+00	0	23	0	1374683136	60	4347
2026-01-12 00:05:31.64	132.37	58.95	-47.4	-48.6	15.4	0.00e+00	0	23	0	1377828864	60	4248
2026-01-12 00:05:32.65	133.16	58.77	-47.1	-48.2	15.5	0.00e+00	0	23	0	1380974592	60	4083
2026-01-12 00:05:33.66	133.93	58.59	-47.0	-48.1	15.5	0.00e+00	0	23	0	1384120320	60	4016
2026-01-12 00:05:34.67	134.70	58.41	-47.6	-48.8	15.3	0.00e+00	0	23	0	1387266048	60	4342
2026-01-12 00:05:35.67	135.45	58.22	-48.4	-49.7	15.1	0.00e+00	0	23	0	1390411776	61	4557
2026-01-12 00:05:36.67	136.19	58.03	-48.7	-50.0	15.1	0.00e+00	0	23	0	1393557504	62	4458
2026-01-12 00:05:37.67	136.92	57.84	-48.5	-49.8	15.1	0.00e+00	0	23	0	1396703232	62	4366
2026-01-12 00:05:38.68	137.64	57.63	-48.4	-49.6	15.1	0.00e+00	0	23	0	1399848960	62	4286
2026-01-12 00:05:39.69	138.36	57.43	-48.1	-49.4	15.3	0.00e+00	0	23	0	1402994688	62	4148
2026-01-12 00:05:40.70	139.06	57.22	-47.8	-49.0	15.5	0.00e+00	0	23	0	1406140416	62	3985
2026-01-12 00:05:41.71	139.75	57.01	-48.0	-49.2	15.4	0.00e+00	0	23	0	1409286144	62	4072
2026-01-12 00:05:42.71	140.43	56.80	-48.5	-49.8	15.1	0.00e+00	0	23	0	1412431872	62	4346
2026-01-12 00:05:43.72	141.10	56.58	-48.9	-50.2	14.9	0.00e+00	0	23	0	1415577600	62	4561
2026-01-12 00:05:44.73	141.76	56.37	-48.8	-50.1	15.1	0.00e+00	0	23	0	1418723328	63	4261
2026-01-12 00:05:45.74	142.42	56.14	-48.6	-49.8	15.2	0.00e+00	0	23	0	1421869056	63	4135
2026-01-12 00:05:46.75	143.06	55.92	-48.5	-49.7	15.2	0.00e+00	0	23	0	1425014784	63	4074
2026-01-12 00:05:47.76	143.69	55.69	-48.6	-49.8	15.2	0.00e+00	0	23	0	1428160512	63	4134
2026-01-12 00:05:48.77	144.31	55.46	-48.9	-50.2	15.1	0.00e+00	0	23	0	1431306240	63	4296
2026-01-12 00:05:49.77	144.91	55.23	-49.3	-50.6	14.9	0.00e+00	0	23	0	1434451968	63	4526
2026-01-12 00:05:50.79	145.52	55.00	-49.7	-51.1	14.8	0.00e+00	0	23	0	1437597696	64	4542
2026-01-12 00:05:51.79	146.11	54.76	-49.6	-51.1	14.8	0.00e+00	0	23	0	1440743424	64	4500
2026-01-12 00:05:52.80	146.69	54.52	-49.1	-50.4	15.1	0.00e+00	0	23	0	1443889152	64	4181
2026-01-12 00:05:53.81	147.26	54.29	-48.9	-50.1	15.2	0.00e+00	0	23	0	1447034880	64	4046
2026-01-12 00:05:54.82	147.82	54.04	-49.0	-50.3	15.1	0.00e+00	0	23	0	1450180608	64	4115
2026-01-12 00:05:55.83	148.37	53.80	-48.9	-50.2	15.1	0.00e+00	0	23	0	1453326336	64	4073
2026-01-12 00:05:56.84	148.92	53.56	-48.8	-50.0	15.3	0.00e+00	0	23	0	1456472064	64	3995
2026-01-12 00:05:57.85	149.45	53.31	-49.3	-50.6	15.0	0.00e+00	0	23	0	1459617792	64	4270
2026-01-12 00:05:58.86	149.98	53.07	-49.6	-51.1	14.8	0.00e+00	0	23	0	1462763520	64	4497
2026-01-12 00:05:59.87	150.50	52.82	-49.2	-50.5	15.0	0.00e+00	0	23	0	1465909248	64	4242
2026-01-12 00:06:00.88	151.01	52.57	-49.0	-50.3	15.2	0.00e+00	0	23	0	1469054976	64	4112
2026-01-12 00:06:01.89	151.51	52.32	-48.9	-50.1	15.2	0.00e+00	0	23	0	1472200704	64	4045
2026-01-12 00:06:02.90	152.00	52.07	-48.9	-50.2	15.2	0.00e+00	0	23	0	1475346432	64	4068
2026-01-12 00:06:03.91	152.48	51.82	-49.1	-50.4	15.1	0.00e+00	0	23	0	1478492160	64	4151
2026-01-12 00:06:04.92	152.96	51.56	-49.6	-51.0	14.8	0.00e+00	0	23	0	1481637888	64	4460
2026-01-12 00:06:05.93	153.43	51.31	-50.3	-51.8	14.6	0.00e+00	0	23	0	1484783616	65	4626
2026-01-12 00:06:06.94	153.89	51.06	-50.9	-52.5	14.3	0.00e+00	0	23	0	1487929344	66	4715
2026-01-12 00:06:07.94	154.34	50.81	-50.9	-52.5	14.5	0.00e+00	0	23	0	1491075072	67	4445
2026-01-12 00:06:08.95	154.78	50.55	-50.2	-51.6	14.9	0.00e+00	0	23	0	1494220800	67	4050
2026-01-12 00:06:09.96	155.22	50.30	-49.4	-50.7	15.0	0.00e+00	0	23	0	1497366528	65	4078
2026-01-12 00:06:10.97	155.65	50.04	-49.2	-50.5	15.0	0.00e+00	0	23	0	1500512256	64	4209
2026-01-12 00:06:11.98	156.07	49.79	-49.4	-50.8	14.9	0.00e+00	0	23	0	1503657984	64	4358
2026-01-12 00:06:12.98	156.49	49.53	-49.4	-50.8	14.9	0.00e+00	0	23	0	1506803712	64	4352
2026-01-12 00:06:13.99	156.90	49.28	-50.1	-51.6	14.6	0.00e+00	0	23	0	1509949440	65	4527
2026-01-12 00:06:14.99	157.30	49.03	-50.8	-52.5	14.4	0.00e+00	0	23	0	1513095168	66	4707
2026-01-12 00:06:16.00	157.69	48.77	-50.9	-52.5	14.5	0.00e+00	0	23	0	1516240896	67	4449
2026-01-12 00:06:17.01	158.08	48.51	-50.7	-52.2	14.6	0.00e+00	0	23	0	1519386624	67	4318
2026-01-12 00:06:18.01	158.46	48.26	-50.4	-51.9	14.8	0.00e+00	0	23	0	1522532352	67	4170
2026-01-12 00:06:19.02	158.84	48.01	-50.3	-51.7	14.8	0.00e+00	0	23	0	1525678080	67	4085
2026-01-12 00:06:20.03	159.21	47.75	-50.1	-51.5	14.8	0.00e+00	0	23	0	1528823808	66	4212
2026-01-12 00:06:21.04	159.58	47.50	-49.9	-51.3	14.9	0.00e+00	0	23	0	1531969536	66	4100
2026-01-12 00:06:22.04	159.93	47.24	-50.0	-51.3	14.9	0.00e+00	0	23	0	1535115264	66	4144
2026-01-12 00:06:23.05	160.29	46.99	-50.0	-51.5	14.8	0.00e+00	0	23	0	1538260992	66	4196
2026-01-12 00:06:24.06	160.64	46.74	-50.6	-52.1	14.5	0.00e+00	0	23	0	1541406720	66	4540
2026-01-12 00:06:25.06	160.98	46.49	-51.2	-52.9	14.2	0.00e+00	0	23	0	1544552448	67	4664
2026-01-12 00:06:26.07	161.31	46.23	-51.8	-53.6	14.0	0.00e+00	0	23	0	1547698176	68	4770
2026-01-12 00:06:27.08	161.65	45.98	-51.6	-53.3	14.2	0.00e+00	0	23	0	1550843904	68	4620
2026-01-12 00:06:28.09	161.97	45.73	-51.3	-52.9	14.4	0.00e+00	0	23	0	1553989632	68	4437
2026-01-12 00:06:29.10	162.30	45.48	-51.4	-53.1	14.3	0.00e+00	0	23	0	1557135360	68	4495
2026-01-12 00:06:30.11	162.61	45.23	-51.3	-53.0	14.3	0.00e+00	0	23	0	1560281088	68	4454
2026-01-12 00:06:31.12	162.92	44.98	-51.3	-52.9	14.3	0.00e+00	0	23	0	1563426816	68	4437
2026-01-12 00:06:32.13	163.23	44.73	-50.9	-52.4	14.7	0.00e+00	0	23	0	1566572544	68	4154
2026-01-12 00:06:33.14	163.53	44.48	-50.6	-52.0	14.7	0.00e+00	0	23	0	1569718272	67	4228
2026-01-12 00:06:34.15	163.83	44.23	-50.7	-52.2	14.6	0.00e+00	0	23	0	1572864000	67	4313
2026-01-12 00:06:35.15	164.12	43.99	-51.1	-52.7	14.3	0.00e+00	0	23	0	1576009728	67	4592
2026-01-12 00:06:36.16	164.41	43.74	-51.1	-52.8	14.3	0.00e+00	0	23	0	1579155456	67	4604
2026-01-12 00:06:37.17	164.70	43.50	-51.0	-52.5	14.4	0.00e+00	0	23	0	1582301184	67	4486
2026-01-12 00:06:38.18	164.98	43.25	-50.8	-52.3	14.5	0.00e+00	0	23	0	1586495488	67	4366
2026-01-12 00:06:39.18	165.25	43.01	-50.7	-52.2	14.6	0.00e+00	0	23	0	1588592640	67	4299
2026-01-12 00:06:40.19	165.52	42.77	-50.3	-51.7	14.9	0.00e+00	0	23	0	1591738368	67	4097
2026-01-12 00:06:41.20	165.79	42.52	-50.0	-51.3	14.9	0.00e+00	0	23	0	1594884096	66	4131
2026-01-12 00:06:42.21	166.06	42.28	-49.7	-51.0	14.9	0.00e+00	0	23	0	1598029824	65	4206
2026-01-12 00:06:43.22	166.32	42.04	-49.7	-51.1	14.9	0.00e+00	0	23	0	1601175552	65	4255
2026-01-12 00:06:44.22	166.57	41.81	-50.2	-51.7	14.6	0.00e+00	0	23	0	1604321280	65	4548
2026-01-12 00:06:45.23	166.83	41.57	-50.3	-51.8	14.5	0.00e+00	0	23	0	1608515584	65	4641
2026-01-12 00:06:46.24	167.08	41.33	-50.4	-51.9	14.5	0.00e+00	0	23	0	1610612736	65	4671
2026-01-12 00:06:47.25	167.32	41.09	-50.4	-51.9	14.6	0.00e+00	0	23	0	1613758464	66	4430
2026-01-12 00:06:48.25	167.56	40.86	-50.2	-51.7	14.7	0.00e+00	0	23	0	1616904192	66	4311
2026-01-12 00:06:49.26	167.80	40.62	-50.0	-51.4	14.8	0.00e+00	0	23	0	1620049920	66	4171
2026-01-12 00:06:50.28	168.04	40.39	-50.1	-51.5	14.7	0.00e+00	0	23	0	1624244224	66	4234
2026-01-12 00:06:51.28	168.27	40.16	-50.5	-52.0	14.5	0.00e+00	0	23	0	1627389952	66	4453
2026-01-12 00:06:52.29	168.50	39.93	-50.6	-52.2	14.4	0.00e+00	0	23	0	1630535680	66	4546
2026-01-12 00:06:53.30	168.72	39.70	-50.6	-52.2	14.4	0.00e+00	0	23	0	1633681408	66	4561
2026-01-12 00:06:54.30	168.94	39.47	-50.6	-52.2	14.5	0.00e+00	0	23	0	1635778560	66	4551
2026-01-12 00:06:55.31	169.16	39.24	-50.6	-52.1	14.5	0.00e+00	0	23	0	1638924288	66	4532
2026-01-12 00:06:56.31	169.38	39.01	-50.5	-52.0	14.6	0.00e+00	0	23	0	1642070016	66	4461
2026-01-12 00:06:57.32	169.59	38.79	-50.5	-52.0	14.6	0.00e+00	0	23	0	1645215744	66	4452
2026-01-12 00:06:58.33	169.80	38.56	-50.6	-52.1	14.5	0.00e+00	0	23	0	1649410048	66	4526
2026-01-12 00:06:59.34	170.01	38.34	-50.8	-52.4	14.3	0.00e+00	0	23	0	1652555776	66	4681
2026-01-12 00:07:00.35	170.22	38.12	-51.1	-52.8	14.3	0.00e+00	0	23	0	1655701504	67	4621
2026-01-12 00:07:01.36	170.42	37.89	-50.9	-52.6	14.4	0.00e+00	0	23	0	1657798656	67	4511
2026-01-12 00:07:02.37	170.62	37.67	-50.7	-52.3	14.5	0.00e+00	0	23	0	1660944384	67	4350
2026-01-12 00:07:03.37	170.82	37.45	-50.6	-52.1	14.6	0.00e+00	0	23	0	1665138688	67	4269
2026-01-12 00:07:04.37	171.01	37.24	-50.0	-51.4	14.8	0.00e+00	0	23	0	1667235840	66	4173
2026-01-12 00:07:05.38	171.20	37.02	-49.4	-50.8	15.0	0.00e+00	0	23	0	1671430144	65	4110
2026-01-12 00:07:06.39	171.39	36.80	-49.2	-50.6	15.1	0.00e+00	0	23	0	1674575872	65	4008
2026-01-12 00:07:07.39	171.58	36.59	-49.1	-50.4	15.1	0.00e+00	0	23	0	1677721600	64	4170
2026-01-12 00:07:08.40	171.76	36.37	-49.1	-50.4	15.0	0.00e+00	0	23	0	1680867328	64	4187
2026-01-12 00:07:09.41	171.95	36.16	-49.2	-50.5	15.0	0.00e+00	0	23	0	1682964480	64	4207
2026-01-12 00:07:10.41	172.12	35.95	-49.3	-50.6	15.0	0.00e+00	0	23	0	1686110208	64	4288
2026-01-12 00:07:11.42	172.30	35.74	-49.5	-50.8	14.9	0.00e+00	0	23	0	1690304512	64	4388
2026-01-12 00:07:12.43	172.48	35.53	-49.7	-51.1	14.7	0.00e+00	0	23	0	1693450240	64	4526
2026-01-12 00:07:13.44	172.65	35.32	-49.8	-51.2	14.7	0.00e+00	0	23	0	1696595968	64	4565
2026-01-12 00:07:14.44	172.82	35.11	-49.9	-51.4	14.6	0.00e+00	0	23	0	1699741696	64	4655
2026-01-12 00:07:15.46	172.99	34.91	-49.9	-51.3	14.7	0.00e+00	0	23	0	1702887424	65	4384
2026-01-12 00:07:16.46	173.16	34.70	-50.0	-51.4	14.7	0.00e+00	0	23	0	1704984576	65	4437
2026-01-12 00:07:17.47	173.32	34.50	-49.9	-51.4	14.7	0.00e+00	0	23	0	1708130304	65	4414
2026-01-12 00:07:18.48	173.49	34.29	-50.0	-51.4	14.7	0.00e+00	0	23	0	1712324608	65	4434
2026-01-12 00:07:19.49	173.65	34.09	-49.7	-51.1	14.8	0.00e+00	0	23	0	1715470336	65	4267
2026-01-12 00:07:20.50	173.81	33.89	-49.2	-50.5	15.2	0.00e+00	0	23	0	1718616064	65	3987
2026-01-12 00:07:21.51	173.97	33.69	-48.9	-50.2	15.2	0.00e+00	0	23	0	1721761792	64	4080
2026-01-12 00:07:22.52	174.12	33.49	-48.7	-50.0	15.3	0.00e+00	0	23	0	1724907520	64	3976
2026-01-12 00:07:23.52	174.28	33.29	-48.8	-50.0	15.3	0.00e+00	0	23	0	1728053248	64	3990
2026-01-12 00:07:24.53	174.43	33.10	-48.7	-50.0	15.3	0.00e+00	0	23	0	1731198976	64	3959
2026-01-12 00:07:25.54	174.58	32.90	-48.4	-49.6	15.3	0.00e+00	0	23	0	1734344704	63	4020
2026-01-12 00:07:26.55	174.73	32.70	-48.2	-49.4	15.4	0.00e+00	0	23	0	1737490432	63	3948
2026-01-12 00:07:27.56	174.87	32.51	-48.3	-49.5	15.4	0.00e+00	0	23	0	1740636160	63	3970
2026-01-12 00:07:28.57	175.02	32.32	-48.1	-49.3	15.3	0.00e+00	0	23	0	1743781888	62	4131
2026-01-12 00:07:29.58	175.16	32.12	-48.1	-49.3	15.3	0.00e+00	0	23	0	1746927616	62	4100
2026-01-12 00:07:30.59	175.30	31.93	-48.0	-49.2	15.3	0.00e+00	0	23	0	1750073344	62	4083
2026-01-12 00:07:31.60	175.44	31.74	-48.0	-49.3	15.3	0.00e+00	0	23	0	1753219072	62	4101
2026-01-12 00:07:32.61	175.58	31.55	-48.0	-49.2	15.3	0.00e+00	0	23	0	1756364800	62	4078
2026-01-12 00:07:33.61	175.72	31.37	-48.1	-49.3	15.2	0.00e+00	0	23	0	1759510528	62	4129
2026-01-12 00:07:34.62	175.85	31.18	-48.2	-49.4	15.2	0.00e+00	0	23	0	1762656256	62	4192
2026-01-12 00:07:35.63	175.99	31.00	-48.4	-49.7	15.1	0.00e+00	0	23	0	1765801984	62	4311
2026-01-12 00:07:36.64	176.12	30.81	-48.6	-49.9	15.0	0.00e+00	0	23	0	1768947712	62	4400
2026-01-12 00:07:37.64	176.25	30.63	-48.6	-49.9	15.0	0.00e+00	0	23	0	1772093440	62	4429
2026-01-12 00:07:38.65	176.38	30.45	-48.5	-49.8	15.1	0.00e+00	0	23	0	1775239168	62	4372
2026-01-12 00:07:39.66	176.51	30.26	-48.6	-49.8	15.0	0.00e+00	0	23	0	1778384896	62	4391
2026-01-12 00:07:40.66	176.64	30.09	-48.4	-49.7	15.1	0.00e+00	0	23	0	1781530624	62	4307
2026-01-12 00:07:41.67	176.76	29.91	-48.3	-49.5	15.2	0.00e+00	0	23	0	1784676352	62	4222
2026-01-12 00:07:42.68	176.89	29.73	-48.1	-49.3	15.2	0.00e+00	0	23	0	1787822080	62	4140
2026-01-12 00:07:43.69	177.01	29.55	-48.0	-49.2	15.3	0.00e+00	0	23	0	1790967808	62	4085
2026-01-12 00:07:44.70	177.13	29.37	-48.1	-49.3	15.2	0.00e+00	0	23	0	1794113536	62	4115
2026-01-12 00:07:45.71	177.25	29.20	-48.0	-49.2	15.3	0.00e+00	0	23	0	1797259264	62	4084
2026-01-12 00:07:46.71	177.37	29.02	-47.8	-49.0	15.4	0.00e+00	0	23	0	1800404992	62	3990
2026-01-12 00:07:47.72	177.49	28.85	-47.9	-49.1	15.3	0.00e+00	0	23	0	1803550720	62	4027
2026-01-12 00:07:48.73	177.60	28.68	-48.0	-49.2	15.3	0.00e+00	0	23	0	1806696448	62	4089
2026-01-12 00:07:49.74	177.72	28.50	-48.0	-49.3	15.3	0.00e+00	0	23	0	1809842176	62	4101
2026-01-12 00:07:50.75	177.83	28.33	-48.1	-49.3	15.3	0.00e+00	0	23	0	1812987904	62	4115
2026-01-12 00:07:51.76	177.95	28.16	-48.1	-49.3	15.3	0.00e+00	0	23	0	1816133632	62	4121
2026-01-12 00:07:52.77	178.06	27.99	-48.0	-49.2	15.3	0.00e+00	0	23	0	1819279360	62	4092
2026-01-12 00:07:53.78	178.17	27.83	-48.0	-49.2	15.3	0.00e+00	0	23	0	1822425088	62	4075
2026-01-12 00:07:54.78	178.28	27.66	-48.0	-49.2	15.3	0.00e+00	0	23	0	1825570816	62	4081
2026-01-12 00:07:55.79	178.39	27.49	-47.9	-49.0	15.4	0.00e+00	0	23	0	1828716544	62	4001
2026-01-12 00:07:56.80	178.50	27.33	-47.7	-48.9	15.4	0.00e+00	0	23	0	1831862272	62	3938
2026-01-12 00:07:57.81	178.60	27.16	-47.8	-48.9	15.4	0.00e+00	0	23	0	1835008000	62	3948
2026-01-12 00:07:58.82	178.71	27.00	-47.8	-48.9	15.4	0.00e+00	0	23	0	1838153728	62	3944
2026-01-12 00:07:59.81	178.81	26.84	-47.8	-49.0	15.4	0.00e+00	0	23	0	1841299456	62	3979
2026-01-12 00:08:00.82	178.91	26.68	-47.9	-49.1	15.4	0.00e+00	0	23	0	1844445184	62	4017
2026-01-12 00:08:01.84	179.02	26.51	-48.0	-49.2	15.3	0.00e+00	0	23	0	1847590912	62	4069
2026-01-12 00:08:02.85	179.12	26.35	-48.1	-49.3	15.3	0.00e+00	0	23	0	1850736640	62	4112
2026-01-12 00:08:03.85	179.22	26.20	-48.1	-49.3	15.3	0.00e+00	0	23	0	1853882368	62	4121
2026-01-12 00:08:04.86	179.32	26.04	-48.2	-49.4	15.2	0.00e+00	0	23	0	1857028096	62	4171
2026-01-12 00:08:05.87	179.42	25.88	-48.2	-49.5	15.2	0.00e+00	0	23	0	1860173824	62	4201
2026-01-12 00:08:06.88	179.51	25.72	-48.2	-49.5	15.2	0.00e+00	0	23	0	1863319552	62	4197
2026-01-12 00:08:07.89	179.61	25.57	-48.2	-49.5	15.2	0.00e+00	0	23	0	1866465280	62	4208
2026-01-12 00:08:08.90	179.71	25.41	-48.0	-49.3	15.2	0.00e+00	0	23	0	1869611008	62	4112
2026-01-12 00:08:09.91	179.80	25.26	-48.1	-49.3	15.3	0.00e+00	0	23	0	1872756736	62	4119
2026-01-12 00:08:10.92	179.90	25.10	-48.1	-49.4	15.2	0.00e+00	0	23	0	1875902464	62	4159
2026-01-12 00:08:11.93	179.99	24.95	-48.1	-49.3	15.2	0.00e+00	0	23	0	1879048192	62	4127
2026-01-12 00:08:12.93	180.08	24.80	-48.0	-49.2	15.3	0.00e+00	0	23	0	1882193920	62	4087
2026-01-12 00:08:13.94	180.17	24.65	-48.0	-49.2	15.3	0.00e+00	0	23	0	1885339648	62	4077
2026-01-12 00:08:14.95	180.26	24.50	-48.0	-49.2	15.3	0.00e+00	0	23	0	1888485376	62	4067
2026-01-12 00:08:15.97	180.35	24.35	-48.0	-49.2	15.3	0.00e+00	0	23	0	1891631104	62	4087
2026-01-12 00:08:16.97	180.44	24.20	-47.9	-49.1	15.3	0.00e+00	0	23	0	1894776832	62	4031
2026-01-12 00:08:17.98	180.53	24.05	-47.8	-49.0	15.3	0.00e+00	0	23	0	1897922560	62	3996
2026-01-12 00:08:18.99	180.62	23.90	-47.8	-48.9	15.4	0.00e+00	0	23	0	1901068288	62	3948
2026-01-12 00:08:20.00	180.71	23.76	-47.7	-48.9	15.4	0.00e+00	0	23	0	1904214016	62	3930
2026-01-12 00:08:21.01	180.79	23.61	-47.6	-48.8	15.3	0.00e+00	0	23	0	1907359744	61	4114
2026-01-12 00:08:22.02	180.88	23.46	-47.7	-48.9	15.3	0.00e+00	0	23	0	1910505472	61	4158
2026-01-12 00:08:23.03	180.96	23.32	-47.7	-48.9	15.3	0.00e+00	0	23	0	1913651200	61	4159
2026-01-12 00:08:24.04	181.05	23.18	-47.7	-48.9	15.3	0.00e+00	0	23	0	1916796928	61	4156
2026-01-12 00:08:25.05	181.13	23.03	-47.8	-49.0	15.2	0.00e+00	0	23	0	1919942656	61	4204
2026-01-12 00:08:26.06	181.21	22.89	-47.7	-48.9	15.3	0.00e+00	0	23	0	1923088384	61	4160
2026-01-12 00:08:27.07	181.29	22.75	-47.7	-48.9	15.2	0.00e+00	0	23	0	1926234112	61	4182
2026-01-12 00:08:28.08	181.37	22.61	-47.7	-48.9	15.3	0.00e+00	0	23	0	1929379840	61	4169
2026-01-12 00:08:29.09	181.45	22.47	-47.8	-49.0	15.2	0.00e+00	0	23	0	1932525568	61	4198
2026-01-12 00:08:30.10	181.53	22.33	-47.7	-48.9	15.3	0.00e+00	0	23	0	1935671296	61	4180
2026-01-12 00:08:31.10	181.61	22.19	-47.8	-49.0	15.2	0.00e+00	0	23	0	1938817024	61	4225
2026-01-12 00:08:32.11	181.69	22.06	-47.8	-49.1	15.2	0.00e+00	0	23	0	1941962752	61	4247
2026-01-12 00:08:33.12	181.77	21.92	-48.0	-49.2	15.1	0.00e+00	0	23	0	1945108480	61	4315
2026-01-12 00:08:34.13	181.84	21.78	-48.1	-49.3	15.1	0.00e+00	0	23	0	1948254208	61	4383
2026-01-12 00:08:35.14	181.92	21.65	-48.2	-49.4	15.1	0.00e+00	0	23	0	1951399936	61	4427
2026-01-12 00:08:36.15	182.00	21.51	-48.2	-49.4	15.0	0.00e+00	0	23	0	1954545664	61	4436
2026-01-12 00:08:37.15	182.07	21.38	-48.2	-49.5	15.0	0.00e+00	0	23	0	1957691392	61	4460
2026-01-12 00:08:38.15	182.14	21.25	-48.3	-49.6	15.0	0.00e+00	0	23	0	1960837120	61	4499
2026-01-12 00:08:39.16	182.22	21.11	-48.3	-49.6	15.0	0.00e+00	0	23	0	1963982848	61	4520
2026-01-12 00:08:40.16	182.29	20.98	-48.4	-49.6	15.0	0.00e+00	0	23	0	1967128576	61	4543
2026-01-12 00:08:41.17	182.36	20.85	-48.2	-49.5	15.0	0.00e+00	0	23	0	1970274304	61	4459
2026-01-12 00:08:42.18	182.44	20.72	-48.2	-49.5	15.0	0.00e+00	0	23	0	1973420032	61	4448
2026-01-12 00:08:43.19	182.51	20.59	-48.3	-49.6	15.0	0.00e+00	0	23	0	1976565760	61	4498
2026-01-12 00:08:44.20	182.58	20.46	-48.2	-49.4	15.0	0.00e+00	0	23	0	1979711488	61	4429
2026-01-12 00:08:45.21	182.65	20.33	-48.2	-49.5	15.0	0.00e+00	0	23	0	1982857216	61	4445
2026-01-12 00:08:46.22	182.72	20.20	-48.0	-49.2	15.1	0.00e+00	0	23	0	1986002944	61	4338
2026-01-12 00:08:47.23	182.79	20.07	-48.0	-49.2	15.1	0.00e+00	0	23	0	1989148672	61	4325
2026-01-12 00:08:48.23	182.86	19.95	-48.0	-49.2	15.1	0.00e+00	0	23	0	1992294400	61	4327
2026-01-12 00:08:49.25	182.92	19.82	-47.9	-49.1	15.2	0.00e+00	0	23	0	1995440128	61	4283
2026-01-12 00:08:50.25	182.99	19.69	-48.0	-49.3	15.1	0.00e+00	0	23	0	1998585856	61	4347
2026-01-12 00:08:51.26	183.06	19.57	-48.0	-49.3	15.1	0.00e+00	0	23	0	2001731584	61	4348
2026-01-12 00:08:52.27	183.12	19.44	-48.0	-49.2	15.1	0.00e+00	0	23	0	2004877312	61	4316
2026-01-12 00:08:53.29	183.19	19.32	-48.1	-49.4	15.1	0.00e+00	0	23	0	2008023040	61	4401
2026-01-12 00:08:54.29	183.26	19.19	-48.1	-49.3	15.1	0.00e+00	0	23	0	2011168768	61	4382
2026-01-12 00:08:55.29	183.32	19.07	-48.1	-49.4	15.1	0.00e+00	0	23	0	2014314496	61	4410
2026-01-12 00:08:56.30	183.39	18.95	-48.3	-49.5	15.0	0.00e+00	0	23	0	2017460224	61	4493
2026-01-12 00:08:57.30	183.45	18.83	-48.2	-49.5	15.0	0.00e+00	0	23	0	2020605952	61	4465
2026-01-12 00:08:58.31	183.51	18.71	-48.3	-49.6	15.0	0.00e+00	0	23	0	2023751680	61	4509
2026-01-12 00:08:59.32	183.58	18.58	-48.4	-49.7	15.0	0.00e+00	0	23	0	2026897408	62	4328
2026-01-12 00:09:00.33	183.64	18.46	-48.4	-49.7	15.0	0.00e+00	0	23	0	2030043136	62	4335
2026-01-12 00:09:01.34	183.70	18.34	-48.5	-49.8	15.0	0.00e+00	0	23	0	2033188864	62	4375
2026-01-12 00:09:02.35	183.76	18.23	-48.5	-49.8	15.0	0.00e+00	0	23	0	2036334592	62	4372
2026-01-12 00:09:03.36	183.82	18.11	-48.5	-49.8	15.0	0.00e+00	0	23	0	2039480320	62	4347
2026-01-12 00:09:04.37	183.89	17.99	-48.5	-49.8	15.0	0.00e+00	0	23	0	2042626048	62	4345
2026-01-12 00:09:05.38	183.95	17.87	-48.6	-49.9	15.0	0.00e+00	0	23	0	2045771776	62	4411
2026-01-12 00:09:06.39	184.01	17.75	-48.5	-49.8	15.0	0.00e+00	0	23	0	2048917504	62	4379
2026-01-12 00:09:07.39	184.07	17.64	-48.5	-49.8	15.0	0.00e+00	0	23	0	2052063232	62	4344
2026-01-12 00:09:08.41	184.12	17.52	-48.5	-49.9	15.0	0.00e+00	0	23	0	2055208960	62	4401
2026-01-12 00:09:09.42	184.18	17.40	-48.5	-49.8	15.0	0.00e+00	0	23	0	2058354688	62	4348
2026-01-12 00:09:10.42	184.24	17.29	-48.5	-49.8	15.0	0.00e+00	0	23	0	2061500416	62	4348
2026-01-12 00:09:11.43	184.30	17.18	-48.5	-49.8	15.0	0.00e+00	0	23	0	2064646144	62	4347
2026-01-12 00:09:12.44	184.36	17.06	-48.6	-49.9	15.0	0.00e+00	0	23	0	2067791872	62	4418
2026-01-12 00:09:13.45	184.41	16.95	-48.5	-49.8	15.0	0.00e+00	0	23	0	2070937600	62	4383
2026-01-12 00:09:14.46	184.47	16.84	-48.5	-49.8	15.0	0.00e+00	0	23	0	2074083328	62	4389
2026-01-12 00:09:15.47	184.53	16.72	-48.4	-49.7	15.0	0.00e+00	0	23	0	2077229056	62	4329
2026-01-12 00:09:16.48	184.58	16.61	-48.6	-49.9	15.0	0.00e+00	0	23	0	2080374784	62	4413
2026-01-12 00:09:17.48	184.64	16.50	-48.6	-49.9	15.0	0.00e+00	0	23	0	2083520512	62	4409
2026-01-12 00:09:18.49	184.69	16.39	-48.7	-50.0	14.9	0.00e+00	0	23	0	2086666240	62	4461
2026-01-12 00:09:19.50	184.75	16.28	-48.8	-50.2	14.8	0.00e+00	0	23	0	2089811968	62	4562
2026-01-12 00:09:20.51	184.80	16.17	-48.9	-50.3	14.8	0.00e+00	0	23	0	2092957696	62	4612
2026-01-12 00:09:21.51	184.86	16.06	-48.8	-50.2	14.9	0.00e+00	0	23	0	2096103424	63	4307
2026-01-12 00:09:22.52	184.91	15.95	-48.8	-50.1	15.0	0.00e+00	0	23	0	2099249152	63	4275
2026-01-12 00:09:23.53	184.96	15.84	-48.6	-49.9	15.1	0.00e+00	0	23	0	2102394880	63	4172
