passes_logs/2026/01/11/R3.2S_Murmansk/R3.2S_Murmansk__20260111_122635_SUOMI_NPP_rec.log

#Pass ID: 20260111_122635_SUOMI NPP
#Satellite: SUOMI NPP
#Configuration: NPP
#almurnet v.1.7.20251203
#Start time: 2026-01-11 12:26:36

#Version: 2.2.20231116
#Station: R3.2S_Murmansk
#Location: 33.079688 lon 68.888172 lat
#TLE: 1 37849U 11061A   26010.94533966  .00000106  00000+0  71276-4 0  9997
#TLE: 2 37849  98.7807 313.0290 0002520  70.6146 289.5303 14.19524339736134

#Time	Az	El	Level	Level2	SNR	BER	BlckErr	Temp	State	Recorded	gain1	gain2
2026-01-11 12:26:36.74	224.80	2.08	-57.5	-73.5	3.8	1.49e+00	0	21	0	0	81	22424
2026-01-11 12:26:37.74	224.88	2.13	-57.4	-73.4	3.8	1.49e+00	0	21	104	0	79	24908
2026-01-11 12:26:38.74	224.97	2.18	-57.4	-73.4	3.8	1.49e+00	0	21	104	0	79	24929
2026-01-11 12:26:39.75	225.05	2.23	-57.4	-73.5	3.8	1.49e+00	0	21	104	0	79	24988
2026-01-11 12:26:40.76	225.14	2.29	-57.4	-73.4	3.8	1.49e+00	0	21	104	0	79	24939
2026-01-11 12:26:41.77	225.22	2.34	-57.5	-73.4	3.8	1.49e+00	0	21	104	0	80	23575
2026-01-11 12:26:42.78	225.31	2.39	-57.4	-73.4	3.8	1.49e+00	0	21	104	0	80	23513
2026-01-11 12:26:43.78	225.39	2.44	-57.4	-73.4	3.8	1.49e+00	0	21	104	0	80	23514
2026-01-11 12:26:44.79	225.48	2.49	-57.4	-73.4	3.8	1.49e+00	0	21	104	0	80	23444
2026-01-11 12:26:45.79	225.57	2.54	-57.4	-73.4	3.8	1.49e+00	0	21	104	0	80	23480
2026-01-11 12:26:46.80	225.65	2.60	-57.4	-73.4	3.8	1.49e+00	0	21	104	0	80	23492
2026-01-11 12:26:47.81	225.74	2.65	-57.4	-73.4	3.8	1.49e+00	0	21	104	0	80	23535
2026-01-11 12:26:48.82	225.83	2.70	-57.4	-73.4	3.8	1.49e+00	0	22	104	0	80	23449
2026-01-11 12:26:49.83	225.91	2.75	-57.4	-73.4	3.8	1.49e+00	0	21	104	0	80	23413
2026-01-11 12:26:50.84	226.00	2.81	-57.4	-73.4	3.8	1.49e+00	0	21	104	0	80	23407
2026-01-11 12:26:51.84	226.09	2.86	-57.4	-73.4	3.8	1.49e+00	0	21	104	0	80	23353
2026-01-11 12:26:52.85	226.18	2.91	-57.5	-73.4	3.8	1.49e+00	0	21	104	0	80	23375
2026-01-11 12:26:53.86	226.27	2.96	-57.4	-73.4	3.8	1.49e+00	0	22	104	0	80	23464
2026-01-11 12:26:54.86	226.36	3.02	-57.4	-73.4	3.8	1.49e+00	0	21	104	0	80	23517
2026-01-11 12:26:55.87	226.45	3.07	-57.4	-73.4	3.8	1.49e+00	0	22	104	0	80	23520
2026-01-11 12:26:56.88	226.53	3.12	-57.4	-73.4	3.8	1.49e+00	0	22	104	0	80	23430
2026-01-11 12:26:57.89	226.63	3.17	-57.4	-73.4	3.8	1.49e+00	0	22	104	0	80	23393
2026-01-11 12:26:58.90	226.72	3.23	-57.4	-73.4	3.8	1.49e+00	0	22	104	0	80	23395
2026-01-11 12:26:59.91	226.81	3.28	-57.4	-73.4	3.8	1.49e+00	0	22	104	0	80	23317
2026-01-11 12:27:00.92	226.90	3.33	-57.4	-73.4	3.8	1.49e+00	0	22	104	0	80	23329
2026-01-11 12:27:01.93	226.99	3.39	-57.4	-73.4	3.8	1.49e+00	0	22	104	0	80	23324
2026-01-11 12:27:02.94	227.08	3.44	-57.4	-73.4	3.8	1.49e+00	0	22	104	0	80	23413
2026-01-11 12:27:03.95	227.17	3.49	-57.4	-73.4	3.8	1.49e+00	0	22	104	0	80	23533
2026-01-11 12:27:04.95	227.26	3.54	-57.4	-73.4	3.8	1.49e+00	0	22	104	0	80	23534
2026-01-11 12:27:05.96	227.36	3.60	-57.4	-73.4	3.8	1.49e+00	0	22	104	0	80	23513
2026-01-11 12:27:06.98	227.45	3.65	-57.4	-73.4	3.8	1.49e+00	0	22	104	0	80	23495
2026-01-11 12:27:07.98	227.54	3.70	-57.4	-73.4	3.8	1.49e+00	0	22	104	0	80	23489
2026-01-11 12:27:08.99	227.64	3.76	-57.4	-73.4	3.8	1.49e+00	0	22	104	0	80	23432
2026-01-11 12:27:10.00	227.73	3.81	-57.4	-73.3	3.8	1.49e+00	0	22	104	0	80	23277
2026-01-11 12:27:11.01	227.82	3.86	-57.4	-73.2	3.8	1.49e+00	0	22	104	0	80	23035
2026-01-11 12:27:12.02	227.92	3.92	-57.4	-73.2	3.8	1.49e+00	0	22	104	0	80	23010
2026-01-11 12:27:13.02	228.01	3.97	-57.4	-73.2	3.8	1.49e+00	0	22	104	0	80	22942
2026-01-11 12:27:14.03	228.11	4.02	-57.4	-73.1	3.8	1.49e+00	0	22	104	0	80	22700
2026-01-11 12:27:15.04	228.20	4.08	-57.4	-73.1	3.8	1.49e+00	0	22	104	0	80	22619
2026-01-11 12:27:16.05	228.30	4.13	-57.4	-73.1	3.8	1.49e+00	0	22	104	0	80	22752
2026-01-11 12:27:17.06	228.39	4.18	-57.4	-73.0	3.8	1.49e+00	0	22	104	0	80	22485
2026-01-11 12:27:18.06	228.49	4.24	-57.4	-73.1	3.8	1.49e+00	0	22	104	0	80	22584
2026-01-11 12:27:19.07	228.59	4.29	-57.4	-73.1	3.8	1.49e+00	0	22	104	0	80	22621
2026-01-11 12:27:20.08	228.68	4.34	-57.4	-73.3	3.8	1.49e+00	0	22	104	0	80	23291
2026-01-11 12:27:21.08	228.78	4.40	-57.4	-73.4	3.8	1.49e+00	0	22	104	0	80	23562
2026-01-11 12:27:22.09	228.88	4.45	-57.4	-73.3	3.8	1.49e+00	0	22	104	0	80	23181
2026-01-11 12:27:23.10	228.98	4.50	-57.4	-72.6	3.8	1.49e+00	0	22	104	0	80	21473
2026-01-11 12:27:24.11	229.08	4.56	-57.4	-71.6	3.8	1.49e+00	0	22	104	0	80	19098
2026-01-11 12:27:25.12	229.17	4.61	-57.3	-70.4	4.1	1.48e+00	0	22	0	0	80	16530
2026-01-11 12:27:26.13	229.27	4.67	-57.3	-69.6	4.3	1.38e+00	0	22	0	0	80	15213
2026-01-11 12:27:27.14	229.37	4.72	-57.2	-68.8	4.6	1.02e+00	0	22	0	1048576	80	13738
2026-01-11 12:27:28.15	229.47	4.77	-57.1	-67.9	4.9	8.39e-01	0	22	0	3145728	80	12480
2026-01-11 12:27:29.16	229.57	4.83	-57.1	-66.8	5.5	5.66e-01	0	22	0	4194304	80	11011
2026-01-11 12:27:30.16	229.67	4.88	-56.8	-65.3	6.6	2.25e-01	0	22	0	6291456	80	9225
2026-01-11 12:27:31.17	229.77	4.94	-56.4	-63.1	8.5	5.57e-02	0	22	0	8388608	79	7605
2026-01-11 12:27:32.18	229.88	4.99	-55.9	-61.4	10.0	6.77e-03	0	22	0	10485760	78	6597
2026-01-11 12:27:33.19	229.98	5.04	-55.4	-60.2	11.0	9.44e-04	0	22	0	12582912	77	6071
2026-01-11 12:27:34.19	230.08	5.10	-55.6	-60.7	10.6	5.49e-04	0	22	0	13631488	77	6471
2026-01-11 12:27:35.20	230.18	5.15	-56.8	-65.2	6.6	2.36e-01	0	22	0	15728640	79	9642
2026-01-11 12:27:36.21	230.28	5.21	-54.5	-58.3	12.4	4.96e-04	0	22	0	17825792	75	5491
2026-01-11 12:27:37.22	230.39	5.26	-56.6	-64.5	6.9	3.60e-01	0	22	0	19922944	78	9445
2026-01-11 12:27:38.23	230.49	5.32	-54.6	-58.3	12.3	1.50e-06	0	22	0	22020096	74	5800
2026-01-11 12:27:39.24	230.59	5.37	-53.9	-57.0	13.3	0.00e+00	0	22	0	23068672	74	5015
2026-01-11 12:27:40.25	230.70	5.42	-53.8	-56.8	13.4	0.00e+00	0	22	0	25165824	74	4888
2026-01-11 12:27:41.26	230.80	5.48	-53.6	-56.6	13.4	0.00e+00	0	22	0	27262976	73	5086
2026-01-11 12:27:42.27	230.91	5.53	-53.6	-56.5	13.4	0.00e+00	0	22	0	29360128	73	5040
2026-01-11 12:27:43.27	231.01	5.59	-53.6	-56.5	13.5	0.00e+00	0	22	0	31457280	73	5024
2026-01-11 12:27:44.28	231.12	5.64	-53.6	-56.5	13.5	0.00e+00	0	22	0	32505856	73	4992
2026-01-11 12:27:45.29	231.22	5.70	-53.4	-56.2	13.7	0.00e+00	0	22	0	34603008	73	4864
2026-01-11 12:27:46.30	231.33	5.75	-53.4	-56.2	13.7	0.00e+00	0	22	0	36700160	73	4866
2026-01-11 12:27:47.31	231.44	5.81	-53.3	-56.1	13.8	0.00e+00	0	22	0	38797312	73	4774
2026-01-11 12:27:48.32	231.55	5.86	-53.2	-55.9	13.9	0.00e+00	0	22	0	40894464	73	4678
2026-01-11 12:27:49.33	231.65	5.92	-53.4	-56.2	13.7	0.00e+00	0	22	0	41943040	73	4844
2026-01-11 12:27:50.34	231.76	5.97	-53.4	-56.2	13.7	0.00e+00	0	22	0	44040192	73	4867
2026-01-11 12:27:51.35	231.87	6.03	-53.3	-56.1	13.8	0.00e+00	0	22	0	46137344	73	4768
2026-01-11 12:27:52.35	231.98	6.08	-53.2	-55.9	14.0	0.00e+00	0	22	0	48234496	73	4659
2026-01-11 12:27:53.36	232.09	6.13	-53.2	-55.8	13.8	0.00e+00	0	22	0	50331648	72	4909
2026-01-11 12:27:54.37	232.20	6.19	-53.2	-55.8	13.8	0.00e+00	0	22	0	51380224	72	4923
2026-01-11 12:27:55.38	232.31	6.24	-53.2	-55.8	13.8	0.00e+00	0	22	0	53477376	72	4907
2026-01-11 12:27:56.39	232.42	6.30	-53.1	-55.7	13.9	0.00e+00	0	22	0	55574528	72	4851
2026-01-11 12:27:57.39	232.53	6.35	-53.3	-56.0	13.8	0.00e+00	0	22	0	57671680	72	5000
2026-01-11 12:27:58.40	232.64	6.41	-53.2	-55.8	13.9	0.00e+00	0	22	0	59768832	72	4903
2026-01-11 12:27:59.41	232.75	6.46	-53.2	-55.9	13.8	0.00e+00	0	22	0	60817408	72	4931
2026-01-11 12:28:00.42	232.86	6.52	-53.4	-56.1	13.7	0.00e+00	0	22	0	62914560	72	5082
2026-01-11 12:28:01.43	232.97	6.57	-53.4	-56.2	13.6	0.00e+00	0	22	0	65011712	72	5117
2026-01-11 12:28:02.44	233.09	6.63	-53.4	-56.2	13.6	0.00e+00	0	22	0	67108864	72	5116
2026-01-11 12:28:03.44	233.20	6.68	-53.4	-56.1	13.6	0.00e+00	0	22	0	69206016	72	5085
2026-01-11 12:28:04.45	233.31	6.74	-53.5	-56.2	13.6	0.00e+00	0	23	0	70254592	72	5156
2026-01-11 12:28:05.46	233.43	6.79	-53.4	-56.2	13.6	0.00e+00	0	23	0	72351744	72	5101
2026-01-11 12:28:06.47	233.54	6.85	-53.3	-56.0	13.8	0.00e+00	0	22	0	74448896	72	5013
2026-01-11 12:28:07.47	233.66	6.90	-53.4	-56.1	13.7	0.00e+00	0	22	0	76546048	72	5073
2026-01-11 12:28:08.48	233.77	6.96	-53.3	-55.9	13.9	0.00e+00	0	23	0	78643200	72	4950
2026-01-11 12:28:09.48	233.89	7.01	-53.4	-56.1	13.7	0.00e+00	0	22	0	79691776	72	5066
2026-01-11 12:28:10.49	234.00	7.07	-53.2	-55.8	13.9	0.00e+00	0	22	0	81788928	72	4893
2026-01-11 12:28:11.50	234.12	7.12	-53.2	-55.8	13.9	0.00e+00	0	23	0	83886080	72	4899
2026-01-11 12:28:12.50	234.23	7.18	-53.0	-55.5	14.1	0.00e+00	0	22	0	85983232	72	4727
2026-01-11 12:28:13.51	234.35	7.23	-52.8	-55.2	14.3	0.00e+00	0	22	0	88080384	72	4594
2026-01-11 12:28:14.52	234.47	7.29	-52.8	-55.2	14.3	0.00e+00	0	23	0	89128960	72	4587
2026-01-11 12:28:15.52	234.59	7.35	-52.5	-54.9	14.4	0.00e+00	0	22	0	91226112	71	4652
2026-01-11 12:28:16.53	234.71	7.40	-52.7	-55.0	14.2	0.00e+00	0	23	0	93323264	71	4749
2026-01-11 12:28:17.54	234.82	7.46	-52.5	-54.8	14.4	0.00e+00	0	23	0	95420416	71	4641
2026-01-11 12:28:18.55	234.94	7.51	-52.4	-54.7	14.4	0.00e+00	0	23	0	97517568	71	4581
2026-01-11 12:28:19.55	235.06	7.57	-52.5	-54.8	14.4	0.00e+00	0	23	0	98566144	71	4612
2026-01-11 12:28:20.56	235.18	7.62	-52.4	-54.6	14.5	0.00e+00	0	22	0	100663296	71	4515
2026-01-11 12:28:21.56	235.30	7.68	-52.5	-54.8	14.4	0.00e+00	0	23	0	102760448	71	4625
2026-01-11 12:28:22.57	235.42	7.73	-52.5	-54.8	14.4	0.00e+00	0	23	0	104857600	71	4635
2026-01-11 12:28:23.58	235.55	7.79	-52.6	-54.9	14.3	0.00e+00	0	23	0	106954752	71	4684
2026-01-11 12:28:24.58	235.67	7.84	-52.5	-54.7	14.4	0.00e+00	0	23	0	108003328	71	4598
2026-01-11 12:28:25.58	235.79	7.90	-52.4	-54.7	14.5	0.00e+00	0	23	0	110100480	71	4554
2026-01-11 12:28:26.59	235.91	7.95	-52.5	-54.8	14.4	0.00e+00	0	23	0	112197632	71	4627
2026-01-11 12:28:27.60	236.04	8.01	-52.6	-54.9	14.4	0.00e+00	0	23	0	114294784	71	4654
2026-01-11 12:28:28.60	236.16	8.06	-52.5	-54.8	14.4	0.00e+00	0	23	0	116391936	71	4624
2026-01-11 12:28:29.61	236.28	8.12	-52.6	-54.9	14.3	0.00e+00	0	23	0	117440512	71	4669
2026-01-11 12:28:30.62	236.41	8.18	-52.4	-54.6	14.5	0.00e+00	0	23	0	119537664	71	4514
2026-01-11 12:28:31.63	236.53	8.23	-52.6	-54.9	14.4	0.00e+00	0	23	0	121634816	71	4660
2026-01-11 12:28:32.64	236.66	8.29	-52.5	-54.8	14.5	0.00e+00	0	23	0	123731968	71	4632
2026-01-11 12:28:33.65	236.79	8.34	-52.5	-54.8	14.4	0.00e+00	0	23	0	125829120	71	4623
2026-01-11 12:28:34.65	236.91	8.40	-52.4	-54.6	14.6	0.00e+00	0	23	0	126877696	71	4532
2026-01-11 12:28:35.66	237.04	8.45	-52.5	-54.7	14.5	0.00e+00	0	23	0	128974848	71	4587
2026-01-11 12:28:36.67	237.17	8.51	-52.5	-54.8	14.4	0.00e+00	0	23	0	131072000	71	4632
2026-01-11 12:28:37.67	237.29	8.56	-52.5	-54.8	14.5	0.00e+00	0	23	0	133169152	71	4606
2026-01-11 12:28:38.68	237.42	8.62	-52.5	-54.8	14.5	0.00e+00	0	23	0	135266304	71	4612
2026-01-11 12:28:39.68	237.55	8.68	-52.5	-54.7	14.5	0.00e+00	0	23	0	136314880	71	4577
2026-01-11 12:28:40.69	237.68	8.73	-52.5	-54.8	14.4	0.00e+00	0	23	0	138412032	71	4614
2026-01-11 12:28:41.70	237.81	8.79	-52.7	-55.0	14.4	0.00e+00	0	23	0	140509184	71	4716
2026-01-11 12:28:42.71	237.94	8.84	-52.6	-54.8	14.4	0.00e+00	0	23	0	142606336	71	4633
2026-01-11 12:28:43.72	238.07	8.90	-52.6	-54.9	14.4	0.00e+00	0	23	0	144703488	71	4686
2026-01-11 12:28:44.73	238.20	8.95	-52.6	-54.9	14.4	0.00e+00	0	23	0	145752064	71	4683
2026-01-11 12:28:45.74	238.33	9.01	-52.6	-54.9	14.4	0.00e+00	0	23	0	147849216	71	4668
2026-01-11 12:28:46.75	238.47	9.06	-52.6	-54.9	14.4	0.00e+00	0	23	0	149946368	71	4655
2026-01-11 12:28:47.75	238.60	9.12	-52.6	-54.9	14.3	0.00e+00	0	23	0	152043520	71	4687
2026-01-11 12:28:48.76	238.73	9.18	-52.5	-54.7	14.5	0.00e+00	0	23	0	154140672	71	4557
2026-01-11 12:28:49.77	238.87	9.23	-52.5	-54.8	14.5	0.00e+00	0	23	0	155189248	71	4605
2026-01-11 12:28:50.77	239.00	9.29	-52.5	-54.8	14.5	0.00e+00	0	23	0	157286400	71	4607
2026-01-11 12:28:51.78	239.13	9.34	-52.5	-54.7	14.5	0.00e+00	0	23	0	159383552	71	4597
2026-01-11 12:28:52.79	239.27	9.40	-52.4	-54.6	14.6	0.00e+00	0	23	0	161480704	71	4516
2026-01-11 12:28:53.80	239.41	9.45	-52.3	-54.5	14.7	0.00e+00	0	23	0	163577856	71	4446
2026-01-11 12:28:54.80	239.54	9.51	-52.2	-54.3	14.6	0.00e+00	0	23	0	164626432	70	4645
2026-01-11 12:28:55.81	239.68	9.56	-52.1	-54.2	14.6	0.00e+00	0	23	0	166723584	70	4588
2026-01-11 12:28:56.82	239.82	9.62	-52.2	-54.3	14.6	0.00e+00	0	23	0	168820736	70	4637
2026-01-11 12:28:57.83	239.95	9.67	-52.3	-54.5	14.5	0.00e+00	0	23	0	170917888	70	4723
2026-01-11 12:28:58.83	240.09	9.73	-52.3	-54.4	14.5	0.00e+00	0	23	0	173015040	70	4687
2026-01-11 12:28:59.85	240.23	9.79	-52.3	-54.5	14.5	0.00e+00	0	23	0	175112192	70	4708
2026-01-11 12:29:00.85	240.37	9.84	-52.2	-54.3	14.5	0.00e+00	0	23	0	176160768	70	4650
2026-01-11 12:29:01.86	240.51	9.90	-52.3	-54.5	14.5	0.00e+00	0	23	0	178257920	70	4747
2026-01-11 12:29:02.87	240.65	9.95	-52.3	-54.5	14.5	0.00e+00	0	23	0	180355072	70	4735
2026-01-11 12:29:03.88	240.79	10.01	-52.3	-54.4	14.5	0.00e+00	0	23	0	182452224	70	4697
2026-01-11 12:29:04.88	240.93	10.06	-52.3	-54.5	14.5	0.00e+00	0	23	0	183500800	70	4715
2026-01-11 12:29:05.88	241.07	10.12	-52.4	-54.6	14.4	0.00e+00	0	23	0	185597952	70	4804
2026-01-11 12:29:06.89	241.21	10.17	-52.3	-54.4	14.5	0.00e+00	0	23	0	187695104	70	4687
2026-01-11 12:29:07.90	241.36	10.23	-52.3	-54.4	14.5	0.00e+00	0	23	0	189792256	70	4688
2026-01-11 12:29:08.91	241.50	10.28	-52.3	-54.4	14.5	0.00e+00	0	23	0	191889408	70	4704
2026-01-11 12:29:09.91	241.64	10.34	-52.3	-54.4	14.5	0.00e+00	0	23	0	192937984	70	4697
2026-01-11 12:29:10.92	241.79	10.39	-52.3	-54.5	14.5	0.00e+00	0	23	0	195035136	70	4735
2026-01-11 12:29:11.93	241.93	10.45	-52.3	-54.4	14.5	0.00e+00	0	23	0	197132288	70	4675
2026-01-11 12:29:12.93	242.08	10.50	-52.3	-54.4	14.5	0.00e+00	0	23	0	199229440	70	4688
2026-01-11 12:29:13.94	242.22	10.56	-52.2	-54.3	14.6	0.00e+00	0	23	0	201326592	70	4645
2026-01-11 12:29:14.95	242.37	10.61	-52.3	-54.4	14.5	0.00e+00	0	23	0	203423744	70	4703
2026-01-11 12:29:15.96	242.52	10.67	-52.2	-54.4	14.6	0.00e+00	0	23	0	204472320	70	4660
2026-01-11 12:29:16.97	242.66	10.72	-52.3	-54.5	14.5	0.00e+00	0	23	0	206569472	70	4730
2026-01-11 12:29:17.98	242.81	10.78	-52.5	-54.7	14.3	0.00e+00	0	23	0	208666624	70	4868
2026-01-11 12:29:18.99	242.96	10.83	-52.4	-54.6	14.4	0.00e+00	0	23	0	210763776	70	4788
2026-01-11 12:29:19.99	243.11	10.88	-52.5	-54.7	14.3	0.00e+00	0	23	0	212860928	70	4852
2026-01-11 12:29:21.00	243.26	10.94	-52.5	-54.7	14.4	0.00e+00	0	23	0	213909504	70	4861
2026-01-11 12:29:22.01	243.41	10.99	-52.5	-54.7	14.4	0.00e+00	0	23	0	216006656	70	4838
2026-01-11 12:29:23.02	243.56	11.05	-52.4	-54.6	14.4	0.00e+00	0	23	0	218103808	70	4804
2026-01-11 12:29:24.02	243.71	11.10	-52.4	-54.6	14.4	0.00e+00	0	23	0	220200960	70	4794
2026-01-11 12:29:25.02	243.86	11.16	-52.4	-54.6	14.4	0.00e+00	0	23	0	221249536	70	4770
2026-01-11 12:29:26.03	244.01	11.21	-52.2	-54.3	14.6	0.00e+00	0	23	0	223346688	70	4636
2026-01-11 12:29:27.04	244.17	11.27	-52.3	-54.4	14.6	0.00e+00	0	23	0	225443840	70	4655
2026-01-11 12:29:28.05	244.32	11.32	-52.2	-54.3	14.6	0.00e+00	0	23	0	227540992	70	4632
2026-01-11 12:29:29.06	244.48	11.37	-52.1	-54.2	14.7	0.00e+00	0	23	0	229638144	70	4547
2026-01-11 12:29:30.07	244.63	11.43	-52.0	-54.0	14.8	0.00e+00	0	23	0	231735296	70	4483
2026-01-11 12:29:31.08	244.79	11.48	-52.2	-54.2	14.7	0.00e+00	0	23	0	232783872	70	4593
2026-01-11 12:29:32.08	244.94	11.54	-52.1	-54.2	14.7	0.00e+00	0	23	0	234881024	70	4560
2026-01-11 12:29:33.09	245.10	11.59	-52.1	-54.2	14.7	0.00e+00	0	23	0	236978176	70	4552
2026-01-11 12:29:34.10	245.25	11.64	-52.1	-54.1	14.7	0.00e+00	0	23	0	239075328	70	4526
2026-01-11 12:29:35.11	245.41	11.70	-51.9	-54.0	14.8	0.00e+00	0	23	0	241172480	70	4445
2026-01-11 12:29:36.12	245.57	11.75	-51.9	-53.9	14.9	0.00e+00	0	23	0	242221056	70	4399
2026-01-11 12:29:37.13	245.73	11.81	-51.6	-53.5	14.9	0.00e+00	0	23	0	244318208	69	4452
2026-01-11 12:29:38.14	245.89	11.86	-51.5	-53.3	15.0	0.00e+00	0	23	0	246415360	69	4379
2026-01-11 12:29:39.15	246.05	11.91	-51.4	-53.3	15.0	0.00e+00	0	23	0	248512512	69	4351
2026-01-11 12:29:40.15	246.21	11.97	-51.2	-53.0	15.2	0.00e+00	0	23	0	250609664	69	4211
2026-01-11 12:29:41.16	246.37	12.02	-51.0	-52.8	15.1	0.00e+00	0	23	0	251658240	68	4352
2026-01-11 12:29:42.17	246.53	12.07	-51.1	-52.9	15.1	0.00e+00	0	23	0	253755392	68	4402
2026-01-11 12:29:43.18	246.69	12.13	-51.3	-53.1	14.9	0.00e+00	0	23	0	255852544	68	4529
2026-01-11 12:29:44.19	246.85	12.18	-51.4	-53.2	14.9	0.00e+00	0	23	0	257949696	68	4579
2026-01-11 12:29:45.19	247.01	12.23	-51.5	-53.4	14.8	0.00e+00	0	23	0	260046848	68	4660
2026-01-11 12:29:46.20	247.18	12.28	-51.5	-53.4	14.8	0.00e+00	0	23	0	261095424	68	4662
2026-01-11 12:29:47.21	247.34	12.34	-51.6	-53.6	14.7	0.00e+00	0	23	0	263192576	68	4779
2026-01-11 12:29:48.22	247.51	12.39	-51.5	-53.5	14.8	0.00e+00	0	23	0	265289728	68	4707
2026-01-11 12:29:49.23	247.67	12.44	-51.6	-53.5	14.7	0.00e+00	0	23	0	267386880	68	4750
2026-01-11 12:29:50.23	247.84	12.49	-51.7	-53.6	14.7	0.00e+00	0	23	0	269484032	68	4787
2026-01-11 12:29:51.24	248.00	12.55	-51.6	-53.6	14.7	0.00e+00	0	23	0	270532608	68	4766
2026-01-11 12:29:52.25	248.17	12.60	-51.5	-53.4	14.8	0.00e+00	0	23	0	272629760	68	4675
2026-01-11 12:29:53.26	248.34	12.65	-51.4	-53.3	14.9	0.00e+00	0	23	0	274726912	68	4622
2026-01-11 12:29:54.27	248.51	12.70	-51.4	-53.3	14.9	0.00e+00	0	23	0	276824064	68	4606
2026-01-11 12:29:55.28	248.68	12.76	-51.3	-53.1	15.0	0.00e+00	0	23	0	278921216	68	4505
2026-01-11 12:29:56.29	248.85	12.81	-51.3	-53.2	14.9	0.00e+00	0	23	0	279969792	68	4562
2026-01-11 12:29:57.30	249.02	12.86	-51.3	-53.1	15.0	0.00e+00	0	23	0	282066944	68	4516
2026-01-11 12:29:58.31	249.19	12.91	-51.3	-53.1	15.0	0.00e+00	0	23	0	284164096	68	4521
2026-01-11 12:29:59.32	249.36	12.96	-51.3	-53.1	14.9	0.00e+00	0	23	0	286261248	68	4543
2026-01-11 12:30:00.32	249.53	13.01	-51.3	-53.1	15.0	0.00e+00	0	23	0	288358400	68	4516
2026-01-11 12:30:01.33	249.70	13.06	-51.4	-53.2	14.9	0.00e+00	0	23	0	289406976	68	4581
2026-01-11 12:30:02.34	249.87	13.12	-51.3	-53.1	15.0	0.00e+00	0	23	0	291504128	68	4523
2026-01-11 12:30:03.35	250.05	13.17	-51.4	-53.2	14.9	0.00e+00	0	23	0	293601280	68	4598
2026-01-11 12:30:04.35	250.22	13.22	-51.4	-53.2	14.9	0.00e+00	0	23	0	295698432	68	4581
2026-01-11 12:30:05.36	250.39	13.27	-51.4	-53.3	14.9	0.00e+00	0	23	0	297795584	68	4600
2026-01-11 12:30:06.37	250.57	13.32	-51.6	-53.5	14.7	0.00e+00	0	23	0	298844160	68	4749
2026-01-11 12:30:07.37	250.74	13.37	-51.6	-53.5	14.7	0.00e+00	0	23	0	300941312	68	4742
2026-01-11 12:30:08.38	250.92	13.42	-51.5	-53.5	14.8	0.00e+00	0	23	0	303038464	68	4707
2026-01-11 12:30:09.39	251.10	13.47	-51.7	-53.7	14.7	0.00e+00	0	23	0	305135616	68	4831
2026-01-11 12:30:10.40	251.27	13.52	-51.6	-53.5	14.8	0.00e+00	0	23	0	307232768	68	4728
2026-01-11 12:30:11.41	251.45	13.57	-51.5	-53.3	14.8	0.00e+00	0	23	0	308281344	68	4646
2026-01-11 12:30:12.42	251.63	13.62	-51.5	-53.4	14.8	0.00e+00	0	23	0	310378496	68	4659
2026-01-11 12:30:13.43	251.81	13.67	-51.5	-53.4	14.8	0.00e+00	0	23	0	312475648	68	4681
2026-01-11 12:30:14.44	251.99	13.72	-51.5	-53.3	14.8	0.00e+00	0	23	0	314572800	68	4644
2026-01-11 12:30:15.45	252.17	13.77	-51.5	-53.4	14.8	0.00e+00	0	23	0	316669952	68	4680
2026-01-11 12:30:16.46	252.35	13.82	-51.7	-53.6	14.7	0.00e+00	0	23	0	317718528	68	4803
2026-01-11 12:30:17.47	252.53	13.86	-51.8	-53.7	14.6	0.00e+00	0	23	0	319815680	68	4863
2026-01-11 12:30:18.48	252.72	13.91	-52.0	-54.0	14.6	0.00e+00	0	23	0	321912832	69	4758
2026-01-11 12:30:19.49	252.90	13.96	-52.0	-54.1	14.6	0.00e+00	0	23	0	324009984	69	4760
2026-01-11 12:30:20.50	253.08	14.01	-51.9	-53.9	14.7	0.00e+00	0	23	0	326107136	69	4693
2026-01-11 12:30:21.51	253.27	14.06	-52.0	-54.0	14.6	0.00e+00	0	23	0	328204288	69	4752
2026-01-11 12:30:22.51	253.45	14.11	-52.0	-54.0	14.6	0.00e+00	0	23	0	329252864	69	4735
2026-01-11 12:30:23.53	253.64	14.15	-52.0	-54.0	14.7	0.00e+00	0	23	0	331350016	69	4737
2026-01-11 12:30:24.53	253.82	14.20	-51.9	-53.9	14.7	0.00e+00	0	23	0	333447168	69	4694
2026-01-11 12:30:25.53	254.00	14.25	-52.1	-54.1	14.6	0.00e+00	0	23	0	335544320	69	4794
2026-01-11 12:30:26.54	254.19	14.30	-52.2	-54.2	14.5	0.00e+00	0	23	0	337641472	69	4868
2026-01-11 12:30:27.55	254.38	14.34	-52.1	-54.2	14.5	0.00e+00	0	23	0	338690048	69	4840
2026-01-11 12:30:28.56	254.57	14.39	-52.3	-54.5	14.4	0.00e+00	0	23	0	340787200	69	4995
2026-01-11 12:30:29.56	254.75	14.44	-52.5	-54.6	14.5	0.00e+00	0	23	0	342884352	70	4799
2026-01-11 12:30:30.57	254.94	14.48	-52.5	-54.7	14.4	0.00e+00	0	23	0	344981504	70	4864
2026-01-11 12:30:31.58	255.13	14.53	-52.4	-54.5	14.6	0.00e+00	0	23	0	346030080	70	4731
2026-01-11 12:30:32.59	255.32	14.58	-52.4	-54.6	14.5	0.00e+00	0	23	0	348127232	70	4771
2026-01-11 12:30:33.60	255.51	14.62	-52.4	-54.5	14.5	0.00e+00	0	23	0	350224384	70	4728
2026-01-11 12:30:34.61	255.70	14.67	-52.2	-54.3	14.7	0.00e+00	0	23	0	352321536	70	4609
2026-01-11 12:30:35.61	255.89	14.71	-52.4	-54.5	14.6	0.00e+00	0	23	0	354418688	70	4717
2026-01-11 12:30:36.62	256.09	14.76	-52.3	-54.3	14.6	0.00e+00	0	23	0	356515840	70	4635
2026-01-11 12:30:37.63	256.28	14.80	-52.2	-54.3	14.6	0.00e+00	0	23	0	357564416	70	4608
2026-01-11 12:30:38.64	256.47	14.85	-52.1	-54.2	14.7	0.00e+00	0	23	0	359661568	70	4548
2026-01-11 12:30:39.65	256.67	14.89	-52.1	-54.1	14.7	0.00e+00	0	23	0	361758720	70	4526
2026-01-11 12:30:40.66	256.86	14.94	-52.0	-54.0	14.8	0.00e+00	0	23	0	363855872	70	4455
2026-01-11 12:30:41.67	257.06	14.98	-52.2	-54.3	14.7	0.00e+00	0	23	0	365953024	70	4608
2026-01-11 12:30:42.67	257.25	15.03	-52.2	-54.3	14.7	0.00e+00	0	23	0	367001600	70	4624
2026-01-11 12:30:43.68	257.45	15.07	-52.4	-54.5	14.6	0.00e+00	0	23	0	369098752	70	4717
2026-01-11 12:30:44.68	257.64	15.11	-52.5	-54.7	14.4	0.00e+00	0	23	0	371195904	70	4853
2026-01-11 12:30:45.69	257.84	15.16	-52.5	-54.7	14.4	0.00e+00	0	23	0	373293056	70	4869
2026-01-11 12:30:46.70	258.04	15.20	-52.6	-54.9	14.3	0.00e+00	0	23	0	375390208	70	4927
2026-01-11 12:30:47.71	258.24	15.24	-52.5	-54.7	14.4	0.00e+00	0	23	0	376438784	70	4819
2026-01-11 12:30:48.72	258.44	15.28	-52.4	-54.5	14.6	0.00e+00	0	23	0	378535936	70	4711
2026-01-11 12:30:49.73	258.64	15.33	-52.2	-54.3	14.7	0.00e+00	0	23	0	380633088	70	4624
2026-01-11 12:30:50.73	258.84	15.37	-52.1	-54.1	14.8	0.00e+00	0	23	0	382730240	70	4498
2026-01-11 12:30:51.73	259.03	15.41	-52.1	-54.1	14.8	0.00e+00	0	23	0	384827392	70	4494
2026-01-11 12:30:52.74	259.24	15.45	-52.3	-54.3	14.7	0.00e+00	0	23	0	385875968	70	4647
2026-01-11 12:30:53.75	259.44	15.49	-52.5	-54.6	14.5	0.00e+00	0	23	0	387973120	70	4812
2026-01-11 12:30:54.76	259.64	15.53	-52.5	-54.7	14.4	0.00e+00	0	23	0	390070272	70	4845
2026-01-11 12:30:55.76	259.84	15.57	-52.7	-54.9	14.3	0.00e+00	0	23	0	392167424	70	4969
2026-01-11 12:30:56.77	260.05	15.61	-52.7	-54.9	14.3	0.00e+00	0	23	0	394264576	70	4965
2026-01-11 12:30:57.78	260.25	15.65	-52.7	-54.9	14.4	0.00e+00	0	23	0	395313152	70	4940
2026-01-11 12:30:58.79	260.45	15.69	-52.7	-54.9	14.3	0.00e+00	0	23	0	397410304	70	4929
2026-01-11 12:30:59.80	260.66	15.73	-52.5	-54.7	14.5	0.00e+00	0	23	0	399507456	70	4817
2026-01-11 12:31:00.81	260.87	15.77	-52.8	-55.1	14.3	0.00e+00	0	23	0	401604608	70	5060
2026-01-11 12:31:01.82	261.07	15.81	-52.9	-55.2	14.3	0.00e+00	0	23	0	403701760	71	4852
2026-01-11 12:31:02.83	261.28	15.85	-53.1	-55.5	14.1	0.00e+00	0	23	0	404750336	71	4991
2026-01-11 12:31:03.84	261.49	15.89	-53.1	-55.5	14.1	0.00e+00	0	23	0	406847488	71	5028
2026-01-11 12:31:04.84	261.69	15.93	-52.8	-55.1	14.4	0.00e+00	0	23	0	408944640	71	4771
2026-01-11 12:31:05.85	261.90	15.97	-52.7	-54.9	14.5	0.00e+00	0	23	0	411041792	71	4657
2026-01-11 12:31:06.86	262.11	16.00	-52.5	-54.6	14.7	0.00e+00	0	23	0	413138944	71	4525
2026-01-11 12:31:07.87	262.32	16.04	-52.4	-54.4	14.8	0.00e+00	0	23	0	414187520	71	4432
2026-01-11 12:31:08.87	262.53	16.08	-52.4	-54.5	14.7	0.00e+00	0	23	0	416284672	71	4445
2026-01-11 12:31:09.88	262.74	16.11	-52.5	-54.6	14.6	0.00e+00	0	23	0	418381824	71	4545
2026-01-11 12:31:10.89	262.95	16.15	-52.7	-54.9	14.5	0.00e+00	0	23	0	420478976	71	4670
2026-01-11 12:31:11.90	263.16	16.19	-52.6	-54.8	14.6	0.00e+00	0	23	0	422576128	71	4615
2026-01-11 12:31:12.91	263.37	16.22	-52.7	-54.8	14.5	0.00e+00	0	23	0	423624704	71	4650
2026-01-11 12:31:13.92	263.58	16.26	-52.7	-54.8	14.5	0.00e+00	0	23	0	425721856	71	4649
2026-01-11 12:31:14.92	263.79	16.29	-52.5	-54.6	14.7	0.00e+00	0	23	0	427819008	71	4510
2026-01-11 12:31:15.93	264.01	16.33	-52.3	-54.3	14.8	0.00e+00	0	23	0	429916160	71	4387
2026-01-11 12:31:16.94	264.22	16.36	-52.1	-54.1	14.8	0.00e+00	0	23	0	432013312	70	4513
2026-01-11 12:31:17.95	264.43	16.40	-51.8	-53.7	15.0	0.00e+00	0	23	0	433061888	70	4293
2026-01-11 12:31:18.96	264.65	16.43	-51.8	-53.7	15.0	0.00e+00	0	23	0	435159040	70	4314
2026-01-11 12:31:19.97	264.86	16.46	-51.9	-53.8	15.0	0.00e+00	0	23	0	437256192	70	4366
2026-01-11 12:31:20.97	265.08	16.50	-52.0	-54.0	14.8	0.00e+00	0	23	0	439353344	70	4469
2026-01-11 12:31:21.98	265.29	16.53	-52.0	-53.9	14.9	0.00e+00	0	23	0	441450496	70	4435
2026-01-11 12:31:22.99	265.51	16.56	-52.0	-54.0	14.8	0.00e+00	0	23	0	442499072	70	4479
2026-01-11 12:31:24.00	265.73	16.60	-52.0	-53.9	14.9	0.00e+00	0	23	0	444596224	70	4421
2026-01-11 12:31:25.00	265.94	16.63	-51.9	-53.9	14.9	0.00e+00	0	23	0	446693376	70	4394
2026-01-11 12:31:26.00	266.16	16.66	-51.9	-53.8	15.0	0.00e+00	0	23	0	448790528	70	4366
2026-01-11 12:31:27.01	266.38	16.69	-51.8	-53.7	15.0	0.00e+00	0	23	0	450887680	70	4304
2026-01-11 12:31:28.01	266.59	16.72	-51.8	-53.7	15.1	0.00e+00	0	23	0	451936256	70	4298
2026-01-11 12:31:29.02	266.81	16.75	-52.0	-53.9	14.9	0.00e+00	0	23	0	454033408	70	4411
2026-01-11 12:31:30.03	267.03	16.78	-52.0	-54.0	14.9	0.00e+00	0	23	0	456130560	70	4462
2026-01-11 12:31:31.04	267.25	16.81	-51.7	-53.6	15.1	0.00e+00	0	23	0	458227712	70	4260
2026-01-11 12:31:32.04	267.47	16.84	-51.7	-53.6	14.9	0.00e+00	0	23	0	460324864	69	4509
2026-01-11 12:31:33.05	267.69	16.87	-51.6	-53.4	15.0	0.00e+00	0	23	0	461373440	69	4406
2026-01-11 12:31:34.06	267.91	16.90	-51.5	-53.3	15.1	0.00e+00	0	23	0	463470592	69	4375
2026-01-11 12:31:35.07	268.13	16.92	-51.7	-53.5	15.0	0.00e+00	0	23	0	465567744	69	4470
2026-01-11 12:31:36.07	268.35	16.95	-51.7	-53.6	15.0	0.00e+00	0	23	0	467664896	69	4502
2026-01-11 12:31:37.08	268.57	16.98	-51.9	-53.8	14.8	0.00e+00	0	23	0	469762048	69	4648
2026-01-11 12:31:38.09	268.80	17.01	-52.1	-54.1	14.6	0.00e+00	0	23	0	470810624	69	4802
2026-01-11 12:31:39.09	269.02	17.03	-52.4	-54.5	14.4	0.00e+00	0	23	0	472907776	69	4987
2026-01-11 12:31:40.10	269.24	17.06	-52.4	-54.5	14.6	0.00e+00	0	23	0	475004928	70	4710
2026-01-11 12:31:41.10	269.46	17.09	-52.6	-54.8	14.4	0.00e+00	0	23	0	477102080	70	4904
2026-01-11 12:31:42.11	269.69	17.11	-52.5	-54.6	14.5	0.00e+00	0	23	0	479199232	70	4809
2026-01-11 12:31:43.11	269.91	17.14	-52.5	-54.6	14.5	0.00e+00	0	23	0	480247808	70	4802
2026-01-11 12:31:44.12	270.13	17.16	-52.4	-54.4	14.6	0.00e+00	0	23	0	482344960	70	4697
2026-01-11 12:31:45.12	270.36	17.18	-52.1	-54.1	14.8	0.00e+00	0	23	0	484442112	70	4530
2026-01-11 12:31:46.13	270.58	17.21	-51.9	-53.9	14.9	0.00e+00	0	23	0	486539264	70	4399
2026-01-11 12:31:47.14	270.81	17.23	-51.7	-53.6	15.1	0.00e+00	0	23	0	488636416	70	4261
2026-01-11 12:31:48.15	271.04	17.26	-51.4	-53.2	15.2	0.00e+00	0	23	0	489684992	69	4303
2026-01-11 12:31:49.16	271.26	17.28	-51.1	-52.8	15.1	0.00e+00	0	23	0	491782144	68	4353
2026-01-11 12:31:50.16	271.49	17.30	-51.2	-52.9	15.1	0.00e+00	0	23	0	493879296	68	4414
2026-01-11 12:31:51.17	271.71	17.32	-51.2	-52.9	15.1	0.00e+00	0	23	0	495976448	68	4414
2026-01-11 12:31:52.18	271.94	17.34	-51.4	-53.2	15.0	0.00e+00	0	23	0	498073600	68	4594
2026-01-11 12:31:53.19	272.17	17.37	-51.6	-53.4	14.8	0.00e+00	0	23	0	499122176	68	4695
2026-01-11 12:31:54.19	272.40	17.39	-52.0	-53.9	14.7	0.00e+00	0	23	0	501219328	69	4685
2026-01-11 12:31:55.20	272.63	17.41	-51.8	-53.7	14.8	0.00e+00	0	23	0	503316480	69	4589
2026-01-11 12:31:56.20	272.85	17.43	-51.8	-53.7	14.9	0.00e+00	0	23	0	505413632	69	4558
2026-01-11 12:31:57.21	273.08	17.45	-51.6	-53.5	15.0	0.00e+00	0	23	0	507510784	69	4449
2026-01-11 12:31:58.22	273.31	17.46	-51.5	-53.3	15.1	0.00e+00	0	23	0	508559360	69	4363
2026-01-11 12:31:59.23	273.54	17.48	-51.7	-53.5	15.0	0.00e+00	0	23	0	510656512	69	4479
2026-01-11 12:32:00.24	273.77	17.50	-51.8	-53.8	14.8	0.00e+00	0	23	0	512753664	69	4604
2026-01-11 12:32:01.24	274.00	17.52	-52.0	-54.0	14.7	0.00e+00	0	23	0	514850816	69	4740
2026-01-11 12:32:02.25	274.23	17.54	-52.1	-54.2	14.6	0.00e+00	0	23	0	516947968	69	4817
2026-01-11 12:32:03.26	274.46	17.55	-52.1	-54.1	14.6	0.00e+00	0	23	0	517996544	69	4814
2026-01-11 12:32:04.27	274.69	17.57	-51.9	-53.8	14.8	0.00e+00	0	23	0	520093696	69	4635
2026-01-11 12:32:05.27	274.92	17.59	-51.5	-53.3	15.1	0.00e+00	0	23	0	522190848	69	4385
2026-01-11 12:32:06.28	275.15	17.60	-51.5	-53.3	15.1	0.00e+00	0	23	0	524288000	69	4371
2026-01-11 12:32:07.29	275.38	17.62	-51.7	-53.5	14.9	0.00e+00	0	23	0	526385152	69	4491
2026-01-11 12:32:08.30	275.61	17.63	-51.9	-53.8	14.8	0.00e+00	0	23	0	527433728	69	4621
2026-01-11 12:32:09.31	275.85	17.64	-52.1	-54.1	14.6	0.00e+00	0	23	0	529530880	69	4763
2026-01-11 12:32:10.32	276.08	17.66	-52.0	-54.0	14.7	0.00e+00	0	23	0	531628032	69	4724
2026-01-11 12:32:11.32	276.31	17.67	-51.9	-53.9	14.8	0.00e+00	0	23	0	533725184	69	4662
2026-01-11 12:32:12.33	276.54	17.68	-51.7	-53.5	15.0	0.00e+00	0	23	0	535822336	69	4493
2026-01-11 12:32:13.34	276.77	17.70	-51.6	-53.4	15.0	0.00e+00	0	23	0	537919488	69	4414
2026-01-11 12:32:14.35	277.01	17.71	-51.8	-53.6	14.9	0.00e+00	0	23	0	538968064	69	4528
2026-01-11 12:32:15.36	277.24	17.72	-52.0	-53.9	14.8	0.00e+00	0	23	0	541065216	69	4683
2026-01-11 12:32:16.37	277.47	17.73	-52.4	-54.5	14.4	0.00e+00	0	23	0	543162368	69	4997
2026-01-11 12:32:17.38	277.71	17.74	-52.7	-54.9	14.3	0.00e+00	0	23	0	545259520	70	4972
2026-01-11 12:32:18.38	277.94	17.75	-53.0	-55.2	14.3	0.00e+00	0	23	0	546308096	71	4854
2026-01-11 12:32:19.39	278.17	17.76	-53.0	-55.4	14.3	0.00e+00	0	23	0	548405248	71	4927
2026-01-11 12:32:20.40	278.41	17.77	-52.9	-55.2	14.3	0.00e+00	0	23	0	550502400	71	4840
2026-01-11 12:32:21.40	278.64	17.78	-53.0	-55.3	14.3	0.00e+00	0	23	0	552599552	71	4886
2026-01-11 12:32:22.42	278.88	17.79	-53.1	-55.4	14.2	0.00e+00	0	23	0	554696704	71	4942
2026-01-11 12:32:23.43	279.11	17.80	-53.1	-55.5	14.2	0.00e+00	0	23	0	555745280	71	4998
2026-01-11 12:32:24.43	279.34	17.80	-53.2	-55.6	14.1	0.00e+00	0	23	0	557842432	71	5068
2026-01-11 12:32:25.44	279.58	17.81	-53.2	-55.5	14.2	0.00e+00	0	23	0	559939584	71	5016
2026-01-11 12:32:26.44	279.81	17.82	-53.1	-55.4	14.2	0.00e+00	0	23	0	562036736	71	4934
2026-01-11 12:32:27.45	280.04	17.82	-52.9	-55.1	14.4	0.00e+00	0	23	0	564133888	71	4806
2026-01-11 12:32:28.45	280.28	17.83	-52.6	-54.7	14.6	0.00e+00	0	23	0	566231040	71	4595
2026-01-11 12:32:29.46	280.51	17.84	-52.4	-54.4	14.8	0.00e+00	0	23	0	567279616	71	4414
2026-01-11 12:32:30.47	280.75	17.84	-52.5	-54.5	14.7	0.00e+00	0	23	0	569376768	71	4465
2026-01-11 12:32:31.48	280.98	17.84	-52.4	-54.4	14.8	0.00e+00	0	23	0	571473920	71	4439
2026-01-11 12:32:32.48	281.21	17.85	-52.5	-54.5	14.8	0.00e+00	0	23	0	573571072	71	4476
2026-01-11 12:32:33.49	281.45	17.85	-52.4	-54.4	14.8	0.00e+00	0	23	0	575668224	71	4433
2026-01-11 12:32:34.50	281.68	17.85	-52.3	-54.3	14.9	0.00e+00	0	23	0	576716800	71	4364
2026-01-11 12:32:35.51	281.92	17.86	-52.2	-54.2	15.0	0.00e+00	0	23	0	578813952	71	4311
2026-01-11 12:32:36.51	282.15	17.86	-52.1	-54.1	14.8	0.00e+00	0	23	0	580911104	70	4501
2026-01-11 12:32:37.52	282.39	17.86	-52.2	-54.2	14.8	0.00e+00	0	23	0	583008256	70	4558
2026-01-11 12:32:38.53	282.62	17.86	-52.3	-54.3	14.7	0.00e+00	0	23	0	584056832	70	4599
2026-01-11 12:32:39.53	282.86	17.86	-52.5	-54.6	14.5	0.00e+00	0	23	0	586153984	70	4780
2026-01-11 12:32:40.55	283.09	17.86	-52.5	-54.6	14.5	0.00e+00	0	23	0	588251136	70	4813
2026-01-11 12:32:41.55	283.33	17.86	-52.5	-54.6	14.5	0.00e+00	0	23	0	590348288	70	4783
2026-01-11 12:32:42.56	283.56	17.86	-52.5	-54.6	14.6	0.00e+00	0	23	0	592445440	70	4774
2026-01-11 12:32:43.57	283.80	17.86	-52.4	-54.4	14.6	0.00e+00	0	23	0	594542592	70	4695
2026-01-11 12:32:44.58	284.03	17.86	-52.5	-54.5	14.6	0.00e+00	0	23	0	595591168	70	4748
2026-01-11 12:32:45.58	284.27	17.86	-52.5	-54.6	14.6	0.00e+00	0	23	0	597688320	70	4789
2026-01-11 12:32:46.59	284.50	17.85	-52.6	-54.7	14.5	0.00e+00	0	23	0	599785472	70	4857
2026-01-11 12:32:47.59	284.73	17.85	-52.7	-54.8	14.4	0.00e+00	0	23	0	601882624	70	4915
2026-01-11 12:32:48.60	284.97	17.85	-52.6	-54.8	14.5	0.00e+00	0	23	0	603979776	70	4875
2026-01-11 12:32:49.61	285.20	17.84	-52.6	-54.7	14.5	0.00e+00	0	23	0	605028352	70	4823
2026-01-11 12:32:50.62	285.44	17.84	-52.3	-54.3	14.7	0.00e+00	0	23	0	607125504	70	4637
2026-01-11 12:32:51.63	285.67	17.83	-52.2	-54.1	14.8	0.00e+00	0	23	0	609222656	70	4536
2026-01-11 12:32:52.64	285.91	17.83	-52.0	-53.9	14.9	0.00e+00	0	23	0	611319808	70	4423
2026-01-11 12:32:53.64	286.14	17.82	-51.9	-53.7	15.0	0.00e+00	0	23	0	613416960	70	4338
2026-01-11 12:32:54.65	286.38	17.82	-51.9	-53.8	15.0	0.00e+00	0	23	0	614465536	70	4365
2026-01-11 12:32:55.66	286.61	17.81	-52.0	-53.9	14.9	0.00e+00	0	23	0	616562688	70	4429
2026-01-11 12:32:56.66	286.84	17.80	-52.2	-54.1	14.8	0.00e+00	0	23	0	618659840	70	4535
2026-01-11 12:32:57.67	287.08	17.79	-52.2	-54.2	14.8	0.00e+00	0	23	0	620756992	70	4583
2026-01-11 12:32:58.68	287.31	17.79	-52.4	-54.5	14.6	0.00e+00	0	23	0	622854144	70	4721
2026-01-11 12:32:59.68	287.54	17.78	-52.4	-54.5	14.6	0.00e+00	0	23	0	623902720	70	4723
2026-01-11 12:33:00.69	287.78	17.77	-52.4	-54.5	14.6	0.00e+00	0	23	0	625999872	70	4742
2026-01-11 12:33:01.70	288.01	17.76	-52.6	-54.7	14.5	0.00e+00	0	23	0	628097024	70	4861
2026-01-11 12:33:02.71	288.24	17.75	-52.6	-54.7	14.5	0.00e+00	0	23	0	630194176	70	4838
2026-01-11 12:33:03.72	288.48	17.74	-52.8	-55.0	14.3	0.00e+00	0	23	0	632291328	70	5007
2026-01-11 12:33:04.73	288.71	17.73	-52.9	-55.1	14.2	0.00e+00	0	23	0	633339904	70	5089
2026-01-11 12:33:05.73	288.94	17.72	-53.0	-55.2	14.3	0.00e+00	0	23	0	635437056	71	4854
2026-01-11 12:33:06.74	289.18	17.70	-53.0	-55.2	14.3	0.00e+00	0	23	0	637534208	71	4848
2026-01-11 12:33:07.75	289.41	17.69	-52.9	-55.1	14.4	0.00e+00	0	23	0	639631360	71	4800
2026-01-11 12:33:08.76	289.64	17.68	-52.9	-55.1	14.4	0.00e+00	0	23	0	641728512	71	4775
2026-01-11 12:33:09.77	289.87	17.67	-52.9	-55.1	14.4	0.00e+00	0	23	0	642777088	71	4791
2026-01-11 12:33:10.78	290.11	17.65	-53.0	-55.3	14.3	0.00e+00	0	23	0	644874240	71	4879
2026-01-11 12:33:11.78	290.33	17.64	-53.0	-55.3	14.3	0.00e+00	0	23	0	646971392	71	4893
2026-01-11 12:33:12.79	290.57	17.62	-52.8	-55.0	14.5	0.00e+00	0	23	0	649068544	71	4712
2026-01-11 12:33:13.80	290.80	17.61	-52.8	-55.0	14.5	0.00e+00	0	23	0	651165696	71	4718
2026-01-11 12:33:14.81	291.03	17.59	-52.6	-54.6	14.7	0.00e+00	0	23	0	652214272	71	4532
2026-01-11 12:33:15.82	291.26	17.58	-52.3	-54.4	14.9	0.00e+00	0	23	0	654311424	71	4394
2026-01-11 12:33:16.82	291.49	17.56	-52.0	-54.0	14.9	0.00e+00	0	23	0	656408576	70	4446
2026-01-11 12:33:17.84	291.72	17.55	-51.9	-53.8	15.0	0.00e+00	0	23	0	658505728	70	4351
2026-01-11 12:33:18.84	291.95	17.53	-51.7	-53.5	15.0	0.00e+00	0	23	0	660602880	69	4459
2026-01-11 12:33:19.85	292.18	17.51	-51.5	-53.3	15.1	0.00e+00	0	23	0	661651456	69	4356
2026-01-11 12:33:20.86	292.41	17.49	-51.3	-53.1	15.2	0.00e+00	0	23	0	663748608	69	4249
2026-01-11 12:33:21.86	292.64	17.48	-51.3	-53.0	15.3	0.00e+00	0	23	0	665845760	69	4228
2026-01-11 12:33:22.87	292.87	17.46	-51.4	-53.1	15.2	0.00e+00	0	23	0	667942912	69	4272
2026-01-11 12:33:23.88	293.10	17.44	-51.6	-53.3	15.1	0.00e+00	0	23	0	670040064	69	4389
2026-01-11 12:33:24.89	293.32	17.42	-51.8	-53.6	15.0	0.00e+00	0	23	0	671088640	69	4524
2026-01-11 12:33:25.89	293.55	17.40	-51.9	-53.8	14.8	0.00e+00	0	23	0	673185792	69	4631
2026-01-11 12:33:26.90	293.78	17.38	-52.1	-54.0	14.7	0.00e+00	0	23	0	675282944	69	4757
2026-01-11 12:33:27.91	294.01	17.36	-52.2	-54.2	14.6	0.00e+00	0	23	0	677380096	69	4828
2026-01-11 12:33:28.91	294.23	17.34	-52.4	-54.4	14.5	0.00e+00	0	23	0	679477248	69	4969
2026-01-11 12:33:29.92	294.46	17.31	-52.6	-54.7	14.5	0.00e+00	0	23	0	680525824	70	4830
2026-01-11 12:33:30.93	294.68	17.29	-52.5	-54.6	14.6	0.00e+00	0	23	0	682622976	70	4766
2026-01-11 12:33:31.94	294.91	17.27	-52.4	-54.5	14.6	0.00e+00	0	23	0	684720128	70	4722
2026-01-11 12:33:32.95	295.14	17.25	-52.3	-54.3	14.7	0.00e+00	0	23	0	686817280	70	4634
2026-01-11 12:33:33.96	295.36	17.22	-52.3	-54.3	14.7	0.00e+00	0	23	0	688914432	70	4639
2026-01-11 12:33:34.97	295.59	17.20	-52.1	-54.0	14.9	0.00e+00	0	23	0	689963008	70	4465
2026-01-11 12:33:35.98	295.81	17.18	-51.9	-53.8	15.0	0.00e+00	0	23	0	692060160	70	4358
2026-01-11 12:33:36.98	296.04	17.15	-51.8	-53.6	15.1	0.00e+00	0	23	0	694157312	70	4274
2026-01-11 12:33:37.98	296.26	17.13	-51.5	-53.3	15.1	0.00e+00	0	23	0	696254464	69	4371
2026-01-11 12:33:38.99	296.48	17.10	-51.6	-53.4	15.0	0.00e+00	0	23	0	698351616	69	4393
2026-01-11 12:33:40.00	296.71	17.08	-51.6	-53.5	15.0	0.00e+00	0	23	0	699400192	69	4447
2026-01-11 12:33:41.01	296.93	17.05	-51.6	-53.4	15.0	0.00e+00	0	23	0	701497344	69	4421
2026-01-11 12:33:42.02	297.15	17.02	-51.7	-53.5	15.0	0.00e+00	0	23	0	703594496	69	4472
2026-01-11 12:33:43.03	297.38	17.00	-51.7	-53.5	15.0	0.00e+00	0	23	0	705691648	69	4483
2026-01-11 12:33:44.03	297.59	16.97	-51.7	-53.6	15.0	0.00e+00	0	23	0	707788800	69	4495
2026-01-11 12:33:45.04	297.82	16.94	-51.7	-53.6	14.9	0.00e+00	0	23	0	708837376	69	4516
2026-01-11 12:33:46.05	298.04	16.91	-51.8	-53.7	14.9	0.00e+00	0	23	0	710934528	69	4584
2026-01-11 12:33:47.06	298.26	16.89	-51.7	-53.6	14.9	0.00e+00	0	23	0	713031680	69	4528
2026-01-11 12:33:48.06	298.48	16.86	-51.9	-53.8	14.8	0.00e+00	0	23	0	715128832	69	4650
2026-01-11 12:33:49.07	298.70	16.83	-52.0	-53.9	14.8	0.00e+00	0	23	0	717225984	69	4696
2026-01-11 12:33:50.08	298.92	16.80	-51.8	-53.7	14.9	0.00e+00	0	23	0	718274560	69	4547
2026-01-11 12:33:51.08	299.13	16.77	-51.6	-53.4	15.0	0.00e+00	0	23	0	720371712	69	4436
2026-01-11 12:33:52.08	299.35	16.74	-51.5	-53.3	15.1	0.00e+00	0	23	0	722468864	69	4346
2026-01-11 12:33:53.09	299.57	16.71	-51.5	-53.3	15.1	0.00e+00	0	23	0	724566016	69	4344
2026-01-11 12:33:54.09	299.78	16.68	-51.5	-53.3	15.1	0.00e+00	0	23	0	726663168	69	4343
2026-01-11 12:33:55.10	300.00	16.65	-51.6	-53.5	15.0	0.00e+00	0	23	0	727711744	69	4453
2026-01-11 12:33:56.11	300.22	16.62	-51.7	-53.5	15.0	0.00e+00	0	23	0	729808896	69	4475
2026-01-11 12:33:57.12	300.44	16.58	-51.6	-53.5	15.0	0.00e+00	0	23	0	731906048	69	4446
2026-01-11 12:33:58.12	300.65	16.55	-51.6	-53.4	15.1	0.00e+00	0	23	0	734003200	69	4397
2026-01-11 12:33:59.13	300.87	16.52	-51.5	-53.3	15.1	0.00e+00	0	23	0	736100352	69	4347
2026-01-11 12:34:00.13	301.08	16.49	-51.4	-53.2	15.2	0.00e+00	0	23	0	737148928	69	4293
2026-01-11 12:34:01.14	301.29	16.45	-51.1	-52.8	15.1	0.00e+00	0	23	0	739246080	68	4381
2026-01-11 12:34:02.14	301.51	16.42	-51.1	-52.8	15.1	0.00e+00	0	23	0	741343232	68	4368
2026-01-11 12:34:03.15	301.72	16.39	-51.1	-52.8	15.2	0.00e+00	0	23	0	743440384	68	4349
2026-01-11 12:34:04.16	301.93	16.35	-51.0	-52.7	15.2	0.00e+00	0	23	0	745537536	68	4317
2026-01-11 12:34:05.16	302.14	16.32	-51.1	-52.8	15.2	0.00e+00	0	23	0	746586112	68	4362
2026-01-11 12:34:06.17	302.36	16.28	-51.0	-52.7	15.2	0.00e+00	0	23	0	748683264	68	4336
2026-01-11 12:34:07.18	302.57	16.25	-51.2	-53.0	15.0	0.00e+00	0	23	0	750780416	68	4451
2026-01-11 12:34:08.19	302.78	16.21	-51.1	-52.9	15.1	0.00e+00	0	23	0	752877568	68	4401
2026-01-11 12:34:09.20	302.99	16.18	-51.2	-53.0	15.1	0.00e+00	0	23	0	754974720	68	4454
2026-01-11 12:34:10.21	303.20	16.14	-51.2	-52.9	15.1	0.00e+00	0	23	0	756023296	68	4413
2026-01-11 12:34:11.21	303.41	16.11	-51.2	-53.0	15.1	0.00e+00	0	23	0	758120448	68	4460
2026-01-11 12:34:12.22	303.62	16.07	-51.1	-52.8	15.1	0.00e+00	0	23	0	760217600	68	4377
2026-01-11 12:34:13.23	303.83	16.03	-51.1	-52.8	15.1	0.00e+00	0	23	0	762314752	68	4387
2026-01-11 12:34:14.24	304.04	15.99	-51.1	-52.8	15.1	0.00e+00	0	23	0	764411904	68	4386
2026-01-11 12:34:15.24	304.24	15.96	-51.1	-52.8	15.1	0.00e+00	0	23	0	765460480	68	4388
2026-01-11 12:34:16.25	304.45	15.92	-51.3	-53.0	15.0	0.00e+00	0	23	0	767557632	68	4472
2026-01-11 12:34:17.26	304.66	15.88	-51.4	-53.1	15.0	0.00e+00	0	23	0	769654784	68	4542
2026-01-11 12:34:18.27	304.86	15.84	-51.3	-53.1	15.0	0.00e+00	0	23	0	771751936	68	4500
2026-01-11 12:34:19.27	305.07	15.80	-51.5	-53.4	14.8	0.00e+00	0	23	0	773849088	68	4676
2026-01-11 12:34:20.28	305.27	15.77	-51.5	-53.3	14.9	0.00e+00	0	23	0	774897664	68	4632
2026-01-11 12:34:21.29	305.48	15.73	-51.6	-53.4	14.8	0.00e+00	0	23	0	776994816	68	4700
2026-01-11 12:34:22.29	305.68	15.69	-51.4	-53.2	14.9	0.00e+00	0	23	0	779091968	68	4572
2026-01-11 12:34:23.30	305.88	15.65	-51.4	-53.2	15.0	0.00e+00	0	23	0	781189120	68	4554
2026-01-11 12:34:24.31	306.09	15.61	-51.2	-53.0	15.0	0.00e+00	0	23	0	783286272	68	4455
2026-01-11 12:34:25.32	306.29	15.57	-51.0	-52.7	15.2	0.00e+00	0	23	0	784334848	68	4326
2026-01-11 12:34:26.31	306.49	15.53	-51.1	-52.8	15.2	0.00e+00	0	23	0	786432000	68	4359
2026-01-11 12:34:27.32	306.69	15.49	-51.1	-52.8	15.2	0.00e+00	0	23	0	788529152	68	4362
2026-01-11 12:34:28.33	306.89	15.44	-51.2	-52.9	15.1	0.00e+00	0	23	0	790626304	68	4429
2026-01-11 12:34:29.34	307.09	15.40	-51.3	-53.1	15.0	0.00e+00	0	23	0	792723456	68	4513
2026-01-11 12:34:30.35	307.29	15.36	-51.4	-53.2	15.0	0.00e+00	0	23	0	793772032	68	4551
2026-01-11 12:34:31.36	307.49	15.32	-51.4	-53.2	14.9	0.00e+00	0	23	0	795869184	68	4580
2026-01-11 12:34:32.37	307.69	15.28	-51.4	-53.2	14.9	0.00e+00	0	23	0	797966336	68	4556
2026-01-11 12:34:33.38	307.89	15.23	-51.3	-53.1	15.0	0.00e+00	0	23	0	800063488	68	4496
2026-01-11 12:34:34.39	308.09	15.19	-51.3	-53.1	15.0	0.00e+00	0	23	0	802160640	68	4494
2026-01-11 12:34:35.39	308.28	15.15	-51.4	-53.2	15.0	0.00e+00	0	23	0	803209216	68	4551
2026-01-11 12:34:36.39	308.48	15.11	-51.5	-53.3	14.9	0.00e+00	0	23	0	805306368	68	4619
2026-01-11 12:34:37.39	308.67	15.06	-51.7	-53.6	14.7	0.00e+00	0	23	0	807403520	68	4799
2026-01-11 12:34:38.40	308.87	15.02	-52.1	-54.1	14.7	0.00e+00	0	23	0	809500672	69	4772
2026-01-11 12:34:39.41	309.06	14.98	-52.3	-54.5	14.4	0.00e+00	0	23	0	811597824	69	4984
2026-01-11 12:34:40.42	309.26	14.93	-52.7	-54.9	14.4	0.00e+00	0	23	0	812646400	70	4930
2026-01-11 12:34:41.43	309.45	14.89	-52.7	-54.9	14.3	0.00e+00	0	23	0	814743552	70	4941
2026-01-11 12:34:42.44	309.64	14.84	-52.6	-54.8	14.4	0.00e+00	0	23	0	816840704	70	4905
2026-01-11 12:34:43.44	309.83	14.80	-52.3	-54.3	14.7	0.00e+00	0	23	0	818937856	70	4642
2026-01-11 12:34:44.46	310.03	14.75	-52.2	-54.2	14.7	0.00e+00	0	23	0	821035008	70	4583
2026-01-11 12:34:45.47	310.22	14.71	-52.0	-53.9	14.9	0.00e+00	0	23	0	822083584	70	4428
2026-01-11 12:34:46.47	310.41	14.66	-51.7	-53.6	15.1	0.00e+00	0	23	0	824180736	70	4263
2026-01-11 12:34:47.48	310.60	14.62	-51.6	-53.5	15.0	0.00e+00	0	23	0	826277888	69	4450
2026-01-11 12:34:48.49	310.79	14.57	-51.6	-53.4	15.0	0.00e+00	0	23	0	828375040	69	4421
2026-01-11 12:34:49.50	310.98	14.53	-51.7	-53.6	14.9	0.00e+00	0	23	0	830472192	69	4502
2026-01-11 12:34:50.50	311.17	14.48	-51.8	-53.6	14.9	0.00e+00	0	23	0	832569344	69	4544
2026-01-11 12:34:51.51	311.35	14.43	-51.9	-53.9	14.7	0.00e+00	0	23	0	833617920	69	4654
2026-01-11 12:34:52.52	311.54	14.39	-52.0	-54.0	14.7	0.00e+00	0	23	0	835715072	69	4718
2026-01-11 12:34:53.53	311.73	14.34	-52.2	-54.3	14.5	0.00e+00	0	23	0	837812224	69	4871
2026-01-11 12:34:54.54	311.92	14.29	-52.3	-54.3	14.5	0.00e+00	0	23	0	839909376	69	4924
2026-01-11 12:34:55.55	312.10	14.25	-52.4	-54.5	14.4	0.00e+00	0	23	0	842006528	69	5014
2026-01-11 12:34:56.56	312.29	14.20	-52.6	-54.8	14.4	0.00e+00	0	23	0	843055104	70	4898
2026-01-11 12:34:57.56	312.47	14.15	-52.6	-54.8	14.3	0.00e+00	0	23	0	845152256	70	4909
2026-01-11 12:34:58.57	312.65	14.10	-52.6	-54.8	14.4	0.00e+00	0	23	0	847249408	70	4916
2026-01-11 12:34:59.57	312.84	14.06	-52.7	-54.9	14.3	0.00e+00	0	23	0	849346560	70	4952
2026-01-11 12:35:00.58	313.02	14.01	-53.0	-55.3	14.2	0.00e+00	0	23	0	850395136	71	4913
2026-01-11 12:35:01.59	313.20	13.96	-52.8	-55.1	14.3	0.00e+00	0	23	0	852492288	71	4779
2026-01-11 12:35:02.59	313.38	13.91	-53.0	-55.3	14.2	0.00e+00	0	23	0	854589440	71	4898
2026-01-11 12:35:03.60	313.56	13.86	-53.0	-55.3	14.2	0.00e+00	0	23	0	856686592	71	4908
2026-01-11 12:35:04.61	313.74	13.82	-52.8	-55.1	14.4	0.00e+00	0	23	0	858783744	71	4762
2026-01-11 12:35:05.62	313.92	13.77	-52.7	-54.9	14.4	0.00e+00	0	23	0	860880896	71	4683
2026-01-11 12:35:06.63	314.10	13.72	-52.7	-54.8	14.5	0.00e+00	0	23	0	861929472	71	4646
2026-01-11 12:35:07.64	314.28	13.67	-52.7	-54.9	14.5	0.00e+00	0	23	0	864026624	71	4673
2026-01-11 12:35:08.65	314.46	13.62	-52.8	-55.1	14.3	0.00e+00	0	23	0	866123776	71	4774
2026-01-11 12:35:09.65	314.64	13.57	-52.9	-55.2	14.3	0.00e+00	0	23	0	868220928	71	4821
2026-01-11 12:35:10.66	314.81	13.52	-52.9	-55.2	14.3	0.00e+00	0	23	0	870318080	71	4864
2026-01-11 12:35:11.67	314.99	13.47	-53.0	-55.3	14.2	0.00e+00	0	23	0	871366656	71	4891
2026-01-11 12:35:12.68	315.17	13.42	-53.0	-55.4	14.2	0.00e+00	0	23	0	873463808	71	4939
2026-01-11 12:35:13.68	315.34	13.37	-52.7	-54.9	14.4	0.00e+00	0	23	0	875560960	71	4695
2026-01-11 12:35:14.68	315.51	13.32	-52.6	-54.8	14.5	0.00e+00	0	23	0	877658112	71	4641
2026-01-11 12:35:15.69	315.69	13.27	-52.7	-54.9	14.5	0.00e+00	0	23	0	879755264	71	4652
2026-01-11 12:35:16.70	315.86	13.22	-52.4	-54.5	14.7	0.00e+00	0	23	0	880803840	71	4459
2026-01-11 12:35:17.71	316.04	13.17	-52.4	-54.5	14.6	0.00e+00	0	23	0	882900992	71	4484
2026-01-11 12:35:18.72	316.21	13.12	-52.3	-54.5	14.7	0.00e+00	0	23	0	884998144	71	4467
2026-01-11 12:35:19.72	316.38	13.07	-52.4	-54.6	14.4	0.00e+00	0	23	0	887095296	70	4769
2026-01-11 12:35:20.73	316.55	13.02	-52.5	-54.6	14.4	0.00e+00	0	23	0	888143872	70	4797
2026-01-11 12:35:21.74	316.72	12.97	-52.6	-54.8	14.3	0.00e+00	0	23	0	890241024	70	4884
2026-01-11 12:35:22.75	316.89	12.92	-52.6	-54.8	14.3	0.00e+00	0	23	0	892338176	70	4923
2026-01-11 12:35:23.76	317.06	12.87	-52.7	-55.0	14.2	0.00e+00	0	23	0	894435328	70	4988
2026-01-11 12:35:24.76	317.23	12.81	-52.6	-54.9	14.3	0.00e+00	0	23	0	896532480	70	4932
2026-01-11 12:35:25.77	317.40	12.76	-52.4	-54.6	14.4	0.00e+00	0	23	0	898629632	70	4786
2026-01-11 12:35:26.78	317.57	12.71	-52.6	-54.9	14.3	0.00e+00	0	23	0	899678208	70	4937
2026-01-11 12:35:27.79	317.73	12.66	-52.8	-55.1	14.2	0.00e+00	0	23	0	901775360	70	5055
2026-01-11 12:35:28.80	317.90	12.61	-52.6	-54.8	14.3	0.00e+00	0	23	0	903872512	70	4916
2026-01-11 12:35:29.80	318.07	12.56	-53.0	-55.4	14.2	0.00e+00	0	23	0	905969664	71	4931
2026-01-11 12:35:30.81	318.23	12.50	-52.9	-55.3	14.2	0.00e+00	0	23	0	908066816	71	4873
2026-01-11 12:35:31.82	318.40	12.45	-53.0	-55.3	14.1	0.00e+00	0	23	0	909115392	71	4923
2026-01-11 12:35:32.83	318.56	12.40	-52.9	-55.2	14.1	0.00e+00	0	23	0	911212544	71	4867
2026-01-11 12:35:33.84	318.73	12.35	-52.8	-55.1	14.3	0.00e+00	0	23	0	913309696	71	4814
2026-01-11 12:35:34.85	318.89	12.29	-52.8	-55.1	14.3	0.00e+00	0	23	0	915406848	71	4789
2026-01-11 12:35:35.86	319.05	12.24	-52.7	-54.9	14.3	0.00e+00	0	23	0	917504000	71	4679
2026-01-11 12:35:36.86	319.21	12.19	-52.7	-55.0	14.4	0.00e+00	0	23	0	918552576	71	4722
2026-01-11 12:35:37.87	319.38	12.14	-52.8	-55.0	14.3	0.00e+00	0	23	0	920649728	71	4756
2026-01-11 12:35:38.88	319.54	12.08	-52.8	-55.1	14.3	0.00e+00	0	23	0	922746880	71	4762
2026-01-11 12:35:39.89	319.70	12.03	-52.8	-55.1	14.3	0.00e+00	0	23	0	924844032	71	4783
2026-01-11 12:35:40.90	319.86	11.98	-52.6	-54.9	14.4	0.00e+00	0	23	0	926941184	71	4669
2026-01-11 12:35:41.91	320.02	11.93	-52.7	-54.9	14.4	0.00e+00	0	23	0	927989760	71	4689
2026-01-11 12:35:42.92	320.18	11.87	-52.3	-54.4	14.7	0.00e+00	0	23	0	930086912	71	4428
2026-01-11 12:35:43.92	320.33	11.82	-52.2	-54.3	14.8	0.00e+00	0	23	0	932184064	71	4354
2026-01-11 12:35:44.93	320.49	11.77	-52.2	-54.3	14.8	0.00e+00	0	23	0	934281216	71	4356
2026-01-11 12:35:45.94	320.65	11.71	-52.1	-54.1	14.7	0.00e+00	0	23	0	936378368	70	4523
2026-01-11 12:35:46.95	320.81	11.66	-52.1	-54.1	14.7	0.00e+00	0	23	0	937426944	70	4521
2026-01-11 12:35:47.96	320.96	11.61	-51.8	-53.8	14.9	0.00e+00	0	23	0	939524096	70	4371
2026-01-11 12:35:48.97	321.12	11.55	-51.8	-53.7	14.9	0.00e+00	0	23	0	941621248	70	4334
2026-01-11 12:35:49.97	321.27	11.50	-52.1	-54.1	14.7	0.00e+00	0	23	0	943718400	70	4529
2026-01-11 12:35:50.98	321.43	11.45	-51.9	-53.9	14.8	0.00e+00	0	23	0	945815552	70	4427
2026-01-11 12:35:51.99	321.58	11.39	-52.1	-54.2	14.7	0.00e+00	0	23	0	946864128	70	4571
2026-01-11 12:35:53.00	321.73	11.34	-52.0	-54.0	14.8	0.00e+00	0	23	0	948961280	70	4463
2026-01-11 12:35:54.01	321.89	11.28	-52.1	-54.1	14.7	0.00e+00	0	23	0	951058432	70	4524
2026-01-11 12:35:55.01	322.04	11.23	-52.1	-54.2	14.7	0.00e+00	0	23	0	953155584	70	4553
2026-01-11 12:35:56.02	322.19	11.18	-52.1	-54.2	14.6	0.00e+00	0	23	0	955252736	70	4549
2026-01-11 12:35:57.03	322.34	11.12	-52.1	-54.1	14.6	0.00e+00	0	23	0	956301312	70	4537
2026-01-11 12:35:58.04	322.49	11.07	-52.0	-54.0	14.8	0.00e+00	0	23	0	958398464	70	4459
2026-01-11 12:35:59.05	322.64	11.01	-51.9	-53.9	14.8	0.00e+00	0	23	0	960495616	70	4420
2026-01-11 12:36:00.06	322.79	10.96	-51.8	-53.8	14.7	0.00e+00	0	23	0	962592768	69	4618
2026-01-11 12:36:01.07	322.94	10.90	-51.8	-53.9	14.7	0.00e+00	0	23	0	964689920	69	4652
2026-01-11 12:36:02.08	323.09	10.85	-51.8	-53.8	14.7	0.00e+00	0	23	0	965738496	69	4637
2026-01-11 12:36:03.08	323.24	10.80	-52.0	-54.1	14.5	0.00e+00	0	23	0	967835648	69	4798
2026-01-11 12:36:04.09	323.39	10.74	-52.0	-54.1	14.5	0.00e+00	0	23	0	969932800	69	4764
2026-01-11 12:36:05.10	323.53	10.69	-52.0	-54.0	14.5	0.00e+00	0	23	0	972029952	69	4751
2026-01-11 12:36:06.10	323.68	10.63	-52.0	-54.1	14.5	0.00e+00	0	23	0	974127104	69	4792
2026-01-11 12:36:07.10	323.82	10.58	-52.0	-54.1	14.5	0.00e+00	0	23	0	975175680	69	4790
2026-01-11 12:36:08.11	323.97	10.53	-51.9	-53.9	14.6	0.00e+00	0	23	0	977272832	69	4676
2026-01-11 12:36:09.12	324.11	10.47	-51.7	-53.6	14.8	0.00e+00	0	23	0	979369984	69	4527
2026-01-11 12:36:10.13	324.26	10.42	-51.6	-53.5	14.8	0.00e+00	0	23	0	981467136	69	4461
2026-01-11 12:36:11.13	324.40	10.36	-51.5	-53.3	15.0	0.00e+00	0	23	0	983564288	69	4384
2026-01-11 12:36:12.14	324.54	10.31	-51.3	-53.1	15.1	0.00e+00	0	23	0	985661440	69	4282
2026-01-11 12:36:13.16	324.69	10.25	-51.1	-52.9	15.0	0.00e+00	0	23	0	986710016	68	4430
2026-01-11 12:36:14.16	324.83	10.20	-51.1	-53.0	14.9	0.00e+00	0	23	0	988807168	68	4447
2026-01-11 12:36:15.17	324.97	10.14	-51.2	-53.0	14.9	0.00e+00	0	23	0	990904320	68	4484
2026-01-11 12:36:16.18	325.11	10.09	-51.2	-53.1	14.9	0.00e+00	0	23	0	993001472	68	4509
2026-01-11 12:36:17.19	325.25	10.03	-51.4	-53.2	14.8	0.00e+00	0	23	0	994050048	68	4598
2026-01-11 12:36:18.20	325.39	9.98	-51.5	-53.4	14.8	0.00e+00	0	23	0	996147200	68	4679
2026-01-11 12:36:19.21	325.53	9.92	-51.5	-53.5	14.6	0.00e+00	0	23	0	998244352	68	4716
2026-01-11 12:36:20.21	325.67	9.87	-51.6	-53.5	14.6	0.00e+00	0	23	0	1000341504	68	4746
2026-01-11 12:36:21.22	325.81	9.81	-51.6	-53.5	14.6	0.00e+00	0	23	0	1002438656	68	4750
2026-01-11 12:36:22.23	325.95	9.76	-51.6	-53.6	14.6	0.00e+00	0	23	0	1003487232	68	4783
2026-01-11 12:36:23.24	326.09	9.70	-51.7	-53.7	14.6	0.00e+00	0	23	0	1005584384	68	4839
2026-01-11 12:36:24.24	326.22	9.65	-51.7	-53.8	14.5	0.00e+00	0	23	0	1007681536	68	4889
2026-01-11 12:36:25.24	326.36	9.59	-51.8	-53.9	14.5	0.00e+00	0	23	0	1009778688	68	4965
2026-01-11 12:36:26.25	326.50	9.54	-52.0	-54.2	14.5	0.00e+00	0	23	0	1011875840	69	4815
2026-01-11 12:36:27.25	326.63	9.48	-52.2	-54.4	14.3	0.00e+00	0	23	0	1013972992	69	4940
2026-01-11 12:36:28.26	326.77	9.43	-52.2	-54.4	14.3	0.00e+00	0	23	0	1015021568	69	4961
2026-01-11 12:36:29.26	326.90	9.37	-52.3	-54.6	14.4	0.00e+00	0	23	0	1017118720	70	4762
2026-01-11 12:36:30.27	327.03	9.32	-52.4	-54.6	14.3	0.00e+00	0	23	0	1019215872	70	4775
2026-01-11 12:36:31.28	327.17	9.26	-52.4	-54.7	14.3	0.00e+00	0	23	0	1021313024	70	4820
2026-01-11 12:36:32.28	327.30	9.21	-52.4	-54.6	14.3	0.00e+00	0	23	0	1022361600	70	4802
2026-01-11 12:36:33.29	327.43	9.15	-52.3	-54.6	14.3	0.00e+00	0	23	0	1024458752	70	4762
2026-01-11 12:36:34.30	327.57	9.10	-52.2	-54.4	14.4	0.00e+00	0	23	0	1026555904	70	4684
2026-01-11 12:36:35.31	327.70	9.04	-52.0	-54.1	14.6	0.00e+00	0	23	0	1028653056	70	4516
2026-01-11 12:36:36.32	327.83	8.99	-51.9	-53.9	14.8	0.00e+00	0	23	0	1030750208	70	4411
2026-01-11 12:36:37.32	327.96	8.93	-51.8	-53.9	14.8	0.00e+00	0	23	0	1031798784	70	4393
2026-01-11 12:36:38.33	328.09	8.88	-51.6	-53.6	14.8	0.00e+00	0	23	0	1033895936	69	4499
2026-01-11 12:36:39.34	328.22	8.82	-51.6	-53.6	14.7	0.00e+00	0	23	0	1035993088	69	4526
2026-01-11 12:36:40.34	328.35	8.77	-51.6	-53.6	14.7	0.00e+00	0	23	0	1038090240	69	4533
2026-01-11 12:36:41.35	328.48	8.71	-51.7	-53.7	14.7	0.00e+00	0	23	0	1040187392	69	4563
2026-01-11 12:36:42.36	328.61	8.66	-51.8	-53.8	14.6	0.00e+00	0	23	0	1042284544	69	4634
2026-01-11 12:36:43.36	328.73	8.60	-51.9	-54.0	14.5	0.00e+00	0	23	0	1043333120	69	4724
2026-01-11 12:36:44.36	328.86	8.55	-52.0	-54.2	14.4	0.00e+00	0	23	0	1045430272	69	4837
2026-01-11 12:36:45.36	328.99	8.49	-52.2	-54.4	14.3	0.00e+00	0	23	0	1047527424	69	4932
2026-01-11 12:36:46.37	329.11	8.44	-52.3	-54.5	14.2	0.00e+00	0	23	0	1049624576	69	5012
2026-01-11 12:36:47.37	329.24	8.39	-52.3	-54.6	14.2	0.00e+00	0	23	0	1050673152	69	5067
2026-01-11 12:36:48.38	329.36	8.33	-52.4	-54.7	14.3	0.00e+00	0	23	0	1052770304	70	4830
2026-01-11 12:36:49.39	329.49	8.27	-52.4	-54.7	14.2	0.00e+00	0	23	0	1054867456	70	4842
2026-01-11 12:36:50.40	329.61	8.22	-52.4	-54.6	14.3	0.00e+00	0	23	0	1056964608	70	4798
2026-01-11 12:36:51.41	329.74	8.16	-52.3	-54.6	14.3	0.00e+00	0	23	0	1059061760	70	4792
2026-01-11 12:36:52.42	329.86	8.11	-52.5	-54.7	14.2	0.00e+00	0	23	0	1060110336	70	4868
2026-01-11 12:36:53.43	329.99	8.05	-52.5	-54.8	14.2	0.00e+00	0	23	0	1062207488	70	4889
2026-01-11 12:36:54.44	330.11	8.00	-52.6	-55.0	14.1	0.00e+00	0	23	0	1064304640	70	4994
2026-01-11 12:36:55.44	330.23	7.94	-52.6	-55.0	14.1	0.00e+00	0	23	0	1066401792	70	5021
2026-01-11 12:36:56.45	330.35	7.89	-52.7	-55.1	14.0	0.00e+00	0	23	0	1068498944	70	5078
2026-01-11 12:36:57.46	330.48	7.83	-52.8	-55.3	13.9	0.00e+00	0	23	0	1070596096	70	5163
2026-01-11 12:36:58.47	330.60	7.78	-52.9	-55.4	13.8	0.00e+00	0	23	0	1071644672	70	5264
2026-01-11 12:36:59.47	330.72	7.72	-52.9	-55.5	13.9	0.00e+00	0	23	0	1073741824	71	5014
2026-01-11 12:37:00.48	330.84	7.67	-53.0	-55.6	13.8	0.00e+00	0	23	0	1075838976	71	5070
2026-01-11 12:37:01.49	330.96	7.61	-53.0	-55.6	13.8	0.00e+00	0	23	0	1077936128	71	5044
2026-01-11 12:37:02.50	331.08	7.56	-53.0	-55.6	13.8	0.00e+00	0	23	0	1080033280	71	5078
2026-01-11 12:37:03.50	331.20	7.50	-53.1	-55.7	13.8	0.00e+00	0	23	0	1081081856	71	5125
2026-01-11 12:37:04.50	331.31	7.45	-52.9	-55.5	13.9	0.00e+00	0	23	0	1083179008	71	5010
2026-01-11 12:37:05.52	331.43	7.39	-53.0	-55.5	13.9	0.00e+00	0	23	0	1085276160	71	5027
2026-01-11 12:37:06.52	331.55	7.34	-53.0	-55.5	13.8	0.00e+00	0	23	0	1087373312	71	5037
2026-01-11 12:37:07.53	331.67	7.29	-53.0	-55.6	13.8	0.00e+00	0	23	0	1088421888	71	5083
2026-01-11 12:37:08.54	331.79	7.23	-53.1	-55.7	13.7	0.00e+00	0	23	0	1090519040	71	5128
2026-01-11 12:37:09.55	331.90	7.18	-53.0	-55.6	13.8	0.00e+00	0	23	0	1092616192	71	5084
2026-01-11 12:37:10.56	332.02	7.12	-53.1	-55.8	13.7	0.00e+00	0	23	0	1094713344	71	5179
2026-01-11 12:37:11.57	332.13	7.07	-53.2	-55.9	13.6	0.00e+00	0	23	0	1096810496	71	5248
2026-01-11 12:37:12.58	332.25	7.01	-53.4	-56.2	13.4	0.00e+00	0	23	0	1098907648	71	5456
2026-01-11 12:37:13.58	332.36	6.96	-53.5	-56.4	13.4	0.00e+00	0	23	0	1099956224	72	5231
2026-01-11 12:37:14.59	332.48	6.90	-53.4	-56.2	13.5	0.00e+00	0	24	0	1102053376	72	5136
2026-01-11 12:37:15.54	332.59	6.85	-53.3	-56.1	13.6	0.00e+00	0	23	0	1104150528	72	5047
2026-01-11 12:37:16.55	332.70	6.80	-53.2	-56.0	13.6	0.00e+00	0	23	0	1106247680	72	4984
2026-01-11 12:37:17.55	332.81	6.74	-53.0	-55.7	13.9	0.00e+00	0	23	0	1108344832	72	4819
2026-01-11 12:37:18.56	332.93	6.69	-53.1	-55.7	13.9	0.00e+00	0	23	0	1109393408	72	4835
2026-01-11 12:37:19.57	333.04	6.63	-52.9	-55.5	14.0	0.00e+00	0	23	0	1111490560	72	4712
2026-01-11 12:37:20.58	333.15	6.58	-52.7	-55.1	14.2	0.00e+00	0	23	0	1113587712	72	4530
2026-01-11 12:37:21.58	333.26	6.52	-52.8	-55.3	14.1	0.00e+00	0	23	0	1115684864	72	4629
2026-01-11 12:37:22.59	333.37	6.47	-52.7	-55.2	14.2	0.00e+00	0	23	0	1117782016	72	4555
2026-01-11 12:37:23.61	333.48	6.41	-52.5	-54.9	14.2	0.00e+00	0	23	0	1118830592	71	4702
2026-01-11 12:37:24.61	333.59	6.36	-52.6	-55.0	14.1	0.00e+00	0	23	0	1120927744	71	4742
2026-01-11 12:37:25.62	333.70	6.30	-52.7	-55.2	14.0	0.00e+00	0	23	0	1123024896	71	4838
2026-01-11 12:37:26.63	333.81	6.25	-52.7	-55.2	14.0	0.00e+00	0	23	0	1125122048	71	4816
2026-01-11 12:37:27.63	333.92	6.20	-52.9	-55.5	13.8	0.00e+00	0	23	0	1127219200	71	5005
2026-01-11 12:37:28.64	334.03	6.14	-53.1	-55.8	13.6	0.00e+00	0	23	0	1128267776	71	5204
2026-01-11 12:37:29.64	334.14	6.09	-53.5	-56.5	13.2	0.00e+00	0	23	0	1130364928	72	5299
2026-01-11 12:37:30.65	334.25	6.03	-53.5	-56.5	13.3	0.00e+00	0	23	0	1132462080	72	5292
2026-01-11 12:37:31.66	334.36	5.98	-53.6	-56.6	13.2	0.00e+00	0	23	0	1134559232	72	5390
2026-01-11 12:37:32.67	334.46	5.93	-53.8	-57.0	12.9	0.00e+00	0	23	0	1136656384	72	5607
2026-01-11 12:37:33.68	334.57	5.87	-53.7	-57.0	12.9	1.50e-06	0	23	0	1137704960	72	5608
2026-01-11 12:37:34.69	334.68	5.82	-53.8	-57.1	12.7	0.00e+00	0	23	0	1139802112	72	5702
2026-01-11 12:37:35.70	334.78	5.76	-53.8	-57.0	12.8	7.00e-07	0	23	0	1141899264	72	5643
2026-01-11 12:37:36.71	334.89	5.71	-53.9	-57.3	12.6	0.00e+00	0	23	0	1143996416	72	5799
2026-01-11 12:37:37.72	335.00	5.65	-53.5	-56.7	13.1	7.00e-07	0	23	0	1146093568	72	5409
2026-01-11 12:37:38.72	335.10	5.60	-53.4	-56.5	13.2	0.00e+00	0	23	0	1147142144	72	5300
2026-01-11 12:37:39.73	335.20	5.55	-53.5	-56.5	13.1	0.00e+00	0	23	0	1149239296	72	5328
2026-01-11 12:37:40.74	335.31	5.49	-53.4	-56.5	13.1	0.00e+00	0	23	0	1151336448	72	5319
2026-01-11 12:37:41.75	335.41	5.44	-53.3	-56.3	13.3	0.00e+00	0	23	0	1153433600	72	5196
2026-01-11 12:37:42.76	335.52	5.38	-53.3	-56.3	13.3	0.00e+00	0	23	0	1155530752	72	5180
2026-01-11 12:37:43.77	335.62	5.33	-53.3	-56.3	13.3	0.00e+00	0	23	0	1156579328	72	5173
2026-01-11 12:37:44.77	335.72	5.28	-53.3	-56.3	13.3	0.00e+00	0	23	0	1158676480	72	5188
2026-01-11 12:37:45.78	335.83	5.22	-53.6	-56.7	13.0	0.00e+00	0	23	0	1160773632	72	5445
2026-01-11 12:37:46.79	335.93	5.17	-53.5	-56.5	13.2	0.00e+00	0	23	0	1162870784	72	5335
2026-01-11 12:37:47.79	336.03	5.12	-53.5	-56.5	13.2	0.00e+00	0	23	0	1164967936	72	5323
2026-01-11 12:37:48.80	336.13	5.06	-53.7	-56.9	12.9	0.00e+00	0	23	0	1166016512	72	5545
2026-01-11 12:37:49.81	336.23	5.01	-57.2	-67.0	5.6	8.93e-03	0	23	0	1168113664	79	11924
2026-01-11 12:37:50.82	336.33	4.95	-58.1	-74.0	3.8	1.49e+00	0	23	104	1168113664	81	23828
2026-01-11 12:37:51.83	336.43	4.90	-58.4	-74.4	3.8	1.49e+00	0	23	104	1168113664	81	24779
2026-01-11 12:37:52.84	336.53	4.85	-58.7	-74.7	3.8	1.49e+00	0	23	104	1168113664	82	24304
2026-01-11 12:37:53.85	336.63	4.79	-58.9	-74.9	3.8	1.49e+00	0	23	104	1168113664	82	24804
2026-01-11 12:37:54.85	336.73	4.74	-58.9	-75.1	3.8	1.49e+00	0	23	104	1168113664	83	23921
2026-01-11 12:37:55.86	336.83	4.69	-59.1	-75.2	3.8	1.49e+00	0	23	104	1168113664	83	24241
2026-01-11 12:37:56.87	336.93	4.63	-59.3	-75.3	3.8	1.49e+00	0	23	104	1168113664	83	24594
2026-01-11 12:37:57.87	337.03	4.58	-59.3	-75.4	3.8	1.49e+00	0	23	104	1168113664	83	24766
2026-01-11 12:37:58.88	337.13	4.53	-59.4	-75.4	3.8	1.49e+00	0	23	104	1168113664	83	24915
2026-01-11 12:37:59.89	337.22	4.47	-59.6	-75.7	3.8	1.49e+00	0	23	104	1168113664	84	24161
2026-01-11 12:38:00.89	337.32	4.42	-59.7	-75.7	3.8	1.49e+00	0	23	104	1168113664	84	24240
2026-01-11 12:38:01.90	337.42	4.37	-59.7	-75.7	3.8	1.49e+00	0	23	104	1168113664	84	24330
2026-01-11 12:38:02.91	337.52	4.32	-59.7	-75.7	3.8	1.49e+00	0	23	104	1168113664	84	24401
2026-01-11 12:38:03.91	337.61	4.26	-59.7	-75.8	3.8	1.49e+00	0	23	104	1168113664	84	24413
2026-01-11 12:38:04.92	337.71	4.21	-59.7	-75.8	3.8	1.49e+00	0	23	104	1168113664	84	24495
2026-01-11 12:38:05.93	337.80	4.16	-59.8	-75.8	3.8	1.49e+00	0	23	104	1168113664	84	24541
2026-01-11 12:38:06.94	337.90	4.10	-59.8	-75.8	3.8	1.49e+00	0	23	104	1168113664	84	24527
2026-01-11 12:38:07.95	337.99	4.05	-59.8	-75.8	3.8	1.49e+00	0	23	104	1168113664	84	24692
2026-01-11 12:38:08.96	338.09	4.00	-59.8	-75.8	3.8	1.49e+00	0	23	104	1168113664	84	24640
2026-01-11 12:38:09.97	338.18	3.94	-59.8	-75.8	3.8	1.49e+00	0	23	104	1168113664	84	24667
