passes_logs/2026/01/11/R3.2S_Murmansk/R3.2S_Murmansk__20260111_150815_FENGYUN_3D_rec.log

#Pass ID: 20260111_150815_FENGYUN 3D
#Satellite: FENGYUN 3D
#Configuration: FENGYUN 3D
#almurnet v.1.7.20251203
#Start time: 2026-01-11 15:08:16

#Version: 2.2.20231116
#Station: R3.2S_Murmansk
#Location: 33.079688 lon 68.888172 lat
#TLE: 1 43010U 17072A   26010.98637270  .00000005  00000+0  24269-4 0  9997
#TLE: 2 43010  98.9936 342.7405 0002213 115.1030 245.0375 14.19693961422685

#Time	Az	El	Level	Level2	SNR	BER	BlckErr	Temp	State	Recorded	gain1	gain2
2026-01-11 15:08:16.81	245.91	2.04	-57.6	-70.6	3.8	8.46e-01	0	21	0	0	81	15965
2026-01-11 15:08:17.81	246.01	2.08	-57.5	-70.5	3.8	8.45e-01	0	21	104	0	80	16867
2026-01-11 15:08:18.82	246.11	2.13	-57.5	-70.5	3.8	8.45e-01	0	21	104	0	80	16787
2026-01-11 15:08:19.83	246.22	2.17	-57.5	-70.5	3.8	8.46e-01	0	21	104	0	80	16778
2026-01-11 15:08:20.84	246.32	2.21	-57.5	-70.5	3.8	8.44e-01	0	21	104	0	80	16813
2026-01-11 15:08:21.85	246.43	2.26	-57.5	-70.5	3.8	8.46e-01	0	21	104	0	80	16816
2026-01-11 15:08:22.85	246.53	2.30	-57.5	-70.5	3.8	8.46e-01	0	21	104	0	80	16845
2026-01-11 15:08:23.86	246.63	2.34	-57.5	-70.5	3.8	8.46e-01	0	21	104	0	80	16774
2026-01-11 15:08:24.87	246.74	2.39	-57.5	-70.5	3.8	8.45e-01	0	21	104	0	80	16846
2026-01-11 15:08:25.88	246.85	2.43	-57.5	-70.5	3.8	8.45e-01	0	21	104	0	80	16755
2026-01-11 15:08:26.89	246.95	2.47	-57.5	-70.5	3.8	8.45e-01	0	21	104	0	80	16796
2026-01-11 15:08:27.90	247.06	2.52	-57.5	-70.5	3.8	8.46e-01	0	21	104	0	80	16814
2026-01-11 15:08:28.91	247.16	2.56	-57.5	-70.5	3.8	8.46e-01	0	21	104	0	80	16850
2026-01-11 15:08:29.92	247.27	2.60	-57.5	-70.5	3.8	8.46e-01	0	21	104	0	80	16866
2026-01-11 15:08:30.92	247.38	2.64	-57.5	-70.5	3.8	8.46e-01	0	21	104	0	80	16830
2026-01-11 15:08:31.93	247.48	2.69	-57.5	-70.5	3.8	8.45e-01	0	21	104	0	80	16711
2026-01-11 15:08:32.94	247.59	2.73	-57.5	-70.5	3.8	8.45e-01	0	22	104	0	80	16764
2026-01-11 15:08:33.95	247.70	2.77	-57.5	-70.5	3.8	8.46e-01	0	21	104	0	80	16724
2026-01-11 15:08:34.96	247.81	2.82	-57.5	-70.5	3.8	8.46e-01	0	22	104	0	80	16756
2026-01-11 15:08:35.97	247.92	2.86	-57.5	-70.5	3.8	8.46e-01	0	21	104	0	80	16851
2026-01-11 15:08:36.97	248.02	2.90	-57.5	-70.5	3.8	8.46e-01	0	22	104	0	80	16754
2026-01-11 15:08:37.98	248.13	2.95	-57.5	-70.5	3.8	8.46e-01	0	22	104	0	80	16780
2026-01-11 15:08:38.99	248.24	2.99	-57.5	-70.5	3.8	8.45e-01	0	21	104	0	80	16776
2026-01-11 15:08:40.00	248.35	3.03	-57.5	-70.5	3.8	8.46e-01	0	22	104	0	80	16836
2026-01-11 15:08:41.01	248.46	3.08	-57.5	-70.5	3.8	8.46e-01	0	22	104	0	80	16858
2026-01-11 15:08:42.02	248.57	3.12	-57.5	-70.5	3.8	8.47e-01	0	22	104	0	80	16858
2026-01-11 15:08:43.03	248.68	3.16	-57.5	-70.5	3.8	8.45e-01	0	22	104	0	80	16862
2026-01-11 15:08:44.04	248.80	3.21	-57.5	-70.5	3.8	8.46e-01	0	22	104	0	80	16805
2026-01-11 15:08:45.05	248.91	3.25	-57.5	-70.4	3.8	8.46e-01	0	22	104	0	80	16657
2026-01-11 15:08:46.06	249.02	3.29	-57.5	-70.4	3.8	8.44e-01	0	22	104	0	80	16632
2026-01-11 15:08:47.06	249.13	3.33	-57.5	-70.4	3.8	8.46e-01	0	22	104	0	80	16666
2026-01-11 15:08:48.08	249.24	3.38	-57.5	-70.5	3.8	8.45e-01	0	22	104	0	80	16740
2026-01-11 15:08:49.09	249.36	3.42	-57.5	-70.5	3.8	8.46e-01	0	22	104	0	80	16744
2026-01-11 15:08:50.10	249.47	3.46	-57.5	-70.5	3.8	8.45e-01	0	22	104	0	80	16711
2026-01-11 15:08:51.10	249.58	3.51	-57.5	-70.3	3.8	8.45e-01	0	22	104	0	80	16404
2026-01-11 15:08:52.11	249.69	3.55	-57.5	-70.2	3.8	8.45e-01	0	22	104	0	80	16290
2026-01-11 15:08:53.12	249.81	3.59	-57.5	-70.4	3.8	8.46e-01	0	22	104	0	80	16581
2026-01-11 15:08:54.12	249.92	3.63	-57.5	-70.5	3.8	8.45e-01	0	22	104	0	80	16855
2026-01-11 15:08:55.13	250.04	3.68	-57.5	-70.5	3.8	8.46e-01	0	22	104	0	80	16765
2026-01-11 15:08:56.14	250.15	3.72	-57.5	-70.5	3.8	8.46e-01	0	22	104	0	80	16877
2026-01-11 15:08:57.15	250.27	3.76	-57.5	-70.4	3.8	8.46e-01	0	22	104	0	80	16600
2026-01-11 15:08:58.16	250.38	3.80	-57.5	-70.3	3.8	8.45e-01	0	22	104	0	80	16335
2026-01-11 15:08:59.16	250.50	3.85	-57.5	-70.3	3.8	8.44e-01	0	22	104	0	80	16371
2026-01-11 15:09:00.17	250.61	3.89	-57.5	-70.2	3.8	8.46e-01	0	22	104	0	80	16152
2026-01-11 15:09:01.18	250.73	3.93	-57.5	-70.3	3.8	8.45e-01	0	22	104	0	80	16424
2026-01-11 15:09:02.19	250.84	3.97	-57.5	-70.4	3.8	8.45e-01	0	22	104	0	80	16610
2026-01-11 15:09:03.20	250.96	4.02	-57.5	-70.5	3.8	8.45e-01	0	22	104	0	80	16811
2026-01-11 15:09:04.21	251.08	4.06	-57.5	-70.5	3.8	8.46e-01	0	22	104	0	80	16885
2026-01-11 15:09:05.22	251.20	4.10	-57.5	-70.5	3.8	8.45e-01	0	22	104	0	80	16777
2026-01-11 15:09:06.23	251.32	4.15	-57.5	-70.4	3.8	8.46e-01	0	22	104	0	80	16562
2026-01-11 15:09:07.24	251.43	4.19	-57.5	-70.2	3.8	8.47e-01	0	22	104	0	80	16152
2026-01-11 15:09:08.24	251.55	4.23	-57.5	-70.1	3.8	8.46e-01	0	22	104	0	80	15986
2026-01-11 15:09:09.25	251.67	4.27	-57.5	-70.1	3.8	8.45e-01	0	22	104	0	80	15994
2026-01-11 15:09:10.26	251.79	4.31	-57.5	-70.0	3.8	8.47e-01	0	22	104	0	80	15943
2026-01-11 15:09:11.27	251.91	4.36	-57.5	-69.9	3.8	8.46e-01	0	22	104	0	80	15587
2026-01-11 15:09:12.28	252.03	4.40	-57.5	-69.6	3.8	8.46e-01	0	22	104	0	80	15156
2026-01-11 15:09:13.29	252.15	4.44	-57.5	-69.5	3.8	8.45e-01	0	22	104	0	80	14910
2026-01-11 15:09:14.30	252.27	4.48	-57.4	-69.4	3.8	8.45e-01	0	22	104	0	80	14737
2026-01-11 15:09:15.31	252.39	4.53	-57.5	-69.6	3.8	8.45e-01	0	22	104	0	80	15214
2026-01-11 15:09:16.32	252.51	4.57	-57.5	-70.1	3.8	8.45e-01	0	22	104	0	80	16014
2026-01-11 15:09:17.33	252.63	4.61	-57.5	-70.5	3.8	8.46e-01	0	22	104	0	80	16749
2026-01-11 15:09:18.34	252.76	4.65	-57.5	-69.6	3.8	8.46e-01	0	22	104	0	80	15115
2026-01-11 15:09:19.35	252.88	4.69	-57.3	-67.6	4.0	8.45e-01	0	22	104	0	80	12011
2026-01-11 15:09:20.35	253.00	4.74	-57.0	-65.3	4.8	8.07e-01	0	22	0	0	80	9204
2026-01-11 15:09:21.36	253.12	4.78	-56.7	-63.7	5.7	6.69e-01	0	22	0	1048576	80	7681
2026-01-11 15:09:22.37	253.25	4.82	-56.5	-62.7	6.4	2.49e-01	0	22	0	6291456	79	7234
2026-01-11 15:09:23.38	253.37	4.86	-56.2	-61.6	7.3	1.52e-01	0	22	0	11534336	79	6412
2026-01-11 15:09:24.39	253.49	4.90	-55.4	-59.6	9.1	3.82e-02	0	22	0	17825792	77	5689
2026-01-11 15:09:25.40	253.62	4.95	-54.1	-57.2	11.0	1.05e-03	0	22	0	23068672	74	5151
2026-01-11 15:09:26.41	253.74	4.99	-52.4	-54.6	12.9	5.70e-06	0	22	0	29360128	71	4544
2026-01-11 15:09:27.42	253.87	5.03	-52.2	-54.3	13.0	0.00e+00	0	22	0	34603008	70	4648
2026-01-11 15:09:28.43	253.99	5.07	-54.3	-57.8	10.5	5.70e-06	0	22	0	39845888	73	5789
2026-01-11 15:09:29.44	254.12	5.11	-52.5	-54.8	12.7	9.75e-03	0	22	0	46137344	71	4610
2026-01-11 15:09:30.45	254.25	5.15	-51.5	-53.1	13.5	0.00e+00	0	22	0	51380224	67	4773
2026-01-11 15:09:31.46	254.37	5.19	-49.3	-50.8	14.7	1.12e-04	0	22	0	57671680	65	4130
2026-01-11 15:09:32.46	254.50	5.24	-49.1	-51.0	14.6	0.00e+00	0	22	0	62914560	65	4215
2026-01-11 15:09:33.47	254.63	5.28	-48.5	-49.9	14.9	0.00e+00	0	22	0	68157440	63	4176
2026-01-11 15:09:34.48	254.75	5.32	-48.8	-50.3	14.7	0.00e+00	0	22	0	74448896	63	4356
2026-01-11 15:09:35.49	254.88	5.36	-49.0	-50.5	14.6	0.00e+00	0	23	0	79691776	63	4481
2026-01-11 15:09:36.49	255.01	5.40	-49.0	-50.5	14.6	0.00e+00	0	22	0	85983232	63	4464
2026-01-11 15:09:37.50	255.14	5.44	-49.0	-50.5	14.6	0.00e+00	0	22	0	91226112	63	4447
2026-01-11 15:09:38.50	255.26	5.48	-48.9	-50.4	14.6	0.00e+00	0	22	0	97517568	63	4436
2026-01-11 15:09:39.51	255.39	5.52	-48.9	-50.4	14.6	0.00e+00	0	22	0	102760448	63	4419
2026-01-11 15:09:40.52	255.52	5.56	-48.7	-50.2	14.8	0.00e+00	0	22	0	108003328	63	4318
2026-01-11 15:09:41.53	255.65	5.61	-48.8	-50.3	14.7	0.00e+00	0	22	0	114294784	63	4368
2026-01-11 15:09:42.54	255.78	5.65	-49.0	-50.5	14.6	0.00e+00	0	22	0	119537664	63	4487
2026-01-11 15:09:43.55	255.91	5.69	-49.0	-50.5	14.6	0.00e+00	0	22	0	124780544	63	4460
2026-01-11 15:09:44.56	256.04	5.73	-48.8	-50.3	14.7	0.00e+00	0	22	0	131072000	63	4353
2026-01-11 15:09:45.56	256.17	5.77	-48.9	-50.4	14.7	0.00e+00	0	22	0	136314880	63	4405
2026-01-11 15:09:46.57	256.31	5.81	-48.6	-50.0	14.9	0.00e+00	0	23	0	142606336	63	4221
2026-01-11 15:09:47.58	256.44	5.85	-48.6	-50.0	14.9	0.00e+00	0	22	0	147849216	63	4238
2026-01-11 15:09:48.59	256.57	5.89	-48.8	-50.3	14.7	0.00e+00	0	22	0	153092096	63	4347
2026-01-11 15:09:49.60	256.70	5.93	-48.9	-50.3	14.7	0.00e+00	0	22	0	159383552	63	4388
2026-01-11 15:09:50.60	256.84	5.97	-48.9	-50.3	14.7	0.00e+00	0	22	0	164626432	63	4370
2026-01-11 15:09:51.61	256.97	6.01	-48.6	-50.0	14.9	0.00e+00	0	22	0	170917888	63	4216
2026-01-11 15:09:52.62	257.10	6.05	-48.6	-50.0	14.9	0.00e+00	0	22	0	176160768	63	4205
2026-01-11 15:09:53.63	257.24	6.09	-48.6	-50.0	14.9	0.00e+00	0	23	0	182452224	63	4198
2026-01-11 15:09:54.64	257.37	6.13	-48.5	-49.9	15.0	0.00e+00	0	22	0	187695104	63	4157
2026-01-11 15:09:55.65	257.51	6.17	-48.6	-50.0	14.9	0.00e+00	0	23	0	192937984	63	4239
2026-01-11 15:09:56.66	257.64	6.21	-48.5	-50.0	14.9	0.00e+00	0	22	0	199229440	63	4194
2026-01-11 15:09:57.67	257.78	6.25	-48.5	-49.8	15.0	0.00e+00	0	22	0	204472320	63	4144
2026-01-11 15:09:58.68	257.91	6.29	-48.5	-49.9	15.0	0.00e+00	0	22	0	210763776	63	4146
2026-01-11 15:09:59.69	258.05	6.33	-48.3	-49.7	15.1	0.00e+00	0	22	0	216006656	63	4061
2026-01-11 15:10:00.69	258.18	6.37	-48.3	-49.7	15.1	0.00e+00	0	22	0	221249536	63	4058
2026-01-11 15:10:01.70	258.32	6.41	-48.4	-49.8	15.0	0.00e+00	0	23	0	227540992	63	4100
2026-01-11 15:10:02.71	258.46	6.45	-48.5	-49.9	15.0	0.00e+00	0	23	0	232783872	63	4157
2026-01-11 15:10:03.72	258.60	6.49	-48.4	-49.8	15.1	0.00e+00	0	22	0	239075328	63	4106
2026-01-11 15:10:04.73	258.73	6.53	-48.5	-49.9	15.0	0.00e+00	0	23	0	244318208	63	4146
2026-01-11 15:10:05.74	258.87	6.57	-48.6	-49.9	14.9	0.00e+00	0	22	0	249561088	63	4191
2026-01-11 15:10:06.75	259.01	6.61	-48.6	-50.0	14.9	0.00e+00	0	23	0	255852544	63	4215
2026-01-11 15:10:07.75	259.15	6.65	-48.5	-49.8	15.0	0.00e+00	0	22	0	261095424	63	4138
2026-01-11 15:10:08.76	259.29	6.69	-48.4	-49.8	15.0	0.00e+00	0	22	0	267386880	63	4117
2026-01-11 15:10:09.77	259.43	6.72	-48.3	-49.6	15.2	0.00e+00	0	23	0	272629760	63	4027
2026-01-11 15:10:10.78	259.57	6.76	-48.1	-49.5	15.0	0.00e+00	0	23	0	278921216	62	4208
2026-01-11 15:10:11.79	259.71	6.80	-48.4	-49.7	14.9	0.00e+00	0	23	0	284164096	62	4340
2026-01-11 15:10:12.80	259.85	6.84	-48.5	-50.0	14.8	0.00e+00	0	23	0	289406976	62	4444
2026-01-11 15:10:13.81	259.99	6.88	-48.5	-49.9	14.8	0.00e+00	0	23	0	295698432	62	4434
2026-01-11 15:10:14.82	260.13	6.92	-48.4	-49.7	14.9	0.00e+00	0	22	0	300941312	62	4335
2026-01-11 15:10:15.83	260.28	6.96	-48.2	-49.6	15.0	0.00e+00	0	23	0	307232768	62	4271
2026-01-11 15:10:16.84	260.42	7.00	-48.3	-49.7	14.9	0.00e+00	0	23	0	312475648	62	4302
2026-01-11 15:10:17.85	260.56	7.03	-48.4	-49.8	14.9	0.00e+00	0	23	0	317718528	62	4367
2026-01-11 15:10:18.85	260.70	7.07	-48.4	-49.7	14.9	0.00e+00	0	23	0	324009984	62	4338
2026-01-11 15:10:19.86	260.85	7.11	-48.2	-49.5	15.0	0.00e+00	0	23	0	329252864	62	4242
2026-01-11 15:10:20.87	260.99	7.15	-48.2	-49.6	15.0	0.00e+00	0	23	0	335544320	62	4261
2026-01-11 15:10:21.87	261.13	7.19	-48.2	-49.5	15.0	0.00e+00	0	23	0	340787200	62	4221
2026-01-11 15:10:22.88	261.28	7.22	-48.1	-49.5	15.0	0.00e+00	0	23	0	346030080	62	4207
2026-01-11 15:10:23.89	261.42	7.26	-48.0	-49.3	15.1	0.00e+00	0	23	0	352321536	62	4130
2026-01-11 15:10:24.90	261.57	7.30	-48.0	-49.3	15.1	0.00e+00	0	23	0	357564416	62	4133
2026-01-11 15:10:25.90	261.71	7.34	-47.9	-49.2	15.2	0.00e+00	0	23	0	363855872	62	4094
2026-01-11 15:10:26.91	261.86	7.37	-48.0	-49.4	15.1	0.00e+00	0	23	0	369098752	62	4156
2026-01-11 15:10:27.92	262.00	7.41	-48.1	-49.5	15.0	0.00e+00	0	23	0	375390208	62	4207
2026-01-11 15:10:28.93	262.15	7.45	-48.0	-49.3	15.1	0.00e+00	0	23	0	380633088	62	4144
2026-01-11 15:10:29.93	262.30	7.48	-48.0	-49.4	15.1	0.00e+00	0	23	0	385875968	62	4147
2026-01-11 15:10:30.95	262.45	7.52	-48.2	-49.5	15.0	0.00e+00	0	23	0	392167424	62	4217
2026-01-11 15:10:31.96	262.59	7.56	-48.1	-49.5	15.1	0.00e+00	0	23	0	397410304	62	4202
2026-01-11 15:10:32.96	262.74	7.60	-48.0	-49.3	15.1	0.00e+00	0	23	0	403701760	62	4124
2026-01-11 15:10:33.97	262.89	7.63	-47.9	-49.2	15.2	0.00e+00	0	23	0	408944640	62	4079
2026-01-11 15:10:34.98	263.04	7.67	-47.9	-49.2	15.2	0.00e+00	0	23	0	414187520	62	4097
2026-01-11 15:10:35.99	263.19	7.71	-47.9	-49.3	15.2	0.00e+00	0	23	0	420478976	62	4107
2026-01-11 15:10:37.00	263.34	7.74	-47.9	-49.3	15.2	0.00e+00	0	23	0	425721856	62	4106
2026-01-11 15:10:38.00	263.48	7.78	-47.9	-49.2	15.2	0.00e+00	0	23	0	432013312	62	4076
2026-01-11 15:10:39.01	263.63	7.81	-48.0	-49.3	15.2	0.00e+00	0	23	0	437256192	62	4115
2026-01-11 15:10:40.02	263.79	7.85	-48.0	-49.4	15.1	0.00e+00	0	23	0	442499072	62	4161
2026-01-11 15:10:41.03	263.94	7.89	-48.0	-49.4	15.1	0.00e+00	0	23	0	448790528	62	4154
2026-01-11 15:10:42.04	264.09	7.92	-48.1	-49.4	15.1	0.00e+00	0	23	0	454033408	62	4192
2026-01-11 15:10:43.05	264.24	7.96	-48.0	-49.4	15.1	0.00e+00	0	23	0	460324864	62	4157
2026-01-11 15:10:44.06	264.39	7.99	-47.8	-49.1	15.3	0.00e+00	0	23	0	465567744	62	4032
2026-01-11 15:10:45.07	264.54	8.03	-47.9	-49.2	15.3	0.00e+00	0	23	0	471859200	62	4060
2026-01-11 15:10:46.07	264.70	8.06	-47.7	-49.0	15.3	0.00e+00	0	23	0	477102080	62	3972
2026-01-11 15:10:47.08	264.85	8.10	-47.7	-49.0	15.3	0.00e+00	0	23	0	482344960	62	3973
2026-01-11 15:10:48.09	265.00	8.13	-47.6	-48.9	15.2	0.00e+00	0	23	0	488636416	61	4163
2026-01-11 15:10:49.10	265.16	8.17	-47.7	-49.0	15.2	0.00e+00	0	23	0	493879296	61	4196
2026-01-11 15:10:50.10	265.31	8.20	-47.7	-49.0	15.2	0.00e+00	0	23	0	500170752	61	4214
2026-01-11 15:10:51.10	265.46	8.24	-47.9	-49.2	15.1	0.00e+00	0	23	0	505413632	61	4310
2026-01-11 15:10:52.11	265.62	8.27	-47.9	-49.2	15.1	0.00e+00	0	23	0	510656512	61	4317
2026-01-11 15:10:53.12	265.77	8.31	-47.9	-49.2	15.0	0.00e+00	0	23	0	516947968	61	4339
2026-01-11 15:10:54.13	265.93	8.34	-47.7	-49.1	15.1	0.00e+00	0	23	0	522190848	61	4249
2026-01-11 15:10:55.14	266.08	8.37	-47.6	-48.9	15.2	0.00e+00	0	23	0	527433728	61	4184
2026-01-11 15:10:56.15	266.24	8.41	-47.7	-49.0	15.1	0.00e+00	0	23	0	533725184	61	4232
2026-01-11 15:10:57.16	266.40	8.44	-47.8	-49.1	15.1	0.00e+00	0	23	0	538968064	61	4281
2026-01-11 15:10:58.17	266.55	8.48	-47.9	-49.3	14.9	0.00e+00	0	23	0	545259520	61	4362
2026-01-11 15:10:59.18	266.71	8.51	-48.0	-49.4	14.9	0.00e+00	0	23	0	550502400	61	4415
2026-01-11 15:11:00.18	266.87	8.54	-48.5	-49.9	14.6	0.00e+00	0	23	0	556793856	62	4429
2026-01-11 15:11:01.19	267.02	8.58	-49.0	-50.6	14.5	0.00e+00	0	23	0	562036736	63	4499
2026-01-11 15:11:02.20	267.18	8.61	-49.6	-51.3	14.1	0.00e+00	0	23	0	568328192	64	4618
2026-01-11 15:11:03.21	267.34	8.64	-50.3	-52.1	13.6	0.00e+00	0	23	0	573571072	65	4799
2026-01-11 15:11:04.22	267.50	8.67	-50.8	-52.7	13.3	0.00e+00	0	23	0	578813952	66	4861
2026-01-11 15:11:05.23	267.66	8.71	-51.0	-53.1	13.1	0.00e+00	0	23	0	585105408	67	4776
2026-01-11 15:11:06.24	267.82	8.74	-51.0	-53.2	13.0	0.00e+00	0	23	0	590348288	67	4838
2026-01-11 15:11:07.25	267.98	8.77	-51.1	-53.3	12.8	0.00e+00	0	23	0	595591168	67	4919
2026-01-11 15:11:08.26	268.14	8.80	-51.7	-54.1	12.3	0.00e+00	0	23	0	601882624	68	5089
2026-01-11 15:11:09.26	268.30	8.84	-52.4	-55.2	11.5	4.34e-05	0	23	0	607125504	69	5444
2026-01-11 15:11:10.26	268.46	8.87	-53.2	-56.7	10.4	7.66e-04	0	23	0	613416960	71	5724
2026-01-11 15:11:11.27	268.62	8.90	-53.8	-57.9	9.3	4.72e-03	0	23	0	618659840	72	6221
2026-01-11 15:11:12.28	268.78	8.93	-54.3	-58.8	8.5	2.83e-02	0	23	0	623902720	73	6557
2026-01-11 15:11:13.29	268.95	8.96	-54.0	-58.0	9.3	1.56e-02	0	23	0	630194176	73	5985
2026-01-11 15:11:14.30	269.11	8.99	-53.7	-57.4	10.1	4.11e-03	0	23	0	635437056	73	5558
2026-01-11 15:11:15.31	269.27	9.03	-53.3	-56.4	11.1	8.47e-04	0	23	0	641728512	73	4974
2026-01-11 15:11:16.32	269.43	9.06	-53.1	-56.0	11.5	1.50e-04	0	23	0	646971392	72	5007
2026-01-11 15:11:17.33	269.60	9.09	-52.7	-55.3	12.1	2.40e-05	0	23	0	653262848	72	4643
2026-01-11 15:11:18.34	269.76	9.12	-52.5	-55.0	12.3	9.10e-06	0	23	0	658505728	71	4715
2026-01-11 15:11:19.34	269.92	9.15	-51.8	-54.0	13.0	0.00e+00	0	23	0	663748608	70	4443
2026-01-11 15:11:20.35	270.09	9.18	-51.1	-53.0	13.5	0.00e+00	0	23	0	670040064	68	4475
2026-01-11 15:11:21.37	270.25	9.21	-50.7	-52.6	13.8	0.00e+00	0	23	0	675282944	68	4271
2026-01-11 15:11:22.37	270.42	9.24	-50.1	-51.8	14.1	0.00e+00	0	23	0	681574400	66	4350
2026-01-11 15:11:23.38	270.58	9.27	-49.4	-50.9	14.5	0.00e+00	0	23	0	686817280	65	4185
2026-01-11 15:11:24.38	270.75	9.30	-49.1	-50.6	14.6	0.00e+00	0	23	0	692060160	64	4259
2026-01-11 15:11:25.39	270.91	9.33	-48.8	-50.3	14.8	0.00e+00	0	23	0	698351616	64	4114
2026-01-11 15:11:26.40	271.08	9.36	-48.5	-49.9	15.0	0.00e+00	0	23	0	703594496	63	4159
2026-01-11 15:11:27.41	271.25	9.39	-48.4	-49.8	15.0	0.00e+00	0	23	0	709885952	63	4118
2026-01-11 15:11:28.42	271.41	9.42	-48.3	-49.6	15.1	0.00e+00	0	23	0	715128832	63	4036
2026-01-11 15:11:29.43	271.58	9.44	-47.7	-49.0	15.3	0.00e+00	0	23	0	720371712	62	3995
2026-01-11 15:11:30.44	271.75	9.47	-47.5	-48.8	15.3	0.00e+00	0	23	0	726663168	61	4126
2026-01-11 15:11:31.44	271.92	9.50	-47.5	-48.8	15.3	0.00e+00	0	23	0	731906048	61	4103
2026-01-11 15:11:32.45	272.08	9.53	-47.6	-48.9	15.2	0.00e+00	0	23	0	738197504	61	4162
2026-01-11 15:11:33.46	272.25	9.56	-47.5	-48.8	15.3	0.00e+00	0	23	0	743440384	61	4110
2026-01-11 15:11:34.47	272.42	9.59	-47.5	-48.7	15.3	0.00e+00	0	23	0	749731840	61	4098
2026-01-11 15:11:35.48	272.59	9.61	-47.6	-48.9	15.2	0.00e+00	0	23	0	754974720	61	4149
2026-01-11 15:11:36.49	272.76	9.64	-47.7	-48.9	15.2	0.00e+00	0	23	0	760217600	61	4191
2026-01-11 15:11:37.49	272.93	9.67	-47.7	-49.0	15.2	0.00e+00	0	23	0	766509056	61	4203
2026-01-11 15:11:38.50	273.10	9.70	-47.7	-49.0	15.2	0.00e+00	0	23	0	771751936	61	4213
2026-01-11 15:11:39.51	273.27	9.72	-47.6	-48.9	15.2	0.00e+00	0	23	0	778043392	61	4148
2026-01-11 15:11:40.52	273.44	9.75	-47.5	-48.8	15.3	0.00e+00	0	23	0	783286272	61	4119
2026-01-11 15:11:41.53	273.61	9.78	-47.6	-48.9	15.2	0.00e+00	0	23	0	788529152	61	4159
2026-01-11 15:11:42.54	273.78	9.80	-47.6	-48.9	15.2	0.00e+00	0	23	0	794820608	61	4184
2026-01-11 15:11:43.55	273.95	9.83	-47.5	-48.8	15.3	0.00e+00	0	23	0	800063488	61	4110
2026-01-11 15:11:44.56	274.13	9.85	-47.5	-48.8	15.3	0.00e+00	0	23	0	806354944	61	4109
2026-01-11 15:11:45.57	274.30	9.88	-47.5	-48.8	15.3	0.00e+00	0	23	0	811597824	61	4132
2026-01-11 15:11:46.57	274.47	9.91	-47.6	-48.9	15.2	0.00e+00	0	23	0	816840704	61	4151
2026-01-11 15:11:47.58	274.64	9.93	-47.6	-48.9	15.2	0.00e+00	0	23	0	823132160	61	4190
2026-01-11 15:11:48.59	274.82	9.96	-47.6	-48.9	15.2	0.00e+00	0	23	0	828375040	61	4180
2026-01-11 15:11:49.60	274.99	9.98	-47.7	-49.0	15.2	0.00e+00	0	23	0	834666496	61	4213
2026-01-11 15:11:50.60	275.16	10.01	-47.7	-49.0	15.2	0.00e+00	0	23	0	839909376	61	4216
2026-01-11 15:11:51.61	275.34	10.03	-47.6	-48.9	15.2	0.00e+00	0	23	0	846200832	61	4187
2026-01-11 15:11:52.62	275.51	10.05	-47.6	-48.8	15.3	0.00e+00	0	23	0	851443712	61	4134
2026-01-11 15:11:53.63	275.68	10.08	-47.5	-48.8	15.3	0.00e+00	0	23	0	856686592	61	4108
2026-01-11 15:11:54.64	275.86	10.10	-47.4	-48.7	15.3	0.00e+00	0	23	0	862978048	61	4069
2026-01-11 15:11:55.64	276.03	10.13	-47.5	-48.8	15.3	0.00e+00	0	23	0	868220928	61	4128
2026-01-11 15:11:56.65	276.21	10.15	-47.5	-48.8	15.3	0.00e+00	0	23	0	874512384	61	4128
2026-01-11 15:11:57.66	276.38	10.17	-47.6	-48.8	15.3	0.00e+00	0	23	0	879755264	61	4140
2026-01-11 15:11:58.67	276.56	10.20	-47.7	-49.0	15.2	0.00e+00	0	23	0	884998144	61	4198
2026-01-11 15:11:59.68	276.74	10.22	-47.8	-49.1	15.2	0.00e+00	0	23	0	891289600	61	4249
2026-01-11 15:12:00.69	276.91	10.24	-47.7	-49.0	15.2	0.00e+00	0	23	0	896532480	61	4223
2026-01-11 15:12:01.70	277.09	10.26	-47.7	-49.0	15.2	0.00e+00	0	23	0	901775360	61	4230
2026-01-11 15:12:02.71	277.27	10.29	-47.8	-49.1	15.1	0.00e+00	0	23	0	908066816	61	4265
2026-01-11 15:12:03.71	277.44	10.31	-47.8	-49.1	15.1	0.00e+00	0	23	0	913309696	61	4286
2026-01-11 15:12:04.72	277.62	10.33	-47.6	-48.9	15.2	0.00e+00	0	23	0	919601152	61	4188
2026-01-11 15:12:05.73	277.80	10.35	-47.6	-48.9	15.3	0.00e+00	0	23	0	924844032	61	4162
2026-01-11 15:12:06.74	277.97	10.37	-47.6	-48.9	15.3	0.00e+00	0	23	0	931135488	61	4154
2026-01-11 15:12:07.74	278.15	10.39	-47.5	-48.8	15.3	0.00e+00	0	23	0	936378368	61	4114
2026-01-11 15:12:08.75	278.33	10.41	-47.5	-48.7	15.3	0.00e+00	0	23	0	942669824	61	4092
2026-01-11 15:12:09.76	278.51	10.44	-47.5	-48.7	15.3	0.00e+00	0	23	0	947912704	61	4085
2026-01-11 15:12:10.77	278.69	10.46	-47.5	-48.7	15.3	0.00e+00	0	23	0	953155584	61	4092
2026-01-11 15:12:11.78	278.87	10.48	-47.5	-48.8	15.3	0.00e+00	0	23	0	959447040	61	4119
2026-01-11 15:12:12.79	279.05	10.50	-47.4	-48.6	15.4	0.00e+00	0	23	0	964689920	61	4043
2026-01-11 15:12:13.80	279.23	10.52	-47.4	-48.6	15.4	0.00e+00	0	23	0	969932800	61	4022
2026-01-11 15:12:14.81	279.41	10.54	-47.4	-48.7	15.4	0.00e+00	0	23	0	976224256	61	4066
2026-01-11 15:12:15.81	279.58	10.55	-47.3	-48.5	15.4	0.00e+00	0	23	0	981467136	61	3981
2026-01-11 15:12:16.82	279.76	10.57	-47.3	-48.5	15.4	0.00e+00	0	23	0	987758592	61	3996
2026-01-11 15:12:17.83	279.94	10.59	-47.4	-48.6	15.4	0.00e+00	0	23	0	993001472	61	4025
2026-01-11 15:12:18.84	280.13	10.61	-47.4	-48.6	15.4	0.00e+00	0	23	0	998244352	61	4037
2026-01-11 15:12:19.85	280.31	10.63	-47.4	-48.6	15.4	0.00e+00	0	23	0	1004535808	61	4042
2026-01-11 15:12:20.86	280.49	10.65	-47.4	-48.6	15.4	0.00e+00	0	23	0	1009778688	61	4020
2026-01-11 15:12:21.86	280.67	10.67	-47.2	-48.4	15.5	0.00e+00	0	23	0	1016070144	61	3946
2026-01-11 15:12:22.87	280.85	10.68	-46.7	-47.9	15.5	0.00e+00	0	23	0	1021313024	60	3940
2026-01-11 15:12:23.88	281.03	10.70	-47.0	-48.2	15.4	0.00e+00	0	23	0	1027604480	60	4065
2026-01-11 15:12:24.89	281.21	10.72	-47.0	-48.1	15.4	0.00e+00	0	23	0	1032847360	60	4050
2026-01-11 15:12:25.90	281.40	10.73	-46.9	-48.1	15.5	0.00e+00	0	23	0	1038090240	60	4039
2026-01-11 15:12:26.91	281.58	10.75	-46.9	-48.1	15.5	0.00e+00	0	23	0	1044381696	60	4024
2026-01-11 15:12:27.91	281.76	10.77	-47.0	-48.2	15.4	0.00e+00	0	23	0	1049624576	60	4077
2026-01-11 15:12:28.92	281.94	10.78	-47.2	-48.4	15.3	0.00e+00	0	23	0	1055916032	60	4162
2026-01-11 15:12:29.93	282.12	10.80	-47.2	-48.4	15.3	0.00e+00	0	23	0	1061158912	60	4172
2026-01-11 15:12:30.93	282.31	10.82	-47.2	-48.4	15.3	0.00e+00	0	23	0	1066401792	60	4173
2026-01-11 15:12:31.94	282.49	10.83	-47.4	-48.6	15.2	0.00e+00	0	23	0	1072693248	60	4263
2026-01-11 15:12:32.95	282.67	10.85	-47.5	-48.7	15.2	0.00e+00	0	23	0	1077936128	60	4316
2026-01-11 15:12:33.96	282.86	10.86	-47.4	-48.7	15.2	0.00e+00	0	23	0	1084227584	60	4295
2026-01-11 15:12:34.96	283.04	10.88	-47.4	-48.7	15.2	0.00e+00	0	23	0	1089470464	60	4298
2026-01-11 15:12:35.97	283.22	10.89	-47.4	-48.6	15.2	0.00e+00	0	23	0	1094713344	60	4280
2026-01-11 15:12:36.98	283.41	10.90	-47.5	-48.7	15.2	0.00e+00	0	23	0	1101004800	60	4340
2026-01-11 15:12:37.99	283.59	10.92	-47.6	-48.8	15.2	0.00e+00	0	23	0	1106247680	60	4380
2026-01-11 15:12:39.00	283.78	10.93	-47.6	-48.9	15.1	0.00e+00	0	23	0	1112539136	60	4408
2026-01-11 15:12:40.01	283.96	10.95	-47.4	-48.6	15.2	0.00e+00	0	23	0	1117782016	60	4287
2026-01-11 15:12:41.02	284.15	10.96	-47.5	-48.7	15.2	0.00e+00	0	23	0	1124073472	60	4325
2026-01-11 15:12:42.03	284.33	10.97	-47.6	-48.9	15.1	0.00e+00	0	23	0	1129316352	60	4394
2026-01-11 15:12:43.04	284.52	10.98	-47.5	-48.7	15.2	0.00e+00	0	23	0	1134559232	60	4316
2026-01-11 15:12:44.04	284.70	11.00	-47.5	-48.7	15.2	0.00e+00	0	23	0	1140850688	60	4316
2026-01-11 15:12:45.05	284.89	11.01	-47.4	-48.7	15.2	0.00e+00	0	23	0	1146093568	60	4317
2026-01-11 15:12:46.06	285.07	11.02	-47.5	-48.8	15.2	0.00e+00	0	23	0	1152385024	60	4353
2026-01-11 15:12:47.07	285.26	11.03	-47.5	-48.8	15.2	0.00e+00	0	23	0	1157627904	60	4364
2026-01-11 15:12:48.07	285.44	11.04	-47.5	-48.8	15.2	0.00e+00	0	23	0	1162870784	60	4366
2026-01-11 15:12:49.08	285.63	11.05	-47.6	-48.8	15.1	0.00e+00	0	23	0	1169162240	60	4376
2026-01-11 15:12:50.09	285.81	11.06	-47.5	-48.8	15.2	0.00e+00	0	23	0	1174405120	60	4370
2026-01-11 15:12:51.10	286.00	11.08	-47.6	-48.9	15.1	0.00e+00	0	23	0	1179648000	60	4399
2026-01-11 15:12:52.11	286.19	11.09	-47.7	-49.0	15.1	0.00e+00	0	23	0	1185939456	60	4457
2026-01-11 15:12:53.12	286.37	11.10	-47.6	-48.9	15.2	0.00e+00	0	23	0	1191182336	60	4393
2026-01-11 15:12:54.12	286.56	11.11	-47.6	-48.8	15.2	0.00e+00	0	23	0	1197473792	60	4386
2026-01-11 15:12:55.13	286.75	11.11	-47.6	-48.8	15.2	0.00e+00	0	23	0	1202716672	60	4370
2026-01-11 15:12:56.14	286.93	11.12	-47.5	-48.8	15.2	0.00e+00	0	23	0	1209008128	60	4363
2026-01-11 15:12:57.15	287.12	11.13	-47.6	-48.9	15.2	0.00e+00	0	23	0	1214251008	60	4402
2026-01-11 15:12:58.16	287.31	11.14	-47.5	-48.7	15.2	0.00e+00	0	23	0	1220542464	60	4338
2026-01-11 15:12:59.16	287.49	11.15	-47.5	-48.8	15.2	0.00e+00	0	23	0	1225785344	60	4352
2026-01-11 15:13:00.17	287.68	11.16	-47.5	-48.8	15.2	0.00e+00	0	23	0	1231028224	60	4358
2026-01-11 15:13:01.18	287.87	11.17	-47.6	-48.9	15.2	0.00e+00	0	23	0	1237319680	60	4393
2026-01-11 15:13:02.19	288.06	11.17	-47.5	-48.8	15.2	0.00e+00	0	23	0	1242562560	60	4352
2026-01-11 15:13:03.20	288.24	11.18	-47.5	-48.8	15.2	0.00e+00	0	23	0	1247805440	60	4352
2026-01-11 15:13:04.21	288.43	11.19	-47.5	-48.7	15.2	0.00e+00	0	23	0	1254096896	60	4323
2026-01-11 15:13:05.22	288.62	11.20	-47.4	-48.6	15.3	0.00e+00	0	23	0	1259339776	60	4274
2026-01-11 15:13:06.22	288.80	11.20	-47.4	-48.7	15.2	0.00e+00	0	23	0	1265631232	60	4300
2026-01-11 15:13:07.23	288.99	11.21	-47.5	-48.7	15.2	0.00e+00	0	23	0	1270874112	60	4337
2026-01-11 15:13:08.24	289.18	11.21	-47.4	-48.6	15.2	0.00e+00	0	23	0	1276116992	60	4287
2026-01-11 15:13:09.25	289.37	11.22	-47.4	-48.6	15.3	0.00e+00	0	23	0	1282408448	60	4277
2026-01-11 15:13:10.25	289.56	11.23	-47.5	-48.7	15.2	0.00e+00	0	23	0	1287651328	60	4303
2026-01-11 15:13:11.25	289.74	11.23	-47.5	-48.8	15.2	0.00e+00	0	23	0	1293942784	60	4351
2026-01-11 15:13:12.26	289.93	11.24	-47.6	-48.9	15.1	0.00e+00	0	23	0	1299185664	60	4396
2026-01-11 15:13:13.27	290.12	11.24	-47.7	-49.0	15.1	0.00e+00	0	23	0	1305477120	60	4445
2026-01-11 15:13:14.28	290.31	11.24	-47.6	-48.9	15.1	0.00e+00	0	23	0	1310720000	60	4399
2026-01-11 15:13:15.29	290.50	11.25	-47.7	-48.9	15.1	0.00e+00	0	23	0	1315962880	60	4438
2026-01-11 15:13:16.30	290.68	11.25	-47.7	-48.9	15.1	0.00e+00	0	23	0	1322254336	60	4438
2026-01-11 15:13:17.31	290.87	11.26	-47.6	-48.9	15.1	0.00e+00	0	23	0	1327497216	60	4400
2026-01-11 15:13:18.32	291.06	11.26	-47.5	-48.7	15.2	0.00e+00	0	23	0	1333788672	60	4339
2026-01-11 15:13:19.33	291.25	11.26	-47.5	-48.7	15.2	0.00e+00	0	23	0	1339031552	60	4317
2026-01-11 15:13:20.34	291.44	11.26	-47.5	-48.8	15.2	0.00e+00	0	23	0	1344274432	60	4343
2026-01-11 15:13:21.34	291.63	11.27	-47.4	-48.7	15.2	0.00e+00	0	23	0	1350565888	60	4304
2026-01-11 15:13:22.35	291.82	11.27	-47.6	-48.8	15.2	0.00e+00	0	23	0	1355808768	60	4358
2026-01-11 15:13:23.36	292.00	11.27	-47.6	-48.9	15.1	0.00e+00	0	23	0	1362100224	60	4406
2026-01-11 15:13:24.37	292.19	11.27	-47.7	-48.9	15.1	0.00e+00	0	23	0	1367343104	60	4424
2026-01-11 15:13:25.38	292.38	11.27	-47.7	-48.9	15.1	0.00e+00	0	23	0	1372585984	60	4423
2026-01-11 15:13:26.39	292.57	11.28	-47.8	-49.1	15.0	0.00e+00	0	23	0	1378877440	60	4514
2026-01-11 15:13:27.40	292.76	11.28	-47.8	-49.0	15.1	0.00e+00	0	23	0	1384120320	60	4493
2026-01-11 15:13:28.41	292.95	11.28	-47.5	-48.8	15.2	0.00e+00	0	23	0	1390411776	60	4354
2026-01-11 15:13:29.41	293.14	11.28	-47.6	-48.8	15.2	0.00e+00	0	23	0	1395654656	60	4379
2026-01-11 15:13:30.42	293.32	11.28	-47.5	-48.8	15.2	0.00e+00	0	23	0	1401946112	60	4357
2026-01-11 15:13:31.43	293.51	11.28	-47.5	-48.8	15.2	0.00e+00	0	23	0	1407188992	60	4366
2026-01-11 15:13:32.44	293.70	11.28	-47.5	-48.8	15.2	0.00e+00	0	23	0	1412431872	60	4342
2026-01-11 15:13:33.45	293.89	11.28	-47.5	-48.7	15.2	0.00e+00	0	23	0	1418723328	60	4331
2026-01-11 15:13:34.46	294.08	11.27	-47.5	-48.8	15.2	0.00e+00	0	23	0	1423966208	60	4349
2026-01-11 15:13:35.46	294.27	11.27	-47.4	-48.7	15.2	0.00e+00	0	23	0	1430257664	60	4300
2026-01-11 15:13:36.47	294.46	11.27	-47.6	-48.9	15.1	0.00e+00	0	23	0	1435500544	60	4405
2026-01-11 15:13:37.48	294.64	11.27	-47.6	-48.9	15.1	0.00e+00	0	23	0	1440743424	60	4407
2026-01-11 15:13:38.49	294.83	11.27	-47.6	-48.9	15.1	0.00e+00	0	23	0	1447034880	60	4409
2026-01-11 15:13:39.50	295.02	11.26	-47.7	-48.9	15.1	0.00e+00	0	23	0	1452277760	60	4424
2026-01-11 15:13:40.50	295.21	11.26	-47.7	-48.9	15.1	0.00e+00	0	23	0	1458569216	60	4436
2026-01-11 15:13:41.51	295.40	11.26	-47.6	-48.9	15.1	0.00e+00	0	23	0	1463812096	60	4419
2026-01-11 15:13:42.52	295.59	11.26	-47.7	-48.9	15.1	0.00e+00	0	23	0	1469054976	60	4433
2026-01-11 15:13:43.53	295.77	11.25	-47.6	-48.8	15.2	0.00e+00	0	23	0	1475346432	60	4390
2026-01-11 15:13:44.54	295.96	11.25	-47.6	-48.9	15.1	0.00e+00	0	23	0	1480589312	60	4418
2026-01-11 15:13:45.55	296.15	11.24	-47.6	-48.9	15.1	0.00e+00	0	23	0	1486880768	60	4398
2026-01-11 15:13:46.56	296.34	11.24	-47.6	-48.8	15.1	0.00e+00	0	23	0	1492123648	60	4391
2026-01-11 15:13:47.56	296.53	11.23	-47.5	-48.8	15.2	0.00e+00	0	23	0	1498415104	60	4351
2026-01-11 15:13:48.57	296.71	11.23	-47.6	-48.8	15.1	0.00e+00	0	23	0	1503657984	60	4372
2026-01-11 15:13:49.58	296.90	11.22	-47.5	-48.8	15.2	0.00e+00	0	23	0	1508900864	60	4351
2026-01-11 15:13:50.59	297.09	11.22	-47.5	-48.7	15.2	0.00e+00	0	23	0	1515192320	60	4339
2026-01-11 15:13:51.60	297.28	11.21	-47.6	-48.9	15.1	0.00e+00	0	23	0	1520435200	60	4393
2026-01-11 15:13:52.60	297.46	11.21	-47.6	-48.9	15.1	0.00e+00	0	23	0	1526726656	60	4412
2026-01-11 15:13:53.61	297.65	11.20	-47.7	-48.9	15.1	0.00e+00	0	23	0	1531969536	60	4429
2026-01-11 15:13:54.61	297.84	11.19	-47.7	-48.9	15.1	0.00e+00	0	23	0	1537212416	60	4423
2026-01-11 15:13:55.62	298.03	11.19	-47.6	-48.8	15.2	0.00e+00	0	23	0	1543503872	60	4380
2026-01-11 15:13:56.63	298.21	11.18	-47.5	-48.8	15.1	0.00e+00	0	23	0	1548746752	60	4368
2026-01-11 15:13:57.64	298.40	11.17	-47.6	-48.8	15.1	0.00e+00	0	23	0	1553989632	60	4367
2026-01-11 15:13:58.65	298.59	11.16	-47.5	-48.8	15.2	0.00e+00	0	23	0	1560281088	60	4357
2026-01-11 15:13:59.66	298.78	11.16	-47.6	-48.8	15.1	0.00e+00	0	23	0	1565523968	60	4383
2026-01-11 15:14:00.67	298.96	11.15	-47.5	-48.7	15.2	0.00e+00	0	23	0	1571815424	60	4336
2026-01-11 15:14:01.68	299.15	11.14	-47.7	-49.0	15.1	0.00e+00	0	23	0	1577058304	60	4477
2026-01-11 15:14:02.69	299.34	11.13	-47.7	-49.0	15.1	0.00e+00	0	23	0	1583349760	60	4488
2026-01-11 15:14:03.70	299.52	11.12	-47.9	-49.2	15.0	0.00e+00	0	23	0	1588592640	60	4575
2026-01-11 15:14:04.71	299.71	11.11	-47.9	-49.2	15.1	0.00e+00	0	23	0	1594884096	61	4310
2026-01-11 15:14:05.71	299.90	11.10	-47.8	-49.1	15.1	0.00e+00	0	23	0	1600126976	61	4275
2026-01-11 15:14:06.73	300.08	11.09	-47.8	-49.1	15.2	0.00e+00	0	23	0	1605369856	61	4257
2026-01-11 15:14:07.74	300.27	11.08	-47.8	-49.1	15.1	0.00e+00	0	23	0	1611661312	61	4281
2026-01-11 15:14:08.74	300.46	11.07	-47.8	-49.1	15.2	0.00e+00	0	23	0	1616904192	61	4248
2026-01-11 15:14:09.75	300.64	11.06	-47.7	-49.0	15.2	0.00e+00	0	23	0	1623195648	61	4211
2026-01-11 15:14:10.76	300.83	11.05	-47.8	-49.0	15.2	0.00e+00	0	23	0	1628438528	61	4239
2026-01-11 15:14:11.77	301.01	11.04	-47.7	-49.0	15.2	0.00e+00	0	23	0	1633681408	61	4205
2026-01-11 15:14:12.77	301.20	11.03	-47.7	-48.9	15.2	0.00e+00	0	23	0	1639972864	61	4186
2026-01-11 15:14:13.78	301.38	11.02	-47.6	-48.8	15.3	0.00e+00	0	23	0	1645215744	61	4138
2026-01-11 15:14:14.79	301.57	11.01	-47.5	-48.8	15.3	0.00e+00	0	23	0	1650458624	61	4104
2026-01-11 15:14:15.80	301.75	10.99	-47.6	-48.8	15.3	0.00e+00	0	23	0	1656750080	61	4145
2026-01-11 15:14:16.81	301.94	10.98	-47.6	-48.8	15.3	0.00e+00	0	23	0	1661992960	61	4124
2026-01-11 15:14:17.82	302.12	10.97	-47.6	-48.8	15.3	0.00e+00	0	23	0	1668284416	61	4130
2026-01-11 15:14:18.83	302.31	10.96	-47.5	-48.8	15.3	0.00e+00	0	23	0	1673527296	61	4105
2026-01-11 15:14:19.84	302.49	10.94	-47.5	-48.7	15.3	0.00e+00	0	23	0	1679818752	61	4088
2026-01-11 15:14:20.85	302.68	10.93	-47.5	-48.7	15.3	0.00e+00	0	23	0	1685061632	61	4094
2026-01-11 15:14:21.86	302.86	10.92	-47.4	-48.6	15.4	0.00e+00	0	23	0	1691353088	61	4027
2026-01-11 15:14:22.87	303.05	10.90	-47.4	-48.6	15.4	0.00e+00	0	23	0	1696595968	61	4041
2026-01-11 15:14:23.88	303.23	10.89	-47.6	-48.8	15.3	0.00e+00	0	23	0	1701838848	61	4132
2026-01-11 15:14:24.89	303.42	10.87	-47.6	-48.9	15.2	0.00e+00	0	23	0	1708130304	61	4167
2026-01-11 15:14:25.89	303.60	10.86	-47.7	-49.0	15.2	0.00e+00	0	23	0	1713373184	61	4222
2026-01-11 15:14:26.91	303.78	10.84	-47.8	-49.1	15.2	0.00e+00	0	23	0	1719664640	61	4287
2026-01-11 15:14:27.91	303.96	10.83	-47.8	-49.1	15.1	0.00e+00	0	23	0	1724907520	61	4264
2026-01-11 15:14:28.92	304.15	10.81	-47.7	-49.0	15.2	0.00e+00	0	23	0	1730150400	61	4228
2026-01-11 15:14:29.93	304.33	10.80	-47.7	-49.0	15.2	0.00e+00	0	23	0	1736441856	61	4222
2026-01-11 15:14:30.93	304.51	10.78	-47.8	-49.0	15.2	0.00e+00	0	23	0	1741684736	61	4239
2026-01-11 15:14:31.95	304.70	10.77	-47.6	-48.9	15.2	0.00e+00	0	23	0	1746927616	61	4165
2026-01-11 15:14:32.95	304.88	10.75	-47.6	-48.8	15.3	0.00e+00	0	23	0	1753219072	61	4137
2026-01-11 15:14:33.96	305.06	10.73	-47.5	-48.8	15.3	0.00e+00	0	23	0	1758461952	61	4104
2026-01-11 15:14:34.97	305.24	10.72	-47.5	-48.8	15.3	0.00e+00	0	23	0	1764753408	61	4106
2026-01-11 15:14:35.98	305.42	10.70	-47.6	-48.9	15.2	0.00e+00	0	23	0	1769996288	61	4163
2026-01-11 15:14:36.99	305.60	10.68	-47.7	-48.9	15.2	0.00e+00	0	23	0	1776287744	61	4176
2026-01-11 15:14:38.00	305.78	10.66	-47.7	-48.9	15.2	0.00e+00	0	23	0	1781530624	61	4186
2026-01-11 15:14:39.01	305.97	10.65	-47.6	-48.8	15.3	0.00e+00	0	23	0	1787822080	61	4124
2026-01-11 15:14:40.02	306.15	10.63	-47.6	-48.8	15.3	0.00e+00	0	23	0	1793064960	61	4140
2026-01-11 15:14:41.02	306.33	10.61	-47.6	-48.8	15.3	0.00e+00	0	23	0	1798307840	61	4125
2026-01-11 15:14:42.04	306.51	10.59	-47.7	-48.9	15.2	0.00e+00	0	23	0	1804599296	61	4193
2026-01-11 15:14:43.04	306.69	10.57	-47.6	-48.9	15.2	0.00e+00	0	23	0	1809842176	61	4165
2026-01-11 15:14:44.05	306.87	10.55	-47.7	-49.0	15.2	0.00e+00	0	23	0	1816133632	61	4195
2026-01-11 15:14:45.06	307.05	10.53	-47.7	-49.0	15.2	0.00e+00	0	23	0	1821376512	61	4205
2026-01-11 15:14:46.07	307.22	10.51	-47.8	-49.0	15.2	0.00e+00	0	23	0	1826619392	61	4230
2026-01-11 15:14:47.08	307.40	10.49	-47.9	-49.2	15.1	0.00e+00	0	23	0	1832910848	61	4295
2026-01-11 15:14:48.09	307.58	10.47	-47.8	-49.0	15.2	0.00e+00	0	23	0	1838153728	61	4236
2026-01-11 15:14:49.10	307.76	10.45	-47.6	-48.9	15.2	0.00e+00	0	23	0	1843396608	61	4160
2026-01-11 15:14:50.10	307.94	10.43	-47.7	-48.9	15.2	0.00e+00	0	23	0	1849688064	61	4191
2026-01-11 15:14:51.11	308.12	10.41	-47.7	-49.0	15.2	0.00e+00	0	23	0	1854930944	61	4229
2026-01-11 15:14:52.12	308.30	10.39	-47.8	-49.1	15.1	0.00e+00	0	23	0	1861222400	61	4243
2026-01-11 15:14:53.13	308.47	10.37	-47.7	-49.0	15.2	0.00e+00	0	23	0	1866465280	61	4200
2026-01-11 15:14:54.14	308.65	10.35	-47.6	-48.9	15.2	0.00e+00	0	23	0	1872756736	61	4156
2026-01-11 15:14:55.14	308.83	10.33	-47.7	-48.9	15.2	0.00e+00	0	23	0	1877999616	61	4179
2026-01-11 15:14:56.15	309.00	10.31	-47.7	-48.9	15.2	0.00e+00	0	23	0	1883242496	61	4191
2026-01-11 15:14:57.16	309.18	10.28	-47.6	-48.8	15.3	0.00e+00	0	23	0	1889533952	61	4120
2026-01-11 15:14:58.16	309.35	10.26	-47.6	-48.9	15.2	0.00e+00	0	23	0	1894776832	61	4147
2026-01-11 15:14:59.18	309.53	10.24	-47.5	-48.8	15.3	0.00e+00	0	23	0	1901068288	61	4119
2026-01-11 15:15:00.19	309.71	10.22	-47.6	-48.8	15.3	0.00e+00	0	23	0	1906311168	61	4129
2026-01-11 15:15:01.20	309.88	10.19	-47.6	-48.9	15.2	0.00e+00	0	23	0	1911554048	61	4172
2026-01-11 15:15:02.21	310.06	10.17	-47.7	-48.9	15.2	0.00e+00	0	23	0	1917845504	61	4180
2026-01-11 15:15:03.22	310.24	10.15	-47.7	-49.0	15.2	0.00e+00	0	23	0	1923088384	61	4203
2026-01-11 15:15:04.23	310.41	10.12	-47.7	-48.9	15.2	0.00e+00	0	23	0	1929379840	61	4185
2026-01-11 15:15:05.24	310.58	10.10	-47.7	-49.0	15.2	0.00e+00	0	23	0	1934622720	61	4212
2026-01-11 15:15:06.25	310.76	10.08	-47.7	-49.0	15.1	0.00e+00	0	23	0	1939865600	61	4232
2026-01-11 15:15:07.25	310.93	10.05	-47.7	-49.0	15.1	0.00e+00	0	23	0	1946157056	61	4234
2026-01-11 15:15:08.26	311.11	10.03	-47.6	-48.9	15.2	0.00e+00	0	23	0	1951399936	61	4174
2026-01-11 15:15:09.26	311.28	10.00	-47.8	-49.0	15.1	0.00e+00	0	23	0	1957691392	61	4242
2026-01-11 15:15:10.27	311.45	9.98	-47.8	-49.1	15.1	0.00e+00	0	23	0	1962934272	61	4251
2026-01-11 15:15:11.27	311.62	9.95	-47.7	-49.0	15.1	0.00e+00	0	23	0	1969225728	61	4235
2026-01-11 15:15:12.28	311.79	9.93	-47.8	-49.1	15.1	0.00e+00	0	23	0	1974468608	61	4243
2026-01-11 15:15:13.29	311.97	9.90	-47.7	-49.0	15.2	0.00e+00	0	23	0	1979711488	61	4233
2026-01-11 15:15:14.30	312.14	9.88	-47.7	-49.0	15.2	0.00e+00	0	23	0	1986002944	61	4218
2026-01-11 15:15:15.31	312.31	9.85	-47.7	-49.0	15.2	0.00e+00	0	23	0	1991245824	61	4200
2026-01-11 15:15:16.32	312.48	9.83	-47.8	-49.1	15.1	0.00e+00	0	23	0	1997537280	61	4250
2026-01-11 15:15:17.32	312.65	9.80	-47.9	-49.1	15.1	0.00e+00	0	23	0	2002780160	61	4286
2026-01-11 15:15:18.33	312.82	9.77	-47.9	-49.2	15.1	0.00e+00	0	23	0	2008023040	61	4307
2026-01-11 15:15:19.34	312.99	9.75	-48.0	-49.3	15.0	0.00e+00	0	23	0	2014314496	61	4387
2026-01-11 15:15:20.34	313.16	9.72	-48.0	-49.4	15.0	0.00e+00	0	23	0	2019557376	61	4404
2026-01-11 15:15:21.35	313.33	9.70	-48.1	-49.4	14.9	0.00e+00	0	23	0	2025848832	61	4430
2026-01-11 15:15:22.36	313.50	9.67	-47.9	-49.2	15.0	0.00e+00	0	23	0	2031091712	61	4338
2026-01-11 15:15:23.37	313.67	9.64	-47.9	-49.2	15.0	0.00e+00	0	23	0	2036334592	61	4325
2026-01-11 15:15:24.38	313.84	9.61	-47.9	-49.2	15.1	0.00e+00	0	23	0	2042626048	61	4301
2026-01-11 15:15:25.39	314.01	9.59	-48.0	-49.3	15.0	0.00e+00	0	23	0	2047868928	61	4362
2026-01-11 15:15:26.40	314.18	9.56	-48.0	-49.3	15.0	0.00e+00	0	23	0	2054160384	61	4382
2026-01-11 15:15:27.41	314.35	9.53	-47.9	-49.2	15.0	0.00e+00	0	23	0	2059403264	61	4321
2026-01-11 15:15:28.41	314.51	9.50	-47.9	-49.2	15.0	0.00e+00	0	23	0	2065694720	61	4327
2026-01-11 15:15:29.42	314.68	9.47	-47.9	-49.2	15.0	0.00e+00	0	23	0	2070937600	61	4330
2026-01-11 15:15:30.43	314.85	9.45	-47.9	-49.2	15.0	0.00e+00	0	23	0	2076180480	61	4339
2026-01-11 15:15:31.43	315.01	9.42	-47.9	-49.2	15.1	0.00e+00	0	23	0	2082471936	61	4307
2026-01-11 15:15:32.45	315.18	9.39	-48.0	-49.3	15.0	0.00e+00	0	23	0	2087714816	61	4372
2026-01-11 15:15:33.46	315.35	9.36	-47.9	-49.2	15.0	0.00e+00	0	23	0	2094006272	61	4314
2026-01-11 15:15:34.46	315.51	9.33	-47.8	-49.1	15.1	0.00e+00	0	23	0	2099249152	61	4260
2026-01-11 15:15:35.47	315.68	9.30	-47.9	-49.2	15.0	0.00e+00	0	23	0	2104492032	61	4296
2026-01-11 15:15:36.48	315.84	9.27	-47.7	-49.0	15.1	0.00e+00	0	23	0	2110783488	61	4214
2026-01-11 15:15:37.49	316.01	9.24	-47.9	-49.2	15.1	0.00e+00	0	23	0	2116026368	61	4304
2026-01-11 15:15:38.50	316.17	9.21	-47.9	-49.2	15.0	0.00e+00	0	23	0	2121269248	61	4339
2026-01-11 15:15:39.51	316.34	9.18	-48.0	-49.3	15.0	0.00e+00	0	23	0	2127560704	61	4377
2026-01-11 15:15:40.52	316.50	9.15	-47.9	-49.2	15.0	0.00e+00	0	23	0	2132803584	61	4303
2026-01-11 15:15:41.53	316.66	9.12	-47.9	-49.3	15.0	0.00e+00	0	23	0	2139095040	61	4345
2026-01-11 15:15:42.54	316.83	9.09	-47.9	-49.2	15.0	0.00e+00	0	23	0	2144337920	61	4319
2026-01-11 15:15:43.55	316.99	9.06	-47.9	-49.2	15.0	0.00e+00	0	23	0	2150629376	61	4325
2026-01-11 15:15:44.55	317.15	9.03	-48.0	-49.3	15.0	0.00e+00	0	23	0	2155872256	61	4376
2026-01-11 15:15:45.56	317.31	9.00	-48.0	-49.3	15.0	0.00e+00	0	23	0	2162163712	61	4363
2026-01-11 15:15:46.57	317.47	8.97	-48.0	-49.3	15.0	0.00e+00	0	23	0	2167406592	61	4381
2026-01-11 15:15:47.58	317.64	8.93	-47.9	-49.2	15.0	0.00e+00	0	23	0	2172649472	61	4320
2026-01-11 15:15:48.59	317.80	8.90	-47.9	-49.3	15.0	0.00e+00	0	23	0	2178940928	61	4341
2026-01-11 15:15:49.60	317.96	8.87	-48.0	-49.3	15.0	0.00e+00	0	23	0	2184183808	61	4372
2026-01-11 15:15:50.61	318.12	8.84	-48.0	-49.4	15.0	0.00e+00	0	23	0	2190475264	61	4392
2026-01-11 15:15:51.61	318.28	8.81	-48.0	-49.4	15.0	0.00e+00	0	23	0	2195718144	61	4394
2026-01-11 15:15:52.62	318.44	8.78	-48.2	-49.5	14.9	0.00e+00	0	23	0	2200961024	61	4478
2026-01-11 15:15:53.63	318.60	8.74	-48.2	-49.5	14.9	0.00e+00	0	23	0	2207252480	61	4479
2026-01-11 15:15:54.64	318.76	8.71	-48.2	-49.6	14.9	0.00e+00	0	23	0	2212495360	61	4501
2026-01-11 15:15:55.65	318.92	8.68	-48.2	-49.6	14.9	0.00e+00	0	23	0	2217738240	61	4503
2026-01-11 15:15:56.66	319.07	8.65	-48.0	-49.3	15.0	0.00e+00	0	23	0	2224029696	61	4379
2026-01-11 15:15:57.67	319.23	8.61	-47.9	-49.3	15.0	0.00e+00	0	23	0	2229272576	61	4341
2026-01-11 15:15:58.68	319.39	8.58	-48.1	-49.4	14.9	0.00e+00	0	23	0	2235564032	61	4420
2026-01-11 15:15:59.69	319.55	8.55	-48.0	-49.3	15.0	0.00e+00	0	23	0	2240806912	61	4359
2026-01-11 15:16:00.70	319.71	8.51	-47.9	-49.2	15.0	0.00e+00	0	23	0	2247098368	61	4302
2026-01-11 15:16:01.71	319.86	8.48	-48.0	-49.3	15.0	0.00e+00	0	23	0	2252341248	61	4351
2026-01-11 15:16:02.72	320.02	8.45	-48.0	-49.3	14.9	0.00e+00	0	23	0	2258632704	61	4391
2026-01-11 15:16:03.73	320.17	8.41	-48.1	-49.4	14.9	0.00e+00	0	23	0	2263875584	61	4436
2026-01-11 15:16:04.74	320.33	8.38	-48.1	-49.5	14.9	0.00e+00	0	23	0	2269118464	61	4458
2026-01-11 15:16:05.74	320.48	8.35	-48.0	-49.4	14.9	0.00e+00	0	23	0	2275409920	61	4416
2026-01-11 15:16:06.75	320.64	8.31	-48.0	-49.4	14.9	0.00e+00	0	23	0	2280652800	61	4427
2026-01-11 15:16:07.76	320.79	8.28	-48.1	-49.5	14.9	0.00e+00	0	23	0	2286944256	61	4448
2026-01-11 15:16:08.77	320.95	8.24	-48.1	-49.5	14.9	0.00e+00	0	23	0	2292187136	61	4470
2026-01-11 15:16:09.78	321.10	8.21	-48.2	-49.6	14.8	0.00e+00	0	23	0	2297430016	61	4502
2026-01-11 15:16:10.79	321.26	8.17	-48.1	-49.5	14.9	0.00e+00	0	23	0	2303721472	61	4473
2026-01-11 15:16:11.79	321.41	8.14	-48.2	-49.6	14.8	0.00e+00	0	23	0	2308964352	61	4536
2026-01-11 15:16:12.80	321.56	8.10	-48.4	-49.7	14.7	0.00e+00	0	23	0	2315255808	61	4598
2026-01-11 15:16:13.81	321.71	8.07	-48.2	-49.6	14.8	0.00e+00	0	23	0	2320498688	61	4511
2026-01-11 15:16:14.82	321.87	8.03	-48.2	-49.5	14.8	0.00e+00	0	23	0	2325741568	61	4489
2026-01-11 15:16:15.83	322.02	8.00	-48.2	-49.5	14.8	0.00e+00	0	23	0	2332033024	61	4488
2026-01-11 15:16:16.84	322.17	7.96	-48.3	-49.7	14.7	0.00e+00	0	23	0	2337275904	61	4584
2026-01-11 15:16:17.85	322.32	7.93	-48.3	-49.7	14.7	0.00e+00	0	23	0	2343567360	61	4565
2026-01-11 15:16:18.86	322.47	7.89	-48.2	-49.6	14.8	0.00e+00	0	23	0	2348810240	61	4522
2026-01-11 15:16:19.87	322.62	7.86	-48.2	-49.6	14.8	0.00e+00	0	23	0	2355101696	61	4516
2026-01-11 15:16:20.88	322.77	7.82	-48.2	-49.6	14.8	0.00e+00	0	23	0	2360344576	61	4501
2026-01-11 15:16:21.89	322.92	7.79	-48.2	-49.6	14.8	0.00e+00	0	23	0	2365587456	61	4504
2026-01-11 15:16:22.90	323.07	7.75	-48.2	-49.5	14.8	0.00e+00	0	23	0	2371878912	61	4493
2026-01-11 15:16:23.91	323.22	7.71	-48.2	-49.6	14.8	0.00e+00	0	23	0	2377121792	61	4502
2026-01-11 15:16:24.92	323.37	7.68	-48.2	-49.6	14.8	0.00e+00	0	23	0	2383413248	61	4528
2026-01-11 15:16:25.93	323.52	7.64	-48.2	-49.6	14.8	0.00e+00	0	23	0	2388656128	61	4528
2026-01-11 15:16:26.94	323.67	7.60	-48.2	-49.5	14.8	0.00e+00	0	23	0	2393899008	61	4479
2026-01-11 15:16:27.95	323.81	7.57	-48.2	-49.5	14.8	0.00e+00	0	23	0	2400190464	61	4481
2026-01-11 15:16:28.96	323.96	7.53	-48.3	-49.7	14.8	0.00e+00	0	23	0	2405433344	61	4552
2026-01-11 15:16:29.96	324.11	7.49	-48.2	-49.5	14.8	0.00e+00	0	23	0	2411724800	61	4486
2026-01-11 15:16:30.97	324.25	7.46	-48.2	-49.6	14.8	0.00e+00	0	23	0	2416967680	61	4500
2026-01-11 15:16:31.98	324.40	7.42	-48.2	-49.5	14.8	0.00e+00	0	23	0	2422210560	61	4470
2026-01-11 15:16:32.99	324.54	7.38	-48.3	-49.6	14.7	0.00e+00	0	23	0	2428502016	61	4542
2026-01-11 15:16:34.00	324.69	7.35	-48.2	-49.6	14.8	0.00e+00	0	23	0	2433744896	61	4523
2026-01-11 15:16:35.01	324.84	7.31	-48.4	-49.7	14.7	0.00e+00	0	23	0	2440036352	61	4594
2026-01-11 15:16:36.02	324.98	7.27	-48.3	-49.7	14.7	0.00e+00	0	23	0	2445279232	61	4572
2026-01-11 15:16:37.03	325.12	7.23	-48.3	-49.7	14.7	0.00e+00	0	23	0	2451570688	61	4572
2026-01-11 15:16:38.04	325.27	7.20	-48.5	-49.9	14.8	0.00e+00	0	23	0	2456813568	62	4418
2026-01-11 15:16:39.05	325.41	7.16	-48.5	-49.9	14.8	0.00e+00	0	23	0	2462056448	62	4410
2026-01-11 15:16:40.05	325.55	7.12	-48.5	-49.9	14.8	0.00e+00	0	23	0	2468347904	62	4431
2026-01-11 15:16:41.06	325.70	7.08	-48.7	-50.1	14.6	0.00e+00	0	23	0	2473590784	62	4520
2026-01-11 15:16:42.07	325.84	7.05	-48.6	-50.0	14.7	0.00e+00	0	23	0	2479882240	62	4481
2026-01-11 15:16:43.08	325.98	7.01	-48.6	-50.1	14.7	0.00e+00	0	23	0	2485125120	62	4500
2026-01-11 15:16:44.09	326.12	6.97	-48.7	-50.2	14.6	0.00e+00	0	23	0	2490368000	62	4554
2026-01-11 15:16:45.10	326.27	6.93	-48.7	-50.1	14.6	0.00e+00	0	23	0	2496659456	62	4520
2026-01-11 15:16:46.11	326.41	6.89	-48.7	-50.1	14.6	0.00e+00	0	23	0	2501902336	62	4513
2026-01-11 15:16:47.11	326.55	6.85	-48.5	-49.9	14.7	0.00e+00	0	23	0	2508193792	62	4428
2026-01-11 15:16:48.12	326.69	6.82	-48.4	-49.8	14.8	0.00e+00	0	23	0	2513436672	62	4360
2026-01-11 15:16:49.13	326.83	6.78	-48.4	-49.8	14.8	0.00e+00	0	23	0	2518679552	62	4371
2026-01-11 15:16:50.14	326.97	6.74	-48.6	-50.1	14.7	0.00e+00	0	23	0	2524971008	62	4503
2026-01-11 15:16:51.15	327.11	6.70	-48.6	-50.1	14.6	0.00e+00	0	23	0	2530213888	62	4497
2026-01-11 15:16:52.16	327.24	6.66	-48.8	-50.2	14.6	0.00e+00	0	23	0	2536505344	62	4583
2026-01-11 15:16:53.17	327.38	6.62	-48.7	-50.2	14.6	0.00e+00	0	23	0	2541748224	62	4550
2026-01-11 15:16:54.18	327.52	6.58	-48.8	-50.2	14.6	0.00e+00	0	23	0	2548039680	62	4573
2026-01-11 15:16:55.18	327.66	6.54	-48.8	-50.2	14.6	0.00e+00	0	23	0	2553282560	62	4584
2026-01-11 15:16:56.19	327.80	6.51	-48.8	-50.3	14.5	0.00e+00	0	23	0	2558525440	62	4624
2026-01-11 15:16:57.19	327.93	6.47	-49.1	-50.6	14.5	0.00e+00	0	23	0	2564816896	63	4535
2026-01-11 15:16:58.20	328.07	6.43	-49.0	-50.5	14.6	0.00e+00	0	23	0	2570059776	63	4453
2026-01-11 15:16:59.21	328.21	6.39	-48.7	-50.2	14.7	0.00e+00	0	23	0	2576351232	63	4317
2026-01-11 15:17:00.22	328.34	6.35	-48.8	-50.3	14.7	0.00e+00	0	23	0	2581594112	63	4375
2026-01-11 15:17:01.23	328.48	6.31	-48.9	-50.4	14.6	0.00e+00	0	23	0	2586836992	63	4426
2026-01-11 15:17:02.24	328.61	6.27	-48.7	-50.2	14.7	0.00e+00	0	23	0	2593128448	63	4304
2026-01-11 15:17:03.25	328.75	6.23	-48.8	-50.3	14.7	0.00e+00	0	23	0	2598371328	63	4360
2026-01-11 15:17:04.26	328.88	6.19	-48.8	-50.3	14.6	0.00e+00	0	23	0	2604662784	63	4366
2026-01-11 15:17:05.26	329.02	6.15	-48.6	-50.0	14.8	0.00e+00	0	23	0	2609905664	63	4215
2026-01-11 15:17:06.27	329.15	6.11	-48.7	-50.1	14.8	0.00e+00	0	23	0	2615148544	63	4284
2026-01-11 15:17:07.28	329.28	6.07	-48.9	-50.3	14.6	0.00e+00	0	23	0	2621440000	63	4364
2026-01-11 15:17:08.29	329.42	6.03	-48.8	-50.2	14.7	0.00e+00	0	23	0	2626682880	63	4336
2026-01-11 15:17:09.30	329.55	5.99	-48.8	-50.3	14.7	0.00e+00	0	23	0	2632974336	63	4353
2026-01-11 15:17:10.31	329.68	5.95	-49.0	-50.4	14.6	0.00e+00	0	23	0	2638217216	63	4428
2026-01-11 15:17:11.32	329.82	5.91	-48.7	-50.2	14.7	0.00e+00	0	23	0	2644508672	63	4295
2026-01-11 15:17:12.32	329.95	5.87	-48.7	-50.1	14.7	0.00e+00	0	23	0	2649751552	63	4278
2026-01-11 15:17:13.33	330.08	5.83	-49.0	-50.4	14.6	0.00e+00	0	23	0	2654994432	63	4420
2026-01-11 15:17:14.34	330.21	5.79	-49.0	-50.4	14.5	0.00e+00	0	23	0	2661285888	63	4430
2026-01-11 15:17:15.35	330.34	5.75	-48.9	-50.4	14.5	0.00e+00	0	23	0	2666528768	63	4415
2026-01-11 15:17:16.36	330.47	5.71	-49.1	-50.7	14.4	0.00e+00	0	23	0	2672820224	63	4551
2026-01-11 15:17:17.37	330.60	5.67	-49.1	-50.6	14.4	0.00e+00	0	23	0	2678063104	63	4527
2026-01-11 15:17:18.38	330.73	5.63	-48.9	-50.4	14.6	0.00e+00	0	23	0	2683305984	63	4433
2026-01-11 15:17:19.38	330.86	5.59	-48.9	-50.4	14.6	0.00e+00	0	23	0	2689597440	63	4415
2026-01-11 15:17:20.39	330.99	5.55	-49.1	-50.6	14.5	0.00e+00	0	23	0	2694840320	63	4515
2026-01-11 15:17:21.41	331.12	5.51	-49.2	-50.7	14.4	0.00e+00	0	23	0	2701131776	63	4580
2026-01-11 15:17:22.41	331.25	5.47	-49.2	-50.7	14.4	0.00e+00	0	23	0	2706374656	63	4594
2026-01-11 15:17:23.42	331.37	5.42	-49.1	-50.6	14.4	0.00e+00	0	23	0	2711617536	63	4532
2026-01-11 15:17:24.43	331.50	5.38	-48.9	-50.4	14.5	0.00e+00	0	23	0	2717908992	63	4439
2026-01-11 15:17:25.44	331.63	5.34	-49.0	-50.6	14.5	0.00e+00	0	23	0	2723151872	63	4508
2026-01-11 15:17:26.45	331.76	5.30	-49.1	-50.7	14.4	0.00e+00	0	23	0	2729443328	63	4570
2026-01-11 15:17:27.45	331.88	5.26	-49.0	-50.5	14.5	0.00e+00	0	23	0	2734686208	63	4473
2026-01-11 15:17:28.46	332.01	5.22	-49.1	-50.6	14.4	0.00e+00	0	23	0	2740977664	63	4500
2026-01-11 15:17:29.47	332.13	5.18	-49.1	-50.7	14.4	0.00e+00	0	23	0	2746220544	63	4549
2026-01-11 15:17:30.48	332.26	5.14	-48.8	-50.2	14.6	0.00e+00	0	23	0	2751463424	63	4333
2026-01-11 15:17:31.49	332.39	5.10	-48.5	-50.0	14.8	0.00e+00	0	23	0	2757754880	63	4199
2026-01-11 15:17:32.50	332.51	5.05	-48.7	-50.2	14.6	0.00e+00	0	23	0	2762997760	63	4306
2026-01-11 15:17:33.51	332.64	5.01	-51.1	-53.1	13.3	0.00e+00	0	23	0	2769289216	67	4785
2026-01-11 15:17:34.52	332.76	4.97	-57.9	-70.9	3.8	8.41e-01	0	23	104	2771386368	80	17607
2026-01-11 15:17:35.53	332.88	4.93	-58.4	-71.4	3.8	8.45e-01	0	23	104	2771386368	81	17488
2026-01-11 15:17:36.54	333.01	4.89	-58.7	-71.7	3.8	8.45e-01	0	23	104	2771386368	82	17159
2026-01-11 15:17:37.54	333.13	4.85	-58.9	-71.9	3.8	8.45e-01	0	23	104	2771386368	82	17508
2026-01-11 15:17:38.55	333.25	4.81	-59.0	-72.1	3.8	8.45e-01	0	23	104	2771386368	83	16926
2026-01-11 15:17:39.56	333.38	4.76	-59.2	-72.2	3.8	8.46e-01	0	23	104	2771386368	83	17144
2026-01-11 15:17:40.57	333.50	4.72	-59.2	-72.3	3.8	8.45e-01	0	23	104	2771386368	83	17438
2026-01-11 15:17:41.58	333.62	4.68	-59.4	-72.4	3.8	8.46e-01	0	23	104	2771386368	83	17575
2026-01-11 15:17:42.59	333.74	4.64	-59.4	-72.5	3.8	8.46e-01	0	23	104	2771386368	83	17691
2026-01-11 15:17:43.59	333.86	4.60	-59.7	-72.7	3.8	8.46e-01	0	23	104	2771386368	84	17236
2026-01-11 15:17:44.60	333.98	4.56	-59.7	-72.8	3.8	8.46e-01	0	23	104	2771386368	84	17327
2026-01-11 15:17:45.62	334.11	4.51	-59.7	-72.8	3.8	8.45e-01	0	23	104	2771386368	84	17328
2026-01-11 15:17:46.62	334.22	4.47	-59.8	-72.8	3.8	8.46e-01	0	23	104	2771386368	84	17443
2026-01-11 15:17:47.63	334.34	4.43	-59.8	-72.8	3.8	8.45e-01	0	23	104	2771386368	84	17390
2026-01-11 15:17:48.64	334.46	4.39	-59.8	-72.8	3.8	8.45e-01	0	23	104	2771386368	84	17456
2026-01-11 15:17:49.65	334.58	4.35	-59.8	-72.9	3.8	8.45e-01	0	23	104	2771386368	84	17486
2026-01-11 15:17:50.66	334.70	4.30	-59.8	-72.9	3.8	8.47e-01	0	23	104	2771386368	84	17496
2026-01-11 15:17:51.67	334.82	4.26	-59.8	-72.9	3.8	8.46e-01	0	23	104	2771386368	84	17563
2026-01-11 15:17:52.67	334.94	4.22	-59.8	-72.9	3.8	8.45e-01	0	23	104	2771386368	84	17596
2026-01-11 15:17:53.68	335.06	4.18	-59.8	-72.9	3.8	8.46e-01	0	23	104	2771386368	84	17612
2026-01-11 15:17:54.69	335.17	4.14	-59.9	-72.9	3.8	8.44e-01	0	23	104	2771386368	84	17664
2026-01-11 15:17:55.70	335.29	4.09	-59.8	-72.9	3.8	8.46e-01	0	23	104	2771386368	84	17600
2026-01-11 15:17:56.71	335.41	4.05	-59.8	-72.8	3.8	8.45e-01	0	23	104	2771386368	84	17481
2026-01-11 15:17:57.72	335.53	4.01	-59.8	-72.8	3.8	8.47e-01	0	23	104	2771386368	84	17430
2026-01-11 15:17:58.73	335.64	3.97	-59.8	-72.8	3.8	8.46e-01	0	23	104	2771386368	84	17405
2026-01-11 15:17:59.73	335.76	3.93	-59.7	-72.8	3.8	8.45e-01	0	23	104	2771386368	84	17374
2026-01-11 15:18:00.74	335.87	3.88	-59.7	-72.8	3.8	8.45e-01	0	23	104	2771386368	84	17383
2026-01-11 15:18:01.75	335.99	3.84	-59.7	-72.8	3.8	8.46e-01	0	23	104	2771386368	84	17354
2026-01-11 15:18:02.76	336.10	3.80	-59.7	-72.8	3.8	8.45e-01	0	23	104	2771386368	84	17364
2026-01-11 15:18:03.77	336.22	3.76	-59.7	-72.7	3.8	8.46e-01	0	23	104	2771386368	84	17270
2026-01-11 15:18:04.78	336.33	3.71	-59.7	-72.7	3.8	8.45e-01	0	23	104	2771386368	84	17255
2026-01-11 15:18:05.78	336.45	3.67	-59.7	-72.8	3.8	8.45e-01	0	23	104	2771386368	84	17314
2026-01-11 15:18:06.80	336.56	3.63	-59.7	-72.7	3.8	8.46e-01	0	23	104	2771386368	84	17258
2026-01-11 15:18:07.80	336.67	3.59	-59.7	-72.7	3.8	8.46e-01	0	23	104	2771386368	84	17269
2026-01-11 15:18:08.81	336.79	3.54	-59.7	-72.8	3.8	8.46e-01	0	23	104	2771386368	84	17283
2026-01-11 15:18:09.83	336.90	3.50	-59.7	-72.7	3.8	8.46e-01	0	23	104	2771386368	84	17202
2026-01-11 15:18:10.83	337.01	3.46	-59.7	-72.7	3.8	8.46e-01	0	23	104	2771386368	84	17164
2026-01-11 15:18:11.84	337.13	3.42	-59.7	-72.7	3.8	8.46e-01	0	23	104	2771386368	84	17178
2026-01-11 15:18:12.85	337.24	3.37	-59.7	-72.7	3.8	8.46e-01	0	23	104	2771386368	84	17193
2026-01-11 15:18:13.86	337.35	3.33	-59.6	-72.7	3.8	8.45e-01	0	23	104	2771386368	84	17141
2026-01-11 15:18:14.87	337.46	3.29	-59.6	-72.7	3.8	8.45e-01	0	23	104	2771386368	84	17085
2026-01-11 15:18:15.88	337.57	3.25	-59.6	-72.7	3.8	8.47e-01	0	23	104	2771386368	84	17095
2026-01-11 15:18:16.89	337.68	3.20	-59.6	-72.6	3.8	8.45e-01	0	24	104	2771386368	84	17078
2026-01-11 15:18:17.90	337.79	3.16	-59.6	-72.7	3.8	8.45e-01	0	23	104	2771386368	84	17104
2026-01-11 15:18:18.91	337.90	3.12	-59.6	-72.7	3.8	8.45e-01	0	23	104	2771386368	84	17112
2026-01-11 15:18:19.91	338.01	3.08	-59.6	-72.7	3.8	8.45e-01	0	23	104	2771386368	84	17106
2026-01-11 15:18:20.93	338.12	3.03	-59.6	-72.7	3.8	8.46e-01	0	23	104	2771386368	84	17126
2026-01-11 15:18:21.93	338.23	2.99	-59.6	-72.7	3.8	8.46e-01	0	23	104	2771386368	84	17108
2026-01-11 15:18:22.94	338.34	2.95	-59.6	-72.6	3.8	8.46e-01	0	23	104	2771386368	84	17040
2026-01-11 15:18:23.95	338.45	2.90	-59.6	-72.7	3.8	8.45e-01	0	23	104	2771386368	84	17099
2026-01-11 15:18:24.96	338.56	2.86	-59.6	-72.6	3.8	8.46e-01	0	23	104	2771386368	84	17075
2026-01-11 15:18:25.97	338.67	2.82	-59.6	-72.6	3.8	8.46e-01	0	23	104	2771386368	84	17039
2026-01-11 15:18:26.98	338.77	2.78	-59.6	-72.7	3.8	8.46e-01	0	23	104	2771386368	84	17090
2026-01-11 15:18:27.99	338.88	2.73	-59.6	-72.6	3.8	8.45e-01	0	23	104	2771386368	84	17065
2026-01-11 15:18:28.99	338.99	2.69	-59.6	-72.6	3.8	8.45e-01	0	23	104	2771386368	84	17009
2026-01-11 15:18:30.00	339.10	2.65	-59.6	-72.6	3.8	8.45e-01	0	23	104	2771386368	84	17050
2026-01-11 15:18:31.01	339.20	2.60	-59.6	-72.6	3.8	8.45e-01	0	24	104	2771386368	84	17009
2026-01-11 15:18:32.01	339.31	2.56	-59.6	-72.6	3.8	8.46e-01	0	23	104	2771386368	84	17016
2026-01-11 15:18:33.03	339.41	2.52	-59.6	-72.6	3.8	8.46e-01	0	23	104	2771386368	84	17026
2026-01-11 15:18:34.04	339.52	2.48	-59.5	-72.6	3.8	8.46e-01	0	23	104	2771386368	84	16997
2026-01-11 15:18:35.04	339.62	2.43	-59.5	-72.6	3.8	8.45e-01	0	23	104	2771386368	84	16929
2026-01-11 15:18:36.05	339.73	2.39	-59.5	-72.6	3.8	8.45e-01	0	23	104	2771386368	84	16931
2026-01-11 15:18:37.06	339.83	2.35	-59.5	-72.6	3.8	8.47e-01	0	23	104	2771386368	84	16943
2026-01-11 15:18:38.07	339.94	2.30	-59.5	-72.6	3.8	8.46e-01	0	23	104	2771386368	84	16891
2026-01-11 15:18:39.08	340.04	2.26	-59.5	-72.5	3.8	8.46e-01	0	23	104	2771386368	84	16850
2026-01-11 15:18:40.09	340.15	2.22	-59.5	-72.6	3.8	8.46e-01	0	23	104	2771386368	84	16907
2026-01-11 15:18:41.09	340.25	2.18	-59.5	-72.5	3.8	8.46e-01	0	23	104	2771386368	84	16849
2026-01-11 15:18:42.10	340.35	2.13	-59.5	-72.5	3.8	8.47e-01	0	23	104	2771386368	84	16887
2026-01-11 15:18:43.11	340.46	2.09	-59.5	-72.5	3.8	8.46e-01	0	23	104	2771386368	84	16859
2026-01-11 15:18:44.11	340.56	2.05	-59.5	-72.6	3.8	8.45e-01	0	23	104	2771386368	84	16905
2026-01-11 15:18:45.12	340.66	2.00	-59.5	-72.6	3.8	8.46e-01	0	23	104	2771386368	84	16958

#Closed at: 2026-01-11 15:18:45
#Recorded file [2771 MB]: D:/lorett/data/31004_260111_180816.dat