passes_logs/2026/01/11/R3.2S_Murmansk/R3.2S_Murmansk__20260111_224657_SUOMI_NPP_rec.log

#Pass ID: 20260111_224657_SUOMI NPP
#Satellite: SUOMI NPP
#Configuration: NPP
#almurnet v.1.7.20251203
#Start time: 2026-01-11 22:46:57

#Version: 2.2.20231116
#Station: R3.2S_Murmansk
#Location: 33.079688 lon 68.888172 lat
#TLE: 1 37849U 11061A   26011.57971124  .00000103  00000+0  69927-4 0  9996
#TLE: 2 37849  98.7807 313.6578 0002518  69.5076 290.6370 14.19524515736228

#Time	Az	El	Level	Level2	SNR	BER	BlckErr	Temp	State	Recorded	gain1	gain2
2026-01-11 22:46:57.90	19.40	2.04	-58.7	-74.8	3.8	1.49e+00	0	21	0	0	82	24457
2026-01-11 22:46:58.90	19.46	2.10	-58.7	-74.8	3.8	1.49e+00	0	21	104	0	82	24434
2026-01-11 22:46:59.92	19.52	2.16	-58.7	-74.8	3.8	1.49e+00	0	21	104	0	82	24481
2026-01-11 22:47:00.93	19.58	2.22	-58.7	-74.8	3.8	1.49e+00	0	21	104	0	82	24511
2026-01-11 22:47:01.93	19.64	2.28	-58.7	-74.8	3.8	1.49e+00	0	21	104	0	82	24518
2026-01-11 22:47:02.94	19.71	2.34	-58.7	-74.8	3.8	1.49e+00	0	21	104	0	82	24498
2026-01-11 22:47:03.95	19.77	2.39	-58.7	-74.8	3.8	1.49e+00	0	21	104	0	82	24413
2026-01-11 22:47:04.96	19.83	2.45	-58.7	-74.7	3.8	1.49e+00	0	21	104	0	82	24404
2026-01-11 22:47:05.97	19.89	2.51	-58.7	-74.8	3.8	1.49e+00	0	21	104	0	82	24436
2026-01-11 22:47:06.98	19.95	2.57	-58.7	-74.8	3.8	1.49e+00	0	21	104	0	82	24482
2026-01-11 22:47:07.99	20.02	2.63	-58.7	-74.8	3.8	1.49e+00	0	21	104	0	82	24479
2026-01-11 22:47:08.99	20.08	2.69	-58.7	-74.8	3.8	1.49e+00	0	21	104	0	82	24446
2026-01-11 22:47:10.00	20.14	2.75	-58.7	-74.8	3.8	1.49e+00	0	21	104	0	82	24450
2026-01-11 22:47:11.01	20.20	2.81	-58.7	-74.8	3.8	1.49e+00	0	21	104	0	82	24473
2026-01-11 22:47:12.03	20.27	2.87	-58.7	-74.7	3.8	1.49e+00	0	21	104	0	82	24392
2026-01-11 22:47:13.03	20.33	2.92	-58.7	-74.8	3.8	1.49e+00	0	21	104	0	82	24414
2026-01-11 22:47:14.04	20.39	2.98	-58.7	-74.8	3.8	1.49e+00	0	21	104	0	82	24446
2026-01-11 22:47:15.05	20.46	3.04	-58.7	-74.8	3.8	1.49e+00	0	21	104	0	82	24474
2026-01-11 22:47:16.06	20.52	3.10	-58.7	-74.7	3.8	1.49e+00	0	21	104	0	82	24400
2026-01-11 22:47:17.07	20.59	3.16	-58.7	-74.8	3.8	1.49e+00	0	21	104	0	82	24438
2026-01-11 22:47:18.08	20.65	3.22	-58.7	-74.7	3.8	1.49e+00	0	21	104	0	82	24402
2026-01-11 22:47:19.09	20.72	3.28	-58.7	-74.8	3.8	1.49e+00	0	21	104	0	82	24455
2026-01-11 22:47:20.10	20.78	3.34	-58.7	-74.8	3.8	1.49e+00	0	21	104	0	82	24421
2026-01-11 22:47:21.11	20.85	3.40	-58.7	-74.8	3.8	1.49e+00	0	21	104	0	82	24431
2026-01-11 22:47:22.12	20.91	3.46	-58.7	-74.8	3.8	1.49e+00	0	21	104	0	82	24549
2026-01-11 22:47:23.13	20.98	3.53	-58.7	-74.8	3.8	1.49e+00	0	21	104	0	82	24448
2026-01-11 22:47:24.14	21.04	3.59	-58.7	-74.8	3.8	1.49e+00	0	21	104	0	82	24423
2026-01-11 22:47:25.14	21.11	3.65	-58.7	-74.8	3.8	1.49e+00	0	21	104	0	82	24476
2026-01-11 22:47:26.15	21.18	3.71	-58.7	-74.8	3.8	1.49e+00	0	21	104	0	82	24499
2026-01-11 22:47:27.16	21.24	3.77	-58.7	-74.8	3.8	1.49e+00	0	21	104	0	82	24477
2026-01-11 22:47:28.17	21.31	3.83	-58.7	-74.8	3.8	1.49e+00	0	21	104	0	82	24542
2026-01-11 22:47:29.18	21.38	3.89	-58.7	-74.8	3.8	1.49e+00	0	21	104	0	82	24511
2026-01-11 22:47:30.19	21.45	3.95	-58.7	-74.8	3.8	1.49e+00	0	21	104	0	82	24524
2026-01-11 22:47:31.20	21.51	4.01	-58.7	-74.8	3.8	1.49e+00	0	22	104	0	82	24449
2026-01-11 22:47:32.21	21.58	4.07	-58.7	-74.8	3.8	1.49e+00	0	22	104	0	82	24452
2026-01-11 22:47:33.22	21.65	4.14	-58.7	-74.8	3.8	1.49e+00	0	22	104	0	82	24475
2026-01-11 22:47:34.23	21.72	4.20	-58.7	-74.8	3.8	1.49e+00	0	22	104	0	82	24442
2026-01-11 22:47:35.23	21.79	4.26	-58.7	-74.8	3.8	1.49e+00	0	22	104	0	82	24525
2026-01-11 22:47:36.24	21.86	4.32	-58.7	-74.8	3.8	1.49e+00	0	22	104	0	82	24488
2026-01-11 22:47:37.25	21.93	4.38	-58.7	-74.8	3.8	1.49e+00	0	22	104	0	82	24427
2026-01-11 22:47:38.26	22.00	4.44	-58.7	-74.8	3.8	1.49e+00	0	22	104	0	82	24464
2026-01-11 22:47:39.27	22.07	4.51	-58.7	-74.8	3.8	1.49e+00	0	22	104	0	82	24440
2026-01-11 22:47:40.28	22.14	4.57	-58.7	-74.8	3.8	1.49e+00	0	22	104	0	82	24490
2026-01-11 22:47:41.29	22.21	4.63	-58.7	-74.8	3.8	1.49e+00	0	22	104	0	82	24466
2026-01-11 22:47:42.30	22.28	4.69	-58.7	-74.8	3.8	1.49e+00	0	22	104	0	82	24453
2026-01-11 22:47:43.30	22.35	4.76	-58.7	-74.8	3.8	1.49e+00	0	22	104	0	82	24478
2026-01-11 22:47:44.31	22.42	4.82	-58.7	-74.8	3.8	1.49e+00	0	22	104	0	82	24485
2026-01-11 22:47:45.32	22.49	4.88	-58.7	-74.8	3.8	1.49e+00	0	22	104	0	82	24494
2026-01-11 22:47:46.33	22.57	4.94	-58.7	-74.8	3.8	1.49e+00	0	22	104	0	82	24491
2026-01-11 22:47:47.34	22.64	5.01	-58.7	-74.8	3.8	1.49e+00	0	22	104	0	82	24535
2026-01-11 22:47:48.35	22.71	5.07	-58.7	-74.8	3.8	1.49e+00	0	22	104	0	82	24450
2026-01-11 22:47:49.36	22.78	5.13	-58.7	-74.8	3.8	1.49e+00	0	22	104	0	82	24416
2026-01-11 22:47:50.37	22.86	5.20	-58.7	-74.8	3.8	1.49e+00	0	22	104	0	82	24443
2026-01-11 22:47:51.37	22.93	5.26	-58.7	-74.8	3.8	1.49e+00	0	22	104	0	82	24528
2026-01-11 22:47:52.38	23.00	5.32	-58.7	-74.8	3.8	1.49e+00	0	22	104	0	82	24455
2026-01-11 22:47:53.39	23.08	5.39	-58.7	-74.8	3.8	1.49e+00	0	22	104	0	82	24429
2026-01-11 22:47:54.40	23.15	5.45	-58.7	-74.8	3.8	1.49e+00	0	22	104	0	82	24436
2026-01-11 22:47:55.41	23.23	5.52	-58.7	-74.8	3.8	1.49e+00	0	22	104	0	82	24468
2026-01-11 22:47:56.41	23.30	5.58	-58.7	-74.8	3.8	1.49e+00	0	22	104	0	82	24475
2026-01-11 22:47:57.42	23.38	5.64	-58.7	-74.8	3.8	1.49e+00	0	22	104	0	82	24502
2026-01-11 22:47:58.43	23.45	5.71	-58.7	-74.8	3.8	1.49e+00	0	22	104	0	82	24491
2026-01-11 22:47:59.44	23.53	5.77	-58.7	-74.8	3.8	1.49e+00	0	22	104	0	82	24482
2026-01-11 22:48:00.45	23.61	5.84	-58.7	-74.8	3.8	1.49e+00	0	22	104	0	82	24417
2026-01-11 22:48:01.46	23.68	5.90	-58.7	-74.7	3.8	1.49e+00	0	22	104	0	82	24406
2026-01-11 22:48:02.47	23.76	5.97	-58.7	-74.8	3.8	1.49e+00	0	22	104	0	82	24484
2026-01-11 22:48:03.48	23.84	6.03	-58.7	-74.8	3.8	1.49e+00	0	22	104	0	82	24520
2026-01-11 22:48:04.48	23.91	6.10	-58.7	-74.8	3.8	1.49e+00	0	22	104	0	82	24414
2026-01-11 22:48:05.50	23.99	6.16	-58.7	-74.8	3.8	1.49e+00	0	22	104	0	82	24494
2026-01-11 22:48:06.50	24.07	6.23	-58.7	-74.7	3.8	1.49e+00	0	22	104	0	82	24387
2026-01-11 22:48:07.51	24.15	6.29	-58.7	-74.8	3.8	1.49e+00	0	22	104	0	82	24436
2026-01-11 22:48:08.52	24.23	6.36	-58.7	-74.8	3.8	1.49e+00	0	22	104	0	82	24553
2026-01-11 22:48:09.53	24.31	6.42	-58.7	-74.8	3.8	1.49e+00	0	22	104	0	82	24489
2026-01-11 22:48:10.54	24.39	6.49	-58.7	-74.8	3.8	1.49e+00	0	22	104	0	82	24478
2026-01-11 22:48:11.55	24.47	6.56	-58.7	-74.8	3.8	1.49e+00	0	22	104	0	82	24520
2026-01-11 22:48:12.56	24.55	6.62	-58.7	-74.8	3.8	1.49e+00	0	22	104	0	82	24477
2026-01-11 22:48:13.57	24.63	6.69	-58.7	-74.8	3.8	1.49e+00	0	22	104	0	82	24426
2026-01-11 22:48:14.58	24.71	6.76	-58.7	-74.8	3.8	1.49e+00	0	22	104	0	82	24464
2026-01-11 22:48:15.59	24.79	6.82	-58.7	-74.8	3.8	1.49e+00	0	22	104	0	82	24502
2026-01-11 22:48:16.60	24.87	6.89	-58.7	-74.7	3.8	1.49e+00	0	22	104	0	82	24396
2026-01-11 22:48:17.61	24.95	6.96	-58.7	-74.8	3.8	1.49e+00	0	22	104	0	82	24467
2026-01-11 22:48:18.62	25.04	7.02	-58.7	-74.8	3.8	1.49e+00	0	22	104	0	82	24486
2026-01-11 22:48:19.62	25.12	7.09	-58.7	-74.8	3.8	1.49e+00	0	22	104	0	82	24468
2026-01-11 22:48:20.63	25.20	7.16	-58.7	-74.8	3.8	1.49e+00	0	22	104	0	82	24474
2026-01-11 22:48:21.64	25.28	7.22	-58.7	-74.8	3.8	1.49e+00	0	22	104	0	82	24471
2026-01-11 22:48:22.65	25.37	7.29	-58.7	-74.8	3.8	1.49e+00	0	22	104	0	82	24479
2026-01-11 22:48:23.66	25.45	7.36	-58.7	-74.8	3.8	1.49e+00	0	22	104	0	82	24486
2026-01-11 22:48:24.67	25.54	7.43	-58.7	-74.8	3.8	1.49e+00	0	22	104	0	82	24563
2026-01-11 22:48:25.68	25.62	7.49	-58.7	-74.8	3.8	1.49e+00	0	22	104	0	82	24425
2026-01-11 22:48:26.69	25.71	7.56	-58.7	-74.8	3.8	1.49e+00	0	22	104	0	82	24464
2026-01-11 22:48:27.70	25.79	7.63	-58.7	-74.8	3.8	1.49e+00	0	22	104	0	82	24464
2026-01-11 22:48:28.71	25.88	7.70	-58.7	-74.7	3.8	1.49e+00	0	22	104	0	82	24380
2026-01-11 22:48:29.72	25.96	7.77	-58.7	-74.8	3.8	1.49e+00	0	22	104	0	82	24459
2026-01-11 22:48:30.73	26.05	7.83	-58.7	-74.8	3.8	1.49e+00	0	22	104	0	82	24498
2026-01-11 22:48:31.74	26.14	7.90	-58.7	-74.8	3.8	1.49e+00	0	22	104	0	82	24416
2026-01-11 22:48:32.75	26.23	7.97	-58.7	-74.8	3.8	1.49e+00	0	22	104	0	82	24420
2026-01-11 22:48:33.76	26.31	8.04	-58.7	-74.8	3.8	1.49e+00	0	22	104	0	82	24453
2026-01-11 22:48:34.76	26.40	8.11	-58.7	-74.7	3.8	1.49e+00	0	22	104	0	82	24380
2026-01-11 22:48:35.77	26.49	8.18	-58.7	-74.8	3.8	1.49e+00	0	22	104	0	82	24435
2026-01-11 22:48:36.78	26.58	8.25	-58.7	-74.7	3.8	1.49e+00	0	22	104	0	82	24392
2026-01-11 22:48:37.79	26.67	8.32	-58.7	-74.8	3.8	1.49e+00	0	22	104	0	82	24433
2026-01-11 22:48:38.80	26.76	8.39	-58.7	-74.7	3.8	1.49e+00	0	23	104	0	82	24359
2026-01-11 22:48:39.81	26.85	8.46	-58.7	-74.8	3.8	1.49e+00	0	23	104	0	82	24433
2026-01-11 22:48:40.81	26.94	8.52	-58.7	-74.8	3.8	1.49e+00	0	22	104	0	82	24490
2026-01-11 22:48:41.83	27.03	8.60	-58.7	-74.8	3.8	1.49e+00	0	23	104	0	82	24481
2026-01-11 22:48:42.84	27.12	8.67	-58.7	-74.8	3.8	1.49e+00	0	23	104	0	82	24496
2026-01-11 22:48:43.85	27.22	8.74	-58.7	-74.8	3.8	1.49e+00	0	22	104	0	82	24480
2026-01-11 22:48:44.86	27.31	8.81	-58.7	-74.7	3.8	1.49e+00	0	22	104	0	82	24393
2026-01-11 22:48:45.87	27.40	8.88	-58.7	-74.8	3.8	1.49e+00	0	22	104	0	82	24437
2026-01-11 22:48:46.87	27.49	8.95	-58.7	-74.8	3.8	1.49e+00	0	22	104	0	82	24476
2026-01-11 22:48:47.88	27.59	9.02	-58.7	-74.8	3.8	1.49e+00	0	22	104	0	82	24456
2026-01-11 22:48:48.89	27.68	9.09	-58.7	-74.8	3.8	1.49e+00	0	22	104	0	82	24458
2026-01-11 22:48:49.90	27.78	9.16	-58.7	-74.8	3.8	1.49e+00	0	22	104	0	82	24491
2026-01-11 22:48:50.91	27.87	9.23	-58.7	-74.8	3.8	1.49e+00	0	23	104	0	82	24511
2026-01-11 22:48:51.92	27.97	9.30	-58.7	-74.8	3.8	1.49e+00	0	22	104	0	82	24422
2026-01-11 22:48:52.93	28.06	9.37	-58.7	-74.8	3.8	1.49e+00	0	23	104	0	82	24422
2026-01-11 22:48:53.94	28.16	9.44	-58.7	-74.8	3.8	1.49e+00	0	23	104	0	82	24432
2026-01-11 22:48:54.95	28.26	9.52	-58.7	-74.8	3.8	1.49e+00	0	22	104	0	82	24416
2026-01-11 22:48:55.95	28.35	9.59	-58.7	-74.8	3.8	1.49e+00	0	22	104	0	82	24419
2026-01-11 22:48:56.97	28.45	9.66	-58.7	-74.7	3.8	1.49e+00	0	23	104	0	82	24396
2026-01-11 22:48:57.97	28.55	9.73	-58.7	-74.8	3.8	1.49e+00	0	23	104	0	82	24459
2026-01-11 22:48:58.98	28.65	9.80	-58.7	-74.7	3.8	1.49e+00	0	23	104	0	82	24409
2026-01-11 22:48:59.99	28.75	9.88	-58.7	-74.8	3.8	1.49e+00	0	22	104	0	82	24435
2026-01-11 22:49:01.00	28.85	9.95	-58.7	-74.7	3.8	1.49e+00	0	23	104	0	82	24375
2026-01-11 22:49:02.02	28.95	10.02	-58.7	-74.8	3.8	1.49e+00	0	23	104	0	82	24426
2026-01-11 22:49:03.02	29.05	10.09	-58.7	-74.8	3.8	1.49e+00	0	22	104	0	82	24453
2026-01-11 22:49:04.03	29.15	10.17	-58.7	-74.8	3.8	1.49e+00	0	23	104	0	82	24450
2026-01-11 22:49:05.04	29.25	10.24	-58.7	-74.8	3.8	1.49e+00	0	23	104	0	82	24520
2026-01-11 22:49:06.05	29.35	10.31	-58.7	-74.8	3.8	1.49e+00	0	23	104	0	82	24447
2026-01-11 22:49:07.06	29.45	10.39	-58.7	-74.8	3.8	1.49e+00	0	23	104	0	82	24463
2026-01-11 22:49:08.07	29.56	10.46	-58.7	-74.8	3.8	1.49e+00	0	23	104	0	82	24428
2026-01-11 22:49:09.08	29.66	10.53	-58.7	-74.7	3.8	1.49e+00	0	23	104	0	82	24397
2026-01-11 22:49:10.08	29.76	10.61	-58.7	-74.7	3.8	1.49e+00	0	23	104	0	82	24399
2026-01-11 22:49:11.09	29.87	10.68	-58.7	-74.7	3.8	1.49e+00	0	22	104	0	82	24406
2026-01-11 22:49:12.11	29.97	10.76	-58.7	-74.7	3.8	1.49e+00	0	23	104	0	82	24365
2026-01-11 22:49:13.11	30.08	10.83	-58.7	-74.7	3.8	1.49e+00	0	23	104	0	82	24380
2026-01-11 22:49:14.12	30.18	10.90	-58.7	-74.8	3.8	1.49e+00	0	23	104	0	82	24449
2026-01-11 22:49:15.13	30.29	10.98	-58.7	-74.8	3.8	1.49e+00	0	23	104	0	82	24435
2026-01-11 22:49:16.14	30.40	11.05	-58.7	-74.7	3.8	1.49e+00	0	23	104	0	82	24402
2026-01-11 22:49:17.15	30.50	11.13	-58.7	-74.7	3.8	1.49e+00	0	23	104	0	82	24396
2026-01-11 22:49:18.16	30.61	11.20	-58.7	-74.8	3.8	1.49e+00	0	23	104	0	82	24443
2026-01-11 22:49:19.17	30.72	11.28	-58.7	-74.7	3.8	1.49e+00	0	23	104	0	82	24410
2026-01-11 22:49:20.18	30.83	11.35	-58.7	-74.7	3.8	1.49e+00	0	23	104	0	82	24384
2026-01-11 22:49:21.18	30.94	11.43	-58.7	-74.8	3.8	1.49e+00	0	23	104	0	82	24415
2026-01-11 22:49:22.19	31.05	11.50	-58.7	-74.7	3.8	1.49e+00	0	23	104	0	82	24333
2026-01-11 22:49:23.21	31.16	11.58	-58.7	-74.7	3.8	1.49e+00	0	23	104	0	82	24389
2026-01-11 22:49:24.21	31.27	11.66	-58.7	-74.7	3.8	1.49e+00	0	23	104	0	82	24394
2026-01-11 22:49:25.22	31.38	11.73	-58.7	-74.7	3.8	1.49e+00	0	23	104	0	82	24406
2026-01-11 22:49:26.23	31.49	11.81	-58.7	-74.8	3.8	1.49e+00	0	23	104	0	82	24421
2026-01-11 22:49:27.24	31.61	11.88	-58.7	-74.7	3.8	1.49e+00	0	23	104	0	82	24382
2026-01-11 22:49:28.25	31.72	11.96	-58.7	-74.8	3.8	1.49e+00	0	23	104	0	82	24482
2026-01-11 22:49:29.26	31.84	12.04	-58.7	-74.8	3.8	1.49e+00	0	23	104	0	82	24446
2026-01-11 22:49:30.27	31.95	12.11	-58.7	-74.8	3.8	1.49e+00	0	23	104	0	82	24457
2026-01-11 22:49:31.28	32.06	12.19	-58.7	-74.8	3.8	1.49e+00	0	23	104	0	82	24469
2026-01-11 22:49:32.29	32.18	12.27	-58.7	-74.8	3.8	1.49e+00	0	23	104	0	82	24443
2026-01-11 22:49:33.30	32.30	12.34	-58.7	-74.7	3.8	1.49e+00	0	23	104	0	82	24407
2026-01-11 22:49:34.31	32.41	12.42	-58.7	-74.7	3.8	1.49e+00	0	23	104	0	82	24395
2026-01-11 22:49:35.31	32.53	12.50	-58.7	-74.7	3.8	1.49e+00	0	23	104	0	82	24380
2026-01-11 22:49:36.32	32.65	12.58	-58.7	-74.8	3.8	1.49e+00	0	23	104	0	82	24450
2026-01-11 22:49:37.33	32.77	12.65	-58.7	-74.7	3.8	1.49e+00	0	23	104	0	82	24388
2026-01-11 22:49:38.34	32.89	12.73	-58.7	-74.8	3.8	1.49e+00	0	23	104	0	82	24434
2026-01-11 22:49:39.35	33.01	12.81	-58.7	-74.7	3.8	1.49e+00	0	23	104	0	82	24398
2026-01-11 22:49:40.35	33.13	12.89	-58.7	-74.7	3.8	1.49e+00	0	23	104	0	82	24408
2026-01-11 22:49:41.36	33.25	12.96	-58.7	-74.7	3.8	1.49e+00	0	23	104	0	82	24367
2026-01-11 22:49:42.37	33.37	13.04	-58.7	-74.7	3.8	1.49e+00	0	23	104	0	82	24349
2026-01-11 22:49:43.38	33.49	13.12	-58.7	-74.7	3.8	1.49e+00	0	23	104	0	82	24364
2026-01-11 22:49:44.39	33.61	13.20	-58.7	-74.7	3.8	1.49e+00	0	23	104	0	82	24347
2026-01-11 22:49:45.40	33.74	13.28	-58.7	-74.7	3.8	1.49e+00	0	23	104	0	82	24334
2026-01-11 22:49:46.41	33.86	13.36	-58.7	-74.7	3.8	1.49e+00	0	23	104	0	82	24366
2026-01-11 22:49:47.42	33.99	13.44	-58.7	-74.7	3.8	1.49e+00	0	23	104	0	82	24368
2026-01-11 22:49:48.43	34.11	13.52	-58.7	-74.8	3.8	1.49e+00	0	23	104	0	82	24446
2026-01-11 22:49:49.44	34.24	13.60	-58.7	-74.8	3.8	1.49e+00	0	23	104	0	82	24439
2026-01-11 22:49:50.45	34.37	13.67	-58.7	-74.8	3.8	1.49e+00	0	23	104	0	82	24422
2026-01-11 22:49:51.46	34.49	13.75	-58.7	-74.7	3.8	1.49e+00	0	23	104	0	82	24410
2026-01-11 22:49:52.47	34.62	13.83	-58.7	-74.7	3.8	1.49e+00	0	23	104	0	82	24402
2026-01-11 22:49:53.47	34.75	13.91	-58.7	-74.7	3.8	1.49e+00	0	23	104	0	82	24374
2026-01-11 22:49:54.48	34.88	13.99	-58.7	-74.8	3.8	1.49e+00	0	23	104	0	82	24433
2026-01-11 22:49:55.48	35.01	14.07	-58.7	-74.7	3.8	1.49e+00	0	23	104	0	82	24397
2026-01-11 22:49:56.49	35.14	14.15	-58.7	-74.7	3.8	1.49e+00	0	23	104	0	82	24374
2026-01-11 22:49:57.50	35.27	14.23	-58.7	-74.8	3.8	1.49e+00	0	23	104	0	82	24433
2026-01-11 22:49:58.51	35.40	14.31	-58.7	-74.8	3.8	1.49e+00	0	23	104	0	82	24469
2026-01-11 22:49:59.52	35.53	14.39	-58.7	-74.8	3.8	1.49e+00	0	23	104	0	82	24449
2026-01-11 22:50:00.53	35.67	14.48	-58.7	-74.8	3.8	1.49e+00	0	23	104	0	82	24426
2026-01-11 22:50:01.54	35.80	14.56	-58.7	-74.8	3.8	1.49e+00	0	23	104	0	82	24419
2026-01-11 22:50:02.55	35.94	14.64	-58.7	-74.8	3.8	1.49e+00	0	23	104	0	82	24445
2026-01-11 22:50:03.55	36.07	14.72	-58.7	-74.8	3.8	1.49e+00	0	23	104	0	82	24459
2026-01-11 22:50:04.56	36.21	14.80	-58.7	-74.8	3.8	1.49e+00	0	23	104	0	82	24477
2026-01-11 22:50:05.57	36.35	14.88	-58.7	-74.8	3.8	1.49e+00	0	23	104	0	82	24459
2026-01-11 22:50:06.58	36.48	14.96	-58.7	-74.7	3.8	1.49e+00	0	23	104	0	82	24410
2026-01-11 22:50:07.59	36.62	15.04	-58.7	-74.7	3.8	1.49e+00	0	23	104	0	82	24361
2026-01-11 22:50:08.60	36.76	15.13	-58.7	-74.7	3.8	1.49e+00	0	23	104	0	82	24401
2026-01-11 22:50:09.61	36.90	15.21	-58.7	-74.7	3.8	1.49e+00	0	23	104	0	82	24355
2026-01-11 22:50:10.62	37.04	15.29	-58.7	-74.7	3.8	1.49e+00	0	23	104	0	82	24370
2026-01-11 22:50:11.62	37.18	15.37	-58.7	-74.8	3.8	1.49e+00	0	23	104	0	82	24465
2026-01-11 22:50:12.63	37.32	15.45	-58.7	-74.8	3.8	1.49e+00	0	23	104	0	82	24440
2026-01-11 22:50:13.64	37.47	15.54	-58.7	-74.8	3.8	1.49e+00	0	23	104	0	82	24430
2026-01-11 22:50:14.65	37.61	15.62	-58.7	-74.8	3.8	1.49e+00	0	23	104	0	82	24413
2026-01-11 22:50:15.66	37.76	15.70	-58.7	-74.8	3.8	1.49e+00	0	23	104	0	82	24541
2026-01-11 22:50:16.67	37.90	15.78	-58.7	-74.7	3.8	1.49e+00	0	23	104	0	82	24368
2026-01-11 22:50:17.68	38.05	15.87	-58.7	-74.7	3.8	1.49e+00	0	23	104	0	82	24386
2026-01-11 22:50:18.69	38.19	15.95	-58.7	-74.8	3.8	1.49e+00	0	23	104	0	82	24447
2026-01-11 22:50:19.69	38.34	16.03	-58.7	-74.8	3.8	1.49e+00	0	23	104	0	82	24452
2026-01-11 22:50:20.70	38.49	16.11	-58.7	-74.8	3.8	1.49e+00	0	23	104	0	82	24465
2026-01-11 22:50:21.71	38.64	16.20	-58.7	-74.7	3.8	1.49e+00	0	23	104	0	82	24371
2026-01-11 22:50:22.72	38.79	16.28	-58.7	-74.7	3.8	1.49e+00	0	23	104	0	82	24376
2026-01-11 22:50:23.73	38.94	16.36	-58.7	-74.7	3.8	1.49e+00	0	23	104	0	82	24380
2026-01-11 22:50:24.74	39.09	16.45	-58.7	-74.8	3.8	1.49e+00	0	23	104	0	82	24455
2026-01-11 22:50:25.75	39.24	16.53	-58.7	-74.7	3.8	1.49e+00	0	23	104	0	82	24399
2026-01-11 22:50:26.76	39.40	16.62	-58.7	-74.8	3.8	1.49e+00	0	23	104	0	82	24411
2026-01-11 22:50:27.77	39.55	16.70	-58.7	-74.7	3.8	1.49e+00	0	23	104	0	82	24368
2026-01-11 22:50:28.78	39.71	16.78	-58.7	-74.7	3.8	1.49e+00	0	23	104	0	82	24379
2026-01-11 22:50:29.79	39.86	16.87	-58.7	-74.8	3.8	1.49e+00	0	23	104	0	82	24440
2026-01-11 22:50:30.80	40.02	16.95	-58.7	-74.7	3.8	1.49e+00	0	23	104	0	82	24364
2026-01-11 22:50:31.81	40.18	17.04	-58.7	-74.8	3.8	1.49e+00	0	23	104	0	82	24460
2026-01-11 22:50:32.81	40.33	17.12	-58.7	-74.7	3.8	1.49e+00	0	23	104	0	82	24393
2026-01-11 22:50:33.82	40.49	17.20	-58.7	-74.8	3.8	1.49e+00	0	23	104	0	82	24448
2026-01-11 22:50:34.83	40.65	17.29	-58.7	-74.8	3.8	1.49e+00	0	23	104	0	82	24456
2026-01-11 22:50:35.84	40.81	17.37	-58.7	-74.8	3.8	1.49e+00	0	23	104	0	82	24456
2026-01-11 22:50:36.85	40.98	17.46	-58.7	-74.8	3.8	1.49e+00	0	23	104	0	82	24444
2026-01-11 22:50:37.86	41.14	17.54	-58.7	-74.8	3.8	1.49e+00	0	23	104	0	82	24417
2026-01-11 22:50:38.87	41.30	17.63	-58.7	-74.8	3.8	1.49e+00	0	23	104	0	82	24433
2026-01-11 22:50:39.87	41.47	17.71	-58.7	-74.7	3.8	1.49e+00	0	23	104	0	82	24323
2026-01-11 22:50:40.88	41.63	17.80	-58.7	-74.7	3.8	1.49e+00	0	23	104	0	82	24404
2026-01-11 22:50:41.89	41.80	17.88	-58.7	-74.8	3.8	1.49e+00	0	23	104	0	82	24421
2026-01-11 22:50:42.90	41.96	17.97	-58.7	-74.7	3.8	1.49e+00	0	23	104	0	82	24402
2026-01-11 22:50:43.91	42.13	18.05	-58.7	-74.7	3.8	1.49e+00	0	23	104	0	82	24349
2026-01-11 22:50:44.92	42.30	18.14	-58.7	-74.7	3.8	1.49e+00	0	23	104	0	82	24380
2026-01-11 22:50:45.93	42.47	18.22	-58.7	-74.7	3.8	1.49e+00	0	23	104	0	82	24349
2026-01-11 22:50:46.94	42.64	18.31	-58.7	-74.7	3.8	1.49e+00	0	23	104	0	82	24372
2026-01-11 22:50:47.95	42.81	18.39	-58.7	-74.7	3.8	1.49e+00	0	23	104	0	82	24333
2026-01-11 22:50:48.96	42.99	18.48	-58.7	-74.7	3.8	1.49e+00	0	23	104	0	82	24386
2026-01-11 22:50:49.97	43.16	18.56	-58.7	-74.7	3.8	1.49e+00	0	23	104	0	82	24354
2026-01-11 22:50:50.98	43.34	18.65	-58.7	-74.7	3.8	1.49e+00	0	23	104	0	82	24332
2026-01-11 22:50:51.99	43.51	18.74	-58.7	-74.7	3.8	1.49e+00	0	23	104	0	82	24390
2026-01-11 22:50:53.00	43.69	18.82	-58.7	-74.7	3.8	1.49e+00	0	23	104	0	82	24324
2026-01-11 22:50:54.01	43.87	18.91	-58.7	-74.7	3.8	1.49e+00	0	23	104	0	82	24331
2026-01-11 22:50:55.02	44.04	18.99	-58.7	-74.7	3.8	1.49e+00	0	23	104	0	82	24308
2026-01-11 22:50:56.03	44.22	19.08	-58.7	-74.7	3.8	1.49e+00	0	23	104	0	82	24304
2026-01-11 22:50:57.04	44.40	19.16	-58.7	-74.7	3.8	1.49e+00	0	23	104	0	82	24379
2026-01-11 22:50:58.05	44.59	19.25	-58.7	-74.7	3.8	1.49e+00	0	23	104	0	82	24343
2026-01-11 22:50:59.06	44.77	19.34	-58.7	-74.7	3.8	1.49e+00	0	23	104	0	82	24322
2026-01-11 22:51:00.07	44.95	19.42	-58.7	-74.7	3.8	1.49e+00	0	23	104	0	82	24323
2026-01-11 22:51:01.08	45.14	19.51	-58.7	-74.7	3.8	1.49e+00	0	23	104	0	82	24330
2026-01-11 22:51:02.09	45.32	19.59	-58.7	-74.7	3.8	1.49e+00	0	23	104	0	82	24373
2026-01-11 22:51:03.10	45.51	19.68	-58.7	-74.7	3.8	1.49e+00	0	23	104	0	82	24313
2026-01-11 22:51:04.11	45.70	19.76	-58.7	-74.7	3.8	1.49e+00	0	23	104	0	82	24347
2026-01-11 22:51:05.12	45.89	19.85	-58.7	-74.7	3.8	1.49e+00	0	23	104	0	82	24291
2026-01-11 22:51:06.13	46.07	19.94	-58.7	-74.7	3.8	1.49e+00	0	23	104	0	82	24316
2026-01-11 22:51:07.13	46.26	20.02	-58.7	-74.7	3.8	1.49e+00	0	23	104	0	82	24313
2026-01-11 22:51:08.13	46.45	20.11	-58.7	-74.7	3.8	1.49e+00	0	23	104	0	82	24341
2026-01-11 22:51:09.15	46.65	20.19	-58.7	-74.7	3.8	1.49e+00	0	23	104	0	82	24342
2026-01-11 22:51:10.15	46.84	20.28	-58.7	-74.7	3.8	1.49e+00	0	23	104	0	82	24364
2026-01-11 22:51:11.16	47.03	20.36	-58.7	-74.7	3.8	1.49e+00	0	23	104	0	82	24370
2026-01-11 22:51:12.17	47.23	20.45	-58.7	-74.7	3.8	1.49e+00	0	23	104	0	82	24365
2026-01-11 22:51:13.18	47.43	20.54	-58.7	-74.7	3.8	1.49e+00	0	23	104	0	82	24357
2026-01-11 22:51:14.19	47.63	20.62	-58.7	-74.7	3.8	1.49e+00	0	23	104	0	82	24309
2026-01-11 22:51:15.19	47.82	20.71	-58.7	-74.7	3.8	1.49e+00	0	23	104	0	82	24340
2026-01-11 22:51:16.20	48.02	20.79	-58.7	-74.7	3.8	1.49e+00	0	23	104	0	82	24331
2026-01-11 22:51:17.21	48.22	20.88	-58.7	-74.7	3.8	1.49e+00	0	23	104	0	82	24328
2026-01-11 22:51:18.22	48.43	20.96	-58.7	-74.7	3.8	1.49e+00	0	23	104	0	82	24341
2026-01-11 22:51:19.23	48.63	21.05	-58.7	-74.7	3.8	1.49e+00	0	23	104	0	82	24361
2026-01-11 22:51:20.24	48.84	21.13	-58.7	-74.7	3.8	1.49e+00	0	23	104	0	82	24354
2026-01-11 22:51:21.24	49.04	21.22	-58.7	-74.7	3.8	1.49e+00	0	23	104	0	82	24389
2026-01-11 22:51:22.26	49.25	21.30	-58.7	-74.7	3.8	1.49e+00	0	23	104	0	82	24307
2026-01-11 22:51:23.27	49.46	21.39	-58.7	-74.7	3.8	1.49e+00	0	23	104	0	82	24286
2026-01-11 22:51:24.28	49.66	21.47	-58.7	-74.7	3.8	1.49e+00	0	23	104	0	82	24337
2026-01-11 22:51:25.29	49.87	21.56	-58.7	-74.7	3.8	1.49e+00	0	23	104	0	82	24276
2026-01-11 22:51:26.29	50.08	21.64	-58.7	-74.7	3.8	1.49e+00	0	23	104	0	82	24266
2026-01-11 22:51:27.30	50.30	21.73	-58.7	-74.7	3.8	1.49e+00	0	23	104	0	82	24269
2026-01-11 22:51:28.31	50.51	21.81	-58.7	-74.7	3.8	1.49e+00	0	23	104	0	82	24310
2026-01-11 22:51:29.32	50.72	21.90	-58.7	-74.7	3.8	1.49e+00	0	23	104	0	82	24304
2026-01-11 22:51:30.33	50.94	21.98	-58.7	-74.7	3.8	1.49e+00	0	23	104	0	82	24391
2026-01-11 22:51:31.34	51.16	22.06	-58.7	-74.7	3.8	1.49e+00	0	23	104	0	82	24304
2026-01-11 22:51:32.35	51.38	22.15	-58.7	-74.7	3.8	1.49e+00	0	23	104	0	82	24223
2026-01-11 22:51:33.36	51.60	22.23	-58.7	-74.7	3.8	1.49e+00	0	23	104	0	82	24281
2026-01-11 22:51:34.37	51.82	22.32	-58.7	-74.7	3.8	1.49e+00	0	23	104	0	82	24271
2026-01-11 22:51:35.37	52.04	22.40	-58.7	-74.7	3.8	1.49e+00	0	23	104	0	82	24306
2026-01-11 22:51:36.38	52.26	22.48	-58.7	-74.7	3.8	1.49e+00	0	23	104	0	82	24306
2026-01-11 22:51:37.39	52.48	22.57	-58.7	-74.7	3.8	1.49e+00	0	23	104	0	82	24301
2026-01-11 22:51:38.40	52.71	22.65	-58.7	-74.7	3.8	1.49e+00	0	23	104	0	82	24295
2026-01-11 22:51:39.41	52.93	22.73	-58.7	-74.7	3.8	1.49e+00	0	23	104	0	82	24376
2026-01-11 22:51:40.42	53.16	22.82	-58.7	-74.7	3.8	1.49e+00	0	23	104	0	82	24358
2026-01-11 22:51:41.42	53.39	22.90	-58.7	-74.8	3.8	1.49e+00	0	23	104	0	82	24418
2026-01-11 22:51:42.43	53.62	22.98	-58.7	-74.7	3.8	1.49e+00	0	23	104	0	82	24386
2026-01-11 22:51:43.44	53.85	23.06	-58.7	-74.7	3.8	1.49e+00	0	23	104	0	82	24308
2026-01-11 22:51:44.45	54.08	23.14	-58.7	-74.7	3.8	1.49e+00	0	23	104	0	82	24325
2026-01-11 22:51:45.46	54.31	23.23	-58.7	-74.7	3.8	1.49e+00	0	23	104	0	82	24335
2026-01-11 22:51:46.46	54.55	23.31	-58.7	-74.7	3.8	1.49e+00	0	23	104	0	82	24341
2026-01-11 22:51:47.47	54.78	23.39	-58.7	-74.7	3.8	1.49e+00	0	23	104	0	82	24330
2026-01-11 22:51:48.48	55.02	23.47	-58.7	-74.7	3.8	1.49e+00	0	23	104	0	82	24307
2026-01-11 22:51:49.49	55.26	23.55	-58.7	-74.7	3.8	1.49e+00	0	23	104	0	82	24320
2026-01-11 22:51:50.50	55.50	23.63	-58.7	-74.7	3.8	1.49e+00	0	23	104	0	82	24310
2026-01-11 22:51:51.50	55.73	23.71	-58.7	-74.7	3.8	1.49e+00	0	23	104	0	82	24284
2026-01-11 22:51:52.51	55.98	23.79	-58.7	-74.7	3.8	1.49e+00	0	23	104	0	82	24289
2026-01-11 22:51:53.52	56.22	23.87	-58.7	-74.7	3.8	1.49e+00	0	23	104	0	82	24237
2026-01-11 22:51:54.53	56.46	23.95	-58.7	-74.7	3.8	1.49e+00	0	23	104	0	82	24187
2026-01-11 22:51:55.54	56.71	24.03	-58.7	-74.7	3.8	1.49e+00	0	23	104	0	82	24234
2026-01-11 22:51:56.55	56.96	24.11	-58.6	-74.7	3.8	1.49e+00	0	23	104	0	82	24240
2026-01-11 22:51:57.55	57.20	24.19	-58.7	-74.7	3.8	1.49e+00	0	23	104	0	82	24284
2026-01-11 22:51:58.56	57.45	24.26	-58.7	-74.7	3.8	1.49e+00	0	23	104	0	82	24252
2026-01-11 22:51:59.57	57.70	24.34	-58.7	-74.7	3.8	1.49e+00	0	23	104	0	82	24260
2026-01-11 22:52:00.57	57.95	24.42	-58.7	-74.7	3.8	1.49e+00	0	23	104	0	82	24257
2026-01-11 22:52:01.58	58.20	24.50	-58.7	-74.7	3.8	1.49e+00	0	23	104	0	82	24295
2026-01-11 22:52:02.59	58.46	24.57	-58.7	-74.7	3.8	1.49e+00	0	23	104	0	82	24252
2026-01-11 22:52:03.60	58.71	24.65	-58.7	-74.7	3.8	1.49e+00	0	23	104	0	82	24302
2026-01-11 22:52:04.61	58.97	24.73	-58.7	-74.7	3.8	1.49e+00	0	23	104	0	82	24292
2026-01-11 22:52:05.62	59.23	24.80	-58.7	-74.7	3.8	1.49e+00	0	23	104	0	82	24225
2026-01-11 22:52:06.62	59.48	24.88	-58.7	-74.7	3.8	1.49e+00	0	23	104	0	82	24254
2026-01-11 22:52:07.63	59.74	24.95	-58.7	-74.7	3.8	1.49e+00	0	23	104	0	82	24220
2026-01-11 22:52:08.64	60.00	25.03	-58.7	-74.7	3.8	1.49e+00	0	23	104	0	82	24304
2026-01-11 22:52:09.65	60.27	25.10	-58.7	-74.7	3.8	1.49e+00	0	23	104	0	82	24294
2026-01-11 22:52:10.66	60.53	25.17	-58.7	-74.7	3.8	1.49e+00	0	23	104	0	82	24305
2026-01-11 22:52:11.67	60.79	25.25	-58.7	-74.7	3.8	1.49e+00	0	23	104	0	82	24348
2026-01-11 22:52:12.68	61.06	25.32	-58.7	-74.7	3.8	1.49e+00	0	23	104	0	82	24258
2026-01-11 22:52:13.69	61.33	25.39	-58.7	-74.7	3.8	1.49e+00	0	23	104	0	82	24269
2026-01-11 22:52:14.70	61.60	25.47	-58.7	-74.7	3.8	1.49e+00	0	23	104	0	82	24287
2026-01-11 22:52:15.71	61.87	25.54	-58.7	-74.7	3.8	1.49e+00	0	23	104	0	82	24339
2026-01-11 22:52:16.71	62.13	25.61	-58.7	-74.7	3.8	1.49e+00	0	23	104	0	82	24351
2026-01-11 22:52:17.72	62.41	25.68	-58.7	-74.7	3.8	1.49e+00	0	23	104	0	82	24239
2026-01-11 22:52:18.73	62.68	25.75	-58.7	-74.7	3.8	1.49e+00	0	23	104	0	82	24256
2026-01-11 22:52:19.74	62.95	25.82	-58.7	-74.7	3.8	1.49e+00	0	23	104	0	82	24264
2026-01-11 22:52:20.75	63.23	25.89	-58.7	-74.7	3.8	1.49e+00	0	23	104	0	82	24239
2026-01-11 22:52:21.76	63.51	25.96	-58.7	-74.7	3.8	1.49e+00	0	23	104	0	82	24321
2026-01-11 22:52:22.77	63.79	26.03	-58.7	-74.7	3.8	1.49e+00	0	23	104	0	82	24301
2026-01-11 22:52:23.77	64.06	26.09	-58.7	-74.7	3.8	1.49e+00	0	23	104	0	82	24268
2026-01-11 22:52:24.78	64.34	26.16	-58.7	-74.7	3.8	1.49e+00	0	23	104	0	82	24258
2026-01-11 22:52:25.79	64.62	26.23	-58.7	-74.7	3.8	1.49e+00	0	23	104	0	82	24237
2026-01-11 22:52:26.80	64.91	26.29	-58.7	-74.7	3.8	1.49e+00	0	23	104	0	82	24284
2026-01-11 22:52:27.81	65.19	26.36	-58.7	-74.7	3.8	1.49e+00	0	23	104	0	82	24327
2026-01-11 22:52:28.82	65.48	26.42	-58.7	-74.7	3.8	1.49e+00	0	23	104	0	82	24297
2026-01-11 22:52:29.84	65.76	26.49	-58.7	-74.7	3.8	1.49e+00	0	23	104	0	82	24258
2026-01-11 22:52:30.84	66.05	26.55	-58.7	-74.7	3.8	1.49e+00	0	23	104	0	82	24360
2026-01-11 22:52:31.85	66.34	26.62	-58.7	-74.7	3.8	1.49e+00	0	23	104	0	82	24296
2026-01-11 22:52:32.86	66.63	26.68	-58.7	-74.7	3.8	1.49e+00	0	23	104	0	82	24255
2026-01-11 22:52:33.88	66.92	26.74	-58.7	-74.7	3.8	1.49e+00	0	23	104	0	82	24300
2026-01-11 22:52:34.89	67.21	26.80	-58.7	-74.7	3.8	1.49e+00	0	23	104	0	82	24298
2026-01-11 22:52:35.89	67.50	26.86	-58.7	-74.7	3.8	1.49e+00	0	23	104	0	82	24230
2026-01-11 22:52:36.90	67.80	26.92	-58.7	-74.7	3.8	1.49e+00	0	23	104	0	82	24325
2026-01-11 22:52:37.91	68.09	26.98	-58.7	-74.7	3.8	1.49e+00	0	23	104	0	82	24327
2026-01-11 22:52:38.92	68.39	27.04	-58.7	-74.7	3.8	1.49e+00	0	23	104	0	82	24278
2026-01-11 22:52:39.93	68.69	27.10	-58.7	-74.7	3.8	1.49e+00	0	23	104	0	82	24315
2026-01-11 22:52:40.94	68.98	27.16	-58.7	-74.7	3.8	1.49e+00	0	23	104	0	82	24207
2026-01-11 22:52:41.95	69.28	27.21	-58.6	-74.7	3.8	1.49e+00	0	23	104	0	82	24241
2026-01-11 22:52:42.95	69.58	27.27	-58.7	-74.7	3.8	1.49e+00	0	23	104	0	82	24257
2026-01-11 22:52:43.96	69.88	27.32	-58.7	-74.7	3.8	1.49e+00	0	23	104	0	82	24299
2026-01-11 22:52:44.98	70.19	27.38	-58.7	-74.7	3.8	1.49e+00	0	23	104	0	82	24244
2026-01-11 22:52:45.99	70.49	27.43	-58.7	-74.7	3.8	1.49e+00	0	23	104	0	82	24358
2026-01-11 22:52:46.99	70.79	27.48	-58.7	-74.7	3.8	1.49e+00	0	23	104	0	82	24310
2026-01-11 22:52:48.00	71.10	27.54	-58.7	-74.7	3.8	1.49e+00	0	23	104	0	82	24272
2026-01-11 22:52:49.01	71.40	27.59	-58.7	-74.7	3.8	1.49e+00	0	23	104	0	82	24249
2026-01-11 22:52:50.02	71.71	27.64	-58.7	-74.7	3.8	1.49e+00	0	23	104	0	82	24261
2026-01-11 22:52:51.03	72.02	27.69	-58.7	-74.7	3.8	1.49e+00	0	23	104	0	82	24314
2026-01-11 22:52:52.04	72.33	27.74	-58.7	-74.7	3.8	1.49e+00	0	23	104	0	82	24323
2026-01-11 22:52:53.05	72.64	27.79	-58.7	-74.7	3.8	1.49e+00	0	23	104	0	82	24269
2026-01-11 22:52:54.06	72.95	27.83	-58.7	-74.7	3.8	1.49e+00	0	23	104	0	82	24305
2026-01-11 22:52:55.06	73.26	27.88	-58.7	-74.7	3.8	1.49e+00	0	23	104	0	82	24281
2026-01-11 22:52:56.07	73.57	27.93	-58.7	-74.7	3.8	1.49e+00	0	23	104	0	82	24188
2026-01-11 22:52:57.08	73.89	27.97	-58.7	-74.7	3.8	1.49e+00	0	23	104	0	82	24292
2026-01-11 22:52:58.09	74.20	28.01	-58.7	-74.7	3.8	1.49e+00	0	23	104	0	82	24234
2026-01-11 22:52:59.10	74.52	28.06	-58.7	-74.7	3.8	1.49e+00	0	23	104	0	82	24313
2026-01-11 22:53:00.10	74.83	28.10	-58.7	-74.7	3.8	1.49e+00	0	23	104	0	82	24266
2026-01-11 22:53:01.11	75.15	28.14	-58.7	-74.7	3.8	1.49e+00	0	23	104	0	82	24292
2026-01-11 22:53:02.12	75.46	28.18	-58.6	-74.7	3.8	1.49e+00	0	23	104	0	82	24185
2026-01-11 22:53:03.13	75.78	28.22	-58.6	-74.7	3.8	1.49e+00	0	23	104	0	82	24274
2026-01-11 22:53:04.14	76.10	28.26	-58.6	-74.7	3.8	1.49e+00	0	23	104	0	82	24217
2026-01-11 22:53:05.15	76.42	28.30	-58.7	-74.7	3.8	1.49e+00	0	23	104	0	82	24269
2026-01-11 22:53:06.16	76.74	28.34	-58.7	-74.7	3.8	1.49e+00	0	23	104	0	82	24209
2026-01-11 22:53:07.17	77.07	28.37	-58.6	-74.7	3.8	1.49e+00	0	23	104	0	82	24237
2026-01-11 22:53:08.18	77.39	28.41	-58.7	-74.7	3.8	1.49e+00	0	23	104	0	82	24269
2026-01-11 22:53:09.19	77.71	28.44	-58.7	-74.7	3.8	1.49e+00	0	23	104	0	82	24202
2026-01-11 22:53:10.20	78.04	28.48	-58.6	-74.7	3.8	1.49e+00	0	23	104	0	82	24279
2026-01-11 22:53:11.20	78.36	28.51	-58.7	-74.7	3.8	1.49e+00	0	23	104	0	82	24241
2026-01-11 22:53:12.21	78.68	28.54	-58.7	-74.7	3.8	1.49e+00	0	23	104	0	82	24196
2026-01-11 22:53:13.22	79.01	28.57	-58.7	-74.7	3.8	1.49e+00	0	23	104	0	82	24230
2026-01-11 22:53:14.23	79.34	28.60	-58.6	-74.7	3.8	1.49e+00	0	23	104	0	82	24272
2026-01-11 22:53:15.24	79.66	28.63	-58.7	-74.7	3.8	1.49e+00	0	23	104	0	82	24255
2026-01-11 22:53:16.25	79.99	28.66	-58.7	-74.7	3.8	1.49e+00	0	23	104	0	82	24245
2026-01-11 22:53:17.26	80.32	28.69	-58.6	-74.7	3.8	1.49e+00	0	23	104	0	82	24304
2026-01-11 22:53:18.27	80.65	28.71	-58.7	-74.7	3.8	1.49e+00	0	23	104	0	82	24299
2026-01-11 22:53:19.28	80.98	28.74	-58.7	-74.7	3.8	1.49e+00	0	23	104	0	82	24233
2026-01-11 22:53:20.28	81.30	28.76	-58.7	-74.7	3.8	1.49e+00	0	23	104	0	82	24201
2026-01-11 22:53:21.29	81.63	28.78	-58.6	-74.7	3.8	1.49e+00	0	23	104	0	82	24216
2026-01-11 22:53:22.30	81.96	28.81	-58.6	-74.7	3.8	1.49e+00	0	23	104	0	82	24226
2026-01-11 22:53:23.31	82.29	28.83	-58.7	-74.7	3.8	1.49e+00	0	23	104	0	82	24238
2026-01-11 22:53:24.32	82.63	28.85	-58.6	-74.7	3.8	1.49e+00	0	23	104	0	82	24245
2026-01-11 22:53:25.33	82.96	28.87	-58.6	-74.7	3.8	1.49e+00	0	23	104	0	82	24215
2026-01-11 22:53:26.34	83.29	28.88	-58.7	-74.7	3.8	1.49e+00	0	23	104	0	82	24187
2026-01-11 22:53:27.34	83.62	28.90	-58.7	-74.7	3.8	1.49e+00	0	23	104	0	82	24232
2026-01-11 22:53:28.35	83.95	28.92	-58.6	-74.7	3.8	1.49e+00	0	23	104	0	82	24201
2026-01-11 22:53:29.36	84.29	28.93	-58.6	-74.7	3.8	1.49e+00	0	23	104	0	82	24147
2026-01-11 22:53:30.37	84.62	28.95	-58.6	-74.7	3.8	1.49e+00	0	23	104	0	82	24226
2026-01-11 22:53:31.38	84.95	28.96	-58.6	-74.7	3.8	1.49e+00	0	23	104	0	82	24241
2026-01-11 22:53:32.39	85.29	28.97	-58.6	-74.7	3.8	1.49e+00	0	23	104	0	82	24167
2026-01-11 22:53:33.40	85.62	28.98	-58.6	-74.7	3.8	1.49e+00	0	23	104	0	82	24230
2026-01-11 22:53:34.41	85.96	28.99	-58.7	-74.7	3.8	1.49e+00	0	23	104	0	82	24209
2026-01-11 22:53:35.42	86.29	29.00	-58.6	-74.7	3.8	1.49e+00	0	23	104	0	82	24234
2026-01-11 22:53:36.43	86.63	29.01	-58.6	-74.7	3.8	1.49e+00	0	23	104	0	82	24197
2026-01-11 22:53:37.44	86.96	29.01	-58.6	-74.7	3.8	1.49e+00	0	23	104	0	82	24210
2026-01-11 22:53:38.45	87.30	29.02	-58.6	-74.7	3.8	1.49e+00	0	23	104	0	82	24155
2026-01-11 22:53:39.46	87.63	29.02	-58.6	-74.7	3.8	1.49e+00	0	23	104	0	82	24212
2026-01-11 22:53:40.46	87.97	29.03	-58.6	-74.7	3.8	1.49e+00	0	23	104	0	82	24265
2026-01-11 22:53:41.47	88.30	29.03	-58.7	-74.7	3.8	1.49e+00	0	23	104	0	82	24249
2026-01-11 22:53:42.47	88.63	29.03	-58.6	-74.7	3.8	1.49e+00	0	23	104	0	82	24217
2026-01-11 22:53:43.48	88.97	29.03	-58.6	-74.7	3.8	1.49e+00	0	23	104	0	82	24195
2026-01-11 22:53:44.49	89.30	29.03	-58.6	-74.7	3.8	1.49e+00	0	23	104	0	82	24145
2026-01-11 22:53:45.50	89.64	29.03	-58.6	-74.7	3.8	1.49e+00	0	23	104	0	82	24189
2026-01-11 22:53:46.51	89.98	29.03	-58.6	-74.7	3.8	1.49e+00	0	23	104	0	82	24180
2026-01-11 22:53:47.52	90.31	29.02	-58.6	-74.7	3.8	1.49e+00	0	23	104	0	82	24206
2026-01-11 22:53:48.53	90.65	29.02	-58.6	-74.7	3.8	1.49e+00	0	23	104	0	82	24240
2026-01-11 22:53:49.54	90.98	29.01	-58.6	-74.7	3.8	1.49e+00	0	23	104	0	82	24210
2026-01-11 22:53:50.55	91.32	29.01	-58.6	-74.7	3.8	1.49e+00	0	23	104	0	82	24159
2026-01-11 22:53:51.56	91.65	29.00	-58.7	-74.7	3.8	1.49e+00	0	23	104	0	82	24264
2026-01-11 22:53:52.56	91.98	28.99	-58.7	-74.7	3.8	1.49e+00	0	23	104	0	82	24264
2026-01-11 22:53:53.58	92.32	28.98	-58.6	-74.7	3.8	1.49e+00	0	23	104	0	82	24208
2026-01-11 22:53:54.59	92.66	28.97	-58.6	-74.7	3.8	1.49e+00	0	23	104	0	82	24167
2026-01-11 22:53:55.60	92.99	28.96	-58.6	-74.7	3.8	1.49e+00	0	23	104	0	82	24170
2026-01-11 22:53:56.60	93.32	28.94	-58.6	-74.7	3.8	1.49e+00	0	23	104	0	82	24183
2026-01-11 22:53:57.61	93.66	28.93	-58.6	-74.7	3.8	1.49e+00	0	23	104	0	82	24241
2026-01-11 22:53:58.62	93.99	28.91	-58.6	-74.7	3.8	1.49e+00	0	23	104	0	82	24155
2026-01-11 22:53:59.63	94.32	28.90	-58.6	-74.7	3.8	1.49e+00	0	23	104	0	82	24146
2026-01-11 22:54:00.63	94.65	28.88	-58.6	-74.7	3.8	1.49e+00	0	23	104	0	82	24195
2026-01-11 22:54:01.65	94.99	28.86	-58.6	-74.7	3.8	1.49e+00	0	23	104	0	82	24209
2026-01-11 22:54:02.66	95.32	28.84	-58.6	-74.7	3.8	1.49e+00	0	23	104	0	82	24184
2026-01-11 22:54:03.67	95.65	28.82	-58.6	-74.7	3.8	1.49e+00	0	23	104	0	82	24202
2026-01-11 22:54:04.68	95.98	28.80	-58.6	-74.7	3.8	1.49e+00	0	23	104	0	82	24195
2026-01-11 22:54:05.69	96.31	28.78	-58.6	-74.7	3.8	1.49e+00	0	23	104	0	82	24134
2026-01-11 22:54:06.70	96.64	28.75	-58.6	-74.7	3.8	1.49e+00	0	23	104	0	82	24138
2026-01-11 22:54:07.71	96.97	28.73	-58.6	-74.7	3.8	1.49e+00	0	23	104	0	82	24165
2026-01-11 22:54:08.71	97.30	28.71	-58.7	-74.7	3.8	1.49e+00	0	23	104	0	82	24260
2026-01-11 22:54:09.73	97.63	28.68	-58.6	-74.7	3.8	1.49e+00	0	23	104	0	82	24187
2026-01-11 22:54:10.74	97.96	28.65	-58.6	-74.7	3.8	1.49e+00	0	23	104	0	82	24235
2026-01-11 22:54:11.74	98.29	28.62	-58.7	-74.7	3.8	1.49e+00	0	23	104	0	82	24210
2026-01-11 22:54:12.75	98.61	28.59	-58.6	-74.6	3.8	1.49e+00	0	23	104	0	82	24124
2026-01-11 22:54:13.76	98.94	28.56	-58.6	-74.7	3.8	1.49e+00	0	23	104	0	82	24166
2026-01-11 22:54:14.77	99.27	28.53	-58.6	-74.7	3.8	1.49e+00	0	23	104	0	82	24195
2026-01-11 22:54:15.78	99.59	28.50	-58.6	-74.7	3.8	1.49e+00	0	23	104	0	82	24219
2026-01-11 22:54:16.79	99.92	28.47	-58.6	-74.7	3.8	1.49e+00	0	23	104	0	82	24149
2026-01-11 22:54:17.80	100.24	28.43	-58.6	-74.7	3.8	1.49e+00	0	23	104	0	82	24152
2026-01-11 22:54:18.81	100.56	28.40	-58.6	-74.7	3.8	1.49e+00	0	23	104	0	82	24153
2026-01-11 22:54:19.82	100.89	28.36	-58.6	-74.7	3.8	1.49e+00	0	23	104	0	82	24163
2026-01-11 22:54:20.83	101.21	28.33	-58.6	-74.7	3.8	1.49e+00	0	23	104	0	82	24172
2026-01-11 22:54:21.84	101.53	28.29	-58.6	-74.7	3.8	1.49e+00	0	23	104	0	82	24175
2026-01-11 22:54:22.85	101.85	28.25	-58.6	-74.7	3.8	1.49e+00	0	23	104	0	82	24140
2026-01-11 22:54:23.85	102.17	28.21	-58.6	-74.7	3.8	1.49e+00	0	23	104	0	82	24199
2026-01-11 22:54:24.86	102.49	28.17	-58.6	-74.7	3.8	1.49e+00	0	23	104	0	82	24228
2026-01-11 22:54:25.87	102.80	28.13	-58.6	-74.7	3.8	1.49e+00	0	23	104	0	82	24165
2026-01-11 22:54:26.88	103.12	28.09	-58.6	-74.7	3.8	1.49e+00	0	23	104	0	82	24195
2026-01-11 22:54:27.88	103.44	28.05	-58.6	-74.7	3.8	1.49e+00	0	23	104	0	82	24151
2026-01-11 22:54:28.89	103.75	28.00	-58.6	-74.7	3.8	1.49e+00	0	23	104	0	82	24177
2026-01-11 22:54:29.90	104.07	27.96	-58.6	-74.7	3.8	1.49e+00	0	23	104	0	82	24182
2026-01-11 22:54:30.91	104.38	27.91	-58.6	-74.7	3.8	1.49e+00	0	23	104	0	82	24217
2026-01-11 22:54:31.92	104.69	27.87	-58.6	-74.7	3.8	1.49e+00	0	23	104	0	82	24185
2026-01-11 22:54:32.94	105.01	27.82	-58.6	-74.7	3.8	1.49e+00	0	23	104	0	82	24134
2026-01-11 22:54:33.94	105.32	27.77	-58.6	-74.6	3.8	1.49e+00	0	23	104	0	82	24104
2026-01-11 22:54:34.95	105.63	27.72	-58.6	-74.7	3.8	1.49e+00	0	23	104	0	82	24148
2026-01-11 22:54:35.96	105.94	27.67	-58.6	-74.7	3.8	1.49e+00	0	23	104	0	82	24138
2026-01-11 22:54:36.97	106.25	27.62	-58.6	-74.7	3.8	1.49e+00	0	23	104	0	82	24207
2026-01-11 22:54:37.97	106.55	27.57	-58.6	-74.7	3.8	1.49e+00	0	23	104	0	82	24188
2026-01-11 22:54:38.98	106.86	27.52	-58.6	-74.7	3.8	1.49e+00	0	23	104	0	82	24140
2026-01-11 22:54:39.99	107.16	27.47	-58.6	-74.7	3.8	1.49e+00	0	23	104	0	82	24249
2026-01-11 22:54:41.00	107.47	27.41	-58.6	-74.7	3.8	1.49e+00	0	23	104	0	82	24188
2026-01-11 22:54:42.00	107.77	27.36	-58.6	-74.7	3.8	1.49e+00	0	23	104	0	82	24209
2026-01-11 22:54:43.01	108.07	27.31	-58.6	-74.7	3.8	1.49e+00	0	23	104	0	82	24156
2026-01-11 22:54:44.02	108.37	27.25	-58.6	-74.7	3.8	1.49e+00	0	23	104	0	82	24180
2026-01-11 22:54:45.03	108.68	27.19	-58.6	-74.6	3.8	1.49e+00	0	23	104	0	82	24104
2026-01-11 22:54:46.04	108.97	27.14	-58.6	-74.6	3.8	1.49e+00	0	23	104	0	82	24130
2026-01-11 22:54:47.05	109.27	27.08	-58.6	-74.6	3.8	1.49e+00	0	23	104	0	82	24110
2026-01-11 22:54:48.06	109.57	27.02	-58.6	-74.6	3.8	1.49e+00	0	23	104	0	82	24103
2026-01-11 22:54:49.07	109.87	26.96	-58.6	-74.7	3.8	1.49e+00	0	23	104	0	82	24144
2026-01-11 22:54:50.08	110.16	26.90	-58.6	-74.7	3.8	1.49e+00	0	23	104	0	82	24205
2026-01-11 22:54:51.09	110.46	26.84	-58.6	-74.7	3.8	1.49e+00	0	23	104	0	82	24181
2026-01-11 22:54:52.10	110.75	26.78	-58.6	-74.7	3.8	1.49e+00	0	23	104	0	82	24233
2026-01-11 22:54:53.10	111.04	26.72	-58.6	-74.7	3.8	1.49e+00	0	23	104	0	82	24202
2026-01-11 22:54:54.11	111.33	26.66	-58.6	-74.7	3.8	1.49e+00	0	23	104	0	82	24146
2026-01-11 22:54:55.12	111.62	26.59	-58.6	-74.7	3.8	1.49e+00	0	23	104	0	82	24158
2026-01-11 22:54:56.13	111.91	26.53	-58.6	-74.7	3.8	1.49e+00	0	23	104	0	82	24165
2026-01-11 22:54:57.14	112.20	26.47	-58.6	-74.6	3.8	1.49e+00	0	23	104	0	82	24086
2026-01-11 22:54:58.14	112.48	26.40	-58.6	-74.6	3.8	1.49e+00	0	23	104	0	82	24122
2026-01-11 22:54:59.15	112.77	26.34	-58.6	-74.6	3.8	1.49e+00	0	23	104	0	82	24114
2026-01-11 22:55:00.16	113.05	26.27	-58.6	-74.7	3.8	1.49e+00	0	23	104	0	82	24208
2026-01-11 22:55:01.17	113.33	26.20	-58.6	-74.7	3.8	1.49e+00	0	23	104	0	82	24132
2026-01-11 22:55:02.18	113.62	26.14	-58.6	-74.7	3.8	1.49e+00	0	23	104	0	82	24133
2026-01-11 22:55:03.19	113.90	26.07	-58.6	-74.7	3.8	1.49e+00	0	23	104	0	82	24191
2026-01-11 22:55:04.20	114.18	26.00	-58.6	-74.7	3.8	1.49e+00	0	23	104	0	82	24196
2026-01-11 22:55:05.21	114.46	25.93	-58.6	-74.7	3.8	1.49e+00	0	23	104	0	82	24183
2026-01-11 22:55:06.22	114.73	25.86	-58.6	-74.7	3.8	1.49e+00	0	23	104	0	82	24220
2026-01-11 22:55:07.23	115.01	25.79	-58.6	-74.6	3.8	1.49e+00	0	23	104	0	82	24113
2026-01-11 22:55:08.23	115.28	25.72	-58.6	-74.7	3.8	1.49e+00	0	23	104	0	82	24210
2026-01-11 22:55:09.24	115.55	25.65	-58.6	-74.7	3.8	1.49e+00	0	23	104	0	82	24137
2026-01-11 22:55:10.25	115.83	25.58	-58.6	-74.7	3.8	1.49e+00	0	23	104	0	82	24155
2026-01-11 22:55:11.26	116.10	25.51	-58.6	-74.7	3.8	1.49e+00	0	23	104	0	82	24158
2026-01-11 22:55:12.27	116.37	25.44	-58.6	-74.7	3.8	1.49e+00	0	23	104	0	82	24189
2026-01-11 22:55:13.28	116.64	25.37	-58.6	-74.7	3.8	1.49e+00	0	23	104	0	82	24170
2026-01-11 22:55:14.29	116.91	25.29	-58.6	-74.7	3.8	1.49e+00	0	23	104	0	82	24214
2026-01-11 22:55:15.30	117.17	25.22	-58.6	-74.7	3.8	1.49e+00	0	23	104	0	82	24133
2026-01-11 22:55:16.31	117.44	25.15	-58.6	-74.7	3.8	1.49e+00	0	23	104	0	82	24136
2026-01-11 22:55:17.32	117.70	25.07	-58.6	-74.6	3.8	1.49e+00	0	23	104	0	82	24124
2026-01-11 22:55:18.33	117.96	25.00	-58.6	-74.7	3.8	1.49e+00	0	23	104	0	82	24160
2026-01-11 22:55:19.34	118.23	24.92	-58.6	-74.7	3.9	1.49e+00	0	23	104	0	82	24189
2026-01-11 22:55:20.34	118.48	24.85	-58.6	-74.7	3.8	1.49e+00	0	23	104	0	82	24137
2026-01-11 22:55:21.35	118.74	24.77	-58.6	-74.6	3.8	1.49e+00	0	23	104	0	82	24122
2026-01-11 22:55:22.36	119.00	24.69	-58.6	-74.7	3.8	1.49e+00	0	23	104	0	82	24166
2026-01-11 22:55:23.37	119.26	24.62	-58.6	-74.7	3.8	1.49e+00	0	23	104	0	82	24152
2026-01-11 22:55:24.38	119.51	24.54	-58.6	-74.7	3.8	1.49e+00	0	23	104	0	82	24145
2026-01-11 22:55:25.39	119.77	24.46	-58.6	-74.7	3.8	1.49e+00	0	23	104	0	82	24157
2026-01-11 22:55:26.40	120.02	24.38	-58.6	-74.7	3.8	1.49e+00	0	23	104	0	82	24147
2026-01-11 22:55:27.41	120.27	24.31	-58.6	-74.7	3.8	1.49e+00	0	23	104	0	82	24146
2026-01-11 22:55:28.41	120.52	24.23	-58.6	-74.6	3.8	1.49e+00	0	23	104	0	82	24073
2026-01-11 22:55:29.42	120.77	24.15	-58.6	-74.7	3.8	1.49e+00	0	23	104	0	82	24139
2026-01-11 22:55:30.43	121.02	24.07	-58.6	-74.6	3.8	1.49e+00	0	23	104	0	82	24097
2026-01-11 22:55:31.44	121.27	23.99	-58.6	-74.6	3.8	1.49e+00	0	23	104	0	82	24104
2026-01-11 22:55:32.45	121.51	23.91	-58.6	-74.7	3.8	1.49e+00	0	23	104	0	82	24144
2026-01-11 22:55:33.46	121.76	23.83	-58.6	-74.6	3.8	1.49e+00	0	23	104	0	82	24114
2026-01-11 22:55:34.47	122.00	23.75	-58.6	-74.7	3.8	1.49e+00	0	23	104	0	82	24156
2026-01-11 22:55:35.48	122.24	23.67	-58.6	-74.6	3.8	1.49e+00	0	23	104	0	82	24106
2026-01-11 22:55:36.49	122.48	23.59	-58.6	-74.7	3.8	1.49e+00	0	23	104	0	82	24139
2026-01-11 22:55:37.50	122.72	23.51	-58.6	-74.6	3.8	1.49e+00	0	23	104	0	82	24104
2026-01-11 22:55:38.50	122.96	23.43	-58.6	-74.7	3.8	1.49e+00	0	23	104	0	82	24150
2026-01-11 22:55:39.51	123.20	23.35	-58.6	-74.7	3.8	1.49e+00	0	23	104	0	82	24179
2026-01-11 22:55:40.52	123.43	23.26	-58.6	-74.6	3.8	1.49e+00	0	23	104	0	82	24098
2026-01-11 22:55:41.53	123.67	23.18	-58.6	-74.7	3.8	1.49e+00	0	23	104	0	82	24155
2026-01-11 22:55:42.54	123.90	23.10	-58.6	-74.6	3.8	1.49e+00	0	23	104	0	82	24026
2026-01-11 22:55:43.55	124.13	23.02	-58.6	-74.6	3.8	1.49e+00	0	23	104	0	82	24046
2026-01-11 22:55:44.56	124.36	22.94	-58.6	-74.6	3.8	1.49e+00	0	23	104	0	82	24103
2026-01-11 22:55:45.57	124.59	22.85	-58.6	-74.6	3.8	1.49e+00	0	23	104	0	82	24072
2026-01-11 22:55:46.58	124.82	22.77	-58.6	-74.6	3.8	1.49e+00	0	23	104	0	82	24103
2026-01-11 22:55:47.59	125.05	22.69	-58.6	-74.6	3.8	1.49e+00	0	23	104	0	82	24104
2026-01-11 22:55:48.60	125.28	22.60	-58.6	-74.6	3.8	1.49e+00	0	23	104	0	82	24089
2026-01-11 22:55:49.60	125.50	22.52	-58.6	-74.7	3.8	1.49e+00	0	23	104	0	82	24160
2026-01-11 22:55:50.61	125.72	22.44	-58.6	-74.6	3.8	1.49e+00	0	23	104	0	82	24092
2026-01-11 22:55:51.62	125.95	22.35	-58.6	-74.6	3.8	1.49e+00	0	23	104	0	82	24101
2026-01-11 22:55:52.63	126.17	22.27	-58.6	-74.6	3.8	1.49e+00	0	23	104	0	82	24093
2026-01-11 22:55:53.64	126.39	22.18	-58.6	-74.7	3.8	1.49e+00	0	23	104	0	82	24149
2026-01-11 22:55:54.65	126.61	22.10	-58.6	-74.6	3.8	1.49e+00	0	23	104	0	82	24066
2026-01-11 22:55:55.66	126.83	22.01	-58.6	-74.6	3.8	1.49e+00	0	23	104	0	82	24111
2026-01-11 22:55:56.67	127.05	21.93	-58.6	-74.6	3.8	1.49e+00	0	23	104	0	82	24030
2026-01-11 22:55:57.67	127.26	21.85	-58.6	-74.6	3.8	1.49e+00	0	23	104	0	82	24045
2026-01-11 22:55:58.68	127.47	21.76	-58.6	-74.6	3.8	1.49e+00	0	23	104	0	82	24027
2026-01-11 22:55:59.69	127.69	21.68	-58.6	-74.6	3.8	1.49e+00	0	23	104	0	82	23992
2026-01-11 22:56:00.69	127.90	21.59	-58.6	-74.6	3.8	1.49e+00	0	23	104	0	82	24065
2026-01-11 22:56:01.70	128.11	21.51	-58.6	-74.6	3.8	1.49e+00	0	23	104	0	82	24051
2026-01-11 22:56:02.71	128.32	21.42	-58.6	-74.6	3.8	1.49e+00	0	23	104	0	82	24031
2026-01-11 22:56:03.72	128.53	21.33	-58.6	-74.6	3.8	1.49e+00	0	23	104	0	82	24008
2026-01-11 22:56:04.73	128.74	21.25	-58.6	-74.6	3.8	1.49e+00	0	23	104	0	82	23985
2026-01-11 22:56:05.74	128.95	21.16	-58.6	-74.6	3.8	1.49e+00	0	23	104	0	82	24115
2026-01-11 22:56:06.75	129.15	21.08	-58.6	-74.6	3.8	1.49e+00	0	23	104	0	82	24088
2026-01-11 22:56:07.76	129.36	20.99	-58.6	-74.6	3.8	1.49e+00	0	23	104	0	82	24061
2026-01-11 22:56:08.77	129.56	20.91	-58.6	-74.6	3.8	1.49e+00	0	23	104	0	82	24122
2026-01-11 22:56:09.78	129.76	20.82	-58.6	-74.6	3.8	1.49e+00	0	23	104	0	82	24070
2026-01-11 22:56:10.79	129.96	20.73	-58.6	-74.6	3.8	1.49e+00	0	23	104	0	82	24116
2026-01-11 22:56:11.80	130.16	20.65	-58.6	-74.6	3.8	1.49e+00	0	23	104	0	82	24091
2026-01-11 22:56:12.81	130.36	20.56	-58.6	-74.6	3.8	1.49e+00	0	23	104	0	82	24055
2026-01-11 22:56:13.81	130.56	20.48	-58.6	-74.6	3.8	1.49e+00	0	23	104	0	82	24111
2026-01-11 22:56:14.82	130.76	20.39	-58.6	-74.6	3.8	1.49e+00	0	23	104	0	82	24073
2026-01-11 22:56:15.83	130.95	20.30	-58.6	-74.6	3.8	1.49e+00	0	23	104	0	82	24076
2026-01-11 22:56:16.84	131.15	20.22	-58.6	-74.6	3.8	1.49e+00	0	23	104	0	82	24053
2026-01-11 22:56:17.85	131.34	20.13	-58.6	-74.6	3.8	1.49e+00	0	23	104	0	82	24051
2026-01-11 22:56:18.86	131.53	20.05	-58.6	-74.6	3.8	1.49e+00	0	23	104	0	82	24001
2026-01-11 22:56:19.87	131.73	19.96	-58.6	-74.6	3.8	1.49e+00	0	23	104	0	82	23990
2026-01-11 22:56:20.88	131.92	19.87	-58.6	-74.6	3.8	1.49e+00	0	23	104	0	82	23994
2026-01-11 22:56:21.89	132.11	19.79	-58.6	-74.6	3.8	1.49e+00	0	23	104	0	82	24050
2026-01-11 22:56:22.90	132.30	19.70	-58.6	-74.6	3.8	1.49e+00	0	23	104	0	82	24027
2026-01-11 22:56:23.91	132.48	19.61	-58.6	-74.6	3.8	1.49e+00	0	23	104	0	82	24067
2026-01-11 22:56:24.91	132.67	19.53	-58.6	-74.6	3.8	1.49e+00	0	23	104	0	82	24095
2026-01-11 22:56:25.92	132.85	19.44	-58.6	-74.7	3.8	1.49e+00	0	23	104	0	82	24149
2026-01-11 22:56:26.93	133.04	19.36	-58.6	-74.6	3.8	1.49e+00	0	23	104	0	82	24020
2026-01-11 22:56:27.94	133.22	19.27	-58.6	-74.6	3.8	1.49e+00	0	23	104	0	82	24056
2026-01-11 22:56:28.95	133.41	19.18	-58.6	-74.6	3.8	1.49e+00	0	23	104	0	82	24002
2026-01-11 22:56:29.96	133.59	19.10	-58.6	-74.6	3.8	1.49e+00	0	23	104	0	82	24039
2026-01-11 22:56:30.97	133.77	19.01	-58.6	-74.6	3.8	1.49e+00	0	23	104	0	82	24012
2026-01-11 22:56:31.98	133.95	18.92	-58.6	-74.6	3.8	1.49e+00	0	23	104	0	82	24008
2026-01-11 22:56:32.99	134.13	18.84	-58.6	-74.6	3.8	1.49e+00	0	23	104	0	82	23963
2026-01-11 22:56:34.00	134.30	18.75	-58.6	-74.6	3.8	1.49e+00	0	23	104	0	82	24110
2026-01-11 22:56:35.01	134.48	18.67	-58.6	-74.6	3.8	1.49e+00	0	23	104	0	82	24061
2026-01-11 22:56:36.02	134.66	18.58	-58.6	-74.6	3.8	1.49e+00	0	23	104	0	82	24106
2026-01-11 22:56:37.03	134.83	18.49	-58.6	-74.6	3.8	1.49e+00	0	23	104	0	82	24071
2026-01-11 22:56:38.03	135.00	18.41	-58.6	-74.6	3.8	1.49e+00	0	23	104	0	82	23973
2026-01-11 22:56:39.04	135.18	18.32	-58.6	-74.6	3.8	1.49e+00	0	23	104	0	82	24045
2026-01-11 22:56:40.05	135.35	18.24	-58.6	-74.6	3.8	1.49e+00	0	23	104	0	82	24038
2026-01-11 22:56:41.05	135.52	18.15	-58.6	-74.6	3.8	1.49e+00	0	23	104	0	82	24101
2026-01-11 22:56:42.06	135.69	18.07	-58.6	-74.6	3.8	1.49e+00	0	23	104	0	82	24037
2026-01-11 22:56:43.07	135.86	17.98	-58.6	-74.6	3.8	1.49e+00	0	23	104	0	82	24020
2026-01-11 22:56:44.07	136.02	17.90	-58.6	-74.6	3.8	1.49e+00	0	23	104	0	82	24088
2026-01-11 22:56:45.08	136.19	17.81	-58.6	-74.6	3.8	1.49e+00	0	23	104	0	82	24076
2026-01-11 22:56:46.09	136.36	17.72	-58.6	-74.6	3.8	1.49e+00	0	23	104	0	82	24078
2026-01-11 22:56:47.10	136.52	17.64	-58.6	-74.6	3.8	1.49e+00	0	23	104	0	82	24062
2026-01-11 22:56:48.11	136.69	17.55	-58.6	-74.6	3.8	1.49e+00	0	23	104	0	82	24018
2026-01-11 22:56:49.12	136.85	17.47	-58.6	-74.6	3.8	1.49e+00	0	23	104	0	82	24060
2026-01-11 22:56:50.13	137.01	17.38	-58.6	-74.6	3.8	1.49e+00	0	23	104	0	82	24074
2026-01-11 22:56:51.14	137.18	17.30	-58.6	-74.6	3.8	1.49e+00	0	23	104	0	82	24058
2026-01-11 22:56:52.14	137.33	17.21	-58.6	-74.6	3.8	1.49e+00	0	23	104	0	82	24066
2026-01-11 22:56:53.15	137.49	17.13	-58.6	-74.6	3.8	1.49e+00	0	23	104	0	82	24054
2026-01-11 22:56:54.16	137.65	17.04	-58.6	-74.6	3.8	1.49e+00	0	23	104	0	82	24090
2026-01-11 22:56:55.17	137.81	16.96	-58.6	-74.6	3.8	1.49e+00	0	23	104	0	82	23948
2026-01-11 22:56:56.18	137.97	16.87	-58.6	-74.6	3.8	1.49e+00	0	23	104	0	82	23981
2026-01-11 22:56:57.19	138.13	16.79	-58.6	-74.6	3.8	1.49e+00	0	23	104	0	82	24032
2026-01-11 22:56:58.19	138.28	16.71	-58.6	-74.6	3.8	1.49e+00	0	23	104	0	82	23981
2026-01-11 22:56:59.20	138.44	16.62	-58.6	-74.6	3.8	1.49e+00	0	23	104	0	82	24012
2026-01-11 22:57:00.21	138.59	16.54	-58.6	-74.6	3.8	1.49e+00	0	23	104	0	82	24116
2026-01-11 22:57:01.21	138.74	16.45	-58.6	-74.6	3.8	1.49e+00	0	23	104	0	82	24006
2026-01-11 22:57:02.22	138.89	16.37	-58.6	-74.6	3.8	1.49e+00	0	23	104	0	82	24010
2026-01-11 22:57:03.23	139.05	16.28	-58.6	-74.6	3.8	1.49e+00	0	23	104	0	82	24079
2026-01-11 22:57:04.24	139.20	16.20	-58.6	-74.6	3.8	1.49e+00	0	23	104	0	82	24067
2026-01-11 22:57:05.25	139.35	16.12	-58.6	-74.6	3.8	1.49e+00	0	23	104	0	82	23990
2026-01-11 22:57:06.26	139.50	16.03	-58.6	-74.6	3.8	1.49e+00	0	23	104	0	82	24041
2026-01-11 22:57:07.27	139.64	15.95	-58.6	-74.6	3.8	1.49e+00	0	23	104	0	82	24034
2026-01-11 22:57:08.28	139.79	15.87	-58.6	-74.6	3.8	1.49e+00	0	23	104	0	82	24031
2026-01-11 22:57:09.29	139.94	15.78	-58.6	-74.6	3.8	1.49e+00	0	23	104	0	82	23987
2026-01-11 22:57:10.30	140.09	15.70	-58.6	-74.6	3.8	1.49e+00	0	23	104	0	82	24026
2026-01-11 22:57:11.31	140.23	15.62	-58.6	-74.6	3.8	1.49e+00	0	23	104	0	82	24040
2026-01-11 22:57:12.32	140.38	15.53	-58.6	-74.6	3.8	1.49e+00	0	23	104	0	82	23981
2026-01-11 22:57:13.33	140.52	15.45	-58.6	-74.6	3.8	1.49e+00	0	23	104	0	82	24070
2026-01-11 22:57:14.34	140.66	15.37	-58.6	-74.6	3.8	1.49e+00	0	23	104	0	82	24037
2026-01-11 22:57:15.35	140.80	15.28	-58.6	-74.6	3.8	1.49e+00	0	23	104	0	82	24053
2026-01-11 22:57:16.36	140.95	15.20	-58.6	-74.6	3.8	1.49e+00	0	23	104	0	82	24094
2026-01-11 22:57:17.37	141.09	15.12	-58.6	-74.6	3.8	1.49e+00	0	23	104	0	82	24104
2026-01-11 22:57:18.38	141.23	15.04	-58.6	-74.6	3.8	1.49e+00	0	23	104	0	82	24040
2026-01-11 22:57:19.38	141.36	14.96	-58.6	-74.6	3.8	1.49e+00	0	23	104	0	82	24054
2026-01-11 22:57:20.39	141.50	14.87	-58.6	-74.6	3.8	1.49e+00	0	23	104	0	82	24119
2026-01-11 22:57:21.40	141.64	14.79	-58.6	-74.6	3.8	1.49e+00	0	23	104	0	82	24072
2026-01-11 22:57:22.41	141.78	14.71	-58.6	-74.6	3.8	1.49e+00	0	23	104	0	82	24087
2026-01-11 22:57:23.42	141.91	14.63	-58.6	-74.7	3.8	1.49e+00	0	23	104	0	82	24140
2026-01-11 22:57:24.43	142.05	14.55	-58.6	-74.6	3.8	1.49e+00	0	23	104	0	82	24044
2026-01-11 22:57:25.44	142.18	14.46	-58.6	-74.6	3.8	1.49e+00	0	23	104	0	82	24063
2026-01-11 22:57:26.45	142.32	14.38	-58.6	-74.6	3.8	1.49e+00	0	23	104	0	82	24070
2026-01-11 22:57:27.46	142.45	14.30	-58.6	-74.6	3.8	1.49e+00	0	23	104	0	82	24110
2026-01-11 22:57:28.47	142.58	14.22	-58.6	-74.6	3.8	1.49e+00	0	23	104	0	82	24072
2026-01-11 22:57:29.47	142.72	14.14	-58.6	-74.6	3.8	1.49e+00	0	23	104	0	82	24085
2026-01-11 22:57:30.48	142.85	14.06	-58.6	-74.6	3.8	1.49e+00	0	23	104	0	82	24033
2026-01-11 22:57:31.49	142.98	13.98	-58.6	-74.7	3.8	1.49e+00	0	23	104	0	82	24134
2026-01-11 22:57:32.50	143.11	13.90	-58.6	-74.6	3.8	1.49e+00	0	23	104	0	82	24052
2026-01-11 22:57:33.51	143.24	13.82	-58.6	-74.6	3.8	1.49e+00	0	23	104	0	82	24034
2026-01-11 22:57:34.52	143.37	13.74	-58.6	-74.6	3.8	1.49e+00	0	23	104	0	82	24087
2026-01-11 22:57:35.53	143.49	13.66	-58.6	-74.6	3.8	1.49e+00	0	23	104	0	82	24084
2026-01-11 22:57:36.54	143.62	13.58	-58.6	-74.6	3.8	1.49e+00	0	23	104	0	82	24060
2026-01-11 22:57:37.55	143.75	13.50	-58.6	-74.6	3.8	1.49e+00	0	23	104	0	82	24047
2026-01-11 22:57:38.55	143.87	13.42	-58.6	-74.6	3.8	1.49e+00	0	23	104	0	82	24105
2026-01-11 22:57:39.56	144.00	13.34	-58.6	-74.6	3.8	1.49e+00	0	23	104	0	82	24042
2026-01-11 22:57:40.57	144.12	13.26	-58.6	-74.6	3.8	1.49e+00	0	23	104	0	82	24066
2026-01-11 22:57:41.58	144.25	13.18	-58.6	-74.6	3.8	1.49e+00	0	23	104	0	82	23985
2026-01-11 22:57:42.59	144.37	13.10	-58.6	-74.6	3.8	1.49e+00	0	23	104	0	82	24029
2026-01-11 22:57:43.60	144.49	13.02	-58.6	-74.6	3.8	1.49e+00	0	23	104	0	82	24034
2026-01-11 22:57:44.60	144.61	12.94	-58.6	-74.6	3.8	1.49e+00	0	23	104	0	82	24001
2026-01-11 22:57:45.61	144.73	12.86	-58.6	-74.6	3.8	1.49e+00	0	23	104	0	82	24042
2026-01-11 22:57:46.62	144.86	12.79	-58.6	-74.6	3.8	1.49e+00	0	23	104	0	82	24009
2026-01-11 22:57:47.63	144.98	12.71	-58.6	-74.6	3.8	1.49e+00	0	23	104	0	82	24076
2026-01-11 22:57:48.64	145.10	12.63	-58.6	-74.6	3.8	1.49e+00	0	23	104	0	82	24035
2026-01-11 22:57:49.65	145.21	12.55	-58.6	-74.6	3.8	1.49e+00	0	23	104	0	82	24026
2026-01-11 22:57:50.66	145.33	12.47	-58.6	-74.6	3.8	1.49e+00	0	23	104	0	82	23990
2026-01-11 22:57:51.67	145.45	12.39	-58.6	-74.6	3.8	1.49e+00	0	23	104	0	82	24004
2026-01-11 22:57:52.68	145.57	12.32	-58.6	-74.6	3.8	1.49e+00	0	23	104	0	82	24006
2026-01-11 22:57:53.69	145.69	12.24	-58.6	-74.6	3.8	1.49e+00	0	23	104	0	82	23993
2026-01-11 22:57:54.70	145.80	12.16	-58.6	-74.6	3.8	1.49e+00	0	23	104	0	82	23981
2026-01-11 22:57:55.71	145.92	12.08	-58.6	-74.6	3.8	1.49e+00	0	23	104	0	82	24043
2026-01-11 22:57:56.72	146.03	12.01	-58.6	-74.6	3.8	1.49e+00	0	23	104	0	82	24090
2026-01-11 22:57:57.73	146.15	11.93	-58.6	-74.6	3.8	1.49e+00	0	23	104	0	82	24005
2026-01-11 22:57:58.74	146.26	11.85	-58.6	-74.6	3.8	1.49e+00	0	23	104	0	82	24027
2026-01-11 22:57:59.74	146.37	11.78	-58.6	-74.6	3.8	1.49e+00	0	23	104	0	82	24022
2026-01-11 22:58:00.75	146.48	11.70	-58.6	-74.6	3.8	1.49e+00	0	23	104	0	82	23998
2026-01-11 22:58:01.76	146.60	11.62	-58.6	-74.6	3.8	1.49e+00	0	23	104	0	82	24004
2026-01-11 22:58:02.77	146.71	11.55	-58.6	-74.6	3.8	1.49e+00	0	23	104	0	82	24067
2026-01-11 22:58:03.78	146.82	11.47	-58.6	-74.6	3.8	1.49e+00	0	23	104	0	82	24018
2026-01-11 22:58:04.79	146.93	11.40	-58.6	-74.6	3.8	1.49e+00	0	23	104	0	82	23972
2026-01-11 22:58:05.80	147.04	11.32	-58.6	-74.6	3.8	1.49e+00	0	23	104	0	82	24058
2026-01-11 22:58:06.81	147.15	11.24	-58.6	-74.6	3.8	1.49e+00	0	23	104	0	82	24003
2026-01-11 22:58:07.82	147.26	11.17	-58.6	-74.6	3.8	1.49e+00	0	23	104	0	82	24003
2026-01-11 22:58:08.83	147.37	11.09	-58.6	-74.6	3.8	1.49e+00	0	23	104	0	82	24003
2026-01-11 22:58:09.84	147.47	11.02	-58.6	-74.6	3.8	1.49e+00	0	23	104	0	82	24036
2026-01-11 22:58:10.84	147.58	10.94	-58.6	-74.6	3.8	1.49e+00	0	23	104	0	82	24059
2026-01-11 22:58:11.85	147.69	10.87	-58.6	-74.6	3.8	1.49e+00	0	23	104	0	82	23927
2026-01-11 22:58:12.86	147.79	10.79	-58.6	-74.6	3.8	1.49e+00	0	23	104	0	82	24072
2026-01-11 22:58:13.87	147.90	10.72	-58.6	-74.6	3.8	1.49e+00	0	23	104	0	82	24023
2026-01-11 22:58:14.88	148.00	10.64	-58.6	-74.6	3.8	1.49e+00	0	23	104	0	82	24057
2026-01-11 22:58:15.89	148.11	10.57	-58.6	-74.6	3.8	1.49e+00	0	23	104	0	82	24054
2026-01-11 22:58:16.90	148.21	10.49	-58.6	-74.6	3.8	1.49e+00	0	23	104	0	82	24039
2026-01-11 22:58:17.90	148.31	10.42	-58.6	-74.6	3.8	1.49e+00	0	23	104	0	82	24011
2026-01-11 22:58:18.91	148.42	10.35	-58.6	-74.6	3.8	1.49e+00	0	23	104	0	82	24038
2026-01-11 22:58:19.91	148.52	10.27	-58.6	-74.6	3.8	1.49e+00	0	23	104	0	82	23983
2026-01-11 22:58:20.92	148.62	10.20	-58.6	-74.6	3.8	1.49e+00	0	23	104	0	82	24020
2026-01-11 22:58:21.93	148.72	10.13	-58.6	-74.6	3.8	1.49e+00	0	23	104	0	82	23946
2026-01-11 22:58:22.94	148.82	10.05	-58.6	-74.6	3.8	1.49e+00	0	23	104	0	82	23986
2026-01-11 22:58:23.95	148.92	9.98	-58.6	-74.6	3.8	1.49e+00	0	23	104	0	82	23985
2026-01-11 22:58:24.96	149.02	9.91	-58.6	-74.6	3.8	1.49e+00	0	23	104	0	82	24001
2026-01-11 22:58:25.97	149.12	9.83	-58.6	-74.6	3.8	1.49e+00	0	23	104	0	82	24026
2026-01-11 22:58:26.98	149.22	9.76	-58.6	-74.6	3.8	1.49e+00	0	23	104	0	82	24012
2026-01-11 22:58:27.99	149.32	9.69	-58.6	-74.6	3.8	1.49e+00	0	23	104	0	82	23989
2026-01-11 22:58:29.00	149.42	9.61	-58.6	-74.6	3.8	1.49e+00	0	23	104	0	82	24044
2026-01-11 22:58:30.00	149.52	9.54	-58.6	-74.6	3.8	1.49e+00	0	23	104	0	82	24029
2026-01-11 22:58:31.01	149.61	9.47	-58.6	-74.6	3.8	1.49e+00	0	23	104	0	82	24017
2026-01-11 22:58:32.02	149.71	9.40	-58.6	-74.6	3.8	1.49e+00	0	23	104	0	82	23969
2026-01-11 22:58:33.03	149.81	9.33	-58.6	-74.6	3.8	1.49e+00	0	23	104	0	82	23999
2026-01-11 22:58:34.04	149.90	9.25	-58.6	-74.6	3.8	1.49e+00	0	23	104	0	82	24063
2026-01-11 22:58:35.05	150.00	9.18	-58.6	-74.6	3.8	1.49e+00	0	23	104	0	82	24077
2026-01-11 22:58:36.06	150.09	9.11	-58.6	-74.6	3.8	1.49e+00	0	23	104	0	82	24053
2026-01-11 22:58:37.07	150.19	9.04	-58.6	-74.6	3.8	1.49e+00	0	23	104	0	82	23967
2026-01-11 22:58:38.08	150.28	8.97	-58.6	-74.6	3.8	1.49e+00	0	23	104	0	82	24006
2026-01-11 22:58:39.08	150.38	8.90	-58.6	-74.6	3.8	1.49e+00	0	23	104	0	82	24040
2026-01-11 22:58:40.09	150.47	8.83	-58.6	-74.6	3.8	1.49e+00	0	23	104	0	82	23992
2026-01-11 22:58:41.09	150.56	8.76	-58.6	-74.6	3.8	1.49e+00	0	23	104	0	82	24034
2026-01-11 22:58:42.10	150.65	8.68	-58.6	-74.6	3.8	1.49e+00	0	23	104	0	82	24043
2026-01-11 22:58:43.12	150.75	8.61	-58.6	-74.6	3.8	1.49e+00	0	23	104	0	82	24007
2026-01-11 22:58:44.13	150.84	8.54	-58.6	-74.6	3.8	1.49e+00	0	23	104	0	82	23972
2026-01-11 22:58:45.13	150.93	8.47	-58.6	-74.6	3.8	1.49e+00	0	23	104	0	82	24017
2026-01-11 22:58:46.14	151.02	8.40	-58.6	-74.6	3.8	1.49e+00	0	23	104	0	82	24013
2026-01-11 22:58:47.15	151.11	8.33	-58.6	-74.6	3.8	1.49e+00	0	23	104	0	82	23983
2026-01-11 22:58:48.16	151.20	8.26	-58.6	-74.6	3.8	1.49e+00	0	23	104	0	82	23970
2026-01-11 22:58:49.17	151.29	8.19	-58.6	-74.6	3.8	1.49e+00	0	23	104	0	82	23948
2026-01-11 22:58:50.18	151.38	8.12	-58.6	-74.6	3.8	1.49e+00	0	23	104	0	82	23971
2026-01-11 22:58:51.19	151.47	8.05	-58.6	-74.6	3.8	1.49e+00	0	23	104	0	82	24026
2026-01-11 22:58:52.20	151.56	7.98	-58.6	-74.6	3.8	1.49e+00	0	23	104	0	82	24022
2026-01-11 22:58:53.21	151.64	7.91	-58.6	-74.6	3.8	1.49e+00	0	23	104	0	82	24023
2026-01-11 22:58:54.22	151.73	7.85	-58.6	-74.6	3.8	1.49e+00	0	23	104	0	82	23974
2026-01-11 22:58:55.23	151.82	7.78	-58.6	-74.6	3.8	1.49e+00	0	23	104	0	82	23992
2026-01-11 22:58:56.23	151.90	7.71	-58.6	-74.6	3.8	1.49e+00	0	23	104	0	82	23980
2026-01-11 22:58:57.24	151.99	7.64	-58.6	-74.6	3.8	1.49e+00	0	23	104	0	82	24022
2026-01-11 22:58:58.25	152.08	7.57	-58.6	-74.6	3.8	1.49e+00	0	23	104	0	82	24039
2026-01-11 22:58:59.26	152.16	7.50	-58.6	-74.6	3.8	1.49e+00	0	23	104	0	82	24038
2026-01-11 22:59:00.27	152.25	7.43	-58.6	-74.6	3.8	1.49e+00	0	23	104	0	82	23985
2026-01-11 22:59:01.28	152.33	7.37	-58.6	-74.6	3.8	1.49e+00	0	23	104	0	82	24025
2026-01-11 22:59:02.29	152.42	7.30	-58.6	-74.6	3.8	1.49e+00	0	23	104	0	82	23999
2026-01-11 22:59:03.30	152.50	7.23	-58.6	-74.6	3.8	1.49e+00	0	23	104	0	82	24056
2026-01-11 22:59:04.31	152.58	7.16	-58.6	-74.6	3.8	1.49e+00	0	23	104	0	82	23992
2026-01-11 22:59:05.32	152.67	7.09	-58.6	-74.6	3.8	1.49e+00	0	23	104	0	82	23973
2026-01-11 22:59:06.34	152.75	7.03	-58.6	-74.6	3.8	1.49e+00	0	23	104	0	82	24029
2026-01-11 22:59:07.35	152.83	6.96	-58.6	-74.6	3.8	1.49e+00	0	23	104	0	82	23969
2026-01-11 22:59:08.35	152.92	6.89	-58.6	-74.6	3.8	1.49e+00	0	23	104	0	82	23952
2026-01-11 22:59:09.37	153.00	6.82	-58.6	-74.6	3.8	1.49e+00	0	23	104	0	82	23969
2026-01-11 22:59:10.37	153.08	6.76	-58.6	-74.6	3.8	1.49e+00	0	23	104	0	82	24016
2026-01-11 22:59:11.38	153.16	6.69	-58.6	-74.6	3.8	1.49e+00	0	23	104	0	82	23976
2026-01-11 22:59:12.39	153.24	6.62	-58.6	-74.6	3.8	1.49e+00	0	23	104	0	82	23987
2026-01-11 22:59:13.39	153.32	6.56	-58.6	-74.6	3.8	1.49e+00	0	23	104	0	82	24004
2026-01-11 22:59:14.40	153.40	6.49	-58.6	-74.6	3.8	1.49e+00	0	23	104	0	82	23991
2026-01-11 22:59:15.41	153.48	6.42	-58.6	-74.6	3.8	1.49e+00	0	23	104	0	82	23963
2026-01-11 22:59:16.42	153.56	6.36	-58.6	-74.6	3.8	1.49e+00	0	23	104	0	82	24000
2026-01-11 22:59:17.43	153.64	6.29	-58.6	-74.6	3.8	1.49e+00	0	23	104	0	82	24041
2026-01-11 22:59:18.44	153.72	6.23	-58.6	-74.6	3.8	1.49e+00	0	23	104	0	82	24094
2026-01-11 22:59:19.45	153.80	6.16	-58.6	-74.6	3.8	1.49e+00	0	23	104	0	82	24047
2026-01-11 22:59:20.46	153.87	6.09	-58.6	-74.6	3.8	1.49e+00	0	23	104	0	82	23986
2026-01-11 22:59:21.46	153.95	6.03	-58.6	-74.6	3.8	1.49e+00	0	23	104	0	82	24005
2026-01-11 22:59:22.47	154.03	5.96	-58.6	-74.6	3.8	1.49e+00	0	23	104	0	82	23989
2026-01-11 22:59:23.48	154.11	5.90	-58.6	-74.6	3.8	1.49e+00	0	23	104	0	82	23979
2026-01-11 22:59:24.49	154.18	5.83	-58.6	-74.6	3.8	1.49e+00	0	23	104	0	82	24036
2026-01-11 22:59:25.50	154.26	5.77	-58.6	-74.6	3.8	1.49e+00	0	23	104	0	82	24046
