passes_logs/2026/01/11/R3.2S_Murmansk/R3.2S_Murmansk__20260111_012519_AQUA_rec.log

#Pass ID: 20260111_012519_AQUA
#Satellite: AQUA
#Configuration: AQUA
#almurnet v.1.7.20251203
#Start time: 2026-01-11 01:25:18

#Version: 2.2.20231116
#Station: R3.2S_Murmansk
#Location: 33.079688 lon 68.888172 lat
#TLE: 1 27424U 02022A   26009.89520876  .00001045  00000+0  21914-3 0  9996
#TLE: 2 27424  98.4076 336.2372 0002032  84.5955   1.0356 14.61811442260144

#Time	Az	El	Level	Level2	SNR	BER	BlckErr	Temp	State	Recorded	gain1	gain2
2026-01-11 01:25:18.55	21.75	1.97	-52.8	-72.1	3.8	7.47e-01	0	23	0	0	73	34952
2026-01-11 01:25:19.54	21.78	2.04	-52.8	-72.2	3.8	7.45e-01	0	23	104	0	73	35359
2026-01-11 01:25:20.54	21.82	2.10	-52.8	-72.2	3.8	7.44e-01	0	24	104	0	73	35448
2026-01-11 01:25:21.54	21.85	2.17	-52.8	-72.2	3.8	7.47e-01	0	24	104	0	73	35286
2026-01-11 01:25:22.54	21.88	2.23	-52.8	-72.1	3.8	7.44e-01	0	24	104	0	73	35209
2026-01-11 01:25:23.53	21.92	2.29	-52.8	-72.2	3.8	7.43e-01	0	24	104	0	73	35308
2026-01-11 01:25:24.54	21.95	2.36	-52.8	-72.2	3.8	7.45e-01	0	24	104	0	73	35325
2026-01-11 01:25:25.54	21.99	2.43	-52.8	-72.1	3.8	7.46e-01	0	24	104	0	73	35254
2026-01-11 01:25:26.54	22.02	2.49	-52.8	-72.2	3.8	7.43e-01	0	24	104	0	73	35293
2026-01-11 01:25:27.54	22.06	2.56	-52.8	-72.1	3.8	7.46e-01	0	24	104	0	73	35158
2026-01-11 01:25:28.54	22.09	2.62	-52.8	-72.1	3.8	7.49e-01	0	24	104	0	73	35039
2026-01-11 01:25:29.55	22.13	2.69	-52.8	-72.1	3.8	7.45e-01	0	24	104	0	73	35154
2026-01-11 01:25:30.55	22.17	2.76	-52.9	-72.1	3.8	7.47e-01	0	24	104	0	73	34915
2026-01-11 01:25:31.55	22.20	2.82	-52.8	-72.0	3.8	7.45e-01	0	24	104	0	73	34757
2026-01-11 01:25:32.54	22.24	2.89	-52.9	-72.0	3.8	7.48e-01	0	24	104	0	73	34638
2026-01-11 01:25:33.55	22.27	2.96	-52.9	-72.1	3.8	7.45e-01	0	24	104	0	73	34975
2026-01-11 01:25:34.55	22.31	3.02	-52.9	-72.1	3.8	7.47e-01	0	24	104	0	73	34914
2026-01-11 01:25:35.56	22.35	3.09	-52.9	-72.1	3.8	7.44e-01	0	24	104	0	73	35104
2026-01-11 01:25:36.56	22.38	3.16	-52.9	-72.2	3.8	7.48e-01	0	24	104	0	73	35375
2026-01-11 01:25:37.56	22.42	3.22	-52.9	-72.2	3.8	7.50e-01	0	24	104	0	73	35418
2026-01-11 01:25:38.55	22.46	3.29	-52.9	-72.2	3.8	7.45e-01	0	24	104	0	73	35447
2026-01-11 01:25:39.55	22.49	3.36	-52.9	-72.2	3.8	7.46e-01	0	24	104	0	73	35570
2026-01-11 01:25:40.56	22.53	3.43	-52.9	-72.2	3.8	7.47e-01	0	24	104	0	73	35533
2026-01-11 01:25:41.56	22.57	3.50	-52.9	-72.2	3.8	7.47e-01	0	24	104	0	73	35503
2026-01-11 01:25:42.56	22.61	3.56	-52.9	-72.2	3.8	7.46e-01	0	24	104	0	73	35599
2026-01-11 01:25:43.56	22.64	3.63	-52.9	-72.2	3.9	7.47e-01	0	24	104	0	73	35379
2026-01-11 01:25:44.56	22.68	3.70	-52.9	-72.2	3.8	7.45e-01	0	24	104	0	73	35494
2026-01-11 01:25:45.56	22.72	3.77	-52.9	-72.2	3.8	7.47e-01	0	25	104	0	73	35525
2026-01-11 01:25:46.55	22.76	3.84	-52.9	-72.2	3.8	7.46e-01	0	24	104	0	73	35526
2026-01-11 01:25:47.55	22.80	3.91	-52.9	-72.2	3.8	7.44e-01	0	24	104	0	73	35662
2026-01-11 01:25:48.55	22.83	3.98	-52.9	-72.3	3.8	7.50e-01	0	24	104	0	73	35705
2026-01-11 01:25:49.55	22.87	4.05	-52.9	-72.3	3.8	7.48e-01	0	24	104	0	73	35712
2026-01-11 01:25:50.56	22.91	4.12	-52.9	-72.3	3.8	7.45e-01	0	24	104	0	73	35746
2026-01-11 01:25:51.56	22.95	4.19	-52.9	-72.3	3.8	7.44e-01	0	24	104	0	73	35866
2026-01-11 01:25:52.56	22.99	4.26	-52.9	-72.3	3.8	7.46e-01	0	25	104	0	73	35808
2026-01-11 01:25:53.55	23.03	4.33	-52.9	-72.3	3.8	7.45e-01	0	25	104	0	73	35714
2026-01-11 01:25:54.55	23.07	4.40	-52.9	-72.3	3.8	7.47e-01	0	24	104	0	73	35837
2026-01-11 01:25:55.55	23.11	4.47	-52.9	-72.3	3.8	7.45e-01	0	24	104	0	73	35841
2026-01-11 01:25:56.56	23.15	4.54	-52.9	-72.3	3.8	7.49e-01	0	25	104	0	73	35742
2026-01-11 01:25:57.55	23.19	4.61	-52.9	-72.3	3.8	7.46e-01	0	25	104	0	73	35781
2026-01-11 01:25:58.55	23.23	4.68	-52.9	-72.3	3.8	7.49e-01	0	25	104	0	73	35818
2026-01-11 01:25:59.55	23.27	4.75	-52.9	-72.3	3.8	7.49e-01	0	25	104	0	73	35773
2026-01-11 01:26:00.56	23.31	4.83	-52.9	-72.3	3.8	7.44e-01	0	25	104	0	73	35712
2026-01-11 01:26:01.55	23.35	4.90	-52.9	-72.3	3.8	7.47e-01	0	25	104	0	73	35808
2026-01-11 01:26:02.55	23.39	4.97	-52.9	-72.2	3.8	7.48e-01	0	25	104	0	73	35667
2026-01-11 01:26:03.55	23.44	5.04	-52.9	-72.3	3.8	7.46e-01	0	25	104	0	73	35732
2026-01-11 01:26:04.55	23.48	5.11	-52.9	-72.3	3.8	7.47e-01	0	25	104	0	73	35925
2026-01-11 01:26:05.56	23.52	5.19	-52.9	-72.3	3.8	7.47e-01	0	25	104	0	73	35911
2026-01-11 01:26:06.56	23.56	5.26	-52.9	-72.3	3.8	7.47e-01	0	25	104	0	73	35943
2026-01-11 01:26:07.56	23.60	5.33	-52.9	-72.3	3.8	7.45e-01	0	25	104	0	73	35899
2026-01-11 01:26:08.56	23.65	5.41	-52.9	-72.3	3.9	7.47e-01	0	25	104	0	73	35961
2026-01-11 01:26:09.56	23.69	5.48	-52.9	-72.3	3.8	7.45e-01	0	25	104	0	73	35880
2026-01-11 01:26:10.57	23.73	5.56	-52.9	-72.3	3.8	7.46e-01	0	25	104	0	73	35962
2026-01-11 01:26:11.56	23.77	5.63	-52.9	-72.3	3.8	7.47e-01	0	25	104	0	73	35974
2026-01-11 01:26:12.56	23.82	5.70	-52.9	-72.3	3.8	7.46e-01	0	25	104	0	73	35939
2026-01-11 01:26:13.56	23.86	5.78	-53.0	-72.3	3.8	7.46e-01	0	25	104	0	73	35988
2026-01-11 01:26:14.56	23.90	5.85	-53.0	-72.3	3.8	7.44e-01	0	25	104	0	73	36029
2026-01-11 01:26:15.57	23.95	5.93	-53.0	-72.3	3.8	7.46e-01	0	25	104	0	73	36027
2026-01-11 01:26:16.57	23.99	6.00	-53.0	-72.3	3.9	7.45e-01	0	25	104	0	73	36054
2026-01-11 01:26:17.57	24.04	6.08	-52.9	-72.3	3.8	7.46e-01	0	25	104	0	73	36005
2026-01-11 01:26:18.57	24.08	6.15	-52.9	-72.3	3.8	7.47e-01	0	25	104	0	73	36038
2026-01-11 01:26:19.57	24.13	6.23	-53.0	-72.3	3.8	7.50e-01	0	25	104	0	73	36028
2026-01-11 01:26:20.57	24.17	6.31	-52.9	-72.3	3.8	7.47e-01	0	25	104	0	73	36056
2026-01-11 01:26:21.57	24.22	6.38	-53.0	-72.3	3.8	7.47e-01	0	25	104	0	73	36005
2026-01-11 01:26:22.56	24.26	6.46	-53.0	-72.3	3.8	7.44e-01	0	25	104	0	73	36017
2026-01-11 01:26:23.57	24.31	6.54	-53.0	-72.3	3.8	7.47e-01	0	25	104	0	73	35986
2026-01-11 01:26:24.57	24.35	6.61	-53.0	-72.3	3.8	7.49e-01	0	25	104	0	73	36042
2026-01-11 01:26:25.56	24.40	6.69	-53.0	-72.3	3.8	7.46e-01	0	25	104	0	73	36042
2026-01-11 01:26:26.56	24.45	6.77	-53.0	-72.3	3.8	7.50e-01	0	25	104	0	73	36075
2026-01-11 01:26:27.56	24.49	6.85	-53.0	-72.3	3.8	7.46e-01	0	25	104	0	73	35961
2026-01-11 01:26:28.56	24.54	6.92	-53.0	-72.3	3.8	7.47e-01	0	25	104	0	73	36101
2026-01-11 01:26:29.56	24.59	7.00	-53.0	-72.4	3.8	7.45e-01	0	25	104	0	73	36145
2026-01-11 01:26:30.56	24.63	7.08	-53.0	-72.4	3.8	7.45e-01	0	25	104	0	73	36109
2026-01-11 01:26:31.56	24.68	7.16	-53.0	-72.4	3.8	7.48e-01	0	25	104	0	73	36140
2026-01-11 01:26:32.57	24.73	7.24	-52.9	-72.3	3.8	7.46e-01	0	25	104	0	73	35976
2026-01-11 01:26:33.57	24.78	7.32	-53.0	-72.4	3.8	7.47e-01	0	25	104	0	73	36201
2026-01-11 01:26:34.57	24.83	7.40	-53.0	-72.3	3.8	7.47e-01	0	25	104	0	73	36024
2026-01-11 01:26:35.57	24.88	7.48	-53.0	-72.3	3.8	7.45e-01	0	25	104	0	73	36053
2026-01-11 01:26:36.57	24.92	7.56	-53.0	-72.3	3.8	7.47e-01	0	25	104	0	73	36023
2026-01-11 01:26:37.57	24.97	7.64	-53.0	-72.3	3.8	7.45e-01	0	25	104	0	73	35982
2026-01-11 01:26:38.57	25.02	7.72	-53.0	-72.3	3.8	7.47e-01	0	25	104	0	73	36011
2026-01-11 01:26:39.57	25.07	7.80	-53.0	-72.3	3.8	7.49e-01	0	25	104	0	73	36002
2026-01-11 01:26:40.57	25.12	7.88	-53.0	-72.3	3.8	7.43e-01	0	25	104	0	73	36059
2026-01-11 01:26:41.57	25.17	7.96	-53.0	-72.3	3.8	7.47e-01	0	25	104	0	73	36058
2026-01-11 01:26:42.57	25.22	8.05	-53.0	-72.3	3.8	7.45e-01	0	25	104	0	73	36002
2026-01-11 01:26:43.58	25.28	8.13	-53.0	-72.3	3.8	7.50e-01	0	25	104	0	73	36054
2026-01-11 01:26:44.58	25.33	8.21	-53.0	-72.3	3.8	7.48e-01	0	25	104	0	73	36055
2026-01-11 01:26:45.57	25.38	8.29	-53.0	-72.4	3.8	7.46e-01	0	25	104	0	73	36125
2026-01-11 01:26:46.57	25.43	8.38	-53.0	-72.3	3.8	7.46e-01	0	25	104	0	73	36058
2026-01-11 01:26:47.56	25.48	8.46	-53.0	-72.3	3.8	7.46e-01	0	25	104	0	73	36081
2026-01-11 01:26:48.57	25.53	8.54	-53.0	-72.4	3.9	7.44e-01	0	25	104	0	73	36140
2026-01-11 01:26:49.57	25.59	8.63	-53.0	-72.4	3.8	7.46e-01	0	25	104	0	73	36177
2026-01-11 01:26:50.58	25.64	8.71	-53.0	-72.4	3.8	7.46e-01	0	26	104	0	73	36139
2026-01-11 01:26:51.58	25.69	8.80	-53.0	-72.4	3.8	7.46e-01	0	25	104	0	73	36237
2026-01-11 01:26:52.58	25.75	8.88	-53.0	-72.4	3.8	7.47e-01	0	25	104	0	73	36201
2026-01-11 01:26:53.58	25.80	8.97	-53.0	-72.4	3.8	7.49e-01	0	25	104	0	73	36140
2026-01-11 01:26:54.58	25.85	9.05	-53.0	-72.3	3.8	7.46e-01	0	25	104	0	73	36055
2026-01-11 01:26:55.57	25.91	9.14	-53.0	-72.3	3.8	7.45e-01	0	25	104	0	73	36050
2026-01-11 01:26:56.57	25.96	9.22	-53.0	-72.4	3.8	7.45e-01	0	25	104	0	73	36160
2026-01-11 01:26:57.56	26.02	9.31	-53.0	-72.4	3.8	7.46e-01	0	25	104	0	73	36156
2026-01-11 01:26:58.55	26.07	9.39	-53.0	-72.4	3.8	7.48e-01	0	25	104	0	73	36177
2026-01-11 01:26:59.55	26.13	9.48	-53.0	-72.4	3.8	7.47e-01	0	25	104	0	73	36204
2026-01-11 01:27:00.56	26.19	9.57	-53.0	-72.4	3.8	7.48e-01	0	25	104	0	73	36262
2026-01-11 01:27:01.55	26.24	9.66	-53.0	-72.4	3.8	7.46e-01	0	25	104	0	73	36140
2026-01-11 01:27:02.55	26.30	9.74	-53.0	-72.4	3.8	7.44e-01	0	25	104	0	73	36112
2026-01-11 01:27:03.56	26.36	9.83	-53.0	-72.4	3.8	7.48e-01	0	25	104	0	73	36218
2026-01-11 01:27:04.56	26.41	9.92	-53.0	-72.4	3.8	7.46e-01	0	26	104	0	73	36255
2026-01-11 01:27:05.56	26.47	10.01	-53.0	-72.4	3.8	7.46e-01	0	26	104	0	73	36158
2026-01-11 01:27:06.55	26.53	10.10	-53.0	-72.4	3.8	7.45e-01	0	25	104	0	73	36153
2026-01-11 01:27:07.56	26.59	10.19	-53.0	-72.4	3.8	7.45e-01	0	26	104	0	73	36109
2026-01-11 01:27:08.56	26.65	10.28	-53.0	-72.4	3.8	7.48e-01	0	25	104	0	73	36205
2026-01-11 01:27:09.56	26.71	10.37	-53.0	-72.4	3.8	7.44e-01	0	25	104	0	73	36218
2026-01-11 01:27:10.57	26.77	10.46	-53.0	-72.4	3.8	7.46e-01	0	25	104	0	73	36247
2026-01-11 01:27:11.57	26.83	10.55	-53.0	-72.4	3.8	7.43e-01	0	26	104	0	73	36184
2026-01-11 01:27:12.57	26.89	10.64	-53.0	-72.4	3.8	7.47e-01	0	26	104	0	73	36282
2026-01-11 01:27:13.58	26.95	10.74	-53.0	-72.4	3.8	7.47e-01	0	26	104	0	73	36279
2026-01-11 01:27:14.58	27.01	10.83	-53.0	-72.4	3.8	7.48e-01	0	26	104	0	73	36213
2026-01-11 01:27:15.59	27.07	10.92	-53.0	-72.4	3.8	7.41e-01	0	26	104	0	73	36315
2026-01-11 01:27:16.60	27.13	11.01	-53.0	-72.4	3.8	7.47e-01	0	26	104	0	73	36173
2026-01-11 01:27:17.59	27.20	11.11	-53.0	-72.4	3.8	7.44e-01	0	25	104	0	73	36175
2026-01-11 01:27:18.60	27.26	11.20	-53.0	-72.4	3.8	7.44e-01	0	25	104	0	73	36181
2026-01-11 01:27:19.60	27.32	11.30	-53.0	-72.4	3.8	7.46e-01	0	25	104	0	73	36250
2026-01-11 01:27:20.60	27.39	11.39	-53.0	-72.4	3.8	7.44e-01	0	25	104	0	73	36258
2026-01-11 01:27:21.60	27.45	11.48	-53.0	-72.4	3.8	7.46e-01	0	25	104	0	73	36221
2026-01-11 01:27:22.60	27.51	11.58	-53.0	-72.4	3.8	7.45e-01	0	26	104	0	73	36277
2026-01-11 01:27:23.60	27.58	11.67	-53.0	-72.4	3.8	7.46e-01	0	26	104	0	73	36308
2026-01-11 01:27:24.60	27.64	11.77	-53.0	-72.4	3.8	7.45e-01	0	25	104	0	73	36277
2026-01-11 01:27:25.60	27.71	11.87	-53.0	-72.4	3.8	7.46e-01	0	26	104	0	73	36309
2026-01-11 01:27:26.60	27.77	11.96	-53.0	-72.4	3.8	7.48e-01	0	26	104	0	73	36342
2026-01-11 01:27:27.60	27.84	12.06	-53.0	-72.4	3.8	7.47e-01	0	26	104	0	73	36194
2026-01-11 01:27:28.60	27.91	12.16	-53.0	-72.4	3.8	7.47e-01	0	26	104	0	73	36239
2026-01-11 01:27:29.60	27.98	12.25	-53.0	-72.4	3.8	7.49e-01	0	26	104	0	73	36317
2026-01-11 01:27:30.60	28.04	12.35	-53.0	-72.4	3.8	7.48e-01	0	26	104	0	73	36304
2026-01-11 01:27:31.60	28.11	12.45	-53.0	-72.4	3.8	7.45e-01	0	25	104	0	73	36333
2026-01-11 01:27:32.60	28.18	12.55	-53.0	-72.4	3.8	7.45e-01	0	26	104	0	73	36158
2026-01-11 01:27:33.60	28.25	12.65	-53.0	-72.4	3.8	7.45e-01	0	26	104	0	73	36370
2026-01-11 01:27:34.60	28.32	12.75	-53.0	-72.4	3.8	7.46e-01	0	26	104	0	73	36338
2026-01-11 01:27:35.61	28.39	12.85	-53.0	-72.4	3.8	7.49e-01	0	26	104	0	73	36343
2026-01-11 01:27:36.62	28.46	12.95	-53.0	-72.4	3.8	7.46e-01	0	26	104	0	73	36258
2026-01-11 01:27:37.61	28.53	13.05	-53.0	-72.4	3.8	7.50e-01	0	26	104	0	73	36283
2026-01-11 01:27:38.62	28.60	13.16	-53.0	-72.4	3.8	7.44e-01	0	26	104	0	73	36331
2026-01-11 01:27:39.62	28.68	13.26	-53.0	-72.4	3.8	7.45e-01	0	26	104	0	73	36400
2026-01-11 01:27:40.62	28.75	13.36	-53.0	-72.4	3.8	7.46e-01	0	26	104	0	73	36352
2026-01-11 01:27:41.62	28.82	13.46	-53.0	-72.4	3.8	7.47e-01	0	26	104	0	73	36392
2026-01-11 01:27:42.62	28.90	13.57	-53.0	-72.4	3.8	7.49e-01	0	26	104	0	73	36306
2026-01-11 01:27:43.62	28.97	13.67	-53.0	-72.4	3.8	7.43e-01	0	26	104	0	73	36357
2026-01-11 01:27:44.62	29.04	13.77	-53.0	-72.4	3.8	7.48e-01	0	26	104	0	73	36328
2026-01-11 01:27:45.62	29.12	13.88	-53.0	-72.4	3.8	7.49e-01	0	26	104	0	73	36195
2026-01-11 01:27:46.62	29.20	13.98	-53.0	-72.4	3.8	7.45e-01	0	26	104	0	73	36322
2026-01-11 01:27:47.62	29.27	14.09	-53.0	-72.4	3.8	7.47e-01	0	26	104	0	73	36327
2026-01-11 01:27:48.62	29.35	14.20	-53.0	-72.4	3.8	7.48e-01	0	26	104	0	73	36364
2026-01-11 01:27:49.63	29.43	14.30	-53.0	-72.4	3.8	7.48e-01	0	26	104	0	73	36366
2026-01-11 01:27:50.62	29.50	14.41	-53.0	-72.4	3.8	7.44e-01	0	26	104	0	73	36271
2026-01-11 01:27:51.62	29.58	14.52	-53.0	-72.4	3.8	7.50e-01	0	26	104	0	73	36250
2026-01-11 01:27:52.62	29.66	14.62	-53.0	-72.4	3.8	7.44e-01	0	26	104	0	73	36356
2026-01-11 01:27:53.62	29.74	14.73	-53.0	-72.4	3.8	7.48e-01	0	26	104	0	73	36320
2026-01-11 01:27:54.63	29.82	14.84	-53.0	-72.4	3.8	7.47e-01	0	26	104	0	73	36356
2026-01-11 01:27:55.63	29.90	14.95	-53.0	-72.4	3.8	7.46e-01	0	26	104	0	73	36416
2026-01-11 01:27:56.62	29.98	15.06	-53.0	-72.4	3.8	7.48e-01	0	26	104	0	73	36351
2026-01-11 01:27:57.61	30.06	15.17	-53.0	-72.4	3.8	7.48e-01	0	26	104	0	73	36306
2026-01-11 01:27:58.61	30.15	15.28	-53.0	-72.4	3.8	7.48e-01	0	26	104	0	73	36422
2026-01-11 01:27:59.61	30.23	15.39	-53.0	-72.4	3.8	7.46e-01	0	26	104	0	73	36472
2026-01-11 01:28:00.61	30.31	15.51	-53.0	-72.4	3.8	7.48e-01	0	26	104	0	73	36348
2026-01-11 01:28:01.60	30.40	15.62	-53.0	-72.4	3.8	7.49e-01	0	25	104	0	73	36360
2026-01-11 01:28:02.61	30.48	15.73	-53.0	-72.4	3.8	7.45e-01	0	26	104	0	73	36290
2026-01-11 01:28:03.61	30.57	15.84	-53.0	-72.4	3.8	7.46e-01	0	26	104	0	73	36361
2026-01-11 01:28:04.62	30.66	15.96	-53.0	-72.4	3.8	7.45e-01	0	26	104	0	73	36374
2026-01-11 01:28:05.62	30.74	16.07	-53.0	-72.4	3.8	7.45e-01	0	26	104	0	73	36282
2026-01-11 01:28:06.63	30.83	16.19	-53.0	-72.4	3.8	7.47e-01	0	26	104	0	73	36283
2026-01-11 01:28:07.62	30.92	16.31	-53.0	-72.4	3.8	7.46e-01	0	26	104	0	73	36227
2026-01-11 01:28:08.62	31.01	16.42	-53.0	-72.4	3.8	7.44e-01	0	26	104	0	73	36265
2026-01-11 01:28:09.62	31.10	16.54	-53.0	-72.4	3.8	7.49e-01	0	26	104	0	73	36319
2026-01-11 01:28:10.62	31.19	16.66	-53.0	-72.4	3.8	7.44e-01	0	26	104	0	73	36375
2026-01-11 01:28:11.62	31.28	16.77	-53.0	-72.4	3.8	7.44e-01	0	26	104	0	73	36422
2026-01-11 01:28:12.62	31.37	16.89	-53.0	-72.4	3.8	7.50e-01	0	26	104	0	73	36406
2026-01-11 01:28:13.62	31.47	17.01	-53.0	-72.4	3.8	7.45e-01	0	26	104	0	73	36377
2026-01-11 01:28:14.62	31.56	17.13	-53.0	-72.4	3.8	7.48e-01	0	26	104	0	73	36301
2026-01-11 01:28:15.62	31.65	17.25	-53.0	-72.4	3.8	7.47e-01	0	26	104	0	73	36433
2026-01-11 01:28:16.63	31.75	17.37	-53.0	-72.4	3.8	7.47e-01	0	26	104	0	73	36493
2026-01-11 01:28:17.63	31.85	17.50	-53.0	-72.4	3.8	7.44e-01	0	26	104	0	73	36414
2026-01-11 01:28:18.63	31.94	17.62	-53.0	-72.4	3.8	7.44e-01	0	26	104	0	73	36391
2026-01-11 01:28:19.63	32.04	17.74	-53.1	-72.4	3.8	7.47e-01	0	26	104	0	73	36409
2026-01-11 01:28:20.64	32.14	17.86	-53.0	-72.4	3.8	7.48e-01	0	26	104	0	73	36444
2026-01-11 01:28:21.64	32.24	17.99	-53.0	-72.5	3.8	7.49e-01	0	26	104	0	73	36535
2026-01-11 01:28:22.64	32.34	18.11	-53.0	-72.4	3.8	7.44e-01	0	26	104	0	73	36291
2026-01-11 01:28:23.63	32.44	18.24	-53.0	-72.4	3.8	7.46e-01	0	26	104	0	73	36297
2026-01-11 01:28:24.63	32.54	18.36	-53.0	-72.4	3.8	7.46e-01	0	26	104	0	73	36380
2026-01-11 01:28:25.63	32.64	18.49	-53.0	-72.4	3.8	7.46e-01	0	26	104	0	73	36318
2026-01-11 01:28:26.64	32.75	18.62	-53.0	-72.4	3.8	7.45e-01	0	26	104	0	73	36452
2026-01-11 01:28:27.63	32.85	18.74	-53.0	-72.5	3.8	7.49e-01	0	26	104	0	73	36543
2026-01-11 01:28:28.64	32.96	18.87	-53.0	-72.4	3.8	7.48e-01	0	26	104	0	73	36475
2026-01-11 01:28:29.65	33.06	19.00	-53.0	-72.4	3.8	7.48e-01	0	26	104	0	73	36418
2026-01-11 01:28:30.65	33.17	19.13	-53.0	-72.5	3.8	7.48e-01	0	26	104	0	73	36558
2026-01-11 01:28:31.65	33.28	19.26	-53.0	-72.4	3.8	7.47e-01	0	26	104	0	73	36465
2026-01-11 01:28:32.64	33.39	19.39	-53.0	-72.4	3.8	7.47e-01	0	26	104	0	73	36415
2026-01-11 01:28:33.65	33.50	19.53	-53.0	-72.4	3.8	7.44e-01	0	26	104	0	73	36491
2026-01-11 01:28:34.65	33.61	19.66	-53.0	-72.4	3.8	7.46e-01	0	26	104	0	73	36245
2026-01-11 01:28:35.65	33.72	19.79	-53.0	-72.4	3.8	7.46e-01	0	26	104	0	73	36402
2026-01-11 01:28:36.66	33.83	19.93	-53.1	-72.4	3.8	7.49e-01	0	26	104	0	73	36386
2026-01-11 01:28:37.66	33.95	20.06	-53.0	-72.4	3.8	7.47e-01	0	26	104	0	73	36322
2026-01-11 01:28:38.66	34.06	20.20	-53.0	-72.4	3.8	7.48e-01	0	26	104	0	73	36337
2026-01-11 01:28:39.66	34.18	20.33	-53.0	-72.4	3.8	7.47e-01	0	26	104	0	73	36373
2026-01-11 01:28:40.66	34.29	20.47	-53.0	-72.4	3.8	7.47e-01	0	26	104	0	73	36270
2026-01-11 01:28:41.67	34.41	20.61	-53.0	-72.4	3.8	7.45e-01	0	26	104	0	73	36373
2026-01-11 01:28:42.67	34.53	20.74	-53.0	-72.4	3.8	7.48e-01	0	26	104	0	73	36406
2026-01-11 01:28:43.67	34.65	20.88	-53.0	-72.4	3.8	7.47e-01	0	26	104	0	73	36393
2026-01-11 01:28:44.68	34.77	21.02	-53.0	-72.4	3.8	7.46e-01	0	26	104	0	73	36465
2026-01-11 01:28:45.68	34.89	21.16	-53.0	-72.4	3.8	7.46e-01	0	26	104	0	73	36450
2026-01-11 01:28:46.69	35.02	21.31	-53.0	-72.4	3.8	7.45e-01	0	26	104	0	73	36475
2026-01-11 01:28:47.69	35.14	21.45	-53.0	-72.4	3.8	7.49e-01	0	26	104	0	73	36462
2026-01-11 01:28:48.69	35.27	21.59	-53.0	-72.4	3.8	7.49e-01	0	26	104	0	73	36506
2026-01-11 01:28:49.69	35.40	21.73	-53.0	-72.4	3.8	7.46e-01	0	26	104	0	73	36429
2026-01-11 01:28:50.69	35.52	21.88	-53.1	-72.4	3.8	7.48e-01	0	26	104	0	73	36464
2026-01-11 01:28:51.69	35.65	22.02	-53.0	-72.4	3.8	7.47e-01	0	26	104	0	73	36428
2026-01-11 01:28:52.69	35.78	22.17	-53.1	-72.4	3.8	7.44e-01	0	26	104	0	73	36353
2026-01-11 01:28:53.69	35.91	22.31	-53.0	-72.4	3.8	7.43e-01	0	26	104	0	73	36375
2026-01-11 01:28:54.70	36.05	22.46	-53.0	-72.4	3.8	7.44e-01	0	26	104	0	73	36414
2026-01-11 01:28:55.70	36.18	22.61	-53.0	-72.4	3.8	7.45e-01	0	26	104	0	73	36430
2026-01-11 01:28:56.70	36.32	22.76	-53.0	-72.4	3.8	7.47e-01	0	26	104	0	73	36446
2026-01-11 01:28:57.70	36.46	22.91	-53.0	-72.4	3.8	7.46e-01	0	26	104	0	73	36464
2026-01-11 01:28:58.69	36.59	23.05	-53.1	-72.4	3.8	7.48e-01	0	26	104	0	73	36473
2026-01-11 01:28:59.69	36.73	23.21	-53.0	-72.4	3.8	7.47e-01	0	26	104	0	73	36386
2026-01-11 01:29:00.69	36.87	23.36	-53.0	-72.4	3.8	7.49e-01	0	26	104	0	73	36435
2026-01-11 01:29:01.69	37.01	23.51	-53.0	-72.4	3.8	7.45e-01	0	26	104	0	73	36389
2026-01-11 01:29:02.69	37.16	23.66	-53.1	-72.4	3.8	7.44e-01	0	26	104	0	73	36400
2026-01-11 01:29:03.69	37.30	23.82	-53.1	-72.4	3.8	7.45e-01	0	26	104	0	73	36401
2026-01-11 01:29:04.70	37.45	23.97	-53.0	-72.4	3.8	7.46e-01	0	26	104	0	73	36476
2026-01-11 01:29:05.70	37.60	24.13	-53.0	-72.4	3.8	7.46e-01	0	26	104	0	73	36390
2026-01-11 01:29:06.70	37.75	24.28	-53.1	-72.4	3.8	7.47e-01	0	26	104	0	73	36443
2026-01-11 01:29:07.71	37.90	24.44	-53.1	-72.5	3.8	7.45e-01	0	26	104	0	73	36538
2026-01-11 01:29:08.71	38.05	24.60	-53.0	-72.4	3.8	7.46e-01	0	26	104	0	73	36461
2026-01-11 01:29:09.71	38.21	24.76	-53.0	-72.4	3.8	7.45e-01	0	26	104	0	73	36418
2026-01-11 01:29:10.71	38.36	24.92	-53.1	-72.4	3.8	7.48e-01	0	26	104	0	73	36476
2026-01-11 01:29:11.71	38.52	25.08	-53.0	-72.4	3.8	7.43e-01	0	26	104	0	73	36522
2026-01-11 01:29:12.72	38.68	25.24	-53.0	-72.4	3.8	7.47e-01	0	26	104	0	73	36415
2026-01-11 01:29:13.72	38.84	25.41	-53.0	-72.4	3.8	7.44e-01	0	26	104	0	73	36372
2026-01-11 01:29:14.72	39.00	25.57	-53.0	-72.4	3.8	7.44e-01	0	26	104	0	73	36363
2026-01-11 01:29:15.72	39.17	25.73	-53.0	-72.4	3.8	7.46e-01	0	26	104	0	73	36399
2026-01-11 01:29:16.73	39.34	25.90	-53.0	-72.4	3.8	7.46e-01	0	26	104	0	73	36427
2026-01-11 01:29:17.73	39.50	26.07	-53.1	-72.4	3.8	7.45e-01	0	26	104	0	73	36367
2026-01-11 01:29:18.73	39.67	26.23	-53.0	-72.4	3.8	7.50e-01	0	26	104	0	73	36420
2026-01-11 01:29:19.73	39.84	26.40	-53.1	-72.4	3.8	7.44e-01	0	26	104	0	73	36446
2026-01-11 01:29:20.74	40.02	26.57	-53.1	-72.4	3.8	7.43e-01	0	26	104	0	73	36481
2026-01-11 01:29:21.74	40.19	26.74	-53.1	-72.4	3.8	7.50e-01	0	26	104	0	73	36490
2026-01-11 01:29:22.73	40.37	26.91	-53.1	-72.4	3.8	7.46e-01	0	26	104	0	73	36468
2026-01-11 01:29:23.73	40.55	27.08	-53.1	-72.4	3.8	7.45e-01	0	26	104	0	73	36396
2026-01-11 01:29:24.73	40.73	27.25	-53.1	-72.4	3.8	7.46e-01	0	26	104	0	73	36511
2026-01-11 01:29:25.73	40.91	27.43	-53.1	-72.4	3.8	7.47e-01	0	26	104	0	73	36486
2026-01-11 01:29:26.74	41.10	27.60	-53.1	-72.5	3.8	7.45e-01	0	26	104	0	73	36553
2026-01-11 01:29:27.74	41.28	27.78	-53.0	-72.4	3.8	7.45e-01	0	26	104	0	73	36483
2026-01-11 01:29:28.73	41.47	27.95	-53.0	-72.4	3.8	7.48e-01	0	26	104	0	73	36492
2026-01-11 01:29:29.73	41.66	28.13	-53.1	-72.4	3.8	7.46e-01	0	26	104	0	73	36467
2026-01-11 01:29:30.74	41.86	28.31	-53.1	-72.4	3.8	7.45e-01	0	26	104	0	73	36488
2026-01-11 01:29:31.75	42.05	28.49	-53.1	-72.4	3.8	7.46e-01	0	26	104	0	73	36391
2026-01-11 01:29:32.76	42.25	28.67	-53.1	-72.4	3.8	7.46e-01	0	26	104	0	73	36459
2026-01-11 01:29:33.76	42.45	28.85	-53.1	-72.4	3.8	7.44e-01	0	26	104	0	73	36475
2026-01-11 01:29:34.76	42.65	29.03	-53.1	-72.4	3.8	7.47e-01	0	26	104	0	73	36496
2026-01-11 01:29:35.76	42.86	29.21	-53.1	-72.4	3.8	7.45e-01	0	26	104	0	73	36474
2026-01-11 01:29:36.76	43.07	29.39	-53.1	-72.4	3.8	7.49e-01	0	26	104	0	73	36492
2026-01-11 01:29:37.76	43.27	29.58	-53.1	-72.4	3.8	7.47e-01	0	26	104	0	73	36445
2026-01-11 01:29:38.76	43.49	29.76	-53.1	-72.5	3.8	7.45e-01	0	26	104	0	73	36583
2026-01-11 01:29:39.77	43.70	29.95	-53.1	-72.4	3.8	7.45e-01	0	26	104	0	73	36506
2026-01-11 01:29:40.77	43.92	30.14	-53.1	-72.5	3.8	7.47e-01	0	26	104	0	73	36542
2026-01-11 01:29:41.78	44.14	30.33	-53.1	-72.4	3.8	7.46e-01	0	26	104	0	73	36469
2026-01-11 01:29:42.78	44.36	30.51	-53.1	-72.4	3.8	7.50e-01	0	26	104	0	73	36516
2026-01-11 01:29:43.78	44.59	30.70	-53.1	-72.4	3.8	7.43e-01	0	26	104	0	73	36461
2026-01-11 01:29:44.78	44.81	30.89	-53.1	-72.5	3.8	7.46e-01	0	26	104	0	73	36531
2026-01-11 01:29:45.78	45.04	31.08	-53.1	-72.5	3.8	7.45e-01	0	26	104	0	73	36593
2026-01-11 01:29:46.78	45.27	31.27	-53.1	-72.4	3.8	7.44e-01	0	26	104	0	73	36392
2026-01-11 01:29:47.78	45.51	31.47	-53.1	-72.5	3.8	7.46e-01	0	26	104	0	73	36555
2026-01-11 01:29:48.78	45.75	31.66	-53.1	-72.5	3.8	7.45e-01	0	26	104	0	73	36611
2026-01-11 01:29:49.78	45.99	31.85	-53.1	-72.5	3.8	7.46e-01	0	26	104	0	73	36624
2026-01-11 01:29:50.78	46.23	32.05	-53.1	-72.5	3.8	7.46e-01	0	26	104	0	73	36530
2026-01-11 01:29:51.78	46.48	32.25	-53.1	-72.5	3.8	7.50e-01	0	26	104	0	73	36607
2026-01-11 01:29:52.77	46.73	32.44	-53.1	-72.5	3.8	7.47e-01	0	26	104	0	73	36531
2026-01-11 01:29:53.77	46.98	32.64	-53.1	-72.5	3.8	7.46e-01	0	26	104	0	73	36530
2026-01-11 01:29:54.77	47.24	32.84	-53.1	-72.4	3.8	7.50e-01	0	26	104	0	73	36475
2026-01-11 01:29:55.77	47.50	33.04	-53.1	-72.4	3.8	7.46e-01	0	26	104	0	73	36506
2026-01-11 01:29:56.77	47.76	33.24	-53.1	-72.4	3.8	7.46e-01	0	26	104	0	73	36494
2026-01-11 01:29:57.75	48.02	33.43	-53.1	-72.4	3.8	7.46e-01	0	26	104	0	73	36515
2026-01-11 01:29:58.75	48.29	33.63	-53.1	-72.4	3.8	7.48e-01	0	26	104	0	73	36442
2026-01-11 01:29:59.75	48.56	33.84	-53.1	-72.5	3.8	7.46e-01	0	26	104	0	73	36527
2026-01-11 01:30:00.75	48.84	34.04	-53.1	-72.4	3.8	7.48e-01	0	26	104	0	73	36462
2026-01-11 01:30:01.75	49.12	34.24	-53.1	-72.5	3.8	7.48e-01	0	26	104	0	73	36524
2026-01-11 01:30:02.74	49.40	34.44	-53.1	-72.4	3.8	7.44e-01	0	26	104	0	73	36485
2026-01-11 01:30:03.75	49.69	34.65	-53.1	-72.4	3.8	7.42e-01	0	26	104	0	73	36421
2026-01-11 01:30:04.74	49.97	34.85	-53.1	-72.5	3.8	7.49e-01	0	26	104	0	73	36545
2026-01-11 01:30:05.74	50.27	35.06	-53.1	-72.4	3.8	7.47e-01	0	26	104	0	73	36504
2026-01-11 01:30:06.75	50.57	35.27	-53.1	-72.4	3.8	7.48e-01	0	26	104	0	73	36515
2026-01-11 01:30:07.75	50.87	35.48	-53.1	-72.5	3.8	7.46e-01	0	26	104	0	73	36535
2026-01-11 01:30:08.75	51.17	35.68	-53.1	-72.5	3.8	7.48e-01	0	26	104	0	73	36567
2026-01-11 01:30:09.76	51.49	35.90	-53.1	-72.4	3.8	7.47e-01	0	26	104	0	73	36508
2026-01-11 01:30:10.77	51.80	36.11	-53.0	-72.5	3.8	7.47e-01	0	26	104	0	73	36536
2026-01-11 01:30:11.77	52.12	36.32	-53.0	-72.4	3.8	7.46e-01	0	26	104	0	73	36479
2026-01-11 01:30:12.77	52.44	36.53	-53.1	-72.4	3.8	7.45e-01	0	26	104	0	73	36418
2026-01-11 01:30:13.77	52.77	36.74	-53.0	-72.5	3.8	7.45e-01	0	26	104	0	73	36534
2026-01-11 01:30:14.77	53.10	36.95	-53.1	-72.4	3.8	7.48e-01	0	26	104	0	73	36503
2026-01-11 01:30:15.78	53.44	37.16	-53.1	-72.5	3.8	7.44e-01	0	26	104	0	73	36543
2026-01-11 01:30:16.78	53.78	37.37	-53.1	-72.5	3.8	7.49e-01	0	26	104	0	73	36553
2026-01-11 01:30:17.78	54.12	37.59	-53.1	-72.4	3.8	7.43e-01	0	26	104	0	73	36520
2026-01-11 01:30:18.78	54.47	37.80	-53.1	-72.4	3.8	7.47e-01	0	26	104	0	73	36420
2026-01-11 01:30:19.78	54.82	38.01	-53.1	-72.5	3.8	7.46e-01	0	26	104	0	73	36568
2026-01-11 01:30:20.79	55.18	38.23	-53.1	-72.4	3.8	7.43e-01	0	26	104	0	73	36510
2026-01-11 01:30:21.79	55.54	38.44	-53.1	-72.4	3.8	7.48e-01	0	26	104	0	73	36483
2026-01-11 01:30:22.79	55.91	38.65	-53.1	-72.5	3.8	7.46e-01	0	26	104	0	73	36551
2026-01-11 01:30:23.80	56.29	38.87	-53.1	-72.4	3.8	7.44e-01	0	26	104	0	73	36522
2026-01-11 01:30:24.80	56.66	39.08	-53.1	-72.5	3.8	7.47e-01	0	26	104	0	73	36561
2026-01-11 01:30:25.81	57.05	39.30	-53.1	-72.5	3.8	7.46e-01	0	26	104	0	73	36581
2026-01-11 01:30:26.81	57.44	39.51	-53.1	-72.4	3.8	7.48e-01	0	26	104	0	73	36469
2026-01-11 01:30:27.81	57.83	39.73	-53.1	-72.4	3.8	7.46e-01	0	26	104	0	73	36440
2026-01-11 01:30:28.81	58.23	39.94	-53.0	-72.4	3.8	7.45e-01	0	26	104	0	73	36459
2026-01-11 01:30:29.81	58.63	40.15	-53.1	-72.4	3.8	7.49e-01	0	26	104	0	73	36407
2026-01-11 01:30:30.80	59.03	40.36	-53.1	-72.4	3.8	7.44e-01	0	26	104	0	73	36449
2026-01-11 01:30:31.80	59.45	40.58	-53.0	-72.4	3.8	7.45e-01	0	26	104	0	73	36473
2026-01-11 01:30:32.81	59.87	40.79	-53.1	-72.4	3.8	7.46e-01	0	26	104	0	73	36519
2026-01-11 01:30:33.81	60.29	41.00	-53.0	-72.4	3.8	7.48e-01	0	26	104	0	73	36436
2026-01-11 01:30:34.81	60.73	41.22	-53.1	-72.4	3.8	7.46e-01	0	26	104	0	73	36518
2026-01-11 01:30:35.81	61.16	41.43	-53.1	-72.5	3.8	7.46e-01	0	26	104	0	73	36528
2026-01-11 01:30:36.81	61.60	41.64	-53.1	-72.4	3.8	7.47e-01	0	26	104	0	73	36427
2026-01-11 01:30:37.81	62.05	41.85	-53.1	-72.4	3.8	7.48e-01	0	26	104	0	73	36483
2026-01-11 01:30:38.81	62.50	42.06	-53.1	-72.4	3.8	7.45e-01	0	26	104	0	73	36453
2026-01-11 01:30:39.80	62.96	42.27	-53.1	-72.4	3.8	7.47e-01	0	26	104	0	73	36503
2026-01-11 01:30:40.81	63.43	42.48	-53.1	-72.4	3.8	7.45e-01	0	26	104	0	73	36496
2026-01-11 01:30:41.81	63.90	42.68	-53.1	-72.4	3.8	7.48e-01	0	26	104	0	73	36519
2026-01-11 01:30:42.82	64.38	42.89	-53.1	-72.4	3.8	7.46e-01	0	26	104	0	73	36488
2026-01-11 01:30:43.82	64.87	43.10	-53.1	-72.4	3.8	7.48e-01	0	26	104	0	73	36495
2026-01-11 01:30:44.82	65.36	43.30	-53.1	-72.4	3.8	7.42e-01	0	26	104	0	73	36505
2026-01-11 01:30:45.82	65.86	43.51	-53.1	-72.4	3.8	7.45e-01	0	26	104	0	73	36491
2026-01-11 01:30:46.83	66.36	43.71	-53.1	-72.4	3.8	7.48e-01	0	26	104	0	73	36509
2026-01-11 01:30:47.82	66.87	43.91	-53.1	-72.4	3.8	7.45e-01	0	26	104	0	73	36523
2026-01-11 01:30:48.83	67.39	44.11	-53.1	-72.4	3.8	7.49e-01	0	26	104	0	73	36432
2026-01-11 01:30:49.83	67.91	44.31	-53.1	-72.4	3.8	7.43e-01	0	26	104	0	73	36491
2026-01-11 01:30:50.82	68.44	44.50	-53.1	-72.5	3.8	7.47e-01	0	26	104	0	73	36568
2026-01-11 01:30:51.83	68.98	44.70	-53.1	-72.4	3.8	7.45e-01	0	26	104	0	73	36515
2026-01-11 01:30:52.83	69.52	44.89	-53.0	-72.4	3.8	7.47e-01	0	26	104	0	73	36487
2026-01-11 01:30:53.82	70.06	45.08	-53.1	-72.4	3.8	7.49e-01	0	26	104	0	73	36504
2026-01-11 01:30:54.82	70.62	45.27	-53.0	-72.5	3.8	7.49e-01	0	26	104	0	73	36532
2026-01-11 01:30:55.82	71.18	45.46	-53.0	-72.4	3.8	7.43e-01	0	26	104	0	73	36481
2026-01-11 01:30:56.82	71.75	45.65	-53.0	-72.4	3.8	7.47e-01	0	26	104	0	73	36514
2026-01-11 01:30:57.83	72.33	45.83	-53.0	-72.4	3.8	7.44e-01	0	26	104	0	73	36396
2026-01-11 01:30:58.82	72.91	46.01	-53.0	-72.4	3.8	7.48e-01	0	26	104	0	73	36434
2026-01-11 01:30:59.82	73.50	46.19	-53.0	-72.4	3.8	7.44e-01	0	26	104	0	73	36360
2026-01-11 01:31:00.83	74.10	46.37	-53.1	-72.4	3.8	7.45e-01	0	26	104	0	73	36472
2026-01-11 01:31:01.83	74.70	46.54	-53.1	-72.4	3.8	7.40e-01	0	26	104	0	73	36506
2026-01-11 01:31:02.83	75.31	46.71	-53.1	-72.5	3.8	7.44e-01	0	26	104	0	73	36577
2026-01-11 01:31:03.84	75.93	46.88	-53.1	-72.5	3.8	7.48e-01	0	26	104	0	73	36540
2026-01-11 01:31:04.84	76.56	47.05	-53.1	-72.4	3.8	7.49e-01	0	26	104	0	73	36512
2026-01-11 01:31:05.84	77.19	47.21	-53.1	-72.4	3.8	7.46e-01	0	26	104	0	73	36436
2026-01-11 01:31:06.84	77.82	47.37	-53.1	-72.5	3.8	7.47e-01	0	26	104	0	73	36538
2026-01-11 01:31:07.84	78.47	47.52	-53.1	-72.4	3.8	7.47e-01	0	26	104	0	73	36409
2026-01-11 01:31:08.85	79.12	47.68	-53.1	-72.4	3.8	7.48e-01	0	26	104	0	73	36503
2026-01-11 01:31:09.85	79.78	47.83	-53.0	-72.4	3.8	7.46e-01	0	26	104	0	73	36449
2026-01-11 01:31:10.85	80.44	47.97	-53.1	-72.4	3.8	7.47e-01	0	26	104	0	73	36455
2026-01-11 01:31:11.85	81.11	48.12	-53.1	-72.4	3.8	7.45e-01	0	26	104	0	73	36517
2026-01-11 01:31:12.85	81.78	48.26	-53.1	-72.5	3.8	7.48e-01	0	26	104	0	73	36532
2026-01-11 01:31:13.85	82.46	48.39	-53.1	-72.5	3.8	7.45e-01	0	26	104	0	73	36526
2026-01-11 01:31:14.85	83.15	48.52	-53.1	-72.5	3.8	7.45e-01	0	26	104	0	73	36583
2026-01-11 01:31:15.84	83.83	48.65	-53.1	-72.5	3.8	7.47e-01	0	26	104	0	73	36553
2026-01-11 01:31:16.85	84.54	48.77	-53.1	-72.5	3.8	7.48e-01	0	26	104	0	73	36573
2026-01-11 01:31:17.85	85.24	48.89	-53.1	-72.5	3.8	7.43e-01	0	26	104	0	73	36593
2026-01-11 01:31:18.85	85.95	49.01	-53.1	-72.5	3.8	7.44e-01	0	26	104	0	73	36559
2026-01-11 01:31:19.84	86.65	49.12	-53.1	-72.5	3.8	7.45e-01	0	26	104	0	73	36534
2026-01-11 01:31:20.84	87.37	49.22	-53.1	-72.5	3.8	7.49e-01	0	26	104	0	73	36524
2026-01-11 01:31:21.84	88.10	49.33	-53.1	-72.5	3.8	7.47e-01	0	26	104	0	73	36533
2026-01-11 01:31:22.84	88.83	49.42	-53.1	-72.4	3.8	7.46e-01	0	26	104	0	73	36473
2026-01-11 01:31:23.85	89.57	49.52	-53.1	-72.4	3.8	7.47e-01	0	26	104	0	73	36497
2026-01-11 01:31:24.85	90.30	49.61	-53.1	-72.4	3.8	7.48e-01	0	26	104	0	73	36427
2026-01-11 01:31:25.85	91.05	49.69	-53.1	-72.4	3.8	7.48e-01	0	26	104	0	73	36503
2026-01-11 01:31:26.85	91.79	49.77	-53.1	-72.4	3.8	7.46e-01	0	26	104	0	73	36518
2026-01-11 01:31:27.86	92.55	49.84	-53.1	-72.5	3.8	7.48e-01	0	26	104	0	73	36565
2026-01-11 01:31:28.86	93.30	49.91	-53.1	-72.5	3.8	7.47e-01	0	26	104	0	73	36556
2026-01-11 01:31:29.87	94.07	49.97	-53.1	-72.5	3.8	7.47e-01	0	26	104	0	73	36548
2026-01-11 01:31:30.86	94.82	50.03	-53.1	-72.5	3.8	7.47e-01	0	26	104	0	73	36564
2026-01-11 01:31:31.86	95.58	50.08	-53.1	-72.5	3.8	7.46e-01	0	26	104	0	73	36566
2026-01-11 01:31:32.87	96.35	50.13	-53.1	-72.4	3.8	7.47e-01	0	26	104	0	73	36480
2026-01-11 01:31:33.87	97.12	50.18	-53.1	-72.5	3.8	7.50e-01	0	26	104	0	73	36547
2026-01-11 01:31:34.87	97.89	50.21	-53.1	-72.5	3.8	7.46e-01	0	26	104	0	73	36561
2026-01-11 01:31:35.86	98.65	50.24	-53.1	-72.5	3.8	7.44e-01	0	26	104	0	73	36604
2026-01-11 01:31:36.86	99.43	50.27	-53.1	-72.5	3.8	7.48e-01	0	26	104	0	73	36620
2026-01-11 01:31:37.86	100.20	50.29	-53.1	-72.5	3.8	7.46e-01	0	26	104	0	73	36644
2026-01-11 01:31:38.87	100.98	50.31	-53.1	-72.5	3.8	7.48e-01	0	26	104	0	73	36693
2026-01-11 01:31:39.86	101.75	50.32	-53.1	-72.5	3.8	7.43e-01	0	26	104	0	73	36629
2026-01-11 01:31:40.86	102.53	50.32	-53.1	-72.5	3.8	7.47e-01	0	26	104	0	73	36588
2026-01-11 01:31:41.87	103.31	50.32	-53.1	-72.5	3.8	7.46e-01	0	26	104	0	73	36629
2026-01-11 01:31:42.87	104.09	50.32	-53.1	-72.5	3.8	7.49e-01	0	26	104	0	73	36562
2026-01-11 01:31:43.87	104.86	50.31	-53.1	-72.5	3.8	7.49e-01	0	26	104	0	73	36606
2026-01-11 01:31:44.87	105.64	50.29	-53.1	-72.5	3.8	7.47e-01	0	26	104	0	73	36556
2026-01-11 01:31:45.87	106.41	50.27	-53.1	-72.4	3.8	7.46e-01	0	26	104	0	73	36485
2026-01-11 01:31:46.87	107.19	50.24	-53.1	-72.5	3.8	7.46e-01	0	26	104	0	73	36579
2026-01-11 01:31:47.88	107.96	50.21	-53.1	-72.5	3.8	7.45e-01	0	26	104	0	73	36538
2026-01-11 01:31:48.88	108.73	50.17	-53.1	-72.5	3.8	7.46e-01	0	26	104	0	73	36594
2026-01-11 01:31:49.88	109.50	50.13	-53.1	-72.5	3.8	7.46e-01	0	26	104	0	73	36711
2026-01-11 01:31:50.88	110.27	50.08	-53.1	-72.5	3.8	7.46e-01	0	26	104	0	73	36615
2026-01-11 01:31:51.88	111.03	50.03	-53.1	-72.4	3.8	7.43e-01	0	26	104	0	73	36497
2026-01-11 01:31:52.89	111.80	49.97	-53.1	-72.5	3.8	7.46e-01	0	26	104	0	73	36579
2026-01-11 01:31:53.89	112.55	49.90	-53.1	-72.5	3.8	7.48e-01	0	26	104	0	73	36591
2026-01-11 01:31:54.90	113.31	49.83	-53.1	-72.5	3.8	7.44e-01	0	26	104	0	73	36682
2026-01-11 01:31:55.89	114.06	49.76	-53.1	-72.5	3.8	7.48e-01	0	26	104	0	73	36596
2026-01-11 01:31:56.89	114.80	49.68	-53.1	-72.5	3.8	7.46e-01	0	26	104	0	73	36574
2026-01-11 01:31:57.90	115.55	49.59	-53.1	-72.5	3.8	7.48e-01	0	26	104	0	73	36615
2026-01-11 01:31:58.90	116.29	49.51	-53.1	-72.5	3.8	7.46e-01	0	26	104	0	73	36603
2026-01-11 01:31:59.89	117.02	49.41	-53.1	-72.5	3.8	7.44e-01	0	26	104	0	73	36693
2026-01-11 01:32:00.89	117.74	49.32	-53.1	-72.5	3.8	7.49e-01	0	26	104	0	73	36563
2026-01-11 01:32:01.90	118.48	49.21	-53.1	-72.5	3.8	7.47e-01	0	26	104	0	73	36602
2026-01-11 01:32:02.89	119.19	49.11	-53.1	-72.5	3.8	7.47e-01	0	26	104	0	73	36610
2026-01-11 01:32:03.90	119.91	48.99	-53.1	-72.5	3.8	7.45e-01	0	26	104	0	73	36589
2026-01-11 01:32:04.90	120.62	48.88	-53.1	-72.5	3.8	7.43e-01	0	26	104	0	73	36550
2026-01-11 01:32:05.90	121.32	48.76	-53.1	-72.5	3.8	7.44e-01	0	26	104	0	73	36567
2026-01-11 01:32:06.90	122.02	48.63	-53.1	-72.5	3.8	7.44e-01	0	26	104	0	73	36636
2026-01-11 01:32:07.90	122.71	48.51	-53.1	-72.5	3.8	7.48e-01	0	26	104	0	73	36607
2026-01-11 01:32:08.90	123.40	48.37	-53.1	-72.5	3.8	7.44e-01	0	26	104	0	73	36613
2026-01-11 01:32:09.90	124.08	48.24	-53.1	-72.5	3.8	7.43e-01	0	26	104	0	73	36649
2026-01-11 01:32:10.89	124.75	48.10	-53.1	-72.4	3.8	7.44e-01	0	26	104	0	73	36518
2026-01-11 01:32:11.89	125.41	47.96	-53.1	-72.5	3.8	7.45e-01	0	26	104	0	73	36602
2026-01-11 01:32:12.89	126.08	47.81	-53.1	-72.5	3.8	7.48e-01	0	26	104	0	73	36559
2026-01-11 01:32:13.89	126.73	47.66	-53.1	-72.5	3.8	7.47e-01	0	26	104	0	73	36548
2026-01-11 01:32:14.88	127.37	47.51	-53.1	-72.5	3.8	7.47e-01	0	26	104	0	73	36557
2026-01-11 01:32:15.88	128.02	47.35	-53.1	-72.4	3.8	7.46e-01	0	26	104	0	73	36520
2026-01-11 01:32:16.88	128.65	47.19	-53.1	-72.5	3.8	7.48e-01	0	26	104	0	73	36639
2026-01-11 01:32:17.88	129.28	47.03	-53.1	-72.5	3.8	7.45e-01	0	26	104	0	73	36599
2026-01-11 01:32:18.88	129.91	46.86	-53.1	-72.5	3.8	7.43e-01	0	26	104	0	73	36668
2026-01-11 01:32:19.88	130.52	46.69	-53.1	-72.5	3.8	7.44e-01	0	26	104	0	73	36642
2026-01-11 01:32:20.88	131.13	46.52	-53.1	-72.5	3.8	7.48e-01	0	26	104	0	73	36529
2026-01-11 01:32:21.89	131.74	46.34	-53.1	-72.5	3.8	7.44e-01	0	26	104	0	73	36645
2026-01-11 01:32:22.90	132.35	46.17	-53.1	-72.5	3.8	7.45e-01	0	26	104	0	73	36662
2026-01-11 01:32:23.91	132.94	45.98	-53.1	-72.5	3.8	7.49e-01	0	26	104	0	73	36620
2026-01-11 01:32:24.90	133.52	45.80	-53.1	-72.5	3.8	7.45e-01	0	26	104	0	73	36650
2026-01-11 01:32:25.91	134.10	45.62	-53.1	-72.5	3.8	7.46e-01	0	26	104	0	73	36579
2026-01-11 01:32:26.91	134.67	45.43	-53.1	-72.5	3.9	7.48e-01	0	26	104	0	73	36560
2026-01-11 01:32:27.92	135.24	45.24	-53.1	-72.5	3.8	7.48e-01	0	26	104	0	73	36644
2026-01-11 01:32:28.91	135.79	45.05	-53.1	-72.5	3.8	7.47e-01	0	26	104	0	73	36564
2026-01-11 01:32:29.91	136.34	44.86	-53.1	-72.5	3.8	7.47e-01	0	26	104	0	73	36630
2026-01-11 01:32:30.92	136.89	44.67	-53.1	-72.4	3.8	7.47e-01	0	26	104	0	73	36491
2026-01-11 01:32:31.92	137.42	44.47	-53.1	-72.4	3.8	7.48e-01	0	26	104	0	73	36498
2026-01-11 01:32:32.91	137.95	44.27	-53.1	-72.4	3.8	7.47e-01	0	26	104	0	73	36477
2026-01-11 01:32:33.92	138.47	44.07	-53.1	-72.4	3.8	7.47e-01	0	26	104	0	73	36452
2026-01-11 01:32:34.92	138.99	43.87	-53.1	-72.5	3.8	7.44e-01	0	26	104	0	73	36574
2026-01-11 01:32:35.92	139.50	43.67	-53.1	-72.5	3.8	7.46e-01	0	26	104	0	73	36588
2026-01-11 01:32:36.92	140.00	43.47	-53.1	-72.5	3.8	7.44e-01	0	26	104	0	73	36599
2026-01-11 01:32:37.92	140.50	43.26	-53.1	-72.5	3.8	7.46e-01	0	26	104	0	73	36675
2026-01-11 01:32:38.92	140.99	43.06	-53.1	-72.5	3.8	7.44e-01	0	26	104	0	73	36626
2026-01-11 01:32:39.91	141.47	42.85	-53.1	-72.5	3.8	7.46e-01	0	26	104	0	73	36609
2026-01-11 01:32:40.91	141.95	42.65	-53.1	-72.5	3.8	7.46e-01	0	26	104	0	73	36534
2026-01-11 01:32:41.92	142.43	42.44	-53.1	-72.5	3.8	7.46e-01	0	26	104	0	73	36626
2026-01-11 01:32:42.91	142.89	42.23	-53.1	-72.5	3.8	7.45e-01	0	26	104	0	73	36612
2026-01-11 01:32:43.92	143.35	42.02	-53.1	-72.5	3.8	7.46e-01	0	26	104	0	73	36589
2026-01-11 01:32:44.91	143.80	41.81	-53.1	-72.5	3.8	7.48e-01	0	26	104	0	73	36706
2026-01-11 01:32:45.92	144.25	41.60	-53.1	-72.5	3.8	7.46e-01	0	26	104	0	73	36713
2026-01-11 01:32:46.92	144.69	41.38	-53.1	-72.5	3.8	7.46e-01	0	26	104	0	73	36591
2026-01-11 01:32:47.93	145.14	41.17	-53.1	-72.5	3.8	7.47e-01	0	26	104	0	73	36634
2026-01-11 01:32:48.92	145.56	40.96	-53.1	-72.5	3.8	7.46e-01	0	26	104	0	73	36626
2026-01-11 01:32:49.92	145.99	40.75	-53.1	-72.5	3.8	7.46e-01	0	26	104	0	73	36620
2026-01-11 01:32:50.93	146.41	40.53	-53.1	-72.5	3.8	7.45e-01	0	26	104	0	73	36629
2026-01-11 01:32:51.93	146.82	40.32	-53.1	-72.5	3.8	7.51e-01	0	26	104	0	73	36699
2026-01-11 01:32:52.94	147.24	40.10	-53.1	-72.5	3.8	7.47e-01	0	26	104	0	73	36583
2026-01-11 01:32:53.94	147.64	39.89	-53.1	-72.5	3.8	7.47e-01	0	26	104	0	73	36579
2026-01-11 01:32:54.94	148.04	39.67	-53.1	-72.5	3.8	7.43e-01	0	26	104	0	73	36631
2026-01-11 01:32:55.94	148.43	39.46	-53.1	-72.5	3.8	7.45e-01	0	26	104	0	73	36586
2026-01-11 01:32:56.94	148.82	39.24	-53.1	-72.5	3.8	7.47e-01	0	26	104	0	73	36625
2026-01-11 01:32:57.95	149.20	39.03	-53.1	-72.5	3.8	7.48e-01	0	26	104	0	73	36688
2026-01-11 01:32:58.96	149.58	38.81	-53.1	-72.5	3.8	7.47e-01	0	26	104	0	73	36543
2026-01-11 01:32:59.95	149.95	38.60	-53.1	-72.5	3.8	7.43e-01	0	26	104	0	73	36540
2026-01-11 01:33:00.95	150.32	38.38	-53.1	-72.5	3.8	7.49e-01	0	26	104	0	73	36563
2026-01-11 01:33:01.95	150.68	38.17	-53.1	-72.5	3.8	7.45e-01	0	26	104	0	73	36641
2026-01-11 01:33:02.95	151.04	37.95	-53.1	-72.5	3.8	7.43e-01	0	26	104	0	73	36642
2026-01-11 01:33:03.95	151.39	37.74	-53.1	-72.5	3.8	7.46e-01	0	26	104	0	73	36604
2026-01-11 01:33:04.95	151.74	37.53	-53.1	-72.5	3.8	7.43e-01	0	26	104	0	73	36575
2026-01-11 01:33:05.95	152.08	37.31	-53.1	-72.5	3.8	7.51e-01	0	26	104	0	73	36577
2026-01-11 01:33:06.95	152.42	37.10	-53.1	-72.5	3.8	7.46e-01	0	26	104	0	73	36621
2026-01-11 01:33:07.95	152.76	36.89	-53.1	-72.5	3.8	7.48e-01	0	26	104	0	73	36670
2026-01-11 01:33:08.96	153.09	36.68	-53.1	-72.5	3.8	7.47e-01	0	26	104	0	73	36646
2026-01-11 01:33:09.97	153.42	36.46	-53.1	-72.5	3.8	7.47e-01	0	26	104	0	73	36639
2026-01-11 01:33:10.97	153.74	36.25	-53.1	-72.5	3.8	7.47e-01	0	26	104	0	73	36656
2026-01-11 01:33:11.97	154.06	36.04	-53.1	-72.5	3.8	7.46e-01	0	26	104	0	73	36634
2026-01-11 01:33:12.97	154.37	35.83	-53.1	-72.5	3.8	7.46e-01	0	26	104	0	73	36586
2026-01-11 01:33:13.96	154.68	35.62	-53.1	-72.5	3.8	7.46e-01	0	26	104	0	73	36646
2026-01-11 01:33:14.97	154.99	35.41	-53.1	-72.5	3.8	7.46e-01	0	26	104	0	73	36625
2026-01-11 01:33:15.97	155.29	35.20	-53.1	-72.4	3.8	7.46e-01	0	26	104	0	73	36496
2026-01-11 01:33:16.97	155.59	35.00	-53.1	-72.5	3.8	7.46e-01	0	26	104	0	73	36622
2026-01-11 01:33:17.97	155.88	34.79	-53.1	-72.5	3.8	7.45e-01	0	26	104	0	73	36624
2026-01-11 01:33:18.97	156.17	34.58	-53.1	-72.5	3.8	7.45e-01	0	26	104	0	73	36763
2026-01-11 01:33:19.97	156.46	34.38	-53.1	-72.5	3.8	7.49e-01	0	26	104	0	73	36603
2026-01-11 01:33:20.98	156.74	34.17	-53.1	-72.5	3.8	7.45e-01	0	26	104	0	73	36609
2026-01-11 01:33:21.98	157.02	33.97	-53.1	-72.5	3.8	7.47e-01	0	26	104	0	73	36657
2026-01-11 01:33:22.98	157.30	33.76	-53.1	-72.5	3.8	7.45e-01	0	26	104	0	73	36627
2026-01-11 01:33:23.99	157.57	33.56	-53.1	-72.5	3.8	7.42e-01	0	26	104	0	73	36634
2026-01-11 01:33:24.99	157.84	33.36	-53.1	-72.5	3.8	7.46e-01	0	26	104	0	73	36603
2026-01-11 01:33:26.00	158.11	33.15	-53.1	-72.5	3.8	7.46e-01	0	26	104	0	73	36629
2026-01-11 01:33:27.00	158.37	32.95	-53.1	-72.5	3.8	7.45e-01	0	26	104	0	73	36663
2026-01-11 01:33:28.01	158.64	32.75	-53.1	-72.5	3.8	7.50e-01	0	26	104	0	73	36677
2026-01-11 01:33:29.00	158.89	32.55	-53.1	-72.5	3.8	7.46e-01	0	26	104	0	73	36629
2026-01-11 01:33:30.00	159.14	32.35	-53.1	-72.5	3.8	7.46e-01	0	26	104	0	73	36539
2026-01-11 01:33:31.00	159.39	32.16	-53.1	-72.5	3.8	7.49e-01	0	26	104	0	73	36534
2026-01-11 01:33:32.00	159.64	31.96	-53.1	-72.5	3.8	7.45e-01	0	26	104	0	73	36667
2026-01-11 01:33:33.01	159.88	31.76	-53.1	-72.5	3.8	7.47e-01	0	26	104	0	73	36566
2026-01-11 01:33:34.00	160.12	31.57	-53.1	-72.5	3.8	7.43e-01	0	26	104	0	73	36563
2026-01-11 01:33:35.00	160.36	31.38	-53.1	-72.5	3.8	7.44e-01	0	26	104	0	73	36695
2026-01-11 01:33:36.00	160.60	31.18	-53.1	-72.5	3.8	7.46e-01	0	26	104	0	73	36692
2026-01-11 01:33:37.01	160.83	30.99	-53.1	-72.5	3.8	7.46e-01	0	26	104	0	73	36625
2026-01-11 01:33:38.01	161.06	30.80	-53.1	-72.5	3.8	7.46e-01	0	26	104	0	73	36647
2026-01-11 01:33:39.02	161.29	30.60	-53.1	-72.5	3.8	7.43e-01	0	26	104	0	73	36608
2026-01-11 01:33:40.01	161.51	30.42	-53.1	-72.5	3.8	7.46e-01	0	26	104	0	73	36686
2026-01-11 01:33:41.02	161.73	30.23	-53.1	-72.4	3.8	7.50e-01	0	26	104	0	73	36509
2026-01-11 01:33:42.02	161.95	30.04	-53.1	-72.5	3.8	7.48e-01	0	26	104	0	73	36553
2026-01-11 01:33:43.02	162.17	29.85	-53.1	-72.5	3.8	7.45e-01	0	26	104	0	73	36588
2026-01-11 01:33:44.02	162.38	29.67	-53.1	-72.5	3.8	7.46e-01	0	26	104	0	73	36700
2026-01-11 01:33:45.03	162.60	29.48	-53.2	-72.7	3.8	7.46e-01	0	26	104	0	74	35487
2026-01-11 01:33:46.03	162.81	29.29	-53.2	-72.5	3.8	7.46e-01	0	26	104	0	74	34802
2026-01-11 01:33:47.03	163.01	29.11	-53.2	-72.5	3.8	7.46e-01	0	26	104	0	74	34858
2026-01-11 01:33:48.04	163.22	28.93	-53.2	-72.5	3.8	7.48e-01	0	26	104	0	74	34765
2026-01-11 01:33:49.03	163.42	28.75	-53.2	-72.5	3.8	7.46e-01	0	26	104	0	74	34628
2026-01-11 01:33:50.04	163.62	28.56	-53.2	-72.5	3.8	7.46e-01	0	26	104	0	74	34582
2026-01-11 01:33:51.04	163.82	28.38	-53.1	-72.5	3.8	7.47e-01	0	26	104	0	74	34690
2026-01-11 01:33:52.04	164.01	28.20	-53.1	-72.5	3.8	7.44e-01	0	26	104	0	74	34838
2026-01-11 01:33:53.05	164.21	28.02	-53.2	-72.5	3.8	7.45e-01	0	26	104	0	74	34676
2026-01-11 01:33:54.05	164.40	27.85	-53.2	-72.5	3.9	7.43e-01	0	26	104	0	74	34808
2026-01-11 01:33:55.05	164.58	27.67	-53.2	-72.5	3.8	7.48e-01	0	26	104	0	74	34566
2026-01-11 01:33:56.05	164.77	27.50	-53.2	-72.5	3.8	7.44e-01	0	26	104	0	74	34649
2026-01-11 01:33:57.05	164.96	27.32	-53.2	-72.5	3.8	7.46e-01	0	26	104	0	74	34661
2026-01-11 01:33:58.05	165.14	27.15	-53.2	-72.5	3.8	7.42e-01	0	26	104	0	74	34713
2026-01-11 01:33:59.05	165.32	26.98	-53.2	-72.5	3.8	7.46e-01	0	26	104	0	74	34769
2026-01-11 01:34:00.05	165.50	26.80	-53.2	-72.6	3.8	7.49e-01	0	26	104	0	74	34907
2026-01-11 01:34:01.05	165.67	26.63	-53.2	-72.5	3.8	7.46e-01	0	26	104	0	74	34781
2026-01-11 01:34:02.05	165.85	26.46	-53.2	-72.5	3.8	7.45e-01	0	26	104	0	74	34777
2026-01-11 01:34:03.05	166.02	26.29	-53.2	-72.5	3.8	7.49e-01	0	26	104	0	74	34721
2026-01-11 01:34:04.05	166.19	26.13	-53.2	-72.5	3.8	7.45e-01	0	26	104	0	74	34609
2026-01-11 01:34:05.05	166.36	25.96	-53.2	-72.5	3.8	7.46e-01	0	26	104	0	74	34499
2026-01-11 01:34:06.05	166.53	25.79	-53.2	-72.5	3.8	7.44e-01	0	26	104	0	74	34841
2026-01-11 01:34:07.05	166.69	25.63	-53.2	-72.5	3.8	7.48e-01	0	26	104	0	74	34585
2026-01-11 01:34:08.05	166.86	25.46	-53.2	-72.4	3.8	7.48e-01	0	26	104	0	74	34403
2026-01-11 01:34:09.05	167.02	25.30	-53.1	-72.5	3.8	7.45e-01	0	26	104	0	74	34517
2026-01-11 01:34:10.06	167.18	25.13	-53.1	-72.2	3.8	7.50e-01	0	27	104	0	74	33625
2026-01-11 01:34:11.05	167.34	24.97	-53.1	-72.0	3.8	7.47e-01	0	26	104	0	74	32693
2026-01-11 01:34:12.05	167.49	24.81	-53.1	-72.3	3.8	7.45e-01	0	26	104	0	74	33784
2026-01-11 01:34:13.05	167.65	24.65	-53.1	-72.2	3.8	7.50e-01	0	26	104	0	74	33551
2026-01-11 01:34:14.06	167.81	24.49	-53.1	-72.1	3.8	7.46e-01	0	26	104	0	74	33244
2026-01-11 01:34:15.06	167.96	24.33	-53.1	-72.4	3.8	7.43e-01	0	26	104	0	74	34119
2026-01-11 01:34:16.06	168.11	24.17	-53.1	-72.4	3.8	7.46e-01	0	26	104	0	74	34188
2026-01-11 01:34:17.06	168.26	24.02	-53.1	-72.5	3.8	7.51e-01	0	26	104	0	74	34561
2026-01-11 01:34:18.07	168.41	23.86	-53.2	-72.5	3.8	7.47e-01	0	27	104	0	74	34842
2026-01-11 01:34:19.07	168.55	23.70	-53.2	-72.5	3.8	7.48e-01	0	27	104	0	74	34773
2026-01-11 01:34:20.08	168.70	23.55	-53.2	-72.5	3.8	7.45e-01	0	27	104	0	74	34500
2026-01-11 01:34:21.09	168.84	23.39	-53.2	-72.5	3.8	7.46e-01	0	27	104	0	74	34633
2026-01-11 01:34:22.08	168.98	23.24	-53.2	-72.5	3.8	7.45e-01	0	27	104	0	74	34802
2026-01-11 01:34:23.09	169.13	23.09	-53.2	-72.5	3.8	7.47e-01	0	26	104	0	74	34730
2026-01-11 01:34:24.09	169.27	22.94	-53.2	-72.5	3.8	7.47e-01	0	27	104	0	74	34599
2026-01-11 01:34:25.09	169.40	22.79	-53.2	-72.5	3.8	7.47e-01	0	27	104	0	74	34729
2026-01-11 01:34:26.09	169.54	22.64	-53.2	-72.5	3.8	7.48e-01	0	26	104	0	74	34757
2026-01-11 01:34:27.09	169.68	22.49	-53.2	-72.5	3.8	7.49e-01	0	26	104	0	74	34612
2026-01-11 01:34:28.10	169.81	22.34	-53.2	-72.5	3.8	7.47e-01	0	26	104	0	74	34494
2026-01-11 01:34:29.10	169.94	22.19	-53.2	-72.5	3.8	7.45e-01	0	27	104	0	74	34485
2026-01-11 01:34:30.10	170.07	22.04	-53.1	-72.5	3.8	7.44e-01	0	26	104	0	74	34815
2026-01-11 01:34:31.10	170.20	21.90	-53.2	-72.5	3.8	7.46e-01	0	27	104	0	74	34760
2026-01-11 01:34:32.10	170.33	21.75	-53.1	-72.4	3.8	7.47e-01	0	26	104	0	74	34433
2026-01-11 01:34:33.10	170.46	21.61	-53.2	-72.5	3.8	7.44e-01	0	26	104	0	74	34524
2026-01-11 01:34:34.10	170.59	21.47	-53.2	-72.5	3.8	7.45e-01	0	26	104	0	74	34499
2026-01-11 01:34:35.10	170.71	21.32	-53.2	-72.5	3.8	7.48e-01	0	27	104	0	74	34622
2026-01-11 01:34:36.10	170.84	21.18	-53.2	-72.5	3.8	7.50e-01	0	26	104	0	74	34827
2026-01-11 01:34:37.10	170.96	21.04	-53.2	-72.5	3.8	7.49e-01	0	27	104	0	74	34677
2026-01-11 01:34:38.10	171.08	20.90	-53.2	-72.5	3.8	7.47e-01	0	26	104	0	74	34658
2026-01-11 01:34:39.10	171.20	20.76	-53.2	-72.5	3.8	7.50e-01	0	26	104	0	74	34600
2026-01-11 01:34:40.11	171.32	20.62	-53.1	-72.5	3.8	7.44e-01	0	26	104	0	74	34539
2026-01-11 01:34:41.11	171.44	20.48	-53.1	-72.5	3.8	7.45e-01	0	27	104	0	74	34661
2026-01-11 01:34:42.11	171.56	20.34	-53.1	-72.4	3.8	7.44e-01	0	27	104	0	74	34423
2026-01-11 01:34:43.11	171.67	20.21	-53.1	-72.5	3.8	7.50e-01	0	27	104	0	74	34581
2026-01-11 01:34:44.11	171.79	20.07	-53.2	-72.5	3.8	7.45e-01	0	26	104	0	74	34760
2026-01-11 01:34:45.12	171.91	19.93	-53.2	-72.5	3.8	7.46e-01	0	26	104	0	74	34674
2026-01-11 01:34:46.12	172.02	19.80	-53.2	-72.5	3.8	7.46e-01	0	26	104	0	74	34554
2026-01-11 01:34:47.12	172.13	19.66	-53.2	-72.5	3.8	7.46e-01	0	27	104	0	74	34731
2026-01-11 01:34:48.13	172.24	19.53	-53.2	-72.5	3.8	7.48e-01	0	27	104	0	74	34693
2026-01-11 01:34:49.13	172.35	19.40	-53.2	-72.5	3.8	7.46e-01	0	27	104	0	74	34672
2026-01-11 01:34:50.13	172.46	19.27	-53.2	-72.5	3.8	7.49e-01	0	26	104	0	74	34767
2026-01-11 01:34:51.13	172.57	19.13	-53.2	-72.5	3.8	7.44e-01	0	27	104	0	74	34849
2026-01-11 01:34:52.13	172.68	19.00	-53.2	-72.5	3.8	7.44e-01	0	27	104	0	74	34682
2026-01-11 01:34:53.14	172.79	18.87	-53.2	-72.5	3.8	7.45e-01	0	27	104	0	74	34877
2026-01-11 01:34:54.14	172.89	18.74	-53.2	-72.5	3.8	7.45e-01	0	27	104	0	74	34799
2026-01-11 01:34:55.14	173.00	18.61	-53.2	-72.5	3.8	7.47e-01	0	27	104	0	74	34754
2026-01-11 01:34:56.14	173.10	18.49	-53.2	-72.5	3.8	7.44e-01	0	26	104	0	74	34696
2026-01-11 01:34:57.14	173.20	18.36	-53.2	-72.5	3.8	7.43e-01	0	27	104	0	74	34855
2026-01-11 01:34:58.14	173.30	18.23	-53.2	-72.6	3.8	7.46e-01	0	27	104	0	74	34937
2026-01-11 01:34:59.14	173.41	18.11	-53.2	-72.6	3.8	7.45e-01	0	27	104	0	74	34911
2026-01-11 01:35:00.14	173.51	17.98	-53.2	-72.6	3.8	7.46e-01	0	27	104	0	74	34982
2026-01-11 01:35:01.14	173.61	17.86	-53.2	-72.5	3.8	7.46e-01	0	27	104	0	74	34755
2026-01-11 01:35:02.14	173.70	17.73	-53.2	-72.5	3.8	7.43e-01	0	26	104	0	74	34780
2026-01-11 01:35:03.14	173.80	17.61	-53.2	-72.5	3.8	7.44e-01	0	26	104	0	74	34743
2026-01-11 01:35:04.14	173.90	17.49	-53.2	-72.5	3.8	7.45e-01	0	26	104	0	74	34828
2026-01-11 01:35:05.13	173.99	17.36	-53.2	-72.6	3.8	7.47e-01	0	27	104	0	74	34944
2026-01-11 01:35:06.07	174.08	17.25	-53.2	-72.6	3.8	7.47e-01	0	27	104	0	74	34998
2026-01-11 01:35:07.06	174.18	17.13	-53.2	-72.6	3.8	7.47e-01	0	27	104	0	74	35039
2026-01-11 01:35:08.07	174.27	17.01	-53.2	-72.5	3.8	7.48e-01	0	26	104	0	74	34843
2026-01-11 01:35:09.07	174.37	16.89	-53.2	-72.6	3.8	7.46e-01	0	27	104	0	74	34933
2026-01-11 01:35:10.07	174.46	16.77	-53.2	-72.5	3.8	7.49e-01	0	27	104	0	74	34788
2026-01-11 01:35:11.07	174.55	16.65	-53.2	-72.5	3.8	7.47e-01	0	27	104	0	74	34760
2026-01-11 01:35:12.07	174.64	16.53	-53.2	-72.6	3.9	7.46e-01	0	27	104	0	74	35020
2026-01-11 01:35:13.07	174.73	16.41	-53.2	-72.5	3.8	7.48e-01	0	26	104	0	74	34831
2026-01-11 01:35:14.07	174.82	16.30	-53.2	-72.5	3.8	7.47e-01	0	27	104	0	74	34879
2026-01-11 01:35:15.07	174.91	16.18	-53.2	-72.6	3.8	7.49e-01	0	27	104	0	74	34935
2026-01-11 01:35:16.07	175.00	16.06	-53.2	-72.5	3.8	7.47e-01	0	27	104	0	74	34846
2026-01-11 01:35:17.06	175.08	15.95	-53.2	-72.6	3.8	7.48e-01	0	27	104	0	74	34984
2026-01-11 01:35:18.06	175.17	15.83	-53.2	-72.6	3.8	7.45e-01	0	27	104	0	74	34936
2026-01-11 01:35:19.06	175.26	15.72	-53.2	-72.6	3.8	7.47e-01	0	27	104	0	74	34903
2026-01-11 01:35:20.07	175.34	15.60	-53.2	-72.6	3.8	7.47e-01	0	27	104	0	74	35014
2026-01-11 01:35:21.08	175.43	15.49	-53.2	-72.6	3.8	7.50e-01	0	27	104	0	74	34903
2026-01-11 01:35:22.08	175.51	15.38	-53.2	-72.6	3.8	7.47e-01	0	27	104	0	74	34936
2026-01-11 01:35:23.08	175.60	15.26	-53.2	-72.6	3.8	7.49e-01	0	27	104	0	74	34973
2026-01-11 01:35:24.08	175.68	15.15	-53.2	-72.5	3.8	7.45e-01	0	27	104	0	74	34797
2026-01-11 01:35:25.07	175.76	15.04	-53.2	-72.6	3.8	7.47e-01	0	27	104	0	74	34899
2026-01-11 01:35:26.08	175.84	14.93	-53.2	-72.5	3.8	7.47e-01	0	27	104	0	74	34826
2026-01-11 01:35:27.08	175.92	14.82	-53.2	-72.6	3.8	7.47e-01	0	27	104	0	74	34971
2026-01-11 01:35:28.08	176.01	14.71	-53.2	-72.6	3.8	7.45e-01	0	27	104	0	74	35058
2026-01-11 01:35:29.08	176.08	14.60	-53.2	-72.6	3.8	7.48e-01	0	27	104	0	74	34937
2026-01-11 01:35:30.09	176.16	14.49	-53.2	-72.6	3.8	7.42e-01	0	27	104	0	74	34989
2026-01-11 01:35:31.09	176.24	14.38	-53.2	-72.6	3.8	7.48e-01	0	27	104	0	74	34991
2026-01-11 01:35:32.10	176.32	14.27	-53.2	-72.6	3.8	7.46e-01	0	27	104	0	74	34951
2026-01-11 01:35:33.10	176.40	14.17	-53.2	-72.6	3.8	7.47e-01	0	27	104	0	74	34969
2026-01-11 01:35:34.10	176.48	14.06	-53.2	-72.6	3.8	7.46e-01	0	27	104	0	74	34957
2026-01-11 01:35:35.10	176.55	13.95	-53.2	-72.6	3.8	7.44e-01	0	27	104	0	74	34989
2026-01-11 01:35:36.10	176.63	13.85	-53.2	-72.6	3.8	7.44e-01	0	27	104	0	74	34959
2026-01-11 01:35:37.10	176.70	13.74	-53.2	-72.6	3.8	7.46e-01	0	27	104	0	74	34881
2026-01-11 01:35:38.10	176.78	13.64	-53.2	-72.5	3.8	7.45e-01	0	27	104	0	74	34844
2026-01-11 01:35:39.11	176.85	13.53	-53.2	-72.6	3.8	7.42e-01	0	27	104	0	74	34904
2026-01-11 01:35:40.10	176.93	13.43	-53.2	-72.6	3.8	7.48e-01	0	27	104	0	74	34923
2026-01-11 01:35:41.11	177.00	13.32	-53.2	-72.6	3.8	7.44e-01	0	26	104	0	74	34996
2026-01-11 01:35:42.11	177.07	13.22	-53.2	-72.6	3.8	7.45e-01	0	27	104	0	74	34946
2026-01-11 01:35:43.11	177.15	13.12	-53.2	-72.6	3.8	7.48e-01	0	27	104	0	74	34945
2026-01-11 01:35:44.11	177.22	13.02	-53.2	-72.6	3.8	7.46e-01	0	27	104	0	74	35013
2026-01-11 01:35:45.12	177.29	12.91	-53.2	-72.6	3.8	7.48e-01	0	27	104	0	74	35005
2026-01-11 01:35:46.12	177.36	12.81	-53.2	-72.6	3.8	7.45e-01	0	27	104	0	74	34923
2026-01-11 01:35:47.12	177.43	12.71	-53.2	-72.6	3.8	7.48e-01	0	26	104	0	74	34929
2026-01-11 01:35:48.12	177.50	12.61	-53.2	-72.6	3.8	7.46e-01	0	27	104	0	74	34981
2026-01-11 01:35:49.11	177.57	12.51	-53.2	-72.6	3.8	7.43e-01	0	27	104	0	74	34996
2026-01-11 01:35:50.12	177.64	12.41	-53.2	-72.6	3.8	7.45e-01	0	27	104	0	74	35011
2026-01-11 01:35:51.12	177.71	12.31	-53.2	-72.6	3.8	7.46e-01	0	27	104	0	74	34961
2026-01-11 01:35:52.13	177.77	12.21	-53.2	-72.6	3.8	7.44e-01	0	27	104	0	74	34895
2026-01-11 01:35:53.13	177.84	12.11	-53.2	-72.6	3.8	7.45e-01	0	27	104	0	74	34956
2026-01-11 01:35:54.13	177.91	12.02	-53.2	-72.5	3.8	7.47e-01	0	26	104	0	74	34849
2026-01-11 01:35:55.13	177.97	11.92	-53.2	-72.6	3.8	7.48e-01	0	27	104	0	74	34962
2026-01-11 01:35:56.13	178.04	11.82	-53.2	-72.6	3.8	7.49e-01	0	27	104	0	74	34982
2026-01-11 01:35:57.12	178.10	11.72	-53.2	-72.6	3.8	7.47e-01	0	26	104	0	74	34996
2026-01-11 01:35:58.12	178.17	11.63	-53.2	-72.6	3.8	7.48e-01	0	27	104	0	74	35005
2026-01-11 01:35:59.12	178.23	11.53	-53.2	-72.6	3.8	7.46e-01	0	26	104	0	74	34955
2026-01-11 01:36:00.13	178.30	11.44	-53.2	-72.6	3.8	7.42e-01	0	27	104	0	74	34971
2026-01-11 01:36:01.13	178.36	11.34	-53.2	-72.6	3.8	7.43e-01	0	27	104	0	74	34949
2026-01-11 01:36:02.13	178.43	11.25	-53.2	-72.6	3.8	7.46e-01	0	27	104	0	74	34928
2026-01-11 01:36:03.13	178.49	11.15	-53.2	-72.6	3.8	7.47e-01	0	27	104	0	74	34929
2026-01-11 01:36:04.13	178.55	11.06	-53.2	-72.6	3.8	7.46e-01	0	27	104	0	74	34930
2026-01-11 01:36:05.13	178.61	10.96	-53.2	-72.6	3.8	7.45e-01	0	27	104	0	74	34952
2026-01-11 01:36:06.13	178.68	10.87	-53.2	-72.6	3.8	7.44e-01	0	27	104	0	74	34939
2026-01-11 01:36:07.12	178.74	10.78	-53.2	-72.6	3.8	7.44e-01	0	27	104	0	74	34905
2026-01-11 01:36:08.12	178.80	10.69	-53.2	-72.5	3.8	7.47e-01	0	27	104	0	74	34867
2026-01-11 01:36:09.12	178.86	10.59	-53.2	-72.6	3.8	7.44e-01	0	27	104	0	74	34951
2026-01-11 01:36:10.12	178.92	10.50	-53.2	-72.6	3.8	7.45e-01	0	27	104	0	74	34938
2026-01-11 01:36:11.12	178.98	10.41	-53.2	-72.6	3.8	7.43e-01	0	27	104	0	74	35013
2026-01-11 01:36:12.12	179.04	10.32	-53.2	-72.6	3.8	7.47e-01	0	27	104	0	74	34933
2026-01-11 01:36:13.12	179.10	10.23	-53.2	-72.6	3.8	7.46e-01	0	27	104	0	74	34906
2026-01-11 01:36:14.13	179.16	10.14	-53.2	-72.6	3.8	7.44e-01	0	27	104	0	74	34994
2026-01-11 01:36:15.13	179.21	10.05	-53.2	-72.6	3.8	7.46e-01	0	27	104	0	74	34973
2026-01-11 01:36:16.13	179.27	9.96	-53.2	-72.6	3.8	7.44e-01	0	27	104	0	74	34919
2026-01-11 01:36:17.12	179.33	9.87	-53.2	-72.6	3.8	7.49e-01	0	27	104	0	74	34885
2026-01-11 01:36:18.12	179.39	9.78	-53.2	-72.6	3.8	7.43e-01	0	27	104	0	74	34927
2026-01-11 01:36:19.12	179.44	9.69	-53.2	-72.6	3.8	7.43e-01	0	27	104	0	74	35055
2026-01-11 01:36:20.12	179.50	9.60	-53.2	-72.6	3.8	7.49e-01	0	27	104	0	74	34958
2026-01-11 01:36:21.12	179.56	9.51	-53.2	-72.6	3.8	7.48e-01	0	26	104	0	74	34985
2026-01-11 01:36:22.12	179.61	9.43	-53.2	-72.6	3.8	7.46e-01	0	27	104	0	74	35021
2026-01-11 01:36:23.13	179.67	9.34	-53.2	-72.6	3.8	7.49e-01	0	27	104	0	74	34925
2026-01-11 01:36:24.13	179.72	9.25	-53.2	-72.6	3.8	7.47e-01	0	27	104	0	74	35001
2026-01-11 01:36:25.14	179.78	9.16	-53.2	-72.6	3.8	7.48e-01	0	27	104	0	74	34886
2026-01-11 01:36:26.14	179.83	9.08	-53.2	-72.6	3.8	7.46e-01	0	27	104	0	74	34991
2026-01-11 01:36:27.14	179.89	8.99	-53.2	-72.6	3.8	7.46e-01	0	27	104	0	74	34965
2026-01-11 01:36:28.15	179.94	8.90	-53.2	-72.6	3.8	7.45e-01	0	27	104	0	74	34964
2026-01-11 01:36:29.15	180.00	8.82	-53.2	-72.6	3.8	7.44e-01	0	27	104	0	74	35006
2026-01-11 01:36:30.14	180.05	8.73	-53.2	-72.6	3.8	7.44e-01	0	27	104	0	74	34970
2026-01-11 01:36:31.15	180.10	8.65	-53.2	-72.6	3.8	7.42e-01	0	27	104	0	74	34954
2026-01-11 01:36:32.15	180.16	8.56	-53.2	-72.6	3.8	7.46e-01	0	27	104	0	74	34935
2026-01-11 01:36:33.16	180.21	8.48	-53.2	-72.6	3.8	7.47e-01	0	27	104	0	74	35004
2026-01-11 01:36:34.15	180.26	8.39	-53.2	-72.6	3.8	7.50e-01	0	27	104	0	74	34914
2026-01-11 01:36:35.16	180.31	8.31	-53.2	-72.6	3.8	7.49e-01	0	27	104	0	74	34950
2026-01-11 01:36:36.16	180.36	8.23	-53.2	-72.6	3.8	7.45e-01	0	27	104	0	74	34965
2026-01-11 01:36:37.16	180.41	8.14	-53.2	-72.6	3.8	7.47e-01	0	27	104	0	74	34913
2026-01-11 01:36:38.16	180.47	8.06	-53.2	-72.6	3.8	7.46e-01	0	27	104	0	74	34919
2026-01-11 01:36:39.16	180.52	7.98	-53.2	-72.6	3.8	7.44e-01	0	27	104	0	74	34995
2026-01-11 01:36:40.16	180.57	7.89	-53.2	-72.6	3.8	7.45e-01	0	27	104	0	74	34945
2026-01-11 01:36:41.16	180.62	7.81	-53.2	-72.6	3.8	7.46e-01	0	27	104	0	74	34902
2026-01-11 01:36:42.17	180.67	7.73	-53.2	-72.6	3.8	7.45e-01	0	27	104	0	74	34948
2026-01-11 01:36:43.17	180.72	7.65	-53.2	-72.6	3.8	7.50e-01	0	27	104	0	74	34897
2026-01-11 01:36:44.17	180.76	7.57	-53.2	-72.6	3.8	7.47e-01	0	27	104	0	74	34988
2026-01-11 01:36:45.17	180.81	7.49	-53.2	-72.5	3.8	7.44e-01	0	26	104	0	74	34833
2026-01-11 01:36:46.17	180.86	7.41	-53.2	-72.6	3.8	7.48e-01	0	27	104	0	74	34898
2026-01-11 01:36:47.17	180.91	7.33	-53.2	-72.6	3.8	7.48e-01	0	27	104	0	74	34897
2026-01-11 01:36:48.17	180.96	7.25	-53.2	-72.6	3.8	7.47e-01	0	27	104	0	74	34938
2026-01-11 01:36:49.18	181.01	7.16	-53.2	-72.6	3.8	7.46e-01	0	27	104	0	74	35074
2026-01-11 01:36:50.18	181.05	7.08	-53.2	-72.6	3.8	7.48e-01	0	26	104	0	74	35035
2026-01-11 01:36:51.18	181.10	7.01	-53.2	-72.6	3.8	7.45e-01	0	27	104	0	74	35084
2026-01-11 01:36:52.19	181.15	6.93	-53.2	-72.6	3.8	7.46e-01	0	27	104	0	74	34948
2026-01-11 01:36:53.19	181.20	6.85	-53.2	-72.6	3.8	7.44e-01	0	27	104	0	74	35008
2026-01-11 01:36:54.20	181.24	6.77	-53.2	-72.6	3.8	7.43e-01	0	27	104	0	74	35056
2026-01-11 01:36:55.19	181.29	6.69	-53.2	-72.6	3.8	7.48e-01	0	27	104	0	74	35050
2026-01-11 01:36:56.19	181.34	6.61	-53.2	-72.6	3.8	7.45e-01	0	27	104	0	74	35079
2026-01-11 01:36:57.20	181.38	6.53	-53.2	-72.6	3.8	7.44e-01	0	27	104	0	74	34948
2026-01-11 01:36:58.19	181.43	6.46	-53.2	-72.6	3.8	7.48e-01	0	27	104	0	74	34904
2026-01-11 01:36:59.19	181.47	6.38	-53.2	-72.6	3.8	7.47e-01	0	27	104	0	74	34998
2026-01-11 01:37:00.20	181.52	6.30	-53.2	-72.6	3.8	7.46e-01	0	27	104	0	74	35017
2026-01-11 01:37:01.21	181.56	6.22	-53.2	-72.6	3.8	7.43e-01	0	27	104	0	74	34908
2026-01-11 01:37:02.21	181.61	6.15	-53.2	-72.6	3.8	7.47e-01	0	27	104	0	74	34972
2026-01-11 01:37:03.20	181.65	6.07	-53.2	-72.6	3.8	7.43e-01	0	27	104	0	74	34999
2026-01-11 01:37:04.20	181.70	6.00	-53.2	-72.6	3.8	7.48e-01	0	27	104	0	74	35015
2026-01-11 01:37:05.20	181.74	5.92	-53.2	-72.6	3.8	7.46e-01	0	27	104	0	74	35011
2026-01-11 01:37:06.19	181.78	5.84	-53.2	-72.6	3.8	7.49e-01	0	27	104	0	74	34965
2026-01-11 01:37:07.19	181.83	5.77	-53.2	-72.6	3.8	7.47e-01	0	27	104	0	74	34948
2026-01-11 01:37:08.19	181.87	5.69	-53.2	-72.6	3.8	7.48e-01	0	27	104	0	74	35027
2026-01-11 01:37:09.20	181.91	5.62	-53.2	-72.6	3.8	7.47e-01	0	27	104	0	74	35045
2026-01-11 01:37:10.20	181.95	5.54	-53.2	-72.6	3.8	7.46e-01	0	27	104	0	74	35000
2026-01-11 01:37:11.20	182.00	5.47	-53.2	-72.6	3.8	7.45e-01	0	27	104	0	74	35008
2026-01-11 01:37:12.20	182.04	5.39	-53.2	-72.6	3.8	7.46e-01	0	27	104	0	74	35002
2026-01-11 01:37:13.20	182.08	5.32	-53.2	-72.6	3.8	7.46e-01	0	27	104	0	74	34992
2026-01-11 01:37:14.20	182.12	5.25	-53.2	-72.6	3.8	7.47e-01	0	27	104	0	74	35018
2026-01-11 01:37:15.21	182.17	5.17	-53.2	-72.6	3.8	7.46e-01	0	27	104	0	74	34998
2026-01-11 01:37:16.21	182.21	5.10	-53.2	-72.6	3.8	7.47e-01	0	27	104	0	74	35058
2026-01-11 01:37:17.21	182.25	5.03	-53.2	-72.6	3.8	7.45e-01	0	27	104	0	74	34998
2026-01-11 01:37:18.21	182.29	4.95	-53.2	-72.6	3.8	7.46e-01	0	27	104	0	74	34982
2026-01-11 01:37:19.21	182.33	4.88	-53.2	-72.6	3.8	7.44e-01	0	27	104	0	74	35099
2026-01-11 01:37:20.22	182.37	4.81	-53.2	-72.6	3.8	7.48e-01	0	27	104	0	74	35008
2026-01-11 01:37:21.23	182.41	4.73	-53.2	-72.6	3.8	7.48e-01	0	27	104	0	74	34945
2026-01-11 01:37:22.23	182.45	4.66	-53.2	-72.6	3.8	7.49e-01	0	27	104	0	74	34997
2026-01-11 01:37:23.22	182.49	4.59	-53.2	-72.6	3.8	7.46e-01	0	26	104	0	74	35017
2026-01-11 01:37:24.22	182.53	4.52	-53.2	-72.6	3.8	7.43e-01	0	27	104	0	74	35005
2026-01-11 01:37:25.22	182.57	4.45	-53.2	-72.6	3.8	7.47e-01	0	27	104	0	74	35008
2026-01-11 01:37:26.23	182.61	4.38	-53.2	-72.6	3.8	7.46e-01	0	27	104	0	74	35055
2026-01-11 01:37:27.22	182.65	4.30	-53.2	-72.6	3.8	7.46e-01	0	27	104	0	74	35002
2026-01-11 01:37:28.22	182.69	4.23	-53.2	-72.6	3.8	7.46e-01	0	27	104	0	74	35057
2026-01-11 01:37:29.22	182.73	4.16	-53.2	-72.6	3.8	7.47e-01	0	27	104	0	74	35133
2026-01-11 01:37:30.22	182.77	4.09	-53.2	-72.6	3.8	7.46e-01	0	27	104	0	74	35178
2026-01-11 01:37:31.23	182.81	4.02	-53.2	-72.6	3.8	7.44e-01	0	27	104	0	74	35065
2026-01-11 01:37:32.23	182.85	3.95	-53.2	-72.6	3.8	7.47e-01	0	27	104	0	74	35140
2026-01-11 01:37:33.24	182.88	3.88	-53.2	-72.6	3.8	7.46e-01	0	27	104	0	74	35005
2026-01-11 01:37:34.24	182.92	3.81	-53.2	-72.6	3.8	7.46e-01	0	27	104	0	74	35077
2026-01-11 01:37:35.24	182.96	3.74	-53.2	-72.6	3.8	7.46e-01	0	27	104	0	74	35205
2026-01-11 01:37:36.25	183.00	3.67	-53.2	-72.6	3.8	7.46e-01	0	27	104	0	74	35120
2026-01-11 01:37:37.24	183.03	3.60	-53.2	-72.6	3.8	7.47e-01	0	27	104	0	74	35008
2026-01-11 01:37:38.24	183.07	3.53	-53.2	-72.6	3.8	7.45e-01	0	27	104	0	74	35104
2026-01-11 01:37:39.24	183.11	3.47	-53.2	-72.6	3.8	7.48e-01	0	27	104	0	74	35095
2026-01-11 01:37:40.26	183.15	3.40	-53.2	-72.6	3.8	7.46e-01	0	27	104	0	74	35060
