passes_logs/2026/01/11/R3.2S_Murmansk/R3.2S_Murmansk__20260111_065454_NOAA_21_JPSS-2_rec.log

#Pass ID: 20260111_065454_NOAA 21 (JPSS-2)
#Satellite: NOAA 21 (JPSS-2)
#Configuration: NOAA-21
#almurnet v.1.7.20251203
#Start time: 2026-01-11 06:54:55

#Version: 2.2.20231116
#Station: R3.2S_Murmansk
#Location: 33.079688 lon 68.888172 lat
#TLE: 1 54234U 22150A   26009.79679979  .00000100  00000+0  68070-4 0  9993
#TLE: 2 54234  98.7494 310.7596 0000833 322.2782  37.8335 14.19533646164071

#Time	Az	El	Level	Level2	SNR	BER	BlckErr	Temp	State	Recorded	gain1	gain2
2026-01-11 06:54:55.03	93.26	2.03	-57.1	-70.8	3.8	1.49e+00	0	21	0	0	80	17390
2026-01-11 06:54:56.03	93.20	2.09	-57.0	-70.7	3.8	1.49e+00	0	21	104	0	79	18275
2026-01-11 06:54:57.03	93.15	2.14	-57.0	-70.8	3.8	1.49e+00	0	21	104	0	79	18358
2026-01-11 06:54:58.03	93.10	2.20	-57.1	-70.8	3.8	1.49e+00	0	21	104	0	79	18335
2026-01-11 06:54:59.04	93.05	2.26	-57.1	-70.8	3.8	1.49e+00	0	21	104	0	79	18313
2026-01-11 06:55:00.05	92.99	2.33	-57.1	-70.8	3.8	1.49e+00	0	21	104	0	79	18311
2026-01-11 06:55:01.05	92.94	2.38	-57.0	-70.8	3.8	1.49e+00	0	21	104	0	79	18313
2026-01-11 06:55:02.06	92.89	2.45	-57.0	-70.8	3.8	1.49e+00	0	21	104	0	79	18386
2026-01-11 06:55:03.05	92.83	2.51	-57.1	-70.8	3.8	1.49e+00	0	21	104	0	79	18365
2026-01-11 06:55:04.06	92.78	2.57	-57.0	-70.8	3.8	1.49e+00	0	22	104	0	79	18367
2026-01-11 06:55:05.07	92.72	2.63	-57.0	-70.8	3.8	1.49e+00	0	21	104	0	79	18403
2026-01-11 06:55:06.07	92.67	2.69	-57.1	-70.8	3.8	1.49e+00	0	21	104	0	79	18421
2026-01-11 06:55:07.08	92.61	2.75	-57.1	-70.8	3.8	1.49e+00	0	21	104	0	79	18416
2026-01-11 06:55:08.07	92.56	2.81	-57.0	-70.8	3.8	1.49e+00	0	22	104	0	79	18441
2026-01-11 06:55:09.08	92.50	2.87	-57.1	-70.8	3.8	1.49e+00	0	21	104	0	79	18468
2026-01-11 06:55:10.07	92.45	2.93	-57.0	-70.8	3.8	1.49e+00	0	22	104	0	79	18403
2026-01-11 06:55:11.07	92.39	2.99	-57.1	-70.8	3.8	1.49e+00	0	22	104	0	79	18391
2026-01-11 06:55:12.08	92.34	3.05	-57.1	-70.8	3.8	1.49e+00	0	22	104	0	79	18337
2026-01-11 06:55:13.09	92.28	3.11	-57.1	-70.7	3.8	1.49e+00	0	22	104	0	79	18283
2026-01-11 06:55:14.09	92.23	3.18	-57.1	-70.7	3.8	1.49e+00	0	22	104	0	79	18279
2026-01-11 06:55:15.08	92.17	3.24	-57.1	-70.8	3.8	1.49e+00	0	22	104	0	79	18381
2026-01-11 06:55:16.07	92.11	3.30	-57.1	-70.8	3.8	1.49e+00	0	22	104	0	79	18369
2026-01-11 06:55:17.07	92.06	3.36	-57.1	-70.8	3.8	1.49e+00	0	22	104	0	79	18376
2026-01-11 06:55:18.07	92.00	3.42	-57.1	-70.8	3.8	1.49e+00	0	22	104	0	79	18433
2026-01-11 06:55:19.08	91.94	3.48	-57.1	-70.8	3.8	1.49e+00	0	22	104	0	79	18425
2026-01-11 06:55:20.08	91.88	3.55	-57.1	-70.8	3.8	1.49e+00	0	22	104	0	79	18383
2026-01-11 06:55:21.09	91.83	3.61	-57.1	-70.7	3.8	1.49e+00	0	22	104	0	79	18229
2026-01-11 06:55:22.09	91.77	3.67	-57.1	-70.7	3.8	1.49e+00	0	22	104	0	79	18105
2026-01-11 06:55:23.09	91.71	3.73	-57.1	-70.6	3.8	1.49e+00	0	22	104	0	79	17973
2026-01-11 06:55:24.10	91.65	3.80	-57.1	-70.6	3.8	1.49e+00	0	22	104	0	79	18031
2026-01-11 06:55:25.10	91.59	3.86	-57.1	-70.7	3.8	1.49e+00	0	22	104	0	79	18242
2026-01-11 06:55:26.11	91.53	3.92	-57.1	-70.8	3.8	1.49e+00	0	22	104	0	79	18392
2026-01-11 06:55:27.11	91.47	3.98	-57.1	-70.8	3.8	1.49e+00	0	22	104	0	79	18464
2026-01-11 06:55:28.12	91.41	4.05	-57.1	-70.8	3.8	1.49e+00	0	22	104	0	79	18414
2026-01-11 06:55:29.12	91.35	4.11	-57.1	-70.6	3.8	1.49e+00	0	22	104	0	79	17901
2026-01-11 06:55:30.12	91.29	4.17	-57.0	-70.0	3.8	1.49e+00	0	22	104	0	79	16748
2026-01-11 06:55:31.12	91.23	4.24	-57.0	-69.4	3.8	1.49e+00	0	22	104	0	79	15713
2026-01-11 06:55:32.12	91.17	4.30	-56.9	-68.6	3.9	1.49e+00	0	22	104	0	79	14276
2026-01-11 06:55:33.13	91.11	4.36	-56.8	-67.5	4.1	1.47e+00	0	22	104	0	79	12543
2026-01-11 06:55:34.13	91.05	4.43	-56.8	-67.2	4.0	1.46e+00	0	22	104	0	79	12102
2026-01-11 06:55:35.14	90.98	4.49	-56.6	-65.2	4.9	1.02e+00	0	22	104	0	79	9693
2026-01-11 06:55:36.14	90.92	4.56	-56.5	-64.8	5.2	6.65e-01	0	22	0	2097152	79	9247
2026-01-11 06:55:37.14	90.86	4.62	-56.3	-63.4	6.1	2.86e-01	0	22	0	5242880	79	7836
2026-01-11 06:55:38.14	90.80	4.68	-56.3	-63.3	6.2	2.49e-01	0	22	0	8388608	79	7762
2026-01-11 06:55:39.14	90.73	4.75	-56.0	-62.5	6.8	1.45e-01	0	22	0	11534336	78	7481
2026-01-11 06:55:40.14	90.67	4.81	-55.9	-62.0	7.2	1.15e-01	0	22	0	14680064	78	7055
2026-01-11 06:55:41.15	90.61	4.88	-55.5	-60.8	8.2	5.01e-02	0	22	0	17825792	77	6539
2026-01-11 06:55:42.14	90.54	4.94	-55.6	-61.1	8.0	3.32e-02	0	22	0	20971520	77	6725
2026-01-11 06:55:43.14	90.48	5.01	-55.4	-60.3	8.7	1.84e-02	0	22	0	24117248	77	6195
2026-01-11 06:55:44.14	90.42	5.07	-55.6	-61.0	8.0	4.14e-02	0	22	0	27262976	77	6715
2026-01-11 06:55:45.15	90.35	5.14	-55.4	-60.2	8.8	2.07e-02	0	22	0	30408704	77	6128
2026-01-11 06:55:46.14	90.29	5.20	-52.9	-55.5	12.7	2.20e-06	0	22	0	33554432	72	4709
2026-01-11 06:55:47.14	90.22	5.27	-56.7	-66.9	4.0	1.19e+00	0	22	104	35651584	78	12511
2026-01-11 06:55:48.14	90.16	5.33	-55.9	-61.4	7.9	1.06e-01	0	22	0	37748736	77	7005
2026-01-11 06:55:49.14	90.09	5.40	-53.0	-55.7	12.3	0.00e+00	0	22	0	40894464	71	5125
2026-01-11 06:55:50.13	90.02	5.46	-52.5	-55.0	12.8	0.00e+00	0	22	0	44040192	71	4712
2026-01-11 06:55:51.13	89.96	5.53	-51.9	-54.1	13.4	0.00e+00	0	22	0	47185920	70	4511
2026-01-11 06:55:52.13	89.89	5.59	-51.2	-53.1	14.0	0.00e+00	0	22	0	49283072	69	4254
2026-01-11 06:55:53.13	89.82	5.66	-51.4	-53.4	13.6	0.00e+00	0	22	0	52428800	68	4665
2026-01-11 06:55:54.13	89.76	5.73	-51.4	-53.5	13.6	0.00e+00	0	22	0	55574528	68	4710
2026-01-11 06:55:55.13	89.69	5.79	-51.0	-52.8	14.0	0.00e+00	0	22	0	58720256	68	4373
2026-01-11 06:55:56.13	89.62	5.86	-51.2	-53.1	13.8	0.00e+00	0	22	0	61865984	68	4522
2026-01-11 06:55:57.12	89.55	5.92	-51.6	-53.7	13.4	0.00e+00	0	22	0	65011712	68	4819
2026-01-11 06:55:58.11	89.48	5.99	-50.9	-52.7	14.1	0.00e+00	0	22	0	68157440	68	4332
2026-01-11 06:55:59.11	89.42	6.06	-50.9	-52.8	14.1	0.00e+00	0	22	0	71303168	68	4345
2026-01-11 06:56:00.10	89.35	6.12	-50.8	-52.6	14.2	0.00e+00	0	22	0	74448896	68	4282
2026-01-11 06:56:01.10	89.28	6.19	-50.9	-52.7	14.1	0.00e+00	0	23	0	77594624	68	4338
2026-01-11 06:56:02.10	89.21	6.26	-50.7	-52.5	14.2	0.00e+00	0	22	0	80740352	68	4234
2026-01-11 06:56:03.09	89.14	6.32	-50.2	-51.9	14.4	0.00e+00	0	22	0	83886080	67	4165
2026-01-11 06:56:04.09	89.07	6.39	-50.4	-52.1	14.3	0.00e+00	0	22	0	87031808	67	4263
2026-01-11 06:56:05.08	89.00	6.46	-50.2	-51.8	14.5	0.00e+00	0	22	0	90177536	67	4142
2026-01-11 06:56:06.07	88.93	6.52	-50.2	-51.8	14.3	0.00e+00	0	23	0	93323264	66	4386
2026-01-11 06:56:07.07	88.85	6.59	-50.1	-51.8	14.4	0.00e+00	0	23	0	96468992	66	4343
2026-01-11 06:56:08.07	88.78	6.66	-50.1	-51.7	14.4	0.00e+00	0	22	0	99614720	66	4329
2026-01-11 06:56:09.06	88.71	6.73	-50.2	-51.9	14.3	0.00e+00	0	22	0	102760448	66	4393
2026-01-11 06:56:10.06	88.64	6.79	-50.2	-51.8	14.3	0.00e+00	0	23	0	105906176	66	4387
2026-01-11 06:56:11.05	88.57	6.86	-50.2	-51.9	14.3	0.00e+00	0	22	0	109051904	66	4427
2026-01-11 06:56:12.05	88.49	6.93	-50.1	-51.7	14.4	0.00e+00	0	23	0	112197632	66	4331
2026-01-11 06:56:13.04	88.42	7.00	-50.2	-51.8	14.4	0.00e+00	0	23	0	115343360	66	4381
2026-01-11 06:56:14.03	88.35	7.07	-50.2	-51.9	14.3	0.00e+00	0	23	0	118489088	66	4394
2026-01-11 06:56:15.03	88.27	7.13	-50.2	-51.8	14.3	0.00e+00	0	22	0	121634816	66	4380
2026-01-11 06:56:16.03	88.20	7.20	-50.0	-51.6	14.5	0.00e+00	0	23	0	124780544	66	4250
2026-01-11 06:56:17.03	88.12	7.27	-49.9	-51.5	14.6	0.00e+00	0	23	0	127926272	66	4206
2026-01-11 06:56:18.03	88.04	7.34	-50.1	-51.7	14.4	0.00e+00	0	22	0	131072000	66	4310
2026-01-11 06:56:19.03	87.97	7.41	-50.2	-51.8	14.3	0.00e+00	0	22	0	134217728	66	4372
2026-01-11 06:56:20.04	87.89	7.48	-50.2	-51.8	14.4	0.00e+00	0	22	0	137363456	66	4361
2026-01-11 06:56:21.03	87.82	7.55	-49.9	-51.5	14.5	0.00e+00	0	23	0	140509184	66	4231
2026-01-11 06:56:22.03	87.74	7.62	-49.8	-51.4	14.6	0.00e+00	0	23	0	143654912	66	4158
2026-01-11 06:56:23.03	87.66	7.69	-49.6	-51.2	14.6	0.00e+00	0	22	0	146800640	65	4308
2026-01-11 06:56:24.02	87.58	7.76	-49.7	-51.2	14.5	0.00e+00	0	23	0	149946368	65	4334
2026-01-11 06:56:25.01	87.51	7.83	-49.7	-51.3	14.5	0.00e+00	0	23	0	152043520	65	4365
2026-01-11 06:56:26.01	87.43	7.90	-49.6	-51.1	14.6	0.00e+00	0	23	0	155189248	65	4274
2026-01-11 06:56:27.02	87.35	7.97	-49.8	-51.4	14.5	0.00e+00	0	23	0	158334976	65	4400
2026-01-11 06:56:28.01	87.27	8.04	-49.6	-51.1	14.6	0.00e+00	0	22	0	161480704	65	4289
2026-01-11 06:56:29.01	87.19	8.11	-49.5	-51.1	14.6	0.00e+00	0	23	0	164626432	65	4243
2026-01-11 06:56:30.01	87.11	8.18	-49.6	-51.1	14.6	0.00e+00	0	23	0	167772160	65	4274
2026-01-11 06:56:31.00	87.03	8.25	-49.5	-51.0	14.7	0.00e+00	0	23	0	170917888	65	4207
2026-01-11 06:56:32.00	86.95	8.32	-49.7	-51.2	14.6	0.00e+00	0	23	0	174063616	65	4309
2026-01-11 06:56:33.00	86.87	8.39	-49.7	-51.3	14.5	0.00e+00	0	23	0	177209344	65	4359
2026-01-11 06:56:34.00	86.78	8.47	-49.6	-51.2	14.6	0.00e+00	0	23	0	180355072	65	4293
2026-01-11 06:56:35.00	86.70	8.54	-49.6	-51.2	14.6	0.00e+00	0	23	0	183500800	65	4310
2026-01-11 06:56:36.00	86.62	8.61	-49.6	-51.2	14.6	0.00e+00	0	23	0	186646528	65	4295
2026-01-11 06:56:36.99	86.54	8.68	-49.8	-51.4	14.5	0.00e+00	0	23	0	189792256	65	4409
2026-01-11 06:56:37.99	86.45	8.75	-49.5	-51.1	14.7	0.00e+00	0	22	0	192937984	65	4245
2026-01-11 06:56:39.00	86.37	8.83	-49.5	-51.1	14.7	0.00e+00	0	23	0	196083712	65	4245
2026-01-11 06:56:40.00	86.28	8.90	-49.6	-51.1	14.7	0.00e+00	0	23	0	199229440	65	4252
2026-01-11 06:56:41.00	86.20	8.97	-49.5	-51.0	14.7	0.00e+00	0	23	0	202375168	65	4225
2026-01-11 06:56:42.01	86.11	9.04	-49.4	-50.9	14.7	0.00e+00	0	22	0	205520896	65	4175
2026-01-11 06:56:43.00	86.03	9.12	-49.5	-51.0	14.7	0.00e+00	0	23	0	208666624	65	4231
2026-01-11 06:56:44.01	85.94	9.19	-49.4	-50.9	14.8	0.00e+00	0	23	0	211812352	65	4159
2026-01-11 06:56:45.02	85.85	9.26	-49.5	-51.0	14.7	0.00e+00	0	23	0	214958080	65	4232
2026-01-11 06:56:46.02	85.76	9.34	-49.4	-50.9	14.7	0.00e+00	0	23	0	218103808	65	4180
2026-01-11 06:56:47.02	85.68	9.41	-49.5	-51.0	14.7	0.00e+00	0	23	0	221249536	65	4198
2026-01-11 06:56:48.02	85.59	9.48	-49.5	-51.0	14.7	0.00e+00	0	23	0	224395264	65	4233
2026-01-11 06:56:49.02	85.50	9.56	-49.3	-50.8	14.8	0.00e+00	0	23	0	227540992	65	4106
2026-01-11 06:56:50.02	85.41	9.63	-49.3	-50.7	14.8	0.00e+00	0	23	0	230686720	65	4094
2026-01-11 06:56:51.03	85.32	9.71	-49.2	-50.6	14.9	0.00e+00	0	23	0	233832448	65	4047
2026-01-11 06:56:52.03	85.23	9.78	-49.2	-50.7	14.9	0.00e+00	0	23	0	236978176	65	4065
2026-01-11 06:56:53.03	85.14	9.85	-49.3	-50.7	14.8	0.00e+00	0	23	0	240123904	65	4095
2026-01-11 06:56:54.03	85.05	9.93	-49.2	-50.7	14.9	0.00e+00	0	23	0	243269632	65	4053
2026-01-11 06:56:55.03	84.96	10.00	-49.2	-50.7	14.9	0.00e+00	0	23	0	246415360	65	4064
2026-01-11 06:56:56.02	84.87	10.08	-49.2	-50.7	14.9	0.00e+00	0	23	0	249561088	65	4060
2026-01-11 06:56:57.03	84.77	10.15	-49.3	-50.7	14.9	0.00e+00	0	23	0	252706816	65	4078
2026-01-11 06:56:58.03	84.68	10.23	-49.1	-50.5	14.8	0.00e+00	0	23	0	255852544	64	4236
2026-01-11 06:56:59.04	84.59	10.30	-49.1	-50.5	14.8	0.00e+00	0	23	0	258998272	64	4219
2026-01-11 06:57:00.04	84.49	10.38	-49.1	-50.5	14.8	0.00e+00	0	23	0	262144000	64	4240
2026-01-11 06:57:01.04	84.40	10.45	-49.2	-50.6	14.8	0.00e+00	0	23	0	265289728	64	4280
2026-01-11 06:57:02.03	84.30	10.53	-49.1	-50.5	14.8	0.00e+00	0	23	0	268435456	64	4221
2026-01-11 06:57:03.03	84.21	10.61	-49.1	-50.6	14.8	0.00e+00	0	23	0	271581184	64	4243
2026-01-11 06:57:04.03	84.11	10.68	-49.0	-50.5	14.9	0.00e+00	0	23	0	274726912	64	4202
2026-01-11 06:57:05.04	84.02	10.76	-49.1	-50.5	14.8	0.00e+00	0	23	0	277872640	64	4232
2026-01-11 06:57:06.04	83.92	10.83	-49.2	-50.6	14.8	0.00e+00	0	23	0	281018368	64	4264
2026-01-11 06:57:07.03	83.82	10.91	-49.0	-50.4	14.9	0.00e+00	0	23	0	284164096	64	4191
2026-01-11 06:57:08.04	83.72	10.99	-48.9	-50.3	14.9	0.00e+00	0	23	0	287309824	64	4132
2026-01-11 06:57:09.03	83.63	11.06	-49.0	-50.4	14.9	0.00e+00	0	23	0	290455552	64	4166
2026-01-11 06:57:10.02	83.53	11.14	-49.0	-50.4	14.9	0.00e+00	0	23	0	292552704	64	4185
2026-01-11 06:57:11.01	83.43	11.22	-49.0	-50.4	14.9	0.00e+00	0	23	0	295698432	64	4187
2026-01-11 06:57:12.01	83.33	11.29	-48.9	-50.3	15.0	0.00e+00	0	23	0	298844160	64	4109
2026-01-11 06:57:13.01	83.23	11.37	-48.9	-50.2	15.0	0.00e+00	0	23	0	301989888	64	4096
2026-01-11 06:57:14.01	83.13	11.45	-48.8	-50.2	15.0	0.00e+00	0	23	0	305135616	64	4080
2026-01-11 06:57:15.01	83.03	11.53	-48.7	-50.1	15.1	0.00e+00	0	23	0	308281344	64	4032
2026-01-11 06:57:16.01	82.92	11.60	-48.7	-50.1	14.9	0.00e+00	0	23	0	311427072	63	4258
2026-01-11 06:57:17.00	82.82	11.68	-48.7	-50.1	14.9	0.00e+00	0	23	0	314572800	63	4243
2026-01-11 06:57:17.99	82.72	11.76	-48.7	-50.0	14.9	0.00e+00	0	23	0	317718528	63	4231
2026-01-11 06:57:18.99	82.61	11.84	-48.6	-50.0	15.0	0.00e+00	0	23	0	320864256	63	4213
2026-01-11 06:57:19.99	82.51	11.92	-48.7	-50.0	14.9	0.00e+00	0	23	0	324009984	63	4239
2026-01-11 06:57:20.98	82.41	11.99	-48.7	-50.0	15.0	0.00e+00	0	23	0	327155712	63	4228
2026-01-11 06:57:21.99	82.30	12.07	-48.8	-50.1	14.9	0.00e+00	0	23	0	330301440	63	4279
2026-01-11 06:57:22.99	82.19	12.15	-48.7	-50.0	15.0	0.00e+00	0	23	0	333447168	63	4225
2026-01-11 06:57:23.99	82.09	12.23	-48.7	-50.0	15.0	0.00e+00	0	23	0	336592896	63	4233
2026-01-11 06:57:24.99	81.98	12.31	-48.7	-50.1	14.9	0.00e+00	0	23	0	339738624	63	4265
2026-01-11 06:57:25.98	81.87	12.39	-48.6	-50.0	15.0	0.00e+00	0	23	0	342884352	63	4194
2026-01-11 06:57:26.98	81.76	12.47	-48.6	-50.0	15.0	0.00e+00	0	23	0	346030080	63	4197
2026-01-11 06:57:27.98	81.65	12.55	-48.5	-49.8	15.1	0.00e+00	0	23	0	349175808	63	4136
2026-01-11 06:57:28.98	81.54	12.63	-48.4	-49.8	15.1	0.00e+00	0	23	0	352321536	63	4109
2026-01-11 06:57:29.99	81.43	12.71	-48.5	-49.9	15.0	0.00e+00	0	23	0	355467264	63	4160
2026-01-11 06:57:30.99	81.32	12.79	-48.3	-49.6	15.2	0.00e+00	0	23	0	358612992	63	4047
2026-01-11 06:57:32.00	81.21	12.87	-48.4	-49.7	15.2	0.00e+00	0	23	0	361758720	63	4055
2026-01-11 06:57:32.99	81.10	12.95	-48.2	-49.5	15.2	0.00e+00	0	23	0	364904448	63	4002
2026-01-11 06:57:33.99	80.98	13.03	-48.3	-49.6	15.2	0.00e+00	0	23	0	368050176	63	4017
2026-01-11 06:57:35.00	80.87	13.11	-48.3	-49.6	15.2	0.00e+00	0	23	0	371195904	63	4046
2026-01-11 06:57:35.99	80.76	13.19	-48.3	-49.6	15.2	0.00e+00	0	23	0	374341632	63	4024
2026-01-11 06:57:37.00	80.64	13.27	-48.2	-49.5	15.2	0.00e+00	0	23	0	377487360	63	3984
2026-01-11 06:57:37.99	80.53	13.35	-48.3	-49.6	15.2	0.00e+00	0	23	0	380633088	63	4005
2026-01-11 06:57:39.00	80.41	13.44	-48.3	-49.5	15.2	0.00e+00	0	23	0	383778816	63	4002
2026-01-11 06:57:39.99	80.29	13.52	-48.3	-49.6	15.2	0.00e+00	0	23	0	386924544	63	4040
2026-01-11 06:57:40.98	80.18	13.60	-48.2	-49.5	15.2	0.00e+00	0	23	0	390070272	63	3997
2026-01-11 06:57:41.98	80.06	13.68	-48.2	-49.5	15.2	0.00e+00	0	23	0	393216000	63	3986
2026-01-11 06:57:42.97	79.94	13.76	-48.3	-49.6	15.2	0.00e+00	0	23	0	396361728	63	4043
2026-01-11 06:57:43.98	79.82	13.84	-48.3	-49.6	15.2	0.00e+00	0	23	0	399507456	63	4006
2026-01-11 06:57:44.98	79.70	13.93	-48.3	-49.6	15.2	0.00e+00	0	23	0	402653184	63	4022
2026-01-11 06:57:45.97	79.58	14.01	-48.1	-49.4	15.1	0.00e+00	0	23	0	405798912	62	4155
2026-01-11 06:57:46.97	79.46	14.09	-48.1	-49.4	15.1	0.00e+00	0	23	0	408944640	62	4170
2026-01-11 06:57:47.97	79.34	14.17	-48.1	-49.4	15.1	0.00e+00	0	23	0	412090368	62	4178
2026-01-11 06:57:48.97	79.21	14.26	-48.1	-49.4	15.1	0.00e+00	0	23	0	415236096	62	4183
2026-01-11 06:57:49.96	79.09	14.34	-48.1	-49.4	15.1	0.00e+00	0	23	0	418381824	62	4185
2026-01-11 06:57:50.96	78.97	14.42	-48.1	-49.4	15.1	0.00e+00	0	23	0	421527552	62	4164
2026-01-11 06:57:51.96	78.84	14.50	-48.1	-49.4	15.1	0.00e+00	0	23	0	424673280	62	4186
2026-01-11 06:57:52.95	78.72	14.59	-48.1	-49.4	15.2	0.00e+00	0	23	0	426770432	62	4153
2026-01-11 06:57:53.95	78.59	14.67	-48.1	-49.4	15.1	0.00e+00	0	23	0	429916160	62	4164
2026-01-11 06:57:54.96	78.46	14.75	-48.1	-49.4	15.1	0.00e+00	0	23	0	433061888	62	4174
2026-01-11 06:57:55.95	78.34	14.84	-48.2	-49.5	15.1	0.00e+00	0	23	0	436207616	62	4210
2026-01-11 06:57:56.95	78.21	14.92	-48.2	-49.5	15.1	0.00e+00	0	23	0	439353344	62	4234
2026-01-11 06:57:57.94	78.08	15.01	-48.3	-49.6	15.1	0.00e+00	0	23	0	442499072	62	4245
2026-01-11 06:57:58.94	77.95	15.09	-48.4	-49.7	15.0	0.00e+00	0	23	0	445644800	62	4313
2026-01-11 06:57:59.94	77.82	15.17	-48.4	-49.8	15.0	0.00e+00	0	23	0	448790528	62	4342
2026-01-11 06:58:00.93	77.69	15.26	-48.5	-49.9	14.9	0.00e+00	0	23	0	451936256	62	4395
2026-01-11 06:58:01.93	77.56	15.34	-48.4	-49.8	15.0	0.00e+00	0	23	0	455081984	62	4356
2026-01-11 06:58:02.92	77.42	15.43	-48.5	-49.9	14.9	0.00e+00	0	23	0	458227712	62	4401
2026-01-11 06:58:03.91	77.29	15.51	-48.5	-49.9	14.9	0.00e+00	0	23	0	461373440	62	4406
2026-01-11 06:58:04.91	77.16	15.60	-48.4	-49.7	15.0	0.00e+00	0	23	0	464519168	62	4324
2026-01-11 06:58:05.90	77.02	15.68	-48.4	-49.7	15.0	0.00e+00	0	23	0	467664896	62	4307
2026-01-11 06:58:06.89	76.89	15.76	-48.3	-49.6	15.0	0.00e+00	0	23	0	470810624	62	4252
2026-01-11 06:58:07.89	76.75	15.85	-48.3	-49.6	15.0	0.00e+00	0	23	0	473956352	62	4272
2026-01-11 06:58:08.89	76.61	15.94	-48.3	-49.6	15.1	0.00e+00	0	23	0	477102080	62	4258
2026-01-11 06:58:09.88	76.47	16.02	-48.4	-49.7	15.0	0.00e+00	0	23	0	480247808	62	4304
2026-01-11 06:58:10.88	76.34	16.11	-48.4	-49.7	15.0	0.00e+00	0	23	0	483393536	62	4319
2026-01-11 06:58:11.88	76.19	16.19	-48.4	-49.8	15.0	0.00e+00	0	23	0	486539264	62	4350
2026-01-11 06:58:12.88	76.05	16.28	-48.5	-49.9	14.9	0.00e+00	0	23	0	489684992	62	4408
2026-01-11 06:58:13.89	75.91	16.37	-48.6	-49.9	14.9	0.00e+00	0	23	0	492830720	62	4414
2026-01-11 06:58:14.90	75.77	16.45	-48.4	-49.7	15.0	0.00e+00	0	23	0	495976448	62	4319
2026-01-11 06:58:15.90	75.62	16.54	-48.5	-49.8	15.0	0.00e+00	0	23	0	499122176	62	4359
2026-01-11 06:58:16.90	75.48	16.63	-48.5	-49.8	15.0	0.00e+00	0	23	0	502267904	62	4365
2026-01-11 06:58:17.90	75.33	16.71	-48.4	-49.7	15.0	0.00e+00	0	23	0	505413632	62	4339
2026-01-11 06:58:18.89	75.19	16.80	-48.4	-49.7	15.0	0.00e+00	0	23	0	508559360	62	4328
2026-01-11 06:58:19.88	75.04	16.89	-48.3	-49.6	15.0	0.00e+00	0	23	0	511705088	62	4277
2026-01-11 06:58:20.89	74.89	16.97	-48.2	-49.5	15.1	0.00e+00	0	23	0	514850816	62	4216
2026-01-11 06:58:21.89	74.74	17.06	-48.2	-49.5	15.1	0.00e+00	0	23	0	517996544	62	4209
2026-01-11 06:58:22.90	74.59	17.15	-48.3	-49.6	15.1	0.00e+00	0	23	0	521142272	62	4247
2026-01-11 06:58:23.90	74.44	17.24	-48.3	-49.6	15.0	0.00e+00	0	23	0	524288000	62	4284
2026-01-11 06:58:24.91	74.29	17.32	-48.2	-49.5	15.1	0.00e+00	0	23	0	527433728	62	4204
2026-01-11 06:58:25.91	74.14	17.41	-48.3	-49.6	15.1	0.00e+00	0	23	0	530579456	62	4251
2026-01-11 06:58:26.91	73.98	17.50	-48.3	-49.6	15.0	0.00e+00	0	23	0	533725184	62	4280
2026-01-11 06:58:27.91	73.83	17.59	-48.3	-49.6	15.0	0.00e+00	0	23	0	536870912	62	4274
2026-01-11 06:58:28.91	73.67	17.68	-48.3	-49.6	15.1	0.00e+00	0	23	0	540016640	62	4256
2026-01-11 06:58:29.91	73.52	17.76	-48.4	-49.7	15.0	0.00e+00	0	23	0	543162368	62	4303
2026-01-11 06:58:30.92	73.36	17.85	-48.3	-49.6	15.0	0.00e+00	0	23	0	546308096	62	4273
2026-01-11 06:58:31.93	73.20	17.94	-48.4	-49.7	15.0	0.00e+00	0	23	0	549453824	62	4296
2026-01-11 06:58:32.93	73.04	18.03	-48.2	-49.5	15.1	0.00e+00	0	23	0	552599552	62	4198
2026-01-11 06:58:33.93	72.88	18.12	-48.2	-49.5	15.1	0.00e+00	0	23	0	555745280	62	4208
2026-01-11 06:58:34.94	72.72	18.21	-48.2	-49.4	15.1	0.00e+00	0	23	0	558891008	62	4177
2026-01-11 06:58:35.94	72.56	18.30	-48.2	-49.5	15.1	0.00e+00	0	23	0	562036736	62	4200
2026-01-11 06:58:36.95	72.39	18.39	-48.2	-49.5	15.1	0.00e+00	0	23	0	565182464	62	4218
2026-01-11 06:58:37.96	72.23	18.48	-48.3	-49.5	15.1	0.00e+00	0	23	0	568328192	62	4234
2026-01-11 06:58:38.96	72.06	18.56	-48.2	-49.5	15.1	0.00e+00	0	23	0	571473920	62	4213
2026-01-11 06:58:39.97	71.90	18.65	-48.3	-49.6	15.1	0.00e+00	0	23	0	574619648	62	4243
2026-01-11 06:58:40.97	71.73	18.74	-48.2	-49.5	15.1	0.00e+00	0	23	0	577765376	62	4225
2026-01-11 06:58:41.97	71.56	18.83	-48.3	-49.5	15.1	0.00e+00	0	23	0	580911104	62	4238
2026-01-11 06:58:42.97	71.39	18.92	-48.1	-49.4	15.2	0.00e+00	0	23	0	584056832	62	4157
2026-01-11 06:58:43.98	71.22	19.01	-48.1	-49.4	15.2	0.00e+00	0	23	0	587202560	62	4165
2026-01-11 06:58:44.98	71.05	19.10	-48.2	-49.4	15.1	0.00e+00	0	23	0	590348288	62	4182
2026-01-11 06:58:45.99	70.88	19.19	-48.1	-49.4	15.2	0.00e+00	0	23	0	593494016	62	4156
2026-01-11 06:58:46.99	70.71	19.28	-48.1	-49.4	15.2	0.00e+00	0	23	0	596639744	62	4157
2026-01-11 06:58:48.00	70.53	19.37	-48.0	-49.3	15.2	0.00e+00	0	23	0	599785472	62	4110
2026-01-11 06:58:49.00	70.36	19.46	-48.1	-49.4	15.2	0.00e+00	0	23	0	602931200	62	4166
2026-01-11 06:58:49.99	70.18	19.55	-48.1	-49.4	15.2	0.00e+00	0	23	0	606076928	62	4167
2026-01-11 06:58:50.99	70.00	19.64	-48.1	-49.3	15.2	0.00e+00	0	23	0	609222656	62	4144
2026-01-11 06:58:51.98	69.83	19.73	-48.0	-49.3	15.2	0.00e+00	0	23	0	611319808	62	4099
2026-01-11 06:58:52.99	69.65	19.82	-48.0	-49.3	15.2	0.00e+00	0	23	0	614465536	62	4102
2026-01-11 06:58:53.98	69.47	19.90	-48.0	-49.2	15.2	0.00e+00	0	23	0	617611264	62	4079
2026-01-11 06:58:54.98	69.29	19.99	-48.0	-49.3	15.2	0.00e+00	0	23	0	620756992	62	4104
2026-01-11 06:58:55.98	69.11	20.08	-47.9	-49.2	15.3	0.00e+00	0	23	0	623902720	62	4057
2026-01-11 06:58:56.99	68.92	20.17	-48.0	-49.2	15.2	0.00e+00	0	23	0	627048448	62	4075
2026-01-11 06:58:57.99	68.74	20.26	-47.7	-49.0	15.4	0.00e+00	0	23	0	630194176	62	3962
2026-01-11 06:58:58.99	68.55	20.35	-47.7	-48.9	15.2	0.00e+00	0	23	0	633339904	61	4191
2026-01-11 06:58:59.99	68.37	20.44	-47.8	-49.0	15.2	0.00e+00	0	23	0	636485632	61	4227
2026-01-11 06:59:01.00	68.18	20.53	-47.8	-49.0	15.2	0.00e+00	0	23	0	639631360	61	4237
2026-01-11 06:59:01.99	67.99	20.62	-47.8	-49.1	15.2	0.00e+00	0	23	0	642777088	61	4254
2026-01-11 06:59:02.99	67.80	20.71	-47.9	-49.2	15.1	0.00e+00	0	23	0	645922816	61	4306
2026-01-11 06:59:04.00	67.61	20.80	-47.9	-49.1	15.1	0.00e+00	0	23	0	649068544	61	4288
2026-01-11 06:59:04.99	67.42	20.89	-47.8	-49.0	15.2	0.00e+00	0	23	0	652214272	61	4229
2026-01-11 06:59:05.99	67.22	20.98	-47.8	-49.0	15.2	0.00e+00	0	23	0	655360000	61	4226
2026-01-11 06:59:06.99	67.03	21.07	-47.8	-49.1	15.2	0.00e+00	0	23	0	658505728	61	4244
2026-01-11 06:59:08.00	66.83	21.16	-47.6	-48.8	15.3	0.00e+00	0	23	0	661651456	61	4106
2026-01-11 06:59:08.99	66.64	21.25	-47.6	-48.9	15.2	0.00e+00	0	23	0	664797184	61	4151
2026-01-11 06:59:09.99	66.44	21.34	-47.6	-48.9	15.3	0.00e+00	0	23	0	667942912	61	4149
2026-01-11 06:59:10.99	66.24	21.43	-47.7	-48.9	15.2	0.00e+00	0	23	0	671088640	61	4174
2026-01-11 06:59:11.99	66.04	21.52	-47.5	-48.7	15.3	0.00e+00	0	23	0	674234368	61	4097
2026-01-11 06:59:12.99	65.84	21.60	-47.5	-48.7	15.3	0.00e+00	0	23	0	677380096	61	4095
2026-01-11 06:59:13.99	65.64	21.69	-47.7	-48.9	15.2	0.00e+00	0	23	0	680525824	61	4181
2026-01-11 06:59:14.98	65.44	21.78	-47.6	-48.8	15.3	0.00e+00	0	23	0	683671552	61	4104
2026-01-11 06:59:15.97	65.23	21.87	-47.6	-48.8	15.3	0.00e+00	0	23	0	686817280	61	4113
2026-01-11 06:59:16.97	65.03	21.96	-47.5	-48.8	15.3	0.00e+00	0	23	0	689963008	61	4105
2026-01-11 06:59:17.97	64.82	22.05	-47.6	-48.9	15.3	0.00e+00	0	23	0	693108736	61	4146
2026-01-11 06:59:18.97	64.61	22.14	-47.5	-48.7	15.3	0.00e+00	0	23	0	696254464	61	4086
2026-01-11 06:59:19.97	64.40	22.22	-47.6	-48.8	15.3	0.00e+00	0	23	0	699400192	61	4114
2026-01-11 06:59:20.97	64.19	22.31	-47.6	-48.8	15.3	0.00e+00	0	23	0	702545920	61	4118
2026-01-11 06:59:21.96	63.98	22.40	-47.6	-48.9	15.3	0.00e+00	0	23	0	705691648	61	4155
2026-01-11 06:59:22.96	63.77	22.49	-47.5	-48.7	15.4	0.00e+00	0	23	0	708837376	61	4066
2026-01-11 06:59:23.97	63.55	22.58	-47.5	-48.7	15.3	0.00e+00	0	23	0	711983104	61	4061
2026-01-11 06:59:24.97	63.34	22.66	-47.3	-48.5	15.4	0.00e+00	0	23	0	715128832	61	3991
2026-01-11 06:59:25.97	63.12	22.75	-47.3	-48.5	15.4	0.00e+00	0	23	0	718274560	61	3988
2026-01-11 06:59:26.97	62.90	22.84	-47.3	-48.5	15.4	0.00e+00	0	23	0	721420288	61	3978
2026-01-11 06:59:27.97	62.68	22.93	-47.4	-48.5	15.4	0.00e+00	0	23	0	724566016	61	3999
2026-01-11 06:59:28.98	62.46	23.02	-47.3	-48.4	15.4	0.00e+00	0	23	0	727711744	61	3955
2026-01-11 06:59:29.97	62.24	23.10	-47.2	-48.4	15.5	0.00e+00	0	23	0	730857472	61	3933
2026-01-11 06:59:30.97	62.02	23.19	-47.3	-48.5	15.4	0.00e+00	0	23	0	734003200	61	3967
2026-01-11 06:59:31.97	61.79	23.28	-47.2	-48.4	15.5	0.00e+00	0	23	0	737148928	61	3920
2026-01-11 06:59:32.96	61.57	23.36	-47.1	-48.2	15.4	0.00e+00	0	23	0	740294656	60	4091
2026-01-11 06:59:33.95	61.35	23.45	-47.1	-48.3	15.4	0.00e+00	0	23	0	743440384	60	4101
2026-01-11 06:59:34.95	61.12	23.53	-47.1	-48.3	15.3	0.00e+00	0	23	0	745537536	60	4115
2026-01-11 06:59:35.95	60.89	23.62	-47.2	-48.4	15.3	0.00e+00	0	23	0	748683264	60	4168
2026-01-11 06:59:36.95	60.66	23.70	-47.2	-48.3	15.3	0.00e+00	0	23	0	751828992	60	4140
2026-01-11 06:59:37.96	60.42	23.79	-47.3	-48.4	15.3	0.00e+00	0	23	0	754974720	60	4184
2026-01-11 06:59:38.97	60.19	23.88	-47.3	-48.5	15.3	0.00e+00	0	23	0	758120448	60	4230
2026-01-11 06:59:39.97	59.95	23.96	-47.4	-48.5	15.3	0.00e+00	0	23	0	762314752	60	4239
2026-01-11 06:59:40.97	59.72	24.05	-47.4	-48.6	15.2	0.00e+00	0	23	0	764411904	60	4259
2026-01-11 06:59:41.97	59.48	24.13	-47.6	-48.8	15.2	0.00e+00	0	23	0	767557632	60	4353
2026-01-11 06:59:42.97	59.24	24.22	-47.4	-48.6	15.2	0.00e+00	0	23	0	770703360	60	4283
2026-01-11 06:59:43.98	59.00	24.30	-47.5	-48.7	15.2	0.00e+00	0	23	0	773849088	60	4305
2026-01-11 06:59:44.98	58.76	24.38	-47.6	-48.8	15.2	0.00e+00	0	23	0	776994816	60	4380
2026-01-11 06:59:45.98	58.52	24.47	-47.7	-49.0	15.1	0.00e+00	0	23	0	780140544	60	4453
2026-01-11 06:59:46.99	58.27	24.55	-47.8	-49.1	15.1	0.00e+00	0	23	0	783286272	60	4496
2026-01-11 06:59:47.99	58.03	24.63	-47.8	-49.1	15.1	0.00e+00	0	23	0	786432000	60	4505
2026-01-11 06:59:48.99	57.78	24.72	-47.9	-49.2	15.2	0.00e+00	0	23	0	789577728	61	4314
2026-01-11 06:59:49.99	57.54	24.80	-47.8	-49.0	15.2	0.00e+00	0	23	0	792723456	61	4198
2026-01-11 06:59:51.00	57.28	24.88	-47.8	-49.1	15.2	0.00e+00	0	23	0	795869184	61	4251
2026-01-11 06:59:52.00	57.03	24.96	-47.8	-49.1	15.2	0.00e+00	0	23	0	799014912	61	4250
2026-01-11 06:59:53.00	56.78	25.04	-47.9	-49.2	15.1	0.00e+00	0	23	0	802160640	61	4305
2026-01-11 06:59:54.00	56.53	25.12	-48.0	-49.3	15.1	0.00e+00	0	23	0	805306368	61	4350
2026-01-11 06:59:55.00	56.28	25.21	-48.0	-49.3	15.1	0.00e+00	0	23	0	808452096	61	4345
2026-01-11 06:59:56.00	56.02	25.29	-47.8	-49.0	15.2	0.00e+00	0	23	0	811597824	61	4222
2026-01-11 06:59:57.01	55.76	25.37	-47.8	-49.1	15.2	0.00e+00	0	23	0	814743552	61	4249
2026-01-11 06:59:58.01	55.50	25.45	-47.7	-48.9	15.3	0.00e+00	0	23	0	817889280	61	4173
2026-01-11 06:59:59.02	55.24	25.52	-47.8	-49.1	15.2	0.00e+00	0	23	0	821035008	61	4246
2026-01-11 07:00:00.03	54.98	25.60	-47.8	-49.0	15.2	0.00e+00	0	23	0	824180736	61	4240
2026-01-11 07:00:01.03	54.72	25.68	-47.8	-49.0	15.2	0.00e+00	0	23	0	827326464	61	4226
2026-01-11 07:00:02.04	54.45	25.76	-47.9	-49.1	15.2	0.00e+00	0	23	0	830472192	61	4287
2026-01-11 07:00:03.05	54.19	25.84	-47.8	-49.0	15.2	0.00e+00	0	23	0	833617920	61	4217
2026-01-11 07:00:04.05	53.92	25.91	-47.8	-49.0	15.2	0.00e+00	0	23	0	836763648	61	4225
2026-01-11 07:00:05.05	53.65	25.99	-47.8	-49.0	15.2	0.00e+00	0	23	0	839909376	61	4235
2026-01-11 07:00:06.05	53.39	26.07	-47.7	-48.9	15.3	0.00e+00	0	23	0	843055104	61	4156
2026-01-11 07:00:07.05	53.12	26.14	-47.8	-49.0	15.2	0.00e+00	0	23	0	846200832	61	4202
2026-01-11 07:00:08.05	52.84	26.22	-47.8	-49.1	15.2	0.00e+00	0	23	0	849346560	61	4249
2026-01-11 07:00:09.05	52.57	26.29	-47.9	-49.1	15.2	0.00e+00	0	23	0	852492288	61	4271
2026-01-11 07:00:10.05	52.30	26.36	-48.0	-49.2	15.1	0.00e+00	0	23	0	855638016	61	4318
2026-01-11 07:00:11.05	52.02	26.44	-48.1	-49.3	15.1	0.00e+00	0	23	0	858783744	61	4389
2026-01-11 07:00:12.05	51.75	26.51	-48.1	-49.4	15.1	0.00e+00	0	23	0	861929472	61	4396
2026-01-11 07:00:13.03	51.48	26.58	-48.0	-49.2	15.1	0.00e+00	0	23	0	865075200	61	4332
2026-01-11 07:00:14.03	51.20	26.65	-48.1	-49.3	15.1	0.00e+00	0	23	0	868220928	61	4360
2026-01-11 07:00:15.02	50.92	26.72	-48.1	-49.3	15.1	0.00e+00	0	23	0	871366656	61	4368
2026-01-11 07:00:16.02	50.64	26.79	-48.1	-49.4	15.1	0.00e+00	0	23	0	874512384	61	4403
2026-01-11 07:00:17.01	50.36	26.86	-48.2	-49.4	15.1	0.00e+00	0	23	0	877658112	61	4427
2026-01-11 07:00:18.01	50.08	26.93	-48.2	-49.4	15.0	0.00e+00	0	23	0	880803840	61	4440
2026-01-11 07:00:19.01	49.79	27.00	-48.0	-49.2	15.2	0.00e+00	0	23	0	883949568	61	4313
2026-01-11 07:00:20.00	49.51	27.07	-48.0	-49.2	15.2	0.00e+00	0	23	0	887095296	61	4319
2026-01-11 07:00:21.00	49.22	27.13	-47.7	-48.9	15.3	0.00e+00	0	23	0	890241024	61	4148
2026-01-11 07:00:22.00	48.94	27.20	-47.6	-48.8	15.3	0.00e+00	0	23	0	893386752	61	4120
2026-01-11 07:00:23.00	48.65	27.27	-47.6	-48.8	15.3	0.00e+00	0	23	0	896532480	61	4136
2026-01-11 07:00:24.00	48.36	27.33	-47.8	-49.0	15.2	0.00e+00	0	23	0	899678208	61	4242
2026-01-11 07:00:25.00	48.06	27.40	-47.8	-49.0	15.2	0.00e+00	0	23	0	902823936	61	4240
2026-01-11 07:00:26.01	47.77	27.46	-47.7	-48.9	15.2	0.00e+00	0	23	0	905969664	61	4184
2026-01-11 07:00:27.01	47.47	27.53	-47.8	-49.0	15.2	0.00e+00	0	23	0	909115392	61	4240
2026-01-11 07:00:28.01	47.18	27.59	-47.7	-48.9	15.3	0.00e+00	0	23	0	912261120	61	4176
2026-01-11 07:00:29.01	46.88	27.65	-47.6	-48.8	15.3	0.00e+00	0	23	0	915406848	61	4134
2026-01-11 07:00:30.01	46.58	27.71	-47.5	-48.7	15.3	0.00e+00	0	23	0	918552576	61	4065
2026-01-11 07:00:31.02	46.28	27.77	-47.6	-48.8	15.3	0.00e+00	0	23	0	921698304	61	4108
2026-01-11 07:00:32.02	45.98	27.83	-47.8	-49.0	15.2	0.00e+00	0	23	0	924844032	61	4199
2026-01-11 07:00:33.02	45.68	27.89	-47.8	-49.0	15.2	0.00e+00	0	23	0	927989760	61	4231
2026-01-11 07:00:34.02	45.38	27.95	-47.9	-49.1	15.2	0.00e+00	0	23	0	931135488	61	4282
2026-01-11 07:00:35.01	45.08	28.01	-47.9	-49.1	15.2	0.00e+00	0	23	0	933232640	61	4253
2026-01-11 07:00:36.01	44.78	28.06	-47.8	-49.0	15.3	0.00e+00	0	23	0	936378368	61	4202
2026-01-11 07:00:37.00	44.47	28.12	-47.8	-49.0	15.2	0.00e+00	0	23	0	939524096	61	4215
2026-01-11 07:00:38.00	44.17	28.17	-47.8	-49.1	15.2	0.00e+00	0	23	0	942669824	61	4247
2026-01-11 07:00:39.00	43.86	28.23	-47.8	-49.0	15.2	0.00e+00	0	23	0	945815552	61	4228
2026-01-11 07:00:39.99	43.55	28.28	-47.8	-49.0	15.2	0.00e+00	0	23	0	948961280	61	4219
2026-01-11 07:00:40.99	43.24	28.33	-47.9	-49.1	15.2	0.00e+00	0	23	0	952107008	61	4248
2026-01-11 07:00:41.99	42.93	28.39	-47.7	-48.9	15.3	0.00e+00	0	23	0	955252736	61	4167
2026-01-11 07:00:42.99	42.62	28.44	-47.7	-48.9	15.3	0.00e+00	0	23	0	958398464	61	4177
2026-01-11 07:00:43.99	42.31	28.49	-47.8	-49.0	15.3	0.00e+00	0	23	0	961544192	61	4197
2026-01-11 07:00:44.99	42.00	28.54	-47.9	-49.1	15.2	0.00e+00	0	23	0	964689920	61	4243
2026-01-11 07:00:45.99	41.68	28.59	-48.0	-49.2	15.2	0.00e+00	0	23	0	967835648	61	4329
2026-01-11 07:00:46.98	41.37	28.63	-48.0	-49.3	15.1	0.00e+00	0	23	0	970981376	61	4345
2026-01-11 07:00:47.98	41.05	28.68	-48.1	-49.3	15.1	0.00e+00	0	23	0	974127104	61	4378
2026-01-11 07:00:48.98	40.73	28.73	-48.1	-49.3	15.1	0.00e+00	0	23	0	977272832	61	4373
2026-01-11 07:00:49.98	40.42	28.77	-48.1	-49.4	15.1	0.00e+00	0	23	0	980418560	61	4410
2026-01-11 07:00:50.98	40.10	28.81	-48.2	-49.5	15.1	0.00e+00	0	23	0	983564288	61	4442
2026-01-11 07:00:51.98	39.78	28.86	-48.2	-49.4	15.1	0.00e+00	0	23	0	986710016	61	4426
2026-01-11 07:00:52.99	39.45	28.90	-48.1	-49.3	15.1	0.00e+00	0	23	0	989855744	61	4387
2026-01-11 07:00:53.99	39.13	28.94	-48.1	-49.3	15.1	0.00e+00	0	23	0	993001472	61	4356
2026-01-11 07:00:54.99	38.81	28.98	-48.1	-49.4	15.1	0.00e+00	0	23	0	996147200	61	4407
2026-01-11 07:00:56.00	38.48	29.02	-47.9	-49.1	15.2	0.00e+00	0	23	0	999292928	61	4273
2026-01-11 07:00:57.00	38.16	29.06	-47.9	-49.1	15.2	0.00e+00	0	23	0	1002438656	61	4269
2026-01-11 07:00:58.00	37.83	29.10	-48.0	-49.2	15.2	0.00e+00	0	23	0	1005584384	61	4301
2026-01-11 07:00:59.01	37.50	29.13	-48.1	-49.3	15.1	0.00e+00	0	23	0	1008730112	61	4383
2026-01-11 07:01:00.01	37.18	29.17	-48.1	-49.4	15.1	0.00e+00	0	23	0	1011875840	61	4402
2026-01-11 07:01:01.01	36.85	29.20	-48.2	-49.4	15.1	0.00e+00	0	23	0	1015021568	61	4419
2026-01-11 07:01:02.01	36.52	29.23	-48.2	-49.4	15.1	0.00e+00	0	23	0	1018167296	61	4439
2026-01-11 07:01:03.02	36.19	29.27	-48.1	-49.3	15.1	0.00e+00	0	23	0	1021313024	61	4373
2026-01-11 07:01:04.02	35.86	29.30	-48.2	-49.4	15.0	0.00e+00	0	23	0	1024458752	61	4423
2026-01-11 07:01:05.01	35.54	29.33	-48.3	-49.6	15.0	0.00e+00	0	23	0	1027604480	61	4524
2026-01-11 07:01:06.01	35.21	29.36	-48.4	-49.6	15.0	0.00e+00	0	23	0	1030750208	61	4526
2026-01-11 07:01:07.01	34.88	29.39	-48.3	-49.6	15.0	0.00e+00	0	23	0	1033895936	61	4533
2026-01-11 07:01:08.00	34.55	29.41	-48.4	-49.6	15.0	0.00e+00	0	23	0	1037041664	61	4532
2026-01-11 07:01:09.00	34.22	29.44	-48.4	-49.6	15.1	0.00e+00	0	23	0	1040187392	62	4287
2026-01-11 07:01:10.00	33.88	29.46	-48.2	-49.5	15.2	0.00e+00	0	23	0	1043333120	62	4195
2026-01-11 07:01:11.00	33.55	29.49	-48.0	-49.2	15.3	0.00e+00	0	23	0	1046478848	62	4095
2026-01-11 07:01:11.99	33.22	29.51	-48.1	-49.3	15.2	0.00e+00	0	23	0	1049624576	62	4139
2026-01-11 07:01:12.98	32.89	29.53	-48.2	-49.4	15.2	0.00e+00	0	23	0	1052770304	62	4188
2026-01-11 07:01:13.98	32.56	29.55	-48.3	-49.6	15.1	0.00e+00	0	23	0	1055916032	62	4252
2026-01-11 07:01:14.98	32.22	29.57	-48.4	-49.7	15.1	0.00e+00	0	23	0	1059061760	62	4297
2026-01-11 07:01:15.98	31.89	29.59	-48.4	-49.6	15.1	0.00e+00	0	23	0	1062207488	62	4282
2026-01-11 07:01:16.98	31.55	29.61	-48.3	-49.5	15.2	0.00e+00	0	23	0	1065353216	62	4226
2026-01-11 07:01:17.98	31.21	29.62	-48.1	-49.4	15.2	0.00e+00	0	23	0	1068498944	62	4158
2026-01-11 07:01:18.98	30.88	29.64	-48.0	-49.2	15.3	0.00e+00	0	23	0	1071644672	62	4075
2026-01-11 07:01:19.97	30.54	29.65	-47.9	-49.1	15.3	0.00e+00	0	23	0	1074790400	62	4043
2026-01-11 07:01:20.97	30.21	29.67	-47.8	-49.0	15.4	0.00e+00	0	23	0	1077936128	62	3991
2026-01-11 07:01:21.97	29.87	29.68	-47.8	-49.0	15.4	0.00e+00	0	23	0	1081081856	62	3969
2026-01-11 07:01:22.97	29.53	29.69	-47.8	-49.1	15.4	0.00e+00	0	23	0	1083179008	62	4005
2026-01-11 07:01:23.97	29.20	29.70	-47.8	-49.0	15.4	0.00e+00	0	23	0	1086324736	62	3980
2026-01-11 07:01:24.97	28.86	29.71	-48.0	-49.2	15.3	0.00e+00	0	23	0	1089470464	62	4076
2026-01-11 07:01:25.97	28.52	29.71	-48.1	-49.3	15.3	0.00e+00	0	23	0	1092616192	62	4113
2026-01-11 07:01:26.97	28.18	29.72	-48.0	-49.2	15.3	0.00e+00	0	23	0	1095761920	62	4088
2026-01-11 07:01:27.97	27.84	29.73	-48.1	-49.3	15.3	0.00e+00	0	23	0	1098907648	62	4116
2026-01-11 07:01:28.97	27.51	29.73	-48.0	-49.2	15.3	0.00e+00	0	23	0	1102053376	62	4091
2026-01-11 07:01:29.97	27.17	29.73	-48.1	-49.3	15.3	0.00e+00	0	23	0	1105199104	62	4124
2026-01-11 07:01:30.97	26.83	29.73	-47.9	-49.1	15.3	0.00e+00	0	23	0	1108344832	62	4029
2026-01-11 07:01:31.97	26.49	29.74	-48.0	-49.2	15.3	0.00e+00	0	23	0	1111490560	62	4053
2026-01-11 07:01:32.97	26.15	29.74	-47.9	-49.1	15.3	0.00e+00	0	23	0	1114636288	62	4022
2026-01-11 07:01:33.97	25.81	29.73	-47.9	-49.1	15.3	0.00e+00	0	23	0	1117782016	62	4050
2026-01-11 07:01:34.97	25.48	29.73	-48.0	-49.2	15.3	0.00e+00	0	23	0	1120927744	62	4060
2026-01-11 07:01:35.96	25.14	29.73	-48.1	-49.3	15.3	0.00e+00	0	23	0	1124073472	62	4120
2026-01-11 07:01:36.96	24.80	29.72	-48.1	-49.3	15.3	0.00e+00	0	23	0	1127219200	62	4116
2026-01-11 07:01:37.96	24.47	29.72	-48.0	-49.2	15.3	0.00e+00	0	23	0	1130364928	62	4081
2026-01-11 07:01:38.95	24.13	29.71	-48.1	-49.3	15.3	0.00e+00	0	23	0	1133510656	62	4120
2026-01-11 07:01:39.95	23.79	29.70	-48.2	-49.4	15.2	0.00e+00	0	23	0	1136656384	62	4176
2026-01-11 07:01:40.95	23.46	29.69	-48.5	-49.7	15.0	0.00e+00	0	23	0	1139802112	62	4336
2026-01-11 07:01:41.96	23.12	29.68	-48.6	-49.9	15.0	0.00e+00	0	23	0	1142947840	62	4431
2026-01-11 07:01:42.96	22.78	29.67	-48.7	-50.0	15.0	0.00e+00	0	23	0	1146093568	62	4454
2026-01-11 07:01:43.96	22.44	29.66	-48.7	-50.0	14.9	0.00e+00	0	23	0	1149239296	62	4478
2026-01-11 07:01:44.95	22.11	29.64	-48.7	-50.0	15.0	0.00e+00	0	23	0	1152385024	62	4459
2026-01-11 07:01:45.95	21.77	29.63	-48.4	-49.6	15.1	0.00e+00	0	23	0	1155530752	62	4283
2026-01-11 07:01:46.95	21.44	29.61	-48.2	-49.4	15.2	0.00e+00	0	23	0	1158676480	62	4162
2026-01-11 07:01:47.95	21.10	29.60	-48.1	-49.3	15.3	0.00e+00	0	23	0	1161822208	62	4122
2026-01-11 07:01:48.95	20.77	29.58	-48.2	-49.4	15.2	0.00e+00	0	23	0	1164967936	62	4185
2026-01-11 07:01:49.95	20.43	29.56	-48.1	-49.3	15.3	0.00e+00	0	23	0	1168113664	62	4130
2026-01-11 07:01:50.95	20.10	29.54	-48.1	-49.3	15.2	0.00e+00	0	23	0	1171259392	62	4135
2026-01-11 07:01:51.95	19.76	29.52	-48.1	-49.3	15.3	0.00e+00	0	23	0	1174405120	62	4116
2026-01-11 07:01:52.95	19.43	29.49	-48.0	-49.3	15.3	0.00e+00	0	23	0	1177550848	62	4103
2026-01-11 07:01:53.95	19.10	29.47	-47.9	-49.1	15.4	0.00e+00	0	23	0	1180696576	62	4009
2026-01-11 07:01:54.95	18.76	29.45	-47.9	-49.1	15.3	0.00e+00	0	23	0	1183842304	62	4015
2026-01-11 07:01:55.96	18.43	29.42	-47.9	-49.1	15.3	0.00e+00	0	23	0	1186988032	62	4029
2026-01-11 07:01:56.96	18.10	29.39	-48.0	-49.2	15.3	0.00e+00	0	23	0	1190133760	62	4080
2026-01-11 07:01:57.96	17.77	29.37	-48.1	-49.3	15.3	0.00e+00	0	23	0	1193279488	62	4111
2026-01-11 07:01:58.96	17.44	29.34	-48.1	-49.4	15.2	0.00e+00	0	23	0	1196425216	62	4164
2026-01-11 07:01:59.96	17.11	29.31	-48.3	-49.5	15.1	0.00e+00	0	23	0	1199570944	62	4225
2026-01-11 07:02:00.96	16.78	29.28	-48.2	-49.5	15.2	0.00e+00	0	23	0	1202716672	62	4213
2026-01-11 07:02:01.97	16.45	29.24	-48.2	-49.4	15.2	0.00e+00	0	23	0	1205862400	62	4163
2026-01-11 07:02:02.96	16.12	29.21	-48.2	-49.4	15.2	0.00e+00	0	23	0	1209008128	62	4191
2026-01-11 07:02:03.96	15.79	29.18	-48.1	-49.3	15.3	0.00e+00	0	23	0	1212153856	62	4109
2026-01-11 07:02:04.96	15.47	29.14	-48.0	-49.2	15.3	0.00e+00	0	23	0	1215299584	62	4098
2026-01-11 07:02:05.96	15.14	29.11	-48.0	-49.3	15.3	0.00e+00	0	23	0	1217396736	62	4101
2026-01-11 07:02:06.96	14.82	29.07	-48.0	-49.2	15.3	0.00e+00	0	23	0	1220542464	62	4072
2026-01-11 07:02:07.95	14.50	29.03	-48.0	-49.3	15.3	0.00e+00	0	23	0	1223688192	62	4101
2026-01-11 07:02:08.95	14.17	28.99	-48.1	-49.3	15.2	0.00e+00	0	23	0	1226833920	62	4125
2026-01-11 07:02:09.95	13.85	28.95	-48.1	-49.3	15.2	0.00e+00	0	23	0	1229979648	62	4120
2026-01-11 07:02:10.95	13.53	28.91	-48.1	-49.3	15.2	0.00e+00	0	23	0	1233125376	62	4126
2026-01-11 07:02:11.95	13.21	28.87	-48.2	-49.5	15.2	0.00e+00	0	23	0	1236271104	62	4194
2026-01-11 07:02:12.95	12.89	28.83	-48.3	-49.5	15.1	0.00e+00	0	23	0	1239416832	62	4241
2026-01-11 07:02:13.95	12.57	28.78	-48.3	-49.5	15.1	0.00e+00	0	23	0	1242562560	62	4241
2026-01-11 07:02:14.95	12.25	28.74	-48.3	-49.6	15.1	0.00e+00	0	23	0	1245708288	62	4246
2026-01-11 07:02:15.94	11.94	28.70	-48.3	-49.5	15.1	0.00e+00	0	23	0	1248854016	62	4240
2026-01-11 07:02:16.94	11.62	28.65	-48.2	-49.4	15.2	0.00e+00	0	23	0	1251999744	62	4190
2026-01-11 07:02:17.94	11.30	28.60	-48.1	-49.3	15.2	0.00e+00	0	23	0	1255145472	62	4132
2026-01-11 07:02:18.93	10.99	28.55	-48.0	-49.2	15.3	0.00e+00	0	23	0	1258291200	62	4073
2026-01-11 07:02:19.93	10.68	28.51	-48.0	-49.2	15.3	0.00e+00	0	23	0	1261436928	62	4082
2026-01-11 07:02:20.92	10.37	28.46	-48.0	-49.2	15.3	0.00e+00	0	23	0	1264582656	62	4082
2026-01-11 07:02:21.92	10.06	28.41	-48.0	-49.2	15.3	0.00e+00	0	23	0	1267728384	62	4083
2026-01-11 07:02:22.91	9.75	28.35	-48.0	-49.2	15.3	0.00e+00	0	23	0	1270874112	62	4078
2026-01-11 07:02:23.90	9.44	28.30	-48.1	-49.3	15.3	0.00e+00	0	23	0	1274019840	62	4105
2026-01-11 07:02:24.91	9.13	28.25	-48.2	-49.4	15.2	0.00e+00	0	23	0	1277165568	62	4174
2026-01-11 07:02:25.91	8.83	28.19	-48.1	-49.3	15.3	0.00e+00	0	23	0	1280311296	62	4122
2026-01-11 07:02:26.91	8.52	28.14	-48.1	-49.3	15.2	0.00e+00	0	23	0	1283457024	62	4120
2026-01-11 07:02:27.90	8.22	28.08	-48.0	-49.2	15.3	0.00e+00	0	23	0	1286602752	62	4097
2026-01-11 07:02:28.90	7.91	28.03	-48.0	-49.2	15.3	0.00e+00	0	23	0	1289748480	62	4079
2026-01-11 07:02:29.91	7.61	27.97	-48.0	-49.2	15.3	0.00e+00	0	23	0	1292894208	62	4079
2026-01-11 07:02:30.92	7.30	27.91	-47.9	-49.1	15.4	0.00e+00	0	23	0	1296039936	62	4023
2026-01-11 07:02:31.92	7.00	27.85	-47.8	-49.0	15.4	0.00e+00	0	23	0	1299185664	62	3981
2026-01-11 07:02:32.92	6.70	27.79	-47.9	-49.1	15.3	0.00e+00	0	23	0	1302331392	62	4042
2026-01-11 07:02:33.91	6.40	27.73	-47.9	-49.1	15.3	0.00e+00	0	23	0	1305477120	62	4032
2026-01-11 07:02:34.91	6.11	27.67	-48.0	-49.2	15.3	0.00e+00	0	23	0	1308622848	62	4058
2026-01-11 07:02:35.91	5.81	27.61	-48.1	-49.3	15.2	0.00e+00	0	23	0	1311768576	62	4111
2026-01-11 07:02:36.91	5.51	27.55	-48.0	-49.3	15.3	0.00e+00	0	23	0	1314914304	62	4108
2026-01-11 07:02:37.90	5.22	27.49	-48.0	-49.2	15.3	0.00e+00	0	23	0	1318060032	62	4088
2026-01-11 07:02:38.90	4.93	27.42	-47.8	-49.0	15.4	0.00e+00	0	23	0	1321205760	62	3988
2026-01-11 07:02:39.89	4.64	27.36	-47.6	-48.8	15.3	0.00e+00	0	23	0	1324351488	61	4117
2026-01-11 07:02:40.89	4.35	27.29	-47.6	-48.7	15.3	0.00e+00	0	23	0	1327497216	61	4091
2026-01-11 07:02:41.90	4.06	27.23	-47.6	-48.8	15.3	0.00e+00	0	23	0	1330642944	61	4122
2026-01-11 07:02:42.90	3.77	27.16	-47.7	-48.9	15.3	0.00e+00	0	23	0	1333788672	61	4166
2026-01-11 07:02:43.90	3.48	27.09	-48.0	-49.2	15.2	0.00e+00	0	23	0	1336934400	61	4305
2026-01-11 07:02:44.90	3.20	27.03	-48.3	-49.5	15.0	0.00e+00	0	23	0	1340080128	61	4473
2026-01-11 07:02:45.90	2.91	26.96	-48.5	-49.8	15.1	0.00e+00	0	23	0	1343225856	62	4345
2026-01-11 07:02:46.90	2.63	26.89	-48.6	-49.9	15.0	0.00e+00	0	23	0	1346371584	62	4403
2026-01-11 07:02:47.89	2.35	26.82	-48.5	-49.8	15.0	0.00e+00	0	23	0	1349517312	62	4377
2026-01-11 07:02:48.89	2.07	26.75	-48.4	-49.7	15.1	0.00e+00	0	23	0	1351614464	62	4315
2026-01-11 07:02:49.89	1.79	26.68	-48.2	-49.5	15.2	0.00e+00	0	23	0	1354760192	62	4211
2026-01-11 07:02:50.89	1.51	26.61	-47.9	-49.1	15.3	0.00e+00	0	23	0	1357905920	62	4030
2026-01-11 07:02:51.89	1.23	26.54	-47.7	-48.9	15.4	0.00e+00	0	23	0	1361051648	62	3934
2026-01-11 07:02:52.89	0.96	26.46	-47.7	-48.9	15.4	0.00e+00	0	23	0	1364197376	62	3942
2026-01-11 07:02:53.89	0.68	26.39	-47.6	-48.8	15.3	0.00e+00	0	23	0	1367343104	61	4129
2026-01-11 07:02:54.89	0.41	26.32	-47.6	-48.8	15.3	0.00e+00	0	23	0	1370488832	61	4109
2026-01-11 07:02:55.89	0.14	26.24	-47.5	-48.7	15.3	0.00e+00	0	23	0	1373634560	61	4072
2026-01-11 07:02:56.89	359.87	26.17	-47.6	-48.8	15.3	0.00e+00	0	23	0	1376780288	61	4101
2026-01-11 07:02:57.89	359.60	26.09	-47.6	-48.7	15.3	0.00e+00	0	23	0	1379926016	61	4083
2026-01-11 07:02:58.89	359.33	26.02	-47.5	-48.7	15.4	0.00e+00	0	23	0	1383071744	61	4065
2026-01-11 07:02:59.89	359.06	25.94	-47.7	-48.8	15.3	0.00e+00	0	23	0	1386217472	61	4145
2026-01-11 07:03:00.90	358.79	25.87	-47.8	-49.1	15.2	0.00e+00	0	23	0	1389363200	61	4244
2026-01-11 07:03:01.90	358.53	25.79	-48.1	-49.3	15.1	0.00e+00	0	23	0	1392508928	61	4375
2026-01-11 07:03:02.89	358.27	25.71	-48.3	-49.5	15.0	0.00e+00	0	23	0	1395654656	61	4483
2026-01-11 07:03:03.89	358.01	25.64	-48.4	-49.6	15.0	0.00e+00	0	23	0	1398800384	61	4537
2026-01-11 07:03:04.90	357.75	25.56	-48.2	-49.4	15.1	0.00e+00	0	23	0	1401946112	61	4430
2026-01-11 07:03:05.89	357.49	25.48	-47.8	-49.0	15.2	0.00e+00	0	23	0	1405091840	61	4238
2026-01-11 07:03:06.89	357.23	25.40	-47.8	-49.0	15.2	0.00e+00	0	23	0	1408237568	61	4212
2026-01-11 07:03:07.88	356.98	25.32	-47.7	-48.9	15.3	0.00e+00	0	23	0	1411383296	61	4165
2026-01-11 07:03:08.88	356.72	25.24	-47.6	-48.8	15.3	0.00e+00	0	23	0	1414529024	61	4111
2026-01-11 07:03:09.88	356.47	25.16	-47.3	-48.4	15.4	0.00e+00	0	23	0	1417674752	61	3956
2026-01-11 07:03:10.88	356.22	25.08	-47.3	-48.5	15.4	0.00e+00	0	23	0	1420820480	61	3977
2026-01-11 07:03:11.88	355.96	25.00	-47.5	-48.7	15.4	0.00e+00	0	23	0	1423966208	61	4075
2026-01-11 07:03:12.88	355.71	24.92	-47.7	-48.9	15.3	0.00e+00	0	23	0	1427111936	61	4181
2026-01-11 07:03:13.88	355.47	24.84	-47.8	-49.0	15.2	0.00e+00	0	23	0	1430257664	61	4224
2026-01-11 07:03:14.88	355.22	24.76	-47.8	-49.0	15.2	0.00e+00	0	23	0	1433403392	61	4242
2026-01-11 07:03:15.88	354.97	24.67	-47.7	-48.9	15.3	0.00e+00	0	23	0	1436549120	61	4174
2026-01-11 07:03:16.88	354.73	24.59	-47.6	-48.8	15.3	0.00e+00	0	23	0	1439694848	61	4141
2026-01-11 07:03:17.88	354.48	24.51	-47.6	-48.8	15.3	0.00e+00	0	23	0	1442840576	61	4109
2026-01-11 07:03:18.88	354.24	24.42	-47.6	-48.8	15.3	0.00e+00	0	23	0	1445986304	61	4124
2026-01-11 07:03:19.88	354.00	24.34	-47.5	-48.7	15.4	0.00e+00	0	23	0	1449132032	61	4066
2026-01-11 07:03:20.88	353.76	24.26	-47.6	-48.8	15.3	0.00e+00	0	23	0	1452277760	61	4102
2026-01-11 07:03:21.87	353.53	24.17	-47.7	-48.9	15.3	0.00e+00	0	23	0	1455423488	61	4176
2026-01-11 07:03:22.87	353.29	24.09	-47.8	-49.0	15.2	0.00e+00	0	23	0	1458569216	61	4212
2026-01-11 07:03:23.87	353.05	24.01	-47.7	-48.9	15.3	0.00e+00	0	23	0	1461714944	61	4146
2026-01-11 07:03:24.87	352.82	23.92	-47.6	-48.8	15.3	0.00e+00	0	23	0	1464860672	61	4103
2026-01-11 07:03:25.87	352.59	23.84	-47.5	-48.7	15.3	0.00e+00	0	23	0	1468006400	61	4078
2026-01-11 07:03:26.88	352.35	23.75	-47.5	-48.7	15.4	0.00e+00	0	23	0	1471152128	61	4067
2026-01-11 07:03:27.88	352.12	23.66	-47.3	-48.5	15.5	0.00e+00	0	23	0	1474297856	61	3965
2026-01-11 07:03:28.88	351.89	23.58	-47.4	-48.6	15.4	0.00e+00	0	23	0	1477443584	61	4022
2026-01-11 07:03:29.88	351.66	23.49	-47.5	-48.7	15.3	0.00e+00	0	23	0	1480589312	61	4063
2026-01-11 07:03:30.89	351.43	23.41	-47.7	-48.9	15.3	0.00e+00	0	23	0	1483735040	61	4151
2026-01-11 07:03:31.89	351.21	23.32	-47.9	-49.1	15.2	0.00e+00	0	23	0	1486880768	61	4254
2026-01-11 07:03:32.89	350.98	23.23	-48.0	-49.2	15.1	0.00e+00	0	23	0	1490026496	61	4334
2026-01-11 07:03:33.89	350.76	23.15	-48.2	-49.4	15.1	0.00e+00	0	23	0	1493172224	61	4422
2026-01-11 07:03:34.89	350.54	23.06	-48.2	-49.4	15.0	0.00e+00	0	23	0	1496317952	61	4441
2026-01-11 07:03:35.89	350.32	22.97	-48.1	-49.3	15.1	0.00e+00	0	23	0	1499463680	61	4374
2026-01-11 07:03:36.89	350.10	22.89	-48.1	-49.3	15.1	0.00e+00	0	23	0	1502609408	61	4360
2026-01-11 07:03:37.90	349.88	22.80	-48.1	-49.3	15.1	0.00e+00	0	23	0	1505755136	61	4390
2026-01-11 07:03:38.90	349.66	22.71	-48.1	-49.4	15.1	0.00e+00	0	23	0	1508900864	61	4400
2026-01-11 07:03:39.90	349.45	22.62	-47.8	-49.0	15.2	0.00e+00	0	23	0	1510998016	61	4225
2026-01-11 07:03:40.91	349.23	22.53	-47.6	-48.8	15.3	0.00e+00	0	23	0	1514143744	61	4137
2026-01-11 07:03:41.91	349.02	22.45	-47.6	-48.8	15.3	0.00e+00	0	23	0	1517289472	61	4126
2026-01-11 07:03:42.92	348.80	22.36	-47.6	-48.7	15.3	0.00e+00	0	23	0	1520435200	61	4085
2026-01-11 07:03:43.92	348.59	22.27	-47.5	-48.7	15.3	0.00e+00	0	23	0	1523580928	61	4065
2026-01-11 07:03:44.91	348.39	22.18	-47.6	-48.7	15.3	0.00e+00	0	23	0	1526726656	61	4098
2026-01-11 07:03:45.91	348.18	22.09	-47.7	-48.8	15.3	0.00e+00	0	23	0	1529872384	61	4143
2026-01-11 07:03:46.92	347.97	22.00	-47.7	-48.9	15.2	0.00e+00	0	23	0	1533018112	61	4172
2026-01-11 07:03:47.91	347.76	21.92	-47.7	-48.9	15.2	0.00e+00	0	23	0	1536163840	61	4185
2026-01-11 07:03:48.92	347.56	21.83	-47.7	-48.9	15.2	0.00e+00	0	23	0	1539309568	61	4191
2026-01-11 07:03:49.93	347.35	21.74	-47.8	-49.0	15.2	0.00e+00	0	23	0	1542455296	61	4198
2026-01-11 07:03:50.93	347.15	21.65	-47.9	-49.1	15.2	0.00e+00	0	23	0	1545601024	61	4265
2026-01-11 07:03:51.93	346.95	21.56	-47.9	-49.1	15.2	0.00e+00	0	23	0	1548746752	61	4281
2026-01-11 07:03:52.92	346.75	21.47	-47.9	-49.2	15.2	0.00e+00	0	23	0	1551892480	61	4295
2026-01-11 07:03:53.92	346.55	21.38	-47.9	-49.2	15.2	0.00e+00	0	23	0	1555038208	61	4301
2026-01-11 07:03:54.92	346.35	21.29	-48.0	-49.2	15.1	0.00e+00	0	23	0	1558183936	61	4333
2026-01-11 07:03:55.93	346.16	21.20	-48.0	-49.2	15.1	0.00e+00	0	23	0	1561329664	61	4330
2026-01-11 07:03:56.92	345.96	21.11	-48.0	-49.2	15.1	0.00e+00	0	23	0	1564475392	61	4321
2026-01-11 07:03:57.92	345.77	21.02	-48.0	-49.2	15.1	0.00e+00	0	23	0	1567621120	61	4334
2026-01-11 07:03:58.92	345.58	20.94	-48.0	-49.3	15.1	0.00e+00	0	23	0	1570766848	61	4361
2026-01-11 07:03:59.93	345.38	20.85	-48.1	-49.3	15.1	0.00e+00	0	23	0	1573912576	61	4385
2026-01-11 07:04:00.93	345.19	20.76	-48.0	-49.2	15.1	0.00e+00	0	23	0	1577058304	61	4326
2026-01-11 07:04:01.92	345.00	20.67	-48.0	-49.3	15.1	0.00e+00	0	23	0	1580204032	61	4342
2026-01-11 07:04:02.91	344.82	20.58	-48.0	-49.2	15.1	0.00e+00	0	23	0	1583349760	61	4326
2026-01-11 07:04:03.91	344.63	20.49	-48.1	-49.4	15.1	0.00e+00	0	23	0	1586495488	61	4401
2026-01-11 07:04:04.91	344.44	20.40	-48.2	-49.5	15.0	0.00e+00	0	23	0	1589641216	61	4448
2026-01-11 07:04:05.91	344.26	20.31	-48.2	-49.4	15.1	0.00e+00	0	23	0	1592786944	61	4425
2026-01-11 07:04:06.90	344.07	20.22	-48.2	-49.4	15.0	0.00e+00	0	23	0	1595932672	61	4422
2026-01-11 07:04:07.90	343.89	20.13	-48.1	-49.3	15.1	0.00e+00	0	23	0	1599078400	61	4363
2026-01-11 07:04:08.89	343.71	20.05	-48.1	-49.3	15.1	0.00e+00	0	23	0	1602224128	61	4379
2026-01-11 07:04:09.90	343.53	19.95	-48.2	-49.4	15.0	0.00e+00	0	23	0	1605369856	61	4437
2026-01-11 07:04:10.90	343.35	19.87	-48.0	-49.3	15.1	0.00e+00	0	23	0	1608515584	61	4347
2026-01-11 07:04:11.90	343.17	19.78	-48.0	-49.2	15.1	0.00e+00	0	23	0	1611661312	61	4312
2026-01-11 07:04:12.90	342.99	19.69	-47.9	-49.1	15.1	0.00e+00	0	23	0	1614807040	61	4276
2026-01-11 07:04:13.89	342.82	19.60	-47.9	-49.1	15.2	0.00e+00	0	23	0	1617952768	61	4267
2026-01-11 07:04:14.89	342.64	19.51	-47.9	-49.1	15.2	0.00e+00	0	23	0	1621098496	61	4275
2026-01-11 07:04:15.88	342.47	19.42	-47.8	-49.0	15.2	0.00e+00	0	23	0	1624244224	61	4202
2026-01-11 07:04:16.87	342.30	19.33	-47.8	-49.0	15.2	0.00e+00	0	23	0	1627389952	61	4226
2026-01-11 07:04:17.87	342.12	19.24	-47.7	-48.9	15.2	0.00e+00	0	23	0	1630535680	61	4181
2026-01-11 07:04:18.87	341.95	19.16	-47.7	-48.9	15.3	0.00e+00	0	23	0	1633681408	61	4155
2026-01-11 07:04:19.87	341.78	19.07	-47.7	-48.9	15.3	0.00e+00	0	23	0	1636827136	61	4150
2026-01-11 07:04:20.86	341.61	18.98	-47.6	-48.8	15.3	0.00e+00	0	23	0	1639972864	61	4112
2026-01-11 07:04:21.85	341.45	18.89	-47.7	-48.9	15.2	0.00e+00	0	24	0	1643118592	61	4176
2026-01-11 07:04:22.84	341.28	18.80	-47.8	-49.0	15.2	0.00e+00	0	23	0	1645215744	61	4218
2026-01-11 07:04:23.85	341.11	18.71	-48.0	-49.2	15.1	0.00e+00	0	23	0	1648361472	61	4320
2026-01-11 07:04:24.84	340.95	18.62	-48.2	-49.5	15.0	0.00e+00	0	23	0	1651507200	61	4449
2026-01-11 07:04:25.83	340.79	18.54	-48.3	-49.6	15.0	0.00e+00	0	23	0	1654652928	61	4521
2026-01-11 07:04:26.82	340.62	18.45	-48.4	-49.7	14.9	0.00e+00	0	23	0	1657798656	61	4563
2026-01-11 07:04:27.82	340.46	18.36	-48.4	-49.7	14.9	0.00e+00	0	23	0	1660944384	61	4553
2026-01-11 07:04:28.82	340.30	18.27	-48.3	-49.6	15.0	0.00e+00	0	23	0	1664090112	61	4525
2026-01-11 07:04:29.82	340.14	18.18	-48.4	-49.7	15.0	0.00e+00	0	23	0	1667235840	61	4553
2026-01-11 07:04:30.82	339.98	18.10	-48.4	-49.7	14.9	0.00e+00	0	23	0	1670381568	61	4547
2026-01-11 07:04:31.83	339.82	18.01	-48.2	-49.4	15.0	0.00e+00	0	23	0	1673527296	61	4430
2026-01-11 07:04:32.83	339.66	17.92	-48.1	-49.4	15.0	0.00e+00	0	23	0	1676673024	61	4408
2026-01-11 07:04:33.83	339.50	17.83	-48.1	-49.4	15.0	0.00e+00	0	23	0	1679818752	61	4410
2026-01-11 07:04:34.83	339.35	17.74	-48.2	-49.4	15.0	0.00e+00	0	23	0	1682964480	61	4419
2026-01-11 07:04:35.83	339.19	17.66	-48.3	-49.6	15.0	0.00e+00	0	23	0	1686110208	61	4521
2026-01-11 07:04:36.82	339.04	17.57	-48.3	-49.6	15.0	1.50e-06	0	23	0	1689255936	61	4501
2026-01-11 07:04:37.82	338.89	17.48	-48.3	-49.6	15.0	0.00e+00	0	23	0	1692401664	61	4532
2026-01-11 07:04:38.82	338.73	17.39	-48.4	-49.7	15.0	0.00e+00	0	23	0	1695547392	62	4329
2026-01-11 07:04:39.82	338.58	17.31	-48.5	-49.8	15.0	0.00e+00	0	23	0	1698693120	62	4350
2026-01-11 07:04:40.82	338.43	17.22	-48.5	-49.8	15.0	0.00e+00	0	23	0	1701838848	62	4385
2026-01-11 07:04:41.81	338.28	17.13	-48.6	-49.9	15.0	0.00e+00	0	23	0	1704984576	62	4413
2026-01-11 07:04:42.82	338.13	17.04	-48.7	-50.0	14.9	0.00e+00	0	23	0	1708130304	62	4457
2026-01-11 07:04:43.82	337.99	16.96	-48.5	-49.8	15.0	0.00e+00	0	23	0	1711276032	62	4390
2026-01-11 07:04:44.82	337.84	16.87	-48.5	-49.8	15.0	0.00e+00	0	23	0	1714421760	62	4343
2026-01-11 07:04:45.82	337.69	16.78	-48.3	-49.6	15.1	0.00e+00	0	23	0	1717567488	62	4267
2026-01-11 07:04:46.82	337.55	16.70	-48.4	-49.7	15.0	0.00e+00	0	23	0	1720713216	62	4292
2026-01-11 07:04:47.82	337.40	16.61	-48.2	-49.4	15.1	0.00e+00	0	23	0	1723858944	62	4167
2026-01-11 07:04:48.82	337.26	16.52	-48.1	-49.4	15.2	0.00e+00	0	23	0	1727004672	62	4149
2026-01-11 07:04:49.81	337.12	16.44	-48.1	-49.3	15.2	0.00e+00	0	23	0	1730150400	62	4120
2026-01-11 07:04:50.82	336.97	16.35	-48.1	-49.4	15.2	0.00e+00	0	23	0	1733296128	62	4148
2026-01-11 07:04:51.81	336.83	16.27	-48.3	-49.5	15.1	0.00e+00	0	23	0	1736441856	62	4226
2026-01-11 07:04:52.81	336.69	16.18	-48.4	-49.7	15.0	0.00e+00	0	24	0	1739587584	62	4305
2026-01-11 07:04:53.80	336.56	16.10	-48.6	-49.9	15.0	0.00e+00	0	23	0	1742733312	62	4398
2026-01-11 07:04:54.79	336.42	16.01	-48.7	-50.0	14.9	4.50e-06	0	23	0	1745879040	62	4470
2026-01-11 07:04:55.79	336.28	15.93	-48.7	-50.1	14.9	0.00e+00	0	23	0	1749024768	62	4498
2026-01-11 07:04:56.80	336.14	15.84	-48.8	-50.1	14.8	0.00e+00	0	23	0	1752170496	62	4524
2026-01-11 07:04:57.80	336.00	15.75	-48.8	-50.2	14.8	0.00e+00	0	23	0	1755316224	62	4557
2026-01-11 07:04:58.80	335.87	15.67	-48.7	-50.0	14.9	0.00e+00	0	23	0	1758461952	62	4481
2026-01-11 07:04:59.80	335.73	15.58	-48.7	-50.0	14.9	0.00e+00	0	23	0	1761607680	62	4479
2026-01-11 07:05:00.80	335.60	15.50	-48.7	-50.0	14.9	0.00e+00	0	23	0	1764753408	62	4476
2026-01-11 07:05:01.80	335.47	15.41	-48.4	-49.7	15.0	0.00e+00	0	23	0	1767899136	62	4307
2026-01-11 07:05:02.79	335.34	15.33	-48.3	-49.5	15.1	0.00e+00	0	23	0	1771044864	62	4241
2026-01-11 07:05:03.80	335.20	15.24	-48.2	-49.5	15.1	0.00e+00	0	23	0	1774190592	62	4194
2026-01-11 07:05:04.80	335.07	15.16	-48.1	-49.3	15.2	0.00e+00	0	23	0	1777336320	62	4130
2026-01-11 07:05:05.81	334.94	15.08	-48.1	-49.4	15.2	0.00e+00	0	23	0	1779433472	62	4158
2026-01-11 07:05:06.81	334.81	14.99	-48.2	-49.4	15.1	0.00e+00	0	23	0	1782579200	62	4186
2026-01-11 07:05:07.80	334.68	14.91	-48.2	-49.5	15.1	0.00e+00	0	23	0	1785724928	62	4208
2026-01-11 07:05:08.80	334.56	14.82	-48.3	-49.6	15.0	0.00e+00	0	23	0	1788870656	62	4245
2026-01-11 07:05:09.80	334.43	14.74	-48.5	-49.7	15.0	0.00e+00	0	23	0	1792016384	62	4337
2026-01-11 07:05:10.80	334.30	14.66	-48.5	-49.8	14.9	0.00e+00	0	23	0	1795162112	62	4385
2026-01-11 07:05:11.80	334.18	14.57	-48.6	-49.9	14.9	0.00e+00	0	23	0	1798307840	62	4413
2026-01-11 07:05:12.79	334.05	14.49	-48.7	-50.0	14.9	2.20e-06	0	23	0	1801453568	62	4458
2026-01-11 07:05:13.79	333.93	14.41	-48.8	-50.1	14.8	0.00e+00	0	23	0	1804599296	62	4524
2026-01-11 07:05:14.79	333.81	14.33	-48.7	-50.1	14.8	0.00e+00	0	23	0	1807745024	62	4500
2026-01-11 07:05:15.79	333.68	14.24	-48.8	-50.1	14.8	0.00e+00	0	23	0	1810890752	62	4521
2026-01-11 07:05:16.78	333.56	14.16	-48.8	-50.1	14.8	0.00e+00	0	23	0	1814036480	62	4529
2026-01-11 07:05:17.78	333.44	14.08	-48.7	-50.1	14.8	0.00e+00	0	23	0	1817182208	62	4506
2026-01-11 07:05:18.78	333.32	14.00	-48.6	-49.9	14.9	0.00e+00	0	23	0	1820327936	62	4420
2026-01-11 07:05:19.78	333.20	13.91	-48.5	-49.8	14.9	0.00e+00	0	23	0	1823473664	62	4386
2026-01-11 07:05:20.77	333.08	13.83	-48.4	-49.7	15.0	0.00e+00	0	23	0	1826619392	62	4299
2026-01-11 07:05:21.78	332.96	13.75	-48.3	-49.6	15.0	0.00e+00	0	23	0	1829765120	62	4278
2026-01-11 07:05:22.77	332.84	13.67	-48.2	-49.4	15.1	0.00e+00	0	23	0	1832910848	62	4178
2026-01-11 07:05:23.76	332.73	13.59	-48.2	-49.4	15.1	0.00e+00	0	23	0	1836056576	62	4169
2026-01-11 07:05:24.76	332.61	13.51	-48.2	-49.5	15.1	0.00e+00	0	23	0	1839202304	62	4206
2026-01-11 07:05:25.76	332.49	13.43	-48.1	-49.4	15.1	0.00e+00	0	23	0	1842348032	62	4155
2026-01-11 07:05:26.76	332.38	13.34	-48.2	-49.5	15.1	0.00e+00	0	23	0	1845493760	62	4213
2026-01-11 07:05:27.75	332.27	13.26	-48.2	-49.5	15.1	0.00e+00	0	23	0	1848639488	62	4218
2026-01-11 07:05:28.76	332.15	13.18	-48.4	-49.6	15.0	0.00e+00	0	23	0	1851785216	62	4289
2026-01-11 07:05:29.75	332.04	13.10	-48.5	-49.7	14.9	0.00e+00	0	23	0	1854930944	62	4340
2026-01-11 07:05:30.75	331.93	13.02	-48.6	-49.9	14.9	0.00e+00	0	23	0	1858076672	62	4412
2026-01-11 07:05:31.74	331.81	12.94	-48.8	-50.1	14.8	0.00e+00	0	23	0	1861222400	62	4521
2026-01-11 07:05:32.74	331.70	12.86	-48.9	-50.3	14.7	0.00e+00	0	23	0	1864368128	62	4608
2026-01-11 07:05:33.74	331.59	12.78	-49.0	-50.4	14.8	0.00e+00	0	23	0	1867513856	63	4412
2026-01-11 07:05:34.73	331.48	12.70	-49.1	-50.5	14.7	0.00e+00	0	23	0	1870659584	63	4462
2026-01-11 07:05:35.73	331.37	12.62	-49.2	-50.6	14.7	0.00e+00	0	23	0	1873805312	63	4507
2026-01-11 07:05:36.72	331.26	12.54	-49.2	-50.6	14.7	0.00e+00	0	23	0	1876951040	63	4516
2026-01-11 07:05:37.71	331.16	12.47	-49.3	-50.7	14.6	0.00e+00	0	23	0	1880096768	63	4574
2026-01-11 07:05:38.71	331.05	12.39	-49.3	-50.8	14.6	0.00e+00	0	23	0	1883242496	63	4606
2026-01-11 07:05:39.70	330.94	12.31	-49.2	-50.6	14.7	0.00e+00	0	23	0	1886388224	63	4533
2026-01-11 07:05:40.71	330.83	12.23	-49.2	-50.6	14.7	0.00e+00	0	23	0	1888485376	63	4518
2026-01-11 07:05:41.71	330.73	12.15	-49.3	-50.8	14.6	0.00e+00	0	23	0	1891631104	63	4601
2026-01-11 07:05:42.71	330.62	12.07	-49.2	-50.6	14.7	0.00e+00	0	23	0	1894776832	63	4519
2026-01-11 07:05:43.70	330.52	11.99	-49.1	-50.5	14.7	0.00e+00	0	23	0	1897922560	63	4468
2026-01-11 07:05:44.70	330.41	11.91	-49.1	-50.4	14.8	1.37e-05	0	23	0	1901068288	63	4441
2026-01-11 07:05:45.70	330.31	11.84	-48.9	-50.2	14.9	0.00e+00	0	23	0	1904214016	63	4334
2026-01-11 07:05:46.69	330.21	11.76	-48.9	-50.2	14.9	6.10e-06	0	23	0	1907359744	63	4334
2026-01-11 07:05:47.69	330.11	11.68	-49.0	-50.3	14.8	0.00e+00	0	23	0	1910505472	63	4377
2026-01-11 07:05:48.69	330.00	11.60	-49.0	-50.4	14.8	0.00e+00	0	23	0	1913651200	63	4410
2026-01-11 07:05:49.68	329.90	11.53	-49.0	-50.4	14.8	0.00e+00	0	23	0	1916796928	63	4423
2026-01-11 07:05:50.68	329.80	11.45	-49.0	-50.4	14.8	0.00e+00	0	23	0	1919942656	63	4418
2026-01-11 07:05:51.68	329.70	11.37	-49.1	-50.5	14.7	0.00e+00	0	23	0	1923088384	63	4477
2026-01-11 07:05:52.68	329.60	11.29	-49.3	-50.7	14.6	0.00e+00	0	23	0	1926234112	63	4572
2026-01-11 07:05:53.68	329.50	11.22	-49.4	-50.9	14.5	0.00e+00	0	23	0	1929379840	63	4661
2026-01-11 07:05:54.68	329.40	11.14	-49.5	-50.9	14.6	0.00e+00	0	24	0	1932525568	64	4429
2026-01-11 07:05:55.68	329.30	11.06	-49.5	-51.0	14.6	0.00e+00	0	23	0	1935671296	64	4480
2026-01-11 07:05:56.69	329.21	10.99	-49.7	-51.2	14.5	0.00e+00	0	23	0	1938817024	64	4573
2026-01-11 07:05:57.62	329.11	10.92	-49.7	-51.2	14.5	0.00e+00	0	23	0	1941962752	64	4591
2026-01-11 07:05:58.63	329.02	10.84	-49.8	-51.3	14.5	0.00e+00	0	23	0	1945108480	64	4615
2026-01-11 07:05:59.63	328.92	10.76	-49.8	-51.4	14.4	0.00e+00	0	23	0	1948254208	64	4658
2026-01-11 07:06:00.63	328.82	10.69	-49.8	-51.3	14.4	0.00e+00	0	23	0	1951399936	64	4644
2026-01-11 07:06:01.62	328.73	10.61	-49.8	-51.3	14.4	0.00e+00	0	23	0	1954545664	64	4630
2026-01-11 07:06:02.63	328.63	10.54	-49.8	-51.3	14.4	0.00e+00	0	23	0	1957691392	64	4638
2026-01-11 07:06:03.62	328.54	10.46	-49.8	-51.3	14.4	0.00e+00	0	24	0	1960837120	64	4632
2026-01-11 07:06:04.63	328.45	10.38	-49.8	-51.3	14.4	0.00e+00	0	23	0	1963982848	64	4639
2026-01-11 07:06:05.63	328.35	10.31	-49.7	-51.2	14.5	0.00e+00	0	23	0	1967128576	64	4561
2026-01-11 07:06:06.63	328.26	10.23	-49.5	-51.0	14.5	0.00e+00	0	23	0	1970274304	64	4473
2026-01-11 07:06:07.63	328.17	10.16	-49.5	-50.9	14.6	0.00e+00	0	23	0	1973420032	64	4429
2026-01-11 07:06:08.62	328.08	10.09	-49.5	-50.9	14.6	0.00e+00	0	23	0	1976565760	64	4434
2026-01-11 07:06:09.62	327.99	10.01	-49.5	-50.9	14.6	0.00e+00	0	24	0	1979711488	64	4427
2026-01-11 07:06:10.61	327.90	9.94	-49.4	-50.9	14.6	0.00e+00	0	24	0	1982857216	64	4419
2026-01-11 07:06:11.60	327.81	9.86	-49.4	-50.8	14.7	0.00e+00	0	23	0	1986002944	64	4372
2026-01-11 07:06:12.60	327.72	9.79	-49.5	-50.9	14.6	0.00e+00	0	23	0	1989148672	64	4427
2026-01-11 07:06:13.60	327.63	9.72	-49.5	-51.0	14.5	0.00e+00	0	23	0	1992294400	64	4473
2026-01-11 07:06:14.60	327.54	9.64	-49.5	-51.0	14.6	0.00e+00	0	23	0	1995440128	64	4447
2026-01-11 07:06:15.60	327.45	9.57	-49.5	-50.9	14.6	0.00e+00	0	23	0	1998585856	64	4428
2026-01-11 07:06:16.59	327.36	9.50	-49.5	-51.0	14.6	0.00e+00	0	24	0	2001731584	64	4459
2026-01-11 07:06:17.59	327.28	9.42	-49.7	-51.3	14.4	0.00e+00	0	24	0	2004877312	64	4599
2026-01-11 07:06:18.59	327.19	9.35	-49.7	-51.2	14.5	1.50e-06	0	24	0	2008023040	64	4558
2026-01-11 07:06:19.59	327.10	9.28	-49.8	-51.4	14.4	0.00e+00	0	23	0	2011168768	64	4653
2026-01-11 07:06:20.58	327.02	9.20	-49.9	-51.4	14.3	4.50e-06	0	23	0	2014314496	64	4689
2026-01-11 07:06:21.57	326.93	9.13	-50.0	-51.6	14.3	0.00e+00	0	23	0	2017460224	65	4524
2026-01-11 07:06:22.57	326.85	9.06	-50.0	-51.6	14.3	0.00e+00	0	23	0	2020605952	65	4510
2026-01-11 07:06:23.57	326.76	8.99	-50.1	-51.7	14.3	0.00e+00	0	23	0	2022703104	65	4584
2026-01-11 07:06:24.56	326.68	8.92	-50.2	-51.9	14.2	0.00e+00	0	23	0	2025848832	65	4653
