passes_logs/2026/01/11/R3.2S_Murmansk/R3.2S_Murmansk__20260111_030254_AQUA_rec.log

#Pass ID: 20260111_030254_AQUA
#Satellite: AQUA
#Configuration: AQUA
#almurnet v.1.7.20251203
#Start time: 2026-01-11 03:02:55

#Version: 2.2.20231116
#Station: R3.2S_Murmansk
#Location: 33.079688 lon 68.888172 lat
#TLE: 1 27424U 02022A   26009.89520876  .00001045  00000+0  21914-3 0  9996
#TLE: 2 27424  98.4076 336.2372 0002032  84.5955   1.0356 14.61811442260144

#Time	Az	El	Level	Level2	SNR	BER	BlckErr	Temp	State	Recorded	gain1	gain2
2026-01-11 03:02:55.78	25.86	2.06	-52.9	-72.2	3.8	7.46e-01	0	25	0	0	73	35651
2026-01-11 03:02:56.77	25.84	2.13	-52.9	-72.2	3.8	7.46e-01	0	25	104	0	73	35688
2026-01-11 03:02:57.78	25.82	2.19	-52.9	-72.3	3.8	7.47e-01	0	25	104	0	73	35694
2026-01-11 03:02:58.78	25.80	2.26	-52.9	-72.3	3.8	7.47e-01	0	25	104	0	73	35749
2026-01-11 03:02:59.78	25.78	2.33	-52.9	-72.3	3.8	7.47e-01	0	25	104	0	73	35746
2026-01-11 03:03:00.77	25.76	2.39	-52.9	-72.3	3.8	7.45e-01	0	25	104	0	73	35754
2026-01-11 03:03:01.77	25.74	2.46	-52.9	-72.3	3.8	7.50e-01	0	25	104	0	73	35720
2026-01-11 03:03:02.77	25.72	2.52	-52.9	-72.3	3.8	7.47e-01	0	25	104	0	73	35817
2026-01-11 03:03:03.78	25.70	2.59	-52.9	-72.3	3.8	7.46e-01	0	25	104	0	73	35766
2026-01-11 03:03:04.78	25.68	2.66	-52.9	-72.3	3.8	7.43e-01	0	25	104	0	73	35822
2026-01-11 03:03:05.78	25.66	2.73	-52.9	-72.3	3.8	7.45e-01	0	25	104	0	73	35778
2026-01-11 03:03:06.79	25.64	2.79	-52.9	-72.3	3.8	7.45e-01	0	25	104	0	73	35800
2026-01-11 03:03:07.78	25.62	2.86	-52.9	-72.3	3.8	7.46e-01	0	25	104	0	73	35846
2026-01-11 03:03:08.78	25.60	2.93	-52.9	-72.3	3.8	7.47e-01	0	25	104	0	73	35899
2026-01-11 03:03:09.79	25.58	3.00	-52.9	-72.3	3.8	7.46e-01	0	25	104	0	73	35944
2026-01-11 03:03:10.79	25.56	3.07	-52.9	-72.3	3.8	7.47e-01	0	25	104	0	73	35780
2026-01-11 03:03:11.79	25.54	3.14	-52.9	-72.3	3.8	7.49e-01	0	25	104	0	73	35798
2026-01-11 03:03:12.78	25.52	3.20	-52.9	-72.3	3.8	7.48e-01	0	25	104	0	73	35801
2026-01-11 03:03:13.78	25.49	3.27	-52.9	-72.3	3.8	7.47e-01	0	25	104	0	73	35836
2026-01-11 03:03:14.79	25.47	3.34	-52.9	-72.3	3.8	7.48e-01	0	25	104	0	73	35903
2026-01-11 03:03:15.79	25.45	3.41	-52.9	-72.3	3.8	7.46e-01	0	25	104	0	73	35866
2026-01-11 03:03:16.79	25.43	3.48	-52.9	-72.3	3.8	7.46e-01	0	25	104	0	73	35765
2026-01-11 03:03:17.79	25.41	3.55	-52.9	-72.3	3.8	7.43e-01	0	25	104	0	73	35866
2026-01-11 03:03:18.79	25.39	3.62	-52.9	-72.3	3.8	7.43e-01	0	25	104	0	73	35963
2026-01-11 03:03:19.79	25.36	3.69	-52.9	-72.3	3.8	7.46e-01	0	25	104	0	73	35786
2026-01-11 03:03:20.79	25.34	3.76	-52.9	-72.3	3.8	7.47e-01	0	25	104	0	73	35783
2026-01-11 03:03:21.79	25.32	3.83	-52.9	-72.3	3.8	7.47e-01	0	25	104	0	73	35836
2026-01-11 03:03:22.79	25.30	3.90	-52.9	-72.3	3.8	7.50e-01	0	25	104	0	73	35905
2026-01-11 03:03:23.79	25.27	3.97	-52.9	-72.3	3.8	7.46e-01	0	25	104	0	73	35821
2026-01-11 03:03:24.79	25.25	4.04	-52.9	-72.3	3.8	7.40e-01	0	25	104	0	73	35863
2026-01-11 03:03:25.79	25.23	4.11	-52.9	-72.3	3.8	7.48e-01	0	25	104	0	73	35808
2026-01-11 03:03:26.79	25.20	4.18	-52.9	-72.3	3.8	7.47e-01	0	25	104	0	73	35806
2026-01-11 03:03:27.79	25.18	4.26	-52.9	-72.3	3.8	7.44e-01	0	25	104	0	73	35836
2026-01-11 03:03:28.80	25.16	4.33	-52.9	-72.3	3.8	7.44e-01	0	25	104	0	73	35860
2026-01-11 03:03:29.79	25.13	4.40	-52.9	-72.3	3.8	7.49e-01	0	25	104	0	73	35979
2026-01-11 03:03:30.80	25.11	4.47	-52.9	-72.3	3.8	7.46e-01	0	25	104	0	73	35924
2026-01-11 03:03:31.80	25.09	4.55	-52.9	-72.3	3.8	7.44e-01	0	25	104	0	73	35892
2026-01-11 03:03:32.80	25.06	4.62	-52.9	-72.3	3.8	7.48e-01	0	26	104	0	73	35873
2026-01-11 03:03:33.79	25.04	4.69	-52.9	-72.3	3.8	7.44e-01	0	25	104	0	73	35967
2026-01-11 03:03:34.79	25.02	4.76	-52.9	-72.3	3.8	7.50e-01	0	26	104	0	73	35877
2026-01-11 03:03:35.80	24.99	4.84	-52.9	-72.3	3.8	7.42e-01	0	26	104	0	73	35921
2026-01-11 03:03:36.80	24.97	4.91	-52.9	-72.3	3.8	7.47e-01	0	26	104	0	73	35954
2026-01-11 03:03:37.80	24.94	4.98	-52.9	-72.3	3.8	7.45e-01	0	26	104	0	73	35975
2026-01-11 03:03:38.81	24.92	5.06	-52.9	-72.3	3.8	7.51e-01	0	26	104	0	73	35962
2026-01-11 03:03:39.81	24.89	5.13	-52.9	-72.3	3.8	7.46e-01	0	26	104	0	73	35963
2026-01-11 03:03:40.81	24.87	5.21	-52.9	-72.3	3.8	7.46e-01	0	26	104	0	73	36001
2026-01-11 03:03:41.82	24.84	5.28	-52.9	-72.3	3.8	7.48e-01	0	26	104	0	73	35908
2026-01-11 03:03:42.83	24.81	5.36	-52.9	-72.3	3.8	7.42e-01	0	26	104	0	73	35942
2026-01-11 03:03:43.83	24.79	5.43	-52.9	-72.3	3.8	7.47e-01	0	26	104	0	73	35853
2026-01-11 03:03:44.84	24.76	5.51	-52.9	-72.3	3.8	7.50e-01	0	26	104	0	73	35914
2026-01-11 03:03:45.83	24.74	5.58	-52.9	-72.3	3.8	7.44e-01	0	26	104	0	73	35908
2026-01-11 03:03:46.84	24.71	5.66	-52.9	-72.3	3.8	7.46e-01	0	26	104	0	73	35969
2026-01-11 03:03:47.84	24.68	5.74	-52.9	-72.3	3.8	7.48e-01	0	26	104	0	73	35935
2026-01-11 03:03:48.85	24.66	5.81	-52.9	-72.3	3.8	7.46e-01	0	26	104	0	73	36038
2026-01-11 03:03:49.85	24.63	5.89	-52.9	-72.3	3.8	7.43e-01	0	26	104	0	73	35985
2026-01-11 03:03:50.85	24.60	5.97	-52.9	-72.3	3.8	7.48e-01	0	26	104	0	73	36024
2026-01-11 03:03:51.85	24.58	6.04	-52.9	-72.3	3.8	7.48e-01	0	26	104	0	73	36017
2026-01-11 03:03:52.84	24.55	6.12	-52.9	-72.3	3.8	7.49e-01	0	26	104	0	73	35958
2026-01-11 03:03:53.85	24.52	6.20	-52.9	-72.3	3.8	7.48e-01	0	26	104	0	73	35966
2026-01-11 03:03:54.84	24.49	6.28	-52.9	-72.3	3.8	7.49e-01	0	26	104	0	73	35972
2026-01-11 03:03:55.85	24.47	6.35	-52.9	-72.3	3.8	7.45e-01	0	26	104	0	73	35980
2026-01-11 03:03:56.85	24.44	6.43	-52.9	-72.3	3.8	7.47e-01	0	26	104	0	73	35906
2026-01-11 03:03:57.85	24.41	6.51	-52.9	-72.3	3.8	7.46e-01	0	26	104	0	73	35947
2026-01-11 03:03:58.86	24.38	6.59	-52.9	-72.3	3.8	7.48e-01	0	26	104	0	73	35985
2026-01-11 03:03:59.86	24.35	6.67	-52.9	-72.3	3.9	7.46e-01	0	26	104	0	73	35974
2026-01-11 03:04:00.86	24.32	6.75	-53.0	-72.3	3.8	7.49e-01	0	26	104	0	73	36077
2026-01-11 03:04:01.87	24.29	6.83	-52.9	-72.3	3.8	7.47e-01	0	26	104	0	73	36031
2026-01-11 03:04:02.87	24.26	6.91	-52.9	-72.3	3.8	7.45e-01	0	26	104	0	73	36088
2026-01-11 03:04:03.87	24.24	6.99	-52.9	-72.3	3.8	7.47e-01	0	26	104	0	73	36048
2026-01-11 03:04:04.87	24.21	7.07	-52.9	-72.3	3.8	7.44e-01	0	26	104	0	73	36066
2026-01-11 03:04:05.88	24.18	7.15	-52.9	-72.3	3.8	7.47e-01	0	26	104	0	73	35939
2026-01-11 03:04:06.88	24.15	7.23	-52.9	-72.3	3.8	7.48e-01	0	26	104	0	73	36025
2026-01-11 03:04:07.88	24.12	7.31	-52.9	-72.3	3.8	7.48e-01	0	26	104	0	73	35940
2026-01-11 03:04:08.88	24.09	7.39	-52.9	-72.3	3.8	7.47e-01	0	26	104	0	73	36005
2026-01-11 03:04:09.89	24.05	7.48	-52.9	-72.4	3.8	7.43e-01	0	26	104	0	73	36114
2026-01-11 03:04:10.89	24.02	7.56	-52.9	-72.4	3.8	7.47e-01	0	26	104	0	73	36130
2026-01-11 03:04:11.89	23.99	7.64	-52.9	-72.3	3.8	7.46e-01	0	26	104	0	73	36053
2026-01-11 03:04:12.89	23.96	7.72	-52.9	-72.3	3.8	7.44e-01	0	26	104	0	73	36035
2026-01-11 03:04:13.89	23.93	7.81	-53.0	-72.3	3.8	7.45e-01	0	26	104	0	73	36026
2026-01-11 03:04:14.88	23.90	7.89	-52.9	-72.3	3.8	7.43e-01	0	26	104	0	73	36043
2026-01-11 03:04:15.88	23.87	7.97	-53.0	-72.3	3.8	7.47e-01	0	26	104	0	73	36046
2026-01-11 03:04:16.89	23.83	8.06	-52.9	-72.3	3.8	7.47e-01	0	26	104	0	73	36027
2026-01-11 03:04:17.88	23.80	8.14	-52.9	-72.3	3.8	7.47e-01	0	26	104	0	73	35987
2026-01-11 03:04:18.88	23.77	8.22	-52.9	-72.3	3.8	7.46e-01	0	26	104	0	73	36012
2026-01-11 03:04:19.88	23.74	8.31	-52.9	-72.3	3.8	7.47e-01	0	26	104	0	73	35959
2026-01-11 03:04:20.89	23.70	8.39	-52.9	-72.3	3.8	7.47e-01	0	26	104	0	73	35992
2026-01-11 03:04:21.90	23.67	8.48	-52.9	-72.3	3.8	7.48e-01	0	26	104	0	73	35958
2026-01-11 03:04:22.90	23.64	8.57	-52.9	-72.3	3.8	7.46e-01	0	26	104	0	73	35985
2026-01-11 03:04:23.89	23.60	8.65	-53.0	-72.3	3.8	7.47e-01	0	26	104	0	73	36041
2026-01-11 03:04:24.89	23.57	8.74	-53.0	-72.4	3.8	7.42e-01	0	26	104	0	73	36123
2026-01-11 03:04:25.89	23.53	8.82	-52.9	-72.3	3.8	7.45e-01	0	26	104	0	73	36027
2026-01-11 03:04:26.89	23.50	8.91	-52.9	-72.3	3.8	7.45e-01	0	26	104	0	73	36029
2026-01-11 03:04:27.90	23.46	9.00	-53.0	-72.3	3.8	7.48e-01	0	26	104	0	73	36092
2026-01-11 03:04:28.90	23.43	9.09	-53.0	-72.4	3.8	7.48e-01	0	26	104	0	73	36110
2026-01-11 03:04:29.91	23.39	9.18	-53.0	-72.3	3.8	7.50e-01	0	26	104	0	73	36036
2026-01-11 03:04:30.91	23.36	9.26	-53.0	-72.3	3.8	7.46e-01	0	26	104	0	73	36091
2026-01-11 03:04:31.91	23.32	9.35	-53.0	-72.3	3.8	7.48e-01	0	26	104	0	73	36075
2026-01-11 03:04:32.91	23.29	9.44	-53.0	-72.3	3.8	7.43e-01	0	26	104	0	73	36086
2026-01-11 03:04:33.91	23.25	9.53	-53.0	-72.3	3.8	7.44e-01	0	26	104	0	73	36031
2026-01-11 03:04:34.92	23.21	9.62	-53.0	-72.3	3.8	7.48e-01	0	26	104	0	73	36095
2026-01-11 03:04:35.92	23.18	9.71	-53.0	-72.4	3.8	7.47e-01	0	26	104	0	73	36137
2026-01-11 03:04:36.92	23.14	9.80	-53.0	-72.4	3.8	7.44e-01	0	26	104	0	73	36136
2026-01-11 03:04:37.91	23.10	9.89	-53.0	-72.3	3.8	7.49e-01	0	26	104	0	73	36101
2026-01-11 03:04:38.92	23.06	9.98	-53.0	-72.4	3.8	7.49e-01	0	26	104	0	73	36146
2026-01-11 03:04:39.93	23.02	10.07	-53.0	-72.3	3.8	7.43e-01	0	26	104	0	73	36081
2026-01-11 03:04:40.93	22.99	10.17	-52.9	-72.4	3.8	7.46e-01	0	26	104	0	73	36147
2026-01-11 03:04:41.93	22.95	10.26	-52.9	-72.4	3.8	7.47e-01	0	26	104	0	73	36155
2026-01-11 03:04:42.93	22.91	10.35	-52.9	-72.3	3.8	7.49e-01	0	26	104	0	73	36088
2026-01-11 03:04:43.94	22.87	10.44	-53.0	-72.3	3.8	7.42e-01	0	26	104	0	73	36009
2026-01-11 03:04:44.94	22.83	10.54	-53.0	-72.4	3.8	7.45e-01	0	26	104	0	73	36127
2026-01-11 03:04:45.94	22.79	10.63	-52.9	-72.3	3.8	7.46e-01	0	26	104	0	73	36067
2026-01-11 03:04:46.94	22.75	10.73	-53.0	-72.3	3.8	7.47e-01	0	26	104	0	73	36071
2026-01-11 03:04:47.93	22.71	10.82	-53.0	-72.4	3.8	7.44e-01	0	26	104	0	73	36127
2026-01-11 03:04:48.93	22.67	10.91	-53.0	-72.3	3.8	7.47e-01	0	26	104	0	73	36104
2026-01-11 03:04:49.91	22.63	11.01	-53.0	-72.4	3.8	7.42e-01	0	26	104	0	73	36113
2026-01-11 03:04:50.92	22.59	11.10	-53.0	-72.4	3.8	7.46e-01	0	26	104	0	73	36152
2026-01-11 03:04:51.91	22.55	11.20	-53.0	-72.3	3.8	7.46e-01	0	26	104	0	73	36032
2026-01-11 03:04:52.91	22.50	11.29	-53.0	-72.3	3.8	7.43e-01	0	26	104	0	73	36059
2026-01-11 03:04:53.92	22.46	11.39	-53.0	-72.3	3.8	7.42e-01	0	26	104	0	73	36073
2026-01-11 03:04:54.92	22.42	11.49	-53.0	-72.4	3.8	7.45e-01	0	26	104	0	73	36211
2026-01-11 03:04:55.93	22.38	11.59	-53.0	-72.4	3.8	7.48e-01	0	26	104	0	73	36147
2026-01-11 03:04:56.94	22.33	11.69	-53.0	-72.4	3.8	7.45e-01	0	26	104	0	73	36250
2026-01-11 03:04:57.94	22.29	11.79	-53.0	-72.4	3.8	7.44e-01	0	26	104	0	73	36183
2026-01-11 03:04:58.95	22.24	11.89	-53.0	-72.4	3.8	7.46e-01	0	26	104	0	73	36246
2026-01-11 03:04:59.95	22.20	11.98	-53.0	-72.4	3.8	7.47e-01	0	26	104	0	73	36174
2026-01-11 03:05:00.95	22.15	12.08	-53.0	-72.4	3.8	7.48e-01	0	26	104	0	73	36200
2026-01-11 03:05:01.95	22.11	12.18	-53.0	-72.4	3.8	7.46e-01	0	26	104	0	73	36224
2026-01-11 03:05:02.95	22.06	12.29	-53.0	-72.4	3.8	7.45e-01	0	26	104	0	73	36163
2026-01-11 03:05:03.95	22.02	12.39	-53.0	-72.4	3.8	7.50e-01	0	26	104	0	73	36143
2026-01-11 03:05:04.95	21.97	12.49	-53.0	-72.3	3.8	7.48e-01	0	26	104	0	73	36091
2026-01-11 03:05:05.95	21.93	12.59	-53.0	-72.4	3.8	7.46e-01	0	26	104	0	73	36219
2026-01-11 03:05:06.96	21.88	12.69	-53.0	-72.4	3.8	7.45e-01	0	26	104	0	73	36189
2026-01-11 03:05:07.96	21.83	12.80	-53.0	-72.3	3.8	7.47e-01	0	26	104	0	73	36090
2026-01-11 03:05:08.96	21.78	12.90	-53.0	-72.4	3.8	7.43e-01	0	26	104	0	73	36147
2026-01-11 03:05:09.96	21.73	13.00	-53.0	-72.3	3.8	7.49e-01	0	26	104	0	73	36061
2026-01-11 03:05:10.96	21.69	13.11	-53.0	-72.3	3.8	7.46e-01	0	26	104	0	73	36094
2026-01-11 03:05:11.96	21.64	13.21	-53.0	-72.4	3.8	7.46e-01	0	26	104	0	73	36151
2026-01-11 03:05:12.96	21.59	13.32	-53.0	-72.4	3.8	7.46e-01	0	26	104	0	73	36174
2026-01-11 03:05:13.96	21.54	13.42	-53.0	-72.3	3.8	7.45e-01	0	26	104	0	73	36072
2026-01-11 03:05:15.26	21.47	13.56	-53.0	-72.3	3.8	7.46e-01	0	26	104	0	73	36095
2026-01-11 03:05:15.98	21.44	13.64	-53.0	-72.4	3.8	7.45e-01	0	26	104	0	73	36162
2026-01-11 03:05:17.26	21.37	13.78	-53.0	-72.3	3.8	7.46e-01	0	26	104	0	73	36094
2026-01-11 03:05:18.00	21.33	13.86	-53.0	-72.4	3.8	7.49e-01	0	26	104	0	73	36125
2026-01-11 03:05:19.29	21.27	13.99	-53.0	-72.4	3.8	7.45e-01	0	26	104	0	73	36213
2026-01-11 03:05:20.00	21.23	14.07	-53.0	-72.4	3.8	7.48e-01	0	26	104	0	73	36120
2026-01-11 03:05:21.29	21.16	14.21	-53.0	-72.4	3.8	7.46e-01	0	26	104	0	73	36116
2026-01-11 03:05:22.00	21.12	14.29	-53.0	-72.4	3.8	7.46e-01	0	26	104	0	73	36181
2026-01-11 03:05:23.30	21.05	14.43	-53.0	-72.4	3.8	7.48e-01	0	26	104	0	73	36198
2026-01-11 03:05:24.02	21.01	14.51	-53.0	-72.4	3.8	7.47e-01	0	26	104	0	73	36189
2026-01-11 03:05:25.31	20.94	14.66	-53.0	-72.4	3.8	7.49e-01	0	26	104	0	73	36122
2026-01-11 03:05:26.02	20.91	14.74	-53.0	-72.4	3.8	7.46e-01	0	26	104	0	73	36195
2026-01-11 03:05:27.32	20.83	14.88	-53.0	-72.4	3.8	7.46e-01	0	26	104	0	73	36177
2026-01-11 03:05:28.05	20.79	14.97	-53.0	-72.4	3.8	7.45e-01	0	26	104	0	73	36254
2026-01-11 03:05:29.34	20.72	15.11	-53.0	-72.4	3.8	7.45e-01	0	26	104	0	73	36226
2026-01-11 03:05:30.05	20.68	15.19	-53.0	-72.4	3.8	7.47e-01	0	26	104	0	73	36210
2026-01-11 03:05:31.34	20.60	15.34	-53.0	-72.4	3.8	7.47e-01	0	26	104	0	73	36210
2026-01-11 03:05:32.06	20.56	15.43	-53.0	-72.4	3.8	7.45e-01	0	26	104	0	73	36263
2026-01-11 03:05:33.34	20.49	15.57	-53.0	-72.4	3.8	7.46e-01	0	26	104	0	73	36232
2026-01-11 03:05:34.06	20.45	15.66	-53.0	-72.4	3.8	7.50e-01	0	26	104	0	73	36166
2026-01-11 03:05:35.35	20.37	15.81	-53.0	-72.4	3.8	7.45e-01	0	26	104	0	73	36166
2026-01-11 03:05:36.07	20.33	15.89	-53.0	-72.4	3.8	7.45e-01	0	26	104	0	73	36184
2026-01-11 03:05:37.35	20.25	16.04	-53.0	-72.4	3.8	7.44e-01	0	26	104	0	73	36189
2026-01-11 03:05:38.07	20.20	16.13	-53.0	-72.4	3.8	7.46e-01	0	26	104	0	73	36244
2026-01-11 03:05:39.37	20.12	16.29	-53.0	-72.4	3.8	7.47e-01	0	26	104	0	73	36235
2026-01-11 03:05:40.08	20.08	16.37	-53.0	-72.4	3.8	7.44e-01	0	26	104	0	73	36215
2026-01-11 03:05:41.38	20.00	16.53	-53.0	-72.4	3.8	7.50e-01	0	26	104	0	73	36156
2026-01-11 03:05:42.10	19.95	16.62	-53.0	-72.3	3.8	7.46e-01	0	26	104	0	73	36028
2026-01-11 03:05:43.40	19.87	16.77	-53.0	-72.3	3.8	7.45e-01	0	26	104	0	73	35996
2026-01-11 03:05:44.10	19.82	16.86	-53.0	-72.4	3.8	7.45e-01	0	26	104	0	73	36130
2026-01-11 03:05:45.40	19.74	17.02	-53.0	-72.3	3.8	7.47e-01	0	26	104	0	73	36051
2026-01-11 03:05:46.13	19.69	17.11	-53.0	-72.3	3.8	7.44e-01	0	26	104	0	73	36102
2026-01-11 03:05:47.42	19.60	17.27	-53.0	-72.4	3.8	7.46e-01	0	26	104	0	73	36150
2026-01-11 03:05:48.13	19.56	17.36	-53.0	-72.3	3.8	7.45e-01	0	26	104	0	73	36101
2026-01-11 03:05:49.42	19.47	17.52	-53.0	-72.4	3.8	7.47e-01	0	26	104	0	73	36130
2026-01-11 03:05:50.14	19.42	17.61	-53.0	-72.4	3.8	7.48e-01	0	26	104	0	73	36219
2026-01-11 03:05:51.43	19.33	17.78	-53.0	-72.4	3.8	7.47e-01	0	26	104	0	73	36154
2026-01-11 03:05:52.16	19.28	17.87	-53.0	-72.4	3.8	7.47e-01	0	26	104	0	73	36150
2026-01-11 03:05:53.45	19.19	18.04	-53.0	-72.4	3.8	7.50e-01	0	26	104	0	73	36199
2026-01-11 03:05:54.18	19.14	18.13	-53.0	-72.4	3.8	7.44e-01	0	26	104	0	73	36175
2026-01-11 03:05:55.47	19.04	18.30	-53.0	-72.4	3.8	7.48e-01	0	26	104	0	73	36302
2026-01-11 03:05:56.18	18.99	18.39	-53.0	-72.4	3.8	7.48e-01	0	26	104	0	73	36243
2026-01-11 03:05:57.47	18.90	18.56	-53.0	-72.4	3.8	7.47e-01	0	26	104	0	73	36290
2026-01-11 03:05:58.19	18.85	18.66	-53.0	-72.4	3.8	7.49e-01	0	26	104	0	73	36184
2026-01-11 03:05:59.47	18.75	18.83	-53.0	-72.4	3.8	7.47e-01	0	26	104	0	73	36252
2026-01-11 03:06:00.20	18.70	18.93	-53.0	-72.4	3.8	7.43e-01	0	26	104	0	73	36259
2026-01-11 03:06:01.49	18.60	19.10	-53.0	-72.4	3.8	7.45e-01	0	26	104	0	73	36205
2026-01-11 03:06:02.21	18.54	19.20	-53.0	-72.4	3.8	7.47e-01	0	26	104	0	73	36192
2026-01-11 03:06:03.50	18.44	19.37	-53.0	-72.4	3.8	7.47e-01	0	26	104	0	73	36186
2026-01-11 03:06:04.22	18.39	19.47	-53.0	-72.4	3.8	7.42e-01	0	26	104	0	73	36216
2026-01-11 03:06:05.51	18.28	19.65	-53.0	-72.4	3.8	7.47e-01	0	26	104	0	73	36121
2026-01-11 03:06:06.23	18.23	19.75	-53.0	-72.4	3.8	7.47e-01	0	26	104	0	73	36216
2026-01-11 03:06:07.51	18.12	19.93	-53.0	-72.4	3.8	7.49e-01	0	26	104	0	73	36275
2026-01-11 03:06:08.23	18.06	20.03	-53.0	-72.4	3.8	7.49e-01	0	26	104	0	73	36157
2026-01-11 03:06:09.52	17.96	20.21	-53.0	-72.4	3.8	7.47e-01	0	26	104	0	73	36139
2026-01-11 03:06:10.25	17.90	20.31	-53.0	-72.4	3.9	7.47e-01	0	26	104	0	73	36219
2026-01-11 03:06:11.54	17.79	20.49	-53.0	-72.4	3.8	7.48e-01	0	26	104	0	73	36220
2026-01-11 03:06:12.26	17.73	20.60	-53.0	-72.4	3.8	7.49e-01	0	26	104	0	73	36202
2026-01-11 03:06:13.54	17.62	20.78	-53.0	-72.4	3.8	7.50e-01	0	26	104	0	73	36257
2026-01-11 03:06:14.27	17.55	20.89	-53.0	-72.4	3.8	7.44e-01	0	26	104	0	73	36268
2026-01-11 03:06:15.55	17.44	21.07	-53.0	-72.4	3.8	7.50e-01	0	26	104	0	73	36260
2026-01-11 03:06:16.26	17.38	21.18	-53.0	-72.4	3.8	7.43e-01	0	26	104	0	73	36270
2026-01-11 03:06:17.55	17.26	21.37	-53.0	-72.4	3.8	7.43e-01	0	26	104	0	73	36292
2026-01-11 03:06:18.28	17.20	21.48	-53.0	-72.4	3.8	7.47e-01	0	26	104	0	73	36288
2026-01-11 03:06:19.57	17.08	21.67	-53.0	-72.4	3.8	7.46e-01	0	26	104	0	73	36178
2026-01-11 03:06:20.28	17.01	21.78	-53.0	-72.4	3.8	7.46e-01	0	27	104	0	73	36214
2026-01-11 03:06:21.56	16.90	21.97	-53.0	-72.4	3.8	7.46e-01	0	26	104	0	73	36122
2026-01-11 03:06:22.27	16.83	22.08	-53.0	-72.4	3.8	7.44e-01	0	27	104	0	73	36203
2026-01-11 03:06:23.60	16.70	22.28	-53.0	-72.4	3.8	7.44e-01	0	26	104	0	73	36259
2026-01-11 03:06:24.31	16.63	22.39	-53.0	-72.4	3.8	7.46e-01	0	26	104	0	73	36203
2026-01-11 03:06:25.60	16.51	22.59	-53.0	-72.4	3.8	7.44e-01	0	26	104	0	73	36278
2026-01-11 03:06:26.32	16.44	22.70	-53.0	-72.4	3.8	7.49e-01	0	26	104	0	73	36217
2026-01-11 03:06:27.61	16.31	22.90	-53.0	-72.4	3.8	7.48e-01	0	26	104	0	73	36268
2026-01-11 03:06:28.34	16.23	23.02	-53.0	-72.4	3.8	7.48e-01	0	26	104	0	73	36209
2026-01-11 03:06:29.62	16.10	23.22	-53.0	-72.4	3.8	7.47e-01	0	26	104	0	73	36255
2026-01-11 03:06:30.34	16.03	23.34	-53.0	-72.4	3.8	7.48e-01	0	27	104	0	73	36254
2026-01-11 03:06:31.62	15.90	23.54	-53.0	-72.4	3.8	7.48e-01	0	26	104	0	73	36274
2026-01-11 03:06:32.38	15.82	23.66	-53.0	-72.4	3.8	7.46e-01	0	26	104	0	73	36274
2026-01-11 03:06:33.66	15.68	23.87	-53.0	-72.4	3.8	7.44e-01	0	26	104	0	73	36212
2026-01-11 03:06:34.39	15.60	23.99	-53.0	-72.4	3.8	7.46e-01	0	26	104	0	73	36319
2026-01-11 03:06:35.68	15.46	24.20	-53.0	-72.4	3.8	7.45e-01	0	26	104	0	73	36304
2026-01-11 03:06:36.40	15.38	24.32	-53.0	-72.4	3.8	7.48e-01	0	26	104	0	73	36271
2026-01-11 03:06:37.68	15.24	24.54	-53.0	-72.4	3.8	7.47e-01	0	26	104	0	73	36228
2026-01-11 03:06:38.39	15.16	24.65	-53.0	-72.4	3.8	7.45e-01	0	26	104	0	73	36306
2026-01-11 03:06:39.69	15.01	24.87	-53.0	-72.4	3.8	7.47e-01	0	26	104	0	73	36322
2026-01-11 03:06:40.40	14.93	24.99	-53.0	-72.4	3.8	7.47e-01	0	27	104	0	73	36317
2026-01-11 03:06:41.70	14.78	25.22	-53.0	-72.4	3.8	7.47e-01	0	27	104	0	73	36301
2026-01-11 03:06:42.41	14.69	25.34	-53.0	-72.4	3.8	7.46e-01	0	27	104	0	73	36276
2026-01-11 03:06:43.72	14.54	25.56	-53.0	-72.4	3.8	7.45e-01	0	26	104	0	73	36279
2026-01-11 03:06:44.44	14.45	25.69	-53.0	-72.4	3.8	7.43e-01	0	26	104	0	73	36335
2026-01-11 03:06:45.73	14.29	25.92	-53.0	-72.4	3.8	7.49e-01	0	27	104	0	73	36260
2026-01-11 03:06:46.44	14.20	26.04	-53.0	-72.4	3.8	7.45e-01	0	26	104	0	73	36281
2026-01-11 03:06:47.73	14.04	26.27	-53.0	-72.4	3.8	7.42e-01	0	26	104	0	73	36249
2026-01-11 03:06:48.45	13.95	26.40	-53.0	-72.4	3.8	7.43e-01	0	26	104	0	73	36325
2026-01-11 03:06:49.73	13.79	26.63	-53.0	-72.4	3.8	7.45e-01	0	26	104	0	73	36254
2026-01-11 03:06:50.46	13.69	26.76	-53.0	-72.4	3.8	7.46e-01	0	26	104	0	73	36305
2026-01-11 03:06:51.76	13.52	27.00	-53.0	-72.4	3.8	7.48e-01	0	26	104	0	73	36310
2026-01-11 03:06:52.48	13.43	27.13	-53.0	-72.4	3.8	7.48e-01	0	26	104	0	73	36281
2026-01-11 03:06:53.76	13.25	27.36	-53.0	-72.4	3.8	7.48e-01	0	26	104	0	73	36323
2026-01-11 03:06:54.49	13.15	27.50	-53.0	-72.4	3.8	7.49e-01	0	26	104	0	73	36314
2026-01-11 03:06:55.78	12.98	27.74	-53.0	-72.4	3.8	7.47e-01	0	27	104	0	73	36366
2026-01-11 03:06:56.50	12.87	27.88	-53.0	-72.4	3.8	7.49e-01	0	26	104	0	73	36348
2026-01-11 03:06:57.79	12.69	28.12	-53.0	-72.4	3.8	7.45e-01	0	26	104	0	73	36315
2026-01-11 03:06:58.51	12.59	28.26	-53.0	-72.4	3.8	7.45e-01	0	26	104	0	73	36261
2026-01-11 03:06:59.79	12.40	28.50	-53.0	-72.4	3.8	7.46e-01	0	27	104	0	73	36353
2026-01-11 03:07:00.50	12.30	28.64	-53.0	-72.4	3.8	7.46e-01	0	27	104	0	73	36277
2026-01-11 03:07:01.81	12.10	28.89	-53.0	-72.4	3.8	7.48e-01	0	26	104	0	73	36273
2026-01-11 03:07:02.51	12.00	29.03	-53.0	-72.4	3.8	7.46e-01	0	26	104	0	73	36267
2026-01-11 03:07:03.84	11.79	29.29	-53.0	-72.4	3.8	7.48e-01	0	27	104	0	73	36323
2026-01-11 03:07:04.56	11.68	29.43	-53.0	-72.4	3.8	7.47e-01	0	26	104	0	73	36301
2026-01-11 03:07:05.85	11.48	29.69	-53.0	-72.4	3.8	7.45e-01	0	27	104	0	73	36383
2026-01-11 03:07:06.56	11.37	29.83	-53.0	-72.4	3.8	7.44e-01	0	27	104	0	73	36403
2026-01-11 03:07:07.85	11.16	30.09	-53.0	-72.4	3.8	7.50e-01	0	27	104	0	73	36234
2026-01-11 03:07:08.57	11.04	30.24	-53.0	-72.4	3.8	7.45e-01	0	27	104	0	73	36362
2026-01-11 03:07:09.86	10.83	30.50	-53.0	-72.4	3.8	7.52e-01	0	26	104	0	73	36234
2026-01-11 03:07:10.58	10.71	30.65	-53.0	-72.4	3.8	7.46e-01	0	27	104	0	73	36304
2026-01-11 03:07:11.86	10.49	30.91	-53.0	-72.4	3.8	7.46e-01	0	26	104	0	73	36309
2026-01-11 03:07:12.58	10.36	31.06	-53.0	-72.4	3.8	7.49e-01	0	27	104	0	73	36401
2026-01-11 03:07:13.87	10.14	31.33	-53.0	-72.4	3.8	7.45e-01	0	26	104	0	73	36247
2026-01-11 03:07:14.59	10.01	31.48	-53.0	-72.4	3.8	7.43e-01	0	27	104	0	73	36323
2026-01-11 03:07:15.88	9.78	31.75	-53.0	-72.4	3.8	7.48e-01	0	27	104	0	73	36293
2026-01-11 03:07:16.59	9.65	31.91	-53.0	-72.4	3.8	7.47e-01	0	26	104	0	73	36275
2026-01-11 03:07:17.87	9.41	32.18	-53.0	-72.4	3.8	7.47e-01	0	26	104	0	73	36303
2026-01-11 03:07:18.59	9.28	32.34	-53.0	-72.4	3.8	7.43e-01	0	26	104	0	73	36451
2026-01-11 03:07:19.87	9.04	32.61	-53.0	-72.4	3.8	7.50e-01	0	26	104	0	73	36414
2026-01-11 03:07:20.59	8.90	32.77	-53.0	-72.4	3.8	7.49e-01	0	26	104	0	73	36306
2026-01-11 03:07:21.88	8.64	33.05	-53.0	-72.4	3.8	7.47e-01	0	27	104	0	73	36326
2026-01-11 03:07:22.59	8.50	33.21	-53.0	-72.4	3.8	7.45e-01	0	26	104	0	73	36400
2026-01-11 03:07:23.88	8.24	33.50	-53.0	-72.4	3.8	7.45e-01	0	27	104	0	73	36312
2026-01-11 03:07:24.59	8.10	33.66	-53.0	-72.4	3.8	7.45e-01	0	27	104	0	73	36301
2026-01-11 03:07:25.89	7.83	33.95	-53.0	-72.4	3.8	7.46e-01	0	26	104	0	73	36317
2026-01-11 03:07:26.61	7.68	34.11	-53.0	-72.4	3.8	7.48e-01	0	27	104	0	73	36267
2026-01-11 03:07:27.90	7.41	34.41	-53.0	-72.4	3.8	7.47e-01	0	27	104	0	73	36314
2026-01-11 03:07:28.61	7.25	34.57	-53.0	-72.4	3.8	7.49e-01	0	27	104	0	73	36345
2026-01-11 03:07:29.91	6.97	34.87	-53.0	-72.4	3.8	7.46e-01	0	27	104	0	73	36372
2026-01-11 03:07:30.62	6.81	35.03	-53.0	-72.4	3.8	7.49e-01	0	26	104	0	73	36390
2026-01-11 03:07:31.91	6.52	35.33	-53.0	-72.4	3.8	7.46e-01	0	26	104	0	73	36322
2026-01-11 03:07:32.63	6.35	35.50	-53.0	-72.4	3.8	7.45e-01	0	27	104	0	73	36378
2026-01-11 03:07:33.92	6.05	35.80	-53.0	-72.4	3.8	7.49e-01	0	27	104	0	73	36372
2026-01-11 03:07:34.64	5.88	35.98	-53.0	-72.4	3.8	7.44e-01	0	27	104	0	73	36266
2026-01-11 03:07:35.92	5.57	36.28	-53.0	-72.4	3.8	7.44e-01	0	26	104	0	73	36358
2026-01-11 03:07:36.64	5.40	36.45	-53.0	-72.4	3.8	7.47e-01	0	26	104	0	73	36323
2026-01-11 03:07:37.92	5.08	36.76	-53.0	-72.4	3.8	7.45e-01	0	26	104	0	73	36330
2026-01-11 03:07:38.63	4.90	36.93	-53.0	-72.4	3.8	7.44e-01	0	26	104	0	73	36338
2026-01-11 03:07:39.91	4.58	37.24	-53.0	-72.4	3.8	7.47e-01	0	27	104	0	73	36362
2026-01-11 03:07:40.65	4.39	37.43	-53.0	-72.4	3.8	7.48e-01	0	27	104	0	73	36392
2026-01-11 03:07:41.94	4.05	37.74	-53.0	-72.4	3.8	7.50e-01	0	26	104	0	73	36364
2026-01-11 03:07:42.65	3.86	37.92	-53.0	-72.4	3.8	7.43e-01	0	27	104	0	73	36364
2026-01-11 03:07:43.95	3.50	38.24	-53.0	-72.4	3.8	7.44e-01	0	26	104	0	73	36326
2026-01-11 03:07:44.66	3.31	38.42	-53.0	-72.4	3.8	7.47e-01	0	27	104	0	73	36311
2026-01-11 03:07:45.96	2.94	38.74	-53.0	-72.4	3.8	7.49e-01	0	26	104	0	73	36284
2026-01-11 03:07:46.68	2.74	38.93	-53.0	-72.4	3.8	7.46e-01	0	27	104	0	73	36309
2026-01-11 03:07:47.97	2.36	39.25	-53.0	-72.4	3.8	7.46e-01	0	27	104	0	73	36372
2026-01-11 03:07:48.68	2.15	39.43	-53.0	-72.4	3.8	7.44e-01	0	27	104	0	73	36382
2026-01-11 03:07:49.97	1.77	39.76	-53.0	-72.4	3.8	7.46e-01	0	27	104	0	73	36324
2026-01-11 03:07:50.69	1.55	39.95	-53.0	-72.4	3.8	7.45e-01	0	26	104	0	73	36512
2026-01-11 03:07:51.98	1.15	40.28	-53.0	-72.4	3.8	7.46e-01	0	27	104	0	73	36400
2026-01-11 03:07:52.69	0.93	40.46	-53.0	-72.4	3.8	7.45e-01	0	27	104	0	73	36322
2026-01-11 03:07:53.99	0.51	40.80	-53.0	-72.4	3.8	7.48e-01	0	26	104	0	73	36392
2026-01-11 03:07:54.71	0.28	40.99	-53.0	-72.4	3.8	7.48e-01	0	27	104	0	73	36368
2026-01-11 03:07:56.00	359.85	41.32	-53.0	-72.4	3.8	7.45e-01	0	27	104	0	73	36448
2026-01-11 03:07:56.72	359.61	41.51	-53.0	-72.4	3.8	7.46e-01	0	27	104	0	73	36417
2026-01-11 03:07:58.01	359.17	41.85	-53.0	-72.4	3.8	7.46e-01	0	27	104	0	73	36272
2026-01-11 03:07:58.73	358.92	42.04	-53.0	-72.4	3.8	7.47e-01	0	26	104	0	73	36501
2026-01-11 03:08:00.01	358.47	42.38	-53.0	-72.4	3.8	7.47e-01	0	26	104	0	73	36409
2026-01-11 03:08:00.74	358.21	42.58	-53.0	-72.4	3.8	7.45e-01	0	26	104	0	73	36354
2026-01-11 03:08:02.03	357.73	42.92	-53.0	-72.4	3.8	7.47e-01	0	27	104	0	73	36336
2026-01-11 03:08:02.74	357.47	43.11	-53.0	-72.4	3.8	7.48e-01	0	26	104	0	73	36468
2026-01-11 03:08:04.03	356.98	43.45	-53.0	-72.4	3.8	7.46e-01	0	27	104	0	73	36397
2026-01-11 03:08:04.74	356.71	43.65	-53.0	-72.4	3.8	7.47e-01	0	27	104	0	73	36453
2026-01-11 03:08:06.03	356.20	43.99	-53.0	-72.4	3.8	7.45e-01	0	26	104	0	73	36367
2026-01-11 03:08:06.74	355.92	44.18	-53.0	-72.4	3.8	7.46e-01	0	27	104	0	73	36457
2026-01-11 03:08:08.03	355.40	44.53	-53.0	-72.4	3.8	7.49e-01	0	26	104	0	73	36418
2026-01-11 03:08:08.75	355.10	44.72	-53.0	-72.4	3.8	7.46e-01	0	27	104	0	73	36464
2026-01-11 03:08:10.04	354.56	45.07	-53.0	-72.4	3.8	7.45e-01	0	27	104	0	73	36343
2026-01-11 03:08:10.76	354.25	45.27	-53.0	-72.4	3.8	7.47e-01	0	27	104	0	73	36418
2026-01-11 03:08:12.05	353.69	45.62	-53.0	-72.4	3.8	7.46e-01	0	27	104	0	73	36446
2026-01-11 03:08:12.77	353.37	45.81	-53.0	-72.4	3.8	7.50e-01	0	26	104	0	73	36411
2026-01-11 03:08:14.06	352.79	46.16	-53.0	-72.4	3.8	7.46e-01	0	26	104	0	73	36318
2026-01-11 03:08:14.77	352.47	46.35	-53.0	-72.4	3.8	7.45e-01	0	27	104	0	73	36262
2026-01-11 03:08:16.07	351.86	46.70	-53.0	-72.4	3.8	7.45e-01	0	26	104	0	73	36316
2026-01-11 03:08:16.78	351.52	46.90	-53.0	-72.4	3.8	7.45e-01	0	27	104	0	73	36314
2026-01-11 03:08:18.07	350.90	47.24	-53.0	-72.4	3.8	7.47e-01	0	26	104	0	73	36364
2026-01-11 03:08:18.79	350.55	47.44	-53.0	-72.4	3.8	7.46e-01	0	26	104	0	73	36325
2026-01-11 03:08:20.09	349.90	47.79	-53.0	-72.4	3.8	7.49e-01	0	26	104	0	73	36382
2026-01-11 03:08:20.80	349.53	47.98	-53.0	-72.4	3.8	7.45e-01	0	27	104	0	73	36314
2026-01-11 03:08:22.09	348.87	48.32	-53.0	-72.4	3.8	7.47e-01	0	26	104	0	73	36335
2026-01-11 03:08:22.83	348.47	48.52	-53.0	-72.4	3.8	7.46e-01	0	26	104	0	73	36409
2026-01-11 03:08:24.11	347.79	48.86	-53.0	-72.4	3.8	7.47e-01	0	26	104	0	73	36409
2026-01-11 03:08:24.86	347.38	49.06	-53.0	-72.4	3.8	7.47e-01	0	26	104	0	73	36465
2026-01-11 03:08:26.14	346.66	49.39	-53.0	-72.4	3.8	7.46e-01	0	26	104	0	73	36350
2026-01-11 03:08:26.87	346.25	49.58	-53.0	-72.4	3.8	7.49e-01	0	26	104	0	73	36322
2026-01-11 03:08:28.15	345.51	49.92	-53.0	-72.4	3.8	7.45e-01	0	26	104	0	73	36431
2026-01-11 03:08:28.87	345.09	50.10	-53.0	-72.4	3.8	7.47e-01	0	26	104	0	73	36402
2026-01-11 03:08:30.14	344.33	50.43	-53.0	-72.4	3.8	7.48e-01	0	26	104	0	73	36376
2026-01-11 03:08:30.88	343.88	50.62	-53.0	-72.4	3.8	7.47e-01	0	26	104	0	73	36298
2026-01-11 03:08:32.16	343.09	50.94	-53.0	-72.4	3.8	7.44e-01	0	26	104	0	73	36430
2026-01-11 03:08:32.88	342.64	51.12	-53.0	-72.4	3.8	7.45e-01	0	26	104	0	73	36312
2026-01-11 03:08:34.17	341.82	51.44	-53.0	-72.4	3.8	7.47e-01	0	26	104	0	73	36322
2026-01-11 03:08:34.88	341.35	51.62	-53.0	-72.4	3.8	7.48e-01	0	26	104	0	73	36357
2026-01-11 03:08:36.18	340.49	51.94	-53.0	-72.4	3.8	7.45e-01	0	26	104	0	73	36353
2026-01-11 03:08:36.89	340.02	52.11	-53.0	-72.4	3.8	7.46e-01	0	26	104	0	73	36390
2026-01-11 03:08:38.18	339.14	52.41	-53.0	-72.4	3.8	7.46e-01	0	26	104	0	73	36429
2026-01-11 03:08:38.90	338.64	52.58	-53.0	-72.4	3.8	7.44e-01	0	26	104	0	73	36441
2026-01-11 03:08:40.18	337.73	52.88	-53.0	-72.4	3.8	7.46e-01	0	26	104	0	73	36403
2026-01-11 03:08:40.91	337.21	53.05	-53.0	-72.4	3.8	7.45e-01	0	26	104	0	73	36413
2026-01-11 03:08:42.19	336.28	53.33	-53.0	-72.4	3.8	7.43e-01	0	26	104	0	73	36436
2026-01-11 03:08:42.93	335.73	53.50	-53.0	-72.4	3.8	7.44e-01	0	26	104	0	73	36339
2026-01-11 03:08:44.22	334.76	53.78	-53.0	-72.4	3.8	7.48e-01	0	26	104	0	73	36400
2026-01-11 03:08:44.93	334.22	53.93	-53.0	-72.4	3.8	7.47e-01	0	26	104	0	73	36368
2026-01-11 03:08:46.22	333.22	54.20	-53.0	-72.4	3.8	7.39e-01	0	26	104	0	73	36364
2026-01-11 03:08:46.93	332.66	54.34	-53.0	-72.4	3.8	7.47e-01	0	26	104	0	73	36360
2026-01-11 03:08:48.22	331.63	54.60	-53.0	-72.4	3.8	7.45e-01	0	27	104	0	73	36369
2026-01-11 03:08:48.94	331.05	54.74	-53.0	-72.4	3.8	7.44e-01	0	26	104	0	73	36430
2026-01-11 03:08:50.22	330.00	54.98	-53.0	-72.4	3.8	7.44e-01	0	26	104	0	73	36471
2026-01-11 03:08:50.94	329.40	55.12	-53.0	-72.4	3.8	7.45e-01	0	27	104	0	73	36388
2026-01-11 03:08:52.23	328.32	55.35	-53.0	-72.4	3.8	7.46e-01	0	26	104	0	73	36385
2026-01-11 03:08:52.94	327.71	55.47	-53.0	-72.4	3.8	7.44e-01	0	27	104	0	73	36392
2026-01-11 03:08:54.24	326.59	55.69	-53.0	-72.4	3.8	7.52e-01	0	26	104	0	73	36461
2026-01-11 03:08:54.95	325.97	55.80	-53.0	-72.4	3.8	7.42e-01	0	26	104	0	73	36412
2026-01-11 03:08:56.25	324.82	56.00	-53.0	-72.4	3.8	7.48e-01	0	27	104	0	73	36347
2026-01-11 03:08:56.97	324.18	56.11	-53.0	-72.4	3.8	7.48e-01	0	27	104	0	73	36370
2026-01-11 03:08:58.25	323.02	56.29	-53.0	-72.4	3.8	7.48e-01	0	26	104	0	73	36464
2026-01-11 03:08:58.98	322.36	56.39	-53.0	-72.4	3.8	7.45e-01	0	27	104	0	73	36458
2026-01-11 03:09:00.27	321.17	56.56	-53.0	-72.4	3.8	7.46e-01	0	26	104	0	73	36404
2026-01-11 03:09:00.99	320.50	56.65	-53.0	-72.4	3.8	7.47e-01	0	27	104	0	73	36519
2026-01-11 03:09:02.28	319.29	56.80	-53.0	-72.4	3.8	7.47e-01	0	27	104	0	73	36383
2026-01-11 03:09:03.00	318.61	56.88	-53.0	-72.5	3.8	7.47e-01	0	26	104	0	73	36530
2026-01-11 03:09:04.29	317.38	57.01	-53.0	-72.4	3.8	7.42e-01	0	27	104	0	73	36397
2026-01-11 03:09:05.01	316.69	57.07	-53.0	-72.4	3.8	7.46e-01	0	26	104	0	73	36478
2026-01-11 03:09:06.30	315.44	57.18	-53.0	-72.4	3.8	7.44e-01	0	27	104	0	73	36425
2026-01-11 03:09:07.01	314.75	57.24	-53.0	-72.4	3.8	7.46e-01	0	26	104	0	73	36407
2026-01-11 03:09:08.29	313.50	57.33	-53.0	-72.4	3.8	7.47e-01	0	27	104	0	73	36393
2026-01-11 03:09:09.01	312.79	57.38	-53.0	-72.4	3.8	7.45e-01	0	26	104	0	73	36424
2026-01-11 03:09:10.29	311.53	57.45	-53.0	-72.4	3.8	7.45e-01	0	26	104	0	73	36312
2026-01-11 03:09:11.01	310.82	57.48	-53.0	-72.4	3.8	7.44e-01	0	27	104	0	73	36411
2026-01-11 03:09:12.30	309.54	57.53	-53.0	-72.4	3.8	7.49e-01	0	27	104	0	73	36455
2026-01-11 03:09:13.01	308.83	57.55	-53.0	-72.4	3.8	7.41e-01	0	27	104	0	73	36345
2026-01-11 03:09:14.31	307.53	57.58	-53.0	-72.4	3.8	7.49e-01	0	27	104	0	73	36394
2026-01-11 03:09:15.02	306.82	57.59	-53.0	-72.4	3.8	7.48e-01	0	27	104	0	73	36434
2026-01-11 03:09:16.31	305.53	57.60	-53.0	-72.4	3.8	7.46e-01	0	26	104	0	73	36467
2026-01-11 03:09:17.02	304.82	57.59	-53.0	-72.4	3.8	7.48e-01	0	26	104	0	73	36434
2026-01-11 03:09:18.31	303.53	57.58	-53.0	-72.4	3.8	7.48e-01	0	26	104	0	73	36499
2026-01-11 03:09:19.02	302.82	57.57	-53.0	-72.4	3.8	7.44e-01	0	26	104	0	73	36439
2026-01-11 03:09:20.31	301.54	57.53	-53.0	-72.5	3.8	7.46e-01	0	26	104	0	73	36567
2026-01-11 03:09:21.03	300.82	57.50	-53.0	-72.4	3.8	7.44e-01	0	27	104	0	73	36511
2026-01-11 03:09:22.31	299.55	57.45	-53.0	-72.4	3.8	7.47e-01	0	27	104	0	73	36507
2026-01-11 03:09:23.03	298.84	57.41	-53.0	-72.4	3.8	7.45e-01	0	27	104	0	73	36418
2026-01-11 03:09:24.30	297.59	57.34	-53.0	-72.4	3.8	7.46e-01	0	27	104	0	73	36493
2026-01-11 03:09:25.05	296.85	57.29	-53.1	-72.4	3.8	7.47e-01	0	27	104	0	73	36519
2026-01-11 03:09:26.32	295.62	57.19	-53.1	-72.4	3.8	7.44e-01	0	27	104	0	73	36466
2026-01-11 03:09:27.07	294.89	57.13	-53.0	-72.5	3.8	7.47e-01	0	27	104	0	73	36548
2026-01-11 03:09:28.35	293.66	57.01	-53.0	-72.4	3.8	7.45e-01	0	27	104	0	73	36516
2026-01-11 03:09:29.08	292.96	56.94	-53.0	-72.4	3.8	7.45e-01	0	27	104	0	73	36430
2026-01-11 03:09:30.36	291.74	56.80	-53.1	-72.4	3.8	7.46e-01	0	27	104	0	73	36484
2026-01-11 03:09:31.08	291.07	56.72	-53.0	-72.4	3.8	7.46e-01	0	27	104	0	73	36428
2026-01-11 03:09:32.37	289.86	56.57	-53.0	-72.4	3.8	7.46e-01	0	27	104	0	73	36422
2026-01-11 03:09:33.08	289.21	56.47	-53.0	-72.4	3.8	7.46e-01	0	26	104	0	73	36360
2026-01-11 03:09:34.37	288.03	56.30	-53.0	-72.4	3.8	7.48e-01	0	26	104	0	73	36502
2026-01-11 03:09:35.09	287.37	56.20	-53.0	-72.4	3.8	7.47e-01	0	27	104	0	73	36414
2026-01-11 03:09:36.38	286.22	56.01	-53.0	-72.4	3.8	7.46e-01	0	27	104	0	73	36520
2026-01-11 03:09:37.10	285.58	55.90	-53.0	-72.4	3.8	7.46e-01	0	27	104	0	73	36457
2026-01-11 03:09:38.39	284.45	55.69	-53.0	-72.4	3.8	7.49e-01	0	26	104	0	73	36475
2026-01-11 03:09:39.11	283.82	55.57	-53.0	-72.4	3.8	7.48e-01	0	27	104	0	73	36514
2026-01-11 03:09:40.40	282.72	55.35	-53.0	-72.4	3.8	7.47e-01	0	27	104	0	73	36479
2026-01-11 03:09:41.12	282.11	55.22	-53.0	-72.4	3.8	7.44e-01	0	27	104	0	73	36434
2026-01-11 03:09:42.40	281.04	54.99	-53.1	-72.5	3.8	7.48e-01	0	27	104	0	73	36535
2026-01-11 03:09:43.14	280.43	54.85	-53.0	-72.4	3.8	7.47e-01	0	26	104	0	73	36406
2026-01-11 03:09:44.43	279.38	54.60	-53.0	-72.5	3.8	7.47e-01	0	27	104	0	73	36539
2026-01-11 03:09:45.14	278.81	54.46	-53.1	-72.5	3.8	7.46e-01	0	26	104	0	73	36548
2026-01-11 03:09:46.43	277.79	54.20	-53.1	-72.4	3.8	7.46e-01	0	26	104	0	73	36448
2026-01-11 03:09:47.14	277.24	54.05	-53.0	-72.4	3.8	7.45e-01	0	27	104	0	73	36521
2026-01-11 03:09:48.43	276.25	53.78	-53.0	-72.4	3.8	7.46e-01	0	27	104	0	73	36500
2026-01-11 03:09:49.15	275.71	53.62	-53.0	-72.4	3.8	7.45e-01	0	27	104	0	73	36435
2026-01-11 03:09:50.43	274.75	53.34	-53.0	-72.4	3.8	7.47e-01	0	27	104	0	73	36507
2026-01-11 03:09:51.14	274.23	53.18	-53.0	-72.4	3.8	7.47e-01	0	26	104	0	73	36462
2026-01-11 03:09:52.43	273.30	52.89	-53.0	-72.4	3.8	7.46e-01	0	26	104	0	73	36486
2026-01-11 03:09:53.15	272.79	52.72	-53.0	-72.4	3.8	7.49e-01	0	26	104	0	73	36465
2026-01-11 03:09:54.43	271.89	52.42	-53.0	-72.4	3.8	7.44e-01	0	27	104	0	73	36428
2026-01-11 03:09:55.15	271.40	52.25	-53.0	-72.4	3.8	7.48e-01	0	27	104	0	73	36412
2026-01-11 03:09:56.44	270.53	51.94	-53.0	-72.4	3.8	7.46e-01	0	27	104	0	73	36420
2026-01-11 03:09:57.16	270.05	51.76	-53.0	-72.4	3.8	7.48e-01	0	27	104	0	73	36308
2026-01-11 03:09:58.44	269.21	51.45	-53.0	-72.4	3.8	7.44e-01	0	27	104	0	73	36359
2026-01-11 03:09:59.16	268.74	51.27	-53.0	-72.4	3.8	7.44e-01	0	27	104	0	73	36401
2026-01-11 03:10:00.45	267.93	50.95	-53.0	-72.4	3.8	7.51e-01	0	27	104	0	73	36360
2026-01-11 03:10:01.18	267.47	50.76	-53.0	-72.4	3.8	7.45e-01	0	27	104	0	73	36401
2026-01-11 03:10:02.47	266.68	50.43	-53.0	-72.4	3.8	7.45e-01	0	27	104	0	73	36475
2026-01-11 03:10:03.19	266.25	50.25	-53.0	-72.4	3.8	7.48e-01	0	27	104	0	73	36427
2026-01-11 03:10:04.48	265.49	49.92	-53.0	-72.4	3.8	7.50e-01	0	27	104	0	73	36501
2026-01-11 03:10:05.19	265.08	49.73	-53.0	-72.4	3.8	7.45e-01	0	27	104	0	73	36462
2026-01-11 03:10:06.49	264.34	49.39	-53.0	-72.4	3.8	7.45e-01	0	26	104	0	73	36379
2026-01-11 03:10:07.20	263.94	49.20	-53.0	-72.4	3.9	7.48e-01	0	26	104	0	73	36334
2026-01-11 03:10:08.50	263.22	48.86	-53.0	-72.4	3.8	7.48e-01	0	27	104	0	73	36476
2026-01-11 03:10:09.21	262.84	48.67	-53.0	-72.5	3.8	7.46e-01	0	26	104	0	73	36537
2026-01-11 03:10:10.50	262.15	48.33	-53.1	-72.5	3.8	7.47e-01	0	26	104	0	73	36542
2026-01-11 03:10:11.23	261.77	48.13	-53.0	-72.4	3.8	7.46e-01	0	27	104	0	73	36425
2026-01-11 03:10:12.51	261.11	47.79	-53.0	-72.4	3.8	7.44e-01	0	26	104	0	73	36464
2026-01-11 03:10:13.22	260.75	47.60	-53.0	-72.4	3.8	7.46e-01	0	27	104	0	73	36389
2026-01-11 03:10:14.52	260.11	47.25	-53.0	-72.4	3.8	7.45e-01	0	27	104	0	73	36454
2026-01-11 03:10:15.24	259.76	47.05	-53.0	-72.4	3.8	7.44e-01	0	27	104	0	73	36446
2026-01-11 03:10:16.52	259.15	46.71	-53.0	-72.4	3.8	7.47e-01	0	26	104	0	73	36476
2026-01-11 03:10:17.24	258.81	46.51	-53.0	-72.4	3.8	7.46e-01	0	27	104	0	73	36450
2026-01-11 03:10:18.53	258.21	46.16	-53.0	-72.4	3.8	7.47e-01	0	26	104	0	73	36451
2026-01-11 03:10:19.25	257.89	45.97	-53.0	-72.4	3.9	7.49e-01	0	27	104	0	73	36355
2026-01-11 03:10:20.52	257.32	45.62	-53.0	-72.4	3.8	7.46e-01	0	26	104	0	73	36446
2026-01-11 03:10:21.26	257.00	45.42	-53.0	-72.4	3.8	7.46e-01	0	26	104	0	73	36352
2026-01-11 03:10:22.54	256.45	45.07	-53.0	-72.4	3.8	7.46e-01	0	27	104	0	73	36360
2026-01-11 03:10:23.26	256.14	44.88	-53.0	-72.4	3.8	7.50e-01	0	26	104	0	73	36321
2026-01-11 03:10:24.54	255.61	44.53	-53.0	-72.4	3.8	7.43e-01	0	26	104	0	73	36299
2026-01-11 03:10:25.27	255.31	44.34	-53.0	-72.4	3.8	7.48e-01	0	27	104	0	73	36504
2026-01-11 03:10:26.55	254.80	43.99	-53.0	-72.4	3.8	7.48e-01	0	27	104	0	73	36509
2026-01-11 03:10:27.28	254.51	43.79	-53.0	-72.4	3.8	7.44e-01	0	27	104	0	73	36476
2026-01-11 03:10:28.55	254.02	43.45	-53.0	-72.4	3.8	7.47e-01	0	26	104	0	73	36389
2026-01-11 03:10:29.28	253.74	43.26	-53.0	-72.4	3.8	7.43e-01	0	27	104	0	73	36442
2026-01-11 03:10:30.57	253.25	42.91	-53.0	-72.4	3.8	7.46e-01	0	27	104	0	73	36351
2026-01-11 03:10:31.28	252.99	42.72	-53.0	-72.4	3.8	7.46e-01	0	26	104	0	73	36390
2026-01-11 03:10:32.58	252.52	42.37	-53.0	-72.4	3.8	7.45e-01	0	27	104	0	73	36513
2026-01-11 03:10:33.30	252.27	42.18	-53.0	-72.4	3.8	7.48e-01	0	27	104	0	73	36455
2026-01-11 03:10:34.58	251.82	41.84	-53.0	-72.4	3.8	7.45e-01	0	27	104	0	73	36505
2026-01-11 03:10:35.31	251.57	41.65	-53.0	-72.4	3.8	7.45e-01	0	27	104	0	73	36434
2026-01-11 03:10:36.59	251.13	41.31	-53.0	-72.4	3.8	7.45e-01	0	27	104	0	73	36451
2026-01-11 03:10:37.31	250.89	41.12	-53.0	-72.4	3.8	7.45e-01	0	27	104	0	73	36467
2026-01-11 03:10:38.59	250.47	40.79	-53.0	-72.4	3.8	7.47e-01	0	26	104	0	73	36353
2026-01-11 03:10:39.31	250.24	40.60	-53.0	-72.4	3.8	7.46e-01	0	27	104	0	73	36358
2026-01-11 03:10:40.58	249.84	40.27	-53.0	-72.4	3.8	7.48e-01	0	27	104	0	73	36484
2026-01-11 03:10:41.30	249.62	40.08	-53.0	-72.4	3.8	7.47e-01	0	27	104	0	73	36435
2026-01-11 03:10:42.59	249.22	39.75	-53.0	-72.4	3.8	7.46e-01	0	26	104	0	73	36422
2026-01-11 03:10:43.32	249.00	39.57	-53.0	-72.4	3.8	7.46e-01	0	27	104	0	73	36384
2026-01-11 03:10:44.60	248.62	39.24	-53.0	-72.4	3.8	7.46e-01	0	27	104	0	73	36497
2026-01-11 03:10:45.31	248.41	39.06	-53.0	-72.4	3.8	7.46e-01	0	27	104	0	73	36515
2026-01-11 03:10:46.60	248.04	38.73	-53.0	-72.4	3.8	7.47e-01	0	26	104	0	73	36483
2026-01-11 03:10:47.32	247.84	38.55	-53.0	-72.4	3.8	7.46e-01	0	27	104	0	73	36497
2026-01-11 03:10:48.60	247.48	38.23	-53.0	-72.4	3.8	7.49e-01	0	27	104	0	73	36463
2026-01-11 03:10:49.32	247.28	38.05	-53.0	-72.4	3.8	7.46e-01	0	26	104	0	73	36393
2026-01-11 03:10:50.61	246.94	37.73	-53.0	-72.4	3.8	7.48e-01	0	27	104	0	73	36449
2026-01-11 03:10:51.33	246.75	37.55	-53.0	-72.4	3.8	7.47e-01	0	27	104	0	73	36389
2026-01-11 03:10:52.62	246.41	37.23	-53.0	-72.4	3.8	7.46e-01	0	27	104	0	73	36463
2026-01-11 03:10:53.33	246.23	37.06	-53.0	-72.4	3.8	7.45e-01	0	27	104	0	73	36407
2026-01-11 03:10:54.62	245.90	36.75	-53.0	-72.4	3.8	7.46e-01	0	26	104	0	73	36500
2026-01-11 03:10:55.34	245.72	36.57	-53.0	-72.4	3.8	7.46e-01	0	27	104	0	73	36467
2026-01-11 03:10:56.64	245.40	36.26	-53.0	-72.4	3.8	7.49e-01	0	27	104	0	73	36461
2026-01-11 03:10:57.35	245.23	36.09	-53.0	-72.4	3.8	7.47e-01	0	26	104	0	73	36414
2026-01-11 03:10:58.63	244.92	35.78	-53.0	-72.5	3.8	7.43e-01	0	27	104	0	73	36560
2026-01-11 03:10:59.35	244.75	35.61	-53.1	-72.4	3.8	7.46e-01	0	27	104	0	73	36438
2026-01-11 03:11:00.64	244.46	35.31	-53.0	-72.4	3.8	7.46e-01	0	27	104	0	73	36436
2026-01-11 03:11:01.35	244.30	35.14	-53.0	-72.4	3.8	7.45e-01	0	27	104	0	73	36489
2026-01-11 03:11:02.64	244.01	34.84	-53.0	-72.4	3.8	7.49e-01	0	27	104	0	73	36459
2026-01-11 03:11:03.36	243.85	34.68	-53.0	-72.4	3.8	7.48e-01	0	26	104	0	73	36366
2026-01-11 03:11:04.65	243.57	34.38	-53.0	-72.4	3.8	7.44e-01	0	27	104	0	73	36375
2026-01-11 03:11:05.36	243.41	34.22	-53.0	-72.4	3.8	7.48e-01	0	26	104	0	73	36416
2026-01-11 03:11:06.65	243.14	33.92	-53.0	-72.4	3.8	7.47e-01	0	27	104	0	73	36442
2026-01-11 03:11:07.36	242.99	33.76	-53.0	-72.4	3.8	7.49e-01	0	26	104	0	73	36481
2026-01-11 03:11:08.66	242.72	33.47	-53.0	-72.4	3.8	7.43e-01	0	27	104	0	73	36472
2026-01-11 03:11:09.38	242.58	33.31	-53.0	-72.4	3.8	7.45e-01	0	26	104	0	73	36435
2026-01-11 03:11:10.66	242.32	33.03	-53.0	-72.4	3.8	7.45e-01	0	26	104	0	73	36460
2026-01-11 03:11:11.38	242.18	32.87	-53.0	-72.4	3.8	7.46e-01	0	26	104	0	73	36379
2026-01-11 03:11:12.67	241.93	32.58	-53.0	-72.4	3.8	7.47e-01	0	26	104	0	73	36418
2026-01-11 03:11:13.39	241.79	32.43	-53.0	-72.4	3.8	7.45e-01	0	27	104	0	73	36459
2026-01-11 03:11:14.68	241.55	32.15	-53.0	-72.4	3.8	7.48e-01	0	26	104	0	73	36344
2026-01-11 03:11:15.40	241.42	31.99	-53.0	-72.4	3.8	7.49e-01	0	26	104	0	73	36470
2026-01-11 03:11:16.68	241.18	31.72	-53.0	-72.4	3.8	7.47e-01	0	26	104	0	73	36438
2026-01-11 03:11:17.40	241.05	31.57	-53.0	-72.4	3.8	7.47e-01	0	26	104	0	73	36445
2026-01-11 03:11:18.70	240.82	31.29	-53.0	-72.4	3.8	7.47e-01	0	27	104	0	73	36415
2026-01-11 03:11:19.42	240.69	31.14	-53.0	-72.5	3.8	7.43e-01	0	27	104	0	73	36579
2026-01-11 03:11:20.70	240.47	30.87	-53.0	-72.4	3.8	7.42e-01	0	27	104	0	73	36409
2026-01-11 03:11:21.43	240.34	30.72	-53.0	-72.4	3.8	7.44e-01	0	27	104	0	73	36477
2026-01-11 03:11:22.72	240.13	30.45	-53.0	-72.4	3.8	7.45e-01	0	27	104	0	73	36487
2026-01-11 03:11:23.44	240.01	30.31	-53.0	-72.4	3.8	7.49e-01	0	27	104	0	73	36440
2026-01-11 03:11:24.73	239.79	30.04	-53.0	-72.4	3.8	7.49e-01	0	27	104	0	73	36514
2026-01-11 03:11:25.44	239.68	29.90	-53.0	-72.4	3.8	7.49e-01	0	27	104	0	73	36448
2026-01-11 03:11:26.73	239.47	29.64	-53.0	-72.5	3.8	7.47e-01	0	27	104	0	73	36528
2026-01-11 03:11:27.44	239.36	29.50	-53.0	-72.4	3.8	7.46e-01	0	27	104	0	73	36413
2026-01-11 03:11:28.74	239.16	29.24	-53.1	-72.4	3.8	7.44e-01	0	27	104	0	73	36455
2026-01-11 03:11:29.45	239.05	29.10	-53.0	-72.4	3.8	7.47e-01	0	26	104	0	73	36458
2026-01-11 03:11:30.76	238.85	28.84	-53.0	-72.5	3.8	7.50e-01	0	27	104	0	73	36562
2026-01-11 03:11:31.48	238.74	28.70	-53.1	-72.4	3.9	7.45e-01	0	27	104	0	73	36471
2026-01-11 03:11:32.76	238.55	28.46	-53.0	-72.4	3.8	7.46e-01	0	27	104	0	73	36391
2026-01-11 03:11:33.48	238.44	28.32	-53.1	-72.4	3.8	7.50e-01	0	27	104	0	73	36471
2026-01-11 03:11:34.76	238.26	28.07	-53.1	-72.5	3.8	7.45e-01	0	27	104	0	73	36565
2026-01-11 03:11:35.47	238.16	27.94	-53.0	-72.5	3.8	7.47e-01	0	27	104	0	73	36593
2026-01-11 03:11:36.76	237.98	27.69	-53.0	-72.4	3.8	7.46e-01	0	27	104	0	73	36459
2026-01-11 03:11:37.48	237.87	27.56	-53.0	-72.4	3.8	7.47e-01	0	26	104	0	73	36471
2026-01-11 03:11:38.76	237.70	27.32	-53.1	-72.4	3.8	7.47e-01	0	27	104	0	73	36504
2026-01-11 03:11:39.48	237.60	27.19	-53.1	-72.5	3.8	7.43e-01	0	26	104	0	73	36552
2026-01-11 03:11:40.76	237.43	26.95	-53.1	-72.5	3.8	7.44e-01	0	27	104	0	73	36542
2026-01-11 03:11:41.48	237.33	26.82	-53.1	-72.4	3.8	7.49e-01	0	27	104	0	73	36486
2026-01-11 03:11:42.76	237.17	26.59	-53.1	-72.4	3.8	7.48e-01	0	27	104	0	73	36468
2026-01-11 03:11:43.48	237.07	26.46	-53.1	-72.4	3.8	7.48e-01	0	27	104	0	73	36522
2026-01-11 03:11:44.77	236.91	26.23	-53.1	-72.5	3.8	7.47e-01	0	27	104	0	73	36537
2026-01-11 03:11:45.49	236.82	26.10	-53.1	-72.4	3.8	7.46e-01	0	26	104	0	73	36516
2026-01-11 03:11:46.78	236.66	25.87	-53.1	-72.5	3.8	7.47e-01	0	27	104	0	73	36553
2026-01-11 03:11:47.50	236.57	25.74	-53.1	-72.4	3.8	7.48e-01	0	27	104	0	73	36444
2026-01-11 03:11:48.79	236.41	25.52	-53.1	-72.4	3.8	7.50e-01	0	26	104	0	73	36509
2026-01-11 03:11:49.50	236.32	25.39	-53.0	-72.4	3.8	7.46e-01	0	27	104	0	73	36397
2026-01-11 03:11:50.80	236.17	25.17	-53.1	-72.4	3.8	7.50e-01	0	27	104	0	73	36428
2026-01-11 03:11:51.51	236.09	25.05	-53.1	-72.4	3.8	7.50e-01	0	27	104	0	73	36476
2026-01-11 03:11:52.80	235.94	24.83	-53.0	-72.4	3.8	7.48e-01	0	27	104	0	73	36514
2026-01-11 03:11:53.54	235.85	24.70	-53.1	-72.4	3.8	7.46e-01	0	26	104	0	73	36507
2026-01-11 03:11:54.83	235.70	24.49	-53.1	-72.4	3.8	7.47e-01	0	27	104	0	73	36508
2026-01-11 03:11:55.55	235.62	24.36	-53.0	-72.4	3.8	7.48e-01	0	27	104	0	73	36454
2026-01-11 03:11:56.84	235.48	24.15	-53.0	-72.4	3.8	7.47e-01	0	27	104	0	73	36459
2026-01-11 03:11:57.55	235.40	24.03	-53.0	-72.4	3.8	7.47e-01	0	27	104	0	73	36409
2026-01-11 03:11:58.86	235.26	23.82	-53.1	-72.5	3.8	7.45e-01	0	26	104	0	73	36545
2026-01-11 03:11:59.58	235.18	23.70	-53.1	-72.4	3.8	7.48e-01	0	27	104	0	73	36460
2026-01-11 03:12:00.86	235.05	23.49	-53.0	-72.5	3.8	7.48e-01	0	27	104	0	73	36555
2026-01-11 03:12:01.59	234.97	23.37	-53.0	-72.4	3.8	7.46e-01	0	27	104	0	73	36496
2026-01-11 03:12:02.88	234.84	23.17	-53.0	-72.4	3.8	7.43e-01	0	27	104	0	73	36445
2026-01-11 03:12:03.59	234.76	23.05	-53.1	-72.5	3.8	7.47e-01	0	27	104	0	73	36527
2026-01-11 03:12:04.88	234.63	22.85	-53.1	-72.5	3.8	7.47e-01	0	26	104	0	73	36573
2026-01-11 03:12:05.60	234.56	22.74	-53.0	-72.4	3.8	7.45e-01	0	26	104	0	73	36444
2026-01-11 03:12:06.89	234.43	22.54	-53.1	-72.4	3.8	7.46e-01	0	27	104	0	73	36505
2026-01-11 03:12:07.61	234.36	22.42	-53.0	-72.4	3.8	7.43e-01	0	26	104	0	73	36520
2026-01-11 03:12:08.89	234.24	22.23	-53.1	-72.5	3.8	7.48e-01	0	26	104	0	73	36524
2026-01-11 03:12:09.62	234.17	22.11	-53.1	-72.4	3.8	7.48e-01	0	26	104	0	73	36467
2026-01-11 03:12:10.91	234.04	21.92	-53.0	-72.4	3.8	7.45e-01	0	27	104	0	73	36437
2026-01-11 03:12:11.62	233.98	21.81	-53.0	-72.4	3.8	7.48e-01	0	27	104	0	73	36493
2026-01-11 03:12:12.91	233.86	21.61	-53.1	-72.4	3.8	7.44e-01	0	26	104	0	73	36475
2026-01-11 03:12:13.64	233.79	21.50	-53.0	-72.4	3.8	7.46e-01	0	27	104	0	73	36427
2026-01-11 03:12:14.92	233.67	21.31	-53.0	-72.4	3.8	7.47e-01	0	26	104	0	73	36491
2026-01-11 03:12:15.64	233.61	21.21	-53.1	-72.4	3.8	7.44e-01	0	26	104	0	73	36495
2026-01-11 03:12:16.94	233.49	21.02	-53.1	-72.5	3.8	7.46e-01	0	26	104	0	73	36551
2026-01-11 03:12:17.66	233.43	20.91	-53.1	-72.4	3.8	7.44e-01	0	26	104	0	73	36518
2026-01-11 03:12:18.95	233.31	20.72	-53.1	-72.4	3.8	7.46e-01	0	27	104	0	73	36515
2026-01-11 03:12:19.67	233.25	20.62	-53.1	-72.5	3.8	7.47e-01	0	27	104	0	73	36579
2026-01-11 03:12:20.95	233.14	20.43	-53.1	-72.5	3.8	7.48e-01	0	27	104	0	73	36553
2026-01-11 03:12:21.71	233.08	20.33	-53.1	-72.4	3.8	7.46e-01	0	26	104	0	73	36467
2026-01-11 03:12:23.00	232.97	20.14	-53.1	-72.5	3.8	7.47e-01	0	27	104	0	73	36529
2026-01-11 03:12:23.72	232.91	20.04	-53.0	-72.5	3.8	7.45e-01	0	27	104	0	73	36528
2026-01-11 03:12:25.01	232.80	19.86	-53.0	-72.5	3.8	7.47e-01	0	26	104	0	73	36536
2026-01-11 03:12:25.73	232.75	19.76	-53.1	-72.4	3.8	7.45e-01	0	27	104	0	73	36480
2026-01-11 03:12:27.02	232.64	19.58	-53.0	-72.4	3.8	7.48e-01	0	26	104	0	73	36462
2026-01-11 03:12:27.74	232.58	19.48	-53.0	-72.4	3.8	7.44e-01	0	27	104	0	73	36480
2026-01-11 03:12:29.03	232.48	19.30	-53.1	-72.4	3.8	7.51e-01	0	27	104	0	73	36477
2026-01-11 03:12:29.75	232.43	19.20	-53.0	-72.4	3.8	7.48e-01	0	27	104	0	73	36503
2026-01-11 03:12:31.05	232.32	19.03	-53.0	-72.4	3.8	7.47e-01	0	27	104	0	73	36476
2026-01-11 03:12:31.76	232.27	18.93	-53.0	-72.4	3.8	7.41e-01	0	27	104	0	73	36490
2026-01-11 03:12:33.05	232.17	18.76	-53.1	-72.5	3.8	7.46e-01	0	27	104	0	73	36532
2026-01-11 03:12:33.77	232.12	18.66	-53.0	-72.4	3.8	7.44e-01	0	27	104	0	73	36441
2026-01-11 03:12:35.06	232.02	18.49	-53.0	-72.4	3.8	7.45e-01	0	27	104	0	73	36412
2026-01-11 03:12:35.78	231.97	18.40	-53.1	-72.5	3.8	7.47e-01	0	27	104	0	73	36536
2026-01-11 03:12:37.07	231.87	18.23	-53.1	-72.5	3.8	7.44e-01	0	26	104	0	73	36575
2026-01-11 03:12:37.80	231.82	18.13	-53.1	-72.4	3.8	7.44e-01	0	27	104	0	73	36426
2026-01-11 03:12:39.09	231.73	17.96	-53.1	-72.5	3.8	7.48e-01	0	27	104	0	73	36525
2026-01-11 03:12:39.81	231.68	17.87	-53.1	-72.5	3.8	7.43e-01	0	27	104	0	73	36559
2026-01-11 03:12:41.09	231.59	17.71	-53.1	-72.4	3.8	7.49e-01	0	27	104	0	73	36451
2026-01-11 03:12:41.82	231.54	17.61	-53.0	-72.4	3.8	7.46e-01	0	26	104	0	73	36455
2026-01-11 03:12:43.11	231.45	17.45	-53.0	-72.4	3.8	7.49e-01	0	27	104	0	73	36471
2026-01-11 03:12:43.83	231.40	17.36	-53.0	-72.4	3.8	7.46e-01	0	27	104	0	73	36451
2026-01-11 03:12:45.11	231.31	17.20	-53.0	-72.4	3.8	7.48e-01	0	27	104	0	73	36474
2026-01-11 03:12:45.85	231.26	17.10	-53.0	-72.4	3.8	7.46e-01	0	27	104	0	73	36441
2026-01-11 03:12:47.14	231.18	16.94	-53.1	-72.4	3.8	7.45e-01	0	26	104	0	73	36486
2026-01-11 03:12:47.85	231.13	16.85	-53.1	-72.4	3.8	7.48e-01	0	27	104	0	73	36447
2026-01-11 03:12:49.15	231.04	16.69	-53.0	-72.4	3.8	7.48e-01	0	27	104	0	73	36472
2026-01-11 03:12:49.88	231.00	16.61	-53.1	-72.4	3.8	7.48e-01	0	27	104	0	73	36473
2026-01-11 03:12:51.15	230.92	16.45	-53.1	-72.5	3.8	7.48e-01	0	27	104	0	73	36574
2026-01-11 03:12:51.90	230.87	16.36	-53.0	-72.4	3.8	7.45e-01	0	27	104	0	73	36478
2026-01-11 03:12:53.19	230.79	16.20	-53.1	-72.4	3.8	7.46e-01	0	27	104	0	73	36438
2026-01-11 03:12:53.90	230.74	16.12	-53.0	-72.5	3.8	7.47e-01	0	27	104	0	73	36543
2026-01-11 03:12:55.21	230.66	15.96	-53.1	-72.4	3.8	7.48e-01	0	27	104	0	73	36492
2026-01-11 03:12:55.92	230.62	15.88	-53.1	-72.4	3.8	7.45e-01	0	27	104	0	73	36518
2026-01-11 03:12:57.21	230.54	15.73	-53.1	-72.4	3.8	7.46e-01	0	26	104	0	73	36506
2026-01-11 03:12:57.93	230.50	15.64	-53.1	-72.4	3.8	7.45e-01	0	27	104	0	73	36511
2026-01-11 03:12:59.22	230.42	15.49	-53.1	-72.5	3.8	7.45e-01	0	27	104	0	73	36544
2026-01-11 03:12:59.93	230.38	15.41	-53.1	-72.4	3.8	7.48e-01	0	27	104	0	73	36509
2026-01-11 03:13:01.22	230.30	15.26	-53.1	-72.4	3.8	7.44e-01	0	27	104	0	73	36487
2026-01-11 03:13:01.94	230.26	15.18	-53.1	-72.4	3.8	7.48e-01	0	27	104	0	73	36504
2026-01-11 03:13:03.23	230.18	15.03	-53.1	-72.4	3.8	7.51e-01	0	27	104	0	73	36520
2026-01-11 03:13:03.93	230.14	14.95	-53.1	-72.4	3.8	7.45e-01	0	27	104	0	73	36493
2026-01-11 03:13:05.23	230.07	14.80	-53.1	-72.4	3.8	7.42e-01	0	27	104	0	73	36431
2026-01-11 03:13:05.95	230.03	14.72	-53.1	-72.5	3.8	7.45e-01	0	27	104	0	73	36626
2026-01-11 03:13:07.24	229.96	14.57	-53.1	-72.5	3.8	7.50e-01	0	27	104	0	73	36546
2026-01-11 03:13:07.97	229.92	14.49	-53.1	-72.4	3.8	7.45e-01	0	27	104	0	73	36518
2026-01-11 03:13:09.26	229.85	14.35	-53.1	-72.4	3.8	7.47e-01	0	27	104	0	73	36484
2026-01-11 03:13:09.97	229.81	14.27	-53.1	-72.4	3.8	7.41e-01	0	27	104	0	73	36451
2026-01-11 03:13:11.26	229.74	14.13	-53.1	-72.4	3.8	7.46e-01	0	27	104	0	73	36446
2026-01-11 03:13:11.96	229.70	14.05	-53.1	-72.4	3.8	7.43e-01	0	27	104	0	73	36461
2026-01-11 03:13:13.27	229.63	13.91	-53.1	-72.5	3.8	7.49e-01	0	27	104	0	73	36615
2026-01-11 03:13:13.99	229.60	13.83	-53.1	-72.4	3.8	7.45e-01	0	27	104	0	73	36496
2026-01-11 03:13:15.28	229.53	13.69	-53.0	-72.5	3.8	7.46e-01	0	27	104	0	73	36551
2026-01-11 03:13:15.99	229.49	13.61	-53.1	-72.4	3.8	7.48e-01	0	27	104	0	73	36476
2026-01-11 03:13:17.28	229.43	13.48	-53.1	-72.4	3.8	7.45e-01	0	27	104	0	73	36474
2026-01-11 03:13:17.99	229.39	13.40	-53.1	-72.5	3.8	7.45e-01	0	27	104	0	73	36559
2026-01-11 03:13:19.27	229.33	13.26	-53.1	-72.5	3.8	7.46e-01	0	27	104	0	73	36575
2026-01-11 03:13:19.99	229.29	13.19	-53.1	-72.5	3.8	7.47e-01	0	27	104	0	73	36664
2026-01-11 03:13:21.27	229.23	13.05	-53.1	-72.4	3.8	7.46e-01	0	26	104	0	73	36492
2026-01-11 03:13:22.00	229.19	12.98	-53.1	-72.5	3.8	7.45e-01	0	27	104	0	73	36553
2026-01-11 03:13:23.29	229.13	12.84	-53.1	-72.5	3.8	7.47e-01	0	27	104	0	73	36533
2026-01-11 03:13:24.01	229.09	12.77	-53.1	-72.4	3.8	7.46e-01	0	27	104	0	73	36518
2026-01-11 03:13:25.30	229.03	12.63	-53.1	-72.5	3.8	7.44e-01	0	27	104	0	73	36544
2026-01-11 03:13:26.01	229.00	12.56	-53.1	-72.4	3.8	7.43e-01	0	27	104	0	73	36451
2026-01-11 03:13:27.31	228.93	12.43	-53.1	-72.5	3.8	7.43e-01	0	27	104	0	73	36588
2026-01-11 03:13:28.02	228.90	12.36	-53.1	-72.5	3.8	7.47e-01	0	27	104	0	73	36531
2026-01-11 03:13:29.31	228.84	12.22	-53.1	-72.5	3.8	7.44e-01	0	27	104	0	73	36664
2026-01-11 03:13:30.04	228.81	12.15	-53.1	-72.5	3.8	7.47e-01	0	27	104	0	73	36537
2026-01-11 03:13:31.33	228.75	12.02	-53.1	-72.5	3.8	7.45e-01	0	27	104	0	73	36578
2026-01-11 03:13:32.06	228.72	11.95	-53.0	-72.4	3.8	7.46e-01	0	27	104	0	73	36467
2026-01-11 03:13:33.34	228.66	11.82	-53.0	-72.5	3.8	7.48e-01	0	27	104	0	73	36630
2026-01-11 03:13:34.06	228.63	11.75	-53.1	-72.5	3.8	7.49e-01	0	27	104	0	73	36547
2026-01-11 03:13:35.36	228.57	11.62	-53.1	-72.5	3.8	7.47e-01	0	27	104	0	73	36539
2026-01-11 03:13:36.07	228.54	11.55	-53.1	-72.5	3.8	7.46e-01	0	27	104	0	73	36534
2026-01-11 03:13:37.35	228.48	11.43	-53.1	-72.4	3.8	7.46e-01	0	27	104	0	73	36495
2026-01-11 03:13:38.08	228.45	11.35	-53.1	-72.4	3.8	7.47e-01	0	27	104	0	73	36493
2026-01-11 03:13:39.37	228.39	11.23	-53.1	-72.5	3.8	7.49e-01	0	27	104	0	73	36530
2026-01-11 03:13:40.09	228.36	11.16	-53.1	-72.4	3.8	7.43e-01	0	26	104	0	73	36482
2026-01-11 03:13:41.38	228.31	11.04	-53.1	-72.5	3.8	7.46e-01	0	27	104	0	73	36527
2026-01-11 03:13:42.09	228.28	10.97	-53.1	-72.5	3.8	7.49e-01	0	27	104	0	73	36542
2026-01-11 03:13:43.38	228.23	10.84	-53.1	-72.4	3.8	7.51e-01	0	27	104	0	73	36522
2026-01-11 03:13:44.09	228.20	10.78	-53.1	-72.5	3.8	7.48e-01	0	27	104	0	73	36545
2026-01-11 03:13:45.39	228.14	10.65	-53.0	-72.4	3.8	7.51e-01	0	27	104	0	73	36484
2026-01-11 03:13:46.10	228.11	10.59	-53.0	-72.4	3.8	7.51e-01	0	27	104	0	73	36523
2026-01-11 03:13:47.39	228.06	10.47	-53.1	-72.5	3.8	7.47e-01	0	27	104	0	73	36586
2026-01-11 03:13:48.10	228.03	10.40	-53.0	-72.5	3.8	7.46e-01	0	27	104	0	73	36563
2026-01-11 03:13:49.39	227.98	10.28	-53.1	-72.4	3.8	7.47e-01	0	27	104	0	73	36450
2026-01-11 03:13:50.11	227.95	10.21	-53.1	-72.5	3.8	7.44e-01	0	27	104	0	73	36565
2026-01-11 03:13:51.40	227.90	10.09	-53.1	-72.5	3.8	7.47e-01	0	26	104	0	73	36549
2026-01-11 03:13:52.11	227.88	10.03	-53.1	-72.5	3.8	7.47e-01	0	27	104	0	73	36529
2026-01-11 03:13:53.40	227.83	9.91	-53.1	-72.5	3.8	7.49e-01	0	27	104	0	73	36550
2026-01-11 03:13:54.12	227.80	9.84	-53.1	-72.5	3.8	7.45e-01	0	27	104	0	73	36560
2026-01-11 03:13:55.42	227.75	9.72	-53.0	-72.4	3.8	7.46e-01	0	26	104	0	73	36443
2026-01-11 03:13:56.14	227.72	9.66	-53.1	-72.4	3.8	7.47e-01	0	27	104	0	73	36500
2026-01-11 03:13:57.44	227.67	9.54	-53.1	-72.5	3.8	7.44e-01	0	27	104	0	73	36614
2026-01-11 03:13:58.15	227.65	9.48	-53.1	-72.4	3.8	7.47e-01	0	27	104	0	73	36519
2026-01-11 03:13:59.44	227.60	9.36	-53.1	-72.5	3.8	7.47e-01	0	27	104	0	73	36569
2026-01-11 03:14:00.18	227.57	9.30	-53.1	-72.5	3.8	7.45e-01	0	27	104	0	73	36572
2026-01-11 03:14:01.46	227.52	9.18	-53.0	-72.4	3.8	7.44e-01	0	26	104	0	73	36441
2026-01-11 03:14:02.20	227.50	9.12	-53.0	-72.5	3.8	7.45e-01	0	27	104	0	73	36620
2026-01-11 03:14:03.49	227.45	9.00	-53.0	-72.5	3.8	7.44e-01	0	27	104	0	73	36550
2026-01-11 03:14:04.20	227.43	8.94	-53.1	-72.5	3.8	7.50e-01	0	27	104	0	73	36537
2026-01-11 03:14:05.50	227.38	8.83	-53.1	-72.5	3.8	7.46e-01	0	27	104	0	73	36546
2026-01-11 03:14:06.21	227.35	8.77	-53.1	-72.4	3.8	7.48e-01	0	27	104	0	73	36510
2026-01-11 03:14:07.50	227.31	8.65	-53.1	-72.4	3.8	7.45e-01	0	27	104	0	73	36520
2026-01-11 03:14:08.23	227.28	8.59	-53.0	-72.4	3.8	7.50e-01	0	27	104	0	73	36480
2026-01-11 03:14:09.52	227.24	8.48	-53.1	-72.5	3.8	7.47e-01	0	27	104	0	73	36534
2026-01-11 03:14:10.23	227.22	8.42	-53.1	-72.4	3.8	7.46e-01	0	27	104	0	73	36463
2026-01-11 03:14:11.52	227.17	8.31	-53.1	-72.4	3.9	7.47e-01	0	27	104	0	73	36479
2026-01-11 03:14:12.25	227.15	8.25	-53.0	-72.5	3.8	7.45e-01	0	27	104	0	73	36542
2026-01-11 03:14:13.55	227.10	8.14	-53.0	-72.4	3.8	7.43e-01	0	27	104	0	73	36470
2026-01-11 03:14:14.27	227.08	8.08	-53.0	-72.5	3.8	7.46e-01	0	27	104	0	73	36535
2026-01-11 03:14:15.55	227.04	7.97	-53.0	-72.4	3.8	7.45e-01	0	27	104	0	73	36465
2026-01-11 03:14:16.27	227.01	7.91	-53.1	-72.5	3.8	7.45e-01	0	27	104	0	73	36526
2026-01-11 03:14:17.56	226.97	7.80	-53.1	-72.5	3.8	7.44e-01	0	26	104	0	73	36568
2026-01-11 03:14:18.27	226.95	7.74	-53.1	-72.4	3.8	7.44e-01	0	27	104	0	73	36514
2026-01-11 03:14:19.56	226.91	7.63	-53.0	-72.5	3.8	7.47e-01	0	27	104	0	73	36563
2026-01-11 03:14:20.27	226.88	7.57	-53.1	-72.5	3.8	7.47e-01	0	27	104	0	73	36540
2026-01-11 03:14:21.56	226.84	7.47	-53.1	-72.5	3.8	7.46e-01	0	27	104	0	73	36559
2026-01-11 03:14:22.26	226.82	7.41	-53.1	-72.5	3.8	7.50e-01	0	27	104	0	73	36591
2026-01-11 03:14:23.55	226.78	7.30	-53.1	-72.5	3.8	7.44e-01	0	27	104	0	73	36570
2026-01-11 03:14:24.27	226.76	7.25	-53.1	-72.5	3.8	7.46e-01	0	27	104	0	73	36625
2026-01-11 03:14:25.57	226.72	7.14	-53.1	-72.5	3.8	7.46e-01	0	27	104	0	73	36625
2026-01-11 03:14:26.29	226.70	7.08	-53.1	-72.5	3.8	7.46e-01	0	27	104	0	73	36582
2026-01-11 03:14:27.59	226.66	6.98	-53.1	-72.4	3.8	7.47e-01	0	27	104	0	73	36522
2026-01-11 03:14:28.30	226.64	6.92	-53.1	-72.5	3.8	7.44e-01	0	27	104	0	73	36586
2026-01-11 03:14:29.59	226.60	6.82	-53.1	-72.5	3.8	7.45e-01	0	27	104	0	73	36593
2026-01-11 03:14:30.31	226.58	6.76	-53.1	-72.4	3.8	7.48e-01	0	27	104	0	73	36479
2026-01-11 03:14:31.60	226.54	6.65	-53.1	-72.4	3.8	7.44e-01	0	27	104	0	73	36510
2026-01-11 03:14:32.31	226.52	6.60	-53.1	-72.5	3.8	7.46e-01	0	27	104	0	73	36591
2026-01-11 03:14:33.60	226.48	6.50	-53.1	-72.5	3.8	7.44e-01	0	27	104	0	73	36602
2026-01-11 03:14:34.32	226.46	6.44	-53.1	-72.4	3.8	7.44e-01	0	27	104	0	73	36474
2026-01-11 03:14:35.62	226.42	6.34	-53.1	-72.4	3.8	7.45e-01	0	27	104	0	73	36513
2026-01-11 03:14:36.33	226.40	6.28	-53.1	-72.5	3.8	7.47e-01	0	27	104	0	73	36578
2026-01-11 03:14:37.61	226.36	6.18	-53.1	-72.5	3.8	7.48e-01	0	27	104	0	73	36562
2026-01-11 03:14:38.33	226.34	6.13	-53.1	-72.5	3.8	7.47e-01	0	27	104	0	73	36530
2026-01-11 03:14:39.61	226.31	6.03	-53.1	-72.5	3.8	7.46e-01	0	27	104	0	73	36639
2026-01-11 03:14:40.33	226.29	5.97	-53.1	-72.4	3.8	7.46e-01	0	27	104	0	73	36488
2026-01-11 03:14:41.62	226.25	5.87	-53.1	-72.5	3.8	7.47e-01	0	27	104	0	73	36614
2026-01-11 03:14:42.33	226.23	5.82	-53.1	-72.5	3.8	7.44e-01	0	27	104	0	73	36578
2026-01-11 03:14:43.63	226.20	5.72	-53.1	-72.5	3.8	7.48e-01	0	27	104	0	73	36561
2026-01-11 03:14:44.34	226.18	5.66	-53.1	-72.5	3.8	7.46e-01	0	27	104	0	73	36657
2026-01-11 03:14:45.63	226.14	5.56	-53.1	-72.5	3.8	7.48e-01	0	27	104	0	73	36582
2026-01-11 03:14:46.35	226.12	5.51	-53.1	-72.5	3.8	7.45e-01	0	27	104	0	73	36676
2026-01-11 03:14:47.64	226.09	5.41	-53.1	-72.5	3.8	7.43e-01	0	27	104	0	73	36611
2026-01-11 03:14:48.36	226.07	5.36	-53.1	-72.5	3.8	7.48e-01	0	27	104	0	73	36636
2026-01-11 03:14:49.64	226.03	5.26	-53.1	-72.5	3.8	7.47e-01	0	27	104	0	73	36606
2026-01-11 03:14:50.36	226.02	5.21	-53.1	-72.5	3.8	7.47e-01	0	27	104	0	73	36639
2026-01-11 03:14:51.66	225.98	5.11	-53.1	-72.5	3.8	7.48e-01	0	27	104	0	73	36586
2026-01-11 03:14:52.37	225.96	5.06	-53.1	-72.5	3.8	7.46e-01	0	27	104	0	73	36635
2026-01-11 03:14:53.66	225.93	4.96	-53.1	-72.5	3.8	7.46e-01	0	27	104	0	73	36592
2026-01-11 03:14:54.39	225.91	4.91	-53.1	-72.5	3.8	7.47e-01	0	27	104	0	73	36655
2026-01-11 03:14:55.68	225.88	4.81	-53.1	-72.5	3.8	7.46e-01	0	27	104	0	73	36610
2026-01-11 03:14:56.39	225.86	4.76	-53.1	-72.5	3.8	7.48e-01	0	27	104	0	73	36669
2026-01-11 03:14:57.68	225.83	4.66	-53.1	-72.5	3.8	7.43e-01	0	27	104	0	73	36638
2026-01-11 03:14:58.40	225.81	4.61	-53.1	-72.5	3.8	7.45e-01	0	27	104	0	73	36660
2026-01-11 03:14:59.68	225.78	4.52	-53.1	-72.5	3.8	7.46e-01	0	27	104	0	73	36710
2026-01-11 03:15:00.39	225.76	4.47	-53.1	-72.5	3.8	7.48e-01	0	27	104	0	73	36634
2026-01-11 03:15:01.70	225.73	4.37	-53.1	-72.5	3.8	7.49e-01	0	27	104	0	73	36660
2026-01-11 03:15:02.41	225.71	4.32	-53.1	-72.5	3.8	7.50e-01	0	27	104	0	73	36600
2026-01-11 03:15:03.70	225.68	4.23	-53.1	-72.5	3.8	7.46e-01	0	27	104	0	73	36640
2026-01-11 03:15:04.42	225.66	4.18	-53.1	-72.5	3.8	7.46e-01	0	27	104	0	73	36613
2026-01-11 03:15:05.71	225.63	4.08	-53.1	-72.5	3.8	7.45e-01	0	27	104	0	73	36630
2026-01-11 03:15:06.43	225.62	4.03	-53.1	-72.5	3.8	7.48e-01	0	27	104	0	73	36590
2026-01-11 03:15:07.72	225.59	3.94	-53.1	-72.5	3.8	7.47e-01	0	27	104	0	73	36552
2026-01-11 03:15:08.43	225.57	3.89	-53.1	-72.5	3.8	7.47e-01	0	27	104	0	73	36576
2026-01-11 03:15:09.72	225.54	3.80	-53.1	-72.5	3.8	7.47e-01	0	27	104	0	73	36602
2026-01-11 03:15:10.44	225.52	3.75	-53.1	-72.5	3.8	7.48e-01	0	27	104	0	73	36662
2026-01-11 03:15:11.72	225.49	3.66	-53.1	-72.5	3.8	7.44e-01	0	27	104	0	73	36769
2026-01-11 03:15:12.44	225.48	3.61	-53.1	-72.5	3.8	7.47e-01	0	27	104	0	73	36745
2026-01-11 03:15:13.73	225.45	3.52	-53.1	-72.5	3.8	7.45e-01	0	27	104	0	73	36592
2026-01-11 03:15:14.44	225.43	3.47	-53.1	-72.5	3.9	7.47e-01	0	27	104	0	73	36574
2026-01-11 03:15:15.74	225.40	3.38	-53.1	-72.4	3.8	7.44e-01	0	27	104	0	73	36516
2026-01-11 03:15:16.45	225.39	3.33	-53.1	-72.5	3.8	7.46e-01	0	27	104	0	73	36546
2026-01-11 03:15:17.75	225.36	3.24	-53.1	-72.5	3.8	7.50e-01	0	27	104	0	73	36676
2026-01-11 03:15:18.46	225.34	3.19	-53.1	-72.5	3.8	7.48e-01	0	27	104	0	73	36588
