passes_logs/2026/01/11/R3.2S_Murmansk/R3.2S_Murmansk__20260111_221715_NOAA_21_JPSS-2_rec.log

#Pass ID: 20260111_221715_NOAA 21 (JPSS-2)
#Satellite: NOAA 21 (JPSS-2)
#Configuration: NOAA-21
#almurnet v.1.7.20251203
#Start time: 2026-01-11 22:17:17

#Version: 2.2.20231116
#Station: R3.2S_Murmansk
#Location: 33.079688 lon 68.888172 lat
#TLE: 1 54234U 22150A   26011.55893233  .00000075  00000+0  56634-4 0  9995
#TLE: 2 54234  98.7494 312.5004 0000755 313.1908  46.9205 14.19534095164321

#Time	Az	El	Level	Level2	SNR	BER	BlckErr	Temp	State	Recorded	gain1	gain2
2026-01-11 22:17:17.08	18.79	2.08	-57.1	-70.7	3.8	1.49e+00	0	21	0	0	80	17241
2026-01-11 22:17:18.08	18.86	2.13	-57.0	-70.6	3.8	1.49e+00	0	21	104	0	79	18018
2026-01-11 22:17:19.09	18.94	2.19	-57.0	-70.6	3.8	1.49e+00	0	21	104	0	79	17981
2026-01-11 22:17:20.10	19.01	2.24	-57.0	-70.6	3.8	1.49e+00	0	21	104	0	79	17991
2026-01-11 22:17:21.10	19.08	2.30	-57.0	-70.6	3.8	1.49e+00	0	21	104	0	79	18011
2026-01-11 22:17:22.11	19.16	2.35	-57.0	-70.7	3.8	1.49e+00	0	21	104	0	79	18251
2026-01-11 22:17:23.12	19.23	2.41	-57.1	-70.7	3.8	1.49e+00	0	21	104	0	79	18303
2026-01-11 22:17:24.13	19.30	2.47	-57.1	-70.8	3.8	1.49e+00	0	21	104	0	79	18376
2026-01-11 22:17:25.14	19.38	2.52	-57.1	-70.8	3.8	1.49e+00	0	21	104	0	79	18387
2026-01-11 22:17:26.15	19.45	2.58	-57.1	-70.8	3.8	1.49e+00	0	21	104	0	79	18369
2026-01-11 22:17:27.16	19.52	2.63	-57.1	-70.8	3.8	1.49e+00	0	21	104	0	79	18403
2026-01-11 22:17:28.17	19.60	2.69	-57.0	-70.7	3.8	1.49e+00	0	21	104	0	79	18289
2026-01-11 22:17:29.18	19.67	2.74	-57.0	-70.8	3.8	1.49e+00	0	21	104	0	79	18382
2026-01-11 22:17:30.19	19.75	2.80	-57.0	-70.8	3.8	1.49e+00	0	21	104	0	79	18376
2026-01-11 22:17:31.19	19.82	2.86	-57.0	-70.8	3.8	1.49e+00	0	21	104	0	79	18446
2026-01-11 22:17:32.20	19.90	2.91	-57.1	-70.8	3.8	1.49e+00	0	21	104	0	79	18342
2026-01-11 22:17:33.22	19.98	2.97	-57.0	-70.6	3.8	1.49e+00	0	21	104	0	79	17918
2026-01-11 22:17:34.22	20.05	3.02	-57.0	-70.4	3.8	1.49e+00	0	21	104	0	79	17594
2026-01-11 22:17:35.23	20.13	3.08	-57.0	-70.0	3.8	1.49e+00	0	21	104	0	79	16788
2026-01-11 22:17:36.24	20.21	3.14	-57.0	-69.6	3.8	1.49e+00	0	21	104	0	79	16121
2026-01-11 22:17:37.25	20.28	3.19	-57.0	-69.2	3.9	1.49e+00	0	21	104	0	79	15395
2026-01-11 22:17:38.26	20.36	3.25	-57.0	-69.3	3.8	1.49e+00	0	21	104	0	79	15526
2026-01-11 22:17:39.26	20.44	3.31	-57.0	-69.6	3.8	1.49e+00	0	21	104	0	79	15979
2026-01-11 22:17:40.28	20.52	3.36	-57.0	-69.7	3.8	1.49e+00	0	21	104	0	79	16141
2026-01-11 22:17:41.29	20.59	3.42	-56.9	-68.9	3.9	1.49e+00	0	21	104	0	79	14713
2026-01-11 22:17:42.29	20.67	3.48	-57.0	-69.4	3.8	1.49e+00	0	22	104	0	79	15595
2026-01-11 22:17:43.30	20.75	3.53	-57.0	-69.7	3.8	1.49e+00	0	21	104	0	79	16204
2026-01-11 22:17:44.31	20.83	3.59	-56.9	-69.0	3.8	1.49e+00	0	21	104	0	79	14893
2026-01-11 22:17:45.32	20.91	3.65	-56.8	-67.1	4.2	1.47e+00	0	21	104	0	79	12026
2026-01-11 22:17:46.33	20.99	3.70	-56.8	-66.6	4.4	1.41e+00	0	22	104	0	79	11332
2026-01-11 22:17:47.34	21.07	3.76	-56.7	-66.2	4.5	1.08e+00	0	22	104	0	79	10868
2026-01-11 22:17:48.35	21.15	3.82	-56.7	-66.1	4.5	1.11e+00	2	21	104	0	79	10760
2026-01-11 22:17:49.36	21.23	3.88	-56.7	-66.2	4.6	1.24e+00	0	21	104	0	79	10815
2026-01-11 22:17:50.37	21.31	3.93	-56.7	-65.8	4.7	9.56e-01	2	22	104	0	79	10388
2026-01-11 22:17:51.38	21.39	3.99	-56.5	-64.3	5.5	5.39e-01	0	22	0	0	79	8736
2026-01-11 22:17:52.38	21.47	4.05	-56.2	-63.0	6.4	2.83e-01	0	22	0	3145728	79	7472
2026-01-11 22:17:53.39	21.55	4.11	-55.9	-62.0	7.2	1.20e-01	0	22	0	6291456	78	7105
2026-01-11 22:17:54.40	21.64	4.16	-55.2	-59.8	9.2	1.51e-02	0	22	0	9437184	77	5819
2026-01-11 22:17:55.41	21.72	4.22	-54.4	-58.2	10.5	1.92e-03	0	22	0	12582912	75	5434
2026-01-11 22:17:56.42	21.80	4.28	-53.7	-56.8	11.6	1.72e-04	0	22	0	15728640	74	4915
2026-01-11 22:17:57.43	21.88	4.34	-53.3	-56.2	12.1	3.58e-05	0	22	0	18874368	73	4815
2026-01-11 22:17:58.44	21.97	4.40	-52.6	-55.1	12.7	2.20e-06	0	22	0	22020096	71	4793
2026-01-11 22:17:59.45	22.05	4.45	-51.9	-54.2	13.3	7.00e-07	0	22	0	25165824	70	4552
2026-01-11 22:18:00.46	22.13	4.51	-52.0	-54.3	13.2	0.00e+00	0	22	0	28311552	70	4619
2026-01-11 22:18:01.47	22.22	4.57	-52.1	-54.5	13.1	0.00e+00	0	22	0	31457280	70	4708
2026-01-11 22:18:02.47	22.30	4.63	-52.4	-54.8	12.8	0.00e+00	0	22	0	34603008	70	4891
2026-01-11 22:18:03.48	22.39	4.69	-52.8	-55.6	12.2	2.20e-06	0	22	0	37748736	70	5353
2026-01-11 22:18:04.49	22.47	4.75	-53.1	-56.0	12.0	1.14e-05	0	22	0	40894464	71	5333
2026-01-11 22:18:05.50	22.56	4.80	-53.8	-57.2	11.0	9.23e-05	0	22	0	44040192	72	5781
2026-01-11 22:18:06.51	22.64	4.86	-54.8	-59.1	9.6	3.27e-03	0	22	0	47185920	74	6382
2026-01-11 22:18:07.52	22.73	4.92	-55.1	-59.9	8.9	1.24e-02	0	22	0	50331648	75	6622
2026-01-11 22:18:08.52	22.81	4.98	-55.3	-60.5	8.3	1.66e-02	0	22	0	53477376	75	7092
2026-01-11 22:18:09.53	22.90	5.04	-54.7	-58.6	10.2	5.45e-02	0	22	0	56623104	76	5363
2026-01-11 22:18:10.54	22.99	5.10	-53.6	-56.6	11.7	1.09e-04	0	22	0	59768832	73	5085
2026-01-11 22:18:11.55	23.08	5.16	-55.8	-61.6	7.6	2.04e-03	0	22	0	62914560	76	7605
2026-01-11 22:18:12.56	23.16	5.22	-56.2	-63.5	6.0	8.04e-01	0	22	104	63963136	78	8382
2026-01-11 22:18:13.56	23.25	5.28	-53.2	-55.9	12.2	4.56e-02	0	22	0	66060288	73	4670
2026-01-11 22:18:14.57	23.34	5.33	-52.3	-54.7	13.0	7.00e-07	0	22	0	69206016	70	4817
2026-01-11 22:18:15.58	23.43	5.39	-52.2	-54.5	13.2	0.00e+00	0	22	0	73400320	70	4730
2026-01-11 22:18:16.59	23.52	5.45	-52.5	-55.0	12.8	0.00e+00	0	22	0	76546048	70	4990
2026-01-11 22:18:17.60	23.61	5.51	-52.4	-54.8	12.9	0.00e+00	0	22	0	79691776	70	4911
2026-01-11 22:18:18.61	23.70	5.57	-52.5	-54.9	12.9	7.00e-07	0	22	0	82837504	70	4928
2026-01-11 22:18:19.61	23.79	5.63	-52.6	-55.0	12.7	0.00e+00	0	22	0	84934656	70	5041
2026-01-11 22:18:20.62	23.88	5.69	-52.4	-54.7	12.9	0.00e+00	0	22	0	88080384	70	4866
2026-01-11 22:18:21.63	23.97	5.75	-52.3	-54.7	13.0	0.00e+00	0	22	0	92274688	70	4819
2026-01-11 22:18:22.64	24.06	5.81	-52.4	-54.8	12.9	0.00e+00	0	22	0	95420416	70	4915
2026-01-11 22:18:23.64	24.15	5.87	-52.2	-54.5	13.1	0.00e+00	0	22	0	98566144	70	4744
2026-01-11 22:18:24.65	24.24	5.93	-51.8	-53.8	13.7	0.00e+00	0	22	0	101711872	70	4389
2026-01-11 22:18:25.66	24.33	5.99	-51.6	-53.6	13.7	0.00e+00	0	22	0	104857600	69	4519
2026-01-11 22:18:26.67	24.43	6.05	-51.5	-53.5	13.7	0.00e+00	0	22	0	106954752	69	4492
2026-01-11 22:18:27.67	24.52	6.11	-51.5	-53.5	13.8	0.00e+00	0	22	0	110100480	69	4454
2026-01-11 22:18:28.68	24.61	6.17	-51.4	-53.3	13.9	0.00e+00	0	22	0	114294784	69	4383
2026-01-11 22:18:29.69	24.70	6.23	-51.1	-53.0	14.0	0.00e+00	0	22	0	117440512	68	4472
2026-01-11 22:18:30.70	24.80	6.29	-51.0	-52.8	14.1	0.00e+00	0	22	0	120586240	68	4357
2026-01-11 22:18:31.71	24.89	6.35	-51.1	-53.0	14.0	0.00e+00	0	22	0	123731968	68	4483
2026-01-11 22:18:32.71	24.99	6.41	-51.1	-52.9	14.0	0.00e+00	0	22	0	126877696	68	4429
2026-01-11 22:18:33.71	25.08	6.47	-51.0	-52.8	14.1	0.00e+00	0	22	0	130023424	68	4372
2026-01-11 22:18:34.73	25.18	6.54	-51.8	-53.9	13.4	0.00e+00	0	22	0	132120576	68	4948
2026-01-11 22:18:35.74	25.27	6.60	-51.4	-53.4	13.7	0.00e+00	0	22	0	136314880	68	4658
2026-01-11 22:18:36.74	25.37	6.66	-50.5	-52.2	14.4	0.00e+00	0	22	0	139460608	67	4324
2026-01-11 22:18:37.75	25.47	6.72	-50.4	-52.1	14.4	0.00e+00	0	22	0	142606336	67	4286
2026-01-11 22:18:38.76	25.56	6.78	-50.7	-52.5	14.1	0.00e+00	0	22	0	145752064	67	4476
2026-01-11 22:18:39.77	25.66	6.84	-50.8	-52.6	14.1	0.00e+00	0	22	0	148897792	67	4503
2026-01-11 22:18:40.78	25.76	6.90	-50.6	-52.4	14.2	0.00e+00	0	22	0	152043520	67	4397
2026-01-11 22:18:41.78	25.86	6.96	-50.5	-52.2	14.3	0.00e+00	0	22	0	155189248	67	4330
2026-01-11 22:18:42.79	25.95	7.03	-50.5	-52.2	14.4	0.00e+00	0	22	0	158334976	67	4302
2026-01-11 22:18:43.80	26.05	7.09	-50.6	-52.3	14.3	0.00e+00	0	22	0	161480704	67	4371
2026-01-11 22:18:44.81	26.15	7.15	-50.4	-52.0	14.4	0.00e+00	0	22	0	164626432	67	4238
2026-01-11 22:18:45.81	26.25	7.21	-50.4	-52.0	14.5	0.00e+00	0	22	0	167772160	67	4235
2026-01-11 22:18:46.83	26.35	7.27	-50.5	-52.2	14.3	0.00e+00	0	22	0	170917888	67	4333
2026-01-11 22:18:47.83	26.45	7.33	-50.5	-52.2	14.4	0.00e+00	0	22	0	174063616	67	4307
2026-01-11 22:18:48.84	26.55	7.40	-50.5	-52.2	14.4	0.00e+00	0	22	0	177209344	67	4317
2026-01-11 22:18:49.85	26.65	7.46	-50.6	-52.4	14.2	0.00e+00	0	22	0	180355072	67	4405
2026-01-11 22:18:50.86	26.76	7.52	-50.2	-51.9	14.6	0.00e+00	0	22	0	183500800	67	4151
2026-01-11 22:18:51.87	26.86	7.58	-50.2	-51.9	14.4	0.00e+00	0	22	0	186646528	66	4401
2026-01-11 22:18:52.88	26.96	7.65	-50.5	-52.2	14.2	0.00e+00	0	22	0	189792256	66	4554
2026-01-11 22:18:53.89	27.06	7.71	-50.2	-51.8	14.5	0.00e+00	0	22	0	192937984	66	4360
2026-01-11 22:18:54.90	27.17	7.77	-50.3	-51.9	14.4	0.00e+00	0	22	0	196083712	66	4440
2026-01-11 22:18:55.90	27.27	7.83	-50.2	-51.8	14.5	0.00e+00	0	22	0	199229440	66	4361
2026-01-11 22:18:56.91	27.38	7.90	-50.0	-51.6	14.6	0.00e+00	0	22	0	202375168	66	4248
2026-01-11 22:18:57.92	27.48	7.96	-50.1	-51.7	14.6	0.00e+00	0	22	0	205520896	66	4303
2026-01-11 22:18:58.93	27.59	8.02	-50.0	-51.6	14.6	0.00e+00	0	22	0	208666624	66	4250
2026-01-11 22:18:59.94	27.69	8.08	-50.2	-51.8	14.5	0.00e+00	0	22	0	211812352	66	4362
2026-01-11 22:19:00.95	27.80	8.15	-50.2	-51.8	14.4	0.00e+00	0	23	0	214958080	66	4385
2026-01-11 22:19:01.96	27.90	8.21	-50.3	-52.0	14.4	0.00e+00	0	22	0	218103808	66	4445
2026-01-11 22:19:02.97	28.01	8.27	-50.1	-51.7	14.5	0.00e+00	0	22	0	221249536	66	4300
2026-01-11 22:19:03.98	28.12	8.34	-50.1	-51.7	14.6	0.00e+00	0	22	0	224395264	66	4301
2026-01-11 22:19:04.99	28.23	8.40	-50.2	-51.8	14.5	0.00e+00	0	22	0	227540992	66	4367
2026-01-11 22:19:06.00	28.33	8.46	-50.1	-51.8	14.5	0.00e+00	0	22	0	230686720	66	4341
2026-01-11 22:19:07.01	28.44	8.53	-50.1	-51.7	14.5	0.00e+00	0	22	0	233832448	66	4339
2026-01-11 22:19:08.01	28.55	8.59	-50.0	-51.6	14.6	0.00e+00	0	22	0	236978176	66	4246
2026-01-11 22:19:09.02	28.66	8.65	-50.1	-51.7	14.6	0.00e+00	0	22	0	240123904	66	4296
2026-01-11 22:19:10.03	28.77	8.72	-50.0	-51.5	14.6	0.00e+00	0	22	0	243269632	66	4232
2026-01-11 22:19:11.04	28.88	8.78	-49.9	-51.5	14.7	0.00e+00	0	22	0	246415360	66	4197
2026-01-11 22:19:12.05	28.99	8.84	-49.9	-51.5	14.7	0.00e+00	0	22	0	249561088	66	4218
2026-01-11 22:19:13.06	29.10	8.91	-50.1	-51.7	14.6	0.00e+00	0	22	0	252706816	66	4292
2026-01-11 22:19:14.07	29.22	8.97	-49.9	-51.5	14.7	0.00e+00	0	22	0	255852544	66	4211
2026-01-11 22:19:15.08	29.33	9.04	-49.8	-51.3	14.8	0.00e+00	0	22	0	258998272	66	4126
2026-01-11 22:19:16.09	29.44	9.10	-49.8	-51.3	14.8	0.00e+00	0	22	0	262144000	66	4110
2026-01-11 22:19:17.10	29.56	9.16	-49.6	-51.1	14.8	0.00e+00	0	22	0	265289728	65	4276
2026-01-11 22:19:18.11	29.67	9.23	-49.6	-51.1	14.7	0.00e+00	0	22	0	268435456	65	4286
2026-01-11 22:19:19.12	29.78	9.29	-49.5	-51.0	14.8	0.00e+00	0	22	0	271581184	65	4238
2026-01-11 22:19:20.13	29.90	9.36	-49.6	-51.0	14.8	0.00e+00	0	22	0	274726912	65	4240
2026-01-11 22:19:21.14	30.01	9.42	-49.6	-51.1	14.8	0.00e+00	0	22	0	277872640	65	4265
2026-01-11 22:19:22.15	30.13	9.49	-49.6	-51.1	14.7	0.00e+00	0	22	0	281018368	65	4279
2026-01-11 22:19:23.16	30.25	9.55	-49.5	-51.0	14.8	0.00e+00	0	22	0	284164096	65	4195
2026-01-11 22:19:24.16	30.36	9.62	-49.6	-51.0	14.8	0.00e+00	0	22	0	287309824	65	4237
2026-01-11 22:19:25.17	30.48	9.68	-49.5	-51.0	14.8	0.00e+00	0	23	0	290455552	65	4208
2026-01-11 22:19:26.18	30.60	9.74	-49.4	-50.9	14.9	0.00e+00	0	22	0	293601280	65	4176
2026-01-11 22:19:27.19	30.71	9.81	-49.5	-50.9	14.8	0.00e+00	0	22	0	296747008	65	4191
2026-01-11 22:19:28.20	30.83	9.87	-49.4	-50.8	14.9	0.00e+00	0	22	0	299892736	65	4142
2026-01-11 22:19:29.21	30.95	9.94	-49.5	-51.0	14.8	0.00e+00	0	22	0	303038464	65	4197
2026-01-11 22:19:30.22	31.07	10.00	-49.4	-50.9	14.9	0.00e+00	0	22	0	306184192	65	4173
2026-01-11 22:19:31.23	31.19	10.07	-49.2	-50.7	15.0	0.00e+00	0	22	0	309329920	65	4052
2026-01-11 22:19:32.24	31.31	10.13	-49.3	-50.7	15.0	0.00e+00	0	23	0	312475648	65	4071
2026-01-11 22:19:33.25	31.44	10.20	-49.4	-50.9	14.9	0.00e+00	0	22	0	315621376	65	4171
2026-01-11 22:19:34.26	31.56	10.27	-49.4	-50.8	14.9	0.00e+00	0	22	0	318767104	65	4131
2026-01-11 22:19:35.27	31.68	10.33	-49.3	-50.7	15.0	0.00e+00	0	22	0	321912832	65	4092
2026-01-11 22:19:36.28	31.80	10.40	-49.1	-50.5	14.9	0.00e+00	0	22	0	325058560	64	4216
2026-01-11 22:19:37.29	31.93	10.46	-49.2	-50.6	14.9	0.00e+00	0	22	0	328204288	64	4264
2026-01-11 22:19:38.29	32.05	10.53	-49.1	-50.5	14.9	0.00e+00	0	22	0	331350016	64	4234
2026-01-11 22:19:39.29	32.17	10.59	-49.1	-50.6	14.9	0.00e+00	0	22	0	334495744	64	4254
2026-01-11 22:19:40.29	32.30	10.66	-49.0	-50.3	15.0	0.00e+00	0	22	0	337641472	64	4139
2026-01-11 22:19:41.31	32.42	10.72	-49.0	-50.4	15.0	0.00e+00	0	22	0	340787200	64	4173
2026-01-11 22:19:42.31	32.55	10.79	-49.0	-50.4	15.0	0.00e+00	0	22	0	343932928	64	4174
2026-01-11 22:19:43.32	32.67	10.85	-49.1	-50.5	14.9	0.00e+00	0	22	0	347078656	64	4209
2026-01-11 22:19:44.33	32.80	10.92	-49.0	-50.4	15.0	0.00e+00	0	22	0	350224384	64	4192
2026-01-11 22:19:45.34	32.93	10.99	-49.0	-50.4	15.0	0.00e+00	0	22	0	353370112	64	4150
2026-01-11 22:19:46.35	33.06	11.05	-49.1	-50.5	14.9	0.00e+00	0	22	0	356515840	64	4230
2026-01-11 22:19:47.36	33.19	11.12	-49.1	-50.5	15.0	0.00e+00	0	22	0	359661568	64	4211
2026-01-11 22:19:48.37	33.32	11.18	-49.0	-50.4	15.0	0.00e+00	0	22	0	362807296	64	4171
2026-01-11 22:19:49.38	33.45	11.25	-48.7	-50.1	15.2	0.00e+00	0	23	0	365953024	64	4014
2026-01-11 22:19:50.39	33.58	11.32	-48.6	-50.0	15.1	0.00e+00	0	22	0	369098752	63	4199
2026-01-11 22:19:51.40	33.71	11.38	-48.7	-50.0	15.1	0.00e+00	0	22	0	372244480	63	4222
2026-01-11 22:19:52.41	33.84	11.45	-48.6	-49.9	15.1	0.00e+00	0	23	0	375390208	63	4168
2026-01-11 22:19:53.41	33.97	11.51	-48.6	-50.0	15.1	0.00e+00	0	23	0	378535936	63	4194
2026-01-11 22:19:54.42	34.10	11.58	-48.4	-49.7	15.2	0.00e+00	0	22	0	381681664	63	4097
2026-01-11 22:19:55.43	34.24	11.65	-48.5	-49.8	15.2	0.00e+00	0	22	0	384827392	63	4107
2026-01-11 22:19:56.44	34.37	11.71	-48.5	-49.8	15.2	0.00e+00	0	22	0	387973120	63	4117
2026-01-11 22:19:57.45	34.50	11.78	-48.6	-49.9	15.1	0.00e+00	0	22	0	391118848	63	4163
2026-01-11 22:19:58.46	34.64	11.85	-48.6	-49.9	15.1	0.00e+00	0	22	0	394264576	63	4178
2026-01-11 22:19:59.47	34.78	11.91	-48.6	-50.0	15.1	0.00e+00	0	23	0	397410304	63	4210
2026-01-11 22:20:00.48	34.91	11.98	-48.6	-49.9	15.1	0.00e+00	0	23	0	400556032	63	4182
2026-01-11 22:20:01.49	35.05	12.05	-48.8	-50.1	15.0	0.00e+00	0	23	0	403701760	63	4273
2026-01-11 22:20:02.50	35.19	12.11	-48.7	-50.1	15.1	0.00e+00	0	23	0	406847488	63	4266
2026-01-11 22:20:03.51	35.32	12.18	-48.7	-50.1	15.0	0.00e+00	0	23	0	409993216	63	4268
2026-01-11 22:20:04.52	35.46	12.25	-48.7	-50.0	15.1	0.00e+00	0	23	0	413138944	63	4224
2026-01-11 22:20:05.53	35.60	12.31	-48.8	-50.2	15.0	0.00e+00	0	22	0	416284672	63	4293
2026-01-11 22:20:06.54	35.74	12.38	-48.6	-50.0	15.1	0.00e+00	0	22	0	419430400	63	4208
2026-01-11 22:20:07.54	35.88	12.45	-48.7	-50.0	15.1	0.00e+00	0	23	0	422576128	63	4236
2026-01-11 22:20:08.55	36.02	12.51	-48.6	-50.0	15.1	0.00e+00	0	23	0	425721856	63	4197
2026-01-11 22:20:09.56	36.16	12.58	-48.5	-49.8	15.2	0.00e+00	0	22	0	428867584	63	4144
2026-01-11 22:20:10.57	36.31	12.65	-48.6	-49.9	15.1	0.00e+00	0	23	0	432013312	63	4174
2026-01-11 22:20:11.58	36.45	12.72	-48.5	-49.8	15.2	0.00e+00	0	22	0	435159040	63	4137
2026-01-11 22:20:12.59	36.59	12.78	-48.5	-49.9	15.1	0.00e+00	0	23	0	438304768	63	4150
2026-01-11 22:20:13.60	36.74	12.85	-48.7	-50.0	15.0	0.00e+00	0	23	0	441450496	63	4236
2026-01-11 22:20:14.61	36.88	12.92	-48.6	-49.9	15.1	0.00e+00	0	23	0	444596224	63	4161
2026-01-11 22:20:15.62	37.03	12.98	-48.8	-50.1	15.0	0.00e+00	0	22	0	447741952	63	4274
2026-01-11 22:20:16.63	37.17	13.05	-48.7	-50.1	15.0	0.00e+00	0	23	0	450887680	63	4249
2026-01-11 22:20:17.64	37.32	13.12	-48.8	-50.2	15.0	0.00e+00	0	23	0	454033408	63	4308
2026-01-11 22:20:18.64	37.47	13.19	-48.8	-50.2	15.0	0.00e+00	0	23	0	457179136	63	4315
2026-01-11 22:20:19.65	37.62	13.25	-48.9	-50.2	15.0	0.00e+00	0	23	0	460324864	63	4334
2026-01-11 22:20:20.66	37.76	13.32	-48.9	-50.3	14.9	0.00e+00	0	23	0	463470592	63	4356
2026-01-11 22:20:21.67	37.91	13.39	-48.7	-50.1	15.0	0.00e+00	0	22	0	466616320	63	4255
2026-01-11 22:20:22.68	38.06	13.45	-48.6	-50.0	15.1	0.00e+00	0	23	0	469762048	63	4201
2026-01-11 22:20:23.69	38.22	13.52	-48.6	-49.9	15.1	0.00e+00	0	23	0	472907776	63	4169
2026-01-11 22:20:24.69	38.37	13.59	-48.6	-49.9	15.1	0.00e+00	0	23	0	476053504	63	4160
2026-01-11 22:20:25.70	38.52	13.66	-48.6	-49.9	15.1	0.00e+00	0	23	0	479199232	63	4157
2026-01-11 22:20:26.71	38.67	13.72	-48.4	-49.7	15.3	0.00e+00	0	23	0	482344960	63	4057
2026-01-11 22:20:27.72	38.82	13.79	-48.3	-49.5	15.3	0.00e+00	0	23	0	485490688	63	4001
2026-01-11 22:20:28.72	38.98	13.86	-48.4	-49.7	15.3	0.00e+00	0	23	0	488636416	63	4055
2026-01-11 22:20:29.74	39.13	13.92	-48.4	-49.8	15.2	0.00e+00	0	23	0	491782144	63	4100
2026-01-11 22:20:30.74	39.29	13.99	-48.5	-49.8	15.2	0.00e+00	0	22	0	494927872	63	4106
2026-01-11 22:20:31.75	39.44	14.06	-48.4	-49.7	15.2	0.00e+00	0	23	0	498073600	63	4097
2026-01-11 22:20:32.76	39.60	14.13	-48.5	-49.8	15.2	0.00e+00	0	23	0	501219328	63	4137
2026-01-11 22:20:33.77	39.76	14.19	-48.5	-49.9	15.1	0.00e+00	0	23	0	504365056	63	4150
2026-01-11 22:20:34.77	39.91	14.26	-48.5	-49.8	15.2	0.00e+00	0	22	0	507510784	63	4142
2026-01-11 22:20:35.78	40.07	14.33	-48.5	-49.8	15.2	0.00e+00	0	23	0	510656512	63	4128
2026-01-11 22:20:36.79	40.23	14.39	-48.3	-49.6	15.3	0.00e+00	0	22	0	513802240	63	4049
2026-01-11 22:20:37.80	40.39	14.46	-48.3	-49.6	15.3	0.00e+00	0	23	0	516947968	63	4039
2026-01-11 22:20:38.80	40.55	14.53	-48.2	-49.5	15.3	0.00e+00	0	23	0	520093696	63	3974
2026-01-11 22:20:39.81	40.71	14.60	-48.3	-49.6	15.3	0.00e+00	0	23	0	523239424	63	4011
2026-01-11 22:20:40.82	40.88	14.66	-48.2	-49.5	15.4	0.00e+00	0	23	0	526385152	63	3963
2026-01-11 22:20:41.83	41.04	14.73	-48.2	-49.5	15.2	0.00e+00	0	23	0	529530880	62	4203
2026-01-11 22:20:42.84	41.20	14.80	-48.2	-49.5	15.2	0.00e+00	0	22	0	532676608	62	4201
2026-01-11 22:20:43.85	41.37	14.86	-48.3	-49.5	15.2	0.00e+00	0	23	0	535822336	62	4229
2026-01-11 22:20:44.86	41.53	14.93	-48.3	-49.6	15.1	0.00e+00	0	23	0	538968064	62	4266
2026-01-11 22:20:45.86	41.70	15.00	-48.4	-49.7	15.1	0.00e+00	0	22	0	542113792	62	4306
2026-01-11 22:20:46.87	41.86	15.06	-48.4	-49.7	15.1	0.00e+00	0	23	0	545259520	62	4322
2026-01-11 22:20:47.88	42.03	15.13	-48.5	-49.9	15.0	0.00e+00	0	23	0	548405248	62	4393
2026-01-11 22:20:48.89	42.20	15.20	-48.4	-49.7	15.1	0.00e+00	0	23	0	551550976	62	4296
2026-01-11 22:20:49.90	42.37	15.26	-48.4	-49.7	15.1	0.00e+00	0	23	0	554696704	62	4303
2026-01-11 22:20:50.90	42.54	15.33	-48.2	-49.4	15.2	0.00e+00	0	23	0	557842432	62	4182
2026-01-11 22:20:51.91	42.71	15.40	-48.1	-49.4	15.2	0.00e+00	0	23	0	560988160	62	4156
2026-01-11 22:20:52.92	42.88	15.46	-48.0	-49.3	15.3	0.00e+00	0	23	0	564133888	62	4111
2026-01-11 22:20:53.93	43.05	15.53	-48.1	-49.4	15.2	0.00e+00	0	23	0	567279616	62	4158
2026-01-11 22:20:54.93	43.22	15.60	-48.2	-49.4	15.2	0.00e+00	0	23	0	570425344	62	4186
2026-01-11 22:20:55.94	43.39	15.66	-48.1	-49.4	15.2	0.00e+00	0	23	0	573571072	62	4174
2026-01-11 22:20:56.95	43.57	15.73	-48.2	-49.5	15.2	0.00e+00	0	23	0	576716800	62	4217
2026-01-11 22:20:57.96	43.74	15.80	-48.2	-49.5	15.2	0.00e+00	0	23	0	579862528	62	4202
2026-01-11 22:20:58.97	43.92	15.86	-48.2	-49.5	15.2	0.00e+00	0	23	0	583008256	62	4227
2026-01-11 22:20:59.98	44.10	15.93	-48.3	-49.6	15.1	0.00e+00	0	23	0	587202560	62	4272
2026-01-11 22:21:00.98	44.27	15.99	-48.3	-49.6	15.1	0.00e+00	0	23	0	590348288	62	4253
2026-01-11 22:21:01.99	44.45	16.06	-48.1	-49.4	15.3	0.00e+00	0	23	0	592445440	62	4148
2026-01-11 22:21:03.00	44.63	16.13	-48.1	-49.3	15.3	0.00e+00	0	23	0	595591168	62	4142
2026-01-11 22:21:04.01	44.81	16.19	-48.1	-49.3	15.3	0.00e+00	0	22	0	598736896	62	4136
2026-01-11 22:21:05.02	44.99	16.26	-48.1	-49.4	15.2	0.00e+00	0	23	0	601882624	62	4153
2026-01-11 22:21:06.03	45.17	16.32	-48.1	-49.3	15.3	0.00e+00	0	23	0	605028352	62	4122
2026-01-11 22:21:07.03	45.35	16.39	-48.1	-49.4	15.2	0.00e+00	0	23	0	609222656	62	4151
2026-01-11 22:21:08.04	45.53	16.45	-48.1	-49.3	15.2	0.00e+00	0	23	0	612368384	62	4141
2026-01-11 22:21:09.05	45.71	16.52	-48.2	-49.5	15.2	0.00e+00	0	23	0	614465536	62	4202
2026-01-11 22:21:10.06	45.90	16.59	-48.2	-49.4	15.2	0.00e+00	0	23	0	617611264	62	4192
2026-01-11 22:21:11.07	46.08	16.65	-48.2	-49.5	15.2	0.00e+00	0	23	0	620756992	62	4203
2026-01-11 22:21:12.08	46.27	16.72	-48.1	-49.4	15.2	0.00e+00	0	23	0	623902720	62	4158
2026-01-11 22:21:13.09	46.45	16.78	-48.2	-49.5	15.2	0.00e+00	0	23	0	628097024	62	4195
2026-01-11 22:21:14.09	46.64	16.85	-48.3	-49.6	15.2	0.00e+00	0	23	0	631242752	62	4246
2026-01-11 22:21:15.10	46.83	16.91	-48.3	-49.6	15.1	0.00e+00	0	23	0	634388480	62	4266
2026-01-11 22:21:16.11	47.02	16.97	-48.2	-49.5	15.2	0.00e+00	0	23	0	637534208	62	4207
2026-01-11 22:21:17.12	47.21	17.04	-48.3	-49.6	15.1	0.00e+00	0	23	0	639631360	62	4269
2026-01-11 22:21:18.13	47.40	17.10	-48.3	-49.7	15.1	0.00e+00	0	23	0	643825664	62	4292
2026-01-11 22:21:19.14	47.59	17.17	-48.3	-49.6	15.2	0.00e+00	0	23	0	646971392	62	4276
2026-01-11 22:21:20.15	47.78	17.23	-48.2	-49.5	15.2	0.00e+00	0	22	0	650117120	62	4230
2026-01-11 22:21:21.16	47.97	17.30	-48.3	-49.6	15.2	0.00e+00	0	23	0	653262848	62	4246
2026-01-11 22:21:22.17	48.17	17.36	-48.2	-49.5	15.2	0.00e+00	0	22	0	656408576	62	4194
2026-01-11 22:21:23.18	48.36	17.42	-48.0	-49.2	15.3	0.00e+00	0	23	0	659554304	62	4086
2026-01-11 22:21:24.19	48.55	17.49	-48.0	-49.2	15.3	0.00e+00	0	23	0	662700032	62	4084
2026-01-11 22:21:25.20	48.75	17.55	-47.9	-49.2	15.3	0.00e+00	0	23	0	665845760	62	4054
2026-01-11 22:21:26.20	48.95	17.61	-48.0	-49.2	15.3	0.00e+00	0	23	0	668991488	62	4098
2026-01-11 22:21:27.21	49.14	17.68	-48.0	-49.3	15.3	0.00e+00	0	23	0	672137216	62	4115
2026-01-11 22:21:28.22	49.34	17.74	-48.1	-49.4	15.2	0.00e+00	0	23	0	675282944	62	4153
2026-01-11 22:21:29.23	49.54	17.80	-48.2	-49.5	15.2	0.00e+00	0	23	0	678428672	62	4203
2026-01-11 22:21:30.24	49.74	17.87	-48.2	-49.5	15.2	0.00e+00	0	23	0	681574400	62	4219
2026-01-11 22:21:31.25	49.94	17.93	-48.2	-49.5	15.2	0.00e+00	0	23	0	684720128	62	4216
2026-01-11 22:21:32.26	50.14	17.99	-48.4	-49.7	15.1	0.00e+00	0	23	0	687865856	62	4306
2026-01-11 22:21:33.27	50.34	18.05	-48.4	-49.7	15.1	0.00e+00	0	23	0	691011584	62	4338
2026-01-11 22:21:34.27	50.55	18.11	-48.5	-49.8	15.1	0.00e+00	0	23	0	694157312	62	4353
2026-01-11 22:21:35.28	50.75	18.18	-48.4	-49.7	15.1	0.00e+00	0	22	0	697303040	62	4337
2026-01-11 22:21:36.29	50.95	18.24	-48.4	-49.7	15.1	0.00e+00	0	22	0	700448768	62	4297
2026-01-11 22:21:37.30	51.16	18.30	-48.3	-49.5	15.2	0.00e+00	0	23	0	703594496	62	4238
2026-01-11 22:21:38.30	51.36	18.36	-48.1	-49.4	15.2	0.00e+00	0	23	0	706740224	62	4148
2026-01-11 22:21:39.31	51.57	18.42	-48.1	-49.3	15.3	0.00e+00	0	22	0	709885952	62	4139
2026-01-11 22:21:40.32	51.78	18.48	-48.1	-49.3	15.3	0.00e+00	0	23	0	713031680	62	4128
2026-01-11 22:21:41.33	51.99	18.54	-48.2	-49.4	15.2	0.00e+00	0	23	0	716177408	62	4191
2026-01-11 22:21:42.34	52.20	18.60	-48.2	-49.4	15.2	0.00e+00	0	23	0	719323136	62	4185
2026-01-11 22:21:43.34	52.41	18.66	-48.4	-49.7	15.1	0.00e+00	0	23	0	722468864	62	4300
2026-01-11 22:21:44.36	52.62	18.72	-48.4	-49.6	15.1	0.00e+00	0	23	0	725614592	62	4291
2026-01-11 22:21:45.37	52.83	18.78	-48.4	-49.7	15.1	0.00e+00	0	23	0	728760320	62	4298
2026-01-11 22:21:46.37	53.04	18.84	-48.4	-49.8	15.1	0.00e+00	0	23	0	731906048	62	4342
2026-01-11 22:21:47.38	53.26	18.90	-48.3	-49.6	15.2	0.00e+00	0	23	0	735051776	62	4247
2026-01-11 22:21:48.39	53.47	18.96	-48.3	-49.6	15.2	0.00e+00	0	23	0	738197504	62	4266
2026-01-11 22:21:49.40	53.69	19.02	-48.2	-49.4	15.2	0.00e+00	0	23	0	741343232	62	4181
2026-01-11 22:21:50.41	53.90	19.08	-48.1	-49.4	15.2	0.00e+00	0	23	0	744488960	62	4164
2026-01-11 22:21:51.41	54.12	19.13	-48.1	-49.3	15.3	0.00e+00	0	22	0	747634688	62	4130
2026-01-11 22:21:52.41	54.33	19.19	-48.0	-49.3	15.3	0.00e+00	0	23	0	750780416	62	4112
2026-01-11 22:21:53.43	54.55	19.25	-48.1	-49.3	15.3	0.00e+00	0	23	0	753926144	62	4122
2026-01-11 22:21:54.43	54.77	19.31	-48.1	-49.3	15.3	0.00e+00	0	23	0	757071872	62	4139
2026-01-11 22:21:55.44	54.99	19.36	-48.2	-49.5	15.2	0.00e+00	0	23	0	760217600	62	4214
2026-01-11 22:21:56.45	55.21	19.42	-48.3	-49.6	15.1	0.00e+00	0	22	0	763363328	62	4272
2026-01-11 22:21:57.46	55.43	19.48	-48.3	-49.6	15.2	0.00e+00	0	23	0	766509056	62	4264
2026-01-11 22:21:58.47	55.66	19.53	-48.4	-49.7	15.1	0.00e+00	0	23	0	769654784	62	4310
2026-01-11 22:21:59.48	55.88	19.59	-48.3	-49.6	15.2	0.00e+00	0	23	0	772800512	62	4251
2026-01-11 22:22:00.46	56.10	19.64	-48.2	-49.5	15.2	0.00e+00	0	23	0	775946240	62	4215
2026-01-11 22:22:01.44	56.31	19.70	-48.2	-49.4	15.2	0.00e+00	0	23	0	779091968	62	4191
2026-01-11 22:22:02.45	56.54	19.75	-48.1	-49.4	15.3	0.00e+00	0	23	0	782237696	62	4150
2026-01-11 22:22:03.46	56.77	19.81	-47.9	-49.1	15.4	0.00e+00	0	23	0	785383424	62	4017
2026-01-11 22:22:04.47	56.99	19.86	-47.8	-49.0	15.4	0.00e+00	0	23	0	788529152	62	3996
2026-01-11 22:22:05.48	57.22	19.91	-47.9	-49.1	15.4	0.00e+00	0	23	0	791674880	62	4026
2026-01-11 22:22:06.49	57.45	19.97	-47.9	-49.1	15.4	0.00e+00	0	23	0	794820608	62	4038
2026-01-11 22:22:07.50	57.68	20.02	-48.0	-49.3	15.3	0.00e+00	0	23	0	797966336	62	4101
2026-01-11 22:22:08.51	57.91	20.07	-48.1	-49.4	15.2	0.00e+00	0	23	0	801112064	62	4171
2026-01-11 22:22:09.51	58.14	20.13	-48.1	-49.4	15.2	0.00e+00	0	23	0	804257792	62	4167
2026-01-11 22:22:10.52	58.37	20.18	-48.2	-49.4	15.2	0.00e+00	0	23	0	807403520	62	4176
2026-01-11 22:22:11.53	58.60	20.23	-48.2	-49.4	15.2	0.00e+00	0	23	0	810549248	62	4178
2026-01-11 22:22:12.54	58.84	20.28	-48.0	-49.2	15.3	0.00e+00	0	23	0	813694976	62	4073
2026-01-11 22:22:13.55	59.07	20.33	-47.8	-49.0	15.4	0.00e+00	0	23	0	816840704	62	3974
2026-01-11 22:22:14.55	59.30	20.38	-47.7	-48.9	15.3	0.00e+00	0	23	0	819986432	61	4162
2026-01-11 22:22:15.56	59.54	20.44	-47.5	-48.7	15.4	0.00e+00	0	23	0	823132160	61	4070
2026-01-11 22:22:16.57	59.78	20.49	-47.5	-48.7	15.4	0.00e+00	0	23	0	826277888	61	4083
2026-01-11 22:22:17.58	60.01	20.54	-47.6	-48.8	15.4	0.00e+00	0	23	0	829423616	61	4107
2026-01-11 22:22:18.58	60.25	20.58	-47.8	-49.0	15.3	0.00e+00	0	23	0	832569344	61	4217
2026-01-11 22:22:19.59	60.49	20.63	-47.8	-49.0	15.3	0.00e+00	0	23	0	835715072	61	4240
2026-01-11 22:22:20.60	60.73	20.68	-48.0	-49.2	15.2	0.00e+00	0	23	0	838860800	61	4327
2026-01-11 22:22:21.61	60.97	20.73	-48.1	-49.4	15.1	0.00e+00	0	23	0	842006528	61	4405
2026-01-11 22:22:22.62	61.21	20.78	-47.9	-49.1	15.2	0.00e+00	0	23	0	845152256	61	4266
2026-01-11 22:22:23.63	61.45	20.83	-47.9	-49.2	15.2	0.00e+00	0	23	0	848297984	61	4292
2026-01-11 22:22:24.64	61.69	20.87	-47.8	-49.0	15.2	0.00e+00	0	23	0	851443712	61	4226
2026-01-11 22:22:25.64	61.93	20.92	-47.7	-48.9	15.3	0.00e+00	0	23	0	854589440	61	4181
2026-01-11 22:22:26.65	62.18	20.96	-47.7	-48.9	15.3	0.00e+00	0	23	0	857735168	61	4166
2026-01-11 22:22:27.66	62.42	21.01	-47.7	-48.9	15.3	0.00e+00	0	23	0	860880896	61	4148
2026-01-11 22:22:28.67	62.67	21.06	-47.7	-48.9	15.3	0.00e+00	0	23	0	864026624	61	4151
2026-01-11 22:22:29.68	62.91	21.10	-47.7	-49.0	15.3	0.00e+00	0	23	0	867172352	61	4203
2026-01-11 22:22:30.69	63.16	21.15	-47.7	-48.9	15.3	0.00e+00	0	23	0	870318080	61	4165
2026-01-11 22:22:31.70	63.41	21.19	-47.6	-48.8	15.4	0.00e+00	0	23	0	873463808	61	4117
2026-01-11 22:22:32.71	63.66	21.23	-47.5	-48.7	15.4	0.00e+00	0	23	0	876609536	61	4088
2026-01-11 22:22:33.72	63.91	21.28	-47.6	-48.8	15.4	0.00e+00	0	23	0	879755264	61	4110
2026-01-11 22:22:34.72	64.15	21.32	-47.5	-48.7	15.4	0.00e+00	0	23	0	882900992	61	4087
2026-01-11 22:22:35.73	64.40	21.36	-47.6	-48.8	15.3	0.00e+00	0	23	0	886046720	61	4144
2026-01-11 22:22:36.74	64.65	21.40	-47.7	-48.9	15.3	0.00e+00	0	23	0	889192448	61	4152
2026-01-11 22:22:37.74	64.90	21.44	-47.7	-49.0	15.3	0.00e+00	0	23	0	892338176	61	4198
2026-01-11 22:22:38.75	65.15	21.48	-47.8	-49.0	15.3	0.00e+00	0	23	0	895483904	61	4208
2026-01-11 22:22:39.76	65.41	21.52	-47.8	-49.0	15.3	0.00e+00	0	23	0	898629632	61	4226
2026-01-11 22:22:40.77	65.66	21.56	-47.8	-49.0	15.2	0.00e+00	0	23	0	901775360	61	4233
2026-01-11 22:22:41.78	65.91	21.60	-47.7	-48.9	15.3	0.00e+00	0	23	0	904921088	61	4149
2026-01-11 22:22:42.79	66.17	21.64	-47.6	-48.8	15.4	0.00e+00	0	23	0	908066816	61	4118
2026-01-11 22:22:43.80	66.42	21.68	-47.7	-48.9	15.3	0.00e+00	0	23	0	911212544	61	4154
2026-01-11 22:22:44.81	66.68	21.72	-47.6	-48.8	15.3	0.00e+00	0	23	0	914358272	61	4133
2026-01-11 22:22:45.82	66.94	21.75	-47.6	-48.8	15.4	0.00e+00	0	23	0	917504000	61	4118
2026-01-11 22:22:46.82	67.19	21.79	-47.8	-49.0	15.2	0.00e+00	0	23	0	920649728	61	4232
2026-01-11 22:22:47.84	67.45	21.83	-47.7	-48.9	15.3	0.00e+00	0	23	0	923795456	61	4158
2026-01-11 22:22:48.84	67.71	21.86	-47.7	-48.9	15.3	0.00e+00	0	23	0	926941184	61	4175
2026-01-11 22:22:49.84	67.96	21.90	-47.7	-48.9	15.3	0.00e+00	0	23	0	930086912	61	4179
2026-01-11 22:22:50.85	68.22	21.93	-47.6	-48.8	15.4	0.00e+00	0	23	0	933232640	61	4138
2026-01-11 22:22:51.86	68.48	21.96	-47.7	-49.0	15.3	0.00e+00	0	23	0	936378368	61	4194
2026-01-11 22:22:52.87	68.74	22.00	-47.7	-48.9	15.3	0.00e+00	0	23	0	939524096	61	4170
2026-01-11 22:22:53.88	69.01	22.03	-47.7	-48.9	15.3	0.00e+00	0	23	0	942669824	61	4186
2026-01-11 22:22:54.88	69.26	22.06	-47.8	-49.1	15.3	0.00e+00	0	23	0	945815552	61	4244
2026-01-11 22:22:55.89	69.53	22.09	-47.8	-49.0	15.3	0.00e+00	0	23	0	948961280	61	4210
2026-01-11 22:22:56.90	69.79	22.13	-47.7	-48.9	15.3	0.00e+00	0	23	0	952107008	61	4164
2026-01-11 22:22:57.91	70.05	22.16	-47.7	-48.9	15.3	0.00e+00	0	23	0	955252736	61	4170
2026-01-11 22:22:58.92	70.32	22.19	-47.7	-48.9	15.3	0.00e+00	0	23	0	958398464	61	4169
2026-01-11 22:22:59.93	70.58	22.22	-47.7	-48.9	15.3	0.00e+00	0	23	0	961544192	61	4177
2026-01-11 22:23:00.93	70.84	22.24	-47.7	-48.9	15.3	0.00e+00	0	23	0	964689920	61	4156
2026-01-11 22:23:01.95	71.11	22.27	-47.8	-49.1	15.3	0.00e+00	0	23	0	967835648	61	4252
2026-01-11 22:23:02.96	71.38	22.30	-47.8	-49.0	15.3	0.00e+00	0	23	0	970981376	61	4219
2026-01-11 22:23:03.97	71.64	22.33	-47.9	-49.1	15.2	0.00e+00	0	23	0	974127104	61	4267
2026-01-11 22:23:04.97	71.91	22.35	-47.9	-49.1	15.2	0.00e+00	0	23	0	977272832	61	4273
2026-01-11 22:23:05.98	72.17	22.38	-47.8	-49.0	15.2	0.00e+00	0	23	0	980418560	61	4230
2026-01-11 22:23:06.99	72.44	22.41	-47.7	-48.9	15.3	0.00e+00	0	23	0	983564288	61	4178
2026-01-11 22:23:08.00	72.71	22.43	-47.5	-48.7	15.4	0.00e+00	0	23	0	986710016	61	4081
2026-01-11 22:23:09.01	72.98	22.45	-47.5	-48.7	15.4	0.00e+00	0	23	0	989855744	61	4056
2026-01-11 22:23:10.01	73.24	22.48	-47.4	-48.6	15.5	0.00e+00	0	23	0	993001472	61	4026
2026-01-11 22:23:11.02	73.51	22.50	-47.5	-48.7	15.4	0.00e+00	0	23	0	996147200	61	4076
2026-01-11 22:23:12.02	73.78	22.52	-47.5	-48.7	15.4	0.00e+00	0	23	0	999292928	61	4091
2026-01-11 22:23:13.03	74.05	22.54	-47.6	-48.8	15.4	0.00e+00	0	23	0	1002438656	61	4105
2026-01-11 22:23:14.04	74.32	22.56	-47.7	-48.9	15.3	0.00e+00	0	23	0	1005584384	61	4167
2026-01-11 22:23:15.05	74.59	22.59	-47.5	-48.7	15.4	0.00e+00	0	23	0	1008730112	61	4055
2026-01-11 22:23:16.06	74.86	22.60	-47.5	-48.7	15.4	0.00e+00	0	23	0	1011875840	61	4096
2026-01-11 22:23:17.07	75.13	22.62	-47.6	-48.8	15.3	0.00e+00	0	23	0	1015021568	61	4124
2026-01-11 22:23:18.08	75.40	22.64	-47.6	-48.8	15.3	0.00e+00	0	23	0	1018167296	61	4143
2026-01-11 22:23:19.09	75.68	22.66	-47.7	-48.9	15.3	0.00e+00	0	23	0	1021313024	61	4186
2026-01-11 22:23:20.09	75.95	22.68	-47.6	-48.8	15.3	0.00e+00	0	23	0	1024458752	61	4137
2026-01-11 22:23:21.10	76.22	22.69	-47.6	-48.8	15.4	0.00e+00	0	23	0	1027604480	61	4107
2026-01-11 22:23:22.11	76.49	22.71	-47.4	-48.5	15.5	0.00e+00	0	23	0	1030750208	61	4001
2026-01-11 22:23:23.12	76.76	22.72	-47.4	-48.6	15.4	0.00e+00	0	23	0	1033895936	61	4017
2026-01-11 22:23:24.13	77.04	22.74	-47.6	-48.8	15.4	0.00e+00	0	23	0	1037041664	61	4099
2026-01-11 22:23:25.14	77.31	22.75	-47.6	-48.8	15.4	0.00e+00	0	23	0	1040187392	61	4120
2026-01-11 22:23:26.15	77.58	22.77	-47.7	-48.9	15.3	0.00e+00	0	23	0	1043333120	61	4186
2026-01-11 22:23:27.16	77.86	22.78	-47.7	-48.9	15.3	0.00e+00	0	23	0	1046478848	61	4174
2026-01-11 22:23:28.17	78.13	22.79	-47.7	-48.9	15.3	0.00e+00	0	23	0	1049624576	61	4185
2026-01-11 22:23:29.18	78.41	22.80	-47.7	-48.9	15.3	0.00e+00	0	23	0	1052770304	61	4157
2026-01-11 22:23:30.18	78.68	22.81	-47.8	-49.0	15.3	0.00e+00	0	23	0	1055916032	61	4210
2026-01-11 22:23:31.19	78.95	22.82	-47.8	-49.0	15.3	0.00e+00	0	23	0	1059061760	61	4230
2026-01-11 22:23:32.21	79.23	22.83	-47.7	-48.9	15.3	0.00e+00	0	23	0	1062207488	61	4182
2026-01-11 22:23:33.22	79.51	22.84	-47.7	-48.9	15.3	0.00e+00	0	23	0	1065353216	61	4165
2026-01-11 22:23:34.22	79.78	22.85	-47.6	-48.8	15.4	0.00e+00	0	23	0	1068498944	61	4109
2026-01-11 22:23:35.23	80.06	22.86	-47.4	-48.6	15.5	0.00e+00	0	23	0	1071644672	61	4021
2026-01-11 22:23:36.24	80.33	22.86	-47.5	-48.6	15.4	0.00e+00	0	23	0	1074790400	61	4043
2026-01-11 22:23:37.25	80.61	22.87	-47.4	-48.6	15.5	0.00e+00	0	23	0	1077936128	61	4010
2026-01-11 22:23:38.26	80.88	22.87	-47.4	-48.6	15.4	0.00e+00	0	23	0	1081081856	61	4028
2026-01-11 22:23:39.26	81.16	22.88	-47.6	-48.8	15.4	0.00e+00	0	23	0	1084227584	61	4126
2026-01-11 22:23:40.27	81.43	22.88	-47.6	-48.8	15.4	0.00e+00	0	23	0	1087373312	61	4114
2026-01-11 22:23:41.27	81.71	22.89	-47.6	-48.9	15.3	0.00e+00	0	23	0	1090519040	61	4152
2026-01-11 22:23:42.28	81.98	22.89	-47.7	-48.9	15.4	0.00e+00	0	23	0	1093664768	61	4161
2026-01-11 22:23:43.28	82.26	22.89	-47.6	-48.8	15.4	0.00e+00	0	23	0	1096810496	61	4118
2026-01-11 22:23:44.28	82.53	22.89	-47.5	-48.7	15.4	0.00e+00	0	23	0	1099956224	61	4078
2026-01-11 22:23:45.29	82.80	22.89	-47.7	-48.9	15.3	0.00e+00	0	23	0	1103101952	61	4154
2026-01-11 22:23:46.30	83.08	22.89	-47.7	-49.0	15.3	0.00e+00	0	23	0	1106247680	61	4199
2026-01-11 22:23:47.31	83.36	22.89	-47.7	-49.0	15.3	0.00e+00	0	23	0	1109393408	61	4208
2026-01-11 22:23:48.32	83.63	22.89	-47.8	-49.1	15.3	0.00e+00	0	23	0	1112539136	61	4243
2026-01-11 22:23:49.33	83.91	22.89	-47.8	-49.0	15.3	0.00e+00	0	23	0	1115684864	61	4223
2026-01-11 22:23:50.34	84.19	22.89	-47.7	-48.9	15.3	0.00e+00	0	23	0	1118830592	61	4169
2026-01-11 22:23:51.35	84.46	22.88	-47.7	-48.9	15.3	0.00e+00	0	23	0	1121976320	61	4169
2026-01-11 22:23:52.36	84.74	22.88	-47.6	-48.7	15.4	0.00e+00	0	23	0	1125122048	61	4092
2026-01-11 22:23:53.37	85.01	22.87	-47.6	-48.8	15.4	0.00e+00	0	23	0	1128267776	61	4124
2026-01-11 22:23:54.38	85.29	22.87	-47.6	-48.8	15.3	0.00e+00	0	23	0	1131413504	61	4124
2026-01-11 22:23:55.38	85.56	22.86	-47.6	-48.8	15.3	0.00e+00	0	23	0	1134559232	61	4134
2026-01-11 22:23:56.39	85.84	22.86	-47.5	-48.7	15.4	0.00e+00	0	23	0	1137704960	61	4090
2026-01-11 22:23:57.40	86.11	22.85	-47.3	-48.5	15.5	0.00e+00	0	23	0	1140850688	61	3983
2026-01-11 22:23:58.41	86.39	22.84	-47.3	-48.4	15.5	0.00e+00	0	23	0	1143996416	61	3946
2026-01-11 22:23:59.42	86.67	22.83	-47.2	-48.3	15.4	0.00e+00	0	23	0	1147142144	60	4143
2026-01-11 22:24:00.43	86.94	22.82	-47.1	-48.3	15.4	0.00e+00	0	23	0	1150287872	60	4124
2026-01-11 22:24:01.43	87.21	22.81	-47.3	-48.4	15.4	0.00e+00	0	23	0	1153433600	60	4183
2026-01-11 22:24:02.44	87.49	22.80	-47.3	-48.5	15.4	0.00e+00	0	23	0	1156579328	60	4218
2026-01-11 22:24:03.45	87.76	22.79	-47.4	-48.6	15.4	0.00e+00	0	23	0	1159725056	60	4253
2026-01-11 22:24:04.46	88.04	22.78	-47.5	-48.6	15.3	0.00e+00	0	23	0	1162870784	60	4285
2026-01-11 22:24:05.46	88.31	22.77	-47.4	-48.6	15.3	0.00e+00	0	23	0	1166016512	60	4256
2026-01-11 22:24:06.47	88.58	22.75	-47.4	-48.6	15.3	0.00e+00	0	23	0	1169162240	60	4253
2026-01-11 22:24:07.48	88.86	22.74	-47.4	-48.5	15.3	0.00e+00	0	23	0	1172307968	60	4237
2026-01-11 22:24:08.49	89.13	22.72	-47.3	-48.5	15.3	0.00e+00	0	23	0	1175453696	60	4219
2026-01-11 22:24:09.50	89.40	22.71	-47.3	-48.5	15.4	0.00e+00	0	23	0	1178599424	60	4212
2026-01-11 22:24:10.51	89.68	22.69	-47.4	-48.6	15.3	0.00e+00	0	23	0	1181745152	60	4262
2026-01-11 22:24:11.52	89.95	22.67	-47.2	-48.4	15.4	0.00e+00	0	23	0	1184890880	60	4147
2026-01-11 22:24:12.53	90.22	22.66	-47.3	-48.5	15.4	0.00e+00	0	23	0	1188036608	60	4197
2026-01-11 22:24:13.54	90.49	22.64	-47.4	-48.5	15.3	0.00e+00	0	23	0	1191182336	60	4229
2026-01-11 22:24:14.55	90.77	22.62	-47.4	-48.5	15.3	0.00e+00	0	23	0	1194328064	60	4242
2026-01-11 22:24:15.56	91.04	22.60	-47.4	-48.6	15.3	0.00e+00	0	23	0	1197473792	60	4277
2026-01-11 22:24:16.57	91.31	22.58	-47.4	-48.6	15.3	0.00e+00	0	23	0	1200619520	60	4278
2026-01-11 22:24:17.58	91.58	22.56	-47.5	-48.7	15.3	0.00e+00	0	23	0	1203765248	60	4315
2026-01-11 22:24:18.58	91.85	22.54	-47.4	-48.6	15.3	0.00e+00	0	23	0	1206910976	60	4278
2026-01-11 22:24:19.59	92.12	22.52	-47.4	-48.6	15.3	0.00e+00	0	23	0	1210056704	60	4264
2026-01-11 22:24:20.60	92.39	22.50	-47.5	-48.7	15.3	0.00e+00	0	23	0	1213202432	60	4298
2026-01-11 22:24:21.61	92.66	22.47	-47.5	-48.7	15.3	0.00e+00	0	23	0	1216348160	60	4319
2026-01-11 22:24:22.62	92.93	22.45	-47.5	-48.7	15.3	0.00e+00	0	23	0	1219493888	60	4293
2026-01-11 22:24:23.63	93.19	22.43	-47.4	-48.6	15.3	0.00e+00	0	23	0	1222639616	60	4253
2026-01-11 22:24:24.63	93.46	22.40	-47.4	-48.5	15.3	0.00e+00	0	23	0	1225785344	60	4234
2026-01-11 22:24:25.64	93.73	22.38	-47.4	-48.6	15.3	0.00e+00	0	23	0	1228931072	60	4285
2026-01-11 22:24:26.65	93.99	22.35	-47.4	-48.6	15.3	0.00e+00	0	23	0	1232076800	60	4267
2026-01-11 22:24:27.66	94.26	22.32	-47.5	-48.7	15.2	0.00e+00	0	23	0	1235222528	60	4337
2026-01-11 22:24:28.67	94.53	22.30	-47.6	-48.8	15.2	0.00e+00	0	23	0	1238368256	60	4352
2026-01-11 22:24:29.68	94.79	22.27	-47.7	-48.9	15.2	0.00e+00	0	23	0	1241513984	60	4403
2026-01-11 22:24:30.69	95.06	22.24	-47.6	-48.8	15.3	0.00e+00	0	23	0	1244659712	60	4352
2026-01-11 22:24:31.69	95.32	22.21	-47.4	-48.6	15.3	0.00e+00	0	23	0	1247805440	60	4277
2026-01-11 22:24:32.70	95.59	22.18	-47.5	-48.6	15.3	0.00e+00	0	23	0	1250951168	60	4289
2026-01-11 22:24:33.71	95.85	22.15	-47.5	-48.7	15.3	0.00e+00	0	23	0	1254096896	60	4313
2026-01-11 22:24:34.72	96.11	22.12	-47.5	-48.7	15.2	0.00e+00	0	23	0	1257242624	60	4337
2026-01-11 22:24:35.72	96.38	22.09	-47.6	-48.8	15.2	0.00e+00	0	23	0	1260388352	60	4363
2026-01-11 22:24:36.73	96.64	22.06	-47.6	-48.8	15.2	0.00e+00	0	23	0	1263534080	60	4365
2026-01-11 22:24:37.74	96.90	22.02	-47.4	-48.6	15.3	0.00e+00	0	23	0	1266679808	60	4259
2026-01-11 22:24:38.75	97.16	21.99	-47.4	-48.5	15.3	0.00e+00	0	23	0	1269825536	60	4240
2026-01-11 22:24:39.76	97.42	21.96	-47.3	-48.5	15.3	0.00e+00	0	23	0	1272971264	60	4227
2026-01-11 22:24:40.76	97.68	21.92	-47.4	-48.6	15.3	0.00e+00	0	23	0	1276116992	60	4270
2026-01-11 22:24:41.77	97.94	21.89	-47.4	-48.6	15.3	0.00e+00	0	23	0	1279262720	60	4280
2026-01-11 22:24:42.78	98.20	21.85	-47.5	-48.8	15.3	0.00e+00	0	23	0	1283457024	60	4346
2026-01-11 22:24:43.79	98.46	21.82	-47.6	-48.8	15.2	0.00e+00	0	23	0	1285554176	60	4361
2026-01-11 22:24:44.80	98.72	21.78	-47.6	-48.8	15.3	0.00e+00	0	23	0	1288699904	60	4369
2026-01-11 22:24:45.80	98.97	21.75	-47.7	-48.9	15.2	0.00e+00	0	23	0	1291845632	60	4408
2026-01-11 22:24:46.81	99.23	21.71	-47.6	-48.8	15.2	0.00e+00	0	23	0	1294991360	60	4356
2026-01-11 22:24:47.82	99.49	21.67	-47.6	-48.8	15.2	0.00e+00	0	23	0	1298137088	60	4389
2026-01-11 22:24:48.82	99.74	21.63	-47.6	-48.8	15.2	0.00e+00	0	23	0	1301282816	60	4376
2026-01-11 22:24:49.83	99.99	21.59	-47.6	-48.8	15.2	0.00e+00	0	23	0	1305477120	60	4388
2026-01-11 22:24:50.84	100.25	21.55	-47.7	-48.9	15.2	0.00e+00	0	23	0	1308622848	60	4423
2026-01-11 22:24:51.85	100.50	21.51	-47.6	-48.8	15.3	0.00e+00	0	23	0	1310720000	60	4384
2026-01-11 22:24:52.86	100.76	21.47	-47.6	-48.8	15.2	0.00e+00	0	23	0	1313865728	60	4378
2026-01-11 22:24:53.87	101.01	21.43	-47.6	-48.8	15.2	0.00e+00	0	23	0	1317011456	60	4360
2026-01-11 22:24:54.88	101.26	21.39	-47.6	-48.8	15.2	0.00e+00	0	23	0	1320157184	60	4382
2026-01-11 22:24:55.88	101.51	21.35	-47.7	-48.9	15.2	0.00e+00	0	23	0	1324351488	60	4415
2026-01-11 22:24:56.89	101.76	21.31	-47.8	-49.0	15.1	0.00e+00	0	23	0	1327497216	60	4485
2026-01-11 22:24:57.90	102.01	21.26	-47.8	-49.1	15.1	0.00e+00	0	23	0	1330642944	60	4503
2026-01-11 22:24:58.91	102.26	21.22	-47.9	-49.2	15.2	0.00e+00	0	23	0	1332740096	61	4292
2026-01-11 22:24:59.92	102.51	21.18	-47.9	-49.1	15.2	0.00e+00	0	23	0	1335885824	61	4289
2026-01-11 22:25:00.93	102.76	21.13	-47.8	-49.1	15.2	0.00e+00	0	23	0	1340080128	61	4250
2026-01-11 22:25:01.94	103.00	21.09	-48.0	-49.2	15.2	0.00e+00	0	23	0	1343225856	61	4325
2026-01-11 22:25:02.95	103.25	21.04	-47.9	-49.2	15.2	0.00e+00	0	23	0	1346371584	61	4305
2026-01-11 22:25:03.96	103.50	21.00	-47.9	-49.1	15.2	0.00e+00	0	23	0	1349517312	61	4259
2026-01-11 22:25:04.97	103.74	20.95	-47.9	-49.1	15.2	0.00e+00	0	23	0	1352663040	61	4288
2026-01-11 22:25:05.98	103.99	20.91	-47.9	-49.1	15.2	0.00e+00	0	23	0	1355808768	61	4269
2026-01-11 22:25:06.99	104.23	20.86	-47.8	-49.1	15.2	0.00e+00	0	23	0	1358954496	61	4259
2026-01-11 22:25:07.99	104.47	20.81	-47.8	-49.1	15.2	0.00e+00	0	23	0	1362100224	61	4249
2026-01-11 22:25:09.01	104.71	20.76	-47.8	-49.1	15.3	0.00e+00	0	23	0	1365245952	61	4255
2026-01-11 22:25:10.02	104.96	20.72	-47.8	-49.0	15.3	0.00e+00	0	23	0	1368391680	61	4206
2026-01-11 22:25:11.03	105.20	20.67	-47.8	-49.0	15.3	0.00e+00	0	23	0	1371537408	61	4215
2026-01-11 22:25:12.03	105.43	20.62	-47.8	-49.0	15.3	0.00e+00	0	23	0	1374683136	61	4225
2026-01-11 22:25:13.04	105.67	20.57	-47.8	-49.1	15.3	0.00e+00	0	23	0	1377828864	61	4245
2026-01-11 22:25:14.05	105.91	20.52	-47.8	-49.0	15.3	0.00e+00	0	23	0	1380974592	61	4241
2026-01-11 22:25:15.05	106.15	20.47	-47.9	-49.2	15.2	0.00e+00	0	23	0	1384120320	61	4299
2026-01-11 22:25:16.06	106.38	20.42	-47.9	-49.1	15.2	0.00e+00	0	23	0	1387266048	61	4288
2026-01-11 22:25:17.07	106.62	20.37	-48.0	-49.3	15.2	0.00e+00	0	23	0	1390411776	61	4347
2026-01-11 22:25:18.07	106.85	20.32	-48.0	-49.3	15.2	0.00e+00	0	23	0	1393557504	61	4347
2026-01-11 22:25:19.08	107.09	20.27	-48.0	-49.3	15.1	0.00e+00	0	23	0	1396703232	61	4357
2026-01-11 22:25:20.09	107.32	20.21	-48.1	-49.3	15.1	0.00e+00	0	23	0	1399848960	61	4380
2026-01-11 22:25:21.10	107.56	20.16	-47.9	-49.2	15.2	0.00e+00	0	23	0	1402994688	61	4308
2026-01-11 22:25:22.11	107.79	20.11	-47.9	-49.2	15.2	0.00e+00	0	23	0	1406140416	61	4297
2026-01-11 22:25:23.11	108.02	20.06	-47.8	-49.1	15.2	0.00e+00	0	23	0	1409286144	61	4252
2026-01-11 22:25:24.12	108.25	20.00	-47.7	-48.9	15.3	0.00e+00	0	23	0	1412431872	61	4190
2026-01-11 22:25:25.13	108.48	19.95	-47.8	-49.0	15.3	0.00e+00	0	23	0	1415577600	61	4209
2026-01-11 22:25:26.14	108.71	19.90	-47.7	-49.0	15.3	0.00e+00	0	23	0	1418723328	61	4208
2026-01-11 22:25:27.15	108.94	19.84	-47.7	-48.9	15.3	0.00e+00	0	23	0	1421869056	61	4162
2026-01-11 22:25:28.15	109.16	19.79	-47.8	-49.1	15.3	0.00e+00	0	23	0	1425014784	61	4250
2026-01-11 22:25:29.16	109.39	19.73	-47.9	-49.1	15.2	0.00e+00	0	23	0	1428160512	61	4271
2026-01-11 22:25:30.17	109.62	19.68	-47.9	-49.2	15.2	0.00e+00	0	23	0	1431306240	61	4300
2026-01-11 22:25:31.18	109.84	19.62	-48.0	-49.2	15.2	0.00e+00	0	23	0	1434451968	61	4323
2026-01-11 22:25:32.19	110.07	19.56	-48.0	-49.2	15.2	0.00e+00	0	23	0	1437597696	61	4340
2026-01-11 22:25:33.20	110.29	19.51	-47.8	-49.0	15.3	0.00e+00	0	23	0	1440743424	61	4235
2026-01-11 22:25:34.21	110.51	19.45	-47.9	-49.2	15.2	0.00e+00	0	23	0	1443889152	61	4307
2026-01-11 22:25:35.22	110.74	19.39	-48.0	-49.3	15.1	0.00e+00	0	23	0	1447034880	61	4369
2026-01-11 22:25:36.23	110.96	19.34	-48.0	-49.3	15.2	0.00e+00	0	23	0	1450180608	61	4365
2026-01-11 22:25:37.24	111.18	19.28	-48.1	-49.4	15.1	0.00e+00	0	23	0	1453326336	61	4394
2026-01-11 22:25:38.25	111.40	19.22	-48.0	-49.3	15.2	0.00e+00	0	23	0	1456472064	61	4360
2026-01-11 22:25:39.25	111.61	19.16	-48.1	-49.4	15.1	0.00e+00	0	23	0	1459617792	61	4420
2026-01-11 22:25:40.26	111.83	19.11	-48.0	-49.3	15.2	0.00e+00	0	23	0	1462763520	61	4346
2026-01-11 22:25:41.26	112.05	19.05	-48.0	-49.2	15.2	0.00e+00	0	23	0	1465909248	61	4314
2026-01-11 22:25:42.26	112.26	18.99	-48.0	-49.3	15.2	0.00e+00	0	23	0	1469054976	61	4341
2026-01-11 22:25:43.27	112.48	18.93	-48.1	-49.4	15.1	0.00e+00	0	23	0	1472200704	61	4411
2026-01-11 22:25:44.28	112.69	18.87	-48.1	-49.4	15.1	0.00e+00	0	23	0	1475346432	61	4394
2026-01-11 22:25:45.29	112.91	18.81	-48.1	-49.3	15.1	0.00e+00	0	23	0	1478492160	61	4373
2026-01-11 22:25:46.30	113.12	18.75	-48.0	-49.3	15.1	0.00e+00	0	23	0	1481637888	61	4345
2026-01-11 22:25:47.31	113.33	18.69	-48.1	-49.3	15.1	0.00e+00	0	23	0	1484783616	61	4380
2026-01-11 22:25:48.32	113.55	18.63	-48.0	-49.3	15.1	0.00e+00	0	23	0	1487929344	61	4363
2026-01-11 22:25:49.33	113.76	18.57	-48.2	-49.5	15.1	0.00e+00	0	23	0	1491075072	61	4449
2026-01-11 22:25:50.34	113.97	18.51	-48.0	-49.3	15.1	0.00e+00	0	23	0	1494220800	61	4360
2026-01-11 22:25:51.35	114.18	18.45	-48.1	-49.3	15.1	0.00e+00	0	23	0	1497366528	61	4388
2026-01-11 22:25:52.35	114.38	18.39	-48.0	-49.3	15.2	0.00e+00	0	23	0	1500512256	61	4362
2026-01-11 22:25:53.36	114.59	18.33	-48.0	-49.2	15.2	0.00e+00	0	23	0	1503657984	61	4328
2026-01-11 22:25:54.37	114.80	18.27	-47.8	-49.1	15.2	0.00e+00	0	23	0	1506803712	61	4258
2026-01-11 22:25:55.38	115.00	18.20	-47.9	-49.2	15.2	0.00e+00	0	23	0	1509949440	61	4294
2026-01-11 22:25:56.39	115.21	18.14	-47.9	-49.1	15.2	0.00e+00	0	23	0	1513095168	61	4277
2026-01-11 22:25:57.39	115.41	18.08	-47.9	-49.2	15.2	0.00e+00	0	23	0	1516240896	61	4310
2026-01-11 22:25:58.40	115.61	18.02	-47.9	-49.2	15.2	0.00e+00	0	23	0	1519386624	61	4306
2026-01-11 22:25:59.41	115.82	17.96	-47.9	-49.2	15.2	0.00e+00	0	23	0	1522532352	61	4299
2026-01-11 22:26:00.42	116.02	17.89	-47.9	-49.2	15.2	0.00e+00	0	23	0	1525678080	61	4301
2026-01-11 22:26:01.43	116.22	17.83	-48.0	-49.2	15.1	0.00e+00	0	23	0	1528823808	61	4326
2026-01-11 22:26:02.44	116.42	17.77	-48.0	-49.3	15.1	0.00e+00	0	23	0	1531969536	61	4365
2026-01-11 22:26:03.45	116.62	17.70	-48.0	-49.3	15.1	0.00e+00	0	23	0	1535115264	61	4358
2026-01-11 22:26:04.46	116.82	17.64	-48.0	-49.3	15.1	0.00e+00	0	23	0	1538260992	61	4351
2026-01-11 22:26:05.47	117.02	17.58	-48.1	-49.4	15.1	0.00e+00	0	22	0	1541406720	61	4408
2026-01-11 22:26:06.48	117.21	17.51	-48.2	-49.4	15.1	0.00e+00	0	23	0	1544552448	61	4438
2026-01-11 22:26:07.48	117.41	17.45	-48.0	-49.3	15.1	0.00e+00	0	23	0	1547698176	61	4375
2026-01-11 22:26:08.49	117.60	17.39	-48.0	-49.3	15.1	0.00e+00	0	23	0	1550843904	61	4343
2026-01-11 22:26:09.50	117.80	17.32	-48.0	-49.3	15.1	0.00e+00	0	23	0	1553989632	61	4347
2026-01-11 22:26:10.52	117.99	17.26	-48.0	-49.3	15.1	0.00e+00	0	23	0	1557135360	61	4372
2026-01-11 22:26:11.52	118.19	17.19	-48.0	-49.3	15.1	0.00e+00	0	23	0	1560281088	61	4367
2026-01-11 22:26:12.53	118.38	17.13	-48.1	-49.4	15.1	0.00e+00	0	23	0	1563426816	61	4397
2026-01-11 22:26:13.53	118.57	17.06	-48.2	-49.4	15.1	0.00e+00	0	23	0	1566572544	61	4436
2026-01-11 22:26:14.54	118.76	17.00	-48.3	-49.6	15.0	0.00e+00	0	23	0	1569718272	61	4523
2026-01-11 22:26:15.55	118.95	16.93	-48.2	-49.5	15.0	0.00e+00	0	23	0	1572864000	61	4454
2026-01-11 22:26:16.56	119.14	16.87	-48.1	-49.4	15.1	0.00e+00	0	23	0	1576009728	61	4401
2026-01-11 22:26:17.57	119.33	16.80	-48.1	-49.4	15.1	0.00e+00	0	23	0	1579155456	61	4425
2026-01-11 22:26:18.58	119.51	16.74	-48.2	-49.5	15.1	0.00e+00	0	23	0	1582301184	61	4442
2026-01-11 22:26:19.59	119.70	16.67	-48.1	-49.4	15.1	0.00e+00	0	23	0	1585446912	61	4422
2026-01-11 22:26:20.59	119.88	16.61	-48.2	-49.5	15.1	0.00e+00	0	23	0	1588592640	61	4449
2026-01-11 22:26:21.60	120.07	16.54	-48.3	-49.6	15.0	0.00e+00	0	23	0	1591738368	61	4504
2026-01-11 22:26:22.61	120.25	16.48	-48.2	-49.5	15.1	0.00e+00	0	23	0	1594884096	61	4444
2026-01-11 22:26:23.62	120.44	16.41	-48.3	-49.6	15.0	0.00e+00	0	23	0	1598029824	61	4494
2026-01-11 22:26:24.63	120.62	16.34	-48.1	-49.4	15.1	0.00e+00	0	23	0	1601175552	61	4422
2026-01-11 22:26:25.63	120.80	16.28	-48.1	-49.4	15.1	0.00e+00	0	23	0	1604321280	61	4432
2026-01-11 22:26:26.63	120.98	16.21	-48.1	-49.4	15.1	0.00e+00	0	23	0	1607467008	61	4418
2026-01-11 22:26:27.64	121.16	16.15	-48.1	-49.4	15.1	0.00e+00	0	23	0	1610612736	61	4407
2026-01-11 22:26:28.65	121.34	16.08	-48.2	-49.4	15.1	0.00e+00	0	23	0	1613758464	61	4440
2026-01-11 22:26:29.66	121.52	16.01	-48.2	-49.5	15.0	0.00e+00	0	23	0	1616904192	61	4491
2026-01-11 22:26:30.66	121.70	15.95	-48.2	-49.5	15.0	0.00e+00	0	23	0	1620049920	61	4446
2026-01-11 22:26:31.67	121.87	15.88	-48.3	-49.6	15.0	0.00e+00	0	23	0	1623195648	61	4515
2026-01-11 22:26:32.68	122.05	15.81	-48.3	-49.6	15.0	0.00e+00	0	23	0	1626341376	61	4519
2026-01-11 22:26:33.69	122.23	15.75	-48.2	-49.5	15.0	0.00e+00	0	23	0	1629487104	61	4488
2026-01-11 22:26:34.70	122.40	15.68	-48.4	-49.7	14.9	0.00e+00	0	23	0	1632632832	61	4574
2026-01-11 22:26:35.71	122.58	15.61	-48.1	-49.4	15.1	0.00e+00	0	23	0	1635778560	61	4421
2026-01-11 22:26:36.72	122.75	15.55	-48.1	-49.4	15.1	0.00e+00	0	23	0	1638924288	61	4395
2026-01-11 22:26:37.73	122.92	15.48	-48.1	-49.4	15.1	0.00e+00	0	23	0	1642070016	61	4417
2026-01-11 22:26:38.74	123.10	15.41	-48.0	-49.3	15.1	0.00e+00	0	23	0	1645215744	61	4360
2026-01-11 22:26:39.75	123.27	15.34	-47.9	-49.2	15.1	0.00e+00	0	23	0	1648361472	61	4321
2026-01-11 22:26:40.75	123.44	15.28	-48.0	-49.3	15.1	0.00e+00	0	23	0	1651507200	61	4363
2026-01-11 22:26:41.76	123.61	15.21	-48.2	-49.5	15.0	0.00e+00	0	23	0	1654652928	61	4484
2026-01-11 22:26:42.77	123.78	15.14	-48.4	-49.7	14.9	0.00e+00	0	23	0	1657798656	61	4562
2026-01-11 22:26:43.78	123.94	15.08	-48.4	-49.8	15.0	0.00e+00	0	23	0	1660944384	62	4341
2026-01-11 22:26:44.79	124.11	15.01	-48.6	-50.0	14.9	0.00e+00	0	23	0	1664090112	62	4447
2026-01-11 22:26:45.79	124.28	14.94	-48.6	-50.0	14.9	0.00e+00	0	23	0	1667235840	62	4446
2026-01-11 22:26:46.80	124.44	14.87	-48.5	-49.8	15.0	0.00e+00	0	23	0	1670381568	62	4385
2026-01-11 22:26:47.81	124.61	14.81	-48.5	-49.9	15.0	0.00e+00	0	23	0	1673527296	62	4394
2026-01-11 22:26:48.82	124.77	14.74	-48.7	-50.0	14.9	0.00e+00	0	23	0	1676673024	62	4471
2026-01-11 22:26:49.83	124.94	14.67	-48.8	-50.3	14.8	0.00e+00	0	23	0	1679818752	62	4600
2026-01-11 22:26:50.84	125.10	14.60	-48.9	-50.3	14.8	0.00e+00	0	23	0	1682964480	62	4605
2026-01-11 22:26:51.85	125.26	14.54	-48.9	-50.3	14.8	0.00e+00	0	23	0	1686110208	62	4627
2026-01-11 22:26:52.86	125.43	14.47	-48.9	-50.2	14.9	0.00e+00	0	23	0	1689255936	63	4340
2026-01-11 22:26:53.87	125.59	14.40	-48.8	-50.2	15.0	0.00e+00	0	23	0	1692401664	63	4303
2026-01-11 22:26:54.87	125.75	14.33	-48.9	-50.3	14.9	0.00e+00	0	23	0	1695547392	63	4359
2026-01-11 22:26:55.88	125.91	14.27	-48.9	-50.3	14.9	0.00e+00	0	23	0	1698693120	63	4366
2026-01-11 22:26:56.89	126.07	14.20	-48.7	-50.1	15.0	0.00e+00	0	23	0	1701838848	63	4263
2026-01-11 22:26:57.90	126.22	14.13	-48.9	-50.3	14.9	0.00e+00	0	23	0	1704984576	63	4342
2026-01-11 22:26:58.91	126.38	14.06	-48.8	-50.2	14.9	0.00e+00	0	23	0	1708130304	63	4337
2026-01-11 22:26:59.91	126.54	14.00	-48.9	-50.3	14.9	0.00e+00	0	23	0	1711276032	63	4355
2026-01-11 22:27:00.92	126.69	13.93	-48.9	-50.3	14.9	0.00e+00	0	23	0	1714421760	63	4382
2026-01-11 22:27:01.93	126.85	13.86	-49.0	-50.5	14.8	0.00e+00	0	23	0	1717567488	63	4444
2026-01-11 22:27:02.94	127.00	13.79	-49.0	-50.4	14.9	0.00e+00	0	23	0	1720713216	63	4401
2026-01-11 22:27:03.95	127.16	13.73	-48.8	-50.1	15.0	0.00e+00	0	23	0	1723858944	63	4289
2026-01-11 22:27:04.95	127.31	13.66	-48.8	-50.1	15.0	0.00e+00	0	23	0	1727004672	63	4274
2026-01-11 22:27:05.96	127.46	13.59	-48.8	-50.1	15.0	0.00e+00	0	23	0	1730150400	63	4275
2026-01-11 22:27:06.97	127.62	13.52	-48.8	-50.2	14.9	0.00e+00	0	23	0	1733296128	63	4294
2026-01-11 22:27:07.99	127.77	13.45	-48.7	-50.0	15.0	0.00e+00	0	23	0	1736441856	63	4226
2026-01-11 22:27:09.00	127.92	13.39	-48.7	-50.0	15.0	0.00e+00	0	23	0	1739587584	63	4224
2026-01-11 22:27:10.00	128.07	13.32	-48.7	-50.1	15.0	0.00e+00	0	23	0	1742733312	63	4255
2026-01-11 22:27:11.01	128.22	13.25	-48.8	-50.2	14.9	0.00e+00	0	23	0	1745879040	63	4319
2026-01-11 22:27:12.01	128.37	13.18	-48.8	-50.2	14.9	0.00e+00	0	23	0	1749024768	63	4324
2026-01-11 22:27:13.02	128.51	13.12	-49.0	-50.4	14.8	0.00e+00	0	23	0	1752170496	63	4406
2026-01-11 22:27:14.03	128.66	13.05	-49.0	-50.4	14.8	0.00e+00	0	23	0	1755316224	63	4436
2026-01-11 22:27:15.04	128.81	12.98	-49.0	-50.5	14.8	0.00e+00	0	23	0	1758461952	63	4445
2026-01-11 22:27:16.05	128.96	12.91	-49.2	-50.6	14.7	0.00e+00	0	23	0	1761607680	63	4527
2026-01-11 22:27:17.06	129.10	12.85	-49.3	-50.7	14.6	0.00e+00	0	23	0	1764753408	63	4593
2026-01-11 22:27:18.07	129.25	12.78	-49.2	-50.6	14.7	0.00e+00	0	23	0	1767899136	63	4539
2026-01-11 22:27:19.08	129.39	12.71	-49.2	-50.6	14.7	0.00e+00	0	23	0	1771044864	63	4541
2026-01-11 22:27:20.09	129.54	12.64	-49.2	-50.7	14.7	0.00e+00	0	23	0	1774190592	63	4565
2026-01-11 22:27:21.10	129.68	12.58	-49.3	-50.7	14.6	0.00e+00	0	23	0	1777336320	63	4596
2026-01-11 22:27:22.11	129.82	12.51	-49.2	-50.6	14.7	0.00e+00	0	23	0	1780482048	63	4517
2026-01-11 22:27:23.12	129.96	12.44	-49.1	-50.5	14.7	0.00e+00	0	23	0	1783627776	63	4492
2026-01-11 22:27:24.13	130.10	12.37	-49.1	-50.5	14.7	0.00e+00	0	23	0	1786773504	63	4469
2026-01-11 22:27:25.14	130.25	12.31	-49.1	-50.6	14.7	0.00e+00	0	23	0	1789919232	63	4502
2026-01-11 22:27:26.15	130.39	12.24	-49.1	-50.5	14.7	0.00e+00	0	23	0	1793064960	63	4470
2026-01-11 22:27:27.15	130.52	12.17	-49.0	-50.4	14.8	0.00e+00	0	23	0	1796210688	63	4405
2026-01-11 22:27:28.16	130.66	12.10	-48.9	-50.3	14.8	0.00e+00	0	23	0	1799356416	63	4378
2026-01-11 22:27:29.17	130.80	12.04	-48.9	-50.3	14.8	0.00e+00	0	23	0	1802502144	63	4379
2026-01-11 22:27:30.18	130.94	11.97	-48.9	-50.3	14.8	0.00e+00	0	23	0	1805647872	63	4364
2026-01-11 22:27:31.19	131.08	11.90	-49.0	-50.5	14.8	0.00e+00	0	23	0	1808793600	63	4450
2026-01-11 22:27:32.20	131.21	11.84	-49.1	-50.5	14.7	0.00e+00	0	23	0	1811939328	63	4474
2026-01-11 22:27:33.21	131.35	11.77	-49.2	-50.7	14.6	0.00e+00	0	23	0	1815085056	63	4573
2026-01-11 22:27:34.22	131.48	11.70	-49.3	-50.8	14.6	0.00e+00	0	23	0	1818230784	63	4606
2026-01-11 22:27:35.23	131.62	11.63	-49.3	-50.8	14.6	0.00e+00	0	23	0	1821376512	63	4629
2026-01-11 22:27:36.24	131.75	11.57	-49.4	-50.9	14.6	0.00e+00	0	23	0	1824522240	64	4422
2026-01-11 22:27:37.25	131.88	11.50	-49.3	-50.8	14.7	0.00e+00	0	23	0	1827667968	64	4365
2026-01-11 22:27:38.26	132.02	11.43	-49.4	-50.8	14.7	0.00e+00	0	23	0	1830813696	64	4387
2026-01-11 22:27:39.26	132.15	11.37	-49.2	-50.7	14.7	0.00e+00	0	23	0	1833959424	64	4331
2026-01-11 22:27:40.27	132.28	11.30	-49.4	-50.9	14.7	0.00e+00	0	23	0	1837105152	64	4400
2026-01-11 22:27:41.28	132.41	11.23	-49.2	-50.6	14.8	0.00e+00	0	23	0	1840250880	64	4275
2026-01-11 22:27:42.29	132.54	11.17	-49.2	-50.7	14.7	0.00e+00	0	23	0	1843396608	64	4327
2026-01-11 22:27:43.30	132.67	11.10	-49.4	-50.9	14.7	0.00e+00	0	23	0	1846542336	64	4410
2026-01-11 22:27:44.31	132.80	11.03	-49.4	-51.0	14.6	0.00e+00	0	23	0	1849688064	64	4444
2026-01-11 22:27:45.32	132.93	10.97	-49.3	-50.7	14.7	0.00e+00	0	23	0	1852833792	64	4339
2026-01-11 22:27:46.33	133.06	10.90	-49.3	-50.8	14.7	0.00e+00	0	23	0	1855979520	64	4376
2026-01-11 22:27:47.34	133.19	10.83	-49.2	-50.7	14.7	0.00e+00	0	23	0	1860173824	64	4309
2026-01-11 22:27:48.34	133.31	10.77	-49.3	-50.8	14.7	0.00e+00	0	23	0	1862270976	64	4344
2026-01-11 22:27:49.35	133.44	10.70	-49.4	-50.9	14.6	0.00e+00	0	23	0	1865416704	64	4393
2026-01-11 22:27:50.36	133.57	10.64	-49.3	-50.8	14.7	0.00e+00	0	23	0	1868562432	64	4374
2026-01-11 22:27:51.37	133.69	10.57	-49.3	-50.8	14.7	0.00e+00	0	23	0	1871708160	64	4360
2026-01-11 22:27:52.38	133.82	10.50	-49.2	-50.6	14.8	0.00e+00	0	23	0	1875902464	64	4278
2026-01-11 22:27:53.39	133.94	10.44	-49.3	-50.8	14.7	0.00e+00	0	23	0	1879048192	64	4349
2026-01-11 22:27:54.40	134.06	10.37	-49.2	-50.7	14.7	0.00e+00	0	23	0	1882193920	64	4303
2026-01-11 22:27:55.41	134.19	10.31	-49.2	-50.7	14.7	0.00e+00	0	23	0	1884291072	64	4314
2026-01-11 22:27:56.42	134.31	10.24	-49.2	-50.6	14.8	0.00e+00	0	23	0	1887436800	64	4271
2026-01-11 22:27:57.43	134.43	10.17	-49.3	-50.8	14.7	0.00e+00	0	23	0	1890582528	64	4350
2026-01-11 22:27:58.43	134.55	10.11	-49.3	-50.7	14.7	0.00e+00	0	23	0	1894776832	64	4336
2026-01-11 22:27:59.44	134.67	10.04	-49.3	-50.8	14.7	0.00e+00	0	23	0	1897922560	64	4345
2026-01-11 22:28:00.45	134.80	9.98	-49.2	-50.7	14.7	0.00e+00	0	23	0	1901068288	64	4304
2026-01-11 22:28:01.46	134.92	9.91	-49.3	-50.8	14.7	0.00e+00	0	23	0	1904214016	64	4347
2026-01-11 22:28:02.47	135.04	9.85	-49.3	-50.8	14.7	0.00e+00	0	23	0	1907359744	64	4378
2026-01-11 22:28:03.48	135.15	9.78	-49.3	-50.8	14.7	0.00e+00	0	23	0	1910505472	64	4356
2026-01-11 22:28:04.48	135.27	9.72	-49.4	-50.9	14.6	0.00e+00	0	23	0	1913651200	64	4418
2026-01-11 22:28:05.49	135.39	9.65	-49.4	-50.9	14.6	0.00e+00	0	23	0	1916796928	64	4419
2026-01-11 22:28:06.50	135.51	9.59	-49.4	-50.9	14.6	0.00e+00	0	23	0	1919942656	64	4430
2026-01-11 22:28:07.51	135.63	9.52	-49.4	-51.0	14.6	0.00e+00	0	23	0	1923088384	64	4442
2026-01-11 22:28:08.52	135.74	9.46	-49.5	-51.0	14.5	0.00e+00	0	23	0	1926234112	64	4470
2026-01-11 22:28:09.53	135.86	9.39	-49.4	-50.9	14.6	0.00e+00	0	23	0	1929379840	64	4407
2026-01-11 22:28:10.54	135.97	9.32	-49.2	-50.6	14.7	0.00e+00	0	23	0	1932525568	64	4289
2026-01-11 22:28:11.55	136.09	9.26	-49.3	-50.8	14.6	0.00e+00	0	23	0	1935671296	64	4385
2026-01-11 22:28:12.56	136.20	9.20	-49.2	-50.7	14.7	0.00e+00	0	23	0	1938817024	64	4294
2026-01-11 22:28:13.56	136.32	9.13	-49.2	-50.7	14.7	0.00e+00	0	23	0	1941962752	64	4323
2026-01-11 22:28:14.57	136.43	9.07	-49.3	-50.7	14.7	0.00e+00	0	23	0	1945108480	64	4336
2026-01-11 22:28:15.58	136.54	9.00	-49.2	-50.7	14.7	0.00e+00	0	23	0	1948254208	64	4307
2026-01-11 22:28:16.59	136.66	8.94	-49.4	-50.9	14.6	0.00e+00	0	23	0	1951399936	64	4420
2026-01-11 22:28:17.60	136.77	8.87	-49.3	-50.8	14.7	0.00e+00	0	23	0	1954545664	64	4364
2026-01-11 22:28:18.61	136.88	8.81	-49.4	-50.9	14.6	0.00e+00	0	23	0	1957691392	64	4407
2026-01-11 22:28:19.62	136.99	8.74	-49.4	-50.9	14.6	0.00e+00	0	23	0	1960837120	64	4406
2026-01-11 22:28:20.63	137.10	8.68	-49.3	-50.7	14.7	0.00e+00	0	23	0	1963982848	64	4340
2026-01-11 22:28:21.63	137.21	8.62	-49.3	-50.8	14.6	0.00e+00	0	23	0	1967128576	64	4383
2026-01-11 22:28:22.64	137.32	8.55	-49.4	-51.0	14.5	0.00e+00	0	23	0	1970274304	64	4445
2026-01-11 22:28:23.65	137.43	8.49	-49.5	-51.0	14.5	0.00e+00	0	23	0	1973420032	64	4480
2026-01-11 22:28:24.66	137.54	8.42	-49.5	-51.1	14.5	0.00e+00	0	23	0	1976565760	64	4504
2026-01-11 22:28:25.67	137.65	8.36	-49.6	-51.1	14.4	0.00e+00	0	23	0	1979711488	64	4545
2026-01-11 22:28:26.68	137.76	8.30	-49.6	-51.2	14.4	0.00e+00	0	23	0	1982857216	64	4548
2026-01-11 22:28:27.69	137.87	8.23	-49.7	-51.4	14.3	0.00e+00	0	23	0	1986002944	64	4660
2026-01-11 22:28:28.70	137.97	8.17	-49.7	-51.3	14.3	0.00e+00	0	23	0	1989148672	64	4636
2026-01-11 22:28:29.71	138.08	8.11	-49.7	-51.3	14.3	0.00e+00	0	23	0	1992294400	64	4645
2026-01-11 22:28:30.72	138.19	8.04	-49.6	-51.2	14.4	0.00e+00	0	23	0	1995440128	64	4591
2026-01-11 22:28:31.73	138.29	7.98	-49.8	-51.5	14.2	0.00e+00	0	23	0	1998585856	64	4715
2026-01-11 22:28:32.74	138.40	7.91	-49.8	-51.5	14.2	0.00e+00	0	23	0	2001731584	64	4710
2026-01-11 22:28:33.75	138.50	7.85	-49.8	-51.4	14.3	0.00e+00	0	23	0	2004877312	64	4686
2026-01-11 22:28:34.76	138.61	7.79	-49.9	-51.6	14.2	0.00e+00	0	23	0	2008023040	64	4766
2026-01-11 22:28:35.77	138.71	7.73	-49.8	-51.5	14.2	0.00e+00	0	23	0	2011168768	64	4728
2026-01-11 22:28:36.78	138.82	7.66	-50.0	-51.6	14.3	0.00e+00	0	23	0	2014314496	65	4541
2026-01-11 22:28:37.78	138.92	7.60	-49.9	-51.6	14.3	0.00e+00	0	23	0	2017460224	65	4533
2026-01-11 22:28:38.79	139.02	7.54	-49.9	-51.5	14.3	0.00e+00	0	23	0	2020605952	65	4481
2026-01-11 22:28:39.80	139.12	7.47	-50.0	-51.7	14.2	0.00e+00	0	23	0	2023751680	65	4589
2026-01-11 22:28:40.81	139.23	7.41	-50.2	-51.9	14.1	0.00e+00	0	23	0	2026897408	65	4687
2026-01-11 22:28:41.82	139.33	7.35	-50.1	-51.8	14.1	0.00e+00	0	23	0	2030043136	65	4626
2026-01-11 22:28:42.82	139.43	7.29	-50.0	-51.7	14.2	0.00e+00	0	23	0	2033188864	65	4565
2026-01-11 22:28:43.83	139.53	7.22	-50.1	-51.8	14.1	0.00e+00	0	23	0	2036334592	65	4621
2026-01-11 22:28:44.84	139.63	7.16	-50.0	-51.7	14.2	0.00e+00	0	23	0	2039480320	65	4588
2026-01-11 22:28:45.85	139.73	7.10	-50.0	-51.8	14.2	0.00e+00	0	23	0	2042626048	65	4599
2026-01-11 22:28:46.86	139.83	7.04	-50.2	-52.0	14.0	0.00e+00	0	23	0	2045771776	65	4732
2026-01-11 22:28:47.87	139.93	6.97	-50.1	-51.8	14.1	0.00e+00	0	23	0	2048917504	65	4650
2026-01-11 22:28:48.88	140.03	6.91	-50.1	-51.9	14.1	0.00e+00	0	23	0	2052063232	65	4656
2026-01-11 22:28:49.89	140.12	6.85	-50.2	-51.9	14.0	0.00e+00	0	23	0	2055208960	65	4690
2026-01-11 22:28:50.90	140.22	6.79	-50.1	-51.8	14.1	0.00e+00	0	23	0	2058354688	65	4636
2026-01-11 22:28:51.91	140.32	6.73	-50.2	-51.9	14.0	0.00e+00	0	23	0	2061500416	65	4695
