passes_logs/2026/01/11/R3.2S_Murmansk/R3.2S_Murmansk__20260111_032624_FENGYUN_3D_rec.log

#Pass ID: 20260111_032624_FENGYUN 3D
#Satellite: FENGYUN 3D
#Configuration: FENGYUN 3D
#almurnet v.1.7.20251203
#Start time: 2026-01-11 03:26:25

#Version: 2.2.20231116
#Station: R3.2S_Murmansk
#Location: 33.079688 lon 68.888172 lat
#TLE: 1 43010U 17072A   26009.92921666 -.00000228  00000+0 -86059-4 0  9998
#TLE: 2 43010  98.9936 341.6668 0002176 116.7510 243.3888 14.19693142422537

#Time	Az	El	Level	Level2	SNR	BER	BlckErr	Temp	State	Recorded	gain1	gain2
2026-01-11 03:26:25.21	28.01	2.07	-53.3	-66.2	3.8	8.46e-01	0	23	0	0	71	17230
2026-01-11 03:26:26.22	28.00	2.13	-53.3	-66.2	3.8	8.44e-01	0	24	104	0	71	17265
2026-01-11 03:26:27.22	27.98	2.20	-53.3	-66.2	3.8	8.47e-01	0	24	104	0	71	17250
2026-01-11 03:26:28.22	27.97	2.26	-53.3	-66.2	3.8	8.45e-01	0	24	104	0	71	17253
2026-01-11 03:26:29.22	27.96	2.32	-53.3	-66.3	3.8	8.45e-01	0	24	104	0	71	17323
2026-01-11 03:26:30.22	27.94	2.39	-53.3	-66.3	3.8	8.46e-01	0	24	104	0	71	17290
2026-01-11 03:26:31.22	27.93	2.45	-53.3	-66.3	3.8	8.45e-01	0	24	104	0	71	17284
2026-01-11 03:26:32.22	27.92	2.52	-53.3	-66.2	3.8	8.46e-01	0	24	104	0	71	17265
2026-01-11 03:26:33.22	27.90	2.58	-53.3	-66.2	3.8	8.45e-01	0	24	104	0	71	17268
2026-01-11 03:26:34.22	27.89	2.65	-53.3	-66.2	3.8	8.46e-01	0	24	104	0	71	17258
2026-01-11 03:26:35.23	27.88	2.71	-53.3	-66.3	3.8	8.44e-01	0	24	104	0	71	17326
2026-01-11 03:26:36.23	27.86	2.78	-53.3	-66.3	3.8	8.44e-01	0	24	104	0	71	17293
2026-01-11 03:26:37.23	27.85	2.84	-53.3	-66.3	3.8	8.46e-01	0	24	104	0	71	17303
2026-01-11 03:26:38.24	27.83	2.91	-53.3	-66.2	3.8	8.46e-01	0	24	104	0	71	17251
2026-01-11 03:26:39.24	27.82	2.97	-53.3	-66.3	3.8	8.46e-01	0	24	104	0	71	17312
2026-01-11 03:26:40.25	27.81	3.04	-53.3	-66.3	3.8	8.45e-01	0	24	104	0	71	17337
2026-01-11 03:26:41.25	27.79	3.11	-53.3	-66.3	3.8	8.48e-01	0	24	104	0	71	17322
2026-01-11 03:26:42.24	27.78	3.17	-53.3	-66.3	3.8	8.46e-01	0	24	104	0	71	17355
2026-01-11 03:26:43.25	27.76	3.24	-53.3	-66.3	3.8	8.45e-01	0	24	104	0	71	17348
2026-01-11 03:26:44.25	27.75	3.31	-53.3	-66.3	3.8	8.45e-01	0	24	104	0	71	17356
2026-01-11 03:26:45.25	27.73	3.37	-53.3	-66.3	3.8	8.44e-01	0	24	104	0	71	17334
2026-01-11 03:26:46.25	27.72	3.44	-53.3	-66.3	3.8	8.46e-01	0	24	104	0	71	17322
2026-01-11 03:26:47.24	27.70	3.51	-53.3	-66.3	3.8	8.46e-01	0	24	104	0	71	17325
2026-01-11 03:26:48.24	27.69	3.57	-53.3	-66.3	3.8	8.44e-01	0	25	104	0	71	17385
2026-01-11 03:26:49.24	27.67	3.64	-53.3	-66.3	3.8	8.46e-01	0	24	104	0	71	17336
2026-01-11 03:26:50.24	27.66	3.71	-53.3	-66.3	3.8	8.46e-01	0	24	104	0	71	17373
2026-01-11 03:26:51.25	27.64	3.78	-53.3	-66.3	3.8	8.45e-01	0	24	104	0	71	17385
2026-01-11 03:26:52.24	27.63	3.84	-53.4	-66.3	3.8	8.44e-01	0	24	104	0	71	17366
2026-01-11 03:26:53.23	27.61	3.91	-53.3	-66.3	3.8	8.44e-01	0	24	104	0	71	17423
2026-01-11 03:26:54.23	27.60	3.98	-53.3	-66.3	3.8	8.45e-01	0	24	104	0	71	17373
2026-01-11 03:26:55.23	27.58	4.05	-53.3	-66.3	3.8	8.46e-01	0	25	104	0	71	17417
2026-01-11 03:26:56.23	27.57	4.11	-53.3	-66.3	3.8	8.45e-01	0	25	104	0	71	17365
2026-01-11 03:26:57.23	27.55	4.18	-53.3	-66.3	3.8	8.46e-01	0	25	104	0	71	17397
2026-01-11 03:26:58.23	27.54	4.25	-53.3	-66.3	3.8	8.46e-01	0	25	104	0	71	17347
2026-01-11 03:26:59.22	27.52	4.32	-53.3	-66.3	3.8	8.45e-01	0	25	104	0	71	17426
2026-01-11 03:27:00.23	27.50	4.39	-53.4	-66.3	3.8	8.45e-01	0	25	104	0	71	17415
2026-01-11 03:27:01.23	27.49	4.46	-53.4	-66.3	3.8	8.46e-01	0	25	104	0	71	17346
2026-01-11 03:27:02.22	27.47	4.53	-53.3	-66.3	3.8	8.45e-01	0	25	104	0	71	17404
2026-01-11 03:27:03.22	27.46	4.60	-53.4	-66.3	3.8	8.45e-01	0	25	104	0	71	17414
2026-01-11 03:27:04.22	27.44	4.67	-53.4	-66.3	3.8	8.46e-01	0	25	104	0	71	17423
2026-01-11 03:27:05.23	27.42	4.74	-53.4	-66.3	3.8	8.45e-01	0	25	104	0	71	17436
2026-01-11 03:27:06.22	27.41	4.81	-53.4	-66.3	3.8	8.44e-01	0	25	104	0	71	17360
2026-01-11 03:27:07.23	27.39	4.88	-53.4	-66.3	3.8	8.46e-01	0	25	104	0	71	17434
2026-01-11 03:27:08.24	27.37	4.95	-53.4	-66.3	3.8	8.45e-01	0	25	104	0	71	17389
2026-01-11 03:27:09.24	27.36	5.02	-53.4	-66.3	3.8	8.45e-01	0	25	104	0	71	17429
2026-01-11 03:27:10.24	27.34	5.09	-53.4	-66.3	3.8	8.46e-01	0	25	104	0	71	17449
2026-01-11 03:27:11.24	27.32	5.16	-53.4	-66.3	3.8	8.45e-01	0	25	104	0	71	17447
2026-01-11 03:27:12.24	27.31	5.23	-53.4	-66.3	3.8	8.46e-01	0	25	104	0	71	17427
2026-01-11 03:27:13.24	27.29	5.31	-53.4	-66.3	3.8	8.47e-01	0	25	104	0	71	17465
2026-01-11 03:27:14.24	27.27	5.38	-53.4	-66.3	3.8	8.45e-01	0	25	104	0	71	17450
2026-01-11 03:27:15.25	27.25	5.45	-53.4	-66.4	3.8	8.46e-01	0	25	104	0	71	17482
2026-01-11 03:27:16.26	27.24	5.52	-53.4	-66.3	3.8	8.45e-01	0	25	104	0	71	17436
2026-01-11 03:27:17.26	27.22	5.59	-53.4	-66.3	3.8	8.45e-01	0	25	104	0	71	17464
2026-01-11 03:27:18.26	27.20	5.67	-53.4	-66.3	3.8	8.46e-01	0	25	104	0	71	17475
2026-01-11 03:27:19.27	27.18	5.74	-53.4	-66.3	3.8	8.46e-01	0	25	104	0	71	17479
2026-01-11 03:27:20.27	27.16	5.81	-53.4	-66.3	3.8	8.44e-01	0	25	104	0	71	17461
2026-01-11 03:27:21.28	27.15	5.89	-53.4	-66.4	3.8	8.46e-01	0	25	104	0	71	17492
2026-01-11 03:27:22.28	27.13	5.96	-53.4	-66.3	3.8	8.46e-01	0	25	104	0	71	17450
2026-01-11 03:27:23.28	27.11	6.03	-53.4	-66.3	3.8	8.44e-01	0	25	104	0	71	17459
2026-01-11 03:27:24.28	27.09	6.11	-53.4	-66.3	3.8	8.45e-01	0	25	104	0	71	17394
2026-01-11 03:27:25.29	27.07	6.18	-53.4	-66.3	3.8	8.46e-01	0	25	104	0	71	17375
2026-01-11 03:27:26.29	27.05	6.26	-53.4	-66.3	3.8	8.45e-01	0	25	104	0	71	17357
2026-01-11 03:27:27.30	27.03	6.33	-53.4	-66.3	3.8	8.46e-01	0	25	104	0	71	17459
2026-01-11 03:27:28.30	27.02	6.41	-53.4	-66.3	3.8	8.45e-01	0	25	104	0	71	17443
2026-01-11 03:27:29.30	27.00	6.48	-53.4	-66.3	3.8	8.45e-01	0	25	104	0	71	17434
2026-01-11 03:27:30.30	26.98	6.55	-53.4	-66.3	3.8	8.45e-01	0	25	104	0	71	17447
2026-01-11 03:27:31.31	26.96	6.63	-53.4	-66.3	3.8	8.45e-01	0	26	104	0	71	17423
2026-01-11 03:27:32.30	26.94	6.71	-53.4	-66.3	3.8	8.45e-01	0	25	104	0	71	17376
2026-01-11 03:27:33.31	26.92	6.78	-53.4	-66.3	3.8	8.45e-01	0	25	104	0	71	17429
2026-01-11 03:27:34.31	26.90	6.86	-53.4	-66.3	3.8	8.46e-01	0	25	104	0	71	17409
2026-01-11 03:27:35.30	26.88	6.93	-53.4	-66.3	3.8	8.46e-01	0	26	104	0	71	17421
2026-01-11 03:27:36.31	26.86	7.01	-53.4	-66.3	3.8	8.46e-01	0	25	104	0	71	17434
2026-01-11 03:27:37.31	26.84	7.09	-53.4	-66.3	3.8	8.45e-01	0	26	104	0	71	17462
2026-01-11 03:27:38.30	26.82	7.16	-53.4	-66.4	3.8	8.46e-01	0	26	104	0	71	17491
2026-01-11 03:27:39.31	26.80	7.24	-53.4	-66.4	3.8	8.45e-01	0	25	104	0	71	17527
2026-01-11 03:27:40.31	26.78	7.32	-53.4	-66.4	3.9	8.45e-01	0	26	104	0	71	17487
2026-01-11 03:27:41.31	26.76	7.39	-53.4	-66.4	3.8	8.46e-01	0	26	104	0	71	17517
2026-01-11 03:27:42.31	26.74	7.47	-53.4	-66.4	3.8	8.46e-01	0	25	104	0	71	17485
2026-01-11 03:27:43.32	26.72	7.55	-53.4	-66.4	3.8	8.46e-01	0	26	104	0	71	17537
2026-01-11 03:27:44.32	26.70	7.63	-53.4	-66.4	3.8	8.46e-01	0	26	104	0	71	17553
2026-01-11 03:27:45.32	26.67	7.71	-53.4	-66.4	3.8	8.47e-01	0	26	104	0	71	17506
2026-01-11 03:27:46.32	26.65	7.78	-53.4	-66.3	3.8	8.44e-01	0	26	104	0	71	17458
2026-01-11 03:27:47.32	26.63	7.86	-53.4	-66.4	3.8	8.46e-01	0	26	104	0	71	17500
2026-01-11 03:27:48.32	26.61	7.94	-53.4	-66.3	3.8	8.45e-01	0	26	104	0	71	17474
2026-01-11 03:27:49.32	26.59	8.02	-53.4	-66.4	3.8	8.46e-01	0	26	104	0	71	17502
2026-01-11 03:27:50.32	26.57	8.10	-53.4	-66.4	3.8	8.44e-01	0	25	104	0	71	17554
2026-01-11 03:27:51.32	26.54	8.18	-53.4	-66.4	3.8	8.46e-01	0	26	104	0	71	17512
2026-01-11 03:27:52.33	26.52	8.26	-53.4	-66.4	3.8	8.46e-01	0	26	104	0	71	17535
2026-01-11 03:27:53.33	26.50	8.34	-53.4	-66.4	3.8	8.46e-01	0	26	104	0	71	17490
2026-01-11 03:27:54.32	26.48	8.42	-53.4	-66.4	3.8	8.44e-01	0	26	104	0	71	17539
2026-01-11 03:27:55.31	26.46	8.50	-53.4	-66.4	3.8	8.46e-01	0	26	104	0	71	17515
2026-01-11 03:27:56.32	26.43	8.58	-53.4	-66.4	3.8	8.45e-01	0	26	104	0	71	17534
2026-01-11 03:27:57.32	26.41	8.66	-53.4	-66.4	3.8	8.47e-01	0	26	104	0	71	17518
2026-01-11 03:27:58.32	26.39	8.75	-53.4	-66.4	3.8	8.45e-01	0	26	104	0	71	17558
2026-01-11 03:27:59.33	26.36	8.83	-53.4	-66.4	3.8	8.46e-01	0	26	104	0	71	17510
2026-01-11 03:28:00.32	26.34	8.91	-53.4	-66.4	3.8	8.46e-01	0	26	104	0	71	17528
2026-01-11 03:28:01.32	26.32	8.99	-53.4	-66.4	3.8	8.45e-01	0	26	104	0	72	16555
2026-01-11 03:28:02.32	26.29	9.07	-53.5	-66.4	3.8	8.45e-01	0	26	104	0	72	16550
2026-01-11 03:28:03.32	26.27	9.16	-53.5	-66.4	3.8	8.45e-01	0	26	104	0	72	16553
2026-01-11 03:28:04.32	26.25	9.24	-53.5	-66.4	3.8	8.45e-01	0	26	104	0	72	16563
2026-01-11 03:28:05.32	26.22	9.32	-53.5	-66.4	3.8	8.46e-01	0	26	104	0	72	16515
2026-01-11 03:28:06.33	26.20	9.41	-53.5	-66.4	3.8	8.46e-01	0	26	104	0	72	16559
2026-01-11 03:28:07.33	26.17	9.49	-53.5	-66.4	3.8	8.45e-01	0	26	104	0	72	16584
2026-01-11 03:28:08.33	26.15	9.58	-53.5	-66.4	3.8	8.46e-01	0	26	104	0	72	16575
2026-01-11 03:28:09.33	26.12	9.66	-53.5	-66.4	3.8	8.45e-01	0	26	104	0	72	16556
2026-01-11 03:28:10.33	26.10	9.75	-53.5	-66.4	3.8	8.46e-01	0	26	104	0	72	16539
2026-01-11 03:28:11.34	26.07	9.83	-53.5	-66.4	3.8	8.45e-01	0	26	104	0	72	16577
2026-01-11 03:28:12.34	26.05	9.92	-53.5	-66.4	3.8	8.46e-01	0	26	104	0	72	16563
2026-01-11 03:28:13.34	26.02	10.00	-53.5	-66.4	3.8	8.45e-01	0	26	104	0	72	16578
2026-01-11 03:28:14.34	26.00	10.09	-53.5	-66.4	3.8	8.46e-01	0	26	104	0	72	16617
2026-01-11 03:28:15.34	25.97	10.17	-53.5	-66.4	3.8	8.45e-01	0	26	104	0	72	16622
2026-01-11 03:28:16.35	25.95	10.26	-53.5	-66.4	3.8	8.45e-01	0	26	104	0	72	16597
2026-01-11 03:28:17.35	25.92	10.35	-53.5	-66.4	3.8	8.45e-01	0	26	104	0	72	16590
2026-01-11 03:28:18.36	25.89	10.44	-53.5	-66.4	3.8	8.45e-01	0	26	104	0	72	16644
2026-01-11 03:28:19.36	25.87	10.52	-53.5	-66.4	3.8	8.45e-01	0	26	104	0	72	16579
2026-01-11 03:28:20.36	25.84	10.61	-53.5	-66.4	3.8	8.46e-01	0	26	104	0	72	16610
2026-01-11 03:28:21.36	25.81	10.70	-53.5	-66.4	3.8	8.45e-01	0	26	104	0	72	16583
2026-01-11 03:28:22.37	25.79	10.79	-53.5	-66.4	3.8	8.45e-01	0	26	104	0	72	16587
2026-01-11 03:28:23.37	25.76	10.88	-53.5	-66.4	3.8	8.45e-01	0	26	104	0	72	16639
2026-01-11 03:28:24.38	25.73	10.97	-53.5	-66.4	3.8	8.46e-01	0	26	104	0	72	16623
2026-01-11 03:28:25.38	25.70	11.06	-53.5	-66.4	3.8	8.45e-01	0	26	104	0	72	16585
2026-01-11 03:28:26.38	25.68	11.15	-53.5	-66.4	3.8	8.46e-01	0	26	104	0	72	16614
2026-01-11 03:28:27.38	25.65	11.24	-53.5	-66.4	3.8	8.45e-01	0	26	104	0	72	16655
2026-01-11 03:28:28.38	25.62	11.33	-53.5	-66.4	3.8	8.48e-01	0	26	104	0	72	16632
2026-01-11 03:28:29.38	25.59	11.42	-53.5	-66.4	3.8	8.46e-01	0	26	104	0	72	16619
2026-01-11 03:28:30.38	25.56	11.51	-53.5	-66.4	3.8	8.46e-01	0	26	104	0	72	16676
2026-01-11 03:28:31.38	25.53	11.60	-53.5	-66.4	3.8	8.45e-01	0	26	104	0	72	16633
2026-01-11 03:28:32.38	25.51	11.69	-53.5	-66.4	3.8	8.45e-01	0	26	104	0	72	16662
2026-01-11 03:28:33.38	25.48	11.78	-53.5	-66.4	3.8	8.45e-01	0	26	104	0	72	16647
2026-01-11 03:28:34.37	25.45	11.87	-53.5	-66.4	3.8	8.45e-01	0	26	104	0	72	16587
2026-01-11 03:28:35.37	25.42	11.97	-53.5	-66.4	3.8	8.46e-01	0	26	104	0	72	16658
2026-01-11 03:28:36.37	25.39	12.06	-53.5	-66.4	3.8	8.46e-01	0	26	104	0	72	16611
2026-01-11 03:28:37.37	25.36	12.15	-53.5	-66.4	3.8	8.46e-01	0	26	104	0	72	16634
2026-01-11 03:28:38.38	25.33	12.25	-53.5	-66.4	3.8	8.46e-01	0	26	104	0	72	16610
2026-01-11 03:28:39.38	25.30	12.34	-53.5	-66.4	3.8	8.47e-01	0	26	104	0	72	16665
2026-01-11 03:28:40.38	25.27	12.43	-53.5	-66.4	3.8	8.45e-01	0	26	104	0	72	16651
2026-01-11 03:28:41.38	25.23	12.53	-53.5	-66.4	3.8	8.47e-01	0	26	104	0	72	16639
2026-01-11 03:28:42.38	25.20	12.62	-53.5	-66.4	3.8	8.46e-01	0	26	104	0	72	16624
2026-01-11 03:28:43.38	25.17	12.72	-53.5	-66.4	3.8	8.46e-01	0	26	104	0	72	16601
2026-01-11 03:28:44.39	25.14	12.82	-53.5	-66.4	3.8	8.45e-01	0	26	104	0	72	16647
2026-01-11 03:28:45.38	25.11	12.91	-53.5	-66.4	3.8	8.45e-01	0	26	104	0	72	16645
2026-01-11 03:28:46.38	25.08	13.01	-53.5	-66.4	3.8	8.47e-01	0	26	104	0	72	16665
2026-01-11 03:28:47.38	25.04	13.10	-53.5	-66.4	3.8	8.45e-01	0	26	104	0	72	16590
2026-01-11 03:28:48.38	25.01	13.20	-53.5	-66.4	3.8	8.45e-01	0	26	104	0	72	16632
2026-01-11 03:28:49.37	24.98	13.30	-53.5	-66.4	3.8	8.46e-01	0	26	104	0	72	16623
2026-01-11 03:28:50.37	24.95	13.40	-53.5	-66.4	3.8	8.46e-01	0	26	104	0	72	16654
2026-01-11 03:28:51.37	24.91	13.49	-53.5	-66.4	3.8	8.45e-01	0	26	104	0	72	16626
2026-01-11 03:28:52.37	24.88	13.59	-53.5	-66.4	3.8	8.46e-01	0	26	104	0	72	16613
2026-01-11 03:28:53.37	24.85	13.69	-53.5	-66.4	3.8	8.47e-01	0	26	104	0	72	16601
2026-01-11 03:28:54.37	24.81	13.79	-53.5	-66.4	3.8	8.45e-01	0	26	104	0	72	16587
2026-01-11 03:28:55.36	24.78	13.89	-53.5	-66.4	3.8	8.45e-01	0	26	104	0	72	16677
2026-01-11 03:28:56.35	24.74	13.99	-53.5	-66.4	3.8	8.45e-01	0	26	104	0	72	16617
2026-01-11 03:28:57.36	24.71	14.09	-53.5	-66.4	3.8	8.45e-01	0	26	104	0	72	16591
2026-01-11 03:28:58.36	24.67	14.19	-53.5	-66.4	3.8	8.45e-01	0	26	104	0	72	16637
2026-01-11 03:28:59.35	24.64	14.29	-53.5	-66.4	3.8	8.45e-01	0	26	104	0	72	16612
2026-01-11 03:29:00.35	24.60	14.40	-53.5	-66.4	3.8	8.44e-01	0	26	104	0	72	16658
2026-01-11 03:29:01.35	24.57	14.50	-53.5	-66.4	3.8	8.46e-01	0	26	104	0	72	16663
2026-01-11 03:29:02.36	24.53	14.60	-53.5	-66.4	3.8	8.45e-01	0	26	104	0	72	16660
2026-01-11 03:29:03.36	24.49	14.70	-53.5	-66.4	3.8	8.45e-01	0	26	104	0	72	16660
2026-01-11 03:29:04.35	24.46	14.81	-53.5	-66.4	3.8	8.46e-01	0	26	104	0	72	16636
2026-01-11 03:29:05.35	24.42	14.91	-53.5	-66.4	3.8	8.46e-01	0	26	104	0	72	16663
2026-01-11 03:29:06.35	24.38	15.02	-53.5	-66.4	3.8	8.46e-01	0	26	104	0	72	16603
2026-01-11 03:29:07.35	24.35	15.12	-53.5	-66.4	3.8	8.45e-01	0	26	104	0	72	16655
2026-01-11 03:29:08.35	24.31	15.23	-53.5	-66.5	3.8	8.46e-01	0	26	104	0	72	16698
2026-01-11 03:29:09.34	24.27	15.33	-53.5	-66.4	3.8	8.46e-01	0	26	104	0	72	16657
2026-01-11 03:29:10.34	24.23	15.44	-53.5	-66.4	3.8	8.45e-01	0	26	104	0	72	16688
2026-01-11 03:29:11.34	24.19	15.54	-53.5	-66.4	3.8	8.46e-01	0	26	104	0	72	16676
2026-01-11 03:29:12.34	24.15	15.65	-53.5	-66.4	3.8	8.45e-01	0	26	104	0	72	16653
2026-01-11 03:29:13.35	24.11	15.76	-53.5	-66.4	3.8	8.46e-01	0	26	104	0	72	16595
2026-01-11 03:29:14.36	24.07	15.87	-53.5	-66.4	3.8	8.46e-01	0	26	104	0	72	16630
2026-01-11 03:29:15.36	24.03	15.98	-53.5	-66.4	3.8	8.46e-01	0	26	104	0	72	16648
2026-01-11 03:29:16.36	23.99	16.09	-53.5	-66.5	3.8	8.46e-01	0	26	104	0	72	16709
2026-01-11 03:29:17.36	23.95	16.20	-53.5	-66.4	3.8	8.45e-01	0	26	104	0	72	16664
2026-01-11 03:29:18.36	23.91	16.31	-53.5	-66.4	3.8	8.45e-01	0	26	104	0	72	16648
2026-01-11 03:29:19.36	23.87	16.42	-53.5	-66.4	3.8	8.45e-01	0	26	104	0	72	16656
2026-01-11 03:29:20.36	23.83	16.53	-53.5	-66.4	3.8	8.45e-01	0	26	104	0	72	16639
2026-01-11 03:29:21.36	23.79	16.64	-53.5	-66.5	3.8	8.44e-01	0	26	104	0	72	16706
2026-01-11 03:29:22.36	23.74	16.75	-53.5	-66.4	3.8	8.46e-01	0	26	104	0	72	16679
2026-01-11 03:29:23.36	23.70	16.86	-53.5	-66.4	3.8	8.45e-01	0	26	104	0	72	16656
2026-01-11 03:29:24.36	23.66	16.98	-53.5	-66.4	3.8	8.45e-01	0	26	104	0	72	16679
2026-01-11 03:29:25.36	23.61	17.09	-53.5	-66.4	3.8	8.45e-01	0	27	104	0	72	16643
2026-01-11 03:29:26.36	23.57	17.20	-53.5	-66.5	3.8	8.46e-01	0	26	104	0	72	16702
2026-01-11 03:29:27.36	23.53	17.32	-53.5	-66.4	3.8	8.45e-01	0	26	104	0	72	16571
2026-01-11 03:29:28.37	23.48	17.43	-53.5	-66.4	3.8	8.45e-01	0	26	104	0	72	16649
2026-01-11 03:29:29.36	23.44	17.55	-53.5	-66.4	3.8	8.46e-01	0	26	104	0	72	16658
2026-01-11 03:29:30.36	23.39	17.67	-53.5	-66.4	3.8	8.46e-01	0	26	104	0	72	16605
2026-01-11 03:29:31.36	23.35	17.78	-53.5	-66.4	3.8	8.46e-01	0	26	104	0	72	16614
2026-01-11 03:29:32.36	23.30	17.90	-53.5	-66.4	3.8	8.47e-01	0	26	104	0	72	16613
2026-01-11 03:29:33.37	23.25	18.02	-53.5	-66.4	3.8	8.46e-01	0	26	104	0	72	16646
2026-01-11 03:29:34.37	23.21	18.14	-53.5	-66.5	3.8	8.45e-01	0	26	104	0	72	16695
2026-01-11 03:29:35.37	23.16	18.25	-53.5	-66.4	3.8	8.45e-01	0	26	104	0	72	16603
2026-01-11 03:29:36.37	23.11	18.37	-53.5	-66.4	3.8	8.46e-01	0	26	104	0	72	16614
2026-01-11 03:29:37.37	23.06	18.49	-53.5	-66.4	3.8	8.46e-01	0	26	104	0	72	16659
2026-01-11 03:29:38.37	23.02	18.61	-53.5	-66.4	3.8	8.47e-01	0	26	104	0	72	16680
2026-01-11 03:29:39.37	22.97	18.74	-53.5	-66.4	3.8	8.45e-01	0	26	104	0	72	16613
2026-01-11 03:29:40.38	22.92	18.86	-53.5	-66.4	3.8	8.46e-01	0	26	104	0	72	16648
2026-01-11 03:29:41.37	22.87	18.98	-53.5	-66.4	3.8	8.47e-01	0	26	104	0	72	16685
2026-01-11 03:29:42.37	22.82	19.10	-53.5	-66.4	3.8	8.45e-01	0	26	104	0	72	16605
2026-01-11 03:29:43.38	22.77	19.23	-53.5	-66.4	3.8	8.46e-01	0	26	104	0	72	16596
2026-01-11 03:29:44.38	22.72	19.35	-53.5	-66.4	3.8	8.45e-01	0	26	104	0	72	16620
2026-01-11 03:29:45.38	22.66	19.47	-53.5	-66.4	3.8	8.43e-01	0	26	104	0	72	16655
2026-01-11 03:29:46.38	22.61	19.60	-53.5	-66.4	3.8	8.45e-01	0	26	104	0	72	16663
2026-01-11 03:29:47.38	22.56	19.73	-53.5	-66.4	3.8	8.45e-01	0	26	104	0	72	16680
2026-01-11 03:29:48.37	22.51	19.85	-53.5	-66.4	3.8	8.46e-01	0	26	104	0	72	16662
2026-01-11 03:29:49.38	22.45	19.98	-53.5	-66.4	3.8	8.46e-01	0	26	104	0	72	16595
2026-01-11 03:29:50.39	22.40	20.11	-53.5	-66.4	3.8	8.46e-01	0	26	104	0	72	16638
2026-01-11 03:29:51.38	22.35	20.23	-53.5	-66.4	3.8	8.46e-01	0	26	104	0	72	16684
2026-01-11 03:29:52.38	22.29	20.36	-53.5	-66.4	3.8	8.45e-01	0	26	104	0	72	16633
2026-01-11 03:29:53.38	22.24	20.49	-53.5	-66.4	3.8	8.46e-01	0	27	104	0	72	16602
2026-01-11 03:29:54.37	22.18	20.62	-53.5	-66.4	3.8	8.46e-01	0	26	104	0	72	16664
2026-01-11 03:29:55.38	22.12	20.75	-53.5	-66.5	3.8	8.46e-01	0	26	104	0	72	16698
2026-01-11 03:29:56.38	22.07	20.89	-53.5	-66.4	3.8	8.45e-01	0	26	104	0	72	16668
2026-01-11 03:29:57.38	22.01	21.02	-53.5	-66.4	3.8	8.47e-01	0	26	104	0	72	16672
2026-01-11 03:29:58.38	21.95	21.15	-53.5	-66.4	3.8	8.45e-01	0	26	104	0	72	16684
2026-01-11 03:29:59.39	21.89	21.28	-53.5	-66.5	3.8	8.46e-01	0	26	104	0	72	16731
2026-01-11 03:30:00.38	21.83	21.42	-53.5	-66.4	3.8	8.46e-01	0	27	104	0	72	16641
2026-01-11 03:30:01.38	21.77	21.55	-53.5	-66.4	3.8	8.47e-01	0	27	104	0	72	16680
2026-01-11 03:30:02.38	21.71	21.69	-53.5	-66.4	3.8	8.45e-01	0	26	104	0	72	16669
2026-01-11 03:30:03.38	21.65	21.82	-53.5	-66.4	3.8	8.45e-01	0	27	104	0	72	16625
2026-01-11 03:30:04.38	21.59	21.96	-53.5	-66.5	3.8	8.44e-01	0	26	104	0	72	16713
2026-01-11 03:30:05.38	21.53	22.10	-53.5	-66.4	3.8	8.45e-01	0	27	104	0	72	16683
2026-01-11 03:30:06.38	21.47	22.24	-53.5	-66.4	3.8	8.45e-01	0	26	104	0	72	16694
2026-01-11 03:30:07.38	21.41	22.38	-53.5	-66.4	3.8	8.46e-01	0	26	104	0	72	16631
2026-01-11 03:30:08.39	21.34	22.52	-53.5	-66.4	3.8	8.46e-01	0	26	104	0	72	16680
2026-01-11 03:30:09.38	21.28	22.66	-53.5	-66.4	3.8	8.45e-01	0	26	104	0	72	16632
2026-01-11 03:30:10.38	21.21	22.80	-53.5	-66.4	3.8	8.45e-01	0	27	104	0	72	16617
2026-01-11 03:30:11.38	21.15	22.94	-53.5	-66.4	3.8	8.47e-01	0	27	104	0	72	16663
2026-01-11 03:30:12.38	21.08	23.08	-53.5	-66.4	3.8	8.46e-01	0	26	104	0	72	16621
2026-01-11 03:30:13.38	21.02	23.22	-53.5	-66.4	3.8	8.45e-01	0	26	104	0	72	16636
2026-01-11 03:30:14.39	20.95	23.37	-53.5	-66.4	3.8	8.46e-01	0	26	104	0	72	16631
2026-01-11 03:30:15.39	20.88	23.52	-53.5	-66.4	3.8	8.45e-01	0	27	104	0	72	16642
2026-01-11 03:30:16.40	20.81	23.66	-53.5	-66.4	3.8	8.46e-01	0	27	104	0	72	16602
2026-01-11 03:30:17.40	20.74	23.81	-53.5	-66.4	3.8	8.45e-01	0	27	104	0	72	16580
2026-01-11 03:30:18.40	20.67	23.96	-53.5	-66.4	3.8	8.47e-01	0	26	104	0	72	16553
2026-01-11 03:30:19.41	20.60	24.11	-53.5	-66.4	3.8	8.45e-01	0	27	104	0	72	16534
2026-01-11 03:30:20.41	20.53	24.25	-53.5	-66.4	3.8	8.46e-01	0	27	104	0	72	16613
2026-01-11 03:30:21.40	20.46	24.40	-53.5	-66.4	3.8	8.46e-01	0	27	104	0	72	16595
2026-01-11 03:30:22.41	20.38	24.55	-53.5	-66.4	3.8	8.45e-01	0	27	104	0	72	16592
2026-01-11 03:30:23.42	20.31	24.71	-53.5	-66.4	3.8	8.45e-01	0	27	104	0	72	16608
2026-01-11 03:30:24.42	20.23	24.86	-53.5	-66.4	3.8	8.45e-01	0	27	104	0	72	16665
2026-01-11 03:30:25.42	20.16	25.01	-53.5	-66.4	3.8	8.45e-01	0	26	104	0	72	16633
2026-01-11 03:30:26.43	20.08	25.17	-53.5	-66.4	3.8	8.45e-01	0	27	104	0	72	16639
2026-01-11 03:30:27.43	20.01	25.32	-53.5	-66.4	3.8	8.46e-01	0	27	104	0	72	16638
2026-01-11 03:30:28.44	19.93	25.48	-53.5	-66.4	3.8	8.46e-01	0	26	104	0	72	16659
2026-01-11 03:30:29.44	19.85	25.64	-53.5	-66.4	3.8	8.45e-01	0	27	104	0	72	16681
2026-01-11 03:30:30.43	19.77	25.79	-53.5	-66.4	3.8	8.45e-01	0	27	104	0	72	16684
2026-01-11 03:30:31.43	19.69	25.95	-53.5	-66.4	3.8	8.46e-01	0	27	104	0	72	16658
2026-01-11 03:30:32.44	19.61	26.11	-53.5	-66.4	3.8	8.47e-01	0	27	104	0	72	16647
2026-01-11 03:30:33.44	19.53	26.27	-53.5	-66.4	3.8	8.45e-01	0	27	104	0	72	16687
2026-01-11 03:30:34.44	19.45	26.43	-53.5	-66.4	3.8	8.46e-01	0	27	104	0	72	16585
2026-01-11 03:30:35.44	19.36	26.59	-53.5	-66.4	3.8	8.46e-01	0	27	104	0	72	16654
2026-01-11 03:30:36.44	19.28	26.75	-53.5	-66.4	3.8	8.46e-01	0	27	104	0	72	16575
2026-01-11 03:30:37.45	19.19	26.92	-53.5	-66.4	3.8	8.46e-01	0	26	104	0	72	16628
2026-01-11 03:30:38.46	19.10	27.08	-53.5	-66.4	3.8	8.46e-01	0	27	104	0	72	16627
2026-01-11 03:30:39.46	19.02	27.25	-53.5	-66.4	3.8	8.44e-01	0	27	104	0	72	16678
2026-01-11 03:30:40.46	18.93	27.42	-53.5	-66.5	3.8	8.46e-01	0	26	104	0	72	16700
2026-01-11 03:30:41.46	18.84	27.58	-53.5	-66.5	3.8	8.46e-01	0	27	104	0	72	16706
2026-01-11 03:30:42.46	18.75	27.75	-53.5	-66.5	3.8	8.45e-01	0	27	104	0	72	16698
2026-01-11 03:30:43.46	18.66	27.92	-53.5	-66.4	3.8	8.45e-01	0	27	104	0	72	16676
2026-01-11 03:30:44.47	18.57	28.09	-53.5	-66.5	3.8	8.45e-01	0	26	104	0	72	16716
2026-01-11 03:30:45.47	18.47	28.26	-53.5	-66.5	3.8	8.45e-01	0	27	104	0	72	16750
2026-01-11 03:30:46.47	18.38	28.44	-53.5	-66.5	3.8	8.45e-01	0	27	104	0	72	16749
2026-01-11 03:30:47.47	18.29	28.61	-53.5	-66.5	3.8	8.46e-01	0	27	104	0	72	16725
2026-01-11 03:30:48.48	18.19	28.78	-53.5	-66.5	3.8	8.45e-01	0	27	104	0	72	16708
2026-01-11 03:30:49.47	18.09	28.96	-53.5	-66.5	3.8	8.47e-01	0	27	104	0	72	16710
2026-01-11 03:30:50.47	17.99	29.13	-53.5	-66.5	3.8	8.45e-01	0	27	104	0	72	16710
2026-01-11 03:30:51.48	17.89	29.31	-53.5	-66.5	3.8	8.45e-01	0	27	104	0	72	16700
2026-01-11 03:30:52.47	17.79	29.49	-53.5	-66.5	3.8	8.45e-01	0	27	104	0	72	16704
2026-01-11 03:30:53.47	17.69	29.67	-53.5	-66.5	3.8	8.46e-01	0	26	104	0	72	16760
2026-01-11 03:30:54.48	17.59	29.85	-53.5	-66.5	3.8	8.45e-01	0	27	104	0	72	16747
2026-01-11 03:30:55.48	17.48	30.03	-53.5	-66.5	3.8	8.46e-01	0	27	104	0	72	16740
2026-01-11 03:30:56.48	17.38	30.21	-53.5	-66.5	3.8	8.46e-01	0	27	104	0	72	16767
2026-01-11 03:30:57.47	17.27	30.39	-53.5	-66.4	3.8	8.46e-01	0	27	104	0	72	16653
2026-01-11 03:30:58.47	17.17	30.58	-53.5	-66.5	3.8	8.45e-01	0	27	104	0	72	16730
2026-01-11 03:30:59.47	17.06	30.76	-53.5	-66.5	3.8	8.45e-01	0	27	104	0	72	16701
2026-01-11 03:31:00.47	16.95	30.95	-53.5	-66.4	3.8	8.44e-01	0	27	104	0	72	16676
2026-01-11 03:31:01.46	16.83	31.13	-53.5	-66.4	3.8	8.46e-01	0	27	104	0	72	16683
2026-01-11 03:31:02.46	16.72	31.32	-53.5	-66.4	3.8	8.45e-01	0	27	104	0	72	16672
2026-01-11 03:31:03.47	16.61	31.51	-53.5	-66.5	3.8	8.46e-01	0	26	104	0	72	16778
2026-01-11 03:31:04.46	16.49	31.70	-53.5	-66.5	3.8	8.45e-01	0	27	104	0	72	16721
2026-01-11 03:31:05.46	16.37	31.89	-53.5	-66.5	3.8	8.47e-01	0	27	104	0	72	16721
2026-01-11 03:31:06.46	16.26	32.09	-53.5	-66.5	3.8	8.46e-01	0	27	104	0	72	16714
2026-01-11 03:31:07.46	16.14	32.28	-53.5	-66.4	3.8	8.45e-01	0	27	104	0	72	16673
2026-01-11 03:31:08.46	16.01	32.48	-53.5	-66.5	3.8	8.45e-01	0	26	104	0	72	16712
2026-01-11 03:31:09.46	15.89	32.67	-53.5	-66.4	3.8	8.45e-01	0	27	104	0	72	16644
2026-01-11 03:31:10.47	15.76	32.87	-53.5	-66.4	3.8	8.45e-01	0	27	104	0	72	16671
2026-01-11 03:31:11.47	15.64	33.07	-53.5	-66.5	3.8	8.45e-01	0	27	104	0	72	16743
2026-01-11 03:31:12.47	15.51	33.27	-53.5	-66.5	3.8	8.45e-01	0	27	104	0	72	16695
2026-01-11 03:31:13.47	15.38	33.47	-53.5	-66.5	3.8	8.46e-01	0	27	104	0	72	16696
2026-01-11 03:31:14.47	15.25	33.67	-53.5	-66.4	3.8	8.46e-01	0	26	104	0	72	16692
2026-01-11 03:31:15.47	15.12	33.87	-53.5	-66.4	3.8	8.46e-01	0	27	104	0	72	16661
2026-01-11 03:31:16.47	14.98	34.08	-53.5	-66.4	3.8	8.45e-01	0	26	104	0	72	16684
2026-01-11 03:31:17.47	14.85	34.28	-53.5	-66.4	3.8	8.46e-01	0	26	104	0	72	16684
2026-01-11 03:31:18.47	14.71	34.49	-53.5	-66.5	3.8	8.45e-01	0	27	104	0	72	16727
2026-01-11 03:31:19.47	14.57	34.70	-53.5	-66.4	3.8	8.44e-01	0	27	104	0	72	16688
2026-01-11 03:31:20.48	14.42	34.91	-53.5	-66.5	3.8	8.45e-01	0	27	104	0	72	16700
2026-01-11 03:31:21.48	14.28	35.12	-53.5	-66.4	3.8	8.46e-01	0	27	104	0	72	16645
2026-01-11 03:31:22.48	14.13	35.33	-53.5	-66.5	3.8	8.46e-01	0	27	104	0	72	16698
2026-01-11 03:31:23.49	13.99	35.55	-53.5	-66.5	3.8	8.46e-01	0	27	104	0	72	16737
2026-01-11 03:31:24.49	13.84	35.76	-53.5	-66.5	3.8	8.46e-01	0	27	104	0	72	16701
2026-01-11 03:31:25.49	13.68	35.97	-53.5	-66.4	3.8	8.46e-01	0	26	104	0	72	16666
2026-01-11 03:31:26.49	13.53	36.19	-53.5	-66.5	3.8	8.45e-01	0	27	104	0	72	16700
2026-01-11 03:31:27.49	13.37	36.41	-53.5	-66.5	3.8	8.45e-01	0	26	104	0	72	16696
2026-01-11 03:31:28.50	13.22	36.63	-53.5	-66.4	3.8	8.45e-01	0	27	104	0	72	16663
2026-01-11 03:31:29.49	13.06	36.85	-53.5	-66.4	3.8	8.45e-01	0	26	104	0	72	16685
2026-01-11 03:31:30.49	12.89	37.07	-53.5	-66.5	3.8	8.46e-01	0	27	104	0	72	16734
2026-01-11 03:31:31.49	12.73	37.29	-53.5	-66.4	3.8	8.46e-01	0	27	104	0	72	16663
2026-01-11 03:31:32.49	12.56	37.51	-53.5	-66.5	3.8	8.46e-01	0	27	104	0	72	16748
2026-01-11 03:31:33.49	12.39	37.74	-53.5	-66.4	3.8	8.45e-01	0	26	104	0	72	16683
2026-01-11 03:31:34.49	12.22	37.96	-53.5	-66.5	3.8	8.46e-01	0	27	104	0	72	16721
2026-01-11 03:31:35.49	12.05	38.19	-53.5	-66.5	3.8	8.46e-01	0	26	104	0	72	16750
2026-01-11 03:31:36.49	11.87	38.42	-53.5	-66.4	3.8	8.47e-01	0	27	104	0	72	16689
2026-01-11 03:31:37.48	11.69	38.65	-53.5	-66.5	3.8	8.44e-01	0	27	104	0	72	16729
2026-01-11 03:31:38.48	11.51	38.88	-53.5	-66.4	3.8	8.46e-01	0	27	104	0	72	16655
2026-01-11 03:31:39.49	11.32	39.11	-53.5	-66.5	3.8	8.44e-01	0	27	104	0	72	16754
2026-01-11 03:31:40.49	11.14	39.34	-53.5	-66.4	3.8	8.47e-01	0	26	104	0	72	16685
2026-01-11 03:31:41.49	10.95	39.58	-53.5	-66.5	3.8	8.46e-01	0	27	104	0	72	16713
2026-01-11 03:31:42.49	10.75	39.81	-53.5	-66.5	3.8	8.45e-01	0	27	104	0	72	16731
2026-01-11 03:31:43.50	10.56	40.05	-53.5	-66.4	3.8	8.46e-01	0	27	104	0	72	16679
2026-01-11 03:31:44.49	10.36	40.29	-53.5	-66.5	3.8	8.46e-01	0	27	104	0	72	16719
2026-01-11 03:31:45.50	10.16	40.53	-53.5	-66.5	3.8	8.46e-01	0	27	104	0	72	16723
2026-01-11 03:31:46.50	9.95	40.77	-53.5	-66.4	3.8	8.45e-01	0	27	104	0	72	16664
2026-01-11 03:31:47.51	9.74	41.02	-53.5	-66.4	3.8	8.46e-01	0	27	104	0	72	16660
2026-01-11 03:31:48.51	9.53	41.26	-53.5	-66.5	3.8	8.46e-01	0	27	104	0	72	16709
2026-01-11 03:31:49.51	9.32	41.50	-53.5	-66.5	3.8	8.45e-01	0	27	104	0	72	16708
2026-01-11 03:31:50.52	9.10	41.75	-53.5	-66.4	3.8	8.46e-01	0	27	104	0	72	16684
2026-01-11 03:31:51.52	8.88	42.00	-53.5	-66.5	3.8	8.45e-01	0	27	104	0	72	16712
2026-01-11 03:31:52.51	8.65	42.24	-53.5	-66.5	3.8	8.46e-01	0	27	104	0	72	16714
2026-01-11 03:31:53.51	8.43	42.49	-53.5	-66.5	3.8	8.45e-01	0	26	104	0	72	16703
2026-01-11 03:31:54.51	8.19	42.74	-53.5	-66.5	3.8	8.45e-01	0	27	104	0	72	16724
2026-01-11 03:31:55.51	7.96	42.99	-53.5	-66.5	3.8	8.45e-01	0	27	104	0	72	16736
2026-01-11 03:31:56.51	7.72	43.25	-53.5	-66.5	3.8	8.44e-01	0	27	104	0	72	16787
2026-01-11 03:31:57.51	7.48	43.50	-53.5	-66.5	3.8	8.45e-01	0	26	104	0	72	16709
2026-01-11 03:31:58.51	7.23	43.75	-53.5	-66.5	3.8	8.45e-01	0	27	104	0	72	16739
2026-01-11 03:31:59.51	6.98	44.01	-53.5	-66.5	3.8	8.46e-01	0	26	104	0	72	16749
2026-01-11 03:32:00.51	6.72	44.26	-53.5	-66.5	3.8	8.46e-01	0	27	104	0	72	16705
2026-01-11 03:32:01.50	6.47	44.52	-53.5	-66.5	3.8	8.45e-01	0	27	104	0	72	16722
2026-01-11 03:32:02.50	6.20	44.78	-53.5	-66.5	3.8	8.46e-01	0	27	104	0	72	16745
2026-01-11 03:32:03.50	5.93	45.04	-53.5	-66.5	3.8	8.45e-01	0	27	104	0	72	16713
2026-01-11 03:32:04.51	5.66	45.30	-53.5	-66.5	3.8	8.45e-01	0	27	104	0	72	16710
2026-01-11 03:32:05.51	5.38	45.56	-53.5	-66.5	3.8	8.45e-01	0	27	104	0	72	16741
2026-01-11 03:32:06.50	5.10	45.82	-53.5	-66.4	3.8	8.44e-01	0	27	104	0	72	16656
2026-01-11 03:32:07.50	4.82	46.09	-53.5	-66.5	3.8	8.45e-01	0	27	104	0	72	16715
2026-01-11 03:32:08.51	4.52	46.35	-53.5	-66.4	3.8	8.45e-01	0	26	104	0	72	16647
2026-01-11 03:32:09.51	4.23	46.62	-53.5	-66.4	3.8	8.46e-01	0	27	104	0	72	16660
2026-01-11 03:32:10.51	3.92	46.88	-53.5	-66.5	3.8	8.46e-01	0	26	104	0	72	16724
2026-01-11 03:32:11.51	3.62	47.15	-53.5	-66.5	3.8	8.45e-01	0	27	104	0	72	16701
2026-01-11 03:32:12.51	3.31	47.42	-53.5	-66.5	3.8	8.45e-01	0	27	104	0	72	16733
2026-01-11 03:32:13.51	2.99	47.69	-53.5	-66.5	3.8	8.45e-01	0	27	104	0	72	16723
2026-01-11 03:32:14.51	2.66	47.96	-53.5	-66.5	3.8	8.45e-01	0	26	104	0	72	16724
2026-01-11 03:32:15.51	2.34	48.23	-53.5	-66.5	3.8	8.46e-01	0	26	104	0	72	16739
2026-01-11 03:32:16.51	2.00	48.50	-53.5	-66.5	3.8	8.46e-01	0	27	104	0	72	16709
2026-01-11 03:32:17.51	1.66	48.77	-53.5	-66.4	3.8	8.46e-01	0	26	104	0	72	16686
2026-01-11 03:32:18.52	1.31	49.04	-53.5	-66.4	3.8	8.44e-01	0	26	104	0	72	16674
2026-01-11 03:32:19.52	0.96	49.31	-53.5	-66.5	3.8	8.46e-01	0	27	104	0	72	16766
2026-01-11 03:32:20.52	0.60	49.59	-53.5	-66.4	3.8	8.47e-01	0	26	104	0	72	16693
2026-01-11 03:32:21.52	0.23	49.86	-53.5	-66.4	3.8	8.44e-01	0	27	104	0	72	16694
2026-01-11 03:32:22.52	359.86	50.13	-53.5	-66.5	3.8	8.45e-01	0	27	104	0	72	16712
2026-01-11 03:32:23.52	359.48	50.40	-53.5	-66.4	3.8	8.45e-01	0	27	104	0	72	16690
2026-01-11 03:32:24.52	359.09	50.68	-53.5	-66.5	3.8	8.45e-01	0	27	104	0	72	16695
2026-01-11 03:32:25.53	358.69	50.96	-53.5	-66.4	3.8	8.46e-01	0	27	104	0	72	16688
2026-01-11 03:32:26.53	358.29	51.23	-53.5	-66.5	3.8	8.45e-01	0	27	104	0	72	16719
2026-01-11 03:32:27.53	357.88	51.50	-53.5	-66.5	3.8	8.46e-01	0	27	104	0	72	16710
2026-01-11 03:32:28.53	357.46	51.78	-53.5	-66.5	3.8	8.45e-01	0	27	104	0	72	16727
2026-01-11 03:32:29.54	357.04	52.05	-53.5	-66.5	3.8	8.45e-01	0	27	104	0	72	16701
2026-01-11 03:32:30.54	356.60	52.33	-53.5	-66.5	3.8	8.46e-01	0	27	104	0	72	16704
2026-01-11 03:32:31.53	356.17	52.60	-53.5	-66.4	3.8	8.45e-01	0	27	104	0	72	16657
2026-01-11 03:32:32.54	355.71	52.88	-53.5	-66.5	3.8	8.46e-01	0	26	104	0	72	16701
2026-01-11 03:32:33.55	355.25	53.15	-53.5	-66.5	3.8	8.46e-01	0	26	104	0	72	16708
2026-01-11 03:32:34.54	354.79	53.42	-53.5	-66.4	3.8	8.45e-01	0	26	104	0	72	16693
2026-01-11 03:32:35.54	354.32	53.69	-53.5	-66.5	3.8	8.47e-01	0	26	104	0	72	16702
2026-01-11 03:32:36.54	353.83	53.97	-53.5	-66.5	3.8	8.45e-01	0	27	104	0	72	16710
2026-01-11 03:32:37.55	353.33	54.24	-53.5	-66.5	3.8	8.47e-01	0	27	104	0	72	16753
2026-01-11 03:32:38.55	352.83	54.51	-53.5	-66.4	3.8	8.45e-01	0	27	104	0	72	16669
2026-01-11 03:32:39.55	352.32	54.78	-53.5	-66.4	3.8	8.45e-01	0	27	104	0	72	16682
2026-01-11 03:32:40.55	351.79	55.05	-53.5	-66.4	3.8	8.45e-01	0	26	104	0	72	16660
2026-01-11 03:32:41.55	351.26	55.32	-53.5	-66.4	3.8	8.46e-01	0	27	104	0	72	16681
2026-01-11 03:32:42.55	350.72	55.58	-53.5	-66.5	3.8	8.45e-01	0	27	104	0	72	16725
2026-01-11 03:32:43.55	350.17	55.85	-53.5	-66.5	3.8	8.45e-01	0	27	104	0	72	16717
2026-01-11 03:32:44.55	349.60	56.11	-53.5	-66.5	3.8	8.45e-01	0	27	104	0	72	16714
2026-01-11 03:32:45.55	349.03	56.37	-53.5	-66.4	3.8	8.45e-01	0	27	104	0	72	16675
2026-01-11 03:32:46.56	348.44	56.64	-53.5	-66.4	3.8	8.47e-01	0	27	104	0	72	16686
2026-01-11 03:32:47.57	347.83	56.90	-53.5	-66.5	3.8	8.46e-01	0	27	104	0	72	16744
2026-01-11 03:32:48.57	347.22	57.15	-53.5	-66.5	3.8	8.45e-01	0	27	104	0	72	16714
2026-01-11 03:32:49.57	346.60	57.41	-53.5	-66.5	3.8	8.45e-01	0	27	104	0	72	16716
2026-01-11 03:32:50.57	345.97	57.66	-53.5	-66.5	3.8	8.46e-01	0	27	104	0	72	16731
2026-01-11 03:32:51.57	345.33	57.91	-53.5	-66.5	3.8	8.46e-01	0	27	104	0	72	16741
2026-01-11 03:32:52.57	344.67	58.16	-53.5	-66.5	3.8	8.46e-01	0	27	104	0	72	16707
2026-01-11 03:32:53.57	344.00	58.40	-53.5	-66.4	3.8	8.46e-01	0	26	104	0	72	16694
2026-01-11 03:32:54.57	343.32	58.65	-53.5	-66.5	3.8	8.45e-01	0	26	104	0	72	16720
2026-01-11 03:32:55.57	342.63	58.89	-53.5	-66.5	3.8	8.45e-01	0	27	104	0	72	16749
2026-01-11 03:32:56.56	341.93	59.12	-53.5	-66.4	3.8	8.46e-01	0	27	104	0	72	16657
2026-01-11 03:32:57.57	341.21	59.36	-53.5	-66.5	3.8	8.46e-01	0	27	104	0	72	16743
2026-01-11 03:32:58.56	340.48	59.58	-53.5	-66.4	3.8	8.46e-01	0	27	104	0	72	16678
2026-01-11 03:32:59.56	339.74	59.81	-53.5	-66.4	3.8	8.46e-01	0	27	104	0	72	16659
2026-01-11 03:33:00.56	338.98	60.03	-53.5	-66.4	3.8	8.45e-01	0	27	104	0	72	16688
2026-01-11 03:33:01.56	338.21	60.25	-53.5	-66.5	3.8	8.45e-01	0	27	104	0	72	16759
2026-01-11 03:33:02.56	337.43	60.47	-53.5	-66.5	3.8	8.45e-01	0	27	104	0	72	16716
2026-01-11 03:33:03.56	336.63	60.68	-53.5	-66.5	3.8	8.45e-01	0	27	104	0	72	16713
2026-01-11 03:33:04.56	335.82	60.89	-53.5	-66.5	3.8	8.45e-01	0	27	104	0	72	16730
2026-01-11 03:33:05.56	334.99	61.09	-53.5	-66.5	3.8	8.46e-01	0	27	104	0	72	16813
2026-01-11 03:33:06.56	334.16	61.29	-53.5	-66.5	3.8	8.46e-01	0	27	104	0	72	16724
2026-01-11 03:33:07.57	333.30	61.48	-53.5	-66.5	3.8	8.44e-01	0	27	104	0	72	16775
2026-01-11 03:33:08.57	332.43	61.67	-53.5	-66.5	3.8	8.46e-01	0	27	104	0	72	16766
2026-01-11 03:33:09.58	331.55	61.85	-53.5	-66.5	3.8	8.46e-01	0	27	104	0	72	16714
2026-01-11 03:33:10.57	330.66	62.03	-53.5	-66.5	3.8	8.46e-01	0	27	104	0	72	16720
2026-01-11 03:33:11.58	329.75	62.20	-53.5	-66.5	3.8	8.47e-01	0	27	104	0	72	16762
2026-01-11 03:33:12.59	328.83	62.37	-53.5	-66.5	3.8	8.45e-01	0	27	104	0	72	16710
2026-01-11 03:33:13.59	327.90	62.53	-53.5	-66.5	3.8	8.45e-01	0	27	104	0	72	16704
2026-01-11 03:33:14.59	326.96	62.68	-53.5	-66.5	3.8	8.45e-01	0	27	104	0	72	16709
2026-01-11 03:33:15.60	326.00	62.83	-53.5	-66.5	3.8	8.46e-01	0	27	104	0	72	16734
2026-01-11 03:33:16.60	325.03	62.97	-53.5	-66.5	3.8	8.45e-01	0	26	104	0	72	16714
2026-01-11 03:33:17.60	324.06	63.10	-53.5	-66.5	3.8	8.46e-01	0	26	104	0	72	16745
2026-01-11 03:33:18.60	323.07	63.23	-53.5	-66.4	3.8	8.46e-01	0	27	104	0	72	16691
2026-01-11 03:33:19.61	322.06	63.35	-53.5	-66.5	3.8	8.46e-01	0	27	104	0	72	16748
2026-01-11 03:33:20.61	321.06	63.47	-53.5	-66.5	3.8	8.46e-01	0	27	104	0	72	16718
2026-01-11 03:33:21.61	320.04	63.57	-53.5	-66.5	3.8	8.46e-01	0	27	104	0	72	16743
2026-01-11 03:33:22.62	319.01	63.67	-53.5	-66.5	3.8	8.46e-01	0	27	104	0	72	16696
2026-01-11 03:33:23.62	317.97	63.76	-53.5	-66.4	3.8	8.46e-01	0	27	104	0	72	16670
2026-01-11 03:33:24.62	316.93	63.85	-53.5	-66.4	3.8	8.45e-01	0	27	104	0	72	16672
2026-01-11 03:33:25.63	315.87	63.92	-53.5	-66.4	3.8	8.47e-01	0	27	104	0	72	16693
2026-01-11 03:33:26.62	314.83	63.99	-53.5	-66.4	3.8	8.45e-01	0	27	104	0	72	16657
2026-01-11 03:33:27.62	313.77	64.05	-53.5	-66.4	3.8	8.46e-01	0	27	104	0	72	16688
2026-01-11 03:33:28.63	312.69	64.10	-53.5	-66.5	3.8	8.47e-01	0	27	104	0	72	16726
2026-01-11 03:33:29.63	311.62	64.15	-53.5	-66.4	3.8	8.45e-01	0	27	104	0	72	16676
2026-01-11 03:33:30.63	310.55	64.18	-53.5	-66.5	3.8	8.46e-01	0	27	104	0	72	16710
2026-01-11 03:33:31.63	309.47	64.21	-53.5	-66.4	3.8	8.45e-01	0	27	104	0	72	16689
2026-01-11 03:33:32.64	308.38	64.23	-53.5	-66.5	3.8	8.45e-01	0	27	104	0	72	16720
2026-01-11 03:33:33.65	307.29	64.24	-53.5	-66.5	3.8	8.45e-01	0	27	104	0	72	16743
2026-01-11 03:33:34.65	306.20	64.25	-53.5	-66.5	3.8	8.46e-01	0	26	104	0	72	16701
2026-01-11 03:33:35.65	305.12	64.24	-53.5	-66.5	3.8	8.46e-01	0	27	104	0	72	16711
2026-01-11 03:33:36.65	304.04	64.23	-53.5	-66.5	3.8	8.46e-01	0	27	104	0	72	16706
2026-01-11 03:33:37.64	302.97	64.21	-53.5	-66.4	3.8	8.46e-01	0	27	104	0	72	16689
2026-01-11 03:33:38.64	301.89	64.18	-53.5	-66.4	3.8	8.47e-01	0	27	104	0	72	16689
2026-01-11 03:33:39.65	300.81	64.14	-53.5	-66.4	3.8	8.45e-01	0	27	104	0	72	16668
2026-01-11 03:33:40.65	299.74	64.09	-53.5	-66.5	3.8	8.45e-01	0	27	104	0	72	16710
2026-01-11 03:33:41.66	298.66	64.04	-53.5	-66.4	3.8	8.46e-01	0	27	104	0	72	16667
2026-01-11 03:33:42.66	297.60	63.98	-53.5	-66.5	3.8	8.46e-01	0	27	104	0	72	16713
2026-01-11 03:33:43.65	296.56	63.91	-53.5	-66.4	3.8	8.46e-01	0	27	104	0	72	16685
2026-01-11 03:33:44.66	295.50	63.83	-53.5	-66.4	3.8	8.46e-01	0	27	104	0	72	16684
2026-01-11 03:33:45.66	294.46	63.74	-53.5	-66.5	3.8	8.45e-01	0	26	104	0	72	16721
2026-01-11 03:33:46.67	293.42	63.65	-53.5	-66.4	3.8	8.45e-01	0	27	104	0	72	16657
2026-01-11 03:33:47.67	292.40	63.55	-53.5	-66.5	3.8	8.45e-01	0	27	104	0	72	16767
2026-01-11 03:33:48.68	291.37	63.44	-53.5	-66.5	3.8	8.45e-01	0	27	104	0	72	16705
2026-01-11 03:33:49.68	290.37	63.32	-53.5	-66.5	3.8	8.47e-01	0	26	104	0	72	16716
2026-01-11 03:33:50.68	289.37	63.20	-53.5	-66.5	3.8	8.46e-01	0	26	104	0	72	16708
2026-01-11 03:33:51.69	288.38	63.07	-53.5	-66.5	3.8	8.47e-01	0	27	104	0	72	16734
2026-01-11 03:33:52.69	287.41	62.94	-53.5	-66.5	3.8	8.45e-01	0	26	104	0	72	16737
2026-01-11 03:33:53.69	286.44	62.79	-53.5	-66.4	3.8	8.46e-01	0	27	104	0	72	16662
2026-01-11 03:33:54.69	285.49	62.65	-53.5	-66.5	3.8	8.45e-01	0	27	104	0	72	16705
2026-01-11 03:33:55.70	284.55	62.49	-53.5	-66.4	3.8	8.46e-01	0	26	104	0	72	16689
2026-01-11 03:33:56.70	283.62	62.33	-53.5	-66.4	3.8	8.47e-01	0	27	104	0	72	16641
2026-01-11 03:33:57.69	282.72	62.16	-53.5	-66.4	3.8	8.44e-01	0	26	104	0	72	16663
2026-01-11 03:33:58.70	281.81	61.99	-53.5	-66.5	3.8	8.46e-01	0	26	104	0	72	16697
2026-01-11 03:33:59.70	280.92	61.81	-53.5	-66.5	3.8	8.45e-01	0	26	104	0	72	16715
2026-01-11 03:34:00.69	280.05	61.63	-53.5	-66.5	3.8	8.46e-01	0	26	104	0	72	16729
2026-01-11 03:34:01.69	279.19	61.44	-53.5	-66.5	3.8	8.45e-01	0	26	104	0	72	16713
2026-01-11 03:34:02.69	278.34	61.24	-53.5	-66.5	3.8	8.45e-01	0	27	104	0	72	16740
2026-01-11 03:34:03.69	277.50	61.05	-53.5	-66.4	3.8	8.45e-01	0	27	104	0	72	16678
2026-01-11 03:34:04.69	276.68	60.84	-53.5	-66.4	3.8	8.45e-01	0	26	104	0	72	16676
2026-01-11 03:34:05.69	275.87	60.63	-53.5	-66.4	3.8	8.45e-01	0	26	104	0	72	16679
2026-01-11 03:34:06.69	275.08	60.42	-53.5	-66.4	3.8	8.46e-01	0	27	104	0	72	16692
2026-01-11 03:34:07.69	274.30	60.21	-53.5	-66.4	3.8	8.45e-01	0	26	104	0	72	16673
2026-01-11 03:34:08.69	273.53	59.98	-53.5	-66.4	3.8	8.45e-01	0	27	104	0	72	16679
2026-01-11 03:34:09.68	272.78	59.76	-53.5	-66.5	3.8	8.46e-01	0	26	104	0	72	16720
2026-01-11 03:34:10.69	272.03	59.53	-53.5	-66.5	3.8	8.45e-01	0	27	104	0	72	16712
2026-01-11 03:34:11.69	271.30	59.30	-53.5	-66.4	3.8	8.44e-01	0	27	104	0	72	16645
2026-01-11 03:34:12.69	270.58	59.07	-53.5	-66.5	3.8	8.44e-01	0	27	104	0	72	16696
2026-01-11 03:34:13.68	269.89	58.83	-53.5	-66.5	3.8	8.46e-01	0	26	104	0	72	16712
2026-01-11 03:34:14.68	269.19	58.59	-53.5	-66.4	3.8	8.46e-01	0	26	104	0	72	16688
2026-01-11 03:34:15.68	268.52	58.35	-53.5	-66.4	3.8	8.46e-01	0	27	104	0	72	16685
2026-01-11 03:34:16.68	267.85	58.10	-53.5	-66.5	3.8	8.45e-01	0	27	104	0	72	16732
2026-01-11 03:34:17.67	267.20	57.85	-53.5	-66.5	3.8	8.45e-01	0	26	104	0	72	16722
2026-01-11 03:34:18.67	266.56	57.60	-53.5	-66.4	3.8	8.46e-01	0	27	104	0	72	16669
2026-01-11 03:34:19.67	265.93	57.35	-53.5	-66.4	3.8	8.45e-01	0	27	104	0	72	16693
2026-01-11 03:34:20.68	265.30	57.09	-53.5	-66.4	3.8	8.46e-01	0	27	104	0	72	16675
2026-01-11 03:34:21.68	264.70	56.83	-53.5	-66.4	3.8	8.46e-01	0	27	104	0	72	16670
2026-01-11 03:34:22.68	264.10	56.57	-53.5	-66.4	3.8	8.45e-01	0	26	104	0	72	16645
2026-01-11 03:34:23.69	263.51	56.31	-53.5	-66.4	3.8	8.46e-01	0	26	104	0	72	16667
2026-01-11 03:34:24.69	262.94	56.05	-53.5	-66.4	3.8	8.45e-01	0	26	104	0	72	16681
2026-01-11 03:34:25.69	262.38	55.78	-53.5	-66.5	3.8	8.45e-01	0	27	104	0	72	16721
2026-01-11 03:34:26.70	261.82	55.52	-53.5	-66.4	3.8	8.45e-01	0	27	104	0	72	16670
2026-01-11 03:34:27.70	261.28	55.25	-53.5	-66.4	3.8	8.46e-01	0	27	104	0	72	16689
2026-01-11 03:34:28.70	260.75	54.98	-53.5	-66.4	3.8	8.46e-01	0	26	104	0	72	16665
2026-01-11 03:34:29.69	260.23	54.71	-53.5	-66.4	3.8	8.46e-01	0	26	104	0	72	16681
2026-01-11 03:34:30.69	259.72	54.44	-53.5	-66.5	3.8	8.45e-01	0	27	104	0	72	16696
2026-01-11 03:34:31.69	259.22	54.17	-53.5	-66.4	3.8	8.47e-01	0	26	104	0	72	16668
2026-01-11 03:34:32.69	258.72	53.90	-53.5	-66.4	3.8	8.46e-01	0	26	104	0	72	16675
2026-01-11 03:34:33.69	258.24	53.63	-53.5	-66.5	3.8	8.45e-01	0	26	104	0	72	16704
2026-01-11 03:34:34.69	257.77	53.35	-53.5	-66.4	3.8	8.46e-01	0	27	104	0	72	16666
2026-01-11 03:34:35.69	257.30	53.08	-53.5	-66.4	3.8	8.46e-01	0	26	104	0	72	16656
2026-01-11 03:34:36.69	256.85	52.81	-53.5	-66.4	3.8	8.44e-01	0	27	104	0	72	16663
2026-01-11 03:34:37.70	256.39	52.53	-53.5	-66.4	3.8	8.46e-01	0	26	104	0	72	16663
2026-01-11 03:34:38.70	255.95	52.26	-53.5	-66.4	3.8	8.45e-01	0	26	104	0	72	16691
2026-01-11 03:34:39.70	255.52	51.98	-53.5	-66.4	3.8	8.45e-01	0	26	104	0	72	16690
2026-01-11 03:34:40.70	255.10	51.71	-53.5	-66.4	3.8	8.46e-01	0	27	104	0	72	16682
2026-01-11 03:34:41.70	254.68	51.43	-53.5	-66.4	3.8	8.45e-01	0	26	104	0	72	16673
2026-01-11 03:34:42.70	254.28	51.16	-53.5	-66.4	3.8	8.46e-01	0	26	104	0	72	16663
2026-01-11 03:34:43.71	253.87	50.88	-53.5	-66.4	3.8	8.45e-01	0	27	104	0	72	16657
2026-01-11 03:34:44.71	253.48	50.60	-53.5	-66.4	3.8	8.46e-01	0	26	104	0	72	16683
2026-01-11 03:34:45.71	253.09	50.33	-53.5	-66.5	3.8	8.46e-01	0	26	104	0	72	16704
2026-01-11 03:34:46.71	252.71	50.06	-53.5	-66.4	3.8	8.46e-01	0	26	104	0	72	16683
2026-01-11 03:34:47.71	252.34	49.78	-53.5	-66.5	3.8	8.47e-01	0	26	104	0	72	16704
2026-01-11 03:34:48.71	251.97	49.51	-53.5	-66.4	3.8	8.46e-01	0	26	104	0	72	16641
2026-01-11 03:34:49.71	251.62	49.23	-53.5	-66.4	3.8	8.45e-01	0	26	104	0	72	16646
2026-01-11 03:34:50.71	251.26	48.96	-53.5	-66.5	3.8	8.47e-01	0	26	104	0	72	16700
2026-01-11 03:34:51.71	250.92	48.69	-53.5	-66.4	3.8	8.46e-01	0	27	104	0	72	16615
2026-01-11 03:34:52.72	250.57	48.42	-53.5	-66.4	3.8	8.45e-01	0	27	104	0	72	16659
2026-01-11 03:34:53.72	250.24	48.15	-53.5	-66.5	3.8	8.46e-01	0	27	104	0	72	16702
2026-01-11 03:34:54.72	249.91	47.87	-53.5	-66.5	3.8	8.45e-01	0	27	104	0	72	16707
2026-01-11 03:34:55.72	249.59	47.61	-53.5	-66.4	3.8	8.46e-01	0	26	104	0	72	16647
2026-01-11 03:34:56.72	249.27	47.34	-53.5	-66.4	3.8	8.46e-01	0	26	104	0	72	16657
2026-01-11 03:34:57.72	248.96	47.07	-53.5	-66.4	3.8	8.45e-01	0	26	104	0	72	16684
2026-01-11 03:34:58.72	248.65	46.80	-53.5	-66.5	3.8	8.45e-01	0	26	104	0	72	16696
2026-01-11 03:34:59.71	248.35	46.54	-53.5	-66.5	3.8	8.45e-01	0	26	104	0	72	16709
2026-01-11 03:35:00.72	248.05	46.27	-53.5	-66.5	3.8	8.46e-01	0	26	104	0	72	16728
2026-01-11 03:35:01.72	247.76	46.00	-53.5	-66.4	3.8	8.45e-01	0	26	104	0	72	16670
2026-01-11 03:35:02.72	247.48	45.74	-53.5	-66.5	3.8	8.44e-01	0	26	104	0	72	16722
2026-01-11 03:35:03.72	247.20	45.48	-53.5	-66.4	3.8	8.46e-01	0	26	104	0	72	16693
2026-01-11 03:35:04.72	246.92	45.21	-53.5	-66.4	3.8	8.45e-01	0	27	104	0	72	16681
2026-01-11 03:35:05.73	246.64	44.95	-53.5	-66.4	3.8	8.46e-01	0	26	104	0	72	16657
2026-01-11 03:35:06.73	246.38	44.69	-53.5	-66.4	3.8	8.45e-01	0	26	104	0	72	16636
2026-01-11 03:35:07.73	246.11	44.43	-53.5	-66.5	3.8	8.44e-01	0	27	104	0	72	16695
2026-01-11 03:35:08.73	245.86	44.17	-53.5	-66.4	3.8	8.45e-01	0	26	104	0	72	16663
2026-01-11 03:35:09.73	245.60	43.92	-53.5	-66.4	3.8	8.45e-01	0	26	104	0	72	16685
2026-01-11 03:35:10.73	245.35	43.66	-53.5	-66.5	3.8	8.45e-01	0	26	104	0	72	16696
2026-01-11 03:35:11.73	245.10	43.41	-53.5	-66.5	3.8	8.46e-01	0	26	104	0	72	16704
2026-01-11 03:35:12.73	244.86	43.15	-53.5	-66.5	3.8	8.46e-01	0	26	104	0	72	16725
2026-01-11 03:35:13.72	244.62	42.90	-53.5	-66.4	3.8	8.45e-01	0	27	104	0	72	16680
2026-01-11 03:35:14.72	244.39	42.65	-53.5	-66.4	3.8	8.45e-01	0	27	104	0	72	16674
2026-01-11 03:35:15.72	244.16	42.40	-53.5	-66.4	3.8	8.46e-01	0	26	104	0	72	16641
2026-01-11 03:35:16.72	243.93	42.15	-53.5	-66.4	3.8	8.45e-01	0	26	104	0	72	16671
2026-01-11 03:35:17.43	243.77	41.97	-53.5	-66.4	3.8	8.46e-01	0	26	104	0	72	16651
2026-01-11 03:35:18.72	243.48	41.66	-53.5	-66.4	3.8	8.46e-01	0	26	104	0	72	16686
2026-01-11 03:35:19.44	243.33	41.48	-53.5	-66.4	3.8	8.46e-01	0	26	104	0	72	16629
2026-01-11 03:35:20.72	243.05	41.17	-53.5	-66.4	3.8	8.46e-01	0	26	104	0	72	16681
2026-01-11 03:35:21.44	242.90	40.99	-53.5	-66.4	3.8	8.46e-01	0	27	104	0	72	16642
2026-01-11 03:35:22.73	242.63	40.68	-53.5	-66.4	3.8	8.46e-01	0	27	104	0	72	16670
2026-01-11 03:35:23.44	242.49	40.51	-53.5	-66.4	3.8	8.46e-01	0	26	104	0	72	16610
2026-01-11 03:35:24.72	242.23	40.20	-53.5	-66.4	3.8	8.47e-01	0	26	104	0	72	16668
2026-01-11 03:35:25.47	242.08	40.02	-53.5	-66.4	3.8	8.46e-01	0	26	104	0	72	16666
2026-01-11 03:35:26.76	241.83	39.71	-53.5	-66.5	3.8	8.46e-01	0	26	104	0	72	16704
2026-01-11 03:35:27.48	241.69	39.54	-53.5	-66.4	3.8	8.46e-01	0	27	104	0	72	16689
2026-01-11 03:35:28.76	241.44	39.24	-53.5	-66.4	3.8	8.47e-01	0	27	104	0	72	16673
2026-01-11 03:35:29.49	241.31	39.07	-53.5	-66.4	3.8	8.46e-01	0	26	104	0	72	16653
2026-01-11 03:35:30.78	241.07	38.77	-53.5	-66.5	3.8	8.46e-01	0	26	104	0	72	16712
2026-01-11 03:35:31.49	240.94	38.61	-53.5	-66.5	3.8	8.45e-01	0	27	104	0	72	16698
2026-01-11 03:35:32.79	240.71	38.31	-53.5	-66.5	3.8	8.45e-01	0	26	104	0	72	16741
2026-01-11 03:35:33.50	240.58	38.15	-53.5	-66.4	3.8	8.45e-01	0	26	104	0	72	16668
2026-01-11 03:35:34.79	240.36	37.85	-53.5	-66.5	3.8	8.46e-01	0	26	104	0	72	16712
2026-01-11 03:35:35.51	240.23	37.69	-53.5	-66.4	3.8	8.45e-01	0	26	104	0	72	16681
2026-01-11 03:35:36.80	240.01	37.40	-53.5	-66.4	3.8	8.46e-01	0	27	104	0	72	16691
2026-01-11 03:35:37.52	239.89	37.24	-53.5	-66.4	3.8	8.46e-01	0	27	104	0	72	16655
2026-01-11 03:35:38.81	239.68	36.95	-53.5	-66.5	3.8	8.45e-01	0	26	104	0	72	16713
2026-01-11 03:35:39.53	239.56	36.79	-53.5	-66.4	3.8	8.46e-01	0	26	104	0	72	16657
2026-01-11 03:35:40.81	239.36	36.51	-53.5	-66.4	3.8	8.44e-01	0	27	104	0	72	16682
2026-01-11 03:35:41.52	239.25	36.35	-53.5	-66.5	3.8	8.46e-01	0	26	104	0	72	16744
2026-01-11 03:35:42.82	239.04	36.07	-53.5	-66.4	3.8	8.46e-01	0	26	104	0	72	16638
2026-01-11 03:35:43.53	238.94	35.92	-53.5	-66.5	3.8	8.47e-01	0	27	104	0	72	16747
2026-01-11 03:35:44.82	238.74	35.64	-53.5	-66.4	3.8	8.45e-01	0	26	104	0	72	16655
2026-01-11 03:35:45.55	238.63	35.48	-53.5	-66.5	3.8	8.46e-01	0	26	104	0	72	16705
2026-01-11 03:35:46.84	238.44	35.21	-53.5	-66.4	3.8	8.45e-01	0	26	104	0	72	16673
2026-01-11 03:35:47.56	238.34	35.05	-53.5	-66.4	3.8	8.45e-01	0	27	104	0	72	16692
2026-01-11 03:35:48.85	238.15	34.78	-53.5	-66.4	3.8	8.46e-01	0	26	104	0	72	16677
2026-01-11 03:35:49.57	238.05	34.63	-53.5	-66.4	3.8	8.46e-01	0	27	104	0	72	16641
2026-01-11 03:35:50.86	237.87	34.36	-53.5	-66.5	3.8	8.46e-01	0	26	104	0	72	16696
2026-01-11 03:35:51.58	237.77	34.22	-53.5	-66.4	3.8	8.45e-01	0	26	104	0	72	16657
2026-01-11 03:35:52.87	237.59	33.95	-53.5	-66.4	3.8	8.46e-01	0	26	104	0	72	16650
2026-01-11 03:35:53.59	237.49	33.80	-53.5	-66.4	3.8	8.45e-01	0	26	104	0	72	16655
2026-01-11 03:35:54.88	237.32	33.54	-53.5	-66.4	3.8	8.44e-01	0	26	104	0	72	16666
2026-01-11 03:35:55.59	237.23	33.40	-53.5	-66.4	3.8	8.45e-01	0	26	104	0	72	16643
2026-01-11 03:35:56.88	237.06	33.14	-53.5	-66.5	3.8	8.45e-01	0	26	104	0	72	16695
2026-01-11 03:35:57.60	236.97	32.99	-53.5	-66.4	3.8	8.45e-01	0	27	104	0	72	16658
2026-01-11 03:35:58.88	236.81	32.74	-53.5	-66.5	3.8	8.46e-01	0	27	104	0	72	16714
2026-01-11 03:35:59.60	236.72	32.60	-53.5	-66.4	3.8	8.46e-01	0	26	104	0	72	16664
2026-01-11 03:36:00.88	236.56	32.34	-53.5	-66.4	3.8	8.46e-01	0	26	104	0	72	16659
2026-01-11 03:36:01.60	236.47	32.20	-53.5	-66.4	3.8	8.46e-01	0	26	104	0	72	16677
2026-01-11 03:36:02.88	236.32	31.96	-53.5	-66.4	3.8	8.46e-01	0	26	104	0	72	16651
2026-01-11 03:36:03.60	236.23	31.82	-53.5	-66.5	3.8	8.45e-01	0	27	104	0	72	16707
2026-01-11 03:36:04.89	236.08	31.57	-53.5	-66.4	3.8	8.47e-01	0	27	104	0	72	16666
2026-01-11 03:36:05.61	236.00	31.43	-53.5	-66.4	3.8	8.45e-01	0	26	104	0	72	16640
2026-01-11 03:36:06.90	235.85	31.19	-53.5	-66.4	3.8	8.45e-01	0	26	104	0	72	16653
2026-01-11 03:36:07.62	235.77	31.05	-53.5	-66.4	3.8	8.45e-01	0	26	104	0	72	16693
2026-01-11 03:36:08.91	235.62	30.81	-53.5	-66.4	3.8	8.46e-01	0	26	104	0	72	16647
2026-01-11 03:36:09.62	235.55	30.68	-53.5	-66.4	3.8	8.45e-01	0	26	104	0	72	16686
2026-01-11 03:36:10.91	235.41	30.44	-53.5	-66.4	3.8	8.46e-01	0	27	104	0	72	16654
2026-01-11 03:36:11.64	235.33	30.30	-53.5	-66.4	3.8	8.45e-01	0	26	104	0	72	16638
2026-01-11 03:36:12.92	235.19	30.07	-53.5	-66.4	3.8	8.45e-01	0	26	104	0	72	16660
2026-01-11 03:36:13.65	235.11	29.93	-53.5	-66.4	3.8	8.45e-01	0	26	104	0	72	16652
2026-01-11 03:36:14.95	234.98	29.70	-53.5	-66.5	3.8	8.46e-01	0	27	104	0	72	16710
2026-01-11 03:36:15.65	234.91	29.57	-53.5	-66.4	3.8	8.45e-01	0	26	104	0	72	16634
2026-01-11 03:36:16.94	234.77	29.34	-53.5	-66.4	3.8	8.45e-01	0	26	104	0	72	16679
2026-01-11 03:36:17.66	234.70	29.21	-53.5	-66.4	3.8	8.45e-01	0	27	104	0	72	16656
2026-01-11 03:36:18.94	234.57	28.99	-53.5	-66.5	3.8	8.44e-01	0	26	104	0	72	16696
2026-01-11 03:36:19.69	234.50	28.86	-53.5	-66.4	3.8	8.45e-01	0	26	104	0	72	16673
2026-01-11 03:36:20.98	234.37	28.63	-53.5	-66.4	3.8	8.45e-01	0	26	104	0	72	16627
2026-01-11 03:36:21.70	234.31	28.50	-53.5	-66.4	3.8	8.47e-01	0	26	104	0	72	16674
2026-01-11 03:36:22.98	234.18	28.28	-53.5	-66.4	3.8	8.46e-01	0	26	104	0	72	16694
2026-01-11 03:36:23.71	234.12	28.16	-53.5	-66.4	3.8	8.46e-01	0	26	104	0	72	16661
2026-01-11 03:36:25.00	234.00	27.94	-53.5	-66.4	3.8	8.45e-01	0	27	104	0	72	16641
2026-01-11 03:36:25.72	233.93	27.81	-53.5	-66.4	3.8	8.45e-01	0	27	104	0	72	16686
2026-01-11 03:36:27.01	233.81	27.60	-53.5	-66.4	3.8	8.44e-01	0	27	104	0	72	16654
2026-01-11 03:36:27.73	233.75	27.47	-53.5	-66.4	3.8	8.46e-01	0	26	104	0	72	16639
2026-01-11 03:36:29.04	233.63	27.26	-53.5	-66.4	3.8	8.46e-01	0	26	104	0	72	16596
2026-01-11 03:36:29.75	233.57	27.14	-53.5	-66.4	3.8	8.46e-01	0	26	104	0	72	16669
2026-01-11 03:36:31.04	233.46	26.92	-53.5	-66.4	3.8	8.45e-01	0	26	104	0	72	16613
2026-01-11 03:36:31.76	233.39	26.81	-53.5	-66.5	3.8	8.46e-01	0	26	104	0	72	16700
2026-01-11 03:36:33.05	233.28	26.59	-53.5	-66.4	3.8	8.45e-01	0	27	104	0	72	16601
2026-01-11 03:36:33.76	233.22	26.48	-53.5	-66.4	3.8	8.45e-01	0	26	104	0	72	16682
2026-01-11 03:36:35.05	233.12	26.27	-53.5	-66.4	3.8	8.45e-01	0	26	104	0	72	16599
2026-01-11 03:36:35.76	233.06	26.16	-53.5	-66.4	3.8	8.44e-01	0	26	104	0	72	16653
2026-01-11 03:36:37.05	232.95	25.95	-53.5	-66.4	3.8	8.45e-01	0	26	104	0	72	16626
2026-01-11 03:36:37.77	232.89	25.84	-53.5	-66.4	3.8	8.46e-01	0	26	104	0	72	16643
2026-01-11 03:36:39.05	232.79	25.63	-53.5	-66.4	3.8	8.45e-01	0	26	104	0	72	16649
2026-01-11 03:36:39.77	232.73	25.52	-53.5	-66.4	3.8	8.46e-01	0	26	104	0	72	16604
2026-01-11 03:36:41.05	232.63	25.32	-53.5	-66.4	3.8	8.45e-01	0	26	104	0	72	16680
2026-01-11 03:36:41.77	232.58	25.21	-53.5	-66.4	3.8	8.45e-01	0	26	104	0	72	16631
2026-01-11 03:36:43.06	232.48	25.01	-53.5	-66.4	3.8	8.47e-01	0	26	104	0	72	16598
2026-01-11 03:36:43.79	232.42	24.90	-53.5	-66.4	3.8	8.46e-01	0	26	104	0	72	16670
2026-01-11 03:36:45.07	232.33	24.70	-53.5	-66.4	3.8	8.45e-01	0	27	104	0	72	16650
2026-01-11 03:36:45.79	232.27	24.59	-53.5	-66.4	3.8	8.46e-01	0	26	104	0	72	16670
2026-01-11 03:36:47.07	232.18	24.40	-53.5	-66.4	3.8	8.45e-01	0	26	104	0	72	16669
2026-01-11 03:36:47.81	232.13	24.29	-53.5	-66.4	3.8	8.44e-01	0	26	104	0	72	16660
2026-01-11 03:36:49.10	232.03	24.09	-53.5	-66.4	3.8	8.45e-01	0	26	104	0	72	16676
2026-01-11 03:36:49.81	231.98	23.99	-53.5	-66.4	3.8	8.45e-01	0	26	104	0	72	16664
2026-01-11 03:36:51.10	231.89	23.80	-53.5	-66.4	3.8	8.46e-01	0	27	104	0	72	16665
2026-01-11 03:36:51.83	231.84	23.69	-53.5	-66.4	3.8	8.46e-01	0	26	104	0	72	16679
2026-01-11 03:36:53.12	231.75	23.50	-53.5	-66.4	3.8	8.45e-01	0	26	104	0	72	16666
2026-01-11 03:36:53.84	231.70	23.39	-53.5	-66.4	3.8	8.47e-01	0	26	104	0	72	16671
2026-01-11 03:36:55.13	231.61	23.21	-53.5	-66.4	3.8	8.45e-01	0	26	104	0	72	16617
2026-01-11 03:36:55.84	231.56	23.10	-53.5	-66.4	3.8	8.45e-01	0	26	104	0	72	16641
2026-01-11 03:36:57.14	231.48	22.92	-53.5	-66.4	3.8	8.46e-01	0	26	104	0	72	16641
2026-01-11 03:36:57.86	231.43	22.82	-53.5	-66.4	3.8	8.45e-01	0	26	104	0	72	16662
2026-01-11 03:36:59.15	231.34	22.63	-53.5	-66.4	3.8	8.46e-01	0	26	104	0	72	16640
2026-01-11 03:36:59.87	231.30	22.53	-53.5	-66.4	3.8	8.45e-01	0	26	104	0	72	16605
2026-01-11 03:37:01.15	231.22	22.35	-53.5	-66.5	3.8	8.46e-01	0	26	104	0	72	16696
2026-01-11 03:37:01.89	231.17	22.25	-53.5	-66.4	3.8	8.46e-01	0	26	104	0	72	16641
2026-01-11 03:37:03.17	231.09	22.07	-53.5	-66.4	3.8	8.46e-01	0	26	104	0	72	16667
2026-01-11 03:37:03.90	231.04	21.97	-53.5	-66.4	3.8	8.46e-01	0	26	104	0	72	16638
2026-01-11 03:37:05.19	230.96	21.79	-53.5	-66.4	3.8	8.47e-01	0	26	104	0	72	16648
2026-01-11 03:37:05.91	230.92	21.69	-53.5	-66.4	3.8	8.45e-01	0	26	104	0	72	16659
2026-01-11 03:37:07.20	230.84	21.52	-53.5	-66.4	3.8	8.45e-01	0	26	104	0	72	16607
2026-01-11 03:37:07.91	230.80	21.42	-53.5	-66.4	3.8	8.45e-01	0	26	104	0	72	16688
2026-01-11 03:37:09.19	230.72	21.25	-53.5	-66.5	3.8	8.45e-01	0	26	104	0	72	16723
2026-01-11 03:37:09.92	230.68	21.15	-53.5	-66.5	3.8	8.44e-01	0	27	104	0	72	16712
2026-01-11 03:37:11.20	230.60	20.98	-53.5	-66.4	3.8	8.45e-01	0	27	104	0	72	16686
2026-01-11 03:37:11.95	230.56	20.88	-53.5	-66.4	3.8	8.44e-01	0	26	104	0	72	16644
2026-01-11 03:37:13.24	230.49	20.71	-53.5	-66.4	3.8	8.45e-01	0	26	104	0	72	16677
2026-01-11 03:37:13.95	230.44	20.62	-53.5	-66.5	3.8	8.46e-01	0	26	104	0	72	16725
2026-01-11 03:37:15.24	230.37	20.45	-53.5	-66.4	3.8	8.46e-01	0	26	104	0	72	16654
2026-01-11 03:37:15.96	230.33	20.35	-53.5	-66.4	3.8	8.45e-01	0	26	104	0	72	16638
2026-01-11 03:37:17.26	230.26	20.19	-53.5	-66.4	3.8	8.45e-01	0	26	104	0	72	16672
2026-01-11 03:37:17.99	230.22	20.09	-53.5	-66.4	3.8	8.45e-01	0	26	104	0	72	16675
2026-01-11 03:37:19.27	230.15	19.93	-53.5	-66.5	3.8	8.46e-01	0	26	104	0	72	16701
2026-01-11 03:37:19.99	230.11	19.84	-53.5	-66.4	3.8	8.45e-01	0	26	104	0	72	16673
2026-01-11 03:37:21.27	230.04	19.67	-53.5	-66.4	3.8	8.46e-01	0	26	104	0	72	16684
2026-01-11 03:37:21.99	230.00	19.58	-53.5	-66.5	3.8	8.45e-01	0	26	104	0	72	16696
2026-01-11 03:37:23.28	229.94	19.42	-53.5	-66.4	3.8	8.46e-01	0	26	104	0	72	16669
2026-01-11 03:37:24.00	229.90	19.33	-53.5	-66.5	3.8	8.46e-01	0	26	104	0	72	16708
2026-01-11 03:37:25.28	229.83	19.17	-53.5	-66.4	3.8	8.45e-01	0	27	104	0	72	16677
2026-01-11 03:37:26.01	229.80	19.08	-53.5	-66.4	3.8	8.45e-01	0	27	104	0	72	16665
2026-01-11 03:37:27.30	229.73	18.92	-53.5	-66.4	3.8	8.45e-01	0	26	104	0	72	16656
2026-01-11 03:37:28.02	229.69	18.83	-53.5	-66.4	3.8	8.45e-01	0	26	104	0	72	16685
2026-01-11 03:37:29.30	229.63	18.68	-53.5	-66.4	3.8	8.45e-01	0	26	104	0	72	16649
2026-01-11 03:37:30.02	229.59	18.59	-53.5	-66.4	3.8	8.47e-01	0	26	104	0	72	16684
2026-01-11 03:37:31.30	229.53	18.43	-53.5	-66.4	3.8	8.46e-01	0	26	104	0	72	16663
2026-01-11 03:37:32.05	229.49	18.34	-53.5	-66.4	3.8	8.45e-01	0	26	104	0	72	16678
2026-01-11 03:37:33.34	229.43	18.19	-53.5	-66.4	3.8	8.44e-01	0	26	104	0	72	16673
2026-01-11 03:37:34.05	229.40	18.10	-53.5	-66.4	3.8	8.45e-01	0	26	104	0	72	16682
2026-01-11 03:37:35.34	229.34	17.95	-53.5	-66.4	3.8	8.44e-01	0	26	104	0	72	16624
2026-01-11 03:37:36.06	229.30	17.87	-53.5	-66.4	3.8	8.46e-01	0	26	104	0	72	16678
2026-01-11 03:37:37.35	229.24	17.71	-53.5	-66.4	3.8	8.45e-01	0	26	104	0	72	16642
2026-01-11 03:37:38.06	229.21	17.63	-53.5	-66.4	3.8	8.44e-01	0	26	104	0	72	16687
2026-01-11 03:37:39.35	229.15	17.48	-53.5	-66.4	3.8	8.45e-01	0	26	104	0	72	16657
2026-01-11 03:37:40.06	229.12	17.40	-53.5	-66.4	3.8	8.45e-01	0	27	104	0	72	16644
2026-01-11 03:37:41.34	229.06	17.25	-53.5	-66.4	3.8	8.45e-01	0	26	104	0	72	16645
2026-01-11 03:37:42.09	229.03	17.16	-53.5	-66.4	3.8	8.46e-01	0	26	104	0	72	16660
2026-01-11 03:37:43.38	228.97	17.02	-53.5	-66.4	3.8	8.47e-01	0	26	104	0	72	16688
2026-01-11 03:37:44.09	228.94	16.94	-53.5	-66.4	3.8	8.47e-01	0	26	104	0	72	16642
2026-01-11 03:37:45.37	228.88	16.79	-53.5	-66.5	3.8	8.45e-01	0	27	104	0	72	16713
2026-01-11 03:37:46.09	228.85	16.71	-53.5	-66.4	3.8	8.46e-01	0	26	104	0	72	16654
2026-01-11 03:37:47.38	228.80	16.56	-53.5	-66.4	3.8	8.47e-01	0	26	104	0	72	16671
2026-01-11 03:37:48.09	228.77	16.49	-53.5	-66.4	3.8	8.45e-01	0	26	104	0	72	16600
2026-01-11 03:37:49.37	228.71	16.34	-53.5	-66.4	3.8	8.46e-01	0	27	104	0	72	16669
2026-01-11 03:37:50.09	228.68	16.26	-53.5	-66.4	3.8	8.45e-01	0	27	104	0	72	16687
2026-01-11 03:37:51.38	228.63	16.12	-53.5	-66.4	3.8	8.45e-01	0	27	104	0	72	16654
2026-01-11 03:37:52.09	228.60	16.04	-53.5	-66.4	3.8	8.46e-01	0	26	104	0	72	16669
2026-01-11 03:37:53.38	228.55	15.90	-53.5	-66.4	3.8	8.46e-01	0	26	104	0	72	16684
2026-01-11 03:37:54.10	228.52	15.82	-53.5	-66.4	3.8	8.45e-01	0	27	104	0	72	16640
2026-01-11 03:37:55.39	228.46	15.68	-53.5	-66.4	3.8	8.46e-01	0	26	104	0	72	16684
2026-01-11 03:37:56.12	228.44	15.60	-53.5	-66.5	3.8	8.46e-01	0	26	104	0	72	16733
2026-01-11 03:37:57.41	228.38	15.47	-53.5	-66.5	3.8	8.44e-01	0	27	104	0	72	16710
2026-01-11 03:37:58.13	228.36	15.39	-53.5	-66.5	3.8	8.46e-01	0	27	104	0	72	16712
2026-01-11 03:37:59.42	228.31	15.25	-53.5	-66.4	3.8	8.46e-01	0	26	104	0	72	16687
2026-01-11 03:38:00.14	228.28	15.17	-53.5	-66.4	3.8	8.45e-01	0	26	104	0	72	16653
2026-01-11 03:38:01.41	228.23	15.04	-53.5	-66.4	3.8	8.46e-01	0	26	104	0	72	16677
2026-01-11 03:38:02.12	228.20	14.96	-53.5	-66.5	3.8	8.46e-01	0	27	104	0	72	16698
2026-01-11 03:38:03.41	228.15	14.83	-53.5	-66.5	3.8	8.47e-01	0	26	104	0	72	16704
2026-01-11 03:38:04.14	228.13	14.75	-53.5	-66.5	3.8	8.45e-01	0	26	104	0	72	16718
2026-01-11 03:38:05.43	228.08	14.62	-53.5	-66.4	3.8	8.45e-01	0	26	104	0	72	16646
2026-01-11 03:38:06.14	228.05	14.55	-53.5	-66.5	3.8	8.46e-01	0	26	104	0	72	16730
2026-01-11 03:38:07.44	228.00	14.41	-53.5	-66.4	3.8	8.45e-01	0	27	104	0	72	16660
2026-01-11 03:38:08.17	227.98	14.34	-53.5	-66.4	3.8	8.45e-01	0	26	104	0	72	16694
2026-01-11 03:38:09.46	227.93	14.20	-53.5	-66.4	3.8	8.45e-01	0	27	104	0	72	16643
2026-01-11 03:38:10.17	227.90	14.13	-53.5	-66.4	3.8	8.45e-01	0	27	104	0	72	16634
2026-01-11 03:38:11.46	227.86	14.00	-53.5	-66.5	3.8	8.45e-01	0	26	104	0	72	16696
2026-01-11 03:38:12.17	227.83	13.93	-53.5	-66.4	3.8	8.46e-01	0	27	104	0	72	16676
2026-01-11 03:38:13.45	227.79	13.80	-53.5	-66.4	3.8	8.46e-01	0	27	104	0	72	16667
2026-01-11 03:38:14.20	227.76	13.73	-53.5	-66.4	3.8	8.46e-01	0	27	104	0	72	16682
2026-01-11 03:38:15.49	227.72	13.60	-53.5	-66.4	3.8	8.46e-01	0	26	104	0	72	16676
2026-01-11 03:38:16.21	227.69	13.53	-53.5	-66.4	3.8	8.45e-01	0	27	104	0	72	16628
2026-01-11 03:38:17.51	227.65	13.40	-53.5	-66.5	3.8	8.45e-01	0	27	104	0	72	16772
2026-01-11 03:38:18.22	227.62	13.33	-53.5	-66.4	3.8	8.46e-01	0	27	104	0	72	16643
2026-01-11 03:38:19.52	227.58	13.20	-53.5	-66.5	3.8	8.44e-01	0	26	104	0	72	16726
2026-01-11 03:38:20.24	227.56	13.13	-53.5	-66.5	3.8	8.45e-01	0	27	104	0	72	16695
2026-01-11 03:38:21.52	227.51	13.00	-53.5	-66.4	3.8	8.46e-01	0	27	104	0	72	16691
2026-01-11 03:38:22.23	227.49	12.93	-53.5	-66.4	3.8	8.46e-01	0	27	104	0	72	16692
2026-01-11 03:38:23.53	227.45	12.81	-53.5	-66.4	3.8	8.45e-01	0	27	104	0	72	16658
2026-01-11 03:38:24.24	227.43	12.74	-53.5	-66.5	3.8	8.46e-01	0	26	104	0	72	16718
2026-01-11 03:38:25.54	227.38	12.62	-53.5	-66.4	3.8	8.46e-01	0	27	104	0	72	16687
2026-01-11 03:38:26.25	227.36	12.55	-53.5	-66.4	3.8	8.44e-01	0	26	104	0	72	16666
2026-01-11 03:38:27.54	227.32	12.42	-53.5	-66.5	3.8	8.45e-01	0	26	104	0	72	16749
2026-01-11 03:38:28.26	227.30	12.36	-53.5	-66.5	3.8	8.46e-01	0	27	104	0	72	16697
2026-01-11 03:38:29.55	227.26	12.23	-53.5	-66.5	3.8	8.46e-01	0	26	104	0	72	16766
2026-01-11 03:38:30.26	227.23	12.17	-53.5	-66.5	3.8	8.46e-01	0	26	104	0	72	16702
2026-01-11 03:38:31.55	227.19	12.05	-53.5	-66.5	3.8	8.45e-01	0	27	104	0	72	16768
2026-01-11 03:38:32.26	227.17	11.98	-53.5	-66.5	3.8	8.45e-01	0	27	104	0	72	16747
2026-01-11 03:38:33.55	227.13	11.86	-53.5	-66.5	3.8	8.46e-01	0	27	104	0	72	16728
2026-01-11 03:38:34.28	227.11	11.79	-53.5	-66.5	3.8	8.45e-01	0	27	104	0	72	16730
2026-01-11 03:38:35.56	227.07	11.67	-53.5	-66.5	3.8	8.47e-01	0	27	104	0	72	16752
2026-01-11 03:38:36.28	227.05	11.61	-53.5	-66.5	3.8	8.46e-01	0	27	104	0	72	16736
2026-01-11 03:38:37.57	227.01	11.49	-53.5	-66.5	3.8	8.46e-01	0	27	104	0	72	16764
2026-01-11 03:38:38.29	226.99	11.42	-53.5	-66.5	3.8	8.45e-01	0	27	104	0	72	16766
2026-01-11 03:38:39.58	226.96	11.31	-53.5	-66.5	3.8	8.45e-01	0	26	104	0	72	16710
2026-01-11 03:38:40.29	226.93	11.24	-53.5	-66.5	3.8	8.46e-01	0	27	104	0	72	16695
2026-01-11 03:38:41.58	226.90	11.13	-53.5	-66.5	3.8	8.46e-01	0	27	104	0	72	16729
2026-01-11 03:38:42.30	226.88	11.06	-53.5	-66.5	3.8	8.45e-01	0	27	104	0	72	16759
2026-01-11 03:38:43.59	226.84	10.94	-53.5	-66.5	3.8	8.45e-01	0	27	104	0	72	16727
2026-01-11 03:38:44.30	226.82	10.88	-53.5	-66.5	3.8	8.44e-01	0	27	104	0	72	16771
2026-01-11 03:38:45.59	226.78	10.77	-53.5	-66.5	3.8	8.46e-01	0	27	104	0	72	16752
2026-01-11 03:38:46.30	226.76	10.70	-53.5	-66.5	3.8	8.46e-01	0	27	104	0	72	16738
