passes_logs/2026/01/11/R3.2S_Murmansk/R3.2S_Murmansk__20260111_090325_SUOMI_NPP_rec.log

#Pass ID: 20260111_090325_SUOMI NPP
#Satellite: SUOMI NPP
#Configuration: NPP
#almurnet v.1.7.20251203
#Start time: 2026-01-11 09:03:25

#Version: 2.2.20231116
#Station: R3.2S_Murmansk
#Location: 33.079688 lon 68.888172 lat
#TLE: 1 37849U 11061A   26010.94533966  .00000106  00000+0  71276-4 0  9997
#TLE: 2 37849  98.7807 313.0290 0002520  70.6146 289.5303 14.19524339736134

#Time	Az	El	Level	Level2	SNR	BER	BlckErr	Temp	State	Recorded	gain1	gain2
2026-01-11 09:03:25.26	138.89	1.97	-57.0	-72.9	3.8	1.49e+00	0	21	0	0	80	22144
2026-01-11 09:03:26.27	138.88	2.04	-56.9	-72.8	3.8	1.49e+00	0	21	104	0	78	24693
2026-01-11 09:03:27.28	138.87	2.10	-56.9	-72.9	3.8	1.49e+00	0	21	104	0	78	24768
2026-01-11 09:03:28.29	138.86	2.16	-56.9	-72.9	3.8	1.49e+00	0	21	104	0	78	24714
2026-01-11 09:03:29.30	138.85	2.23	-56.9	-72.9	3.8	1.49e+00	0	21	104	0	78	24714
2026-01-11 09:03:30.31	138.84	2.30	-56.9	-72.9	3.8	1.49e+00	0	21	104	0	78	24740
2026-01-11 09:03:31.32	138.82	2.36	-56.9	-72.9	3.8	1.49e+00	0	21	104	0	78	24809
2026-01-11 09:03:32.33	138.81	2.43	-56.9	-72.9	3.8	1.49e+00	0	21	104	0	78	24730
2026-01-11 09:03:33.34	138.80	2.49	-56.9	-72.9	3.8	1.49e+00	0	21	104	0	78	24708
2026-01-11 09:03:34.35	138.79	2.56	-56.9	-72.9	3.8	1.49e+00	0	21	104	0	78	24695
2026-01-11 09:03:35.36	138.78	2.62	-56.9	-72.8	3.8	1.49e+00	0	21	104	0	78	24665
2026-01-11 09:03:36.37	138.77	2.69	-56.9	-72.8	3.8	1.49e+00	0	21	104	0	78	24659
2026-01-11 09:03:37.37	138.75	2.76	-56.9	-72.9	3.8	1.49e+00	0	21	104	0	78	24743
2026-01-11 09:03:38.38	138.74	2.82	-56.9	-72.8	3.8	1.49e+00	0	21	104	0	78	24669
2026-01-11 09:03:39.39	138.73	2.89	-56.9	-72.8	3.8	1.49e+00	0	21	104	0	78	24638
2026-01-11 09:03:40.40	138.72	2.96	-56.9	-72.8	3.8	1.49e+00	0	21	104	0	78	24689
2026-01-11 09:03:41.41	138.71	3.02	-56.9	-72.8	3.8	1.49e+00	0	21	104	0	78	24624
2026-01-11 09:03:42.41	138.69	3.09	-56.9	-72.8	3.8	1.49e+00	0	21	104	0	78	24591
2026-01-11 09:03:43.42	138.68	3.16	-56.9	-72.8	3.8	1.49e+00	0	21	104	0	78	24515
2026-01-11 09:03:44.43	138.67	3.22	-56.9	-72.6	3.8	1.49e+00	0	21	104	0	78	23951
2026-01-11 09:03:45.44	138.66	3.29	-56.9	-72.3	3.8	1.49e+00	0	21	104	0	78	23243
2026-01-11 09:03:46.45	138.65	3.36	-56.9	-72.0	3.8	1.49e+00	0	21	104	0	78	22477
2026-01-11 09:03:47.46	138.63	3.43	-56.9	-71.4	3.8	1.49e+00	0	21	104	0	78	20960
2026-01-11 09:03:48.47	138.62	3.50	-56.8	-70.8	3.8	1.49e+00	0	21	104	0	78	19443
2026-01-11 09:03:49.47	138.61	3.56	-56.8	-69.6	4.1	1.44e+00	0	21	0	0	78	17031
2026-01-11 09:03:50.48	138.59	3.63	-56.7	-68.9	4.3	1.38e+00	18	21	0	0	78	15602
2026-01-11 09:03:51.49	138.58	3.70	-56.7	-68.2	4.5	1.08e+00	0	22	0	1048576	78	14453
2026-01-11 09:03:52.50	138.57	3.77	-56.6	-67.7	4.8	8.60e-01	0	22	0	3145728	78	13585
2026-01-11 09:03:53.51	138.56	3.84	-56.5	-66.5	5.3	5.98e-01	0	21	0	5242880	78	11907
2026-01-11 09:03:54.52	138.54	3.91	-56.5	-65.9	5.7	4.39e-01	0	21	0	7340032	78	11153
2026-01-11 09:03:55.53	138.53	3.98	-56.4	-65.2	6.2	3.17e-01	0	22	0	8388608	78	10263
2026-01-11 09:03:56.54	138.52	4.05	-56.2	-64.3	6.9	1.70e-01	0	22	0	10485760	78	9205
2026-01-11 09:03:57.55	138.50	4.11	-56.2	-64.0	7.2	1.04e-01	0	22	0	12582912	78	8928
2026-01-11 09:03:58.55	138.49	4.18	-56.0	-63.1	8.0	8.02e-02	0	22	0	14680064	78	8065
2026-01-11 09:03:59.56	138.48	4.25	-55.7	-62.0	9.1	1.94e-02	0	22	0	16777216	78	7049
2026-01-11 09:04:00.57	138.46	4.32	-55.4	-60.9	10.0	5.26e-03	0	22	0	17825792	77	6591
2026-01-11 09:04:01.58	138.45	4.39	-54.9	-59.7	11.0	1.31e-03	0	22	0	19922944	76	6086
2026-01-11 09:04:02.59	138.44	4.47	-54.4	-58.5	11.8	1.22e-04	0	22	0	22020096	75	5656
2026-01-11 09:04:03.60	138.42	4.54	-53.9	-57.6	12.5	9.10e-06	0	22	0	24117248	74	5345
2026-01-11 09:04:04.61	138.41	4.61	-53.9	-57.5	12.6	3.00e-06	0	22	0	26214400	74	5306
2026-01-11 09:04:05.61	138.39	4.68	-53.2	-56.7	12.9	7.00e-07	0	22	0	28311552	73	5150
2026-01-11 09:04:06.62	138.38	4.75	-53.5	-56.8	13.0	0.00e+00	0	22	0	29360128	73	5186
2026-01-11 09:04:07.63	138.37	4.82	-53.2	-56.3	13.4	0.00e+00	0	22	0	31457280	73	4896
2026-01-11 09:04:08.64	138.35	4.89	-53.1	-56.2	13.3	0.00e+00	0	22	0	33554432	72	5128
2026-01-11 09:04:09.65	138.34	4.96	-53.5	-56.8	12.8	0.00e+00	0	22	0	35651584	72	5483
2026-01-11 09:04:10.66	138.32	5.04	-53.3	-56.6	13.0	0.00e+00	0	22	0	37748736	72	5350
2026-01-11 09:04:11.67	138.31	5.11	-53.8	-57.3	12.7	0.00e+00	0	22	0	38797312	72	5810
2026-01-11 09:04:12.67	138.29	5.18	-55.1	-60.1	10.8	1.22e-05	0	22	0	40894464	75	6748
2026-01-11 09:04:13.68	138.28	5.25	-52.8	-55.6	13.7	5.57e-03	0	22	0	42991616	72	4806
2026-01-11 09:04:14.69	138.26	5.32	-53.1	-56.1	13.4	0.00e+00	0	22	0	45088768	71	5353
2026-01-11 09:04:15.69	138.25	5.40	-54.4	-58.8	11.6	0.00e+00	0	22	0	46137344	73	6515
2026-01-11 09:04:16.70	138.24	5.47	-52.8	-55.6	13.7	2.71e-02	0	22	0	48234496	72	4776
2026-01-11 09:04:17.70	138.22	5.54	-52.4	-54.9	14.1	0.00e+00	0	22	0	50331648	71	4698
2026-01-11 09:04:18.71	138.21	5.62	-52.6	-55.2	14.0	0.00e+00	0	22	0	52428800	71	4825
2026-01-11 09:04:19.73	138.19	5.69	-52.4	-54.9	14.1	0.00e+00	0	22	0	54525952	71	4684
2026-01-11 09:04:20.73	138.17	5.76	-52.4	-55.0	14.1	0.00e+00	0	22	0	56623104	71	4719
2026-01-11 09:04:21.74	138.16	5.84	-52.5	-55.1	14.0	0.00e+00	0	22	0	57671680	71	4778
2026-01-11 09:04:22.75	138.14	5.91	-52.6	-55.2	14.0	0.00e+00	0	22	0	59768832	71	4830
2026-01-11 09:04:23.76	138.13	5.99	-52.5	-55.1	14.0	0.00e+00	0	22	0	61865984	71	4773
2026-01-11 09:04:24.77	138.11	6.06	-52.5	-55.1	14.0	0.00e+00	0	22	0	63963136	71	4814
2026-01-11 09:04:25.77	138.10	6.14	-52.5	-55.0	14.0	0.00e+00	0	22	0	66060288	71	4748
2026-01-11 09:04:26.79	138.08	6.21	-52.5	-55.1	14.0	0.00e+00	0	22	0	67108864	71	4803
2026-01-11 09:04:27.78	138.07	6.29	-52.5	-55.1	14.1	0.00e+00	0	22	0	69206016	71	4765
2026-01-11 09:04:28.79	138.05	6.36	-52.4	-54.9	14.2	0.00e+00	0	22	0	71303168	71	4654
2026-01-11 09:04:29.80	138.03	6.44	-52.4	-54.9	14.2	0.00e+00	0	22	0	73400320	71	4657
2026-01-11 09:04:30.80	138.02	6.51	-52.3	-54.8	14.3	0.00e+00	0	22	0	74448896	71	4603
2026-01-11 09:04:31.81	138.00	6.59	-52.2	-54.6	14.4	0.00e+00	0	22	0	76546048	71	4516
2026-01-11 09:04:32.82	137.98	6.67	-52.3	-54.7	14.3	0.00e+00	0	22	0	78643200	71	4567
2026-01-11 09:04:33.83	137.97	6.74	-52.0	-54.4	14.4	0.00e+00	0	22	0	80740352	70	4664
2026-01-11 09:04:34.83	137.95	6.82	-52.1	-54.5	14.3	0.00e+00	0	22	0	82837504	70	4712
2026-01-11 09:04:35.84	137.93	6.90	-52.0	-54.3	14.4	0.00e+00	0	22	0	84934656	70	4613
2026-01-11 09:04:36.85	137.92	6.98	-52.2	-54.5	14.3	0.00e+00	0	22	0	85983232	70	4736
2026-01-11 09:04:37.86	137.90	7.05	-52.2	-54.5	14.3	0.00e+00	0	22	0	88080384	70	4737
2026-01-11 09:04:38.87	137.88	7.13	-52.0	-54.2	14.5	0.00e+00	0	22	0	90177536	70	4577
2026-01-11 09:04:39.87	137.87	7.21	-52.0	-54.3	14.4	0.00e+00	0	22	0	92274688	70	4619
2026-01-11 09:04:40.88	137.85	7.29	-52.1	-54.4	14.4	0.00e+00	0	22	0	94371840	70	4652
2026-01-11 09:04:41.89	137.83	7.37	-52.1	-54.3	14.4	0.00e+00	0	22	0	95420416	70	4645
2026-01-11 09:04:42.90	137.81	7.44	-52.0	-54.2	14.5	0.00e+00	0	22	0	97517568	70	4566
2026-01-11 09:04:43.90	137.80	7.52	-51.9	-54.1	14.6	0.00e+00	0	22	0	99614720	70	4536
2026-01-11 09:04:44.91	137.78	7.60	-52.0	-54.2	14.5	0.00e+00	0	22	0	101711872	70	4581
2026-01-11 09:04:45.92	137.76	7.68	-51.9	-54.1	14.6	0.00e+00	0	22	0	103809024	70	4533
2026-01-11 09:04:46.93	137.74	7.76	-51.9	-54.1	14.6	0.00e+00	0	22	0	104857600	70	4516
2026-01-11 09:04:47.94	137.72	7.84	-51.8	-53.9	14.7	0.00e+00	0	22	0	106954752	70	4435
2026-01-11 09:04:48.95	137.71	7.92	-51.8	-54.0	14.7	0.00e+00	0	22	0	109051904	70	4449
2026-01-11 09:04:49.95	137.69	8.00	-51.8	-54.0	14.7	0.00e+00	0	22	0	111149056	70	4452
2026-01-11 09:04:50.96	137.67	8.08	-51.8	-53.9	14.7	0.00e+00	0	22	0	113246208	70	4417
2026-01-11 09:04:51.97	137.65	8.16	-51.9	-54.1	14.6	0.00e+00	0	22	0	114294784	70	4500
2026-01-11 09:04:52.98	137.63	8.25	-51.8	-54.0	14.7	0.00e+00	0	22	0	116391936	70	4453
2026-01-11 09:04:53.98	137.61	8.33	-51.8	-53.9	14.7	0.00e+00	0	22	0	118489088	70	4438
2026-01-11 09:04:55.00	137.59	8.41	-51.8	-54.0	14.7	0.00e+00	0	22	0	120586240	70	4442
2026-01-11 09:04:56.00	137.58	8.49	-51.8	-53.9	14.7	0.00e+00	0	22	0	122683392	70	4416
2026-01-11 09:04:57.01	137.56	8.57	-51.6	-53.7	14.7	0.00e+00	0	22	0	123731968	69	4588
2026-01-11 09:04:58.02	137.54	8.66	-51.7	-53.9	14.6	0.00e+00	0	22	0	125829120	69	4671
2026-01-11 09:04:59.02	137.52	8.74	-51.6	-53.7	14.7	0.00e+00	0	22	0	127926272	69	4560
2026-01-11 09:05:00.03	137.50	8.82	-51.7	-53.8	14.6	0.00e+00	0	22	0	130023424	69	4635
2026-01-11 09:05:01.04	137.48	8.91	-51.6	-53.7	14.7	0.00e+00	0	22	0	132120576	69	4579
2026-01-11 09:05:02.05	137.46	8.99	-51.5	-53.6	14.8	0.00e+00	0	22	0	133169152	69	4508
2026-01-11 09:05:03.05	137.44	9.07	-51.5	-53.6	14.8	0.00e+00	0	22	0	135266304	69	4508
2026-01-11 09:05:04.06	137.42	9.16	-51.6	-53.6	14.7	0.00e+00	0	22	0	137363456	69	4542
2026-01-11 09:05:05.07	137.40	9.24	-51.3	-53.3	15.0	0.00e+00	0	22	0	139460608	69	4354
2026-01-11 09:05:06.08	137.38	9.33	-51.2	-53.2	15.0	0.00e+00	0	22	0	141557760	69	4293
2026-01-11 09:05:07.09	137.36	9.41	-51.3	-53.3	15.0	0.00e+00	0	22	0	142606336	69	4344
2026-01-11 09:05:08.10	137.34	9.50	-51.3	-53.2	15.0	0.00e+00	0	22	0	144703488	69	4317
2026-01-11 09:05:09.10	137.32	9.58	-51.3	-53.2	15.0	0.00e+00	0	22	0	146800640	69	4328
2026-01-11 09:05:10.11	137.29	9.67	-51.2	-53.1	14.9	0.00e+00	0	22	0	148897792	68	4508
2026-01-11 09:05:11.12	137.27	9.76	-51.2	-53.1	14.9	0.00e+00	0	22	0	150994944	68	4528
2026-01-11 09:05:12.13	137.25	9.84	-51.3	-53.2	14.8	0.00e+00	0	22	0	152043520	68	4592
2026-01-11 09:05:13.13	137.23	9.93	-51.1	-53.0	15.0	0.00e+00	0	22	0	154140672	68	4478
2026-01-11 09:05:14.15	137.21	10.02	-51.1	-53.0	14.9	0.00e+00	0	22	0	156237824	68	4463
2026-01-11 09:05:15.16	137.19	10.10	-51.1	-53.0	15.0	0.00e+00	0	22	0	158334976	68	4478
2026-01-11 09:05:16.16	137.17	10.19	-51.2	-53.2	14.8	0.00e+00	0	23	0	160432128	68	4549
2026-01-11 09:05:17.17	137.14	10.28	-51.1	-53.0	14.9	0.00e+00	0	22	0	161480704	68	4488
2026-01-11 09:05:18.18	137.12	10.37	-51.1	-53.0	14.9	0.00e+00	0	22	0	163577856	68	4477
2026-01-11 09:05:19.19	137.10	10.46	-51.0	-52.8	15.1	0.00e+00	0	22	0	165675008	68	4376
2026-01-11 09:05:20.20	137.08	10.55	-51.0	-52.9	15.0	0.00e+00	0	22	0	167772160	68	4425
2026-01-11 09:05:21.21	137.05	10.64	-51.0	-52.8	15.1	0.00e+00	0	22	0	169869312	68	4375
2026-01-11 09:05:22.22	137.03	10.73	-51.0	-52.8	15.1	0.00e+00	0	22	0	170917888	68	4355
2026-01-11 09:05:23.23	137.01	10.82	-50.9	-52.7	15.1	0.00e+00	0	22	0	173015040	68	4324
2026-01-11 09:05:24.23	136.99	10.91	-50.8	-52.6	15.2	0.00e+00	0	22	0	175112192	68	4286
2026-01-11 09:05:25.24	136.96	11.00	-50.9	-52.8	15.1	0.00e+00	0	23	0	177209344	68	4351
2026-01-11 09:05:26.25	136.94	11.09	-50.9	-52.8	15.1	0.00e+00	0	22	0	179306496	68	4348
2026-01-11 09:05:27.26	136.92	11.18	-50.5	-52.3	15.2	0.00e+00	0	22	0	180355072	67	4343
2026-01-11 09:05:28.26	136.89	11.27	-50.7	-52.5	15.0	0.00e+00	0	23	0	182452224	67	4458
2026-01-11 09:05:29.27	136.87	11.36	-50.7	-52.5	15.0	0.00e+00	0	23	0	184549376	67	4454
2026-01-11 09:05:30.27	136.84	11.45	-50.5	-52.3	15.2	0.00e+00	0	23	0	186646528	67	4350
2026-01-11 09:05:31.28	136.82	11.55	-50.4	-52.1	15.2	0.00e+00	0	22	0	188743680	67	4286
2026-01-11 09:05:32.28	136.80	11.64	-50.5	-52.2	15.2	0.00e+00	0	22	0	189792256	67	4324
2026-01-11 09:05:33.28	136.77	11.73	-50.5	-52.3	15.2	0.00e+00	0	22	0	191889408	67	4356
2026-01-11 09:05:34.28	136.75	11.82	-50.4	-52.1	15.3	0.00e+00	0	22	0	193986560	67	4257
2026-01-11 09:05:35.29	136.72	11.92	-50.3	-52.0	15.3	0.00e+00	0	22	0	196083712	67	4240
2026-01-11 09:05:36.30	136.70	12.01	-50.3	-52.0	15.3	0.00e+00	0	23	0	198180864	67	4235
2026-01-11 09:05:37.30	136.67	12.11	-50.4	-52.1	15.3	0.00e+00	0	22	0	199229440	67	4260
2026-01-11 09:05:38.31	136.65	12.20	-50.3	-51.9	15.4	0.00e+00	0	22	0	201326592	67	4183
2026-01-11 09:05:39.32	136.62	12.30	-50.1	-51.8	15.4	0.00e+00	0	22	0	203423744	66	4355
2026-01-11 09:05:40.33	136.59	12.39	-50.1	-51.8	15.2	0.00e+00	0	23	0	205520896	66	4360
2026-01-11 09:05:41.34	136.57	12.49	-50.2	-51.9	15.2	0.00e+00	0	23	0	207618048	66	4437
2026-01-11 09:05:42.35	136.54	12.59	-50.2	-51.8	15.2	0.00e+00	0	22	0	208666624	66	4389
2026-01-11 09:05:43.35	136.51	12.68	-50.1	-51.7	15.3	0.00e+00	0	23	0	210763776	66	4325
2026-01-11 09:05:44.36	136.49	12.78	-50.1	-51.8	15.2	0.00e+00	0	23	0	212860928	66	4374
2026-01-11 09:05:45.37	136.46	12.88	-50.3	-52.0	15.2	0.00e+00	0	23	0	214958080	66	4447
2026-01-11 09:05:46.38	136.43	12.98	-50.2	-51.8	15.2	0.00e+00	0	22	0	217055232	66	4377
2026-01-11 09:05:47.38	136.41	13.07	-50.0	-51.7	15.3	0.00e+00	0	23	0	218103808	66	4306
2026-01-11 09:05:48.39	136.38	13.17	-50.1	-51.8	15.3	0.00e+00	0	22	0	220200960	66	4350
2026-01-11 09:05:49.40	136.35	13.27	-50.1	-51.8	15.3	0.00e+00	0	22	0	222298112	66	4357
2026-01-11 09:05:50.41	136.32	13.37	-50.1	-51.8	15.3	0.00e+00	0	23	0	224395264	66	4347
2026-01-11 09:05:51.42	136.30	13.47	-50.0	-51.7	15.3	0.00e+00	0	23	0	226492416	66	4303
2026-01-11 09:05:52.43	136.27	13.57	-50.1	-51.8	15.2	0.00e+00	0	23	0	227540992	66	4364
2026-01-11 09:05:53.43	136.24	13.67	-50.1	-51.7	15.3	0.00e+00	0	23	0	229638144	66	4317
2026-01-11 09:05:54.44	136.21	13.78	-50.1	-51.8	15.3	0.00e+00	0	23	0	231735296	66	4353
2026-01-11 09:05:55.45	136.18	13.88	-50.1	-51.7	15.3	0.00e+00	0	23	0	233832448	66	4306
2026-01-11 09:05:56.46	136.15	13.98	-50.0	-51.9	15.3	0.00e+00	0	23	0	235929600	66	4392
2026-01-11 09:05:57.47	136.12	14.08	-50.0	-51.9	15.3	0.00e+00	0	23	0	238026752	66	4422
2026-01-11 09:05:58.48	136.09	14.19	-50.0	-51.9	15.3	0.00e+00	0	23	0	239075328	66	4423
2026-01-11 09:05:59.49	136.06	14.29	-50.0	-51.9	15.3	0.00e+00	0	23	0	241172480	66	4407
2026-01-11 09:06:00.50	136.03	14.39	-49.9	-51.8	15.3	0.00e+00	0	23	0	243269632	66	4363
2026-01-11 09:06:01.50	136.00	14.50	-50.0	-51.9	15.3	0.00e+00	0	23	0	245366784	66	4407
2026-01-11 09:06:02.50	135.97	14.60	-50.2	-52.1	15.2	0.00e+00	0	23	0	246415360	66	4533
2026-01-11 09:06:03.51	135.94	14.71	-50.3	-52.2	15.1	0.00e+00	0	23	0	248512512	66	4558
2026-01-11 09:06:04.52	135.91	14.81	-50.2	-52.1	15.2	0.00e+00	0	22	0	250609664	66	4535
2026-01-11 09:06:05.53	135.88	14.92	-50.3	-52.2	15.1	0.00e+00	0	23	0	252706816	66	4570
2026-01-11 09:06:06.54	135.85	15.03	-50.1	-52.0	15.2	0.00e+00	0	23	0	254803968	66	4482
2026-01-11 09:06:07.54	135.82	15.13	-50.2	-52.1	15.2	0.00e+00	0	22	0	255852544	66	4510
2026-01-11 09:06:08.55	135.78	15.24	-50.4	-52.3	15.1	0.00e+00	0	23	0	257949696	66	4626
2026-01-11 09:06:09.56	135.75	15.35	-50.1	-52.0	15.2	0.00e+00	0	23	0	260046848	66	4457
2026-01-11 09:06:10.57	135.72	15.46	-50.0	-51.9	15.3	0.00e+00	0	23	0	262144000	66	4397
2026-01-11 09:06:11.58	135.69	15.57	-50.0	-51.8	15.3	0.00e+00	0	23	0	264241152	66	4385
2026-01-11 09:06:12.58	135.65	15.67	-50.0	-51.9	15.3	0.00e+00	0	23	0	266338304	66	4416
2026-01-11 09:06:13.59	135.62	15.78	-50.0	-51.9	15.3	0.00e+00	0	23	0	267386880	66	4412
2026-01-11 09:06:14.59	135.59	15.89	-50.0	-51.8	15.3	0.00e+00	0	22	0	269484032	66	4368
2026-01-11 09:06:15.60	135.55	16.01	-50.0	-51.8	15.3	0.00e+00	0	23	0	271581184	66	4388
2026-01-11 09:06:16.61	135.52	16.12	-50.0	-51.9	15.3	0.00e+00	0	23	0	273678336	66	4394
2026-01-11 09:06:17.61	135.48	16.23	-50.1	-52.0	15.2	0.00e+00	0	23	0	274726912	66	4465
2026-01-11 09:06:18.61	135.45	16.34	-50.2	-52.1	15.1	0.00e+00	0	23	0	276824064	66	4518
2026-01-11 09:06:19.62	135.41	16.45	-50.0	-51.8	15.3	0.00e+00	0	23	0	278921216	66	4381
2026-01-11 09:06:20.63	135.38	16.57	-49.9	-51.7	15.4	0.00e+00	0	23	0	281018368	66	4331
2026-01-11 09:06:21.63	135.34	16.68	-50.0	-51.8	15.3	0.00e+00	0	23	0	283115520	66	4379
2026-01-11 09:06:22.64	135.31	16.79	-50.0	-51.9	15.3	0.00e+00	0	23	0	284164096	66	4392
2026-01-11 09:06:23.65	135.27	16.91	-50.0	-51.7	15.3	0.00e+00	0	23	0	286261248	66	4338
2026-01-11 09:06:24.66	135.23	17.02	-49.8	-51.6	15.4	0.00e+00	0	23	0	288358400	66	4270
2026-01-11 09:06:25.67	135.20	17.14	-49.9	-51.7	15.4	0.00e+00	0	23	0	290455552	66	4319
2026-01-11 09:06:26.68	135.16	17.26	-49.9	-51.7	15.4	0.00e+00	0	23	0	292552704	66	4323
2026-01-11 09:06:27.69	135.12	17.37	-49.9	-51.7	15.4	0.00e+00	0	23	0	294649856	66	4292
2026-01-11 09:06:28.70	135.08	17.49	-50.0	-51.8	15.3	0.00e+00	0	22	0	295698432	66	4376
2026-01-11 09:06:29.70	135.05	17.61	-49.9	-51.7	15.4	0.00e+00	0	23	0	297795584	66	4312
2026-01-11 09:06:30.71	135.01	17.73	-49.9	-51.7	15.4	0.00e+00	0	23	0	299892736	66	4330
2026-01-11 09:06:31.72	134.97	17.85	-49.9	-51.7	15.4	0.00e+00	0	23	0	301989888	66	4314
2026-01-11 09:06:32.73	134.93	17.97	-49.9	-51.6	15.4	0.00e+00	0	23	0	304087040	66	4273
2026-01-11 09:06:33.73	134.89	18.09	-49.8	-51.5	15.5	0.00e+00	0	23	0	305135616	66	4225
2026-01-11 09:06:34.74	134.85	18.21	-49.7	-51.4	15.3	0.00e+00	0	23	0	307232768	65	4439
2026-01-11 09:06:35.74	134.81	18.33	-49.7	-51.5	15.3	0.00e+00	0	23	0	309329920	65	4447
2026-01-11 09:06:36.75	134.77	18.45	-49.7	-51.5	15.3	0.00e+00	0	23	0	311427072	65	4464
2026-01-11 09:06:37.76	134.73	18.58	-49.7	-51.4	15.3	0.00e+00	0	23	0	313524224	65	4429
2026-01-11 09:06:38.77	134.69	18.70	-49.7	-51.5	15.3	0.00e+00	0	23	0	314572800	65	4448
2026-01-11 09:06:39.78	134.65	18.82	-49.7	-51.5	15.3	0.00e+00	0	23	0	316669952	65	4484
2026-01-11 09:06:40.67	134.61	18.93	-49.7	-51.5	15.3	0.00e+00	0	23	0	318767104	65	4457
2026-01-11 09:06:41.69	134.57	19.06	-49.8	-51.6	15.3	0.00e+00	0	23	0	320864256	65	4504
2026-01-11 09:06:42.70	134.53	19.19	-49.8	-51.6	15.2	0.00e+00	0	23	0	322961408	65	4528
2026-01-11 09:06:43.71	134.48	19.31	-49.9	-51.7	15.2	0.00e+00	0	23	0	324009984	65	4563
2026-01-11 09:06:44.72	134.44	19.44	-49.9	-51.7	15.3	0.00e+00	0	23	0	326107136	65	4576
2026-01-11 09:06:45.72	134.40	19.57	-49.9	-51.7	15.2	0.00e+00	0	23	0	328204288	65	4580
2026-01-11 09:06:46.73	134.35	19.69	-49.9	-51.7	15.2	0.00e+00	0	23	0	330301440	65	4589
2026-01-11 09:06:47.73	134.31	19.82	-50.0	-51.8	15.1	0.00e+00	0	23	0	332398592	65	4628
2026-01-11 09:06:48.74	134.26	19.95	-49.9	-51.7	15.2	0.00e+00	0	23	0	333447168	65	4575
2026-01-11 09:06:49.75	134.22	20.08	-49.9	-51.7	15.2	0.00e+00	0	23	0	335544320	65	4568
2026-01-11 09:06:50.76	134.17	20.21	-49.9	-51.7	15.2	0.00e+00	0	23	0	337641472	65	4589
2026-01-11 09:06:51.76	134.12	20.34	-49.9	-51.7	15.2	0.00e+00	0	23	0	339738624	65	4566
2026-01-11 09:06:52.77	134.08	20.48	-50.0	-51.8	15.1	0.00e+00	0	23	0	341835776	65	4616
2026-01-11 09:06:53.78	134.03	20.61	-49.9	-51.7	15.2	0.00e+00	0	23	0	342884352	65	4585
2026-01-11 09:06:54.79	133.98	20.74	-49.9	-51.8	15.2	0.00e+00	0	23	0	344981504	65	4599
2026-01-11 09:06:55.80	133.94	20.88	-49.9	-51.7	15.2	0.00e+00	0	23	0	347078656	65	4579
2026-01-11 09:06:56.80	133.89	21.01	-50.0	-51.9	15.1	0.00e+00	0	23	0	349175808	65	4683
2026-01-11 09:06:57.81	133.84	21.15	-50.0	-51.8	15.2	0.00e+00	0	23	0	351272960	65	4621
2026-01-11 09:06:58.82	133.79	21.28	-49.9	-51.6	15.2	0.00e+00	0	23	0	352321536	65	4539
2026-01-11 09:06:59.83	133.74	21.42	-50.0	-51.8	15.2	0.00e+00	0	23	0	354418688	65	4600
2026-01-11 09:07:00.83	133.69	21.56	-49.9	-51.7	15.2	0.00e+00	0	23	0	356515840	65	4565
2026-01-11 09:07:01.84	133.64	21.70	-50.0	-51.7	15.2	0.00e+00	0	23	0	358612992	65	4595
2026-01-11 09:07:02.84	133.59	21.84	-50.1	-52.0	15.1	0.00e+00	0	23	0	360710144	65	4713
2026-01-11 09:07:03.85	133.54	21.98	-50.1	-51.9	15.1	0.00e+00	0	23	0	361758720	65	4677
2026-01-11 09:07:04.85	133.48	22.12	-50.2	-52.0	15.1	0.00e+00	0	23	0	363855872	65	4730
2026-01-11 09:07:05.86	133.43	22.26	-50.3	-52.2	15.0	0.00e+00	0	23	0	365953024	65	4847
2026-01-11 09:07:06.87	133.38	22.40	-50.3	-52.2	15.2	0.00e+00	0	22	0	368050176	66	4548
2026-01-11 09:07:07.88	133.32	22.54	-50.5	-52.4	15.0	0.00e+00	0	23	0	370147328	66	4675
2026-01-11 09:07:08.88	133.27	22.69	-50.6	-52.5	15.0	0.00e+00	0	23	0	371195904	66	4725
2026-01-11 09:07:09.89	133.22	22.83	-50.6	-52.5	15.0	0.00e+00	0	23	0	373293056	66	4709
2026-01-11 09:07:10.90	133.16	22.98	-50.5	-52.4	15.0	0.00e+00	0	23	0	375390208	66	4654
2026-01-11 09:07:11.91	133.10	23.12	-50.4	-52.2	15.1	0.00e+00	0	23	0	377487360	66	4576
2026-01-11 09:07:12.91	133.05	23.27	-50.2	-52.0	15.2	0.00e+00	0	23	0	379584512	66	4443
2026-01-11 09:07:13.92	132.99	23.42	-50.0	-51.7	15.4	0.00e+00	0	23	0	380633088	66	4340
2026-01-11 09:07:14.93	132.93	23.57	-50.0	-51.7	15.4	0.00e+00	0	23	0	382730240	66	4327
2026-01-11 09:07:15.93	132.88	23.71	-50.0	-51.7	15.4	0.00e+00	0	23	0	384827392	66	4324
2026-01-11 09:07:16.94	132.82	23.86	-50.1	-51.9	15.3	0.00e+00	0	23	0	386924544	66	4414
2026-01-11 09:07:17.95	132.76	24.02	-50.1	-51.9	15.3	0.00e+00	0	23	0	389021696	66	4415
2026-01-11 09:07:18.96	132.70	24.17	-50.2	-52.0	15.3	0.00e+00	0	23	0	390070272	66	4463
2026-01-11 09:07:19.96	132.64	24.32	-50.4	-52.3	15.1	0.00e+00	0	23	0	392167424	66	4622
2026-01-11 09:07:20.98	132.57	24.47	-50.7	-52.6	14.9	0.00e+00	0	23	0	394264576	66	4799
2026-01-11 09:07:21.99	132.51	24.63	-50.9	-52.9	14.8	0.00e+00	0	23	0	396361728	66	4977
2026-01-11 09:07:23.00	132.45	24.79	-51.0	-53.1	14.9	0.00e+00	0	23	0	398458880	67	4764
2026-01-11 09:07:24.00	132.39	24.94	-51.1	-53.3	14.8	0.00e+00	0	23	0	399507456	67	4880
2026-01-11 09:07:25.01	132.32	25.10	-51.7	-54.0	14.6	0.00e+00	0	23	0	401604608	68	4993
2026-01-11 09:07:26.02	132.26	25.26	-51.5	-53.7	14.7	0.00e+00	0	23	0	403701760	68	4836
2026-01-11 09:07:27.03	132.19	25.42	-51.4	-53.4	14.8	0.00e+00	0	23	0	405798912	68	4705
2026-01-11 09:07:28.03	132.13	25.57	-51.5	-53.6	14.8	0.00e+00	0	23	0	407896064	68	4784
2026-01-11 09:07:29.04	132.06	25.73	-51.3	-53.3	14.9	0.00e+00	0	23	0	408944640	68	4650
2026-01-11 09:07:30.05	131.99	25.90	-51.5	-53.6	14.8	0.00e+00	0	23	0	411041792	68	4800
2026-01-11 09:07:31.06	131.93	26.06	-51.6	-53.7	14.7	0.00e+00	0	23	0	413138944	68	4858
2026-01-11 09:07:32.07	131.86	26.22	-51.3	-53.4	14.9	0.00e+00	0	23	0	415236096	68	4653
2026-01-11 09:07:33.08	131.79	26.39	-51.6	-53.8	14.7	0.00e+00	0	23	0	417333248	68	4872
2026-01-11 09:07:34.08	131.72	26.55	-51.6	-53.8	14.7	0.00e+00	0	23	0	418381824	68	4887
2026-01-11 09:07:35.08	131.65	26.72	-51.6	-53.8	14.6	0.00e+00	0	23	0	420478976	68	4908
2026-01-11 09:07:36.09	131.58	26.89	-51.7	-54.0	14.6	0.00e+00	0	23	0	422576128	68	4984
2026-01-11 09:07:37.10	131.50	27.05	-51.6	-53.8	14.7	0.00e+00	0	23	0	424673280	68	4878
2026-01-11 09:07:38.11	131.43	27.22	-51.9	-54.2	14.6	0.00e+00	0	23	0	426770432	69	4863
2026-01-11 09:07:39.11	131.36	27.39	-52.0	-54.3	14.6	0.00e+00	0	23	0	427819008	69	4893
2026-01-11 09:07:40.12	131.28	27.56	-51.8	-54.0	14.8	0.00e+00	0	23	0	429916160	69	4708
2026-01-11 09:07:41.13	131.20	27.74	-52.3	-54.7	14.4	0.00e+00	0	23	0	432013312	69	5129
2026-01-11 09:07:42.13	131.13	27.91	-52.1	-54.4	14.6	0.00e+00	0	23	0	434110464	69	4947
2026-01-11 09:07:43.14	131.05	28.08	-52.0	-54.2	14.6	0.00e+00	0	23	0	436207616	69	4846
2026-01-11 09:07:44.15	130.97	28.26	-52.0	-54.3	14.6	0.00e+00	0	23	0	437256192	69	4876
2026-01-11 09:07:45.16	130.89	28.44	-51.7	-53.8	14.9	0.00e+00	0	23	0	439353344	69	4625
2026-01-11 09:07:46.16	130.81	28.61	-51.8	-53.9	14.8	0.00e+00	0	23	0	441450496	69	4681
2026-01-11 09:07:47.17	130.73	28.79	-51.8	-54.0	14.7	0.00e+00	0	23	0	443547648	69	4729
2026-01-11 09:07:48.17	130.65	28.97	-51.7	-53.9	14.8	0.00e+00	0	23	0	445644800	69	4693
2026-01-11 09:07:49.18	130.57	29.15	-52.1	-54.4	14.6	0.00e+00	0	23	0	446693376	69	4955
2026-01-11 09:07:50.18	130.48	29.33	-52.0	-54.3	14.5	0.00e+00	0	23	0	448790528	69	4917
2026-01-11 09:07:51.19	130.40	29.52	-52.0	-54.3	14.6	0.00e+00	0	23	0	450887680	69	4880
2026-01-11 09:07:52.20	130.31	29.70	-52.1	-54.5	14.4	0.00e+00	0	23	0	452984832	69	5034
2026-01-11 09:07:53.21	130.22	29.89	-52.2	-54.7	14.4	0.00e+00	0	23	0	455081984	69	5125
2026-01-11 09:07:54.22	130.14	30.07	-52.3	-54.8	14.5	0.00e+00	0	23	0	456130560	70	4895
2026-01-11 09:07:55.23	130.05	30.26	-52.4	-55.0	14.4	0.00e+00	0	23	0	458227712	70	5008
2026-01-11 09:07:56.24	129.96	30.45	-52.5	-55.0	14.3	0.00e+00	0	23	0	460324864	70	5035
2026-01-11 09:07:57.25	129.86	30.64	-52.5	-55.1	14.3	0.00e+00	0	23	0	462422016	70	5085
2026-01-11 09:07:58.25	129.77	30.83	-52.5	-55.1	14.3	0.00e+00	0	23	0	464519168	70	5063
2026-01-11 09:07:59.26	129.68	31.02	-52.5	-55.2	14.3	0.00e+00	0	23	0	465567744	70	5123
2026-01-11 09:08:00.27	129.58	31.22	-52.3	-55.0	14.3	0.00e+00	0	23	0	467664896	70	4992
2026-01-11 09:08:01.28	129.49	31.41	-52.6	-55.4	14.2	0.00e+00	0	23	0	469762048	70	5223
2026-01-11 09:08:02.29	129.39	31.61	-52.5	-55.4	14.2	0.00e+00	0	23	0	471859200	70	5243
2026-01-11 09:08:03.30	129.29	31.81	-52.8	-55.8	13.9	0.00e+00	0	23	0	473956352	70	5518
2026-01-11 09:08:04.30	129.19	32.00	-53.0	-56.2	13.8	0.00e+00	0	23	0	476053504	71	5452
2026-01-11 09:08:05.31	129.09	32.20	-53.5	-57.3	13.2	0.00e+00	0	23	0	477102080	72	5801
2026-01-11 09:08:06.32	128.99	32.40	-53.4	-57.1	13.3	0.00e+00	0	23	0	479199232	72	5677
2026-01-11 09:08:07.33	128.88	32.61	-53.5	-57.2	13.2	0.00e+00	0	23	0	481296384	72	5788
2026-01-11 09:08:08.34	128.78	32.81	-53.6	-57.5	13.0	0.00e+00	0	23	0	483393536	72	5970
2026-01-11 09:08:09.34	128.67	33.01	-53.7	-57.6	13.0	0.00e+00	0	23	0	484442112	72	6017
2026-01-11 09:08:10.35	128.57	33.22	-53.9	-57.8	12.9	0.00e+00	0	23	0	486539264	72	6169
2026-01-11 09:08:11.36	128.46	33.42	-53.9	-57.6	13.2	0.00e+00	0	23	0	488636416	73	5680
2026-01-11 09:08:12.37	128.35	33.63	-54.0	-57.7	13.2	0.00e+00	0	23	0	490733568	73	5731
2026-01-11 09:08:13.37	128.24	33.84	-54.5	-58.4	12.7	4.50e-06	0	23	0	492830720	74	5912
2026-01-11 09:08:14.37	128.12	34.05	-54.8	-59.3	12.0	3.80e-06	0	23	0	494927872	74	6506
2026-01-11 09:08:15.38	128.01	34.26	-55.1	-60.0	11.8	1.44e-05	0	23	0	495976448	75	6661
2026-01-11 09:08:16.39	127.89	34.48	-55.4	-60.6	11.2	1.74e-04	0	23	0	498073600	76	6760
2026-01-11 09:08:17.40	127.77	34.69	-55.3	-60.4	11.3	1.36e-04	0	23	0	500170752	76	6643
2026-01-11 09:08:18.40	127.65	34.91	-55.5	-61.1	10.8	6.71e-05	0	23	0	502267904	76	7144
2026-01-11 09:08:19.40	127.53	35.12	-54.8	-59.1	12.4	1.67e-05	0	23	0	504365056	76	5701
2026-01-11 09:08:20.41	127.41	35.34	-54.8	-59.3	12.1	6.80e-06	0	23	0	505413632	75	6168
2026-01-11 09:08:21.42	127.28	35.56	-54.9	-59.6	11.8	8.23e-05	0	23	0	507510784	75	6387
2026-01-11 09:08:22.43	127.16	35.78	-54.8	-59.5	12.0	1.83e-05	0	23	0	509607936	75	6297
2026-01-11 09:08:23.44	127.03	36.01	-55.0	-60.2	11.3	4.95e-05	0	23	0	511705088	75	6862
2026-01-11 09:08:24.44	126.90	36.23	-54.9	-60.2	11.4	9.75e-04	0	23	0	512753664	75	6845
2026-01-11 09:08:25.45	126.77	36.46	-54.6	-59.6	11.8	5.49e-05	0	23	0	514850816	75	6363
2026-01-11 09:08:26.46	126.63	36.68	-54.6	-60.3	11.4	2.89e-05	0	23	0	516947968	75	6882
2026-01-11 09:08:27.47	126.50	36.91	-54.0	-58.5	12.6	7.00e-07	0	23	0	519045120	74	5972
2026-01-11 09:08:28.48	126.36	37.14	-53.4	-57.2	13.4	0.00e+00	0	23	0	521142272	73	5458
2026-01-11 09:08:29.49	126.22	37.38	-52.8	-56.1	14.0	0.00e+00	0	23	0	523239424	72	5078
2026-01-11 09:08:30.49	126.08	37.61	-52.4	-55.4	14.3	0.00e+00	0	23	0	524288000	71	4946
2026-01-11 09:08:31.51	125.93	37.84	-52.2	-55.1	14.3	0.00e+00	0	23	0	526385152	70	5098
2026-01-11 09:08:32.51	125.79	38.08	-52.2	-55.0	14.4	0.00e+00	0	23	0	528482304	70	5021
2026-01-11 09:08:33.51	125.64	38.31	-52.5	-55.3	14.2	0.00e+00	0	23	0	530579456	70	5205
2026-01-11 09:08:34.51	125.49	38.55	-52.6	-55.5	14.1	0.00e+00	0	23	0	532676608	70	5292
2026-01-11 09:08:35.52	125.34	38.79	-52.9	-56.0	13.8	0.00e+00	0	23	0	533725184	70	5597
2026-01-11 09:08:36.53	125.18	39.03	-52.8	-55.9	14.0	0.00e+00	0	23	0	535822336	71	5225
2026-01-11 09:08:37.54	125.03	39.27	-53.0	-56.2	13.8	0.00e+00	0	23	0	537919488	71	5426
2026-01-11 09:08:38.55	124.87	39.52	-53.0	-56.3	13.8	0.00e+00	0	23	0	540016640	71	5479
2026-01-11 09:08:39.56	124.70	39.77	-53.2	-56.4	13.7	0.00e+00	0	23	0	542113792	71	5591
2026-01-11 09:08:40.56	124.54	40.01	-53.2	-56.5	13.8	0.00e+00	0	23	0	543162368	72	5314
2026-01-11 09:08:41.57	124.37	40.26	-53.5	-56.9	13.5	0.00e+00	0	23	0	545259520	72	5545
2026-01-11 09:08:42.59	124.20	40.51	-53.3	-56.4	13.8	0.00e+00	0	23	0	547356672	72	5250
2026-01-11 09:08:43.59	124.03	40.76	-53.2	-56.4	13.9	0.00e+00	0	23	0	549453824	72	5219
2026-01-11 09:08:44.60	123.85	41.02	-53.2	-56.2	14.0	0.00e+00	0	23	0	551550976	72	5121
2026-01-11 09:08:45.61	123.67	41.27	-53.0	-56.0	14.1	0.00e+00	0	23	0	552599552	72	4985
2026-01-11 09:08:46.62	123.49	41.53	-52.9	-55.7	14.2	0.00e+00	0	23	0	554696704	72	4850
2026-01-11 09:08:47.62	123.31	41.78	-52.8	-55.5	14.4	0.00e+00	0	23	0	556793856	72	4750
2026-01-11 09:08:48.63	123.12	42.04	-52.8	-55.5	14.3	0.00e+00	0	23	0	558891008	71	5001
2026-01-11 09:08:49.64	122.93	42.30	-52.6	-55.2	14.4	0.00e+00	0	23	0	560988160	71	4829
2026-01-11 09:08:50.64	122.74	42.56	-52.1	-54.6	14.6	0.00e+00	0	23	0	562036736	70	4774
2026-01-11 09:08:51.65	122.54	42.83	-51.7	-54.1	14.9	0.00e+00	0	23	0	564133888	70	4536
2026-01-11 09:08:52.66	122.34	43.09	-51.5	-53.8	15.0	0.00e+00	0	23	0	566231040	69	4631
2026-01-11 09:08:53.67	122.14	43.36	-51.3	-53.6	15.0	0.00e+00	0	23	0	568328192	69	4518
2026-01-11 09:08:54.68	121.93	43.63	-51.1	-53.3	15.0	0.00e+00	0	23	0	570425344	68	4649
2026-01-11 09:08:55.68	121.72	43.89	-51.0	-53.2	15.1	0.00e+00	0	23	0	571473920	68	4571
2026-01-11 09:08:56.70	121.51	44.17	-51.1	-53.3	15.0	0.00e+00	0	23	0	573571072	68	4640
2026-01-11 09:08:57.71	121.29	44.44	-51.1	-53.4	15.0	0.00e+00	0	23	0	575668224	68	4656
2026-01-11 09:08:58.72	121.07	44.71	-51.2	-53.4	15.0	0.00e+00	0	23	0	577765376	68	4661
2026-01-11 09:08:59.73	120.84	44.99	-51.1	-53.2	15.1	0.00e+00	0	23	0	579862528	68	4586
2026-01-11 09:09:00.73	120.61	45.26	-51.2	-53.4	15.0	0.00e+00	0	23	0	580911104	68	4660
2026-01-11 09:09:01.74	120.38	45.54	-51.3	-53.5	14.9	0.00e+00	0	23	0	583008256	68	4728
2026-01-11 09:09:02.75	120.14	45.82	-51.7	-54.0	14.6	0.00e+00	0	23	0	585105408	68	5026
2026-01-11 09:09:03.76	119.90	46.10	-51.8	-54.3	14.6	0.00e+00	0	23	0	587202560	69	4885
2026-01-11 09:09:04.76	119.65	46.38	-51.6	-54.1	14.8	0.00e+00	0	23	0	589299712	69	4794
2026-01-11 09:09:05.77	119.40	46.66	-51.3	-53.7	15.0	0.00e+00	0	23	0	590348288	69	4571
2026-01-11 09:09:06.78	119.14	46.95	-50.9	-53.2	15.1	0.00e+00	0	23	0	592445440	68	4564
2026-01-11 09:09:07.79	118.88	47.24	-51.0	-53.2	15.1	0.00e+00	0	23	0	594542592	68	4574
2026-01-11 09:09:08.79	118.62	47.52	-51.0	-53.3	15.1	0.00e+00	0	23	0	596639744	68	4610
2026-01-11 09:09:09.80	118.35	47.81	-51.6	-54.1	14.6	0.00e+00	0	23	0	598736896	68	5072
2026-01-11 09:09:10.81	118.07	48.10	-51.7	-54.3	14.5	0.00e+00	0	23	0	599785472	68	5192
2026-01-11 09:09:11.82	117.79	48.39	-51.2	-53.6	14.8	0.00e+00	0	23	0	601882624	68	4800
2026-01-11 09:09:12.83	117.51	48.68	-50.9	-53.3	15.0	0.00e+00	0	23	0	603979776	68	4629
2026-01-11 09:09:13.84	117.21	48.97	-50.5	-52.9	15.2	0.00e+00	0	23	0	606076928	67	4680
2026-01-11 09:09:14.85	116.92	49.27	-50.5	-52.9	15.1	0.00e+00	0	23	0	608174080	67	4657
2026-01-11 09:09:15.86	116.61	49.56	-50.7	-53.1	15.0	0.00e+00	0	23	0	609222656	67	4807
2026-01-11 09:09:16.87	116.30	49.86	-50.3	-52.4	15.4	0.00e+00	0	23	0	611319808	67	4430
2026-01-11 09:09:17.88	115.99	50.16	-49.9	-51.8	15.5	0.00e+00	0	23	0	613416960	66	4358
2026-01-11 09:09:18.88	115.67	50.45	-49.4	-51.1	15.6	0.00e+00	0	23	0	615514112	65	4252
2026-01-11 09:09:19.89	115.34	50.75	-49.6	-51.3	15.4	0.00e+00	0	23	0	617611264	65	4377
2026-01-11 09:09:20.91	115.00	51.06	-49.9	-51.6	15.3	0.00e+00	0	23	0	619708416	65	4545
2026-01-11 09:09:21.92	114.66	51.36	-50.3	-52.1	15.0	0.00e+00	0	23	0	620756992	65	4810
2026-01-11 09:09:22.92	114.31	51.66	-50.3	-52.2	15.1	0.00e+00	0	23	0	622854144	66	4546
2026-01-11 09:09:23.93	113.96	51.96	-50.2	-52.0	15.2	0.00e+00	0	23	0	624951296	66	4485
2026-01-11 09:09:24.94	113.59	52.26	-50.2	-52.0	15.2	0.00e+00	0	23	0	627048448	66	4464
2026-01-11 09:09:25.95	113.22	52.57	-50.7	-52.7	14.9	0.00e+00	0	23	0	628097024	66	4831
2026-01-11 09:09:26.96	112.84	52.87	-51.0	-53.2	14.8	0.00e+00	0	23	0	630194176	67	4845
2026-01-11 09:09:27.96	112.46	53.18	-51.7	-54.2	14.5	0.00e+00	0	23	0	632291328	68	5146
2026-01-11 09:09:28.97	112.06	53.48	-51.6	-54.2	14.4	0.00e+00	0	23	0	634388480	68	5110
2026-01-11 09:09:29.97	111.66	53.79	-51.6	-54.1	14.4	0.00e+00	0	23	0	636485632	68	5078
2026-01-11 09:09:30.98	111.25	54.09	-51.8	-54.3	14.4	0.00e+00	0	23	0	637534208	68	5198
2026-01-11 09:09:31.99	110.83	54.40	-51.6	-54.1	14.5	0.00e+00	0	23	0	639631360	68	5055
2026-01-11 09:09:33.00	110.40	54.71	-52.1	-54.7	14.4	0.00e+00	0	23	0	641728512	69	5138
2026-01-11 09:09:34.01	109.96	55.01	-52.3	-54.9	14.4	0.00e+00	0	23	0	643825664	70	4979
2026-01-11 09:09:35.01	109.51	55.32	-52.5	-55.0	14.4	0.00e+00	0	23	0	645922816	70	5038
2026-01-11 09:09:36.02	109.05	55.62	-51.9	-54.2	14.9	0.00e+00	0	23	0	648019968	70	4547
2026-01-11 09:09:37.03	108.58	55.93	-52.0	-54.3	14.7	0.00e+00	0	23	0	649068544	70	4624
2026-01-11 09:09:38.03	108.11	56.24	-52.3	-54.7	14.5	0.00e+00	0	23	0	651165696	70	4858
2026-01-11 09:09:39.04	107.61	56.54	-52.4	-54.8	14.5	0.00e+00	0	23	0	653262848	70	4896
2026-01-11 09:09:40.05	107.11	56.85	-52.5	-54.9	14.4	0.00e+00	0	23	0	655360000	70	4981
2026-01-11 09:09:41.06	106.60	57.15	-52.3	-54.6	14.5	0.00e+00	0	23	0	657457152	70	4808
2026-01-11 09:09:42.07	106.07	57.46	-52.2	-54.6	14.6	0.00e+00	0	23	0	658505728	70	4781
2026-01-11 09:09:43.08	105.54	57.76	-52.2	-54.6	14.6	0.00e+00	0	23	0	660602880	70	4799
2026-01-11 09:09:44.08	104.99	58.06	-52.2	-54.6	14.6	0.00e+00	0	23	0	662700032	70	4766
2026-01-11 09:09:45.09	104.43	58.37	-52.4	-54.9	14.4	0.00e+00	0	23	0	664797184	70	4975
2026-01-11 09:09:46.10	103.85	58.67	-51.9	-54.2	14.6	0.00e+00	0	23	0	666894336	70	4589
2026-01-11 09:09:47.11	103.27	58.97	-52.2	-54.7	14.5	0.00e+00	0	23	0	667942912	70	4853
2026-01-11 09:09:48.12	102.66	59.27	-52.0	-54.2	14.8	0.00e+00	0	23	0	670040064	70	4576
2026-01-11 09:09:49.12	102.05	59.56	-51.8	-54.0	14.8	0.00e+00	0	23	0	672137216	69	4708
2026-01-11 09:09:50.13	101.42	59.85	-51.5	-53.6	15.0	0.00e+00	0	23	0	674234368	69	4513
2026-01-11 09:09:51.14	100.78	60.15	-51.4	-53.5	15.0	0.00e+00	0	23	0	676331520	69	4470
2026-01-11 09:09:52.15	100.12	60.44	-51.0	-53.0	15.1	0.00e+00	0	23	0	677380096	68	4457
2026-01-11 09:09:53.16	99.44	60.73	-50.4	-52.2	15.3	0.00e+00	0	23	0	679477248	67	4340
2026-01-11 09:09:54.17	98.75	61.02	-49.8	-51.5	15.5	0.00e+00	0	23	0	681574400	66	4195
2026-01-11 09:09:55.17	98.05	61.30	-49.6	-51.3	15.4	0.00e+00	0	23	0	683671552	65	4363
2026-01-11 09:09:56.18	97.33	61.58	-49.9	-51.7	15.2	0.00e+00	0	23	0	685768704	65	4586
2026-01-11 09:09:57.19	96.59	61.86	-50.2	-52.1	15.1	0.00e+00	0	23	0	686817280	65	4801
2026-01-11 09:09:58.20	95.84	62.13	-50.0	-51.8	15.1	0.00e+00	0	23	0	688914432	65	4648
2026-01-11 09:09:59.20	95.07	62.40	-50.3	-52.3	15.0	0.00e+00	0	23	0	691011584	65	4888
2026-01-11 09:10:00.21	94.28	62.67	-50.5	-52.6	15.0	0.00e+00	0	23	0	693108736	66	4767
2026-01-11 09:10:01.22	93.47	62.94	-50.1	-52.0	15.2	0.00e+00	0	23	0	695205888	66	4481
2026-01-11 09:10:02.23	92.65	63.20	-50.1	-52.0	15.2	0.00e+00	0	23	0	696254464	66	4478
2026-01-11 09:10:03.24	91.80	63.46	-50.0	-51.8	15.3	0.00e+00	0	23	0	698351616	66	4371
2026-01-11 09:10:04.25	90.94	63.71	-49.9	-51.8	15.4	0.00e+00	0	23	0	700448768	66	4344
2026-01-11 09:10:05.26	90.05	63.96	-50.0	-51.8	15.2	0.00e+00	0	23	0	702545920	65	4634
2026-01-11 09:10:06.27	89.15	64.20	-50.1	-52.0	15.1	0.00e+00	0	23	0	704643072	65	4743
2026-01-11 09:10:07.28	88.23	64.44	-50.2	-52.0	15.1	0.00e+00	0	23	0	705691648	65	4744
2026-01-11 09:10:08.29	87.29	64.68	-49.3	-50.9	15.6	0.00e+00	0	23	0	707788800	65	4185
2026-01-11 09:10:09.30	86.33	64.90	-49.0	-50.5	15.6	0.00e+00	0	23	0	709885952	64	4231
2026-01-11 09:10:10.30	85.37	65.12	-49.3	-50.9	15.4	0.00e+00	0	23	0	711983104	64	4437
2026-01-11 09:10:11.31	84.37	65.34	-50.1	-52.0	15.1	0.00e+00	0	23	0	714080256	65	4707
2026-01-11 09:10:12.32	83.35	65.55	-51.2	-53.3	14.8	0.00e+00	0	23	0	715128832	67	4923
2026-01-11 09:10:13.33	82.32	65.75	-51.7	-54.0	14.7	0.00e+00	0	23	0	717225984	69	4727
2026-01-11 09:10:14.33	81.27	65.95	-52.0	-54.3	14.5	0.00e+00	0	23	0	719323136	69	4917
2026-01-11 09:10:15.34	80.20	66.13	-52.4	-54.9	14.3	0.00e+00	0	23	0	721420288	69	5256
2026-01-11 09:10:16.35	79.11	66.32	-52.7	-55.4	14.1	0.00e+00	0	23	0	723517440	70	5227
2026-01-11 09:10:17.36	78.00	66.49	-52.2	-54.5	14.6	0.00e+00	0	23	0	724566016	70	4735
2026-01-11 09:10:18.36	76.88	66.65	-51.4	-53.5	15.0	0.00e+00	0	23	0	726663168	69	4461
2026-01-11 09:10:19.37	75.73	66.81	-51.8	-54.1	14.7	0.00e+00	0	23	0	728760320	69	4766
2026-01-11 09:10:20.37	74.58	66.96	-52.8	-55.4	14.2	0.00e+00	0	23	0	730857472	70	5222
2026-01-11 09:10:21.38	73.40	67.10	-53.1	-55.7	14.3	0.00e+00	0	23	0	732954624	72	4823
2026-01-11 09:10:22.38	72.22	67.23	-52.0	-54.0	14.9	0.00e+00	0	23	0	734003200	70	4472
2026-01-11 09:10:23.39	71.01	67.36	-51.2	-53.1	15.3	0.00e+00	0	23	0	736100352	69	4243
2026-01-11 09:10:24.40	69.79	67.47	-51.7	-53.8	14.8	0.00e+00	0	23	0	738197504	68	4882
2026-01-11 09:10:25.41	68.55	67.58	-52.1	-54.3	14.7	0.00e+00	0	23	0	740294656	69	4901
2026-01-11 09:10:26.41	67.32	67.67	-51.6	-53.5	15.0	0.00e+00	0	23	0	742391808	69	4478
2026-01-11 09:10:27.43	66.05	67.76	-51.1	-52.9	15.2	0.00e+00	0	23	0	743440384	68	4428
2026-01-11 09:10:28.43	64.79	67.83	-52.1	-54.2	14.7	0.00e+00	0	23	0	745537536	69	4864
2026-01-11 09:10:29.44	63.51	67.90	-52.2	-54.4	14.6	0.00e+00	0	23	0	747634688	69	4978
2026-01-11 09:10:30.45	62.23	67.95	-51.7	-53.6	15.0	0.00e+00	0	23	0	749731840	69	4542
2026-01-11 09:10:31.46	60.94	68.00	-52.1	-54.3	14.7	0.00e+00	0	23	0	751828992	69	4876
2026-01-11 09:10:32.47	59.64	68.03	-52.3	-54.5	14.7	0.00e+00	0	23	0	752877568	70	4750
2026-01-11 09:10:33.47	58.35	68.06	-52.2	-54.5	14.7	0.00e+00	0	23	0	754974720	70	4723
2026-01-11 09:10:34.48	57.05	68.07	-52.0	-54.2	14.8	0.00e+00	0	23	0	757071872	70	4573
2026-01-11 09:10:35.49	55.75	68.08	-52.2	-54.5	14.6	0.00e+00	0	23	0	759169024	70	4727
2026-01-11 09:10:36.49	54.46	68.07	-51.8	-54.0	15.0	0.00e+00	0	23	0	761266176	70	4454
2026-01-11 09:10:37.50	53.15	68.05	-52.2	-54.4	14.8	0.00e+00	0	23	0	762314752	70	4680
2026-01-11 09:10:38.51	51.86	68.03	-52.0	-54.2	14.8	0.00e+00	0	23	0	764411904	70	4549
2026-01-11 09:10:39.52	50.56	67.99	-52.0	-54.3	14.7	0.00e+00	0	23	0	766509056	70	4651
2026-01-11 09:10:40.53	49.27	67.94	-52.3	-54.8	14.5	0.00e+00	0	23	0	768606208	70	4894
2026-01-11 09:10:41.54	47.99	67.88	-51.9	-54.2	14.9	0.00e+00	0	23	0	770703360	70	4552
2026-01-11 09:10:42.55	46.71	67.81	-52.4	-54.8	14.5	0.00e+00	0	23	0	771751936	70	4906
2026-01-11 09:10:43.55	45.46	67.73	-53.0	-55.8	14.0	0.00e+00	0	23	0	773849088	71	5174
2026-01-11 09:10:44.56	44.21	67.64	-54.2	-57.7	13.1	0.00e+00	0	23	0	775946240	73	5787
2026-01-11 09:10:45.57	42.96	67.55	-54.1	-57.4	13.5	0.00e+00	0	23	0	778043392	74	5231
2026-01-11 09:10:46.57	41.74	67.44	-53.0	-55.5	14.4	0.00e+00	0	23	0	780140544	72	4706
2026-01-11 09:10:47.58	40.53	67.32	-53.3	-56.0	14.2	0.00e+00	0	23	0	781189120	72	5036
2026-01-11 09:10:48.59	39.32	67.20	-53.5	-56.4	13.9	0.00e+00	0	23	0	783286272	72	5261
2026-01-11 09:10:49.60	38.13	67.06	-53.3	-56.2	14.1	0.00e+00	0	23	0	785383424	72	5101
2026-01-11 09:10:50.61	36.96	66.92	-53.0	-55.6	14.4	0.00e+00	0	23	0	787480576	72	4797
2026-01-11 09:10:51.62	35.81	66.76	-51.9	-53.9	15.0	0.00e+00	0	23	0	789577728	70	4429
2026-01-11 09:10:52.62	34.68	66.60	-50.9	-52.6	15.3	0.00e+00	0	23	0	790626304	68	4275
2026-01-11 09:10:53.63	33.56	66.44	-50.4	-52.1	15.4	0.00e+00	0	23	0	792723456	67	4256
2026-01-11 09:10:54.64	32.45	66.26	-51.1	-53.0	14.9	0.00e+00	0	23	0	794820608	67	4734
2026-01-11 09:10:55.65	31.37	66.08	-51.8	-54.0	14.8	0.00e+00	0	23	0	796917760	69	4706
2026-01-11 09:10:56.66	30.30	65.88	-51.4	-53.4	15.1	0.00e+00	0	23	0	799014912	69	4414
2026-01-11 09:10:57.66	29.26	65.69	-49.7	-51.4	15.6	0.00e+00	0	23	0	801112064	66	4161
2026-01-11 09:10:58.67	28.23	65.48	-49.3	-50.9	15.7	0.00e+00	0	23	0	802160640	65	4179
2026-01-11 09:10:59.68	27.22	65.27	-49.6	-51.3	15.5	0.00e+00	0	23	0	804257792	65	4384
2026-01-11 09:11:00.69	26.23	65.05	-50.2	-52.2	15.1	0.00e+00	0	23	0	806354944	65	4815
2026-01-11 09:11:01.70	25.26	64.83	-50.0	-51.7	15.4	0.00e+00	0	23	0	808452096	66	4311
2026-01-11 09:11:02.71	24.31	64.60	-49.6	-51.2	15.5	0.00e+00	0	23	0	810549248	65	4299
2026-01-11 09:11:03.72	23.38	64.37	-49.5	-51.1	15.5	0.00e+00	0	23	0	811597824	65	4284
2026-01-11 09:11:04.72	22.47	64.13	-49.7	-51.4	15.4	0.00e+00	0	23	0	813694976	65	4418
2026-01-11 09:11:05.73	21.58	63.89	-50.9	-52.9	14.9	0.00e+00	0	23	0	815792128	66	4952
2026-01-11 09:11:06.74	20.70	63.64	-51.7	-54.0	14.7	0.00e+00	0	23	0	817889280	68	4995
2026-01-11 09:11:07.75	19.85	63.38	-50.9	-52.9	15.2	0.00e+00	0	23	0	819986432	68	4403
2026-01-11 09:11:08.76	19.01	63.12	-51.2	-53.4	14.8	0.00e+00	0	23	0	821035008	68	4668
2026-01-11 09:11:09.77	18.19	62.86	-52.2	-54.8	14.4	0.00e+00	0	23	0	823132160	69	5165
2026-01-11 09:11:10.78	17.38	62.59	-51.7	-54.0	14.8	0.00e+00	0	23	0	825229312	69	4731
2026-01-11 09:11:11.79	16.60	62.32	-52.1	-54.6	14.5	0.00e+00	0	23	0	827326464	69	5093
2026-01-11 09:11:12.80	15.83	62.05	-52.4	-55.1	14.2	0.00e+00	0	23	0	829423616	69	5361
2026-01-11 09:11:13.80	15.09	61.78	-52.8	-55.8	13.9	0.00e+00	0	23	0	830472192	70	5502
2026-01-11 09:11:14.81	14.36	61.50	-52.7	-55.7	13.9	0.00e+00	0	23	0	832569344	71	5157
2026-01-11 09:11:15.82	13.64	61.22	-52.2	-54.8	14.5	0.00e+00	0	23	0	834666496	71	4648
2026-01-11 09:11:16.83	12.94	60.93	-52.5	-55.2	14.3	0.00e+00	0	23	0	836763648	70	5149
2026-01-11 09:11:17.84	12.26	60.64	-53.7	-57.3	13.2	0.00e+00	0	23	0	838860800	72	5839
2026-01-11 09:11:18.84	11.59	60.36	-53.7	-57.1	13.2	0.00e+00	0	23	0	839909376	73	5353
2026-01-11 09:11:19.85	10.94	60.07	-52.4	-54.9	14.5	0.00e+00	0	23	0	842006528	71	4686
2026-01-11 09:11:20.86	10.30	59.77	-52.0	-54.3	14.9	0.00e+00	0	23	0	844103680	70	4601
2026-01-11 09:11:21.87	9.68	59.48	-52.5	-54.9	14.5	0.00e+00	0	23	0	846200832	70	4976
2026-01-11 09:11:22.88	9.07	59.18	-52.3	-54.6	14.6	0.00e+00	0	23	0	848297984	70	4800
2026-01-11 09:11:23.89	8.47	58.88	-51.9	-54.0	15.0	0.00e+00	0	23	0	849346560	70	4474
2026-01-11 09:11:24.90	7.89	58.58	-51.2	-53.1	15.3	0.00e+00	0	23	0	851443712	69	4261
2026-01-11 09:11:25.91	7.32	58.28	-50.0	-51.7	15.4	0.00e+00	0	23	0	853540864	66	4324
2026-01-11 09:11:26.91	6.76	57.98	-49.7	-51.4	15.4	0.00e+00	0	23	0	855638016	65	4438
2026-01-11 09:11:27.92	6.22	57.68	-49.5	-51.2	15.5	0.00e+00	0	23	0	857735168	65	4306
2026-01-11 09:11:28.93	5.69	57.37	-50.1	-52.0	15.1	0.00e+00	0	23	0	858783744	65	4716
2026-01-11 09:11:29.94	5.16	57.07	-50.7	-52.7	15.0	0.00e+00	0	23	0	860880896	66	4837
2026-01-11 09:11:30.95	4.66	56.76	-51.3	-53.5	14.6	0.00e+00	0	23	0	862978048	67	5026
2026-01-11 09:11:31.96	4.16	56.46	-51.2	-53.4	14.9	0.00e+00	0	23	0	865075200	68	4661
2026-01-11 09:11:32.97	3.67	56.15	-51.3	-53.4	15.0	0.00e+00	0	23	0	867172352	68	4691
2026-01-11 09:11:33.97	3.20	55.85	-51.2	-53.2	15.0	0.00e+00	0	23	0	868220928	68	4595
2026-01-11 09:11:34.98	2.73	55.54	-52.2	-54.6	14.3	0.00e+00	0	23	0	870318080	69	5099
2026-01-11 09:11:35.99	2.28	55.24	-51.9	-54.2	14.6	0.00e+00	0	23	0	872415232	69	4844
2026-01-11 09:11:37.00	1.83	54.93	-50.5	-52.2	15.3	0.00e+00	0	23	0	874512384	67	4336
2026-01-11 09:11:38.00	1.40	54.63	-49.6	-51.3	15.4	0.00e+00	0	23	0	876609536	65	4350
2026-01-11 09:11:39.01	0.97	54.32	-50.6	-52.5	15.0	0.00e+00	0	23	0	877658112	66	4729
2026-01-11 09:11:40.01	0.56	54.02	-50.6	-52.5	15.0	0.00e+00	0	23	0	879755264	66	4721
2026-01-11 09:11:41.02	0.15	53.71	-50.6	-52.5	15.0	0.00e+00	0	23	0	881852416	66	4732
2026-01-11 09:11:42.03	359.75	53.41	-51.2	-53.4	14.8	0.00e+00	0	23	0	883949568	67	4950
2026-01-11 09:11:43.04	359.35	53.10	-52.1	-54.6	14.4	0.00e+00	0	23	0	886046720	69	5096
2026-01-11 09:11:44.04	358.97	52.80	-52.3	-54.8	14.5	0.00e+00	0	23	0	887095296	70	4920
2026-01-11 09:11:45.06	358.59	52.49	-52.8	-55.6	14.0	0.00e+00	0	23	0	889192448	70	5399
2026-01-11 09:11:46.06	358.23	52.19	-52.8	-55.6	14.2	0.00e+00	0	23	0	891289600	71	5061
2026-01-11 09:11:47.07	357.87	51.89	-51.5	-53.6	15.1	0.00e+00	0	23	0	893386752	69	4496
2026-01-11 09:11:48.08	357.51	51.59	-50.5	-52.3	15.3	0.00e+00	0	23	0	895483904	67	4364
2026-01-11 09:11:49.09	357.17	51.29	-50.7	-52.6	15.2	0.00e+00	0	23	0	896532480	67	4511
2026-01-11 09:11:50.10	356.83	50.99	-51.2	-53.3	14.8	0.00e+00	0	23	0	898629632	67	4879
2026-01-11 09:11:51.11	356.49	50.69	-51.2	-53.2	14.8	0.00e+00	0	23	0	900726784	67	4850
2026-01-11 09:11:52.11	356.17	50.39	-50.8	-52.7	15.1	0.00e+00	0	23	0	902823936	67	4581
2026-01-11 09:11:53.12	355.85	50.09	-51.9	-54.2	14.6	0.00e+00	0	23	0	904921088	68	5128
2026-01-11 09:11:54.13	355.54	49.80	-53.3	-56.4	13.6	0.00e+00	0	23	0	905969664	71	5556
2026-01-11 09:11:55.14	355.23	49.50	-54.1	-57.8	13.1	0.00e+00	0	23	0	908066816	73	5795
2026-01-11 09:11:56.14	354.93	49.21	-53.7	-56.9	13.6	0.00e+00	0	23	0	910163968	73	5270
2026-01-11 09:11:57.15	354.64	48.92	-53.2	-56.1	14.0	0.00e+00	0	23	0	912261120	72	5092
2026-01-11 09:11:58.16	354.35	48.63	-54.1	-57.6	13.2	0.00e+00	0	23	0	914358272	73	5697
2026-01-11 09:11:59.17	354.06	48.33	-53.8	-56.9	13.6	7.00e-07	0	23	0	915406848	73	5260
2026-01-11 09:12:00.18	353.78	48.04	-52.4	-54.7	14.8	0.00e+00	0	23	0	917504000	71	4558
2026-01-11 09:12:01.18	353.51	47.76	-51.8	-53.8	15.1	0.00e+00	0	23	0	919601152	70	4367
2026-01-11 09:12:02.19	353.24	47.47	-51.6	-53.6	15.0	0.00e+00	0	23	0	921698304	69	4529
2026-01-11 09:12:03.20	352.98	47.18	-51.0	-52.8	15.2	0.00e+00	0	23	0	923795456	68	4365
2026-01-11 09:12:04.21	352.72	46.90	-50.0	-51.6	15.5	0.00e+00	0	23	0	925892608	66	4247
2026-01-11 09:12:05.21	352.47	46.62	-50.2	-51.9	15.3	0.00e+00	0	23	0	926941184	66	4400
2026-01-11 09:12:06.22	352.22	46.34	-51.7	-53.8	14.8	0.00e+00	0	23	0	929038336	68	4883
2026-01-11 09:12:07.23	351.97	46.06	-52.3	-54.5	14.7	0.00e+00	0	23	0	931135488	70	4739
2026-01-11 09:12:08.24	351.73	45.78	-51.6	-53.6	15.0	0.00e+00	0	23	0	933232640	69	4508
2026-01-11 09:12:09.25	351.50	45.50	-51.3	-53.2	15.2	0.00e+00	0	23	0	934281216	69	4299
2026-01-11 09:12:10.25	351.27	45.22	-51.8	-53.9	14.6	0.00e+00	0	23	0	936378368	68	4976
2026-01-11 09:12:11.27	351.04	44.95	-53.1	-55.9	14.0	0.00e+00	0	23	0	938475520	71	5240
2026-01-11 09:12:12.27	350.81	44.67	-53.8	-57.0	13.6	0.00e+00	0	23	0	940572672	73	5284
2026-01-11 09:12:13.28	350.59	44.40	-54.2	-57.6	13.3	0.00e+00	0	23	0	942669824	74	5394
2026-01-11 09:12:14.29	350.38	44.13	-54.0	-57.2	13.6	0.00e+00	0	23	0	943718400	74	5123
2026-01-11 09:12:15.30	350.16	43.86	-53.6	-56.6	13.8	0.00e+00	0	23	0	945815552	73	5076
2026-01-11 09:12:16.31	349.95	43.59	-53.7	-56.8	13.7	0.00e+00	0	23	0	947912704	73	5196
2026-01-11 09:12:17.32	349.75	43.32	-53.6	-56.8	13.6	0.00e+00	0	23	0	950009856	73	5173
2026-01-11 09:12:18.32	349.55	43.06	-53.3	-56.3	13.8	0.00e+00	0	23	0	952107008	73	4894
2026-01-11 09:12:19.33	349.35	42.80	-53.0	-55.8	14.2	0.00e+00	0	23	0	954204160	72	4884
2026-01-11 09:12:20.34	349.15	42.53	-52.6	-55.1	14.5	0.00e+00	0	23	0	955252736	71	4796
2026-01-11 09:12:21.34	348.96	42.28	-53.6	-56.9	13.5	0.00e+00	0	23	0	957349888	72	5529
2026-01-11 09:12:22.35	348.77	42.02	-53.5	-56.6	13.6	0.00e+00	0	23	0	959447040	72	5395
2026-01-11 09:12:23.35	348.59	41.76	-53.8	-57.2	13.2	0.00e+00	0	23	0	961544192	73	5441
2026-01-11 09:12:24.36	348.41	41.50	-54.3	-58.1	12.8	0.00e+00	0	23	0	963641344	73	6059
2026-01-11 09:12:25.37	348.22	41.25	-54.6	-58.7	12.5	7.00e-07	0	23	0	964689920	74	6130
2026-01-11 09:12:26.38	348.05	40.99	-53.9	-57.2	13.5	7.00e-07	0	23	0	966787072	74	5111
2026-01-11 09:12:27.39	347.87	40.74	-54.0	-57.5	13.4	0.00e+00	0	23	0	968884224	74	5296
2026-01-11 09:12:28.39	347.70	40.49	-53.6	-56.7	13.8	0.00e+00	0	23	0	970981376	73	5121
2026-01-11 09:12:29.40	347.53	40.24	-53.6	-56.7	13.8	0.00e+00	0	23	0	973078528	73	5137
2026-01-11 09:12:30.41	347.37	40.00	-53.1	-55.8	14.2	0.00e+00	0	23	0	974127104	72	4921
2026-01-11 09:12:31.42	347.20	39.75	-53.0	-55.8	14.2	0.00e+00	0	23	0	976224256	72	4872
2026-01-11 09:12:32.43	347.04	39.50	-53.1	-55.8	14.2	0.00e+00	0	23	0	978321408	72	4895
2026-01-11 09:12:33.44	346.88	39.26	-53.2	-55.9	14.1	0.00e+00	0	23	0	980418560	72	4961
2026-01-11 09:12:34.44	346.73	39.02	-53.4	-56.4	13.8	0.00e+00	0	23	0	981467136	72	5237
2026-01-11 09:12:35.45	346.57	38.78	-54.1	-57.5	13.1	0.00e+00	0	23	0	983564288	73	5653
2026-01-11 09:12:36.45	346.42	38.54	-53.7	-56.9	13.6	0.00e+00	0	23	0	985661440	73	5268
2026-01-11 09:12:37.46	346.27	38.31	-53.5	-56.5	13.8	0.00e+00	0	23	0	987758592	73	5006
2026-01-11 09:12:38.46	346.13	38.07	-53.6	-56.6	13.8	0.00e+00	0	23	0	989855744	73	5045
2026-01-11 09:12:39.47	345.98	37.84	-53.4	-56.4	13.8	0.00e+00	0	23	0	991952896	72	5236
2026-01-11 09:12:40.48	345.84	37.60	-53.1	-55.9	14.1	0.00e+00	0	23	0	993001472	72	4939
2026-01-11 09:12:41.49	345.70	37.37	-52.6	-55.1	14.5	0.00e+00	0	23	0	995098624	71	4802
2026-01-11 09:12:42.49	345.56	37.14	-53.0	-55.9	14.1	0.00e+00	0	23	0	997195776	71	5233
2026-01-11 09:12:43.50	345.42	36.91	-52.5	-55.0	14.5	0.00e+00	0	23	0	999292928	71	4746
2026-01-11 09:12:44.51	345.29	36.68	-52.4	-54.9	14.6	0.00e+00	0	23	0	1001390080	71	4652
2026-01-11 09:12:45.52	345.15	36.46	-52.4	-54.9	14.6	0.00e+00	0	23	0	1002438656	71	4690
2026-01-11 09:12:46.53	345.02	36.23	-52.7	-55.4	14.3	0.00e+00	0	23	0	1004535808	71	4931
2026-01-11 09:12:47.54	344.89	36.01	-52.3	-54.8	14.6	0.00e+00	0	23	0	1006632960	71	4618
2026-01-11 09:12:48.55	344.76	35.79	-52.3	-54.8	14.6	0.00e+00	0	23	0	1008730112	71	4634
2026-01-11 09:12:49.55	344.64	35.57	-51.7	-53.9	15.0	0.00e+00	0	23	0	1010827264	70	4403
2026-01-11 09:12:50.56	344.52	35.35	-51.6	-53.7	14.9	0.00e+00	0	23	0	1011875840	69	4594
2026-01-11 09:12:51.57	344.39	35.13	-51.3	-53.3	15.2	0.00e+00	0	23	0	1013972992	69	4362
2026-01-11 09:12:52.58	344.27	34.91	-51.4	-53.5	15.0	0.00e+00	0	23	0	1016070144	69	4468
2026-01-11 09:12:53.59	344.15	34.70	-52.3	-54.7	14.4	0.00e+00	0	23	0	1018167296	69	5132
2026-01-11 09:12:54.59	344.04	34.49	-53.0	-55.7	14.0	0.00e+00	0	23	0	1020264448	71	5149
2026-01-11 09:12:55.60	343.92	34.27	-53.8	-57.0	13.5	0.00e+00	0	23	0	1021313024	73	5320
2026-01-11 09:12:56.61	343.81	34.06	-54.9	-58.4	12.8	0.00e+00	0	23	0	1023410176	74	5879
2026-01-11 09:12:57.62	343.69	33.85	-54.2	-57.5	13.3	0.00e+00	0	23	0	1025507328	74	5296
2026-01-11 09:12:58.62	343.58	33.64	-53.5	-56.3	14.0	0.00e+00	0	23	0	1027604480	73	4912
2026-01-11 09:12:59.63	343.47	33.44	-53.6	-56.4	13.9	0.00e+00	0	23	0	1029701632	73	4959
2026-01-11 09:13:00.64	343.36	33.23	-53.4	-56.1	14.1	0.00e+00	0	23	0	1030750208	73	4786
2026-01-11 09:13:01.65	343.26	33.02	-53.4	-56.1	14.0	0.00e+00	0	23	0	1032847360	72	5097
2026-01-11 09:13:02.66	343.15	32.82	-53.5	-56.4	13.8	0.00e+00	0	23	0	1034944512	72	5259
2026-01-11 09:13:03.67	343.05	32.62	-53.4	-56.2	13.9	0.00e+00	0	23	0	1037041664	72	5112
2026-01-11 09:13:04.67	342.94	32.42	-53.0	-55.6	14.3	0.00e+00	0	23	0	1039138816	72	4813
2026-01-11 09:13:05.68	342.84	32.22	-52.6	-55.0	14.6	0.00e+00	0	23	0	1040187392	71	4735
2026-01-11 09:13:06.69	342.74	32.02	-52.6	-55.0	14.6	0.00e+00	0	23	0	1042284544	71	4739
2026-01-11 09:13:07.70	342.64	31.82	-52.6	-54.9	14.6	0.00e+00	0	23	0	1044381696	71	4703
2026-01-11 09:13:08.71	342.54	31.62	-52.8	-55.2	14.5	0.00e+00	0	23	0	1046478848	71	4869
2026-01-11 09:13:09.72	342.45	31.43	-52.7	-55.2	14.4	0.00e+00	0	23	0	1048576000	71	4829
2026-01-11 09:13:10.72	342.35	31.24	-53.1	-56.0	14.0	0.00e+00	0	23	0	1049624576	71	5285
2026-01-11 09:13:11.73	342.26	31.04	-53.5	-56.6	13.6	0.00e+00	0	23	0	1051721728	72	5386
2026-01-11 09:13:12.74	342.17	30.85	-53.9	-57.2	13.3	0.00e+00	0	23	0	1053818880	73	5441
2026-01-11 09:13:13.75	342.07	30.66	-54.0	-57.5	13.2	0.00e+00	0	23	0	1055916032	73	5617
2026-01-11 09:13:14.76	341.98	30.47	-54.2	-57.7	13.0	0.00e+00	0	23	0	1058013184	73	5774
2026-01-11 09:13:15.76	341.89	30.29	-54.3	-57.9	12.8	0.00e+00	0	23	0	1059061760	73	5886
2026-01-11 09:13:16.76	341.81	30.10	-54.3	-57.8	13.2	0.00e+00	0	23	0	1061158912	74	5528
2026-01-11 09:13:17.78	341.72	29.91	-54.4	-58.1	12.7	7.00e-07	0	23	0	1063256064	74	5701
2026-01-11 09:13:18.78	341.63	29.73	-54.6	-58.5	12.5	7.00e-07	0	23	0	1065353216	74	5966
2026-01-11 09:13:19.79	341.55	29.55	-54.7	-58.9	12.2	1.50e-06	0	23	0	1067450368	74	6242
2026-01-11 09:13:20.79	341.46	29.37	-54.5	-58.3	12.7	7.00e-07	0	23	0	1068498944	74	5830
2026-01-11 09:13:21.80	341.38	29.18	-54.6	-58.4	12.7	0.00e+00	0	23	0	1070596096	74	5874
2026-01-11 09:13:22.81	341.30	29.00	-54.6	-58.4	12.6	0.00e+00	0	23	0	1072693248	74	5910
2026-01-11 09:13:23.82	341.21	28.82	-54.4	-58.1	12.8	2.20e-06	0	23	0	1074790400	74	5693
2026-01-11 09:13:24.83	341.13	28.65	-54.0	-57.3	13.3	0.00e+00	0	23	0	1076887552	74	5207
2026-01-11 09:13:25.84	341.05	28.47	-54.2	-57.6	13.2	0.00e+00	0	23	0	1077936128	74	5389
2026-01-11 09:13:26.84	340.98	28.29	-54.3	-57.8	13.0	0.00e+00	0	23	0	1080033280	74	5505
2026-01-11 09:13:27.85	340.90	28.12	-54.1	-57.4	13.4	0.00e+00	0	23	0	1082130432	74	5225
2026-01-11 09:13:28.86	340.82	27.94	-54.0	-57.1	13.6	0.00e+00	0	23	0	1084227584	74	5097
2026-01-11 09:13:29.87	340.74	27.77	-53.8	-56.9	13.7	0.00e+00	0	23	0	1086324736	74	4932
2026-01-11 09:13:30.87	340.67	27.60	-53.6	-56.6	13.8	0.00e+00	0	23	0	1087373312	73	5068
2026-01-11 09:13:31.88	340.59	27.43	-53.0	-55.7	14.2	0.00e+00	0	23	0	1089470464	72	4822
2026-01-11 09:13:32.89	340.52	27.26	-52.7	-55.1	14.6	0.00e+00	0	23	0	1091567616	72	4528
2026-01-11 09:13:33.89	340.45	27.09	-52.5	-54.9	14.6	0.00e+00	0	23	0	1093664768	71	4654
2026-01-11 09:13:34.90	340.38	26.92	-52.4	-54.6	14.7	0.00e+00	0	23	0	1095761920	71	4532
2026-01-11 09:13:35.91	340.31	26.76	-51.9	-53.9	14.9	0.00e+00	0	23	0	1096810496	70	4429
2026-01-11 09:13:36.91	340.24	26.59	-51.5	-53.4	15.1	0.00e+00	0	23	0	1098907648	69	4420
2026-01-11 09:13:37.92	340.17	26.43	-51.1	-53.0	15.1	0.00e+00	0	23	0	1101004800	68	4447
2026-01-11 09:13:38.93	340.10	26.26	-51.0	-52.8	15.1	0.00e+00	0	23	0	1103101952	68	4367
2026-01-11 09:13:39.94	340.03	26.10	-51.0	-52.9	15.1	0.00e+00	0	23	0	1105199104	68	4417
2026-01-11 09:13:40.94	339.96	25.94	-51.3	-53.2	15.0	0.00e+00	0	23	0	1106247680	68	4570
2026-01-11 09:13:41.95	339.90	25.78	-51.4	-53.4	14.9	0.00e+00	0	23	0	1108344832	68	4684
2026-01-11 09:13:42.96	339.83	25.62	-51.7	-53.8	14.6	0.00e+00	0	23	0	1110441984	68	4884
2026-01-11 09:13:43.97	339.76	25.46	-52.5	-55.0	14.4	0.00e+00	0	23	0	1112539136	70	4986
2026-01-11 09:13:44.98	339.70	25.30	-52.6	-55.1	14.2	0.00e+00	0	23	0	1114636288	70	5087
2026-01-11 09:13:45.99	339.63	25.14	-53.2	-55.9	13.9	0.00e+00	0	23	0	1115684864	71	5253
2026-01-11 09:13:47.00	339.57	24.99	-53.8	-56.9	13.3	0.00e+00	0	23	0	1117782016	72	5567
2026-01-11 09:13:48.00	339.51	24.83	-54.0	-57.3	13.2	0.00e+00	0	23	0	1119879168	73	5503
2026-01-11 09:13:49.01	339.45	24.68	-54.5	-58.3	12.7	0.00e+00	0	23	0	1121976320	74	5789
2026-01-11 09:13:50.02	339.39	24.52	-54.6	-58.4	12.6	0.00e+00	0	23	0	1124073472	74	5882
2026-01-11 09:13:51.02	339.33	24.37	-54.5	-58.1	12.8	0.00e+00	0	23	0	1125122048	74	5692
2026-01-11 09:13:52.03	339.27	24.22	-54.3	-57.7	13.1	7.00e-07	0	23	0	1127219200	74	5407
2026-01-11 09:13:53.04	339.21	24.07	-54.1	-57.3	13.4	0.00e+00	0	23	0	1129316352	74	5186
2026-01-11 09:13:54.05	339.15	23.92	-53.6	-56.4	13.8	0.00e+00	0	23	0	1131413504	73	4981
2026-01-11 09:13:55.06	339.09	23.77	-53.5	-56.3	13.9	0.00e+00	0	23	0	1133510656	73	4920
2026-01-11 09:13:56.07	339.03	23.62	-53.2	-55.8	14.2	0.00e+00	0	23	0	1134559232	73	4645
2026-01-11 09:13:57.08	338.97	23.47	-52.9	-55.3	14.4	0.00e+00	0	23	0	1136656384	72	4651
2026-01-11 09:13:58.09	338.92	23.32	-52.7	-55.1	14.6	0.00e+00	0	23	0	1138753536	72	4498
2026-01-11 09:13:59.09	338.86	23.18	-52.7	-55.1	14.4	0.00e+00	0	23	0	1140850688	71	4812
2026-01-11 09:14:00.10	338.81	23.03	-52.4	-54.8	14.6	0.00e+00	0	23	0	1142947840	71	4612
2026-01-11 09:14:01.11	338.75	22.88	-52.4	-54.7	14.6	0.00e+00	0	23	0	1145044992	71	4590
2026-01-11 09:14:02.12	338.70	22.74	-52.4	-54.7	14.6	0.00e+00	0	23	0	1146093568	71	4566
2026-01-11 09:14:03.12	338.64	22.60	-52.2	-54.5	14.7	0.00e+00	0	23	0	1148190720	71	4463
2026-01-11 09:14:04.13	338.59	22.46	-52.0	-54.2	14.7	0.00e+00	0	23	0	1150287872	70	4573
2026-01-11 09:14:05.14	338.54	22.31	-51.9	-54.0	14.9	0.00e+00	0	23	0	1152385024	70	4483
2026-01-11 09:14:06.14	338.49	22.17	-51.7	-53.8	15.0	0.00e+00	0	23	0	1153433600	70	4389
2026-01-11 09:14:07.16	338.43	22.03	-51.6	-53.7	14.9	0.00e+00	0	23	0	1155530752	69	4553
2026-01-11 09:14:08.16	338.38	21.89	-51.5	-53.6	14.9	0.00e+00	0	23	0	1157627904	69	4522
2026-01-11 09:14:09.17	338.33	21.75	-51.1	-53.1	15.0	0.00e+00	0	23	0	1159725056	68	4532
2026-01-11 09:14:10.18	338.28	21.62	-51.1	-53.1	15.0	0.00e+00	0	23	0	1161822208	68	4540
2026-01-11 09:14:11.19	338.23	21.48	-51.0	-53.0	15.1	0.00e+00	0	23	0	1162870784	68	4475
2026-01-11 09:14:12.20	338.18	21.34	-50.9	-52.9	15.1	0.00e+00	0	23	0	1164967936	68	4427
2026-01-11 09:14:13.21	338.13	21.21	-51.0	-53.0	15.0	0.00e+00	0	23	0	1167065088	68	4491
2026-01-11 09:14:14.21	338.09	21.07	-51.2	-53.3	14.9	0.00e+00	0	23	0	1169162240	68	4622
2026-01-11 09:14:15.22	338.04	20.94	-51.2	-53.3	14.9	0.00e+00	0	23	0	1171259392	68	4637
2026-01-11 09:14:16.23	337.99	20.80	-51.2	-53.2	14.9	0.00e+00	0	23	0	1173356544	68	4588
2026-01-11 09:14:17.23	337.94	20.67	-51.4	-53.6	14.7	0.00e+00	0	23	0	1174405120	68	4763
2026-01-11 09:14:18.24	337.90	20.54	-51.3	-53.5	14.8	0.00e+00	0	23	0	1176502272	68	4720
2026-01-11 09:14:19.25	337.85	20.41	-51.3	-53.5	14.8	7.00e-07	0	23	0	1178599424	68	4730
2026-01-11 09:14:20.25	337.81	20.28	-51.7	-54.0	14.5	0.00e+00	0	23	0	1180696576	68	4988
2026-01-11 09:14:21.26	337.76	20.15	-51.5	-53.8	14.6	0.00e+00	0	23	0	1182793728	68	4882
2026-01-11 09:14:22.27	337.72	20.02	-51.6	-53.9	14.6	0.00e+00	0	23	0	1183842304	68	4933
2026-01-11 09:14:23.28	337.67	19.89	-51.8	-54.1	14.4	0.00e+00	0	23	0	1185939456	68	5087
2026-01-11 09:14:24.29	337.63	19.76	-51.7	-54.0	14.5	0.00e+00	0	23	0	1188036608	68	4987
2026-01-11 09:14:25.30	337.58	19.63	-51.8	-54.1	14.4	0.00e+00	0	23	0	1190133760	68	5087
2026-01-11 09:14:26.31	337.54	19.50	-51.7	-54.0	14.5	0.00e+00	0	23	0	1192230912	68	5000
2026-01-11 09:14:27.32	337.50	19.38	-51.8	-54.1	14.4	0.00e+00	0	23	0	1193279488	68	5059
2026-01-11 09:14:28.33	337.46	19.25	-51.8	-54.2	14.4	0.00e+00	0	23	0	1195376640	68	5102
2026-01-11 09:14:29.33	337.41	19.13	-52.0	-54.4	14.4	0.00e+00	0	23	0	1197473792	69	4955
2026-01-11 09:14:30.34	337.37	19.00	-52.0	-54.3	14.5	0.00e+00	0	23	0	1199570944	69	4914
2026-01-11 09:14:31.35	337.33	18.88	-52.2	-54.7	14.2	0.00e+00	0	23	0	1201668096	69	5126
2026-01-11 09:14:32.36	337.29	18.75	-52.4	-55.0	14.2	0.00e+00	0	23	0	1202716672	70	5010
2026-01-11 09:14:33.37	337.25	18.63	-52.4	-55.0	14.2	0.00e+00	0	23	0	1204813824	70	4986
2026-01-11 09:14:34.38	337.21	18.51	-52.5	-55.0	14.2	0.00e+00	0	23	0	1206910976	70	5026
2026-01-11 09:14:35.39	337.17	18.38	-52.7	-55.4	14.0	0.00e+00	0	23	0	1209008128	70	5278
2026-01-11 09:14:36.39	337.13	18.26	-52.9	-55.7	13.8	0.00e+00	0	23	0	1211105280	70	5429
2026-01-11 09:14:37.39	337.09	18.15	-53.2	-56.2	13.6	0.00e+00	0	23	0	1212153856	71	5438
2026-01-11 09:14:38.40	337.05	18.02	-53.0	-55.9	13.8	0.00e+00	0	23	0	1214251008	71	5256
2026-01-11 09:14:39.40	337.01	17.91	-53.4	-56.5	13.5	0.00e+00	0	23	0	1216348160	71	5594
2026-01-11 09:14:40.41	336.98	17.79	-53.1	-55.9	13.8	0.00e+00	0	23	0	1218445312	71	5275
2026-01-11 09:14:41.42	336.94	17.67	-53.1	-56.1	13.7	0.00e+00	0	23	0	1220542464	71	5343
2026-01-11 09:14:42.43	336.90	17.55	-53.1	-56.0	13.7	0.00e+00	0	23	0	1221591040	71	5323
2026-01-11 09:14:43.44	336.86	17.43	-53.1	-55.9	13.8	0.00e+00	0	23	0	1223688192	71	5264
2026-01-11 09:14:44.45	336.83	17.32	-52.9	-55.6	14.0	0.00e+00	0	23	0	1225785344	71	5079
2026-01-11 09:14:45.45	336.79	17.20	-52.8	-55.5	14.1	0.00e+00	0	23	0	1227882496	71	4990
2026-01-11 09:14:46.46	336.75	17.09	-52.5	-55.0	14.4	0.00e+00	0	23	0	1229979648	71	4707
2026-01-11 09:14:47.47	336.72	16.97	-52.2	-54.6	14.6	0.00e+00	0	23	0	1231028224	71	4526
2026-01-11 09:14:48.48	336.68	16.86	-52.4	-54.9	14.5	0.00e+00	0	23	0	1233125376	71	4663
2026-01-11 09:14:49.49	336.65	16.74	-52.3	-54.7	14.5	0.00e+00	0	23	0	1235222528	71	4581
2026-01-11 09:14:50.50	336.61	16.63	-52.2	-54.6	14.5	0.00e+00	0	23	0	1237319680	70	4781
2026-01-11 09:14:51.51	336.58	16.52	-52.2	-54.6	14.5	0.00e+00	0	23	0	1239416832	70	4765
2026-01-11 09:14:52.51	336.54	16.40	-52.2	-54.6	14.5	0.00e+00	0	23	0	1240465408	70	4778
2026-01-11 09:14:53.52	336.51	16.29	-52.2	-54.5	14.5	0.00e+00	0	23	0	1242562560	70	4757
2026-01-11 09:14:54.53	336.47	16.18	-52.4	-54.9	14.2	0.00e+00	0	23	0	1244659712	70	4971
2026-01-11 09:14:55.54	336.44	16.07	-52.4	-54.9	14.3	0.00e+00	0	23	0	1246756864	70	4934
2026-01-11 09:14:56.54	336.41	15.96	-52.4	-55.0	14.2	0.00e+00	0	23	0	1248854016	70	4985
2026-01-11 09:14:57.55	336.37	15.85	-52.6	-55.2	14.1	0.00e+00	0	23	0	1249902592	70	5126
