passes_logs/2026/01/11/R3.2S_Murmansk/R3.2S_Murmansk__20260111_110543_AQUA_rec.log

#Pass ID: 20260111_110543_AQUA
#Satellite: AQUA
#Configuration: AQUA
#almurnet v.1.7.20251203
#Start time: 2026-01-11 11:05:45

#Version: 2.2.20231116
#Station: R3.2S_Murmansk
#Location: 33.079688 lon 68.888172 lat
#TLE: 1 27424U 02022A   26010.91777001  .00001106  00000+0  23130-3 0  9995
#TLE: 2 27424  98.4077 337.2768 0002031  83.1713 340.5382 14.61814337260293

#Time	Az	El	Level	Level2	SNR	BER	BlckErr	Temp	State	Recorded	gain1	gain2
2026-01-11 11:05:45.21	147.83	2.14	-56.6	-75.8	3.8	7.47e-01	0	21	0	0	82	32077
2026-01-11 11:05:46.21	147.82	2.21	-56.5	-75.8	3.8	7.47e-01	0	22	104	0	80	35804
2026-01-11 11:05:47.21	147.82	2.27	-56.5	-75.8	3.8	7.46e-01	0	22	104	0	80	35774
2026-01-11 11:05:48.22	147.81	2.34	-56.5	-75.7	3.8	7.47e-01	0	22	104	0	80	35583
2026-01-11 11:05:49.23	147.81	2.41	-56.5	-75.8	3.8	7.47e-01	0	22	104	0	80	35766
2026-01-11 11:05:50.23	147.81	2.48	-56.5	-75.8	3.8	7.49e-01	0	22	104	0	80	35695
2026-01-11 11:05:51.24	147.80	2.55	-56.5	-75.8	3.8	7.44e-01	0	22	104	0	80	35752
2026-01-11 11:05:52.25	147.80	2.61	-56.5	-75.8	3.8	7.46e-01	0	22	104	0	80	35728
2026-01-11 11:05:53.25	147.79	2.68	-56.5	-75.8	3.8	7.49e-01	0	22	104	0	80	35810
2026-01-11 11:05:54.25	147.79	2.75	-56.5	-75.8	3.8	7.45e-01	0	22	104	0	80	35780
2026-01-11 11:05:55.26	147.79	2.82	-56.5	-75.7	3.8	7.48e-01	0	22	104	0	80	35621
2026-01-11 11:05:56.27	147.78	2.89	-56.5	-75.7	3.8	7.45e-01	0	22	104	0	80	35583
2026-01-11 11:05:57.28	147.78	2.96	-56.5	-75.7	3.8	7.46e-01	0	22	104	0	80	35614
2026-01-11 11:05:58.29	147.77	3.03	-56.5	-75.7	3.8	7.45e-01	0	22	104	0	80	35611
2026-01-11 11:05:59.29	147.77	3.10	-56.5	-75.7	3.8	7.46e-01	0	22	104	0	80	35548
2026-01-11 11:06:00.30	147.76	3.17	-56.5	-75.7	3.8	7.47e-01	0	22	104	0	80	35661
2026-01-11 11:06:01.31	147.76	3.24	-56.5	-75.7	3.8	7.43e-01	0	22	104	0	80	35365
2026-01-11 11:06:02.32	147.76	3.31	-56.5	-75.6	3.8	7.48e-01	0	22	104	0	80	34934
2026-01-11 11:06:03.33	147.75	3.38	-56.5	-75.3	3.8	7.45e-01	0	22	104	0	80	33829
2026-01-11 11:06:04.33	147.75	3.45	-56.4	-74.6	3.8	7.45e-01	0	22	104	0	80	31295
2026-01-11 11:06:05.34	147.74	3.52	-56.4	-73.4	4.0	7.40e-01	0	22	104	0	80	27234
2026-01-11 11:06:06.35	147.74	3.59	-56.4	-72.7	4.2	7.44e-01	0	22	104	0	80	25114
2026-01-11 11:06:07.36	147.73	3.67	-56.4	-71.1	4.6	7.17e-01	0	22	104	0	80	20811
2026-01-11 11:06:08.36	147.73	3.74	-56.3	-70.0	5.1	7.08e-01	0	22	0	0	80	18400
2026-01-11 11:06:09.37	147.72	3.81	-56.3	-68.9	5.7	6.88e-01	34	22	0	524288	80	16222
2026-01-11 11:06:10.39	147.72	3.88	-56.2	-68.1	6.2	6.74e-01	92	22	0	2097152	80	14795
2026-01-11 11:06:11.39	147.71	3.95	-56.1	-67.2	6.9	6.61e-01	91	22	0	3670016	80	13281
2026-01-11 11:06:12.40	147.71	4.03	-56.0	-66.0	8.0	6.42e-01	18	22	0	5767168	80	11610
2026-01-11 11:06:13.41	147.70	4.10	-55.8	-64.7	9.2	6.29e-01	0	22	0	7864320	80	9972
2026-01-11 11:06:14.41	147.70	4.17	-55.7	-63.8	10.0	6.20e-01	0	22	0	9437184	80	8978
2026-01-11 11:06:15.43	147.69	4.25	-55.4	-62.3	11.3	6.13e-01	0	22	0	11534336	80	7629
2026-01-11 11:06:16.43	147.69	4.32	-54.8	-60.4	12.5	6.08e-01	0	22	0	13107200	78	6827
2026-01-11 11:06:17.44	147.68	4.39	-54.2	-58.8	13.6	6.08e-01	0	22	0	15204352	77	6043
2026-01-11 11:06:18.44	147.68	4.47	-53.6	-57.6	14.2	6.07e-01	0	22	0	17301504	76	5556
2026-01-11 11:06:19.44	147.67	4.54	-52.8	-56.2	14.8	6.07e-01	0	22	0	18874368	74	5293
2026-01-11 11:06:20.45	147.67	4.62	-52.1	-55.0	15.2	6.06e-01	0	22	0	20971520	73	4924
2026-01-11 11:06:21.45	147.66	4.69	-51.5	-54.1	15.5	6.09e-01	0	22	0	22544384	72	4661
2026-01-11 11:06:22.46	147.66	4.76	-51.3	-53.8	15.4	6.05e-01	0	22	0	24641536	71	4807
2026-01-11 11:06:23.47	147.65	4.84	-51.4	-54.0	15.4	6.07e-01	0	22	0	26738688	71	4896
2026-01-11 11:06:24.48	147.64	4.92	-51.6	-54.4	15.2	6.06e-01	0	22	0	28311552	71	5134
2026-01-11 11:06:25.48	147.64	4.99	-52.0	-54.9	14.9	6.06e-01	0	22	0	30408704	71	5460
2026-01-11 11:06:26.50	147.63	5.07	-52.7	-56.1	14.7	6.07e-01	0	22	0	31981568	73	5530
2026-01-11 11:06:27.51	147.63	5.14	-54.4	-59.2	13.4	6.07e-01	0	22	0	34078720	76	6664
2026-01-11 11:06:28.51	147.62	5.22	-51.5	-54.1	15.4	6.07e-01	0	22	0	36175872	72	4654
2026-01-11 11:06:29.52	147.62	5.30	-51.0	-53.4	15.6	6.06e-01	0	22	0	37748736	70	4827
2026-01-11 11:06:30.53	147.61	5.37	-50.9	-53.3	15.7	6.05e-01	0	22	0	39845888	70	4776
2026-01-11 11:06:31.54	147.60	5.45	-52.2	-55.1	14.9	6.05e-01	0	22	0	41418752	73	4952
2026-01-11 11:06:32.55	147.60	5.53	-50.6	-52.9	15.7	6.07e-01	0	22	0	43515904	70	4546
2026-01-11 11:06:33.56	147.59	5.60	-50.6	-52.8	15.8	6.07e-01	0	22	0	45613056	70	4505
2026-01-11 11:06:34.57	147.59	5.68	-50.6	-52.8	15.7	6.08e-01	0	22	0	47185920	70	4524
2026-01-11 11:06:35.57	147.58	5.76	-50.4	-52.6	15.8	6.06e-01	0	22	0	49283072	70	4428
2026-01-11 11:06:36.58	147.57	5.84	-50.3	-52.4	15.7	6.06e-01	0	23	0	50855936	69	4598
2026-01-11 11:06:37.58	147.57	5.92	-50.4	-52.6	15.7	6.06e-01	0	23	0	52953088	69	4664
2026-01-11 11:06:38.59	147.56	6.00	-50.4	-52.5	15.7	6.08e-01	0	22	0	55050240	69	4644
2026-01-11 11:06:39.60	147.56	6.07	-50.3	-52.4	15.7	6.07e-01	0	22	0	56623104	69	4568
2026-01-11 11:06:40.61	147.55	6.15	-50.3	-52.4	15.7	6.06e-01	0	22	0	58720256	69	4589
2026-01-11 11:06:41.61	147.54	6.23	-50.3	-52.4	15.8	6.08e-01	0	23	0	60293120	69	4558
2026-01-11 11:06:42.63	147.54	6.31	-50.4	-52.5	15.7	6.05e-01	0	22	0	62390272	69	4629
2026-01-11 11:06:43.63	147.53	6.39	-50.3	-52.4	15.8	6.05e-01	0	22	0	64487424	69	4553
2026-01-11 11:06:44.64	147.52	6.47	-50.1	-52.2	15.9	6.06e-01	0	23	0	66060288	69	4459
2026-01-11 11:06:45.66	147.52	6.56	-50.0	-52.1	15.9	6.07e-01	0	23	0	68157440	69	4407
2026-01-11 11:06:46.66	147.51	6.64	-50.2	-52.2	15.6	6.09e-01	0	22	0	70254592	69	4471
2026-01-11 11:06:47.67	147.50	6.72	-50.1	-52.1	15.9	6.06e-01	0	23	0	71827456	69	4401
2026-01-11 11:06:48.67	147.50	6.80	-50.1	-52.1	15.9	6.09e-01	0	23	0	73924608	69	4429
2026-01-11 11:06:49.68	147.49	6.88	-50.1	-52.1	15.9	6.07e-01	0	22	0	75497472	69	4405
2026-01-11 11:06:50.69	147.48	6.96	-50.1	-52.1	15.9	6.08e-01	0	23	0	77594624	69	4408
2026-01-11 11:06:51.69	147.47	7.05	-50.2	-52.2	15.8	6.06e-01	0	23	0	79167488	69	4490
2026-01-11 11:06:52.70	147.47	7.13	-50.0	-52.0	15.9	6.07e-01	0	23	0	81264640	69	4346
2026-01-11 11:06:53.71	147.46	7.21	-49.9	-51.9	15.8	6.06e-01	0	23	0	83361792	68	4563
2026-01-11 11:06:54.71	147.45	7.29	-50.0	-52.0	15.7	6.05e-01	0	23	0	84934656	68	4629
2026-01-11 11:06:55.72	147.45	7.38	-50.0	-52.0	15.7	6.06e-01	0	23	0	87031808	68	4603
2026-01-11 11:06:56.72	147.44	7.46	-49.8	-51.8	15.8	6.07e-01	0	23	0	88604672	68	4515
2026-01-11 11:06:57.73	147.43	7.55	-49.8	-51.7	15.8	6.09e-01	0	23	0	90701824	68	4493
2026-01-11 11:06:58.74	147.42	7.63	-49.7	-51.7	15.9	6.07e-01	0	23	0	92798976	68	4449
2026-01-11 11:06:59.74	147.42	7.72	-49.7	-51.6	15.9	6.06e-01	0	23	0	94371840	68	4431
2026-01-11 11:07:00.75	147.41	7.80	-49.8	-51.7	15.9	6.06e-01	0	23	0	96468992	68	4467
2026-01-11 11:07:01.75	147.40	7.89	-49.8	-51.7	15.8	6.06e-01	0	23	0	98041856	68	4486
2026-01-11 11:07:02.76	147.39	7.97	-49.8	-51.7	15.8	6.03e-01	0	23	0	100139008	68	4466
2026-01-11 11:07:03.76	147.38	8.06	-49.7	-51.6	15.9	6.04e-01	0	23	0	102236160	68	4417
2026-01-11 11:07:04.77	147.38	8.14	-49.8	-51.7	15.9	6.08e-01	0	22	0	103809024	68	4466
2026-01-11 11:07:05.78	147.37	8.23	-49.8	-51.7	15.8	6.06e-01	0	22	0	105906176	68	4474
2026-01-11 11:07:06.79	147.36	8.32	-49.7	-51.6	15.9	6.08e-01	0	23	0	107479040	68	4397
2026-01-11 11:07:07.80	147.35	8.41	-49.7	-51.6	15.9	6.07e-01	0	23	0	109576192	68	4394
2026-01-11 11:07:08.69	147.34	8.48	-49.6	-51.5	15.9	6.06e-01	0	23	0	111673344	68	4378
2026-01-11 11:07:09.75	147.34	8.58	-49.7	-51.6	15.9	6.06e-01	0	23	0	113246208	68	4432
2026-01-11 11:07:10.62	147.33	8.65	-49.6	-51.5	15.9	6.09e-01	0	23	0	115343360	68	4362
2026-01-11 11:07:11.78	147.32	8.76	-49.6	-51.5	15.9	6.03e-01	0	23	0	117440512	68	4378
2026-01-11 11:07:12.64	147.31	8.83	-49.6	-51.4	16.0	6.07e-01	0	23	0	119013376	68	4336
2026-01-11 11:07:13.80	147.30	8.93	-49.6	-51.5	16.0	6.06e-01	0	23	0	121110528	68	4346
2026-01-11 11:07:14.66	147.29	9.01	-49.5	-51.3	16.0	6.09e-01	0	23	0	122683392	68	4275
2026-01-11 11:07:15.81	147.28	9.11	-49.5	-51.4	16.0	6.07e-01	0	23	0	124780544	68	4292
2026-01-11 11:07:16.68	147.28	9.19	-49.5	-51.3	16.0	6.04e-01	0	23	0	126353408	68	4282
2026-01-11 11:07:17.83	147.27	9.30	-49.4	-51.3	16.1	6.05e-01	0	23	0	128450560	68	4243
2026-01-11 11:07:18.70	147.26	9.38	-49.4	-51.2	16.1	6.08e-01	0	23	0	130023424	68	4232
2026-01-11 11:07:19.85	147.25	9.48	-49.5	-51.4	16.0	6.05e-01	0	23	0	132644864	68	4302
2026-01-11 11:07:20.71	147.24	9.56	-49.4	-51.2	16.1	6.07e-01	0	23	0	134217728	68	4214
2026-01-11 11:07:21.87	147.23	9.67	-49.3	-51.1	15.9	6.06e-01	0	23	0	136314880	67	4431
2026-01-11 11:07:22.73	147.22	9.74	-49.3	-51.2	15.9	6.07e-01	0	23	0	137887744	67	4450
2026-01-11 11:07:23.88	147.21	9.85	-49.3	-51.1	15.9	6.07e-01	0	23	0	139984896	67	4417
2026-01-11 11:07:24.74	147.20	9.93	-49.3	-51.1	15.9	6.08e-01	0	23	0	141557760	67	4439
2026-01-11 11:07:25.90	147.19	10.04	-49.3	-51.1	15.9	6.05e-01	0	23	0	143654912	67	4440
2026-01-11 11:07:26.76	147.18	10.12	-49.2	-51.0	15.9	6.06e-01	0	23	0	145227776	67	4382
2026-01-11 11:07:27.92	147.17	10.23	-49.2	-51.0	15.9	6.05e-01	0	23	0	147324928	67	4376
2026-01-11 11:07:28.79	147.16	10.31	-49.2	-51.0	15.9	6.06e-01	0	23	0	148897792	67	4376
2026-01-11 11:07:29.94	147.15	10.42	-49.3	-51.1	15.9	6.05e-01	0	23	0	151519232	67	4406
2026-01-11 11:07:30.81	147.14	10.50	-49.2	-51.0	15.9	6.06e-01	0	23	0	153092096	67	4361
2026-01-11 11:07:31.96	147.13	10.61	-49.2	-51.0	16.0	6.05e-01	0	23	0	155189248	67	4341
2026-01-11 11:07:32.82	147.12	10.70	-49.1	-50.9	16.0	6.07e-01	0	23	0	156762112	67	4324
2026-01-11 11:07:33.97	147.11	10.81	-49.2	-51.0	16.0	6.06e-01	0	23	0	158859264	67	4341
2026-01-11 11:07:34.84	147.10	10.89	-49.0	-50.8	16.0	6.06e-01	0	23	0	160432128	67	4263
2026-01-11 11:07:35.99	147.09	11.00	-49.1	-50.8	16.0	6.05e-01	0	23	0	162529280	67	4279
2026-01-11 11:07:36.85	147.08	11.09	-49.1	-50.8	16.0	6.06e-01	0	23	0	164102144	67	4283
2026-01-11 11:07:38.00	147.07	11.20	-49.1	-50.8	16.0	6.07e-01	0	23	0	166723584	67	4287
2026-01-11 11:07:38.87	147.06	11.29	-49.0	-50.8	16.0	6.06e-01	0	23	0	168296448	67	4261
2026-01-11 11:07:40.01	147.05	11.40	-49.1	-50.8	16.0	6.07e-01	0	23	0	170393600	67	4270
2026-01-11 11:07:40.87	147.04	11.49	-49.0	-50.8	16.0	6.06e-01	0	23	0	171966464	67	4257
2026-01-11 11:07:42.03	147.02	11.60	-48.9	-50.7	16.1	6.06e-01	0	23	0	174063616	67	4201
2026-01-11 11:07:42.89	147.01	11.69	-48.9	-50.6	16.0	6.07e-01	0	23	0	175636480	67	4192
2026-01-11 11:07:44.05	147.00	11.81	-48.9	-50.6	16.1	6.06e-01	0	23	0	177733632	67	4186
2026-01-11 11:07:44.91	146.99	11.89	-48.9	-50.6	16.1	6.07e-01	0	23	0	179306496	67	4173
2026-01-11 11:07:46.07	146.98	12.01	-48.9	-50.6	16.1	6.05e-01	0	23	0	181403648	67	4189
2026-01-11 11:07:46.93	146.97	12.10	-48.8	-50.5	15.9	6.05e-01	0	23	0	182976512	66	4385
2026-01-11 11:07:48.08	146.95	12.22	-48.9	-50.6	15.9	6.05e-01	0	23	0	185073664	66	4417
2026-01-11 11:07:48.95	146.94	12.31	-48.9	-50.6	15.9	6.06e-01	0	23	0	187170816	66	4435
2026-01-11 11:07:50.10	146.93	12.43	-48.9	-50.7	15.9	6.05e-01	0	23	0	189267968	66	4442
2026-01-11 11:07:50.96	146.92	12.52	-48.9	-50.6	15.9	6.07e-01	0	23	0	190840832	66	4429
2026-01-11 11:07:52.12	146.90	12.64	-48.9	-50.6	15.9	6.07e-01	0	23	0	192937984	66	4414
2026-01-11 11:07:52.98	146.89	12.73	-48.9	-50.6	15.9	6.07e-01	0	23	0	194510848	66	4417
2026-01-11 11:07:54.13	146.88	12.85	-48.9	-50.6	15.9	6.04e-01	0	23	0	196608000	66	4404
2026-01-11 11:07:54.99	146.87	12.94	-48.9	-50.7	15.9	6.06e-01	0	23	0	198180864	66	4452
2026-01-11 11:07:56.15	146.85	13.07	-48.8	-50.5	15.9	6.06e-01	0	23	0	200278016	66	4385
2026-01-11 11:07:57.02	146.84	13.16	-48.7	-50.5	15.9	6.09e-01	0	23	0	202375168	66	4342
2026-01-11 11:07:58.17	146.83	13.29	-48.7	-50.4	15.9	6.05e-01	0	23	0	204472320	66	4328
2026-01-11 11:07:59.04	146.82	13.38	-48.7	-50.4	16.0	6.06e-01	0	23	0	206045184	66	4301
2026-01-11 11:08:00.19	146.80	13.51	-48.8	-50.5	15.9	6.05e-01	0	23	0	208142336	66	4361
2026-01-11 11:08:01.05	146.79	13.60	-48.7	-50.4	15.9	6.08e-01	0	23	0	209715200	66	4334
2026-01-11 11:08:02.21	146.77	13.73	-48.7	-50.3	16.0	6.07e-01	0	23	0	211812352	66	4274
2026-01-11 11:08:03.07	146.76	13.82	-48.7	-50.4	16.0	6.07e-01	0	23	0	213385216	66	4300
2026-01-11 11:08:04.22	146.75	13.95	-48.6	-50.3	16.0	6.07e-01	0	23	0	215482368	66	4252
2026-01-11 11:08:05.09	146.73	14.05	-48.7	-50.4	16.0	6.06e-01	0	23	0	217055232	66	4298
2026-01-11 11:08:06.24	146.72	14.18	-48.5	-50.2	16.0	6.06e-01	0	23	0	219152384	66	4214
2026-01-11 11:08:07.11	146.70	14.28	-48.6	-50.2	16.0	6.08e-01	0	23	0	221249536	66	4224
2026-01-11 11:08:08.26	146.69	14.41	-48.6	-50.2	16.0	6.08e-01	0	23	0	223346688	66	4226
2026-01-11 11:08:09.12	146.67	14.51	-48.5	-50.2	16.0	6.05e-01	0	23	0	224919552	66	4206
2026-01-11 11:08:10.27	146.66	14.64	-48.4	-50.1	16.1	6.08e-01	0	23	0	227016704	66	4159
2026-01-11 11:08:11.14	146.65	14.74	-48.5	-50.1	16.1	6.08e-01	0	23	0	228589568	66	4161
2026-01-11 11:08:12.30	146.63	14.88	-48.4	-50.1	16.1	6.08e-01	0	23	0	230686720	66	4155
2026-01-11 11:08:13.16	146.61	14.98	-48.4	-50.0	16.1	6.05e-01	0	23	0	232259584	66	4130
2026-01-11 11:08:14.32	146.60	15.11	-48.5	-50.1	16.1	6.04e-01	0	23	0	234356736	66	4188
2026-01-11 11:08:15.18	146.58	15.21	-48.4	-50.1	16.1	6.07e-01	0	23	0	235929600	66	4155
2026-01-11 11:08:16.33	146.57	15.35	-48.5	-50.2	16.0	6.08e-01	0	23	0	238551040	66	4195
2026-01-11 11:08:17.20	146.55	15.45	-48.5	-50.1	16.1	6.07e-01	0	23	0	240123904	66	4176
2026-01-11 11:08:18.35	146.53	15.59	-48.5	-50.2	16.1	6.07e-01	0	23	0	242221056	66	4202
2026-01-11 11:08:19.21	146.52	15.70	-48.5	-50.2	16.0	6.06e-01	0	23	0	243793920	66	4204
2026-01-11 11:08:20.37	146.50	15.84	-48.7	-50.3	16.0	6.08e-01	0	23	0	245891072	66	4279
2026-01-11 11:08:21.23	146.49	15.94	-48.6	-50.3	16.0	6.08e-01	0	23	0	247463936	66	4244
2026-01-11 11:08:22.38	146.47	16.08	-48.6	-50.3	16.0	6.06e-01	0	23	0	249561088	66	4255
2026-01-11 11:08:23.24	146.45	16.19	-48.7	-50.3	16.0	6.07e-01	0	23	0	251133952	66	4268
2026-01-11 11:08:24.39	146.43	16.33	-48.7	-50.3	16.0	6.06e-01	0	23	0	253231104	66	4276
2026-01-11 11:08:25.25	146.42	16.44	-48.7	-50.4	15.9	6.07e-01	0	23	0	255328256	66	4316
2026-01-11 11:08:26.40	146.40	16.58	-48.6	-50.3	16.0	6.06e-01	0	23	0	257425408	66	4266
2026-01-11 11:08:27.27	146.38	16.69	-48.7	-50.4	15.9	6.07e-01	0	23	0	258998272	66	4295
2026-01-11 11:08:28.43	146.36	16.84	-48.7	-50.3	16.0	6.04e-01	0	23	0	261095424	66	4266
2026-01-11 11:08:29.29	146.35	16.95	-48.7	-50.4	16.0	6.07e-01	0	23	0	262668288	66	4302
2026-01-11 11:08:30.44	146.32	17.10	-48.6	-50.3	16.0	6.05e-01	0	23	0	264765440	66	4262
2026-01-11 11:08:31.31	146.31	17.21	-48.6	-50.3	16.0	6.06e-01	0	23	0	266338304	66	4263
2026-01-11 11:08:32.45	146.29	17.36	-48.7	-50.3	16.0	6.05e-01	0	23	0	268435456	66	4282
2026-01-11 11:08:33.31	146.27	17.47	-48.6	-50.3	16.0	6.07e-01	0	23	0	270008320	66	4248
2026-01-11 11:08:34.46	146.25	17.62	-48.6	-50.3	16.0	6.05e-01	0	23	0	272105472	66	4251
2026-01-11 11:08:35.33	146.23	17.74	-48.6	-50.2	16.0	6.07e-01	0	23	0	273678336	66	4211
2026-01-11 11:08:36.48	146.21	17.89	-48.5	-50.1	16.1	6.08e-01	0	23	0	276299776	66	4189
2026-01-11 11:08:37.34	146.19	18.00	-48.6	-50.2	16.0	6.07e-01	0	23	0	277872640	66	4214
2026-01-11 11:08:38.50	146.17	18.16	-48.6	-50.2	16.0	6.06e-01	0	23	0	279969792	66	4231
2026-01-11 11:08:39.36	146.15	18.28	-48.6	-50.2	16.0	6.06e-01	0	23	0	281542656	66	4216
2026-01-11 11:08:40.50	146.13	18.43	-48.7	-50.3	16.0	6.07e-01	0	23	0	283639808	66	4265
2026-01-11 11:08:41.37	146.11	18.55	-48.7	-50.4	15.9	6.06e-01	0	23	0	285212672	66	4307
2026-01-11 11:08:42.52	146.09	18.71	-48.7	-50.4	15.9	6.06e-01	0	23	0	287309824	66	4313
2026-01-11 11:08:43.38	146.07	18.83	-48.8	-50.5	15.9	6.07e-01	0	23	0	288882688	66	4360
2026-01-11 11:08:44.54	146.05	18.99	-48.9	-50.5	15.9	6.07e-01	0	23	0	290979840	66	4383
2026-01-11 11:08:45.40	146.03	19.11	-48.9	-50.5	15.9	6.07e-01	0	23	0	293076992	66	4386
2026-01-11 11:08:46.55	146.00	19.27	-49.0	-50.6	15.9	6.07e-01	0	23	0	295174144	66	4434
2026-01-11 11:08:47.41	145.98	19.40	-49.0	-50.8	15.8	6.09e-01	0	23	0	296747008	66	4497
2026-01-11 11:08:48.56	145.96	19.56	-49.0	-50.7	15.9	6.07e-01	0	23	0	298844160	66	4451
2026-01-11 11:08:49.42	145.94	19.69	-49.1	-50.8	15.8	6.08e-01	0	23	0	300417024	66	4495
2026-01-11 11:08:50.57	145.91	19.85	-48.9	-50.6	15.9	6.08e-01	0	23	0	302514176	66	4412
2026-01-11 11:08:51.44	145.89	19.98	-49.0	-50.7	15.8	6.06e-01	0	23	0	304087040	66	4469
2026-01-11 11:08:52.59	145.86	20.15	-49.0	-50.7	15.8	6.07e-01	0	23	0	306184192	66	4455
2026-01-11 11:08:53.46	145.84	20.28	-48.9	-50.5	15.9	6.07e-01	0	23	0	307757056	66	4379
2026-01-11 11:08:54.61	145.82	20.45	-48.7	-50.4	15.9	6.05e-01	0	23	0	309854208	66	4319
2026-01-11 11:08:55.47	145.80	20.58	-48.7	-50.4	16.0	6.06e-01	0	23	0	311951360	66	4298
2026-01-11 11:08:56.62	145.77	20.75	-48.8	-50.5	15.9	6.07e-01	0	23	0	314048512	66	4341
2026-01-11 11:08:57.49	145.75	20.88	-48.7	-50.3	16.0	6.08e-01	0	23	0	315621376	66	4286
2026-01-11 11:08:58.64	145.72	21.06	-48.7	-50.4	16.0	6.07e-01	0	23	0	317718528	66	4310
2026-01-11 11:08:59.51	145.70	21.19	-48.8	-50.5	15.9	6.08e-01	0	23	0	319291392	66	4347
2026-01-11 11:09:00.66	145.67	21.37	-48.9	-50.6	15.9	6.08e-01	0	23	0	321388544	66	4403
2026-01-11 11:09:01.53	145.64	21.50	-49.0	-50.7	15.8	6.05e-01	0	23	0	322961408	66	4456
2026-01-11 11:09:02.68	145.61	21.69	-49.0	-50.7	15.8	6.05e-01	0	23	0	325058560	66	4443
2026-01-11 11:09:03.55	145.59	21.82	-49.1	-50.8	15.8	6.08e-01	0	23	0	326631424	66	4518
2026-01-11 11:09:04.70	145.56	22.01	-49.1	-50.8	15.8	6.06e-01	0	23	0	328728576	66	4520
2026-01-11 11:09:05.56	145.54	22.14	-48.9	-50.6	15.9	6.07e-01	0	23	0	330825728	66	4395
2026-01-11 11:09:06.71	145.50	22.33	-49.0	-50.6	15.8	6.04e-01	0	23	0	332922880	66	4432
2026-01-11 11:09:07.57	145.48	22.47	-48.9	-50.5	15.9	6.06e-01	0	23	0	334495744	66	4386
2026-01-11 11:09:08.72	145.45	22.66	-48.8	-50.5	15.9	6.07e-01	0	23	0	336592896	66	4357
2026-01-11 11:09:09.58	145.42	22.80	-48.9	-50.6	15.9	6.05e-01	0	23	0	338165760	66	4404
2026-01-11 11:09:10.74	145.39	22.99	-48.8	-50.5	15.9	6.06e-01	0	23	0	340262912	66	4344
2026-01-11 11:09:11.60	145.36	23.13	-48.9	-50.5	15.9	6.07e-01	0	23	0	341835776	66	4369
2026-01-11 11:09:12.76	145.33	23.33	-48.9	-50.5	15.9	6.08e-01	0	23	0	343932928	66	4386
2026-01-11 11:09:13.62	145.30	23.47	-49.0	-50.6	15.8	6.07e-01	0	23	0	345505792	66	4438
2026-01-11 11:09:14.77	145.27	23.67	-49.0	-50.6	15.8	6.06e-01	0	23	0	348127232	66	4439
2026-01-11 11:09:15.64	145.24	23.82	-49.0	-50.6	15.8	6.05e-01	0	23	0	349700096	66	4421
2026-01-11 11:09:16.79	145.21	24.02	-48.9	-50.6	15.9	6.07e-01	0	23	0	351797248	66	4394
2026-01-11 11:09:17.65	145.18	24.17	-48.9	-50.6	15.9	6.06e-01	0	23	0	353370112	66	4413
2026-01-11 11:09:18.80	145.14	24.37	-48.9	-50.5	15.9	6.07e-01	0	23	0	355467264	66	4375
2026-01-11 11:09:19.67	145.11	24.52	-48.8	-50.5	15.9	6.08e-01	0	23	0	357040128	66	4343
2026-01-11 11:09:20.81	145.08	24.73	-48.8	-50.4	15.9	6.07e-01	0	23	0	359137280	66	4325
2026-01-11 11:09:21.67	145.05	24.88	-48.8	-50.4	15.9	6.07e-01	0	23	0	360710144	66	4321
2026-01-11 11:09:22.83	145.01	25.09	-48.8	-50.4	15.9	6.08e-01	0	23	0	362807296	66	4328
2026-01-11 11:09:23.69	144.98	25.25	-48.8	-50.4	15.9	6.08e-01	0	23	0	364380160	66	4302
2026-01-11 11:09:24.85	144.94	25.46	-48.9	-50.5	15.9	6.07e-01	0	23	0	367001600	66	4387
2026-01-11 11:09:25.71	144.91	25.62	-48.8	-50.4	15.9	6.06e-01	0	23	0	368574464	66	4336
2026-01-11 11:09:26.87	144.87	25.84	-48.8	-50.4	15.9	6.06e-01	0	23	0	370671616	66	4309
2026-01-11 11:09:27.73	144.84	26.00	-48.7	-50.4	16.0	6.07e-01	0	23	0	372244480	66	4298
2026-01-11 11:09:28.88	144.79	26.21	-48.9	-50.6	15.9	6.07e-01	0	23	0	374341632	66	4394
2026-01-11 11:09:29.74	144.76	26.38	-48.8	-50.5	15.9	6.06e-01	0	23	0	375914496	66	4346
2026-01-11 11:09:30.89	144.72	26.60	-48.9	-50.6	15.9	6.06e-01	0	23	0	378011648	66	4415
2026-01-11 11:09:31.75	144.68	26.77	-48.9	-50.5	15.9	6.08e-01	0	23	0	379584512	66	4382
2026-01-11 11:09:32.90	144.64	26.99	-48.7	-50.3	16.0	6.07e-01	0	23	0	381681664	66	4286
2026-01-11 11:09:33.76	144.61	27.16	-48.7	-50.3	15.9	6.07e-01	0	23	0	383778816	66	4286
2026-01-11 11:09:34.90	144.56	27.38	-48.8	-50.4	15.9	6.08e-01	0	23	0	385875968	66	4304
2026-01-11 11:09:35.75	144.53	27.55	-48.9	-60.1	3.9	7.45e-01	0	23	104	385875968	66	13218
2026-01-11 11:09:36.86	144.48	27.78	-48.9	-60.2	3.8	7.44e-01	0	23	104	385875968	66	13316
2026-01-11 11:09:37.70	144.45	27.95	-48.8	-59.9	3.8	7.44e-01	0	23	104	385875968	66	12871
2026-01-11 11:09:38.82	144.40	28.18	-50.5	-62.0	3.8	7.47e-01	0	23	104	385875968	68	14672
2026-01-11 11:09:39.66	144.36	28.35	-53.9	-66.4	3.8	7.45e-01	0	23	104	385875968	75	16241
2026-01-11 11:09:40.76	144.32	28.58	-54.7	-67.6	3.8	7.46e-01	0	23	104	385875968	77	16674
2026-01-11 11:09:41.60	144.28	28.75	-50.0	-61.4	3.8	7.49e-01	0	23	104	385875968	68	13661
2026-01-11 11:09:42.70	144.23	28.98	-49.6	-61.0	3.8	7.48e-01	0	23	104	385875968	68	12978
2026-01-11 11:09:43.53	144.19	29.16	-49.6	-61.0	3.8	7.47e-01	0	23	104	385875968	68	13003
2026-01-11 11:09:44.64	144.14	29.40	-49.3	-60.7	3.9	7.46e-01	0	23	104	385875968	67	13262
2026-01-11 11:09:45.48	144.10	29.58	-50.4	-61.9	3.8	7.49e-01	0	23	104	385875968	68	14380
2026-01-11 11:09:46.59	144.05	29.82	-51.0	-62.4	3.9	7.43e-01	0	23	104	385875968	69	14501
2026-01-11 11:09:47.42	144.01	30.00	-49.8	-61.1	3.9	7.50e-01	0	23	104	385875968	67	14015
2026-01-11 11:09:48.52	143.96	30.24	-53.6	-65.8	3.9	7.47e-01	0	23	104	385875968	75	15138
2026-01-11 11:09:49.35	143.92	30.43	-49.9	-61.4	3.8	7.50e-01	0	23	104	385875968	69	12857
2026-01-11 11:09:50.45	143.86	30.67	-49.0	-60.1	4.1	7.33e-01	0	23	104	385875968	67	12391
2026-01-11 11:09:51.28	143.82	30.86	-48.8	-59.9	4.0	7.37e-01	0	23	104	385875968	66	12855
2026-01-11 11:09:52.38	143.76	31.11	-48.8	-59.9	4.0	7.39e-01	0	23	104	385875968	66	12870
2026-01-11 11:09:53.21	143.72	31.30	-48.7	-59.8	4.3	7.25e-01	0	23	104	385875968	66	12665
2026-01-11 11:09:54.31	143.66	31.56	-48.7	-59.8	3.6	7.55e-01	0	23	104	385875968	66	12714
2026-01-11 11:09:55.14	143.62	31.75	-49.1	-60.3	3.7	7.55e-01	0	23	104	385875968	67	12724
2026-01-11 11:09:56.25	143.55	32.01	-53.2	-65.0	3.8	7.45e-01	0	23	104	385875968	75	13769
2026-01-11 11:09:57.08	143.51	32.21	-52.7	-64.5	3.9	7.44e-01	0	23	104	385875968	74	13798
2026-01-11 11:09:58.18	143.45	32.47	-50.9	-62.5	3.9	7.47e-01	0	23	104	385875968	71	13029
2026-01-11 11:09:59.01	143.40	32.67	-49.0	-60.2	3.8	7.45e-01	0	23	104	385875968	67	12642
2026-01-11 11:10:00.12	143.33	32.94	-49.0	-60.2	3.8	7.45e-01	0	23	104	385875968	67	12567
2026-01-11 11:10:00.95	143.28	33.14	-49.0	-60.2	3.8	7.47e-01	0	23	104	385875968	67	12584
2026-01-11 11:10:02.05	143.22	33.41	-50.2	-61.6	3.8	7.46e-01	0	23	104	385875968	68	13964
2026-01-11 11:10:02.88	143.17	33.62	-50.5	-61.9	3.8	7.47e-01	0	24	104	385875968	68	14484
2026-01-11 11:10:03.99	143.10	33.90	-54.9	-67.9	3.8	7.46e-01	0	23	104	385875968	77	17254
2026-01-11 11:10:04.82	143.05	34.11	-54.9	-67.8	3.9	7.47e-01	0	23	104	385875968	77	17003
2026-01-11 11:10:05.92	142.98	34.39	-52.7	-64.7	3.8	7.46e-01	0	23	104	385875968	73	14914
2026-01-11 11:10:06.75	142.92	34.60	-49.9	-61.2	3.9	7.43e-01	0	23	104	385875968	69	12529
2026-01-11 11:10:07.85	142.85	34.89	-49.8	-61.1	3.8	7.48e-01	0	23	104	385875968	68	13135
2026-01-11 11:10:08.68	142.79	35.11	-49.9	-61.3	3.8	7.46e-01	0	23	104	385875968	68	13448
2026-01-11 11:10:09.78	142.72	35.40	-50.5	-62.0	3.8	7.44e-01	0	24	104	385875968	68	14631
2026-01-11 11:10:10.61	142.66	35.62	-50.5	-61.9	3.8	7.47e-01	0	23	104	385875968	68	14514
2026-01-11 11:10:11.72	142.58	35.91	-55.4	-68.6	3.8	7.49e-01	0	24	104	385875968	78	17679
2026-01-11 11:10:12.55	142.52	36.14	-54.4	-67.0	3.8	7.46e-01	0	23	104	385875968	77	15509
2026-01-11 11:10:13.66	142.44	36.44	-52.3	-64.2	3.8	7.42e-01	0	24	104	385875968	72	14981
2026-01-11 11:10:14.49	142.38	36.67	-51.1	-62.7	3.8	7.42e-01	0	23	104	385875968	71	13370
2026-01-11 11:10:15.59	142.29	36.97	-50.5	-61.9	3.8	7.48e-01	0	24	104	385875968	70	12822
2026-01-11 11:10:16.42	142.23	37.21	-50.5	-61.9	3.8	7.49e-01	0	23	104	385875968	70	12916
2026-01-11 11:10:17.52	142.14	37.52	-51.2	-62.8	3.8	7.46e-01	0	24	104	385875968	70	14233
2026-01-11 11:10:18.35	142.08	37.75	-50.7	-62.4	3.9	7.46e-01	0	24	104	385875968	70	13581
2026-01-11 11:10:19.46	141.99	38.07	-53.5	-65.6	3.8	7.47e-01	0	24	104	385875968	74	15695
2026-01-11 11:10:20.30	141.92	38.31	-54.7	-67.5	3.8	7.45e-01	0	23	104	385875968	78	15447
2026-01-11 11:10:21.40	141.82	38.63	-50.8	-62.4	3.8	7.45e-01	0	24	104	385875968	70	13604
2026-01-11 11:10:22.23	141.75	38.88	-52.8	-64.9	3.9	7.42e-01	0	24	104	385875968	75	13648
2026-01-11 11:10:23.34	141.65	39.21	-50.9	-62.4	3.8	7.46e-01	0	24	104	385875968	71	12939
2026-01-11 11:10:24.17	141.58	39.46	-51.1	-62.6	3.8	7.43e-01	0	24	104	385875968	71	13213
2026-01-11 11:10:25.27	141.48	39.79	-51.3	-62.9	3.8	7.49e-01	0	24	104	385875968	71	13604
2026-01-11 11:10:26.11	141.40	40.04	-52.2	-64.1	3.8	7.44e-01	0	24	104	385875968	73	13917
2026-01-11 11:10:27.21	141.30	40.38	-50.7	-62.1	3.8	7.44e-01	0	24	104	385875968	70	13250
2026-01-11 11:10:28.04	141.22	40.64	-55.5	-68.9	3.9	7.44e-01	0	24	104	385875968	79	17223
2026-01-11 11:10:29.15	141.11	40.99	-52.4	-64.4	3.9	7.43e-01	0	23	104	385875968	74	13577
2026-01-11 11:10:29.98	141.02	41.25	-53.8	-66.3	3.8	7.46e-01	0	24	104	385875968	75	16104
2026-01-11 11:10:31.09	140.91	41.60	-50.6	-62.1	3.8	7.44e-01	0	24	104	385875968	70	13154
2026-01-11 11:10:31.92	140.82	41.87	-50.5	-61.9	3.8	7.46e-01	0	23	104	385875968	70	12947
2026-01-11 11:10:33.02	140.71	42.22	-50.4	-61.8	3.8	7.43e-01	0	24	104	385875968	69	13538
2026-01-11 11:10:33.85	140.62	42.49	-52.8	-64.8	3.8	7.48e-01	0	24	104	385875968	73	15136
2026-01-11 11:10:34.95	140.49	42.86	-50.6	-62.1	3.8	7.43e-01	0	24	104	385875968	69	13926
2026-01-11 11:10:35.78	140.40	43.13	-55.7	-69.3	3.8	7.45e-01	0	24	104	385875968	79	17996
2026-01-11 11:10:36.89	140.27	43.50	-54.8	-67.6	3.8	7.43e-01	0	24	104	385875968	77	16674
2026-01-11 11:10:37.71	140.17	43.78	-52.8	-64.9	3.8	7.45e-01	0	24	104	385875968	73	15242
2026-01-11 11:10:38.82	140.04	44.16	-50.0	-61.4	3.8	7.45e-01	0	24	104	385875968	69	12944
2026-01-11 11:10:39.65	139.94	44.44	-50.1	-61.4	3.9	7.48e-01	0	24	104	385875968	69	12891
2026-01-11 11:10:40.74	139.80	44.82	-49.8	-61.1	3.8	7.45e-01	0	24	104	385875968	68	13215
2026-01-11 11:10:41.58	139.69	45.11	-49.9	-61.3	3.8	7.46e-01	0	24	104	385875968	68	13422
2026-01-11 11:10:42.68	139.54	45.50	-49.8	-61.3	3.8	7.44e-01	0	23	104	385875968	68	13418
2026-01-11 11:10:43.50	139.43	45.79	-53.7	-66.3	3.8	7.46e-01	0	24	104	385875968	75	16042
2026-01-11 11:10:44.61	139.28	46.19	-54.4	-66.9	3.8	7.47e-01	0	24	104	385875968	77	15268
2026-01-11 11:10:45.44	139.16	46.49	-49.7	-61.0	3.9	7.45e-01	0	24	104	385875968	68	13022
2026-01-11 11:10:46.54	139.00	46.89	-50.3	-61.8	3.9	7.47e-01	0	24	104	385875968	69	13534
2026-01-11 11:10:47.37	138.88	47.19	-49.9	-61.2	3.8	7.49e-01	0	24	104	385875968	69	12652
2026-01-11 11:10:48.47	138.71	47.60	-49.3	-60.5	3.8	7.45e-01	0	24	104	385875968	67	13038
2026-01-11 11:10:49.30	138.58	47.91	-50.6	-62.2	3.8	7.45e-01	0	24	104	385875968	68	14903
2026-01-11 11:10:50.41	138.41	48.33	-50.0	-61.5	3.9	7.45e-01	0	24	104	385875968	69	12964
2026-01-11 11:10:51.24	138.27	48.64	-49.6	-60.8	3.8	7.49e-01	0	24	104	385875968	68	12777
2026-01-11 11:10:52.34	138.09	49.06	-54.3	-66.5	3.8	7.45e-01	0	24	104	385875968	77	14644
2026-01-11 11:10:53.18	137.95	49.38	-51.3	-62.5	3.9	7.51e-01	0	23	104	385875968	71	13068
2026-01-11 11:10:54.28	137.75	49.81	-51.6	-63.4	3.9	7.43e-01	0	24	104	385875968	72	13618
2026-01-11 11:10:55.11	137.60	50.14	-49.6	-61.0	3.8	7.44e-01	0	24	104	385875968	68	12989
2026-01-11 11:10:56.22	137.40	50.57	-49.3	-60.6	3.9	7.47e-01	0	24	104	385875968	67	13114
2026-01-11 11:10:57.05	137.24	50.90	-49.5	-60.8	3.8	7.45e-01	0	23	104	385875968	67	13545
2026-01-11 11:10:58.16	137.02	51.35	-52.1	-64.0	3.8	7.47e-01	0	24	104	385875968	73	13855
2026-01-11 11:10:58.99	136.86	51.68	-49.1	-60.3	3.8	7.45e-01	0	24	104	385875968	67	12755
2026-01-11 11:11:00.10	136.63	52.14	-54.7	-67.4	3.9	7.45e-01	0	24	104	385875968	78	15287
2026-01-11 11:11:00.93	136.45	52.48	-54.0	-66.6	3.9	7.47e-01	0	24	104	385875968	76	15600
2026-01-11 11:11:02.04	136.21	52.94	-53.1	-65.2	3.9	7.46e-01	0	24	104	385875968	75	14051
2026-01-11 11:11:02.87	136.03	53.28	-49.0	-60.2	3.8	7.47e-01	0	24	104	385875968	67	12585
2026-01-11 11:11:03.98	135.77	53.75	-48.6	-59.8	3.8	7.46e-01	0	24	104	385875968	66	12713
2026-01-11 11:11:04.81	135.57	54.10	-48.7	-59.9	3.8	7.46e-01	0	24	104	385875968	66	12883
2026-01-11 11:11:05.91	135.30	54.56	-52.0	-63.8	3.8	7.46e-01	0	24	104	385875968	72	14331
2026-01-11 11:11:06.74	135.10	54.92	-48.6	-59.8	3.9	7.43e-01	0	24	104	385875968	66	12671
2026-01-11 11:11:07.85	134.81	55.40	-55.8	-69.4	3.8	7.50e-01	0	24	104	385875968	79	18162
2026-01-11 11:11:08.68	134.59	55.76	-53.8	-66.0	3.8	7.43e-01	0	24	104	385875968	76	14683
2026-01-11 11:11:09.79	134.28	56.24	-53.9	-66.1	3.8	7.44e-01	0	24	104	385875968	75	15683
2026-01-11 11:11:10.62	134.05	56.61	-49.7	-61.0	3.8	7.47e-01	0	24	104	385875968	68	13098
2026-01-11 11:11:11.72	133.72	57.10	-49.4	-60.7	3.8	7.45e-01	0	24	104	385875968	68	12603
2026-01-11 11:11:12.55	133.47	57.47	-49.2	-60.3	3.9	7.44e-01	0	24	104	385875968	67	12802
2026-01-11 11:11:13.65	133.13	57.96	-52.6	-64.5	3.8	7.45e-01	0	24	104	385875968	72	15502
2026-01-11 11:11:14.48	132.86	58.33	-50.0	-61.4	3.8	7.45e-01	0	24	104	385875968	69	12821
2026-01-11 11:11:15.59	132.49	58.84	-55.8	-69.3	3.8	7.51e-01	0	24	104	385875968	79	17983
2026-01-11 11:11:16.41	132.21	59.21	-54.6	-67.1	3.8	7.46e-01	0	24	104	385875968	78	14794
2026-01-11 11:11:17.51	131.82	59.71	-51.8	-63.5	3.8	7.46e-01	0	24	104	385875968	71	14682
2026-01-11 11:11:18.35	131.51	60.10	-52.0	-63.8	3.8	7.44e-01	0	24	104	385875968	73	13475
2026-01-11 11:11:19.45	131.08	60.61	-50.2	-61.7	3.8	7.48e-01	0	24	104	385875968	69	13300
2026-01-11 11:11:20.28	130.75	61.00	-49.9	-61.2	3.8	7.44e-01	0	24	104	385875968	69	12548
2026-01-11 11:11:21.39	130.30	61.51	-51.1	-62.6	3.8	7.44e-01	0	24	104	385875968	69	14865
2026-01-11 11:11:22.23	129.94	61.91	-52.1	-63.9	3.9	7.43e-01	0	24	104	385875968	73	13722
2026-01-11 11:11:23.34	129.45	62.43	-52.2	-63.7	3.8	7.46e-01	0	24	104	385875968	71	15018
2026-01-11 11:11:24.17	129.06	62.82	-56.0	-69.5	3.9	7.44e-01	0	24	104	385875968	81	16375
2026-01-11 11:11:25.27	128.54	63.35	-51.6	-63.2	3.8	7.46e-01	0	24	104	385875968	72	13272
2026-01-11 11:11:26.10	128.12	63.74	-55.1	-68.0	3.9	7.44e-01	0	24	104	385875968	79	15542
2026-01-11 11:11:27.20	127.55	64.27	-51.6	-63.1	3.8	7.46e-01	0	24	104	385875968	72	13191
2026-01-11 11:11:28.03	127.10	64.66	-51.9	-63.5	3.8	7.47e-01	0	24	104	385875968	72	13797
2026-01-11 11:11:29.14	126.48	65.20	-52.2	-64.0	3.8	7.46e-01	0	24	104	385875968	72	14574
2026-01-11 11:11:29.97	125.99	65.60	-54.8	-67.6	3.9	7.45e-01	0	24	104	385875968	78	15605
2026-01-11 11:11:31.07	125.32	66.12	-52.7	-64.6	3.8	7.46e-01	0	24	104	385875968	74	13964
2026-01-11 11:11:31.90	124.78	66.52	-57.6	-73.6	3.8	7.48e-01	0	24	104	385875968	83	23558
2026-01-11 11:11:33.00	124.05	67.05	-55.6	-68.7	3.8	7.44e-01	0	24	104	385875968	80	15899
2026-01-11 11:11:33.83	123.47	67.45	-57.0	-71.9	3.8	7.49e-01	0	24	104	385875968	81	21560
2026-01-11 11:11:34.94	122.66	67.99	-53.0	-64.9	3.9	7.46e-01	0	24	104	385875968	75	13578
2026-01-11 11:11:35.77	122.02	68.38	-53.0	-65.0	3.8	7.47e-01	0	24	104	385875968	75	13836
2026-01-11 11:11:36.88	121.13	68.92	-53.1	-65.1	3.8	7.45e-01	0	24	104	385875968	75	13981
2026-01-11 11:11:37.71	120.43	69.31	-57.4	-72.8	3.8	7.43e-01	0	24	104	385875968	82	22768
2026-01-11 11:11:38.81	119.46	69.84	-52.6	-64.2	3.8	7.45e-01	0	24	104	385875968	74	13301
2026-01-11 11:11:39.65	118.68	70.23	-57.5	-73.1	3.9	7.49e-01	0	24	104	385875968	82	23369
2026-01-11 11:11:40.75	117.61	70.75	-56.2	-69.8	3.8	7.46e-01	0	24	104	385875968	81	17010
2026-01-11 11:11:41.58	116.75	71.14	-55.3	-68.5	3.8	7.47e-01	0	24	104	385875968	78	17432
2026-01-11 11:11:42.69	115.56	71.65	-52.5	-64.1	3.8	7.44e-01	0	24	104	385875968	74	13240
2026-01-11 11:11:43.52	114.61	72.04	-52.8	-64.8	3.8	7.48e-01	0	24	104	385875968	74	14369
2026-01-11 11:11:44.62	113.29	72.54	-52.8	-64.6	3.8	7.45e-01	0	24	104	385875968	74	13949
2026-01-11 11:11:45.46	112.23	72.91	-56.0	-69.3	3.8	7.44e-01	0	24	104	385875968	79	18020
2026-01-11 11:11:46.56	110.77	73.40	-53.1	-65.3	3.9	7.46e-01	0	24	104	385875968	75	14373
2026-01-11 11:11:47.39	109.60	73.76	-55.9	-69.2	3.8	7.48e-01	0	24	104	385875968	79	17845
2026-01-11 11:11:48.50	107.95	74.24	-56.2	-69.8	3.8	7.48e-01	0	24	104	385875968	81	17069
2026-01-11 11:11:49.33	106.65	74.58	-52.4	-64.3	3.8	7.47e-01	0	24	104	385875968	74	13421
2026-01-11 11:11:50.43	104.83	75.03	-53.6	-65.8	3.9	7.47e-01	0	24	104	385875968	76	14324
2026-01-11 11:11:51.26	103.38	75.36	-51.9	-63.3	3.8	7.43e-01	0	24	104	385875968	73	12707
2026-01-11 11:11:52.37	101.33	75.79	-52.3	-64.2	3.9	7.45e-01	0	24	104	385875968	72	15008
2026-01-11 11:11:53.20	99.72	76.10	-52.8	-64.9	3.8	7.44e-01	0	24	104	385875968	73	15255
2026-01-11 11:11:54.30	97.46	76.49	-53.8	-65.5	3.9	7.44e-01	0	24	104	385875968	76	13796
2026-01-11 11:11:55.13	95.67	76.77	-52.3	-64.0	3.8	7.46e-01	0	24	104	385875968	73	13880
2026-01-11 11:11:56.24	93.15	77.13	-56.7	-70.8	3.9	7.46e-01	0	24	104	385875968	82	18059
2026-01-11 11:11:57.07	91.18	77.38	-53.6	-65.5	3.9	7.42e-01	0	24	104	385875968	76	13781
2026-01-11 11:11:58.17	88.43	77.69	-55.5	-68.8	3.9	7.44e-01	0	24	104	385875968	80	16125
2026-01-11 11:11:59.00	86.27	77.91	-51.8	-63.5	3.9	7.46e-01	0	24	104	385875968	72	13822
2026-01-11 11:12:00.11	83.26	78.17	-51.1	-62.1	3.8	7.50e-01	0	24	104	385875968	71	12506
2026-01-11 11:12:00.94	80.92	78.34	-51.5	-63.5	3.9	7.47e-01	0	24	104	385875968	71	14620
2026-01-11 11:12:02.04	77.72	78.54	-55.9	-69.2	3.9	7.47e-01	0	24	104	385875968	81	15856
2026-01-11 11:12:02.87	75.23	78.67	-50.7	-62.0	3.8	7.42e-01	0	24	104	385875968	70	13089
2026-01-11 11:12:03.97	71.85	78.81	-57.4	-72.7	3.8	7.42e-01	0	24	104	385875968	83	21124
2026-01-11 11:12:04.80	69.25	78.88	-55.5	-68.6	3.8	7.41e-01	0	24	104	385875968	80	15752
2026-01-11 11:12:05.91	65.73	78.95	-56.3	-70.1	3.8	7.44e-01	0	24	104	385875968	80	18678
2026-01-11 11:12:06.74	63.08	78.97	-51.2	-62.5	3.8	7.44e-01	0	24	104	385875968	71	13080
2026-01-11 11:12:07.85	59.52	78.97	-51.2	-62.8	3.9	7.44e-01	0	24	104	385875968	71	13476
2026-01-11 11:12:08.68	56.87	78.94	-51.1	-62.6	3.9	7.43e-01	0	24	104	385875968	71	13241
2026-01-11 11:12:09.78	53.39	78.86	-56.9	-71.4	3.8	7.45e-01	0	24	104	385875968	81	20368
2026-01-11 11:12:10.61	50.81	78.78	-51.7	-63.3	3.9	7.48e-01	0	24	104	385875968	72	13454
2026-01-11 11:12:11.72	47.42	78.63	-58.0	-74.2	3.8	7.50e-01	0	24	104	385875968	83	25103
2026-01-11 11:12:12.55	44.96	78.50	-56.0	-69.3	3.8	7.46e-01	0	24	104	385875968	81	16048
2026-01-11 11:12:13.66	41.75	78.28	-55.7	-69.1	3.8	7.47e-01	0	24	104	385875968	79	17600
2026-01-11 11:12:14.49	39.44	78.10	-52.2	-64.0	3.9	7.45e-01	0	24	104	385875968	73	13767
2026-01-11 11:12:15.59	36.49	77.84	-51.5	-63.3	3.8	7.45e-01	0	24	104	385875968	71	14260
2026-01-11 11:12:16.42	34.36	77.62	-51.6	-63.1	3.9	7.44e-01	0	24	104	385875968	71	13950
2026-01-11 11:12:17.52	31.65	77.30	-57.3	-72.2	3.8	7.49e-01	0	24	104	385875968	82	21043
2026-01-11 11:12:18.35	29.71	77.04	-54.9	-67.5	3.9	7.47e-01	0	24	104	385875968	79	14657
2026-01-11 11:12:19.46	27.23	76.68	-57.3	-72.2	3.8	7.47e-01	0	24	104	385875968	82	21099
2026-01-11 11:12:20.29	25.46	76.39	-57.1	-71.3	3.9	7.47e-01	0	24	104	385875968	83	18073
2026-01-11 11:12:21.39	23.24	75.99	-52.9	-64.7	3.8	7.46e-01	0	24	104	385875968	74	14125
2026-01-11 11:12:22.22	21.65	75.68	-55.1	-67.7	3.9	7.45e-01	0	24	104	385875968	79	14952
2026-01-11 11:12:23.33	19.64	75.25	-53.1	-65.4	3.9	7.43e-01	0	24	104	385875968	74	15270
2026-01-11 11:12:24.15	18.23	74.92	-53.1	-64.8	3.9	7.43e-01	0	24	104	385875968	74	14369
2026-01-11 11:12:25.26	16.43	74.47	-54.5	-66.8	3.9	7.45e-01	0	24	104	385875968	76	16011
2026-01-11 11:12:26.08	15.16	74.12	-57.6	-72.9	3.9	7.44e-01	0	24	104	385875968	83	21598
2026-01-11 11:12:27.19	13.54	73.65	-54.0	-66.3	3.8	7.46e-01	0	24	104	385875968	75	16020
2026-01-11 11:12:28.02	12.39	73.28	-58.2	-75.0	3.9	7.45e-01	0	24	104	385875968	84	25987
2026-01-11 11:12:29.12	10.95	72.79	-54.8	-66.7	3.9	7.45e-01	0	24	104	385875968	78	14121
2026-01-11 11:12:29.96	9.90	72.42	-56.9	-71.2	3.8	7.42e-01	0	24	104	385875968	81	20026
2026-01-11 11:12:31.07	8.59	71.91	-54.0	-66.3	3.9	7.47e-01	0	24	104	385875968	77	14262
2026-01-11 11:12:31.90	7.66	71.53	-54.0	-66.1	3.9	7.45e-01	0	24	104	385875968	77	13994
2026-01-11 11:12:33.00	6.49	71.02	-53.8	-66.0	3.9	7.47e-01	0	24	104	385875968	76	14557
2026-01-11 11:12:33.84	5.65	70.62	-56.2	-69.3	3.8	7.43e-01	0	24	104	385875968	80	16931
2026-01-11 11:12:34.94	4.59	70.11	-54.4	-67.0	3.9	7.43e-01	0	24	104	385875968	78	14647
2026-01-11 11:12:35.77	3.83	69.71	-58.7	-76.6	3.8	7.47e-01	0	24	104	385875968	85	29530
2026-01-11 11:12:36.87	2.87	69.19	-57.9	-73.2	3.8	7.48e-01	0	24	104	385875968	85	20020
2026-01-11 11:12:37.70	2.18	68.79	-57.3	-72.4	3.8	7.50e-01	0	24	104	385875968	82	21681
2026-01-11 11:12:38.81	1.30	68.26	-55.1	-68.1	3.8	7.44e-01	0	24	104	385875968	79	15645
2026-01-11 11:12:39.63	0.68	67.87	-54.9	-67.2	3.9	7.45e-01	0	24	104	385875968	79	14067
2026-01-11 11:12:40.74	359.88	67.34	-54.7	-67.4	3.9	7.46e-01	0	24	104	385875968	78	15360
2026-01-11 11:12:41.56	359.32	66.94	-55.5	-68.5	3.8	7.48e-01	0	24	104	385875968	78	17345
2026-01-11 11:12:42.67	358.58	66.41	-54.3	-66.7	3.9	7.46e-01	0	24	104	385875968	77	14966
2026-01-11 11:12:43.50	358.06	66.01	-58.0	-73.9	3.9	7.45e-01	0	24	104	385875968	83	24190
2026-01-11 11:12:44.61	357.39	65.48	-57.7	-72.4	3.8	7.44e-01	0	24	104	385875968	84	19275
2026-01-11 11:12:45.44	356.91	65.08	-54.1	-66.4	3.9	7.46e-01	0	24	104	385875968	76	15254
2026-01-11 11:12:46.54	356.29	64.55	-54.5	-67.2	3.8	7.45e-01	0	24	104	385875968	78	14887
2026-01-11 11:12:47.37	355.85	64.16	-53.2	-65.2	3.9	7.45e-01	0	24	104	385875968	75	14084
2026-01-11 11:12:48.48	355.28	63.63	-52.3	-63.6	3.8	7.42e-01	0	24	104	385875968	73	13133
2026-01-11 11:12:49.31	354.87	63.24	-52.1	-63.5	3.8	7.44e-01	0	24	104	385875968	73	13090
2026-01-11 11:12:50.42	354.35	62.71	-52.4	-64.3	3.9	7.43e-01	0	24	104	385875968	74	13461
2026-01-11 11:12:51.25	353.97	62.32	-54.0	-66.3	3.8	7.44e-01	0	24	104	385875968	75	16006
2026-01-11 11:12:52.35	353.49	61.80	-56.8	-70.5	3.9	7.47e-01	0	24	104	385875968	82	17420
2026-01-11 11:12:53.18	353.14	61.41	-52.9	-64.6	3.9	7.43e-01	0	24	104	385875968	75	13128
2026-01-11 11:12:54.29	352.68	60.90	-53.8	-65.8	3.8	7.40e-01	0	24	104	385875968	77	13542
2026-01-11 11:12:55.11	352.36	60.52	-51.8	-63.7	3.8	7.46e-01	0	24	104	385875968	72	14048
2026-01-11 11:12:56.22	351.94	60.00	-51.5	-63.3	3.8	7.45e-01	0	24	104	385875968	72	13482
2026-01-11 11:12:57.05	351.64	59.62	-51.1	-62.5	3.8	7.46e-01	0	24	104	385875968	71	13078
2026-01-11 11:12:58.15	351.25	59.12	-52.3	-63.5	3.9	7.44e-01	0	24	104	385875968	73	12994
2026-01-11 11:12:58.98	350.96	58.74	-50.6	-61.8	3.8	7.45e-01	0	24	104	385875968	70	12736
2026-01-11 11:13:00.08	350.60	58.25	-57.6	-72.8	3.9	7.48e-01	0	24	104	385875968	84	20265
2026-01-11 11:13:00.91	350.33	57.87	-56.1	-69.9	3.9	7.44e-01	0	24	104	385875968	81	17094
2026-01-11 11:13:02.01	349.99	57.38	-54.3	-66.7	3.9	7.47e-01	0	24	104	385875968	77	14883
2026-01-11 11:13:02.84	349.75	57.02	-50.7	-62.0	3.9	7.49e-01	0	24	104	385875968	70	12984
2026-01-11 11:13:03.95	349.42	56.53	-49.8	-60.7	3.8	7.48e-01	0	24	104	385875968	68	12646
2026-01-11 11:13:04.78	349.19	56.16	-49.7	-61.0	3.8	7.48e-01	0	24	104	385875968	68	13069
2026-01-11 11:13:05.88	348.89	55.68	-52.6	-64.6	3.9	7.47e-01	0	24	104	385875968	72	15598
2026-01-11 11:13:06.71	348.67	55.32	-49.6	-61.1	3.8	7.44e-01	0	24	104	385875968	68	13152
2026-01-11 11:13:07.82	348.39	54.85	-58.0	-74.2	3.8	7.46e-01	0	24	104	385875968	83	25171
2026-01-11 11:13:08.65	348.18	54.49	-55.9	-69.2	3.8	7.46e-01	0	24	104	385875968	80	16700
2026-01-11 11:13:09.76	347.91	54.02	-53.3	-65.2	3.8	7.42e-01	0	24	104	385875968	74	14928
2026-01-11 11:13:10.59	347.72	53.68	-50.4	-61.6	3.9	7.45e-01	0	24	104	385875968	70	12410
2026-01-11 11:13:11.70	347.46	53.21	-50.0	-61.5	3.8	7.47e-01	0	24	104	385875968	68	13859
2026-01-11 11:13:12.53	347.28	52.87	-50.0	-61.5	3.8	7.45e-01	0	24	104	385875968	68	13885
2026-01-11 11:13:13.63	347.04	52.42	-51.8	-63.4	3.8	7.45e-01	0	24	104	385875968	71	14413
2026-01-11 11:13:14.46	346.87	52.08	-50.2	-61.6	3.8	7.47e-01	0	24	104	385875968	69	13164
2026-01-11 11:13:15.56	346.64	51.63	-57.1	-71.6	3.8	7.45e-01	0	24	104	385875968	81	20814
2026-01-11 11:13:16.39	346.48	51.30	-55.8	-68.6	3.8	7.45e-01	0	24	104	385875968	80	15752
2026-01-11 11:13:17.50	346.26	50.85	-50.9	-62.2	3.8	7.47e-01	0	24	104	385875968	69	14055
2026-01-11 11:13:18.33	346.11	50.53	-51.4	-63.2	3.8	7.47e-01	0	24	104	385875968	72	13276
2026-01-11 11:13:19.44	345.90	50.09	-50.1	-61.6	3.9	7.44e-01	0	24	104	385875968	69	13215
2026-01-11 11:13:20.27	345.75	49.77	-49.9	-61.5	3.9	7.44e-01	0	24	104	385875968	69	13077
2026-01-11 11:13:21.38	345.56	49.34	-51.5	-63.2	3.8	7.42e-01	0	24	104	385875968	70	15033
2026-01-11 11:13:22.22	345.42	49.01	-52.2	-63.8	3.9	7.48e-01	0	24	104	385875968	73	13547
2026-01-11 11:13:23.32	345.24	48.60	-54.8	-67.3	3.8	7.45e-01	0	24	104	385875968	77	15974
2026-01-11 11:13:24.15	345.10	48.28	-56.7	-70.6	3.9	7.48e-01	0	24	104	385875968	82	17548
2026-01-11 11:13:25.26	344.93	47.87	-50.8	-62.4	3.9	7.45e-01	0	24	104	385875968	71	12901
2026-01-11 11:13:26.09	344.80	47.56	-52.6	-64.6	3.9	7.45e-01	0	24	104	385875968	74	14043
2026-01-11 11:13:27.20	344.63	47.15	-50.0	-61.4	3.9	7.43e-01	0	24	104	385875968	69	12839
2026-01-11 11:13:28.03	344.51	46.85	-49.7	-61.0	3.8	7.42e-01	0	24	104	385875968	68	13034
2026-01-11 11:13:29.13	344.35	46.45	-49.4	-60.8	3.8	7.42e-01	0	24	104	385875968	68	12702
2026-01-11 11:13:29.96	344.23	46.15	-50.5	-62.0	3.8	7.45e-01	0	24	104	385875968	69	13815
2026-01-11 11:13:31.06	344.08	45.76	-50.7	-62.2	3.8	7.45e-01	0	24	104	385875968	69	14176
2026-01-11 11:13:31.89	343.97	45.47	-58.3	-75.4	3.8	7.45e-01	0	24	104	385875968	84	27082
2026-01-11 11:13:32.99	343.83	45.08	-55.6	-68.6	3.9	7.45e-01	0	24	104	385875968	80	15706
2026-01-11 11:13:33.82	343.72	44.79	-52.9	-64.7	3.8	7.42e-01	0	24	104	385875968	73	15014
2026-01-11 11:13:34.92	343.58	44.41	-50.0	-61.3	3.9	7.48e-01	0	24	104	385875968	69	12682
2026-01-11 11:13:35.75	343.48	44.13	-50.0	-61.2	3.9	7.46e-01	0	24	104	385875968	69	12625
2026-01-11 11:13:36.86	343.35	43.75	-49.9	-61.3	3.8	7.44e-01	0	24	104	385875968	69	12732
2026-01-11 11:13:37.69	343.25	43.48	-53.5	-65.6	3.8	7.46e-01	0	24	104	385875968	74	15748
2026-01-11 11:13:38.79	343.12	43.11	-50.7	-62.4	3.9	7.44e-01	0	24	104	385875968	70	13624
2026-01-11 11:13:39.63	343.03	42.83	-57.8	-73.8	3.7	7.47e-01	0	24	104	385875968	83	24085
2026-01-11 11:13:40.73	342.91	42.47	-56.9	-71.2	3.8	7.46e-01	0	24	104	385875968	82	18889
2026-01-11 11:13:41.56	342.82	42.20	-51.8	-63.3	3.8	7.47e-01	0	24	104	385875968	71	14322
2026-01-11 11:13:42.67	342.70	41.85	-51.1	-62.5	3.9	7.47e-01	0	24	104	385875968	71	13072
2026-01-11 11:13:43.50	342.61	41.58	-51.0	-62.4	3.8	7.45e-01	0	24	104	385875968	70	13585
2026-01-11 11:13:44.60	342.50	41.23	-50.8	-62.2	3.8	7.44e-01	0	24	104	385875968	70	13367
2026-01-11 11:13:45.43	342.42	40.97	-51.6	-63.1	3.8	7.44e-01	0	24	104	385875968	70	14758
2026-01-11 11:13:46.54	342.31	40.63	-51.8	-63.2	3.9	7.46e-01	0	24	104	385875968	72	13407
2026-01-11 11:13:47.37	342.23	40.37	-56.3	-69.9	3.8	7.42e-01	0	24	104	385875968	80	18245
2026-01-11 11:13:48.48	342.13	40.03	-57.0	-71.8	3.8	7.45e-01	0	24	104	385875968	83	19036
2026-01-11 11:13:49.31	342.05	39.78	-52.0	-64.0	3.8	7.45e-01	0	24	104	385875968	73	13732
2026-01-11 11:13:50.41	341.95	39.45	-52.0	-63.7	3.9	7.44e-01	0	24	104	385875968	73	13390
2026-01-11 11:13:51.24	341.88	39.20	-51.5	-63.0	3.8	7.45e-01	0	24	104	385875968	72	12970
2026-01-11 11:13:52.35	341.78	38.87	-51.0	-62.3	3.8	7.47e-01	0	24	104	385875968	71	12764
2026-01-11 11:13:53.18	341.71	38.63	-50.9	-62.2	3.9	7.46e-01	0	24	104	385875968	70	13377
2026-01-11 11:13:54.29	341.62	38.31	-51.8	-63.4	3.8	7.47e-01	0	24	104	385875968	71	14451
2026-01-11 11:13:55.11	341.55	38.07	-52.9	-64.8	3.9	7.46e-01	0	24	104	385875968	73	15201
2026-01-11 11:13:56.21	341.46	37.76	-57.0	-71.7	3.9	7.43e-01	0	24	104	385875968	83	18813
2026-01-11 11:13:57.04	341.39	37.52	-55.8	-69.7	3.9	7.40e-01	0	24	104	385875968	81	16792
2026-01-11 11:13:58.14	341.31	37.22	-52.6	-64.5	3.8	7.47e-01	0	24	104	385875968	74	13784
2026-01-11 11:13:58.97	341.24	36.98	-51.5	-63.1	3.8	7.44e-01	0	24	104	385875968	72	13202
2026-01-11 11:14:00.07	341.16	36.68	-51.0	-62.7	3.9	7.48e-01	0	24	104	385875968	71	13366
2026-01-11 11:14:00.91	341.10	36.45	-50.8	-62.6	3.9	7.44e-01	0	24	104	385875968	70	14022
2026-01-11 11:14:02.02	341.02	36.15	-51.2	-63.0	3.9	7.43e-01	0	24	104	385875968	70	14643
2026-01-11 11:14:02.85	340.96	35.93	-51.2	-62.8	3.9	7.44e-01	0	24	104	385875968	70	14354
2026-01-11 11:14:03.95	340.88	35.63	-58.0	-74.6	3.9	7.40e-01	0	24	104	385875968	84	24702
2026-01-11 11:14:04.79	340.82	35.41	-57.2	-72.0	3.8	7.46e-01	0	24	104	385875968	82	20630
2026-01-11 11:14:05.89	340.75	35.12	-52.1	-63.7	3.8	7.47e-01	0	24	104	385875968	71	14997
2026-01-11 11:14:06.72	340.69	34.91	-50.6	-61.8	3.8	7.46e-01	0	24	104	385875968	70	12788
2026-01-11 11:14:07.83	340.62	34.62	-50.0	-61.2	3.8	7.43e-01	0	24	104	385875968	69	12525
2026-01-11 11:14:08.66	340.57	34.41	-49.6	-60.7	3.8	7.48e-01	0	24	104	385875968	68	12583
2026-01-11 11:14:09.77	340.50	34.13	-49.9	-61.1	3.9	7.46e-01	0	24	104	385875968	68	13132
2026-01-11 11:14:10.60	340.44	33.92	-50.3	-61.7	3.8	7.43e-01	0	24	104	385875968	68	14126
2026-01-11 11:14:11.70	340.38	33.64	-57.9	-74.6	3.8	7.46e-01	0	24	104	385875968	83	26404
2026-01-11 11:14:12.54	340.32	33.43	-56.3	-70.2	3.8	7.48e-01	0	24	104	385875968	81	17794
2026-01-11 11:14:13.64	340.26	33.16	-50.6	-62.3	3.8	7.47e-01	0	24	104	385875968	69	14241
2026-01-11 11:14:14.47	340.21	32.96	-50.2	-61.8	3.8	7.49e-01	0	24	104	385875968	69	13508
2026-01-11 11:14:15.57	340.15	32.70	-49.6	-61.1	3.8	7.46e-01	0	24	104	385875968	68	13165
2026-01-11 11:14:16.40	340.10	32.50	-49.2	-60.6	3.8	7.46e-01	0	24	104	385875968	67	13132
2026-01-11 11:14:17.51	340.04	32.23	-50.6	-62.1	3.8	7.48e-01	0	24	104	385875968	68	14789
2026-01-11 11:14:18.34	339.99	32.04	-50.5	-61.9	3.8	7.45e-01	0	24	104	385875968	70	12939
2026-01-11 11:14:19.44	339.93	31.78	-55.8	-69.1	3.8	7.44e-01	0	24	104	385875968	79	17636
2026-01-11 11:14:20.27	339.89	31.59	-55.9	-69.2	3.8	7.43e-01	0	23	104	385875968	81	15852
2026-01-11 11:14:21.37	339.83	31.33	-49.3	-60.5	3.8	7.46e-01	0	24	104	385875968	68	12360
2026-01-11 11:14:22.20	339.79	31.14	-49.9	-61.0	3.8	7.46e-01	0	24	104	385875968	69	12277
2026-01-11 11:14:23.31	339.73	30.89	-49.3	-60.3	3.8	7.47e-01	0	24	104	385875968	67	12766
2026-01-11 11:14:24.14	339.69	30.71	-48.9	-59.8	3.9	7.47e-01	0	24	104	385875968	67	12086
2026-01-11 11:14:25.24	339.63	30.46	-48.9	-59.8	3.8	7.49e-01	0	24	104	385875968	66	12798
2026-01-11 11:14:26.07	339.59	30.28	-50.1	-61.3	3.8	7.46e-01	0	24	104	385875968	68	13476
2026-01-11 11:14:27.18	339.54	30.03	-52.2	-63.7	3.8	7.48e-01	0	24	104	385875968	71	14959
2026-01-11 11:14:28.01	339.50	29.85	-57.3	-72.7	3.9	7.42e-01	0	24	104	385875968	83	21223
2026-01-11 11:14:29.11	339.45	29.62	-54.1	-66.4	3.9	7.46e-01	0	24	104	385875968	77	14460
2026-01-11 11:14:29.95	339.41	29.44	-50.4	-61.9	3.8	7.45e-01	0	24	104	385875968	68	14445
2026-01-11 11:14:31.05	339.36	29.20	-49.6	-60.9	3.8	7.45e-01	0	24	104	385875968	68	12916
2026-01-11 11:14:31.88	339.32	29.03	-49.6	-61.0	3.8	7.46e-01	0	24	104	385875968	68	13012
2026-01-11 11:14:32.98	339.28	28.80	-49.1	-60.4	3.8	7.47e-01	0	24	104	385875968	67	12942
2026-01-11 11:14:33.81	339.24	28.62	-49.9	-61.3	3.8	7.47e-01	0	24	104	385875968	67	14323
2026-01-11 11:14:34.92	339.19	28.39	-50.6	-62.1	3.8	7.45e-01	0	24	104	385875968	68	14805
2026-01-11 11:14:35.76	339.16	28.22	-57.9	-75.0	3.8	7.46e-01	0	24	104	385875968	83	27441
2026-01-11 11:14:36.86	339.11	28.00	-57.0	-72.0	3.8	7.45e-01	0	24	104	385875968	81	21943
2026-01-11 11:14:37.69	339.08	27.83	-50.5	-61.9	3.8	7.44e-01	0	24	104	385875968	69	13634
2026-01-11 11:14:38.80	339.03	27.61	-50.0	-61.3	3.9	7.44e-01	0	24	104	385875968	69	12675
2026-01-11 11:14:39.63	339.00	27.44	-49.7	-61.0	3.8	7.44e-01	0	24	104	385875968	68	13061
2026-01-11 11:14:40.73	338.95	27.23	-49.3	-60.6	3.8	7.46e-01	0	24	104	385875968	67	13250
2026-01-11 11:14:41.57	338.92	27.06	-49.5	-61.0	3.8	7.45e-01	0	24	104	385875968	67	13824
2026-01-11 11:14:42.67	338.88	26.85	-50.9	-62.5	3.8	7.45e-01	0	24	104	385875968	69	14623
2026-01-11 11:14:43.50	338.85	26.69	-56.9	-71.6	3.8	7.46e-01	0	24	104	385875968	81	20927
2026-01-11 11:14:44.61	338.81	26.48	-56.8	-71.3	3.8	7.44e-01	0	24	104	385875968	81	20271
2026-01-11 11:14:45.44	338.78	26.32	-50.4	-62.0	3.9	7.44e-01	0	24	104	385875968	70	12968
2026-01-11 11:14:46.54	338.74	26.11	-50.2	-61.6	3.8	7.49e-01	0	24	104	385875968	69	13167
2026-01-11 11:14:47.37	338.71	25.96	-50.1	-61.4	3.8	7.45e-01	0	24	104	385875968	69	12818
2026-01-11 11:14:48.48	338.67	25.75	-49.6	-60.8	3.8	7.45e-01	0	24	104	385875968	68	12705
2026-01-11 11:14:49.31	338.64	25.60	-49.7	-60.8	3.8	7.44e-01	0	24	104	385875968	68	12736
2026-01-11 11:14:50.41	338.60	25.39	-50.7	-62.1	3.8	7.45e-01	0	24	104	385875968	69	13980
2026-01-11 11:14:51.24	338.57	25.24	-53.8	-66.2	3.8	7.46e-01	0	24	104	385875968	75	15774
2026-01-11 11:14:52.35	338.53	25.04	-56.1	-69.8	3.8	7.44e-01	0	24	104	385875968	81	17012
2026-01-11 11:14:53.18	338.51	24.89	-54.2	-66.4	3.9	7.45e-01	0	24	104	385875968	77	14484
2026-01-11 11:14:54.28	338.47	24.70	-50.6	-62.0	3.8	7.48e-01	0	24	104	385875968	70	13015
2026-01-11 11:14:55.11	338.44	24.55	-50.5	-61.9	3.8	7.49e-01	0	24	104	385875968	70	12820
2026-01-11 11:14:56.22	338.41	24.36	-50.0	-61.3	3.8	7.46e-01	0	24	104	385875968	69	12717
2026-01-11 11:14:57.05	338.38	24.21	-49.7	-61.0	3.8	7.46e-01	0	24	104	385875968	68	13074
2026-01-11 11:14:58.16	338.35	24.02	-49.8	-61.1	3.8	7.48e-01	0	24	104	385875968	68	13180
2026-01-11 11:14:58.99	338.32	23.88	-51.7	-63.5	3.8	7.46e-01	0	24	104	385875968	71	14550
2026-01-11 11:15:00.09	338.29	23.69	-57.2	-72.9	3.9	7.41e-01	0	24	104	385875968	83	21614
2026-01-11 11:15:00.92	338.26	23.55	-57.1	-72.6	3.8	7.42e-01	0	24	104	385875968	82	22203
2026-01-11 11:15:02.03	338.23	23.36	-50.7	-62.2	3.9	7.45e-01	0	24	104	385875968	70	13370
2026-01-11 11:15:02.86	338.21	23.22	-50.4	-61.9	3.8	7.43e-01	0	24	104	385875968	70	12864
2026-01-11 11:15:03.97	338.17	23.04	-50.0	-61.5	3.8	7.46e-01	0	24	104	385875968	69	13019
2026-01-11 11:15:04.79	338.15	22.90	-49.7	-61.3	3.8	7.48e-01	0	24	104	385875968	68	13475
2026-01-11 11:15:05.90	338.12	22.72	-49.7	-61.2	3.8	7.46e-01	0	24	104	385875968	68	13302
2026-01-11 11:15:06.73	338.10	22.58	-51.4	-63.2	3.8	7.43e-01	0	24	104	385875968	70	15041
2026-01-11 11:15:07.84	338.07	22.40	-57.8	-75.6	3.8	7.46e-01	0	24	104	385875968	83	29437
2026-01-11 11:15:08.67	338.04	22.27	-57.0	-72.4	3.8	7.43e-01	0	24	104	385875968	81	22837
2026-01-11 11:15:09.78	338.01	22.09	-50.8	-62.4	3.8	7.45e-01	0	24	104	385875968	70	13644
2026-01-11 11:15:10.60	337.99	21.96	-50.5	-62.1	3.8	7.45e-01	0	24	104	385875968	70	13156
2026-01-11 11:15:11.70	337.96	21.79	-50.3	-61.8	3.8	7.47e-01	0	24	104	385875968	69	13563
2026-01-11 11:15:12.53	337.94	21.66	-49.9	-61.4	3.8	7.45e-01	0	24	104	385875968	69	12819
2026-01-11 11:15:13.64	337.91	21.49	-49.7	-61.1	3.8	7.48e-01	0	24	104	385875968	68	13172
2026-01-11 11:15:14.47	337.89	21.36	-50.8	-62.3	3.8	7.39e-01	0	24	104	385875968	69	14352
2026-01-11 11:15:15.58	337.86	21.19	-57.1	-72.5	3.8	7.47e-01	0	24	104	385875968	81	23077
2026-01-11 11:15:16.41	337.84	21.06	-56.2	-70.2	3.8	7.47e-01	0	24	104	385875968	81	17755
2026-01-11 11:15:17.51	337.82	20.89	-50.4	-61.7	3.9	7.45e-01	0	24	104	385875968	70	12534
2026-01-11 11:15:18.34	337.80	20.77	-50.3	-61.5	3.8	7.47e-01	0	24	104	385875968	69	13049
2026-01-11 11:15:19.44	337.77	20.60	-50.0	-61.3	3.8	7.45e-01	0	24	104	385875968	69	12675
2026-01-11 11:15:20.27	337.75	20.48	-49.6	-60.8	3.8	7.45e-01	0	24	104	385875968	68	12800
2026-01-11 11:15:21.38	337.72	20.32	-49.5	-60.6	3.8	7.46e-01	0	24	104	385875968	68	12401
2026-01-11 11:15:22.21	337.71	20.19	-49.8	-61.0	3.8	7.45e-01	0	24	104	385875968	68	12985
2026-01-11 11:15:23.31	337.68	20.03	-55.1	-67.9	3.8	7.47e-01	0	24	104	385875968	77	17177
2026-01-11 11:15:24.14	337.66	19.91	-56.7	-71.5	3.9	7.45e-01	0	24	104	385875968	82	19517
2026-01-11 11:15:25.25	337.64	19.75	-53.8	-66.1	3.9	7.46e-01	0	24	104	385875968	77	13905
2026-01-11 11:15:26.08	337.62	19.63	-50.2	-61.3	3.8	7.45e-01	0	24	104	385875968	69	12765
2026-01-11 11:15:27.18	337.59	19.48	-50.1	-61.3	3.8	7.47e-01	0	24	104	385875968	69	12744
2026-01-11 11:15:28.01	337.58	19.36	-49.7	-60.9	3.8	7.41e-01	0	24	104	385875968	68	12916
2026-01-11 11:15:29.12	337.55	19.20	-49.5	-60.7	3.9	7.44e-01	0	24	104	385875968	68	12657
2026-01-11 11:15:29.95	337.54	19.09	-49.4	-60.7	3.8	7.46e-01	0	24	104	385875968	68	12596
2026-01-11 11:15:31.06	337.51	18.93	-52.4	-64.3	3.8	7.47e-01	0	24	104	385875968	72	15107
2026-01-11 11:15:31.89	337.50	18.82	-57.6	-75.3	3.9	7.46e-01	0	24	104	385875968	83	28443
2026-01-11 11:15:32.99	337.47	18.66	-57.0	-72.7	3.8	7.45e-01	0	24	104	385875968	82	22400
2026-01-11 11:15:33.82	337.46	18.55	-50.3	-61.8	3.8	7.46e-01	0	24	104	385875968	69	13535
2026-01-11 11:15:34.93	337.43	18.40	-50.1	-61.6	3.9	7.46e-01	0	24	104	385875968	69	13190
2026-01-11 11:15:35.76	337.42	18.29	-50.2	-61.8	3.8	7.44e-01	0	24	104	385875968	69	13497
2026-01-11 11:15:36.87	337.40	18.14	-49.9	-61.5	3.8	7.44e-01	0	24	104	385875968	69	13013
2026-01-11 11:15:37.70	337.38	18.03	-49.8	-61.4	3.8	7.43e-01	0	24	104	385875968	68	13641
2026-01-11 11:15:38.80	337.36	17.88	-51.8	-63.8	3.9	7.46e-01	0	24	104	385875968	71	15107
2026-01-11 11:15:39.63	337.34	17.77	-57.3	-73.7	3.8	7.47e-01	0	24	104	385875968	82	25252
2026-01-11 11:15:40.74	337.32	17.63	-57.0	-72.7	3.8	7.47e-01	0	24	104	385875968	81	23773
2026-01-11 11:15:41.57	337.31	17.52	-50.2	-61.8	3.8	7.45e-01	0	23	104	385875968	69	13548
2026-01-11 11:15:42.68	337.29	17.37	-50.1	-61.9	3.8	7.44e-01	0	24	104	385875968	69	13614
2026-01-11 11:15:43.50	337.27	17.27	-50.0	-61.7	3.8	7.47e-01	0	24	104	385875968	69	13293
2026-01-11 11:15:44.61	337.25	17.13	-49.6	-61.2	3.9	7.47e-01	0	24	104	385875968	68	13384
2026-01-11 11:15:45.44	337.24	17.02	-49.5	-61.1	3.8	7.44e-01	0	24	104	385875968	68	13130
2026-01-11 11:15:46.54	337.22	16.88	-51.0	-62.9	3.9	7.48e-01	0	24	104	385875968	69	15237
2026-01-11 11:15:47.38	337.20	16.77	-55.5	-69.1	3.8	7.47e-01	0	24	104	385875968	78	18674
2026-01-11 11:15:48.49	337.18	16.63	-56.2	-70.6	3.8	7.48e-01	0	24	104	385875968	81	18658
2026-01-11 11:15:49.32	337.17	16.53	-51.9	-64.1	3.9	7.46e-01	0	24	104	385875968	73	13914
2026-01-11 11:15:50.44	337.15	16.39	-50.1	-61.9	3.8	7.42e-01	0	24	104	385875968	69	13607
2026-01-11 11:15:51.27	337.14	16.29	-50.0	-61.7	3.8	7.43e-01	0	24	104	385875968	69	13365
2026-01-11 11:15:52.39	337.12	16.15	-49.6	-61.3	3.8	7.44e-01	0	24	104	385875968	68	13455
2026-01-11 11:15:53.23	337.11	16.05	-49.4	-60.9	3.8	7.46e-01	0	24	104	385875968	68	12938
2026-01-11 11:15:54.35	337.09	15.91	-50.1	-61.8	3.8	7.45e-01	0	24	104	385875968	67	15198
2026-01-11 11:15:55.20	337.07	15.81	-53.4	-65.9	3.8	7.42e-01	0	24	104	385875968	74	16266
2026-01-11 11:15:56.32	337.06	15.67	-55.8	-69.8	3.9	7.45e-01	0	24	104	385875968	80	17971
2026-01-11 11:15:57.16	337.04	15.57	-55.0	-68.5	3.9	7.45e-01	0	24	104	385875968	79	16414
2026-01-11 11:15:58.29	337.03	15.44	-50.0	-61.6	3.8	7.43e-01	0	24	104	385875968	69	13120
2026-01-11 11:15:59.13	337.01	15.34	-49.9	-61.4	3.8	7.43e-01	0	24	104	385875968	69	12947
2026-01-11 11:16:00.25	337.00	15.21	-49.7	-61.2	3.8	7.46e-01	0	24	104	385875968	68	13328
2026-01-11 11:16:01.09	336.98	15.11	-49.8	-61.3	3.8	7.46e-01	0	24	104	385875968	68	13535
2026-01-11 11:16:02.21	336.97	14.98	-52.2	-63.9	3.9	7.47e-01	0	24	104	385875968	71	15351
2026-01-11 11:16:03.05	336.96	14.88	-54.6	-67.5	3.8	7.45e-01	0	24	104	385875968	77	16435
2026-01-11 11:16:04.17	336.94	14.75	-56.2	-70.9	3.8	7.45e-01	0	24	104	385875968	80	20397
2026-01-11 11:16:05.01	336.93	14.66	-56.9	-72.8	3.9	7.44e-01	0	24	104	385875968	82	22533
2026-01-11 11:16:06.14	336.91	14.53	-50.6	-62.0	3.8	7.43e-01	0	24	104	385875968	70	13060
2026-01-11 11:16:06.98	336.90	14.43	-50.6	-61.9	3.9	7.43e-01	0	24	104	385875968	70	12956
2026-01-11 11:16:08.11	336.88	14.30	-49.8	-51.6	15.5	6.03e-01	0	24	104	385875968	68	4408
2026-01-11 11:16:08.95	336.87	14.21	-49.6	-51.4	15.9	6.02e-01	0	24	0	386924544	68	4319
2026-01-11 11:16:10.08	336.86	14.08	-49.1	-50.8	15.9	6.05e-01	0	24	0	389021696	67	4288
2026-01-11 11:16:10.92	336.85	13.99	-48.9	-50.5	16.1	6.04e-01	0	23	0	390594560	67	4141
2026-01-11 11:16:12.04	336.83	13.86	-48.7	-50.3	16.0	6.02e-01	0	24	0	392691712	66	4269
2026-01-11 11:16:12.88	336.82	13.77	-48.7	-50.3	16.0	6.03e-01	0	24	0	394264576	66	4283
2026-01-11 11:16:14.00	336.81	13.65	-48.7	-50.3	16.0	6.05e-01	0	24	0	396361728	66	4274
2026-01-11 11:16:14.84	336.79	13.56	-48.7	-50.4	15.9	6.02e-01	0	24	0	397934592	66	4300
2026-01-11 11:16:15.96	336.78	13.44	-48.7	-50.3	16.0	6.05e-01	0	24	0	400031744	66	4287
2026-01-11 11:16:16.80	336.77	13.35	-48.7	-50.3	16.0	6.01e-01	0	24	0	401604608	66	4291
2026-01-11 11:16:17.93	336.76	13.22	-48.8	-50.5	15.9	6.03e-01	0	24	0	403701760	66	4360
2026-01-11 11:16:18.77	336.74	13.13	-48.8	-50.4	15.9	6.05e-01	0	24	0	405274624	66	4327
2026-01-11 11:16:19.89	336.73	13.01	-48.8	-50.4	16.0	6.03e-01	0	24	0	407371776	66	4328
2026-01-11 11:16:20.73	336.72	12.92	-48.8	-50.5	15.9	6.02e-01	0	24	0	408944640	66	4368
2026-01-11 11:16:21.85	336.71	12.81	-48.8	-50.5	15.9	6.03e-01	0	24	0	411041792	66	4341
2026-01-11 11:16:22.69	336.70	12.72	-48.8	-50.5	15.9	6.03e-01	0	24	0	412614656	66	4364
2026-01-11 11:16:23.81	336.68	12.60	-48.8	-50.5	15.9	6.02e-01	0	24	0	414711808	66	4350
2026-01-11 11:16:24.64	336.67	12.51	-48.8	-50.5	15.9	6.04e-01	0	24	0	416284672	66	4353
2026-01-11 11:16:25.76	336.66	12.40	-48.8	-50.5	15.9	6.02e-01	0	24	0	418381824	66	4365
2026-01-11 11:16:26.59	336.65	12.31	-48.9	-50.6	15.9	6.02e-01	0	24	0	419954688	66	4395
2026-01-11 11:16:27.69	336.64	12.20	-48.9	-50.6	15.9	6.03e-01	0	23	0	422051840	66	4393
2026-01-11 11:16:28.52	336.63	12.12	-48.9	-50.6	15.9	6.06e-01	0	24	0	423624704	66	4416
2026-01-11 11:16:29.63	336.62	12.00	-48.9	-50.6	15.9	6.02e-01	0	24	0	425721856	66	4407
2026-01-11 11:16:30.46	336.61	11.92	-48.9	-50.6	15.9	6.03e-01	0	24	0	427294720	66	4421
2026-01-11 11:16:31.57	336.60	11.81	-49.0	-50.7	15.8	6.03e-01	0	24	0	429391872	66	4451
2026-01-11 11:16:32.39	336.59	11.72	-48.9	-50.7	15.9	6.03e-01	0	23	0	430964736	66	4444
2026-01-11 11:16:33.51	336.58	11.61	-48.9	-50.6	15.9	6.04e-01	0	23	0	433061888	66	4429
2026-01-11 11:16:34.33	336.57	11.53	-49.0	-50.7	15.9	6.04e-01	0	24	0	434634752	66	4455
2026-01-11 11:16:35.44	336.56	11.42	-49.0	-50.7	15.9	6.05e-01	0	23	0	436731904	66	4468
2026-01-11 11:16:36.27	336.55	11.34	-49.1	-50.8	15.8	6.02e-01	0	23	0	438304768	66	4524
2026-01-11 11:16:37.37	336.54	11.23	-49.2	-50.9	15.8	6.04e-01	0	24	0	440401920	66	4575
2026-01-11 11:16:38.20	336.53	11.15	-49.1	-50.8	15.8	6.04e-01	0	24	0	441974784	66	4518
2026-01-11 11:16:39.31	336.52	11.04	-49.0	-50.8	15.8	6.03e-01	0	23	0	444071936	66	4511
2026-01-11 11:16:40.14	336.51	10.96	-49.0	-50.7	15.9	6.05e-01	0	23	0	445644800	66	4479
2026-01-11 11:16:41.24	336.50	10.85	-49.0	-50.7	15.8	6.04e-01	0	24	0	447741952	66	4478
2026-01-11 11:16:42.07	336.49	10.77	-49.0	-50.7	15.8	6.01e-01	0	24	0	449314816	66	4483
2026-01-11 11:16:43.18	336.48	10.67	-49.0	-50.8	15.8	6.02e-01	0	24	0	451411968	66	4504
2026-01-11 11:16:44.01	336.47	10.59	-49.0	-50.7	15.8	6.04e-01	0	24	0	452984832	66	4484
2026-01-11 11:16:45.11	336.46	10.48	-49.0	-50.7	15.9	6.04e-01	0	23	0	455081984	66	4470
2026-01-11 11:16:45.94	336.45	10.41	-49.0	-50.7	15.8	6.03e-01	0	23	0	456130560	66	4459
2026-01-11 11:16:47.05	336.44	10.30	-48.9	-50.6	15.9	6.04e-01	0	24	0	458227712	66	4440
2026-01-11 11:16:47.88	336.43	10.22	-48.9	-50.7	15.9	6.04e-01	0	24	0	459800576	66	4452
2026-01-11 11:16:48.99	336.42	10.12	-49.0	-50.8	15.8	6.04e-01	0	24	0	461897728	66	4507
2026-01-11 11:16:49.82	336.42	10.04	-49.1	-50.8	15.8	6.03e-01	0	24	0	463470592	66	4543
2026-01-11 11:16:50.92	336.41	9.94	-49.0	-50.8	15.8	6.05e-01	0	24	0	465567744	66	4504
