passes_logs/2026/01/11/R3.2S_Murmansk/R3.2S_Murmansk__20260111_040619_SUOMI_NPP_rec.log

#Pass ID: 20260111_040619_SUOMI NPP
#Satellite: SUOMI NPP
#Configuration: NPP
#almurnet v.1.7.20251203
#Start time: 2026-01-11 04:06:19

#Version: 2.2.20231116
#Station: R3.2S_Murmansk
#Location: 33.079688 lon 68.888172 lat
#TLE: 1 37849U 11061A   26009.81756760  .00000113  00000+0  74747-4 0  9994
#TLE: 2 37849  98.7806 311.9110 0002525  72.5604 287.5848 14.19524046735974

#Time	Az	El	Level	Level2	SNR	BER	BlckErr	Temp	State	Recorded	gain1	gain2
2026-01-11 04:06:19.51	47.49	2.00	-53.1	-69.0	3.8	1.49e+00	0	22	0	0	71	23760
2026-01-11 04:06:20.51	47.43	2.06	-53.1	-69.0	3.8	1.49e+00	0	22	104	0	71	23769
2026-01-11 04:06:21.51	47.37	2.12	-53.1	-69.1	3.8	1.49e+00	0	22	104	0	71	23856
2026-01-11 04:06:22.51	47.31	2.18	-53.1	-69.0	3.8	1.49e+00	0	23	104	0	71	23820
2026-01-11 04:06:23.51	47.25	2.23	-53.1	-69.1	3.8	1.49e+00	0	22	104	0	71	23861
2026-01-11 04:06:24.51	47.19	2.29	-53.1	-69.1	3.8	1.49e+00	0	23	104	0	71	23872
2026-01-11 04:06:25.51	47.13	2.35	-53.1	-69.0	3.8	1.49e+00	0	23	104	0	71	23851
2026-01-11 04:06:26.51	47.07	2.41	-53.1	-69.0	3.8	1.49e+00	0	23	104	0	71	23834
2026-01-11 04:06:27.51	47.01	2.47	-53.1	-69.0	3.8	1.49e+00	0	23	104	0	71	23848
2026-01-11 04:06:28.51	46.95	2.52	-53.1	-69.1	3.8	1.49e+00	0	23	104	0	71	23872
2026-01-11 04:06:29.51	46.89	2.58	-53.1	-69.1	3.8	1.49e+00	0	23	104	0	71	23863
2026-01-11 04:06:30.51	46.83	2.64	-53.1	-69.0	3.8	1.49e+00	0	23	104	0	71	23813
2026-01-11 04:06:31.52	46.77	2.70	-53.1	-69.1	3.8	1.49e+00	0	23	104	0	71	23927
2026-01-11 04:06:32.51	46.70	2.76	-53.1	-69.1	3.8	1.49e+00	0	23	104	0	71	23893
2026-01-11 04:06:33.52	46.64	2.82	-53.1	-69.1	3.8	1.49e+00	0	23	104	0	71	23943
2026-01-11 04:06:34.52	46.58	2.88	-53.1	-69.1	3.8	1.49e+00	0	23	104	0	71	23879
2026-01-11 04:06:35.52	46.51	2.94	-53.1	-69.1	3.8	1.49e+00	0	23	104	0	71	23939
2026-01-11 04:06:36.52	46.45	2.99	-53.1	-69.1	3.8	1.49e+00	0	23	104	0	71	23932
2026-01-11 04:06:37.52	46.39	3.05	-53.2	-69.1	3.8	1.49e+00	0	23	104	0	71	23961
2026-01-11 04:06:38.52	46.32	3.11	-53.2	-69.1	3.8	1.49e+00	0	23	104	0	71	23964
2026-01-11 04:06:39.52	46.26	3.17	-53.2	-69.1	3.8	1.49e+00	0	23	104	0	71	23970
2026-01-11 04:06:40.53	46.20	3.23	-53.2	-69.1	3.8	1.49e+00	0	23	104	0	71	23993
2026-01-11 04:06:41.53	46.13	3.29	-53.2	-69.1	3.8	1.49e+00	0	23	104	0	71	23994
2026-01-11 04:06:42.53	46.07	3.35	-53.2	-69.1	3.8	1.49e+00	0	23	104	0	71	23968
2026-01-11 04:06:43.53	46.00	3.41	-53.2	-69.1	3.8	1.49e+00	0	23	104	0	71	23987
2026-01-11 04:06:44.54	45.93	3.47	-53.2	-69.1	3.8	1.49e+00	0	23	104	0	71	24023
2026-01-11 04:06:45.54	45.87	3.53	-53.2	-69.1	3.8	1.49e+00	0	23	104	0	71	23986
2026-01-11 04:06:46.54	45.80	3.59	-53.2	-69.1	3.8	1.49e+00	0	23	104	0	71	23941
2026-01-11 04:06:47.54	45.74	3.65	-53.2	-69.1	3.8	1.49e+00	0	24	104	0	71	23977
2026-01-11 04:06:48.54	45.67	3.71	-53.2	-69.1	3.8	1.49e+00	0	24	104	0	71	23952
2026-01-11 04:06:49.53	45.60	3.77	-53.2	-69.1	3.8	1.49e+00	0	23	104	0	71	24012
2026-01-11 04:06:50.53	45.54	3.83	-53.2	-69.1	3.8	1.49e+00	0	23	104	0	71	23946
2026-01-11 04:06:51.53	45.47	3.89	-53.2	-69.1	3.8	1.49e+00	0	24	104	0	71	23985
2026-01-11 04:06:52.52	45.40	3.95	-53.2	-69.1	3.8	1.49e+00	0	24	104	0	71	24083
2026-01-11 04:06:53.52	45.33	4.01	-53.2	-69.1	3.8	1.49e+00	0	24	104	0	71	23998
2026-01-11 04:06:54.51	45.27	4.07	-53.2	-69.1	3.8	1.49e+00	0	24	104	0	71	24074
2026-01-11 04:06:55.51	45.20	4.14	-53.2	-69.1	3.8	1.49e+00	0	24	104	0	71	24024
2026-01-11 04:06:56.51	45.13	4.20	-53.2	-69.1	3.8	1.49e+00	0	24	104	0	71	24042
2026-01-11 04:06:57.50	45.06	4.26	-53.2	-69.1	3.8	1.49e+00	0	24	104	0	71	23989
2026-01-11 04:06:58.51	44.99	4.32	-53.2	-69.1	3.8	1.49e+00	0	24	104	0	71	23965
2026-01-11 04:06:59.50	44.92	4.38	-53.2	-69.1	3.8	1.49e+00	0	24	104	0	71	24013
2026-01-11 04:07:00.50	44.85	4.44	-53.2	-69.1	3.8	1.49e+00	0	24	104	0	71	24035
2026-01-11 04:07:01.49	44.78	4.50	-53.2	-69.1	3.8	1.49e+00	0	24	104	0	71	24058
2026-01-11 04:07:02.49	44.71	4.56	-53.2	-69.1	3.9	1.49e+00	0	24	104	0	71	24095
2026-01-11 04:07:03.49	44.64	4.62	-53.2	-69.1	3.8	1.49e+00	0	24	104	0	71	24055
2026-01-11 04:07:04.48	44.57	4.69	-53.2	-69.1	3.8	1.49e+00	0	24	104	0	71	24093
2026-01-11 04:07:05.48	44.50	4.75	-53.2	-69.1	3.8	1.49e+00	0	24	104	0	71	24083
2026-01-11 04:07:06.48	44.42	4.81	-53.2	-69.2	3.8	1.49e+00	0	24	104	0	71	24173
2026-01-11 04:07:07.48	44.35	4.87	-53.2	-69.1	3.8	1.49e+00	0	24	104	0	71	24100
2026-01-11 04:07:08.49	44.28	4.93	-53.2	-69.1	3.8	1.49e+00	0	24	104	0	71	24039
2026-01-11 04:07:09.49	44.20	5.00	-53.2	-69.1	3.8	1.49e+00	0	24	104	0	71	24094
2026-01-11 04:07:10.50	44.13	5.06	-53.2	-69.1	3.8	1.49e+00	0	24	104	0	71	24110
2026-01-11 04:07:11.49	44.06	5.12	-53.2	-69.1	3.8	1.49e+00	0	24	104	0	71	24040
2026-01-11 04:07:12.49	43.98	5.18	-53.2	-69.1	3.8	1.49e+00	0	24	104	0	71	24121
2026-01-11 04:07:13.49	43.91	5.25	-53.2	-69.1	3.8	1.49e+00	0	24	104	0	71	24119
2026-01-11 04:07:14.50	43.83	5.31	-53.2	-69.1	3.8	1.49e+00	0	24	104	0	71	24098
2026-01-11 04:07:15.50	43.76	5.37	-53.2	-69.2	3.8	1.49e+00	0	24	104	0	71	24135
2026-01-11 04:07:16.50	43.68	5.44	-53.2	-69.1	3.8	1.49e+00	0	24	104	0	71	24129
2026-01-11 04:07:17.50	43.61	5.50	-53.2	-69.1	3.8	1.49e+00	0	24	104	0	71	24125
2026-01-11 04:07:18.50	43.53	5.56	-53.2	-69.2	3.8	1.49e+00	0	24	104	0	71	24133
2026-01-11 04:07:19.51	43.45	5.63	-53.2	-69.2	3.8	1.49e+00	0	24	104	0	71	24132
2026-01-11 04:07:20.51	43.38	5.69	-53.2	-69.2	3.8	1.49e+00	0	24	104	0	71	24134
2026-01-11 04:07:21.51	43.30	5.75	-53.2	-69.2	3.8	1.49e+00	0	24	104	0	71	24157
2026-01-11 04:07:22.51	43.22	5.82	-53.2	-69.2	3.8	1.49e+00	0	24	104	0	71	24195
2026-01-11 04:07:23.51	43.14	5.88	-53.2	-69.2	3.8	1.49e+00	0	24	104	0	71	24163
2026-01-11 04:07:24.51	43.07	5.94	-53.2	-69.2	3.8	1.49e+00	0	24	104	0	71	24131
2026-01-11 04:07:25.51	42.99	6.01	-53.2	-69.2	3.8	1.49e+00	0	24	104	0	71	24238
2026-01-11 04:07:26.51	42.91	6.07	-53.2	-69.2	3.8	1.49e+00	0	24	104	0	71	24148
2026-01-11 04:07:27.51	42.83	6.14	-53.2	-69.2	3.8	1.49e+00	0	24	104	0	71	24164
2026-01-11 04:07:28.51	42.75	6.20	-53.2	-69.1	3.8	1.49e+00	0	24	104	0	71	24097
2026-01-11 04:07:29.51	42.67	6.27	-53.2	-69.2	3.8	1.49e+00	0	24	104	0	71	24221
2026-01-11 04:07:30.51	42.59	6.33	-53.2	-69.2	3.8	1.49e+00	0	24	104	0	71	24184
2026-01-11 04:07:31.51	42.51	6.39	-53.2	-69.2	3.8	1.49e+00	0	24	104	0	71	24212
2026-01-11 04:07:32.52	42.43	6.46	-53.2	-69.2	3.8	1.49e+00	0	24	104	0	71	24216
2026-01-11 04:07:33.52	42.35	6.52	-53.2	-69.2	3.8	1.49e+00	0	24	104	0	71	24205
2026-01-11 04:07:34.51	42.26	6.59	-53.2	-69.2	3.8	1.49e+00	0	24	104	0	71	24144
2026-01-11 04:07:35.51	42.18	6.65	-53.2	-69.2	3.8	1.49e+00	0	25	104	0	71	24157
2026-01-11 04:07:36.52	42.10	6.72	-53.2	-69.2	3.8	1.49e+00	0	25	104	0	71	24137
2026-01-11 04:07:37.52	42.02	6.78	-53.2	-69.2	3.8	1.49e+00	0	24	104	0	71	24200
2026-01-11 04:07:38.52	41.93	6.85	-53.2	-69.2	3.8	1.49e+00	0	24	104	0	71	24159
2026-01-11 04:07:39.52	41.85	6.92	-53.2	-69.2	3.8	1.49e+00	0	25	104	0	71	24194
2026-01-11 04:07:40.53	41.76	6.98	-53.3	-69.2	3.8	1.49e+00	0	25	104	0	71	24182
2026-01-11 04:07:41.53	41.68	7.05	-53.2	-69.2	3.8	1.49e+00	0	24	104	0	71	24186
2026-01-11 04:07:42.53	41.59	7.11	-53.2	-69.2	3.8	1.49e+00	0	25	104	0	71	24235
2026-01-11 04:07:43.53	41.51	7.18	-53.2	-69.2	3.8	1.49e+00	0	25	104	0	71	24275
2026-01-11 04:07:44.53	41.42	7.24	-53.3	-69.2	3.8	1.49e+00	0	25	104	0	71	24264
2026-01-11 04:07:45.53	41.34	7.31	-53.2	-69.2	3.8	1.49e+00	0	25	104	0	71	24262
2026-01-11 04:07:46.52	41.25	7.38	-53.3	-69.2	3.8	1.49e+00	0	25	104	0	71	24265
2026-01-11 04:07:47.52	41.16	7.44	-53.3	-69.2	3.8	1.49e+00	0	25	104	0	71	24234
2026-01-11 04:07:48.52	41.08	7.51	-53.2	-69.2	3.8	1.49e+00	0	25	104	0	71	24277
2026-01-11 04:07:49.52	40.99	7.57	-53.2	-69.2	3.8	1.49e+00	0	25	104	0	71	24234
2026-01-11 04:07:50.51	40.90	7.64	-53.2	-69.2	3.8	1.49e+00	0	25	104	0	71	24244
2026-01-11 04:07:51.51	40.81	7.71	-53.2	-69.2	3.8	1.49e+00	0	25	104	0	71	24185
2026-01-11 04:07:52.51	40.72	7.77	-53.3	-69.2	3.8	1.49e+00	0	25	104	0	71	24210
2026-01-11 04:07:53.49	40.64	7.84	-53.2	-69.2	3.8	1.49e+00	0	25	104	0	71	24220
2026-01-11 04:07:54.49	40.55	7.91	-53.3	-69.2	3.8	1.49e+00	0	25	104	0	71	24244
2026-01-11 04:07:55.48	40.46	7.97	-53.2	-69.2	3.8	1.49e+00	0	25	104	0	71	24238
2026-01-11 04:07:56.47	40.37	8.04	-53.3	-69.2	3.8	1.49e+00	0	25	104	0	71	24234
2026-01-11 04:07:57.47	40.27	8.11	-53.3	-69.2	3.8	1.49e+00	0	25	104	0	71	24259
2026-01-11 04:07:58.46	40.18	8.17	-53.3	-69.2	3.8	1.49e+00	0	25	104	0	71	24265
2026-01-11 04:07:59.46	40.09	8.24	-53.3	-69.2	3.8	1.49e+00	0	25	104	0	71	24246
2026-01-11 04:08:00.46	40.00	8.31	-53.2	-69.2	3.8	1.49e+00	0	25	104	0	71	24165
2026-01-11 04:08:01.47	39.90	8.38	-53.2	-69.2	3.8	1.49e+00	0	25	104	0	71	24241
2026-01-11 04:08:02.47	39.81	8.45	-53.2	-69.2	3.8	1.49e+00	0	25	104	0	71	24247
2026-01-11 04:08:03.47	39.72	8.51	-53.2	-69.2	3.8	1.49e+00	0	25	104	0	71	24200
2026-01-11 04:08:04.46	39.62	8.58	-53.3	-69.2	3.8	1.49e+00	0	25	104	0	71	24303
2026-01-11 04:08:05.46	39.53	8.65	-53.3	-69.2	3.8	1.49e+00	0	25	104	0	71	24250
2026-01-11 04:08:06.46	39.43	8.72	-53.3	-69.2	3.8	1.49e+00	0	25	104	0	71	24241
2026-01-11 04:08:07.45	39.34	8.79	-53.3	-69.2	3.8	1.49e+00	0	25	104	0	71	24251
2026-01-11 04:08:08.45	39.24	8.85	-53.3	-69.2	3.8	1.49e+00	0	25	104	0	71	24220
2026-01-11 04:08:09.45	39.15	8.92	-53.3	-69.2	3.8	1.49e+00	0	25	104	0	71	24275
2026-01-11 04:08:10.44	39.05	8.99	-53.2	-69.2	3.8	1.49e+00	0	25	104	0	71	24211
2026-01-11 04:08:11.44	38.95	9.06	-53.3	-69.2	3.8	1.49e+00	0	25	104	0	71	24200
2026-01-11 04:08:12.44	38.85	9.13	-53.3	-69.2	3.8	1.49e+00	0	25	104	0	71	24240
2026-01-11 04:08:13.44	38.76	9.20	-53.3	-69.2	3.8	1.49e+00	0	25	104	0	71	24265
2026-01-11 04:08:14.44	38.66	9.27	-53.3	-69.2	3.8	1.49e+00	0	25	104	0	71	24279
2026-01-11 04:08:15.44	38.56	9.34	-53.3	-69.2	3.8	1.49e+00	0	25	104	0	71	24226
2026-01-11 04:08:16.44	38.46	9.40	-53.3	-69.2	3.8	1.49e+00	0	25	104	0	71	24285
2026-01-11 04:08:17.45	38.36	9.48	-53.3	-69.2	3.8	1.49e+00	0	25	104	0	71	24261
2026-01-11 04:08:18.45	38.25	9.54	-53.3	-69.2	3.8	1.49e+00	0	25	104	0	71	24317
2026-01-11 04:08:19.44	38.15	9.61	-53.3	-69.2	3.8	1.49e+00	0	25	104	0	71	24331
2026-01-11 04:08:20.44	38.05	9.68	-53.3	-69.2	3.8	1.49e+00	0	25	104	0	71	24338
2026-01-11 04:08:21.44	37.95	9.75	-53.3	-69.2	3.8	1.49e+00	0	25	104	0	71	24275
2026-01-11 04:08:22.44	37.85	9.82	-53.3	-69.2	3.8	1.49e+00	0	25	104	0	71	24287
2026-01-11 04:08:23.44	37.74	9.89	-53.3	-69.2	3.8	1.49e+00	0	25	104	0	71	24344
2026-01-11 04:08:24.44	37.64	9.96	-53.3	-69.2	3.8	1.49e+00	0	25	104	0	71	24293
2026-01-11 04:08:25.44	37.53	10.03	-53.3	-69.2	3.8	1.49e+00	0	25	104	0	71	24317
2026-01-11 04:08:26.44	37.43	10.10	-53.3	-69.2	3.8	1.49e+00	0	25	104	0	71	24315
2026-01-11 04:08:27.43	37.32	10.17	-53.3	-69.2	3.8	1.49e+00	0	25	104	0	71	24308
2026-01-11 04:08:28.43	37.22	10.24	-53.3	-69.2	3.8	1.49e+00	0	25	104	0	71	24283
2026-01-11 04:08:29.44	37.11	10.32	-53.3	-69.2	3.8	1.49e+00	0	25	104	0	71	24321
2026-01-11 04:08:30.43	37.00	10.39	-53.3	-69.2	3.8	1.49e+00	0	25	104	0	71	24344
2026-01-11 04:08:31.44	36.89	10.46	-53.3	-69.2	3.8	1.49e+00	0	25	104	0	71	24262
2026-01-11 04:08:32.43	36.79	10.53	-53.3	-69.2	3.8	1.49e+00	0	25	104	0	71	24308
2026-01-11 04:08:33.43	36.68	10.60	-53.3	-69.2	3.8	1.49e+00	0	25	104	0	71	24357
2026-01-11 04:08:34.43	36.57	10.67	-53.3	-69.2	3.8	1.49e+00	0	25	104	0	71	24320
2026-01-11 04:08:35.43	36.46	10.74	-53.3	-69.2	3.8	1.49e+00	0	25	104	0	71	24391
2026-01-11 04:08:36.43	36.35	10.81	-53.3	-69.2	3.8	1.49e+00	0	25	104	0	71	24367
2026-01-11 04:08:37.42	36.24	10.88	-53.3	-69.2	3.8	1.49e+00	0	25	104	0	71	24333
2026-01-11 04:08:38.43	36.13	10.96	-53.3	-69.2	3.8	1.49e+00	0	25	104	0	71	24351
2026-01-11 04:08:39.43	36.01	11.03	-53.3	-69.2	3.8	1.49e+00	0	25	104	0	71	24324
2026-01-11 04:08:40.44	35.90	11.10	-53.3	-69.2	3.8	1.49e+00	0	25	104	0	71	24356
2026-01-11 04:08:41.45	35.79	11.17	-53.3	-69.2	3.8	1.49e+00	0	25	104	0	71	24382
2026-01-11 04:08:42.44	35.67	11.25	-53.3	-69.2	3.8	1.49e+00	0	25	104	0	71	24343
2026-01-11 04:08:43.45	35.56	11.32	-53.3	-69.2	3.8	1.49e+00	0	25	104	0	71	24333
2026-01-11 04:08:44.45	35.44	11.39	-53.3	-69.2	3.8	1.49e+00	0	25	104	0	71	24396
2026-01-11 04:08:45.44	35.33	11.46	-53.3	-69.2	3.8	1.49e+00	0	25	104	0	71	24389
2026-01-11 04:08:46.44	35.21	11.53	-53.3	-69.3	3.8	1.49e+00	0	25	104	0	71	24414
2026-01-11 04:08:47.44	35.09	11.61	-53.3	-69.2	3.8	1.49e+00	0	25	104	0	71	24319
2026-01-11 04:08:48.44	34.98	11.68	-53.3	-69.2	3.8	1.49e+00	0	25	104	0	71	24377
2026-01-11 04:08:49.44	34.86	11.75	-53.3	-69.2	3.8	1.49e+00	0	25	104	0	71	24385
2026-01-11 04:08:50.43	34.74	11.82	-53.3	-69.2	3.8	1.49e+00	0	25	104	0	71	24385
2026-01-11 04:08:51.43	34.62	11.90	-53.3	-69.2	3.8	1.49e+00	0	25	104	0	71	24373
2026-01-11 04:08:52.43	34.50	11.97	-53.3	-69.2	3.8	1.49e+00	0	25	104	0	71	24371
2026-01-11 04:08:53.42	34.38	12.04	-53.3	-69.2	3.8	1.49e+00	0	25	104	0	71	24384
2026-01-11 04:08:54.42	34.26	12.12	-53.3	-69.2	3.8	1.49e+00	0	25	104	0	71	24345
2026-01-11 04:08:55.42	34.14	12.19	-53.3	-69.2	3.8	1.49e+00	0	25	104	0	71	24305
2026-01-11 04:08:56.42	34.02	12.26	-53.3	-69.2	3.8	1.49e+00	0	25	104	0	71	24336
2026-01-11 04:08:57.41	33.90	12.34	-53.3	-69.3	3.8	1.49e+00	0	25	104	0	71	24412
2026-01-11 04:08:58.42	33.77	12.41	-53.3	-69.2	3.8	1.49e+00	0	25	104	0	71	24406
2026-01-11 04:08:59.42	33.65	12.48	-53.3	-69.2	3.8	1.49e+00	0	25	104	0	71	24333
2026-01-11 04:09:00.42	33.52	12.56	-53.3	-69.2	3.8	1.49e+00	0	25	104	0	71	24373
2026-01-11 04:09:01.41	33.40	12.63	-53.3	-69.2	3.8	1.49e+00	0	25	104	0	71	24379
2026-01-11 04:09:02.40	33.27	12.70	-53.3	-69.2	3.8	1.49e+00	0	25	104	0	71	24375
2026-01-11 04:09:03.39	33.15	12.78	-53.3	-69.2	3.8	1.49e+00	0	25	104	0	71	24401
2026-01-11 04:09:04.40	33.02	12.85	-53.3	-69.2	3.8	1.49e+00	0	25	104	0	71	24394
2026-01-11 04:09:05.40	32.89	12.93	-53.3	-69.2	3.8	1.49e+00	0	25	104	0	71	24346
2026-01-11 04:09:06.41	32.76	13.00	-53.3	-69.2	3.8	1.49e+00	0	25	104	0	71	24350
2026-01-11 04:09:07.41	32.63	13.08	-53.3	-69.2	3.8	1.49e+00	0	25	104	0	71	24331
2026-01-11 04:09:08.40	32.50	13.15	-53.3	-69.2	3.8	1.49e+00	0	25	104	0	71	24363
2026-01-11 04:09:09.40	32.37	13.22	-53.3	-69.2	3.8	1.49e+00	0	25	104	0	71	24405
2026-01-11 04:09:10.41	32.24	13.30	-53.3	-69.3	3.8	1.49e+00	0	25	104	0	71	24422
2026-01-11 04:09:11.41	32.11	13.37	-53.3	-69.2	3.8	1.49e+00	0	25	104	0	71	24396
2026-01-11 04:09:12.40	31.97	13.45	-53.3	-69.3	3.8	1.49e+00	0	25	104	0	71	24432
2026-01-11 04:09:13.40	31.84	13.52	-53.3	-69.2	3.8	1.49e+00	0	25	104	0	71	24402
2026-01-11 04:09:14.41	31.71	13.60	-53.3	-69.2	3.8	1.49e+00	0	25	104	0	71	24404
2026-01-11 04:09:15.41	31.57	13.67	-53.3	-69.2	3.8	1.49e+00	0	25	104	0	71	24398
2026-01-11 04:09:16.41	31.43	13.75	-53.3	-69.2	3.8	1.49e+00	0	25	104	0	71	24410
2026-01-11 04:09:17.41	31.30	13.82	-53.3	-69.3	3.8	1.49e+00	0	25	104	0	71	24450
2026-01-11 04:09:18.41	31.16	13.90	-53.3	-69.3	3.8	1.49e+00	0	26	104	0	71	24414
2026-01-11 04:09:19.42	31.02	13.97	-53.3	-69.2	3.8	1.49e+00	0	25	104	0	71	24402
2026-01-11 04:09:20.42	30.88	14.05	-53.3	-69.2	3.8	1.49e+00	0	25	104	0	71	24337
2026-01-11 04:09:21.43	30.74	14.13	-53.3	-69.2	3.8	1.49e+00	0	25	104	0	71	24386
2026-01-11 04:09:22.43	30.60	14.20	-53.3	-69.2	3.8	1.49e+00	0	25	104	0	71	24394
2026-01-11 04:09:23.43	30.46	14.28	-53.3	-69.2	3.8	1.49e+00	0	26	104	0	71	24407
2026-01-11 04:09:24.43	30.32	14.35	-53.3	-69.2	3.8	1.49e+00	0	25	104	0	71	24392
2026-01-11 04:09:25.43	30.18	14.43	-53.3	-69.2	3.8	1.49e+00	0	25	104	0	71	24387
2026-01-11 04:09:26.43	30.04	14.50	-53.3	-69.3	3.8	1.49e+00	0	25	104	0	71	24425
2026-01-11 04:09:27.42	29.89	14.58	-53.3	-69.2	3.8	1.49e+00	0	25	104	0	71	24388
2026-01-11 04:09:28.42	29.75	14.65	-53.3	-69.2	3.8	1.49e+00	0	25	104	0	71	24408
2026-01-11 04:09:29.41	29.61	14.73	-53.3	-69.2	3.8	1.49e+00	0	26	104	0	71	24375
2026-01-11 04:09:30.40	29.46	14.80	-53.3	-69.3	3.8	1.49e+00	0	25	104	0	71	24453
2026-01-11 04:09:31.41	29.31	14.88	-53.3	-69.3	3.8	1.49e+00	0	26	104	0	71	24479
2026-01-11 04:09:32.41	29.17	14.96	-53.3	-69.2	3.8	1.49e+00	0	25	104	0	71	24384
2026-01-11 04:09:33.41	29.02	15.03	-53.3	-69.2	3.8	1.49e+00	0	25	104	0	71	24364
2026-01-11 04:09:34.41	28.87	15.11	-53.3	-69.2	3.8	1.49e+00	0	25	104	0	71	24350
2026-01-11 04:09:35.42	28.72	15.18	-53.3	-69.2	3.8	1.49e+00	0	26	104	0	71	24352
2026-01-11 04:09:36.42	28.57	15.26	-53.3	-69.2	3.8	1.49e+00	0	25	104	0	71	24398
2026-01-11 04:09:37.42	28.42	15.34	-53.3	-69.2	3.8	1.49e+00	0	25	104	0	71	24336
2026-01-11 04:09:38.42	28.26	15.41	-53.3	-69.2	3.8	1.49e+00	0	25	104	0	71	24355
2026-01-11 04:09:39.42	28.11	15.49	-53.3	-69.2	3.8	1.49e+00	0	26	104	0	71	24365
2026-01-11 04:09:40.42	27.96	15.57	-53.3	-69.2	3.8	1.49e+00	0	25	104	0	71	24325
2026-01-11 04:09:41.42	27.80	15.64	-53.3	-69.3	3.8	1.49e+00	0	26	104	0	71	24424
2026-01-11 04:09:42.41	27.65	15.72	-53.3	-69.3	3.8	1.49e+00	0	25	104	0	71	24428
2026-01-11 04:09:43.41	27.49	15.79	-53.3	-69.2	3.8	1.49e+00	0	25	104	0	71	24396
2026-01-11 04:09:44.41	27.34	15.87	-53.3	-69.2	3.8	1.49e+00	0	25	104	0	71	24405
2026-01-11 04:09:45.41	27.18	15.95	-53.3	-69.2	3.8	1.49e+00	0	25	104	0	71	24377
2026-01-11 04:09:46.41	27.02	16.02	-53.3	-69.2	3.8	1.49e+00	0	25	104	0	71	24392
2026-01-11 04:09:47.41	26.86	16.10	-53.3	-69.2	3.8	1.49e+00	0	25	104	0	71	24408
2026-01-11 04:09:48.40	26.70	16.17	-53.3	-69.3	3.8	1.49e+00	0	25	104	0	71	24418
2026-01-11 04:09:49.40	26.54	16.25	-53.3	-69.3	3.8	1.49e+00	0	25	104	0	71	24450
2026-01-11 04:09:50.40	26.38	16.33	-53.3	-69.2	3.8	1.49e+00	0	25	104	0	71	24332
2026-01-11 04:09:51.40	26.22	16.40	-53.3	-69.3	3.8	1.49e+00	0	25	104	0	71	24421
2026-01-11 04:09:52.40	26.05	16.48	-53.3	-69.2	3.8	1.49e+00	0	25	104	0	71	24355
2026-01-11 04:09:53.40	25.89	16.56	-53.3	-69.2	3.8	1.49e+00	0	25	104	0	71	24402
2026-01-11 04:09:54.40	25.72	16.63	-53.3	-69.2	3.8	1.49e+00	0	26	104	0	71	24368
2026-01-11 04:09:55.41	25.56	16.71	-53.3	-69.3	3.8	1.49e+00	0	25	104	0	71	24421
2026-01-11 04:09:56.41	25.39	16.79	-53.3	-69.2	3.8	1.49e+00	0	25	104	0	71	24370
2026-01-11 04:09:57.40	25.22	16.86	-53.3	-69.2	3.8	1.49e+00	0	25	104	0	71	24320
2026-01-11 04:09:58.40	25.05	16.94	-53.3	-69.2	3.8	1.49e+00	0	25	104	0	71	24326
2026-01-11 04:09:59.40	24.89	17.01	-53.3	-69.3	3.8	1.49e+00	0	25	104	0	71	24447
2026-01-11 04:10:00.40	24.72	17.09	-53.3	-69.2	3.8	1.49e+00	0	26	104	0	71	24396
2026-01-11 04:10:01.40	24.54	17.17	-53.3	-69.3	3.8	1.49e+00	0	25	104	0	71	24456
2026-01-11 04:10:02.40	24.37	17.24	-53.3	-69.3	3.8	1.49e+00	0	25	104	0	71	24432
2026-01-11 04:10:03.39	24.20	17.32	-53.3	-69.3	3.8	1.49e+00	0	25	104	0	71	24411
2026-01-11 04:10:04.38	24.03	17.39	-53.3	-69.2	3.8	1.49e+00	0	25	104	0	71	24354
2026-01-11 04:10:05.37	23.86	17.47	-53.3	-69.3	3.8	1.49e+00	0	26	104	0	71	24419
2026-01-11 04:10:06.37	23.68	17.54	-53.3	-69.2	3.8	1.49e+00	0	26	104	0	71	24397
2026-01-11 04:10:07.37	23.50	17.62	-53.3	-69.2	3.8	1.49e+00	0	25	104	0	71	24385
2026-01-11 04:10:08.37	23.33	17.70	-53.3	-69.2	3.8	1.49e+00	0	25	104	0	71	24388
2026-01-11 04:10:09.36	23.15	17.77	-53.3	-69.2	3.8	1.49e+00	0	25	104	0	71	24404
2026-01-11 04:10:10.37	22.97	17.85	-53.3	-69.2	3.8	1.49e+00	0	25	104	0	71	24392
2026-01-11 04:10:11.37	22.79	17.92	-53.3	-69.2	3.8	1.49e+00	0	26	104	0	71	24401
2026-01-11 04:10:12.37	22.61	18.00	-53.3	-69.3	3.8	1.49e+00	0	26	104	0	71	24482
2026-01-11 04:10:13.36	22.43	18.07	-53.3	-69.3	3.8	1.49e+00	0	25	104	0	71	24412
2026-01-11 04:10:14.36	22.24	18.15	-53.3	-69.3	3.8	1.49e+00	0	26	104	0	71	24414
2026-01-11 04:10:15.36	22.06	18.23	-53.3	-69.3	3.8	1.49e+00	0	25	104	0	71	24446
2026-01-11 04:10:16.36	21.87	18.30	-53.3	-69.3	3.8	1.49e+00	0	25	104	0	71	24460
2026-01-11 04:10:17.36	21.69	18.38	-53.3	-69.3	3.8	1.49e+00	0	25	104	0	71	24438
2026-01-11 04:10:18.35	21.50	18.45	-53.3	-69.2	3.8	1.49e+00	0	25	104	0	71	24389
2026-01-11 04:10:19.35	21.32	18.53	-53.3	-69.2	3.8	1.49e+00	0	25	104	0	71	24374
2026-01-11 04:10:20.36	21.13	18.60	-53.3	-69.2	3.8	1.49e+00	0	26	104	0	71	24307
2026-01-11 04:10:21.36	20.94	18.68	-53.3	-69.2	3.8	1.49e+00	0	26	104	0	71	24375
2026-01-11 04:10:22.36	20.75	18.75	-53.3	-69.2	3.8	1.49e+00	0	25	104	0	71	24357
2026-01-11 04:10:23.36	20.55	18.83	-53.3	-69.2	3.8	1.49e+00	0	25	104	0	71	24404
2026-01-11 04:10:24.36	20.36	18.90	-53.3	-69.2	3.8	1.49e+00	0	26	104	0	71	24405
2026-01-11 04:10:25.36	20.17	18.98	-53.3	-69.2	3.8	1.49e+00	0	26	104	0	71	24402
2026-01-11 04:10:26.36	19.97	19.05	-53.3	-69.2	3.8	1.49e+00	0	26	104	0	71	24388
2026-01-11 04:10:27.36	19.78	19.12	-53.3	-69.3	3.8	1.49e+00	0	26	104	0	71	24416
2026-01-11 04:10:28.36	19.58	19.20	-53.3	-69.3	3.8	1.49e+00	0	25	104	0	71	24483
2026-01-11 04:10:29.36	19.38	19.27	-53.3	-69.3	3.8	1.49e+00	0	25	104	0	71	24454
2026-01-11 04:10:30.36	19.19	19.35	-53.3	-69.2	3.8	1.49e+00	0	25	104	0	71	24341
2026-01-11 04:10:31.37	18.99	19.42	-53.3	-69.2	3.8	1.49e+00	0	26	104	0	71	24406
2026-01-11 04:10:32.37	18.79	19.49	-53.3	-69.3	3.8	1.49e+00	0	26	104	0	71	24423
2026-01-11 04:10:33.37	18.58	19.57	-53.3	-69.2	3.8	1.49e+00	0	26	104	0	71	24368
2026-01-11 04:10:34.36	18.38	19.64	-53.3	-69.3	3.8	1.49e+00	0	25	104	0	71	24430
2026-01-11 04:10:35.37	18.18	19.71	-53.3	-69.2	3.8	1.49e+00	0	26	104	0	71	24409
2026-01-11 04:10:36.37	17.97	19.79	-53.3	-69.2	3.8	1.49e+00	0	26	104	0	71	24315
2026-01-11 04:10:37.37	17.77	19.86	-53.3	-69.2	3.8	1.49e+00	0	25	104	0	71	24291
2026-01-11 04:10:38.37	17.56	19.93	-53.3	-69.3	3.8	1.49e+00	0	25	104	0	71	24429
2026-01-11 04:10:39.37	17.36	20.01	-53.3	-69.3	3.8	1.49e+00	0	26	104	0	71	24416
2026-01-11 04:10:40.37	17.15	20.08	-53.3	-69.3	3.8	1.49e+00	0	26	104	0	71	24468
2026-01-11 04:10:41.37	16.94	20.15	-53.3	-69.3	3.8	1.49e+00	0	25	104	0	71	24478
2026-01-11 04:10:42.37	16.73	20.22	-53.3	-69.2	3.8	1.49e+00	0	26	104	0	71	24395
2026-01-11 04:10:43.37	16.52	20.29	-53.3	-69.3	3.8	1.49e+00	0	25	104	0	71	24479
2026-01-11 04:10:44.36	16.31	20.36	-53.3	-69.3	3.8	1.49e+00	0	26	104	0	71	24423
2026-01-11 04:10:45.37	16.09	20.44	-53.4	-69.3	3.8	1.49e+00	0	26	104	0	71	24485
2026-01-11 04:10:46.37	15.88	20.51	-53.3	-69.3	3.8	1.49e+00	0	25	104	0	71	24470
2026-01-11 04:10:47.37	15.66	20.58	-53.3	-69.3	3.8	1.49e+00	0	25	104	0	71	24453
2026-01-11 04:10:48.37	15.45	20.65	-53.3	-69.3	3.8	1.49e+00	0	26	104	0	71	24461
2026-01-11 04:10:49.36	15.23	20.72	-53.3	-69.3	3.8	1.49e+00	0	26	104	0	71	24441
2026-01-11 04:10:50.37	15.01	20.79	-53.3	-69.3	3.8	1.49e+00	0	26	104	0	71	24476
2026-01-11 04:10:51.37	14.79	20.86	-53.3	-69.3	3.8	1.49e+00	0	25	104	0	71	24488
2026-01-11 04:10:52.37	14.57	20.93	-53.3	-69.3	3.8	1.49e+00	0	26	104	0	71	24476
2026-01-11 04:10:53.37	14.35	21.00	-53.3	-69.2	3.8	1.49e+00	0	26	104	0	71	24406
2026-01-11 04:10:54.37	14.13	21.07	-53.3	-69.3	3.8	1.49e+00	0	26	104	0	71	24422
2026-01-11 04:10:55.37	13.91	21.14	-53.3	-69.3	3.8	1.49e+00	0	26	104	0	71	24465
2026-01-11 04:10:56.37	13.68	21.20	-53.3	-69.3	3.8	1.49e+00	0	26	104	0	71	24456
2026-01-11 04:10:57.37	13.46	21.27	-53.3	-69.3	3.8	1.49e+00	0	26	104	0	71	24489
2026-01-11 04:10:58.38	13.23	21.34	-53.3	-69.3	3.8	1.49e+00	0	26	104	0	71	24509
2026-01-11 04:10:59.36	13.01	21.41	-53.3	-69.3	3.8	1.49e+00	0	26	104	0	71	24510
2026-01-11 04:11:00.37	12.78	21.47	-53.3	-69.3	3.8	1.49e+00	0	26	104	0	71	24475
2026-01-11 04:11:01.36	12.55	21.54	-53.3	-69.3	3.8	1.49e+00	0	26	104	0	71	24489
2026-01-11 04:11:02.36	12.32	21.61	-53.3	-69.3	3.8	1.49e+00	0	26	104	0	71	24456
2026-01-11 04:11:03.37	12.09	21.67	-53.3	-69.3	3.8	1.49e+00	0	26	104	0	71	24440
2026-01-11 04:11:04.37	11.86	21.74	-53.3	-69.3	3.8	1.49e+00	0	26	104	0	71	24469
2026-01-11 04:11:05.36	11.62	21.81	-53.4	-69.3	3.8	1.49e+00	0	26	104	0	71	24505
2026-01-11 04:11:06.37	11.39	21.87	-53.3	-69.3	3.8	1.49e+00	0	26	104	0	71	24496
2026-01-11 04:11:07.36	11.16	21.94	-53.4	-69.3	3.8	1.49e+00	0	25	104	0	71	24510
2026-01-11 04:11:08.35	10.92	22.00	-53.3	-69.3	3.8	1.49e+00	0	26	104	0	71	24504
2026-01-11 04:11:09.34	10.69	22.06	-53.3	-69.3	3.8	1.49e+00	0	26	104	0	71	24459
2026-01-11 04:11:10.34	10.45	22.13	-53.4	-69.3	3.8	1.49e+00	0	26	104	0	71	24556
2026-01-11 04:11:11.34	10.21	22.19	-53.3	-69.3	3.8	1.49e+00	0	26	104	0	71	24555
2026-01-11 04:11:12.34	9.97	22.25	-53.3	-69.3	3.8	1.49e+00	0	26	104	0	71	24498
2026-01-11 04:11:13.33	9.73	22.32	-53.3	-69.3	3.8	1.49e+00	0	26	104	0	71	24493
2026-01-11 04:11:14.33	9.49	22.38	-53.3	-69.3	3.8	1.49e+00	0	26	104	0	71	24497
2026-01-11 04:11:15.33	9.25	22.44	-53.3	-69.3	3.8	1.49e+00	0	26	104	0	71	24479
2026-01-11 04:11:16.33	9.00	22.50	-53.3	-69.3	3.8	1.49e+00	0	26	104	0	71	24505
2026-01-11 04:11:17.33	8.76	22.56	-53.3	-69.3	3.8	1.49e+00	0	26	104	0	71	24528
2026-01-11 04:11:18.33	8.51	22.62	-53.4	-69.3	3.8	1.49e+00	0	26	104	0	71	24516
2026-01-11 04:11:19.33	8.26	22.69	-53.4	-69.3	3.8	1.49e+00	0	26	104	0	71	24500
2026-01-11 04:11:20.33	8.02	22.75	-53.4	-69.3	3.8	1.49e+00	0	25	104	0	71	24565
2026-01-11 04:11:21.33	7.77	22.80	-53.4	-69.3	3.8	1.49e+00	0	26	104	0	71	24594
2026-01-11 04:11:22.33	7.52	22.86	-53.3	-69.3	3.8	1.49e+00	0	26	104	0	71	24539
2026-01-11 04:11:23.33	7.27	22.92	-53.4	-69.3	3.8	1.49e+00	0	26	104	0	71	24517
2026-01-11 04:11:24.32	7.02	22.98	-53.4	-69.3	3.8	1.49e+00	0	26	104	0	71	24524
2026-01-11 04:11:25.32	6.77	23.04	-53.4	-69.3	3.8	1.49e+00	0	26	104	0	71	24607
2026-01-11 04:11:26.33	6.51	23.10	-53.3	-69.3	3.8	1.49e+00	0	26	104	0	71	24565
2026-01-11 04:11:27.33	6.25	23.15	-53.3	-69.3	3.8	1.49e+00	0	26	104	0	71	24521
2026-01-11 04:11:28.33	6.00	23.21	-53.3	-69.3	3.8	1.49e+00	0	26	104	0	71	24518
2026-01-11 04:11:29.33	5.74	23.26	-53.3	-69.3	3.8	1.49e+00	0	26	104	0	71	24479
2026-01-11 04:11:30.34	5.48	23.32	-53.3	-69.3	3.8	1.49e+00	0	26	104	0	71	24492
2026-01-11 04:11:31.34	5.23	23.37	-53.3	-69.3	3.8	1.49e+00	0	26	104	0	71	24451
2026-01-11 04:11:32.33	4.97	23.43	-53.3	-69.3	3.8	1.49e+00	0	26	104	0	71	24468
2026-01-11 04:11:33.33	4.71	23.48	-53.4	-69.3	3.8	1.49e+00	0	26	104	0	71	24532
2026-01-11 04:11:34.32	4.45	23.53	-53.3	-69.3	3.8	1.49e+00	0	26	104	0	71	24459
2026-01-11 04:11:35.32	4.19	23.59	-53.3	-69.3	3.8	1.49e+00	0	26	104	0	71	24469
2026-01-11 04:11:36.31	3.93	23.64	-53.3	-69.3	3.8	1.49e+00	0	26	104	0	71	24565
2026-01-11 04:11:37.32	3.66	23.69	-53.3	-69.3	3.8	1.49e+00	0	26	104	0	71	24494
2026-01-11 04:11:38.32	3.40	23.74	-53.3	-69.3	3.8	1.49e+00	0	26	104	0	71	24530
2026-01-11 04:11:39.33	3.13	23.79	-53.4	-69.3	3.8	1.49e+00	0	26	104	0	71	24557
2026-01-11 04:11:40.33	2.86	23.84	-53.4	-69.3	3.8	1.49e+00	0	26	104	0	71	24483
2026-01-11 04:11:41.33	2.60	23.89	-53.4	-69.3	3.8	1.49e+00	0	26	104	0	71	24524
2026-01-11 04:11:42.33	2.33	23.94	-53.4	-69.3	3.8	1.49e+00	0	26	104	0	71	24478
2026-01-11 04:11:43.33	2.06	23.99	-53.3	-69.3	3.8	1.49e+00	0	26	104	0	71	24500
2026-01-11 04:11:44.33	1.79	24.03	-53.4	-69.3	3.8	1.49e+00	0	26	104	0	71	24523
2026-01-11 04:11:45.34	1.52	24.08	-53.3	-69.3	3.8	1.49e+00	0	26	104	0	71	24517
2026-01-11 04:11:46.34	1.25	24.13	-53.3	-69.3	3.8	1.49e+00	0	26	104	0	71	24427
2026-01-11 04:11:47.34	0.97	24.17	-53.3	-69.3	3.8	1.49e+00	0	26	104	0	71	24501
2026-01-11 04:11:48.35	0.70	24.22	-53.3	-69.3	3.8	1.49e+00	0	26	104	0	71	24504
2026-01-11 04:11:49.35	0.43	24.26	-53.3	-69.3	3.8	1.49e+00	0	26	104	0	71	24426
2026-01-11 04:11:50.35	0.15	24.31	-53.3	-69.3	3.8	1.49e+00	0	26	104	0	71	24518
2026-01-11 04:11:51.35	359.88	24.35	-53.3	-69.3	3.8	1.49e+00	0	26	104	0	71	24439
2026-01-11 04:11:52.34	359.60	24.39	-53.3	-69.3	3.8	1.49e+00	0	26	104	0	71	24449
2026-01-11 04:11:53.35	359.32	24.43	-53.3	-69.3	3.8	1.49e+00	0	26	104	0	71	24482
2026-01-11 04:11:54.35	359.05	24.48	-53.3	-69.3	3.8	1.49e+00	0	26	104	0	71	24467
2026-01-11 04:11:55.35	358.77	24.52	-53.3	-69.3	3.8	1.49e+00	0	26	104	0	71	24470
2026-01-11 04:11:56.35	358.49	24.56	-53.3	-69.3	3.8	1.49e+00	0	26	104	0	71	24485
2026-01-11 04:11:57.35	358.21	24.59	-53.3	-69.3	3.8	1.49e+00	0	26	104	0	71	24453
2026-01-11 04:11:58.35	357.93	24.63	-53.3	-69.3	3.8	1.49e+00	0	26	104	0	71	24507
2026-01-11 04:11:59.35	357.65	24.67	-53.3	-69.3	3.8	1.49e+00	0	26	104	0	71	24530
2026-01-11 04:12:00.34	357.37	24.71	-53.3	-69.3	3.8	1.49e+00	0	26	104	0	71	24517
2026-01-11 04:12:01.35	357.09	24.74	-53.3	-69.3	3.8	1.49e+00	0	26	104	0	71	24553
2026-01-11 04:12:02.34	356.81	24.78	-53.4	-69.3	3.9	1.49e+00	0	25	104	0	71	24509
2026-01-11 04:12:03.34	356.52	24.81	-53.3	-69.3	3.8	1.49e+00	0	26	104	0	71	24582
2026-01-11 04:12:04.34	356.24	24.85	-53.3	-69.3	3.8	1.49e+00	0	26	104	0	71	24538
2026-01-11 04:12:05.33	355.96	24.88	-53.4	-69.3	3.8	1.49e+00	0	26	104	0	71	24550
2026-01-11 04:12:06.34	355.67	24.91	-53.4	-69.3	3.8	1.49e+00	0	26	104	0	71	24546
2026-01-11 04:12:07.34	355.38	24.95	-53.3	-69.3	3.8	1.49e+00	0	26	104	0	71	24492
2026-01-11 04:12:08.35	355.09	24.98	-53.3	-69.3	3.8	1.49e+00	0	26	104	0	71	24498
2026-01-11 04:12:09.34	354.81	25.01	-53.3	-69.3	3.8	1.49e+00	0	26	104	0	71	24521
2026-01-11 04:12:10.34	354.52	25.04	-53.3	-69.3	3.8	1.49e+00	0	25	104	0	71	24499
2026-01-11 04:12:11.34	354.23	25.07	-53.3	-69.3	3.8	1.49e+00	0	26	104	0	71	24496
2026-01-11 04:12:12.33	353.95	25.09	-53.3	-69.3	3.8	1.49e+00	0	26	104	0	71	24516
2026-01-11 04:12:13.32	353.66	25.12	-53.4	-69.3	3.8	1.49e+00	0	26	104	0	71	24497
2026-01-11 04:12:14.32	353.37	25.15	-53.4	-69.3	3.8	1.49e+00	0	26	104	0	71	24577
2026-01-11 04:12:15.32	353.08	25.17	-53.4	-69.3	3.8	1.49e+00	0	26	104	0	71	24564
2026-01-11 04:12:16.33	352.79	25.20	-53.4	-69.3	3.8	1.49e+00	0	26	104	0	71	24526
2026-01-11 04:12:17.32	352.50	25.22	-53.3	-69.3	3.8	1.49e+00	0	26	104	0	71	24504
2026-01-11 04:12:18.33	352.21	25.25	-53.4	-69.3	3.8	1.49e+00	0	26	104	0	71	24531
2026-01-11 04:12:19.32	351.92	25.27	-53.4	-69.3	3.8	1.49e+00	0	26	104	0	71	24595
2026-01-11 04:12:20.32	351.63	25.29	-53.4	-69.3	3.8	1.49e+00	0	26	104	0	71	24568
2026-01-11 04:12:21.32	351.33	25.31	-53.4	-69.3	3.8	1.49e+00	0	26	104	0	71	24523
2026-01-11 04:12:22.32	351.04	25.33	-53.3	-69.3	3.8	1.49e+00	0	26	104	0	71	24545
2026-01-11 04:12:23.32	350.75	25.35	-53.3	-69.3	3.8	1.49e+00	0	25	104	0	71	24500
2026-01-11 04:12:24.32	350.45	25.37	-53.4	-69.3	3.8	1.49e+00	0	26	104	0	71	24530
2026-01-11 04:12:25.31	350.16	25.39	-53.4	-69.3	3.8	1.49e+00	0	25	104	0	71	24556
2026-01-11 04:12:26.32	349.86	25.40	-53.4	-69.3	3.8	1.49e+00	0	26	104	0	71	24539
2026-01-11 04:12:27.31	349.57	25.42	-53.4	-69.3	3.8	1.49e+00	0	26	104	0	71	24572
2026-01-11 04:12:28.31	349.28	25.44	-53.4	-69.3	3.8	1.49e+00	0	26	104	0	71	24553
2026-01-11 04:12:29.31	348.98	25.45	-53.4	-69.3	3.8	1.49e+00	0	26	104	0	71	24570
2026-01-11 04:12:30.32	348.68	25.46	-53.4	-69.3	3.8	1.49e+00	0	26	104	0	71	24548
2026-01-11 04:12:31.31	348.39	25.48	-53.4	-69.3	3.8	1.49e+00	0	26	104	0	71	24563
2026-01-11 04:12:32.32	348.09	25.49	-53.4	-69.3	3.8	1.49e+00	0	26	104	0	71	24496
2026-01-11 04:12:33.32	347.79	25.50	-53.4	-69.3	3.8	1.49e+00	0	26	104	0	71	24588
2026-01-11 04:12:34.32	347.50	25.51	-53.4	-69.3	3.8	1.49e+00	0	26	104	0	71	24591
2026-01-11 04:12:35.31	347.20	25.52	-53.4	-69.3	3.8	1.49e+00	0	26	104	0	71	24529
2026-01-11 04:12:36.32	346.90	25.53	-53.4	-69.3	3.8	1.49e+00	0	26	104	0	71	24557
2026-01-11 04:12:37.32	346.61	25.54	-53.3	-69.3	3.8	1.49e+00	0	26	104	0	71	24493
2026-01-11 04:12:38.32	346.31	25.54	-53.4	-69.3	3.8	1.49e+00	0	26	104	0	71	24612
2026-01-11 04:12:39.32	346.01	25.55	-53.4	-69.3	3.8	1.49e+00	0	26	104	0	71	24564
2026-01-11 04:12:40.31	345.72	25.56	-53.4	-69.3	3.8	1.49e+00	0	26	104	0	71	24609
2026-01-11 04:12:41.32	345.42	25.56	-53.4	-69.3	3.8	1.49e+00	0	26	104	0	71	24568
2026-01-11 04:12:42.32	345.12	25.56	-53.4	-69.3	3.8	1.49e+00	0	26	104	0	71	24565
2026-01-11 04:12:43.32	344.82	25.57	-53.4	-69.3	3.8	1.49e+00	0	26	104	0	71	24573
2026-01-11 04:12:44.32	344.52	25.57	-53.4	-69.3	3.8	1.49e+00	0	26	104	0	71	24575
2026-01-11 04:12:45.32	344.23	25.57	-53.4	-69.3	3.8	1.49e+00	0	26	104	0	71	24588
2026-01-11 04:12:46.33	343.93	25.57	-53.4	-69.3	3.8	1.49e+00	0	25	104	0	71	24582
2026-01-11 04:12:47.32	343.63	25.57	-53.4	-69.3	3.8	1.49e+00	0	26	104	0	71	24552
2026-01-11 04:12:48.33	343.33	25.57	-53.4	-69.3	3.8	1.49e+00	0	26	104	0	71	24581
2026-01-11 04:12:49.33	343.03	25.57	-53.4	-69.3	3.8	1.49e+00	0	26	104	0	71	24543
2026-01-11 04:12:50.33	342.73	25.56	-53.4	-69.3	3.8	1.49e+00	0	26	104	0	71	24586
2026-01-11 04:12:51.33	342.44	25.56	-53.4	-69.3	3.8	1.49e+00	0	26	104	0	71	24569
2026-01-11 04:12:52.33	342.14	25.55	-53.4	-69.3	3.8	1.49e+00	0	26	104	0	71	24531
2026-01-11 04:12:53.33	341.84	25.55	-53.4	-69.3	3.8	1.49e+00	0	26	104	0	71	24569
2026-01-11 04:12:54.33	341.54	25.54	-53.4	-69.3	3.8	1.49e+00	0	26	104	0	71	24610
2026-01-11 04:12:55.33	341.25	25.53	-53.4	-69.3	3.8	1.49e+00	0	25	104	0	71	24619
2026-01-11 04:12:56.33	340.95	25.53	-53.4	-69.3	3.8	1.49e+00	0	26	104	0	71	24523
2026-01-11 04:12:57.33	340.65	25.52	-53.4	-69.3	3.8	1.49e+00	0	26	104	0	71	24620
2026-01-11 04:12:58.34	340.35	25.51	-53.4	-69.3	3.8	1.49e+00	0	26	104	0	71	24575
2026-01-11 04:12:59.33	340.06	25.50	-53.4	-69.3	3.8	1.49e+00	0	26	104	0	71	24591
2026-01-11 04:13:00.33	339.76	25.48	-53.4	-69.3	3.8	1.49e+00	0	26	104	0	71	24545
2026-01-11 04:13:01.33	339.47	25.47	-53.4	-69.3	3.8	1.49e+00	0	26	104	0	71	24569
2026-01-11 04:13:02.33	339.17	25.46	-53.4	-69.3	3.8	1.49e+00	0	26	104	0	71	24597
2026-01-11 04:13:03.33	338.88	25.44	-53.4	-69.3	3.8	1.49e+00	0	26	104	0	71	24540
2026-01-11 04:13:04.33	338.58	25.43	-53.4	-69.3	3.8	1.49e+00	0	26	104	0	71	24564
2026-01-11 04:13:05.32	338.29	25.41	-53.4	-69.3	3.8	1.49e+00	0	26	104	0	71	24561
2026-01-11 04:13:06.32	337.99	25.40	-53.4	-69.3	3.8	1.49e+00	0	26	104	0	71	24569
2026-01-11 04:13:07.32	337.70	25.38	-53.4	-69.3	3.8	1.49e+00	0	26	104	0	71	24563
2026-01-11 04:13:08.32	337.41	25.36	-53.4	-69.3	3.8	1.49e+00	0	26	104	0	71	24564
2026-01-11 04:13:09.32	337.11	25.34	-53.4	-69.3	3.8	1.49e+00	0	26	104	0	71	24531
2026-01-11 04:13:10.32	336.82	25.32	-53.4	-69.3	3.8	1.49e+00	0	26	104	0	71	24570
2026-01-11 04:13:11.32	336.53	25.30	-53.4	-69.3	3.8	1.49e+00	0	26	104	0	71	24564
2026-01-11 04:13:12.32	336.23	25.28	-53.4	-69.3	3.8	1.49e+00	0	26	104	0	71	24614
2026-01-11 04:13:13.32	335.94	25.26	-53.4	-69.3	3.8	1.49e+00	0	26	104	0	71	24585
2026-01-11 04:13:14.32	335.65	25.24	-53.4	-69.3	3.8	1.49e+00	0	26	104	0	71	24606
2026-01-11 04:13:15.32	335.36	25.21	-53.4	-69.3	3.8	1.49e+00	0	26	104	0	71	24591
2026-01-11 04:13:16.32	335.07	25.19	-53.4	-69.3	3.8	1.49e+00	0	26	104	0	71	24605
2026-01-11 04:13:17.32	334.78	25.16	-53.4	-69.3	3.8	1.49e+00	0	26	104	0	71	24608
2026-01-11 04:13:18.32	334.49	25.14	-53.4	-69.3	3.8	1.49e+00	0	26	104	0	71	24540
2026-01-11 04:13:19.32	334.20	25.11	-53.4	-69.3	3.8	1.49e+00	0	26	104	0	71	24591
2026-01-11 04:13:20.32	333.91	25.08	-53.4	-69.3	3.8	1.49e+00	0	26	104	0	71	24626
2026-01-11 04:13:21.32	333.62	25.05	-53.4	-69.3	3.8	1.49e+00	0	26	104	0	71	24593
2026-01-11 04:13:22.33	333.33	25.02	-53.4	-69.3	3.8	1.49e+00	0	26	104	0	71	24574
2026-01-11 04:13:23.32	333.04	24.99	-53.4	-69.3	3.8	1.49e+00	0	26	104	0	71	24481
2026-01-11 04:13:24.32	332.76	24.96	-53.4	-69.3	3.8	1.49e+00	0	26	104	0	71	24648
2026-01-11 04:13:25.32	332.47	24.93	-53.4	-69.4	3.8	1.49e+00	0	26	104	0	71	24703
2026-01-11 04:13:26.33	332.18	24.90	-53.4	-69.3	3.8	1.49e+00	0	26	104	0	71	24567
2026-01-11 04:13:27.33	331.90	24.87	-53.4	-69.3	3.8	1.49e+00	0	26	104	0	71	24566
2026-01-11 04:13:28.33	331.61	24.83	-53.4	-69.3	3.8	1.49e+00	0	26	104	0	71	24615
2026-01-11 04:13:29.34	331.33	24.80	-53.4	-69.3	3.8	1.49e+00	0	26	104	0	71	24590
2026-01-11 04:13:30.33	331.05	24.76	-53.4	-69.3	3.8	1.49e+00	0	26	104	0	71	24580
2026-01-11 04:13:31.34	330.76	24.73	-53.4	-69.3	3.8	1.49e+00	0	26	104	0	71	24598
2026-01-11 04:13:32.34	330.48	24.69	-53.4	-69.3	3.8	1.49e+00	0	26	104	0	71	24575
2026-01-11 04:13:33.34	330.20	24.65	-53.4	-69.3	3.8	1.49e+00	0	26	104	0	71	24582
2026-01-11 04:13:34.34	329.92	24.61	-53.4	-69.3	3.8	1.49e+00	0	26	104	0	71	24518
2026-01-11 04:13:35.34	329.64	24.58	-53.4	-69.3	3.8	1.49e+00	0	26	104	0	71	24550
2026-01-11 04:13:36.33	329.36	24.54	-53.3	-69.3	3.8	1.49e+00	0	26	104	0	71	24560
2026-01-11 04:13:37.33	329.08	24.50	-53.4	-69.3	3.8	1.49e+00	0	26	104	0	71	24595
2026-01-11 04:13:38.34	328.80	24.45	-53.4	-69.3	3.8	1.49e+00	0	26	104	0	71	24509
2026-01-11 04:13:39.34	328.52	24.41	-53.4	-69.3	3.8	1.49e+00	0	26	104	0	71	24667
2026-01-11 04:13:40.35	328.25	24.37	-53.4	-69.3	3.8	1.49e+00	0	26	104	0	71	24591
2026-01-11 04:13:41.35	327.97	24.33	-53.4	-69.3	3.8	1.49e+00	0	26	104	0	71	24589
2026-01-11 04:13:42.35	327.69	24.28	-53.4	-69.3	3.8	1.49e+00	0	26	104	0	71	24634
2026-01-11 04:13:43.35	327.42	24.24	-53.4	-69.3	3.8	1.49e+00	0	26	104	0	71	24585
2026-01-11 04:13:44.35	327.15	24.20	-53.4	-69.3	3.8	1.49e+00	0	26	104	0	71	24614
2026-01-11 04:13:45.34	326.88	24.15	-53.3	-69.3	3.8	1.49e+00	0	26	104	0	71	24570
2026-01-11 04:13:46.35	326.60	24.11	-53.4	-69.3	3.8	1.49e+00	0	26	104	0	71	24632
2026-01-11 04:13:47.34	326.34	24.06	-53.4	-69.3	3.8	1.49e+00	0	26	104	0	71	24604
2026-01-11 04:13:48.35	326.06	24.01	-53.4	-69.3	3.8	1.49e+00	0	26	104	0	71	24569
2026-01-11 04:13:49.35	325.79	23.96	-53.4	-69.3	3.8	1.49e+00	0	26	104	0	71	24631
2026-01-11 04:13:50.34	325.53	23.92	-53.4	-69.3	3.8	1.49e+00	0	26	104	0	71	24592
2026-01-11 04:13:51.34	325.26	23.87	-53.4	-69.3	3.8	1.49e+00	0	26	104	0	71	24583
2026-01-11 04:13:52.34	324.99	23.82	-53.4	-69.3	3.8	1.49e+00	0	26	104	0	71	24540
2026-01-11 04:13:53.34	324.73	23.77	-53.4	-69.3	3.8	1.49e+00	0	26	104	0	71	24591
2026-01-11 04:13:54.34	324.46	23.72	-53.4	-69.3	3.8	1.49e+00	0	26	104	0	71	24577
2026-01-11 04:13:55.34	324.20	23.67	-53.4	-69.3	3.8	1.49e+00	0	26	104	0	71	24546
2026-01-11 04:13:56.34	323.94	23.61	-53.4	-69.3	3.8	1.49e+00	0	26	104	0	71	24616
2026-01-11 04:13:57.35	323.67	23.56	-53.4	-69.3	3.8	1.49e+00	0	26	104	0	71	24567
2026-01-11 04:13:58.35	323.41	23.51	-53.4	-69.3	3.8	1.49e+00	0	26	104	0	71	24571
2026-01-11 04:13:59.35	323.15	23.45	-53.4	-69.3	3.8	1.49e+00	0	26	104	0	71	24533
2026-01-11 04:14:00.33	322.89	23.40	-53.3	-69.3	3.8	1.49e+00	0	26	104	0	71	24440
2026-01-11 04:14:01.32	322.64	23.35	-53.4	-69.3	3.8	1.49e+00	0	26	104	0	71	24544
2026-01-11 04:14:02.32	322.38	23.29	-53.4	-69.3	3.8	1.49e+00	0	26	104	0	71	24560
2026-01-11 04:14:03.32	322.12	23.24	-53.4	-69.3	3.8	1.49e+00	0	26	104	0	71	24548
2026-01-11 04:14:04.32	321.87	23.18	-53.4	-69.3	3.8	1.49e+00	0	26	104	0	71	24629
2026-01-11 04:14:05.32	321.61	23.13	-53.4	-69.3	3.8	1.49e+00	0	26	104	0	71	24644
2026-01-11 04:14:06.33	321.35	23.07	-53.4	-69.3	3.8	1.49e+00	0	26	104	0	71	24551
2026-01-11 04:14:07.32	321.10	23.01	-53.4	-69.3	3.8	1.49e+00	0	26	104	0	71	24647
2026-01-11 04:14:08.32	320.85	22.95	-53.4	-69.3	3.8	1.49e+00	0	26	104	0	71	24628
2026-01-11 04:14:09.32	320.60	22.89	-53.4	-69.3	3.8	1.49e+00	0	26	104	0	71	24616
2026-01-11 04:14:10.32	320.35	22.84	-53.4	-69.3	3.8	1.49e+00	0	26	104	0	71	24513
2026-01-11 04:14:11.31	320.10	22.78	-53.4	-69.3	3.8	1.49e+00	0	26	104	0	71	24646
2026-01-11 04:14:12.30	319.86	22.72	-53.4	-69.3	3.8	1.49e+00	0	26	104	0	71	24636
2026-01-11 04:14:13.31	319.61	22.66	-53.4	-69.3	3.8	1.49e+00	0	26	104	0	71	24583
2026-01-11 04:14:14.31	319.36	22.60	-53.4	-69.3	3.8	1.49e+00	0	26	104	0	71	24584
2026-01-11 04:14:15.31	319.11	22.54	-53.4	-69.3	3.8	1.49e+00	0	26	104	0	71	24561
2026-01-11 04:14:16.30	318.87	22.48	-53.3	-69.3	3.8	1.49e+00	0	26	104	0	71	24468
2026-01-11 04:14:17.30	318.63	22.41	-53.3	-69.3	3.8	1.49e+00	0	26	104	0	71	24518
2026-01-11 04:14:18.31	318.38	22.35	-53.4	-69.3	3.8	1.49e+00	0	26	104	0	71	24564
2026-01-11 04:14:19.30	318.14	22.29	-53.4	-69.3	3.8	1.49e+00	0	26	104	0	71	24586
2026-01-11 04:14:20.30	317.90	22.23	-53.4	-69.3	3.8	1.49e+00	0	26	104	0	71	24563
2026-01-11 04:14:21.30	317.66	22.16	-53.4	-69.3	3.8	1.49e+00	0	26	104	0	71	24577
2026-01-11 04:14:22.29	317.43	22.10	-53.4	-69.3	3.8	1.49e+00	0	26	104	0	71	24612
2026-01-11 04:14:23.30	317.19	22.03	-53.4	-69.3	3.8	1.49e+00	0	26	104	0	71	24596
2026-01-11 04:14:24.30	316.95	21.97	-53.4	-69.3	3.8	1.49e+00	0	26	104	0	71	24541
2026-01-11 04:14:25.31	316.71	21.90	-53.4	-69.3	3.8	1.49e+00	0	26	104	0	71	24519
2026-01-11 04:14:26.31	316.48	21.84	-53.4	-69.3	3.8	1.49e+00	0	26	104	0	71	24636
2026-01-11 04:14:27.31	316.24	21.77	-53.4	-69.3	3.8	1.49e+00	0	26	104	0	71	24655
2026-01-11 04:14:28.32	316.01	21.71	-53.4	-69.3	3.8	1.49e+00	0	26	104	0	71	24578
2026-01-11 04:14:29.32	315.78	21.64	-53.4	-69.3	3.8	1.49e+00	0	26	104	0	71	24577
2026-01-11 04:14:30.32	315.55	21.57	-53.4	-69.3	3.8	1.49e+00	0	26	104	0	71	24559
2026-01-11 04:14:31.33	315.31	21.51	-53.4	-69.3	3.8	1.49e+00	0	26	104	0	71	24668
2026-01-11 04:14:32.32	315.09	21.44	-53.4	-69.3	3.8	1.49e+00	0	26	104	0	71	24577
2026-01-11 04:14:33.32	314.86	21.37	-53.4	-69.3	3.8	1.49e+00	0	26	104	0	71	24633
2026-01-11 04:14:34.32	314.63	21.30	-53.4	-69.3	3.8	1.49e+00	0	26	104	0	71	24630
2026-01-11 04:14:35.32	314.41	21.24	-53.4	-69.3	3.8	1.49e+00	0	26	104	0	71	24619
2026-01-11 04:14:36.32	314.18	21.17	-53.4	-69.3	3.8	1.49e+00	0	26	104	0	71	24596
2026-01-11 04:14:37.32	313.96	21.10	-53.4	-69.3	3.8	1.49e+00	0	26	104	0	71	24617
2026-01-11 04:14:38.33	313.73	21.03	-53.4	-69.3	3.8	1.49e+00	0	26	104	0	71	24566
2026-01-11 04:14:39.32	313.51	20.96	-53.4	-69.3	3.8	1.49e+00	0	26	104	0	71	24653
2026-01-11 04:14:40.32	313.29	20.89	-53.4	-69.3	3.8	1.49e+00	0	26	104	0	71	24586
2026-01-11 04:14:41.32	313.07	20.82	-53.4	-69.3	3.8	1.49e+00	0	26	104	0	71	24657
2026-01-11 04:14:42.33	312.85	20.75	-53.4	-69.3	3.8	1.49e+00	0	26	104	0	71	24649
2026-01-11 04:14:43.33	312.63	20.68	-53.4	-69.3	3.9	1.49e+00	0	26	104	0	71	24623
2026-01-11 04:14:44.33	312.42	20.61	-53.4	-69.4	3.8	1.49e+00	0	26	104	0	71	24723
2026-01-11 04:14:45.33	312.20	20.54	-53.4	-69.4	3.8	1.49e+00	0	26	104	0	71	24705
2026-01-11 04:14:46.33	311.99	20.47	-53.4	-69.3	3.8	1.49e+00	0	26	104	0	71	24671
2026-01-11 04:14:47.33	311.77	20.40	-53.4	-69.3	3.8	1.49e+00	0	26	104	0	71	24674
2026-01-11 04:14:48.34	311.56	20.33	-53.4	-69.3	3.8	1.49e+00	0	26	104	0	71	24683
2026-01-11 04:14:49.34	311.35	20.25	-53.4	-69.3	3.8	1.49e+00	0	26	104	0	71	24684
2026-01-11 04:14:50.33	311.14	20.18	-53.4	-69.3	3.8	1.49e+00	0	26	104	0	71	24681
2026-01-11 04:14:51.33	310.93	20.11	-53.4	-69.3	3.8	1.49e+00	0	26	104	0	71	24690
2026-01-11 04:14:52.33	310.72	20.04	-53.4	-69.3	3.8	1.49e+00	0	26	104	0	71	24692
2026-01-11 04:14:53.34	310.51	19.97	-53.4	-69.4	3.8	1.49e+00	0	26	104	0	71	24782
2026-01-11 04:14:54.34	310.30	19.89	-53.4	-69.3	3.8	1.49e+00	0	26	104	0	71	24651
2026-01-11 04:14:55.34	310.10	19.82	-53.4	-69.3	3.8	1.49e+00	0	26	104	0	71	24669
2026-01-11 04:14:56.33	309.89	19.75	-53.4	-69.4	3.8	1.49e+00	0	26	104	0	71	24718
2026-01-11 04:14:57.33	309.69	19.68	-53.4	-69.3	3.8	1.49e+00	0	26	104	0	71	24693
2026-01-11 04:14:58.34	309.49	19.60	-53.4	-69.4	3.8	1.49e+00	0	26	104	0	71	24704
2026-01-11 04:14:59.34	309.28	19.53	-53.4	-69.3	3.8	1.49e+00	0	26	104	0	71	24625
2026-01-11 04:15:00.34	309.08	19.45	-53.4	-69.4	3.8	1.49e+00	0	26	104	0	71	24707
2026-01-11 04:15:01.34	308.88	19.38	-53.4	-69.3	3.8	1.49e+00	0	26	104	0	71	24635
2026-01-11 04:15:02.34	308.68	19.31	-53.4	-69.3	3.8	1.49e+00	0	26	104	0	71	24648
2026-01-11 04:15:03.34	308.49	19.23	-53.4	-69.3	3.8	1.49e+00	0	26	104	0	71	24693
2026-01-11 04:15:04.34	308.29	19.16	-53.4	-69.3	3.8	1.49e+00	0	26	104	0	71	24638
2026-01-11 04:15:05.35	308.09	19.08	-53.4	-69.4	3.8	1.49e+00	0	26	104	0	71	24705
2026-01-11 04:15:06.35	307.90	19.01	-53.4	-69.3	3.8	1.49e+00	0	26	104	0	71	24674
2026-01-11 04:15:07.35	307.70	18.93	-53.4	-69.3	3.8	1.49e+00	0	26	104	0	71	24636
2026-01-11 04:15:08.35	307.51	18.86	-53.4	-69.3	3.8	1.49e+00	0	26	104	0	71	24667
2026-01-11 04:15:09.35	307.32	18.79	-53.4	-69.3	3.8	1.49e+00	0	26	104	0	71	24639
2026-01-11 04:15:10.35	307.13	18.71	-53.4	-69.4	3.8	1.49e+00	0	26	104	0	71	24747
2026-01-11 04:15:11.35	306.94	18.64	-53.5	-69.4	3.8	1.49e+00	0	26	104	0	72	23446
2026-01-11 04:15:12.34	306.75	18.56	-53.4	-69.4	3.8	1.49e+00	0	26	104	0	72	23397
2026-01-11 04:15:13.35	306.56	18.49	-53.4	-69.4	3.8	1.49e+00	0	26	104	0	72	23318
2026-01-11 04:15:14.34	306.37	18.41	-53.4	-69.3	3.8	1.49e+00	0	26	104	0	72	23289
2026-01-11 04:15:15.35	306.18	18.33	-53.4	-69.4	3.8	1.49e+00	0	26	104	0	72	23379
2026-01-11 04:15:16.35	306.00	18.26	-53.4	-69.3	3.8	1.49e+00	0	26	104	0	72	23286
2026-01-11 04:15:17.35	305.81	18.18	-53.5	-69.4	3.8	1.49e+00	0	26	104	0	72	23324
2026-01-11 04:15:18.35	305.63	18.11	-53.5	-69.4	3.8	1.49e+00	0	26	104	0	72	23329
2026-01-11 04:15:19.35	305.45	18.03	-53.4	-69.4	3.8	1.49e+00	0	26	104	0	72	23331
2026-01-11 04:15:20.36	305.26	17.96	-53.4	-69.4	3.8	1.49e+00	0	26	104	0	72	23343
2026-01-11 04:15:21.35	305.09	17.88	-53.4	-69.4	3.8	1.49e+00	0	26	104	0	72	23335
2026-01-11 04:15:22.36	304.90	17.80	-53.4	-69.3	3.8	1.49e+00	0	26	104	0	72	23288
2026-01-11 04:15:23.36	304.72	17.73	-53.4	-69.4	3.8	1.49e+00	0	26	104	0	72	23322
2026-01-11 04:15:24.35	304.55	17.65	-53.4	-69.3	3.8	1.49e+00	0	26	104	0	72	23251
2026-01-11 04:15:25.35	304.37	17.58	-53.4	-69.4	3.8	1.49e+00	0	26	104	0	72	23330
2026-01-11 04:15:26.35	304.19	17.50	-53.4	-69.3	3.8	1.49e+00	0	26	104	0	72	23291
2026-01-11 04:15:27.35	304.02	17.42	-53.5	-69.4	3.8	1.49e+00	0	26	104	0	72	23383
2026-01-11 04:15:28.35	303.84	17.35	-53.4	-69.4	3.8	1.49e+00	0	26	104	0	72	23360
2026-01-11 04:15:29.35	303.67	17.27	-53.5	-69.4	3.8	1.49e+00	0	26	104	0	72	23352
2026-01-11 04:15:30.35	303.50	17.20	-53.4	-69.4	3.8	1.49e+00	0	26	104	0	72	23407
2026-01-11 04:15:31.36	303.32	17.12	-53.4	-69.4	3.8	1.49e+00	0	26	104	0	72	23335
2026-01-11 04:15:32.36	303.15	17.04	-53.4	-69.4	3.8	1.49e+00	0	26	104	0	72	23326
2026-01-11 04:15:33.36	302.98	16.97	-53.4	-69.4	3.8	1.49e+00	0	26	104	0	72	23327
2026-01-11 04:15:34.36	302.81	16.89	-53.4	-69.4	3.8	1.49e+00	0	26	104	0	72	23381
2026-01-11 04:15:35.36	302.65	16.81	-53.4	-69.4	3.8	1.49e+00	0	26	104	0	72	23358
2026-01-11 04:15:36.36	302.48	16.74	-53.4	-69.4	3.8	1.49e+00	0	26	104	0	72	23342
2026-01-11 04:15:37.36	302.31	16.66	-53.5	-69.3	3.8	1.49e+00	0	26	104	0	72	23310
2026-01-11 04:15:38.36	302.15	16.58	-53.5	-69.4	3.8	1.49e+00	0	26	104	0	72	23367
2026-01-11 04:15:39.36	301.98	16.51	-53.4	-69.4	3.8	1.49e+00	0	26	104	0	72	23409
2026-01-11 04:15:40.37	301.82	16.43	-53.5	-69.4	3.8	1.49e+00	0	26	104	0	72	23414
2026-01-11 04:15:41.37	301.65	16.35	-53.5	-69.4	3.8	1.49e+00	0	26	104	0	72	23435
2026-01-11 04:15:42.37	301.49	16.28	-53.4	-69.4	3.8	1.49e+00	0	26	104	0	72	23415
2026-01-11 04:15:43.37	301.33	16.20	-53.5	-69.4	3.8	1.49e+00	0	26	104	0	72	23407
2026-01-11 04:15:44.36	301.17	16.13	-53.5	-69.4	3.8	1.49e+00	0	26	104	0	72	23372
2026-01-11 04:15:45.37	301.01	16.05	-53.4	-69.4	3.8	1.49e+00	0	26	104	0	72	23376
2026-01-11 04:15:46.37	300.85	15.97	-53.4	-69.4	3.8	1.49e+00	0	26	104	0	72	23455
2026-01-11 04:15:47.37	300.69	15.90	-53.5	-69.4	3.8	1.49e+00	0	26	104	0	72	23366
2026-01-11 04:15:48.37	300.53	15.82	-53.5	-69.4	3.8	1.49e+00	0	26	104	0	72	23353
2026-01-11 04:15:49.37	300.38	15.74	-53.4	-69.4	3.8	1.49e+00	0	26	104	0	72	23362
2026-01-11 04:15:50.37	300.22	15.67	-53.5	-69.4	3.8	1.49e+00	0	26	104	0	72	23333
2026-01-11 04:15:51.37	300.07	15.59	-53.4	-69.4	3.8	1.49e+00	0	26	104	0	72	23370
2026-01-11 04:15:52.37	299.91	15.51	-53.4	-69.4	3.8	1.49e+00	0	26	104	0	72	23332
2026-01-11 04:15:53.37	299.76	15.44	-53.4	-69.4	3.8	1.49e+00	0	26	104	0	72	23321
2026-01-11 04:15:54.38	299.60	15.36	-53.4	-69.4	3.8	1.49e+00	0	26	104	0	72	23322
2026-01-11 04:15:55.37	299.45	15.29	-53.4	-69.4	3.8	1.49e+00	0	26	104	0	72	23398
2026-01-11 04:15:56.36	299.30	15.21	-53.5	-69.4	3.8	1.49e+00	0	26	104	0	72	23389
2026-01-11 04:15:57.36	299.15	15.13	-53.4	-69.3	3.8	1.49e+00	0	26	104	0	72	23287
2026-01-11 04:15:58.36	299.00	15.06	-53.4	-69.4	3.8	1.49e+00	0	26	104	0	72	23369
2026-01-11 04:15:59.37	298.85	14.98	-53.5	-69.4	3.8	1.49e+00	0	26	104	0	72	23437
2026-01-11 04:16:00.37	298.71	14.91	-53.5	-69.4	3.8	1.49e+00	0	26	104	0	72	23388
2026-01-11 04:16:01.36	298.56	14.83	-53.5	-69.4	3.9	1.49e+00	0	26	104	0	72	23386
2026-01-11 04:16:02.36	298.41	14.75	-53.4	-69.4	3.8	1.49e+00	0	26	104	0	72	23403
2026-01-11 04:16:03.36	298.27	14.68	-53.4	-69.4	3.8	1.49e+00	0	26	104	0	72	23399
2026-01-11 04:16:04.35	298.13	14.60	-53.5	-69.4	3.8	1.49e+00	0	26	104	0	72	23422
2026-01-11 04:16:05.35	297.98	14.53	-53.4	-69.3	3.8	1.49e+00	0	26	104	0	72	23298
2026-01-11 04:16:06.36	297.84	14.45	-53.4	-69.4	3.8	1.49e+00	0	26	104	0	72	23402
2026-01-11 04:16:07.35	297.70	14.38	-53.4	-69.4	3.8	1.49e+00	0	26	104	0	72	23360
2026-01-11 04:16:08.35	297.55	14.30	-53.4	-69.4	3.8	1.49e+00	0	26	104	0	72	23384
2026-01-11 04:16:09.35	297.41	14.23	-53.4	-69.4	3.8	1.49e+00	0	26	104	0	72	23322
2026-01-11 04:16:10.34	297.27	14.15	-53.5	-69.4	3.8	1.49e+00	0	26	104	0	72	23359
2026-01-11 04:16:11.34	297.13	14.08	-53.4	-69.3	3.8	1.49e+00	0	26	104	0	72	23310
2026-01-11 04:16:12.33	297.00	14.00	-53.4	-69.4	3.8	1.49e+00	0	26	104	0	72	23323
2026-01-11 04:16:13.34	296.86	13.92	-53.4	-69.3	3.8	1.49e+00	0	26	104	0	72	23306
2026-01-11 04:16:14.34	296.72	13.85	-53.4	-69.4	3.8	1.49e+00	0	26	104	0	72	23358
2026-01-11 04:16:15.33	296.58	13.78	-53.5	-69.4	3.8	1.49e+00	0	26	104	0	72	23332
2026-01-11 04:16:16.33	296.45	13.70	-53.4	-69.4	3.8	1.49e+00	0	26	104	0	72	23348
2026-01-11 04:16:17.33	296.31	13.63	-53.5	-69.4	3.8	1.49e+00	0	26	104	0	72	23437
2026-01-11 04:16:18.32	296.18	13.55	-53.5	-69.4	3.8	1.49e+00	0	26	104	0	72	23384
2026-01-11 04:16:19.32	296.04	13.48	-53.5	-69.4	3.8	1.49e+00	0	26	104	0	72	23359
2026-01-11 04:16:20.32	295.91	13.40	-53.5	-69.4	3.8	1.49e+00	0	26	104	0	72	23426
2026-01-11 04:16:21.32	295.78	13.33	-53.5	-69.4	3.8	1.49e+00	0	26	104	0	72	23383
2026-01-11 04:16:22.33	295.64	13.25	-53.4	-69.4	3.8	1.49e+00	0	26	104	0	72	23405
2026-01-11 04:16:23.32	295.51	13.18	-53.4	-69.4	3.8	1.49e+00	0	26	104	0	72	23366
2026-01-11 04:16:24.32	295.38	13.10	-53.4	-69.4	3.8	1.49e+00	0	26	104	0	72	23385
2026-01-11 04:16:25.32	295.25	13.03	-53.4	-69.4	3.8	1.49e+00	0	26	104	0	72	23337
2026-01-11 04:16:26.32	295.13	12.95	-53.4	-69.3	3.8	1.49e+00	0	26	104	0	72	23299
2026-01-11 04:16:27.32	295.00	12.88	-53.4	-69.4	3.8	1.49e+00	0	26	104	0	72	23317
2026-01-11 04:16:28.33	294.87	12.80	-53.4	-69.4	3.8	1.49e+00	0	26	104	0	72	23382
2026-01-11 04:16:29.33	294.74	12.73	-53.4	-69.4	3.8	1.49e+00	0	26	104	0	72	23364
2026-01-11 04:16:30.33	294.61	12.66	-53.4	-69.4	3.8	1.49e+00	0	26	104	0	72	23348
2026-01-11 04:16:31.33	294.49	12.58	-53.4	-69.4	3.8	1.49e+00	0	26	104	0	72	23325
2026-01-11 04:16:32.32	294.36	12.51	-53.4	-69.4	3.8	1.49e+00	0	26	104	0	72	23335
2026-01-11 04:16:33.32	294.24	12.44	-53.4	-69.4	3.8	1.49e+00	0	26	104	0	72	23321
2026-01-11 04:16:34.32	294.11	12.36	-53.4	-69.3	3.8	1.49e+00	0	26	104	0	72	23300
2026-01-11 04:16:35.32	293.99	12.29	-53.4	-69.3	3.8	1.49e+00	0	26	104	0	72	23302
2026-01-11 04:16:36.33	293.87	12.21	-53.5	-69.4	3.8	1.49e+00	0	26	104	0	72	23402
2026-01-11 04:16:37.33	293.74	12.14	-53.5	-69.4	3.8	1.49e+00	0	26	104	0	72	23387
2026-01-11 04:16:38.33	293.62	12.07	-53.5	-69.4	3.8	1.49e+00	0	26	104	0	72	23350
2026-01-11 04:16:39.33	293.50	11.99	-53.4	-69.4	3.8	1.49e+00	0	26	104	0	72	23338
2026-01-11 04:16:40.33	293.38	11.92	-53.4	-69.4	3.8	1.49e+00	0	26	104	0	72	23344
2026-01-11 04:16:41.33	293.26	11.85	-53.4	-69.4	3.8	1.49e+00	0	26	104	0	72	23371
2026-01-11 04:16:42.33	293.14	11.78	-53.4	-69.4	3.8	1.49e+00	0	26	104	0	72	23352
2026-01-11 04:16:43.33	293.02	11.70	-53.4	-69.4	3.8	1.49e+00	0	26	104	0	72	23335
2026-01-11 04:16:44.33	292.91	11.63	-53.4	-69.4	3.8	1.49e+00	0	26	104	0	72	23382
2026-01-11 04:16:45.33	292.79	11.56	-53.4	-69.4	3.8	1.49e+00	0	26	104	0	72	23321
2026-01-11 04:16:46.32	292.67	11.49	-53.4	-69.4	3.8	1.49e+00	0	26	104	0	72	23363
2026-01-11 04:16:47.32	292.56	11.41	-53.4	-69.4	3.8	1.49e+00	0	26	104	0	72	23312
2026-01-11 04:16:48.31	292.44	11.34	-53.4	-69.4	3.8	1.49e+00	0	26	104	0	72	23328
2026-01-11 04:16:49.31	292.33	11.27	-53.4	-69.4	3.8	1.49e+00	0	26	104	0	72	23381
2026-01-11 04:16:50.31	292.21	11.20	-53.5	-69.4	3.8	1.49e+00	0	26	104	0	72	23392
2026-01-11 04:16:51.31	292.10	11.12	-53.4	-69.4	3.8	1.49e+00	0	26	104	0	72	23408
2026-01-11 04:16:52.30	291.99	11.05	-53.4	-69.4	3.8	1.49e+00	0	26	104	0	72	23369
2026-01-11 04:16:53.31	291.87	10.98	-53.4	-69.4	3.8	1.49e+00	0	26	104	0	72	23364
2026-01-11 04:16:54.31	291.76	10.91	-53.4	-69.4	3.8	1.49e+00	0	26	104	0	72	23333
2026-01-11 04:16:55.30	291.65	10.84	-53.4	-69.4	3.8	1.49e+00	0	26	104	0	72	23385
2026-01-11 04:16:56.30	291.54	10.77	-53.4	-69.3	3.8	1.49e+00	0	26	104	0	72	23298
2026-01-11 04:16:57.30	291.43	10.70	-53.4	-69.4	3.8	1.49e+00	0	26	104	0	72	23344
2026-01-11 04:16:58.30	291.32	10.62	-53.4	-69.4	3.8	1.49e+00	0	26	104	0	72	23357
2026-01-11 04:16:59.30	291.21	10.55	-53.4	-69.4	3.8	1.49e+00	0	26	104	0	72	23351
2026-01-11 04:17:00.29	291.10	10.48	-53.5	-69.4	3.8	1.49e+00	0	26	104	0	72	23400
2026-01-11 04:17:01.29	290.99	10.41	-53.4	-69.4	3.8	1.49e+00	0	26	104	0	72	23339
2026-01-11 04:17:02.29	290.89	10.34	-53.4	-69.4	3.8	1.49e+00	0	26	104	0	72	23355
2026-01-11 04:17:03.29	290.78	10.27	-53.4	-69.4	3.8	1.49e+00	0	26	104	0	72	23360
2026-01-11 04:17:04.29	290.67	10.20	-53.4	-69.4	3.8	1.49e+00	0	26	104	0	72	23364
2026-01-11 04:17:05.28	290.57	10.13	-53.4	-69.4	3.8	1.49e+00	0	26	104	0	72	23312
2026-01-11 04:17:06.28	290.46	10.06	-53.4	-69.3	3.8	1.49e+00	0	26	104	0	72	23292
2026-01-11 04:17:07.28	290.36	9.99	-53.4	-69.4	3.8	1.49e+00	0	26	104	0	72	23422
2026-01-11 04:17:08.28	290.25	9.92	-53.5	-69.4	3.8	1.49e+00	0	26	104	0	72	23404
2026-01-11 04:17:09.28	290.15	9.85	-53.4	-69.4	3.8	1.49e+00	0	26	104	0	72	23359
2026-01-11 04:17:10.27	290.05	9.78	-53.4	-69.4	3.8	1.49e+00	0	26	104	0	72	23353
2026-01-11 04:17:11.27	289.94	9.71	-53.4	-69.3	3.8	1.49e+00	0	26	104	0	72	23301
2026-01-11 04:17:12.27	289.84	9.64	-53.5	-69.4	3.8	1.49e+00	0	26	104	0	72	23393
2026-01-11 04:17:13.26	289.74	9.57	-53.4	-69.3	3.8	1.49e+00	0	26	104	0	72	23298
2026-01-11 04:17:14.26	289.64	9.50	-53.4	-69.4	3.8	1.49e+00	0	26	104	0	72	23350
2026-01-11 04:17:15.26	289.54	9.43	-53.4	-69.4	3.8	1.49e+00	0	26	104	0	72	23362
2026-01-11 04:17:16.27	289.44	9.36	-53.5	-69.4	3.8	1.49e+00	0	26	104	0	72	23437
2026-01-11 04:17:17.26	289.34	9.29	-53.5	-69.4	3.8	1.49e+00	0	26	104	0	72	23382
2026-01-11 04:17:18.26	289.24	9.22	-53.5	-69.4	3.8	1.49e+00	0	26	104	0	72	23390
2026-01-11 04:17:19.26	289.14	9.15	-53.5	-69.4	3.8	1.49e+00	0	26	104	0	72	23381
2026-01-11 04:17:20.27	289.04	9.08	-53.5	-69.4	3.8	1.49e+00	0	26	104	0	72	23358
2026-01-11 04:17:21.27	288.94	9.01	-53.4	-69.3	3.8	1.49e+00	0	26	104	0	72	23303
2026-01-11 04:17:22.27	288.84	8.94	-53.5	-69.4	3.8	1.49e+00	0	26	104	0	72	23422
2026-01-11 04:17:23.27	288.74	8.88	-53.5	-69.4	3.8	1.49e+00	0	26	104	0	72	23485
2026-01-11 04:17:24.28	288.65	8.81	-53.4	-69.4	3.8	1.49e+00	0	26	104	0	72	23374
2026-01-11 04:17:25.27	288.55	8.74	-53.4	-69.4	3.8	1.49e+00	0	26	104	0	72	23370
2026-01-11 04:17:26.28	288.46	8.67	-53.4	-69.4	3.8	1.49e+00	0	26	104	0	72	23367
2026-01-11 04:17:27.28	288.36	8.60	-53.4	-69.4	3.8	1.49e+00	0	26	104	0	72	23355
2026-01-11 04:17:28.28	288.27	8.53	-53.4	-69.4	3.8	1.49e+00	0	26	104	0	72	23347
2026-01-11 04:17:29.28	288.17	8.47	-53.4	-69.4	3.8	1.49e+00	0	26	104	0	72	23347
2026-01-11 04:17:30.28	288.08	8.40	-53.4	-69.4	3.8	1.49e+00	0	26	104	0	72	23424
2026-01-11 04:17:31.29	287.98	8.33	-53.4	-69.3	3.8	1.49e+00	0	26	104	0	72	23265
2026-01-11 04:17:32.29	287.89	8.26	-53.4	-69.4	3.8	1.49e+00	0	26	104	0	72	23316
2026-01-11 04:17:33.29	287.80	8.19	-53.4	-69.4	3.8	1.49e+00	0	26	104	0	72	23319
2026-01-11 04:17:34.30	287.70	8.13	-53.5	-69.4	3.8	1.49e+00	0	26	104	0	72	23357
2026-01-11 04:17:35.30	287.61	8.06	-53.5	-69.4	3.8	1.49e+00	0	26	104	0	72	23372
2026-01-11 04:17:36.30	287.52	7.99	-53.5	-69.4	3.8	1.49e+00	0	26	104	0	72	23418
2026-01-11 04:17:37.30	287.43	7.92	-53.5	-69.4	3.8	1.49e+00	0	26	104	0	72	23396
2026-01-11 04:17:38.30	287.34	7.86	-53.5	-69.4	3.8	1.49e+00	0	26	104	0	72	23381
2026-01-11 04:17:39.30	287.25	7.79	-53.4	-69.4	3.8	1.49e+00	0	26	104	0	72	23339
2026-01-11 04:17:40.30	287.16	7.72	-53.4	-69.4	3.8	1.49e+00	0	26	104	0	72	23322
2026-01-11 04:17:41.30	287.07	7.66	-53.5	-69.4	3.8	1.49e+00	0	26	104	0	72	23409
2026-01-11 04:17:42.30	286.98	7.59	-53.5	-69.4	3.8	1.49e+00	0	26	104	0	72	23411
2026-01-11 04:17:43.30	286.89	7.52	-53.5	-69.4	3.8	1.49e+00	0	26	104	0	72	23440
2026-01-11 04:17:44.30	286.81	7.46	-53.5	-69.4	3.8	1.49e+00	0	26	104	0	72	23389
2026-01-11 04:17:45.30	286.72	7.39	-53.5	-69.4	3.8	1.49e+00	0	26	104	0	72	23408
2026-01-11 04:17:46.30	286.63	7.32	-53.5	-69.4	3.8	1.49e+00	0	26	104	0	72	23362
2026-01-11 04:17:47.30	286.55	7.26	-53.5	-69.4	3.8	1.49e+00	0	26	104	0	72	23376
2026-01-11 04:17:48.29	286.46	7.19	-53.4	-69.4	3.8	1.49e+00	0	26	104	0	72	23399
2026-01-11 04:17:49.30	286.37	7.13	-53.4	-69.4	3.8	1.49e+00	0	26	104	0	72	23401
2026-01-11 04:17:50.29	286.29	7.06	-53.4	-69.4	3.8	1.49e+00	0	26	104	0	72	23376
2026-01-11 04:17:51.30	286.20	6.99	-53.4	-69.4	3.8	1.49e+00	0	26	104	0	72	23387
2026-01-11 04:17:52.30	286.12	6.93	-53.5	-69.4	3.8	1.49e+00	0	26	104	0	72	23335
2026-01-11 04:17:53.31	286.03	6.86	-53.4	-69.3	3.8	1.49e+00	0	26	104	0	72	23302
2026-01-11 04:17:54.31	285.95	6.80	-53.4	-69.4	3.8	1.49e+00	0	26	104	0	72	23334
2026-01-11 04:17:55.31	285.87	6.73	-53.5	-69.4	3.8	1.49e+00	0	26	104	0	72	23391
2026-01-11 04:17:56.31	285.78	6.67	-53.4	-69.4	3.8	1.49e+00	0	26	104	0	72	23398
2026-01-11 04:17:57.31	285.70	6.60	-53.5	-69.4	3.8	1.49e+00	0	26	104	0	72	23328
2026-01-11 04:17:58.31	285.62	6.54	-53.4	-69.4	3.8	1.49e+00	0	26	104	0	72	23342
2026-01-11 04:17:59.30	285.54	6.47	-53.4	-69.4	3.8	1.49e+00	0	26	104	0	72	23344
2026-01-11 04:18:00.31	285.45	6.41	-53.4	-69.4	3.8	1.49e+00	0	26	104	0	72	23350
2026-01-11 04:18:01.31	285.37	6.34	-53.5	-69.4	3.8	1.49e+00	0	26	104	0	72	23355
2026-01-11 04:18:02.31	285.29	6.28	-53.4	-69.4	3.8	1.49e+00	0	26	104	0	72	23315
2026-01-11 04:18:03.31	285.21	6.21	-53.4	-69.4	3.8	1.49e+00	0	26	104	0	72	23342
2026-01-11 04:18:04.31	285.13	6.15	-53.4	-69.4	3.8	1.49e+00	0	26	104	0	72	23421
2026-01-11 04:18:05.30	285.05	6.09	-53.4	-69.4	3.8	1.49e+00	0	26	104	0	72	23354
2026-01-11 04:18:06.30	284.97	6.02	-53.5	-69.4	3.8	1.49e+00	0	26	104	0	72	23363
2026-01-11 04:18:07.31	284.89	5.96	-53.5	-69.4	3.8	1.49e+00	0	26	104	0	72	23351
2026-01-11 04:18:08.31	284.82	5.89	-53.4	-69.4	3.8	1.49e+00	0	26	104	0	72	23365
2026-01-11 04:18:09.30	284.74	5.83	-53.4	-69.4	3.8	1.49e+00	0	26	104	0	72	23340
2026-01-11 04:18:10.29	284.66	5.77	-53.5	-69.4	3.8	1.49e+00	0	26	104	0	72	23389
2026-01-11 04:18:11.30	284.58	5.70	-53.4	-69.4	3.8	1.49e+00	0	26	104	0	72	23362
2026-01-11 04:18:12.30	284.51	5.64	-53.4	-69.4	3.8	1.49e+00	0	26	104	0	72	23312
2026-01-11 04:18:13.30	284.43	5.58	-53.4	-69.4	3.8	1.49e+00	0	26	104	0	72	23373
2026-01-11 04:18:14.29	284.35	5.51	-53.4	-69.4	3.8	1.49e+00	0	26	104	0	72	23333
2026-01-11 04:18:15.29	284.28	5.45	-53.5	-69.4	3.8	1.49e+00	0	26	104	0	72	23337
2026-01-11 04:18:16.28	284.20	5.39	-53.4	-69.4	3.8	1.49e+00	0	26	104	0	72	23322
2026-01-11 04:18:17.28	284.13	5.32	-53.4	-69.3	3.8	1.49e+00	0	26	104	0	72	23290
2026-01-11 04:18:18.28	284.05	5.26	-53.4	-69.4	3.8	1.49e+00	0	26	104	0	72	23319
2026-01-11 04:18:19.29	283.98	5.20	-53.4	-69.4	3.8	1.49e+00	0	26	104	0	72	23377
2026-01-11 04:18:20.29	283.90	5.14	-53.4	-69.4	3.8	1.49e+00	0	26	104	0	72	23369
2026-01-11 04:18:21.30	283.83	5.07	-53.5	-69.4	3.8	1.49e+00	0	26	104	0	72	23337
2026-01-11 04:18:22.30	283.75	5.01	-53.4	-69.4	3.8	1.49e+00	0	26	104	0	72	23372
2026-01-11 04:18:23.30	283.68	4.95	-53.4	-69.4	3.8	1.49e+00	0	26	104	0	72	23343
2026-01-11 04:18:24.30	283.61	4.89	-53.5	-69.4	3.8	1.49e+00	0	26	104	0	72	23368
2026-01-11 04:18:25.30	283.53	4.82	-53.4	-69.4	3.8	1.49e+00	0	26	104	0	72	23326
2026-01-11 04:18:26.30	283.46	4.76	-53.4	-69.4	3.8	1.49e+00	0	26	104	0	72	23380
2026-01-11 04:18:27.30	283.39	4.70	-53.4	-69.3	3.8	1.49e+00	0	26	104	0	72	23288
2026-01-11 04:18:28.30	283.32	4.64	-53.4	-69.4	3.8	1.49e+00	0	26	104	0	72	23412
2026-01-11 04:18:29.30	283.25	4.58	-53.5	-69.4	3.8	1.49e+00	0	26	104	0	72	23410
2026-01-11 04:18:30.30	283.18	4.51	-53.4	-69.4	3.8	1.49e+00	0	26	104	0	72	23417
2026-01-11 04:18:31.30	283.10	4.45	-53.4	-69.4	3.8	1.49e+00	0	26	104	0	72	23316
2026-01-11 04:18:32.30	283.03	4.39	-53.4	-69.3	3.8	1.49e+00	0	26	104	0	72	23311
2026-01-11 04:18:33.29	282.96	4.33	-53.4	-69.3	3.8	1.49e+00	0	26	104	0	72	23299
2026-01-11 04:18:34.30	282.89	4.27	-53.4	-69.4	3.8	1.49e+00	0	26	104	0	72	23329
2026-01-11 04:18:35.30	282.82	4.21	-53.4	-69.4	3.8	1.49e+00	0	26	104	0	72	23402
2026-01-11 04:18:36.31	282.75	4.15	-53.4	-69.4	3.8	1.49e+00	0	26	104	0	72	23357
2026-01-11 04:18:37.30	282.69	4.09	-53.4	-69.4	3.8	1.49e+00	0	26	104	0	72	23376
2026-01-11 04:18:38.30	282.62	4.02	-53.4	-69.4	3.8	1.49e+00	0	26	104	0	72	23386
2026-01-11 04:18:39.31	282.55	3.96	-53.4	-69.4	3.8	1.49e+00	0	26	104	0	72	23371
2026-01-11 04:18:40.31	282.48	3.90	-53.4	-69.4	3.8	1.49e+00	0	26	104	0	72	23347
