passes_logs/2026/01/11/R3.2S_Murmansk/R3.2S_Murmansk__20260111_054524_SUOMI_NPP_rec.log

#Pass ID: 20260111_054524_SUOMI NPP
#Satellite: SUOMI NPP
#Configuration: NPP
#almurnet v.1.7.20251203
#Start time: 2026-01-11 05:45:26

#Version: 2.2.20231116
#Station: R3.2S_Murmansk
#Location: 33.079688 lon 68.888172 lat
#TLE: 1 37849U 11061A   26009.81756760  .00000113  00000+0  74747-4 0  9994
#TLE: 2 37849  98.7806 311.9110 0002525  72.5604 287.5848 14.19524046735974

#Time	Az	El	Level	Level2	SNR	BER	BlckErr	Temp	State	Recorded	gain1	gain2
2026-01-11 05:45:26.14	70.29	2.11	-57.2	-73.2	3.8	1.49e+00	0	22	0	0	80	22908
2026-01-11 05:45:27.15	70.22	2.17	-57.2	-73.2	3.8	1.49e+00	0	23	104	0	79	24226
2026-01-11 05:45:28.16	70.16	2.23	-57.2	-73.2	3.8	1.49e+00	0	23	104	0	79	24278
2026-01-11 05:45:29.15	70.09	2.29	-57.2	-73.2	3.8	1.49e+00	0	23	104	0	79	24259
2026-01-11 05:45:30.14	70.03	2.34	-57.2	-73.2	3.8	1.49e+00	0	23	104	0	79	24213
2026-01-11 05:45:31.14	69.97	2.40	-57.2	-73.2	3.8	1.49e+00	0	23	104	0	79	24218
2026-01-11 05:45:32.13	69.90	2.46	-57.2	-73.1	3.8	1.49e+00	0	23	104	0	79	24110
2026-01-11 05:45:33.13	69.84	2.51	-57.2	-73.2	3.8	1.49e+00	0	23	104	0	79	24166
2026-01-11 05:45:34.13	69.77	2.57	-57.2	-73.2	3.8	1.49e+00	0	23	104	0	79	24250
2026-01-11 05:45:35.13	69.71	2.63	-57.2	-73.2	3.8	1.49e+00	0	23	104	0	79	24235
2026-01-11 05:45:36.13	69.64	2.69	-57.2	-73.2	3.8	1.49e+00	0	23	104	0	79	24232
2026-01-11 05:45:37.14	69.58	2.75	-57.2	-73.2	3.8	1.49e+00	0	23	104	0	79	24275
2026-01-11 05:45:38.13	69.51	2.80	-57.2	-73.2	3.8	1.49e+00	0	23	104	0	79	24237
2026-01-11 05:45:39.14	69.44	2.86	-57.2	-73.2	3.8	1.49e+00	0	23	104	0	79	24204
2026-01-11 05:45:40.15	69.37	2.92	-57.2	-73.2	3.8	1.49e+00	0	23	104	0	79	24217
2026-01-11 05:45:41.14	69.31	2.98	-57.2	-73.2	3.8	1.49e+00	0	23	104	0	79	24247
2026-01-11 05:45:42.15	69.24	3.04	-57.2	-73.2	3.8	1.49e+00	0	23	104	0	79	24318
2026-01-11 05:45:43.15	69.17	3.10	-57.2	-73.2	3.8	1.49e+00	0	23	104	0	79	24360
2026-01-11 05:45:44.15	69.11	3.16	-57.2	-73.2	3.8	1.49e+00	0	23	104	0	79	24316
2026-01-11 05:45:45.15	69.04	3.21	-57.2	-73.2	3.8	1.49e+00	0	23	104	0	79	24297
2026-01-11 05:45:46.15	68.97	3.27	-57.2	-73.2	3.8	1.49e+00	0	23	104	0	79	24243
2026-01-11 05:45:47.16	68.90	3.33	-57.2	-73.2	3.8	1.49e+00	0	23	104	0	79	24266
2026-01-11 05:45:48.15	68.83	3.39	-57.2	-73.2	3.8	1.49e+00	0	23	104	0	79	24150
2026-01-11 05:45:49.15	68.76	3.45	-57.2	-73.2	3.8	1.49e+00	0	23	104	0	79	24201
2026-01-11 05:45:50.15	68.69	3.51	-57.2	-73.2	3.8	1.49e+00	0	23	104	0	79	24279
2026-01-11 05:45:51.15	68.62	3.57	-57.2	-73.2	3.8	1.49e+00	0	23	104	0	79	24273
2026-01-11 05:45:52.15	68.55	3.63	-57.2	-73.2	3.8	1.49e+00	0	23	104	0	79	24349
2026-01-11 05:45:53.14	68.48	3.69	-57.2	-73.2	3.8	1.49e+00	0	23	104	0	79	24335
2026-01-11 05:45:54.14	68.41	3.74	-57.2	-73.2	3.8	1.49e+00	0	23	104	0	79	24300
2026-01-11 05:45:55.12	68.34	3.80	-57.2	-73.2	3.8	1.49e+00	0	23	104	0	79	24257
2026-01-11 05:45:56.12	68.27	3.86	-57.2	-73.1	3.8	1.49e+00	0	23	104	0	79	24032
2026-01-11 05:45:57.12	68.20	3.92	-57.2	-73.1	3.8	1.49e+00	0	23	104	0	79	24060
2026-01-11 05:45:58.12	68.13	3.98	-57.2	-73.2	3.8	1.49e+00	0	23	104	0	79	24238
2026-01-11 05:45:59.12	68.05	4.04	-57.2	-73.2	3.8	1.49e+00	0	24	104	0	79	24344
2026-01-11 05:46:00.12	67.98	4.10	-57.2	-73.2	3.8	1.49e+00	0	23	104	0	79	24293
2026-01-11 05:46:01.12	67.91	4.16	-57.2	-73.2	3.8	1.49e+00	0	23	104	0	79	24285
2026-01-11 05:46:02.12	67.84	4.22	-57.2	-73.1	3.8	1.49e+00	0	24	104	0	79	23864
2026-01-11 05:46:03.12	67.76	4.28	-57.2	-72.7	3.8	1.49e+00	0	24	104	0	79	22811
2026-01-11 05:46:04.12	67.69	4.34	-57.2	-71.9	3.8	1.49e+00	0	24	104	0	79	20951
2026-01-11 05:46:05.12	67.61	4.40	-57.2	-71.4	3.9	1.49e+00	0	24	104	0	79	19758
2026-01-11 05:46:06.12	67.54	4.46	-57.1	-70.6	4.0	1.48e+00	0	24	0	0	79	18072
2026-01-11 05:46:07.12	67.46	4.52	-57.0	-69.4	4.3	1.46e+00	0	24	104	0	79	15665
2026-01-11 05:46:08.12	67.39	4.58	-57.0	-69.4	4.3	1.36e+00	73	24	0	0	79	15639
2026-01-11 05:46:09.11	67.31	4.64	-57.0	-68.4	4.6	1.06e+00	0	24	0	1048576	79	13921
2026-01-11 05:46:10.11	67.24	4.70	-56.9	-67.7	4.9	7.02e-01	0	24	0	3145728	79	12903
2026-01-11 05:46:11.11	67.16	4.77	-56.8	-66.7	5.5	4.68e-01	0	24	0	5242880	79	11480
2026-01-11 05:46:12.12	67.09	4.83	-56.7	-65.9	6.0	3.89e-01	0	24	0	7340032	79	10479
2026-01-11 05:46:13.11	67.01	4.89	-56.7	-66.0	5.9	2.89e-01	0	24	0	8388608	79	10615
2026-01-11 05:46:14.12	66.93	4.95	-56.5	-65.1	6.6	2.52e-01	0	24	0	10485760	79	9506
2026-01-11 05:46:15.12	66.85	5.01	-56.5	-65.0	6.6	1.55e-01	0	24	0	12582912	79	9419
2026-01-11 05:46:16.12	66.78	5.07	-56.7	-65.0	6.8	1.34e-01	0	24	0	14680064	79	9430
2026-01-11 05:46:17.12	66.70	5.13	-56.9	-67.0	5.3	5.25e-01	0	24	0	16777216	79	11938
2026-01-11 05:46:18.12	66.62	5.19	-56.8	-66.4	5.6	2.08e-01	0	24	0	17825792	79	11053
2026-01-11 05:46:19.13	66.54	5.26	-54.5	-58.7	11.9	3.32e-02	0	24	0	19922944	75	5768
2026-01-11 05:46:20.12	66.46	5.32	-57.1	-71.2	3.8	1.23e+00	0	24	104	20971520	79	19360
2026-01-11 05:46:21.12	66.38	5.38	-54.4	-58.5	12.0	3.57e-02	0	24	0	22020096	75	5611
2026-01-11 05:46:22.12	66.30	5.44	-54.2	-58.1	12.2	7.00e-07	0	24	0	23068672	74	5662
2026-01-11 05:46:23.11	66.22	5.50	-54.2	-58.0	12.3	7.00e-07	0	24	0	25165824	74	5630
2026-01-11 05:46:24.11	66.14	5.57	-53.8	-57.4	12.7	7.00e-07	0	24	0	27262976	74	5234
2026-01-11 05:46:25.09	66.06	5.63	-54.0	-57.7	12.6	0.00e+00	0	24	0	29360128	74	5414
2026-01-11 05:46:26.09	65.98	5.69	-53.6	-57.0	13.0	0.00e+00	0	24	0	30408704	73	5290
2026-01-11 05:46:27.08	65.90	5.75	-53.9	-57.5	12.6	0.00e+00	0	24	0	32505856	73	5628
2026-01-11 05:46:28.08	65.82	5.81	-53.8	-57.3	12.7	0.00e+00	0	24	0	34603008	73	5504
2026-01-11 05:46:29.08	65.74	5.88	-53.5	-56.7	13.2	0.00e+00	0	24	0	36700160	73	5103
2026-01-11 05:46:30.08	65.65	5.94	-53.3	-56.4	13.3	0.00e+00	0	24	0	38797312	73	4972
2026-01-11 05:46:31.08	65.57	6.00	-53.2	-56.2	13.5	0.00e+00	0	24	0	39845888	73	4826
2026-01-11 05:46:32.07	65.49	6.06	-53.7	-57.1	12.9	0.00e+00	0	24	0	41943040	73	5388
2026-01-11 05:46:33.08	65.40	6.13	-53.3	-56.3	13.4	0.00e+00	0	24	0	44040192	73	4917
2026-01-11 05:46:34.07	65.32	6.19	-53.4	-56.6	13.1	0.00e+00	0	24	0	46137344	72	5380
2026-01-11 05:46:35.08	65.23	6.25	-53.3	-56.4	13.2	0.00e+00	0	24	0	48234496	72	5275
2026-01-11 05:46:36.07	65.15	6.31	-53.5	-56.7	13.1	0.00e+00	0	24	0	49283072	72	5432
2026-01-11 05:46:37.07	65.06	6.38	-53.7	-57.1	12.7	0.00e+00	0	24	0	51380224	72	5710
2026-01-11 05:46:38.07	64.98	6.44	-53.3	-56.4	13.2	0.00e+00	0	24	0	53477376	72	5261
2026-01-11 05:46:39.07	64.89	6.50	-53.3	-56.4	13.2	0.00e+00	0	24	0	55574528	72	5261
2026-01-11 05:46:40.07	64.81	6.57	-53.5	-56.7	13.1	0.00e+00	0	24	0	56623104	72	5435
2026-01-11 05:46:41.06	64.72	6.63	-53.5	-56.8	13.0	0.00e+00	0	24	0	58720256	72	5489
2026-01-11 05:46:42.06	64.63	6.70	-53.3	-56.5	13.2	0.00e+00	0	24	0	60817408	72	5284
2026-01-11 05:46:43.06	64.54	6.76	-53.7	-57.0	12.8	0.00e+00	0	24	0	62914560	72	5652
2026-01-11 05:46:44.06	64.46	6.82	-53.6	-56.9	12.9	0.00e+00	0	24	0	65011712	72	5590
2026-01-11 05:46:45.05	64.37	6.89	-53.8	-57.3	12.7	0.00e+00	0	24	0	66060288	72	5847
2026-01-11 05:46:46.05	64.28	6.95	-53.9	-57.5	12.6	0.00e+00	0	24	0	68157440	73	5599
2026-01-11 05:46:47.05	64.19	7.01	-54.0	-57.6	12.6	7.00e-07	0	24	0	70254592	73	5673
2026-01-11 05:46:48.05	64.10	7.08	-53.8	-57.4	12.8	0.00e+00	0	24	0	72351744	73	5560
2026-01-11 05:46:49.04	64.01	7.14	-53.7	-57.2	12.8	0.00e+00	0	24	0	73400320	73	5452
2026-01-11 05:46:50.03	63.92	7.21	-53.7	-57.2	12.9	0.00e+00	0	24	0	75497472	73	5420
2026-01-11 05:46:51.03	63.83	7.27	-53.8	-57.3	12.8	0.00e+00	0	24	0	77594624	73	5521
2026-01-11 05:46:52.03	63.74	7.34	-53.6	-57.1	12.9	0.00e+00	0	24	0	79691776	73	5381
2026-01-11 05:46:53.02	63.65	7.40	-53.6	-56.9	13.0	0.00e+00	0	24	0	81788928	73	5266
2026-01-11 05:46:54.02	63.56	7.46	-53.5	-56.9	13.1	0.00e+00	0	24	0	82837504	73	5235
2026-01-11 05:46:55.02	63.46	7.53	-53.4	-56.8	13.2	0.00e+00	0	24	0	84934656	73	5166
2026-01-11 05:46:56.02	63.37	7.59	-53.6	-57.1	13.0	0.00e+00	0	24	0	87031808	73	5362
2026-01-11 05:46:57.02	63.28	7.66	-53.4	-56.6	13.3	0.00e+00	0	24	0	89128960	73	5100
2026-01-11 05:46:58.02	63.18	7.72	-53.3	-56.5	13.4	0.00e+00	0	24	0	91226112	73	5026
2026-01-11 05:46:59.02	63.09	7.79	-53.3	-56.5	13.4	0.00e+00	0	25	0	92274688	73	4993
2026-01-11 05:47:00.02	62.99	7.86	-53.3	-56.4	13.4	0.00e+00	0	25	0	94371840	73	4973
2026-01-11 05:47:01.01	62.90	7.92	-53.4	-56.6	13.3	0.00e+00	0	24	0	96468992	73	5055
2026-01-11 05:47:02.01	62.80	7.99	-53.4	-56.6	13.4	0.00e+00	0	25	0	98566144	73	5049
2026-01-11 05:47:03.00	62.71	8.05	-52.8	-55.8	13.7	0.00e+00	0	25	0	99614720	72	4885
2026-01-11 05:47:04.01	62.61	8.12	-53.2	-56.3	13.4	0.00e+00	0	25	0	101711872	72	5191
2026-01-11 05:47:05.00	62.51	8.18	-53.1	-56.1	13.5	0.00e+00	0	24	0	103809024	72	5096
2026-01-11 05:47:06.01	62.42	8.25	-52.9	-55.8	13.7	0.00e+00	0	24	0	105906176	72	4881
2026-01-11 05:47:07.00	62.32	8.31	-52.9	-55.9	13.7	0.00e+00	0	25	0	108003328	72	4949
2026-01-11 05:47:07.99	62.22	8.38	-53.0	-55.9	13.7	0.00e+00	0	24	0	109051904	72	4949
2026-01-11 05:47:08.99	62.12	8.45	-52.9	-55.9	13.7	0.00e+00	0	25	0	111149056	72	4949
2026-01-11 05:47:09.98	62.02	8.51	-52.9	-55.8	13.7	0.00e+00	0	25	0	113246208	72	4922
2026-01-11 05:47:10.98	61.92	8.58	-52.8	-55.6	13.9	0.00e+00	0	25	0	115343360	72	4775
2026-01-11 05:47:11.97	61.82	8.64	-52.9	-55.8	13.7	0.00e+00	0	25	0	116391936	72	4913
2026-01-11 05:47:12.97	61.72	8.71	-52.9	-55.7	13.8	0.00e+00	0	25	0	118489088	72	4854
2026-01-11 05:47:13.96	61.62	8.78	-52.8	-55.6	13.9	0.00e+00	0	25	0	120586240	72	4786
2026-01-11 05:47:14.97	61.52	8.84	-52.9	-55.7	13.8	0.00e+00	0	25	0	122683392	72	4849
2026-01-11 05:47:15.96	61.42	8.91	-52.8	-55.6	13.9	0.00e+00	0	25	0	124780544	72	4798
2026-01-11 05:47:16.96	61.32	8.98	-52.8	-55.6	13.8	0.00e+00	0	25	0	125829120	72	4799
2026-01-11 05:47:17.96	61.21	9.04	-53.0	-55.9	13.7	0.00e+00	0	25	0	127926272	72	4952
2026-01-11 05:47:18.96	61.11	9.11	-52.9	-55.7	13.8	0.00e+00	0	25	0	130023424	72	4840
2026-01-11 05:47:19.96	61.01	9.18	-53.1	-56.0	13.6	0.00e+00	0	25	0	132120576	72	4998
2026-01-11 05:47:20.96	60.90	9.25	-52.9	-55.7	13.8	0.00e+00	0	25	0	134217728	72	4867
2026-01-11 05:47:21.95	60.80	9.31	-53.0	-55.9	13.7	0.00e+00	0	25	0	135266304	72	4929
2026-01-11 05:47:22.95	60.69	9.38	-53.2	-56.1	13.6	0.00e+00	0	25	0	137363456	72	5064
2026-01-11 05:47:23.94	60.59	9.45	-53.2	-56.1	13.5	0.00e+00	0	25	0	139460608	72	5093
2026-01-11 05:47:24.94	60.48	9.51	-53.0	-55.8	13.8	0.00e+00	0	25	0	141557760	72	4910
2026-01-11 05:47:25.94	60.37	9.58	-53.2	-56.2	13.5	0.00e+00	0	25	0	142606336	72	5131
2026-01-11 05:47:26.94	60.26	9.65	-53.1	-56.0	13.7	0.00e+00	0	25	0	144703488	72	4993
2026-01-11 05:47:27.93	60.16	9.72	-53.3	-56.2	13.5	0.00e+00	0	25	0	146800640	72	5138
2026-01-11 05:47:28.93	60.05	9.79	-53.1	-55.9	13.7	0.00e+00	0	25	0	148897792	72	4979
2026-01-11 05:47:29.93	59.94	9.85	-53.1	-55.9	13.7	0.00e+00	0	25	0	150994944	72	4983
2026-01-11 05:47:30.92	59.83	9.92	-53.2	-56.0	13.6	0.00e+00	0	25	0	152043520	72	5029
2026-01-11 05:47:31.93	59.72	9.99	-53.1	-55.9	13.7	0.00e+00	0	25	0	154140672	72	4954
2026-01-11 05:47:32.93	59.61	10.06	-53.2	-56.1	13.6	0.00e+00	0	25	0	156237824	72	5100
2026-01-11 05:47:33.93	59.50	10.13	-53.2	-56.1	13.6	0.00e+00	0	25	0	158334976	72	5076
2026-01-11 05:47:34.94	59.38	10.20	-53.1	-55.9	13.7	0.00e+00	0	25	0	160432128	72	4973
2026-01-11 05:47:35.93	59.27	10.26	-53.4	-56.4	13.4	0.00e+00	0	25	0	161480704	72	5227
2026-01-11 05:47:36.94	59.16	10.33	-53.3	-56.2	13.5	0.00e+00	0	25	0	163577856	72	5112
2026-01-11 05:47:37.93	59.05	10.40	-53.4	-56.3	13.5	0.00e+00	0	25	0	165675008	72	5204
2026-01-11 05:47:38.94	58.93	10.47	-53.5	-56.6	13.3	0.00e+00	0	25	0	167772160	72	5345
2026-01-11 05:47:39.94	58.82	10.54	-53.2	-56.2	13.5	0.00e+00	0	25	0	168820736	72	5103
2026-01-11 05:47:40.93	58.70	10.61	-53.2	-56.0	13.6	0.00e+00	0	25	0	170917888	72	5029
2026-01-11 05:47:41.93	58.59	10.68	-53.0	-55.8	13.8	0.00e+00	0	25	0	173015040	72	4880
2026-01-11 05:47:42.93	58.47	10.75	-52.9	-55.7	13.9	0.00e+00	0	25	0	175112192	72	4817
2026-01-11 05:47:43.92	58.35	10.81	-53.0	-55.8	13.8	0.00e+00	0	25	0	177209344	72	4920
2026-01-11 05:47:44.92	58.24	10.88	-53.1	-55.8	13.7	0.00e+00	0	25	0	178257920	72	4921
2026-01-11 05:47:45.92	58.12	10.95	-53.0	-55.8	13.8	0.00e+00	0	25	0	180355072	72	4913
2026-01-11 05:47:46.91	58.00	11.02	-53.0	-55.8	13.8	0.00e+00	0	25	0	182452224	72	4891
2026-01-11 05:47:47.92	57.88	11.09	-53.0	-55.8	13.8	0.00e+00	0	25	0	184549376	72	4900
2026-01-11 05:47:48.92	57.76	11.16	-52.9	-55.6	13.9	0.00e+00	0	25	0	186646528	72	4794
2026-01-11 05:47:49.91	57.64	11.23	-52.8	-55.5	14.0	0.00e+00	0	25	0	187695104	72	4724
2026-01-11 05:47:50.91	57.52	11.30	-52.8	-55.4	14.0	0.00e+00	0	25	0	189792256	72	4660
2026-01-11 05:47:51.91	57.40	11.37	-52.7	-55.3	14.0	0.00e+00	0	25	0	191889408	71	4898
2026-01-11 05:47:52.91	57.28	11.44	-52.6	-55.1	14.0	0.00e+00	0	25	0	193986560	71	4814
2026-01-11 05:47:53.91	57.16	11.51	-52.7	-55.3	13.9	0.00e+00	0	25	0	195035136	71	4906
2026-01-11 05:47:54.91	57.03	11.58	-52.7	-55.3	13.9	0.00e+00	0	25	0	197132288	71	4915
2026-01-11 05:47:55.92	56.91	11.65	-52.6	-55.1	14.1	0.00e+00	0	25	0	199229440	71	4789
2026-01-11 05:47:56.92	56.78	11.72	-52.5	-55.1	14.1	0.00e+00	0	25	0	201326592	71	4764
2026-01-11 05:47:57.92	56.66	11.79	-52.4	-54.8	14.2	0.00e+00	0	25	0	203423744	71	4639
2026-01-11 05:47:58.92	56.53	11.86	-52.2	-54.7	14.4	0.00e+00	0	25	0	204472320	71	4547
2026-01-11 05:47:59.93	56.40	11.93	-52.4	-55.0	14.2	0.00e+00	0	25	0	206569472	71	4707
2026-01-11 05:48:00.93	56.28	12.00	-52.3	-54.8	14.3	0.00e+00	0	25	0	208666624	71	4609
2026-01-11 05:48:01.93	56.15	12.07	-52.4	-54.9	14.2	0.00e+00	0	25	0	210763776	71	4699
2026-01-11 05:48:02.93	56.02	12.14	-52.4	-54.9	14.2	0.00e+00	0	25	0	212860928	71	4705
2026-01-11 05:48:03.93	55.89	12.21	-52.5	-55.0	14.2	0.00e+00	0	25	0	213909504	71	4723
2026-01-11 05:48:04.93	55.76	12.29	-52.4	-55.0	14.2	0.00e+00	0	25	0	216006656	71	4709
2026-01-11 05:48:05.93	55.63	12.36	-52.4	-54.9	14.2	0.00e+00	0	25	0	218103808	71	4688
2026-01-11 05:48:06.93	55.50	12.43	-52.2	-54.6	14.4	0.00e+00	0	25	0	220200960	71	4540
2026-01-11 05:48:07.93	55.37	12.50	-52.2	-54.7	14.2	0.00e+00	0	25	0	222298112	70	4816
2026-01-11 05:48:08.93	55.24	12.57	-52.1	-54.5	14.3	0.00e+00	0	25	0	223346688	70	4737
2026-01-11 05:48:09.92	55.11	12.64	-52.1	-54.4	14.4	0.00e+00	0	25	0	225443840	70	4686
2026-01-11 05:48:10.92	54.97	12.71	-52.1	-54.4	14.4	0.00e+00	0	25	0	227540992	70	4687
2026-01-11 05:48:11.93	54.84	12.78	-52.2	-54.6	14.3	0.00e+00	0	25	0	229638144	70	4799
2026-01-11 05:48:12.92	54.71	12.85	-52.3	-54.7	14.2	0.00e+00	0	25	0	230686720	70	4822
2026-01-11 05:48:13.92	54.57	12.92	-52.2	-54.6	14.3	0.00e+00	0	25	0	232783872	70	4777
2026-01-11 05:48:14.92	54.43	12.99	-52.2	-54.5	14.3	0.00e+00	0	25	0	234881024	70	4741
2026-01-11 05:48:15.92	54.30	13.06	-52.4	-54.8	14.1	0.00e+00	0	25	0	236978176	70	4922
2026-01-11 05:48:16.92	54.16	13.14	-52.2	-54.6	14.3	0.00e+00	0	25	0	239075328	70	4762
2026-01-11 05:48:17.91	54.02	13.21	-52.1	-54.4	14.4	0.00e+00	0	25	0	240123904	70	4675
2026-01-11 05:48:18.91	53.88	13.28	-52.1	-54.5	14.3	0.00e+00	0	25	0	242221056	70	4711
2026-01-11 05:48:19.91	53.75	13.35	-52.1	-54.6	14.3	0.00e+00	0	25	0	244318208	70	4760
2026-01-11 05:48:20.91	53.61	13.42	-52.1	-54.5	14.3	0.00e+00	0	25	0	246415360	70	4721
2026-01-11 05:48:21.91	53.46	13.49	-52.1	-54.5	14.3	0.00e+00	0	25	0	248512512	70	4708
2026-01-11 05:48:22.91	53.32	13.56	-52.1	-54.5	14.3	0.00e+00	0	25	0	249561088	70	4744
2026-01-11 05:48:23.91	53.18	13.64	-52.2	-54.7	14.2	0.00e+00	0	25	0	251658240	70	4832
2026-01-11 05:48:24.91	53.04	13.71	-52.1	-54.5	14.3	0.00e+00	0	25	0	253755392	70	4727
2026-01-11 05:48:25.90	52.90	13.78	-52.1	-54.6	14.3	0.00e+00	0	25	0	255852544	70	4780
2026-01-11 05:48:26.90	52.75	13.85	-52.1	-54.5	14.3	0.00e+00	0	25	0	257949696	70	4743
2026-01-11 05:48:27.90	52.61	13.92	-52.1	-54.6	14.3	0.00e+00	0	25	0	258998272	70	4805
2026-01-11 05:48:28.90	52.46	13.99	-52.2	-54.7	14.2	0.00e+00	0	25	0	261095424	70	4854
2026-01-11 05:48:29.90	52.31	14.06	-52.2	-54.8	14.1	0.00e+00	0	25	0	263192576	70	4926
2026-01-11 05:48:30.90	52.17	14.14	-52.3	-55.0	14.1	0.00e+00	0	25	0	265289728	70	4995
2026-01-11 05:48:31.91	52.02	14.21	-52.3	-55.0	14.1	0.00e+00	0	25	0	266338304	70	4992
2026-01-11 05:48:32.89	51.87	14.28	-52.4	-55.2	14.0	0.00e+00	0	25	0	268435456	70	5118
2026-01-11 05:48:33.89	51.72	14.35	-52.5	-55.3	13.9	0.00e+00	0	25	0	270532608	70	5181
2026-01-11 05:48:34.90	51.57	14.42	-52.5	-55.2	13.9	0.00e+00	0	25	0	272629760	70	5152
2026-01-11 05:48:35.89	51.42	14.49	-52.5	-55.3	13.9	0.00e+00	0	25	0	274726912	70	5180
2026-01-11 05:48:36.89	51.27	14.57	-52.5	-55.3	13.9	0.00e+00	0	25	0	275775488	70	5185
2026-01-11 05:48:37.89	51.12	14.64	-52.6	-55.4	13.8	0.00e+00	0	25	0	277872640	70	5249
2026-01-11 05:48:38.89	50.96	14.71	-52.7	-55.4	13.8	0.00e+00	0	25	0	279969792	70	5273
2026-01-11 05:48:39.88	50.81	14.78	-52.5	-55.2	13.9	0.00e+00	0	25	0	282066944	70	5134
2026-01-11 05:48:40.88	50.66	14.85	-52.5	-55.2	14.0	0.00e+00	0	25	0	283115520	70	5110
2026-01-11 05:48:41.88	50.50	14.92	-52.5	-55.2	13.9	0.00e+00	0	25	0	285212672	70	5125
2026-01-11 05:48:42.88	50.35	15.00	-52.4	-55.0	14.1	0.00e+00	0	25	0	287309824	70	4993
2026-01-11 05:48:43.89	50.19	15.07	-52.4	-54.9	14.1	0.00e+00	0	25	0	289406976	70	4966
2026-01-11 05:48:44.89	50.03	15.14	-52.5	-55.1	14.0	0.00e+00	0	25	0	291504128	70	5057
2026-01-11 05:48:45.88	49.87	15.21	-52.6	-55.3	13.9	0.00e+00	0	25	0	292552704	70	5192
2026-01-11 05:48:46.88	49.71	15.28	-52.4	-55.1	14.0	0.00e+00	0	25	0	294649856	70	5064
2026-01-11 05:48:47.88	49.55	15.36	-52.4	-55.0	14.0	0.00e+00	0	25	0	296747008	70	5037
2026-01-11 05:48:48.89	49.39	15.43	-52.6	-55.3	13.9	0.00e+00	0	25	0	298844160	70	5209
2026-01-11 05:48:49.89	49.23	15.50	-52.7	-55.5	13.8	0.00e+00	0	25	0	300941312	70	5307
2026-01-11 05:48:50.89	49.07	15.57	-52.7	-55.5	13.8	0.00e+00	0	25	0	301989888	70	5333
2026-01-11 05:48:51.89	48.91	15.64	-52.7	-55.6	13.7	0.00e+00	0	25	0	304087040	70	5376
2026-01-11 05:48:52.89	48.74	15.71	-52.7	-55.5	13.8	0.00e+00	0	25	0	306184192	70	5334
2026-01-11 05:48:53.89	48.58	15.79	-52.7	-55.5	13.8	0.00e+00	0	25	0	308281344	70	5333
2026-01-11 05:48:54.89	48.41	15.86	-52.5	-55.2	13.9	0.00e+00	0	25	0	309329920	70	5147
2026-01-11 05:48:55.90	48.24	15.93	-52.3	-54.9	14.1	0.00e+00	0	25	0	311427072	70	4963
2026-01-11 05:48:56.89	48.08	16.00	-52.4	-55.1	14.0	0.00e+00	0	25	0	313524224	70	5056
2026-01-11 05:48:57.90	47.91	16.07	-52.4	-55.0	14.0	0.00e+00	0	25	0	315621376	70	5009
2026-01-11 05:48:58.90	47.74	16.14	-52.2	-54.8	14.2	0.00e+00	0	25	0	317718528	70	4890
2026-01-11 05:48:59.90	47.57	16.22	-52.5	-55.2	14.0	0.00e+00	0	25	0	319815680	70	5126
2026-01-11 05:49:00.90	47.40	16.29	-52.5	-55.2	14.0	0.00e+00	0	25	0	320864256	70	5126
2026-01-11 05:49:01.90	47.23	16.36	-52.4	-55.1	14.0	0.00e+00	0	25	0	322961408	70	5072
2026-01-11 05:49:02.90	47.06	16.43	-52.4	-55.1	14.0	0.00e+00	0	25	0	325058560	70	5076
2026-01-11 05:49:03.90	46.88	16.50	-52.4	-55.0	14.1	0.00e+00	0	25	0	327155712	70	5016
2026-01-11 05:49:04.89	46.71	16.57	-52.4	-55.1	14.0	0.00e+00	0	25	0	328204288	70	5043
2026-01-11 05:49:05.89	46.54	16.64	-52.5	-55.2	14.0	0.00e+00	0	25	0	330301440	70	5117
2026-01-11 05:49:06.89	46.36	16.71	-52.5	-55.2	14.0	0.00e+00	0	25	0	332398592	70	5110
2026-01-11 05:49:07.90	46.18	16.78	-52.4	-55.0	14.1	0.00e+00	0	25	0	334495744	70	4990
2026-01-11 05:49:08.90	46.01	16.86	-52.3	-54.8	14.1	0.00e+00	0	25	0	336592896	70	4924
2026-01-11 05:49:09.90	45.83	16.93	-52.3	-54.9	14.1	0.00e+00	0	25	0	337641472	70	4940
2026-01-11 05:49:10.90	45.65	17.00	-52.4	-54.9	14.0	0.00e+00	0	25	0	339738624	70	4970
2026-01-11 05:49:11.90	45.47	17.07	-52.6	-55.2	13.8	0.00e+00	0	25	0	341835776	70	5150
2026-01-11 05:49:12.90	45.29	17.14	-52.5	-55.2	13.9	0.00e+00	0	25	0	343932928	70	5124
2026-01-11 05:49:13.90	45.11	17.21	-52.6	-55.2	13.9	0.00e+00	0	25	0	346030080	70	5132
2026-01-11 05:49:14.90	44.93	17.28	-52.5	-55.1	13.9	0.00e+00	0	25	0	347078656	70	5071
2026-01-11 05:49:15.90	44.74	17.35	-52.5	-55.1	14.0	0.00e+00	0	25	0	349175808	70	5056
2026-01-11 05:49:16.90	44.56	17.42	-52.6	-55.2	13.9	0.00e+00	0	25	0	351272960	70	5138
2026-01-11 05:49:17.90	44.37	17.49	-52.7	-55.4	13.8	0.00e+00	0	25	0	353370112	70	5232
2026-01-11 05:49:18.90	44.19	17.56	-52.7	-55.4	13.8	0.00e+00	0	25	0	354418688	70	5255
2026-01-11 05:49:19.90	44.00	17.63	-52.6	-55.3	13.9	0.00e+00	0	25	0	356515840	70	5176
2026-01-11 05:49:20.90	43.82	17.70	-52.5	-55.1	14.0	0.00e+00	0	25	0	358612992	70	5057
2026-01-11 05:49:21.91	43.62	17.77	-52.3	-54.8	14.1	0.00e+00	0	25	0	360710144	70	4903
2026-01-11 05:49:22.90	43.44	17.84	-52.2	-54.5	14.2	0.00e+00	0	25	0	362807296	70	4741
2026-01-11 05:49:23.90	43.25	17.91	-52.0	-54.3	14.4	0.00e+00	0	25	0	363855872	70	4638
2026-01-11 05:49:24.90	43.06	17.98	-51.9	-54.2	14.5	0.00e+00	0	25	0	365953024	70	4579
2026-01-11 05:49:25.90	42.86	18.04	-52.0	-54.3	14.4	0.00e+00	0	25	0	368050176	70	4613
2026-01-11 05:49:26.89	42.67	18.11	-52.0	-54.3	14.4	0.00e+00	0	25	0	370147328	70	4607
2026-01-11 05:49:27.90	42.48	18.18	-52.0	-54.3	14.4	0.00e+00	0	25	0	372244480	70	4620
2026-01-11 05:49:28.89	42.29	18.25	-51.9	-54.3	14.4	0.00e+00	0	25	0	373293056	70	4618
2026-01-11 05:49:29.89	42.09	18.32	-51.9	-54.2	14.4	0.00e+00	0	25	0	375390208	70	4583
2026-01-11 05:49:30.89	41.89	18.39	-51.9	-54.3	14.4	0.00e+00	0	25	0	377487360	70	4613
2026-01-11 05:49:31.89	41.70	18.45	-51.9	-54.3	14.4	0.00e+00	0	25	0	379584512	70	4603
2026-01-11 05:49:32.88	41.50	18.52	-51.8	-54.3	14.4	0.00e+00	0	25	0	380633088	70	4612
2026-01-11 05:49:33.88	41.30	18.59	-51.8	-54.3	14.3	0.00e+00	0	25	0	382730240	69	4894
2026-01-11 05:49:34.88	41.10	18.66	-51.6	-54.0	14.4	0.00e+00	0	25	0	384827392	69	4731
2026-01-11 05:49:35.88	40.90	18.72	-51.4	-53.8	14.5	0.00e+00	0	25	0	386924544	69	4601
2026-01-11 05:49:36.88	40.70	18.79	-51.3	-53.5	14.7	0.00e+00	0	25	0	389021696	69	4472
2026-01-11 05:49:37.88	40.50	18.86	-51.1	-53.3	14.6	0.00e+00	0	25	0	390070272	68	4613
2026-01-11 05:49:38.88	40.29	18.93	-51.0	-53.1	14.7	0.00e+00	0	25	0	392167424	68	4524
2026-01-11 05:49:39.88	40.09	18.99	-51.0	-53.1	14.7	0.00e+00	0	25	0	394264576	68	4505
2026-01-11 05:49:40.87	39.89	19.06	-51.1	-53.2	14.7	0.00e+00	0	25	0	396361728	68	4563
2026-01-11 05:49:41.88	39.68	19.12	-51.0	-53.1	14.7	0.00e+00	0	25	0	398458880	68	4514
2026-01-11 05:49:42.88	39.47	19.19	-51.1	-53.2	14.7	0.00e+00	0	25	0	399507456	68	4583
2026-01-11 05:49:43.88	39.26	19.26	-51.0	-53.2	14.6	0.00e+00	0	25	0	401604608	68	4564
2026-01-11 05:49:44.88	39.06	19.32	-51.1	-53.3	14.6	0.00e+00	0	25	0	403701760	68	4606
2026-01-11 05:49:45.87	38.85	19.39	-51.1	-53.2	14.7	0.00e+00	0	25	0	405798912	68	4560
2026-01-11 05:49:46.87	38.64	19.45	-51.0	-53.1	14.7	0.00e+00	0	25	0	406847488	68	4542
2026-01-11 05:49:47.87	38.43	19.52	-50.9	-52.9	14.8	0.00e+00	0	25	0	408944640	68	4440
2026-01-11 05:49:48.88	38.21	19.58	-50.8	-52.8	14.9	0.00e+00	0	25	0	411041792	68	4355
2026-01-11 05:49:49.88	38.00	19.65	-50.8	-52.8	14.8	0.00e+00	0	25	0	413138944	68	4390
2026-01-11 05:49:50.88	37.78	19.71	-50.9	-53.0	14.8	0.00e+00	0	25	0	415236096	68	4442
2026-01-11 05:49:51.88	37.57	19.77	-50.9	-52.9	14.8	0.00e+00	0	25	0	416284672	68	4426
2026-01-11 05:49:52.89	37.35	19.84	-50.9	-53.0	14.7	0.00e+00	0	25	0	418381824	68	4467
2026-01-11 05:49:53.89	37.13	19.90	-51.0	-53.1	14.7	0.00e+00	0	25	0	420478976	68	4503
2026-01-11 05:49:54.88	36.92	19.96	-51.0	-53.1	14.7	0.00e+00	0	25	0	422576128	68	4509
2026-01-11 05:49:55.89	36.70	20.03	-51.1	-53.3	14.6	0.00e+00	0	25	0	424673280	68	4608
2026-01-11 05:49:56.89	36.48	20.09	-51.0	-53.1	14.7	0.00e+00	0	25	0	425721856	68	4538
2026-01-11 05:49:57.88	36.26	20.15	-51.1	-53.2	14.7	0.00e+00	0	25	0	427819008	68	4564
2026-01-11 05:49:58.88	36.04	20.21	-51.1	-53.2	14.7	0.00e+00	0	25	0	429916160	68	4565
2026-01-11 05:49:59.88	35.81	20.27	-51.0	-53.1	14.7	0.00e+00	0	25	0	432013312	68	4531
2026-01-11 05:50:00.88	35.59	20.34	-51.0	-53.0	14.7	0.00e+00	0	25	0	434110464	68	4488
2026-01-11 05:50:01.88	35.37	20.40	-50.4	-52.4	14.9	0.00e+00	0	25	0	435159040	67	4409
2026-01-11 05:50:02.88	35.14	20.46	-50.3	-52.3	15.0	0.00e+00	0	25	0	437256192	67	4351
2026-01-11 05:50:03.88	34.92	20.52	-50.3	-52.2	15.0	0.00e+00	0	25	0	439353344	67	4299
2026-01-11 05:50:04.88	34.69	20.58	-50.3	-52.2	15.0	0.00e+00	0	25	0	441450496	67	4306
2026-01-11 05:50:05.89	34.46	20.64	-50.3	-52.1	15.0	0.00e+00	0	25	0	442499072	67	4285
2026-01-11 05:50:06.88	34.23	20.70	-50.1	-51.9	15.0	0.00e+00	0	25	0	444596224	66	4411
2026-01-11 05:50:07.88	34.00	20.76	-50.2	-52.0	14.9	0.00e+00	0	25	0	446693376	66	4459
2026-01-11 05:50:08.88	33.77	20.81	-50.2	-52.0	14.9	0.00e+00	0	25	0	448790528	66	4449
2026-01-11 05:50:09.87	33.54	20.87	-50.4	-52.3	14.8	0.00e+00	0	25	0	450887680	66	4650
2026-01-11 05:50:10.88	33.31	20.93	-50.4	-52.2	14.8	0.00e+00	0	25	0	451936256	66	4576
2026-01-11 05:50:11.88	33.08	20.99	-50.4	-52.3	14.8	0.00e+00	0	25	0	454033408	66	4614
2026-01-11 05:50:12.89	32.84	21.05	-50.3	-52.1	14.9	0.00e+00	0	25	0	456130560	66	4520
2026-01-11 05:50:13.89	32.60	21.10	-50.1	-51.9	15.0	0.00e+00	0	25	0	458227712	66	4425
2026-01-11 05:50:14.89	32.37	21.16	-50.2	-52.0	14.9	0.00e+00	0	25	0	460324864	66	4464
2026-01-11 05:50:15.89	32.13	21.21	-50.4	-52.2	14.8	0.00e+00	0	25	0	461373440	66	4565
2026-01-11 05:50:16.89	31.89	21.27	-50.4	-52.3	14.8	0.00e+00	0	25	0	463470592	66	4627
2026-01-11 05:50:17.89	31.66	21.32	-50.5	-52.4	14.8	0.00e+00	0	25	0	465567744	66	4689
2026-01-11 05:50:18.87	31.42	21.38	-50.5	-52.3	14.8	0.00e+00	0	25	0	467664896	66	4632
2026-01-11 05:50:19.88	31.18	21.43	-50.2	-51.9	15.0	0.00e+00	0	25	0	468713472	66	4441
2026-01-11 05:50:20.87	30.94	21.49	-50.1	-51.9	15.0	0.00e+00	0	25	0	470810624	66	4396
2026-01-11 05:50:21.87	30.70	21.54	-50.2	-51.9	14.9	0.00e+00	0	25	0	472907776	66	4439
2026-01-11 05:50:22.87	30.46	21.59	-50.1	-51.8	15.0	0.00e+00	0	25	0	475004928	66	4376
2026-01-11 05:50:23.87	30.21	21.65	-50.2	-52.0	14.9	0.00e+00	0	25	0	477102080	66	4442
2026-01-11 05:50:24.87	29.97	21.70	-50.2	-52.0	14.9	0.00e+00	0	25	0	478150656	66	4477
2026-01-11 05:50:25.86	29.73	21.75	-50.1	-51.8	15.0	0.00e+00	0	25	0	480247808	66	4382
2026-01-11 05:50:26.86	29.48	21.80	-50.0	-51.7	15.1	0.00e+00	0	25	0	482344960	66	4308
2026-01-11 05:50:27.86	29.23	21.85	-50.2	-52.0	15.0	0.00e+00	0	25	0	484442112	66	4449
2026-01-11 05:50:28.87	28.98	21.90	-50.4	-52.1	14.8	0.00e+00	0	25	0	486539264	66	4540
2026-01-11 05:50:29.86	28.74	21.95	-50.3	-52.0	14.9	0.00e+00	0	25	0	487587840	66	4470
2026-01-11 05:50:30.86	28.49	22.00	-50.1	-51.8	15.0	0.00e+00	0	25	0	489684992	66	4371
2026-01-11 05:50:31.86	28.24	22.05	-50.1	-51.8	15.0	0.00e+00	0	25	0	491782144	66	4391
2026-01-11 05:50:32.86	27.99	22.10	-50.2	-51.9	15.0	0.00e+00	0	25	0	493879296	66	4406
2026-01-11 05:50:33.86	27.74	22.15	-50.4	-52.1	14.9	0.00e+00	0	25	0	495976448	66	4544
2026-01-11 05:50:34.85	27.49	22.19	-50.7	-52.6	14.7	0.00e+00	0	25	0	497025024	66	4774
2026-01-11 05:50:35.85	27.23	22.24	-50.4	-52.2	14.8	0.00e+00	0	25	0	499122176	66	4546
2026-01-11 05:50:36.86	26.98	22.29	-50.4	-52.1	14.9	0.00e+00	0	25	0	501219328	66	4538
2026-01-11 05:50:37.85	26.73	22.33	-50.3	-52.1	14.9	0.00e+00	0	25	0	503316480	66	4507
2026-01-11 05:50:38.86	26.47	22.38	-50.2	-52.0	14.9	0.00e+00	0	25	0	504365056	66	4458
2026-01-11 05:50:39.86	26.21	22.42	-50.2	-51.9	14.9	0.00e+00	0	25	0	506462208	66	4434
2026-01-11 05:50:40.86	25.96	22.47	-50.3	-52.1	14.9	0.00e+00	0	25	0	508559360	66	4509
2026-01-11 05:50:41.86	25.70	22.51	-50.4	-52.2	14.8	0.00e+00	0	25	0	510656512	66	4550
2026-01-11 05:50:42.87	25.44	22.55	-50.3	-52.1	14.9	0.00e+00	0	25	0	512753664	66	4520
2026-01-11 05:50:43.87	25.18	22.60	-50.4	-52.1	14.9	0.00e+00	0	25	0	513802240	66	4539
2026-01-11 05:50:44.88	24.92	22.64	-50.2	-51.8	15.0	0.00e+00	0	25	0	515899392	66	4387
2026-01-11 05:50:45.87	24.66	22.68	-50.0	-51.7	15.1	0.00e+00	0	25	0	517996544	66	4296
2026-01-11 05:50:46.88	24.39	22.72	-50.0	-51.7	15.1	0.00e+00	0	25	0	520093696	66	4318
2026-01-11 05:50:47.88	24.13	22.76	-50.2	-51.9	15.0	0.00e+00	0	25	0	522190848	66	4398
2026-01-11 05:50:48.88	23.87	22.80	-50.0	-51.7	15.1	0.00e+00	0	25	0	523239424	66	4296
2026-01-11 05:50:49.88	23.61	22.84	-50.0	-51.6	15.1	0.00e+00	0	25	0	525336576	66	4269
2026-01-11 05:50:50.88	23.34	22.88	-50.1	-51.7	15.1	0.00e+00	0	25	0	527433728	66	4322
2026-01-11 05:50:51.89	23.08	22.92	-50.3	-52.0	14.9	0.00e+00	0	25	0	529530880	66	4454
2026-01-11 05:50:52.89	22.81	22.95	-50.6	-52.4	14.8	0.00e+00	0	25	0	530579456	66	4677
2026-01-11 05:50:53.89	22.55	22.99	-50.9	-52.8	14.7	0.00e+00	0	25	0	532676608	67	4606
2026-01-11 05:50:54.90	22.28	23.03	-51.1	-53.0	14.6	0.00e+00	0	25	0	534773760	67	4753
2026-01-11 05:50:55.90	22.01	23.06	-51.1	-53.1	14.6	0.00e+00	0	25	0	536870912	67	4768
2026-01-11 05:50:56.90	21.74	23.10	-51.6	-53.7	14.4	0.00e+00	0	25	0	538968064	68	4860
2026-01-11 05:50:57.90	21.47	23.13	-52.0	-54.2	14.3	0.00e+00	0	25	0	541065216	69	4861
2026-01-11 05:50:58.90	21.21	23.17	-52.5	-54.9	14.0	0.00e+00	0	25	0	542113792	70	4945
2026-01-11 05:50:59.91	20.93	23.20	-52.5	-54.9	14.1	0.00e+00	0	25	0	544210944	70	4973
2026-01-11 05:51:00.90	20.67	23.23	-52.3	-54.6	14.2	0.00e+00	0	25	0	546308096	70	4810
2026-01-11 05:51:01.90	20.40	23.26	-52.1	-54.3	14.4	0.00e+00	0	25	0	548405248	70	4624
2026-01-11 05:51:02.91	20.12	23.29	-51.8	-54.0	14.6	0.00e+00	0	25	0	549453824	70	4448
2026-01-11 05:51:03.91	19.85	23.32	-51.6	-53.7	14.6	0.00e+00	0	25	0	551550976	69	4575
2026-01-11 05:51:04.90	19.58	23.35	-51.5	-53.6	14.7	0.00e+00	0	25	0	553648128	69	4508
2026-01-11 05:51:05.91	19.31	23.38	-51.5	-53.6	14.6	0.00e+00	0	25	0	555745280	69	4521
2026-01-11 05:51:06.90	19.04	23.41	-51.5	-53.6	14.7	0.00e+00	0	25	0	557842432	69	4502
2026-01-11 05:51:07.91	18.76	23.44	-51.5	-53.5	14.7	0.00e+00	0	25	0	558891008	69	4473
2026-01-11 05:51:08.91	18.49	23.47	-51.3	-53.3	14.8	0.00e+00	0	25	0	560988160	69	4378
2026-01-11 05:51:09.91	18.21	23.49	-51.3	-53.3	14.8	0.00e+00	0	25	0	563085312	69	4382
2026-01-11 05:51:10.91	17.94	23.52	-51.3	-53.3	14.8	0.00e+00	0	25	0	565182464	69	4391
2026-01-11 05:51:11.91	17.66	23.54	-51.4	-53.4	14.7	0.00e+00	0	25	0	567279616	69	4430
2026-01-11 05:51:12.92	17.38	23.57	-51.5	-53.6	14.7	0.00e+00	0	25	0	568328192	69	4527
2026-01-11 05:51:13.91	17.11	23.59	-51.7	-53.9	14.5	0.00e+00	0	25	0	570425344	69	4684
2026-01-11 05:51:14.91	16.83	23.61	-51.7	-53.9	14.4	0.00e+00	0	25	0	572522496	69	4701
2026-01-11 05:51:15.92	16.55	23.64	-51.9	-54.2	14.3	0.00e+00	0	25	0	574619648	69	4827
2026-01-11 05:51:16.92	16.27	23.66	-51.9	-54.2	14.4	0.00e+00	0	25	0	575668224	69	4834
2026-01-11 05:51:17.93	15.99	23.68	-52.0	-54.3	14.3	0.00e+00	0	25	0	577765376	69	4872
2026-01-11 05:51:18.93	15.72	23.70	-52.1	-54.4	14.2	0.00e+00	0	25	0	579862528	69	4967
2026-01-11 05:51:19.93	15.44	23.72	-52.2	-54.5	14.2	0.00e+00	0	25	0	581959680	69	5016
2026-01-11 05:51:20.93	15.16	23.74	-52.4	-54.8	14.1	0.00e+00	0	25	0	584056832	69	5189
2026-01-11 05:51:21.93	14.88	23.75	-52.4	-54.9	14.1	0.00e+00	0	25	0	585105408	70	4947
2026-01-11 05:51:22.93	14.60	23.77	-52.5	-55.0	14.0	0.00e+00	0	25	0	587202560	70	5020
2026-01-11 05:51:23.93	14.32	23.79	-52.4	-54.9	14.1	0.00e+00	0	25	0	589299712	70	4945
2026-01-11 05:51:24.93	14.04	23.80	-52.4	-54.8	14.2	0.00e+00	0	25	0	591396864	70	4912
2026-01-11 05:51:25.93	13.76	23.82	-52.3	-54.7	14.2	0.00e+00	0	25	0	593494016	70	4860
2026-01-11 05:51:26.93	13.48	23.83	-52.2	-54.6	14.3	0.00e+00	0	25	0	594542592	70	4776
2026-01-11 05:51:27.93	13.20	23.84	-52.3	-54.7	14.3	0.00e+00	0	25	0	596639744	70	4836
2026-01-11 05:51:28.93	12.92	23.86	-52.4	-54.8	14.2	0.00e+00	0	25	0	598736896	70	4909
2026-01-11 05:51:29.93	12.64	23.87	-52.5	-55.0	14.1	0.00e+00	0	25	0	600834048	70	5032
2026-01-11 05:51:30.93	12.35	23.88	-52.6	-55.1	14.0	0.00e+00	0	25	0	602931200	70	5090
2026-01-11 05:51:31.93	12.07	23.89	-52.7	-55.4	13.9	0.00e+00	0	25	0	603979776	70	5224
2026-01-11 05:51:32.93	11.79	23.90	-52.8	-55.5	13.8	0.00e+00	0	25	0	606076928	70	5299
2026-01-11 05:51:33.93	11.51	23.91	-52.8	-55.4	13.8	0.00e+00	0	25	0	608174080	70	5276
2026-01-11 05:51:34.93	11.23	23.92	-52.8	-55.5	13.8	0.00e+00	0	25	0	610271232	70	5285
2026-01-11 05:51:35.93	10.94	23.93	-52.8	-55.4	13.9	0.00e+00	0	25	0	611319808	70	5252
2026-01-11 05:51:36.92	10.66	23.93	-52.3	-54.8	14.2	0.00e+00	0	25	0	613416960	70	4886
2026-01-11 05:51:37.92	10.38	23.94	-52.1	-54.4	14.4	0.00e+00	0	25	0	615514112	70	4697
2026-01-11 05:51:38.91	10.10	23.94	-51.9	-54.1	14.5	0.00e+00	0	25	0	617611264	70	4527
2026-01-11 05:51:39.91	9.82	23.95	-51.4	-53.5	14.6	0.00e+00	0	25	0	619708416	69	4457
2026-01-11 05:51:40.91	9.54	23.95	-51.3	-53.4	14.7	0.00e+00	0	25	0	620756992	69	4414
2026-01-11 05:51:41.91	9.25	23.95	-51.4	-53.5	14.7	0.00e+00	0	25	0	622854144	69	4468
2026-01-11 05:51:42.91	8.97	23.96	-51.5	-53.7	14.6	0.00e+00	0	25	0	624951296	69	4575
2026-01-11 05:51:43.91	8.69	23.96	-51.5	-53.8	14.5	0.00e+00	0	25	0	627048448	69	4603
2026-01-11 05:51:44.91	8.40	23.96	-51.9	-54.2	14.3	0.00e+00	0	25	0	629145600	69	4860
2026-01-11 05:51:45.91	8.12	23.96	-51.9	-54.3	14.3	0.00e+00	0	25	0	630194176	69	4880
2026-01-11 05:51:46.91	7.84	23.96	-51.9	-54.2	14.3	0.00e+00	0	25	0	632291328	69	4858
2026-01-11 05:51:47.92	7.55	23.96	-51.7	-54.1	14.4	0.00e+00	0	25	0	634388480	69	4769
2026-01-11 05:51:48.92	7.27	23.95	-51.7	-54.0	14.4	0.00e+00	0	25	0	636485632	69	4725
2026-01-11 05:51:49.93	6.98	23.95	-51.7	-53.9	14.5	0.00e+00	0	25	0	637534208	69	4670
2026-01-11 05:51:50.93	6.70	23.95	-51.6	-53.9	14.5	0.00e+00	0	25	0	639631360	69	4665
2026-01-11 05:51:51.93	6.42	23.94	-51.5	-53.7	14.6	0.00e+00	0	25	0	641728512	69	4562
2026-01-11 05:51:52.94	6.13	23.94	-51.5	-53.6	14.6	0.00e+00	0	25	0	643825664	69	4528
2026-01-11 05:51:53.93	5.85	23.93	-51.2	-53.2	14.8	0.00e+00	0	25	0	645922816	69	4327
2026-01-11 05:51:54.93	5.57	23.92	-51.3	-53.3	14.6	0.00e+00	0	25	0	646971392	68	4632
2026-01-11 05:51:55.93	5.29	23.92	-51.3	-53.3	14.6	0.00e+00	0	25	0	649068544	68	4631
2026-01-11 05:51:56.93	5.01	23.91	-51.3	-53.4	14.6	0.00e+00	0	25	0	651165696	68	4686
2026-01-11 05:51:57.94	4.72	23.90	-51.4	-53.5	14.5	0.00e+00	0	25	0	653262848	68	4739
2026-01-11 05:51:58.93	4.44	23.89	-51.4	-53.5	14.6	0.00e+00	0	25	0	655360000	68	4715
2026-01-11 05:51:59.93	4.16	23.88	-51.2	-53.2	14.7	0.00e+00	0	25	0	656408576	68	4548
2026-01-11 05:52:00.94	3.88	23.87	-51.0	-52.9	14.8	0.00e+00	0	25	0	658505728	68	4409
2026-01-11 05:52:01.93	3.60	23.85	-51.0	-52.9	14.8	0.00e+00	0	25	0	660602880	68	4424
2026-01-11 05:52:02.93	3.32	23.84	-51.3	-53.2	14.7	0.00e+00	0	25	0	662700032	68	4579
2026-01-11 05:52:03.93	3.04	23.83	-51.3	-53.3	14.6	0.00e+00	0	25	0	664797184	68	4599
2026-01-11 05:52:04.94	2.75	23.81	-51.3	-53.2	14.7	0.00e+00	0	25	0	665845760	68	4584
2026-01-11 05:52:05.94	2.47	23.80	-51.0	-52.8	14.9	0.00e+00	0	25	0	667942912	68	4376
2026-01-11 05:52:06.94	2.19	23.78	-50.8	-52.6	15.0	0.00e+00	0	25	0	670040064	68	4283
2026-01-11 05:52:07.95	1.91	23.76	-51.0	-52.8	14.9	0.00e+00	0	25	0	672137216	68	4360
2026-01-11 05:52:08.94	1.63	23.75	-50.7	-52.5	15.0	0.00e+00	0	25	0	673185792	68	4216
2026-01-11 05:52:09.95	1.35	23.73	-50.7	-52.4	15.1	0.00e+00	0	25	0	675282944	68	4180
2026-01-11 05:52:10.94	1.07	23.71	-50.4	-52.2	15.0	0.00e+00	0	25	0	677380096	67	4292
2026-01-11 05:52:11.94	0.80	23.69	-50.0	-51.7	15.1	0.00e+00	0	25	0	679477248	66	4309
2026-01-11 05:52:12.95	0.52	23.67	-50.0	-51.6	15.1	0.00e+00	0	25	0	681574400	66	4254
2026-01-11 05:52:13.95	0.24	23.65	-50.1	-51.7	15.0	0.00e+00	0	25	0	683671552	66	4339
2026-01-11 05:52:14.96	359.96	23.63	-50.2	-51.8	15.0	0.00e+00	0	25	0	684720128	66	4389
2026-01-11 05:52:15.95	359.68	23.61	-50.1	-51.7	15.1	0.00e+00	0	25	0	686817280	66	4311
2026-01-11 05:52:16.96	359.40	23.58	-50.2	-51.8	15.0	0.00e+00	0	25	0	688914432	66	4382
2026-01-11 05:52:17.96	359.13	23.56	-50.2	-51.8	15.0	0.00e+00	0	25	0	691011584	66	4374
2026-01-11 05:52:18.96	358.85	23.53	-50.0	-51.5	15.1	0.00e+00	0	25	0	692060160	66	4229
2026-01-11 05:52:19.96	358.58	23.51	-50.0	-51.6	15.0	0.00e+00	0	25	0	694157312	66	4274
2026-01-11 05:52:20.96	358.30	23.48	-50.1	-51.8	15.0	0.00e+00	0	25	0	696254464	66	4341
2026-01-11 05:52:21.96	358.03	23.46	-50.3	-51.9	15.0	0.00e+00	0	25	0	698351616	66	4436
2026-01-11 05:52:22.97	357.75	23.43	-50.3	-52.0	14.9	0.00e+00	0	25	0	700448768	66	4458
2026-01-11 05:52:23.97	357.48	23.40	-50.4	-52.0	14.9	0.00e+00	0	25	0	701497344	66	4491
2026-01-11 05:52:24.97	357.21	23.37	-50.6	-52.3	14.8	0.00e+00	0	25	0	703594496	66	4636
2026-01-11 05:52:25.97	356.93	23.34	-50.8	-52.6	14.7	0.00e+00	0	26	0	705691648	66	4766
2026-01-11 05:52:26.96	356.67	23.31	-50.7	-52.4	14.7	0.00e+00	0	25	0	707788800	66	4700
2026-01-11 05:52:27.96	356.39	23.28	-50.7	-52.4	14.7	0.00e+00	0	25	0	709885952	66	4703
2026-01-11 05:52:28.96	356.12	23.25	-50.4	-52.0	14.9	0.00e+00	0	25	0	710934528	66	4484
2026-01-11 05:52:29.96	355.85	23.22	-50.1	-51.7	15.1	0.00e+00	0	25	0	713031680	66	4302
2026-01-11 05:52:30.96	355.58	23.19	-50.2	-51.8	15.0	0.00e+00	0	25	0	715128832	66	4375
2026-01-11 05:52:31.96	355.31	23.15	-50.4	-52.0	14.9	0.00e+00	0	25	0	717225984	66	4492
2026-01-11 05:52:32.96	355.05	23.12	-50.6	-52.4	14.8	0.00e+00	0	25	0	718274560	66	4676
2026-01-11 05:52:33.97	354.78	23.09	-50.8	-52.6	14.7	0.00e+00	0	25	0	720371712	66	4774
2026-01-11 05:52:34.98	354.51	23.05	-50.7	-52.5	14.7	0.00e+00	0	25	0	722468864	66	4720
2026-01-11 05:52:35.97	354.24	23.02	-50.6	-52.4	14.7	0.00e+00	0	25	0	724566016	66	4681
2026-01-11 05:52:36.97	353.98	22.98	-50.6	-52.4	14.8	0.00e+00	0	25	0	726663168	66	4667
2026-01-11 05:52:37.97	353.71	22.94	-50.5	-52.2	14.8	0.00e+00	0	25	0	727711744	66	4561
2026-01-11 05:52:38.97	353.45	22.90	-50.7	-52.5	14.7	0.00e+00	0	25	0	729808896	66	4737
2026-01-11 05:52:39.96	353.18	22.87	-50.8	-52.6	14.7	0.00e+00	0	25	0	731906048	66	4782
2026-01-11 05:52:40.96	352.92	22.83	-50.7	-52.6	14.7	0.00e+00	0	25	0	734003200	66	4772
2026-01-11 05:52:41.97	352.66	22.79	-50.8	-52.7	14.6	0.00e+00	0	25	0	736100352	66	4823
2026-01-11 05:52:42.97	352.39	22.75	-51.1	-53.1	14.6	0.00e+00	0	25	0	737148928	67	4782
2026-01-11 05:52:43.97	352.13	22.71	-51.2	-53.1	14.6	0.00e+00	0	25	0	739246080	67	4798
2026-01-11 05:52:44.98	351.87	22.67	-51.2	-53.1	14.6	0.00e+00	0	25	0	741343232	67	4796
2026-01-11 05:52:45.98	351.61	22.62	-51.3	-53.3	14.5	0.00e+00	0	25	0	743440384	67	4905
2026-01-11 05:52:46.98	351.35	22.58	-51.6	-53.7	14.5	0.00e+00	0	25	0	745537536	68	4832
2026-01-11 05:52:47.99	351.09	22.54	-51.8	-53.9	14.4	0.00e+00	0	25	0	746586112	68	4965
2026-01-11 05:52:48.98	350.83	22.50	-52.0	-54.3	14.3	0.00e+00	0	25	0	748683264	69	4881
2026-01-11 05:52:49.98	350.58	22.45	-52.2	-54.5	14.2	0.00e+00	0	25	0	750780416	69	5019
2026-01-11 05:52:50.98	350.32	22.41	-52.2	-54.5	14.2	0.00e+00	0	25	0	752877568	69	5025
2026-01-11 05:52:51.98	350.06	22.36	-52.2	-54.5	14.2	0.00e+00	0	25	0	753926144	69	5013
2026-01-11 05:52:52.98	349.81	22.32	-52.1	-54.3	14.3	0.00e+00	0	25	0	756023296	69	4911
2026-01-11 05:52:53.98	349.55	22.27	-52.1	-54.4	14.3	0.00e+00	0	25	0	758120448	69	4940
2026-01-11 05:52:54.98	349.30	22.23	-51.7	-53.9	14.5	0.00e+00	0	25	0	760217600	69	4665
2026-01-11 05:52:55.97	349.05	22.18	-51.8	-54.0	14.4	0.00e+00	0	25	0	762314752	69	4733
2026-01-11 05:52:56.97	348.80	22.13	-51.8	-54.0	14.4	0.00e+00	0	25	0	763363328	69	4746
2026-01-11 05:52:57.97	348.55	22.08	-51.9	-54.1	14.4	0.00e+00	0	25	0	765460480	69	4771
2026-01-11 05:52:58.97	348.30	22.04	-52.0	-54.2	14.3	0.00e+00	0	25	0	767557632	69	4868
2026-01-11 05:52:59.99	348.04	21.99	-52.0	-54.2	14.3	0.00e+00	0	25	0	769654784	69	4869
2026-01-11 05:53:00.99	347.80	21.94	-51.9	-54.1	14.4	0.00e+00	0	25	0	771751936	69	4779
2026-01-11 05:53:01.99	347.55	21.89	-51.6	-53.7	14.6	0.00e+00	0	25	0	772800512	69	4581
2026-01-11 05:53:02.99	347.30	21.84	-51.4	-53.5	14.7	0.00e+00	0	25	0	774897664	69	4465
2026-01-11 05:53:03.99	347.05	21.78	-51.4	-53.4	14.7	0.00e+00	0	25	0	776994816	69	4431
2026-01-11 05:53:05.00	346.81	21.73	-51.6	-53.8	14.6	0.00e+00	0	25	0	779091968	69	4610
2026-01-11 05:53:06.00	346.56	21.68	-51.5	-53.7	14.6	0.00e+00	0	25	0	781189120	69	4550
2026-01-11 05:53:07.00	346.32	21.63	-51.6	-53.8	14.6	0.00e+00	0	25	0	782237696	69	4622
2026-01-11 05:53:08.01	346.07	21.58	-51.6	-53.7	14.6	0.00e+00	0	25	0	784334848	69	4592
2026-01-11 05:53:09.00	345.83	21.52	-51.5	-53.7	14.6	0.00e+00	0	25	0	786432000	69	4549
2026-01-11 05:53:10.00	345.59	21.47	-51.6	-53.8	14.5	0.00e+00	0	25	0	788529152	69	4640
2026-01-11 05:53:11.01	345.35	21.41	-51.8	-54.1	14.4	0.00e+00	0	25	0	790626304	69	4783
2026-01-11 05:53:11.99	345.11	21.36	-51.9	-54.2	14.3	0.00e+00	0	25	0	791674880	69	4857
2026-01-11 05:53:13.00	344.87	21.31	-52.2	-54.7	14.1	0.00e+00	0	25	0	793772032	69	5118
2026-01-11 05:53:13.99	344.64	21.25	-52.2	-54.6	14.1	0.00e+00	0	25	0	795869184	69	5084
2026-01-11 05:53:15.00	344.40	21.19	-52.2	-54.6	14.2	0.00e+00	0	25	0	797966336	69	5058
2026-01-11 05:53:16.00	344.16	21.14	-52.0	-54.4	14.2	0.00e+00	0	25	0	799014912	69	4946
2026-01-11 05:53:17.00	343.93	21.08	-52.0	-54.3	14.3	0.00e+00	0	25	0	801112064	69	4924
2026-01-11 05:53:18.00	343.69	21.03	-51.9	-54.1	14.3	0.00e+00	0	25	0	803209216	69	4813
2026-01-11 05:53:19.00	343.46	20.97	-51.9	-54.2	14.3	0.00e+00	0	25	0	805306368	69	4864
2026-01-11 05:53:20.01	343.22	20.91	-52.3	-54.8	14.0	0.00e+00	0	25	0	807403520	69	5187
2026-01-11 05:53:21.01	342.99	20.85	-52.6	-55.2	14.0	0.00e+00	0	25	0	808452096	70	5137
2026-01-11 05:53:22.00	342.76	20.79	-52.9	-55.7	13.7	0.00e+00	0	25	0	810549248	70	5463
2026-01-11 05:53:23.00	342.53	20.74	-53.2	-56.3	13.4	0.00e+00	0	25	0	812646400	71	5478
2026-01-11 05:53:24.00	342.30	20.68	-53.5	-56.8	13.3	0.00e+00	0	25	0	814743552	72	5488
2026-01-11 05:53:25.01	342.07	20.62	-53.5	-56.8	13.1	0.00e+00	0	25	0	816840704	72	5471
2026-01-11 05:53:26.01	341.85	20.56	-53.0	-56.0	13.8	0.00e+00	0	25	0	817889280	72	5008
2026-01-11 05:53:27.00	341.62	20.50	-52.6	-55.2	14.1	0.00e+00	0	25	0	819986432	71	4859
2026-01-11 05:53:28.00	341.40	20.44	-52.3	-54.7	14.3	0.00e+00	0	25	0	822083584	71	4587
2026-01-11 05:53:29.00	341.17	20.38	-52.0	-54.3	14.4	0.00e+00	0	25	0	824180736	70	4635
2026-01-11 05:53:30.00	340.95	20.32	-51.9	-54.2	14.5	0.00e+00	0	25	0	825229312	70	4562
2026-01-11 05:53:31.00	340.73	20.25	-51.7	-53.9	14.7	0.00e+00	0	25	0	827326464	70	4416
2026-01-11 05:53:32.00	340.50	20.19	-51.5	-53.7	14.6	0.00e+00	0	25	0	829423616	69	4567
2026-01-11 05:53:33.00	340.28	20.13	-51.5	-53.6	14.6	0.00e+00	0	25	0	831520768	69	4526
2026-01-11 05:53:33.99	340.07	20.07	-51.2	-53.3	14.8	0.00e+00	0	25	0	833617920	69	4352
2026-01-11 05:53:34.99	339.85	20.01	-51.1	-53.2	14.7	0.00e+00	0	25	0	834666496	68	4565
2026-01-11 05:53:36.00	339.63	19.94	-50.9	-52.9	14.8	0.00e+00	0	25	0	836763648	68	4408
2026-01-11 05:53:36.99	339.41	19.88	-50.9	-52.8	14.9	0.00e+00	0	25	0	838860800	68	4383
2026-01-11 05:53:37.99	339.19	19.82	-50.9	-52.8	14.9	0.00e+00	0	25	0	840957952	68	4369
2026-01-11 05:53:38.98	338.98	19.75	-50.8	-52.7	14.9	0.00e+00	0	25	0	842006528	68	4325
2026-01-11 05:53:39.97	338.77	19.69	-50.2	-52.0	15.1	0.00e+00	0	25	0	844103680	67	4224
2026-01-11 05:53:40.97	338.55	19.63	-50.0	-51.7	15.0	0.00e+00	0	25	0	846200832	66	4340
2026-01-11 05:53:41.97	338.34	19.56	-49.9	-51.7	15.0	0.00e+00	0	25	0	848297984	66	4304
2026-01-11 05:53:42.96	338.13	19.50	-49.9	-51.6	15.1	0.00e+00	0	25	0	850395136	66	4281
2026-01-11 05:53:43.96	337.92	19.43	-49.9	-51.7	15.0	0.00e+00	0	25	0	851443712	66	4318
2026-01-11 05:53:44.97	337.71	19.37	-50.1	-51.9	14.9	0.00e+00	0	25	0	853540864	66	4409
2026-01-11 05:53:45.96	337.50	19.30	-50.4	-52.3	14.8	0.00e+00	0	25	0	855638016	66	4622
2026-01-11 05:53:46.97	337.29	19.24	-50.6	-52.6	14.6	0.00e+00	0	25	0	857735168	66	4805
2026-01-11 05:53:47.97	337.08	19.17	-51.2	-53.3	14.4	0.00e+00	0	25	0	859832320	67	4922
2026-01-11 05:53:48.97	336.88	19.11	-51.8	-54.1	14.2	0.00e+00	0	25	0	860880896	68	5089
2026-01-11 05:53:49.97	336.67	19.04	-52.0	-54.5	14.1	0.00e+00	0	25	0	862978048	69	4988
2026-01-11 05:53:50.97	336.47	18.97	-52.1	-54.6	14.1	0.00e+00	0	25	0	865075200	69	5070
2026-01-11 05:53:51.98	336.26	18.91	-52.2	-54.7	14.0	0.00e+00	0	25	0	867172352	69	5131
2026-01-11 05:53:52.98	336.06	18.84	-52.2	-54.8	14.0	0.00e+00	0	25	0	869269504	69	5194
2026-01-11 05:53:53.98	335.86	18.77	-52.1	-54.7	14.1	0.00e+00	0	25	0	870318080	69	5122
2026-01-11 05:53:54.98	335.65	18.70	-51.9	-54.4	14.2	0.00e+00	0	25	0	872415232	69	4941
2026-01-11 05:53:55.98	335.45	18.64	-51.7	-54.0	14.4	0.00e+00	0	25	0	874512384	69	4749
2026-01-11 05:53:56.98	335.25	18.57	-51.5	-53.8	14.5	0.00e+00	0	25	0	876609536	69	4620
2026-01-11 05:53:57.99	335.05	18.50	-51.4	-53.6	14.6	0.00e+00	0	25	0	877658112	69	4532
2026-01-11 05:53:58.99	334.86	18.43	-51.3	-53.4	14.7	0.00e+00	0	25	0	879755264	69	4435
2026-01-11 05:53:59.98	334.66	18.37	-51.1	-53.3	14.6	0.00e+00	0	25	0	881852416	68	4609
2026-01-11 05:54:00.98	334.47	18.30	-51.0	-53.0	14.7	0.00e+00	0	25	0	883949568	68	4485
2026-01-11 05:54:01.99	334.27	18.23	-50.8	-52.8	14.8	0.00e+00	0	25	0	886046720	68	4382
2026-01-11 05:54:02.98	334.08	18.16	-50.8	-52.8	14.8	0.00e+00	0	25	0	887095296	68	4376
2026-01-11 05:54:03.98	333.88	18.09	-50.6	-52.5	14.8	0.00e+00	0	25	0	889192448	67	4484
2026-01-11 05:54:04.99	333.69	18.02	-50.4	-52.2	14.9	0.00e+00	0	25	0	891289600	67	4335
2026-01-11 05:54:05.98	333.50	17.95	-50.5	-52.4	14.9	0.00e+00	0	25	0	893386752	67	4412
2026-01-11 05:54:06.99	333.31	17.88	-50.8	-52.8	14.7	0.00e+00	0	25	0	895483904	67	4623
2026-01-11 05:54:08.00	333.12	17.81	-51.1	-53.2	14.4	0.00e+00	0	25	0	896532480	67	4862
2026-01-11 05:54:09.00	332.93	17.75	-51.3	-53.5	14.4	0.00e+00	0	25	0	898629632	67	5006
2026-01-11 05:54:10.01	332.74	17.67	-51.2	-53.4	14.4	0.00e+00	0	25	0	900726784	67	4937
2026-01-11 05:54:11.01	332.55	17.61	-51.1	-53.1	14.5	0.00e+00	0	25	0	902823936	67	4812
2026-01-11 05:54:12.02	332.36	17.53	-50.9	-52.9	14.6	0.00e+00	0	25	0	904921088	67	4671
2026-01-11 05:54:13.02	332.18	17.47	-50.9	-53.0	14.5	0.00e+00	0	25	0	905969664	67	4711
2026-01-11 05:54:14.02	332.00	17.40	-51.0	-53.1	14.5	0.00e+00	0	25	0	908066816	67	4787
2026-01-11 05:54:15.02	331.81	17.33	-51.3	-53.4	14.4	0.00e+00	0	25	0	910163968	67	4958
2026-01-11 05:54:16.02	331.63	17.25	-51.3	-53.5	14.3	0.00e+00	0	25	0	912261120	67	5038
2026-01-11 05:54:17.03	331.45	17.18	-51.6	-53.9	14.3	0.00e+00	0	25	0	914358272	68	4953
2026-01-11 05:54:18.03	331.26	17.11	-51.6	-53.9	14.3	0.00e+00	0	25	0	915406848	68	4935
2026-01-11 05:54:19.03	331.08	17.04	-51.6	-53.9	14.3	0.00e+00	0	25	0	917504000	68	4932
2026-01-11 05:54:20.03	330.91	16.97	-51.5	-53.7	14.5	0.00e+00	0	25	0	919601152	68	4822
2026-01-11 05:54:21.04	330.73	16.90	-51.4	-53.5	14.6	0.00e+00	0	25	0	921698304	68	4741
2026-01-11 05:54:22.04	330.55	16.83	-51.4	-53.5	14.5	0.00e+00	0	25	0	922746880	68	4722
2026-01-11 05:54:23.04	330.37	16.76	-51.3	-53.4	14.5	0.00e+00	0	25	0	924844032	68	4696
2026-01-11 05:54:24.04	330.20	16.69	-51.3	-53.4	14.6	0.00e+00	0	25	0	926941184	68	4655
2026-01-11 05:54:25.04	330.02	16.62	-51.1	-53.2	14.7	0.00e+00	0	25	0	929038336	68	4555
2026-01-11 05:54:26.03	329.85	16.55	-51.0	-53.0	14.8	0.00e+00	0	25	0	931135488	68	4467
2026-01-11 05:54:27.04	329.67	16.48	-51.0	-52.9	14.8	0.00e+00	0	25	0	932184064	68	4428
2026-01-11 05:54:28.03	329.50	16.41	-51.1	-53.0	14.7	0.00e+00	0	25	0	934281216	68	4479
2026-01-11 05:54:29.03	329.33	16.33	-51.1	-53.0	14.7	0.00e+00	0	25	0	936378368	68	4493
2026-01-11 05:54:30.04	329.16	16.26	-51.2	-53.1	14.7	0.00e+00	0	25	0	938475520	68	4533
2026-01-11 05:54:31.04	328.99	16.19	-51.3	-53.3	14.6	0.00e+00	0	25	0	940572672	68	4603
2026-01-11 05:54:32.04	328.82	16.12	-51.3	-53.4	14.6	0.00e+00	0	25	0	941621248	68	4652
2026-01-11 05:54:33.03	328.65	16.05	-51.2	-53.2	14.7	0.00e+00	0	25	0	943718400	68	4574
2026-01-11 05:54:34.03	328.49	15.98	-51.1	-53.0	14.8	0.00e+00	0	25	0	945815552	68	4455
2026-01-11 05:54:35.03	328.32	15.91	-51.0	-52.9	14.7	0.00e+00	0	25	0	947912704	68	4411
2026-01-11 05:54:36.03	328.15	15.83	-51.0	-52.8	14.8	0.00e+00	0	25	0	950009856	68	4383
2026-01-11 05:54:37.03	327.99	15.76	-50.9	-52.6	14.9	0.00e+00	0	25	0	951058432	68	4284
2026-01-11 05:54:38.03	327.83	15.69	-50.9	-52.7	14.9	0.00e+00	0	25	0	953155584	68	4295
2026-01-11 05:54:39.02	327.66	15.62	-50.6	-52.3	14.9	0.00e+00	0	25	0	955252736	67	4365
2026-01-11 05:54:40.02	327.50	15.55	-50.7	-52.5	14.8	0.00e+00	0	25	0	957349888	67	4468
2026-01-11 05:54:41.01	327.34	15.48	-50.6	-52.4	14.9	0.00e+00	0	25	0	958398464	67	4419
2026-01-11 05:54:42.01	327.18	15.41	-50.7	-52.5	14.8	0.00e+00	0	25	0	960495616	67	4476
2026-01-11 05:54:43.01	327.02	15.33	-50.6	-52.4	14.8	0.00e+00	0	25	0	962592768	67	4428
2026-01-11 05:54:44.01	326.86	15.26	-50.8	-52.6	14.8	0.00e+00	0	25	0	964689920	67	4534
2026-01-11 05:54:45.01	326.70	15.19	-51.0	-52.9	14.7	0.00e+00	0	25	0	966787072	67	4679
2026-01-11 05:54:46.01	326.54	15.12	-50.9	-52.8	14.7	0.00e+00	0	25	0	967835648	67	4618
2026-01-11 05:54:47.01	326.39	15.05	-51.0	-52.9	14.6	0.00e+00	0	25	0	969932800	67	4695
2026-01-11 05:54:48.02	326.23	14.98	-51.0	-52.9	14.7	0.00e+00	0	25	0	972029952	67	4663
2026-01-11 05:54:49.02	326.07	14.90	-51.0	-52.9	14.6	0.00e+00	0	25	0	974127104	67	4670
2026-01-11 05:54:50.03	325.92	14.83	-51.0	-52.8	14.6	0.00e+00	0	25	0	976224256	67	4651
2026-01-11 05:54:51.03	325.76	14.76	-51.0	-52.8	14.7	0.00e+00	0	25	0	977272832	67	4641
2026-01-11 05:54:52.04	325.61	14.69	-50.7	-52.5	14.8	0.00e+00	0	25	0	979369984	67	4472
2026-01-11 05:54:53.04	325.45	14.62	-50.4	-52.2	15.0	0.00e+00	0	25	0	981467136	67	4293
2026-01-11 05:54:54.04	325.30	14.54	-50.3	-52.0	15.0	0.00e+00	0	25	0	983564288	67	4204
2026-01-11 05:54:55.04	325.15	14.47	-50.4	-52.2	15.0	0.00e+00	0	25	0	984612864	67	4301
2026-01-11 05:54:56.04	325.00	14.40	-50.6	-52.4	14.8	0.00e+00	0	25	0	986710016	67	4402
2026-01-11 05:54:57.04	324.85	14.33	-50.8	-52.7	14.7	0.00e+00	0	25	0	988807168	67	4570
2026-01-11 05:54:58.05	324.70	14.26	-51.1	-53.1	14.5	0.00e+00	0	25	0	990904320	67	4782
2026-01-11 05:54:59.05	324.55	14.18	-51.2	-53.2	14.5	0.00e+00	0	25	0	993001472	67	4825
2026-01-11 05:55:00.06	324.40	14.11	-51.6	-53.7	14.4	0.00e+00	0	25	0	995098624	68	4829
2026-01-11 05:55:01.06	324.26	14.04	-51.8	-53.9	14.3	0.00e+00	0	25	0	996147200	68	4961
2026-01-11 05:55:02.06	324.11	13.97	-51.8	-53.8	14.3	0.00e+00	0	25	0	998244352	68	4926
2026-01-11 05:55:03.06	323.97	13.90	-51.5	-53.6	14.4	0.00e+00	0	25	0	1000341504	68	4764
2026-01-11 05:55:04.06	323.82	13.83	-51.5	-53.5	14.5	0.00e+00	0	25	0	1002438656	68	4751
2026-01-11 05:55:05.07	323.68	13.75	-51.3	-53.3	14.6	0.00e+00	0	25	0	1003487232	68	4623
2026-01-11 05:55:06.07	323.53	13.68	-51.3	-53.3	14.6	0.00e+00	0	25	0	1005584384	68	4601
2026-01-11 05:55:07.07	323.39	13.61	-51.2	-53.1	14.7	0.00e+00	0	25	0	1007681536	68	4544
2026-01-11 05:55:08.07	323.25	13.54	-51.1	-52.9	14.8	0.00e+00	0	25	0	1009778688	68	4431
2026-01-11 05:55:09.07	323.11	13.47	-50.9	-52.8	14.8	0.00e+00	0	25	0	1011875840	68	4343
2026-01-11 05:55:10.07	322.97	13.40	-51.1	-52.9	14.8	0.00e+00	0	25	0	1012924416	68	4420
2026-01-11 05:55:11.08	322.83	13.32	-50.9	-52.7	14.9	0.00e+00	0	25	0	1015021568	68	4309
2026-01-11 05:55:12.07	322.69	13.25	-50.7	-52.4	15.0	0.00e+00	0	25	0	1017118720	68	4181
2026-01-11 05:55:13.08	322.55	13.18	-50.6	-52.3	14.9	0.00e+00	0	25	0	1019215872	67	4383
2026-01-11 05:55:14.08	322.41	13.11	-50.7	-52.5	14.8	0.00e+00	0	25	0	1021313024	67	4455
2026-01-11 05:55:15.08	322.28	13.04	-50.6	-52.4	14.8	0.00e+00	0	25	0	1022361600	67	4400
2026-01-11 05:55:16.09	322.14	12.97	-50.9	-52.8	14.7	0.00e+00	0	25	0	1024458752	67	4606
2026-01-11 05:55:17.09	322.00	12.90	-51.2	-53.2	14.5	0.00e+00	0	25	0	1026555904	67	4852
2026-01-11 05:55:18.10	321.87	12.82	-51.7	-53.8	14.4	0.00e+00	0	25	0	1028653056	68	4883
2026-01-11 05:55:19.10	321.73	12.75	-52.0	-54.1	14.3	0.00e+00	0	25	0	1030750208	69	4801
2026-01-11 05:55:20.10	321.60	12.68	-52.3	-54.5	14.1	0.00e+00	0	25	0	1031798784	69	5020
2026-01-11 05:55:21.10	321.47	12.61	-52.3	-54.5	14.1	0.00e+00	0	25	0	1033895936	69	5027
2026-01-11 05:55:22.11	321.33	12.54	-52.2	-54.5	14.1	0.00e+00	0	25	0	1035993088	69	5003
2026-01-11 05:55:23.11	321.20	12.47	-52.1	-54.3	14.2	0.00e+00	0	25	0	1038090240	69	4907
2026-01-11 05:55:24.12	321.07	12.40	-51.9	-54.0	14.4	0.00e+00	0	25	0	1040187392	69	4737
2026-01-11 05:55:25.12	320.94	12.33	-51.7	-53.7	14.5	0.00e+00	0	25	0	1041235968	69	4586
2026-01-11 05:55:26.12	320.81	12.26	-51.5	-53.4	14.6	0.00e+00	0	25	0	1043333120	69	4422
2026-01-11 05:55:27.12	320.68	12.19	-51.4	-53.4	14.7	0.00e+00	0	25	0	1045430272	69	4396
2026-01-11 05:55:28.11	320.55	12.12	-51.4	-53.4	14.7	0.00e+00	0	25	0	1047527424	69	4401
2026-01-11 05:55:29.12	320.42	12.05	-51.3	-53.2	14.8	0.00e+00	0	25	0	1048576000	69	4308
2026-01-11 05:55:30.12	320.30	11.97	-51.4	-53.4	14.7	0.00e+00	0	25	0	1050673152	69	4414
2026-01-11 05:55:31.12	320.17	11.90	-51.4	-53.3	14.7	0.00e+00	0	25	0	1052770304	69	4367
2026-01-11 05:55:32.12	320.04	11.83	-51.6	-53.6	14.6	0.00e+00	0	25	0	1054867456	69	4498
2026-01-11 05:55:33.11	319.92	11.76	-51.4	-53.4	14.7	0.00e+00	0	25	0	1056964608	69	4394
2026-01-11 05:55:34.11	319.80	11.69	-51.5	-53.5	14.6	0.00e+00	0	25	0	1058013184	69	4492
2026-01-11 05:55:35.12	319.67	11.62	-51.5	-53.5	14.6	0.00e+00	0	25	0	1060110336	69	4457
2026-01-11 05:55:36.11	319.55	11.55	-51.4	-53.4	14.7	0.00e+00	0	25	0	1062207488	69	4421
2026-01-11 05:55:37.11	319.43	11.48	-51.6	-53.6	14.6	0.00e+00	0	25	0	1064304640	69	4530
2026-01-11 05:55:38.11	319.30	11.41	-51.6	-53.6	14.6	0.00e+00	0	25	0	1066401792	69	4513
2026-01-11 05:55:39.11	319.18	11.35	-51.7	-53.7	14.5	0.00e+00	0	25	0	1067450368	69	4584
2026-01-11 05:55:40.11	319.06	11.28	-51.7	-53.7	14.5	0.00e+00	0	25	0	1069547520	69	4573
2026-01-11 05:55:41.12	318.94	11.21	-51.9	-54.0	14.3	0.00e+00	0	25	0	1071644672	69	4745
2026-01-11 05:55:42.12	318.82	11.14	-51.8	-53.9	14.4	0.00e+00	0	25	0	1073741824	69	4692
2026-01-11 05:55:43.12	318.70	11.07	-52.0	-54.2	14.3	0.00e+00	0	25	0	1074790400	69	4835
2026-01-11 05:55:44.12	318.58	11.00	-52.1	-54.4	14.1	0.00e+00	0	25	0	1076887552	69	4972
2026-01-11 05:55:45.12	318.46	10.93	-52.2	-54.5	14.1	0.00e+00	0	25	0	1078984704	69	5007
2026-01-11 05:55:46.12	318.35	10.86	-52.2	-54.6	14.1	0.00e+00	0	25	0	1081081856	69	5068
2026-01-11 05:55:47.13	318.23	10.79	-52.1	-54.4	14.2	0.00e+00	0	25	0	1083179008	69	4945
2026-01-11 05:55:48.13	318.11	10.72	-52.1	-54.5	14.1	0.00e+00	0	25	0	1084227584	69	4987
2026-01-11 05:55:49.13	317.99	10.65	-52.1	-54.3	14.2	0.00e+00	0	25	0	1086324736	69	4917
2026-01-11 05:55:50.13	317.88	10.58	-52.3	-54.6	14.0	0.00e+00	0	25	0	1088421888	69	5093
2026-01-11 05:55:51.13	317.76	10.51	-52.3	-54.7	14.0	0.00e+00	0	25	0	1090519040	69	5150
2026-01-11 05:55:52.14	317.65	10.44	-52.3	-54.7	14.0	0.00e+00	0	25	0	1092616192	69	5119
2026-01-11 05:55:53.14	317.54	10.37	-52.6	-55.1	13.9	0.00e+00	0	25	0	1093664768	70	5084
2026-01-11 05:55:54.15	317.42	10.30	-52.8	-55.4	13.7	0.00e+00	0	25	0	1095761920	70	5223
2026-01-11 05:55:55.15	317.31	10.24	-53.0	-55.7	13.6	0.00e+00	0	25	0	1097859072	71	5136
2026-01-11 05:55:56.14	317.20	10.17	-52.8	-55.4	13.8	0.00e+00	0	25	0	1099956224	71	4963
2026-01-11 05:55:57.15	317.09	10.10	-53.1	-55.8	13.6	0.00e+00	0	25	0	1102053376	71	5189
2026-01-11 05:55:58.15	316.97	10.03	-52.9	-55.5	13.8	0.00e+00	0	25	0	1103101952	71	5003
2026-01-11 05:55:59.15	316.86	9.96	-52.9	-55.5	13.8	0.00e+00	0	25	0	1105199104	71	4997
2026-01-11 05:56:00.15	316.75	9.89	-52.9	-55.6	13.7	0.00e+00	0	25	0	1107296256	71	5044
2026-01-11 05:56:01.15	316.65	9.83	-52.7	-55.3	13.9	0.00e+00	0	25	0	1109393408	71	4871
2026-01-11 05:56:02.15	316.54	9.76	-52.5	-55.0	14.1	0.00e+00	0	25	0	1111490560	71	4706
2026-01-11 05:56:03.14	316.43	9.69	-52.3	-54.5	14.3	0.00e+00	0	25	0	1112539136	71	4486
2026-01-11 05:56:04.14	316.32	9.62	-52.3	-54.5	14.3	0.00e+00	0	25	0	1114636288	71	4477
2026-01-11 05:56:05.15	316.21	9.56	-52.1	-54.2	14.3	0.00e+00	0	25	0	1116733440	70	4595
2026-01-11 05:56:06.15	316.11	9.49	-52.0	-54.1	14.4	0.00e+00	0	25	0	1118830592	70	4528
2026-01-11 05:56:07.16	316.00	9.42	-52.0	-54.1	14.4	0.00e+00	0	25	0	1119879168	70	4524
2026-01-11 05:56:08.15	315.89	9.35	-51.9	-54.0	14.4	0.00e+00	0	25	0	1121976320	70	4486
2026-01-11 05:56:09.16	315.79	9.28	-52.0	-54.1	14.4	0.00e+00	0	26	0	1124073472	70	4512
2026-01-11 05:56:10.15	315.68	9.22	-52.1	-54.3	14.3	0.00e+00	0	25	0	1126170624	70	4642
2026-01-11 05:56:11.15	315.58	9.15	-52.4	-54.7	14.1	0.00e+00	0	25	0	1128267776	70	4835
2026-01-11 05:56:12.15	315.48	9.08	-52.4	-54.7	14.1	0.00e+00	0	25	0	1129316352	70	4822
2026-01-11 05:56:13.15	315.37	9.02	-52.4	-54.8	14.0	0.00e+00	0	25	0	1131413504	70	4896
2026-01-11 05:56:14.15	315.27	8.95	-52.5	-54.9	13.9	0.00e+00	0	25	0	1133510656	70	4962
2026-01-11 05:56:15.16	315.17	8.88	-52.5	-54.9	13.9	0.00e+00	0	25	0	1135607808	70	4964
2026-01-11 05:56:16.16	315.07	8.82	-52.7	-55.2	13.8	0.00e+00	0	25	0	1137704960	70	5124
2026-01-11 05:56:17.16	314.96	8.75	-52.7	-55.2	13.8	0.00e+00	0	25	0	1138753536	70	5112
2026-01-11 05:56:18.16	314.86	8.68	-52.7	-55.2	13.8	0.00e+00	0	25	0	1140850688	70	5106
2026-01-11 05:56:19.16	314.76	8.62	-52.6	-55.0	13.9	0.00e+00	0	25	0	1142947840	70	5041
2026-01-11 05:56:20.17	314.66	8.55	-52.6	-55.0	13.9	0.00e+00	0	25	0	1145044992	70	5038
2026-01-11 05:56:21.16	314.56	8.48	-52.6	-55.0	13.9	0.00e+00	0	25	0	1147142144	70	5023
2026-01-11 05:56:22.17	314.46	8.42	-52.5	-54.9	13.9	0.00e+00	0	25	0	1148190720	70	4934
2026-01-11 05:56:23.18	314.36	8.35	-52.5	-54.9	14.0	0.00e+00	0	25	0	1150287872	70	4936
2026-01-11 05:56:24.18	314.27	8.28	-52.4	-54.8	14.0	0.00e+00	0	25	0	1152385024	70	4886
2026-01-11 05:56:25.18	314.17	8.22	-52.4	-54.7	14.1	0.00e+00	0	25	0	1154482176	70	4849
2026-01-11 05:56:26.18	314.07	8.15	-52.4	-54.7	14.0	0.00e+00	0	25	0	1155530752	70	4857
2026-01-11 05:56:27.18	313.98	8.09	-52.4	-54.8	14.0	0.00e+00	0	25	0	1157627904	70	4879
2026-01-11 05:56:28.18	313.88	8.02	-52.5	-54.9	13.9	0.00e+00	0	25	0	1159725056	70	4948
2026-01-11 05:56:29.17	313.78	7.96	-52.5	-54.9	13.9	0.00e+00	0	25	0	1161822208	70	4982
2026-01-11 05:56:30.17	313.69	7.89	-52.6	-55.1	13.9	0.00e+00	0	25	0	1163919360	70	5042
2026-01-11 05:56:31.17	313.59	7.82	-52.7	-55.2	13.7	0.00e+00	0	25	0	1164967936	70	5158
2026-01-11 05:56:32.17	313.50	7.76	-52.7	-55.2	13.7	0.00e+00	0	25	0	1167065088	70	5143
2026-01-11 05:56:33.17	313.41	7.69	-52.9	-55.6	13.7	0.00e+00	0	25	0	1169162240	71	5045
2026-01-11 05:56:34.18	313.31	7.63	-53.0	-55.7	13.6	0.00e+00	0	25	0	1171259392	71	5133
2026-01-11 05:56:35.18	313.22	7.56	-53.1	-55.9	13.5	0.00e+00	0	25	0	1173356544	71	5253
2026-01-11 05:56:36.18	313.13	7.50	-53.1	-55.9	13.5	0.00e+00	0	25	0	1174405120	71	5231
2026-01-11 05:56:37.18	313.03	7.43	-53.4	-56.3	13.3	0.00e+00	0	25	0	1176502272	71	5476
2026-01-11 05:56:38.18	312.94	7.37	-53.4	-56.4	13.3	0.00e+00	0	25	0	1178599424	72	5233
2026-01-11 05:56:39.18	312.85	7.30	-53.5	-56.4	13.3	0.00e+00	0	25	0	1180696576	72	5253
2026-01-11 05:56:40.18	312.76	7.24	-53.6	-56.7	13.1	0.00e+00	0	26	0	1181745152	72	5434
2026-01-11 05:56:41.18	312.67	7.18	-53.5	-56.5	13.2	0.00e+00	0	25	0	1183842304	72	5303
2026-01-11 05:56:42.18	312.58	7.11	-53.8	-56.9	12.9	0.00e+00	0	25	0	1185939456	72	5576
2026-01-11 05:56:43.18	312.49	7.05	-53.7	-56.8	13.0	0.00e+00	0	25	0	1188036608	72	5493
2026-01-11 05:56:44.18	312.40	6.98	-53.8	-57.0	12.9	0.00e+00	0	25	0	1190133760	72	5623
2026-01-11 05:56:45.18	312.31	6.92	-53.9	-57.2	12.8	0.00e+00	0	25	0	1191182336	73	5418
2026-01-11 05:56:46.19	312.22	6.85	-53.8	-56.9	13.0	0.00e+00	0	25	0	1193279488	73	5276
2026-01-11 05:56:47.19	312.13	6.79	-53.8	-57.1	12.9	0.00e+00	0	25	0	1195376640	73	5356
2026-01-11 05:56:48.18	312.05	6.73	-53.9	-57.2	12.8	0.00e+00	0	25	0	1197473792	73	5450
2026-01-11 05:56:49.18	311.96	6.66	-53.9	-57.1	12.9	0.00e+00	0	25	0	1199570944	73	5363
2026-01-11 05:56:50.18	311.87	6.60	-53.8	-57.0	12.9	0.00e+00	0	25	0	1200619520	73	5327
2026-01-11 05:56:51.18	311.79	6.54	-53.7	-56.8	13.0	0.00e+00	0	25	0	1202716672	73	5212
2026-01-11 05:56:52.18	311.70	6.47	-53.9	-57.1	12.9	0.00e+00	0	25	0	1204813824	73	5361
2026-01-11 05:56:53.18	311.61	6.41	-53.7	-56.8	13.0	0.00e+00	0	25	0	1206910976	73	5217
2026-01-11 05:56:54.19	311.53	6.35	-53.7	-56.9	13.0	0.00e+00	0	25	0	1209008128	73	5243
2026-01-11 05:56:55.18	311.44	6.28	-53.8	-57.0	13.0	0.00e+00	0	25	0	1210056704	73	5293
2026-01-11 05:56:56.19	311.36	6.22	-53.6	-56.6	13.2	0.00e+00	0	25	0	1212153856	73	5098
2026-01-11 05:56:57.19	311.27	6.16	-53.8	-56.9	13.0	0.00e+00	0	25	0	1214251008	73	5255
2026-01-11 05:56:58.19	311.19	6.09	-53.8	-57.0	12.9	0.00e+00	0	25	0	1216348160	73	5304
2026-01-11 05:56:59.19	311.11	6.03	-53.8	-57.0	12.9	0.00e+00	0	26	0	1217396736	73	5330
