passes_logs/2026/01/11/R3.2S_Murmansk/R3.2S_Murmansk__20260111_022634_SUOMI_NPP_rec.log

#Pass ID: 20260111_022634_SUOMI NPP
#Satellite: SUOMI NPP
#Configuration: NPP
#almurnet v.1.7.20251203
#Start time: 2026-01-11 02:26:33

#Version: 2.2.20231116
#Station: R3.2S_Murmansk
#Location: 33.079688 lon 68.888172 lat
#TLE: 1 37849U 11061A   26009.81756760  .00000113  00000+0  74747-4 0  9994
#TLE: 2 37849  98.7806 311.9110 0002525  72.5604 287.5848 14.19524046735974

#Time	Az	El	Level	Level2	SNR	BER	BlckErr	Temp	State	Recorded	gain1	gain2
2026-01-11 02:26:33.79	33.09	1.97	-53.2	-69.2	3.8	1.49e+00	0	23	0	0	71	24184
2026-01-11 02:26:34.79	33.06	2.03	-53.2	-69.2	3.8	1.49e+00	0	23	104	0	71	24259
2026-01-11 02:26:35.79	33.02	2.09	-53.2	-69.2	3.8	1.49e+00	0	23	104	0	71	24224
2026-01-11 02:26:36.79	32.99	2.15	-53.2	-69.2	3.8	1.49e+00	0	23	104	0	71	24196
2026-01-11 02:26:37.79	32.95	2.21	-53.2	-69.2	3.8	1.49e+00	0	23	104	0	71	24209
2026-01-11 02:26:38.80	32.91	2.28	-53.2	-69.2	3.9	1.49e+00	0	23	104	0	71	24207
2026-01-11 02:26:39.80	32.88	2.34	-53.2	-69.2	3.8	1.49e+00	0	23	104	0	71	24263
2026-01-11 02:26:40.80	32.84	2.40	-53.3	-69.2	3.8	1.49e+00	0	24	104	0	71	24295
2026-01-11 02:26:41.80	32.81	2.46	-53.3	-69.2	3.8	1.49e+00	0	23	104	0	71	24244
2026-01-11 02:26:42.80	32.77	2.53	-53.3	-69.2	3.8	1.49e+00	0	24	104	0	71	24234
2026-01-11 02:26:43.80	32.73	2.59	-53.3	-69.2	3.8	1.49e+00	0	23	104	0	71	24286
2026-01-11 02:26:44.81	32.69	2.65	-53.3	-69.2	3.8	1.49e+00	0	23	104	0	71	24282
2026-01-11 02:26:45.81	32.66	2.72	-53.3	-69.2	3.8	1.49e+00	0	23	104	0	71	24277
2026-01-11 02:26:46.82	32.62	2.78	-53.3	-69.2	3.8	1.49e+00	0	24	104	0	71	24299
2026-01-11 02:26:47.82	32.58	2.84	-53.3	-69.2	3.8	1.49e+00	0	24	104	0	71	24257
2026-01-11 02:26:48.82	32.54	2.91	-53.3	-69.2	3.8	1.49e+00	0	23	104	0	71	24351
2026-01-11 02:26:49.82	32.50	2.97	-53.3	-69.2	3.8	1.49e+00	0	24	104	0	71	24301
2026-01-11 02:26:50.83	32.47	3.03	-53.3	-69.2	3.8	1.49e+00	0	24	104	0	71	24361
2026-01-11 02:26:51.83	32.43	3.10	-53.3	-69.2	3.8	1.49e+00	0	24	104	0	71	24337
2026-01-11 02:26:52.83	32.39	3.16	-53.3	-69.3	3.8	1.49e+00	0	24	104	0	71	24439
2026-01-11 02:26:53.83	32.35	3.23	-53.3	-69.2	3.8	1.49e+00	0	24	104	0	71	24407
2026-01-11 02:26:54.82	32.31	3.29	-53.3	-69.2	3.8	1.49e+00	0	24	104	0	71	24391
2026-01-11 02:26:55.83	32.27	3.36	-53.3	-69.2	3.8	1.49e+00	0	24	104	0	71	24405
2026-01-11 02:26:56.82	32.23	3.42	-53.3	-69.2	3.8	1.49e+00	0	24	104	0	71	24350
2026-01-11 02:26:57.83	32.19	3.48	-53.3	-69.2	3.8	1.49e+00	0	24	104	0	71	24378
2026-01-11 02:26:58.83	32.15	3.55	-53.3	-69.2	3.8	1.49e+00	0	24	104	0	71	24358
2026-01-11 02:26:59.83	32.11	3.61	-53.3	-69.3	3.8	1.49e+00	0	24	104	0	71	24433
2026-01-11 02:27:00.83	32.07	3.68	-53.3	-69.3	3.8	1.49e+00	0	24	104	0	71	24485
2026-01-11 02:27:01.84	32.03	3.75	-53.3	-69.3	3.8	1.49e+00	0	24	104	0	71	24433
2026-01-11 02:27:02.85	31.99	3.81	-53.3	-69.2	3.8	1.49e+00	0	24	104	0	71	24384
2026-01-11 02:27:03.85	31.95	3.88	-53.3	-69.2	3.8	1.49e+00	0	24	104	0	71	24385
2026-01-11 02:27:04.85	31.91	3.94	-53.3	-69.2	3.8	1.49e+00	0	24	104	0	71	24404
2026-01-11 02:27:05.85	31.87	4.01	-53.3	-69.3	3.8	1.49e+00	0	24	104	0	71	24423
2026-01-11 02:27:06.85	31.83	4.07	-53.3	-69.2	3.8	1.49e+00	0	24	104	0	71	24374
2026-01-11 02:27:07.85	31.79	4.14	-53.3	-69.3	3.8	1.49e+00	0	24	104	0	71	24443
2026-01-11 02:27:08.85	31.74	4.21	-53.3	-69.3	3.8	1.49e+00	0	24	104	0	71	24445
2026-01-11 02:27:09.84	31.70	4.27	-53.3	-69.3	3.8	1.49e+00	0	24	104	0	71	24486
2026-01-11 02:27:10.85	31.66	4.34	-53.3	-69.3	3.8	1.49e+00	0	24	104	0	71	24441
2026-01-11 02:27:11.85	31.62	4.41	-53.3	-69.3	3.8	1.49e+00	0	24	104	0	71	24514
2026-01-11 02:27:12.86	31.57	4.47	-53.3	-69.3	3.8	1.49e+00	0	24	104	0	71	24526
2026-01-11 02:27:13.86	31.53	4.54	-53.3	-69.3	3.8	1.49e+00	0	24	104	0	71	24551
2026-01-11 02:27:14.86	31.49	4.61	-53.3	-69.3	3.8	1.49e+00	0	24	104	0	71	24462
2026-01-11 02:27:15.86	31.44	4.67	-53.3	-69.3	3.8	1.49e+00	0	24	104	0	71	24551
2026-01-11 02:27:16.85	31.40	4.74	-53.3	-69.3	3.8	1.49e+00	0	24	104	0	71	24591
2026-01-11 02:27:17.85	31.36	4.81	-53.3	-69.3	3.8	1.49e+00	0	24	104	0	71	24494
2026-01-11 02:27:18.86	31.31	4.88	-53.3	-69.3	3.8	1.49e+00	0	24	104	0	71	24523
2026-01-11 02:27:19.86	31.27	4.94	-53.4	-69.3	3.8	1.49e+00	0	24	104	0	71	24444
2026-01-11 02:27:20.85	31.23	5.01	-53.3	-69.3	3.8	1.49e+00	0	24	104	0	71	24518
2026-01-11 02:27:21.85	31.18	5.08	-53.3	-69.3	3.8	1.49e+00	0	25	104	0	71	24546
2026-01-11 02:27:22.86	31.14	5.15	-53.3	-69.3	3.8	1.49e+00	0	24	104	0	71	24590
2026-01-11 02:27:23.86	31.09	5.22	-53.3	-69.3	3.8	1.49e+00	0	24	104	0	71	24528
2026-01-11 02:27:24.85	31.05	5.29	-53.4	-69.3	3.8	1.49e+00	0	25	104	0	71	24555
2026-01-11 02:27:25.85	31.00	5.35	-53.3	-69.3	3.8	1.49e+00	0	25	104	0	71	24533
2026-01-11 02:27:26.84	30.95	5.42	-53.3	-69.3	3.8	1.49e+00	0	24	104	0	71	24540
2026-01-11 02:27:27.84	30.91	5.49	-53.4	-69.3	3.8	1.49e+00	0	25	104	0	71	24530
2026-01-11 02:27:28.85	30.86	5.56	-53.4	-69.3	3.8	1.49e+00	0	25	104	0	71	24597
2026-01-11 02:27:29.85	30.82	5.63	-53.3	-69.3	3.8	1.49e+00	0	25	104	0	71	24531
2026-01-11 02:27:30.86	30.77	5.70	-53.4	-69.3	3.8	1.49e+00	0	25	104	0	71	24603
2026-01-11 02:27:31.86	30.72	5.77	-53.4	-69.3	3.8	1.49e+00	0	25	104	0	71	24580
2026-01-11 02:27:32.86	30.67	5.84	-53.4	-69.3	3.8	1.49e+00	0	25	104	0	71	24576
2026-01-11 02:27:33.86	30.63	5.91	-53.4	-69.3	3.8	1.49e+00	0	25	104	0	71	24579
2026-01-11 02:27:34.86	30.58	5.98	-53.4	-69.3	3.8	1.49e+00	0	25	104	0	71	24545
2026-01-11 02:27:35.87	30.53	6.05	-53.4	-69.3	3.8	1.49e+00	0	25	104	0	71	24597
2026-01-11 02:27:36.87	30.48	6.12	-53.4	-69.3	3.8	1.49e+00	0	25	104	0	71	24580
2026-01-11 02:27:37.86	30.43	6.19	-53.4	-69.3	3.8	1.49e+00	0	25	104	0	71	24548
2026-01-11 02:27:38.87	30.38	6.27	-53.4	-69.3	3.8	1.49e+00	0	25	104	0	71	24576
2026-01-11 02:27:39.87	30.34	6.34	-53.3	-69.3	3.8	1.49e+00	0	25	104	0	71	24567
2026-01-11 02:27:40.88	30.29	6.41	-53.4	-69.3	3.8	1.49e+00	0	25	104	0	71	24568
2026-01-11 02:27:41.88	30.24	6.48	-53.4	-69.3	3.8	1.49e+00	0	25	104	0	71	24573
2026-01-11 02:27:42.88	30.19	6.55	-53.4	-69.3	3.8	1.49e+00	0	25	104	0	71	24567
2026-01-11 02:27:43.88	30.14	6.62	-53.4	-69.3	3.8	1.49e+00	0	25	104	0	71	24623
2026-01-11 02:27:44.88	30.09	6.70	-53.4	-69.3	3.8	1.49e+00	0	25	104	0	71	24627
2026-01-11 02:27:45.88	30.04	6.77	-53.4	-69.3	3.8	1.49e+00	0	25	104	0	71	24641
2026-01-11 02:27:46.88	29.99	6.84	-53.4	-69.3	3.8	1.49e+00	0	25	104	0	71	24618
2026-01-11 02:27:47.89	29.93	6.91	-53.4	-69.3	3.8	1.49e+00	0	25	104	0	71	24596
2026-01-11 02:27:48.89	29.88	6.99	-53.4	-69.3	3.8	1.49e+00	0	25	104	0	71	24575
2026-01-11 02:27:49.89	29.83	7.06	-53.4	-69.4	3.8	1.49e+00	0	25	104	0	71	24696
2026-01-11 02:27:50.90	29.78	7.13	-53.4	-69.3	3.8	1.49e+00	0	25	104	0	71	24527
2026-01-11 02:27:51.90	29.73	7.21	-53.4	-69.3	3.8	1.49e+00	0	25	104	0	71	24550
2026-01-11 02:27:52.90	29.67	7.28	-53.4	-69.3	3.8	1.49e+00	0	25	104	0	71	24604
2026-01-11 02:27:53.90	29.62	7.35	-53.4	-69.3	3.8	1.49e+00	0	25	104	0	71	24611
2026-01-11 02:27:54.90	29.57	7.43	-53.4	-69.3	3.8	1.49e+00	0	25	104	0	71	24613
2026-01-11 02:27:55.91	29.51	7.50	-53.4	-69.3	3.8	1.49e+00	0	25	104	0	71	24667
2026-01-11 02:27:56.91	29.46	7.58	-53.4	-69.3	3.8	1.49e+00	0	25	104	0	71	24677
2026-01-11 02:27:57.91	29.41	7.65	-53.4	-69.3	3.8	1.49e+00	0	25	104	0	71	24679
2026-01-11 02:27:58.91	29.35	7.73	-53.4	-69.4	3.8	1.49e+00	0	25	104	0	71	24696
2026-01-11 02:27:59.91	29.30	7.80	-53.4	-69.3	3.8	1.49e+00	0	25	104	0	71	24658
2026-01-11 02:28:00.91	29.24	7.87	-53.4	-69.3	3.8	1.49e+00	0	25	104	0	71	24668
2026-01-11 02:28:01.91	29.19	7.95	-53.4	-69.3	3.8	1.49e+00	0	25	104	0	71	24680
2026-01-11 02:28:02.91	29.13	8.03	-53.4	-69.4	3.9	1.49e+00	0	25	104	0	71	24700
2026-01-11 02:28:03.91	29.08	8.10	-53.4	-69.3	3.8	1.49e+00	0	25	104	0	71	24659
2026-01-11 02:28:04.91	29.02	8.18	-53.4	-69.3	3.8	1.49e+00	0	25	104	0	71	24639
2026-01-11 02:28:05.91	28.96	8.25	-53.4	-69.3	3.8	1.49e+00	0	25	104	0	71	24622
2026-01-11 02:28:06.91	28.91	8.33	-53.4	-69.4	3.8	1.49e+00	0	25	104	0	71	24742
2026-01-11 02:28:07.91	28.85	8.41	-53.4	-69.4	3.8	1.49e+00	0	25	104	0	71	24707
2026-01-11 02:28:08.92	28.79	8.48	-53.4	-69.3	3.8	1.49e+00	0	25	104	0	71	24634
2026-01-11 02:28:09.92	28.73	8.56	-53.4	-69.3	3.8	1.49e+00	0	25	104	0	71	24638
2026-01-11 02:28:10.92	28.68	8.64	-53.4	-69.3	3.8	1.49e+00	0	25	104	0	71	24648
2026-01-11 02:28:11.92	28.62	8.71	-53.4	-69.3	3.8	1.49e+00	0	25	104	0	71	24679
2026-01-11 02:28:12.92	28.56	8.79	-53.4	-69.3	3.8	1.49e+00	0	25	104	0	71	24676
2026-01-11 02:28:13.92	28.50	8.87	-53.4	-69.3	3.8	1.49e+00	0	25	104	0	71	24632
2026-01-11 02:28:14.92	28.44	8.95	-53.4	-69.3	3.8	1.49e+00	0	25	104	0	71	24671
2026-01-11 02:28:15.92	28.38	9.02	-53.4	-69.3	3.8	1.49e+00	0	25	104	0	71	24664
2026-01-11 02:28:16.92	28.32	9.10	-53.4	-69.4	3.8	1.49e+00	0	25	104	0	71	24715
2026-01-11 02:28:17.92	28.26	9.18	-53.4	-69.4	3.8	1.49e+00	0	25	104	0	71	24769
2026-01-11 02:28:18.92	28.20	9.26	-53.4	-69.4	3.8	1.49e+00	0	25	104	0	71	24694
2026-01-11 02:28:19.92	28.14	9.34	-53.4	-69.3	3.8	1.49e+00	0	25	104	0	71	24675
2026-01-11 02:28:20.92	28.08	9.42	-53.4	-69.4	3.8	1.49e+00	0	25	104	0	71	24722
2026-01-11 02:28:21.91	28.02	9.50	-53.4	-69.4	3.8	1.49e+00	0	26	104	0	71	24695
2026-01-11 02:28:22.92	27.95	9.58	-53.4	-69.3	3.8	1.49e+00	0	26	104	0	71	24635
2026-01-11 02:28:23.92	27.89	9.66	-53.4	-69.3	3.8	1.49e+00	0	25	104	0	71	24645
2026-01-11 02:28:24.91	27.83	9.74	-53.4	-69.3	3.8	1.49e+00	0	26	104	0	71	24690
2026-01-11 02:28:25.91	27.77	9.82	-53.4	-69.4	3.8	1.49e+00	0	26	104	0	71	24720
2026-01-11 02:28:26.91	27.70	9.90	-53.5	-69.4	3.8	1.49e+00	0	25	104	0	72	23379
2026-01-11 02:28:27.90	27.64	9.98	-53.5	-69.4	3.8	1.49e+00	0	25	104	0	72	23445
2026-01-11 02:28:28.90	27.57	10.06	-53.5	-69.4	3.8	1.49e+00	0	25	104	0	72	23361
2026-01-11 02:28:29.90	27.51	10.14	-53.5	-69.4	3.8	1.49e+00	0	26	104	0	72	23376
2026-01-11 02:28:30.90	27.44	10.22	-53.4	-69.4	3.8	1.49e+00	0	26	104	0	72	23392
2026-01-11 02:28:31.89	27.38	10.30	-53.5	-69.4	3.8	1.49e+00	0	25	104	0	72	23348
2026-01-11 02:28:32.89	27.31	10.38	-53.5	-69.4	3.8	1.49e+00	0	25	104	0	72	23369
2026-01-11 02:28:33.89	27.25	10.46	-53.5	-69.4	3.8	1.49e+00	0	26	104	0	72	23373
2026-01-11 02:28:34.90	27.18	10.55	-53.5	-69.4	3.8	1.49e+00	0	26	104	0	72	23389
2026-01-11 02:28:35.90	27.11	10.63	-53.5	-69.4	3.8	1.49e+00	0	26	104	0	72	23407
2026-01-11 02:28:36.90	27.05	10.71	-53.5	-69.4	3.8	1.49e+00	0	26	104	0	72	23396
2026-01-11 02:28:37.90	26.98	10.80	-53.5	-69.4	3.8	1.49e+00	0	26	104	0	72	23412
2026-01-11 02:28:38.90	26.91	10.88	-53.5	-69.4	3.8	1.49e+00	0	26	104	0	72	23387
2026-01-11 02:28:39.90	26.84	10.96	-53.5	-69.4	3.8	1.49e+00	0	26	104	0	72	23340
2026-01-11 02:28:40.91	26.77	11.05	-53.5	-69.4	3.8	1.49e+00	0	26	104	0	72	23408
2026-01-11 02:28:41.91	26.70	11.13	-53.5	-69.4	3.8	1.49e+00	0	25	104	0	72	23406
2026-01-11 02:28:42.92	26.63	11.22	-53.5	-69.4	3.8	1.49e+00	0	26	104	0	72	23386
2026-01-11 02:28:43.92	26.56	11.30	-53.5	-69.4	3.8	1.49e+00	0	25	104	0	72	23378
2026-01-11 02:28:44.92	26.49	11.39	-53.5	-69.4	3.8	1.49e+00	0	26	104	0	72	23490
2026-01-11 02:28:45.92	26.42	11.47	-53.5	-69.4	3.8	1.49e+00	0	26	104	0	72	23382
2026-01-11 02:28:46.91	26.35	11.55	-53.4	-69.4	3.8	1.49e+00	0	26	104	0	72	23417
2026-01-11 02:28:47.92	26.27	11.64	-53.5	-69.4	3.8	1.49e+00	0	25	104	0	72	23395
2026-01-11 02:28:48.92	26.20	11.73	-53.5	-69.4	3.8	1.49e+00	0	26	104	0	72	23384
2026-01-11 02:28:49.91	26.13	11.81	-53.5	-69.4	3.8	1.49e+00	0	26	104	0	72	23409
2026-01-11 02:28:50.92	26.06	11.90	-53.5	-69.4	3.8	1.49e+00	0	26	104	0	72	23420
2026-01-11 02:28:51.92	25.98	11.99	-53.5	-69.4	3.8	1.49e+00	0	26	104	0	72	23363
2026-01-11 02:28:52.92	25.91	12.07	-53.4	-69.4	3.8	1.49e+00	0	26	104	0	72	23364
2026-01-11 02:28:53.92	25.83	12.16	-53.5	-69.4	3.8	1.49e+00	0	26	104	0	72	23383
2026-01-11 02:28:54.92	25.76	12.25	-53.5	-69.4	3.8	1.49e+00	0	26	104	0	72	23413
2026-01-11 02:28:55.92	25.68	12.33	-53.5	-69.4	3.8	1.49e+00	0	26	104	0	72	23411
2026-01-11 02:28:56.91	25.61	12.42	-53.5	-69.4	3.8	1.49e+00	0	26	104	0	72	23381
2026-01-11 02:28:57.92	25.53	12.51	-53.5	-69.4	3.8	1.49e+00	0	26	104	0	72	23361
2026-01-11 02:28:58.93	25.45	12.60	-53.5	-69.4	3.8	1.49e+00	0	26	104	0	72	23455
2026-01-11 02:28:59.93	25.37	12.69	-53.5	-69.4	3.8	1.49e+00	0	26	104	0	72	23461
2026-01-11 02:29:00.93	25.29	12.78	-53.5	-69.4	3.8	1.49e+00	0	26	104	0	72	23415
2026-01-11 02:29:01.92	25.22	12.86	-53.5	-69.4	3.8	1.49e+00	0	26	104	0	72	23449
2026-01-11 02:29:02.92	25.14	12.95	-53.5	-69.4	3.8	1.49e+00	0	26	104	0	72	23372
2026-01-11 02:29:03.92	25.06	13.04	-53.5	-69.4	3.8	1.49e+00	0	26	104	0	72	23383
2026-01-11 02:29:04.92	24.98	13.13	-53.5	-69.4	3.8	1.49e+00	0	26	104	0	72	23409
2026-01-11 02:29:05.92	24.90	13.22	-53.5	-69.4	3.8	1.49e+00	0	26	104	0	72	23435
2026-01-11 02:29:06.92	24.82	13.31	-53.5	-69.4	3.8	1.49e+00	0	26	104	0	72	23448
2026-01-11 02:29:07.92	24.73	13.40	-53.5	-69.4	3.8	1.49e+00	0	26	104	0	72	23421
2026-01-11 02:29:08.92	24.65	13.50	-53.5	-69.4	3.8	1.49e+00	0	26	104	0	72	23350
2026-01-11 02:29:09.93	24.57	13.59	-53.5	-69.4	3.8	1.49e+00	0	26	104	0	72	23427
2026-01-11 02:29:10.93	24.48	13.68	-53.5	-69.4	3.8	1.49e+00	0	26	104	0	72	23460
2026-01-11 02:29:11.93	24.40	13.77	-53.5	-69.4	3.8	1.49e+00	0	26	104	0	72	23379
2026-01-11 02:29:12.93	24.32	13.86	-53.5	-69.4	3.8	1.49e+00	0	26	104	0	72	23413
2026-01-11 02:29:13.94	24.23	13.96	-53.5	-69.4	3.8	1.49e+00	0	26	104	0	72	23434
2026-01-11 02:29:14.94	24.14	14.05	-53.5	-69.4	3.8	1.49e+00	0	26	104	0	72	23403
2026-01-11 02:29:15.94	24.06	14.14	-53.5	-69.4	3.8	1.49e+00	0	26	104	0	72	23438
2026-01-11 02:29:16.94	23.97	14.24	-53.5	-69.4	3.8	1.49e+00	0	26	104	0	72	23413
2026-01-11 02:29:17.94	23.88	14.33	-53.5	-69.4	3.8	1.49e+00	0	26	104	0	72	23468
2026-01-11 02:29:18.95	23.80	14.42	-53.5	-69.4	3.8	1.49e+00	0	26	104	0	72	23398
2026-01-11 02:29:19.95	23.71	14.52	-53.5	-69.4	3.8	1.49e+00	0	26	104	0	72	23481
2026-01-11 02:29:20.96	23.62	14.61	-53.5	-69.4	3.8	1.49e+00	0	26	104	0	72	23434
2026-01-11 02:29:21.95	23.53	14.71	-53.5	-69.4	3.8	1.49e+00	0	26	104	0	72	23407
2026-01-11 02:29:22.95	23.44	14.80	-53.5	-69.4	3.8	1.49e+00	0	26	104	0	72	23497
2026-01-11 02:29:23.95	23.35	14.90	-53.5	-69.4	3.8	1.49e+00	0	26	104	0	72	23419
2026-01-11 02:29:24.95	23.26	14.99	-53.5	-69.4	3.8	1.49e+00	0	26	104	0	72	23401
2026-01-11 02:29:25.94	23.17	15.09	-53.5	-69.4	3.8	1.49e+00	0	26	104	0	72	23414
2026-01-11 02:29:26.94	23.07	15.19	-53.5	-69.4	3.8	1.49e+00	0	26	104	0	72	23512
2026-01-11 02:29:27.95	22.98	15.28	-53.5	-69.4	3.8	1.49e+00	0	26	104	0	72	23494
2026-01-11 02:29:28.95	22.89	15.38	-53.5	-69.4	3.8	1.49e+00	0	26	104	0	72	23439
2026-01-11 02:29:29.95	22.79	15.48	-53.5	-69.4	3.8	1.49e+00	0	26	104	0	72	23434
2026-01-11 02:29:30.95	22.70	15.57	-53.5	-69.4	3.8	1.49e+00	0	26	104	0	72	23430
2026-01-11 02:29:31.96	22.60	15.67	-53.5	-69.4	3.8	1.49e+00	0	26	104	0	72	23415
2026-01-11 02:29:32.95	22.50	15.77	-53.5	-69.4	3.8	1.49e+00	0	26	104	0	72	23454
2026-01-11 02:29:33.95	22.41	15.87	-53.5	-69.4	3.8	1.49e+00	0	26	104	0	72	23498
2026-01-11 02:29:34.95	22.31	15.97	-53.5	-69.4	3.8	1.49e+00	0	26	104	0	72	23396
2026-01-11 02:29:35.95	22.21	16.07	-53.5	-69.4	3.8	1.49e+00	0	26	104	0	72	23361
2026-01-11 02:29:36.95	22.11	16.17	-53.5	-69.4	3.8	1.49e+00	0	26	104	0	72	23385
2026-01-11 02:29:37.95	22.01	16.27	-53.5	-69.4	3.8	1.49e+00	0	26	104	0	72	23420
2026-01-11 02:29:38.95	21.91	16.37	-53.5	-69.4	3.8	1.49e+00	0	26	104	0	72	23386
2026-01-11 02:29:39.95	21.81	16.47	-53.5	-69.4	3.8	1.49e+00	0	26	104	0	72	23391
2026-01-11 02:29:40.95	21.71	16.57	-53.5	-69.4	3.8	1.49e+00	0	26	104	0	72	23455
2026-01-11 02:29:41.95	21.61	16.67	-53.5	-69.4	3.8	1.49e+00	0	26	104	0	72	23399
2026-01-11 02:29:42.95	21.50	16.77	-53.5	-69.4	3.8	1.49e+00	0	26	104	0	72	23440
2026-01-11 02:29:43.95	21.40	16.87	-53.5	-69.4	3.8	1.49e+00	0	26	104	0	72	23418
2026-01-11 02:29:44.96	21.29	16.97	-53.5	-69.4	3.8	1.49e+00	0	26	104	0	72	23388
2026-01-11 02:29:45.96	21.19	17.07	-53.5	-69.4	3.8	1.49e+00	0	26	104	0	72	23381
2026-01-11 02:29:46.97	21.08	17.18	-53.5	-69.4	3.8	1.49e+00	0	26	104	0	72	23429
2026-01-11 02:29:47.97	20.97	17.28	-53.5	-69.4	3.8	1.49e+00	0	26	104	0	72	23382
2026-01-11 02:29:48.97	20.86	17.38	-53.5	-69.4	3.8	1.49e+00	0	26	104	0	72	23395
2026-01-11 02:29:49.97	20.76	17.49	-53.5	-69.4	3.8	1.49e+00	0	26	104	0	72	23403
2026-01-11 02:29:50.97	20.65	17.59	-53.5	-69.4	3.8	1.49e+00	0	26	104	0	72	23434
2026-01-11 02:29:51.98	20.54	17.70	-53.5	-69.4	3.8	1.49e+00	0	26	104	0	72	23438
2026-01-11 02:29:52.99	20.42	17.80	-53.5	-69.4	3.8	1.49e+00	0	26	104	0	72	23415
2026-01-11 02:29:53.99	20.31	17.91	-53.5	-69.4	3.8	1.49e+00	0	26	104	0	72	23463
2026-01-11 02:29:54.99	20.20	18.01	-53.5	-69.4	3.8	1.49e+00	0	26	104	0	72	23474
2026-01-11 02:29:55.99	20.09	18.12	-53.5	-69.4	3.8	1.49e+00	0	26	104	0	72	23462
2026-01-11 02:29:56.99	19.97	18.22	-53.5	-69.4	3.8	1.49e+00	0	26	104	0	72	23490
2026-01-11 02:29:57.99	19.86	18.33	-53.5	-69.4	3.8	1.49e+00	0	26	104	0	72	23455
2026-01-11 02:29:58.99	19.74	18.44	-53.5	-69.4	3.8	1.49e+00	0	26	104	0	72	23439
2026-01-11 02:29:59.99	19.63	18.54	-53.5	-69.4	3.8	1.49e+00	0	26	104	0	72	23424
2026-01-11 02:30:00.99	19.51	18.65	-53.5	-69.4	3.8	1.49e+00	0	26	104	0	72	23417
2026-01-11 02:30:02.00	19.39	18.76	-53.5	-69.4	3.8	1.49e+00	0	26	104	0	72	23448
2026-01-11 02:30:03.00	19.27	18.87	-53.5	-69.4	3.8	1.49e+00	0	26	104	0	72	23402
2026-01-11 02:30:04.00	19.15	18.98	-53.5	-69.4	3.8	1.49e+00	0	26	104	0	72	23459
2026-01-11 02:30:05.01	19.03	19.09	-53.5	-69.4	3.8	1.49e+00	0	26	104	0	72	23466
2026-01-11 02:30:06.02	18.90	19.20	-53.5	-69.4	3.8	1.49e+00	0	26	104	0	72	23454
2026-01-11 02:30:07.02	18.78	19.30	-53.5	-69.4	3.8	1.49e+00	0	26	104	0	72	23450
2026-01-11 02:30:08.02	18.66	19.41	-53.5	-69.4	3.8	1.49e+00	0	26	104	0	72	23393
2026-01-11 02:30:09.02	18.53	19.52	-53.5	-69.4	3.8	1.49e+00	0	26	104	0	72	23444
2026-01-11 02:30:10.03	18.41	19.64	-53.5	-69.4	3.8	1.49e+00	0	26	104	0	72	23409
2026-01-11 02:30:11.03	18.28	19.75	-53.5	-69.4	3.8	1.49e+00	0	26	104	0	72	23404
2026-01-11 02:30:12.03	18.15	19.86	-53.5	-69.4	3.8	1.49e+00	0	26	104	0	72	23475
2026-01-11 02:30:13.03	18.02	19.97	-53.5	-69.4	3.8	1.49e+00	0	26	104	0	72	23379
2026-01-11 02:30:14.04	17.89	20.08	-53.5	-69.3	3.8	1.49e+00	0	26	104	0	72	23174
2026-01-11 02:30:15.04	17.76	20.19	-53.5	-69.3	3.8	1.49e+00	0	26	104	0	72	23287
2026-01-11 02:30:16.04	17.63	20.31	-53.5	-69.4	3.8	1.49e+00	0	26	104	0	72	23398
2026-01-11 02:30:17.04	17.50	20.42	-53.5	-69.4	3.8	1.49e+00	0	26	104	0	72	23494
2026-01-11 02:30:18.04	17.37	20.53	-53.5	-69.4	3.8	1.49e+00	0	26	104	0	72	23518
2026-01-11 02:30:19.05	17.23	20.65	-53.5	-69.4	3.8	1.49e+00	0	26	104	0	72	23448
2026-01-11 02:30:20.05	17.10	20.76	-53.5	-69.4	3.8	1.49e+00	0	26	104	0	72	23454
2026-01-11 02:30:21.06	16.96	20.87	-53.5	-69.4	3.8	1.49e+00	0	26	104	0	72	23440
2026-01-11 02:30:22.06	16.82	20.99	-53.5	-69.4	3.8	1.49e+00	0	26	104	0	72	23482
2026-01-11 02:30:23.06	16.68	21.10	-53.5	-69.4	3.8	1.49e+00	0	26	104	0	72	23491
2026-01-11 02:30:24.06	16.54	21.22	-53.5	-69.4	3.8	1.49e+00	0	26	104	0	72	23448
2026-01-11 02:30:25.06	16.40	21.33	-53.5	-69.4	3.8	1.49e+00	0	26	104	0	72	23424
2026-01-11 02:30:26.06	16.26	21.45	-53.5	-69.4	3.8	1.49e+00	0	26	104	0	72	23456
2026-01-11 02:30:27.06	16.12	21.57	-53.5	-69.4	3.8	1.49e+00	0	26	104	0	72	23478
2026-01-11 02:30:28.06	15.97	21.68	-53.5	-69.4	3.8	1.49e+00	0	26	104	0	72	23407
2026-01-11 02:30:29.06	15.83	21.80	-53.5	-69.4	3.8	1.49e+00	0	26	104	0	72	23412
2026-01-11 02:30:30.06	15.68	21.92	-53.5	-69.4	3.8	1.49e+00	0	26	104	0	72	23501
2026-01-11 02:30:31.07	15.53	22.03	-53.5	-69.4	3.8	1.49e+00	0	26	104	0	72	23456
2026-01-11 02:30:32.06	15.39	22.15	-53.5	-69.4	3.8	1.49e+00	0	26	104	0	72	23491
2026-01-11 02:30:33.06	15.24	22.27	-53.5	-69.4	3.8	1.49e+00	0	26	104	0	72	23420
2026-01-11 02:30:34.06	15.09	22.39	-53.5	-69.4	3.8	1.49e+00	0	26	104	0	72	23465
2026-01-11 02:30:35.06	14.94	22.51	-53.5	-69.4	3.8	1.49e+00	0	26	104	0	72	23404
2026-01-11 02:30:36.06	14.78	22.63	-53.5	-69.4	3.8	1.49e+00	0	26	104	0	72	23485
2026-01-11 02:30:37.07	14.63	22.75	-53.5	-69.4	3.8	1.49e+00	0	26	104	0	72	23485
2026-01-11 02:30:38.07	14.47	22.87	-53.5	-69.4	3.8	1.49e+00	0	26	104	0	72	23475
2026-01-11 02:30:39.07	14.32	22.99	-53.5	-69.4	3.8	1.49e+00	0	26	104	0	72	23450
2026-01-11 02:30:40.06	14.16	23.11	-53.5	-69.4	3.8	1.49e+00	0	26	104	0	72	23464
2026-01-11 02:30:41.07	14.00	23.23	-53.5	-69.4	3.8	1.49e+00	0	26	104	0	72	23460
2026-01-11 02:30:42.06	13.84	23.35	-53.5	-69.4	3.8	1.49e+00	0	26	104	0	72	23442
2026-01-11 02:30:43.06	13.68	23.47	-53.5	-69.4	3.8	1.49e+00	0	26	104	0	72	23456
2026-01-11 02:30:44.06	13.51	23.59	-53.5	-69.4	3.8	1.49e+00	0	26	104	0	72	23424
2026-01-11 02:30:45.07	13.35	23.71	-53.5	-69.4	3.8	1.49e+00	0	26	104	0	72	23418
2026-01-11 02:30:46.07	13.18	23.84	-53.5	-69.4	3.8	1.49e+00	0	26	104	0	72	23394
2026-01-11 02:30:47.07	13.02	23.96	-53.5	-69.4	3.8	1.49e+00	0	26	104	0	72	23436
2026-01-11 02:30:48.06	12.85	24.08	-53.5	-69.4	3.8	1.49e+00	0	26	104	0	72	23399
2026-01-11 02:30:49.06	12.68	24.20	-53.5	-69.4	3.8	1.49e+00	0	26	104	0	72	23434
2026-01-11 02:30:50.06	12.51	24.33	-53.5	-69.4	3.8	1.49e+00	0	26	104	0	72	23507
2026-01-11 02:30:51.06	12.34	24.45	-53.5	-69.4	3.8	1.49e+00	0	26	104	0	72	23456
2026-01-11 02:30:52.06	12.16	24.58	-53.5	-69.4	3.8	1.49e+00	0	26	104	0	72	23461
2026-01-11 02:30:53.07	11.99	24.70	-53.5	-69.4	3.8	1.49e+00	0	26	104	0	72	23425
2026-01-11 02:30:54.08	11.81	24.83	-53.5	-69.4	3.8	1.49e+00	0	26	104	0	72	23465
2026-01-11 02:30:55.08	11.63	24.95	-53.5	-69.4	3.8	1.49e+00	0	26	104	0	72	23469
2026-01-11 02:30:56.08	11.45	25.08	-53.5	-69.4	3.8	1.49e+00	0	26	104	0	72	23438
2026-01-11 02:30:57.08	11.27	25.20	-53.5	-69.4	3.8	1.49e+00	0	26	104	0	72	23385
2026-01-11 02:30:58.08	11.09	25.33	-53.5	-69.4	3.8	1.49e+00	0	26	104	0	72	23423
2026-01-11 02:30:59.09	10.90	25.46	-53.5	-69.4	3.8	1.49e+00	0	26	104	0	72	23454
2026-01-11 02:31:00.08	10.72	25.58	-53.5	-69.4	3.8	1.49e+00	0	26	104	0	72	23487
2026-01-11 02:31:01.08	10.53	25.71	-53.5	-69.4	3.8	1.49e+00	0	26	104	0	72	23499
2026-01-11 02:31:02.08	10.34	25.84	-53.5	-69.4	3.8	1.49e+00	0	26	104	0	72	23464
2026-01-11 02:31:03.09	10.15	25.96	-53.5	-69.4	3.8	1.49e+00	0	26	104	0	72	23546
2026-01-11 02:31:04.09	9.96	26.09	-53.5	-69.4	3.8	1.49e+00	0	26	104	0	72	23459
2026-01-11 02:31:05.09	9.77	26.22	-53.5	-69.4	3.8	1.49e+00	0	26	104	0	72	23521
2026-01-11 02:31:06.09	9.57	26.35	-53.5	-69.4	3.8	1.49e+00	0	26	104	0	72	23461
2026-01-11 02:31:07.09	9.38	26.48	-53.5	-69.4	3.8	1.49e+00	0	26	104	0	72	23450
2026-01-11 02:31:08.09	9.18	26.60	-53.5	-69.4	3.8	1.49e+00	0	26	104	0	72	23487
2026-01-11 02:31:09.09	8.98	26.73	-53.5	-69.4	3.8	1.49e+00	0	26	104	0	72	23458
2026-01-11 02:31:10.08	8.78	26.86	-53.5	-69.4	3.8	1.49e+00	0	26	104	0	72	23480
2026-01-11 02:31:11.08	8.58	26.99	-53.5	-69.4	3.8	1.49e+00	0	26	104	0	72	23496
2026-01-11 02:31:12.08	8.37	27.12	-53.5	-69.4	3.8	1.49e+00	0	26	104	0	72	23507
2026-01-11 02:31:13.09	8.16	27.25	-53.5	-69.4	3.8	1.49e+00	0	26	104	0	72	23469
2026-01-11 02:31:14.09	7.96	27.38	-53.5	-69.4	3.8	1.49e+00	0	26	104	0	72	23464
2026-01-11 02:31:15.10	7.74	27.51	-53.5	-69.4	3.8	1.49e+00	0	26	104	0	72	23501
2026-01-11 02:31:16.10	7.53	27.64	-53.5	-69.4	3.8	1.49e+00	0	26	104	0	72	23500
2026-01-11 02:31:17.10	7.32	27.77	-53.5	-69.4	3.8	1.49e+00	0	26	104	0	72	23503
2026-01-11 02:31:18.11	7.10	27.90	-53.5	-69.4	3.8	1.49e+00	0	26	104	0	72	23525
2026-01-11 02:31:19.10	6.89	28.03	-53.5	-69.4	3.8	1.49e+00	0	26	104	0	72	23521
2026-01-11 02:31:20.11	6.67	28.16	-53.5	-69.4	3.8	1.49e+00	0	26	104	0	72	23503
2026-01-11 02:31:21.11	6.45	28.29	-53.5	-69.4	3.8	1.49e+00	0	26	104	0	72	23496
2026-01-11 02:31:22.11	6.23	28.43	-53.5	-69.4	3.8	1.49e+00	0	26	104	0	72	23512
2026-01-11 02:31:23.12	6.00	28.56	-53.5	-69.4	3.8	1.49e+00	0	26	104	0	72	23501
2026-01-11 02:31:24.12	5.77	28.69	-53.5	-69.4	3.8	1.49e+00	0	26	104	0	72	23531
2026-01-11 02:31:25.11	5.55	28.82	-53.5	-69.4	3.8	1.49e+00	0	26	104	0	72	23483
2026-01-11 02:31:26.11	5.32	28.95	-53.5	-69.4	3.8	1.49e+00	0	26	104	0	72	23462
2026-01-11 02:31:27.12	5.08	29.08	-53.5	-69.4	3.8	1.49e+00	0	26	104	0	72	23485
2026-01-11 02:31:28.12	4.85	29.22	-53.5	-69.4	3.8	1.49e+00	0	26	104	0	72	23526
2026-01-11 02:31:29.13	4.61	29.35	-53.5	-69.4	3.8	1.49e+00	0	26	104	0	72	23439
2026-01-11 02:31:30.13	4.38	29.48	-53.5	-69.4	3.8	1.49e+00	0	26	104	0	72	23464
2026-01-11 02:31:31.13	4.14	29.61	-53.5	-69.4	3.8	1.49e+00	0	26	104	0	72	23469
2026-01-11 02:31:32.13	3.90	29.74	-53.5	-69.4	3.8	1.49e+00	0	26	104	0	72	23500
2026-01-11 02:31:33.13	3.65	29.88	-53.5	-69.4	3.8	1.49e+00	0	26	104	0	72	23398
2026-01-11 02:31:34.12	3.41	30.01	-53.5	-69.4	3.8	1.49e+00	0	26	104	0	72	23415
2026-01-11 02:31:35.12	3.16	30.14	-53.5	-69.4	3.8	1.49e+00	0	26	104	0	72	23483
2026-01-11 02:31:36.13	2.91	30.27	-53.5	-69.4	3.8	1.49e+00	0	26	104	0	72	23502
2026-01-11 02:31:37.12	2.66	30.40	-53.5	-69.4	3.8	1.49e+00	0	26	104	0	72	23481
2026-01-11 02:31:38.12	2.41	30.53	-53.5	-69.4	3.8	1.49e+00	0	26	104	0	72	23555
2026-01-11 02:31:39.12	2.15	30.67	-53.5	-69.4	3.8	1.49e+00	0	26	104	0	72	23523
2026-01-11 02:31:40.11	1.90	30.80	-53.5	-69.4	3.8	1.49e+00	0	26	104	0	72	23504
2026-01-11 02:31:41.11	1.64	30.93	-53.5	-69.4	3.8	1.49e+00	0	26	104	0	72	23484
2026-01-11 02:31:42.11	1.37	31.06	-53.5	-69.4	3.8	1.49e+00	0	26	104	0	72	23502
2026-01-11 02:31:43.10	1.11	31.19	-53.5	-69.4	3.8	1.49e+00	0	26	104	0	72	23525
2026-01-11 02:31:44.10	0.85	31.32	-53.5	-69.4	3.8	1.49e+00	0	26	104	0	72	23492
2026-01-11 02:31:45.10	0.58	31.45	-53.5	-69.4	3.8	1.49e+00	0	26	104	0	72	23480
2026-01-11 02:31:46.10	0.31	31.58	-53.5	-69.4	3.8	1.49e+00	0	26	104	0	72	23486
2026-01-11 02:31:47.10	0.03	31.72	-53.5	-69.4	3.8	1.49e+00	0	26	104	0	72	23528
2026-01-11 02:31:48.11	359.75	31.85	-53.5	-69.4	3.8	1.49e+00	0	26	104	0	72	23452
2026-01-11 02:31:49.10	359.48	31.98	-53.5	-69.4	3.8	1.49e+00	0	26	104	0	72	23551
2026-01-11 02:31:50.10	359.20	32.11	-53.5	-69.4	3.8	1.49e+00	0	26	104	0	72	23519
2026-01-11 02:31:51.10	358.92	32.24	-53.5	-69.4	3.8	1.49e+00	0	26	104	0	72	23467
2026-01-11 02:31:52.11	358.63	32.37	-53.5	-69.4	3.8	1.49e+00	0	26	104	0	72	23515
2026-01-11 02:31:53.12	358.34	32.50	-53.5	-69.4	3.8	1.49e+00	0	26	104	0	72	23502
2026-01-11 02:31:54.12	358.05	32.63	-53.5	-69.4	3.8	1.49e+00	0	26	104	0	72	23547
2026-01-11 02:31:55.12	357.76	32.76	-53.5	-69.4	3.8	1.49e+00	0	26	104	0	72	23558
2026-01-11 02:31:56.12	357.47	32.89	-53.5	-69.4	3.8	1.49e+00	0	26	104	0	72	23463
2026-01-11 02:31:57.13	357.17	33.02	-53.5	-69.4	3.8	1.49e+00	0	26	104	0	72	23512
2026-01-11 02:31:58.13	356.87	33.15	-53.5	-69.4	3.8	1.49e+00	0	26	104	0	72	23512
2026-01-11 02:31:59.14	356.56	33.28	-53.5	-69.4	3.8	1.49e+00	0	26	104	0	72	23504
2026-01-11 02:32:00.14	356.26	33.40	-53.5	-69.4	3.8	1.49e+00	0	26	104	0	72	23557
2026-01-11 02:32:01.14	355.95	33.53	-53.5	-69.4	3.8	1.49e+00	0	26	104	0	72	23566
2026-01-11 02:32:02.15	355.64	33.66	-53.5	-69.4	3.8	1.49e+00	0	26	104	0	72	23458
2026-01-11 02:32:03.15	355.33	33.79	-53.5	-69.4	3.8	1.49e+00	0	26	104	0	72	23475
2026-01-11 02:32:04.14	355.02	33.91	-53.5	-69.4	3.8	1.49e+00	0	26	104	0	72	23534
2026-01-11 02:32:05.15	354.70	34.04	-53.5	-69.4	3.8	1.49e+00	0	26	104	0	72	23464
2026-01-11 02:32:06.15	354.39	34.16	-53.5	-69.4	3.8	1.49e+00	0	26	104	0	72	23551
2026-01-11 02:32:07.15	354.07	34.29	-53.5	-69.4	3.8	1.49e+00	0	26	104	0	72	23533
2026-01-11 02:32:08.15	353.74	34.41	-53.5	-69.4	3.8	1.49e+00	0	26	104	0	72	23504
2026-01-11 02:32:09.16	353.41	34.54	-53.5	-69.4	3.8	1.49e+00	0	26	104	0	72	23552
2026-01-11 02:32:10.16	353.09	34.66	-53.5	-69.4	3.8	1.49e+00	0	26	104	0	72	23542
2026-01-11 02:32:11.16	352.76	34.78	-53.5	-69.4	3.8	1.49e+00	0	26	104	0	72	23451
2026-01-11 02:32:12.16	352.42	34.90	-53.5	-69.4	3.8	1.49e+00	0	26	104	0	72	23478
2026-01-11 02:32:13.17	352.08	35.02	-53.5	-69.4	3.8	1.49e+00	0	26	104	0	72	23557
2026-01-11 02:32:14.16	351.75	35.14	-53.5	-69.4	3.8	1.49e+00	0	26	104	0	72	23476
2026-01-11 02:32:15.17	351.40	35.26	-53.5	-69.4	3.8	1.49e+00	0	26	104	0	72	23513
2026-01-11 02:32:16.17	351.06	35.38	-53.5	-69.4	3.8	1.49e+00	0	26	104	0	72	23445
2026-01-11 02:32:17.16	350.72	35.50	-53.5	-69.4	3.8	1.49e+00	0	26	104	0	72	23528
2026-01-11 02:32:18.16	350.37	35.62	-53.5	-69.4	3.8	1.49e+00	0	26	104	0	72	23540
2026-01-11 02:32:19.16	350.02	35.73	-53.5	-69.4	3.8	1.49e+00	0	26	104	0	72	23544
2026-01-11 02:32:20.17	349.66	35.85	-53.5	-69.4	3.8	1.49e+00	0	26	104	0	72	23511
2026-01-11 02:32:21.17	349.31	35.96	-53.5	-69.4	3.8	1.49e+00	0	26	104	0	72	23494
2026-01-11 02:32:22.17	348.95	36.08	-53.5	-69.4	3.8	1.49e+00	0	26	104	0	72	23508
2026-01-11 02:32:23.18	348.59	36.19	-53.5	-69.5	3.8	1.49e+00	0	26	104	0	72	23582
2026-01-11 02:32:24.18	348.22	36.31	-53.5	-69.4	3.8	1.49e+00	0	26	104	0	72	23580
2026-01-11 02:32:25.18	347.86	36.42	-53.5	-69.4	3.8	1.49e+00	0	26	104	0	72	23479
2026-01-11 02:32:26.18	347.49	36.53	-53.5	-69.4	3.8	1.49e+00	0	26	104	0	72	23565
2026-01-11 02:32:27.19	347.11	36.64	-53.5	-69.4	3.8	1.49e+00	0	26	104	0	72	23555
2026-01-11 02:32:28.19	346.74	36.75	-53.5	-69.4	3.8	1.49e+00	0	26	104	0	72	23482
2026-01-11 02:32:29.19	346.36	36.85	-53.5	-69.4	3.8	1.49e+00	0	26	104	0	72	23473
2026-01-11 02:32:30.19	345.99	36.96	-53.5	-69.4	3.8	1.49e+00	0	26	104	0	72	23515
2026-01-11 02:32:31.19	345.60	37.06	-53.5	-69.4	3.8	1.49e+00	0	26	104	0	72	23543
2026-01-11 02:32:32.18	345.23	37.17	-53.5	-69.4	3.8	1.49e+00	0	26	104	0	72	23540
2026-01-11 02:32:33.19	344.84	37.27	-53.5	-69.4	3.8	1.49e+00	0	26	104	0	72	23572
2026-01-11 02:32:34.18	344.45	37.37	-53.5	-69.4	3.8	1.49e+00	0	26	104	0	72	23511
2026-01-11 02:32:35.19	344.06	37.47	-53.5	-69.5	3.8	1.49e+00	0	26	104	0	72	23592
2026-01-11 02:32:36.19	343.66	37.57	-53.5	-69.4	3.8	1.49e+00	0	26	104	0	72	23535
2026-01-11 02:32:37.19	343.27	37.67	-53.5	-69.4	3.8	1.49e+00	0	26	104	0	72	23516
2026-01-11 02:32:38.19	342.87	37.77	-53.5	-69.4	3.8	1.49e+00	0	26	104	0	72	23506
2026-01-11 02:32:39.19	342.47	37.86	-53.5	-69.4	3.8	1.49e+00	0	26	104	0	72	23549
2026-01-11 02:32:40.19	342.07	37.96	-53.5	-69.4	3.8	1.49e+00	0	26	104	0	72	23568
2026-01-11 02:32:41.18	341.67	38.05	-53.5	-69.4	3.8	1.49e+00	0	26	104	0	72	23576
2026-01-11 02:32:42.19	341.26	38.14	-53.5	-69.4	3.8	1.49e+00	0	26	104	0	72	23571
2026-01-11 02:32:43.19	340.85	38.23	-53.5	-69.4	3.8	1.49e+00	0	26	104	0	72	23568
2026-01-11 02:32:44.19	340.43	38.32	-53.5	-69.5	3.8	1.49e+00	0	26	104	0	72	23625
2026-01-11 02:32:45.18	340.02	38.40	-53.5	-69.4	3.8	1.49e+00	0	26	104	0	72	23517
2026-01-11 02:32:46.19	339.60	38.49	-53.5	-69.5	3.8	1.49e+00	0	26	104	0	72	23588
2026-01-11 02:32:47.19	339.18	38.57	-53.5	-69.5	3.8	1.49e+00	0	26	104	0	72	23598
2026-01-11 02:32:48.19	338.76	38.66	-53.5	-69.4	3.8	1.49e+00	0	26	104	0	72	23517
2026-01-11 02:32:49.19	338.34	38.74	-53.5	-69.5	3.8	1.49e+00	0	26	104	0	72	23598
2026-01-11 02:32:50.19	337.92	38.82	-53.5	-69.4	3.8	1.49e+00	0	26	104	0	72	23550
2026-01-11 02:32:51.19	337.49	38.89	-53.5	-69.4	3.8	1.49e+00	0	26	104	0	72	23513
2026-01-11 02:32:52.20	337.06	38.97	-53.5	-69.4	3.8	1.49e+00	0	26	104	0	72	23502
2026-01-11 02:32:53.21	336.62	39.04	-53.5	-69.4	3.8	1.49e+00	0	26	104	0	72	23531
2026-01-11 02:32:54.21	336.19	39.12	-53.5	-69.4	3.8	1.49e+00	0	26	104	0	72	23553
2026-01-11 02:32:55.20	335.76	39.19	-53.5	-69.4	3.8	1.49e+00	0	26	104	0	72	23564
2026-01-11 02:32:56.20	335.32	39.26	-53.5	-69.4	3.8	1.49e+00	0	26	104	0	72	23535
2026-01-11 02:32:57.21	334.88	39.32	-53.5	-69.4	3.8	1.49e+00	0	26	104	0	72	23554
2026-01-11 02:32:58.21	334.44	39.39	-53.5	-69.4	3.8	1.49e+00	0	26	104	0	72	23562
2026-01-11 02:32:59.21	334.00	39.45	-53.5	-69.4	3.8	1.49e+00	0	26	104	0	72	23539
2026-01-11 02:33:00.21	333.55	39.51	-53.5	-69.4	3.8	1.49e+00	0	26	104	0	72	23580
2026-01-11 02:33:01.21	333.11	39.57	-53.5	-69.4	3.8	1.49e+00	0	26	104	0	72	23480
2026-01-11 02:33:02.21	332.66	39.63	-53.5	-69.4	3.8	1.49e+00	0	26	104	0	72	23541
2026-01-11 02:33:03.22	332.21	39.69	-53.5	-69.4	3.8	1.49e+00	0	26	104	0	72	23531
2026-01-11 02:33:04.21	331.76	39.74	-53.5	-69.4	3.8	1.49e+00	0	26	104	0	72	23545
2026-01-11 02:33:05.22	331.30	39.80	-53.5	-69.4	3.8	1.49e+00	0	26	104	0	72	23561
2026-01-11 02:33:06.22	330.85	39.85	-53.5	-69.5	3.8	1.49e+00	0	26	104	0	72	23593
2026-01-11 02:33:07.23	330.39	39.89	-53.5	-69.4	3.8	1.49e+00	0	26	104	0	72	23543
2026-01-11 02:33:08.23	329.94	39.94	-53.5	-69.4	3.8	1.49e+00	0	26	104	0	72	23512
2026-01-11 02:33:09.23	329.48	39.98	-53.5	-69.4	3.8	1.49e+00	0	26	104	0	72	23561
2026-01-11 02:33:10.23	329.02	40.03	-53.5	-69.4	3.8	1.49e+00	0	26	104	0	72	23499
2026-01-11 02:33:11.22	328.56	40.07	-53.5	-69.4	3.8	1.49e+00	0	26	104	0	72	23556
2026-01-11 02:33:12.22	328.10	40.10	-53.5	-69.5	3.8	1.49e+00	0	26	104	0	72	23591
2026-01-11 02:33:13.23	327.64	40.14	-53.5	-69.4	3.8	1.49e+00	0	26	104	0	72	23546
2026-01-11 02:33:14.22	327.18	40.17	-53.5	-69.5	3.8	1.49e+00	0	26	104	0	72	23591
2026-01-11 02:33:15.23	326.71	40.21	-53.5	-69.5	3.8	1.49e+00	0	26	104	0	72	23582
2026-01-11 02:33:16.23	326.25	40.24	-53.5	-69.4	3.8	1.49e+00	0	26	104	0	72	23555
2026-01-11 02:33:17.24	325.78	40.26	-53.5	-69.5	3.8	1.49e+00	0	26	104	0	72	23633
2026-01-11 02:33:18.25	325.30	40.29	-53.5	-69.4	3.8	1.49e+00	0	26	104	0	72	23532
2026-01-11 02:33:19.25	324.84	40.31	-53.5	-69.4	3.8	1.49e+00	0	26	104	0	72	23566
2026-01-11 02:33:20.25	324.37	40.33	-53.5	-69.5	3.8	1.49e+00	0	26	104	0	72	23627
2026-01-11 02:33:21.25	323.90	40.35	-53.5	-69.4	3.8	1.49e+00	0	26	104	0	72	23517
2026-01-11 02:33:22.25	323.43	40.37	-53.5	-69.5	3.8	1.49e+00	0	26	104	0	72	23630
2026-01-11 02:33:23.25	322.96	40.38	-53.5	-69.5	3.8	1.49e+00	0	26	104	0	72	23618
2026-01-11 02:33:24.25	322.49	40.40	-53.5	-69.4	3.8	1.49e+00	0	26	104	0	72	23514
2026-01-11 02:33:25.26	322.02	40.41	-53.5	-69.4	3.8	1.49e+00	0	26	104	0	72	23502
2026-01-11 02:33:26.25	321.55	40.42	-53.5	-69.4	3.8	1.49e+00	0	26	104	0	72	23537
2026-01-11 02:33:27.26	321.08	40.42	-53.5	-69.4	3.8	1.49e+00	0	26	104	0	72	23543
2026-01-11 02:33:28.27	320.60	40.43	-53.5	-69.5	3.8	1.49e+00	0	26	104	0	72	23591
2026-01-11 02:33:29.26	320.14	40.43	-53.5	-69.4	3.8	1.49e+00	0	26	104	0	72	23558
2026-01-11 02:33:30.27	319.66	40.43	-53.5	-69.4	3.8	1.49e+00	0	26	104	0	72	23580
2026-01-11 02:33:31.27	319.19	40.42	-53.5	-69.5	3.8	1.49e+00	0	26	104	0	72	23604
2026-01-11 02:33:32.27	318.72	40.42	-53.5	-69.4	3.8	1.49e+00	0	26	104	0	72	23544
2026-01-11 02:33:33.26	318.25	40.41	-53.5	-69.5	3.8	1.49e+00	0	26	104	0	72	23609
2026-01-11 02:33:34.26	317.78	40.40	-53.5	-69.5	3.8	1.49e+00	0	26	104	0	72	23616
2026-01-11 02:33:35.26	317.31	40.39	-53.5	-69.4	3.8	1.49e+00	0	26	104	0	72	23570
2026-01-11 02:33:36.26	316.84	40.38	-53.5	-69.4	3.8	1.49e+00	0	26	104	0	72	23551
2026-01-11 02:33:37.26	316.38	40.36	-53.5	-69.5	3.8	1.49e+00	0	26	104	0	72	23584
2026-01-11 02:33:38.26	315.91	40.34	-53.5	-69.5	3.8	1.49e+00	0	26	104	0	72	23584
2026-01-11 02:33:39.26	315.44	40.32	-53.5	-69.4	3.8	1.49e+00	0	26	104	0	72	23541
2026-01-11 02:33:40.26	314.97	40.30	-53.5	-69.4	3.8	1.49e+00	0	26	104	0	72	23524
2026-01-11 02:33:41.26	314.50	40.27	-53.5	-69.4	3.8	1.49e+00	0	26	104	0	72	23536
2026-01-11 02:33:42.26	314.04	40.25	-53.5	-69.4	3.8	1.49e+00	0	26	104	0	72	23558
2026-01-11 02:33:43.27	313.57	40.22	-53.5	-69.5	3.8	1.49e+00	0	26	104	0	72	23598
2026-01-11 02:33:44.27	313.10	40.19	-53.5	-69.4	3.8	1.49e+00	0	26	104	0	72	23522
2026-01-11 02:33:45.28	312.64	40.15	-53.5	-69.4	3.8	1.49e+00	0	26	104	0	72	23561
2026-01-11 02:33:46.28	312.17	40.12	-53.5	-69.4	3.8	1.49e+00	0	26	104	0	72	23559
2026-01-11 02:33:47.28	311.71	40.08	-53.5	-69.4	3.8	1.49e+00	0	26	104	0	72	23546
2026-01-11 02:33:48.29	311.25	40.04	-53.5	-69.4	3.8	1.49e+00	0	26	104	0	72	23561
2026-01-11 02:33:49.29	310.79	40.00	-53.5	-69.5	3.8	1.49e+00	0	26	104	0	72	23593
2026-01-11 02:33:50.30	310.33	39.95	-53.5	-69.5	3.8	1.49e+00	0	26	104	0	72	23585
2026-01-11 02:33:51.30	309.87	39.91	-53.5	-69.5	3.8	1.49e+00	0	26	104	0	72	23609
2026-01-11 02:33:52.30	309.41	39.86	-53.5	-69.5	3.8	1.49e+00	0	26	104	0	72	23614
2026-01-11 02:33:53.30	308.96	39.81	-53.5	-69.5	3.8	1.49e+00	0	26	104	0	72	23697
2026-01-11 02:33:54.30	308.51	39.76	-53.5	-69.5	3.8	1.49e+00	0	26	104	0	72	23638
2026-01-11 02:33:55.31	308.05	39.71	-53.5	-69.5	3.8	1.49e+00	0	26	104	0	72	23607
2026-01-11 02:33:56.31	307.60	39.65	-53.5	-69.5	3.8	1.49e+00	0	26	104	0	72	23614
2026-01-11 02:33:57.32	307.15	39.59	-53.5	-69.4	3.8	1.49e+00	0	26	104	0	72	23567
2026-01-11 02:33:58.32	306.70	39.53	-53.5	-69.4	3.8	1.49e+00	0	26	104	0	72	23532
2026-01-11 02:33:59.32	306.26	39.47	-53.5	-69.4	3.8	1.49e+00	0	26	104	0	72	23549
2026-01-11 02:34:00.33	305.81	39.41	-53.5	-69.4	3.8	1.49e+00	0	26	104	0	72	23509
2026-01-11 02:34:01.33	305.37	39.34	-53.5	-69.4	3.8	1.49e+00	0	26	104	0	72	23534
2026-01-11 02:34:02.33	304.93	39.28	-53.5	-69.5	3.8	1.49e+00	0	26	104	0	72	23593
2026-01-11 02:34:03.33	304.49	39.21	-53.5	-69.4	3.8	1.49e+00	0	26	104	0	72	23538
2026-01-11 02:34:04.33	304.06	39.14	-53.5	-69.5	3.8	1.49e+00	0	26	104	0	72	23635
2026-01-11 02:34:05.33	303.62	39.07	-53.5	-69.4	3.8	1.49e+00	0	26	104	0	72	23540
2026-01-11 02:34:06.34	303.19	38.99	-53.5	-69.4	3.8	1.49e+00	0	26	104	0	72	23511
2026-01-11 02:34:07.34	302.76	38.92	-53.5	-69.4	3.8	1.49e+00	0	26	104	0	72	23580
2026-01-11 02:34:08.35	302.32	38.84	-53.5	-69.5	3.8	1.49e+00	0	26	104	0	72	23597
2026-01-11 02:34:09.35	301.90	38.76	-53.5	-69.4	3.8	1.49e+00	0	26	104	0	72	23570
2026-01-11 02:34:10.35	301.47	38.68	-53.5	-69.5	3.8	1.49e+00	0	26	104	0	72	23585
2026-01-11 02:34:11.35	301.05	38.60	-53.5	-69.4	3.8	1.49e+00	0	26	104	0	72	23514
2026-01-11 02:34:12.35	300.63	38.51	-53.5	-69.4	3.8	1.49e+00	0	26	104	0	72	23563
2026-01-11 02:34:13.35	300.22	38.43	-53.5	-69.4	3.8	1.49e+00	0	26	104	0	72	23529
2026-01-11 02:34:14.36	299.80	38.34	-53.5	-69.5	3.8	1.49e+00	0	26	104	0	72	23583
2026-01-11 02:34:15.36	299.38	38.25	-53.5	-69.4	3.8	1.49e+00	0	26	104	0	72	23499
2026-01-11 02:34:16.36	298.97	38.16	-53.5	-69.4	3.8	1.49e+00	0	26	104	0	72	23492
2026-01-11 02:34:17.37	298.56	38.07	-53.5	-69.4	3.8	1.49e+00	0	26	104	0	72	23551
2026-01-11 02:34:18.37	298.16	37.98	-53.5	-69.5	3.8	1.49e+00	0	26	104	0	72	23597
2026-01-11 02:34:19.37	297.75	37.89	-53.5	-69.5	3.8	1.49e+00	0	26	104	0	72	23591
2026-01-11 02:34:20.37	297.35	37.79	-53.5	-69.4	3.8	1.49e+00	0	26	104	0	72	23571
2026-01-11 02:34:21.37	296.95	37.69	-53.5	-69.5	3.8	1.49e+00	0	26	104	0	72	23616
2026-01-11 02:34:22.38	296.55	37.60	-53.5	-69.4	3.8	1.49e+00	0	26	104	0	72	23573
2026-01-11 02:34:23.37	296.16	37.50	-53.5	-69.4	3.8	1.49e+00	0	26	104	0	72	23546
2026-01-11 02:34:24.37	295.77	37.40	-53.5	-69.5	3.8	1.49e+00	0	26	104	0	72	23595
2026-01-11 02:34:25.37	295.38	37.30	-53.5	-69.5	3.8	1.49e+00	0	26	104	0	72	23597
2026-01-11 02:34:26.37	294.99	37.19	-53.5	-69.4	3.8	1.49e+00	0	26	104	0	72	23548
2026-01-11 02:34:27.37	294.61	37.09	-53.5	-69.5	3.8	1.49e+00	0	26	104	0	72	23606
2026-01-11 02:34:28.37	294.23	36.99	-53.5	-69.4	3.8	1.49e+00	0	26	104	0	72	23537
2026-01-11 02:34:29.37	293.85	36.88	-53.5	-69.4	3.8	1.49e+00	0	26	104	0	72	23569
2026-01-11 02:34:30.36	293.47	36.77	-53.5	-69.4	3.8	1.49e+00	0	27	104	0	72	23544
2026-01-11 02:34:31.37	293.09	36.66	-53.5	-69.5	3.8	1.49e+00	0	26	104	0	72	23603
2026-01-11 02:34:32.37	292.72	36.55	-53.5	-69.4	3.8	1.49e+00	0	26	104	0	72	23496
2026-01-11 02:34:33.37	292.35	36.44	-53.5	-69.4	3.8	1.49e+00	0	26	104	0	72	23482
2026-01-11 02:34:34.38	291.98	36.33	-53.5	-69.4	3.8	1.49e+00	0	26	104	0	72	23510
2026-01-11 02:34:35.37	291.62	36.22	-53.5	-69.4	3.8	1.49e+00	0	26	104	0	72	23495
2026-01-11 02:34:36.37	291.26	36.11	-53.5	-69.4	3.8	1.49e+00	0	26	104	0	72	23549
2026-01-11 02:34:37.37	290.90	35.99	-53.5	-69.4	3.8	1.49e+00	0	26	104	0	72	23515
2026-01-11 02:34:38.37	290.54	35.88	-53.5	-69.4	3.8	1.49e+00	0	26	104	0	72	23581
2026-01-11 02:34:39.37	290.19	35.76	-53.5	-69.4	3.8	1.49e+00	0	26	104	0	72	23542
2026-01-11 02:34:40.37	289.84	35.65	-53.5	-69.4	3.8	1.49e+00	0	26	104	0	72	23549
2026-01-11 02:34:41.36	289.49	35.53	-53.5	-69.4	3.8	1.49e+00	0	26	104	0	72	23522
2026-01-11 02:34:42.36	289.14	35.41	-53.5	-69.5	3.8	1.49e+00	0	26	104	0	72	23604
2026-01-11 02:34:43.36	288.80	35.29	-53.5	-69.4	3.8	1.49e+00	0	26	104	0	72	23506
2026-01-11 02:34:44.36	288.46	35.18	-53.5	-69.4	3.8	1.49e+00	0	26	104	0	72	23557
2026-01-11 02:34:45.37	288.11	35.05	-53.5	-69.4	3.8	1.49e+00	0	26	104	0	72	23558
2026-01-11 02:34:46.37	287.78	34.93	-53.5	-69.4	3.8	1.49e+00	0	27	104	0	72	23543
2026-01-11 02:34:47.37	287.44	34.81	-53.5	-69.5	3.8	1.49e+00	0	26	104	0	72	23585
2026-01-11 02:34:48.37	287.11	34.69	-53.5	-69.5	3.8	1.49e+00	0	26	104	0	72	23589
2026-01-11 02:34:49.37	286.78	34.57	-53.5	-69.4	3.8	1.49e+00	0	26	104	0	72	23481
2026-01-11 02:34:50.36	286.46	34.44	-53.5	-69.4	3.8	1.49e+00	0	26	104	0	72	23555
2026-01-11 02:34:51.36	286.13	34.32	-53.5	-69.4	3.8	1.49e+00	0	26	104	0	72	23562
2026-01-11 02:34:52.37	285.81	34.19	-53.5	-69.4	3.8	1.49e+00	0	26	104	0	72	23471
2026-01-11 02:34:53.38	285.49	34.07	-53.5	-69.4	3.8	1.49e+00	0	26	104	0	72	23503
2026-01-11 02:34:54.37	285.17	33.94	-53.5	-69.4	3.8	1.49e+00	0	26	104	0	72	23526
2026-01-11 02:34:55.38	284.85	33.82	-53.5	-69.4	3.8	1.49e+00	0	26	104	0	72	23565
2026-01-11 02:34:56.38	284.54	33.69	-53.5	-69.5	3.8	1.49e+00	0	26	104	0	72	23583
2026-01-11 02:34:57.39	284.23	33.56	-53.5	-69.4	3.8	1.49e+00	0	26	104	0	72	23538
2026-01-11 02:34:58.40	283.92	33.43	-53.5	-69.4	3.8	1.49e+00	0	26	104	0	72	23563
2026-01-11 02:34:59.40	283.62	33.31	-53.5	-69.4	3.8	1.49e+00	0	26	104	0	72	23531
2026-01-11 02:35:00.40	283.31	33.18	-53.5	-69.4	3.8	1.49e+00	0	26	104	0	72	23551
2026-01-11 02:35:01.40	283.01	33.05	-53.5	-69.5	3.8	1.49e+00	0	26	104	0	72	23596
2026-01-11 02:35:02.41	282.71	32.92	-53.5	-69.4	3.8	1.49e+00	0	26	104	0	72	23560
2026-01-11 02:35:03.41	282.42	32.79	-53.5	-69.4	3.8	1.49e+00	0	26	104	0	72	23528
2026-01-11 02:35:04.41	282.12	32.66	-53.5	-69.4	3.8	1.49e+00	0	26	104	0	72	23574
2026-01-11 02:35:05.41	281.83	32.53	-53.5	-69.4	3.8	1.49e+00	0	26	104	0	72	23522
2026-01-11 02:35:06.42	281.54	32.40	-53.5	-69.4	3.8	1.49e+00	0	26	104	0	72	23569
2026-01-11 02:35:07.42	281.26	32.27	-53.5	-69.5	3.8	1.49e+00	0	26	104	0	72	23593
2026-01-11 02:35:08.42	280.97	32.14	-53.5	-69.4	3.8	1.49e+00	0	26	104	0	72	23515
2026-01-11 02:35:09.42	280.69	32.01	-53.5	-69.4	3.8	1.49e+00	0	26	104	0	72	23568
2026-01-11 02:35:10.42	280.41	31.88	-53.5	-69.4	3.8	1.49e+00	0	26	104	0	72	23505
2026-01-11 02:35:11.41	280.14	31.75	-53.5	-69.4	3.8	1.49e+00	0	26	104	0	72	23502
2026-01-11 02:35:12.41	279.87	31.61	-53.5	-69.4	3.8	1.49e+00	0	26	104	0	72	23541
2026-01-11 02:35:13.42	279.59	31.48	-53.5	-69.4	3.8	1.49e+00	0	26	104	0	72	23534
2026-01-11 02:35:14.08	279.41	31.40	-53.5	-69.5	3.8	1.49e+00	0	26	104	0	72	23615
2026-01-11 02:35:15.51	279.03	31.21	-53.5	-69.4	3.8	1.49e+00	0	26	104	0	72	23541
2026-01-11 02:35:16.23	278.84	31.11	-53.5	-69.4	3.8	1.49e+00	0	26	104	0	72	23559
2026-01-11 02:35:17.52	278.50	30.94	-53.5	-69.4	3.8	1.49e+00	0	26	104	0	72	23537
2026-01-11 02:35:18.24	278.31	30.85	-53.5	-69.4	3.8	1.49e+00	0	26	104	0	72	23559
2026-01-11 02:35:19.53	277.98	30.68	-53.5	-69.5	3.8	1.49e+00	0	26	104	0	72	23599
2026-01-11 02:35:20.24	277.79	30.58	-53.5	-69.4	3.8	1.49e+00	0	26	104	0	72	23574
2026-01-11 02:35:21.53	277.46	30.41	-53.5	-69.4	3.8	1.49e+00	0	26	104	0	72	23564
2026-01-11 02:35:22.24	277.29	30.32	-53.5	-69.4	3.8	1.49e+00	0	26	104	0	72	23555
2026-01-11 02:35:23.54	276.96	30.15	-53.5	-69.4	3.8	1.49e+00	0	26	104	0	72	23522
2026-01-11 02:35:24.26	276.78	30.05	-53.5	-69.4	3.8	1.49e+00	0	26	104	0	72	23532
2026-01-11 02:35:25.55	276.46	29.88	-53.5	-69.4	3.8	1.49e+00	0	26	104	0	72	23516
2026-01-11 02:35:26.26	276.29	29.79	-53.5	-69.5	3.8	1.49e+00	0	26	104	0	72	23583
2026-01-11 02:35:27.57	275.97	29.61	-53.5	-69.5	3.8	1.49e+00	0	26	104	0	72	23590
2026-01-11 02:35:28.28	275.80	29.52	-53.5	-69.4	3.8	1.49e+00	0	26	104	0	72	23503
2026-01-11 02:35:29.58	275.49	29.35	-53.5	-69.4	3.8	1.49e+00	0	26	104	0	72	23558
2026-01-11 02:35:30.30	275.32	29.25	-53.5	-69.4	3.8	1.49e+00	0	26	104	0	72	23519
2026-01-11 02:35:31.59	275.02	29.08	-53.5	-69.5	3.8	1.49e+00	0	26	104	0	72	23583
2026-01-11 02:35:32.32	274.85	28.99	-53.5	-69.4	3.8	1.49e+00	0	26	104	0	72	23564
2026-01-11 02:35:33.61	274.55	28.82	-53.5	-69.5	3.8	1.49e+00	0	26	104	0	72	23603
2026-01-11 02:35:34.32	274.39	28.72	-53.5	-69.4	3.8	1.49e+00	0	26	104	0	72	23579
2026-01-11 02:35:35.62	274.09	28.55	-53.5	-69.4	3.8	1.49e+00	0	26	104	0	72	23552
2026-01-11 02:35:36.33	273.93	28.46	-53.5	-69.4	3.8	1.49e+00	0	26	104	0	72	23543
2026-01-11 02:35:37.62	273.65	28.29	-53.5	-69.4	3.8	1.49e+00	0	26	104	0	72	23568
2026-01-11 02:35:38.33	273.49	28.20	-53.5	-69.5	3.8	1.49e+00	0	26	104	0	72	23592
2026-01-11 02:35:39.61	273.21	28.03	-53.5	-69.5	3.8	1.49e+00	0	26	104	0	72	23600
2026-01-11 02:35:40.33	273.05	27.93	-53.5	-69.4	3.8	1.49e+00	0	26	104	0	72	23576
2026-01-11 02:35:41.62	272.77	27.76	-53.5	-69.5	3.8	1.49e+00	0	26	104	0	72	23588
2026-01-11 02:35:42.34	272.62	27.67	-53.5	-69.4	3.8	1.49e+00	0	26	104	0	72	23560
2026-01-11 02:35:43.62	272.35	27.50	-53.5	-69.4	3.8	1.49e+00	0	27	104	0	72	23570
2026-01-11 02:35:44.33	272.20	27.41	-53.5	-69.5	3.8	1.49e+00	0	26	104	0	72	23607
2026-01-11 02:35:45.62	271.93	27.24	-53.5	-69.5	3.8	1.49e+00	0	26	104	0	72	23634
2026-01-11 02:35:46.34	271.78	27.15	-53.5	-69.4	3.8	1.49e+00	0	26	104	0	72	23513
2026-01-11 02:35:47.63	271.51	26.98	-53.5	-69.4	3.8	1.49e+00	0	26	104	0	72	23554
2026-01-11 02:35:48.35	271.37	26.89	-53.5	-69.4	3.8	1.49e+00	0	26	104	0	72	23576
2026-01-11 02:35:49.63	271.11	26.72	-53.5	-69.4	3.8	1.49e+00	0	26	104	0	72	23549
2026-01-11 02:35:50.35	270.96	26.63	-53.5	-69.4	3.8	1.49e+00	0	26	104	0	72	23545
2026-01-11 02:35:51.63	270.71	26.47	-53.5	-69.4	3.8	1.49e+00	0	26	104	0	72	23544
2026-01-11 02:35:52.35	270.57	26.37	-53.5	-69.4	3.8	1.49e+00	0	26	104	0	72	23525
2026-01-11 02:35:53.64	270.32	26.21	-53.5	-69.4	3.8	1.49e+00	0	26	104	0	72	23531
2026-01-11 02:35:54.36	270.18	26.12	-53.5	-69.4	3.8	1.49e+00	0	26	104	0	72	23539
2026-01-11 02:35:55.65	269.93	25.95	-53.5	-69.4	3.8	1.49e+00	0	26	104	0	72	23556
2026-01-11 02:35:56.36	269.79	25.86	-53.5	-69.4	3.8	1.49e+00	0	26	104	0	72	23558
2026-01-11 02:35:57.65	269.55	25.70	-53.5	-69.4	3.8	1.49e+00	0	26	104	0	72	23566
2026-01-11 02:35:58.36	269.42	25.61	-53.5	-69.5	3.8	1.49e+00	0	26	104	0	72	23611
2026-01-11 02:35:59.65	269.17	25.44	-53.5	-69.4	3.8	1.49e+00	0	26	104	0	72	23545
2026-01-11 02:36:00.36	269.04	25.35	-53.5	-69.4	3.8	1.49e+00	0	26	104	0	72	23541
2026-01-11 02:36:01.65	268.81	25.19	-53.5	-69.4	3.8	1.49e+00	0	26	104	0	72	23493
2026-01-11 02:36:02.37	268.68	25.10	-53.5	-69.4	3.8	1.49e+00	0	26	104	0	72	23505
2026-01-11 02:36:03.65	268.45	24.94	-53.5	-69.4	3.8	1.49e+00	0	26	104	0	72	23546
2026-01-11 02:36:04.36	268.32	24.85	-53.5	-69.4	3.8	1.49e+00	0	26	104	0	72	23459
2026-01-11 02:36:05.65	268.09	24.69	-53.5	-69.4	3.8	1.49e+00	0	26	104	0	72	23558
2026-01-11 02:36:06.37	267.96	24.60	-53.5	-69.4	3.8	1.49e+00	0	26	104	0	72	23523
2026-01-11 02:36:07.66	267.74	24.44	-53.5	-69.5	3.8	1.49e+00	0	26	104	0	72	23612
2026-01-11 02:36:08.38	267.61	24.35	-53.5	-69.4	3.8	1.49e+00	0	26	104	0	72	23564
2026-01-11 02:36:09.67	267.39	24.19	-53.5	-69.4	3.8	1.49e+00	0	26	104	0	72	23543
2026-01-11 02:36:10.38	267.27	24.10	-53.5	-69.4	3.8	1.49e+00	0	26	104	0	72	23537
2026-01-11 02:36:11.66	267.06	23.94	-53.5	-69.4	3.8	1.49e+00	0	26	104	0	72	23503
2026-01-11 02:36:12.39	266.93	23.85	-53.5	-69.4	3.8	1.49e+00	0	26	104	0	72	23507
2026-01-11 02:36:13.68	266.72	23.69	-53.5	-69.4	3.8	1.49e+00	0	26	104	0	72	23513
2026-01-11 02:36:14.39	266.60	23.61	-53.5	-69.4	3.8	1.49e+00	0	26	104	0	72	23547
2026-01-11 02:36:15.67	266.39	23.45	-53.5	-69.4	3.8	1.49e+00	0	26	104	0	72	23522
2026-01-11 02:36:16.39	266.27	23.36	-53.5	-69.4	3.8	1.49e+00	0	26	104	0	72	23544
2026-01-11 02:36:17.68	266.07	23.21	-53.5	-69.4	3.8	1.49e+00	0	26	104	0	72	23537
2026-01-11 02:36:18.40	265.95	23.12	-53.5	-69.4	3.8	1.49e+00	0	26	104	0	72	23519
2026-01-11 02:36:19.69	265.75	22.96	-53.5	-69.4	3.8	1.49e+00	0	26	104	0	72	23534
2026-01-11 02:36:20.40	265.64	22.88	-53.5	-69.4	3.8	1.49e+00	0	26	104	0	72	23520
2026-01-11 02:36:21.70	265.43	22.72	-53.5	-69.4	3.8	1.49e+00	0	26	104	0	72	23520
2026-01-11 02:36:22.42	265.32	22.64	-53.5	-69.4	3.8	1.49e+00	0	26	104	0	72	23482
2026-01-11 02:36:23.71	265.12	22.48	-53.5	-69.4	3.8	1.49e+00	0	26	104	0	72	23496
2026-01-11 02:36:24.42	265.01	22.40	-53.5	-69.4	3.8	1.49e+00	0	26	104	0	72	23517
2026-01-11 02:36:25.71	264.82	22.24	-53.5	-69.4	3.8	1.49e+00	0	26	104	0	72	23494
2026-01-11 02:36:26.42	264.71	22.16	-53.5	-69.4	3.8	1.49e+00	0	26	104	0	72	23434
2026-01-11 02:36:27.72	264.52	22.01	-53.5	-69.4	3.8	1.49e+00	0	26	104	0	72	23509
2026-01-11 02:36:28.44	264.41	21.92	-53.5	-69.4	3.8	1.49e+00	0	26	104	0	72	23531
2026-01-11 02:36:29.72	264.22	21.77	-53.5	-69.4	3.8	1.49e+00	0	26	104	0	72	23480
2026-01-11 02:36:30.44	264.12	21.69	-53.5	-69.4	3.8	1.49e+00	0	26	104	0	72	23510
2026-01-11 02:36:31.73	263.93	21.54	-53.5	-69.4	3.8	1.49e+00	0	26	104	0	72	23565
2026-01-11 02:36:32.44	263.83	21.45	-53.5	-69.4	3.8	1.49e+00	0	27	104	0	72	23515
2026-01-11 02:36:33.74	263.65	21.30	-53.5	-69.4	3.8	1.49e+00	0	26	104	0	72	23545
2026-01-11 02:36:34.45	263.55	21.22	-53.5	-69.4	3.8	1.49e+00	0	26	104	0	72	23497
2026-01-11 02:36:35.76	263.36	21.07	-53.5	-69.4	3.8	1.49e+00	0	26	104	0	72	23573
2026-01-11 02:36:36.47	263.26	20.99	-53.5	-69.4	3.8	1.49e+00	0	27	104	0	72	23543
2026-01-11 02:36:37.76	263.09	20.84	-53.5	-69.4	3.8	1.49e+00	0	26	104	0	72	23507
2026-01-11 02:36:38.47	262.99	20.76	-53.5	-69.4	3.8	1.49e+00	0	26	104	0	72	23546
2026-01-11 02:36:39.75	262.82	20.61	-53.5	-69.4	3.8	1.49e+00	0	26	104	0	72	23537
2026-01-11 02:36:40.48	262.72	20.53	-53.5	-69.4	3.8	1.49e+00	0	26	104	0	72	23534
2026-01-11 02:36:41.77	262.54	20.38	-53.5	-69.4	3.8	1.49e+00	0	26	104	0	72	23560
2026-01-11 02:36:42.49	262.45	20.30	-53.5	-69.4	3.8	1.49e+00	0	26	104	0	72	23562
2026-01-11 02:36:43.78	262.28	20.16	-53.5	-69.4	3.8	1.49e+00	0	26	104	0	72	23496
2026-01-11 02:36:44.49	262.19	20.08	-53.5	-69.4	3.8	1.49e+00	0	26	104	0	72	23533
2026-01-11 02:36:45.77	262.02	19.93	-53.5	-69.4	3.8	1.49e+00	0	26	104	0	72	23530
2026-01-11 02:36:46.48	261.93	19.86	-53.5	-69.4	3.8	1.49e+00	0	26	104	0	72	23579
2026-01-11 02:36:47.78	261.76	19.71	-53.5	-69.4	3.8	1.49e+00	0	26	104	0	72	23507
2026-01-11 02:36:48.50	261.67	19.63	-53.5	-69.4	3.8	1.49e+00	0	26	104	0	72	23513
2026-01-11 02:36:49.79	261.51	19.49	-53.5	-69.4	3.8	1.49e+00	0	26	104	0	72	23548
2026-01-11 02:36:50.52	261.42	19.41	-53.5	-69.4	3.8	1.49e+00	0	26	104	0	72	23517
2026-01-11 02:36:51.80	261.26	19.27	-53.5	-69.4	3.8	1.49e+00	0	26	104	0	72	23559
2026-01-11 02:36:52.52	261.17	19.19	-53.5	-69.4	3.8	1.49e+00	0	26	104	0	72	23571
2026-01-11 02:36:53.80	261.01	19.05	-53.5	-69.4	3.8	1.49e+00	0	26	104	0	72	23512
2026-01-11 02:36:54.53	260.92	18.97	-53.5	-69.4	3.8	1.49e+00	0	26	104	0	72	23522
2026-01-11 02:36:55.81	260.77	18.83	-53.5	-69.4	3.8	1.49e+00	0	26	104	0	72	23499
2026-01-11 02:36:56.52	260.68	18.75	-53.5	-69.4	3.8	1.49e+00	0	26	104	0	72	23530
2026-01-11 02:36:57.82	260.53	18.61	-53.5	-69.4	3.8	1.49e+00	0	26	104	0	72	23515
2026-01-11 02:36:58.53	260.45	18.54	-53.5	-69.4	3.8	1.49e+00	0	26	104	0	72	23526
2026-01-11 02:36:59.84	260.29	18.40	-53.5	-69.4	3.8	1.49e+00	0	26	104	0	72	23492
2026-01-11 02:37:00.56	260.21	18.32	-53.5	-69.4	3.8	1.49e+00	0	26	104	0	72	23540
2026-01-11 02:37:01.84	260.06	18.18	-53.5	-69.4	3.8	1.49e+00	0	26	104	0	72	23527
2026-01-11 02:37:02.55	259.98	18.11	-53.5	-69.4	3.8	1.49e+00	0	26	104	0	72	23519
2026-01-11 02:37:03.84	259.83	17.97	-53.5	-69.4	3.8	1.49e+00	0	26	104	0	72	23518
2026-01-11 02:37:04.56	259.75	17.90	-53.5	-69.4	3.8	1.49e+00	0	26	104	0	72	23511
2026-01-11 02:37:05.84	259.61	17.76	-53.5	-69.4	3.8	1.49e+00	0	26	104	0	72	23473
2026-01-11 02:37:06.55	259.53	17.69	-53.5	-69.4	3.8	1.49e+00	0	26	104	0	72	23508
2026-01-11 02:37:07.85	259.38	17.55	-53.5	-69.4	3.8	1.49e+00	0	26	104	0	72	23547
2026-01-11 02:37:08.56	259.31	17.48	-53.5	-69.4	3.8	1.49e+00	0	26	104	0	72	23502
2026-01-11 02:37:09.85	259.17	17.34	-53.5	-69.4	3.8	1.49e+00	0	26	104	0	72	23507
2026-01-11 02:37:10.57	259.09	17.27	-53.5	-69.4	3.8	1.49e+00	0	26	104	0	72	23492
2026-01-11 02:37:11.86	258.95	17.14	-53.5	-69.4	3.8	1.49e+00	0	26	104	0	72	23509
2026-01-11 02:37:12.57	258.87	17.06	-53.5	-69.4	3.8	1.49e+00	0	26	104	0	72	23510
2026-01-11 02:37:13.86	258.74	16.93	-53.5	-69.4	3.8	1.49e+00	0	26	104	0	72	23487
2026-01-11 02:37:14.57	258.66	16.86	-53.5	-69.4	3.8	1.49e+00	0	26	104	0	72	23506
2026-01-11 02:37:15.86	258.53	16.73	-53.5	-69.4	3.8	1.49e+00	0	26	104	0	72	23511
2026-01-11 02:37:16.57	258.45	16.65	-53.5	-69.4	3.8	1.49e+00	0	26	104	0	72	23572
2026-01-11 02:37:17.86	258.32	16.52	-53.5	-69.5	3.8	1.49e+00	0	26	104	0	72	23589
2026-01-11 02:37:18.58	258.25	16.45	-53.5	-69.4	3.8	1.49e+00	0	26	104	0	72	23507
2026-01-11 02:37:19.87	258.12	16.32	-53.5	-69.4	3.8	1.49e+00	0	26	104	0	72	23575
2026-01-11 02:37:20.59	258.04	16.25	-53.5	-69.4	3.8	1.49e+00	0	26	104	0	72	23553
2026-01-11 02:37:21.88	257.91	16.12	-53.5	-69.4	3.8	1.49e+00	0	26	104	0	72	23491
2026-01-11 02:37:22.59	257.84	16.05	-53.5	-69.4	3.8	1.49e+00	0	26	104	0	72	23538
2026-01-11 02:37:23.88	257.71	15.92	-53.5	-69.4	3.8	1.49e+00	0	27	104	0	72	23439
2026-01-11 02:37:24.61	257.64	15.85	-53.5	-69.4	3.8	1.49e+00	0	26	104	0	72	23567
2026-01-11 02:37:25.90	257.52	15.72	-53.5	-69.4	3.8	1.49e+00	0	26	104	0	72	23468
2026-01-11 02:37:26.61	257.45	15.65	-53.5	-69.4	3.8	1.49e+00	0	26	104	0	72	23508
2026-01-11 02:37:27.90	257.32	15.53	-53.5	-69.4	3.8	1.49e+00	0	26	104	0	72	23512
2026-01-11 02:37:28.63	257.25	15.46	-53.5	-69.4	3.8	1.49e+00	0	26	104	0	72	23546
2026-01-11 02:37:29.91	257.13	15.33	-53.5	-69.4	3.8	1.49e+00	0	26	104	0	72	23501
2026-01-11 02:37:30.63	257.06	15.26	-53.5	-69.4	3.8	1.49e+00	0	26	104	0	72	23543
2026-01-11 02:37:31.92	256.94	15.14	-53.5	-69.4	3.8	1.49e+00	0	26	104	0	72	23501
2026-01-11 02:37:32.65	256.88	15.07	-53.5	-69.4	3.8	1.49e+00	0	26	104	0	72	23570
2026-01-11 02:37:33.93	256.76	14.94	-53.5	-69.4	3.8	1.49e+00	0	26	104	0	72	23467
2026-01-11 02:37:34.64	256.69	14.87	-53.5	-69.4	3.8	1.49e+00	0	26	104	0	72	23499
2026-01-11 02:37:35.94	256.57	14.75	-53.5	-69.4	3.8	1.49e+00	0	26	104	0	72	23551
2026-01-11 02:37:36.66	256.51	14.68	-53.5	-69.4	3.8	1.49e+00	0	26	104	0	72	23539
2026-01-11 02:37:37.95	256.39	14.56	-53.5	-69.4	3.8	1.49e+00	0	26	104	0	72	23514
2026-01-11 02:37:38.66	256.33	14.49	-53.5	-69.4	3.8	1.49e+00	0	26	104	0	72	23560
2026-01-11 02:37:39.94	256.21	14.37	-53.5	-69.4	3.8	1.49e+00	0	26	104	0	72	23564
2026-01-11 02:37:40.65	256.15	14.30	-53.5	-69.4	3.8	1.49e+00	0	27	104	0	72	23478
2026-01-11 02:37:41.95	256.04	14.18	-53.5	-69.4	3.8	1.49e+00	0	26	104	0	72	23547
2026-01-11 02:37:42.67	255.98	14.12	-53.5	-69.4	3.8	1.49e+00	0	26	104	0	72	23546
2026-01-11 02:37:43.95	255.86	14.00	-53.5	-69.4	3.8	1.49e+00	0	26	104	0	72	23551
2026-01-11 02:37:44.66	255.80	13.93	-53.5	-69.4	3.8	1.49e+00	0	26	104	0	72	23476
2026-01-11 02:37:45.96	255.69	13.81	-53.5	-69.4	3.8	1.49e+00	0	26	104	0	72	23528
2026-01-11 02:37:46.68	255.63	13.74	-53.5	-69.4	3.8	1.49e+00	0	26	104	0	72	23508
2026-01-11 02:37:47.97	255.52	13.62	-53.5	-69.4	3.8	1.49e+00	0	26	104	0	72	23495
2026-01-11 02:37:48.69	255.46	13.56	-53.5	-69.4	3.8	1.49e+00	0	26	104	0	72	23527
2026-01-11 02:37:49.98	255.35	13.44	-53.5	-69.4	3.8	1.49e+00	0	26	104	0	72	23510
2026-01-11 02:37:50.70	255.29	13.37	-53.5	-69.4	3.8	1.49e+00	0	26	104	0	72	23538
2026-01-11 02:37:51.97	255.19	13.26	-53.5	-69.4	3.8	1.49e+00	0	26	104	0	72	23555
2026-01-11 02:37:52.69	255.13	13.19	-53.5	-69.4	3.8	1.49e+00	0	26	104	0	72	23574
2026-01-11 02:37:53.97	255.03	13.08	-53.5	-69.5	3.8	1.49e+00	0	26	104	0	72	23644
2026-01-11 02:37:54.69	254.97	13.01	-53.5	-69.4	3.8	1.49e+00	0	26	104	0	72	23560
2026-01-11 02:37:55.98	254.87	12.90	-53.5	-69.4	3.8	1.49e+00	0	26	104	0	72	23558
2026-01-11 02:37:56.69	254.81	12.83	-53.5	-69.4	3.8	1.49e+00	0	26	104	0	72	23493
2026-01-11 02:37:57.98	254.71	12.72	-53.5	-69.4	3.8	1.49e+00	0	26	104	0	72	23558
2026-01-11 02:37:58.70	254.65	12.65	-53.5	-69.4	3.8	1.49e+00	0	26	104	0	72	23572
2026-01-11 02:38:00.01	254.55	12.54	-53.5	-69.4	3.8	1.49e+00	0	27	104	0	72	23581
2026-01-11 02:38:00.72	254.49	12.48	-53.5	-69.4	3.8	1.49e+00	0	26	104	0	72	23541
2026-01-11 02:38:02.01	254.39	12.36	-53.5	-69.4	3.8	1.49e+00	0	26	104	0	72	23535
2026-01-11 02:38:02.73	254.34	12.30	-53.5	-69.4	3.8	1.49e+00	0	26	104	0	72	23555
2026-01-11 02:38:04.02	254.24	12.19	-53.5	-69.4	3.8	1.49e+00	0	26	104	0	72	23550
2026-01-11 02:38:04.74	254.19	12.12	-53.5	-69.4	3.8	1.49e+00	0	26	104	0	72	23480
2026-01-11 02:38:06.03	254.09	12.01	-53.5	-69.4	3.8	1.49e+00	0	26	104	0	72	23552
2026-01-11 02:38:06.74	254.04	11.95	-53.5	-69.4	3.8	1.49e+00	0	26	104	0	72	23525
2026-01-11 02:38:08.03	253.94	11.84	-53.5	-69.5	3.8	1.49e+00	0	26	104	0	72	23592
2026-01-11 02:38:08.75	253.89	11.77	-53.5	-69.5	3.8	1.49e+00	0	26	104	0	72	23585
2026-01-11 02:38:10.04	253.79	11.66	-53.5	-69.4	3.8	1.49e+00	0	26	104	0	72	23503
2026-01-11 02:38:10.76	253.74	11.60	-53.5	-69.4	3.8	1.49e+00	0	27	104	0	72	23575
2026-01-11 02:38:12.05	253.65	11.49	-53.5	-69.4	3.8	1.49e+00	0	26	104	0	72	23561
2026-01-11 02:38:12.77	253.59	11.43	-53.5	-69.5	3.8	1.49e+00	0	26	104	0	72	23599
2026-01-11 02:38:14.06	253.50	11.32	-53.5	-69.4	3.8	1.49e+00	0	26	104	0	72	23523
2026-01-11 02:38:14.78	253.45	11.26	-53.5	-69.4	3.8	1.49e+00	0	27	104	0	72	23539
2026-01-11 02:38:16.06	253.36	11.15	-53.5	-69.4	3.8	1.49e+00	0	26	104	0	72	23540
2026-01-11 02:38:16.77	253.31	11.09	-53.5	-69.5	3.8	1.49e+00	0	26	104	0	72	23584
2026-01-11 02:38:18.06	253.22	10.98	-53.5	-69.4	3.8	1.49e+00	0	26	104	0	72	23571
2026-01-11 02:38:18.77	253.17	10.92	-53.5	-69.4	3.8	1.49e+00	0	26	104	0	72	23548
2026-01-11 02:38:20.07	253.08	10.81	-53.5	-69.5	3.8	1.49e+00	0	26	104	0	72	23598
2026-01-11 02:38:20.78	253.03	10.76	-53.5	-69.4	3.8	1.49e+00	0	26	104	0	72	23541
2026-01-11 02:38:22.08	252.94	10.65	-53.5	-69.4	3.8	1.49e+00	0	26	104	0	72	23559
2026-01-11 02:38:22.80	252.89	10.59	-53.5	-69.5	3.8	1.49e+00	0	26	104	0	72	23669
2026-01-11 02:38:24.09	252.81	10.48	-53.5	-69.4	3.8	1.49e+00	0	26	104	0	72	23578
2026-01-11 02:38:24.79	252.76	10.42	-53.5	-69.4	3.8	1.49e+00	0	26	104	0	72	23552
2026-01-11 02:38:26.10	252.67	10.32	-53.5	-69.4	3.8	1.49e+00	0	26	104	0	72	23541
2026-01-11 02:38:26.82	252.62	10.26	-53.5	-69.4	3.8	1.49e+00	0	26	104	0	72	23579
2026-01-11 02:38:28.11	252.54	10.15	-53.5	-69.5	3.8	1.49e+00	0	26	104	0	72	23607
2026-01-11 02:38:28.83	252.49	10.09	-53.5	-69.5	3.8	1.49e+00	0	26	104	0	72	23593
2026-01-11 02:38:30.12	252.41	9.99	-53.5	-69.5	3.8	1.49e+00	0	26	104	0	72	23589
2026-01-11 02:38:30.83	252.36	9.93	-53.5	-69.4	3.8	1.49e+00	0	26	104	0	72	23567
2026-01-11 02:38:32.14	252.28	9.82	-53.5	-69.4	3.8	1.49e+00	0	26	104	0	72	23538
2026-01-11 02:38:32.85	252.23	9.77	-53.5	-69.4	3.8	1.49e+00	0	26	104	0	72	23542
2026-01-11 02:38:34.15	252.15	9.66	-53.5	-69.5	3.8	1.49e+00	0	26	104	0	72	23606
2026-01-11 02:38:34.86	252.10	9.61	-53.5	-69.5	3.8	1.49e+00	0	26	104	0	72	23587
2026-01-11 02:38:36.15	252.02	9.50	-53.5	-69.5	3.8	1.49e+00	0	26	104	0	72	23615
2026-01-11 02:38:36.86	251.98	9.45	-53.5	-69.5	3.8	1.49e+00	0	26	104	0	72	23611
2026-01-11 02:38:38.15	251.90	9.34	-53.5	-69.5	3.8	1.49e+00	0	26	104	0	72	23586
2026-01-11 02:38:38.88	251.85	9.29	-53.5	-69.4	3.8	1.49e+00	0	26	104	0	72	23571
2026-01-11 02:38:40.16	251.77	9.18	-53.5	-69.5	3.8	1.49e+00	0	27	104	0	72	23609
2026-01-11 02:38:40.88	251.73	9.13	-53.5	-69.5	3.8	1.49e+00	0	27	104	0	72	23595
2026-01-11 02:38:42.17	251.65	9.03	-53.5	-69.4	3.8	1.49e+00	0	26	104	0	72	23510
2026-01-11 02:38:42.88	251.61	8.97	-53.5	-69.4	3.8	1.49e+00	0	26	104	0	72	23550
2026-01-11 02:38:44.17	251.53	8.87	-53.5	-69.5	3.8	1.49e+00	0	26	104	0	72	23590
2026-01-11 02:38:44.88	251.49	8.81	-53.5	-69.4	3.8	1.49e+00	0	26	104	0	72	23509
2026-01-11 02:38:46.16	251.41	8.72	-53.5	-69.4	3.8	1.49e+00	0	26	104	0	72	23564
2026-01-11 02:38:46.88	251.37	8.66	-53.5	-69.4	3.8	1.49e+00	0	26	104	0	72	23580
2026-01-11 02:38:48.16	251.29	8.56	-53.5	-69.4	3.8	1.49e+00	0	26	104	0	72	23568
2026-01-11 02:38:48.88	251.25	8.51	-53.5	-69.4	3.8	1.49e+00	0	26	104	0	72	23558
2026-01-11 02:38:50.16	251.18	8.41	-53.5	-69.4	3.8	1.49e+00	0	26	104	0	72	23561
2026-01-11 02:38:50.88	251.14	8.35	-53.5	-69.4	3.8	1.49e+00	0	26	104	0	72	23553
2026-01-11 02:38:52.17	251.06	8.25	-53.5	-69.5	3.8	1.49e+00	0	26	104	0	72	23593
2026-01-11 02:38:52.89	251.02	8.20	-53.5	-69.4	3.8	1.49e+00	0	26	104	0	72	23571
2026-01-11 02:38:54.18	250.95	8.10	-53.5	-69.5	3.8	1.49e+00	0	26	104	0	72	23590
2026-01-11 02:38:54.89	250.91	8.05	-53.5	-69.4	3.8	1.49e+00	0	26	104	0	72	23558
