passes_logs/2026/01/11/R3.2S_Murmansk/R3.2S_Murmansk__20260111_115610_NOAA_21_JPSS-2_rec.log

#Pass ID: 20260111_115610_NOAA 21 (JPSS-2)
#Satellite: NOAA 21 (JPSS-2)
#Configuration: NOAA-21
#almurnet v.1.7.20251203
#Start time: 2026-01-11 11:57:58

#Version: 2.2.20231116
#Station: R3.2S_Murmansk
#Location: 33.079688 lon 68.888172 lat
#TLE: 1 54234U 22150A   26010.92456470  .00000095  00000+0  65865-4 0  9991
#TLE: 2 54234  98.7494 311.8737 0000784 316.5119  43.5995 14.19533975164234

#Time	Az	El	Level	Level2	SNR	BER	BlckErr	Temp	State	Recorded	gain1	gain2
2026-01-11 11:57:58.43	222.16	8.37	-59.6	-72.6	3.8	8.46e-01	0	23	0	0	84	17018
2026-01-11 11:57:59.42	222.27	8.44	-59.7	-73.5	3.8	1.49e+00	0	23	104	0	84	18889
2026-01-11 11:58:00.43	222.38	8.50	-59.7	-73.5	3.8	1.49e+00	0	23	104	0	84	18878
2026-01-11 11:58:01.44	222.48	8.57	-59.6	-73.5	3.8	1.49e+00	0	23	104	0	84	18770
2026-01-11 11:58:02.45	222.59	8.63	-59.6	-73.4	3.8	1.49e+00	0	23	104	0	84	18639
2026-01-11 11:58:03.46	222.70	8.69	-59.6	-73.4	3.8	1.49e+00	0	23	104	0	84	18661
2026-01-11 11:58:04.47	222.82	8.76	-59.5	-73.3	3.8	1.49e+00	0	23	104	0	84	18465
2026-01-11 11:58:05.47	222.93	8.82	-59.5	-73.3	3.8	1.49e+00	0	23	104	0	84	18343
2026-01-11 11:58:06.48	223.04	8.89	-59.5	-73.3	3.8	1.49e+00	0	23	104	0	84	18396
2026-01-11 11:58:07.49	223.15	8.95	-59.4	-73.2	3.8	1.49e+00	0	23	104	0	84	18207
2026-01-11 11:58:08.49	223.26	9.02	-59.4	-73.2	3.8	1.49e+00	0	23	104	0	84	18097
2026-01-11 11:58:09.51	223.38	9.08	-59.3	-73.1	3.8	1.49e+00	0	23	104	0	84	18043
2026-01-11 11:58:10.52	223.49	9.15	-59.3	-73.1	3.8	1.49e+00	0	23	104	0	84	17928
2026-01-11 11:58:11.52	223.60	9.21	-59.2	-73.0	3.8	1.49e+00	0	23	104	0	84	17814
2026-01-11 11:58:12.53	223.72	9.28	-59.1	-73.0	3.8	1.49e+00	0	23	104	0	84	17686
2026-01-11 11:58:13.54	223.83	9.34	-59.0	-72.8	3.8	1.49e+00	0	23	104	0	84	17383
2026-01-11 11:58:14.55	223.95	9.41	-58.8	-72.7	3.8	1.49e+00	0	23	104	0	84	17143
2026-01-11 11:58:15.57	224.06	9.47	-58.7	-72.4	3.8	1.49e+00	0	23	104	0	84	16593
2026-01-11 11:58:16.58	224.18	9.54	-58.5	-72.3	3.8	1.49e+00	0	23	104	0	83	17341
2026-01-11 11:58:17.58	224.30	9.60	-58.5	-72.2	3.8	1.49e+00	0	23	104	0	83	17248
2026-01-11 11:58:18.60	224.42	9.67	-58.5	-72.2	3.8	1.49e+00	0	23	104	0	83	17252
2026-01-11 11:58:19.61	224.53	9.73	-58.5	-72.1	3.8	1.49e+00	0	23	104	0	83	17038
2026-01-11 11:58:20.61	224.65	9.80	-58.5	-72.1	3.8	1.49e+00	0	23	104	0	83	16996
2026-01-11 11:58:21.63	224.77	9.86	-58.5	-72.0	3.8	1.49e+00	0	23	104	0	83	16817
2026-01-11 11:58:22.63	224.89	9.93	-58.5	-72.1	3.8	1.49e+00	0	23	104	0	83	17080
2026-01-11 11:58:23.64	225.01	10.00	-58.5	-72.2	3.8	1.49e+00	0	23	104	0	83	17181
2026-01-11 11:58:24.65	225.13	10.06	-58.5	-72.2	3.8	1.49e+00	0	23	104	0	83	17172
2026-01-11 11:58:25.66	225.25	10.13	-58.5	-72.1	3.8	1.49e+00	0	23	104	0	83	17041
2026-01-11 11:58:26.67	225.37	10.19	-58.5	-72.1	3.8	1.49e+00	0	23	104	0	83	16940
2026-01-11 11:58:27.67	225.50	10.26	-58.5	-72.2	3.8	1.49e+00	0	23	104	0	83	17105
2026-01-11 11:58:28.68	225.62	10.32	-58.5	-72.2	3.8	1.49e+00	0	23	104	0	83	17199
2026-01-11 11:58:29.69	225.74	10.39	-58.5	-72.2	3.8	1.49e+00	0	23	104	0	83	17161
2026-01-11 11:58:30.70	225.87	10.46	-58.5	-72.2	3.8	1.49e+00	0	23	104	0	83	17142
2026-01-11 11:58:31.71	225.99	10.52	-58.5	-72.0	3.8	1.49e+00	0	23	104	0	83	16846
2026-01-11 11:58:32.72	226.11	10.59	-58.5	-72.1	3.8	1.49e+00	0	23	104	0	83	17004
2026-01-11 11:58:33.73	226.24	10.66	-58.5	-72.0	3.8	1.49e+00	0	23	104	0	83	16869
2026-01-11 11:58:34.74	226.37	10.72	-58.5	-72.0	3.8	1.49e+00	0	23	104	0	83	16719
2026-01-11 11:58:35.75	226.49	10.79	-58.5	-71.8	3.8	1.49e+00	0	23	104	0	83	16331
2026-01-11 11:58:36.75	226.62	10.85	-58.4	-71.8	3.8	1.49e+00	0	23	104	0	83	16363
2026-01-11 11:58:37.76	226.75	10.92	-58.4	-71.7	3.8	1.49e+00	0	23	104	0	83	16162
2026-01-11 11:58:38.77	226.87	10.99	-58.4	-71.4	3.8	1.49e+00	0	23	104	0	83	15727
2026-01-11 11:58:39.78	227.00	11.05	-58.3	-71.1	3.8	1.49e+00	0	23	104	0	83	15161
2026-01-11 11:58:40.79	227.13	11.12	-58.3	-70.9	3.8	1.49e+00	0	23	104	0	83	14823
2026-01-11 11:58:41.80	227.26	11.19	-58.4	-71.4	3.8	1.49e+00	0	23	104	0	83	15661
2026-01-11 11:58:42.81	227.39	11.26	-58.5	-72.2	3.8	1.49e+00	0	23	104	0	83	17128
2026-01-11 11:58:43.82	227.52	11.32	-58.4	-71.7	3.8	1.49e+00	0	23	104	0	83	16141
2026-01-11 11:58:44.83	227.66	11.39	-58.2	-68.3	4.0	1.48e+00	0	23	104	0	83	10920
2026-01-11 11:58:45.84	227.79	11.46	-57.7	-65.2	5.8	5.24e-01	0	23	0	1048576	82	8133
2026-01-11 11:58:46.84	227.92	11.52	-57.2	-63.2	7.3	1.22e-01	0	23	0	3145728	81	6843
2026-01-11 11:58:47.85	228.05	11.59	-56.8	-61.8	8.5	3.32e-02	0	23	0	6291456	80	6194
2026-01-11 11:58:48.86	228.19	11.66	-56.3	-60.6	9.6	6.70e-03	0	23	0	9437184	79	5684
2026-01-11 11:58:49.87	228.32	11.72	-55.3	-58.7	11.1	8.87e-04	0	23	0	12582912	77	5133
2026-01-11 11:58:50.88	228.46	11.79	-53.8	-56.2	12.9	3.00e-06	0	23	0	15728640	74	4563
2026-01-11 11:58:51.88	228.59	11.86	-52.2	-54.0	14.0	0.00e+00	0	23	0	19922944	71	4231
2026-01-11 11:58:52.89	228.73	11.93	-51.5	-53.3	14.2	0.00e+00	0	23	0	23068672	69	4351
2026-01-11 11:58:53.90	228.86	11.99	-57.1	-63.1	7.4	4.83e-03	0	23	0	26214400	79	7579
2026-01-11 11:58:54.91	229.00	12.06	-53.1	-55.3	13.2	0.00e+00	0	23	0	28311552	71	4894
2026-01-11 11:58:55.92	229.14	12.13	-55.6	-59.2	10.7	1.50e-06	0	23	0	31457280	76	5764
2026-01-11 11:58:56.93	229.28	12.20	-48.9	-50.2	15.2	0.00e+00	0	23	0	34603008	64	4072
2026-01-11 11:58:57.94	229.42	12.26	-48.8	-50.1	15.2	0.00e+00	0	23	0	38797312	64	4036
2026-01-11 11:58:58.94	229.56	12.33	-49.0	-50.3	15.1	0.00e+00	0	23	0	41943040	64	4115
2026-01-11 11:58:59.95	229.70	12.40	-48.8	-50.1	15.2	0.00e+00	0	23	0	45088768	64	4026
2026-01-11 11:59:00.96	229.84	12.47	-48.8	-50.2	15.1	0.00e+00	0	23	0	48234496	64	4058
2026-01-11 11:59:01.97	229.98	12.53	-48.7	-50.0	15.2	0.00e+00	0	23	0	51380224	64	3993
2026-01-11 11:59:02.98	230.12	12.60	-48.7	-50.0	15.2	0.00e+00	0	23	0	54525952	64	3985
2026-01-11 11:59:03.99	230.27	12.67	-48.8	-50.1	15.2	0.00e+00	0	23	0	57671680	64	4051
2026-01-11 11:59:04.99	230.41	12.74	-48.8	-50.0	15.2	0.00e+00	0	23	0	60817408	64	4004
2026-01-11 11:59:06.01	230.55	12.80	-48.8	-50.1	15.2	0.00e+00	0	23	0	63963136	64	4012
2026-01-11 11:59:07.01	230.70	12.87	-48.6	-49.9	15.2	0.00e+00	0	23	0	67108864	63	4156
2026-01-11 11:59:08.02	230.84	12.94	-48.6	-49.9	15.1	0.00e+00	0	23	0	70254592	63	4157
2026-01-11 11:59:09.03	230.99	13.01	-48.6	-49.9	15.2	0.00e+00	0	23	0	73400320	63	4151
2026-01-11 11:59:10.04	231.14	13.08	-48.7	-50.0	15.1	0.00e+00	0	23	0	76546048	63	4209
2026-01-11 11:59:11.05	231.28	13.14	-48.6	-49.9	15.1	0.00e+00	0	24	0	79691776	63	4185
2026-01-11 11:59:12.06	231.43	13.21	-48.6	-49.9	15.1	0.00e+00	0	23	0	82837504	63	4171
2026-01-11 11:59:13.07	231.58	13.28	-48.7	-50.0	15.1	0.00e+00	0	23	0	85983232	63	4218
2026-01-11 11:59:14.08	231.73	13.35	-48.7	-50.0	15.1	0.00e+00	0	23	0	89128960	63	4239
2026-01-11 11:59:15.09	231.88	13.42	-48.7	-50.0	15.1	0.00e+00	0	23	0	92274688	63	4214
2026-01-11 11:59:16.10	232.03	13.48	-48.8	-50.1	15.0	0.00e+00	0	23	0	95420416	63	4265
2026-01-11 11:59:17.11	232.18	13.55	-48.8	-50.1	15.0	0.00e+00	0	23	0	98566144	63	4287
2026-01-11 11:59:18.11	232.34	13.62	-48.8	-50.1	15.1	0.00e+00	0	23	0	101711872	63	4257
2026-01-11 11:59:19.12	232.49	13.69	-48.8	-50.1	15.0	0.00e+00	0	23	0	104857600	63	4291
2026-01-11 11:59:20.13	232.64	13.75	-48.8	-50.1	15.1	0.00e+00	0	23	0	108003328	63	4252
2026-01-11 11:59:21.14	232.80	13.82	-48.7	-50.0	15.1	0.00e+00	0	23	0	111149056	63	4202
2026-01-11 11:59:22.15	232.95	13.89	-48.6	-49.9	15.1	0.00e+00	0	23	0	114294784	63	4187
2026-01-11 11:59:23.16	233.11	13.96	-48.7	-50.0	15.1	0.00e+00	0	23	0	117440512	63	4239
2026-01-11 11:59:24.17	233.26	14.03	-48.8	-50.1	15.1	0.00e+00	0	23	0	120586240	63	4267
2026-01-11 11:59:25.17	233.42	14.09	-48.9	-50.2	15.0	0.00e+00	0	23	0	123731968	63	4308
2026-01-11 11:59:26.18	233.58	14.16	-48.7	-50.0	15.1	0.00e+00	0	23	0	126877696	63	4234
2026-01-11 11:59:27.19	233.74	14.23	-48.8	-50.1	15.0	0.00e+00	0	23	0	130023424	63	4269
2026-01-11 11:59:28.20	233.89	14.30	-48.9	-50.2	15.0	0.00e+00	0	23	0	133169152	63	4314
2026-01-11 11:59:29.21	234.05	14.37	-48.8	-50.1	15.0	0.00e+00	0	23	0	136314880	63	4277
2026-01-11 11:59:30.22	234.21	14.43	-48.7	-50.0	15.1	0.00e+00	0	23	0	139460608	63	4225
2026-01-11 11:59:31.23	234.38	14.50	-48.7	-50.0	15.1	0.00e+00	0	23	0	142606336	63	4239
2026-01-11 11:59:32.24	234.54	14.57	-48.7	-50.0	15.1	0.00e+00	0	24	0	145752064	63	4198
2026-01-11 11:59:33.25	234.70	14.64	-48.6	-49.9	15.2	0.00e+00	0	23	0	148897792	63	4185
2026-01-11 11:59:34.25	234.86	14.70	-48.8	-50.1	15.1	0.00e+00	0	23	0	152043520	63	4248
2026-01-11 11:59:35.26	235.03	14.77	-48.7	-50.0	15.1	0.00e+00	0	23	0	155189248	63	4224
2026-01-11 11:59:36.27	235.19	14.84	-48.7	-50.0	15.1	0.00e+00	0	23	0	158334976	63	4238
2026-01-11 11:59:37.28	235.36	14.91	-48.6	-49.9	15.2	0.00e+00	0	23	0	161480704	63	4156
2026-01-11 11:59:38.29	235.52	14.98	-48.6	-49.9	15.2	0.00e+00	0	23	0	164626432	63	4172
2026-01-11 11:59:39.29	235.69	15.04	-48.5	-49.8	15.2	0.00e+00	0	23	0	167772160	63	4140
2026-01-11 11:59:40.30	235.86	15.11	-48.5	-49.8	15.2	0.00e+00	0	23	0	170917888	63	4133
2026-01-11 11:59:41.31	236.03	15.18	-48.6	-49.9	15.2	0.00e+00	0	23	0	174063616	63	4161
2026-01-11 11:59:42.32	236.19	15.25	-48.6	-49.9	15.2	0.00e+00	0	23	0	177209344	63	4192
2026-01-11 11:59:43.33	236.36	15.31	-48.7	-49.9	15.1	0.00e+00	0	23	0	180355072	63	4188
2026-01-11 11:59:44.34	236.54	15.38	-48.6	-49.9	15.2	0.00e+00	0	23	0	183500800	63	4169
2026-01-11 11:59:45.35	236.71	15.45	-48.6	-49.9	15.1	0.00e+00	0	23	0	186646528	63	4183
2026-01-11 11:59:46.36	236.88	15.52	-48.7	-49.9	15.1	0.00e+00	0	23	0	189792256	63	4191
2026-01-11 11:59:47.37	237.05	15.58	-48.6	-49.9	15.2	0.00e+00	0	23	0	192937984	63	4175
2026-01-11 11:59:48.37	237.22	15.65	-48.6	-49.9	15.2	0.00e+00	0	23	0	196083712	63	4167
2026-01-11 11:59:49.39	237.40	15.72	-48.6	-49.9	15.2	0.00e+00	0	23	0	199229440	63	4170
2026-01-11 11:59:50.40	237.58	15.78	-48.5	-49.8	15.2	0.00e+00	0	23	0	202375168	63	4109
2026-01-11 11:59:51.40	237.75	15.85	-48.5	-49.7	15.3	0.00e+00	0	23	0	205520896	63	4080
2026-01-11 11:59:52.41	237.93	15.92	-48.5	-49.8	15.2	0.00e+00	0	23	0	208666624	63	4123
2026-01-11 11:59:53.42	238.10	15.99	-48.6	-49.8	15.2	0.00e+00	0	23	0	211812352	63	4142
2026-01-11 11:59:54.43	238.28	16.05	-48.5	-49.8	15.2	0.00e+00	0	23	0	214958080	63	4128
2026-01-11 11:59:55.44	238.46	16.12	-48.5	-49.8	15.2	0.00e+00	0	23	0	218103808	63	4117
2026-01-11 11:59:56.45	238.64	16.19	-48.5	-49.7	15.2	0.00e+00	0	23	0	221249536	63	4093
2026-01-11 11:59:57.46	238.82	16.25	-48.5	-49.8	15.2	0.00e+00	0	23	0	224395264	63	4100
2026-01-11 11:59:58.47	239.00	16.32	-48.3	-49.6	15.3	0.00e+00	0	23	0	227540992	63	4024
2026-01-11 11:59:59.47	239.18	16.38	-48.4	-49.7	15.3	0.00e+00	0	23	0	230686720	63	4055
2026-01-11 12:00:00.48	239.37	16.45	-48.3	-49.5	15.4	0.00e+00	0	23	0	233832448	63	3977
2026-01-11 12:00:01.49	239.55	16.52	-48.2	-49.5	15.4	0.00e+00	0	23	0	236978176	63	3966
2026-01-11 12:00:02.50	239.74	16.58	-48.4	-49.6	15.3	0.00e+00	0	23	0	240123904	63	4040
2026-01-11 12:00:03.51	239.92	16.65	-48.3	-49.6	15.3	0.00e+00	0	23	0	243269632	63	4020
2026-01-11 12:00:04.51	240.11	16.71	-48.3	-49.6	15.3	0.00e+00	0	23	0	246415360	63	4006
2026-01-11 12:00:05.53	240.29	16.78	-48.2	-49.4	15.4	0.00e+00	0	23	0	249561088	63	3955
2026-01-11 12:00:06.54	240.48	16.85	-48.3	-49.6	15.3	0.00e+00	0	23	0	252706816	63	4018
2026-01-11 12:00:07.55	240.67	16.91	-48.3	-49.5	15.3	0.00e+00	0	23	0	255852544	63	3988
2026-01-11 12:00:08.55	240.86	16.98	-48.2	-49.5	15.4	0.00e+00	0	23	0	258998272	63	3968
2026-01-11 12:00:09.55	241.05	17.04	-48.2	-49.5	15.4	0.00e+00	0	23	0	262144000	63	3964
2026-01-11 12:00:10.57	241.24	17.11	-48.2	-49.5	15.4	0.00e+00	0	23	0	265289728	63	3963
2026-01-11 12:00:11.58	241.43	17.17	-48.3	-49.5	15.3	0.00e+00	0	23	0	268435456	63	3990
2026-01-11 12:00:12.59	241.62	17.24	-48.3	-49.5	15.3	0.00e+00	0	23	0	271581184	63	4003
2026-01-11 12:00:13.59	241.81	17.30	-48.3	-49.5	15.3	0.00e+00	0	23	0	274726912	63	3982
2026-01-11 12:00:14.61	242.01	17.37	-48.3	-49.5	15.4	0.00e+00	0	23	0	277872640	63	3976
2026-01-11 12:00:15.61	242.20	17.43	-48.3	-49.5	15.3	0.00e+00	0	23	0	281018368	63	3994
2026-01-11 12:00:16.62	242.40	17.50	-48.3	-49.5	15.4	0.00e+00	0	23	0	284164096	63	3984
2026-01-11 12:00:17.63	242.60	17.56	-48.4	-49.7	15.3	0.00e+00	0	23	0	287309824	63	4053
2026-01-11 12:00:18.64	242.79	17.62	-48.4	-49.6	15.3	0.00e+00	0	23	0	290455552	63	4047
2026-01-11 12:00:19.65	242.99	17.69	-48.4	-49.6	15.3	0.00e+00	0	23	0	293601280	63	4032
2026-01-11 12:00:20.66	243.19	17.75	-48.5	-49.7	15.3	0.00e+00	0	23	0	296747008	63	4080
2026-01-11 12:00:21.67	243.39	17.82	-48.4	-49.7	15.3	0.00e+00	0	23	0	299892736	63	4076
2026-01-11 12:00:22.68	243.59	17.88	-48.5	-49.7	15.3	0.00e+00	0	23	0	303038464	63	4081
2026-01-11 12:00:23.68	243.79	17.94	-48.5	-49.8	15.2	0.00e+00	0	23	0	306184192	63	4110
2026-01-11 12:00:24.68	243.99	18.00	-48.4	-49.6	15.3	0.00e+00	0	23	0	309329920	63	4040
2026-01-11 12:00:25.69	244.19	18.07	-48.4	-49.7	15.3	0.00e+00	0	23	0	312475648	63	4061
2026-01-11 12:00:26.70	244.40	18.13	-48.4	-49.7	15.3	0.00e+00	0	23	0	315621376	63	4058
2026-01-11 12:00:27.71	244.60	18.19	-48.3	-49.6	15.3	0.00e+00	0	23	0	318767104	63	4026
2026-01-11 12:00:28.71	244.81	18.25	-48.3	-49.6	15.3	0.00e+00	0	23	0	321912832	63	4020
2026-01-11 12:00:29.72	245.01	18.32	-48.3	-49.5	15.3	0.00e+00	0	23	0	325058560	63	4004
2026-01-11 12:00:30.73	245.22	18.38	-48.3	-49.5	15.4	0.00e+00	0	23	0	328204288	63	3984
2026-01-11 12:00:31.74	245.43	18.44	-48.3	-49.5	15.4	0.00e+00	0	23	0	331350016	63	3993
2026-01-11 12:00:32.75	245.64	18.50	-48.4	-49.6	15.3	0.00e+00	0	23	0	334495744	63	4027
2026-01-11 12:00:33.75	245.84	18.56	-48.4	-49.7	15.3	0.00e+00	0	23	0	337641472	63	4067
2026-01-11 12:00:34.76	246.05	18.62	-48.5	-49.7	15.3	0.00e+00	0	23	0	340787200	63	4077
2026-01-11 12:00:35.77	246.26	18.68	-48.5	-49.7	15.3	0.00e+00	0	23	0	343932928	63	4088
2026-01-11 12:00:36.78	246.48	18.75	-48.5	-49.8	15.2	0.00e+00	0	23	0	347078656	63	4109
2026-01-11 12:00:37.79	246.69	18.81	-48.5	-49.7	15.3	0.00e+00	0	23	0	350224384	63	4090
2026-01-11 12:00:38.79	246.90	18.87	-48.6	-49.8	15.2	0.00e+00	0	23	0	353370112	63	4139
2026-01-11 12:00:39.79	247.11	18.92	-48.6	-49.9	15.2	0.00e+00	0	23	0	356515840	63	4157
2026-01-11 12:00:40.81	247.33	18.98	-48.7	-50.0	15.1	0.00e+00	0	23	0	359661568	63	4202
2026-01-11 12:00:41.81	247.54	19.04	-48.7	-50.0	15.2	0.00e+00	0	23	0	362807296	63	4207
2026-01-11 12:00:42.82	247.76	19.10	-48.6	-49.9	15.2	0.00e+00	0	23	0	365953024	63	4156
2026-01-11 12:00:43.83	247.98	19.16	-48.6	-49.8	15.2	0.00e+00	0	23	0	369098752	63	4130
2026-01-11 12:00:44.84	248.20	19.22	-48.6	-49.9	15.2	0.00e+00	0	23	0	372244480	63	4163
2026-01-11 12:00:45.85	248.42	19.28	-48.7	-50.0	15.1	0.00e+00	0	23	0	375390208	63	4200
2026-01-11 12:00:46.86	248.64	19.34	-48.5	-49.8	15.2	0.00e+00	0	23	0	378535936	63	4119
2026-01-11 12:00:47.87	248.86	19.39	-48.5	-49.8	15.2	0.00e+00	0	23	0	381681664	63	4114
2026-01-11 12:00:48.87	249.08	19.45	-48.6	-49.8	15.2	0.00e+00	0	23	0	384827392	63	4142
2026-01-11 12:00:49.88	249.30	19.51	-48.7	-50.0	15.1	0.00e+00	0	23	0	387973120	63	4198
2026-01-11 12:00:50.88	249.52	19.57	-48.7	-49.9	15.2	0.00e+00	0	23	0	391118848	63	4189
2026-01-11 12:00:51.89	249.75	19.62	-48.7	-50.0	15.1	0.00e+00	0	23	0	394264576	63	4219
2026-01-11 12:00:52.90	249.97	19.68	-48.7	-50.0	15.1	0.00e+00	0	23	0	397410304	63	4226
2026-01-11 12:00:53.90	250.19	19.73	-48.7	-50.0	15.1	0.00e+00	0	23	0	400556032	63	4237
2026-01-11 12:00:54.91	250.42	19.79	-48.6	-49.9	15.2	0.00e+00	0	23	0	403701760	63	4181
2026-01-11 12:00:55.92	250.65	19.85	-48.5	-49.8	15.2	0.00e+00	0	23	0	406847488	63	4123
2026-01-11 12:00:56.93	250.88	19.90	-48.5	-49.8	15.2	0.00e+00	0	23	0	409993216	63	4125
2026-01-11 12:00:57.94	251.11	19.95	-48.5	-49.8	15.2	0.00e+00	0	23	0	413138944	63	4103
2026-01-11 12:00:58.95	251.34	20.01	-48.4	-49.6	15.3	0.00e+00	0	23	0	416284672	63	4050
2026-01-11 12:00:59.96	251.57	20.06	-48.5	-49.7	15.3	0.00e+00	0	23	0	419430400	63	4088
2026-01-11 12:01:00.97	251.80	20.12	-48.5	-49.7	15.2	0.00e+00	0	23	0	422576128	63	4087
2026-01-11 12:01:01.98	252.03	20.17	-48.5	-49.7	15.2	0.00e+00	0	23	0	425721856	63	4098
2026-01-11 12:01:02.99	252.26	20.22	-48.5	-49.8	15.2	0.00e+00	0	23	0	428867584	63	4124
2026-01-11 12:01:03.99	252.49	20.28	-48.5	-49.8	15.2	0.00e+00	0	23	0	432013312	63	4123
2026-01-11 12:01:05.00	252.73	20.33	-48.6	-49.8	15.2	0.00e+00	0	23	0	435159040	63	4134
2026-01-11 12:01:06.01	252.96	20.38	-48.5	-49.7	15.2	0.00e+00	0	23	0	438304768	63	4094
2026-01-11 12:01:07.02	253.20	20.43	-48.5	-49.7	15.2	0.00e+00	0	23	0	441450496	63	4091
2026-01-11 12:01:08.03	253.44	20.48	-48.3	-49.5	15.4	0.00e+00	0	23	0	444596224	63	3996
2026-01-11 12:01:09.03	253.67	20.53	-48.3	-49.5	15.4	0.00e+00	0	23	0	447741952	63	3970
2026-01-11 12:01:10.04	253.91	20.58	-48.3	-49.5	15.4	0.00e+00	0	23	0	450887680	63	3970
2026-01-11 12:01:11.04	254.15	20.63	-48.2	-49.4	15.4	0.00e+00	0	23	0	454033408	63	3948
2026-01-11 12:01:12.05	254.39	20.68	-48.2	-49.4	15.4	0.00e+00	0	23	0	457179136	63	3954
2026-01-11 12:01:13.06	254.63	20.73	-48.2	-49.5	15.4	0.00e+00	0	23	0	460324864	63	3965
2026-01-11 12:01:14.08	254.87	20.78	-48.3	-49.5	15.4	0.00e+00	0	23	0	463470592	63	3988
2026-01-11 12:01:15.09	255.11	20.83	-48.3	-49.5	15.4	0.00e+00	0	23	0	466616320	63	4002
2026-01-11 12:01:16.10	255.36	20.88	-48.3	-49.5	15.4	0.00e+00	0	23	0	469762048	63	3986
2026-01-11 12:01:17.11	255.60	20.93	-48.3	-49.5	15.4	0.00e+00	0	23	0	472907776	63	3993
2026-01-11 12:01:18.12	255.84	20.97	-48.1	-49.4	15.3	0.00e+00	0	23	0	476053504	62	4148
2026-01-11 12:01:19.12	256.09	21.02	-48.2	-49.4	15.3	0.00e+00	0	23	0	479199232	62	4166
2026-01-11 12:01:20.13	256.33	21.07	-48.1	-49.2	15.3	0.00e+00	0	23	0	482344960	62	4097
2026-01-11 12:01:21.14	256.58	21.11	-48.0	-49.2	15.3	0.00e+00	0	23	0	485490688	62	4098
2026-01-11 12:01:22.15	256.83	21.16	-48.1	-49.3	15.3	0.00e+00	0	23	0	488636416	62	4131
2026-01-11 12:01:23.16	257.07	21.20	-48.1	-49.3	15.3	0.00e+00	0	23	0	491782144	62	4134
2026-01-11 12:01:24.16	257.32	21.25	-48.1	-49.4	15.3	0.00e+00	0	23	0	494927872	62	4155
2026-01-11 12:01:25.17	257.57	21.29	-48.2	-49.4	15.2	0.00e+00	0	23	0	498073600	62	4187
2026-01-11 12:01:26.18	257.82	21.33	-48.2	-49.4	15.3	0.00e+00	0	23	0	501219328	62	4160
2026-01-11 12:01:27.19	258.07	21.38	-48.2	-49.4	15.3	0.00e+00	0	23	0	504365056	62	4162
2026-01-11 12:01:28.20	258.32	21.42	-48.0	-49.2	15.4	0.00e+00	0	23	0	507510784	62	4065
2026-01-11 12:01:29.20	258.57	21.46	-48.0	-49.2	15.3	0.00e+00	0	23	0	510656512	62	4087
2026-01-11 12:01:30.22	258.82	21.50	-48.2	-49.4	15.3	0.00e+00	0	23	0	513802240	62	4176
2026-01-11 12:01:31.23	259.08	21.54	-48.1	-49.3	15.3	0.00e+00	0	23	0	516947968	62	4120
2026-01-11 12:01:32.23	259.33	21.58	-48.3	-49.5	15.2	0.00e+00	0	23	0	520093696	62	4225
2026-01-11 12:01:33.24	259.58	21.63	-48.3	-49.6	15.2	0.00e+00	0	23	0	523239424	62	4244
2026-01-11 12:01:34.25	259.84	21.66	-48.3	-49.5	15.2	0.00e+00	0	23	0	526385152	62	4223
2026-01-11 12:01:35.26	260.09	21.70	-48.3	-49.6	15.2	0.00e+00	0	23	0	529530880	62	4250
2026-01-11 12:01:36.27	260.35	21.74	-48.1	-49.4	15.3	0.00e+00	0	23	0	532676608	62	4150
2026-01-11 12:01:37.28	260.61	21.78	-48.0	-49.2	15.4	0.00e+00	0	23	0	535822336	62	4063
2026-01-11 12:01:38.28	260.86	21.82	-47.9	-49.1	15.4	0.00e+00	0	23	0	538968064	62	4039
2026-01-11 12:01:39.29	261.12	21.86	-47.9	-49.1	15.4	0.00e+00	0	23	0	542113792	62	4038
2026-01-11 12:01:40.29	261.38	21.89	-47.9	-49.1	15.4	0.00e+00	0	23	0	545259520	62	4031
2026-01-11 12:01:41.30	261.64	21.93	-48.0	-49.3	15.3	0.00e+00	0	23	0	548405248	62	4101
2026-01-11 12:01:42.31	261.90	21.96	-48.1	-49.4	15.3	0.00e+00	0	23	0	551550976	62	4154
2026-01-11 12:01:43.32	262.16	22.00	-48.2	-49.4	15.3	0.00e+00	0	23	0	554696704	62	4186
2026-01-11 12:01:44.33	262.42	22.03	-48.2	-49.4	15.3	0.00e+00	0	23	0	557842432	62	4171
2026-01-11 12:01:45.34	262.68	22.07	-48.2	-49.4	15.3	0.00e+00	0	23	0	560988160	62	4168
2026-01-11 12:01:46.35	262.94	22.10	-48.1	-49.3	15.3	0.00e+00	0	23	0	564133888	62	4103
2026-01-11 12:01:47.36	263.20	22.13	-47.9	-49.1	15.4	0.00e+00	0	23	0	567279616	62	4022
2026-01-11 12:01:48.37	263.47	22.16	-48.0	-49.2	15.4	0.00e+00	0	23	0	570425344	62	4055
2026-01-11 12:01:49.38	263.73	22.20	-47.9	-49.1	15.4	0.00e+00	0	23	0	574619648	62	4050
2026-01-11 12:01:50.39	264.00	22.23	-48.0	-49.2	15.3	0.00e+00	0	23	0	577765376	62	4085
2026-01-11 12:01:51.40	264.26	22.26	-48.0	-49.2	15.3	0.00e+00	0	23	0	580911104	62	4072
2026-01-11 12:01:52.41	264.53	22.29	-48.1	-49.3	15.3	0.00e+00	0	23	0	583008256	62	4114
2026-01-11 12:01:53.42	264.79	22.32	-48.1	-49.3	15.3	0.00e+00	0	23	0	586153984	62	4120
2026-01-11 12:01:54.42	265.06	22.34	-48.1	-49.3	15.3	0.00e+00	0	23	0	589299712	62	4120
2026-01-11 12:01:55.43	265.32	22.37	-48.0	-49.2	15.4	0.00e+00	0	23	0	593494016	62	4062
2026-01-11 12:01:56.44	265.59	22.40	-48.0	-49.2	15.3	0.00e+00	0	23	0	596639744	62	4085
2026-01-11 12:01:57.45	265.86	22.43	-48.0	-49.2	15.3	0.00e+00	0	23	0	599785472	62	4077
2026-01-11 12:01:58.46	266.13	22.45	-48.0	-49.2	15.3	0.00e+00	0	23	0	602931200	62	4088
2026-01-11 12:01:59.46	266.39	22.48	-48.0	-49.2	15.3	0.00e+00	0	23	0	605028352	62	4086
2026-01-11 12:02:00.47	266.66	22.50	-48.0	-49.2	15.3	0.00e+00	0	23	0	608174080	62	4068
2026-01-11 12:02:01.48	266.93	22.53	-47.9	-49.1	15.4	0.00e+00	0	23	0	612368384	62	4051
2026-01-11 12:02:02.49	267.20	22.55	-47.9	-49.1	15.4	0.00e+00	0	23	0	615514112	62	4039
2026-01-11 12:02:03.50	267.47	22.58	-48.0	-49.2	15.4	0.00e+00	0	23	0	618659840	62	4072
2026-01-11 12:02:04.51	267.74	22.60	-47.9	-49.1	15.4	0.00e+00	0	23	0	621805568	62	4028
2026-01-11 12:02:05.52	268.01	22.62	-48.0	-49.2	15.3	0.00e+00	0	23	0	624951296	62	4085
2026-01-11 12:02:06.53	268.28	22.64	-48.1	-49.3	15.3	0.00e+00	0	23	0	628097024	62	4139
2026-01-11 12:02:07.53	268.55	22.66	-48.2	-49.4	15.3	0.00e+00	0	23	0	631242752	62	4171
2026-01-11 12:02:08.54	268.82	22.68	-48.2	-49.4	15.2	0.00e+00	0	23	0	634388480	62	4190
2026-01-11 12:02:09.54	269.09	22.70	-48.2	-49.4	15.3	0.00e+00	0	23	0	637534208	62	4192
2026-01-11 12:02:10.55	269.37	22.72	-48.0	-49.2	15.3	0.00e+00	0	23	0	640679936	62	4074
2026-01-11 12:02:11.56	269.64	22.74	-47.9	-49.1	15.4	0.00e+00	0	23	0	643825664	62	4035
2026-01-11 12:02:12.57	269.91	22.76	-47.9	-49.1	15.4	0.00e+00	0	23	0	646971392	62	4018
2026-01-11 12:02:13.58	270.19	22.77	-47.7	-48.9	15.5	0.00e+00	0	23	0	650117120	62	3931
2026-01-11 12:02:14.59	270.46	22.79	-47.8	-49.0	15.4	0.00e+00	0	23	0	653262848	62	3994
2026-01-11 12:02:15.60	270.73	22.80	-47.9	-49.0	15.4	0.00e+00	0	23	0	656408576	62	3999
2026-01-11 12:02:16.61	271.01	22.82	-47.8	-49.0	15.5	0.00e+00	0	23	0	659554304	62	3984
2026-01-11 12:02:17.62	271.28	22.83	-47.8	-49.0	15.5	0.00e+00	0	23	0	662700032	62	3975
2026-01-11 12:02:18.63	271.56	22.85	-47.9	-49.1	15.4	0.00e+00	0	23	0	665845760	62	4028
2026-01-11 12:02:19.64	271.83	22.86	-48.1	-49.3	15.3	0.00e+00	0	23	0	668991488	62	4115
2026-01-11 12:02:20.65	272.11	22.87	-48.1	-49.3	15.3	0.00e+00	0	23	0	672137216	62	4106
2026-01-11 12:02:21.66	272.38	22.88	-48.3	-49.5	15.2	0.00e+00	0	23	0	675282944	62	4219
2026-01-11 12:02:22.67	272.66	22.89	-48.3	-49.5	15.2	0.00e+00	0	23	0	678428672	62	4218
2026-01-11 12:02:23.67	272.93	22.90	-48.1	-49.3	15.3	0.00e+00	0	23	0	681574400	62	4126
2026-01-11 12:02:24.68	273.21	22.91	-48.0	-49.2	15.3	0.00e+00	0	23	0	684720128	62	4067
2026-01-11 12:02:25.69	273.48	22.92	-48.1	-49.3	15.3	0.00e+00	0	23	0	687865856	62	4139
2026-01-11 12:02:26.69	273.76	22.93	-48.1	-49.3	15.3	0.00e+00	0	23	0	691011584	62	4117
2026-01-11 12:02:27.71	274.04	22.94	-48.2	-49.4	15.3	0.00e+00	0	23	0	694157312	62	4172
2026-01-11 12:02:28.72	274.31	22.95	-48.2	-49.4	15.3	0.00e+00	0	23	0	697303040	62	4183
2026-01-11 12:02:29.72	274.59	22.95	-48.3	-49.6	15.2	0.00e+00	0	23	0	700448768	62	4262
2026-01-11 12:02:30.73	274.86	22.96	-48.3	-49.5	15.2	0.00e+00	0	23	0	703594496	62	4226
2026-01-11 12:02:31.74	275.14	22.96	-48.1	-49.3	15.3	0.00e+00	0	23	0	706740224	62	4114
2026-01-11 12:02:32.74	275.42	22.97	-48.1	-49.3	15.3	0.00e+00	0	23	0	709885952	62	4110
2026-01-11 12:02:33.75	275.69	22.97	-48.2	-49.4	15.3	0.00e+00	0	23	0	713031680	62	4160
2026-01-11 12:02:34.76	275.97	22.97	-48.2	-49.4	15.3	0.00e+00	0	23	0	716177408	62	4172
2026-01-11 12:02:35.77	276.25	22.98	-48.2	-49.4	15.3	0.00e+00	0	23	0	719323136	62	4170
2026-01-11 12:02:36.77	276.52	22.98	-48.1	-49.4	15.3	0.00e+00	0	23	0	722468864	62	4154
2026-01-11 12:02:37.78	276.80	22.98	-48.0	-49.2	15.4	0.00e+00	0	23	0	725614592	62	4067
2026-01-11 12:02:38.79	277.07	22.98	-48.0	-49.2	15.3	0.00e+00	0	23	0	728760320	62	4088
2026-01-11 12:02:39.80	277.35	22.98	-48.0	-49.2	15.3	0.00e+00	0	23	0	731906048	62	4094
2026-01-11 12:02:40.81	277.63	22.98	-47.9	-49.1	15.4	0.00e+00	0	23	0	735051776	62	4048
2026-01-11 12:02:41.82	277.91	22.97	-48.0	-49.2	15.4	0.00e+00	0	23	0	738197504	62	4058
2026-01-11 12:02:42.83	278.18	22.97	-48.2	-49.4	15.3	0.00e+00	0	23	0	741343232	62	4170
2026-01-11 12:02:43.84	278.46	22.97	-48.2	-49.4	15.3	0.00e+00	0	23	0	744488960	62	4182
2026-01-11 12:02:44.84	278.73	22.96	-48.2	-49.4	15.2	0.00e+00	0	23	0	747634688	62	4181
2026-01-11 12:02:45.85	279.01	22.96	-48.1	-49.3	15.3	0.00e+00	0	23	0	750780416	62	4114
2026-01-11 12:02:46.85	279.28	22.95	-48.2	-49.4	15.3	0.00e+00	0	23	0	753926144	62	4177
2026-01-11 12:02:47.86	279.56	22.95	-48.1	-49.4	15.3	0.00e+00	0	23	0	757071872	62	4146
2026-01-11 12:02:48.87	279.84	22.94	-48.2	-49.4	15.3	0.00e+00	0	23	0	760217600	62	4163
2026-01-11 12:02:49.88	280.11	22.93	-48.2	-49.5	15.2	0.00e+00	0	23	0	763363328	62	4212
2026-01-11 12:02:50.89	280.39	22.93	-48.3	-49.5	15.2	0.00e+00	0	23	0	766509056	62	4241
2026-01-11 12:02:51.90	280.67	22.92	-48.2	-49.4	15.3	0.00e+00	0	23	0	769654784	62	4185
2026-01-11 12:02:52.91	280.94	22.91	-48.2	-49.4	15.3	0.00e+00	0	23	0	772800512	62	4167
2026-01-11 12:02:53.92	281.22	22.90	-48.0	-49.2	15.4	0.00e+00	0	23	0	775946240	62	4083
2026-01-11 12:02:54.92	281.49	22.89	-48.0	-49.2	15.4	0.00e+00	0	23	0	779091968	62	4098
2026-01-11 12:02:55.93	281.77	22.88	-48.0	-49.2	15.3	0.00e+00	0	23	0	782237696	62	4087
2026-01-11 12:02:56.94	282.04	22.86	-48.0	-49.2	15.4	0.00e+00	0	23	0	785383424	62	4093
2026-01-11 12:02:57.95	282.32	22.85	-48.0	-49.2	15.3	0.00e+00	0	23	0	788529152	62	4091
2026-01-11 12:02:58.96	282.59	22.84	-47.9	-49.1	15.4	0.00e+00	0	23	0	791674880	62	4024
2026-01-11 12:02:59.97	282.86	22.82	-48.0	-49.2	15.4	0.00e+00	0	23	0	794820608	62	4065
2026-01-11 12:03:00.98	283.14	22.81	-47.9	-49.1	15.4	0.00e+00	0	23	0	797966336	62	4041
2026-01-11 12:03:01.99	283.41	22.79	-47.8	-48.9	15.5	0.00e+00	0	23	0	801112064	62	3955
2026-01-11 12:03:03.00	283.69	22.78	-47.7	-48.9	15.5	0.00e+00	0	23	0	804257792	62	3917
2026-01-11 12:03:04.00	283.96	22.76	-47.6	-48.8	15.4	0.00e+00	0	24	0	807403520	61	4101
2026-01-11 12:03:05.01	284.23	22.74	-47.7	-48.9	15.4	0.00e+00	0	23	0	810549248	61	4167
2026-01-11 12:03:06.01	284.50	22.73	-47.7	-48.8	15.4	0.00e+00	0	23	0	813694976	61	4144
2026-01-11 12:03:07.02	284.77	22.71	-47.7	-48.8	15.4	0.00e+00	0	23	0	816840704	61	4141
2026-01-11 12:03:08.03	285.04	22.69	-47.8	-49.0	15.3	0.00e+00	0	23	0	819986432	61	4198
2026-01-11 12:03:09.05	285.32	22.67	-47.9	-49.1	15.3	0.00e+00	0	23	0	823132160	61	4268
2026-01-11 12:03:10.05	285.59	22.65	-47.9	-49.1	15.3	0.00e+00	0	23	0	826277888	61	4266
2026-01-11 12:03:11.06	285.86	22.63	-47.8	-49.0	15.3	0.00e+00	0	23	0	829423616	61	4236
2026-01-11 12:03:12.07	286.13	22.61	-47.8	-49.0	15.3	0.00e+00	0	23	0	832569344	61	4228
2026-01-11 12:03:13.08	286.40	22.58	-47.8	-48.9	15.4	0.00e+00	0	23	0	835715072	61	4190
2026-01-11 12:03:14.09	286.67	22.56	-47.8	-49.0	15.3	0.00e+00	0	23	0	838860800	61	4198
2026-01-11 12:03:15.10	286.94	22.54	-47.7	-48.8	15.4	0.00e+00	0	23	0	842006528	61	4142
2026-01-11 12:03:16.10	287.21	22.51	-47.7	-48.9	15.3	0.00e+00	0	23	0	845152256	61	4166
2026-01-11 12:03:17.11	287.47	22.49	-47.8	-49.0	15.3	0.00e+00	0	23	0	848297984	61	4229
2026-01-11 12:03:18.12	287.74	22.46	-47.9	-49.1	15.3	0.00e+00	0	23	0	851443712	61	4246
2026-01-11 12:03:19.13	288.01	22.44	-47.9	-49.0	15.3	0.00e+00	0	23	0	854589440	61	4239
2026-01-11 12:03:20.14	288.28	22.41	-47.8	-49.0	15.3	0.00e+00	0	23	0	857735168	61	4218
2026-01-11 12:03:21.15	288.55	22.38	-47.8	-49.0	15.3	0.00e+00	0	23	0	860880896	61	4206
2026-01-11 12:03:22.16	288.81	22.36	-47.8	-49.0	15.3	0.00e+00	0	23	0	864026624	61	4229
2026-01-11 12:03:23.17	289.08	22.33	-47.9	-49.1	15.3	0.00e+00	0	23	0	867172352	61	4264
2026-01-11 12:03:24.17	289.34	22.30	-47.9	-49.1	15.2	0.00e+00	0	23	0	870318080	61	4291
2026-01-11 12:03:25.18	289.61	22.27	-48.0	-49.2	15.2	0.00e+00	0	23	0	873463808	61	4329
2026-01-11 12:03:26.19	289.87	22.24	-48.0	-49.2	15.2	0.00e+00	0	23	0	876609536	61	4320
2026-01-11 12:03:27.20	290.13	22.21	-47.8	-49.1	15.3	0.00e+00	0	23	0	879755264	61	4246
2026-01-11 12:03:28.21	290.40	22.18	-47.8	-49.0	15.3	0.00e+00	0	23	0	882900992	61	4231
2026-01-11 12:03:29.22	290.66	22.14	-47.9	-49.1	15.3	0.00e+00	0	23	0	886046720	61	4280
2026-01-11 12:03:30.22	290.92	22.11	-47.9	-49.1	15.3	0.00e+00	0	23	0	889192448	61	4291
2026-01-11 12:03:31.23	291.18	22.08	-48.1	-49.3	15.2	0.00e+00	0	23	0	892338176	61	4372
2026-01-11 12:03:32.24	291.44	22.05	-48.1	-49.3	15.2	0.00e+00	0	23	0	895483904	61	4375
2026-01-11 12:03:33.25	291.70	22.01	-48.1	-49.4	15.2	0.00e+00	0	23	0	898629632	61	4392
2026-01-11 12:03:34.26	291.96	21.98	-48.0	-49.3	15.2	0.00e+00	0	23	0	901775360	61	4351
2026-01-11 12:03:35.26	292.22	21.94	-48.0	-49.2	15.3	0.00e+00	0	23	0	904921088	61	4301
2026-01-11 12:03:36.27	292.48	21.91	-47.9	-49.1	15.3	0.00e+00	0	23	0	908066816	61	4276
2026-01-11 12:03:37.28	292.74	21.87	-48.1	-49.3	15.2	0.00e+00	0	23	0	911212544	61	4362
2026-01-11 12:03:38.29	293.00	21.83	-48.0	-49.3	15.2	0.00e+00	0	23	0	914358272	61	4346
2026-01-11 12:03:39.29	293.25	21.80	-48.0	-49.3	15.2	0.00e+00	0	23	0	917504000	61	4355
2026-01-11 12:03:40.30	293.51	21.76	-48.1	-49.3	15.2	0.00e+00	0	23	0	920649728	61	4383
2026-01-11 12:03:41.31	293.76	21.72	-48.1	-49.3	15.2	0.00e+00	0	23	0	923795456	61	4370
2026-01-11 12:03:42.32	294.02	21.68	-47.9	-49.1	15.3	0.00e+00	0	23	0	926941184	61	4255
2026-01-11 12:03:43.33	294.27	21.64	-47.9	-49.1	15.3	0.00e+00	0	23	0	930086912	61	4273
2026-01-11 12:03:44.34	294.53	21.60	-47.8	-49.0	15.3	0.00e+00	0	23	0	933232640	61	4237
2026-01-11 12:03:45.35	294.78	21.56	-47.8	-49.0	15.3	0.00e+00	0	23	0	936378368	61	4226
2026-01-11 12:03:46.36	295.03	21.52	-48.0	-49.2	15.2	0.00e+00	0	23	0	939524096	61	4334
2026-01-11 12:03:47.36	295.28	21.48	-48.0	-49.2	15.2	0.00e+00	0	23	0	942669824	61	4340
2026-01-11 12:03:48.37	295.54	21.44	-48.0	-49.3	15.2	0.00e+00	0	23	0	945815552	61	4343
2026-01-11 12:03:49.38	295.79	21.40	-48.1	-49.3	15.2	0.00e+00	0	23	0	948961280	61	4385
2026-01-11 12:03:50.39	296.04	21.35	-48.1	-49.4	15.2	0.00e+00	0	23	0	952107008	61	4395
2026-01-11 12:03:51.40	296.29	21.31	-48.1	-49.4	15.2	0.00e+00	0	23	0	955252736	61	4401
2026-01-11 12:03:52.40	296.53	21.27	-48.1	-49.4	15.2	0.00e+00	0	23	0	958398464	61	4396
2026-01-11 12:03:53.40	296.78	21.22	-48.1	-49.4	15.2	0.00e+00	0	23	0	961544192	61	4393
2026-01-11 12:03:54.41	297.02	21.18	-48.3	-49.5	15.1	0.00e+00	0	23	0	964689920	61	4472
2026-01-11 12:03:55.41	297.27	21.13	-48.1	-49.3	15.2	0.00e+00	0	23	0	967835648	61	4388
2026-01-11 12:03:56.42	297.52	21.09	-48.1	-49.3	15.2	0.00e+00	0	23	0	970981376	61	4367
2026-01-11 12:03:57.43	297.76	21.04	-48.0	-49.2	15.2	0.00e+00	0	23	0	974127104	61	4324
2026-01-11 12:03:58.43	298.00	21.00	-48.1	-49.3	15.2	0.00e+00	0	23	0	977272832	61	4355
2026-01-11 12:03:59.43	298.24	20.95	-48.1	-49.4	15.2	0.00e+00	0	23	0	980418560	61	4393
2026-01-11 12:04:00.45	298.49	20.90	-48.1	-49.3	15.2	0.00e+00	0	23	0	983564288	61	4360
2026-01-11 12:04:01.45	298.73	20.85	-48.2	-49.4	15.2	0.00e+00	0	23	0	986710016	61	4411
2026-01-11 12:04:02.46	298.97	20.81	-48.2	-49.4	15.1	0.00e+00	0	23	0	989855744	61	4441
2026-01-11 12:04:03.47	299.21	20.76	-48.1	-49.3	15.2	0.00e+00	0	23	0	993001472	61	4389
2026-01-11 12:04:04.48	299.45	20.71	-48.2	-49.4	15.2	0.00e+00	0	23	0	996147200	61	4407
2026-01-11 12:04:05.49	299.69	20.66	-48.3	-49.5	15.1	0.00e+00	0	23	0	999292928	61	4492
2026-01-11 12:04:06.49	299.93	20.61	-48.2	-49.5	15.2	0.00e+00	0	23	0	1002438656	61	4448
2026-01-11 12:04:07.50	300.17	20.56	-48.0	-49.2	15.2	0.00e+00	0	23	0	1005584384	61	4335
2026-01-11 12:04:08.51	300.40	20.51	-48.1	-49.3	15.2	0.00e+00	0	23	0	1008730112	61	4381
2026-01-11 12:04:09.52	300.64	20.46	-48.1	-49.3	15.2	0.00e+00	0	23	0	1011875840	61	4360
2026-01-11 12:04:10.53	300.87	20.41	-48.1	-49.3	15.2	0.00e+00	0	23	0	1015021568	61	4365
2026-01-11 12:04:11.54	301.11	20.36	-48.0	-49.2	15.2	0.00e+00	0	23	0	1018167296	61	4331
2026-01-11 12:04:12.55	301.34	20.30	-48.1	-49.3	15.2	0.00e+00	0	23	0	1021313024	61	4363
2026-01-11 12:04:13.56	301.58	20.25	-48.1	-49.4	15.2	0.00e+00	0	23	0	1024458752	61	4403
2026-01-11 12:04:14.57	301.81	20.20	-48.0	-49.2	15.2	0.00e+00	0	23	0	1027604480	61	4339
2026-01-11 12:04:15.58	302.04	20.15	-48.0	-49.2	15.2	0.00e+00	0	23	0	1030750208	61	4338
2026-01-11 12:04:16.59	302.27	20.09	-48.2	-49.4	15.2	0.00e+00	0	23	0	1033895936	61	4408
2026-01-11 12:04:17.59	302.50	20.04	-48.1	-49.3	15.2	0.00e+00	0	23	0	1037041664	61	4380
2026-01-11 12:04:18.61	302.73	19.99	-48.2	-49.4	15.2	0.00e+00	0	23	0	1040187392	61	4421
2026-01-11 12:04:19.61	302.96	19.93	-48.2	-49.4	15.1	0.00e+00	0	23	0	1043333120	61	4432
2026-01-11 12:04:20.62	303.18	19.88	-48.1	-49.3	15.2	0.00e+00	0	23	0	1046478848	61	4379
2026-01-11 12:04:21.63	303.41	19.82	-48.1	-49.3	15.2	0.00e+00	0	23	0	1049624576	61	4383
2026-01-11 12:04:22.64	303.64	19.77	-48.2	-49.4	15.1	0.00e+00	0	23	0	1052770304	61	4429
2026-01-11 12:04:23.65	303.86	19.71	-48.2	-49.4	15.1	0.00e+00	0	23	0	1055916032	61	4435
2026-01-11 12:04:24.66	304.09	19.66	-48.2	-49.5	15.1	0.00e+00	0	23	0	1059061760	61	4451
2026-01-11 12:04:25.66	304.31	19.60	-48.2	-49.4	15.1	0.00e+00	0	23	0	1062207488	61	4425
2026-01-11 12:04:26.67	304.53	19.54	-48.2	-49.4	15.1	0.00e+00	0	23	0	1065353216	61	4428
2026-01-11 12:04:27.67	304.75	19.49	-48.2	-49.4	15.2	0.00e+00	0	23	0	1068498944	61	4400
2026-01-11 12:04:28.68	304.97	19.43	-48.1	-49.3	15.2	0.00e+00	0	23	0	1071644672	61	4346
2026-01-11 12:04:29.69	305.19	19.37	-48.1	-49.3	15.2	0.00e+00	0	23	0	1074790400	61	4361
2026-01-11 12:04:30.70	305.41	19.31	-47.9	-49.1	15.2	0.00e+00	0	23	0	1077936128	61	4264
2026-01-11 12:04:31.70	305.63	19.26	-48.0	-49.2	15.2	0.00e+00	0	23	0	1081081856	61	4312
2026-01-11 12:04:32.71	305.85	19.20	-48.0	-49.2	15.2	0.00e+00	0	23	0	1084227584	61	4335
2026-01-11 12:04:33.72	306.07	19.14	-48.1	-49.3	15.2	0.00e+00	0	23	0	1087373312	61	4370
2026-01-11 12:04:34.73	306.28	19.08	-48.1	-49.3	15.2	0.00e+00	0	23	0	1090519040	61	4385
2026-01-11 12:04:35.74	306.50	19.02	-48.0	-49.3	15.2	0.00e+00	0	23	0	1093664768	61	4341
2026-01-11 12:04:36.75	306.71	18.96	-48.1	-49.3	15.2	0.00e+00	0	23	0	1096810496	61	4359
2026-01-11 12:04:37.75	306.92	18.91	-48.0	-49.2	15.2	0.00e+00	0	23	0	1099956224	61	4335
2026-01-11 12:04:38.76	307.14	18.85	-48.2	-49.4	15.1	0.00e+00	0	23	0	1103101952	61	4422
2026-01-11 12:04:39.77	307.35	18.79	-48.3	-49.6	15.1	0.00e+00	0	23	0	1106247680	61	4497
2026-01-11 12:04:40.78	307.56	18.73	-48.3	-49.6	15.1	0.00e+00	0	23	0	1109393408	61	4502
2026-01-11 12:04:41.79	307.77	18.67	-48.3	-49.5	15.1	0.00e+00	0	23	0	1112539136	61	4477
2026-01-11 12:04:42.80	307.98	18.60	-48.3	-49.5	15.1	0.00e+00	0	23	0	1115684864	61	4484
2026-01-11 12:04:43.80	308.19	18.54	-48.3	-49.5	15.1	0.00e+00	0	23	0	1118830592	61	4472
2026-01-11 12:04:44.81	308.40	18.48	-48.3	-49.5	15.1	0.00e+00	0	23	0	1121976320	61	4475
2026-01-11 12:04:45.82	308.61	18.42	-48.1	-49.4	15.2	0.00e+00	0	23	0	1125122048	61	4396
2026-01-11 12:04:46.82	308.81	18.36	-48.1	-49.3	15.2	0.00e+00	0	23	0	1128267776	61	4387
2026-01-11 12:04:47.83	309.02	18.30	-48.2	-49.4	15.1	0.00e+00	0	23	0	1131413504	61	4408
2026-01-11 12:04:48.84	309.22	18.24	-48.2	-49.4	15.1	0.00e+00	0	23	0	1134559232	61	4437
2026-01-11 12:04:49.85	309.43	18.18	-48.3	-49.5	15.1	0.00e+00	0	23	0	1137704960	61	4461
2026-01-11 12:04:50.86	309.63	18.11	-48.4	-49.6	15.0	0.00e+00	0	23	0	1140850688	61	4531
2026-01-11 12:04:51.86	309.83	18.05	-48.4	-49.7	15.1	0.00e+00	0	23	0	1143996416	62	4311
2026-01-11 12:04:52.87	310.03	17.99	-48.5	-49.7	15.1	0.00e+00	0	23	0	1147142144	62	4323
2026-01-11 12:04:53.88	310.23	17.93	-48.5	-49.8	15.1	0.00e+00	0	23	0	1150287872	62	4355
2026-01-11 12:04:54.89	310.43	17.86	-48.7	-50.0	15.0	0.00e+00	0	23	0	1153433600	62	4450
2026-01-11 12:04:55.90	310.63	17.80	-48.7	-50.1	15.0	0.00e+00	0	23	0	1156579328	62	4496
2026-01-11 12:04:56.91	310.83	17.74	-48.8	-50.1	14.9	0.00e+00	0	23	0	1159725056	62	4532
2026-01-11 12:04:57.92	311.03	17.67	-48.8	-50.1	14.9	0.00e+00	0	23	0	1162870784	62	4527
2026-01-11 12:04:58.93	311.23	17.61	-48.7	-50.0	15.0	0.00e+00	0	23	0	1166016512	62	4486
2026-01-11 12:04:59.93	311.42	17.55	-48.7	-50.0	15.0	0.00e+00	0	23	0	1169162240	62	4465
2026-01-11 12:05:00.94	311.61	17.48	-48.7	-49.9	15.0	0.00e+00	0	23	0	1172307968	62	4440
2026-01-11 12:05:01.94	311.81	17.42	-48.3	-49.5	15.2	0.00e+00	0	23	0	1175453696	62	4236
2026-01-11 12:05:02.96	312.00	17.35	-48.3	-49.5	15.2	0.00e+00	0	23	0	1178599424	62	4226
2026-01-11 12:05:03.96	312.19	17.29	-48.4	-49.6	15.2	0.00e+00	0	23	0	1181745152	62	4264
2026-01-11 12:05:04.97	312.39	17.23	-48.3	-49.6	15.2	0.00e+00	0	23	0	1184890880	62	4251
2026-01-11 12:05:05.98	312.58	17.16	-48.3	-49.5	15.2	0.00e+00	0	23	0	1188036608	62	4226
2026-01-11 12:05:06.99	312.77	17.10	-48.4	-49.6	15.1	0.00e+00	0	23	0	1191182336	62	4268
2026-01-11 12:05:08.00	312.96	17.03	-48.5	-49.8	15.1	0.00e+00	0	23	0	1194328064	62	4363
2026-01-11 12:05:09.01	313.15	16.97	-48.7	-49.9	15.0	0.00e+00	0	23	0	1197473792	62	4439
2026-01-11 12:05:10.02	313.33	16.90	-48.7	-50.0	15.0	0.00e+00	0	23	0	1200619520	62	4450
2026-01-11 12:05:11.03	313.52	16.84	-48.8	-50.1	14.9	0.00e+00	0	23	0	1203765248	62	4529
2026-01-11 12:05:12.04	313.71	16.77	-48.8	-50.1	14.9	0.00e+00	0	23	0	1206910976	62	4539
2026-01-11 12:05:13.05	313.89	16.71	-48.8	-50.1	15.0	0.00e+00	0	23	0	1210056704	62	4506
2026-01-11 12:05:14.05	314.08	16.64	-48.8	-50.1	15.0	0.00e+00	0	23	0	1213202432	62	4497
2026-01-11 12:05:15.07	314.26	16.57	-48.8	-50.1	15.0	0.00e+00	0	23	0	1216348160	62	4512
2026-01-11 12:05:16.08	314.45	16.51	-48.7	-50.0	15.0	0.00e+00	0	23	0	1220542464	62	4483
2026-01-11 12:05:17.09	314.63	16.44	-48.6	-49.9	15.0	0.00e+00	0	23	0	1223688192	62	4402
2026-01-11 12:05:18.09	314.81	16.38	-48.7	-50.0	15.0	0.00e+00	0	23	0	1226833920	62	4483
2026-01-11 12:05:19.10	314.99	16.31	-48.7	-49.9	15.0	0.00e+00	0	23	0	1228931072	62	4437
2026-01-11 12:05:20.11	315.17	16.25	-48.6	-49.9	15.0	0.00e+00	0	23	0	1232076800	62	4425
2026-01-11 12:05:21.12	315.35	16.18	-48.7	-50.0	15.0	0.00e+00	0	23	0	1235222528	62	4466
2026-01-11 12:05:22.12	315.53	16.11	-48.7	-50.0	15.0	0.00e+00	0	23	0	1238368256	62	4482
2026-01-11 12:05:23.13	315.71	16.05	-48.6	-49.9	15.0	0.00e+00	0	23	0	1242562560	62	4422
2026-01-11 12:05:24.14	315.88	15.98	-48.6	-49.9	15.0	0.00e+00	0	23	0	1245708288	62	4434
2026-01-11 12:05:25.15	316.06	15.91	-48.7	-50.0	15.0	0.00e+00	0	23	0	1248854016	62	4469
2026-01-11 12:05:26.15	316.23	15.85	-48.7	-50.0	15.0	0.00e+00	0	23	0	1251999744	62	4474
2026-01-11 12:05:27.16	316.41	15.78	-48.8	-50.1	14.9	0.00e+00	0	23	0	1254096896	62	4519
2026-01-11 12:05:28.17	316.58	15.71	-48.7	-50.0	14.9	0.00e+00	0	23	0	1257242624	62	4483
2026-01-11 12:05:29.18	316.76	15.65	-48.7	-50.0	15.0	0.00e+00	0	23	0	1261436928	62	4483
2026-01-11 12:05:30.19	316.93	15.58	-48.8	-50.2	14.9	0.00e+00	0	23	0	1264582656	62	4555
2026-01-11 12:05:31.20	317.10	15.51	-48.8	-50.2	14.9	0.00e+00	0	23	0	1267728384	62	4558
2026-01-11 12:05:32.20	317.27	15.45	-49.0	-50.3	15.0	0.00e+00	0	23	0	1270874112	63	4362
2026-01-11 12:05:33.21	317.44	15.38	-48.9	-50.3	14.9	0.00e+00	0	23	0	1274019840	63	4348
2026-01-11 12:05:34.22	317.61	15.31	-48.8	-50.1	15.0	0.00e+00	0	23	0	1276116992	63	4277
2026-01-11 12:05:35.22	317.78	15.25	-48.8	-50.1	15.0	0.00e+00	0	23	0	1279262720	63	4267
2026-01-11 12:05:36.23	317.95	15.18	-48.6	-49.9	15.1	0.00e+00	0	23	0	1283457024	63	4182
2026-01-11 12:05:37.23	318.11	15.11	-48.6	-49.9	15.2	0.00e+00	0	23	0	1286602752	63	4170
2026-01-11 12:05:38.24	318.28	15.05	-48.6	-49.9	15.2	0.00e+00	0	23	0	1289748480	63	4157
2026-01-11 12:05:39.25	318.45	14.98	-48.5	-49.8	15.2	0.00e+00	0	23	0	1292894208	63	4110
2026-01-11 12:05:40.26	318.61	14.91	-48.6	-49.9	15.2	0.00e+00	0	23	0	1296039936	63	4157
2026-01-11 12:05:41.27	318.78	14.84	-48.6	-49.9	15.1	0.00e+00	0	23	0	1299185664	63	4179
2026-01-11 12:05:42.28	318.94	14.78	-48.5	-49.7	15.2	0.00e+00	0	23	0	1302331392	63	4096
2026-01-11 12:05:43.29	319.10	14.71	-48.5	-49.7	15.2	0.00e+00	0	23	0	1305477120	63	4075
2026-01-11 12:05:44.30	319.27	14.64	-48.4	-49.6	15.3	0.00e+00	0	24	0	1308622848	63	4040
2026-01-11 12:05:45.31	319.43	14.58	-48.4	-49.6	15.2	0.00e+00	0	23	0	1311768576	63	4034
2026-01-11 12:05:46.32	319.59	14.51	-48.4	-49.6	15.2	0.00e+00	0	23	0	1314914304	63	4049
2026-01-11 12:05:47.33	319.75	14.44	-48.5	-49.8	15.2	0.00e+00	0	23	0	1318060032	63	4106
2026-01-11 12:05:48.34	319.91	14.37	-48.5	-49.8	15.2	0.00e+00	0	23	0	1321205760	63	4110
2026-01-11 12:05:49.35	320.07	14.31	-48.6	-49.9	15.1	0.00e+00	0	23	0	1324351488	63	4149
2026-01-11 12:05:50.36	320.23	14.24	-48.6	-49.9	15.1	0.00e+00	0	23	0	1327497216	63	4162
2026-01-11 12:05:51.37	320.38	14.17	-48.7	-49.9	15.1	0.00e+00	0	23	0	1330642944	63	4191
2026-01-11 12:05:52.38	320.54	14.10	-48.7	-50.0	15.1	0.00e+00	0	23	0	1333788672	63	4220
2026-01-11 12:05:53.39	320.70	14.04	-48.7	-50.0	15.0	0.00e+00	0	23	0	1336934400	63	4236
2026-01-11 12:05:54.40	320.85	13.97	-48.8	-50.1	15.0	0.00e+00	0	23	0	1340080128	63	4266
2026-01-11 12:05:55.40	321.01	13.90	-48.9	-50.2	15.0	0.00e+00	0	23	0	1343225856	63	4310
2026-01-11 12:05:56.41	321.16	13.83	-48.8	-50.2	15.0	0.00e+00	0	23	0	1346371584	63	4297
2026-01-11 12:05:57.42	321.31	13.77	-49.0	-50.3	14.9	0.00e+00	0	23	0	1349517312	63	4373
2026-01-11 12:05:58.43	321.47	13.70	-49.0	-50.3	14.9	0.00e+00	0	23	0	1352663040	63	4363
2026-01-11 12:05:59.44	321.62	13.63	-49.0	-50.3	14.9	0.00e+00	0	23	0	1355808768	63	4375
2026-01-11 12:06:00.45	321.77	13.56	-49.0	-50.4	14.9	0.00e+00	0	23	0	1358954496	63	4401
2026-01-11 12:06:01.45	321.92	13.50	-49.0	-50.4	14.9	0.00e+00	0	23	0	1362100224	63	4401
2026-01-11 12:06:02.46	322.07	13.43	-49.1	-50.5	14.8	0.00e+00	0	23	0	1365245952	63	4448
2026-01-11 12:06:03.47	322.22	13.36	-49.1	-50.5	14.8	0.00e+00	0	23	0	1368391680	63	4457
2026-01-11 12:06:04.48	322.37	13.29	-49.1	-50.5	14.8	0.00e+00	0	23	0	1371537408	63	4478
2026-01-11 12:06:05.48	322.51	13.23	-49.1	-50.5	14.8	0.00e+00	0	23	0	1374683136	63	4474
2026-01-11 12:06:06.49	322.66	13.16	-49.2	-50.6	14.8	0.00e+00	0	23	0	1377828864	63	4509
2026-01-11 12:06:07.50	322.81	13.09	-49.3	-50.7	14.7	0.00e+00	0	23	0	1380974592	63	4567
2026-01-11 12:06:08.50	322.95	13.03	-49.3	-50.8	14.7	0.00e+00	0	23	0	1384120320	63	4604
2026-01-11 12:06:09.52	323.10	12.96	-49.4	-50.8	14.7	0.00e+00	0	23	0	1387266048	63	4643
2026-01-11 12:06:10.53	323.25	12.89	-49.4	-50.9	14.8	0.00e+00	0	23	0	1390411776	64	4403
2026-01-11 12:06:11.53	323.39	12.82	-49.5	-50.9	14.7	0.00e+00	0	23	0	1393557504	64	4422
2026-01-11 12:06:12.53	323.53	12.76	-49.5	-50.9	14.7	0.00e+00	0	23	0	1396703232	64	4434
2026-01-11 12:06:13.55	323.67	12.69	-49.4	-50.9	14.7	0.00e+00	0	23	0	1399848960	64	4392
2026-01-11 12:06:14.56	323.82	12.62	-49.3	-50.7	14.8	0.00e+00	0	23	0	1402994688	64	4333
2026-01-11 12:06:15.56	323.96	12.56	-49.2	-50.6	14.9	0.00e+00	0	23	0	1406140416	64	4258
2026-01-11 12:06:16.57	324.10	12.49	-49.1	-50.5	14.9	0.00e+00	0	23	0	1409286144	64	4216
2026-01-11 12:06:17.57	324.24	12.42	-49.1	-50.4	15.0	0.00e+00	0	23	0	1412431872	64	4177
2026-01-11 12:06:18.57	324.38	12.36	-49.1	-50.4	15.0	0.00e+00	0	23	0	1415577600	64	4177
2026-01-11 12:06:19.56	324.51	12.29	-49.1	-50.4	15.0	0.00e+00	0	23	0	1418723328	64	4176
2026-01-11 12:06:20.57	324.65	12.22	-48.9	-50.3	15.0	0.00e+00	0	23	0	1421869056	64	4108
2026-01-11 12:06:21.58	324.79	12.16	-49.0	-50.4	15.0	0.00e+00	0	23	0	1425014784	64	4174
2026-01-11 12:06:22.59	324.93	12.09	-49.0	-50.3	15.0	0.00e+00	0	23	0	1428160512	64	4144
2026-01-11 12:06:23.60	325.06	12.02	-49.1	-50.5	14.9	0.00e+00	0	23	0	1431306240	64	4198
2026-01-11 12:06:24.60	325.20	11.96	-49.1	-50.4	15.0	0.00e+00	0	23	0	1434451968	64	4170
2026-01-11 12:06:25.61	325.34	11.89	-49.1	-50.5	14.9	0.00e+00	0	23	0	1437597696	64	4219
2026-01-11 12:06:26.62	325.47	11.82	-49.3	-50.6	14.9	0.00e+00	0	23	0	1440743424	64	4289
2026-01-11 12:06:27.63	325.61	11.76	-49.3	-50.7	14.8	0.00e+00	0	23	0	1443889152	64	4311
2026-01-11 12:06:28.64	325.74	11.69	-49.3	-50.7	14.8	0.00e+00	0	23	0	1447034880	64	4330
2026-01-11 12:06:29.65	325.87	11.62	-49.4	-50.8	14.8	0.00e+00	0	23	0	1450180608	64	4382
2026-01-11 12:06:30.66	326.01	11.56	-49.4	-50.8	14.8	0.00e+00	0	23	0	1453326336	64	4375
2026-01-11 12:06:31.67	326.14	11.49	-49.5	-50.9	14.7	0.00e+00	0	23	0	1456472064	64	4426
2026-01-11 12:06:32.68	326.27	11.42	-49.6	-51.0	14.7	0.00e+00	0	23	0	1459617792	64	4481
2026-01-11 12:06:33.69	326.40	11.36	-49.6	-51.0	14.7	0.00e+00	0	23	0	1462763520	64	4470
2026-01-11 12:06:34.70	326.53	11.29	-49.5	-51.0	14.7	0.00e+00	0	23	0	1465909248	64	4445
2026-01-11 12:06:35.71	326.66	11.22	-49.5	-50.9	14.7	0.00e+00	0	23	0	1469054976	64	4429
2026-01-11 12:06:36.71	326.79	11.16	-49.4	-50.9	14.7	0.00e+00	0	24	0	1472200704	64	4409
2026-01-11 12:06:37.72	326.92	11.09	-49.4	-50.8	14.7	0.00e+00	0	23	0	1475346432	64	4370
2026-01-11 12:06:38.72	327.05	11.03	-49.4	-50.8	14.8	0.00e+00	0	23	0	1478492160	64	4353
2026-01-11 12:06:39.73	327.17	10.96	-49.3	-50.7	14.8	0.00e+00	0	23	0	1481637888	64	4335
2026-01-11 12:06:40.74	327.30	10.89	-49.4	-50.8	14.8	0.00e+00	0	23	0	1484783616	64	4362
2026-01-11 12:06:41.74	327.43	10.83	-49.3	-50.7	14.8	0.00e+00	0	23	0	1487929344	64	4323
2026-01-11 12:06:42.75	327.55	10.76	-49.3	-50.7	14.8	0.00e+00	0	23	0	1491075072	64	4323
2026-01-11 12:06:43.76	327.68	10.70	-49.3	-50.7	14.8	0.00e+00	0	23	0	1494220800	64	4332
2026-01-11 12:06:44.77	327.80	10.63	-49.3	-50.8	14.8	0.00e+00	0	23	0	1497366528	64	4344
2026-01-11 12:06:45.78	327.93	10.56	-49.4	-50.8	14.7	0.00e+00	0	23	0	1500512256	64	4365
2026-01-11 12:06:46.79	328.05	10.50	-49.5	-50.9	14.7	0.00e+00	0	23	0	1503657984	64	4428
2026-01-11 12:06:47.80	328.17	10.43	-49.5	-51.0	14.7	0.00e+00	0	23	0	1506803712	64	4452
2026-01-11 12:06:48.80	328.30	10.37	-49.6	-51.1	14.6	0.00e+00	0	23	0	1509949440	64	4511
2026-01-11 12:06:49.81	328.42	10.30	-49.6	-51.1	14.6	0.00e+00	0	23	0	1513095168	64	4531
2026-01-11 12:06:50.82	328.54	10.24	-49.6	-51.0	14.6	0.00e+00	0	23	0	1516240896	64	4487
2026-01-11 12:06:51.82	328.66	10.17	-49.5	-51.0	14.7	0.00e+00	0	23	0	1519386624	64	4463
2026-01-11 12:06:52.83	328.78	10.11	-49.5	-51.0	14.6	0.00e+00	0	23	0	1522532352	64	4466
2026-01-11 12:06:53.84	328.90	10.04	-49.6	-51.0	14.6	0.00e+00	0	23	0	1525678080	64	4481
2026-01-11 12:06:54.84	329.02	9.98	-49.6	-51.1	14.6	0.00e+00	0	23	0	1528823808	64	4520
2026-01-11 12:06:55.85	329.14	9.91	-49.6	-51.1	14.6	0.00e+00	0	23	0	1531969536	64	4502
2026-01-11 12:06:56.86	329.26	9.85	-49.7	-51.2	14.5	0.00e+00	0	23	0	1535115264	64	4556
2026-01-11 12:06:57.86	329.37	9.78	-49.6	-51.1	14.5	0.00e+00	0	23	0	1538260992	64	4534
2026-01-11 12:06:58.87	329.49	9.72	-49.7	-51.2	14.5	0.00e+00	0	23	0	1541406720	64	4575
2026-01-11 12:06:59.88	329.61	9.65	-49.8	-51.3	14.5	0.00e+00	0	23	0	1544552448	64	4615
2026-01-11 12:07:00.90	329.73	9.59	-49.8	-51.3	14.5	0.00e+00	0	23	0	1547698176	64	4629
2026-01-11 12:07:01.90	329.84	9.52	-49.7	-51.3	14.5	0.00e+00	0	23	0	1550843904	64	4603
2026-01-11 12:07:02.91	329.96	9.46	-49.8	-51.3	14.4	0.00e+00	0	23	0	1553989632	64	4638
2026-01-11 12:07:03.92	330.07	9.39	-49.8	-51.4	14.4	0.00e+00	0	23	0	1557135360	64	4664
2026-01-11 12:07:04.93	330.19	9.33	-49.7	-51.2	14.5	0.00e+00	0	23	0	1560281088	64	4598
2026-01-11 12:07:05.93	330.30	9.27	-49.7	-51.2	14.5	0.00e+00	0	23	0	1563426816	64	4591
2026-01-11 12:07:06.93	330.41	9.20	-49.7	-51.2	14.5	0.00e+00	0	23	0	1566572544	64	4587
2026-01-11 12:07:07.94	330.53	9.14	-49.8	-51.3	14.4	0.00e+00	0	23	0	1569718272	64	4647
2026-01-11 12:07:08.95	330.64	9.07	-49.9	-51.5	14.5	0.00e+00	0	23	0	1572864000	65	4442
2026-01-11 12:07:09.96	330.75	9.01	-49.8	-51.3	14.6	0.00e+00	0	23	0	1576009728	65	4382
2026-01-11 12:07:10.97	330.87	8.94	-49.8	-51.3	14.6	0.00e+00	0	23	0	1579155456	65	4368
2026-01-11 12:07:11.97	330.98	8.88	-49.9	-51.4	14.5	0.00e+00	0	23	0	1582301184	65	4413
2026-01-11 12:07:12.94	331.08	8.82	-49.7	-51.2	14.6	0.00e+00	0	23	0	1585446912	65	4325
2026-01-11 12:07:13.95	331.19	8.76	-49.8	-51.3	14.6	0.00e+00	0	23	0	1588592640	65	4370
2026-01-11 12:07:14.96	331.30	8.69	-49.9	-51.4	14.5	0.00e+00	0	23	0	1591738368	65	4416
2026-01-11 12:07:15.97	331.41	8.63	-49.7	-51.2	14.6	0.00e+00	0	23	0	1594884096	65	4328
2026-01-11 12:07:16.98	331.52	8.56	-49.7	-51.2	14.6	0.00e+00	0	23	0	1598029824	65	4316
2026-01-11 12:07:17.99	331.63	8.50	-49.7	-51.2	14.6	0.00e+00	0	23	0	1601175552	65	4308
2026-01-11 12:07:19.00	331.74	8.44	-49.8	-51.3	14.6	0.00e+00	0	23	0	1604321280	65	4352
2026-01-11 12:07:20.01	331.85	8.37	-49.8	-51.3	14.6	0.00e+00	0	23	0	1607467008	65	4358
2026-01-11 12:07:21.02	331.95	8.31	-49.8	-51.3	14.6	0.00e+00	0	23	0	1610612736	65	4363
2026-01-11 12:07:22.03	332.06	8.25	-49.8	-51.4	14.5	0.00e+00	0	24	0	1613758464	65	4405
2026-01-11 12:07:23.04	332.17	8.18	-49.9	-51.4	14.5	0.00e+00	0	23	0	1616904192	65	4439
2026-01-11 12:07:24.04	332.27	8.12	-49.9	-51.5	14.4	0.00e+00	0	23	0	1620049920	65	4456
2026-01-11 12:07:25.05	332.38	8.06	-50.0	-51.6	14.4	0.00e+00	0	23	0	1623195648	65	4520
2026-01-11 12:07:26.06	332.48	8.00	-50.0	-51.6	14.4	0.00e+00	0	23	0	1626341376	65	4517
2026-01-11 12:07:27.07	332.59	7.93	-50.1	-51.7	14.3	0.00e+00	0	23	0	1629487104	65	4572
2026-01-11 12:07:28.08	332.69	7.87	-50.2	-51.8	14.3	0.00e+00	0	23	0	1632632832	65	4623
2026-01-11 12:07:29.09	332.80	7.81	-50.1	-51.7	14.4	0.00e+00	0	23	0	1635778560	65	4556
2026-01-11 12:07:30.10	332.90	7.74	-50.0	-51.6	14.4	0.00e+00	0	23	0	1638924288	65	4540
2026-01-11 12:07:31.11	333.00	7.68	-50.0	-51.6	14.4	0.00e+00	0	23	0	1642070016	65	4506
2026-01-11 12:07:32.11	333.11	7.62	-49.9	-51.5	14.4	0.00e+00	0	23	0	1645215744	65	4465
2026-01-11 12:07:33.12	333.21	7.56	-49.9	-51.5	14.4	0.00e+00	0	23	0	1648361472	65	4470
2026-01-11 12:07:34.13	333.31	7.50	-49.8	-51.3	14.5	0.00e+00	0	23	0	1651507200	65	4386
2026-01-11 12:07:35.13	333.41	7.43	-49.9	-51.4	14.5	0.00e+00	0	23	0	1654652928	65	4419
2026-01-11 12:07:36.14	333.51	7.37	-49.9	-51.4	14.5	0.00e+00	0	23	0	1657798656	65	4414
2026-01-11 12:07:37.14	333.61	7.31	-50.0	-51.5	14.4	0.00e+00	0	23	0	1660944384	65	4489
2026-01-11 12:07:38.15	333.71	7.25	-50.0	-51.5	14.4	0.00e+00	0	23	0	1664090112	65	4491
2026-01-11 12:07:39.16	333.81	7.19	-50.0	-51.6	14.3	0.00e+00	0	23	0	1667235840	65	4535
2026-01-11 12:07:40.17	333.91	7.12	-50.0	-51.6	14.4	0.00e+00	0	23	0	1670381568	65	4513
2026-01-11 12:07:41.18	334.01	7.06	-50.1	-51.7	14.3	0.00e+00	0	23	0	1673527296	65	4576
2026-01-11 12:07:42.19	334.11	7.00	-50.0	-51.6	14.4	0.00e+00	0	23	0	1676673024	65	4539
2026-01-11 12:07:43.19	334.20	6.94	-50.0	-51.6	14.3	0.00e+00	0	23	0	1679818752	65	4538
2026-01-11 12:07:44.20	334.30	6.88	-50.1	-51.7	14.3	0.00e+00	0	23	0	1682964480	65	4562
2026-01-11 12:07:45.21	334.40	6.82	-50.1	-51.7	14.3	0.00e+00	0	23	0	1686110208	65	4595
2026-01-11 12:07:46.22	334.50	6.75	-50.2	-51.8	14.2	0.00e+00	0	23	0	1689255936	65	4649
2026-01-11 12:07:47.23	334.59	6.69	-50.3	-52.0	14.1	0.00e+00	0	23	0	1692401664	65	4722
2026-01-11 12:07:48.24	334.69	6.63	-50.2	-51.9	14.2	0.00e+00	0	23	0	1695547392	65	4652
2026-01-11 12:07:49.25	334.79	6.57	-50.1	-51.8	14.2	0.00e+00	0	23	0	1698693120	65	4611
2026-01-11 12:07:50.26	334.88	6.51	-50.2	-51.9	14.2	0.00e+00	0	23	0	1701838848	65	4680
2026-01-11 12:07:51.27	334.98	6.45	-50.3	-52.0	14.1	0.00e+00	0	24	0	1704984576	65	4736
2026-01-11 12:07:52.27	335.07	6.39	-50.3	-52.0	14.1	0.00e+00	0	23	0	1708130304	65	4717
2026-01-11 12:07:53.28	335.16	6.33	-50.2	-51.9	14.1	0.00e+00	0	23	0	1711276032	65	4687
2026-01-11 12:07:54.29	335.26	6.27	-50.3	-52.0	14.0	0.00e+00	0	23	0	1714421760	65	4751
2026-01-11 12:07:55.30	335.35	6.21	-50.3	-52.0	14.1	0.00e+00	0	23	0	1717567488	65	4735
2026-01-11 12:07:56.31	335.45	6.15	-50.3	-52.0	14.1	0.00e+00	0	24	0	1720713216	65	4726
2026-01-11 12:07:57.31	335.54	6.09	-50.4	-52.1	14.0	0.00e+00	0	23	0	1723858944	65	4775
2026-01-11 12:07:58.32	335.63	6.03	-50.6	-52.4	13.9	0.00e+00	0	23	0	1727004672	66	4686
2026-01-11 12:07:59.34	335.72	5.96	-50.7	-52.5	13.9	0.00e+00	0	24	0	1730150400	66	4721
2026-01-11 12:08:00.34	335.81	5.90	-50.5	-52.2	14.0	0.00e+00	0	23	0	1733296128	66	4592
2026-01-11 12:08:01.35	335.91	5.84	-50.5	-52.3	14.0	0.00e+00	0	23	0	1736441856	66	4604
2026-01-11 12:08:02.37	336.00	5.78	-50.7	-52.5	13.9	0.00e+00	0	24	0	1739587584	66	4746
2026-01-11 12:08:03.37	336.09	5.72	-50.6	-52.3	14.0	0.00e+00	0	23	0	1742733312	66	4640
2026-01-11 12:08:04.38	336.18	5.66	-50.6	-52.4	13.9	0.00e+00	0	23	0	1745879040	66	4689
2026-01-11 12:08:05.39	336.27	5.60	-50.6	-52.4	14.0	0.00e+00	0	23	0	1749024768	66	4659
2026-01-11 12:08:06.40	336.36	5.54	-50.4	-52.1	14.1	0.00e+00	0	23	0	1752170496	66	4515
2026-01-11 12:08:07.41	336.45	5.48	-50.5	-52.3	14.0	0.00e+00	0	23	0	1755316224	66	4620
2026-01-11 12:08:08.42	336.54	5.43	-50.6	-52.4	13.9	0.00e+00	0	23	0	1758461952	66	4689
2026-01-11 12:08:09.43	336.62	5.37	-50.7	-52.5	13.9	0.00e+00	0	23	0	1761607680	66	4740
2026-01-11 12:08:10.44	336.71	5.31	-50.8	-52.7	13.7	0.00e+00	0	23	0	1764753408	66	4851
2026-01-11 12:08:11.45	336.80	5.25	-50.9	-52.8	13.7	0.00e+00	0	23	0	1767899136	66	4901
2026-01-11 12:08:12.45	336.89	5.19	-50.8	-52.6	13.9	0.00e+00	0	23	0	1771044864	67	4516
2026-01-11 12:08:13.45	336.97	5.13	-50.8	-52.6	13.9	0.00e+00	0	23	0	1774190592	67	4534
2026-01-11 12:08:14.46	337.06	5.07	-50.8	-52.6	13.9	0.00e+00	0	23	0	1777336320	67	4528
2026-01-11 12:08:15.48	337.15	5.01	-51.9	-54.0	13.3	0.00e+00	0	23	0	1780482048	68	5000
2026-01-11 12:08:16.49	337.24	4.95	-57.9	-71.6	3.8	1.49e+00	0	24	104	1782579200	80	18999
2026-01-11 12:08:17.50	337.32	4.89	-58.3	-72.0	3.8	1.49e+00	0	23	104	1782579200	81	18935
2026-01-11 12:08:18.51	337.41	4.83	-58.6	-72.4	3.8	1.49e+00	0	23	104	1782579200	82	18628
2026-01-11 12:08:19.52	337.49	4.78	-58.8	-72.6	3.8	1.49e+00	0	23	104	1782579200	82	18967
2026-01-11 12:08:20.53	337.58	4.72	-58.9	-72.7	3.8	1.49e+00	0	24	104	1782579200	82	19295
2026-01-11 12:08:21.54	337.66	4.66	-59.1	-72.9	3.8	1.49e+00	0	24	104	1782579200	83	18546
2026-01-11 12:08:22.55	337.75	4.60	-59.2	-73.0	3.8	1.49e+00	0	23	104	1782579200	83	18864
2026-01-11 12:08:23.55	337.83	4.54	-59.3	-73.1	3.8	1.49e+00	0	23	104	1782579200	83	19025
2026-01-11 12:08:24.56	337.91	4.48	-59.3	-73.1	3.8	1.49e+00	0	24	104	1782579200	83	19164
2026-01-11 12:08:25.57	338.00	4.42	-59.4	-73.2	3.8	1.49e+00	0	23	104	1782579200	83	19271
2026-01-11 12:08:26.58	338.08	4.37	-59.4	-73.2	3.8	1.49e+00	0	24	104	1782579200	83	19382
2026-01-11 12:08:27.59	338.16	4.31	-59.7	-73.5	3.8	1.49e+00	0	23	104	1782579200	84	18740
2026-01-11 12:08:28.60	338.25	4.25	-59.7	-73.5	3.8	1.49e+00	0	24	104	1782579200	84	18789
2026-01-11 12:08:29.61	338.33	4.19	-59.7	-73.5	3.8	1.49e+00	0	24	104	1782579200	84	18817
2026-01-11 12:08:30.62	338.41	4.13	-59.7	-73.5	3.8	1.49e+00	0	23	104	1782579200	84	18892
2026-01-11 12:08:31.62	338.49	4.08	-59.7	-73.6	3.8	1.49e+00	0	24	104	1782579200	84	18964
2026-01-11 12:08:32.63	338.57	4.02	-59.8	-73.6	3.8	1.49e+00	0	23	104	1782579200	84	19043
2026-01-11 12:08:33.64	338.65	3.96	-59.8	-73.6	3.8	1.49e+00	0	24	104	1782579200	84	19058
2026-01-11 12:08:34.64	338.73	3.91	-59.8	-73.6	3.8	1.49e+00	0	24	104	1782579200	84	19028
2026-01-11 12:08:35.65	338.81	3.85	-59.8	-73.6	3.8	1.49e+00	0	24	104	1782579200	84	19077
2026-01-11 12:08:36.66	338.89	3.79	-59.8	-73.6	3.8	1.49e+00	0	23	104	1782579200	84	19136
2026-01-11 12:08:37.67	338.97	3.73	-59.8	-73.6	3.8	1.49e+00	0	24	104	1782579200	84	19133
2026-01-11 12:08:38.68	339.05	3.68	-59.8	-73.6	3.8	1.49e+00	0	23	104	1782579200	84	19012
2026-01-11 12:08:39.69	339.13	3.62	-59.7	-73.5	3.8	1.49e+00	0	23	104	1782579200	84	18938
2026-01-11 12:08:40.70	339.21	3.56	-59.7	-73.6	3.8	1.49e+00	0	24	104	1782579200	84	18952
2026-01-11 12:08:41.71	339.29	3.50	-59.7	-73.5	3.8	1.49e+00	0	24	104	1782579200	84	18906
2026-01-11 12:08:42.72	339.37	3.45	-59.7	-73.5	3.8	1.49e+00	0	24	104	1782579200	84	18876
2026-01-11 12:08:43.72	339.45	3.39	-59.7	-73.5	3.8	1.49e+00	0	24	104	1782579200	84	18822
2026-01-11 12:08:44.73	339.52	3.33	-59.7	-73.5	3.8	1.49e+00	0	23	104	1782579200	84	18801
2026-01-11 12:08:45.74	339.60	3.28	-59.7	-73.5	3.8	1.49e+00	0	24	104	1782579200	84	18785
2026-01-11 12:08:46.75	339.68	3.22	-59.6	-73.5	3.8	1.49e+00	0	24	104	1782579200	84	18742
2026-01-11 12:08:47.76	339.76	3.16	-59.6	-73.5	3.8	1.49e+00	0	24	104	1782579200	84	18784
2026-01-11 12:08:48.77	339.83	3.11	-59.6	-73.5	3.8	1.49e+00	0	24	104	1782579200	84	18759
2026-01-11 12:08:49.77	339.91	3.05	-59.6	-73.4	3.8	1.49e+00	0	24	104	1782579200	84	18683
2026-01-11 12:08:50.79	339.99	3.00	-59.6	-73.4	3.8	1.49e+00	0	24	104	1782579200	84	18695
2026-01-11 12:08:51.80	340.06	2.94	-59.6	-73.4	3.8	1.49e+00	0	24	104	1782579200	84	18700
2026-01-11 12:08:52.80	340.14	2.88	-59.6	-73.4	3.8	1.49e+00	0	24	104	1782579200	84	18671
2026-01-11 12:08:53.81	340.21	2.83	-59.6	-73.4	3.8	1.49e+00	0	24	104	1782579200	84	18593
2026-01-11 12:08:54.82	340.29	2.77	-59.6	-73.4	3.8	1.49e+00	0	24	104	1782579200	84	18571
2026-01-11 12:08:55.83	340.36	2.72	-59.6	-73.4	3.8	1.49e+00	0	24	104	1782579200	84	18544
2026-01-11 12:08:56.84	340.44	2.66	-59.6	-73.4	3.8	1.49e+00	0	24	104	1782579200	84	18574
2026-01-11 12:08:57.84	340.51	2.60	-59.6	-73.4	3.8	1.49e+00	0	23	104	1782579200	84	18587
2026-01-11 12:08:58.85	340.58	2.55	-59.5	-73.4	3.8	1.49e+00	0	24	104	1782579200	84	18551
2026-01-11 12:08:59.86	340.66	2.49	-59.5	-73.4	3.8	1.49e+00	0	24	104	1782579200	84	18529
2026-01-11 12:09:00.87	340.73	2.44	-59.5	-73.3	3.8	1.49e+00	0	24	104	1782579200	84	18511
2026-01-11 12:09:01.88	340.80	2.38	-59.6	-73.4	3.8	1.49e+00	0	24	104	1782579200	84	18529
2026-01-11 12:09:02.89	340.88	2.33	-59.6	-73.4	3.8	1.49e+00	0	24	104	1782579200	84	18527
2026-01-11 12:09:03.90	340.95	2.27	-59.5	-73.3	3.8	1.49e+00	0	24	104	1782579200	84	18451
2026-01-11 12:09:04.91	341.02	2.22	-59.5	-73.3	3.8	1.49e+00	0	23	104	1782579200	84	18426
2026-01-11 12:09:05.92	341.10	2.16	-59.5	-73.3	3.8	1.49e+00	0	24	104	1782579200	84	18436
2026-01-11 12:09:06.93	341.17	2.11	-59.5	-73.3	3.8	1.49e+00	0	23	104	1782579200	84	18462
2026-01-11 12:09:07.93	341.24	2.05	-59.5	-73.4	3.8	1.49e+00	0	24	104	1782579200	84	18536
2026-01-11 12:09:08.94	341.31	2.00	-59.5	-73.3	3.8	1.49e+00	0	24	104	1782579200	84	18476
2026-01-11 12:09:09.95	341.38	1.94	-59.5	-73.3	3.8	1.49e+00	0	24	104	1782579200	84	18440

#Closed at: 2026-01-11 12:09:10
#Recorded file [1782 MB]: D:/lorett/data/31004_260111_145758.dat