passes_logs/2026/01/11/R3.2S_Murmansk/R3.2S_Murmansk__20260111_142357_AQUA_rec.log

#Pass ID: 20260111_142357_AQUA
#Satellite: AQUA
#Configuration: AQUA
#almurnet v.1.7.20251203
#Start time: 2026-01-11 14:23:59

#Version: 2.2.20231116
#Station: R3.2S_Murmansk
#Location: 33.079688 lon 68.888172 lat
#TLE: 1 27424U 02022A   26010.91777001  .00001106  00000+0  23130-3 0  9995
#TLE: 2 27424  98.4077 337.2768 0002031  83.1713 340.5382 14.61814337260293

#Time	Az	El	Level	Level2	SNR	BER	BlckErr	Temp	State	Recorded	gain1	gain2
2026-01-11 14:23:59.32	238.01	2.07	-57.1	-76.3	3.8	7.46e-01	0	21	0	0	83	32139
2026-01-11 14:24:00.32	238.12	2.12	-56.9	-76.3	3.8	7.45e-01	0	21	104	0	81	35717
2026-01-11 14:24:01.33	238.23	2.17	-57.0	-76.3	3.8	7.48e-01	0	21	104	0	81	35797
2026-01-11 14:24:02.34	238.34	2.22	-56.9	-76.3	3.8	7.46e-01	0	21	104	0	81	35741
2026-01-11 14:24:03.35	238.45	2.26	-56.9	-76.2	3.8	7.48e-01	0	21	104	0	81	35692
2026-01-11 14:24:04.36	238.57	2.31	-56.9	-76.2	3.8	7.46e-01	0	21	104	0	81	35643
2026-01-11 14:24:05.37	238.68	2.36	-56.9	-76.2	3.8	7.43e-01	0	21	104	0	81	35668
2026-01-11 14:24:06.38	238.79	2.41	-56.9	-76.2	3.8	7.43e-01	0	21	104	0	81	35621
2026-01-11 14:24:07.38	238.90	2.46	-56.9	-76.2	3.8	7.47e-01	0	21	104	0	81	35580
2026-01-11 14:24:08.39	239.01	2.50	-56.9	-76.2	3.8	7.46e-01	0	21	104	0	81	35617
2026-01-11 14:24:09.40	239.13	2.55	-56.9	-76.2	3.8	7.48e-01	0	21	104	0	81	35547
2026-01-11 14:24:10.41	239.24	2.60	-56.9	-76.2	3.8	7.46e-01	0	21	104	0	81	35601
2026-01-11 14:24:11.42	239.35	2.65	-56.9	-76.2	3.8	7.46e-01	0	21	104	0	81	35547
2026-01-11 14:24:12.42	239.47	2.69	-57.0	-76.2	3.8	7.47e-01	0	21	104	0	81	35466
2026-01-11 14:24:13.44	239.58	2.74	-56.9	-76.2	3.8	7.47e-01	0	21	104	0	81	35426
2026-01-11 14:24:14.44	239.70	2.79	-57.0	-76.2	3.8	7.46e-01	0	21	104	0	81	35559
2026-01-11 14:24:15.46	239.81	2.84	-56.9	-76.2	3.8	7.47e-01	0	21	104	0	81	35616
2026-01-11 14:24:16.46	239.93	2.89	-56.9	-76.2	3.8	7.45e-01	0	21	104	0	81	35626
2026-01-11 14:24:17.47	240.04	2.93	-56.9	-76.3	3.8	7.46e-01	0	21	104	0	81	35738
2026-01-11 14:24:18.48	240.16	2.98	-56.9	-76.3	3.8	7.46e-01	0	21	104	0	81	35733
2026-01-11 14:24:19.49	240.28	3.03	-57.0	-76.2	3.8	7.44e-01	0	21	104	0	81	35684
2026-01-11 14:24:20.50	240.40	3.08	-56.9	-76.2	3.8	7.50e-01	0	21	104	0	81	35638
2026-01-11 14:24:21.50	240.51	3.13	-57.0	-76.3	3.8	7.47e-01	0	21	104	0	81	35704
2026-01-11 14:24:22.51	240.63	3.17	-57.0	-76.3	3.8	7.48e-01	0	21	104	0	81	35794
2026-01-11 14:24:23.52	240.75	3.22	-56.9	-76.2	3.8	7.48e-01	0	21	104	0	81	35650
2026-01-11 14:24:24.53	240.87	3.27	-57.0	-76.1	3.8	7.46e-01	0	21	104	0	81	35173
2026-01-11 14:24:25.54	240.99	3.32	-56.9	-76.0	3.8	7.44e-01	0	22	104	0	81	34738
2026-01-11 14:24:26.55	241.11	3.36	-56.9	-76.0	3.8	7.46e-01	0	21	104	0	81	34648
2026-01-11 14:24:27.55	241.23	3.41	-57.0	-76.0	3.8	7.48e-01	0	21	104	0	81	34507
2026-01-11 14:24:28.56	241.35	3.46	-56.9	-75.8	3.8	7.47e-01	0	22	104	0	81	34050
2026-01-11 14:24:29.57	241.47	3.51	-56.9	-75.8	3.8	7.45e-01	0	21	104	0	81	33809
2026-01-11 14:24:30.58	241.59	3.56	-56.9	-75.8	3.8	7.47e-01	0	21	104	0	81	33987
2026-01-11 14:24:31.59	241.71	3.60	-56.9	-75.9	3.8	7.46e-01	0	22	104	0	81	34114
2026-01-11 14:24:32.60	241.83	3.65	-56.9	-76.0	3.8	7.47e-01	0	22	104	0	81	34582
2026-01-11 14:24:33.61	241.96	3.70	-56.9	-76.2	3.8	7.49e-01	0	22	104	0	81	35424
2026-01-11 14:24:34.62	242.08	3.75	-56.9	-76.2	3.8	7.45e-01	0	21	104	0	81	35429
2026-01-11 14:24:35.62	242.20	3.79	-56.9	-75.9	3.8	7.44e-01	0	22	104	0	81	34473
2026-01-11 14:24:36.63	242.33	3.84	-56.9	-75.6	3.8	7.48e-01	0	22	104	0	81	33035
2026-01-11 14:24:37.64	242.45	3.89	-56.9	-75.4	3.8	7.48e-01	0	22	104	0	81	32182
2026-01-11 14:24:38.65	242.58	3.94	-56.9	-75.1	3.8	7.42e-01	0	22	104	0	81	31318
2026-01-11 14:24:39.65	242.70	3.99	-56.9	-75.5	3.8	7.47e-01	0	22	104	0	81	32851
2026-01-11 14:24:40.66	242.83	4.03	-57.0	-75.9	3.8	7.45e-01	0	22	104	0	81	34258
2026-01-11 14:24:41.67	242.95	4.08	-56.9	-76.2	3.8	7.48e-01	0	22	104	0	81	35416
2026-01-11 14:24:42.68	243.08	4.13	-57.0	-76.2	3.8	7.48e-01	0	22	104	0	81	35666
2026-01-11 14:24:43.69	243.21	4.18	-56.9	-76.1	3.8	7.46e-01	0	22	104	0	81	35010
2026-01-11 14:24:44.70	243.33	4.22	-56.9	-75.9	3.8	7.47e-01	0	22	104	0	81	34425
2026-01-11 14:24:45.71	243.46	4.27	-56.9	-75.7	3.8	7.42e-01	0	22	104	0	81	33465
2026-01-11 14:24:46.71	243.59	4.32	-56.9	-75.6	3.8	7.46e-01	0	22	104	0	81	33029
2026-01-11 14:24:47.72	243.72	4.37	-56.9	-75.2	3.8	7.43e-01	0	22	104	0	81	31539
2026-01-11 14:24:48.73	243.85	4.41	-56.9	-74.8	3.8	7.47e-01	0	22	104	0	81	30108
2026-01-11 14:24:49.74	243.98	4.46	-56.9	-73.9	3.9	7.45e-01	0	22	104	0	81	27274
2026-01-11 14:24:50.75	244.11	4.51	-56.9	-73.2	4.1	7.37e-01	0	22	104	0	81	24993
2026-01-11 14:24:51.76	244.24	4.56	-56.9	-74.0	3.8	7.41e-01	0	22	104	0	81	27597
2026-01-11 14:24:52.76	244.37	4.60	-56.9	-75.2	3.8	7.47e-01	0	22	104	0	81	31689
2026-01-11 14:24:53.77	244.50	4.65	-57.0	-76.2	3.8	7.44e-01	0	22	104	0	81	35338
2026-01-11 14:24:54.78	244.63	4.70	-56.9	-74.0	3.9	7.42e-01	0	22	104	0	81	27617
2026-01-11 14:24:55.79	244.76	4.75	-56.7	-69.2	5.8	6.85e-01	92	22	0	0	81	15770
2026-01-11 14:24:56.80	244.90	4.79	-56.6	-66.9	7.6	6.48e-01	83	22	0	2097152	81	12170
2026-01-11 14:24:57.80	245.03	4.84	-56.3	-64.9	9.4	6.25e-01	0	22	0	3670016	81	9623
2026-01-11 14:24:58.81	245.16	4.89	-56.1	-64.0	10.3	6.20e-01	0	22	0	5767168	81	8699
2026-01-11 14:24:59.82	245.30	4.94	-56.0	-63.3	10.9	6.14e-01	0	22	0	7340032	81	8026
2026-01-11 14:25:00.83	245.43	4.98	-55.3	-60.8	12.7	6.09e-01	0	22	0	9437184	79	6770
2026-01-11 14:25:01.83	245.57	5.03	-54.2	-58.2	14.2	6.06e-01	0	22	0	11534336	77	5640
2026-01-11 14:25:02.85	245.70	5.08	-54.3	-58.6	13.9	6.06e-01	0	22	0	13107200	76	6216
2026-01-11 14:25:03.85	245.84	5.13	-56.0	-63.6	10.5	6.17e-01	0	22	0	15204352	79	9382
2026-01-11 14:25:04.86	245.97	5.17	-51.3	-53.6	15.8	6.07e-01	0	22	0	16777216	71	4699
2026-01-11 14:25:05.87	246.11	5.22	-55.7	-62.6	11.4	6.13e-01	0	22	0	18874368	79	8352
2026-01-11 14:25:06.88	246.25	5.27	-52.8	-55.8	15.0	6.07e-01	0	22	0	20971520	73	5360
2026-01-11 14:25:07.88	246.39	5.31	-50.8	-53.0	15.8	6.07e-01	0	22	0	22544384	70	4609
2026-01-11 14:25:08.88	246.52	5.36	-51.0	-53.3	15.7	6.04e-01	0	22	0	24641536	70	4768
2026-01-11 14:25:09.89	246.66	5.41	-50.8	-53.1	15.8	6.05e-01	0	22	0	26214400	70	4663
2026-01-11 14:25:10.89	246.80	5.45	-50.8	-53.0	15.8	6.06e-01	0	22	0	28311552	70	4644
2026-01-11 14:25:11.90	246.94	5.50	-50.8	-53.0	15.8	6.07e-01	0	22	0	30408704	70	4625
2026-01-11 14:25:12.91	247.08	5.55	-51.0	-53.3	15.7	6.06e-01	0	22	0	31981568	70	4802
2026-01-11 14:25:13.92	247.22	5.60	-50.9	-53.2	15.7	6.07e-01	0	22	0	34078720	70	4717
2026-01-11 14:25:14.93	247.36	5.64	-51.2	-53.6	15.5	6.06e-01	0	22	0	36175872	70	4955
2026-01-11 14:25:15.94	247.50	5.69	-51.1	-53.4	15.6	6.04e-01	0	22	0	37748736	70	4838
2026-01-11 14:25:16.95	247.65	5.74	-51.1	-53.4	15.6	6.06e-01	0	22	0	39845888	70	4840
2026-01-11 14:25:17.95	247.79	5.78	-51.0	-53.3	15.7	6.07e-01	0	22	0	41418752	70	4766
2026-01-11 14:25:18.96	247.93	5.83	-50.7	-52.9	15.9	6.07e-01	0	22	0	43515904	70	4570
2026-01-11 14:25:19.97	248.07	5.88	-50.8	-53.0	15.8	6.10e-01	0	22	0	45613056	70	4605
2026-01-11 14:25:20.98	248.22	5.92	-50.7	-52.8	15.9	6.08e-01	0	22	0	47185920	70	4531
2026-01-11 14:25:21.99	248.36	5.97	-50.9	-53.2	15.7	6.09e-01	0	22	0	49283072	70	4713
2026-01-11 14:25:22.99	248.51	6.02	-51.0	-53.2	15.7	6.07e-01	0	22	0	50855936	70	4754
2026-01-11 14:25:24.00	248.65	6.06	-50.7	-52.8	15.9	6.07e-01	0	22	0	52953088	70	4530
2026-01-11 14:25:25.01	248.80	6.11	-50.8	-53.0	15.8	6.05e-01	0	22	0	54525952	70	4617
2026-01-11 14:25:26.02	248.94	6.15	-50.9	-53.1	15.8	6.08e-01	0	22	0	56623104	70	4691
2026-01-11 14:25:27.03	249.09	6.20	-50.9	-53.1	15.8	6.03e-01	0	22	0	58720256	70	4680
2026-01-11 14:25:28.03	249.24	6.25	-50.6	-52.7	15.9	6.06e-01	0	22	0	60293120	70	4492
2026-01-11 14:25:29.04	249.38	6.29	-50.9	-53.1	15.8	6.07e-01	0	22	0	62390272	70	4691
2026-01-11 14:25:30.05	249.53	6.34	-51.2	-53.4	15.6	6.07e-01	0	22	0	64487424	70	4869
2026-01-11 14:25:31.06	249.68	6.38	-50.9	-53.1	15.8	6.06e-01	0	22	0	66060288	70	4656
2026-01-11 14:25:32.07	249.83	6.43	-50.7	-52.8	15.9	6.06e-01	0	22	0	68157440	70	4505
2026-01-11 14:25:33.07	249.98	6.48	-50.7	-52.8	15.9	6.07e-01	0	22	0	69730304	70	4516
2026-01-11 14:25:34.08	250.13	6.52	-50.6	-52.7	16.0	6.08e-01	0	22	0	71827456	70	4470
2026-01-11 14:25:35.09	250.28	6.57	-50.5	-52.6	16.0	6.06e-01	0	22	0	73924608	70	4394
2026-01-11 14:25:36.09	250.43	6.61	-50.7	-52.8	15.9	6.05e-01	0	22	0	75497472	70	4515
2026-01-11 14:25:37.09	250.58	6.66	-50.6	-52.7	16.0	6.04e-01	0	22	0	77594624	70	4472
2026-01-11 14:25:38.09	250.73	6.70	-50.5	-52.5	16.0	6.06e-01	0	22	0	79167488	70	4374
2026-01-11 14:25:39.10	250.89	6.75	-50.2	-52.2	16.0	6.07e-01	0	22	0	81264640	69	4463
2026-01-11 14:25:40.11	251.04	6.79	-50.2	-52.2	16.0	6.06e-01	0	22	0	82837504	69	4482
2026-01-11 14:25:41.12	251.19	6.84	-50.3	-52.3	15.9	6.08e-01	0	22	0	84934656	69	4511
2026-01-11 14:25:42.13	251.35	6.89	-50.4	-52.4	15.9	6.03e-01	0	22	0	87031808	69	4595
2026-01-11 14:25:43.13	251.50	6.93	-50.4	-52.4	15.9	6.07e-01	0	22	0	88604672	69	4587
2026-01-11 14:25:44.13	251.66	6.98	-50.5	-52.5	15.8	6.04e-01	0	22	0	90701824	69	4640
2026-01-11 14:25:45.14	251.81	7.02	-50.5	-52.5	15.8	6.06e-01	0	22	0	92798976	69	4646
2026-01-11 14:25:46.15	251.97	7.07	-50.3	-52.3	15.9	6.04e-01	0	22	0	94371840	69	4527
2026-01-11 14:25:47.16	252.13	7.11	-50.4	-52.4	15.9	6.07e-01	0	22	0	96468992	69	4581
2026-01-11 14:25:48.17	252.28	7.15	-50.5	-52.5	15.8	6.07e-01	0	22	0	98041856	69	4641
2026-01-11 14:25:49.18	252.44	7.20	-50.5	-52.5	15.8	6.07e-01	0	22	0	100139008	69	4649
2026-01-11 14:25:50.19	252.60	7.24	-50.4	-52.4	15.8	6.06e-01	0	22	0	102236160	69	4596
2026-01-11 14:25:51.19	252.76	7.29	-50.4	-52.5	15.9	6.07e-01	0	22	0	103809024	69	4602
2026-01-11 14:25:52.19	252.91	7.33	-50.3	-52.3	15.9	6.05e-01	0	22	0	105906176	69	4530
2026-01-11 14:25:53.20	253.07	7.38	-50.3	-52.3	15.9	6.06e-01	0	22	0	107479040	69	4514
2026-01-11 14:25:54.21	253.24	7.42	-50.3	-52.3	15.9	6.08e-01	0	22	0	109576192	69	4503
2026-01-11 14:25:55.21	253.39	7.47	-50.3	-52.3	15.9	6.06e-01	0	22	0	111149056	69	4496
2026-01-11 14:25:56.22	253.56	7.51	-50.1	-52.1	16.0	6.05e-01	0	22	0	113246208	69	4423
2026-01-11 14:25:57.24	253.72	7.55	-50.1	-52.0	16.0	6.07e-01	0	22	0	115343360	69	4376
2026-01-11 14:25:58.24	253.88	7.60	-50.1	-52.1	16.0	6.07e-01	0	22	0	116916224	69	4416
2026-01-11 14:25:59.25	254.04	7.64	-50.1	-52.1	16.0	6.07e-01	0	22	0	119013376	69	4422
2026-01-11 14:26:00.26	254.21	7.68	-50.3	-52.3	15.9	6.08e-01	0	22	0	121110528	69	4530
2026-01-11 14:26:01.27	254.37	7.73	-50.3	-52.3	15.9	6.06e-01	0	22	0	122683392	69	4529
2026-01-11 14:26:02.28	254.54	7.77	-50.1	-52.1	16.0	6.08e-01	0	22	0	124780544	69	4425
2026-01-11 14:26:03.29	254.70	7.82	-50.1	-52.0	16.0	6.05e-01	0	22	0	126353408	69	4387
2026-01-11 14:26:04.30	254.87	7.86	-50.0	-51.9	16.1	6.04e-01	0	22	0	128450560	69	4337
2026-01-11 14:26:05.31	255.03	7.90	-50.1	-52.0	16.0	6.06e-01	0	22	0	130547712	69	4385
2026-01-11 14:26:06.31	255.20	7.94	-50.2	-52.2	16.0	6.07e-01	0	22	0	132120576	69	4449
2026-01-11 14:26:07.32	255.37	7.99	-50.2	-52.2	16.0	6.10e-01	0	22	0	134217728	69	4466
2026-01-11 14:26:08.33	255.53	8.03	-50.3	-52.2	15.9	6.06e-01	0	22	0	136314880	69	4486
2026-01-11 14:26:09.33	255.70	8.07	-50.3	-52.3	15.9	6.08e-01	0	22	0	137887744	69	4497
2026-01-11 14:26:10.34	255.87	8.11	-50.2	-52.2	16.0	6.06e-01	0	22	0	139984896	69	4444
2026-01-11 14:26:11.35	256.04	8.16	-50.0	-52.0	16.1	6.07e-01	0	22	0	141557760	69	4347
2026-01-11 14:26:12.35	256.21	8.20	-50.0	-52.0	16.0	6.05e-01	0	22	0	143654912	69	4366
2026-01-11 14:26:13.36	256.38	8.24	-50.2	-52.1	16.0	6.06e-01	0	22	0	145227776	69	4433
2026-01-11 14:26:14.36	256.55	8.28	-50.0	-52.0	16.1	6.06e-01	0	23	0	147324928	69	4353
2026-01-11 14:26:15.37	256.72	8.33	-49.9	-51.8	16.1	6.07e-01	0	23	0	149422080	69	4287
2026-01-11 14:26:16.38	256.89	8.37	-49.9	-51.8	16.1	6.07e-01	0	22	0	150994944	69	4272
2026-01-11 14:26:17.39	257.06	8.41	-49.9	-51.8	16.1	6.08e-01	0	22	0	153092096	69	4274
2026-01-11 14:26:18.40	257.23	8.45	-49.8	-51.8	15.9	6.06e-01	0	22	0	154664960	68	4501
2026-01-11 14:26:19.41	257.41	8.49	-50.0	-51.9	15.9	6.05e-01	0	22	0	156762112	68	4589
2026-01-11 14:26:20.42	257.58	8.53	-49.9	-51.9	15.9	6.07e-01	0	22	0	158859264	68	4553
2026-01-11 14:26:21.43	257.76	8.57	-49.9	-51.8	15.9	6.07e-01	0	23	0	160432128	68	4504
2026-01-11 14:26:22.43	257.93	8.61	-50.0	-51.9	15.9	6.06e-01	0	22	0	162529280	68	4555
2026-01-11 14:26:23.43	258.10	8.66	-49.9	-51.8	15.9	6.07e-01	0	22	0	164626432	68	4532
2026-01-11 14:26:24.44	258.28	8.70	-50.0	-51.9	15.9	6.06e-01	0	23	0	166199296	68	4568
2026-01-11 14:26:25.45	258.46	8.74	-50.0	-52.0	15.8	6.06e-01	0	23	0	168296448	68	4599
2026-01-11 14:26:26.46	258.63	8.78	-50.0	-51.9	15.9	6.07e-01	0	23	0	169869312	68	4564
2026-01-11 14:26:27.47	258.81	8.82	-49.9	-51.8	15.9	6.07e-01	0	23	0	171966464	68	4541
2026-01-11 14:26:28.48	258.99	8.86	-49.8	-51.7	16.0	6.06e-01	0	23	0	174063616	68	4457
2026-01-11 14:26:29.48	259.17	8.90	-49.7	-51.6	16.0	6.08e-01	0	23	0	175636480	68	4404
2026-01-11 14:26:30.49	259.34	8.94	-49.7	-51.6	16.0	6.06e-01	0	23	0	177733632	68	4393
2026-01-11 14:26:31.50	259.52	8.98	-49.7	-51.6	16.0	6.07e-01	0	23	0	179306496	68	4408
2026-01-11 14:26:32.51	259.70	9.02	-49.8	-51.7	16.0	6.06e-01	0	23	0	181403648	68	4470
2026-01-11 14:26:33.51	259.88	9.05	-49.8	-51.7	16.0	6.06e-01	0	23	0	182976512	68	4446
2026-01-11 14:26:34.52	260.06	9.09	-49.8	-51.7	16.0	6.04e-01	0	23	0	185073664	68	4487
2026-01-11 14:26:35.53	260.25	9.13	-49.8	-51.7	16.0	6.05e-01	0	23	0	187170816	68	4479
2026-01-11 14:26:36.54	260.43	9.17	-49.7	-51.5	16.0	6.06e-01	0	22	0	188743680	68	4372
2026-01-11 14:26:37.55	260.61	9.21	-49.7	-51.6	16.0	6.07e-01	0	23	0	190840832	68	4393
2026-01-11 14:26:38.56	260.79	9.25	-49.7	-51.6	16.0	6.05e-01	0	23	0	192937984	68	4396
2026-01-11 14:26:39.56	260.98	9.29	-49.8	-51.6	16.0	6.05e-01	0	22	0	194510848	68	4441
2026-01-11 14:26:40.57	261.16	9.32	-49.8	-51.6	16.0	6.07e-01	0	23	0	196608000	68	4431
2026-01-11 14:26:41.58	261.34	9.36	-49.7	-51.5	16.0	6.05e-01	0	23	0	198180864	68	4386
2026-01-11 14:26:42.59	261.53	9.40	-49.8	-51.6	16.0	6.07e-01	0	22	0	200278016	68	4432
2026-01-11 14:26:43.59	261.71	9.44	-49.7	-51.6	16.0	6.08e-01	0	23	0	202375168	68	4411
2026-01-11 14:26:44.60	261.90	9.47	-49.7	-51.5	16.1	6.07e-01	0	23	0	203948032	68	4371
2026-01-11 14:26:45.61	262.09	9.51	-49.7	-51.5	16.1	6.05e-01	0	23	0	206045184	68	4365
2026-01-11 14:26:46.62	262.27	9.55	-49.8	-51.6	16.0	6.06e-01	0	22	0	207618048	68	4435
2026-01-11 14:26:47.63	262.46	9.59	-49.7	-51.5	16.1	6.08e-01	0	23	0	209715200	68	4366
2026-01-11 14:26:48.63	262.65	9.62	-49.7	-51.6	16.0	6.06e-01	0	23	0	211812352	68	4421
2026-01-11 14:26:49.64	262.84	9.66	-49.7	-51.5	16.0	6.02e-01	0	23	0	213385216	68	4363
2026-01-11 14:26:50.65	263.02	9.69	-49.7	-51.6	16.0	6.06e-01	0	23	0	215482368	68	4419
2026-01-11 14:26:51.66	263.21	9.73	-49.8	-51.7	16.0	6.07e-01	0	23	0	217055232	68	4455
2026-01-11 14:26:52.67	263.40	9.77	-49.9	-51.7	15.9	6.06e-01	0	23	0	219152384	68	4491
2026-01-11 14:26:53.67	263.59	9.80	-49.7	-51.6	16.0	6.07e-01	0	23	0	221249536	68	4423
2026-01-11 14:26:54.68	263.78	9.84	-49.7	-51.5	16.0	6.07e-01	0	23	0	222822400	68	4381
2026-01-11 14:26:55.69	263.98	9.87	-49.7	-51.5	16.0	6.06e-01	0	23	0	224919552	68	4356
2026-01-11 14:26:56.69	264.17	9.91	-49.5	-51.3	16.1	6.04e-01	0	23	0	226492416	68	4286
2026-01-11 14:26:57.70	264.36	9.94	-49.6	-51.4	16.1	6.04e-01	0	23	0	228589568	68	4317
2026-01-11 14:26:58.71	264.55	9.98	-49.7	-51.6	16.0	6.05e-01	0	23	0	230686720	68	4401
2026-01-11 14:26:59.72	264.74	10.01	-49.6	-51.4	16.1	6.07e-01	0	23	0	232259584	68	4321
2026-01-11 14:27:00.73	264.94	10.05	-49.5	-51.4	16.2	6.06e-01	0	23	0	234356736	68	4295
2026-01-11 14:27:01.74	265.13	10.08	-49.5	-51.3	16.2	6.06e-01	0	23	0	235929600	68	4256
2026-01-11 14:27:02.74	265.33	10.11	-49.6	-51.4	16.1	6.05e-01	0	23	0	238026752	68	4321
2026-01-11 14:27:03.74	265.52	10.15	-49.7	-51.6	16.0	6.06e-01	0	23	0	240123904	68	4393
2026-01-11 14:27:04.75	265.71	10.18	-49.5	-51.4	16.1	6.07e-01	0	23	0	241696768	68	4292
2026-01-11 14:27:05.75	265.91	10.21	-49.6	-51.4	16.1	6.07e-01	0	23	0	243793920	68	4301
2026-01-11 14:27:06.76	266.11	10.24	-49.5	-51.3	16.1	6.06e-01	0	23	0	245366784	68	4279
2026-01-11 14:27:07.77	266.30	10.28	-49.3	-51.1	16.0	6.06e-01	0	23	0	247463936	67	4421
2026-01-11 14:27:08.78	266.50	10.31	-49.5	-51.3	15.9	6.05e-01	0	23	0	249561088	67	4517
2026-01-11 14:27:09.79	266.70	10.34	-49.7	-51.6	15.8	6.07e-01	0	23	0	251133952	67	4662
2026-01-11 14:27:10.80	266.90	10.37	-49.8	-51.8	15.8	6.07e-01	0	23	0	253231104	67	4767
2026-01-11 14:27:11.80	267.09	10.40	-50.0	-52.0	15.7	6.06e-01	0	23	0	254803968	67	4890
2026-01-11 14:27:12.81	267.29	10.44	-50.3	-52.4	15.7	6.08e-01	0	23	0	256901120	68	4834
2026-01-11 14:27:13.82	267.49	10.47	-50.4	-52.4	15.7	6.06e-01	0	23	0	258998272	68	4846
2026-01-11 14:27:14.83	267.69	10.50	-50.3	-52.3	15.7	6.06e-01	0	23	0	260571136	68	4785
2026-01-11 14:27:15.83	267.89	10.53	-50.3	-52.4	15.7	6.08e-01	0	23	0	262668288	68	4816
2026-01-11 14:27:16.84	268.09	10.56	-50.4	-52.4	15.6	6.06e-01	0	23	0	264241152	68	4855
2026-01-11 14:27:17.85	268.30	10.59	-50.4	-52.5	15.6	6.07e-01	0	23	0	266338304	68	4913
2026-01-11 14:27:18.86	268.50	10.62	-50.5	-52.6	15.6	6.04e-01	0	23	0	268435456	68	4933
2026-01-11 14:27:19.87	268.70	10.65	-50.5	-52.6	15.6	6.08e-01	0	23	0	270008320	68	4944
2026-01-11 14:27:20.88	268.90	10.68	-50.2	-52.2	15.8	6.07e-01	0	23	0	272105472	68	4720
2026-01-11 14:27:21.89	269.11	10.71	-49.9	-51.8	15.9	6.03e-01	0	23	0	274202624	68	4535
2026-01-11 14:27:22.89	269.31	10.73	-49.7	-51.6	16.0	6.07e-01	0	23	0	275775488	68	4419
2026-01-11 14:27:23.90	269.51	10.76	-49.7	-51.6	16.0	6.07e-01	0	23	0	277872640	68	4428
2026-01-11 14:27:24.91	269.72	10.79	-49.8	-51.7	15.9	6.05e-01	0	23	0	279445504	68	4459
2026-01-11 14:27:25.92	269.92	10.82	-49.9	-51.9	15.9	6.06e-01	0	23	0	281542656	68	4550
2026-01-11 14:27:26.93	270.13	10.85	-49.9	-51.8	15.9	6.05e-01	0	23	0	283639808	68	4504
2026-01-11 14:27:27.94	270.33	10.87	-49.7	-51.6	16.0	6.06e-01	0	23	0	285212672	68	4420
2026-01-11 14:27:28.95	270.54	10.90	-49.7	-51.5	16.1	6.07e-01	0	23	0	287309824	68	4368
2026-01-11 14:27:29.95	270.74	10.93	-49.7	-51.6	16.0	6.06e-01	0	23	0	288882688	68	4409
2026-01-11 14:27:30.96	270.95	10.95	-49.5	-51.4	16.1	6.07e-01	0	23	0	290979840	68	4300
2026-01-11 14:27:31.97	271.16	10.98	-49.6	-51.4	16.0	6.06e-01	0	23	0	292552704	68	4326
2026-01-11 14:27:32.98	271.36	11.01	-49.5	-51.3	16.1	6.07e-01	0	23	0	294649856	68	4277
2026-01-11 14:27:33.99	271.57	11.03	-49.4	-51.2	16.2	6.08e-01	0	23	0	296747008	68	4214
2026-01-11 14:27:34.99	271.78	11.06	-49.3	-51.0	16.0	6.08e-01	0	23	0	298319872	67	4380
2026-01-11 14:27:36.00	271.99	11.08	-49.3	-51.1	16.0	6.06e-01	0	23	0	300417024	67	4420
2026-01-11 14:27:37.01	272.20	11.11	-49.4	-51.1	16.0	6.05e-01	0	23	0	302514176	67	4429
2026-01-11 14:27:38.02	272.41	11.13	-49.4	-51.2	16.0	6.07e-01	0	23	0	304087040	67	4444
2026-01-11 14:27:39.03	272.62	11.16	-49.4	-51.2	16.0	6.04e-01	0	23	0	306184192	67	4442
2026-01-11 14:27:40.03	272.82	11.18	-49.4	-51.2	15.9	6.08e-01	0	23	0	307757056	67	4490
2026-01-11 14:27:41.04	273.04	11.20	-49.3	-51.1	16.0	6.06e-01	0	23	0	309854208	67	4419
2026-01-11 14:27:42.05	273.25	11.23	-49.3	-51.0	16.0	6.08e-01	0	23	0	311951360	67	4377
2026-01-11 14:27:43.06	273.46	11.25	-49.3	-51.1	16.0	6.06e-01	0	23	0	313524224	67	4431
2026-01-11 14:27:44.07	273.67	11.27	-49.4	-51.1	16.0	6.06e-01	0	23	0	315621376	67	4437
2026-01-11 14:27:45.08	273.88	11.30	-49.3	-51.1	16.0	6.05e-01	0	23	0	317718528	67	4410
2026-01-11 14:27:46.09	274.09	11.32	-49.4	-51.2	16.0	6.05e-01	0	23	0	319291392	67	4444
2026-01-11 14:27:47.09	274.30	11.34	-49.4	-51.1	16.0	6.07e-01	0	23	0	321388544	67	4439
2026-01-11 14:27:48.10	274.52	11.36	-49.3	-51.1	16.0	6.07e-01	0	23	0	322961408	67	4403
2026-01-11 14:27:49.11	274.73	11.38	-49.4	-51.2	16.0	6.06e-01	0	23	0	325058560	67	4456
2026-01-11 14:27:50.12	274.94	11.40	-49.3	-51.1	16.0	6.05e-01	0	23	0	326631424	67	4421
2026-01-11 14:27:51.12	275.16	11.42	-49.4	-51.1	16.0	6.06e-01	0	23	0	328728576	67	4436
2026-01-11 14:27:52.13	275.37	11.44	-49.3	-51.0	16.0	6.06e-01	0	23	0	330825728	67	4386
2026-01-11 14:27:53.13	275.58	11.46	-49.3	-51.1	16.0	6.06e-01	0	23	0	332398592	67	4415
2026-01-11 14:27:54.14	275.80	11.48	-49.3	-51.1	16.0	6.06e-01	0	23	0	334495744	67	4433
2026-01-11 14:27:55.15	276.01	11.50	-49.3	-51.1	16.0	6.06e-01	0	23	0	336068608	67	4417
2026-01-11 14:27:56.15	276.23	11.52	-49.3	-51.1	16.0	6.03e-01	0	23	0	338165760	67	4409
2026-01-11 14:27:57.16	276.44	11.54	-49.3	-51.1	16.0	6.06e-01	0	23	0	340262912	67	4410
2026-01-11 14:27:58.17	276.66	11.56	-49.4	-51.2	16.0	6.07e-01	0	23	0	341835776	67	4448
2026-01-11 14:27:59.18	276.87	11.58	-49.3	-51.0	16.0	6.07e-01	0	23	0	343932928	67	4389
2026-01-11 14:28:00.19	277.09	11.59	-49.4	-51.1	16.0	6.07e-01	0	23	0	346030080	67	4424
2026-01-11 14:28:01.20	277.31	11.61	-49.3	-51.0	16.0	6.07e-01	0	23	0	347602944	67	4383
2026-01-11 14:28:02.20	277.52	11.63	-49.3	-51.1	16.0	6.04e-01	0	23	0	349700096	67	4409
2026-01-11 14:28:03.21	277.74	11.64	-49.4	-51.2	15.9	6.04e-01	0	23	0	351272960	67	4446
2026-01-11 14:28:04.22	277.96	11.66	-49.3	-51.1	16.0	6.07e-01	0	23	0	353370112	67	4413
2026-01-11 14:28:05.23	278.17	11.68	-49.5	-51.3	16.0	6.06e-01	0	23	0	355467264	67	4508
2026-01-11 14:28:06.24	278.39	11.69	-49.4	-51.2	16.0	6.08e-01	0	23	0	357040128	67	4471
2026-01-11 14:28:07.24	278.61	11.71	-49.3	-51.1	16.0	6.05e-01	0	23	0	359137280	67	4413
2026-01-11 14:28:08.25	278.83	11.72	-49.5	-51.2	15.9	6.07e-01	0	23	0	360710144	67	4489
2026-01-11 14:28:09.26	279.05	11.74	-49.6	-51.4	15.9	6.07e-01	0	23	0	362807296	67	4564
2026-01-11 14:28:10.26	279.26	11.75	-49.6	-51.4	15.9	6.07e-01	0	23	0	364380160	67	4551
2026-01-11 14:28:11.27	279.48	11.76	-49.4	-51.2	16.0	6.05e-01	0	23	0	366477312	67	4464
2026-01-11 14:28:12.28	279.70	11.78	-49.4	-51.2	16.0	6.04e-01	0	23	0	368574464	67	4479
2026-01-11 14:28:13.29	279.92	11.79	-49.4	-51.1	16.0	6.05e-01	0	23	0	370147328	67	4439
2026-01-11 14:28:14.30	280.14	11.80	-49.5	-51.2	15.9	6.07e-01	0	23	0	372244480	67	4489
2026-01-11 14:28:15.31	280.36	11.82	-49.3	-51.1	16.0	6.07e-01	0	23	0	374341632	67	4414
2026-01-11 14:28:16.32	280.58	11.83	-49.4	-51.2	16.0	6.07e-01	0	23	0	375914496	67	4457
2026-01-11 14:28:17.33	280.80	11.84	-49.5	-51.3	15.9	6.08e-01	0	23	0	378011648	67	4503
2026-01-11 14:28:18.34	281.02	11.85	-49.5	-51.3	15.9	6.08e-01	0	23	0	379584512	67	4525
2026-01-11 14:28:19.34	281.24	11.86	-49.4	-51.2	16.0	6.06e-01	0	23	0	381681664	67	4462
2026-01-11 14:28:20.35	281.46	11.87	-49.4	-51.2	16.0	6.04e-01	0	23	0	383778816	67	4469
2026-01-11 14:28:21.36	281.68	11.88	-49.4	-51.1	16.0	6.07e-01	0	23	0	385351680	67	4438
2026-01-11 14:28:22.37	281.90	11.89	-49.4	-51.2	16.0	6.07e-01	0	23	0	387448832	67	4469
2026-01-11 14:28:23.38	282.13	11.90	-49.4	-51.1	16.0	6.09e-01	0	23	0	389021696	67	4430
2026-01-11 14:28:24.38	282.34	11.91	-49.4	-51.1	16.0	6.07e-01	0	23	0	391118848	67	4426
2026-01-11 14:28:25.39	282.57	11.92	-49.5	-51.3	15.9	6.05e-01	0	23	0	393216000	67	4520
2026-01-11 14:28:26.39	282.79	11.93	-49.5	-51.3	15.9	6.05e-01	0	23	0	394788864	67	4527
2026-01-11 14:28:27.40	283.01	11.94	-49.5	-51.3	15.9	6.02e-01	0	23	0	396886016	67	4519
2026-01-11 14:28:28.41	283.23	11.95	-49.5	-51.3	15.9	6.02e-01	0	23	0	398458880	67	4523
2026-01-11 14:28:29.42	283.45	11.95	-49.5	-51.3	15.9	6.04e-01	0	23	0	400556032	67	4518
2026-01-11 14:28:30.43	283.67	11.96	-49.5	-51.3	15.9	6.00e-01	0	23	0	402653184	67	4522
2026-01-11 14:28:31.43	283.89	11.97	-49.4	-51.2	15.9	6.01e-01	0	23	0	404226048	67	4482
2026-01-11 14:28:32.44	284.12	11.97	-49.6	-51.4	15.9	6.05e-01	0	23	0	406323200	67	4562
2026-01-11 14:28:33.45	284.34	11.98	-49.5	-51.2	15.9	6.01e-01	0	23	0	407896064	67	4487
2026-01-11 14:28:34.46	284.56	11.99	-49.5	-51.2	15.9	6.02e-01	0	23	0	409993216	67	4482
2026-01-11 14:28:35.46	284.78	11.99	-49.2	-51.0	16.0	6.04e-01	0	23	0	412090368	67	4346
2026-01-11 14:28:36.47	285.01	12.00	-49.5	-51.3	15.9	6.04e-01	0	23	0	413663232	67	4515
2026-01-11 14:28:37.48	285.23	12.00	-49.5	-51.3	15.9	6.04e-01	0	23	0	415760384	67	4523
2026-01-11 14:28:38.49	285.45	12.00	-49.6	-51.4	15.9	6.03e-01	0	23	0	417333248	67	4597
2026-01-11 14:28:39.50	285.67	12.01	-49.6	-51.4	15.9	6.05e-01	0	23	0	419430400	67	4593
2026-01-11 14:28:40.50	285.89	12.01	-49.6	-51.4	15.9	6.03e-01	0	23	0	421527552	67	4598
2026-01-11 14:28:41.51	286.12	12.01	-49.6	-51.3	15.8	6.02e-01	0	23	0	423100416	67	4545
2026-01-11 14:28:42.52	286.34	12.02	-49.6	-51.3	15.9	6.03e-01	0	23	0	425197568	67	4540
2026-01-11 14:28:43.53	286.56	12.02	-49.6	-51.4	15.9	6.03e-01	0	23	0	427294720	67	4593
2026-01-11 14:28:44.54	286.79	12.02	-49.5	-51.2	15.9	6.04e-01	0	23	0	428867584	67	4484
2026-01-11 14:28:45.55	287.01	12.02	-49.5	-51.3	15.9	6.03e-01	0	23	0	430964736	67	4515
2026-01-11 14:28:46.55	287.23	12.02	-49.5	-51.3	15.9	6.03e-01	0	23	0	432537600	67	4507
2026-01-11 14:28:47.56	287.45	12.02	-49.6	-51.4	15.9	6.04e-01	0	23	0	434634752	67	4580
2026-01-11 14:28:48.57	287.68	12.03	-49.8	-51.6	15.8	6.04e-01	0	23	0	436207616	67	4674
2026-01-11 14:28:49.58	287.90	12.03	-49.8	-51.6	15.8	6.04e-01	0	23	0	438304768	67	4694
2026-01-11 14:28:50.59	288.12	12.02	-49.6	-51.3	15.9	6.04e-01	0	23	0	440401920	67	4535
2026-01-11 14:28:51.59	288.35	12.02	-49.3	-51.0	16.0	6.01e-01	0	23	0	441974784	67	4370
2026-01-11 14:28:52.60	288.57	12.02	-49.4	-51.1	16.0	6.02e-01	0	23	0	444071936	67	4426
2026-01-11 14:28:53.61	288.79	12.02	-49.5	-51.3	15.9	6.01e-01	0	23	0	445644800	67	4499
2026-01-11 14:28:54.62	289.01	12.02	-49.6	-51.4	15.9	6.04e-01	0	23	0	447741952	67	4576
2026-01-11 14:28:55.63	289.24	12.02	-49.6	-51.4	15.9	6.04e-01	0	23	0	449839104	67	4567
2026-01-11 14:28:56.63	289.46	12.02	-49.7	-51.5	15.9	6.02e-01	0	23	0	451411968	67	4600
2026-01-11 14:28:57.64	289.68	12.01	-49.7	-51.5	15.9	6.03e-01	0	23	0	453509120	67	4615
2026-01-11 14:28:58.65	289.90	12.01	-49.7	-51.5	15.9	6.04e-01	0	23	0	455606272	67	4599
2026-01-11 14:28:59.66	290.13	12.01	-49.6	-51.4	15.9	6.03e-01	0	23	0	457179136	67	4578
2026-01-11 14:29:00.66	290.35	12.00	-49.7	-51.5	15.9	6.05e-01	0	23	0	459276288	67	4625
2026-01-11 14:29:01.67	290.57	12.00	-49.6	-51.4	15.9	6.00e-01	0	23	0	460849152	67	4569
2026-01-11 14:29:02.68	290.79	11.99	-49.6	-51.4	15.9	6.04e-01	0	23	0	462946304	67	4551
2026-01-11 14:29:03.69	291.02	11.99	-49.5	-51.3	15.9	6.04e-01	0	23	0	465043456	67	4512
2026-01-11 14:29:04.69	291.24	11.98	-49.6	-51.4	15.8	6.02e-01	0	23	0	466616320	67	4589
2026-01-11 14:29:05.70	291.46	11.98	-49.6	-51.4	15.8	6.04e-01	0	23	0	468713472	67	4593
2026-01-11 14:29:06.71	291.68	11.97	-49.7	-51.5	15.9	6.02e-01	0	23	0	470286336	67	4615
2026-01-11 14:29:07.72	291.90	11.96	-49.7	-51.4	15.9	6.03e-01	0	23	0	472383488	67	4597
2026-01-11 14:29:08.73	292.13	11.96	-49.5	-51.2	15.9	6.05e-01	0	23	0	474480640	67	4482
2026-01-11 14:29:09.74	292.35	11.95	-49.5	-51.2	16.0	6.03e-01	0	23	0	476053504	67	4490
2026-01-11 14:29:10.75	292.57	11.94	-49.5	-51.3	15.9	6.04e-01	0	23	0	478150656	67	4497
2026-01-11 14:29:11.75	292.79	11.93	-49.6	-51.3	15.9	6.04e-01	0	23	0	479723520	67	4537
2026-01-11 14:29:12.75	293.01	11.92	-49.6	-51.4	15.9	6.03e-01	0	23	0	481820672	67	4553
2026-01-11 14:29:13.76	293.23	11.92	-49.7	-51.5	15.9	6.04e-01	0	23	0	483917824	67	4607
2026-01-11 14:29:14.77	293.45	11.91	-49.7	-51.5	15.8	6.02e-01	0	23	0	485490688	67	4647
2026-01-11 14:29:15.77	293.67	11.90	-49.8	-51.6	15.8	6.03e-01	0	23	0	487587840	67	4677
2026-01-11 14:29:16.78	293.89	11.89	-49.7	-51.5	15.9	6.04e-01	0	23	0	489160704	67	4600
2026-01-11 14:29:17.79	294.11	11.88	-49.5	-51.3	15.9	6.02e-01	0	23	0	491257856	67	4520
2026-01-11 14:29:18.80	294.33	11.87	-49.6	-51.4	15.9	6.04e-01	0	23	0	493355008	67	4555
2026-01-11 14:29:19.81	294.55	11.86	-49.5	-51.3	15.9	6.02e-01	0	23	0	494927872	67	4514
2026-01-11 14:29:20.82	294.77	11.84	-49.5	-51.3	15.9	6.04e-01	0	23	0	497025024	67	4497
2026-01-11 14:29:21.83	294.99	11.83	-49.5	-51.3	15.9	6.03e-01	0	23	0	499122176	67	4529
2026-01-11 14:29:22.84	295.21	11.82	-49.6	-51.4	15.9	6.03e-01	0	23	0	500695040	67	4580
2026-01-11 14:29:23.84	295.43	11.81	-49.7	-51.5	15.9	6.02e-01	0	23	0	502792192	67	4600
2026-01-11 14:29:24.85	295.65	11.80	-49.7	-51.5	15.8	6.06e-01	0	23	0	504365056	67	4623
2026-01-11 14:29:25.86	295.87	11.78	-49.7	-51.5	15.8	6.04e-01	0	23	0	506462208	67	4645
2026-01-11 14:29:26.87	296.09	11.77	-49.7	-51.5	15.8	6.03e-01	0	23	0	508035072	67	4621
2026-01-11 14:29:27.88	296.31	11.76	-49.6	-51.4	15.9	6.04e-01	0	23	0	510132224	67	4581
2026-01-11 14:29:28.89	296.53	11.74	-49.5	-51.3	15.9	6.01e-01	0	23	0	512229376	67	4516
2026-01-11 14:29:29.90	296.75	11.73	-49.5	-51.2	15.9	6.02e-01	0	23	0	513802240	67	4481
2026-01-11 14:29:30.90	296.96	11.71	-49.5	-51.3	15.9	6.05e-01	0	23	0	515899392	67	4541
2026-01-11 14:29:31.91	297.18	11.70	-49.5	-51.3	15.9	6.02e-01	0	23	0	517472256	67	4528
2026-01-11 14:29:32.92	297.40	11.68	-49.5	-51.2	15.9	6.04e-01	0	23	0	519569408	67	4489
2026-01-11 14:29:33.93	297.62	11.67	-49.5	-51.3	15.9	6.02e-01	0	23	0	521666560	67	4494
2026-01-11 14:29:34.94	297.83	11.65	-49.6	-51.4	15.9	6.01e-01	0	23	0	523239424	67	4559
2026-01-11 14:29:35.95	298.05	11.63	-49.5	-51.3	15.9	6.03e-01	0	23	0	525336576	67	4535
2026-01-11 14:29:36.96	298.27	11.62	-49.7	-51.5	15.8	6.06e-01	0	23	0	527433728	67	4610
2026-01-11 14:29:37.96	298.48	11.60	-49.6	-51.4	15.8	6.02e-01	0	23	0	529006592	67	4592
2026-01-11 14:29:38.97	298.70	11.58	-49.6	-51.4	15.9	6.05e-01	0	23	0	531103744	67	4577
2026-01-11 14:29:39.97	298.91	11.57	-49.6	-51.4	15.9	6.04e-01	0	23	0	532676608	67	4546
2026-01-11 14:29:40.98	299.13	11.55	-49.6	-51.4	15.9	6.03e-01	0	23	0	534773760	67	4548
2026-01-11 14:29:41.99	299.34	11.53	-49.5	-51.3	15.9	6.04e-01	0	23	0	536870912	67	4528
2026-01-11 14:29:43.00	299.56	11.51	-49.6	-51.4	15.9	6.04e-01	0	23	0	538443776	67	4568
2026-01-11 14:29:44.01	299.77	11.49	-49.7	-51.5	15.9	6.02e-01	0	23	0	540540928	67	4609
2026-01-11 14:29:45.02	299.99	11.47	-49.6	-51.4	15.9	6.03e-01	0	23	0	542113792	67	4563
2026-01-11 14:29:46.03	300.20	11.45	-49.6	-51.4	15.9	6.04e-01	0	23	0	544210944	67	4582
2026-01-11 14:29:47.04	300.41	11.43	-49.6	-51.4	15.9	6.04e-01	0	23	0	546308096	67	4568
2026-01-11 14:29:48.05	300.63	11.41	-49.6	-51.5	15.8	6.02e-01	0	23	0	547880960	67	4599
2026-01-11 14:29:49.05	300.84	11.39	-49.5	-51.3	15.9	6.04e-01	0	23	0	549978112	67	4507
2026-01-11 14:29:50.06	301.05	11.37	-49.6	-51.4	15.9	6.03e-01	0	23	0	551550976	67	4564
2026-01-11 14:29:51.06	301.26	11.35	-49.6	-51.5	15.9	6.03e-01	0	23	0	553648128	67	4605
2026-01-11 14:29:52.07	301.47	11.33	-49.5	-51.3	15.9	6.04e-01	0	23	0	555745280	67	4500
2026-01-11 14:29:53.08	301.69	11.31	-49.6	-51.4	15.9	6.02e-01	0	23	0	557318144	67	4558
2026-01-11 14:29:54.09	301.90	11.28	-49.5	-51.3	15.9	6.02e-01	0	23	0	559415296	67	4504
2026-01-11 14:29:55.10	302.11	11.26	-49.6	-51.4	15.9	6.03e-01	0	23	0	560988160	67	4552
2026-01-11 14:29:56.10	302.32	11.24	-49.5	-51.3	15.9	6.03e-01	0	23	0	563085312	67	4535
2026-01-11 14:29:57.11	302.53	11.21	-49.5	-51.3	15.9	6.04e-01	0	23	0	565182464	67	4523
2026-01-11 14:29:58.12	302.74	11.19	-49.6	-51.4	15.9	6.04e-01	0	23	0	566755328	67	4558
2026-01-11 14:29:59.12	302.95	11.17	-49.6	-51.4	15.9	6.03e-01	0	23	0	568852480	67	4554
2026-01-11 14:30:00.13	303.16	11.14	-49.5	-51.3	15.9	6.02e-01	0	23	0	570425344	67	4506
2026-01-11 14:30:01.14	303.37	11.12	-49.4	-51.1	16.0	6.02e-01	0	23	0	572522496	67	4441
2026-01-11 14:30:02.15	303.57	11.09	-49.4	-51.2	16.0	6.04e-01	0	23	0	574619648	67	4459
2026-01-11 14:30:03.16	303.78	11.07	-49.5	-51.3	15.9	6.05e-01	0	23	0	576192512	67	4522
2026-01-11 14:30:04.16	303.99	11.04	-49.5	-51.3	15.9	6.03e-01	0	23	0	578289664	67	4534
2026-01-11 14:30:05.17	304.20	11.02	-49.5	-51.3	15.9	6.02e-01	0	23	0	579862528	67	4498
2026-01-11 14:30:06.18	304.40	10.99	-49.5	-51.3	15.9	6.02e-01	0	23	0	581959680	67	4523
2026-01-11 14:30:07.19	304.61	10.97	-49.5	-51.3	15.9	6.03e-01	0	23	0	584056832	67	4514
2026-01-11 14:30:08.19	304.81	10.94	-49.5	-51.3	15.9	6.02e-01	0	23	0	585629696	67	4515
2026-01-11 14:30:09.20	305.02	10.91	-49.6	-51.4	15.9	6.04e-01	0	23	0	587726848	67	4553
2026-01-11 14:30:10.21	305.23	10.89	-49.6	-51.4	15.9	6.02e-01	0	23	0	589299712	67	4595
2026-01-11 14:30:11.22	305.43	10.86	-49.6	-51.4	15.9	6.02e-01	0	23	0	591396864	67	4578
2026-01-11 14:30:12.23	305.64	10.83	-49.6	-51.4	15.9	6.03e-01	0	23	0	593494016	67	4583
2026-01-11 14:30:13.24	305.84	10.80	-49.5	-51.3	15.9	6.03e-01	0	23	0	595066880	67	4522
2026-01-11 14:30:14.25	306.05	10.78	-49.4	-51.1	16.0	6.04e-01	0	23	0	597164032	67	4436
2026-01-11 14:30:15.26	306.25	10.75	-49.4	-51.2	15.9	6.03e-01	0	23	0	598736896	67	4464
2026-01-11 14:30:16.26	306.45	10.72	-49.5	-51.3	15.9	6.03e-01	0	23	0	600834048	67	4523
2026-01-11 14:30:17.26	306.65	10.69	-49.5	-51.3	15.9	6.02e-01	0	23	0	602931200	67	4507
2026-01-11 14:30:18.27	306.85	10.66	-49.5	-51.2	15.9	6.03e-01	0	23	0	604504064	67	4488
2026-01-11 14:30:19.28	307.06	10.63	-49.6	-51.4	15.9	6.04e-01	0	23	0	606601216	67	4560
2026-01-11 14:30:20.29	307.26	10.60	-49.6	-51.4	15.9	6.02e-01	0	23	0	608698368	67	4597
2026-01-11 14:30:21.30	307.46	10.57	-49.6	-51.4	15.8	6.04e-01	0	23	0	610271232	67	4570
2026-01-11 14:30:22.30	307.66	10.54	-49.7	-51.5	15.8	6.00e-01	0	23	0	612368384	67	4628
2026-01-11 14:30:23.32	307.86	10.51	-49.5	-51.3	15.9	6.00e-01	0	23	0	613941248	67	4545
2026-01-11 14:30:24.32	308.06	10.48	-49.5	-51.3	15.9	6.03e-01	0	23	0	616038400	67	4535
2026-01-11 14:30:25.33	308.26	10.45	-49.5	-51.3	15.9	6.03e-01	0	23	0	618135552	67	4537
2026-01-11 14:30:26.33	308.45	10.42	-49.5	-51.3	15.9	6.02e-01	0	23	0	619708416	67	4535
2026-01-11 14:30:27.34	308.65	10.39	-49.6	-51.4	15.9	6.03e-01	0	23	0	621805568	67	4572
2026-01-11 14:30:28.35	308.85	10.36	-49.6	-51.5	15.8	6.02e-01	0	23	0	623378432	67	4613
2026-01-11 14:30:29.36	309.05	10.33	-49.6	-51.4	15.8	6.03e-01	0	23	0	625475584	67	4577
2026-01-11 14:30:30.36	309.24	10.29	-49.6	-51.5	15.8	6.04e-01	0	23	0	627048448	67	4600
2026-01-11 14:30:31.37	309.44	10.26	-49.6	-51.4	15.8	6.02e-01	0	23	0	629145600	67	4591
2026-01-11 14:30:32.38	309.63	10.23	-49.5	-51.3	15.9	6.03e-01	0	23	0	631242752	67	4541
2026-01-11 14:30:33.38	309.83	10.20	-49.5	-51.3	15.9	6.02e-01	0	23	0	632815616	67	4535
2026-01-11 14:30:34.39	310.02	10.16	-49.5	-51.3	15.9	6.02e-01	0	23	0	634912768	67	4513
2026-01-11 14:30:35.40	310.22	10.13	-49.5	-51.3	15.9	6.03e-01	0	23	0	637009920	67	4523
2026-01-11 14:30:36.41	310.41	10.10	-49.4	-51.2	15.9	6.03e-01	0	23	0	638582784	67	4481
2026-01-11 14:30:37.42	310.61	10.06	-49.4	-51.2	15.9	6.03e-01	0	23	0	640679936	67	4473
2026-01-11 14:30:38.43	310.80	10.03	-49.4	-51.2	15.9	6.05e-01	0	23	0	642252800	67	4463
2026-01-11 14:30:39.43	310.99	10.00	-49.5	-51.3	15.9	6.02e-01	0	23	0	644349952	67	4518
2026-01-11 14:30:40.43	311.18	9.96	-49.7	-51.5	15.8	6.03e-01	0	23	0	646447104	67	4644
2026-01-11 14:30:41.43	311.37	9.93	-49.7	-51.5	15.8	6.00e-01	0	23	0	648019968	67	4627
2026-01-11 14:30:42.45	311.57	9.89	-49.7	-51.5	15.8	6.03e-01	0	23	0	650117120	67	4635
2026-01-11 14:30:43.45	311.75	9.86	-49.6	-51.5	15.8	6.04e-01	0	23	0	651689984	67	4613
2026-01-11 14:30:44.46	311.94	9.82	-49.6	-51.4	15.9	6.02e-01	0	23	0	653787136	67	4569
2026-01-11 14:30:45.47	312.13	9.79	-49.5	-51.4	15.9	6.04e-01	0	23	0	655360000	67	4548
2026-01-11 14:30:46.48	312.32	9.75	-49.5	-51.4	15.9	6.00e-01	0	23	0	657457152	67	4556
2026-01-11 14:30:47.48	312.51	9.72	-49.4	-51.3	15.9	6.04e-01	0	23	0	659554304	67	4500
2026-01-11 14:30:48.49	312.70	9.68	-49.6	-51.4	15.9	6.04e-01	0	23	0	661127168	67	4569
2026-01-11 14:30:49.50	312.89	9.65	-49.6	-51.4	15.9	6.04e-01	0	23	0	663224320	67	4571
2026-01-11 14:30:50.51	313.08	9.61	-49.6	-51.4	15.9	6.03e-01	0	23	0	665321472	67	4571
2026-01-11 14:30:51.52	313.26	9.57	-49.5	-51.4	15.9	6.02e-01	0	23	0	666894336	67	4559
2026-01-11 14:30:52.53	313.45	9.54	-49.7	-51.6	15.8	6.03e-01	0	23	0	668991488	67	4655
2026-01-11 14:30:53.54	313.64	9.50	-49.6	-51.5	15.8	6.03e-01	0	23	0	670564352	67	4605
2026-01-11 14:30:54.54	313.82	9.46	-49.7	-51.5	15.8	6.04e-01	0	23	0	672661504	67	4634
2026-01-11 14:30:55.55	314.00	9.43	-49.7	-51.5	15.8	6.04e-01	0	23	0	674758656	67	4644
2026-01-11 14:30:56.56	314.19	9.39	-49.6	-51.5	15.8	6.05e-01	0	23	0	676331520	67	4635
2026-01-11 14:30:57.57	314.37	9.35	-49.6	-51.4	15.8	6.02e-01	0	23	0	678428672	67	4598
2026-01-11 14:30:58.58	314.56	9.31	-49.7	-51.5	15.8	6.02e-01	0	23	0	680525824	67	4637
2026-01-11 14:30:59.59	314.74	9.27	-49.7	-51.5	15.8	6.05e-01	0	23	0	682098688	67	4631
2026-01-11 14:31:00.60	314.92	9.24	-49.7	-51.6	15.8	6.03e-01	0	23	0	684195840	67	4682
2026-01-11 14:31:01.60	315.10	9.20	-49.7	-51.6	15.8	6.05e-01	0	23	0	685768704	67	4704
2026-01-11 14:31:02.61	315.28	9.16	-49.7	-51.6	15.8	6.00e-01	0	23	0	687865856	67	4665
2026-01-11 14:31:03.62	315.47	9.12	-49.6	-51.5	15.8	6.02e-01	0	23	0	689438720	67	4621
2026-01-11 14:31:04.63	315.65	9.08	-49.8	-51.7	15.7	6.02e-01	0	23	0	691535872	67	4719
2026-01-11 14:31:05.64	315.83	9.04	-49.6	-51.5	15.8	6.03e-01	0	23	0	693633024	67	4608
2026-01-11 14:31:06.65	316.01	9.00	-49.7	-51.6	15.8	6.05e-01	0	23	0	695205888	67	4659
2026-01-11 14:31:07.65	316.18	8.97	-49.7	-51.5	15.8	6.02e-01	0	23	0	697303040	67	4631
2026-01-11 14:31:08.66	316.36	8.93	-49.6	-51.4	15.8	6.03e-01	0	23	0	698875904	67	4593
2026-01-11 14:31:09.67	316.54	8.89	-49.7	-51.6	15.8	6.05e-01	0	23	0	700973056	67	4653
2026-01-11 14:31:10.68	316.72	8.85	-49.8	-51.7	15.7	6.06e-01	0	23	0	703070208	67	4720
2026-01-11 14:31:11.68	316.89	8.81	-49.9	-51.8	15.7	6.01e-01	0	23	0	704643072	67	4791
2026-01-11 14:31:12.69	317.07	8.77	-49.9	-51.8	15.7	6.05e-01	0	23	0	706740224	67	4795
2026-01-11 14:31:13.70	317.25	8.73	-49.8	-51.7	15.7	6.03e-01	0	23	0	708837376	67	4719
2026-01-11 14:31:14.71	317.42	8.69	-49.7	-51.6	15.7	6.03e-01	0	23	0	710410240	67	4702
2026-01-11 14:31:15.72	317.60	8.65	-49.6	-51.4	15.8	6.03e-01	0	23	0	712507392	67	4593
2026-01-11 14:31:16.72	317.77	8.61	-49.7	-51.6	15.8	6.03e-01	0	23	0	714080256	67	4663
2026-01-11 14:31:17.73	317.94	8.56	-49.7	-51.6	15.8	6.03e-01	0	23	0	716177408	67	4666
2026-01-11 14:31:18.74	318.12	8.52	-49.8	-51.7	15.7	6.01e-01	0	23	0	718274560	67	4720
2026-01-11 14:31:19.75	318.29	8.48	-49.8	-51.7	15.7	6.02e-01	0	23	0	719847424	67	4731
2026-01-11 14:31:20.76	318.46	8.44	-49.7	-51.6	15.8	6.02e-01	0	23	0	721944576	67	4682
2026-01-11 14:31:21.77	318.63	8.40	-49.7	-51.7	15.8	6.00e-01	0	23	0	723517440	67	4712
2026-01-11 14:31:22.78	318.80	8.36	-49.7	-51.6	15.8	6.02e-01	0	23	0	725614592	67	4676
2026-01-11 14:31:23.78	318.97	8.32	-49.7	-51.6	15.8	6.04e-01	0	23	0	727711744	67	4678
2026-01-11 14:31:24.79	319.14	8.28	-49.8	-51.7	15.7	6.01e-01	0	23	0	729284608	67	4750
2026-01-11 14:31:25.80	319.31	8.23	-49.9	-51.9	15.6	6.06e-01	0	23	0	731381760	67	4849
2026-01-11 14:31:26.81	319.48	8.19	-50.0	-52.0	15.6	6.02e-01	0	23	0	732954624	67	4874
2026-01-11 14:31:27.82	319.65	8.15	-49.9	-51.9	15.7	6.03e-01	0	23	0	735051776	67	4831
2026-01-11 14:31:28.83	319.82	8.11	-49.8	-51.8	15.7	6.01e-01	0	23	0	737148928	67	4779
2026-01-11 14:31:29.83	319.99	8.07	-49.8	-51.7	15.7	6.04e-01	0	23	0	738721792	67	4727
2026-01-11 14:31:30.84	320.15	8.02	-49.7	-51.6	15.8	6.05e-01	0	23	0	740818944	67	4654
2026-01-11 14:31:31.84	320.32	7.98	-49.7	-51.6	15.8	6.03e-01	0	23	0	742391808	67	4670
2026-01-11 14:31:32.85	320.49	7.94	-49.6	-51.5	15.8	6.01e-01	0	23	0	744488960	67	4622
2026-01-11 14:31:33.86	320.65	7.90	-49.6	-51.5	15.8	6.05e-01	0	23	0	746586112	67	4645
2026-01-11 14:31:34.86	320.82	7.85	-49.8	-51.8	15.7	6.02e-01	0	23	0	748158976	67	4776
2026-01-11 14:31:35.87	320.98	7.81	-50.0	-52.0	15.6	6.04e-01	0	23	0	750256128	67	4887
2026-01-11 14:31:36.88	321.14	7.77	-50.0	-52.0	15.6	6.04e-01	0	23	0	751828992	67	4916
2026-01-11 14:31:37.89	321.31	7.72	-50.0	-52.0	15.6	6.03e-01	0	23	0	753926144	67	4880
2026-01-11 14:31:38.89	321.47	7.68	-49.9	-51.9	15.6	6.02e-01	0	23	0	756023296	67	4852
2026-01-11 14:31:39.91	321.63	7.64	-50.0	-52.0	15.6	6.02e-01	0	23	0	757596160	67	4882
2026-01-11 14:31:40.91	321.79	7.59	-49.9	-51.9	15.6	6.03e-01	0	23	0	759693312	67	4839
2026-01-11 14:31:41.92	321.96	7.55	-49.9	-51.9	15.7	6.02e-01	0	23	0	761266176	67	4818
2026-01-11 14:31:42.93	322.12	7.51	-49.9	-51.9	15.7	6.01e-01	0	23	0	763363328	67	4837
2026-01-11 14:31:43.93	322.28	7.46	-50.0	-52.0	15.6	6.02e-01	0	23	0	765460480	67	4885
2026-01-11 14:31:44.94	322.44	7.42	-50.0	-52.0	15.6	6.06e-01	0	23	0	767033344	67	4885
2026-01-11 14:31:45.95	322.60	7.37	-49.9	-51.9	15.6	6.04e-01	0	23	0	769130496	67	4860
2026-01-11 14:31:46.95	322.75	7.33	-49.9	-51.9	15.6	6.02e-01	0	23	0	770703360	67	4851
2026-01-11 14:31:47.96	322.91	7.29	-49.9	-51.9	15.6	6.02e-01	0	23	0	772800512	67	4841
2026-01-11 14:31:48.97	323.07	7.24	-50.0	-52.0	15.6	6.02e-01	0	23	0	774897664	67	4871
2026-01-11 14:31:49.97	323.23	7.20	-49.9	-51.9	15.6	6.02e-01	0	23	0	776470528	67	4843
2026-01-11 14:31:50.98	323.38	7.15	-50.0	-52.0	15.6	6.01e-01	0	23	0	778567680	67	4912
2026-01-11 14:31:51.99	323.54	7.11	-50.1	-52.1	15.5	6.03e-01	0	23	0	780140544	67	4975
2026-01-11 14:31:53.00	323.70	7.06	-50.2	-52.2	15.7	6.04e-01	0	23	0	782237696	68	4756
2026-01-11 14:31:54.01	323.85	7.02	-50.3	-52.3	15.6	6.03e-01	0	23	0	784334848	68	4803
2026-01-11 14:31:55.01	324.01	6.98	-50.2	-52.2	15.7	6.05e-01	0	23	0	785907712	68	4738
2026-01-11 14:31:56.02	324.16	6.93	-50.1	-52.1	15.7	6.02e-01	0	23	0	788004864	68	4676
2026-01-11 14:31:57.02	324.31	6.89	-50.2	-52.2	15.7	6.01e-01	0	23	0	790102016	68	4752
2026-01-11 14:31:58.04	324.47	6.84	-50.3	-52.3	15.6	6.00e-01	0	23	0	791674880	68	4802
2026-01-11 14:31:59.04	324.62	6.80	-50.1	-52.1	15.7	6.02e-01	0	23	0	793772032	68	4682
2026-01-11 14:32:00.05	324.77	6.75	-50.2	-52.3	15.7	6.02e-01	0	23	0	795344896	68	4763
2026-01-11 14:32:01.06	324.92	6.71	-50.2	-52.3	15.7	6.01e-01	0	23	0	797442048	68	4772
2026-01-11 14:32:02.07	325.08	6.66	-50.3	-52.4	15.6	6.04e-01	0	23	0	799014912	68	4839
2026-01-11 14:32:03.07	325.23	6.62	-50.3	-52.4	15.6	6.02e-01	0	23	0	801112064	68	4849
2026-01-11 14:32:04.08	325.38	6.57	-50.3	-52.3	15.7	6.03e-01	0	23	0	803209216	68	4797
2026-01-11 14:32:05.09	325.53	6.52	-50.4	-52.5	15.6	6.02e-01	0	23	0	804782080	68	4871
2026-01-11 14:32:06.10	325.68	6.48	-50.3	-52.4	15.6	6.03e-01	0	23	0	806879232	68	4853
2026-01-11 14:32:07.11	325.82	6.43	-50.2	-52.3	15.6	6.04e-01	0	23	0	808452096	68	4787
2026-01-11 14:32:08.11	325.97	6.39	-50.1	-52.1	15.7	6.02e-01	0	23	0	810549248	68	4662
2026-01-11 14:32:09.12	326.12	6.34	-50.1	-52.1	15.7	6.02e-01	0	23	0	812646400	68	4702
2026-01-11 14:32:10.13	326.27	6.30	-50.1	-52.2	15.7	6.00e-01	0	23	0	814219264	68	4711
2026-01-11 14:32:11.14	326.41	6.25	-50.2	-52.3	15.6	6.04e-01	0	23	0	816316416	68	4773
2026-01-11 14:32:12.14	326.56	6.21	-50.2	-52.3	15.6	6.04e-01	0	23	0	818413568	68	4770
2026-01-11 14:32:13.15	326.71	6.16	-50.3	-52.4	15.6	6.02e-01	0	23	0	819986432	68	4826
2026-01-11 14:32:14.16	326.85	6.11	-50.4	-52.5	15.6	6.03e-01	0	23	0	822083584	68	4897
2026-01-11 14:32:15.17	327.00	6.07	-50.4	-52.6	15.5	6.01e-01	0	23	0	823656448	68	4937
2026-01-11 14:32:16.18	327.14	6.02	-50.2	-52.3	15.6	6.04e-01	0	23	0	825753600	68	4801
2026-01-11 14:32:17.18	327.28	5.98	-50.3	-52.4	15.6	6.05e-01	0	23	0	827850752	68	4848
2026-01-11 14:32:18.19	327.43	5.93	-50.3	-52.4	15.6	6.03e-01	0	23	0	829423616	68	4851
2026-01-11 14:32:19.20	327.57	5.88	-50.3	-52.4	15.6	6.03e-01	0	23	0	831520768	68	4842
2026-01-11 14:32:20.21	327.71	5.84	-50.2	-52.3	15.7	6.02e-01	0	23	0	833093632	68	4773
2026-01-11 14:32:21.22	327.86	5.79	-50.2	-52.3	15.7	6.03e-01	0	23	0	835190784	68	4768
2026-01-11 14:32:22.23	328.00	5.74	-50.3	-52.3	15.6	6.03e-01	0	23	0	837287936	68	4812
2026-01-11 14:32:23.24	328.14	5.70	-50.3	-52.4	15.6	6.04e-01	0	23	0	838860800	68	4817
2026-01-11 14:32:24.24	328.28	5.65	-50.4	-52.5	15.6	6.02e-01	0	23	0	840957952	68	4901
2026-01-11 14:32:25.25	328.42	5.60	-50.3	-52.4	15.6	6.05e-01	0	23	0	842530816	68	4839
2026-01-11 14:32:26.26	328.56	5.56	-50.3	-52.5	15.6	6.04e-01	0	23	0	844627968	68	4888
2026-01-11 14:32:27.26	328.70	5.51	-50.5	-52.6	15.5	6.07e-01	0	23	0	846725120	68	4977
2026-01-11 14:32:28.27	328.84	5.47	-50.5	-52.7	15.5	6.04e-01	0	23	0	848297984	68	5016
2026-01-11 14:32:29.27	328.98	5.42	-50.5	-52.7	15.5	6.02e-01	0	23	0	850395136	68	5039
2026-01-11 14:32:30.28	329.11	5.37	-50.4	-52.6	15.5	6.02e-01	0	23	0	851968000	68	4932
2026-01-11 14:32:31.28	329.25	5.33	-50.8	-53.0	15.5	6.02e-01	0	23	0	854065152	69	4916
2026-01-11 14:32:32.29	329.39	5.28	-50.8	-53.0	15.5	6.03e-01	0	23	0	856162304	69	4926
2026-01-11 14:32:33.29	329.52	5.23	-50.7	-52.9	15.5	6.05e-01	0	23	0	857735168	69	4854
2026-01-11 14:32:34.30	329.66	5.19	-50.6	-52.8	15.6	6.05e-01	0	23	0	859832320	69	4791
2026-01-11 14:32:35.31	329.79	5.14	-50.4	-52.6	15.7	6.02e-01	0	23	0	861405184	69	4654
2026-01-11 14:32:36.32	329.93	5.09	-50.4	-52.6	15.7	6.03e-01	0	23	0	863502336	69	4653
2026-01-11 14:32:37.33	330.06	5.05	-50.5	-52.7	15.6	6.02e-01	0	23	0	865599488	69	4716
2026-01-11 14:32:38.34	330.20	5.00	-50.8	-53.0	15.5	6.02e-01	0	23	0	867172352	69	4920
2026-01-11 14:32:39.35	330.33	4.95	-57.3	-74.6	3.7	7.47e-01	0	23	104	868745216	82	27842
2026-01-11 14:32:40.35	330.47	4.90	-57.8	-77.0	3.8	7.46e-01	0	23	104	868745216	83	34845
2026-01-11 14:32:41.36	330.60	4.86	-58.0	-77.3	3.8	7.45e-01	0	23	104	868745216	83	36043
2026-01-11 14:32:42.37	330.73	4.81	-58.5	-77.8	3.8	7.48e-01	0	23	104	868745216	84	35791
2026-01-11 14:32:43.38	330.86	4.76	-58.6	-77.9	3.8	7.46e-01	0	23	104	868745216	84	36482
2026-01-11 14:32:44.38	330.99	4.72	-58.8	-78.1	3.8	7.47e-01	0	23	104	868745216	85	35126
2026-01-11 14:32:45.39	331.13	4.67	-58.9	-78.2	3.8	7.46e-01	0	23	104	868745216	85	35490
2026-01-11 14:32:46.40	331.26	4.62	-59.0	-78.3	3.8	7.48e-01	0	23	104	868745216	85	35980
2026-01-11 14:32:47.41	331.39	4.57	-59.1	-78.4	3.8	7.48e-01	0	23	104	868745216	85	36366
2026-01-11 14:32:48.42	331.52	4.53	-59.2	-78.5	3.9	7.46e-01	0	23	104	868745216	86	34801
2026-01-11 14:32:49.43	331.65	4.48	-59.2	-78.6	3.8	7.48e-01	0	23	104	868745216	86	34894
2026-01-11 14:32:50.44	331.78	4.43	-59.2	-78.6	3.8	7.46e-01	0	23	104	868745216	86	35017
2026-01-11 14:32:51.45	331.90	4.39	-59.3	-78.6	3.8	7.47e-01	0	23	104	868745216	86	35195
2026-01-11 14:32:52.46	332.03	4.34	-59.3	-78.6	3.8	7.46e-01	0	23	104	868745216	86	35206
2026-01-11 14:32:53.46	332.16	4.29	-59.3	-78.7	3.8	7.48e-01	0	23	104	868745216	86	35308
2026-01-11 14:32:54.47	332.29	4.24	-59.3	-78.6	3.8	7.44e-01	0	23	104	868745216	86	35255
2026-01-11 14:32:55.49	332.41	4.20	-59.3	-78.7	3.8	7.44e-01	0	23	104	868745216	86	35364
2026-01-11 14:32:56.49	332.54	4.15	-59.3	-78.7	3.8	7.45e-01	0	23	104	868745216	86	35371
2026-01-11 14:32:57.50	332.67	4.10	-59.3	-78.7	3.8	7.47e-01	0	23	104	868745216	86	35443
2026-01-11 14:32:58.51	332.79	4.05	-59.3	-78.7	3.8	7.48e-01	0	23	104	868745216	86	35496
2026-01-11 14:32:59.52	332.92	4.01	-59.4	-78.7	3.8	7.45e-01	0	23	104	868745216	86	35531
2026-01-11 14:33:00.53	333.04	3.96	-59.3	-78.7	3.8	7.47e-01	0	23	104	868745216	86	35522
2026-01-11 14:33:01.54	333.17	3.91	-59.3	-78.6	3.8	7.48e-01	0	23	104	868745216	86	35191
2026-01-11 14:33:02.54	333.29	3.87	-59.3	-78.6	3.8	7.44e-01	0	23	104	868745216	86	35139
2026-01-11 14:33:03.55	333.41	3.82	-59.3	-78.6	3.8	7.43e-01	0	23	104	868745216	86	35141
2026-01-11 14:33:04.56	333.54	3.77	-59.2	-78.6	3.8	7.44e-01	0	23	104	868745216	86	35000
2026-01-11 14:33:05.57	333.66	3.72	-59.2	-78.6	3.8	7.49e-01	0	23	104	868745216	86	34988
2026-01-11 14:33:06.58	333.78	3.68	-59.2	-78.6	3.8	7.48e-01	0	23	104	868745216	86	34993
2026-01-11 14:33:07.59	333.90	3.63	-59.2	-78.6	3.8	7.47e-01	0	23	104	868745216	86	34963
2026-01-11 14:33:08.60	334.02	3.58	-59.2	-78.6	3.8	7.49e-01	0	23	104	868745216	86	35009
2026-01-11 14:33:09.61	334.14	3.53	-59.2	-78.6	3.8	7.46e-01	0	23	104	868745216	86	34975
2026-01-11 14:33:10.62	334.27	3.49	-59.2	-78.5	3.8	7.45e-01	0	23	104	868745216	86	34822
2026-01-11 14:33:11.63	334.39	3.44	-59.2	-78.6	3.8	7.49e-01	0	23	104	868745216	86	34947
2026-01-11 14:33:12.64	334.51	3.39	-59.2	-78.5	3.8	7.46e-01	0	23	104	868745216	86	34800
2026-01-11 14:33:13.64	334.62	3.34	-59.2	-78.5	3.8	7.46e-01	0	23	104	868745216	86	34759
2026-01-11 14:33:14.65	334.74	3.30	-59.2	-78.5	3.8	7.46e-01	0	23	104	868745216	86	34756
2026-01-11 14:33:15.66	334.86	3.25	-59.2	-78.5	3.8	7.44e-01	0	23	104	868745216	86	34752
2026-01-11 14:33:16.68	334.98	3.20	-59.1	-78.5	3.8	7.45e-01	0	23	104	868745216	86	34713
2026-01-11 14:33:17.68	335.10	3.15	-59.1	-78.5	3.8	7.46e-01	0	23	104	868745216	86	34638
2026-01-11 14:33:18.69	335.21	3.11	-59.1	-78.5	3.8	7.45e-01	0	23	104	868745216	86	34555
2026-01-11 14:33:19.70	335.33	3.06	-59.1	-78.5	3.8	7.42e-01	0	23	104	868745216	86	34576
2026-01-11 14:33:20.71	335.45	3.01	-59.1	-78.5	3.8	7.47e-01	0	23	104	868745216	86	34621
2026-01-11 14:33:21.72	335.56	2.96	-59.1	-78.5	3.8	7.47e-01	0	23	104	868745216	86	34668
2026-01-11 14:33:22.73	335.68	2.92	-59.1	-78.5	3.8	7.44e-01	0	23	104	868745216	86	34556
2026-01-11 14:33:23.74	335.80	2.87	-59.1	-78.4	3.8	7.47e-01	0	23	104	868745216	86	34472
2026-01-11 14:33:24.75	335.91	2.82	-59.1	-78.4	3.8	7.46e-01	0	23	104	868745216	86	34409
2026-01-11 14:33:25.75	336.02	2.77	-59.1	-78.5	3.8	7.45e-01	0	23	104	868745216	86	34542
2026-01-11 14:33:26.76	336.14	2.73	-59.1	-78.5	3.8	7.47e-01	0	23	104	868745216	86	34502
2026-01-11 14:33:27.76	336.25	2.68	-59.1	-78.5	3.8	7.48e-01	0	23	104	868745216	86	34531
2026-01-11 14:33:28.77	336.37	2.63	-59.1	-78.4	3.8	7.46e-01	0	23	104	868745216	86	34480
2026-01-11 14:33:29.78	336.48	2.59	-59.1	-78.5	3.8	7.46e-01	0	23	104	868745216	86	34520
2026-01-11 14:33:30.79	336.59	2.54	-59.1	-78.4	3.8	7.44e-01	0	23	104	868745216	86	34416
2026-01-11 14:33:31.80	336.70	2.49	-59.1	-78.4	3.8	7.45e-01	0	23	104	868745216	86	34384
2026-01-11 14:33:32.81	336.82	2.44	-59.1	-78.4	3.8	7.46e-01	0	23	104	868745216	86	34456
2026-01-11 14:33:33.82	336.93	2.40	-59.1	-78.4	3.8	7.49e-01	0	23	104	868745216	86	34377
2026-01-11 14:33:34.83	337.04	2.35	-59.1	-78.4	3.8	7.47e-01	0	23	104	868745216	86	34364
2026-01-11 14:33:35.84	337.15	2.30	-59.1	-78.4	3.8	7.47e-01	0	23	104	868745216	86	34452
2026-01-11 14:33:36.84	337.26	2.25	-59.1	-78.4	3.8	7.47e-01	0	23	104	868745216	86	34441
2026-01-11 14:33:37.85	337.37	2.21	-59.1	-78.5	3.8	7.44e-01	0	23	104	868745216	86	34501
2026-01-11 14:33:38.86	337.48	2.16	-59.1	-78.4	3.8	7.46e-01	0	23	104	868745216	86	34446
2026-01-11 14:33:39.87	337.59	2.11	-59.1	-78.4	3.8	7.47e-01	0	23	104	868745216	86	34386
2026-01-11 14:33:40.88	337.70	2.06	-59.1	-78.4	3.8	7.45e-01	0	23	104	868745216	86	34357
2026-01-11 14:33:41.89	337.81	2.02	-59.1	-78.4	3.8	7.48e-01	0	24	104	868745216	86	34367
2026-01-11 14:33:42.90	337.91	1.97	-59.1	-78.4	3.8	7.45e-01	0	23	104	868745216	86	34345

#Closed at: 2026-01-11 14:33:43
#Recorded file [868 MB]: D:/lorett/data/31004_260111_172359.dat