passes_logs/2025/01/14/X_MFTI_02/X_MFTI_02__20250114_235332_SUOMI_NPP_rec.log

#Pass ID: 20250114_235332_SUOMI NPP
#Satellite: SUOMI NPP
#Configuration: NPP
#Start time: 2025-01-14 23:53:26

#Version: 1.5.20200625
#Station: X_MFTI_02
#Location: 37.5186 lon 55.9291 lat
#TLE: 1 37849U 11061A   23362.48341244  .00000167  00000+0  99749-4 0  9991
#TLE: 2 37849  98.7252 298.0509 0001500  77.1966 282.9377 14.19535461630502

#Time	Az	El	Level	Level2	SNR	BER	Gain	Gain2
2025-01-14 23:53:26.20	357.86	67.54	-61.9	-87.1	3.2	15532531	83	65535
2025-01-14 23:53:26.41	357.77	67.62	-60.8	-86.0	3.0	15684310	83	65535
2025-01-14 23:53:26.61	357.67	67.71	-62.0	-87.2	2.8	15684310	83	65535
2025-01-14 23:53:26.81	357.58	67.79	-61.7	-86.9	2.8	15698402	83	65535
2025-01-14 23:53:27.01	357.49	67.88	-61.9	-87.1	2.8	15698402	83	65535
2025-01-14 23:53:27.22	357.39	67.97	-61.7	-86.9	2.8	15685905	83	65535
2025-01-14 23:53:27.43	357.29	68.06	-61.8	-87.0	2.8	15685905	83	65535
2025-01-14 23:53:27.63	357.19	68.14	-61.9	-87.1	2.8	15685905	83	65535
2025-01-14 23:53:27.85	357.09	68.23	-61.9	-87.1	2.8	15715370	83	65535
2025-01-14 23:53:28.05	356.99	68.32	-62.0	-87.2	2.8	15715370	83	65535
2025-01-14 23:53:28.25	356.89	68.40	-62.0	-87.2	2.8	15705574	83	65535
2025-01-14 23:53:28.45	356.79	68.49	-61.9	-87.1	2.8	15705574	83	65535
2025-01-14 23:53:28.65	356.69	68.57	-62.0	-87.2	2.8	15699539	83	65535
2025-01-14 23:53:28.85	356.59	68.66	-61.9	-87.1	2.8	15699539	83	65535
2025-01-14 23:53:29.05	356.48	68.74	-61.9	-87.1	2.8	15708694	83	65535
2025-01-14 23:53:29.26	356.38	68.83	-61.9	-87.1	2.8	15708694	83	65535
2025-01-14 23:53:29.46	356.27	68.91	-62.0	-87.2	3.0	15708427	83	65535
2025-01-14 23:53:29.66	356.17	69.00	-62.0	-87.2	3.0	15708427	83	65535
2025-01-14 23:53:29.87	356.06	69.09	-62.0	-87.2	3.0	15705543	83	65535
2025-01-14 23:53:30.09	355.94	69.18	-62.0	-87.2	3.0	15705543	83	65535
2025-01-14 23:53:30.30	355.82	69.27	-62.0	-87.2	2.8	15712844	83	65535
2025-01-14 23:53:30.52	355.70	69.36	-61.9	-87.1	2.8	15712844	83	65535
2025-01-14 23:53:30.72	355.59	69.45	-61.9	-87.1	2.8	15704597	83	65535
2025-01-14 23:53:30.92	355.48	69.53	-61.9	-87.1	2.8	15704597	83	65535
2025-01-14 23:53:31.14	355.36	69.63	-62.0	-87.2	3.0	15704597	83	65535
2025-01-14 23:53:31.34	355.25	69.71	-61.9	-87.1	3.0	15705551	83	65535
2025-01-14 23:53:31.55	355.13	69.80	-62.0	-87.2	2.8	15705551	83	65535
2025-01-14 23:53:31.76	355.01	69.89	-61.9	-87.1	2.8	15705215	83	65535
2025-01-14 23:53:31.96	354.89	69.98	-61.8	-87.0	2.8	15705215	83	65535
2025-01-14 23:53:32.16	354.77	70.06	-61.9	-87.1	2.8	15699096	83	65535
2025-01-14 23:53:32.36	354.65	70.15	-61.9	-87.1	2.8	15699096	83	65535
2025-01-14 23:53:32.56	354.53	70.23	-61.9	-87.1	3.0	15707061	83	65535
2025-01-14 23:53:32.76	354.41	70.32	-62.0	-87.2	3.1	15707061	83	65535
2025-01-14 23:53:32.96	354.29	70.40	-61.9	-87.1	3.0	15704124	83	65535
2025-01-14 23:53:33.16	354.17	70.48	-60.3	-85.5	3.2	15704124	81	65535
2025-01-14 23:53:33.36	354.04	70.57	-61.9	-87.1	2.8	15697944	83	65535
2025-01-14 23:53:33.58	353.91	70.66	-61.9	-87.1	2.8	15697944	83	65535
2025-01-14 23:53:33.78	353.78	70.75	-61.9	-87.1	2.8	15709976	83	65535
2025-01-14 23:53:33.98	353.65	70.83	-61.9	-87.1	2.8	15709976	83	65535
2025-01-14 23:53:34.20	353.51	70.93	-61.9	-87.1	2.9	15709976	83	65535
2025-01-14 23:53:34.40	353.38	71.01	-62.0	-87.2	3.1	15709129	83	65535
2025-01-14 23:53:34.61	353.24	71.10	-62.0	-87.2	2.8	15709129	83	65535
2025-01-14 23:53:34.81	353.11	71.18	-60.3	-85.5	2.9	15711036	82	65535
2025-01-14 23:53:35.01	352.97	71.27	-62.0	-87.2	2.8	15711036	83	65535
2025-01-14 23:53:35.21	352.84	71.35	-61.9	-87.1	2.8	15711090	83	65535
2025-01-14 23:53:35.42	352.70	71.44	-61.9	-87.1	2.8	15711090	83	65535
2025-01-14 23:53:35.62	352.56	71.53	-61.9	-87.1	2.8	15709457	83	65535
2025-01-14 23:53:35.82	352.42	71.61	-61.9	-87.1	2.8	15709457	83	65535
2025-01-14 23:53:36.02	352.28	71.70	-61.9	-87.1	2.8	15706710	83	65535
2025-01-14 23:53:36.22	352.13	71.78	-61.9	-87.1	2.8	15706710	83	65535
2025-01-14 23:53:36.42	351.99	71.86	-61.8	-87.0	2.8	15709823	83	65535
2025-01-14 23:53:36.62	351.85	71.95	-61.8	-87.0	2.8	15709823	83	65535
2025-01-14 23:53:36.84	351.68	72.04	-61.9	-87.1	2.9	15695014	84	65535
2025-01-14 23:53:37.04	351.54	72.13	-61.9	-87.1	2.9	15695014	84	65535
2025-01-14 23:53:37.25	351.38	72.21	-62.0	-87.2	2.9	15698204	84	65535
2025-01-14 23:53:37.47	351.21	72.31	-62.0	-87.2	2.9	15698204	84	65535
2025-01-14 23:53:37.68	351.05	72.40	-62.0	-87.2	2.9	15698204	84	65535
2025-01-14 23:53:37.89	350.89	72.48	-62.0	-87.2	2.9	15696556	84	65535
2025-01-14 23:53:38.09	350.73	72.57	-62.0	-87.2	2.9	15696556	84	65535
2025-01-14 23:53:38.29	350.57	72.65	-61.9	-87.1	2.7	15689651	83	65535
2025-01-14 23:53:38.49	350.41	72.74	-61.9	-87.1	2.9	15689651	83	65535
2025-01-14 23:53:38.69	350.25	72.82	-61.9	-87.1	2.8	15715423	83	65535
2025-01-14 23:53:38.89	350.09	72.90	-61.9	-87.1	2.8	15715423	83	65535
2025-01-14 23:53:39.09	349.93	72.99	-61.9	-87.1	2.8	15709403	83	65535
2025-01-14 23:53:39.31	349.74	73.08	-61.9	-87.1	3.1	15709403	83	65535
2025-01-14 23:53:39.51	349.57	73.16	-61.9	-87.1	3.0	15698898	83	65535
2025-01-14 23:53:39.71	349.41	73.25	-61.9	-87.1	2.9	15698898	83	65535
2025-01-14 23:53:39.91	349.23	73.33	-61.9	-87.1	1.7	15700958	83	65535
2025-01-14 23:53:40.11	349.06	73.41	-61.8	-87.0	2.8	15700958	83	65535
2025-01-14 23:53:40.31	348.88	73.50	-61.9	-87.1	2.8	15707496	83	65535
2025-01-14 23:53:40.52	348.70	73.58	-61.9	-87.1	2.9	15707496	83	65535
2025-01-14 23:53:40.72	348.52	73.67	-61.8	-87.0	2.8	15707496	83	65535
2025-01-14 23:53:40.92	348.34	73.75	-61.9	-87.1	2.8	15702049	83	65535
2025-01-14 23:53:41.12	348.15	73.83	-61.9	-87.1	2.8	15702049	83	65535
2025-01-14 23:53:41.32	347.97	73.91	-61.9	-87.1	2.8	15696983	83	65535
2025-01-14 23:53:41.52	347.78	74.00	-61.6	-86.8	2.8	15696983	83	65535
2025-01-14 23:53:41.72	347.59	74.08	-61.8	-87.0	2.8	15704048	83	65535
2025-01-14 23:53:41.92	347.40	74.16	-61.9	-87.1	2.8	15704048	83	65535
2025-01-14 23:53:42.14	347.19	74.25	-61.8	-87.0	2.8	15698081	83	65535
2025-01-14 23:53:42.34	346.99	74.33	-61.9	-87.1	2.8	15698081	83	65535
2025-01-14 23:53:42.54	346.80	74.42	-61.9	-87.1	2.8	15701522	83	65535
2025-01-14 23:53:42.74	346.60	74.50	-61.8	-87.0	2.8	15701522	83	65535
2025-01-14 23:53:42.94	346.39	74.58	-61.9	-87.1	2.8	15701522	83	65535
2025-01-14 23:53:43.14	346.19	74.66	-61.9	-87.1	2.8	15699768	83	65535
2025-01-14 23:53:43.34	345.98	74.74	-61.9	-87.1	2.8	15699768	83	65535
2025-01-14 23:53:43.56	345.75	74.83	-61.8	-87.0	2.8	15714904	83	65535
2025-01-14 23:53:43.76	345.54	74.91	-61.9	-87.1	2.8	15714904	83	65535
2025-01-14 23:53:43.96	345.33	74.99	-61.9	-87.1	2.8	15697555	83	65535
2025-01-14 23:53:44.16	345.11	75.07	-61.9	-87.1	2.9	15697555	83	65535
2025-01-14 23:53:44.36	344.89	75.15	-61.9	-87.1	2.9	15695343	83	65535
2025-01-14 23:53:44.58	344.65	75.24	-62.0	-87.2	3.0	15695343	84	65535
2025-01-14 23:53:44.78	344.42	75.32	-61.9	-87.1	3.0	15696907	84	65535
2025-01-14 23:53:45.00	344.17	75.41	-61.9	-87.1	1.9	15696907	83	65535
2025-01-14 23:53:45.20	343.94	75.49	-62.0	-87.2	2.9	15703804	83	65535
2025-01-14 23:53:45.40	343.71	75.57	-61.9	-87.1	2.8	15703804	83	65535
2025-01-14 23:53:45.60	343.48	75.65	-61.8	-87.1	2.8	15692031	83	65535
2025-01-14 23:53:45.80	343.24	75.73	-61.8	-87.0	2.8	15692031	83	65535
2025-01-14 23:53:46.00	343.00	75.81	-61.7	-86.9	2.8	15687858	83	65535
2025-01-14 23:53:46.22	342.73	75.90	-61.7	-86.9	2.8	15687858	83	65535
2025-01-14 23:53:46.43	342.47	75.98	-61.7	-86.9	2.8	15687858	83	65535
2025-01-14 23:53:46.64	342.21	76.06	-61.6	-86.9	2.7	15714775	81	65535
2025-01-14 23:53:46.85	341.95	76.14	-61.9	-87.1	3.1	15700531	83	65535
2025-01-14 23:53:47.05	341.69	76.22	-61.6	-86.8	3.1	15700531	83	65535
2025-01-14 23:53:47.25	341.43	76.30	-61.8	-87.0	3.1	15700531	83	65535
2025-01-14 23:53:47.45	341.17	76.38	-61.9	-87.1	3.0	15701400	83	65535
2025-01-14 23:53:47.66	340.89	76.46	-61.9	-87.1	2.9	15701400	83	65535
2025-01-14 23:53:47.86	340.62	76.54	-61.9	-87.1	2.8	15702713	83	65535
2025-01-14 23:53:48.06	340.35	76.61	-61.8	-87.0	2.8	15702713	83	65535
2025-01-14 23:53:48.26	340.08	76.69	-60.3	-85.5	3.0	15704795	82	65535
2025-01-14 23:53:48.47	339.79	76.77	-61.9	-87.1	2.8	15704795	83	65535
2025-01-14 23:53:48.67	339.51	76.85	-61.8	-87.0	2.8	15697547	83	65535
2025-01-14 23:53:48.88	339.21	76.93	-61.8	-87.0	2.8	15697547	83	65535
2025-01-14 23:53:49.08	338.92	77.00	-61.8	-87.0	2.8	15712478	83	65535
2025-01-14 23:53:49.28	338.63	77.08	-61.7	-86.9	2.8	15712478	83	65535
2025-01-14 23:53:49.48	338.33	77.15	-61.9	-87.1	2.8	15712478	83	65535
2025-01-14 23:53:49.68	338.03	77.23	-61.7	-86.9	2.8	15701316	83	65535
2025-01-14 23:53:49.88	337.73	77.30	-61.8	-87.0	2.8	15701316	83	65535
2025-01-14 23:53:50.08	337.42	77.37	-61.7	-86.9	2.8	15710700	83	65535
2025-01-14 23:53:50.28	337.11	77.45	-61.7	-86.9	2.9	15710700	83	65535
2025-01-14 23:53:50.48	336.80	77.52	-61.7	-86.9	2.8	15701469	83	65535
2025-01-14 23:53:50.68	336.48	77.59	-61.9	-87.1	2.8	15701469	83	65535
2025-01-14 23:53:50.88	336.16	77.67	-61.7	-86.9	2.9	15695411	83	65535
2025-01-14 23:53:51.09	335.82	77.74	-61.7	-86.9	2.8	15695411	83	65535
2025-01-14 23:53:51.29	335.49	77.82	-61.9	-87.1	2.9	15698883	83	65535
2025-01-14 23:53:51.50	335.14	77.89	-61.9	-87.1	2.9	15698883	83	65535
2025-01-14 23:53:51.70	334.80	77.96	-61.9	-87.1	2.8	15699783	83	65535
2025-01-14 23:53:51.90	334.46	78.03	-61.9	-87.1	2.8	15699783	83	65535
2025-01-14 23:53:52.12	334.08	78.11	-61.9	-87.1	2.9	15690170	83	65535
2025-01-14 23:53:52.34	333.70	78.19	-61.9	-87.1	2.9	15690170	83	65535
2025-01-14 23:53:52.54	333.34	78.26	-61.8	-87.0	2.9	15690170	83	65535
2025-01-14 23:53:52.75	332.96	78.33	-61.9	-87.1	2.8	15698028	83	65535
2025-01-14 23:53:52.95	332.60	78.40	-61.9	-87.1	2.9	15698028	83	65535
2025-01-14 23:53:53.17	332.19	78.47	-61.9	-87.1	3.1	15706893	83	65535
2025-01-14 23:53:53.38	331.80	78.54	-61.9	-87.1	2.3	15706893	83	65535
2025-01-14 23:53:53.58	331.42	78.61	-61.9	-87.1	3.1	15691284	83	65535
2025-01-14 23:53:53.79	331.02	78.68	-61.9	-87.1	2.9	15691284	83	65535
2025-01-14 23:53:53.99	330.63	78.75	-62.4	-87.6	2.9	15693679	84	65535
2025-01-14 23:53:54.19	330.24	78.81	-61.7	-86.9	2.9	15693679	84	65535
2025-01-14 23:53:54.39	329.85	78.88	-61.8	-87.0	3.0	15703849	84	65535
2025-01-14 23:53:54.59	329.44	78.94	-61.7	-86.9	3.0	15703849	84	65535
2025-01-14 23:53:54.80	329.02	79.01	-61.7	-86.9	3.0	15698944	84	65535
2025-01-14 23:53:55.01	328.58	79.08	-62.4	-87.6	2.8	15698944	82	65535
2025-01-14 23:53:55.21	328.17	79.14	-61.9	-87.1	2.9	15688789	83	65535
2025-01-14 23:53:55.42	327.72	79.21	-61.9	-87.1	2.9	15688789	83	65535
2025-01-14 23:53:55.62	327.30	79.27	-61.9	-87.1	2.9	15699478	83	65535
2025-01-14 23:53:55.82	326.86	79.33	-61.9	-87.1	2.9	15699478	83	65535
2025-01-14 23:53:56.03	326.40	79.39	-61.9	-87.1	3.0	15699478	83	65535
2025-01-14 23:53:56.24	325.94	79.46	-61.7	-86.9	3.1	15704757	83	65535
2025-01-14 23:53:56.44	325.49	79.52	-61.9	-87.1	3.2	15704757	83	65535
2025-01-14 23:53:56.66	324.99	79.58	-60.2	-85.4	3.2	15686363	81	65535
2025-01-14 23:53:56.87	324.51	79.64	-61.9	-87.1	2.9	15686363	83	65535
2025-01-14 23:53:57.07	324.05	79.70	-61.9	-87.1	2.9	15700897	83	65535
2025-01-14 23:53:57.28	323.55	79.76	-62.0	-87.2	3.0	15700897	84	65535
2025-01-14 23:53:57.48	323.08	79.82	-61.9	-87.1	3.0	15691139	84	65535
2025-01-14 23:53:57.68	322.60	79.87	-62.0	-87.2	3.0	15691139	84	65535
2025-01-14 23:53:57.89	322.08	79.93	-61.8	-87.0	3.3	15690429	84	65535
2025-01-14 23:53:58.09	321.59	79.98	-62.0	-87.2	3.4	15690429	84	65535
2025-01-14 23:53:58.31	321.05	80.04	-61.4	-86.6	3.0	15671569	84	65535
2025-01-14 23:53:58.53	320.49	80.10	-61.6	-86.8	2.9	15671569	83	65535
2025-01-14 23:53:58.74	319.96	80.16	-62.0	-87.2	3.0	15690773	84	65535
2025-01-14 23:53:58.94	319.44	80.21	-61.9	-87.1	3.0	15690773	84	65535
2025-01-14 23:53:59.14	318.92	80.26	-62.0	-87.2	3.1	15682441	84	65535
2025-01-14 23:53:59.36	318.34	80.31	-62.0	-87.2	3.2	15682441	84	65535
2025-01-14 23:53:59.56	317.81	80.36	-62.0	-87.2	3.2	15686080	84	65535
2025-01-14 23:53:59.76	317.27	80.41	-62.0	-87.2	3.2	15686080	84	65535
2025-01-14 23:53:59.96	316.73	80.45	-62.0	-87.2	3.2	15686080	84	65535
2025-01-14 23:54:00.16	316.18	80.50	-61.7	-86.9	2.9	15684654	83	65535
2025-01-14 23:54:00.36	315.63	80.55	-61.9	-87.1	2.8	15684654	83	65535
2025-01-14 23:54:00.58	315.01	80.59	-61.9	-87.1	3.0	15704010	83	65535
2025-01-14 23:54:00.80	314.39	80.64	-61.8	-87.0	2.8	15704010	83	65535
2025-01-14 23:54:01.01	313.79	80.69	-61.9	-87.1	2.9	15705230	83	65535
2025-01-14 23:54:01.21	313.22	80.73	-61.9	-87.1	2.8	15705230	83	65535
2025-01-14 23:54:01.43	312.58	80.77	-61.9	-87.1	2.8	15696029	83	65535
2025-01-14 23:54:01.64	311.96	80.81	-61.9	-87.1	2.9	15696029	83	65535
2025-01-14 23:54:01.86	311.31	80.86	-61.8	-87.0	2.9	15688476	83	65535
2025-01-14 23:54:02.06	310.71	80.89	-61.9	-87.1	2.9	15688476	83	65535
2025-01-14 23:54:02.26	310.11	80.93	-61.7	-86.9	2.9	15694488	83	65535
2025-01-14 23:54:02.48	309.44	80.97	-61.7	-86.9	2.9	15694488	83	65535
2025-01-14 23:54:02.69	308.79	81.01	-61.7	-86.9	2.9	15704467	83	65535
2025-01-14 23:54:02.90	308.14	81.04	-61.9	-87.1	2.8	15704467	83	65535
2025-01-14 23:54:03.10	307.52	81.07	-61.9	-87.1	2.8	15695861	83	65535
2025-01-14 23:54:03.30	306.89	81.10	-61.9	-87.1	2.9	15695861	83	65535
2025-01-14 23:54:03.50	306.26	81.13	-61.9	-87.1	2.9	15698890	83	65535
2025-01-14 23:54:03.72	305.56	81.17	-61.8	-87.0	2.8	15698890	83	65535
2025-01-14 23:54:03.93	304.89	81.19	-61.9	-87.1	2.9	15700637	83	65535
2025-01-14 23:54:04.13	304.25	81.22	-61.8	-87.0	2.8	15700637	83	65535
2025-01-14 23:54:04.33	303.60	81.25	-61.8	-87.0	2.8	15700637	83	65535
2025-01-14 23:54:04.53	302.95	81.27	-61.8	-87.0	2.8	15687065	83	65535
2025-01-14 23:54:04.75	302.22	81.30	-61.9	-87.1	3.0	15687065	83	65535
2025-01-14 23:54:04.95	301.56	81.32	-61.6	-86.8	2.9	15706130	83	65535
2025-01-14 23:54:05.15	300.90	81.34	-61.9	-87.1	2.9	15706130	83	65535
2025-01-14 23:54:05.35	300.23	81.36	-61.6	-86.8	2.9	15698593	83	65535
2025-01-14 23:54:05.57	299.50	81.38	-61.9	-87.1	2.9	15698593	83	65535
2025-01-14 23:54:05.79	298.76	81.40	-61.6	-86.8	2.9	15703895	83	65535
2025-01-14 23:54:05.99	298.08	81.41	-61.9	-87.1	3.4	15703895	83	65535
2025-01-14 23:54:06.19	297.40	81.43	-61.9	-87.1	2.9	15689735	83	65535
2025-01-14 23:54:06.39	296.72	81.44	-61.9	-87.1	2.9	15689735	83	65535
2025-01-14 23:54:06.59	296.04	81.46	-61.9	-87.1	2.9	15688407	83	65535
2025-01-14 23:54:06.79	295.36	81.47	-60.3	-85.5	3.3	15688407	81	65535
2025-01-14 23:54:07.01	294.60	81.48	-61.9	-87.1	2.9	15707954	83	65535
2025-01-14 23:54:07.22	293.88	81.49	-61.9	-87.1	2.9	15707954	83	65535
2025-01-14 23:54:07.42	293.19	81.49	-61.6	-86.8	2.9	15689712	83	65535
2025-01-14 23:54:07.64	292.43	81.50	-61.6	-86.8	2.9	15689712	83	65535
2025-01-14 23:54:07.86	291.67	81.51	-61.9	-87.1	3.0	15688827	83	65535
2025-01-14 23:54:08.07	290.95	81.51	-62.0	-87.2	2.9	15688827	83	65535
2025-01-14 23:54:08.27	290.25	81.51	-61.9	-87.1	2.9	15688827	83	65535
2025-01-14 23:54:08.47	289.56	81.51	-61.9	-87.1	1.7	15698387	83	65535
2025-01-14 23:54:08.69	288.80	81.51	-61.9	-87.1	3.0	15698387	83	65535
2025-01-14 23:54:08.90	288.07	81.51	-61.6	-86.8	3.2	15694740	83	65535
2025-01-14 23:54:09.10	287.38	81.51	-61.9	-87.1	3.1	15694740	83	65535
2025-01-14 23:54:09.31	286.65	81.50	-61.9	-87.1	3.1	15685951	83	65535
2025-01-14 23:54:09.51	285.96	81.50	-61.9	-87.1	3.2	15685951	83	65535
2025-01-14 23:54:09.71	285.27	81.49	-62.0	-87.2	3.0	15695854	84	65535
2025-01-14 23:54:09.92	284.55	81.48	-62.0	-87.2	3.0	15695854	84	65535
2025-01-14 23:54:10.12	283.86	81.48	-60.2	-85.4	3.5	15687927	81	65535
2025-01-14 23:54:10.33	283.14	81.46	-61.9	-87.1	3.2	15687927	83	65535
2025-01-14 23:54:10.53	282.46	81.45	-61.9	-87.1	3.0	15709907	83	65535
2025-01-14 23:54:10.74	281.74	81.44	-61.9	-87.1	3.2	15709907	83	65535
2025-01-14 23:54:10.96	280.99	81.42	-61.7	-86.9	2.8	15697158	83	65535
2025-01-14 23:54:11.17	280.28	81.41	-61.9	-87.1	2.9	15697158	83	65535
2025-01-14 23:54:11.38	279.58	81.39	-61.6	-86.8	2.8	15701057	83	65535
2025-01-14 23:54:11.58	278.90	81.37	-61.9	-87.1	2.8	15701057	83	65535
2025-01-14 23:54:11.79	278.20	81.35	-60.9	-86.1	2.8	15703582	83	65535
2025-01-14 23:54:11.99	277.54	81.33	-61.9	-87.1	2.9	15703582	83	65535
2025-01-14 23:54:12.19	276.87	81.31	-61.9	-87.1	3.2	15703582	83	65535
2025-01-14 23:54:12.40	276.18	81.29	-61.9	-87.1	3.2	15698745	83	65535
2025-01-14 23:54:12.60	275.53	81.26	-61.9	-87.1	3.0	15698745	83	65535
2025-01-14 23:54:12.81	274.84	81.24	-61.9	-87.1	2.9	15696449	83	65535
2025-01-14 23:54:13.01	274.20	81.21	-61.9	-87.1	2.8	15696449	83	65535
2025-01-14 23:54:13.23	273.49	81.18	-61.9	-87.1	2.8	15698043	83	65535
2025-01-14 23:54:13.43	272.85	81.15	-61.9	-87.1	2.9	15698043	83	65535
2025-01-14 23:54:13.63	272.21	81.12	-61.9	-87.1	3.2	15711067	83	65535
2025-01-14 23:54:13.83	271.58	81.09	-61.9	-87.1	3.1	15711067	83	65535
2025-01-14 23:54:14.05	270.90	81.06	-61.9	-87.1	3.0	15693328	83	65535
2025-01-14 23:54:14.25	270.27	81.03	-61.9	-87.1	3.0	15693328	83	65535
2025-01-14 23:54:14.45	269.66	80.99	-61.9	-87.1	2.9	15696357	83	65535
2025-01-14 23:54:14.65	269.05	80.96	-61.9	-87.1	2.8	15696357	83	65535
2025-01-14 23:54:14.85	268.44	80.92	-61.9	-87.1	2.9	15695121	83	65535
2025-01-14 23:54:15.05	267.84	80.89	-61.9	-87.1	2.9	15695121	83	65535
2025-01-14 23:54:15.25	267.24	80.85	-61.9	-87.1	2.9	15696746	83	65535
2025-01-14 23:54:15.45	266.65	80.81	-61.9	-87.1	2.9	15696746	83	65535
2025-01-14 23:54:15.66	266.03	80.77	-61.9	-87.1	2.9	15696746	83	65535
2025-01-14 23:54:15.86	265.45	80.73	-61.9	-87.1	2.9	15689010	83	65535
2025-01-14 23:54:16.06	264.87	80.69	-62.0	-87.2	3.0	15689010	84	65535
2025-01-14 23:54:16.27	264.27	80.64	-61.9	-87.1	3.0	15690093	84	65535
2025-01-14 23:54:16.49	263.65	80.59	-62.0	-87.2	3.0	15690093	84	65535
2025-01-14 23:54:16.69	263.09	80.55	-61.7	-86.9	3.3	15688529	84	65535
2025-01-14 23:54:16.89	262.54	80.51	-61.6	-86.8	2.5	15688529	83	65535
2025-01-14 23:54:17.09	261.99	80.46	-61.9	-87.1	3.2	15681846	83	65535
2025-01-14 23:54:17.31	261.39	80.41	-61.8	-87.0	2.9	15681846	83	65535
2025-01-14 23:54:17.52	260.83	80.36	-61.9	-87.1	2.9	15702323	83	65535
2025-01-14 23:54:17.72	260.29	80.31	-61.8	-87.0	3.1	15702323	83	65535
2025-01-14 23:54:17.94	259.71	80.25	-61.9	-87.1	2.9	15696334	83	65535
2025-01-14 23:54:18.16	259.14	80.20	-61.8	-87.0	3.1	15696334	83	65535
2025-01-14 23:54:18.37	258.60	80.15	-61.9	-87.1	3.2	15701736	83	65535
2025-01-14 23:54:18.59	258.04	80.09	-61.9	-87.1	2.7	15701736	83	65535
2025-01-14 23:54:18.79	257.54	80.04	-61.9	-87.1	3.0	15689430	83	65535
2025-01-14 23:54:18.99	257.04	79.98	-61.9	-87.1	3.0	15689430	83	65535
2025-01-14 23:54:19.19	256.55	79.93	-62.0	-87.2	2.9	15689430	84	65535
2025-01-14 23:54:19.41	256.02	79.87	-62.0	-87.2	3.0	15694137	84	65535
2025-01-14 23:54:19.61	255.53	79.81	-61.7	-86.9	2.9	15694137	84	65535
2025-01-14 23:54:19.81	255.06	79.76	-62.0	-87.2	3.2	15700973	84	65535
2025-01-14 23:54:20.01	254.59	79.70	-61.8	-87.0	3.2	15700973	84	65535
2025-01-14 23:54:20.21	254.12	79.64	-61.7	-86.9	2.9	15681724	82	65535
2025-01-14 23:54:20.43	253.62	79.58	-61.9	-87.1	3.1	15681724	83	65535
2025-01-14 23:54:20.64	253.14	79.51	-61.9	-87.1	2.9	15698661	84	65535
2025-01-14 23:54:20.85	252.67	79.45	-62.0	-87.2	3.1	15698661	84	65535
2025-01-14 23:54:21.05	252.23	79.39	-61.7	-86.9	2.9	15699920	84	65535
2025-01-14 23:54:21.25	251.79	79.33	-62.0	-87.2	3.0	15699920	84	65535
2025-01-14 23:54:21.45	251.36	79.27	-61.7	-86.9	2.9	15675254	84	65535
2025-01-14 23:54:21.66	250.91	79.20	-61.8	-87.0	3.2	15675254	84	65535
2025-01-14 23:54:21.88	250.45	79.13	-60.0	-85.2	3.7	15689804	81	65535
2025-01-14 23:54:22.08	250.03	79.07	-61.6	-86.8	2.9	15689804	83	65535
2025-01-14 23:54:22.28	249.62	79.01	-61.6	-86.8	2.9	15701293	83	65535
2025-01-14 23:54:22.48	249.21	78.94	-61.6	-86.8	2.9	15701293	83	65535
2025-01-14 23:54:22.68	248.81	78.88	-61.9	-87.1	2.8	15701293	83	65535
2025-01-14 23:54:22.89	248.39	78.81	-61.9	-87.1	2.8	15693534	83	65535
2025-01-14 23:54:23.10	247.98	78.74	-61.9	-87.1	3.2	15693534	83	65535
2025-01-14 23:54:23.30	247.59	78.67	-61.7	-86.9	3.1	15698249	83	65535
2025-01-14 23:54:23.50	247.21	78.61	-61.0	-86.2	3.0	15698249	83	65535
2025-01-14 23:54:23.72	246.79	78.53	-61.9	-87.1	2.9	15692161	83	65535
2025-01-14 23:54:23.92	246.42	78.46	-61.9	-87.1	3.0	15692161	83	65535
2025-01-14 23:54:24.14	246.02	78.39	-61.8	-87.0	2.9	15703361	83	65535
2025-01-14 23:54:24.34	245.65	78.32	-61.9	-87.1	2.8	15703361	83	65535
2025-01-14 23:54:24.55	245.27	78.25	-61.9	-87.1	3.2	15706657	83	65535
2025-01-14 23:54:24.77	244.88	78.17	-61.9	-87.1	3.1	15706657	83	65535
2025-01-14 23:54:24.97	244.53	78.10	-61.9	-87.1	3.1	15707733	83	65535
2025-01-14 23:54:25.17	244.19	78.03	-61.9	-87.1	3.0	15707733	83	65535
2025-01-14 23:54:25.37	243.85	77.96	-62.0	-87.2	2.9	15694770	84	65535
2025-01-14 23:54:25.58	243.49	77.89	-62.0	-87.2	2.9	15694770	84	65535
2025-01-14 23:54:25.78	243.16	77.81	-62.0	-87.2	2.9	15709274	84	65535
2025-01-14 23:54:25.98	242.83	77.74	-62.0	-87.2	2.9	15709274	84	65535
2025-01-14 23:54:26.18	242.50	77.67	-62.0	-87.2	2.9	15709274	84	65535
2025-01-14 23:54:26.39	242.17	77.59	-62.0	-87.2	2.9	15697082	84	65535
2025-01-14 23:54:26.59	241.85	77.52	-62.0	-87.2	2.9	15697082	84	65535
2025-01-14 23:54:26.80	241.52	77.44	-62.0	-87.2	3.3	15692260	84	65535
2025-01-14 23:54:27.00	241.21	77.37	-61.9	-87.1	2.2	15692260	83	65535
2025-01-14 23:54:27.21	240.89	77.29	-61.9	-87.1	2.8	15689430	83	65535
2025-01-14 23:54:27.41	240.59	77.22	-61.8	-87.0	2.8	15689430	83	65535
2025-01-14 23:54:27.61	240.29	77.14	-61.9	-87.1	2.8	15703582	83	65535
2025-01-14 23:54:27.82	239.98	77.06	-61.8	-87.1	2.8	15703582	83	65535
2025-01-14 23:54:28.02	239.69	76.99	-61.8	-87.0	2.8	15694519	83	65535
2025-01-14 23:54:28.23	239.38	76.91	-61.8	-87.0	2.8	15694519	83	65535
2025-01-14 23:54:28.43	239.10	76.83	-62.0	-87.2	2.9	15694923	84	65535
2025-01-14 23:54:28.63	238.82	76.76	-61.8	-87.1	2.7	15694923	82	65535
2025-01-14 23:54:28.84	238.53	76.68	-61.8	-87.0	2.8	15708992	83	65535
2025-01-14 23:54:29.04	238.25	76.60	-61.8	-87.0	2.8	15708992	83	65535
2025-01-14 23:54:29.24	237.98	76.52	-61.8	-87.0	2.8	15708992	83	65535
2025-01-14 23:54:29.45	237.70	76.44	-61.9	-87.1	2.9	15710968	83	65535
2025-01-14 23:54:29.66	237.42	76.36	-62.0	-87.2	3.0	15710968	83	65535
2025-01-14 23:54:29.86	237.16	76.28	-61.9	-87.2	2.9	15704437	83	65535
2025-01-14 23:54:30.06	236.90	76.20	-62.0	-87.2	2.9	15704437	84	65535
2025-01-14 23:54:30.27	236.64	76.12	-60.3	-85.5	3.2	15686447	81	65535
2025-01-14 23:54:30.48	236.37	76.04	-61.9	-87.1	2.8	15686447	83	65535
2025-01-14 23:54:30.68	236.12	75.96	-61.9	-87.2	2.7	15706092	83	65535
2025-01-14 23:54:30.88	235.88	75.88	-61.9	-87.2	2.8	15706092	83	65535
2025-01-14 23:54:31.08	235.63	75.80	-62.0	-87.2	2.8	15694152	83	65535
2025-01-14 23:54:31.28	235.39	75.72	-61.9	-87.1	2.8	15694152	83	65535
2025-01-14 23:54:31.50	235.13	75.63	-61.9	-87.1	2.8	15706863	83	65535
2025-01-14 23:54:31.70	234.90	75.56	-62.0	-87.2	2.9	15706863	84	65535
2025-01-14 23:54:31.91	234.65	75.47	-61.3	-86.5	2.9	15711692	84	65535
2025-01-14 23:54:32.11	234.43	75.39	-61.9	-87.1	2.8	15711692	83	65535
2025-01-14 23:54:32.31	234.20	75.31	-62.0	-87.2	2.8	15711051	83	65535
2025-01-14 23:54:32.52	233.96	75.23	-61.7	-86.9	2.8	15711051	83	65535
2025-01-14 23:54:32.72	233.74	75.15	-61.9	-87.1	2.8	15711051	83	65535
2025-01-14 23:54:32.93	233.51	75.06	-61.9	-87.1	2.8	15717041	83	65535
2025-01-14 23:54:33.13	233.30	74.98	-61.9	-87.1	2.8	15717041	83	65535
2025-01-14 23:54:33.33	233.08	74.90	-61.9	-87.1	2.8	15694534	83	65535
2025-01-14 23:54:33.53	232.87	74.82	-61.9	-87.1	2.8	15694534	83	65535
2025-01-14 23:54:33.75	232.64	74.73	-61.9	-87.1	2.8	15699249	83	65535
2025-01-14 23:54:33.95	232.43	74.65	-61.9	-87.2	2.8	15699249	83	65535
2025-01-14 23:54:34.15	232.23	74.56	-61.7	-86.9	2.8	15705009	83	65535
2025-01-14 23:54:34.35	232.03	74.48	-61.8	-87.0	2.9	15705009	83	65535
2025-01-14 23:54:34.55	231.83	74.40	-61.8	-87.0	2.8	15701019	83	65535
2025-01-14 23:54:34.75	231.63	74.32	-61.9	-87.1	2.9	15701019	83	65535
2025-01-14 23:54:34.97	231.41	74.23	-61.9	-87.1	2.8	15706329	83	65535
2025-01-14 23:54:35.17	231.22	74.15	-61.9	-87.1	2.9	15706329	83	65535
2025-01-14 23:54:35.37	231.03	74.06	-61.8	-87.0	2.3	15711776	83	65535
2025-01-14 23:54:35.57	230.84	73.98	-61.9	-87.1	3.0	15711776	83	65535
2025-01-14 23:54:35.78	230.64	73.89	-61.7	-86.9	3.0	15711776	83	65535
2025-01-14 23:54:35.98	230.46	73.81	-62.0	-87.2	3.0	15693794	83	65535
2025-01-14 23:54:36.18	230.28	73.73	-61.9	-87.1	2.8	15693794	83	65535
2025-01-14 23:54:36.38	230.10	73.65	-61.9	-87.1	2.8	15704010	83	65535
2025-01-14 23:54:36.58	229.92	73.56	-61.9	-87.1	2.8	15704010	83	65535
2025-01-14 23:54:36.78	229.74	73.48	-62.0	-87.2	2.8	15709487	83	65535
2025-01-14 23:54:37.00	229.55	73.39	-60.3	-85.5	2.9	15709487	82	65535
2025-01-14 23:54:37.20	229.37	73.30	-61.9	-87.1	2.8	15692886	83	65535
2025-01-14 23:54:37.40	229.20	73.22	-62.0	-87.2	2.8	15692886	83	65535
2025-01-14 23:54:37.61	229.02	73.13	-61.9	-87.1	2.8	15703231	83	65535
2025-01-14 23:54:37.82	228.85	73.04	-61.9	-87.1	2.8	15703231	83	65535
2025-01-14 23:54:38.02	228.68	72.96	-61.9	-87.1	2.8	15707382	83	65535
2025-01-14 23:54:38.22	228.52	72.88	-61.9	-87.1	2.8	15707382	83	65535
2025-01-14 23:54:38.42	228.35	72.79	-61.9	-87.1	2.8	15712493	83	65535
2025-01-14 23:54:38.62	228.19	72.71	-62.0	-87.2	2.8	15712493	83	65535
2025-01-14 23:54:38.82	228.03	72.63	-62.0	-87.2	2.8	15712493	83	65535
2025-01-14 23:54:39.02	227.88	72.54	-61.8	-87.0	2.8	15703056	83	65535
2025-01-14 23:54:39.22	227.72	72.46	-61.7	-87.0	2.8	15703056	83	65535
2025-01-14 23:54:39.43	227.56	72.37	-61.7	-86.9	2.8	15693145	83	65535
2025-01-14 23:54:39.63	227.41	72.28	-61.8	-87.0	2.8	15693145	83	65535
2025-01-14 23:54:39.83	227.25	72.20	-61.7	-86.9	2.8	15703193	83	65535
2025-01-14 23:54:40.03	227.10	72.12	-61.8	-87.0	2.8	15703193	83	65535
2025-01-14 23:54:40.24	226.95	72.03	-61.7	-86.9	2.8	15708892	83	65535
2025-01-14 23:54:40.45	226.79	71.94	-61.9	-87.1	2.8	15708892	83	65535
2025-01-14 23:54:40.66	226.64	71.85	-61.9	-87.1	3.0	15716163	83	65535
2025-01-14 23:54:40.88	226.48	71.76	-61.9	-87.1	2.8	15716163	83	65535
2025-01-14 23:54:41.08	226.34	71.67	-61.9	-87.1	2.8	15695266	83	65535
2025-01-14 23:54:41.28	226.20	71.59	-61.8	-87.0	2.8	15695266	83	65535
2025-01-14 23:54:41.49	226.05	71.50	-61.9	-87.1	2.8	15695266	83	65535
2025-01-14 23:54:41.71	225.90	71.41	-61.8	-87.0	3.0	15704063	83	65535
2025-01-14 23:54:41.91	225.77	71.32	-61.9	-87.1	3.2	15701148	83	65535
2025-01-14 23:54:42.11	225.63	71.24	-61.9	-87.1	3.1	15701148	83	65535
2025-01-14 23:54:42.31	225.50	71.15	-61.9	-87.2	3.0	15701148	83	65535
2025-01-14 23:54:42.52	225.36	71.06	-61.9	-87.1	3.0	15704360	84	65535
2025-01-14 23:54:42.72	225.23	70.98	-62.0	-87.2	2.9	15704360	84	65535
2025-01-14 23:54:42.92	225.10	70.89	-62.0	-87.2	2.9	15695884	84	65535
2025-01-14 23:54:43.12	224.97	70.81	-62.0	-87.2	2.9	15695884	84	65535
2025-01-14 23:54:43.33	224.83	70.72	-62.0	-87.2	2.9	15691078	84	65535
2025-01-14 23:54:43.55	224.69	70.62	-62.0	-87.2	3.3	15691078	84	65535
2025-01-14 23:54:43.77	224.56	70.53	-61.9	-87.1	1.9	15694824	83	65535
2025-01-14 23:54:43.97	224.43	70.45	-61.9	-87.1	2.9	15694824	83	65535
2025-01-14 23:54:44.17	224.31	70.36	-61.9	-87.1	2.8	15718856	83	65535
2025-01-14 23:54:44.37	224.19	70.28	-61.8	-87.0	2.8	15718856	83	65535

#Closed at: 2025-01-14 23:54:44