passes_logs/2026/01/15/R4.6S_Anadyr/R4.6S_Anadyr__20260115_164528_NOAA_20_JPSS-1_rec.log

#Pass ID: 20260115_164528_NOAA 20 (JPSS-1)
#Satellite: NOAA 20 (JPSS-1)
#Configuration: NOAA 20
#almurnet v.1.7.20251203
#Start time: 2026-01-15 16:45:28

#Version: 2.2.20231116
#Station: R4.6S_Anadyr
#Location: 177.4865 lon 64.73178 lat
#TLE: 1 43013U 17073A   26014.55467351  .00000038  00000+0  38801-4 0  9992
#TLE: 2 43013  98.7635 315.4987 0001517  39.9279 320.2008 14.19535859422677

#Time	Az	El	Level	Level2	SNR	BER	BlckErr	Temp	State	Recorded	gain1	gain2
2026-01-15 16:45:28.95	27.72	0.03	-48.1	-62.9	3.5	1.51e+00	0	25	0	0	60	50764
2026-01-15 16:45:29.96	27.67	0.09	-48.2	-63.3	3.6	1.51e+00	0	26	104	0	60	53157
2026-01-15 16:45:30.97	27.62	0.14	-48.2	-63.4	3.6	1.51e+00	0	26	104	0	60	53545
2026-01-15 16:45:31.97	27.58	0.20	-48.2	-63.4	3.6	1.51e+00	0	26	104	0	60	53316
2026-01-15 16:45:32.99	27.53	0.26	-48.2	-63.4	3.6	1.51e+00	0	26	104	0	60	53722
2026-01-15 16:45:33.99	27.48	0.31	-48.3	-63.5	3.6	1.51e+00	0	26	104	0	60	53816
2026-01-15 16:45:35.00	27.43	0.37	-48.3	-63.5	3.6	1.51e+00	0	26	104	0	60	53848
2026-01-15 16:45:36.02	27.39	0.43	-48.2	-63.5	3.6	1.51e+00	0	26	104	0	60	53852
2026-01-15 16:45:37.02	27.34	0.48	-47.8	-63.3	3.6	1.51e+00	0	26	104	0	60	53119
2026-01-15 16:45:38.03	27.29	0.54	-48.1	-63.3	3.6	1.51e+00	0	26	104	0	60	52677
2026-01-15 16:45:39.04	27.24	0.60	-48.0	-63.2	3.6	1.51e+00	0	27	104	0	60	52242
2026-01-15 16:45:40.05	27.19	0.66	-47.8	-63.0	3.6	1.51e+00	0	27	104	0	60	51058
2026-01-15 16:45:41.06	27.14	0.71	-47.1	-62.8	3.6	1.51e+00	0	26	104	0	60	50140
2026-01-15 16:45:42.07	27.10	0.77	-47.5	-62.7	3.6	1.51e+00	0	27	104	0	60	49189
2026-01-15 16:45:43.08	27.05	0.83	-47.3	-62.5	3.6	1.51e+00	0	27	104	0	60	48069
2026-01-15 16:45:44.09	27.00	0.88	-47.0	-62.2	3.6	1.51e+00	0	27	104	0	60	46347
2026-01-15 16:45:45.10	26.95	0.94	-46.4	-61.6	3.6	1.51e+00	0	27	104	0	60	43561
2026-01-15 16:45:46.11	26.90	1.00	-46.4	-61.6	3.6	1.51e+00	0	27	104	0	60	43618
2026-01-15 16:45:47.12	26.85	1.06	-46.4	-61.6	3.6	1.51e+00	0	27	104	0	60	43560
2026-01-15 16:45:48.13	26.80	1.12	-46.4	-61.7	3.6	1.51e+00	0	27	104	0	60	43807
2026-01-15 16:45:49.14	26.75	1.17	-46.4	-61.6	3.6	1.51e+00	0	27	104	0	60	43699
2026-01-15 16:45:50.15	26.70	1.23	-46.4	-61.6	3.6	1.51e+00	0	27	104	0	60	43465
2026-01-15 16:45:51.16	26.65	1.29	-46.4	-61.6	3.6	1.51e+00	0	27	104	0	60	43571
2026-01-15 16:45:52.17	26.60	1.35	-46.4	-61.6	3.6	1.51e+00	0	27	104	0	60	43501
2026-01-15 16:45:53.18	26.54	1.41	-46.4	-61.6	3.6	1.51e+00	0	27	104	0	60	43624
2026-01-15 16:45:54.19	26.49	1.46	-46.4	-61.6	3.6	1.51e+00	0	27	104	0	60	43605
2026-01-15 16:45:55.20	26.44	1.52	-46.3	-61.6	3.6	1.51e+00	0	27	104	0	60	43538
2026-01-15 16:45:56.21	26.39	1.58	-46.4	-61.6	3.6	1.51e+00	0	27	104	0	60	43554
2026-01-15 16:45:57.22	26.34	1.64	-46.4	-61.6	3.6	1.51e+00	0	27	104	0	60	43455
2026-01-15 16:45:58.23	26.28	1.70	-46.3	-61.6	3.6	1.51e+00	0	27	104	0	60	43559
2026-01-15 16:45:59.24	26.23	1.76	-46.3	-61.6	3.6	1.51e+00	0	27	104	0	60	43478
2026-01-15 16:46:00.25	26.18	1.82	-46.3	-61.6	3.6	1.51e+00	0	27	104	0	60	43297
2026-01-15 16:46:01.26	26.13	1.88	-46.4	-61.5	3.6	1.51e+00	0	27	104	0	60	42966
2026-01-15 16:46:02.27	26.07	1.94	-46.3	-61.4	3.6	1.51e+00	0	27	104	0	60	42639
2026-01-15 16:46:03.28	26.02	2.00	-46.3	-61.4	3.6	1.51e+00	0	27	104	0	60	42435
2026-01-15 16:46:04.29	25.97	2.05	-46.3	-61.4	3.6	1.51e+00	0	27	104	0	60	42466
2026-01-15 16:46:05.29	25.91	2.11	-46.3	-61.4	3.6	1.51e+00	0	27	104	0	60	42445
2026-01-15 16:46:06.31	25.86	2.17	-46.3	-61.5	3.6	1.51e+00	0	27	104	0	60	42753
2026-01-15 16:46:07.32	25.80	2.23	-46.3	-61.6	3.6	1.51e+00	0	27	104	0	60	43471
2026-01-15 16:46:08.33	25.75	2.29	-46.3	-61.6	3.6	1.51e+00	0	27	104	0	60	43660
2026-01-15 16:46:09.34	25.69	2.35	-46.4	-61.6	3.6	1.51e+00	0	27	104	0	60	43375
2026-01-15 16:46:10.35	25.64	2.41	-46.3	-61.6	3.6	1.51e+00	0	27	104	0	60	43293
2026-01-15 16:46:11.36	25.58	2.47	-46.4	-61.6	3.6	1.51e+00	0	27	104	0	60	43314
2026-01-15 16:46:12.37	25.53	2.53	-46.4	-61.5	3.6	1.51e+00	0	27	104	0	60	42877
2026-01-15 16:46:13.38	25.47	2.59	-46.4	-61.4	3.6	1.51e+00	0	27	104	0	60	42672
2026-01-15 16:46:14.39	25.41	2.65	-46.3	-61.3	3.6	1.51e+00	0	27	104	0	60	41848
2026-01-15 16:46:15.40	25.36	2.71	-46.3	-61.0	3.6	1.51e+00	0	27	104	0	60	40507
2026-01-15 16:46:16.41	25.30	2.78	-46.3	-60.8	3.6	1.51e+00	0	27	104	0	60	39540
2026-01-15 16:46:17.42	25.24	2.84	-46.3	-61.1	3.6	1.51e+00	0	27	104	0	60	40956
2026-01-15 16:46:18.43	25.19	2.90	-46.3	-61.4	3.6	1.51e+00	0	27	104	0	60	42499
2026-01-15 16:46:19.44	25.13	2.96	-46.3	-61.0	3.6	1.51e+00	0	27	104	0	60	40410
2026-01-15 16:46:20.45	25.07	3.02	-46.2	-59.2	3.8	1.50e+00	0	27	104	0	60	32851
2026-01-15 16:46:21.46	25.01	3.08	-46.0	-55.5	4.8	1.19e+00	0	27	0	0	60	21471
2026-01-15 16:46:22.47	24.96	3.14	-45.5	-52.2	7.4	3.52e-01	92	27	0	2097152	60	14731
2026-01-15 16:46:23.48	24.90	3.20	-45.1	-50.6	9.4	3.67e-02	26	27	0	4194304	60	12304
2026-01-15 16:46:24.49	24.84	3.26	-44.8	-49.7	10.5	7.26e-03	0	27	0	6291456	60	11017
2026-01-15 16:46:25.50	24.78	3.33	-44.4	-48.8	11.4	2.09e-03	0	27	0	7340032	60	9967
2026-01-15 16:46:26.51	24.72	3.39	-44.3	-48.6	11.7	4.86e-04	21	27	0	9437184	60	9728
2026-01-15 16:46:27.52	24.66	3.45	-45.3	-51.3	7.2	6.19e-04	74	27	0	11534336	60	13313
2026-01-15 16:46:28.53	24.60	3.51	-46.4	-58.7	3.7	1.51e+00	0	27	104	11534336	60	31035
2026-01-15 16:46:29.54	24.54	3.57	-44.5	-49.2	10.5	8.04e-02	92	27	104	11534336	60	10436
2026-01-15 16:46:30.55	24.48	3.63	-42.3	-44.4	17.0	6.73e-01	66	27	0	12582912	60	5979
2026-01-15 16:46:31.56	24.42	3.70	-45.3	-51.8	5.4	0.00e+00	65	27	0	14680064	58	15716
2026-01-15 16:46:32.57	24.36	3.76	-44.0	-48.0	6.0	1.46e+00	0	27	104	14680064	60	9041
2026-01-15 16:46:33.58	24.30	3.82	-40.6	-42.3	18.4	0.00e+00	7	27	0	14680064	54	6660
2026-01-15 16:46:34.58	24.24	3.88	-40.7	-42.4	18.3	0.00e+00	6	27	0	15728640	54	6697
2026-01-15 16:46:35.59	24.18	3.95	-40.6	-42.3	18.5	0.00e+00	6	27	0	17825792	54	6644
2026-01-15 16:46:36.60	24.12	4.01	-40.6	-42.3	18.4	0.00e+00	92	27	0	19922944	54	6617
2026-01-15 16:46:37.61	24.05	4.07	-40.5	-42.2	18.5	0.00e+00	6	27	0	22020096	54	6576
2026-01-15 16:46:38.62	23.99	4.13	-40.4	-42.0	18.7	0.00e+00	90	27	0	24117248	54	6463
2026-01-15 16:46:39.63	23.93	4.20	-40.5	-42.1	18.6	0.00e+00	0	27	0	25165824	54	6536
2026-01-15 16:46:40.64	23.86	4.26	-40.5	-42.2	18.6	0.00e+00	0	27	0	27262976	54	6540
2026-01-15 16:46:41.65	23.80	4.32	-40.5	-42.2	18.7	0.00e+00	1	27	0	29360128	54	6552
2026-01-15 16:46:42.66	23.74	4.39	-40.4	-42.0	18.7	0.00e+00	0	27	0	31457280	54	6443
2026-01-15 16:46:43.67	23.67	4.45	-40.6	-42.2	18.7	0.00e+00	92	27	0	33554432	54	6595
2026-01-15 16:46:44.68	23.61	4.52	-40.6	-42.3	18.5	0.00e+00	28	27	0	34603008	54	6660
2026-01-15 16:46:45.69	23.54	4.58	-40.6	-42.3	18.6	0.00e+00	92	27	0	36700160	54	6648
2026-01-15 16:46:46.70	23.48	4.64	-40.5	-42.2	18.7	0.00e+00	28	27	0	38797312	54	6553
2026-01-15 16:46:47.71	23.41	4.71	-40.7	-42.3	18.5	0.00e+00	26	27	0	40894464	54	6678
2026-01-15 16:46:48.72	23.35	4.77	-40.6	-42.2	18.7	0.00e+00	29	27	0	42991616	54	6567
2026-01-15 16:46:49.73	23.28	4.84	-40.7	-42.4	18.5	0.00e+00	27	27	0	45088768	54	6739
2026-01-15 16:46:50.74	23.22	4.90	-40.5	-42.1	18.7	0.00e+00	92	27	0	46137344	54	6501
2026-01-15 16:46:51.75	23.15	4.96	-40.5	-42.1	18.8	0.00e+00	53	27	0	48234496	54	6477
2026-01-15 16:46:52.76	23.08	5.03	-40.5	-42.1	18.7	0.00e+00	92	27	0	50331648	54	6519
2026-01-15 16:46:53.77	23.02	5.09	-40.5	-42.1	18.9	0.00e+00	52	27	0	52428800	54	6469
2026-01-15 16:46:54.78	22.95	5.16	-40.5	-42.1	18.8	0.00e+00	53	27	0	54525952	54	6517
2026-01-15 16:46:55.79	22.88	5.22	-40.5	-42.1	18.9	0.00e+00	59	27	0	55574528	54	6519
2026-01-15 16:46:56.80	22.81	5.29	-40.7	-42.3	18.7	0.00e+00	0	27	0	57671680	54	6662
2026-01-15 16:46:57.80	22.75	5.35	-40.4	-42.0	18.9	0.00e+00	68	27	0	59768832	54	6433
2026-01-15 16:46:58.81	22.68	5.42	-40.7	-42.3	18.7	0.00e+00	0	27	0	61865984	54	6635
2026-01-15 16:46:59.82	22.61	5.48	-40.4	-42.0	19.0	0.00e+00	92	27	0	63963136	54	6408
2026-01-15 16:47:00.83	22.54	5.55	-40.5	-42.1	18.9	0.00e+00	0	27	0	65011712	54	6523
2026-01-15 16:47:01.84	22.47	5.61	-40.3	-41.8	19.2	0.00e+00	46	27	0	67108864	54	6281
2026-01-15 16:47:02.85	22.40	5.68	-40.3	-41.8	19.2	0.00e+00	0	27	0	69206016	54	6300
2026-01-15 16:47:03.86	22.33	5.75	-40.4	-41.9	19.1	0.00e+00	24	27	0	71303168	54	6342
2026-01-15 16:47:04.88	22.26	5.81	-40.3	-41.9	19.2	0.00e+00	0	27	0	73400320	54	6323
2026-01-15 16:47:05.89	22.19	5.88	-40.3	-41.8	19.2	0.00e+00	0	27	0	74448896	54	6311
2026-01-15 16:47:06.90	22.12	5.95	-40.4	-42.0	19.1	0.00e+00	90	27	0	76546048	54	6393
2026-01-15 16:47:07.91	22.05	6.01	-40.4	-41.9	19.1	0.00e+00	27	27	0	78643200	54	6379
2026-01-15 16:47:08.91	21.97	6.08	-40.5	-42.0	19.1	0.00e+00	92	27	0	80740352	54	6427
2026-01-15 16:47:09.92	21.90	6.14	-40.4	-41.9	19.1	0.00e+00	52	27	0	82837504	54	6375
2026-01-15 16:47:10.93	21.83	6.21	-40.3	-41.8	19.3	0.00e+00	52	27	0	83886080	54	6258
2026-01-15 16:47:11.94	21.76	6.28	-40.2	-41.7	19.4	0.00e+00	27	27	0	85983232	54	6216
2026-01-15 16:47:12.95	21.68	6.35	-40.1	-41.5	19.6	0.00e+00	28	27	0	88080384	54	6102
2026-01-15 16:47:13.96	21.61	6.41	-40.1	-41.6	19.5	0.00e+00	90	27	0	90177536	54	6128
2026-01-15 16:47:14.97	21.54	6.48	-40.1	-41.5	19.7	0.00e+00	0	27	0	92274688	54	6068
2026-01-15 16:47:15.98	21.46	6.55	-40.0	-41.4	19.7	0.00e+00	92	27	0	93323264	54	6009
2026-01-15 16:47:16.99	21.39	6.62	-40.1	-41.6	19.6	0.00e+00	52	27	0	95420416	54	6116
2026-01-15 16:47:18.00	21.31	6.68	-39.9	-41.3	19.8	0.00e+00	0	27	0	97517568	54	5919
2026-01-15 16:47:19.00	21.24	6.75	-40.0	-41.4	19.7	0.00e+00	2	27	0	99614720	54	6026
2026-01-15 16:47:20.02	21.16	6.82	-39.9	-41.3	19.8	0.00e+00	0	27	0	101711872	54	5950
2026-01-15 16:47:21.02	21.08	6.89	-39.9	-41.2	19.9	0.00e+00	0	27	0	102760448	54	5889
2026-01-15 16:47:22.03	21.01	6.95	-39.9	-41.3	19.8	0.00e+00	0	27	0	104857600	54	5938
2026-01-15 16:47:23.04	20.93	7.02	-39.9	-41.3	19.9	0.00e+00	92	27	0	106954752	54	5934
2026-01-15 16:47:24.05	20.85	7.09	-39.8	-41.2	20.0	0.00e+00	0	27	0	109051904	54	5851
2026-01-15 16:47:25.06	20.78	7.16	-39.8	-41.1	20.0	0.00e+00	29	27	0	111149056	54	5820
2026-01-15 16:47:26.07	20.70	7.23	-39.8	-41.1	20.1	0.00e+00	0	27	0	113246208	54	5813
2026-01-15 16:47:27.08	20.62	7.30	-39.9	-41.3	19.9	0.00e+00	23	27	0	114294784	52	6618
2026-01-15 16:47:28.09	20.54	7.37	-39.7	-41.0	20.1	0.00e+00	0	27	0	116391936	52	6431
2026-01-15 16:47:29.10	20.46	7.44	-39.7	-41.0	20.2	0.00e+00	24	27	0	118489088	52	6442
2026-01-15 16:47:30.11	20.38	7.50	-39.7	-41.1	20.2	0.00e+00	92	27	0	120586240	52	6485
2026-01-15 16:47:31.12	20.30	7.57	-39.6	-40.9	20.2	0.00e+00	0	27	0	122683392	52	6376
2026-01-15 16:47:32.13	20.22	7.64	-39.6	-40.9	20.4	0.00e+00	92	27	0	123731968	52	6325
2026-01-15 16:47:33.14	20.14	7.71	-39.7	-41.0	20.2	0.00e+00	57	27	0	125829120	52	6446
2026-01-15 16:47:34.15	20.06	7.78	-39.5	-40.8	20.5	0.00e+00	55	27	0	127926272	52	6280
2026-01-15 16:47:35.16	19.98	7.85	-39.4	-40.6	20.6	0.00e+00	53	27	0	130023424	52	6169
2026-01-15 16:47:36.17	19.89	7.92	-39.4	-40.6	20.6	0.00e+00	0	27	0	132120576	52	6141
2026-01-15 16:47:37.18	19.81	7.99	-39.2	-40.4	20.8	0.00e+00	91	27	0	133169152	52	6020
2026-01-15 16:47:38.19	19.73	8.06	-39.3	-40.6	20.7	0.00e+00	0	27	0	135266304	52	6120
2026-01-15 16:47:39.20	19.65	8.13	-39.4	-40.7	20.6	0.00e+00	92	27	0	137363456	52	6193
2026-01-15 16:47:40.21	19.56	8.20	-39.4	-40.7	20.6	0.00e+00	2	27	0	139460608	52	6205
2026-01-15 16:47:41.22	19.48	8.28	-39.4	-40.7	20.7	0.00e+00	0	27	0	141557760	52	6197
2026-01-15 16:47:42.22	19.39	8.35	-39.3	-40.6	20.7	0.00e+00	0	27	0	142606336	52	6130
2026-01-15 16:47:43.23	19.31	8.42	-39.4	-40.7	20.7	0.00e+00	0	27	0	144703488	52	6180
2026-01-15 16:47:44.24	19.22	8.49	-39.4	-40.6	20.7	0.00e+00	1	27	0	146800640	52	6139
2026-01-15 16:47:45.26	19.14	8.56	-39.4	-40.7	20.6	0.00e+00	0	27	0	148897792	52	6212
2026-01-15 16:47:46.26	19.05	8.63	-39.4	-40.6	20.7	0.00e+00	92	27	0	150994944	52	6171
2026-01-15 16:47:47.27	18.96	8.70	-39.3	-40.6	20.7	0.00e+00	0	27	0	152043520	52	6109
2026-01-15 16:47:48.28	18.88	8.77	-39.4	-40.7	20.7	0.00e+00	62	27	0	154140672	52	6184
2026-01-15 16:47:49.29	18.79	8.85	-39.5	-40.7	20.6	0.00e+00	27	27	0	156237824	52	6224
2026-01-15 16:47:50.30	18.70	8.92	-39.4	-40.7	20.7	0.00e+00	0	27	0	158334976	52	6184
2026-01-15 16:47:51.31	18.61	8.99	-39.4	-40.6	20.7	0.00e+00	0	27	0	160432128	52	6152
2026-01-15 16:47:52.32	18.52	9.06	-39.6	-40.8	20.6	0.00e+00	27	27	0	161480704	52	6304
2026-01-15 16:47:53.33	18.43	9.13	-39.4	-40.6	20.7	0.00e+00	90	27	0	163577856	52	6169
2026-01-15 16:47:54.34	18.34	9.21	-39.3	-40.5	20.8	0.00e+00	0	27	0	165675008	52	6100
2026-01-15 16:47:55.35	18.25	9.28	-39.4	-40.6	20.8	0.00e+00	32	27	0	167772160	52	6140
2026-01-15 16:47:56.36	18.16	9.35	-39.4	-40.7	20.7	0.00e+00	59	27	0	169869312	52	6186
2026-01-15 16:47:57.36	18.07	9.43	-39.2	-40.4	20.9	0.00e+00	5	27	0	170917888	52	6016
2026-01-15 16:47:58.37	17.98	9.50	-39.1	-40.3	21.0	0.00e+00	7	27	0	173015040	52	5963
2026-01-15 16:47:59.38	17.89	9.57	-39.3	-40.5	20.9	0.00e+00	4	27	0	175112192	52	6084
2026-01-15 16:48:00.39	17.79	9.64	-39.4	-40.6	20.8	0.00e+00	25	27	0	177209344	52	6161
2026-01-15 16:48:01.40	17.70	9.72	-39.1	-40.3	21.1	0.00e+00	57	27	0	179306496	52	5960
2026-01-15 16:48:02.41	17.61	9.79	-39.1	-40.3	21.1	0.00e+00	92	27	0	181403648	52	5924
2026-01-15 16:48:03.42	17.51	9.87	-39.0	-40.2	21.1	0.00e+00	0	27	0	182452224	52	5882
2026-01-15 16:48:04.43	17.42	9.94	-39.1	-40.4	21.1	0.00e+00	9	27	0	184549376	52	5971
2026-01-15 16:48:05.44	17.32	10.01	-39.1	-40.3	21.0	0.00e+00	0	27	0	186646528	52	5954
2026-01-15 16:48:06.45	17.23	10.09	-39.1	-40.4	21.1	0.00e+00	7	27	0	188743680	52	5995
2026-01-15 16:48:07.46	17.13	10.16	-39.2	-40.4	21.0	0.00e+00	32	27	0	190840832	52	5982
2026-01-15 16:48:08.47	17.03	10.24	-39.2	-40.4	21.0	0.00e+00	30	27	0	191889408	52	6033
2026-01-15 16:48:09.48	16.93	10.31	-39.1	-40.3	21.0	0.00e+00	92	27	0	193986560	52	5935
2026-01-15 16:48:10.49	16.84	10.39	-39.2	-40.4	21.0	0.00e+00	30	27	0	196083712	52	5985
2026-01-15 16:48:11.50	16.74	10.46	-38.9	-40.1	21.3	0.00e+00	28	27	0	198180864	52	5792
2026-01-15 16:48:12.51	16.64	10.54	-39.0	-40.1	21.2	0.00e+00	0	27	0	199229440	52	5826
2026-01-15 16:48:13.52	16.54	10.61	-39.0	-40.2	21.1	0.00e+00	57	27	0	201326592	52	5843
2026-01-15 16:48:14.53	16.44	10.69	-38.9	-40.1	21.2	0.00e+00	15	27	0	203423744	52	5791
2026-01-15 16:48:15.53	16.34	10.76	-39.0	-40.1	21.2	0.00e+00	59	27	0	205520896	52	5822
2026-01-15 16:48:16.54	16.24	10.84	-38.9	-40.1	21.3	0.00e+00	90	28	0	207618048	52	5800
2026-01-15 16:48:17.55	16.14	10.91	-39.0	-40.2	21.2	0.00e+00	5	28	0	209715200	52	5871
2026-01-15 16:48:18.56	16.04	10.99	-39.0	-40.1	21.3	0.00e+00	92	27	0	210763776	52	5807
2026-01-15 16:48:19.57	15.93	11.07	-39.1	-40.3	21.2	0.00e+00	7	28	0	212860928	52	5927
2026-01-15 16:48:20.58	15.83	11.14	-39.0	-40.1	21.3	0.00e+00	58	27	0	214958080	52	5822
2026-01-15 16:48:21.59	15.73	11.22	-39.1	-40.3	21.2	0.00e+00	55	27	0	217055232	52	5935
2026-01-15 16:48:22.60	15.62	11.30	-39.0	-40.2	21.2	0.00e+00	57	27	0	219152384	52	5854
2026-01-15 16:48:23.61	15.52	11.37	-38.9	-40.1	21.4	0.00e+00	2	27	0	220200960	52	5769
2026-01-15 16:48:24.62	15.41	11.45	-39.0	-40.1	21.3	0.00e+00	6	27	0	222298112	52	5812
2026-01-15 16:48:25.63	15.30	11.53	-39.0	-40.2	21.2	0.00e+00	92	27	0	224395264	52	5872
2026-01-15 16:48:26.64	15.20	11.60	-38.9	-40.1	21.4	0.00e+00	6	27	0	226492416	52	5796
2026-01-15 16:48:27.65	15.09	11.68	-38.9	-40.0	21.4	0.00e+00	0	27	0	228589568	52	5731
2026-01-15 16:48:28.66	14.98	11.76	-38.9	-40.1	21.4	0.00e+00	0	27	0	229638144	52	5786
2026-01-15 16:48:29.67	14.87	11.84	-38.9	-40.0	21.5	0.00e+00	0	27	0	231735296	52	5748
2026-01-15 16:48:30.68	14.77	11.91	-38.9	-40.0	21.4	0.00e+00	6	27	0	233832448	52	5747
2026-01-15 16:48:31.69	14.66	11.99	-39.0	-40.2	21.3	0.00e+00	0	27	0	235929600	52	5846
2026-01-15 16:48:32.70	14.55	12.07	-39.1	-40.2	21.2	0.00e+00	92	27	0	238026752	52	5887
2026-01-15 16:48:33.71	14.43	12.15	-39.0	-40.2	21.3	0.00e+00	0	27	0	239075328	52	5831
2026-01-15 16:48:34.72	14.32	12.23	-39.1	-40.2	21.2	0.00e+00	51	27	0	241172480	52	5896
2026-01-15 16:48:35.73	14.21	12.30	-38.9	-40.0	21.5	0.00e+00	30	27	0	243269632	52	5726
2026-01-15 16:48:36.74	14.10	12.38	-38.9	-40.1	21.4	0.00e+00	53	27	0	245366784	52	5779
2026-01-15 16:48:37.75	13.99	12.46	-38.7	-39.9	21.6	0.00e+00	53	27	0	247463936	52	5649
2026-01-15 16:48:38.76	13.87	12.54	-38.9	-40.0	21.4	0.00e+00	29	27	0	248512512	50	6445
2026-01-15 16:48:39.77	13.76	12.62	-39.0	-40.1	21.4	0.00e+00	92	27	0	250609664	50	6514
2026-01-15 16:48:40.78	13.64	12.70	-38.8	-40.0	21.5	0.00e+00	50	27	0	252706816	50	6409
2026-01-15 16:48:41.79	13.53	12.78	-38.9	-40.1	21.4	0.00e+00	90	27	0	254803968	50	6492
2026-01-15 16:48:42.80	13.41	12.86	-38.9	-40.1	21.5	0.00e+00	2	27	0	256901120	50	6482
2026-01-15 16:48:43.81	13.29	12.94	-38.9	-40.1	21.5	0.00e+00	50	27	0	257949696	50	6469
2026-01-15 16:48:44.82	13.17	13.02	-39.0	-40.2	21.3	0.00e+00	0	27	0	260046848	50	6566
2026-01-15 16:48:45.83	13.06	13.10	-39.0	-40.1	21.1	0.00e+00	0	27	0	262144000	50	6535
2026-01-15 16:48:46.84	12.94	13.18	-39.0	-40.2	21.4	0.00e+00	77	27	0	264241152	50	6571
2026-01-15 16:48:47.85	12.82	13.26	-39.1	-40.3	21.2	0.00e+00	0	27	0	266338304	50	6674
2026-01-15 16:48:48.86	12.70	13.34	-39.0	-40.2	21.3	0.00e+00	92	27	0	267386880	50	6544
2026-01-15 16:48:49.87	12.58	13.42	-39.0	-40.2	21.3	0.00e+00	0	27	0	269484032	50	6579
2026-01-15 16:48:50.87	12.45	13.50	-38.9	-40.0	21.5	0.00e+00	3	27	0	271581184	50	6416
2026-01-15 16:48:51.88	12.33	13.58	-38.9	-40.0	21.6	0.00e+00	30	27	0	273678336	50	6416
2026-01-15 16:48:52.89	12.21	13.66	-39.0	-40.1	21.5	0.00e+00	0	27	0	275775488	50	6521
2026-01-15 16:48:53.90	12.09	13.74	-38.8	-39.9	21.6	0.00e+00	0	27	0	277872640	50	6338
2026-01-15 16:48:54.91	11.96	13.82	-38.7	-39.8	21.6	0.00e+00	0	28	0	278921216	50	6301
2026-01-15 16:48:55.92	11.84	13.90	-38.7	-39.8	21.8	0.00e+00	92	27	0	281018368	50	6260
2026-01-15 16:48:56.93	11.71	13.98	-38.6	-39.7	21.7	0.00e+00	27	27	0	283115520	50	6243
2026-01-15 16:48:57.94	11.58	14.06	-38.7	-39.8	21.7	0.00e+00	71	28	0	285212672	50	6299
2026-01-15 16:48:58.95	11.46	14.14	-38.5	-39.6	21.9	0.00e+00	5	28	0	287309824	50	6153
2026-01-15 16:48:59.96	11.33	14.23	-38.5	-39.6	22.0	0.00e+00	50	27	0	288358400	50	6143
2026-01-15 16:49:00.97	11.20	14.31	-38.6	-39.7	21.8	0.00e+00	0	28	0	290455552	50	6210
2026-01-15 16:49:01.98	11.07	14.39	-38.6	-39.7	21.8	0.00e+00	51	28	0	292552704	50	6231
2026-01-15 16:49:02.99	10.94	14.47	-38.6	-39.7	21.8	0.00e+00	90	27	0	294649856	50	6204
2026-01-15 16:49:04.00	10.81	14.55	-38.5	-39.6	22.0	0.00e+00	56	27	0	296747008	50	6157
2026-01-15 16:49:05.00	10.68	14.64	-38.6	-39.7	21.9	0.00e+00	90	27	0	297795584	50	6195
2026-01-15 16:49:06.01	10.54	14.72	-38.7	-39.8	21.8	0.00e+00	0	27	0	299892736	50	6285
2026-01-15 16:49:07.02	10.41	14.80	-38.5	-39.6	22.0	0.00e+00	0	27	0	301989888	50	6117
2026-01-15 16:49:08.03	10.28	14.88	-38.6	-39.7	21.8	0.00e+00	0	27	0	304087040	50	6186
2026-01-15 16:49:09.04	10.14	14.97	-38.7	-39.8	21.7	0.00e+00	0	28	0	306184192	50	6294
2026-01-15 16:49:10.05	10.01	15.05	-38.6	-39.7	21.9	0.00e+00	14	27	0	307232768	50	6194
2026-01-15 16:49:11.06	9.87	15.13	-38.6	-39.7	21.8	0.00e+00	0	28	0	309329920	50	6233
2026-01-15 16:49:12.07	9.73	15.22	-38.6	-39.7	21.9	0.00e+00	92	27	0	311427072	50	6197
2026-01-15 16:49:13.08	9.60	15.30	-38.5	-39.6	21.9	0.00e+00	26	28	0	313524224	50	6146
2026-01-15 16:49:14.09	9.46	15.38	-38.6	-39.6	22.0	0.00e+00	0	28	0	315621376	50	6163
2026-01-15 16:49:15.09	9.32	15.46	-38.4	-39.4	22.0	0.00e+00	0	27	0	316669952	50	6019
2026-01-15 16:49:16.10	9.18	15.55	-38.3	-39.3	22.2	0.00e+00	31	28	0	318767104	50	5958
2026-01-15 16:49:17.12	9.04	15.63	-38.3	-39.3	22.2	0.00e+00	2	28	0	320864256	50	5951
2026-01-15 16:49:18.12	8.90	15.72	-38.1	-39.2	22.4	0.00e+00	32	28	0	322961408	50	5831
2026-01-15 16:49:19.13	8.75	15.80	-38.1	-39.2	22.4	0.00e+00	92	27	0	325058560	50	5837
2026-01-15 16:49:20.14	8.61	15.88	-38.1	-39.1	22.4	0.00e+00	26	27	0	326107136	50	5807
2026-01-15 16:49:21.15	8.46	15.97	-38.1	-39.1	22.4	0.00e+00	92	27	0	328204288	50	5826
2026-01-15 16:49:22.16	8.32	16.05	-38.0	-39.0	22.5	0.00e+00	0	27	0	330301440	50	5761
2026-01-15 16:49:23.17	8.17	16.14	-38.0	-39.0	22.5	0.00e+00	0	28	0	332398592	50	5751
2026-01-15 16:49:24.18	8.03	16.22	-38.1	-39.1	22.5	0.00e+00	0	27	0	334495744	50	5803
2026-01-15 16:49:25.19	7.88	16.31	-38.1	-39.1	22.5	0.00e+00	0	27	0	335544320	50	5807
2026-01-15 16:49:26.20	7.73	16.39	-38.1	-39.1	22.5	0.00e+00	92	27	0	337641472	50	5800
2026-01-15 16:49:27.21	7.58	16.47	-38.0	-39.0	22.6	0.00e+00	0	27	0	339738624	50	5712
2026-01-15 16:49:28.22	7.43	16.56	-38.1	-39.1	22.4	0.00e+00	92	27	0	341835776	50	5809
2026-01-15 16:49:29.23	7.28	16.64	-38.0	-39.0	22.6	0.00e+00	0	27	0	343932928	50	5755
2026-01-15 16:49:30.24	7.13	16.73	-37.9	-38.9	22.7	0.00e+00	2	27	0	346030080	50	5648
2026-01-15 16:49:31.25	6.97	16.81	-37.8	-38.8	22.7	0.00e+00	2	27	0	347078656	50	5585
2026-01-15 16:49:32.26	6.82	16.90	-37.8	-38.8	22.7	0.00e+00	29	27	0	349175808	50	5588
2026-01-15 16:49:33.27	6.67	16.98	-37.7	-38.6	22.8	0.00e+00	16	27	0	351272960	48	6155
2026-01-15 16:49:34.28	6.51	17.07	-37.6	-38.5	23.0	0.00e+00	0	27	0	353370112	48	6076
2026-01-15 16:49:35.29	6.35	17.16	-37.7	-38.7	22.8	0.00e+00	92	28	0	355467264	48	6201
2026-01-15 16:49:36.30	6.20	17.24	-37.6	-38.6	23.0	0.00e+00	0	27	0	356515840	48	6117
2026-01-15 16:49:37.31	6.04	17.33	-37.7	-38.7	22.9	0.00e+00	69	28	0	358612992	48	6189
2026-01-15 16:49:38.32	5.88	17.41	-37.7	-38.7	22.8	0.00e+00	2	27	0	360710144	48	6225
2026-01-15 16:49:39.33	5.72	17.50	-37.7	-38.6	23.0	0.00e+00	2	28	0	362807296	48	6166
2026-01-15 16:49:40.34	5.56	17.58	-37.8	-38.8	22.7	0.00e+00	0	28	0	364904448	48	6275
2026-01-15 16:49:41.35	5.40	17.67	-37.6	-38.5	23.0	0.00e+00	32	28	0	365953024	48	6099
2026-01-15 16:49:42.36	5.23	17.75	-37.7	-38.6	22.9	0.00e+00	91	28	0	368050176	48	6164
2026-01-15 16:49:43.37	5.07	17.84	-37.6	-38.6	23.0	0.00e+00	56	28	0	370147328	48	6106
2026-01-15 16:49:44.38	4.90	17.93	-37.6	-38.5	23.0	0.00e+00	91	27	0	372244480	48	6089
2026-01-15 16:49:45.39	4.74	18.01	-37.5	-38.4	23.1	0.00e+00	6	28	0	374341632	48	6018
2026-01-15 16:49:46.40	4.57	18.10	-37.5	-38.5	23.1	0.00e+00	0	27	0	375390208	48	6053
2026-01-15 16:49:47.41	4.40	18.18	-37.9	-38.8	22.9	0.00e+00	4	27	0	377487360	48	6315
2026-01-15 16:49:48.42	4.23	18.27	-37.5	-38.4	23.1	0.00e+00	0	27	0	379584512	48	6004
2026-01-15 16:49:49.43	4.06	18.36	-37.7	-38.7	23.0	0.00e+00	91	27	0	381681664	48	6176
2026-01-15 16:49:50.43	3.90	18.44	-37.7	-38.7	22.9	0.00e+00	6	28	0	383778816	48	6210
2026-01-15 16:49:51.44	3.72	18.53	-37.6	-38.6	23.0	0.00e+00	92	27	0	384827392	48	6145
2026-01-15 16:49:52.45	3.55	18.62	-37.5	-38.4	23.1	0.00e+00	0	28	0	386924544	48	6022
2026-01-15 16:49:53.46	3.38	18.70	-37.6	-38.5	23.0	0.00e+00	5	27	0	389021696	48	6100
2026-01-15 16:49:54.47	3.20	18.79	-37.5	-38.5	23.1	0.00e+00	0	27	0	391118848	48	6061
2026-01-15 16:49:55.48	3.03	18.87	-37.5	-38.5	23.0	0.00e+00	0	27	0	393216000	48	6073
2026-01-15 16:49:56.49	2.85	18.96	-37.6	-38.6	23.0	0.00e+00	37	27	0	394264576	48	6119
2026-01-15 16:49:57.50	2.67	19.05	-37.6	-38.6	23.0	0.00e+00	0	27	0	396361728	48	6117
2026-01-15 16:49:58.51	2.49	19.13	-37.7	-38.6	23.0	0.00e+00	92	27	0	398458880	48	6159
2026-01-15 16:49:59.52	2.31	19.22	-37.8	-38.8	22.8	0.00e+00	62	27	0	400556032	48	6250
2026-01-15 16:50:00.53	2.13	19.31	-37.7	-38.7	23.0	0.00e+00	59	27	0	402653184	48	6234
2026-01-15 16:50:01.54	1.95	19.39	-37.9	-38.9	22.7	0.00e+00	5	27	0	403701760	48	6325
2026-01-15 16:50:02.55	1.77	19.48	-37.9	-38.9	22.8	0.00e+00	31	27	0	405798912	48	6347
2026-01-15 16:50:03.56	1.58	19.57	-38.0	-39.0	22.7	0.00e+00	25	28	0	407896064	48	6412
2026-01-15 16:50:04.57	1.40	19.65	-38.0	-39.0	22.6	0.00e+00	7	27	0	409993216	48	6461
2026-01-15 16:50:05.58	1.21	19.74	-38.1	-39.1	22.6	0.00e+00	92	27	0	412090368	48	6473
2026-01-15 16:50:06.59	1.03	19.82	-38.0	-39.0	22.6	0.00e+00	7	27	0	414187520	48	6419
2026-01-15 16:50:07.59	0.84	19.91	-38.0	-39.0	22.7	0.00e+00	92	27	0	415236096	48	6393
2026-01-15 16:50:08.60	0.65	20.00	-38.0	-39.0	22.7	0.00e+00	61	27	0	417333248	48	6396
2026-01-15 16:50:09.61	0.46	20.08	-37.9	-38.9	22.6	0.00e+00	7	27	0	419430400	48	6381
2026-01-15 16:50:10.62	0.27	20.17	-37.9	-38.9	22.8	0.00e+00	4	27	0	421527552	48	6351
2026-01-15 16:50:11.63	0.08	20.25	-38.0	-39.0	22.7	0.00e+00	0	27	0	423624704	48	6403
2026-01-15 16:50:12.64	359.88	20.34	-37.9	-38.9	22.8	0.00e+00	91	28	0	424673280	48	6328
2026-01-15 16:50:13.65	359.69	20.43	-37.9	-38.8	22.8	0.00e+00	6	28	0	426770432	48	6311
2026-01-15 16:50:14.66	359.49	20.51	-37.7	-38.7	22.9	0.00e+00	92	28	0	428867584	48	6221
2026-01-15 16:50:15.67	359.29	20.60	-37.7	-38.7	22.9	0.00e+00	0	27	0	430964736	48	6222
2026-01-15 16:50:16.68	359.10	20.68	-37.7	-38.7	23.0	0.00e+00	42	27	0	433061888	48	6195
2026-01-15 16:50:17.69	358.90	20.77	-37.6	-38.6	22.9	0.00e+00	0	27	0	434110464	48	6138
2026-01-15 16:50:18.70	358.70	20.86	-37.6	-38.5	23.1	0.00e+00	33	27	0	436207616	48	6093
2026-01-15 16:50:19.70	358.50	20.94	-37.7	-38.6	23.0	0.00e+00	36	27	0	438304768	48	6173
2026-01-15 16:50:20.72	358.29	21.03	-37.7	-38.7	22.9	0.00e+00	49	27	0	440401920	48	6208
2026-01-15 16:50:21.73	358.09	21.11	-37.7	-38.7	22.9	0.00e+00	92	27	0	442499072	48	6227
2026-01-15 16:50:22.74	357.88	21.20	-37.8	-38.8	22.8	0.00e+00	32	27	0	443547648	48	6279
2026-01-15 16:50:23.74	357.68	21.28	-37.7	-38.7	22.9	0.00e+00	92	27	0	445644800	48	6236
2026-01-15 16:50:24.75	357.47	21.37	-37.6	-38.5	22.8	0.00e+00	53	27	0	447741952	48	6093
2026-01-15 16:50:25.76	357.26	21.45	-37.4	-38.4	23.2	0.00e+00	56	27	0	449839104	48	5999
2026-01-15 16:50:26.77	357.05	21.54	-37.4	-38.4	23.2	0.00e+00	0	27	0	451936256	48	6012
2026-01-15 16:50:27.78	356.84	21.62	-37.5	-38.5	23.1	0.00e+00	0	27	0	452984832	48	6061
2026-01-15 16:50:28.79	356.63	21.71	-37.4	-38.3	23.3	0.00e+00	91	27	0	455081984	48	5948
2026-01-15 16:50:29.80	356.42	21.79	-37.3	-38.2	23.4	0.00e+00	0	27	0	457179136	48	5868
2026-01-15 16:50:30.81	356.20	21.88	-37.2	-38.2	23.4	0.00e+00	92	27	0	459276288	48	5832
2026-01-15 16:50:31.82	355.99	21.96	-37.2	-38.1	23.5	0.00e+00	0	27	0	461373440	48	5776
2026-01-15 16:50:32.83	355.77	22.04	-37.2	-38.1	23.5	0.00e+00	0	27	0	462422016	48	5784
2026-01-15 16:50:33.83	355.56	22.13	-37.2	-38.1	23.5	0.00e+00	0	27	0	464519168	48	5800
2026-01-15 16:50:34.84	355.34	22.21	-37.1	-38.0	23.6	0.00e+00	0	27	0	466616320	48	5745
2026-01-15 16:50:35.85	355.12	22.29	-37.0	-37.9	23.7	0.00e+00	92	28	0	468713472	48	5633
2026-01-15 16:50:36.86	354.90	22.38	-36.9	-37.8	23.7	0.00e+00	0	28	0	470810624	48	5614
2026-01-15 16:50:37.87	354.67	22.46	-37.0	-38.0	23.8	0.00e+00	92	27	0	471859200	48	5697
2026-01-15 16:50:38.88	354.45	22.54	-36.6	-37.5	24.1	0.00e+00	0	27	0	473956352	46	6066
2026-01-15 16:50:39.89	354.22	22.63	-36.6	-37.5	24.0	0.00e+00	52	27	0	476053504	46	6035
2026-01-15 16:50:40.90	354.00	22.71	-36.6	-37.5	24.0	0.00e+00	0	27	0	478150656	46	6067
2026-01-15 16:50:41.91	353.77	22.79	-36.5	-37.4	24.2	0.00e+00	0	27	0	480247808	46	6018
2026-01-15 16:50:42.92	353.54	22.87	-36.7	-37.5	24.0	0.00e+00	0	28	0	482344960	46	6103
2026-01-15 16:50:43.93	353.31	22.96	-36.6	-37.5	24.1	0.00e+00	49	27	0	483393536	46	6053
2026-01-15 16:50:44.94	353.08	23.04	-36.7	-37.5	24.0	0.00e+00	91	28	0	485490688	46	6098
2026-01-15 16:50:45.94	352.85	23.12	-36.7	-37.6	24.1	0.00e+00	33	28	0	487587840	46	6139
2026-01-15 16:50:46.95	352.62	23.20	-36.4	-37.3	24.2	0.00e+00	92	28	0	489684992	46	5928
2026-01-15 16:50:47.96	352.38	23.28	-36.5	-37.3	24.3	0.00e+00	0	28	0	491782144	46	5961
2026-01-15 16:50:48.98	352.14	23.36	-36.3	-37.2	24.5	0.00e+00	53	27	0	492830720	46	5852
2026-01-15 16:50:49.98	351.91	23.44	-36.4	-37.3	24.3	0.00e+00	0	28	0	494927872	46	5930
2026-01-15 16:50:50.99	351.67	23.52	-36.4	-37.3	24.2	0.00e+00	0	28	0	497025024	46	5908
2026-01-15 16:50:52.00	351.43	23.60	-36.3	-37.2	24.4	0.00e+00	92	27	0	499122176	46	5838
2026-01-15 16:50:53.01	351.19	23.68	-36.4	-37.3	24.4	0.00e+00	0	28	0	501219328	46	5920
2026-01-15 16:50:54.02	350.95	23.76	-36.4	-37.3	24.3	0.00e+00	92	27	0	502267904	46	5915
2026-01-15 16:50:55.03	350.70	23.84	-36.3	-37.1	24.4	0.00e+00	0	27	0	504365056	46	5815
2026-01-15 16:50:56.04	350.46	23.92	-36.2	-37.1	24.5	0.00e+00	0	27	0	506462208	46	5786
2026-01-15 16:50:57.04	350.21	23.99	-36.2	-37.0	24.5	0.00e+00	0	27	0	508559360	46	5761
2026-01-15 16:50:58.05	349.97	24.07	-36.3	-37.1	24.5	0.00e+00	0	27	0	510656512	46	5789
2026-01-15 16:50:59.06	349.72	24.15	-36.3	-37.2	24.4	0.00e+00	92	27	0	511705088	46	5837
2026-01-15 16:51:00.07	349.47	24.22	-36.6	-37.4	24.0	0.00e+00	33	27	0	513802240	46	6023
2026-01-15 16:51:01.09	349.22	24.30	-36.5	-37.4	24.2	0.00e+00	90	27	0	515899392	46	6004
2026-01-15 16:51:02.09	348.97	24.38	-36.7	-37.5	24.1	0.00e+00	0	27	0	517996544	46	6078
2026-01-15 16:51:03.10	348.71	24.45	-36.5	-37.4	24.2	0.00e+00	72	27	0	520093696	46	6003
2026-01-15 16:51:04.11	348.46	24.53	-36.5	-37.4	24.2	0.00e+00	28	27	0	521142272	46	6002
2026-01-15 16:51:05.12	348.20	24.60	-36.5	-37.3	24.3	0.00e+00	54	27	0	523239424	46	5944
2026-01-15 16:51:06.13	347.95	24.68	-36.6	-37.4	24.1	0.00e+00	4	28	0	525336576	46	6011
2026-01-15 16:51:07.14	347.69	24.75	-36.6	-37.5	24.1	0.00e+00	0	27	0	527433728	46	6059
2026-01-15 16:51:08.16	347.43	24.83	-36.4	-37.3	24.2	0.00e+00	92	28	0	529530880	46	5914
2026-01-15 16:51:09.17	347.16	24.90	-36.6	-37.5	24.1	0.00e+00	0	27	0	530579456	46	6063
2026-01-15 16:51:10.18	346.90	24.97	-36.5	-37.4	24.1	0.00e+00	90	27	0	532676608	46	6014
2026-01-15 16:51:11.18	346.64	25.05	-36.6	-37.5	24.1	0.00e+00	2	27	0	534773760	46	6070
2026-01-15 16:51:12.19	346.38	25.12	-36.6	-37.5	24.1	0.00e+00	53	27	0	536870912	46	6067
2026-01-15 16:51:13.20	346.11	25.19	-36.4	-37.3	24.1	7.00e-07	0	28	0	538968064	46	5913
2026-01-15 16:51:14.21	345.84	25.26	-36.5	-37.4	24.2	0.00e+00	0	27	0	540016640	46	5973
2026-01-15 16:51:15.22	345.58	25.33	-36.6	-37.5	24.1	0.00e+00	90	27	0	542113792	46	6035
2026-01-15 16:51:16.23	345.31	25.40	-36.7	-37.6	24.0	0.00e+00	0	27	0	544210944	46	6167
2026-01-15 16:51:17.24	345.04	25.47	-36.9	-37.8	23.8	0.00e+00	92	27	0	546308096	46	6313
2026-01-15 16:51:18.25	344.77	25.54	-36.9	-37.9	23.8	0.00e+00	0	27	0	548405248	46	6322
2026-01-15 16:51:19.26	344.49	25.61	-36.9	-37.8	23.8	0.00e+00	24	27	0	550502400	46	6259
2026-01-15 16:51:20.27	344.22	25.68	-37.0	-37.9	23.7	0.00e+00	17	28	0	551550976	46	6359
2026-01-15 16:51:21.28	343.94	25.74	-36.9	-37.8	23.8	0.00e+00	25	27	0	553648128	46	6276
2026-01-15 16:51:22.29	343.67	25.81	-36.9	-37.8	23.8	0.00e+00	30	27	0	555745280	46	6258
2026-01-15 16:51:23.30	343.39	25.88	-36.9	-37.8	23.6	0.00e+00	0	27	0	557842432	46	6259
2026-01-15 16:51:24.31	343.11	25.94	-36.7	-37.6	23.9	0.00e+00	92	28	0	558891008	46	6147
2026-01-15 16:51:25.32	342.83	26.01	-36.7	-37.6	24.0	0.00e+00	50	28	0	560988160	46	6149
2026-01-15 16:51:26.33	342.55	26.07	-36.6	-37.5	24.1	0.00e+00	31	28	0	563085312	46	6071
2026-01-15 16:51:27.34	342.27	26.14	-36.6	-37.5	24.2	0.00e+00	55	28	0	565182464	46	6044
2026-01-15 16:51:28.35	341.98	26.20	-36.6	-37.4	24.2	0.00e+00	27	28	0	567279616	46	6022
2026-01-15 16:51:29.36	341.70	26.26	-36.5	-37.4	24.2	0.00e+00	82	27	0	569376768	46	6003
2026-01-15 16:51:30.37	341.41	26.32	-36.7	-37.6	24.0	0.00e+00	0	27	0	570425344	46	6148
2026-01-15 16:51:31.38	341.13	26.38	-36.6	-37.5	24.0	0.00e+00	92	27	0	572522496	46	6081
2026-01-15 16:51:32.39	340.84	26.44	-36.8	-37.7	23.7	0.00e+00	49	28	0	574619648	46	6209
2026-01-15 16:51:33.40	340.55	26.50	-36.9	-37.9	23.8	0.00e+00	92	28	0	576716800	46	6328
2026-01-15 16:51:34.41	340.26	26.56	-37.0	-37.9	23.7	0.00e+00	8	27	0	578813952	46	6357
2026-01-15 16:51:35.42	339.97	26.62	-37.0	-37.9	23.7	0.00e+00	0	28	0	579862528	46	6355
2026-01-15 16:51:36.43	339.67	26.68	-37.0	-38.0	23.8	0.00e+00	6	27	0	581959680	46	6396
2026-01-15 16:51:37.43	339.38	26.74	-36.9	-37.8	23.8	0.00e+00	0	28	0	584056832	46	6304
2026-01-15 16:51:38.45	339.09	26.79	-36.8	-37.7	23.9	0.00e+00	92	27	0	586153984	46	6227
2026-01-15 16:51:39.46	338.79	26.85	-36.8	-37.8	23.9	0.00e+00	5	28	0	588251136	46	6267
2026-01-15 16:51:40.47	338.50	26.91	-36.8	-37.7	23.9	0.00e+00	92	28	0	589299712	46	6240
2026-01-15 16:51:41.48	338.20	26.96	-36.8	-37.7	23.9	0.00e+00	0	28	0	591396864	46	6224
2026-01-15 16:51:42.48	337.90	27.01	-36.8	-37.7	23.8	0.00e+00	0	27	0	593494016	46	6245
2026-01-15 16:51:43.49	337.60	27.07	-36.8	-37.7	23.9	0.00e+00	30	27	0	595591168	46	6213
2026-01-15 16:51:44.50	337.30	27.12	-36.8	-37.8	23.8	0.00e+00	0	27	0	597688320	46	6269
2026-01-15 16:51:45.51	337.00	27.17	-36.8	-37.7	23.9	0.00e+00	92	27	0	598736896	46	6231
2026-01-15 16:51:46.52	336.70	27.22	-37.0	-37.9	23.8	0.00e+00	55	27	0	600834048	46	6339
2026-01-15 16:51:47.53	336.39	27.27	-36.8	-37.8	23.9	0.00e+00	92	28	0	602931200	46	6253
2026-01-15 16:51:48.54	336.09	27.32	-37.0	-37.9	23.8	0.00e+00	53	27	0	605028352	46	6347
2026-01-15 16:51:49.55	335.78	27.37	-37.1	-38.0	23.7	0.00e+00	54	27	0	607125504	46	6444
2026-01-15 16:51:50.56	335.48	27.41	-37.0	-38.0	23.7	0.00e+00	32	27	0	608174080	46	6392
2026-01-15 16:51:51.57	335.17	27.46	-37.3	-38.2	23.1	0.00e+00	7	28	0	610271232	46	6576
2026-01-15 16:51:52.58	334.86	27.51	-37.3	-38.3	23.4	0.00e+00	91	27	0	612368384	46	6619
2026-01-15 16:51:53.59	334.55	27.55	-37.5	-38.5	23.2	0.00e+00	8	28	0	614465536	46	6792
2026-01-15 16:51:54.60	334.24	27.59	-37.6	-38.6	23.1	0.00e+00	90	28	0	616562688	46	6904
2026-01-15 16:51:55.61	333.93	27.64	-37.6	-38.5	23.2	0.00e+00	7	28	0	617611264	46	6843
2026-01-15 16:51:56.61	333.62	27.68	-37.5	-38.4	23.3	0.00e+00	92	27	0	619708416	46	6756
2026-01-15 16:51:57.62	333.31	27.72	-37.7	-38.7	23.1	0.00e+00	0	27	0	621805568	46	6950
2026-01-15 16:51:58.63	333.00	27.76	-37.8	-38.7	23.1	0.00e+00	0	27	0	623902720	48	6244
2026-01-15 16:51:59.64	332.68	27.80	-37.6	-38.6	23.1	0.00e+00	0	28	0	625999872	48	6136
2026-01-15 16:52:00.65	332.37	27.84	-37.8	-38.8	22.7	0.00e+00	0	28	0	627048448	48	6299
2026-01-15 16:52:01.66	332.05	27.88	-38.0	-39.0	22.9	0.00e+00	92	27	0	629145600	48	6406
2026-01-15 16:52:02.67	331.74	27.91	-37.9	-38.9	22.9	0.00e+00	33	28	0	631242752	48	6368
2026-01-15 16:52:03.68	331.42	27.95	-37.9	-38.8	22.9	0.00e+00	92	27	0	633339904	48	6316
2026-01-15 16:52:04.69	331.10	27.98	-37.9	-38.9	22.9	0.00e+00	32	27	0	635437056	48	6347
2026-01-15 16:52:05.70	330.78	28.02	-37.8	-38.8	22.9	0.00e+00	0	27	0	636485632	48	6300
2026-01-15 16:52:06.71	330.47	28.05	-37.8	-38.7	22.9	0.00e+00	0	27	0	638582784	48	6239
2026-01-15 16:52:07.71	330.15	28.08	-38.0	-39.0	22.8	0.00e+00	48	27	0	640679936	48	6448
2026-01-15 16:52:08.73	329.83	28.11	-38.0	-39.0	22.9	0.00e+00	89	27	0	642777088	48	6418
2026-01-15 16:52:09.73	329.51	28.14	-37.9	-38.9	22.8	0.00e+00	32	27	0	644874240	48	6367
2026-01-15 16:52:10.74	329.19	28.17	-38.0	-39.0	22.7	0.00e+00	92	27	0	646971392	48	6420
2026-01-15 16:52:11.75	328.86	28.20	-37.9	-38.8	22.9	0.00e+00	32	27	0	648019968	48	6313
2026-01-15 16:52:12.76	328.54	28.23	-37.9	-38.8	23.0	0.00e+00	66	27	0	650117120	48	6299
2026-01-15 16:52:13.77	328.22	28.25	-37.9	-38.8	23.0	0.00e+00	47	27	0	652214272	48	6304
2026-01-15 16:52:14.78	327.89	28.28	-38.0	-39.0	22.8	0.00e+00	2	27	0	654311424	48	6414
2026-01-15 16:52:15.79	327.57	28.30	-38.2	-39.2	22.6	0.00e+00	68	27	0	656408576	48	6565
2026-01-15 16:52:16.80	327.24	28.33	-38.2	-39.2	22.6	0.00e+00	0	27	0	657457152	48	6543
2026-01-15 16:52:17.81	326.92	28.35	-38.3	-39.3	22.5	0.00e+00	92	27	0	659554304	48	6634
2026-01-15 16:52:18.82	326.59	28.37	-38.2	-39.2	22.7	0.00e+00	0	27	0	661651456	48	6556
2026-01-15 16:52:19.83	326.27	28.39	-38.2	-39.2	22.6	0.00e+00	92	27	0	663748608	48	6592
2026-01-15 16:52:20.84	325.94	28.41	-38.5	-39.5	22.4	0.00e+00	0	27	0	665845760	48	6844
2026-01-15 16:52:21.85	325.61	28.43	-38.5	-39.5	22.3	0.00e+00	0	27	0	666894336	48	6820
2026-01-15 16:52:22.86	325.29	28.44	-38.6	-39.7	22.2	0.00e+00	0	28	0	668991488	48	6960
2026-01-15 16:52:23.87	324.96	28.46	-38.6	-39.7	22.1	0.00e+00	32	27	0	671088640	48	6944
2026-01-15 16:52:24.88	324.63	28.48	-38.7	-39.7	22.1	0.00e+00	90	27	0	673185792	50	6243
2026-01-15 16:52:25.89	324.30	28.49	-38.9	-40.0	21.8	0.00e+00	28	27	0	675282944	50	6446
2026-01-15 16:52:26.90	323.97	28.50	-39.0	-40.1	22.0	0.00e+00	90	28	0	676331520	50	6483
2026-01-15 16:52:27.91	323.64	28.51	-38.9	-40.0	21.8	0.00e+00	28	28	0	678428672	50	6425
2026-01-15 16:52:28.92	323.32	28.52	-39.0	-40.1	21.9	0.00e+00	55	28	0	680525824	50	6466
2026-01-15 16:52:29.93	322.99	28.53	-38.6	-39.7	22.3	0.00e+00	27	27	0	682622976	50	6203
2026-01-15 16:52:30.94	322.66	28.54	-38.6	-39.6	22.3	0.00e+00	27	27	0	684720128	50	6156
2026-01-15 16:52:31.94	322.33	28.55	-38.7	-39.8	22.1	0.00e+00	92	28	0	685768704	50	6274
2026-01-15 16:52:32.95	322.00	28.56	-39.0	-40.1	21.9	0.00e+00	56	27	0	687865856	50	6484
2026-01-15 16:52:33.96	321.67	28.56	-38.7	-39.8	22.1	0.00e+00	92	27	0	689963008	50	6256
2026-01-15 16:52:34.97	321.34	28.57	-38.8	-39.9	22.0	0.00e+00	0	28	0	692060160	50	6355
2026-01-15 16:52:35.98	321.01	28.57	-38.6	-39.6	22.4	0.00e+00	92	28	0	694157312	50	6153
2026-01-15 16:52:36.99	320.68	28.57	-38.4	-39.4	22.5	0.00e+00	0	28	0	695205888	50	6009
2026-01-15 16:52:38.00	320.35	28.57	-38.5	-39.5	22.4	0.00e+00	0	28	0	697303040	50	6063
2026-01-15 16:52:39.01	320.02	28.57	-38.4	-39.4	22.5	0.00e+00	0	27	0	699400192	50	5983
2026-01-15 16:52:40.02	319.69	28.57	-38.2	-39.2	22.7	0.00e+00	0	28	0	701497344	50	5872
2026-01-15 16:52:41.03	319.36	28.57	-38.2	-39.2	22.7	0.00e+00	92	28	0	703594496	50	5841
2026-01-15 16:52:42.04	319.03	28.57	-38.2	-39.2	22.6	0.00e+00	0	28	0	704643072	50	5846
2026-01-15 16:52:43.05	318.70	28.57	-38.4	-39.4	21.8	0.00e+00	52	28	0	706740224	50	6033
2026-01-15 16:52:44.06	318.37	28.56	-38.2	-39.2	22.6	0.00e+00	0	28	0	708837376	50	5847
2026-01-15 16:52:45.07	318.04	28.55	-38.1	-39.1	22.7	0.00e+00	33	28	0	710934528	50	5808
2026-01-15 16:52:46.08	317.71	28.55	-38.3	-39.2	22.7	0.00e+00	0	28	0	713031680	50	5894
2026-01-15 16:52:47.09	317.38	28.54	-38.4	-39.4	22.5	0.00e+00	32	28	0	715128832	50	6004
2026-01-15 16:52:48.10	317.05	28.53	-38.3	-39.3	22.6	0.00e+00	92	28	0	716177408	50	5903
2026-01-15 16:52:49.11	316.72	28.52	-38.3	-39.3	22.6	0.00e+00	28	28	0	718274560	50	5920
2026-01-15 16:52:50.12	316.39	28.51	-38.1	-39.1	22.8	0.00e+00	92	28	0	720371712	50	5796
2026-01-15 16:52:51.13	316.06	28.50	-38.2	-39.1	22.8	0.00e+00	0	27	0	722468864	50	5828
2026-01-15 16:52:52.13	315.74	28.48	-37.8	-38.8	23.1	0.00e+00	32	28	0	724566016	50	5583
2026-01-15 16:52:53.14	315.41	28.47	-37.8	-38.8	23.1	0.00e+00	49	28	0	725614592	50	5603
2026-01-15 16:52:54.15	315.08	28.45	-37.9	-38.9	23.0	0.00e+00	49	27	0	727711744	50	5669
2026-01-15 16:52:55.16	314.75	28.44	-37.9	-38.9	22.9	0.00e+00	16	27	0	729808896	50	5651
2026-01-15 16:52:56.17	314.43	28.42	-37.9	-38.9	23.0	0.00e+00	55	28	0	731906048	50	5637
2026-01-15 16:52:57.18	314.10	28.40	-37.7	-38.6	23.2	0.00e+00	90	28	0	734003200	48	6138
2026-01-15 16:52:58.19	313.77	28.38	-37.4	-38.3	23.5	0.00e+00	2	27	0	735051776	48	5927
2026-01-15 16:52:59.20	313.45	28.36	-37.5	-38.4	23.4	0.00e+00	0	27	0	737148928	48	6001
2026-01-15 16:53:00.21	313.12	28.34	-37.4	-38.3	23.3	0.00e+00	0	27	0	739246080	48	5944
2026-01-15 16:53:01.22	312.80	28.31	-37.4	-38.3	23.5	0.00e+00	2	27	0	741343232	48	5916
2026-01-15 16:53:02.23	312.47	28.29	-37.2	-38.1	23.6	0.00e+00	0	28	0	743440384	48	5790
2026-01-15 16:53:03.24	312.15	28.27	-37.3	-38.2	23.5	0.00e+00	0	28	0	744488960	48	5848
2026-01-15 16:53:04.25	311.82	28.24	-37.1	-38.0	23.7	0.00e+00	92	27	0	746586112	48	5722
2026-01-15 16:53:05.26	311.50	28.21	-37.1	-38.0	23.7	0.00e+00	0	28	0	748683264	48	5756
2026-01-15 16:53:06.27	311.18	28.19	-36.9	-37.8	23.9	0.00e+00	2	27	0	750780416	48	5603
2026-01-15 16:53:07.28	310.86	28.16	-36.9	-37.7	24.0	0.00e+00	0	27	0	752877568	48	5546
2026-01-15 16:53:08.29	310.53	28.13	-36.7	-37.5	24.1	0.00e+00	0	27	0	753926144	46	6102
2026-01-15 16:53:09.29	310.22	28.10	-36.6	-37.4	24.2	0.00e+00	5	28	0	756023296	46	6033
2026-01-15 16:53:10.30	309.90	28.06	-36.7	-37.5	24.1	0.00e+00	0	28	0	758120448	46	6095
2026-01-15 16:53:11.31	309.58	28.03	-36.8	-37.6	24.1	0.00e+00	92	27	0	760217600	46	6157
2026-01-15 16:53:12.32	309.26	28.00	-36.7	-37.5	24.2	0.00e+00	53	28	0	762314752	46	6091
2026-01-15 16:53:13.33	308.94	27.96	-36.7	-37.5	24.1	0.00e+00	92	28	0	763363328	46	6086
2026-01-15 16:53:14.34	308.62	27.93	-36.7	-37.6	24.1	0.00e+00	2	27	0	765460480	46	6139
2026-01-15 16:53:15.35	308.30	27.89	-36.7	-37.6	24.1	0.00e+00	0	27	0	767557632	46	6129
2026-01-15 16:53:16.36	307.99	27.86	-36.8	-37.6	24.0	0.00e+00	51	27	0	769654784	46	6139
2026-01-15 16:53:17.37	307.67	27.82	-36.9	-37.7	23.6	0.00e+00	6	27	0	771751936	46	6239
2026-01-15 16:53:18.38	307.36	27.78	-36.7	-37.6	24.0	0.00e+00	0	27	0	772800512	46	6114
2026-01-15 16:53:19.39	307.04	27.74	-36.9	-37.8	23.9	0.00e+00	5	27	0	774897664	46	6248
2026-01-15 16:53:20.40	306.73	27.70	-36.8	-37.7	24.0	0.00e+00	92	27	0	776994816	46	6201
2026-01-15 16:53:21.41	306.42	27.66	-36.6	-37.5	24.2	0.00e+00	6	27	0	779091968	46	6044
2026-01-15 16:53:22.42	306.11	27.61	-36.8	-37.6	24.1	0.00e+00	7	28	0	781189120	46	6167
2026-01-15 16:53:23.43	305.80	27.57	-36.9	-37.8	23.9	0.00e+00	0	28	0	783286272	46	6289
2026-01-15 16:53:24.44	305.49	27.52	-37.1	-38.0	23.8	0.00e+00	0	28	0	784334848	46	6413
2026-01-15 16:53:25.45	305.18	27.48	-37.0	-37.9	23.8	0.00e+00	5	28	0	786432000	46	6348
2026-01-15 16:53:26.46	304.87	27.43	-37.1	-37.9	23.7	0.00e+00	0	27	0	788529152	46	6377
2026-01-15 16:53:27.47	304.56	27.39	-37.3	-38.2	23.6	0.00e+00	92	28	0	790626304	46	6543
2026-01-15 16:53:28.47	304.26	27.34	-37.4	-38.3	23.4	0.00e+00	0	28	0	792723456	46	6688
2026-01-15 16:53:29.48	303.95	27.29	-37.6	-38.6	23.2	0.00e+00	92	27	0	793772032	46	6871
2026-01-15 16:53:30.50	303.65	27.24	-37.6	-38.5	23.2	0.00e+00	26	27	0	795869184	46	6845
2026-01-15 16:53:31.51	303.34	27.19	-37.7	-38.6	23.2	0.00e+00	30	28	0	797966336	48	6141
2026-01-15 16:53:32.51	303.04	27.14	-37.6	-38.6	23.2	0.00e+00	70	27	0	800063488	48	6120
2026-01-15 16:53:33.52	302.74	27.09	-37.7	-38.6	23.2	0.00e+00	60	28	0	802160640	48	6161
2026-01-15 16:53:34.53	302.44	27.04	-37.7	-38.6	23.1	0.00e+00	82	27	0	803209216	48	6159
2026-01-15 16:53:35.54	302.14	26.98	-37.7	-38.7	23.1	0.00e+00	58	27	0	805306368	48	6193
2026-01-15 16:53:36.55	301.84	26.93	-37.8	-38.8	23.0	0.00e+00	92	27	0	807403520	48	6255
2026-01-15 16:53:37.56	301.55	26.87	-38.0	-39.0	22.9	0.00e+00	0	27	0	809500672	48	6394
2026-01-15 16:53:38.57	301.25	26.82	-38.1	-39.1	22.7	0.00e+00	58	27	0	811597824	48	6512
2026-01-15 16:53:39.57	300.96	26.76	-38.1	-39.1	22.7	0.00e+00	7	27	0	812646400	48	6491
2026-01-15 16:53:40.58	300.66	26.71	-38.2	-39.2	22.6	0.00e+00	6	27	0	814743552	48	6588
2026-01-15 16:53:41.59	300.37	26.65	-38.2	-39.2	22.6	0.00e+00	8	27	0	816840704	48	6567
2026-01-15 16:53:42.60	300.08	26.59	-38.3	-39.3	22.6	0.00e+00	55	28	0	818937856	48	6623
2026-01-15 16:53:43.61	299.79	26.53	-38.3	-39.3	22.6	0.00e+00	92	27	0	821035008	48	6681
2026-01-15 16:53:44.62	299.50	26.47	-38.2	-39.2	22.5	0.00e+00	6	27	0	822083584	48	6569
2026-01-15 16:53:45.63	299.21	26.41	-38.2	-39.2	22.6	0.00e+00	17	28	0	824180736	48	6567
2026-01-15 16:53:46.64	298.92	26.35	-38.4	-39.4	22.4	0.00e+00	6	28	0	826277888	48	6761
2026-01-15 16:53:47.65	298.63	26.29	-38.3	-39.4	22.4	0.00e+00	0	27	0	828375040	48	6697
2026-01-15 16:53:48.66	298.35	26.22	-38.3	-39.3	22.5	0.00e+00	2	28	0	830472192	48	6677
2026-01-15 16:53:49.67	298.06	26.16	-38.4	-39.5	22.4	0.00e+00	0	27	0	831520768	48	6779
2026-01-15 16:53:50.68	297.78	26.10	-38.5	-39.5	22.3	0.00e+00	89	28	0	833617920	48	6842
2026-01-15 16:53:51.69	297.50	26.03	-38.6	-39.6	22.3	0.00e+00	31	28	0	835715072	48	6899
2026-01-15 16:53:52.69	297.22	25.97	-38.7	-39.7	22.1	0.00e+00	90	28	0	837812224	48	7003
2026-01-15 16:53:53.70	296.94	25.90	-38.7	-39.7	22.2	0.00e+00	31	28	0	839909376	48	6976
2026-01-15 16:53:54.71	296.66	25.84	-38.7	-39.7	21.9	0.00e+00	30	27	0	840957952	50	6205
2026-01-15 16:53:55.72	296.38	25.77	-38.3	-39.3	22.5	0.00e+00	55	27	0	843055104	50	5948
2026-01-15 16:53:56.73	296.11	25.70	-38.4	-39.4	22.3	0.00e+00	56	27	0	845152256	50	6033
2026-01-15 16:53:57.74	295.83	25.64	-38.4	-39.4	22.5	0.00e+00	92	27	0	847249408	50	5978
2026-01-15 16:53:58.75	295.56	25.57	-38.4	-39.4	22.5	0.00e+00	56	27	0	849346560	50	5970
2026-01-15 16:53:59.76	295.28	25.50	-38.4	-39.4	22.5	0.00e+00	92	27	0	850395136	50	6009
2026-01-15 16:54:00.77	295.01	25.43	-38.3	-39.3	22.5	0.00e+00	55	28	0	852492288	50	5957
2026-01-15 16:54:01.77	294.74	25.36	-38.3	-39.3	22.6	0.00e+00	0	28	0	854589440	50	5946
2026-01-15 16:54:02.78	294.47	25.29	-38.4	-39.4	22.5	0.00e+00	54	28	0	856686592	50	5996
2026-01-15 16:54:03.80	294.20	25.22	-38.2	-39.2	22.6	0.00e+00	0	28	0	858783744	50	5872
2026-01-15 16:54:04.80	293.94	25.15	-38.3	-39.3	22.6	0.00e+00	72	28	0	859832320	50	5922
2026-01-15 16:54:05.81	293.67	25.08	-38.2	-39.2	22.7	0.00e+00	0	27	0	861929472	50	5837
2026-01-15 16:54:06.82	293.41	25.00	-38.1	-39.1	22.8	0.00e+00	92	28	0	864026624	50	5786
2026-01-15 16:54:07.83	293.15	24.93	-38.0	-39.0	22.9	0.00e+00	2	27	0	866123776	50	5718
2026-01-15 16:54:08.84	292.88	24.86	-38.0	-39.0	22.8	0.00e+00	91	28	0	868220928	50	5749
2026-01-15 16:54:09.85	292.62	24.78	-38.1	-39.1	22.7	0.00e+00	0	28	0	869269504	50	5806
2026-01-15 16:54:10.86	292.36	24.71	-38.0	-39.0	22.8	0.00e+00	0	28	0	871366656	50	5726
2026-01-15 16:54:11.87	292.11	24.63	-37.9	-38.8	22.9	0.00e+00	0	27	0	873463808	50	5625
2026-01-15 16:54:12.88	291.85	24.56	-37.9	-38.8	22.9	0.00e+00	30	28	0	875560960	50	5615
2026-01-15 16:54:13.89	291.59	24.48	-38.0	-38.9	22.9	0.00e+00	91	28	0	877658112	50	5683
2026-01-15 16:54:14.90	291.34	24.41	-37.8	-38.7	23.1	0.00e+00	0	27	0	879755264	50	5560
2026-01-15 16:54:15.90	291.09	24.33	-37.5	-38.4	23.3	0.00e+00	92	27	0	880803840	48	5993
2026-01-15 16:54:16.91	290.84	24.26	-37.5	-38.4	23.3	0.00e+00	31	28	0	882900992	48	6015
2026-01-15 16:54:17.93	290.58	24.18	-37.3	-38.2	23.5	0.00e+00	51	27	0	884998144	48	5890
2026-01-15 16:54:18.93	290.34	24.10	-37.3	-38.2	23.5	0.00e+00	5	28	0	887095296	48	5851
2026-01-15 16:54:19.94	290.09	24.02	-37.4	-38.3	23.4	0.00e+00	50	28	0	889192448	48	5961
2026-01-15 16:54:20.95	289.84	23.95	-37.4	-38.3	23.4	0.00e+00	31	27	0	890241024	48	5936
2026-01-15 16:54:21.96	289.59	23.87	-37.3	-38.2	23.5	0.00e+00	30	27	0	892338176	48	5884
2026-01-15 16:54:22.96	289.35	23.79	-37.2	-38.1	23.5	0.00e+00	90	28	0	894435328	48	5806
2026-01-15 16:54:23.97	289.11	23.71	-37.0	-37.9	23.7	0.00e+00	2	27	0	896532480	48	5688
2026-01-15 16:54:24.98	288.87	23.63	-37.0	-37.9	23.8	0.00e+00	92	27	0	898629632	48	5649
2026-01-15 16:54:25.99	288.62	23.55	-37.0	-37.8	23.8	0.00e+00	2	27	0	899678208	48	5627
2026-01-15 16:54:27.00	288.39	23.47	-36.9	-37.7	23.8	0.00e+00	2	27	0	901775360	48	5557
2026-01-15 16:54:28.01	288.15	23.39	-36.9	-37.7	23.8	0.00e+00	0	27	0	903872512	48	5551
2026-01-15 16:54:29.02	287.91	23.31	-36.8	-37.7	24.0	0.00e+00	0	27	0	905969664	48	5533
2026-01-15 16:54:30.02	287.68	23.23	-36.7	-37.5	24.1	0.00e+00	92	27	0	908066816	46	6099
2026-01-15 16:54:31.03	287.44	23.15	-36.7	-37.5	23.9	0.00e+00	0	27	0	909115392	46	6079
2026-01-15 16:54:32.04	287.21	23.07	-36.7	-37.5	24.0	0.00e+00	70	27	0	911212544	46	6087
2026-01-15 16:54:33.05	286.97	22.99	-36.5	-37.4	24.2	0.00e+00	0	27	0	913309696	46	5967
2026-01-15 16:54:34.05	286.75	22.90	-36.4	-37.3	24.2	0.00e+00	0	28	0	915406848	46	5914
2026-01-15 16:54:35.06	286.52	22.82	-36.2	-37.1	24.4	0.00e+00	0	27	0	917504000	46	5770
2026-01-15 16:54:36.07	286.29	22.74	-36.4	-37.2	24.3	0.00e+00	0	28	0	918552576	46	5891
2026-01-15 16:54:37.08	286.06	22.66	-36.3	-37.2	24.4	0.00e+00	92	27	0	920649728	46	5833
2026-01-15 16:54:38.09	285.83	22.57	-36.6	-37.4	24.1	0.00e+00	32	27	0	922746880	46	6003
2026-01-15 16:54:39.10	285.61	22.49	-36.6	-37.5	24.0	0.00e+00	92	27	0	924844032	46	6057
2026-01-15 16:54:40.11	285.38	22.41	-36.6	-37.4	24.0	0.00e+00	32	28	0	926941184	46	6012
2026-01-15 16:54:41.13	285.16	22.32	-36.4	-37.3	24.3	0.00e+00	52	27	0	927989760	46	5910
2026-01-15 16:54:42.13	284.94	22.24	-36.5	-37.3	24.2	0.00e+00	0	28	0	930086912	46	5928
2026-01-15 16:54:43.14	284.72	22.16	-36.3	-37.1	24.1	0.00e+00	0	28	0	932184064	46	5823
2026-01-15 16:54:44.16	284.50	22.07	-36.2	-37.1	24.5	0.00e+00	92	28	0	934281216	46	5780
2026-01-15 16:54:45.17	284.28	21.99	-36.2	-37.1	24.5	0.00e+00	0	27	0	936378368	46	5784
2026-01-15 16:54:46.17	284.07	21.91	-36.4	-37.2	24.4	0.00e+00	92	28	0	937426944	46	5881
2026-01-15 16:54:47.18	283.85	21.82	-36.3	-37.2	24.4	0.00e+00	51	28	0	939524096	46	5836
2026-01-15 16:54:48.19	283.64	21.74	-36.1	-36.9	24.7	0.00e+00	92	27	0	941621248	46	5660
2026-01-15 16:54:49.20	283.42	21.65	-35.9	-36.7	24.7	0.00e+00	0	27	0	943718400	46	5561
2026-01-15 16:54:50.21	283.21	21.57	-35.9	-36.7	24.8	0.00e+00	2	28	0	945815552	46	5532
2026-01-15 16:54:51.22	283.00	21.48	-36.0	-36.8	24.7	0.00e+00	12	27	0	947912704	46	5612
2026-01-15 16:54:52.23	282.79	21.40	-35.9	-36.7	24.8	0.00e+00	2	27	0	948961280	46	5556
2026-01-15 16:54:53.24	282.58	21.31	-35.9	-36.7	24.8	0.00e+00	91	27	0	951058432	46	5529
2026-01-15 16:54:54.25	282.38	21.23	-35.7	-36.5	24.9	0.00e+00	0	27	0	953155584	44	6068
2026-01-15 16:54:55.26	282.17	21.14	-35.8	-36.6	24.8	0.00e+00	91	27	0	955252736	44	6171
2026-01-15 16:54:56.27	281.96	21.05	-35.6	-36.4	24.9	0.00e+00	24	27	0	957349888	44	6023
2026-01-15 16:54:57.28	281.76	20.97	-35.6	-36.4	24.9	0.00e+00	22	28	0	958398464	44	5987
2026-01-15 16:54:58.29	281.56	20.88	-35.5	-36.3	25.0	0.00e+00	0	28	0	960495616	44	5936
2026-01-15 16:54:59.30	281.36	20.80	-35.6	-36.4	25.0	0.00e+00	0	28	0	962592768	44	5975
2026-01-15 16:55:00.31	281.16	20.71	-35.4	-36.2	25.1	0.00e+00	92	28	0	964689920	44	5864
2026-01-15 16:55:01.32	280.96	20.63	-35.3	-36.1	25.2	0.00e+00	22	27	0	966787072	44	5795
2026-01-15 16:55:02.33	280.76	20.54	-35.3	-36.0	25.3	0.00e+00	92	28	0	967835648	44	5754
2026-01-15 16:55:03.34	280.56	20.45	-35.3	-36.1	25.3	0.00e+00	60	27	0	969932800	44	5769
2026-01-15 16:55:04.35	280.36	20.37	-35.2	-36.0	25.4	7.00e-07	54	27	0	972029952	44	5699
2026-01-15 16:55:05.36	280.17	20.28	-35.2	-36.0	25.3	0.00e+00	28	28	0	974127104	44	5737
2026-01-15 16:55:06.37	279.98	20.19	-35.3	-36.1	25.3	0.00e+00	5	27	0	976224256	44	5765
2026-01-15 16:55:07.38	279.78	20.11	-35.2	-35.9	25.3	0.00e+00	54	27	0	977272832	44	5688
2026-01-15 16:55:08.39	279.59	20.02	-35.3	-36.1	25.2	0.00e+00	54	28	0	979369984	44	5777
2026-01-15 16:55:09.40	279.40	19.93	-35.4	-36.2	25.1	0.00e+00	92	27	0	981467136	44	5861
2026-01-15 16:55:10.41	279.21	19.85	-35.5	-36.3	25.1	0.00e+00	6	27	0	983564288	44	5903
2026-01-15 16:55:11.42	279.02	19.76	-35.4	-36.2	25.1	0.00e+00	36	27	0	985661440	44	5831
2026-01-15 16:55:12.43	278.84	19.67	-35.5	-36.3	25.0	0.00e+00	6	28	0	986710016	44	5943
2026-01-15 16:55:13.43	278.65	19.59	-35.4	-36.2	25.1	0.00e+00	0	28	0	988807168	44	5842
2026-01-15 16:55:14.44	278.47	19.50	-35.4	-36.2	25.1	0.00e+00	0	28	0	990904320	44	5887
2026-01-15 16:55:15.45	278.28	19.42	-35.5	-36.2	25.1	0.00e+00	0	28	0	993001472	44	5890
2026-01-15 16:55:16.46	278.10	19.33	-35.4	-36.2	25.1	0.00e+00	92	28	0	995098624	44	5839
2026-01-15 16:55:17.47	277.92	19.24	-35.4	-36.2	25.1	0.00e+00	0	28	0	996147200	44	5855
2026-01-15 16:55:18.48	277.74	19.16	-35.3	-36.1	25.2	0.00e+00	92	27	0	998244352	44	5812
2026-01-15 16:55:19.49	277.56	19.07	-35.5	-36.3	25.0	0.00e+00	26	27	0	1000341504	44	5903
2026-01-15 16:55:20.50	277.38	18.98	-35.4	-36.1	25.1	0.00e+00	0	27	0	1002438656	44	5828
2026-01-15 16:55:21.51	277.20	18.90	-35.4	-36.2	25.1	0.00e+00	5	27	0	1004535808	44	5873
2026-01-15 16:55:22.52	277.02	18.81	-35.4	-36.2	25.0	0.00e+00	28	28	0	1005584384	44	5868
2026-01-15 16:55:23.53	276.85	18.72	-35.5	-36.3	25.0	0.00e+00	90	27	0	1007681536	44	5926
2026-01-15 16:55:24.54	276.67	18.64	-35.5	-36.3	24.5	0.00e+00	27	28	0	1009778688	44	5900
2026-01-15 16:55:25.55	276.50	18.55	-35.6	-36.4	24.8	0.00e+00	90	28	0	1011875840	44	6028
2026-01-15 16:55:26.56	276.33	18.46	-35.7	-36.5	24.7	0.00e+00	8	28	0	1013972992	44	6035
2026-01-15 16:55:27.57	276.15	18.38	-35.7	-36.5	24.7	0.00e+00	70	28	0	1016070144	44	6070
2026-01-15 16:55:28.58	275.98	18.29	-35.8	-36.7	24.3	0.00e+00	4	27	0	1017118720	44	6175
2026-01-15 16:55:29.59	275.81	18.20	-35.9	-36.8	23.9	0.00e+00	0	28	0	1019215872	44	6253
2026-01-15 16:55:30.60	275.65	18.12	-36.0	-36.8	24.6	0.00e+00	83	28	0	1021313024	44	6287
2026-01-15 16:55:31.61	275.48	18.03	-36.0	-36.8	24.5	0.00e+00	7	28	0	1023410176	44	6309
2026-01-15 16:55:32.62	275.31	17.95	-36.0	-36.8	24.6	0.00e+00	92	28	0	1025507328	44	6291
2026-01-15 16:55:33.63	275.14	17.86	-35.9	-36.7	24.5	0.00e+00	7	28	0	1026555904	44	6190
2026-01-15 16:55:34.64	274.98	17.77	-35.9	-36.7	24.6	0.00e+00	92	28	0	1028653056	44	6209
2026-01-15 16:55:35.65	274.82	17.69	-35.9	-36.7	24.6	0.00e+00	0	28	0	1030750208	44	6231
2026-01-15 16:55:36.65	274.65	17.60	-36.0	-36.8	24.5	0.00e+00	7	28	0	1032847360	44	6292
2026-01-15 16:55:37.66	274.49	17.52	-36.2	-37.0	24.2	0.00e+00	3	28	0	1034944512	44	6456
2026-01-15 16:55:38.67	274.33	17.43	-36.2	-37.1	24.3	0.00e+00	0	27	0	1035993088	44	6482
2026-01-15 16:55:39.68	274.17	17.34	-36.4	-37.3	24.1	0.00e+00	90	28	0	1038090240	44	6638
2026-01-15 16:55:40.69	274.01	17.26	-36.6	-37.5	23.9	0.00e+00	0	27	0	1040187392	44	6796
2026-01-15 16:55:41.70	273.85	17.17	-36.7	-37.5	23.9	0.00e+00	92	28	0	1042284544	44	6847
2026-01-15 16:55:42.71	273.69	17.09	-36.8	-37.7	23.8	0.00e+00	27	28	0	1044381696	46	6208
2026-01-15 16:55:43.72	273.54	17.00	-36.7	-37.6	23.8	0.00e+00	28	28	0	1045430272	46	6139
2026-01-15 16:55:44.73	273.38	16.92	-36.8	-37.7	23.8	0.00e+00	56	27	0	1047527424	46	6199
2026-01-15 16:55:45.74	273.23	16.83	-36.8	-37.7	23.8	0.00e+00	55	28	0	1049624576	46	6232
2026-01-15 16:55:46.75	273.07	16.74	-36.8	-37.6	23.8	0.00e+00	92	28	0	1051721728	46	6169
2026-01-15 16:55:47.76	272.92	16.66	-36.8	-37.7	23.7	0.00e+00	25	28	0	1053818880	46	6229
2026-01-15 16:55:48.77	272.77	16.57	-36.8	-37.6	23.8	0.00e+00	92	28	0	1054867456	46	6158
2026-01-15 16:55:49.78	272.62	16.49	-36.8	-37.7	23.8	0.00e+00	54	28	0	1056964608	46	6177
2026-01-15 16:55:50.79	272.47	16.40	-36.7	-37.6	23.9	0.00e+00	0	28	0	1059061760	46	6110
2026-01-15 16:55:51.80	272.32	16.32	-36.7	-37.6	23.9	0.00e+00	0	27	0	1061158912	46	6147
2026-01-15 16:55:52.81	272.17	16.23	-36.7	-37.5	23.9	0.00e+00	53	28	0	1063256064	46	6088
2026-01-15 16:55:53.82	272.02	16.15	-36.7	-37.6	23.8	0.00e+00	81	28	0	1064304640	46	6152
2026-01-15 16:55:54.83	271.87	16.07	-36.8	-37.7	23.8	0.00e+00	0	27	0	1066401792	46	6175
2026-01-15 16:55:55.84	271.73	15.98	-36.9	-37.8	23.7	0.00e+00	92	27	0	1068498944	46	6284
2026-01-15 16:55:56.85	271.58	15.90	-36.7	-37.6	23.9	0.00e+00	0	28	0	1070596096	46	6123
2026-01-15 16:55:57.86	271.44	15.81	-36.8	-37.6	23.8	0.00e+00	92	28	0	1072693248	46	6164
2026-01-15 16:55:58.86	271.29	15.73	-36.9	-37.8	23.7	0.00e+00	0	28	0	1073741824	46	6247
2026-01-15 16:55:59.87	271.15	15.64	-36.9	-37.8	23.6	0.00e+00	23	28	0	1075838976	46	6275
2026-01-15 16:56:00.88	271.01	15.56	-37.0	-37.9	23.6	0.00e+00	0	28	0	1077936128	46	6327
2026-01-15 16:56:01.89	270.87	15.48	-36.9	-37.8	23.7	0.00e+00	20	28	0	1080033280	46	6258
2026-01-15 16:56:02.90	270.73	15.39	-36.9	-37.8	23.6	0.00e+00	91	27	0	1082130432	46	6296
2026-01-15 16:56:03.91	270.59	15.31	-37.0	-37.9	23.5	0.00e+00	26	28	0	1084227584	46	6351
2026-01-15 16:56:04.92	270.45	15.23	-37.0	-37.9	23.5	0.00e+00	92	28	0	1085276160	46	6380
2026-01-15 16:56:05.93	270.31	15.14	-37.1	-38.0	23.4	0.00e+00	26	27	0	1087373312	46	6460
2026-01-15 16:56:06.94	270.17	15.06	-37.3	-38.2	23.3	0.00e+00	26	27	0	1089470464	46	6614
2026-01-15 16:56:07.95	270.04	14.98	-37.3	-38.3	23.3	0.00e+00	56	27	0	1091567616	46	6644
2026-01-15 16:56:08.96	269.90	14.89	-37.5	-38.5	23.1	0.00e+00	0	27	0	1093664768	46	6801
2026-01-15 16:56:09.97	269.77	14.81	-37.4	-38.4	23.1	0.00e+00	92	27	0	1094713344	46	6714
2026-01-15 16:56:10.98	269.63	14.73	-37.4	-38.3	23.2	0.00e+00	0	27	0	1096810496	46	6683
2026-01-15 16:56:11.99	269.50	14.64	-37.4	-38.4	23.1	0.00e+00	92	27	0	1098907648	46	6707
2026-01-15 16:56:13.00	269.37	14.56	-37.4	-38.4	23.2	0.00e+00	2	27	0	1101004800	46	6705
2026-01-15 16:56:14.01	269.23	14.48	-37.4	-38.4	23.1	0.00e+00	68	27	0	1102053376	46	6712
2026-01-15 16:56:15.01	269.10	14.40	-37.5	-38.5	23.0	0.00e+00	0	27	0	1104150528	46	6801
2026-01-15 16:56:16.02	268.97	14.32	-37.5	-38.4	23.1	0.00e+00	0	27	0	1106247680	46	6734
2026-01-15 16:56:17.03	268.84	14.23	-37.5	-38.5	23.0	0.00e+00	92	27	0	1108344832	46	6780
2026-01-15 16:56:18.04	268.71	14.15	-37.6	-38.6	22.9	0.00e+00	0	27	0	1110441984	46	6857
2026-01-15 16:56:19.05	268.59	14.07	-37.6	-38.6	22.9	0.00e+00	92	28	0	1112539136	46	6864
2026-01-15 16:56:20.06	268.46	13.99	-37.5	-38.5	23.0	0.00e+00	27	27	0	1113587712	46	6804
2026-01-15 16:56:21.07	268.33	13.91	-37.6	-38.6	22.9	0.00e+00	26	27	0	1115684864	46	6899
2026-01-15 16:56:22.08	268.21	13.83	-37.5	-38.4	23.0	0.00e+00	0	28	0	1117782016	46	6741
2026-01-15 16:56:23.09	268.08	13.74	-37.6	-38.5	22.9	0.00e+00	0	28	0	1119879168	46	6816
2026-01-15 16:56:24.10	267.96	13.66	-37.5	-38.5	23.0	0.00e+00	0	28	0	1121976320	46	6792
2026-01-15 16:56:25.11	267.83	13.58	-37.6	-38.6	22.9	0.00e+00	26	28	0	1123024896	46	6853
2026-01-15 16:56:26.12	267.71	13.50	-37.6	-38.6	22.8	0.00e+00	92	28	0	1125122048	46	6860
2026-01-15 16:56:27.13	267.58	13.42	-37.8	-38.8	22.7	0.00e+00	0	27	0	1127219200	48	6258
2026-01-15 16:56:28.14	267.46	13.34	-37.9	-38.9	22.6	0.00e+00	92	27	0	1129316352	48	6337
2026-01-15 16:56:29.15	267.34	13.26	-37.8	-38.8	22.7	0.00e+00	59	27	0	1131413504	48	6251
2026-01-15 16:56:30.16	267.22	13.18	-37.9	-38.9	22.6	0.00e+00	61	28	0	1132462080	48	6319
2026-01-15 16:56:31.17	267.10	13.10	-37.9	-38.9	22.5	0.00e+00	0	28	0	1134559232	48	6359
2026-01-15 16:56:32.17	266.98	13.02	-37.9	-38.9	22.5	0.00e+00	60	28	0	1136656384	48	6381
2026-01-15 16:56:33.18	266.86	12.94	-38.1	-39.1	22.4	0.00e+00	91	27	0	1138753536	48	6490
2026-01-15 16:56:34.19	266.75	12.86	-38.1	-39.1	22.3	0.00e+00	0	27	0	1140850688	48	6509
2026-01-15 16:56:35.20	266.63	12.78	-38.0	-39.1	22.3	0.00e+00	96	27	0	1141899264	48	6487
2026-01-15 16:56:36.21	266.51	12.70	-38.2	-39.2	22.3	0.00e+00	2	28	0	1143996416	48	6589
2026-01-15 16:56:37.22	266.40	12.62	-38.3	-39.3	22.2	0.00e+00	6	28	0	1146093568	48	6680
2026-01-15 16:56:38.23	266.28	12.54	-38.4	-39.4	22.0	0.00e+00	0	28	0	1148190720	48	6749
2026-01-15 16:56:39.24	266.17	12.46	-38.5	-39.6	21.8	0.00e+00	0	28	0	1150287872	48	6874
2026-01-15 16:56:40.25	266.05	12.38	-38.5	-39.6	21.9	0.00e+00	0	27	0	1151336448	48	6863
2026-01-15 16:56:41.26	265.94	12.31	-38.6	-39.7	21.8	0.00e+00	0	28	0	1153433600	48	6958
2026-01-15 16:56:42.27	265.82	12.23	-38.6	-39.8	21.7	0.00e+00	92	28	0	1155530752	48	7017
2026-01-15 16:56:43.28	265.71	12.15	-38.8	-39.9	21.6	0.00e+00	0	27	0	1157627904	50	6358
2026-01-15 16:56:44.29	265.60	12.07	-39.0	-40.1	21.5	0.00e+00	23	27	0	1159725056	50	6504
2026-01-15 16:56:45.30	265.49	11.99	-38.7	-39.8	21.6	0.00e+00	24	28	0	1160773632	50	6310
2026-01-15 16:56:46.31	265.38	11.91	-38.8	-39.9	21.6	0.00e+00	0	28	0	1162870784	50	6354
2026-01-15 16:56:47.31	265.27	11.84	-38.7	-39.8	21.7	0.00e+00	0	28	0	1164967936	50	6311
2026-01-15 16:56:48.33	265.16	11.76	-38.7	-39.8	21.7	0.00e+00	24	27	0	1167065088	50	6252
2026-01-15 16:56:49.34	265.05	11.68	-38.7	-39.8	21.6	0.00e+00	90	28	0	1169162240	50	6285
2026-01-15 16:56:50.34	264.94	11.60	-38.7	-39.8	21.7	0.00e+00	0	27	0	1170210816	50	6293
2026-01-15 16:56:51.35	264.84	11.53	-38.8	-39.9	21.6	0.00e+00	91	28	0	1172307968	50	6372
2026-01-15 16:56:52.36	264.73	11.45	-38.7	-39.8	21.6	0.00e+00	7	27	0	1174405120	50	6304
2026-01-15 16:56:53.37	264.62	11.37	-38.7	-39.8	21.6	0.00e+00	5	28	0	1176502272	50	6278
2026-01-15 16:56:54.38	264.52	11.29	-38.8	-39.9	21.5	0.00e+00	1	28	0	1178599424	50	6373
2026-01-15 16:56:55.39	264.41	11.22	-39.0	-40.1	17.7	0.00e+00	60	28	0	1180696576	50	6518
2026-01-15 16:56:56.40	264.31	11.14	-39.2	-40.3	21.4	0.00e+00	91	28	0	1181745152	52	5964
2026-01-15 16:56:57.41	264.20	11.06	-39.1	-40.3	21.5	0.00e+00	65	28	0	1183842304	52	5928
2026-01-15 16:56:58.42	264.10	10.99	-39.0	-40.2	21.5	0.00e+00	64	28	0	1185939456	52	5848
2026-01-15 16:56:59.43	264.00	10.91	-39.0	-40.1	21.4	0.00e+00	3	28	0	1188036608	52	5799
2026-01-15 16:57:00.44	263.89	10.84	-38.9	-40.1	21.4	0.00e+00	4	28	0	1190133760	52	5773
2026-01-15 16:57:01.45	263.79	10.76	-39.0	-40.1	21.3	0.00e+00	4	28	0	1191182336	52	5809
2026-01-15 16:57:02.46	263.69	10.68	-39.1	-40.3	21.2	0.00e+00	2	28	0	1193279488	52	5904
2026-01-15 16:57:03.47	263.59	10.61	-39.0	-40.1	21.3	0.00e+00	36	27	0	1195376640	52	5814
