passes_logs/2026/01/15/R4.6S_Anadyr/R4.6S_Anadyr__20260115_024111_SUOMI_NPP_rec.log

#Pass ID: 20260115_024111_SUOMI NPP
#Satellite: SUOMI NPP
#Configuration: NPP
#almurnet v.1.7.20251203
#Start time: 2026-01-15 02:41:12

#Version: 2.2.20231116
#Station: R4.6S_Anadyr
#Location: 177.4865 lon 64.73178 lat
#TLE: 1 37849U 11061A   26014.61059675  .00000037  00000+0  38639-4 0  9994
#TLE: 2 37849  98.7810 316.6625 0002460  64.3781 295.7649 14.19525105736658

#Time	Az	El	Level	Level2	SNR	BER	BlckErr	Temp	State	Recorded	gain1	gain2
2026-01-15 02:41:12.79	219.26	0.06	-49.1	-66.9	3.5	3.02e+01	0	27	0	0	60	84761
2026-01-15 02:41:13.80	219.34	0.11	-48.8	-64.1	3.6	1.51e+00	0	28	104	0	60	57903
2026-01-15 02:41:14.81	219.41	0.16	-48.7	-64.1	3.6	1.51e+00	0	28	104	0	60	57654
2026-01-15 02:41:15.82	219.49	0.21	-48.8	-64.0	3.6	1.51e+00	0	28	104	0	60	57437
2026-01-15 02:41:16.83	219.56	0.26	-48.7	-64.0	3.6	1.51e+00	0	28	104	0	60	57567
2026-01-15 02:41:17.84	219.64	0.31	-48.8	-64.1	3.6	1.51e+00	0	28	104	0	60	57788
2026-01-15 02:41:18.85	219.72	0.35	-48.9	-64.0	3.6	1.51e+00	0	28	104	0	60	57560
2026-01-15 02:41:19.86	219.79	0.40	-48.9	-64.1	3.6	1.51e+00	0	28	104	0	60	57893
2026-01-15 02:41:20.87	219.87	0.45	-48.9	-64.1	3.6	1.51e+00	0	28	104	0	60	58008
2026-01-15 02:41:21.88	219.95	0.50	-48.9	-64.1	3.6	1.51e+00	0	28	104	0	60	57875
2026-01-15 02:41:22.89	220.02	0.56	-48.9	-64.2	3.6	1.51e+00	0	28	104	0	60	58457
2026-01-15 02:41:23.90	220.10	0.61	-48.3	-64.0	3.6	1.51e+00	0	28	104	0	60	57234
2026-01-15 02:41:24.91	220.18	0.66	-48.1	-63.9	3.6	1.51e+00	0	28	104	0	60	56747
2026-01-15 02:41:25.92	220.26	0.71	-48.4	-63.9	3.6	1.51e+00	0	28	104	0	60	56758
2026-01-15 02:41:26.93	220.34	0.76	-48.6	-63.8	3.6	1.51e+00	0	28	104	0	60	56049
2026-01-15 02:41:27.94	220.42	0.81	-48.4	-63.6	3.6	1.51e+00	0	28	104	0	60	54912
2026-01-15 02:41:28.95	220.49	0.86	-47.8	-62.9	3.6	1.51e+00	0	28	104	0	60	50322
2026-01-15 02:41:29.96	220.57	0.91	-46.8	-61.9	3.6	1.51e+00	0	28	104	0	60	45230
2026-01-15 02:41:30.97	220.65	0.96	-46.7	-61.9	3.6	1.51e+00	0	28	104	0	60	45003
2026-01-15 02:41:31.98	220.73	1.01	-46.7	-61.9	3.6	1.51e+00	0	28	104	0	60	44782
2026-01-15 02:41:32.99	220.81	1.06	-46.7	-61.9	3.6	1.51e+00	0	28	104	0	60	44987
2026-01-15 02:41:34.00	220.89	1.11	-46.7	-61.8	3.6	1.51e+00	0	28	104	0	60	44620
2026-01-15 02:41:35.01	220.97	1.16	-46.7	-61.9	3.6	1.51e+00	0	28	104	0	60	44833
2026-01-15 02:41:36.02	221.05	1.21	-46.7	-61.9	3.6	1.51e+00	0	28	104	0	60	44788
2026-01-15 02:41:37.03	221.13	1.26	-46.7	-61.8	3.6	1.51e+00	0	29	104	0	60	44611
2026-01-15 02:41:38.04	221.21	1.31	-46.7	-61.9	3.6	1.51e+00	0	29	104	0	60	44737
2026-01-15 02:41:39.04	221.30	1.36	-46.7	-61.9	3.6	1.51e+00	0	29	104	0	60	44958
2026-01-15 02:41:40.06	221.38	1.41	-46.7	-61.9	3.6	1.51e+00	0	29	104	0	60	44774
2026-01-15 02:41:41.07	221.46	1.46	-46.7	-61.9	3.6	1.51e+00	0	29	104	0	60	44886
2026-01-15 02:41:42.08	221.54	1.52	-46.7	-61.8	3.6	1.51e+00	0	29	104	0	60	44720
2026-01-15 02:41:43.09	221.62	1.57	-46.7	-61.8	3.6	1.51e+00	0	29	104	0	60	44654
2026-01-15 02:41:44.10	221.71	1.62	-46.7	-61.9	3.6	1.51e+00	0	29	104	0	60	44961
2026-01-15 02:41:45.11	221.79	1.67	-46.7	-61.9	3.6	1.51e+00	0	29	104	0	60	44786
2026-01-15 02:41:46.12	221.87	1.72	-46.7	-61.9	3.6	1.51e+00	0	29	104	0	60	44908
2026-01-15 02:41:47.13	221.96	1.77	-46.7	-61.9	3.6	1.51e+00	0	29	104	0	60	44883
2026-01-15 02:41:48.14	222.04	1.82	-46.7	-61.8	3.6	1.51e+00	0	29	104	0	60	44679
2026-01-15 02:41:49.15	222.12	1.87	-46.7	-61.8	3.6	1.51e+00	0	29	104	0	60	44340
2026-01-15 02:41:50.16	222.21	1.92	-46.7	-61.8	3.6	1.51e+00	0	29	104	0	60	44298
2026-01-15 02:41:51.17	222.29	1.98	-46.7	-61.6	3.6	1.51e+00	0	29	104	0	60	43490
2026-01-15 02:41:52.18	222.38	2.03	-46.7	-61.7	3.5	1.51e+00	0	29	104	0	60	43995
2026-01-15 02:41:53.19	222.46	2.08	-46.7	-61.7	3.6	1.51e+00	0	29	104	0	60	43934
2026-01-15 02:41:54.20	222.55	2.13	-46.7	-61.8	3.6	1.51e+00	0	29	104	0	60	44393
2026-01-15 02:41:55.21	222.64	2.18	-46.7	-61.7	3.6	1.51e+00	0	29	104	0	60	44013
2026-01-15 02:41:56.22	222.72	2.23	-46.7	-61.8	3.6	1.51e+00	0	29	104	0	60	44465
2026-01-15 02:41:57.23	222.81	2.28	-46.7	-61.8	3.6	1.51e+00	0	29	104	0	60	44281
2026-01-15 02:41:58.24	222.89	2.34	-46.7	-61.9	3.6	1.51e+00	0	29	104	0	60	44768
2026-01-15 02:41:59.25	222.98	2.39	-46.7	-61.8	3.6	1.51e+00	0	29	104	0	60	44481
2026-01-15 02:42:00.26	223.07	2.44	-46.7	-61.8	3.6	1.51e+00	0	29	104	0	60	44564
2026-01-15 02:42:01.27	223.16	2.49	-46.7	-61.7	3.6	1.51e+00	0	29	104	0	60	43833
2026-01-15 02:42:02.27	223.24	2.54	-46.7	-61.3	3.6	1.51e+00	0	29	104	0	60	41849
2026-01-15 02:42:03.28	223.33	2.59	-46.6	-59.7	3.6	1.51e+00	0	29	104	0	60	34802
2026-01-15 02:42:04.29	223.42	2.65	-46.4	-56.5	4.6	1.39e+00	0	29	0	0	60	24173
2026-01-15 02:42:05.30	223.51	2.70	-46.0	-53.3	6.6	3.02e-01	0	29	0	2097152	60	16807
2026-01-15 02:42:06.31	223.60	2.75	-45.4	-50.8	9.3	5.92e-02	0	29	0	3145728	60	12587
2026-01-15 02:42:07.32	223.69	2.80	-44.9	-49.5	11.0	6.83e-03	0	29	0	5242880	60	10735
2026-01-15 02:42:08.33	223.78	2.85	-44.4	-48.4	12.3	3.81e-04	0	29	0	7340032	60	9455
2026-01-15 02:42:09.34	223.87	2.91	-44.2	-47.9	12.8	5.56e-05	0	29	0	9437184	60	8937
2026-01-15 02:42:10.35	223.96	2.96	-44.1	-47.9	12.9	2.51e-05	0	29	0	11534336	60	8941
2026-01-15 02:42:11.36	224.05	3.01	-44.4	-48.4	12.1	9.46e-05	0	29	0	13631488	60	9491
2026-01-15 02:42:12.37	224.14	3.06	-44.8	-49.4	11.4	9.62e-04	0	29	0	14680064	60	10697
2026-01-15 02:42:13.37	224.23	3.11	-44.1	-47.6	13.7	3.00e-06	0	29	0	16777216	60	8714
2026-01-15 02:42:14.38	224.32	3.17	-46.3	-59.2	3.6	2.94e-01	0	29	104	17825792	60	32985
2026-01-15 02:42:15.39	224.41	3.22	-44.1	-47.5	13.5	6.10e-06	0	29	0	17825792	60	8595
2026-01-15 02:42:16.40	224.50	3.27	-45.8	-51.9	9.2	2.36e-02	0	29	0	19922944	60	14164
2026-01-15 02:42:17.41	224.59	3.32	-45.6	-51.4	9.4	9.15e-05	0	29	0	22020096	60	13470
2026-01-15 02:42:18.42	224.69	3.38	-44.0	-47.3	13.7	1.22e-05	0	29	0	23068672	60	8358
2026-01-15 02:42:19.43	224.78	3.43	-44.0	-47.3	13.7	1.06e-05	0	29	0	25165824	60	8390
2026-01-15 02:42:20.44	224.87	3.48	-44.1	-47.5	13.4	1.14e-05	0	29	0	27262976	60	8574
2026-01-15 02:42:21.44	224.97	3.53	-44.3	-47.9	13.1	1.67e-05	0	29	0	29360128	60	8940
2026-01-15 02:42:22.45	225.06	3.59	-44.3	-47.9	13.0	2.59e-05	0	29	0	31457280	60	8959
2026-01-15 02:42:23.46	225.15	3.64	-44.3	-47.9	13.1	2.82e-05	0	29	0	32505856	60	9004
2026-01-15 02:42:24.47	225.25	3.69	-44.5	-48.3	12.5	6.17e-05	0	29	0	34603008	60	9357
2026-01-15 02:42:25.48	225.34	3.74	-44.6	-48.4	12.6	9.15e-05	0	29	0	36700160	60	9510
2026-01-15 02:42:26.49	225.44	3.80	-44.5	-48.4	12.3	1.26e-04	0	29	0	38797312	60	9467
2026-01-15 02:42:27.50	225.54	3.85	-44.7	-48.8	12.3	2.09e-04	0	29	0	40894464	60	9912
2026-01-15 02:42:28.51	225.63	3.90	-44.7	-48.7	12.3	2.82e-04	0	29	0	41943040	60	9820
2026-01-15 02:42:29.52	225.73	3.96	-44.7	-48.7	12.3	1.79e-04	0	29	0	44040192	60	9823
2026-01-15 02:42:30.53	225.82	4.01	-44.8	-48.9	12.1	1.75e-04	0	29	0	46137344	60	10059
2026-01-15 02:42:31.54	225.92	4.06	-44.7	-48.6	12.3	1.44e-04	0	29	0	48234496	60	9756
2026-01-15 02:42:32.55	226.02	4.11	-44.6	-48.5	12.4	9.99e-05	0	29	0	50331648	60	9667
2026-01-15 02:42:33.56	226.12	4.17	-44.8	-48.8	12.3	2.04e-04	0	29	0	51380224	60	9932
2026-01-15 02:42:34.56	226.21	4.22	-44.8	-48.8	12.2	2.66e-04	0	29	0	53477376	60	10008
2026-01-15 02:42:35.57	226.31	4.27	-44.6	-48.4	12.5	1.11e-04	0	29	0	55574528	60	9481
2026-01-15 02:42:36.58	226.41	4.33	-44.8	-48.8	12.1	2.07e-04	0	29	0	57671680	60	9983
2026-01-15 02:42:37.59	226.51	4.38	-44.7	-48.6	12.4	2.33e-04	0	29	0	59768832	60	9719
2026-01-15 02:42:38.60	226.61	4.43	-44.6	-48.4	12.7	8.62e-05	0	29	0	60817408	60	9468
2026-01-15 02:42:39.61	226.71	4.49	-44.6	-48.5	12.4	1.09e-04	0	29	0	62914560	60	9566
2026-01-15 02:42:40.62	226.81	4.54	-44.7	-48.5	12.3	1.62e-04	0	29	0	65011712	60	9657
2026-01-15 02:42:41.63	226.91	4.59	-44.6	-48.4	12.5	8.62e-05	0	29	0	67108864	60	9507
2026-01-15 02:42:42.64	227.01	4.65	-44.6	-48.5	12.5	1.07e-04	0	29	0	69206016	60	9573
2026-01-15 02:42:43.65	227.11	4.70	-44.7	-48.5	12.6	1.30e-04	0	29	0	70254592	60	9602
2026-01-15 02:42:44.66	227.21	4.75	-44.6	-48.3	12.8	4.88e-05	0	29	0	72351744	60	9414
2026-01-15 02:42:45.67	227.31	4.81	-44.7	-48.5	12.6	6.71e-05	0	29	0	74448896	60	9604
2026-01-15 02:42:46.68	227.41	4.86	-44.8	-48.6	12.6	1.11e-04	0	29	0	76546048	60	9697
2026-01-15 02:42:47.69	227.52	4.91	-44.7	-48.4	12.7	8.62e-05	0	29	0	78643200	60	9553
2026-01-15 02:42:48.69	227.62	4.97	-44.8	-48.7	12.5	7.70e-05	0	29	0	79691776	60	9816
2026-01-15 02:42:49.70	227.72	5.02	-44.9	-48.8	12.4	8.62e-05	0	29	0	81788928	60	9941
2026-01-15 02:42:50.71	227.83	5.07	-44.7	-48.4	12.8	6.25e-05	0	29	0	83886080	60	9488
2026-01-15 02:42:51.72	227.93	5.13	-44.7	-48.3	12.8	7.32e-05	0	29	0	85983232	60	9428
2026-01-15 02:42:52.73	228.03	5.18	-44.8	-48.6	12.7	6.71e-05	0	29	0	88080384	60	9713
2026-01-15 02:42:53.74	228.14	5.23	-44.8	-48.5	12.7	9.00e-05	0	29	0	89128960	60	9645
2026-01-15 02:42:54.75	228.24	5.29	-44.8	-48.6	12.8	6.33e-05	0	29	0	91226112	60	9696
2026-01-15 02:42:55.76	228.35	5.34	-44.8	-48.5	12.8	5.49e-05	0	29	0	93323264	60	9668
2026-01-15 02:42:56.77	228.45	5.40	-44.6	-48.1	13.1	4.11e-05	0	29	0	95420416	60	9202
2026-01-15 02:42:57.77	228.56	5.45	-44.7	-48.4	12.8	5.41e-05	0	29	0	97517568	60	9551
2026-01-15 02:42:58.78	228.67	5.50	-44.8	-48.4	12.9	5.87e-05	0	29	0	99614720	60	9496
2026-01-15 02:42:59.80	228.77	5.56	-44.8	-48.5	12.8	3.96e-05	0	29	0	100663296	60	9599
2026-01-15 02:43:00.81	228.88	5.61	-44.8	-48.4	13.0	4.65e-05	0	29	0	102760448	60	9497
2026-01-15 02:43:01.82	228.99	5.67	-44.8	-48.5	12.9	4.34e-05	0	29	0	104857600	60	9598
2026-01-15 02:43:02.83	229.10	5.72	-44.9	-48.7	12.6	8.23e-05	0	29	0	106954752	60	9787
2026-01-15 02:43:03.84	229.21	5.77	-45.1	-49.1	12.2	9.84e-05	0	29	0	109051904	60	10347
2026-01-15 02:43:04.85	229.31	5.83	-45.1	-49.0	12.2	1.56e-04	0	29	0	110100480	60	10188
2026-01-15 02:43:05.85	229.42	5.88	-45.2	-49.3	12.0	3.07e-04	0	29	0	112197632	60	10564
2026-01-15 02:43:06.86	229.53	5.93	-45.2	-49.2	12.1	2.51e-04	0	29	0	114294784	60	10476
2026-01-15 02:43:07.87	229.64	5.99	-45.2	-49.2	12.2	3.07e-04	0	29	0	116391936	60	10443
2026-01-15 02:43:08.88	229.75	6.04	-45.2	-49.2	12.2	1.56e-04	0	29	0	118489088	60	10481
2026-01-15 02:43:09.89	229.86	6.10	-45.4	-49.5	11.9	2.04e-04	0	29	0	119537664	60	10832
2026-01-15 02:43:10.90	229.97	6.15	-45.4	-49.5	11.9	3.22e-04	0	29	0	121634816	60	10750
2026-01-15 02:43:11.91	230.09	6.21	-45.4	-49.5	11.9	3.76e-04	0	29	0	123731968	60	10795
2026-01-15 02:43:12.92	230.20	6.26	-45.4	-49.6	11.9	3.78e-04	0	29	0	125829120	60	10956
2026-01-15 02:43:13.93	230.31	6.31	-45.5	-49.8	11.6	5.35e-04	0	29	0	127926272	60	11194
2026-01-15 02:43:14.94	230.42	6.37	-45.5	-49.8	11.7	6.66e-04	0	29	0	128974848	60	11114
2026-01-15 02:43:15.95	230.54	6.42	-45.6	-49.9	11.6	4.95e-04	0	29	0	131072000	60	11256
2026-01-15 02:43:16.95	230.65	6.48	-45.5	-49.6	11.9	6.87e-04	0	29	0	133169152	60	10934
2026-01-15 02:43:17.96	230.76	6.53	-45.5	-49.8	11.8	4.48e-04	0	29	0	135266304	60	11136
2026-01-15 02:43:18.97	230.88	6.59	-45.7	-50.0	11.7	5.86e-04	0	29	0	137363456	60	11404
2026-01-15 02:43:19.98	230.99	6.64	-45.6	-49.9	11.8	7.70e-04	0	29	0	138412032	60	11261
2026-01-15 02:43:21.00	231.11	6.70	-45.5	-49.6	12.0	3.36e-04	0	29	0	140509184	60	10891
2026-01-15 02:43:22.00	231.22	6.75	-45.6	-49.7	12.0	3.79e-04	0	29	0	142606336	60	11001
2026-01-15 02:43:23.01	231.34	6.80	-45.5	-49.5	12.1	2.70e-04	0	29	0	144703488	60	10786
2026-01-15 02:43:24.02	231.45	6.86	-45.3	-49.2	12.5	1.31e-04	0	29	0	146800640	60	10383
2026-01-15 02:43:25.03	231.57	6.91	-45.3	-49.2	12.5	1.72e-04	0	29	0	147849216	60	10393
2026-01-15 02:43:26.04	231.69	6.97	-45.3	-49.1	12.6	1.36e-04	0	29	0	149946368	60	10261
2026-01-15 02:43:27.05	231.81	7.02	-45.3	-49.2	12.5	7.70e-05	0	29	0	152043520	60	10369
2026-01-15 02:43:28.06	231.92	7.08	-45.1	-48.8	12.9	4.04e-05	0	29	0	154140672	60	9907
2026-01-15 02:43:29.06	232.04	7.13	-45.1	-48.7	13.0	2.28e-05	0	29	0	156237824	60	9882
2026-01-15 02:43:30.08	232.16	7.19	-45.1	-48.6	13.1	2.82e-05	0	29	0	157286400	60	9763
2026-01-15 02:43:31.09	232.28	7.24	-45.0	-48.6	13.1	3.50e-05	0	29	0	159383552	60	9705
2026-01-15 02:43:32.09	232.40	7.29	-45.1	-48.7	13.0	3.28e-05	0	29	0	161480704	60	9876
2026-01-15 02:43:33.10	232.52	7.35	-45.1	-48.8	13.1	3.89e-05	0	29	0	163577856	60	9901
2026-01-15 02:43:34.12	232.64	7.40	-45.2	-49.0	12.9	4.88e-05	0	29	0	165675008	60	10158
2026-01-15 02:43:35.12	232.76	7.46	-45.2	-48.9	12.8	5.34e-05	0	29	0	167772160	60	10093
2026-01-15 02:43:36.13	232.88	7.51	-45.1	-48.7	13.2	4.65e-05	0	29	0	168820736	60	9835
2026-01-15 02:43:37.14	233.01	7.57	-45.1	-48.7	13.2	2.44e-05	0	29	0	170917888	60	9797
2026-01-15 02:43:38.15	233.13	7.62	-45.1	-48.6	13.3	2.21e-05	0	29	0	173015040	60	9739
2026-01-15 02:43:39.16	233.25	7.68	-44.9	-48.3	13.6	1.22e-05	0	29	0	175112192	60	9434
2026-01-15 02:43:40.17	233.37	7.73	-45.0	-48.5	13.3	1.60e-05	0	29	0	177209344	60	9639
2026-01-15 02:43:41.18	233.50	7.79	-45.0	-48.4	13.5	8.30e-06	0	29	0	178257920	60	9527
2026-01-15 02:43:42.19	233.62	7.84	-44.9	-48.2	13.7	6.10e-06	0	29	0	180355072	60	9335
2026-01-15 02:43:43.20	233.75	7.89	-45.0	-48.3	13.6	6.10e-06	0	29	0	182452224	60	9452
2026-01-15 02:43:44.21	233.87	7.95	-45.0	-48.4	13.5	1.22e-05	0	29	0	184549376	60	9510
2026-01-15 02:43:45.22	234.00	8.00	-44.8	-48.1	13.9	9.90e-06	0	29	0	186646528	60	9160
2026-01-15 02:43:46.23	234.12	8.06	-44.9	-48.2	13.7	6.80e-06	0	29	0	187695104	60	9252
2026-01-15 02:43:47.24	234.25	8.11	-44.9	-48.3	13.7	7.60e-06	0	29	0	189792256	60	9357
2026-01-15 02:43:48.25	234.38	8.17	-44.9	-48.1	13.8	3.80e-06	0	29	0	191889408	60	9228
2026-01-15 02:43:49.26	234.50	8.22	-44.8	-48.0	13.9	1.50e-06	0	29	0	193986560	60	9116
2026-01-15 02:43:50.27	234.63	8.28	-44.8	-48.0	14.0	1.50e-06	0	29	0	196083712	60	9130
2026-01-15 02:43:51.28	234.76	8.33	-44.8	-47.9	14.1	5.30e-06	0	29	0	197132288	60	8997
2026-01-15 02:43:52.29	234.89	8.39	-44.7	-47.7	14.3	2.20e-06	0	29	0	199229440	60	8798
2026-01-15 02:43:53.30	235.02	8.44	-44.8	-47.9	14.1	3.80e-06	0	29	0	201326592	60	8958
2026-01-15 02:43:54.31	235.15	8.50	-44.6	-47.6	14.4	1.50e-06	0	29	0	203423744	60	8712
2026-01-15 02:43:55.32	235.28	8.55	-44.6	-47.5	14.4	0.00e+00	0	29	0	205520896	60	8606
2026-01-15 02:43:56.33	235.41	8.61	-44.6	-47.6	14.4	0.00e+00	0	29	0	206569472	60	8659
2026-01-15 02:43:57.34	235.54	8.66	-44.5	-47.4	14.6	0.00e+00	0	29	0	208666624	60	8507
2026-01-15 02:43:58.34	235.67	8.71	-44.5	-47.4	14.5	0.00e+00	0	29	0	210763776	60	8475
2026-01-15 02:43:59.35	235.80	8.77	-44.4	-47.3	14.9	0.00e+00	0	29	0	212860928	60	8329
2026-01-15 02:44:00.36	235.93	8.82	-44.3	-47.2	14.9	0.00e+00	0	29	0	214958080	60	8252
2026-01-15 02:44:01.37	236.07	8.88	-44.2	-46.9	15.2	0.00e+00	0	29	0	216006656	60	8002
2026-01-15 02:44:02.38	236.20	8.93	-44.1	-46.8	15.3	0.00e+00	0	29	0	218103808	60	7932
2026-01-15 02:44:03.39	236.34	8.99	-43.9	-46.5	15.6	0.00e+00	0	29	0	220200960	60	7631
2026-01-15 02:44:04.40	236.47	9.04	-43.8	-46.3	15.8	0.00e+00	0	29	0	222298112	60	7445
2026-01-15 02:44:05.41	236.60	9.10	-43.8	-46.2	16.0	0.00e+00	0	29	0	224395264	60	7380
2026-01-15 02:44:06.42	236.74	9.15	-43.7	-46.0	16.2	0.00e+00	0	29	0	225443840	60	7215
2026-01-15 02:44:07.43	236.88	9.21	-43.5	-45.8	16.4	0.00e+00	0	29	0	227540992	60	7035
2026-01-15 02:44:08.44	237.01	9.26	-43.5	-45.8	16.3	0.00e+00	0	29	0	229638144	60	7055
2026-01-15 02:44:09.45	237.15	9.31	-43.4	-45.6	16.5	0.00e+00	0	29	0	231735296	60	6922
2026-01-15 02:44:10.46	237.29	9.37	-43.3	-45.6	16.5	0.00e+00	0	29	0	233832448	60	6851
2026-01-15 02:44:11.47	237.43	9.42	-43.3	-45.4	16.7	0.00e+00	0	29	0	235929600	60	6759
2026-01-15 02:44:12.48	237.56	9.48	-43.1	-45.2	16.9	0.00e+00	0	29	0	236978176	60	6584
2026-01-15 02:44:13.49	237.70	9.53	-43.1	-45.3	16.8	0.00e+00	0	29	0	239075328	60	6659
2026-01-15 02:44:14.49	237.84	9.59	-43.1	-45.3	16.9	0.00e+00	0	29	0	241172480	60	6648
2026-01-15 02:44:15.50	237.98	9.64	-42.9	-44.9	17.2	0.00e+00	0	29	0	243269632	60	6390
2026-01-15 02:44:16.51	238.12	9.69	-43.0	-45.1	17.1	0.00e+00	0	29	0	245366784	60	6512
2026-01-15 02:44:17.52	238.26	9.75	-43.0	-45.1	17.0	0.00e+00	0	29	0	246415360	60	6512
2026-01-15 02:44:18.53	238.40	9.80	-42.6	-44.5	17.5	0.00e+00	0	29	0	248512512	58	6777
2026-01-15 02:44:19.54	238.54	9.86	-42.4	-44.3	17.7	0.00e+00	0	29	0	250609664	58	6656
2026-01-15 02:44:20.55	238.69	9.91	-42.5	-44.4	17.7	0.00e+00	0	29	0	252706816	58	6739
2026-01-15 02:44:21.56	238.83	9.97	-42.5	-44.3	17.7	0.00e+00	0	29	0	254803968	58	6684
2026-01-15 02:44:22.57	238.97	10.02	-42.3	-44.1	17.9	0.00e+00	0	29	0	255852544	58	6479
2026-01-15 02:44:23.57	239.12	10.07	-42.3	-44.1	18.0	0.00e+00	0	29	0	257949696	58	6475
2026-01-15 02:44:24.58	239.26	10.13	-42.3	-44.1	17.8	0.00e+00	0	29	0	260046848	58	6531
2026-01-15 02:44:25.59	239.41	10.18	-41.9	-43.6	18.5	0.00e+00	0	29	0	262144000	58	6129
2026-01-15 02:44:26.60	239.55	10.23	-41.9	-43.6	18.5	0.00e+00	0	29	0	264241152	58	6135
2026-01-15 02:44:27.61	239.70	10.29	-42.0	-43.7	18.5	0.00e+00	0	29	0	265289728	56	6936
2026-01-15 02:44:28.61	239.84	10.34	-41.7	-43.4	18.6	0.00e+00	0	29	0	267386880	56	6698
2026-01-15 02:44:29.62	239.99	10.40	-41.7	-43.3	18.7	0.00e+00	0	29	0	269484032	56	6678
2026-01-15 02:44:30.63	240.14	10.45	-41.7	-43.3	18.8	0.00e+00	0	29	0	271581184	56	6641
2026-01-15 02:44:31.64	240.29	10.50	-41.7	-43.2	18.8	0.00e+00	0	29	0	273678336	56	6614
2026-01-15 02:44:32.64	240.43	10.56	-41.8	-43.4	18.8	0.00e+00	0	29	0	274726912	56	6712
2026-01-15 02:44:33.65	240.58	10.61	-41.6	-43.1	18.8	0.00e+00	0	29	0	276824064	56	6526
2026-01-15 02:44:34.66	240.73	10.66	-41.5	-43.0	19.0	0.00e+00	0	29	0	278921216	56	6431
2026-01-15 02:44:35.67	240.88	10.72	-41.4	-43.0	19.1	0.00e+00	0	29	0	281018368	56	6417
2026-01-15 02:44:36.67	241.03	10.77	-41.4	-42.9	19.1	0.00e+00	0	29	0	283115520	56	6367
2026-01-15 02:44:37.68	241.18	10.82	-41.2	-42.7	19.4	0.00e+00	0	29	0	284164096	56	6179
2026-01-15 02:44:38.69	241.33	10.88	-40.6	-42.0	19.9	0.00e+00	0	29	0	286261248	54	6415
2026-01-15 02:44:39.70	241.49	10.93	-40.5	-41.9	20.1	0.00e+00	0	29	0	288358400	54	6344
2026-01-15 02:44:40.71	241.64	10.98	-40.4	-41.7	20.1	0.00e+00	0	29	0	290455552	54	6232
2026-01-15 02:44:41.72	241.79	11.04	-40.4	-41.7	20.1	0.00e+00	0	29	0	292552704	54	6232
2026-01-15 02:44:42.73	241.95	11.09	-39.9	-41.2	20.7	0.00e+00	0	30	0	293601280	54	5842
2026-01-15 02:44:43.74	242.10	11.14	-39.8	-41.0	20.8	0.00e+00	0	29	0	295698432	54	5758
2026-01-15 02:44:44.75	242.26	11.19	-40.0	-41.2	20.7	0.00e+00	0	29	0	297795584	52	6577
2026-01-15 02:44:45.76	242.41	11.25	-39.8	-41.0	20.9	0.00e+00	0	30	0	299892736	52	6402
2026-01-15 02:44:46.76	242.57	11.30	-39.7	-40.9	21.0	0.00e+00	0	29	0	301989888	52	6362
2026-01-15 02:44:47.77	242.72	11.35	-39.3	-40.4	21.6	0.00e+00	0	29	0	303038464	52	5982
2026-01-15 02:44:48.78	242.88	11.41	-38.8	-39.9	21.9	0.00e+00	0	30	0	305135616	52	5665
2026-01-15 02:44:49.79	243.04	11.46	-38.6	-39.6	22.1	0.00e+00	0	29	0	307232768	50	6166
2026-01-15 02:44:50.80	243.20	11.51	-38.5	-39.5	22.2	0.00e+00	0	29	0	309329920	50	6048
2026-01-15 02:44:51.81	243.35	11.56	-38.4	-39.4	22.3	0.00e+00	0	29	0	311427072	50	5976
2026-01-15 02:44:52.81	243.51	11.61	-38.1	-39.1	22.6	0.00e+00	0	29	0	312475648	50	5785
2026-01-15 02:44:53.82	243.67	11.67	-38.0	-38.9	22.7	0.00e+00	0	29	0	314572800	50	5674
2026-01-15 02:44:54.83	243.83	11.72	-38.1	-39.0	22.6	0.00e+00	0	29	0	316669952	50	5742
2026-01-15 02:44:55.84	243.99	11.77	-38.0	-39.0	22.3	0.00e+00	0	29	0	318767104	50	5696
2026-01-15 02:44:56.85	244.16	11.82	-38.1	-39.1	22.6	0.00e+00	0	30	0	320864256	50	5786
2026-01-15 02:44:57.86	244.32	11.87	-38.3	-39.3	22.4	0.00e+00	0	29	0	321912832	50	5937
2026-01-15 02:44:58.87	244.48	11.93	-38.3	-39.3	22.4	0.00e+00	0	29	0	324009984	50	5939
2026-01-15 02:44:59.88	244.64	11.98	-38.2	-39.2	22.5	0.00e+00	0	29	0	326107136	50	5871
2026-01-15 02:45:00.89	244.81	12.03	-38.3	-39.3	22.4	0.00e+00	0	29	0	328204288	50	5947
2026-01-15 02:45:01.90	244.97	12.08	-38.2	-39.2	22.6	0.00e+00	0	29	0	330301440	50	5870
2026-01-15 02:45:02.90	245.13	12.13	-38.1	-39.1	22.7	0.00e+00	0	29	0	331350016	50	5770
2026-01-15 02:45:03.91	245.30	12.18	-38.1	-39.0	22.6	0.00e+00	0	29	0	333447168	50	5761
2026-01-15 02:45:04.92	245.47	12.23	-38.0	-39.0	22.8	0.00e+00	0	29	0	335544320	50	5704
2026-01-15 02:45:05.93	245.63	12.28	-37.9	-38.9	22.7	0.00e+00	0	29	0	337641472	50	5661
2026-01-15 02:45:06.94	245.80	12.34	-37.9	-38.8	22.9	0.00e+00	0	29	0	339738624	50	5604
2026-01-15 02:45:07.95	245.97	12.39	-38.0	-38.9	22.9	0.00e+00	0	29	0	340787200	50	5692
2026-01-15 02:45:08.96	246.14	12.44	-37.7	-38.6	22.9	0.00e+00	0	29	0	342884352	48	6161
2026-01-15 02:45:09.97	246.30	12.49	-37.9	-38.8	22.8	0.00e+00	0	29	0	344981504	48	6302
2026-01-15 02:45:10.98	246.47	12.54	-37.7	-38.7	23.0	0.00e+00	0	29	0	347078656	48	6182
2026-01-15 02:45:11.98	246.64	12.59	-37.8	-38.7	23.0	0.00e+00	0	29	0	349175808	48	6214
2026-01-15 02:45:12.99	246.81	12.64	-37.9	-38.9	22.8	0.00e+00	0	29	0	350224384	48	6350
2026-01-15 02:45:14.00	246.98	12.69	-37.9	-38.9	22.7	0.00e+00	0	29	0	352321536	48	6319
2026-01-15 02:45:15.01	247.15	12.74	-38.1	-39.0	22.7	0.00e+00	0	29	0	354418688	48	6442
2026-01-15 02:45:16.03	247.33	12.79	-38.1	-39.0	22.8	0.00e+00	0	29	0	356515840	48	6436
2026-01-15 02:45:17.04	247.50	12.84	-37.9	-38.9	22.8	0.00e+00	0	29	0	358612992	48	6339
2026-01-15 02:45:18.05	247.67	12.89	-38.1	-39.1	22.7	0.00e+00	0	29	0	360710144	48	6479
2026-01-15 02:45:19.06	247.85	12.94	-38.2	-39.2	22.6	0.00e+00	0	29	0	361758720	48	6559
2026-01-15 02:45:20.07	248.02	12.99	-38.2	-39.2	22.6	0.00e+00	0	29	0	363855872	48	6578
2026-01-15 02:45:21.08	248.20	13.04	-38.3	-39.3	22.6	0.00e+00	0	29	0	365953024	48	6647
2026-01-15 02:45:22.09	248.37	13.08	-38.3	-39.3	22.4	0.00e+00	0	29	0	368050176	48	6681
2026-01-15 02:45:23.09	248.55	13.13	-38.1	-39.1	22.8	0.00e+00	0	29	0	370147328	48	6474
2026-01-15 02:45:24.10	248.72	13.18	-38.1	-39.1	22.7	0.00e+00	0	29	0	371195904	48	6516
2026-01-15 02:45:25.11	248.90	13.23	-38.1	-39.0	22.8	0.00e+00	0	29	0	373293056	48	6428
2026-01-15 02:45:26.12	249.08	13.28	-37.9	-38.8	23.0	0.00e+00	0	29	0	375390208	48	6305
2026-01-15 02:45:27.13	249.26	13.33	-37.9	-38.8	22.9	0.00e+00	0	29	0	377487360	48	6277
2026-01-15 02:45:28.14	249.44	13.37	-38.1	-39.0	22.8	0.00e+00	0	29	0	379584512	48	6440
2026-01-15 02:45:29.15	249.62	13.42	-38.2	-39.2	22.5	0.00e+00	0	29	0	380633088	48	6581
2026-01-15 02:45:30.16	249.80	13.47	-38.4	-39.4	22.4	0.00e+00	0	29	0	382730240	48	6720
2026-01-15 02:45:31.16	249.97	13.52	-38.5	-39.6	22.3	0.00e+00	0	29	0	384827392	48	6854
2026-01-15 02:45:32.17	250.16	13.56	-38.6	-39.6	22.3	0.00e+00	0	29	0	386924544	48	6908
2026-01-15 02:45:33.18	250.34	13.61	-38.8	-39.9	22.3	0.00e+00	0	29	0	389021696	50	6319
2026-01-15 02:45:34.19	250.52	13.66	-38.7	-39.7	22.2	0.00e+00	0	29	0	390070272	50	6210
2026-01-15 02:45:35.20	250.70	13.71	-38.8	-39.8	22.2	0.00e+00	0	29	0	392167424	50	6258
2026-01-15 02:45:36.21	250.89	13.75	-38.7	-39.8	22.1	0.00e+00	0	29	0	394264576	50	6246
2026-01-15 02:45:37.22	251.07	13.80	-38.8	-39.8	22.1	0.00e+00	0	29	0	396361728	50	6288
2026-01-15 02:45:38.23	251.25	13.85	-38.9	-39.9	22.2	0.00e+00	0	29	0	398458880	50	6364
2026-01-15 02:45:39.24	251.44	13.89	-39.0	-40.1	21.9	0.00e+00	0	29	0	399507456	50	6475
2026-01-15 02:45:40.25	251.62	13.94	-39.3	-40.4	21.7	0.00e+00	0	29	0	401604608	50	6723
2026-01-15 02:45:41.26	251.81	13.98	-39.5	-40.6	21.2	0.00e+00	0	29	0	403701760	50	6911
2026-01-15 02:45:42.27	252.00	14.03	-39.7	-40.9	21.5	0.00e+00	0	29	0	405798912	52	6348
2026-01-15 02:45:43.28	252.18	14.07	-39.4	-40.4	21.7	0.00e+00	0	29	0	407896064	52	6027
2026-01-15 02:45:44.29	252.37	14.12	-39.8	-40.9	21.3	0.00e+00	0	29	0	408944640	52	6355
2026-01-15 02:45:45.30	252.56	14.16	-39.2	-40.2	21.8	0.00e+00	0	29	0	411041792	52	5887
2026-01-15 02:45:46.31	252.75	14.21	-38.8	-39.8	22.1	0.00e+00	0	29	0	413138944	52	5607
2026-01-15 02:45:47.32	252.94	14.25	-38.9	-39.9	21.9	0.00e+00	0	29	0	415236096	52	5674
2026-01-15 02:45:48.33	253.13	14.30	-38.9	-39.9	22.0	0.00e+00	0	29	0	417333248	52	5662
2026-01-15 02:45:49.34	253.32	14.34	-38.9	-39.9	22.1	0.00e+00	0	29	0	418381824	52	5669
2026-01-15 02:45:50.35	253.51	14.39	-39.1	-40.2	21.9	0.00e+00	0	29	0	420478976	52	5831
2026-01-15 02:45:51.36	253.70	14.43	-38.8	-39.9	22.1	0.00e+00	0	29	0	422576128	52	5648
2026-01-15 02:45:52.37	253.89	14.47	-39.0	-40.0	22.0	0.00e+00	0	29	0	424673280	52	5736
2026-01-15 02:45:53.37	254.09	14.52	-39.1	-40.1	21.9	0.00e+00	0	29	0	426770432	52	5809
2026-01-15 02:45:54.38	254.28	14.56	-38.8	-39.8	22.3	0.00e+00	0	29	0	428867584	52	5623
2026-01-15 02:45:55.39	254.47	14.60	-39.1	-40.1	21.9	0.00e+00	0	29	0	429916160	52	5814
2026-01-15 02:45:56.40	254.67	14.64	-39.3	-40.4	21.7	0.00e+00	0	29	0	432013312	52	6012
2026-01-15 02:45:57.41	254.86	14.69	-39.5	-40.6	21.4	0.00e+00	0	29	0	434110464	52	6121
2026-01-15 02:45:58.42	255.06	14.73	-39.5	-40.6	21.6	0.00e+00	0	29	0	436207616	52	6108
2026-01-15 02:45:59.43	255.25	14.77	-39.4	-40.5	21.6	0.00e+00	0	29	0	438304768	52	6103
2026-01-15 02:46:00.44	255.45	14.81	-39.3	-40.4	21.6	0.00e+00	0	29	0	439353344	52	6017
2026-01-15 02:46:01.45	255.65	14.85	-39.2	-40.3	21.8	0.00e+00	0	29	0	441450496	52	5940
2026-01-15 02:46:02.46	255.84	14.90	-39.0	-40.1	22.0	0.00e+00	0	29	0	443547648	52	5768
2026-01-15 02:46:03.47	256.04	14.94	-39.0	-40.0	22.1	0.00e+00	0	29	0	445644800	52	5736
2026-01-15 02:46:04.48	256.24	14.98	-39.1	-40.1	22.0	0.00e+00	0	29	0	447741952	52	5807
2026-01-15 02:46:05.49	256.44	15.02	-39.0	-40.0	22.0	0.00e+00	0	29	0	448790528	52	5747
2026-01-15 02:46:06.50	256.64	15.06	-39.1	-40.2	21.9	0.00e+00	0	29	0	450887680	52	5866
2026-01-15 02:46:07.51	256.84	15.10	-39.4	-40.5	21.6	0.00e+00	0	29	0	452984832	52	6071
2026-01-15 02:46:08.52	257.04	15.14	-39.7	-40.8	21.4	0.00e+00	0	29	0	455081984	52	6288
2026-01-15 02:46:09.53	257.24	15.18	-39.6	-40.8	21.4	0.00e+00	0	29	0	457179136	52	6252
2026-01-15 02:46:10.53	257.44	15.22	-39.6	-40.7	21.5	0.00e+00	0	29	0	458227712	52	6198
2026-01-15 02:46:11.54	257.64	15.25	-39.6	-40.7	21.4	0.00e+00	0	29	0	460324864	52	6214
2026-01-15 02:46:12.55	257.85	15.29	-39.6	-40.7	21.4	0.00e+00	0	29	0	462422016	52	6225
2026-01-15 02:46:13.56	258.05	15.33	-39.6	-40.7	21.4	0.00e+00	0	29	0	464519168	52	6244
2026-01-15 02:46:14.57	258.25	15.37	-39.8	-41.0	21.3	0.00e+00	0	29	0	466616320	52	6413
2026-01-15 02:46:15.58	258.46	15.41	-40.0	-41.2	21.0	0.00e+00	0	29	0	467664896	52	6596
2026-01-15 02:46:16.59	258.66	15.44	-40.1	-41.3	21.1	0.00e+00	0	29	0	469762048	52	6632
2026-01-15 02:46:17.60	258.87	15.48	-39.8	-41.0	21.1	0.00e+00	0	29	0	471859200	52	6418
2026-01-15 02:46:18.61	259.07	15.52	-39.6	-40.7	21.5	0.00e+00	0	29	0	473956352	52	6204
2026-01-15 02:46:19.62	259.28	15.55	-39.3	-40.3	21.8	0.00e+00	0	29	0	476053504	52	5947
2026-01-15 02:46:20.63	259.49	15.59	-39.1	-40.2	21.9	0.00e+00	0	29	0	477102080	52	5851
2026-01-15 02:46:21.64	259.69	15.63	-39.1	-40.2	22.0	0.00e+00	0	29	0	479199232	52	5850
2026-01-15 02:46:22.65	259.90	15.66	-39.0	-40.0	22.0	0.00e+00	0	29	0	481296384	52	5739
2026-01-15 02:46:23.65	260.11	15.70	-39.3	-40.3	21.7	0.00e+00	0	29	0	483393536	52	5961
2026-01-15 02:46:24.66	260.32	15.73	-39.7	-40.8	21.4	0.00e+00	0	29	0	485490688	52	6272
2026-01-15 02:46:25.67	260.53	15.77	-39.4	-40.5	21.6	0.00e+00	0	29	0	486539264	52	6059
2026-01-15 02:46:26.68	260.73	15.80	-39.5	-40.6	21.5	0.00e+00	0	29	0	488636416	52	6167
2026-01-15 02:46:27.69	260.94	15.84	-39.4	-40.5	21.5	0.00e+00	0	29	0	490733568	52	6089
2026-01-15 02:46:28.70	261.16	15.87	-39.3	-40.4	21.8	0.00e+00	0	29	0	492830720	52	5997
2026-01-15 02:46:29.70	261.36	15.90	-39.3	-40.4	21.6	0.00e+00	0	29	0	494927872	52	5980
2026-01-15 02:46:30.71	261.58	15.94	-39.3	-40.3	21.8	0.00e+00	0	29	0	497025024	52	5948
2026-01-15 02:46:31.72	261.79	15.97	-39.2	-40.3	21.7	0.00e+00	0	29	0	498073600	52	5924
2026-01-15 02:46:32.73	262.00	16.00	-39.0	-40.0	22.1	0.00e+00	0	29	0	500170752	52	5732
2026-01-15 02:46:33.74	262.21	16.03	-38.9	-39.9	22.1	0.00e+00	0	29	0	502267904	52	5687
2026-01-15 02:46:34.75	262.43	16.07	-38.6	-39.6	22.4	0.00e+00	0	29	0	504365056	50	6123
2026-01-15 02:46:35.75	262.64	16.10	-38.5	-39.5	22.5	0.00e+00	0	29	0	506462208	50	6073
2026-01-15 02:46:36.76	262.85	16.13	-38.4	-39.4	22.6	0.00e+00	0	29	0	507510784	50	6002
2026-01-15 02:46:37.77	263.07	16.16	-38.3	-39.3	22.6	0.00e+00	0	29	0	509607936	50	5906
2026-01-15 02:46:38.78	263.28	16.19	-38.0	-38.9	22.9	0.00e+00	0	29	0	511705088	50	5671
2026-01-15 02:46:39.79	263.50	16.22	-37.9	-38.8	22.9	0.00e+00	0	29	0	513802240	50	5612
2026-01-15 02:46:40.79	263.71	16.25	-38.1	-39.0	22.9	0.00e+00	0	29	0	514850816	50	5748
2026-01-15 02:46:41.80	263.93	16.28	-38.1	-39.0	22.9	0.00e+00	0	29	0	516947968	50	5721
2026-01-15 02:46:42.81	264.14	16.31	-38.2	-39.1	22.9	0.00e+00	0	29	0	519045120	50	5806
2026-01-15 02:46:43.82	264.36	16.34	-38.1	-39.0	22.8	0.00e+00	0	29	0	521142272	50	5735
2026-01-15 02:46:44.83	264.58	16.37	-38.1	-39.1	22.8	0.00e+00	0	29	0	523239424	50	5768
2026-01-15 02:46:45.84	264.79	16.39	-38.1	-39.1	22.9	0.00e+00	0	29	0	525336576	50	5763
2026-01-15 02:46:46.85	265.01	16.42	-38.0	-38.9	22.9	0.00e+00	0	29	0	526385152	50	5684
2026-01-15 02:46:47.86	265.23	16.45	-38.0	-38.9	22.9	0.00e+00	0	29	0	528482304	50	5671
2026-01-15 02:46:48.87	265.45	16.48	-38.5	-39.5	22.5	0.00e+00	0	29	0	530579456	50	6074
2026-01-15 02:46:49.88	265.67	16.50	-38.8	-39.8	22.1	0.00e+00	0	29	0	532676608	50	6275
2026-01-15 02:46:50.88	265.89	16.53	-39.0	-40.1	22.0	0.00e+00	0	29	0	534773760	50	6492
2026-01-15 02:46:51.89	266.11	16.56	-39.1	-40.1	21.9	0.00e+00	0	29	0	535822336	50	6514
2026-01-15 02:46:52.90	266.33	16.58	-39.1	-40.2	22.0	0.00e+00	0	29	0	537919488	50	6595
2026-01-15 02:46:53.91	266.55	16.61	-39.4	-40.5	21.7	0.00e+00	0	29	0	540016640	50	6794
2026-01-15 02:46:54.92	266.77	16.63	-39.0	-40.1	21.9	0.00e+00	0	29	0	542113792	50	6504
2026-01-15 02:46:55.93	266.99	16.66	-39.1	-40.2	21.8	0.00e+00	0	29	0	544210944	50	6581
2026-01-15 02:46:56.94	267.21	16.68	-39.1	-40.2	21.8	0.00e+00	0	29	0	545259520	50	6568
2026-01-15 02:46:57.95	267.43	16.70	-39.0	-40.0	21.9	0.00e+00	0	29	0	547356672	50	6459
2026-01-15 02:46:58.95	267.65	16.73	-38.8	-39.8	22.3	0.00e+00	0	29	0	549453824	50	6306
2026-01-15 02:46:59.96	267.88	16.75	-38.3	-39.2	22.7	0.00e+00	0	29	0	551550976	50	5895
2026-01-15 02:47:00.97	268.10	16.77	-38.1	-39.0	22.9	0.00e+00	0	29	0	553648128	50	5733
2026-01-15 02:47:01.98	268.32	16.79	-37.7	-38.6	23.2	0.00e+00	0	29	0	554696704	48	6158
2026-01-15 02:47:02.98	268.55	16.81	-37.8	-38.7	23.3	0.00e+00	0	29	0	556793856	48	6208
2026-01-15 02:47:03.99	268.77	16.84	-37.7	-38.6	23.1	0.00e+00	0	29	0	558891008	48	6121
2026-01-15 02:47:05.00	268.99	16.86	-38.1	-39.1	22.7	0.00e+00	0	29	0	560988160	48	6492
2026-01-15 02:47:06.01	269.22	16.88	-38.3	-39.3	22.6	0.00e+00	0	29	0	563085312	48	6663
2026-01-15 02:47:07.02	269.44	16.90	-38.5	-39.5	22.4	0.00e+00	0	29	0	564133888	48	6801
2026-01-15 02:47:08.03	269.67	16.92	-38.5	-39.5	22.3	0.00e+00	0	29	0	566231040	48	6842
2026-01-15 02:47:09.04	269.89	16.94	-38.6	-39.6	22.4	0.00e+00	0	29	0	568328192	48	6890
2026-01-15 02:47:10.05	270.12	16.96	-38.3	-39.3	22.6	0.00e+00	0	29	0	570425344	48	6671
2026-01-15 02:47:11.06	270.35	16.97	-38.3	-39.3	22.7	0.00e+00	0	29	0	572522496	48	6629
2026-01-15 02:47:12.07	270.57	16.99	-38.4	-39.4	22.6	0.00e+00	0	29	0	573571072	48	6700
2026-01-15 02:47:13.08	270.80	17.01	-38.6	-39.6	22.4	0.00e+00	0	29	0	575668224	48	6895
2026-01-15 02:47:14.09	271.03	17.03	-38.8	-39.9	22.1	0.00e+00	0	29	0	577765376	50	6340
2026-01-15 02:47:15.10	271.25	17.04	-38.7	-39.7	22.3	0.00e+00	0	29	0	579862528	50	6180
2026-01-15 02:47:16.10	271.48	17.06	-38.6	-39.6	22.4	0.00e+00	0	29	0	581959680	50	6145
2026-01-15 02:47:17.11	271.71	17.08	-38.1	-39.1	22.8	0.00e+00	0	29	0	583008256	50	5792
2026-01-15 02:47:18.12	271.93	17.09	-38.2	-39.1	22.8	0.00e+00	0	29	0	585105408	50	5814
2026-01-15 02:47:19.13	272.16	17.11	-37.7	-38.6	23.1	0.00e+00	0	29	0	587202560	48	6145
2026-01-15 02:47:20.14	272.39	17.12	-37.7	-38.6	23.2	0.00e+00	0	29	0	589299712	48	6129
2026-01-15 02:47:21.15	272.62	17.14	-38.0	-39.0	22.9	0.00e+00	0	29	0	591396864	48	6408
2026-01-15 02:47:22.16	272.85	17.15	-38.3	-39.2	22.7	0.00e+00	0	29	0	593494016	48	6606
2026-01-15 02:47:23.17	273.08	17.16	-38.3	-39.3	22.7	0.00e+00	0	29	0	594542592	48	6666
2026-01-15 02:47:24.18	273.30	17.18	-38.3	-39.3	22.6	0.00e+00	0	29	0	596639744	48	6672
2026-01-15 02:47:25.19	273.53	17.19	-38.1	-39.1	22.8	0.00e+00	0	29	0	598736896	48	6484
2026-01-15 02:47:26.20	273.76	17.20	-37.8	-38.7	23.0	0.00e+00	0	29	0	600834048	48	6206
2026-01-15 02:47:27.21	273.99	17.21	-37.7	-38.6	23.2	0.00e+00	0	30	0	602931200	48	6115
2026-01-15 02:47:28.21	274.22	17.22	-37.9	-38.8	23.0	0.00e+00	0	29	0	603979776	48	6273
2026-01-15 02:47:29.22	274.45	17.23	-38.3	-39.2	22.8	0.00e+00	0	29	0	606076928	48	6610
2026-01-15 02:47:30.23	274.68	17.25	-39.0	-40.0	22.0	0.00e+00	0	29	0	608174080	50	6446
2026-01-15 02:47:31.24	274.91	17.26	-39.3	-40.4	21.8	0.00e+00	0	29	0	610271232	50	6698
2026-01-15 02:47:32.25	275.14	17.26	-39.5	-40.6	21.5	0.00e+00	0	29	0	611319808	50	6885
2026-01-15 02:47:33.26	275.37	17.27	-39.3	-40.4	21.7	0.00e+00	0	30	0	613416960	50	6707
2026-01-15 02:47:34.27	275.60	17.28	-39.5	-40.6	21.7	0.00e+00	0	30	0	615514112	50	6849
2026-01-15 02:47:35.28	275.83	17.29	-39.4	-40.5	21.6	0.00e+00	0	30	0	617611264	50	6832
2026-01-15 02:47:36.29	276.06	17.30	-39.5	-40.6	21.5	0.00e+00	0	29	0	619708416	50	6906
2026-01-15 02:47:37.30	276.29	17.31	-39.8	-41.0	21.2	0.00e+00	0	29	0	621805568	52	6396
2026-01-15 02:47:38.31	276.52	17.31	-40.0	-41.2	21.0	0.00e+00	0	29	0	622854144	52	6542
2026-01-15 02:47:39.32	276.76	17.32	-40.0	-41.2	21.1	0.00e+00	0	30	0	624951296	52	6560
2026-01-15 02:47:40.33	276.99	17.33	-39.9	-41.1	21.3	0.00e+00	0	29	0	627048448	52	6476
2026-01-15 02:47:41.33	277.22	17.33	-39.6	-40.7	21.6	0.00e+00	0	29	0	629145600	52	6233
2026-01-15 02:47:42.35	277.45	17.34	-39.4	-40.4	21.7	0.00e+00	0	29	0	631242752	52	6031
2026-01-15 02:47:43.36	277.68	17.34	-39.4	-40.4	21.8	0.00e+00	0	29	0	632291328	52	6010
2026-01-15 02:47:44.37	277.91	17.34	-39.3	-40.4	21.8	0.00e+00	0	30	0	634388480	52	5990
2026-01-15 02:47:45.38	278.14	17.35	-39.4	-40.5	21.6	0.00e+00	0	29	0	636485632	52	6066
2026-01-15 02:47:46.38	278.37	17.35	-39.3	-40.4	21.7	0.00e+00	0	29	0	638582784	52	6021
2026-01-15 02:47:47.39	278.60	17.35	-39.0	-40.1	22.1	0.00e+00	0	29	0	640679936	52	5774
2026-01-15 02:47:48.40	278.84	17.36	-38.9	-40.0	22.0	0.00e+00	0	29	0	641728512	52	5702
2026-01-15 02:47:49.41	279.07	17.36	-38.6	-39.6	22.4	0.00e+00	0	29	0	643825664	50	6129
2026-01-15 02:47:50.41	279.30	17.36	-38.6	-39.6	22.4	0.00e+00	0	29	0	645922816	50	6139
2026-01-15 02:47:51.42	279.53	17.36	-38.8	-39.9	22.2	0.00e+00	0	29	0	648019968	50	6332
2026-01-15 02:47:52.43	279.76	17.36	-39.2	-40.2	22.0	0.00e+00	0	29	0	650117120	50	6606
2026-01-15 02:47:53.44	279.99	17.36	-39.0	-40.1	22.0	0.00e+00	0	29	0	651165696	50	6472
2026-01-15 02:47:54.45	280.22	17.36	-39.0	-40.0	22.1	0.00e+00	0	29	0	653262848	50	6422
2026-01-15 02:47:55.46	280.46	17.36	-39.1	-40.1	22.0	0.00e+00	0	29	0	655360000	50	6508
2026-01-15 02:47:56.47	280.69	17.36	-38.9	-39.9	22.2	0.00e+00	0	30	0	657457152	50	6387
2026-01-15 02:47:57.48	280.92	17.36	-38.8	-39.8	22.1	0.00e+00	0	30	0	659554304	50	6307
2026-01-15 02:47:58.49	281.15	17.36	-38.8	-39.9	22.1	0.00e+00	0	29	0	660602880	50	6319
2026-01-15 02:47:59.50	281.38	17.35	-38.9	-39.9	22.1	0.00e+00	0	29	0	662700032	50	6351
2026-01-15 02:48:00.51	281.61	17.35	-38.9	-39.9	22.2	0.00e+00	0	29	0	664797184	50	6375
2026-01-15 02:48:01.52	281.85	17.35	-38.9	-40.0	22.1	0.00e+00	0	30	0	666894336	50	6409
2026-01-15 02:48:02.53	282.08	17.34	-38.9	-39.9	22.0	0.00e+00	0	29	0	668991488	50	6337
2026-01-15 02:48:03.54	282.31	17.34	-38.8	-39.8	22.1	0.00e+00	0	30	0	670040064	50	6274
2026-01-15 02:48:04.55	282.54	17.34	-38.7	-39.7	22.2	0.00e+00	0	29	0	672137216	50	6174
2026-01-15 02:48:05.56	282.77	17.33	-38.3	-39.3	22.5	0.00e+00	0	29	0	674234368	50	5903
2026-01-15 02:48:06.57	283.00	17.32	-38.1	-39.0	22.7	0.00e+00	0	29	0	676331520	50	5759
2026-01-15 02:48:07.57	283.23	17.32	-38.2	-39.1	22.8	0.00e+00	0	29	0	678428672	50	5791
2026-01-15 02:48:08.58	283.46	17.31	-38.2	-39.1	22.8	0.00e+00	0	29	0	679477248	50	5821
2026-01-15 02:48:09.59	283.69	17.30	-38.3	-39.3	22.6	0.00e+00	0	29	0	681574400	50	5917
2026-01-15 02:48:10.59	283.92	17.30	-38.4	-39.4	22.5	0.00e+00	0	29	0	683671552	50	6009
2026-01-15 02:48:11.60	284.15	17.29	-38.4	-39.4	22.4	0.00e+00	0	29	0	685768704	50	6016
2026-01-15 02:48:12.61	284.38	17.28	-38.4	-39.4	22.5	0.00e+00	0	29	0	687865856	50	6001
2026-01-15 02:48:13.62	284.61	17.27	-38.5	-39.5	22.5	0.00e+00	0	29	0	689963008	50	6059
2026-01-15 02:48:14.63	284.84	17.26	-38.7	-39.7	22.3	0.00e+00	0	29	0	691011584	50	6208
2026-01-15 02:48:15.64	285.07	17.25	-38.8	-39.9	22.2	0.00e+00	0	29	0	693108736	50	6324
2026-01-15 02:48:16.65	285.30	17.24	-39.2	-40.3	21.9	0.00e+00	0	29	0	695205888	50	6630
2026-01-15 02:48:17.66	285.53	17.23	-39.0	-40.0	22.0	0.00e+00	0	29	0	697303040	50	6444
2026-01-15 02:48:18.67	285.76	17.22	-39.3	-40.4	21.9	0.00e+00	0	29	0	699400192	50	6698
2026-01-15 02:48:19.67	285.99	17.21	-39.0	-40.1	22.0	0.00e+00	0	29	0	700448768	50	6494
2026-01-15 02:48:20.68	286.22	17.20	-39.1	-40.2	21.9	0.00e+00	0	29	0	702545920	50	6583
2026-01-15 02:48:21.69	286.45	17.19	-39.1	-40.2	21.8	0.00e+00	0	29	0	704643072	50	6585
2026-01-15 02:48:22.70	286.68	17.18	-39.0	-40.1	22.1	0.00e+00	0	29	0	706740224	50	6470
2026-01-15 02:48:23.71	286.91	17.16	-39.1	-40.2	21.8	0.00e+00	0	29	0	708837376	50	6561
2026-01-15 02:48:24.72	287.13	17.15	-39.4	-40.5	21.7	0.00e+00	0	29	0	709885952	50	6791
2026-01-15 02:48:25.73	287.36	17.13	-39.5	-40.6	21.6	0.00e+00	0	29	0	711983104	50	6898
2026-01-15 02:48:26.74	287.59	17.12	-39.7	-40.8	21.4	0.00e+00	0	29	0	714080256	50	7085
2026-01-15 02:48:27.75	287.82	17.11	-39.4	-40.4	21.7	0.00e+00	0	29	0	716177408	50	6767
2026-01-15 02:48:28.76	288.05	17.09	-39.4	-40.5	21.5	0.00e+00	0	29	0	718274560	50	6788
2026-01-15 02:48:29.77	288.27	17.07	-38.9	-40.0	22.1	0.00e+00	0	29	0	719323136	50	6404
2026-01-15 02:48:30.78	288.50	17.06	-38.7	-39.7	22.3	0.00e+00	0	29	0	721420288	50	6199
2026-01-15 02:48:31.79	288.73	17.04	-38.5	-39.5	22.5	0.00e+00	0	29	0	723517440	50	6055
2026-01-15 02:48:32.79	288.95	17.03	-38.1	-39.0	22.8	0.00e+00	0	29	0	725614592	50	5727
2026-01-15 02:48:33.81	289.18	17.01	-38.1	-39.1	22.9	0.00e+00	0	29	0	727711744	50	5763
2026-01-15 02:48:34.82	289.41	16.99	-37.9	-38.9	23.0	0.00e+00	0	29	0	728760320	50	5636
2026-01-15 02:48:35.83	289.63	16.97	-37.8	-38.8	23.0	0.00e+00	0	30	0	730857472	48	6255
2026-01-15 02:48:36.83	289.86	16.95	-37.7	-38.7	23.1	0.00e+00	0	29	0	732954624	48	6175
2026-01-15 02:48:37.84	290.08	16.94	-37.8	-38.8	23.0	0.00e+00	0	29	0	735051776	48	6261
2026-01-15 02:48:38.85	290.31	16.92	-37.9	-38.8	23.0	0.00e+00	0	29	0	737148928	48	6268
2026-01-15 02:48:39.86	290.53	16.90	-38.1	-39.0	22.8	0.00e+00	0	29	0	738197504	48	6462
2026-01-15 02:48:40.87	290.76	16.88	-38.3	-39.3	22.6	0.00e+00	0	29	0	740294656	48	6646
2026-01-15 02:48:41.88	290.98	16.86	-38.4	-39.3	22.4	0.00e+00	0	30	0	742391808	48	6691
2026-01-15 02:48:42.89	291.20	16.84	-38.6	-39.6	22.3	0.00e+00	0	29	0	744488960	48	6859
2026-01-15 02:48:43.90	291.43	16.81	-38.7	-39.7	22.3	0.00e+00	0	30	0	746586112	50	6216
2026-01-15 02:48:44.90	291.65	16.79	-38.7	-39.7	22.1	0.00e+00	0	30	0	747634688	50	6184
2026-01-15 02:48:45.91	291.87	16.77	-38.6	-39.6	22.3	0.00e+00	0	29	0	749731840	50	6167
2026-01-15 02:48:46.92	292.09	16.75	-38.7	-39.7	22.3	0.00e+00	0	30	0	751828992	50	6201
2026-01-15 02:48:47.93	292.32	16.73	-38.5	-39.5	22.4	0.00e+00	0	30	0	753926144	50	6090
2026-01-15 02:48:48.94	292.54	16.70	-38.4	-39.3	22.6	0.00e+00	0	29	0	756023296	50	5948
2026-01-15 02:48:49.95	292.76	16.68	-38.3	-39.3	22.6	0.00e+00	0	29	0	757071872	50	5915
2026-01-15 02:48:50.96	292.98	16.65	-37.9	-38.9	23.0	0.00e+00	0	29	0	759169024	50	5640
2026-01-15 02:48:51.97	293.20	16.63	-38.0	-38.9	22.9	0.00e+00	0	29	0	761266176	50	5675
2026-01-15 02:48:52.98	293.42	16.61	-37.9	-38.9	23.1	0.00e+00	0	29	0	763363328	48	6318
2026-01-15 02:48:53.99	293.64	16.58	-37.7	-38.6	23.2	0.00e+00	0	29	0	765460480	48	6163
2026-01-15 02:48:55.00	293.86	16.55	-37.8	-38.8	23.1	0.00e+00	0	29	0	766509056	48	6265
2026-01-15 02:48:56.00	294.08	16.53	-37.7	-38.6	23.2	0.00e+00	0	29	0	768606208	48	6155
2026-01-15 02:48:57.01	294.30	16.50	-37.7	-38.6	23.2	0.00e+00	0	29	0	770703360	48	6129
2026-01-15 02:48:58.02	294.52	16.48	-37.6	-38.5	23.1	0.00e+00	0	29	0	772800512	48	6091
2026-01-15 02:48:59.03	294.74	16.45	-37.6	-38.5	23.1	0.00e+00	0	29	0	774897664	48	6067
2026-01-15 02:49:00.04	294.95	16.42	-37.7	-38.6	23.2	0.00e+00	0	29	0	775946240	48	6139
2026-01-15 02:49:01.05	295.17	16.39	-37.7	-38.6	23.2	0.00e+00	0	29	0	778043392	48	6137
2026-01-15 02:49:02.06	295.39	16.37	-37.9	-38.9	23.0	0.00e+00	0	29	0	780140544	48	6319
2026-01-15 02:49:03.06	295.60	16.34	-38.0	-38.9	22.9	0.00e+00	0	29	0	782237696	48	6382
2026-01-15 02:49:04.07	295.82	16.31	-38.0	-38.9	22.9	0.00e+00	0	29	0	784334848	48	6363
2026-01-15 02:49:05.08	296.03	16.28	-37.7	-38.7	23.1	0.00e+00	0	29	0	786432000	48	6192
2026-01-15 02:49:06.09	296.25	16.25	-37.8	-38.7	23.0	0.00e+00	0	29	0	787480576	48	6217
2026-01-15 02:49:07.10	296.47	16.22	-37.5	-38.4	23.2	0.00e+00	0	29	0	789577728	48	6027
2026-01-15 02:49:08.11	296.68	16.19	-37.5	-38.4	23.3	0.00e+00	0	29	0	791674880	48	5979
2026-01-15 02:49:09.12	296.89	16.16	-37.6	-38.5	23.3	0.00e+00	0	29	0	793772032	48	6044
2026-01-15 02:49:10.13	297.11	16.13	-37.5	-38.4	23.2	0.00e+00	0	29	0	795869184	48	6032
2026-01-15 02:49:11.14	297.32	16.10	-37.7	-38.6	23.1	0.00e+00	0	29	0	796917760	48	6155
2026-01-15 02:49:12.15	297.53	16.07	-37.9	-38.8	23.0	0.00e+00	0	29	0	799014912	48	6282
2026-01-15 02:49:13.16	297.75	16.04	-37.7	-38.6	23.0	0.00e+00	0	29	0	801112064	48	6165
2026-01-15 02:49:14.16	297.96	16.00	-37.7	-38.6	23.1	0.00e+00	0	29	0	803209216	48	6155
2026-01-15 02:49:15.17	298.17	15.97	-37.7	-38.7	23.2	0.00e+00	0	29	0	805306368	48	6196
2026-01-15 02:49:16.18	298.38	15.94	-37.5	-38.4	23.4	0.00e+00	0	29	0	806354944	48	6011
2026-01-15 02:49:17.19	298.59	15.91	-37.2	-38.1	23.6	0.00e+00	0	29	0	808452096	48	5782
2026-01-15 02:49:18.20	298.80	15.87	-37.0	-37.8	23.7	0.00e+00	0	29	0	810549248	48	5629
2026-01-15 02:49:19.21	299.01	15.84	-36.8	-37.6	24.0	0.00e+00	0	30	0	812646400	46	6169
2026-01-15 02:49:20.22	299.22	15.80	-36.8	-37.6	23.8	0.00e+00	0	29	0	814743552	46	6159
2026-01-15 02:49:21.23	299.43	15.77	-36.8	-37.6	23.9	0.00e+00	0	29	0	815792128	46	6150
2026-01-15 02:49:22.24	299.64	15.73	-36.8	-37.7	23.8	0.00e+00	0	29	0	817889280	46	6197
2026-01-15 02:49:23.25	299.84	15.70	-37.0	-37.8	23.7	0.00e+00	0	29	0	819986432	46	6315
2026-01-15 02:49:24.26	300.05	15.66	-37.3	-38.2	23.5	0.00e+00	0	29	0	822083584	46	6606
2026-01-15 02:49:25.27	300.26	15.63	-37.4	-38.3	23.4	0.00e+00	0	29	0	824180736	46	6686
2026-01-15 02:49:26.27	300.46	15.59	-37.5	-38.4	23.3	0.00e+00	0	29	0	825229312	46	6750
2026-01-15 02:49:27.28	300.67	15.56	-37.3	-38.2	23.5	0.00e+00	0	29	0	827326464	46	6599
2026-01-15 02:49:28.30	300.88	15.52	-37.2	-38.1	23.6	0.00e+00	0	29	0	829423616	46	6474
2026-01-15 02:49:29.30	301.08	15.48	-37.1	-38.0	23.7	0.00e+00	0	29	0	831520768	46	6414
2026-01-15 02:49:30.31	301.28	15.45	-37.1	-38.0	23.6	0.00e+00	0	29	0	833617920	46	6420
2026-01-15 02:49:31.32	301.49	15.41	-37.2	-38.1	23.5	0.00e+00	0	30	0	834666496	46	6525
2026-01-15 02:49:32.32	301.69	15.37	-37.5	-38.4	23.2	0.00e+00	0	29	0	836763648	46	6744
2026-01-15 02:49:33.33	301.89	15.34	-37.6	-38.6	23.2	0.00e+00	0	29	0	838860800	46	6858
2026-01-15 02:49:34.34	302.09	15.30	-37.6	-38.6	23.2	0.00e+00	0	29	0	840957952	46	6860
2026-01-15 02:49:35.35	302.30	15.26	-37.6	-38.5	23.2	0.00e+00	0	29	0	843055104	46	6831
2026-01-15 02:49:36.36	302.50	15.22	-37.7	-38.6	22.9	0.00e+00	0	29	0	844103680	46	6891
2026-01-15 02:49:37.37	302.70	15.18	-37.5	-38.4	23.2	0.00e+00	0	29	0	846200832	48	6001
2026-01-15 02:49:38.37	302.90	15.14	-37.5	-38.4	22.8	0.00e+00	0	29	0	848297984	48	5995
2026-01-15 02:49:39.38	303.10	15.10	-37.3	-38.1	23.4	0.00e+00	0	29	0	850395136	48	5814
2026-01-15 02:49:40.39	303.30	15.06	-37.2	-38.1	23.4	0.00e+00	0	29	0	852492288	48	5797
2026-01-15 02:49:41.40	303.50	15.02	-37.2	-38.0	23.5	0.00e+00	0	29	0	853540864	48	5749
2026-01-15 02:49:42.41	303.69	14.98	-37.3	-38.2	23.4	0.00e+00	0	29	0	855638016	48	5835
2026-01-15 02:49:43.42	303.89	14.94	-37.4	-38.3	23.3	0.00e+00	0	29	0	857735168	48	5922
2026-01-15 02:49:44.44	304.09	14.90	-37.5	-38.4	23.3	0.00e+00	0	29	0	859832320	48	5983
2026-01-15 02:49:45.44	304.29	14.86	-37.5	-38.4	23.2	0.00e+00	0	29	0	861929472	48	6008
2026-01-15 02:49:46.45	304.48	14.82	-37.4	-38.3	23.3	0.00e+00	0	29	0	862978048	48	5900
2026-01-15 02:49:47.46	304.68	14.78	-37.4	-38.3	23.4	0.00e+00	0	29	0	865075200	48	5922
2026-01-15 02:49:48.47	304.87	14.74	-37.4	-38.3	23.3	0.00e+00	0	29	0	867172352	48	5955
2026-01-15 02:49:49.48	305.07	14.69	-37.5	-38.5	23.3	0.00e+00	0	29	0	869269504	48	6039
2026-01-15 02:49:50.49	305.26	14.65	-37.4	-38.3	23.3	0.00e+00	0	29	0	871366656	48	5906
2026-01-15 02:49:51.50	305.46	14.61	-37.6	-38.5	23.2	0.00e+00	0	29	0	872415232	48	6071
2026-01-15 02:49:52.51	305.65	14.57	-37.5	-38.4	23.1	0.00e+00	0	29	0	874512384	48	6014
2026-01-15 02:49:53.51	305.84	14.53	-37.8	-38.7	23.0	0.00e+00	0	29	0	876609536	48	6231
2026-01-15 02:49:54.52	306.03	14.48	-38.0	-38.9	22.8	0.00e+00	0	30	0	878706688	48	6375
2026-01-15 02:49:55.53	306.22	14.44	-38.4	-39.4	22.5	0.00e+00	0	29	0	880803840	48	6703
2026-01-15 02:49:56.54	306.41	14.40	-38.6	-39.6	22.1	0.00e+00	0	30	0	882900992	48	6916
2026-01-15 02:49:57.55	306.60	14.35	-38.9	-40.0	21.9	0.00e+00	0	29	0	883949568	50	6427
2026-01-15 02:49:58.56	306.79	14.31	-39.1	-40.2	21.8	0.00e+00	0	29	0	886046720	50	6551
2026-01-15 02:49:59.57	306.98	14.26	-38.8	-39.9	22.2	0.00e+00	0	29	0	888143872	50	6318
2026-01-15 02:50:00.57	307.17	14.22	-38.8	-39.8	22.1	0.00e+00	0	29	0	890241024	50	6288
2026-01-15 02:50:01.58	307.36	14.18	-38.7	-39.8	22.1	0.00e+00	0	29	0	892338176	50	6270
2026-01-15 02:50:02.59	307.55	14.13	-38.5	-39.5	22.4	0.00e+00	0	29	0	893386752	50	6068
2026-01-15 02:50:03.60	307.73	14.09	-38.4	-39.4	22.5	0.00e+00	0	29	0	895483904	50	6000
2026-01-15 02:50:04.61	307.92	14.04	-38.3	-39.3	22.5	0.00e+00	0	29	0	897581056	50	5955
2026-01-15 02:50:05.62	308.10	14.00	-38.5	-39.5	22.4	0.00e+00	0	29	0	899678208	50	6063
2026-01-15 02:50:06.63	308.29	13.95	-38.6	-39.6	22.3	0.00e+00	0	29	0	901775360	50	6111
2026-01-15 02:50:07.64	308.48	13.91	-38.8	-39.8	22.2	0.00e+00	0	29	0	902823936	50	6265
2026-01-15 02:50:08.65	308.66	13.86	-38.9	-39.9	22.0	0.00e+00	0	29	0	904921088	50	6374
2026-01-15 02:50:09.65	308.84	13.81	-39.1	-40.2	21.8	0.00e+00	0	29	0	907018240	50	6547
2026-01-15 02:50:10.66	309.02	13.77	-39.3	-40.4	21.7	0.00e+00	0	29	0	909115392	50	6700
2026-01-15 02:50:11.67	309.21	13.72	-39.1	-40.1	21.8	0.00e+00	0	29	0	911212544	50	6514
2026-01-15 02:50:12.68	309.39	13.67	-39.0	-40.1	22.0	0.00e+00	0	29	0	912261120	50	6483
2026-01-15 02:50:13.69	309.57	13.63	-39.0	-40.0	21.9	0.00e+00	0	29	0	914358272	50	6434
2026-01-15 02:50:14.70	309.75	13.58	-38.9	-39.9	22.0	0.00e+00	0	29	0	916455424	50	6352
2026-01-15 02:50:15.71	309.93	13.53	-38.9	-40.0	22.0	0.00e+00	0	29	0	918552576	50	6421
2026-01-15 02:50:16.72	310.11	13.49	-38.8	-39.8	22.1	0.00e+00	0	29	0	920649728	50	6304
2026-01-15 02:50:17.73	310.29	13.44	-38.9	-40.0	21.9	0.00e+00	0	29	0	921698304	50	6410
2026-01-15 02:50:18.74	310.47	13.39	-39.2	-40.3	21.7	0.00e+00	0	29	0	923795456	50	6635
2026-01-15 02:50:19.75	310.65	13.34	-39.2	-40.3	21.7	0.00e+00	0	29	0	925892608	50	6655
2026-01-15 02:50:20.75	310.82	13.30	-39.3	-40.4	21.5	0.00e+00	0	29	0	927989760	50	6717
2026-01-15 02:50:21.76	311.00	13.25	-39.3	-40.4	21.4	0.00e+00	0	29	0	930086912	50	6767
2026-01-15 02:50:22.77	311.18	13.20	-39.4	-40.5	21.4	0.00e+00	0	29	0	931135488	50	6817
2026-01-15 02:50:23.78	311.35	13.15	-39.4	-40.6	21.3	0.00e+00	0	29	0	933232640	50	6863
2026-01-15 02:50:24.79	311.53	13.10	-39.8	-41.0	21.1	0.00e+00	0	29	0	935329792	50	7203
2026-01-15 02:50:25.80	311.70	13.06	-39.9	-41.1	21.0	0.00e+00	0	29	0	937426944	52	6472
2026-01-15 02:50:26.81	311.88	13.01	-40.1	-41.3	20.8	0.00e+00	0	29	0	939524096	52	6651
2026-01-15 02:50:27.82	312.05	12.96	-40.3	-41.6	20.6	0.00e+00	0	29	0	940572672	52	6864
2026-01-15 02:50:28.82	312.22	12.91	-40.0	-41.3	20.9	0.00e+00	0	29	0	942669824	52	6627
2026-01-15 02:50:29.83	312.39	12.86	-40.0	-41.2	20.9	0.00e+00	0	29	0	944766976	52	6579
2026-01-15 02:50:30.84	312.57	12.81	-39.5	-40.7	21.3	0.00e+00	0	29	0	946864128	52	6228
2026-01-15 02:50:31.85	312.74	12.76	-39.1	-40.2	21.8	0.00e+00	0	30	0	948961280	52	5835
2026-01-15 02:50:32.86	312.91	12.71	-39.0	-40.1	21.7	0.00e+00	0	29	0	951058432	52	5784
2026-01-15 02:50:33.87	313.08	12.66	-38.7	-39.8	22.1	0.00e+00	0	29	0	952107008	52	5595
2026-01-15 02:50:34.88	313.25	12.61	-38.8	-39.8	22.0	0.00e+00	0	29	0	954204160	50	6289
2026-01-15 02:50:35.88	313.42	12.56	-38.7	-39.7	22.0	0.00e+00	0	29	0	956301312	50	6241
2026-01-15 02:50:36.89	313.58	12.51	-38.8	-39.8	22.0	0.00e+00	0	29	0	958398464	50	6303
2026-01-15 02:50:37.90	313.75	12.46	-38.9	-40.0	22.0	0.00e+00	0	29	0	959447040	50	6402
2026-01-15 02:50:38.91	313.92	12.41	-39.1	-40.2	21.7	0.00e+00	0	29	0	961544192	50	6543
2026-01-15 02:50:39.92	314.09	12.36	-39.1	-40.3	21.6	0.00e+00	0	29	0	963641344	50	6623
2026-01-15 02:50:40.93	314.25	12.31	-39.0	-40.1	21.8	0.00e+00	0	29	0	965738496	50	6523
2026-01-15 02:50:41.94	314.42	12.26	-39.2	-40.3	21.5	0.00e+00	0	29	0	967835648	50	6645
2026-01-15 02:50:42.95	314.59	12.21	-39.1	-40.2	21.7	0.00e+00	0	29	0	968884224	50	6544
2026-01-15 02:50:43.96	314.75	12.16	-39.3	-40.4	21.3	0.00e+00	0	29	0	970981376	50	6739
2026-01-15 02:50:44.97	314.91	12.11	-39.6	-40.8	21.2	0.00e+00	0	29	0	973078528	50	7025
2026-01-15 02:50:45.98	315.08	12.06	-39.5	-40.7	21.2	0.00e+00	0	29	0	975175680	50	6937
2026-01-15 02:50:46.99	315.24	12.01	-39.6	-40.8	21.1	0.00e+00	0	30	0	977272832	50	7058
2026-01-15 02:50:47.99	315.40	11.96	-39.8	-41.0	21.0	0.00e+00	0	29	0	979369984	52	6413
2026-01-15 02:50:49.00	315.56	11.91	-39.9	-41.1	20.7	0.00e+00	0	29	0	980418560	52	6504
2026-01-15 02:50:50.01	315.73	11.85	-40.0	-41.2	20.8	0.00e+00	0	29	0	982515712	52	6605
2026-01-15 02:50:51.02	315.89	11.80	-39.9	-41.1	20.9	0.00e+00	0	29	0	984612864	52	6520
2026-01-15 02:50:52.03	316.05	11.75	-39.8	-41.1	21.0	0.00e+00	0	29	0	986710016	52	6484
2026-01-15 02:50:53.04	316.21	11.70	-39.8	-41.1	20.9	0.00e+00	0	29	0	988807168	52	6476
2026-01-15 02:50:54.05	316.37	11.65	-39.7	-40.9	21.1	0.00e+00	0	29	0	989855744	52	6356
2026-01-15 02:50:55.06	316.52	11.60	-39.8	-41.0	21.0	0.00e+00	0	29	0	991952896	52	6447
2026-01-15 02:50:56.07	316.68	11.54	-39.6	-40.8	21.2	0.00e+00	0	29	0	994050048	52	6257
2026-01-15 02:50:57.08	316.84	11.49	-39.6	-40.7	21.1	0.00e+00	0	29	0	996147200	52	6238
2026-01-15 02:50:58.09	317.00	11.44	-39.5	-40.6	21.3	0.00e+00	0	29	0	998244352	52	6154
2026-01-15 02:50:59.09	317.15	11.39	-39.5	-40.7	21.2	0.00e+00	0	30	0	999292928	52	6192
2026-01-15 02:51:00.10	317.31	11.34	-39.2	-40.3	21.6	0.00e+00	0	30	0	1001390080	52	5943
2026-01-15 02:51:01.12	317.47	11.28	-38.9	-39.9	21.9	0.00e+00	0	29	0	1003487232	52	5687
2026-01-15 02:51:02.13	317.62	11.23	-38.8	-39.9	21.8	0.00e+00	0	29	0	1005584384	52	5663
2026-01-15 02:51:03.13	317.77	11.18	-38.6	-39.6	22.1	0.00e+00	0	30	0	1007681536	50	6165
2026-01-15 02:51:04.14	317.93	11.13	-38.5	-39.5	22.0	0.00e+00	0	29	0	1008730112	50	6102
2026-01-15 02:51:05.15	318.08	11.07	-38.3	-39.4	22.3	0.00e+00	0	29	0	1010827264	50	5967
2026-01-15 02:51:06.16	318.23	11.02	-38.4	-39.5	22.2	0.00e+00	0	29	0	1012924416	50	6047
2026-01-15 02:51:07.17	318.39	10.97	-38.6	-39.6	22.0	0.00e+00	0	30	0	1015021568	50	6151
2026-01-15 02:51:08.18	318.54	10.92	-38.5	-39.6	22.1	0.00e+00	0	29	0	1017118720	50	6107
2026-01-15 02:51:09.19	318.69	10.86	-38.4	-39.4	22.1	0.00e+00	0	29	0	1018167296	50	6017
2026-01-15 02:51:10.20	318.84	10.81	-38.7	-39.8	21.8	0.00e+00	0	30	0	1020264448	50	6266
2026-01-15 02:51:11.21	318.99	10.76	-38.7	-39.8	21.8	0.00e+00	0	29	0	1022361600	50	6296
2026-01-15 02:51:12.22	319.14	10.70	-38.7	-39.8	21.9	0.00e+00	0	30	0	1024458752	50	6292
2026-01-15 02:51:13.23	319.29	10.65	-38.6	-39.7	21.9	0.00e+00	0	30	0	1026555904	50	6179
2026-01-15 02:51:14.23	319.44	10.60	-38.6	-39.7	22.1	0.00e+00	0	30	0	1027604480	50	6208
2026-01-15 02:51:15.24	319.58	10.55	-38.9	-40.0	21.7	0.00e+00	0	29	0	1029701632	50	6394
2026-01-15 02:51:16.25	319.73	10.49	-38.6	-39.7	22.0	0.00e+00	0	30	0	1031798784	50	6195
2026-01-15 02:51:17.26	319.88	10.44	-38.4	-39.5	22.2	0.00e+00	0	29	0	1033895936	50	6047
2026-01-15 02:51:18.27	320.02	10.39	-38.4	-39.5	22.2	0.00e+00	0	29	0	1035993088	50	6049
2026-01-15 02:51:19.28	320.17	10.33	-38.3	-39.3	22.3	0.00e+00	0	29	0	1037041664	50	5931
2026-01-15 02:51:20.28	320.31	10.28	-38.3	-39.3	22.2	0.00e+00	0	29	0	1039138816	50	5943
2026-01-15 02:51:21.29	320.46	10.23	-38.4	-39.5	22.1	0.00e+00	0	30	0	1041235968	50	6061
2026-01-15 02:51:22.29	320.60	10.17	-38.6	-39.7	22.0	0.00e+00	0	29	0	1043333120	50	6188
2026-01-15 02:51:23.30	320.75	10.12	-38.7	-39.7	21.9	0.00e+00	0	29	0	1045430272	50	6244
2026-01-15 02:51:24.31	320.89	10.07	-38.7	-39.7	21.9	0.00e+00	0	29	0	1047527424	50	6239
2026-01-15 02:51:25.32	321.03	10.01	-38.6	-39.6	21.9	0.00e+00	0	29	0	1048576000	50	6159
2026-01-15 02:51:26.33	321.18	9.96	-38.6	-39.7	21.8	0.00e+00	0	30	0	1050673152	50	6187
2026-01-15 02:51:27.34	321.32	9.91	-38.6	-39.7	21.9	0.00e+00	0	30	0	1052770304	50	6225
2026-01-15 02:51:28.35	321.46	9.85	-38.2	-39.2	22.4	0.00e+00	0	29	0	1054867456	50	5872
2026-01-15 02:51:29.36	321.60	9.80	-38.1	-39.1	22.4	0.00e+00	0	30	0	1056964608	50	5788
2026-01-15 02:51:30.37	321.74	9.74	-38.0	-39.0	22.6	0.00e+00	0	30	0	1058013184	50	5708
2026-01-15 02:51:31.38	321.88	9.69	-37.9	-38.8	22.6	0.00e+00	0	29	0	1060110336	50	5614
2026-01-15 02:51:32.39	322.02	9.64	-37.7	-38.7	22.6	0.00e+00	0	29	0	1062207488	48	6179
2026-01-15 02:51:33.39	322.16	9.58	-37.6	-38.5	22.8	0.00e+00	0	29	0	1064304640	48	6085
2026-01-15 02:51:34.40	322.30	9.53	-37.6	-38.6	22.9	0.00e+00	0	30	0	1065353216	48	6121
2026-01-15 02:51:35.41	322.43	9.48	-37.8	-38.8	22.7	0.00e+00	0	29	0	1067450368	48	6261
2026-01-15 02:51:36.42	322.57	9.42	-37.7	-38.7	22.7	0.00e+00	0	29	0	1069547520	48	6208
2026-01-15 02:51:37.42	322.71	9.37	-38.0	-39.0	22.4	0.00e+00	0	29	0	1071644672	48	6456
2026-01-15 02:51:38.43	322.84	9.31	-38.1	-39.1	22.3	0.00e+00	0	29	0	1073741824	48	6516
2026-01-15 02:51:39.44	322.98	9.26	-38.1	-39.2	22.3	0.00e+00	0	30	0	1075838976	48	6540
2026-01-15 02:51:40.45	323.11	9.21	-38.3	-39.4	22.2	0.00e+00	0	30	0	1076887552	48	6701
2026-01-15 02:51:41.46	323.25	9.15	-38.2	-39.3	22.2	0.00e+00	0	29	0	1078984704	48	6633
2026-01-15 02:51:42.47	323.38	9.10	-38.4	-39.4	22.1	0.00e+00	0	30	0	1081081856	48	6762
2026-01-15 02:51:43.48	323.52	9.04	-38.4	-39.5	22.0	0.00e+00	0	29	0	1083179008	48	6799
2026-01-15 02:51:44.49	323.65	8.99	-38.4	-39.5	22.0	0.00e+00	0	29	0	1085276160	48	6812
2026-01-15 02:51:45.49	323.78	8.94	-38.7	-39.8	21.7	0.00e+00	0	29	0	1086324736	48	7067
2026-01-15 02:51:46.50	323.92	8.88	-39.0	-40.1	21.5	0.00e+00	0	30	0	1088421888	50	6535
2026-01-15 02:51:47.51	324.05	8.83	-38.9	-40.1	21.5	0.00e+00	0	30	0	1090519040	50	6475
2026-01-15 02:51:48.52	324.18	8.77	-39.1	-40.2	21.4	0.00e+00	0	30	0	1092616192	50	6573
2026-01-15 02:51:49.53	324.31	8.72	-39.0	-40.1	21.4	0.00e+00	0	30	0	1094713344	50	6526
2026-01-15 02:51:50.54	324.44	8.67	-38.9	-40.0	21.5	0.00e+00	0	29	0	1095761920	50	6422
2026-01-15 02:51:51.55	324.57	8.61	-39.0	-40.1	21.5	0.00e+00	0	29	0	1097859072	50	6498
2026-01-15 02:51:52.56	324.70	8.56	-39.0	-40.1	21.6	0.00e+00	0	29	0	1099956224	50	6508
2026-01-15 02:51:53.57	324.83	8.50	-38.9	-40.0	21.6	0.00e+00	0	30	0	1102053376	50	6417
2026-01-15 02:51:54.57	324.96	8.45	-38.7	-39.8	21.7	0.00e+00	0	30	0	1104150528	50	6270
2026-01-15 02:51:55.58	325.09	8.40	-38.5	-39.6	22.1	0.00e+00	0	30	0	1105199104	50	6145
2026-01-15 02:51:56.59	325.22	8.34	-38.3	-39.3	22.0	0.00e+00	0	29	0	1107296256	50	5946
2026-01-15 02:51:57.60	325.34	8.29	-38.2	-39.2	22.1	0.00e+00	0	29	0	1109393408	50	5864
2026-01-15 02:51:58.60	325.47	8.23	-38.2	-39.2	22.2	0.00e+00	0	29	0	1111490560	50	5872
2026-01-15 02:51:59.61	325.60	8.18	-38.2	-39.2	22.2	0.00e+00	0	29	0	1113587712	50	5893
2026-01-15 02:52:00.62	325.72	8.13	-38.3	-39.3	22.1	0.00e+00	0	30	0	1114636288	50	5935
2026-01-15 02:52:01.63	325.85	8.07	-38.4	-39.5	22.0	0.00e+00	0	30	0	1116733440	50	6036
2026-01-15 02:52:02.64	325.97	8.02	-38.7	-39.8	21.7	0.00e+00	0	29	0	1118830592	50	6280
2026-01-15 02:52:03.65	326.10	7.96	-38.7	-39.8	21.7	0.00e+00	0	29	0	1120927744	50	6255
2026-01-15 02:52:04.66	326.22	7.91	-38.8	-39.9	21.6	0.00e+00	0	29	0	1123024896	50	6373
2026-01-15 02:52:05.67	326.35	7.85	-39.0	-40.2	21.3	0.00e+00	0	30	0	1124073472	50	6552
2026-01-15 02:52:06.68	326.47	7.80	-39.2	-40.3	21.2	0.00e+00	0	30	0	1126170624	50	6681
2026-01-15 02:52:07.69	326.59	7.75	-39.3	-40.5	21.1	0.00e+00	0	29	0	1128267776	50	6812
2026-01-15 02:52:08.70	326.72	7.69	-39.2	-40.4	21.2	0.00e+00	0	29	0	1130364928	50	6699
2026-01-15 02:52:09.71	326.84	7.64	-39.1	-40.2	21.2	0.00e+00	0	29	0	1132462080	50	6609
2026-01-15 02:52:10.72	326.96	7.58	-39.1	-40.3	21.1	0.00e+00	0	29	0	1133510656	50	6639
2026-01-15 02:52:11.73	327.08	7.53	-39.3	-40.4	21.0	0.00e+00	0	29	0	1135607808	50	6751
2026-01-15 02:52:12.73	327.20	7.48	-39.1	-40.3	21.2	0.00e+00	0	29	0	1137704960	50	6660
2026-01-15 02:52:13.74	327.32	7.42	-39.3	-40.5	21.0	0.00e+00	0	30	0	1139802112	50	6806
2026-01-15 02:52:14.75	327.44	7.37	-39.5	-40.7	20.8	0.00e+00	0	30	0	1141899264	50	7002
2026-01-15 02:52:15.76	327.56	7.31	-39.4	-40.6	21.0	0.00e+00	0	29	0	1143996416	50	6916
2026-01-15 02:52:16.77	327.68	7.26	-39.5	-40.7	20.8	0.00e+00	0	30	0	1145044992	50	6964
2026-01-15 02:52:17.77	327.80	7.21	-39.7	-40.9	20.6	0.00e+00	0	30	0	1147142144	50	7159
2026-01-15 02:52:18.78	327.92	7.15	-39.9	-41.2	20.3	0.00e+00	0	30	0	1149239296	52	6565
2026-01-15 02:52:19.79	328.03	7.10	-40.0	-41.3	20.3	0.00e+00	0	30	0	1151336448	52	6632
2026-01-15 02:52:20.80	328.15	7.04	-40.1	-41.5	20.0	0.00e+00	0	29	0	1152385024	52	6775
2026-01-15 02:52:21.81	328.27	6.99	-40.1	-41.5	20.0	0.00e+00	0	29	0	1154482176	52	6806
2026-01-15 02:52:22.82	328.39	6.94	-40.3	-41.7	19.9	0.00e+00	0	30	0	1156579328	52	7000
2026-01-15 02:52:23.83	328.50	6.88	-40.1	-41.4	20.1	0.00e+00	0	30	0	1158676480	52	6750
2026-01-15 02:52:24.84	328.62	6.83	-40.1	-41.4	20.2	0.00e+00	0	29	0	1160773632	52	6766
2026-01-15 02:52:25.85	328.73	6.77	-40.0	-41.3	20.2	0.00e+00	0	30	0	1161822208	52	6663
2026-01-15 02:52:26.85	328.85	6.72	-40.0	-41.4	20.2	0.00e+00	0	29	0	1163919360	52	6714
2026-01-15 02:52:27.87	328.96	6.67	-40.1	-41.5	19.9	0.00e+00	0	30	0	1166016512	52	6801
2026-01-15 02:52:28.87	329.08	6.61	-40.0	-41.4	19.9	0.00e+00	0	30	0	1168113664	52	6695
2026-01-15 02:52:29.88	329.19	6.56	-40.2	-41.5	20.0	0.00e+00	0	30	0	1170210816	52	6825
2026-01-15 02:52:30.89	329.30	6.51	-40.4	-41.9	19.7	0.00e+00	0	30	0	1172307968	52	7092
2026-01-15 02:52:31.90	329.42	6.45	-40.3	-41.7	19.9	0.00e+00	0	30	0	1173356544	52	6942
2026-01-15 02:52:32.91	329.53	6.40	-40.5	-42.0	19.6	0.00e+00	0	30	0	1175453696	52	7187
2026-01-15 02:52:33.92	329.64	6.34	-40.5	-41.9	19.5	0.00e+00	0	30	0	1177550848	52	7131
2026-01-15 02:52:34.93	329.75	6.29	-40.7	-42.1	19.5	0.00e+00	0	30	0	1179648000	52	7322
2026-01-15 02:52:35.94	329.87	6.24	-40.6	-42.1	19.4	0.00e+00	0	30	0	1181745152	54	6506
2026-01-15 02:52:36.94	329.98	6.18	-40.6	-42.1	19.5	0.00e+00	0	30	0	1182793728	54	6480
2026-01-15 02:52:37.96	330.09	6.13	-40.5	-41.9	19.6	0.00e+00	0	30	0	1184890880	54	6360
2026-01-15 02:52:38.97	330.20	6.08	-40.3	-41.7	19.8	0.00e+00	0	30	0	1186988032	54	6189
2026-01-15 02:52:39.97	330.31	6.02	-39.9	-41.2	20.2	0.00e+00	0	30	0	1189085184	54	5888
2026-01-15 02:52:40.99	330.42	5.97	-39.8	-41.1	20.3	0.00e+00	0	29	0	1191182336	52	6472
2026-01-15 02:52:42.00	330.53	5.92	-39.7	-41.0	20.5	0.00e+00	0	30	0	1192230912	52	6391
2026-01-15 02:52:43.00	330.63	5.86	-39.7	-40.9	20.5	0.00e+00	0	30	0	1194328064	52	6367
2026-01-15 02:52:44.02	330.74	5.81	-39.7	-40.9	20.5	0.00e+00	0	29	0	1196425216	52	6373
2026-01-15 02:52:45.03	330.85	5.75	-39.6	-40.9	20.6	0.00e+00	0	30	0	1198522368	52	6332
2026-01-15 02:52:46.04	330.96	5.70	-39.8	-41.1	20.3	0.00e+00	0	30	0	1200619520	52	6533
2026-01-15 02:52:47.05	331.07	5.65	-39.8	-41.1	20.2	0.00e+00	0	30	0	1201668096	52	6474
2026-01-15 02:52:48.06	331.17	5.59	-40.2	-41.6	19.8	0.00e+00	0	30	0	1203765248	52	6894
