passes_logs/2026/01/15/R4.6S_Anadyr/R4.6S_Anadyr__20260115_232026_NOAA_20_JPSS-1_rec.log

#Pass ID: 20260115_232026_NOAA 20 (JPSS-1)
#Satellite: NOAA 20 (JPSS-1)
#Configuration: NOAA 20
#almurnet v.1.7.20251203
#Start time: 2026-01-15 23:20:28

#Version: 2.2.20231116
#Station: R4.6S_Anadyr
#Location: 177.4865 lon 64.73178 lat
#TLE: 1 43013U 17073A   26014.55467351  .00000038  00000+0  38801-4 0  9992
#TLE: 2 43013  98.7635 315.4987 0001517  39.9279 320.2008 14.19535859422677

#Time	Az	El	Level	Level2	SNR	BER	BlckErr	Temp	State	Recorded	gain1	gain2
2026-01-15 23:20:28.34	134.68	0.08	-48.1	-63.0	3.5	1.51e+00	0	26	0	0	60	50850
2026-01-15 23:20:29.35	134.66	0.14	-48.4	-63.6	3.6	1.51e+00	0	27	104	0	60	54794
2026-01-15 23:20:30.35	134.64	0.20	-48.3	-63.5	3.6	1.51e+00	0	27	104	0	60	54275
2026-01-15 23:20:31.36	134.61	0.26	-48.4	-63.6	3.6	1.51e+00	0	27	104	0	60	54804
2026-01-15 23:20:32.37	134.59	0.32	-48.4	-63.6	3.6	1.51e+00	0	27	104	0	60	54691
2026-01-15 23:20:33.39	134.57	0.38	-48.3	-63.5	3.6	1.51e+00	0	28	104	0	60	54269
2026-01-15 23:20:34.39	134.55	0.44	-48.3	-63.5	3.6	1.51e+00	0	28	104	0	60	54101
2026-01-15 23:20:35.40	134.53	0.50	-48.3	-63.5	3.6	1.51e+00	0	28	104	0	60	53843
2026-01-15 23:20:36.41	134.51	0.56	-48.2	-63.4	3.6	1.51e+00	0	28	104	0	60	53423
2026-01-15 23:20:37.42	134.49	0.63	-48.1	-63.3	3.6	1.51e+00	0	28	104	0	60	53120
2026-01-15 23:20:38.43	134.46	0.69	-47.8	-63.3	3.6	1.51e+00	0	28	104	0	60	52826
2026-01-15 23:20:39.44	134.44	0.75	-47.7	-63.1	3.6	1.51e+00	0	28	104	0	60	51933
2026-01-15 23:20:40.45	134.42	0.81	-47.7	-63.1	3.6	1.51e+00	0	28	104	0	60	51681
2026-01-15 23:20:41.46	134.40	0.87	-47.8	-63.0	3.6	1.51e+00	0	28	104	0	60	50847
2026-01-15 23:20:42.47	134.38	0.93	-47.4	-62.8	3.6	1.51e+00	0	28	104	0	60	49718
2026-01-15 23:20:43.48	134.35	0.99	-47.2	-62.6	3.6	1.51e+00	0	28	104	0	60	48590
2026-01-15 23:20:44.49	134.33	1.06	-47.0	-62.2	3.6	1.51e+00	0	28	104	0	60	46646
2026-01-15 23:20:45.50	134.31	1.12	-45.8	-61.7	3.6	1.51e+00	0	28	104	0	60	44185
2026-01-15 23:20:46.51	134.29	1.18	-45.7	-61.8	3.6	1.51e+00	0	28	104	0	60	44253
2026-01-15 23:20:47.52	134.26	1.24	-45.6	-61.5	3.6	1.51e+00	0	28	104	0	60	42858
2026-01-15 23:20:48.53	134.24	1.30	-45.7	-61.8	3.6	1.51e+00	0	28	104	0	60	44450
2026-01-15 23:20:49.54	134.22	1.37	-45.6	-61.7	3.6	1.51e+00	0	28	104	0	60	43795
2026-01-15 23:20:50.55	134.19	1.43	-45.6	-61.7	3.6	1.51e+00	0	28	104	0	60	43968
2026-01-15 23:20:51.56	134.17	1.49	-45.7	-61.7	3.6	1.51e+00	0	28	104	0	60	44161
2026-01-15 23:20:52.56	134.15	1.56	-45.7	-61.8	3.6	1.51e+00	0	28	104	0	60	44482
2026-01-15 23:20:53.57	134.12	1.62	-45.6	-61.8	3.6	1.51e+00	0	28	104	0	60	44397
2026-01-15 23:20:54.59	134.10	1.68	-45.7	-61.7	3.6	1.51e+00	0	28	104	0	60	44205
2026-01-15 23:20:55.60	134.08	1.75	-45.7	-61.7	3.6	1.51e+00	0	28	104	0	60	44081
2026-01-15 23:20:56.61	134.05	1.81	-45.6	-61.6	3.6	1.51e+00	0	28	104	0	60	43444
2026-01-15 23:20:57.62	134.03	1.87	-45.6	-61.5	3.6	1.51e+00	0	28	104	0	60	43079
2026-01-15 23:20:58.63	134.00	1.94	-45.6	-61.5	3.6	1.51e+00	0	28	104	0	60	42932
2026-01-15 23:20:59.63	133.98	2.00	-45.6	-61.3	3.6	1.51e+00	0	28	104	0	60	41835
2026-01-15 23:21:00.64	133.96	2.06	-45.6	-61.5	3.6	1.51e+00	0	28	104	0	60	42881
2026-01-15 23:21:01.65	133.93	2.13	-45.6	-61.6	3.6	1.51e+00	0	28	104	0	60	43534
2026-01-15 23:21:02.66	133.91	2.19	-45.6	-61.7	3.6	1.51e+00	0	28	104	0	60	43806
2026-01-15 23:21:03.67	133.88	2.26	-45.6	-61.7	3.6	1.51e+00	0	28	104	0	60	44085
2026-01-15 23:21:04.68	133.86	2.32	-45.6	-61.7	3.6	1.51e+00	0	28	104	0	60	44145
2026-01-15 23:21:05.69	133.83	2.39	-45.5	-61.6	3.6	1.51e+00	0	28	104	0	60	43420
2026-01-15 23:21:06.70	133.81	2.45	-45.5	-61.6	3.6	1.51e+00	0	28	104	0	60	43229
2026-01-15 23:21:07.71	133.78	2.51	-45.5	-61.3	3.6	1.51e+00	0	28	104	0	60	41961
2026-01-15 23:21:08.72	133.76	2.58	-45.6	-61.2	3.6	1.51e+00	0	28	104	0	60	41341
2026-01-15 23:21:09.73	133.73	2.65	-45.6	-60.8	3.6	1.51e+00	0	28	104	0	60	39643
2026-01-15 23:21:10.74	133.71	2.71	-45.6	-60.6	3.6	1.51e+00	0	28	104	0	60	38734
2026-01-15 23:21:11.75	133.68	2.78	-45.6	-60.5	3.6	1.51e+00	0	28	104	0	60	38507
2026-01-15 23:21:12.76	133.66	2.84	-45.5	-60.4	3.6	1.51e+00	0	28	104	0	60	37664
2026-01-15 23:21:13.77	133.63	2.91	-45.5	-61.2	3.6	1.51e+00	0	28	104	0	60	41295
2026-01-15 23:21:14.78	133.60	2.97	-45.6	-61.4	3.6	1.51e+00	0	28	104	0	60	42515
2026-01-15 23:21:15.79	133.58	3.04	-45.5	-60.9	3.6	1.51e+00	0	28	104	0	60	39902
2026-01-15 23:21:16.80	133.55	3.11	-45.4	-58.4	4.0	1.51e+00	0	29	104	0	60	30020
2026-01-15 23:21:17.81	133.53	3.17	-45.2	-53.9	6.1	5.11e-01	0	28	0	0	60	17950
2026-01-15 23:21:18.82	133.50	3.24	-44.5	-50.8	9.3	4.85e-02	0	28	0	2097152	60	12591
2026-01-15 23:21:19.83	133.47	3.31	-43.9	-48.8	11.8	3.04e-03	0	28	0	4194304	60	9902
2026-01-15 23:21:20.84	133.45	3.37	-43.1	-46.8	14.1	2.61e-04	0	28	0	6291456	60	7939
2026-01-15 23:21:21.85	133.42	3.44	-42.1	-45.0	15.7	0.00e+00	0	28	0	8388608	58	7248
2026-01-15 23:21:22.86	133.39	3.51	-41.4	-43.8	16.9	0.00e+00	0	28	0	9437184	56	7081
2026-01-15 23:21:23.87	133.37	3.57	-40.9	-43.1	17.5	0.00e+00	0	28	0	11534336	56	6519
2026-01-15 23:21:24.88	133.34	3.64	-40.8	-43.0	17.9	0.00e+00	0	28	0	13631488	56	6408
2026-01-15 23:21:25.89	133.31	3.71	-40.2	-42.2	18.5	0.00e+00	0	28	0	15728640	54	6547
2026-01-15 23:21:26.90	133.28	3.78	-46.8	-62.1	3.6	3.16e-01	0	29	104	16777216	60	45920
2026-01-15 23:21:27.91	133.26	3.85	-45.9	-54.9	4.7	1.50e+00	0	29	104	16777216	60	20018
2026-01-15 23:21:28.92	133.23	3.91	-44.9	-52.6	6.9	6.94e-01	0	29	104	16777216	60	15499
2026-01-15 23:21:29.93	133.20	3.98	-39.6	-41.1	19.5	2.88e-03	0	29	0	17825792	52	6511
2026-01-15 23:21:30.94	133.17	4.05	-45.4	-61.0	3.6	5.50e-01	0	29	104	18874368	60	40328
2026-01-15 23:21:31.95	133.14	4.12	-39.4	-40.8	6.1	1.16e+00	31	29	104	18874368	52	6269
2026-01-15 23:21:32.96	133.11	4.19	-39.5	-40.9	20.0	0.00e+00	0	29	0	18874368	52	6380
2026-01-15 23:21:33.96	133.09	4.26	-39.2	-40.6	20.0	0.00e+00	0	29	0	20971520	52	6147
2026-01-15 23:21:34.97	133.06	4.33	-39.2	-40.7	20.0	0.00e+00	0	29	0	22020096	52	6203
2026-01-15 23:21:35.98	133.03	4.40	-39.1	-40.5	20.3	0.00e+00	0	29	0	24117248	52	6100
2026-01-15 23:21:36.99	133.00	4.46	-38.8	-40.3	20.5	0.00e+00	0	29	0	26214400	52	5900
2026-01-15 23:21:38.00	132.97	4.53	-38.7	-40.3	20.5	0.00e+00	0	29	0	28311552	50	6639
2026-01-15 23:21:39.01	132.94	4.60	-38.5	-40.1	20.7	0.00e+00	0	29	0	30408704	50	6500
2026-01-15 23:21:40.02	132.91	4.67	-38.5	-40.1	20.6	0.00e+00	0	29	0	32505856	50	6484
2026-01-15 23:21:41.03	132.88	4.74	-38.7	-40.3	20.4	0.00e+00	0	29	0	33554432	50	6676
2026-01-15 23:21:42.04	132.85	4.82	-39.0	-40.6	20.1	0.00e+00	0	29	0	35651584	50	6906
2026-01-15 23:21:43.05	132.82	4.89	-39.1	-40.6	20.0	0.00e+00	0	29	0	37748736	50	6921
2026-01-15 23:21:44.06	132.79	4.96	-38.7	-40.2	20.7	0.00e+00	0	29	0	39845888	50	6580
2026-01-15 23:21:45.07	132.76	5.03	-38.3	-39.7	21.1	0.00e+00	0	29	0	41943040	50	6196
2026-01-15 23:21:46.08	132.73	5.10	-38.4	-39.7	21.2	0.00e+00	0	29	0	42991616	50	6189
2026-01-15 23:21:47.08	132.70	5.17	-38.7	-40.0	20.9	0.00e+00	0	29	0	45088768	50	6420
2026-01-15 23:21:48.09	132.67	5.24	-38.8	-40.0	20.9	0.00e+00	0	29	0	47185920	50	6443
2026-01-15 23:21:49.10	132.64	5.31	-38.5	-39.8	21.1	0.00e+00	0	29	0	49283072	50	6249
2026-01-15 23:21:50.11	132.61	5.38	-38.7	-40.0	21.0	0.00e+00	0	29	0	51380224	50	6405
2026-01-15 23:21:51.12	132.58	5.46	-38.6	-39.8	21.1	0.00e+00	0	29	0	52428800	50	6262
2026-01-15 23:21:52.13	132.55	5.53	-38.6	-39.8	21.1	0.00e+00	0	29	0	54525952	50	6273
2026-01-15 23:21:53.14	132.51	5.60	-38.6	-39.9	21.1	0.00e+00	0	29	0	56623104	50	6322
2026-01-15 23:21:54.15	132.48	5.67	-38.5	-39.7	21.3	0.00e+00	0	29	0	58720256	50	6196
2026-01-15 23:21:55.16	132.45	5.75	-38.6	-39.8	21.3	0.00e+00	0	29	0	60817408	50	6255
2026-01-15 23:21:56.16	132.42	5.82	-38.6	-39.9	21.1	0.00e+00	0	29	0	61865984	50	6319
2026-01-15 23:21:57.17	132.39	5.89	-38.4	-39.6	21.3	0.00e+00	0	29	0	63963136	50	6139
2026-01-15 23:21:58.18	132.35	5.97	-38.4	-39.6	21.4	0.00e+00	0	29	0	66060288	50	6135
2026-01-15 23:21:59.19	132.32	6.04	-38.6	-39.7	21.3	0.00e+00	0	29	0	68157440	50	6239
2026-01-15 23:22:00.19	132.29	6.11	-38.5	-39.6	21.4	0.00e+00	0	29	0	70254592	50	6168
2026-01-15 23:22:01.20	132.25	6.19	-38.2	-39.4	21.6	0.00e+00	0	29	0	71303168	50	5979
2026-01-15 23:22:02.21	132.22	6.26	-38.3	-39.5	21.5	0.00e+00	0	29	0	73400320	50	6070
2026-01-15 23:22:03.22	132.19	6.33	-38.5	-39.7	21.3	0.00e+00	0	29	0	75497472	50	6205
2026-01-15 23:22:04.23	132.15	6.41	-38.7	-39.9	21.2	0.00e+00	0	29	0	77594624	50	6370
2026-01-15 23:22:05.24	132.12	6.48	-38.3	-39.5	21.6	0.00e+00	0	29	0	79691776	50	6079
2026-01-15 23:22:06.25	132.09	6.56	-38.2	-39.4	21.6	0.00e+00	0	29	0	80740352	50	5977
2026-01-15 23:22:07.26	132.05	6.63	-38.3	-39.5	21.5	0.00e+00	0	29	0	82837504	50	6038
2026-01-15 23:22:08.27	132.02	6.71	-38.2	-39.4	21.6	0.00e+00	0	29	0	84934656	50	5973
2026-01-15 23:22:09.28	131.98	6.79	-38.4	-39.6	21.4	0.00e+00	0	29	0	87031808	50	6117
2026-01-15 23:22:10.29	131.95	6.86	-38.5	-39.6	21.4	0.00e+00	0	29	0	89128960	50	6142
2026-01-15 23:22:11.30	131.91	6.94	-38.4	-39.6	21.4	0.00e+00	0	29	0	90177536	50	6138
2026-01-15 23:22:12.31	131.88	7.01	-38.7	-39.9	21.3	0.00e+00	0	29	0	92274688	50	6343
2026-01-15 23:22:13.32	131.84	7.09	-38.3	-39.6	21.5	0.00e+00	0	29	0	94371840	50	6120
2026-01-15 23:22:14.33	131.81	7.17	-38.4	-39.7	21.4	0.00e+00	0	29	0	96468992	50	6207
2026-01-15 23:22:15.34	131.77	7.24	-38.1	-39.4	21.7	0.00e+00	0	29	0	98566144	50	5965
2026-01-15 23:22:16.34	131.74	7.32	-38.1	-39.4	21.8	0.00e+00	0	29	0	99614720	50	6021
2026-01-15 23:22:17.35	131.70	7.40	-37.8	-39.1	22.0	0.00e+00	0	29	0	101711872	50	5801
2026-01-15 23:22:18.36	131.66	7.48	-38.0	-39.3	21.9	0.00e+00	0	29	0	103809024	50	5928
2026-01-15 23:22:19.37	131.63	7.55	-37.7	-39.0	22.1	0.00e+00	0	29	0	105906176	48	6395
2026-01-15 23:22:20.38	131.59	7.63	-37.8	-39.1	22.0	0.00e+00	0	29	0	108003328	48	6501
2026-01-15 23:22:21.39	131.55	7.71	-37.8	-39.0	22.2	0.00e+00	0	29	0	109051904	48	6413
2026-01-15 23:22:22.39	131.52	7.79	-37.9	-39.1	22.1	0.00e+00	0	29	0	111149056	48	6491
2026-01-15 23:22:23.41	131.48	7.87	-37.8	-38.9	22.2	0.00e+00	0	29	0	113246208	48	6350
2026-01-15 23:22:24.42	131.44	7.95	-38.0	-39.1	22.1	0.00e+00	0	29	0	115343360	48	6484
2026-01-15 23:22:25.42	131.40	8.02	-37.9	-39.0	22.1	0.00e+00	0	29	0	117440512	48	6447
2026-01-15 23:22:26.43	131.37	8.10	-37.9	-39.0	22.0	0.00e+00	0	29	0	118489088	48	6413
2026-01-15 23:22:27.44	131.33	8.18	-38.0	-39.1	22.1	0.00e+00	0	29	0	120586240	48	6465
2026-01-15 23:22:28.45	131.29	8.26	-37.9	-39.0	22.2	0.00e+00	0	29	0	122683392	48	6398
2026-01-15 23:22:29.46	131.25	8.34	-38.0	-39.1	22.1	0.00e+00	0	29	0	124780544	48	6497
2026-01-15 23:22:30.47	131.21	8.42	-38.1	-39.2	22.0	0.00e+00	0	29	0	126877696	48	6589
2026-01-15 23:22:31.48	131.17	8.50	-37.8	-38.9	22.3	0.00e+00	0	29	0	128974848	48	6331
2026-01-15 23:22:32.49	131.13	8.59	-37.9	-38.9	22.2	0.00e+00	0	29	0	130023424	48	6384
2026-01-15 23:22:33.50	131.09	8.67	-37.7	-38.7	22.4	0.00e+00	0	29	0	132120576	48	6243
2026-01-15 23:22:34.51	131.05	8.75	-37.8	-38.9	22.3	0.00e+00	0	29	0	134217728	48	6355
2026-01-15 23:22:35.52	131.01	8.83	-37.7	-38.7	22.4	0.00e+00	0	29	0	136314880	48	6232
2026-01-15 23:22:36.53	130.97	8.91	-37.8	-38.9	22.3	0.00e+00	0	29	0	138412032	48	6346
2026-01-15 23:22:37.54	130.93	8.99	-37.6	-38.7	22.5	0.00e+00	0	29	0	139460608	48	6191
2026-01-15 23:22:38.55	130.89	9.08	-37.8	-38.9	22.3	0.00e+00	0	29	0	141557760	48	6332
2026-01-15 23:22:39.56	130.85	9.16	-37.7	-38.7	22.5	0.00e+00	0	29	0	143654912	48	6195
2026-01-15 23:22:40.57	130.81	9.24	-37.9	-38.9	22.3	0.00e+00	0	29	0	145752064	48	6341
2026-01-15 23:22:41.58	130.77	9.33	-37.8	-38.8	22.4	0.00e+00	0	29	0	147849216	48	6298
2026-01-15 23:22:42.59	130.72	9.41	-38.0	-39.0	22.2	0.00e+00	0	29	0	148897792	48	6464
2026-01-15 23:22:43.59	130.68	9.49	-37.9	-38.9	22.4	0.00e+00	0	29	0	150994944	48	6384
2026-01-15 23:22:44.60	130.64	9.58	-37.9	-39.0	22.3	0.00e+00	0	29	0	153092096	48	6403
2026-01-15 23:22:45.61	130.60	9.66	-37.6	-38.6	22.6	0.00e+00	0	29	0	155189248	48	6161
2026-01-15 23:22:46.62	130.55	9.74	-37.7	-38.8	22.6	0.00e+00	0	29	0	157286400	48	6249
2026-01-15 23:22:47.63	130.51	9.83	-37.8	-38.8	22.4	0.00e+00	0	29	0	158334976	48	6316
2026-01-15 23:22:48.64	130.47	9.91	-37.9	-38.9	22.4	0.00e+00	0	29	0	160432128	48	6346
2026-01-15 23:22:49.65	130.42	10.00	-37.7	-38.7	22.5	0.00e+00	0	29	0	162529280	48	6216
2026-01-15 23:22:50.66	130.38	10.09	-37.5	-38.5	22.7	0.00e+00	0	29	0	164626432	48	6071
2026-01-15 23:22:51.67	130.34	10.17	-37.5	-38.5	22.7	0.00e+00	0	29	0	166723584	48	6073
2026-01-15 23:22:52.67	130.29	10.26	-37.5	-38.5	22.7	0.00e+00	0	29	0	167772160	48	6035
2026-01-15 23:22:53.68	130.25	10.34	-37.6	-38.5	22.6	0.00e+00	0	29	0	169869312	48	6102
2026-01-15 23:22:54.69	130.20	10.43	-37.5	-38.5	22.8	0.00e+00	0	29	0	171966464	48	6058
2026-01-15 23:22:55.70	130.16	10.52	-37.6	-38.5	22.7	0.00e+00	0	29	0	174063616	48	6102
2026-01-15 23:22:56.71	130.11	10.60	-37.5	-38.5	22.8	0.00e+00	0	29	0	176160768	48	6052
2026-01-15 23:22:57.72	130.06	10.69	-37.6	-38.6	22.6	0.00e+00	0	29	0	177209344	48	6136
2026-01-15 23:22:58.73	130.02	10.78	-37.6	-38.6	22.6	0.00e+00	0	29	0	179306496	48	6173
2026-01-15 23:22:59.74	129.97	10.87	-37.7	-38.7	22.6	0.00e+00	0	29	0	181403648	48	6189
2026-01-15 23:23:00.74	129.92	10.96	-37.7	-38.7	22.6	0.00e+00	0	29	0	183500800	48	6238
2026-01-15 23:23:01.76	129.88	11.04	-37.6	-38.6	22.7	0.00e+00	0	29	0	185597952	48	6124
2026-01-15 23:23:02.76	129.83	11.13	-37.4	-38.4	23.0	0.00e+00	0	29	0	186646528	48	5977
2026-01-15 23:23:03.77	129.78	11.22	-37.4	-38.4	22.9	0.00e+00	0	29	0	188743680	48	6010
2026-01-15 23:23:04.78	129.73	11.31	-37.4	-38.4	23.0	0.00e+00	0	29	0	190840832	48	5976
2026-01-15 23:23:05.79	129.68	11.40	-37.3	-38.3	23.0	0.00e+00	0	29	0	192937984	48	5940
2026-01-15 23:23:06.80	129.64	11.49	-37.4	-38.4	22.8	0.00e+00	0	29	0	195035136	48	6023
2026-01-15 23:23:07.81	129.59	11.58	-37.4	-38.4	22.9	0.00e+00	0	29	0	197132288	48	5965
2026-01-15 23:23:08.82	129.54	11.67	-37.4	-38.4	22.9	0.00e+00	0	29	0	198180864	48	5972
2026-01-15 23:23:09.83	129.49	11.77	-37.4	-38.5	22.9	0.00e+00	0	29	0	200278016	48	6037
2026-01-15 23:23:10.83	129.44	11.86	-37.4	-38.4	22.9	0.00e+00	0	29	0	202375168	48	5997
2026-01-15 23:23:11.84	129.39	11.95	-37.3	-38.3	23.0	0.00e+00	0	29	0	204472320	48	5924
2026-01-15 23:23:12.85	129.34	12.04	-37.4	-38.4	23.0	0.00e+00	0	29	0	206569472	48	5978
2026-01-15 23:23:13.86	129.29	12.13	-37.4	-38.3	22.9	0.00e+00	0	30	0	207618048	48	5963
2026-01-15 23:23:14.87	129.23	12.23	-37.2	-38.1	23.1	0.00e+00	0	29	0	209715200	48	5821
2026-01-15 23:23:15.88	129.18	12.32	-37.3	-38.3	23.1	0.00e+00	0	29	0	211812352	48	5921
2026-01-15 23:23:16.89	129.13	12.41	-37.3	-38.2	23.1	0.00e+00	0	29	0	213909504	48	5866
2026-01-15 23:23:17.90	129.08	12.51	-37.3	-38.2	23.1	0.00e+00	0	29	0	214958080	48	5872
2026-01-15 23:23:18.91	129.03	12.60	-37.3	-38.2	23.1	0.00e+00	0	30	0	217055232	48	5890
2026-01-15 23:23:19.91	128.97	12.69	-37.2	-38.2	23.2	0.00e+00	0	30	0	219152384	48	5838
2026-01-15 23:23:20.92	128.92	12.79	-37.2	-38.1	23.2	0.00e+00	0	29	0	221249536	48	5799
2026-01-15 23:23:21.93	128.86	12.88	-37.2	-38.2	23.2	0.00e+00	0	30	0	223346688	48	5838
2026-01-15 23:23:22.94	128.81	12.98	-37.2	-38.2	23.1	0.00e+00	0	29	0	225443840	48	5858
2026-01-15 23:23:23.95	128.76	13.08	-37.2	-38.1	23.2	0.00e+00	0	30	0	226492416	48	5810
2026-01-15 23:23:24.96	128.70	13.17	-37.3	-38.3	23.1	0.00e+00	0	30	0	228589568	48	5920
2026-01-15 23:23:25.97	128.65	13.27	-37.2	-38.1	23.3	0.00e+00	0	29	0	230686720	48	5805
2026-01-15 23:23:26.98	128.59	13.37	-37.3	-38.2	23.1	0.00e+00	0	30	0	232783872	48	5878
2026-01-15 23:23:27.99	128.53	13.46	-37.4	-38.4	23.0	0.00e+00	0	29	0	234881024	48	5993
2026-01-15 23:23:29.00	128.48	13.56	-37.2	-38.2	23.2	0.00e+00	0	30	0	235929600	48	5840
2026-01-15 23:23:30.01	128.42	13.66	-37.0	-37.9	23.4	0.00e+00	0	29	0	238026752	48	5685
2026-01-15 23:23:31.01	128.36	13.76	-37.2	-38.2	23.2	0.00e+00	0	30	0	240123904	48	5860
2026-01-15 23:23:32.02	128.31	13.86	-37.1	-38.0	23.3	0.00e+00	0	30	0	242221056	48	5755
2026-01-15 23:23:33.03	128.25	13.95	-37.1	-38.0	23.4	0.00e+00	0	29	0	244318208	48	5723
2026-01-15 23:23:34.04	128.19	14.05	-37.1	-38.0	23.4	0.00e+00	0	30	0	245366784	48	5753
2026-01-15 23:23:35.05	128.13	14.15	-36.9	-37.8	23.5	0.00e+00	0	30	0	247463936	48	5630
2026-01-15 23:23:36.06	128.07	14.25	-37.0	-37.9	23.4	0.00e+00	0	30	0	249561088	48	5688
2026-01-15 23:23:37.07	128.01	14.36	-37.0	-37.9	23.5	0.00e+00	0	30	0	251658240	48	5650
2026-01-15 23:23:38.07	127.95	14.46	-36.9	-37.8	23.6	0.00e+00	0	30	0	253755392	48	5581
2026-01-15 23:23:39.08	127.89	14.56	-37.1	-38.0	23.3	0.00e+00	0	30	0	254803968	48	5734
2026-01-15 23:23:40.09	127.83	14.66	-36.8	-37.8	23.6	0.00e+00	0	30	0	256901120	48	5573
2026-01-15 23:23:41.10	127.77	14.76	-36.8	-37.7	23.6	0.00e+00	0	30	0	258998272	48	5564
2026-01-15 23:23:42.11	127.71	14.86	-36.8	-37.7	23.6	0.00e+00	0	30	0	261095424	48	5559
2026-01-15 23:23:43.12	127.64	14.97	-36.8	-37.7	23.7	0.00e+00	0	30	0	263192576	48	5555
2026-01-15 23:23:44.12	127.58	15.07	-36.9	-37.8	23.6	0.00e+00	0	30	0	264241152	46	6293
2026-01-15 23:23:45.14	127.52	15.17	-37.0	-37.9	23.5	0.00e+00	0	30	0	266338304	46	6363
2026-01-15 23:23:46.14	127.45	15.28	-36.9	-37.8	23.5	0.00e+00	0	30	0	268435456	46	6311
2026-01-15 23:23:47.15	127.39	15.38	-36.9	-37.9	23.6	0.00e+00	0	30	0	270532608	46	6338
2026-01-15 23:23:48.16	127.32	15.49	-36.9	-37.8	23.6	0.00e+00	0	30	0	272629760	46	6269
2026-01-15 23:23:49.17	127.26	15.59	-36.9	-37.8	23.6	0.00e+00	0	30	0	273678336	46	6259
2026-01-15 23:23:50.18	127.19	15.70	-36.7	-37.6	23.8	0.00e+00	0	30	0	275775488	46	6160
2026-01-15 23:23:51.19	127.13	15.81	-36.7	-37.6	23.8	0.00e+00	0	30	0	277872640	46	6141
2026-01-15 23:23:52.20	127.06	15.91	-36.7	-37.6	23.8	0.00e+00	0	30	0	279969792	46	6168
2026-01-15 23:23:53.21	126.99	16.02	-36.7	-37.6	23.8	0.00e+00	0	30	0	282066944	46	6172
2026-01-15 23:23:54.22	126.92	16.13	-36.7	-37.7	23.8	0.00e+00	0	30	0	283115520	46	6191
2026-01-15 23:23:55.23	126.86	16.24	-36.7	-37.7	23.7	0.00e+00	0	30	0	285212672	46	6210
2026-01-15 23:23:56.23	126.79	16.34	-36.8	-37.7	23.7	0.00e+00	0	30	0	287309824	46	6242
2026-01-15 23:23:57.24	126.72	16.45	-36.8	-37.8	23.7	0.00e+00	0	30	0	289406976	46	6247
2026-01-15 23:23:58.25	126.65	16.56	-36.8	-37.8	23.6	0.00e+00	0	30	0	291504128	46	6269
2026-01-15 23:23:59.26	126.58	16.67	-36.7	-37.7	23.7	0.00e+00	0	30	0	293601280	46	6224
2026-01-15 23:24:00.27	126.51	16.78	-36.8	-37.8	23.7	0.00e+00	0	30	0	294649856	46	6249
2026-01-15 23:24:01.28	126.44	16.89	-36.7	-37.8	23.7	0.00e+00	0	30	0	296747008	46	6246
2026-01-15 23:24:02.29	126.36	17.00	-36.7	-37.7	23.8	0.00e+00	0	30	0	298844160	46	6178
2026-01-15 23:24:03.29	126.29	17.11	-36.7	-37.7	23.8	0.00e+00	0	30	0	300941312	46	6175
2026-01-15 23:24:04.30	126.22	17.23	-36.7	-37.7	23.7	0.00e+00	0	30	0	303038464	46	6207
2026-01-15 23:24:05.31	126.15	17.34	-36.8	-37.7	23.7	0.00e+00	0	30	0	304087040	46	6239
2026-01-15 23:24:06.33	126.07	17.45	-36.8	-37.7	23.8	0.00e+00	0	30	0	306184192	46	6225
2026-01-15 23:24:07.33	126.00	17.56	-36.9	-37.8	23.7	0.00e+00	0	30	0	308281344	46	6287
2026-01-15 23:24:08.34	125.92	17.68	-36.8	-37.6	23.8	0.00e+00	0	30	0	310378496	46	6161
2026-01-15 23:24:09.35	125.85	17.79	-36.7	-37.6	23.8	0.00e+00	0	30	0	312475648	46	6161
2026-01-15 23:24:10.36	125.77	17.91	-36.8	-37.7	23.8	0.00e+00	0	30	0	313524224	46	6186
2026-01-15 23:24:11.37	125.69	18.02	-36.8	-37.7	23.8	0.00e+00	0	30	0	315621376	46	6191
2026-01-15 23:24:12.38	125.61	18.14	-36.8	-37.7	23.8	0.00e+00	0	30	0	317718528	46	6207
2026-01-15 23:24:13.38	125.54	18.25	-36.7	-37.6	23.9	0.00e+00	0	30	0	319815680	46	6132
2026-01-15 23:24:14.39	125.46	18.37	-36.8	-37.7	23.8	0.00e+00	0	30	0	321912832	46	6236
2026-01-15 23:24:15.40	125.38	18.49	-36.9	-37.8	23.7	0.00e+00	0	30	0	322961408	46	6308
2026-01-15 23:24:16.41	125.30	18.61	-36.9	-37.8	23.7	0.00e+00	0	30	0	325058560	46	6262
2026-01-15 23:24:17.42	125.22	18.73	-37.0	-37.9	23.6	0.00e+00	0	30	0	327155712	46	6368
2026-01-15 23:24:18.43	125.14	18.84	-37.1	-38.0	23.6	0.00e+00	0	30	0	329252864	46	6431
2026-01-15 23:24:19.44	125.05	18.96	-37.3	-38.2	23.4	0.00e+00	0	30	0	331350016	46	6580
2026-01-15 23:24:20.45	124.97	19.08	-37.2	-38.1	23.5	0.00e+00	0	30	0	332398592	46	6483
2026-01-15 23:24:21.46	124.89	19.20	-37.1	-38.0	23.5	0.00e+00	0	30	0	334495744	46	6453
2026-01-15 23:24:22.47	124.80	19.33	-37.1	-37.9	23.6	0.00e+00	0	30	0	336592896	46	6388
2026-01-15 23:24:23.48	124.72	19.45	-37.2	-38.1	23.5	0.00e+00	0	30	0	338690048	46	6489
2026-01-15 23:24:24.48	124.63	19.57	-37.3	-38.2	23.4	0.00e+00	0	30	0	340787200	46	6557
2026-01-15 23:24:25.49	124.55	19.69	-37.4	-38.3	23.3	0.00e+00	0	30	0	341835776	46	6681
2026-01-15 23:24:26.50	124.46	19.81	-37.3	-38.3	23.3	0.00e+00	0	30	0	343932928	46	6635
2026-01-15 23:24:27.51	124.37	19.94	-37.4	-38.3	23.2	0.00e+00	0	30	0	346030080	46	6689
2026-01-15 23:24:28.52	124.28	20.06	-37.4	-38.3	23.3	0.00e+00	0	30	0	348127232	46	6674
2026-01-15 23:24:29.53	124.19	20.19	-37.4	-38.3	23.2	0.00e+00	0	30	0	350224384	46	6685
2026-01-15 23:24:30.54	124.10	20.31	-37.5	-38.4	23.2	0.00e+00	0	30	0	351272960	46	6747
2026-01-15 23:24:31.55	124.01	20.44	-37.5	-38.5	23.2	0.00e+00	0	30	0	353370112	46	6792
2026-01-15 23:24:32.56	123.92	20.56	-37.6	-38.5	23.0	0.00e+00	0	30	0	355467264	46	6836
2026-01-15 23:24:33.57	123.83	20.69	-37.6	-38.5	23.1	0.00e+00	0	30	0	357564416	46	6824
2026-01-15 23:24:34.58	123.73	20.82	-37.7	-38.7	22.9	0.00e+00	0	30	0	359661568	48	6217
2026-01-15 23:24:35.59	123.64	20.95	-37.7	-38.7	22.9	0.00e+00	0	30	0	360710144	48	6200
2026-01-15 23:24:36.60	123.55	21.07	-37.8	-38.8	22.9	0.00e+00	0	30	0	362807296	48	6263
2026-01-15 23:24:37.61	123.45	21.20	-37.8	-38.8	22.6	0.00e+00	0	30	0	364904448	48	6307
2026-01-15 23:24:38.62	123.35	21.33	-37.8	-38.8	22.9	0.00e+00	0	30	0	367001600	48	6300
2026-01-15 23:24:39.63	123.26	21.46	-37.9	-38.9	22.8	0.00e+00	0	30	0	369098752	48	6349
2026-01-15 23:24:40.64	123.16	21.59	-37.7	-38.7	23.0	0.00e+00	0	30	0	370147328	48	6208
2026-01-15 23:24:41.65	123.06	21.73	-37.8	-38.8	22.8	0.00e+00	0	30	0	372244480	48	6291
2026-01-15 23:24:42.65	122.96	21.86	-37.8	-38.7	23.0	0.00e+00	0	30	0	374341632	48	6218
2026-01-15 23:24:43.66	122.86	21.99	-37.9	-38.9	22.9	0.00e+00	0	30	0	376438784	48	6332
2026-01-15 23:24:44.67	122.76	22.12	-37.8	-38.8	22.9	0.00e+00	0	30	0	378535936	48	6297
2026-01-15 23:24:45.68	122.66	22.26	-37.8	-38.8	22.9	0.00e+00	0	30	0	379584512	48	6253
2026-01-15 23:24:46.69	122.55	22.39	-38.0	-38.9	22.8	0.00e+00	0	30	0	381681664	48	6387
2026-01-15 23:24:47.70	122.45	22.53	-38.0	-39.0	22.7	0.00e+00	0	30	0	383778816	48	6461
2026-01-15 23:24:48.71	122.34	22.66	-38.3	-39.3	22.5	0.00e+00	0	30	0	385875968	48	6658
2026-01-15 23:24:49.72	122.24	22.80	-38.1	-39.2	22.6	0.00e+00	0	30	0	387973120	48	6540
2026-01-15 23:24:50.73	122.13	22.94	-38.1	-39.2	22.7	0.00e+00	0	30	0	390070272	48	6552
2026-01-15 23:24:51.74	122.02	23.07	-38.0	-39.0	22.7	0.00e+00	0	30	0	391118848	48	6459
2026-01-15 23:24:52.75	121.91	23.21	-38.2	-39.3	22.5	0.00e+00	0	30	0	393216000	48	6628
2026-01-15 23:24:53.76	121.80	23.35	-38.3	-39.3	22.4	0.00e+00	0	30	0	395313152	48	6645
2026-01-15 23:24:54.77	121.69	23.49	-38.4	-39.4	22.4	0.00e+00	0	30	0	397410304	48	6748
2026-01-15 23:24:55.78	121.58	23.63	-38.5	-39.6	22.3	0.00e+00	0	30	0	399507456	48	6865
2026-01-15 23:24:56.79	121.46	23.77	-38.6	-39.8	22.1	0.00e+00	0	30	0	400556032	48	7031
2026-01-15 23:24:57.80	121.35	23.91	-38.5	-39.7	22.2	0.00e+00	0	30	0	402653184	48	6930
2026-01-15 23:24:58.80	121.24	24.05	-38.5	-39.6	22.2	0.00e+00	0	30	0	404750336	48	6884
2026-01-15 23:24:59.81	121.12	24.19	-38.3	-39.4	22.3	0.00e+00	0	30	0	406847488	48	6767
2026-01-15 23:25:00.82	121.00	24.34	-38.3	-39.4	22.4	0.00e+00	0	30	0	408944640	48	6734
2026-01-15 23:25:01.83	120.88	24.48	-38.2	-39.3	22.4	0.00e+00	0	30	0	409993216	48	6684
2026-01-15 23:25:02.84	120.76	24.63	-38.5	-39.6	22.2	0.00e+00	0	30	0	412090368	48	6895
2026-01-15 23:25:03.85	120.64	24.77	-38.6	-39.7	22.1	0.00e+00	0	30	0	414187520	48	6993
2026-01-15 23:25:04.86	120.52	24.92	-38.5	-39.6	22.2	0.00e+00	0	30	0	416284672	48	6912
2026-01-15 23:25:05.87	120.40	25.06	-38.7	-39.8	22.0	0.00e+00	0	30	0	418381824	48	7047
2026-01-15 23:25:06.88	120.27	25.21	-38.8	-39.9	22.0	0.00e+00	0	30	0	419430400	50	6355
2026-01-15 23:25:07.88	120.15	25.36	-38.7	-39.8	22.1	0.00e+00	0	30	0	421527552	50	6256
2026-01-15 23:25:08.89	120.02	25.51	-38.7	-39.8	22.1	0.00e+00	0	30	0	423624704	50	6252
2026-01-15 23:25:09.90	119.90	25.66	-38.7	-39.7	22.2	0.00e+00	0	30	0	425721856	50	6230
2026-01-15 23:25:10.91	119.77	25.81	-38.8	-39.9	22.0	0.00e+00	0	30	0	427819008	50	6357
2026-01-15 23:25:11.91	119.64	25.95	-38.9	-40.0	21.9	0.00e+00	0	30	0	428867584	50	6406
2026-01-15 23:25:12.92	119.51	26.11	-38.9	-40.0	21.9	0.00e+00	0	30	0	430964736	50	6463
2026-01-15 23:25:13.93	119.37	26.26	-38.8	-39.9	21.9	0.00e+00	0	30	0	433061888	50	6355
2026-01-15 23:25:14.94	119.24	26.41	-38.9	-40.0	21.9	0.00e+00	0	30	0	435159040	50	6415
2026-01-15 23:25:15.95	119.10	26.56	-38.7	-39.7	22.1	0.00e+00	0	30	0	437256192	50	6215
2026-01-15 23:25:16.96	118.97	26.72	-38.6	-39.7	22.3	0.00e+00	0	30	0	438304768	50	6199
2026-01-15 23:25:17.97	118.83	26.87	-38.6	-39.6	22.3	0.00e+00	0	30	0	440401920	50	6141
2026-01-15 23:25:18.98	118.69	27.03	-38.6	-39.7	22.2	0.00e+00	0	30	0	442499072	50	6174
2026-01-15 23:25:19.99	118.55	27.18	-38.7	-39.8	22.2	0.00e+00	0	30	0	444596224	50	6247
2026-01-15 23:25:21.00	118.40	27.34	-38.8	-39.8	22.0	0.00e+00	0	30	0	446693376	50	6317
2026-01-15 23:25:22.00	118.26	27.50	-38.9	-40.0	22.0	0.00e+00	0	30	0	447741952	50	6397
2026-01-15 23:25:23.01	118.12	27.65	-38.8	-39.9	22.1	0.00e+00	0	30	0	449839104	50	6319
2026-01-15 23:25:24.02	117.97	27.81	-38.7	-39.8	22.2	0.00e+00	0	30	0	451936256	50	6257
2026-01-15 23:25:25.03	117.82	27.97	-38.6	-39.6	22.3	0.00e+00	0	30	0	454033408	50	6137
2026-01-15 23:25:26.04	117.67	28.13	-38.5	-39.5	22.3	0.00e+00	0	30	0	456130560	50	6103
2026-01-15 23:25:27.05	117.52	28.29	-38.6	-39.7	22.2	0.00e+00	0	30	0	457179136	50	6188
2026-01-15 23:25:28.06	117.37	28.46	-38.6	-39.7	22.2	0.00e+00	0	30	0	459276288	50	6184
2026-01-15 23:25:29.07	117.21	28.62	-38.8	-39.8	22.1	0.00e+00	0	30	0	461373440	50	6283
2026-01-15 23:25:30.08	117.06	28.78	-38.7	-39.7	22.2	0.00e+00	0	30	0	463470592	50	6217
2026-01-15 23:25:31.09	116.90	28.95	-38.5	-39.5	22.4	0.00e+00	0	30	0	465567744	50	6093
2026-01-15 23:25:32.10	116.74	29.11	-38.6	-39.6	22.4	0.00e+00	0	30	0	466616320	50	6122
2026-01-15 23:25:33.11	116.58	29.27	-38.5	-39.5	22.4	0.00e+00	0	30	0	468713472	50	6066
2026-01-15 23:25:34.12	116.42	29.44	-38.6	-39.7	22.2	0.00e+00	0	30	0	470810624	50	6174
2026-01-15 23:25:35.13	116.25	29.61	-38.8	-39.8	22.1	0.00e+00	0	30	0	472907776	50	6290
2026-01-15 23:25:36.14	116.09	29.77	-38.7	-39.8	22.2	0.00e+00	0	30	0	475004928	50	6269
2026-01-15 23:25:37.14	115.92	29.94	-38.8	-39.8	22.1	0.00e+00	0	30	0	476053504	50	6316
2026-01-15 23:25:38.15	115.75	30.11	-38.9	-39.9	22.0	0.00e+00	0	30	0	478150656	50	6382
2026-01-15 23:25:39.16	115.58	30.28	-38.9	-40.0	22.0	0.00e+00	0	30	0	480247808	50	6453
2026-01-15 23:25:40.17	115.40	30.45	-38.8	-39.9	22.2	0.00e+00	0	30	0	482344960	50	6350
2026-01-15 23:25:41.18	115.23	30.62	-38.9	-39.9	22.0	0.00e+00	0	30	0	484442112	50	6381
2026-01-15 23:25:42.19	115.05	30.79	-38.9	-40.0	21.9	0.00e+00	0	30	0	486539264	50	6453
2026-01-15 23:25:43.20	114.87	30.96	-38.9	-40.0	22.0	0.00e+00	0	30	0	487587840	50	6407
2026-01-15 23:25:44.21	114.69	31.14	-38.7	-39.7	22.2	0.00e+00	0	30	0	489684992	50	6219
2026-01-15 23:25:45.21	114.51	31.31	-38.9	-39.9	22.1	0.00e+00	0	30	0	491782144	50	6375
2026-01-15 23:25:46.22	114.33	31.48	-39.0	-40.1	21.9	0.00e+00	0	30	0	493879296	50	6500
2026-01-15 23:25:47.24	114.14	31.66	-39.1	-40.2	21.7	0.00e+00	0	30	0	495976448	50	6558
2026-01-15 23:25:48.24	113.95	31.83	-39.2	-40.3	21.6	0.00e+00	0	30	0	497025024	50	6690
2026-01-15 23:25:49.25	113.76	32.01	-39.5	-40.6	21.4	0.00e+00	0	30	0	499122176	50	6896
2026-01-15 23:25:50.26	113.57	32.19	-39.4	-40.6	21.4	0.00e+00	0	30	0	501219328	50	6870
2026-01-15 23:25:51.27	113.37	32.37	-39.5	-40.6	21.4	0.00e+00	0	30	0	503316480	50	6918
2026-01-15 23:25:52.28	113.17	32.54	-39.4	-40.5	21.5	0.00e+00	0	30	0	505413632	50	6811
2026-01-15 23:25:53.29	112.97	32.72	-39.6	-40.8	21.2	0.00e+00	0	30	0	506462208	50	7012
2026-01-15 23:25:54.30	112.77	32.90	-39.9	-41.1	20.9	0.00e+00	0	30	0	508559360	52	6507
2026-01-15 23:25:55.31	112.57	33.08	-39.8	-41.0	21.1	0.00e+00	0	30	0	510656512	52	6434
2026-01-15 23:25:56.32	112.36	33.26	-40.0	-41.2	20.9	0.00e+00	0	30	0	512753664	52	6600
2026-01-15 23:25:57.33	112.15	33.45	-40.0	-41.3	20.8	0.00e+00	0	30	0	514850816	52	6617
2026-01-15 23:25:58.34	111.94	33.63	-39.7	-40.9	21.1	0.00e+00	0	30	0	515899392	52	6374
2026-01-15 23:25:59.34	111.73	33.81	-39.5	-40.7	21.4	0.00e+00	0	30	0	517996544	52	6206
2026-01-15 23:26:00.35	111.51	33.99	-39.5	-40.7	21.2	0.00e+00	0	30	0	520093696	52	6217
2026-01-15 23:26:01.36	111.29	34.18	-39.6	-40.8	21.3	0.00e+00	0	30	0	522190848	52	6254
2026-01-15 23:26:02.37	111.07	34.36	-39.6	-40.8	21.2	0.00e+00	0	30	0	524288000	52	6290
2026-01-15 23:26:03.38	110.85	34.55	-39.9	-41.1	21.1	0.00e+00	0	30	0	525336576	52	6511
2026-01-15 23:26:04.39	110.62	34.73	-39.3	-40.5	21.6	0.00e+00	0	30	0	527433728	52	6047
2026-01-15 23:26:05.39	110.39	34.92	-39.3	-40.4	21.7	0.00e+00	0	30	0	529530880	52	5974
2026-01-15 23:26:06.40	110.16	35.11	-39.2	-40.3	21.8	0.00e+00	0	30	0	531628032	52	5900
2026-01-15 23:26:07.41	109.93	35.29	-39.1	-40.2	21.8	0.00e+00	0	30	0	533725184	52	5844
2026-01-15 23:26:08.42	109.69	35.48	-39.2	-40.3	21.7	0.00e+00	0	30	0	534773760	52	5936
2026-01-15 23:26:09.43	109.45	35.67	-39.2	-40.4	21.6	0.00e+00	0	30	0	536870912	52	5977
2026-01-15 23:26:10.44	109.21	35.86	-39.1	-40.2	21.8	0.00e+00	0	30	0	538968064	52	5860
2026-01-15 23:26:11.45	108.96	36.05	-39.1	-40.2	22.0	0.00e+00	0	30	0	541065216	52	5860
2026-01-15 23:26:12.46	108.72	36.24	-38.9	-40.0	22.1	0.00e+00	0	30	0	543162368	52	5750
2026-01-15 23:26:13.47	108.46	36.43	-38.8	-40.0	22.1	0.00e+00	0	30	0	544210944	52	5705
2026-01-15 23:26:14.47	108.21	36.62	-38.9	-40.1	22.0	0.00e+00	0	30	0	546308096	50	6489
2026-01-15 23:26:15.48	107.95	36.81	-39.0	-40.2	21.8	0.00e+00	0	30	0	548405248	50	6571
2026-01-15 23:26:16.49	107.69	37.01	-39.0	-40.1	21.9	0.00e+00	0	30	0	550502400	50	6473
2026-01-15 23:26:17.50	107.43	37.20	-38.9	-40.0	22.0	0.00e+00	0	30	0	552599552	50	6450
2026-01-15 23:26:18.51	107.16	37.39	-38.7	-39.8	22.2	0.00e+00	0	30	0	554696704	50	6249
2026-01-15 23:26:19.51	106.90	37.58	-38.9	-39.9	22.1	0.00e+00	0	30	0	555745280	50	6362
2026-01-15 23:26:20.52	106.62	37.78	-39.1	-40.2	21.8	0.00e+00	0	30	0	557842432	50	6592
2026-01-15 23:26:21.53	106.35	37.97	-39.2	-40.3	21.7	0.00e+00	0	30	0	559939584	50	6660
2026-01-15 23:26:22.54	106.07	38.17	-39.5	-40.6	21.4	0.00e+00	0	30	0	562036736	50	6871
2026-01-15 23:26:23.55	105.78	38.36	-39.5	-40.6	21.4	0.00e+00	0	30	0	563085312	50	6895
2026-01-15 23:26:24.56	105.50	38.56	-39.4	-40.5	21.5	0.00e+00	0	30	0	565182464	50	6830
2026-01-15 23:26:25.57	105.21	38.75	-39.3	-40.4	21.7	0.00e+00	0	30	0	567279616	50	6764
2026-01-15 23:26:26.58	104.91	38.95	-39.4	-40.5	21.5	0.00e+00	0	30	0	569376768	50	6842
2026-01-15 23:26:27.58	104.62	39.14	-39.5	-40.7	21.3	0.00e+00	0	30	0	571473920	50	6961
2026-01-15 23:26:28.59	104.32	39.34	-39.5	-40.6	21.3	0.00e+00	0	30	0	573571072	50	6919
2026-01-15 23:26:29.60	104.01	39.54	-39.7	-40.9	21.2	0.00e+00	0	30	0	574619648	50	7152
2026-01-15 23:26:30.61	103.71	39.73	-39.5	-40.6	21.4	0.00e+00	0	30	0	576716800	50	6919
2026-01-15 23:26:31.61	103.40	39.93	-39.5	-40.6	21.4	0.00e+00	0	30	0	578813952	50	6911
2026-01-15 23:26:32.62	103.08	40.12	-39.4	-40.5	21.5	0.00e+00	0	30	0	580911104	50	6772
2026-01-15 23:26:33.63	102.76	40.32	-39.3	-40.4	21.5	0.00e+00	0	30	0	583008256	50	6725
2026-01-15 23:26:34.64	102.44	40.52	-39.0	-40.1	21.9	0.00e+00	0	30	0	584056832	50	6517
2026-01-15 23:26:35.65	102.11	40.72	-39.1	-40.2	21.9	0.00e+00	0	30	0	586153984	50	6543
2026-01-15 23:26:36.66	101.78	40.91	-39.2	-40.3	21.8	0.00e+00	0	30	0	588251136	50	6653
2026-01-15 23:26:37.67	101.44	41.11	-39.1	-40.2	21.8	0.00e+00	0	30	0	590348288	50	6598
2026-01-15 23:26:38.68	101.10	41.31	-39.6	-40.8	21.2	0.00e+00	0	30	0	592445440	50	7031
2026-01-15 23:26:39.69	100.76	41.50	-40.2	-41.5	20.7	0.00e+00	0	30	0	593494016	52	6772
2026-01-15 23:26:40.70	100.41	41.70	-40.6	-42.0	20.1	0.00e+00	0	30	0	595591168	54	6397
2026-01-15 23:26:41.71	100.06	41.90	-40.6	-42.0	20.1	0.00e+00	0	30	0	597688320	54	6410
2026-01-15 23:26:42.71	99.70	42.09	-40.7	-42.1	20.3	0.00e+00	0	30	0	599785472	54	6529
2026-01-15 23:26:43.72	99.34	42.29	-40.1	-41.4	20.7	0.00e+00	0	30	0	601882624	54	5997
2026-01-15 23:26:44.73	98.98	42.48	-40.0	-41.2	20.8	0.00e+00	0	30	0	602931200	54	5896
2026-01-15 23:26:45.74	98.61	42.68	-40.1	-41.4	20.6	0.00e+00	0	30	0	605028352	54	5997
2026-01-15 23:26:46.75	98.23	42.87	-39.8	-41.0	20.5	0.00e+00	0	30	0	607125504	54	5720
2026-01-15 23:26:47.76	97.85	43.07	-39.7	-40.9	21.2	0.00e+00	0	30	0	609222656	52	6328
2026-01-15 23:26:48.77	97.47	43.26	-39.5	-40.7	21.4	0.00e+00	0	30	0	611319808	52	6212
2026-01-15 23:26:49.78	97.08	43.46	-39.8	-41.0	21.1	0.00e+00	0	29	0	612368384	52	6414
2026-01-15 23:26:50.79	96.69	43.65	-39.9	-41.2	20.9	0.00e+00	0	30	0	614465536	52	6546
2026-01-15 23:26:51.80	96.29	43.84	-39.8	-41.0	21.1	0.00e+00	0	29	0	616562688	52	6398
2026-01-15 23:26:52.81	95.88	44.04	-39.8	-41.0	21.1	0.00e+00	0	30	0	618659840	52	6433
2026-01-15 23:26:53.82	95.48	44.23	-39.4	-40.5	21.6	0.00e+00	0	30	0	620756992	52	6067
2026-01-15 23:26:54.83	95.06	44.42	-39.5	-40.7	21.4	0.00e+00	0	30	0	621805568	52	6210
2026-01-15 23:26:55.84	94.64	44.61	-40.0	-41.2	20.9	0.00e+00	0	29	0	623902720	52	6570
2026-01-15 23:26:56.85	94.22	44.80	-40.1	-41.4	20.5	0.00e+00	0	30	0	625999872	52	6720
2026-01-15 23:26:57.86	93.79	44.99	-40.0	-41.2	21.0	0.00e+00	0	29	0	628097024	52	6594
2026-01-15 23:26:58.87	93.36	45.17	-39.6	-40.8	21.2	0.00e+00	0	29	0	630194176	52	6252
2026-01-15 23:26:59.88	92.92	45.36	-39.2	-40.2	21.9	0.00e+00	0	29	0	631242752	52	5879
2026-01-15 23:27:00.88	92.48	45.54	-38.8	-39.8	22.2	0.00e+00	0	30	0	633339904	50	6287
2026-01-15 23:27:01.89	92.03	45.73	-38.7	-39.7	22.2	0.00e+00	0	29	0	635437056	50	6238
2026-01-15 23:27:02.90	91.58	45.91	-38.4	-39.4	22.5	0.00e+00	0	29	0	637534208	50	6006
2026-01-15 23:27:03.91	91.12	46.09	-38.4	-39.4	22.5	0.00e+00	0	29	0	639631360	50	6027
2026-01-15 23:27:04.92	90.65	46.27	-38.7	-39.7	22.2	0.00e+00	0	30	0	640679936	50	6239
2026-01-15 23:27:05.93	90.18	46.45	-38.9	-40.0	22.0	0.00e+00	0	30	0	642777088	50	6459
2026-01-15 23:27:06.94	89.71	46.63	-38.8	-39.9	22.1	0.00e+00	0	30	0	644874240	50	6334
2026-01-15 23:27:07.94	89.23	46.81	-38.8	-39.9	22.1	0.00e+00	0	29	0	646971392	50	6337
2026-01-15 23:27:08.95	88.75	46.98	-39.0	-40.1	21.8	0.00e+00	0	29	0	649068544	50	6517
2026-01-15 23:27:09.96	88.25	47.15	-38.8	-39.9	22.1	0.00e+00	0	30	0	651165696	50	6374
2026-01-15 23:27:10.97	87.76	47.33	-38.6	-39.6	22.1	0.00e+00	0	29	0	652214272	50	6172
2026-01-15 23:27:11.97	87.26	47.49	-38.7	-39.8	22.2	0.00e+00	0	29	0	654311424	50	6282
2026-01-15 23:27:12.98	86.75	47.66	-38.8	-39.9	22.3	0.00e+00	0	30	0	656408576	50	6367
2026-01-15 23:27:13.99	86.24	47.83	-38.6	-39.6	22.3	0.00e+00	0	29	0	658505728	50	6164
2026-01-15 23:27:15.00	85.72	47.99	-38.7	-39.8	22.4	0.00e+00	0	30	0	659554304	50	6254
2026-01-15 23:27:16.00	85.20	48.16	-38.6	-39.6	22.3	0.00e+00	0	29	0	661651456	50	6157
2026-01-15 23:27:17.01	84.67	48.32	-38.6	-39.7	22.3	0.00e+00	0	29	0	663748608	50	6188
2026-01-15 23:27:18.02	84.13	48.47	-39.0	-40.1	21.6	0.00e+00	0	29	0	665845760	50	6480
2026-01-15 23:27:19.03	83.59	48.63	-39.3	-40.4	21.6	0.00e+00	0	30	0	667942912	50	6725
2026-01-15 23:27:20.04	83.04	48.79	-39.7	-40.8	21.3	0.00e+00	0	30	0	670040064	50	7067
2026-01-15 23:27:21.05	82.49	48.94	-39.9	-41.1	20.9	0.00e+00	0	30	0	671088640	52	6527
2026-01-15 23:27:22.05	81.94	49.09	-39.9	-41.2	21.0	0.00e+00	0	29	0	673185792	52	6568
2026-01-15 23:27:23.06	81.38	49.23	-40.0	-41.3	20.8	0.00e+00	0	29	0	675282944	52	6620
2026-01-15 23:27:24.07	80.81	49.38	-39.6	-40.8	21.4	0.00e+00	0	29	0	677380096	52	6265
2026-01-15 23:27:25.08	80.23	49.52	-39.6	-40.8	21.4	0.00e+00	0	30	0	679477248	52	6249
2026-01-15 23:27:26.09	79.65	49.66	-39.4	-40.5	21.6	0.00e+00	0	29	0	680525824	52	6073
2026-01-15 23:27:27.10	79.07	49.79	-39.5	-40.6	21.5	0.00e+00	0	30	0	682622976	52	6160
2026-01-15 23:27:28.11	78.48	49.93	-39.6	-40.7	21.3	0.00e+00	0	29	0	684720128	52	6239
2026-01-15 23:27:29.12	77.88	50.06	-39.7	-40.8	21.2	0.00e+00	0	29	0	686817280	52	6315
2026-01-15 23:27:30.13	77.28	50.19	-40.0	-41.2	21.0	0.00e+00	0	29	0	688914432	52	6572
2026-01-15 23:27:31.14	76.68	50.31	-40.0	-41.3	20.8	0.00e+00	0	29	0	689963008	52	6628
2026-01-15 23:27:32.14	76.08	50.43	-40.1	-41.3	20.7	0.00e+00	0	29	0	692060160	52	6666
2026-01-15 23:27:33.15	75.46	50.55	-39.8	-41.0	21.1	0.00e+00	0	29	0	694157312	52	6413
2026-01-15 23:27:34.16	74.84	50.67	-39.9	-41.1	21.1	0.00e+00	0	29	0	696254464	52	6479
2026-01-15 23:27:35.17	74.22	50.78	-39.6	-40.7	21.4	0.00e+00	0	30	0	698351616	52	6221
2026-01-15 23:27:36.18	73.59	50.89	-39.2	-40.3	21.8	0.00e+00	0	29	0	699400192	52	5951
2026-01-15 23:27:37.19	72.95	50.99	-39.3	-40.4	21.7	0.00e+00	0	29	0	701497344	52	6001
2026-01-15 23:27:38.20	72.32	51.09	-38.7	-39.7	22.3	0.00e+00	0	29	0	703594496	52	5536
2026-01-15 23:27:39.21	71.67	51.19	-38.5	-39.5	22.6	0.00e+00	0	29	0	705691648	50	6071
2026-01-15 23:27:40.22	71.03	51.29	-38.0	-39.0	22.9	0.00e+00	0	29	0	707788800	50	5737
2026-01-15 23:27:41.23	70.38	51.38	-37.6	-38.5	23.5	0.00e+00	0	29	0	708837376	48	6083
2026-01-15 23:27:42.24	69.72	51.46	-37.1	-37.9	23.9	0.00e+00	0	29	0	710934528	48	5680
2026-01-15 23:27:43.24	69.07	51.55	-36.7	-37.5	24.3	0.00e+00	0	29	0	713031680	46	6093
2026-01-15 23:27:44.25	68.41	51.63	-36.0	-36.8	24.9	0.00e+00	0	29	0	715128832	46	5628
2026-01-15 23:27:45.26	67.75	51.70	-35.6	-36.4	25.2	0.00e+00	0	29	0	717225984	44	6008
2026-01-15 23:27:46.27	67.08	51.77	-35.8	-36.5	25.0	0.00e+00	0	29	0	718274560	44	6100
2026-01-15 23:27:47.28	66.41	51.84	-35.3	-36.0	25.4	0.00e+00	0	29	0	720371712	44	5754
2026-01-15 23:27:48.29	65.73	51.90	-35.0	-35.8	25.2	0.00e+00	0	29	0	722468864	44	5575
2026-01-15 23:27:49.30	65.06	51.96	-34.9	-35.6	25.7	0.00e+00	0	29	0	724566016	44	5489
2026-01-15 23:27:50.31	64.38	52.02	-34.8	-35.6	25.9	0.00e+00	0	29	0	726663168	44	5444
2026-01-15 23:27:51.32	63.69	52.07	-34.8	-35.5	25.9	0.00e+00	0	29	0	727711744	42	6067
2026-01-15 23:27:52.33	63.01	52.12	-34.9	-35.6	25.9	0.00e+00	0	29	0	729808896	42	6171
2026-01-15 23:27:53.34	62.32	52.16	-35.0	-35.7	25.8	0.00e+00	0	29	0	731906048	42	6235
2026-01-15 23:27:54.35	61.64	52.20	-35.0	-35.8	25.7	0.00e+00	0	29	0	734003200	42	6264
2026-01-15 23:27:55.36	60.95	52.23	-34.8	-35.5	26.0	0.00e+00	0	29	0	736100352	42	6059
2026-01-15 23:27:56.37	60.25	52.26	-34.8	-35.5	25.9	0.00e+00	0	29	0	738197504	42	6093
2026-01-15 23:27:57.38	59.56	52.29	-35.0	-35.8	25.8	0.00e+00	0	29	0	739246080	42	6281
2026-01-15 23:27:58.39	58.87	52.31	-34.9	-35.6	25.9	0.00e+00	0	29	0	741343232	42	6143
2026-01-15 23:27:59.40	58.17	52.33	-34.8	-35.5	25.9	0.00e+00	0	29	0	743440384	42	6061
2026-01-15 23:28:00.41	57.48	52.34	-35.1	-35.8	25.6	0.00e+00	0	29	0	745537536	42	6302
2026-01-15 23:28:01.42	56.78	52.35	-35.4	-36.2	25.3	0.00e+00	0	29	0	747634688	42	6551
2026-01-15 23:28:02.42	56.09	52.35	-35.5	-36.2	25.3	0.00e+00	0	29	0	748683264	42	6613
2026-01-15 23:28:03.43	55.40	52.35	-35.4	-36.2	25.3	0.00e+00	0	29	0	750780416	42	6556
2026-01-15 23:28:04.44	54.70	52.35	-35.5	-36.3	25.2	0.00e+00	0	29	0	752877568	42	6661
2026-01-15 23:28:05.45	54.00	52.34	-35.4	-36.1	25.4	0.00e+00	0	29	0	754974720	42	6535
2026-01-15 23:28:06.46	53.31	52.33	-35.3	-36.0	25.4	0.00e+00	0	29	0	757071872	42	6450
2026-01-15 23:28:07.47	52.61	52.31	-35.5	-36.3	25.3	0.00e+00	0	29	0	758120448	42	6634
2026-01-15 23:28:08.48	51.92	52.29	-35.6	-36.3	25.2	0.00e+00	0	29	0	760217600	42	6677
2026-01-15 23:28:09.49	51.23	52.26	-35.6	-36.3	25.2	0.00e+00	0	29	0	762314752	42	6687
2026-01-15 23:28:10.50	50.54	52.23	-35.4	-36.2	25.2	0.00e+00	0	29	0	764411904	42	6580
2026-01-15 23:28:11.51	49.85	52.19	-35.8	-36.6	25.1	0.00e+00	0	29	0	766509056	42	6867
2026-01-15 23:28:12.52	49.16	52.15	-35.5	-36.3	25.1	0.00e+00	0	29	0	767557632	44	5922
2026-01-15 23:28:13.52	48.48	52.11	-35.5	-36.2	25.4	0.00e+00	0	29	0	769654784	44	5891
2026-01-15 23:28:14.54	47.79	52.06	-35.2	-35.9	25.6	0.00e+00	0	29	0	771751936	44	5695
2026-01-15 23:28:15.54	47.12	52.01	-35.2	-35.9	25.5	0.00e+00	0	29	0	773849088	44	5665
2026-01-15 23:28:16.55	46.44	51.95	-35.1	-35.8	25.6	0.00e+00	0	29	0	775946240	44	5618
2026-01-15 23:28:17.56	45.76	51.89	-34.9	-35.7	25.7	0.00e+00	0	29	0	776994816	44	5520
2026-01-15 23:28:18.57	45.09	51.83	-35.1	-35.8	25.6	0.00e+00	0	29	0	779091968	44	5622
2026-01-15 23:28:19.58	44.42	51.76	-35.4	-36.2	25.4	0.00e+00	0	29	0	781189120	44	5833
2026-01-15 23:28:20.59	43.75	51.69	-35.3	-36.1	25.5	0.00e+00	0	29	0	783286272	44	5776
2026-01-15 23:28:21.60	43.09	51.61	-35.2	-35.9	25.5	0.00e+00	0	29	0	785383424	44	5673
2026-01-15 23:28:22.61	42.43	51.53	-35.2	-35.9	25.4	0.00e+00	0	29	0	786432000	44	5679
2026-01-15 23:28:23.62	41.77	51.45	-35.2	-35.9	25.6	0.00e+00	0	29	0	788529152	44	5686
2026-01-15 23:28:24.62	41.12	51.36	-35.7	-36.4	25.2	0.00e+00	0	29	0	790626304	44	6026
2026-01-15 23:28:25.63	40.47	51.27	-35.9	-36.7	24.9	0.00e+00	0	29	0	792723456	44	6206
2026-01-15 23:28:26.64	39.83	51.18	-36.2	-37.1	24.5	0.00e+00	0	29	0	794820608	44	6479
2026-01-15 23:28:27.65	39.19	51.08	-36.7	-37.5	24.1	0.00e+00	0	29	0	795869184	44	6827
2026-01-15 23:28:28.66	38.55	50.98	-37.0	-37.9	23.9	0.00e+00	0	29	0	797966336	46	6350
2026-01-15 23:28:29.67	37.92	50.87	-37.2	-38.1	23.7	0.00e+00	0	29	0	800063488	46	6527
2026-01-15 23:28:30.67	37.30	50.76	-37.4	-38.3	23.5	0.00e+00	0	29	0	802160640	46	6686
2026-01-15 23:28:31.68	36.68	50.65	-37.6	-38.5	23.4	0.00e+00	0	29	0	804257792	46	6815
2026-01-15 23:28:32.69	36.06	50.53	-37.8	-38.7	23.1	0.00e+00	0	29	0	805306368	48	6228
2026-01-15 23:28:33.70	35.45	50.42	-38.3	-39.2	22.7	0.00e+00	0	29	0	807403520	48	6614
2026-01-15 23:28:34.71	34.84	50.29	-38.7	-39.7	22.1	0.00e+00	0	29	0	809500672	48	6978
2026-01-15 23:28:35.72	34.23	50.17	-39.2	-40.4	21.6	0.00e+00	0	29	0	811597824	50	6701
2026-01-15 23:28:36.73	33.64	50.04	-39.4	-40.5	21.6	0.00e+00	0	29	0	813694976	50	6829
2026-01-15 23:28:37.74	33.04	49.91	-39.2	-40.4	21.7	0.00e+00	0	29	0	814743552	50	6705
2026-01-15 23:28:38.74	32.46	49.78	-39.1	-40.2	21.9	0.00e+00	0	29	0	816840704	50	6570
2026-01-15 23:28:39.75	31.88	49.64	-39.6	-40.8	21.1	0.00e+00	0	29	0	818937856	50	7055
2026-01-15 23:28:40.76	31.30	49.50	-39.8	-41.0	21.0	0.00e+00	0	29	0	821035008	52	6435
2026-01-15 23:28:41.77	30.73	49.36	-39.7	-40.9	21.2	0.00e+00	0	29	0	823132160	52	6352
2026-01-15 23:28:42.78	30.16	49.22	-39.2	-40.3	21.6	0.00e+00	0	29	0	824180736	52	5915
2026-01-15 23:28:43.79	29.60	49.07	-39.5	-40.7	21.5	0.00e+00	0	29	0	826277888	52	6183
2026-01-15 23:28:44.80	29.04	48.92	-39.6	-40.8	21.2	0.00e+00	0	29	0	828375040	52	6291
2026-01-15 23:28:45.81	28.49	48.77	-39.3	-40.4	21.7	0.00e+00	0	29	0	830472192	52	6004
2026-01-15 23:28:46.82	27.95	48.61	-39.3	-40.4	21.8	0.00e+00	0	29	0	832569344	52	6001
2026-01-15 23:28:47.82	27.41	48.46	-38.7	-39.8	22.2	0.00e+00	0	29	0	834666496	52	5595
2026-01-15 23:28:48.83	26.88	48.30	-38.9	-40.0	22.0	0.00e+00	0	29	0	835715072	50	6455
2026-01-15 23:28:49.84	26.35	48.14	-39.4	-40.6	21.4	0.00e+00	0	29	0	837812224	50	6869
2026-01-15 23:28:50.85	25.83	47.98	-39.5	-40.7	21.3	0.00e+00	0	29	0	839909376	50	6959
2026-01-15 23:28:51.86	25.31	47.81	-39.3	-40.5	21.5	0.00e+00	0	29	0	842006528	50	6809
2026-01-15 23:28:52.87	24.80	47.65	-39.1	-40.3	21.9	0.00e+00	0	29	0	844103680	50	6619
2026-01-15 23:28:53.88	24.29	47.48	-38.8	-39.9	22.1	0.00e+00	0	29	0	845152256	50	6364
2026-01-15 23:28:54.89	23.79	47.31	-38.9	-40.1	21.9	0.00e+00	0	29	0	847249408	50	6484
2026-01-15 23:28:55.90	23.29	47.14	-39.6	-40.8	21.2	0.00e+00	0	29	0	849346560	50	7024
2026-01-15 23:28:56.91	22.80	46.96	-40.1	-41.4	20.7	0.00e+00	0	29	0	851443712	52	6726
2026-01-15 23:28:57.92	22.32	46.79	-40.7	-42.1	20.0	0.00e+00	0	29	0	853540864	52	7310
2026-01-15 23:28:58.93	21.84	46.61	-40.6	-42.0	20.2	0.00e+00	0	29	0	854589440	54	6443
2026-01-15 23:28:59.94	21.37	46.43	-40.5	-41.9	20.3	0.00e+00	0	29	0	856686592	54	6350
2026-01-15 23:29:00.95	20.90	46.25	-40.3	-41.7	20.4	0.00e+00	0	29	0	858783744	54	6178
2026-01-15 23:29:01.96	20.44	46.07	-40.4	-41.7	20.4	0.00e+00	0	29	0	860880896	54	6215
2026-01-15 23:29:02.97	19.98	45.89	-40.5	-41.8	20.4	0.00e+00	0	29	0	862978048	54	6292
2026-01-15 23:29:03.97	19.53	45.71	-40.6	-41.9	20.3	0.00e+00	0	29	0	864026624	54	6388
2026-01-15 23:29:04.98	19.08	45.53	-40.4	-41.7	20.4	0.00e+00	0	29	0	866123776	54	6180
2026-01-15 23:29:05.99	18.64	45.34	-40.2	-41.5	20.7	0.00e+00	0	29	0	868220928	54	6065
2026-01-15 23:29:07.00	18.20	45.16	-40.2	-41.5	20.6	0.00e+00	0	29	0	870318080	54	6070
2026-01-15 23:29:08.01	17.77	44.97	-40.3	-41.7	20.5	0.00e+00	0	29	0	872415232	54	6177
2026-01-15 23:29:09.02	17.35	44.78	-40.1	-41.4	20.8	0.00e+00	0	29	0	873463808	54	5979
2026-01-15 23:29:10.03	16.93	44.59	-39.6	-40.8	21.3	0.00e+00	0	29	0	875560960	52	6291
2026-01-15 23:29:11.04	16.51	44.40	-39.6	-40.8	21.4	0.00e+00	0	29	0	877658112	52	6249
2026-01-15 23:29:12.05	16.10	44.21	-39.3	-40.4	21.7	0.00e+00	0	29	0	879755264	52	5994
2026-01-15 23:29:13.06	15.69	44.02	-39.1	-40.1	21.9	0.00e+00	0	29	0	881852416	52	5827
2026-01-15 23:29:14.07	15.29	43.83	-38.8	-39.8	22.2	0.00e+00	0	29	0	882900992	52	5601
2026-01-15 23:29:15.08	14.89	43.64	-39.0	-40.1	21.9	0.00e+00	0	29	0	884998144	50	6487
2026-01-15 23:29:16.09	14.50	43.44	-39.2	-40.3	21.7	0.00e+00	0	29	0	887095296	50	6654
2026-01-15 23:29:17.09	14.12	43.25	-39.1	-40.2	21.8	0.00e+00	0	29	0	889192448	50	6565
2026-01-15 23:29:18.10	13.74	43.06	-38.8	-39.8	22.0	0.00e+00	0	29	0	891289600	50	6309
2026-01-15 23:29:19.11	13.36	42.87	-38.7	-39.8	22.2	0.00e+00	0	29	0	892338176	50	6251
2026-01-15 23:29:20.12	12.98	42.67	-38.7	-39.7	22.2	0.00e+00	0	29	0	894435328	50	6244
2026-01-15 23:29:21.13	12.62	42.48	-38.7	-39.7	22.2	0.00e+00	0	29	0	896532480	50	6238
2026-01-15 23:29:22.14	12.25	42.28	-39.0	-40.1	21.9	0.00e+00	0	29	0	898629632	50	6495
2026-01-15 23:29:23.15	11.89	42.08	-39.7	-40.9	21.3	0.00e+00	0	29	0	900726784	50	7141
2026-01-15 23:29:24.16	11.54	41.89	-40.2	-41.5	20.7	0.00e+00	0	29	0	902823936	52	6792
2026-01-15 23:29:25.16	11.19	41.69	-40.3	-41.6	20.6	0.00e+00	0	29	0	903872512	52	6855
2026-01-15 23:29:26.17	10.84	41.50	-40.1	-41.4	20.7	0.00e+00	0	29	0	905969664	52	6717
2026-01-15 23:29:27.18	10.50	41.30	-40.0	-41.2	20.9	0.00e+00	0	29	0	908066816	52	6563
2026-01-15 23:29:28.19	10.16	41.11	-40.1	-41.3	20.7	0.00e+00	0	29	0	910163968	52	6657
2026-01-15 23:29:29.20	9.83	40.91	-40.1	-41.4	20.8	0.00e+00	0	29	0	912261120	52	6716
2026-01-15 23:29:30.21	9.50	40.71	-40.3	-41.6	20.5	0.00e+00	0	29	0	913309696	52	6856
2026-01-15 23:29:31.21	9.17	40.52	-40.5	-41.8	20.2	0.00e+00	0	29	0	915406848	52	7074
2026-01-15 23:29:32.22	8.85	40.32	-40.7	-42.1	20.1	0.00e+00	0	29	0	917504000	52	7287
2026-01-15 23:29:33.23	8.53	40.13	-40.6	-42.0	20.1	0.00e+00	0	29	0	919601152	52	7219
2026-01-15 23:29:34.24	8.22	39.93	-40.7	-42.1	19.9	0.00e+00	0	29	0	920649728	52	7258
2026-01-15 23:29:35.25	7.91	39.73	-41.0	-42.6	19.5	0.00e+00	0	29	0	922746880	54	6852
2026-01-15 23:29:36.26	7.60	39.54	-41.5	-43.2	18.9	0.00e+00	0	29	0	924844032	54	7372
2026-01-15 23:29:37.27	7.30	39.34	-41.6	-43.2	18.9	0.00e+00	0	29	0	926941184	54	7412
2026-01-15 23:29:38.28	7.00	39.15	-41.4	-43.0	19.1	0.00e+00	0	29	0	929038336	54	7248
2026-01-15 23:29:39.29	6.70	38.95	-41.0	-42.5	19.6	0.00e+00	0	29	0	931135488	54	6834
2026-01-15 23:29:40.30	6.41	38.76	-40.7	-42.1	20.0	0.00e+00	0	29	0	932184064	54	6530
2026-01-15 23:29:41.30	6.12	38.56	-40.1	-41.4	20.8	0.00e+00	0	29	0	934281216	54	5974
2026-01-15 23:29:42.31	5.84	38.37	-39.8	-41.0	21.1	0.00e+00	0	29	0	936378368	54	5725
2026-01-15 23:29:43.33	5.55	38.17	-39.8	-41.0	21.1	0.00e+00	0	29	0	938475520	52	6459
2026-01-15 23:29:44.34	5.28	37.98	-40.1	-41.4	20.8	0.00e+00	0	29	0	940572672	52	6726
2026-01-15 23:29:45.35	5.00	37.78	-40.2	-41.5	20.5	0.00e+00	0	29	0	941621248	52	6798
2026-01-15 23:29:46.36	4.73	37.59	-40.2	-41.5	20.6	0.00e+00	0	29	0	943718400	52	6822
2026-01-15 23:29:47.36	4.46	37.40	-39.9	-41.2	21.0	0.00e+00	0	29	0	945815552	52	6544
2026-01-15 23:29:48.37	4.20	37.21	-39.7	-41.0	21.1	0.00e+00	0	29	0	947912704	52	6442
2026-01-15 23:29:49.38	3.94	37.02	-39.8	-41.2	20.9	0.00e+00	0	29	0	950009856	52	6540
2026-01-15 23:29:50.39	3.68	36.82	-39.8	-41.0	21.0	0.00e+00	0	29	0	951058432	52	6462
2026-01-15 23:29:51.40	3.42	36.63	-39.6	-40.9	21.3	0.00e+00	0	29	0	953155584	52	6328
2026-01-15 23:29:52.41	3.17	36.44	-39.3	-40.5	21.7	0.00e+00	0	29	0	955252736	52	6045
2026-01-15 23:29:53.42	2.92	36.25	-39.2	-40.3	21.7	0.00e+00	0	29	0	957349888	52	5937
2026-01-15 23:29:54.43	2.67	36.06	-39.3	-40.5	21.5	0.00e+00	0	29	0	959447040	52	6060
2026-01-15 23:29:55.44	2.43	35.87	-39.4	-40.6	21.3	0.00e+00	0	29	0	960495616	52	6129
2026-01-15 23:29:56.45	2.18	35.69	-39.5	-40.8	21.3	0.00e+00	0	29	0	962592768	52	6253
2026-01-15 23:29:57.46	1.94	35.50	-39.5	-40.7	21.2	0.00e+00	0	29	0	964689920	52	6239
2026-01-15 23:29:58.46	1.71	35.31	-39.4	-40.7	21.1	0.00e+00	0	29	0	966787072	52	6188
2026-01-15 23:29:59.47	1.48	35.12	-39.3	-40.7	21.4	0.00e+00	0	29	0	968884224	52	6203
2026-01-15 23:30:00.48	1.25	34.94	-39.4	-40.8	21.3	0.00e+00	0	29	0	969932800	52	6255
2026-01-15 23:30:01.49	1.02	34.75	-39.5	-40.9	21.2	0.00e+00	0	29	0	972029952	52	6343
2026-01-15 23:30:02.50	0.79	34.57	-39.6	-40.9	21.2	0.00e+00	0	29	0	974127104	52	6377
2026-01-15 23:30:03.51	0.57	34.38	-39.8	-41.1	21.0	0.00e+00	0	29	0	976224256	52	6522
2026-01-15 23:30:04.52	0.35	34.20	-40.0	-41.3	20.8	0.00e+00	0	29	0	978321408	52	6655
2026-01-15 23:30:05.53	0.13	34.02	-40.2	-41.5	20.7	0.00e+00	0	29	0	979369984	52	6797
2026-01-15 23:30:06.54	359.92	33.83	-40.3	-41.6	20.5	0.00e+00	0	29	0	981467136	52	6916
2026-01-15 23:30:07.54	359.71	33.65	-40.0	-41.3	20.7	0.00e+00	0	29	0	983564288	52	6661
2026-01-15 23:30:08.55	359.50	33.47	-39.9	-41.2	20.9	0.00e+00	0	29	0	985661440	52	6564
2026-01-15 23:30:09.56	359.29	33.29	-40.0	-41.3	20.8	0.00e+00	0	29	0	987758592	52	6684
2026-01-15 23:30:10.57	359.09	33.11	-40.3	-41.6	20.6	0.00e+00	0	29	0	988807168	52	6906
2026-01-15 23:30:11.58	358.88	32.93	-40.4	-41.9	20.3	0.00e+00	0	29	0	990904320	52	7090
2026-01-15 23:30:12.59	358.68	32.75	-40.4	-41.9	20.2	0.00e+00	0	29	0	993001472	52	7151
2026-01-15 23:30:13.59	358.48	32.57	-40.1	-41.5	20.6	0.00e+00	0	29	0	995098624	52	6825
2026-01-15 23:30:14.60	358.29	32.40	-39.8	-41.2	20.9	0.00e+00	0	29	0	997195776	52	6568
2026-01-15 23:30:15.61	358.09	32.22	-39.7	-41.0	21.1	0.00e+00	0	29	0	998244352	52	6422
2026-01-15 23:30:16.62	357.90	32.04	-39.4	-40.6	21.5	0.00e+00	0	29	0	1000341504	52	6147
2026-01-15 23:30:17.63	357.71	31.87	-39.2	-40.4	21.6	0.00e+00	0	29	0	1002438656	52	5991
2026-01-15 23:30:18.64	357.52	31.69	-39.2	-40.3	21.7	0.00e+00	0	29	0	1004535808	52	5964
2026-01-15 23:30:19.65	357.34	31.52	-39.3	-40.4	21.6	0.00e+00	0	29	0	1006632960	52	6000
2026-01-15 23:30:20.66	357.15	31.34	-39.3	-40.4	21.5	0.00e+00	0	29	0	1008730112	52	6017
2026-01-15 23:30:21.67	356.97	31.17	-39.4	-40.6	21.4	0.00e+00	0	29	0	1009778688	52	6127
2026-01-15 23:30:22.68	356.79	31.00	-39.5	-40.7	21.3	0.00e+00	0	29	0	1011875840	52	6220
2026-01-15 23:30:23.69	356.61	30.83	-39.6	-40.8	21.2	0.00e+00	0	29	0	1013972992	52	6315
2026-01-15 23:30:24.70	356.44	30.66	-39.5	-40.8	21.2	0.00e+00	0	29	0	1016070144	52	6280
2026-01-15 23:30:25.71	356.26	30.49	-39.5	-40.7	21.3	0.00e+00	0	29	0	1018167296	52	6238
2026-01-15 23:30:26.71	356.09	30.32	-39.4	-40.6	21.4	0.00e+00	0	29	0	1019215872	52	6145
2026-01-15 23:30:27.72	355.92	30.15	-39.3	-40.6	21.5	0.00e+00	0	29	0	1021313024	52	6117
2026-01-15 23:30:28.73	355.75	29.98	-39.2	-40.4	21.6	0.00e+00	0	29	0	1023410176	52	5996
2026-01-15 23:30:29.74	355.58	29.81	-39.2	-40.4	21.6	0.00e+00	0	29	0	1025507328	52	5973
2026-01-15 23:30:30.75	355.42	29.65	-39.3	-40.4	21.6	0.00e+00	0	29	0	1027604480	52	6016
2026-01-15 23:30:31.75	355.26	29.48	-39.1	-40.2	21.8	0.00e+00	0	29	0	1028653056	52	5844
2026-01-15 23:30:32.76	355.10	29.32	-39.0	-40.1	21.9	0.00e+00	0	29	0	1030750208	52	5815
2026-01-15 23:30:33.77	354.94	29.15	-38.9	-40.0	22.0	0.00e+00	0	29	0	1032847360	52	5703
2026-01-15 23:30:34.78	354.78	28.99	-38.4	-39.4	22.5	0.00e+00	0	29	0	1034944512	50	6031
2026-01-15 23:30:35.79	354.62	28.83	-38.4	-39.4	22.6	0.00e+00	0	29	0	1037041664	50	5972
2026-01-15 23:30:36.80	354.46	28.66	-38.3	-39.3	22.5	0.00e+00	0	29	0	1038090240	50	5934
2026-01-15 23:30:37.81	354.31	28.50	-38.3	-39.3	22.6	0.00e+00	0	29	0	1040187392	50	5963
2026-01-15 23:30:38.82	354.16	28.34	-38.4	-39.4	22.5	0.00e+00	0	29	0	1042284544	50	6029
2026-01-15 23:30:39.83	354.01	28.18	-38.3	-39.3	22.5	0.00e+00	0	29	0	1044381696	50	5957
2026-01-15 23:30:40.84	353.86	28.02	-38.3	-39.3	22.5	0.00e+00	0	29	0	1046478848	50	5949
2026-01-15 23:30:41.85	353.71	27.86	-38.1	-39.2	22.7	0.00e+00	0	29	0	1047527424	50	5841
2026-01-15 23:30:42.86	353.57	27.71	-38.2	-39.3	22.6	0.00e+00	0	29	0	1049624576	50	5910
2026-01-15 23:30:43.86	353.42	27.55	-38.3	-39.4	22.4	0.00e+00	0	29	0	1051721728	50	5989
2026-01-15 23:30:44.87	353.28	27.39	-38.2	-39.2	22.5	0.00e+00	0	29	0	1053818880	50	5894
2026-01-15 23:30:45.88	353.14	27.24	-38.1	-39.2	22.7	0.00e+00	0	29	0	1055916032	50	5851
2026-01-15 23:30:46.89	353.00	27.08	-38.3	-39.3	22.6	0.00e+00	0	29	0	1056964608	50	5937
2026-01-15 23:30:47.90	352.86	26.93	-38.2	-39.3	22.5	0.00e+00	0	29	0	1059061760	50	5909
2026-01-15 23:30:48.91	352.72	26.77	-38.1	-39.1	22.6	0.00e+00	0	29	0	1061158912	50	5814
2026-01-15 23:30:49.92	352.59	26.62	-38.0	-39.0	22.8	0.00e+00	0	29	0	1063256064	50	5741
2026-01-15 23:30:50.93	352.45	26.47	-38.0	-39.0	22.8	0.00e+00	0	29	0	1065353216	50	5742
2026-01-15 23:30:51.94	352.32	26.31	-38.1	-39.1	22.7	0.00e+00	0	29	0	1066401792	50	5788
2026-01-15 23:30:52.95	352.18	26.16	-38.2	-39.2	22.6	0.00e+00	0	29	0	1068498944	50	5864
2026-01-15 23:30:53.95	352.06	26.01	-38.3	-39.3	22.5	0.00e+00	0	29	0	1070596096	50	5932
2026-01-15 23:30:54.96	351.93	25.86	-38.4	-39.5	22.4	0.00e+00	0	29	0	1072693248	50	6040
2026-01-15 23:30:55.97	351.80	25.71	-38.4	-39.4	22.4	0.00e+00	0	29	0	1074790400	50	6029
2026-01-15 23:30:56.98	351.67	25.57	-38.4	-39.4	22.4	0.00e+00	0	29	0	1075838976	50	6019
2026-01-15 23:30:57.99	351.54	25.42	-38.2	-39.3	22.6	0.00e+00	0	29	0	1077936128	50	5910
2026-01-15 23:30:59.00	351.42	25.27	-38.3	-39.4	22.4	0.00e+00	0	29	0	1080033280	50	5984
2026-01-15 23:31:00.01	351.30	25.12	-38.3	-39.3	22.5	0.00e+00	0	29	0	1082130432	50	5950
2026-01-15 23:31:00.99	351.18	24.98	-38.0	-39.1	22.6	0.00e+00	0	29	0	1084227584	50	5792
2026-01-15 23:31:02.00	351.06	24.84	-38.1	-39.2	22.7	0.00e+00	0	28	0	1085276160	50	5834
2026-01-15 23:31:03.01	350.94	24.69	-38.0	-39.1	22.8	0.00e+00	0	29	0	1087373312	50	5772
2026-01-15 23:31:04.02	350.82	24.55	-37.7	-38.7	23.1	0.00e+00	0	29	0	1089470464	48	6200
2026-01-15 23:31:05.03	350.70	24.41	-37.8	-38.8	22.9	0.00e+00	0	29	0	1091567616	48	6263
2026-01-15 23:31:06.04	350.58	24.26	-37.4	-38.3	23.3	0.00e+00	0	29	0	1093664768	48	5956
2026-01-15 23:31:07.05	350.47	24.12	-37.3	-38.2	23.4	0.00e+00	0	29	0	1094713344	48	5860
2026-01-15 23:31:08.06	350.35	23.98	-37.2	-38.2	23.6	0.00e+00	0	29	0	1096810496	48	5829
2026-01-15 23:31:09.06	350.24	23.84	-37.4	-38.3	23.3	0.00e+00	0	29	0	1098907648	48	5919
2026-01-15 23:31:10.07	350.13	23.70	-37.3	-38.2	23.5	0.00e+00	0	29	0	1101004800	48	5845
2026-01-15 23:31:11.08	350.02	23.56	-37.4	-38.3	23.4	0.00e+00	0	28	0	1103101952	48	5927
2026-01-15 23:31:12.09	349.91	23.42	-37.3	-38.2	23.5	0.00e+00	0	29	0	1104150528	48	5874
2026-01-15 23:31:13.10	349.80	23.28	-37.4	-38.3	23.4	0.00e+00	0	28	0	1106247680	48	5911
2026-01-15 23:31:14.11	349.69	23.15	-37.5	-38.4	23.3	0.00e+00	0	29	0	1108344832	48	5993
2026-01-15 23:31:15.12	349.58	23.01	-37.5	-38.4	23.3	0.00e+00	0	29	0	1110441984	48	6028
2026-01-15 23:31:16.13	349.47	22.87	-37.5	-38.4	23.2	0.00e+00	0	29	0	1112539136	48	5984
2026-01-15 23:31:17.14	349.37	22.74	-37.5	-38.4	23.3	0.00e+00	0	29	0	1113587712	48	6020
2026-01-15 23:31:18.15	349.26	22.60	-37.5	-38.4	23.2	0.00e+00	0	29	0	1115684864	48	6021
2026-01-15 23:31:19.16	349.16	22.47	-37.6	-38.5	23.2	0.00e+00	0	29	0	1117782016	48	6071
2026-01-15 23:31:20.16	349.06	22.33	-37.7	-38.7	22.9	0.00e+00	0	29	0	1119879168	48	6195
2026-01-15 23:31:21.17	348.96	22.20	-37.8	-38.8	22.9	0.00e+00	0	29	0	1121976320	48	6297
2026-01-15 23:31:22.18	348.85	22.07	-37.7	-38.7	23.1	0.00e+00	0	29	0	1123024896	48	6195
2026-01-15 23:31:23.19	348.75	21.94	-37.8	-38.8	23.0	0.00e+00	0	29	0	1125122048	48	6259
2026-01-15 23:31:24.20	348.66	21.80	-37.8	-38.7	23.0	0.00e+00	0	28	0	1127219200	48	6229
2026-01-15 23:31:25.21	348.56	21.67	-37.8	-38.8	22.9	0.00e+00	0	29	0	1129316352	48	6259
2026-01-15 23:31:26.21	348.46	21.54	-37.9	-38.9	22.9	0.00e+00	0	28	0	1131413504	48	6323
2026-01-15 23:31:27.22	348.36	21.41	-37.9	-38.9	22.8	0.00e+00	0	28	0	1133510656	48	6329
2026-01-15 23:31:28.23	348.27	21.28	-37.9	-38.9	22.9	0.00e+00	0	29	0	1134559232	48	6363
2026-01-15 23:31:29.24	348.17	21.16	-37.9	-38.9	22.8	0.00e+00	0	28	0	1136656384	48	6364
2026-01-15 23:31:30.25	348.08	21.03	-38.0	-39.0	22.7	0.00e+00	0	29	0	1138753536	48	6454
2026-01-15 23:31:31.26	347.99	20.90	-38.1	-39.1	22.7	0.00e+00	0	28	0	1140850688	48	6467
2026-01-15 23:31:32.27	347.89	20.77	-38.1	-39.0	22.6	0.00e+00	0	28	0	1142947840	48	6463
2026-01-15 23:31:33.28	347.80	20.65	-38.0	-39.0	22.7	0.00e+00	0	29	0	1143996416	48	6455
2026-01-15 23:31:34.29	347.71	20.52	-38.2	-39.2	22.5	0.00e+00	0	28	0	1146093568	48	6577
2026-01-15 23:31:35.30	347.62	20.40	-38.1	-39.1	22.6	0.00e+00	0	28	0	1148190720	48	6471
2026-01-15 23:31:36.31	347.53	20.27	-38.1	-39.1	22.6	0.00e+00	0	28	0	1150287872	48	6472
2026-01-15 23:31:37.32	347.44	20.15	-37.9	-38.9	22.8	0.00e+00	0	29	0	1152385024	48	6342
2026-01-15 23:31:38.32	347.36	20.02	-37.9	-38.8	22.9	0.00e+00	0	29	0	1153433600	48	6305
2026-01-15 23:31:39.33	347.27	19.90	-37.7	-38.7	22.9	0.00e+00	0	29	0	1155530752	48	6214
2026-01-15 23:31:40.34	347.18	19.78	-37.6	-38.6	23.1	0.00e+00	0	28	0	1157627904	48	6137
2026-01-15 23:31:41.35	347.10	19.66	-37.8	-38.8	23.0	0.00e+00	0	29	0	1159725056	48	6246
2026-01-15 23:31:42.36	347.01	19.53	-37.6	-38.5	23.1	0.00e+00	0	28	0	1161822208	48	6096
2026-01-15 23:31:43.37	346.93	19.41	-37.6	-38.5	23.1	0.00e+00	0	29	0	1162870784	48	6095
2026-01-15 23:31:44.38	346.84	19.29	-37.4	-38.4	23.2	0.00e+00	0	29	0	1164967936	48	5992
2026-01-15 23:31:45.39	346.76	19.17	-37.6	-38.5	23.1	0.00e+00	0	29	0	1167065088	48	6097
2026-01-15 23:31:46.39	346.68	19.05	-37.5	-38.4	23.2	0.00e+00	0	29	0	1169162240	48	6011
2026-01-15 23:31:47.40	346.60	18.94	-37.5	-38.4	23.2	0.00e+00	0	29	0	1171259392	48	6020
2026-01-15 23:31:48.41	346.52	18.82	-37.5	-38.4	23.2	0.00e+00	0	28	0	1172307968	48	6012
2026-01-15 23:31:49.42	346.44	18.70	-37.5	-38.4	23.2	0.00e+00	0	28	0	1174405120	48	6033
2026-01-15 23:31:50.43	346.36	18.58	-37.5	-38.5	23.1	0.00e+00	0	29	0	1176502272	48	6059
2026-01-15 23:31:51.44	346.28	18.46	-37.5	-38.4	23.1	0.00e+00	0	28	0	1178599424	48	6031
2026-01-15 23:31:52.45	346.20	18.35	-37.5	-38.4	23.2	0.00e+00	0	28	0	1180696576	48	6032
2026-01-15 23:31:53.45	346.12	18.23	-37.5	-38.5	23.2	0.00e+00	0	28	0	1181745152	48	6049
2026-01-15 23:31:54.47	346.04	18.12	-37.6	-38.6	23.1	0.00e+00	0	29	0	1183842304	48	6109
2026-01-15 23:31:55.48	345.97	18.00	-37.6	-38.6	22.9	0.00e+00	0	28	0	1185939456	48	6129
2026-01-15 23:31:56.48	345.89	17.89	-37.8	-38.8	22.8	0.00e+00	0	29	0	1188036608	48	6263
2026-01-15 23:31:57.49	345.82	17.77	-37.8	-38.8	22.7	0.00e+00	0	29	0	1190133760	48	6301
2026-01-15 23:31:58.50	345.74	17.66	-37.8	-38.8	22.8	0.00e+00	0	28	0	1191182336	48	6302
2026-01-15 23:31:59.51	345.67	17.55	-38.0	-39.0	22.6	0.00e+00	0	28	0	1193279488	48	6450
2026-01-15 23:32:00.52	345.59	17.43	-38.0	-39.0	22.6	0.00e+00	0	29	0	1195376640	48	6420
2026-01-15 23:32:01.53	345.52	17.32	-38.0	-39.0	22.6	0.00e+00	0	28	0	1197473792	48	6464
2026-01-15 23:32:02.54	345.45	17.21	-38.0	-39.0	22.6	0.00e+00	0	28	0	1199570944	48	6430
2026-01-15 23:32:03.55	345.38	17.10	-38.1	-39.1	22.5	0.00e+00	0	28	0	1200619520	48	6525
2026-01-15 23:32:04.56	345.31	16.99	-38.2	-39.3	22.4	0.00e+00	0	28	0	1202716672	48	6648
