passes_logs/2026/01/15/R4.6S_Anadyr/R4.6S_Anadyr__20260115_230005_SUOMI_NPP_rec.log

#Pass ID: 20260115_230005_SUOMI NPP
#Satellite: SUOMI NPP
#Configuration: NPP
#almurnet v.1.7.20251203
#Start time: 2026-01-15 23:00:07

#Version: 2.2.20231116
#Station: R4.6S_Anadyr
#Location: 177.4865 lon 64.73178 lat
#TLE: 1 37849U 11061A   26014.61059675  .00000037  00000+0  38639-4 0  9994
#TLE: 2 37849  98.7810 316.6625 0002460  64.3781 295.7649 14.19525105736658

#Time	Az	El	Level	Level2	SNR	BER	BlckErr	Temp	State	Recorded	gain1	gain2
2026-01-15 23:00:07.50	124.70	0.14	-48.2	-60.7	3.5	1.52e+00	0	25	0	0	60	38225
2026-01-15 23:00:08.51	124.67	0.20	-48.2	-63.5	3.6	1.51e+00	0	26	104	0	60	53788
2026-01-15 23:00:09.52	124.64	0.26	-48.1	-63.3	3.6	1.51e+00	0	26	104	0	60	53134
2026-01-15 23:00:10.53	124.61	0.32	-48.2	-63.4	3.6	1.51e+00	0	26	104	0	60	53377
2026-01-15 23:00:11.53	124.58	0.38	-48.4	-63.6	3.6	1.51e+00	0	26	104	0	60	54398
2026-01-15 23:00:12.54	124.54	0.43	-48.4	-63.5	3.6	1.51e+00	0	26	104	0	60	54303
2026-01-15 23:00:13.55	124.51	0.49	-48.4	-63.6	3.6	1.51e+00	0	26	104	0	60	54493
2026-01-15 23:00:14.56	124.48	0.55	-48.3	-63.5	3.6	1.51e+00	0	26	104	0	60	53886
2026-01-15 23:00:15.57	124.45	0.61	-48.2	-63.5	3.6	1.51e+00	0	26	104	0	60	54276
2026-01-15 23:00:16.58	124.41	0.67	-48.3	-63.6	3.6	1.51e+00	0	26	104	0	60	54594
2026-01-15 23:00:17.59	124.38	0.73	-48.3	-63.5	3.6	1.51e+00	0	26	104	0	60	54134
2026-01-15 23:00:18.60	124.35	0.79	-48.3	-63.5	3.6	1.51e+00	0	26	104	0	60	53977
2026-01-15 23:00:19.61	124.32	0.86	-48.2	-63.4	3.6	1.51e+00	0	26	104	0	60	53590
2026-01-15 23:00:20.62	124.28	0.92	-47.9	-63.4	3.6	1.51e+00	0	26	104	0	60	53521
2026-01-15 23:00:21.63	124.25	0.98	-47.6	-63.3	3.5	1.51e+00	0	26	104	0	60	52633
2026-01-15 23:00:22.64	124.22	1.04	-47.4	-63.2	3.6	1.51e+00	0	26	104	0	60	52454
2026-01-15 23:00:23.65	124.18	1.10	-47.6	-63.0	3.6	1.51e+00	0	26	104	0	60	50879
2026-01-15 23:00:24.66	124.15	1.16	-46.7	-62.9	3.6	1.51e+00	0	26	104	0	60	50553
2026-01-15 23:00:25.66	124.11	1.22	-47.4	-62.7	3.6	1.51e+00	0	27	104	0	60	49105
2026-01-15 23:00:26.67	124.08	1.28	-46.3	-62.2	3.6	1.51e+00	0	26	104	0	60	46464
2026-01-15 23:00:27.68	124.05	1.34	-44.6	-61.7	3.6	1.51e+00	0	26	104	0	60	44190
2026-01-15 23:00:28.69	124.01	1.40	-44.6	-61.7	3.6	1.51e+00	0	26	104	0	60	43897
2026-01-15 23:00:29.70	123.98	1.46	-44.6	-61.7	3.6	1.51e+00	0	27	104	0	60	43745
2026-01-15 23:00:30.71	123.94	1.53	-44.6	-61.7	3.6	1.51e+00	0	27	104	0	60	43866
2026-01-15 23:00:31.72	123.91	1.59	-44.6	-61.7	3.5	1.51e+00	0	27	104	0	60	43782
2026-01-15 23:00:32.73	123.87	1.65	-44.6	-61.7	3.6	1.51e+00	0	27	104	0	60	43878
2026-01-15 23:00:33.74	123.84	1.71	-44.6	-61.7	3.6	1.51e+00	0	27	104	0	60	43990
2026-01-15 23:00:34.75	123.80	1.77	-44.6	-61.7	3.6	1.51e+00	0	27	104	0	60	43753
2026-01-15 23:00:35.76	123.77	1.84	-44.6	-61.7	3.5	1.51e+00	0	27	104	0	60	43898
2026-01-15 23:00:36.77	123.73	1.90	-44.6	-61.7	3.6	1.51e+00	0	27	104	0	60	43916
2026-01-15 23:00:37.78	123.69	1.96	-44.6	-61.7	3.6	1.51e+00	0	27	104	0	60	43742
2026-01-15 23:00:38.79	123.66	2.02	-44.6	-61.6	3.6	1.51e+00	0	27	104	0	60	43272
2026-01-15 23:00:39.80	123.62	2.09	-44.6	-61.6	3.6	1.51e+00	0	27	104	0	60	43253
2026-01-15 23:00:40.81	123.59	2.15	-44.6	-61.5	3.6	1.51e+00	0	27	104	0	60	42836
2026-01-15 23:00:41.82	123.55	2.21	-44.6	-61.5	3.5	1.51e+00	0	27	104	0	60	42883
2026-01-15 23:00:42.83	123.51	2.28	-44.6	-61.6	3.6	1.51e+00	0	27	104	0	60	43595
2026-01-15 23:00:43.84	123.48	2.34	-44.5	-61.6	3.6	1.51e+00	0	27	104	0	60	43487
2026-01-15 23:00:44.85	123.44	2.40	-44.6	-61.7	3.6	1.51e+00	0	27	104	0	60	43970
2026-01-15 23:00:45.86	123.40	2.47	-44.6	-61.7	3.6	1.51e+00	0	27	104	0	60	43900
2026-01-15 23:00:46.87	123.36	2.53	-44.6	-61.5	3.6	1.51e+00	0	27	104	0	60	43203
2026-01-15 23:00:47.88	123.33	2.59	-44.6	-61.5	3.6	1.51e+00	0	27	104	0	60	42932
2026-01-15 23:00:48.89	123.29	2.66	-44.6	-61.4	3.6	1.51e+00	0	27	104	0	60	42309
2026-01-15 23:00:49.90	123.25	2.72	-44.6	-61.3	3.6	1.51e+00	0	27	104	0	60	42029
2026-01-15 23:00:50.91	123.21	2.79	-44.6	-61.2	3.6	1.51e+00	0	27	104	0	60	41462
2026-01-15 23:00:51.92	123.17	2.85	-44.5	-61.0	3.6	1.51e+00	0	27	104	0	60	40758
2026-01-15 23:00:52.93	123.14	2.91	-44.6	-60.9	3.6	1.51e+00	0	27	104	0	60	39915
2026-01-15 23:00:53.94	123.10	2.98	-44.5	-61.1	3.6	1.51e+00	0	27	104	0	60	41013
2026-01-15 23:00:54.95	123.06	3.04	-44.5	-61.6	3.6	1.51e+00	0	27	104	0	60	43327
2026-01-15 23:00:55.95	123.02	3.11	-44.5	-61.6	3.6	1.51e+00	0	27	104	0	60	43225
2026-01-15 23:00:56.96	122.98	3.17	-44.5	-60.1	3.6	1.51e+00	0	27	104	0	60	36484
2026-01-15 23:00:57.98	122.94	3.24	-44.3	-56.5	4.9	1.27e+00	0	27	0	0	60	24021
2026-01-15 23:00:58.99	122.90	3.30	-44.1	-52.8	7.2	3.65e-01	0	27	0	1048576	60	15778
2026-01-15 23:01:00.00	122.86	3.37	-43.6	-50.3	10.2	2.78e-02	0	27	0	3145728	60	11783
2026-01-15 23:01:01.01	122.82	3.43	-42.8	-47.8	13.0	3.14e-04	0	27	0	5242880	60	8840
2026-01-15 23:01:02.02	122.78	3.50	-42.0	-45.8	14.7	1.50e-06	0	27	0	7340032	58	7888
2026-01-15 23:01:03.03	122.74	3.57	-41.8	-45.4	15.2	0.00e+00	0	27	0	9437184	56	8426
2026-01-15 23:01:04.04	122.70	3.63	-41.1	-44.1	16.6	0.00e+00	0	27	0	10485760	56	7283
2026-01-15 23:01:05.05	122.66	3.70	-41.2	-44.3	16.1	0.00e+00	0	27	0	12582912	56	7470
2026-01-15 23:01:06.05	122.62	3.76	-45.8	-61.3	3.6	2.40e-01	0	27	104	13631488	60	41863
2026-01-15 23:01:07.06	122.58	3.83	-45.6	-55.6	6.2	1.41e+00	0	27	104	13631488	60	21813
2026-01-15 23:01:08.07	122.54	3.90	-44.0	-52.8	7.8	4.60e-03	0	27	0	13631488	60	15824
2026-01-15 23:01:09.08	122.50	3.96	-41.9	-44.4	16.5	4.50e-06	0	27	0	15728640	56	7539
2026-01-15 23:01:10.09	122.45	4.03	-45.8	-60.4	3.6	1.44e+00	0	27	104	16777216	60	37856
2026-01-15 23:01:11.10	122.41	4.10	-41.1	-43.6	16.1	1.15e+00	0	27	104	16777216	56	6923
2026-01-15 23:01:12.11	122.37	4.17	-41.4	-43.9	16.8	0.00e+00	0	27	0	16777216	56	7092
2026-01-15 23:01:13.12	122.33	4.23	-40.4	-42.2	18.4	0.00e+00	0	27	0	18874368	54	6595
2026-01-15 23:01:14.13	122.28	4.30	-39.8	-41.3	19.1	0.00e+00	0	27	0	20971520	52	6638
2026-01-15 23:01:15.13	122.24	4.37	-39.8	-41.3	19.2	0.00e+00	0	27	0	23068672	52	6626
2026-01-15 23:01:16.15	122.20	4.44	-39.5	-40.9	19.5	0.00e+00	0	27	0	25165824	52	6356
2026-01-15 23:01:17.15	122.16	4.50	-39.4	-40.8	19.7	0.00e+00	0	27	0	26214400	52	6272
2026-01-15 23:01:18.16	122.11	4.57	-39.7	-41.1	19.5	0.00e+00	0	27	0	28311552	52	6503
2026-01-15 23:01:19.17	122.07	4.64	-39.8	-41.2	19.3	0.00e+00	0	27	0	30408704	52	6602
2026-01-15 23:01:20.18	122.02	4.71	-39.9	-41.4	19.3	0.00e+00	0	27	0	32505856	52	6694
2026-01-15 23:01:21.19	121.98	4.78	-40.1	-41.7	18.9	0.00e+00	0	27	0	34603008	52	6994
2026-01-15 23:01:22.19	121.94	4.84	-39.9	-41.5	19.2	0.00e+00	0	27	0	35651584	52	6771
2026-01-15 23:01:23.20	121.89	4.91	-40.2	-41.9	18.6	0.00e+00	0	27	0	37748736	52	7092
2026-01-15 23:01:24.21	121.85	4.98	-40.2	-41.9	18.8	0.00e+00	0	27	0	39845888	52	7118
2026-01-15 23:01:25.22	121.80	5.05	-40.5	-42.2	18.5	0.00e+00	0	27	0	41943040	52	7409
2026-01-15 23:01:26.23	121.76	5.12	-40.3	-42.0	18.7	0.00e+00	0	27	0	44040192	52	7237
2026-01-15 23:01:27.23	121.71	5.19	-40.1	-41.7	19.0	0.00e+00	0	27	0	45088768	52	6992
2026-01-15 23:01:28.24	121.67	5.26	-40.0	-41.6	19.1	0.00e+00	0	27	0	47185920	52	6911
2026-01-15 23:01:29.25	121.62	5.33	-39.9	-41.5	19.2	0.00e+00	0	27	0	49283072	52	6816
2026-01-15 23:01:30.26	121.57	5.40	-39.7	-41.2	19.4	0.00e+00	0	27	0	51380224	52	6611
2026-01-15 23:01:31.27	121.53	5.47	-39.6	-41.2	19.6	0.00e+00	0	27	0	53477376	52	6542
2026-01-15 23:01:32.28	121.48	5.54	-39.4	-41.0	19.8	0.00e+00	0	27	0	54525952	52	6403
2026-01-15 23:01:33.29	121.44	5.61	-39.4	-41.0	19.7	0.00e+00	0	27	0	56623104	52	6431
2026-01-15 23:01:34.30	121.39	5.68	-39.7	-41.4	19.3	0.00e+00	0	27	0	58720256	52	6714
2026-01-15 23:01:35.31	121.34	5.75	-39.5	-41.2	19.6	0.00e+00	0	27	0	60817408	52	6602
2026-01-15 23:01:36.31	121.29	5.82	-39.6	-41.3	19.4	0.00e+00	0	27	0	62914560	52	6624
2026-01-15 23:01:37.32	121.25	5.89	-39.8	-41.6	19.1	0.00e+00	0	27	0	63963136	52	6922
2026-01-15 23:01:38.33	121.20	5.97	-39.8	-41.6	19.2	0.00e+00	0	27	0	66060288	52	6873
2026-01-15 23:01:39.34	121.15	6.04	-40.0	-41.8	19.1	0.00e+00	0	27	0	68157440	52	7031
2026-01-15 23:01:40.35	121.10	6.11	-39.8	-41.5	19.1	0.00e+00	0	27	0	70254592	52	6813
2026-01-15 23:01:41.36	121.05	6.18	-39.7	-41.4	19.4	0.00e+00	0	27	0	72351744	52	6705
2026-01-15 23:01:42.37	121.00	6.25	-39.7	-41.3	19.5	0.00e+00	0	27	0	73400320	52	6647
2026-01-15 23:01:43.37	120.95	6.33	-39.4	-40.9	19.9	0.00e+00	0	27	0	75497472	52	6347
2026-01-15 23:01:44.38	120.90	6.40	-39.3	-40.6	20.1	0.00e+00	0	27	0	77594624	52	6151
2026-01-15 23:01:45.39	120.85	6.47	-39.2	-40.6	20.2	0.00e+00	0	27	0	79691776	52	6111
2026-01-15 23:01:46.40	120.80	6.54	-39.4	-40.7	20.2	0.00e+00	0	27	0	81788928	52	6208
2026-01-15 23:01:47.41	120.75	6.62	-39.4	-40.7	19.9	0.00e+00	0	27	0	82837504	52	6239
2026-01-15 23:01:48.42	120.70	6.69	-39.7	-41.1	19.7	0.00e+00	0	27	0	84934656	52	6536
2026-01-15 23:01:49.43	120.65	6.76	-39.6	-40.9	19.9	0.00e+00	0	27	0	87031808	52	6389
2026-01-15 23:01:50.43	120.60	6.84	-39.6	-41.1	19.7	0.00e+00	0	27	0	89128960	52	6467
2026-01-15 23:01:51.44	120.55	6.91	-39.6	-41.1	19.8	0.00e+00	0	27	0	91226112	52	6494
2026-01-15 23:01:52.45	120.50	6.98	-39.8	-41.3	19.6	0.00e+00	0	27	0	92274688	52	6675
2026-01-15 23:01:53.46	120.45	7.06	-39.8	-41.3	19.6	0.00e+00	0	27	0	94371840	52	6658
2026-01-15 23:01:54.47	120.39	7.13	-39.8	-41.3	19.6	0.00e+00	0	27	0	96468992	52	6687
2026-01-15 23:01:55.47	120.34	7.21	-39.8	-41.2	19.7	0.00e+00	0	27	0	98566144	52	6615
2026-01-15 23:01:56.48	120.29	7.28	-39.7	-41.1	19.8	0.00e+00	0	27	0	100663296	52	6495
2026-01-15 23:01:57.49	120.24	7.36	-39.6	-41.0	20.0	0.00e+00	0	27	0	101711872	52	6414
2026-01-15 23:01:58.50	120.18	7.43	-39.3	-40.7	20.2	0.00e+00	0	27	0	103809024	52	6193
2026-01-15 23:01:59.51	120.13	7.51	-39.1	-40.4	20.4	0.00e+00	0	27	0	105906176	52	5980
2026-01-15 23:02:00.52	120.07	7.58	-39.2	-40.5	20.3	0.00e+00	0	27	0	108003328	52	6065
2026-01-15 23:02:01.53	120.02	7.66	-38.9	-40.2	20.7	0.00e+00	0	27	0	110100480	52	5855
2026-01-15 23:02:02.54	119.97	7.73	-39.3	-40.7	20.4	0.00e+00	0	27	0	111149056	52	6213
2026-01-15 23:02:03.55	119.91	7.81	-39.0	-40.4	20.5	0.00e+00	0	27	0	113246208	52	5994
2026-01-15 23:02:04.56	119.86	7.89	-39.1	-40.4	20.4	0.00e+00	0	27	0	115343360	52	6025
2026-01-15 23:02:05.57	119.80	7.96	-39.3	-40.7	20.2	0.00e+00	0	27	0	117440512	52	6209
2026-01-15 23:02:06.58	119.74	8.04	-39.5	-40.9	20.1	0.00e+00	0	27	0	119537664	52	6362
2026-01-15 23:02:07.59	119.69	8.12	-39.5	-41.0	20.0	0.00e+00	0	27	0	121634816	52	6441
2026-01-15 23:02:08.60	119.63	8.19	-39.4	-40.8	20.2	0.00e+00	0	27	0	122683392	52	6275
2026-01-15 23:02:09.61	119.57	8.27	-39.5	-40.9	20.1	0.00e+00	0	27	0	124780544	52	6388
2026-01-15 23:02:10.61	119.52	8.35	-39.4	-40.8	20.3	0.00e+00	0	27	0	126877696	52	6277
2026-01-15 23:02:11.62	119.46	8.43	-39.1	-40.5	20.5	0.00e+00	0	27	0	128974848	52	6047
2026-01-15 23:02:12.63	119.40	8.50	-39.0	-40.3	20.7	0.00e+00	0	27	0	131072000	52	5947
2026-01-15 23:02:13.64	119.34	8.58	-39.2	-40.5	20.4	0.00e+00	0	27	0	132120576	52	6086
2026-01-15 23:02:14.65	119.29	8.66	-39.2	-40.6	20.4	0.00e+00	0	27	0	134217728	52	6121
2026-01-15 23:02:15.66	119.23	8.74	-39.4	-40.8	20.1	0.00e+00	0	27	0	136314880	52	6299
2026-01-15 23:02:16.66	119.17	8.82	-39.2	-40.5	20.5	0.00e+00	0	27	0	138412032	52	6072
2026-01-15 23:02:17.67	119.11	8.90	-38.9	-40.2	20.8	0.00e+00	0	27	0	140509184	52	5836
2026-01-15 23:02:18.68	119.05	8.98	-39.0	-40.3	20.8	0.00e+00	0	27	0	141557760	52	5901
2026-01-15 23:02:19.69	118.99	9.06	-39.2	-40.5	20.6	0.00e+00	0	27	0	143654912	52	6052
2026-01-15 23:02:20.70	118.93	9.13	-39.0	-40.2	20.8	0.00e+00	0	27	0	145752064	52	5886
2026-01-15 23:02:21.71	118.87	9.21	-38.9	-40.2	20.8	0.00e+00	0	27	0	147849216	52	5868
2026-01-15 23:02:22.71	118.81	9.29	-39.0	-40.3	20.7	0.00e+00	0	27	0	149946368	52	5931
2026-01-15 23:02:23.72	118.75	9.37	-38.8	-40.0	21.0	0.00e+00	0	27	0	150994944	50	6427
2026-01-15 23:02:24.73	118.68	9.46	-38.5	-39.7	21.2	0.00e+00	0	27	0	153092096	50	6222
2026-01-15 23:02:25.74	118.62	9.54	-38.5	-39.7	21.2	0.00e+00	0	27	0	155189248	50	6235
2026-01-15 23:02:26.75	118.56	9.62	-38.4	-39.6	21.4	0.00e+00	0	27	0	157286400	50	6164
2026-01-15 23:02:27.76	118.50	9.70	-38.2	-39.5	21.5	0.00e+00	0	27	0	159383552	50	6045
2026-01-15 23:02:28.77	118.43	9.78	-38.3	-39.5	21.4	0.00e+00	0	27	0	160432128	50	6088
2026-01-15 23:02:29.78	118.37	9.86	-38.2	-39.5	21.4	0.00e+00	0	27	0	162529280	50	6081
2026-01-15 23:02:30.79	118.31	9.94	-38.2	-39.5	21.4	0.00e+00	0	27	0	164626432	50	6090
2026-01-15 23:02:31.80	118.24	10.03	-38.4	-39.8	21.2	0.00e+00	0	27	0	166723584	50	6265
2026-01-15 23:02:32.80	118.18	10.11	-38.5	-39.8	21.1	0.00e+00	0	27	0	168820736	50	6317
2026-01-15 23:02:33.81	118.11	10.19	-38.5	-39.8	21.1	0.00e+00	0	27	0	169869312	50	6298
2026-01-15 23:02:34.82	118.05	10.27	-38.2	-39.4	21.4	0.00e+00	0	27	0	171966464	50	6031
2026-01-15 23:02:35.83	117.98	10.36	-38.1	-39.3	21.6	0.00e+00	0	27	0	174063616	50	5939
2026-01-15 23:02:36.84	117.91	10.44	-38.0	-39.1	21.8	0.00e+00	0	27	0	176160768	50	5790
2026-01-15 23:02:37.85	117.85	10.52	-37.8	-38.9	22.0	0.00e+00	0	27	0	178257920	50	5664
2026-01-15 23:02:38.86	117.78	10.61	-37.9	-39.0	21.9	0.00e+00	0	27	0	179306496	48	6403
2026-01-15 23:02:39.87	117.71	10.69	-37.8	-38.9	22.0	0.00e+00	0	27	0	181403648	48	6365
2026-01-15 23:02:40.88	117.65	10.78	-37.8	-39.0	21.9	0.00e+00	0	27	0	183500800	48	6403
2026-01-15 23:02:41.89	117.58	10.86	-37.9	-39.0	21.9	0.00e+00	0	27	0	185597952	48	6449
2026-01-15 23:02:42.90	117.51	10.95	-38.0	-39.2	21.7	0.00e+00	0	27	0	187695104	48	6611
2026-01-15 23:02:43.91	117.44	11.03	-38.0	-39.3	21.7	0.00e+00	0	27	0	188743680	48	6629
2026-01-15 23:02:44.92	117.37	11.12	-38.1	-39.4	21.6	0.00e+00	0	27	0	190840832	48	6708
2026-01-15 23:02:45.92	117.30	11.20	-38.3	-39.5	21.5	0.00e+00	0	27	0	192937984	48	6823
2026-01-15 23:02:46.93	117.23	11.29	-38.1	-39.3	21.6	0.00e+00	0	27	0	195035136	48	6686
2026-01-15 23:02:47.94	117.16	11.38	-38.3	-39.5	21.5	0.00e+00	0	27	0	197132288	48	6846
2026-01-15 23:02:48.95	117.09	11.46	-38.0	-39.3	21.7	0.00e+00	0	27	0	198180864	48	6638
2026-01-15 23:02:49.96	117.02	11.55	-38.1	-39.4	21.7	0.00e+00	0	27	0	200278016	48	6697
2026-01-15 23:02:50.97	116.94	11.64	-38.0	-39.2	21.7	0.00e+00	0	27	0	202375168	48	6605
2026-01-15 23:02:51.98	116.87	11.72	-38.0	-39.2	21.9	0.00e+00	0	27	0	204472320	48	6555
2026-01-15 23:02:52.98	116.80	11.81	-37.9	-39.2	21.9	0.00e+00	0	27	0	206569472	48	6556
2026-01-15 23:02:53.99	116.72	11.90	-38.2	-39.5	21.5	0.00e+00	0	27	0	207618048	48	6823
2026-01-15 23:02:55.00	116.65	11.99	-38.2	-39.5	21.6	0.00e+00	0	27	0	209715200	48	6792
2026-01-15 23:02:56.01	116.58	12.07	-38.2	-39.5	21.4	0.00e+00	0	27	0	211812352	48	6771
2026-01-15 23:02:57.02	116.50	12.16	-38.4	-39.6	21.4	0.00e+00	0	27	0	213909504	48	6905
2026-01-15 23:02:58.03	116.43	12.25	-38.4	-39.6	21.5	0.00e+00	0	27	0	216006656	48	6888
2026-01-15 23:02:59.04	116.35	12.34	-38.3	-39.5	21.6	0.00e+00	0	27	0	218103808	48	6821
2026-01-15 23:03:00.05	116.27	12.43	-38.1	-39.2	21.8	0.00e+00	0	27	0	219152384	48	6559
2026-01-15 23:03:01.06	116.20	12.52	-38.0	-39.1	21.8	0.00e+00	0	27	0	221249536	48	6518
2026-01-15 23:03:02.07	116.12	12.61	-37.9	-39.0	21.9	0.00e+00	0	27	0	223346688	48	6455
2026-01-15 23:03:03.07	116.04	12.70	-37.7	-38.9	22.0	0.00e+00	0	27	0	225443840	48	6327
2026-01-15 23:03:04.08	115.96	12.79	-37.8	-39.1	21.9	0.00e+00	0	27	0	227540992	48	6492
2026-01-15 23:03:05.09	115.88	12.88	-37.9	-39.2	21.8	0.00e+00	0	27	0	228589568	48	6604
2026-01-15 23:03:06.10	115.81	12.97	-37.8	-39.2	21.9	0.00e+00	0	27	0	230686720	48	6609
2026-01-15 23:03:07.11	115.73	13.06	-37.9	-39.5	21.4	0.00e+00	0	27	0	232783872	48	6842
2026-01-15 23:03:08.12	115.65	13.16	-37.7	-39.5	21.5	0.00e+00	0	27	0	234881024	48	6802
2026-01-15 23:03:09.13	115.56	13.25	-37.8	-39.5	21.5	0.00e+00	0	27	0	236978176	48	6830
2026-01-15 23:03:10.14	115.48	13.34	-38.1	-39.9	21.3	0.00e+00	0	27	0	238026752	48	7099
2026-01-15 23:03:11.15	115.40	13.43	-38.2	-39.8	21.4	0.00e+00	0	27	0	240123904	48	7018
2026-01-15 23:03:12.15	115.32	13.52	-38.1	-39.3	21.7	0.00e+00	0	27	0	242221056	48	6660
2026-01-15 23:03:13.16	115.24	13.62	-37.6	-38.7	22.3	0.00e+00	0	27	0	244318208	48	6213
2026-01-15 23:03:14.17	115.15	13.71	-37.7	-38.7	22.2	0.00e+00	0	27	0	246415360	48	6217
2026-01-15 23:03:15.18	115.07	13.80	-37.7	-38.7	22.3	0.00e+00	0	27	0	247463936	48	6228
2026-01-15 23:03:16.19	114.98	13.90	-37.8	-38.9	22.2	0.00e+00	0	27	0	249561088	48	6324
2026-01-15 23:03:17.19	114.90	13.99	-37.7	-38.8	22.1	0.00e+00	0	27	0	251658240	48	6263
2026-01-15 23:03:18.20	114.81	14.09	-38.0	-39.1	22.0	0.00e+00	0	27	0	253755392	48	6504
2026-01-15 23:03:19.21	114.73	14.18	-37.9	-39.0	22.0	0.00e+00	0	27	0	255852544	48	6440
2026-01-15 23:03:20.22	114.64	14.28	-38.0	-39.2	21.9	0.00e+00	0	27	0	256901120	48	6594
2026-01-15 23:03:21.23	114.55	14.37	-37.8	-38.9	22.1	0.00e+00	0	27	0	258998272	48	6390
2026-01-15 23:03:22.24	114.47	14.47	-37.4	-38.6	22.4	0.00e+00	0	27	0	261095424	48	6141
2026-01-15 23:03:23.25	114.38	14.56	-37.5	-38.8	22.1	0.00e+00	0	27	0	263192576	48	6309
2026-01-15 23:03:24.26	114.29	14.66	-37.3	-38.5	22.4	0.00e+00	0	27	0	265289728	48	6072
2026-01-15 23:03:25.27	114.20	14.76	-37.2	-38.4	22.5	0.00e+00	0	27	0	266338304	48	6007
2026-01-15 23:03:26.28	114.11	14.86	-37.0	-38.2	22.7	0.00e+00	0	27	0	268435456	48	5851
2026-01-15 23:03:27.28	114.02	14.95	-37.2	-38.3	22.6	0.00e+00	0	27	0	270532608	48	5944
2026-01-15 23:03:28.29	113.93	15.05	-37.1	-38.3	22.6	0.00e+00	0	27	0	272629760	46	6676
2026-01-15 23:03:29.30	113.83	15.15	-37.3	-38.4	22.5	0.00e+00	0	27	0	274726912	46	6768
2026-01-15 23:03:30.31	113.74	15.25	-37.1	-38.2	22.7	0.00e+00	0	27	0	275775488	46	6553
2026-01-15 23:03:31.32	113.65	15.34	-37.6	-38.7	22.4	0.00e+00	0	27	0	277872640	46	6953
2026-01-15 23:03:32.33	113.55	15.44	-37.5	-38.6	22.4	0.00e+00	0	27	0	279969792	46	6883
2026-01-15 23:03:33.34	113.46	15.54	-37.5	-38.5	22.5	0.00e+00	0	27	0	282066944	46	6803
2026-01-15 23:03:34.35	113.36	15.64	-37.3	-38.3	22.7	0.00e+00	0	27	0	284164096	46	6637
2026-01-15 23:03:35.36	113.27	15.74	-37.4	-38.4	22.5	0.00e+00	0	27	0	285212672	46	6758
2026-01-15 23:03:36.36	113.17	15.84	-37.7	-38.7	22.3	0.00e+00	0	27	0	287309824	46	7000
2026-01-15 23:03:37.38	113.07	15.94	-37.7	-38.8	22.3	0.00e+00	0	27	0	289406976	48	6278
2026-01-15 23:03:38.39	112.97	16.05	-37.6	-38.6	22.4	0.00e+00	0	27	0	291504128	48	6145
2026-01-15 23:03:39.39	112.88	16.15	-37.9	-39.0	22.1	0.00e+00	0	27	0	293601280	48	6412
2026-01-15 23:03:40.40	112.78	16.25	-37.9	-39.0	22.2	0.00e+00	0	27	0	294649856	48	6431
2026-01-15 23:03:41.41	112.68	16.35	-38.2	-39.3	21.9	0.00e+00	0	27	0	296747008	48	6649
2026-01-15 23:03:42.42	112.57	16.45	-37.8	-38.8	22.2	0.00e+00	0	27	0	298844160	48	6310
2026-01-15 23:03:43.43	112.47	16.55	-37.6	-38.6	22.5	0.00e+00	0	27	0	300941312	48	6112
2026-01-15 23:03:44.44	112.37	16.66	-37.7	-38.8	22.3	0.00e+00	0	27	0	303038464	48	6251
2026-01-15 23:03:45.45	112.27	16.76	-37.7	-38.8	22.4	0.00e+00	0	27	0	304087040	48	6252
2026-01-15 23:03:46.46	112.16	16.86	-37.6	-38.6	22.3	0.00e+00	0	27	0	306184192	48	6162
2026-01-15 23:03:47.47	112.06	16.97	-38.1	-39.2	21.9	0.00e+00	0	27	0	308281344	48	6601
2026-01-15 23:03:48.48	111.95	17.07	-38.2	-39.3	21.8	0.00e+00	0	27	0	310378496	48	6651
2026-01-15 23:03:49.48	111.85	17.18	-38.1	-39.2	22.0	0.00e+00	0	27	0	312475648	48	6556
2026-01-15 23:03:50.49	111.74	17.28	-37.9	-39.0	22.2	0.00e+00	0	27	0	314572800	48	6407
2026-01-15 23:03:51.50	111.63	17.39	-37.8	-38.8	22.2	0.00e+00	0	27	0	315621376	48	6294
2026-01-15 23:03:52.51	111.53	17.49	-37.6	-38.6	22.4	0.00e+00	0	27	0	317718528	48	6168
2026-01-15 23:03:53.52	111.42	17.60	-37.6	-38.6	22.6	0.00e+00	0	27	0	319815680	48	6162
2026-01-15 23:03:54.53	111.31	17.71	-37.3	-38.3	22.6	0.00e+00	0	27	0	321912832	48	5926
2026-01-15 23:03:55.54	111.20	17.81	-37.6	-38.6	22.5	0.00e+00	0	27	0	324009984	48	6143
2026-01-15 23:03:56.55	111.09	17.92	-37.6	-38.7	22.4	0.00e+00	0	27	0	325058560	48	6177
2026-01-15 23:03:57.56	110.97	18.03	-37.9	-39.0	22.2	0.00e+00	0	27	0	327155712	48	6408
2026-01-15 23:03:58.57	110.86	18.13	-38.0	-39.1	22.2	0.00e+00	0	27	0	329252864	48	6535
2026-01-15 23:03:59.58	110.75	18.24	-37.7	-38.8	22.4	0.00e+00	0	27	0	331350016	48	6273
2026-01-15 23:04:00.59	110.63	18.35	-38.2	-39.3	21.9	0.00e+00	0	27	0	333447168	48	6678
2026-01-15 23:04:01.60	110.52	18.46	-37.6	-38.7	22.6	0.00e+00	0	27	0	334495744	48	6177
2026-01-15 23:04:02.61	110.40	18.57	-37.2	-38.3	22.7	0.00e+00	0	27	0	336592896	48	5934
2026-01-15 23:04:03.61	110.28	18.68	-37.5	-38.6	22.4	0.00e+00	0	27	0	338690048	48	6163
2026-01-15 23:04:04.62	110.16	18.79	-37.3	-38.5	22.5	0.00e+00	0	27	0	340787200	48	6034
2026-01-15 23:04:05.63	110.05	18.90	-37.1	-38.2	22.7	0.00e+00	0	27	0	342884352	48	5896
2026-01-15 23:04:06.64	109.93	19.01	-37.4	-38.5	22.6	0.00e+00	0	27	0	343932928	48	6080
2026-01-15 23:04:07.65	109.80	19.12	-37.3	-38.3	22.7	0.00e+00	0	27	0	346030080	48	5955
2026-01-15 23:04:08.66	109.68	19.23	-37.5	-38.6	22.5	0.00e+00	0	27	0	348127232	48	6133
2026-01-15 23:04:09.67	109.56	19.34	-37.5	-38.5	22.5	0.00e+00	0	27	0	350224384	48	6093
2026-01-15 23:04:10.67	109.44	19.46	-37.5	-38.6	22.5	0.00e+00	0	27	0	352321536	48	6130
2026-01-15 23:04:11.68	109.31	19.57	-37.3	-38.3	22.8	0.00e+00	0	27	0	353370112	48	5952
2026-01-15 23:04:12.69	109.19	19.68	-37.2	-38.2	22.7	0.00e+00	0	27	0	355467264	48	5889
2026-01-15 23:04:13.70	109.06	19.79	-37.3	-38.4	22.8	0.00e+00	0	27	0	357564416	48	6001
2026-01-15 23:04:14.71	108.93	19.91	-37.4	-38.6	22.5	0.00e+00	0	27	0	359661568	48	6108
2026-01-15 23:04:15.72	108.81	20.02	-37.6	-38.7	22.4	0.00e+00	0	27	0	361758720	48	6239
2026-01-15 23:04:16.73	108.68	20.14	-37.9	-39.1	22.1	0.00e+00	0	27	0	362807296	48	6496
2026-01-15 23:04:17.74	108.55	20.25	-38.0	-39.1	22.0	0.00e+00	0	27	0	364904448	48	6535
2026-01-15 23:04:18.75	108.41	20.37	-38.3	-39.5	21.8	0.00e+00	0	27	0	367001600	48	6794
2026-01-15 23:04:19.76	108.28	20.48	-38.0	-39.1	22.1	0.00e+00	0	27	0	369098752	48	6514
2026-01-15 23:04:20.77	108.15	20.60	-38.3	-39.5	21.8	0.00e+00	0	27	0	371195904	48	6772
2026-01-15 23:04:21.77	108.02	20.71	-38.0	-39.0	22.1	0.00e+00	0	27	0	372244480	48	6451
2026-01-15 23:04:22.78	107.88	20.83	-38.0	-39.1	22.1	0.00e+00	0	27	0	374341632	48	6467
2026-01-15 23:04:23.79	107.74	20.95	-37.7	-38.7	22.4	0.00e+00	0	27	0	376438784	48	6175
2026-01-15 23:04:24.80	107.61	21.06	-37.9	-38.9	22.3	0.00e+00	0	27	0	378535936	48	6333
2026-01-15 23:04:25.81	107.47	21.18	-38.1	-39.2	22.0	0.00e+00	0	27	0	380633088	48	6572
2026-01-15 23:04:26.82	107.33	21.30	-37.9	-38.9	22.3	0.00e+00	0	27	0	382730240	48	6359
2026-01-15 23:04:27.82	107.19	21.42	-38.0	-39.0	22.2	0.00e+00	0	27	0	383778816	48	6453
2026-01-15 23:04:28.83	107.05	21.54	-38.1	-39.2	22.0	0.00e+00	0	27	0	385875968	48	6590
2026-01-15 23:04:29.84	106.90	21.65	-37.8	-38.8	22.4	0.00e+00	0	27	0	387973120	48	6315
2026-01-15 23:04:30.85	106.76	21.77	-37.9	-39.0	22.2	0.00e+00	0	27	0	390070272	48	6424
2026-01-15 23:04:31.86	106.62	21.89	-37.9	-39.0	22.3	0.00e+00	0	27	0	391118848	48	6446
2026-01-15 23:04:32.87	106.47	22.01	-38.1	-39.3	22.0	0.00e+00	0	27	0	393216000	48	6657
2026-01-15 23:04:33.88	106.32	22.13	-38.4	-39.6	21.8	0.00e+00	0	27	0	395313152	48	6919
2026-01-15 23:04:34.89	106.17	22.26	-38.4	-39.7	21.7	0.00e+00	0	27	0	397410304	48	6940
2026-01-15 23:04:35.90	106.02	22.38	-38.5	-39.9	21.5	0.00e+00	0	27	0	399507456	48	7158
2026-01-15 23:04:36.91	105.87	22.50	-38.4	-40.0	21.7	0.00e+00	0	27	0	400556032	48	7226
2026-01-15 23:04:37.92	105.72	22.62	-38.0	-39.8	21.5	0.00e+00	0	27	0	402653184	48	7071
2026-01-15 23:04:38.93	105.57	22.74	-38.1	-39.9	21.6	0.00e+00	0	27	0	404750336	48	7157
2026-01-15 23:04:39.94	105.41	22.87	-38.0	-39.7	21.5	0.00e+00	0	27	0	406847488	48	6985
2026-01-15 23:04:40.94	105.26	22.99	-37.9	-39.5	21.8	0.00e+00	0	27	0	408944640	48	6812
2026-01-15 23:04:41.95	105.10	23.11	-38.0	-39.6	21.8	0.00e+00	0	27	0	411041792	48	6872
2026-01-15 23:04:42.96	104.94	23.24	-38.0	-39.4	21.9	0.00e+00	0	27	0	412090368	48	6761
2026-01-15 23:04:43.97	104.78	23.36	-38.1	-39.4	22.0	0.00e+00	0	27	0	414187520	48	6721
2026-01-15 23:04:44.98	104.62	23.48	-37.7	-38.8	22.5	0.00e+00	0	27	0	416284672	48	6261
2026-01-15 23:04:45.98	104.46	23.61	-38.0	-39.1	22.2	0.00e+00	0	27	0	418381824	48	6490
2026-01-15 23:04:46.99	104.30	23.73	-38.0	-39.1	22.1	0.00e+00	0	27	0	420478976	48	6515
2026-01-15 23:04:48.00	104.13	23.86	-38.0	-39.1	21.9	0.00e+00	0	27	0	421527552	48	6534
2026-01-15 23:04:49.01	103.96	23.98	-38.0	-39.1	21.7	0.00e+00	0	27	0	423624704	48	6476
2026-01-15 23:04:50.02	103.80	24.11	-37.8	-38.9	22.4	0.00e+00	0	27	0	425721856	48	6374
2026-01-15 23:04:51.03	103.63	24.24	-37.8	-38.9	22.3	0.00e+00	0	27	0	427819008	48	6353
2026-01-15 23:04:52.04	103.46	24.36	-37.6	-38.6	22.5	0.00e+00	0	27	0	429916160	48	6165
2026-01-15 23:04:53.05	103.29	24.49	-36.9	-37.9	23.1	0.00e+00	0	27	0	430964736	48	5649
2026-01-15 23:04:54.06	103.11	24.62	-37.5	-38.5	22.6	0.00e+00	0	27	0	433061888	48	6092
2026-01-15 23:04:55.07	102.94	24.75	-37.5	-38.5	22.7	0.00e+00	0	27	0	435159040	48	6047
2026-01-15 23:04:56.08	102.76	24.88	-37.6	-38.6	22.6	0.00e+00	0	27	0	437256192	48	6127
2026-01-15 23:04:57.09	102.58	25.00	-37.5	-38.4	22.9	0.00e+00	0	27	0	439353344	48	6016
2026-01-15 23:04:58.10	102.40	25.13	-37.5	-38.5	22.8	0.00e+00	0	27	0	440401920	48	6062
2026-01-15 23:04:59.10	102.23	25.26	-37.6	-38.6	22.7	0.00e+00	0	27	0	442499072	48	6150
2026-01-15 23:05:00.11	102.04	25.39	-37.5	-38.4	22.8	0.00e+00	0	27	0	444596224	48	6025
2026-01-15 23:05:01.13	101.86	25.52	-37.4	-38.4	22.7	0.00e+00	0	27	0	446693376	48	5976
2026-01-15 23:05:02.13	101.67	25.65	-38.0	-39.1	22.3	0.00e+00	0	27	0	448790528	48	6465
2026-01-15 23:05:03.14	101.49	25.78	-38.0	-39.1	22.2	0.00e+00	0	27	0	449839104	48	6471
2026-01-15 23:05:04.15	101.30	25.91	-38.6	-39.7	21.8	0.00e+00	0	27	0	451936256	48	6958
2026-01-15 23:05:05.16	101.11	26.04	-38.6	-39.7	21.8	0.00e+00	0	27	0	454033408	48	6967
2026-01-15 23:05:06.17	100.92	26.18	-38.4	-39.4	21.9	0.00e+00	0	27	0	456130560	48	6764
2026-01-15 23:05:07.18	100.73	26.31	-38.5	-39.6	21.8	0.00e+00	0	27	0	458227712	48	6868
2026-01-15 23:05:08.19	100.53	26.44	-38.9	-40.1	21.4	0.00e+00	0	27	0	459276288	50	6525
2026-01-15 23:05:09.20	100.33	26.57	-39.0	-40.3	21.1	0.00e+00	0	27	0	461373440	50	6665
2026-01-15 23:05:10.21	100.14	26.70	-39.3	-40.6	20.9	0.00e+00	0	27	0	463470592	50	6896
2026-01-15 23:05:11.22	99.94	26.84	-38.9	-40.3	21.2	0.00e+00	0	27	0	465567744	50	6648
2026-01-15 23:05:12.23	99.74	26.97	-38.6	-39.9	21.6	0.00e+00	0	27	0	467664896	50	6376
2026-01-15 23:05:13.23	99.53	27.10	-38.8	-40.1	21.4	0.00e+00	0	27	0	468713472	50	6533
2026-01-15 23:05:14.24	99.33	27.24	-39.0	-40.2	21.6	0.00e+00	0	27	0	470810624	50	6592
2026-01-15 23:05:15.25	99.12	27.37	-39.2	-40.5	21.0	0.00e+00	0	27	0	472907776	50	6802
2026-01-15 23:05:16.26	98.91	27.50	-39.9	-41.3	20.3	0.00e+00	0	27	0	475004928	52	6629
2026-01-15 23:05:17.26	98.71	27.64	-39.9	-41.2	20.2	0.00e+00	0	27	0	477102080	52	6611
2026-01-15 23:05:18.27	98.50	27.77	-39.8	-41.2	20.3	0.00e+00	0	27	0	479199232	52	6573
2026-01-15 23:05:19.28	98.28	27.90	-39.9	-41.3	20.4	0.00e+00	0	27	0	480247808	52	6633
2026-01-15 23:05:20.29	98.07	28.04	-40.1	-41.5	20.2	0.00e+00	0	27	0	482344960	52	6783
2026-01-15 23:05:21.30	97.85	28.17	-40.5	-42.0	19.7	0.00e+00	0	27	0	484442112	52	7227
2026-01-15 23:05:22.31	97.63	28.31	-40.5	-41.9	20.0	0.00e+00	0	27	0	486539264	54	6379
2026-01-15 23:05:23.31	97.41	28.44	-40.8	-42.4	19.5	0.00e+00	0	27	0	488636416	54	6734
2026-01-15 23:05:24.32	97.19	28.58	-40.8	-42.3	19.4	0.00e+00	0	27	0	489684992	54	6669
2026-01-15 23:05:25.33	96.96	28.72	-40.6	-42.1	19.7	0.00e+00	0	27	0	491782144	54	6522
2026-01-15 23:05:26.34	96.74	28.85	-40.5	-41.9	19.8	0.00e+00	0	27	0	493879296	54	6379
2026-01-15 23:05:27.35	96.51	28.99	-40.8	-42.3	19.4	0.00e+00	0	27	0	495976448	54	6679
2026-01-15 23:05:28.36	96.28	29.12	-40.8	-42.4	19.4	0.00e+00	0	27	0	498073600	54	6755
2026-01-15 23:05:29.37	96.04	29.26	-40.8	-42.3	19.4	0.00e+00	0	27	0	499122176	54	6674
2026-01-15 23:05:30.38	95.81	29.40	-40.3	-41.7	19.9	0.00e+00	0	27	0	501219328	54	6232
2026-01-15 23:05:31.39	95.57	29.53	-40.2	-41.6	20.1	0.00e+00	0	27	0	503316480	54	6138
2026-01-15 23:05:32.40	95.33	29.67	-40.3	-41.6	20.1	0.00e+00	0	27	0	505413632	54	6145
2026-01-15 23:05:33.41	95.09	29.81	-40.2	-41.6	20.1	0.00e+00	0	27	0	507510784	54	6126
2026-01-15 23:05:34.42	94.85	29.94	-39.7	-40.9	20.8	0.00e+00	0	27	0	508559360	52	6351
2026-01-15 23:05:35.43	94.61	30.08	-39.6	-40.8	20.9	0.00e+00	0	27	0	510656512	52	6284
2026-01-15 23:05:36.43	94.36	30.22	-39.3	-40.6	21.2	0.00e+00	0	27	0	512753664	52	6118
2026-01-15 23:05:37.44	94.11	30.35	-38.7	-39.9	21.5	0.00e+00	0	27	0	514850816	50	6371
2026-01-15 23:05:38.45	93.86	30.49	-39.0	-40.2	21.3	0.00e+00	0	27	0	516947968	50	6595
2026-01-15 23:05:39.46	93.61	30.63	-38.7	-39.9	21.6	0.00e+00	0	27	0	517996544	50	6384
2026-01-15 23:05:40.47	93.35	30.76	-38.8	-40.0	21.5	0.00e+00	0	27	0	520093696	50	6431
2026-01-15 23:05:41.48	93.09	30.90	-38.9	-40.2	21.3	0.00e+00	0	27	0	522190848	50	6581
2026-01-15 23:05:42.49	92.83	31.04	-39.4	-40.6	21.0	0.00e+00	0	27	0	524288000	50	6882
2026-01-15 23:05:43.50	92.57	31.18	-39.7	-41.0	20.7	0.00e+00	0	27	0	526385152	52	6395
2026-01-15 23:05:44.51	92.31	31.31	-39.5	-40.8	20.7	0.00e+00	0	27	0	527433728	52	6296
2026-01-15 23:05:45.52	92.04	31.45	-39.6	-40.9	20.8	0.00e+00	0	27	0	529530880	52	6382
2026-01-15 23:05:46.53	91.77	31.59	-39.4	-40.5	21.2	0.00e+00	0	27	0	531628032	52	6101
2026-01-15 23:05:47.54	91.50	31.72	-39.6	-40.9	20.7	0.00e+00	0	27	0	533725184	52	6326
2026-01-15 23:05:48.55	91.23	31.86	-39.8	-41.1	20.6	0.00e+00	0	27	0	535822336	52	6473
2026-01-15 23:05:49.56	90.95	32.00	-39.8	-41.0	20.7	0.00e+00	0	27	0	536870912	52	6448
2026-01-15 23:05:50.57	90.67	32.13	-39.6	-40.9	20.7	0.00e+00	0	27	0	538968064	52	6362
2026-01-15 23:05:51.58	90.39	32.27	-39.4	-40.7	20.8	0.00e+00	0	27	0	541065216	52	6187
2026-01-15 23:05:52.58	90.11	32.40	-39.7	-40.9	20.8	0.00e+00	0	27	0	543162368	52	6366
2026-01-15 23:05:53.59	89.83	32.54	-39.1	-40.3	21.2	0.00e+00	0	27	0	545259520	52	5932
2026-01-15 23:05:54.60	89.54	32.68	-39.0	-40.2	21.4	0.00e+00	0	27	0	546308096	52	5884
2026-01-15 23:05:55.61	89.25	32.81	-38.8	-40.0	21.6	0.00e+00	0	27	0	548405248	52	5703
2026-01-15 23:05:56.62	88.96	32.95	-38.5	-39.7	21.8	0.00e+00	0	27	0	550502400	50	6176
2026-01-15 23:05:57.63	88.66	33.08	-39.0	-40.2	21.3	0.00e+00	0	27	0	552599552	50	6588
2026-01-15 23:05:58.64	88.36	33.22	-38.9	-40.1	21.4	0.00e+00	0	27	0	554696704	50	6537
2026-01-15 23:05:59.65	88.06	33.35	-38.9	-40.1	21.4	0.00e+00	0	27	0	555745280	50	6487
2026-01-15 23:06:00.66	87.76	33.48	-38.9	-40.1	21.7	0.00e+00	0	27	0	557842432	50	6473
2026-01-15 23:06:01.67	87.46	33.62	-38.7	-39.8	21.7	0.00e+00	0	27	0	559939584	50	6291
2026-01-15 23:06:02.67	87.15	33.75	-38.8	-40.0	21.7	0.00e+00	0	27	0	562036736	50	6409
2026-01-15 23:06:03.68	86.84	33.88	-38.6	-39.8	21.8	0.00e+00	0	27	0	564133888	50	6253
2026-01-15 23:06:04.69	86.53	34.02	-38.8	-39.9	21.6	0.00e+00	0	27	0	565182464	50	6332
2026-01-15 23:06:05.70	86.21	34.15	-39.0	-40.1	21.3	0.00e+00	0	27	0	567279616	50	6511
2026-01-15 23:06:06.71	85.90	34.28	-39.1	-40.2	21.3	0.00e+00	0	27	0	569376768	50	6594
2026-01-15 23:06:07.71	85.58	34.41	-39.4	-40.6	21.1	0.00e+00	0	27	0	571473920	50	6894
2026-01-15 23:06:08.73	85.25	34.54	-40.0	-41.3	20.5	0.00e+00	0	27	0	573571072	52	6663
2026-01-15 23:06:09.73	84.93	34.67	-40.4	-41.8	20.0	0.00e+00	0	27	0	575668224	52	7066
2026-01-15 23:06:10.74	84.60	34.80	-40.5	-42.0	19.8	0.00e+00	0	27	0	576716800	52	7203
2026-01-15 23:06:11.75	84.27	34.93	-40.7	-42.3	19.8	0.00e+00	0	27	0	578813952	54	6619
2026-01-15 23:06:12.76	83.94	35.06	-40.8	-42.4	19.5	0.00e+00	0	27	0	580911104	54	6709
2026-01-15 23:06:13.77	83.60	35.19	-41.2	-42.9	19.1	0.00e+00	0	27	0	583008256	54	7148
2026-01-15 23:06:14.78	83.26	35.32	-41.2	-42.9	19.2	0.00e+00	0	27	0	585105408	54	7089
2026-01-15 23:06:15.79	82.92	35.44	-41.7	-43.6	18.4	0.00e+00	0	27	0	586153984	54	7767
2026-01-15 23:06:16.80	82.58	35.57	-41.2	-42.9	19.0	0.00e+00	0	27	0	588251136	54	7122
2026-01-15 23:06:17.81	82.23	35.69	-41.1	-42.7	19.0	0.00e+00	0	27	0	590348288	54	6985
2026-01-15 23:06:18.82	81.88	35.82	-41.5	-43.3	18.7	0.00e+00	0	27	0	592445440	54	7439
2026-01-15 23:06:19.83	81.53	35.94	-41.3	-43.0	18.8	0.00e+00	0	27	0	594542592	54	7194
2026-01-15 23:06:20.83	81.18	36.06	-41.0	-42.5	19.1	0.00e+00	0	27	0	595591168	54	6833
2026-01-15 23:06:21.84	80.82	36.19	-41.2	-42.9	19.0	0.00e+00	0	27	0	597688320	54	7089
2026-01-15 23:06:22.85	80.46	36.31	-40.8	-42.4	19.4	0.00e+00	0	27	0	599785472	54	6698
2026-01-15 23:06:23.86	80.10	36.43	-40.8	-42.3	19.3	0.00e+00	0	27	0	601882624	54	6640
2026-01-15 23:06:24.87	79.73	36.55	-40.7	-42.2	19.9	0.00e+00	0	27	0	603979776	54	6545
2026-01-15 23:06:25.87	79.37	36.67	-39.5	-40.7	21.0	0.00e+00	0	27	0	605028352	52	6219
2026-01-15 23:06:26.88	79.00	36.79	-39.3	-40.5	21.2	0.00e+00	0	27	0	607125504	52	6072
2026-01-15 23:06:27.89	78.62	36.90	-39.5	-40.7	21.1	0.00e+00	0	27	0	609222656	52	6211
2026-01-15 23:06:28.90	78.25	37.02	-39.7	-41.0	20.8	0.00e+00	0	27	0	611319808	52	6445
2026-01-15 23:06:29.91	77.87	37.13	-39.1	-40.3	21.3	0.00e+00	0	27	0	613416960	52	5928
2026-01-15 23:06:30.92	77.48	37.25	-39.2	-40.4	21.3	0.00e+00	0	27	0	614465536	52	6030
2026-01-15 23:06:31.93	77.10	37.36	-38.9	-40.0	21.4	0.00e+00	0	27	0	616562688	50	6440
2026-01-15 23:06:32.94	76.71	37.47	-38.9	-40.1	21.5	0.00e+00	0	27	0	618659840	50	6501
2026-01-15 23:06:33.94	76.33	37.58	-39.0	-40.2	21.5	0.00e+00	0	27	0	620756992	50	6613
2026-01-15 23:06:34.95	75.93	37.69	-38.5	-39.6	21.9	0.00e+00	0	27	0	622854144	50	6164
2026-01-15 23:06:35.96	75.54	37.80	-38.2	-39.2	22.3	0.00e+00	0	27	0	623902720	50	5854
2026-01-15 23:06:36.97	75.14	37.91	-38.1	-39.1	22.3	0.00e+00	0	27	0	625999872	50	5828
2026-01-15 23:06:37.98	74.74	38.01	-38.4	-39.5	22.0	0.00e+00	0	27	0	628097024	50	6096
2026-01-15 23:06:38.99	74.34	38.12	-38.2	-39.2	22.5	0.00e+00	0	27	0	630194176	50	5891
2026-01-15 23:06:40.00	73.93	38.22	-38.3	-39.5	22.1	0.00e+00	0	27	0	632291328	50	6036
2026-01-15 23:06:41.01	73.53	38.32	-38.0	-39.1	22.3	0.00e+00	0	27	0	633339904	50	5803
2026-01-15 23:06:42.01	73.12	38.42	-37.6	-38.6	22.6	0.00e+00	0	27	0	635437056	48	6154
2026-01-15 23:06:43.02	72.71	38.52	-36.9	-37.8	23.4	0.00e+00	0	27	0	637534208	48	5619
2026-01-15 23:06:44.03	72.29	38.62	-36.8	-37.7	23.3	0.00e+00	0	27	0	639631360	46	6218
2026-01-15 23:06:45.04	71.87	38.72	-37.6	-38.7	22.5	0.00e+00	0	27	0	641728512	46	6947
2026-01-15 23:06:46.05	71.45	38.81	-38.2	-39.3	22.2	0.00e+00	0	27	0	642777088	48	6657
2026-01-15 23:06:47.06	71.03	38.91	-38.5	-39.7	21.4	0.00e+00	0	27	0	644874240	48	6943
2026-01-15 23:06:48.07	70.60	39.00	-38.3	-39.5	21.9	0.00e+00	0	27	0	646971392	48	6839
2026-01-15 23:06:49.08	70.17	39.09	-37.6	-38.6	22.7	0.00e+00	0	27	0	649068544	48	6148
2026-01-15 23:06:50.09	69.74	39.18	-36.7	-37.6	23.4	0.00e+00	0	27	0	651165696	48	5484
2026-01-15 23:06:51.10	69.31	39.26	-36.4	-37.3	23.7	0.00e+00	0	27	0	652214272	46	5935
2026-01-15 23:06:52.11	68.88	39.35	-36.3	-37.2	23.8	0.00e+00	0	27	0	654311424	46	5860
2026-01-15 23:06:53.12	68.44	39.43	-36.8	-37.8	23.3	0.00e+00	0	27	0	656408576	46	6271
2026-01-15 23:06:54.13	68.00	39.51	-37.1	-38.2	22.9	0.00e+00	0	27	0	658505728	46	6546
2026-01-15 23:06:55.13	67.56	39.59	-36.8	-37.7	23.5	0.00e+00	0	27	0	660602880	46	6238
2026-01-15 23:06:56.14	67.12	39.67	-36.2	-37.0	24.0	0.00e+00	0	27	0	661651456	46	5738
2026-01-15 23:06:57.15	66.67	39.75	-35.9	-36.8	24.2	0.00e+00	0	27	0	663748608	44	6271
2026-01-15 23:06:58.16	66.23	39.82	-36.5	-37.4	23.6	0.00e+00	0	27	0	665845760	44	6707
2026-01-15 23:06:59.17	65.78	39.90	-37.6	-38.6	22.7	0.00e+00	0	27	0	667942912	46	6891
2026-01-15 23:07:00.18	65.32	39.97	-37.5	-38.5	22.9	0.00e+00	0	27	0	670040064	46	6794
2026-01-15 23:07:01.19	64.87	40.04	-37.3	-38.3	22.8	0.00e+00	0	27	0	672137216	46	6677
2026-01-15 23:07:02.20	64.41	40.10	-36.9	-37.9	23.3	0.00e+00	0	27	0	673185792	46	6324
2026-01-15 23:07:03.21	63.96	40.17	-36.8	-37.7	23.4	0.00e+00	0	27	0	675282944	46	6214
2026-01-15 23:07:04.22	63.50	40.23	-36.7	-37.7	23.6	0.00e+00	0	27	0	677380096	46	6192
2026-01-15 23:07:05.23	63.04	40.29	-37.4	-38.4	22.8	0.00e+00	0	27	0	679477248	46	6756
2026-01-15 23:07:06.24	62.57	40.35	-37.3	-38.3	23.0	0.00e+00	0	27	0	681574400	46	6661
2026-01-15 23:07:07.24	62.11	40.41	-37.4	-38.4	22.9	0.00e+00	0	27	0	682622976	46	6747
2026-01-15 23:07:08.25	61.65	40.47	-37.2	-38.2	23.0	0.00e+00	0	27	0	684720128	46	6578
2026-01-15 23:07:09.26	61.18	40.52	-37.0	-37.9	23.4	0.00e+00	0	27	0	686817280	46	6362
2026-01-15 23:07:10.27	60.71	40.57	-36.6	-37.6	23.4	0.00e+00	0	27	0	688914432	46	6113
2026-01-15 23:07:11.28	60.24	40.62	-36.6	-37.4	23.7	0.00e+00	0	27	0	691011584	46	6033
2026-01-15 23:07:12.28	59.77	40.67	-36.8	-37.7	23.4	0.00e+00	0	27	0	692060160	46	6221
2026-01-15 23:07:13.29	59.30	40.71	-37.1	-38.1	23.1	0.00e+00	0	27	0	694157312	46	6501
2026-01-15 23:07:14.30	58.82	40.75	-37.3	-38.4	22.8	0.00e+00	0	27	0	696254464	46	6697
2026-01-15 23:07:15.31	58.35	40.79	-37.0	-37.9	23.1	0.00e+00	0	27	0	698351616	46	6385
2026-01-15 23:07:16.32	57.87	40.83	-36.3	-37.2	23.8	0.00e+00	0	27	0	700448768	46	5837
2026-01-15 23:07:17.33	57.39	40.87	-35.9	-36.8	24.2	0.00e+00	0	27	0	701497344	46	5578
2026-01-15 23:07:18.34	56.91	40.90	-36.8	-37.8	23.4	0.00e+00	0	27	0	703594496	46	6258
2026-01-15 23:07:19.35	56.43	40.93	-37.7	-38.7	22.7	0.00e+00	0	27	0	705691648	46	6992
2026-01-15 23:07:20.36	55.95	40.96	-37.9	-38.9	22.5	0.00e+00	0	27	0	707788800	48	6356
2026-01-15 23:07:21.37	55.47	40.99	-37.7	-38.7	22.8	0.00e+00	0	27	0	709885952	48	6229
2026-01-15 23:07:22.38	54.99	41.01	-37.7	-38.7	22.5	0.00e+00	0	27	0	710934528	48	6236
2026-01-15 23:07:23.39	54.50	41.04	-37.7	-38.7	22.7	0.00e+00	0	27	0	713031680	48	6234
2026-01-15 23:07:24.40	54.02	41.06	-37.3	-38.2	23.0	0.00e+00	0	27	0	715128832	48	5889
2026-01-15 23:07:25.41	53.53	41.07	-37.1	-38.0	23.2	0.00e+00	0	27	0	717225984	48	5730
2026-01-15 23:07:26.41	53.05	41.09	-37.6	-38.6	22.8	0.00e+00	0	27	0	719323136	48	6156
2026-01-15 23:07:27.42	52.57	41.10	-38.2	-39.3	22.5	0.00e+00	0	27	0	720371712	48	6623
2026-01-15 23:07:28.44	52.08	41.11	-38.1	-39.1	22.4	0.00e+00	0	27	0	722468864	48	6528
2026-01-15 23:07:29.45	51.59	41.12	-37.5	-38.5	22.8	0.00e+00	0	27	0	724566016	48	6055
2026-01-15 23:07:30.46	51.10	41.13	-37.8	-38.8	22.8	0.00e+00	0	27	0	726663168	48	6289
2026-01-15 23:07:31.47	50.62	41.13	-38.3	-39.4	22.2	0.00e+00	0	27	0	728760320	48	6703
2026-01-15 23:07:32.47	50.14	41.13	-38.4	-39.4	22.1	0.00e+00	0	27	0	729808896	48	6754
2026-01-15 23:07:33.48	49.65	41.13	-38.2	-39.3	22.2	0.00e+00	0	27	0	731906048	48	6635
2026-01-15 23:07:34.49	49.16	41.13	-38.3	-39.3	22.3	0.00e+00	0	27	0	734003200	48	6644
2026-01-15 23:07:35.50	48.68	41.12	-38.5	-39.6	22.0	0.00e+00	0	27	0	736100352	48	6860
2026-01-15 23:07:36.51	48.19	41.12	-39.2	-40.4	21.3	0.00e+00	0	27	0	738197504	50	6707
2026-01-15 23:07:37.52	47.70	41.11	-39.8	-41.1	20.8	0.00e+00	0	27	0	740294656	52	6503
2026-01-15 23:07:38.53	47.22	41.09	-41.2	-42.8	19.0	0.00e+00	0	27	0	741343232	54	7087
2026-01-15 23:07:39.54	46.73	41.08	-42.0	-43.9	18.3	0.00e+00	0	27	0	743440384	56	7140
2026-01-15 23:07:40.55	46.25	41.06	-41.0	-42.5	19.5	0.00e+00	0	27	0	745537536	56	6054
2026-01-15 23:07:41.56	45.76	41.04	-39.7	-41.0	20.4	0.00e+00	0	27	0	747634688	54	5717
2026-01-15 23:07:42.57	45.28	41.02	-39.6	-40.9	20.8	0.00e+00	0	27	0	749731840	52	6324
2026-01-15 23:07:43.58	44.80	41.00	-40.7	-42.2	19.3	0.00e+00	0	27	0	750780416	54	6601
2026-01-15 23:07:44.58	44.32	40.97	-41.7	-43.4	18.8	0.00e+00	0	27	0	752877568	54	7585
2026-01-15 23:07:45.60	43.84	40.94	-41.6	-43.3	18.6	0.00e+00	0	27	0	754974720	54	7452
2026-01-15 23:07:46.60	43.36	40.91	-41.0	-42.5	19.5	0.00e+00	0	27	0	757071872	54	6785
2026-01-15 23:07:47.61	42.88	40.88	-40.7	-42.1	19.8	0.00e+00	0	27	0	759169024	54	6500
2026-01-15 23:07:48.62	42.40	40.84	-40.5	-41.8	19.9	0.00e+00	0	27	0	760217600	54	6308
2026-01-15 23:07:49.63	41.93	40.80	-41.0	-42.6	18.9	0.00e+00	0	27	0	762314752	54	6854
2026-01-15 23:07:50.64	41.45	40.76	-41.7	-43.5	18.2	0.00e+00	0	27	0	764411904	54	7632
2026-01-15 23:07:51.65	40.97	40.72	-41.8	-43.6	18.6	0.00e+00	0	27	0	766509056	56	6889
2026-01-15 23:07:52.66	40.50	40.68	-41.8	-43.5	18.6	0.00e+00	0	27	0	768606208	56	6822
2026-01-15 23:07:53.66	40.03	40.63	-41.6	-43.3	18.7	0.00e+00	0	27	0	769654784	56	6673
2026-01-15 23:07:54.67	39.56	40.58	-41.1	-42.7	19.2	0.00e+00	0	27	0	771751936	56	6221
2026-01-15 23:07:55.68	39.09	40.53	-40.0	-41.4	20.3	0.00e+00	0	27	0	773849088	54	5978
2026-01-15 23:07:56.69	38.63	40.48	-39.9	-41.2	20.5	0.00e+00	0	27	0	775946240	52	6572
2026-01-15 23:07:57.70	38.16	40.43	-40.4	-42.0	19.8	0.00e+00	0	27	0	778043392	54	6408
2026-01-15 23:07:58.71	37.70	40.37	-41.2	-42.9	18.9	0.00e+00	0	27	0	779091968	54	7129
2026-01-15 23:07:59.72	37.23	40.31	-42.0	-44.0	18.2	0.00e+00	0	27	0	781189120	56	7220
2026-01-15 23:08:00.73	36.77	40.25	-42.4	-44.7	17.3	0.00e+00	0	27	0	783286272	56	7856
2026-01-15 23:08:01.74	36.31	40.19	-41.6	-43.5	18.3	0.00e+00	0	27	0	785383424	56	6837
2026-01-15 23:08:02.75	35.85	40.12	-39.8	-41.1	20.7	0.00e+00	0	27	0	787480576	54	5807
2026-01-15 23:08:03.75	35.40	40.06	-38.9	-40.1	21.5	0.00e+00	0	27	0	788529152	52	5823
2026-01-15 23:08:04.76	34.95	39.99	-38.6	-39.8	22.1	0.00e+00	0	27	0	790626304	50	6260
2026-01-15 23:08:05.77	34.50	39.92	-38.5	-39.7	21.8	0.00e+00	0	27	0	792723456	50	6218
2026-01-15 23:08:06.78	34.05	39.84	-37.7	-38.7	22.7	0.00e+00	0	27	0	794820608	50	5563
2026-01-15 23:08:07.79	33.60	39.77	-37.1	-38.1	23.2	0.00e+00	0	27	0	796917760	48	5776
2026-01-15 23:08:08.80	33.15	39.69	-37.7	-38.8	22.5	0.00e+00	0	27	0	797966336	48	6279
2026-01-15 23:08:09.81	32.71	39.62	-37.8	-38.9	22.7	0.00e+00	0	27	0	800063488	48	6325
2026-01-15 23:08:10.82	32.27	39.54	-37.7	-38.7	22.6	0.00e+00	0	27	0	802160640	48	6229
2026-01-15 23:08:11.83	31.83	39.45	-37.0	-37.9	23.4	0.00e+00	0	27	0	804257792	48	5658
2026-01-15 23:08:12.84	31.39	39.37	-36.7	-37.6	23.5	0.00e+00	0	27	0	806354944	48	5457
2026-01-15 23:08:13.85	30.96	39.29	-36.4	-37.3	23.8	0.00e+00	0	27	0	807403520	46	5907
2026-01-15 23:08:14.85	30.53	39.20	-35.8	-36.6	23.7	0.00e+00	0	27	0	809500672	46	5490
2026-01-15 23:08:15.86	30.10	39.11	-35.5	-36.4	24.4	0.00e+00	0	27	0	811597824	44	5965
2026-01-15 23:08:16.87	29.67	39.02	-35.9	-36.8	24.0	0.00e+00	0	27	0	813694976	44	6249
2026-01-15 23:08:17.88	29.25	38.93	-36.1	-37.0	24.0	0.00e+00	0	27	0	815792128	44	6398
2026-01-15 23:08:18.89	28.82	38.84	-35.7	-36.6	24.2	0.00e+00	0	27	0	816840704	44	6126
2026-01-15 23:08:19.90	28.40	38.74	-35.5	-36.4	24.4	0.00e+00	0	27	0	818937856	44	5979
2026-01-15 23:08:20.91	27.99	38.65	-35.4	-36.2	24.5	0.00e+00	0	27	0	821035008	44	5885
2026-01-15 23:08:21.92	27.57	38.55	-35.6	-36.4	24.3	0.00e+00	0	27	0	823132160	44	6024
2026-01-15 23:08:22.93	27.16	38.45	-35.4	-36.2	24.6	0.00e+00	0	27	0	825229312	44	5861
2026-01-15 23:08:23.94	26.75	38.35	-35.0	-35.8	24.8	0.00e+00	0	27	0	826277888	44	5591
2026-01-15 23:08:24.95	26.34	38.25	-35.1	-35.9	24.7	0.00e+00	0	27	0	828375040	44	5684
2026-01-15 23:08:25.96	25.93	38.15	-36.0	-36.9	24.0	0.00e+00	0	27	0	830472192	44	6378
2026-01-15 23:08:26.97	25.53	38.04	-36.7	-37.7	23.2	0.00e+00	0	27	0	832569344	44	6943
2026-01-15 23:08:27.98	25.13	37.94	-37.3	-38.3	23.0	0.00e+00	0	27	0	834666496	46	6666
2026-01-15 23:08:28.99	24.73	37.83	-37.4	-38.4	22.9	0.00e+00	0	27	0	836763648	46	6752
2026-01-15 23:08:29.99	24.34	37.73	-36.8	-37.8	23.3	0.00e+00	0	27	0	837812224	46	6263
2026-01-15 23:08:31.00	23.95	37.62	-36.2	-37.1	23.7	0.00e+00	0	27	0	839909376	46	5818
2026-01-15 23:08:32.01	23.56	37.51	-35.5	-36.3	24.3	0.00e+00	0	27	0	842006528	44	5925
2026-01-15 23:08:33.02	23.17	37.39	-35.7	-36.6	24.1	0.00e+00	0	27	0	844103680	44	6109
2026-01-15 23:08:34.03	22.79	37.28	-36.4	-37.3	23.6	0.00e+00	0	27	0	846200832	44	6638
2026-01-15 23:08:35.04	22.41	37.17	-36.9	-37.9	23.2	0.00e+00	0	27	0	847249408	46	6339
2026-01-15 23:08:36.05	22.03	37.05	-37.3	-38.3	22.9	0.00e+00	0	27	0	849346560	46	6650
2026-01-15 23:08:37.06	21.65	36.94	-36.6	-37.5	23.6	0.00e+00	0	27	0	851443712	46	6069
2026-01-15 23:08:38.07	21.28	36.82	-35.9	-36.8	24.1	0.00e+00	0	27	0	853540864	46	5591
2026-01-15 23:08:39.08	20.91	36.70	-36.0	-36.9	24.0	0.00e+00	0	27	0	855638016	46	5643
2026-01-15 23:08:40.09	20.54	36.59	-35.8	-36.6	24.2	0.00e+00	0	27	0	856686592	44	6164
2026-01-15 23:08:41.10	20.17	36.47	-35.4	-36.3	24.3	0.00e+00	0	27	0	858783744	44	5908
2026-01-15 23:08:42.11	19.81	36.35	-35.7	-36.6	24.1	0.00e+00	0	27	0	860880896	44	6105
2026-01-15 23:08:43.12	19.45	36.23	-36.5	-37.4	23.5	0.00e+00	0	27	0	862978048	44	6755
2026-01-15 23:08:44.12	19.10	36.10	-37.8	-38.9	22.4	0.00e+00	0	27	0	865075200	46	7091
2026-01-15 23:08:45.13	18.74	35.98	-38.1	-39.2	22.1	0.00e+00	0	27	0	866123776	48	6562
2026-01-15 23:08:46.14	18.39	35.86	-37.1	-38.1	23.1	0.00e+00	0	27	0	868220928	48	5772
2026-01-15 23:08:47.15	18.04	35.73	-36.6	-37.5	23.6	0.00e+00	0	27	0	870318080	46	6102
2026-01-15 23:08:48.16	17.70	35.61	-36.8	-37.8	23.3	0.00e+00	0	27	0	872415232	46	6248
2026-01-15 23:08:49.17	17.35	35.48	-37.6	-38.6	22.7	0.00e+00	0	27	0	874512384	46	6890
2026-01-15 23:08:50.18	17.01	35.36	-37.2	-38.3	22.7	0.00e+00	0	27	0	875560960	48	5915
2026-01-15 23:08:51.19	16.67	35.23	-37.2	-38.2	23.1	0.00e+00	0	27	0	877658112	48	5860
2026-01-15 23:08:52.20	16.34	35.10	-37.3	-38.3	22.9	0.00e+00	0	27	0	879755264	48	5920
2026-01-15 23:08:53.21	16.00	34.97	-37.7	-38.7	22.6	0.00e+00	0	27	0	881852416	48	6220
2026-01-15 23:08:54.22	15.67	34.85	-37.9	-39.0	22.4	0.00e+00	0	27	0	883949568	48	6443
2026-01-15 23:08:55.23	15.34	34.72	-37.8	-38.9	22.5	0.00e+00	0	27	0	884998144	48	6355
2026-01-15 23:08:56.24	15.02	34.59	-38.2	-39.3	22.1	0.00e+00	0	27	0	887095296	48	6662
2026-01-15 23:08:57.24	14.70	34.46	-38.9	-40.1	21.5	0.00e+00	0	27	0	889192448	48	7267
2026-01-15 23:08:58.25	14.38	34.33	-39.4	-40.7	21.0	0.00e+00	0	27	0	891289600	50	6941
2026-01-15 23:08:59.26	14.06	34.20	-39.0	-40.3	21.4	0.00e+00	0	27	0	893386752	50	6620
2026-01-15 23:09:00.27	13.75	34.06	-38.2	-39.5	22.0	0.00e+00	0	27	0	894435328	50	6050
2026-01-15 23:09:01.28	13.43	33.93	-37.8	-39.0	22.3	0.00e+00	0	27	0	896532480	50	5747
2026-01-15 23:09:02.28	13.13	33.80	-37.6	-38.7	22.6	0.00e+00	0	27	0	898629632	48	6225
2026-01-15 23:09:03.29	12.82	33.67	-37.6	-38.7	22.6	0.00e+00	0	27	0	900726784	48	6209
2026-01-15 23:09:04.31	12.51	33.53	-37.5	-38.5	22.9	0.00e+00	0	27	0	902823936	48	6060
2026-01-15 23:09:05.31	12.21	33.40	-37.1	-37.9	23.4	0.00e+00	0	27	0	903872512	48	5691
2026-01-15 23:09:06.32	11.91	33.27	-37.2	-38.1	23.1	0.00e+00	0	27	0	905969664	48	5826
2026-01-15 23:09:07.33	11.62	33.13	-38.1	-39.1	22.1	0.00e+00	0	27	0	908066816	48	6506
2026-01-15 23:09:08.34	11.32	33.00	-39.2	-40.4	21.3	0.00e+00	0	27	0	910163968	50	6706
2026-01-15 23:09:09.35	11.03	32.86	-39.1	-40.4	21.1	0.00e+00	0	27	0	912261120	50	6693
2026-01-15 23:09:10.36	10.74	32.73	-39.0	-40.1	21.4	0.00e+00	0	27	0	914358272	50	6530
2026-01-15 23:09:11.37	10.45	32.59	-38.8	-39.9	21.6	0.00e+00	0	27	0	915406848	50	6389
2026-01-15 23:09:12.38	10.17	32.46	-38.8	-39.9	21.6	0.00e+00	0	27	0	917504000	50	6383
2026-01-15 23:09:13.39	9.88	32.32	-38.8	-39.9	21.7	0.00e+00	0	27	0	919601152	50	6323
2026-01-15 23:09:14.40	9.60	32.19	-39.2	-40.4	21.2	0.00e+00	0	27	0	921698304	50	6725
2026-01-15 23:09:15.41	9.33	32.05	-40.0	-41.3	20.5	0.00e+00	0	27	0	922746880	52	6656
2026-01-15 23:09:16.42	9.05	31.91	-40.4	-41.8	19.9	0.00e+00	0	27	0	924844032	52	7011
2026-01-15 23:09:17.43	8.78	31.78	-41.0	-42.6	19.1	0.00e+00	0	27	0	926941184	54	6917
2026-01-15 23:09:18.44	8.51	31.64	-42.4	-44.6	17.5	0.00e+00	0	27	0	929038336	56	7703
2026-01-15 23:09:19.45	8.24	31.51	-42.3	-44.4	18.2	0.00e+00	0	27	0	931135488	56	7512
2026-01-15 23:09:20.46	7.97	31.37	-41.0	-42.6	19.3	0.00e+00	0	27	0	933232640	56	6118
2026-01-15 23:09:21.47	7.71	31.23	-39.8	-41.1	20.6	0.00e+00	0	27	0	934281216	54	5804
2026-01-15 23:09:22.48	7.44	31.10	-39.7	-41.0	20.8	0.00e+00	0	27	0	936378368	52	6407
2026-01-15 23:09:23.49	7.18	30.96	-39.8	-41.1	20.5	0.00e+00	0	27	0	938475520	52	6476
2026-01-15 23:09:24.50	6.93	30.82	-40.6	-42.0	19.9	0.00e+00	0	27	0	940572672	52	7251
2026-01-15 23:09:25.51	6.67	30.69	-41.0	-42.5	19.1	0.00e+00	0	27	0	942669824	54	6828
2026-01-15 23:09:26.52	6.42	30.55	-40.7	-42.2	19.6	0.00e+00	0	27	0	943718400	54	6557
2026-01-15 23:09:27.52	6.17	30.41	-39.3	-40.5	21.1	0.00e+00	0	27	0	945815552	52	6097
2026-01-15 23:09:28.53	5.92	30.28	-39.1	-40.4	21.3	0.00e+00	0	27	0	947912704	52	5976
2026-01-15 23:09:29.54	5.68	30.14	-39.1	-40.3	21.3	0.00e+00	0	27	0	950009856	52	5961
2026-01-15 23:09:30.55	5.43	30.01	-39.3	-40.5	21.0	0.00e+00	0	27	0	952107008	52	6092
2026-01-15 23:09:31.56	5.19	29.87	-39.6	-40.9	20.8	0.00e+00	0	27	0	953155584	52	6342
2026-01-15 23:09:32.57	4.95	29.73	-39.4	-40.6	21.0	0.00e+00	0	27	0	955252736	52	6161
2026-01-15 23:09:33.58	4.71	29.60	-39.8	-41.1	20.7	0.00e+00	0	27	0	957349888	52	6521
2026-01-15 23:09:34.59	4.47	29.46	-39.4	-40.7	20.9	0.00e+00	0	27	0	959447040	52	6208
2026-01-15 23:09:35.60	4.24	29.32	-40.1	-41.5	20.3	0.00e+00	0	27	0	961544192	52	6786
2026-01-15 23:09:36.61	4.01	29.19	-39.9	-41.2	20.4	0.00e+00	0	27	0	962592768	52	6600
2026-01-15 23:09:37.62	3.78	29.05	-40.1	-41.4	20.5	0.00e+00	0	27	0	964689920	52	6756
2026-01-15 23:09:38.63	3.55	28.92	-39.0	-40.2	21.2	0.00e+00	0	27	0	966787072	52	5864
2026-01-15 23:09:39.63	3.32	28.78	-38.8	-39.9	21.8	0.00e+00	0	27	0	968884224	52	5668
2026-01-15 23:09:40.64	3.10	28.65	-38.3	-39.4	22.1	0.00e+00	0	27	0	970981376	50	5975
2026-01-15 23:09:41.65	2.88	28.51	-38.1	-39.2	22.1	0.00e+00	0	27	0	972029952	50	5869
2026-01-15 23:09:42.66	2.66	28.38	-37.9	-38.9	22.5	0.00e+00	0	27	0	974127104	50	5683
2026-01-15 23:09:43.67	2.44	28.24	-38.2	-39.2	22.1	0.00e+00	0	27	0	976224256	50	5892
2026-01-15 23:09:44.68	2.22	28.11	-38.3	-39.3	22.2	0.00e+00	0	27	0	978321408	50	5941
2026-01-15 23:09:45.69	2.01	27.97	-38.0	-39.0	22.4	0.00e+00	0	27	0	980418560	50	5747
2026-01-15 23:09:46.70	1.79	27.84	-37.5	-38.5	22.9	0.00e+00	0	27	0	981467136	50	5395
2026-01-15 23:09:47.71	1.58	27.71	-37.4	-38.3	23.0	0.00e+00	0	27	0	983564288	48	5961
2026-01-15 23:09:48.72	1.37	27.57	-37.5	-38.5	22.6	0.00e+00	0	27	0	985661440	48	6036
2026-01-15 23:09:49.73	1.16	27.44	-37.8	-38.8	22.5	0.00e+00	0	27	0	987758592	48	6265
2026-01-15 23:09:50.74	0.96	27.30	-37.7	-38.7	22.6	0.00e+00	0	27	0	989855744	48	6207
2026-01-15 23:09:51.75	0.75	27.17	-37.6	-38.6	22.7	0.00e+00	0	27	0	990904320	48	6163
2026-01-15 23:09:52.76	0.55	27.04	-38.0	-39.0	22.3	0.00e+00	0	27	0	993001472	48	6450
2026-01-15 23:09:53.76	0.35	26.91	-38.1	-39.1	22.2	0.00e+00	0	27	0	995098624	48	6538
2026-01-15 23:09:54.77	0.15	26.78	-38.6	-39.7	21.7	0.00e+00	0	27	0	997195776	48	6944
2026-01-15 23:09:55.78	359.95	26.64	-38.6	-39.7	21.9	0.00e+00	0	27	0	999292928	48	6979
2026-01-15 23:09:56.79	359.76	26.51	-38.6	-39.7	21.6	0.00e+00	0	27	0	1001390080	48	6964
2026-01-15 23:09:57.80	359.56	26.38	-38.5	-39.7	21.8	0.00e+00	0	27	0	1002438656	48	6946
2026-01-15 23:09:58.81	359.37	26.25	-38.6	-39.8	21.6	0.00e+00	0	27	0	1004535808	50	6262
2026-01-15 23:09:59.82	359.18	26.12	-38.6	-39.7	21.6	0.00e+00	0	27	0	1006632960	50	6189
2026-01-15 23:10:00.83	358.99	25.99	-38.6	-39.8	21.5	0.00e+00	0	27	0	1008730112	50	6258
2026-01-15 23:10:01.84	358.80	25.86	-38.9	-40.0	21.4	0.00e+00	0	27	0	1010827264	50	6463
2026-01-15 23:10:02.85	358.62	25.73	-38.8	-39.9	21.6	0.00e+00	0	27	0	1011875840	50	6360
2026-01-15 23:10:03.86	358.43	25.60	-38.2	-39.2	22.2	0.00e+00	0	27	0	1013972992	50	5883
2026-01-15 23:10:04.87	358.25	25.47	-38.5	-39.6	22.0	0.00e+00	0	27	0	1016070144	50	6106
2026-01-15 23:10:05.88	358.07	25.34	-37.9	-38.9	22.4	0.00e+00	0	27	0	1018167296	50	5686
2026-01-15 23:10:06.89	357.89	25.21	-37.7	-38.7	22.6	0.00e+00	0	27	0	1020264448	48	6206
2026-01-15 23:10:07.90	357.71	25.08	-37.5	-38.5	22.7	0.00e+00	0	27	0	1021313024	48	6083
2026-01-15 23:10:08.90	357.53	24.95	-37.4	-38.5	22.8	0.00e+00	0	27	0	1023410176	48	6038
2026-01-15 23:10:09.91	357.36	24.83	-37.6	-38.6	22.7	0.00e+00	0	27	0	1025507328	48	6149
2026-01-15 23:10:10.92	357.18	24.70	-37.4	-38.4	22.9	0.00e+00	0	27	0	1027604480	48	5970
2026-01-15 23:10:11.93	357.01	24.57	-37.6	-38.7	22.5	0.00e+00	0	27	0	1029701632	48	6191
2026-01-15 23:10:12.94	356.84	24.44	-37.8	-38.8	22.5	0.00e+00	0	27	0	1030750208	48	6291
2026-01-15 23:10:13.95	356.67	24.32	-37.8	-38.8	22.4	0.00e+00	0	27	0	1032847360	48	6295
2026-01-15 23:10:14.96	356.50	24.19	-37.5	-38.4	22.8	0.00e+00	0	27	0	1034944512	48	6030
2026-01-15 23:10:15.97	356.33	24.07	-37.6	-38.6	22.7	0.00e+00	0	27	0	1037041664	48	6108
2026-01-15 23:10:16.98	356.17	23.94	-37.2	-38.1	22.9	0.00e+00	0	27	0	1039138816	48	5824
2026-01-15 23:10:17.99	356.00	23.81	-36.9	-37.8	23.3	0.00e+00	0	27	0	1040187392	48	5602
2026-01-15 23:10:19.00	355.84	23.69	-36.8	-37.8	23.4	0.00e+00	0	27	0	1042284544	46	6264
2026-01-15 23:10:20.01	355.68	23.56	-36.6	-37.6	23.5	0.00e+00	0	27	0	1044381696	46	6111
2026-01-15 23:10:21.02	355.52	23.44	-36.9	-37.8	23.2	0.00e+00	0	27	0	1046478848	46	6314
2026-01-15 23:10:22.03	355.36	23.32	-37.4	-38.4	22.8	0.00e+00	0	27	0	1048576000	46	6736
2026-01-15 23:10:23.04	355.20	23.19	-37.8	-38.9	22.3	0.00e+00	0	27	0	1049624576	48	6333
2026-01-15 23:10:24.05	355.04	23.07	-38.1	-39.3	22.0	0.00e+00	0	27	0	1051721728	48	6632
2026-01-15 23:10:25.06	354.89	22.95	-39.2	-40.6	20.9	0.00e+00	0	27	0	1053818880	50	6877
2026-01-15 23:10:26.07	354.73	22.82	-39.2	-40.7	20.7	0.00e+00	0	27	0	1055916032	50	6949
2026-01-15 23:10:27.08	354.58	22.70	-39.6	-41.1	20.5	0.00e+00	0	27	0	1058013184	50	7269
2026-01-15 23:10:28.08	354.43	22.58	-39.3	-40.7	20.8	0.00e+00	0	27	0	1059061760	50	6980
2026-01-15 23:10:29.09	354.28	22.46	-39.1	-40.4	21.1	0.00e+00	0	27	0	1061158912	50	6751
2026-01-15 23:10:30.10	354.13	22.34	-38.9	-40.2	21.3	0.00e+00	0	27	0	1063256064	50	6609
2026-01-15 23:10:31.11	353.98	22.22	-38.5	-39.7	21.7	0.00e+00	0	27	0	1065353216	50	6236
2026-01-15 23:10:32.12	353.83	22.10	-38.7	-39.9	21.6	0.00e+00	0	27	0	1067450368	50	6351
2026-01-15 23:10:33.13	353.69	21.98	-38.7	-39.8	21.6	0.00e+00	0	27	0	1069547520	50	6292
2026-01-15 23:10:34.14	353.54	21.86	-38.5	-39.6	22.0	0.00e+00	0	27	0	1070596096	50	6159
2026-01-15 23:10:35.15	353.40	21.74	-38.4	-39.5	22.0	0.00e+00	0	27	0	1072693248	50	6050
2026-01-15 23:10:36.16	353.26	21.62	-38.4	-39.4	21.9	0.00e+00	0	27	0	1074790400	50	6012
2026-01-15 23:10:37.17	353.11	21.50	-38.3	-39.3	22.0	0.00e+00	0	27	0	1076887552	50	5948
2026-01-15 23:10:38.18	352.97	21.38	-38.1	-39.2	22.1	0.00e+00	0	27	0	1078984704	50	5853
2026-01-15 23:10:39.19	352.83	21.27	-38.2	-39.3	22.0	0.00e+00	0	27	0	1080033280	50	5950
2026-01-15 23:10:40.20	352.70	21.15	-38.2	-39.3	22.1	0.00e+00	0	27	0	1082130432	50	5902
2026-01-15 23:10:41.21	352.56	21.03	-38.1	-39.2	22.0	0.00e+00	0	27	0	1084227584	50	5845
2026-01-15 23:10:42.21	352.42	20.92	-38.0	-39.2	22.1	0.00e+00	0	27	0	1086324736	50	5830
2026-01-15 23:10:43.22	352.29	20.80	-37.9	-39.1	22.3	0.00e+00	0	27	0	1088421888	50	5771
2026-01-15 23:10:44.23	352.16	20.69	-37.6	-38.7	22.4	0.00e+00	0	27	0	1089470464	48	6227
2026-01-15 23:10:45.24	352.02	20.57	-37.6	-38.7	22.5	0.00e+00	0	27	0	1091567616	48	6196
2026-01-15 23:10:46.25	351.89	20.45	-37.4	-38.4	22.7	0.00e+00	0	27	0	1093664768	48	6007
2026-01-15 23:10:47.26	351.76	20.34	-37.3	-38.3	22.8	0.00e+00	0	27	0	1095761920	48	5944
2026-01-15 23:10:48.27	351.63	20.23	-37.1	-38.1	22.9	0.00e+00	0	27	0	1097859072	48	5814
2026-01-15 23:10:49.27	351.50	20.11	-37.4	-38.4	22.8	0.00e+00	0	27	0	1098907648	48	5991
2026-01-15 23:10:50.28	351.38	20.00	-37.6	-38.6	22.6	0.00e+00	0	27	0	1101004800	48	6160
2026-01-15 23:10:51.29	351.25	19.89	-37.8	-38.9	22.3	0.00e+00	0	27	0	1103101952	48	6321
2026-01-15 23:10:52.30	351.12	19.77	-38.1	-39.1	22.1	0.00e+00	0	27	0	1105199104	48	6524
2026-01-15 23:10:53.31	351.00	19.66	-38.4	-39.5	21.8	0.00e+00	0	27	0	1107296256	48	6804
2026-01-15 23:10:54.32	350.87	19.55	-38.9	-40.0	21.5	0.00e+00	0	27	0	1108344832	50	6456
2026-01-15 23:10:55.33	350.75	19.44	-39.0	-40.2	21.2	0.00e+00	0	27	0	1110441984	50	6604
2026-01-15 23:10:56.34	350.63	19.32	-39.0	-40.1	20.9	0.00e+00	0	27	0	1112539136	50	6515
2026-01-15 23:10:57.35	350.51	19.21	-38.9	-40.1	21.3	0.00e+00	0	27	0	1114636288	50	6499
2026-01-15 23:10:58.36	350.39	19.10	-38.7	-39.9	21.5	0.00e+00	0	27	0	1116733440	50	6330
2026-01-15 23:10:59.37	350.27	18.99	-38.5	-39.6	21.8	0.00e+00	0	27	0	1117782016	50	6110
2026-01-15 23:11:00.38	350.15	18.88	-38.4	-39.5	21.8	0.00e+00	0	27	0	1119879168	50	6067
2026-01-15 23:11:01.39	350.03	18.77	-38.3	-39.3	22.0	0.00e+00	0	27	0	1121976320	50	5939
2026-01-15 23:11:02.40	349.91	18.66	-38.0	-39.0	22.2	0.00e+00	0	27	0	1124073472	50	5761
2026-01-15 23:11:03.41	349.80	18.55	-37.8	-38.8	22.2	0.00e+00	0	27	0	1126170624	50	5630
2026-01-15 23:11:04.42	349.68	18.44	-37.9	-39.0	22.1	0.00e+00	0	27	0	1127219200	48	6427
2026-01-15 23:11:05.43	349.57	18.34	-38.1	-39.1	22.0	0.00e+00	0	27	0	1129316352	48	6528
2026-01-15 23:11:06.44	349.45	18.23	-38.1	-39.2	22.1	0.00e+00	0	27	0	1131413504	48	6557
2026-01-15 23:11:07.44	349.34	18.12	-38.2	-39.3	22.0	0.00e+00	0	27	0	1133510656	48	6651
2026-01-15 23:11:08.45	349.23	18.01	-38.6	-39.7	21.7	0.00e+00	0	27	0	1135607808	48	6960
2026-01-15 23:11:09.46	349.12	17.91	-38.6	-39.7	21.7	0.00e+00	0	27	0	1136656384	48	6972
2026-01-15 23:11:10.47	349.01	17.80	-38.7	-39.9	21.4	0.00e+00	0	27	0	1138753536	50	6347
2026-01-15 23:11:11.48	348.90	17.69	-38.9	-40.1	21.1	0.00e+00	0	27	0	1140850688	50	6490
2026-01-15 23:11:12.49	348.79	17.59	-39.2	-40.4	21.0	0.00e+00	0	27	0	1142947840	50	6741
2026-01-15 23:11:13.50	348.68	17.48	-39.2	-40.5	20.9	0.00e+00	0	27	0	1145044992	50	6787
2026-01-15 23:11:14.51	348.58	17.38	-39.4	-40.7	20.8	0.00e+00	0	27	0	1147142144	50	7006
2026-01-15 23:11:15.52	348.47	17.27	-39.5	-40.8	20.7	0.00e+00	0	27	0	1148190720	50	7067
2026-01-15 23:11:16.53	348.36	17.17	-39.7	-41.0	20.5	0.00e+00	0	27	0	1150287872	50	7195
2026-01-15 23:11:17.54	348.26	17.06	-39.3	-40.5	20.9	0.00e+00	0	27	0	1152385024	50	6841
2026-01-15 23:11:18.55	348.16	16.96	-39.3	-40.6	20.9	0.00e+00	0	27	0	1154482176	50	6854
2026-01-15 23:11:19.56	348.05	16.86	-39.0	-40.3	21.0	0.00e+00	0	27	0	1155530752	50	6628
2026-01-15 23:11:20.57	347.95	16.75	-38.9	-40.1	21.3	0.00e+00	0	27	0	1157627904	50	6476
2026-01-15 23:11:21.58	347.85	16.65	-38.3	-39.4	21.9	0.00e+00	0	27	0	1159725056	50	5993
2026-01-15 23:11:22.59	347.75	16.55	-38.3	-39.4	21.9	0.00e+00	0	27	0	1161822208	50	5979
2026-01-15 23:11:23.60	347.65	16.45	-37.8	-38.8	22.3	0.00e+00	0	27	0	1163919360	50	5595
2026-01-15 23:11:24.61	347.55	16.35	-37.6	-38.6	22.5	0.00e+00	0	27	0	1164967936	48	6150
2026-01-15 23:11:25.62	347.45	16.24	-37.4	-38.4	22.6	0.00e+00	0	27	0	1167065088	48	5995
2026-01-15 23:11:26.62	347.35	16.14	-37.6	-38.5	22.6	0.00e+00	0	27	0	1169162240	48	6097
2026-01-15 23:11:27.63	347.25	16.04	-37.6	-38.6	22.4	0.00e+00	0	27	0	1171259392	48	6172
2026-01-15 23:11:28.64	347.16	15.94	-37.6	-38.6	22.4	0.00e+00	0	27	0	1173356544	48	6164
2026-01-15 23:11:29.65	347.06	15.84	-37.6	-38.7	22.3	0.00e+00	0	27	0	1175453696	48	6192
2026-01-15 23:11:30.66	346.96	15.74	-37.7	-38.7	22.3	0.00e+00	0	27	0	1176502272	48	6228
2026-01-15 23:11:31.67	346.87	15.64	-37.9	-39.0	22.2	0.00e+00	0	27	0	1178599424	48	6394
2026-01-15 23:11:32.67	346.78	15.55	-38.0	-39.1	22.0	0.00e+00	0	27	0	1180696576	48	6477
2026-01-15 23:11:33.69	346.68	15.45	-38.1	-39.2	22.0	0.00e+00	0	27	0	1182793728	48	6591
2026-01-15 23:11:34.69	346.59	15.35	-38.1	-39.2	21.9	0.00e+00	0	27	0	1184890880	48	6560
2026-01-15 23:11:35.70	346.50	15.25	-37.9	-39.0	22.0	0.00e+00	0	27	0	1185939456	48	6405
2026-01-15 23:11:36.71	346.40	15.15	-38.4	-39.5	21.8	0.00e+00	0	27	0	1188036608	48	6813
2026-01-15 23:11:37.72	346.31	15.05	-38.3	-39.4	21.7	0.00e+00	0	27	0	1190133760	48	6714
2026-01-15 23:11:38.73	346.22	14.96	-38.1	-39.2	22.0	0.00e+00	0	27	0	1192230912	48	6545
2026-01-15 23:11:39.74	346.13	14.86	-38.0	-39.1	22.0	0.00e+00	0	27	0	1194328064	48	6494
2026-01-15 23:11:40.75	346.04	14.76	-38.2	-39.3	21.8	0.00e+00	0	27	0	1195376640	48	6691
2026-01-15 23:11:41.76	345.96	14.67	-38.1	-39.2	22.0	0.00e+00	0	27	0	1197473792	48	6554
2026-01-15 23:11:42.77	345.87	14.57	-38.2	-39.3	21.7	0.00e+00	0	27	0	1199570944	48	6669
2026-01-15 23:11:43.77	345.78	14.48	-38.3	-39.4	21.7	0.00e+00	0	27	0	1201668096	48	6746
2026-01-15 23:11:44.78	345.69	14.38	-38.4	-39.5	21.6	0.00e+00	0	27	0	1203765248	48	6838
