passes_logs/2026/01/15/R4.6S_Anadyr/R4.6S_Anadyr__20260115_214543_TY-42_rec.log

#Pass ID: 20260115_214543_TY-42
#Satellite: TY-42
#Configuration: TY-42_900M
#almurnet v.1.7.20251203
#Start time: 2026-01-15 21:46:16

#Version: 2.2.20231116
#Station: R4.6S_Anadyr
#Location: 177.4865 lon 64.73178 lat
#TLE: 1 64048U 25103A   26014.69425926  .00008005  00000-0  38191-3 0 09997
#TLE: 2 64048 097.4117 090.1174 0001564 091.0855 218.1626 15.19145944 36760

#Time	Az	El	Level	Level2	SNR	BER	BlckErr	Temp	State	Recorded	gain1	gain2
2026-01-15 21:46:16.23	25.81	1.79	-48.0	-63.0	3.5	1.51e+00	0	24	0	0	60	51084
2026-01-15 21:46:17.24	25.92	1.85	-46.5	-48.9	6.1	0.00e+00	0	26	104	0	60	34290
2026-01-15 21:46:18.25	26.02	1.90	-46.5	-49.0	6.1	0.00e+00	0	26	104	0	60	34341
2026-01-15 21:46:19.26	26.13	1.96	-46.5	-49.0	6.1	0.00e+00	0	26	104	0	60	34549
2026-01-15 21:46:20.26	26.23	2.02	-46.5	-49.0	6.1	0.00e+00	0	26	104	0	60	34637
2026-01-15 21:46:21.27	26.34	2.08	-46.5	-49.0	6.1	0.00e+00	0	26	104	0	60	34539
2026-01-15 21:46:22.28	26.44	2.13	-46.5	-49.0	6.1	0.00e+00	0	26	104	0	60	34547
2026-01-15 21:46:23.29	26.55	2.19	-46.4	-49.1	6.1	0.00e+00	0	26	104	0	60	34749
2026-01-15 21:46:24.30	26.66	2.25	-46.4	-49.0	6.1	0.00e+00	0	26	104	0	60	34511
2026-01-15 21:46:25.31	26.77	2.31	-46.5	-49.0	6.1	0.00e+00	0	26	104	0	60	34590
2026-01-15 21:46:26.32	26.87	2.36	-46.5	-49.0	6.1	0.00e+00	0	26	104	0	60	34587
2026-01-15 21:46:27.33	26.98	2.42	-46.5	-49.0	6.1	0.00e+00	0	26	104	0	60	34528
2026-01-15 21:46:28.34	27.09	2.48	-46.4	-49.0	6.1	0.00e+00	0	26	104	0	60	34496
2026-01-15 21:46:29.35	27.20	2.54	-46.4	-49.0	6.1	0.00e+00	0	26	104	0	60	34380
2026-01-15 21:46:30.36	27.31	2.60	-46.5	-49.0	6.1	0.00e+00	0	26	104	0	60	34611
2026-01-15 21:46:31.37	27.42	2.66	-46.4	-49.0	6.1	0.00e+00	0	27	104	0	60	34608
2026-01-15 21:46:32.37	27.53	2.71	-46.4	-49.0	6.1	0.00e+00	0	27	104	0	60	34497
2026-01-15 21:46:33.38	27.65	2.77	-46.4	-49.0	6.1	0.00e+00	0	27	104	0	60	34681
2026-01-15 21:46:34.39	27.76	2.83	-46.4	-49.0	6.1	0.00e+00	0	27	104	0	60	34483
2026-01-15 21:46:35.40	27.87	2.89	-46.4	-49.0	6.1	0.00e+00	0	27	104	0	60	34355
2026-01-15 21:46:36.40	27.99	2.95	-46.5	-49.0	6.1	0.00e+00	0	27	104	0	60	34443
2026-01-15 21:46:37.42	28.10	3.01	-46.5	-49.0	6.1	0.00e+00	0	27	104	0	60	34566
2026-01-15 21:46:38.43	28.22	3.07	-46.4	-49.0	6.1	0.00e+00	0	27	104	0	60	34535
2026-01-15 21:46:39.43	28.33	3.12	-46.4	-49.0	6.1	0.00e+00	0	27	104	0	60	34363
2026-01-15 21:46:40.45	28.45	3.18	-46.4	-49.0	6.1	0.00e+00	0	27	104	0	60	34390
2026-01-15 21:46:41.46	28.56	3.24	-46.3	-49.0	6.1	0.00e+00	0	27	104	0	60	34516
2026-01-15 21:46:42.47	28.68	3.30	-46.3	-49.0	6.1	0.00e+00	0	27	104	0	60	34410
2026-01-15 21:46:43.48	28.80	3.36	-46.3	-49.0	6.1	0.00e+00	0	27	104	0	60	34440
2026-01-15 21:46:44.48	28.92	3.42	-46.5	-49.1	6.1	0.00e+00	0	27	104	0	60	34993
2026-01-15 21:46:45.50	29.04	3.48	-46.6	-49.2	6.1	0.00e+00	0	27	104	0	60	35305
2026-01-15 21:46:46.51	29.16	3.54	-46.7	-49.2	6.1	0.00e+00	0	27	104	0	60	35417
2026-01-15 21:46:47.52	29.28	3.60	-46.7	-49.3	6.1	0.00e+00	0	27	104	0	60	35847
2026-01-15 21:46:48.53	29.40	3.66	-45.5	-47.6	6.1	0.00e+00	0	27	104	0	60	29342
2026-01-15 21:46:49.54	29.52	3.72	-46.0	-48.5	6.1	0.00e+00	0	27	104	0	60	32445
2026-01-15 21:46:50.55	29.64	3.78	-46.1	-48.5	6.1	0.00e+00	0	27	104	0	60	32669
2026-01-15 21:46:51.55	29.76	3.84	-46.2	-48.6	6.1	0.00e+00	0	27	104	0	60	32993
2026-01-15 21:46:52.56	29.88	3.90	-45.9	-48.2	6.1	0.00e+00	0	27	104	0	60	31327
2026-01-15 21:46:53.57	30.01	3.96	-44.3	-45.8	6.5	0.00e+00	0	27	104	0	60	23843
2026-01-15 21:46:54.58	30.13	4.02	-44.6	-46.2	6.2	0.00e+00	0	27	104	0	60	25140
2026-01-15 21:46:55.59	30.26	4.08	-35.6	-36.0	10.6	0.00e+00	0	27	104	0	56	9691
2026-01-15 21:46:56.60	30.38	4.14	-29.4	-29.7	15.0	0.00e+00	0	27	0	8388608	36	14957
2026-01-15 21:46:57.61	30.51	4.20	-44.8	-46.7	6.1	1.40e-01	1158	27	104	117440512	52	41828
2026-01-15 21:46:58.62	30.63	4.26	-31.1	-31.3	12.7	0.00e+00	387	27	104	117440512	44	11303
2026-01-15 21:46:59.63	30.76	4.32	-29.3	-29.6	15.0	2.17e-02	0	27	0	150994944	34	16615
2026-01-15 21:47:00.64	30.89	4.38	-27.8	-28.2	15.6	4.48e-02	0	28	0	260046848	32	15852
2026-01-15 21:47:01.65	31.02	4.44	-27.8	-28.2	15.7	4.48e-02	0	28	0	377487360	30	17702
2026-01-15 21:47:02.66	31.15	4.51	-28.1	-28.5	15.6	1.28e-03	0	28	0	494927872	30	18368
2026-01-15 21:47:03.67	31.28	4.57	-28.1	-28.5	15.8	1.28e-03	0	28	0	603979776	30	18316
2026-01-15 21:47:04.68	31.41	4.63	-27.5	-28.0	15.7	1.25e-03	0	28	0	721420288	30	17213
2026-01-15 21:47:05.69	31.54	4.69	-28.5	-28.9	15.6	1.25e-03	0	28	0	830472192	30	19181
2026-01-15 21:47:06.70	31.67	4.75	-28.1	-28.5	15.5	1.39e-03	0	28	0	947912704	30	18324
2026-01-15 21:47:07.70	31.80	4.81	-28.2	-28.6	15.9	1.39e-03	0	28	0	1065353216	30	18567
2026-01-15 21:47:08.71	31.94	4.87	-27.3	-27.7	16.0	1.39e-03	0	28	0	1174405120	30	16781
2026-01-15 21:47:09.72	32.07	4.93	-27.3	-27.8	15.9	1.06e-03	0	28	0	1283457024	30	16867
2026-01-15 21:47:10.73	32.21	5.00	-27.2	-27.7	16.1	1.06e-03	0	28	0	1400897536	30	16623
2026-01-15 21:47:11.74	32.34	5.06	-27.6	-28.1	16.0	3.65e-04	0	28	0	1509949440	30	17414
2026-01-15 21:47:12.75	32.48	5.12	-26.7	-27.1	16.3	2.83e-04	0	28	0	1627389952	30	15666
2026-01-15 21:47:13.75	32.61	5.18	-26.6	-27.1	16.3	2.83e-04	0	28	0	1744830464	28	17467
2026-01-15 21:47:14.76	32.75	5.24	-26.4	-26.8	16.3	1.42e-04	0	28	0	1853882368	28	16932
2026-01-15 21:47:15.77	32.89	5.30	-26.8	-27.3	16.2	1.42e-04	0	28	0	1962934272	28	17832
2026-01-15 21:47:16.78	33.03	5.37	-26.7	-27.1	16.2	1.42e-04	0	28	0	2080374784	28	17568
2026-01-15 21:47:17.79	33.17	5.43	-26.6	-27.0	16.3	1.91e-04	0	28	0	2197815296	28	17302
2026-01-15 21:47:18.80	33.31	5.49	-26.7	-27.1	16.2	1.91e-04	0	28	0	2306867200	28	17564
2026-01-15 21:47:19.81	33.45	5.55	-26.8	-27.3	16.2	2.18e-04	0	28	0	2424307712	28	17916
2026-01-15 21:47:20.82	33.59	5.62	-26.7	-27.2	16.3	2.18e-04	0	28	0	2533359616	28	17639
2026-01-15 21:47:21.83	33.74	5.68	-26.7	-27.2	16.2	1.74e-04	0	28	0	2650800128	28	17616
2026-01-15 21:47:22.84	33.88	5.74	-26.5	-27.0	16.2	1.74e-04	0	28	0	2759852032	28	17397
2026-01-15 21:47:23.84	34.02	5.80	-26.5	-27.0	16.3	1.58e-04	0	28	0	2877292544	28	17317
2026-01-15 21:47:24.85	34.17	5.86	-26.4	-26.9	16.4	1.58e-04	0	28	0	2994733056	28	17094
2026-01-15 21:47:25.87	34.31	5.93	-26.4	-26.9	16.5	8.17e-05	0	28	0	3103784960	28	17067
2026-01-15 21:47:26.88	34.46	5.99	-26.4	-26.9	16.4	8.17e-05	0	28	0	3212836864	28	17181
2026-01-15 21:47:27.89	34.61	6.05	-26.5	-27.0	16.4	9.26e-05	0	28	0	3330277376	28	17374
2026-01-15 21:47:28.90	34.76	6.12	-26.3	-26.8	16.4	1.25e-04	0	28	0	3447717888	28	16952
2026-01-15 21:47:29.90	34.90	6.18	-26.4	-26.9	16.4	1.25e-04	0	28	0	3556769792	28	17118
2026-01-15 21:47:30.91	35.05	6.24	-26.5	-27.0	16.4	9.26e-05	0	28	0	3674210304	28	17210
2026-01-15 21:47:31.92	35.20	6.31	-26.5	-26.9	16.5	9.26e-05	0	28	0	3783262208	28	17150
2026-01-15 21:47:32.93	35.35	6.37	-26.4	-26.9	16.5	7.08e-05	0	28	0	3892314112	28	17052
2026-01-15 21:47:33.94	35.51	6.43	-26.3	-26.8	16.5	7.08e-05	0	28	0	4009754624	28	16843
2026-01-15 21:47:34.95	35.66	6.50	-26.2	-26.7	16.5	7.08e-05	0	28	0	4127195136	28	16678
2026-01-15 21:47:35.96	35.81	6.56	-26.3	-26.7	16.6	8.17e-05	0	28	0	4236247040	28	16754
2026-01-15 21:47:36.97	35.97	6.62	-26.1	-26.5	16.6	4.90e-05	0	28	0	4353687552	28	16409
2026-01-15 21:47:37.98	36.12	6.69	-26.1	-26.6	16.6	4.90e-05	0	28	0	4462739456	28	16473
2026-01-15 21:47:38.99	36.28	6.75	-25.9	-26.4	16.6	4.90e-05	0	28	0	4580179968	28	16157
2026-01-15 21:47:40.00	36.43	6.81	-26.0	-26.4	16.5	7.08e-05	0	28	0	4697620480	28	16214
2026-01-15 21:47:41.01	36.59	6.88	-26.0	-26.5	16.5	7.08e-05	0	28	0	4806672384	28	16248
2026-01-15 21:47:42.02	36.75	6.94	-25.9	-26.4	16.6	5.44e-05	0	28	0	4924112896	28	16086
2026-01-15 21:47:43.03	36.91	7.00	-25.9	-26.4	16.7	3.81e-05	0	28	0	5033164800	28	16106
2026-01-15 21:47:44.04	37.07	7.07	-25.8	-26.3	16.7	3.81e-05	0	28	0	5142216704	28	15928
2026-01-15 21:47:45.05	37.23	7.13	-25.9	-26.3	16.6	3.81e-05	0	28	0	5259657216	28	16051
2026-01-15 21:47:46.06	37.39	7.20	-25.9	-26.4	16.6	2.72e-05	0	28	0	5377097728	28	16063
2026-01-15 21:47:47.07	37.56	7.26	-25.8	-26.3	16.7	2.72e-05	0	29	0	5486149632	28	15887
2026-01-15 21:47:48.08	37.72	7.32	-25.7	-26.2	16.7	3.81e-05	0	28	0	5603590144	26	17740
2026-01-15 21:47:49.09	37.88	7.39	-25.8	-26.3	16.7	3.81e-05	0	29	0	5712642048	26	17839
2026-01-15 21:47:50.10	38.05	7.45	-25.8	-26.2	16.6	3.26e-05	0	28	0	5830082560	26	17788
2026-01-15 21:47:51.10	38.21	7.52	-25.6	-26.1	16.6	3.26e-05	0	29	0	5947523072	26	17542
2026-01-15 21:47:52.11	38.38	7.58	-25.6	-26.1	16.4	5.40e-06	0	29	0	6056574976	26	17520
2026-01-15 21:47:53.12	38.55	7.64	-25.5	-26.0	16.5	5.40e-06	0	29	0	6165626880	26	17354
2026-01-15 21:47:54.13	38.72	7.71	-25.6	-26.1	16.3	6.53e-05	0	29	0	6283067392	26	17422
2026-01-15 21:47:55.14	38.89	7.77	-25.6	-26.0	16.2	6.53e-05	0	29	0	6392119296	26	17395
2026-01-15 21:47:56.15	39.06	7.84	-25.5	-26.0	16.2	8.17e-05	0	29	0	6509559808	26	17353
2026-01-15 21:47:57.16	39.23	7.90	-25.7	-26.1	16.2	8.17e-05	0	29	0	6627000320	26	17531
2026-01-15 21:47:58.16	39.40	7.97	-25.4	-25.9	16.4	8.17e-05	0	29	0	6736052224	26	17075
2026-01-15 21:47:59.17	39.57	8.03	-25.5	-26.0	16.6	1.14e-04	0	29	0	6853492736	26	17275
2026-01-15 21:48:00.18	39.75	8.09	-25.4	-25.8	16.7	1.14e-04	0	29	0	6962544640	26	16955
2026-01-15 21:48:01.19	39.92	8.16	-25.4	-25.9	16.7	4.35e-05	0	29	0	7071596544	26	17058
2026-01-15 21:48:02.19	40.10	8.22	-25.3	-25.8	16.8	4.35e-05	0	29	0	7189037056	26	16939
2026-01-15 21:48:03.20	40.28	8.29	-25.4	-25.8	16.8	5.40e-06	0	29	0	7306477568	26	16967
2026-01-15 21:48:04.21	40.45	8.35	-25.3	-25.8	16.8	5.40e-06	0	29	0	7415529472	26	16952
2026-01-15 21:48:05.22	40.63	8.42	-25.1	-25.6	16.8	5.40e-06	0	29	0	7532969984	26	16563
2026-01-15 21:48:06.23	40.81	8.48	-25.2	-25.7	16.9	1.63e-05	0	29	0	7642021888	26	16625
2026-01-15 21:48:07.24	40.99	8.55	-25.3	-25.8	16.9	1.63e-05	0	29	0	7751073792	26	16859
2026-01-15 21:48:08.25	41.18	8.61	-25.3	-25.7	16.8	0.00e+00	0	29	0	7876902912	26	16771
2026-01-15 21:48:09.26	41.36	8.67	-25.0	-25.5	16.9	0.00e+00	0	29	0	7985954816	26	16345
2026-01-15 21:48:10.27	41.54	8.74	-25.1	-25.6	16.9	1.63e-05	0	29	0	8095006720	26	16538
2026-01-15 21:48:11.28	41.73	8.80	-25.1	-25.6	16.9	1.63e-05	0	29	0	8212447232	26	16430
2026-01-15 21:48:12.28	41.91	8.87	-25.1	-25.6	16.9	5.40e-06	0	29	0	8321499136	26	16467
2026-01-15 21:48:13.29	42.10	8.93	-25.1	-25.6	16.9	5.40e-06	0	29	0	8438939648	26	16478
2026-01-15 21:48:14.30	42.29	9.00	-25.0	-25.5	16.9	5.40e-06	0	29	0	8556380160	26	16333
2026-01-15 21:48:15.31	42.47	9.06	-25.1	-25.6	16.9	5.40e-06	0	29	0	8665432064	26	16445
2026-01-15 21:48:16.32	42.66	9.13	-24.9	-25.3	17.0	1.08e-05	0	29	0	8782872576	26	16030
2026-01-15 21:48:17.32	42.85	9.19	-24.9	-25.4	17.0	1.08e-05	0	29	0	8891924480	26	16132
2026-01-15 21:48:18.33	43.05	9.25	-24.8	-25.3	17.0	5.40e-06	0	29	0	9000976384	24	17822
2026-01-15 21:48:19.34	43.24	9.32	-24.8	-25.3	16.9	5.40e-06	0	29	0	9118416896	24	17912
2026-01-15 21:48:20.35	43.43	9.38	-24.8	-25.3	16.9	5.40e-06	0	29	0	9235857408	24	17828
2026-01-15 21:48:21.36	43.63	9.45	-24.8	-25.3	16.8	5.40e-06	0	29	0	9344909312	24	17938
2026-01-15 21:48:22.37	43.82	9.51	-24.7	-25.2	16.8	0.00e+00	0	29	0	9462349824	24	17734
2026-01-15 21:48:23.38	44.02	9.58	-24.7	-25.2	16.8	0.00e+00	0	29	0	9571401728	24	17760
2026-01-15 21:48:24.39	44.22	9.64	-24.8	-25.3	16.8	0.00e+00	0	29	0	9680453632	24	17975
2026-01-15 21:48:25.39	44.42	9.70	-24.7	-25.2	17.0	0.00e+00	0	29	0	9806282752	24	17641
2026-01-15 21:48:26.40	44.62	9.77	-24.7	-25.2	17.0	5.40e-06	0	29	0	9915334656	24	17653
2026-01-15 21:48:27.41	44.82	9.83	-24.5	-25.0	17.0	5.40e-06	0	29	0	10024386560	24	17266
2026-01-15 21:48:28.42	45.02	9.90	-24.7	-25.2	16.9	5.40e-06	0	29	0	10141827072	24	17631
2026-01-15 21:48:29.43	45.22	9.96	-24.5	-25.0	16.9	5.40e-06	0	29	0	10250878976	24	17313
2026-01-15 21:48:30.44	45.43	10.03	-24.6	-25.1	16.8	0.00e+00	0	29	0	10368319488	24	17497
2026-01-15 21:48:31.45	45.63	10.09	-24.6	-25.1	16.7	0.00e+00	0	29	0	10485760000	24	17558
2026-01-15 21:48:32.46	45.84	10.15	-24.6	-25.1	16.7	0.00e+00	0	29	0	10594811904	24	17412
2026-01-15 21:48:33.46	46.05	10.22	-24.5	-24.9	16.7	0.00e+00	0	29	0	10712252416	24	17182
2026-01-15 21:48:34.48	46.26	10.28	-24.6	-25.1	16.6	0.00e+00	0	29	0	10821304320	24	17402
2026-01-15 21:48:35.48	46.46	10.34	-24.5	-25.0	16.6	1.08e-05	0	29	0	10930356224	24	17217
2026-01-15 21:48:36.49	46.67	10.41	-24.4	-24.9	16.6	1.08e-05	0	29	0	11047796736	24	17097
2026-01-15 21:48:37.50	46.89	10.47	-24.7	-25.1	16.5	5.40e-06	0	29	0	11165237248	24	17591
2026-01-15 21:48:38.51	47.10	10.54	-24.4	-24.9	16.6	5.40e-06	0	29	0	11274289152	24	17114
2026-01-15 21:48:39.52	47.31	10.60	-24.6	-25.1	16.7	1.08e-05	0	29	0	11391729664	24	17420
2026-01-15 21:48:40.53	47.53	10.66	-24.4	-24.9	16.9	1.08e-05	0	29	0	11500781568	24	17138
2026-01-15 21:48:41.54	47.75	10.73	-24.3	-24.8	17.0	0.00e+00	0	29	0	11609833472	24	16976
2026-01-15 21:48:42.55	47.96	10.79	-24.5	-25.0	17.0	0.00e+00	0	29	0	11735662592	24	17203
2026-01-15 21:48:43.55	48.18	10.85	-24.3	-24.8	17.0	0.00e+00	0	29	0	11844714496	24	16836
2026-01-15 21:48:44.57	48.40	10.91	-24.4	-24.9	17.0	0.00e+00	0	29	0	11953766400	24	17007
2026-01-15 21:48:45.57	48.62	10.98	-24.3	-24.8	17.0	0.00e+00	0	29	0	12071206912	24	16937
2026-01-15 21:48:46.58	48.84	11.04	-24.3	-24.8	16.9	0.00e+00	0	29	0	12180258816	24	16962
2026-01-15 21:48:47.59	49.07	11.10	-24.3	-24.7	16.9	0.00e+00	0	29	0	12297699328	24	16801
2026-01-15 21:48:48.60	49.29	11.17	-24.2	-24.7	17.0	0.00e+00	0	29	0	12415139840	24	16687
2026-01-15 21:48:49.61	49.52	11.23	-24.3	-24.8	16.9	0.00e+00	0	29	0	12524191744	24	16832
2026-01-15 21:48:50.62	49.74	11.29	-24.2	-24.7	17.0	5.40e-06	0	29	0	12641632256	24	16706
2026-01-15 21:48:51.63	49.97	11.35	-24.3	-24.8	16.8	5.40e-06	0	29	0	12750684160	24	16853
2026-01-15 21:48:52.63	50.20	11.41	-24.3	-24.8	16.6	0.00e+00	0	29	0	12859736064	24	16884
2026-01-15 21:48:53.64	50.43	11.47	-24.2	-24.7	16.7	0.00e+00	0	29	0	12977176576	24	16671
2026-01-15 21:48:54.65	50.66	11.54	-24.3	-24.8	16.8	0.00e+00	0	29	0	13094617088	24	16947
2026-01-15 21:48:55.66	50.89	11.60	-24.3	-24.8	16.6	5.40e-06	0	29	0	13203668992	24	16906
2026-01-15 21:48:56.67	51.12	11.66	-24.2	-24.7	16.6	5.40e-06	0	29	0	13321109504	24	16690
2026-01-15 21:48:57.68	51.36	11.72	-24.0	-24.5	16.7	5.40e-06	0	29	0	13430161408	24	16336
2026-01-15 21:48:58.69	51.59	11.78	-24.0	-24.5	17.0	5.40e-06	0	29	0	13539213312	24	16315
2026-01-15 21:48:59.70	51.83	11.84	-24.2	-24.6	16.9	5.40e-06	0	29	0	13665042432	24	16600
2026-01-15 21:49:00.71	52.07	11.90	-24.1	-24.6	16.8	5.40e-06	0	29	0	13774094336	24	16567
2026-01-15 21:49:01.72	52.31	11.96	-24.1	-24.6	16.8	5.40e-06	0	29	0	13883146240	24	16434
2026-01-15 21:49:02.72	52.55	12.02	-24.1	-24.6	16.8	5.40e-06	0	29	0	14000586752	24	16429
2026-01-15 21:49:03.73	52.79	12.08	-24.0	-24.5	16.6	0.00e+00	0	29	0	14109638656	24	16333
2026-01-15 21:49:04.74	53.03	12.14	-24.7	-25.2	16.3	1.08e-05	0	29	0	14227079168	24	17609
2026-01-15 21:49:05.75	53.28	12.20	-24.6	-25.1	16.5	1.08e-05	0	29	0	14344519680	24	17481
2026-01-15 21:49:06.76	53.52	12.26	-24.8	-25.3	16.7	1.08e-05	0	29	0	14453571584	24	17830
2026-01-15 21:49:07.77	53.77	12.32	-24.7	-25.2	16.7	5.40e-06	0	29	0	14571012096	24	17760
2026-01-15 21:49:08.78	54.01	12.38	-24.8	-25.3	16.4	2.72e-05	0	29	0	14680064000	24	17837
2026-01-15 21:49:09.78	54.26	12.44	-24.1	-24.6	16.4	2.72e-05	0	29	0	14789115904	24	16454
2026-01-15 21:49:10.79	54.51	12.50	-24.0	-24.5	16.6	2.72e-05	0	29	0	14906556416	24	16316
2026-01-15 21:49:11.80	54.76	12.55	-24.0	-24.5	16.9	4.90e-05	0	29	0	15023996928	24	16351
2026-01-15 21:49:12.81	55.01	12.61	-23.9	-24.4	16.9	0.00e+00	0	29	0	15133048832	24	16176
2026-01-15 21:49:13.82	55.27	12.67	-23.9	-24.4	16.9	0.00e+00	0	30	0	15250489344	24	16185
2026-01-15 21:49:14.83	55.52	12.73	-23.9	-24.4	16.7	0.00e+00	0	30	0	15359541248	24	16093
2026-01-15 21:49:15.84	55.78	12.78	-23.9	-24.4	16.3	0.00e+00	0	29	0	15468593152	24	16168
2026-01-15 21:49:16.85	56.03	12.84	-23.9	-24.4	16.7	1.63e-05	0	29	0	15594422272	24	16134
2026-01-15 21:49:17.86	56.29	12.90	-23.9	-24.4	16.9	1.63e-05	0	29	0	15703474176	24	16131
2026-01-15 21:49:18.87	56.55	12.95	-23.9	-24.4	16.9	0.00e+00	0	29	0	15812526080	24	16081
2026-01-15 21:49:19.87	56.81	13.01	-23.8	-24.3	16.9	0.00e+00	0	29	0	15929966592	24	16034
2026-01-15 21:49:20.88	57.07	13.06	-23.8	-24.2	16.8	0.00e+00	0	29	0	16039018496	22	17789
2026-01-15 21:49:21.89	57.33	13.12	-23.9	-24.3	16.8	0.00e+00	0	29	0	16156459008	22	17945
2026-01-15 21:49:22.90	57.60	13.17	-24.0	-24.4	16.9	0.00e+00	0	30	0	16273899520	22	18184
2026-01-15 21:49:23.91	57.86	13.23	-23.7	-24.1	17.0	0.00e+00	0	29	0	16382951424	22	17570
2026-01-15 21:49:24.92	58.13	13.28	-23.7	-24.2	16.8	0.00e+00	0	29	0	16500391936	22	17664
2026-01-15 21:49:25.93	58.39	13.34	-23.6	-24.1	16.9	5.40e-06	0	29	0	16609443840	22	17505
2026-01-15 21:49:26.94	58.66	13.39	-23.4	-23.9	16.9	5.40e-06	0	29	0	16718495744	22	17047
2026-01-15 21:49:27.94	58.93	13.44	-23.3	-23.8	16.5	5.40e-06	0	30	0	16835936256	22	16828
2026-01-15 21:49:28.95	59.20	13.50	-23.3	-23.8	16.2	0.00e+00	0	29	0	16953376768	22	16897
2026-01-15 21:49:29.96	59.47	13.55	-23.1	-23.6	16.7	0.00e+00	0	29	0	17062428672	22	16589
2026-01-15 21:49:30.97	59.74	13.60	-23.0	-23.6	16.7	2.17e-05	0	29	0	17179869184	22	16437
2026-01-15 21:49:31.98	60.02	13.65	-23.0	-23.5	16.0	2.17e-05	0	29	0	17288921088	22	16382
2026-01-15 21:49:32.99	60.29	13.70	-23.1	-23.5	15.3	5.40e-06	0	29	0	17397972992	22	16401
2026-01-15 21:49:34.00	60.57	13.76	-23.1	-23.5	15.8	5.40e-06	0	29	0	17523802112	22	16402
2026-01-15 21:49:35.01	60.85	13.81	-23.0	-23.5	16.3	4.35e-05	0	29	0	17632854016	22	16337
2026-01-15 21:49:36.02	61.13	13.86	-23.1	-23.6	16.5	1.08e-05	0	29	0	17741905920	22	16512
2026-01-15 21:49:37.03	61.41	13.91	-23.0	-23.5	16.0	1.08e-05	0	29	0	17859346432	22	16290
2026-01-15 21:49:38.03	61.68	13.95	-23.1	-23.5	15.2	3.81e-05	0	30	0	17968398336	22	16335
2026-01-15 21:49:39.04	61.97	14.00	-22.9	-23.3	15.8	3.81e-05	0	29	0	18085838848	22	16041
2026-01-15 21:49:40.05	62.25	14.05	-23.0	-23.4	16.0	5.99e-05	0	29	0	18203279360	22	16191
2026-01-15 21:49:41.06	62.53	14.10	-23.0	-23.4	16.7	5.99e-05	0	29	0	18312331264	22	16229
2026-01-15 21:49:42.07	62.82	14.15	-23.1	-23.6	16.9	1.08e-05	0	29	0	18429771776	22	16529
2026-01-15 21:49:43.08	63.10	14.19	-23.1	-23.6	16.9	1.08e-05	0	29	0	18538823680	22	16503
2026-01-15 21:49:44.09	63.39	14.24	-23.1	-23.6	17.1	5.40e-06	0	29	0	18647875584	22	16504
2026-01-15 21:49:45.10	63.68	14.29	-23.0	-23.5	17.1	5.40e-06	0	30	0	18765316096	22	16292
2026-01-15 21:49:46.11	63.97	14.33	-23.1	-23.6	17.0	0.00e+00	0	29	0	18882756608	22	16563
2026-01-15 21:49:47.12	64.26	14.38	-23.1	-23.6	17.0	0.00e+00	0	29	0	18991808512	22	16497
2026-01-15 21:49:48.13	64.55	14.42	-23.0	-23.5	17.1	0.00e+00	0	29	0	19109249024	22	16333
2026-01-15 21:49:49.14	64.84	14.47	-23.0	-23.5	17.1	0.00e+00	0	29	0	19218300928	22	16314
2026-01-15 21:49:50.15	65.14	14.51	-23.1	-23.6	16.9	0.00e+00	0	29	0	19335741440	22	16461
2026-01-15 21:49:51.15	65.43	14.55	-22.8	-23.3	16.8	0.00e+00	0	29	0	19453181952	22	16015
2026-01-15 21:49:52.16	65.72	14.60	-23.0	-23.5	16.8	0.00e+00	0	29	0	19562233856	22	16284
2026-01-15 21:49:53.17	66.02	14.64	-22.9	-23.4	16.6	0.00e+00	0	30	0	19671285760	22	16161
2026-01-15 21:49:54.18	66.32	14.68	-22.8	-23.3	16.3	0.00e+00	0	29	0	19788726272	22	15957
2026-01-15 21:49:55.19	66.61	14.72	-22.9	-23.3	16.1	1.08e-05	0	30	0	19897778176	22	16021
2026-01-15 21:49:56.20	66.91	14.76	-22.8	-23.3	16.4	1.08e-05	0	30	0	20015218688	22	15880
2026-01-15 21:49:57.21	67.21	14.80	-22.8	-23.2	17.0	1.63e-05	0	30	0	20132659200	20	17772
2026-01-15 21:49:58.22	67.52	14.84	-22.8	-23.2	17.1	1.63e-05	0	30	0	20241711104	20	17787
2026-01-15 21:49:59.23	67.82	14.88	-22.8	-23.3	17.2	0.00e+00	0	30	0	20359151616	20	17881
2026-01-15 21:50:00.24	68.12	14.92	-22.8	-23.2	17.1	0.00e+00	0	30	0	20468203520	20	17798
2026-01-15 21:50:01.25	68.42	14.96	-22.8	-23.2	17.0	0.00e+00	0	29	0	20585644032	20	17769
2026-01-15 21:50:02.26	68.73	14.99	-22.8	-23.2	17.1	0.00e+00	0	29	0	20694695936	20	17793
2026-01-15 21:50:03.27	69.04	15.03	-22.8	-23.3	17.1	0.00e+00	0	29	0	20812136448	20	17838
2026-01-15 21:50:04.28	69.34	15.07	-22.7	-23.2	16.8	0.00e+00	0	30	0	20921188352	20	17637
2026-01-15 21:50:05.29	69.65	15.10	-22.8	-23.2	16.4	0.00e+00	0	30	0	21038628864	20	17747
2026-01-15 21:50:06.30	69.96	15.13	-22.7	-23.1	16.4	0.00e+00	0	30	0	21156069376	20	17520
2026-01-15 21:50:07.31	70.27	15.17	-45.2	-48.0	6.2	0.00e+00	0	29	104	21248344064	60	30760
2026-01-15 21:50:08.31	70.57	15.20	-45.0	-47.8	6.2	0.00e+00	0	29	104	21248344064	60	30049
2026-01-15 21:50:09.32	70.88	15.23	-45.7	-48.5	6.1	0.00e+00	0	29	104	21248344064	60	32446
2026-01-15 21:50:10.33	71.20	15.27	-47.3	-49.9	6.1	0.00e+00	0	29	104	21248344064	60	38330
2026-01-15 21:50:11.34	71.51	15.30	-47.8	-50.4	6.1	0.00e+00	0	29	104	21248344064	60	40637
2026-01-15 21:50:12.35	71.82	15.33	-47.8	-50.4	6.1	3.81e-05	0	29	104	21248344064	60	40493
2026-01-15 21:50:13.36	72.14	15.36	-47.7	-50.4	6.1	3.81e-05	0	29	104	21248344064	60	40450
2026-01-15 21:50:14.37	72.45	15.39	-47.5	-50.2	6.1	3.81e-05	0	29	104	21248344064	60	39486
2026-01-15 21:50:15.38	72.76	15.42	-47.8	-50.4	6.1	3.81e-05	0	29	104	21248344064	60	40740
2026-01-15 21:50:16.39	73.08	15.44	-47.6	-50.2	6.1	3.81e-05	0	29	104	21248344064	60	39419
2026-01-15 21:50:17.40	73.40	15.47	-47.2	-50.0	6.1	0.00e+00	0	29	104	21248344064	60	38517
2026-01-15 21:50:18.41	73.71	15.50	-47.7	-50.3	6.1	0.00e+00	0	29	104	21248344064	60	39944
2026-01-15 21:50:19.42	74.03	15.52	-47.8	-50.4	6.1	0.00e+00	0	29	104	21248344064	60	40403
2026-01-15 21:50:20.43	74.35	15.55	-47.1	-49.8	6.1	0.00e+00	0	29	104	21248344064	60	37749
2026-01-15 21:50:21.44	74.67	15.57	-47.3	-50.0	6.1	0.00e+00	0	29	104	21248344064	60	38582
2026-01-15 21:50:22.45	74.99	15.60	-47.6	-50.2	6.1	0.00e+00	0	29	104	21248344064	60	39581
2026-01-15 21:50:23.46	75.31	15.62	-47.7	-50.3	6.1	0.00e+00	0	29	104	21248344064	60	40134
2026-01-15 21:50:24.47	75.63	15.64	-47.0	-49.7	6.1	0.00e+00	0	29	104	21248344064	60	37582
2026-01-15 21:50:25.48	75.95	15.67	-46.8	-49.5	6.1	0.00e+00	0	29	104	21248344064	60	36695
2026-01-15 21:50:26.49	76.28	15.69	-45.1	-47.9	6.5	0.00e+00	0	29	104	21248344064	60	30477
2026-01-15 21:50:27.50	76.60	15.71	-44.9	-47.7	6.3	0.00e+00	0	29	104	21248344064	60	29816
2026-01-15 21:50:28.51	76.92	15.73	-45.6	-48.4	6.2	0.00e+00	0	29	104	21248344064	60	32326
2026-01-15 21:50:29.52	77.24	15.74	-45.8	-48.6	6.2	0.00e+00	0	29	104	21248344064	60	33056
2026-01-15 21:50:30.53	77.57	15.76	-47.2	-49.8	6.1	0.00e+00	0	29	104	21248344064	60	37993
2026-01-15 21:50:31.54	77.89	15.78	-47.8	-50.4	6.1	0.00e+00	0	29	104	21248344064	60	40362
2026-01-15 21:50:32.55	78.22	15.80	-47.9	-50.5	6.1	0.00e+00	0	29	104	21248344064	60	40836
2026-01-15 21:50:33.56	78.54	15.81	-47.8	-50.4	6.1	0.00e+00	0	29	104	21248344064	60	40378
2026-01-15 21:50:34.57	78.87	15.83	-47.7	-50.3	6.1	0.00e+00	0	29	104	21248344064	60	40086
2026-01-15 21:50:35.58	79.20	15.84	-47.7	-50.3	6.1	0.00e+00	0	29	104	21248344064	60	40141
2026-01-15 21:50:36.59	79.52	15.85	-47.3	-49.9	6.1	0.00e+00	0	29	104	21248344064	60	38368
2026-01-15 21:50:37.60	79.85	15.87	-46.1	-48.9	6.1	0.00e+00	0	29	104	21248344064	60	34041
2026-01-15 21:50:38.61	80.18	15.88	-46.6	-49.3	6.1	0.00e+00	0	29	104	21248344064	60	35659
2026-01-15 21:50:39.62	80.50	15.89	-47.3	-49.9	6.1	0.00e+00	0	29	104	21248344064	60	38436
2026-01-15 21:50:40.63	80.83	15.90	-47.2	-49.8	6.1	0.00e+00	0	29	104	21248344064	60	37931
2026-01-15 21:50:41.64	81.16	15.91	-47.7	-50.2	6.1	0.00e+00	0	29	104	21248344064	60	39803
2026-01-15 21:50:42.65	81.49	15.92	-47.4	-50.0	6.1	0.00e+00	0	29	104	21248344064	60	38812
2026-01-15 21:50:43.66	81.82	15.93	-47.8	-50.3	6.1	0.00e+00	0	29	104	21248344064	60	40179
2026-01-15 21:50:44.66	82.14	15.93	-46.9	-49.7	6.1	0.00e+00	0	29	104	21248344064	60	37551
2026-01-15 21:50:45.67	82.47	15.94	-46.7	-49.8	6.1	0.00e+00	0	29	104	21248344064	60	38007
2026-01-15 21:50:46.69	82.80	15.94	-46.9	-50.1	6.1	0.00e+00	0	29	104	21248344064	60	38993
2026-01-15 21:50:47.69	83.13	15.95	-46.9	-50.0	6.1	0.00e+00	0	29	104	21248344064	60	38764
2026-01-15 21:50:48.70	83.46	15.95	-46.8	-49.9	6.1	0.00e+00	0	29	104	21248344064	60	38435
2026-01-15 21:50:49.71	83.79	15.96	-47.5	-50.3	6.1	0.00e+00	0	29	104	21248344064	60	39966
2026-01-15 21:50:50.72	84.12	15.96	-47.2	-50.3	6.1	0.00e+00	0	29	104	21248344064	60	39894
2026-01-15 21:50:51.73	84.45	15.96	-47.6	-50.2	6.1	0.00e+00	0	29	104	21248344064	60	39479
2026-01-15 21:50:52.74	84.78	15.96	-47.6	-50.2	6.1	0.00e+00	0	29	104	21248344064	60	39628
2026-01-15 21:50:53.75	85.11	15.96	-47.8	-50.4	6.1	0.00e+00	0	29	104	21248344064	60	40397
2026-01-15 21:50:54.76	85.44	15.96	-47.7	-50.2	6.1	0.00e+00	0	29	104	21248344064	60	39759
2026-01-15 21:50:55.77	85.76	15.96	-47.3	-50.1	6.1	0.00e+00	0	29	104	21248344064	60	39251
2026-01-15 21:50:56.78	86.09	15.96	-47.8	-50.3	6.1	0.00e+00	0	29	104	21248344064	60	40216
2026-01-15 21:50:57.79	86.42	15.95	-47.3	-50.0	6.1	0.00e+00	0	29	104	21248344064	60	38693
2026-01-15 21:50:58.80	86.75	15.95	-47.7	-50.3	6.1	0.00e+00	0	29	104	21248344064	60	40150
2026-01-15 21:50:59.81	87.08	15.94	-47.3	-50.2	6.1	0.00e+00	0	29	104	21248344064	60	39534
2026-01-15 21:51:00.82	87.41	15.94	-47.2	-49.8	6.1	0.00e+00	0	29	104	21248344064	60	37908
2026-01-15 21:51:01.83	87.74	15.93	-47.8	-50.4	6.1	0.00e+00	0	29	104	21248344064	60	40455
2026-01-15 21:51:02.84	88.07	15.92	-47.6	-50.1	6.1	0.00e+00	0	29	104	21248344064	60	39222
2026-01-15 21:51:03.84	88.39	15.92	-47.4	-50.2	6.1	0.00e+00	0	29	104	21248344064	60	39782
2026-01-15 21:51:04.85	88.72	15.91	-47.8	-50.4	6.1	0.00e+00	0	29	104	21248344064	60	40453
2026-01-15 21:51:05.87	89.05	15.90	-47.2	-49.9	6.1	0.00e+00	0	29	104	21248344064	60	38432
2026-01-15 21:51:06.88	89.38	15.89	-47.8	-50.4	6.1	0.00e+00	0	29	104	21248344064	60	40396
2026-01-15 21:51:07.89	89.71	15.88	-47.4	-50.3	6.1	0.00e+00	0	29	104	21248344064	60	39923
2026-01-15 21:51:08.90	90.04	15.86	-47.7	-50.2	6.1	0.00e+00	0	29	104	21248344064	60	39762
2026-01-15 21:51:09.91	90.36	15.85	-47.5	-50.2	6.1	0.00e+00	0	29	104	21248344064	60	39599
2026-01-15 21:51:10.92	90.69	15.84	-47.8	-50.3	6.1	0.00e+00	0	29	104	21248344064	60	40276
2026-01-15 21:51:11.92	91.01	15.82	-47.2	-50.1	6.1	0.00e+00	0	29	104	21248344064	60	39257
2026-01-15 21:51:12.93	91.34	15.81	-47.8	-50.3	6.1	0.00e+00	0	29	104	21248344064	60	40181
2026-01-15 21:51:13.94	91.67	15.79	-46.7	-49.5	6.1	0.00e+00	0	29	104	21248344064	60	36592
2026-01-15 21:51:14.95	91.99	15.78	-47.5	-50.1	6.1	0.00e+00	0	29	104	21248344064	60	39376
2026-01-15 21:51:15.96	92.32	15.76	-47.4	-50.1	6.1	0.00e+00	0	29	104	21248344064	60	39212
2026-01-15 21:51:16.97	92.64	15.74	-46.9	-49.7	6.1	0.00e+00	0	29	104	21248344064	60	37563
2026-01-15 21:51:17.98	92.97	15.72	-47.3	-50.0	6.1	0.00e+00	0	29	104	21248344064	60	38535
2026-01-15 21:51:18.99	93.29	15.70	-47.0	-49.7	6.1	0.00e+00	0	29	104	21248344064	60	37207
2026-01-15 21:51:19.99	93.61	15.68	-47.3	-49.9	6.1	0.00e+00	0	29	104	21248344064	60	38396
2026-01-15 21:51:21.01	93.94	15.66	-46.8	-49.4	6.1	0.00e+00	0	29	104	21248344064	60	36247
2026-01-15 21:51:22.01	94.25	15.64	-47.5	-50.1	6.1	0.00e+00	0	29	104	21248344064	60	39046
2026-01-15 21:51:23.02	94.58	15.62	-47.1	-49.7	6.1	0.00e+00	0	29	104	21248344064	60	37561
2026-01-15 21:51:24.03	94.90	15.59	-47.2	-49.9	6.1	0.00e+00	0	29	104	21248344064	60	38165
2026-01-15 21:51:25.04	95.22	15.57	-47.1	-49.7	6.0	0.00e+00	0	29	104	21248344064	60	37445
2026-01-15 21:51:26.05	95.54	15.54	-47.4	-50.0	6.1	0.00e+00	0	29	104	21248344064	60	38565
2026-01-15 21:51:27.06	95.86	15.52	-47.7	-50.2	6.1	0.00e+00	0	29	104	21248344064	60	39705
2026-01-15 21:51:28.07	96.17	15.49	-47.7	-50.2	6.1	0.00e+00	0	29	104	21248344064	60	39800
2026-01-15 21:51:29.08	96.49	15.47	-47.7	-50.2	6.1	0.00e+00	0	29	104	21248344064	60	39566
2026-01-15 21:51:30.09	96.81	15.44	-47.5	-50.2	6.1	0.00e+00	0	29	104	21248344064	60	39438
2026-01-15 21:51:31.10	97.13	15.41	-47.7	-50.3	6.1	0.00e+00	0	29	104	21248344064	60	39923
2026-01-15 21:51:32.11	97.44	15.38	-47.4	-50.3	6.1	0.00e+00	0	29	104	21248344064	60	39944
2026-01-15 21:51:33.12	97.76	15.35	-46.9	-49.6	6.1	0.00e+00	0	29	104	21248344064	60	36972
2026-01-15 21:51:34.13	98.07	15.32	-47.6	-50.3	6.1	0.00e+00	0	29	104	21248344064	60	40124
2026-01-15 21:51:35.14	98.39	15.29	-47.6	-50.2	6.1	0.00e+00	0	29	104	21248344064	60	39503
2026-01-15 21:51:36.15	98.70	15.26	-47.4	-50.1	6.1	0.00e+00	0	29	104	21248344064	60	38961
2026-01-15 21:51:37.16	99.01	15.23	-47.7	-50.2	6.1	0.00e+00	0	29	104	21248344064	60	39733
2026-01-15 21:51:38.16	99.32	15.19	-47.6	-50.1	6.1	0.00e+00	0	29	104	21248344064	60	39326
2026-01-15 21:51:39.17	99.63	15.16	-47.3	-49.9	6.1	0.00e+00	0	29	104	21248344064	60	38340
2026-01-15 21:51:40.18	99.94	15.13	-47.4	-50.0	6.1	0.00e+00	0	29	104	21248344064	60	38667
2026-01-15 21:51:41.19	100.25	15.09	-47.7	-50.2	6.1	0.00e+00	0	29	104	21248344064	60	39518
2026-01-15 21:51:42.20	100.56	15.06	-47.6	-50.1	6.1	0.00e+00	0	29	104	21248344064	60	39260
2026-01-15 21:51:43.20	100.86	15.02	-47.5	-50.2	6.1	0.00e+00	0	29	104	21248344064	60	39597
2026-01-15 21:51:44.21	101.17	14.98	-47.8	-50.3	6.1	0.00e+00	0	29	104	21248344064	60	40283
2026-01-15 21:51:45.22	101.47	14.95	-47.4	-50.2	6.1	0.00e+00	0	29	104	21248344064	60	39536
2026-01-15 21:51:46.23	101.78	14.91	-47.3	-49.9	6.1	0.00e+00	0	29	104	21248344064	60	38285
2026-01-15 21:51:47.24	102.08	14.87	-47.3	-50.1	6.1	0.00e+00	0	29	104	21248344064	60	38975
2026-01-15 21:51:48.24	102.38	14.83	-47.6	-50.1	6.1	0.00e+00	0	29	104	21248344064	60	39068
2026-01-15 21:51:49.25	102.68	14.79	-47.2	-50.0	6.1	0.00e+00	0	29	104	21248344064	60	38705
2026-01-15 21:51:50.26	102.99	14.75	-47.6	-50.2	6.1	0.00e+00	0	29	104	21248344064	60	39514
2026-01-15 21:51:51.27	103.29	14.71	-47.4	-50.1	6.1	0.00e+00	0	29	104	21248344064	60	39060
2026-01-15 21:51:52.28	103.59	14.67	-47.7	-50.3	6.1	0.00e+00	0	29	104	21248344064	60	40101
2026-01-15 21:51:53.29	103.88	14.63	-47.2	-49.9	6.1	0.00e+00	0	29	104	21248344064	60	38337
2026-01-15 21:51:54.29	104.18	14.58	-47.7	-50.2	6.1	0.00e+00	0	29	104	21248344064	60	39728
2026-01-15 21:51:55.30	104.47	14.54	-47.5	-50.1	6.1	0.00e+00	0	29	104	21248344064	60	39189
2026-01-15 21:51:56.31	104.77	14.50	-47.7	-50.3	6.1	0.00e+00	0	29	104	21248344064	60	40056
2026-01-15 21:51:57.32	105.06	14.45	-47.6	-50.3	6.1	0.00e+00	0	29	104	21248344064	60	39936
2026-01-15 21:51:58.33	105.36	14.41	-47.7	-50.2	6.1	0.00e+00	0	29	104	21248344064	60	39674
2026-01-15 21:51:59.34	105.65	14.36	-47.4	-50.2	6.1	0.00e+00	0	29	104	21248344064	60	39444
2026-01-15 21:52:00.34	105.94	14.32	-47.6	-50.1	6.1	0.00e+00	0	29	104	21248344064	60	39172
2026-01-15 21:52:01.36	106.23	14.27	-47.5	-50.1	6.1	0.00e+00	0	29	104	21248344064	60	39254
2026-01-15 21:52:02.36	106.52	14.23	-47.8	-50.3	6.1	0.00e+00	0	29	104	21248344064	60	40170
2026-01-15 21:52:03.37	106.81	14.18	-47.6	-50.3	6.1	0.00e+00	0	29	104	21248344064	60	40052
2026-01-15 21:52:04.38	107.09	14.13	-47.7	-50.2	6.1	0.00e+00	0	29	104	21248344064	60	39829
2026-01-15 21:52:05.39	107.38	14.08	-47.6	-50.2	6.1	0.00e+00	0	29	104	21248344064	60	39695
2026-01-15 21:52:06.40	107.66	14.04	-47.6	-50.1	6.1	0.00e+00	0	29	104	21248344064	60	39376
2026-01-15 21:52:07.41	107.95	13.99	-47.4	-50.1	6.1	0.00e+00	0	29	104	21248344064	60	39110
2026-01-15 21:52:08.42	108.23	13.94	-47.7	-50.2	6.1	0.00e+00	0	29	104	21248344064	60	39652
2026-01-15 21:52:09.43	108.51	13.89	-47.6	-50.1	6.1	0.00e+00	0	29	104	21248344064	60	39382
2026-01-15 21:52:10.44	108.79	13.84	-47.7	-50.3	6.1	0.00e+00	0	29	104	21248344064	60	39900
2026-01-15 21:52:11.45	109.07	13.79	-47.5	-50.2	6.1	0.00e+00	0	29	104	21248344064	60	39516
2026-01-15 21:52:12.46	109.35	13.74	-47.8	-50.3	6.1	0.00e+00	0	29	104	21248344064	60	40218
2026-01-15 21:52:13.47	109.63	13.68	-47.7	-50.3	6.1	0.00e+00	0	29	104	21248344064	60	39925
2026-01-15 21:52:14.48	109.91	13.63	-47.6	-50.1	6.1	0.00e+00	0	29	104	21248344064	60	39277
2026-01-15 21:52:15.49	110.18	13.58	-47.7	-50.2	6.1	0.00e+00	0	29	104	21248344064	60	39718
2026-01-15 21:52:16.50	110.45	13.53	-47.7	-50.2	6.1	0.00e+00	0	29	104	21248344064	60	39607
2026-01-15 21:52:17.51	110.73	13.47	-47.5	-50.1	6.0	0.00e+00	0	29	104	21248344064	60	39390
2026-01-15 21:52:18.51	111.00	13.42	-47.6	-50.2	6.1	0.00e+00	0	29	104	21248344064	60	39442
2026-01-15 21:52:19.53	111.27	13.37	-47.6	-50.2	6.1	0.00e+00	0	29	104	21248344064	60	39463
2026-01-15 21:52:20.53	111.54	13.31	-47.5	-50.1	6.1	0.00e+00	0	29	104	21248344064	60	39356
2026-01-15 21:52:21.54	111.80	13.26	-47.6	-50.2	6.1	0.00e+00	0	29	104	21248344064	60	39603
2026-01-15 21:52:22.55	112.07	13.20	-47.5	-50.2	6.1	0.00e+00	0	29	104	21248344064	60	39594
2026-01-15 21:52:23.56	112.34	13.15	-47.7	-50.2	6.1	0.00e+00	0	29	104	21248344064	60	39775
2026-01-15 21:52:24.57	112.60	13.09	-47.5	-50.1	6.1	0.00e+00	0	29	104	21248344064	60	39318
2026-01-15 21:52:25.58	112.87	13.04	-47.5	-50.1	6.1	0.00e+00	0	29	104	21248344064	60	39107
2026-01-15 21:52:26.59	113.13	12.98	-47.5	-50.2	6.1	0.00e+00	0	29	104	21248344064	60	39601
2026-01-15 21:52:27.59	113.39	12.93	-47.8	-50.2	6.1	0.00e+00	0	29	104	21248344064	60	39812
2026-01-15 21:52:28.60	113.65	12.87	-47.6	-50.2	6.1	0.00e+00	0	29	104	21248344064	60	39644
2026-01-15 21:52:29.61	113.91	12.81	-47.7	-50.2	6.1	0.00e+00	0	29	104	21248344064	60	39776
2026-01-15 21:52:30.62	114.16	12.76	-47.4	-50.1	6.1	0.00e+00	0	29	104	21248344064	60	39226
2026-01-15 21:52:31.63	114.42	12.70	-47.5	-50.1	6.1	0.00e+00	0	29	104	21248344064	60	39130
2026-01-15 21:52:32.64	114.68	12.64	-47.4	-50.1	6.1	0.00e+00	0	29	104	21248344064	60	39190
2026-01-15 21:52:33.65	114.93	12.58	-47.7	-50.2	6.1	0.00e+00	0	29	104	21248344064	60	39750
2026-01-15 21:52:34.66	115.18	12.52	-47.3	-50.1	6.1	0.00e+00	0	29	104	21248344064	60	38999
2026-01-15 21:52:35.67	115.44	12.47	-47.7	-50.3	6.1	0.00e+00	0	29	104	21248344064	60	39918
2026-01-15 21:52:36.68	115.69	12.41	-47.4	-50.1	6.1	0.00e+00	0	29	104	21248344064	60	39253
2026-01-15 21:52:37.69	115.94	12.35	-47.5	-50.1	6.1	0.00e+00	0	29	104	21248344064	60	39040
2026-01-15 21:52:38.70	116.19	12.29	-47.4	-50.1	6.1	0.00e+00	0	29	104	21248344064	60	39276
2026-01-15 21:52:39.71	116.43	12.23	-47.7	-50.3	6.1	0.00e+00	0	29	104	21248344064	60	39894
2026-01-15 21:52:40.72	116.68	12.17	-47.4	-50.1	6.1	0.00e+00	0	29	104	21248344064	60	39204
2026-01-15 21:52:41.72	116.92	12.11	-47.6	-50.2	6.1	0.00e+00	0	29	104	21248344064	60	39450
2026-01-15 21:52:42.73	117.17	12.05	-47.3	-50.1	6.1	0.00e+00	0	29	104	21248344064	60	39143
2026-01-15 21:52:43.74	117.41	11.99	-47.7	-50.2	6.1	0.00e+00	0	29	104	21248344064	60	39492
2026-01-15 21:52:44.75	117.65	11.93	-47.5	-50.2	6.1	0.00e+00	0	29	104	21248344064	60	39524
2026-01-15 21:52:45.76	117.89	11.87	-47.6	-50.2	6.1	0.00e+00	0	29	104	21248344064	60	39454
2026-01-15 21:52:46.77	118.13	11.81	-47.3	-50.1	6.1	0.00e+00	0	29	104	21248344064	60	39330
2026-01-15 21:52:47.78	118.37	11.74	-47.4	-50.0	6.1	0.00e+00	0	29	104	21248344064	60	38570
2026-01-15 21:52:48.79	118.60	11.68	-47.3	-50.0	6.1	0.00e+00	0	29	104	21248344064	60	38847
2026-01-15 21:52:49.80	118.84	11.62	-47.6	-50.1	6.1	0.00e+00	0	29	104	21248344064	60	39326
2026-01-15 21:52:50.81	119.07	11.56	-47.1	-50.0	6.1	0.00e+00	0	29	104	21248344064	60	38620
2026-01-15 21:52:51.82	119.31	11.50	-47.6	-50.1	6.1	0.00e+00	0	29	104	21248344064	60	39167
2026-01-15 21:52:52.83	119.54	11.43	-47.4	-50.1	6.1	0.00e+00	0	29	104	21248344064	60	39038
2026-01-15 21:52:53.84	119.77	11.37	-47.7	-50.2	6.1	0.00e+00	0	29	104	21248344064	60	39430
2026-01-15 21:52:54.85	120.00	11.31	-47.3	-50.0	6.1	0.00e+00	0	29	104	21248344064	60	38750
2026-01-15 21:52:55.86	120.23	11.25	-47.6	-50.1	6.1	0.00e+00	0	29	104	21248344064	60	39072
2026-01-15 21:52:56.86	120.45	11.19	-47.4	-50.1	6.1	0.00e+00	0	29	104	21248344064	60	39205
2026-01-15 21:52:57.88	120.68	11.12	-47.6	-50.1	6.1	0.00e+00	0	29	104	21248344064	60	39178
2026-01-15 21:52:58.89	120.91	11.06	-47.3	-50.0	6.1	0.00e+00	0	29	104	21248344064	60	38760
2026-01-15 21:52:59.90	121.13	11.00	-47.6	-50.1	6.1	0.00e+00	0	29	104	21248344064	60	39194
2026-01-15 21:53:00.91	121.36	10.93	-47.5	-50.1	6.1	0.00e+00	0	29	104	21248344064	60	39210
2026-01-15 21:53:01.91	121.58	10.87	-47.6	-50.1	6.1	0.00e+00	0	29	104	21248344064	60	39312
2026-01-15 21:53:02.92	121.80	10.81	-47.4	-50.1	6.1	0.00e+00	0	29	104	21248344064	60	39218
2026-01-15 21:53:03.93	122.02	10.74	-47.5	-50.0	6.1	0.00e+00	0	29	104	21248344064	60	38945
2026-01-15 21:53:04.94	122.23	10.68	-47.4	-50.1	6.1	0.00e+00	0	29	104	21248344064	60	39162
2026-01-15 21:53:05.95	122.45	10.61	-47.6	-50.1	6.1	0.00e+00	0	29	104	21248344064	60	38998
2026-01-15 21:53:06.96	122.67	10.55	-47.1	-49.9	6.1	0.00e+00	0	29	104	21248344064	60	38399
2026-01-15 21:53:07.97	122.88	10.49	-47.6	-50.1	6.1	0.00e+00	0	29	104	21248344064	60	39182
2026-01-15 21:53:08.98	123.10	10.42	-47.3	-49.9	6.1	0.00e+00	0	29	104	21248344064	60	38473
2026-01-15 21:53:09.99	123.31	10.36	-47.2	-49.7	6.1	0.00e+00	0	29	104	21248344064	60	37421
2026-01-15 21:53:11.00	123.52	10.29	-47.3	-50.1	6.1	0.00e+00	0	29	104	21248344064	60	38970
2026-01-15 21:53:12.01	123.73	10.23	-47.5	-50.0	6.1	0.00e+00	0	29	104	21248344064	60	38852
2026-01-15 21:53:13.02	123.94	10.17	-47.3	-50.0	6.1	0.00e+00	0	29	104	21248344064	60	38627
2026-01-15 21:53:14.03	124.15	10.10	-47.6	-50.0	6.1	0.00e+00	0	29	104	21248344064	60	38817
2026-01-15 21:53:15.04	124.36	10.04	-46.9	-49.8	6.1	0.00e+00	0	29	104	21248344064	60	37740
2026-01-15 21:53:16.05	124.56	9.97	-47.6	-50.1	6.1	0.00e+00	0	29	104	21248344064	60	38972
2026-01-15 21:53:17.06	124.77	9.91	-47.4	-50.0	6.1	0.00e+00	0	29	104	21248344064	60	38844
2026-01-15 21:53:18.07	124.97	9.84	-46.9	-49.6	6.1	0.00e+00	0	29	104	21248344064	60	36817
2026-01-15 21:53:19.07	125.17	9.78	-46.9	-49.8	6.1	0.00e+00	0	29	104	21248344064	60	37797
2026-01-15 21:53:20.08	125.38	9.71	-47.4	-50.0	6.1	0.00e+00	0	29	104	21248344064	60	38513
2026-01-15 21:53:21.09	125.58	9.65	-47.3	-50.0	6.1	0.00e+00	0	29	104	21248344064	60	38623
2026-01-15 21:53:22.10	125.78	9.58	-47.2	-49.7	6.1	0.00e+00	0	29	104	21248344064	60	37422
2026-01-15 21:53:23.11	125.98	9.52	-47.0	-49.9	6.1	0.00e+00	0	29	104	21248344064	60	38279
2026-01-15 21:53:24.12	126.17	9.45	-47.4	-49.9	6.1	0.00e+00	0	29	104	21248344064	60	38334
2026-01-15 21:53:25.13	126.37	9.39	-47.2	-49.8	6.1	0.00e+00	0	29	104	21248344064	60	38063
2026-01-15 21:53:26.14	126.57	9.32	-47.1	-49.7	6.1	0.00e+00	0	29	104	21248344064	60	37313
2026-01-15 21:53:27.15	126.76	9.26	-46.8	-49.7	6.1	0.00e+00	0	29	104	21248344064	60	37328
2026-01-15 21:53:28.16	126.95	9.19	-47.3	-49.8	6.1	0.00e+00	0	29	104	21248344064	60	37884
2026-01-15 21:53:29.17	127.15	9.13	-46.5	-49.4	6.1	0.00e+00	0	29	104	21248344064	60	36064
2026-01-15 21:53:30.18	127.34	9.06	-46.7	-49.6	6.1	0.00e+00	0	29	104	21248344064	60	37031
2026-01-15 21:53:31.19	127.53	9.00	-46.7	-49.5	6.1	0.00e+00	0	29	104	21248344064	60	36561
2026-01-15 21:53:32.19	127.72	8.93	-46.9	-49.7	6.1	0.00e+00	0	29	104	21248344064	60	37365
2026-01-15 21:53:33.20	127.91	8.87	-47.0	-49.8	6.1	0.00e+00	0	29	104	21248344064	60	38006
2026-01-15 21:53:34.21	128.09	8.80	-47.0	-49.8	6.1	0.00e+00	0	29	104	21248344064	60	38002
2026-01-15 21:53:35.22	128.28	8.74	-47.4	-49.9	6.1	0.00e+00	0	29	104	21248344064	60	38497
2026-01-15 21:53:36.23	128.47	8.67	-47.2	-49.7	6.1	0.00e+00	0	29	104	21248344064	60	37524
2026-01-15 21:53:37.24	128.65	8.61	-47.1	-49.6	6.1	0.00e+00	0	29	104	21248344064	60	37125
2026-01-15 21:53:38.25	128.83	8.54	-47.1	-49.9	6.1	0.00e+00	0	29	104	21248344064	60	38258
2026-01-15 21:53:39.26	129.02	8.48	-47.4	-49.9	6.1	0.00e+00	0	29	104	21248344064	60	38342
2026-01-15 21:53:40.26	129.20	8.41	-47.1	-49.7	6.1	0.00e+00	0	29	104	21248344064	60	37441
2026-01-15 21:53:41.27	129.38	8.35	-47.4	-49.9	6.1	0.00e+00	0	29	104	21248344064	60	38112
2026-01-15 21:53:42.28	129.56	8.28	-47.1	-49.9	6.1	0.00e+00	0	29	104	21248344064	60	38155
2026-01-15 21:53:43.29	129.73	8.22	-47.3	-49.9	6.1	0.00e+00	0	29	104	21248344064	60	38124
2026-01-15 21:53:44.30	129.91	8.15	-47.4	-49.9	6.1	0.00e+00	0	29	104	21248344064	60	38258
2026-01-15 21:53:45.31	130.09	8.09	-47.2	-49.8	6.1	0.00e+00	0	29	104	21248344064	60	37732
2026-01-15 21:53:46.32	130.27	8.02	-47.0	-49.8	6.1	0.00e+00	0	29	104	21248344064	60	37961
2026-01-15 21:53:47.33	130.44	7.96	-47.3	-49.8	6.1	0.00e+00	0	29	104	21248344064	60	37880
2026-01-15 21:53:48.34	130.61	7.89	-47.3	-49.8	6.1	0.00e+00	0	29	104	21248344064	60	37838
2026-01-15 21:53:49.34	130.79	7.83	-47.3	-49.8	6.1	0.00e+00	0	29	104	21248344064	60	38016
2026-01-15 21:53:50.35	130.96	7.76	-47.1	-49.9	6.1	0.00e+00	0	29	104	21248344064	60	38165
2026-01-15 21:53:51.36	131.13	7.70	-47.4	-49.9	6.1	0.00e+00	0	29	104	21248344064	60	38238
2026-01-15 21:53:52.37	131.30	7.63	-47.3	-49.8	6.1	0.00e+00	0	29	104	21248344064	60	38030
2026-01-15 21:53:53.38	131.47	7.57	-47.3	-49.8	6.1	0.00e+00	0	29	104	21248344064	60	37745
2026-01-15 21:53:54.39	131.64	7.50	-47.1	-49.8	6.1	0.00e+00	0	29	104	21248344064	60	37716
2026-01-15 21:53:55.40	131.80	7.44	-47.3	-49.8	6.1	0.00e+00	0	29	104	21248344064	60	37895
2026-01-15 21:53:56.41	131.97	7.37	-47.3	-49.8	6.1	0.00e+00	0	29	104	21248344064	60	37859
2026-01-15 21:53:57.42	132.14	7.31	-47.3	-49.8	6.1	0.00e+00	0	29	104	21248344064	60	37989
2026-01-15 21:53:58.43	132.30	7.24	-46.9	-49.6	6.1	0.00e+00	0	29	104	21248344064	60	37150
2026-01-15 21:53:59.44	132.47	7.18	-47.1	-49.6	6.0	0.00e+00	0	29	104	21248344064	60	37128
2026-01-15 21:54:00.45	132.63	7.12	-47.3	-49.8	6.1	0.00e+00	0	29	104	21248344064	60	38024
2026-01-15 21:54:01.46	132.79	7.05	-47.2	-49.7	6.1	0.00e+00	0	29	104	21248344064	60	37442
2026-01-15 21:54:02.47	132.95	6.99	-47.1	-49.7	6.1	0.00e+00	0	29	104	21248344064	60	37578
2026-01-15 21:54:03.47	133.11	6.92	-47.3	-49.8	6.1	0.00e+00	0	29	104	21248344064	60	37934
2026-01-15 21:54:04.49	133.27	6.86	-47.3	-49.8	6.1	0.00e+00	0	29	104	21248344064	60	37646
2026-01-15 21:54:05.50	133.43	6.79	-47.2	-49.7	6.1	0.00e+00	0	29	104	21248344064	60	37631
2026-01-15 21:54:06.51	133.59	6.73	-47.1	-49.7	6.1	0.00e+00	0	29	104	21248344064	60	37282
2026-01-15 21:54:07.51	133.75	6.67	-47.1	-49.7	6.1	0.00e+00	0	29	104	21248344064	60	37534
2026-01-15 21:54:08.52	133.90	6.60	-47.2	-49.7	6.1	0.00e+00	0	29	104	21248344064	60	37581
2026-01-15 21:54:09.53	134.06	6.54	-46.9	-49.6	6.1	0.00e+00	0	29	104	21248344064	60	36898
2026-01-15 21:54:10.55	134.21	6.47	-46.9	-49.6	6.1	0.00e+00	0	29	104	21248344064	60	36971
2026-01-15 21:54:11.55	134.37	6.41	-47.0	-49.6	6.1	0.00e+00	0	29	104	21248344064	60	37120
2026-01-15 21:54:12.56	134.52	6.35	-47.2	-49.7	6.1	0.00e+00	0	29	104	21248344064	60	37318
2026-01-15 21:54:13.57	134.67	6.28	-47.1	-49.7	6.1	0.00e+00	0	29	104	21248344064	60	37536
2026-01-15 21:54:14.58	134.82	6.22	-47.1	-49.6	6.1	0.00e+00	0	29	104	21248344064	60	37137
2026-01-15 21:54:15.59	134.97	6.15	-47.0	-49.6	6.1	0.00e+00	0	29	104	21248344064	60	36987
2026-01-15 21:54:16.60	135.12	6.09	-47.2	-49.7	6.1	0.00e+00	0	30	104	21248344064	60	37432
2026-01-15 21:54:17.61	135.27	6.03	-46.9	-49.5	6.1	0.00e+00	0	30	104	21248344064	60	36694
2026-01-15 21:54:18.62	135.42	5.96	-47.0	-49.6	6.1	0.00e+00	0	30	104	21248344064	60	37093
2026-01-15 21:54:19.63	135.57	5.90	-47.0	-49.6	6.1	0.00e+00	0	29	104	21248344064	60	36968
2026-01-15 21:54:20.64	135.72	5.84	-47.1	-49.6	6.1	0.00e+00	0	30	104	21248344064	60	36877
2026-01-15 21:54:21.65	135.86	5.77	-46.9	-49.6	6.1	0.00e+00	0	29	104	21248344064	60	36968
2026-01-15 21:54:22.66	136.01	5.71	-47.1	-49.6	6.1	0.00e+00	0	30	104	21248344064	60	37065
2026-01-15 21:54:23.67	136.15	5.65	-47.0	-49.6	6.1	0.00e+00	0	30	104	21248344064	60	36797
2026-01-15 21:54:24.67	136.29	5.58	-47.0	-49.5	6.1	0.00e+00	0	30	104	21248344064	60	36698
2026-01-15 21:54:25.68	136.44	5.52	-46.9	-49.6	6.1	0.00e+00	0	30	104	21248344064	60	36987
2026-01-15 21:54:26.69	136.58	5.46	-47.0	-49.5	6.1	0.00e+00	0	30	104	21248344064	60	36674
2026-01-15 21:54:27.70	136.72	5.40	-46.8	-49.4	6.1	0.00e+00	0	30	104	21248344064	60	36224
2026-01-15 21:54:28.71	136.86	5.33	-47.0	-49.5	6.1	0.00e+00	0	30	104	21248344064	60	36466
2026-01-15 21:54:29.72	137.00	5.27	-46.8	-49.5	6.1	0.00e+00	0	30	104	21248344064	60	36761
2026-01-15 21:54:30.73	137.14	5.21	-47.1	-49.6	6.1	0.00e+00	0	30	104	21248344064	60	36776
2026-01-15 21:54:31.74	137.28	5.15	-46.9	-49.4	6.1	0.00e+00	0	30	104	21248344064	60	36298
2026-01-15 21:54:32.75	137.42	5.08	-46.9	-49.4	6.1	0.00e+00	0	30	104	21248344064	60	36230
2026-01-15 21:54:33.76	137.55	5.02	-46.8	-49.5	6.1	0.00e+00	0	30	104	21248344064	60	36603
2026-01-15 21:54:34.77	137.69	4.96	-47.0	-49.5	6.1	0.00e+00	0	30	104	21248344064	60	36613
2026-01-15 21:54:35.78	137.83	4.90	-46.9	-49.4	6.1	0.00e+00	0	30	104	21248344064	60	36303
2026-01-15 21:54:36.79	137.96	4.83	-46.8	-49.3	6.1	0.00e+00	0	30	104	21248344064	60	35780
2026-01-15 21:54:37.80	138.09	4.77	-46.5	-49.3	6.1	0.00e+00	0	30	104	21248344064	60	35794
2026-01-15 21:54:38.81	138.23	4.71	-46.7	-49.2	6.1	0.00e+00	0	30	104	21248344064	60	35450
2026-01-15 21:54:39.81	138.36	4.65	-46.9	-49.4	6.1	0.00e+00	0	30	104	21248344064	60	36310
2026-01-15 21:54:40.82	138.49	4.59	-46.7	-49.2	6.1	0.00e+00	0	30	104	21248344064	60	35171
2026-01-15 21:54:41.83	138.62	4.52	-46.3	-49.1	6.1	0.00e+00	0	30	104	21248344064	60	34942
2026-01-15 21:54:42.84	138.75	4.46	-46.5	-49.0	6.1	0.00e+00	0	30	104	21248344064	60	34497
2026-01-15 21:54:43.85	138.88	4.40	-46.6	-49.2	6.1	0.00e+00	0	30	104	21248344064	60	35219
2026-01-15 21:54:44.86	139.01	4.34	-46.6	-49.1	6.1	0.00e+00	0	30	104	21248344064	60	34768
2026-01-15 21:54:45.87	139.14	4.28	-45.8	-48.6	6.1	0.00e+00	0	30	104	21248344064	60	32937
2026-01-15 21:54:46.88	139.27	4.22	-46.0	-48.6	6.1	0.00e+00	0	30	104	21248344064	60	32781
2026-01-15 21:54:47.89	139.40	4.16	-46.5	-49.0	6.1	0.00e+00	0	30	104	21248344064	60	34556
2026-01-15 21:54:48.90	139.53	4.10	-46.1	-48.7	6.1	0.00e+00	0	30	104	21248344064	60	33214
2026-01-15 21:54:49.91	139.65	4.03	-45.6	-48.4	6.1	0.00e+00	0	30	104	21248344064	60	32089
2026-01-15 21:54:50.92	139.78	3.97	-45.2	-47.9	6.1	0.00e+00	0	30	104	21248344064	60	30446
2026-01-15 21:54:51.93	139.90	3.91	-46.0	-48.6	6.1	0.00e+00	0	30	104	21248344064	60	33013
2026-01-15 21:54:52.94	140.03	3.85	-45.1	-47.6	6.1	0.00e+00	0	30	104	21248344064	60	29391
2026-01-15 21:54:53.95	140.15	3.79	-45.1	-47.7	6.1	0.00e+00	0	30	104	21248344064	60	29664
2026-01-15 21:54:54.95	140.27	3.73	-45.2	-47.7	6.1	0.00e+00	0	30	104	21248344064	60	29743
2026-01-15 21:54:55.96	140.40	3.67	-45.1	-47.6	6.1	0.00e+00	0	30	104	21248344064	60	29470
2026-01-15 21:54:56.97	140.52	3.61	-45.2	-47.7	6.1	0.00e+00	0	30	104	21248344064	60	29706
2026-01-15 21:54:57.98	140.64	3.55	-45.2	-47.7	6.1	0.00e+00	0	30	104	21248344064	60	29744
2026-01-15 21:54:58.99	140.76	3.49	-44.8	-47.4	6.1	0.00e+00	0	30	104	21248344064	60	28671
2026-01-15 21:55:00.00	140.88	3.43	-44.9	-47.5	6.1	0.00e+00	0	30	104	21248344064	60	28992
2026-01-15 21:55:01.01	141.00	3.37	-45.1	-47.5	6.1	0.00e+00	0	30	104	21248344064	60	29152
2026-01-15 21:55:02.02	141.12	3.31	-44.8	-47.3	6.1	0.00e+00	0	30	104	21248344064	60	28508
2026-01-15 21:55:03.03	141.24	3.25	-45.2	-47.8	6.1	0.00e+00	0	30	104	21248344064	60	29911
2026-01-15 21:55:04.03	141.35	3.19	-45.2	-47.7	6.1	0.00e+00	0	30	104	21248344064	60	29876
2026-01-15 21:55:05.05	141.47	3.13	-45.1	-47.6	6.1	0.00e+00	0	30	104	21248344064	60	29525
2026-01-15 21:55:06.06	141.59	3.07	-45.2	-47.7	6.1	0.00e+00	0	30	104	21248344064	60	29753
2026-01-15 21:55:07.07	141.70	3.01	-45.4	-47.9	6.1	0.00e+00	0	30	104	21248344064	60	30414
2026-01-15 21:55:08.08	141.82	2.95	-47.0	-49.5	6.1	0.00e+00	0	30	104	21248344064	60	36475
2026-01-15 21:55:09.08	141.93	2.89	-47.5	-50.0	6.1	0.00e+00	0	30	104	21248344064	60	38855
2026-01-15 21:55:10.09	142.05	2.83	-47.9	-50.3	6.1	0.00e+00	0	30	104	21248344064	60	40218
2026-01-15 21:55:11.10	142.16	2.77	-48.1	-50.6	6.1	0.00e+00	0	30	104	21248344064	60	41599
2026-01-15 21:55:12.12	142.27	2.71	-48.1	-50.6	6.1	0.00e+00	0	30	104	21248344064	60	41530
2026-01-15 21:55:13.12	142.39	2.66	-48.4	-50.9	6.1	0.00e+00	0	30	104	21248344064	60	42896
2026-01-15 21:55:14.13	142.50	2.60	-48.4	-50.9	6.1	0.00e+00	0	30	104	21248344064	60	43036
2026-01-15 21:55:15.14	142.61	2.54	-48.4	-50.9	6.1	0.00e+00	0	30	104	21248344064	60	42989
2026-01-15 21:55:16.15	142.72	2.48	-48.5	-51.0	6.1	0.00e+00	0	30	104	21248344064	60	43459
2026-01-15 21:55:17.16	142.83	2.42	-48.4	-50.9	6.1	0.00e+00	0	30	104	21248344064	60	43149
2026-01-15 21:55:18.17	142.94	2.36	-48.4	-50.9	6.1	0.00e+00	0	30	104	21248344064	60	42947
2026-01-15 21:55:19.18	143.05	2.30	-48.5	-51.0	6.1	0.00e+00	0	30	104	21248344064	60	43489
2026-01-15 21:55:20.19	143.16	2.24	-48.5	-51.0	6.1	0.00e+00	0	30	104	21248344064	60	43381
2026-01-15 21:55:21.20	143.27	2.19	-48.4	-51.0	6.1	0.00e+00	0	30	104	21248344064	60	43315
2026-01-15 21:55:22.21	143.37	2.13	-48.4	-51.0	6.1	0.00e+00	0	30	104	21248344064	60	43249
2026-01-15 21:55:23.22	143.48	2.07	-48.4	-50.9	6.1	0.00e+00	0	30	104	21248344064	60	43072
2026-01-15 21:55:24.23	143.59	2.01	-48.4	-50.9	6.1	0.00e+00	0	30	104	21248344064	60	42845
2026-01-15 21:55:25.24	143.69	1.95	-48.4	-50.9	6.1	0.00e+00	0	30	104	21248344064	60	42997
2026-01-15 21:55:26.24	143.80	1.90	-48.4	-50.9	6.1	0.00e+00	0	30	104	21248344064	60	43077
2026-01-15 21:55:27.25	143.90	1.84	-48.4	-51.0	6.1	0.00e+00	0	30	104	21248344064	60	43225
2026-01-15 21:55:28.26	144.01	1.78	-48.5	-51.0	6.1	0.00e+00	0	30	104	21248344064	60	43208
2026-01-15 21:55:29.27	144.11	1.72	-48.4	-50.9	6.1	0.00e+00	0	30	104	21248344064	60	43197
2026-01-15 21:55:30.28	144.22	1.67	-48.4	-50.9	6.1	0.00e+00	0	30	104	21248344064	60	43008
2026-01-15 21:55:31.30	144.32	1.61	-48.4	-50.9	6.1	0.00e+00	0	30	104	21248344064	60	42993
2026-01-15 21:55:32.31	144.42	1.55	-48.4	-51.0	6.1	0.00e+00	0	30	104	21248344064	60	43261
2026-01-15 21:55:33.32	144.53	1.49	-48.4	-50.9	6.1	0.00e+00	0	30	104	21248344064	60	43026
2026-01-15 21:55:34.33	144.63	1.44	-48.4	-50.9	6.1	0.00e+00	0	30	104	21248344064	60	42881
2026-01-15 21:55:35.34	144.73	1.38	-48.4	-50.9	6.1	0.00e+00	0	30	104	21248344064	60	42901
2026-01-15 21:55:36.35	144.83	1.32	-48.4	-51.0	6.1	0.00e+00	0	30	104	21248344064	60	43242
2026-01-15 21:55:37.36	144.93	1.26	-48.5	-51.0	6.1	0.00e+00	0	30	104	21248344064	60	43386
2026-01-15 21:55:38.37	145.03	1.21	-48.5	-51.0	6.1	0.00e+00	0	30	104	21248344064	60	43234
2026-01-15 21:55:39.37	145.13	1.15	-48.4	-50.9	6.1	0.00e+00	0	30	104	21248344064	60	43173
2026-01-15 21:55:40.38	145.23	1.10	-48.4	-50.9	6.1	0.00e+00	0	30	104	21248344064	60	42787
2026-01-15 21:55:41.40	145.33	1.04	-48.4	-50.9	6.1	0.00e+00	0	30	104	21248344064	60	42793
2026-01-15 21:55:42.40	145.42	0.98	-48.5	-51.0	6.1	0.00e+00	0	30	104	21248344064	60	43320
2026-01-15 21:55:43.41	145.52	0.93	-48.5	-51.1	6.1	0.00e+00	0	30	104	21248344064	60	43790
2026-01-15 21:55:44.42	145.62	0.87	-48.5	-50.9	6.1	0.00e+00	0	30	104	21248344064	60	43188
2026-01-15 21:55:45.43	145.71	0.81	-48.4	-50.9	6.1	0.00e+00	0	30	104	21248344064	60	43100
2026-01-15 21:55:46.44	145.81	0.76	-48.5	-50.9	6.0	0.00e+00	0	30	104	21248344064	60	43148
2026-01-15 21:55:47.46	145.91	0.70	-48.4	-50.9	6.1	0.00e+00	0	30	104	21248344064	60	42996
2026-01-15 21:55:48.46	146.00	0.64	-48.4	-50.9	6.1	0.00e+00	0	30	104	21248344064	60	43007
2026-01-15 21:55:49.48	146.10	0.59	-48.5	-51.0	6.1	0.00e+00	0	30	104	21248344064	60	43419
2026-01-15 21:55:50.48	146.19	0.53	-48.5	-51.0	6.1	0.00e+00	0	30	104	21248344064	60	43240
2026-01-15 21:55:51.50	146.29	0.48	-48.4	-50.9	6.1	0.00e+00	0	30	104	21248344064	60	43040
2026-01-15 21:55:52.51	146.38	0.42	-48.4	-50.9	6.1	0.00e+00	0	30	104	21248344064	60	43093
2026-01-15 21:55:53.52	146.47	0.37	-48.4	-50.9	6.1	0.00e+00	0	30	104	21248344064	60	43024
2026-01-15 21:55:54.53	146.57	0.31	-48.5	-51.0	6.1	0.00e+00	0	30	104	21248344064	60	43231
2026-01-15 21:55:55.54	146.66	0.25	-48.5	-51.0	6.1	0.00e+00	0	30	104	21248344064	60	43389
2026-01-15 21:55:56.55	146.75	0.20	-48.4	-50.8	6.1	0.00e+00	0	30	104	21248344064	60	42706
2026-01-15 21:55:57.56	146.84	0.14	-48.4	-50.9	6.1	0.00e+00	0	30	104	21248344064	60	43093
2026-01-15 21:55:58.57	146.93	0.09	-48.4	-50.8	6.1	0.00e+00	0	30	104	21248344064	60	42698
2026-01-15 21:55:59.58	147.02	0.03	-48.3	-50.8	6.1	0.00e+00	0	30	104	21248344064	60	42687
2026-01-15 21:56:00.59	147.11	-0.02	-48.4	-50.9	6.1	0.00e+00	0	30	104	21248344064	60	42971

#Closed at: 2026-01-15 21:56:01
#Recorded file [21248 MB]: D:/lorett/data/35029_260116_094616.dat