passes_logs/2026/01/15/R4.6S_Anadyr/R4.6S_Anadyr__20260115_123425_NOAA_21_JPSS-2_rec.log

#Pass ID: 20260115_123425_NOAA 21 (JPSS-2)
#Satellite: NOAA 21 (JPSS-2)
#Configuration: NOAA-21
#almurnet v.1.7.20251203
#Start time: 2026-01-15 12:34:28

#Version: 2.2.20231116
#Station: R4.6S_Anadyr
#Location: 177.4865 lon 64.73178 lat
#TLE: 1 54234U 22150A   26014.58979933  .00000039  00000+0  39403-4 0  9998
#TLE: 2 54234  98.7497 315.4945 0000653 294.6373  65.4735 14.19534652164756

#Time	Az	El	Level	Level2	SNR	BER	BlckErr	Temp	State	Recorded	gain1	gain2
2026-01-15 12:34:28.47	19.00	0.16	-48.4	-59.8	3.3	1.54e+00	0	28	0	0	60	34324
2026-01-15 12:34:29.48	19.07	0.21	-48.5	-61.4	3.5	1.51e+00	0	28	104	0	60	41017
2026-01-15 12:34:30.49	19.14	0.27	-48.6	-61.4	3.5	1.52e+00	0	28	104	0	60	41171
2026-01-15 12:34:31.50	19.21	0.32	-48.5	-61.4	3.5	1.52e+00	0	28	104	0	60	41099
2026-01-15 12:34:32.51	19.28	0.37	-48.5	-61.4	3.5	1.52e+00	0	28	104	0	60	41124
2026-01-15 12:34:33.52	19.35	0.42	-48.5	-61.3	3.5	1.52e+00	0	28	104	0	60	40955
2026-01-15 12:34:34.53	19.42	0.47	-48.4	-61.3	3.5	1.51e+00	0	28	104	0	60	40556
2026-01-15 12:34:35.54	19.49	0.52	-48.3	-61.2	3.5	1.52e+00	0	28	104	0	60	40231
2026-01-15 12:34:36.55	19.56	0.57	-48.2	-61.1	3.5	1.52e+00	0	28	104	0	60	39797
2026-01-15 12:34:37.55	19.63	0.63	-48.1	-60.9	3.5	1.52e+00	0	28	104	0	60	38965
2026-01-15 12:34:38.56	19.70	0.68	-47.8	-60.8	3.5	1.52e+00	0	28	104	0	60	38370
2026-01-15 12:34:39.57	19.77	0.73	-47.8	-60.5	3.5	1.52e+00	0	28	104	0	60	37337
2026-01-15 12:34:40.58	19.84	0.78	-47.5	-60.3	3.5	1.52e+00	0	28	104	0	60	36237
2026-01-15 12:34:41.59	19.91	0.83	-47.0	-59.9	3.5	1.52e+00	0	28	104	0	60	34516
2026-01-15 12:34:42.60	19.98	0.88	-46.7	-59.6	3.5	1.52e+00	0	28	104	0	60	33356
2026-01-15 12:34:43.61	20.06	0.94	-46.7	-59.5	3.5	1.52e+00	0	28	104	0	60	33025
2026-01-15 12:34:44.62	20.13	0.99	-46.7	-59.5	3.5	1.52e+00	0	28	104	0	60	33306
2026-01-15 12:34:45.63	20.20	1.04	-46.7	-59.5	3.5	1.52e+00	0	28	104	0	60	32958
2026-01-15 12:34:46.64	20.27	1.09	-46.7	-59.5	3.5	1.52e+00	0	28	104	0	60	33168
2026-01-15 12:34:47.65	20.35	1.15	-46.7	-59.5	3.5	1.52e+00	0	28	104	0	60	33023
2026-01-15 12:34:48.66	20.42	1.20	-46.7	-59.5	3.5	1.52e+00	0	28	104	0	60	33077
2026-01-15 12:34:49.67	20.49	1.25	-46.7	-59.5	3.5	1.52e+00	0	28	104	0	60	33193
2026-01-15 12:34:50.68	20.57	1.30	-46.7	-59.5	3.5	1.52e+00	0	28	104	0	60	33203
2026-01-15 12:34:51.69	20.64	1.35	-46.7	-59.5	3.5	1.52e+00	0	28	104	0	60	33188
2026-01-15 12:34:52.70	20.72	1.41	-46.7	-59.5	3.5	1.52e+00	0	28	104	0	60	33313
2026-01-15 12:34:53.71	20.79	1.46	-46.7	-59.5	3.5	1.52e+00	0	28	104	0	60	33259
2026-01-15 12:34:54.72	20.87	1.51	-46.7	-59.5	3.5	1.52e+00	0	28	104	0	60	33217
2026-01-15 12:34:55.73	20.94	1.57	-46.7	-59.5	3.5	1.51e+00	0	28	104	0	60	33306
2026-01-15 12:34:56.74	21.02	1.62	-46.7	-59.5	3.5	1.51e+00	0	28	104	0	60	33140
2026-01-15 12:34:57.75	21.09	1.67	-46.7	-59.5	3.5	1.52e+00	0	28	104	0	60	32968
2026-01-15 12:34:58.76	21.17	1.72	-46.7	-59.4	3.5	1.52e+00	0	28	104	0	60	32760
2026-01-15 12:34:59.77	21.24	1.78	-46.7	-59.4	3.5	1.52e+00	0	28	104	0	60	32907
2026-01-15 12:35:00.78	21.32	1.83	-46.7	-59.5	3.5	1.52e+00	0	28	104	0	60	33058
2026-01-15 12:35:01.79	21.40	1.88	-46.7	-59.5	3.5	1.52e+00	0	28	104	0	60	33031
2026-01-15 12:35:02.80	21.47	1.94	-46.7	-59.5	3.5	1.52e+00	0	28	104	0	60	33136
2026-01-15 12:35:03.81	21.55	1.99	-46.7	-59.4	3.5	1.51e+00	0	28	104	0	60	32834
2026-01-15 12:35:04.82	21.63	2.04	-46.7	-59.5	3.5	1.52e+00	0	28	104	0	60	33086
2026-01-15 12:35:05.83	21.70	2.10	-46.7	-59.5	3.5	1.52e+00	0	28	104	0	60	33062
2026-01-15 12:35:06.84	21.78	2.15	-46.7	-59.2	3.5	1.52e+00	0	28	104	0	60	32144
2026-01-15 12:35:07.85	21.86	2.20	-46.7	-58.7	3.5	1.52e+00	0	29	104	0	60	30195
2026-01-15 12:35:08.86	21.94	2.26	-46.6	-58.2	3.6	1.51e+00	0	28	104	0	60	28554
2026-01-15 12:35:09.87	22.02	2.31	-46.6	-57.9	3.5	1.51e+00	0	28	104	0	60	27599
2026-01-15 12:35:10.88	22.10	2.36	-46.6	-58.0	3.5	1.51e+00	0	29	104	0	60	27941
2026-01-15 12:35:11.89	22.17	2.42	-46.4	-56.5	4.0	1.49e+00	0	29	104	0	60	23511
2026-01-15 12:35:12.90	22.25	2.47	-45.9	-53.5	5.8	5.35e-01	0	29	104	0	60	16654
2026-01-15 12:35:13.91	22.33	2.52	-44.8	-49.0	9.4	5.56e-02	0	29	0	2097152	60	9911
2026-01-15 12:35:14.92	22.41	2.58	-43.5	-46.6	12.1	1.33e-03	0	29	0	5242880	60	7524
2026-01-15 12:35:15.92	22.49	2.63	-41.9	-44.1	14.7	5.30e-06	0	29	0	8388608	58	6324
2026-01-15 12:35:16.94	22.57	2.69	-40.6	-42.3	16.5	0.00e+00	0	29	0	11534336	56	5785
2026-01-15 12:35:17.95	22.66	2.74	-39.8	-41.4	17.0	0.00e+00	0	29	0	14680064	52	6546
2026-01-15 12:35:18.96	22.74	2.79	-40.1	-41.8	17.0	0.00e+00	0	29	0	17825792	52	6816
2026-01-15 12:35:19.97	22.82	2.85	-40.0	-41.6	16.9	0.00e+00	0	29	0	20971520	52	6702
2026-01-15 12:35:20.98	22.90	2.90	-40.8	-42.7	16.0	0.00e+00	0	29	0	24117248	52	7584
2026-01-15 12:35:21.99	22.98	2.96	-41.9	-44.2	14.4	0.00e+00	0	29	0	27262976	54	8017
2026-01-15 12:35:23.00	23.06	3.01	-43.8	-47.1	11.3	2.20e-04	0	29	0	30408704	58	8922
2026-01-15 12:35:24.00	23.14	3.06	-41.4	-43.4	15.4	7.00e-07	0	29	0	33554432	56	6548
2026-01-15 12:35:25.01	23.23	3.12	-39.8	-41.4	17.4	0.00e+00	0	29	0	36700160	52	6528
2026-01-15 12:35:26.02	23.31	3.17	-46.7	-59.3	3.5	1.51e+00	0	29	104	38797312	60	32494
2026-01-15 12:35:27.03	23.39	3.23	-46.4	-57.6	3.7	1.51e+00	0	29	104	38797312	60	26604
2026-01-15 12:35:28.04	23.48	3.28	-42.4	-44.8	13.8	0.00e+00	0	29	0	39845888	56	7662
2026-01-15 12:35:29.05	23.56	3.34	-40.5	-42.3	16.7	0.00e+00	0	29	0	42991616	54	6447
2026-01-15 12:35:30.06	23.65	3.39	-40.6	-42.3	16.5	0.00e+00	0	28	0	46137344	54	6477
2026-01-15 12:35:31.07	23.73	3.45	-40.6	-42.4	16.6	0.00e+00	0	29	0	49283072	54	6533
2026-01-15 12:35:32.07	23.81	3.50	-40.7	-42.5	16.4	0.00e+00	0	29	0	52428800	54	6628
2026-01-15 12:35:33.08	23.90	3.56	-41.1	-43.0	16.6	0.00e+00	0	29	0	55574528	54	7042
2026-01-15 12:35:34.09	23.98	3.61	-40.2	-41.9	17.0	0.00e+00	0	29	0	58720256	54	6137
2026-01-15 12:35:35.10	24.07	3.67	-40.3	-42.1	16.5	0.00e+00	0	29	0	61865984	54	6293
2026-01-15 12:35:36.11	24.16	3.72	-41.0	-42.8	17.0	0.00e+00	0	29	0	65011712	54	6855
2026-01-15 12:35:37.12	24.24	3.78	-40.3	-42.0	16.7	0.00e+00	0	29	0	68157440	54	6210
2026-01-15 12:35:38.13	24.33	3.83	-40.3	-42.0	17.0	0.00e+00	0	29	0	71303168	52	7004
2026-01-15 12:35:39.14	24.42	3.89	-40.5	-42.2	16.5	0.00e+00	0	29	0	74448896	54	6396
2026-01-15 12:35:40.15	24.50	3.94	-40.7	-42.4	17.1	0.00e+00	0	29	0	77594624	54	6568
2026-01-15 12:35:41.16	24.59	4.00	-40.2	-41.8	16.9	0.00e+00	0	29	0	80740352	54	6112
2026-01-15 12:35:42.17	24.68	4.05	-40.2	-41.8	17.4	0.00e+00	0	29	0	83886080	54	6132
2026-01-15 12:35:43.18	24.77	4.11	-39.6	-41.1	17.5	0.00e+00	0	29	0	87031808	54	5641
2026-01-15 12:35:44.19	24.86	4.16	-39.4	-40.9	18.2	0.00e+00	0	29	0	90177536	52	6149
2026-01-15 12:35:45.20	24.94	4.22	-39.6	-41.1	17.9	0.00e+00	0	29	0	93323264	52	6304
2026-01-15 12:35:46.21	25.03	4.28	-39.1	-40.5	18.7	0.00e+00	0	29	0	96468992	52	5859
2026-01-15 12:35:47.22	25.12	4.33	-38.1	-39.4	19.6	0.00e+00	0	29	0	99614720	50	5805
2026-01-15 12:35:48.23	25.21	4.39	-38.5	-39.8	19.3	0.00e+00	0	29	0	102760448	50	6091
2026-01-15 12:35:49.24	25.30	4.44	-38.2	-39.5	19.5	0.00e+00	0	29	0	105906176	50	5891
2026-01-15 12:35:50.24	25.39	4.50	-38.3	-39.6	19.5	0.00e+00	0	29	0	109051904	50	5935
2026-01-15 12:35:51.25	25.48	4.55	-38.4	-39.7	19.2	0.00e+00	0	29	0	112197632	50	6050
2026-01-15 12:35:52.26	25.57	4.61	-38.3	-39.5	19.4	0.00e+00	0	29	0	115343360	50	5923
2026-01-15 12:35:53.27	25.67	4.67	-38.4	-39.7	19.4	0.00e+00	0	29	0	118489088	50	6008
2026-01-15 12:35:54.28	25.76	4.72	-37.9	-39.1	19.9	0.00e+00	0	29	0	121634816	50	5613
2026-01-15 12:35:55.29	25.85	4.78	-38.3	-39.6	19.6	0.00e+00	0	29	0	124780544	50	5949
2026-01-15 12:35:56.30	25.94	4.84	-38.1	-39.4	19.6	0.00e+00	0	29	0	127926272	50	5812
2026-01-15 12:35:57.31	26.03	4.89	-38.2	-39.4	19.6	0.00e+00	0	29	0	131072000	50	5844
2026-01-15 12:35:58.32	26.13	4.95	-38.2	-39.4	19.8	0.00e+00	0	29	0	134217728	50	5833
2026-01-15 12:35:59.33	26.22	5.01	-38.0	-39.2	19.9	0.00e+00	0	29	0	137363456	50	5702
2026-01-15 12:36:00.29	26.31	5.06	-37.9	-39.1	20.0	0.00e+00	0	29	0	140509184	50	5618
2026-01-15 12:36:01.30	26.40	5.12	-37.9	-39.1	20.0	0.00e+00	0	29	0	143654912	50	5646
2026-01-15 12:36:02.31	26.50	5.17	-38.2	-39.4	19.7	0.00e+00	0	29	0	146800640	50	5845
2026-01-15 12:36:03.32	26.59	5.23	-38.3	-39.6	19.6	0.00e+00	0	29	0	149946368	50	5960
2026-01-15 12:36:04.33	26.69	5.29	-38.0	-39.2	19.9	0.00e+00	0	29	0	153092096	50	5700
2026-01-15 12:36:05.34	26.78	5.34	-38.1	-39.4	19.9	0.00e+00	0	29	0	156237824	50	5805
2026-01-15 12:36:06.35	26.88	5.40	-38.3	-39.5	19.6	0.00e+00	0	29	0	159383552	50	5900
2026-01-15 12:36:07.36	26.98	5.46	-37.7	-38.9	20.2	0.00e+00	0	29	0	162529280	48	6191
2026-01-15 12:36:08.37	27.07	5.51	-37.7	-38.9	20.2	0.00e+00	0	29	0	165675008	48	6185
2026-01-15 12:36:09.38	27.17	5.57	-37.9	-39.1	20.0	0.00e+00	0	29	0	168820736	48	6318
2026-01-15 12:36:10.39	27.27	5.63	-37.7	-38.8	20.3	0.00e+00	0	29	0	171966464	48	6120
2026-01-15 12:36:11.40	27.36	5.69	-37.7	-38.9	20.2	0.00e+00	0	29	0	175112192	48	6158
2026-01-15 12:36:12.41	27.46	5.74	-37.8	-39.0	20.2	0.00e+00	0	29	0	178257920	48	6224
2026-01-15 12:36:13.42	27.56	5.80	-37.7	-38.9	20.2	0.00e+00	0	29	0	181403648	48	6204
2026-01-15 12:36:14.43	27.66	5.86	-37.6	-38.8	20.4	0.00e+00	0	29	0	184549376	48	6107
2026-01-15 12:36:15.44	27.76	5.92	-37.6	-38.7	20.4	0.00e+00	0	29	0	187695104	48	6064
2026-01-15 12:36:16.45	27.86	5.97	-37.5	-38.7	20.5	0.00e+00	0	29	0	190840832	48	6003
2026-01-15 12:36:17.46	27.96	6.03	-37.6	-38.8	20.4	0.00e+00	0	29	0	193986560	48	6065
2026-01-15 12:36:18.47	28.06	6.09	-37.5	-38.7	20.4	0.00e+00	0	29	0	197132288	48	6020
2026-01-15 12:36:19.48	28.16	6.15	-37.6	-38.8	20.3	0.00e+00	0	29	0	200278016	48	6119
2026-01-15 12:36:20.49	28.26	6.20	-37.5	-38.6	20.6	0.00e+00	0	29	0	203423744	48	5969
2026-01-15 12:36:21.50	28.36	6.26	-37.4	-38.6	20.5	0.00e+00	0	29	0	206569472	48	5934
2026-01-15 12:36:22.51	28.46	6.32	-37.5	-38.7	20.5	0.00e+00	0	29	0	209715200	48	6011
2026-01-15 12:36:23.52	28.56	6.38	-37.6	-38.8	20.4	0.00e+00	0	29	0	212860928	48	6110
2026-01-15 12:36:24.53	28.67	6.44	-37.7	-38.9	20.3	0.00e+00	0	29	0	216006656	48	6174
2026-01-15 12:36:25.54	28.77	6.49	-37.8	-39.0	20.4	0.00e+00	0	29	0	219152384	48	6214
2026-01-15 12:36:26.55	28.87	6.55	-37.4	-38.6	20.7	0.00e+00	0	29	0	222298112	48	5936
2026-01-15 12:36:27.56	28.98	6.61	-37.4	-38.5	20.7	0.00e+00	0	29	0	225443840	48	5918
2026-01-15 12:36:28.57	29.08	6.67	-37.2	-38.3	20.8	0.00e+00	0	29	0	228589568	48	5771
2026-01-15 12:36:29.58	29.18	6.73	-37.2	-38.3	20.9	0.00e+00	0	29	0	231735296	48	5760
2026-01-15 12:36:30.60	29.29	6.78	-37.0	-38.1	21.0	0.00e+00	0	29	0	234881024	48	5629
2026-01-15 12:36:31.61	29.40	6.84	-37.0	-38.1	21.0	0.00e+00	0	29	0	238026752	48	5627
2026-01-15 12:36:32.62	29.50	6.90	-37.0	-38.1	21.0	0.00e+00	0	29	0	241172480	48	5626
2026-01-15 12:36:33.63	29.61	6.96	-37.0	-38.1	21.1	0.00e+00	0	29	0	244318208	48	5634
2026-01-15 12:36:34.64	29.71	7.02	-37.0	-38.2	20.9	0.00e+00	0	29	0	247463936	48	5675
2026-01-15 12:36:35.65	29.82	7.08	-37.0	-38.1	21.1	0.00e+00	0	29	0	250609664	48	5630
2026-01-15 12:36:36.66	29.93	7.14	-36.9	-38.0	21.1	0.00e+00	0	29	0	253755392	48	5574
2026-01-15 12:36:37.67	30.04	7.19	-37.2	-38.3	20.8	0.00e+00	0	29	0	256901120	48	5757
2026-01-15 12:36:38.68	30.14	7.25	-37.0	-38.1	21.1	0.00e+00	0	29	0	260046848	48	5601
2026-01-15 12:36:39.69	30.25	7.31	-36.9	-38.0	21.1	0.00e+00	0	29	0	263192576	48	5568
2026-01-15 12:36:40.70	30.36	7.37	-36.9	-38.0	21.1	0.00e+00	0	29	0	266338304	48	5594
2026-01-15 12:36:41.71	30.47	7.43	-36.8	-37.9	21.2	0.00e+00	0	29	0	269484032	46	6164
2026-01-15 12:36:42.72	30.58	7.49	-36.8	-37.9	21.2	0.00e+00	0	29	0	272629760	46	6189
2026-01-15 12:36:43.73	30.69	7.55	-36.9	-38.0	21.2	0.00e+00	0	29	0	275775488	46	6234
2026-01-15 12:36:44.74	30.80	7.61	-36.8	-37.9	21.2	0.00e+00	0	29	0	279969792	46	6188
2026-01-15 12:36:45.75	30.91	7.67	-36.8	-37.9	21.3	0.00e+00	0	29	0	282066944	46	6152
2026-01-15 12:36:46.76	31.02	7.72	-36.8	-37.9	21.3	0.00e+00	0	29	0	285212672	46	6155
2026-01-15 12:36:47.77	31.14	7.78	-36.6	-37.7	21.5	0.00e+00	0	29	0	288358400	46	6015
2026-01-15 12:36:48.78	31.25	7.84	-36.7	-37.8	21.3	0.00e+00	0	29	0	291504128	46	6104
2026-01-15 12:36:49.79	31.36	7.90	-36.7	-37.8	21.4	0.00e+00	0	29	0	295698432	46	6088
2026-01-15 12:36:50.80	31.47	7.96	-36.7	-37.8	21.5	0.00e+00	0	29	0	298844160	46	6097
2026-01-15 12:36:51.81	31.59	8.02	-36.7	-37.7	21.5	0.00e+00	0	29	0	301989888	46	6060
2026-01-15 12:36:52.82	31.70	8.08	-36.7	-37.8	21.5	0.00e+00	0	29	0	305135616	46	6110
2026-01-15 12:36:53.83	31.82	8.14	-36.5	-37.6	21.6	0.00e+00	0	29	0	307232768	46	5930
2026-01-15 12:36:54.84	31.93	8.20	-36.7	-37.7	21.5	0.00e+00	0	29	0	311427072	46	6058
2026-01-15 12:36:55.85	32.05	8.26	-36.7	-37.8	21.4	0.00e+00	0	29	0	314572800	46	6079
2026-01-15 12:36:56.86	32.16	8.32	-36.6	-37.7	21.6	0.00e+00	0	29	0	317718528	46	5995
2026-01-15 12:36:57.87	32.28	8.38	-36.4	-37.4	21.7	0.00e+00	0	29	0	320864256	46	5844
2026-01-15 12:36:58.88	32.40	8.44	-36.4	-37.5	21.7	0.00e+00	0	29	0	324009984	46	5899
2026-01-15 12:36:59.89	32.51	8.50	-36.3	-37.3	21.8	0.00e+00	0	29	0	327155712	46	5789
2026-01-15 12:37:00.90	32.63	8.56	-36.3	-37.3	21.9	0.00e+00	0	29	0	330301440	46	5781
2026-01-15 12:37:01.91	32.75	8.62	-36.4	-37.5	21.9	0.00e+00	0	29	0	333447168	46	5865
2026-01-15 12:37:02.91	32.87	8.68	-36.3	-37.4	21.8	0.00e+00	0	29	0	336592896	46	5799
2026-01-15 12:37:03.92	32.99	8.74	-36.0	-37.1	22.1	0.00e+00	0	29	0	339738624	46	5609
2026-01-15 12:37:04.93	33.11	8.80	-36.1	-37.1	22.1	0.00e+00	0	29	0	342884352	46	5609
2026-01-15 12:37:05.94	33.23	8.86	-36.0	-37.1	22.1	0.00e+00	0	29	0	346030080	46	5607
2026-01-15 12:37:06.95	33.35	8.92	-35.9	-36.9	22.3	0.00e+00	0	29	0	349175808	46	5501
2026-01-15 12:37:07.96	33.47	8.98	-36.0	-37.0	22.2	0.00e+00	0	29	0	352321536	46	5549
2026-01-15 12:37:08.98	33.59	9.04	-35.9	-37.0	22.2	0.00e+00	0	29	0	355467264	46	5534
2026-01-15 12:37:09.99	33.71	9.10	-36.0	-37.0	22.2	0.00e+00	0	29	0	358612992	46	5554
2026-01-15 12:37:10.99	33.83	9.16	-35.9	-36.9	22.3	0.00e+00	0	29	0	361758720	46	5486
2026-01-15 12:37:12.00	33.96	9.22	-36.0	-37.0	22.1	0.00e+00	0	29	0	364904448	46	5573
2026-01-15 12:37:13.02	34.08	9.28	-36.0	-37.0	22.2	0.00e+00	0	29	0	368050176	46	5574
2026-01-15 12:37:14.03	34.20	9.34	-36.0	-37.0	22.2	0.00e+00	0	29	0	371195904	46	5570
2026-01-15 12:37:15.04	34.33	9.40	-36.1	-37.1	22.1	0.00e+00	0	29	0	374341632	46	5628
2026-01-15 12:37:16.05	34.45	9.46	-36.0	-37.1	22.0	0.00e+00	0	29	0	377487360	46	5599
2026-01-15 12:37:17.06	34.58	9.52	-35.8	-36.9	22.2	0.00e+00	0	29	0	380633088	46	5473
2026-01-15 12:37:18.06	34.70	9.58	-35.9	-37.0	22.3	0.00e+00	0	29	0	383778816	46	5547
2026-01-15 12:37:19.07	34.83	9.64	-36.1	-37.1	22.1	0.00e+00	0	29	0	386924544	46	5641
2026-01-15 12:37:20.08	34.96	9.70	-35.8	-36.8	22.4	0.00e+00	0	29	0	390070272	46	5439
2026-01-15 12:37:21.09	35.08	9.76	-35.9	-36.9	22.3	0.00e+00	0	29	0	393216000	46	5495
2026-01-15 12:37:22.10	35.21	9.82	-35.9	-36.9	22.2	0.00e+00	0	29	0	396361728	46	5520
2026-01-15 12:37:23.11	35.34	9.88	-35.8	-36.8	22.3	0.00e+00	0	29	0	399507456	46	5466
2026-01-15 12:37:24.12	35.47	9.94	-35.7	-36.7	22.4	0.00e+00	0	29	0	402653184	44	6024
2026-01-15 12:37:25.13	35.60	10.00	-35.9	-36.9	22.2	0.00e+00	0	29	0	405798912	44	6166
2026-01-15 12:37:26.14	35.73	10.06	-35.8	-36.8	22.3	0.00e+00	0	29	0	408944640	44	6074
2026-01-15 12:37:27.15	35.86	10.12	-35.9	-36.9	22.3	0.00e+00	0	29	0	412090368	44	6171
2026-01-15 12:37:28.16	35.99	10.18	-35.7	-36.8	22.4	0.00e+00	0	29	0	415236096	44	6067
2026-01-15 12:37:29.17	36.12	10.25	-35.9	-37.0	22.3	0.00e+00	0	29	0	418381824	44	6223
2026-01-15 12:37:30.18	36.25	10.31	-35.7	-36.7	22.5	0.00e+00	0	29	0	421527552	44	6045
2026-01-15 12:37:31.20	36.39	10.37	-35.8	-36.8	22.4	0.00e+00	0	29	0	424673280	44	6126
2026-01-15 12:37:32.20	36.52	10.43	-35.8	-36.8	22.3	0.00e+00	0	29	0	427819008	44	6134
2026-01-15 12:37:33.21	36.65	10.49	-35.8	-36.8	22.5	0.00e+00	0	29	0	430964736	44	6078
2026-01-15 12:37:34.22	36.79	10.55	-35.8	-36.8	22.5	0.00e+00	0	29	0	434110464	44	6100
2026-01-15 12:37:35.23	36.92	10.61	-35.7	-36.7	22.6	0.00e+00	0	29	0	437256192	44	6034
2026-01-15 12:37:36.24	37.06	10.67	-35.7	-36.7	22.6	0.00e+00	0	29	0	440401920	44	6034
2026-01-15 12:37:37.25	37.19	10.73	-35.8	-36.8	22.5	0.00e+00	0	29	0	443547648	44	6113
2026-01-15 12:37:38.26	37.33	10.79	-35.7	-36.7	22.6	0.00e+00	0	29	0	446693376	44	5996
2026-01-15 12:37:39.27	37.47	10.85	-35.6	-36.6	22.7	0.00e+00	0	29	0	449839104	44	5982
2026-01-15 12:37:40.28	37.60	10.91	-35.7	-36.7	22.7	0.00e+00	0	29	0	452984832	44	5997
2026-01-15 12:37:41.29	37.74	10.97	-35.5	-36.5	22.7	0.00e+00	0	29	0	456130560	44	5908
2026-01-15 12:37:42.30	37.88	11.04	-35.6	-36.6	22.7	0.00e+00	0	29	0	459276288	44	5938
2026-01-15 12:37:43.32	38.02	11.10	-35.6	-36.6	22.7	0.00e+00	0	29	0	462422016	44	5946
2026-01-15 12:37:44.33	38.16	11.16	-35.6	-36.5	22.8	0.00e+00	0	29	0	465567744	44	5917
2026-01-15 12:37:45.34	38.30	11.22	-35.6	-36.6	22.7	0.00e+00	0	29	0	468713472	44	5950
2026-01-15 12:37:46.35	38.44	11.28	-35.4	-36.4	22.7	0.00e+00	0	29	0	471859200	44	5840
2026-01-15 12:37:47.36	38.58	11.34	-35.6	-36.6	22.6	0.00e+00	0	29	0	475004928	44	5937
2026-01-15 12:37:48.37	38.73	11.40	-35.6	-36.5	22.7	0.00e+00	0	29	0	478150656	44	5918
2026-01-15 12:37:49.38	38.87	11.46	-35.5	-36.5	22.7	0.00e+00	0	29	0	481296384	44	5866
2026-01-15 12:37:50.39	39.01	11.52	-35.4	-36.3	22.8	0.00e+00	0	29	0	484442112	44	5779
2026-01-15 12:37:51.40	39.16	11.58	-35.4	-36.3	22.8	0.00e+00	0	29	0	487587840	44	5787
2026-01-15 12:37:52.41	39.30	11.64	-35.3	-36.3	22.9	0.00e+00	0	29	0	490733568	44	5728
2026-01-15 12:37:53.42	39.44	11.71	-35.4	-36.3	22.8	0.00e+00	0	29	0	493879296	44	5791
2026-01-15 12:37:54.43	39.59	11.77	-35.5	-36.5	22.7	0.00e+00	0	29	0	497025024	44	5915
2026-01-15 12:37:55.44	39.74	11.83	-35.5	-36.5	22.7	0.00e+00	0	29	0	500170752	44	5887
2026-01-15 12:37:56.45	39.88	11.89	-35.5	-36.5	22.7	0.00e+00	0	29	0	503316480	44	5909
2026-01-15 12:37:57.45	40.03	11.95	-35.6	-36.6	22.6	0.00e+00	0	29	0	506462208	44	5939
2026-01-15 12:37:58.46	40.18	12.01	-35.8	-36.8	22.6	0.00e+00	0	29	0	509607936	44	6069
2026-01-15 12:37:59.47	40.32	12.07	-35.6	-36.6	22.6	0.00e+00	0	29	0	512753664	44	5940
2026-01-15 12:38:00.48	40.47	12.13	-35.7	-36.7	22.6	0.00e+00	0	29	0	515899392	44	6019
2026-01-15 12:38:01.49	40.62	12.19	-36.0	-37.0	22.6	0.00e+00	0	29	0	519045120	44	6228
2026-01-15 12:38:02.50	40.77	12.25	-35.6	-36.7	22.4	0.00e+00	0	29	0	522190848	44	5995
2026-01-15 12:38:03.51	40.92	12.31	-35.9	-36.9	22.6	0.00e+00	0	29	0	525336576	44	6185
2026-01-15 12:38:04.52	41.07	12.37	-35.5	-36.5	22.6	0.00e+00	0	29	0	528482304	44	5871
2026-01-15 12:38:05.53	41.23	12.43	-36.0	-37.0	22.4	0.00e+00	0	29	0	531628032	44	6229
2026-01-15 12:38:06.54	41.38	12.49	-35.6	-36.6	22.6	0.00e+00	0	29	0	534773760	44	5969
2026-01-15 12:38:07.55	41.53	12.55	-36.0	-37.0	22.4	0.00e+00	0	29	0	537919488	44	6224
2026-01-15 12:38:08.56	41.69	12.61	-36.0	-37.0	22.4	0.00e+00	0	29	0	541065216	44	6225
2026-01-15 12:38:09.56	41.84	12.67	-35.9	-36.9	22.6	0.00e+00	0	29	0	544210944	44	6195
2026-01-15 12:38:10.57	41.99	12.73	-35.2	-36.2	22.9	0.00e+00	0	29	0	547356672	44	5694
2026-01-15 12:38:11.59	42.15	12.80	-35.3	-36.3	22.9	0.00e+00	0	29	0	550502400	44	5731
2026-01-15 12:38:12.59	42.31	12.86	-35.1	-36.1	23.1	0.00e+00	0	29	0	553648128	44	5601
2026-01-15 12:38:13.60	42.46	12.92	-35.0	-36.0	23.2	0.00e+00	0	29	0	556793856	44	5546
2026-01-15 12:38:14.61	42.62	12.98	-35.2	-36.2	22.9	0.00e+00	0	29	0	559939584	44	5660
2026-01-15 12:38:15.62	42.78	13.04	-35.1	-36.1	23.0	0.00e+00	0	29	0	563085312	44	5612
2026-01-15 12:38:16.63	42.94	13.10	-35.2	-36.2	23.0	0.00e+00	0	29	0	566231040	44	5672
2026-01-15 12:38:17.65	43.10	13.16	-35.3	-36.3	22.9	0.00e+00	0	29	0	569376768	44	5740
2026-01-15 12:38:18.66	43.26	13.22	-35.3	-36.3	22.9	0.00e+00	0	29	0	572522496	44	5742
2026-01-15 12:38:19.67	43.42	13.28	-35.4	-36.3	22.8	0.00e+00	0	29	0	575668224	44	5790
2026-01-15 12:38:20.67	43.58	13.34	-35.3	-36.2	22.9	0.00e+00	0	29	0	578813952	44	5723
2026-01-15 12:38:21.69	43.74	13.40	-35.4	-36.4	22.8	0.00e+00	0	29	0	581959680	44	5801
2026-01-15 12:38:22.70	43.90	13.46	-35.3	-36.2	22.9	0.00e+00	0	29	0	585105408	44	5717
2026-01-15 12:38:23.70	44.06	13.52	-35.2	-36.1	23.0	0.00e+00	0	29	0	588251136	44	5650
2026-01-15 12:38:24.71	44.23	13.58	-35.1	-36.0	23.2	0.00e+00	0	29	0	591396864	44	5591
2026-01-15 12:38:25.72	44.39	13.64	-35.1	-36.1	23.1	0.00e+00	0	29	0	594542592	44	5627
2026-01-15 12:38:26.73	44.56	13.70	-35.2	-36.2	23.1	0.00e+00	0	29	0	598736896	44	5688
2026-01-15 12:38:27.74	44.72	13.76	-35.2	-36.1	23.2	0.00e+00	0	29	0	600834048	44	5657
2026-01-15 12:38:28.75	44.89	13.81	-35.1	-36.1	23.2	0.00e+00	0	29	0	603979776	44	5603
2026-01-15 12:38:29.76	45.06	13.87	-35.0	-36.0	23.3	0.00e+00	0	29	0	607125504	44	5552
2026-01-15 12:38:30.77	45.22	13.93	-35.0	-35.9	23.4	0.00e+00	0	29	0	610271232	44	5525
2026-01-15 12:38:31.78	45.39	13.99	-34.9	-35.9	23.4	0.00e+00	0	29	0	614465536	44	5485
2026-01-15 12:38:32.79	45.56	14.05	-34.9	-35.9	23.5	0.00e+00	0	29	0	617611264	44	5475
2026-01-15 12:38:33.80	45.73	14.11	-34.9	-35.8	23.4	0.00e+00	0	29	0	620756992	44	5466
2026-01-15 12:38:34.81	45.90	14.17	-34.9	-35.8	23.4	0.00e+00	0	29	0	622854144	44	5442
2026-01-15 12:38:35.82	46.07	14.23	-35.0	-35.9	23.3	0.00e+00	0	29	0	625999872	44	5496
2026-01-15 12:38:36.83	46.24	14.29	-35.0	-35.9	23.3	0.00e+00	0	29	0	630194176	44	5528
2026-01-15 12:38:37.84	46.42	14.35	-35.2	-36.1	23.1	0.00e+00	0	29	0	633339904	44	5657
2026-01-15 12:38:38.85	46.59	14.40	-35.2	-36.2	23.0	0.00e+00	0	29	0	636485632	44	5680
2026-01-15 12:38:39.86	46.76	14.46	-35.2	-36.2	23.0	0.00e+00	0	29	0	639631360	44	5692
2026-01-15 12:38:40.87	46.94	14.52	-35.4	-36.3	23.0	0.00e+00	0	29	0	642777088	44	5783
2026-01-15 12:38:41.88	47.11	14.58	-35.1	-36.1	23.2	0.00e+00	0	29	0	645922816	44	5601
2026-01-15 12:38:42.89	47.29	14.64	-35.2	-36.2	23.1	0.00e+00	0	29	0	649068544	44	5696
2026-01-15 12:38:43.91	47.46	14.70	-35.2	-36.2	23.1	0.00e+00	0	29	0	652214272	44	5693
2026-01-15 12:38:44.92	47.64	14.75	-35.1	-36.0	23.3	0.00e+00	0	29	0	655360000	44	5567
2026-01-15 12:38:45.93	47.82	14.81	-35.1	-36.1	23.2	0.00e+00	0	29	0	658505728	44	5616
2026-01-15 12:38:46.94	48.00	14.87	-35.1	-36.0	23.3	0.00e+00	0	29	0	661651456	44	5580
2026-01-15 12:38:47.94	48.17	14.93	-35.1	-36.1	23.3	0.00e+00	0	29	0	664797184	44	5597
2026-01-15 12:38:48.96	48.36	14.99	-35.0	-35.9	23.3	0.00e+00	0	29	0	667942912	44	5515
2026-01-15 12:38:49.96	48.53	15.04	-35.1	-36.1	23.3	0.00e+00	0	29	0	671088640	44	5615
2026-01-15 12:38:50.98	48.72	15.10	-35.1	-36.1	23.3	0.00e+00	0	29	0	674234368	44	5596
2026-01-15 12:38:51.99	48.90	15.16	-35.0	-35.9	23.4	0.00e+00	0	29	0	677380096	44	5519
2026-01-15 12:38:53.00	49.08	15.21	-35.0	-36.0	23.4	0.00e+00	0	29	0	680525824	44	5541
2026-01-15 12:38:54.00	49.26	15.27	-34.9	-35.8	23.4	0.00e+00	0	29	0	683671552	44	5466
2026-01-15 12:38:55.01	49.45	15.33	-34.8	-35.7	23.5	0.00e+00	0	29	0	686817280	42	6027
2026-01-15 12:38:56.03	49.63	15.38	-34.8	-35.8	23.4	0.00e+00	0	29	0	689963008	42	6079
2026-01-15 12:38:57.04	49.82	15.44	-34.9	-35.8	23.4	0.00e+00	0	29	0	693108736	42	6101
2026-01-15 12:38:58.05	50.00	15.50	-34.8	-35.7	23.4	0.00e+00	0	29	0	696254464	42	6051
2026-01-15 12:38:59.06	50.19	15.55	-34.8	-35.8	23.4	0.00e+00	0	29	0	699400192	42	6090
2026-01-15 12:39:00.07	50.38	15.61	-34.9	-35.9	23.4	0.00e+00	0	29	0	702545920	42	6160
2026-01-15 12:39:01.07	50.56	15.67	-35.0	-35.9	23.4	0.00e+00	0	29	0	705691648	42	6195
2026-01-15 12:39:02.08	50.75	15.72	-35.1	-36.0	23.3	0.00e+00	0	29	0	708837376	42	6265
2026-01-15 12:39:03.09	50.94	15.78	-35.1	-36.0	23.2	0.00e+00	0	29	0	711983104	42	6257
2026-01-15 12:39:04.10	51.13	15.83	-35.1	-36.0	23.3	0.00e+00	0	29	0	715128832	42	6260
2026-01-15 12:39:05.11	51.32	15.89	-35.1	-36.1	23.3	0.00e+00	0	29	0	718274560	42	6314
2026-01-15 12:39:06.12	51.51	15.94	-35.0	-35.9	23.3	0.00e+00	0	29	0	721420288	42	6195
2026-01-15 12:39:07.13	51.70	16.00	-34.9	-35.9	23.4	0.00e+00	0	29	0	724566016	42	6141
2026-01-15 12:39:08.14	51.90	16.05	-34.8	-35.8	23.5	0.00e+00	0	29	0	727711744	42	6079
2026-01-15 12:39:09.15	52.09	16.11	-34.7	-35.6	23.6	0.00e+00	0	29	0	730857472	42	5983
2026-01-15 12:39:10.16	52.28	16.16	-34.7	-35.7	23.5	0.00e+00	0	29	0	734003200	42	6005
2026-01-15 12:39:11.17	52.48	16.21	-34.7	-35.6	23.6	0.00e+00	0	29	0	737148928	42	5951
2026-01-15 12:39:12.18	52.67	16.27	-34.6	-35.5	23.6	0.00e+00	0	29	0	740294656	42	5913
2026-01-15 12:39:13.19	52.87	16.32	-34.6	-35.5	23.6	0.00e+00	0	29	0	743440384	42	5908
2026-01-15 12:39:14.20	53.06	16.38	-34.7	-35.6	23.5	0.00e+00	0	29	0	746586112	42	5966
2026-01-15 12:39:15.21	53.26	16.43	-34.7	-35.7	23.5	0.00e+00	0	29	0	749731840	42	5995
2026-01-15 12:39:16.22	53.46	16.48	-34.9	-35.8	23.4	0.00e+00	0	29	0	752877568	42	6114
2026-01-15 12:39:17.23	53.66	16.53	-35.0	-35.9	23.4	0.00e+00	0	29	0	756023296	42	6185
2026-01-15 12:39:18.24	53.86	16.59	-35.0	-35.9	23.4	0.00e+00	0	29	0	759169024	42	6174
2026-01-15 12:39:19.25	54.06	16.64	-34.9	-35.8	23.5	0.00e+00	0	29	0	762314752	42	6124
2026-01-15 12:39:20.26	54.26	16.69	-34.8	-35.7	23.5	0.00e+00	0	29	0	765460480	42	6040
2026-01-15 12:39:21.27	54.46	16.74	-34.8	-35.7	23.6	0.00e+00	0	29	0	768606208	42	6047
2026-01-15 12:39:22.28	54.66	16.80	-34.6	-35.6	23.7	0.00e+00	0	29	0	771751936	42	5930
2026-01-15 12:39:23.29	54.86	16.85	-34.5	-35.4	23.9	0.00e+00	0	29	0	774897664	42	5829
2026-01-15 12:39:24.30	55.07	16.90	-34.4	-35.3	23.9	0.00e+00	0	29	0	778043392	42	5760
2026-01-15 12:39:25.31	55.27	16.95	-34.3	-35.2	24.0	0.00e+00	0	29	0	781189120	42	5703
2026-01-15 12:39:26.32	55.48	17.00	-34.3	-35.2	23.9	0.00e+00	0	29	0	784334848	42	5711
2026-01-15 12:39:27.33	55.68	17.05	-34.4	-35.3	23.8	0.00e+00	0	29	0	787480576	42	5746
2026-01-15 12:39:28.34	55.89	17.10	-34.4	-35.4	23.8	0.00e+00	0	29	0	790626304	42	5800
2026-01-15 12:39:29.36	56.10	17.15	-34.5	-35.5	23.7	0.00e+00	0	29	0	793772032	42	5871
2026-01-15 12:39:30.37	56.31	17.20	-34.5	-35.4	23.8	0.00e+00	0	29	0	796917760	42	5851
2026-01-15 12:39:31.37	56.51	17.25	-34.5	-35.5	23.7	0.00e+00	0	29	0	800063488	42	5878
2026-01-15 12:39:32.38	56.72	17.30	-34.5	-35.5	23.8	0.00e+00	0	29	0	803209216	42	5869
2026-01-15 12:39:33.39	56.93	17.35	-34.4	-35.3	23.9	0.00e+00	0	29	0	806354944	42	5771
2026-01-15 12:39:34.40	57.14	17.40	-34.5	-35.4	23.8	0.00e+00	0	29	0	809500672	42	5857
2026-01-15 12:39:35.41	57.35	17.45	-34.4	-35.4	23.8	0.00e+00	0	29	0	812646400	42	5792
2026-01-15 12:39:36.43	57.56	17.50	-34.3	-35.2	23.9	0.00e+00	0	29	0	815792128	42	5706
2026-01-15 12:39:37.44	57.78	17.55	-34.2	-35.1	24.0	0.00e+00	0	29	0	818937856	42	5612
2026-01-15 12:39:38.45	57.99	17.59	-34.2	-35.1	23.9	0.00e+00	0	29	0	822083584	42	5647
2026-01-15 12:39:39.45	58.20	17.64	-34.1	-35.1	23.9	0.00e+00	0	29	0	825229312	42	5597
2026-01-15 12:39:40.46	58.42	17.69	-34.3	-35.2	23.8	0.00e+00	0	29	0	828375040	42	5718
2026-01-15 12:39:41.47	58.63	17.73	-34.3	-35.3	23.8	0.00e+00	0	29	0	831520768	42	5733
2026-01-15 12:39:42.48	58.85	17.78	-34.3	-35.3	23.9	0.00e+00	0	29	0	834666496	42	5731
2026-01-15 12:39:43.49	59.06	17.83	-34.2	-35.1	23.9	0.00e+00	0	29	0	837812224	42	5653
2026-01-15 12:39:44.50	59.28	17.87	-34.2	-35.2	23.9	0.00e+00	0	29	0	840957952	42	5678
2026-01-15 12:39:45.51	59.50	17.92	-34.2	-35.1	24.0	0.00e+00	0	29	0	844103680	42	5614
2026-01-15 12:39:46.52	59.71	17.96	-34.4	-35.3	23.8	0.00e+00	0	29	0	847249408	42	5785
2026-01-15 12:39:47.53	59.93	18.01	-34.1	-35.0	24.0	0.00e+00	0	29	0	850395136	42	5560
2026-01-15 12:39:48.54	60.15	18.05	-34.1	-35.0	24.0	0.00e+00	0	29	0	853540864	42	5580
2026-01-15 12:39:49.55	60.37	18.10	-34.1	-35.0	24.0	0.00e+00	0	29	0	856686592	42	5587
2026-01-15 12:39:50.56	60.59	18.14	-34.0	-34.9	24.1	0.00e+00	0	29	0	859832320	42	5472
2026-01-15 12:39:51.57	60.81	18.19	-33.9	-34.8	24.1	0.00e+00	0	29	0	862978048	42	5419
2026-01-15 12:39:52.58	61.04	18.23	-33.9	-34.9	24.1	0.00e+00	0	29	0	866123776	42	5473
2026-01-15 12:39:53.59	61.26	18.27	-33.9	-34.8	24.2	0.00e+00	0	29	0	869269504	42	5465
2026-01-15 12:39:54.60	61.48	18.32	-33.9	-34.9	24.1	0.00e+00	0	29	0	872415232	42	5483
2026-01-15 12:39:55.61	61.70	18.36	-33.8	-34.8	24.2	0.00e+00	0	29	0	875560960	42	5434
2026-01-15 12:39:56.62	61.93	18.40	-33.8	-34.8	24.2	0.00e+00	0	29	0	878706688	42	5426
2026-01-15 12:39:57.63	62.15	18.44	-33.9	-34.8	24.1	0.00e+00	0	29	0	881852416	42	5452
2026-01-15 12:39:58.64	62.38	18.48	-33.9	-34.8	24.0	0.00e+00	0	29	0	884998144	42	5459
2026-01-15 12:39:59.65	62.61	18.52	-33.9	-34.8	24.0	0.00e+00	0	29	0	888143872	42	5462
2026-01-15 12:40:00.66	62.83	18.56	-33.9	-34.8	24.1	0.00e+00	0	29	0	891289600	42	5438
2026-01-15 12:40:01.67	63.06	18.60	-34.0	-34.9	24.1	0.00e+00	0	29	0	894435328	42	5506
2026-01-15 12:40:02.68	63.29	18.64	-33.7	-34.7	24.3	0.00e+00	0	29	0	897581056	40	6017
2026-01-15 12:40:03.69	63.52	18.68	-33.9	-34.9	24.1	0.00e+00	0	29	0	900726784	40	6168
2026-01-15 12:40:04.70	63.74	18.72	-34.0	-34.9	24.2	0.00e+00	0	29	0	903872512	40	6199
2026-01-15 12:40:05.71	63.97	18.76	-34.1	-35.1	24.1	0.00e+00	0	29	0	907018240	40	6292
2026-01-15 12:40:06.72	64.20	18.80	-33.8	-34.8	24.2	0.00e+00	0	29	0	910163968	40	6079
2026-01-15 12:40:07.73	64.44	18.84	-34.0	-34.9	24.2	0.00e+00	0	29	0	914358272	40	6202
2026-01-15 12:40:08.74	64.67	18.88	-33.9	-34.8	24.1	0.00e+00	0	29	0	916455424	40	6073
2026-01-15 12:40:09.75	64.90	18.91	-34.1	-35.0	24.0	0.00e+00	0	29	0	919601152	40	6263
2026-01-15 12:40:10.76	65.13	18.95	-34.2	-35.1	24.0	0.00e+00	0	29	0	922746880	40	6326
2026-01-15 12:40:11.77	65.36	18.99	-34.3	-35.2	23.7	0.00e+00	0	29	0	925892608	40	6414
2026-01-15 12:40:12.78	65.60	19.02	-34.7	-35.7	23.8	0.00e+00	0	29	0	929038336	40	6744
2026-01-15 12:40:13.79	65.83	19.06	-34.7	-35.6	23.5	0.00e+00	0	29	0	933232640	42	5985
2026-01-15 12:40:14.80	66.07	19.09	-34.6	-35.6	24.0	0.00e+00	0	29	0	936378368	42	5928
2026-01-15 12:40:15.81	66.30	19.13	-34.2	-35.1	24.1	0.00e+00	0	29	0	938475520	42	5626
2026-01-15 12:40:16.82	66.54	19.16	-33.6	-34.5	24.5	0.00e+00	0	29	0	941621248	40	5873
2026-01-15 12:40:17.83	66.77	19.20	-33.7	-34.6	24.3	0.00e+00	0	29	0	944766976	40	5948
2026-01-15 12:40:18.84	67.01	19.23	-33.6	-34.5	24.4	0.00e+00	0	29	0	948961280	40	5872
2026-01-15 12:40:19.85	67.25	19.26	-33.7	-34.6	24.3	0.00e+00	0	29	0	952107008	40	5971
2026-01-15 12:40:20.86	67.48	19.29	-33.7	-34.6	24.3	0.00e+00	0	29	0	955252736	40	5966
2026-01-15 12:40:21.87	67.72	19.33	-33.8	-34.7	24.2	0.00e+00	0	29	0	958398464	40	6048
2026-01-15 12:40:22.88	67.96	19.36	-33.7	-34.7	24.3	0.00e+00	0	29	0	961544192	40	5996
2026-01-15 12:40:23.88	68.20	19.39	-33.8	-34.8	24.3	0.00e+00	0	29	0	964689920	40	6068
2026-01-15 12:40:24.90	68.44	19.42	-33.8	-34.7	24.4	0.00e+00	0	29	0	967835648	40	6026
2026-01-15 12:40:25.91	68.68	19.45	-33.6	-34.5	24.5	0.00e+00	0	29	0	970981376	40	5923
2026-01-15 12:40:26.92	68.92	19.48	-33.8	-34.7	24.3	0.00e+00	0	29	0	974127104	40	6024
2026-01-15 12:40:27.93	69.16	19.51	-33.7	-34.6	24.4	0.00e+00	0	29	0	977272832	40	5980
2026-01-15 12:40:28.93	69.40	19.54	-33.6	-34.5	24.4	0.00e+00	0	29	0	980418560	40	5896
2026-01-15 12:40:29.94	69.64	19.57	-33.6	-34.6	24.4	0.00e+00	0	29	0	983564288	40	5936
2026-01-15 12:40:30.95	69.89	19.60	-33.7	-34.7	24.4	0.00e+00	0	29	0	986710016	40	5995
2026-01-15 12:40:31.96	70.13	19.62	-33.8	-34.7	24.4	0.00e+00	0	29	0	989855744	40	6060
2026-01-15 12:40:32.97	70.37	19.65	-33.6	-34.5	24.5	0.00e+00	0	29	0	993001472	40	5906
2026-01-15 12:40:33.98	70.62	19.68	-33.7	-34.7	24.5	0.00e+00	0	29	0	996147200	40	6012
2026-01-15 12:40:34.99	70.86	19.70	-33.6	-34.5	24.6	0.00e+00	0	29	0	999292928	40	5893
2026-01-15 12:40:36.00	71.10	19.73	-33.6	-34.5	24.6	0.00e+00	0	29	0	1002438656	40	5900
2026-01-15 12:40:37.01	71.35	19.75	-33.7	-34.6	24.4	0.00e+00	0	29	0	1005584384	40	5980
2026-01-15 12:40:38.02	71.59	19.78	-33.8	-34.7	24.3	0.00e+00	0	29	0	1008730112	40	6033
2026-01-15 12:40:39.03	71.84	19.80	-33.8	-34.7	24.3	0.00e+00	0	29	0	1011875840	40	6004
2026-01-15 12:40:40.04	72.09	19.83	-33.8	-34.7	24.2	0.00e+00	0	29	0	1015021568	40	6064
2026-01-15 12:40:41.05	72.33	19.85	-33.8	-34.7	24.3	0.00e+00	0	29	0	1018167296	40	6038
2026-01-15 12:40:42.05	72.58	19.87	-33.8	-34.6	24.4	0.00e+00	0	29	0	1021313024	40	5990
2026-01-15 12:40:43.06	72.82	19.89	-33.8	-34.7	24.4	0.00e+00	0	29	0	1024458752	40	6003
2026-01-15 12:40:44.07	73.07	19.92	-33.8	-34.7	24.4	0.00e+00	0	29	0	1027604480	40	6015
2026-01-15 12:40:45.08	73.32	19.94	-33.9	-34.8	24.3	0.00e+00	0	29	0	1030750208	40	6098
2026-01-15 12:40:46.10	73.57	19.96	-33.8	-34.7	24.2	0.00e+00	0	29	0	1033895936	40	6050
2026-01-15 12:40:47.11	73.82	19.98	-33.9	-34.8	24.2	0.00e+00	0	29	0	1037041664	40	6120
2026-01-15 12:40:48.12	74.07	20.00	-34.0	-34.9	24.2	0.00e+00	0	29	0	1040187392	40	6175
2026-01-15 12:40:49.13	74.32	20.02	-33.9	-34.8	24.2	0.00e+00	0	29	0	1043333120	40	6087
2026-01-15 12:40:50.14	74.57	20.03	-33.8	-34.7	24.3	0.00e+00	0	29	0	1046478848	40	6051
2026-01-15 12:40:51.15	74.82	20.05	-33.9	-34.8	24.3	0.00e+00	0	29	0	1049624576	40	6087
2026-01-15 12:40:52.16	75.07	20.07	-33.9	-34.8	24.3	0.00e+00	0	29	0	1052770304	40	6080
2026-01-15 12:40:53.17	75.32	20.09	-33.9	-34.8	24.2	0.00e+00	0	29	0	1055916032	40	6122
2026-01-15 12:40:54.18	75.57	20.10	-33.8	-34.7	24.3	0.00e+00	0	29	0	1059061760	40	6031
2026-01-15 12:40:55.19	75.82	20.12	-33.7	-34.6	24.4	0.00e+00	0	29	0	1062207488	40	5987
2026-01-15 12:40:56.20	76.07	20.14	-33.7	-34.6	24.3	0.00e+00	0	29	0	1065353216	40	5947
2026-01-15 12:40:57.21	76.32	20.15	-33.7	-34.7	24.3	0.00e+00	0	29	0	1068498944	40	6016
2026-01-15 12:40:58.22	76.57	20.16	-33.8	-34.7	24.3	0.00e+00	0	29	0	1071644672	40	6056
2026-01-15 12:40:59.23	76.82	20.18	-33.7	-34.6	24.4	0.00e+00	0	29	0	1074790400	40	5975
2026-01-15 12:41:00.24	77.08	20.19	-33.7	-34.7	24.3	0.00e+00	0	29	0	1077936128	40	6009
2026-01-15 12:41:01.25	77.33	20.20	-33.7	-34.6	24.4	0.00e+00	0	29	0	1081081856	40	5961
2026-01-15 12:41:02.26	77.58	20.22	-33.8	-34.7	24.3	0.00e+00	0	29	0	1084227584	40	6028
2026-01-15 12:41:03.27	77.83	20.23	-33.9	-34.8	24.2	0.00e+00	0	29	0	1087373312	40	6103
2026-01-15 12:41:04.28	78.09	20.24	-33.8	-34.7	24.3	0.00e+00	0	29	0	1090519040	40	6058
2026-01-15 12:41:05.29	78.34	20.25	-33.9	-34.9	24.2	0.00e+00	0	29	0	1093664768	40	6140
2026-01-15 12:41:06.30	78.59	20.26	-33.8	-34.7	24.4	0.00e+00	0	29	0	1096810496	40	6045
2026-01-15 12:41:07.31	78.85	20.27	-33.8	-34.8	24.3	0.00e+00	0	29	0	1099956224	40	6065
2026-01-15 12:41:08.32	79.10	20.28	-34.0	-34.9	24.2	0.00e+00	0	29	0	1103101952	40	6163
2026-01-15 12:41:09.33	79.35	20.29	-34.0	-34.9	24.2	0.00e+00	0	29	0	1106247680	40	6185
2026-01-15 12:41:10.34	79.61	20.29	-34.0	-34.9	24.1	0.00e+00	0	29	0	1109393408	40	6167
2026-01-15 12:41:11.35	79.86	20.30	-34.0	-34.9	24.2	0.00e+00	0	29	0	1112539136	40	6194
2026-01-15 12:41:12.36	80.12	20.31	-34.0	-34.9	24.1	0.00e+00	0	29	0	1115684864	40	6203
2026-01-15 12:41:13.37	80.37	20.31	-33.8	-34.7	24.3	0.00e+00	0	29	0	1118830592	40	6037
2026-01-15 12:41:14.38	80.62	20.32	-33.8	-34.7	24.2	0.00e+00	0	29	0	1121976320	40	6057
2026-01-15 12:41:15.39	80.88	20.32	-33.7	-34.7	24.2	0.00e+00	0	29	0	1125122048	40	6018
2026-01-15 12:41:16.39	81.13	20.33	-33.7	-34.7	24.2	0.00e+00	0	29	0	1128267776	40	5997
2026-01-15 12:41:17.40	81.38	20.33	-33.7	-34.6	24.3	0.00e+00	0	29	0	1131413504	40	5967
2026-01-15 12:41:18.42	81.64	20.34	-33.7	-34.7	24.3	0.00e+00	0	29	0	1134559232	40	5998
2026-01-15 12:41:19.43	81.90	20.34	-33.7	-34.6	24.4	0.00e+00	0	29	0	1137704960	40	5987
2026-01-15 12:41:20.44	82.15	20.34	-33.7	-34.6	24.3	0.00e+00	0	29	0	1140850688	40	5957
2026-01-15 12:41:21.45	82.41	20.34	-33.8	-34.8	24.2	0.00e+00	0	29	0	1143996416	40	6066
2026-01-15 12:41:22.46	82.66	20.34	-33.8	-34.7	24.3	0.00e+00	0	29	0	1147142144	40	6011
2026-01-15 12:41:23.47	82.92	20.34	-33.8	-34.8	24.2	0.00e+00	0	29	0	1150287872	40	6079
2026-01-15 12:41:24.48	83.17	20.34	-33.8	-34.7	24.3	0.00e+00	0	29	0	1153433600	40	6036
2026-01-15 12:41:25.48	83.42	20.34	-33.9	-34.9	24.2	0.00e+00	0	29	0	1156579328	40	6158
2026-01-15 12:41:26.49	83.68	20.34	-33.8	-34.7	24.3	0.00e+00	0	29	0	1159725056	40	6047
2026-01-15 12:41:27.50	83.93	20.34	-33.9	-34.8	24.3	0.00e+00	0	29	0	1162870784	40	6070
2026-01-15 12:41:28.51	84.19	20.34	-33.8	-34.7	24.4	0.00e+00	0	29	0	1166016512	40	6035
2026-01-15 12:41:29.52	84.44	20.34	-33.7	-34.6	24.3	0.00e+00	0	29	0	1169162240	40	5985
2026-01-15 12:41:30.52	84.69	20.33	-34.0	-34.9	24.1	0.00e+00	0	29	0	1172307968	40	6167
2026-01-15 12:41:31.53	84.95	20.33	-33.9	-34.8	24.1	0.00e+00	0	29	0	1175453696	40	6122
2026-01-15 12:41:32.54	85.20	20.32	-34.3	-35.2	24.0	0.00e+00	0	29	0	1178599424	40	6422
2026-01-15 12:41:33.55	85.46	20.32	-34.1	-35.0	24.1	0.00e+00	0	29	0	1181745152	40	6226
2026-01-15 12:41:34.56	85.71	20.31	-34.0	-34.9	24.0	0.00e+00	0	29	0	1184890880	40	6204
2026-01-15 12:41:35.57	85.97	20.31	-34.3	-35.2	24.1	0.00e+00	0	29	0	1188036608	40	6367
2026-01-15 12:41:36.57	86.22	20.30	-34.1	-35.0	24.0	0.00e+00	0	29	0	1191182336	40	6247
2026-01-15 12:41:37.58	86.47	20.29	-34.4	-35.3	24.2	0.00e+00	0	29	0	1194328064	40	6439
2026-01-15 12:41:38.60	86.73	20.29	-34.1	-35.0	23.9	0.00e+00	0	29	0	1197473792	40	6274
2026-01-15 12:41:39.60	86.98	20.28	-34.4	-35.3	23.9	0.00e+00	0	29	0	1200619520	40	6451
2026-01-15 12:41:40.61	87.23	20.27	-34.7	-35.7	23.7	0.00e+00	0	29	0	1203765248	40	6732
2026-01-15 12:41:41.62	87.49	20.26	-34.5	-35.4	23.7	0.00e+00	0	29	0	1206910976	42	5855
2026-01-15 12:41:42.63	87.74	20.25	-34.7	-35.6	23.7	0.00e+00	0	29	0	1210056704	42	5993
2026-01-15 12:41:43.64	87.99	20.24	-34.9	-35.8	23.4	0.00e+00	0	29	0	1213202432	42	6115
2026-01-15 12:41:44.65	88.25	20.23	-34.8	-35.7	23.5	0.00e+00	0	29	0	1216348160	42	6051
2026-01-15 12:41:45.66	88.50	20.22	-35.0	-35.9	23.6	0.00e+00	0	29	0	1219493888	42	6168
2026-01-15 12:41:46.67	88.75	20.20	-34.7	-35.7	23.8	0.00e+00	0	29	0	1222639616	42	5999
2026-01-15 12:41:47.69	89.01	20.19	-34.9	-35.9	23.6	0.00e+00	0	29	0	1225785344	42	6150
2026-01-15 12:41:48.70	89.26	20.18	-34.3	-35.3	24.0	0.00e+00	0	29	0	1228931072	42	5740
2026-01-15 12:41:49.71	89.51	20.16	-34.5	-35.4	23.9	0.00e+00	0	29	0	1232076800	42	5852
2026-01-15 12:41:50.72	89.76	20.15	-34.0	-34.9	24.1	0.00e+00	0	29	0	1235222528	42	5476
2026-01-15 12:41:51.73	90.02	20.13	-33.9	-34.8	24.3	0.00e+00	0	29	0	1238368256	42	5409
2026-01-15 12:41:52.74	90.27	20.12	-33.6	-34.5	24.3	0.00e+00	0	29	0	1241513984	40	5913
2026-01-15 12:41:53.75	90.52	20.10	-33.5	-34.4	24.5	0.00e+00	0	29	0	1244659712	40	5816
2026-01-15 12:41:54.76	90.77	20.09	-33.7	-34.6	24.3	0.00e+00	0	29	0	1247805440	40	5944
2026-01-15 12:41:55.77	91.02	20.07	-33.6	-34.6	24.4	0.00e+00	0	29	0	1250951168	40	5937
2026-01-15 12:41:56.77	91.27	20.05	-33.5	-34.4	24.5	0.00e+00	0	29	0	1254096896	40	5841
2026-01-15 12:41:57.79	91.52	20.03	-33.7	-34.6	24.4	0.00e+00	0	29	0	1257242624	40	5971
2026-01-15 12:41:58.80	91.77	20.01	-33.6	-34.5	24.4	0.00e+00	0	29	0	1260388352	40	5921
2026-01-15 12:41:59.80	92.02	20.00	-33.6	-34.5	24.5	0.00e+00	0	29	0	1263534080	40	5895
2026-01-15 12:42:00.82	92.27	19.98	-33.6	-34.5	24.4	0.00e+00	0	29	0	1266679808	40	5910
2026-01-15 12:42:01.82	92.52	19.96	-33.6	-34.4	24.5	0.00e+00	0	29	0	1269825536	40	5855
2026-01-15 12:42:02.84	92.77	19.93	-33.5	-34.4	24.5	0.00e+00	0	29	0	1274019840	40	5813
2026-01-15 12:42:03.85	93.01	19.91	-33.6	-34.5	24.5	0.00e+00	0	29	0	1277165568	40	5887
2026-01-15 12:42:04.86	93.26	19.89	-33.4	-34.2	24.6	0.00e+00	0	29	0	1279262720	40	5720
2026-01-15 12:42:05.87	93.51	19.87	-33.3	-34.2	24.7	0.00e+00	0	29	0	1282408448	40	5692
2026-01-15 12:42:06.88	93.76	19.85	-33.4	-34.3	24.6	0.00e+00	0	29	0	1285554176	40	5731
2026-01-15 12:42:07.89	94.00	19.82	-33.4	-34.3	24.6	0.00e+00	0	29	0	1289748480	40	5744
2026-01-15 12:42:08.90	94.25	19.80	-33.4	-34.3	24.6	0.00e+00	0	29	0	1292894208	40	5729
2026-01-15 12:42:09.91	94.50	19.78	-33.5	-34.4	24.6	0.00e+00	0	29	0	1296039936	40	5803
2026-01-15 12:42:10.92	94.74	19.75	-33.3	-34.2	24.7	0.00e+00	0	29	0	1299185664	40	5690
2026-01-15 12:42:11.93	94.99	19.73	-33.4	-34.3	24.6	0.00e+00	0	29	0	1302331392	40	5764
2026-01-15 12:42:12.94	95.23	19.70	-33.4	-34.3	24.5	0.00e+00	0	29	0	1305477120	40	5770
2026-01-15 12:42:13.95	95.48	19.67	-33.4	-34.4	24.5	0.00e+00	0	29	0	1308622848	40	5805
2026-01-15 12:42:14.96	95.72	19.65	-33.6	-34.6	24.4	0.00e+00	0	29	0	1311768576	40	5929
2026-01-15 12:42:15.97	95.97	19.62	-33.7	-34.6	24.3	0.00e+00	0	29	0	1314914304	40	5968
2026-01-15 12:42:16.98	96.21	19.59	-33.8	-34.7	24.3	0.00e+00	0	29	0	1318060032	40	6054
2026-01-15 12:42:17.99	96.45	19.56	-33.8	-34.7	24.3	0.00e+00	0	29	0	1321205760	40	6030
2026-01-15 12:42:19.00	96.69	19.54	-33.7	-34.6	24.4	0.00e+00	0	29	0	1324351488	40	5958
2026-01-15 12:42:20.01	96.94	19.51	-33.7	-34.6	24.4	0.00e+00	0	29	0	1327497216	40	5928
2026-01-15 12:42:21.02	97.18	19.48	-33.8	-34.7	24.3	0.00e+00	0	29	0	1330642944	40	5998
2026-01-15 12:42:22.03	97.42	19.45	-33.7	-34.6	24.4	0.00e+00	0	29	0	1333788672	40	5938
2026-01-15 12:42:23.04	97.66	19.42	-33.5	-34.4	24.4	0.00e+00	0	29	0	1336934400	40	5831
2026-01-15 12:42:24.05	97.90	19.39	-33.5	-34.4	24.5	0.00e+00	0	29	0	1340080128	40	5851
2026-01-15 12:42:25.06	98.14	19.35	-33.5	-34.4	24.5	0.00e+00	0	29	0	1343225856	40	5841
2026-01-15 12:42:26.07	98.38	19.32	-33.5	-34.4	24.6	0.00e+00	0	29	0	1346371584	40	5809
2026-01-15 12:42:27.08	98.62	19.29	-33.6	-34.5	24.4	0.00e+00	0	29	0	1349517312	40	5925
2026-01-15 12:42:28.09	98.86	19.26	-33.7	-34.6	24.5	0.00e+00	0	30	0	1352663040	40	5954
2026-01-15 12:42:29.10	99.09	19.22	-33.6	-34.5	24.3	0.00e+00	0	29	0	1355808768	40	5908
2026-01-15 12:42:30.11	99.33	19.19	-33.8	-34.7	24.3	0.00e+00	0	29	0	1358954496	40	6024
2026-01-15 12:42:31.12	99.57	19.16	-33.7	-34.7	24.3	0.00e+00	0	30	0	1362100224	40	6004
2026-01-15 12:42:32.13	99.80	19.12	-34.0	-34.9	24.4	0.00e+00	0	29	0	1365245952	40	6159
2026-01-15 12:42:33.14	100.04	19.09	-33.9	-34.8	24.4	0.00e+00	0	29	0	1368391680	40	6122
2026-01-15 12:42:34.15	100.28	19.05	-33.6	-34.5	24.4	0.00e+00	0	30	0	1371537408	40	5881
2026-01-15 12:42:35.16	100.51	19.02	-33.7	-34.6	24.4	0.00e+00	0	29	0	1374683136	40	5932
2026-01-15 12:42:36.17	100.74	18.98	-33.6	-34.4	24.4	0.00e+00	0	29	0	1377828864	40	5855
2026-01-15 12:42:37.18	100.98	18.94	-33.7	-34.6	24.4	0.00e+00	0	29	0	1380974592	40	5968
2026-01-15 12:42:38.18	101.21	18.91	-33.7	-34.6	24.3	0.00e+00	0	29	0	1384120320	40	5951
2026-01-15 12:42:39.19	101.44	18.87	-33.9	-34.8	24.2	0.00e+00	0	29	0	1387266048	40	6080
2026-01-15 12:42:40.20	101.67	18.83	-33.6	-34.5	24.5	0.00e+00	0	29	0	1390411776	40	5883
2026-01-15 12:42:41.21	101.91	18.79	-33.7	-34.6	24.4	0.00e+00	0	29	0	1393557504	40	5961
2026-01-15 12:42:42.22	102.14	18.75	-33.5	-34.4	24.5	0.00e+00	0	29	0	1396703232	40	5832
2026-01-15 12:42:43.23	102.37	18.72	-33.5	-34.4	24.4	0.00e+00	0	29	0	1399848960	40	5857
2026-01-15 12:42:44.24	102.60	18.68	-33.5	-34.4	24.4	0.00e+00	0	29	0	1402994688	40	5840
2026-01-15 12:42:45.25	102.83	18.64	-33.6	-34.6	24.2	0.00e+00	0	29	0	1406140416	40	5933
2026-01-15 12:42:46.26	103.05	18.60	-33.7	-34.6	24.3	0.00e+00	0	29	0	1409286144	40	5981
2026-01-15 12:42:47.27	103.28	18.56	-33.6	-34.6	24.3	0.00e+00	0	29	0	1412431872	40	5930
2026-01-15 12:42:48.28	103.51	18.51	-33.5	-34.5	24.5	0.00e+00	0	29	0	1415577600	40	5866
2026-01-15 12:42:49.29	103.74	18.47	-33.5	-34.5	24.3	0.00e+00	0	29	0	1418723328	40	5909
2026-01-15 12:42:50.30	103.96	18.43	-33.5	-34.6	24.2	0.00e+00	0	29	0	1421869056	40	5989
2026-01-15 12:42:51.31	104.19	18.39	-33.5	-34.6	24.3	0.00e+00	0	29	0	1425014784	40	5977
2026-01-15 12:42:52.32	104.41	18.35	-33.4	-34.6	24.2	0.00e+00	0	29	0	1428160512	40	5983
2026-01-15 12:42:53.33	104.64	18.31	-33.5	-34.7	24.2	0.00e+00	0	29	0	1431306240	40	6005
2026-01-15 12:42:54.34	104.86	18.26	-33.6	-34.7	24.0	0.00e+00	0	29	0	1434451968	40	6000
2026-01-15 12:42:55.35	105.08	18.22	-33.8	-34.8	23.9	0.00e+00	0	29	0	1437597696	40	6119
2026-01-15 12:42:56.36	105.31	18.17	-34.0	-35.0	23.9	0.00e+00	0	29	0	1440743424	40	6224
2026-01-15 12:42:57.37	105.53	18.13	-34.0	-34.9	23.9	0.00e+00	0	29	0	1443889152	40	6196
2026-01-15 12:42:58.38	105.75	18.09	-34.0	-34.9	23.9	0.00e+00	0	29	0	1447034880	40	6171
2026-01-15 12:42:59.39	105.97	18.04	-33.8	-34.8	24.0	0.00e+00	0	29	0	1450180608	40	6106
2026-01-15 12:43:00.40	106.19	18.00	-33.9	-34.8	24.0	0.00e+00	0	29	0	1453326336	40	6114
2026-01-15 12:43:01.41	106.41	17.95	-34.0	-35.0	24.0	0.00e+00	0	29	0	1456472064	40	6229
2026-01-15 12:43:02.42	106.63	17.91	-33.9	-34.9	24.0	0.00e+00	0	29	0	1459617792	40	6160
2026-01-15 12:43:03.43	106.85	17.86	-34.1	-35.0	24.0	0.00e+00	0	29	0	1462763520	40	6255
2026-01-15 12:43:04.44	107.06	17.81	-34.1	-35.1	24.0	0.00e+00	0	29	0	1465909248	40	6287
2026-01-15 12:43:05.44	107.28	17.77	-34.1	-35.0	23.9	0.00e+00	0	29	0	1469054976	40	6269
2026-01-15 12:43:06.45	107.50	17.72	-34.3	-35.2	23.7	0.00e+00	0	29	0	1472200704	40	6386
2026-01-15 12:43:07.46	107.71	17.67	-34.1	-35.1	23.8	0.00e+00	0	29	0	1475346432	40	6300
2026-01-15 12:43:08.47	107.93	17.63	-34.0	-35.0	23.8	0.00e+00	0	29	0	1478492160	40	6218
2026-01-15 12:43:09.48	108.14	17.58	-34.0	-35.0	23.6	0.00e+00	0	29	0	1481637888	40	6239
2026-01-15 12:43:10.49	108.35	17.53	-34.0	-35.0	23.6	0.00e+00	0	29	0	1484783616	40	6255
2026-01-15 12:43:11.50	108.57	17.48	-34.0	-35.0	23.7	0.00e+00	0	29	0	1487929344	40	6207
2026-01-15 12:43:12.51	108.78	17.43	-34.0	-35.0	23.9	0.00e+00	0	29	0	1491075072	40	6210
2026-01-15 12:43:13.52	108.99	17.38	-34.0	-35.0	23.9	0.00e+00	0	29	0	1494220800	40	6246
2026-01-15 12:43:14.53	109.20	17.33	-33.7	-34.8	24.2	0.00e+00	0	29	0	1497366528	40	6069
2026-01-15 12:43:15.54	109.41	17.28	-33.5	-34.6	24.3	0.00e+00	0	29	0	1500512256	40	5956
2026-01-15 12:43:16.55	109.62	17.24	-33.7	-34.7	24.2	0.00e+00	0	29	0	1503657984	40	6034
2026-01-15 12:43:17.56	109.83	17.19	-33.7	-34.7	24.2	0.00e+00	0	29	0	1506803712	40	6028
2026-01-15 12:43:18.57	110.04	17.13	-33.9	-34.9	24.1	0.00e+00	0	29	0	1509949440	40	6146
2026-01-15 12:43:19.58	110.25	17.08	-34.1	-35.0	23.9	0.00e+00	0	29	0	1513095168	40	6272
2026-01-15 12:43:20.58	110.45	17.03	-34.2	-35.2	23.8	0.00e+00	0	29	0	1516240896	40	6354
2026-01-15 12:43:21.59	110.66	16.98	-34.4	-35.3	23.7	0.00e+00	0	29	0	1519386624	40	6450
2026-01-15 12:43:22.61	110.86	16.93	-34.4	-35.3	23.7	0.00e+00	0	29	0	1522532352	40	6450
2026-01-15 12:43:23.61	111.07	16.88	-34.4	-35.4	23.6	0.00e+00	0	29	0	1525678080	40	6504
2026-01-15 12:43:24.62	111.27	16.83	-34.4	-35.3	23.6	0.00e+00	0	29	0	1528823808	40	6457
2026-01-15 12:43:25.63	111.47	16.78	-34.2	-35.2	23.8	0.00e+00	0	29	0	1531969536	40	6353
2026-01-15 12:43:26.64	111.68	16.72	-34.3	-35.2	23.7	0.00e+00	0	29	0	1535115264	40	6399
2026-01-15 12:43:27.65	111.88	16.67	-34.3	-35.2	23.8	0.00e+00	0	29	0	1538260992	40	6411
2026-01-15 12:43:28.66	112.08	16.62	-34.0	-34.9	24.1	0.00e+00	0	29	0	1541406720	40	6184
2026-01-15 12:43:29.67	112.28	16.57	-33.9	-34.9	24.1	0.00e+00	0	29	0	1544552448	40	6151
2026-01-15 12:43:30.68	112.48	16.51	-34.0	-35.0	24.0	0.00e+00	0	29	0	1547698176	40	6211
2026-01-15 12:43:31.69	112.68	16.46	-34.1	-35.0	24.0	0.00e+00	0	29	0	1550843904	40	6250
2026-01-15 12:43:32.70	112.88	16.41	-34.1	-35.0	24.1	0.00e+00	0	29	0	1553989632	40	6238
2026-01-15 12:43:33.71	113.08	16.35	-34.2	-35.1	24.0	0.00e+00	0	29	0	1557135360	40	6329
2026-01-15 12:43:34.72	113.28	16.30	-34.3	-35.2	23.9	0.00e+00	0	29	0	1560281088	40	6399
2026-01-15 12:43:35.73	113.47	16.24	-34.6	-35.5	23.7	0.00e+00	0	29	0	1563426816	40	6636
2026-01-15 12:43:36.74	113.67	16.19	-34.6	-35.6	23.6	0.00e+00	0	29	0	1566572544	40	6655
2026-01-15 12:43:37.75	113.86	16.14	-34.6	-35.6	23.6	0.00e+00	0	30	0	1569718272	40	6672
2026-01-15 12:43:38.76	114.06	16.08	-34.6	-35.6	23.7	0.00e+00	0	29	0	1572864000	40	6696
2026-01-15 12:43:39.77	114.25	16.03	-34.8	-35.7	23.6	0.00e+00	0	29	0	1576009728	40	6800
2026-01-15 12:43:40.78	114.45	15.97	-34.6	-35.6	23.5	0.00e+00	0	29	0	1579155456	42	5967
2026-01-15 12:43:41.79	114.64	15.92	-34.4	-35.5	23.6	0.00e+00	0	29	0	1582301184	42	5868
2026-01-15 12:43:42.80	114.83	15.86	-34.4	-35.4	23.6	0.00e+00	0	29	0	1585446912	42	5844
2026-01-15 12:43:43.81	115.02	15.80	-34.3	-35.4	23.7	0.00e+00	0	29	0	1588592640	42	5798
2026-01-15 12:43:44.82	115.21	15.75	-34.2	-35.2	23.8	0.00e+00	0	29	0	1591738368	42	5693
2026-01-15 12:43:45.84	115.40	15.69	-34.2	-35.2	23.9	0.00e+00	0	29	0	1594884096	42	5695
2026-01-15 12:43:46.85	115.59	15.64	-34.3	-35.2	23.9	0.00e+00	0	29	0	1598029824	42	5709
2026-01-15 12:43:47.85	115.78	15.58	-34.4	-35.4	23.7	0.00e+00	0	29	0	1601175552	42	5817
2026-01-15 12:43:48.86	115.97	15.52	-34.5	-35.4	23.7	0.00e+00	0	29	0	1604321280	42	5843
2026-01-15 12:43:49.87	116.15	15.47	-34.5	-35.5	23.6	0.00e+00	0	29	0	1607467008	42	5868
2026-01-15 12:43:50.88	116.34	15.41	-34.5	-35.5	23.6	0.00e+00	0	29	0	1611661312	42	5899
2026-01-15 12:43:51.89	116.53	15.35	-34.7	-35.6	23.5	0.00e+00	0	29	0	1614807040	42	5987
2026-01-15 12:43:52.90	116.71	15.30	-34.8	-35.8	23.4	0.00e+00	0	29	0	1617952768	42	6080
2026-01-15 12:43:53.91	116.89	15.24	-34.8	-35.8	23.5	0.00e+00	0	29	0	1620049920	42	6103
2026-01-15 12:43:54.92	117.08	15.18	-34.7	-35.7	23.5	0.00e+00	0	29	0	1623195648	42	5995
2026-01-15 12:43:55.93	117.26	15.12	-34.7	-35.7	23.4	0.00e+00	0	29	0	1627389952	42	6005
2026-01-15 12:43:56.94	117.44	15.07	-34.8	-35.8	23.4	0.00e+00	0	29	0	1630535680	42	6079
2026-01-15 12:43:57.95	117.63	15.01	-34.7	-35.6	23.5	0.00e+00	0	29	0	1633681408	42	5981
2026-01-15 12:43:58.96	117.81	14.95	-34.7	-35.6	23.5	0.00e+00	0	29	0	1636827136	42	5989
2026-01-15 12:43:59.97	117.99	14.89	-34.7	-35.6	23.4	0.00e+00	0	29	0	1639972864	42	5959
2026-01-15 12:44:00.98	118.17	14.83	-34.6	-35.6	23.4	0.00e+00	0	29	0	1642070016	42	5991
2026-01-15 12:44:01.99	118.34	14.78	-34.5	-35.7	23.4	0.00e+00	0	29	0	1646264320	42	5998
2026-01-15 12:44:03.00	118.52	14.72	-34.6	-35.7	23.4	0.00e+00	0	29	0	1649410048	42	6048
2026-01-15 12:44:04.01	118.70	14.66	-34.4	-35.5	23.6	0.00e+00	0	29	0	1652555776	42	5899
2026-01-15 12:44:05.02	118.88	14.60	-34.5	-35.6	23.5	0.00e+00	0	29	0	1655701504	42	5963
2026-01-15 12:44:06.03	119.05	14.54	-34.4	-35.5	23.6	0.00e+00	0	29	0	1658847232	42	5893
2026-01-15 12:44:07.04	119.23	14.48	-34.4	-35.4	23.7	0.00e+00	0	29	0	1661992960	42	5846
2026-01-15 12:44:08.05	119.40	14.42	-34.6	-35.6	23.6	0.00e+00	0	29	0	1665138688	42	5953
2026-01-15 12:44:09.06	119.58	14.37	-34.4	-35.4	23.7	0.00e+00	0	29	0	1668284416	42	5825
2026-01-15 12:44:10.07	119.75	14.31	-34.5	-35.5	23.6	0.00e+00	0	29	0	1671430144	42	5870
2026-01-15 12:44:11.08	119.92	14.25	-34.6	-35.6	23.5	0.00e+00	0	29	0	1674575872	42	5932
2026-01-15 12:44:12.09	120.10	14.19	-34.6	-35.6	23.5	0.00e+00	0	29	0	1677721600	42	5974
2026-01-15 12:44:13.10	120.27	14.13	-34.6	-35.6	23.5	0.00e+00	0	29	0	1680867328	42	5969
2026-01-15 12:44:14.11	120.44	14.07	-34.6	-35.6	23.5	0.00e+00	0	29	0	1684013056	42	5967
2026-01-15 12:44:15.12	120.61	14.01	-34.6	-35.5	23.7	0.00e+00	0	29	0	1687158784	42	5901
2026-01-15 12:44:16.12	120.78	13.95	-34.6	-35.6	23.6	0.00e+00	0	29	0	1690304512	42	5933
2026-01-15 12:44:17.13	120.95	13.89	-34.5	-35.5	23.7	0.00e+00	0	29	0	1693450240	42	5876
2026-01-15 12:44:18.15	121.12	13.83	-34.5	-35.5	23.6	0.00e+00	0	29	0	1696595968	42	5903
2026-01-15 12:44:19.16	121.28	13.77	-34.5	-35.5	23.6	0.00e+00	0	29	0	1699741696	42	5906
2026-01-15 12:44:20.16	121.45	13.71	-34.5	-35.5	23.7	0.00e+00	0	29	0	1702887424	42	5896
2026-01-15 12:44:21.17	121.61	13.65	-34.4	-35.4	23.7	0.00e+00	0	29	0	1706033152	42	5811
2026-01-15 12:44:22.18	121.78	13.59	-34.4	-35.4	23.8	0.00e+00	0	29	0	1709178880	42	5808
2026-01-15 12:44:23.19	121.94	13.53	-34.4	-35.4	23.7	0.00e+00	0	29	0	1712324608	42	5811
2026-01-15 12:44:24.20	122.11	13.47	-34.3	-35.2	23.8	0.00e+00	0	29	0	1715470336	42	5719
2026-01-15 12:44:25.21	122.27	13.41	-34.3	-35.2	23.8	0.00e+00	0	29	0	1718616064	42	5698
2026-01-15 12:44:26.22	122.44	13.35	-34.3	-35.3	23.8	0.00e+00	0	29	0	1721761792	42	5733
2026-01-15 12:44:27.23	122.60	13.29	-34.4	-35.4	23.7	0.00e+00	0	29	0	1724907520	42	5798
2026-01-15 12:44:28.24	122.76	13.23	-34.2	-35.2	23.9	0.00e+00	0	29	0	1728053248	42	5660
2026-01-15 12:44:29.26	122.92	13.17	-34.4	-35.3	23.8	0.00e+00	0	29	0	1731198976	42	5735
2026-01-15 12:44:30.26	123.08	13.11	-34.3	-35.3	23.8	0.00e+00	0	29	0	1734344704	42	5732
2026-01-15 12:44:31.27	123.24	13.05	-34.5	-35.4	23.7	0.00e+00	0	29	0	1737490432	42	5815
2026-01-15 12:44:32.28	123.40	12.99	-34.5	-35.5	23.6	0.00e+00	0	29	0	1740636160	42	5862
2026-01-15 12:44:33.30	123.56	12.93	-34.5	-35.5	23.6	0.00e+00	0	29	0	1743781888	42	5859
2026-01-15 12:44:34.30	123.72	12.86	-34.6	-35.5	23.5	0.00e+00	0	29	0	1746927616	42	5903
2026-01-15 12:44:35.32	123.88	12.80	-34.8	-35.7	23.4	0.00e+00	0	29	0	1750073344	42	6046
2026-01-15 12:44:36.33	124.03	12.74	-34.8	-35.7	23.4	0.00e+00	0	29	0	1753219072	42	6064
2026-01-15 12:44:37.34	124.19	12.68	-34.8	-35.7	23.4	0.00e+00	0	29	0	1756364800	42	6032
2026-01-15 12:44:38.35	124.34	12.62	-34.8	-35.8	23.3	0.00e+00	0	29	0	1759510528	42	6091
2026-01-15 12:44:39.36	124.50	12.56	-34.9	-35.8	23.3	0.00e+00	0	29	0	1762656256	42	6108
2026-01-15 12:44:40.37	124.65	12.50	-34.7	-35.7	23.4	0.00e+00	0	30	0	1765801984	42	6030
2026-01-15 12:44:41.37	124.80	12.44	-34.8	-35.8	23.3	0.00e+00	0	29	0	1768947712	42	6123
2026-01-15 12:44:42.38	124.96	12.38	-35.0	-35.9	23.2	0.00e+00	0	29	0	1772093440	42	6191
2026-01-15 12:44:43.40	125.11	12.32	-34.9	-35.9	23.1	0.00e+00	0	29	0	1775239168	42	6189
2026-01-15 12:44:44.40	125.26	12.25	-35.0	-36.0	23.1	0.00e+00	0	29	0	1778384896	42	6235
2026-01-15 12:44:45.42	125.41	12.19	-35.1	-36.1	23.0	0.00e+00	0	29	0	1781530624	42	6308
2026-01-15 12:44:46.43	125.56	12.13	-35.2	-36.2	22.9	0.00e+00	0	29	0	1784676352	42	6364
2026-01-15 12:44:47.44	125.71	12.07	-35.1	-36.1	22.9	0.00e+00	0	29	0	1787822080	42	6335
2026-01-15 12:44:48.45	125.86	12.01	-35.2	-36.2	22.9	0.00e+00	0	30	0	1790967808	42	6354
2026-01-15 12:44:49.46	126.01	11.95	-35.2	-36.2	22.8	0.00e+00	0	29	0	1794113536	42	6385
2026-01-15 12:44:50.47	126.16	11.89	-35.3	-36.3	22.8	0.00e+00	0	29	0	1797259264	42	6439
2026-01-15 12:44:51.48	126.31	11.83	-35.4	-36.4	22.6	0.00e+00	0	30	0	1800404992	42	6528
2026-01-15 12:44:52.49	126.45	11.76	-35.3	-36.3	22.7	0.00e+00	0	29	0	1803550720	42	6489
2026-01-15 12:44:53.50	126.60	11.70	-35.3	-36.3	22.8	0.00e+00	0	29	0	1806696448	42	6451
2026-01-15 12:44:54.51	126.75	11.64	-35.4	-36.3	22.8	0.00e+00	0	29	0	1809842176	42	6494
2026-01-15 12:44:55.52	126.89	11.58	-35.2	-36.2	22.9	0.00e+00	0	29	0	1812987904	42	6376
2026-01-15 12:44:56.53	127.04	11.52	-35.1	-36.1	23.0	0.00e+00	0	29	0	1816133632	42	6314
2026-01-15 12:44:57.54	127.18	11.46	-35.1	-36.1	23.0	0.00e+00	0	29	0	1819279360	42	6329
2026-01-15 12:44:58.55	127.32	11.40	-35.2	-36.2	23.0	0.00e+00	0	29	0	1822425088	42	6413
2026-01-15 12:44:59.56	127.47	11.33	-35.3	-36.3	22.9	0.00e+00	0	29	0	1825570816	42	6427
2026-01-15 12:45:00.57	127.61	11.27	-35.1	-36.0	23.0	0.00e+00	0	29	0	1828716544	42	6275
2026-01-15 12:45:01.58	127.75	11.21	-35.2	-36.1	23.0	0.00e+00	0	29	0	1831862272	42	6330
2026-01-15 12:45:02.59	127.89	11.15	-35.1	-36.1	23.0	0.00e+00	0	29	0	1835008000	42	6309
2026-01-15 12:45:03.60	128.03	11.09	-35.2	-36.2	22.9	0.00e+00	0	29	0	1838153728	42	6383
2026-01-15 12:45:04.61	128.17	11.03	-35.2	-36.2	22.9	0.00e+00	0	29	0	1841299456	42	6369
2026-01-15 12:45:05.62	128.31	10.97	-35.2	-36.1	23.0	0.00e+00	0	29	0	1844445184	42	6343
2026-01-15 12:45:06.63	128.45	10.90	-35.2	-36.2	22.9	0.00e+00	0	29	0	1847590912	42	6383
2026-01-15 12:45:07.64	128.59	10.84	-35.4	-36.4	22.8	0.00e+00	0	29	0	1850736640	42	6513
2026-01-15 12:45:08.65	128.73	10.78	-35.4	-36.4	22.8	0.00e+00	0	29	0	1853882368	42	6504
2026-01-15 12:45:09.66	128.86	10.72	-35.3	-36.3	22.9	0.00e+00	0	29	0	1857028096	42	6439
2026-01-15 12:45:10.67	129.00	10.66	-35.5	-36.5	22.7	0.00e+00	0	29	0	1860173824	42	6617
2026-01-15 12:45:11.68	129.14	10.60	-35.5	-36.5	22.7	0.00e+00	0	29	0	1863319552	42	6611
2026-01-15 12:45:12.69	129.27	10.54	-35.5	-36.6	22.6	0.00e+00	0	29	0	1866465280	42	6661
2026-01-15 12:45:13.70	129.41	10.48	-35.4	-36.4	22.7	0.00e+00	0	29	0	1869611008	42	6510
2026-01-15 12:45:14.71	129.54	10.41	-35.5	-36.5	22.7	0.00e+00	0	29	0	1872756736	42	6574
2026-01-15 12:45:15.72	129.68	10.35	-35.4	-36.4	22.7	0.00e+00	0	29	0	1875902464	42	6559
2026-01-15 12:45:16.73	129.81	10.29	-35.4	-36.4	22.7	0.00e+00	0	29	0	1879048192	42	6566
2026-01-15 12:45:17.74	129.94	10.23	-35.5	-36.5	22.6	0.00e+00	0	29	0	1882193920	42	6582
2026-01-15 12:45:18.75	130.07	10.17	-35.5	-36.5	22.6	0.00e+00	0	29	0	1885339648	42	6597
2026-01-15 12:45:19.76	130.21	10.11	-35.4	-36.4	22.5	0.00e+00	0	29	0	1888485376	42	6558
2026-01-15 12:45:20.77	130.34	10.05	-35.5	-36.5	22.5	0.00e+00	0	29	0	1891631104	42	6602
2026-01-15 12:45:21.78	130.47	9.99	-35.5	-36.5	22.4	0.00e+00	0	29	0	1894776832	42	6588
2026-01-15 12:45:22.79	130.60	9.92	-35.5	-36.5	22.5	0.00e+00	0	29	0	1897922560	42	6585
2026-01-15 12:45:23.80	130.73	9.86	-35.6	-36.7	22.3	0.00e+00	0	29	0	1901068288	42	6747
2026-01-15 12:45:24.81	130.86	9.80	-35.6	-36.6	22.3	0.00e+00	0	29	0	1904214016	42	6707
2026-01-15 12:45:25.82	130.99	9.74	-35.7	-36.7	22.4	0.00e+00	0	29	0	1907359744	42	6759
2026-01-15 12:45:26.83	131.11	9.68	-35.8	-36.8	22.2	0.00e+00	0	29	0	1910505472	44	6134
2026-01-15 12:45:27.84	131.24	9.62	-36.1	-37.1	21.9	0.00e+00	0	29	0	1913651200	44	6316
2026-01-15 12:45:28.84	131.37	9.56	-35.9	-36.9	22.2	0.00e+00	0	29	0	1916796928	44	6165
2026-01-15 12:45:29.85	131.49	9.50	-35.9	-37.0	22.1	0.00e+00	0	29	0	1919942656	44	6229
2026-01-15 12:45:30.86	131.62	9.44	-35.7	-36.8	22.3	0.00e+00	0	29	0	1923088384	44	6080
2026-01-15 12:45:31.87	131.75	9.38	-35.7	-36.8	22.4	0.00e+00	0	29	0	1926234112	44	6067
2026-01-15 12:45:32.88	131.87	9.31	-35.6	-36.6	22.5	0.00e+00	0	29	0	1930428416	44	5993
2026-01-15 12:45:33.89	131.99	9.25	-35.6	-36.7	22.4	0.00e+00	0	29	0	1933574144	44	5995
2026-01-15 12:45:34.90	132.12	9.19	-35.8	-36.8	22.2	0.00e+00	0	29	0	1935671296	44	6119
2026-01-15 12:45:35.91	132.24	9.13	-35.7	-36.7	22.3	0.00e+00	0	29	0	1938817024	44	6063
2026-01-15 12:45:36.92	132.37	9.07	-35.8	-36.8	22.2	0.00e+00	0	29	0	1941962752	44	6100
2026-01-15 12:45:37.93	132.49	9.01	-35.9	-36.9	22.2	0.00e+00	0	29	0	1945108480	44	6159
2026-01-15 12:45:38.94	132.61	8.95	-35.9	-36.9	22.1	0.00e+00	0	29	0	1949302784	44	6181
2026-01-15 12:45:39.95	132.73	8.89	-35.9	-36.9	22.1	0.00e+00	0	29	0	1952448512	44	6190
2026-01-15 12:45:40.96	132.85	8.83	-36.1	-37.2	21.8	0.00e+00	0	29	0	1955594240	44	6371
2026-01-15 12:45:41.97	132.97	8.77	-36.2	-37.2	21.8	0.00e+00	0	29	0	1957691392	44	6416
2026-01-15 12:45:42.98	133.09	8.71	-36.0	-37.1	21.9	0.00e+00	0	29	0	1960837120	44	6284
2026-01-15 12:45:43.99	133.21	8.65	-36.1	-37.2	21.9	0.00e+00	0	29	0	1965031424	44	6373
2026-01-15 12:45:45.00	133.33	8.59	-36.0	-37.0	21.9	0.00e+00	0	29	0	1968177152	44	6267
2026-01-15 12:45:46.01	133.45	8.53	-36.0	-37.1	21.9	0.00e+00	0	29	0	1971322880	44	6305
2026-01-15 12:45:47.02	133.57	8.47	-36.0	-37.1	22.0	0.00e+00	0	29	0	1974468608	44	6308
2026-01-15 12:45:48.03	133.69	8.41	-36.1	-37.2	21.9	0.00e+00	0	29	0	1977614336	44	6366
2026-01-15 12:45:49.04	133.80	8.35	-36.0	-37.1	21.9	0.00e+00	0	29	0	1980760064	44	6293
2026-01-15 12:45:50.04	133.92	8.29	-36.1	-37.2	21.9	0.00e+00	0	29	0	1983905792	44	6418
2026-01-15 12:45:51.05	134.04	8.23	-36.1	-37.1	21.9	0.00e+00	0	29	0	1987051520	44	6345
2026-01-15 12:45:52.07	134.15	8.17	-36.0	-37.1	22.0	0.00e+00	0	29	0	1990197248	44	6288
2026-01-15 12:45:53.08	134.27	8.10	-35.9	-37.0	22.0	0.00e+00	0	29	0	1993342976	44	6219
2026-01-15 12:45:54.09	134.38	8.04	-36.0	-37.1	22.0	0.00e+00	0	29	0	1996488704	44	6306
2026-01-15 12:45:55.10	134.50	7.98	-35.8	-36.9	22.0	0.00e+00	0	29	0	1999634432	44	6179
2026-01-15 12:45:56.11	134.61	7.92	-35.9	-37.0	21.9	0.00e+00	0	29	0	2002780160	44	6244
2026-01-15 12:45:57.12	134.73	7.87	-35.9	-37.1	21.9	0.00e+00	0	29	0	2005925888	44	6281
2026-01-15 12:45:58.13	134.84	7.81	-35.9	-37.1	21.9	0.00e+00	0	30	0	2009071616	44	6282
2026-01-15 12:45:59.14	134.95	7.75	-35.9	-37.0	21.9	0.00e+00	0	29	0	2012217344	44	6242
2026-01-15 12:46:00.15	135.07	7.69	-36.0	-37.2	21.8	0.00e+00	0	29	0	2015363072	44	6375
2026-01-15 12:46:01.16	135.18	7.63	-36.1	-37.2	21.7	0.00e+00	0	29	0	2018508800	44	6382
2026-01-15 12:46:02.17	135.29	7.57	-36.2	-37.3	21.6	0.00e+00	0	29	0	2021654528	44	6459
2026-01-15 12:46:03.18	135.40	7.51	-36.1	-37.3	21.7	0.00e+00	0	29	0	2024800256	44	6426
2026-01-15 12:46:04.19	135.51	7.45	-36.1	-37.2	21.7	0.00e+00	0	29	0	2027945984	44	6413
2026-01-15 12:46:05.20	135.62	7.39	-36.2	-37.3	21.7	0.00e+00	0	29	0	2031091712	44	6455
2026-01-15 12:46:06.21	135.73	7.33	-36.3	-37.4	21.6	0.00e+00	0	29	0	2034237440	44	6525
