passes_logs/2026/01/15/R4.6S_Anadyr/R4.6S_Anadyr__20260115_002858_NOAA_21_JPSS-2_rec.log

#Pass ID: 20260115_002858_NOAA 21 (JPSS-2)
#Satellite: NOAA 21 (JPSS-2)
#Configuration: NOAA-21
#almurnet v.1.7.20251203
#Start time: 2026-01-15 00:29:00

#Version: 2.2.20231116
#Station: R4.6S_Anadyr
#Location: 177.4865 lon 64.73178 lat
#TLE: 1 54234U 22150A   26014.58979933  .00000039  00000+0  39403-4 0  9998
#TLE: 2 54234  98.7497 315.4945 0000653 294.6373  65.4735 14.19534652164756

#Time	Az	El	Level	Level2	SNR	BER	BlckErr	Temp	State	Recorded	gain1	gain2
2026-01-15 00:29:00.14	162.91	0.08	-48.9	-63.7	3.5	1.51e+00	0	26	0	0	60	55251
2026-01-15 00:29:01.15	162.93	0.14	-48.9	-61.7	3.5	1.52e+00	0	28	104	0	60	42861
2026-01-15 00:29:02.16	162.94	0.20	-48.9	-61.8	3.5	1.52e+00	0	28	104	0	60	43058
2026-01-15 00:29:03.16	162.95	0.26	-49.0	-61.8	3.5	1.52e+00	0	28	104	0	60	43110
2026-01-15 00:29:04.17	162.96	0.32	-49.0	-61.9	3.5	1.52e+00	0	28	104	0	60	43489
2026-01-15 00:29:05.19	162.97	0.38	-49.0	-61.9	3.5	1.52e+00	0	28	104	0	60	43597
2026-01-15 00:29:06.20	162.98	0.44	-49.0	-61.9	3.5	1.52e+00	0	28	104	0	60	43899
2026-01-15 00:29:07.21	163.00	0.50	-49.0	-61.9	3.5	1.51e+00	0	28	104	0	60	43552
2026-01-15 00:29:08.22	163.01	0.57	-49.0	-61.8	3.5	1.52e+00	0	28	104	0	60	43037
2026-01-15 00:29:09.23	163.02	0.63	-48.9	-61.8	3.5	1.52e+00	0	28	104	0	60	43013
2026-01-15 00:29:10.24	163.03	0.69	-48.4	-61.6	3.5	1.51e+00	0	28	104	0	60	42237
2026-01-15 00:29:11.25	163.04	0.75	-48.6	-61.5	3.5	1.52e+00	0	28	104	0	60	41802
2026-01-15 00:29:12.25	163.05	0.81	-48.5	-61.4	3.5	1.52e+00	0	28	104	0	60	41182
2026-01-15 00:29:13.26	163.07	0.87	-48.2	-61.1	3.5	1.51e+00	0	28	104	0	60	39776
2026-01-15 00:29:14.28	163.08	0.94	-47.1	-59.9	3.5	1.52e+00	0	28	104	0	60	34770
2026-01-15 00:29:15.28	163.09	1.00	-47.6	-60.4	3.5	1.52e+00	0	28	104	0	60	36906
2026-01-15 00:29:16.29	163.10	1.06	-47.4	-60.3	3.5	1.52e+00	0	28	104	0	60	36210
2026-01-15 00:29:17.31	163.11	1.12	-47.4	-60.2	3.5	1.52e+00	0	28	104	0	60	36083
2026-01-15 00:29:18.32	163.13	1.19	-47.4	-60.2	3.5	1.52e+00	0	28	104	0	60	36037
2026-01-15 00:29:19.32	163.14	1.25	-47.4	-60.2	3.5	1.52e+00	0	28	104	0	60	35880
2026-01-15 00:29:20.33	163.15	1.31	-47.4	-60.1	3.5	1.52e+00	0	28	104	0	60	35677
2026-01-15 00:29:21.34	163.16	1.38	-47.4	-60.1	3.5	1.52e+00	0	28	104	0	60	35596
2026-01-15 00:29:22.35	163.17	1.44	-47.4	-60.1	3.5	1.52e+00	0	28	104	0	60	35549
2026-01-15 00:29:23.36	163.19	1.50	-47.4	-59.9	3.5	1.51e+00	0	28	104	0	60	34802
2026-01-15 00:29:24.37	163.20	1.57	-47.4	-59.9	3.5	1.52e+00	0	28	104	0	60	34828
2026-01-15 00:29:25.38	163.21	1.63	-47.4	-59.9	3.5	1.52e+00	0	28	104	0	60	34662
2026-01-15 00:29:26.39	163.22	1.69	-47.4	-59.9	3.5	1.52e+00	0	29	104	0	60	34884
2026-01-15 00:29:27.40	163.24	1.76	-47.4	-59.9	3.5	1.52e+00	0	29	104	0	60	34833
2026-01-15 00:29:28.41	163.25	1.82	-47.4	-60.0	3.5	1.52e+00	0	29	104	0	60	35263
2026-01-15 00:29:29.42	163.26	1.89	-47.4	-60.1	3.5	1.52e+00	0	29	104	0	60	35579
2026-01-15 00:29:30.43	163.27	1.95	-47.4	-60.2	3.5	1.52e+00	0	29	104	0	60	36070
2026-01-15 00:29:31.44	163.29	2.02	-47.4	-60.2	3.5	1.52e+00	0	29	104	0	60	35972
2026-01-15 00:29:32.45	163.30	2.08	-47.4	-60.2	3.5	1.52e+00	0	29	104	0	60	35935
2026-01-15 00:29:33.46	163.31	2.15	-47.4	-60.1	3.5	1.52e+00	0	28	104	0	60	35635
2026-01-15 00:29:34.47	163.32	2.21	-47.4	-60.2	3.5	1.52e+00	0	29	104	0	60	35727
2026-01-15 00:29:35.48	163.34	2.28	-47.4	-60.0	3.5	1.52e+00	0	29	104	0	60	35179
2026-01-15 00:29:36.49	163.35	2.34	-47.4	-59.8	3.5	1.52e+00	0	29	104	0	60	34473
2026-01-15 00:29:37.50	163.36	2.41	-47.3	-59.5	3.5	1.52e+00	0	29	104	0	60	33025
2026-01-15 00:29:38.51	163.38	2.47	-47.3	-59.1	3.5	1.51e+00	0	29	104	0	60	31654
2026-01-15 00:29:39.52	163.39	2.54	-47.3	-58.7	3.5	1.51e+00	0	29	104	0	60	30393
2026-01-15 00:29:40.53	163.40	2.60	-47.3	-58.6	3.5	1.51e+00	0	29	104	0	60	29781
2026-01-15 00:29:41.54	163.41	2.67	-47.3	-58.6	3.5	1.51e+00	0	29	104	0	60	30031
2026-01-15 00:29:42.55	163.43	2.74	-47.3	-58.8	3.5	1.51e+00	0	29	104	0	60	30539
2026-01-15 00:29:43.56	163.44	2.80	-47.3	-58.6	3.5	1.51e+00	0	29	104	0	60	29869
2026-01-15 00:29:44.57	163.45	2.87	-47.2	-57.5	3.9	1.49e+00	0	29	104	0	60	26343
2026-01-15 00:29:45.58	163.47	2.94	-46.8	-55.4	3.8	8.52e-01	57	29	104	0	60	20614
2026-01-15 00:29:46.59	163.48	3.00	-46.1	-51.5	7.4	1.96e-01	123	29	0	0	60	13210
2026-01-15 00:29:47.60	163.49	3.07	-45.3	-49.3	9.8	2.62e-02	120	29	0	3145728	60	10256
2026-01-15 00:29:48.61	163.51	3.14	-44.1	-47.1	12.6	6.80e-04	123	29	0	6291456	60	7905
2026-01-15 00:29:49.62	163.52	3.21	-42.9	-45.2	14.4	8.30e-06	122	29	0	9437184	60	6420
2026-01-15 00:29:50.63	163.53	3.27	-41.8	-43.7	16.0	0.00e+00	122	29	0	12582912	58	6055
2026-01-15 00:29:51.64	163.55	3.34	-40.9	-42.5	17.0	0.00e+00	122	29	0	15728640	56	5913
2026-01-15 00:29:52.65	163.56	3.41	-39.9	-41.4	18.0	0.00e+00	123	29	0	18874368	54	5805
2026-01-15 00:29:53.66	163.57	3.48	-39.9	-41.4	18.0	0.00e+00	122	29	0	22020096	52	6552
2026-01-15 00:29:54.67	163.59	3.54	-39.5	-40.9	18.5	0.00e+00	120	29	0	25165824	52	6153
2026-01-15 00:29:55.68	163.60	3.61	-39.4	-40.9	18.5	0.00e+00	123	29	0	28311552	52	6150
2026-01-15 00:29:56.69	163.61	3.68	-39.7	-41.2	18.2	0.00e+00	120	29	0	31457280	52	6381
2026-01-15 00:29:57.70	163.63	3.75	-40.3	-41.8	17.4	0.00e+00	123	29	0	34603008	52	6869
2026-01-15 00:29:58.71	163.64	3.82	-41.7	-43.7	15.5	0.00e+00	120	29	0	37748736	54	7577
2026-01-15 00:29:59.72	163.66	3.89	-43.5	-46.0	13.6	7.60e-06	123	29	0	40894464	58	7902
2026-01-15 00:30:00.73	163.67	3.96	-46.4	-52.7	4.6	0.00e+00	123	29	0	44040192	60	15198
2026-01-15 00:30:01.74	163.68	4.03	-42.2	-44.6	15.3	7.66e-01	122	29	104	44040192	60	5979
2026-01-15 00:30:02.75	163.70	4.10	-44.4	-47.7	10.8	0.00e+00	123	29	0	46137344	56	10695
2026-01-15 00:30:03.76	163.71	4.17	-40.6	-42.5	17.2	2.55e-01	122	29	104	47185920	56	5902
2026-01-15 00:30:04.77	163.73	4.24	-39.3	-40.6	18.9	0.00e+00	122	29	0	49283072	52	5988
2026-01-15 00:30:05.77	163.74	4.31	-38.8	-40.1	19.2	0.00e+00	123	29	0	52428800	52	5652
2026-01-15 00:30:06.78	163.75	4.38	-38.9	-40.3	19.5	0.00e+00	122	29	0	55574528	52	5731
2026-01-15 00:30:07.79	163.77	4.45	-38.5	-39.8	19.4	0.00e+00	122	29	0	58720256	50	6102
2026-01-15 00:30:08.80	163.78	4.52	-38.5	-39.8	19.8	0.00e+00	120	29	0	61865984	50	6069
2026-01-15 00:30:09.81	163.80	4.59	-38.3	-39.5	19.9	0.00e+00	123	29	0	65011712	50	5895
2026-01-15 00:30:10.82	163.81	4.66	-38.2	-39.5	20.0	0.00e+00	120	29	0	68157440	50	5863
2026-01-15 00:30:11.83	163.83	4.73	-38.2	-39.4	20.1	0.00e+00	123	29	0	71303168	50	5853
2026-01-15 00:30:12.84	163.84	4.80	-38.0	-39.2	20.3	0.00e+00	123	29	0	74448896	50	5722
2026-01-15 00:30:13.85	163.85	4.87	-38.0	-39.2	20.4	0.00e+00	123	29	0	77594624	50	5689
2026-01-15 00:30:14.86	163.87	4.95	-38.2	-39.4	20.0	0.00e+00	122	29	0	80740352	50	5813
2026-01-15 00:30:15.87	163.88	5.02	-38.0	-39.2	20.3	0.00e+00	122	29	0	83886080	50	5665
2026-01-15 00:30:16.88	163.90	5.09	-38.0	-39.2	20.2	0.00e+00	123	29	0	87031808	50	5675
2026-01-15 00:30:17.89	163.91	5.16	-38.1	-39.3	20.2	0.00e+00	122	29	0	90177536	50	5764
2026-01-15 00:30:18.90	163.93	5.24	-38.0	-39.2	20.3	0.00e+00	123	29	0	93323264	50	5708
2026-01-15 00:30:19.91	163.94	5.31	-37.9	-39.1	20.4	0.00e+00	122	29	0	96468992	50	5641
2026-01-15 00:30:20.91	163.96	5.38	-37.9	-39.1	20.5	0.00e+00	123	29	0	99614720	50	5646
2026-01-15 00:30:21.92	163.97	5.45	-37.8	-39.0	20.4	0.00e+00	123	29	0	102760448	50	5577
2026-01-15 00:30:22.93	163.99	5.53	-37.9	-39.0	20.4	0.00e+00	122	29	0	105906176	50	5590
2026-01-15 00:30:23.94	164.00	5.60	-38.0	-39.2	20.7	0.00e+00	123	29	0	109051904	48	6377
2026-01-15 00:30:24.95	164.02	5.67	-37.8	-39.0	20.6	0.00e+00	123	29	0	112197632	48	6247
2026-01-15 00:30:25.96	164.03	5.75	-37.6	-38.8	20.6	0.00e+00	120	29	0	115343360	48	6092
2026-01-15 00:30:26.97	164.05	5.82	-37.8	-39.0	20.7	0.00e+00	122	29	0	118489088	48	6252
2026-01-15 00:30:27.98	164.06	5.90	-37.8	-38.9	20.6	0.00e+00	123	29	0	121634816	48	6197
2026-01-15 00:30:28.99	164.08	5.97	-37.7	-38.8	20.6	0.00e+00	122	29	0	124780544	48	6129
2026-01-15 00:30:30.00	164.10	6.05	-37.4	-38.6	20.9	0.00e+00	123	29	0	127926272	48	5940
2026-01-15 00:30:31.01	164.11	6.12	-37.4	-38.5	21.0	0.00e+00	123	29	0	131072000	48	5912
2026-01-15 00:30:32.02	164.13	6.20	-37.3	-38.4	21.1	0.00e+00	123	29	0	134217728	48	5824
2026-01-15 00:30:33.03	164.14	6.27	-37.5	-38.6	21.0	0.00e+00	123	29	0	137363456	48	5946
2026-01-15 00:30:34.03	164.16	6.35	-37.3	-38.4	21.1	0.00e+00	122	29	0	140509184	48	5851
2026-01-15 00:30:35.04	164.17	6.42	-37.2	-38.3	21.3	0.00e+00	122	29	0	143654912	48	5771
2026-01-15 00:30:36.05	164.19	6.50	-37.2	-38.3	21.2	0.00e+00	122	29	0	146800640	48	5790
2026-01-15 00:30:37.05	164.21	6.58	-37.1	-38.2	21.3	0.00e+00	123	29	0	149946368	48	5698
2026-01-15 00:30:38.06	164.22	6.65	-37.2	-38.3	21.2	0.00e+00	123	29	0	153092096	48	5765
2026-01-15 00:30:39.07	164.24	6.73	-37.1	-38.2	21.4	0.00e+00	123	29	0	156237824	48	5683
2026-01-15 00:30:40.08	164.25	6.81	-37.2	-38.3	21.3	0.00e+00	122	29	0	159383552	48	5776
2026-01-15 00:30:41.09	164.27	6.88	-37.2	-38.3	21.3	0.00e+00	123	29	0	162529280	48	5748
2026-01-15 00:30:42.10	164.29	6.96	-37.3	-38.4	21.2	0.00e+00	120	29	0	165675008	48	5831
2026-01-15 00:30:43.11	164.30	7.04	-37.2	-38.3	21.4	0.00e+00	123	29	0	168820736	48	5734
2026-01-15 00:30:44.12	164.32	7.12	-37.0	-38.0	21.6	0.00e+00	120	29	0	171966464	48	5583
2026-01-15 00:30:45.13	164.34	7.20	-37.0	-38.0	21.5	0.00e+00	123	29	0	175112192	48	5578
2026-01-15 00:30:46.14	164.35	7.27	-37.0	-38.0	21.6	0.00e+00	120	29	0	178257920	48	5591
2026-01-15 00:30:47.15	164.37	7.35	-37.0	-38.1	21.5	0.00e+00	123	29	0	181403648	48	5636
2026-01-15 00:30:48.16	164.39	7.43	-37.0	-38.0	21.6	0.00e+00	120	29	0	184549376	48	5577
2026-01-15 00:30:49.17	164.40	7.51	-36.7	-37.8	21.8	0.00e+00	123	29	0	187695104	46	6089
2026-01-15 00:30:50.18	164.42	7.59	-36.7	-37.8	21.8	0.00e+00	122	29	0	190840832	46	6078
2026-01-15 00:30:51.19	164.44	7.67	-36.8	-37.8	21.8	0.00e+00	121	29	0	193986560	46	6104
2026-01-15 00:30:52.20	164.45	7.75	-36.9	-38.0	21.7	0.00e+00	122	29	0	197132288	46	6210
2026-01-15 00:30:53.21	164.47	7.83	-36.7	-37.8	21.9	0.00e+00	123	29	0	200278016	46	6065
2026-01-15 00:30:54.22	164.49	7.91	-36.6	-37.7	21.9	0.00e+00	123	29	0	203423744	46	6021
2026-01-15 00:30:55.23	164.51	7.99	-36.7	-37.7	21.9	0.00e+00	120	29	0	206569472	46	6059
2026-01-15 00:30:56.24	164.52	8.07	-36.5	-37.6	22.0	0.00e+00	123	29	0	209715200	46	5941
2026-01-15 00:30:57.25	164.54	8.15	-36.6	-37.7	22.0	0.00e+00	120	29	0	212860928	46	6018
2026-01-15 00:30:58.26	164.56	8.24	-36.5	-37.5	22.1	0.00e+00	120	29	0	216006656	46	5892
2026-01-15 00:30:59.27	164.58	8.32	-36.5	-37.5	22.1	0.00e+00	123	29	0	219152384	46	5880
2026-01-15 00:31:00.27	164.59	8.40	-36.4	-37.5	22.2	0.00e+00	120	29	0	222298112	46	5871
2026-01-15 00:31:01.28	164.61	8.48	-36.4	-37.5	22.2	0.00e+00	123	29	0	225443840	46	5868
2026-01-15 00:31:02.29	164.63	8.56	-36.5	-37.5	22.2	0.00e+00	123	29	0	228589568	46	5891
2026-01-15 00:31:03.30	164.65	8.65	-36.4	-37.4	22.2	0.00e+00	122	29	0	231735296	46	5836
2026-01-15 00:31:04.31	164.66	8.73	-36.3	-37.3	22.4	0.00e+00	121	29	0	234881024	46	5732
2026-01-15 00:31:05.32	164.68	8.81	-36.3	-37.3	22.3	0.00e+00	123	29	0	238026752	46	5769
2026-01-15 00:31:06.33	164.70	8.90	-36.2	-37.2	22.5	0.00e+00	123	29	0	241172480	46	5692
2026-01-15 00:31:07.34	164.72	8.98	-36.2	-37.2	22.4	0.00e+00	120	29	0	244318208	46	5700
2026-01-15 00:31:08.35	164.74	9.07	-36.2	-37.2	22.4	0.00e+00	122	29	0	247463936	46	5698
2026-01-15 00:31:09.36	164.76	9.15	-36.1	-37.1	22.5	0.00e+00	123	29	0	250609664	46	5655
2026-01-15 00:31:10.37	164.77	9.24	-36.2	-37.2	22.3	0.00e+00	121	29	0	253755392	46	5725
2026-01-15 00:31:11.38	164.79	9.32	-36.0	-37.0	22.6	0.00e+00	122	29	0	256901120	46	5550
2026-01-15 00:31:12.39	164.81	9.41	-36.2	-37.2	22.5	0.00e+00	123	29	0	260046848	46	5677
2026-01-15 00:31:13.40	164.83	9.49	-36.1	-37.1	22.5	0.00e+00	120	29	0	263192576	46	5595
2026-01-15 00:31:14.41	164.85	9.58	-35.9	-36.9	22.7	0.00e+00	122	29	0	266338304	46	5487
2026-01-15 00:31:15.42	164.87	9.66	-36.0	-37.0	22.6	0.00e+00	123	29	0	269484032	46	5562
2026-01-15 00:31:16.43	164.89	9.75	-36.1	-37.1	22.6	0.00e+00	123	29	0	272629760	46	5635
2026-01-15 00:31:17.44	164.91	9.84	-36.0	-37.0	22.7	0.00e+00	123	29	0	275775488	46	5564
2026-01-15 00:31:18.44	164.93	9.92	-36.0	-37.0	22.6	0.00e+00	123	29	0	278921216	46	5594
2026-01-15 00:31:19.45	164.95	10.01	-35.9	-36.9	22.7	0.00e+00	123	29	0	282066944	46	5475
2026-01-15 00:31:20.46	164.96	10.10	-35.6	-36.6	23.1	0.00e+00	123	29	0	285212672	44	5959
2026-01-15 00:31:21.47	164.98	10.19	-35.7	-36.7	23.0	0.00e+00	120	29	0	288358400	44	5995
2026-01-15 00:31:22.48	165.00	10.28	-35.6	-36.6	22.9	0.00e+00	120	29	0	291504128	44	5949
2026-01-15 00:31:23.49	165.02	10.36	-35.6	-36.6	23.1	0.00e+00	123	29	0	294649856	44	5951
2026-01-15 00:31:24.50	165.04	10.45	-35.5	-36.5	23.1	0.00e+00	123	29	0	297795584	44	5881
2026-01-15 00:31:25.51	165.06	10.54	-35.7	-36.7	22.9	0.00e+00	122	29	0	300941312	44	5996
2026-01-15 00:31:26.52	165.08	10.63	-35.5	-36.5	23.1	0.00e+00	123	29	0	304087040	44	5861
2026-01-15 00:31:27.53	165.10	10.72	-35.4	-36.4	23.1	0.00e+00	123	29	0	307232768	44	5819
2026-01-15 00:31:28.54	165.12	10.81	-35.3	-36.3	23.3	0.00e+00	123	29	0	310378496	44	5732
2026-01-15 00:31:29.55	165.14	10.90	-35.4	-36.4	23.2	0.00e+00	123	29	0	313524224	44	5793
2026-01-15 00:31:30.56	165.16	10.99	-35.4	-36.4	23.2	0.00e+00	123	29	0	316669952	44	5801
2026-01-15 00:31:31.57	165.19	11.09	-35.3	-36.3	23.3	0.00e+00	123	29	0	319815680	44	5732
2026-01-15 00:31:32.58	165.21	11.18	-35.3	-36.3	23.3	0.00e+00	123	29	0	322961408	44	5743
2026-01-15 00:31:33.59	165.23	11.27	-35.2	-36.2	23.3	0.00e+00	120	29	0	326107136	44	5678
2026-01-15 00:31:34.60	165.25	11.36	-35.3	-36.2	23.4	0.00e+00	123	29	0	329252864	44	5717
2026-01-15 00:31:35.61	165.27	11.46	-35.2	-36.2	23.4	0.00e+00	122	29	0	332398592	44	5672
2026-01-15 00:31:36.62	165.29	11.55	-35.3	-36.2	23.4	0.00e+00	122	29	0	335544320	44	5695
2026-01-15 00:31:37.63	165.31	11.64	-35.3	-36.2	23.4	0.00e+00	123	29	0	338690048	44	5712
2026-01-15 00:31:38.64	165.33	11.74	-35.1	-36.1	23.5	0.00e+00	122	29	0	341835776	44	5598
2026-01-15 00:31:39.65	165.35	11.83	-35.1	-36.0	23.5	0.00e+00	123	29	0	344981504	44	5580
2026-01-15 00:31:40.66	165.38	11.92	-35.0	-36.0	23.6	0.00e+00	122	29	0	348127232	44	5556
2026-01-15 00:31:41.67	165.40	12.02	-35.0	-35.9	23.5	0.00e+00	122	29	0	351272960	44	5527
2026-01-15 00:31:42.68	165.42	12.11	-35.2	-36.2	23.5	0.00e+00	123	29	0	354418688	44	5663
2026-01-15 00:31:43.69	165.44	12.21	-35.1	-36.0	23.5	0.00e+00	122	29	0	357564416	44	5553
2026-01-15 00:31:44.70	165.46	12.31	-35.0	-36.0	23.5	0.00e+00	120	29	0	360710144	44	5559
2026-01-15 00:31:45.70	165.49	12.40	-35.0	-36.0	23.6	0.00e+00	123	29	0	364904448	44	5539
2026-01-15 00:31:46.71	165.51	12.50	-35.0	-36.0	23.6	0.00e+00	123	29	0	368050176	44	5533
2026-01-15 00:31:47.72	165.53	12.60	-35.0	-35.9	23.5	0.00e+00	123	29	0	370147328	44	5522
2026-01-15 00:31:48.73	165.55	12.69	-34.9	-35.9	23.7	0.00e+00	123	29	0	373293056	44	5472
2026-01-15 00:31:49.75	165.58	12.79	-34.9	-35.8	23.7	0.00e+00	123	29	0	376438784	44	5430
2026-01-15 00:31:50.76	165.60	12.89	-34.9	-35.8	23.7	0.00e+00	123	29	0	380633088	44	5447
2026-01-15 00:31:51.77	165.62	12.99	-34.8	-35.8	23.8	0.00e+00	123	29	0	383778816	44	5407
2026-01-15 00:31:52.78	165.64	13.09	-34.8	-35.7	23.8	0.00e+00	123	29	0	386924544	42	6039
2026-01-15 00:31:53.79	165.67	13.19	-34.9	-35.8	23.7	0.00e+00	122	29	0	390070272	42	6126
2026-01-15 00:31:54.79	165.69	13.29	-34.8	-35.8	23.8	0.00e+00	122	29	0	393216000	42	6080
2026-01-15 00:31:55.80	165.71	13.39	-34.9	-35.8	23.7	0.00e+00	120	29	0	396361728	42	6125
2026-01-15 00:31:56.81	165.74	13.49	-34.9	-35.8	23.8	0.00e+00	123	29	0	399507456	42	6118
2026-01-15 00:31:57.82	165.76	13.59	-34.8	-35.7	23.9	0.00e+00	120	29	0	402653184	42	6035
2026-01-15 00:31:58.83	165.79	13.69	-34.7	-35.7	23.9	0.00e+00	123	29	0	405798912	42	5999
2026-01-15 00:31:59.84	165.81	13.79	-34.8	-35.7	23.9	0.00e+00	122	29	0	408944640	42	6037
2026-01-15 00:32:00.85	165.83	13.89	-34.8	-35.7	23.9	0.00e+00	120	29	0	412090368	42	6020
2026-01-15 00:32:01.86	165.86	14.00	-34.9	-35.8	23.8	0.00e+00	123	29	0	415236096	42	6097
2026-01-15 00:32:02.87	165.88	14.10	-34.7	-35.7	23.9	0.00e+00	122	29	0	418381824	42	5999
2026-01-15 00:32:03.88	165.91	14.20	-34.7	-35.6	23.9	0.00e+00	123	29	0	421527552	42	5959
2026-01-15 00:32:04.89	165.93	14.31	-34.7	-35.6	24.0	0.00e+00	123	29	0	424673280	42	5949
2026-01-15 00:32:05.89	165.96	14.41	-34.7	-35.6	23.9	0.00e+00	123	29	0	427819008	42	5988
2026-01-15 00:32:06.91	165.98	14.52	-34.6	-35.5	24.1	0.00e+00	123	29	0	430964736	42	5910
2026-01-15 00:32:07.92	166.01	14.62	-34.7	-35.7	23.9	0.00e+00	123	29	0	434110464	42	6014
2026-01-15 00:32:08.93	166.03	14.73	-34.6	-35.5	24.0	0.00e+00	120	29	0	437256192	42	5917
2026-01-15 00:32:09.94	166.06	14.84	-34.6	-35.5	24.1	0.00e+00	123	29	0	440401920	42	5911
2026-01-15 00:32:10.95	166.08	14.94	-34.7	-35.6	24.0	0.00e+00	121	29	0	443547648	42	5951
2026-01-15 00:32:11.95	166.11	15.05	-34.6	-35.5	24.0	0.00e+00	122	29	0	446693376	42	5926
2026-01-15 00:32:12.97	166.13	15.16	-34.6	-35.6	24.0	0.00e+00	122	29	0	449839104	42	5929
2026-01-15 00:32:13.98	166.16	15.27	-34.6	-35.5	24.0	0.00e+00	120	29	0	452984832	42	5923
2026-01-15 00:32:14.99	166.19	15.38	-34.7	-35.6	24.1	0.00e+00	123	29	0	456130560	42	5945
2026-01-15 00:32:16.00	166.21	15.48	-34.6	-35.5	24.1	0.00e+00	122	29	0	459276288	42	5903
2026-01-15 00:32:17.01	166.24	15.59	-34.7	-35.6	24.0	0.00e+00	123	29	0	462422016	42	5960
2026-01-15 00:32:18.02	166.27	15.70	-34.8	-35.7	24.0	0.00e+00	122	29	0	465567744	42	6015
2026-01-15 00:32:19.03	166.29	15.82	-34.7	-35.6	24.1	0.00e+00	123	29	0	468713472	42	5938
2026-01-15 00:32:20.04	166.32	15.93	-34.7	-35.6	24.1	0.00e+00	123	29	0	471859200	42	5950
2026-01-15 00:32:21.04	166.35	16.04	-34.7	-35.7	24.0	0.00e+00	122	29	0	475004928	42	6001
2026-01-15 00:32:22.05	166.38	16.15	-34.8	-35.7	23.9	0.00e+00	122	29	0	478150656	42	6064
2026-01-15 00:32:23.07	166.40	16.26	-34.7	-35.6	24.1	0.00e+00	123	29	0	481296384	42	5944
2026-01-15 00:32:24.08	166.43	16.38	-34.7	-35.6	24.1	0.00e+00	123	29	0	484442112	42	5948
2026-01-15 00:32:25.08	166.46	16.49	-34.8	-35.7	24.0	0.00e+00	122	29	0	487587840	42	6027
2026-01-15 00:32:26.09	166.49	16.60	-34.8	-35.7	24.0	0.00e+00	120	29	0	490733568	42	6018
2026-01-15 00:32:27.10	166.52	16.72	-34.8	-35.7	24.0	0.00e+00	122	29	0	493879296	42	6034
2026-01-15 00:32:28.11	166.55	16.83	-34.8	-35.8	24.0	0.00e+00	122	29	0	497025024	42	6075
2026-01-15 00:32:29.12	166.57	16.95	-34.9	-35.8	23.9	0.00e+00	122	29	0	500170752	42	6132
2026-01-15 00:32:30.13	166.60	17.07	-34.8	-35.7	23.9	0.00e+00	122	29	0	503316480	42	6022
2026-01-15 00:32:31.14	166.63	17.18	-34.8	-35.8	23.9	0.00e+00	122	29	0	506462208	42	6069
2026-01-15 00:32:32.15	166.66	17.30	-34.9	-35.8	23.9	0.00e+00	123	29	0	509607936	42	6127
2026-01-15 00:32:33.16	166.69	17.42	-34.8	-35.7	24.0	0.00e+00	123	29	0	512753664	42	6043
2026-01-15 00:32:34.17	166.72	17.54	-34.9	-35.8	23.9	0.00e+00	122	29	0	515899392	42	6085
2026-01-15 00:32:35.18	166.75	17.66	-34.9	-35.8	24.0	0.00e+00	120	29	0	519045120	42	6124
2026-01-15 00:32:36.19	166.78	17.78	-34.8	-35.7	23.9	0.00e+00	123	29	0	522190848	42	6045
2026-01-15 00:32:37.20	166.81	17.90	-34.8	-35.7	24.0	0.00e+00	120	29	0	525336576	42	6041
2026-01-15 00:32:38.21	166.84	18.02	-34.8	-35.8	24.0	0.00e+00	123	29	0	528482304	42	6072
2026-01-15 00:32:39.21	166.87	18.14	-34.8	-35.7	24.0	0.00e+00	122	29	0	531628032	42	6042
2026-01-15 00:32:40.22	166.90	18.26	-34.9	-35.8	23.9	0.00e+00	122	29	0	534773760	42	6072
2026-01-15 00:32:41.23	166.94	18.38	-34.9	-35.8	24.0	0.00e+00	120	29	0	537919488	42	6088
2026-01-15 00:32:42.24	166.97	18.51	-34.8	-35.8	24.0	0.00e+00	123	29	0	541065216	42	6074
2026-01-15 00:32:43.25	167.00	18.63	-34.7	-35.6	24.1	0.00e+00	120	29	0	544210944	42	5993
2026-01-15 00:32:44.26	167.03	18.76	-34.8	-35.7	24.0	0.00e+00	122	29	0	547356672	42	6036
2026-01-15 00:32:45.27	167.06	18.88	-34.8	-35.7	24.1	0.00e+00	120	29	0	550502400	42	6031
2026-01-15 00:32:46.28	167.10	19.01	-34.8	-35.8	24.0	0.00e+00	123	29	0	553648128	42	6073
2026-01-15 00:32:47.29	167.13	19.13	-34.7	-35.6	24.1	0.00e+00	123	29	0	556793856	42	5993
2026-01-15 00:32:48.30	167.16	19.26	-34.7	-35.7	24.1	0.00e+00	122	29	0	559939584	42	5996
2026-01-15 00:32:49.30	167.19	19.39	-34.7	-35.6	24.1	0.00e+00	123	29	0	563085312	42	5947
2026-01-15 00:32:50.31	167.23	19.52	-34.8	-35.7	24.0	0.00e+00	123	29	0	566231040	42	6033
2026-01-15 00:32:51.33	167.26	19.65	-34.5	-35.4	24.2	0.00e+00	123	29	0	569376768	42	5836
2026-01-15 00:32:52.33	167.30	19.78	-34.6	-35.6	24.2	0.00e+00	123	29	0	572522496	42	5929
2026-01-15 00:32:53.34	167.33	19.91	-34.6	-35.5	24.2	0.00e+00	123	29	0	575668224	42	5916
2026-01-15 00:32:54.35	167.36	20.04	-34.5	-35.4	24.2	0.00e+00	123	29	0	578813952	42	5810
2026-01-15 00:32:55.36	167.40	20.17	-34.5	-35.4	24.3	0.00e+00	123	29	0	581959680	42	5810
2026-01-15 00:32:56.37	167.43	20.30	-34.4	-35.3	24.3	0.00e+00	123	29	0	585105408	42	5785
2026-01-15 00:32:57.38	167.47	20.44	-34.5	-35.4	24.2	0.00e+00	123	29	0	588251136	42	5841
2026-01-15 00:32:58.39	167.51	20.57	-34.4	-35.3	24.3	0.00e+00	122	29	0	591396864	42	5729
2026-01-15 00:32:59.39	167.54	20.70	-34.4	-35.3	24.4	0.00e+00	122	29	0	594542592	42	5733
2026-01-15 00:33:00.40	167.58	20.84	-34.3	-35.2	24.4	0.00e+00	123	29	0	597688320	42	5676
2026-01-15 00:33:01.41	167.61	20.97	-34.1	-35.0	24.5	0.00e+00	123	29	0	600834048	42	5568
2026-01-15 00:33:02.42	167.65	21.11	-34.0	-34.9	24.6	0.00e+00	123	29	0	603979776	42	5507
2026-01-15 00:33:03.43	167.69	21.25	-33.9	-34.8	24.7	0.00e+00	123	29	0	607125504	42	5428
2026-01-15 00:33:04.44	167.72	21.39	-33.9	-34.7	24.7	0.00e+00	120	29	0	610271232	42	5400
2026-01-15 00:33:05.45	167.76	21.53	-33.8	-34.7	24.8	0.00e+00	122	29	0	613416960	40	5995
2026-01-15 00:33:06.46	167.80	21.67	-33.6	-34.5	24.9	0.00e+00	123	29	0	616562688	40	5864
2026-01-15 00:33:07.47	167.84	21.81	-33.4	-34.3	25.0	0.00e+00	123	29	0	619708416	40	5761
2026-01-15 00:33:08.47	167.88	21.95	-33.6	-34.4	24.9	0.00e+00	123	29	0	622854144	40	5845
2026-01-15 00:33:09.48	167.92	22.09	-33.3	-34.1	25.2	0.00e+00	123	29	0	625999872	40	5653
2026-01-15 00:33:10.49	167.95	22.23	-33.3	-34.2	25.2	0.00e+00	122	29	0	629145600	40	5679
2026-01-15 00:33:11.50	167.99	22.38	-33.2	-34.1	25.2	0.00e+00	123	29	0	632291328	40	5610
2026-01-15 00:33:12.51	168.03	22.52	-33.4	-34.2	25.1	0.00e+00	122	29	0	635437056	40	5705
2026-01-15 00:33:13.52	168.07	22.66	-33.1	-34.0	25.3	0.00e+00	123	29	0	638582784	40	5547
2026-01-15 00:33:14.53	168.11	22.81	-33.1	-34.0	25.2	0.00e+00	123	29	0	641728512	40	5557
2026-01-15 00:33:15.54	168.16	22.96	-33.0	-33.9	25.4	0.00e+00	123	30	0	644874240	40	5476
2026-01-15 00:33:16.55	168.20	23.11	-33.1	-34.0	25.3	0.00e+00	122	29	0	648019968	40	5555
2026-01-15 00:33:17.56	168.24	23.25	-33.1	-33.9	25.4	0.00e+00	123	29	0	651165696	40	5506
2026-01-15 00:33:18.57	168.28	23.40	-33.1	-33.9	25.4	0.00e+00	123	29	0	654311424	40	5527
2026-01-15 00:33:19.58	168.32	23.55	-33.0	-33.9	25.3	0.00e+00	123	30	0	657457152	40	5504
2026-01-15 00:33:20.59	168.37	23.71	-33.1	-33.9	25.3	0.00e+00	122	30	0	660602880	40	5508
2026-01-15 00:33:21.60	168.41	23.86	-33.1	-34.0	25.3	0.00e+00	122	29	0	663748608	40	5539
2026-01-15 00:33:22.60	168.45	24.01	-33.3	-34.2	25.1	0.00e+00	122	29	0	666894336	40	5673
2026-01-15 00:33:23.61	168.50	24.16	-33.1	-34.0	25.2	0.00e+00	123	29	0	670040064	40	5562
2026-01-15 00:33:24.62	168.54	24.32	-33.3	-34.2	25.2	0.00e+00	120	30	0	673185792	40	5691
2026-01-15 00:33:25.63	168.58	24.47	-33.2	-34.1	25.2	0.00e+00	120	30	0	676331520	40	5615
2026-01-15 00:33:26.64	168.63	24.63	-33.4	-34.3	25.1	0.00e+00	122	29	0	679477248	40	5746
2026-01-15 00:33:27.65	168.67	24.79	-33.4	-34.2	25.2	0.00e+00	123	29	0	682622976	40	5708
2026-01-15 00:33:28.66	168.72	24.95	-33.5	-34.3	25.0	0.00e+00	122	30	0	685768704	40	5790
2026-01-15 00:33:29.67	168.77	25.10	-33.4	-34.3	25.1	0.00e+00	123	29	0	688914432	40	5751
2026-01-15 00:33:30.68	168.81	25.27	-33.5	-34.4	25.0	0.00e+00	120	30	0	692060160	40	5794
2026-01-15 00:33:31.69	168.86	25.43	-33.4	-34.3	25.1	0.00e+00	123	30	0	695205888	40	5753
2026-01-15 00:33:32.70	168.91	25.59	-33.6	-34.5	25.1	0.00e+00	122	29	0	698351616	40	5859
2026-01-15 00:33:33.71	168.96	25.75	-33.7	-34.6	24.9	0.00e+00	123	29	0	701497344	40	5954
2026-01-15 00:33:34.72	169.01	25.92	-33.6	-34.5	25.0	0.00e+00	123	29	0	704643072	40	5865
2026-01-15 00:33:35.73	169.05	26.08	-33.7	-34.6	24.8	0.00e+00	122	29	0	707788800	40	5941
2026-01-15 00:33:36.74	169.10	26.25	-33.8	-34.7	24.9	0.00e+00	123	29	0	710934528	40	6037
2026-01-15 00:33:37.75	169.15	26.41	-33.8	-34.6	24.9	0.00e+00	123	29	0	714080256	40	5982
2026-01-15 00:33:38.76	169.20	26.58	-33.9	-34.8	24.7	0.00e+00	123	30	0	717225984	40	6085
2026-01-15 00:33:39.76	169.25	26.75	-33.9	-34.8	24.8	0.00e+00	121	29	0	720371712	40	6082
2026-01-15 00:33:40.77	169.31	26.92	-34.1	-34.9	24.6	0.00e+00	123	29	0	723517440	40	6194
2026-01-15 00:33:41.78	169.36	27.09	-34.2	-35.1	24.6	0.00e+00	122	29	0	726663168	40	6328
2026-01-15 00:33:42.79	169.41	27.26	-34.3	-35.1	24.5	0.00e+00	122	29	0	729808896	40	6347
2026-01-15 00:33:43.80	169.46	27.44	-34.4	-35.3	24.5	0.00e+00	122	30	0	732954624	40	6437
2026-01-15 00:33:44.81	169.52	27.61	-34.5	-35.4	24.3	0.00e+00	123	30	0	736100352	40	6503
2026-01-15 00:33:45.82	169.57	27.79	-34.5	-35.4	24.3	0.00e+00	122	30	0	739246080	40	6554
2026-01-15 00:33:46.83	169.63	27.96	-34.6	-35.5	24.2	0.00e+00	123	29	0	742391808	40	6627
2026-01-15 00:33:47.84	169.68	28.14	-34.6	-35.5	24.2	0.00e+00	121	30	0	745537536	40	6616
2026-01-15 00:33:48.85	169.74	28.32	-34.7	-35.6	24.1	0.00e+00	122	29	0	748683264	40	6723
2026-01-15 00:33:49.86	169.79	28.50	-34.8	-35.7	24.0	0.00e+00	123	29	0	752877568	42	6064
2026-01-15 00:33:50.87	169.85	28.68	-34.8	-35.7	24.1	0.00e+00	123	30	0	756023296	42	6042
2026-01-15 00:33:51.87	169.91	28.86	-34.8	-35.7	24.1	0.00e+00	123	30	0	758120448	42	6033
2026-01-15 00:33:52.88	169.97	29.05	-34.8	-35.7	24.0	0.00e+00	122	30	0	761266176	42	6058
2026-01-15 00:33:53.89	170.02	29.23	-34.8	-35.7	24.2	0.00e+00	123	29	0	764411904	42	6030
2026-01-15 00:33:54.90	170.08	29.42	-34.7	-35.6	24.2	0.00e+00	123	30	0	767557632	42	5944
2026-01-15 00:33:55.91	170.14	29.60	-34.7	-35.6	24.2	0.00e+00	123	29	0	771751936	42	5942
2026-01-15 00:33:56.92	170.20	29.79	-34.7	-35.6	24.2	0.00e+00	123	29	0	774897664	42	5963
2026-01-15 00:33:57.93	170.27	29.98	-34.7	-35.6	24.2	0.00e+00	121	29	0	778043392	42	5986
2026-01-15 00:33:58.94	170.33	30.17	-34.5	-35.4	24.4	0.00e+00	120	29	0	781189120	42	5829
2026-01-15 00:33:59.94	170.39	30.36	-34.7	-35.6	24.3	0.00e+00	122	30	0	783286272	42	5954
2026-01-15 00:34:00.95	170.45	30.56	-34.3	-35.1	24.5	0.00e+00	122	29	0	787480576	42	5653
2026-01-15 00:34:01.96	170.52	30.75	-34.1	-35.0	24.6	0.00e+00	123	29	0	790626304	42	5571
2026-01-15 00:34:02.97	170.58	30.95	-34.1	-35.0	24.6	0.00e+00	120	30	0	793772032	42	5569
2026-01-15 00:34:03.98	170.65	31.14	-34.1	-35.0	24.7	0.00e+00	122	29	0	796917760	42	5551
2026-01-15 00:34:04.99	170.72	31.34	-34.1	-35.0	24.8	0.00e+00	120	30	0	800063488	42	5549
2026-01-15 00:34:06.00	170.78	31.54	-33.6	-34.4	25.0	0.00e+00	122	30	0	803209216	40	5840
2026-01-15 00:34:07.01	170.85	31.74	-33.5	-34.4	25.0	0.00e+00	122	30	0	806354944	40	5823
2026-01-15 00:34:08.02	170.92	31.94	-33.5	-34.4	25.0	0.00e+00	122	29	0	809500672	40	5806
2026-01-15 00:34:09.03	170.99	32.15	-33.6	-34.4	25.0	0.00e+00	123	30	0	812646400	40	5848
2026-01-15 00:34:10.04	171.06	32.35	-33.6	-34.4	25.1	0.00e+00	122	30	0	815792128	40	5836
2026-01-15 00:34:11.05	171.13	32.56	-33.7	-34.5	25.0	0.00e+00	123	30	0	818937856	40	5915
2026-01-15 00:34:12.06	171.20	32.77	-33.8	-34.6	24.9	0.00e+00	123	30	0	822083584	40	5993
2026-01-15 00:34:13.07	171.28	32.98	-34.1	-34.9	24.7	0.00e+00	122	29	0	825229312	40	6193
2026-01-15 00:34:14.08	171.35	33.19	-34.3	-35.1	24.6	0.00e+00	123	30	0	828375040	40	6338
2026-01-15 00:34:15.09	171.43	33.40	-34.6	-35.5	24.3	0.00e+00	122	30	0	831520768	40	6624
2026-01-15 00:34:16.10	171.50	33.61	-34.8	-35.7	24.2	0.00e+00	121	30	0	834666496	42	6062
2026-01-15 00:34:17.11	171.58	33.83	-35.0	-36.0	23.9	0.00e+00	123	30	0	837812224	42	6211
2026-01-15 00:34:18.12	171.66	34.04	-35.3	-36.2	23.8	0.00e+00	123	30	0	840957952	42	6384
2026-01-15 00:34:19.13	171.73	34.26	-35.5	-36.4	23.6	0.00e+00	120	30	0	844103680	42	6543
2026-01-15 00:34:20.14	171.81	34.48	-35.6	-36.5	23.6	0.00e+00	123	30	0	847249408	42	6646
2026-01-15 00:34:21.15	171.89	34.70	-35.6	-36.5	23.6	0.00e+00	122	29	0	850395136	42	6607
2026-01-15 00:34:22.16	171.98	34.92	-35.6	-36.5	23.6	0.00e+00	122	30	0	853540864	42	6642
2026-01-15 00:34:23.18	172.06	35.15	-35.6	-36.5	23.6	0.00e+00	123	30	0	856686592	42	6621
2026-01-15 00:34:24.19	172.14	35.37	-35.8	-36.7	23.4	0.00e+00	122	30	0	859832320	42	6761
2026-01-15 00:34:25.20	172.23	35.60	-35.7	-36.7	23.4	0.00e+00	122	30	0	862978048	44	6021
2026-01-15 00:34:26.21	172.32	35.83	-36.0	-36.9	23.2	0.00e+00	122	30	0	866123776	44	6178
2026-01-15 00:34:27.22	172.40	36.06	-35.9	-36.9	23.2	0.00e+00	121	30	0	869269504	44	6158
2026-01-15 00:34:28.23	172.49	36.29	-36.2	-37.1	23.0	0.00e+00	123	30	0	872415232	44	6346
2026-01-15 00:34:29.24	172.58	36.53	-36.5	-37.5	22.7	0.00e+00	123	30	0	875560960	44	6600
2026-01-15 00:34:30.25	172.67	36.76	-36.8	-37.8	22.4	0.00e+00	122	30	0	878706688	46	6115
2026-01-15 00:34:31.26	172.76	37.00	-37.0	-38.0	22.2	0.00e+00	122	30	0	881852416	46	6266
2026-01-15 00:34:32.27	172.86	37.23	-37.1	-38.2	22.1	0.00e+00	122	30	0	884998144	46	6367
2026-01-15 00:34:33.28	172.95	37.47	-36.9	-38.0	22.1	0.00e+00	122	30	0	888143872	46	6217
2026-01-15 00:34:34.29	173.05	37.72	-36.9	-37.9	22.3	0.00e+00	122	30	0	891289600	46	6181
2026-01-15 00:34:35.30	173.15	37.96	-36.8	-37.9	22.2	0.00e+00	123	30	0	894435328	46	6142
2026-01-15 00:34:36.31	173.25	38.20	-36.6	-37.6	22.4	0.00e+00	123	30	0	897581056	46	5958
2026-01-15 00:34:37.32	173.35	38.45	-36.4	-37.4	22.5	0.00e+00	123	30	0	900726784	46	5850
2026-01-15 00:34:38.33	173.45	38.70	-36.3	-37.3	22.7	0.00e+00	123	30	0	903872512	46	5749
2026-01-15 00:34:39.33	173.55	38.94	-36.3	-37.3	22.7	0.00e+00	122	29	0	907018240	46	5748
2026-01-15 00:34:40.34	173.66	39.20	-36.3	-37.3	22.6	0.00e+00	120	29	0	910163968	46	5780
2026-01-15 00:34:41.35	173.76	39.45	-36.4	-37.4	22.4	0.00e+00	123	29	0	913309696	46	5814
2026-01-15 00:34:42.36	173.87	39.70	-36.4	-37.5	22.4	0.00e+00	123	30	0	916455424	46	5863
2026-01-15 00:34:43.37	173.98	39.96	-36.5	-37.5	22.5	0.00e+00	123	30	0	919601152	46	5901
2026-01-15 00:34:44.38	174.09	40.22	-36.4	-37.4	22.7	0.00e+00	123	30	0	922746880	46	5799
2026-01-15 00:34:45.39	174.21	40.48	-36.4	-37.4	22.7	0.00e+00	123	30	0	925892608	46	5830
2026-01-15 00:34:46.40	174.32	40.74	-36.4	-37.4	22.9	0.00e+00	120	30	0	929038336	46	5816
2026-01-15 00:34:47.41	174.44	41.01	-36.6	-37.6	22.7	0.00e+00	120	30	0	932184064	46	5971
2026-01-15 00:34:48.42	174.56	41.27	-36.7	-37.7	22.4	0.00e+00	120	30	0	935329792	46	6045
2026-01-15 00:34:49.43	174.68	41.54	-37.0	-38.0	22.1	0.00e+00	123	30	0	938475520	46	6239
2026-01-15 00:34:50.44	174.80	41.81	-37.3	-38.3	22.0	0.00e+00	122	30	0	941621248	46	6481
2026-01-15 00:34:51.45	174.92	42.08	-37.5	-38.6	21.7	0.00e+00	122	30	0	944766976	46	6658
2026-01-15 00:34:52.46	175.05	42.35	-37.8	-38.8	21.6	0.00e+00	123	30	0	947912704	48	6122
2026-01-15 00:34:53.47	175.18	42.63	-37.7	-38.8	21.7	0.00e+00	123	30	0	951058432	48	6092
2026-01-15 00:34:54.48	175.31	42.90	-37.4	-38.4	22.0	0.00e+00	123	29	0	954204160	48	5838
2026-01-15 00:34:55.49	175.44	43.18	-37.2	-38.2	22.2	0.00e+00	123	29	0	957349888	48	5682
2026-01-15 00:34:56.49	175.58	43.46	-37.0	-38.0	22.3	0.00e+00	123	30	0	960495616	48	5583
2026-01-15 00:34:57.50	175.72	43.74	-36.8	-37.8	22.6	0.00e+00	122	29	0	963641344	48	5425
2026-01-15 00:34:58.51	175.86	44.03	-36.8	-37.8	22.6	0.00e+00	123	30	0	966787072	48	5437
2026-01-15 00:34:59.52	176.00	44.31	-36.9	-37.9	22.5	0.00e+00	123	30	0	969932800	46	6179
2026-01-15 00:35:00.53	176.14	44.60	-37.1	-38.1	22.3	0.00e+00	123	30	0	973078528	46	6298
2026-01-15 00:35:01.54	176.29	44.89	-37.0	-38.0	22.2	0.00e+00	120	30	0	976224256	46	6269
2026-01-15 00:35:02.55	176.44	45.18	-37.1	-38.1	22.1	0.00e+00	123	29	0	979369984	46	6325
2026-01-15 00:35:03.56	176.60	45.48	-37.3	-38.3	22.1	0.00e+00	123	30	0	982515712	46	6440
2026-01-15 00:35:04.57	176.75	45.77	-37.2	-38.2	22.1	0.00e+00	123	30	0	985661440	46	6359
2026-01-15 00:35:05.58	176.91	46.07	-37.1	-38.1	22.3	0.00e+00	122	30	0	988807168	46	6296
2026-01-15 00:35:06.59	177.07	46.37	-37.1	-38.1	22.4	0.00e+00	122	30	0	991952896	46	6336
2026-01-15 00:35:07.60	177.24	46.67	-37.1	-38.1	22.3	0.00e+00	123	30	0	995098624	46	6301
2026-01-15 00:35:08.61	177.40	46.98	-36.7	-37.7	22.7	0.00e+00	123	29	0	998244352	46	6002
2026-01-15 00:35:09.62	177.58	47.28	-36.5	-37.5	22.8	0.00e+00	122	30	0	1001390080	46	5897
2026-01-15 00:35:10.63	177.75	47.59	-36.2	-37.1	23.0	0.00e+00	122	30	0	1004535808	46	5645
2026-01-15 00:35:11.64	177.93	47.90	-35.9	-36.9	23.3	0.00e+00	123	30	0	1007681536	46	5493
2026-01-15 00:35:12.65	178.11	48.21	-35.9	-36.8	23.3	0.00e+00	120	30	0	1010827264	46	5463
2026-01-15 00:35:13.66	178.29	48.53	-35.9	-36.9	23.3	0.00e+00	122	30	0	1013972992	44	6169
2026-01-15 00:35:14.66	178.48	48.84	-36.1	-37.1	23.0	0.00e+00	123	30	0	1017118720	44	6306
2026-01-15 00:35:15.67	178.67	49.15	-35.6	-36.5	23.6	0.00e+00	123	30	0	1020264448	44	5920
2026-01-15 00:35:16.68	178.87	49.47	-35.5	-36.4	23.7	0.00e+00	124	30	0	1023410176	44	5809
2026-01-15 00:35:17.68	179.07	49.79	-35.7	-36.6	23.5	0.00e+00	123	30	0	1026555904	44	5979
2026-01-15 00:35:18.69	179.27	50.12	-35.8	-36.7	23.4	0.00e+00	122	30	0	1029701632	44	6043
2026-01-15 00:35:19.70	179.48	50.44	-36.0	-37.0	23.1	0.00e+00	120	30	0	1032847360	44	6212
2026-01-15 00:35:20.71	179.69	50.77	-36.1	-37.1	23.0	0.00e+00	122	30	0	1035993088	44	6343
2026-01-15 00:35:21.72	179.91	51.10	-36.1	-37.1	23.0	0.00e+00	123	30	0	1039138816	44	6297
2026-01-15 00:35:22.72	180.13	51.42	-36.2	-37.2	23.1	0.00e+00	122	30	0	1042284544	44	6371
2026-01-15 00:35:23.73	180.36	51.76	-36.0	-36.9	23.2	0.00e+00	122	30	0	1045430272	44	6193
2026-01-15 00:35:24.74	180.59	52.09	-36.1	-37.1	23.0	0.00e+00	123	30	0	1048576000	44	6325
2026-01-15 00:35:25.75	180.83	52.43	-36.5	-37.6	22.8	0.00e+00	123	30	0	1051721728	44	6654
2026-01-15 00:35:26.76	181.07	52.76	-36.4	-37.4	23.0	0.00e+00	122	30	0	1054867456	44	6506
2026-01-15 00:35:27.77	181.32	53.10	-35.9	-36.9	23.3	0.00e+00	123	30	0	1058013184	44	6166
2026-01-15 00:35:28.78	181.58	53.45	-36.0	-36.9	23.4	0.00e+00	122	30	0	1061158912	44	6198
2026-01-15 00:35:29.79	181.84	53.79	-35.6	-36.5	23.6	0.00e+00	123	30	0	1064304640	44	5907
2026-01-15 00:35:30.80	182.11	54.13	-35.2	-36.2	23.8	0.00e+00	123	30	0	1067450368	44	5674
2026-01-15 00:35:31.81	182.38	54.48	-35.0	-35.9	24.0	0.00e+00	122	30	0	1070596096	44	5487
2026-01-15 00:35:32.82	182.66	54.83	-34.9	-35.8	24.0	0.00e+00	122	30	0	1073741824	44	5415
2026-01-15 00:35:33.83	182.95	55.18	-34.6	-35.5	24.4	0.00e+00	123	30	0	1076887552	42	5871
2026-01-15 00:35:34.84	183.24	55.53	-34.7	-35.6	24.3	0.00e+00	123	30	0	1080033280	42	5968
2026-01-15 00:35:35.85	183.54	55.88	-34.9	-35.8	24.1	0.00e+00	123	30	0	1083179008	42	6097
2026-01-15 00:35:36.86	183.85	56.24	-34.8	-35.7	24.1	0.00e+00	122	30	0	1086324736	42	6043
2026-01-15 00:35:37.87	184.16	56.59	-34.7	-35.6	24.2	0.00e+00	122	30	0	1089470464	42	5977
2026-01-15 00:35:38.88	184.49	56.95	-34.8	-35.8	24.1	0.00e+00	120	30	0	1092616192	42	6076
2026-01-15 00:35:39.89	184.82	57.31	-34.7	-35.6	24.2	0.00e+00	123	30	0	1095761920	42	5943
2026-01-15 00:35:40.90	185.16	57.67	-34.3	-35.2	24.5	0.00e+00	122	30	0	1098907648	42	5711
2026-01-15 00:35:41.91	185.52	58.03	-34.2	-35.0	24.7	0.00e+00	122	30	0	1102053376	42	5587
2026-01-15 00:35:42.92	185.88	58.40	-33.6	-34.4	25.1	0.00e+00	123	30	0	1105199104	40	5853
2026-01-15 00:35:43.93	186.25	58.76	-33.3	-34.2	25.2	0.00e+00	123	30	0	1108344832	40	5687
2026-01-15 00:35:44.94	186.63	59.12	-33.5	-34.3	25.2	0.00e+00	120	30	0	1111490560	40	5779
2026-01-15 00:35:45.95	187.02	59.49	-33.7	-34.6	25.0	0.00e+00	123	30	0	1114636288	40	5951
2026-01-15 00:35:46.96	187.42	59.86	-33.6	-34.5	25.0	0.00e+00	122	30	0	1118830592	40	5887
2026-01-15 00:35:47.96	187.83	60.22	-33.5	-34.4	25.0	0.00e+00	122	30	0	1121976320	40	5820
2026-01-15 00:35:48.97	188.26	60.59	-33.6	-34.5	25.0	0.00e+00	123	30	0	1124073472	40	5861
2026-01-15 00:35:49.98	188.70	60.96	-33.6	-34.4	25.1	0.00e+00	123	30	0	1127219200	40	5854
2026-01-15 00:35:50.99	189.15	61.33	-33.4	-34.2	25.1	0.00e+00	123	30	0	1130364928	40	5713
2026-01-15 00:35:52.00	189.61	61.70	-33.3	-34.2	25.3	0.00e+00	123	30	0	1134559232	40	5666
2026-01-15 00:35:53.01	190.09	62.07	-32.9	-33.8	25.6	0.00e+00	120	29	0	1137704960	40	5405
2026-01-15 00:35:54.02	190.58	62.44	-32.8	-33.6	25.8	0.00e+00	123	30	0	1140850688	40	5301
2026-01-15 00:35:55.03	191.09	62.81	-32.4	-33.2	25.9	0.00e+00	123	30	0	1143996416	38	5701
2026-01-15 00:35:56.04	191.62	63.19	-32.5	-33.3	25.9	0.00e+00	122	30	0	1146093568	38	5755
2026-01-15 00:35:57.05	192.16	63.56	-32.4	-33.2	25.9	0.00e+00	122	30	0	1149239296	38	5720
2026-01-15 00:35:58.04	192.70	63.92	-32.2	-33.1	26.1	0.00e+00	122	30	0	1153433600	38	5613
2026-01-15 00:35:59.05	193.28	64.29	-32.6	-33.4	25.8	0.00e+00	120	30	0	1156579328	38	5822
2026-01-15 00:36:00.06	193.87	64.66	-32.8	-33.6	25.8	0.00e+00	123	30	0	1159725056	38	5967
2026-01-15 00:36:01.07	194.49	65.03	-32.8	-33.6	25.5	0.00e+00	122	30	0	1162870784	38	5981
2026-01-15 00:36:02.08	195.12	65.40	-32.7	-33.6	25.6	0.00e+00	122	30	0	1166016512	38	5930
2026-01-15 00:36:03.09	195.78	65.77	-32.8	-33.7	25.6	0.00e+00	120	30	0	1169162240	38	6043
2026-01-15 00:36:04.10	196.45	66.13	-32.9	-33.7	25.6	0.00e+00	123	30	0	1172307968	38	6042
2026-01-15 00:36:05.10	197.15	66.50	-32.9	-33.7	25.6	0.00e+00	122	30	0	1175453696	38	6042
2026-01-15 00:36:06.11	197.87	66.86	-32.9	-33.8	25.6	0.00e+00	120	30	0	1178599424	38	6098
2026-01-15 00:36:07.12	198.62	67.22	-33.0	-33.8	25.4	0.00e+00	123	30	0	1181745152	38	6126
2026-01-15 00:36:08.13	199.40	67.58	-32.6	-33.5	25.6	0.00e+00	120	30	0	1184890880	38	5864
2026-01-15 00:36:09.14	200.20	67.94	-32.8	-33.6	25.6	0.00e+00	123	30	0	1188036608	38	5985
2026-01-15 00:36:10.15	201.03	68.29	-32.8	-33.6	25.6	0.00e+00	122	30	0	1191182336	38	5983
2026-01-15 00:36:11.16	201.89	68.64	-32.9	-33.8	25.2	0.00e+00	120	30	0	1194328064	38	6103
2026-01-15 00:36:12.17	202.79	68.99	-33.1	-34.0	25.2	0.00e+00	123	30	0	1197473792	38	6221
2026-01-15 00:36:13.18	203.71	69.34	-33.1	-34.0	25.3	0.00e+00	123	30	0	1200619520	38	6248
2026-01-15 00:36:14.19	204.67	69.68	-33.2	-34.1	25.3	0.00e+00	120	30	0	1203765248	38	6308
2026-01-15 00:36:15.20	205.66	70.01	-33.2	-34.1	25.2	0.00e+00	122	30	0	1206910976	38	6299
2026-01-15 00:36:16.21	206.69	70.35	-32.9	-33.8	25.4	0.00e+00	122	30	0	1210056704	38	6070
2026-01-15 00:36:17.21	207.74	70.67	-32.9	-33.8	25.3	0.00e+00	123	30	0	1213202432	38	6073
2026-01-15 00:36:18.22	208.85	70.99	-32.4	-33.3	25.6	0.00e+00	120	30	0	1216348160	38	5743
2026-01-15 00:36:19.23	209.99	71.31	-32.6	-33.4	25.6	0.00e+00	122	30	0	1219493888	38	5850
2026-01-15 00:36:20.25	211.19	71.62	-32.7	-33.5	25.8	0.00e+00	120	30	0	1222639616	38	5889
2026-01-15 00:36:21.26	212.42	71.92	-32.7	-33.5	25.6	0.00e+00	122	30	0	1225785344	38	5911
2026-01-15 00:36:22.27	213.69	72.22	-32.9	-33.8	25.3	0.00e+00	123	30	0	1228931072	38	6077
2026-01-15 00:36:23.28	215.00	72.50	-32.9	-33.8	25.2	0.00e+00	123	30	0	1232076800	38	6104
2026-01-15 00:36:24.29	216.37	72.78	-33.0	-33.9	25.4	0.00e+00	120	30	0	1235222528	38	6135
2026-01-15 00:36:25.30	217.77	73.05	-33.2	-34.0	25.4	0.00e+00	122	30	0	1238368256	38	6261
2026-01-15 00:36:26.31	219.23	73.32	-32.9	-33.8	25.4	0.00e+00	120	30	0	1241513984	38	6093
2026-01-15 00:36:27.32	220.73	73.57	-32.8	-33.7	25.6	0.00e+00	123	30	0	1244659712	38	6015
2026-01-15 00:36:28.33	222.28	73.81	-33.1	-33.9	25.5	0.00e+00	122	29	0	1247805440	38	6190
2026-01-15 00:36:29.34	223.88	74.04	-33.2	-34.1	25.3	0.00e+00	123	29	0	1250951168	38	6279
2026-01-15 00:36:30.35	225.52	74.25	-33.5	-34.4	25.1	0.00e+00	123	30	0	1254096896	38	6536
2026-01-15 00:36:31.36	227.21	74.46	-33.4	-34.3	25.2	0.00e+00	120	30	0	1257242624	38	6482
2026-01-15 00:36:32.36	228.93	74.65	-33.3	-34.2	25.2	0.00e+00	123	30	0	1260388352	38	6415
2026-01-15 00:36:33.37	230.71	74.83	-33.5	-34.4	24.9	0.00e+00	123	30	0	1263534080	38	6551
2026-01-15 00:36:34.38	232.53	74.99	-33.5	-34.4	25.2	0.00e+00	123	29	0	1266679808	38	6518
2026-01-15 00:36:35.40	234.41	75.14	-33.5	-34.3	25.1	0.00e+00	120	30	0	1269825536	38	6488
2026-01-15 00:36:36.40	236.29	75.28	-33.6	-34.5	25.0	0.00e+00	123	30	0	1272971264	38	6617
2026-01-15 00:36:37.41	238.23	75.40	-33.3	-34.2	25.3	0.00e+00	122	30	0	1276116992	38	6396
2026-01-15 00:36:38.42	240.19	75.50	-33.2	-34.1	25.5	0.00e+00	122	30	0	1279262720	38	6301
2026-01-15 00:36:39.43	242.18	75.59	-33.1	-34.0	25.4	0.00e+00	123	30	0	1282408448	38	6233
2026-01-15 00:36:40.44	244.20	75.66	-33.1	-34.0	25.3	0.00e+00	123	30	0	1285554176	38	6230
2026-01-15 00:36:41.45	246.23	75.71	-33.2	-34.1	25.3	0.00e+00	123	30	0	1288699904	38	6325
2026-01-15 00:36:42.46	248.27	75.74	-33.1	-34.0	25.2	0.00e+00	122	30	0	1291845632	38	6249
2026-01-15 00:36:43.47	250.32	75.76	-33.0	-33.9	25.5	0.00e+00	120	30	0	1294991360	38	6145
2026-01-15 00:36:44.48	252.38	75.76	-33.0	-33.8	25.5	0.00e+00	123	30	0	1298137088	38	6123
2026-01-15 00:36:45.49	254.43	75.74	-33.3	-34.2	25.2	0.00e+00	122	30	0	1301282816	38	6364
2026-01-15 00:36:46.50	256.47	75.71	-33.1	-34.0	25.5	0.00e+00	122	30	0	1304428544	38	6226
2026-01-15 00:36:47.51	258.50	75.66	-33.0	-33.9	25.4	0.00e+00	120	30	0	1307574272	38	6139
2026-01-15 00:36:48.52	260.52	75.59	-32.8	-33.7	25.6	0.00e+00	122	30	0	1310720000	38	6002
2026-01-15 00:36:49.53	262.51	75.50	-32.9	-33.8	25.6	0.00e+00	120	30	0	1313865728	38	6072
2026-01-15 00:36:50.54	264.47	75.40	-33.1	-34.0	25.4	0.00e+00	122	30	0	1317011456	38	6230
2026-01-15 00:36:51.55	266.40	75.28	-33.6	-34.5	25.0	0.00e+00	123	30	0	1320157184	38	6623
2026-01-15 00:36:52.56	268.30	75.14	-33.5	-34.4	25.1	0.00e+00	120	30	0	1323302912	40	5816
2026-01-15 00:36:53.57	270.16	74.99	-33.6	-34.5	25.0	0.00e+00	123	30	0	1326448640	40	5863
2026-01-15 00:36:54.58	271.98	74.83	-33.3	-34.2	25.0	0.00e+00	123	30	0	1329594368	40	5702
2026-01-15 00:36:55.59	273.76	74.65	-33.3	-34.1	25.3	0.00e+00	120	30	0	1332740096	40	5648
2026-01-15 00:36:56.59	275.48	74.46	-33.0	-33.9	25.3	0.00e+00	122	30	0	1335885824	40	5502
2026-01-15 00:36:57.60	277.17	74.25	-33.1	-33.9	25.2	0.00e+00	120	30	0	1339031552	40	5505
2026-01-15 00:36:58.61	278.81	74.04	-33.6	-34.5	24.9	0.00e+00	123	30	0	1342177280	40	5895
2026-01-15 00:36:59.63	280.43	73.80	-33.8	-34.7	24.9	0.00e+00	122	30	0	1345323008	40	6054
2026-01-15 00:37:00.63	281.96	73.57	-33.3	-34.2	25.2	0.00e+00	123	30	0	1348468736	40	5676
2026-01-15 00:37:01.64	283.46	73.32	-33.3	-34.2	25.1	0.00e+00	123	30	0	1351614464	40	5675
2026-01-15 00:37:02.65	284.91	73.05	-33.7	-34.6	24.7	0.00e+00	120	30	0	1354760192	40	5965
2026-01-15 00:37:03.66	286.32	72.78	-33.0	-33.9	24.8	0.00e+00	122	30	0	1357905920	40	5504
2026-01-15 00:37:04.67	287.68	72.51	-33.2	-34.0	25.1	0.00e+00	123	30	0	1361051648	40	5575
2026-01-15 00:37:05.68	288.99	72.22	-33.2	-34.1	24.8	0.00e+00	122	30	0	1364197376	40	5617
2026-01-15 00:37:06.69	290.26	71.92	-32.7	-33.7	24.9	0.00e+00	123	30	0	1367343104	40	5344
2026-01-15 00:37:07.70	291.49	71.62	-32.6	-33.5	25.6	0.00e+00	123	30	0	1370488832	38	5881
2026-01-15 00:37:08.71	292.67	71.31	-32.7	-33.5	25.7	0.00e+00	123	30	0	1373634560	38	5897
2026-01-15 00:37:09.72	293.82	71.00	-33.3	-34.2	25.2	0.00e+00	123	30	0	1376780288	38	6399
2026-01-15 00:37:10.73	294.92	70.68	-33.9	-34.8	24.8	0.00e+00	122	30	0	1379926016	40	6121
2026-01-15 00:37:11.74	295.98	70.35	-34.2	-35.2	24.2	0.00e+00	123	30	0	1383071744	40	6399
2026-01-15 00:37:12.75	297.01	70.02	-34.1	-35.0	24.5	0.00e+00	123	30	0	1386217472	40	6237
2026-01-15 00:37:13.76	298.00	69.68	-33.7	-34.6	25.0	0.00e+00	122	30	0	1389363200	40	5939
2026-01-15 00:37:14.76	298.95	69.35	-33.1	-33.9	25.4	0.00e+00	123	30	0	1392508928	40	5523
2026-01-15 00:37:15.77	299.87	69.00	-33.7	-34.6	24.8	0.00e+00	123	30	0	1395654656	40	5982
2026-01-15 00:37:16.78	300.77	68.65	-35.0	-35.9	23.9	0.00e+00	123	30	0	1398800384	42	6198
2026-01-15 00:37:17.79	301.63	68.30	-34.9	-35.9	24.0	0.00e+00	122	30	0	1401946112	42	6162
2026-01-15 00:37:18.80	302.46	67.95	-33.7	-34.7	24.4	0.00e+00	123	30	0	1405091840	42	5370
2026-01-15 00:37:19.81	303.26	67.59	-33.2	-34.1	24.9	0.00e+00	122	30	0	1408237568	40	5618
2026-01-15 00:37:20.82	304.04	67.24	-33.2	-34.1	25.2	0.00e+00	122	30	0	1411383296	40	5612
2026-01-15 00:37:21.83	304.79	66.87	-33.0	-33.9	25.4	0.00e+00	122	30	0	1414529024	40	5470
2026-01-15 00:37:22.84	305.51	66.51	-33.8	-34.7	24.6	0.00e+00	122	30	0	1417674752	40	6049
2026-01-15 00:37:23.85	306.21	66.15	-34.5	-35.4	24.2	0.00e+00	123	30	0	1420820480	40	6526
2026-01-15 00:37:24.86	306.89	65.78	-34.6	-35.6	24.2	0.00e+00	122	29	0	1423966208	42	5934
2026-01-15 00:37:25.87	307.54	65.42	-33.8	-34.7	24.2	0.00e+00	123	30	0	1427111936	42	5360
2026-01-15 00:37:26.87	308.17	65.05	-32.9	-33.8	24.6	0.00e+00	123	30	0	1430257664	40	5420
2026-01-15 00:37:27.88	308.78	64.68	-32.8	-33.7	25.4	0.00e+00	120	30	0	1433403392	40	5361
2026-01-15 00:37:28.89	309.38	64.31	-32.7	-33.6	25.6	0.00e+00	120	30	0	1436549120	38	5943
2026-01-15 00:37:29.90	309.95	63.94	-33.2	-34.0	25.3	0.00e+00	123	30	0	1439694848	38	6262
2026-01-15 00:37:30.91	310.51	63.57	-33.8	-34.7	24.9	0.00e+00	122	30	0	1442840576	40	6003
2026-01-15 00:37:31.92	311.05	63.20	-33.9	-34.8	24.8	0.00e+00	122	30	0	1445986304	40	6098
2026-01-15 00:37:32.93	311.57	62.83	-33.9	-34.8	24.7	0.00e+00	122	30	0	1449132032	40	6127
2026-01-15 00:37:33.94	312.08	62.46	-33.4	-34.3	25.0	0.00e+00	122	30	0	1452277760	40	5750
2026-01-15 00:37:34.95	312.58	62.09	-32.9	-33.8	25.5	0.00e+00	120	30	0	1455423488	40	5421
2026-01-15 00:37:35.95	313.05	61.73	-32.7	-33.6	25.7	0.00e+00	123	30	0	1458569216	40	5305
2026-01-15 00:37:36.96	313.51	61.36	-32.7	-33.5	25.6	0.00e+00	122	30	0	1461714944	38	5909
2026-01-15 00:37:37.97	313.96	60.99	-33.3	-34.2	24.9	0.00e+00	122	30	0	1464860672	38	6387
2026-01-15 00:37:38.98	314.40	60.62	-34.3	-35.2	24.3	0.00e+00	122	29	0	1468006400	40	6379
2026-01-15 00:37:39.99	314.83	60.25	-34.7	-35.6	24.2	0.00e+00	123	30	0	1471152128	40	6702
2026-01-15 00:37:41.00	315.24	59.88	-34.0	-34.9	24.8	0.00e+00	122	30	0	1474297856	40	6189
2026-01-15 00:37:42.01	315.64	59.52	-33.8	-34.6	24.8	0.00e+00	123	30	0	1477443584	40	5987
2026-01-15 00:37:43.02	316.03	59.15	-33.6	-34.5	25.1	0.00e+00	123	30	0	1480589312	40	5865
2026-01-15 00:37:44.03	316.41	58.79	-33.2	-34.1	25.4	0.00e+00	123	30	0	1484783616	40	5617
2026-01-15 00:37:45.04	316.78	58.43	-33.4	-34.2	25.2	0.00e+00	123	30	0	1486880768	40	5712
2026-01-15 00:37:46.05	317.15	58.06	-33.7	-34.6	24.9	0.00e+00	122	30	0	1490026496	40	5927
2026-01-15 00:37:47.06	317.50	57.70	-34.4	-35.3	24.4	0.00e+00	122	30	0	1493172224	40	6497
2026-01-15 00:37:48.07	317.84	57.34	-34.7	-35.7	24.0	0.00e+00	123	30	0	1496317952	40	6731
2026-01-15 00:37:49.08	318.17	56.99	-34.8	-35.8	23.6	0.00e+00	122	30	0	1499463680	42	6072
2026-01-15 00:37:50.09	318.50	56.63	-34.4	-35.3	24.0	0.00e+00	123	30	0	1503657984	42	5765
2026-01-15 00:37:51.10	318.81	56.28	-34.3	-35.2	24.4	0.00e+00	120	30	0	1506803712	42	5685
2026-01-15 00:37:52.11	319.12	55.92	-34.1	-35.0	24.7	0.00e+00	123	30	0	1509949440	42	5555
2026-01-15 00:37:53.12	319.42	55.57	-34.3	-35.2	24.5	0.00e+00	123	29	0	1512046592	42	5692
2026-01-15 00:37:54.13	319.71	55.22	-34.6	-35.5	24.3	0.00e+00	123	30	0	1516240896	42	5917
2026-01-15 00:37:55.14	320.00	54.87	-35.0	-36.0	24.0	0.00e+00	123	30	0	1519386624	42	6206
2026-01-15 00:37:56.15	320.28	54.52	-35.1	-36.0	23.9	0.00e+00	123	30	0	1522532352	42	6229
2026-01-15 00:37:57.16	320.55	54.18	-35.2	-36.2	23.8	0.00e+00	123	30	0	1525678080	42	6371
2026-01-15 00:37:58.18	320.82	53.83	-35.6	-36.6	23.4	0.00e+00	122	30	0	1528823808	42	6675
2026-01-15 00:37:59.19	321.08	53.49	-35.8	-36.8	23.0	0.00e+00	122	30	0	1531969536	44	6130
2026-01-15 00:38:00.20	321.34	53.15	-35.7	-36.7	23.2	0.00e+00	123	30	0	1535115264	44	6051
2026-01-15 00:38:01.20	321.58	52.81	-34.9	-35.9	24.1	0.00e+00	123	30	0	1538260992	44	5479
2026-01-15 00:38:02.22	321.83	52.47	-34.8	-35.7	24.3	0.00e+00	123	30	0	1541406720	42	5995
2026-01-15 00:38:03.22	322.07	52.14	-34.9	-35.7	24.2	0.00e+00	122	30	0	1544552448	42	6064
2026-01-15 00:38:04.23	322.30	51.81	-35.8	-36.8	23.3	0.00e+00	123	30	0	1547698176	44	6067
2026-01-15 00:38:05.24	322.53	51.48	-36.6	-37.6	22.6	0.00e+00	123	30	0	1550843904	44	6683
2026-01-15 00:38:06.25	322.75	51.15	-36.9	-38.0	22.3	0.00e+00	122	30	0	1553989632	46	6234
2026-01-15 00:38:07.26	322.97	50.82	-36.6	-37.6	22.5	0.00e+00	122	30	0	1557135360	46	5988
2026-01-15 00:38:08.27	323.18	50.49	-36.3	-37.3	22.8	0.00e+00	120	30	0	1560281088	46	5765
2026-01-15 00:38:09.28	323.39	50.17	-36.3	-37.2	22.9	0.00e+00	122	30	0	1563426816	46	5713
2026-01-15 00:38:10.29	323.59	49.85	-36.5	-37.5	22.7	0.00e+00	123	30	0	1566572544	46	5867
2026-01-15 00:38:11.30	323.79	49.53	-36.8	-37.9	22.1	0.00e+00	123	30	0	1569718272	46	6152
2026-01-15 00:38:12.31	323.99	49.21	-37.0	-38.1	21.7	0.00e+00	122	29	0	1572864000	46	6278
2026-01-15 00:38:13.32	324.18	48.89	-37.2	-38.3	21.6	0.00e+00	123	30	0	1576009728	46	6439
2026-01-15 00:38:14.33	324.37	48.58	-37.2	-38.2	22.1	0.00e+00	122	30	0	1579155456	46	6404
2026-01-15 00:38:15.34	324.56	48.27	-37.0	-38.0	22.3	0.00e+00	123	29	0	1582301184	46	6266
2026-01-15 00:38:16.35	324.74	47.96	-37.1	-38.1	22.1	0.00e+00	123	30	0	1585446912	46	6324
2026-01-15 00:38:17.36	324.92	47.65	-36.8	-37.9	22.2	0.00e+00	123	30	0	1588592640	46	6146
2026-01-15 00:38:18.37	325.09	47.34	-37.2	-38.2	22.1	0.00e+00	122	30	0	1591738368	46	6396
2026-01-15 00:38:19.38	325.26	47.04	-37.5	-38.6	21.8	0.00e+00	123	30	0	1594884096	46	6688
2026-01-15 00:38:20.39	325.43	46.73	-37.5	-38.6	21.7	0.00e+00	122	30	0	1598029824	46	6655
2026-01-15 00:38:21.40	325.59	46.43	-37.5	-38.6	21.8	0.00e+00	123	30	0	1601175552	46	6655
2026-01-15 00:38:22.41	325.76	46.13	-37.3	-38.4	22.0	0.00e+00	122	30	0	1604321280	46	6531
2026-01-15 00:38:23.42	325.91	45.84	-37.4	-38.5	21.9	0.00e+00	123	30	0	1607467008	46	6596
2026-01-15 00:38:24.43	326.07	45.54	-37.6	-38.6	21.7	0.00e+00	120	30	0	1610612736	46	6720
2026-01-15 00:38:25.43	326.22	45.25	-37.7	-38.8	21.6	0.00e+00	123	30	0	1613758464	48	6104
2026-01-15 00:38:26.45	326.37	44.96	-37.9	-38.9	21.5	0.00e+00	123	30	0	1616904192	48	6181
2026-01-15 00:38:27.45	326.52	44.67	-37.8	-38.9	21.3	0.00e+00	120	30	0	1620049920	48	6191
2026-01-15 00:38:28.46	326.67	44.39	-37.4	-38.5	21.5	0.00e+00	122	30	0	1623195648	48	5899
2026-01-15 00:38:29.47	326.81	44.10	-37.2	-38.2	21.8	0.00e+00	122	30	0	1626341376	48	5711
2026-01-15 00:38:30.48	326.95	43.82	-37.2	-38.2	22.0	0.00e+00	122	30	0	1629487104	48	5722
2026-01-15 00:38:31.49	327.09	43.54	-37.3	-38.4	22.0	0.00e+00	122	30	0	1632632832	48	5809
2026-01-15 00:38:32.50	327.22	43.26	-37.3	-38.4	21.8	0.00e+00	123	30	0	1635778560	48	5802
2026-01-15 00:38:33.51	327.35	42.98	-36.7	-37.7	22.1	0.00e+00	120	30	0	1638924288	48	5396
2026-01-15 00:38:34.52	327.49	42.70	-36.6	-37.6	22.4	0.00e+00	123	30	0	1642070016	46	5935
2026-01-15 00:38:35.53	327.61	42.43	-36.5	-37.5	22.6	0.00e+00	122	30	0	1645215744	46	5905
2026-01-15 00:38:36.54	327.74	42.16	-36.5	-37.5	22.6	0.00e+00	123	30	0	1648361472	46	5915
2026-01-15 00:38:37.55	327.87	41.89	-36.5	-37.5	22.6	0.00e+00	123	30	0	1651507200	46	5875
2026-01-15 00:38:38.56	327.99	41.62	-36.3	-37.3	22.7	0.00e+00	122	30	0	1654652928	46	5742
2026-01-15 00:38:39.57	328.11	41.35	-36.2	-37.2	22.7	0.00e+00	123	30	0	1657798656	46	5722
2026-01-15 00:38:40.58	328.23	41.09	-36.2	-37.2	22.8	0.00e+00	123	30	0	1660944384	46	5705
2026-01-15 00:38:41.59	328.35	40.82	-36.5	-37.5	22.7	0.00e+00	122	30	0	1664090112	46	5870
2026-01-15 00:38:42.60	328.46	40.56	-36.8	-37.8	22.5	0.00e+00	123	30	0	1667235840	46	6093
2026-01-15 00:38:43.61	328.57	40.30	-37.3	-38.3	22.1	0.00e+00	123	30	0	1670381568	46	6466
2026-01-15 00:38:44.62	328.69	40.05	-37.5	-38.5	21.9	0.00e+00	123	30	0	1673527296	46	6645
2026-01-15 00:38:45.63	328.80	39.79	-37.4	-38.4	21.9	0.00e+00	120	30	0	1676673024	46	6568
2026-01-15 00:38:46.64	328.90	39.54	-37.3	-38.4	22.1	0.00e+00	122	30	0	1679818752	46	6513
2026-01-15 00:38:47.65	329.01	39.28	-36.9	-38.0	22.3	0.00e+00	123	30	0	1682964480	46	6221
2026-01-15 00:38:48.66	329.12	39.03	-36.7	-37.7	22.5	0.00e+00	122	30	0	1686110208	46	6055
2026-01-15 00:38:49.67	329.22	38.79	-36.8	-37.8	22.5	0.00e+00	123	30	0	1689255936	46	6094
2026-01-15 00:38:50.68	329.32	38.54	-36.5	-37.4	22.8	0.00e+00	122	30	0	1692401664	46	5848
2026-01-15 00:38:51.68	329.42	38.29	-36.3	-37.3	22.9	0.00e+00	122	30	0	1695547392	46	5758
2026-01-15 00:38:52.69	329.52	38.05	-36.3	-37.3	22.9	0.00e+00	122	30	0	1698693120	46	5736
2026-01-15 00:38:53.70	329.62	37.81	-36.3	-37.3	22.8	0.00e+00	123	30	0	1701838848	46	5773
2026-01-15 00:38:54.72	329.72	37.57	-36.1	-37.0	23.0	0.00e+00	123	30	0	1704984576	46	5584
2026-01-15 00:38:55.72	329.81	37.33	-36.0	-37.0	23.1	0.00e+00	120	30	0	1708130304	46	5538
2026-01-15 00:38:56.74	329.91	37.09	-36.1	-37.0	23.1	0.00e+00	123	30	0	1711276032	46	5580
2026-01-15 00:38:57.75	330.00	36.85	-36.0	-37.0	23.2	0.00e+00	123	30	0	1714421760	46	5575
2026-01-15 00:38:58.75	330.09	36.62	-36.1	-37.1	23.0	0.00e+00	122	30	0	1717567488	46	5630
2026-01-15 00:38:59.76	330.18	36.39	-36.0	-37.0	23.1	0.00e+00	122	30	0	1720713216	46	5565
2026-01-15 00:39:00.77	330.27	36.16	-36.1	-37.1	23.1	0.00e+00	123	30	0	1723858944	46	5605
2026-01-15 00:39:01.78	330.36	35.93	-35.9	-36.8	23.3	0.00e+00	122	30	0	1727004672	46	5462
2026-01-15 00:39:02.79	330.44	35.70	-35.6	-36.5	23.5	0.00e+00	122	30	0	1730150400	44	5884
2026-01-15 00:39:03.80	330.53	35.48	-35.4	-36.3	23.6	0.00e+00	123	30	0	1733296128	44	5760
2026-01-15 00:39:04.81	330.61	35.25	-35.4	-36.4	23.6	0.00e+00	123	30	0	1736441856	44	5800
2026-01-15 00:39:05.82	330.69	35.03	-35.6	-36.6	23.3	0.00e+00	123	30	0	1739587584	44	5945
2026-01-15 00:39:06.83	330.78	34.81	-35.8	-36.8	23.2	0.00e+00	123	30	0	1742733312	44	6103
2026-01-15 00:39:07.84	330.86	34.59	-36.2	-37.2	22.8	0.00e+00	122	30	0	1745879040	44	6364
2026-01-15 00:39:08.85	330.94	34.37	-36.4	-37.4	22.7	0.00e+00	123	30	0	1749024768	44	6546
2026-01-15 00:39:09.86	331.02	34.15	-36.6	-37.6	22.6	0.00e+00	123	30	0	1752170496	44	6705
2026-01-15 00:39:10.87	331.10	33.94	-36.7	-37.8	22.5	0.00e+00	123	29	0	1755316224	44	6824
2026-01-15 00:39:11.88	331.17	33.72	-36.8	-37.9	22.5	0.00e+00	122	30	0	1758461952	46	6145
2026-01-15 00:39:12.89	331.25	33.51	-36.5	-37.5	22.7	0.00e+00	120	30	0	1761607680	46	5915
2026-01-15 00:39:13.90	331.32	33.30	-36.2	-37.2	23.1	0.00e+00	123	30	0	1764753408	46	5696
2026-01-15 00:39:14.91	331.40	33.09	-35.7	-36.7	23.4	0.00e+00	123	30	0	1767899136	46	5371
2026-01-15 00:39:15.91	331.47	32.88	-35.6	-36.5	23.6	0.00e+00	122	30	0	1771044864	44	5882
2026-01-15 00:39:16.92	331.54	32.68	-35.2	-36.2	23.8	0.00e+00	122	30	0	1774190592	44	5667
2026-01-15 00:39:17.93	331.61	32.47	-35.1	-36.1	23.9	0.00e+00	123	30	0	1777336320	44	5596
2026-01-15 00:39:18.94	331.69	32.27	-35.0	-35.9	24.0	0.00e+00	123	30	0	1780482048	44	5507
2026-01-15 00:39:19.95	331.76	32.06	-34.9	-35.8	24.1	0.00e+00	123	30	0	1783627776	44	5456
2026-01-15 00:39:20.96	331.82	31.86	-34.8	-35.7	24.1	0.00e+00	123	30	0	1786773504	42	6058
2026-01-15 00:39:21.97	331.89	31.66	-34.8	-35.7	24.2	0.00e+00	122	30	0	1789919232	42	6016
2026-01-15 00:39:22.98	331.96	31.46	-34.8	-35.7	24.1	0.00e+00	122	30	0	1793064960	42	6034
2026-01-15 00:39:23.99	332.03	31.26	-34.9	-35.8	24.0	0.00e+00	123	30	0	1796210688	42	6097
2026-01-15 00:39:25.00	332.09	31.07	-34.8	-35.8	24.0	0.00e+00	120	30	0	1799356416	42	6075
2026-01-15 00:39:26.01	332.16	30.87	-34.8	-35.7	24.1	0.00e+00	122	30	0	1802502144	42	6023
2026-01-15 00:39:27.02	332.22	30.68	-34.8	-35.7	24.1	0.00e+00	122	30	0	1805647872	42	6021
2026-01-15 00:39:28.03	332.29	30.49	-34.6	-35.6	24.2	0.00e+00	123	29	0	1808793600	42	5929
2026-01-15 00:39:29.04	332.35	30.30	-34.7	-35.6	24.3	0.00e+00	122	30	0	1811939328	42	5947
2026-01-15 00:39:30.05	332.41	30.11	-34.4	-35.3	24.4	0.00e+00	123	29	0	1815085056	42	5752
2026-01-15 00:39:31.05	332.47	29.92	-34.2	-35.0	24.6	0.00e+00	122	30	0	1818230784	42	5588
2026-01-15 00:39:32.06	332.54	29.73	-34.1	-35.0	24.6	0.00e+00	122	30	0	1821376512	42	5547
2026-01-15 00:39:33.07	332.60	29.54	-34.0	-34.8	24.7	0.00e+00	123	30	0	1824522240	42	5463
2026-01-15 00:39:34.08	332.66	29.36	-34.0	-34.9	24.6	0.00e+00	123	30	0	1827667968	42	5510
2026-01-15 00:39:35.08	332.71	29.18	-34.2	-35.1	24.4	0.00e+00	122	30	0	1830813696	42	5613
2026-01-15 00:39:36.09	332.77	28.99	-34.3	-35.2	24.4	0.00e+00	123	30	0	1833959424	42	5667
2026-01-15 00:39:37.10	332.83	28.81	-34.3	-35.2	24.4	0.00e+00	123	30	0	1837105152	42	5718
2026-01-15 00:39:38.11	332.89	28.63	-34.4	-35.3	24.4	0.00e+00	123	30	0	1840250880	42	5784
2026-01-15 00:39:39.12	332.94	28.45	-34.4	-35.3	24.4	0.00e+00	123	30	0	1843396608	42	5767
2026-01-15 00:39:40.13	333.00	28.27	-34.4	-35.3	24.4	0.00e+00	123	30	0	1847590912	42	5775
2026-01-15 00:39:41.14	333.06	28.10	-34.4	-35.3	24.4	0.00e+00	123	30	0	1849688064	42	5750
2026-01-15 00:39:42.15	333.11	27.92	-34.5	-35.4	24.4	0.00e+00	123	30	0	1852833792	42	5795
2026-01-15 00:39:43.16	333.17	27.75	-34.3	-35.2	24.6	0.00e+00	122	30	0	1855979520	42	5689
2026-01-15 00:39:44.17	333.22	27.57	-34.4	-35.3	24.5	0.00e+00	121	30	0	1859125248	42	5745
2026-01-15 00:39:45.18	333.27	27.40	-34.2	-35.1	24.5	0.00e+00	122	30	0	1862270976	42	5656
2026-01-15 00:39:46.19	333.33	27.23	-34.4	-35.2	24.5	0.00e+00	123	30	0	1866465280	42	5724
2026-01-15 00:39:47.20	333.38	27.06	-34.3	-35.2	24.6	0.00e+00	122	30	0	1869611008	42	5688
2026-01-15 00:39:48.21	333.43	26.89	-34.4	-35.3	24.4	0.00e+00	120	30	0	1872756736	42	5784
2026-01-15 00:39:49.22	333.48	26.72	-34.4	-35.3	24.4	0.00e+00	122	30	0	1874853888	42	5748
2026-01-15 00:39:50.23	333.53	26.55	-34.3	-35.2	24.5	0.00e+00	123	30	0	1877999616	42	5706
2026-01-15 00:39:51.24	333.58	26.38	-34.2	-35.2	24.5	0.00e+00	122	30	0	1882193920	42	5660
2026-01-15 00:39:52.25	333.63	26.22	-34.3	-35.2	24.5	0.00e+00	120	30	0	1885339648	42	5692
2026-01-15 00:39:53.26	333.68	26.05	-34.2	-35.1	24.6	0.00e+00	123	30	0	1888485376	42	5634
2026-01-15 00:39:54.27	333.73	25.89	-34.3	-35.2	24.4	0.00e+00	120	30	0	1891631104	42	5698
2026-01-15 00:39:55.28	333.78	25.73	-34.3	-35.2	24.4	0.00e+00	123	30	0	1894776832	42	5709
2026-01-15 00:39:56.29	333.83	25.56	-34.3	-35.2	24.4	0.00e+00	120	30	0	1897922560	42	5724
2026-01-15 00:39:57.30	333.88	25.40	-34.3	-35.2	24.4	0.00e+00	123	30	0	1901068288	42	5679
2026-01-15 00:39:58.31	333.92	25.24	-34.4	-35.4	24.3	0.00e+00	120	30	0	1904214016	42	5795
2026-01-15 00:39:59.32	333.97	25.09	-34.3	-35.2	24.4	0.00e+00	123	30	0	1907359744	42	5707
2026-01-15 00:40:00.33	334.02	24.93	-34.4	-35.3	24.3	0.00e+00	122	29	0	1910505472	42	5746
2026-01-15 00:40:01.34	334.06	24.77	-34.3	-35.2	24.3	0.00e+00	122	30	0	1913651200	42	5724
2026-01-15 00:40:02.35	334.11	24.61	-34.3	-35.2	24.3	0.00e+00	123	30	0	1916796928	42	5676
2026-01-15 00:40:03.36	334.15	24.46	-34.3	-35.2	24.3	0.00e+00	122	30	0	1919942656	42	5684
2026-01-15 00:40:04.37	334.20	24.31	-34.3	-35.2	24.3	0.00e+00	123	30	0	1923088384	42	5688
2026-01-15 00:40:05.38	334.24	24.15	-34.3	-35.2	24.3	0.00e+00	123	30	0	1926234112	42	5711
2026-01-15 00:40:06.39	334.29	24.00	-34.3	-35.2	24.2	0.00e+00	123	30	0	1929379840	42	5720
2026-01-15 00:40:07.40	334.33	23.85	-34.3	-35.3	24.2	0.00e+00	123	30	0	1932525568	42	5732
2026-01-15 00:40:08.41	334.37	23.70	-34.5	-35.4	24.0	0.00e+00	122	30	0	1935671296	42	5821
2026-01-15 00:40:09.42	334.42	23.55	-34.5	-35.5	24.0	0.00e+00	123	30	0	1938817024	42	5866
2026-01-15 00:40:10.43	334.46	23.40	-34.6	-35.5	23.9	0.00e+00	123	30	0	1941962752	42	5899
2026-01-15 00:40:11.43	334.50	23.25	-34.7	-35.7	23.8	0.00e+00	123	29	0	1945108480	42	6002
2026-01-15 00:40:12.44	334.54	23.10	-34.8	-35.7	23.7	0.00e+00	123	30	0	1948254208	42	6047
2026-01-15 00:40:13.45	334.58	22.96	-34.8	-35.8	23.7	0.00e+00	123	30	0	1951399936	42	6086
2026-01-15 00:40:14.46	334.62	22.81	-34.9	-35.9	23.7	0.00e+00	123	30	0	1954545664	42	6146
2026-01-15 00:40:15.47	334.66	22.67	-35.0	-35.9	23.7	0.00e+00	121	30	0	1957691392	42	6193
2026-01-15 00:40:16.47	334.70	22.52	-34.8	-35.8	23.8	0.00e+00	123	29	0	1960837120	42	6098
