passes_logs/2026/01/15/R4.6S_Anadyr/R4.6S_Anadyr__20260115_184454_AQUA_rec.log

#Pass ID: 20260115_184454_AQUA
#Satellite: AQUA
#Configuration: AQUA
#almurnet v.1.7.20251203
#Start time: 2026-01-15 18:44:58

#Version: 2.2.20231116
#Station: R4.6S_Anadyr
#Location: 177.4865 lon 64.73178 lat
#TLE: 1 27424U 02022A   26014.61231444  .00000653  00000+0  14070-3 0  9991
#TLE: 2 27424  98.4080 341.0332 0002042  78.9336 335.9961 14.61820174260839

#Time	Az	El	Level	Level2	SNR	BER	BlckErr	Temp	State	Recorded	gain1	gain2
2026-01-15 18:44:58.09	25.91	0.19	-48.4	-64.8	3.3	3.02e+01	0	25	0	0	60	67075
2026-01-15 18:44:59.10	25.85	0.24	-48.5	-66.4	3.5	3.02e+01	0	25	104	0	60	80689
2026-01-15 18:45:00.11	25.78	0.30	-48.6	-66.5	3.5	3.02e+01	0	26	104	0	60	81010
2026-01-15 18:45:01.12	25.71	0.35	-48.6	-66.4	3.5	3.02e+01	0	26	104	0	60	80835
2026-01-15 18:45:02.13	25.65	0.41	-48.5	-66.4	3.5	3.02e+01	0	26	104	0	60	80429
2026-01-15 18:45:03.14	25.58	0.46	-48.5	-66.4	3.5	3.02e+01	0	26	104	0	60	80056
2026-01-15 18:45:04.15	25.51	0.52	-48.2	-66.3	3.5	3.02e+01	0	26	104	0	60	79241
2026-01-15 18:45:05.16	25.44	0.58	-48.2	-66.2	3.5	3.02e+01	0	26	104	0	60	78311
2026-01-15 18:45:06.17	25.38	0.63	-48.0	-66.0	3.5	3.02e+01	0	26	104	0	60	77079
2026-01-15 18:45:07.18	25.31	0.69	-47.6	-65.8	3.5	3.02e+01	0	26	104	0	60	75168
2026-01-15 18:45:08.19	25.24	0.74	-47.7	-65.7	3.5	3.02e+01	0	26	104	0	60	74165
2026-01-15 18:45:09.20	25.17	0.80	-47.5	-65.4	3.5	3.02e+01	0	26	104	0	60	72058
2026-01-15 18:45:10.21	25.10	0.86	-47.2	-65.1	3.5	3.02e+01	0	26	104	0	60	69014
2026-01-15 18:45:11.22	25.03	0.91	-46.8	-64.7	3.5	3.02e+01	0	26	104	0	60	66312
2026-01-15 18:45:12.23	24.96	0.97	-46.8	-64.7	3.5	3.02e+01	0	26	104	0	60	66188
2026-01-15 18:45:13.24	24.89	1.03	-46.8	-64.7	3.5	3.02e+01	0	26	104	0	60	65781
2026-01-15 18:45:14.25	24.82	1.08	-46.8	-64.7	3.5	3.02e+01	0	26	104	0	60	66062
2026-01-15 18:45:15.26	24.75	1.14	-46.8	-64.7	3.5	3.02e+01	0	26	104	0	60	66117
2026-01-15 18:45:16.27	24.68	1.20	-46.7	-64.7	3.5	3.02e+01	0	26	104	0	60	65791
2026-01-15 18:45:17.28	24.61	1.25	-46.7	-64.7	3.5	3.02e+01	0	26	104	0	60	65753
2026-01-15 18:45:18.29	24.53	1.31	-46.7	-64.6	3.5	3.02e+01	0	26	104	0	60	65617
2026-01-15 18:45:19.30	24.46	1.37	-46.7	-64.7	3.5	3.02e+01	0	26	104	0	60	65970
2026-01-15 18:45:20.31	24.39	1.43	-46.7	-64.6	3.5	3.02e+01	0	26	104	0	60	65532
2026-01-15 18:45:21.32	24.32	1.48	-46.7	-64.7	3.5	3.02e+01	0	26	104	0	60	66189
2026-01-15 18:45:22.33	24.24	1.54	-46.7	-64.6	3.5	3.02e+01	0	26	104	0	60	65554
2026-01-15 18:45:23.34	24.17	1.60	-46.7	-64.6	3.5	3.02e+01	0	26	104	0	60	65711
2026-01-15 18:45:24.35	24.10	1.65	-46.7	-64.6	3.5	3.02e+01	0	26	104	0	60	65323
2026-01-15 18:45:25.36	24.02	1.71	-46.7	-64.6	3.5	3.02e+01	0	26	104	0	60	65113
2026-01-15 18:45:26.37	23.95	1.77	-46.7	-64.6	3.5	3.02e+01	0	26	104	0	60	65534
2026-01-15 18:45:27.37	23.88	1.83	-46.7	-64.7	3.5	3.02e+01	0	26	104	0	60	65778
2026-01-15 18:45:28.38	23.80	1.89	-46.7	-64.6	3.5	3.02e+01	0	26	104	0	60	65564
2026-01-15 18:45:29.40	23.72	1.94	-46.7	-64.6	3.5	3.02e+01	0	26	104	0	60	65679
2026-01-15 18:45:30.41	23.65	2.00	-46.7	-64.6	3.5	3.02e+01	0	26	104	0	60	65603
2026-01-15 18:45:31.41	23.57	2.06	-46.7	-64.6	3.5	3.02e+01	0	26	104	0	60	65602
2026-01-15 18:45:32.43	23.50	2.12	-46.7	-64.6	3.5	3.02e+01	0	26	104	0	60	65557
2026-01-15 18:45:33.44	23.42	2.18	-46.7	-64.4	3.5	3.02e+01	0	26	104	0	60	64176
2026-01-15 18:45:34.45	23.34	2.24	-46.7	-64.4	3.5	3.02e+01	0	26	104	0	60	63612
2026-01-15 18:45:35.45	23.26	2.29	-46.7	-64.3	3.5	3.02e+01	0	26	104	0	60	63381
2026-01-15 18:45:36.46	23.19	2.35	-46.6	-64.3	3.5	3.02e+01	0	26	104	0	60	63304
2026-01-15 18:45:37.48	23.11	2.41	-46.7	-64.5	3.5	3.02e+01	0	26	104	0	60	64747
2026-01-15 18:45:38.49	23.03	2.47	-46.7	-64.6	3.5	3.02e+01	0	26	104	0	60	65587
2026-01-15 18:45:39.49	22.95	2.53	-46.7	-64.7	3.5	3.02e+01	0	26	104	0	60	65896
2026-01-15 18:45:40.50	22.87	2.59	-46.7	-64.6	3.5	3.02e+01	0	26	104	0	60	65181
2026-01-15 18:45:41.51	22.79	2.65	-46.7	-64.6	3.5	3.02e+01	0	26	104	0	60	65301
2026-01-15 18:45:42.53	22.71	2.71	-46.7	-64.6	3.5	3.02e+01	0	26	104	0	60	65359
2026-01-15 18:45:43.53	22.63	2.76	-46.6	-64.4	3.5	3.02e+01	0	26	104	0	60	64134
2026-01-15 18:45:44.54	22.55	2.82	-46.6	-64.0	3.5	3.02e+01	0	26	104	0	60	61285
2026-01-15 18:45:45.55	22.47	2.88	-46.5	-63.7	3.5	3.02e+01	0	26	104	0	60	58985
2026-01-15 18:45:46.56	22.39	2.94	-46.5	-63.8	3.5	3.02e+01	0	26	104	0	60	59889
2026-01-15 18:45:47.57	22.31	3.00	-46.6	-64.3	3.5	3.02e+01	0	26	104	0	60	63219
2026-01-15 18:45:48.58	22.22	3.06	-46.5	-63.7	3.5	3.02e+01	0	26	104	0	60	59106
2026-01-15 18:45:49.59	22.14	3.12	-46.0	-61.3	3.5	3.02e+01	0	26	104	0	60	44739
2026-01-15 18:45:50.60	22.06	3.18	-45.1	-58.8	3.5	3.02e+01	0	26	104	0	60	33462
2026-01-15 18:45:51.61	21.98	3.24	-43.9	-56.5	3.5	3.02e+01	0	26	104	0	60	25777
2026-01-15 18:45:52.62	21.89	3.30	-43.4	-55.6	3.5	3.02e+01	0	26	104	0	60	23075
2026-01-15 18:45:53.63	21.81	3.36	-44.6	-57.9	3.5	3.02e+01	0	26	104	0	60	30051
2026-01-15 18:45:54.64	21.72	3.42	-39.6	-50.4	3.6	3.02e+01	0	26	104	0	56	16073
2026-01-15 18:45:55.65	21.64	3.48	-44.1	-56.6	3.4	3.02e+01	0	26	104	0	54	36834
2026-01-15 18:45:56.66	21.55	3.54	-45.7	-60.2	3.5	3.02e+01	0	26	104	0	60	39251
2026-01-15 18:45:57.67	21.47	3.60	-39.2	-49.9	3.5	3.02e+01	0	26	104	0	52	19170
2026-01-15 18:45:58.68	21.38	3.66	-40.2	-51.2	3.5	3.02e+01	0	26	104	0	56	17526
2026-01-15 18:45:59.68	21.29	3.72	-39.7	-50.5	3.5	3.02e+01	0	26	104	0	54	18272
2026-01-15 18:46:00.69	21.21	3.78	-39.6	-50.5	3.5	3.02e+01	0	26	104	0	54	18153
2026-01-15 18:46:01.70	21.12	3.84	-39.1	-49.8	3.5	3.02e+01	0	26	104	0	54	16861
2026-01-15 18:46:02.71	21.03	3.91	-37.7	-48.2	3.5	3.02e+01	0	26	104	0	50	17668
2026-01-15 18:46:03.72	20.94	3.97	-42.7	-54.5	3.5	3.02e+01	0	26	104	0	56	25623
2026-01-15 18:46:04.74	20.85	4.03	-44.3	-56.8	3.5	3.02e+01	0	26	104	0	60	26690
2026-01-15 18:46:05.75	20.77	4.09	-41.2	-52.4	3.5	3.02e+01	0	26	104	0	58	18019
2026-01-15 18:46:06.75	20.68	4.15	-46.9	-64.4	3.5	3.02e+01	0	26	104	0	60	64082
2026-01-15 18:46:07.76	20.59	4.21	-41.6	-52.8	3.5	3.02e+01	0	26	104	0	60	16773
2026-01-15 18:46:08.77	20.50	4.27	-39.6	-50.4	3.5	3.02e+01	0	26	104	0	54	17968
2026-01-15 18:46:09.78	20.41	4.33	-39.4	-50.2	3.5	3.02e+01	0	26	104	0	54	17573
2026-01-15 18:46:10.79	20.31	4.40	-38.6	-49.2	3.5	3.02e+01	0	26	104	0	52	17626
2026-01-15 18:46:11.80	20.22	4.46	-44.5	-57.3	3.5	3.02e+01	0	26	104	0	60	28080
2026-01-15 18:46:12.81	20.13	4.52	-40.3	-51.3	3.5	3.02e+01	0	26	104	0	56	17787
2026-01-15 18:46:13.82	20.04	4.58	-46.9	-64.5	3.5	3.02e+01	0	26	104	0	60	64941
2026-01-15 18:46:14.83	19.94	4.64	-45.9	-60.6	3.5	3.02e+01	0	26	104	0	60	41133
2026-01-15 18:46:15.84	19.85	4.71	-39.9	-50.8	3.5	3.02e+01	0	26	104	0	52	21192
2026-01-15 18:46:16.85	19.76	4.77	-38.6	-49.2	3.5	3.02e+01	0	26	104	0	52	17528
2026-01-15 18:46:17.86	19.66	4.83	-38.6	-49.2	3.5	3.02e+01	0	26	104	0	52	17589
2026-01-15 18:46:18.87	19.57	4.89	-38.3	-48.8	3.5	3.02e+01	0	26	104	0	52	16843
2026-01-15 18:46:19.88	19.47	4.95	-37.9	-48.4	3.5	3.02e+01	0	26	104	0	50	18098
2026-01-15 18:46:20.89	19.38	5.02	-37.7	-48.2	3.6	3.02e+01	0	26	104	0	50	17498
2026-01-15 18:46:21.89	19.28	5.08	-44.1	-56.6	3.5	3.02e+01	0	26	104	0	58	29326
2026-01-15 18:46:22.90	19.18	5.14	-46.4	-61.7	3.5	3.02e+01	0	26	104	0	60	46552
2026-01-15 18:46:23.91	19.09	5.20	-41.0	-52.0	3.5	3.02e+01	0	26	104	0	58	17244
2026-01-15 18:46:24.92	18.99	5.27	-47.0	-64.2	3.5	3.02e+01	0	26	104	0	60	62624
2026-01-15 18:46:25.94	18.89	5.33	-43.0	-54.6	3.5	3.02e+01	0	27	104	0	60	20763
2026-01-15 18:46:26.95	18.79	5.39	-40.8	-51.7	3.5	3.02e+01	0	26	104	0	56	18670
2026-01-15 18:46:27.96	18.69	5.46	-39.6	-50.4	3.6	3.02e+01	0	26	104	0	54	17958
2026-01-15 18:46:28.97	18.59	5.52	-39.1	-49.8	3.5	3.02e+01	0	26	104	0	54	16767
2026-01-15 18:46:29.98	18.49	5.58	-46.9	-63.3	3.5	3.02e+01	0	26	104	0	60	56568
2026-01-15 18:46:30.99	18.39	5.65	-39.1	-49.8	3.5	3.02e+01	0	26	104	0	54	16844
2026-01-15 18:46:32.00	18.29	5.71	-47.0	-64.6	3.5	3.02e+01	0	26	104	0	60	65507
2026-01-15 18:46:33.01	18.19	5.78	-46.2	-61.2	3.5	3.02e+01	0	26	104	0	60	43968
2026-01-15 18:46:34.02	18.09	5.84	-40.3	-51.3	3.5	3.02e+01	0	26	104	0	54	19863
2026-01-15 18:46:35.03	17.99	5.90	-37.8	-48.3	3.5	3.02e+01	0	26	104	0	50	17779
2026-01-15 18:46:36.04	17.88	5.97	-37.1	-47.6	3.5	3.02e+01	0	26	104	0	50	16450
2026-01-15 18:46:37.05	17.78	6.03	-36.6	-46.9	3.5	3.02e+01	0	26	104	0	48	17089
2026-01-15 18:46:38.05	17.68	6.09	-36.4	-46.8	3.5	3.02e+01	0	26	104	0	48	16832
2026-01-15 18:46:39.07	17.57	6.16	-38.2	-48.7	3.5	3.02e+01	0	27	104	0	50	18619
2026-01-15 18:46:40.07	17.47	6.22	-39.0	-49.7	3.5	3.02e+01	0	26	104	0	50	20884
2026-01-15 18:46:41.08	17.36	6.29	-47.0	-64.6	3.5	3.02e+01	0	26	104	0	60	65276
2026-01-15 18:46:42.09	17.25	6.35	-46.3	-61.2	3.5	3.02e+01	0	26	104	0	60	44243
2026-01-15 18:46:43.10	17.15	6.42	-40.3	-51.1	3.5	3.02e+01	0	26	104	0	52	21955
2026-01-15 18:46:44.11	17.04	6.48	-37.3	-47.8	3.5	3.02e+01	0	27	104	0	50	16817
2026-01-15 18:46:45.12	16.93	6.55	-36.9	-47.3	3.5	3.02e+01	0	26	104	0	48	17716
2026-01-15 18:46:46.14	16.82	6.61	-36.3	-46.7	3.6	3.02e+01	0	26	104	0	48	16580
2026-01-15 18:46:47.14	16.71	6.68	-36.0	-46.4	3.6	3.02e+01	0	26	104	0	46	17995
2026-01-15 18:46:48.16	16.60	6.74	-40.0	-50.9	3.5	3.02e+01	0	26	104	0	54	19072
2026-01-15 18:46:49.17	16.49	6.81	-37.8	-48.4	3.5	3.02e+01	0	26	104	0	50	17924
2026-01-15 18:46:50.18	16.38	6.87	-47.1	-64.5	3.5	3.02e+01	0	26	104	0	60	64413
2026-01-15 18:46:51.19	16.27	6.94	-46.3	-61.1	3.5	3.02e+01	0	26	104	0	60	43574
2026-01-15 18:46:52.20	16.16	7.00	-43.1	-54.8	3.5	3.02e+01	0	26	104	0	60	21121
2026-01-15 18:46:53.20	16.05	7.07	-40.4	-51.3	3.5	3.02e+01	0	26	104	0	56	17824
2026-01-15 18:46:54.21	15.94	7.13	-40.4	-51.2	3.5	3.02e+01	0	26	104	0	56	17659
2026-01-15 18:46:55.23	15.82	7.20	-39.7	-50.4	3.5	3.02e+01	0	26	104	0	54	18082
2026-01-15 18:46:56.23	15.71	7.26	-39.7	-50.4	3.5	3.02e+01	0	27	104	0	54	18039
2026-01-15 18:46:57.25	15.59	7.33	-39.1	-49.7	3.5	3.02e+01	0	26	104	0	52	18713
2026-01-15 18:46:58.26	15.48	7.40	-43.1	-54.8	3.5	3.02e+01	0	26	104	0	60	21130
2026-01-15 18:46:59.27	15.36	7.46	-46.0	-60.2	3.5	3.02e+01	0	27	104	0	60	39183
2026-01-15 18:47:00.28	15.25	7.53	-38.7	-49.4	3.4	3.02e+01	0	26	104	0	54	16011
2026-01-15 18:47:01.29	15.13	7.59	-47.1	-64.0	3.5	3.02e+01	0	26	104	0	60	60833
2026-01-15 18:47:02.29	15.01	7.66	-41.2	-52.2	3.5	3.02e+01	0	26	104	0	56	19821
2026-01-15 18:47:03.30	14.90	7.73	-40.3	-51.2	3.5	3.02e+01	0	26	104	0	56	17597
2026-01-15 18:47:04.32	14.78	7.79	-39.1	-49.8	3.5	3.02e+01	0	27	104	0	54	16775
2026-01-15 18:47:05.33	14.66	7.86	-39.6	-50.3	3.5	3.02e+01	0	26	104	0	52	20056
2026-01-15 18:47:06.33	14.54	7.93	-46.3	-61.1	3.5	3.02e+01	0	26	104	0	60	43456
2026-01-15 18:47:07.35	14.42	7.99	-36.5	-46.9	3.5	3.02e+01	0	27	104	0	48	17062
2026-01-15 18:47:08.36	14.29	8.06	-47.2	-64.6	3.5	3.02e+01	0	27	104	0	60	65174
2026-01-15 18:47:09.37	14.17	8.13	-42.2	-53.6	3.6	3.02e+01	0	27	104	0	60	18379
2026-01-15 18:47:10.38	14.05	8.19	-39.1	-49.8	3.5	3.02e+01	0	27	104	0	52	18839
2026-01-15 18:47:11.39	13.93	8.26	-36.7	-47.0	3.5	3.02e+01	0	27	104	0	48	17230
2026-01-15 18:47:12.40	13.80	8.33	-36.2	-46.6	3.6	3.02e+01	0	27	104	0	48	16326
2026-01-15 18:47:13.41	13.68	8.39	-36.0	-46.3	3.6	3.02e+01	0	27	104	0	48	15894
2026-01-15 18:47:14.42	13.55	8.46	-35.8	-46.1	3.6	3.02e+01	0	27	104	0	46	17375
2026-01-15 18:47:15.42	13.43	8.53	-36.9	-47.3	3.5	3.02e+01	0	27	104	0	48	17850
2026-01-15 18:47:16.43	13.30	8.60	-36.5	-46.9	3.5	3.02e+01	0	27	104	0	48	16936
2026-01-15 18:47:17.44	13.18	8.66	-47.1	-64.2	3.5	3.02e+01	0	27	104	0	60	62667
2026-01-15 18:47:18.46	13.05	8.73	-43.0	-54.5	3.5	3.02e+01	0	27	104	0	60	20526
2026-01-15 18:47:19.47	12.92	8.80	-41.5	-52.7	3.5	3.02e+01	0	26	104	0	60	16619
2026-01-15 18:47:20.48	12.79	8.87	-40.0	-50.7	3.5	3.02e+01	0	27	104	0	54	18736
2026-01-15 18:47:21.48	12.66	8.93	-40.1	-50.9	3.5	3.02e+01	0	27	104	0	54	19071
2026-01-15 18:47:22.49	12.53	9.00	-39.9	-50.5	3.5	3.02e+01	0	26	104	0	54	18307
2026-01-15 18:47:23.50	12.40	9.07	-37.9	-48.4	3.5	3.02e+01	0	26	104	0	52	16103
2026-01-15 18:47:24.51	12.27	9.14	-38.0	-48.5	3.5	3.02e+01	0	27	104	0	48	20356
2026-01-15 18:47:25.52	12.14	9.20	-39.6	-50.3	3.5	3.02e+01	0	27	104	0	54	17828
2026-01-15 18:47:26.53	12.01	9.27	-42.9	-54.5	3.5	3.02e+01	0	27	104	0	60	20342
2026-01-15 18:47:27.55	11.87	9.34	-39.8	-50.6	3.5	3.02e+01	0	27	104	0	50	23068
2026-01-15 18:47:28.56	11.74	9.41	-47.2	-63.7	3.6	3.02e+01	0	27	104	0	60	59116
2026-01-15 18:47:29.57	11.60	9.48	-40.2	-50.9	3.6	3.02e+01	0	27	104	0	56	17003
2026-01-15 18:47:30.57	11.47	9.55	-38.7	-49.3	3.5	3.02e+01	0	26	104	0	52	17751
2026-01-15 18:47:31.58	11.33	9.61	-38.1	-48.5	3.5	3.02e+01	0	27	104	0	52	16319
2026-01-15 18:47:32.59	11.19	9.68	-43.6	-55.4	3.5	3.02e+01	0	27	104	0	56	28442
2026-01-15 18:47:33.60	11.06	9.75	-44.1	-56.3	3.5	3.02e+01	0	27	104	0	60	24993
2026-01-15 18:47:34.61	10.92	9.82	-44.5	-56.8	3.4	3.02e+01	0	27	104	0	52	41959
2026-01-15 18:47:35.62	10.78	9.89	-45.8	-59.2	3.5	3.02e+01	0	27	104	0	60	35043
2026-01-15 18:47:36.63	10.64	9.96	-35.8	-46.0	3.5	3.02e+01	0	27	104	0	48	15375
2026-01-15 18:47:37.64	10.50	10.02	-36.4	-46.8	3.5	3.02e+01	0	27	104	0	50	15016
2026-01-15 18:47:38.65	10.36	10.09	-35.6	-45.9	3.6	3.02e+01	0	27	104	0	46	17068
2026-01-15 18:47:39.66	10.21	10.16	-35.7	-46.0	3.6	3.02e+01	0	27	104	0	46	17106
2026-01-15 18:47:40.67	10.07	10.23	-35.4	-45.8	3.5	3.02e+01	0	27	104	0	46	16722
2026-01-15 18:47:41.68	9.93	10.30	-35.7	-46.0	3.5	3.02e+01	0	27	104	0	46	17144
2026-01-15 18:47:42.69	9.78	10.37	-39.4	-50.0	3.5	3.02e+01	0	27	104	0	50	21728
2026-01-15 18:47:43.70	9.64	10.44	-42.0	-53.2	3.5	3.02e+01	0	27	104	0	52	27830
2026-01-15 18:47:44.71	9.49	10.51	-40.8	-51.7	3.5	3.02e+01	0	27	104	0	58	16661
2026-01-15 18:47:45.72	9.34	10.58	-46.7	-61.7	3.5	3.02e+01	0	27	104	0	58	52449
2026-01-15 18:47:46.74	9.19	10.65	-44.8	-57.2	3.5	3.02e+01	0	27	104	0	60	28040
2026-01-15 18:47:47.75	9.05	10.72	-40.4	-51.2	3.5	3.02e+01	0	27	104	0	56	17493
2026-01-15 18:47:48.76	8.90	10.78	-38.7	-49.2	3.5	3.02e+01	0	27	104	0	52	17582
2026-01-15 18:47:49.77	8.75	10.85	-38.3	-48.8	3.6	3.02e+01	0	27	104	0	52	16869
2026-01-15 18:47:50.78	8.60	10.92	-44.8	-57.3	3.5	3.02e+01	0	27	104	0	60	28112
2026-01-15 18:47:51.79	8.45	10.99	-39.6	-50.2	3.5	3.02e+01	0	27	104	0	54	17638
2026-01-15 18:47:52.80	8.29	11.06	-47.3	-64.0	3.5	3.02e+01	0	27	104	0	60	61094
2026-01-15 18:47:53.81	8.14	11.13	-47.1	-62.7	3.5	3.02e+01	0	27	104	0	60	52720
2026-01-15 18:47:54.82	7.99	11.20	-39.9	-50.6	3.5	3.02e+01	0	27	104	0	52	20752
2026-01-15 18:47:55.83	7.83	11.27	-39.0	-49.6	3.5	3.02e+01	0	27	104	0	54	16379
2026-01-15 18:47:56.84	7.68	11.34	-37.8	-48.3	3.5	3.02e+01	0	27	104	0	50	17717
2026-01-15 18:47:57.85	7.52	11.41	-36.1	-46.4	3.5	3.02e+01	0	27	104	0	48	16088
2026-01-15 18:47:58.85	7.37	11.48	-35.2	-45.5	3.5	3.02e+01	0	27	104	0	46	16233
2026-01-15 18:47:59.87	7.21	11.55	-36.5	-46.8	3.5	3.02e+01	0	27	104	0	46	18926
2026-01-15 18:48:00.88	7.05	11.62	-40.3	-51.1	3.5	3.02e+01	0	27	104	0	50	24456
2026-01-15 18:48:01.88	6.89	11.69	-45.7	-59.0	3.5	3.02e+01	0	27	104	0	60	34434
2026-01-15 18:48:02.89	6.73	11.76	-37.5	-48.0	3.5	3.02e+01	0	27	104	0	50	17122
2026-01-15 18:48:03.90	6.57	11.83	-47.1	-63.3	3.5	3.02e+01	0	27	104	0	60	55981
2026-01-15 18:48:04.91	6.41	11.89	-36.1	-46.4	3.5	3.02e+01	0	27	104	0	48	16102
2026-01-15 18:48:05.92	6.24	11.96	-35.3	-45.6	3.5	3.02e+01	0	27	104	0	46	16450
2026-01-15 18:48:06.93	6.08	12.03	-35.2	-45.5	3.5	3.02e+01	0	27	104	0	46	16281
2026-01-15 18:48:07.94	5.91	12.10	-35.1	-45.4	3.5	3.02e+01	0	27	104	0	46	16024
2026-01-15 18:48:08.95	5.75	12.17	-46.5	-60.9	3.5	3.02e+01	0	27	104	0	60	42516
2026-01-15 18:48:09.96	5.58	12.24	-37.9	-48.4	3.5	3.02e+01	0	26	104	0	50	17927
2026-01-15 18:48:10.97	5.42	12.31	-47.1	-62.8	3.5	3.02e+01	0	27	104	0	60	53192
2026-01-15 18:48:11.98	5.25	12.38	-46.8	-61.7	3.5	3.02e+01	0	27	104	0	60	46610
2026-01-15 18:48:12.99	5.08	12.45	-41.7	-52.8	3.5	3.02e+01	0	27	104	0	56	21150
2026-01-15 18:48:14.00	4.91	12.52	-39.1	-49.6	3.6	3.02e+01	0	27	104	0	52	18419
2026-01-15 18:48:15.01	4.74	12.59	-38.4	-48.9	3.5	3.02e+01	0	27	104	0	52	16926
2026-01-15 18:48:16.02	4.57	12.66	-38.9	-49.5	3.5	3.02e+01	0	27	104	0	52	18114
2026-01-15 18:48:17.03	4.39	12.73	-37.9	-48.3	3.5	3.02e+01	0	27	104	0	52	15881
2026-01-15 18:48:18.04	4.22	12.80	-35.1	-45.4	3.5	3.02e+01	0	27	104	0	46	15988
2026-01-15 18:48:19.05	4.05	12.87	-43.1	-54.5	3.5	3.02e+01	0	27	104	0	58	22965
2026-01-15 18:48:20.06	3.87	12.94	-46.9	-61.7	3.5	3.02e+01	0	27	104	0	60	46666
2026-01-15 18:48:21.07	3.70	13.01	-39.8	-50.4	3.5	3.02e+01	0	27	104	0	54	18030
2026-01-15 18:48:22.07	3.52	13.08	-47.3	-63.2	3.5	3.02e+01	0	27	104	0	60	55347
2026-01-15 18:48:23.09	3.34	13.15	-39.5	-50.1	3.4	3.02e+01	0	27	104	0	56	15518
2026-01-15 18:48:24.10	3.16	13.21	-38.1	-48.6	3.5	3.02e+01	0	27	104	0	52	16506
2026-01-15 18:48:25.11	2.98	13.28	-37.1	-47.6	3.6	3.02e+01	0	27	104	0	50	16342
2026-01-15 18:48:26.11	2.80	13.35	-36.8	-47.3	3.6	3.02e+01	0	27	104	0	48	17693
2026-01-15 18:48:27.12	2.62	13.42	-47.7	-65.1	3.5	3.02e+01	0	27	104	0	60	69125
2026-01-15 18:48:28.14	2.44	13.49	-37.2	-47.6	3.5	3.02e+01	0	27	104	0	52	14611
2026-01-15 18:48:29.15	2.26	13.56	-47.2	-62.8	3.5	3.02e+01	0	27	104	0	60	53218
2026-01-15 18:48:30.16	2.07	13.63	-43.9	-55.8	3.5	3.02e+01	0	27	104	0	60	23830
2026-01-15 18:48:31.17	1.89	13.70	-39.6	-50.2	3.5	3.02e+01	0	27	104	0	52	19746
2026-01-15 18:48:32.18	1.70	13.77	-36.0	-46.3	3.5	3.02e+01	0	27	104	0	46	17801
2026-01-15 18:48:33.19	1.51	13.83	-35.8	-46.1	3.5	3.02e+01	0	27	104	0	46	17442
2026-01-15 18:48:34.20	1.32	13.90	-35.8	-46.0	3.5	3.02e+01	0	27	104	0	46	17280
2026-01-15 18:48:35.20	1.14	13.97	-35.8	-46.0	3.5	3.02e+01	0	27	104	0	46	17247
2026-01-15 18:48:36.21	0.95	14.04	-36.6	-46.9	3.5	3.02e+01	0	27	104	0	46	19167
2026-01-15 18:48:37.22	0.76	14.11	-43.3	-54.9	3.5	3.02e+01	0	27	104	0	60	21423
2026-01-15 18:48:38.23	0.57	14.18	-45.1	-57.7	3.5	3.02e+01	0	27	104	0	60	29660
2026-01-15 18:48:39.24	0.37	14.24	-38.2	-48.6	3.6	3.02e+01	0	27	104	0	54	14692
2026-01-15 18:48:40.26	0.18	14.31	-47.4	-63.5	3.5	3.02e+01	0	27	104	0	60	57815
2026-01-15 18:48:41.26	359.98	14.38	-38.8	-49.3	3.5	3.02e+01	0	27	104	0	52	17801
2026-01-15 18:48:42.27	359.79	14.45	-39.2	-49.8	3.5	3.02e+01	0	27	104	0	52	18814
2026-01-15 18:48:43.28	359.59	14.52	-37.6	-48.0	3.5	3.02e+01	0	27	104	0	50	17116
2026-01-15 18:48:44.29	359.39	14.58	-36.6	-47.0	3.5	3.02e+01	0	27	104	0	48	17124
2026-01-15 18:48:45.30	359.20	14.65	-44.2	-56.1	3.5	3.02e+01	0	27	104	0	60	24632
2026-01-15 18:48:46.31	359.00	14.72	-35.3	-45.6	3.5	3.02e+01	0	27	104	0	46	16337
2026-01-15 18:48:47.32	358.80	14.79	-47.5	-63.9	3.5	3.02e+01	0	27	104	0	60	60221
2026-01-15 18:48:48.33	358.59	14.85	-41.8	-52.8	3.5	3.02e+01	0	27	104	0	60	16831
2026-01-15 18:48:49.34	358.39	14.92	-43.6	-55.2	3.5	3.02e+01	0	27	104	0	60	22243
2026-01-15 18:48:50.35	358.19	14.99	-38.9	-49.4	3.5	3.02e+01	0	27	104	0	54	16135
2026-01-15 18:48:51.36	357.98	15.05	-37.0	-47.4	3.5	3.02e+01	0	27	104	0	50	15957
2026-01-15 18:48:52.37	357.78	15.12	-36.0	-46.3	3.6	3.02e+01	0	27	104	0	48	15784
2026-01-15 18:48:53.38	357.57	15.19	-35.6	-45.8	3.5	3.02e+01	0	27	104	0	46	16854
2026-01-15 18:48:54.39	357.36	15.25	-36.2	-46.5	3.5	3.02e+01	0	27	104	0	46	18162
2026-01-15 18:48:55.40	357.16	15.32	-41.1	-52.0	3.5	3.02e+01	0	27	104	0	60	15284
2026-01-15 18:48:56.41	356.95	15.39	-40.6	-51.4	3.5	3.02e+01	0	27	104	0	60	14342
2026-01-15 18:48:57.42	356.74	15.45	-36.2	-46.6	3.5	3.02e+01	0	27	104	0	48	16380
2026-01-15 18:48:58.43	356.52	15.52	-47.4	-63.3	3.6	3.02e+01	0	27	104	0	60	56404
2026-01-15 18:48:59.44	356.31	15.58	-36.0	-46.3	3.5	3.02e+01	0	27	104	0	46	17806
2026-01-15 18:49:00.45	356.10	15.65	-35.2	-45.4	3.5	3.02e+01	0	27	104	0	46	16071
2026-01-15 18:49:01.46	355.88	15.71	-34.9	-45.1	3.5	3.02e+01	0	27	104	0	44	17472
2026-01-15 18:49:02.47	355.67	15.78	-36.3	-46.6	3.5	3.02e+01	0	27	104	0	44	20759
2026-01-15 18:49:03.48	355.45	15.84	-44.5	-56.5	3.5	3.02e+01	0	27	104	0	60	25784
2026-01-15 18:49:04.49	355.23	15.91	-35.3	-45.5	3.5	3.02e+01	0	27	104	0	44	18201
2026-01-15 18:49:05.50	355.01	15.97	-46.5	-60.6	3.5	3.02e+01	0	27	104	0	60	41071
2026-01-15 18:49:06.51	354.80	16.03	-35.5	-45.9	3.5	3.02e+01	0	27	104	0	48	15100
2026-01-15 18:49:07.52	354.57	16.10	-39.0	-49.5	3.5	3.02e+01	0	27	104	0	56	14528
2026-01-15 18:49:08.53	354.35	16.16	-36.1	-46.4	3.5	3.02e+01	0	27	104	0	48	16064
2026-01-15 18:49:09.54	354.13	16.22	-36.6	-47.0	3.5	3.02e+01	0	27	104	0	48	17168
2026-01-15 18:49:10.55	353.91	16.29	-36.5	-46.8	3.5	3.02e+01	0	27	104	0	48	16857
2026-01-15 18:49:11.56	353.68	16.35	-34.7	-44.9	3.5	3.02e+01	0	27	104	0	46	15147
2026-01-15 18:49:12.57	353.46	16.41	-36.6	-46.9	3.5	3.02e+01	0	27	104	0	44	21395
2026-01-15 18:49:13.58	353.23	16.48	-38.1	-48.4	3.5	3.02e+01	0	27	104	0	50	18046
2026-01-15 18:49:14.59	353.00	16.54	-38.7	-49.2	3.5	3.02e+01	0	27	104	0	54	15645
2026-01-15 18:49:15.60	352.77	16.60	-41.3	-52.3	3.8	3.02e+01	0	27	104	0	46	35329
2026-01-15 18:49:16.61	352.54	16.66	-44.0	-55.7	3.5	3.02e+01	0	27	104	0	60	23392
2026-01-15 18:49:17.62	352.31	16.72	-37.1	-47.5	3.5	3.02e+01	0	27	104	0	50	16266
2026-01-15 18:49:18.63	352.08	16.78	-36.9	-47.2	3.5	3.02e+01	0	27	104	0	48	17585
2026-01-15 18:49:19.64	351.85	16.84	-36.2	-46.5	3.5	3.02e+01	0	27	104	0	48	16194
2026-01-15 18:49:20.65	351.61	16.90	-36.6	-46.9	3.5	3.02e+01	0	27	104	0	46	19067
2026-01-15 18:49:21.66	351.38	16.96	-40.7	-51.5	3.5	3.02e+01	0	27	104	0	52	22871
2026-01-15 18:49:22.67	351.14	17.02	-37.9	-48.2	3.5	3.02e+01	0	27	104	0	50	17567
2026-01-15 18:49:23.68	350.91	17.08	-36.6	-46.9	3.5	3.02e+01	0	27	104	0	50	15077
2026-01-15 18:49:24.69	350.67	17.14	-42.8	-54.1	3.4	3.02e+01	0	27	104	0	50	34731
2026-01-15 18:49:25.70	350.43	17.20	-43.0	-54.4	3.6	3.02e+01	0	27	104	0	60	20299
2026-01-15 18:49:26.71	350.19	17.26	-36.6	-47.0	3.6	3.02e+01	0	27	104	0	48	17212
2026-01-15 18:49:27.71	349.95	17.32	-36.0	-46.3	3.5	3.02e+01	0	27	104	0	46	17804
2026-01-15 18:49:28.73	349.71	17.37	-35.5	-45.7	3.5	3.02e+01	0	27	104	0	46	16662
2026-01-15 18:49:29.74	349.47	17.43	-39.4	-49.9	3.6	3.02e+01	0	27	104	0	50	21328
2026-01-15 18:49:30.75	349.22	17.49	-39.7	-50.3	3.4	3.02e+01	0	27	104	0	56	15885
2026-01-15 18:49:31.76	348.98	17.55	-46.9	-61.3	3.5	3.02e+01	0	27	104	0	60	44938
2026-01-15 18:49:32.77	348.73	17.60	-43.7	-55.4	3.5	3.02e+01	0	27	104	0	60	22687
2026-01-15 18:49:33.78	348.48	17.66	-39.8	-50.4	3.5	3.02e+01	0	27	104	0	48	25368
2026-01-15 18:49:34.79	348.24	17.71	-39.5	-50.2	3.5	3.02e+01	0	27	104	0	54	17497
2026-01-15 18:49:35.80	347.99	17.77	-38.5	-49.0	3.6	3.02e+01	0	27	104	0	52	17170
2026-01-15 18:49:36.81	347.74	17.82	-37.2	-47.6	3.5	3.02e+01	0	27	104	0	50	16325
2026-01-15 18:49:37.82	347.49	17.88	-36.3	-46.6	3.5	3.02e+01	0	27	104	0	48	16330
2026-01-15 18:49:38.82	347.24	17.93	-38.5	-48.9	3.5	3.02e+01	0	27	104	0	50	19018
2026-01-15 18:49:39.84	346.98	17.99	-40.9	-51.8	3.5	3.02e+01	0	27	104	0	52	23633
2026-01-15 18:49:40.84	346.73	18.04	-41.2	-52.1	3.5	3.02e+01	0	27	104	0	52	24586
2026-01-15 18:49:41.85	346.48	18.09	-41.6	-52.6	3.5	3.02e+01	0	27	104	0	56	20758
2026-01-15 18:49:42.86	346.22	18.14	-47.8	-64.7	3.5	3.02e+01	0	27	104	0	60	66455
2026-01-15 18:49:43.88	345.96	18.19	-39.2	-49.8	3.5	3.02e+01	0	27	104	0	54	16847
2026-01-15 18:49:44.88	345.71	18.25	-38.2	-48.7	3.5	3.02e+01	0	27	104	0	52	16580
2026-01-15 18:49:45.89	345.45	18.30	-38.4	-48.9	3.5	3.02e+01	0	27	104	0	52	16912
2026-01-15 18:49:46.91	345.19	18.35	-38.0	-48.5	3.5	3.02e+01	0	27	104	0	50	18160
2026-01-15 18:49:47.92	344.93	18.40	-44.7	-56.9	3.5	3.02e+01	0	27	104	0	60	27072
2026-01-15 18:49:48.93	344.67	18.45	-44.2	-56.1	3.5	3.02e+01	0	27	104	0	60	24601
2026-01-15 18:49:49.94	344.41	18.50	-43.4	-54.9	3.5	3.02e+01	0	27	104	0	56	27062
2026-01-15 18:49:50.95	344.14	18.54	-39.2	-49.8	3.5	3.02e+01	0	27	104	0	50	21093
2026-01-15 18:49:51.96	343.88	18.59	-48.1	-65.9	3.5	3.02e+01	0	27	104	0	60	76095
2026-01-15 18:49:52.96	343.62	18.64	-37.4	-47.8	3.5	3.02e+01	0	27	104	0	52	14939
2026-01-15 18:49:53.98	343.35	18.69	-36.5	-46.8	3.6	3.02e+01	0	27	104	0	48	16894
2026-01-15 18:49:54.99	343.08	18.73	-35.7	-45.9	3.5	3.02e+01	0	27	104	0	46	17055
2026-01-15 18:49:55.99	342.82	18.78	-35.2	-45.5	3.5	3.02e+01	0	27	104	0	46	16165
2026-01-15 18:49:57.01	342.55	18.82	-42.3	-53.5	3.5	3.02e+01	0	27	104	0	56	23036
2026-01-15 18:49:58.01	342.28	18.87	-40.0	-50.7	3.5	3.02e+01	0	27	104	0	54	18553
2026-01-15 18:49:59.02	342.01	18.91	-47.9	-65.6	3.5	3.02e+01	0	27	104	0	60	73068
2026-01-15 18:50:00.03	341.74	18.96	-43.9	-55.7	3.5	3.02e+01	0	27	104	0	60	23412
2026-01-15 18:50:01.04	341.47	19.00	-43.6	-55.4	3.5	3.02e+01	0	27	104	0	58	25301
2026-01-15 18:50:02.05	341.20	19.04	-38.9	-49.4	3.5	3.02e+01	0	27	104	0	54	15981
2026-01-15 18:50:03.06	340.93	19.08	-38.8	-49.4	3.5	3.02e+01	0	27	104	0	52	17941
2026-01-15 18:50:04.07	340.65	19.13	-37.5	-47.9	3.5	3.02e+01	0	27	104	0	50	16914
2026-01-15 18:50:05.08	340.38	19.17	-36.7	-47.0	3.5	3.02e+01	0	27	104	0	48	17238
2026-01-15 18:50:06.09	340.10	19.21	-39.7	-50.4	3.5	3.02e+01	0	27	104	0	52	20110
2026-01-15 18:50:07.10	339.83	19.25	-45.3	-58.1	3.5	3.02e+01	0	27	104	0	60	30834
2026-01-15 18:50:08.11	339.55	19.29	-43.8	-55.5	3.5	3.02e+01	0	27	104	0	60	22927
2026-01-15 18:50:09.13	339.27	19.33	-42.8	-54.1	3.5	3.02e+01	0	27	104	0	60	19554
2026-01-15 18:50:10.13	338.99	19.36	-47.7	-63.9	3.5	3.02e+01	0	27	104	0	60	60370
2026-01-15 18:50:11.15	338.71	19.40	-38.1	-48.6	3.5	3.02e+01	0	27	104	0	52	16334
2026-01-15 18:50:12.15	338.43	19.44	-38.6	-49.1	3.5	3.02e+01	0	27	104	0	52	17411
2026-01-15 18:50:13.17	338.15	19.47	-38.7	-49.3	3.5	3.02e+01	0	27	104	0	52	17696
2026-01-15 18:50:14.17	337.87	19.51	-38.2	-48.8	3.5	3.02e+01	0	27	104	0	52	16705
2026-01-15 18:50:15.18	337.59	19.54	-47.3	-62.7	3.5	3.02e+01	0	27	104	0	60	52635
2026-01-15 18:50:16.19	337.31	19.58	-42.9	-54.3	3.5	3.02e+01	0	27	104	0	60	19975
2026-01-15 18:50:17.20	337.02	19.61	-44.9	-57.3	3.6	3.02e+01	0	27	104	0	60	28244
2026-01-15 18:50:18.21	336.74	19.64	-38.9	-49.3	3.5	3.02e+01	0	27	104	0	56	14185
2026-01-15 18:50:19.22	336.46	19.68	-48.1	-65.9	3.5	3.02e+01	0	27	104	0	60	76117
2026-01-15 18:50:20.23	336.17	19.71	-36.9	-47.2	3.5	3.02e+01	0	27	104	0	48	17665
2026-01-15 18:50:21.24	335.88	19.74	-36.6	-46.9	3.5	3.02e+01	0	27	104	0	48	16925
2026-01-15 18:50:22.25	335.60	19.77	-36.2	-46.5	3.5	3.02e+01	0	27	104	0	48	16140
2026-01-15 18:50:23.26	335.31	19.80	-36.1	-46.5	3.5	3.02e+01	0	27	104	0	48	16165
2026-01-15 18:50:24.27	335.02	19.83	-45.0	-57.4	3.5	3.02e+01	0	27	104	0	60	28689
2026-01-15 18:50:25.28	334.73	19.86	-40.3	-50.9	3.6	3.02e+01	0	27	104	0	60	13555
2026-01-15 18:50:26.29	334.45	19.88	-44.0	-55.8	3.6	3.02e+01	0	27	104	0	60	23758
2026-01-15 18:50:27.30	334.16	19.91	-38.6	-48.9	3.6	3.02e+01	0	27	104	0	56	13524
2026-01-15 18:50:28.31	333.87	19.94	-48.1	-64.7	3.6	3.02e+01	0	27	104	0	60	65758
2026-01-15 18:50:29.32	333.58	19.96	-40.2	-42.1	23.2	3.02e+01	58	27	0	0	54	6893
2026-01-15 18:50:30.33	333.29	19.99	-41.1	-43.0	22.9	3.02e+01	52	27	0	2097152	56	6843
2026-01-15 18:50:31.33	333.00	20.01	-42.2	-44.5	21.6	3.02e+01	60	27	0	3670016	58	7258
2026-01-15 18:50:32.34	332.70	20.03	-40.9	-42.8	23.3	3.02e+01	58	27	0	5767168	56	6704
2026-01-15 18:50:33.35	332.41	20.05	-38.5	-40.0	25.7	3.02e+01	49	27	0	7864320	52	6085
2026-01-15 18:50:34.36	332.12	20.08	-36.9	-38.2	27.0	3.02e+01	59	27	0	9437184	50	5588
2026-01-15 18:50:35.37	331.83	20.10	-36.1	-37.4	27.8	3.02e+01	60	27	0	11534336	48	5701
2026-01-15 18:50:36.38	331.53	20.12	-36.1	-37.4	27.7	3.02e+01	59	27	0	13631488	48	5714
2026-01-15 18:50:37.39	331.24	20.14	-36.3	-37.6	27.6	3.02e+01	62	27	0	15204352	48	5825
2026-01-15 18:50:38.40	330.94	20.16	-35.6	-36.8	28.3	3.02e+01	50	27	0	17301504	46	5992
2026-01-15 18:50:39.41	330.65	20.17	-35.1	-36.3	28.7	3.02e+01	59	27	0	18874368	46	5646
2026-01-15 18:50:40.42	330.35	20.19	-35.2	-36.5	28.6	3.02e+01	59	27	0	20971520	46	5755
2026-01-15 18:50:41.43	330.06	20.21	-34.9	-36.1	28.9	3.02e+01	47	27	0	23068672	44	6187
2026-01-15 18:50:42.44	329.76	20.22	-34.8	-36.0	29.0	3.02e+01	62	27	0	24641536	44	6106
2026-01-15 18:50:43.45	329.47	20.24	-34.9	-36.2	28.9	3.02e+01	62	27	0	26738688	44	6218
2026-01-15 18:50:44.46	329.17	20.25	-35.2	-36.5	28.7	3.02e+01	60	27	0	28311552	44	6439
2026-01-15 18:50:45.47	328.87	20.27	-35.0	-36.2	28.8	3.02e+01	56	27	0	30408704	44	6266
2026-01-15 18:50:46.48	328.58	20.28	-34.9	-36.2	28.9	3.02e+01	50	27	0	32505856	44	6211
2026-01-15 18:50:47.49	328.28	20.29	-35.0	-36.2	28.8	3.02e+01	57	27	0	34078720	44	6268
2026-01-15 18:50:48.50	327.98	20.30	-35.0	-36.2	28.8	3.02e+01	58	27	0	36175872	44	6258
2026-01-15 18:50:49.51	327.68	20.31	-35.1	-36.3	28.7	3.02e+01	62	27	0	38273024	44	6341
2026-01-15 18:50:50.52	327.38	20.32	-35.0	-36.2	28.8	3.02e+01	63	27	0	39845888	44	6248
2026-01-15 18:50:51.53	327.09	20.33	-35.1	-36.4	28.7	3.02e+01	46	27	0	41943040	44	6391
2026-01-15 18:50:52.54	326.79	20.34	-35.1	-36.4	28.7	3.02e+01	63	27	0	43515904	44	6354
2026-01-15 18:50:53.55	326.49	20.35	-35.0	-36.3	28.7	3.02e+01	59	27	0	45613056	44	6317
2026-01-15 18:50:54.56	326.19	20.35	-35.1	-36.4	28.7	3.02e+01	42	27	0	47185920	44	6367
2026-01-15 18:50:55.57	325.89	20.36	-35.0	-36.3	28.7	3.02e+01	62	27	0	49283072	44	6285
2026-01-15 18:50:56.58	325.59	20.36	-35.1	-36.4	28.6	3.02e+01	61	27	0	51380224	44	6383
2026-01-15 18:50:57.59	325.29	20.37	-35.3	-36.6	28.5	3.02e+01	58	27	0	52953088	44	6499
2026-01-15 18:50:58.60	324.99	20.37	-35.2	-36.5	28.6	3.02e+01	63	27	0	55050240	44	6455
2026-01-15 18:50:59.61	324.70	20.37	-35.3	-36.6	28.4	3.02e+01	52	27	0	57147392	44	6531
2026-01-15 18:51:00.62	324.40	20.38	-35.6	-36.8	28.4	3.02e+01	60	27	0	58720256	44	6712
2026-01-15 18:51:01.63	324.10	20.38	-35.1	-36.4	28.6	3.02e+01	58	27	0	60817408	44	6359
2026-01-15 18:51:02.64	323.80	20.38	-35.1	-36.4	28.7	3.02e+01	54	27	0	62390272	44	6377
2026-01-15 18:51:03.65	323.50	20.38	-35.0	-36.2	28.8	3.02e+01	56	27	0	64487424	44	6249
2026-01-15 18:51:04.66	323.20	20.37	-35.2	-36.4	28.7	3.02e+01	57	27	0	66584576	44	6400
2026-01-15 18:51:05.67	322.90	20.37	-35.1	-36.3	28.8	3.02e+01	60	27	0	68157440	44	6321
2026-01-15 18:51:06.67	322.60	20.37	-35.1	-36.4	28.7	3.02e+01	62	27	0	70254592	44	6358
2026-01-15 18:51:07.68	322.30	20.37	-35.0	-36.3	28.7	3.02e+01	47	27	0	71827456	44	6304
2026-01-15 18:51:08.69	322.01	20.36	-35.1	-36.4	28.6	3.02e+01	59	27	0	73924608	44	6373
2026-01-15 18:51:09.70	321.71	20.36	-35.1	-36.4	28.7	3.02e+01	59	27	0	76021760	44	6374
2026-01-15 18:51:10.71	321.41	20.35	-35.2	-36.4	28.7	3.02e+01	45	27	0	77594624	44	6410
2026-01-15 18:51:11.72	321.11	20.34	-35.2	-36.4	28.6	3.02e+01	59	27	0	79691776	44	6400
2026-01-15 18:51:12.74	320.81	20.33	-35.1	-36.4	28.7	3.02e+01	56	27	0	81788928	44	6357
2026-01-15 18:51:13.75	320.51	20.33	-35.3	-36.6	28.5	3.02e+01	61	27	0	83361792	44	6535
2026-01-15 18:51:14.75	320.21	20.32	-35.4	-36.6	28.4	3.02e+01	57	27	0	85458944	44	6549
2026-01-15 18:51:15.77	319.91	20.31	-35.1	-36.3	28.6	3.02e+01	54	27	0	87031808	44	6343
2026-01-15 18:51:16.78	319.61	20.30	-35.2	-36.4	28.6	3.02e+01	59	27	0	89128960	44	6408
2026-01-15 18:51:17.78	319.32	20.28	-35.0	-36.3	28.7	3.02e+01	64	27	0	91226112	44	6289
2026-01-15 18:51:18.79	319.02	20.27	-35.2	-36.4	28.7	3.02e+01	44	27	0	92798976	44	6392
2026-01-15 18:51:19.80	318.73	20.26	-35.3	-36.5	28.6	3.02e+01	62	27	0	94896128	44	6496
2026-01-15 18:51:20.81	318.43	20.25	-35.0	-36.3	28.8	3.02e+01	45	27	0	96468992	44	6290
2026-01-15 18:51:21.82	318.13	20.23	-35.0	-36.2	28.8	3.02e+01	61	27	0	98566144	44	6276
2026-01-15 18:51:22.83	317.84	20.22	-35.1	-36.4	28.7	3.02e+01	61	27	0	100663296	44	6357
2026-01-15 18:51:23.84	317.54	20.20	-35.1	-36.3	28.7	3.02e+01	49	27	0	102236160	44	6334
2026-01-15 18:51:24.85	317.24	20.18	-34.8	-36.0	29.0	3.02e+01	59	27	0	104333312	44	6127
2026-01-15 18:51:25.86	316.95	20.17	-35.2	-36.5	28.6	3.02e+01	59	27	0	106430464	44	6437
2026-01-15 18:51:26.87	316.65	20.15	-35.4	-36.6	28.5	3.02e+01	59	27	0	108003328	44	6569
2026-01-15 18:51:27.88	316.36	20.13	-34.9	-36.1	28.9	3.02e+01	56	27	0	110100480	44	6192
2026-01-15 18:51:28.89	316.07	20.11	-35.3	-36.5	28.5	3.02e+01	45	27	0	111673344	44	6484
2026-01-15 18:51:29.90	315.77	20.09	-35.2	-36.5	28.5	3.02e+01	60	27	0	113770496	44	6447
2026-01-15 18:51:30.91	315.48	20.07	-35.0	-36.2	28.8	3.02e+01	56	27	0	115343360	44	6266
2026-01-15 18:51:31.92	315.19	20.04	-35.3	-36.6	28.5	3.02e+01	45	27	0	117440512	44	6545
2026-01-15 18:51:32.93	314.89	20.02	-35.4	-36.7	28.4	3.02e+01	61	27	0	119537664	44	6592
2026-01-15 18:51:33.94	314.60	20.00	-35.0	-36.2	28.8	3.02e+01	59	27	0	121110528	44	6243
2026-01-15 18:51:34.95	314.31	19.97	-35.3	-36.6	28.4	3.02e+01	63	27	0	123207680	44	6533
2026-01-15 18:51:35.96	314.02	19.95	-35.4	-36.7	28.4	3.02e+01	62	27	0	125304832	44	6597
2026-01-15 18:51:36.97	313.73	19.92	-35.0	-36.2	28.9	3.02e+01	58	27	0	126877696	44	6266
2026-01-15 18:51:37.98	313.44	19.90	-35.3	-36.6	28.4	3.02e+01	58	27	0	128974848	44	6510
2026-01-15 18:51:38.99	313.15	19.87	-34.9	-36.1	28.8	3.02e+01	61	27	0	130547712	44	6179
2026-01-15 18:51:40.00	312.86	19.84	-35.2	-36.4	28.7	3.02e+01	52	27	0	132644864	44	6415
2026-01-15 18:51:41.01	312.57	19.81	-35.3	-36.6	28.4	3.02e+01	59	27	0	134742016	44	6565
2026-01-15 18:51:42.02	312.28	19.78	-34.9	-36.1	28.8	3.02e+01	61	27	0	136314880	44	6181
2026-01-15 18:51:43.03	312.00	19.75	-35.0	-36.3	28.7	3.02e+01	57	27	0	138412032	44	6302
2026-01-15 18:51:44.04	311.71	19.72	-35.0	-36.3	28.7	3.02e+01	59	27	0	139984896	44	6301
2026-01-15 18:51:45.05	311.42	19.69	-35.1	-36.3	28.7	3.02e+01	45	27	0	142082048	44	6327
2026-01-15 18:51:46.06	311.14	19.66	-35.2	-36.5	28.5	3.02e+01	58	27	0	144179200	44	6434
2026-01-15 18:51:47.07	310.85	19.63	-35.1	-36.3	28.7	3.02e+01	58	27	0	145752064	44	6349
2026-01-15 18:51:48.08	310.57	19.59	-35.8	-37.2	27.9	3.02e+01	46	27	0	147849216	44	6978
2026-01-15 18:51:49.09	310.29	19.56	-34.1	-35.3	29.3	3.02e+01	60	27	0	149946368	44	5619
2026-01-15 18:51:50.10	310.00	19.53	-35.5	-36.8	27.9	3.02e+01	62	27	0	151519232	46	5933
2026-01-15 18:51:51.11	309.72	19.49	-36.0	-37.4	27.4	3.02e+01	59	27	0	153616384	44	7160
2026-01-15 18:51:52.12	309.44	19.45	-35.9	-37.1	27.8	3.02e+01	52	27	0	155189248	46	6203
2026-01-15 18:51:53.13	309.16	19.42	-36.4	-37.8	27.6	3.02e+01	52	27	0	157286400	46	6697
2026-01-15 18:51:54.14	308.88	19.38	-35.3	-36.6	28.7	3.02e+01	58	27	0	159383552	46	5803
2026-01-15 18:51:55.15	308.60	19.34	-36.1	-37.5	27.6	3.02e+01	56	27	0	160956416	46	6444
2026-01-15 18:51:56.16	308.32	19.30	-35.3	-36.6	28.2	3.02e+01	59	27	0	163053568	44	6519
2026-01-15 18:51:57.17	308.04	19.27	-36.5	-37.9	26.7	3.02e+01	59	27	0	164626432	48	6043
2026-01-15 18:51:58.18	307.77	19.23	-37.2	-38.6	26.4	3.02e+01	49	27	0	166723584	46	7348
2026-01-15 18:51:59.19	307.49	19.19	-37.1	-38.5	26.7	3.02e+01	60	27	0	168820736	48	6478
2026-01-15 18:52:00.20	307.22	19.15	-36.0	-37.3	27.8	3.02e+01	61	27	0	170393600	48	5651
2026-01-15 18:52:01.21	306.94	19.10	-36.1	-37.4	27.5	3.02e+01	47	27	0	172490752	48	5699
2026-01-15 18:52:02.22	306.67	19.06	-36.9	-38.3	26.8	3.02e+01	59	27	0	174587904	46	7101
2026-01-15 18:52:03.23	306.39	19.02	-36.6	-38.0	27.1	3.02e+01	60	27	0	176160768	48	6071
2026-01-15 18:52:04.24	306.12	18.98	-38.6	-40.2	25.0	3.02e+01	60	27	0	178257920	50	7041
2026-01-15 18:52:05.24	305.85	18.93	-36.8	-38.2	26.7	3.02e+01	58	27	0	179830784	50	5554
2026-01-15 18:52:06.25	305.58	18.89	-37.8	-39.3	25.8	3.02e+01	46	27	0	181927936	48	7079
2026-01-15 18:52:07.27	305.31	18.84	-36.2	-37.5	27.8	3.02e+01	63	27	0	184025088	48	5758
2026-01-15 18:52:08.27	305.04	18.80	-35.7	-37.1	28.0	3.02e+01	58	27	0	185597952	46	6153
2026-01-15 18:52:09.28	304.78	18.75	-34.8	-36.0	29.0	3.02e+01	53	27	0	187695104	44	6107
2026-01-15 18:52:10.29	304.51	18.71	-35.9	-37.3	27.7	3.02e+01	59	27	0	189267968	44	7079
2026-01-15 18:52:11.30	304.24	18.66	-34.9	-36.2	28.6	3.02e+01	60	27	0	191365120	44	6213
2026-01-15 18:52:12.31	303.98	18.61	-35.0	-36.2	28.6	3.02e+01	62	27	0	193462272	44	6255
2026-01-15 18:52:13.32	303.71	18.57	-35.0	-36.3	28.7	3.02e+01	61	27	0	195035136	44	6320
2026-01-15 18:52:14.33	303.45	18.52	-35.3	-36.6	28.5	3.02e+01	58	27	0	197132288	44	6513
2026-01-15 18:52:15.34	303.19	18.47	-34.8	-36.0	28.9	3.02e+01	62	27	0	198705152	44	6107
2026-01-15 18:52:16.35	302.92	18.42	-35.1	-36.4	28.5	3.02e+01	57	27	0	200802304	44	6370
2026-01-15 18:52:17.36	302.66	18.37	-34.2	-35.4	29.4	3.02e+01	47	27	0	202899456	44	5713
2026-01-15 18:52:18.37	302.40	18.32	-35.2	-36.5	28.6	3.02e+01	64	27	0	204472320	44	6455
2026-01-15 18:52:19.38	302.14	18.27	-35.0	-36.2	28.8	3.02e+01	63	27	0	206569472	44	6251
2026-01-15 18:52:20.39	301.88	18.22	-35.1	-36.3	28.7	3.02e+01	59	27	0	208142336	44	6343
2026-01-15 18:52:21.40	301.63	18.17	-35.1	-36.4	28.5	3.02e+01	60	27	0	210239488	44	6402
2026-01-15 18:52:22.41	301.37	18.11	-35.1	-36.3	28.7	3.02e+01	56	27	0	212336640	44	6341
2026-01-15 18:52:23.42	301.12	18.06	-35.2	-36.4	28.4	3.02e+01	59	27	0	213909504	44	6419
2026-01-15 18:52:24.43	300.86	18.01	-35.3	-36.6	28.6	3.02e+01	58	27	0	216006656	44	6500
2026-01-15 18:52:25.44	300.61	17.95	-35.5	-36.8	28.2	3.02e+01	46	27	0	218103808	44	6670
2026-01-15 18:52:26.45	300.35	17.90	-35.3	-36.5	28.5	3.02e+01	57	27	0	219676672	44	6494
2026-01-15 18:52:27.46	300.10	17.85	-35.2	-36.5	28.5	3.02e+01	58	27	0	221773824	44	6479
2026-01-15 18:52:28.47	299.85	17.79	-34.8	-36.0	28.9	3.02e+01	57	27	0	223346688	44	6131
2026-01-15 18:52:29.48	299.60	17.74	-35.4	-36.7	28.4	3.02e+01	59	27	0	225443840	44	6614
2026-01-15 18:52:30.49	299.35	17.68	-34.7	-35.9	29.0	3.02e+01	54	27	0	227540992	44	6056
2026-01-15 18:52:31.50	299.11	17.63	-35.1	-36.4	28.4	3.02e+01	59	27	0	229113856	44	6357
2026-01-15 18:52:32.51	298.86	17.57	-34.9	-36.1	28.8	3.02e+01	57	27	0	231211008	44	6195
2026-01-15 18:52:33.52	298.61	17.51	-35.1	-36.4	28.5	3.02e+01	58	27	0	232783872	44	6382
2026-01-15 18:52:34.53	298.37	17.46	-35.2	-36.5	28.4	3.02e+01	59	27	0	234881024	44	6451
2026-01-15 18:52:35.54	298.12	17.40	-35.4	-36.7	28.3	3.02e+01	48	27	0	236978176	44	6582
2026-01-15 18:52:36.55	297.88	17.34	-34.8	-36.1	28.8	3.02e+01	60	27	0	238551040	44	6136
2026-01-15 18:52:37.56	297.64	17.28	-35.2	-36.5	28.5	3.02e+01	59	27	0	240648192	44	6456
2026-01-15 18:52:38.57	297.40	17.22	-34.8	-36.0	28.8	3.02e+01	47	27	0	242745344	44	6112
2026-01-15 18:52:39.58	297.16	17.17	-35.0	-36.3	28.6	3.02e+01	59	27	0	244318208	44	6279
2026-01-15 18:52:40.59	296.92	17.11	-35.0	-36.3	28.4	3.02e+01	58	27	0	246415360	44	6284
2026-01-15 18:52:41.60	296.68	17.05	-34.7	-35.9	28.8	3.02e+01	59	27	0	247988224	44	6007
2026-01-15 18:52:42.61	296.45	16.99	-35.8	-37.1	27.6	3.02e+01	58	27	0	250085376	46	6190
2026-01-15 18:52:43.62	296.21	16.93	-34.3	-35.4	29.2	3.02e+01	52	27	0	252182528	44	5705
2026-01-15 18:52:44.63	295.97	16.87	-35.7	-37.0	27.8	3.02e+01	60	27	0	253755392	44	6854
2026-01-15 18:52:45.64	295.74	16.81	-34.3	-35.5	29.3	3.02e+01	58	27	0	255852544	44	5760
2026-01-15 18:52:46.65	295.51	16.75	-35.4	-36.7	28.3	3.02e+01	44	27	0	257425408	44	6609
2026-01-15 18:52:47.66	295.28	16.68	-34.7	-35.9	28.8	3.02e+01	60	27	0	259522560	44	6034
2026-01-15 18:52:48.67	295.05	16.62	-35.2	-36.5	28.3	3.02e+01	59	27	0	261619712	44	6429
2026-01-15 18:52:49.68	294.82	16.56	-35.2	-36.5	28.1	3.02e+01	59	27	0	263192576	44	6473
2026-01-15 18:52:50.69	294.59	16.50	-34.9	-36.1	28.8	3.02e+01	57	27	0	265289728	44	6146
2026-01-15 18:52:51.70	294.36	16.44	-35.5	-36.8	28.2	3.02e+01	61	27	0	266862592	44	6659
2026-01-15 18:52:52.71	294.13	16.37	-34.6	-35.8	29.1	3.02e+01	59	27	0	268959744	44	5956
2026-01-15 18:52:53.72	293.91	16.31	-35.0	-36.3	28.6	3.02e+01	57	27	0	271056896	44	6333
2026-01-15 18:52:54.73	293.68	16.25	-34.6	-35.8	29.0	3.02e+01	46	27	0	272629760	44	5932
2026-01-15 18:52:55.74	293.46	16.19	-34.7	-36.0	28.8	3.02e+01	58	27	0	274726912	44	6076
2026-01-15 18:52:56.75	293.23	16.12	-35.1	-36.4	28.4	3.02e+01	58	27	0	276299776	44	6356
2026-01-15 18:52:57.76	293.01	16.06	-34.4	-35.6	29.2	3.02e+01	60	27	0	278396928	44	5803
2026-01-15 18:52:58.77	292.79	15.99	-35.2	-36.5	28.3	3.02e+01	60	27	0	280494080	44	6424
2026-01-15 18:52:59.78	292.57	15.93	-35.2	-36.5	28.3	3.02e+01	54	27	0	282066944	44	6470
2026-01-15 18:53:00.78	292.36	15.87	-35.2	-36.4	28.6	3.02e+01	59	27	0	284164096	44	6406
2026-01-15 18:53:01.80	292.14	15.80	-35.0	-36.3	28.7	3.02e+01	59	27	0	286261248	44	6311
2026-01-15 18:53:02.81	291.92	15.74	-34.9	-36.1	28.8	3.02e+01	52	27	0	287834112	44	6196
2026-01-15 18:53:03.81	291.71	15.67	-34.9	-36.2	28.7	3.02e+01	61	26	0	289931264	44	6238
2026-01-15 18:53:04.82	291.49	15.61	-35.0	-36.2	28.7	3.02e+01	62	27	0	291504128	44	6232
2026-01-15 18:53:05.83	291.28	15.54	-34.8	-36.1	28.8	3.02e+01	59	27	0	293601280	44	6151
2026-01-15 18:53:06.85	291.06	15.47	-34.9	-36.1	28.8	3.02e+01	61	27	0	295698432	44	6165
2026-01-15 18:53:07.86	290.85	15.41	-34.9	-36.1	28.8	3.02e+01	56	26	0	297271296	44	6159
2026-01-15 18:53:08.87	290.64	15.34	-35.0	-36.2	28.7	3.02e+01	62	27	0	299368448	44	6276
2026-01-15 18:53:09.88	290.43	15.28	-35.0	-36.2	28.8	3.02e+01	58	27	0	300941312	44	6264
2026-01-15 18:53:10.88	290.22	15.21	-35.0	-36.2	28.7	3.02e+01	59	27	0	303038464	44	6260
2026-01-15 18:53:11.89	290.02	15.14	-35.0	-36.3	28.7	3.02e+01	59	27	0	305135616	44	6285
2026-01-15 18:53:12.90	289.81	15.08	-34.8	-36.0	28.8	3.02e+01	45	27	0	306708480	44	6117
2026-01-15 18:53:13.91	289.60	15.01	-34.7	-36.0	29.0	3.02e+01	58	27	0	308805632	44	6065
2026-01-15 18:53:14.92	289.40	14.94	-34.9	-36.2	28.7	3.02e+01	59	27	0	310902784	44	6223
2026-01-15 18:53:15.93	289.20	14.88	-35.0	-36.2	28.6	3.02e+01	47	27	0	312475648	44	6270
2026-01-15 18:53:16.94	288.99	14.81	-34.8	-36.0	28.8	3.02e+01	58	27	0	314572800	44	6121
2026-01-15 18:53:17.95	288.79	14.74	-34.9	-36.2	28.7	3.02e+01	58	27	0	316145664	44	6215
2026-01-15 18:53:18.96	288.59	14.67	-35.5	-36.9	28.1	3.02e+01	59	27	0	318242816	44	6730
2026-01-15 18:53:19.97	288.39	14.61	-35.7	-37.0	27.9	3.02e+01	59	27	0	320339968	44	6814
2026-01-15 18:53:20.98	288.19	14.54	-34.9	-36.1	28.8	3.02e+01	56	27	0	321912832	44	6157
2026-01-15 18:53:21.99	287.99	14.47	-34.8	-36.1	28.8	3.02e+01	59	27	0	324009984	44	6147
2026-01-15 18:53:23.00	287.80	14.40	-35.1	-36.4	28.6	3.02e+01	59	27	0	325582848	44	6364
2026-01-15 18:53:24.01	287.60	14.33	-35.0	-36.3	28.6	3.02e+01	44	27	0	327680000	44	6278
2026-01-15 18:53:25.02	287.41	14.27	-34.9	-36.1	28.7	3.02e+01	59	27	0	329777152	44	6186
2026-01-15 18:53:26.03	287.21	14.20	-34.9	-36.2	28.7	3.02e+01	60	27	0	331350016	44	6220
2026-01-15 18:53:27.04	287.02	14.13	-35.1	-36.3	28.5	3.02e+01	60	27	0	333447168	44	6344
2026-01-15 18:53:28.04	286.83	14.06	-35.0	-36.2	28.6	3.02e+01	59	27	0	335020032	44	6258
2026-01-15 18:53:29.05	286.64	13.99	-35.0	-36.2	28.6	3.02e+01	47	26	0	337117184	44	6274
2026-01-15 18:53:30.07	286.45	13.92	-34.9	-36.2	28.7	3.02e+01	60	27	0	339214336	44	6212
2026-01-15 18:53:31.07	286.26	13.86	-35.0	-36.2	28.7	3.02e+01	59	27	0	340787200	44	6247
2026-01-15 18:53:32.08	286.07	13.79	-34.9	-36.2	28.7	3.02e+01	47	27	0	342884352	44	6222
2026-01-15 18:53:33.09	285.88	13.72	-35.0	-36.3	28.5	3.02e+01	60	27	0	344457216	44	6290
2026-01-15 18:53:34.10	285.70	13.65	-35.1	-36.4	28.4	3.02e+01	62	27	0	346554368	44	6386
2026-01-15 18:53:35.11	285.51	13.58	-35.2	-36.4	28.4	3.02e+01	61	26	0	348651520	44	6396
2026-01-15 18:53:36.12	285.33	13.51	-35.2	-36.4	28.4	3.02e+01	62	27	0	350224384	44	6410
2026-01-15 18:53:37.13	285.14	13.44	-35.2	-36.5	28.3	3.02e+01	56	27	0	352321536	44	6425
2026-01-15 18:53:38.14	284.96	13.37	-35.0	-36.2	28.5	3.02e+01	59	27	0	354418688	44	6272
2026-01-15 18:53:39.15	284.78	13.30	-34.9	-36.1	28.7	3.02e+01	57	27	0	355991552	44	6178
2026-01-15 18:53:40.16	284.60	13.23	-35.1	-36.3	28.5	3.02e+01	57	27	0	358088704	44	6332
2026-01-15 18:53:41.17	284.42	13.16	-35.2	-36.5	28.4	3.02e+01	60	27	0	359661568	44	6454
2026-01-15 18:53:42.18	284.24	13.10	-35.2	-36.5	28.3	3.02e+01	49	27	0	361758720	44	6437
2026-01-15 18:53:43.19	284.06	13.03	-35.3	-36.6	28.2	3.02e+01	58	27	0	363855872	44	6519
2026-01-15 18:53:44.20	283.88	12.96	-35.2	-36.5	28.3	3.02e+01	60	27	0	365428736	44	6457
2026-01-15 18:53:45.21	283.71	12.89	-35.4	-36.7	28.2	3.02e+01	47	27	0	367525888	44	6589
2026-01-15 18:53:46.22	283.53	12.82	-35.5	-36.8	28.2	3.02e+01	59	27	0	369098752	44	6678
2026-01-15 18:53:47.23	283.36	12.75	-35.6	-36.9	28.0	3.02e+01	59	27	0	371195904	44	6730
2026-01-15 18:53:48.24	283.19	12.68	-35.5	-36.8	28.0	3.02e+01	57	27	0	373293056	44	6693
2026-01-15 18:53:49.25	283.01	12.61	-35.3	-36.5	28.3	3.02e+01	58	27	0	374865920	44	6473
2026-01-15 18:53:50.26	282.84	12.54	-35.2	-36.4	28.3	3.02e+01	61	27	0	376963072	44	6415
2026-01-15 18:53:51.27	282.67	12.47	-35.1	-36.4	28.5	3.02e+01	60	27	0	379060224	44	6360
2026-01-15 18:53:52.28	282.50	12.40	-35.2	-36.5	28.4	3.02e+01	60	27	0	380633088	44	6444
2026-01-15 18:53:53.29	282.33	12.33	-35.2	-36.5	28.3	3.02e+01	46	27	0	382730240	44	6460
2026-01-15 18:53:54.30	282.16	12.26	-35.2	-36.5	28.3	3.02e+01	58	27	0	384303104	44	6454
2026-01-15 18:53:55.31	282.00	12.19	-35.2	-36.5	28.3	3.02e+01	60	27	0	386400256	44	6451
2026-01-15 18:53:56.32	281.83	12.12	-35.2	-36.5	28.3	3.02e+01	61	27	0	388497408	44	6448
2026-01-15 18:53:57.33	281.66	12.05	-35.4	-36.7	28.1	3.02e+01	61	27	0	390070272	44	6585
2026-01-15 18:53:58.34	281.50	11.98	-35.5	-36.8	28.0	3.02e+01	57	27	0	392167424	44	6662
2026-01-15 18:53:59.35	281.33	11.91	-35.4	-36.7	28.1	3.02e+01	59	27	0	393740288	44	6619
2026-01-15 18:54:00.36	281.17	11.84	-35.5	-36.8	27.9	3.02e+01	59	27	0	395837440	44	6667
2026-01-15 18:54:01.37	281.01	11.77	-35.3	-36.6	28.2	3.02e+01	49	26	0	397934592	44	6505
2026-01-15 18:54:02.37	280.85	11.70	-35.3	-36.6	28.2	3.02e+01	60	27	0	399507456	44	6525
2026-01-15 18:54:03.38	280.69	11.63	-35.2	-36.5	28.3	3.02e+01	58	27	0	401604608	44	6444
2026-01-15 18:54:04.39	280.53	11.56	-35.5	-36.8	28.1	3.02e+01	62	27	0	403177472	44	6679
2026-01-15 18:54:05.40	280.37	11.49	-35.6	-36.9	27.9	3.02e+01	59	27	0	405274624	44	6781
2026-01-15 18:54:06.41	280.21	11.42	-35.7	-37.0	27.8	3.02e+01	46	26	0	407371776	44	6850
2026-01-15 18:54:07.42	280.05	11.35	-35.5	-36.8	28.0	3.02e+01	60	27	0	408944640	44	6669
2026-01-15 18:54:08.43	279.90	11.28	-35.5	-36.7	28.0	3.02e+01	57	27	0	411041792	44	6642
2026-01-15 18:54:09.44	279.74	11.21	-35.3	-36.5	28.3	3.02e+01	47	27	0	412614656	44	6479
2026-01-15 18:54:10.45	279.59	11.14	-35.4	-36.7	28.1	3.02e+01	56	27	0	414711808	44	6613
2026-01-15 18:54:11.46	279.43	11.08	-35.4	-36.7	28.1	3.02e+01	59	27	0	416808960	44	6588
2026-01-15 18:54:12.47	279.28	11.01	-35.7	-37.0	27.7	3.02e+01	60	27	0	418381824	44	6874
2026-01-15 18:54:13.48	279.13	10.94	-35.7	-37.0	27.8	3.02e+01	58	27	0	420478976	44	6824
2026-01-15 18:54:14.49	278.98	10.87	-35.8	-37.1	27.7	3.02e+01	60	26	0	422576128	44	6922
2026-01-15 18:54:15.50	278.83	10.80	-35.8	-37.1	27.6	3.02e+01	52	27	0	424148992	44	6936
2026-01-15 18:54:16.51	278.68	10.73	-35.7	-36.9	27.9	3.02e+01	61	27	0	426246144	44	6801
2026-01-15 18:54:17.52	278.53	10.66	-35.5	-36.8	28.0	3.02e+01	60	27	0	427819008	44	6659
2026-01-15 18:54:18.53	278.38	10.59	-35.4	-36.7	28.1	3.02e+01	57	27	0	429916160	44	6614
2026-01-15 18:54:19.54	278.23	10.52	-35.5	-36.8	28.0	3.02e+01	46	27	0	432013312	44	6695
2026-01-15 18:54:20.55	278.08	10.45	-35.7	-37.0	27.8	3.02e+01	59	27	0	433586176	44	6849
2026-01-15 18:54:21.56	277.94	10.38	-35.7	-37.0	27.7	3.02e+01	59	27	0	435683328	44	6853
2026-01-15 18:54:22.57	277.79	10.31	-35.8	-37.1	27.7	3.02e+01	44	27	0	437256192	44	6907
2026-01-15 18:54:23.58	277.65	10.24	-35.7	-37.0	27.7	3.02e+01	59	27	0	439353344	44	6881
2026-01-15 18:54:24.59	277.50	10.17	-35.6	-36.9	27.8	3.02e+01	59	27	0	441450496	44	6781
2026-01-15 18:54:25.60	277.36	10.11	-35.7	-36.9	27.8	3.02e+01	58	27	0	443023360	44	6798
2026-01-15 18:54:26.61	277.22	10.04	-35.7	-37.0	27.8	3.02e+01	56	27	0	445120512	44	6825
2026-01-15 18:54:27.62	277.07	9.97	-35.8	-37.1	27.6	3.02e+01	51	27	0	447217664	44	6937
2026-01-15 18:54:28.63	276.93	9.90	-35.9	-37.2	27.6	3.02e+01	57	27	0	448790528	44	6988
2026-01-15 18:54:29.64	276.79	9.83	-35.8	-37.1	27.6	3.02e+01	58	27	0	450887680	46	6202
2026-01-15 18:54:30.65	276.65	9.76	-35.9	-37.2	27.5	3.02e+01	52	27	0	452460544	46	6269
2026-01-15 18:54:31.66	276.52	9.69	-35.9	-37.3	27.5	3.02e+01	57	27	0	454557696	46	6292
2026-01-15 18:54:32.67	276.38	9.62	-35.8	-37.1	27.7	3.02e+01	60	27	0	456654848	46	6166
2026-01-15 18:54:33.68	276.24	9.56	-35.8	-37.1	27.7	3.02e+01	58	27	0	458227712	46	6162
2026-01-15 18:54:34.69	276.10	9.49	-35.9	-37.2	27.6	3.02e+01	51	27	0	460324864	46	6253
2026-01-15 18:54:35.70	275.97	9.42	-35.8	-37.1	27.6	3.02e+01	47	27	0	461897728	46	6169
2026-01-15 18:54:36.71	275.83	9.35	-35.9	-37.2	27.6	3.02e+01	57	27	0	463994880	46	6241
2026-01-15 18:54:37.72	275.70	9.28	-36.1	-37.4	27.3	3.02e+01	60	27	0	466092032	46	6383
2026-01-15 18:54:38.73	275.56	9.21	-36.1	-37.5	27.3	3.02e+01	44	27	0	467664896	46	6435
2026-01-15 18:54:39.74	275.43	9.15	-36.1	-37.4	27.4	3.02e+01	57	27	0	469762048	46	6385
2026-01-15 18:54:40.75	275.30	9.08	-36.1	-37.4	27.2	3.02e+01	59	27	0	471334912	46	6421
2026-01-15 18:54:41.76	275.17	9.01	-36.2	-37.5	27.2	3.02e+01	61	27	0	473432064	46	6476
2026-01-15 18:54:42.77	275.03	8.94	-36.0	-37.3	27.4	3.02e+01	59	27	0	475529216	46	6349
2026-01-15 18:54:43.78	274.90	8.87	-35.9	-37.3	27.5	3.02e+01	51	27	0	477102080	46	6283
2026-01-15 18:54:44.79	274.77	8.81	-36.0	-37.3	27.4	3.02e+01	61	27	0	479199232	46	6329
2026-01-15 18:54:45.81	274.64	8.74	-36.0	-37.4	27.3	3.02e+01	57	27	0	480772096	46	6376
2026-01-15 18:54:46.82	274.51	8.67	-36.1	-37.4	27.3	3.02e+01	54	27	0	482869248	46	6416
2026-01-15 18:54:47.83	274.39	8.60	-36.2	-37.6	27.1	3.02e+01	59	27	0	484966400	46	6529
2026-01-15 18:54:48.84	274.26	8.53	-36.0	-37.3	27.3	3.02e+01	45	27	0	486539264	46	6347
2026-01-15 18:54:49.85	274.13	8.47	-36.1	-37.5	27.1	3.02e+01	56	27	0	488636416	46	6440
2026-01-15 18:54:50.86	274.01	8.40	-36.3	-37.7	27.1	3.02e+01	52	27	0	490733568	46	6578
2026-01-15 18:54:51.87	273.88	8.33	-36.0	-37.4	27.2	3.02e+01	47	27	0	492306432	46	6358
2026-01-15 18:54:52.88	273.76	8.26	-36.1	-37.4	27.3	3.02e+01	54	27	0	494403584	46	6380
2026-01-15 18:54:53.88	273.63	8.20	-36.1	-37.5	27.2	3.02e+01	52	27	0	495976448	46	6433
2026-01-15 18:54:54.90	273.51	8.13	-36.1	-37.4	27.2	3.02e+01	54	27	0	498073600	46	6381
2026-01-15 18:54:55.91	273.39	8.06	-36.2	-37.5	27.1	3.02e+01	58	27	0	500170752	46	6497
2026-01-15 18:54:56.91	273.27	8.00	-36.1	-37.5	27.2	3.02e+01	47	26	0	501743616	46	6442
2026-01-15 18:54:57.92	273.14	7.93	-36.4	-37.7	26.9	3.02e+01	60	27	0	503840768	46	6635
2026-01-15 18:54:58.93	273.02	7.86	-36.2	-37.6	27.1	3.02e+01	58	27	0	505413632	46	6529
2026-01-15 18:54:59.94	272.90	7.80	-36.3	-37.6	27.0	3.02e+01	46	26	0	507510784	46	6570
2026-01-15 18:55:00.95	272.78	7.73	-36.4	-37.8	26.8	3.02e+01	58	27	0	509607936	46	6664
2026-01-15 18:55:01.96	272.66	7.66	-36.5	-37.8	26.8	3.02e+01	58	27	0	511180800	46	6712
2026-01-15 18:55:02.97	272.55	7.60	-36.5	-37.9	26.7	3.02e+01	59	27	0	513277952	46	6748
2026-01-15 18:55:03.98	272.43	7.53	-36.4	-37.8	26.8	3.02e+01	57	26	0	515375104	46	6701
2026-01-15 18:55:04.99	272.31	7.46	-36.4	-37.8	26.8	3.02e+01	55	26	0	516947968	46	6703
2026-01-15 18:55:06.00	272.19	7.40	-36.4	-37.7	26.9	3.02e+01	59	27	0	519045120	46	6648
2026-01-15 18:55:07.01	272.08	7.33	-36.2	-37.6	27.1	3.02e+01	61	26	0	520617984	46	6511
2026-01-15 18:55:08.02	271.96	7.27	-36.3	-37.6	26.9	3.02e+01	48	26	0	522715136	46	6564
2026-01-15 18:55:09.03	271.85	7.20	-36.4	-37.8	26.8	3.02e+01	60	26	0	524812288	46	6652
2026-01-15 18:55:10.04	271.73	7.13	-36.2	-37.6	27.0	3.02e+01	60	27	0	526385152	46	6499
2026-01-15 18:55:11.04	271.62	7.07	-36.3	-37.7	26.9	3.02e+01	60	27	0	528482304	46	6600
2026-01-15 18:55:12.05	271.51	7.00	-36.4	-37.7	26.8	3.02e+01	59	27	0	530055168	46	6643
2026-01-15 18:55:13.06	271.40	6.94	-36.6	-38.0	26.6	3.02e+01	57	27	0	532152320	46	6805
2026-01-15 18:55:14.07	271.28	6.87	-36.6	-37.9	26.6	3.02e+01	59	27	0	534249472	46	6799
2026-01-15 18:55:15.08	271.17	6.81	-36.7	-38.1	26.6	3.02e+01	61	27	0	535822336	46	6944
2026-01-15 18:55:16.09	271.06	6.74	-36.7	-38.2	26.4	3.02e+01	46	27	0	537919488	46	6970
2026-01-15 18:55:17.10	270.95	6.68	-36.5	-37.9	26.7	3.02e+01	57	27	0	539492352	46	6746
2026-01-15 18:55:18.11	270.84	6.61	-36.5	-37.9	26.5	3.02e+01	64	27	0	541589504	46	6798
2026-01-15 18:55:19.12	270.73	6.55	-36.5	-37.9	26.7	3.02e+01	59	26	0	543686656	46	6738
2026-01-15 18:55:20.13	270.62	6.48	-36.6	-38.0	26.5	3.02e+01	59	27	0	545259520	46	6880
2026-01-15 18:55:21.13	270.52	6.42	-36.7	-38.1	26.5	3.02e+01	53	27	0	547356672	46	6909
2026-01-15 18:55:22.15	270.41	6.35	-36.5	-37.9	26.6	3.02e+01	58	27	0	548929536	46	6798
2026-01-15 18:55:23.15	270.30	6.29	-36.6	-38.0	26.5	3.02e+01	57	27	0	551026688	46	6829
2026-01-15 18:55:24.16	270.19	6.22	-36.6	-38.0	26.5	3.02e+01	58	27	0	553123840	46	6815
2026-01-15 18:55:25.17	270.09	6.16	-36.6	-38.0	26.5	3.02e+01	60	27	0	554696704	46	6826
2026-01-15 18:55:26.18	269.98	6.10	-36.6	-38.0	26.5	3.02e+01	45	27	0	556793856	46	6827
2026-01-15 18:55:27.19	269.88	6.03	-36.5	-37.9	26.6	3.02e+01	57	26	0	558366720	46	6776
2026-01-15 18:55:28.20	269.77	5.97	-36.6	-38.0	26.4	3.02e+01	57	26	0	560463872	46	6814
2026-01-15 18:55:29.21	269.67	5.90	-36.7	-38.1	26.3	3.02e+01	49	27	0	562561024	46	6961
2026-01-15 18:55:30.22	269.56	5.84	-36.8	-38.2	26.3	3.02e+01	60	27	0	564133888	46	7012
2026-01-15 18:55:31.23	269.46	5.77	-36.9	-38.3	26.0	3.02e+01	61	27	0	566231040	46	7105
2026-01-15 18:55:32.24	269.36	5.71	-36.9	-38.4	26.0	3.02e+01	57	26	0	568328192	48	6368
2026-01-15 18:55:33.25	269.26	5.65	-37.0	-38.5	26.0	3.02e+01	55	27	0	569901056	48	6462
2026-01-15 18:55:34.25	269.16	5.58	-37.1	-38.5	25.9	3.02e+01	48	27	0	571998208	48	6485
2026-01-15 18:55:35.27	269.05	5.52	-37.1	-38.5	25.9	3.02e+01	56	27	0	573571072	48	6472
2026-01-15 18:55:36.28	268.95	5.46	-37.1	-38.5	25.9	3.02e+01	60	27	0	575668224	48	6485
2026-01-15 18:55:37.29	268.85	5.39	-37.3	-38.8	25.6	3.02e+01	45	27	0	577765376	48	6673
2026-01-15 18:55:38.29	268.76	5.33	-37.3	-38.8	25.5	3.02e+01	56	27	0	579338240	48	6703
2026-01-15 18:55:39.30	268.66	5.27	-37.6	-39.1	25.3	3.02e+01	60	27	0	581435392	48	6957
2026-01-15 18:55:40.31	268.56	5.20	-37.0	-38.5	25.9	3.02e+01	61	27	0	583532544	48	6446
2026-01-15 18:55:41.33	268.46	5.14	-37.2	-38.6	25.8	3.02e+01	59	27	0	585105408	48	6567
2026-01-15 18:55:42.33	268.36	5.08	-37.3	-38.8	25.7	3.02e+01	55	27	0	587202560	48	6672
2026-01-15 18:55:43.34	268.27	5.01	-37.3	-38.8	25.7	3.02e+01	58	27	0	588775424	48	6670
2026-01-15 18:55:44.35	268.17	4.95	-37.6	-39.2	25.2	3.02e+01	59	27	0	590872576	48	6974
2026-01-15 18:55:45.37	268.07	4.89	-37.2	-38.7	25.7	3.02e+01	45	27	0	592969728	48	6585
2026-01-15 18:55:46.37	267.98	4.83	-37.4	-38.9	25.5	3.02e+01	58	27	0	594542592	48	6754
2026-01-15 18:55:47.38	267.88	4.76	-37.4	-38.9	25.4	3.02e+01	60	27	0	596639744	48	6790
2026-01-15 18:55:48.39	267.79	4.70	-37.4	-38.9	25.5	3.02e+01	61	27	0	598212608	48	6782
2026-01-15 18:55:49.40	267.69	4.64	-37.4	-38.9	25.5	3.02e+01	61	27	0	600309760	48	6773
2026-01-15 18:55:50.41	267.60	4.58	-37.3	-38.8	25.6	3.02e+01	58	26	0	602406912	48	6653
2026-01-15 18:55:51.42	267.50	4.52	-37.2	-38.7	25.6	3.02e+01	55	27	0	603979776	48	6619
2026-01-15 18:55:52.43	267.41	4.45	-37.2	-38.6	25.6	3.02e+01	59	27	0	606076928	48	6569
2026-01-15 18:55:53.44	267.32	4.39	-37.2	-38.7	25.6	3.02e+01	46	27	0	607649792	48	6615
2026-01-15 18:55:54.45	267.23	4.33	-37.2	-38.7	25.6	3.02e+01	61	27	0	609746944	48	6603
2026-01-15 18:55:55.46	267.14	4.27	-37.2	-38.7	25.6	3.02e+01	59	27	0	611844096	48	6619
2026-01-15 18:55:56.47	267.04	4.21	-37.5	-39.0	25.3	3.02e+01	58	27	0	613416960	48	6862
2026-01-15 18:55:57.47	266.95	4.15	-37.7	-39.2	25.1	3.02e+01	58	27	0	615514112	48	7042
2026-01-15 18:55:58.49	266.86	4.08	-37.6	-39.1	25.2	3.02e+01	50	27	0	617086976	48	6953
2026-01-15 18:55:59.49	266.77	4.02	-37.8	-39.4	24.9	3.02e+01	55	27	0	619184128	48	7144
2026-01-15 18:56:00.50	266.68	3.96	-37.7	-39.3	25.1	3.02e+01	58	27	0	621281280	48	7050
2026-01-15 18:56:01.51	266.59	3.90	-37.5	-39.1	25.1	3.02e+01	61	27	0	622854144	48	6890
2026-01-15 18:56:02.52	266.51	3.84	-38.0	-39.6	24.7	3.02e+01	58	27	0	624951296	48	7355
2026-01-15 18:56:03.53	266.42	3.78	-37.4	-38.9	25.3	3.02e+01	49	27	0	626524160	50	6013
2026-01-15 18:56:04.54	266.33	3.72	-37.7	-39.2	25.1	3.02e+01	57	27	0	628621312	50	6266
2026-01-15 18:56:05.55	266.24	3.66	-37.7	-39.3	24.9	3.02e+01	58	27	0	630718464	50	6298
2026-01-15 18:56:06.56	266.16	3.60	-37.7	-39.3	24.8	3.02e+01	51	27	0	632291328	50	6322
2026-01-15 18:56:07.57	266.07	3.54	-37.7	-39.3	24.8	3.02e+01	59	27	0	634388480	50	6313
2026-01-15 18:56:08.58	265.98	3.47	-38.1	-39.7	24.4	3.02e+01	60	27	0	636485632	50	6601
2026-01-15 18:56:09.59	265.90	3.41	-37.9	-39.5	24.6	3.02e+01	60	27	0	638058496	50	6497
2026-01-15 18:56:10.60	265.81	3.35	-37.9	-39.5	24.5	3.02e+01	59	27	0	640155648	50	6493
2026-01-15 18:56:11.61	265.73	3.29	-38.0	-39.6	24.4	3.02e+01	53	27	0	641728512	50	6565
2026-01-15 18:56:12.62	265.64	3.23	-38.4	-40.1	24.0	3.02e+01	60	27	0	643825664	50	6958
2026-01-15 18:56:13.63	265.56	3.17	-38.1	-39.8	24.2	3.02e+01	54	27	0	645922816	50	6688
2026-01-15 18:56:14.64	265.47	3.11	-37.8	-39.4	24.6	3.02e+01	44	27	0	647495680	50	6366
2026-01-15 18:56:15.65	265.39	3.05	-38.0	-39.7	24.3	3.02e+01	58	27	0	649592832	50	6593
2026-01-15 18:56:16.66	265.31	2.99	-47.0	-64.7	3.5	3.02e+01	0	27	104	651165696	60	66391
2026-01-15 18:56:17.67	265.22	2.93	-47.7	-65.6	3.5	3.02e+01	0	27	104	651165696	60	73180
2026-01-15 18:56:18.68	265.14	2.87	-48.0	-65.9	3.5	3.02e+01	0	27	104	651165696	60	75676
2026-01-15 18:56:19.69	265.06	2.82	-48.2	-66.1	3.5	3.02e+01	0	27	104	651165696	60	77272
2026-01-15 18:56:20.70	264.98	2.76	-48.3	-66.2	3.5	3.02e+01	0	27	104	651165696	60	78814
2026-01-15 18:56:21.71	264.90	2.70	-48.4	-66.3	3.5	3.02e+01	0	27	104	651165696	60	79194
2026-01-15 18:56:22.71	264.82	2.64	-48.4	-66.3	3.5	3.02e+01	0	27	104	651165696	60	79255
2026-01-15 18:56:23.72	264.74	2.58	-48.4	-66.3	3.5	3.02e+01	0	27	104	651165696	60	79494
2026-01-15 18:56:24.73	264.66	2.52	-48.4	-66.3	3.5	3.02e+01	0	27	104	651165696	60	79723
2026-01-15 18:56:25.74	264.58	2.46	-48.3	-66.3	3.5	3.02e+01	0	27	104	651165696	60	79352
2026-01-15 18:56:26.75	264.50	2.40	-48.3	-66.3	3.5	3.02e+01	0	27	104	651165696	60	79362
2026-01-15 18:56:27.76	264.42	2.34	-48.3	-66.3	3.5	3.02e+01	0	27	104	651165696	60	79648
2026-01-15 18:56:28.77	264.34	2.28	-48.3	-66.3	3.5	3.02e+01	0	27	104	651165696	60	79199
2026-01-15 18:56:29.78	264.26	2.23	-48.3	-66.3	3.5	3.02e+01	0	27	104	651165696	60	79553
2026-01-15 18:56:30.79	264.18	2.17	-48.3	-66.3	3.5	3.02e+01	0	27	104	651165696	60	79278
2026-01-15 18:56:31.80	264.10	2.11	-48.3	-66.4	3.5	3.02e+01	0	27	104	651165696	60	80474
2026-01-15 18:56:32.81	264.03	2.05	-48.3	-66.2	3.5	3.02e+01	0	27	104	651165696	60	78562
2026-01-15 18:56:33.82	263.95	1.99	-48.3	-66.2	3.5	3.02e+01	0	27	104	651165696	60	78309
2026-01-15 18:56:34.83	263.87	1.93	-48.2	-66.2	3.5	3.02e+01	0	27	104	651165696	60	78359
2026-01-15 18:56:35.84	263.80	1.88	-48.2	-66.2	3.5	3.02e+01	0	27	104	651165696	60	78809
2026-01-15 18:56:36.85	263.72	1.82	-48.5	-66.4	3.5	3.02e+01	0	27	104	651165696	60	80614
2026-01-15 18:56:37.86	263.65	1.76	-48.4	-66.3	3.5	3.02e+01	0	27	104	651165696	60	79755
2026-01-15 18:56:38.87	263.57	1.70	-48.3	-66.3	3.5	3.02e+01	0	27	104	651165696	60	79071
2026-01-15 18:56:39.88	263.50	1.64	-48.3	-66.3	3.5	3.02e+01	0	27	104	651165696	60	79091
2026-01-15 18:56:40.88	263.42	1.59	-48.3	-66.2	3.5	3.02e+01	0	27	104	651165696	60	78831
2026-01-15 18:56:41.89	263.35	1.53	-48.3	-66.3	3.5	3.02e+01	0	27	104	651165696	60	79052
2026-01-15 18:56:42.90	263.27	1.47	-48.3	-66.2	3.5	3.02e+01	0	27	104	651165696	60	78686
2026-01-15 18:56:43.91	263.20	1.41	-48.3	-66.2	3.5	3.02e+01	0	27	104	651165696	60	78821
2026-01-15 18:56:44.92	263.13	1.36	-48.3	-66.2	3.5	3.02e+01	0	27	104	651165696	60	78743
2026-01-15 18:56:45.93	263.05	1.30	-48.3	-66.2	3.5	3.02e+01	0	27	104	651165696	60	78634
2026-01-15 18:56:46.94	262.98	1.24	-48.3	-66.2	3.5	3.02e+01	0	27	104	651165696	60	78574
2026-01-15 18:56:47.95	262.91	1.19	-48.3	-66.2	3.5	3.02e+01	0	27	104	651165696	60	78679
2026-01-15 18:56:48.96	262.84	1.13	-48.3	-66.2	3.5	3.02e+01	0	27	104	651165696	60	78599
2026-01-15 18:56:49.97	262.77	1.07	-48.3	-66.2	3.5	3.02e+01	0	27	104	651165696	60	78852
2026-01-15 18:56:50.98	262.69	1.01	-48.3	-66.2	3.5	3.02e+01	0	27	104	651165696	60	78653
2026-01-15 18:56:51.99	262.62	0.96	-48.3	-66.2	3.5	3.02e+01	0	27	104	651165696	60	78646
2026-01-15 18:56:53.00	262.55	0.90	-48.2	-66.1	3.5	3.02e+01	0	27	104	651165696	60	78070
