passes_logs/2026/01/15/R4.6S_Anadyr/R4.6S_Anadyr__20260115_052216_FENGYUN_3D_rec.log

#Pass ID: 20260115_052216_FENGYUN 3D
#Satellite: FENGYUN 3D
#Configuration: FENGYUN 3D
#almurnet v.1.7.20251203
#Start time: 2026-01-15 05:22:18

#Version: 2.2.20231116
#Station: R4.6S_Anadyr
#Location: 177.4865 lon 64.73178 lat
#TLE: 1 43010U 17072A   26014.65117763 -.00000217  00000+0 -80772-4 0  9993
#TLE: 2 43010  98.9933 346.4618 0002330 108.4699 251.6730 14.19694700423204

#Time	Az	El	Level	Level2	SNR	BER	BlckErr	Temp	State	Recorded	gain1	gain2
2026-01-15 05:22:18.49	240.46	0.07	-48.7	-60.3	3.5	8.45e-01	0	27	0	0	60	37204
2026-01-15 05:22:19.49	240.55	0.11	-48.7	-60.7	3.6	8.45e-01	0	28	104	0	60	39368
2026-01-15 05:22:20.50	240.65	0.15	-48.8	-60.9	3.6	8.44e-01	0	28	104	0	60	40281
2026-01-15 05:22:21.51	240.74	0.19	-48.8	-60.9	3.6	8.45e-01	0	28	104	0	60	40040
2026-01-15 05:22:22.52	240.84	0.23	-48.8	-60.9	3.6	8.46e-01	0	28	104	0	60	40110
2026-01-15 05:22:23.53	240.93	0.27	-48.8	-60.9	3.6	8.45e-01	0	28	104	0	60	40104
2026-01-15 05:22:24.54	241.03	0.32	-48.8	-61.0	3.6	8.45e-01	0	28	104	0	60	40626
2026-01-15 05:22:25.55	241.13	0.36	-48.8	-61.0	3.6	8.46e-01	0	28	104	0	60	40545
2026-01-15 05:22:26.56	241.22	0.40	-48.7	-61.1	3.6	8.45e-01	0	28	104	0	60	40813
2026-01-15 05:22:27.57	241.32	0.44	-48.9	-61.1	3.6	8.45e-01	0	28	104	0	60	41000
2026-01-15 05:22:28.58	241.42	0.48	-49.0	-61.1	3.6	8.46e-01	0	28	104	0	60	41190
2026-01-15 05:22:29.59	241.52	0.52	-48.9	-61.0	3.6	8.45e-01	0	28	104	0	60	40611
2026-01-15 05:22:30.60	241.61	0.56	-48.9	-61.0	3.6	8.45e-01	0	28	104	0	60	40698
2026-01-15 05:22:31.61	241.71	0.61	-48.8	-60.9	3.6	8.44e-01	0	28	104	0	60	40165
2026-01-15 05:22:32.62	241.81	0.65	-48.7	-60.8	3.6	8.45e-01	0	28	104	0	60	39696
2026-01-15 05:22:33.63	241.91	0.69	-48.6	-60.6	3.6	8.45e-01	0	28	104	0	60	38918
2026-01-15 05:22:34.64	242.01	0.73	-48.2	-60.3	3.6	8.45e-01	0	28	104	0	60	37543
2026-01-15 05:22:35.65	242.11	0.77	-47.3	-59.4	3.6	8.46e-01	0	28	104	0	60	33790
2026-01-15 05:22:36.66	242.20	0.81	-47.2	-59.2	3.6	8.46e-01	0	29	104	0	60	33137
2026-01-15 05:22:37.67	242.30	0.85	-47.2	-59.2	3.6	8.45e-01	0	28	104	0	60	33138
2026-01-15 05:22:38.68	242.40	0.90	-47.2	-59.2	3.6	8.45e-01	0	28	104	0	60	33131
2026-01-15 05:22:39.69	242.50	0.94	-47.2	-59.2	3.6	8.45e-01	0	29	104	0	60	33048
2026-01-15 05:22:40.70	242.60	0.98	-47.2	-59.2	3.6	8.46e-01	0	29	104	0	60	33049
2026-01-15 05:22:41.71	242.70	1.02	-47.2	-59.2	3.6	8.46e-01	0	29	104	0	60	33138
2026-01-15 05:22:42.72	242.81	1.06	-47.2	-59.2	3.6	8.46e-01	0	29	104	0	60	33006
2026-01-15 05:22:43.73	242.91	1.10	-47.2	-59.2	3.6	8.45e-01	0	29	104	0	60	33060
2026-01-15 05:22:44.74	243.01	1.14	-47.2	-59.2	3.6	8.46e-01	0	29	104	0	60	33027
2026-01-15 05:22:45.75	243.11	1.19	-47.2	-59.2	3.6	8.46e-01	0	29	104	0	60	33063
2026-01-15 05:22:46.75	243.21	1.23	-47.2	-59.2	3.6	8.44e-01	0	29	104	0	60	32998
2026-01-15 05:22:47.76	243.31	1.27	-47.2	-59.2	3.6	8.47e-01	0	29	104	0	60	32825
2026-01-15 05:22:48.77	243.42	1.31	-47.2	-59.2	3.6	8.45e-01	0	29	104	0	60	32811
2026-01-15 05:22:49.78	243.52	1.35	-47.2	-59.1	3.6	8.46e-01	0	29	104	0	60	32549
2026-01-15 05:22:50.79	243.62	1.39	-47.2	-59.2	3.6	8.45e-01	0	29	104	0	60	32800
2026-01-15 05:22:51.80	243.72	1.43	-47.2	-59.2	3.6	8.46e-01	0	29	104	0	60	32928
2026-01-15 05:22:52.81	243.83	1.47	-47.2	-59.2	3.6	8.45e-01	0	29	104	0	60	32842
2026-01-15 05:22:53.82	243.93	1.52	-47.1	-59.2	3.6	8.45e-01	0	29	104	0	60	32925
2026-01-15 05:22:54.83	244.04	1.56	-47.2	-59.2	3.6	8.45e-01	0	29	104	0	60	32874
2026-01-15 05:22:55.83	244.14	1.60	-47.1	-59.1	3.6	8.46e-01	0	29	104	0	60	32768
2026-01-15 05:22:56.84	244.24	1.64	-47.1	-59.1	3.6	8.45e-01	0	29	104	0	60	32555
2026-01-15 05:22:57.85	244.35	1.68	-47.1	-59.0	3.6	8.46e-01	0	29	104	0	60	32391
2026-01-15 05:22:58.87	244.46	1.72	-47.1	-59.1	3.6	8.44e-01	0	29	104	0	60	32550
2026-01-15 05:22:59.87	244.56	1.76	-47.1	-59.0	3.6	8.45e-01	0	29	104	0	60	32309
2026-01-15 05:23:00.88	244.67	1.80	-47.1	-59.1	3.6	8.44e-01	0	29	104	0	60	32644
2026-01-15 05:23:01.89	244.77	1.85	-47.2	-59.2	3.6	8.45e-01	0	29	104	0	60	32981
2026-01-15 05:23:02.90	244.88	1.89	-47.2	-59.2	3.6	8.46e-01	0	29	104	0	60	33029
2026-01-15 05:23:03.91	244.99	1.93	-47.2	-59.2	3.6	8.45e-01	0	29	104	0	60	32898
2026-01-15 05:23:04.92	245.09	1.97	-47.1	-59.1	3.6	8.45e-01	0	29	104	0	60	32452
2026-01-15 05:23:05.93	245.20	2.01	-47.1	-59.0	3.6	8.46e-01	0	29	104	0	60	32287
2026-01-15 05:23:06.95	245.31	2.05	-47.1	-59.0	3.6	8.45e-01	0	29	104	0	60	32033
2026-01-15 05:23:07.96	245.42	2.09	-47.1	-58.8	3.6	8.46e-01	0	29	104	0	60	31487
2026-01-15 05:23:08.97	245.52	2.13	-47.1	-58.7	3.6	8.45e-01	0	29	104	0	60	31300
2026-01-15 05:23:09.98	245.63	2.17	-47.1	-58.8	3.6	8.44e-01	0	29	104	0	60	31314
2026-01-15 05:23:10.99	245.74	2.21	-47.1	-58.6	3.6	8.45e-01	0	29	104	0	60	30660
2026-01-15 05:23:12.00	245.85	2.26	-47.1	-58.4	3.6	8.45e-01	0	29	104	0	60	30212
2026-01-15 05:23:13.01	245.96	2.30	-47.1	-58.1	3.6	8.44e-01	0	29	104	0	60	29081
2026-01-15 05:23:14.02	246.07	2.34	-47.0	-58.0	3.6	8.45e-01	0	29	104	0	60	28750
2026-01-15 05:23:15.03	246.18	2.38	-47.0	-58.1	3.6	8.45e-01	0	29	104	0	60	28924
2026-01-15 05:23:16.04	246.29	2.42	-47.1	-58.3	3.6	8.45e-01	0	29	104	0	60	29819
2026-01-15 05:23:17.05	246.40	2.46	-47.0	-58.2	3.6	8.44e-01	0	29	104	0	60	29465
2026-01-15 05:23:18.06	246.51	2.50	-47.0	-57.2	3.6	8.46e-01	0	29	104	0	60	26286
2026-01-15 05:23:19.07	246.62	2.54	-46.9	-56.4	3.6	8.44e-01	0	29	104	0	60	23844
2026-01-15 05:23:20.08	246.73	2.58	-46.7	-54.7	4.0	8.33e-01	0	29	0	0	60	19597
2026-01-15 05:23:21.09	246.84	2.62	-46.7	-53.9	3.9	8.28e-01	0	29	0	0	60	17885
2026-01-15 05:23:22.10	246.96	2.66	-46.9	-56.9	3.7	8.43e-01	0	29	104	0	60	25175
2026-01-15 05:23:23.11	247.07	2.70	-47.1	-58.6	3.5	8.45e-01	0	29	104	0	60	30618
2026-01-15 05:23:24.12	247.18	2.74	-46.8	-55.7	3.7	8.44e-01	0	29	104	0	60	22037
2026-01-15 05:23:25.13	247.29	2.79	-45.8	-51.1	6.9	4.59e-01	0	29	104	0	60	13047
2026-01-15 05:23:26.14	247.41	2.83	-44.4	-47.5	10.6	1.05e-02	0	29	0	4194304	60	8529
2026-01-15 05:23:27.15	247.52	2.87	-42.6	-44.7	13.4	6.98e-05	0	29	0	10485760	60	6221
2026-01-15 05:23:28.16	247.63	2.91	-41.7	-43.4	14.8	1.10e-06	0	29	0	15728640	56	6763
2026-01-15 05:23:29.17	247.75	2.95	-41.3	-42.9	15.4	0.00e+00	0	29	0	22020096	56	6378
2026-01-15 05:23:30.18	247.86	2.99	-41.4	-43.0	15.1	0.00e+00	0	29	0	27262976	56	6426
2026-01-15 05:23:31.19	247.98	3.03	-41.8	-43.6	15.0	0.00e+00	0	29	0	33554432	56	6914
2026-01-15 05:23:32.20	248.09	3.07	-43.7	-46.2	14.5	4.50e-06	0	29	0	38797312	58	8325
2026-01-15 05:23:33.21	248.21	3.11	-46.6	-55.0	4.2	8.40e-01	0	29	104	41943040	60	20368
2026-01-15 05:23:34.21	248.32	3.15	-38.9	-39.9	18.4	0.00e+00	0	29	0	44040192	50	6390
2026-01-15 05:23:35.22	248.44	3.19	-40.5	-41.9	17.0	0.00e+00	0	29	0	49283072	54	6319
2026-01-15 05:23:36.24	248.55	3.23	-43.2	-45.5	12.8	1.10e-06	0	29	0	54525952	58	7657
2026-01-15 05:23:37.25	248.67	3.27	-38.6	-39.7	18.8	0.00e+00	0	29	0	60817408	50	6195
2026-01-15 05:23:38.26	248.79	3.31	-37.9	-39.0	19.4	0.00e+00	0	29	0	66060288	50	5702
2026-01-15 05:23:39.26	248.90	3.35	-38.4	-39.5	18.8	0.00e+00	0	29	0	72351744	50	6083
2026-01-15 05:23:40.28	249.02	3.39	-38.6	-39.6	18.8	0.00e+00	0	29	0	77594624	50	6162
2026-01-15 05:23:41.29	249.14	3.43	-37.7	-38.6	19.9	0.00e+00	0	29	0	82837504	50	5498
2026-01-15 05:23:42.30	249.26	3.47	-36.7	-37.6	20.8	0.00e+00	0	29	0	89128960	48	5484
2026-01-15 05:23:43.31	249.37	3.51	-36.8	-37.7	20.7	0.00e+00	0	29	0	94371840	46	6201
2026-01-15 05:23:44.32	249.49	3.55	-36.4	-37.3	21.1	0.00e+00	0	29	0	100663296	46	5909
2026-01-15 05:23:45.33	249.61	3.59	-36.5	-37.3	21.1	0.00e+00	0	29	0	105906176	46	5960
2026-01-15 05:23:46.34	249.73	3.63	-36.5	-37.4	21.1	0.00e+00	0	29	0	111149056	46	5999
2026-01-15 05:23:47.35	249.85	3.67	-36.1	-36.9	21.5	0.00e+00	0	29	0	117440512	46	5675
2026-01-15 05:23:48.36	249.97	3.71	-36.2	-37.1	21.4	0.00e+00	0	29	0	122683392	46	5768
2026-01-15 05:23:49.37	250.09	3.75	-36.0	-36.8	21.6	0.00e+00	0	29	0	128974848	46	5592
2026-01-15 05:23:50.38	250.21	3.79	-35.8	-36.6	21.8	0.00e+00	0	29	0	134217728	46	5484
2026-01-15 05:23:51.39	250.33	3.83	-35.8	-36.6	21.8	0.00e+00	0	29	0	140509184	44	6142
2026-01-15 05:23:52.40	250.45	3.87	-35.9	-36.7	21.7	0.00e+00	0	29	0	145752064	44	6238
2026-01-15 05:23:53.41	250.57	3.91	-36.2	-37.1	21.4	0.00e+00	0	29	0	152043520	44	6479
2026-01-15 05:23:54.42	250.69	3.95	-35.8	-36.6	21.8	0.00e+00	0	29	0	157286400	44	6167
2026-01-15 05:23:55.43	250.82	3.99	-36.0	-36.9	21.5	0.00e+00	0	29	0	162529280	44	6338
2026-01-15 05:23:56.44	250.94	4.03	-36.4	-37.2	21.2	0.00e+00	0	29	0	168820736	44	6587
2026-01-15 05:23:57.45	251.06	4.07	-36.1	-36.9	21.6	0.00e+00	0	29	0	174063616	44	6358
2026-01-15 05:23:58.46	251.18	4.10	-36.1	-36.9	21.5	0.00e+00	0	29	0	180355072	44	6372
2026-01-15 05:23:59.47	251.31	4.14	-35.9	-36.8	21.7	0.00e+00	0	29	0	185597952	44	6270
2026-01-15 05:24:00.47	251.43	4.18	-36.0	-36.9	21.7	0.00e+00	0	29	0	190840832	44	6336
2026-01-15 05:24:01.49	251.55	4.22	-36.0	-36.8	21.7	0.00e+00	0	29	0	197132288	44	6316
2026-01-15 05:24:02.50	251.68	4.26	-35.9	-36.7	21.7	0.00e+00	0	29	0	202375168	44	6207
2026-01-15 05:24:03.51	251.80	4.30	-35.9	-36.7	21.8	0.00e+00	0	29	0	208666624	44	6205
2026-01-15 05:24:04.52	251.93	4.34	-36.1	-36.9	21.5	0.00e+00	0	29	0	213909504	44	6387
2026-01-15 05:24:05.53	252.05	4.38	-35.7	-36.6	21.9	0.00e+00	0	29	0	219152384	44	6109
2026-01-15 05:24:06.54	252.18	4.42	-36.0	-36.8	21.7	0.00e+00	0	29	0	225443840	44	6282
2026-01-15 05:24:07.55	252.30	4.46	-36.1	-36.9	21.6	0.00e+00	0	29	0	230686720	44	6359
2026-01-15 05:24:08.55	252.43	4.49	-36.0	-36.9	21.7	0.00e+00	0	29	0	236978176	44	6330
2026-01-15 05:24:09.56	252.56	4.53	-36.1	-37.0	21.5	0.00e+00	0	29	0	242221056	44	6417
2026-01-15 05:24:10.57	252.68	4.57	-35.8	-36.7	21.9	0.00e+00	0	29	0	248512512	44	6204
2026-01-15 05:24:11.58	252.81	4.61	-35.8	-36.6	21.9	0.00e+00	0	29	0	253755392	44	6173
2026-01-15 05:24:12.59	252.94	4.65	-35.8	-36.6	21.9	0.00e+00	0	29	0	258998272	44	6145
2026-01-15 05:24:13.60	253.06	4.69	-35.7	-36.5	22.0	0.00e+00	0	29	0	265289728	44	6047
2026-01-15 05:24:14.61	253.19	4.73	-35.5	-36.3	22.3	0.00e+00	0	29	0	270532608	44	5904
2026-01-15 05:24:15.62	253.32	4.76	-35.3	-36.1	22.4	0.00e+00	0	29	0	276824064	44	5799
2026-01-15 05:24:16.63	253.45	4.80	-35.4	-36.1	22.4	0.00e+00	0	29	0	282066944	44	5825
2026-01-15 05:24:17.64	253.58	4.84	-35.4	-36.2	22.3	0.00e+00	0	29	0	287309824	44	5885
2026-01-15 05:24:18.65	253.71	4.88	-35.6	-36.3	22.2	0.00e+00	0	29	0	293601280	44	5961
2026-01-15 05:24:19.66	253.84	4.92	-35.4	-36.2	22.4	0.00e+00	0	29	0	298844160	44	5839
2026-01-15 05:24:20.66	253.97	4.95	-35.6	-36.4	22.2	0.00e+00	0	29	0	305135616	44	5978
2026-01-15 05:24:21.67	254.10	4.99	-35.3	-36.1	22.4	0.00e+00	0	29	0	310378496	44	5781
2026-01-15 05:24:22.68	254.23	5.03	-35.3	-36.0	22.4	0.00e+00	0	29	0	315621376	44	5757
2026-01-15 05:24:23.69	254.36	5.07	-35.3	-36.1	22.5	0.00e+00	0	29	0	321912832	44	5763
2026-01-15 05:24:24.70	254.49	5.11	-35.4	-36.2	22.4	0.00e+00	0	29	0	327155712	44	5883
2026-01-15 05:24:25.71	254.62	5.14	-35.3	-36.0	22.6	0.00e+00	0	29	0	333447168	44	5742
2026-01-15 05:24:26.72	254.75	5.18	-35.4	-36.2	22.5	0.00e+00	0	29	0	338690048	44	5839
2026-01-15 05:24:27.73	254.88	5.22	-35.1	-35.9	22.6	0.00e+00	0	29	0	344981504	44	5661
2026-01-15 05:24:28.74	255.02	5.26	-35.2	-36.0	22.6	0.00e+00	0	29	0	350224384	44	5726
2026-01-15 05:24:29.75	255.15	5.29	-35.3	-36.1	22.5	0.00e+00	0	29	0	356515840	44	5791
2026-01-15 05:24:30.76	255.28	5.33	-35.2	-36.0	22.6	0.00e+00	0	29	0	361758720	44	5724
2026-01-15 05:24:31.77	255.42	5.37	-35.1	-35.9	22.7	0.00e+00	0	29	0	367001600	44	5653
2026-01-15 05:24:32.78	255.55	5.41	-35.3	-36.0	22.6	0.00e+00	0	29	0	373293056	44	5744
2026-01-15 05:24:33.79	255.69	5.44	-35.4	-36.1	22.4	0.00e+00	0	29	0	378535936	44	5803
2026-01-15 05:24:34.80	255.82	5.48	-35.5	-36.3	22.3	0.00e+00	0	29	0	384827392	44	5931
2026-01-15 05:24:35.81	255.95	5.52	-35.7	-36.5	22.1	0.00e+00	0	29	0	390070272	44	6082
2026-01-15 05:24:36.82	256.09	5.55	-35.7	-36.5	22.2	0.00e+00	0	29	0	395313152	44	6046
2026-01-15 05:24:37.83	256.23	5.59	-35.6	-36.4	22.2	0.00e+00	0	29	0	401604608	44	5978
2026-01-15 05:24:38.84	256.36	5.63	-35.9	-36.7	22.2	0.00e+00	0	29	0	406847488	44	6195
2026-01-15 05:24:39.85	256.50	5.66	-35.5	-36.3	22.4	0.00e+00	0	29	0	412090368	44	5910
2026-01-15 05:24:40.86	256.63	5.70	-35.0	-35.7	22.9	0.00e+00	0	29	0	418381824	44	5542
2026-01-15 05:24:41.87	256.77	5.74	-35.1	-35.9	22.8	0.00e+00	0	29	0	423624704	44	5631
2026-01-15 05:24:42.88	256.91	5.77	-35.0	-35.8	22.9	0.00e+00	0	29	0	429916160	44	5585
2026-01-15 05:24:43.89	257.04	5.81	-35.0	-35.8	22.9	0.00e+00	0	29	0	435159040	44	5594
2026-01-15 05:24:44.90	257.18	5.84	-34.9	-35.7	22.9	0.00e+00	0	29	0	441450496	44	5532
2026-01-15 05:24:45.91	257.32	5.88	-35.2	-36.0	22.7	0.00e+00	0	29	0	446693376	44	5718
2026-01-15 05:24:46.92	257.46	5.92	-35.2	-35.9	22.8	0.00e+00	0	29	0	452984832	44	5672
2026-01-15 05:24:47.93	257.60	5.95	-35.3	-36.1	22.6	0.00e+00	0	29	0	458227712	44	5771
2026-01-15 05:24:48.94	257.74	5.99	-35.0	-35.8	22.8	0.00e+00	0	29	0	463470592	44	5586
2026-01-15 05:24:49.95	257.88	6.02	-34.9	-35.7	23.0	0.00e+00	0	29	0	469762048	44	5503
2026-01-15 05:24:50.96	258.02	6.06	-35.0	-35.8	22.8	0.00e+00	0	29	0	475004928	44	5583
2026-01-15 05:24:51.97	258.16	6.10	-34.9	-35.6	23.0	0.00e+00	0	29	0	481296384	44	5478
2026-01-15 05:24:52.98	258.30	6.13	-35.0	-35.7	22.8	0.00e+00	0	29	0	486539264	44	5565
2026-01-15 05:24:53.98	258.44	6.17	-34.8	-35.6	23.0	0.00e+00	0	29	0	491782144	44	5447
2026-01-15 05:24:54.99	258.58	6.20	-34.9	-35.7	23.1	0.00e+00	0	29	0	498073600	44	5521
2026-01-15 05:24:56.00	258.72	6.24	-34.8	-35.5	23.1	0.00e+00	0	29	0	503316480	42	6098
2026-01-15 05:24:57.01	258.86	6.27	-34.8	-35.6	23.1	0.00e+00	0	29	0	509607936	42	6107
2026-01-15 05:24:58.02	259.00	6.31	-34.9	-35.7	22.9	0.00e+00	0	29	0	514850816	42	6192
2026-01-15 05:24:59.03	259.14	6.34	-34.8	-35.5	23.2	0.00e+00	0	29	0	520093696	42	6038
2026-01-15 05:25:00.04	259.29	6.38	-34.7	-35.4	23.3	0.00e+00	0	29	0	526385152	42	6029
2026-01-15 05:25:01.05	259.43	6.41	-34.6	-35.3	23.3	0.00e+00	0	29	0	531628032	42	5928
2026-01-15 05:25:02.06	259.57	6.45	-34.8	-35.6	23.1	0.00e+00	0	29	0	537919488	42	6116
2026-01-15 05:25:03.07	259.72	6.48	-34.8	-35.5	23.2	0.00e+00	0	29	0	543162368	42	6099
2026-01-15 05:25:04.08	259.86	6.51	-34.7	-35.5	23.3	0.00e+00	0	29	0	549453824	42	6053
2026-01-15 05:25:05.09	260.01	6.55	-34.6	-35.4	23.3	0.00e+00	0	29	0	554696704	42	5966
2026-01-15 05:25:06.10	260.15	6.58	-34.6	-35.3	23.3	0.00e+00	0	29	0	560988160	42	5951
2026-01-15 05:25:07.11	260.30	6.62	-34.8	-35.6	23.1	0.00e+00	0	29	0	566231040	42	6136
2026-01-15 05:25:08.12	260.44	6.65	-34.9	-35.7	23.1	0.00e+00	0	29	0	571473920	42	6203
2026-01-15 05:25:09.13	260.59	6.68	-34.9	-35.6	23.2	0.00e+00	0	29	0	577765376	42	6162
2026-01-15 05:25:10.14	260.73	6.72	-34.8	-35.6	23.2	0.00e+00	0	29	0	583008256	42	6118
2026-01-15 05:25:11.15	260.88	6.75	-34.5	-35.3	23.4	0.00e+00	0	29	0	589299712	42	5911
2026-01-15 05:25:12.16	261.03	6.78	-34.6	-35.4	23.4	0.00e+00	0	29	0	594542592	42	5988
2026-01-15 05:25:13.17	261.17	6.82	-34.7	-35.4	23.3	0.00e+00	0	29	0	599785472	42	5984
2026-01-15 05:25:14.18	261.32	6.85	-34.7	-35.5	23.3	0.00e+00	0	29	0	606076928	42	6037
2026-01-15 05:25:15.19	261.47	6.88	-34.6	-35.4	23.4	0.00e+00	0	29	0	611319808	42	5982
2026-01-15 05:25:16.20	261.62	6.92	-34.8	-35.5	23.3	0.00e+00	0	29	0	616562688	42	6072
2026-01-15 05:25:17.21	261.76	6.95	-34.7	-35.4	23.3	0.00e+00	0	29	0	622854144	42	6006
2026-01-15 05:25:18.21	261.91	6.98	-34.6	-35.4	23.4	0.00e+00	0	29	0	628097024	42	5970
2026-01-15 05:25:19.22	262.06	7.02	-34.7	-35.4	23.3	0.00e+00	0	29	0	634388480	42	5999
2026-01-15 05:25:20.23	262.21	7.05	-34.6	-35.4	23.5	0.00e+00	0	29	0	639631360	42	5980
2026-01-15 05:25:21.24	262.36	7.08	-34.7	-35.4	23.3	0.00e+00	0	29	0	645922816	42	6008
2026-01-15 05:25:22.25	262.51	7.11	-34.7	-35.4	23.4	0.00e+00	0	29	0	651165696	42	6003
2026-01-15 05:25:23.26	262.66	7.14	-34.7	-35.5	23.2	0.00e+00	0	29	0	657457152	42	6052
2026-01-15 05:25:24.27	262.81	7.18	-34.9	-35.7	23.1	0.00e+00	0	29	0	662700032	42	6193
2026-01-15 05:25:25.28	262.96	7.21	-34.9	-35.7	23.1	0.00e+00	0	29	0	667942912	42	6182
2026-01-15 05:25:26.29	263.11	7.24	-34.8	-35.6	23.2	0.00e+00	0	29	0	674234368	42	6117
2026-01-15 05:25:27.30	263.26	7.27	-34.6	-35.4	23.4	0.00e+00	0	29	0	679477248	42	5975
2026-01-15 05:25:28.31	263.41	7.30	-34.6	-35.4	23.4	0.00e+00	0	29	0	685768704	42	5983
2026-01-15 05:25:29.32	263.57	7.34	-34.6	-35.3	23.4	0.00e+00	0	29	0	691011584	42	5963
2026-01-15 05:25:30.33	263.72	7.37	-34.6	-35.3	23.4	0.00e+00	0	29	0	696254464	42	5947
2026-01-15 05:25:31.34	263.87	7.40	-34.7	-35.5	23.3	0.00e+00	0	29	0	702545920	42	6035
2026-01-15 05:25:32.35	264.02	7.43	-34.6	-35.4	23.5	0.00e+00	0	29	0	707788800	42	5984
2026-01-15 05:25:33.36	264.18	7.46	-34.7	-35.4	23.4	0.00e+00	0	29	0	714080256	42	6033
2026-01-15 05:25:34.37	264.33	7.49	-34.6	-35.3	23.5	0.00e+00	0	29	0	719323136	42	5938
2026-01-15 05:25:35.38	264.48	7.52	-34.8	-35.6	22.5	0.00e+00	0	29	0	724566016	42	6112
2026-01-15 05:25:36.39	264.64	7.55	-37.4	-38.3	23.1	1.14e-05	0	29	0	729808896	52	4732
2026-01-15 05:25:37.40	264.79	7.58	-35.2	-36.0	23.2	0.00e+00	0	29	0	736100352	44	5719
2026-01-15 05:25:38.41	264.95	7.61	-34.8	-35.5	23.3	0.00e+00	0	29	0	741343232	42	6073
2026-01-15 05:25:39.42	265.10	7.64	-34.5	-35.3	23.5	0.00e+00	0	29	0	747634688	42	5917
2026-01-15 05:25:40.43	265.26	7.67	-34.3	-35.0	23.6	0.00e+00	0	29	0	752877568	42	5739
2026-01-15 05:25:41.44	265.41	7.70	-34.1	-34.8	23.9	0.00e+00	0	29	0	758120448	42	5623
2026-01-15 05:25:42.45	265.57	7.73	-34.0	-34.8	23.9	0.00e+00	0	29	0	764411904	42	5585
2026-01-15 05:25:43.46	265.73	7.76	-34.2	-34.9	23.8	0.00e+00	0	29	0	769654784	42	5651
2026-01-15 05:25:44.47	265.88	7.79	-34.1	-34.8	23.9	0.00e+00	0	29	0	775946240	42	5603
2026-01-15 05:25:45.48	266.04	7.82	-34.2	-34.9	23.9	0.00e+00	0	29	0	781189120	42	5654
2026-01-15 05:25:46.49	266.20	7.85	-34.1	-34.8	23.9	0.00e+00	0	29	0	787480576	42	5592
2026-01-15 05:25:47.50	266.36	7.88	-34.0	-34.7	24.1	0.00e+00	0	29	0	792723456	42	5517
2026-01-15 05:25:48.50	266.51	7.90	-34.1	-34.8	23.9	0.00e+00	0	29	0	799014912	42	5592
2026-01-15 05:25:49.51	266.67	7.93	-34.2	-34.9	23.9	0.00e+00	0	29	0	804257792	42	5641
2026-01-15 05:25:50.52	266.83	7.96	-34.1	-34.8	23.9	0.00e+00	0	29	0	809500672	42	5628
2026-01-15 05:25:51.53	266.99	7.99	-34.1	-34.9	23.9	0.00e+00	0	29	0	815792128	42	5640
2026-01-15 05:25:52.54	267.15	8.02	-34.0	-34.8	23.9	0.00e+00	0	29	0	821035008	42	5578
2026-01-15 05:25:53.55	267.31	8.05	-34.1	-34.9	23.9	0.00e+00	0	29	0	827326464	42	5631
2026-01-15 05:25:54.56	267.47	8.07	-34.1	-34.8	24.0	0.00e+00	0	29	0	832569344	42	5630
2026-01-15 05:25:55.57	267.63	8.10	-34.2	-34.9	23.8	0.00e+00	0	29	0	837812224	42	5668
2026-01-15 05:25:56.58	267.79	8.13	-34.1	-34.8	23.9	0.00e+00	0	29	0	844103680	42	5623
2026-01-15 05:25:57.59	267.95	8.16	-34.2	-34.9	23.8	0.00e+00	0	29	0	849346560	42	5666
2026-01-15 05:25:58.60	268.11	8.18	-34.3	-35.0	23.9	0.00e+00	0	29	0	855638016	42	5718
2026-01-15 05:25:59.61	268.27	8.21	-34.1	-34.8	23.8	0.00e+00	0	29	0	860880896	42	5617
2026-01-15 05:26:00.62	268.43	8.24	-34.0	-34.8	24.0	0.00e+00	0	29	0	866123776	42	5567
2026-01-15 05:26:01.63	268.59	8.26	-34.0	-34.7	24.0	0.00e+00	0	29	0	872415232	42	5542
2026-01-15 05:26:02.64	268.75	8.29	-34.0	-34.7	24.0	0.00e+00	0	29	0	877658112	42	5544
2026-01-15 05:26:03.65	268.91	8.32	-34.0	-34.7	24.0	0.00e+00	0	29	0	883949568	42	5566
2026-01-15 05:26:04.66	269.08	8.34	-34.1	-34.8	24.0	0.00e+00	0	29	0	889192448	42	5579
2026-01-15 05:26:05.67	269.24	8.37	-34.1	-34.8	24.0	0.00e+00	0	29	0	895483904	42	5598
2026-01-15 05:26:06.68	269.40	8.39	-34.2	-34.9	23.8	0.00e+00	0	29	0	900726784	42	5675
2026-01-15 05:26:07.69	269.57	8.42	-34.2	-34.9	23.8	0.00e+00	0	29	0	905969664	42	5673
2026-01-15 05:26:08.70	269.73	8.44	-34.2	-35.0	23.8	0.00e+00	0	29	0	912261120	42	5729
2026-01-15 05:26:09.71	269.89	8.47	-34.1	-34.9	23.9	0.00e+00	0	29	0	917504000	42	5657
2026-01-15 05:26:10.72	270.06	8.49	-34.1	-34.8	24.0	0.00e+00	0	29	0	923795456	42	5597
2026-01-15 05:26:11.73	270.22	8.52	-34.1	-34.8	24.0	0.00e+00	0	29	0	929038336	42	5615
2026-01-15 05:26:12.74	270.39	8.54	-34.0	-34.7	24.0	0.00e+00	0	29	0	934281216	42	5524
2026-01-15 05:26:13.75	270.55	8.57	-34.1	-34.8	24.0	0.00e+00	0	29	0	940572672	42	5597
2026-01-15 05:26:14.76	270.72	8.59	-34.0	-34.8	24.0	0.00e+00	0	29	0	945815552	42	5568
2026-01-15 05:26:15.76	270.88	8.62	-34.0	-34.8	24.0	0.00e+00	0	29	0	952107008	42	5571
2026-01-15 05:26:16.77	271.05	8.64	-34.1	-34.8	24.0	0.00e+00	0	29	0	957349888	42	5592
2026-01-15 05:26:17.78	271.21	8.67	-34.1	-34.9	23.9	0.00e+00	0	29	0	962592768	42	5653
2026-01-15 05:26:18.79	271.38	8.69	-34.2	-35.0	23.8	0.00e+00	0	29	0	968884224	42	5697
2026-01-15 05:26:19.80	271.55	8.71	-34.3	-35.0	23.7	0.00e+00	0	29	0	974127104	42	5761
2026-01-15 05:26:20.81	271.71	8.74	-34.2	-34.9	23.8	0.00e+00	0	29	0	980418560	42	5673
2026-01-15 05:26:21.82	271.88	8.76	-34.0	-34.8	24.0	0.00e+00	0	29	0	985661440	42	5573
2026-01-15 05:26:22.83	272.05	8.78	-34.0	-34.7	24.0	0.00e+00	0	29	0	991952896	42	5564
2026-01-15 05:26:23.84	272.21	8.80	-34.0	-34.7	23.9	0.00e+00	0	29	0	997195776	42	5551
2026-01-15 05:26:24.85	272.38	8.83	-33.9	-34.6	24.1	0.00e+00	0	29	0	1002438656	42	5496
2026-01-15 05:26:25.86	272.55	8.85	-34.0	-34.7	24.1	0.00e+00	0	29	0	1008730112	42	5537
2026-01-15 05:26:26.87	272.72	8.87	-33.9	-34.6	24.1	0.00e+00	0	29	0	1013972992	42	5479
2026-01-15 05:26:27.88	272.89	8.89	-34.1	-34.8	24.0	0.00e+00	0	29	0	1020264448	42	5582
2026-01-15 05:26:28.88	273.05	8.91	-34.0	-34.7	24.0	0.00e+00	0	29	0	1025507328	42	5553
2026-01-15 05:26:29.89	273.22	8.94	-34.2	-34.9	23.9	0.00e+00	0	29	0	1030750208	42	5646
2026-01-15 05:26:30.90	273.39	8.96	-34.2	-34.9	23.9	0.00e+00	0	29	0	1037041664	42	5676
2026-01-15 05:26:31.91	273.56	8.98	-34.3	-35.0	23.8	0.00e+00	0	29	0	1042284544	42	5761
2026-01-15 05:26:32.92	273.73	9.00	-34.1	-34.8	23.8	0.00e+00	0	29	0	1048576000	42	5615
2026-01-15 05:26:33.93	273.90	9.02	-34.2	-34.9	23.9	0.00e+00	0	29	0	1053818880	42	5654
2026-01-15 05:26:34.94	274.07	9.04	-34.2	-35.0	23.9	0.00e+00	0	29	0	1059061760	42	5706
2026-01-15 05:26:35.95	274.24	9.06	-34.2	-35.0	23.8	0.00e+00	0	29	0	1065353216	42	5733
2026-01-15 05:26:36.96	274.41	9.08	-34.0	-34.7	24.0	0.00e+00	0	29	0	1070596096	42	5556
2026-01-15 05:26:37.97	274.58	9.10	-34.0	-34.8	24.0	0.00e+00	0	29	0	1076887552	42	5570
2026-01-15 05:26:38.97	274.75	9.12	-33.9	-34.6	24.2	0.00e+00	0	29	0	1082130432	42	5494
2026-01-15 05:26:39.98	274.92	9.14	-34.0	-34.7	24.1	0.00e+00	0	29	0	1088421888	42	5559
2026-01-15 05:26:40.99	275.10	9.16	-33.9	-34.7	24.1	0.00e+00	0	29	0	1093664768	42	5518
2026-01-15 05:26:42.00	275.27	9.18	-33.8	-34.5	24.2	0.00e+00	0	29	0	1099956224	40	6058
2026-01-15 05:26:43.01	275.44	9.20	-33.8	-34.5	24.3	0.00e+00	0	29	0	1105199104	40	6066
2026-01-15 05:26:44.02	275.61	9.22	-33.7	-34.4	24.3	0.00e+00	0	29	0	1110441984	40	6010
2026-01-15 05:26:45.03	275.78	9.23	-33.6	-34.3	24.4	0.00e+00	0	29	0	1116733440	40	5960
2026-01-15 05:26:46.04	275.96	9.25	-33.7	-34.4	24.4	0.00e+00	0	29	0	1121976320	40	5990
2026-01-15 05:26:47.05	276.13	9.27	-33.6	-34.3	24.4	0.00e+00	0	29	0	1127219200	40	5936
2026-01-15 05:26:48.06	276.30	9.29	-33.6	-34.3	24.3	0.00e+00	0	29	0	1133510656	40	5934
2026-01-15 05:26:49.07	276.48	9.31	-33.9	-34.6	24.3	0.00e+00	0	29	0	1138753536	40	6116
2026-01-15 05:26:50.08	276.65	9.32	-33.7	-34.5	24.3	0.00e+00	0	29	0	1145044992	40	6046
2026-01-15 05:26:51.09	276.82	9.34	-33.7	-34.4	24.4	0.00e+00	0	29	0	1150287872	40	6004
2026-01-15 05:26:52.10	277.00	9.36	-33.6	-34.3	24.4	0.00e+00	0	29	0	1155530752	40	5955
2026-01-15 05:26:53.10	277.17	9.37	-33.6	-34.3	24.4	0.00e+00	0	29	0	1161822208	40	5919
2026-01-15 05:26:54.12	277.34	9.39	-33.7	-34.4	24.3	0.00e+00	0	29	0	1167065088	40	5997
2026-01-15 05:26:55.13	277.52	9.41	-33.5	-34.3	24.6	0.00e+00	0	29	0	1173356544	40	5907
2026-01-15 05:26:56.14	277.69	9.42	-33.7	-34.4	24.5	0.00e+00	0	29	0	1178599424	40	5965
2026-01-15 05:26:57.14	277.87	9.44	-33.5	-34.2	24.6	0.00e+00	0	29	0	1184890880	40	5860
2026-01-15 05:26:58.15	278.04	9.45	-33.4	-34.0	24.7	0.00e+00	0	29	0	1190133760	40	5751
2026-01-15 05:26:59.16	278.22	9.47	-33.3	-34.0	24.7	0.00e+00	0	29	0	1196425216	40	5708
2026-01-15 05:27:00.16	278.39	9.48	-33.4	-34.0	24.7	0.00e+00	0	29	0	1201668096	40	5750
2026-01-15 05:27:01.16	278.56	9.50	-33.4	-34.1	24.7	0.00e+00	0	29	0	1206910976	40	5789
2026-01-15 05:27:02.17	278.74	9.51	-33.5	-34.2	24.5	0.00e+00	0	29	0	1213202432	40	5842
2026-01-15 05:27:03.17	278.91	9.53	-33.6	-34.2	24.5	0.00e+00	0	30	0	1218445312	40	5875
2026-01-15 05:27:04.19	279.09	9.54	-33.7	-34.4	24.4	0.00e+00	0	29	0	1223688192	40	5987
2026-01-15 05:27:05.19	279.27	9.56	-33.8	-34.4	24.3	0.00e+00	0	29	0	1229979648	40	6011
2026-01-15 05:27:06.20	279.44	9.57	-33.8	-34.5	24.3	0.00e+00	0	29	0	1235222528	40	6071
2026-01-15 05:27:07.21	279.62	9.58	-33.7	-34.4	24.3	0.00e+00	0	29	0	1241513984	40	5999
2026-01-15 05:27:08.22	279.79	9.60	-33.7	-34.5	24.3	0.00e+00	0	29	0	1246756864	40	6050
2026-01-15 05:27:09.23	279.97	9.61	-33.8	-34.5	24.3	0.00e+00	0	29	0	1251999744	40	6067
2026-01-15 05:27:10.24	280.15	9.62	-33.5	-34.2	24.5	0.00e+00	0	29	0	1258291200	40	5838
2026-01-15 05:27:11.24	280.32	9.64	-33.5	-34.2	24.6	0.00e+00	0	29	0	1263534080	40	5860
2026-01-15 05:27:12.26	280.50	9.65	-33.6	-34.3	24.5	0.00e+00	0	29	0	1269825536	40	5913
2026-01-15 05:27:13.27	280.68	9.66	-33.5	-34.2	24.6	0.00e+00	0	30	0	1275068416	40	5861
2026-01-15 05:27:14.28	280.86	9.67	-33.4	-34.1	24.6	0.00e+00	0	29	0	1281359872	40	5795
2026-01-15 05:27:15.29	281.03	9.68	-33.5	-34.2	24.5	0.00e+00	0	29	0	1286602752	40	5856
2026-01-15 05:27:16.30	281.21	9.70	-33.5	-34.2	24.5	0.00e+00	0	29	0	1291845632	40	5846
2026-01-15 05:27:17.30	281.39	9.71	-33.5	-34.2	24.5	0.00e+00	0	30	0	1298137088	40	5876
2026-01-15 05:27:18.31	281.57	9.72	-33.6	-34.3	24.5	0.00e+00	0	29	0	1303379968	40	5935
2026-01-15 05:27:19.32	281.74	9.73	-33.6	-34.4	24.4	0.00e+00	0	29	0	1309671424	40	5969
2026-01-15 05:27:20.33	281.92	9.74	-33.7	-34.5	24.3	0.00e+00	0	29	0	1314914304	40	6054
2026-01-15 05:27:21.34	282.10	9.75	-33.7	-34.4	24.4	0.00e+00	0	29	0	1320157184	40	5995
2026-01-15 05:27:22.35	282.28	9.76	-33.8	-34.6	24.3	0.00e+00	0	29	0	1326448640	40	6137
2026-01-15 05:27:23.36	282.46	9.77	-33.9	-34.6	24.2	0.00e+00	0	29	0	1331691520	40	6136
2026-01-15 05:27:24.37	282.64	9.78	-33.8	-34.5	24.3	0.00e+00	0	29	0	1337982976	40	6058
2026-01-15 05:27:25.38	282.82	9.79	-33.7	-34.3	24.3	0.00e+00	0	29	0	1343225856	40	5953
2026-01-15 05:27:26.38	282.99	9.80	-33.7	-34.4	24.3	0.00e+00	0	29	0	1348468736	40	6030
2026-01-15 05:27:27.39	283.17	9.81	-33.8	-34.5	24.3	0.00e+00	0	29	0	1354760192	40	6083
2026-01-15 05:27:28.40	283.35	9.82	-33.7	-34.4	24.4	0.00e+00	0	29	0	1360003072	40	5972
2026-01-15 05:27:29.41	283.53	9.82	-33.6	-34.3	24.5	0.00e+00	0	29	0	1366294528	40	5935
2026-01-15 05:27:30.42	283.71	9.83	-33.7	-34.4	24.3	0.00e+00	0	29	0	1371537408	40	5984
2026-01-15 05:27:31.43	283.89	9.84	-33.6	-34.3	24.4	0.00e+00	0	29	0	1377828864	40	5956
2026-01-15 05:27:32.44	284.07	9.85	-33.7	-34.4	24.3	0.00e+00	0	29	0	1383071744	40	6007
2026-01-15 05:27:33.45	284.25	9.86	-33.7	-34.4	24.3	0.00e+00	0	29	0	1389363200	40	6011
2026-01-15 05:27:34.46	284.43	9.86	-33.6	-34.3	24.5	0.00e+00	0	29	0	1394606080	40	5945
2026-01-15 05:27:35.47	284.61	9.87	-33.6	-34.3	24.4	0.00e+00	0	29	0	1399848960	40	5953
2026-01-15 05:27:36.48	284.79	9.88	-33.5	-34.2	24.5	0.00e+00	0	29	0	1406140416	40	5873
2026-01-15 05:27:37.49	284.97	9.88	-33.5	-34.2	24.5	0.00e+00	0	29	0	1411383296	40	5843
2026-01-15 05:27:38.50	285.15	9.89	-33.5	-34.2	24.6	0.00e+00	0	29	0	1417674752	40	5845
2026-01-15 05:27:39.51	285.33	9.89	-33.5	-34.2	24.6	0.00e+00	0	29	0	1422917632	40	5831
2026-01-15 05:27:40.52	285.51	9.90	-33.5	-34.1	24.6	0.00e+00	0	29	0	1428160512	40	5821
2026-01-15 05:27:41.53	285.69	9.91	-33.6	-34.3	24.4	0.00e+00	0	29	0	1434451968	40	5922
2026-01-15 05:27:42.54	285.87	9.91	-33.5	-34.2	24.5	0.00e+00	0	29	0	1439694848	40	5874
2026-01-15 05:27:43.55	286.05	9.92	-33.5	-34.2	24.5	0.00e+00	0	29	0	1445986304	40	5880
2026-01-15 05:27:44.56	286.23	9.92	-33.6	-34.3	24.5	0.00e+00	0	29	0	1451229184	40	5920
2026-01-15 05:27:45.57	286.41	9.93	-33.7	-34.4	24.4	0.00e+00	0	29	0	1456472064	40	6008
2026-01-15 05:27:46.58	286.59	9.93	-33.7	-34.4	24.4	0.00e+00	0	29	0	1462763520	40	6027
2026-01-15 05:27:47.59	286.77	9.93	-33.7	-34.4	24.4	0.00e+00	0	29	0	1468006400	40	5968
2026-01-15 05:27:48.60	286.95	9.94	-33.7	-34.4	24.4	0.00e+00	0	29	0	1474297856	40	6001
2026-01-15 05:27:49.61	287.13	9.94	-33.8	-34.5	24.3	0.00e+00	0	29	0	1479540736	40	6059
2026-01-15 05:27:50.62	287.31	9.94	-33.8	-34.5	24.3	0.00e+00	0	29	0	1485832192	40	6103
2026-01-15 05:27:51.63	287.49	9.95	-33.8	-34.5	24.3	0.00e+00	0	29	0	1491075072	40	6058
2026-01-15 05:27:52.64	287.67	9.95	-33.7	-34.4	24.4	0.00e+00	0	29	0	1496317952	40	6006
2026-01-15 05:27:53.65	287.85	9.95	-33.8	-34.4	24.3	0.00e+00	0	29	0	1502609408	40	6028
2026-01-15 05:27:54.66	288.03	9.96	-33.7	-34.3	24.4	0.00e+00	0	29	0	1507852288	40	5955
2026-01-15 05:27:55.67	288.21	9.96	-33.5	-34.2	24.5	0.00e+00	0	29	0	1514143744	40	5868
2026-01-15 05:27:56.67	288.39	9.96	-33.4	-34.1	24.6	0.00e+00	0	29	0	1519386624	40	5808
2026-01-15 05:27:57.69	288.58	9.96	-33.3	-34.0	24.7	0.00e+00	0	29	0	1524629504	40	5741
2026-01-15 05:27:58.70	288.76	9.96	-33.4	-34.0	24.7	0.00e+00	0	29	0	1530920960	40	5760
2026-01-15 05:27:59.71	288.94	9.96	-33.5	-34.2	24.5	0.00e+00	0	29	0	1536163840	40	5888
2026-01-15 05:28:00.72	289.12	9.96	-33.6	-34.3	24.5	0.00e+00	0	29	0	1542455296	40	5938
2026-01-15 05:28:01.73	289.30	9.96	-33.6	-34.3	24.4	0.00e+00	0	29	0	1547698176	40	5937
2026-01-15 05:28:02.74	289.48	9.96	-33.4	-34.1	24.6	0.00e+00	0	29	0	1552941056	40	5788
2026-01-15 05:28:03.75	289.66	9.96	-33.6	-34.3	24.4	0.00e+00	0	29	0	1559232512	40	5958
2026-01-15 05:28:04.76	289.84	9.96	-33.4	-34.1	24.6	0.00e+00	0	29	0	1564475392	40	5823
2026-01-15 05:28:05.77	290.02	9.96	-33.5	-34.2	24.5	0.00e+00	0	29	0	1570766848	40	5868
2026-01-15 05:28:06.77	290.20	9.96	-33.5	-34.2	24.5	0.00e+00	0	29	0	1576009728	40	5872
2026-01-15 05:28:07.79	290.38	9.96	-33.5	-34.2	24.5	0.00e+00	0	29	0	1582301184	40	5833
2026-01-15 05:28:08.79	290.56	9.96	-33.5	-34.2	24.6	0.00e+00	0	29	0	1587544064	40	5872
2026-01-15 05:28:09.80	290.74	9.96	-33.4	-34.1	24.6	0.00e+00	0	29	0	1593835520	40	5793
2026-01-15 05:28:10.81	290.92	9.96	-33.6	-34.3	24.5	0.00e+00	0	29	0	1599078400	40	5915
2026-01-15 05:28:11.82	291.10	9.96	-33.5	-34.2	24.4	0.00e+00	0	29	0	1604321280	40	5875
2026-01-15 05:28:12.83	291.29	9.95	-33.5	-34.2	24.5	0.00e+00	0	29	0	1610612736	40	5878
2026-01-15 05:28:13.84	291.47	9.95	-33.6	-34.4	24.4	0.00e+00	0	29	0	1615855616	40	5972
2026-01-15 05:28:14.85	291.65	9.95	-33.6	-34.3	24.5	0.00e+00	0	29	0	1621098496	40	5945
2026-01-15 05:28:15.86	291.83	9.95	-33.6	-34.4	24.3	0.00e+00	0	29	0	1627389952	40	5982
2026-01-15 05:28:16.87	292.01	9.94	-33.7	-34.4	24.3	0.00e+00	0	29	0	1632632832	40	6016
2026-01-15 05:28:17.88	292.19	9.94	-33.9	-34.5	24.2	0.00e+00	0	29	0	1638924288	40	6093
2026-01-15 05:28:18.89	292.37	9.94	-33.6	-34.3	24.4	0.00e+00	0	29	0	1644167168	40	5938
2026-01-15 05:28:19.89	292.55	9.93	-33.7	-34.4	24.3	0.00e+00	0	29	0	1649410048	40	6019
2026-01-15 05:28:20.90	292.73	9.93	-33.6	-34.3	24.2	0.00e+00	0	29	0	1655701504	40	5956
2026-01-15 05:28:21.91	292.91	9.92	-33.5	-34.2	24.5	0.00e+00	0	29	0	1660944384	40	5851
2026-01-15 05:28:22.92	293.09	9.92	-33.4	-34.1	24.6	0.00e+00	0	29	0	1667235840	40	5828
2026-01-15 05:28:23.93	293.27	9.91	-33.5	-34.2	24.6	0.00e+00	0	29	0	1672478720	40	5880
2026-01-15 05:28:24.94	293.45	9.91	-33.6	-34.2	24.4	0.00e+00	0	30	0	1678770176	40	5882
2026-01-15 05:28:25.95	293.63	9.90	-33.5	-34.2	24.5	0.00e+00	0	30	0	1684013056	40	5835
2026-01-15 05:28:26.96	293.81	9.90	-33.6	-34.3	24.5	0.00e+00	0	29	0	1690304512	40	5919
2026-01-15 05:28:27.97	293.99	9.89	-33.7	-34.4	24.4	0.00e+00	0	29	0	1695547392	40	6017
2026-01-15 05:28:28.98	294.17	9.88	-33.7	-34.4	24.4	0.00e+00	0	29	0	1700790272	40	6007
2026-01-15 05:28:29.99	294.35	9.88	-33.7	-34.4	24.4	0.00e+00	0	29	0	1707081728	40	6000
2026-01-15 05:28:31.00	294.53	9.87	-33.6	-34.4	24.4	0.00e+00	0	29	0	1712324608	40	5967
2026-01-15 05:28:32.01	294.71	9.86	-33.7	-34.4	24.4	0.00e+00	0	29	0	1718616064	40	6022
2026-01-15 05:28:33.02	294.89	9.86	-33.8	-34.5	24.2	0.00e+00	0	29	0	1723858944	40	6041
2026-01-15 05:28:34.03	295.07	9.85	-33.6	-34.3	24.4	0.00e+00	0	29	0	1729101824	40	5952
2026-01-15 05:28:35.03	295.24	9.84	-33.6	-34.3	24.4	0.00e+00	0	29	0	1735393280	40	5962
2026-01-15 05:28:36.04	295.42	9.83	-33.7	-34.4	24.4	0.00e+00	0	29	0	1740636160	40	5974
2026-01-15 05:28:37.06	295.60	9.83	-33.7	-34.5	24.3	0.00e+00	0	29	0	1746927616	40	6064
2026-01-15 05:28:38.06	295.78	9.82	-33.7	-34.4	24.3	0.00e+00	0	29	0	1752170496	40	6016
2026-01-15 05:28:39.07	295.96	9.81	-33.8	-34.5	24.2	0.00e+00	0	29	0	1757413376	40	6076
2026-01-15 05:28:40.08	296.14	9.80	-33.9	-34.7	24.1	0.00e+00	0	29	0	1763704832	40	6181
2026-01-15 05:28:41.09	296.32	9.79	-34.0	-34.8	24.1	0.00e+00	0	29	0	1768947712	40	6280
2026-01-15 05:28:42.10	296.50	9.78	-34.0	-34.7	24.1	0.00e+00	0	30	0	1775239168	40	6220
2026-01-15 05:28:43.11	296.67	9.77	-34.0	-34.7	24.1	0.00e+00	0	29	0	1780482048	40	6230
2026-01-15 05:28:44.11	296.85	9.76	-34.0	-34.8	24.1	0.00e+00	0	29	0	1786773504	40	6250
2026-01-15 05:28:45.12	297.03	9.75	-33.9	-34.7	24.2	0.00e+00	0	29	0	1792016384	40	6196
2026-01-15 05:28:46.13	297.21	9.74	-34.0	-34.8	24.1	0.00e+00	0	29	0	1797259264	40	6263
2026-01-15 05:28:47.14	297.39	9.73	-33.8	-34.5	24.2	0.00e+00	0	30	0	1803550720	40	6058
2026-01-15 05:28:48.15	297.56	9.72	-33.8	-34.5	24.2	0.00e+00	0	29	0	1808793600	40	6093
2026-01-15 05:28:49.16	297.74	9.71	-33.8	-34.4	24.4	0.00e+00	0	29	0	1815085056	40	6020
2026-01-15 05:28:50.18	297.92	9.70	-33.8	-34.5	24.3	0.00e+00	0	29	0	1820327936	40	6044
2026-01-15 05:28:51.18	298.10	9.69	-33.8	-34.5	24.3	0.00e+00	0	29	0	1825570816	40	6101
2026-01-15 05:28:52.19	298.27	9.68	-33.8	-34.5	24.2	0.00e+00	0	29	0	1831862272	40	6085
2026-01-15 05:28:53.20	298.45	9.67	-33.9	-34.6	24.2	0.00e+00	0	29	0	1837105152	40	6115
2026-01-15 05:28:54.21	298.63	9.65	-33.6	-34.3	24.4	0.00e+00	0	29	0	1843396608	40	5930
2026-01-15 05:28:55.22	298.80	9.64	-33.7	-34.4	24.3	0.00e+00	0	29	0	1848639488	40	6016
2026-01-15 05:28:56.23	298.98	9.63	-33.7	-34.4	24.4	0.00e+00	0	29	0	1853882368	40	6017
2026-01-15 05:28:57.24	299.16	9.62	-33.7	-34.4	24.3	0.00e+00	0	30	0	1860173824	40	6027
2026-01-15 05:28:58.25	299.33	9.60	-33.5	-34.2	24.5	0.00e+00	0	30	0	1865416704	40	5862
2026-01-15 05:28:59.26	299.51	9.59	-33.6	-34.4	24.3	0.00e+00	0	29	0	1871708160	40	5971
2026-01-15 05:29:00.27	299.69	9.58	-33.6	-34.3	24.4	0.00e+00	0	29	0	1876951040	40	5935
2026-01-15 05:29:01.28	299.86	9.56	-33.5	-34.2	24.5	0.00e+00	0	29	0	1883242496	40	5861
2026-01-15 05:29:02.29	300.04	9.55	-33.6	-34.4	24.3	0.00e+00	0	29	0	1888485376	40	5977
2026-01-15 05:29:03.30	300.21	9.53	-33.7	-34.5	24.3	0.00e+00	0	30	0	1894776832	40	6043
2026-01-15 05:29:04.31	300.39	9.52	-33.8	-34.6	24.2	0.00e+00	0	29	0	1900019712	40	6110
2026-01-15 05:29:05.32	300.56	9.50	-33.9	-34.6	24.2	0.00e+00	0	29	0	1905262592	40	6170
2026-01-15 05:29:06.33	300.74	9.49	-33.9	-34.7	24.1	0.00e+00	0	29	0	1911554048	40	6186
2026-01-15 05:29:07.34	300.92	9.47	-33.9	-34.5	24.1	0.00e+00	0	29	0	1916796928	40	6091
2026-01-15 05:29:08.36	301.09	9.46	-33.8	-34.6	24.2	0.00e+00	0	29	0	1923088384	40	6104
2026-01-15 05:29:09.37	301.27	9.44	-33.6	-34.4	24.3	0.00e+00	0	29	0	1928331264	40	5993
2026-01-15 05:29:10.37	301.44	9.43	-33.6	-34.3	24.4	0.00e+00	0	30	0	1933574144	40	5947
2026-01-15 05:29:11.38	301.61	9.41	-33.6	-34.2	24.5	0.00e+00	0	29	0	1939865600	40	5862
2026-01-15 05:29:12.39	301.79	9.40	-33.7	-34.3	24.4	0.00e+00	0	29	0	1945108480	40	5942
2026-01-15 05:29:13.40	301.96	9.38	-33.7	-34.3	24.2	0.00e+00	0	29	0	1951399936	40	5962
2026-01-15 05:29:14.41	302.13	9.36	-33.8	-34.4	24.3	0.00e+00	0	30	0	1956642816	40	6032
2026-01-15 05:29:15.42	302.31	9.35	-33.7	-34.5	24.3	0.00e+00	0	30	0	1961885696	40	6061
2026-01-15 05:29:16.43	302.48	9.33	-33.7	-34.4	24.2	0.00e+00	0	29	0	1968177152	40	6031
2026-01-15 05:29:17.44	302.65	9.31	-33.8	-34.5	24.2	0.00e+00	0	29	0	1973420032	40	6060
2026-01-15 05:29:18.45	302.83	9.29	-33.7	-34.5	24.3	0.00e+00	0	29	0	1979711488	40	6063
2026-01-15 05:29:19.46	303.00	9.28	-33.8	-34.5	24.1	0.00e+00	0	29	0	1984954368	40	6103
2026-01-15 05:29:20.46	303.17	9.26	-33.9	-34.7	24.1	0.00e+00	0	30	0	1991245824	40	6179
2026-01-15 05:29:21.48	303.34	9.24	-34.0	-34.6	23.9	0.00e+00	0	29	0	1996488704	40	6159
2026-01-15 05:29:22.48	303.51	9.22	-34.0	-34.7	24.1	0.00e+00	0	29	0	2001731584	40	6199
2026-01-15 05:29:23.49	303.69	9.20	-34.1	-34.8	24.0	0.00e+00	0	29	0	2008023040	40	6297
2026-01-15 05:29:24.50	303.86	9.19	-33.9	-34.5	24.2	0.00e+00	0	29	0	2013265920	40	6066
2026-01-15 05:29:25.51	304.03	9.17	-34.0	-34.8	24.1	0.00e+00	0	29	0	2019557376	40	6284
2026-01-15 05:29:26.52	304.20	9.15	-33.9	-34.6	24.1	0.00e+00	0	29	0	2024800256	40	6132
2026-01-15 05:29:27.53	304.37	9.13	-33.9	-34.7	24.2	0.00e+00	0	29	0	2030043136	40	6192
2026-01-15 05:29:28.54	304.54	9.11	-33.9	-34.6	24.2	0.00e+00	0	29	0	2036334592	40	6126
2026-01-15 05:29:29.55	304.71	9.09	-34.1	-34.8	24.0	0.00e+00	0	30	0	2041577472	40	6246
2026-01-15 05:29:30.56	304.88	9.07	-34.0	-34.8	24.0	0.00e+00	0	29	0	2047868928	40	6273
2026-01-15 05:29:31.57	305.05	9.05	-34.1	-34.8	24.0	0.00e+00	0	30	0	2053111808	40	6268
2026-01-15 05:29:32.58	305.22	9.03	-34.1	-34.9	24.0	0.00e+00	0	29	0	2058354688	40	6332
2026-01-15 05:29:33.58	305.39	9.01	-34.1	-34.8	24.0	0.00e+00	0	29	0	2064646144	40	6289
2026-01-15 05:29:34.59	305.56	8.99	-34.1	-34.7	24.0	0.00e+00	0	29	0	2069889024	40	6243
2026-01-15 05:29:35.60	305.73	8.97	-34.0	-34.7	24.1	0.00e+00	0	29	0	2076180480	40	6239
2026-01-15 05:29:36.61	305.90	8.95	-34.1	-34.7	24.0	0.00e+00	0	29	0	2081423360	40	6226
2026-01-15 05:29:37.62	306.07	8.92	-34.1	-34.8	24.0	0.00e+00	0	29	0	2087714816	40	6317
2026-01-15 05:29:38.63	306.24	8.90	-34.1	-34.8	23.9	0.00e+00	0	29	0	2092957696	40	6257
2026-01-15 05:29:39.64	306.40	8.88	-34.2	-34.8	24.0	0.00e+00	0	29	0	2098200576	40	6274
2026-01-15 05:29:40.65	306.57	8.86	-34.0	-34.6	24.0	0.00e+00	0	29	0	2104492032	40	6146
2026-01-15 05:29:41.66	306.74	8.84	-34.1	-34.8	23.9	0.00e+00	0	29	0	2109734912	40	6255
2026-01-15 05:29:42.67	306.91	8.81	-34.1	-34.9	23.9	0.00e+00	0	29	0	2116026368	40	6373
2026-01-15 05:29:43.68	307.07	8.79	-34.1	-34.9	24.0	0.00e+00	0	29	0	2121269248	40	6330
2026-01-15 05:29:44.69	307.24	8.77	-34.0	-34.7	24.0	0.00e+00	0	29	0	2126512128	40	6224
2026-01-15 05:29:45.70	307.41	8.75	-34.0	-34.8	24.0	0.00e+00	0	29	0	2132803584	40	6293
2026-01-15 05:29:46.71	307.57	8.72	-34.1	-34.9	24.0	0.00e+00	0	29	0	2138046464	40	6336
2026-01-15 05:29:47.72	307.74	8.70	-34.0	-34.7	24.0	0.00e+00	0	29	0	2144337920	40	6220
2026-01-15 05:29:48.72	307.90	8.68	-34.1	-34.8	23.9	0.00e+00	0	29	0	2149580800	40	6300
2026-01-15 05:29:49.74	308.07	8.65	-34.2	-35.0	23.8	0.00e+00	0	29	0	2154823680	40	6426
2026-01-15 05:29:50.74	308.23	8.63	-34.2	-35.0	23.8	0.00e+00	0	29	0	2161115136	40	6449
2026-01-15 05:29:51.75	308.40	8.61	-34.2	-34.9	23.8	0.00e+00	0	29	0	2166358016	40	6386
2026-01-15 05:29:52.76	308.56	8.58	-34.2	-35.0	23.8	0.00e+00	0	29	0	2172649472	40	6391
2026-01-15 05:29:53.77	308.73	8.56	-34.2	-34.9	23.9	0.00e+00	0	29	0	2177892352	40	6376
2026-01-15 05:29:54.78	308.89	8.53	-34.3	-35.1	23.7	0.00e+00	0	29	0	2184183808	40	6469
2026-01-15 05:29:55.79	309.06	8.51	-34.2	-34.9	23.8	0.00e+00	0	29	0	2189426688	40	6369
2026-01-15 05:29:56.80	309.22	8.48	-34.3	-35.0	23.7	0.00e+00	0	29	0	2194669568	40	6462
2026-01-15 05:29:57.81	309.38	8.46	-34.4	-35.1	23.7	0.00e+00	0	29	0	2200961024	40	6519
2026-01-15 05:29:58.82	309.55	8.43	-34.3	-35.1	23.7	0.00e+00	0	29	0	2206203904	40	6518
2026-01-15 05:29:59.83	309.71	8.41	-34.3	-35.1	23.8	0.00e+00	0	29	0	2212495360	40	6470
2026-01-15 05:30:00.84	309.87	8.38	-34.3	-35.1	23.7	0.00e+00	0	29	0	2217738240	40	6510
2026-01-15 05:30:01.85	310.04	8.36	-34.4	-35.1	23.6	0.00e+00	0	29	0	2222981120	40	6509
2026-01-15 05:30:02.86	310.20	8.33	-34.5	-35.2	23.6	0.00e+00	0	29	0	2229272576	40	6605
2026-01-15 05:30:03.87	310.36	8.30	-34.3	-35.1	23.7	0.00e+00	0	29	0	2234515456	40	6512
2026-01-15 05:30:04.88	310.52	8.28	-34.4	-35.1	23.7	0.00e+00	0	29	0	2240806912	40	6468
2026-01-15 05:30:05.89	310.68	8.25	-34.3	-35.0	23.7	0.00e+00	0	29	0	2246049792	40	6438
2026-01-15 05:30:06.89	310.84	8.23	-34.3	-35.0	23.7	0.00e+00	0	29	0	2251292672	40	6414
2026-01-15 05:30:07.90	311.00	8.20	-34.4	-35.1	23.6	0.00e+00	0	29	0	2257584128	40	6524
2026-01-15 05:30:08.91	311.16	8.17	-34.3	-35.0	23.7	0.00e+00	0	29	0	2262827008	40	6457
2026-01-15 05:30:09.92	311.32	8.14	-34.4	-35.2	23.5	0.00e+00	0	29	0	2269118464	40	6585
2026-01-15 05:30:10.93	311.48	8.12	-34.5	-35.2	23.6	0.00e+00	0	29	0	2274361344	40	6543
2026-01-15 05:30:11.94	311.64	8.09	-34.3	-35.0	23.6	0.00e+00	0	29	0	2280652800	40	6444
2026-01-15 05:30:12.95	311.80	8.06	-34.2	-34.9	23.8	0.00e+00	0	30	0	2285895680	40	6369
2026-01-15 05:30:13.96	311.96	8.04	-34.3	-35.0	23.7	0.00e+00	0	29	0	2292187136	40	6413
2026-01-15 05:30:14.97	312.12	8.01	-34.4	-35.2	23.7	0.00e+00	0	29	0	2297430016	40	6540
2026-01-15 05:30:15.98	312.28	7.98	-34.2	-34.9	23.7	0.00e+00	0	29	0	2302672896	40	6383
2026-01-15 05:30:16.99	312.44	7.95	-34.4	-35.1	23.6	0.00e+00	0	29	0	2308964352	40	6524
2026-01-15 05:30:18.00	312.59	7.92	-34.3	-35.1	23.6	0.00e+00	0	29	0	2314207232	40	6478
2026-01-15 05:30:19.00	312.75	7.89	-34.2	-35.0	23.7	0.00e+00	0	29	0	2320498688	40	6409
2026-01-15 05:30:20.01	312.91	7.87	-34.3	-34.9	23.7	0.00e+00	0	29	0	2325741568	40	6376
2026-01-15 05:30:21.02	313.06	7.84	-34.3	-35.1	23.6	0.00e+00	0	29	0	2330984448	40	6468
2026-01-15 05:30:22.03	313.22	7.81	-34.3	-35.0	23.7	0.00e+00	0	29	0	2337275904	40	6448
2026-01-15 05:30:23.04	313.38	7.78	-34.3	-35.1	23.6	0.00e+00	0	29	0	2342518784	40	6500
2026-01-15 05:30:24.05	313.53	7.75	-34.5	-35.2	23.5	0.00e+00	0	29	0	2348810240	40	6608
2026-01-15 05:30:25.06	313.69	7.72	-34.4	-35.1	23.6	0.00e+00	0	29	0	2354053120	40	6527
2026-01-15 05:30:26.07	313.84	7.69	-34.4	-35.2	23.5	0.00e+00	0	29	0	2359296000	40	6576
2026-01-15 05:30:27.08	314.00	7.66	-34.4	-35.1	23.5	0.00e+00	0	29	0	2365587456	40	6481
2026-01-15 05:30:28.09	314.15	7.63	-34.3	-35.1	23.6	0.00e+00	0	29	0	2370830336	40	6533
2026-01-15 05:30:29.10	314.31	7.60	-34.5	-35.2	23.4	0.00e+00	0	29	0	2377121792	40	6591
2026-01-15 05:30:30.11	314.46	7.57	-34.5	-35.3	23.4	0.00e+00	0	29	0	2382364672	40	6635
2026-01-15 05:30:31.12	314.62	7.54	-34.8	-35.5	23.3	0.00e+00	0	29	0	2388656128	40	6781
2026-01-15 05:30:32.13	314.77	7.51	-34.8	-35.5	23.0	0.00e+00	0	29	0	2393899008	42	6084
2026-01-15 05:30:33.14	314.92	7.48	-35.0	-35.8	23.2	0.00e+00	0	29	0	2399141888	42	6250
2026-01-15 05:30:34.15	315.07	7.45	-34.8	-35.6	23.1	0.00e+00	0	29	0	2405433344	42	6139
2026-01-15 05:30:35.16	315.23	7.42	-34.7	-35.6	23.2	0.00e+00	0	29	0	2410676224	42	6119
2026-01-15 05:30:36.17	315.38	7.39	-34.8	-35.5	23.2	0.00e+00	0	29	0	2416967680	42	6086
2026-01-15 05:30:37.18	315.53	7.36	-34.6	-35.4	23.3	0.00e+00	0	29	0	2422210560	42	6007
2026-01-15 05:30:38.19	315.68	7.33	-34.6	-35.4	23.3	0.00e+00	0	29	0	2427453440	42	5991
2026-01-15 05:30:39.20	315.83	7.30	-34.6	-35.3	23.3	0.00e+00	0	29	0	2433744896	42	5963
2026-01-15 05:30:40.21	315.99	7.26	-34.4	-35.1	23.5	0.00e+00	0	29	0	2438987776	42	5828
2026-01-15 05:30:41.22	316.14	7.23	-34.3	-35.1	23.5	0.00e+00	0	29	0	2445279232	42	5784
2026-01-15 05:30:42.23	316.29	7.20	-34.4	-35.0	23.6	0.00e+00	0	29	0	2450522112	42	5748
2026-01-15 05:30:43.24	316.44	7.17	-34.4	-35.0	23.5	0.00e+00	0	29	0	2455764992	42	5750
2026-01-15 05:30:44.25	316.59	7.14	-34.3	-35.0	23.6	0.00e+00	0	29	0	2462056448	42	5731
2026-01-15 05:30:45.26	316.74	7.11	-34.5	-35.2	23.5	0.00e+00	0	29	0	2467299328	42	5865
2026-01-15 05:30:46.27	316.88	7.07	-34.5	-35.2	23.4	0.00e+00	0	29	0	2473590784	42	5864
2026-01-15 05:30:47.28	317.03	7.04	-34.7	-35.4	23.2	0.00e+00	0	29	0	2478833664	42	6025
2026-01-15 05:30:48.29	317.18	7.01	-34.7	-35.4	23.2	0.00e+00	0	29	0	2484076544	42	5984
2026-01-15 05:30:49.30	317.33	6.98	-34.8	-35.6	23.1	0.00e+00	0	29	0	2490368000	42	6137
2026-01-15 05:30:50.31	317.48	6.94	-35.1	-35.9	22.8	0.00e+00	0	29	0	2495610880	42	6331
2026-01-15 05:30:51.32	317.63	6.91	-35.3	-36.1	22.7	0.00e+00	0	29	0	2501902336	42	6482
2026-01-15 05:30:52.32	317.77	6.88	-35.2	-35.9	22.8	0.00e+00	0	29	0	2507145216	42	6329
2026-01-15 05:30:53.34	317.92	6.85	-35.0	-35.8	22.9	0.00e+00	0	29	0	2513436672	42	6304
2026-01-15 05:30:54.34	318.06	6.81	-34.9	-35.6	23.0	0.00e+00	0	29	0	2518679552	42	6146
2026-01-15 05:30:55.35	318.21	6.78	-35.0	-35.8	23.0	0.00e+00	0	29	0	2524971008	42	6279
2026-01-15 05:30:56.36	318.36	6.75	-35.1	-35.8	22.8	0.00e+00	0	29	0	2530213888	42	6251
2026-01-15 05:30:57.37	318.50	6.71	-35.0	-35.8	22.9	0.00e+00	0	29	0	2535456768	42	6313
2026-01-15 05:30:58.38	318.65	6.68	-34.8	-35.5	23.1	0.00e+00	0	29	0	2541748224	42	6075
2026-01-15 05:30:59.39	318.79	6.65	-34.8	-35.6	23.1	0.00e+00	0	29	0	2546991104	42	6112
2026-01-15 05:31:00.40	318.94	6.61	-34.8	-35.5	23.1	0.00e+00	0	29	0	2552233984	42	6080
2026-01-15 05:31:01.41	319.08	6.58	-34.9	-35.6	22.9	0.00e+00	0	29	0	2558525440	42	6161
2026-01-15 05:31:02.42	319.23	6.54	-35.0	-35.7	22.8	0.00e+00	0	29	0	2563768320	42	6239
2026-01-15 05:31:03.43	319.37	6.51	-34.8	-35.5	23.0	0.00e+00	0	29	0	2570059776	42	6100
2026-01-15 05:31:04.43	319.51	6.48	-34.9	-35.6	23.1	0.00e+00	0	29	0	2575302656	42	6117
2026-01-15 05:31:05.44	319.65	6.44	-34.9	-35.6	22.9	0.00e+00	0	29	0	2580545536	42	6143
2026-01-15 05:31:06.45	319.80	6.41	-34.8	-35.5	23.0	0.00e+00	0	29	0	2586836992	42	6089
2026-01-15 05:31:07.46	319.94	6.37	-34.8	-35.6	23.1	0.00e+00	0	29	0	2592079872	42	6128
2026-01-15 05:31:08.47	320.08	6.34	-34.8	-35.6	23.0	0.00e+00	0	29	0	2598371328	42	6138
2026-01-15 05:31:09.48	320.22	6.30	-34.9	-35.8	22.9	0.00e+00	0	29	0	2603614208	42	6260
2026-01-15 05:31:10.49	320.36	6.27	-34.9	-35.6	23.0	0.00e+00	0	29	0	2609905664	42	6159
2026-01-15 05:31:11.50	320.50	6.23	-34.9	-35.7	22.9	0.00e+00	0	29	0	2615148544	42	6194
2026-01-15 05:31:12.51	320.65	6.20	-34.9	-35.7	22.9	0.00e+00	0	29	0	2621440000	42	6241
2026-01-15 05:31:13.52	320.79	6.16	-34.9	-35.7	22.9	0.00e+00	0	29	0	2626682880	42	6239
2026-01-15 05:31:14.53	320.93	6.13	-34.8	-35.6	23.0	0.00e+00	0	29	0	2631925760	42	6139
2026-01-15 05:31:15.54	321.07	6.09	-34.8	-35.6	22.9	0.00e+00	0	29	0	2638217216	42	6143
2026-01-15 05:31:16.55	321.20	6.06	-34.7	-35.5	23.1	0.00e+00	0	29	0	2643460096	42	6069
2026-01-15 05:31:17.56	321.34	6.02	-35.0	-35.7	22.9	0.00e+00	0	29	0	2649751552	42	6211
2026-01-15 05:31:18.57	321.48	5.99	-34.9	-35.7	22.8	0.00e+00	0	29	0	2654994432	42	6199
2026-01-15 05:31:19.58	321.62	5.95	-35.0	-35.8	22.7	0.00e+00	0	29	0	2660237312	42	6255
2026-01-15 05:31:20.58	321.76	5.92	-35.2	-36.1	22.6	0.00e+00	0	29	0	2666528768	42	6489
2026-01-15 05:31:21.59	321.90	5.88	-35.2	-35.9	22.7	0.00e+00	0	29	0	2671771648	42	6378
2026-01-15 05:31:22.61	322.03	5.85	-35.1	-35.9	22.8	0.00e+00	0	30	0	2678063104	42	6320
2026-01-15 05:31:23.61	322.17	5.81	-35.2	-36.0	22.5	0.00e+00	0	29	0	2683305984	42	6446
2026-01-15 05:31:24.62	322.31	5.77	-35.2	-36.0	22.7	0.00e+00	0	29	0	2688548864	42	6420
2026-01-15 05:31:25.63	322.44	5.74	-35.3	-36.0	22.6	0.00e+00	0	29	0	2694840320	42	6440
2026-01-15 05:31:26.64	322.58	5.70	-35.3	-36.1	22.4	0.00e+00	0	29	0	2700083200	42	6512
2026-01-15 05:31:27.64	322.71	5.67	-35.3	-36.0	22.5	0.00e+00	0	29	0	2706374656	42	6442
2026-01-15 05:31:28.65	322.85	5.63	-35.3	-36.2	22.4	0.00e+00	0	29	0	2711617536	42	6563
2026-01-15 05:31:29.66	322.98	5.59	-35.5	-36.3	22.3	0.00e+00	0	29	0	2717908992	42	6685
2026-01-15 05:31:30.67	323.12	5.56	-35.4	-36.2	22.3	0.00e+00	0	29	0	2723151872	42	6603
2026-01-15 05:31:31.68	323.25	5.52	-35.5	-36.3	22.2	0.00e+00	0	29	0	2728394752	42	6666
2026-01-15 05:31:32.69	323.39	5.48	-35.4	-36.2	22.3	0.00e+00	0	30	0	2734686208	42	6579
2026-01-15 05:31:33.70	323.52	5.45	-35.4	-36.2	22.3	0.00e+00	0	30	0	2739929088	42	6589
2026-01-15 05:31:34.71	323.66	5.41	-35.6	-36.3	22.1	0.00e+00	0	30	0	2746220544	42	6657
2026-01-15 05:31:35.72	323.79	5.37	-35.6	-36.4	22.1	0.00e+00	0	30	0	2751463424	42	6741
2026-01-15 05:31:36.72	323.92	5.34	-35.3	-36.0	22.3	0.00e+00	0	29	0	2756706304	42	6435
2026-01-15 05:31:37.73	324.05	5.30	-35.4	-36.2	22.3	0.00e+00	0	29	0	2762997760	42	6568
2026-01-15 05:31:38.74	324.19	5.26	-35.3	-36.0	22.4	0.00e+00	0	29	0	2768240640	42	6419
2026-01-15 05:31:39.75	324.32	5.23	-35.4	-36.2	22.3	0.00e+00	0	30	0	2774532096	42	6566
2026-01-15 05:31:40.76	324.45	5.19	-35.3	-36.1	22.3	0.00e+00	0	29	0	2779774976	42	6538
2026-01-15 05:31:41.77	324.58	5.15	-35.5	-36.3	22.2	0.00e+00	0	29	0	2785017856	42	6643
2026-01-15 05:31:42.78	324.71	5.11	-35.4	-36.2	22.3	0.00e+00	0	29	0	2791309312	42	6606
2026-01-15 05:31:43.79	324.84	5.08	-35.6	-36.4	22.0	0.00e+00	0	29	0	2796552192	42	6750
2026-01-15 05:31:44.80	324.97	5.04	-35.6	-36.4	22.0	0.00e+00	0	29	0	2802843648	42	6768
2026-01-15 05:31:45.81	325.10	5.00	-35.5	-36.4	22.1	0.00e+00	0	29	0	2808086528	42	6730
2026-01-15 05:31:46.82	325.23	4.96	-35.5	-36.4	22.1	0.00e+00	0	29	0	2814377984	42	6711
2026-01-15 05:31:47.83	325.36	4.93	-35.4	-36.2	22.2	0.00e+00	0	29	0	2819620864	42	6575
2026-01-15 05:31:48.84	325.49	4.89	-35.4	-36.2	22.1	0.00e+00	0	29	0	2824863744	42	6559
2026-01-15 05:31:49.85	325.62	4.85	-35.5	-36.3	22.1	0.00e+00	0	29	0	2831155200	42	6673
2026-01-15 05:31:50.85	325.75	4.81	-35.5	-36.3	22.2	0.00e+00	0	29	0	2836398080	42	6680
2026-01-15 05:31:51.86	325.87	4.77	-35.6	-36.5	22.0	0.00e+00	0	29	0	2842689536	42	6783
2026-01-15 05:31:52.87	326.00	4.74	-35.6	-36.4	22.0	0.00e+00	0	29	0	2847932416	42	6735
2026-01-15 05:31:53.88	326.13	4.70	-35.7	-36.5	21.9	0.00e+00	0	29	0	2853175296	42	6779
2026-01-15 05:31:54.89	326.26	4.66	-35.5	-36.3	22.0	0.00e+00	0	29	0	2859466752	44	5902
2026-01-15 05:31:55.90	326.38	4.62	-35.4	-36.1	22.1	0.00e+00	0	29	0	2864709632	44	5819
2026-01-15 05:31:56.91	326.51	4.58	-35.6	-36.5	21.7	0.00e+00	0	29	0	2871001088	44	6065
2026-01-15 05:31:57.92	326.64	4.55	-35.5	-36.3	22.0	0.00e+00	0	29	0	2876243968	44	5916
2026-01-15 05:31:58.93	326.76	4.51	-35.4	-36.3	22.0	0.00e+00	0	29	0	2881486848	44	5906
2026-01-15 05:31:59.94	326.89	4.47	-35.6	-36.4	21.9	0.00e+00	0	29	0	2887778304	44	5988
2026-01-15 05:32:00.95	327.01	4.43	-35.6	-36.3	21.9	0.00e+00	0	29	0	2893021184	44	5919
2026-01-15 05:32:01.96	327.14	4.39	-35.3	-36.0	22.0	0.00e+00	0	29	0	2899312640	44	5736
2026-01-15 05:32:02.97	327.26	4.35	-35.4	-36.3	22.0	0.00e+00	0	29	0	2904555520	44	5940
2026-01-15 05:32:03.98	327.39	4.31	-35.5	-36.3	21.8	0.00e+00	0	29	0	2910846976	44	5903
2026-01-15 05:32:04.99	327.51	4.28	-35.8	-36.6	21.6	0.00e+00	0	29	0	2916089856	44	6171
2026-01-15 05:32:06.00	327.63	4.24	-36.1	-37.0	21.5	0.00e+00	0	29	0	2921332736	44	6422
2026-01-15 05:32:07.01	327.76	4.20	-36.0	-36.9	21.3	0.00e+00	0	29	0	2927624192	44	6325
2026-01-15 05:32:08.01	327.88	4.16	-36.1	-37.0	21.3	0.00e+00	0	29	0	2932867072	44	6425
2026-01-15 05:32:09.02	328.00	4.12	-36.2	-37.1	21.1	0.00e+00	0	29	0	2939158528	44	6490
2026-01-15 05:32:10.03	328.12	4.08	-36.2	-37.1	21.1	0.00e+00	0	29	0	2944401408	44	6493
2026-01-15 05:32:11.04	328.25	4.04	-36.1	-37.0	21.2	0.00e+00	0	29	0	2949644288	44	6410
2026-01-15 05:32:12.05	328.37	4.00	-36.0	-36.8	21.3	0.00e+00	0	29	0	2955935744	44	6316
2026-01-15 05:32:13.06	328.49	3.96	-35.7	-36.6	21.5	0.00e+00	0	29	0	2961178624	44	6120
2026-01-15 05:32:14.07	328.61	3.93	-35.9	-36.7	21.3	0.00e+00	0	29	0	2967470080	44	6236
2026-01-15 05:32:15.08	328.73	3.89	-35.7	-36.6	21.4	0.00e+00	0	29	0	2972712960	44	6139
2026-01-15 05:32:16.09	328.85	3.85	-35.7	-36.5	21.5	0.00e+00	0	29	0	2977955840	44	6084
2026-01-15 05:32:17.10	328.97	3.81	-35.6	-36.4	21.6	0.00e+00	0	29	0	2984247296	44	5995
2026-01-15 05:32:18.11	329.09	3.77	-35.7	-36.5	21.4	0.00e+00	0	29	0	2989490176	44	6095
2026-01-15 05:32:19.12	329.21	3.73	-35.5	-36.3	21.7	0.00e+00	0	29	0	2995781632	44	5931
2026-01-15 05:32:20.13	329.33	3.69	-35.6	-36.4	21.5	0.00e+00	0	29	0	3001024512	44	6019
2026-01-15 05:32:21.14	329.45	3.65	-35.7	-36.5	21.4	0.00e+00	0	29	0	3007315968	44	6041
2026-01-15 05:32:22.15	329.57	3.61	-36.0	-36.9	20.9	0.00e+00	0	29	0	3012558848	44	6319
2026-01-15 05:32:23.16	329.69	3.57	-36.3	-37.2	20.6	0.00e+00	0	30	0	3018850304	44	6551
2026-01-15 05:32:24.17	329.81	3.53	-36.6	-37.5	20.1	0.00e+00	0	29	0	3024093184	44	6795
2026-01-15 05:32:25.18	329.92	3.49	-36.8	-37.7	19.8	0.00e+00	0	29	0	3029336064	46	6225
2026-01-15 05:32:26.19	330.04	3.45	-36.7	-37.7	19.9	0.00e+00	0	29	0	3035627520	46	6239
2026-01-15 05:32:27.20	330.16	3.41	-37.0	-38.1	19.4	0.00e+00	0	29	0	3040870400	46	6491
2026-01-15 05:32:28.21	330.27	3.37	-37.1	-38.2	19.2	0.00e+00	0	29	0	3047161856	46	6563
2026-01-15 05:32:29.22	330.39	3.33	-37.6	-38.6	18.6	0.00e+00	0	29	0	3052404736	46	6925
2026-01-15 05:32:30.23	330.51	3.29	-37.8	-38.9	18.2	0.00e+00	0	29	0	3057647616	48	6355
2026-01-15 05:32:31.24	330.62	3.25	-38.5	-39.8	17.1	0.00e+00	0	29	0	3063939072	48	7072
2026-01-15 05:32:32.25	330.74	3.21	-38.7	-40.0	16.7	0.00e+00	0	29	0	3069181952	48	7181
2026-01-15 05:32:33.26	330.85	3.17	-39.1	-40.5	16.1	0.00e+00	0	29	0	3075473408	50	6830
2026-01-15 05:32:34.27	330.97	3.13	-39.4	-41.0	15.2	0.00e+00	0	29	0	3080716288	50	7196
2026-01-15 05:32:35.28	331.08	3.09	-40.1	-41.9	14.2	0.00e+00	0	29	0	3085959168	52	7161
2026-01-15 05:32:36.29	331.20	3.05	-40.3	-42.3	13.6	4.50e-06	0	29	0	3092250624	52	7484
2026-01-15 05:32:37.30	331.31	3.01	-41.3	-43.7	11.9	2.57e-04	0	29	0	3097493504	54	7847
2026-01-15 05:32:38.31	331.43	2.97	-47.6	-59.7	3.6	8.46e-01	0	29	104	3099590656	60	35017
2026-01-15 05:32:39.32	331.54	2.93	-48.1	-60.1	3.6	8.45e-01	0	29	104	3099590656	60	36621
2026-01-15 05:32:40.33	331.65	2.89	-48.3	-60.4	3.6	8.45e-01	0	29	104	3099590656	60	37873
2026-01-15 05:32:41.33	331.77	2.85	-48.5	-60.6	3.6	8.46e-01	0	29	104	3099590656	60	38560
2026-01-15 05:32:42.34	331.88	2.81	-48.6	-60.7	3.6	8.45e-01	0	29	104	3099590656	60	39267
2026-01-15 05:32:43.35	331.99	2.77	-48.7	-60.8	3.6	8.45e-01	0	30	104	3099590656	60	39528
2026-01-15 05:32:44.36	332.10	2.73	-48.7	-60.8	3.6	8.45e-01	0	30	104	3099590656	60	39669
2026-01-15 05:32:45.38	332.22	2.69	-48.7	-60.9	3.6	8.46e-01	0	30	104	3099590656	60	40004
2026-01-15 05:32:46.39	332.33	2.65	-48.8	-60.9	3.6	8.46e-01	0	29	104	3099590656	60	40152
2026-01-15 05:32:47.40	332.44	2.61	-48.7	-61.0	3.6	8.46e-01	0	30	104	3099590656	60	40549
2026-01-15 05:32:48.40	332.55	2.57	-48.3	-60.8	3.6	8.46e-01	0	29	104	3099590656	60	39601
2026-01-15 05:32:49.41	332.66	2.53	-49.0	-61.2	3.6	8.45e-01	0	29	104	3099590656	60	41345
2026-01-15 05:32:50.42	332.77	2.49	-48.7	-60.8	3.6	8.46e-01	0	30	104	3099590656	60	39707
2026-01-15 05:32:51.43	332.88	2.45	-48.7	-60.8	3.6	8.46e-01	0	29	104	3099590656	60	39709
2026-01-15 05:32:52.44	332.99	2.41	-48.7	-60.7	3.6	8.45e-01	0	29	104	3099590656	60	39222
2026-01-15 05:32:53.45	333.10	2.37	-48.7	-60.8	3.6	8.46e-01	0	30	104	3099590656	60	39754
2026-01-15 05:32:54.46	333.21	2.33	-48.9	-61.0	3.6	8.46e-01	0	30	104	3099590656	60	40380
2026-01-15 05:32:55.47	333.32	2.29	-48.8	-60.9	3.6	8.46e-01	0	30	104	3099590656	60	40275
2026-01-15 05:32:56.48	333.43	2.25	-48.8	-60.9	3.6	8.45e-01	0	29	104	3099590656	60	40185
2026-01-15 05:32:57.49	333.53	2.21	-48.8	-60.9	3.6	8.46e-01	0	30	104	3099590656	60	40055
2026-01-15 05:32:58.50	333.64	2.17	-48.8	-60.9	3.6	8.46e-01	0	29	104	3099590656	60	39941
2026-01-15 05:32:59.51	333.75	2.13	-48.8	-60.9	3.6	8.45e-01	0	30	104	3099590656	60	40250
2026-01-15 05:33:00.52	333.86	2.09	-48.8	-60.8	3.6	8.45e-01	0	30	104	3099590656	60	39735
2026-01-15 05:33:01.53	333.96	2.05	-48.8	-60.8	3.6	8.45e-01	0	30	104	3099590656	60	39751
2026-01-15 05:33:02.54	334.07	2.01	-48.7	-60.9	3.6	8.45e-01	0	30	104	3099590656	60	39898
2026-01-15 05:33:03.55	334.18	1.97	-48.8	-60.8	3.6	8.44e-01	0	30	104	3099590656	60	39725
2026-01-15 05:33:04.56	334.28	1.92	-48.7	-60.9	3.6	8.45e-01	0	30	104	3099590656	60	39985
2026-01-15 05:33:05.57	334.39	1.88	-48.7	-60.9	3.6	8.46e-01	0	30	104	3099590656	60	39891
2026-01-15 05:33:06.57	334.50	1.84	-48.7	-60.8	3.6	8.45e-01	0	30	104	3099590656	60	39710
2026-01-15 05:33:07.58	334.60	1.80	-48.7	-60.8	3.6	8.45e-01	0	30	104	3099590656	60	39788
2026-01-15 05:33:08.59	334.71	1.76	-48.7	-60.8	3.6	8.45e-01	0	30	104	3099590656	60	39539
2026-01-15 05:33:09.60	334.81	1.72	-48.7	-60.8	3.6	8.45e-01	0	30	104	3099590656	60	39663
2026-01-15 05:33:10.61	334.92	1.68	-48.7	-60.8	3.6	8.45e-01	0	30	104	3099590656	60	39633
2026-01-15 05:33:11.62	335.02	1.64	-48.7	-60.8	3.5	8.45e-01	0	30	104	3099590656	60	39782
2026-01-15 05:33:12.63	335.12	1.60	-48.7	-60.8	3.6	8.45e-01	0	30	104	3099590656	60	39719
2026-01-15 05:33:13.64	335.23	1.56	-48.7	-60.8	3.6	8.46e-01	0	30	104	3099590656	60	39758
2026-01-15 05:33:14.65	335.33	1.52	-48.7	-60.8	3.6	8.44e-01	0	30	104	3099590656	60	39463
2026-01-15 05:33:15.66	335.44	1.48	-48.7	-60.8	3.6	8.44e-01	0	30	104	3099590656	60	39694
2026-01-15 05:33:16.67	335.54	1.44	-48.7	-60.8	3.6	8.45e-01	0	30	104	3099590656	60	39464
2026-01-15 05:33:17.68	335.64	1.39	-48.7	-60.8	3.6	8.45e-01	0	30	104	3099590656	60	39644
2026-01-15 05:33:18.69	335.74	1.35	-48.7	-60.8	3.6	8.46e-01	0	30	104	3099590656	60	39663
2026-01-15 05:33:19.70	335.85	1.31	-48.7	-60.8	3.6	8.44e-01	0	30	104	3099590656	60	39717
2026-01-15 05:33:20.71	335.95	1.27	-48.7	-60.7	3.6	8.45e-01	0	30	104	3099590656	60	39254
2026-01-15 05:33:21.71	336.05	1.23	-48.7	-60.8	3.6	8.45e-01	0	30	104	3099590656	60	39415
2026-01-15 05:33:22.72	336.15	1.19	-48.7	-60.7	3.6	8.45e-01	0	30	104	3099590656	60	39373
2026-01-15 05:33:23.73	336.25	1.15	-48.7	-60.8	3.6	8.45e-01	0	30	104	3099590656	60	39472
2026-01-15 05:33:24.74	336.35	1.11	-48.7	-60.8	3.6	8.44e-01	0	30	104	3099590656	60	39718
2026-01-15 05:33:25.76	336.45	1.07	-48.7	-60.8	3.6	8.44e-01	0	30	104	3099590656	60	39510
2026-01-15 05:33:26.77	336.56	1.03	-48.7	-60.8	3.6	8.46e-01	0	30	104	3099590656	60	39467
2026-01-15 05:33:27.77	336.65	0.99	-48.7	-60.8	3.6	8.46e-01	0	30	104	3099590656	60	39492
2026-01-15 05:33:28.79	336.76	0.94	-48.7	-60.8	3.6	8.46e-01	0	30	104	3099590656	60	39496
2026-01-15 05:33:29.80	336.86	0.90	-48.7	-60.8	3.6	8.45e-01	0	30	104	3099590656	60	39600
2026-01-15 05:33:30.81	336.95	0.86	-48.7	-60.8	3.6	8.45e-01	0	30	104	3099590656	60	39656
2026-01-15 05:33:31.81	337.05	0.82	-48.7	-60.8	3.6	8.46e-01	0	30	104	3099590656	60	39545
2026-01-15 05:33:32.83	337.15	0.78	-48.7	-60.8	3.6	8.44e-01	0	30	104	3099590656	60	39540
2026-01-15 05:33:33.84	337.25	0.74	-48.7	-60.8	3.6	8.46e-01	0	30	104	3099590656	60	39484
2026-01-15 05:33:34.84	337.35	0.70	-48.7	-60.7	3.6	8.46e-01	0	30	104	3099590656	60	39397
2026-01-15 05:33:35.85	337.45	0.66	-48.7	-60.8	3.6	8.45e-01	0	30	104	3099590656	60	39483
2026-01-15 05:33:36.86	337.54	0.62	-48.7	-60.7	3.6	8.45e-01	0	30	104	3099590656	60	39391
2026-01-15 05:33:37.87	337.64	0.58	-48.7	-60.8	3.6	8.45e-01	0	30	104	3099590656	60	39650
2026-01-15 05:33:38.88	337.74	0.53	-48.7	-60.8	3.6	8.46e-01	0	30	104	3099590656	60	39595
2026-01-15 05:33:39.89	337.84	0.49	-48.7	-60.7	3.6	8.45e-01	0	30	104	3099590656	60	39341
2026-01-15 05:33:40.90	337.93	0.45	-48.7	-60.8	3.6	8.45e-01	0	30	104	3099590656	60	39687
2026-01-15 05:33:41.91	338.03	0.41	-48.7	-60.7	3.6	8.45e-01	0	30	104	3099590656	60	39394
2026-01-15 05:33:42.92	338.13	0.37	-48.7	-60.8	3.6	8.44e-01	0	30	104	3099590656	60	39484
2026-01-15 05:33:43.93	338.22	0.33	-48.7	-60.8	3.6	8.45e-01	0	30	104	3099590656	60	39465
2026-01-15 05:33:44.93	338.32	0.29	-48.7	-60.8	3.6	8.46e-01	0	30	104	3099590656	60	39557
2026-01-15 05:33:45.94	338.41	0.25	-48.7	-60.8	3.6	8.46e-01	0	30	104	3099590656	60	39568
2026-01-15 05:33:46.95	338.51	0.21	-48.7	-60.8	3.6	8.44e-01	0	30	104	3099590656	60	39563
2026-01-15 05:33:47.96	338.60	0.16	-48.7	-60.8	3.6	8.45e-01	0	30	104	3099590656	60	39506
2026-01-15 05:33:48.97	338.70	0.12	-48.7	-60.7	3.6	8.44e-01	0	30	104	3099590656	60	39297
2026-01-15 05:33:49.98	338.79	0.08	-48.7	-60.7	3.6	8.46e-01	0	30	104	3099590656	60	39358
2026-01-15 05:33:50.99	338.89	0.04	-48.7	-60.8	3.6	8.45e-01	0	30	104	3099590656	60	39467
2026-01-15 05:33:52.00	338.98	0.00	-48.7	-60.8	3.6	8.45e-01	0	30	104	3099590656	60	39461

#Closed at: 2026-01-15 05:33:52
#Recorded file [3099 MB]: D:/lorett/data/35029_260115_172218.dat