passes_logs/2026/01/15/R4.6S_Anadyr/R4.6S_Anadyr__20260115_005846_SUOMI_NPP_rec.log

#Pass ID: 20260115_005846_SUOMI NPP
#Satellite: SUOMI NPP
#Configuration: NPP
#almurnet v.1.7.20251203
#Start time: 2026-01-15 00:58:49

#Version: 2.2.20231116
#Station: R4.6S_Anadyr
#Location: 177.4865 lon 64.73178 lat
#TLE: 1 37849U 11061A   26014.61059675  .00000037  00000+0  38639-4 0  9994
#TLE: 2 37849  98.7810 316.6625 0002460  64.3781 295.7649 14.19525105736658

#Time	Az	El	Level	Level2	SNR	BER	BlckErr	Temp	State	Recorded	gain1	gain2
2026-01-15 00:58:49.98	173.63	0.18	-49.0	-62.7	3.3	1.54e+00	0	28	0	0	60	49403
2026-01-15 00:58:50.98	173.66	0.24	-49.0	-64.2	3.6	1.51e+00	0	28	104	0	60	58643
2026-01-15 00:58:51.99	173.68	0.30	-49.0	-64.2	3.6	1.51e+00	0	28	104	0	60	58911
2026-01-15 00:58:53.00	173.70	0.36	-49.1	-64.2	3.6	1.51e+00	0	28	104	0	60	58949
2026-01-15 00:58:54.01	173.73	0.42	-49.0	-64.3	3.6	1.51e+00	0	28	104	0	60	58971
2026-01-15 00:58:55.02	173.75	0.48	-49.0	-64.3	3.6	1.51e+00	0	28	104	0	60	59024
2026-01-15 00:58:56.03	173.78	0.54	-49.0	-64.2	3.6	1.51e+00	0	28	104	0	60	58636
2026-01-15 00:58:57.04	173.80	0.60	-49.0	-64.2	3.6	1.51e+00	0	28	104	0	60	58675
2026-01-15 00:58:58.05	173.83	0.66	-49.0	-64.2	3.6	1.51e+00	0	28	104	0	60	58354
2026-01-15 00:58:59.06	173.85	0.72	-48.8	-64.1	3.6	1.51e+00	0	28	104	0	60	57661
2026-01-15 00:59:00.07	173.88	0.78	-48.8	-63.9	3.6	1.51e+00	0	28	104	0	60	56792
2026-01-15 00:59:01.08	173.90	0.85	-48.6	-63.8	3.6	1.51e+00	0	28	104	0	60	56011
2026-01-15 00:59:02.09	173.93	0.91	-48.4	-63.5	3.6	1.51e+00	0	28	104	0	60	54312
2026-01-15 00:59:03.10	173.96	0.97	-47.9	-63.1	3.6	1.51e+00	0	28	104	0	60	51486
2026-01-15 00:59:04.11	173.98	1.03	-47.5	-62.5	3.6	1.51e+00	0	28	104	0	60	48230
2026-01-15 00:59:05.12	174.01	1.09	-47.5	-62.5	3.6	1.51e+00	0	28	104	0	60	48183
2026-01-15 00:59:06.13	174.03	1.15	-47.5	-62.5	3.6	1.51e+00	0	28	104	0	60	47987
2026-01-15 00:59:07.14	174.06	1.22	-47.5	-62.4	3.6	1.51e+00	0	28	104	0	60	47521
2026-01-15 00:59:08.15	174.08	1.28	-47.5	-62.3	3.6	1.51e+00	0	28	104	0	60	47351
2026-01-15 00:59:09.16	174.11	1.34	-47.5	-62.2	3.6	1.51e+00	0	28	104	0	60	46394
2026-01-15 00:59:10.17	174.14	1.40	-47.4	-62.2	3.6	1.51e+00	0	28	104	0	60	46541
2026-01-15 00:59:11.18	174.16	1.47	-47.5	-62.0	3.6	1.51e+00	0	28	104	0	60	45539
2026-01-15 00:59:12.19	174.19	1.53	-47.5	-62.1	3.6	1.51e+00	0	28	104	0	60	45832
2026-01-15 00:59:13.19	174.21	1.59	-47.4	-62.1	3.6	1.51e+00	0	28	104	0	60	45911
2026-01-15 00:59:14.20	174.24	1.65	-47.4	-62.1	3.6	1.51e+00	0	28	104	0	60	46151
2026-01-15 00:59:15.21	174.27	1.72	-47.5	-62.2	3.5	1.51e+00	0	28	104	0	60	46803
2026-01-15 00:59:16.22	174.29	1.78	-47.5	-62.4	3.6	1.51e+00	0	28	104	0	60	47586
2026-01-15 00:59:17.23	174.32	1.84	-47.5	-62.5	3.6	1.51e+00	0	28	104	0	60	48002
2026-01-15 00:59:18.24	174.35	1.91	-47.5	-62.5	3.6	1.51e+00	0	28	104	0	60	48064
2026-01-15 00:59:19.25	174.38	1.97	-47.5	-62.5	3.6	1.51e+00	0	28	104	0	60	48330
2026-01-15 00:59:20.26	174.40	2.03	-47.5	-62.6	3.6	1.51e+00	0	28	104	0	60	48915
2026-01-15 00:59:21.27	174.43	2.10	-47.5	-62.6	3.6	1.51e+00	0	28	104	0	60	48642
2026-01-15 00:59:22.28	174.46	2.16	-47.5	-62.6	3.6	1.51e+00	0	28	104	0	60	48762
2026-01-15 00:59:23.29	174.48	2.22	-47.5	-62.6	3.6	1.51e+00	0	29	104	0	60	48670
2026-01-15 00:59:24.30	174.51	2.29	-47.5	-62.4	3.6	1.51e+00	0	28	104	0	60	47602
2026-01-15 00:59:25.31	174.54	2.35	-47.4	-62.1	3.6	1.51e+00	0	28	104	0	60	45858
2026-01-15 00:59:26.32	174.57	2.42	-47.4	-61.6	3.6	1.51e+00	0	28	104	0	60	43443
2026-01-15 00:59:27.33	174.59	2.48	-47.4	-61.3	3.6	1.51e+00	0	29	104	0	60	42006
2026-01-15 00:59:28.34	174.62	2.55	-47.4	-61.2	3.6	1.51e+00	0	29	104	0	60	41270
2026-01-15 00:59:29.35	174.65	2.61	-47.4	-61.5	3.6	1.51e+00	0	28	104	0	60	42997
2026-01-15 00:59:30.36	174.68	2.68	-47.4	-62.1	3.6	1.51e+00	0	28	104	0	60	46181
2026-01-15 00:59:31.37	174.71	2.74	-47.4	-62.3	3.6	1.51e+00	0	29	104	0	60	47170
2026-01-15 00:59:32.38	174.74	2.81	-47.4	-60.6	3.7	1.51e+00	0	29	104	0	60	38865
2026-01-15 00:59:33.38	174.76	2.87	-47.1	-56.3	5.0	8.84e-01	0	29	0	0	60	23646
2026-01-15 00:59:34.39	174.79	2.94	-46.5	-52.6	8.3	1.83e-01	0	29	0	2097152	60	15427
2026-01-15 00:59:35.40	174.82	3.01	-45.6	-50.1	11.3	1.39e-02	0	29	0	4194304	60	11533
2026-01-15 00:59:36.41	174.85	3.07	-44.6	-48.0	13.6	5.64e-05	0	29	0	6291456	60	9046
2026-01-15 00:59:37.42	174.88	3.14	-43.6	-46.2	15.4	7.00e-07	0	29	0	7340032	60	7356
2026-01-15 00:59:38.43	174.91	3.20	-42.5	-44.5	16.9	0.00e+00	0	29	0	9437184	58	6834
2026-01-15 00:59:39.44	174.94	3.27	-42.0	-43.9	17.7	0.00e+00	0	29	0	11534336	58	6371
2026-01-15 00:59:40.45	174.97	3.34	-41.4	-43.1	18.5	0.00e+00	0	29	0	13631488	56	6467
2026-01-15 00:59:41.46	175.00	3.40	-41.0	-42.6	18.9	0.00e+00	0	29	0	15728640	56	6113
2026-01-15 00:59:42.47	175.03	3.47	-40.5	-41.9	19.3	0.00e+00	0	28	0	16777216	54	6372
2026-01-15 00:59:43.48	175.06	3.54	-40.8	-42.4	18.9	0.00e+00	0	29	0	18874368	54	6707
2026-01-15 00:59:44.49	175.09	3.61	-41.5	-43.2	18.2	0.00e+00	0	29	0	20971520	54	7383
2026-01-15 00:59:45.50	175.11	3.67	-40.8	-42.3	19.0	0.00e+00	0	29	0	23068672	54	6665
2026-01-15 00:59:46.51	175.14	3.74	-41.1	-42.6	17.4	0.00e+00	0	29	0	25165824	56	6159
2026-01-15 00:59:47.52	175.18	3.81	-42.0	-43.7	18.6	3.00e-02	0	29	0	26214400	60	5514
2026-01-15 00:59:48.53	175.21	3.88	-45.6	-49.7	13.5	1.66e-03	0	28	0	28311552	60	11025
2026-01-15 00:59:49.54	175.24	3.94	-44.1	-46.8	13.6	4.27e-04	0	29	0	30408704	60	7923
2026-01-15 00:59:50.55	175.27	4.01	-46.1	-51.7	10.7	1.37e+00	0	29	104	31457280	60	13902
2026-01-15 00:59:51.56	175.30	4.08	-44.0	-46.8	14.8	7.00e-07	0	29	0	32505856	60	7946
2026-01-15 00:59:52.57	175.33	4.15	-43.6	-46.1	15.2	0.00e+00	0	29	0	33554432	60	7312
2026-01-15 00:59:53.58	175.36	4.22	-43.5	-46.1	15.8	0.00e+00	0	29	0	35651584	60	7256
2026-01-15 00:59:54.58	175.39	4.29	-43.8	-46.6	15.5	0.00e+00	0	29	0	37748736	60	7701
2026-01-15 00:59:55.59	175.42	4.36	-43.6	-46.1	15.7	0.00e+00	0	29	0	39845888	60	7268
2026-01-15 00:59:56.60	175.45	4.42	-43.3	-45.6	15.3	0.00e+00	0	29	0	41943040	60	6921
2026-01-15 00:59:57.61	175.48	4.49	-44.0	-46.8	15.4	0.00e+00	0	29	0	42991616	60	7884
2026-01-15 00:59:58.62	175.51	4.56	-43.8	-46.3	16.3	0.00e+00	0	29	0	45088768	60	7499
2026-01-15 00:59:59.63	175.55	4.63	-43.3	-45.6	16.2	0.00e+00	0	29	0	47185920	60	6877
2026-01-15 01:00:00.64	175.58	4.70	-43.2	-45.5	16.4	0.00e+00	0	29	0	49283072	60	6829
2026-01-15 01:00:01.65	175.61	4.77	-43.1	-45.2	16.2	0.00e+00	0	29	0	51380224	60	6601
2026-01-15 01:00:02.66	175.64	4.84	-43.1	-45.3	16.2	0.00e+00	0	29	0	52428800	60	6678
2026-01-15 01:00:03.66	175.67	4.91	-43.4	-45.7	16.2	0.00e+00	0	29	0	54525952	60	6973
2026-01-15 01:00:04.67	175.71	4.98	-43.1	-45.3	16.7	0.00e+00	0	29	0	56623104	60	6649
2026-01-15 01:00:05.68	175.74	5.06	-43.0	-45.2	16.8	0.00e+00	0	29	0	58720256	60	6549
2026-01-15 01:00:06.69	175.77	5.13	-42.2	-44.1	17.7	0.00e+00	0	29	0	60817408	58	6501
2026-01-15 01:00:07.70	175.81	5.20	-41.8	-43.6	18.2	0.00e+00	0	29	0	61865984	56	6884
2026-01-15 01:00:08.71	175.84	5.27	-41.2	-42.7	19.0	0.00e+00	0	29	0	63963136	56	6232
2026-01-15 01:00:09.72	175.87	5.34	-40.9	-42.4	19.3	0.00e+00	0	29	0	66060288	56	5978
2026-01-15 01:00:10.73	175.90	5.41	-40.5	-41.9	19.7	0.00e+00	0	29	0	68157440	54	6352
2026-01-15 01:00:11.74	175.94	5.48	-40.5	-41.9	19.9	0.00e+00	0	29	0	70254592	54	6360
2026-01-15 01:00:12.75	175.97	5.56	-40.3	-41.7	19.9	0.00e+00	0	29	0	71303168	54	6186
2026-01-15 01:00:13.76	176.01	5.63	-40.2	-41.5	20.2	0.00e+00	0	29	0	73400320	54	6084
2026-01-15 01:00:14.77	176.04	5.70	-40.0	-41.3	20.2	0.00e+00	0	29	0	75497472	54	5931
2026-01-15 01:00:15.78	176.07	5.77	-40.0	-41.3	20.3	0.00e+00	0	29	0	77594624	54	5902
2026-01-15 01:00:16.79	176.11	5.85	-40.0	-41.3	20.2	0.00e+00	0	29	0	79691776	54	5960
2026-01-15 01:00:17.79	176.14	5.92	-39.8	-41.1	20.5	0.00e+00	0	29	0	80740352	54	5786
2026-01-15 01:00:18.80	176.18	5.99	-39.9	-41.2	20.4	0.00e+00	0	29	0	82837504	52	6568
2026-01-15 01:00:19.81	176.21	6.07	-39.7	-40.9	20.7	0.00e+00	0	29	0	84934656	52	6383
2026-01-15 01:00:20.82	176.25	6.14	-39.8	-41.0	20.5	0.00e+00	0	29	0	87031808	52	6450
2026-01-15 01:00:21.83	176.28	6.21	-39.6	-40.8	20.7	0.00e+00	0	29	0	89128960	52	6262
2026-01-15 01:00:22.84	176.32	6.29	-39.8	-41.1	20.5	0.00e+00	0	29	0	91226112	52	6478
2026-01-15 01:00:23.85	176.35	6.36	-39.6	-40.8	20.8	0.00e+00	0	29	0	92274688	52	6260
2026-01-15 01:00:24.86	176.39	6.44	-39.7	-40.9	20.7	0.00e+00	0	29	0	94371840	52	6364
2026-01-15 01:00:25.86	176.42	6.51	-39.7	-41.0	20.7	0.00e+00	0	29	0	96468992	52	6391
2026-01-15 01:00:26.87	176.46	6.59	-39.5	-40.7	20.9	0.00e+00	0	29	0	98566144	52	6218
2026-01-15 01:00:27.88	176.49	6.66	-39.5	-40.7	20.9	0.00e+00	0	29	0	99614720	52	6212
2026-01-15 01:00:28.89	176.53	6.74	-39.7	-40.9	20.9	0.00e+00	0	29	0	101711872	52	6362
2026-01-15 01:00:29.90	176.57	6.81	-39.8	-41.0	20.7	0.00e+00	0	29	0	103809024	52	6444
2026-01-15 01:00:30.90	176.60	6.89	-39.7	-40.9	20.7	0.00e+00	0	29	0	105906176	52	6334
2026-01-15 01:00:31.91	176.64	6.96	-39.7	-40.9	20.7	0.00e+00	0	29	0	108003328	52	6370
2026-01-15 01:00:32.92	176.67	7.04	-39.7	-41.0	20.7	0.00e+00	0	29	0	109051904	52	6410
2026-01-15 01:00:33.93	176.71	7.12	-39.5	-40.7	20.9	0.00e+00	0	29	0	111149056	52	6232
2026-01-15 01:00:34.94	176.75	7.19	-39.3	-40.5	21.1	0.00e+00	0	29	0	113246208	52	6059
2026-01-15 01:00:35.95	176.79	7.27	-39.7	-40.9	20.8	0.00e+00	0	29	0	115343360	52	6334
2026-01-15 01:00:36.96	176.82	7.35	-39.6	-40.8	20.8	0.00e+00	0	29	0	117440512	52	6295
2026-01-15 01:00:37.97	176.86	7.43	-39.4	-40.6	21.0	0.00e+00	0	29	0	119537664	52	6153
2026-01-15 01:00:38.98	176.90	7.50	-39.4	-40.6	21.1	0.00e+00	0	29	0	120586240	52	6145
2026-01-15 01:00:39.98	176.94	7.58	-39.3	-40.4	21.2	0.00e+00	0	29	0	122683392	52	6022
2026-01-15 01:00:41.00	176.98	7.66	-39.4	-40.6	21.1	0.00e+00	0	29	0	124780544	52	6112
2026-01-15 01:00:42.01	177.01	7.74	-39.4	-40.5	21.3	0.00e+00	0	29	0	126877696	52	6073
2026-01-15 01:00:43.02	177.05	7.82	-39.5	-40.7	21.0	0.00e+00	0	29	0	128974848	52	6182
2026-01-15 01:00:44.03	177.09	7.89	-39.3	-40.5	21.4	0.00e+00	0	29	0	130023424	52	6047
2026-01-15 01:00:45.04	177.13	7.97	-39.1	-40.2	21.4	0.00e+00	0	29	0	132120576	52	5858
2026-01-15 01:00:46.05	177.17	8.05	-39.2	-40.3	21.3	0.00e+00	0	29	0	134217728	52	5942
2026-01-15 01:00:47.06	177.21	8.13	-39.1	-40.2	21.4	0.00e+00	0	29	0	136314880	52	5869
2026-01-15 01:00:48.06	177.25	8.21	-38.9	-40.0	21.7	0.00e+00	0	29	0	138412032	52	5716
2026-01-15 01:00:49.07	177.29	8.29	-39.1	-40.3	21.4	0.00e+00	0	29	0	139460608	52	5906
2026-01-15 01:00:50.08	177.33	8.37	-39.2	-40.4	21.3	0.00e+00	0	29	0	141557760	52	5967
2026-01-15 01:00:51.09	177.37	8.45	-39.0	-40.1	21.5	0.00e+00	0	29	0	143654912	52	5803
2026-01-15 01:00:52.10	177.41	8.53	-39.0	-40.1	21.5	0.00e+00	0	29	0	145752064	52	5820
2026-01-15 01:00:53.11	177.45	8.61	-39.1	-40.2	21.6	0.00e+00	0	29	0	147849216	52	5835
2026-01-15 01:00:54.12	177.49	8.70	-39.1	-40.2	21.3	0.00e+00	0	29	0	148897792	52	5843
2026-01-15 01:00:55.13	177.53	8.78	-38.9	-40.0	21.7	0.00e+00	0	29	0	150994944	52	5743
2026-01-15 01:00:56.14	177.57	8.86	-39.0	-40.1	21.7	0.00e+00	0	29	0	153092096	52	5763
2026-01-15 01:00:57.15	177.61	8.94	-38.9	-40.0	21.4	0.00e+00	0	29	0	155189248	52	5716
2026-01-15 01:00:58.16	177.66	9.02	-38.9	-40.0	21.4	0.00e+00	0	29	0	157286400	52	5747
2026-01-15 01:00:59.17	177.70	9.11	-38.9	-40.0	21.6	0.00e+00	0	29	0	158334976	52	5725
2026-01-15 01:01:00.18	177.74	9.19	-38.9	-40.0	21.8	0.00e+00	0	29	0	160432128	52	5705
2026-01-15 01:01:01.19	177.78	9.27	-38.8	-39.8	21.8	0.00e+00	0	29	0	162529280	52	5625
2026-01-15 01:01:02.20	177.82	9.35	-38.8	-39.9	21.8	0.00e+00	0	29	0	164626432	50	6343
2026-01-15 01:01:03.21	177.87	9.44	-38.8	-39.9	21.8	0.00e+00	0	29	0	166723584	50	6355
2026-01-15 01:01:04.23	177.91	9.52	-38.6	-39.7	21.9	0.00e+00	0	29	0	167772160	50	6174
2026-01-15 01:01:05.24	177.95	9.61	-38.7	-39.7	21.9	0.00e+00	0	29	0	169869312	50	6234
2026-01-15 01:01:06.24	178.00	9.69	-38.7	-39.7	22.0	0.00e+00	0	29	0	171966464	50	6234
2026-01-15 01:01:07.25	178.04	9.78	-38.6	-39.6	22.1	0.00e+00	0	29	0	174063616	50	6134
2026-01-15 01:01:08.26	178.08	9.86	-38.6	-39.6	22.1	0.00e+00	0	29	0	176160768	50	6131
2026-01-15 01:01:09.27	178.13	9.95	-38.7	-39.8	21.9	0.00e+00	0	29	0	177209344	50	6251
2026-01-15 01:01:10.29	178.17	10.03	-38.5	-39.6	22.1	0.00e+00	0	29	0	179306496	50	6113
2026-01-15 01:01:11.30	178.22	10.12	-38.7	-39.7	22.0	0.00e+00	0	29	0	181403648	50	6215
2026-01-15 01:01:12.30	178.26	10.20	-38.6	-39.7	22.1	0.00e+00	0	29	0	183500800	50	6192
2026-01-15 01:01:13.32	178.31	10.29	-38.6	-39.6	22.1	0.00e+00	0	29	0	185597952	50	6152
2026-01-15 01:01:14.33	178.35	10.38	-38.7	-39.7	22.1	0.00e+00	0	29	0	187695104	50	6241
2026-01-15 01:01:15.34	178.40	10.46	-38.7	-39.7	22.1	0.00e+00	0	29	0	188743680	50	6224
2026-01-15 01:01:16.35	178.44	10.55	-38.7	-39.8	22.0	0.00e+00	0	29	0	190840832	50	6247
2026-01-15 01:01:17.36	178.49	10.64	-38.7	-39.8	22.0	0.00e+00	0	29	0	192937984	50	6275
2026-01-15 01:01:18.36	178.54	10.73	-38.6	-39.6	22.1	0.00e+00	0	29	0	195035136	50	6170
2026-01-15 01:01:19.38	178.58	10.81	-38.6	-39.7	22.1	0.00e+00	0	29	0	197132288	50	6197
2026-01-15 01:01:20.38	178.63	10.90	-38.5	-39.5	22.3	0.00e+00	0	29	0	198180864	50	6055
2026-01-15 01:01:21.39	178.68	10.99	-38.5	-39.6	22.2	0.00e+00	0	29	0	200278016	50	6127
2026-01-15 01:01:22.40	178.72	11.08	-38.4	-39.4	22.3	0.00e+00	0	29	0	202375168	50	5992
2026-01-15 01:01:23.41	178.77	11.17	-38.2	-39.2	22.4	0.00e+00	0	29	0	204472320	50	5861
2026-01-15 01:01:24.42	178.82	11.26	-38.2	-39.2	22.5	0.00e+00	0	29	0	206569472	50	5884
2026-01-15 01:01:25.43	178.87	11.35	-38.1	-39.1	22.6	0.00e+00	0	29	0	207618048	50	5827
2026-01-15 01:01:26.44	178.92	11.44	-38.1	-39.1	22.5	0.00e+00	0	29	0	209715200	50	5816
2026-01-15 01:01:27.45	178.97	11.53	-38.0	-39.0	22.8	0.00e+00	0	29	0	211812352	50	5736
2026-01-15 01:01:28.46	179.01	11.62	-38.0	-39.0	22.7	0.00e+00	0	29	0	213909504	50	5699
2026-01-15 01:01:29.46	179.06	11.71	-37.9	-38.9	22.8	0.00e+00	0	29	0	216006656	50	5669
2026-01-15 01:01:30.47	179.11	11.80	-38.0	-39.0	22.7	0.00e+00	0	29	0	217055232	50	5707
2026-01-15 01:01:31.48	179.16	11.89	-37.8	-38.8	22.9	0.00e+00	0	29	0	219152384	50	5574
2026-01-15 01:01:32.50	179.21	11.99	-38.0	-39.0	22.7	0.00e+00	0	29	0	221249536	50	5705
2026-01-15 01:01:33.51	179.26	12.08	-37.7	-38.7	23.0	0.00e+00	0	29	0	223346688	48	6190
2026-01-15 01:01:34.52	179.32	12.17	-37.8	-38.8	22.9	0.00e+00	0	29	0	225443840	48	6286
2026-01-15 01:01:35.53	179.37	12.27	-37.7	-38.7	22.9	0.00e+00	0	29	0	226492416	48	6203
2026-01-15 01:01:36.54	179.42	12.36	-37.7	-38.6	23.0	0.00e+00	0	29	0	228589568	48	6163
2026-01-15 01:01:37.55	179.47	12.45	-37.8	-38.7	22.9	0.00e+00	0	29	0	230686720	48	6235
2026-01-15 01:01:38.56	179.52	12.55	-37.7	-38.6	23.1	0.00e+00	0	29	0	232783872	48	6144
2026-01-15 01:01:39.57	179.57	12.64	-37.7	-38.7	23.0	0.00e+00	0	29	0	234881024	48	6184
2026-01-15 01:01:40.58	179.63	12.74	-37.9	-38.8	22.9	0.00e+00	0	29	0	235929600	48	6304
2026-01-15 01:01:41.58	179.68	12.83	-37.7	-38.6	23.1	0.00e+00	0	29	0	238026752	48	6133
2026-01-15 01:01:42.59	179.73	12.93	-37.7	-38.6	23.0	0.00e+00	0	29	0	240123904	48	6152
2026-01-15 01:01:43.60	179.79	13.02	-37.8	-38.7	22.9	0.00e+00	0	29	0	242221056	48	6220
2026-01-15 01:01:44.61	179.84	13.12	-37.6	-38.6	23.0	0.00e+00	0	29	0	244318208	48	6109
2026-01-15 01:01:45.62	179.89	13.22	-37.6	-38.6	23.0	0.00e+00	0	29	0	245366784	48	6133
2026-01-15 01:01:46.63	179.95	13.31	-37.5	-38.4	23.2	0.00e+00	0	29	0	247463936	48	6028
2026-01-15 01:01:47.64	180.00	13.41	-37.6	-38.5	23.1	0.00e+00	0	29	0	249561088	48	6099
2026-01-15 01:01:48.65	180.06	13.51	-37.4	-38.3	23.2	0.00e+00	0	29	0	251658240	48	5906
2026-01-15 01:01:49.66	180.11	13.61	-37.3	-38.2	23.2	0.00e+00	0	29	0	253755392	48	5890
2026-01-15 01:01:50.67	180.17	13.71	-37.3	-38.2	23.3	0.00e+00	0	29	0	255852544	48	5891
2026-01-15 01:01:51.68	180.23	13.81	-37.5	-38.4	23.2	0.00e+00	0	29	0	256901120	48	6011
2026-01-15 01:01:52.69	180.28	13.90	-37.5	-38.4	23.3	0.00e+00	0	29	0	258998272	48	5992
2026-01-15 01:01:53.70	180.34	14.00	-37.3	-38.2	23.4	0.00e+00	0	29	0	261095424	48	5874
2026-01-15 01:01:54.71	180.40	14.10	-37.2	-38.2	23.4	0.00e+00	0	29	0	263192576	48	5832
2026-01-15 01:01:55.72	180.46	14.21	-37.1	-38.0	23.5	0.00e+00	0	29	0	265289728	48	5740
2026-01-15 01:01:56.73	180.51	14.31	-37.2	-38.1	23.4	0.00e+00	0	29	0	266338304	48	5820
2026-01-15 01:01:57.73	180.57	14.41	-37.2	-38.1	23.6	0.00e+00	0	29	0	268435456	48	5782
2026-01-15 01:01:58.74	180.63	14.51	-37.3	-38.2	23.4	0.00e+00	0	29	0	270532608	48	5841
2026-01-15 01:01:59.75	180.69	14.61	-37.3	-38.2	23.4	0.00e+00	0	29	0	272629760	48	5872
2026-01-15 01:02:00.76	180.75	14.71	-37.4	-38.3	23.3	0.00e+00	0	29	0	274726912	48	5925
2026-01-15 01:02:01.77	180.81	14.82	-37.2	-38.1	23.6	0.00e+00	0	29	0	275775488	48	5776
2026-01-15 01:02:02.78	180.87	14.92	-37.3	-38.2	23.4	0.00e+00	0	29	0	277872640	48	5875
2026-01-15 01:02:03.78	180.93	15.02	-37.3	-38.2	23.5	0.00e+00	0	29	0	279969792	48	5886
2026-01-15 01:02:04.79	180.99	15.13	-37.3	-38.3	23.4	0.00e+00	0	29	0	282066944	48	5897
2026-01-15 01:02:05.80	181.05	15.23	-37.4	-38.3	23.2	0.00e+00	0	29	0	284164096	48	5959
2026-01-15 01:02:06.81	181.11	15.34	-37.5	-38.4	23.4	0.00e+00	0	29	0	285212672	48	6004
2026-01-15 01:02:07.82	181.18	15.44	-37.5	-38.4	23.2	0.00e+00	0	29	0	287309824	48	6032
2026-01-15 01:02:08.83	181.24	15.55	-37.6	-38.5	23.2	0.00e+00	0	29	0	289406976	48	6063
2026-01-15 01:02:09.84	181.30	15.65	-37.8	-38.7	23.0	0.00e+00	0	29	0	291504128	48	6240
2026-01-15 01:02:10.85	181.37	15.76	-38.0	-39.0	22.8	0.00e+00	0	29	0	293601280	48	6415
2026-01-15 01:02:11.86	181.43	15.87	-38.0	-39.0	22.9	0.00e+00	0	29	0	294649856	48	6393
2026-01-15 01:02:12.87	181.49	15.97	-37.9	-38.9	22.9	0.00e+00	0	29	0	296747008	48	6326
2026-01-15 01:02:13.88	181.56	16.08	-37.9	-38.8	22.9	0.00e+00	0	29	0	298844160	48	6316
2026-01-15 01:02:14.89	181.62	16.19	-37.9	-38.8	23.0	0.00e+00	0	29	0	300941312	48	6286
2026-01-15 01:02:15.90	181.69	16.30	-37.9	-38.8	23.0	0.00e+00	0	29	0	303038464	48	6310
2026-01-15 01:02:16.91	181.76	16.41	-37.8	-38.7	23.0	0.00e+00	0	29	0	304087040	48	6237
2026-01-15 01:02:17.92	181.82	16.52	-37.8	-38.8	23.0	0.00e+00	0	29	0	306184192	48	6277
2026-01-15 01:02:18.93	181.89	16.63	-37.8	-38.7	23.1	0.00e+00	0	29	0	308281344	48	6223
2026-01-15 01:02:19.94	181.96	16.74	-37.8	-38.8	23.1	0.00e+00	0	29	0	310378496	48	6272
2026-01-15 01:02:20.95	182.03	16.85	-37.7	-38.7	23.1	0.00e+00	0	29	0	312475648	48	6203
2026-01-15 01:02:21.96	182.10	16.96	-37.8	-38.7	23.0	0.00e+00	0	29	0	313524224	48	6229
2026-01-15 01:02:22.97	182.16	17.08	-37.9	-38.8	22.9	0.00e+00	0	29	0	315621376	48	6315
2026-01-15 01:02:23.98	182.23	17.19	-37.7	-38.6	23.1	0.00e+00	0	29	0	317718528	48	6133
2026-01-15 01:02:24.98	182.30	17.30	-37.9	-38.9	22.9	0.00e+00	0	29	0	319815680	48	6366
2026-01-15 01:02:25.99	182.37	17.41	-38.0	-39.0	22.8	0.00e+00	0	29	0	321912832	48	6448
2026-01-15 01:02:27.00	182.44	17.53	-38.0	-39.0	22.8	0.00e+00	0	29	0	324009984	48	6451
2026-01-15 01:02:28.01	182.52	17.64	-38.4	-39.4	22.5	0.00e+00	0	29	0	325058560	48	6734
2026-01-15 01:02:29.02	182.59	17.76	-38.5	-39.5	22.5	0.00e+00	0	29	0	327155712	48	6835
2026-01-15 01:02:30.03	182.66	17.87	-38.3	-39.3	22.6	0.00e+00	0	29	0	329252864	48	6681
2026-01-15 01:02:31.04	182.73	17.99	-38.5	-39.5	22.5	0.00e+00	0	29	0	331350016	48	6806
2026-01-15 01:02:32.05	182.81	18.11	-38.5	-39.5	22.5	0.00e+00	0	29	0	333447168	48	6803
2026-01-15 01:02:33.05	182.88	18.22	-38.4	-39.4	22.6	0.00e+00	0	29	0	334495744	48	6729
2026-01-15 01:02:34.06	182.96	18.34	-38.4	-39.4	22.6	0.00e+00	0	29	0	336592896	48	6718
2026-01-15 01:02:35.07	183.03	18.46	-38.4	-39.4	22.6	0.00e+00	0	29	0	338690048	48	6744
2026-01-15 01:02:36.09	183.11	18.58	-38.2	-39.2	22.7	0.00e+00	0	29	0	340787200	48	6586
2026-01-15 01:02:37.10	183.18	18.70	-38.3	-39.3	22.7	0.00e+00	0	29	0	342884352	48	6623
2026-01-15 01:02:38.11	183.26	18.82	-38.2	-39.2	22.8	0.00e+00	0	29	0	343932928	48	6549
2026-01-15 01:02:39.12	183.34	18.94	-38.2	-39.2	22.7	0.00e+00	0	29	0	346030080	48	6561
2026-01-15 01:02:40.13	183.42	19.06	-38.4	-39.4	22.6	0.00e+00	0	29	0	348127232	48	6742
2026-01-15 01:02:41.14	183.50	19.18	-38.3	-39.2	22.7	0.00e+00	0	29	0	350224384	48	6615
2026-01-15 01:02:42.14	183.58	19.30	-38.2	-39.2	22.8	0.00e+00	0	29	0	352321536	48	6575
2026-01-15 01:02:43.15	183.66	19.42	-38.1	-39.0	22.8	0.00e+00	0	29	0	353370112	48	6459
2026-01-15 01:02:44.16	183.74	19.55	-38.0	-39.0	22.9	0.00e+00	0	29	0	355467264	48	6423
2026-01-15 01:02:45.17	183.82	19.67	-38.1	-39.0	22.8	0.00e+00	0	29	0	357564416	48	6446
2026-01-15 01:02:46.18	183.90	19.80	-38.0	-38.9	23.0	0.00e+00	0	29	0	359661568	48	6355
2026-01-15 01:02:47.19	183.98	19.92	-38.1	-39.1	23.0	0.00e+00	0	29	0	361758720	48	6476
2026-01-15 01:02:48.20	184.06	20.05	-37.9	-38.8	23.0	0.00e+00	0	29	0	362807296	48	6278
2026-01-15 01:02:49.21	184.15	20.17	-37.6	-38.5	23.2	0.00e+00	0	29	0	364904448	48	6049
2026-01-15 01:02:50.22	184.23	20.30	-37.5	-38.4	23.4	0.00e+00	0	29	0	367001600	48	5965
2026-01-15 01:02:51.23	184.32	20.43	-37.3	-38.2	23.6	0.00e+00	0	29	0	369098752	48	5830
2026-01-15 01:02:52.24	184.40	20.55	-37.2	-38.0	23.7	0.00e+00	0	29	0	371195904	48	5735
2026-01-15 01:02:53.25	184.49	20.68	-37.0	-37.9	23.9	0.00e+00	0	29	0	372244480	48	5642
2026-01-15 01:02:54.26	184.58	20.81	-36.9	-37.7	23.9	0.00e+00	0	29	0	374341632	48	5548
2026-01-15 01:02:55.27	184.66	20.94	-36.5	-37.4	24.3	0.00e+00	0	29	0	376438784	46	5975
2026-01-15 01:02:56.28	184.75	21.07	-36.4	-37.3	24.1	0.00e+00	0	29	0	378535936	46	5897
2026-01-15 01:02:57.29	184.84	21.20	-36.3	-37.1	24.3	0.00e+00	0	29	0	380633088	46	5784
2026-01-15 01:02:58.30	184.93	21.33	-36.2	-37.0	24.3	0.00e+00	0	29	0	381681664	46	5735
2026-01-15 01:02:59.30	185.02	21.46	-36.1	-36.9	24.5	0.00e+00	0	29	0	383778816	46	5682
2026-01-15 01:03:00.31	185.11	21.59	-36.2	-37.0	24.5	0.00e+00	0	29	0	385875968	46	5699
2026-01-15 01:03:01.32	185.21	21.73	-36.1	-36.9	24.5	0.00e+00	0	29	0	387973120	46	5631
2026-01-15 01:03:02.33	185.30	21.86	-35.9	-36.7	24.6	0.00e+00	0	29	0	390070272	46	5565
2026-01-15 01:03:03.34	185.39	22.00	-35.9	-36.6	24.6	0.00e+00	0	29	0	392167424	46	5500
2026-01-15 01:03:04.35	185.49	22.13	-35.8	-36.6	24.7	0.00e+00	0	29	0	393216000	46	5487
2026-01-15 01:03:05.36	185.58	22.27	-35.8	-36.6	24.7	0.00e+00	0	29	0	395313152	46	5468
2026-01-15 01:03:06.37	185.68	22.40	-35.8	-36.6	24.6	0.00e+00	0	29	0	397410304	44	6140
2026-01-15 01:03:07.38	185.78	22.54	-35.9	-36.7	24.7	0.00e+00	0	29	0	399507456	44	6193
2026-01-15 01:03:08.39	185.87	22.68	-35.7	-36.5	24.7	0.00e+00	0	29	0	400556032	44	6073
2026-01-15 01:03:09.40	185.97	22.82	-35.8	-36.6	24.8	0.00e+00	0	29	0	402653184	44	6108
2026-01-15 01:03:10.41	186.07	22.96	-35.9	-36.7	24.6	0.00e+00	0	29	0	404750336	44	6232
2026-01-15 01:03:11.42	186.17	23.10	-35.9	-36.7	24.6	0.00e+00	0	29	0	406847488	44	6208
2026-01-15 01:03:12.43	186.27	23.24	-36.1	-36.9	24.6	0.00e+00	0	29	0	408944640	44	6359
2026-01-15 01:03:13.43	186.37	23.38	-35.9	-36.7	24.7	0.00e+00	0	29	0	409993216	44	6190
2026-01-15 01:03:14.44	186.48	23.52	-36.2	-37.0	24.5	0.00e+00	0	29	0	412090368	44	6414
2026-01-15 01:03:15.45	186.58	23.66	-36.1	-37.0	24.4	0.00e+00	0	29	0	414187520	44	6397
2026-01-15 01:03:16.46	186.69	23.80	-36.1	-37.0	24.5	0.00e+00	0	29	0	416284672	44	6400
2026-01-15 01:03:17.47	186.79	23.95	-36.2	-37.0	24.4	0.00e+00	0	29	0	418381824	44	6406
2026-01-15 01:03:18.48	186.90	24.09	-36.0	-36.8	24.6	0.00e+00	0	29	0	420478976	44	6285
2026-01-15 01:03:19.49	187.01	24.24	-35.8	-36.6	24.8	0.00e+00	0	29	0	421527552	44	6123
2026-01-15 01:03:20.50	187.11	24.38	-36.0	-36.8	24.6	0.00e+00	0	29	0	423624704	44	6266
2026-01-15 01:03:21.51	187.22	24.53	-35.8	-36.7	24.7	0.00e+00	0	29	0	425721856	44	6178
2026-01-15 01:03:22.52	187.33	24.68	-36.0	-36.8	24.5	0.00e+00	0	29	0	427819008	44	6304
2026-01-15 01:03:23.53	187.45	24.82	-36.2	-37.0	24.4	0.00e+00	0	29	0	429916160	44	6413
2026-01-15 01:03:24.54	187.56	24.97	-35.9	-36.7	24.7	0.00e+00	0	29	0	430964736	44	6212
2026-01-15 01:03:25.55	187.67	25.12	-35.8	-36.6	24.6	0.00e+00	0	29	0	433061888	44	6136
2026-01-15 01:03:26.55	187.78	25.27	-35.9	-36.7	24.6	0.00e+00	0	29	0	435159040	44	6226
2026-01-15 01:03:27.56	187.90	25.42	-35.9	-36.8	24.6	0.00e+00	0	29	0	437256192	44	6248
2026-01-15 01:03:28.57	188.02	25.57	-35.9	-36.7	24.5	0.00e+00	0	29	0	439353344	44	6208
2026-01-15 01:03:29.58	188.13	25.73	-35.8	-36.6	24.7	0.00e+00	0	29	0	440401920	44	6143
2026-01-15 01:03:30.59	188.25	25.88	-35.7	-36.5	24.8	0.00e+00	0	29	0	442499072	44	6063
2026-01-15 01:03:31.60	188.37	26.03	-35.7	-36.5	24.7	0.00e+00	0	29	0	444596224	44	6077
2026-01-15 01:03:32.61	188.49	26.19	-35.7	-36.5	24.7	0.00e+00	0	29	0	446693376	44	6073
2026-01-15 01:03:33.62	188.62	26.34	-35.9	-36.7	24.6	0.00e+00	0	29	0	448790528	44	6191
2026-01-15 01:03:34.63	188.74	26.50	-35.8	-36.6	24.8	0.00e+00	0	29	0	449839104	44	6165
2026-01-15 01:03:35.63	188.86	26.66	-35.7	-36.5	24.9	0.00e+00	0	29	0	451936256	44	6056
2026-01-15 01:03:36.64	188.99	26.81	-35.8	-36.6	24.8	0.00e+00	0	29	0	454033408	44	6127
2026-01-15 01:03:37.65	189.12	26.97	-35.8	-36.6	24.8	0.00e+00	0	29	0	456130560	44	6167
2026-01-15 01:03:38.66	189.24	27.13	-35.9	-36.6	24.6	0.00e+00	0	29	0	458227712	44	6164
2026-01-15 01:03:39.67	189.37	27.29	-36.0	-36.8	24.5	0.00e+00	0	29	0	459276288	44	6285
2026-01-15 01:03:40.67	189.50	27.45	-35.8	-36.6	24.7	0.00e+00	0	29	0	461373440	44	6130
2026-01-15 01:03:41.68	189.64	27.61	-35.8	-36.6	24.6	0.00e+00	0	29	0	463470592	44	6144
2026-01-15 01:03:42.70	189.77	27.78	-36.2	-37.0	24.5	0.00e+00	0	29	0	465567744	44	6412
2026-01-15 01:03:43.70	189.90	27.94	-36.2	-37.0	24.4	0.00e+00	0	29	0	467664896	44	6398
2026-01-15 01:03:44.71	190.04	28.10	-36.2	-37.0	24.4	0.00e+00	0	29	0	468713472	44	6455
2026-01-15 01:03:45.72	190.18	28.27	-36.5	-37.3	24.2	0.00e+00	0	29	0	470810624	44	6661
2026-01-15 01:03:46.73	190.32	28.43	-36.5	-37.3	24.3	0.00e+00	0	29	0	472907776	44	6691
2026-01-15 01:03:47.74	190.46	28.60	-36.8	-37.6	24.0	0.00e+00	0	29	0	475004928	46	6173
2026-01-15 01:03:48.75	190.60	28.77	-36.8	-37.7	23.8	0.00e+00	0	29	0	477102080	46	6206
2026-01-15 01:03:49.76	190.74	28.94	-36.9	-37.8	23.7	0.00e+00	0	29	0	478150656	46	6277
2026-01-15 01:03:50.77	190.88	29.11	-37.3	-38.2	23.7	0.00e+00	0	29	0	480247808	46	6560
2026-01-15 01:03:51.78	191.03	29.28	-37.3	-38.2	23.7	0.00e+00	0	29	0	482344960	46	6604
2026-01-15 01:03:52.79	191.18	29.45	-37.7	-38.6	23.3	0.00e+00	0	29	0	484442112	46	6896
2026-01-15 01:03:53.80	191.33	29.62	-37.8	-38.8	23.2	0.00e+00	0	29	0	486539264	48	6255
2026-01-15 01:03:54.80	191.48	29.79	-38.4	-39.3	22.7	0.00e+00	0	29	0	488636416	48	6664
2026-01-15 01:03:55.81	191.63	29.96	-38.2	-39.2	22.8	0.00e+00	0	29	0	489684992	48	6559
2026-01-15 01:03:56.82	191.78	30.14	-39.1	-40.1	22.2	0.00e+00	0	29	0	491782144	50	6522
2026-01-15 01:03:57.83	191.94	30.31	-39.4	-40.5	21.8	0.00e+00	0	29	0	493879296	50	6791
2026-01-15 01:03:58.84	192.09	30.49	-39.8	-41.0	21.5	0.00e+00	0	29	0	495976448	52	6395
2026-01-15 01:03:59.85	192.25	30.66	-39.5	-40.6	21.9	0.00e+00	0	29	0	498073600	52	6138
2026-01-15 01:04:00.86	192.41	30.84	-40.0	-41.2	21.3	0.00e+00	0	29	0	499122176	52	6571
2026-01-15 01:04:01.87	192.57	31.02	-40.4	-41.6	20.9	0.00e+00	0	29	0	501219328	52	6877
2026-01-15 01:04:02.88	192.74	31.20	-40.4	-41.6	20.9	0.00e+00	0	29	0	503316480	52	6925
2026-01-15 01:04:03.89	192.90	31.38	-40.4	-41.6	20.9	0.00e+00	0	29	0	505413632	52	6882
2026-01-15 01:04:04.90	193.07	31.56	-40.5	-41.7	20.7	0.00e+00	0	29	0	507510784	52	6972
2026-01-15 01:04:05.90	193.24	31.74	-40.0	-41.1	21.2	0.00e+00	0	29	0	508559360	52	6539
2026-01-15 01:04:06.91	193.41	31.92	-40.0	-41.1	21.3	0.00e+00	0	29	0	510656512	52	6522
2026-01-15 01:04:07.92	193.58	32.11	-39.4	-40.4	21.6	0.00e+00	0	29	0	512753664	52	6033
2026-01-15 01:04:08.93	193.76	32.29	-39.6	-40.7	21.6	0.00e+00	0	29	0	514850816	52	6225
2026-01-15 01:04:09.94	193.93	32.47	-39.2	-40.2	21.9	0.00e+00	0	29	0	516947968	52	5872
2026-01-15 01:04:10.95	194.11	32.66	-39.3	-40.4	22.0	0.00e+00	0	29	0	517996544	52	5996
2026-01-15 01:04:11.96	194.29	32.85	-39.0	-40.0	22.1	0.00e+00	0	29	0	520093696	52	5714
2026-01-15 01:04:12.97	194.48	33.04	-39.1	-40.1	22.1	0.00e+00	0	29	0	522190848	52	5827
2026-01-15 01:04:13.98	194.66	33.22	-39.0	-40.0	22.1	0.00e+00	0	29	0	524288000	52	5743
2026-01-15 01:04:14.99	194.85	33.41	-39.0	-40.0	22.3	0.00e+00	0	29	0	526385152	52	5737
2026-01-15 01:04:16.00	195.04	33.60	-38.9	-39.9	22.4	0.00e+00	0	29	0	527433728	52	5664
2026-01-15 01:04:17.01	195.23	33.79	-38.8	-39.8	22.4	0.00e+00	0	29	0	529530880	50	6255
2026-01-15 01:04:18.02	195.42	33.99	-39.0	-40.0	22.2	0.00e+00	0	29	0	531628032	50	6429
2026-01-15 01:04:19.03	195.62	34.18	-38.9	-39.9	22.3	0.00e+00	0	29	0	533725184	50	6375
2026-01-15 01:04:20.04	195.82	34.37	-39.2	-40.3	21.9	0.00e+00	0	29	0	535822336	50	6620
2026-01-15 01:04:21.05	196.02	34.57	-39.0	-40.0	22.2	0.00e+00	0	29	0	536870912	50	6430
2026-01-15 01:04:22.05	196.22	34.76	-39.2	-40.2	22.1	0.00e+00	0	29	0	538968064	50	6599
2026-01-15 01:04:23.06	196.42	34.96	-39.2	-40.3	22.0	0.00e+00	0	29	0	541065216	50	6628
2026-01-15 01:04:24.07	196.63	35.15	-38.9	-39.9	22.3	0.00e+00	0	29	0	543162368	50	6337
2026-01-15 01:04:25.08	196.84	35.35	-39.1	-40.1	22.2	0.00e+00	0	29	0	545259520	50	6537
2026-01-15 01:04:26.08	197.05	35.55	-38.6	-39.6	22.6	0.00e+00	0	29	0	546308096	50	6152
2026-01-15 01:04:27.09	197.26	35.75	-38.7	-39.7	22.7	0.00e+00	0	29	0	548405248	50	6201
2026-01-15 01:04:28.10	197.48	35.95	-38.0	-38.9	23.1	0.00e+00	0	29	0	550502400	50	5656
2026-01-15 01:04:29.11	197.70	36.15	-38.4	-39.3	22.8	0.00e+00	0	29	0	552599552	50	5927
2026-01-15 01:04:30.12	197.92	36.35	-38.2	-39.1	23.0	0.00e+00	0	29	0	554696704	50	5825
2026-01-15 01:04:31.13	198.15	36.55	-38.2	-39.1	23.1	0.00e+00	0	29	0	555745280	50	5812
2026-01-15 01:04:32.14	198.38	36.76	-37.8	-38.6	23.3	0.00e+00	0	29	0	557842432	50	5500
2026-01-15 01:04:33.15	198.61	36.96	-38.1	-39.1	22.9	0.00e+00	0	29	0	559939584	48	6480
2026-01-15 01:04:34.16	198.84	37.17	-38.2	-39.1	22.9	0.00e+00	0	29	0	562036736	48	6526
2026-01-15 01:04:35.16	199.08	37.37	-38.4	-39.3	22.7	0.00e+00	0	29	0	564133888	48	6676
2026-01-15 01:04:36.17	199.32	37.58	-39.0	-40.1	22.2	0.00e+00	0	29	0	565182464	50	6474
2026-01-15 01:04:37.18	199.56	37.78	-39.3	-40.4	22.0	0.00e+00	0	29	0	567279616	50	6729
2026-01-15 01:04:38.19	199.81	37.99	-39.5	-40.6	21.9	0.00e+00	0	29	0	569376768	50	6859
2026-01-15 01:04:39.20	200.06	38.20	-39.4	-40.5	21.8	0.00e+00	0	29	0	571473920	52	6047
2026-01-15 01:04:40.21	200.31	38.41	-40.0	-41.2	21.2	0.00e+00	0	29	0	573571072	52	6562
2026-01-15 01:04:41.22	200.56	38.62	-39.5	-40.6	21.7	0.00e+00	0	29	0	574619648	52	6119
2026-01-15 01:04:42.23	200.82	38.83	-39.0	-40.0	22.1	0.00e+00	0	29	0	576716800	52	5751
2026-01-15 01:04:43.24	201.08	39.04	-38.8	-39.8	22.3	0.00e+00	0	29	0	578813952	50	6271
2026-01-15 01:04:44.25	201.35	39.25	-38.7	-39.7	22.5	0.00e+00	0	29	0	580911104	50	6211
2026-01-15 01:04:45.26	201.62	39.47	-38.6	-39.7	22.5	0.00e+00	0	29	0	583008256	50	6175
2026-01-15 01:04:46.27	201.89	39.68	-38.2	-39.2	22.8	0.00e+00	0	29	0	585105408	50	5865
2026-01-15 01:04:47.28	202.17	39.89	-38.0	-38.9	23.2	0.00e+00	0	29	0	586153984	50	5673
2026-01-15 01:04:48.29	202.45	40.11	-37.5	-38.4	23.4	0.00e+00	0	29	0	588251136	48	5986
2026-01-15 01:04:49.30	202.73	40.32	-37.6	-38.5	23.5	0.00e+00	0	29	0	590348288	48	6099
2026-01-15 01:04:50.31	203.01	40.54	-38.0	-39.0	23.1	0.00e+00	0	29	0	592445440	48	6419
2026-01-15 01:04:51.32	203.31	40.75	-38.2	-39.2	22.9	0.00e+00	0	29	0	594542592	48	6544
2026-01-15 01:04:52.33	203.60	40.97	-38.2	-39.2	22.8	0.00e+00	0	29	0	595591168	48	6606
2026-01-15 01:04:53.34	203.90	41.19	-38.2	-39.2	22.9	0.00e+00	0	29	0	597688320	48	6568
2026-01-15 01:04:54.35	204.20	41.40	-37.7	-38.6	23.4	0.00e+00	0	29	0	599785472	48	6144
2026-01-15 01:04:55.36	204.51	41.62	-36.9	-37.7	23.9	0.00e+00	0	29	0	601882624	48	5523
2026-01-15 01:04:56.37	204.82	41.84	-36.7	-37.5	24.1	0.00e+00	0	29	0	603979776	46	6075
2026-01-15 01:04:57.37	205.13	42.06	-37.0	-37.8	23.9	0.00e+00	0	29	0	605028352	46	6271
2026-01-15 01:04:58.38	205.45	42.27	-37.1	-37.9	23.9	0.00e+00	0	29	0	607125504	46	6368
2026-01-15 01:04:59.39	205.77	42.49	-37.5	-38.4	23.4	0.00e+00	0	29	0	609222656	46	6712
2026-01-15 01:05:00.40	206.10	42.71	-37.7	-38.6	23.2	0.00e+00	0	29	0	611319808	46	6899
2026-01-15 01:05:01.41	206.43	42.93	-37.8	-38.7	23.1	0.00e+00	0	29	0	613416960	48	6219
2026-01-15 01:05:02.42	206.76	43.15	-37.8	-38.7	23.3	0.00e+00	0	29	0	614465536	48	6219
2026-01-15 01:05:03.43	207.11	43.37	-37.9	-38.8	23.2	0.00e+00	0	29	0	616562688	48	6310
2026-01-15 01:05:04.44	207.45	43.59	-37.7	-38.5	23.4	0.00e+00	0	29	0	618659840	48	6091
2026-01-15 01:05:05.45	207.80	43.81	-38.2	-39.1	22.8	0.00e+00	0	29	0	620756992	48	6532
2026-01-15 01:05:06.46	208.16	44.03	-38.6	-39.5	22.6	0.00e+00	0	29	0	622854144	48	6841
2026-01-15 01:05:07.47	208.52	44.25	-38.8	-39.7	22.2	0.00e+00	0	29	0	623902720	50	6231
2026-01-15 01:05:08.48	208.88	44.47	-39.0	-40.0	22.3	0.00e+00	0	29	0	625999872	50	6443
2026-01-15 01:05:09.49	209.25	44.69	-38.9	-39.9	22.3	0.00e+00	0	29	0	628097024	50	6379
2026-01-15 01:05:10.50	209.62	44.92	-38.2	-39.1	22.9	0.00e+00	0	29	0	630194176	50	5787
2026-01-15 01:05:11.51	210.00	45.14	-37.6	-38.4	23.3	0.00e+00	0	29	0	632291328	50	5369
2026-01-15 01:05:12.52	210.39	45.36	-37.6	-38.5	23.4	0.00e+00	0	29	0	633339904	48	6058
2026-01-15 01:05:13.53	210.78	45.58	-38.1	-39.0	23.1	0.00e+00	0	29	0	635437056	48	6420
2026-01-15 01:05:14.54	211.18	45.80	-38.4	-39.3	22.6	0.00e+00	0	29	0	637534208	48	6683
2026-01-15 01:05:15.55	211.58	46.01	-39.4	-40.5	21.9	0.00e+00	0	29	0	639631360	50	6832
2026-01-15 01:05:16.56	211.98	46.23	-39.7	-40.8	21.5	0.00e+00	0	29	0	641728512	50	7079
2026-01-15 01:05:17.57	212.40	46.45	-40.1	-41.3	21.2	0.00e+00	0	29	0	642777088	52	6682
2026-01-15 01:05:18.58	212.82	46.67	-40.3	-41.5	21.0	0.00e+00	0	29	0	644874240	52	6814
2026-01-15 01:05:19.59	213.24	46.89	-41.4	-42.8	20.0	0.00e+00	0	29	0	646971392	54	7048
2026-01-15 01:05:20.60	213.67	47.10	-41.5	-43.0	19.6	0.00e+00	0	29	0	649068544	54	7190
2026-01-15 01:05:21.61	214.11	47.32	-41.6	-43.1	19.7	0.00e+00	0	29	0	651165696	56	6508
2026-01-15 01:05:22.62	214.55	47.54	-41.9	-43.4	19.2	0.00e+00	0	29	0	653262848	56	6758
2026-01-15 01:05:23.63	215.00	47.75	-41.7	-43.2	19.6	0.00e+00	0	29	0	654311424	56	6585
2026-01-15 01:05:24.64	215.45	47.97	-41.7	-43.2	19.4	0.00e+00	0	29	0	656408576	56	6575
2026-01-15 01:05:25.65	215.91	48.18	-41.3	-42.7	20.1	0.00e+00	0	29	0	658505728	56	6193
2026-01-15 01:05:26.66	216.38	48.39	-41.2	-42.5	20.3	0.00e+00	0	29	0	660602880	56	6043
2026-01-15 01:05:27.67	216.85	48.60	-40.3	-41.4	21.1	0.00e+00	0	29	0	662700032	54	6016
2026-01-15 01:05:28.68	217.33	48.81	-40.0	-41.2	21.2	0.00e+00	0	29	0	663748608	54	5852
2026-01-15 01:05:29.69	217.81	49.02	-39.8	-40.9	21.5	0.00e+00	0	29	0	665845760	52	6387
2026-01-15 01:05:30.70	218.31	49.23	-39.8	-40.9	21.7	0.00e+00	0	29	0	667942912	52	6371
2026-01-15 01:05:31.70	218.80	49.43	-39.4	-40.5	21.8	0.00e+00	0	29	0	670040064	52	6077
2026-01-15 01:05:32.71	219.31	49.64	-39.1	-40.1	21.9	0.00e+00	0	29	0	672137216	52	5795
2026-01-15 01:05:33.72	219.82	49.84	-39.3	-40.3	21.9	0.00e+00	0	29	0	673185792	52	5945
2026-01-15 01:05:34.73	220.34	50.05	-39.5	-40.6	22.0	0.00e+00	0	29	0	675282944	52	6105
2026-01-15 01:05:35.73	220.86	50.24	-39.4	-40.4	21.9	0.00e+00	0	29	0	677380096	52	6019
2026-01-15 01:05:36.75	221.40	50.45	-39.0	-40.0	22.2	0.00e+00	0	29	0	679477248	52	5760
2026-01-15 01:05:37.76	221.94	50.64	-38.3	-39.3	22.7	0.00e+00	0	29	0	681574400	50	5930
2026-01-15 01:05:38.77	222.48	50.84	-38.6	-39.6	22.7	0.00e+00	0	29	0	682622976	50	6133
2026-01-15 01:05:39.78	223.04	51.03	-38.7	-39.7	22.4	0.00e+00	0	29	0	684720128	50	6182
2026-01-15 01:05:40.79	223.60	51.22	-39.1	-40.2	22.4	0.00e+00	0	29	0	686817280	50	6540
2026-01-15 01:05:41.80	224.17	51.41	-38.5	-39.5	22.7	0.00e+00	0	29	0	688914432	50	6094
2026-01-15 01:05:42.81	224.74	51.60	-38.3	-39.3	22.8	0.00e+00	0	29	0	691011584	50	5901
2026-01-15 01:05:43.82	225.33	51.79	-37.7	-38.6	23.4	0.00e+00	0	29	0	692060160	50	5477
2026-01-15 01:05:44.83	225.92	51.97	-36.7	-37.5	24.1	0.00e+00	0	29	0	694157312	48	5431
2026-01-15 01:05:45.84	226.51	52.15	-36.1	-36.9	24.6	0.00e+00	0	29	0	696254464	46	5689
2026-01-15 01:05:46.85	227.12	52.33	-36.2	-37.0	24.5	0.00e+00	0	29	0	698351616	46	5722
2026-01-15 01:05:47.86	227.73	52.50	-36.5	-37.3	24.4	0.00e+00	0	29	0	700448768	46	5944
2026-01-15 01:05:48.87	228.35	52.67	-36.5	-37.4	24.0	0.00e+00	0	29	0	701497344	46	5971
2026-01-15 01:05:49.88	228.97	52.84	-36.3	-37.1	24.4	0.00e+00	0	29	0	703594496	46	5780
2026-01-15 01:05:50.88	229.60	53.01	-36.5	-37.4	24.3	0.00e+00	0	29	0	705691648	46	5969
2026-01-15 01:05:51.89	230.24	53.17	-37.0	-37.8	23.9	0.00e+00	0	29	0	707788800	46	6296
2026-01-15 01:05:52.90	230.89	53.33	-37.7	-38.7	23.3	0.00e+00	0	29	0	709885952	46	6960
2026-01-15 01:05:53.91	231.54	53.49	-37.4	-38.3	23.4	0.00e+00	0	29	0	710934528	48	5924
2026-01-15 01:05:54.92	232.20	53.64	-37.5	-38.4	23.5	0.00e+00	0	29	0	713031680	48	6028
2026-01-15 01:05:55.93	232.87	53.80	-37.8	-38.7	23.2	0.00e+00	0	29	0	715128832	48	6235
2026-01-15 01:05:56.94	233.54	53.94	-37.6	-38.5	23.3	0.00e+00	0	29	0	717225984	48	6103
2026-01-15 01:05:57.95	234.23	54.09	-36.6	-37.4	24.3	0.00e+00	0	29	0	719323136	48	5364
2026-01-15 01:05:58.96	234.91	54.23	-36.5	-37.3	24.3	0.00e+00	0	29	0	721420288	46	5908
2026-01-15 01:05:59.97	235.61	54.36	-36.7	-37.5	24.1	0.00e+00	0	29	0	722468864	46	6081
2026-01-15 01:06:00.97	236.30	54.49	-37.2	-38.1	23.7	0.00e+00	0	29	0	724566016	46	6523
2026-01-15 01:06:01.98	237.01	54.62	-36.9	-37.8	24.1	0.00e+00	0	29	0	726663168	46	6271
2026-01-15 01:06:03.00	237.73	54.75	-37.0	-37.9	23.9	0.00e+00	0	29	0	728760320	46	6331
2026-01-15 01:06:04.01	238.45	54.87	-36.5	-37.3	24.4	0.00e+00	0	29	0	730857472	46	5931
2026-01-15 01:06:05.01	239.17	54.98	-36.1	-36.9	24.6	0.00e+00	0	29	0	731906048	46	5691
2026-01-15 01:06:06.02	239.90	55.10	-35.9	-36.7	24.7	0.00e+00	0	29	0	734003200	46	5533
2026-01-15 01:06:07.03	240.64	55.20	-36.5	-37.3	24.1	0.00e+00	0	29	0	736100352	46	5954
2026-01-15 01:06:08.04	241.38	55.31	-36.5	-37.3	24.5	0.00e+00	0	29	0	738197504	46	5912
2026-01-15 01:06:09.05	242.13	55.40	-35.7	-36.4	25.0	0.00e+00	0	29	0	740294656	46	5359
2026-01-15 01:06:10.06	242.88	55.50	-35.6	-36.4	24.7	0.00e+00	0	29	0	741343232	44	6005
2026-01-15 01:06:11.07	243.64	55.59	-37.0	-37.9	23.8	0.00e+00	0	29	0	743440384	46	6376
2026-01-15 01:06:12.08	244.40	55.67	-37.0	-37.9	24.0	0.00e+00	0	29	0	745537536	46	6337
2026-01-15 01:06:13.09	245.17	55.75	-36.5	-37.3	24.2	0.00e+00	0	29	0	747634688	46	5932
2026-01-15 01:06:14.10	245.94	55.83	-36.9	-37.7	23.8	0.00e+00	0	29	0	749731840	46	6234
2026-01-15 01:06:15.11	246.72	55.90	-37.7	-38.6	22.3	0.00e+00	0	29	0	750780416	46	6915
2026-01-15 01:06:16.12	247.50	55.96	-37.0	-37.9	23.9	0.00e+00	0	29	0	752877568	48	5667
2026-01-15 01:06:17.13	248.28	56.02	-37.3	-38.2	23.5	0.00e+00	0	29	0	754974720	48	5873
2026-01-15 01:06:18.14	249.06	56.08	-38.1	-39.1	22.5	0.00e+00	0	29	0	757071872	48	6479
2026-01-15 01:06:19.15	249.85	56.13	-39.4	-40.5	21.8	0.00e+00	0	29	0	759169024	50	6839
2026-01-15 01:06:20.16	250.64	56.17	-38.8	-39.9	22.3	0.00e+00	0	29	0	760217600	50	6324
2026-01-15 01:06:21.17	251.44	56.21	-38.0	-38.9	22.9	0.00e+00	0	29	0	762314752	50	5670
2026-01-15 01:06:22.18	252.23	56.25	-38.6	-39.7	22.5	0.00e+00	0	29	0	764411904	50	6190
2026-01-15 01:06:23.19	253.03	56.27	-38.3	-39.3	22.8	0.00e+00	0	29	0	766509056	50	5951
2026-01-15 01:06:24.20	253.83	56.30	-37.3	-38.2	23.6	0.00e+00	0	29	0	768606208	48	5851
2026-01-15 01:06:25.21	254.63	56.32	-37.2	-38.1	23.8	0.00e+00	0	29	0	769654784	48	5765
2026-01-15 01:06:26.22	255.43	56.33	-36.8	-37.7	24.0	0.00e+00	0	29	0	771751936	48	5516
2026-01-15 01:06:27.22	256.22	56.34	-36.4	-37.2	24.4	0.00e+00	0	29	0	773849088	46	5835
2026-01-15 01:06:28.23	257.02	56.34	-36.7	-37.5	24.3	0.00e+00	0	29	0	775946240	46	6070
2026-01-15 01:06:29.24	257.83	56.34	-36.7	-37.6	24.1	0.00e+00	0	29	0	778043392	46	6104
2026-01-15 01:06:30.25	258.63	56.33	-36.6	-37.4	24.3	0.00e+00	0	29	0	779091968	46	6016
2026-01-15 01:06:31.26	259.43	56.31	-37.4	-38.3	23.4	0.00e+00	0	29	0	781189120	46	6644
2026-01-15 01:06:32.26	260.22	56.29	-38.7	-39.8	22.5	0.00e+00	0	29	0	783286272	48	7059
2026-01-15 01:06:33.27	261.02	56.27	-38.8	-39.8	22.4	0.00e+00	0	29	0	785383424	50	6298
2026-01-15 01:06:34.28	261.82	56.24	-37.3	-38.2	23.8	0.00e+00	0	29	0	787480576	48	5883
2026-01-15 01:06:35.29	262.61	56.21	-36.6	-37.4	23.6	0.00e+00	0	29	0	789577728	46	6024
2026-01-15 01:06:36.30	263.40	56.17	-37.6	-38.5	23.5	0.00e+00	0	29	0	790626304	46	6844
2026-01-15 01:06:37.31	264.19	56.12	-37.7	-38.7	23.3	0.00e+00	0	29	0	792723456	48	6201
2026-01-15 01:06:38.32	264.98	56.07	-37.2	-38.1	23.7	0.00e+00	0	29	0	794820608	48	5777
2026-01-15 01:06:39.33	265.77	56.01	-36.7	-37.5	24.2	0.00e+00	0	29	0	796917760	48	5419
2026-01-15 01:06:40.34	266.55	55.95	-36.9	-37.8	24.0	0.00e+00	0	29	0	797966336	46	6265
2026-01-15 01:06:41.35	267.32	55.89	-37.3	-38.1	23.8	0.00e+00	0	29	0	800063488	46	6531
2026-01-15 01:06:42.36	268.10	55.82	-37.2	-38.0	23.9	0.00e+00	0	29	0	802160640	46	6461
2026-01-15 01:06:43.37	268.87	55.74	-36.8	-37.6	24.1	0.00e+00	0	29	0	804257792	46	6140
2026-01-15 01:06:44.37	269.63	55.66	-36.1	-36.9	24.5	0.00e+00	0	29	0	806354944	46	5675
2026-01-15 01:06:45.38	270.39	55.58	-36.3	-37.1	24.4	0.00e+00	0	29	0	807403520	46	5800
2026-01-15 01:06:46.39	271.15	55.49	-37.5	-38.4	23.2	0.00e+00	0	29	0	809500672	46	6757
2026-01-15 01:06:47.40	271.90	55.39	-38.6	-39.6	22.5	0.00e+00	0	29	0	811597824	48	6899
2026-01-15 01:06:48.41	272.64	55.29	-38.7	-39.7	22.6	0.00e+00	0	29	0	813694976	50	6240
2026-01-15 01:06:49.42	273.38	55.19	-38.3	-39.3	22.9	0.00e+00	0	29	0	815792128	50	5911
2026-01-15 01:06:50.43	274.12	55.08	-37.4	-38.3	23.6	0.00e+00	0	29	0	817889280	48	5904
2026-01-15 01:06:51.44	274.85	54.97	-37.4	-38.3	23.6	0.00e+00	0	29	0	818937856	48	5917
2026-01-15 01:06:52.45	275.57	54.85	-37.7	-38.6	23.3	0.00e+00	0	29	0	821035008	48	6147
2026-01-15 01:06:53.46	276.29	54.73	-38.0	-39.0	23.0	0.00e+00	0	29	0	823132160	48	6463
2026-01-15 01:06:54.47	277.00	54.61	-38.3	-39.4	22.7	0.00e+00	0	29	0	825229312	48	6699
2026-01-15 01:06:55.48	277.71	54.48	-38.4	-39.4	22.6	0.00e+00	0	29	0	827326464	48	6721
2026-01-15 01:06:56.49	278.41	54.34	-39.6	-40.7	21.6	0.00e+00	0	29	0	828375040	50	6963
2026-01-15 01:06:57.50	279.10	54.21	-40.2	-41.5	21.0	0.00e+00	0	29	0	830472192	52	6830
2026-01-15 01:06:58.51	279.79	54.07	-39.6	-40.8	21.7	0.00e+00	0	29	0	832569344	52	6274
2026-01-15 01:06:59.52	280.47	53.92	-37.8	-38.7	23.2	0.00e+00	0	29	0	834666496	48	6232
2026-01-15 01:07:00.53	281.14	53.78	-37.1	-38.0	23.9	0.00e+00	0	29	0	836763648	48	5712
2026-01-15 01:07:01.54	281.81	53.63	-37.9	-38.8	23.3	0.00e+00	0	29	0	837812224	48	6255
2026-01-15 01:07:02.55	282.47	53.47	-37.4	-38.2	23.7	0.00e+00	0	29	0	839909376	48	5893
2026-01-15 01:07:03.55	283.11	53.31	-37.1	-37.9	23.9	0.00e+00	0	29	0	842006528	48	5652
2026-01-15 01:07:04.56	283.76	53.15	-36.8	-37.6	24.0	0.00e+00	0	29	0	844103680	46	6167
2026-01-15 01:07:05.57	284.39	52.99	-36.5	-37.3	24.3	0.00e+00	0	29	0	846200832	46	5937
2026-01-15 01:07:06.58	285.02	52.82	-36.8	-37.6	24.2	0.00e+00	0	29	0	847249408	46	6144
2026-01-15 01:07:07.59	285.65	52.65	-37.0	-37.8	23.9	0.00e+00	0	29	0	849346560	46	6303
2026-01-15 01:07:08.60	286.26	52.48	-37.6	-38.4	23.4	0.00e+00	0	29	0	851443712	46	6766
2026-01-15 01:07:09.61	286.87	52.31	-37.9	-38.8	23.2	0.00e+00	0	29	0	853540864	48	6268
2026-01-15 01:07:10.61	287.47	52.13	-37.7	-38.7	23.2	0.00e+00	0	29	0	855638016	48	6188
2026-01-15 01:07:11.62	288.07	51.95	-37.8	-38.7	23.4	0.00e+00	0	29	0	856686592	48	6236
2026-01-15 01:07:12.63	288.65	51.77	-38.4	-39.3	22.8	0.00e+00	0	29	0	858783744	48	6680
2026-01-15 01:07:13.64	289.23	51.58	-39.0	-40.1	22.2	0.00e+00	0	29	0	860880896	50	6467
2026-01-15 01:07:14.65	289.81	51.40	-38.2	-39.1	22.9	0.00e+00	0	29	0	862978048	50	5825
2026-01-15 01:07:15.66	290.37	51.21	-38.3	-39.2	22.8	0.00e+00	0	29	0	865075200	50	5882
2026-01-15 01:07:16.67	290.93	51.02	-38.8	-39.8	22.3	0.00e+00	0	29	0	866123776	50	6297
2026-01-15 01:07:17.68	291.48	50.82	-39.5	-40.6	21.7	0.00e+00	0	29	0	868220928	50	6893
2026-01-15 01:07:18.69	292.03	50.63	-39.9	-41.1	21.4	0.00e+00	0	29	0	870318080	52	6496
2026-01-15 01:07:19.69	292.56	50.43	-38.7	-39.7	22.7	0.00e+00	0	29	0	872415232	52	5545
2026-01-15 01:07:20.70	293.09	50.23	-37.5	-38.4	23.5	0.00e+00	0	29	0	874512384	48	6004
2026-01-15 01:07:21.71	293.62	50.03	-37.4	-38.3	23.7	0.00e+00	0	29	0	875560960	48	5909
2026-01-15 01:07:22.72	294.14	49.83	-37.9	-38.8	23.2	0.00e+00	0	29	0	877658112	48	6277
2026-01-15 01:07:23.73	294.65	49.63	-38.7	-39.7	22.1	0.00e+00	0	29	0	879755264	48	6989
2026-01-15 01:07:24.74	295.15	49.42	-40.4	-41.7	20.9	0.00e+00	0	29	0	881852416	52	6952
2026-01-15 01:07:25.75	295.65	49.22	-41.1	-42.5	20.1	0.00e+00	0	29	0	883949568	54	6815
2026-01-15 01:07:26.76	296.14	49.01	-39.7	-40.8	21.6	0.00e+00	0	29	0	884998144	54	5593
2026-01-15 01:07:27.77	296.62	48.80	-38.4	-39.3	23.0	0.00e+00	0	29	0	887095296	50	5943
2026-01-15 01:07:28.78	297.10	48.59	-37.4	-38.3	23.5	0.00e+00	0	29	0	889192448	48	5914
2026-01-15 01:07:29.79	297.57	48.38	-38.6	-39.5	22.7	0.00e+00	0	29	0	891289600	48	6842
2026-01-15 01:07:30.80	298.04	48.17	-38.8	-39.8	22.5	0.00e+00	0	29	0	893386752	50	6286
2026-01-15 01:07:31.81	298.49	47.96	-38.2	-39.2	22.9	0.00e+00	0	29	0	895483904	50	5829
2026-01-15 01:07:32.81	298.94	47.75	-37.5	-38.4	23.5	0.00e+00	0	29	0	896532480	48	5992
2026-01-15 01:07:33.82	299.39	47.53	-36.9	-37.7	24.0	0.00e+00	0	29	0	898629632	48	5566
2026-01-15 01:07:34.83	299.83	47.32	-37.3	-38.2	23.7	0.00e+00	0	29	0	900726784	46	6549
2026-01-15 01:07:35.84	300.26	47.10	-38.2	-39.2	23.0	0.00e+00	0	29	0	902823936	48	6558
2026-01-15 01:07:36.85	300.69	46.89	-39.5	-40.6	21.7	0.00e+00	0	29	0	904921088	50	6886
2026-01-15 01:07:37.86	301.11	46.67	-39.0	-40.1	22.3	0.00e+00	0	29	0	905969664	52	5813
2026-01-15 01:07:38.87	301.53	46.45	-37.4	-38.2	23.6	0.00e+00	0	29	0	908066816	48	5889
2026-01-15 01:07:39.88	301.94	46.23	-37.0	-37.9	24.0	0.00e+00	0	29	0	910163968	48	5635
2026-01-15 01:07:40.89	302.35	46.02	-37.7	-38.6	23.4	0.00e+00	0	29	0	912261120	48	6154
2026-01-15 01:07:41.90	302.75	45.80	-39.8	-41.0	21.3	0.00e+00	0	29	0	914358272	50	7187
2026-01-15 01:07:42.91	303.14	45.58	-42.0	-43.6	19.4	0.00e+00	0	29	0	915406848	56	6900
2026-01-15 01:07:43.92	303.53	45.36	-42.6	-44.5	18.2	0.00e+00	0	29	0	917504000	56	7678
2026-01-15 01:07:44.93	303.91	45.14	-42.1	-43.9	19.0	0.00e+00	0	29	0	919601152	58	6365
2026-01-15 01:07:45.94	304.29	44.92	-40.8	-42.0	20.7	0.00e+00	0	29	0	921698304	56	5744
2026-01-15 01:07:46.95	304.67	44.70	-40.5	-41.7	20.8	0.00e+00	0	29	0	923795456	54	6245
2026-01-15 01:07:47.96	305.04	44.48	-40.9	-42.1	20.4	0.00e+00	0	29	0	924844032	54	6536
2026-01-15 01:07:48.97	305.40	44.26	-43.1	-44.9	17.9	0.00e+00	0	29	0	926941184	58	7145
2026-01-15 01:07:49.98	305.76	44.04	-45.1	-48.1	14.1	0.00e+00	0	29	0	929038336	60	9142
2026-01-15 01:07:50.99	306.11	43.82	-46.2	-50.0	12.7	1.08e-04	0	29	0	931135488	60	11394
2026-01-15 01:07:52.00	306.46	43.60	-44.6	-47.3	15.9	1.52e-05	0	29	0	933232640	60	8329
2026-01-15 01:07:53.01	306.80	43.38	-44.0	-46.2	16.8	0.00e+00	0	29	0	934281216	60	7343
2026-01-15 01:07:54.01	307.14	43.17	-43.9	-46.0	16.7	0.00e+00	0	29	0	936378368	60	7224
2026-01-15 01:07:55.02	307.48	42.95	-45.6	-48.6	14.1	0.00e+00	0	29	0	938475520	60	9725
2026-01-15 01:07:56.03	307.81	42.73	-45.9	-49.2	13.7	2.20e-06	0	29	0	940572672	60	10365
2026-01-15 01:07:57.04	308.13	42.51	-45.3	-48.3	14.1	0.00e+00	0	29	0	942669824	60	9404
2026-01-15 01:07:58.05	308.45	42.29	-44.6	-47.2	15.9	0.00e+00	0	29	0	943718400	60	8267
2026-01-15 01:07:59.06	308.77	42.08	-44.2	-46.6	16.5	0.00e+00	0	29	0	945815552	60	7697
2026-01-15 01:08:00.07	309.09	41.86	-44.9	-47.6	15.0	0.00e+00	0	29	0	947912704	60	8639
2026-01-15 01:08:01.08	309.40	41.64	-44.0	-46.1	16.9	0.00e+00	0	29	0	950009856	60	7306
2026-01-15 01:08:02.09	309.70	41.42	-41.6	-42.9	20.0	0.00e+00	0	29	0	952107008	58	5693
2026-01-15 01:08:03.10	310.00	41.21	-40.3	-41.5	21.0	0.00e+00	0	29	0	953155584	54	6055
2026-01-15 01:08:04.10	310.30	40.99	-40.2	-41.3	21.1	0.00e+00	0	29	0	955252736	54	5962
2026-01-15 01:08:05.11	310.59	40.78	-41.5	-42.9	19.6	0.00e+00	0	29	0	957349888	54	7122
2026-01-15 01:08:06.12	310.88	40.56	-42.7	-44.4	18.2	0.00e+00	0	29	0	959447040	58	6748
2026-01-15 01:08:07.13	311.17	40.35	-41.8	-43.2	19.4	0.00e+00	0	29	0	961544192	56	6615
2026-01-15 01:08:08.13	311.44	40.14	-41.1	-42.4	20.4	0.00e+00	0	29	0	962592768	56	5990
2026-01-15 01:08:09.14	311.72	39.93	-40.8	-42.1	20.6	0.00e+00	0	29	0	964689920	54	6469
2026-01-15 01:08:10.15	312.00	39.71	-40.5	-41.7	20.8	0.00e+00	0	29	0	966787072	54	6221
2026-01-15 01:08:11.16	312.27	39.50	-40.9	-42.2	20.3	0.00e+00	0	29	0	968884224	54	6549
2026-01-15 01:08:12.16	312.53	39.29	-40.8	-42.1	20.4	0.00e+00	0	29	0	970981376	54	6520
2026-01-15 01:08:13.17	312.80	39.08	-41.1	-42.4	20.4	0.00e+00	0	29	0	972029952	54	6726
2026-01-15 01:08:14.18	313.06	38.87	-41.5	-42.9	19.7	0.00e+00	0	29	0	974127104	54	7140
2026-01-15 01:08:15.18	313.32	38.66	-41.7	-43.2	19.6	0.00e+00	0	29	0	976224256	56	6548
2026-01-15 01:08:16.19	313.57	38.45	-41.2	-42.6	20.1	0.00e+00	0	29	0	978321408	56	6152
2026-01-15 01:08:17.20	313.82	38.25	-39.7	-40.9	21.7	0.00e+00	0	29	0	980418560	54	5647
2026-01-15 01:08:18.22	314.07	38.04	-38.6	-39.6	22.5	0.00e+00	0	29	0	981467136	50	6130
2026-01-15 01:08:19.23	314.32	37.83	-37.9	-38.8	23.3	0.00e+00	0	30	0	983564288	50	5598
2026-01-15 01:08:20.24	314.56	37.62	-37.8	-38.7	23.3	0.00e+00	0	29	0	985661440	48	6222
2026-01-15 01:08:21.25	314.80	37.42	-38.3	-39.3	22.6	0.00e+00	0	29	0	987758592	48	6643
2026-01-15 01:08:22.25	315.04	37.21	-39.5	-40.6	21.6	0.00e+00	0	29	0	989855744	50	6888
2026-01-15 01:08:23.27	315.27	37.01	-40.2	-41.4	21.5	0.00e+00	0	29	0	991952896	52	6707
2026-01-15 01:08:24.27	315.50	36.81	-39.5	-40.6	21.5	0.00e+00	0	29	0	993001472	52	6166
2026-01-15 01:08:25.29	315.73	36.60	-39.0	-40.0	22.3	0.00e+00	0	29	0	995098624	52	5753
2026-01-15 01:08:26.30	315.95	36.40	-37.8	-38.7	23.3	0.00e+00	0	29	0	997195776	50	5524
2026-01-15 01:08:27.30	316.17	36.20	-37.4	-38.3	23.5	0.00e+00	0	29	0	999292928	48	5935
2026-01-15 01:08:28.31	316.39	36.00	-37.6	-38.5	23.5	0.00e+00	0	29	0	1001390080	48	6057
2026-01-15 01:08:29.32	316.61	35.80	-38.1	-39.0	22.9	0.00e+00	0	29	0	1002438656	48	6424
2026-01-15 01:08:30.33	316.83	35.61	-39.0	-40.0	22.3	0.00e+00	0	29	0	1004535808	50	6402
2026-01-15 01:08:31.34	317.04	35.41	-39.5	-40.6	21.7	0.00e+00	0	29	0	1006632960	50	6903
2026-01-15 01:08:32.35	317.25	35.21	-40.0	-41.1	21.1	0.00e+00	0	29	0	1008730112	52	6519
2026-01-15 01:08:33.36	317.46	35.01	-40.1	-41.3	21.2	0.00e+00	0	29	0	1010827264	52	6617
2026-01-15 01:08:34.37	317.66	34.82	-39.9	-41.1	21.4	0.00e+00	0	29	0	1011875840	52	6476
2026-01-15 01:08:35.38	317.86	34.63	-38.9	-39.9	22.3	0.00e+00	0	29	0	1013972992	52	5670
2026-01-15 01:08:36.39	318.06	34.43	-38.5	-39.5	22.6	0.00e+00	0	29	0	1016070144	50	6082
2026-01-15 01:08:37.40	318.26	34.24	-38.2	-39.2	22.8	0.00e+00	0	29	0	1018167296	50	5853
2026-01-15 01:08:38.41	318.46	34.05	-38.1	-39.1	23.0	0.00e+00	0	29	0	1020264448	50	5763
2026-01-15 01:08:39.42	318.65	33.86	-38.3	-39.2	22.9	0.00e+00	0	29	0	1021313024	50	5884
2026-01-15 01:08:40.42	318.84	33.67	-38.8	-39.8	22.5	0.00e+00	0	29	0	1023410176	50	6292
2026-01-15 01:08:41.43	319.03	33.48	-38.9	-39.9	22.4	0.00e+00	0	29	0	1025507328	50	6390
2026-01-15 01:08:42.44	319.21	33.29	-39.6	-40.7	21.6	0.00e+00	0	29	0	1027604480	50	6942
2026-01-15 01:08:43.45	319.40	33.10	-40.0	-41.2	21.3	0.00e+00	0	29	0	1029701632	52	6591
2026-01-15 01:08:44.46	319.58	32.92	-40.2	-41.4	21.1	0.00e+00	0	29	0	1030750208	52	6750
2026-01-15 01:08:45.47	319.76	32.73	-39.8	-41.0	21.6	0.00e+00	0	29	0	1032847360	52	6405
2026-01-15 01:08:46.48	319.94	32.54	-39.4	-40.5	22.1	0.00e+00	0	30	0	1034944512	52	6062
2026-01-15 01:08:47.49	320.12	32.36	-38.9	-40.0	22.3	0.00e+00	0	29	0	1037041664	52	5728
2026-01-15 01:08:48.50	320.29	32.18	-38.8	-39.8	22.4	0.00e+00	0	29	0	1039138816	50	6253
2026-01-15 01:08:49.51	320.46	31.99	-38.9	-39.9	22.3	0.00e+00	0	29	0	1040187392	50	6359
2026-01-15 01:08:50.51	320.63	31.81	-39.1	-40.1	22.2	0.00e+00	0	29	0	1042284544	50	6526
2026-01-15 01:08:51.52	320.80	31.63	-38.7	-39.6	22.5	0.00e+00	0	29	0	1044381696	50	6170
2026-01-15 01:08:52.53	320.97	31.45	-39.1	-40.0	22.2	0.00e+00	0	29	0	1046478848	50	6464
2026-01-15 01:08:53.54	321.13	31.27	-38.7	-39.6	22.6	0.00e+00	0	29	0	1048576000	50	6148
2026-01-15 01:08:54.55	321.30	31.10	-38.6	-39.6	22.6	0.00e+00	0	29	0	1049624576	50	6140
2026-01-15 01:08:55.56	321.46	30.92	-38.7	-39.6	22.5	0.00e+00	0	29	0	1051721728	50	6173
2026-01-15 01:08:56.57	321.62	30.74	-39.0	-40.0	22.4	0.00e+00	0	29	0	1053818880	50	6394
2026-01-15 01:08:57.58	321.78	30.57	-39.5	-40.6	21.7	0.00e+00	0	29	0	1055916032	50	6893
2026-01-15 01:08:58.59	321.94	30.39	-39.8	-41.0	21.4	0.00e+00	0	29	0	1058013184	52	6398
2026-01-15 01:08:59.60	322.09	30.22	-40.1	-41.3	21.0	0.00e+00	0	29	0	1060110336	52	6650
2026-01-15 01:09:00.61	322.24	30.04	-40.7	-42.0	19.9	0.00e+00	0	29	0	1061158912	52	7204
2026-01-15 01:09:01.61	322.39	29.87	-41.0	-42.4	20.0	0.00e+00	0	29	0	1063256064	54	6697
2026-01-15 01:09:02.62	322.54	29.70	-41.2	-42.6	19.8	0.00e+00	0	29	0	1065353216	54	6889
2026-01-15 01:09:03.63	322.69	29.53	-41.3	-42.6	20.0	0.00e+00	0	29	0	1067450368	54	6898
2026-01-15 01:09:04.64	322.84	29.36	-41.1	-42.5	20.1	0.00e+00	0	29	0	1069547520	54	6781
2026-01-15 01:09:05.65	322.99	29.19	-40.0	-41.1	21.3	0.00e+00	0	29	0	1070596096	54	5795
2026-01-15 01:09:06.66	323.13	29.02	-39.5	-40.6	21.7	0.00e+00	0	29	0	1072693248	52	6115
2026-01-15 01:09:07.67	323.27	28.86	-38.7	-39.7	22.5	0.00e+00	0	29	0	1074790400	52	5525
2026-01-15 01:09:08.68	323.42	28.69	-38.3	-39.3	22.8	0.00e+00	0	29	0	1076887552	50	5920
2026-01-15 01:09:09.69	323.56	28.52	-38.5	-39.4	22.7	0.00e+00	0	29	0	1078984704	50	6005
2026-01-15 01:09:10.70	323.69	28.36	-37.9	-38.9	23.0	0.00e+00	0	29	0	1080033280	50	5638
2026-01-15 01:09:11.71	323.83	28.19	-38.0	-38.9	23.0	0.00e+00	0	29	0	1082130432	50	5672
2026-01-15 01:09:12.72	323.97	28.03	-38.4	-39.4	22.7	0.00e+00	0	29	0	1084227584	50	5987
2026-01-15 01:09:13.73	324.10	27.87	-38.3	-39.3	22.8	0.00e+00	0	29	0	1086324736	50	5956
2026-01-15 01:09:14.74	324.24	27.71	-38.6	-39.7	22.4	0.00e+00	0	29	0	1088421888	50	6182
2026-01-15 01:09:15.75	324.37	27.55	-38.5	-39.5	22.6	0.00e+00	0	29	0	1089470464	50	6092
2026-01-15 01:09:16.76	324.50	27.39	-38.2	-39.2	22.6	0.00e+00	0	29	0	1091567616	50	5840
2026-01-15 01:09:17.77	324.63	27.23	-38.0	-39.0	23.1	0.00e+00	0	29	0	1093664768	50	5708
2026-01-15 01:09:18.77	324.76	27.07	-37.7	-38.6	23.3	0.00e+00	0	29	0	1095761920	48	6162
2026-01-15 01:09:19.78	324.88	26.91	-37.1	-38.0	23.6	0.00e+00	0	29	0	1097859072	48	5739
2026-01-15 01:09:20.79	325.01	26.75	-36.8	-37.6	24.1	0.00e+00	0	29	0	1098907648	46	6138
2026-01-15 01:09:21.80	325.13	26.60	-37.0	-37.8	23.8	0.00e+00	0	29	0	1101004800	46	6297
2026-01-15 01:09:22.81	325.26	26.44	-36.7	-37.5	24.0	0.00e+00	0	29	0	1103101952	46	6075
2026-01-15 01:09:23.81	325.38	26.29	-37.4	-38.3	23.5	0.00e+00	0	29	0	1105199104	46	6644
2026-01-15 01:09:24.82	325.50	26.13	-37.6	-38.5	23.3	0.00e+00	0	29	0	1107296256	48	6063
2026-01-15 01:09:25.83	325.62	25.98	-37.9	-38.8	22.9	0.00e+00	0	29	0	1108344832	48	6275
2026-01-15 01:09:26.85	325.74	25.83	-39.0	-40.1	22.0	0.00e+00	0	29	0	1110441984	50	6471
2026-01-15 01:09:27.86	325.86	25.68	-39.5	-40.6	21.6	0.00e+00	0	29	0	1112539136	50	6905
2026-01-15 01:09:28.87	325.97	25.52	-40.6	-41.9	20.5	0.00e+00	0	29	0	1114636288	52	7141
2026-01-15 01:09:29.87	326.09	25.38	-41.6	-43.2	19.4	0.00e+00	0	29	0	1116733440	54	7358
2026-01-15 01:09:30.89	326.20	25.23	-41.9	-43.5	19.0	0.00e+00	0	29	0	1117782016	56	6825
2026-01-15 01:09:31.90	326.32	25.08	-42.5	-44.3	18.2	0.00e+00	0	29	0	1119879168	56	7431
2026-01-15 01:09:32.91	326.43	24.93	-42.4	-44.2	18.3	0.00e+00	0	29	0	1121976320	56	7362
2026-01-15 01:09:33.92	326.54	24.78	-42.1	-43.8	18.7	0.00e+00	0	29	0	1124073472	56	7023
2026-01-15 01:09:34.93	326.65	24.63	-41.9	-43.6	19.2	0.00e+00	0	29	0	1126170624	56	6861
2026-01-15 01:09:35.94	326.76	24.49	-41.1	-42.5	19.9	0.00e+00	0	29	0	1127219200	56	6090
2026-01-15 01:09:36.95	326.87	24.34	-40.5	-41.9	20.5	0.00e+00	0	29	0	1129316352	54	6321
2026-01-15 01:09:37.95	326.98	24.20	-39.7	-40.9	21.3	0.00e+00	0	29	0	1131413504	54	5675
2026-01-15 01:09:38.96	327.08	24.06	-39.3	-40.4	21.8	0.00e+00	0	29	0	1133510656	52	5989
2026-01-15 01:09:39.97	327.19	23.91	-38.9	-39.9	22.2	0.00e+00	0	29	0	1135607808	52	5656
2026-01-15 01:09:40.98	327.30	23.77	-38.7	-39.7	22.4	0.00e+00	0	29	0	1136656384	50	6218
2026-01-15 01:09:41.99	327.40	23.63	-38.4	-39.3	22.6	0.00e+00	0	29	0	1138753536	50	5964
2026-01-15 01:09:43.00	327.50	23.49	-37.9	-38.8	23.1	0.00e+00	0	29	0	1140850688	50	5630
2026-01-15 01:09:44.01	327.60	23.35	-37.8	-38.8	22.9	0.00e+00	0	29	0	1142947840	50	5596
2026-01-15 01:09:45.02	327.71	23.21	-37.8	-38.8	23.1	0.00e+00	0	29	0	1145044992	48	6252
2026-01-15 01:09:46.03	327.81	23.07	-37.8	-38.7	22.9	0.00e+00	0	29	0	1146093568	48	6241
2026-01-15 01:09:47.04	327.91	22.93	-38.1	-39.1	22.8	0.00e+00	0	29	0	1148190720	48	6511
2026-01-15 01:09:48.05	328.01	22.79	-38.1	-39.1	22.8	0.00e+00	0	29	0	1150287872	48	6518
2026-01-15 01:09:49.06	328.10	22.66	-38.4	-39.5	22.5	0.00e+00	0	29	0	1152385024	48	6792
2026-01-15 01:09:50.07	328.20	22.52	-38.4	-39.4	22.6	0.00e+00	0	29	0	1154482176	48	6756
2026-01-15 01:09:51.08	328.30	22.38	-38.4	-39.4	22.6	0.00e+00	0	29	0	1156579328	48	6764
2026-01-15 01:09:52.09	328.39	22.25	-38.8	-39.9	22.2	0.00e+00	0	29	0	1157627904	50	6346
2026-01-15 01:09:53.10	328.49	22.11	-39.0	-40.1	22.0	0.00e+00	0	29	0	1159725056	50	6472
2026-01-15 01:09:54.11	328.58	21.98	-39.0	-40.1	21.9	0.00e+00	0	29	0	1161822208	50	6483
2026-01-15 01:09:55.12	328.67	21.85	-39.3	-40.5	21.6	0.00e+00	0	29	0	1163919360	50	6836
2026-01-15 01:09:56.13	328.77	21.71	-39.1	-40.3	21.9	0.00e+00	0	29	0	1166016512	50	6638
2026-01-15 01:09:57.14	328.86	21.58	-39.3	-40.5	21.6	0.00e+00	0	29	0	1167065088	50	6780
2026-01-15 01:09:58.15	328.95	21.45	-39.4	-40.6	21.5	0.00e+00	0	29	0	1169162240	50	6868
2026-01-15 01:09:59.15	329.04	21.32	-39.3	-40.4	21.7	0.00e+00	0	29	0	1171259392	50	6763
2026-01-15 01:10:00.16	329.13	21.19	-39.3	-40.5	21.8	0.00e+00	0	29	0	1173356544	50	6779
2026-01-15 01:10:01.17	329.22	21.06	-39.2	-40.4	21.8	0.00e+00	0	29	0	1175453696	50	6695
2026-01-15 01:10:02.18	329.31	20.93	-39.2	-40.3	21.9	0.00e+00	0	29	0	1176502272	50	6652
2026-01-15 01:10:03.19	329.39	20.80	-39.1	-40.2	22.0	0.00e+00	0	29	0	1178599424	50	6563
2026-01-15 01:10:04.20	329.48	20.68	-38.7	-39.7	22.2	0.00e+00	0	29	0	1180696576	50	6190
2026-01-15 01:10:05.21	329.57	20.55	-38.5	-39.5	22.4	0.00e+00	0	29	0	1182793728	50	6098
2026-01-15 01:10:06.22	329.65	20.42	-38.3	-39.2	22.7	0.00e+00	0	29	0	1184890880	50	5879
2026-01-15 01:10:07.23	329.74	20.30	-38.1	-39.1	22.9	0.00e+00	0	29	0	1185939456	50	5772
2026-01-15 01:10:08.24	329.82	20.17	-37.8	-38.7	23.1	0.00e+00	0	29	0	1188036608	50	5558
2026-01-15 01:10:09.25	329.90	20.05	-37.8	-38.7	23.1	0.00e+00	0	29	0	1190133760	48	6213
2026-01-15 01:10:10.26	329.99	19.92	-37.7	-38.7	23.2	0.00e+00	0	29	0	1192230912	48	6184
2026-01-15 01:10:11.27	330.07	19.80	-37.6	-38.5	23.2	0.00e+00	0	29	0	1194328064	48	6073
2026-01-15 01:10:12.28	330.15	19.68	-37.5	-38.4	23.4	0.00e+00	0	29	0	1195376640	48	5980
2026-01-15 01:10:13.29	330.23	19.55	-37.5	-38.4	23.3	0.00e+00	0	29	0	1197473792	48	5987
2026-01-15 01:10:14.30	330.31	19.43	-37.6	-38.6	23.2	0.00e+00	0	29	0	1199570944	48	6104
2026-01-15 01:10:15.31	330.39	19.31	-37.6	-38.6	23.2	0.00e+00	0	29	0	1201668096	48	6112
2026-01-15 01:10:16.32	330.47	19.19	-37.6	-38.5	23.2	0.00e+00	0	29	0	1203765248	48	6062
2026-01-15 01:10:17.32	330.55	19.07	-37.9	-38.9	23.0	0.00e+00	0	29	0	1204813824	48	6338
2026-01-15 01:10:18.33	330.63	18.95	-37.9	-38.8	22.9	0.00e+00	0	29	0	1206910976	48	6311
2026-01-15 01:10:19.34	330.70	18.83	-37.8	-38.8	23.0	0.00e+00	0	29	0	1209008128	48	6269
2026-01-15 01:10:20.35	330.78	18.71	-37.9	-38.8	22.8	0.00e+00	0	29	0	1211105280	48	6304
2026-01-15 01:10:21.36	330.86	18.59	-37.8	-38.7	23.0	0.00e+00	0	29	0	1213202432	48	6226
2026-01-15 01:10:22.37	330.93	18.48	-37.8	-38.8	23.0	0.00e+00	0	29	0	1214251008	48	6254
2026-01-15 01:10:23.38	331.01	18.36	-37.7	-38.7	23.0	0.00e+00	0	29	0	1216348160	48	6179
