passes_logs/2026/01/15/R4.6S_Anadyr/R4.6S_Anadyr__20260115_180440_SUOMI_NPP_rec.log

#Pass ID: 20260115_180440_SUOMI NPP
#Satellite: SUOMI NPP
#Configuration: NPP
#almurnet v.1.7.20251203
#Start time: 2026-01-15 18:04:42

#Version: 2.2.20231116
#Station: R4.6S_Anadyr
#Location: 177.4865 lon 64.73178 lat
#TLE: 1 37849U 11061A   26014.61059675  .00000037  00000+0  38639-4 0  9994
#TLE: 2 37849  98.7810 316.6625 0002460  64.3781 295.7649 14.19525105736658

#Time	Az	El	Level	Level2	SNR	BER	BlckErr	Temp	State	Recorded	gain1	gain2
2026-01-15 18:04:42.36	36.41	0.10	-48.0	-59.7	3.5	8.46e-01	0	24	0	0	60	34756
2026-01-15 18:04:43.37	36.34	0.15	-48.1	-63.3	3.6	1.51e+00	0	26	104	0	60	52955
2026-01-15 18:04:44.38	36.27	0.20	-48.0	-63.3	3.6	1.51e+00	0	26	104	0	60	52894
2026-01-15 18:04:45.39	36.20	0.25	-48.1	-63.4	3.6	1.51e+00	0	26	104	0	60	53402
2026-01-15 18:04:46.40	36.14	0.30	-48.2	-63.4	3.6	1.51e+00	0	26	104	0	60	53584
2026-01-15 18:04:47.41	36.07	0.36	-48.3	-63.5	3.6	1.51e+00	0	26	104	0	60	53895
2026-01-15 18:04:48.42	36.00	0.41	-48.1	-63.4	3.6	1.51e+00	0	26	104	0	60	53418
2026-01-15 18:04:49.43	35.93	0.46	-48.1	-63.4	3.6	1.51e+00	0	26	104	0	60	53257
2026-01-15 18:04:50.44	35.86	0.51	-48.1	-63.3	3.6	1.51e+00	0	26	104	0	60	53059
2026-01-15 18:04:51.45	35.79	0.56	-48.0	-63.2	3.6	1.51e+00	0	26	104	0	60	52533
2026-01-15 18:04:52.46	35.72	0.62	-48.0	-63.2	3.6	1.51e+00	0	26	104	0	60	51962
2026-01-15 18:04:53.47	35.65	0.67	-47.9	-63.1	3.6	1.51e+00	0	26	104	0	60	51858
2026-01-15 18:04:54.48	35.58	0.72	-47.7	-63.0	3.6	1.51e+00	0	26	104	0	60	51011
2026-01-15 18:04:55.49	35.51	0.77	-47.6	-62.9	3.6	1.51e+00	0	26	104	0	60	50190
2026-01-15 18:04:56.50	35.44	0.83	-47.4	-62.6	3.6	1.51e+00	0	26	104	0	60	48732
2026-01-15 18:04:57.51	35.37	0.88	-47.1	-62.3	3.6	1.51e+00	0	26	104	0	60	47012
2026-01-15 18:04:58.52	35.30	0.93	-46.5	-61.7	3.6	1.51e+00	0	26	104	0	60	43717
2026-01-15 18:04:59.53	35.23	0.98	-46.4	-61.6	3.6	1.51e+00	0	26	104	0	60	43228
2026-01-15 18:05:00.54	35.16	1.04	-46.4	-61.6	3.6	1.51e+00	0	26	104	0	60	43307
2026-01-15 18:05:01.55	35.09	1.09	-46.4	-61.6	3.6	1.51e+00	0	26	104	0	60	43227
2026-01-15 18:05:02.56	35.01	1.14	-46.4	-61.5	3.6	1.51e+00	0	26	104	0	60	42967
2026-01-15 18:05:03.57	34.94	1.19	-46.4	-61.5	3.6	1.51e+00	0	26	104	0	60	42822
2026-01-15 18:05:04.58	34.87	1.25	-46.4	-61.5	3.6	1.51e+00	0	26	104	0	60	42859
2026-01-15 18:05:05.59	34.80	1.30	-46.4	-61.5	3.6	1.51e+00	0	26	104	0	60	43146
2026-01-15 18:05:06.60	34.72	1.35	-46.4	-61.5	3.6	1.51e+00	0	26	104	0	60	43132
2026-01-15 18:05:07.61	34.65	1.41	-46.4	-61.5	3.6	1.51e+00	0	26	104	0	60	43161
2026-01-15 18:05:08.62	34.58	1.46	-46.4	-61.5	3.6	1.51e+00	0	26	104	0	60	42988
2026-01-15 18:05:09.63	34.50	1.51	-46.4	-61.4	3.6	1.51e+00	0	26	104	0	60	42296
2026-01-15 18:05:10.64	34.43	1.56	-46.3	-61.4	3.6	1.51e+00	0	26	104	0	60	42663
2026-01-15 18:05:11.65	34.35	1.62	-46.3	-61.5	3.6	1.51e+00	0	26	104	0	60	42787
2026-01-15 18:05:12.66	34.28	1.67	-46.3	-61.4	3.6	1.51e+00	0	26	104	0	60	42483
2026-01-15 18:05:13.67	34.20	1.72	-46.3	-61.4	3.6	1.51e+00	0	26	104	0	60	42696
2026-01-15 18:05:14.68	34.13	1.78	-46.3	-61.5	3.6	1.51e+00	0	26	104	0	60	42901
2026-01-15 18:05:15.69	34.05	1.83	-46.3	-61.5	3.6	1.51e+00	0	26	104	0	60	42790
2026-01-15 18:05:16.70	33.98	1.88	-46.3	-61.4	3.6	1.51e+00	0	26	104	0	60	42579
2026-01-15 18:05:17.71	33.90	1.94	-46.3	-61.3	3.6	1.51e+00	0	27	104	0	60	42111
2026-01-15 18:05:18.72	33.82	1.99	-46.3	-61.2	3.6	1.51e+00	0	26	104	0	60	41618
2026-01-15 18:05:19.73	33.75	2.04	-46.3	-61.1	3.6	1.51e+00	0	26	104	0	60	41043
2026-01-15 18:05:20.74	33.67	2.10	-46.3	-61.0	3.6	1.51e+00	0	26	104	0	60	40332
2026-01-15 18:05:21.75	33.59	2.15	-46.3	-61.0	3.6	1.51e+00	0	26	104	0	60	40769
2026-01-15 18:05:22.76	33.52	2.21	-46.3	-61.2	3.6	1.51e+00	0	27	104	0	60	41548
2026-01-15 18:05:23.77	33.44	2.26	-46.3	-61.4	3.6	1.51e+00	0	27	104	0	60	42565
2026-01-15 18:05:24.78	33.36	2.31	-46.3	-61.4	3.6	1.51e+00	0	27	104	0	60	42599
2026-01-15 18:05:25.79	33.28	2.37	-46.3	-61.5	3.6	1.51e+00	0	27	104	0	60	42776
2026-01-15 18:05:26.80	33.20	2.42	-46.3	-61.4	3.6	1.51e+00	0	26	104	0	60	42616
2026-01-15 18:05:27.81	33.12	2.48	-46.3	-61.5	3.6	1.51e+00	0	26	104	0	60	42882
2026-01-15 18:05:28.82	33.04	2.53	-46.3	-61.5	3.6	1.51e+00	0	26	104	0	60	42987
2026-01-15 18:05:29.83	32.96	2.58	-46.3	-61.4	3.6	1.51e+00	0	26	104	0	60	42474
2026-01-15 18:05:30.84	32.88	2.64	-46.3	-61.0	3.6	1.51e+00	0	27	104	0	60	40456
2026-01-15 18:05:31.85	32.80	2.69	-46.3	-60.5	3.6	1.51e+00	0	26	104	0	60	38323
2026-01-15 18:05:32.86	32.72	2.75	-46.3	-60.3	3.6	1.51e+00	0	27	104	0	60	37421
2026-01-15 18:05:33.87	32.64	2.80	-46.3	-60.7	3.6	1.51e+00	0	26	104	0	60	39146
2026-01-15 18:05:34.88	32.56	2.86	-46.3	-61.1	3.6	1.51e+00	0	27	104	0	60	40985
2026-01-15 18:05:35.89	32.48	2.91	-46.2	-59.4	3.7	1.51e+00	0	26	104	0	60	33714
2026-01-15 18:05:36.90	32.40	2.96	-46.0	-55.6	4.4	1.41e+00	0	27	0	0	60	21796
2026-01-15 18:05:37.91	32.31	3.02	-45.6	-52.6	6.8	2.61e-01	0	27	0	2097152	60	15427
2026-01-15 18:05:38.92	32.23	3.07	-45.3	-51.5	8.4	6.32e-02	0	27	0	4194304	60	13547
2026-01-15 18:05:39.93	32.15	3.13	-44.8	-49.9	10.0	1.62e-02	0	27	0	5242880	60	11357
2026-01-15 18:05:40.94	32.06	3.18	-46.3	-60.6	3.6	4.55e-01	0	27	104	7340032	60	38817
2026-01-15 18:05:41.95	31.98	3.24	-43.8	-47.6	5.8	1.50e+00	0	27	104	7340032	60	8652
2026-01-15 18:05:42.95	31.90	3.29	-46.2	-58.8	3.5	0.00e+00	0	27	0	7340032	60	31476
2026-01-15 18:05:43.96	31.81	3.35	-46.0	-55.3	4.4	1.51e+00	5	26	104	7340032	60	20993
2026-01-15 18:05:44.97	31.73	3.40	-42.0	-44.4	16.0	2.57e-02	0	26	0	7340032	56	7514
2026-01-15 18:05:45.98	31.64	3.46	-43.1	-46.1	14.5	4.57e-05	0	27	0	9437184	60	7278
2026-01-15 18:05:46.99	31.56	3.51	-42.8	-45.5	15.0	0.00e+00	0	27	0	10485760	60	6833
2026-01-15 18:05:48.00	31.47	3.57	-42.4	-44.9	16.0	0.00e+00	57	27	0	12582912	58	7122
2026-01-15 18:05:49.01	31.39	3.62	-41.6	-43.7	16.7	0.00e+00	0	27	0	14680064	56	6961
2026-01-15 18:05:50.02	31.30	3.68	-41.6	-43.7	16.9	0.00e+00	85	27	0	16777216	56	6951
2026-01-15 18:05:51.03	31.21	3.73	-41.5	-43.5	17.0	0.00e+00	0	27	0	18874368	56	6809
2026-01-15 18:05:52.04	31.13	3.79	-41.7	-43.9	16.7	0.00e+00	0	26	0	19922944	56	7117
2026-01-15 18:05:53.05	31.04	3.84	-41.6	-43.7	16.9	0.00e+00	0	27	0	22020096	56	6942
2026-01-15 18:05:54.06	30.95	3.90	-41.6	-43.7	16.4	0.00e+00	0	27	0	24117248	56	6949
2026-01-15 18:05:55.07	30.86	3.95	-41.3	-43.2	17.4	0.00e+00	83	26	0	26214400	56	6604
2026-01-15 18:05:56.08	30.78	4.01	-41.1	-43.0	17.6	0.00e+00	0	26	0	28311552	56	6440
2026-01-15 18:05:57.09	30.69	4.06	-40.5	-42.2	18.3	0.00e+00	68	27	0	29360128	54	6613
2026-01-15 18:05:58.09	30.60	4.12	-40.5	-42.2	18.3	0.00e+00	0	27	0	31457280	54	6574
2026-01-15 18:05:59.10	30.51	4.17	-40.3	-42.0	18.6	0.00e+00	0	27	0	33554432	54	6398
2026-01-15 18:06:00.11	30.42	4.23	-40.7	-42.4	18.2	0.00e+00	0	27	0	35651584	54	6716
2026-01-15 18:06:01.12	30.33	4.29	-40.4	-42.1	18.4	0.00e+00	0	27	0	37748736	54	6492
2026-01-15 18:06:02.13	30.24	4.34	-40.5	-42.1	18.5	0.00e+00	89	27	0	38797312	54	6529
2026-01-15 18:06:03.14	30.15	4.40	-40.5	-42.1	18.5	0.00e+00	0	27	0	40894464	54	6524
2026-01-15 18:06:04.15	30.06	4.45	-40.1	-41.7	18.8	0.00e+00	88	27	0	42991616	54	6207
2026-01-15 18:06:05.16	29.97	4.51	-40.1	-41.7	18.8	0.00e+00	0	27	0	45088768	54	6192
2026-01-15 18:06:06.16	29.87	4.56	-40.1	-41.7	18.9	0.00e+00	92	27	0	47185920	54	6176
2026-01-15 18:06:07.17	29.78	4.62	-40.0	-41.5	19.1	0.00e+00	0	27	0	48234496	54	6048
2026-01-15 18:06:08.18	29.69	4.68	-40.1	-41.7	19.2	0.00e+00	0	27	0	50331648	54	6183
2026-01-15 18:06:09.19	29.60	4.73	-39.9	-41.4	19.1	0.00e+00	0	27	0	52428800	54	5967
2026-01-15 18:06:10.20	29.50	4.79	-39.9	-41.3	19.3	0.00e+00	0	27	0	54525952	54	5960
2026-01-15 18:06:11.21	29.41	4.84	-40.1	-41.6	19.0	0.00e+00	39	27	0	56623104	54	6132
2026-01-15 18:06:12.22	29.32	4.90	-40.2	-41.8	18.9	0.00e+00	0	27	0	57671680	54	6257
2026-01-15 18:06:13.23	29.22	4.96	-40.2	-41.8	18.8	0.00e+00	80	27	0	59768832	54	6249
2026-01-15 18:06:14.24	29.13	5.01	-40.1	-41.7	19.0	0.00e+00	0	27	0	61865984	54	6179
2026-01-15 18:06:15.25	29.03	5.07	-40.0	-41.5	19.1	0.00e+00	0	27	0	63963136	54	6083
2026-01-15 18:06:16.26	28.94	5.13	-40.3	-41.8	18.9	0.00e+00	0	27	0	66060288	54	6297
2026-01-15 18:06:17.28	28.84	5.18	-40.4	-42.1	18.5	0.00e+00	0	27	0	67108864	54	6472
2026-01-15 18:06:18.29	28.74	5.24	-40.4	-42.0	18.7	0.00e+00	33	27	0	69206016	54	6447
2026-01-15 18:06:19.29	28.65	5.29	-40.4	-42.0	18.8	0.00e+00	0	27	0	71303168	54	6395
2026-01-15 18:06:20.30	28.55	5.35	-40.5	-42.2	18.6	0.00e+00	88	27	0	73400320	54	6550
2026-01-15 18:06:21.31	28.45	5.41	-41.0	-42.7	18.1	0.00e+00	0	27	0	75497472	54	6997
2026-01-15 18:06:22.32	28.35	5.46	-40.7	-42.4	18.4	0.00e+00	0	27	0	76546048	54	6713
2026-01-15 18:06:23.33	28.26	5.52	-40.6	-42.3	18.5	0.00e+00	0	27	0	78643200	54	6622
2026-01-15 18:06:24.33	28.16	5.58	-40.8	-42.5	18.3	0.00e+00	0	27	0	80740352	54	6813
2026-01-15 18:06:25.34	28.06	5.63	-40.8	-42.5	18.4	0.00e+00	55	27	0	82837504	54	6806
2026-01-15 18:06:26.36	27.96	5.69	-40.6	-42.2	18.5	0.00e+00	0	27	0	84934656	54	6601
2026-01-15 18:06:27.37	27.86	5.75	-40.6	-42.2	18.6	0.00e+00	52	27	0	85983232	54	6567
2026-01-15 18:06:28.37	27.76	5.80	-40.4	-42.0	18.8	0.00e+00	0	27	0	88080384	54	6442
2026-01-15 18:06:29.38	27.66	5.86	-40.5	-42.2	18.7	0.00e+00	0	26	0	90177536	54	6540
2026-01-15 18:06:30.39	27.56	5.92	-40.4	-42.0	18.8	0.00e+00	0	27	0	92274688	54	6427
2026-01-15 18:06:31.40	27.46	5.97	-40.5	-42.1	18.7	0.00e+00	0	27	0	94371840	54	6506
2026-01-15 18:06:32.41	27.35	6.03	-40.3	-41.9	18.8	0.00e+00	18	27	0	95420416	54	6321
2026-01-15 18:06:33.42	27.25	6.09	-40.5	-42.1	18.8	0.00e+00	0	27	0	97517568	54	6482
2026-01-15 18:06:34.43	27.15	6.15	-40.6	-42.2	18.8	0.00e+00	92	27	0	99614720	54	6555
2026-01-15 18:06:35.44	27.04	6.20	-40.6	-42.3	18.6	0.00e+00	0	27	0	101711872	54	6633
2026-01-15 18:06:36.45	26.94	6.26	-40.5	-42.1	18.8	0.00e+00	33	27	0	103809024	54	6506
2026-01-15 18:06:37.46	26.84	6.32	-40.2	-41.7	19.1	0.00e+00	0	27	0	105906176	54	6216
2026-01-15 18:06:38.47	26.73	6.37	-40.1	-41.6	19.1	0.00e+00	0	27	0	106954752	54	6168
2026-01-15 18:06:39.48	26.63	6.43	-40.3	-41.8	19.0	0.00e+00	0	27	0	109051904	54	6315
2026-01-15 18:06:40.49	26.52	6.49	-40.0	-41.4	19.4	0.00e+00	0	27	0	111149056	54	6025
2026-01-15 18:06:41.50	26.42	6.55	-39.9	-41.3	19.5	0.00e+00	83	27	0	113246208	54	5919
2026-01-15 18:06:42.51	26.31	6.60	-40.1	-41.5	18.8	0.00e+00	0	27	0	115343360	54	6099
2026-01-15 18:06:43.52	26.20	6.66	-40.1	-41.6	19.0	0.00e+00	82	27	0	116391936	54	6113
2026-01-15 18:06:44.53	26.10	6.72	-39.9	-41.4	19.4	0.00e+00	0	27	0	118489088	54	5969
2026-01-15 18:06:45.54	25.99	6.78	-40.1	-41.6	19.2	0.00e+00	0	27	0	120586240	54	6171
2026-01-15 18:06:46.55	25.88	6.83	-40.2	-41.7	19.2	0.00e+00	0	27	0	122683392	54	6243
2026-01-15 18:06:47.56	25.77	6.89	-40.1	-41.7	19.2	0.00e+00	0	27	0	124780544	54	6179
2026-01-15 18:06:48.57	25.66	6.95	-40.3	-41.9	19.1	0.00e+00	88	27	0	125829120	54	6349
2026-01-15 18:06:49.58	25.55	7.01	-40.3	-41.9	19.0	0.00e+00	0	27	0	127926272	54	6367
2026-01-15 18:06:50.59	25.44	7.06	-40.4	-42.1	18.9	0.00e+00	92	27	0	130023424	54	6467
2026-01-15 18:06:51.60	25.33	7.12	-40.2	-41.8	19.1	0.00e+00	0	27	0	132120576	54	6290
2026-01-15 18:06:52.61	25.22	7.18	-40.3	-41.9	19.1	0.00e+00	0	27	0	134217728	54	6336
2026-01-15 18:06:53.62	25.11	7.24	-40.2	-41.8	19.2	0.00e+00	0	27	0	135266304	54	6271
2026-01-15 18:06:54.62	25.00	7.29	-40.3	-41.8	19.1	0.00e+00	0	27	0	137363456	54	6295
2026-01-15 18:06:55.63	24.89	7.35	-40.3	-41.9	19.1	0.00e+00	87	27	0	139460608	54	6320
2026-01-15 18:06:56.64	24.78	7.41	-40.3	-41.9	19.1	0.00e+00	0	27	0	141557760	54	6362
2026-01-15 18:06:57.65	24.67	7.47	-40.3	-41.9	19.0	0.00e+00	83	27	0	143654912	54	6377
2026-01-15 18:06:58.66	24.55	7.52	-40.5	-42.1	19.0	0.00e+00	0	27	0	144703488	54	6484
2026-01-15 18:06:59.67	24.44	7.58	-40.4	-41.9	19.1	0.00e+00	0	27	0	146800640	54	6385
2026-01-15 18:07:00.68	24.32	7.64	-40.2	-41.7	19.2	0.00e+00	0	27	0	148897792	54	6232
2026-01-15 18:07:01.69	24.21	7.70	-40.1	-41.7	19.4	0.00e+00	0	27	0	150994944	54	6175
2026-01-15 18:07:02.70	24.09	7.76	-40.1	-41.6	19.4	0.00e+00	89	27	0	153092096	54	6104
2026-01-15 18:07:03.71	23.98	7.81	-40.2	-41.8	19.1	0.00e+00	0	27	0	154140672	54	6261
2026-01-15 18:07:04.72	23.86	7.87	-40.0	-41.4	19.6	0.00e+00	87	27	0	156237824	54	6027
2026-01-15 18:07:05.73	23.75	7.93	-39.7	-41.1	19.9	0.00e+00	0	27	0	158334976	52	6499
2026-01-15 18:07:06.74	23.63	7.99	-39.7	-41.1	20.0	0.00e+00	0	27	0	160432128	52	6493
2026-01-15 18:07:07.75	23.51	8.05	-39.8	-41.2	19.8	0.00e+00	0	27	0	162529280	52	6577
2026-01-15 18:07:08.76	23.39	8.10	-39.7	-41.1	19.9	0.00e+00	0	27	0	163577856	52	6489
2026-01-15 18:07:09.78	23.27	8.16	-39.9	-41.3	19.7	0.00e+00	0	27	0	165675008	52	6687
2026-01-15 18:07:10.78	23.15	8.22	-39.9	-41.3	19.7	0.00e+00	0	27	0	167772160	52	6691
2026-01-15 18:07:11.79	23.04	8.28	-39.5	-40.9	20.1	0.00e+00	51	27	0	169869312	52	6319
2026-01-15 18:07:12.80	22.92	8.34	-39.5	-40.8	20.1	0.00e+00	0	27	0	171966464	52	6271
2026-01-15 18:07:13.81	22.79	8.39	-39.3	-40.5	20.3	0.00e+00	51	27	0	174063616	52	6100
2026-01-15 18:07:14.82	22.67	8.45	-39.3	-40.6	20.4	0.00e+00	0	27	0	175112192	52	6143
2026-01-15 18:07:15.83	22.55	8.51	-39.4	-40.7	20.2	0.00e+00	0	27	0	177209344	52	6240
2026-01-15 18:07:16.84	22.43	8.57	-39.6	-41.0	20.1	0.00e+00	0	27	0	179306496	52	6429
2026-01-15 18:07:17.85	22.31	8.63	-39.8	-41.2	19.9	0.00e+00	0	27	0	181403648	52	6552
2026-01-15 18:07:18.86	22.18	8.68	-39.7	-41.1	20.0	0.00e+00	30	27	0	183500800	52	6494
2026-01-15 18:07:19.87	22.06	8.74	-39.7	-41.0	20.0	0.00e+00	0	27	0	184549376	52	6452
2026-01-15 18:07:20.88	21.94	8.80	-39.7	-41.1	20.0	0.00e+00	57	27	0	186646528	52	6497
2026-01-15 18:07:21.89	21.81	8.86	-39.7	-41.1	19.9	0.00e+00	0	27	0	188743680	52	6518
2026-01-15 18:07:22.90	21.69	8.92	-39.7	-41.1	20.0	0.00e+00	0	27	0	190840832	52	6496
2026-01-15 18:07:23.91	21.56	8.98	-39.5	-40.9	20.1	0.00e+00	0	27	0	192937984	52	6328
2026-01-15 18:07:24.91	21.44	9.03	-39.6	-41.0	20.0	0.00e+00	0	27	0	193986560	52	6453
2026-01-15 18:07:25.92	21.31	9.09	-39.8	-41.2	19.9	0.00e+00	85	27	0	196083712	52	6612
2026-01-15 18:07:26.93	21.18	9.15	-39.9	-41.4	19.7	0.00e+00	0	27	0	198180864	52	6739
2026-01-15 18:07:27.94	21.06	9.21	-39.9	-41.3	19.6	0.00e+00	90	27	0	200278016	52	6687
2026-01-15 18:07:28.95	20.93	9.27	-39.8	-41.2	19.9	0.00e+00	0	27	0	202375168	52	6604
2026-01-15 18:07:29.96	20.80	9.32	-39.7	-41.1	20.0	0.00e+00	0	27	0	203423744	52	6515
2026-01-15 18:07:30.97	20.67	9.38	-39.7	-41.0	20.1	0.00e+00	0	27	0	205520896	52	6453
2026-01-15 18:07:31.98	20.54	9.44	-39.3	-40.6	20.4	0.00e+00	0	27	0	207618048	52	6139
2026-01-15 18:07:32.99	20.41	9.50	-39.2	-40.4	20.6	0.00e+00	2	27	0	209715200	52	6032
2026-01-15 18:07:34.00	20.28	9.56	-39.0	-40.2	20.7	0.00e+00	0	27	0	211812352	52	5886
2026-01-15 18:07:35.01	20.15	9.61	-39.0	-40.3	20.8	0.00e+00	88	27	0	212860928	52	5902
2026-01-15 18:07:36.02	20.02	9.67	-39.1	-40.4	20.6	0.00e+00	0	27	0	214958080	52	6004
2026-01-15 18:07:37.03	19.88	9.73	-38.9	-40.1	20.6	0.00e+00	0	27	0	217055232	52	5814
2026-01-15 18:07:38.04	19.75	9.79	-39.1	-40.3	20.2	0.00e+00	0	27	0	219152384	52	5951
2026-01-15 18:07:39.04	19.62	9.85	-39.1	-40.3	20.5	0.00e+00	0	27	0	221249536	52	5944
2026-01-15 18:07:40.05	19.48	9.90	-39.3	-40.5	20.4	0.00e+00	0	27	0	222298112	52	6095
2026-01-15 18:07:41.06	19.35	9.96	-39.1	-40.4	20.8	0.00e+00	0	27	0	224395264	52	5994
2026-01-15 18:07:42.07	19.21	10.02	-39.0	-40.2	20.7	0.00e+00	87	27	0	226492416	52	5858
2026-01-15 18:07:43.08	19.08	10.08	-39.1	-40.4	20.6	0.00e+00	0	27	0	228589568	52	6004
2026-01-15 18:07:44.09	18.94	10.14	-39.2	-40.5	20.6	0.00e+00	0	27	0	230686720	52	6076
2026-01-15 18:07:45.10	18.81	10.19	-39.2	-40.4	20.6	0.00e+00	0	27	0	231735296	52	6013
2026-01-15 18:07:46.11	18.67	10.25	-39.3	-40.6	20.5	0.00e+00	0	27	0	233832448	52	6148
2026-01-15 18:07:47.12	18.53	10.31	-39.3	-40.6	20.5	0.00e+00	0	27	0	235929600	52	6144
2026-01-15 18:07:48.13	18.39	10.37	-39.5	-40.9	20.2	0.00e+00	1	27	0	238026752	52	6335
2026-01-15 18:07:49.14	18.25	10.43	-39.4	-40.8	20.4	0.00e+00	78	27	0	240123904	52	6249
2026-01-15 18:07:50.15	18.11	10.48	-39.6	-41.0	20.2	0.00e+00	0	27	0	242221056	52	6402
2026-01-15 18:07:51.16	17.97	10.54	-39.3	-40.6	20.5	0.00e+00	17	27	0	243269632	52	6133
2026-01-15 18:07:52.17	17.83	10.60	-39.2	-40.5	20.6	0.00e+00	0	27	0	245366784	52	6044
2026-01-15 18:07:53.18	17.69	10.66	-39.1	-40.4	20.7	0.00e+00	0	27	0	247463936	52	5994
2026-01-15 18:07:54.19	17.55	10.71	-39.2	-40.5	20.6	0.00e+00	17	27	0	249561088	52	6045
2026-01-15 18:07:55.20	17.41	10.77	-39.0	-40.3	20.8	0.00e+00	0	27	0	251658240	52	5898
2026-01-15 18:07:56.21	17.26	10.83	-39.3	-40.6	20.6	0.00e+00	88	27	0	252706816	52	6135
2026-01-15 18:07:57.22	17.12	10.89	-39.2	-40.4	20.5	0.00e+00	0	27	0	254803968	52	6000
2026-01-15 18:07:58.23	16.98	10.94	-39.3	-40.5	20.6	0.00e+00	70	27	0	256901120	52	6102
2026-01-15 18:07:59.24	16.83	11.00	-39.1	-40.2	20.8	0.00e+00	0	27	0	258998272	52	5895
2026-01-15 18:08:00.26	16.68	11.06	-38.8	-39.9	21.0	0.00e+00	0	27	0	261095424	52	5688
2026-01-15 18:08:01.27	16.54	11.12	-38.8	-39.9	21.1	0.00e+00	0	27	0	262144000	52	5684
2026-01-15 18:08:02.27	16.39	11.17	-38.8	-39.9	21.2	0.00e+00	0	27	0	264241152	52	5676
2026-01-15 18:08:03.28	16.25	11.23	-38.8	-39.9	21.2	0.00e+00	89	27	0	266338304	50	6367
2026-01-15 18:08:04.30	16.10	11.29	-39.0	-40.2	20.9	0.00e+00	0	27	0	268435456	50	6612
2026-01-15 18:08:05.31	15.95	11.35	-39.5	-40.8	20.4	0.00e+00	92	27	0	270532608	50	7045
2026-01-15 18:08:06.32	15.80	11.40	-39.4	-40.7	20.5	0.00e+00	0	27	0	271581184	50	6931
2026-01-15 18:08:07.32	15.65	11.46	-39.5	-40.8	20.4	0.00e+00	0	27	0	273678336	50	7066
2026-01-15 18:08:08.34	15.50	11.52	-39.2	-40.5	20.6	0.00e+00	0	27	0	275775488	50	6780
2026-01-15 18:08:09.35	15.35	11.57	-39.1	-40.3	20.8	0.00e+00	0	27	0	277872640	50	6628
2026-01-15 18:08:10.36	15.20	11.63	-38.9	-40.1	21.0	0.00e+00	0	27	0	279969792	50	6468
2026-01-15 18:08:11.36	15.05	11.69	-39.1	-40.4	21.0	0.00e+00	0	27	0	281018368	50	6695
2026-01-15 18:08:12.37	14.90	11.74	-39.1	-40.3	20.8	0.00e+00	50	27	0	283115520	50	6638
2026-01-15 18:08:13.38	14.74	11.80	-39.4	-40.7	20.5	0.00e+00	0	27	0	285212672	50	6968
2026-01-15 18:08:14.40	14.59	11.86	-39.7	-41.0	20.2	0.00e+00	0	27	0	287309824	50	7236
2026-01-15 18:08:15.41	14.43	11.91	-39.6	-41.0	20.2	0.00e+00	0	27	0	289406976	50	7171
2026-01-15 18:08:16.42	14.28	11.97	-39.5	-40.8	20.4	0.00e+00	0	27	0	290455552	50	7042
2026-01-15 18:08:17.43	14.12	12.03	-39.3	-40.5	20.7	0.00e+00	8	27	0	292552704	50	6817
2026-01-15 18:08:18.44	13.97	12.08	-39.3	-40.5	20.7	0.00e+00	0	27	0	294649856	50	6838
2026-01-15 18:08:19.45	13.81	12.14	-39.3	-40.5	20.6	0.00e+00	88	27	0	296747008	50	6848
2026-01-15 18:08:20.46	13.65	12.20	-39.5	-40.9	20.3	0.00e+00	0	27	0	298844160	50	7123
2026-01-15 18:08:21.47	13.50	12.25	-39.6	-40.9	20.3	0.00e+00	17	27	0	299892736	50	7155
2026-01-15 18:08:22.48	13.34	12.31	-39.6	-40.9	20.3	0.00e+00	0	27	0	301989888	50	7130
2026-01-15 18:08:23.49	13.18	12.36	-39.7	-41.0	20.3	0.00e+00	0	27	0	304087040	52	6454
2026-01-15 18:08:24.50	13.02	12.42	-39.2	-40.5	20.8	0.00e+00	85	27	0	306184192	52	6045
2026-01-15 18:08:25.51	12.86	12.48	-39.0	-40.2	21.0	0.00e+00	0	27	0	308281344	52	5895
2026-01-15 18:08:26.52	12.70	12.53	-39.0	-40.2	21.1	0.00e+00	73	27	0	310378496	52	5872
2026-01-15 18:08:27.53	12.54	12.59	-38.8	-40.0	21.2	0.00e+00	0	27	0	311427072	52	5730
2026-01-15 18:08:28.54	12.37	12.64	-39.1	-40.3	20.8	0.00e+00	0	27	0	313524224	52	5961
2026-01-15 18:08:29.55	12.21	12.70	-39.0	-40.2	20.9	0.00e+00	0	27	0	315621376	52	5896
2026-01-15 18:08:30.56	12.05	12.75	-39.2	-40.4	20.7	0.00e+00	0	27	0	317718528	52	6028
2026-01-15 18:08:31.57	11.88	12.81	-39.3	-40.6	20.6	0.00e+00	0	27	0	319815680	52	6145
2026-01-15 18:08:32.58	11.72	12.86	-39.1	-40.4	20.8	0.00e+00	0	27	0	320864256	52	5984
2026-01-15 18:08:33.59	11.55	12.92	-39.0	-40.2	21.0	0.00e+00	73	27	0	322961408	52	5880
2026-01-15 18:08:34.60	11.39	12.97	-38.7	-39.9	21.2	0.00e+00	0	27	0	325058560	52	5672
2026-01-15 18:08:35.61	11.22	13.03	-38.8	-40.0	21.1	0.00e+00	36	27	0	327155712	50	6427
2026-01-15 18:08:36.62	11.05	13.08	-38.7	-39.9	21.2	0.00e+00	0	27	0	329252864	50	6370
2026-01-15 18:08:37.63	10.88	13.14	-38.9	-40.1	20.9	0.00e+00	0	27	0	330301440	50	6521
2026-01-15 18:08:38.64	10.72	13.19	-38.5	-39.7	21.3	0.00e+00	0	27	0	332398592	50	6207
2026-01-15 18:08:39.65	10.55	13.24	-38.4	-39.5	21.6	0.00e+00	0	27	0	334495744	50	6089
2026-01-15 18:08:40.66	10.38	13.30	-38.4	-39.6	21.6	0.00e+00	0	27	0	336592896	50	6109
2026-01-15 18:08:41.67	10.21	13.35	-38.1	-39.2	21.9	0.00e+00	0	27	0	338690048	50	5857
2026-01-15 18:08:42.68	10.04	13.41	-38.1	-39.2	21.8	0.00e+00	92	27	0	339738624	50	5879
2026-01-15 18:08:43.69	9.86	13.46	-37.9	-38.9	22.1	0.00e+00	0	27	0	341835776	50	5692
2026-01-15 18:08:44.70	9.69	13.51	-37.7	-38.7	22.3	0.00e+00	0	27	0	343932928	48	6223
2026-01-15 18:08:45.71	9.52	13.57	-37.7	-38.7	22.3	0.00e+00	0	27	0	346030080	48	6204
2026-01-15 18:08:46.72	9.35	13.62	-37.5	-38.5	22.4	0.00e+00	0	27	0	348127232	48	6078
2026-01-15 18:08:47.73	9.17	13.67	-37.6	-38.6	22.2	0.00e+00	0	27	0	350224384	48	6146
2026-01-15 18:08:48.74	9.00	13.72	-37.7	-38.7	22.4	0.00e+00	0	27	0	351272960	48	6225
2026-01-15 18:08:49.75	8.82	13.78	-37.6	-38.7	22.3	0.00e+00	85	27	0	353370112	48	6199
2026-01-15 18:08:50.76	8.65	13.83	-37.6	-38.6	22.4	0.00e+00	0	27	0	355467264	48	6133
2026-01-15 18:08:51.77	8.47	13.88	-37.7	-38.7	22.3	0.00e+00	0	27	0	357564416	48	6224
2026-01-15 18:08:52.78	8.29	13.93	-37.6	-38.7	22.4	0.00e+00	0	27	0	359661568	48	6179
2026-01-15 18:08:53.79	8.11	13.99	-37.3	-38.3	22.5	0.00e+00	0	27	0	360710144	48	5955
2026-01-15 18:08:54.80	7.93	14.04	-37.3	-38.4	22.4	0.00e+00	0	27	0	362807296	48	5968
2026-01-15 18:08:55.81	7.76	14.09	-37.2	-38.2	22.7	0.00e+00	0	27	0	364904448	48	5888
2026-01-15 18:08:56.81	7.58	14.14	-37.4	-38.4	22.5	0.00e+00	85	27	0	367001600	48	6014
2026-01-15 18:08:57.82	7.40	14.19	-37.4	-38.5	22.5	0.00e+00	0	27	0	368050176	48	6046
2026-01-15 18:08:58.83	7.22	14.24	-37.3	-38.3	22.7	0.00e+00	0	27	0	370147328	48	5940
2026-01-15 18:08:59.84	7.03	14.29	-37.3	-38.3	22.7	0.00e+00	0	27	0	372244480	48	5921
2026-01-15 18:09:00.85	6.85	14.35	-37.2	-38.1	22.8	0.00e+00	0	27	0	374341632	48	5815
2026-01-15 18:09:01.86	6.67	14.40	-37.3	-38.3	22.6	0.00e+00	81	27	0	376438784	48	5914
2026-01-15 18:09:02.87	6.48	14.45	-37.6	-38.7	22.4	0.00e+00	0	27	0	378535936	48	6178
2026-01-15 18:09:03.88	6.30	14.50	-38.0	-39.1	21.8	0.00e+00	81	27	0	379584512	48	6509
2026-01-15 18:09:04.89	6.12	14.55	-38.1	-39.2	21.9	0.00e+00	0	27	0	381681664	48	6552
2026-01-15 18:09:05.90	5.93	14.60	-37.9	-39.0	22.1	0.00e+00	0	27	0	383778816	48	6411
2026-01-15 18:09:06.91	5.74	14.65	-37.8	-38.9	22.1	0.00e+00	0	27	0	385875968	48	6362
2026-01-15 18:09:07.92	5.56	14.70	-37.8	-38.8	22.2	0.00e+00	0	27	0	387973120	48	6297
2026-01-15 18:09:08.93	5.37	14.75	-37.7	-38.8	22.1	0.00e+00	73	27	0	389021696	48	6305
2026-01-15 18:09:09.94	5.18	14.79	-37.8	-38.9	22.3	0.00e+00	0	27	0	391118848	48	6356
2026-01-15 18:09:10.95	4.99	14.84	-37.8	-38.8	22.2	0.00e+00	84	27	0	393216000	48	6309
2026-01-15 18:09:11.96	4.80	14.89	-37.8	-38.9	22.4	0.00e+00	0	27	0	395313152	48	6337
2026-01-15 18:09:12.96	4.61	14.94	-37.6	-38.7	22.4	0.00e+00	90	27	0	397410304	48	6191
2026-01-15 18:09:13.97	4.42	14.99	-37.1	-38.1	22.8	0.00e+00	0	27	0	398458880	48	5810
2026-01-15 18:09:14.98	4.23	15.04	-37.1	-38.1	22.9	0.00e+00	0	27	0	400556032	48	5779
2026-01-15 18:09:15.99	4.04	15.08	-36.4	-37.3	23.4	0.00e+00	0	27	0	402653184	46	5950
2026-01-15 18:09:17.00	3.85	15.13	-36.2	-37.1	23.7	0.00e+00	0	27	0	404750336	46	5796
2026-01-15 18:09:18.01	3.66	15.18	-36.1	-37.1	23.6	0.00e+00	26	27	0	406847488	46	5806
2026-01-15 18:09:19.02	3.46	15.23	-36.5	-37.5	23.3	0.00e+00	0	27	0	407896064	46	6046
2026-01-15 18:09:20.03	3.27	15.27	-36.6	-37.6	23.1	0.00e+00	92	27	0	409993216	46	6135
2026-01-15 18:09:21.04	3.07	15.32	-36.9	-37.9	23.1	0.00e+00	0	27	0	412090368	46	6336
2026-01-15 18:09:22.05	2.88	15.37	-36.6	-37.6	23.2	0.00e+00	0	27	0	414187520	46	6132
2026-01-15 18:09:23.06	2.68	15.41	-36.7	-37.6	22.7	0.00e+00	0	27	0	416284672	46	6121
2026-01-15 18:09:24.07	2.48	15.46	-36.6	-37.5	23.3	0.00e+00	0	27	0	417333248	46	6099
2026-01-15 18:09:25.08	2.29	15.50	-36.8	-37.7	23.2	0.00e+00	17	27	0	419430400	46	6238
2026-01-15 18:09:26.09	2.09	15.55	-37.0	-38.0	23.0	0.00e+00	0	27	0	421527552	46	6401
2026-01-15 18:09:27.10	1.89	15.59	-37.2	-38.1	22.9	0.00e+00	89	27	0	423624704	46	6534
2026-01-15 18:09:28.11	1.69	15.64	-37.3	-38.3	22.7	0.00e+00	0	27	0	425721856	46	6648
2026-01-15 18:09:29.12	1.49	15.68	-37.1	-38.1	22.9	0.00e+00	0	27	0	426770432	46	6490
2026-01-15 18:09:30.13	1.29	15.73	-36.9	-37.8	23.1	0.00e+00	0	27	0	428867584	46	6285
2026-01-15 18:09:31.14	1.09	15.77	-36.7	-37.7	23.3	0.00e+00	0	27	0	430964736	46	6194
2026-01-15 18:09:32.15	0.89	15.81	-36.6	-37.6	23.3	0.00e+00	0	27	0	433061888	46	6118
2026-01-15 18:09:33.16	0.69	15.86	-36.7	-37.7	23.2	0.00e+00	0	27	0	435159040	46	6177
2026-01-15 18:09:34.17	0.48	15.90	-37.0	-37.9	23.1	0.00e+00	75	27	0	436207616	46	6386
2026-01-15 18:09:35.18	0.28	15.94	-36.8	-37.8	23.2	0.00e+00	0	27	0	438304768	46	6250
2026-01-15 18:09:36.19	0.07	15.99	-37.0	-37.9	22.9	0.00e+00	0	27	0	440401920	46	6371
2026-01-15 18:09:37.20	359.87	16.03	-37.0	-38.0	23.0	0.00e+00	0	27	0	442499072	46	6392
2026-01-15 18:09:38.21	359.67	16.07	-36.8	-37.8	23.1	0.00e+00	0	27	0	444596224	46	6281
2026-01-15 18:09:39.22	359.46	16.11	-36.8	-37.7	23.2	0.00e+00	1	27	0	446693376	46	6223
2026-01-15 18:09:40.23	359.25	16.15	-36.7	-37.7	23.2	0.00e+00	0	27	0	447741952	46	6191
2026-01-15 18:09:41.24	359.05	16.19	-36.8	-37.8	23.1	0.00e+00	89	27	0	449839104	46	6253
2026-01-15 18:09:42.25	358.84	16.23	-36.9	-37.9	23.1	0.00e+00	0	27	0	451936256	46	6361
2026-01-15 18:09:43.26	358.63	16.27	-37.0	-38.0	23.0	0.00e+00	77	27	0	454033408	46	6433
2026-01-15 18:09:44.26	358.42	16.31	-36.8	-37.8	23.1	0.00e+00	0	27	0	456130560	46	6268
2026-01-15 18:09:45.27	358.21	16.35	-36.6	-37.5	23.3	0.00e+00	0	27	0	457179136	46	6084
2026-01-15 18:09:46.29	358.00	16.39	-36.6	-37.6	23.3	0.00e+00	17	27	0	459276288	46	6105
2026-01-15 18:09:47.30	357.79	16.43	-36.9	-37.8	23.1	0.00e+00	0	27	0	461373440	46	6308
2026-01-15 18:09:48.31	357.58	16.47	-37.0	-38.0	22.6	0.00e+00	65	27	0	463470592	46	6425
2026-01-15 18:09:49.32	357.37	16.51	-37.3	-38.3	22.4	0.00e+00	0	27	0	465567744	46	6687
2026-01-15 18:09:50.33	357.16	16.55	-37.6	-38.7	22.3	0.00e+00	70	27	0	466616320	48	6230
2026-01-15 18:09:51.34	356.95	16.58	-37.7	-38.7	22.4	0.00e+00	0	27	0	468713472	48	6244
2026-01-15 18:09:52.35	356.73	16.62	-37.5	-38.5	22.5	0.00e+00	0	27	0	470810624	48	6066
2026-01-15 18:09:53.35	356.52	16.66	-36.9	-37.8	23.1	0.00e+00	0	27	0	472907776	48	5601
2026-01-15 18:09:54.36	356.31	16.70	-36.5	-37.5	23.4	0.00e+00	0	27	0	475004928	46	6040
2026-01-15 18:09:55.37	356.09	16.73	-36.5	-37.5	23.3	0.00e+00	0	27	0	476053504	46	6053
2026-01-15 18:09:56.38	355.88	16.77	-36.4	-37.4	23.5	0.00e+00	0	27	0	478150656	46	5972
2026-01-15 18:09:57.39	355.66	16.80	-36.5	-37.4	23.4	0.00e+00	92	27	0	480247808	46	6020
2026-01-15 18:09:58.40	355.45	16.84	-36.4	-37.4	23.3	0.00e+00	1	27	0	482344960	46	5979
2026-01-15 18:09:59.41	355.23	16.87	-36.1	-37.1	23.7	0.00e+00	0	27	0	484442112	46	5766
2026-01-15 18:10:00.42	355.01	16.91	-36.1	-37.1	23.6	0.00e+00	0	27	0	485490688	46	5773
2026-01-15 18:10:01.43	354.79	16.94	-36.1	-37.0	22.8	0.00e+00	32	27	0	487587840	46	5738
2026-01-15 18:10:02.44	354.58	16.98	-36.0	-36.9	23.9	0.00e+00	83	27	0	489684992	46	5683
2026-01-15 18:10:03.45	354.36	17.01	-35.9	-36.8	23.8	0.00e+00	0	27	0	491782144	44	6285
2026-01-15 18:10:04.46	354.14	17.04	-36.1	-36.9	23.8	0.00e+00	72	27	0	493879296	44	6386
2026-01-15 18:10:05.47	353.92	17.07	-35.9	-36.8	23.8	0.00e+00	0	27	0	494927872	44	6260
2026-01-15 18:10:06.48	353.70	17.11	-36.2	-37.1	23.8	0.00e+00	0	27	0	497025024	44	6467
2026-01-15 18:10:07.49	353.48	17.14	-36.2	-37.1	23.7	0.00e+00	31	27	0	499122176	44	6494
2026-01-15 18:10:08.50	353.26	17.17	-36.0	-36.9	23.9	0.00e+00	0	27	0	501219328	44	6336
2026-01-15 18:10:09.50	353.04	17.20	-36.0	-37.0	23.8	0.00e+00	0	27	0	503316480	44	6406
2026-01-15 18:10:10.51	352.82	17.23	-35.9	-36.8	23.9	0.00e+00	0	27	0	504365056	44	6309
2026-01-15 18:10:11.52	352.59	17.26	-36.5	-37.5	23.4	0.00e+00	81	27	0	506462208	44	6818
2026-01-15 18:10:12.53	352.37	17.29	-36.7	-37.7	23.2	0.00e+00	0	27	0	508559360	44	6994
2026-01-15 18:10:13.54	352.15	17.32	-36.8	-37.9	22.9	0.00e+00	0	27	0	510656512	46	6321
2026-01-15 18:10:14.55	351.92	17.35	-37.1	-38.1	22.8	0.00e+00	0	27	0	512753664	46	6526
2026-01-15 18:10:15.56	351.70	17.38	-37.1	-38.1	23.0	0.00e+00	0	27	0	514850816	46	6515
2026-01-15 18:10:16.57	351.47	17.41	-37.0	-37.9	23.0	0.00e+00	1	27	0	515899392	46	6363
2026-01-15 18:10:17.58	351.25	17.43	-36.9	-37.8	23.2	0.00e+00	0	27	0	517996544	46	6305
2026-01-15 18:10:18.59	351.02	17.46	-36.9	-37.9	23.0	0.00e+00	92	27	0	520093696	46	6352
2026-01-15 18:10:19.60	350.80	17.49	-36.8	-37.7	23.3	0.00e+00	0	27	0	522190848	46	6187
2026-01-15 18:10:20.61	350.57	17.51	-37.0	-38.0	23.0	0.00e+00	91	27	0	524288000	46	6404
2026-01-15 18:10:21.62	350.34	17.54	-37.2	-38.2	22.9	0.00e+00	0	27	0	525336576	46	6563
2026-01-15 18:10:22.63	350.12	17.57	-37.2	-38.1	23.0	0.00e+00	0	27	0	527433728	46	6515
2026-01-15 18:10:23.64	349.89	17.59	-37.2	-38.2	22.8	0.00e+00	65	27	0	529530880	46	6573
2026-01-15 18:10:24.65	349.66	17.61	-37.3	-38.3	22.5	0.00e+00	0	27	0	531628032	46	6623
2026-01-15 18:10:25.66	349.43	17.64	-37.0	-37.9	23.1	0.00e+00	88	27	0	533725184	46	6369
2026-01-15 18:10:26.67	349.21	17.66	-37.0	-37.9	23.0	0.00e+00	0	27	0	534773760	46	6356
2026-01-15 18:10:27.68	348.98	17.69	-37.4	-38.4	22.7	0.00e+00	13	27	0	536870912	46	6763
2026-01-15 18:10:28.69	348.75	17.71	-37.3	-38.2	22.8	0.00e+00	0	27	0	538968064	46	6608
2026-01-15 18:10:29.70	348.52	17.73	-37.6	-38.6	22.6	0.00e+00	0	27	0	541065216	46	6866
2026-01-15 18:10:30.71	348.29	17.75	-37.3	-38.3	22.7	0.00e+00	0	27	0	543162368	46	6658
2026-01-15 18:10:31.72	348.06	17.77	-37.2	-38.1	23.0	0.00e+00	0	27	0	544210944	46	6518
2026-01-15 18:10:32.73	347.83	17.80	-36.7	-37.6	23.4	0.00e+00	90	27	0	546308096	46	6139
2026-01-15 18:10:33.73	347.60	17.82	-36.4	-37.3	23.6	0.00e+00	0	27	0	548405248	46	5955
2026-01-15 18:10:34.74	347.37	17.84	-36.3	-37.2	23.5	0.00e+00	87	27	0	550502400	46	5860
2026-01-15 18:10:35.75	347.13	17.86	-36.5	-37.4	23.4	0.00e+00	0	27	0	552599552	46	5984
2026-01-15 18:10:36.76	346.90	17.88	-36.7	-37.6	23.2	0.00e+00	0	27	0	553648128	46	6165
2026-01-15 18:10:37.77	346.67	17.89	-37.0	-38.0	23.1	0.00e+00	0	27	0	555745280	46	6396
2026-01-15 18:10:38.78	346.44	17.91	-37.1	-38.1	23.0	0.00e+00	0	27	0	557842432	46	6486
2026-01-15 18:10:39.79	346.21	17.93	-37.2	-38.2	22.8	0.00e+00	0	27	0	559939584	46	6542
2026-01-15 18:10:40.80	345.97	17.95	-37.0	-37.9	23.0	0.00e+00	0	27	0	562036736	46	6361
2026-01-15 18:10:41.81	345.74	17.96	-36.9	-37.8	23.1	0.00e+00	86	27	0	563085312	46	6268
2026-01-15 18:10:42.82	345.51	17.98	-37.0	-38.0	23.1	0.00e+00	0	27	0	565182464	46	6412
2026-01-15 18:10:43.82	345.27	18.00	-37.2	-38.1	23.1	0.00e+00	0	27	0	567279616	46	6520
2026-01-15 18:10:44.83	345.04	18.01	-37.1	-38.1	22.9	0.00e+00	0	27	0	569376768	46	6497
2026-01-15 18:10:45.84	344.81	18.03	-37.5	-38.5	22.6	0.00e+00	0	27	0	571473920	46	6833
2026-01-15 18:10:46.85	344.57	18.04	-37.8	-38.9	22.3	0.00e+00	81	27	0	572522496	46	7123
2026-01-15 18:10:47.86	344.34	18.05	-38.2	-39.3	21.8	0.00e+00	0	27	0	574619648	48	6689
2026-01-15 18:10:48.87	344.10	18.07	-38.6	-39.8	21.5	0.00e+00	85	27	0	576716800	48	7017
2026-01-15 18:10:49.88	343.87	18.08	-38.6	-39.8	21.5	0.00e+00	0	27	0	578813952	48	7079
2026-01-15 18:10:50.89	343.63	18.09	-38.6	-39.8	21.6	0.00e+00	0	27	0	580911104	50	6283
2026-01-15 18:10:51.90	343.40	18.11	-38.7	-39.9	21.5	0.00e+00	0	27	0	583008256	50	6337
2026-01-15 18:10:52.91	343.16	18.12	-38.5	-39.7	21.5	0.00e+00	0	27	0	584056832	50	6215
2026-01-15 18:10:53.92	342.92	18.13	-38.3	-39.5	21.7	0.00e+00	1	27	0	586153984	50	6054
2026-01-15 18:10:54.93	342.69	18.14	-38.3	-39.4	22.0	0.00e+00	0	27	0	588251136	50	5994
2026-01-15 18:10:55.94	342.45	18.15	-38.0	-39.1	22.3	0.00e+00	86	27	0	590348288	50	5793
2026-01-15 18:10:56.95	342.22	18.16	-38.0	-39.0	22.2	0.00e+00	0	27	0	592445440	50	5743
2026-01-15 18:10:57.96	341.98	18.17	-37.8	-38.9	22.3	0.00e+00	92	27	0	593494016	50	5647
2026-01-15 18:10:58.97	341.74	18.17	-37.7	-38.8	22.3	0.00e+00	0	27	0	595591168	48	6281
2026-01-15 18:10:59.98	341.50	18.18	-37.5	-38.6	22.6	0.00e+00	0	27	0	597688320	48	6111
2026-01-15 18:11:00.99	341.27	18.19	-37.5	-38.5	22.5	0.00e+00	0	27	0	599785472	48	6075
2026-01-15 18:11:02.00	341.03	18.20	-37.4	-38.4	22.6	0.00e+00	0	27	0	601882624	48	6026
2026-01-15 18:11:03.01	340.79	18.20	-37.2	-38.3	22.7	0.00e+00	49	27	0	602931200	48	5899
2026-01-15 18:11:04.01	340.56	18.21	-37.4	-38.5	22.6	0.00e+00	0	27	0	605028352	48	6074
2026-01-15 18:11:05.02	340.32	18.21	-37.4	-38.5	22.6	0.00e+00	92	27	0	607125504	48	6050
2026-01-15 18:11:06.03	340.08	18.22	-37.1	-38.1	22.8	0.00e+00	0	27	0	609222656	48	5799
2026-01-15 18:11:07.05	339.84	18.22	-36.9	-37.9	23.0	0.00e+00	0	27	0	611319808	48	5685
2026-01-15 18:11:08.05	339.61	18.23	-36.8	-37.9	23.1	0.00e+00	0	27	0	612368384	48	5648
2026-01-15 18:11:09.07	339.37	18.23	-36.8	-37.8	23.1	0.00e+00	0	27	0	614465536	46	6311
2026-01-15 18:11:10.07	339.13	18.23	-36.9	-37.9	23.1	0.00e+00	0	27	0	616562688	46	6373
2026-01-15 18:11:11.08	338.90	18.24	-36.9	-38.0	23.0	0.00e+00	0	27	0	618659840	46	6407
2026-01-15 18:11:12.09	338.66	18.24	-36.8	-37.8	23.0	0.00e+00	78	27	0	620756992	46	6301
2026-01-15 18:11:13.10	338.42	18.24	-37.0	-38.2	22.9	0.00e+00	0	27	0	621805568	46	6543
2026-01-15 18:11:14.11	338.18	18.24	-37.1	-38.3	22.8	0.00e+00	0	27	0	623902720	46	6626
2026-01-15 18:11:15.12	337.94	18.24	-37.4	-38.5	22.7	0.00e+00	0	27	0	625999872	46	6820
2026-01-15 18:11:16.13	337.71	18.24	-37.5	-38.6	22.5	0.00e+00	0	27	0	628097024	46	6910
2026-01-15 18:11:17.14	337.47	18.24	-37.6	-38.8	22.4	0.00e+00	0	27	0	630194176	46	7012
2026-01-15 18:11:18.15	337.23	18.24	-37.4	-38.5	22.7	0.00e+00	0	27	0	631242752	46	6814
2026-01-15 18:11:19.16	336.99	18.24	-37.4	-38.5	22.6	0.00e+00	80	27	0	633339904	46	6843
2026-01-15 18:11:20.17	336.76	18.23	-37.1	-38.2	22.9	0.00e+00	0	27	0	635437056	46	6571
2026-01-15 18:11:21.18	336.52	18.23	-36.9	-37.9	23.1	0.00e+00	0	27	0	637534208	46	6389
2026-01-15 18:11:22.19	336.28	18.23	-36.8	-37.8	23.2	0.00e+00	0	27	0	639631360	46	6258
2026-01-15 18:11:23.20	336.04	18.22	-37.0	-38.0	23.1	0.00e+00	0	27	0	640679936	46	6403
2026-01-15 18:11:24.21	335.81	18.22	-37.1	-38.1	22.9	0.00e+00	65	27	0	642777088	46	6525
2026-01-15 18:11:25.22	335.57	18.22	-37.1	-38.1	22.9	0.00e+00	0	27	0	644874240	46	6496
2026-01-15 18:11:26.23	335.33	18.21	-37.3	-38.3	22.8	0.00e+00	90	27	0	646971392	46	6665
2026-01-15 18:11:27.24	335.09	18.20	-37.9	-39.0	22.4	0.00e+00	0	27	0	649068544	46	7205
2026-01-15 18:11:28.25	334.86	18.20	-37.8	-38.8	22.2	0.00e+00	5	27	0	651165696	48	6311
2026-01-15 18:11:29.25	334.62	18.19	-37.9	-39.0	22.2	0.00e+00	0	27	0	652214272	48	6450
2026-01-15 18:11:30.26	334.38	18.18	-38.1	-39.2	21.8	0.00e+00	0	27	0	654311424	48	6558
2026-01-15 18:11:31.27	334.15	18.18	-38.1	-39.2	21.8	0.00e+00	64	27	0	656408576	48	6554
2026-01-15 18:11:32.28	333.91	18.17	-37.9	-39.0	22.2	0.00e+00	0	27	0	658505728	48	6454
2026-01-15 18:11:33.29	333.67	18.16	-37.8	-38.9	22.2	0.00e+00	67	27	0	660602880	48	6322
2026-01-15 18:11:34.30	333.44	18.15	-37.5	-38.5	22.6	0.00e+00	0	27	0	661651456	48	6099
2026-01-15 18:11:35.31	333.20	18.14	-37.2	-38.2	22.9	0.00e+00	91	27	0	663748608	48	5844
2026-01-15 18:11:36.31	332.97	18.13	-37.1	-38.1	23.0	0.00e+00	0	27	0	665845760	48	5767
2026-01-15 18:11:37.32	332.73	18.12	-37.1	-38.0	23.0	0.00e+00	0	27	0	667942912	48	5753
2026-01-15 18:11:38.33	332.49	18.11	-36.8	-37.7	23.2	0.00e+00	41	27	0	670040064	46	6218
2026-01-15 18:11:39.34	332.26	18.10	-37.0	-38.0	23.1	0.00e+00	0	27	0	671088640	46	6391
2026-01-15 18:11:40.35	332.02	18.08	-37.2	-38.2	22.9	0.00e+00	0	27	0	673185792	46	6561
2026-01-15 18:11:41.36	331.79	18.07	-37.1	-38.1	23.0	0.00e+00	0	27	0	675282944	46	6478
2026-01-15 18:11:42.37	331.55	18.06	-37.4	-38.4	22.7	0.00e+00	66	27	0	677380096	46	6738
2026-01-15 18:11:43.38	331.32	18.04	-37.1	-38.1	23.0	0.00e+00	0	27	0	679477248	46	6521
2026-01-15 18:11:44.39	331.08	18.03	-36.8	-37.7	23.3	0.00e+00	0	27	0	680525824	46	6220
2026-01-15 18:11:45.40	330.85	18.01	-36.8	-37.7	23.3	0.00e+00	0	27	0	682622976	46	6220
2026-01-15 18:11:46.41	330.62	18.00	-36.8	-37.7	23.2	0.00e+00	0	27	0	684720128	46	6220
2026-01-15 18:11:47.42	330.38	17.98	-36.9	-37.8	23.1	0.00e+00	9	27	0	686817280	46	6308
2026-01-15 18:11:48.42	330.15	17.97	-36.7	-37.7	23.3	0.00e+00	0	27	0	688914432	46	6195
2026-01-15 18:11:49.44	329.91	17.95	-37.0	-38.0	23.1	0.00e+00	92	27	0	689963008	46	6422
2026-01-15 18:11:50.45	329.68	17.93	-36.8	-37.8	23.3	0.00e+00	0	27	0	692060160	46	6247
2026-01-15 18:11:51.45	329.45	17.92	-36.5	-37.5	23.5	0.00e+00	32	27	0	694157312	46	6056
2026-01-15 18:11:52.46	329.22	17.90	-36.4	-37.3	23.4	0.00e+00	0	27	0	696254464	46	5918
2026-01-15 18:11:53.47	328.99	17.88	-36.4	-37.3	23.5	0.00e+00	0	27	0	698351616	46	5944
2026-01-15 18:11:54.48	328.75	17.86	-36.2	-37.0	23.7	0.00e+00	2	27	0	699400192	46	5759
2026-01-15 18:11:55.49	328.52	17.84	-36.2	-37.1	23.5	0.00e+00	0	27	0	701497344	46	5801
2026-01-15 18:11:56.50	328.29	17.82	-36.1	-37.0	23.8	0.00e+00	85	27	0	703594496	46	5724
2026-01-15 18:11:57.51	328.06	17.80	-36.1	-37.0	23.8	0.00e+00	0	27	0	705691648	46	5742
2026-01-15 18:11:58.52	327.83	17.78	-36.1	-36.9	23.8	0.00e+00	0	27	0	707788800	46	5680
2026-01-15 18:11:59.53	327.60	17.76	-36.0	-36.9	23.9	0.00e+00	0	27	0	708837376	46	5640
2026-01-15 18:12:00.54	327.37	17.74	-36.0	-36.9	23.9	0.00e+00	0	27	0	710934528	46	5655
2026-01-15 18:12:01.55	327.14	17.71	-36.1	-37.0	23.8	0.00e+00	0	27	0	713031680	46	5707
2026-01-15 18:12:02.56	326.91	17.69	-36.1	-37.0	23.8	0.00e+00	0	27	0	715128832	46	5699
2026-01-15 18:12:03.57	326.68	17.67	-36.1	-37.0	23.8	0.00e+00	43	27	0	717225984	46	5721
2026-01-15 18:12:04.58	326.45	17.64	-36.3	-37.2	23.6	0.00e+00	0	27	0	719323136	46	5848
2026-01-15 18:12:05.59	326.22	17.62	-36.5	-37.4	23.5	0.00e+00	49	27	0	720371712	46	5998
2026-01-15 18:12:06.60	325.99	17.60	-36.6	-37.6	23.3	0.00e+00	0	27	0	722468864	46	6116
2026-01-15 18:12:07.61	325.77	17.57	-36.7	-37.7	23.3	0.00e+00	0	27	0	724566016	46	6198
2026-01-15 18:12:08.61	325.54	17.55	-36.7	-37.6	23.2	0.00e+00	0	27	0	726663168	46	6132
2026-01-15 18:12:09.63	325.31	17.52	-36.8	-37.7	23.3	0.00e+00	0	27	0	727711744	46	6232
2026-01-15 18:12:10.64	325.08	17.49	-36.7	-37.6	23.3	0.00e+00	87	27	0	729808896	46	6123
2026-01-15 18:12:11.65	324.86	17.47	-36.8	-37.8	23.2	0.00e+00	0	27	0	731906048	46	6272
2026-01-15 18:12:12.66	324.63	17.44	-36.9	-37.9	23.2	0.00e+00	72	27	0	734003200	46	6328
2026-01-15 18:12:13.67	324.41	17.41	-36.8	-37.8	23.3	0.00e+00	0	27	0	736100352	46	6267
2026-01-15 18:12:14.68	324.18	17.38	-36.9	-37.9	23.1	0.00e+00	0	27	0	738197504	46	6341
2026-01-15 18:12:15.69	323.96	17.36	-37.1	-38.1	23.0	0.00e+00	0	27	0	739246080	46	6502
2026-01-15 18:12:16.70	323.73	17.33	-37.4	-38.4	22.7	0.00e+00	0	27	0	741343232	46	6704
2026-01-15 18:12:17.71	323.51	17.30	-37.5	-38.5	22.6	0.00e+00	88	27	0	743440384	46	6793
2026-01-15 18:12:18.72	323.29	17.27	-37.8	-38.9	22.3	0.00e+00	0	27	0	745537536	48	6328
2026-01-15 18:12:19.73	323.06	17.24	-37.6	-38.6	22.5	0.00e+00	74	27	0	747634688	48	6144
2026-01-15 18:12:20.74	322.84	17.21	-37.5	-38.4	22.7	0.00e+00	0	27	0	748683264	48	6019
2026-01-15 18:12:21.75	322.62	17.18	-37.2	-38.2	22.9	0.00e+00	0	27	0	750780416	48	5832
2026-01-15 18:12:22.76	322.40	17.14	-37.3	-38.2	22.7	0.00e+00	0	27	0	752877568	48	5871
2026-01-15 18:12:23.77	322.18	17.11	-37.3	-38.3	22.9	0.00e+00	0	27	0	754974720	48	5897
2026-01-15 18:12:24.78	321.96	17.08	-37.4	-38.4	22.7	0.00e+00	83	27	0	757071872	48	5980
2026-01-15 18:12:25.78	321.74	17.05	-37.4	-38.4	22.7	0.00e+00	0	27	0	758120448	48	6015
2026-01-15 18:12:26.79	321.52	17.02	-37.3	-38.3	22.8	0.00e+00	85	27	0	760217600	48	5897
2026-01-15 18:12:27.80	321.30	16.98	-37.4	-38.4	22.6	0.00e+00	0	27	0	762314752	48	6015
2026-01-15 18:12:28.81	321.08	16.95	-37.4	-38.4	22.8	0.00e+00	0	27	0	764411904	48	5971
2026-01-15 18:12:29.82	320.86	16.92	-37.2	-38.2	22.9	0.00e+00	0	27	0	766509056	48	5855
2026-01-15 18:12:30.83	320.65	16.88	-37.1	-38.0	22.9	0.00e+00	0	27	0	767557632	48	5736
2026-01-15 18:12:31.83	320.43	16.85	-37.5	-38.5	22.6	0.00e+00	83	27	0	769654784	48	6087
2026-01-15 18:12:32.84	320.22	16.81	-37.7	-38.8	22.3	0.00e+00	0	27	0	771751936	48	6249
2026-01-15 18:12:33.85	320.00	16.78	-37.9	-39.0	22.2	0.00e+00	87	27	0	773849088	48	6397
2026-01-15 18:12:34.86	319.78	16.74	-38.2	-39.3	22.0	0.00e+00	0	27	0	775946240	48	6618
2026-01-15 18:12:35.87	319.57	16.70	-38.1	-39.2	22.1	0.00e+00	0	27	0	776994816	48	6589
2026-01-15 18:12:36.88	319.36	16.67	-38.3	-39.4	21.9	0.00e+00	0	27	0	779091968	48	6724
2026-01-15 18:12:37.89	319.14	16.63	-38.0	-39.1	22.1	0.00e+00	0	27	0	781189120	48	6503
2026-01-15 18:12:38.90	318.93	16.59	-38.1	-39.2	22.1	0.00e+00	0	27	0	783286272	48	6565
2026-01-15 18:12:39.91	318.71	16.56	-38.1	-39.2	22.1	0.00e+00	0	27	0	785383424	48	6543
2026-01-15 18:12:40.92	318.50	16.52	-37.8	-38.8	22.3	0.00e+00	86	27	0	786432000	48	6307
2026-01-15 18:12:41.93	318.29	16.48	-37.8	-38.8	22.3	0.00e+00	0	27	0	788529152	48	6311
2026-01-15 18:12:42.94	318.08	16.44	-37.6	-38.6	22.6	0.00e+00	54	27	0	790626304	48	6128
2026-01-15 18:12:43.95	317.87	16.40	-37.6	-38.6	22.5	0.00e+00	0	27	0	792723456	48	6140
2026-01-15 18:12:44.96	317.66	16.36	-37.4	-38.4	22.7	0.00e+00	0	27	0	794820608	48	5975
2026-01-15 18:12:45.97	317.45	16.32	-37.6	-38.7	22.5	0.00e+00	0	27	0	795869184	48	6177
2026-01-15 18:12:46.98	317.24	16.28	-37.5	-38.4	22.7	0.00e+00	0	27	0	797966336	48	6026
2026-01-15 18:12:47.99	317.03	16.24	-37.4	-38.4	22.6	0.00e+00	76	27	0	800063488	48	5997
2026-01-15 18:12:49.00	316.82	16.20	-37.5	-38.5	22.6	0.00e+00	0	27	0	802160640	48	6042
2026-01-15 18:12:50.00	316.62	16.16	-37.1	-38.1	22.9	0.00e+00	86	27	0	804257792	48	5772
2026-01-15 18:12:51.01	316.41	16.12	-36.9	-37.8	23.0	0.00e+00	0	27	0	805306368	48	5616
2026-01-15 18:12:52.02	316.21	16.08	-36.6	-37.6	23.0	0.00e+00	0	27	0	807403520	46	6109
2026-01-15 18:12:53.03	316.00	16.04	-36.7	-37.6	23.1	0.00e+00	0	27	0	809500672	46	6154
2026-01-15 18:12:54.04	315.80	15.99	-36.4	-37.3	23.5	0.00e+00	0	27	0	811597824	46	5908
2026-01-15 18:12:55.05	315.59	15.95	-36.3	-37.2	23.6	0.00e+00	0	27	0	813694976	46	5878
2026-01-15 18:12:56.06	315.39	15.91	-36.4	-37.2	23.4	0.00e+00	0	27	0	815792128	46	5883
2026-01-15 18:12:57.07	315.18	15.87	-36.4	-37.3	23.6	0.00e+00	83	27	0	816840704	46	5913
2026-01-15 18:12:58.08	314.98	15.82	-36.5	-37.4	23.4	0.00e+00	0	27	0	818937856	46	6002
2026-01-15 18:12:59.09	314.78	15.78	-36.5	-37.3	23.4	0.00e+00	0	27	0	821035008	46	5959
2026-01-15 18:13:00.10	314.58	15.74	-36.7	-37.6	23.3	0.00e+00	0	27	0	823132160	46	6130
2026-01-15 18:13:01.11	314.38	15.69	-36.6	-37.6	23.2	0.00e+00	0	27	0	825229312	46	6117
2026-01-15 18:13:02.12	314.18	15.65	-37.0	-38.0	23.0	0.00e+00	73	27	0	826277888	46	6417
2026-01-15 18:13:03.14	313.97	15.60	-37.4	-38.4	22.6	0.00e+00	0	27	0	828375040	46	6756
2026-01-15 18:13:04.15	313.78	15.56	-37.9	-39.0	22.2	0.00e+00	42	27	0	830472192	48	6415
2026-01-15 18:13:05.16	313.58	15.51	-38.2	-39.3	21.7	0.00e+00	0	27	0	832569344	48	6692
2026-01-15 18:13:06.17	313.38	15.47	-38.5	-39.7	21.5	0.00e+00	0	27	0	834666496	48	6953
2026-01-15 18:13:07.18	313.18	15.42	-38.3	-39.4	21.8	0.00e+00	0	27	0	835715072	48	6768
2026-01-15 18:13:08.19	312.99	15.37	-38.4	-39.5	21.7	0.00e+00	0	27	0	837812224	48	6787
2026-01-15 18:13:09.19	312.79	15.33	-38.3	-39.4	22.0	0.00e+00	0	27	0	839909376	48	6717
2026-01-15 18:13:10.20	312.60	15.28	-38.2	-39.3	21.9	0.00e+00	0	27	0	842006528	48	6673
2026-01-15 18:13:11.22	312.40	15.23	-38.1	-39.1	22.0	0.00e+00	86	27	0	844103680	48	6538
2026-01-15 18:13:12.23	312.21	15.19	-38.1	-39.2	21.8	0.00e+00	0	27	0	845152256	48	6600
2026-01-15 18:13:13.24	312.01	15.14	-38.3	-39.4	21.8	0.00e+00	0	27	0	847249408	48	6765
2026-01-15 18:13:14.25	311.82	15.09	-38.4	-39.5	21.7	0.00e+00	0	27	0	849346560	48	6827
2026-01-15 18:13:15.26	311.63	15.05	-38.6	-39.7	21.6	0.00e+00	0	27	0	851443712	50	6216
2026-01-15 18:13:16.27	311.43	15.00	-38.5	-39.6	21.6	0.00e+00	65	27	0	853540864	50	6147
2026-01-15 18:13:17.28	311.24	14.95	-38.4	-39.5	21.8	0.00e+00	0	27	0	855638016	50	6047
2026-01-15 18:13:18.29	311.05	14.90	-38.5	-39.6	21.7	0.00e+00	75	27	0	856686592	50	6138
2026-01-15 18:13:19.30	310.86	14.85	-38.4	-39.5	21.7	0.00e+00	0	27	0	858783744	50	6050
2026-01-15 18:13:20.31	310.67	14.80	-38.0	-39.0	22.1	0.00e+00	89	27	0	860880896	50	5717
2026-01-15 18:13:21.32	310.49	14.75	-37.9	-38.9	22.3	0.00e+00	0	27	0	862978048	50	5645
2026-01-15 18:13:22.33	310.30	14.70	-37.6	-38.6	22.4	0.00e+00	0	27	0	864026624	48	6153
2026-01-15 18:13:23.34	310.11	14.66	-37.7	-38.8	22.4	0.00e+00	0	27	0	866123776	48	6247
2026-01-15 18:13:24.35	309.92	14.61	-37.7	-38.8	22.4	0.00e+00	0	27	0	868220928	48	6246
2026-01-15 18:13:25.36	309.74	14.56	-37.8	-38.8	22.3	0.00e+00	0	27	0	870318080	48	6314
2026-01-15 18:13:26.37	309.55	14.51	-37.6	-38.6	22.6	0.00e+00	33	27	0	872415232	48	6153
2026-01-15 18:13:27.38	309.37	14.46	-37.2	-38.2	22.8	0.00e+00	61	27	0	874512384	48	5844
2026-01-15 18:13:28.39	309.18	14.41	-37.2	-38.2	22.8	0.00e+00	0	27	0	875560960	48	5853
2026-01-15 18:13:29.40	309.00	14.35	-37.3	-38.2	22.9	0.00e+00	0	27	0	877658112	48	5873
2026-01-15 18:13:30.41	308.82	14.30	-37.2	-38.2	22.6	0.00e+00	0	27	0	879755264	48	5846
2026-01-15 18:13:31.42	308.64	14.25	-37.6	-38.5	22.5	0.00e+00	0	27	0	881852416	48	6081
2026-01-15 18:13:32.43	308.45	14.20	-37.8	-38.8	22.3	0.00e+00	17	27	0	883949568	48	6277
2026-01-15 18:13:33.44	308.27	14.15	-37.8	-38.8	22.4	0.00e+00	0	27	0	884998144	48	6265
2026-01-15 18:13:34.44	308.09	14.10	-38.0	-39.0	22.1	0.00e+00	91	27	0	887095296	48	6464
2026-01-15 18:13:35.45	307.91	14.05	-38.1	-39.2	22.0	0.00e+00	30	27	0	889192448	48	6549
2026-01-15 18:13:36.46	307.74	14.00	-37.9	-38.9	22.3	0.00e+00	0	27	0	891289600	48	6328
2026-01-15 18:13:37.47	307.56	13.94	-37.7	-38.6	22.4	0.00e+00	0	27	0	893386752	48	6168
2026-01-15 18:13:38.48	307.38	13.89	-37.5	-38.5	22.5	0.00e+00	31	27	0	894435328	48	6044
2026-01-15 18:13:39.49	307.20	13.84	-37.6	-38.6	22.5	0.00e+00	73	27	0	896532480	48	6105
2026-01-15 18:13:40.50	307.03	13.79	-37.6	-38.5	22.5	0.00e+00	0	27	0	898629632	48	6092
2026-01-15 18:13:41.51	306.85	13.73	-37.8	-38.8	22.3	0.00e+00	57	27	0	900726784	48	6311
2026-01-15 18:13:42.52	306.67	13.68	-37.6	-38.5	22.5	0.00e+00	0	27	0	902823936	48	6095
2026-01-15 18:13:43.53	306.50	13.63	-37.8	-38.7	22.4	0.00e+00	0	27	0	903872512	48	6232
2026-01-15 18:13:44.54	306.33	13.57	-38.0	-39.0	22.1	0.00e+00	0	27	0	905969664	48	6427
2026-01-15 18:13:45.55	306.15	13.52	-38.5	-39.5	21.6	0.00e+00	0	27	0	908066816	48	6842
2026-01-15 18:13:46.56	305.98	13.47	-38.8	-39.9	21.4	0.00e+00	0	27	0	910163968	50	6358
2026-01-15 18:13:47.57	305.81	13.41	-39.3	-40.5	20.7	0.00e+00	0	27	0	912261120	50	6776
2026-01-15 18:13:48.58	305.64	13.36	-39.9	-41.2	20.2	0.00e+00	90	27	0	913309696	52	6603
2026-01-15 18:13:49.59	305.47	13.31	-40.3	-41.7	19.7	0.00e+00	0	27	0	915406848	52	6975
2026-01-15 18:13:50.60	305.30	13.25	-40.6	-42.1	19.4	0.00e+00	0	27	0	917504000	52	7258
2026-01-15 18:13:51.61	305.13	13.20	-40.7	-42.2	19.4	0.00e+00	0	27	0	919601152	52	7400
2026-01-15 18:13:52.61	304.96	13.14	-40.3	-41.7	19.7	0.00e+00	0	27	0	921698304	54	6240
2026-01-15 18:13:53.62	304.79	13.09	-40.0	-41.4	20.0	0.00e+00	0	27	0	922746880	54	5990
2026-01-15 18:13:54.63	304.62	13.04	-40.2	-41.7	19.8	0.00e+00	0	27	0	924844032	54	6177
2026-01-15 18:13:55.64	304.46	12.98	-39.9	-41.2	20.3	0.00e+00	85	27	0	926941184	54	5864
2026-01-15 18:13:56.65	304.29	12.93	-39.6	-40.9	20.5	0.00e+00	0	27	0	929038336	52	6331
2026-01-15 18:13:57.66	304.12	12.87	-39.6	-40.9	20.6	0.00e+00	86	27	0	931135488	52	6318
2026-01-15 18:13:58.67	303.96	12.82	-39.3	-40.5	20.8	0.00e+00	0	27	0	932184064	52	6090
2026-01-15 18:13:59.68	303.79	12.76	-39.2	-40.4	20.9	0.00e+00	0	27	0	934281216	52	5991
2026-01-15 18:14:00.69	303.63	12.71	-39.1	-40.2	21.2	0.00e+00	0	27	0	936378368	52	5867
2026-01-15 18:14:01.70	303.47	12.65	-38.8	-39.9	21.3	0.00e+00	0	27	0	938475520	52	5644
2026-01-15 18:14:02.71	303.30	12.60	-38.5	-39.5	21.6	0.00e+00	86	27	0	940572672	50	6093
2026-01-15 18:14:03.72	303.14	12.54	-38.5	-39.6	21.6	0.00e+00	0	27	0	941621248	50	6108
2026-01-15 18:14:04.73	302.98	12.48	-38.3	-39.3	21.8	0.00e+00	92	27	0	943718400	50	5947
2026-01-15 18:14:05.74	302.82	12.43	-38.5	-39.6	21.6	0.00e+00	0	27	0	945815552	50	6133
2026-01-15 18:14:06.75	302.66	12.37	-38.5	-39.6	21.5	0.00e+00	0	27	0	947912704	50	6140
2026-01-15 18:14:07.76	302.50	12.32	-38.6	-39.7	21.3	0.00e+00	0	27	0	950009856	50	6211
2026-01-15 18:14:08.77	302.34	12.26	-38.6	-39.7	21.4	0.00e+00	0	27	0	952107008	50	6240
2026-01-15 18:14:09.78	302.18	12.20	-38.8	-39.9	21.3	0.00e+00	46	27	0	953155584	50	6341
2026-01-15 18:14:10.79	302.02	12.15	-38.6	-39.6	21.5	0.00e+00	0	27	0	955252736	50	6169
2026-01-15 18:14:11.80	301.87	12.09	-38.7	-39.8	21.3	0.00e+00	83	27	0	957349888	50	6294
2026-01-15 18:14:12.80	301.71	12.04	-38.4	-39.5	21.6	0.00e+00	0	27	0	959447040	50	6079
2026-01-15 18:14:13.81	301.56	11.98	-38.2	-39.2	21.9	0.00e+00	0	27	0	961544192	50	5861
2026-01-15 18:14:14.82	301.40	11.92	-38.1	-39.2	21.9	0.00e+00	0	27	0	962592768	50	5853
2026-01-15 18:14:15.83	301.25	11.87	-38.2	-39.3	21.9	0.00e+00	0	27	0	964689920	50	5899
2026-01-15 18:14:16.84	301.09	11.81	-38.0	-39.0	22.0	0.00e+00	0	27	0	966787072	50	5743
2026-01-15 18:14:17.85	300.94	11.75	-38.0	-39.0	22.0	0.00e+00	0	27	0	968884224	50	5735
2026-01-15 18:14:18.86	300.79	11.70	-38.0	-39.1	22.0	0.00e+00	82	27	0	970981376	50	5775
2026-01-15 18:14:19.87	300.63	11.64	-38.0	-39.1	22.0	0.00e+00	0	27	0	972029952	50	5774
2026-01-15 18:14:20.88	300.48	11.58	-38.1	-39.1	22.1	0.00e+00	0	27	0	974127104	50	5784
2026-01-15 18:14:21.89	300.33	11.53	-38.0	-39.1	21.9	0.00e+00	0	27	0	976224256	50	5769
2026-01-15 18:14:22.90	300.18	11.47	-38.2	-39.3	21.7	0.00e+00	0	27	0	978321408	50	5931
2026-01-15 18:14:23.91	300.03	11.41	-38.3	-39.3	21.7	0.00e+00	0	27	0	980418560	50	5958
2026-01-15 18:14:24.92	299.88	11.35	-38.4	-39.4	21.6	0.00e+00	0	27	0	981467136	50	6032
2026-01-15 18:14:25.93	299.73	11.30	-38.5	-39.6	21.5	0.00e+00	91	27	0	983564288	50	6132
2026-01-15 18:14:26.94	299.58	11.24	-38.7	-39.8	21.3	0.00e+00	0	27	0	985661440	50	6289
2026-01-15 18:14:27.95	299.44	11.18	-38.6	-39.7	21.3	0.00e+00	0	27	0	987758592	50	6195
2026-01-15 18:14:28.95	299.29	11.13	-38.5	-39.6	21.5	0.00e+00	0	27	0	989855744	50	6126
2026-01-15 18:14:29.96	299.14	11.07	-38.5	-39.6	21.5	0.00e+00	0	27	0	990904320	50	6153
2026-01-15 18:14:30.97	299.00	11.01	-38.4	-39.5	21.6	0.00e+00	0	27	0	993001472	50	6067
2026-01-15 18:14:31.98	298.85	10.95	-38.4	-39.5	21.5	0.00e+00	0	27	0	995098624	50	6098
2026-01-15 18:14:32.99	298.71	10.90	-38.4	-39.5	21.5	0.00e+00	85	27	0	997195776	50	6092
2026-01-15 18:14:34.00	298.56	10.84	-38.4	-39.5	21.6	0.00e+00	0	27	0	999292928	50	6091
2026-01-15 18:14:35.01	298.42	10.78	-38.1	-39.2	21.9	0.00e+00	86	27	0	1000341504	50	5878
2026-01-15 18:14:36.02	298.28	10.72	-38.0	-39.1	21.8	0.00e+00	0	27	0	1002438656	50	5804
2026-01-15 18:14:37.03	298.14	10.67	-38.1	-39.1	21.9	0.00e+00	0	27	0	1004535808	50	5822
2026-01-15 18:14:38.04	297.99	10.61	-37.9	-39.0	22.0	0.00e+00	17	27	0	1006632960	50	5727
2026-01-15 18:14:39.05	297.85	10.55	-37.6	-38.6	22.3	0.00e+00	0	27	0	1008730112	48	6171
2026-01-15 18:14:40.06	297.71	10.49	-37.5	-38.5	22.4	0.00e+00	84	27	0	1009778688	48	6076
2026-01-15 18:14:41.07	297.57	10.43	-37.2	-38.2	22.8	0.00e+00	0	27	0	1011875840	48	5833
2026-01-15 18:14:42.08	297.43	10.38	-37.1	-38.0	22.7	0.00e+00	86	27	0	1013972992	48	5746
2026-01-15 18:14:43.09	297.29	10.32	-37.1	-38.0	22.8	0.00e+00	0	27	0	1016070144	48	5752
2026-01-15 18:14:44.10	297.16	10.26	-36.8	-37.7	23.1	0.00e+00	0	27	0	1018167296	48	5530
2026-01-15 18:14:45.11	297.02	10.20	-36.8	-37.8	23.0	0.00e+00	0	27	0	1019215872	48	5567
2026-01-15 18:14:46.12	296.88	10.14	-36.9	-37.9	22.9	0.00e+00	0	27	0	1021313024	46	6326
2026-01-15 18:14:47.13	296.74	10.09	-37.1	-38.0	22.7	0.00e+00	0	27	0	1023410176	46	6453
2026-01-15 18:14:48.14	296.61	10.03	-37.4	-38.4	22.5	0.00e+00	0	27	0	1025507328	46	6697
2026-01-15 18:14:49.15	296.47	9.97	-37.4	-38.4	22.4	0.00e+00	29	27	0	1027604480	46	6723
2026-01-15 18:14:50.16	296.34	9.91	-37.5	-38.5	22.4	0.00e+00	0	27	0	1029701632	46	6773
2026-01-15 18:14:51.17	296.20	9.85	-37.6	-38.6	22.3	0.00e+00	0	27	0	1030750208	46	6860
2026-01-15 18:14:52.18	296.07	9.80	-37.6	-38.6	22.3	0.00e+00	0	27	0	1032847360	46	6862
2026-01-15 18:14:53.19	295.93	9.74	-37.6	-38.6	22.3	0.00e+00	0	27	0	1034944512	46	6867
2026-01-15 18:14:54.20	295.80	9.68	-37.5	-38.6	22.3	0.00e+00	86	27	0	1037041664	46	6852
2026-01-15 18:14:55.21	295.67	9.62	-37.3	-38.2	22.5	0.00e+00	0	27	0	1039138816	46	6606
2026-01-15 18:14:56.22	295.54	9.56	-37.2	-38.1	22.6	0.00e+00	84	27	0	1040187392	46	6517
2026-01-15 18:14:57.23	295.41	9.51	-37.2	-38.2	22.6	0.00e+00	0	27	0	1042284544	46	6594
2026-01-15 18:14:58.24	295.28	9.45	-37.2	-38.2	22.6	0.00e+00	0	27	0	1044381696	46	6584
2026-01-15 18:14:59.25	295.15	9.39	-37.1	-38.1	22.7	0.00e+00	0	27	0	1046478848	46	6482
2026-01-15 18:15:00.26	295.02	9.33	-37.1	-38.0	22.7	0.00e+00	0	27	0	1048576000	46	6451
2026-01-15 18:15:01.27	294.89	9.27	-37.2	-38.2	22.5	0.00e+00	0	27	0	1049624576	46	6596
2026-01-15 18:15:02.28	294.76	9.21	-37.1	-38.1	22.7	0.00e+00	0	27	0	1051721728	46	6512
2026-01-15 18:15:03.29	294.63	9.16	-37.3	-38.3	22.5	0.00e+00	79	27	0	1053818880	46	6658
2026-01-15 18:15:04.30	294.50	9.10	-37.6	-38.6	22.2	7.00e-07	0	27	0	1055916032	46	6919
2026-01-15 18:15:05.31	294.37	9.04	-37.5	-38.6	22.2	7.00e-07	65	27	0	1058013184	46	6862
2026-01-15 18:15:06.31	294.25	8.98	-37.6	-38.6	22.2	0.00e+00	0	27	0	1059061760	46	6890
2026-01-15 18:15:07.32	294.12	8.92	-37.7	-38.7	22.0	0.00e+00	0	27	0	1061158912	48	6239
2026-01-15 18:15:08.33	294.00	8.87	-37.7	-38.8	21.9	0.00e+00	57	27	0	1063256064	48	6264
2026-01-15 18:15:09.34	293.87	8.81	-37.9	-39.0	21.9	0.00e+00	0	27	0	1065353216	48	6418
2026-01-15 18:15:10.35	293.75	8.75	-37.9	-39.0	21.8	0.00e+00	62	27	0	1067450368	48	6443
2026-01-15 18:15:11.36	293.62	8.69	-38.1	-39.2	21.6	0.00e+00	0	27	0	1068498944	48	6566
2026-01-15 18:15:12.37	293.50	8.63	-37.9	-39.0	21.9	0.00e+00	90	27	0	1070596096	48	6424
2026-01-15 18:15:13.38	293.38	8.58	-38.2	-39.3	21.3	0.00e+00	0	27	0	1072693248	48	6660
2026-01-15 18:15:14.39	293.26	8.52	-38.3	-39.4	21.1	0.00e+00	0	27	0	1074790400	48	6755
2026-01-15 18:15:15.40	293.13	8.46	-38.2	-39.3	21.5	0.00e+00	0	27	0	1076887552	48	6667
2026-01-15 18:15:16.41	293.01	8.40	-38.3	-39.5	21.4	0.00e+00	0	27	0	1077936128	48	6779
2026-01-15 18:15:17.42	292.89	8.34	-38.2	-39.3	21.5	0.00e+00	64	27	0	1080033280	48	6666
2026-01-15 18:15:18.43	292.77	8.28	-38.1	-39.3	21.6	0.00e+00	0	27	0	1082130432	48	6618
2026-01-15 18:15:19.44	292.65	8.23	-38.2	-39.3	21.5	0.00e+00	91	27	0	1084227584	48	6645
2026-01-15 18:15:20.44	292.53	8.17	-38.3	-39.4	21.0	0.00e+00	0	27	0	1086324736	48	6769
2026-01-15 18:15:21.45	292.41	8.11	-38.1	-39.2	21.3	0.00e+00	0	27	0	1087373312	48	6561
2026-01-15 18:15:22.46	292.29	8.05	-37.8	-38.9	21.7	0.00e+00	0	27	0	1089470464	48	6340
2026-01-15 18:15:23.47	292.18	7.99	-37.7	-38.8	21.9	0.00e+00	0	27	0	1091567616	48	6268
2026-01-15 18:15:24.48	292.06	7.94	-37.5	-38.5	22.1	0.00e+00	73	27	0	1093664768	48	6071
2026-01-15 18:15:25.49	291.94	7.88	-37.5	-38.5	22.2	0.00e+00	0	27	0	1095761920	48	6056
2026-01-15 18:15:26.50	291.82	7.82	-37.4	-38.4	22.1	0.00e+00	92	27	0	1097859072	48	6031
2026-01-15 18:15:27.51	291.71	7.76	-37.3	-38.3	22.3	0.00e+00	0	27	0	1098907648	48	5951
2026-01-15 18:15:28.52	291.59	7.70	-37.2	-38.2	22.4	0.00e+00	0	27	0	1101004800	48	5830
2026-01-15 18:15:29.53	291.48	7.65	-37.3	-38.3	22.2	0.00e+00	0	27	0	1103101952	48	5950
2026-01-15 18:15:30.54	291.36	7.59	-37.4	-38.4	22.1	0.00e+00	0	27	0	1105199104	48	6028
2026-01-15 18:15:31.55	291.25	7.53	-37.6	-38.6	22.1	0.00e+00	81	27	0	1107296256	48	6140
2026-01-15 18:15:32.56	291.13	7.47	-37.9	-39.0	21.7	0.00e+00	0	27	0	1108344832	48	6447
2026-01-15 18:15:33.58	291.02	7.41	-37.9	-39.0	21.8	0.00e+00	85	27	0	1110441984	48	6392
2026-01-15 18:15:34.58	290.91	7.36	-38.4	-39.5	21.3	0.00e+00	0	27	0	1112539136	48	6808
2026-01-15 18:15:35.59	290.80	7.30	-38.6	-39.7	21.1	0.00e+00	0	27	0	1114636288	48	6997
2026-01-15 18:15:36.60	290.68	7.24	-38.7	-39.9	20.9	0.00e+00	0	27	0	1116733440	48	7116
2026-01-15 18:15:37.62	290.57	7.18	-38.8	-40.0	20.8	0.00e+00	0	27	0	1117782016	50	6435
2026-01-15 18:15:38.63	290.46	7.13	-38.8	-40.0	20.9	0.00e+00	25	27	0	1119879168	50	6396
2026-01-15 18:15:39.64	290.35	7.07	-38.7	-39.9	20.9	0.00e+00	0	27	0	1121976320	50	6352
2026-01-15 18:15:40.65	290.24	7.01	-38.4	-39.6	21.2	0.00e+00	73	27	0	1124073472	50	6135
2026-01-15 18:15:41.66	290.13	6.95	-38.6	-39.8	21.0	0.00e+00	0	27	0	1126170624	50	6294
2026-01-15 18:15:42.67	290.02	6.90	-38.3	-39.4	21.4	0.00e+00	1	27	0	1127219200	50	6004
2026-01-15 18:15:43.68	289.91	6.84	-38.4	-39.5	21.3	0.00e+00	0	27	0	1129316352	50	6076
2026-01-15 18:15:44.69	289.80	6.78	-38.3	-39.4	21.2	0.00e+00	0	27	0	1131413504	50	5997
2026-01-15 18:15:45.70	289.70	6.72	-38.1	-39.1	21.6	0.00e+00	0	27	0	1133510656	50	5826
2026-01-15 18:15:46.70	289.59	6.67	-38.3	-39.5	21.3	0.00e+00	0	27	0	1135607808	50	6035
2026-01-15 18:15:47.71	289.48	6.61	-38.3	-39.4	21.4	0.00e+00	82	27	0	1136656384	50	6021
2026-01-15 18:15:48.72	289.37	6.55	-37.9	-39.0	21.7	0.00e+00	0	27	0	1138753536	50	5702
2026-01-15 18:15:49.73	289.27	6.49	-37.9	-38.9	21.7	0.00e+00	21	27	0	1140850688	50	5695
2026-01-15 18:15:50.74	289.16	6.44	-38.2	-39.4	21.3	0.00e+00	0	27	0	1142947840	50	5972
2026-01-15 18:15:51.75	289.06	6.38	-38.1	-39.2	21.4	0.00e+00	0	27	0	1145044992	50	5896
2026-01-15 18:15:52.76	288.95	6.32	-38.2	-39.3	21.4	0.00e+00	0	27	0	1146093568	50	5915
2026-01-15 18:15:53.77	288.85	6.26	-38.4	-39.6	21.2	0.00e+00	0	27	0	1148190720	50	6107
2026-01-15 18:15:54.78	288.74	6.21	-38.2	-39.3	21.4	0.00e+00	76	27	0	1150287872	50	5935
2026-01-15 18:15:55.79	288.64	6.15	-38.6	-39.7	21.0	0.00e+00	0	27	0	1152385024	50	6221
2026-01-15 18:15:56.80	288.54	6.09	-38.8	-40.0	20.8	0.00e+00	92	27	0	1154482176	50	6399
2026-01-15 18:15:57.81	288.43	6.04	-38.9	-40.1	20.6	0.00e+00	0	27	0	1155530752	50	6536
2026-01-15 18:15:58.82	288.33	5.98	-38.9	-40.1	20.6	0.00e+00	0	27	0	1157627904	50	6528
2026-01-15 18:15:59.83	288.23	5.92	-39.1	-40.4	20.4	0.00e+00	0	27	0	1159725056	50	6718
2026-01-15 18:16:00.83	288.13	5.87	-39.3	-40.6	20.2	0.00e+00	0	27	0	1161822208	50	6875
2026-01-15 18:16:01.84	288.03	5.81	-39.4	-40.7	20.1	0.00e+00	75	27	0	1163919360	50	6950
2026-01-15 18:16:02.85	287.93	5.75	-39.6	-41.0	19.8	0.00e+00	0	27	0	1166016512	50	7190
2026-01-15 18:16:03.86	287.83	5.69	-39.7	-41.1	19.7	0.00e+00	75	27	0	1167065088	50	7307
2026-01-15 18:16:04.86	287.73	5.64	-39.5	-40.9	19.9	0.00e+00	6	27	0	1169162240	50	7106
2026-01-15 18:16:05.87	287.63	5.58	-39.5	-40.9	20.0	0.00e+00	0	27	0	1171259392	50	7118
2026-01-15 18:16:06.88	287.53	5.52	-39.4	-40.8	20.0	0.00e+00	0	27	0	1173356544	50	7018
2026-01-15 18:16:07.89	287.43	5.47	-39.4	-40.8	19.9	0.00e+00	0	27	0	1175453696	50	7028
2026-01-15 18:16:08.90	287.33	5.41	-39.4	-40.7	20.0	0.00e+00	0	27	0	1176502272	50	6973
2026-01-15 18:16:09.91	287.23	5.35	-39.3	-40.6	20.1	0.00e+00	0	27	0	1178599424	50	6892
2026-01-15 18:16:10.92	287.14	5.30	-39.3	-40.6	20.2	0.00e+00	73	27	0	1180696576	50	6859
2026-01-15 18:16:11.93	287.04	5.24	-39.5	-40.8	20.0	0.00e+00	0	27	0	1182793728	50	7066
2026-01-15 18:16:12.94	286.94	5.19	-39.3	-40.6	20.1	0.00e+00	0	27	0	1184890880	50	6870
2026-01-15 18:16:13.95	286.84	5.13	-39.1	-40.4	20.2	0.00e+00	0	27	0	1185939456	50	6759
2026-01-15 18:16:14.96	286.75	5.07	-39.7	-41.1	19.7	7.00e-07	0	27	0	1188036608	50	7260
2026-01-15 18:16:15.97	286.65	5.02	-39.5	-40.9	19.8	0.00e+00	0	27	0	1190133760	50	7122
2026-01-15 18:16:16.98	286.56	4.96	-39.9	-41.3	19.4	0.00e+00	0	27	0	1192230912	52	6681
2026-01-15 18:16:17.99	286.46	4.90	-40.2	-41.8	18.9	0.00e+00	76	27	0	1194328064	52	7020
2026-01-15 18:16:18.99	286.37	4.85	-40.1	-41.6	19.0	0.00e+00	0	27	0	1195376640	52	6927
2026-01-15 18:16:20.00	286.27	4.79	-40.5	-42.2	18.6	0.00e+00	24	27	0	1197473792	52	7354
2026-01-15 18:16:21.01	286.18	4.74	-40.4	-42.1	18.6	0.00e+00	0	27	0	1199570944	52	7265
