passes_logs/2026/01/15/R4.6S_Anadyr/R4.6S_Anadyr__20260115_212140_SUOMI_NPP_rec.log

#Pass ID: 20260115_212140_SUOMI NPP
#Satellite: SUOMI NPP
#Configuration: NPP
#almurnet v.1.7.20251203
#Start time: 2026-01-15 21:21:41

#Version: 2.2.20231116
#Station: R4.6S_Anadyr
#Location: 177.4865 lon 64.73178 lat
#TLE: 1 37849U 11061A   26014.61059675  .00000037  00000+0  38639-4 0  9994
#TLE: 2 37849  98.7810 316.6625 0002460  64.3781 295.7649 14.19525105736658

#Time	Az	El	Level	Level2	SNR	BER	BlckErr	Temp	State	Recorded	gain1	gain2
2026-01-15 21:21:41.46	87.24	0.04	-48.0	-60.5	3.4	1.52e+00	0	26	0	0	60	37217
2026-01-15 21:21:42.46	87.18	0.10	-48.1	-63.4	3.6	1.51e+00	0	27	104	0	60	53271
2026-01-15 21:21:43.47	87.12	0.15	-48.0	-63.3	3.5	1.51e+00	0	27	104	0	60	52741
2026-01-15 21:21:44.48	87.05	0.20	-48.0	-63.2	3.6	1.51e+00	0	27	104	0	60	52455
2026-01-15 21:21:45.49	86.99	0.26	-48.0	-63.2	3.6	1.51e+00	0	27	104	0	60	52314
2026-01-15 21:21:46.50	86.92	0.31	-48.0	-63.2	3.6	1.51e+00	0	27	104	0	60	52255
2026-01-15 21:21:47.51	86.86	0.36	-48.0	-63.3	3.6	1.51e+00	0	27	104	0	60	52764
2026-01-15 21:21:48.52	86.80	0.42	-47.9	-63.2	3.6	1.51e+00	0	27	104	0	60	52260
2026-01-15 21:21:49.53	86.73	0.47	-48.0	-63.2	3.6	1.51e+00	0	27	104	0	60	52300
2026-01-15 21:21:50.54	86.66	0.52	-47.9	-63.2	3.6	1.51e+00	0	27	104	0	60	52178
2026-01-15 21:21:51.54	86.60	0.57	-48.1	-63.2	3.6	1.51e+00	0	27	104	0	60	52359
2026-01-15 21:21:52.55	86.53	0.63	-47.8	-63.2	3.6	1.51e+00	0	27	104	0	60	52149
2026-01-15 21:21:53.56	86.47	0.68	-48.0	-63.2	3.6	1.51e+00	0	27	104	0	60	52247
2026-01-15 21:21:54.56	86.40	0.73	-47.7	-63.1	3.6	1.51e+00	0	27	104	0	60	51367
2026-01-15 21:21:55.57	86.34	0.79	-46.1	-63.0	3.6	1.51e+00	0	27	104	0	60	50772
2026-01-15 21:21:56.58	86.27	0.84	-46.8	-62.8	3.6	1.51e+00	0	27	104	0	60	49681
2026-01-15 21:21:57.59	86.20	0.90	-45.2	-62.3	3.6	1.51e+00	0	27	104	0	60	47142
2026-01-15 21:21:58.60	86.13	0.95	-46.3	-61.6	3.6	1.51e+00	0	27	104	0	60	43237
2026-01-15 21:21:59.61	86.07	1.00	-44.7	-61.4	3.6	1.51e+00	0	27	104	0	60	42701
2026-01-15 21:22:00.62	86.00	1.06	-44.8	-61.4	3.6	1.51e+00	0	27	104	0	60	42473
2026-01-15 21:22:01.63	85.93	1.11	-44.7	-61.5	3.6	1.51e+00	0	27	104	0	60	42741
2026-01-15 21:22:02.63	85.86	1.17	-44.7	-61.4	3.6	1.51e+00	0	27	104	0	60	42527
2026-01-15 21:22:03.64	85.79	1.22	-44.7	-61.4	3.6	1.51e+00	0	27	104	0	60	42337
2026-01-15 21:22:04.65	85.72	1.27	-44.7	-61.4	3.6	1.51e+00	0	27	104	0	60	42299
2026-01-15 21:22:05.66	85.66	1.33	-44.6	-61.4	3.6	1.51e+00	0	27	104	0	60	42413
2026-01-15 21:22:06.67	85.59	1.38	-44.7	-61.3	3.6	1.51e+00	0	27	104	0	60	41745
2026-01-15 21:22:07.68	85.52	1.44	-44.7	-61.4	3.6	1.51e+00	0	27	104	0	60	42233
2026-01-15 21:22:08.69	85.45	1.49	-44.7	-61.4	3.6	1.51e+00	0	27	104	0	60	42450
2026-01-15 21:22:09.70	85.38	1.55	-44.7	-61.4	3.6	1.51e+00	0	27	104	0	60	42307
2026-01-15 21:22:10.71	85.30	1.60	-44.7	-61.4	3.6	1.51e+00	0	27	104	0	60	42243
2026-01-15 21:22:11.72	85.23	1.65	-44.7	-61.3	3.6	1.51e+00	0	28	104	0	60	41986
2026-01-15 21:22:12.73	85.16	1.71	-44.7	-61.2	3.6	1.51e+00	0	27	104	0	60	41609
2026-01-15 21:22:13.74	85.09	1.76	-44.6	-61.2	3.5	1.51e+00	0	28	104	0	60	41283
2026-01-15 21:22:14.75	85.02	1.82	-44.7	-61.0	3.6	1.51e+00	0	27	104	0	60	40557
2026-01-15 21:22:15.76	84.95	1.87	-44.6	-60.7	3.6	1.51e+00	0	28	104	0	60	39372
2026-01-15 21:22:16.77	84.88	1.93	-44.6	-60.5	3.6	1.51e+00	0	27	104	0	60	38332
2026-01-15 21:22:17.77	84.80	1.98	-44.6	-60.8	3.6	1.51e+00	0	28	104	0	60	39729
2026-01-15 21:22:18.78	84.73	2.04	-44.6	-60.9	3.6	1.51e+00	0	27	104	0	60	39917
2026-01-15 21:22:19.79	84.66	2.09	-44.6	-61.1	3.6	1.51e+00	0	28	104	0	60	41089
2026-01-15 21:22:20.80	84.58	2.15	-44.7	-61.2	3.6	1.51e+00	0	27	104	0	60	41540
2026-01-15 21:22:21.81	84.51	2.20	-44.6	-61.4	3.6	1.51e+00	0	28	104	0	60	42264
2026-01-15 21:22:22.82	84.44	2.26	-44.7	-61.4	3.6	1.51e+00	0	28	104	0	60	42400
2026-01-15 21:22:23.84	84.36	2.32	-44.6	-61.3	3.6	1.51e+00	0	27	104	0	60	42077
2026-01-15 21:22:24.85	84.29	2.37	-44.6	-61.3	3.5	1.51e+00	0	28	104	0	60	42171
2026-01-15 21:22:25.86	84.21	2.43	-44.6	-61.4	3.6	1.51e+00	0	28	104	0	60	42358
2026-01-15 21:22:26.87	84.14	2.48	-44.6	-61.3	3.6	1.51e+00	0	28	104	0	60	41845
2026-01-15 21:22:27.88	84.06	2.54	-44.6	-60.8	3.6	1.51e+00	0	28	104	0	60	39834
2026-01-15 21:22:28.89	83.99	2.59	-44.6	-60.3	3.6	1.51e+00	0	28	104	0	60	37629
2026-01-15 21:22:29.90	83.91	2.65	-44.6	-59.8	3.6	1.51e+00	0	28	104	0	60	35216
2026-01-15 21:22:30.91	83.83	2.70	-44.6	-59.8	3.6	1.51e+00	0	28	104	0	60	35518
2026-01-15 21:22:31.92	83.76	2.76	-44.6	-60.5	3.6	1.51e+00	0	28	104	0	60	38502
2026-01-15 21:22:32.93	83.68	2.82	-44.6	-60.9	3.6	1.51e+00	0	28	104	0	60	40231
2026-01-15 21:22:33.94	83.60	2.87	-44.6	-60.4	3.6	1.51e+00	0	28	104	0	60	37755
2026-01-15 21:22:34.95	83.53	2.93	-44.4	-58.0	3.8	1.51e+00	0	28	104	0	60	28811
2026-01-15 21:22:35.96	83.45	2.99	-44.3	-55.2	5.1	9.08e-01	0	28	0	0	60	20865
2026-01-15 21:22:36.97	83.37	3.04	-44.2	-53.9	5.4	3.99e-01	0	28	0	2097152	60	17896
2026-01-15 21:22:37.98	83.29	3.10	-44.1	-52.7	6.4	2.89e-01	0	28	0	3145728	60	15594
2026-01-15 21:22:38.99	83.21	3.15	-44.0	-52.7	6.5	2.44e-01	0	28	0	5242880	60	15576
2026-01-15 21:22:40.00	83.13	3.21	-45.1	-53.7	5.9	1.97e-01	0	28	0	6291456	60	17502
2026-01-15 21:22:41.01	83.05	3.27	-45.9	-59.0	3.6	5.71e-01	0	28	104	8388608	60	32207
2026-01-15 21:22:42.02	82.97	3.32	-44.1	-59.2	3.6	9.07e-01	0	28	104	8388608	60	32991
2026-01-15 21:22:43.03	82.89	3.38	-40.9	-43.0	17.1	5.22e-03	0	28	0	8388608	54	7210
2026-01-15 21:22:44.04	82.81	3.44	-43.4	-60.9	3.6	5.95e-01	0	28	104	9437184	60	40176
2026-01-15 21:22:45.04	82.73	3.49	-40.4	-42.4	17.0	7.30e-01	0	28	104	9437184	54	6741
2026-01-15 21:22:46.05	82.65	3.55	-40.9	-43.2	17.1	0.00e+00	0	28	0	9437184	54	7371
2026-01-15 21:22:47.06	82.57	3.61	-40.9	-43.1	17.2	0.00e+00	0	28	0	11534336	54	7287
2026-01-15 21:22:48.07	82.49	3.66	-40.6	-42.6	17.7	0.00e+00	0	28	0	13631488	54	6916
2026-01-15 21:22:49.08	82.41	3.72	-40.9	-43.0	17.5	0.00e+00	0	28	0	15728640	54	7194
2026-01-15 21:22:50.09	82.33	3.78	-40.4	-42.2	17.9	0.00e+00	0	28	0	17825792	54	6590
2026-01-15 21:22:51.10	82.24	3.83	-40.3	-42.1	18.3	0.00e+00	0	28	0	18874368	54	6500
2026-01-15 21:22:52.11	82.16	3.89	-40.0	-41.7	18.6	0.00e+00	0	28	0	20971520	54	6186
2026-01-15 21:22:53.12	82.08	3.95	-40.4	-42.2	17.9	0.00e+00	0	28	0	23068672	54	6599
2026-01-15 21:22:54.13	81.99	4.01	-40.6	-42.5	17.8	0.00e+00	0	28	0	25165824	54	6797
2026-01-15 21:22:55.14	81.91	4.06	-40.5	-42.4	18.1	0.00e+00	0	28	0	27262976	54	6741
2026-01-15 21:22:56.15	81.83	4.12	-40.5	-42.3	17.9	0.00e+00	0	28	0	29360128	54	6682
2026-01-15 21:22:57.16	81.74	4.18	-40.8	-42.8	17.9	0.00e+00	0	28	0	30408704	54	7009
2026-01-15 21:22:58.17	81.66	4.24	-40.7	-42.6	17.8	0.00e+00	0	28	0	32505856	54	6909
2026-01-15 21:22:59.18	81.57	4.29	-40.4	-42.3	18.1	0.00e+00	0	28	0	34603008	54	6619
2026-01-15 21:23:00.19	81.49	4.35	-40.4	-42.2	18.2	0.00e+00	0	28	0	36700160	54	6586
2026-01-15 21:23:01.19	81.40	4.41	-40.2	-42.0	18.5	0.00e+00	0	28	0	38797312	54	6391
2026-01-15 21:23:02.20	81.31	4.47	-40.3	-42.0	18.4	0.00e+00	0	28	0	39845888	54	6453
2026-01-15 21:23:03.21	81.23	4.52	-40.1	-41.8	18.7	0.00e+00	0	28	0	41943040	54	6256
2026-01-15 21:23:04.22	81.14	4.58	-40.3	-42.1	18.5	0.00e+00	0	28	0	44040192	54	6476
2026-01-15 21:23:05.23	81.05	4.64	-39.9	-41.5	18.9	0.00e+00	0	28	0	46137344	54	6100
2026-01-15 21:23:06.24	80.96	4.70	-40.3	-42.1	18.4	0.00e+00	0	28	0	48234496	54	6482
2026-01-15 21:23:07.25	80.88	4.76	-40.4	-42.1	18.4	0.00e+00	0	28	0	49283072	54	6529
2026-01-15 21:23:08.26	80.79	4.81	-40.3	-42.0	18.6	0.00e+00	0	28	0	51380224	54	6428
2026-01-15 21:23:09.27	80.70	4.87	-40.4	-42.1	18.6	0.00e+00	0	28	0	53477376	54	6500
2026-01-15 21:23:10.27	80.61	4.93	-39.9	-41.5	18.9	0.00e+00	0	28	0	55574528	54	6058
2026-01-15 21:23:11.28	80.52	4.99	-39.8	-41.3	19.3	0.00e+00	0	28	0	57671680	52	6675
2026-01-15 21:23:12.29	80.43	5.05	-39.4	-40.8	19.8	0.00e+00	0	28	0	58720256	52	6291
2026-01-15 21:23:13.30	80.34	5.11	-39.5	-40.9	19.7	0.00e+00	0	28	0	60817408	52	6347
2026-01-15 21:23:14.31	80.25	5.16	-39.6	-41.1	19.4	0.00e+00	0	28	0	62914560	52	6483
2026-01-15 21:23:15.32	80.16	5.22	-39.7	-41.2	19.5	0.00e+00	0	28	0	65011712	52	6543
2026-01-15 21:23:16.33	80.07	5.28	-39.8	-41.3	19.3	0.00e+00	0	28	0	67108864	52	6627
2026-01-15 21:23:17.34	79.97	5.34	-40.0	-41.5	19.1	0.00e+00	0	28	0	68157440	52	6834
2026-01-15 21:23:18.35	79.88	5.40	-40.0	-41.6	19.0	0.00e+00	0	28	0	70254592	52	6903
2026-01-15 21:23:19.36	79.79	5.46	-39.8	-41.4	19.4	0.00e+00	0	28	0	72351744	52	6696
2026-01-15 21:23:20.37	79.70	5.52	-39.8	-41.4	19.2	0.00e+00	0	28	0	74448896	52	6704
2026-01-15 21:23:21.38	79.60	5.58	-39.8	-41.3	19.4	0.00e+00	0	28	0	76546048	52	6652
2026-01-15 21:23:22.39	79.51	5.64	-39.9	-41.5	19.3	0.00e+00	0	28	0	77594624	52	6776
2026-01-15 21:23:23.40	79.42	5.69	-39.6	-41.1	19.7	0.00e+00	0	28	0	79691776	52	6474
2026-01-15 21:23:24.41	79.32	5.75	-40.0	-41.5	19.2	0.00e+00	0	28	0	81788928	52	6825
2026-01-15 21:23:25.42	79.23	5.81	-39.8	-41.3	19.4	0.00e+00	0	28	0	83886080	52	6657
2026-01-15 21:23:26.42	79.13	5.87	-40.1	-41.7	18.9	0.00e+00	0	28	0	85983232	52	6964
2026-01-15 21:23:27.43	79.04	5.93	-40.1	-41.7	18.9	0.00e+00	0	28	0	87031808	52	6941
2026-01-15 21:23:28.44	78.94	5.99	-40.4	-42.1	18.7	0.00e+00	0	28	0	89128960	52	7272
2026-01-15 21:23:29.45	78.84	6.05	-40.6	-42.3	18.2	0.00e+00	0	28	0	91226112	52	7463
2026-01-15 21:23:30.46	78.75	6.11	-40.6	-42.3	18.5	0.00e+00	0	28	0	93323264	52	7492
2026-01-15 21:23:31.47	78.65	6.17	-40.7	-42.4	18.4	0.00e+00	0	28	0	95420416	52	7558
2026-01-15 21:23:32.48	78.55	6.23	-40.4	-42.1	18.7	0.00e+00	0	28	0	97517568	52	7272
2026-01-15 21:23:33.49	78.45	6.29	-40.4	-42.1	18.6	0.00e+00	0	28	0	98566144	54	6471
2026-01-15 21:23:34.50	78.35	6.35	-40.4	-42.0	18.7	0.00e+00	0	28	0	100663296	54	6404
2026-01-15 21:23:35.51	78.25	6.41	-40.2	-41.8	19.1	0.00e+00	0	28	0	102760448	54	6293
2026-01-15 21:23:36.52	78.15	6.47	-40.5	-42.2	18.7	0.00e+00	0	28	0	104857600	54	6551
2026-01-15 21:23:37.53	78.05	6.53	-40.4	-41.9	18.9	0.00e+00	0	28	0	106954752	54	6367
2026-01-15 21:23:38.54	77.95	6.59	-40.8	-42.4	18.4	0.00e+00	0	28	0	108003328	54	6759
2026-01-15 21:23:39.54	77.85	6.65	-40.4	-41.9	18.9	0.00e+00	0	28	0	110100480	54	6365
2026-01-15 21:23:40.55	77.75	6.71	-40.2	-41.7	19.0	0.00e+00	0	28	0	112197632	54	6227
2026-01-15 21:23:41.56	77.65	6.77	-40.0	-41.5	19.3	0.00e+00	0	28	0	114294784	54	6044
2026-01-15 21:23:42.57	77.55	6.83	-39.9	-41.3	19.4	0.00e+00	0	28	0	116391936	54	5962
2026-01-15 21:23:43.58	77.45	6.89	-39.8	-41.2	19.4	0.00e+00	0	28	0	117440512	52	6603
2026-01-15 21:23:44.59	77.34	6.95	-40.0	-41.5	19.3	0.00e+00	0	28	0	119537664	52	6811
2026-01-15 21:23:45.60	77.24	7.01	-39.6	-41.0	19.8	0.00e+00	0	28	0	121634816	52	6405
2026-01-15 21:23:46.61	77.14	7.07	-39.8	-41.2	19.6	0.00e+00	0	28	0	123731968	52	6571
2026-01-15 21:23:47.62	77.03	7.13	-39.7	-41.1	19.6	0.00e+00	0	28	0	125829120	52	6523
2026-01-15 21:23:48.63	76.93	7.19	-39.9	-41.3	19.5	0.00e+00	0	28	0	126877696	52	6621
2026-01-15 21:23:49.64	76.82	7.25	-40.0	-41.5	19.4	0.00e+00	0	28	0	128974848	52	6773
2026-01-15 21:23:50.64	76.72	7.31	-39.9	-41.3	19.6	0.00e+00	0	28	0	131072000	52	6686
2026-01-15 21:23:51.66	76.61	7.37	-40.0	-41.5	19.4	0.00e+00	0	28	0	133169152	52	6798
2026-01-15 21:23:52.67	76.50	7.43	-40.0	-41.6	19.3	0.00e+00	0	28	0	135266304	52	6851
2026-01-15 21:23:53.68	76.40	7.49	-39.9	-41.3	19.4	0.00e+00	0	28	0	136314880	52	6687
2026-01-15 21:23:54.69	76.29	7.55	-39.9	-41.4	19.5	0.00e+00	0	28	0	138412032	52	6716
2026-01-15 21:23:55.70	76.18	7.61	-40.0	-41.5	19.4	0.00e+00	0	28	0	140509184	52	6790
2026-01-15 21:23:56.70	76.08	7.68	-39.9	-41.4	19.5	0.00e+00	0	28	0	142606336	52	6697
2026-01-15 21:23:57.71	75.97	7.74	-40.0	-41.5	19.4	0.00e+00	0	28	0	144703488	52	6787
2026-01-15 21:23:58.72	75.86	7.80	-40.0	-41.5	19.4	0.00e+00	0	28	0	145752064	52	6801
2026-01-15 21:23:59.73	75.75	7.86	-40.2	-41.8	19.2	0.00e+00	0	28	0	147849216	52	7067
2026-01-15 21:24:00.74	75.64	7.92	-40.2	-41.7	19.3	0.00e+00	0	28	0	149946368	52	6969
2026-01-15 21:24:01.75	75.53	7.98	-40.3	-41.9	19.0	0.00e+00	0	28	0	152043520	52	7149
2026-01-15 21:24:02.76	75.42	8.04	-40.2	-41.8	19.2	0.00e+00	0	28	0	154140672	52	7034
2026-01-15 21:24:03.77	75.30	8.10	-40.0	-41.5	19.1	0.00e+00	0	28	0	155189248	52	6839
2026-01-15 21:24:04.78	75.19	8.16	-40.0	-41.5	19.5	0.00e+00	0	28	0	157286400	52	6832
2026-01-15 21:24:05.79	75.08	8.23	-39.9	-41.4	19.5	0.00e+00	0	28	0	159383552	52	6707
2026-01-15 21:24:06.80	74.97	8.29	-40.0	-41.5	19.4	0.00e+00	0	28	0	161480704	52	6792
2026-01-15 21:24:07.81	74.85	8.35	-40.0	-41.5	19.5	0.00e+00	0	28	0	163577856	52	6824
2026-01-15 21:24:08.82	74.74	8.41	-39.8	-41.2	19.8	0.00e+00	0	28	0	165675008	52	6583
2026-01-15 21:24:09.83	74.62	8.47	-39.9	-41.3	19.6	0.00e+00	0	28	0	166723584	52	6681
2026-01-15 21:24:10.84	74.51	8.53	-39.7	-41.1	19.8	0.00e+00	0	28	0	168820736	52	6503
2026-01-15 21:24:11.85	74.39	8.59	-39.6	-40.9	20.0	0.00e+00	0	28	0	170917888	52	6371
2026-01-15 21:24:12.85	74.28	8.66	-39.5	-40.8	20.1	0.00e+00	0	28	0	173015040	52	6307
2026-01-15 21:24:13.87	74.16	8.72	-39.6	-41.0	19.9	0.00e+00	0	28	0	174063616	52	6410
2026-01-15 21:24:14.87	74.04	8.78	-39.4	-40.7	20.2	0.00e+00	0	28	0	176160768	52	6245
2026-01-15 21:24:15.88	73.93	8.84	-39.4	-40.8	20.2	0.00e+00	0	28	0	178257920	52	6267
2026-01-15 21:24:16.89	73.81	8.90	-39.5	-41.0	20.0	0.00e+00	0	28	0	180355072	52	6400
2026-01-15 21:24:17.90	73.69	8.96	-39.5	-40.9	20.0	0.00e+00	0	28	0	182452224	52	6380
2026-01-15 21:24:18.91	73.57	9.03	-39.3	-40.7	20.2	0.00e+00	0	28	0	183500800	52	6194
2026-01-15 21:24:19.92	73.45	9.09	-39.2	-40.4	20.6	0.00e+00	0	28	0	185597952	52	6026
2026-01-15 21:24:20.93	73.33	9.15	-39.2	-40.5	20.4	0.00e+00	0	28	0	187695104	52	6091
2026-01-15 21:24:21.94	73.21	9.21	-39.0	-40.3	20.6	0.00e+00	0	28	0	189792256	52	5931
2026-01-15 21:24:22.95	73.09	9.27	-39.1	-40.4	20.6	0.00e+00	0	28	0	191889408	52	6001
2026-01-15 21:24:23.96	72.97	9.34	-39.4	-40.8	20.2	0.00e+00	0	28	0	193986560	52	6288
2026-01-15 21:24:24.97	72.84	9.40	-39.4	-40.7	20.3	0.00e+00	0	28	0	195035136	52	6218
2026-01-15 21:24:25.98	72.72	9.46	-39.3	-40.6	20.3	0.00e+00	0	28	0	197132288	52	6146
2026-01-15 21:24:26.99	72.60	9.52	-39.2	-40.6	20.4	0.00e+00	0	28	0	199229440	52	6127
2026-01-15 21:24:28.00	72.47	9.58	-39.0	-40.3	20.6	0.00e+00	0	28	0	201326592	52	5918
2026-01-15 21:24:29.01	72.35	9.65	-39.1	-40.5	20.4	0.00e+00	0	28	0	203423744	52	6035
2026-01-15 21:24:30.02	72.23	9.71	-39.1	-40.4	20.6	0.00e+00	0	28	0	204472320	52	5999
2026-01-15 21:24:31.03	72.10	9.77	-39.1	-40.5	20.5	0.00e+00	0	28	0	206569472	52	6038
2026-01-15 21:24:32.04	71.97	9.83	-39.5	-40.9	20.1	0.00e+00	0	28	0	208666624	52	6345
2026-01-15 21:24:33.05	71.85	9.89	-39.5	-40.9	20.2	0.00e+00	0	28	0	210763776	52	6326
2026-01-15 21:24:34.06	71.72	9.96	-39.5	-41.0	20.1	0.00e+00	0	28	0	212860928	52	6405
2026-01-15 21:24:35.07	71.59	10.02	-39.6	-41.0	20.0	0.00e+00	0	28	0	213909504	52	6412
2026-01-15 21:24:36.08	71.46	10.08	-39.8	-41.3	19.9	0.00e+00	0	28	0	216006656	52	6624
2026-01-15 21:24:37.09	71.33	10.14	-39.8	-41.2	20.1	0.00e+00	0	28	0	218103808	52	6593
2026-01-15 21:24:38.09	71.21	10.20	-39.4	-40.7	20.3	0.00e+00	0	28	0	220200960	52	6224
2026-01-15 21:24:39.11	71.08	10.27	-39.5	-40.9	20.2	0.00e+00	0	28	0	222298112	52	6318
2026-01-15 21:24:40.11	70.95	10.33	-39.4	-40.7	20.3	0.00e+00	0	28	0	223346688	52	6211
2026-01-15 21:24:41.12	70.82	10.39	-39.5	-40.9	20.3	0.00e+00	0	28	0	225443840	52	6327
2026-01-15 21:24:42.13	70.68	10.45	-39.5	-40.9	20.3	0.00e+00	0	28	0	227540992	52	6372
2026-01-15 21:24:43.14	70.55	10.52	-39.2	-40.5	20.5	0.00e+00	0	28	0	229638144	52	6047
2026-01-15 21:24:44.15	70.42	10.58	-38.7	-40.0	21.0	0.00e+00	0	28	0	231735296	52	5707
2026-01-15 21:24:45.16	70.29	10.64	-39.0	-40.2	21.0	0.00e+00	0	28	0	232783872	50	6610
2026-01-15 21:24:46.17	70.15	10.70	-38.6	-39.9	21.1	0.00e+00	0	28	0	234881024	50	6321
2026-01-15 21:24:47.18	70.02	10.77	-38.8	-40.0	21.0	0.00e+00	0	28	0	236978176	50	6456
2026-01-15 21:24:48.19	69.88	10.83	-38.7	-39.9	21.0	0.00e+00	0	28	0	239075328	50	6339
2026-01-15 21:24:49.20	69.75	10.89	-38.7	-40.0	21.0	0.00e+00	0	28	0	241172480	50	6410
2026-01-15 21:24:50.21	69.61	10.95	-38.9	-40.1	20.8	0.00e+00	0	28	0	242221056	50	6519
2026-01-15 21:24:51.22	69.47	11.02	-39.0	-40.3	20.7	0.00e+00	0	28	0	244318208	50	6621
2026-01-15 21:24:52.23	69.34	11.08	-39.0	-40.3	20.8	0.00e+00	0	28	0	246415360	50	6625
2026-01-15 21:24:53.24	69.20	11.14	-38.8	-40.0	20.8	0.00e+00	0	28	0	248512512	50	6451
2026-01-15 21:24:54.25	69.06	11.20	-39.0	-40.4	20.7	0.00e+00	0	28	0	250609664	50	6711
2026-01-15 21:24:55.26	68.92	11.26	-38.9	-40.2	20.5	0.00e+00	0	28	0	251658240	50	6606
2026-01-15 21:24:56.27	68.78	11.33	-39.1	-40.4	20.7	0.00e+00	0	28	0	253755392	50	6738
2026-01-15 21:24:57.28	68.64	11.39	-39.3	-40.7	20.5	0.00e+00	0	28	0	255852544	50	7004
2026-01-15 21:24:58.29	68.50	11.45	-38.8	-40.1	20.7	0.00e+00	0	28	0	257949696	50	6519
2026-01-15 21:24:59.30	68.36	11.51	-38.8	-40.1	20.9	0.00e+00	0	28	0	260046848	50	6473
2026-01-15 21:25:00.31	68.21	11.58	-38.7	-40.0	20.9	0.00e+00	0	28	0	262144000	50	6441
2026-01-15 21:25:01.32	68.07	11.64	-38.7	-40.0	21.0	0.00e+00	0	28	0	263192576	50	6414
2026-01-15 21:25:02.33	67.93	11.70	-38.9	-40.1	20.9	0.00e+00	0	28	0	265289728	50	6511
2026-01-15 21:25:03.33	67.78	11.76	-38.9	-40.1	20.9	0.00e+00	0	28	0	267386880	50	6533
2026-01-15 21:25:04.34	67.64	11.82	-38.7	-39.8	21.2	0.00e+00	0	28	0	269484032	50	6289
2026-01-15 21:25:05.35	67.49	11.89	-38.6	-39.8	21.2	0.00e+00	0	28	0	271581184	50	6253
2026-01-15 21:25:06.36	67.35	11.95	-38.8	-39.9	21.1	0.00e+00	0	28	0	272629760	50	6369
2026-01-15 21:25:07.37	67.20	12.01	-38.6	-39.7	21.2	0.00e+00	0	28	0	274726912	50	6232
2026-01-15 21:25:08.38	67.05	12.07	-38.9	-40.1	20.9	0.00e+00	0	28	0	276824064	50	6466
2026-01-15 21:25:09.39	66.91	12.14	-38.8	-40.0	21.0	0.00e+00	0	28	0	278921216	50	6435
2026-01-15 21:25:10.40	66.76	12.20	-39.0	-40.2	20.9	0.00e+00	0	28	0	281018368	50	6551
2026-01-15 21:25:11.41	66.61	12.26	-38.7	-39.9	21.0	0.00e+00	0	28	0	282066944	50	6373
2026-01-15 21:25:12.42	66.46	12.32	-38.6	-39.8	21.1	0.00e+00	0	28	0	284164096	50	6287
2026-01-15 21:25:13.43	66.31	12.38	-38.7	-39.8	21.2	0.00e+00	0	28	0	286261248	50	6313
2026-01-15 21:25:14.44	66.16	12.45	-39.0	-40.2	20.9	0.00e+00	0	28	0	288358400	50	6548
2026-01-15 21:25:15.45	66.00	12.51	-39.0	-40.2	20.9	0.00e+00	0	28	0	290455552	50	6600
2026-01-15 21:25:16.46	65.85	12.57	-38.9	-40.1	20.8	0.00e+00	0	28	0	291504128	50	6538
2026-01-15 21:25:17.47	65.70	12.63	-39.3	-40.6	20.4	0.00e+00	0	28	0	293601280	50	6909
2026-01-15 21:25:18.48	65.55	12.69	-39.4	-40.6	20.4	0.00e+00	0	28	0	295698432	50	6920
2026-01-15 21:25:19.49	65.39	12.75	-39.3	-40.6	20.5	0.00e+00	0	28	0	297795584	50	6902
2026-01-15 21:25:20.49	65.24	12.82	-39.2	-40.4	20.7	0.00e+00	0	28	0	299892736	50	6721
2026-01-15 21:25:21.51	65.08	12.88	-39.1	-40.3	20.8	0.00e+00	0	28	0	300941312	50	6633
2026-01-15 21:25:22.51	64.93	12.94	-39.3	-40.6	20.6	0.00e+00	0	28	0	303038464	50	6876
2026-01-15 21:25:23.52	64.77	13.00	-39.2	-40.4	20.7	0.00e+00	0	28	0	305135616	50	6765
2026-01-15 21:25:24.53	64.61	13.06	-39.2	-40.5	20.6	0.00e+00	0	28	0	307232768	50	6825
2026-01-15 21:25:25.54	64.45	13.12	-39.3	-40.6	20.6	0.00e+00	0	28	0	309329920	50	6862
2026-01-15 21:25:26.55	64.29	13.18	-39.1	-40.4	20.7	0.00e+00	0	28	0	310378496	50	6697
2026-01-15 21:25:27.56	64.13	13.25	-38.9	-40.2	20.9	0.00e+00	0	28	0	312475648	50	6543
2026-01-15 21:25:28.57	63.97	13.31	-38.8	-40.0	21.1	0.00e+00	0	28	0	314572800	50	6420
2026-01-15 21:25:29.58	63.81	13.37	-39.1	-40.3	20.8	0.00e+00	0	28	0	316669952	50	6683
2026-01-15 21:25:30.59	63.65	13.43	-39.0	-40.3	20.8	0.00e+00	0	28	0	318767104	50	6632
2026-01-15 21:25:31.60	63.49	13.49	-38.9	-40.1	21.0	0.00e+00	0	28	0	319815680	50	6525
2026-01-15 21:25:32.61	63.32	13.55	-38.7	-39.9	21.2	0.00e+00	0	28	0	321912832	50	6367
2026-01-15 21:25:33.61	63.16	13.61	-38.6	-39.8	21.4	0.00e+00	0	28	0	324009984	50	6277
2026-01-15 21:25:34.62	63.00	13.67	-38.8	-40.0	21.1	0.00e+00	0	28	0	326107136	50	6445
2026-01-15 21:25:35.63	62.83	13.73	-38.5	-39.6	21.3	0.00e+00	0	28	0	328204288	50	6172
2026-01-15 21:25:36.64	62.67	13.79	-38.8	-40.1	20.9	0.00e+00	0	28	0	330301440	50	6467
2026-01-15 21:25:37.65	62.50	13.85	-38.9	-40.2	20.9	0.00e+00	0	28	0	331350016	50	6567
2026-01-15 21:25:38.66	62.33	13.91	-39.0	-40.3	20.9	0.00e+00	0	28	0	333447168	50	6627
2026-01-15 21:25:39.67	62.17	13.97	-38.9	-40.1	21.0	0.00e+00	0	28	0	335544320	50	6481
2026-01-15 21:25:40.68	62.00	14.03	-39.0	-40.2	20.9	0.00e+00	0	28	0	337641472	50	6591
2026-01-15 21:25:41.69	61.83	14.09	-38.8	-40.1	21.0	0.00e+00	0	28	0	339738624	50	6467
2026-01-15 21:25:42.70	61.66	14.15	-38.8	-40.0	21.2	0.00e+00	0	28	0	340787200	50	6422
2026-01-15 21:25:43.71	61.49	14.21	-38.7	-39.9	21.1	0.00e+00	0	28	0	342884352	50	6336
2026-01-15 21:25:44.72	61.32	14.27	-38.7	-39.9	21.2	0.00e+00	0	28	0	344981504	50	6324
2026-01-15 21:25:45.73	61.14	14.33	-38.8	-39.9	21.3	0.00e+00	0	28	0	347078656	50	6387
2026-01-15 21:25:46.74	60.97	14.39	-38.5	-39.7	21.6	0.00e+00	0	28	0	349175808	50	6181
2026-01-15 21:25:47.75	60.80	14.45	-38.3	-39.5	21.6	0.00e+00	0	28	0	350224384	50	6037
2026-01-15 21:25:48.76	60.62	14.51	-38.1	-39.3	21.9	0.00e+00	0	28	0	352321536	50	5900
2026-01-15 21:25:49.77	60.45	14.57	-38.1	-39.2	21.8	0.00e+00	0	28	0	354418688	50	5839
2026-01-15 21:25:50.78	60.27	14.63	-37.9	-38.9	22.0	0.00e+00	0	28	0	356515840	50	5689
2026-01-15 21:25:51.79	60.10	14.69	-37.9	-38.9	21.8	0.00e+00	0	28	0	358612992	50	5689
2026-01-15 21:25:52.80	59.92	14.75	-37.5	-38.5	22.3	0.00e+00	0	28	0	359661568	48	6100
2026-01-15 21:25:53.81	59.74	14.81	-37.4	-38.5	22.4	0.00e+00	0	28	0	361758720	48	6035
2026-01-15 21:25:54.82	59.56	14.86	-37.3	-38.3	22.5	0.00e+00	0	28	0	363855872	48	5918
2026-01-15 21:25:55.83	59.38	14.92	-37.3	-38.3	22.6	0.00e+00	0	28	0	365953024	48	5934
2026-01-15 21:25:56.84	59.20	14.98	-37.4	-38.4	22.5	0.00e+00	0	28	0	368050176	48	6031
2026-01-15 21:25:57.85	59.02	15.04	-37.4	-38.4	22.5	0.00e+00	0	28	0	369098752	48	6021
2026-01-15 21:25:58.86	58.84	15.10	-37.3	-38.4	22.6	0.00e+00	0	28	0	371195904	48	5965
2026-01-15 21:25:59.87	58.66	15.15	-37.1	-38.1	22.8	0.00e+00	0	28	0	373293056	48	5770
2026-01-15 21:26:00.88	58.48	15.21	-37.1	-38.1	22.8	0.00e+00	0	28	0	375390208	48	5767
2026-01-15 21:26:01.89	58.29	15.27	-37.0	-38.0	22.8	0.00e+00	0	28	0	377487360	48	5699
2026-01-15 21:26:02.90	58.11	15.33	-37.0	-37.9	22.9	0.00e+00	0	28	0	378535936	48	5691
2026-01-15 21:26:03.91	57.93	15.38	-36.9	-37.9	22.9	0.00e+00	0	28	0	380633088	48	5631
2026-01-15 21:26:04.92	57.74	15.44	-36.7	-37.6	23.1	0.00e+00	0	28	0	382730240	48	5499
2026-01-15 21:26:05.93	57.55	15.50	-36.8	-37.7	23.0	0.00e+00	0	28	0	384827392	46	6224
2026-01-15 21:26:06.94	57.37	15.55	-36.8	-37.7	23.1	0.00e+00	0	28	0	386924544	46	6214
2026-01-15 21:26:07.95	57.18	15.61	-36.9	-37.8	22.7	0.00e+00	0	28	0	387973120	46	6287
2026-01-15 21:26:08.96	56.99	15.67	-37.1	-38.1	22.8	0.00e+00	0	28	0	390070272	46	6514
2026-01-15 21:26:09.97	56.80	15.72	-37.2	-38.2	22.7	0.00e+00	0	28	0	392167424	46	6571
2026-01-15 21:26:10.97	56.61	15.78	-37.2	-38.2	22.7	0.00e+00	0	28	0	394264576	46	6580
2026-01-15 21:26:11.99	56.42	15.83	-37.2	-38.2	22.6	0.00e+00	0	28	0	396361728	46	6601
2026-01-15 21:26:12.99	56.23	15.89	-37.3	-38.3	22.7	0.00e+00	0	28	0	398458880	46	6642
2026-01-15 21:26:14.00	56.04	15.94	-37.2	-38.2	22.6	0.00e+00	0	28	0	399507456	46	6584
2026-01-15 21:26:15.01	55.85	16.00	-37.1	-38.1	22.7	0.00e+00	0	28	0	401604608	46	6492
2026-01-15 21:26:16.02	55.65	16.05	-37.1	-38.1	22.7	0.00e+00	0	28	0	403701760	46	6499
2026-01-15 21:26:17.03	55.46	16.11	-37.2	-38.2	22.8	0.00e+00	0	28	0	405798912	46	6610
2026-01-15 21:26:18.04	55.26	16.16	-36.8	-37.8	23.0	0.00e+00	0	28	0	407896064	46	6298
2026-01-15 21:26:19.05	55.07	16.22	-36.8	-37.8	23.1	0.00e+00	0	28	0	408944640	46	6261
2026-01-15 21:26:20.06	54.87	16.27	-36.8	-37.8	23.0	0.00e+00	0	28	0	411041792	46	6296
2026-01-15 21:26:21.07	54.68	16.32	-36.7	-37.6	23.2	0.00e+00	0	28	0	413138944	46	6145
2026-01-15 21:26:22.08	54.48	16.38	-36.4	-37.3	23.3	0.00e+00	0	28	0	415236096	46	5931
2026-01-15 21:26:23.09	54.28	16.43	-36.4	-37.3	23.5	0.00e+00	0	28	0	417333248	46	5948
2026-01-15 21:26:24.10	54.08	16.48	-36.2	-37.1	23.5	0.00e+00	0	28	0	418381824	46	5823
2026-01-15 21:26:25.11	53.88	16.54	-36.6	-37.5	23.2	0.00e+00	0	28	0	420478976	46	6082
2026-01-15 21:26:26.11	53.68	16.59	-36.9	-37.8	23.0	0.00e+00	0	28	0	422576128	46	6307
2026-01-15 21:26:27.12	53.48	16.64	-37.0	-37.9	23.0	0.00e+00	0	28	0	424673280	46	6377
2026-01-15 21:26:28.13	53.28	16.69	-36.9	-37.9	22.9	0.00e+00	0	28	0	426770432	46	6383
2026-01-15 21:26:29.14	53.08	16.75	-37.0	-38.0	22.9	0.00e+00	0	27	0	427819008	46	6423
2026-01-15 21:26:30.15	52.87	16.80	-36.8	-37.8	23.1	0.00e+00	0	28	0	429916160	46	6277
2026-01-15 21:26:31.16	52.67	16.85	-37.0	-38.0	22.9	0.00e+00	0	28	0	432013312	46	6420
2026-01-15 21:26:32.17	52.46	16.90	-36.9	-37.8	23.0	0.00e+00	0	28	0	434110464	46	6304
2026-01-15 21:26:33.18	52.26	16.95	-36.6	-37.6	23.2	0.00e+00	0	28	0	436207616	46	6109
2026-01-15 21:26:34.19	52.05	17.00	-36.7	-37.6	23.2	0.00e+00	0	28	0	437256192	46	6156
2026-01-15 21:26:35.20	51.85	17.05	-36.5	-37.5	23.3	0.00e+00	0	28	0	439353344	46	6045
2026-01-15 21:26:36.21	51.64	17.10	-36.6	-37.5	23.0	0.00e+00	0	28	0	441450496	46	6057
2026-01-15 21:26:37.22	51.43	17.15	-36.4	-37.3	23.3	0.00e+00	0	28	0	443547648	46	5945
2026-01-15 21:26:38.23	51.22	17.20	-36.4	-37.3	23.5	0.00e+00	0	28	0	445644800	46	5906
2026-01-15 21:26:39.24	51.01	17.25	-36.2	-37.1	23.6	0.00e+00	0	28	0	446693376	46	5771
2026-01-15 21:26:40.25	50.80	17.30	-35.8	-36.6	24.0	0.00e+00	0	28	0	448790528	46	5489
2026-01-15 21:26:41.26	50.59	17.35	-35.5	-36.3	24.1	0.00e+00	0	28	0	450887680	44	5963
2026-01-15 21:26:42.27	50.38	17.39	-35.6	-36.5	24.1	0.00e+00	0	28	0	452984832	44	6036
2026-01-15 21:26:43.28	50.17	17.44	-35.6	-36.4	24.2	0.00e+00	0	28	0	455081984	44	6024
2026-01-15 21:26:44.29	49.95	17.49	-35.6	-36.4	24.0	0.00e+00	0	28	0	456130560	44	6024
2026-01-15 21:26:45.30	49.74	17.54	-35.6	-36.5	24.0	0.00e+00	0	28	0	458227712	44	6057
2026-01-15 21:26:46.31	49.53	17.58	-35.6	-36.4	23.9	0.00e+00	0	28	0	460324864	44	6020
2026-01-15 21:26:47.32	49.31	17.63	-35.7	-36.6	24.0	0.00e+00	0	28	0	462422016	44	6132
2026-01-15 21:26:48.33	49.10	17.68	-35.8	-36.7	23.7	0.00e+00	0	28	0	464519168	44	6181
2026-01-15 21:26:49.34	48.88	17.72	-36.1	-37.0	23.6	0.00e+00	0	28	0	466616320	44	6394
2026-01-15 21:26:50.35	48.66	17.77	-36.3	-37.2	23.5	0.00e+00	0	28	0	467664896	44	6571
2026-01-15 21:26:51.36	48.44	17.81	-36.3	-37.2	23.5	0.00e+00	0	28	0	469762048	44	6556
2026-01-15 21:26:52.37	48.23	17.86	-36.2	-37.1	23.6	0.00e+00	0	28	0	471859200	44	6476
2026-01-15 21:26:53.38	48.01	17.90	-36.3	-37.2	23.4	0.00e+00	0	28	0	473956352	44	6608
2026-01-15 21:26:54.39	47.79	17.95	-36.5	-37.5	23.2	0.00e+00	0	28	0	476053504	44	6783
2026-01-15 21:26:55.40	47.57	17.99	-36.7	-37.6	23.2	0.00e+00	0	28	0	477102080	44	6904
2026-01-15 21:26:56.40	47.35	18.03	-36.7	-37.7	23.1	0.00e+00	0	28	0	479199232	46	6213
2026-01-15 21:26:57.41	47.13	18.08	-36.7	-37.6	23.2	0.00e+00	0	28	0	481296384	46	6151
2026-01-15 21:26:58.42	46.90	18.12	-36.5	-37.4	23.3	0.00e+00	0	28	0	483393536	46	6028
2026-01-15 21:26:59.43	46.68	18.16	-36.5	-37.4	23.4	0.00e+00	0	28	0	485490688	46	6011
2026-01-15 21:27:00.44	46.46	18.20	-36.4	-37.3	23.6	0.00e+00	0	28	0	486539264	46	5914
2026-01-15 21:27:01.45	46.23	18.24	-36.0	-36.9	23.7	0.00e+00	0	28	0	488636416	46	5636
2026-01-15 21:27:02.46	46.01	18.29	-36.0	-36.9	23.7	0.00e+00	0	28	0	490733568	46	5670
2026-01-15 21:27:03.47	45.78	18.33	-35.8	-36.7	23.9	0.00e+00	0	28	0	492830720	46	5520
2026-01-15 21:27:04.48	45.56	18.37	-35.5	-36.3	24.1	0.00e+00	0	28	0	494927872	44	5960
2026-01-15 21:27:05.49	45.33	18.41	-35.5	-36.3	24.3	0.00e+00	0	28	0	495976448	44	5911
2026-01-15 21:27:06.50	45.11	18.45	-35.5	-36.3	24.2	0.00e+00	0	28	0	498073600	44	5955
2026-01-15 21:27:07.51	44.88	18.49	-35.6	-36.4	24.1	0.00e+00	0	28	0	500170752	44	5995
2026-01-15 21:27:08.52	44.65	18.52	-35.3	-36.1	24.4	0.00e+00	0	28	0	502267904	44	5768
2026-01-15 21:27:09.53	44.42	18.56	-35.3	-36.1	24.3	0.00e+00	0	28	0	504365056	44	5806
2026-01-15 21:27:10.53	44.19	18.60	-35.5	-36.3	24.1	0.00e+00	0	28	0	505413632	44	5955
2026-01-15 21:27:11.54	43.96	18.64	-35.5	-36.3	24.0	0.00e+00	0	28	0	507510784	44	5958
2026-01-15 21:27:12.55	43.73	18.68	-35.8	-36.6	23.9	0.00e+00	0	28	0	509607936	44	6144
2026-01-15 21:27:13.56	43.50	18.71	-35.6	-36.5	23.9	0.00e+00	0	28	0	511705088	44	6042
2026-01-15 21:27:14.57	43.27	18.75	-35.6	-36.5	24.1	0.00e+00	0	28	0	513802240	44	6068
2026-01-15 21:27:15.58	43.04	18.78	-35.7	-36.5	23.9	0.00e+00	0	28	0	514850816	44	6100
2026-01-15 21:27:16.59	42.81	18.82	-35.8	-36.7	23.8	0.00e+00	0	28	0	516947968	44	6219
2026-01-15 21:27:17.60	42.57	18.85	-35.9	-36.8	23.8	0.00e+00	0	28	0	519045120	44	6277
2026-01-15 21:27:18.61	42.34	18.89	-36.1	-37.0	23.7	0.00e+00	0	28	0	521142272	44	6449
2026-01-15 21:27:19.62	42.10	18.92	-36.3	-37.2	23.4	0.00e+00	0	28	0	523239424	44	6558
2026-01-15 21:27:20.63	41.87	18.96	-36.3	-37.2	23.5	0.00e+00	0	28	0	524288000	44	6590
2026-01-15 21:27:21.64	41.63	18.99	-36.5	-37.4	23.4	0.00e+00	0	28	0	526385152	44	6731
2026-01-15 21:27:22.65	41.40	19.02	-36.8	-37.8	23.2	0.00e+00	0	28	0	528482304	46	6287
2026-01-15 21:27:23.66	41.16	19.05	-36.7	-37.7	23.2	0.00e+00	0	28	0	530579456	46	6175
2026-01-15 21:27:24.67	40.92	19.09	-36.6	-37.5	23.3	0.00e+00	0	28	0	532676608	46	6072
2026-01-15 21:27:25.68	40.69	19.12	-36.4	-37.3	23.5	0.00e+00	0	28	0	533725184	46	5910
2026-01-15 21:27:26.69	40.45	19.15	-36.5	-37.4	23.4	0.00e+00	0	28	0	535822336	46	5983
2026-01-15 21:27:27.70	40.21	19.18	-36.6	-37.5	23.4	0.00e+00	0	28	0	537919488	46	6050
2026-01-15 21:27:28.70	39.97	19.21	-37.0	-37.9	23.0	0.00e+00	0	28	0	540016640	46	6366
2026-01-15 21:27:29.72	39.73	19.24	-37.3	-38.3	22.7	0.00e+00	0	28	0	542113792	46	6664
2026-01-15 21:27:30.73	39.49	19.27	-37.4	-38.4	22.7	0.00e+00	0	28	0	544210944	46	6755
2026-01-15 21:27:31.73	39.25	19.29	-37.2	-38.2	22.8	0.00e+00	0	28	0	545259520	46	6585
2026-01-15 21:27:32.74	39.01	19.32	-37.1	-38.1	22.9	0.00e+00	0	28	0	547356672	46	6492
2026-01-15 21:27:33.75	38.77	19.35	-37.2	-38.2	22.8	0.00e+00	0	28	0	549453824	46	6564
2026-01-15 21:27:34.76	38.53	19.38	-37.1	-38.0	22.5	0.00e+00	0	28	0	551550976	46	6437
2026-01-15 21:27:35.77	38.29	19.40	-37.3	-38.2	22.7	0.00e+00	0	28	0	553648128	46	6589
2026-01-15 21:27:36.78	38.05	19.43	-36.7	-37.6	23.3	0.00e+00	0	28	0	554696704	46	6119
2026-01-15 21:27:37.79	37.80	19.45	-36.7	-37.6	23.3	0.00e+00	0	28	0	556793856	46	6119
2026-01-15 21:27:38.80	37.56	19.48	-36.8	-37.7	23.3	0.00e+00	0	28	0	558891008	46	6224
2026-01-15 21:27:39.80	37.32	19.50	-37.0	-37.9	23.0	0.00e+00	0	28	0	560988160	46	6368
2026-01-15 21:27:40.81	37.08	19.53	-37.3	-38.3	22.5	0.00e+00	0	28	0	563085312	46	6646
2026-01-15 21:27:41.82	36.83	19.55	-37.9	-38.9	22.3	0.00e+00	0	28	0	564133888	48	6390
2026-01-15 21:27:42.83	36.59	19.57	-37.9	-38.9	22.1	0.00e+00	0	28	0	566231040	48	6375
2026-01-15 21:27:43.84	36.34	19.60	-37.7	-38.7	22.3	0.00e+00	0	28	0	568328192	48	6208
2026-01-15 21:27:44.85	36.10	19.62	-37.2	-38.2	22.7	0.00e+00	0	28	0	570425344	48	5875
2026-01-15 21:27:45.86	35.85	19.64	-37.4	-38.4	22.5	0.00e+00	0	28	0	572522496	48	5975
2026-01-15 21:27:46.87	35.60	19.66	-37.7	-38.7	22.3	0.00e+00	0	28	0	573571072	48	6201
2026-01-15 21:27:47.88	35.36	19.68	-37.7	-38.7	22.2	0.00e+00	0	27	0	575668224	48	6235
2026-01-15 21:27:48.89	35.11	19.70	-38.0	-39.1	22.0	0.00e+00	0	28	0	577765376	48	6479
2026-01-15 21:27:49.90	34.86	19.72	-38.1	-39.2	21.9	0.00e+00	0	27	0	579862528	48	6591
2026-01-15 21:27:50.91	34.62	19.74	-38.0	-39.1	21.9	0.00e+00	0	28	0	581959680	48	6489
2026-01-15 21:27:51.92	34.37	19.75	-38.1	-39.2	22.0	0.00e+00	0	28	0	583008256	48	6587
2026-01-15 21:27:52.93	34.12	19.77	-38.3	-39.5	21.8	0.00e+00	0	27	0	585105408	48	6807
2026-01-15 21:27:53.94	33.87	19.79	-38.2	-39.3	21.9	0.00e+00	0	28	0	587202560	48	6633
2026-01-15 21:27:54.95	33.63	19.80	-37.8	-38.9	22.1	0.00e+00	0	27	0	589299712	48	6332
2026-01-15 21:27:55.96	33.38	19.82	-37.8	-38.8	22.2	0.00e+00	0	27	0	591396864	48	6279
2026-01-15 21:27:56.97	33.13	19.84	-37.1	-38.0	22.9	0.00e+00	0	28	0	592445440	48	5735
2026-01-15 21:27:57.98	32.88	19.85	-36.8	-37.8	23.1	0.00e+00	0	28	0	594542592	48	5582
2026-01-15 21:27:58.99	32.63	19.86	-36.9	-37.9	23.0	0.00e+00	0	28	0	596639744	48	5632
2026-01-15 21:27:59.99	32.38	19.88	-37.3	-38.3	22.7	0.00e+00	0	28	0	598736896	48	5914
2026-01-15 21:28:01.00	32.13	19.89	-37.3	-38.3	22.7	0.00e+00	0	28	0	600834048	48	5903
2026-01-15 21:28:02.01	31.88	19.90	-37.5	-38.6	22.4	0.00e+00	0	28	0	601882624	48	6119
2026-01-15 21:28:03.02	31.63	19.91	-37.5	-38.5	22.5	0.00e+00	0	28	0	603979776	48	6087
2026-01-15 21:28:04.03	31.38	19.93	-37.4	-38.5	22.5	0.00e+00	0	28	0	606076928	48	6042
2026-01-15 21:28:05.04	31.13	19.94	-37.7	-38.7	22.3	0.00e+00	0	28	0	608174080	48	6234
2026-01-15 21:28:06.05	30.88	19.95	-37.7	-38.7	22.4	0.00e+00	0	28	0	610271232	48	6220
2026-01-15 21:28:07.06	30.63	19.96	-37.3	-38.3	22.6	0.00e+00	0	28	0	611319808	48	5956
2026-01-15 21:28:08.06	30.38	19.96	-37.4	-38.4	22.7	0.00e+00	0	28	0	613416960	48	5985
2026-01-15 21:28:09.07	30.13	19.97	-37.2	-38.2	22.7	0.00e+00	0	28	0	615514112	48	5871
2026-01-15 21:28:10.08	29.88	19.98	-37.3	-38.3	22.6	0.00e+00	0	28	0	617611264	48	5960
2026-01-15 21:28:11.09	29.63	19.99	-37.5	-38.5	22.4	0.00e+00	0	28	0	619708416	48	6082
2026-01-15 21:28:12.10	29.37	19.99	-37.5	-38.5	22.6	0.00e+00	0	28	0	620756992	48	6079
2026-01-15 21:28:13.11	29.12	20.00	-37.5	-38.5	22.6	0.00e+00	0	28	0	622854144	48	6100
2026-01-15 21:28:14.12	28.87	20.01	-37.4	-38.4	22.6	0.00e+00	0	28	0	624951296	48	6011
2026-01-15 21:28:15.13	28.62	20.01	-37.7	-38.7	22.4	0.00e+00	0	27	0	627048448	48	6181
2026-01-15 21:28:16.14	28.37	20.02	-37.4	-38.4	22.6	0.00e+00	0	28	0	629145600	48	6022
2026-01-15 21:28:17.15	28.11	20.02	-37.2	-38.2	22.8	0.00e+00	0	28	0	630194176	48	5864
2026-01-15 21:28:18.16	27.86	20.02	-37.0	-38.0	22.9	0.00e+00	0	28	0	632291328	48	5713
2026-01-15 21:28:19.16	27.61	20.02	-37.2	-38.1	22.7	0.00e+00	0	28	0	634388480	48	5824
2026-01-15 21:28:20.17	27.36	20.03	-37.0	-38.0	22.9	0.00e+00	0	28	0	636485632	48	5708
2026-01-15 21:28:21.18	27.11	20.03	-36.9	-37.9	22.9	0.00e+00	0	27	0	638582784	48	5634
2026-01-15 21:28:22.19	26.86	20.03	-37.0	-37.9	23.0	0.00e+00	0	28	0	640679936	48	5664
2026-01-15 21:28:23.20	26.60	20.03	-37.0	-38.0	23.0	0.00e+00	0	28	0	641728512	48	5702
2026-01-15 21:28:24.21	26.35	20.03	-37.1	-38.0	22.8	0.00e+00	0	28	0	643825664	48	5756
2026-01-15 21:28:25.21	26.10	20.03	-37.1	-38.1	22.6	0.00e+00	0	28	0	645922816	48	5797
2026-01-15 21:28:26.22	25.85	20.03	-37.4	-38.4	22.6	0.00e+00	0	28	0	648019968	48	6012
2026-01-15 21:28:27.23	25.60	20.02	-37.5	-38.6	22.5	0.00e+00	0	28	0	650117120	48	6124
2026-01-15 21:28:28.24	25.35	20.02	-37.8	-38.9	22.2	0.00e+00	0	28	0	651165696	48	6340
2026-01-15 21:28:29.25	25.09	20.02	-38.0	-39.1	22.0	0.00e+00	0	27	0	653262848	48	6498
2026-01-15 21:28:30.26	24.84	20.01	-38.1	-39.2	21.9	0.00e+00	0	28	0	655360000	48	6588
2026-01-15 21:28:31.27	24.59	20.01	-38.1	-39.2	22.0	0.00e+00	0	28	0	657457152	48	6548
2026-01-15 21:28:32.28	24.34	20.00	-37.9	-39.0	22.1	0.00e+00	0	28	0	659554304	48	6433
2026-01-15 21:28:33.29	24.09	20.00	-37.7	-38.7	22.4	0.00e+00	0	28	0	660602880	48	6209
2026-01-15 21:28:34.30	23.83	19.99	-37.3	-38.3	22.8	0.00e+00	0	28	0	662700032	48	5909
2026-01-15 21:28:35.31	23.58	19.99	-36.8	-37.7	23.2	0.00e+00	0	28	0	664797184	48	5563
2026-01-15 21:28:36.32	23.33	19.98	-36.5	-37.4	23.3	0.00e+00	0	28	0	666894336	46	5976
2026-01-15 21:28:37.33	23.08	19.97	-36.0	-36.9	22.8	0.00e+00	0	28	0	668991488	46	5639
2026-01-15 21:28:38.34	22.83	19.96	-36.0	-36.9	23.6	0.00e+00	0	28	0	670040064	46	5640
2026-01-15 21:28:39.35	22.58	19.95	-35.8	-36.6	23.9	0.00e+00	0	28	0	672137216	44	6132
2026-01-15 21:28:40.35	22.33	19.94	-35.7	-36.6	23.8	0.00e+00	0	27	0	674234368	44	6105
2026-01-15 21:28:41.36	22.08	19.93	-35.8	-36.6	24.0	0.00e+00	0	28	0	676331520	44	6136
2026-01-15 21:28:42.37	21.83	19.92	-35.5	-36.4	24.2	0.00e+00	0	28	0	678428672	44	5981
2026-01-15 21:28:43.38	21.58	19.91	-35.6	-36.5	24.1	0.00e+00	0	28	0	679477248	44	6041
2026-01-15 21:28:44.39	21.33	19.90	-35.6	-36.5	24.1	0.00e+00	0	28	0	681574400	44	6055
2026-01-15 21:28:45.40	21.08	19.89	-35.7	-36.6	24.0	0.00e+00	0	28	0	683671552	44	6104
2026-01-15 21:28:46.41	20.83	19.87	-35.7	-36.6	23.9	0.00e+00	0	28	0	685768704	44	6127
2026-01-15 21:28:47.42	20.58	19.86	-35.8	-36.7	23.9	0.00e+00	0	28	0	687865856	44	6188
2026-01-15 21:28:48.43	20.33	19.85	-36.0	-36.9	23.9	0.00e+00	0	28	0	688914432	44	6336
2026-01-15 21:28:49.44	20.08	19.83	-35.8	-36.7	24.0	0.00e+00	0	27	0	691011584	44	6181
2026-01-15 21:28:50.45	19.83	19.82	-35.9	-36.7	24.0	0.00e+00	0	28	0	693108736	44	6244
2026-01-15 21:28:51.46	19.58	19.80	-35.6	-36.5	24.0	0.00e+00	0	28	0	695205888	44	6044
2026-01-15 21:28:52.47	19.34	19.78	-35.6	-36.5	24.0	0.00e+00	0	27	0	697303040	44	6047
2026-01-15 21:28:53.48	19.09	19.77	-35.6	-36.5	24.1	0.00e+00	0	27	0	698351616	44	6072
2026-01-15 21:28:54.49	18.84	19.75	-35.9	-36.8	23.9	0.00e+00	0	28	0	700448768	44	6260
2026-01-15 21:28:55.50	18.59	19.73	-35.6	-36.5	24.1	0.00e+00	0	27	0	702545920	44	6050
2026-01-15 21:28:56.50	18.35	19.71	-35.8	-36.6	24.1	0.00e+00	0	28	0	704643072	44	6147
2026-01-15 21:28:57.51	18.10	19.69	-35.6	-36.4	24.1	0.00e+00	0	27	0	706740224	44	5993
2026-01-15 21:28:58.52	17.85	19.67	-35.6	-36.5	24.0	0.00e+00	0	27	0	708837376	44	6055
2026-01-15 21:28:59.53	17.61	19.65	-35.5	-36.4	24.1	0.00e+00	0	28	0	709885952	44	5975
2026-01-15 21:29:00.54	17.36	19.63	-35.6	-36.4	24.0	0.00e+00	0	27	0	711983104	44	6013
2026-01-15 21:29:01.55	17.12	19.61	-35.8	-36.6	23.9	0.00e+00	0	28	0	714080256	44	6161
2026-01-15 21:29:02.56	16.87	19.59	-35.6	-36.5	24.0	0.00e+00	0	27	0	716177408	44	6049
2026-01-15 21:29:03.57	16.63	19.57	-35.9	-36.8	23.7	0.00e+00	0	28	0	718274560	44	6249
2026-01-15 21:29:04.58	16.38	19.55	-35.9	-36.8	23.9	0.00e+00	0	27	0	719323136	44	6269
2026-01-15 21:29:05.59	16.14	19.52	-36.1	-37.0	23.7	0.00e+00	0	28	0	721420288	44	6391
2026-01-15 21:29:06.60	15.90	19.50	-36.3	-37.2	23.5	0.00e+00	0	28	0	723517440	44	6594
2026-01-15 21:29:07.61	15.65	19.47	-36.2	-37.1	23.6	0.00e+00	0	27	0	725614592	44	6498
2026-01-15 21:29:08.62	15.41	19.45	-35.9	-36.8	23.5	0.00e+00	0	28	0	727711744	44	6287
2026-01-15 21:29:09.63	15.17	19.42	-35.6	-36.4	24.1	0.00e+00	0	28	0	728760320	44	6027
2026-01-15 21:29:10.64	14.92	19.40	-35.6	-36.5	24.1	0.00e+00	0	27	0	730857472	44	6036
2026-01-15 21:29:11.65	14.68	19.37	-35.8	-36.7	23.9	0.00e+00	0	28	0	732954624	44	6191
2026-01-15 21:29:12.66	14.44	19.34	-36.1	-37.0	23.7	0.00e+00	0	27	0	735051776	44	6432
2026-01-15 21:29:13.67	14.20	19.32	-36.6	-37.6	23.1	0.00e+00	0	28	0	737148928	44	6869
2026-01-15 21:29:14.68	13.96	19.29	-37.2	-38.2	22.7	0.00e+00	0	27	0	738197504	46	6602
2026-01-15 21:29:15.68	13.72	19.26	-37.5	-38.6	22.5	0.00e+00	0	28	0	740294656	46	6858
2026-01-15 21:29:16.69	13.48	19.23	-37.8	-38.9	22.2	0.00e+00	0	27	0	742391808	48	6368
2026-01-15 21:29:17.70	13.25	19.20	-38.0	-39.1	22.0	0.00e+00	0	28	0	744488960	48	6534
2026-01-15 21:29:18.71	13.01	19.17	-37.9	-39.0	22.1	0.00e+00	0	27	0	746586112	48	6427
2026-01-15 21:29:19.72	12.77	19.14	-37.6	-38.6	22.2	0.00e+00	0	27	0	747634688	48	6164
2026-01-15 21:29:20.73	12.53	19.11	-37.9	-39.0	22.1	0.00e+00	0	27	0	749731840	48	6446
2026-01-15 21:29:21.74	12.29	19.08	-37.8	-38.9	22.2	0.00e+00	0	27	0	751828992	48	6318
2026-01-15 21:29:22.75	12.06	19.05	-37.6	-38.7	22.3	0.00e+00	0	27	0	753926144	48	6196
2026-01-15 21:29:23.76	11.82	19.02	-37.6	-38.6	22.4	0.00e+00	0	28	0	756023296	48	6169
2026-01-15 21:29:24.77	11.59	18.98	-37.8	-38.9	22.2	0.00e+00	0	28	0	757071872	48	6367
2026-01-15 21:29:25.78	11.35	18.95	-37.9	-39.1	22.0	0.00e+00	0	27	0	759169024	48	6469
2026-01-15 21:29:26.79	11.12	18.92	-38.1	-39.2	22.0	0.00e+00	0	27	0	761266176	48	6551
2026-01-15 21:29:27.80	10.88	18.88	-38.2	-39.3	21.9	0.00e+00	0	27	0	763363328	48	6673
2026-01-15 21:29:28.81	10.65	18.85	-38.1	-39.2	22.0	0.00e+00	0	27	0	765460480	48	6540
2026-01-15 21:29:29.82	10.42	18.81	-38.1	-39.2	21.9	0.00e+00	0	27	0	766509056	48	6611
2026-01-15 21:29:30.83	10.18	18.78	-38.1	-39.2	21.9	0.00e+00	0	27	0	768606208	48	6563
2026-01-15 21:29:31.84	9.95	18.74	-38.4	-39.6	21.7	0.00e+00	0	27	0	770703360	48	6872
2026-01-15 21:29:32.84	9.72	18.70	-37.8	-38.8	22.3	0.00e+00	0	28	0	772800512	48	6315
2026-01-15 21:29:33.85	9.49	18.67	-37.7	-38.8	22.3	0.00e+00	0	28	0	774897664	48	6254
2026-01-15 21:29:34.86	9.26	18.63	-37.7	-38.7	22.4	0.00e+00	0	27	0	775946240	48	6219
2026-01-15 21:29:35.87	9.03	18.59	-37.1	-38.0	23.0	0.00e+00	0	28	0	778043392	48	5752
2026-01-15 21:29:36.88	8.81	18.55	-36.9	-37.9	22.9	0.00e+00	0	28	0	780140544	48	5654
2026-01-15 21:29:37.89	8.58	18.52	-36.9	-37.9	23.1	0.00e+00	0	27	0	782237696	48	5644
2026-01-15 21:29:38.90	8.35	18.48	-36.9	-37.8	23.0	0.00e+00	0	27	0	784334848	48	5628
2026-01-15 21:29:39.91	8.12	18.44	-37.1	-38.1	22.9	0.00e+00	0	27	0	785383424	48	5776
2026-01-15 21:29:40.92	7.90	18.40	-37.3	-38.3	22.7	0.00e+00	0	27	0	787480576	48	5942
2026-01-15 21:29:41.93	7.67	18.36	-37.5	-38.5	22.6	0.00e+00	0	28	0	789577728	48	6088
2026-01-15 21:29:42.94	7.44	18.32	-37.2	-38.2	22.8	0.00e+00	0	27	0	791674880	48	5877
2026-01-15 21:29:43.95	7.22	18.28	-37.3	-38.2	22.7	0.00e+00	0	27	0	793772032	48	5883
2026-01-15 21:29:44.97	6.99	18.24	-37.2	-38.2	22.7	0.00e+00	0	27	0	794820608	48	5876
2026-01-15 21:29:45.98	6.77	18.19	-37.1	-38.1	22.9	0.00e+00	0	28	0	796917760	48	5815
2026-01-15 21:29:46.98	6.55	18.15	-36.7	-37.6	23.3	0.00e+00	0	28	0	799014912	46	6138
2026-01-15 21:29:47.99	6.33	18.11	-36.6	-37.5	23.3	0.00e+00	0	28	0	801112064	46	6045
2026-01-15 21:29:49.00	6.11	18.07	-36.3	-37.1	23.6	0.00e+00	0	27	0	803209216	46	5825
2026-01-15 21:29:50.01	5.88	18.02	-36.3	-37.2	23.5	0.00e+00	0	28	0	805306368	46	5871
2026-01-15 21:29:51.02	5.66	17.98	-36.2	-37.1	23.7	0.00e+00	0	28	0	806354944	46	5815
2026-01-15 21:29:52.03	5.44	17.94	-36.2	-37.1	23.6	0.00e+00	0	28	0	808452096	46	5781
2026-01-15 21:29:53.04	5.23	17.89	-36.0	-36.8	23.8	0.00e+00	0	27	0	810549248	46	5623
2026-01-15 21:29:54.05	5.01	17.85	-35.9	-36.7	23.8	0.00e+00	0	28	0	812646400	46	5564
2026-01-15 21:29:55.05	4.79	17.80	-36.1	-37.0	23.3	0.00e+00	0	28	0	814743552	46	5703
2026-01-15 21:29:56.06	4.57	17.76	-36.2	-37.1	23.6	0.00e+00	0	27	0	815792128	46	5773
2026-01-15 21:29:57.08	4.36	17.71	-36.7	-37.7	23.1	0.00e+00	0	27	0	817889280	46	6190
2026-01-15 21:29:58.09	4.14	17.67	-37.3	-38.3	22.7	0.00e+00	0	27	0	819986432	46	6670
2026-01-15 21:29:59.10	3.93	17.62	-37.9	-38.9	22.1	0.00e+00	0	27	0	822083584	48	6376
2026-01-15 21:30:00.11	3.71	17.57	-38.2	-39.4	21.8	0.00e+00	0	28	0	824180736	48	6694
2026-01-15 21:30:01.12	3.50	17.53	-38.6	-39.8	21.4	0.00e+00	0	27	0	825229312	48	7037
2026-01-15 21:30:02.13	3.28	17.48	-38.4	-39.6	21.7	0.00e+00	0	28	0	827326464	48	6869
2026-01-15 21:30:03.14	3.07	17.43	-38.2	-39.4	21.8	0.00e+00	0	27	0	829423616	48	6714
2026-01-15 21:30:04.15	2.86	17.38	-38.2	-39.4	21.9	0.00e+00	0	27	0	831520768	48	6714
2026-01-15 21:30:05.16	2.65	17.34	-38.3	-39.4	21.8	0.00e+00	0	27	0	833617920	48	6745
2026-01-15 21:30:06.17	2.44	17.29	-38.2	-39.3	21.8	0.00e+00	0	28	0	834666496	48	6685
2026-01-15 21:30:07.18	2.23	17.24	-38.3	-39.4	21.6	0.00e+00	0	27	0	836763648	48	6733
2026-01-15 21:30:08.19	2.02	17.19	-38.5	-39.7	21.5	0.00e+00	0	28	0	838860800	48	6946
2026-01-15 21:30:09.20	1.81	17.14	-38.6	-39.8	21.3	0.00e+00	0	28	0	840957952	48	7077
2026-01-15 21:30:10.20	1.61	17.09	-38.6	-39.8	21.3	0.00e+00	0	28	0	843055104	50	6293
2026-01-15 21:30:11.21	1.40	17.04	-38.6	-39.8	21.3	0.00e+00	0	28	0	844103680	50	6267
2026-01-15 21:30:12.22	1.19	16.99	-38.4	-39.5	21.7	0.00e+00	0	28	0	846200832	50	6081
2026-01-15 21:30:13.23	0.99	16.94	-38.2	-39.3	21.9	0.00e+00	0	27	0	848297984	50	5917
2026-01-15 21:30:14.24	0.78	16.89	-38.0	-39.1	22.1	0.00e+00	0	28	0	850395136	50	5787
2026-01-15 21:30:15.25	0.58	16.84	-37.7	-38.7	22.3	0.00e+00	0	28	0	852492288	48	6210
2026-01-15 21:30:16.26	0.38	16.79	-37.1	-38.1	23.0	0.00e+00	0	28	0	853540864	48	5774
2026-01-15 21:30:17.27	0.17	16.74	-37.0	-37.9	23.0	0.00e+00	0	28	0	855638016	48	5673
2026-01-15 21:30:18.28	359.97	16.69	-36.6	-37.5	23.3	0.00e+00	0	28	0	857735168	46	6099
2026-01-15 21:30:19.29	359.77	16.63	-36.6	-37.5	23.4	0.00e+00	0	28	0	859832320	46	6072
2026-01-15 21:30:20.30	359.57	16.58	-36.6	-37.5	23.3	0.00e+00	0	27	0	861929472	46	6096
2026-01-15 21:30:21.30	359.37	16.53	-36.5	-37.4	23.3	0.00e+00	0	28	0	862978048	46	6018
2026-01-15 21:30:22.31	359.17	16.48	-36.5	-37.4	23.4	0.00e+00	0	28	0	865075200	46	6010
2026-01-15 21:30:23.32	358.97	16.42	-36.7	-37.7	23.1	0.00e+00	0	27	0	867172352	46	6190
2026-01-15 21:30:24.33	358.78	16.37	-37.0	-38.0	22.9	0.00e+00	0	28	0	869269504	46	6429
2026-01-15 21:30:25.34	358.58	16.32	-37.5	-38.5	22.4	0.00e+00	0	27	0	871366656	46	6843
2026-01-15 21:30:26.35	358.38	16.26	-37.5	-38.6	22.4	0.00e+00	0	28	0	873463808	48	6124
2026-01-15 21:30:27.36	358.19	16.21	-37.9	-39.0	22.1	0.00e+00	0	28	0	874512384	48	6451
2026-01-15 21:30:28.37	357.99	16.15	-37.7	-38.8	22.3	0.00e+00	0	28	0	876609536	48	6266
2026-01-15 21:30:29.38	357.80	16.10	-37.7	-38.7	22.4	0.00e+00	0	28	0	878706688	48	6231
2026-01-15 21:30:30.39	357.60	16.05	-37.1	-38.0	22.9	0.00e+00	0	28	0	880803840	48	5754
2026-01-15 21:30:31.40	357.41	15.99	-36.9	-37.8	23.1	0.00e+00	0	28	0	882900992	48	5607
2026-01-15 21:30:32.41	357.22	15.94	-36.7	-37.6	23.3	0.00e+00	0	27	0	883949568	46	6132
2026-01-15 21:30:33.42	357.03	15.88	-36.6	-37.5	23.2	0.00e+00	0	28	0	886046720	46	6068
2026-01-15 21:30:34.43	356.84	15.83	-37.1	-38.1	22.8	0.00e+00	0	28	0	888143872	46	6509
2026-01-15 21:30:35.44	356.65	15.77	-37.3	-38.3	22.6	0.00e+00	0	28	0	890241024	46	6640
2026-01-15 21:30:36.45	356.46	15.71	-37.7	-38.8	22.2	0.00e+00	0	27	0	892338176	46	7044
2026-01-15 21:30:37.46	356.27	15.66	-38.0	-39.1	21.9	0.00e+00	0	27	0	893386752	48	6511
2026-01-15 21:30:38.47	356.08	15.60	-38.6	-39.8	21.4	0.00e+00	0	27	0	895483904	48	7018
2026-01-15 21:30:39.48	355.90	15.55	-38.8	-40.0	21.3	0.00e+00	0	28	0	897581056	50	6409
2026-01-15 21:30:40.49	355.71	15.49	-38.9	-40.1	21.2	0.00e+00	0	27	0	899678208	50	6509
2026-01-15 21:30:41.50	355.52	15.43	-38.9	-40.1	21.1	0.00e+00	0	27	0	901775360	50	6521
2026-01-15 21:30:42.51	355.34	15.38	-38.7	-39.9	21.1	0.00e+00	0	27	0	902823936	50	6382
2026-01-15 21:30:43.52	355.15	15.32	-38.5	-39.7	21.5	0.00e+00	0	27	0	904921088	50	6236
2026-01-15 21:30:44.53	354.97	15.26	-38.6	-39.7	21.5	0.00e+00	0	27	0	907018240	50	6240
2026-01-15 21:30:45.54	354.79	15.20	-38.4	-39.6	21.6	0.00e+00	0	28	0	909115392	50	6164
2026-01-15 21:30:46.55	354.61	15.15	-38.1	-39.2	21.9	0.00e+00	0	28	0	911212544	50	5891
2026-01-15 21:30:47.56	354.43	15.09	-38.1	-39.2	21.9	0.00e+00	0	27	0	912261120	50	5872
2026-01-15 21:30:48.57	354.24	15.03	-38.1	-39.2	21.8	0.00e+00	0	27	0	914358272	50	5866
2026-01-15 21:30:49.58	354.07	14.97	-38.1	-39.2	21.9	0.00e+00	0	27	0	916455424	50	5835
2026-01-15 21:30:50.59	353.89	14.92	-38.0	-39.1	21.9	0.00e+00	0	27	0	918552576	50	5801
2026-01-15 21:30:51.60	353.71	14.86	-38.1	-39.1	21.9	0.00e+00	0	28	0	920649728	50	5823
2026-01-15 21:30:52.61	353.53	14.80	-38.0	-39.1	22.0	0.00e+00	0	28	0	921698304	50	5776
2026-01-15 21:30:53.62	353.35	14.74	-38.0	-39.0	22.0	0.00e+00	0	28	0	923795456	50	5743
2026-01-15 21:30:54.62	353.18	14.68	-38.0	-39.1	21.9	0.00e+00	0	27	0	925892608	50	5806
2026-01-15 21:30:55.63	353.00	14.62	-38.0	-39.2	22.0	0.00e+00	0	28	0	927989760	50	5837
2026-01-15 21:30:56.64	352.83	14.56	-38.3	-39.5	21.8	0.00e+00	0	28	0	930086912	50	6036
2026-01-15 21:30:57.65	352.65	14.51	-38.5	-39.7	21.6	0.00e+00	0	27	0	931135488	50	6215
2026-01-15 21:30:58.65	352.48	14.45	-39.0	-40.2	21.0	0.00e+00	0	28	0	933232640	50	6585
2026-01-15 21:30:59.66	352.31	14.39	-38.9	-40.1	21.2	0.00e+00	0	27	0	935329792	50	6508
2026-01-15 21:31:00.65	352.14	14.33	-38.9	-40.1	21.2	0.00e+00	0	27	0	937426944	50	6502
2026-01-15 21:31:01.66	351.97	14.27	-38.7	-39.9	21.3	0.00e+00	0	27	0	939524096	50	6359
2026-01-15 21:31:02.66	351.80	14.21	-38.6	-39.7	21.5	0.00e+00	0	27	0	940572672	50	6211
2026-01-15 21:31:03.67	351.63	14.15	-37.8	-38.9	22.1	0.00e+00	0	27	0	942669824	48	6359
2026-01-15 21:31:04.68	351.46	14.09	-37.9	-39.0	22.1	0.00e+00	0	27	0	944766976	48	6426
2026-01-15 21:31:05.69	351.29	14.03	-37.7	-38.8	22.2	0.00e+00	0	27	0	946864128	48	6263
2026-01-15 21:31:06.70	351.12	13.97	-37.4	-38.4	22.4	0.00e+00	0	27	0	948961280	48	6033
2026-01-15 21:31:07.72	350.96	13.91	-37.6	-38.7	22.2	0.00e+00	0	27	0	951058432	48	6183
2026-01-15 21:31:08.72	350.79	13.85	-37.8	-38.9	22.1	0.00e+00	0	27	0	952107008	48	6333
2026-01-15 21:31:09.73	350.62	13.79	-37.8	-38.8	22.1	0.00e+00	0	27	0	954204160	48	6307
2026-01-15 21:31:10.74	350.46	13.73	-37.8	-38.9	22.0	0.00e+00	0	27	0	956301312	48	6387
2026-01-15 21:31:11.75	350.29	13.67	-37.9	-39.0	21.8	0.00e+00	0	27	0	958398464	48	6446
2026-01-15 21:31:12.76	350.13	13.61	-38.0	-39.1	21.9	0.00e+00	0	27	0	959447040	48	6523
2026-01-15 21:31:13.77	349.97	13.55	-38.0	-39.0	22.0	0.00e+00	0	27	0	961544192	48	6454
2026-01-15 21:31:14.78	349.81	13.49	-38.0	-39.1	21.9	0.00e+00	0	27	0	963641344	48	6523
2026-01-15 21:31:15.79	349.64	13.43	-37.8	-38.9	22.0	0.00e+00	0	27	0	965738496	48	6342
2026-01-15 21:31:16.80	349.48	13.37	-37.8	-38.9	22.1	0.00e+00	0	27	0	967835648	48	6354
2026-01-15 21:31:17.81	349.32	13.31	-37.8	-38.8	22.2	0.00e+00	0	27	0	969932800	48	6304
2026-01-15 21:31:18.82	349.16	13.24	-37.6	-38.7	22.3	0.00e+00	0	27	0	970981376	48	6203
2026-01-15 21:31:19.83	349.00	13.18	-37.6	-38.6	22.2	0.00e+00	0	27	0	973078528	48	6157
2026-01-15 21:31:20.84	348.85	13.12	-37.3	-38.4	22.5	0.00e+00	0	27	0	975175680	48	5979
2026-01-15 21:31:21.84	348.69	13.06	-37.3	-38.4	22.5	0.00e+00	0	27	0	977272832	48	5972
2026-01-15 21:31:22.85	348.53	13.00	-37.3	-38.3	22.6	0.00e+00	0	27	0	979369984	48	5932
2026-01-15 21:31:23.86	348.38	12.94	-37.1	-38.1	22.7	0.00e+00	0	27	0	980418560	48	5817
2026-01-15 21:31:24.87	348.22	12.88	-36.9	-37.9	22.7	0.00e+00	0	27	0	982515712	48	5647
2026-01-15 21:31:25.88	348.07	12.82	-36.7	-37.6	23.0	0.00e+00	0	28	0	984612864	46	6164
2026-01-15 21:31:26.89	347.91	12.75	-36.5	-37.4	23.2	0.00e+00	0	27	0	986710016	46	6025
2026-01-15 21:31:27.90	347.76	12.69	-36.2	-37.1	23.5	0.00e+00	0	27	0	988807168	46	5802
2026-01-15 21:31:28.91	347.60	12.63	-36.0	-36.9	23.6	0.00e+00	0	27	0	989855744	46	5638
2026-01-15 21:31:29.92	347.45	12.57	-35.9	-36.8	23.6	0.00e+00	0	27	0	991952896	46	5599
2026-01-15 21:31:30.93	347.30	12.51	-35.9	-36.8	23.7	0.00e+00	0	27	0	994050048	46	5607
2026-01-15 21:31:31.94	347.15	12.45	-35.9	-36.8	23.7	0.00e+00	0	27	0	996147200	46	5588
2026-01-15 21:31:32.95	347.00	12.38	-36.1	-37.0	23.5	0.00e+00	0	27	0	998244352	46	5729
2026-01-15 21:31:33.96	346.85	12.32	-36.4	-37.3	23.3	0.00e+00	0	28	0	999292928	46	5924
2026-01-15 21:31:34.97	346.70	12.26	-36.6	-37.5	23.1	0.00e+00	0	27	0	1001390080	46	6072
2026-01-15 21:31:35.98	346.55	12.20	-36.9	-37.8	22.9	0.00e+00	0	27	0	1003487232	46	6308
2026-01-15 21:31:36.99	346.40	12.14	-37.1	-38.1	22.7	0.00e+00	0	27	0	1005584384	46	6482
2026-01-15 21:31:38.00	346.26	12.07	-37.3	-38.3	22.5	0.00e+00	0	27	0	1007681536	46	6661
2026-01-15 21:31:39.00	346.11	12.01	-37.1	-38.1	22.7	0.00e+00	0	27	0	1008730112	46	6503
2026-01-15 21:31:40.01	345.96	11.95	-37.3	-38.3	22.5	0.00e+00	0	27	0	1010827264	46	6669
2026-01-15 21:31:41.02	345.82	11.89	-37.2	-38.3	22.6	0.00e+00	0	27	0	1012924416	46	6621
2026-01-15 21:31:42.03	345.67	11.83	-37.3	-38.3	22.5	0.00e+00	0	27	0	1015021568	46	6660
2026-01-15 21:31:43.04	345.53	11.77	-37.1	-38.1	22.7	0.00e+00	0	27	0	1017118720	46	6532
2026-01-15 21:31:44.05	345.39	11.70	-37.0	-38.0	22.7	0.00e+00	0	27	0	1018167296	46	6400
2026-01-15 21:31:45.06	345.24	11.64	-36.9	-37.9	22.7	0.00e+00	0	27	0	1020264448	46	6366
2026-01-15 21:31:46.07	345.10	11.58	-36.7	-37.7	23.0	0.00e+00	0	27	0	1022361600	46	6190
2026-01-15 21:31:47.08	344.96	11.52	-36.7	-37.7	23.0	0.00e+00	0	27	0	1024458752	46	6194
2026-01-15 21:31:48.09	344.82	11.45	-36.5	-37.5	23.1	0.00e+00	0	27	0	1026555904	46	6037
2026-01-15 21:31:49.10	344.68	11.39	-36.7	-37.6	23.1	0.00e+00	0	27	0	1027604480	46	6155
2026-01-15 21:31:50.11	344.54	11.33	-36.6	-37.5	23.0	0.00e+00	0	27	0	1029701632	46	6088
2026-01-15 21:31:51.12	344.40	11.27	-36.8	-37.7	22.9	0.00e+00	0	27	0	1031798784	46	6242
2026-01-15 21:31:52.13	344.26	11.21	-37.0	-37.9	22.7	0.00e+00	0	28	0	1033895936	46	6384
2026-01-15 21:31:53.14	344.12	11.14	-37.3	-38.3	22.6	0.00e+00	0	27	0	1035993088	46	6686
2026-01-15 21:31:54.15	343.98	11.08	-37.4	-38.5	22.4	0.00e+00	0	27	0	1038090240	46	6772
2026-01-15 21:31:55.16	343.85	11.02	-37.2	-38.2	22.6	0.00e+00	0	27	0	1039138816	46	6587
2026-01-15 21:31:56.16	343.71	10.96	-37.3	-38.3	22.5	0.00e+00	0	27	0	1041235968	46	6682
2026-01-15 21:31:57.17	343.58	10.90	-37.3	-38.3	22.4	0.00e+00	0	27	0	1043333120	46	6666
2026-01-15 21:31:58.18	343.44	10.83	-37.7	-38.8	22.2	0.00e+00	0	27	0	1045430272	46	7011
2026-01-15 21:31:59.19	343.31	10.77	-37.8	-38.9	21.9	0.00e+00	0	27	0	1047527424	48	6371
2026-01-15 21:32:00.20	343.17	10.71	-37.9	-39.0	21.8	0.00e+00	0	27	0	1048576000	48	6454
2026-01-15 21:32:01.21	343.04	10.65	-38.1	-39.2	21.7	0.00e+00	0	27	0	1050673152	48	6596
2026-01-15 21:32:02.22	342.91	10.58	-38.1	-39.3	21.6	0.00e+00	0	27	0	1052770304	48	6641
2026-01-15 21:32:03.23	342.78	10.52	-38.1	-39.2	21.8	0.00e+00	0	27	0	1054867456	48	6592
2026-01-15 21:32:04.24	342.64	10.46	-37.7	-38.9	22.0	0.00e+00	0	28	0	1056964608	48	6324
2026-01-15 21:32:05.25	342.51	10.40	-37.6	-38.8	22.2	0.00e+00	0	28	0	1058013184	48	6266
2026-01-15 21:32:06.26	342.38	10.34	-37.4	-38.5	22.2	0.00e+00	0	27	0	1060110336	48	6044
2026-01-15 21:32:07.27	342.25	10.27	-37.4	-38.4	22.3	0.00e+00	0	27	0	1062207488	48	6032
2026-01-15 21:32:08.27	342.12	10.21	-37.0	-38.0	22.3	0.00e+00	0	28	0	1064304640	48	5735
2026-01-15 21:32:09.29	341.99	10.15	-36.7	-37.7	22.7	0.00e+00	0	27	0	1066401792	48	5528
2026-01-15 21:32:10.29	341.87	10.09	-36.8	-37.7	22.7	0.00e+00	0	27	0	1067450368	46	6239
2026-01-15 21:32:11.30	341.74	10.03	-36.9	-37.9	22.7	0.00e+00	0	27	0	1069547520	46	6332
2026-01-15 21:32:12.31	341.61	9.96	-36.7	-37.7	22.8	0.00e+00	0	27	0	1071644672	46	6198
2026-01-15 21:32:13.32	341.49	9.90	-36.7	-37.7	22.9	0.00e+00	0	28	0	1073741824	46	6177
2026-01-15 21:32:14.33	341.36	9.84	-37.3	-38.3	21.9	0.00e+00	0	27	0	1075838976	46	6684
2026-01-15 21:32:15.34	341.24	9.78	-37.4	-38.6	21.7	0.00e+00	0	27	0	1076887552	46	6857
2026-01-15 21:32:16.35	341.11	9.71	-37.7	-38.9	21.7	0.00e+00	0	27	0	1078984704	46	7127
2026-01-15 21:32:17.36	340.99	9.65	-38.0	-39.2	21.5	0.00e+00	0	27	0	1081081856	48	6556
2026-01-15 21:32:18.37	340.86	9.59	-38.1	-39.4	21.4	0.00e+00	0	27	0	1083179008	48	6696
2026-01-15 21:32:19.38	340.74	9.53	-38.3	-39.6	21.2	0.00e+00	0	27	0	1085276160	48	6868
2026-01-15 21:32:20.38	340.62	9.47	-38.3	-39.5	21.3	0.00e+00	0	27	0	1086324736	48	6838
2026-01-15 21:32:21.39	340.50	9.41	-38.5	-39.8	21.0	0.00e+00	0	27	0	1088421888	48	7021
2026-01-15 21:32:22.41	340.37	9.34	-38.2	-39.4	21.2	0.00e+00	0	27	0	1090519040	48	6757
2026-01-15 21:32:23.42	340.25	9.28	-37.9	-39.1	21.7	0.00e+00	0	28	0	1092616192	48	6519
2026-01-15 21:32:24.43	340.13	9.22	-37.9	-39.1	21.7	0.00e+00	0	27	0	1094713344	48	6488
2026-01-15 21:32:25.44	340.01	9.16	-37.9	-39.1	21.7	0.00e+00	0	27	0	1095761920	48	6482
2026-01-15 21:32:26.45	339.89	9.10	-37.9	-39.1	21.7	0.00e+00	0	28	0	1097859072	48	6479
2026-01-15 21:32:27.46	339.77	9.03	-37.5	-38.7	21.9	0.00e+00	0	27	0	1099956224	48	6174
2026-01-15 21:32:28.47	339.65	8.97	-37.7	-38.9	21.8	0.00e+00	0	27	0	1102053376	48	6326
2026-01-15 21:32:29.48	339.54	8.91	-37.6	-38.8	21.9	0.00e+00	0	27	0	1104150528	48	6282
2026-01-15 21:32:30.49	339.42	8.85	-38.0	-39.2	21.6	0.00e+00	0	27	0	1106247680	48	6559
2026-01-15 21:32:31.50	339.30	8.79	-38.0	-39.3	21.7	0.00e+00	0	28	0	1107296256	48	6636
2026-01-15 21:32:32.51	339.18	8.73	-37.9	-39.1	21.6	0.00e+00	0	28	0	1109393408	48	6516
2026-01-15 21:32:33.52	339.07	8.66	-38.0	-39.2	21.5	0.00e+00	0	27	0	1111490560	48	6604
2026-01-15 21:32:34.53	338.95	8.60	-37.9	-39.1	21.6	0.00e+00	0	27	0	1113587712	48	6508
2026-01-15 21:32:35.54	338.84	8.54	-38.2	-39.4	21.4	0.00e+00	0	27	0	1115684864	48	6736
2026-01-15 21:32:36.54	338.72	8.48	-38.3	-39.6	21.2	0.00e+00	0	27	0	1116733440	48	6887
2026-01-15 21:32:37.55	338.61	8.42	-38.6	-39.9	20.9	0.00e+00	0	27	0	1118830592	48	7161
2026-01-15 21:32:38.56	338.50	8.36	-38.4	-39.7	21.0	0.00e+00	0	28	0	1120927744	48	6955
2026-01-15 21:32:39.57	338.38	8.30	-38.6	-40.0	20.8	0.00e+00	0	27	0	1123024896	50	6420
2026-01-15 21:32:40.58	338.27	8.24	-38.7	-40.0	20.8	0.00e+00	0	27	0	1125122048	50	6440
2026-01-15 21:32:41.59	338.16	8.17	-38.7	-40.1	20.7	0.00e+00	0	27	0	1126170624	50	6495
2026-01-15 21:32:42.60	338.05	8.11	-39.0	-40.4	20.4	0.00e+00	0	28	0	1128267776	50	6723
2026-01-15 21:32:43.61	337.94	8.05	-38.9	-40.3	20.5	0.00e+00	0	27	0	1130364928	50	6670
2026-01-15 21:32:44.62	337.83	7.99	-38.8	-40.2	20.5	0.00e+00	0	28	0	1132462080	50	6598
2026-01-15 21:32:45.63	337.72	7.93	-38.5	-39.8	20.9	0.00e+00	0	28	0	1134559232	50	6303
2026-01-15 21:32:46.64	337.61	7.87	-38.7	-40.1	20.8	0.00e+00	0	27	0	1135607808	50	6479
2026-01-15 21:32:47.65	337.50	7.81	-38.5	-39.8	20.9	0.00e+00	0	27	0	1137704960	50	6312
2026-01-15 21:32:48.66	337.39	7.75	-38.5	-39.8	20.8	0.00e+00	0	27	0	1139802112	50	6291
2026-01-15 21:32:49.67	337.28	7.69	-38.6	-39.9	20.8	0.00e+00	0	27	0	1141899264	50	6362
2026-01-15 21:32:50.68	337.17	7.63	-38.4	-39.7	21.0	0.00e+00	0	27	0	1143996416	50	6190
2026-01-15 21:32:51.69	337.07	7.57	-38.5	-39.8	20.9	0.00e+00	0	27	0	1145044992	50	6300
2026-01-15 21:32:52.70	336.96	7.50	-38.6	-39.8	20.9	0.00e+00	0	27	0	1147142144	50	6306
2026-01-15 21:32:53.71	336.85	7.44	-38.7	-40.0	20.6	0.00e+00	0	27	0	1149239296	50	6455
2026-01-15 21:32:54.72	336.75	7.38	-38.9	-40.3	20.5	0.00e+00	0	27	0	1151336448	50	6642
2026-01-15 21:32:55.73	336.64	7.32	-39.1	-40.4	20.3	0.00e+00	0	27	0	1153433600	50	6768
2026-01-15 21:32:56.74	336.54	7.26	-39.4	-40.8	19.9	0.00e+00	0	28	0	1154482176	50	7073
2026-01-15 21:32:57.75	336.43	7.20	-39.5	-41.0	19.8	0.00e+00	0	27	0	1156579328	50	7216
2026-01-15 21:32:58.76	336.33	7.14	-39.8	-41.4	19.4	0.00e+00	0	27	0	1158676480	50	7513
2026-01-15 21:32:59.77	336.22	7.08	-39.8	-41.3	19.5	0.00e+00	0	27	0	1160773632	52	6645
2026-01-15 21:33:00.77	336.12	7.02	-39.7	-41.3	19.5	0.00e+00	0	27	0	1162870784	52	6642
2026-01-15 21:33:01.78	336.02	6.96	-39.9	-41.4	19.4	0.00e+00	0	27	0	1163919360	52	6759
2026-01-15 21:33:02.79	335.92	6.90	-39.5	-41.0	19.7	0.00e+00	0	27	0	1166016512	52	6431
2026-01-15 21:33:03.80	335.82	6.84	-39.6	-41.1	19.7	0.00e+00	0	27	0	1168113664	52	6481
2026-01-15 21:33:04.81	335.71	6.78	-39.3	-40.7	20.0	0.00e+00	0	27	0	1170210816	52	6231
2026-01-15 21:33:05.82	335.61	6.72	-39.3	-40.7	20.0	0.00e+00	0	27	0	1172307968	52	6217
2026-01-15 21:33:06.83	335.51	6.66	-38.9	-40.2	20.4	0.00e+00	0	27	0	1174405120	52	5890
2026-01-15 21:33:07.84	335.41	6.60	-39.0	-40.3	20.2	0.00e+00	0	27	0	1175453696	52	5924
2026-01-15 21:33:08.85	335.31	6.54	-39.1	-40.5	20.1	0.00e+00	0	27	0	1177550848	52	6073
2026-01-15 21:33:09.86	335.21	6.48	-39.0	-40.4	20.2	0.00e+00	0	27	0	1179648000	52	5978
2026-01-15 21:33:10.87	335.11	6.42	-39.1	-40.5	19.9	0.00e+00	0	27	0	1181745152	52	6085
2026-01-15 21:33:11.88	335.02	6.36	-39.2	-40.6	19.8	0.00e+00	0	27	0	1183842304	52	6135
2026-01-15 21:33:12.89	334.92	6.30	-39.3	-40.8	19.7	0.00e+00	0	27	0	1184890880	52	6288
2026-01-15 21:33:13.90	334.82	6.24	-39.4	-40.9	19.4	0.00e+00	0	27	0	1186988032	52	6369
2026-01-15 21:33:14.91	334.72	6.18	-39.4	-40.9	19.2	0.00e+00	0	27	0	1189085184	52	6386
2026-01-15 21:33:15.92	334.63	6.12	-39.7	-41.4	18.9	0.00e+00	0	27	0	1191182336	52	6696
2026-01-15 21:33:16.93	334.53	6.06	-39.8	-41.5	18.6	0.00e+00	0	27	0	1193279488	52	6824
2026-01-15 21:33:17.94	334.43	6.01	-40.1	-41.9	18.3	7.00e-07	0	27	0	1194328064	52	7098
2026-01-15 21:33:18.95	334.34	5.95	-40.1	-41.9	18.1	1.50e-06	0	27	0	1196425216	52	7144
2026-01-15 21:33:19.96	334.24	5.89	-40.4	-42.3	17.7	0.00e+00	0	27	0	1198522368	52	7443
2026-01-15 21:33:20.97	334.15	5.83	-40.5	-42.4	17.4	0.00e+00	0	27	0	1200619520	52	7562
2026-01-15 21:33:21.98	334.05	5.77	-40.6	-42.6	17.2	0.00e+00	0	27	0	1202716672	52	7759
2026-01-15 21:33:22.99	333.96	5.71	-40.8	-42.9	17.0	0.00e+00	0	27	0	1203765248	54	7158
2026-01-15 21:33:24.00	333.87	5.65	-40.7	-42.9	16.7	0.00e+00	0	27	0	1205862400	54	7101
