passes_logs/2026/01/15/R4.6S_Anadyr/R4.6S_Anadyr__20260115_182504_NOAA_20_JPSS-1_rec.log

#Pass ID: 20260115_182504_NOAA 20 (JPSS-1)
#Satellite: NOAA 20 (JPSS-1)
#Configuration: NOAA 20
#almurnet v.1.7.20251203
#Start time: 2026-01-15 18:25:06

#Version: 2.2.20231116
#Station: R4.6S_Anadyr
#Location: 177.4865 lon 64.73178 lat
#TLE: 1 43013U 17073A   26014.55467351  .00000038  00000+0  38801-4 0  9992
#TLE: 2 43013  98.7635 315.4987 0001517  39.9279 320.2008 14.19535859422677

#Time	Az	El	Level	Level2	SNR	BER	BlckErr	Temp	State	Recorded	gain1	gain2
2026-01-15 18:25:06.33	40.39	0.09	-48.0	-62.9	3.5	1.51e+00	0	24	0	0	60	50219
2026-01-15 18:25:07.33	40.32	0.14	-48.1	-63.3	3.6	1.51e+00	0	26	104	0	60	53061
2026-01-15 18:25:08.34	40.25	0.19	-47.9	-63.4	3.6	1.51e+00	0	26	104	0	60	53311
2026-01-15 18:25:09.35	40.18	0.24	-48.1	-63.4	3.6	1.51e+00	0	26	104	0	60	53446
2026-01-15 18:25:10.36	40.11	0.29	-48.2	-63.4	3.6	1.51e+00	0	26	104	0	60	53615
2026-01-15 18:25:11.37	40.03	0.34	-48.3	-63.5	3.6	1.51e+00	0	26	104	0	60	54222
2026-01-15 18:25:12.38	39.96	0.39	-48.1	-63.4	3.6	1.51e+00	0	26	104	0	60	53253
2026-01-15 18:25:13.39	39.89	0.44	-48.1	-63.3	3.5	1.51e+00	0	26	104	0	60	52823
2026-01-15 18:25:14.40	39.81	0.49	-48.0	-63.3	3.6	1.51e+00	0	26	104	0	60	52947
2026-01-15 18:25:15.41	39.74	0.54	-48.0	-63.2	3.6	1.51e+00	0	26	104	0	60	52423
2026-01-15 18:25:16.42	39.67	0.59	-48.0	-63.1	3.6	1.51e+00	0	26	104	0	60	51909
2026-01-15 18:25:17.43	39.59	0.64	-47.9	-63.1	3.6	1.51e+00	0	26	104	0	60	51821
2026-01-15 18:25:18.44	39.52	0.69	-47.8	-63.0	3.6	1.51e+00	0	26	104	0	60	50992
2026-01-15 18:25:19.45	39.44	0.75	-47.7	-62.8	3.6	1.51e+00	0	26	104	0	60	50096
2026-01-15 18:25:20.46	39.37	0.80	-47.4	-62.6	3.6	1.51e+00	0	26	104	0	60	48789
2026-01-15 18:25:21.47	39.29	0.85	-47.1	-62.3	3.6	1.51e+00	0	26	104	0	60	47290
2026-01-15 18:25:22.48	39.22	0.90	-46.5	-61.7	3.6	1.51e+00	0	26	104	0	60	43845
2026-01-15 18:25:23.49	39.14	0.95	-46.4	-61.6	3.6	1.51e+00	0	26	104	0	60	43381
2026-01-15 18:25:24.49	39.07	1.00	-46.4	-61.5	3.6	1.51e+00	0	26	104	0	60	42871
2026-01-15 18:25:25.50	38.99	1.05	-46.3	-61.5	3.6	1.51e+00	0	26	104	0	60	42718
2026-01-15 18:25:26.51	38.91	1.10	-46.3	-61.5	3.6	1.51e+00	0	26	104	0	60	42850
2026-01-15 18:25:27.52	38.84	1.15	-46.3	-61.5	3.6	1.51e+00	0	26	104	0	60	42996
2026-01-15 18:25:28.53	38.76	1.21	-46.3	-61.5	3.6	1.51e+00	0	26	104	0	60	42791
2026-01-15 18:25:29.54	38.68	1.26	-46.3	-61.5	3.6	1.51e+00	0	26	104	0	60	42857
2026-01-15 18:25:30.55	38.61	1.31	-46.3	-61.5	3.6	1.51e+00	0	26	104	0	60	42785
2026-01-15 18:25:31.56	38.53	1.36	-46.3	-61.5	3.6	1.51e+00	0	26	104	0	60	42848
2026-01-15 18:25:32.57	38.45	1.41	-46.3	-61.5	3.6	1.51e+00	0	26	104	0	60	42758
2026-01-15 18:25:33.58	38.37	1.46	-46.3	-61.4	3.6	1.51e+00	0	26	104	0	60	42369
2026-01-15 18:25:34.59	38.29	1.51	-46.3	-61.4	3.6	1.51e+00	0	26	104	0	60	42559
2026-01-15 18:25:35.60	38.21	1.57	-46.3	-61.4	3.6	1.51e+00	0	26	104	0	60	42566
2026-01-15 18:25:36.61	38.13	1.62	-46.3	-61.4	3.6	1.51e+00	0	26	104	0	60	42694
2026-01-15 18:25:37.62	38.05	1.67	-46.3	-61.5	3.6	1.51e+00	0	26	104	0	60	42754
2026-01-15 18:25:38.63	37.97	1.72	-46.3	-61.5	3.6	1.51e+00	0	26	104	0	60	42820
2026-01-15 18:25:39.64	37.89	1.77	-46.3	-61.4	3.6	1.51e+00	0	26	104	0	60	42593
2026-01-15 18:25:40.65	37.81	1.82	-46.3	-61.4	3.6	1.51e+00	0	26	104	0	60	42360
2026-01-15 18:25:41.66	37.73	1.88	-46.3	-61.3	3.6	1.51e+00	0	26	104	0	60	42168
2026-01-15 18:25:42.67	37.65	1.93	-46.3	-61.3	3.6	1.51e+00	0	26	104	0	60	41784
2026-01-15 18:25:43.68	37.57	1.98	-46.2	-61.2	3.6	1.51e+00	0	26	104	0	60	41477
2026-01-15 18:25:44.68	37.49	2.03	-46.2	-61.0	3.6	1.51e+00	0	26	104	0	60	40551
2026-01-15 18:25:45.69	37.41	2.08	-46.2	-60.9	3.6	1.51e+00	0	26	104	0	60	40183
2026-01-15 18:25:46.70	37.33	2.14	-46.2	-61.0	3.6	1.51e+00	0	26	104	0	60	40552
2026-01-15 18:25:47.72	37.24	2.19	-46.2	-61.1	3.6	1.51e+00	0	26	104	0	60	41119
2026-01-15 18:25:48.73	37.16	2.24	-46.2	-61.4	3.6	1.51e+00	0	26	104	0	60	42371
2026-01-15 18:25:49.73	37.08	2.29	-46.3	-61.4	3.6	1.51e+00	0	26	104	0	60	42385
2026-01-15 18:25:50.74	36.99	2.34	-46.2	-61.4	3.6	1.51e+00	0	26	104	0	60	42244
2026-01-15 18:25:51.75	36.91	2.40	-46.3	-61.3	3.6	1.51e+00	0	26	104	0	60	42185
2026-01-15 18:25:52.76	36.83	2.45	-46.3	-61.4	3.6	1.51e+00	0	26	104	0	60	42328
2026-01-15 18:25:53.77	36.74	2.50	-46.2	-61.4	3.6	1.51e+00	0	26	104	0	60	42433
2026-01-15 18:25:54.78	36.66	2.55	-46.2	-61.1	3.6	1.51e+00	0	26	104	0	60	40855
2026-01-15 18:25:55.79	36.57	2.61	-46.2	-60.5	3.6	1.51e+00	0	26	104	0	60	38387
2026-01-15 18:25:56.80	36.49	2.66	-46.2	-60.1	3.6	1.51e+00	0	26	104	0	60	36748
2026-01-15 18:25:57.81	36.40	2.71	-46.2	-60.5	3.6	1.51e+00	0	26	104	0	60	38155
2026-01-15 18:25:58.82	36.31	2.76	-46.2	-60.9	3.6	1.51e+00	0	26	104	0	60	40188
2026-01-15 18:25:59.83	36.23	2.82	-46.2	-60.4	3.6	1.51e+00	0	26	104	0	60	37792
2026-01-15 18:26:00.84	36.14	2.87	-46.1	-58.0	3.8	1.50e+00	0	26	104	0	60	28592
2026-01-15 18:26:01.85	36.05	2.92	-45.7	-54.3	5.9	5.45e-01	4	26	104	0	60	18696
2026-01-15 18:26:02.86	35.97	2.97	-45.2	-51.3	8.3	1.21e-01	27	26	0	1048576	60	13347
2026-01-15 18:26:03.87	35.88	3.03	-44.8	-50.0	10.0	2.62e-02	0	26	0	3145728	60	11455
2026-01-15 18:26:04.88	35.79	3.08	-45.0	-50.6	9.1	7.55e-03	25	26	0	5242880	60	12225
2026-01-15 18:26:05.89	35.70	3.13	-42.5	-45.1	15.5	2.93e-02	91	27	0	7340032	60	6496
2026-01-15 18:26:06.90	35.61	3.18	-45.9	-55.6	3.6	0.00e+00	61	26	0	8388608	60	21902
2026-01-15 18:26:07.91	35.53	3.24	-46.0	-56.7	4.1	1.51e+00	0	26	104	8388608	60	24770
2026-01-15 18:26:08.92	35.44	3.29	-42.4	-45.0	15.5	3.43e-01	6	27	0	8388608	60	6398
2026-01-15 18:26:09.93	35.35	3.34	-43.1	-46.1	14.2	7.40e-05	0	26	0	9437184	60	7332
2026-01-15 18:26:10.94	35.26	3.40	-42.6	-45.3	15.2	0.00e+00	0	26	0	11534336	60	6618
2026-01-15 18:26:11.95	35.17	3.45	-42.4	-45.0	15.6	0.00e+00	0	26	0	13631488	58	7215
2026-01-15 18:26:12.96	35.08	3.50	-42.0	-44.3	16.2	0.00e+00	92	26	0	15728640	58	6652
2026-01-15 18:26:13.97	34.98	3.55	-41.5	-43.6	17.0	0.00e+00	6	26	0	17825792	56	6877
2026-01-15 18:26:14.98	34.89	3.61	-41.6	-43.7	17.0	0.00e+00	92	26	0	18874368	56	6940
2026-01-15 18:26:15.98	34.80	3.66	-41.5	-43.5	17.0	0.00e+00	0	26	0	20971520	56	6829
2026-01-15 18:26:16.99	34.71	3.71	-41.4	-43.3	17.2	0.00e+00	27	26	0	23068672	56	6687
2026-01-15 18:26:18.01	34.62	3.77	-41.4	-43.3	17.3	0.00e+00	0	26	0	25165824	56	6681
2026-01-15 18:26:19.01	34.53	3.82	-41.5	-43.6	17.1	0.00e+00	0	26	0	27262976	56	6872
2026-01-15 18:26:20.02	34.43	3.87	-41.0	-42.9	17.8	0.00e+00	2	26	0	28311552	56	6337
2026-01-15 18:26:21.03	34.34	3.93	-41.2	-43.1	17.6	0.00e+00	26	26	0	30408704	56	6508
2026-01-15 18:26:22.04	34.25	3.98	-41.2	-43.1	17.6	0.00e+00	92	26	0	32505856	56	6473
2026-01-15 18:26:23.05	34.15	4.03	-41.2	-43.1	17.7	0.00e+00	54	26	0	34603008	56	6487
2026-01-15 18:26:24.06	34.06	4.09	-41.4	-43.4	17.3	0.00e+00	55	27	0	36700160	56	6695
2026-01-15 18:26:25.07	33.96	4.14	-41.6	-43.7	17.0	0.00e+00	28	27	0	38797312	56	6965
2026-01-15 18:26:26.07	33.87	4.19	-41.6	-43.6	17.1	0.00e+00	55	27	0	39845888	56	6904
2026-01-15 18:26:27.09	33.77	4.25	-41.3	-43.3	17.5	0.00e+00	23	27	0	41943040	56	6626
2026-01-15 18:26:28.10	33.68	4.30	-41.5	-43.5	17.2	0.00e+00	56	26	0	44040192	56	6819
2026-01-15 18:26:29.11	33.58	4.35	-41.4	-43.3	17.5	0.00e+00	92	26	0	46137344	56	6651
2026-01-15 18:26:30.11	33.48	4.41	-41.6	-43.6	17.3	0.00e+00	0	26	0	48234496	56	6890
2026-01-15 18:26:31.13	33.39	4.46	-41.4	-43.4	17.4	0.00e+00	92	26	0	49283072	56	6729
2026-01-15 18:26:32.14	33.29	4.51	-41.5	-43.5	17.3	0.00e+00	54	26	0	51380224	56	6813
2026-01-15 18:26:33.14	33.19	4.57	-41.3	-43.2	17.6	0.00e+00	0	26	0	53477376	56	6576
2026-01-15 18:26:34.15	33.09	4.62	-41.4	-43.4	17.5	0.00e+00	0	26	0	55574528	56	6702
2026-01-15 18:26:35.16	33.00	4.67	-41.5	-43.5	17.2	0.00e+00	0	26	0	57671680	56	6773
2026-01-15 18:26:36.17	32.90	4.73	-41.4	-43.3	17.6	0.00e+00	91	27	0	58720256	56	6619
2026-01-15 18:26:37.18	32.80	4.78	-41.3	-43.2	17.6	0.00e+00	0	27	0	60817408	56	6579
2026-01-15 18:26:38.19	32.70	4.84	-41.4	-43.3	17.6	0.00e+00	91	26	0	62914560	56	6676
2026-01-15 18:26:39.20	32.60	4.89	-41.4	-43.2	17.7	0.00e+00	26	26	0	65011712	56	6596
2026-01-15 18:26:40.21	32.50	4.94	-41.1	-42.9	18.0	0.00e+00	27	27	0	67108864	56	6351
2026-01-15 18:26:41.22	32.40	5.00	-41.3	-43.1	17.9	0.00e+00	0	26	0	68157440	56	6511
2026-01-15 18:26:42.23	32.30	5.05	-41.3	-43.1	17.9	0.00e+00	26	27	0	70254592	56	6510
2026-01-15 18:26:43.23	32.19	5.10	-41.3	-43.1	17.9	0.00e+00	2	27	0	72351744	56	6501
2026-01-15 18:26:44.25	32.09	5.16	-41.2	-43.1	17.9	0.00e+00	53	26	0	74448896	56	6470
2026-01-15 18:26:45.25	31.99	5.21	-41.3	-43.1	17.9	0.00e+00	92	27	0	76546048	56	6508
2026-01-15 18:26:46.27	31.89	5.27	-41.1	-42.8	18.1	0.00e+00	52	27	0	77594624	56	6303
2026-01-15 18:26:47.28	31.78	5.32	-41.1	-42.9	18.1	0.00e+00	73	27	0	79691776	56	6336
2026-01-15 18:26:48.29	31.68	5.38	-41.0	-42.8	18.2	0.00e+00	27	27	0	81788928	56	6257
2026-01-15 18:26:49.30	31.58	5.43	-41.2	-42.9	18.1	0.00e+00	54	27	0	83886080	56	6383
2026-01-15 18:26:50.30	31.47	5.48	-41.1	-42.9	18.0	0.00e+00	74	27	0	85983232	56	6352
2026-01-15 18:26:51.31	31.37	5.54	-41.3	-43.1	17.9	0.00e+00	0	27	0	87031808	56	6490
2026-01-15 18:26:52.32	31.26	5.59	-41.0	-42.7	18.3	0.00e+00	92	27	0	89128960	56	6229
2026-01-15 18:26:53.33	31.16	5.65	-41.0	-42.7	18.3	0.00e+00	0	27	0	91226112	56	6214
2026-01-15 18:26:54.34	31.05	5.70	-41.0	-42.8	18.2	0.00e+00	92	27	0	93323264	56	6265
2026-01-15 18:26:55.35	30.95	5.75	-41.0	-42.8	18.3	0.00e+00	0	27	0	95420416	56	6251
2026-01-15 18:26:56.36	30.84	5.81	-41.0	-42.8	18.3	0.00e+00	2	27	0	96468992	56	6261
2026-01-15 18:26:57.37	30.73	5.86	-41.1	-42.9	18.2	0.00e+00	0	27	0	98566144	56	6344
2026-01-15 18:26:58.38	30.62	5.92	-41.0	-42.8	18.3	0.00e+00	0	27	0	100663296	56	6246
2026-01-15 18:26:59.39	30.52	5.97	-41.0	-42.7	18.4	0.00e+00	92	27	0	102760448	56	6216
2026-01-15 18:27:00.40	30.41	6.02	-40.9	-42.6	18.5	0.00e+00	0	27	0	104857600	56	6153
2026-01-15 18:27:01.41	30.30	6.08	-40.8	-42.4	18.7	0.00e+00	92	27	0	106954752	56	6001
2026-01-15 18:27:02.42	30.19	6.13	-40.9	-42.6	18.5	0.00e+00	0	27	0	108003328	56	6115
2026-01-15 18:27:03.43	30.08	6.19	-40.8	-42.5	18.6	0.00e+00	52	27	0	110100480	56	6053
2026-01-15 18:27:04.44	29.97	6.24	-40.7	-42.4	18.6	0.00e+00	0	27	0	112197632	54	6718
2026-01-15 18:27:05.45	29.86	6.30	-40.8	-42.4	18.6	0.00e+00	28	27	0	114294784	54	6758
2026-01-15 18:27:06.45	29.75	6.35	-40.6	-42.3	18.7	0.00e+00	92	27	0	116391936	54	6619
2026-01-15 18:27:07.46	29.64	6.40	-40.6	-42.2	18.8	0.00e+00	0	27	0	117440512	54	6585
2026-01-15 18:27:08.47	29.53	6.46	-40.6	-42.2	18.9	0.00e+00	92	27	0	119537664	54	6542
2026-01-15 18:27:09.49	29.41	6.51	-40.6	-42.2	18.9	0.00e+00	53	27	0	121634816	54	6577
2026-01-15 18:27:10.50	29.30	6.57	-40.4	-41.9	19.1	0.00e+00	21	27	0	123731968	54	6365
2026-01-15 18:27:11.50	29.19	6.62	-40.3	-41.8	19.2	0.00e+00	0	27	0	125829120	54	6275
2026-01-15 18:27:12.51	29.08	6.68	-40.2	-41.7	19.4	0.00e+00	52	27	0	126877696	54	6203
2026-01-15 18:27:13.52	28.96	6.73	-40.1	-41.6	19.4	0.00e+00	59	27	0	128974848	54	6132
2026-01-15 18:27:14.53	28.85	6.78	-40.1	-41.5	19.4	0.00e+00	0	27	0	131072000	54	6091
2026-01-15 18:27:15.54	28.73	6.84	-40.2	-41.6	19.4	0.00e+00	92	27	0	133169152	54	6168
2026-01-15 18:27:16.55	28.62	6.89	-40.0	-41.4	19.2	0.00e+00	0	27	0	135266304	54	6028
2026-01-15 18:27:17.56	28.50	6.95	-40.1	-41.6	19.5	0.00e+00	92	27	0	136314880	54	6118
2026-01-15 18:27:18.57	28.39	7.00	-40.1	-41.5	19.5	0.00e+00	0	27	0	138412032	54	6088
2026-01-15 18:27:19.58	28.27	7.06	-40.1	-41.5	19.6	0.00e+00	0	27	0	140509184	54	6069
2026-01-15 18:27:20.59	28.15	7.11	-40.0	-41.5	19.6	0.00e+00	0	27	0	142606336	54	6049
2026-01-15 18:27:21.60	28.04	7.17	-40.1	-41.6	19.5	0.00e+00	26	27	0	144703488	54	6129
2026-01-15 18:27:22.61	27.92	7.22	-40.0	-41.4	19.7	0.00e+00	90	27	0	145752064	54	6012
2026-01-15 18:27:23.62	27.80	7.27	-40.0	-41.4	19.6	0.00e+00	0	27	0	147849216	54	6008
2026-01-15 18:27:24.63	27.68	7.33	-40.0	-41.4	19.8	0.00e+00	92	27	0	149946368	54	5987
2026-01-15 18:27:25.64	27.56	7.38	-39.8	-41.2	19.9	0.00e+00	0	27	0	152043520	54	5839
2026-01-15 18:27:26.65	27.44	7.44	-39.9	-41.3	19.9	0.00e+00	26	27	0	154140672	52	6617
2026-01-15 18:27:27.66	27.32	7.49	-39.7	-41.1	20.0	0.00e+00	54	27	0	155189248	52	6504
2026-01-15 18:27:28.67	27.20	7.55	-39.8	-41.2	20.0	0.00e+00	27	27	0	157286400	52	6570
2026-01-15 18:27:29.68	27.08	7.60	-39.8	-41.1	20.0	0.00e+00	0	27	0	159383552	52	6515
2026-01-15 18:27:30.69	26.96	7.66	-39.6	-41.0	20.2	0.00e+00	0	27	0	161480704	52	6402
2026-01-15 18:27:31.70	26.84	7.71	-39.6	-40.9	20.2	0.00e+00	92	27	0	163577856	52	6389
2026-01-15 18:27:32.71	26.71	7.76	-39.5	-40.8	20.4	0.00e+00	53	27	0	164626432	52	6314
2026-01-15 18:27:33.72	26.59	7.82	-39.5	-40.8	20.4	0.00e+00	91	27	0	166723584	52	6291
2026-01-15 18:27:34.73	26.47	7.87	-39.6	-40.9	20.3	0.00e+00	57	27	0	168820736	52	6380
2026-01-15 18:27:35.74	26.34	7.93	-39.7	-41.1	20.1	0.00e+00	6	27	0	170917888	52	6494
2026-01-15 18:27:36.75	26.22	7.98	-39.9	-41.2	20.0	0.00e+00	2	27	0	173015040	52	6609
2026-01-15 18:27:37.76	26.09	8.04	-39.9	-41.3	19.9	0.00e+00	0	27	0	175112192	52	6632
2026-01-15 18:27:38.77	25.97	8.09	-40.0	-41.4	19.9	0.00e+00	92	27	0	176160768	52	6704
2026-01-15 18:27:39.78	25.84	8.14	-39.9	-41.3	19.9	0.00e+00	0	27	0	178257920	52	6666
2026-01-15 18:27:40.79	25.72	8.20	-39.9	-41.3	20.0	0.00e+00	91	27	0	180355072	52	6631
2026-01-15 18:27:41.80	25.59	8.25	-39.7	-41.0	20.3	0.00e+00	25	27	0	182452224	52	6412
2026-01-15 18:27:42.81	25.46	8.31	-39.8	-41.2	20.1	0.00e+00	27	27	0	184549376	52	6582
2026-01-15 18:27:43.82	25.34	8.36	-39.8	-41.2	20.1	0.00e+00	0	27	0	185597952	52	6559
2026-01-15 18:27:44.83	25.21	8.42	-39.9	-41.2	20.1	0.00e+00	27	27	0	187695104	52	6599
2026-01-15 18:27:45.84	25.08	8.47	-40.0	-41.4	19.9	0.00e+00	92	27	0	189792256	52	6731
2026-01-15 18:27:46.85	24.95	8.52	-39.9	-41.2	20.1	0.00e+00	27	27	0	191889408	52	6605
2026-01-15 18:27:47.86	24.82	8.58	-39.6	-40.9	20.3	0.00e+00	92	27	0	193986560	52	6390
2026-01-15 18:27:48.87	24.69	8.63	-39.6	-40.9	20.3	0.00e+00	26	27	0	195035136	52	6372
2026-01-15 18:27:49.88	24.56	8.69	-39.6	-41.0	20.3	0.00e+00	28	27	0	197132288	52	6398
2026-01-15 18:27:50.89	24.43	8.74	-39.5	-40.8	20.5	0.00e+00	5	27	0	199229440	52	6274
2026-01-15 18:27:51.90	24.30	8.79	-39.7	-41.0	20.3	0.00e+00	8	27	0	201326592	52	6419
2026-01-15 18:27:52.91	24.16	8.85	-39.5	-40.8	20.4	0.00e+00	2	27	0	203423744	52	6292
2026-01-15 18:27:53.92	24.03	8.90	-39.6	-40.9	20.4	0.00e+00	8	27	0	204472320	52	6362
2026-01-15 18:27:54.92	23.90	8.96	-39.4	-40.7	20.6	0.00e+00	92	27	0	206569472	52	6207
2026-01-15 18:27:55.93	23.77	9.01	-39.5	-40.7	20.5	0.00e+00	7	27	0	208666624	52	6224
2026-01-15 18:27:56.94	23.63	9.06	-39.5	-40.7	20.6	0.00e+00	44	27	0	210763776	52	6234
2026-01-15 18:27:57.95	23.50	9.12	-39.6	-40.9	20.4	0.00e+00	6	27	0	212860928	52	6355
2026-01-15 18:27:58.96	23.36	9.17	-39.5	-40.8	20.5	0.00e+00	6	27	0	213909504	52	6272
2026-01-15 18:27:59.97	23.23	9.22	-39.3	-40.5	20.7	0.00e+00	5	27	0	216006656	52	6099
2026-01-15 18:28:00.98	23.09	9.28	-39.4	-40.6	20.6	0.00e+00	0	27	0	218103808	52	6155
2026-01-15 18:28:01.99	22.95	9.33	-39.4	-40.6	20.6	0.00e+00	92	27	0	220200960	52	6148
2026-01-15 18:28:03.00	22.82	9.39	-39.4	-40.6	20.7	0.00e+00	0	27	0	222298112	52	6162
2026-01-15 18:28:04.01	22.68	9.44	-39.6	-40.9	20.4	0.00e+00	81	27	0	223346688	52	6373
2026-01-15 18:28:05.02	22.54	9.49	-39.5	-40.8	20.5	0.00e+00	0	27	0	225443840	52	6247
2026-01-15 18:28:06.03	22.40	9.55	-39.5	-40.8	20.5	0.00e+00	29	27	0	227540992	52	6296
2026-01-15 18:28:07.04	22.26	9.60	-39.3	-40.6	20.7	0.00e+00	19	27	0	229638144	52	6124
2026-01-15 18:28:08.05	22.12	9.65	-39.4	-40.7	20.6	0.00e+00	28	27	0	231735296	52	6203
2026-01-15 18:28:09.06	21.98	9.71	-39.4	-40.7	20.7	0.00e+00	92	27	0	232783872	52	6208
2026-01-15 18:28:10.07	21.84	9.76	-39.3	-40.6	20.8	0.00e+00	53	27	0	234881024	52	6125
2026-01-15 18:28:11.08	21.70	9.81	-39.4	-40.6	20.7	0.00e+00	90	27	0	236978176	52	6145
2026-01-15 18:28:12.09	21.56	9.87	-39.4	-40.6	20.7	0.00e+00	54	27	0	239075328	52	6141
2026-01-15 18:28:13.09	21.42	9.92	-39.4	-40.6	20.7	0.00e+00	0	27	0	241172480	52	6141
2026-01-15 18:28:14.10	21.27	9.97	-39.4	-40.7	20.7	0.00e+00	52	27	0	243269632	52	6221
2026-01-15 18:28:15.11	21.13	10.02	-39.4	-40.6	20.7	0.00e+00	54	27	0	244318208	52	6153
2026-01-15 18:28:16.12	20.98	10.08	-39.4	-40.6	20.8	0.00e+00	18	27	0	246415360	52	6143
2026-01-15 18:28:17.13	20.84	10.13	-39.4	-40.6	20.7	0.00e+00	51	27	0	248512512	52	6170
2026-01-15 18:28:18.14	20.69	10.18	-39.2	-40.4	20.9	0.00e+00	92	27	0	250609664	52	5988
2026-01-15 18:28:19.15	20.55	10.24	-39.3	-40.5	20.9	0.00e+00	0	27	0	252706816	52	6067
2026-01-15 18:28:20.16	20.40	10.29	-39.2	-40.4	20.9	0.00e+00	91	27	0	253755392	52	6011
2026-01-15 18:28:21.17	20.26	10.34	-39.3	-40.6	20.7	0.00e+00	0	27	0	255852544	52	6104
2026-01-15 18:28:22.18	20.11	10.39	-39.2	-40.4	21.0	0.00e+00	0	27	0	257949696	52	5974
2026-01-15 18:28:23.20	19.96	10.45	-39.2	-40.5	20.9	0.00e+00	0	27	0	260046848	52	6046
2026-01-15 18:28:24.20	19.81	10.50	-39.5	-40.8	20.6	0.00e+00	28	27	0	262144000	52	6265
2026-01-15 18:28:25.22	19.66	10.55	-39.3	-40.5	20.8	0.00e+00	92	27	0	263192576	52	6074
2026-01-15 18:28:26.23	19.51	10.60	-39.4	-40.7	20.7	0.00e+00	0	27	0	265289728	52	6204
2026-01-15 18:28:27.24	19.36	10.66	-39.4	-40.7	20.6	0.00e+00	92	27	0	267386880	52	6191
2026-01-15 18:28:28.25	19.21	10.71	-39.3	-40.5	20.8	0.00e+00	22	27	0	269484032	52	6082
2026-01-15 18:28:29.26	19.06	10.76	-39.4	-40.7	20.7	0.00e+00	23	27	0	271581184	52	6196
2026-01-15 18:28:30.27	18.91	10.81	-39.2	-40.5	20.9	0.00e+00	59	27	0	272629760	52	6083
2026-01-15 18:28:31.28	18.76	10.86	-39.2	-40.5	20.8	0.00e+00	58	27	0	274726912	52	6078
2026-01-15 18:28:32.29	18.60	10.92	-39.2	-40.5	20.9	0.00e+00	92	27	0	276824064	52	6085
2026-01-15 18:28:33.30	18.45	10.97	-39.3	-40.6	20.9	0.00e+00	0	27	0	278921216	52	6105
2026-01-15 18:28:34.31	18.30	11.02	-39.3	-40.5	20.9	0.00e+00	92	27	0	281018368	52	6103
2026-01-15 18:28:35.32	18.14	11.07	-39.3	-40.5	20.9	0.00e+00	0	27	0	282066944	52	6079
2026-01-15 18:28:36.33	17.99	11.12	-39.1	-40.3	21.1	0.00e+00	0	27	0	284164096	52	5929
2026-01-15 18:28:37.34	17.83	11.17	-39.1	-40.3	21.1	0.00e+00	53	27	0	286261248	52	5933
2026-01-15 18:28:38.35	17.68	11.22	-39.0	-40.2	21.3	0.00e+00	0	27	0	288358400	52	5832
2026-01-15 18:28:39.36	17.52	11.27	-39.0	-40.2	21.2	0.00e+00	76	27	0	290455552	52	5876
2026-01-15 18:28:40.37	17.36	11.33	-39.0	-40.1	21.2	0.00e+00	0	27	0	291504128	52	5827
2026-01-15 18:28:41.37	17.21	11.38	-39.0	-40.1	21.3	0.00e+00	91	27	0	293601280	52	5823
2026-01-15 18:28:42.38	17.05	11.43	-38.8	-40.0	21.4	0.00e+00	2	27	0	295698432	52	5722
2026-01-15 18:28:43.39	16.89	11.48	-38.9	-40.0	21.3	0.00e+00	0	27	0	297795584	52	5735
2026-01-15 18:28:44.41	16.73	11.53	-38.6	-39.7	21.6	0.00e+00	0	27	0	299892736	50	6229
2026-01-15 18:28:45.42	16.57	11.58	-38.6	-39.7	21.6	0.00e+00	29	27	0	300941312	50	6221
2026-01-15 18:28:46.43	16.41	11.63	-38.7	-39.8	21.6	0.00e+00	0	27	0	303038464	50	6278
2026-01-15 18:28:47.44	16.25	11.68	-38.6	-39.7	21.6	0.00e+00	0	27	0	305135616	50	6194
2026-01-15 18:28:48.45	16.08	11.73	-38.5	-39.6	21.7	0.00e+00	92	27	0	307232768	50	6128
2026-01-15 18:28:49.46	15.92	11.78	-38.4	-39.5	21.8	0.00e+00	53	27	0	309329920	50	6065
2026-01-15 18:28:50.46	15.76	11.83	-38.6	-39.7	21.6	0.00e+00	91	27	0	311427072	50	6234
2026-01-15 18:28:51.48	15.60	11.88	-38.3	-39.3	22.0	0.00e+00	0	27	0	312475648	50	5942
2026-01-15 18:28:52.48	15.43	11.93	-37.9	-38.9	22.4	0.00e+00	51	27	0	314572800	50	5659
2026-01-15 18:28:53.49	15.27	11.98	-37.9	-38.9	22.4	0.00e+00	51	27	0	316669952	50	5649
2026-01-15 18:28:54.50	15.10	12.03	-37.9	-38.9	22.4	0.00e+00	50	27	0	318767104	50	5669
2026-01-15 18:28:55.51	14.94	12.08	-37.9	-39.0	22.3	0.00e+00	90	27	0	320864256	50	5716
2026-01-15 18:28:56.52	14.77	12.12	-38.1	-39.1	22.2	0.00e+00	57	27	0	321912832	50	5798
2026-01-15 18:28:57.53	14.61	12.17	-37.9	-38.9	22.4	0.00e+00	92	27	0	324009984	50	5655
2026-01-15 18:28:58.54	14.44	12.22	-37.9	-38.9	22.4	0.00e+00	0	27	0	326107136	50	5638
2026-01-15 18:28:59.55	14.27	12.27	-38.0	-39.1	22.3	0.00e+00	0	27	0	328204288	50	5779
2026-01-15 18:29:00.56	14.10	12.32	-37.8	-38.8	22.5	0.00e+00	0	27	0	330301440	50	5607
2026-01-15 18:29:01.57	13.93	12.37	-37.9	-38.9	22.3	0.00e+00	0	27	0	331350016	50	5689
2026-01-15 18:29:02.58	13.76	12.41	-37.8	-38.8	22.5	0.00e+00	0	27	0	333447168	50	5620
2026-01-15 18:29:03.59	13.59	12.46	-37.9	-39.0	22.3	0.00e+00	2	27	0	335544320	50	5704
2026-01-15 18:29:04.60	13.42	12.51	-38.1	-39.1	22.3	0.00e+00	90	27	0	337641472	50	5803
2026-01-15 18:29:05.61	13.25	12.56	-37.8	-38.9	22.5	0.00e+00	0	27	0	339738624	50	5644
2026-01-15 18:29:06.62	13.08	12.61	-37.7	-38.7	22.7	0.00e+00	0	27	0	340787200	48	6180
2026-01-15 18:29:07.62	12.91	12.65	-37.6	-38.6	22.7	0.00e+00	0	27	0	342884352	48	6155
2026-01-15 18:29:08.63	12.74	12.70	-37.6	-38.6	22.6	0.00e+00	0	27	0	344981504	48	6164
2026-01-15 18:29:09.64	12.56	12.75	-37.5	-38.5	22.8	0.00e+00	0	27	0	347078656	48	6090
2026-01-15 18:29:10.65	12.39	12.79	-37.6	-38.6	22.7	0.00e+00	27	27	0	349175808	48	6132
2026-01-15 18:29:11.66	12.21	12.84	-37.4	-38.4	22.9	0.00e+00	92	27	0	350224384	48	6012
2026-01-15 18:29:12.67	12.04	12.89	-37.5	-38.5	22.9	0.00e+00	29	27	0	352321536	48	6052
2026-01-15 18:29:13.68	11.86	12.93	-37.4	-38.4	22.9	0.00e+00	90	27	0	354418688	48	5991
2026-01-15 18:29:14.69	11.69	12.98	-37.4	-38.3	23.0	0.00e+00	6	27	0	356515840	48	5946
2026-01-15 18:29:15.70	11.51	13.02	-37.1	-38.1	23.2	0.00e+00	4	27	0	358612992	48	5780
2026-01-15 18:29:16.71	11.33	13.07	-37.2	-38.1	23.1	0.00e+00	0	27	0	359661568	48	5810
2026-01-15 18:29:17.73	11.15	13.12	-37.0	-38.0	22.9	0.00e+00	5	27	0	361758720	48	5698
2026-01-15 18:29:18.73	10.98	13.16	-37.1	-38.0	23.2	0.00e+00	91	27	0	363855872	48	5746
2026-01-15 18:29:19.74	10.80	13.21	-37.0	-38.0	23.3	0.00e+00	5	27	0	365953024	48	5710
2026-01-15 18:29:20.75	10.62	13.25	-37.0	-38.0	23.4	0.00e+00	90	27	0	368050176	48	5711
2026-01-15 18:29:21.76	10.44	13.30	-36.9	-37.8	23.4	0.00e+00	6	27	0	369098752	48	5591
2026-01-15 18:29:22.77	10.26	13.34	-36.9	-37.8	23.5	0.00e+00	0	27	0	371195904	48	5579
2026-01-15 18:29:23.78	10.08	13.39	-37.0	-37.9	23.4	0.00e+00	5	27	0	373293056	48	5676
2026-01-15 18:29:24.79	9.89	13.43	-36.9	-37.8	23.5	0.00e+00	0	27	0	375390208	48	5620
2026-01-15 18:29:25.80	9.71	13.47	-36.9	-37.8	23.5	0.00e+00	0	27	0	377487360	48	5620
2026-01-15 18:29:26.81	9.53	13.52	-37.0	-38.0	23.3	0.00e+00	23	27	0	379584512	48	5701
2026-01-15 18:29:27.82	9.35	13.56	-37.1	-38.1	23.2	0.00e+00	92	27	0	380633088	48	5794
2026-01-15 18:29:28.83	9.16	13.60	-37.0	-38.0	23.4	0.00e+00	0	27	0	382730240	48	5716
2026-01-15 18:29:29.84	8.98	13.65	-37.0	-38.0	23.3	0.00e+00	72	27	0	384827392	48	5705
2026-01-15 18:29:30.86	8.79	13.69	-37.1	-38.0	23.3	0.00e+00	62	27	0	386924544	48	5718
2026-01-15 18:29:31.87	8.60	13.73	-37.1	-38.1	23.2	0.00e+00	22	27	0	389021696	48	5784
2026-01-15 18:29:32.88	8.42	13.78	-37.3	-38.3	23.0	0.00e+00	14	27	0	390070272	48	5897
2026-01-15 18:29:33.88	8.23	13.82	-37.4	-38.3	23.0	0.00e+00	61	27	0	392167424	48	5959
2026-01-15 18:29:34.89	8.05	13.86	-37.4	-38.3	23.0	0.00e+00	92	27	0	394264576	48	5955
2026-01-15 18:29:35.90	7.86	13.90	-37.3	-38.3	23.1	0.00e+00	57	27	0	396361728	48	5929
2026-01-15 18:29:36.91	7.67	13.94	-37.5	-38.5	22.9	0.00e+00	92	27	0	398458880	48	6077
2026-01-15 18:29:37.92	7.48	13.98	-37.4	-38.3	23.0	0.00e+00	5	27	0	399507456	48	5961
2026-01-15 18:29:38.93	7.29	14.02	-37.4	-38.3	23.1	0.00e+00	57	27	0	401604608	48	5960
2026-01-15 18:29:39.94	7.10	14.07	-37.5	-38.4	23.0	0.00e+00	57	27	0	403701760	48	6028
2026-01-15 18:29:40.95	6.91	14.11	-37.5	-38.4	23.0	0.00e+00	0	27	0	405798912	48	6027
2026-01-15 18:29:41.96	6.72	14.15	-37.4	-38.4	23.0	0.00e+00	92	27	0	407896064	48	5966
2026-01-15 18:29:42.97	6.53	14.19	-37.4	-38.4	23.0	0.00e+00	6	27	0	408944640	48	5993
2026-01-15 18:29:43.98	6.34	14.23	-37.5	-38.5	22.9	0.00e+00	92	27	0	411041792	48	6080
2026-01-15 18:29:44.99	6.14	14.27	-37.2	-38.2	23.2	0.00e+00	0	27	0	413138944	48	5864
2026-01-15 18:29:46.00	5.95	14.30	-37.2	-38.1	23.2	0.00e+00	30	27	0	415236096	48	5824
2026-01-15 18:29:47.01	5.76	14.34	-37.2	-38.1	23.3	0.00e+00	0	27	0	417333248	48	5789
2026-01-15 18:29:48.02	5.56	14.38	-37.3	-38.2	23.2	0.00e+00	29	27	0	418381824	48	5860
2026-01-15 18:29:49.03	5.37	14.42	-37.2	-38.1	23.3	0.00e+00	33	27	0	420478976	48	5811
2026-01-15 18:29:50.03	5.18	14.46	-37.2	-38.2	23.2	0.00e+00	0	27	0	422576128	48	5850
2026-01-15 18:29:51.04	4.98	14.50	-37.2	-38.2	23.2	0.00e+00	92	27	0	424673280	48	5840
2026-01-15 18:29:52.05	4.78	14.53	-37.1	-38.0	23.4	0.00e+00	53	27	0	426770432	48	5746
2026-01-15 18:29:53.06	4.59	14.57	-37.0	-37.9	23.6	0.00e+00	92	27	0	427819008	48	5646
2026-01-15 18:29:54.07	4.39	14.61	-37.0	-37.9	23.5	0.00e+00	53	27	0	429916160	48	5654
2026-01-15 18:29:55.08	4.19	14.64	-36.9	-37.8	23.5	0.00e+00	52	27	0	432013312	48	5624
2026-01-15 18:29:56.09	3.99	14.68	-37.0	-37.9	23.5	0.00e+00	71	27	0	434110464	48	5659
2026-01-15 18:29:57.10	3.80	14.72	-37.1	-38.0	23.4	0.00e+00	58	27	0	436207616	48	5749
2026-01-15 18:29:58.11	3.60	14.75	-37.0	-37.9	23.4	0.00e+00	92	27	0	437256192	48	5679
2026-01-15 18:29:59.12	3.40	14.79	-36.9	-37.8	23.4	0.00e+00	2	27	0	439353344	48	5626
2026-01-15 18:30:00.12	3.20	14.82	-36.8	-37.7	23.7	0.00e+00	92	27	0	441450496	48	5534
2026-01-15 18:30:01.10	3.00	14.86	-36.8	-37.7	23.3	0.00e+00	0	27	0	443547648	48	5539
2026-01-15 18:30:02.11	2.80	14.89	-37.0	-37.9	23.4	0.00e+00	0	27	0	445644800	48	5653
2026-01-15 18:30:03.12	2.60	14.93	-36.8	-37.7	23.6	0.00e+00	0	27	0	446693376	48	5558
2026-01-15 18:30:04.13	2.40	14.96	-37.0	-37.9	23.5	0.00e+00	2	27	0	448790528	48	5660
2026-01-15 18:30:05.14	2.20	14.99	-37.0	-38.0	23.5	0.00e+00	92	27	0	450887680	48	5707
2026-01-15 18:30:06.16	1.99	15.03	-37.1	-38.0	23.5	0.00e+00	0	27	0	452984832	48	5758
2026-01-15 18:30:07.16	1.79	15.06	-36.9	-37.8	23.6	0.00e+00	90	27	0	455081984	48	5595
2026-01-15 18:30:08.17	1.59	15.09	-36.8	-37.7	23.7	0.00e+00	0	27	0	456130560	48	5546
2026-01-15 18:30:09.18	1.38	15.13	-36.8	-37.7	23.8	0.00e+00	57	27	0	458227712	48	5564
2026-01-15 18:30:10.19	1.18	15.16	-36.8	-37.7	23.7	0.00e+00	0	27	0	460324864	48	5549
2026-01-15 18:30:11.20	0.97	15.19	-36.9	-37.8	23.6	0.00e+00	0	27	0	462422016	48	5604
2026-01-15 18:30:12.21	0.77	15.22	-37.0	-37.9	23.6	0.00e+00	0	27	0	464519168	48	5661
2026-01-15 18:30:13.22	0.56	15.25	-37.0	-37.9	23.5	0.00e+00	0	27	0	465567744	48	5683
2026-01-15 18:30:14.23	0.35	15.28	-36.8	-37.7	23.6	0.00e+00	91	27	0	467664896	48	5551
2026-01-15 18:30:15.24	0.15	15.31	-36.8	-37.7	23.7	0.00e+00	28	27	0	469762048	48	5531
2026-01-15 18:30:16.25	359.94	15.34	-36.8	-37.7	23.7	0.00e+00	90	27	0	471859200	46	6183
2026-01-15 18:30:17.26	359.73	15.37	-36.8	-37.7	23.7	0.00e+00	52	27	0	473956352	46	6220
2026-01-15 18:30:18.27	359.52	15.40	-36.9	-37.8	23.6	0.00e+00	29	27	0	476053504	46	6309
2026-01-15 18:30:19.28	359.32	15.43	-37.0	-37.9	23.5	0.00e+00	0	27	0	477102080	46	6388
2026-01-15 18:30:20.29	359.11	15.46	-37.1	-38.0	23.4	0.00e+00	51	27	0	479199232	46	6449
2026-01-15 18:30:21.30	358.90	15.49	-37.2	-38.1	23.3	0.00e+00	92	27	0	481296384	46	6507
2026-01-15 18:30:22.31	358.69	15.52	-37.0	-38.0	23.5	0.00e+00	52	27	0	483393536	46	6404
2026-01-15 18:30:23.31	358.48	15.55	-37.1	-38.0	23.4	0.00e+00	92	27	0	485490688	46	6437
2026-01-15 18:30:24.32	358.27	15.57	-37.0	-37.9	23.5	0.00e+00	52	27	0	486539264	46	6332
2026-01-15 18:30:25.33	358.06	15.60	-37.0	-37.9	23.5	0.00e+00	52	27	0	488636416	46	6327
2026-01-15 18:30:26.34	357.85	15.63	-36.8	-37.7	23.5	0.00e+00	0	27	0	490733568	46	6202
2026-01-15 18:30:27.35	357.64	15.65	-36.9	-37.8	23.6	0.00e+00	0	27	0	492830720	46	6314
2026-01-15 18:30:28.36	357.42	15.68	-37.0	-37.9	23.4	0.00e+00	90	27	0	494927872	46	6390
2026-01-15 18:30:29.37	357.21	15.70	-37.0	-37.9	23.5	0.00e+00	0	27	0	495976448	46	6377
2026-01-15 18:30:30.38	357.00	15.73	-37.1	-38.0	23.4	0.00e+00	92	27	0	498073600	46	6443
2026-01-15 18:30:31.39	356.78	15.75	-37.1	-38.1	23.4	0.00e+00	0	27	0	500170752	46	6477
2026-01-15 18:30:32.40	356.57	15.78	-37.0	-37.9	23.4	0.00e+00	30	27	0	502267904	46	6375
2026-01-15 18:30:33.41	356.36	15.80	-37.0	-37.9	23.6	0.00e+00	23	27	0	504365056	46	6348
2026-01-15 18:30:34.42	356.14	15.83	-37.0	-37.9	23.5	0.00e+00	0	27	0	505413632	46	6343
2026-01-15 18:30:35.43	355.93	15.85	-37.0	-37.9	23.5	0.00e+00	0	27	0	507510784	46	6320
2026-01-15 18:30:36.44	355.71	15.87	-37.4	-38.3	23.1	0.00e+00	0	27	0	509607936	46	6652
2026-01-15 18:30:37.45	355.50	15.90	-37.4	-38.4	23.0	0.00e+00	91	27	0	511705088	46	6739
2026-01-15 18:30:38.46	355.28	15.92	-37.5	-38.5	22.9	0.00e+00	31	27	0	513802240	46	6781
2026-01-15 18:30:39.47	355.07	15.94	-37.5	-38.5	22.9	0.00e+00	91	27	0	514850816	46	6813
2026-01-15 18:30:40.48	354.85	15.96	-37.6	-38.6	23.0	0.00e+00	51	27	0	516947968	46	6872
2026-01-15 18:30:41.49	354.63	15.98	-37.2	-38.2	23.2	0.00e+00	29	27	0	519045120	46	6603
2026-01-15 18:30:42.50	354.42	16.00	-37.3	-38.3	23.2	0.00e+00	0	27	0	521142272	46	6647
2026-01-15 18:30:43.51	354.20	16.02	-37.5	-38.5	23.0	0.00e+00	0	27	0	523239424	46	6839
2026-01-15 18:30:44.52	353.98	16.04	-37.6	-38.5	22.9	0.00e+00	92	27	0	524288000	46	6836
2026-01-15 18:30:45.53	353.76	16.06	-37.6	-38.6	23.0	0.00e+00	0	27	0	526385152	46	6850
2026-01-15 18:30:46.54	353.55	16.08	-37.5	-38.5	23.0	0.00e+00	90	27	0	528482304	46	6783
2026-01-15 18:30:47.55	353.33	16.10	-37.6	-38.6	22.9	0.00e+00	0	27	0	530579456	46	6883
2026-01-15 18:30:48.56	353.11	16.12	-37.3	-38.3	23.2	0.00e+00	0	27	0	532676608	46	6628
2026-01-15 18:30:49.56	352.89	16.13	-37.2	-38.2	23.2	0.00e+00	0	27	0	533725184	46	6577
2026-01-15 18:30:50.57	352.67	16.15	-37.2	-38.2	23.3	0.00e+00	0	27	0	535822336	46	6552
2026-01-15 18:30:51.58	352.45	16.17	-37.2	-38.2	23.3	0.00e+00	0	27	0	537919488	46	6559
2026-01-15 18:30:52.59	352.24	16.18	-37.4	-38.4	23.1	0.00e+00	29	27	0	540016640	46	6709
2026-01-15 18:30:53.60	352.02	16.20	-37.3	-38.3	23.2	0.00e+00	93	27	0	542113792	46	6616
2026-01-15 18:30:54.61	351.80	16.22	-37.4	-38.3	23.2	0.00e+00	0	27	0	544210944	46	6675
2026-01-15 18:30:55.62	351.57	16.23	-37.4	-38.3	23.2	0.00e+00	48	27	0	545259520	46	6660
2026-01-15 18:30:56.63	351.35	16.25	-37.4	-38.3	23.2	0.00e+00	29	27	0	547356672	46	6676
2026-01-15 18:30:57.64	351.13	16.26	-37.4	-38.3	23.3	0.00e+00	59	27	0	549453824	46	6631
2026-01-15 18:30:58.65	350.91	16.27	-37.3	-38.3	23.2	0.00e+00	0	27	0	551550976	46	6634
2026-01-15 18:30:59.66	350.69	16.29	-37.4	-38.4	23.2	0.00e+00	2	27	0	553648128	46	6700
2026-01-15 18:31:00.67	350.47	16.30	-37.6	-38.5	23.0	0.00e+00	92	27	0	554696704	46	6827
2026-01-15 18:31:01.68	350.25	16.31	-37.6	-38.5	22.8	0.00e+00	29	27	0	556793856	46	6818
2026-01-15 18:31:02.69	350.03	16.33	-37.6	-38.6	22.9	0.00e+00	92	27	0	558891008	46	6861
2026-01-15 18:31:03.70	349.81	16.34	-37.7	-38.7	22.9	0.00e+00	5	27	0	560988160	48	6187
2026-01-15 18:31:04.71	349.58	16.35	-37.6	-38.6	22.9	0.00e+00	58	27	0	563085312	48	6132
2026-01-15 18:31:05.72	349.36	16.36	-37.6	-38.6	23.0	0.00e+00	58	27	0	564133888	48	6107
2026-01-15 18:31:06.73	349.14	16.37	-37.5	-38.5	23.0	0.00e+00	5	27	0	566231040	48	6052
2026-01-15 18:31:07.74	348.92	16.38	-37.5	-38.5	23.0	0.00e+00	92	27	0	568328192	48	6079
2026-01-15 18:31:08.75	348.69	16.39	-37.4	-38.4	23.2	0.00e+00	0	27	0	570425344	48	5993
2026-01-15 18:31:09.76	348.47	16.40	-37.6	-38.6	22.9	0.00e+00	92	27	0	572522496	48	6127
2026-01-15 18:31:10.77	348.25	16.41	-37.7	-38.6	23.0	0.00e+00	6	27	0	573571072	48	6164
2026-01-15 18:31:11.78	348.02	16.42	-37.7	-38.7	22.8	0.00e+00	14	27	0	575668224	48	6214
2026-01-15 18:31:12.79	347.80	16.42	-37.5	-38.5	23.0	0.00e+00	23	27	0	577765376	48	6072
2026-01-15 18:31:13.80	347.58	16.43	-37.6	-38.6	23.0	0.00e+00	0	27	0	579862528	48	6108
2026-01-15 18:31:14.81	347.35	16.44	-37.5	-38.5	23.0	0.00e+00	0	27	0	581959680	48	6052
2026-01-15 18:31:15.82	347.13	16.44	-37.5	-38.5	23.0	0.00e+00	0	27	0	583008256	48	6070
2026-01-15 18:31:16.83	346.91	16.45	-37.5	-38.4	23.1	0.00e+00	92	27	0	585105408	48	6011
2026-01-15 18:31:17.84	346.68	16.46	-37.4	-38.4	23.1	0.00e+00	0	27	0	587202560	48	6003
2026-01-15 18:31:18.85	346.46	16.46	-37.5	-38.5	23.1	0.00e+00	59	27	0	589299712	48	6041
2026-01-15 18:31:19.86	346.24	16.47	-37.5	-38.4	23.1	0.00e+00	29	27	0	591396864	48	6024
2026-01-15 18:31:20.87	346.01	16.47	-37.5	-38.4	23.1	0.00e+00	57	27	0	592445440	48	6026
2026-01-15 18:31:21.88	345.79	16.47	-37.5	-38.4	23.1	0.00e+00	0	27	0	594542592	48	6019
2026-01-15 18:31:22.88	345.57	16.48	-37.5	-38.4	23.1	0.00e+00	62	27	0	596639744	48	6003
2026-01-15 18:31:23.89	345.34	16.48	-37.5	-38.4	23.1	0.00e+00	92	27	0	598736896	48	6029
2026-01-15 18:31:24.91	345.12	16.48	-37.4	-38.4	23.1	0.00e+00	7	27	0	600834048	48	5967
2026-01-15 18:31:25.91	344.89	16.48	-37.3	-38.3	23.2	0.00e+00	92	27	0	601882624	48	5905
2026-01-15 18:31:26.93	344.67	16.49	-37.3	-38.2	23.2	0.00e+00	58	27	0	603979776	48	5879
2026-01-15 18:31:27.94	344.44	16.49	-37.2	-38.2	23.3	0.00e+00	6	27	0	606076928	48	5857
2026-01-15 18:31:28.95	344.22	16.49	-37.4	-38.3	23.2	0.00e+00	0	27	0	608174080	48	5957
2026-01-15 18:31:29.95	344.00	16.49	-37.5	-38.4	23.1	0.00e+00	0	27	0	610271232	48	6028
2026-01-15 18:31:30.96	343.77	16.49	-37.6	-38.6	22.9	0.00e+00	91	27	0	612368384	48	6152
2026-01-15 18:31:31.97	343.55	16.49	-37.7	-38.7	22.8	0.00e+00	6	27	0	613416960	48	6234
2026-01-15 18:31:32.98	343.32	16.49	-37.9	-38.9	22.7	0.00e+00	92	27	0	615514112	48	6324
2026-01-15 18:31:33.99	343.10	16.48	-37.8	-38.7	22.8	0.00e+00	0	27	0	617611264	48	6241
2026-01-15 18:31:35.00	342.88	16.48	-37.6	-38.6	22.9	0.00e+00	28	27	0	619708416	48	6133
2026-01-15 18:31:36.01	342.65	16.48	-37.6	-38.6	22.9	0.00e+00	29	27	0	621805568	48	6143
2026-01-15 18:31:37.02	342.43	16.48	-37.5	-38.4	23.0	0.00e+00	29	27	0	622854144	48	6020
2026-01-15 18:31:38.03	342.20	16.47	-37.3	-38.2	23.2	0.00e+00	0	27	0	624951296	48	5879
2026-01-15 18:31:39.04	341.98	16.47	-37.4	-38.3	23.2	0.00e+00	0	27	0	627048448	48	5949
2026-01-15 18:31:40.05	341.76	16.47	-37.4	-38.3	23.2	0.00e+00	92	27	0	629145600	48	5949
2026-01-15 18:31:41.06	341.53	16.46	-37.3	-38.3	23.1	0.00e+00	52	27	0	631242752	48	5931
2026-01-15 18:31:42.07	341.31	16.46	-37.4	-38.4	23.1	0.00e+00	91	27	0	632291328	48	5977
2026-01-15 18:31:43.08	341.08	16.45	-37.5	-38.5	23.0	0.00e+00	55	27	0	634388480	48	6064
2026-01-15 18:31:44.09	340.86	16.45	-37.6	-38.6	22.9	0.00e+00	28	27	0	636485632	48	6149
2026-01-15 18:31:45.10	340.64	16.44	-37.6	-38.7	22.8	0.00e+00	80	27	0	638582784	48	6188
2026-01-15 18:31:46.11	340.41	16.43	-37.7	-38.8	22.8	0.00e+00	2	27	0	640679936	48	6251
2026-01-15 18:31:47.12	340.19	16.42	-37.7	-38.8	22.7	0.00e+00	92	27	0	641728512	48	6273
2026-01-15 18:31:48.12	339.97	16.42	-37.8	-38.9	22.8	0.00e+00	2	27	0	643825664	48	6319
2026-01-15 18:31:49.13	339.75	16.41	-37.6	-38.7	22.9	0.00e+00	92	27	0	645922816	48	6196
2026-01-15 18:31:50.14	339.52	16.40	-37.8	-38.9	22.6	0.00e+00	0	27	0	648019968	48	6323
2026-01-15 18:31:51.15	339.30	16.39	-37.5	-38.6	23.0	0.00e+00	0	27	0	650117120	48	6133
2026-01-15 18:31:52.16	339.08	16.38	-37.5	-38.6	23.0	0.00e+00	0	27	0	651165696	48	6139
2026-01-15 18:31:53.17	338.85	16.37	-37.4	-38.4	23.1	0.00e+00	0	27	0	653262848	48	6018
2026-01-15 18:31:54.18	338.63	16.36	-37.4	-38.5	23.0	0.00e+00	91	27	0	655360000	48	6052
2026-01-15 18:31:55.19	338.41	16.35	-37.3	-38.4	23.1	0.00e+00	0	27	0	657457152	48	5994
2026-01-15 18:31:56.20	338.19	16.34	-37.2	-38.3	23.3	0.00e+00	92	27	0	659554304	48	5905
2026-01-15 18:31:57.21	337.97	16.33	-37.3	-38.3	23.2	0.00e+00	0	27	0	660602880	48	5915
2026-01-15 18:31:58.22	337.74	16.32	-37.3	-38.3	23.1	0.00e+00	30	27	0	662700032	48	5963
2026-01-15 18:31:59.23	337.52	16.30	-37.4	-38.5	23.0	0.00e+00	0	27	0	664797184	48	6041
2026-01-15 18:32:00.24	337.30	16.29	-37.4	-38.5	23.0	0.00e+00	0	27	0	666894336	48	6046
2026-01-15 18:32:01.25	337.08	16.28	-37.5	-38.5	23.0	0.00e+00	92	27	0	668991488	48	6057
2026-01-15 18:32:02.26	336.86	16.26	-37.5	-38.5	23.1	0.00e+00	23	27	0	670040064	48	6065
2026-01-15 18:32:03.26	336.64	16.25	-37.4	-38.4	23.1	0.00e+00	92	27	0	672137216	48	5985
2026-01-15 18:32:04.28	336.42	16.23	-37.3	-38.3	23.2	0.00e+00	57	27	0	674234368	48	5923
2026-01-15 18:32:05.28	336.20	16.22	-37.4	-38.4	23.2	0.00e+00	91	27	0	676331520	48	5998
2026-01-15 18:32:06.29	335.98	16.20	-37.3	-38.3	23.2	0.00e+00	53	27	0	678428672	48	5911
2026-01-15 18:32:07.30	335.76	16.19	-37.1	-38.1	23.4	0.00e+00	2	27	0	680525824	48	5774
2026-01-15 18:32:08.31	335.54	16.17	-37.0	-37.9	23.5	0.00e+00	0	27	0	681574400	48	5692
2026-01-15 18:32:09.32	335.32	16.15	-37.1	-38.0	23.4	0.00e+00	0	27	0	683671552	48	5751
2026-01-15 18:32:10.33	335.10	16.14	-37.1	-38.1	23.4	0.00e+00	92	27	0	685768704	48	5774
2026-01-15 18:32:11.34	334.88	16.12	-37.1	-38.1	23.4	0.00e+00	0	27	0	687865856	48	5796
2026-01-15 18:32:12.35	334.66	16.10	-37.2	-38.1	23.3	0.00e+00	46	27	0	689963008	48	5809
2026-01-15 18:32:13.36	334.44	16.08	-37.4	-38.3	23.1	0.00e+00	0	27	0	691011584	48	5945
2026-01-15 18:32:14.37	334.23	16.06	-37.2	-38.2	23.3	0.00e+00	0	27	0	693108736	48	5834
2026-01-15 18:32:15.38	334.01	16.04	-37.0	-38.0	23.5	0.00e+00	2	27	0	695205888	48	5704
2026-01-15 18:32:16.39	333.79	16.03	-37.0	-37.9	23.5	0.00e+00	0	27	0	697303040	48	5687
2026-01-15 18:32:17.40	333.57	16.01	-36.9	-37.8	23.6	0.00e+00	92	27	0	699400192	48	5606
2026-01-15 18:32:18.41	333.36	15.98	-36.8	-37.8	23.8	0.00e+00	0	27	0	700448768	48	5571
2026-01-15 18:32:19.42	333.14	15.96	-36.8	-37.7	23.6	0.00e+00	92	27	0	702545920	48	5566
2026-01-15 18:32:20.43	332.92	15.94	-36.8	-37.7	23.7	0.00e+00	0	27	0	704643072	48	5516
2026-01-15 18:32:21.44	332.71	15.92	-37.0	-37.9	23.5	0.00e+00	53	27	0	706740224	48	5665
2026-01-15 18:32:22.45	332.49	15.90	-37.0	-37.9	23.3	0.00e+00	52	27	0	708837376	48	5647
2026-01-15 18:32:23.46	332.28	15.88	-37.1	-38.0	23.4	0.00e+00	54	27	0	709885952	48	5719
2026-01-15 18:32:24.47	332.06	15.85	-37.0	-37.9	23.5	0.00e+00	20	27	0	711983104	48	5692
2026-01-15 18:32:25.48	331.85	15.83	-37.1	-38.1	23.3	0.00e+00	28	27	0	714080256	48	5785
2026-01-15 18:32:26.49	331.63	15.81	-37.3	-38.2	23.2	0.00e+00	91	27	0	716177408	48	5883
2026-01-15 18:32:27.50	331.42	15.78	-37.2	-38.2	23.3	0.00e+00	0	27	0	718274560	48	5851
2026-01-15 18:32:28.51	331.20	15.76	-37.3	-38.2	23.3	0.00e+00	90	27	0	719323136	48	5867
2026-01-15 18:32:29.52	330.99	15.73	-37.4	-38.4	23.1	0.00e+00	53	27	0	721420288	48	5965
2026-01-15 18:32:30.53	330.78	15.71	-37.3	-38.2	23.2	0.00e+00	0	27	0	723517440	48	5890
2026-01-15 18:32:31.54	330.56	15.68	-37.2	-38.2	23.3	0.00e+00	0	27	0	725614592	48	5844
2026-01-15 18:32:32.54	330.35	15.66	-37.3	-38.3	23.2	0.00e+00	0	27	0	727711744	48	5911
2026-01-15 18:32:33.55	330.14	15.63	-37.1	-38.1	23.4	0.00e+00	91	27	0	728760320	48	5771
2026-01-15 18:32:34.56	329.93	15.61	-37.2	-38.2	23.2	0.00e+00	0	27	0	730857472	48	5833
2026-01-15 18:32:35.57	329.72	15.58	-37.2	-38.2	23.3	0.00e+00	0	27	0	732954624	48	5837
2026-01-15 18:32:36.58	329.51	15.55	-37.2	-38.2	23.3	0.00e+00	2	27	0	735051776	48	5844
2026-01-15 18:32:37.59	329.30	15.52	-37.3	-38.3	23.2	0.00e+00	0	27	0	737148928	48	5916
2026-01-15 18:32:38.60	329.09	15.50	-37.4	-38.4	23.1	0.00e+00	0	27	0	738197504	48	5991
2026-01-15 18:32:39.61	328.88	15.47	-37.6	-38.5	22.9	0.00e+00	0	27	0	740294656	48	6086
2026-01-15 18:32:40.62	328.67	15.44	-37.6	-38.6	22.9	0.00e+00	91	27	0	742391808	48	6123
2026-01-15 18:32:41.63	328.46	15.41	-37.7	-38.7	22.7	0.00e+00	0	27	0	744488960	48	6207
2026-01-15 18:32:42.64	328.25	15.38	-37.7	-38.7	22.9	0.00e+00	91	27	0	746586112	48	6177
2026-01-15 18:32:43.65	328.05	15.35	-37.7	-38.6	22.8	0.00e+00	0	27	0	748683264	48	6167
2026-01-15 18:32:44.66	327.84	15.32	-37.7	-38.6	22.9	0.00e+00	57	27	0	749731840	48	6167
2026-01-15 18:32:45.67	327.63	15.29	-37.7	-38.6	22.9	0.00e+00	54	27	0	751828992	48	6160
2026-01-15 18:32:46.68	327.42	15.26	-37.7	-38.7	22.8	0.00e+00	26	27	0	753926144	48	6194
2026-01-15 18:32:47.69	327.22	15.23	-37.7	-38.7	22.8	0.00e+00	0	27	0	756023296	48	6188
2026-01-15 18:32:48.70	327.01	15.20	-37.7	-38.7	22.8	0.00e+00	53	27	0	758120448	48	6189
2026-01-15 18:32:49.71	326.81	15.16	-37.7	-38.7	22.9	0.00e+00	92	27	0	759169024	48	6186
2026-01-15 18:32:50.71	326.60	15.13	-37.8	-38.8	22.8	0.00e+00	0	27	0	761266176	48	6300
2026-01-15 18:32:51.72	326.40	15.10	-37.7	-38.7	22.8	0.00e+00	0	27	0	763363328	48	6224
2026-01-15 18:32:52.73	326.19	15.07	-37.7	-38.7	22.8	0.00e+00	6	27	0	765460480	48	6234
2026-01-15 18:32:53.74	325.99	15.03	-37.7	-38.7	22.9	0.00e+00	0	27	0	767557632	48	6178
2026-01-15 18:32:54.75	325.79	15.00	-37.6	-38.5	23.0	0.00e+00	0	27	0	768606208	48	6077
2026-01-15 18:32:55.76	325.59	14.97	-37.6	-38.6	22.9	0.00e+00	6	27	0	770703360	48	6128
2026-01-15 18:32:56.77	325.38	14.93	-37.5	-38.5	23.0	0.00e+00	92	27	0	772800512	48	6063
2026-01-15 18:32:57.78	325.18	14.90	-37.3	-38.3	23.2	0.00e+00	0	27	0	774897664	48	5920
2026-01-15 18:32:58.79	324.98	14.86	-37.4	-38.3	23.2	0.00e+00	51	27	0	776994816	48	5924
2026-01-15 18:32:59.80	324.78	14.83	-37.4	-38.3	23.2	0.00e+00	20	27	0	778043392	48	5924
2026-01-15 18:33:00.81	324.58	14.79	-37.2	-38.2	23.3	0.00e+00	27	27	0	780140544	48	5833
2026-01-15 18:33:01.82	324.38	14.76	-37.3	-38.2	23.2	0.00e+00	14	27	0	782237696	48	5880
2026-01-15 18:33:02.83	324.18	14.72	-37.3	-38.2	23.2	0.00e+00	25	27	0	784334848	48	5888
2026-01-15 18:33:03.84	323.98	14.69	-37.4	-38.4	23.1	0.00e+00	88	27	0	786432000	48	5976
2026-01-15 18:33:04.85	323.78	14.65	-37.4	-38.4	23.1	0.00e+00	59	27	0	787480576	48	5987
2026-01-15 18:33:05.86	323.58	14.61	-37.5	-38.5	23.0	0.00e+00	92	27	0	789577728	48	6065
2026-01-15 18:33:06.87	323.39	14.58	-37.4	-38.4	23.0	0.00e+00	65	27	0	791674880	48	5990
2026-01-15 18:33:07.88	323.19	14.54	-37.4	-38.3	23.1	0.00e+00	66	27	0	793772032	48	5944
2026-01-15 18:33:08.88	323.00	14.50	-37.3	-38.3	23.2	0.00e+00	59	27	0	795869184	48	5906
2026-01-15 18:33:09.89	322.80	14.46	-37.2	-38.2	23.2	0.00e+00	59	27	0	796917760	48	5840
2026-01-15 18:33:10.90	322.61	14.43	-37.3	-38.3	23.2	0.00e+00	86	27	0	799014912	48	5901
2026-01-15 18:33:11.91	322.41	14.39	-37.4	-38.3	23.2	0.00e+00	6	27	0	801112064	48	5956
2026-01-15 18:33:12.92	322.22	14.35	-37.3	-38.3	23.2	0.00e+00	90	27	0	803209216	48	5917
2026-01-15 18:33:13.92	322.02	14.31	-37.3	-38.2	23.1	0.00e+00	8	27	0	805306368	48	5869
2026-01-15 18:33:14.93	321.83	14.27	-37.4	-38.3	23.1	0.00e+00	12	27	0	806354944	48	5939
2026-01-15 18:33:15.95	321.64	14.23	-37.1	-38.0	23.3	0.00e+00	7	27	0	808452096	48	5736
2026-01-15 18:33:16.96	321.44	14.19	-37.2	-38.1	23.2	0.00e+00	0	27	0	810549248	48	5778
2026-01-15 18:33:17.96	321.25	14.15	-37.2	-38.1	23.3	0.00e+00	0	27	0	812646400	48	5825
2026-01-15 18:33:18.98	321.06	14.11	-37.1	-38.0	23.4	0.00e+00	6	27	0	814743552	48	5752
2026-01-15 18:33:19.99	320.87	14.07	-37.2	-38.2	23.3	0.00e+00	90	27	0	815792128	48	5839
2026-01-15 18:33:21.00	320.68	14.03	-37.3	-38.3	23.2	0.00e+00	28	27	0	817889280	48	5911
2026-01-15 18:33:22.01	320.49	13.99	-37.4	-38.4	23.1	0.00e+00	90	27	0	819986432	48	5986
2026-01-15 18:33:23.02	320.30	13.95	-37.5	-38.4	23.0	0.00e+00	28	27	0	822083584	48	6032
2026-01-15 18:33:24.03	320.11	13.91	-37.5	-38.4	23.0	0.00e+00	0	27	0	824180736	48	6026
2026-01-15 18:33:25.04	319.92	13.86	-37.5	-38.4	23.0	0.00e+00	0	27	0	825229312	48	6020
2026-01-15 18:33:26.05	319.74	13.82	-37.6	-38.5	22.9	0.00e+00	54	27	0	827326464	48	6079
2026-01-15 18:33:27.06	319.55	13.78	-37.7	-38.7	22.8	0.00e+00	77	27	0	829423616	48	6218
2026-01-15 18:33:28.07	319.36	13.74	-37.3	-38.3	23.2	0.00e+00	55	27	0	831520768	48	5915
2026-01-15 18:33:29.08	319.18	13.70	-37.3	-38.3	23.1	0.00e+00	91	27	0	833617920	48	5912
2026-01-15 18:33:30.09	318.99	13.65	-37.3	-38.2	23.2	0.00e+00	53	27	0	834666496	48	5893
2026-01-15 18:33:31.10	318.81	13.61	-37.3	-38.2	23.2	0.00e+00	0	27	0	836763648	48	5867
2026-01-15 18:33:32.11	318.62	13.57	-37.2	-38.2	23.3	0.00e+00	55	27	0	838860800	48	5839
2026-01-15 18:33:33.12	318.44	13.52	-37.4	-38.4	23.1	0.00e+00	57	27	0	840957952	48	5987
2026-01-15 18:33:34.13	318.26	13.48	-37.7	-38.6	22.9	0.00e+00	23	27	0	843055104	48	6157
2026-01-15 18:33:35.14	318.07	13.43	-37.8	-38.8	22.7	0.00e+00	56	27	0	845152256	48	6262
2026-01-15 18:33:36.15	317.89	13.39	-38.0	-39.0	22.4	0.00e+00	90	27	0	846200832	48	6464
2026-01-15 18:33:37.15	317.71	13.35	-38.1	-39.2	22.3	0.00e+00	0	27	0	848297984	48	6547
2026-01-15 18:33:38.16	317.53	13.30	-38.3	-39.3	22.3	0.00e+00	77	27	0	850395136	48	6645
2026-01-15 18:33:39.17	317.35	13.26	-38.3	-39.3	22.2	0.00e+00	0	27	0	852492288	48	6670
2026-01-15 18:33:40.18	317.17	13.21	-38.4	-39.5	22.1	0.00e+00	0	27	0	854589440	48	6799
2026-01-15 18:33:41.19	316.99	13.17	-38.3	-39.3	22.2	0.00e+00	0	27	0	855638016	48	6653
2026-01-15 18:33:42.20	316.81	13.12	-38.6	-39.6	22.0	0.00e+00	0	27	0	857735168	48	6907
2026-01-15 18:33:43.21	316.63	13.08	-38.3	-39.3	22.1	0.00e+00	92	27	0	859832320	48	6685
2026-01-15 18:33:44.22	316.46	13.03	-38.4	-39.5	22.0	0.00e+00	25	27	0	861929472	48	6803
2026-01-15 18:33:45.23	316.28	12.98	-38.7	-39.8	21.7	0.00e+00	92	27	0	864026624	48	7080
2026-01-15 18:33:46.24	316.10	12.94	-38.5	-39.6	21.9	0.00e+00	25	27	0	865075200	48	6855
2026-01-15 18:33:47.25	315.93	12.89	-38.4	-39.5	21.9	0.00e+00	0	27	0	867172352	48	6801
2026-01-15 18:33:48.26	315.75	12.85	-38.5	-39.6	22.0	0.00e+00	56	27	0	869269504	48	6853
2026-01-15 18:33:49.27	315.58	12.80	-38.7	-39.8	21.7	0.00e+00	55	27	0	871366656	48	7040
2026-01-15 18:33:50.28	315.40	12.75	-38.7	-39.8	21.7	0.00e+00	91	27	0	873463808	48	7047
2026-01-15 18:33:51.29	315.23	12.71	-38.9	-40.0	21.5	0.00e+00	0	27	0	874512384	50	6457
2026-01-15 18:33:52.30	315.05	12.66	-39.0	-40.1	21.5	0.00e+00	92	27	0	876609536	50	6506
2026-01-15 18:33:53.31	314.88	12.61	-39.0	-40.2	21.4	0.00e+00	57	27	0	878706688	50	6567
2026-01-15 18:33:54.32	314.71	12.56	-39.1	-40.3	21.3	0.00e+00	56	27	0	880803840	50	6640
2026-01-15 18:33:55.32	314.54	12.52	-39.1	-40.3	21.3	0.00e+00	0	27	0	882900992	50	6640
2026-01-15 18:33:56.34	314.37	12.47	-39.3	-40.5	21.1	0.00e+00	2	27	0	883949568	50	6804
2026-01-15 18:33:57.35	314.20	12.42	-39.4	-40.6	21.0	0.00e+00	0	27	0	886046720	50	6864
2026-01-15 18:33:58.36	314.03	12.37	-39.4	-40.6	20.9	0.00e+00	2	27	0	888143872	50	6891
2026-01-15 18:33:59.37	313.86	12.32	-39.4	-40.6	21.0	0.00e+00	90	27	0	890241024	50	6865
2026-01-15 18:34:00.38	313.69	12.28	-39.3	-40.5	21.1	0.00e+00	0	27	0	892338176	50	6799
2026-01-15 18:34:01.38	313.52	12.23	-39.4	-40.6	20.9	0.00e+00	59	27	0	893386752	50	6868
2026-01-15 18:34:02.40	313.35	12.18	-39.4	-40.5	20.9	0.00e+00	0	27	0	895483904	50	6844
2026-01-15 18:34:03.41	313.19	12.13	-39.3	-40.5	21.1	0.00e+00	0	27	0	897581056	50	6815
2026-01-15 18:34:04.42	313.02	12.08	-39.3	-40.4	21.1	0.00e+00	0	27	0	899678208	50	6756
2026-01-15 18:34:05.43	312.85	12.03	-39.5	-40.7	21.0	0.00e+00	26	27	0	901775360	50	6947
2026-01-15 18:34:06.44	312.69	11.98	-39.6	-40.8	20.8	0.00e+00	90	27	0	902823936	50	7063
2026-01-15 18:34:07.45	312.52	11.93	-39.8	-41.0	20.6	0.00e+00	26	27	0	904921088	52	6455
2026-01-15 18:34:08.46	312.36	11.88	-39.8	-41.0	20.4	0.00e+00	90	27	0	907018240	52	6436
2026-01-15 18:34:09.47	312.20	11.83	-39.9	-41.2	20.4	0.00e+00	56	27	0	909115392	52	6559
2026-01-15 18:34:10.48	312.03	11.78	-40.1	-41.4	20.3	0.00e+00	0	27	0	911212544	52	6710
2026-01-15 18:34:11.49	311.87	11.73	-40.0	-41.3	20.3	0.00e+00	0	27	0	913309696	52	6690
2026-01-15 18:34:12.50	311.71	11.68	-40.0	-41.3	20.3	0.00e+00	2	27	0	914358272	52	6676
2026-01-15 18:34:13.51	311.55	11.63	-40.0	-41.3	20.4	0.00e+00	90	27	0	916455424	52	6630
2026-01-15 18:34:14.52	311.39	11.58	-39.8	-41.1	20.5	0.00e+00	55	27	0	918552576	52	6511
2026-01-15 18:34:15.53	311.23	11.53	-39.9	-41.2	20.3	0.00e+00	90	27	0	920649728	52	6604
2026-01-15 18:34:16.54	311.07	11.48	-39.9	-41.2	20.4	0.00e+00	0	27	0	922746880	52	6560
2026-01-15 18:34:17.55	310.91	11.43	-40.1	-41.4	20.2	0.00e+00	32	27	0	923795456	52	6756
2026-01-15 18:34:18.56	310.75	11.38	-40.0	-41.4	20.2	0.00e+00	0	27	0	925892608	52	6700
2026-01-15 18:34:19.57	310.59	11.33	-39.8	-41.1	20.3	0.00e+00	0	27	0	927989760	52	6522
2026-01-15 18:34:20.57	310.44	11.28	-40.0	-41.3	20.2	0.00e+00	0	27	0	930086912	52	6666
2026-01-15 18:34:21.59	310.28	11.23	-39.8	-41.1	20.5	0.00e+00	2	27	0	932184064	52	6509
2026-01-15 18:34:22.60	310.12	11.18	-39.9	-41.2	20.4	0.00e+00	91	27	0	933232640	52	6605
2026-01-15 18:34:23.61	309.96	11.13	-39.9	-41.2	20.4	0.00e+00	24	27	0	935329792	52	6585
2026-01-15 18:34:24.62	309.81	11.07	-40.0	-41.3	20.2	0.00e+00	91	27	0	937426944	52	6677
2026-01-15 18:34:25.63	309.65	11.02	-40.0	-41.3	20.3	0.00e+00	0	27	0	939524096	52	6630
2026-01-15 18:34:26.64	309.50	10.97	-40.1	-41.4	20.2	0.00e+00	0	27	0	941621248	52	6736
2026-01-15 18:34:27.65	309.35	10.92	-40.1	-41.4	20.2	0.00e+00	0	27	0	942669824	52	6719
2026-01-15 18:34:28.66	309.19	10.87	-40.0	-41.3	20.4	0.00e+00	65	27	0	944766976	52	6652
2026-01-15 18:34:29.67	309.04	10.82	-40.0	-41.3	20.3	4.50e-06	92	27	0	946864128	52	6641
2026-01-15 18:34:30.68	308.89	10.76	-39.9	-41.2	20.4	0.00e+00	65	27	0	948961280	52	6562
2026-01-15 18:34:31.69	308.74	10.71	-39.9	-41.2	20.3	0.00e+00	91	27	0	951058432	52	6611
2026-01-15 18:34:32.70	308.59	10.66	-39.8	-41.1	20.4	0.00e+00	4	27	0	953155584	52	6520
2026-01-15 18:34:33.71	308.44	10.61	-40.0	-41.4	20.1	0.00e+00	6	27	0	954204160	52	6702
2026-01-15 18:34:34.72	308.29	10.56	-40.0	-41.3	20.3	0.00e+00	3	27	0	956301312	52	6670
2026-01-15 18:34:35.73	308.14	10.50	-40.0	-41.3	20.2	0.00e+00	5	27	0	958398464	52	6655
2026-01-15 18:34:36.74	307.99	10.45	-40.0	-41.3	20.2	0.00e+00	90	27	0	960495616	52	6687
2026-01-15 18:34:37.75	307.84	10.40	-40.1	-41.4	20.1	0.00e+00	0	27	0	962592768	52	6736
2026-01-15 18:34:38.76	307.69	10.35	-40.0	-41.3	20.3	0.00e+00	92	27	0	963641344	52	6630
2026-01-15 18:34:39.77	307.55	10.29	-39.9	-41.2	20.3	0.00e+00	0	27	0	965738496	52	6608
2026-01-15 18:34:40.78	307.40	10.24	-39.8	-41.1	20.4	0.00e+00	51	27	0	967835648	52	6521
2026-01-15 18:34:41.79	307.25	10.19	-39.6	-40.9	20.7	0.00e+00	5	27	0	969932800	52	6332
2026-01-15 18:34:42.80	307.11	10.14	-39.7	-40.9	20.6	0.00e+00	24	27	0	972029952	52	6378
2026-01-15 18:34:43.80	306.96	10.08	-39.6	-40.8	20.7	0.00e+00	0	27	0	973078528	52	6286
2026-01-15 18:34:44.81	306.82	10.03	-39.7	-41.0	20.4	0.00e+00	0	27	0	975175680	52	6445
2026-01-15 18:34:45.82	306.68	9.98	-39.6	-40.8	20.7	0.00e+00	92	27	0	977272832	52	6293
2026-01-15 18:34:46.83	306.53	9.92	-39.4	-40.6	20.9	0.00e+00	23	27	0	979369984	52	6161
2026-01-15 18:34:47.84	306.39	9.87	-39.4	-40.6	20.9	0.00e+00	92	27	0	981467136	52	6146
2026-01-15 18:34:48.85	306.25	9.82	-39.2	-40.4	21.0	0.00e+00	24	27	0	982515712	52	6001
2026-01-15 18:34:49.86	306.11	9.76	-39.1	-40.3	21.1	0.00e+00	0	27	0	984612864	52	5950
2026-01-15 18:34:50.87	305.96	9.71	-39.3	-40.5	21.0	0.00e+00	86	27	0	986710016	52	6042
2026-01-15 18:34:51.88	305.82	9.66	-39.2	-40.3	21.2	0.00e+00	62	27	0	988807168	52	5951
2026-01-15 18:34:52.89	305.68	9.60	-39.2	-40.4	21.1	0.00e+00	92	27	0	990904320	52	5976
2026-01-15 18:34:53.90	305.54	9.55	-39.2	-40.4	21.0	0.00e+00	62	27	0	991952896	52	6024
2026-01-15 18:34:54.91	305.40	9.50	-39.1	-40.3	21.2	0.00e+00	90	27	0	994050048	52	5943
2026-01-15 18:34:55.92	305.27	9.44	-39.1	-40.3	21.2	0.00e+00	5	27	0	996147200	52	5929
2026-01-15 18:34:56.93	305.13	9.39	-39.3	-40.5	21.1	0.00e+00	67	27	0	998244352	52	6043
2026-01-15 18:34:57.94	304.99	9.34	-39.2	-40.4	21.1	0.00e+00	5	27	0	1000341504	52	5971
2026-01-15 18:34:58.95	304.85	9.28	-39.1	-40.2	21.2	0.00e+00	4	27	0	1001390080	52	5896
2026-01-15 18:34:59.96	304.72	9.23	-39.0	-40.2	21.3	0.00e+00	89	27	0	1003487232	52	5843
2026-01-15 18:35:00.97	304.58	9.18	-38.8	-39.9	21.5	0.00e+00	0	27	0	1005584384	52	5645
2026-01-15 18:35:01.98	304.45	9.12	-38.7	-39.8	21.6	0.00e+00	91	27	0	1007681536	50	6257
2026-01-15 18:35:02.99	304.31	9.07	-38.5	-39.6	21.8	0.00e+00	5	27	0	1009778688	50	6172
2026-01-15 18:35:04.00	304.18	9.01	-38.5	-39.6	21.7	0.00e+00	19	27	0	1010827264	50	6113
2026-01-15 18:35:05.01	304.04	8.96	-38.5	-39.6	21.7	0.00e+00	23	27	0	1012924416	50	6160
2026-01-15 18:35:06.02	303.91	8.91	-38.5	-39.6	21.7	0.00e+00	23	27	0	1015021568	50	6151
2026-01-15 18:35:07.03	303.78	8.85	-38.5	-39.7	21.6	0.00e+00	26	27	0	1017118720	50	6175
2026-01-15 18:35:08.04	303.64	8.80	-38.6	-39.7	21.6	0.00e+00	23	27	0	1019215872	50	6230
2026-01-15 18:35:09.05	303.51	8.74	-38.5	-39.5	21.7	0.00e+00	92	27	0	1021313024	50	6097
2026-01-15 18:35:10.06	303.38	8.69	-38.5	-39.6	21.6	0.00e+00	23	27	0	1022361600	50	6152
2026-01-15 18:35:11.07	303.25	8.64	-38.2	-39.3	22.0	0.00e+00	90	27	0	1024458752	50	5932
2026-01-15 18:35:12.08	303.12	8.58	-38.2	-39.2	22.1	0.00e+00	57	27	0	1026555904	50	5893
2026-01-15 18:35:13.09	302.99	8.53	-38.2	-39.3	22.0	0.00e+00	0	27	0	1028653056	50	5902
2026-01-15 18:35:14.10	302.86	8.47	-38.1	-39.1	22.1	0.00e+00	69	27	0	1030750208	50	5818
2026-01-15 18:35:15.11	302.73	8.42	-38.2	-39.2	22.1	0.00e+00	57	27	0	1031798784	50	5879
2026-01-15 18:35:16.12	302.60	8.36	-38.1	-39.1	22.1	0.00e+00	92	27	0	1033895936	50	5812
2026-01-15 18:35:17.13	302.47	8.31	-38.0	-39.1	21.8	0.00e+00	2	27	0	1035993088	50	5768
2026-01-15 18:35:18.14	302.34	8.26	-37.9	-39.0	22.2	0.00e+00	92	27	0	1038090240	50	5712
2026-01-15 18:35:19.15	302.22	8.20	-37.9	-38.9	22.3	0.00e+00	2	27	0	1040187392	50	5680
2026-01-15 18:35:20.16	302.09	8.15	-37.9	-38.9	22.3	0.00e+00	2	27	0	1041235968	50	5654
2026-01-15 18:35:21.17	301.97	8.09	-38.0	-39.1	22.0	0.00e+00	0	27	0	1043333120	50	5772
2026-01-15 18:35:22.18	301.84	8.04	-37.9	-38.9	22.0	0.00e+00	0	27	0	1045430272	50	5695
2026-01-15 18:35:23.19	301.71	7.98	-37.9	-38.9	22.3	0.00e+00	84	27	0	1047527424	50	5654
2026-01-15 18:35:24.20	301.59	7.93	-38.2	-39.3	21.9	0.00e+00	23	27	0	1049624576	50	5904
2026-01-15 18:35:25.21	301.47	7.88	-38.0	-39.1	22.1	0.00e+00	91	27	0	1050673152	50	5779
2026-01-15 18:35:26.21	301.34	7.82	-38.3	-39.4	21.7	0.00e+00	17	27	0	1052770304	50	5990
2026-01-15 18:35:27.22	301.22	7.77	-38.4	-39.6	21.8	0.00e+00	81	27	0	1054867456	50	6105
2026-01-15 18:35:28.23	301.10	7.71	-38.7	-39.9	21.2	0.00e+00	0	27	0	1056964608	50	6353
2026-01-15 18:35:29.24	300.97	7.66	-39.0	-40.1	21.1	0.00e+00	16	27	0	1059061760	50	6529
2026-01-15 18:35:30.25	300.85	7.60	-38.2	-39.3	21.9	0.00e+00	0	27	0	1060110336	50	5919
2026-01-15 18:35:31.26	300.73	7.55	-38.0	-39.1	22.1	0.00e+00	0	27	0	1062207488	50	5780
2026-01-15 18:35:32.27	300.61	7.50	-38.2	-39.2	22.0	0.00e+00	92	27	0	1064304640	50	5893
2026-01-15 18:35:33.28	300.49	7.44	-38.3	-39.4	21.9	0.00e+00	64	27	0	1066401792	50	5984
2026-01-15 18:35:34.29	300.37	7.39	-38.2	-39.3	21.9	0.00e+00	46	27	0	1068498944	50	5911
2026-01-15 18:35:35.31	300.25	7.33	-38.1	-39.2	22.0	0.00e+00	2	27	0	1069547520	50	5845
2026-01-15 18:35:36.31	300.13	7.28	-38.0	-39.1	22.1	0.00e+00	60	27	0	1071644672	50	5791
2026-01-15 18:35:37.32	300.01	7.22	-38.1	-39.2	22.0	0.00e+00	0	27	0	1073741824	50	5871
2026-01-15 18:35:38.33	299.89	7.17	-38.1	-39.2	21.9	0.00e+00	59	27	0	1075838976	50	5854
2026-01-15 18:35:39.34	299.78	7.11	-38.1	-39.1	22.0	0.00e+00	92	27	0	1077936128	50	5815
2026-01-15 18:35:40.36	299.66	7.06	-38.2	-39.3	21.8	0.00e+00	2	27	0	1078984704	50	5928
2026-01-15 18:35:41.36	299.54	7.01	-38.4	-39.5	21.7	0.00e+00	92	27	0	1081081856	50	6060
2026-01-15 18:35:42.37	299.43	6.95	-38.3	-39.3	21.7	0.00e+00	0	27	0	1083179008	50	5964
2026-01-15 18:35:43.38	299.31	6.90	-38.3	-39.4	21.7	0.00e+00	0	27	0	1085276160	50	5976
2026-01-15 18:35:44.40	299.19	6.84	-38.5	-39.6	21.5	0.00e+00	0	27	0	1087373312	50	6148
2026-01-15 18:35:45.41	299.08	6.79	-38.4	-39.5	21.7	0.00e+00	22	27	0	1089470464	50	6054
2026-01-15 18:35:46.42	298.96	6.73	-38.4	-39.5	21.6	0.00e+00	92	27	0	1090519040	50	6095
2026-01-15 18:35:47.43	298.85	6.68	-38.5	-39.6	21.5	0.00e+00	0	27	0	1092616192	50	6152
2026-01-15 18:35:48.44	298.74	6.62	-38.5	-39.7	21.4	0.00e+00	92	27	0	1094713344	50	6182
2026-01-15 18:35:49.45	298.62	6.57	-38.7	-39.8	21.3	0.00e+00	60	27	0	1096810496	50	6295
2026-01-15 18:35:50.46	298.51	6.52	-38.5	-39.7	21.4	0.00e+00	24	27	0	1098907648	50	6208
2026-01-15 18:35:51.47	298.40	6.46	-38.7	-39.8	21.2	0.00e+00	24	27	0	1099956224	50	6311
2026-01-15 18:35:52.48	298.28	6.41	-38.5	-39.6	21.4	0.00e+00	58	27	0	1102053376	50	6171
2026-01-15 18:35:53.49	298.17	6.35	-38.3	-39.5	21.6	0.00e+00	2	27	0	1104150528	50	6034
2026-01-15 18:35:54.49	298.06	6.30	-38.4	-39.5	21.6	0.00e+00	2	27	0	1106247680	50	6095
2026-01-15 18:35:55.50	297.95	6.24	-38.5	-39.6	21.5	0.00e+00	90	27	0	1108344832	50	6137
2026-01-15 18:35:56.51	297.84	6.19	-38.4	-39.5	21.5	0.00e+00	0	27	0	1109393408	50	6094
2026-01-15 18:35:57.52	297.73	6.14	-38.4	-39.5	21.5	0.00e+00	92	27	0	1111490560	50	6058
2026-01-15 18:35:58.53	297.62	6.08	-38.3	-39.4	21.7	0.00e+00	64	27	0	1113587712	50	5970
2026-01-15 18:35:59.54	297.51	6.03	-38.3	-39.4	21.6	0.00e+00	0	27	0	1115684864	50	6012
2026-01-15 18:36:00.55	297.41	5.97	-38.5	-39.6	21.5	0.00e+00	0	27	0	1117782016	50	6137
2026-01-15 18:36:01.26	297.33	5.93	-38.5	-39.6	21.4	0.00e+00	0	27	0	1118830592	50	6156
2026-01-15 18:36:02.56	297.19	5.86	-38.6	-39.7	21.3	0.00e+00	72	27	0	1121976320	50	6232
2026-01-15 18:36:03.28	297.11	5.83	-38.7	-39.9	21.2	0.00e+00	0	27	0	1123024896	50	6342
2026-01-15 18:36:04.58	296.98	5.76	-39.1	-40.4	20.7	0.00e+00	21	27	0	1125122048	50	6694
2026-01-15 18:36:05.30	296.90	5.72	-38.9	-40.1	21.0	0.00e+00	0	27	0	1127219200	50	6486
2026-01-15 18:36:06.60	296.76	5.65	-38.9	-40.1	20.9	0.00e+00	0	27	0	1129316352	50	6494
2026-01-15 18:36:07.32	296.69	5.61	-39.0	-40.2	20.8	0.00e+00	0	27	0	1130364928	50	6582
2026-01-15 18:36:08.62	296.55	5.54	-39.1	-40.4	20.6	0.00e+00	7	27	0	1133510656	50	6714
2026-01-15 18:36:09.34	296.48	5.50	-39.0	-40.2	20.8	0.00e+00	77	27	0	1134559232	50	6563
2026-01-15 18:36:10.64	296.34	5.43	-39.1	-40.4	20.6	0.00e+00	65	27	0	1136656384	50	6694
2026-01-15 18:36:11.36	296.27	5.39	-39.3	-40.6	20.4	0.00e+00	56	27	0	1137704960	50	6891
2026-01-15 18:36:12.66	296.13	5.32	-39.4	-40.7	20.3	0.00e+00	0	27	0	1140850688	50	6943
2026-01-15 18:36:13.38	296.06	5.28	-39.4	-40.8	20.3	0.00e+00	21	27	0	1141899264	50	7017
2026-01-15 18:36:14.68	295.93	5.22	-39.2	-40.5	20.5	0.00e+00	91	27	0	1143996416	50	6798
2026-01-15 18:36:15.40	295.85	5.18	-39.2	-40.5	20.4	0.00e+00	61	27	0	1146093568	50	6812
2026-01-15 18:36:16.69	295.72	5.11	-39.4	-40.6	20.3	0.00e+00	92	27	0	1148190720	50	6926
2026-01-15 18:36:17.41	295.65	5.07	-39.5	-40.8	20.2	0.00e+00	62	27	0	1149239296	50	7031
2026-01-15 18:36:18.72	295.52	5.00	-39.4	-40.7	20.2	0.00e+00	21	27	0	1152385024	50	7003
2026-01-15 18:36:19.43	295.45	4.96	-39.5	-40.8	20.2	0.00e+00	0	27	0	1153433600	50	7023
2026-01-15 18:36:20.73	295.32	4.89	-39.7	-41.1	19.8	0.00e+00	4	27	0	1155530752	50	7273
2026-01-15 18:36:21.45	295.25	4.85	-39.7	-41.0	20.0	0.00e+00	1	27	0	1157627904	52	6452
2026-01-15 18:36:22.75	295.12	4.78	-39.4	-40.7	20.2	0.00e+00	61	27	0	1159725056	52	6197
2026-01-15 18:36:23.47	295.05	4.75	-39.7	-41.0	19.9	0.00e+00	6	27	0	1160773632	52	6458
2026-01-15 18:36:24.77	294.92	4.68	-39.4	-40.8	20.1	0.00e+00	60	27	0	1162870784	52	6247
2026-01-15 18:36:25.49	294.85	4.64	-39.7	-41.0	19.8	0.00e+00	92	27	0	1164967936	52	6453
2026-01-15 18:36:26.79	294.72	4.57	-40.0	-41.4	19.5	0.00e+00	65	27	0	1167065088	52	6758
2026-01-15 18:36:27.50	294.65	4.53	-39.9	-41.4	19.5	0.00e+00	12	27	0	1168113664	52	6700
2026-01-15 18:36:28.80	294.53	4.46	-40.2	-41.7	19.3	0.00e+00	0	27	0	1171259392	52	6944
2026-01-15 18:36:29.52	294.46	4.42	-40.2	-41.7	19.2	0.00e+00	5	27	0	1172307968	52	6970
2026-01-15 18:36:30.82	294.33	4.36	-40.2	-41.7	19.1	0.00e+00	91	27	0	1174405120	52	6995
2026-01-15 18:36:31.54	294.26	4.32	-40.2	-41.7	19.2	0.00e+00	68	27	0	1176502272	52	6949
2026-01-15 18:36:32.84	294.14	4.25	-40.2	-41.8	19.1	0.00e+00	92	27	0	1178599424	52	7014
2026-01-15 18:36:33.56	294.07	4.21	-40.3	-41.9	19.2	0.00e+00	0	27	0	1179648000	52	7117
2026-01-15 18:36:34.86	293.95	4.14	-40.2	-41.7	19.0	0.00e+00	0	27	0	1181745152	52	7001
2026-01-15 18:36:35.58	293.88	4.10	-40.3	-41.9	18.9	0.00e+00	16	27	0	1183842304	52	7102
2026-01-15 18:36:36.88	293.76	4.03	-40.4	-41.9	18.9	0.00e+00	0	27	0	1185939456	52	7158
2026-01-15 18:36:37.60	293.69	4.00	-40.4	-42.0	18.9	0.00e+00	66	27	0	1186988032	52	7180
2026-01-15 18:36:38.90	293.57	3.93	-40.3	-41.9	18.9	0.00e+00	0	27	0	1190133760	52	7132
2026-01-15 18:36:39.62	293.50	3.89	-40.4	-42.0	18.8	0.00e+00	2	27	0	1191182336	52	7182
2026-01-15 18:36:40.92	293.38	3.82	-40.4	-42.0	18.7	0.00e+00	19	27	0	1193279488	52	7197
2026-01-15 18:36:41.64	293.32	3.78	-40.5	-42.1	18.8	0.00e+00	91	27	0	1195376640	52	7276
2026-01-15 18:36:42.94	293.20	3.71	-40.5	-42.2	18.6	0.00e+00	0	27	0	1197473792	52	7361
