passes_logs/2026/01/15/R4.6S_Anadyr/R4.6S_Anadyr__20260115_170731_AQUA_rec.log

#Pass ID: 20260115_170731_AQUA
#Satellite: AQUA
#Configuration: AQUA
#almurnet v.1.7.20251203
#Start time: 2026-01-15 17:07:33

#Version: 2.2.20231116
#Station: R4.6S_Anadyr
#Location: 177.4865 lon 64.73178 lat
#TLE: 1 27424U 02022A   26014.61231444  .00000653  00000+0  14070-3 0  9991
#TLE: 2 27424  98.4080 341.0332 0002042  78.9336 335.9961 14.61820174260839

#Time	Az	El	Level	Level2	SNR	BER	BlckErr	Temp	State	Recorded	gain1	gain2
2026-01-15 17:07:33.51	20.79	0.10	-48.0	-62.9	3.6	1.51e+00	0	25	0	0	60	50438
2026-01-15 17:07:34.52	20.77	0.16	-48.5	-66.4	3.5	3.02e+01	0	26	104	0	60	80362
2026-01-15 17:07:35.53	20.75	0.22	-48.4	-66.4	3.5	3.02e+01	0	26	104	0	60	80586
2026-01-15 17:07:36.54	20.73	0.28	-48.5	-66.4	3.5	3.02e+01	0	26	104	0	60	80650
2026-01-15 17:07:37.55	20.71	0.35	-48.5	-66.5	3.5	3.02e+01	0	26	104	0	60	81072
2026-01-15 17:07:38.56	20.68	0.41	-48.6	-66.5	3.5	3.02e+01	0	26	104	0	60	81094
2026-01-15 17:07:39.57	20.66	0.47	-48.6	-66.5	3.5	3.02e+01	0	26	104	0	60	81191
2026-01-15 17:07:40.58	20.64	0.53	-48.6	-66.5	3.5	3.02e+01	0	26	104	0	60	81164
2026-01-15 17:07:41.59	20.62	0.59	-48.4	-66.4	3.5	3.02e+01	0	26	104	0	60	80344
2026-01-15 17:07:42.60	20.60	0.66	-48.4	-66.3	3.5	3.02e+01	0	26	104	0	60	79799
2026-01-15 17:07:43.61	20.58	0.72	-48.4	-66.3	3.5	3.02e+01	0	26	104	0	60	79621
2026-01-15 17:07:44.62	20.56	0.78	-48.2	-66.1	3.5	3.02e+01	0	26	104	0	60	77747
2026-01-15 17:07:45.63	20.54	0.85	-48.0	-65.9	3.5	3.02e+01	0	26	104	0	60	76110
2026-01-15 17:07:46.64	20.51	0.91	-47.8	-65.7	3.5	3.02e+01	0	26	104	0	60	74437
2026-01-15 17:07:47.65	20.49	0.97	-47.6	-65.5	3.5	3.02e+01	0	26	104	0	60	72694
2026-01-15 17:07:48.66	20.47	1.04	-47.4	-65.2	3.5	3.02e+01	0	26	104	0	60	69938
2026-01-15 17:07:49.67	20.45	1.10	-47.0	-64.9	3.5	3.02e+01	0	26	104	0	60	67558
2026-01-15 17:07:50.68	20.42	1.16	-47.0	-64.8	3.5	3.02e+01	0	26	104	0	60	67174
2026-01-15 17:07:51.69	20.40	1.23	-47.0	-64.9	3.5	3.02e+01	0	26	104	0	60	67292
2026-01-15 17:07:52.70	20.38	1.29	-47.0	-64.6	3.5	3.02e+01	0	26	104	0	60	65706
2026-01-15 17:07:53.71	20.36	1.36	-47.0	-64.7	3.5	3.02e+01	0	26	104	0	60	66185
2026-01-15 17:07:54.72	20.33	1.42	-47.0	-64.8	3.5	3.02e+01	0	26	104	0	60	66728
2026-01-15 17:07:55.73	20.31	1.49	-47.0	-64.7	3.5	3.02e+01	0	26	104	0	60	66190
2026-01-15 17:07:56.74	20.29	1.55	-47.0	-64.7	3.5	3.02e+01	0	26	104	0	60	66407
2026-01-15 17:07:57.75	20.27	1.62	-47.0	-64.8	3.5	3.02e+01	0	26	104	0	60	66498
2026-01-15 17:07:58.76	20.24	1.68	-47.0	-64.7	3.5	3.02e+01	0	26	104	0	60	66101
2026-01-15 17:07:59.77	20.22	1.75	-47.0	-64.3	3.5	3.02e+01	0	26	104	0	60	63378
2026-01-15 17:08:00.78	20.19	1.81	-47.0	-63.9	3.5	3.02e+01	0	26	104	0	60	60505
2026-01-15 17:08:01.79	20.17	1.88	-47.0	-63.5	3.5	3.02e+01	0	26	104	0	60	57794
2026-01-15 17:08:02.80	20.15	1.94	-46.9	-63.5	3.5	3.02e+01	0	27	104	0	60	57858
2026-01-15 17:08:03.81	20.12	2.01	-46.9	-63.5	3.5	3.02e+01	0	27	104	0	60	57493
2026-01-15 17:08:04.82	20.10	2.07	-47.0	-63.7	3.5	3.02e+01	0	27	104	0	60	58700
2026-01-15 17:08:05.82	20.07	2.14	-47.0	-64.2	3.5	3.02e+01	0	27	104	0	60	62482
2026-01-15 17:08:06.84	20.05	2.21	-47.0	-64.5	3.5	3.02e+01	0	27	104	0	60	64938
2026-01-15 17:08:07.85	20.03	2.27	-47.0	-64.8	3.5	3.02e+01	0	27	104	0	60	66730
2026-01-15 17:08:08.86	20.00	2.34	-47.0	-64.8	3.5	3.02e+01	0	27	104	0	60	66833
2026-01-15 17:08:09.86	19.98	2.41	-47.0	-64.5	3.5	3.02e+01	0	27	104	0	60	64422
2026-01-15 17:08:10.87	19.95	2.47	-47.0	-64.2	3.5	3.02e+01	0	26	104	0	60	62178
2026-01-15 17:08:11.88	19.93	2.54	-46.9	-63.6	3.5	3.02e+01	0	27	104	0	60	58115
2026-01-15 17:08:12.89	19.90	2.61	-46.9	-62.9	3.6	3.02e+01	0	27	104	0	60	53662
2026-01-15 17:08:13.90	19.88	2.68	-46.9	-61.9	3.6	3.02e+01	0	27	104	0	60	48069
2026-01-15 17:08:14.91	19.85	2.74	-46.8	-60.9	4.4	3.02e+01	0	27	104	0	60	42497
2026-01-15 17:08:15.92	19.82	2.81	-46.8	-60.1	4.7	3.02e+01	0	27	104	0	60	39113
2026-01-15 17:08:16.93	19.80	2.88	-46.8	-60.7	4.5	3.02e+01	0	27	104	0	60	41687
2026-01-15 17:08:17.94	19.77	2.95	-46.9	-61.5	4.1	3.02e+01	0	27	104	0	60	45965
2026-01-15 17:08:18.95	19.75	3.02	-46.9	-62.5	3.6	3.02e+01	0	27	104	0	60	51083
2026-01-15 17:08:19.96	19.72	3.08	-46.9	-61.9	4.0	3.02e+01	0	27	104	0	60	47674
2026-01-15 17:08:20.97	19.69	3.15	-46.6	-57.5	6.3	3.02e+01	66	27	0	0	60	28994
2026-01-15 17:08:21.98	19.67	3.22	-46.0	-53.0	11.1	3.02e+01	59	27	0	2097152	60	17266
2026-01-15 17:08:22.99	19.64	3.29	-45.1	-50.3	14.1	3.02e+01	57	27	0	4194304	60	12638
2026-01-15 17:08:24.00	19.61	3.36	-44.1	-48.0	16.5	3.02e+01	62	27	0	5767168	60	9674
2026-01-15 17:08:25.01	19.59	3.43	-43.0	-46.2	18.3	3.02e+01	47	27	0	7864320	60	7842
2026-01-15 17:08:26.02	19.56	3.50	-42.1	-44.8	19.8	3.02e+01	58	27	0	9437184	60	6687
2026-01-15 17:08:27.03	19.53	3.57	-41.6	-44.1	20.2	3.02e+01	57	27	0	11534336	58	6938
2026-01-15 17:08:28.04	19.50	3.64	-41.3	-43.7	20.7	3.02e+01	46	27	0	13631488	58	6596
2026-01-15 17:08:29.05	19.47	3.71	-41.3	-43.7	20.6	3.02e+01	61	27	0	15204352	58	6615
2026-01-15 17:08:30.06	19.45	3.78	-41.7	-44.2	20.1	3.02e+01	63	27	0	17301504	58	7010
2026-01-15 17:08:31.07	19.42	3.85	-42.5	-45.4	18.9	3.02e+01	59	27	0	19398656	58	8071
2026-01-15 17:08:32.08	19.39	3.92	-47.0	-62.4	3.7	3.02e+01	0	27	104	20447232	60	50672
2026-01-15 17:08:33.09	19.36	3.99	-44.2	-48.1	17.3	3.02e+01	51	27	0	20971520	60	9825
2026-01-15 17:08:34.10	19.33	4.06	-46.7	-59.3	3.8	3.02e+01	0	27	104	22020096	60	35407
2026-01-15 17:08:35.11	19.30	4.14	-36.8	-38.2	26.2	3.02e+01	59	27	0	22020096	48	6233
2026-01-15 17:08:36.12	19.28	4.21	-46.8	-60.4	4.8	3.02e+01	0	27	104	23592960	60	40268
2026-01-15 17:08:37.13	19.25	4.28	-36.9	-38.3	26.0	3.02e+01	62	27	0	24117248	48	6341
2026-01-15 17:08:38.14	19.22	4.35	-36.8	-38.2	26.0	3.02e+01	45	27	0	25690112	48	6236
2026-01-15 17:08:39.15	19.19	4.42	-36.7	-38.2	26.2	3.02e+01	59	27	0	27787264	48	6208
2026-01-15 17:08:40.16	19.16	4.50	-36.6	-38.0	26.2	3.02e+01	60	27	0	29884416	48	6125
2026-01-15 17:08:41.17	19.13	4.57	-36.4	-37.8	26.5	3.02e+01	47	27	0	31457280	48	5958
2026-01-15 17:08:42.18	19.10	4.64	-36.4	-37.8	26.5	3.02e+01	61	27	0	33554432	48	5984
2026-01-15 17:08:43.18	19.07	4.72	-36.4	-37.8	26.5	3.02e+01	61	27	0	35127296	48	5965
2026-01-15 17:08:44.19	19.04	4.79	-36.2	-37.6	26.7	3.02e+01	58	27	0	37224448	48	5828
2026-01-15 17:08:45.20	19.01	4.86	-36.3	-37.7	26.7	3.02e+01	64	27	0	39321600	48	5866
2026-01-15 17:08:46.21	18.97	4.94	-36.2	-37.6	26.7	3.02e+01	48	27	0	40894464	48	5830
2026-01-15 17:08:47.22	18.94	5.01	-36.4	-37.8	26.6	3.02e+01	61	27	0	42991616	48	5934
2026-01-15 17:08:48.23	18.91	5.08	-36.4	-37.8	26.7	3.02e+01	58	27	0	45088768	48	5948
2026-01-15 17:08:49.24	18.88	5.16	-36.2	-37.6	26.7	3.02e+01	46	27	0	46661632	48	5820
2026-01-15 17:08:50.25	18.85	5.23	-36.3	-37.7	26.7	3.02e+01	59	27	0	48758784	48	5859
2026-01-15 17:08:51.26	18.82	5.31	-36.4	-37.8	26.7	3.02e+01	58	27	0	50331648	48	5937
2026-01-15 17:08:52.27	18.79	5.38	-36.2	-37.6	26.8	3.02e+01	59	27	0	52428800	48	5832
2026-01-15 17:08:53.28	18.75	5.46	-36.1	-37.5	26.8	3.02e+01	58	27	0	54525952	48	5731
2026-01-15 17:08:54.29	18.72	5.53	-36.3	-37.6	26.7	3.02e+01	59	27	0	56098816	48	5848
2026-01-15 17:08:55.30	18.69	5.61	-35.9	-37.3	27.1	3.02e+01	60	27	0	58195968	48	5601
2026-01-15 17:08:56.31	18.65	5.69	-36.1	-37.5	27.0	3.02e+01	59	27	0	59768832	46	6464
2026-01-15 17:08:57.32	18.62	5.76	-36.1	-37.4	27.0	3.02e+01	48	27	0	61865984	46	6400
2026-01-15 17:08:58.32	18.59	5.84	-36.0	-37.3	27.1	3.02e+01	62	27	0	63963136	46	6347
2026-01-15 17:08:59.33	18.56	5.92	-35.8	-37.1	27.2	3.02e+01	63	27	0	65536000	46	6194
2026-01-15 17:09:00.34	18.52	5.99	-35.9	-37.2	27.2	3.02e+01	58	27	0	67633152	46	6249
2026-01-15 17:09:01.35	18.49	6.07	-35.8	-37.2	27.3	3.02e+01	59	27	0	69206016	46	6228
2026-01-15 17:09:02.36	18.45	6.15	-35.7	-37.0	27.4	3.02e+01	53	27	0	71303168	46	6112
2026-01-15 17:09:03.37	18.42	6.22	-35.7	-37.0	27.5	3.02e+01	60	27	0	73400320	46	6116
2026-01-15 17:09:04.37	18.38	6.30	-35.7	-37.1	27.4	3.02e+01	57	27	0	74973184	46	6161
2026-01-15 17:09:05.38	18.35	6.38	-35.7	-37.0	27.4	3.02e+01	46	27	0	77070336	46	6134
2026-01-15 17:09:06.39	18.31	6.46	-35.8	-37.1	27.4	3.02e+01	61	27	0	78643200	46	6171
2026-01-15 17:09:07.40	18.28	6.54	-35.7	-37.1	27.4	3.02e+01	60	27	0	80740352	46	6152
2026-01-15 17:09:08.41	18.24	6.62	-35.7	-37.0	27.6	3.02e+01	57	27	0	82837504	46	6104
2026-01-15 17:09:09.42	18.21	6.70	-35.8	-37.2	27.4	3.02e+01	61	27	0	84410368	46	6223
2026-01-15 17:09:10.43	18.17	6.78	-35.7	-37.0	27.5	3.02e+01	61	27	0	86507520	46	6095
2026-01-15 17:09:11.44	18.13	6.86	-35.6	-36.9	27.6	3.02e+01	60	27	0	88604672	46	6000
2026-01-15 17:09:12.44	18.10	6.93	-35.6	-36.9	27.6	3.02e+01	63	27	0	90177536	46	6035
2026-01-15 17:09:13.45	18.06	7.01	-35.6	-36.9	27.7	3.02e+01	50	27	0	92274688	46	6009
2026-01-15 17:09:14.47	18.02	7.10	-35.8	-37.1	27.5	3.02e+01	59	27	0	93847552	46	6171
2026-01-15 17:09:15.47	17.99	7.18	-35.7	-37.0	27.6	3.02e+01	46	27	0	95944704	46	6115
2026-01-15 17:09:16.48	17.95	7.26	-35.6	-36.9	27.5	3.02e+01	62	27	0	98041856	46	6053
2026-01-15 17:09:17.49	17.91	7.34	-35.8	-37.1	27.5	3.02e+01	62	27	0	99614720	46	6201
2026-01-15 17:09:18.50	17.87	7.42	-36.0	-37.3	27.3	3.02e+01	47	27	0	101711872	46	6327
2026-01-15 17:09:19.50	17.84	7.50	-35.8	-37.2	27.4	3.02e+01	59	27	0	103284736	46	6214
2026-01-15 17:09:20.51	17.80	7.58	-35.7	-37.1	27.5	3.02e+01	57	27	0	105381888	46	6146
2026-01-15 17:09:21.52	17.76	7.67	-35.6	-37.0	27.5	3.02e+01	59	27	0	106954752	46	6067
2026-01-15 17:09:22.53	17.72	7.75	-35.7	-37.0	27.6	3.02e+01	58	27	0	109051904	46	6114
2026-01-15 17:09:23.54	17.68	7.83	-35.4	-36.7	27.9	3.02e+01	53	27	0	111149056	46	5891
2026-01-15 17:09:24.55	17.64	7.92	-35.4	-36.7	27.9	3.02e+01	63	27	0	112721920	46	5914
2026-01-15 17:09:25.56	17.60	8.00	-35.4	-36.7	27.9	3.02e+01	57	27	0	114819072	46	5912
2026-01-15 17:09:26.57	17.56	8.08	-34.9	-36.6	27.9	3.02e+01	46	27	0	116916224	46	5826
2026-01-15 17:09:27.58	17.52	8.17	-34.0	-36.6	27.9	3.02e+01	58	27	0	118489088	42	7372
2026-01-15 17:09:28.59	17.48	8.25	-34.3	-36.7	27.9	3.02e+01	58	27	0	120586240	42	7403
2026-01-15 17:09:29.60	17.44	8.34	-34.5	-36.8	27.8	3.02e+01	59	27	0	122159104	42	7471
2026-01-15 17:09:30.61	17.40	8.42	-35.1	-36.6	28.0	3.02e+01	60	27	0	124256256	44	6504
2026-01-15 17:09:31.62	17.36	8.51	-35.4	-36.7	27.9	3.02e+01	57	27	0	126353408	44	6622
2026-01-15 17:09:32.63	17.31	8.59	-35.4	-36.7	27.9	3.02e+01	57	27	0	127926272	44	6592
2026-01-15 17:09:33.64	17.27	8.68	-35.1	-36.4	28.1	3.02e+01	57	27	0	130023424	44	6418
2026-01-15 17:09:34.65	17.23	8.77	-35.2	-36.5	28.1	3.02e+01	51	27	0	131596288	44	6469
2026-01-15 17:09:35.66	17.19	8.85	-35.1	-36.4	28.2	3.02e+01	59	27	0	133693440	44	6398
2026-01-15 17:09:36.67	17.14	8.94	-35.2	-36.5	28.2	3.02e+01	58	27	0	135790592	44	6438
2026-01-15 17:09:37.68	17.10	9.03	-35.1	-36.3	28.3	3.02e+01	61	27	0	137363456	44	6343
2026-01-15 17:09:38.69	17.06	9.12	-35.1	-36.4	28.3	3.02e+01	59	27	0	139460608	44	6355
2026-01-15 17:09:39.70	17.01	9.20	-35.1	-36.4	28.2	3.02e+01	45	27	0	141557760	44	6366
2026-01-15 17:09:40.70	16.97	9.29	-35.1	-36.4	28.3	3.02e+01	61	27	0	143130624	44	6374
2026-01-15 17:09:41.71	16.92	9.38	-35.0	-36.2	28.4	3.02e+01	57	27	0	145227776	44	6258
2026-01-15 17:09:42.72	16.88	9.47	-35.0	-36.3	28.4	3.02e+01	44	27	0	146800640	44	6288
2026-01-15 17:09:43.73	16.83	9.56	-35.0	-36.2	28.4	3.02e+01	58	27	0	148897792	44	6261
2026-01-15 17:09:44.74	16.79	9.65	-34.9	-36.2	28.4	3.02e+01	54	27	0	150994944	44	6238
2026-01-15 17:09:45.75	16.74	9.74	-35.1	-36.3	28.3	3.02e+01	58	27	0	152567808	44	6332
2026-01-15 17:09:46.75	16.70	9.83	-34.8	-36.0	28.5	3.02e+01	61	27	0	154664960	44	6124
2026-01-15 17:09:47.76	16.65	9.92	-34.9	-36.2	28.5	3.02e+01	50	27	0	156237824	44	6230
2026-01-15 17:09:48.77	16.60	10.01	-34.8	-36.0	28.6	3.02e+01	64	27	0	158334976	44	6115
2026-01-15 17:09:49.78	16.55	10.10	-34.8	-36.0	28.6	3.02e+01	59	27	0	160432128	44	6115
2026-01-15 17:09:50.79	16.51	10.19	-34.8	-36.1	28.5	3.02e+01	53	27	0	162004992	44	6171
2026-01-15 17:09:51.80	16.46	10.29	-34.9	-36.1	28.6	3.02e+01	60	27	0	164102144	44	6185
2026-01-15 17:09:52.81	16.41	10.38	-35.0	-36.2	28.5	3.02e+01	44	27	0	165675008	44	6257
2026-01-15 17:09:53.82	16.36	10.47	-34.6	-35.9	28.7	3.02e+01	55	27	0	167772160	44	6013
2026-01-15 17:09:54.83	16.31	10.56	-34.6	-35.9	28.7	3.02e+01	59	27	0	169869312	44	6003
2026-01-15 17:09:55.84	16.26	10.66	-34.7	-35.9	28.7	3.02e+01	47	27	0	171442176	44	6039
2026-01-15 17:09:56.85	16.21	10.75	-34.6	-35.9	28.8	3.02e+01	50	27	0	173539328	44	6016
2026-01-15 17:09:57.86	16.16	10.85	-34.6	-35.9	28.8	3.02e+01	59	27	0	175112192	44	6008
2026-01-15 17:09:58.87	16.11	10.94	-34.6	-35.8	28.8	3.02e+01	59	27	0	177209344	44	5960
2026-01-15 17:09:59.88	16.06	11.04	-34.7	-35.9	28.8	3.02e+01	52	27	0	179306496	44	6046
2026-01-15 17:10:00.89	16.01	11.13	-34.5	-35.7	29.0	3.02e+01	46	27	0	180879360	44	5900
2026-01-15 17:10:01.90	15.96	11.23	-34.5	-35.8	28.9	3.02e+01	59	27	0	182976512	44	5931
2026-01-15 17:10:02.91	15.91	11.33	-34.5	-35.7	29.0	3.02e+01	60	27	0	185073664	44	5904
2026-01-15 17:10:03.92	15.85	11.42	-34.3	-35.5	29.1	3.02e+01	46	27	0	186646528	44	5765
2026-01-15 17:10:04.93	15.80	11.52	-34.3	-35.5	29.1	3.02e+01	58	27	0	188743680	44	5780
2026-01-15 17:10:05.94	15.75	11.62	-34.4	-35.6	29.0	3.02e+01	56	27	0	190316544	44	5836
2026-01-15 17:10:06.95	15.69	11.71	-34.1	-35.4	29.3	3.02e+01	60	27	0	192413696	44	5662
2026-01-15 17:10:07.96	15.64	11.81	-34.1	-35.3	29.2	3.02e+01	56	27	0	194510848	44	5656
2026-01-15 17:10:08.97	15.58	11.91	-34.2	-35.5	29.2	3.02e+01	54	27	0	196083712	44	5726
2026-01-15 17:10:09.98	15.53	12.01	-34.2	-35.4	29.3	3.02e+01	62	27	0	198180864	44	5695
2026-01-15 17:10:10.98	15.47	12.11	-34.4	-35.7	29.0	3.02e+01	59	27	0	199753728	44	5883
2026-01-15 17:10:11.99	15.42	12.21	-34.2	-35.4	29.2	3.02e+01	53	27	0	201850880	44	5696
2026-01-15 17:10:13.00	15.36	12.31	-34.3	-35.5	29.2	3.02e+01	59	27	0	203948032	44	5787
2026-01-15 17:10:14.01	15.30	12.41	-34.0	-35.2	29.4	3.02e+01	61	27	0	205520896	44	5560
2026-01-15 17:10:15.02	15.25	12.51	-34.1	-35.3	29.3	3.02e+01	61	27	0	207618048	44	5618
2026-01-15 17:10:16.03	15.19	12.62	-34.2	-35.4	29.2	3.02e+01	53	27	0	209715200	44	5695
2026-01-15 17:10:17.04	15.13	12.72	-34.1	-35.3	29.4	3.02e+01	57	27	0	211288064	44	5605
2026-01-15 17:10:18.05	15.07	12.82	-34.1	-35.4	29.3	3.02e+01	57	27	0	213385216	44	5660
2026-01-15 17:10:19.06	15.01	12.92	-34.1	-35.3	29.4	3.02e+01	52	27	0	214958080	44	5624
2026-01-15 17:10:20.06	14.95	13.03	-34.0	-35.2	29.5	3.02e+01	46	27	0	217055232	44	5548
2026-01-15 17:10:21.07	14.89	13.13	-34.0	-35.2	29.5	3.02e+01	58	27	0	218628096	42	6269
2026-01-15 17:10:22.08	14.83	13.23	-34.1	-35.3	29.4	3.02e+01	51	27	0	220725248	42	6333
2026-01-15 17:10:23.09	14.77	13.34	-34.2	-35.4	29.3	3.02e+01	61	27	0	222822400	42	6376
2026-01-15 17:10:24.10	14.71	13.45	-34.0	-35.2	29.5	3.02e+01	58	27	0	224395264	42	6257
2026-01-15 17:10:25.11	14.65	13.55	-33.9	-35.1	29.5	3.02e+01	58	27	0	226492416	42	6204
2026-01-15 17:10:26.12	14.59	13.66	-33.9	-35.1	29.5	3.02e+01	57	27	0	228065280	42	6184
2026-01-15 17:10:27.13	14.52	13.76	-34.1	-35.3	29.5	3.02e+01	57	27	0	230162432	42	6300
2026-01-15 17:10:28.14	14.46	13.87	-34.0	-35.2	29.4	3.02e+01	57	27	0	232259584	42	6263
2026-01-15 17:10:29.15	14.40	13.98	-34.1	-35.3	29.5	3.02e+01	61	27	0	233832448	42	6294
2026-01-15 17:10:30.16	14.33	14.09	-34.0	-35.2	29.5	3.02e+01	47	27	0	235929600	42	6235
2026-01-15 17:10:31.17	14.27	14.20	-34.2	-35.4	29.4	3.02e+01	58	27	0	238026752	42	6399
2026-01-15 17:10:32.17	14.20	14.31	-34.1	-35.3	29.5	3.02e+01	61	27	0	239599616	42	6287
2026-01-15 17:10:33.19	14.13	14.42	-34.1	-35.3	29.4	3.02e+01	47	27	0	241696768	42	6328
2026-01-15 17:10:34.19	14.07	14.53	-34.1	-35.3	29.4	3.02e+01	57	27	0	243269632	42	6346
2026-01-15 17:10:35.20	14.00	14.64	-34.2	-35.4	29.4	3.02e+01	60	27	0	245366784	42	6383
2026-01-15 17:10:36.21	13.93	14.75	-34.1	-35.3	29.5	3.02e+01	59	27	0	247463936	42	6338
2026-01-15 17:10:37.22	13.86	14.86	-34.2	-35.5	29.4	3.02e+01	59	27	0	249036800	42	6428
2026-01-15 17:10:38.23	13.79	14.97	-34.2	-35.4	29.4	3.02e+01	56	27	0	251133952	42	6393
2026-01-15 17:10:39.24	13.73	15.09	-34.1	-35.3	29.4	3.02e+01	58	27	0	253231104	42	6349
2026-01-15 17:10:40.25	13.65	15.20	-34.2	-35.4	29.4	3.02e+01	60	27	0	254803968	42	6372
2026-01-15 17:10:41.26	13.58	15.31	-34.1	-35.3	29.5	3.02e+01	51	27	0	256901120	42	6315
2026-01-15 17:10:42.27	13.51	15.43	-34.1	-35.3	29.5	3.02e+01	60	27	0	258473984	42	6340
2026-01-15 17:10:43.28	13.44	15.55	-34.0	-35.2	29.6	3.02e+01	57	27	0	260571136	42	6256
2026-01-15 17:10:44.29	13.37	15.66	-34.1	-35.3	29.5	3.02e+01	61	27	0	262668288	42	6286
2026-01-15 17:10:45.30	13.29	15.78	-33.8	-35.0	29.7	3.02e+01	59	27	0	264241152	42	6122
2026-01-15 17:10:46.31	13.22	15.89	-33.9	-35.1	29.6	3.02e+01	58	27	0	266338304	42	6178
2026-01-15 17:10:47.32	13.14	16.01	-33.8	-35.0	29.8	3.02e+01	57	27	0	267911168	42	6066
2026-01-15 17:10:48.33	13.07	16.13	-33.8	-35.0	29.8	3.02e+01	57	27	0	270008320	42	6126
2026-01-15 17:10:49.33	12.99	16.25	-33.9	-35.1	29.7	3.02e+01	50	27	0	272105472	42	6193
2026-01-15 17:10:50.34	12.92	16.37	-33.8	-35.0	29.7	3.02e+01	59	27	0	273678336	42	6108
2026-01-15 17:10:51.35	12.84	16.49	-33.7	-34.9	29.8	3.02e+01	59	27	0	275775488	42	6049
2026-01-15 17:10:52.36	12.76	16.61	-33.9	-35.0	29.8	3.02e+01	61	27	0	277348352	42	6123
2026-01-15 17:10:53.37	12.68	16.73	-33.9	-35.1	29.7	3.02e+01	62	27	0	279445504	42	6152
2026-01-15 17:10:54.38	12.60	16.85	-33.7	-34.9	29.9	3.02e+01	58	27	0	281542656	42	6029
2026-01-15 17:10:55.39	12.52	16.97	-33.9	-35.1	29.8	3.02e+01	60	27	0	283115520	42	6147
2026-01-15 17:10:56.40	12.44	17.10	-33.8	-35.0	29.8	3.02e+01	58	27	0	285212672	42	6106
2026-01-15 17:10:57.41	12.36	17.22	-33.9	-35.1	29.7	3.02e+01	48	27	0	286785536	42	6146
2026-01-15 17:10:58.42	12.28	17.34	-33.7	-34.9	29.9	3.02e+01	59	27	0	288882688	42	6047
2026-01-15 17:10:59.43	12.19	17.47	-33.9	-35.1	29.8	3.02e+01	46	27	0	290979840	42	6167
2026-01-15 17:11:00.44	12.11	17.59	-34.0	-35.2	29.6	3.02e+01	54	27	0	292552704	42	6212
2026-01-15 17:11:01.45	12.03	17.72	-33.9	-35.1	29.8	3.02e+01	60	27	0	294649856	42	6135
2026-01-15 17:11:02.46	11.94	17.85	-34.0	-35.2	29.7	3.02e+01	58	27	0	296747008	42	6229
2026-01-15 17:11:03.47	11.85	17.97	-33.9	-35.1	29.7	3.02e+01	59	27	0	298319872	42	6182
2026-01-15 17:11:04.48	11.77	18.10	-34.1	-35.3	29.6	3.02e+01	62	27	0	300417024	42	6279
2026-01-15 17:11:05.49	11.68	18.23	-34.1	-35.3	29.6	3.02e+01	57	27	0	301989888	42	6300
2026-01-15 17:11:06.49	11.59	18.36	-34.1	-35.3	29.6	3.02e+01	61	27	0	304087040	42	6334
2026-01-15 17:11:07.50	11.50	18.49	-34.2	-35.4	29.5	3.02e+01	49	27	0	306184192	42	6377
2026-01-15 17:11:08.51	11.41	18.62	-34.1	-35.3	29.5	3.02e+01	63	27	0	307757056	42	6348
2026-01-15 17:11:09.52	11.32	18.75	-34.3	-35.5	29.4	3.02e+01	57	27	0	309854208	42	6434
2026-01-15 17:11:10.53	11.23	18.88	-34.4	-35.6	29.3	3.02e+01	48	27	0	311427072	42	6534
2026-01-15 17:11:11.54	11.13	19.02	-34.2	-35.4	29.5	3.02e+01	62	27	0	313524224	42	6405
2026-01-15 17:11:12.55	11.04	19.15	-34.4	-35.6	29.3	3.02e+01	59	27	0	315621376	42	6551
2026-01-15 17:11:13.56	10.94	19.29	-34.4	-35.6	29.4	3.02e+01	58	27	0	317194240	42	6510
2026-01-15 17:11:14.57	10.85	19.42	-34.1	-35.3	29.6	3.02e+01	56	27	0	319291392	42	6317
2026-01-15 17:11:15.58	10.75	19.56	-34.3	-35.5	29.4	3.02e+01	53	27	0	321388544	42	6428
2026-01-15 17:11:16.59	10.65	19.69	-34.1	-35.3	29.7	3.02e+01	59	27	0	322961408	42	6290
2026-01-15 17:11:17.60	10.56	19.83	-34.2	-35.4	29.6	3.02e+01	57	27	0	325058560	42	6366
2026-01-15 17:11:18.61	10.46	19.97	-34.0	-35.2	29.8	3.02e+01	53	27	0	326631424	42	6228
2026-01-15 17:11:19.62	10.36	20.11	-33.9	-35.1	29.8	3.02e+01	53	27	0	328728576	42	6190
2026-01-15 17:11:20.63	10.25	20.25	-34.0	-35.2	29.8	3.02e+01	60	27	0	330825728	42	6211
2026-01-15 17:11:21.64	10.15	20.39	-34.0	-35.2	29.7	3.02e+01	60	27	0	332398592	42	6223
2026-01-15 17:11:22.65	10.05	20.53	-34.1	-35.3	29.7	3.02e+01	59	27	0	334495744	42	6303
2026-01-15 17:11:23.66	9.94	20.67	-34.1	-35.3	29.7	3.02e+01	47	27	0	336068608	42	6309
2026-01-15 17:11:24.67	9.84	20.81	-34.2	-35.4	29.6	3.02e+01	58	27	0	338165760	42	6368
2026-01-15 17:11:25.68	9.73	20.96	-34.3	-35.5	29.5	3.02e+01	58	27	0	340262912	42	6444
2026-01-15 17:11:26.69	9.62	21.10	-34.3	-35.5	29.5	3.02e+01	46	27	0	341835776	42	6442
2026-01-15 17:11:27.70	9.51	21.24	-34.4	-35.6	29.4	3.02e+01	56	27	0	343932928	42	6527
2026-01-15 17:11:28.71	9.40	21.39	-34.3	-35.5	29.5	3.02e+01	59	27	0	345505792	42	6475
2026-01-15 17:11:29.71	9.29	21.54	-34.5	-35.7	29.4	3.02e+01	59	27	0	347602944	42	6584
2026-01-15 17:11:30.72	9.18	21.68	-34.4	-35.6	29.3	3.02e+01	57	27	0	349700096	42	6568
2026-01-15 17:11:31.73	9.07	21.83	-34.3	-35.5	29.5	3.02e+01	50	27	0	351272960	42	6454
2026-01-15 17:11:32.74	8.95	21.98	-34.4	-35.6	29.4	3.02e+01	56	27	0	353370112	42	6545
2026-01-15 17:11:33.75	8.83	22.13	-34.2	-35.4	29.6	3.02e+01	63	27	0	354942976	42	6413
2026-01-15 17:11:34.75	8.72	22.28	-34.2	-35.4	29.6	3.02e+01	45	27	0	357040128	42	6370
2026-01-15 17:11:35.76	8.60	22.43	-34.3	-35.5	29.5	3.02e+01	59	27	0	359137280	42	6498
2026-01-15 17:11:36.77	8.48	22.58	-34.2	-35.4	29.6	3.02e+01	44	27	0	360710144	42	6410
2026-01-15 17:11:37.78	8.36	22.74	-34.3	-35.6	29.4	3.02e+01	57	27	0	362807296	42	6500
2026-01-15 17:11:38.79	8.24	22.89	-34.3	-35.5	29.5	3.02e+01	61	27	0	364904448	42	6487
2026-01-15 17:11:39.80	8.11	23.05	-34.4	-35.7	29.4	3.02e+01	57	27	0	366477312	42	6578
2026-01-15 17:11:40.81	7.99	23.20	-34.5	-35.7	29.3	3.02e+01	65	27	0	368574464	42	6617
2026-01-15 17:11:41.82	7.86	23.36	-34.6	-35.8	29.3	3.02e+01	58	27	0	370147328	42	6681
2026-01-15 17:11:42.83	7.73	23.52	-34.7	-35.9	29.3	3.02e+01	60	27	0	372244480	42	6729
2026-01-15 17:11:43.84	7.60	23.67	-34.7	-35.9	29.2	3.02e+01	58	27	0	374341632	42	6791
2026-01-15 17:11:44.85	7.47	23.83	-34.7	-35.9	29.2	3.02e+01	44	27	0	375914496	42	6748
2026-01-15 17:11:45.86	7.34	23.99	-34.9	-36.1	29.2	3.02e+01	56	27	0	378011648	42	6925
2026-01-15 17:11:46.86	7.21	24.15	-34.8	-36.0	29.1	3.02e+01	58	27	0	379584512	42	6867
2026-01-15 17:11:47.87	7.07	24.32	-34.6	-35.8	29.3	3.02e+01	50	27	0	381681664	42	6673
2026-01-15 17:11:48.88	6.94	24.48	-34.5	-35.7	29.3	3.02e+01	61	27	0	383778816	42	6627
2026-01-15 17:11:49.89	6.80	24.64	-34.4	-35.6	29.5	3.02e+01	59	27	0	385351680	42	6501
2026-01-15 17:11:50.90	6.66	24.81	-34.4	-35.6	29.4	3.02e+01	60	27	0	387448832	42	6569
2026-01-15 17:11:51.91	6.52	24.97	-34.3	-35.5	29.5	3.02e+01	60	27	0	389021696	42	6493
2026-01-15 17:11:52.92	6.38	25.14	-34.4	-35.6	29.5	3.02e+01	58	27	0	391118848	42	6554
2026-01-15 17:11:53.93	6.23	25.31	-34.5	-35.7	29.4	3.02e+01	58	27	0	393216000	42	6637
2026-01-15 17:11:54.94	6.09	25.48	-34.7	-35.9	29.2	3.02e+01	62	27	0	394788864	42	6760
2026-01-15 17:11:55.94	5.94	25.65	-34.7	-35.9	29.3	3.02e+01	51	27	0	396886016	42	6773
2026-01-15 17:11:56.95	5.79	25.82	-34.9	-36.1	29.1	3.02e+01	60	27	0	398458880	42	6904
2026-01-15 17:11:57.96	5.64	25.99	-34.7	-35.9	29.2	3.02e+01	60	27	0	400556032	42	6803
2026-01-15 17:11:58.97	5.49	26.16	-34.6	-35.8	29.3	3.02e+01	56	27	0	402653184	42	6710
2026-01-15 17:11:59.98	5.33	26.33	-34.2	-35.4	29.6	3.02e+01	57	27	0	404226048	42	6385
2026-01-15 17:12:00.99	5.18	26.51	-34.3	-35.4	29.6	3.02e+01	51	27	0	406323200	42	6417
2026-01-15 17:12:02.00	5.02	26.69	-34.2	-35.4	29.6	3.02e+01	58	27	0	407896064	42	6374
2026-01-15 17:12:03.01	4.86	26.86	-34.1	-35.3	29.7	3.02e+01	60	27	0	409993216	42	6335
2026-01-15 17:12:04.02	4.70	27.04	-34.6	-35.8	29.4	3.02e+01	51	27	0	412090368	42	6684
2026-01-15 17:12:05.03	4.53	27.22	-34.5	-35.7	29.4	3.02e+01	59	27	0	413663232	42	6598
2026-01-15 17:12:06.04	4.37	27.40	-34.4	-35.6	29.5	3.02e+01	62	27	0	415760384	42	6521
2026-01-15 17:12:07.05	4.20	27.58	-34.1	-35.3	29.8	3.02e+01	59	27	0	417857536	42	6332
2026-01-15 17:12:08.06	4.03	27.76	-34.0	-35.2	29.9	3.02e+01	57	27	0	419430400	42	6243
2026-01-15 17:12:09.07	3.86	27.94	-34.1	-35.3	29.7	3.02e+01	56	27	0	421527552	42	6343
2026-01-15 17:12:10.08	3.68	28.13	-33.9	-35.0	30.0	3.02e+01	59	27	0	423100416	42	6120
2026-01-15 17:12:11.09	3.51	28.31	-34.1	-35.2	29.8	3.02e+01	59	27	0	425197568	42	6276
2026-01-15 17:12:12.09	3.33	28.50	-34.1	-35.2	29.8	3.02e+01	44	27	0	427294720	42	6272
2026-01-15 17:12:13.10	3.15	28.68	-34.2	-35.4	29.7	3.02e+01	57	27	0	428867584	42	6351
2026-01-15 17:12:14.11	2.97	28.87	-34.1	-35.3	29.7	3.02e+01	52	27	0	430964736	42	6337
2026-01-15 17:12:15.12	2.78	29.06	-33.9	-35.1	30.0	3.02e+01	59	27	0	432537600	42	6137
2026-01-15 17:12:16.13	2.59	29.25	-33.7	-34.9	30.1	3.02e+01	60	27	0	434634752	42	6029
2026-01-15 17:12:17.14	2.40	29.44	-33.7	-34.9	30.1	3.02e+01	48	27	0	436731904	42	6006
2026-01-15 17:12:18.15	2.21	29.63	-33.8	-35.0	30.0	3.02e+01	59	27	0	438304768	42	6107
2026-01-15 17:12:19.16	2.02	29.82	-33.7	-34.9	30.1	3.02e+01	56	27	0	440401920	42	6005
2026-01-15 17:12:20.17	1.82	30.02	-33.8	-35.0	30.0	3.02e+01	55	27	0	441974784	42	6103
2026-01-15 17:12:21.18	1.62	30.21	-33.7	-34.9	30.1	3.02e+01	61	27	0	444071936	42	6025
2026-01-15 17:12:22.19	1.42	30.41	-33.7	-34.9	30.1	3.02e+01	48	27	0	446169088	42	6045
2026-01-15 17:12:23.19	1.22	30.61	-33.6	-34.8	30.2	3.02e+01	60	27	0	447741952	42	5932
2026-01-15 17:12:24.20	1.01	30.80	-33.7	-34.9	30.1	3.02e+01	59	27	0	449839104	42	6027
2026-01-15 17:12:25.22	0.80	31.00	-33.9	-35.0	30.0	3.02e+01	47	27	0	451411968	42	6130
2026-01-15 17:12:26.23	0.58	31.20	-33.7	-34.9	30.2	3.02e+01	60	27	0	453509120	42	6004
2026-01-15 17:12:27.23	0.37	31.40	-33.8	-35.0	30.2	3.02e+01	58	27	0	455606272	42	6076
2026-01-15 17:12:28.24	0.15	31.61	-34.1	-35.3	29.8	3.02e+01	63	27	0	457179136	42	6291
2026-01-15 17:12:29.25	359.93	31.81	-33.8	-35.0	30.0	3.02e+01	60	27	0	459276288	42	6072
2026-01-15 17:12:30.26	359.71	32.01	-34.0	-35.2	29.9	3.02e+01	64	27	0	461373440	42	6223
2026-01-15 17:12:31.27	359.48	32.22	-33.9	-35.1	29.9	3.02e+01	61	27	0	462946304	42	6158
2026-01-15 17:12:32.28	359.25	32.43	-33.6	-34.8	30.2	3.02e+01	59	27	0	465043456	42	5969
2026-01-15 17:12:33.29	359.02	32.63	-33.5	-34.7	30.3	3.02e+01	50	27	0	466616320	42	5884
2026-01-15 17:12:34.30	358.78	32.84	-33.6	-34.8	30.2	3.02e+01	63	27	0	468713472	42	5952
2026-01-15 17:12:35.31	358.54	33.05	-33.8	-35.0	30.1	3.02e+01	58	27	0	470810624	42	6104
2026-01-15 17:12:36.32	358.30	33.26	-34.2	-35.4	29.7	3.02e+01	61	27	0	472383488	42	6367
2026-01-15 17:12:37.33	358.05	33.47	-34.4	-35.6	29.5	3.02e+01	60	27	0	474480640	42	6535
2026-01-15 17:12:38.34	357.80	33.69	-34.6	-35.8	29.4	3.02e+01	51	27	0	476053504	42	6669
2026-01-15 17:12:39.35	357.55	33.90	-34.2	-35.4	29.8	3.02e+01	62	27	0	478150656	42	6360
2026-01-15 17:12:40.35	357.29	34.11	-34.1	-35.3	29.7	3.02e+01	58	27	0	480247808	42	6335
2026-01-15 17:12:41.36	357.03	34.33	-34.1	-35.2	29.8	3.02e+01	50	27	0	481820672	42	6276
2026-01-15 17:12:42.37	356.77	34.54	-34.3	-35.5	29.6	3.02e+01	60	27	0	483917824	42	6433
2026-01-15 17:12:43.38	356.50	34.76	-34.5	-35.7	29.5	3.02e+01	60	27	0	486014976	42	6617
2026-01-15 17:12:44.39	356.23	34.98	-34.6	-35.8	29.4	3.02e+01	57	27	0	487587840	42	6669
2026-01-15 17:12:45.40	355.96	35.20	-34.8	-36.1	29.2	3.02e+01	59	27	0	489684992	42	6896
2026-01-15 17:12:46.41	355.68	35.42	-34.7	-35.9	29.3	3.02e+01	53	27	0	491257856	42	6757
2026-01-15 17:12:47.42	355.40	35.64	-34.9	-36.1	29.1	3.02e+01	59	27	0	493355008	42	6919
2026-01-15 17:12:48.43	355.11	35.86	-34.8	-36.1	29.1	3.02e+01	59	27	0	495452160	42	6886
2026-01-15 17:12:49.44	354.82	36.08	-35.0	-36.2	29.0	3.02e+01	47	27	0	497025024	44	6228
2026-01-15 17:12:50.45	354.53	36.30	-35.2	-36.4	28.9	3.02e+01	57	27	0	499122176	44	6412
2026-01-15 17:12:51.46	354.23	36.53	-35.4	-36.7	28.6	3.02e+01	46	27	0	500695040	44	6595
2026-01-15 17:12:52.47	353.92	36.75	-35.4	-36.6	28.7	3.02e+01	60	27	0	502792192	44	6538
2026-01-15 17:12:53.48	353.62	36.98	-35.4	-36.6	28.7	3.02e+01	61	27	0	504889344	44	6547
2026-01-15 17:12:54.49	353.30	37.20	-35.3	-36.5	28.7	3.02e+01	52	27	0	506462208	44	6468
2026-01-15 17:12:55.50	352.99	37.43	-35.6	-36.8	28.5	3.02e+01	58	27	0	508559360	44	6704
2026-01-15 17:12:56.51	352.67	37.66	-36.0	-37.3	28.1	3.02e+01	57	27	0	510132224	44	7097
2026-01-15 17:12:57.51	352.34	37.88	-36.0	-37.3	28.1	3.02e+01	60	27	0	512229376	46	6303
2026-01-15 17:12:58.52	352.01	38.11	-35.8	-37.1	28.3	3.02e+01	62	27	0	514326528	46	6161
2026-01-15 17:12:59.53	351.68	38.34	-35.6	-36.9	28.5	3.02e+01	52	27	0	515899392	46	6024
2026-01-15 17:13:00.54	351.34	38.57	-35.7	-37.0	28.4	3.02e+01	58	27	0	517996544	46	6082
2026-01-15 17:13:01.55	350.99	38.80	-35.8	-37.0	28.4	3.02e+01	60	27	0	519569408	46	6123
2026-01-15 17:13:02.56	350.64	39.03	-35.9	-37.2	28.2	3.02e+01	45	27	0	521666560	46	6220
2026-01-15 17:13:03.57	350.29	39.26	-36.2	-37.5	27.9	3.02e+01	61	27	0	523763712	46	6468
2026-01-15 17:13:04.58	349.93	39.49	-36.0	-37.3	28.1	3.02e+01	59	27	0	525336576	46	6337
2026-01-15 17:13:05.59	349.56	39.72	-35.9	-37.1	28.3	3.02e+01	58	27	0	527433728	46	6192
2026-01-15 17:13:06.60	349.19	39.95	-36.1	-37.4	28.0	3.02e+01	59	27	0	529006592	46	6391
2026-01-15 17:13:07.61	348.81	40.19	-36.2	-37.5	28.1	3.02e+01	58	27	0	531103744	46	6471
2026-01-15 17:13:08.62	348.43	40.42	-36.1	-37.4	28.0	3.02e+01	56	27	0	533200896	46	6403
2026-01-15 17:13:09.63	348.04	40.65	-36.3	-37.6	27.9	3.02e+01	56	27	0	534773760	46	6511
2026-01-15 17:13:10.64	347.65	40.88	-36.1	-37.4	28.1	3.02e+01	46	27	0	536870912	46	6392
2026-01-15 17:13:11.65	347.25	41.12	-35.7	-37.0	28.4	3.02e+01	61	27	0	538968064	46	6067
2026-01-15 17:13:12.65	346.85	41.35	-35.7	-37.0	28.4	3.02e+01	58	27	0	540540928	46	6103
2026-01-15 17:13:13.66	346.44	41.58	-35.7	-36.9	28.5	3.02e+01	60	27	0	542638080	46	6043
2026-01-15 17:13:14.67	346.02	41.81	-35.7	-37.0	28.4	3.02e+01	58	27	0	544210944	46	6111
2026-01-15 17:13:15.68	345.59	42.04	-35.7	-37.0	28.4	3.02e+01	52	27	0	546308096	46	6072
2026-01-15 17:13:16.69	345.16	42.27	-35.6	-36.8	28.5	3.02e+01	58	27	0	548405248	46	5978
2026-01-15 17:13:17.71	344.72	42.51	-35.5	-36.7	28.6	3.02e+01	59	27	0	549978112	46	5912
2026-01-15 17:13:18.71	344.28	42.74	-35.4	-36.6	28.7	3.02e+01	44	27	0	552075264	46	5829
2026-01-15 17:13:19.72	343.83	42.97	-35.4	-36.7	28.7	3.02e+01	59	27	0	553648128	46	5870
2026-01-15 17:13:20.73	343.38	43.20	-35.8	-37.0	28.4	3.02e+01	53	27	0	555745280	46	6119
2026-01-15 17:13:21.74	342.92	43.43	-35.8	-37.0	28.4	3.02e+01	58	27	0	557842432	46	6118
2026-01-15 17:13:22.75	342.45	43.66	-35.5	-36.7	28.5	3.02e+01	63	27	0	559415296	46	5922
2026-01-15 17:13:23.76	341.97	43.89	-35.2	-36.5	28.8	3.02e+01	50	27	0	561512448	46	5728
2026-01-15 17:13:24.77	341.48	44.11	-35.1	-36.3	29.0	3.02e+01	59	27	0	563085312	46	5635
2026-01-15 17:13:25.78	340.99	44.34	-35.3	-36.6	28.7	3.02e+01	62	27	0	565182464	46	5824
2026-01-15 17:13:26.79	340.50	44.57	-35.3	-36.6	28.7	3.02e+01	54	27	0	567279616	46	5814
2026-01-15 17:13:27.79	339.99	44.79	-35.3	-36.6	28.8	3.02e+01	64	27	0	568852480	46	5792
2026-01-15 17:13:28.80	339.48	45.01	-35.2	-36.5	28.8	3.02e+01	58	27	0	570949632	46	5747
2026-01-15 17:13:29.81	338.96	45.23	-35.1	-36.3	28.9	3.02e+01	58	27	0	572522496	46	5647
2026-01-15 17:13:30.82	338.43	45.45	-35.5	-36.7	28.6	3.02e+01	59	27	0	574619648	46	5904
2026-01-15 17:13:31.83	337.90	45.67	-35.3	-36.6	28.7	3.02e+01	51	27	0	576716800	46	5810
2026-01-15 17:13:32.84	337.36	45.89	-35.4	-36.6	28.6	3.02e+01	61	27	0	578289664	46	5837
2026-01-15 17:13:33.85	336.81	46.11	-35.5	-36.7	28.5	3.02e+01	57	27	0	580386816	46	5895
2026-01-15 17:13:34.86	336.25	46.32	-35.6	-36.9	28.4	3.02e+01	59	27	0	582483968	46	6039
2026-01-15 17:13:35.87	335.68	46.54	-35.4	-36.7	28.6	3.02e+01	60	27	0	584056832	46	5861
2026-01-15 17:13:36.88	335.11	46.75	-35.4	-36.7	28.6	3.02e+01	58	27	0	586153984	46	5867
2026-01-15 17:13:37.89	334.53	46.95	-35.7	-37.0	28.4	3.02e+01	57	27	0	587726848	46	6084
2026-01-15 17:13:38.90	333.94	47.16	-35.5	-36.7	28.6	3.02e+01	58	27	0	589824000	46	5888
2026-01-15 17:13:39.90	333.35	47.36	-35.5	-36.7	28.6	3.02e+01	39	27	0	591921152	46	5903
2026-01-15 17:13:40.91	332.74	47.57	-35.6	-36.8	28.5	3.02e+01	61	27	0	593494016	46	5968
2026-01-15 17:13:41.93	332.12	47.77	-35.4	-36.7	28.6	3.02e+01	62	27	0	595591168	46	5875
2026-01-15 17:13:42.94	331.50	47.96	-35.5	-36.8	28.5	3.02e+01	59	27	0	597164032	46	5937
2026-01-15 17:13:43.94	330.88	48.16	-35.4	-36.7	28.6	3.02e+01	63	27	0	599261184	46	5878
2026-01-15 17:13:44.95	330.24	48.35	-35.4	-36.7	28.6	3.02e+01	61	27	0	601358336	46	5876
2026-01-15 17:13:45.96	329.59	48.53	-35.6	-36.8	28.5	3.02e+01	61	27	0	602931200	46	5978
2026-01-15 17:13:46.97	328.94	48.72	-35.5	-36.7	28.6	3.02e+01	61	27	0	605028352	46	5916
2026-01-15 17:13:47.98	328.28	48.90	-35.4	-36.6	28.6	3.02e+01	49	27	0	607125504	46	5849
2026-01-15 17:13:48.99	327.61	49.08	-35.9	-37.2	27.9	3.02e+01	59	27	0	608698368	46	6229
2026-01-15 17:13:50.00	326.93	49.25	-35.4	-36.7	28.7	3.02e+01	59	27	0	610795520	46	5883
2026-01-15 17:13:51.01	326.24	49.43	-35.3	-36.6	28.7	3.02e+01	57	27	0	612368384	46	5794
2026-01-15 17:13:52.02	325.55	49.59	-35.4	-36.7	28.6	3.02e+01	61	27	0	614465536	46	5893
2026-01-15 17:13:53.03	324.85	49.76	-35.1	-36.4	28.8	3.02e+01	59	27	0	616562688	46	5664
2026-01-15 17:13:54.04	324.14	49.92	-35.1	-36.4	28.9	3.02e+01	60	27	0	618135552	44	6351
2026-01-15 17:13:55.05	323.43	50.07	-35.6	-36.8	28.5	3.02e+01	58	27	0	620232704	44	6713
2026-01-15 17:13:56.05	322.71	50.22	-35.2	-36.4	28.8	3.02e+01	45	27	0	621805568	44	6418
2026-01-15 17:13:57.07	321.97	50.37	-35.4	-36.7	28.6	3.02e+01	59	27	0	623902720	44	6593
2026-01-15 17:13:58.07	321.24	50.51	-35.8	-37.0	28.2	3.02e+01	50	27	0	625999872	44	6873
2026-01-15 17:13:59.08	320.50	50.65	-35.3	-36.6	28.7	3.02e+01	59	27	0	627572736	44	6499
2026-01-15 17:14:00.09	319.75	50.78	-34.6	-35.8	29.4	3.02e+01	58	27	0	629669888	44	5976
2026-01-15 17:14:01.11	318.98	50.91	-34.8	-36.1	29.0	3.02e+01	50	27	0	631242752	44	6144
2026-01-15 17:14:02.11	318.22	51.04	-35.0	-36.2	29.0	3.02e+01	51	27	0	633339904	44	6273
2026-01-15 17:14:03.12	317.45	51.15	-35.0	-36.2	29.1	3.02e+01	59	27	0	635437056	44	6245
2026-01-15 17:14:04.13	316.68	51.27	-34.7	-35.9	29.3	3.02e+01	58	27	0	637009920	44	6029
2026-01-15 17:14:05.14	315.89	51.38	-34.8	-36.1	29.1	3.02e+01	60	27	0	639107072	44	6146
2026-01-15 17:14:06.15	315.11	51.48	-35.1	-36.4	28.9	3.02e+01	46	27	0	640679936	44	6379
2026-01-15 17:14:07.16	314.31	51.58	-34.9	-36.2	29.0	3.02e+01	60	27	0	642777088	44	6236
2026-01-15 17:14:08.17	313.51	51.67	-34.5	-35.7	29.4	3.02e+01	58	27	0	644874240	44	5923
2026-01-15 17:14:09.18	312.71	51.75	-34.4	-35.6	29.5	3.02e+01	44	27	0	646447104	44	5818
2026-01-15 17:14:10.19	311.90	51.84	-34.6	-35.8	29.3	3.02e+01	59	27	0	648544256	44	5986
2026-01-15 17:14:11.20	311.09	51.91	-35.0	-36.2	29.0	3.02e+01	60	27	0	650641408	44	6246
2026-01-15 17:14:12.20	310.28	51.98	-34.2	-35.4	29.6	3.02e+01	58	27	0	652214272	44	5675
2026-01-15 17:14:13.22	309.45	52.04	-34.9	-36.1	29.1	3.02e+01	57	27	0	654311424	44	6172
2026-01-15 17:14:14.23	308.63	52.10	-34.7	-35.9	29.3	3.02e+01	50	27	0	655884288	44	6034
2026-01-15 17:14:15.24	307.80	52.15	-34.1	-35.3	29.8	3.02e+01	57	27	0	657981440	44	5622
2026-01-15 17:14:16.25	306.97	52.19	-34.5	-35.7	29.4	3.02e+01	60	27	0	660078592	44	5868
2026-01-15 17:14:17.25	306.15	52.23	-34.5	-35.7	29.3	3.02e+01	44	27	0	661651456	44	5917
2026-01-15 17:14:18.27	305.30	52.27	-34.9	-36.2	28.9	3.02e+01	57	27	0	663748608	44	6244
2026-01-15 17:14:19.27	304.48	52.29	-35.3	-36.6	28.7	3.02e+01	56	27	0	665321472	44	6543
2026-01-15 17:14:20.28	303.64	52.31	-35.5	-36.8	28.7	3.02e+01	58	27	0	667418624	44	6679
2026-01-15 17:14:21.29	302.80	52.32	-35.1	-36.3	28.9	3.02e+01	59	27	0	669515776	44	6348
2026-01-15 17:14:22.30	301.96	52.33	-35.4	-36.6	28.6	3.02e+01	62	27	0	671088640	44	6525
2026-01-15 17:14:23.31	301.12	52.33	-35.0	-36.2	28.9	3.02e+01	59	27	0	673185792	46	5553
2026-01-15 17:14:24.32	300.28	52.33	-35.5	-36.7	28.4	3.02e+01	53	27	0	674758656	44	6624
2026-01-15 17:14:25.32	299.45	52.32	-35.7	-37.0	28.2	3.02e+01	47	27	0	676855808	44	6841
2026-01-15 17:14:26.33	298.62	52.30	-34.7	-35.9	29.1	3.02e+01	57	27	0	678952960	44	6025
2026-01-15 17:14:27.34	297.78	52.27	-33.8	-34.9	30.0	3.02e+01	61	27	0	680525824	42	6056
2026-01-15 17:14:28.35	296.95	52.24	-34.2	-35.4	29.6	3.02e+01	61	27	0	682622976	42	6375
2026-01-15 17:14:29.36	296.11	52.21	-34.5	-35.8	29.1	3.02e+01	64	27	0	684195840	42	6667
2026-01-15 17:14:30.37	295.28	52.17	-34.7	-36.0	29.1	3.02e+01	50	27	0	686292992	42	6824
2026-01-15 17:14:31.38	294.45	52.12	-34.0	-35.2	29.8	3.02e+01	58	27	0	688390144	42	6215
2026-01-15 17:14:32.39	293.63	52.06	-34.3	-35.4	29.3	3.02e+01	58	27	0	689963008	44	5719
2026-01-15 17:14:33.40	292.81	52.00	-34.7	-35.9	28.0	3.02e+01	47	27	0	692060160	44	6051
2026-01-15 17:14:34.41	291.99	51.93	-35.8	-37.2	28.0	3.02e+01	62	27	0	693633024	44	6993
2026-01-15 17:14:35.41	291.18	51.86	-36.0	-37.4	26.5	3.02e+01	61	27	0	695730176	46	6362
2026-01-15 17:14:36.43	290.36	51.78	-35.2	-36.4	28.4	3.02e+01	60	27	0	697827328	46	5678
2026-01-15 17:14:37.44	289.56	51.70	-34.6	-35.7	28.9	3.02e+01	57	27	0	699400192	44	5879
2026-01-15 17:14:38.45	288.75	51.61	-35.6	-36.8	26.5	3.02e+01	50	27	0	701497344	46	5989
2026-01-15 17:14:39.46	287.96	51.51	-37.2	-38.6	25.5	3.02e+01	58	27	0	703594496	48	6567
2026-01-15 17:14:40.47	287.17	51.41	-37.0	-38.5	26.5	3.02e+01	54	27	0	705167360	46	7279
2026-01-15 17:14:41.47	286.39	51.31	-37.2	-38.7	26.6	3.02e+01	62	27	0	707264512	46	7412
2026-01-15 17:14:42.48	285.61	51.19	-36.7	-38.2	27.0	3.02e+01	61	27	0	708837376	46	6999
2026-01-15 17:14:43.50	284.83	51.08	-37.0	-38.5	26.3	3.02e+01	43	27	0	710934528	48	6431
2026-01-15 17:14:44.50	284.07	50.95	-35.2	-36.5	26.7	3.02e+01	60	27	0	713031680	46	5756
2026-01-15 17:14:45.51	283.31	50.83	-35.2	-36.4	28.4	3.02e+01	59	27	0	714604544	44	6400
2026-01-15 17:14:46.52	282.55	50.70	-35.5	-36.7	28.4	3.02e+01	47	27	0	716701696	46	5899
2026-01-15 17:14:47.54	281.80	50.56	-35.2	-36.4	28.7	3.02e+01	58	27	0	718798848	46	5699
2026-01-15 17:14:48.54	281.06	50.42	-34.7	-35.9	28.7	3.02e+01	56	27	0	720371712	44	6052
2026-01-15 17:14:49.55	280.33	50.27	-34.5	-35.7	28.9	3.02e+01	58	27	0	722468864	44	5894
2026-01-15 17:14:50.56	279.60	50.12	-35.7	-37.0	28.0	3.02e+01	59	27	0	724041728	46	6076
2026-01-15 17:14:51.57	278.88	49.97	-35.3	-36.6	28.3	3.02e+01	47	27	0	726138880	44	6527
2026-01-15 17:14:52.58	278.17	49.81	-34.6	-35.9	29.1	3.02e+01	58	27	0	728236032	42	6739
2026-01-15 17:14:53.58	277.48	49.65	-35.0	-36.3	28.8	3.02e+01	59	27	0	729808896	42	7085
2026-01-15 17:14:54.59	276.78	49.48	-35.0	-36.3	29.0	3.02e+01	44	27	0	731906048	44	6279
2026-01-15 17:14:55.60	276.09	49.31	-34.4	-35.6	29.5	3.02e+01	60	27	0	733478912	44	5808
2026-01-15 17:14:56.61	275.41	49.14	-34.5	-35.7	29.4	3.02e+01	61	27	0	735576064	44	5907
2026-01-15 17:14:57.62	274.74	48.96	-34.3	-35.5	29.6	3.02e+01	59	27	0	737148928	44	5727
2026-01-15 17:14:58.63	274.07	48.78	-34.5	-35.7	29.5	3.02e+01	59	27	0	739246080	44	5905
2026-01-15 17:14:59.64	273.41	48.59	-34.2	-35.3	29.8	3.02e+01	57	27	0	741343232	44	5659
2026-01-15 17:15:00.65	272.76	48.41	-34.1	-35.3	29.8	3.02e+01	58	27	0	742916096	44	5611
2026-01-15 17:15:01.65	272.13	48.22	-34.6	-35.8	29.4	3.02e+01	59	27	0	745013248	42	6707
2026-01-15 17:15:02.66	271.50	48.02	-34.3	-35.5	29.7	3.02e+01	51	27	0	747110400	42	6444
2026-01-15 17:15:03.67	270.87	47.83	-33.8	-35.0	29.9	3.02e+01	55	27	0	748683264	42	6091
2026-01-15 17:15:04.68	270.25	47.63	-34.1	-35.2	29.7	3.02e+01	57	27	0	750780416	42	6256
2026-01-15 17:15:05.69	269.64	47.43	-34.6	-35.9	29.3	3.02e+01	59	27	0	752353280	42	6750
2026-01-15 17:15:06.70	269.04	47.22	-34.4	-35.6	29.6	3.02e+01	59	27	0	754450432	42	6552
2026-01-15 17:15:07.71	268.45	47.02	-34.2	-35.4	29.6	3.02e+01	52	27	0	756547584	42	6387
2026-01-15 17:15:08.72	267.86	46.81	-34.8	-36.0	29.2	3.02e+01	58	27	0	758120448	42	6867
2026-01-15 17:15:09.73	267.29	46.60	-34.8	-36.0	29.2	3.02e+01	63	27	0	760217600	42	6818
2026-01-15 17:15:10.74	266.72	46.39	-34.9	-36.1	29.1	3.02e+01	53	27	0	761790464	44	6178
2026-01-15 17:15:11.74	266.16	46.17	-35.1	-36.3	28.9	3.02e+01	62	27	0	763887616	44	6304
2026-01-15 17:15:12.75	265.61	45.96	-34.8	-36.1	29.2	3.02e+01	58	27	0	765984768	44	6153
2026-01-15 17:15:13.76	265.06	45.74	-34.1	-35.3	29.8	3.02e+01	59	27	0	767557632	44	5601
2026-01-15 17:15:14.77	264.52	45.52	-34.6	-35.8	29.4	3.02e+01	58	27	0	769654784	44	5958
2026-01-15 17:15:15.78	263.99	45.30	-34.3	-35.5	29.5	3.02e+01	50	27	0	771751936	44	5758
2026-01-15 17:15:16.79	263.46	45.08	-34.9	-36.2	29.1	3.02e+01	60	27	0	773324800	44	6213
2026-01-15 17:15:17.80	262.95	44.85	-34.7	-35.9	29.4	3.02e+01	60	27	0	775421952	44	6007
2026-01-15 17:15:18.81	262.44	44.63	-34.1	-35.3	29.7	3.02e+01	61	27	0	776994816	44	5642
2026-01-15 17:15:19.82	261.94	44.40	-34.2	-35.3	29.7	3.02e+01	57	27	0	779091968	44	5656
2026-01-15 17:15:20.83	261.44	44.18	-34.2	-35.4	29.7	3.02e+01	44	27	0	781189120	44	5683
2026-01-15 17:15:21.84	260.96	43.95	-34.2	-35.4	29.7	3.02e+01	56	27	0	782761984	44	5705
2026-01-15 17:15:22.84	260.48	43.72	-34.2	-35.4	29.5	3.02e+01	58	27	0	784859136	44	5711
2026-01-15 17:15:23.85	260.01	43.49	-34.2	-35.3	29.7	3.02e+01	49	27	0	786432000	44	5653
2026-01-15 17:15:24.86	259.54	43.26	-34.5	-35.7	29.4	3.02e+01	54	27	0	788529152	44	5902
2026-01-15 17:15:25.87	259.08	43.03	-34.8	-36.0	29.3	3.02e+01	56	27	0	790102016	44	6097
2026-01-15 17:15:26.88	258.63	42.80	-34.7	-35.9	29.2	3.02e+01	58	27	0	792199168	44	6059
2026-01-15 17:15:27.89	258.18	42.57	-34.5	-35.7	29.5	3.02e+01	60	27	0	794296320	44	5867
2026-01-15 17:15:28.90	257.74	42.33	-35.0	-36.2	29.0	3.02e+01	58	27	0	795869184	44	6276
2026-01-15 17:15:29.91	257.31	42.10	-34.7	-35.9	29.2	3.02e+01	59	27	0	797966336	44	6023
2026-01-15 17:15:30.92	256.88	41.87	-34.8	-36.0	29.2	3.02e+01	58	27	0	800063488	44	6073
2026-01-15 17:15:31.92	256.46	41.64	-35.2	-36.4	28.8	3.02e+01	47	27	0	801636352	44	6394
2026-01-15 17:15:32.93	256.05	41.40	-35.5	-36.8	28.6	3.02e+01	61	27	0	803733504	44	6651
2026-01-15 17:15:33.94	255.64	41.17	-35.2	-36.5	28.7	3.02e+01	58	27	0	805306368	44	6442
2026-01-15 17:15:34.95	255.24	40.94	-35.4	-36.7	28.6	3.02e+01	58	27	0	807403520	44	6582
2026-01-15 17:15:35.96	254.84	40.70	-35.3	-36.6	28.7	3.02e+01	62	27	0	809500672	44	6505
2026-01-15 17:15:36.97	254.45	40.47	-35.6	-36.8	28.3	3.02e+01	55	27	0	811073536	44	6709
2026-01-15 17:15:37.97	254.07	40.24	-35.8	-37.0	28.3	3.02e+01	59	27	0	813170688	46	6112
2026-01-15 17:15:38.98	253.69	40.01	-36.1	-37.3	28.0	3.02e+01	59	27	0	815267840	46	6336
2026-01-15 17:15:39.99	253.32	39.78	-36.3	-37.6	27.9	3.02e+01	53	27	0	816840704	46	6521
2026-01-15 17:15:41.00	252.95	39.54	-36.2	-37.5	27.7	3.02e+01	59	27	0	818937856	46	6489
2026-01-15 17:15:42.00	252.59	39.31	-35.7	-36.9	28.3	3.02e+01	61	27	0	820510720	46	6025
2026-01-15 17:15:43.01	252.23	39.08	-35.9	-37.2	28.1	3.02e+01	56	27	0	822607872	46	6230
2026-01-15 17:15:44.02	251.88	38.85	-36.6	-38.0	27.5	3.02e+01	55	27	0	824180736	46	6823
2026-01-15 17:15:45.03	251.53	38.62	-36.2	-37.5	27.8	3.02e+01	59	27	0	826277888	46	6447
2026-01-15 17:15:46.04	251.19	38.39	-36.1	-37.4	28.0	3.02e+01	57	27	0	828375040	46	6374
2026-01-15 17:15:47.05	250.85	38.16	-36.3	-37.6	27.8	3.02e+01	58	27	0	829947904	46	6540
2026-01-15 17:15:48.06	250.51	37.93	-36.4	-37.7	27.7	3.02e+01	48	27	0	832045056	46	6596
2026-01-15 17:15:49.06	250.19	37.70	-35.6	-36.8	28.4	3.02e+01	59	27	0	833617920	46	5980
2026-01-15 17:15:50.07	249.87	37.47	-36.0	-37.2	28.2	3.02e+01	59	27	0	835715072	46	6256
2026-01-15 17:15:51.08	249.55	37.25	-36.2	-37.5	27.9	3.02e+01	60	27	0	837812224	46	6460
2026-01-15 17:15:52.09	249.23	37.02	-36.2	-37.5	27.9	3.02e+01	59	27	0	839385088	46	6425
2026-01-15 17:15:53.10	248.92	36.79	-36.0	-37.3	28.0	3.02e+01	55	27	0	841482240	46	6321
2026-01-15 17:15:54.11	248.62	36.57	-35.8	-37.1	28.2	3.02e+01	58	27	0	843579392	46	6160
2026-01-15 17:15:55.12	248.32	36.34	-36.2	-37.5	28.0	3.02e+01	57	27	0	845152256	46	6459
2026-01-15 17:15:56.13	248.02	36.12	-35.9	-37.1	28.2	3.02e+01	60	27	0	847249408	46	6194
2026-01-15 17:15:57.14	247.73	35.90	-35.5	-36.7	28.4	3.02e+01	58	27	0	848822272	46	5906
2026-01-15 17:15:58.15	247.44	35.67	-36.1	-37.3	28.1	3.02e+01	45	27	0	850919424	46	6349
2026-01-15 17:15:59.16	247.15	35.45	-36.1	-37.4	28.0	3.02e+01	57	27	0	853016576	46	6366
2026-01-15 17:16:00.17	246.87	35.23	-35.6	-36.9	28.4	3.02e+01	61	27	0	854589440	46	6034
2026-01-15 17:16:01.18	246.60	35.01	-35.6	-36.8	28.4	3.02e+01	47	27	0	856686592	46	5981
2026-01-15 17:16:02.19	246.32	34.79	-35.5	-36.8	28.5	3.02e+01	58	27	0	858259456	46	5947
2026-01-15 17:16:03.20	246.05	34.57	-35.5	-36.8	28.5	3.02e+01	54	27	0	860356608	46	5947
2026-01-15 17:16:04.21	245.79	34.36	-35.3	-36.5	28.7	3.02e+01	56	27	0	862453760	46	5764
2026-01-15 17:16:05.22	245.53	34.14	-34.7	-35.9	29.3	3.02e+01	61	27	0	864026624	44	5996
2026-01-15 17:16:06.23	245.27	33.93	-35.1	-36.3	28.7	3.02e+01	61	27	0	866123776	44	6342
2026-01-15 17:16:07.24	245.01	33.71	-36.0	-37.3	27.9	3.02e+01	59	27	0	868220928	44	7109
2026-01-15 17:16:08.25	244.76	33.50	-36.1	-37.4	27.9	3.02e+01	58	27	0	869793792	46	6410
2026-01-15 17:16:09.25	244.52	33.29	-35.0	-36.2	29.0	3.02e+01	52	27	0	871890944	46	5568
2026-01-15 17:16:10.26	244.27	33.08	-34.8	-36.0	29.1	3.02e+01	57	27	0	873463808	44	6097
2026-01-15 17:16:11.27	244.03	32.87	-35.0	-36.2	28.9	3.02e+01	58	27	0	875560960	44	6246
2026-01-15 17:16:12.28	243.79	32.66	-35.1	-36.4	28.9	3.02e+01	60	27	0	877658112	44	6356
2026-01-15 17:16:13.29	243.56	32.45	-35.1	-36.3	28.9	3.02e+01	58	27	0	879230976	44	6334
2026-01-15 17:16:14.30	243.32	32.24	-34.3	-35.5	29.4	3.02e+01	52	27	0	881328128	44	5783
2026-01-15 17:16:15.30	243.10	32.04	-34.4	-35.6	29.5	3.02e+01	61	27	0	882900992	44	5799
2026-01-15 17:16:16.31	242.87	31.83	-34.4	-35.6	29.5	3.02e+01	59	27	0	884998144	44	5838
2026-01-15 17:16:17.32	242.65	31.63	-34.6	-35.8	29.3	3.02e+01	51	27	0	886571008	44	5978
2026-01-15 17:16:18.33	242.43	31.42	-34.4	-35.6	29.5	3.02e+01	60	27	0	888668160	44	5801
2026-01-15 17:16:19.34	242.21	31.22	-34.4	-35.5	29.5	3.02e+01	60	27	0	890765312	44	5790
2026-01-15 17:16:20.34	242.00	31.02	-34.2	-35.4	29.7	3.02e+01	61	27	0	892338176	44	5673
2026-01-15 17:16:21.35	241.79	30.82	-34.4	-35.6	29.5	3.02e+01	60	27	0	894435328	44	5834
2026-01-15 17:16:22.36	241.58	30.62	-34.5	-35.7	29.4	3.02e+01	52	27	0	896532480	44	5916
2026-01-15 17:16:23.37	241.37	30.42	-34.4	-35.6	29.4	3.02e+01	62	27	0	898105344	44	5833
2026-01-15 17:16:24.38	241.17	30.23	-34.4	-35.6	29.5	3.02e+01	60	27	0	900202496	44	5796
2026-01-15 17:16:25.39	240.97	30.03	-34.0	-35.2	29.8	3.02e+01	47	27	0	901775360	42	6217
2026-01-15 17:16:26.40	240.77	29.83	-34.4	-35.6	29.5	3.02e+01	58	27	0	903872512	42	6530
2026-01-15 17:16:27.41	240.57	29.64	-34.6	-35.8	29.3	3.02e+01	60	27	0	905969664	42	6715
2026-01-15 17:16:28.42	240.38	29.45	-34.7	-35.9	29.2	3.02e+01	57	27	0	907542528	42	6799
2026-01-15 17:16:29.43	240.19	29.26	-34.5	-35.7	29.3	3.02e+01	56	27	0	909639680	42	6608
2026-01-15 17:16:30.44	240.00	29.06	-34.3	-35.5	29.6	3.02e+01	50	27	0	911736832	42	6449
2026-01-15 17:16:31.44	239.81	28.88	-34.1	-35.3	29.7	3.02e+01	58	27	0	913309696	42	6289
2026-01-15 17:16:32.45	239.63	28.69	-34.1	-35.3	29.7	3.02e+01	61	27	0	915406848	42	6337
2026-01-15 17:16:33.46	239.45	28.50	-34.4	-35.6	29.6	3.02e+01	46	27	0	916979712	42	6512
2026-01-15 17:16:34.47	239.27	28.31	-34.3	-35.5	29.5	3.02e+01	61	27	0	919076864	42	6491
2026-01-15 17:16:35.48	239.09	28.13	-34.4	-35.6	29.5	3.02e+01	45	27	0	921174016	42	6520
2026-01-15 17:16:36.49	238.92	27.94	-34.1	-35.3	29.8	3.02e+01	59	27	0	922746880	42	6324
2026-01-15 17:16:37.50	238.74	27.76	-34.3	-35.5	29.5	3.02e+01	59	27	0	924844032	42	6446
2026-01-15 17:16:38.51	238.57	27.58	-34.5	-35.7	29.4	3.02e+01	54	27	0	926416896	42	6579
2026-01-15 17:16:39.52	238.40	27.39	-34.8	-36.0	29.2	3.02e+01	61	27	0	928514048	42	6836
2026-01-15 17:16:40.53	238.23	27.21	-34.8	-36.1	29.0	3.02e+01	58	27	0	930611200	42	6901
2026-01-15 17:16:41.54	238.07	27.03	-34.8	-36.0	29.0	3.02e+01	58	27	0	932184064	42	6879
2026-01-15 17:16:42.54	237.91	26.86	-34.6	-35.8	29.1	3.02e+01	61	27	0	934281216	42	6698
2026-01-15 17:16:43.55	237.75	26.68	-34.5	-35.7	29.3	3.02e+01	47	27	0	935854080	42	6635
2026-01-15 17:16:44.56	237.59	26.50	-34.3	-35.5	29.5	3.02e+01	65	27	0	937951232	42	6436
2026-01-15 17:16:45.57	237.43	26.33	-34.4	-35.6	29.4	3.02e+01	60	27	0	940048384	42	6520
2026-01-15 17:16:46.58	237.27	26.15	-34.6	-35.8	29.2	3.02e+01	44	27	0	941621248	42	6699
2026-01-15 17:16:47.59	237.12	25.98	-34.9	-36.2	29.0	3.02e+01	58	27	0	943718400	42	6982
2026-01-15 17:16:48.60	236.97	25.81	-35.0	-36.2	28.9	3.02e+01	59	27	0	945291264	44	6251
2026-01-15 17:16:49.61	236.82	25.64	-35.2	-36.4	28.8	3.02e+01	57	27	0	947388416	44	6398
2026-01-15 17:16:50.62	236.67	25.46	-35.0	-36.2	28.9	3.02e+01	59	27	0	949485568	44	6262
2026-01-15 17:16:51.62	236.52	25.30	-34.8	-36.1	29.1	3.02e+01	59	27	0	951058432	44	6148
2026-01-15 17:16:52.63	236.38	25.13	-34.6	-35.8	29.2	3.02e+01	55	27	0	953155584	44	5948
2026-01-15 17:16:53.64	236.23	24.96	-34.5	-35.7	29.2	3.02e+01	60	27	0	954728448	44	5917
2026-01-15 17:16:54.65	236.09	24.79	-34.6	-35.8	29.2	3.02e+01	44	27	0	956825600	44	5962
2026-01-15 17:16:55.66	235.95	24.63	-34.6	-35.8	29.2	3.02e+01	59	27	0	958922752	44	5939
2026-01-15 17:16:56.67	235.81	24.46	-34.7	-35.9	29.2	3.02e+01	58	27	0	960495616	44	6007
2026-01-15 17:16:57.68	235.67	24.30	-34.9	-36.1	28.9	3.02e+01	60	27	0	962592768	44	6185
2026-01-15 17:16:58.69	235.54	24.14	-34.8	-36.1	29.0	3.02e+01	59	27	0	964689920	44	6147
2026-01-15 17:16:59.70	235.40	23.97	-34.8	-36.1	29.0	3.02e+01	46	27	0	966262784	44	6135
2026-01-15 17:17:00.71	235.27	23.81	-35.0	-36.3	28.8	3.02e+01	60	27	0	968359936	44	6310
2026-01-15 17:17:01.71	235.14	23.65	-34.8	-36.0	28.9	3.02e+01	59	27	0	969932800	44	6125
2026-01-15 17:17:02.72	235.01	23.49	-35.1	-36.3	28.8	3.02e+01	44	27	0	972029952	44	6322
2026-01-15 17:17:03.73	234.88	23.34	-34.7	-36.0	29.0	3.02e+01	55	27	0	974127104	44	6070
2026-01-15 17:17:04.74	234.75	23.18	-34.8	-36.0	28.9	3.02e+01	60	27	0	975699968	44	6086
2026-01-15 17:17:05.75	234.63	23.02	-34.7	-35.9	29.0	3.02e+01	58	27	0	977797120	44	6062
2026-01-15 17:17:06.76	234.50	22.87	-34.6	-35.8	29.1	3.02e+01	53	27	0	979369984	44	5958
2026-01-15 17:17:07.78	234.38	22.71	-34.6	-35.8	29.2	3.02e+01	49	27	0	981467136	44	5977
2026-01-15 17:17:08.78	234.26	22.56	-34.7	-35.9	29.0	3.02e+01	60	27	0	983564288	44	6060
2026-01-15 17:17:09.79	234.14	22.40	-34.9	-36.1	29.0	3.02e+01	61	27	0	985137152	44	6199
2026-01-15 17:17:10.80	234.02	22.25	-35.0	-36.3	28.7	3.02e+01	53	27	0	987234304	44	6314
2026-01-15 17:17:11.81	233.90	22.10	-35.0	-36.2	28.8	3.02e+01	60	27	0	988807168	44	6259
2026-01-15 17:17:12.82	233.78	21.95	-34.9	-36.2	28.8	3.02e+01	61	27	0	990904320	44	6216
2026-01-15 17:17:13.83	233.66	21.80	-35.1	-36.3	28.7	3.02e+01	57	27	0	993001472	44	6303
2026-01-15 17:17:14.84	233.55	21.65	-34.8	-36.0	29.0	3.02e+01	59	27	0	994574336	44	6095
2026-01-15 17:17:15.85	233.44	21.50	-34.6	-35.8	29.2	3.02e+01	51	27	0	996671488	44	5962
2026-01-15 17:17:16.86	233.32	21.35	-34.6	-35.8	29.2	3.02e+01	57	27	0	998244352	44	5958
2026-01-15 17:17:17.87	233.21	21.21	-34.6	-35.8	29.2	3.02e+01	61	27	0	1000341504	44	5954
2026-01-15 17:17:18.88	233.10	21.06	-34.6	-35.8	29.1	3.02e+01	59	27	0	1002438656	44	5973
2026-01-15 17:17:19.89	232.99	20.92	-34.7	-35.9	29.2	3.02e+01	62	27	0	1004011520	44	6020
2026-01-15 17:17:20.89	232.89	20.77	-34.6	-35.8	29.2	3.02e+01	45	27	0	1006108672	44	5989
2026-01-15 17:17:21.90	232.78	20.63	-34.7	-35.9	29.2	3.02e+01	59	27	0	1008205824	44	6028
2026-01-15 17:17:22.91	232.67	20.49	-34.8	-36.0	29.0	3.02e+01	57	27	0	1009778688	44	6101
2026-01-15 17:17:23.92	232.57	20.35	-34.7	-35.9	29.1	3.02e+01	46	27	0	1011875840	44	6054
2026-01-15 17:17:24.93	232.47	20.21	-34.7	-35.9	29.1	3.02e+01	63	27	0	1013448704	44	6052
2026-01-15 17:17:25.94	232.36	20.07	-34.8	-36.0	29.0	3.02e+01	53	27	0	1015545856	44	6079
2026-01-15 17:17:26.95	232.26	19.93	-34.7	-36.0	29.1	3.02e+01	58	27	0	1017643008	44	6066
2026-01-15 17:17:27.96	232.16	19.79	-34.7	-35.9	29.1	3.02e+01	61	27	0	1019215872	44	6041
2026-01-15 17:17:28.97	232.06	19.65	-34.8	-36.0	29.0	3.02e+01	59	27	0	1021313024	44	6099
2026-01-15 17:17:29.98	231.96	19.51	-34.8	-36.0	29.0	3.02e+01	58	27	0	1022885888	44	6099
2026-01-15 17:17:30.98	231.87	19.38	-34.8	-36.1	29.0	3.02e+01	58	27	0	1024983040	44	6154
2026-01-15 17:17:31.99	231.77	19.24	-34.8	-36.1	28.9	3.02e+01	45	27	0	1027080192	44	6138
2026-01-15 17:17:33.00	231.67	19.11	-34.9	-36.1	29.0	3.02e+01	58	27	0	1028653056	44	6191
2026-01-15 17:17:34.01	231.58	18.97	-34.8	-36.0	29.0	3.02e+01	59	27	0	1030750208	44	6099
2026-01-15 17:17:35.02	231.49	18.84	-34.8	-36.1	28.9	3.02e+01	57	27	0	1032323072	44	6153
2026-01-15 17:17:36.03	231.39	18.71	-34.8	-36.0	28.9	3.02e+01	60	27	0	1034420224	44	6119
2026-01-15 17:17:37.04	231.30	18.57	-34.9	-36.1	28.9	3.02e+01	48	27	0	1036517376	44	6185
2026-01-15 17:17:38.05	231.21	18.44	-35.2	-36.5	28.6	3.02e+01	59	27	0	1038090240	44	6438
2026-01-15 17:17:39.06	231.12	18.31	-35.2	-36.4	28.6	3.02e+01	60	27	0	1040187392	44	6393
2026-01-15 17:17:40.06	231.03	18.18	-35.1	-36.4	28.7	3.02e+01	44	27	0	1041760256	44	6353
2026-01-15 17:17:41.07	230.94	18.05	-34.9	-36.2	28.7	3.02e+01	57	27	0	1043857408	44	6221
2026-01-15 17:17:42.08	230.85	17.92	-35.0	-36.2	28.8	3.02e+01	53	27	0	1045954560	44	6226
2026-01-15 17:17:43.09	230.76	17.80	-35.1	-36.3	28.6	3.02e+01	59	27	0	1047527424	44	6313
2026-01-15 17:17:44.10	230.68	17.67	-35.3	-36.5	28.5	3.02e+01	63	27	0	1049624576	44	6497
2026-01-15 17:17:45.11	230.59	17.54	-35.0	-36.2	28.7	3.02e+01	56	27	0	1051197440	44	6243
2026-01-15 17:17:46.12	230.51	17.42	-34.7	-36.0	28.9	3.02e+01	58	27	0	1053294592	44	6073
2026-01-15 17:17:47.13	230.42	17.29	-34.7	-35.9	29.0	3.02e+01	61	27	0	1055391744	44	6029
2026-01-15 17:17:48.13	230.34	17.17	-34.8	-36.0	28.8	3.02e+01	59	27	0	1056964608	44	6116
2026-01-15 17:17:49.14	230.26	17.04	-34.6	-35.8	29.0	3.02e+01	63	27	0	1059061760	44	5964
2026-01-15 17:17:50.15	230.18	16.92	-34.6	-35.8	29.0	3.02e+01	46	27	0	1061158912	44	5942
2026-01-15 17:17:51.16	230.10	16.80	-34.6	-35.8	29.1	3.02e+01	63	27	0	1062731776	44	5934
2026-01-15 17:17:52.17	230.02	16.67	-34.5	-35.8	29.1	3.02e+01	58	27	0	1064828928	44	5931
2026-01-15 17:17:53.18	229.94	16.55	-34.6	-35.8	29.0	3.02e+01	47	27	0	1066401792	44	5947
2026-01-15 17:17:54.19	229.86	16.43	-34.7	-36.0	28.9	3.02e+01	59	27	0	1068498944	44	6066
2026-01-15 17:17:55.20	229.78	16.31	-34.6	-35.8	29.0	3.02e+01	60	27	0	1070596096	44	5978
2026-01-15 17:17:56.21	229.70	16.19	-34.7	-36.0	28.9	3.02e+01	58	27	0	1072168960	44	6080
2026-01-15 17:17:57.21	229.62	16.07	-34.7	-35.9	28.9	3.02e+01	58	27	0	1074266112	44	6052
2026-01-15 17:17:58.22	229.55	15.95	-34.8	-36.1	28.8	3.02e+01	63	27	0	1076363264	44	6163
2026-01-15 17:17:59.23	229.47	15.84	-34.7	-35.9	28.9	3.02e+01	58	27	0	1077936128	44	6059
2026-01-15 17:18:00.24	229.40	15.72	-34.8	-36.1	28.8	3.02e+01	59	27	0	1080033280	44	6155
2026-01-15 17:18:01.25	229.32	15.60	-34.7	-35.9	28.9	3.02e+01	44	27	0	1081606144	44	6043
2026-01-15 17:18:02.26	229.25	15.49	-34.8	-36.0	28.8	3.02e+01	58	27	0	1083703296	44	6119
2026-01-15 17:18:03.27	229.18	15.37	-34.8	-36.0	28.8	3.02e+01	58	27	0	1085800448	44	6096
2026-01-15 17:18:04.28	229.10	15.25	-34.9	-36.1	28.8	3.02e+01	61	27	0	1087373312	44	6183
2026-01-15 17:18:05.29	229.03	15.14	-34.8	-36.0	28.8	3.02e+01	61	27	0	1089470464	44	6119
2026-01-15 17:18:06.30	228.96	15.03	-34.9	-36.1	28.7	3.02e+01	62	27	0	1091043328	44	6165
2026-01-15 17:18:07.31	228.89	14.91	-34.8	-36.0	28.9	3.02e+01	55	27	0	1093140480	44	6099
2026-01-15 17:18:08.32	228.82	14.80	-34.9	-36.1	28.8	3.02e+01	61	27	0	1094713344	44	6161
2026-01-15 17:18:09.33	228.75	14.69	-34.7	-36.0	28.8	3.02e+01	45	27	0	1096810496	44	6070
2026-01-15 17:18:10.34	228.68	14.57	-34.8	-36.0	28.8	3.02e+01	59	27	0	1098907648	44	6096
2026-01-15 17:18:11.34	228.62	14.46	-34.9	-36.1	28.7	3.02e+01	61	27	0	1100480512	44	6155
2026-01-15 17:18:12.35	228.55	14.35	-34.8	-36.0	28.8	3.02e+01	60	27	0	1102577664	44	6093
2026-01-15 17:18:13.37	228.48	14.24	-34.9	-36.1	28.7	3.02e+01	62	27	0	1104674816	44	6165
2026-01-15 17:18:14.37	228.41	14.13	-34.9	-36.1	28.8	3.02e+01	60	27	0	1106247680	44	6178
2026-01-15 17:18:15.38	228.35	14.02	-34.9	-36.2	28.7	3.02e+01	61	27	0	1108344832	44	6207
2026-01-15 17:18:16.39	228.28	13.91	-35.0	-36.2	28.6	3.02e+01	60	27	0	1109917696	44	6267
2026-01-15 17:18:17.41	228.22	13.80	-34.9	-36.1	28.7	3.02e+01	48	27	0	1112014848	44	6164
2026-01-15 17:18:18.41	228.15	13.70	-35.0	-36.2	28.6	3.02e+01	59	27	0	1114112000	44	6264
2026-01-15 17:18:19.42	228.09	13.59	-34.9	-36.1	28.7	3.02e+01	63	27	0	1115684864	44	6175
2026-01-15 17:18:20.43	228.03	13.48	-34.9	-36.2	28.6	3.02e+01	58	27	0	1117782016	44	6218
2026-01-15 17:18:21.44	227.96	13.38	-35.0	-36.2	28.6	3.02e+01	62	27	0	1119354880	44	6230
2026-01-15 17:18:22.45	227.90	13.27	-35.0	-36.3	28.6	3.02e+01	49	27	0	1121452032	44	6294
2026-01-15 17:18:23.46	227.84	13.17	-35.0	-36.3	28.5	3.02e+01	61	27	0	1123549184	44	6281
2026-01-15 17:18:24.47	227.78	13.06	-35.0	-36.2	28.6	3.02e+01	60	27	0	1125122048	44	6274
2026-01-15 17:18:25.48	227.72	12.96	-35.0	-36.3	28.5	3.02e+01	59	27	0	1127219200	44	6285
2026-01-15 17:18:26.49	227.66	12.85	-35.2	-36.4	28.5	3.02e+01	55	27	0	1129316352	44	6412
2026-01-15 17:18:27.50	227.60	12.75	-35.1	-36.3	28.4	3.02e+01	46	27	0	1130889216	44	6335
2026-01-15 17:18:28.50	227.54	12.65	-35.2	-36.5	28.4	3.02e+01	60	27	0	1132986368	44	6443
2026-01-15 17:18:29.51	227.48	12.54	-35.2	-36.4	28.3	3.02e+01	48	27	0	1134559232	44	6420
2026-01-15 17:18:30.52	227.42	12.44	-35.4	-36.6	28.2	3.02e+01	47	27	0	1136656384	44	6558
2026-01-15 17:18:31.53	227.36	12.34	-35.4	-36.6	28.2	3.02e+01	60	27	0	1138753536	44	6555
2026-01-15 17:18:32.54	227.30	12.24	-35.5	-36.8	28.1	3.02e+01	60	27	0	1140326400	44	6664
2026-01-15 17:18:33.55	227.25	12.14	-35.5	-36.8	28.1	3.02e+01	57	27	0	1142423552	44	6678
2026-01-15 17:18:34.56	227.19	12.04	-35.6	-36.9	27.9	3.02e+01	60	27	0	1143996416	44	6787
2026-01-15 17:18:35.57	227.13	11.94	-35.5	-36.8	28.0	3.02e+01	46	27	0	1146093568	44	6716
2026-01-15 17:18:36.58	227.08	11.84	-35.6	-36.9	27.9	3.02e+01	56	27	0	1148190720	44	6784
2026-01-15 17:18:37.59	227.02	11.74	-35.6	-36.9	28.0	3.02e+01	59	27	0	1149763584	44	6731
2026-01-15 17:18:38.60	226.97	11.64	-35.7	-37.0	27.8	3.02e+01	54	27	0	1151860736	44	6860
2026-01-15 17:18:39.61	226.91	11.54	-35.6	-36.9	27.9	3.02e+01	60	27	0	1153433600	44	6762
2026-01-15 17:18:40.62	226.86	11.44	-35.6	-36.9	27.9	3.02e+01	58	27	0	1155530752	44	6790
2026-01-15 17:18:41.62	226.81	11.35	-35.7	-37.0	27.8	3.02e+01	56	27	0	1157627904	44	6876
2026-01-15 17:18:42.63	226.75	11.25	-35.7	-37.0	27.8	3.02e+01	59	27	0	1159200768	44	6851
2026-01-15 17:18:43.64	226.70	11.15	-35.8	-37.1	27.7	3.02e+01	60	27	0	1161297920	44	6962
2026-01-15 17:18:44.65	226.65	11.06	-35.7	-37.0	27.7	3.02e+01	58	27	0	1162870784	44	6873
2026-01-15 17:18:45.66	226.59	10.96	-35.7	-37.0	27.7	3.02e+01	62	27	0	1164967936	44	6877
2026-01-15 17:18:46.67	226.54	10.86	-35.8	-37.1	27.7	3.02e+01	51	27	0	1167065088	44	6917
2026-01-15 17:18:47.68	226.49	10.77	-36.0	-37.3	26.9	3.02e+01	55	27	0	1168637952	44	7065
2026-01-15 17:18:48.69	226.44	10.67	-35.9	-37.2	27.6	3.02e+01	61	27	0	1170735104	46	6239
2026-01-15 17:18:49.70	226.39	10.58	-36.2	-37.6	27.4	3.02e+01	58	27	0	1172832256	46	6522
2026-01-15 17:18:50.71	226.34	10.49	-36.4	-37.9	27.2	3.02e+01	57	27	0	1174405120	46	6763
2026-01-15 17:18:51.72	226.29	10.39	-36.3	-37.8	27.2	3.02e+01	49	27	0	1176502272	46	6668
2026-01-15 17:18:52.72	226.24	10.30	-36.0	-37.4	27.4	3.02e+01	60	27	0	1178075136	46	6401
2026-01-15 17:18:53.73	226.19	10.21	-36.1	-37.6	27.3	3.02e+01	57	27	0	1180172288	46	6521
2026-01-15 17:18:54.74	226.14	10.11	-36.1	-37.5	27.3	3.02e+01	54	27	0	1182269440	46	6474
2026-01-15 17:18:55.75	226.09	10.02	-36.2	-37.7	27.2	3.02e+01	58	27	0	1183842304	46	6613
2026-01-15 17:18:56.76	226.05	9.93	-36.2	-37.6	27.3	3.02e+01	57	27	0	1185939456	46	6546
2026-01-15 17:18:57.77	226.00	9.84	-36.3	-37.7	27.2	3.02e+01	60	27	0	1187512320	46	6609
2026-01-15 17:18:58.78	225.95	9.75	-36.4	-37.7	27.1	3.02e+01	63	27	0	1189609472	46	6625
2026-01-15 17:18:59.79	225.90	9.66	-36.4	-37.8	27.1	3.02e+01	50	27	0	1191706624	46	6680
2026-01-15 17:19:00.80	225.86	9.57	-36.5	-37.8	27.0	3.02e+01	57	27	0	1193279488	46	6718
2026-01-15 17:19:01.81	225.81	9.48	-36.4	-37.8	27.1	3.02e+01	59	27	0	1195376640	46	6686
2026-01-15 17:19:02.83	225.76	9.39	-36.6	-38.0	26.9	3.02e+01	57	27	0	1197473792	46	6831
2026-01-15 17:19:03.83	225.72	9.30	-36.5	-37.8	27.0	3.02e+01	60	27	0	1199046656	46	6714
