passes_logs/2026/01/15/R4.6S_Anadyr/R4.6S_Anadyr__20260115_114429_NOAA_20_JPSS-1_rec.log

#Pass ID: 20260115_114429_NOAA 20 (JPSS-1)
#Satellite: NOAA 20 (JPSS-1)
#Configuration: NOAA 20
#almurnet v.1.7.20251203
#Start time: 2026-01-15 11:44:34

#Version: 2.2.20231116
#Station: R4.6S_Anadyr
#Location: 177.4865 lon 64.73178 lat
#TLE: 1 43013U 17073A   26014.55467351  .00000038  00000+0  38801-4 0  9992
#TLE: 2 43013  98.7635 315.4987 0001517  39.9279 320.2008 14.19535859422677

#Time	Az	El	Level	Level2	SNR	BER	BlckErr	Temp	State	Recorded	gain1	gain2
2026-01-15 11:44:34.38	20.61	0.22	-48.8	-50.3	5.7	0.00e+00	0	26	0	0	60	40015
2026-01-15 11:44:35.38	20.70	0.26	-48.5	-63.7	3.6	1.51e+00	0	28	104	0	60	55551
2026-01-15 11:44:36.39	20.79	0.31	-48.5	-63.8	3.6	1.51e+00	0	28	104	0	60	56057
2026-01-15 11:44:37.40	20.89	0.35	-48.6	-63.8	3.6	1.51e+00	0	28	104	0	60	56121
2026-01-15 11:44:38.41	20.98	0.39	-48.5	-63.8	3.6	1.51e+00	0	28	104	0	60	55970
2026-01-15 11:44:39.42	21.07	0.43	-48.6	-63.8	3.6	1.51e+00	0	28	104	0	60	55720
2026-01-15 11:44:40.43	21.17	0.48	-48.6	-63.8	3.6	1.51e+00	0	28	104	0	60	56009
2026-01-15 11:44:41.44	21.26	0.52	-48.6	-63.8	3.6	1.51e+00	0	28	104	0	60	55841
2026-01-15 11:44:42.46	21.36	0.56	-48.5	-63.7	3.6	1.51e+00	0	28	104	0	60	55135
2026-01-15 11:44:43.46	21.45	0.60	-48.4	-63.6	3.6	1.51e+00	0	28	104	0	60	54761
2026-01-15 11:44:44.47	21.55	0.64	-48.3	-63.5	3.6	1.51e+00	0	28	104	0	60	53932
2026-01-15 11:44:45.48	21.64	0.69	-48.2	-63.4	3.6	1.51e+00	0	28	104	0	60	53522
2026-01-15 11:44:46.49	21.74	0.73	-48.1	-63.3	3.6	1.51e+00	0	28	104	0	60	52772
2026-01-15 11:44:47.50	21.84	0.77	-47.9	-63.1	3.6	1.51e+00	0	28	104	0	60	51670
2026-01-15 11:44:48.51	21.93	0.81	-47.7	-62.9	3.6	1.51e+00	0	28	104	0	60	50512
2026-01-15 11:44:49.52	22.03	0.86	-47.3	-62.5	3.6	1.51e+00	0	28	104	0	60	48205
2026-01-15 11:44:50.53	22.13	0.90	-46.9	-62.0	3.6	1.51e+00	0	28	104	0	60	45592
2026-01-15 11:44:51.54	22.22	0.94	-46.9	-62.0	3.6	1.51e+00	0	28	104	0	60	45322
2026-01-15 11:44:52.55	22.32	0.98	-46.9	-61.9	3.6	1.51e+00	0	28	104	0	60	44988
2026-01-15 11:44:53.56	22.42	1.02	-46.9	-62.0	3.6	1.51e+00	0	28	104	0	60	45292
2026-01-15 11:44:54.57	22.52	1.07	-46.9	-61.9	3.6	1.51e+00	0	28	104	0	60	45207
2026-01-15 11:44:55.58	22.61	1.11	-46.9	-62.0	3.6	1.51e+00	0	28	104	0	60	45472
2026-01-15 11:44:56.59	22.71	1.15	-46.9	-62.0	3.6	1.51e+00	0	28	104	0	60	45428
2026-01-15 11:44:57.60	22.81	1.19	-46.8	-62.1	3.6	1.51e+00	0	28	104	0	60	45815
2026-01-15 11:44:58.61	22.91	1.24	-46.9	-62.0	3.6	1.51e+00	0	28	104	0	60	45438
2026-01-15 11:44:59.62	23.01	1.28	-46.9	-62.0	3.6	1.51e+00	0	28	104	0	60	45597
2026-01-15 11:45:00.63	23.11	1.32	-46.9	-62.0	3.6	1.51e+00	0	28	104	0	60	45561
2026-01-15 11:45:01.64	23.21	1.36	-46.8	-62.0	3.6	1.51e+00	0	28	104	0	60	45485
2026-01-15 11:45:02.65	23.31	1.40	-46.9	-62.0	3.6	1.51e+00	0	28	104	0	60	45516
2026-01-15 11:45:03.66	23.41	1.45	-46.9	-62.0	3.6	1.51e+00	0	28	104	0	60	45370
2026-01-15 11:45:04.67	23.51	1.49	-46.8	-62.0	3.6	1.51e+00	0	28	104	0	60	45367
2026-01-15 11:45:05.68	23.61	1.53	-46.8	-62.0	3.6	1.51e+00	0	28	104	0	60	45430
2026-01-15 11:45:06.69	23.71	1.57	-46.8	-62.0	3.6	1.51e+00	0	28	104	0	60	45444
2026-01-15 11:45:07.70	23.81	1.61	-46.8	-62.0	3.6	1.51e+00	0	28	104	0	60	45330
2026-01-15 11:45:08.70	23.91	1.66	-46.8	-62.0	3.6	1.51e+00	0	28	104	0	60	45467
2026-01-15 11:45:09.71	24.01	1.70	-46.8	-61.9	3.6	1.51e+00	0	28	104	0	60	44878
2026-01-15 11:45:10.72	24.12	1.74	-46.8	-62.0	3.6	1.51e+00	0	28	104	0	60	45290
2026-01-15 11:45:11.73	24.22	1.78	-46.8	-61.9	3.6	1.51e+00	0	28	104	0	60	45176
2026-01-15 11:45:12.74	24.32	1.83	-46.8	-61.9	3.6	1.51e+00	0	28	104	0	60	45189
2026-01-15 11:45:13.75	24.43	1.87	-46.8	-62.0	3.6	1.51e+00	0	28	104	0	60	45338
2026-01-15 11:45:14.75	24.53	1.91	-46.8	-62.0	3.6	1.51e+00	0	28	104	0	60	45393
2026-01-15 11:45:15.76	24.63	1.95	-46.8	-62.0	3.6	1.51e+00	0	28	104	0	60	45386
2026-01-15 11:45:16.77	24.73	1.99	-46.8	-62.0	3.6	1.51e+00	0	28	104	0	60	45613
2026-01-15 11:45:17.78	24.84	2.04	-46.8	-62.0	3.6	1.51e+00	0	28	104	0	60	45458
2026-01-15 11:45:18.79	24.94	2.08	-46.8	-62.0	3.6	1.51e+00	0	28	104	0	60	45700
2026-01-15 11:45:19.80	25.05	2.12	-46.8	-62.0	3.6	1.51e+00	0	28	104	0	60	45434
2026-01-15 11:45:20.82	25.15	2.16	-46.8	-61.9	3.6	1.51e+00	0	28	104	0	60	45113
2026-01-15 11:45:21.82	25.26	2.20	-46.8	-61.9	3.6	1.51e+00	0	28	104	0	60	45234
2026-01-15 11:45:22.83	25.36	2.25	-46.8	-61.9	3.6	1.51e+00	0	28	104	0	60	44850
2026-01-15 11:45:23.84	25.47	2.29	-46.8	-61.9	3.6	1.51e+00	0	28	104	0	60	45233
2026-01-15 11:45:24.85	25.58	2.33	-46.8	-61.9	3.6	1.51e+00	0	28	104	0	60	45075
2026-01-15 11:45:25.86	25.68	2.37	-46.8	-61.9	3.6	1.51e+00	0	28	104	0	60	45125
2026-01-15 11:45:26.87	25.79	2.41	-46.8	-61.9	3.6	1.51e+00	0	28	104	0	60	44861
2026-01-15 11:45:27.88	25.90	2.46	-46.8	-61.9	3.6	1.51e+00	0	28	104	0	60	45019
2026-01-15 11:45:28.89	26.00	2.50	-46.8	-61.9	3.6	1.51e+00	0	28	104	0	60	45071
2026-01-15 11:45:29.90	26.11	2.54	-46.8	-61.5	3.6	1.51e+00	0	28	104	0	60	43181
2026-01-15 11:45:30.91	26.22	2.58	-46.8	-60.9	3.6	1.51e+00	0	28	104	0	60	40079
2026-01-15 11:45:31.92	26.33	2.62	-46.8	-60.6	3.6	1.51e+00	0	28	104	0	60	38860
2026-01-15 11:45:32.93	26.44	2.66	-46.8	-60.9	3.6	1.51e+00	0	28	104	0	60	40236
2026-01-15 11:45:33.94	26.54	2.71	-46.6	-58.0	4.2	1.45e+00	27	29	104	0	60	28709
2026-01-15 11:45:34.95	26.65	2.75	-45.9	-52.3	7.9	3.09e-01	0	28	0	1048576	60	14835
2026-01-15 11:45:35.96	26.76	2.79	-44.6	-48.6	12.2	8.59e-03	0	28	0	3145728	60	9745
2026-01-15 11:45:36.97	26.87	2.83	-43.2	-46.0	15.0	2.36e-05	0	28	0	4194304	60	7196
2026-01-15 11:45:37.98	26.98	2.87	-42.2	-44.4	16.5	0.00e+00	0	28	0	6291456	58	6769
2026-01-15 11:45:38.99	27.09	2.92	-41.6	-43.6	17.4	0.00e+00	0	28	0	8388608	56	6886
2026-01-15 11:45:40.00	27.20	2.96	-42.0	-44.1	17.0	0.00e+00	0	28	0	10485760	56	7255
2026-01-15 11:45:41.01	27.31	3.00	-42.3	-44.5	16.4	0.00e+00	0	28	0	12582912	56	7683
2026-01-15 11:45:42.02	27.42	3.04	-44.1	-47.6	13.1	7.00e-07	0	28	0	13631488	60	8660
2026-01-15 11:45:43.03	27.54	3.08	-46.3	-53.6	6.9	0.00e+00	0	28	0	15728640	60	17365
2026-01-15 11:45:44.04	27.65	3.12	-41.9	-43.9	17.1	1.37e-02	0	28	0	17825792	56	7114
2026-01-15 11:45:45.05	27.76	3.17	-46.8	-61.3	3.6	4.03e-01	0	28	104	18874368	60	41873
2026-01-15 11:45:46.06	27.87	3.21	-46.6	-60.1	3.6	1.51e+00	0	28	104	18874368	60	36670
2026-01-15 11:45:47.07	27.98	3.25	-43.0	-45.6	14.3	6.09e-01	0	28	104	18874368	56	8628
2026-01-15 11:45:48.08	28.10	3.29	-42.0	-44.0	17.3	0.00e+00	0	28	0	18874368	58	6460
2026-01-15 11:45:49.09	28.21	3.33	-42.1	-44.2	16.9	0.00e+00	0	28	0	20971520	58	6570
2026-01-15 11:45:50.10	28.32	3.37	-42.1	-44.2	16.8	0.00e+00	0	28	0	23068672	58	6575
2026-01-15 11:45:51.11	28.44	3.41	-42.7	-45.1	16.0	0.00e+00	0	28	0	25165824	58	7286
2026-01-15 11:45:52.12	28.55	3.46	-42.6	-44.9	16.2	0.00e+00	0	28	0	27262976	58	7158
2026-01-15 11:45:53.13	28.67	3.50	-43.2	-45.8	15.5	0.00e+00	0	28	0	28311552	58	7880
2026-01-15 11:45:54.14	28.78	3.54	-42.7	-45.0	16.1	0.00e+00	0	28	0	30408704	58	7218
2026-01-15 11:45:55.15	28.90	3.58	-42.9	-45.3	15.9	0.00e+00	0	29	0	32505856	58	7475
2026-01-15 11:45:56.16	29.01	3.62	-42.7	-45.0	16.5	0.00e+00	0	28	0	34603008	58	7177
2026-01-15 11:45:57.17	29.13	3.66	-42.9	-45.4	15.4	0.00e+00	0	28	0	36700160	58	7509
2026-01-15 11:45:58.18	29.24	3.70	-43.4	-46.2	15.7	0.00e+00	0	29	0	37748736	58	8247
2026-01-15 11:45:59.19	29.36	3.75	-42.3	-44.5	16.7	0.00e+00	0	29	0	39845888	58	6774
2026-01-15 11:46:00.20	29.48	3.79	-42.8	-45.2	15.8	0.00e+00	0	28	0	41943040	58	7414
2026-01-15 11:46:01.21	29.59	3.83	-43.2	-45.8	16.0	0.00e+00	0	28	0	44040192	58	7883
2026-01-15 11:46:02.22	29.71	3.87	-42.8	-45.2	15.8	0.00e+00	0	29	0	46137344	58	7345
2026-01-15 11:46:03.23	29.83	3.91	-42.8	-45.2	15.6	0.00e+00	0	29	0	47185920	58	7344
2026-01-15 11:46:04.24	29.95	3.95	-43.2	-45.8	16.1	0.00e+00	0	29	0	49283072	58	7947
2026-01-15 11:46:05.25	30.06	3.99	-42.9	-45.2	16.0	0.00e+00	0	29	0	51380224	58	7417
2026-01-15 11:46:06.26	30.18	4.03	-42.8	-45.2	16.2	0.00e+00	0	29	0	53477376	58	7390
2026-01-15 11:46:07.27	30.30	4.07	-42.7	-45.0	16.1	0.00e+00	0	29	0	55574528	58	7202
2026-01-15 11:46:08.28	30.42	4.12	-42.9	-45.4	15.8	0.00e+00	0	29	0	56623104	58	7514
2026-01-15 11:46:09.29	30.54	4.16	-42.5	-44.7	16.4	0.00e+00	0	29	0	58720256	58	6941
2026-01-15 11:46:10.30	30.66	4.20	-43.0	-45.5	15.7	0.00e+00	0	28	0	60817408	58	7644
2026-01-15 11:46:11.31	30.78	4.24	-43.4	-46.2	15.5	0.00e+00	0	29	0	62914560	58	8237
2026-01-15 11:46:12.32	30.90	4.28	-43.1	-45.5	16.0	0.00e+00	0	29	0	65011712	58	7683
2026-01-15 11:46:13.33	31.02	4.32	-42.7	-45.0	16.6	0.00e+00	0	29	0	67108864	58	7210
2026-01-15 11:46:14.34	31.14	4.36	-42.2	-44.3	17.2	0.00e+00	0	29	0	68157440	58	6662
2026-01-15 11:46:15.35	31.26	4.40	-41.7	-43.5	17.8	0.00e+00	0	29	0	70254592	56	6818
2026-01-15 11:46:16.36	31.38	4.44	-41.5	-43.3	18.3	0.00e+00	0	29	0	72351744	56	6626
2026-01-15 11:46:17.37	31.51	4.48	-40.9	-42.5	18.9	0.00e+00	0	29	0	74448896	56	6070
2026-01-15 11:46:18.38	31.63	4.52	-40.4	-41.9	19.3	0.00e+00	0	28	0	76546048	54	6370
2026-01-15 11:46:19.39	31.75	4.56	-40.4	-41.9	19.4	0.00e+00	0	28	0	77594624	54	6326
2026-01-15 11:46:20.40	31.88	4.60	-40.4	-41.9	19.4	0.00e+00	0	28	0	79691776	54	6332
2026-01-15 11:46:21.41	32.00	4.64	-40.4	-41.8	19.5	0.00e+00	0	28	0	81788928	54	6312
2026-01-15 11:46:22.42	32.12	4.68	-40.5	-42.0	19.3	0.00e+00	0	29	0	83886080	54	6453
2026-01-15 11:46:23.43	32.25	4.72	-40.1	-41.5	19.8	0.00e+00	0	28	0	85983232	54	6041
2026-01-15 11:46:24.43	32.37	4.76	-40.0	-41.4	19.9	0.00e+00	0	29	0	87031808	54	6000
2026-01-15 11:46:25.44	32.49	4.80	-40.1	-41.5	19.8	0.00e+00	0	29	0	89128960	54	6058
2026-01-15 11:46:26.45	32.62	4.84	-39.8	-41.2	20.1	0.00e+00	0	28	0	91226112	54	5845
2026-01-15 11:46:27.46	32.74	4.88	-39.6	-40.9	20.4	0.00e+00	0	28	0	93323264	52	6335
2026-01-15 11:46:28.47	32.87	4.92	-39.7	-41.0	20.3	0.00e+00	0	29	0	95420416	52	6425
2026-01-15 11:46:29.48	33.00	4.96	-39.7	-41.0	20.3	0.00e+00	0	28	0	96468992	52	6457
2026-01-15 11:46:30.49	33.12	5.00	-39.7	-41.0	20.3	0.00e+00	0	28	0	98566144	52	6408
2026-01-15 11:46:31.50	33.25	5.04	-39.7	-41.0	20.3	0.00e+00	0	29	0	100663296	52	6430
2026-01-15 11:46:32.50	33.37	5.08	-39.7	-41.0	20.4	0.00e+00	0	29	0	102760448	52	6440
2026-01-15 11:46:33.51	33.50	5.12	-39.7	-41.0	20.4	0.00e+00	0	29	0	104857600	52	6424
2026-01-15 11:46:34.52	33.63	5.16	-39.6	-40.9	20.5	0.00e+00	0	29	0	105906176	52	6372
2026-01-15 11:46:35.53	33.76	5.20	-39.5	-40.8	20.6	0.00e+00	0	29	0	108003328	52	6265
2026-01-15 11:46:36.54	33.89	5.24	-39.6	-40.8	20.5	0.00e+00	0	29	0	110100480	52	6303
2026-01-15 11:46:37.55	34.01	5.28	-39.8	-41.1	20.3	0.00e+00	0	29	0	112197632	52	6486
2026-01-15 11:46:38.56	34.14	5.32	-39.8	-41.1	20.3	0.00e+00	0	29	0	114294784	52	6472
2026-01-15 11:46:39.57	34.27	5.36	-39.6	-40.8	20.5	0.00e+00	0	29	0	115343360	52	6297
2026-01-15 11:46:40.58	34.40	5.40	-39.7	-41.0	20.4	0.00e+00	0	29	0	117440512	52	6439
2026-01-15 11:46:41.59	34.53	5.44	-39.8	-41.1	20.4	0.00e+00	0	29	0	119537664	52	6477
2026-01-15 11:46:42.60	34.66	5.48	-39.9	-41.3	20.2	0.00e+00	0	29	0	121634816	52	6626
2026-01-15 11:46:43.61	34.79	5.52	-39.8	-41.1	20.2	0.00e+00	0	29	0	123731968	52	6514
2026-01-15 11:46:44.62	34.92	5.56	-39.9	-41.3	20.1	0.00e+00	0	29	0	124780544	52	6620
2026-01-15 11:46:45.63	35.06	5.60	-40.0	-41.4	20.0	0.00e+00	0	29	0	126877696	52	6708
2026-01-15 11:46:46.64	35.19	5.64	-40.0	-41.3	20.1	0.00e+00	0	29	0	128974848	52	6682
2026-01-15 11:46:47.64	35.32	5.67	-40.0	-41.4	20.0	0.00e+00	0	29	0	131072000	52	6722
2026-01-15 11:46:48.65	35.45	5.71	-40.1	-41.5	19.9	0.00e+00	0	29	0	133169152	52	6809
2026-01-15 11:46:49.66	35.58	5.75	-40.2	-41.5	19.9	0.00e+00	0	29	0	135266304	52	6842
2026-01-15 11:46:50.67	35.72	5.79	-40.1	-41.5	19.8	0.00e+00	0	29	0	136314880	52	6818
2026-01-15 11:46:51.68	35.85	5.83	-40.4	-41.8	19.9	0.00e+00	0	29	0	138412032	52	7069
2026-01-15 11:46:52.69	35.98	5.87	-40.1	-41.4	19.8	0.00e+00	0	29	0	140509184	52	6748
2026-01-15 11:46:53.70	36.12	5.91	-40.3	-41.6	20.1	0.00e+00	0	29	0	142606336	52	6926
2026-01-15 11:46:54.71	36.25	5.94	-40.1	-41.5	20.0	0.00e+00	0	29	0	144703488	52	6780
2026-01-15 11:46:55.72	36.39	5.98	-40.2	-41.6	19.6	0.00e+00	0	29	0	145752064	52	6909
2026-01-15 11:46:56.73	36.52	6.02	-40.5	-41.9	19.8	0.00e+00	0	29	0	147849216	52	7150
2026-01-15 11:46:57.74	36.66	6.06	-40.4	-41.8	19.5	0.00e+00	0	29	0	149946368	52	7075
2026-01-15 11:46:58.75	36.79	6.10	-40.1	-41.5	20.0	0.00e+00	0	29	0	152043520	52	6824
2026-01-15 11:46:59.76	36.93	6.14	-40.0	-41.3	20.2	0.00e+00	0	29	0	154140672	52	6661
2026-01-15 11:47:00.76	37.06	6.17	-40.0	-41.4	20.2	0.00e+00	0	29	0	155189248	52	6699
2026-01-15 11:47:01.77	37.20	6.21	-40.1	-41.5	20.0	0.00e+00	0	29	0	157286400	52	6785
2026-01-15 11:47:02.78	37.34	6.25	-39.9	-41.2	20.3	0.00e+00	0	29	0	159383552	52	6581
2026-01-15 11:47:03.79	37.47	6.29	-39.9	-41.2	20.3	0.00e+00	0	29	0	161480704	52	6588
2026-01-15 11:47:04.80	37.61	6.33	-40.0	-41.3	20.2	0.00e+00	0	29	0	163577856	52	6677
2026-01-15 11:47:05.81	37.75	6.36	-40.1	-41.4	20.1	0.00e+00	0	29	0	164626432	52	6723
2026-01-15 11:47:06.82	37.89	6.40	-40.0	-41.3	20.2	0.00e+00	0	29	0	166723584	52	6645
2026-01-15 11:47:07.83	38.03	6.44	-40.1	-41.4	20.1	0.00e+00	0	29	0	168820736	52	6765
2026-01-15 11:47:08.83	38.17	6.47	-40.1	-41.5	20.0	0.00e+00	0	29	0	170917888	52	6777
2026-01-15 11:47:09.85	38.31	6.51	-39.9	-41.2	20.3	0.00e+00	0	29	0	173015040	52	6602
2026-01-15 11:47:10.86	38.45	6.55	-40.0	-41.3	20.2	0.00e+00	0	29	0	174063616	52	6671
2026-01-15 11:47:11.86	38.58	6.59	-39.9	-41.2	20.2	0.00e+00	0	29	0	176160768	52	6604
2026-01-15 11:47:12.87	38.73	6.62	-39.9	-41.2	20.3	0.00e+00	0	29	0	178257920	52	6559
2026-01-15 11:47:13.88	38.87	6.66	-39.9	-41.2	20.4	0.00e+00	0	29	0	180355072	52	6550
2026-01-15 11:47:14.89	39.01	6.70	-39.7	-41.0	20.6	0.00e+00	0	29	0	182452224	52	6391
2026-01-15 11:47:15.90	39.15	6.73	-39.9	-41.1	20.4	0.00e+00	0	29	0	183500800	52	6534
2026-01-15 11:47:16.91	39.29	6.77	-40.0	-41.3	20.4	0.00e+00	0	29	0	185597952	52	6623
2026-01-15 11:47:17.92	39.43	6.81	-39.8	-41.1	20.5	0.00e+00	0	29	0	187695104	52	6468
2026-01-15 11:47:18.93	39.58	6.84	-39.8	-41.1	20.5	0.00e+00	0	29	0	189792256	52	6496
2026-01-15 11:47:19.94	39.72	6.88	-39.8	-41.1	20.4	0.00e+00	0	29	0	191889408	52	6528
2026-01-15 11:47:20.95	39.86	6.92	-39.8	-41.1	20.5	0.00e+00	0	29	0	192937984	52	6528
2026-01-15 11:47:21.96	40.01	6.95	-39.9	-41.1	20.4	0.00e+00	0	29	0	195035136	52	6539
2026-01-15 11:47:22.97	40.15	6.99	-39.7	-40.9	20.6	0.00e+00	0	29	0	197132288	52	6382
2026-01-15 11:47:23.98	40.29	7.02	-39.5	-40.8	20.8	0.00e+00	0	29	0	199229440	52	6246
2026-01-15 11:47:24.99	40.44	7.06	-39.8	-41.0	20.6	0.00e+00	0	29	0	201326592	52	6444
2026-01-15 11:47:26.00	40.58	7.10	-39.6	-40.9	20.8	0.00e+00	0	29	0	203423744	52	6323
2026-01-15 11:47:27.01	40.73	7.13	-39.6	-40.9	20.8	0.00e+00	0	29	0	204472320	52	6318
2026-01-15 11:47:28.02	40.87	7.17	-39.6	-40.8	20.8	0.00e+00	0	29	0	206569472	52	6301
2026-01-15 11:47:29.03	41.02	7.20	-39.5	-40.8	20.7	0.00e+00	0	29	0	208666624	52	6246
2026-01-15 11:47:30.04	41.17	7.24	-39.6	-40.8	20.6	0.00e+00	0	29	0	210763776	52	6260
2026-01-15 11:47:31.05	41.31	7.27	-39.6	-40.9	20.4	0.00e+00	0	29	0	212860928	52	6333
2026-01-15 11:47:32.06	41.46	7.31	-39.8	-41.1	20.5	0.00e+00	0	29	0	213909504	52	6480
2026-01-15 11:47:33.07	41.61	7.34	-39.8	-41.1	20.5	0.00e+00	0	29	0	216006656	52	6480
2026-01-15 11:47:34.08	41.76	7.38	-40.0	-41.3	20.4	0.00e+00	0	29	0	218103808	52	6647
2026-01-15 11:47:35.08	41.90	7.41	-39.8	-41.1	20.5	0.00e+00	0	29	0	220200960	52	6531
2026-01-15 11:47:36.09	42.05	7.45	-40.0	-41.3	20.4	0.00e+00	0	29	0	222298112	52	6636
2026-01-15 11:47:37.10	42.20	7.48	-40.1	-41.4	20.3	0.00e+00	0	29	0	223346688	52	6757
2026-01-15 11:47:38.11	42.35	7.52	-39.9	-41.2	20.4	0.00e+00	0	29	0	225443840	52	6575
2026-01-15 11:47:39.12	42.50	7.55	-39.9	-41.1	20.5	0.00e+00	0	29	0	227540992	52	6528
2026-01-15 11:47:40.13	42.65	7.58	-39.8	-41.1	20.5	0.00e+00	0	29	0	229638144	52	6532
2026-01-15 11:47:41.14	42.80	7.62	-39.9	-41.2	20.4	0.00e+00	0	29	0	231735296	52	6610
2026-01-15 11:47:42.15	42.95	7.65	-39.9	-41.2	20.3	0.00e+00	0	29	0	232783872	52	6611
2026-01-15 11:47:43.16	43.10	7.69	-40.1	-41.4	20.3	0.00e+00	0	29	0	234881024	52	6716
2026-01-15 11:47:44.17	43.25	7.72	-40.3	-41.7	20.1	0.00e+00	0	29	0	236978176	52	6943
2026-01-15 11:47:45.18	43.40	7.75	-40.1	-41.4	20.3	0.00e+00	0	29	0	239075328	52	6768
2026-01-15 11:47:46.19	43.55	7.79	-40.1	-41.4	20.4	0.00e+00	0	29	0	241172480	52	6715
2026-01-15 11:47:47.20	43.71	7.82	-40.0	-41.2	20.3	0.00e+00	0	29	0	242221056	52	6604
2026-01-15 11:47:48.21	43.86	7.85	-40.2	-41.5	20.2	0.00e+00	0	29	0	244318208	52	6807
2026-01-15 11:47:49.23	44.01	7.89	-40.1	-41.5	20.3	0.00e+00	0	29	0	246415360	52	6785
2026-01-15 11:47:50.24	44.17	7.92	-40.3	-41.6	20.0	0.00e+00	0	29	0	248512512	52	6902
2026-01-15 11:47:51.25	44.32	7.95	-40.4	-41.8	19.8	0.00e+00	0	29	0	250609664	52	7011
2026-01-15 11:47:52.26	44.47	7.99	-40.0	-41.3	20.4	0.00e+00	0	29	0	251658240	52	6638
2026-01-15 11:47:53.27	44.63	8.02	-40.0	-41.3	20.4	0.00e+00	0	29	0	253755392	52	6655
2026-01-15 11:47:54.27	44.78	8.05	-39.9	-41.2	20.5	0.00e+00	0	29	0	255852544	52	6580
2026-01-15 11:47:55.28	44.94	8.08	-39.9	-41.2	20.5	0.00e+00	0	29	0	257949696	52	6596
2026-01-15 11:47:56.29	45.09	8.11	-40.0	-41.3	20.4	0.00e+00	0	29	0	260046848	52	6639
2026-01-15 11:47:57.30	45.25	8.15	-40.1	-41.4	20.3	0.00e+00	0	29	0	261095424	52	6751
2026-01-15 11:47:58.31	45.40	8.18	-40.2	-41.5	20.2	0.00e+00	0	29	0	263192576	52	6828
2026-01-15 11:47:59.32	45.56	8.21	-40.2	-41.5	20.2	0.00e+00	0	29	0	265289728	52	6804
2026-01-15 11:48:00.33	45.72	8.24	-40.2	-41.5	20.2	0.00e+00	0	29	0	267386880	52	6848
2026-01-15 11:48:01.34	45.87	8.27	-40.3	-41.6	20.2	0.00e+00	0	29	0	269484032	52	6882
2026-01-15 11:48:02.35	46.03	8.31	-40.2	-41.5	20.3	0.00e+00	0	29	0	271581184	52	6773
2026-01-15 11:48:03.36	46.19	8.34	-40.1	-41.4	20.3	0.00e+00	0	29	0	272629760	52	6758
2026-01-15 11:48:04.37	46.34	8.37	-40.1	-41.4	20.3	0.00e+00	0	29	0	274726912	52	6741
2026-01-15 11:48:05.38	46.50	8.40	-40.1	-41.4	20.3	0.00e+00	0	29	0	276824064	52	6707
2026-01-15 11:48:06.39	46.66	8.43	-40.1	-41.4	20.3	0.00e+00	0	29	0	278921216	52	6733
2026-01-15 11:48:07.40	46.82	8.46	-40.2	-41.5	20.2	0.00e+00	0	29	0	281018368	52	6843
2026-01-15 11:48:08.41	46.98	8.49	-40.1	-41.5	20.3	0.00e+00	0	29	0	282066944	52	6771
2026-01-15 11:48:09.42	47.14	8.52	-40.2	-41.5	20.3	0.00e+00	0	29	0	284164096	52	6807
2026-01-15 11:48:10.43	47.30	8.55	-40.2	-41.5	20.0	0.00e+00	0	29	0	286261248	52	6828
2026-01-15 11:48:11.44	47.46	8.58	-40.3	-41.6	20.1	0.00e+00	0	29	0	288358400	52	6910
2026-01-15 11:48:12.45	47.62	8.61	-40.3	-41.6	20.0	0.00e+00	0	29	0	290455552	52	6923
2026-01-15 11:48:13.46	47.78	8.64	-40.2	-41.6	20.2	0.00e+00	0	29	0	291504128	52	6856
2026-01-15 11:48:14.47	47.94	8.67	-39.9	-41.2	20.5	0.00e+00	0	29	0	293601280	52	6567
2026-01-15 11:48:15.48	48.10	8.70	-39.9	-41.2	20.6	0.00e+00	0	29	0	295698432	52	6586
2026-01-15 11:48:16.49	48.26	8.73	-40.0	-41.3	20.4	0.00e+00	0	29	0	297795584	52	6670
2026-01-15 11:48:17.49	48.42	8.76	-40.0	-41.3	20.5	0.00e+00	0	29	0	299892736	52	6671
2026-01-15 11:48:18.50	48.59	8.79	-39.8	-41.1	20.7	0.00e+00	0	29	0	300941312	52	6500
2026-01-15 11:48:19.51	48.75	8.81	-40.0	-41.2	20.6	0.00e+00	0	29	0	303038464	52	6601
2026-01-15 11:48:20.52	48.91	8.84	-40.0	-41.3	20.5	0.00e+00	0	29	0	305135616	52	6691
2026-01-15 11:48:21.53	49.07	8.87	-40.0	-41.3	20.5	0.00e+00	0	29	0	307232768	52	6654
2026-01-15 11:48:22.54	49.24	8.90	-40.2	-41.5	20.3	0.00e+00	0	29	0	309329920	52	6796
2026-01-15 11:48:23.55	49.40	8.93	-40.0	-41.3	20.4	0.00e+00	0	29	0	310378496	52	6668
2026-01-15 11:48:24.56	49.57	8.96	-39.9	-41.2	20.6	0.00e+00	0	29	0	312475648	52	6573
2026-01-15 11:48:25.57	49.73	8.98	-39.9	-41.2	20.5	0.00e+00	0	29	0	314572800	52	6549
2026-01-15 11:48:26.58	49.90	9.01	-40.0	-41.2	20.5	0.00e+00	0	29	0	316669952	52	6615
2026-01-15 11:48:27.59	50.06	9.04	-40.1	-41.4	20.4	0.00e+00	0	29	0	318767104	52	6728
2026-01-15 11:48:28.60	50.23	9.06	-39.9	-41.2	20.2	0.00e+00	0	29	0	319815680	52	6564
2026-01-15 11:48:29.61	50.39	9.09	-39.9	-41.1	20.6	0.00e+00	0	29	0	321912832	52	6519
2026-01-15 11:48:30.61	50.56	9.12	-39.8	-41.0	20.7	0.00e+00	0	29	0	324009984	52	6461
2026-01-15 11:48:31.62	50.72	9.15	-39.7	-40.9	20.9	0.00e+00	0	29	0	326107136	52	6364
2026-01-15 11:48:32.64	50.89	9.17	-39.7	-40.9	20.9	0.00e+00	0	29	0	328204288	52	6369
2026-01-15 11:48:33.65	51.06	9.20	-39.7	-40.9	20.9	0.00e+00	0	29	0	329252864	52	6382
2026-01-15 11:48:34.66	51.22	9.22	-39.8	-41.0	20.7	0.00e+00	0	29	0	331350016	52	6433
2026-01-15 11:48:35.66	51.39	9.25	-39.7	-40.9	20.9	0.00e+00	0	29	0	333447168	52	6327
2026-01-15 11:48:36.68	51.56	9.28	-39.8	-41.0	20.8	0.00e+00	0	29	0	335544320	52	6417
2026-01-15 11:48:37.69	51.73	9.30	-39.8	-41.0	20.8	0.00e+00	0	29	0	337641472	52	6459
2026-01-15 11:48:38.69	51.89	9.33	-39.8	-41.1	20.7	0.00e+00	0	29	0	339738624	52	6475
2026-01-15 11:48:39.70	52.06	9.35	-39.8	-41.0	20.7	0.00e+00	0	29	0	340787200	52	6426
2026-01-15 11:48:40.71	52.23	9.38	-39.8	-41.0	20.8	0.00e+00	0	29	0	342884352	52	6423
2026-01-15 11:48:41.72	52.40	9.40	-39.8	-41.1	20.6	0.00e+00	0	29	0	344981504	52	6498
2026-01-15 11:48:42.73	52.57	9.43	-39.8	-41.1	20.7	0.00e+00	0	29	0	347078656	52	6476
2026-01-15 11:48:43.74	52.74	9.45	-39.7	-40.9	20.9	0.00e+00	0	29	0	348127232	52	6389
2026-01-15 11:48:44.75	52.91	9.47	-39.7	-40.9	20.9	0.00e+00	0	29	0	350224384	52	6375
2026-01-15 11:48:45.76	53.08	9.50	-39.7	-41.0	20.8	0.00e+00	0	29	0	352321536	52	6404
2026-01-15 11:48:46.77	53.25	9.52	-39.7	-40.9	20.9	0.00e+00	0	29	0	354418688	52	6356
2026-01-15 11:48:47.78	53.42	9.55	-39.6	-40.8	21.0	0.00e+00	0	29	0	356515840	52	6294
2026-01-15 11:48:48.79	53.59	9.57	-39.6	-40.8	21.0	0.00e+00	0	29	0	357564416	52	6277
2026-01-15 11:48:49.80	53.76	9.59	-39.6	-40.8	20.9	0.00e+00	0	29	0	359661568	52	6299
2026-01-15 11:48:50.81	53.94	9.62	-39.6	-40.8	21.0	0.00e+00	0	29	0	361758720	52	6261
2026-01-15 11:48:51.82	54.11	9.64	-39.4	-40.6	21.2	0.00e+00	0	29	0	363855872	52	6115
2026-01-15 11:48:52.83	54.28	9.66	-39.5	-40.6	21.2	0.00e+00	0	29	0	365953024	52	6166
2026-01-15 11:48:53.84	54.45	9.68	-39.4	-40.5	21.2	0.00e+00	0	29	0	368050176	52	6101
2026-01-15 11:48:54.85	54.62	9.71	-39.4	-40.5	21.3	0.00e+00	0	29	0	369098752	52	6081
2026-01-15 11:48:55.86	54.80	9.73	-39.4	-40.6	21.2	0.00e+00	0	29	0	371195904	52	6134
2026-01-15 11:48:56.87	54.97	9.75	-39.4	-40.6	21.3	0.00e+00	0	29	0	373293056	52	6107
2026-01-15 11:48:57.88	55.14	9.77	-39.3	-40.5	21.3	0.00e+00	0	29	0	375390208	52	6057
2026-01-15 11:48:58.89	55.32	9.79	-39.3	-40.4	21.3	0.00e+00	0	29	0	377487360	52	6024
2026-01-15 11:48:59.90	55.49	9.81	-39.3	-40.5	21.3	0.00e+00	0	29	0	378535936	52	6065
2026-01-15 11:49:00.91	55.67	9.83	-39.4	-40.6	21.1	0.00e+00	0	29	0	380633088	52	6135
2026-01-15 11:49:01.92	55.84	9.86	-39.5	-40.7	20.9	0.00e+00	0	29	0	382730240	52	6183
2026-01-15 11:49:02.93	56.01	9.88	-39.5	-40.6	21.0	0.00e+00	0	29	0	384827392	52	6161
2026-01-15 11:49:03.94	56.19	9.90	-39.5	-40.7	21.1	0.00e+00	0	29	0	386924544	52	6223
2026-01-15 11:49:04.95	56.36	9.92	-39.5	-40.7	21.1	0.00e+00	0	29	0	387973120	52	6174
2026-01-15 11:49:05.96	56.54	9.94	-39.6	-40.8	20.9	0.00e+00	0	29	0	390070272	52	6274
2026-01-15 11:49:06.97	56.71	9.96	-39.6	-40.7	21.1	0.00e+00	0	29	0	392167424	52	6241
2026-01-15 11:49:07.98	56.89	9.98	-39.6	-40.8	20.9	0.00e+00	0	29	0	394264576	52	6290
2026-01-15 11:49:08.99	57.07	9.99	-39.6	-40.8	21.0	0.00e+00	0	29	0	396361728	52	6302
2026-01-15 11:49:10.00	57.24	10.01	-39.7	-40.9	20.9	0.00e+00	0	29	0	397410304	52	6343
2026-01-15 11:49:11.01	57.42	10.03	-39.8	-41.1	20.9	0.00e+00	0	29	0	399507456	52	6470
2026-01-15 11:49:12.02	57.60	10.05	-39.7	-40.9	20.8	0.00e+00	0	29	0	401604608	52	6339
2026-01-15 11:49:13.03	57.77	10.07	-39.5	-40.7	21.1	0.00e+00	0	29	0	403701760	52	6185
2026-01-15 11:49:14.03	57.95	10.09	-39.7	-40.9	20.9	0.00e+00	0	29	0	405798912	52	6355
2026-01-15 11:49:15.04	58.13	10.11	-39.7	-40.9	20.9	0.00e+00	0	29	0	407896064	52	6361
2026-01-15 11:49:16.05	58.30	10.12	-39.7	-40.9	21.0	0.00e+00	0	29	0	408944640	52	6348
2026-01-15 11:49:17.06	58.48	10.14	-39.9	-41.1	20.8	0.00e+00	0	29	0	411041792	52	6507
2026-01-15 11:49:18.07	58.66	10.16	-39.9	-41.2	20.6	0.00e+00	0	29	0	413138944	52	6545
2026-01-15 11:49:19.08	58.84	10.17	-40.1	-41.4	20.4	0.00e+00	0	29	0	415236096	52	6724
2026-01-15 11:49:20.09	59.02	10.19	-40.1	-41.3	20.5	0.00e+00	0	29	0	416284672	52	6680
2026-01-15 11:49:21.10	59.19	10.21	-40.1	-41.4	20.4	0.00e+00	0	29	0	418381824	52	6741
2026-01-15 11:49:22.11	59.37	10.22	-40.1	-41.4	20.5	0.00e+00	0	29	0	420478976	52	6737
2026-01-15 11:49:23.12	59.55	10.24	-40.1	-41.4	20.5	0.00e+00	0	29	0	422576128	52	6713
2026-01-15 11:49:24.13	59.73	10.26	-40.2	-41.5	20.4	0.00e+00	0	29	0	424673280	52	6770
2026-01-15 11:49:25.13	59.91	10.27	-40.3	-41.6	20.3	0.00e+00	0	29	0	425721856	52	6869
2026-01-15 11:49:26.14	60.09	10.29	-40.2	-41.5	20.3	0.00e+00	0	29	0	427819008	52	6846
2026-01-15 11:49:27.15	60.27	10.30	-40.4	-41.7	20.2	0.00e+00	0	29	0	429916160	52	6961
2026-01-15 11:49:28.16	60.45	10.32	-40.4	-41.7	20.2	0.00e+00	0	29	0	432013312	52	6989
2026-01-15 11:49:29.17	60.63	10.33	-40.4	-41.8	20.1	0.00e+00	0	29	0	434110464	52	7018
2026-01-15 11:49:30.18	60.81	10.35	-40.6	-42.0	19.9	0.00e+00	0	29	0	436207616	52	7234
2026-01-15 11:49:31.19	60.99	10.36	-40.6	-42.0	19.7	0.00e+00	0	29	0	437256192	54	6421
2026-01-15 11:49:32.20	61.17	10.37	-40.7	-42.2	19.6	0.00e+00	0	29	0	439353344	54	6549
2026-01-15 11:49:33.21	61.35	10.39	-41.0	-42.5	19.4	0.00e+00	0	29	0	441450496	54	6787
2026-01-15 11:49:34.22	61.53	10.40	-40.9	-42.4	19.5	0.00e+00	0	29	0	443547648	54	6721
2026-01-15 11:49:35.23	61.71	10.41	-41.0	-42.5	19.3	0.00e+00	0	29	0	445644800	54	6786
2026-01-15 11:49:36.24	61.89	10.43	-40.9	-42.3	19.4	0.00e+00	0	29	0	446693376	54	6692
2026-01-15 11:49:37.25	62.07	10.44	-40.8	-42.3	19.5	0.00e+00	0	29	0	448790528	54	6639
2026-01-15 11:49:38.26	62.26	10.45	-40.8	-42.3	19.6	0.00e+00	0	29	0	450887680	54	6654
2026-01-15 11:49:39.27	62.44	10.46	-40.8	-42.3	19.5	0.00e+00	0	29	0	452984832	54	6644
2026-01-15 11:49:40.28	62.62	10.48	-40.8	-42.2	19.7	0.00e+00	0	29	0	455081984	54	6577
2026-01-15 11:49:41.29	62.80	10.49	-40.3	-41.7	20.2	0.00e+00	0	29	0	456130560	54	6201
2026-01-15 11:49:42.30	62.98	10.50	-40.1	-41.4	20.4	0.00e+00	0	29	0	458227712	54	6018
2026-01-15 11:49:43.30	63.16	10.51	-40.1	-41.5	20.4	0.00e+00	0	29	0	460324864	54	6038
2026-01-15 11:49:44.31	63.35	10.52	-40.1	-41.4	20.5	0.00e+00	0	29	0	462422016	54	5997
2026-01-15 11:49:45.32	63.53	10.53	-40.1	-41.4	20.4	0.00e+00	0	29	0	464519168	54	6015
2026-01-15 11:49:46.33	63.71	10.54	-40.1	-41.5	20.4	0.00e+00	0	29	0	465567744	54	6038
2026-01-15 11:49:47.33	63.89	10.55	-40.2	-41.6	20.2	0.00e+00	0	29	0	467664896	54	6108
2026-01-15 11:49:48.35	64.08	10.56	-40.4	-41.7	20.1	0.00e+00	0	29	0	469762048	54	6227
2026-01-15 11:49:49.36	64.26	10.57	-40.4	-41.7	20.1	0.00e+00	0	29	0	471859200	54	6217
2026-01-15 11:49:50.36	64.44	10.58	-40.4	-41.7	20.1	0.00e+00	0	29	0	473956352	54	6214
2026-01-15 11:49:51.37	64.62	10.59	-40.4	-41.7	20.1	0.00e+00	0	29	0	475004928	54	6234
2026-01-15 11:49:52.38	64.81	10.60	-40.5	-41.8	20.0	0.00e+00	0	29	0	477102080	54	6308
2026-01-15 11:49:53.39	64.99	10.61	-40.3	-41.7	20.1	0.00e+00	0	29	0	479199232	54	6197
2026-01-15 11:49:54.40	65.18	10.62	-40.4	-41.7	20.2	0.00e+00	0	29	0	481296384	54	6218
2026-01-15 11:49:55.41	65.36	10.62	-40.2	-41.5	20.4	0.00e+00	0	29	0	483393536	54	6065
2026-01-15 11:49:56.42	65.54	10.63	-40.3	-41.6	20.2	0.00e+00	0	29	0	484442112	54	6124
2026-01-15 11:49:57.43	65.73	10.64	-39.9	-41.2	20.7	0.00e+00	0	29	0	486539264	54	5845
2026-01-15 11:49:58.44	65.91	10.65	-39.7	-40.9	20.8	0.00e+00	0	29	0	488636416	52	6388
2026-01-15 11:49:59.45	66.09	10.65	-39.7	-41.0	20.9	0.00e+00	0	29	0	490733568	52	6396
2026-01-15 11:50:00.46	66.28	10.66	-39.7	-41.0	20.9	0.00e+00	0	29	0	492830720	52	6399
2026-01-15 11:50:01.47	66.46	10.67	-39.9	-41.1	20.8	0.00e+00	0	29	0	493879296	52	6521
2026-01-15 11:50:02.48	66.65	10.67	-39.7	-41.0	20.9	0.00e+00	0	29	0	495976448	52	6395
2026-01-15 11:50:03.49	66.83	10.68	-39.7	-40.9	20.9	0.00e+00	0	29	0	498073600	52	6356
2026-01-15 11:50:04.50	67.02	10.69	-39.8	-41.0	20.8	0.00e+00	0	29	0	500170752	52	6443
2026-01-15 11:50:05.51	67.20	10.69	-39.7	-40.9	20.9	0.00e+00	0	29	0	502267904	52	6386
2026-01-15 11:50:06.52	67.39	10.70	-39.7	-41.0	20.9	0.00e+00	0	29	0	504365056	52	6393
2026-01-15 11:50:07.52	67.57	10.70	-39.8	-41.0	20.8	0.00e+00	0	29	0	505413632	52	6449
2026-01-15 11:50:08.53	67.75	10.71	-39.8	-41.1	20.8	0.00e+00	0	29	0	507510784	52	6488
2026-01-15 11:50:09.54	67.94	10.71	-39.9	-41.2	20.6	0.00e+00	0	29	0	509607936	52	6568
2026-01-15 11:50:10.55	68.12	10.72	-39.9	-41.2	20.6	0.00e+00	0	29	0	511705088	52	6567
2026-01-15 11:50:11.56	68.31	10.72	-39.8	-41.1	20.6	0.00e+00	0	29	0	513802240	52	6528
2026-01-15 11:50:12.57	68.49	10.72	-39.9	-41.1	20.7	0.00e+00	0	29	0	514850816	52	6536
2026-01-15 11:50:13.58	68.68	10.73	-39.8	-41.0	20.8	0.00e+00	0	29	0	516947968	52	6431
2026-01-15 11:50:14.59	68.86	10.73	-39.6	-40.8	21.0	0.00e+00	0	29	0	519045120	52	6290
2026-01-15 11:50:15.60	69.05	10.73	-39.3	-40.5	21.3	0.00e+00	0	29	0	521142272	52	6073
2026-01-15 11:50:16.61	69.23	10.74	-39.3	-40.5	21.2	0.00e+00	0	29	0	523239424	52	6047
2026-01-15 11:50:17.62	69.42	10.74	-39.3	-40.4	21.3	0.00e+00	0	29	0	524288000	52	6022
2026-01-15 11:50:18.63	69.60	10.74	-39.3	-40.5	21.1	0.00e+00	0	29	0	526385152	52	6103
2026-01-15 11:50:19.63	69.79	10.74	-39.4	-40.6	21.2	0.00e+00	0	29	0	528482304	52	6159
2026-01-15 11:50:20.64	69.97	10.74	-39.0	-40.3	21.4	0.00e+00	0	29	0	530579456	52	5899
2026-01-15 11:50:21.65	70.16	10.75	-39.2	-40.4	21.4	0.00e+00	0	29	0	532676608	52	6019
2026-01-15 11:50:22.66	70.34	10.75	-39.3	-40.5	21.2	0.00e+00	0	29	0	533725184	52	6055
2026-01-15 11:50:23.67	70.53	10.75	-39.5	-40.8	21.1	0.00e+00	0	29	0	535822336	52	6252
2026-01-15 11:50:24.68	70.71	10.75	-39.5	-40.7	21.2	0.00e+00	0	29	0	537919488	52	6197
2026-01-15 11:50:25.69	70.90	10.75	-39.7	-41.0	20.9	0.00e+00	0	29	0	540016640	52	6406
2026-01-15 11:50:26.70	71.08	10.75	-39.8	-41.0	20.8	0.00e+00	0	29	0	542113792	52	6423
2026-01-15 11:50:27.71	71.27	10.75	-39.6	-40.8	20.9	0.00e+00	0	29	0	543162368	52	6277
2026-01-15 11:50:28.72	71.46	10.75	-39.6	-40.8	21.0	0.00e+00	0	29	0	545259520	52	6298
2026-01-15 11:50:29.73	71.64	10.75	-39.5	-40.7	20.9	0.00e+00	0	29	0	547356672	52	6241
2026-01-15 11:50:30.74	71.83	10.75	-39.4	-40.6	21.5	0.00e+00	0	29	0	549453824	52	6140
2026-01-15 11:50:31.75	72.01	10.75	-39.0	-40.2	21.6	0.00e+00	0	29	0	551550976	52	5860
2026-01-15 11:50:32.76	72.20	10.74	-38.7	-39.9	21.9	0.00e+00	0	29	0	552599552	52	5642
2026-01-15 11:50:33.77	72.38	10.74	-39.0	-40.2	21.4	0.00e+00	0	29	0	554696704	50	6594
2026-01-15 11:50:34.78	72.57	10.74	-39.0	-40.3	21.4	0.00e+00	0	29	0	556793856	50	6645
2026-01-15 11:50:35.79	72.75	10.74	-38.6	-39.8	21.9	0.00e+00	0	29	0	558891008	50	6262
2026-01-15 11:50:36.80	72.94	10.73	-38.7	-39.8	21.8	0.00e+00	0	29	0	560988160	50	6310
2026-01-15 11:50:37.80	73.12	10.73	-38.6	-39.8	21.8	0.00e+00	0	29	0	562036736	50	6303
2026-01-15 11:50:38.82	73.31	10.73	-38.4	-39.6	22.1	0.00e+00	0	29	0	564133888	50	6122
2026-01-15 11:50:39.82	73.49	10.73	-38.5	-39.6	22.0	0.00e+00	0	29	0	566231040	50	6155
2026-01-15 11:50:40.84	73.68	10.72	-38.5	-39.6	21.9	0.00e+00	0	29	0	568328192	50	6165
2026-01-15 11:50:41.84	73.86	10.72	-38.4	-39.5	22.3	0.00e+00	0	29	0	570425344	50	6083
2026-01-15 11:50:42.85	74.05	10.71	-38.3	-39.4	22.2	0.00e+00	0	29	0	572522496	50	6017
2026-01-15 11:50:43.86	74.23	10.71	-38.1	-39.3	22.4	0.00e+00	0	29	0	573571072	50	5910
2026-01-15 11:50:44.87	74.42	10.70	-38.2	-39.3	22.4	0.00e+00	0	29	0	575668224	50	5916
2026-01-15 11:50:45.88	74.60	10.70	-38.3	-39.4	22.3	0.00e+00	0	29	0	577765376	50	5999
2026-01-15 11:50:46.89	74.79	10.69	-38.1	-39.3	22.3	0.00e+00	0	29	0	579862528	50	5923
2026-01-15 11:50:47.90	74.97	10.69	-38.0	-39.2	22.5	0.00e+00	0	29	0	581959680	50	5836
2026-01-15 11:50:48.91	75.16	10.68	-38.1	-39.3	22.3	0.00e+00	0	29	0	583008256	50	5931
2026-01-15 11:50:49.92	75.34	10.68	-38.0	-39.3	22.4	0.00e+00	0	29	0	585105408	50	5911
2026-01-15 11:50:50.93	75.53	10.67	-38.1	-39.3	22.4	0.00e+00	0	29	0	587202560	50	5954
2026-01-15 11:50:51.93	75.71	10.66	-38.3	-39.6	22.1	0.00e+00	0	29	0	589299712	50	6139
2026-01-15 11:50:52.94	75.89	10.66	-38.2	-39.5	22.2	0.00e+00	0	29	0	591396864	50	6064
2026-01-15 11:50:53.95	76.08	10.65	-38.1	-39.4	22.2	0.00e+00	0	29	0	592445440	50	6033
2026-01-15 11:50:54.96	76.26	10.64	-38.2	-39.6	22.1	0.00e+00	0	29	0	594542592	50	6128
2026-01-15 11:50:55.97	76.44	10.64	-38.2	-39.6	22.1	0.00e+00	0	29	0	596639744	50	6152
2026-01-15 11:50:56.98	76.63	10.63	-38.1	-39.4	22.3	0.00e+00	0	29	0	598736896	50	6019
2026-01-15 11:50:57.99	76.81	10.62	-38.1	-39.5	22.2	0.00e+00	0	29	0	600834048	50	6049
2026-01-15 11:50:59.00	77.00	10.61	-38.0	-39.4	22.4	0.00e+00	0	29	0	601882624	50	5974
2026-01-15 11:51:00.01	77.18	10.60	-38.2	-39.5	22.2	0.00e+00	0	29	0	603979776	50	6087
2026-01-15 11:51:01.02	77.36	10.59	-38.2	-39.5	22.2	0.00e+00	0	29	0	606076928	50	6070
2026-01-15 11:51:02.03	77.55	10.58	-38.3	-39.6	22.2	0.00e+00	0	29	0	608174080	50	6135
2026-01-15 11:51:03.04	77.73	10.58	-38.2	-39.5	22.1	0.00e+00	0	29	0	610271232	50	6067
2026-01-15 11:51:04.05	77.91	10.57	-38.2	-39.5	22.1	0.00e+00	0	29	0	611319808	50	6052
2026-01-15 11:51:05.06	78.10	10.56	-38.2	-39.4	22.3	0.00e+00	0	29	0	613416960	50	5981
2026-01-15 11:51:06.06	78.28	10.55	-38.3	-39.5	22.2	0.00e+00	0	29	0	615514112	50	6056
2026-01-15 11:51:07.07	78.46	10.54	-38.5	-39.6	22.1	0.00e+00	0	29	0	617611264	50	6116
2026-01-15 11:51:08.08	78.64	10.53	-38.5	-39.7	22.1	0.00e+00	0	29	0	619708416	50	6174
2026-01-15 11:51:09.09	78.83	10.51	-38.6	-39.8	22.0	0.00e+00	0	29	0	620756992	50	6250
2026-01-15 11:51:10.10	79.01	10.50	-38.7	-39.8	21.9	0.00e+00	0	29	0	622854144	50	6292
2026-01-15 11:51:11.11	79.19	10.49	-38.9	-40.0	21.8	0.00e+00	0	29	0	624951296	50	6419
2026-01-15 11:51:12.12	79.37	10.48	-38.8	-39.9	21.8	0.00e+00	0	29	0	627048448	50	6387
2026-01-15 11:51:13.13	79.56	10.47	-39.0	-40.2	21.6	0.00e+00	0	29	0	629145600	50	6572
2026-01-15 11:51:14.14	79.74	10.46	-39.2	-40.4	21.4	0.00e+00	0	29	0	630194176	50	6732
2026-01-15 11:51:15.15	79.92	10.44	-38.9	-40.1	21.6	0.00e+00	0	29	0	632291328	50	6475
2026-01-15 11:51:16.16	80.10	10.43	-39.1	-40.3	21.5	0.00e+00	0	29	0	634388480	50	6640
2026-01-15 11:51:17.17	80.28	10.42	-39.0	-40.1	21.5	0.00e+00	0	29	0	636485632	50	6535
2026-01-15 11:51:18.17	80.46	10.41	-39.0	-40.1	21.5	0.00e+00	0	29	0	638582784	50	6538
2026-01-15 11:51:19.18	80.65	10.39	-38.9	-40.0	21.6	0.00e+00	0	29	0	639631360	50	6444
2026-01-15 11:51:20.19	80.83	10.38	-38.7	-39.8	21.8	0.00e+00	0	29	0	641728512	50	6295
2026-01-15 11:51:21.20	81.01	10.36	-38.9	-40.0	21.6	0.00e+00	0	29	0	643825664	50	6405
2026-01-15 11:51:22.21	81.19	10.35	-38.6	-39.6	21.9	0.00e+00	0	29	0	645922816	50	6147
2026-01-15 11:51:23.22	81.37	10.34	-38.5	-39.6	21.8	0.00e+00	0	29	0	648019968	50	6135
2026-01-15 11:51:24.23	81.55	10.32	-38.4	-39.5	21.9	0.00e+00	0	29	0	649068544	50	6057
2026-01-15 11:51:25.25	81.73	10.31	-38.5	-39.6	22.1	0.00e+00	0	29	0	651165696	50	6104
2026-01-15 11:51:26.25	81.91	10.29	-38.5	-39.6	22.0	0.00e+00	0	29	0	653262848	50	6123
2026-01-15 11:51:27.26	82.09	10.28	-38.5	-39.5	22.1	0.00e+00	0	29	0	655360000	50	6103
2026-01-15 11:51:28.27	82.27	10.26	-38.5	-39.7	21.9	0.00e+00	0	29	0	657457152	50	6183
2026-01-15 11:51:29.29	82.45	10.24	-38.4	-39.6	22.0	0.00e+00	0	29	0	658505728	50	6108
2026-01-15 11:51:30.29	82.63	10.23	-38.4	-39.6	22.1	0.00e+00	0	29	0	660602880	50	6110
2026-01-15 11:51:31.30	82.81	10.21	-38.5	-39.6	22.1	0.00e+00	0	29	0	662700032	50	6112
2026-01-15 11:51:32.31	82.99	10.20	-38.4	-39.5	22.1	0.00e+00	0	29	0	664797184	50	6070
2026-01-15 11:51:33.32	83.17	10.18	-38.3	-39.4	22.2	0.00e+00	0	29	0	666894336	50	5987
2026-01-15 11:51:34.33	83.34	10.16	-38.4	-39.4	22.0	0.00e+00	0	29	0	668991488	50	5988
2026-01-15 11:51:35.34	83.52	10.15	-38.3	-39.4	22.2	0.00e+00	0	29	0	670040064	50	5986
2026-01-15 11:51:36.35	83.70	10.13	-38.4	-39.5	22.0	0.00e+00	0	29	0	672137216	50	6061
2026-01-15 11:51:37.36	83.88	10.11	-38.3	-39.4	22.2	0.00e+00	0	29	0	674234368	50	5994
2026-01-15 11:51:38.37	84.06	10.09	-38.4	-39.5	22.0	0.00e+00	0	29	0	676331520	50	6043
2026-01-15 11:51:39.38	84.23	10.07	-38.4	-39.5	17.7	0.00e+00	0	29	0	678428672	50	6061
2026-01-15 11:51:40.39	84.41	10.06	-38.6	-39.6	22.2	0.00e+00	0	29	0	679477248	50	6137
2026-01-15 11:51:41.40	84.59	10.04	-39.0	-40.1	22.1	0.00e+00	0	29	0	681574400	50	6486
2026-01-15 11:51:42.41	84.77	10.02	-38.2	-39.2	22.3	0.00e+00	0	29	0	683671552	50	5860
2026-01-15 11:51:43.42	84.94	10.00	-38.4	-39.4	22.0	0.00e+00	0	29	0	685768704	50	6019
2026-01-15 11:51:44.43	85.12	9.98	-38.1	-39.2	22.5	0.00e+00	0	29	0	687865856	50	5842
2026-01-15 11:51:45.44	85.29	9.96	-38.1	-39.2	22.5	0.00e+00	0	29	0	688914432	50	5853
2026-01-15 11:51:46.45	85.47	9.94	-37.9	-38.9	22.7	0.00e+00	0	29	0	691011584	50	5652
2026-01-15 11:51:47.46	85.65	9.92	-38.0	-39.0	22.5	0.00e+00	0	29	0	693108736	50	5748
2026-01-15 11:51:48.47	85.82	9.90	-38.0	-39.0	22.6	0.00e+00	0	29	0	695205888	50	5740
2026-01-15 11:51:49.48	86.00	9.88	-38.0	-39.0	22.5	0.00e+00	0	29	0	697303040	50	5746
2026-01-15 11:51:50.49	86.17	9.86	-38.0	-39.1	22.4	0.00e+00	0	29	0	698351616	50	5787
2026-01-15 11:51:51.50	86.35	9.84	-38.0	-39.1	22.5	0.00e+00	0	29	0	700448768	50	5790
2026-01-15 11:51:52.51	86.52	9.82	-38.0	-39.2	22.4	0.00e+00	0	29	0	702545920	50	5857
2026-01-15 11:51:53.52	86.70	9.80	-38.1	-39.3	22.3	0.00e+00	0	29	0	704643072	50	5925
2026-01-15 11:51:54.53	86.87	9.78	-38.3	-39.5	22.1	0.00e+00	0	29	0	706740224	50	6044
2026-01-15 11:51:55.54	87.04	9.75	-38.2	-39.4	22.2	0.00e+00	0	29	0	707788800	50	5983
2026-01-15 11:51:56.54	87.22	9.73	-38.0	-39.2	22.4	0.00e+00	0	29	0	709885952	50	5832
2026-01-15 11:51:57.55	87.39	9.71	-38.1	-39.2	22.3	0.00e+00	0	29	0	711983104	50	5866
2026-01-15 11:51:58.57	87.57	9.69	-38.2	-39.3	22.3	0.00e+00	0	29	0	714080256	50	5912
2026-01-15 11:51:59.57	87.74	9.67	-38.4	-39.4	22.2	0.00e+00	0	29	0	716177408	50	6014
2026-01-15 11:52:00.58	87.91	9.64	-38.3	-39.3	22.2	0.00e+00	0	29	0	717225984	50	5940
2026-01-15 11:52:01.59	88.08	9.62	-38.3	-39.4	22.2	0.00e+00	0	29	0	719323136	50	5974
2026-01-15 11:52:02.60	88.25	9.60	-38.3	-39.4	22.2	0.00e+00	0	29	0	721420288	50	6005
2026-01-15 11:52:03.62	88.43	9.57	-38.1	-39.2	22.4	0.00e+00	0	29	0	723517440	50	5854
2026-01-15 11:52:04.63	88.60	9.55	-38.0	-39.2	22.4	0.00e+00	0	29	0	725614592	50	5832
2026-01-15 11:52:05.64	88.77	9.53	-37.8	-39.2	22.4	0.00e+00	0	29	0	726663168	50	5872
2026-01-15 11:52:06.65	88.94	9.50	-37.5	-39.0	22.4	0.00e+00	0	29	0	728760320	48	6455
2026-01-15 11:52:07.66	89.11	9.48	-37.4	-38.9	22.6	0.00e+00	0	29	0	730857472	48	6381
2026-01-15 11:52:08.67	89.28	9.45	-37.5	-38.9	22.6	0.00e+00	0	29	0	732954624	48	6345
2026-01-15 11:52:09.68	89.45	9.43	-37.8	-39.0	22.5	0.00e+00	0	29	0	735051776	48	6463
2026-01-15 11:52:10.69	89.62	9.41	-38.1	-39.2	22.4	0.00e+00	0	29	0	737148928	48	6542
2026-01-15 11:52:11.70	89.79	9.38	-38.3	-39.4	22.2	0.00e+00	0	29	0	738197504	48	6697
2026-01-15 11:52:12.71	89.96	9.36	-38.5	-39.6	21.9	0.00e+00	0	29	0	740294656	48	6912
2026-01-15 11:52:13.72	90.13	9.33	-38.7	-39.9	21.7	0.00e+00	0	29	0	742391808	48	7148
2026-01-15 11:52:14.72	90.30	9.31	-38.2	-39.7	21.9	0.00e+00	0	29	0	744488960	48	6931
2026-01-15 11:52:15.73	90.47	9.28	-38.1	-39.6	21.9	0.00e+00	0	29	0	746586112	48	6920
2026-01-15 11:52:16.74	90.64	9.25	-38.0	-39.6	21.9	0.00e+00	0	29	0	747634688	48	6907
2026-01-15 11:52:17.75	90.80	9.23	-38.1	-39.6	22.0	0.00e+00	0	29	0	749731840	48	6899
2026-01-15 11:52:18.76	90.97	9.20	-38.3	-39.7	21.9	0.00e+00	0	29	0	751828992	48	6936
2026-01-15 11:52:19.77	91.14	9.18	-38.4	-39.8	21.8	0.00e+00	0	29	0	753926144	48	7067
2026-01-15 11:52:20.78	91.31	9.15	-38.2	-39.7	21.9	0.00e+00	0	29	0	756023296	48	6952
2026-01-15 11:52:21.79	91.47	9.12	-38.2	-39.7	21.8	0.00e+00	0	29	0	757071872	48	7003
2026-01-15 11:52:22.80	91.64	9.09	-38.2	-39.7	21.8	0.00e+00	0	29	0	759169024	48	6933
2026-01-15 11:52:23.80	91.80	9.07	-38.3	-39.8	21.6	0.00e+00	0	29	0	761266176	48	7042
2026-01-15 11:52:24.81	91.97	9.04	-38.3	-39.8	21.7	0.00e+00	0	29	0	763363328	48	7010
2026-01-15 11:52:25.82	92.14	9.01	-38.6	-40.1	21.5	0.00e+00	0	29	0	765460480	48	7327
2026-01-15 11:52:26.83	92.30	8.99	-38.7	-40.1	21.5	0.00e+00	0	29	0	766509056	48	7280
2026-01-15 11:52:27.84	92.47	8.96	-38.9	-40.3	21.1	0.00e+00	0	29	0	768606208	50	6616
2026-01-15 11:52:28.85	92.63	8.93	-39.1	-40.3	21.3	0.00e+00	0	29	0	770703360	50	6622
2026-01-15 11:52:29.86	92.80	8.90	-39.2	-40.5	21.1	0.00e+00	0	29	0	772800512	50	6789
2026-01-15 11:52:30.87	92.96	8.87	-39.3	-40.5	21.0	0.00e+00	0	29	0	774897664	50	6839
2026-01-15 11:52:31.88	93.12	8.84	-39.4	-40.6	20.9	0.00e+00	0	29	0	775946240	50	6882
2026-01-15 11:52:32.89	93.29	8.82	-39.6	-40.9	20.7	0.00e+00	0	29	0	778043392	50	7090
2026-01-15 11:52:33.90	93.45	8.79	-39.6	-41.0	20.6	0.00e+00	0	29	0	780140544	50	7188
2026-01-15 11:52:34.91	93.61	8.76	-40.0	-41.4	20.3	0.00e+00	0	29	0	782237696	52	6723
2026-01-15 11:52:35.92	93.78	8.73	-40.2	-41.6	20.1	0.00e+00	0	29	0	784334848	52	6863
2026-01-15 11:52:36.93	93.94	8.70	-40.4	-41.8	19.9	0.00e+00	0	29	0	785383424	52	7020
2026-01-15 11:52:37.94	94.10	8.67	-40.5	-41.9	19.7	0.00e+00	0	29	0	787480576	52	7103
2026-01-15 11:52:38.95	94.26	8.64	-40.4	-41.9	19.7	0.00e+00	0	29	0	789577728	52	7098
2026-01-15 11:52:39.96	94.42	8.61	-40.5	-42.0	19.6	0.00e+00	0	29	0	791674880	52	7248
2026-01-15 11:52:40.97	94.58	8.58	-40.3	-41.8	19.8	0.00e+00	0	29	0	793772032	52	7026
2026-01-15 11:52:41.97	94.74	8.55	-40.2	-41.6	20.0	0.00e+00	0	29	0	794820608	52	6913
2026-01-15 11:52:42.98	94.90	8.52	-40.2	-41.6	20.1	0.00e+00	0	29	0	796917760	52	6890
2026-01-15 11:52:43.99	95.06	8.49	-40.1	-41.6	20.1	0.00e+00	0	29	0	799014912	52	6893
2026-01-15 11:52:45.00	95.22	8.46	-39.9	-41.5	20.1	0.00e+00	0	29	0	801112064	52	6790
2026-01-15 11:52:46.01	95.38	8.43	-40.0	-41.6	20.0	0.00e+00	0	29	0	803209216	52	6861
2026-01-15 11:52:47.02	95.54	8.40	-40.1	-41.5	20.0	0.00e+00	0	29	0	805306368	52	6818
2026-01-15 11:52:48.03	95.70	8.37	-40.0	-41.5	20.1	0.00e+00	0	29	0	806354944	52	6837
2026-01-15 11:52:49.04	95.86	8.34	-40.0	-41.6	20.1	0.00e+00	0	29	0	808452096	52	6849
2026-01-15 11:52:50.05	96.02	8.30	-39.9	-41.7	20.0	0.00e+00	0	29	0	810549248	52	6929
2026-01-15 11:52:51.06	96.18	8.27	-39.9	-41.6	20.0	0.00e+00	0	29	0	812646400	52	6918
2026-01-15 11:52:52.07	96.33	8.24	-39.9	-41.7	19.9	0.00e+00	0	29	0	814743552	52	6945
2026-01-15 11:52:53.07	96.49	8.21	-40.0	-41.7	19.8	0.00e+00	0	29	0	815792128	52	6994
2026-01-15 11:52:54.08	96.65	8.18	-40.1	-41.9	19.7	0.00e+00	0	29	0	817889280	52	7137
2026-01-15 11:52:55.09	96.80	8.15	-40.3	-42.2	19.4	0.00e+00	0	29	0	819986432	52	7357
2026-01-15 11:52:56.10	96.96	8.11	-40.5	-42.4	19.2	0.00e+00	0	29	0	822083584	52	7557
2026-01-15 11:52:57.11	97.11	8.08	-40.9	-42.8	18.8	0.00e+00	0	29	0	824180736	54	7032
2026-01-15 11:52:58.12	97.27	8.05	-41.3	-43.1	18.6	0.00e+00	0	29	0	825229312	54	7269
2026-01-15 11:52:59.13	97.42	8.02	-41.4	-43.2	18.4	0.00e+00	0	29	0	827326464	54	7405
2026-01-15 11:53:00.14	97.58	7.98	-41.5	-43.4	18.2	0.00e+00	0	29	0	829423616	54	7555
2026-01-15 11:53:01.14	97.73	7.95	-41.4	-43.5	18.0	0.00e+00	0	29	0	831520768	54	7657
2026-01-15 11:53:02.15	97.89	7.92	-41.2	-43.4	18.2	0.00e+00	0	29	0	833617920	54	7539
2026-01-15 11:53:03.16	98.04	7.88	-41.2	-43.4	18.1	0.00e+00	0	29	0	834666496	54	7541
2026-01-15 11:53:04.17	98.19	7.85	-41.1	-43.4	18.2	0.00e+00	0	29	0	836763648	54	7538
2026-01-15 11:53:05.18	98.35	7.82	-41.1	-43.2	18.4	0.00e+00	0	29	0	838860800	54	7360
2026-01-15 11:53:06.19	98.50	7.78	-41.0	-43.1	18.4	0.00e+00	0	29	0	840957952	54	7286
2026-01-15 11:53:07.20	98.65	7.75	-40.9	-43.1	18.5	0.00e+00	0	29	0	843055104	54	7269
2026-01-15 11:53:08.21	98.80	7.72	-40.9	-43.1	18.5	0.00e+00	0	29	0	844103680	54	7262
2026-01-15 11:53:09.22	98.96	7.68	-40.5	-42.9	18.7	0.00e+00	0	29	0	846200832	54	7145
2026-01-15 11:53:10.23	99.11	7.65	-40.3	-42.9	18.7	0.00e+00	0	29	0	848297984	54	7159
2026-01-15 11:53:11.24	99.26	7.61	-40.4	-42.8	18.7	0.00e+00	0	29	0	850395136	54	7072
2026-01-15 11:53:12.25	99.41	7.58	-40.7	-42.7	18.9	0.00e+00	0	29	0	852492288	54	6970
2026-01-15 11:53:13.26	99.56	7.55	-41.0	-42.7	18.8	0.00e+00	0	29	0	853540864	54	6996
2026-01-15 11:53:14.27	99.71	7.51	-41.0	-42.7	18.9	0.00e+00	0	29	0	855638016	54	6930
2026-01-15 11:53:15.28	99.86	7.48	-41.0	-42.7	18.8	0.00e+00	0	29	0	857735168	54	6938
2026-01-15 11:53:16.29	100.01	7.44	-41.0	-42.7	18.8	0.00e+00	0	29	0	859832320	54	7000
2026-01-15 11:53:17.29	100.16	7.41	-41.0	-42.9	18.7	0.00e+00	0	29	0	861929472	54	7104
2026-01-15 11:53:18.30	100.31	7.37	-41.0	-43.0	18.6	0.00e+00	0	29	0	862978048	54	7225
2026-01-15 11:53:19.31	100.45	7.34	-41.1	-43.1	18.5	0.00e+00	0	29	0	865075200	54	7281
2026-01-15 11:53:20.33	100.60	7.30	-41.3	-43.2	18.3	0.00e+00	0	29	0	867172352	54	7419
2026-01-15 11:53:21.33	100.75	7.27	-41.4	-43.2	18.5	0.00e+00	0	29	0	869269504	54	7338
2026-01-15 11:53:22.34	100.90	7.23	-41.4	-43.2	18.3	0.00e+00	0	29	0	871366656	54	7340
2026-01-15 11:53:23.35	101.04	7.20	-41.2	-42.9	18.6	0.00e+00	0	29	0	873463808	54	7120
2026-01-15 11:53:24.36	101.19	7.16	-41.1	-42.7	18.8	0.00e+00	0	29	0	874512384	54	6955
2026-01-15 11:53:25.37	101.34	7.12	-40.9	-42.4	19.0	0.00e+00	0	29	0	876609536	54	6762
2026-01-15 11:53:26.38	101.48	7.09	-40.7	-42.2	19.4	0.00e+00	0	29	0	878706688	54	6571
2026-01-15 11:53:27.39	101.63	7.05	-40.6	-42.1	19.4	0.00e+00	0	29	0	880803840	54	6489
2026-01-15 11:53:28.40	101.77	7.02	-40.8	-42.4	19.1	0.00e+00	0	29	0	882900992	54	6724
2026-01-15 11:53:29.41	101.92	6.98	-41.0	-42.8	18.7	0.00e+00	0	29	0	883949568	54	7072
2026-01-15 11:53:30.42	102.06	6.94	-40.4	-42.4	18.9	0.00e+00	0	29	0	886046720	54	6761
2026-01-15 11:53:31.43	102.21	6.91	-40.2	-42.7	18.7	0.00e+00	0	29	0	888143872	54	6928
2026-01-15 11:53:32.44	102.35	6.87	-40.1	-42.8	18.6	0.00e+00	0	29	0	890241024	54	7053
2026-01-15 11:53:33.44	102.49	6.83	-40.2	-42.9	18.5	0.00e+00	0	29	0	892338176	54	7151
2026-01-15 11:53:34.45	102.64	6.80	-40.3	-43.1	18.3	0.00e+00	0	29	0	893386752	54	7271
2026-01-15 11:53:35.46	102.78	6.76	-40.2	-42.9	18.5	0.00e+00	0	29	0	895483904	54	7135
2026-01-15 11:53:36.47	102.92	6.72	-40.1	-42.8	18.6	0.00e+00	0	29	0	897581056	54	7020
2026-01-15 11:53:37.48	103.06	6.69	-40.3	-42.7	18.9	0.00e+00	0	29	0	899678208	54	6948
2026-01-15 11:53:38.48	103.21	6.65	-40.3	-42.2	19.3	0.00e+00	0	29	0	901775360	54	6543
2026-01-15 11:53:39.49	103.35	6.61	-40.5	-42.2	19.2	0.00e+00	0	29	0	902823936	54	6548
2026-01-15 11:53:40.50	103.49	6.58	-40.3	-41.9	19.5	0.00e+00	0	29	0	904921088	54	6331
2026-01-15 11:53:41.51	103.63	6.54	-40.4	-41.9	19.4	0.00e+00	0	29	0	907018240	54	6382
2026-01-15 11:53:42.52	103.77	6.50	-40.4	-41.9	19.4	0.00e+00	0	29	0	909115392	54	6356
2026-01-15 11:53:43.53	103.91	6.46	-40.3	-41.8	19.6	0.00e+00	0	29	0	911212544	54	6265
2026-01-15 11:53:44.54	104.05	6.43	-40.5	-42.1	19.4	0.00e+00	0	29	0	912261120	54	6473
2026-01-15 11:53:45.55	104.19	6.39	-40.3	-41.8	19.5	0.00e+00	0	29	0	914358272	54	6297
2026-01-15 11:53:46.56	104.33	6.35	-40.3	-42.0	19.4	0.00e+00	0	29	0	916455424	54	6391
2026-01-15 11:53:47.57	104.47	6.31	-40.3	-42.0	19.3	0.00e+00	0	29	0	918552576	54	6441
2026-01-15 11:53:48.57	104.60	6.27	-40.2	-42.0	19.3	0.00e+00	0	29	0	920649728	54	6416
2026-01-15 11:53:49.59	104.74	6.24	-39.9	-41.9	19.3	0.00e+00	0	29	0	921698304	54	6383
2026-01-15 11:53:50.60	104.88	6.20	-39.4	-41.8	19.4	0.00e+00	0	29	0	923795456	52	7050
2026-01-15 11:53:51.61	105.02	6.16	-39.1	-41.9	19.4	0.00e+00	0	29	0	925892608	52	7132
2026-01-15 11:53:52.61	105.15	6.12	-39.0	-42.0	19.3	0.00e+00	0	29	0	927989760	52	7181
2026-01-15 11:53:53.62	105.29	6.08	-39.1	-42.0	19.3	0.00e+00	0	29	0	930086912	52	7190
2026-01-15 11:53:54.63	105.43	6.04	-39.5	-41.7	19.5	0.00e+00	0	29	0	931135488	52	6996
2026-01-15 11:53:55.64	105.56	6.01	-40.2	-41.9	19.4	0.00e+00	0	29	0	933232640	52	7146
2026-01-15 11:53:56.65	105.70	5.97	-40.6	-42.1	19.2	0.00e+00	0	29	0	935329792	52	7313
2026-01-15 11:53:57.66	105.83	5.93	-40.5	-42.1	19.2	0.00e+00	0	29	0	937426944	52	7301
2026-01-15 11:53:58.67	105.97	5.89	-40.6	-42.3	19.0	0.00e+00	0	29	0	939524096	52	7454
2026-01-15 11:53:59.68	106.10	5.85	-40.5	-42.3	19.0	0.00e+00	0	29	0	940572672	52	7474
2026-01-15 11:54:00.69	106.24	5.81	-40.4	-42.1	19.2	0.00e+00	0	29	0	942669824	52	7326
2026-01-15 11:54:01.70	106.37	5.77	-39.9	-41.7	19.5	0.00e+00	0	29	0	944766976	52	6937
2026-01-15 11:54:02.71	106.50	5.73	-39.9	-41.5	19.7	0.00e+00	0	29	0	946864128	52	6841
2026-01-15 11:54:03.72	106.64	5.69	-39.9	-41.5	19.8	0.00e+00	0	29	0	948961280	52	6823
2026-01-15 11:54:04.72	106.77	5.66	-39.5	-41.0	20.3	0.00e+00	0	29	0	950009856	52	6413
2026-01-15 11:54:05.73	106.90	5.62	-39.5	-41.0	20.2	0.00e+00	0	29	0	952107008	52	6431
2026-01-15 11:54:06.74	107.03	5.58	-39.5	-40.9	20.3	0.00e+00	0	29	0	954204160	52	6331
2026-01-15 11:54:07.75	107.17	5.54	-39.1	-40.7	20.5	0.00e+00	0	29	0	956301312	52	6244
2026-01-15 11:54:08.76	107.30	5.50	-39.1	-40.9	20.3	0.00e+00	0	29	0	958398464	52	6344
2026-01-15 11:54:09.77	107.43	5.46	-38.3	-40.8	20.3	0.00e+00	0	29	0	959447040	50	7050
2026-01-15 11:54:10.78	107.56	5.42	-38.0	-41.0	20.2	0.00e+00	0	29	0	961544192	50	7193
2026-01-15 11:54:11.79	107.69	5.38	-37.9	-40.9	20.3	0.00e+00	0	29	0	963641344	50	7117
2026-01-15 11:54:12.80	107.82	5.34	-38.0	-40.9	20.2	0.00e+00	0	29	0	965738496	50	7169
2026-01-15 11:54:13.80	107.95	5.30	-38.1	-41.0	20.1	0.00e+00	0	29	0	967835648	50	7228
2026-01-15 11:54:14.82	108.08	5.26	-38.5	-41.0	20.1	0.00e+00	0	29	0	969932800	50	7198
2026-01-15 11:54:15.82	108.21	5.22	-38.8	-41.0	20.1	0.00e+00	0	29	0	970981376	50	7218
2026-01-15 11:54:16.83	108.34	5.18	-38.2	-40.8	20.4	0.00e+00	0	29	0	973078528	50	7011
2026-01-15 11:54:17.84	108.46	5.14	-38.0	-40.7	20.5	0.00e+00	0	29	0	975175680	50	6962
2026-01-15 11:54:18.85	108.59	5.10	-37.7	-40.7	20.4	0.00e+00	0	29	0	977272832	50	6995
2026-01-15 11:54:19.86	108.72	5.06	-37.7	-40.5	20.7	0.00e+00	0	29	0	979369984	48	7604
2026-01-15 11:54:20.87	108.85	5.02	-38.4	-40.7	20.3	0.00e+00	0	29	0	980418560	48	7820
2026-01-15 11:54:21.88	108.97	4.98	-39.2	-41.0	20.1	0.00e+00	0	29	0	982515712	50	7172
2026-01-15 11:54:22.88	109.10	4.94	-39.4	-41.1	20.0	0.00e+00	0	29	0	984612864	50	7278
2026-01-15 11:54:23.89	109.23	4.90	-39.5	-41.1	19.9	0.00e+00	0	29	0	986710016	50	7326
2026-01-15 11:54:24.90	109.35	4.86	-39.5	-41.2	19.8	0.00e+00	0	29	0	988807168	50	7377
2026-01-15 11:54:25.91	109.48	4.82	-39.7	-41.6	19.5	0.00e+00	0	29	0	989855744	50	7686
2026-01-15 11:54:26.92	109.60	4.78	-39.7	-41.5	19.7	0.00e+00	0	29	0	991952896	52	6781
2026-01-15 11:54:27.93	109.73	4.74	-40.2	-41.8	19.3	0.00e+00	0	29	0	994050048	52	7036
2026-01-15 11:54:28.94	109.85	4.70	-40.1	-41.5	19.5	0.00e+00	0	29	0	996147200	52	6840
2026-01-15 11:54:29.95	109.98	4.66	-40.1	-41.6	19.4	0.00e+00	0	29	0	998244352	52	6927
2026-01-15 11:54:30.96	110.10	4.62	-39.8	-41.5	19.6	0.00e+00	0	29	0	999292928	52	6805
2026-01-15 11:54:31.96	110.22	4.58	-39.5	-41.2	19.9	0.00e+00	0	29	0	1001390080	52	6552
2026-01-15 11:54:32.97	110.35	4.53	-39.6	-41.0	19.9	0.00e+00	0	29	0	1003487232	52	6441
2026-01-15 11:54:33.98	110.47	4.49	-39.6	-40.9	20.1	0.00e+00	0	29	0	1005584384	52	6389
2026-01-15 11:54:34.99	110.59	4.45	-39.6	-41.0	19.8	0.00e+00	0	29	0	1007681536	52	6456
2026-01-15 11:54:36.00	110.72	4.41	-39.5	-41.0	19.9	0.00e+00	0	29	0	1008730112	52	6454
2026-01-15 11:54:37.01	110.84	4.37	-39.5	-41.0	19.9	0.00e+00	0	29	0	1010827264	52	6438
2026-01-15 11:54:38.02	110.96	4.33	-39.9	-41.5	19.5	0.00e+00	0	29	0	1012924416	52	6777
2026-01-15 11:54:39.03	111.08	4.29	-40.0	-41.5	19.4	0.00e+00	0	29	0	1015021568	52	6770
2026-01-15 11:54:40.04	111.20	4.25	-39.8	-41.3	19.8	0.00e+00	0	29	0	1017118720	52	6620
2026-01-15 11:54:41.05	111.32	4.21	-39.9	-41.4	19.5	0.00e+00	0	29	0	1018167296	52	6768
2026-01-15 11:54:42.06	111.44	4.17	-39.8	-41.4	19.5	0.00e+00	0	29	0	1020264448	52	6724
2026-01-15 11:54:43.07	111.56	4.12	-40.0	-41.5	19.4	0.00e+00	0	29	0	1022361600	52	6847
2026-01-15 11:54:44.08	111.68	4.08	-39.9	-41.5	19.4	0.00e+00	0	29	0	1024458752	52	6785
2026-01-15 11:54:45.09	111.80	4.04	-39.8	-41.3	19.6	0.00e+00	0	29	0	1026555904	52	6680
2026-01-15 11:54:46.10	111.92	4.00	-39.8	-41.5	19.3	0.00e+00	0	29	0	1027604480	52	6782
2026-01-15 11:54:47.11	112.04	3.96	-39.6	-41.6	19.1	0.00e+00	0	29	0	1029701632	52	6885
2026-01-15 11:54:48.12	112.16	3.92	-38.9	-41.3	19.3	0.00e+00	0	29	0	1031798784	52	6690
2026-01-15 11:54:49.13	112.28	3.88	-38.8	-41.3	19.3	0.00e+00	0	29	0	1033895936	50	7460
2026-01-15 11:54:50.14	112.40	3.83	-39.1	-41.6	19.0	0.00e+00	0	29	0	1035993088	50	7719
2026-01-15 11:54:51.15	112.51	3.79	-39.7	-41.9	18.8	0.00e+00	0	29	0	1038090240	50	8015
2026-01-15 11:54:52.16	112.63	3.75	-39.4	-41.3	19.4	0.00e+00	0	29	0	1039138816	50	7453
2026-01-15 11:54:53.16	112.75	3.71	-40.1	-41.9	18.7	0.00e+00	0	29	0	1041235968	52	7158
2026-01-15 11:54:54.17	112.86	3.67	-40.3	-42.2	18.4	0.00e+00	0	29	0	1043333120	52	7378
2026-01-15 11:54:55.18	112.98	3.63	-39.7	-41.7	19.0	0.00e+00	0	29	0	1045430272	52	6968
2026-01-15 11:54:56.19	113.10	3.58	-39.7	-41.9	18.7	0.00e+00	0	29	0	1047527424	52	7146
2026-01-15 11:54:57.20	113.21	3.54	-39.8	-42.0	18.6	0.00e+00	0	29	0	1048576000	52	7215
2026-01-15 11:54:58.21	113.33	3.50	-39.9	-42.1	18.5	0.00e+00	0	29	0	1050673152	52	7300
2026-01-15 11:54:59.22	113.44	3.46	-40.0	-42.3	18.3	0.00e+00	0	29	0	1052770304	52	7482
2026-01-15 11:55:00.23	113.56	3.42	-39.8	-42.3	18.3	0.00e+00	0	29	0	1054867456	52	7462
2026-01-15 11:55:01.24	113.67	3.38	-39.5	-42.0	18.7	0.00e+00	0	29	0	1055916032	52	7189
2026-01-15 11:55:02.24	113.78	3.33	-40.0	-42.8	17.8	0.00e+00	0	29	0	1058013184	52	7885
2026-01-15 11:55:03.26	113.90	3.29	-39.7	-42.2	18.4	0.00e+00	0	29	0	1060110336	52	7381
2026-01-15 11:55:04.26	114.01	3.25	-39.8	-42.4	18.1	0.00e+00	0	29	0	1062207488	52	7540
2026-01-15 11:55:05.27	114.12	3.21	-40.0	-42.4	18.2	0.00e+00	0	29	0	1064304640	52	7589
2026-01-15 11:55:06.28	114.24	3.17	-40.1	-42.4	18.2	0.00e+00	0	29	0	1066401792	52	7516
2026-01-15 11:55:07.29	114.35	3.12	-40.0	-42.3	18.2	0.00e+00	0	29	0	1067450368	52	7470
2026-01-15 11:55:08.30	114.46	3.08	-40.3	-42.6	17.8	0.00e+00	0	29	0	1069547520	52	7724
2026-01-15 11:55:09.31	114.57	3.04	-40.3	-42.4	18.1	0.00e+00	0	29	0	1071644672	52	7563
2026-01-15 11:55:10.32	114.69	3.00	-40.5	-42.6	17.3	0.00e+00	0	29	0	1073741824	52	7768
2026-01-15 11:55:11.33	114.80	2.96	-46.9	-62.5	3.6	1.51e+00	0	29	104	1073741824	60	48391
2026-01-15 11:55:12.34	114.91	2.91	-46.4	-63.1	3.6	1.51e+00	0	29	104	1073741824	60	51572
2026-01-15 11:55:13.35	115.02	2.87	-47.9	-63.3	3.6	1.51e+00	0	29	104	1073741824	60	52957
2026-01-15 11:55:14.36	115.13	2.83	-46.8	-63.5	3.6	1.51e+00	0	29	104	1073741824	60	53910
2026-01-15 11:55:15.37	115.24	2.79	-47.7	-63.6	3.6	1.51e+00	0	29	104	1073741824	60	54422
2026-01-15 11:55:16.38	115.35	2.75	-48.5	-63.7	3.6	1.51e+00	0	29	104	1073741824	60	55030
2026-01-15 11:55:17.39	115.46	2.70	-48.5	-63.7	3.6	1.51e+00	0	29	104	1073741824	60	55301
2026-01-15 11:55:18.40	115.57	2.66	-48.3	-63.7	3.6	1.51e+00	0	29	104	1073741824	60	55288
2026-01-15 11:55:19.41	115.68	2.62	-48.3	-63.7	3.5	1.51e+00	0	29	104	1073741824	60	55545
2026-01-15 11:55:20.42	115.79	2.58	-48.5	-63.7	3.6	1.51e+00	0	29	104	1073741824	60	55125
2026-01-15 11:55:21.43	115.89	2.53	-48.4	-63.7	3.6	1.51e+00	0	29	104	1073741824	60	55180
2026-01-15 11:55:22.44	116.00	2.49	-48.5	-63.8	3.6	1.51e+00	0	29	104	1073741824	60	55997
2026-01-15 11:55:23.45	116.11	2.45	-48.4	-63.7	3.6	1.51e+00	0	29	104	1073741824	60	55511
2026-01-15 11:55:24.46	116.22	2.41	-48.5	-63.7	3.6	1.51e+00	0	29	104	1073741824	60	55428
2026-01-15 11:55:25.47	116.32	2.36	-48.5	-63.6	3.6	1.51e+00	0	29	104	1073741824	60	54893
2026-01-15 11:55:26.48	116.43	2.32	-48.5	-63.6	3.6	1.51e+00	0	29	104	1073741824	60	54986
2026-01-15 11:55:27.49	116.54	2.28	-48.4	-63.7	3.6	1.51e+00	0	29	104	1073741824	60	55032
2026-01-15 11:55:28.50	116.64	2.24	-48.5	-63.6	3.6	1.51e+00	0	29	104	1073741824	60	54904
2026-01-15 11:55:29.51	116.75	2.20	-48.5	-63.6	3.6	1.51e+00	0	29	104	1073741824	60	54505
2026-01-15 11:55:30.52	116.86	2.15	-48.4	-63.6	3.6	1.51e+00	0	29	104	1073741824	60	54772
2026-01-15 11:55:31.53	116.96	2.11	-48.4	-63.6	3.6	1.51e+00	0	29	104	1073741824	60	54716
2026-01-15 11:55:32.54	117.07	2.07	-48.4	-63.6	3.6	1.51e+00	0	29	104	1073741824	60	54783
2026-01-15 11:55:33.55	117.17	2.03	-48.4	-63.6	3.6	1.51e+00	0	29	104	1073741824	60	54812
2026-01-15 11:55:34.56	117.28	1.98	-48.4	-63.6	3.6	1.51e+00	0	29	104	1073741824	60	54696
2026-01-15 11:55:35.57	117.38	1.94	-48.4	-63.6	3.6	1.51e+00	0	29	104	1073741824	60	54669
2026-01-15 11:55:36.58	117.48	1.90	-48.4	-63.6	3.6	1.51e+00	0	29	104	1073741824	60	54592
2026-01-15 11:55:37.59	117.59	1.86	-48.4	-63.6	3.6	1.51e+00	0	29	104	1073741824	60	54678
2026-01-15 11:55:38.60	117.69	1.81	-48.4	-63.6	3.6	1.51e+00	0	29	104	1073741824	60	54834
2026-01-15 11:55:39.61	117.79	1.77	-48.4	-63.6	3.5	1.51e+00	0	29	104	1073741824	60	54827
2026-01-15 11:55:40.62	117.90	1.73	-48.4	-63.7	3.6	1.51e+00	0	29	104	1073741824	60	55042
2026-01-15 11:55:41.63	118.00	1.68	-48.4	-63.6	3.6	1.51e+00	0	29	104	1073741824	60	54831
2026-01-15 11:55:42.64	118.10	1.64	-48.4	-63.6	3.6	1.51e+00	0	29	104	1073741824	60	54510
2026-01-15 11:55:43.65	118.20	1.60	-48.4	-63.6	3.6	1.51e+00	0	29	104	1073741824	60	54726
2026-01-15 11:55:44.66	118.31	1.56	-48.4	-63.6	3.6	1.51e+00	0	29	104	1073741824	60	54704
2026-01-15 11:55:45.66	118.41	1.51	-48.4	-63.7	3.6	1.51e+00	0	29	104	1073741824	60	55032
2026-01-15 11:55:46.67	118.51	1.47	-48.4	-63.6	3.6	1.51e+00	0	29	104	1073741824	60	54653
2026-01-15 11:55:47.68	118.61	1.43	-48.4	-63.6	3.6	1.51e+00	0	29	104	1073741824	60	54895
2026-01-15 11:55:48.69	118.71	1.39	-48.4	-63.6	3.6	1.51e+00	0	29	104	1073741824	60	54700
2026-01-15 11:55:49.70	118.81	1.34	-48.4	-63.6	3.6	1.51e+00	0	29	104	1073741824	60	54715
2026-01-15 11:55:50.71	118.91	1.30	-48.4	-63.6	3.6	1.51e+00	0	29	104	1073741824	60	54896
2026-01-15 11:55:51.72	119.01	1.26	-48.4	-63.6	3.6	1.51e+00	0	29	104	1073741824	60	54580
2026-01-15 11:55:52.73	119.11	1.22	-48.4	-63.6	3.6	1.51e+00	0	29	104	1073741824	60	54777
2026-01-15 11:55:53.74	119.21	1.17	-48.4	-63.6	3.6	1.51e+00	0	29	104	1073741824	60	54525
2026-01-15 11:55:54.75	119.31	1.13	-48.4	-63.6	3.6	1.51e+00	0	29	104	1073741824	60	54594
2026-01-15 11:55:55.76	119.41	1.09	-48.4	-63.6	3.6	1.51e+00	0	29	104	1073741824	60	54829
2026-01-15 11:55:56.77	119.50	1.05	-48.4	-63.6	3.6	1.51e+00	0	29	104	1073741824	60	54676
2026-01-15 11:55:57.78	119.60	1.00	-48.4	-63.6	3.6	1.51e+00	0	29	104	1073741824	60	54729
2026-01-15 11:55:58.79	119.70	0.96	-48.4	-63.6	3.6	1.51e+00	0	29	104	1073741824	60	54450
2026-01-15 11:55:59.80	119.80	0.92	-48.4	-63.6	3.6	1.51e+00	0	29	104	1073741824	60	54810
2026-01-15 11:56:00.81	119.89	0.88	-48.4	-63.6	3.6	1.51e+00	0	29	104	1073741824	60	54707
2026-01-15 11:56:01.82	119.99	0.83	-48.4	-63.6	3.6	1.51e+00	0	29	104	1073741824	60	54532
2026-01-15 11:56:02.83	120.09	0.79	-48.4	-63.5	3.6	1.51e+00	0	29	104	1073741824	60	54323
2026-01-15 11:56:03.84	120.19	0.75	-48.4	-63.6	3.6	1.51e+00	0	29	104	1073741824	60	54478
2026-01-15 11:56:04.85	120.28	0.70	-48.4	-63.6	3.6	1.51e+00	0	29	104	1073741824	60	54966
2026-01-15 11:56:05.86	120.38	0.66	-48.4	-63.6	3.6	1.51e+00	0	29	104	1073741824	60	55015
2026-01-15 11:56:06.87	120.47	0.62	-48.4	-63.6	3.6	1.51e+00	0	29	104	1073741824	60	54528
2026-01-15 11:56:07.88	120.57	0.58	-48.4	-63.6	3.6	1.51e+00	0	29	104	1073741824	60	54581
2026-01-15 11:56:08.89	120.66	0.53	-48.4	-63.6	3.6	1.51e+00	0	29	104	1073741824	60	54960
2026-01-15 11:56:09.90	120.76	0.49	-48.4	-63.6	3.6	1.51e+00	0	29	104	1073741824	60	54806
2026-01-15 11:56:10.91	120.85	0.45	-48.4	-63.6	3.6	1.51e+00	0	29	104	1073741824	60	54666
2026-01-15 11:56:11.92	120.95	0.41	-48.4	-63.6	3.6	1.51e+00	0	29	104	1073741824	60	54606
2026-01-15 11:56:12.94	121.04	0.36	-48.4	-63.6	3.6	1.51e+00	0	29	104	1073741824	60	54859
2026-01-15 11:56:13.95	121.14	0.32	-48.4	-63.6	3.6	1.51e+00	0	29	104	1073741824	60	54579
2026-01-15 11:56:14.96	121.23	0.28	-48.4	-63.6	3.6	1.51e+00	0	29	104	1073741824	60	54535
2026-01-15 11:56:15.97	121.32	0.23	-48.4	-63.6	3.6	1.51e+00	0	29	104	1073741824	60	55020
2026-01-15 11:56:16.98	121.42	0.19	-48.4	-63.6	3.6	1.51e+00	0	29	104	1073741824	60	54731
2026-01-15 11:56:17.99	121.51	0.15	-48.4	-63.6	3.6	1.51e+00	0	29	104	1073741824	60	54693
