passes_logs/2026/01/15/R4.6S_Anadyr/R4.6S_Anadyr__20260115_202140_AQUA_rec.log

#Pass ID: 20260115_202140_AQUA
#Satellite: AQUA
#Configuration: AQUA
#almurnet v.1.7.20251203
#Start time: 2026-01-15 20:21:42

#Version: 2.2.20231116
#Station: R4.6S_Anadyr
#Location: 177.4865 lon 64.73178 lat
#TLE: 1 27424U 02022A   26014.61231444  .00000653  00000+0  14070-3 0  9991
#TLE: 2 27424  98.4080 341.0332 0002042  78.9336 335.9961 14.61820174260839

#Time	Az	El	Level	Level2	SNR	BER	BlckErr	Temp	State	Recorded	gain1	gain2
2026-01-15 20:21:42.74	38.17	0.11	-48.0	-62.9	3.5	1.51e+00	0	26	0	0	60	50491
2026-01-15 20:21:43.74	38.08	0.16	-48.4	-66.3	3.5	3.02e+01	0	28	104	0	60	79198
2026-01-15 20:21:44.75	37.99	0.21	-48.4	-66.2	3.5	3.02e+01	0	28	104	0	60	78757
2026-01-15 20:21:45.76	37.90	0.26	-48.4	-66.3	3.5	3.02e+01	0	28	104	0	60	79273
2026-01-15 20:21:46.77	37.81	0.31	-48.4	-66.3	3.5	3.02e+01	0	28	104	0	60	79813
2026-01-15 20:21:47.78	37.72	0.35	-48.5	-66.3	3.5	3.02e+01	0	28	104	0	60	79883
2026-01-15 20:21:48.79	37.62	0.40	-48.4	-66.4	3.5	3.02e+01	0	28	104	0	60	80191
2026-01-15 20:21:49.80	37.53	0.45	-48.2	-66.3	3.5	3.02e+01	0	28	104	0	60	79522
2026-01-15 20:21:50.81	37.44	0.50	-48.2	-66.2	3.5	3.02e+01	0	28	104	0	60	78574
2026-01-15 20:21:51.83	37.34	0.55	-48.3	-66.2	3.5	3.02e+01	0	28	104	0	60	78184
2026-01-15 20:21:52.83	37.25	0.60	-48.1	-66.1	3.5	3.02e+01	0	28	104	0	60	77403
2026-01-15 20:21:53.84	37.16	0.64	-48.1	-66.0	3.5	3.02e+01	0	28	104	0	60	76726
2026-01-15 20:21:54.85	37.06	0.69	-47.9	-65.9	3.5	3.02e+01	0	28	104	0	60	76319
2026-01-15 20:21:55.87	36.96	0.74	-47.7	-65.8	3.5	3.02e+01	0	28	104	0	60	75130
2026-01-15 20:21:56.88	36.87	0.79	-47.0	-65.6	3.5	3.02e+01	0	28	104	0	60	73730
2026-01-15 20:21:57.89	36.77	0.84	-47.4	-65.4	3.5	3.02e+01	0	28	104	0	60	71492
2026-01-15 20:21:58.90	36.68	0.89	-46.8	-64.9	3.5	3.02e+01	0	28	104	0	60	67894
2026-01-15 20:21:59.91	36.58	0.94	-46.1	-64.5	3.5	3.02e+01	0	28	104	0	60	64466
2026-01-15 20:22:00.92	36.48	0.99	-46.1	-64.5	3.5	3.02e+01	0	28	104	0	60	64703
2026-01-15 20:22:01.93	36.39	1.03	-46.1	-64.5	3.5	3.02e+01	0	28	104	0	60	64347
2026-01-15 20:22:02.94	36.29	1.08	-46.0	-64.5	3.5	3.02e+01	0	28	104	0	60	64591
2026-01-15 20:22:03.95	36.19	1.13	-46.0	-64.5	3.5	3.02e+01	0	28	104	0	60	64475
2026-01-15 20:22:04.96	36.09	1.18	-46.1	-64.5	3.5	3.02e+01	0	28	104	0	60	64414
2026-01-15 20:22:05.97	35.99	1.23	-46.0	-64.5	3.5	3.02e+01	0	28	104	0	60	64404
2026-01-15 20:22:06.98	35.89	1.28	-46.1	-64.5	3.5	3.02e+01	0	28	104	0	60	64561
2026-01-15 20:22:07.99	35.79	1.33	-46.1	-64.4	3.5	3.02e+01	0	28	104	0	60	64132
2026-01-15 20:22:09.00	35.69	1.37	-46.0	-64.4	3.5	3.02e+01	0	28	104	0	60	64032
2026-01-15 20:22:10.01	35.59	1.42	-46.0	-64.4	3.5	3.02e+01	0	28	104	0	60	63963
2026-01-15 20:22:11.02	35.49	1.47	-46.0	-64.4	3.5	3.02e+01	0	28	104	0	60	63929
2026-01-15 20:22:12.03	35.39	1.52	-46.0	-64.4	3.5	3.02e+01	0	28	104	0	60	63960
2026-01-15 20:22:13.04	35.29	1.57	-46.0	-64.4	3.5	3.02e+01	0	28	104	0	60	63704
2026-01-15 20:22:14.05	35.19	1.62	-46.0	-64.4	3.5	3.02e+01	0	28	104	0	60	63915
2026-01-15 20:22:15.06	35.09	1.67	-46.0	-64.4	3.5	3.02e+01	0	29	104	0	60	63773
2026-01-15 20:22:16.07	34.98	1.72	-46.0	-64.4	3.5	3.02e+01	0	28	104	0	60	63797
2026-01-15 20:22:17.08	34.88	1.77	-46.0	-64.4	3.5	3.02e+01	0	28	104	0	60	63773
2026-01-15 20:22:18.08	34.78	1.81	-46.0	-64.4	3.5	3.02e+01	0	28	104	0	60	63710
2026-01-15 20:22:19.09	34.67	1.86	-46.0	-64.3	3.5	3.02e+01	0	29	104	0	60	62958
2026-01-15 20:22:20.10	34.57	1.91	-46.0	-64.2	3.5	3.02e+01	0	28	104	0	60	62679
2026-01-15 20:22:21.11	34.47	1.96	-46.0	-64.4	3.5	3.02e+01	0	29	104	0	60	63709
2026-01-15 20:22:22.12	34.36	2.01	-46.0	-64.3	3.5	3.02e+01	0	29	104	0	60	63188
2026-01-15 20:22:23.13	34.26	2.06	-46.0	-64.3	3.5	3.02e+01	0	29	104	0	60	63169
2026-01-15 20:22:24.14	34.15	2.11	-46.0	-64.3	3.5	3.02e+01	0	29	104	0	60	62895
2026-01-15 20:22:25.15	34.04	2.16	-46.0	-64.2	3.5	3.02e+01	0	29	104	0	60	62173
2026-01-15 20:22:26.15	33.94	2.20	-46.0	-64.0	3.5	3.02e+01	0	29	104	0	60	61110
2026-01-15 20:22:27.16	33.83	2.25	-45.9	-63.9	3.5	3.02e+01	0	29	104	0	60	60263
2026-01-15 20:22:28.17	33.72	2.30	-46.0	-63.9	3.5	3.02e+01	0	29	104	0	60	60450
2026-01-15 20:22:29.18	33.62	2.35	-46.0	-64.1	3.5	3.02e+01	0	29	104	0	60	61864
2026-01-15 20:22:30.19	33.51	2.40	-46.0	-64.4	3.5	3.02e+01	0	29	104	0	60	63717
2026-01-15 20:22:31.20	33.40	2.45	-46.0	-64.4	3.5	3.02e+01	0	29	104	0	60	64131
2026-01-15 20:22:32.21	33.29	2.50	-46.0	-64.3	3.5	3.02e+01	0	29	104	0	60	63284
2026-01-15 20:22:33.22	33.18	2.55	-46.0	-64.3	3.5	3.02e+01	0	29	104	0	60	62896
2026-01-15 20:22:34.23	33.07	2.60	-46.0	-64.4	3.5	3.02e+01	0	29	104	0	60	63639
2026-01-15 20:22:35.24	32.96	2.64	-46.0	-64.1	3.5	3.02e+01	0	29	104	0	60	61792
2026-01-15 20:22:36.25	32.85	2.69	-45.8	-63.4	3.5	3.02e+01	0	29	104	0	60	57157
2026-01-15 20:22:37.26	32.74	2.74	-45.8	-63.1	3.5	3.02e+01	0	29	104	0	60	54949
2026-01-15 20:22:38.27	32.63	2.79	-45.8	-63.2	3.5	3.02e+01	0	29	104	0	60	55877
2026-01-15 20:22:39.28	32.52	2.84	-45.9	-63.9	3.5	3.02e+01	0	29	104	0	60	60270
2026-01-15 20:22:40.29	32.40	2.89	-45.9	-63.4	3.5	3.02e+01	0	29	104	0	60	57077
2026-01-15 20:22:41.30	32.29	2.94	-45.4	-61.3	3.5	3.02e+01	0	29	104	0	60	44800
2026-01-15 20:22:42.31	32.18	2.99	-45.0	-59.8	3.5	3.02e+01	0	29	104	0	60	37647
2026-01-15 20:22:43.33	32.06	3.04	-44.2	-57.8	3.5	3.02e+01	0	29	104	0	60	30011
2026-01-15 20:22:44.34	31.95	3.09	-42.5	-54.4	3.5	3.02e+01	0	29	104	0	58	22584
2026-01-15 20:22:45.35	31.84	3.14	-46.1	-62.8	3.5	3.02e+01	0	29	104	0	60	53048
2026-01-15 20:22:46.36	31.72	3.18	-45.2	-60.8	3.5	3.02e+01	0	29	104	0	60	42008
2026-01-15 20:22:47.36	31.61	3.23	-38.4	-49.1	3.5	3.02e+01	0	29	104	0	50	19455
2026-01-15 20:22:48.37	31.49	3.28	-46.0	-63.6	3.5	3.02e+01	0	29	104	0	60	58382
2026-01-15 20:22:49.38	31.38	3.33	-37.7	-48.3	3.5	3.02e+01	0	29	104	0	50	17780
2026-01-15 20:22:50.39	31.26	3.38	-37.9	-48.4	3.5	3.02e+01	0	29	104	0	50	18051
2026-01-15 20:22:51.40	31.14	3.43	-37.5	-48.1	3.5	3.02e+01	0	29	104	0	50	17290
2026-01-15 20:22:52.41	31.02	3.48	-38.7	-49.5	3.5	3.02e+01	0	29	104	0	50	20532
2026-01-15 20:22:53.42	30.91	3.53	-37.3	-58.3	3.4	3.02e+01	0	29	104	0	44	79911
2026-01-15 20:22:54.43	30.79	3.58	-37.8	-48.5	3.5	3.02e+01	0	29	104	0	50	18112
2026-01-15 20:22:55.44	30.67	3.62	-46.1	-64.0	3.5	3.02e+01	0	29	104	0	60	61091
2026-01-15 20:22:56.45	30.55	3.67	-41.8	-53.2	3.5	3.02e+01	0	29	104	0	60	17679
2026-01-15 20:22:57.46	30.43	3.72	-39.9	-50.9	3.5	3.02e+01	0	29	104	0	54	19068
2026-01-15 20:22:58.47	30.31	3.77	-38.5	-49.2	3.5	3.02e+01	0	29	104	0	52	17511
2026-01-15 20:22:59.48	30.19	3.82	-38.3	-49.0	3.5	3.02e+01	0	29	104	0	52	17180
2026-01-15 20:23:00.49	30.07	3.87	-38.2	-48.8	3.5	3.02e+01	0	29	104	0	52	16812
2026-01-15 20:23:01.50	29.95	3.92	-37.4	-47.9	3.6	3.02e+01	0	29	104	0	50	16949
2026-01-15 20:23:02.51	29.83	3.97	-37.4	-47.8	3.5	3.02e+01	0	29	104	0	50	16817
2026-01-15 20:23:03.52	29.70	4.02	-40.3	-51.2	3.4	3.02e+01	0	29	104	0	50	24776
2026-01-15 20:23:04.52	29.58	4.06	-46.6	-64.7	3.5	3.02e+01	0	29	104	0	60	66051
2026-01-15 20:23:05.53	29.46	4.11	-39.1	-49.9	3.5	3.02e+01	0	29	104	0	56	15187
2026-01-15 20:23:06.54	29.34	4.16	-39.7	-50.5	3.5	3.02e+01	0	29	104	0	54	18200
2026-01-15 20:23:07.55	29.21	4.21	-37.9	-48.4	3.5	3.02e+01	0	29	104	0	50	18075
2026-01-15 20:23:08.56	29.09	4.26	-37.7	-48.2	3.5	3.02e+01	0	29	104	0	50	17620
2026-01-15 20:23:09.57	28.96	4.31	-37.5	-48.0	3.5	3.02e+01	0	29	104	0	50	17203
2026-01-15 20:23:10.58	28.84	4.36	-37.2	-47.7	3.5	3.02e+01	0	29	104	0	50	16552
2026-01-15 20:23:11.59	28.71	4.40	-38.3	-49.0	3.5	3.02e+01	0	29	104	0	50	19273
2026-01-15 20:23:12.60	28.58	4.45	-40.9	-51.9	3.5	3.02e+01	0	29	104	0	50	27038
2026-01-15 20:23:13.61	28.46	4.50	-46.6	-63.6	3.5	3.02e+01	0	29	104	0	60	58424
2026-01-15 20:23:14.62	28.33	4.55	-38.8	-49.5	3.5	3.02e+01	0	29	104	0	54	16322
2026-01-15 20:23:15.63	28.20	4.60	-40.4	-51.4	3.4	3.02e+01	0	29	104	0	58	16089
2026-01-15 20:23:16.64	28.07	4.65	-39.7	-50.6	3.5	3.02e+01	0	29	104	0	54	18330
2026-01-15 20:23:17.65	27.94	4.70	-40.0	-50.9	3.5	3.02e+01	0	29	104	0	54	19163
2026-01-15 20:23:18.66	27.81	4.74	-39.6	-50.5	3.6	3.02e+01	0	29	104	0	54	18157
2026-01-15 20:23:19.67	27.68	4.79	-38.6	-49.2	3.5	3.02e+01	0	29	104	0	52	17607
2026-01-15 20:23:20.68	27.55	4.84	-42.1	-53.4	3.5	3.02e+01	0	29	104	0	56	22756
2026-01-15 20:23:21.69	27.42	4.89	-44.1	-56.7	3.5	3.02e+01	0	29	104	0	60	26318
2026-01-15 20:23:22.70	27.29	4.94	-41.5	-52.8	3.5	3.02e+01	0	29	104	0	60	16750
2026-01-15 20:23:23.71	27.16	4.99	-46.4	-62.9	3.5	3.02e+01	0	29	104	0	60	53898
2026-01-15 20:23:24.72	27.03	5.03	-45.4	-59.4	3.5	3.02e+01	0	29	104	0	60	35838
2026-01-15 20:23:25.73	26.89	5.08	-39.7	-50.6	3.5	3.02e+01	0	29	104	0	56	16493
2026-01-15 20:23:26.74	26.76	5.13	-39.0	-49.7	3.6	3.02e+01	0	29	104	0	54	16672
2026-01-15 20:23:27.75	26.63	5.18	-38.9	-49.6	3.6	3.02e+01	0	29	104	0	52	18367
2026-01-15 20:23:28.76	26.49	5.23	-42.1	-53.6	3.6	3.02e+01	0	29	104	0	56	23078
2026-01-15 20:23:29.77	26.36	5.28	-39.2	-50.0	3.5	3.02e+01	0	29	104	0	54	17094
2026-01-15 20:23:30.78	26.22	5.32	-46.8	-64.7	3.5	3.02e+01	0	29	104	0	60	66234
2026-01-15 20:23:31.79	26.09	5.37	-45.1	-58.3	3.5	3.02e+01	0	29	104	0	60	31610
2026-01-15 20:23:32.80	25.95	5.42	-37.1	-47.5	3.5	3.02e+01	0	29	104	0	48	18266
2026-01-15 20:23:33.81	25.81	5.47	-37.3	-47.8	3.5	3.02e+01	0	29	104	0	50	16747
2026-01-15 20:23:34.82	25.68	5.52	-37.0	-47.4	3.5	3.02e+01	0	29	104	0	48	17966
2026-01-15 20:23:35.83	25.54	5.56	-36.8	-47.2	3.5	3.02e+01	0	29	104	0	48	17626
2026-01-15 20:23:36.84	25.40	5.61	-36.8	-47.2	3.5	3.02e+01	0	29	104	0	48	17620
2026-01-15 20:23:37.85	25.26	5.66	-37.2	-47.7	3.5	3.02e+01	0	29	104	0	48	18612
2026-01-15 20:23:38.86	25.12	5.71	-38.1	-48.7	3.5	3.02e+01	0	29	104	0	50	18542
2026-01-15 20:23:39.87	24.98	5.75	-47.0	-64.7	3.5	3.02e+01	0	29	104	0	60	66337
2026-01-15 20:23:40.87	24.84	5.80	-46.0	-60.9	3.5	3.02e+01	0	29	104	0	60	42480
2026-01-15 20:23:41.88	24.70	5.85	-38.5	-49.1	3.5	3.02e+01	0	29	104	0	50	19456
2026-01-15 20:23:42.89	24.56	5.90	-39.2	-49.9	3.5	3.02e+01	0	29	104	0	54	17015
2026-01-15 20:23:43.90	24.42	5.94	-38.9	-49.5	3.5	3.02e+01	0	29	104	0	52	18187
2026-01-15 20:23:44.91	24.28	5.99	-39.5	-50.3	3.5	3.02e+01	0	29	104	0	52	20000
2026-01-15 20:23:45.92	24.13	6.04	-38.8	-49.4	3.5	3.02e+01	0	29	104	0	52	18082
2026-01-15 20:23:46.93	23.99	6.09	-36.8	-47.3	3.5	3.02e+01	0	29	104	0	48	17729
2026-01-15 20:23:47.94	23.85	6.13	-43.2	-55.1	3.5	3.02e+01	0	29	104	0	56	27457
2026-01-15 20:23:48.95	23.70	6.18	-46.1	-60.7	3.5	3.02e+01	0	29	104	0	60	41527
2026-01-15 20:23:49.96	23.56	6.23	-40.0	-50.7	3.5	3.02e+01	0	29	104	0	56	16644
2026-01-15 20:23:50.97	23.41	6.27	-47.0	-64.7	3.5	3.02e+01	0	29	104	0	60	65793
2026-01-15 20:23:51.98	23.27	6.32	-40.1	-50.9	3.5	3.02e+01	0	29	104	0	56	16900
2026-01-15 20:23:52.98	23.12	6.37	-39.4	-50.0	3.5	3.02e+01	0	29	104	0	54	17263
2026-01-15 20:23:53.99	22.97	6.41	-38.8	-49.5	3.5	3.02e+01	0	29	104	0	52	18152
2026-01-15 20:23:55.00	22.83	6.46	-37.7	-48.2	3.5	3.02e+01	0	29	104	0	50	17553
2026-01-15 20:23:56.02	22.68	6.51	-44.8	-57.6	3.5	3.02e+01	0	29	104	0	60	29116
2026-01-15 20:23:57.03	22.53	6.55	-38.4	-49.0	3.5	3.02e+01	0	29	104	0	54	15340
2026-01-15 20:23:58.04	22.38	6.60	-47.0	-64.6	3.5	3.02e+01	0	29	104	0	60	65482
2026-01-15 20:23:59.04	22.23	6.65	-46.2	-60.9	3.5	3.02e+01	0	29	104	0	60	42684
2026-01-15 20:24:00.05	22.08	6.69	-39.6	-50.3	3.4	3.02e+01	0	29	104	0	52	20073
2026-01-15 20:24:01.06	21.93	6.74	-38.6	-49.2	3.5	3.02e+01	0	29	104	0	52	17554
2026-01-15 20:24:02.07	21.78	6.78	-38.6	-49.2	3.5	3.02e+01	0	29	104	0	52	17585
2026-01-15 20:24:03.08	21.63	6.83	-38.7	-49.3	3.6	3.02e+01	0	29	104	0	52	17888
2026-01-15 20:24:04.09	21.47	6.88	-38.5	-49.1	3.5	3.02e+01	0	29	104	0	52	17374
2026-01-15 20:24:05.10	21.32	6.92	-43.0	-54.5	3.5	3.02e+01	0	29	104	0	58	22989
2026-01-15 20:24:06.11	21.17	6.97	-44.7	-57.4	3.5	3.02e+01	0	30	104	0	60	28380
2026-01-15 20:24:07.12	21.01	7.01	-47.0	-63.8	3.5	3.02e+01	0	29	104	0	60	59320
2026-01-15 20:24:08.13	20.86	7.06	-40.0	-50.8	3.5	3.02e+01	0	30	104	0	56	16839
2026-01-15 20:24:09.14	20.70	7.10	-47.2	-64.9	3.5	3.02e+01	0	30	104	0	60	67579
2026-01-15 20:24:10.15	20.55	7.15	-38.8	-49.4	3.5	3.02e+01	0	30	104	0	54	16101
2026-01-15 20:24:11.16	20.39	7.20	-38.8	-49.4	3.5	3.02e+01	0	29	104	0	52	18075
2026-01-15 20:24:12.17	20.24	7.24	-37.8	-48.3	3.5	3.02e+01	0	30	104	0	50	17775
2026-01-15 20:24:13.18	20.08	7.29	-37.3	-47.7	3.5	3.02e+01	0	30	104	0	50	16536
2026-01-15 20:24:14.19	19.92	7.33	-42.5	-54.0	3.5	3.02e+01	0	30	104	0	58	21595
2026-01-15 20:24:15.20	19.76	7.38	-37.8	-48.3	3.5	3.02e+01	0	30	104	0	52	15849
2026-01-15 20:24:16.21	19.60	7.42	-47.2	-64.9	3.5	3.02e+01	0	30	104	0	60	67424
2026-01-15 20:24:17.22	19.45	7.46	-45.9	-59.9	3.5	3.02e+01	0	30	104	0	60	38170
2026-01-15 20:24:18.23	19.29	7.51	-39.8	-50.6	3.5	3.02e+01	0	30	104	0	52	20676
2026-01-15 20:24:19.24	19.12	7.55	-37.1	-47.6	3.5	3.02e+01	0	30	104	0	50	16372
2026-01-15 20:24:20.25	18.96	7.60	-36.5	-46.9	3.5	3.02e+01	0	30	104	0	48	16983
2026-01-15 20:24:21.26	18.80	7.64	-36.1	-46.5	3.5	3.02e+01	0	30	104	0	48	16159
2026-01-15 20:24:22.27	18.64	7.69	-36.0	-46.4	3.5	3.02e+01	0	30	104	0	48	16018
2026-01-15 20:24:23.28	18.48	7.73	-36.1	-46.4	3.5	3.02e+01	0	30	104	0	46	17994
2026-01-15 20:24:24.29	18.31	7.77	-36.6	-47.0	3.4	3.02e+01	0	30	104	0	50	15355
2026-01-15 20:24:25.30	18.15	7.82	-47.3	-64.9	3.5	3.02e+01	0	30	104	0	60	67381
2026-01-15 20:24:26.31	17.99	7.86	-43.4	-55.3	3.5	3.02e+01	0	30	104	0	60	22374
2026-01-15 20:24:27.32	17.82	7.90	-39.7	-50.4	3.5	3.02e+01	0	30	104	0	54	18103
2026-01-15 20:24:28.33	17.66	7.95	-37.0	-47.4	3.5	3.02e+01	0	30	104	0	50	16101
2026-01-15 20:24:29.34	17.49	7.99	-36.8	-47.2	3.5	3.02e+01	0	30	104	0	48	17674
2026-01-15 20:24:30.35	17.32	8.03	-36.1	-46.3	3.5	3.02e+01	0	30	104	0	48	15941
2026-01-15 20:24:31.36	17.16	8.08	-35.8	-46.1	3.5	3.02e+01	0	30	104	0	46	17427
2026-01-15 20:24:32.37	16.99	8.12	-36.9	-47.3	3.5	3.02e+01	0	30	104	0	48	17799
2026-01-15 20:24:33.38	16.82	8.16	-36.4	-46.8	3.5	3.02e+01	0	30	104	0	50	15008
2026-01-15 20:24:34.39	16.65	8.21	-47.3	-64.8	3.5	3.02e+01	0	30	104	0	60	66530
2026-01-15 20:24:35.39	16.49	8.25	-43.0	-54.6	3.5	3.02e+01	0	30	104	0	60	20631
2026-01-15 20:24:36.40	16.32	8.29	-39.2	-49.8	3.6	3.02e+01	0	30	104	0	52	18882
2026-01-15 20:24:37.41	16.15	8.33	-38.0	-48.5	3.5	3.02e+01	0	30	104	0	50	18128
2026-01-15 20:24:38.42	15.98	8.37	-37.8	-48.3	3.5	3.02e+01	0	30	104	0	50	17722
2026-01-15 20:24:39.43	15.80	8.42	-37.5	-47.9	3.5	3.02e+01	0	30	104	0	50	17028
2026-01-15 20:24:40.44	15.63	8.46	-37.5	-47.9	3.5	3.02e+01	0	30	104	0	50	17064
2026-01-15 20:24:41.45	15.46	8.50	-38.9	-49.5	3.5	3.02e+01	0	30	104	0	50	20495
2026-01-15 20:24:42.46	15.29	8.54	-40.5	-51.4	3.5	3.02e+01	0	30	104	0	58	16018
2026-01-15 20:24:43.47	15.11	8.58	-43.1	-54.7	3.5	3.02e+01	0	30	104	0	60	21020
2026-01-15 20:24:44.48	14.94	8.62	-36.7	-47.1	3.5	3.02e+01	0	30	104	0	48	17301
2026-01-15 20:24:45.49	14.77	8.66	-47.3	-65.1	3.5	3.02e+01	0	30	104	0	60	69342
2026-01-15 20:24:46.50	14.59	8.70	-37.0	-47.4	3.5	3.02e+01	0	30	104	0	48	18017
2026-01-15 20:24:47.51	14.41	8.74	-36.2	-46.6	3.5	3.02e+01	0	30	104	0	48	16431
2026-01-15 20:24:48.52	14.24	8.78	-36.2	-46.5	3.5	3.02e+01	0	30	104	0	48	16299
2026-01-15 20:24:49.53	14.06	8.82	-38.5	-49.1	3.5	3.02e+01	0	30	104	0	48	21878
2026-01-15 20:24:50.54	13.88	8.86	-45.4	-58.7	3.5	3.02e+01	0	30	104	0	60	33074
2026-01-15 20:24:51.55	13.71	8.90	-37.2	-47.6	3.5	3.02e+01	0	30	104	0	48	18435
2026-01-15 20:24:52.56	13.53	8.94	-46.6	-62.3	3.6	3.02e+01	0	30	104	0	60	50385
2026-01-15 20:24:53.56	13.35	8.98	-36.9	-47.3	3.5	3.02e+01	0	30	104	0	52	14075
2026-01-15 20:24:54.57	13.17	9.02	-38.1	-48.7	3.6	3.02e+01	0	30	104	0	52	16622
2026-01-15 20:24:55.59	12.99	9.06	-36.4	-46.8	3.5	3.02e+01	0	30	104	0	48	16785
2026-01-15 20:24:56.59	12.81	9.10	-35.9	-46.3	3.5	3.02e+01	0	30	104	0	46	17788
2026-01-15 20:24:57.60	12.63	9.14	-36.1	-46.4	3.5	3.02e+01	0	30	104	0	46	18054
2026-01-15 20:24:58.61	12.45	9.18	-35.6	-46.0	3.6	3.02e+01	0	30	104	0	46	17118
2026-01-15 20:24:59.62	12.27	9.22	-37.6	-48.1	3.5	3.02e+01	0	30	104	0	46	21825
2026-01-15 20:25:00.63	12.08	9.25	-40.7	-51.6	3.5	3.02e+01	0	30	104	0	54	20703
2026-01-15 20:25:01.63	11.90	9.29	-41.2	-52.2	3.5	3.02e+01	0	30	104	0	60	15735
2026-01-15 20:25:02.64	11.72	9.33	-43.9	-55.9	3.5	3.02e+01	0	30	104	0	54	33738
2026-01-15 20:25:03.65	11.54	9.37	-47.0	-62.7	3.6	3.02e+01	0	30	104	0	60	52349
2026-01-15 20:25:04.66	11.35	9.40	-41.2	-52.2	3.5	3.02e+01	0	30	104	0	58	17578
2026-01-15 20:25:05.67	11.17	9.44	-40.1	-50.8	3.6	3.02e+01	0	30	104	0	56	16883
2026-01-15 20:25:06.67	10.98	9.48	-38.7	-49.3	3.5	3.02e+01	0	30	104	0	52	17780
2026-01-15 20:25:07.68	10.80	9.51	-42.6	-54.0	3.5	3.02e+01	0	30	104	0	56	24239
2026-01-15 20:25:08.69	10.61	9.55	-40.4	-51.3	3.5	3.02e+01	0	30	104	0	56	17714
2026-01-15 20:25:09.70	10.42	9.59	-44.1	-56.1	3.4	3.02e+01	0	30	104	0	52	39029
2026-01-15 20:25:10.71	10.23	9.62	-46.1	-60.1	3.5	3.02e+01	0	30	104	0	60	38949
2026-01-15 20:25:11.72	10.05	9.66	-36.0	-46.3	3.5	3.02e+01	0	30	104	0	48	15944
2026-01-15 20:25:12.73	9.86	9.69	-36.7	-47.0	3.5	3.02e+01	0	30	104	0	50	15338
2026-01-15 20:25:13.74	9.67	9.73	-35.8	-46.1	3.5	3.02e+01	0	30	104	0	48	15578
2026-01-15 20:25:14.75	9.48	9.77	-35.9	-46.2	3.6	3.02e+01	0	30	104	0	46	17512
2026-01-15 20:25:15.76	9.29	9.80	-35.7	-46.0	3.5	3.02e+01	0	30	104	0	46	17155
2026-01-15 20:25:16.77	9.10	9.84	-35.9	-46.2	3.5	3.02e+01	0	30	104	0	46	17648
2026-01-15 20:25:17.78	8.91	9.87	-39.4	-50.0	3.5	3.02e+01	0	30	104	0	50	21659
2026-01-15 20:25:18.79	8.72	9.90	-44.9	-57.5	3.6	3.02e+01	0	30	104	0	58	32503
2026-01-15 20:25:19.80	8.52	9.94	-38.0	-48.5	3.5	3.02e+01	0	30	104	0	52	16173
2026-01-15 20:25:20.81	8.33	9.97	-47.5	-64.9	3.5	3.02e+01	0	30	104	0	60	67607
2026-01-15 20:25:21.82	8.14	10.01	-38.4	-48.9	3.5	3.02e+01	0	30	104	0	54	15079
2026-01-15 20:25:22.83	7.94	10.04	-35.8	-46.2	3.5	3.02e+01	0	30	104	0	46	17515
2026-01-15 20:25:23.84	7.75	10.07	-35.7	-46.1	3.5	3.02e+01	0	30	104	0	46	17421
2026-01-15 20:25:24.85	7.55	10.10	-35.9	-46.2	3.5	3.02e+01	0	30	104	0	46	17517
2026-01-15 20:25:25.86	7.36	10.14	-45.2	-58.1	3.5	3.02e+01	0	30	104	0	60	30857
2026-01-15 20:25:26.87	7.16	10.17	-39.6	-50.2	3.5	3.02e+01	0	30	104	0	56	15680
2026-01-15 20:25:27.88	6.97	10.20	-47.3	-64.4	3.5	3.02e+01	0	30	104	0	60	64005
2026-01-15 20:25:28.89	6.77	10.23	-47.1	-63.1	3.5	3.02e+01	0	30	104	0	60	55007
2026-01-15 20:25:29.90	6.57	10.26	-39.6	-50.3	3.5	3.02e+01	0	30	104	0	52	19926
2026-01-15 20:25:30.91	6.38	10.30	-39.0	-49.6	3.5	3.02e+01	0	30	104	0	54	16401
2026-01-15 20:25:31.92	6.18	10.33	-39.4	-50.1	3.5	3.02e+01	0	30	104	0	54	17313
2026-01-15 20:25:32.93	5.98	10.36	-38.7	-49.3	3.5	3.02e+01	0	30	104	0	52	17708
2026-01-15 20:25:33.94	5.78	10.39	-36.9	-47.4	3.4	3.02e+01	0	30	104	0	50	15973
2026-01-15 20:25:34.95	5.58	10.42	-35.9	-46.3	3.5	3.02e+01	0	30	104	0	46	17725
2026-01-15 20:25:35.96	5.38	10.45	-41.3	-52.3	3.5	3.02e+01	0	30	104	0	54	22356
2026-01-15 20:25:36.97	5.18	10.48	-46.7	-61.4	3.5	3.02e+01	0	30	104	0	60	45151
2026-01-15 20:25:37.98	4.98	10.51	-40.5	-51.3	3.5	3.02e+01	0	30	104	0	56	17791
2026-01-15 20:25:38.99	4.78	10.54	-47.2	-63.2	3.5	3.02e+01	0	30	104	0	60	55527
2026-01-15 20:25:39.99	4.58	10.56	-41.4	-52.4	3.5	3.02e+01	0	30	104	0	60	16126
2026-01-15 20:25:41.00	4.38	10.59	-38.9	-49.5	3.5	3.02e+01	0	30	104	0	54	16311
2026-01-15 20:25:42.01	4.18	10.62	-37.7	-48.2	3.5	3.02e+01	0	30	104	0	50	17660
2026-01-15 20:25:43.02	3.97	10.65	-37.2	-47.7	3.5	3.02e+01	0	30	104	0	50	16514
2026-01-15 20:25:44.03	3.77	10.68	-47.0	-62.3	3.4	3.02e+01	0	30	104	0	60	50300
2026-01-15 20:25:45.04	3.57	10.70	-38.7	-49.2	3.5	3.02e+01	0	30	104	0	52	17605
2026-01-15 20:25:46.05	3.36	10.73	-47.1	-63.3	3.5	3.02e+01	0	30	104	0	60	56074
2026-01-15 20:25:47.06	3.16	10.76	-45.1	-58.0	3.5	3.02e+01	0	30	104	0	60	30588
2026-01-15 20:25:48.07	2.95	10.78	-39.4	-50.0	3.4	3.02e+01	0	30	104	0	50	21663
2026-01-15 20:25:49.08	2.75	10.81	-36.1	-46.5	3.5	3.02e+01	0	30	104	0	48	16210
2026-01-15 20:25:50.09	2.54	10.84	-36.0	-46.3	3.5	3.02e+01	0	30	104	0	48	15915
2026-01-15 20:25:51.10	2.34	10.86	-35.8	-46.1	3.5	3.02e+01	0	30	104	0	46	17371
2026-01-15 20:25:52.11	2.13	10.89	-35.6	-45.9	3.5	3.02e+01	0	30	104	0	46	17035
2026-01-15 20:25:53.11	1.93	10.91	-37.9	-48.4	3.5	3.02e+01	0	30	104	0	50	18057
2026-01-15 20:25:54.12	1.72	10.94	-38.4	-48.7	3.6	3.02e+01	0	30	104	0	50	18719
2026-01-15 20:25:55.13	1.51	10.96	-47.2	-63.3	3.5	3.02e+01	0	30	104	0	60	56244
2026-01-15 20:25:56.14	1.30	10.98	-46.0	-51.9	4.8	3.02e+01	0	30	104	0	60	15147
2026-01-15 20:25:57.15	1.10	11.01	-42.0	-44.7	20.7	3.02e+01	58	30	104	0	56	8287
2026-01-15 20:25:58.16	0.89	11.03	-38.7	-40.3	24.8	3.02e+01	60	30	0	1572864	52	6344
2026-01-15 20:25:59.17	0.68	11.05	-38.8	-40.3	24.5	3.02e+01	57	30	0	3670016	52	6349
2026-01-15 20:26:00.18	0.47	11.08	-39.1	-40.8	24.3	3.02e+01	59	30	0	5242880	52	6661
2026-01-15 20:26:01.19	0.26	11.10	-39.2	-40.9	23.9	3.02e+01	56	30	0	7340032	52	6750
2026-01-15 20:26:02.20	0.05	11.12	-39.7	-41.4	24.2	3.02e+01	53	30	0	8912896	52	7186
2026-01-15 20:26:03.21	359.84	11.14	-38.8	-40.4	24.0	3.02e+01	58	30	0	11010048	52	6377
2026-01-15 20:26:04.21	359.63	11.16	-38.8	-40.4	24.7	3.02e+01	60	30	0	13107200	52	6354
2026-01-15 20:26:05.23	359.42	11.18	-38.8	-40.5	24.7	3.02e+01	64	30	0	14680064	52	6431
2026-01-15 20:26:06.24	359.21	11.20	-38.2	-39.7	25.2	3.02e+01	46	30	0	16777216	50	6587
2026-01-15 20:26:07.25	358.99	11.22	-38.3	-39.8	25.2	3.02e+01	60	30	0	18350080	50	6726
2026-01-15 20:26:08.25	358.78	11.24	-38.4	-40.0	25.2	3.02e+01	56	30	0	20447232	50	6825
2026-01-15 20:26:09.27	358.57	11.26	-37.7	-39.2	25.7	3.02e+01	45	30	0	22544384	50	6211
2026-01-15 20:26:10.28	358.36	11.28	-37.4	-38.9	26.1	3.02e+01	62	30	0	24117248	50	6018
2026-01-15 20:26:11.28	358.15	11.30	-36.9	-38.3	26.5	3.02e+01	56	30	0	26214400	50	5641
2026-01-15 20:26:12.29	357.93	11.32	-36.8	-38.2	26.6	3.02e+01	58	30	0	27787264	48	6255
2026-01-15 20:26:13.30	357.72	11.34	-36.7	-38.1	26.8	3.02e+01	60	30	0	29884416	48	6137
2026-01-15 20:26:14.31	357.50	11.36	-36.3	-37.7	27.1	3.02e+01	47	30	0	31981568	48	5883
2026-01-15 20:26:15.31	357.29	11.37	-35.8	-37.1	27.8	3.02e+01	59	30	0	33554432	46	6150
2026-01-15 20:26:16.33	357.08	11.39	-35.6	-36.9	27.9	3.02e+01	57	30	0	35651584	46	5995
2026-01-15 20:26:17.34	356.86	11.41	-35.5	-36.8	27.9	3.02e+01	44	30	0	37224448	46	5961
2026-01-15 20:26:18.35	356.65	11.43	-35.1	-36.3	28.4	3.02e+01	59	30	0	39321600	46	5645
2026-01-15 20:26:19.36	356.43	11.44	-35.1	-36.4	28.3	3.02e+01	59	30	0	41418752	46	5675
2026-01-15 20:26:20.36	356.22	11.46	-35.1	-36.4	28.3	3.02e+01	58	30	0	42991616	46	5668
2026-01-15 20:26:21.38	356.00	11.47	-35.1	-36.4	28.3	3.02e+01	58	30	0	45088768	46	5683
2026-01-15 20:26:22.39	355.78	11.49	-35.2	-36.4	28.3	3.02e+01	53	30	0	47185920	46	5722
2026-01-15 20:26:23.40	355.57	11.50	-35.1	-36.4	28.3	3.02e+01	62	30	0	48758784	46	5663
2026-01-15 20:26:24.40	355.35	11.52	-35.1	-36.3	28.3	3.02e+01	59	30	0	50855936	46	5652
2026-01-15 20:26:25.41	355.14	11.53	-34.9	-36.2	28.4	3.02e+01	45	30	0	52428800	46	5566
2026-01-15 20:26:26.42	354.92	11.54	-35.1	-36.4	28.3	3.02e+01	59	30	0	54525952	44	6357
2026-01-15 20:26:27.43	354.70	11.56	-35.0	-36.3	28.4	3.02e+01	60	30	0	56623104	44	6283
2026-01-15 20:26:28.44	354.49	11.57	-35.1	-36.3	28.4	3.02e+01	63	30	0	58195968	44	6331
2026-01-15 20:26:29.45	354.27	11.58	-35.1	-36.4	28.3	3.02e+01	59	30	0	60293120	44	6370
2026-01-15 20:26:30.46	354.05	11.59	-35.1	-36.4	28.3	3.02e+01	49	30	0	62390272	44	6386
2026-01-15 20:26:31.47	353.83	11.61	-35.1	-36.4	28.3	3.02e+01	60	30	0	63963136	44	6389
2026-01-15 20:26:32.48	353.61	11.62	-35.1	-36.4	28.3	3.02e+01	59	30	0	66060288	44	6385
2026-01-15 20:26:33.49	353.40	11.63	-35.2	-36.4	28.2	3.02e+01	44	30	0	67633152	44	6412
2026-01-15 20:26:34.50	353.18	11.64	-35.2	-36.4	28.3	3.02e+01	59	29	0	69730304	44	6393
2026-01-15 20:26:35.50	352.96	11.65	-35.1	-36.3	28.4	3.02e+01	57	30	0	71827456	44	6330
2026-01-15 20:26:36.51	352.74	11.66	-35.0	-36.2	28.6	3.02e+01	58	29	0	73400320	44	6241
2026-01-15 20:26:37.52	352.52	11.67	-35.0	-36.3	28.4	3.02e+01	58	30	0	75497472	44	6299
2026-01-15 20:26:38.53	352.30	11.68	-35.1	-36.3	28.3	3.02e+01	52	29	0	77070336	44	6346
2026-01-15 20:26:39.54	352.09	11.69	-35.2	-36.5	28.3	3.02e+01	59	30	0	79167488	44	6464
2026-01-15 20:26:40.55	351.87	11.69	-35.2	-36.5	28.2	3.02e+01	59	30	0	80740352	44	6462
2026-01-15 20:26:41.56	351.65	11.70	-35.1	-36.4	28.3	3.02e+01	59	29	0	82837504	44	6397
2026-01-15 20:26:42.57	351.43	11.71	-35.1	-36.4	28.3	3.02e+01	60	30	0	84934656	44	6354
2026-01-15 20:26:43.58	351.21	11.72	-35.0	-36.3	28.3	3.02e+01	46	29	0	86507520	44	6311
2026-01-15 20:26:44.59	350.99	11.72	-35.2	-36.4	28.2	3.02e+01	57	30	0	88604672	44	6409
2026-01-15 20:26:45.60	350.77	11.73	-35.2	-36.4	28.3	3.02e+01	57	29	0	90701824	44	6402
2026-01-15 20:26:46.61	350.55	11.74	-35.3	-36.6	28.2	3.02e+01	50	30	0	92274688	44	6506
2026-01-15 20:26:47.62	350.33	11.74	-35.2	-36.5	28.2	3.02e+01	61	30	0	94371840	44	6425
2026-01-15 20:26:48.63	350.11	11.75	-35.2	-36.5	28.2	3.02e+01	60	30	0	95944704	44	6444
2026-01-15 20:26:49.63	349.89	11.75	-35.2	-36.4	28.3	3.02e+01	60	30	0	98041856	44	6416
2026-01-15 20:26:50.64	349.67	11.76	-35.2	-36.5	28.3	3.02e+01	60	30	0	100139008	44	6464
2026-01-15 20:26:51.65	349.45	11.76	-35.2	-36.4	28.2	3.02e+01	49	30	0	101711872	44	6405
2026-01-15 20:26:52.66	349.23	11.76	-35.2	-36.4	28.3	3.02e+01	60	29	0	103809024	44	6398
2026-01-15 20:26:53.67	349.01	11.77	-35.2	-36.5	28.2	3.02e+01	61	29	0	105381888	44	6435
2026-01-15 20:26:54.68	348.79	11.77	-35.1	-36.4	28.3	3.02e+01	49	30	0	107479040	44	6377
2026-01-15 20:26:55.69	348.57	11.77	-35.2	-36.5	28.2	3.02e+01	60	29	0	109576192	44	6477
2026-01-15 20:26:56.70	348.34	11.77	-35.1	-36.4	28.3	3.02e+01	55	30	0	111149056	44	6388
2026-01-15 20:26:57.71	348.12	11.78	-35.1	-36.4	28.3	3.02e+01	60	29	0	113246208	44	6361
2026-01-15 20:26:58.72	347.90	11.78	-35.2	-36.5	28.2	3.02e+01	59	29	0	115343360	44	6464
2026-01-15 20:26:59.73	347.68	11.78	-35.2	-36.4	28.2	3.02e+01	57	29	0	116916224	44	6414
2026-01-15 20:27:00.74	347.46	11.78	-35.3	-36.6	28.1	3.02e+01	57	29	0	119013376	44	6518
2026-01-15 20:27:01.75	347.24	11.78	-35.3	-36.5	28.2	3.02e+01	61	29	0	120586240	44	6481
2026-01-15 20:27:02.76	347.02	11.78	-35.3	-36.6	28.1	3.02e+01	38	29	0	122683392	44	6542
2026-01-15 20:27:03.77	346.80	11.78	-35.2	-36.4	28.2	3.02e+01	61	29	0	124780544	44	6405
2026-01-15 20:27:04.77	346.58	11.78	-35.0	-36.3	28.4	3.02e+01	59	29	0	126353408	44	6288
2026-01-15 20:27:05.78	346.36	11.78	-35.2	-36.4	28.3	3.02e+01	62	30	0	128450560	44	6406
2026-01-15 20:27:06.79	346.14	11.77	-35.2	-36.5	28.2	3.02e+01	57	29	0	130023424	44	6461
2026-01-15 20:27:07.81	345.92	11.77	-35.3	-36.6	28.1	3.02e+01	53	29	0	132120576	44	6528
2026-01-15 20:27:08.81	345.70	11.77	-35.2	-36.5	28.2	3.02e+01	62	29	0	134217728	44	6464
2026-01-15 20:27:09.82	345.48	11.77	-35.3	-36.5	28.1	3.02e+01	65	29	0	135790592	44	6495
2026-01-15 20:27:10.83	345.26	11.76	-35.2	-36.4	28.2	3.02e+01	53	30	0	137887744	44	6417
2026-01-15 20:27:11.84	345.04	11.76	-35.2	-36.5	28.3	3.02e+01	58	29	0	139460608	44	6435
2026-01-15 20:27:12.85	344.81	11.75	-35.4	-36.7	28.1	3.02e+01	62	29	0	141557760	44	6603
2026-01-15 20:27:13.86	344.59	11.75	-35.2	-36.5	28.2	3.02e+01	62	30	0	143654912	44	6460
2026-01-15 20:27:14.87	344.37	11.75	-35.3	-36.6	28.1	3.02e+01	58	30	0	145227776	44	6522
2026-01-15 20:27:15.88	344.15	11.74	-35.4	-36.6	28.0	3.02e+01	51	29	0	147324928	44	6563
2026-01-15 20:27:16.89	343.93	11.73	-35.4	-36.7	28.1	3.02e+01	61	29	0	148897792	44	6588
2026-01-15 20:27:17.90	343.71	11.73	-35.4	-36.7	28.1	3.02e+01	58	29	0	150994944	44	6579
2026-01-15 20:27:18.91	343.49	11.72	-35.3	-36.5	28.2	3.02e+01	56	29	0	153092096	44	6498
2026-01-15 20:27:19.92	343.27	11.72	-35.3	-36.6	28.2	3.02e+01	59	29	0	154664960	44	6525
2026-01-15 20:27:20.93	343.05	11.71	-35.2	-36.5	28.2	3.02e+01	46	29	0	156762112	44	6473
2026-01-15 20:27:21.94	342.83	11.70	-35.2	-36.5	28.2	3.02e+01	56	29	0	158859264	44	6439
2026-01-15 20:27:22.95	342.61	11.69	-35.3	-36.6	28.1	3.02e+01	57	29	0	160432128	44	6500
2026-01-15 20:27:23.96	342.40	11.68	-35.3	-36.6	28.1	3.02e+01	45	29	0	162529280	44	6504
2026-01-15 20:27:24.97	342.18	11.67	-35.3	-36.6	28.1	3.02e+01	56	29	0	164102144	44	6544
2026-01-15 20:27:25.98	341.96	11.67	-35.4	-36.7	28.1	3.02e+01	61	29	0	166199296	44	6603
2026-01-15 20:27:26.99	341.74	11.66	-35.5	-36.8	28.0	3.02e+01	60	29	0	168296448	44	6670
2026-01-15 20:27:28.00	341.52	11.65	-35.2	-36.5	28.2	3.02e+01	60	29	0	169869312	44	6452
2026-01-15 20:27:29.02	341.30	11.64	-35.3	-36.5	28.3	3.02e+01	58	29	0	171966464	44	6495
2026-01-15 20:27:30.03	341.08	11.63	-35.2	-36.5	28.2	3.02e+01	63	29	0	173539328	44	6472
2026-01-15 20:27:31.04	340.86	11.61	-35.4	-36.7	28.2	3.02e+01	57	29	0	175636480	44	6596
2026-01-15 20:27:32.05	340.64	11.60	-35.3	-36.6	28.1	3.02e+01	45	29	0	177733632	44	6566
2026-01-15 20:27:33.06	340.43	11.59	-35.6	-36.9	27.9	3.02e+01	58	29	0	179306496	44	6745
2026-01-15 20:27:34.06	340.21	11.58	-35.5	-36.8	28.0	3.02e+01	61	29	0	181403648	44	6678
2026-01-15 20:27:35.07	339.99	11.57	-35.5	-36.8	27.9	3.02e+01	62	29	0	183500800	44	6677
2026-01-15 20:27:36.08	339.78	11.55	-35.4	-36.7	28.1	3.02e+01	58	29	0	185073664	44	6609
2026-01-15 20:27:37.09	339.56	11.54	-35.4	-36.7	28.0	3.02e+01	56	29	0	187170816	44	6615
2026-01-15 20:27:38.10	339.34	11.53	-35.6	-36.9	27.8	3.02e+01	56	29	0	188743680	44	6743
2026-01-15 20:27:39.11	339.12	11.51	-35.5	-36.8	27.9	3.02e+01	59	29	0	190840832	44	6712
2026-01-15 20:27:40.12	338.91	11.50	-35.3	-36.6	28.1	3.02e+01	46	29	0	192937984	44	6531
2026-01-15 20:27:41.13	338.69	11.48	-35.2	-36.4	28.3	3.02e+01	52	29	0	194510848	44	6405
2026-01-15 20:27:42.14	338.48	11.47	-35.4	-36.6	28.1	3.02e+01	57	29	0	196608000	44	6572
2026-01-15 20:27:43.15	338.26	11.45	-35.3	-36.5	28.2	3.02e+01	56	29	0	198705152	44	6495
2026-01-15 20:27:44.16	338.05	11.44	-35.7	-37.0	27.7	3.02e+01	59	29	0	200278016	44	6823
2026-01-15 20:27:45.17	337.83	11.42	-35.2	-36.5	28.3	3.02e+01	54	29	0	202375168	44	6455
2026-01-15 20:27:46.18	337.61	11.40	-35.6	-36.9	27.9	3.02e+01	58	29	0	203948032	44	6774
2026-01-15 20:27:47.19	337.40	11.39	-35.2	-36.5	28.1	3.02e+01	58	29	0	206045184	44	6439
2026-01-15 20:27:48.20	337.19	11.37	-35.6	-36.9	27.8	3.02e+01	58	29	0	208142336	44	6797
2026-01-15 20:27:49.21	336.97	11.35	-35.2	-36.5	28.2	3.02e+01	57	29	0	209715200	44	6445
2026-01-15 20:27:50.22	336.76	11.33	-35.4	-36.7	28.0	3.02e+01	54	29	0	211812352	44	6621
2026-01-15 20:27:51.23	336.54	11.32	-35.4	-36.6	28.1	3.02e+01	58	29	0	213385216	44	6572
2026-01-15 20:27:52.24	336.33	11.30	-35.4	-36.7	28.2	3.02e+01	59	29	0	215482368	44	6574
2026-01-15 20:27:53.25	336.12	11.28	-35.5	-36.8	27.8	3.02e+01	46	29	0	217579520	44	6691
2026-01-15 20:27:54.26	335.91	11.26	-35.4	-36.7	28.0	3.02e+01	56	29	0	219152384	44	6613
2026-01-15 20:27:55.27	335.69	11.24	-35.6	-37.0	27.8	3.02e+01	62	29	0	221249536	44	6808
2026-01-15 20:27:56.28	335.48	11.22	-35.2	-36.5	28.2	3.02e+01	59	29	0	222822400	44	6469
2026-01-15 20:27:57.29	335.27	11.20	-35.4	-36.7	28.0	3.02e+01	62	29	0	224919552	44	6589
2026-01-15 20:27:58.30	335.06	11.18	-35.3	-36.5	28.1	3.02e+01	46	29	0	227016704	44	6478
2026-01-15 20:27:59.30	334.85	11.16	-35.4	-36.6	28.1	3.02e+01	61	29	0	228589568	44	6568
2026-01-15 20:28:00.31	334.64	11.14	-35.8	-37.1	27.6	3.02e+01	53	29	0	230686720	44	6898
2026-01-15 20:28:01.33	334.43	11.11	-35.9	-37.2	27.5	3.02e+01	47	29	0	232259584	46	6231
2026-01-15 20:28:02.34	334.22	11.09	-36.5	-37.9	27.0	3.02e+01	61	29	0	234356736	46	6756
2026-01-15 20:28:03.35	334.01	11.07	-35.5	-36.8	27.9	3.02e+01	55	29	0	236453888	46	5969
2026-01-15 20:28:04.35	333.80	11.05	-35.8	-37.1	27.6	3.02e+01	58	29	0	238026752	46	6199
2026-01-15 20:28:05.36	333.59	11.02	-35.5	-36.8	27.9	3.02e+01	59	29	0	240123904	46	5968
2026-01-15 20:28:06.37	333.38	11.00	-35.6	-36.9	27.8	3.02e+01	62	29	0	241696768	46	6026
2026-01-15 20:28:07.38	333.17	10.98	-35.4	-36.6	28.0	3.02e+01	61	29	0	243793920	46	5852
2026-01-15 20:28:08.39	332.96	10.95	-35.5	-36.7	27.9	3.02e+01	59	29	0	245891072	46	5917
2026-01-15 20:28:09.40	332.76	10.93	-36.0	-37.3	27.4	3.02e+01	53	29	0	247463936	46	6310
2026-01-15 20:28:10.41	332.55	10.90	-35.5	-36.8	27.9	3.02e+01	58	29	0	249561088	46	5937
2026-01-15 20:28:11.42	332.34	10.88	-35.8	-37.2	27.6	3.02e+01	56	29	0	251658240	46	6212
2026-01-15 20:28:12.43	332.14	10.85	-35.9	-37.3	27.5	3.02e+01	62	29	0	253231104	46	6284
2026-01-15 20:28:13.44	331.93	10.83	-35.9	-37.2	27.6	3.02e+01	57	29	0	255328256	46	6220
2026-01-15 20:28:14.45	331.72	10.80	-35.3	-36.6	28.1	3.02e+01	54	29	0	256901120	46	5826
2026-01-15 20:28:15.46	331.52	10.78	-35.4	-36.6	28.0	3.02e+01	61	29	0	258998272	46	5857
2026-01-15 20:28:16.47	331.31	10.75	-35.5	-36.8	27.9	3.02e+01	58	29	0	261095424	46	5984
2026-01-15 20:28:17.48	331.11	10.72	-35.7	-37.0	27.7	3.02e+01	47	29	0	262668288	46	6089
2026-01-15 20:28:18.48	330.91	10.69	-36.2	-37.5	27.3	3.02e+01	59	29	0	264765440	46	6477
2026-01-15 20:28:19.50	330.70	10.67	-36.2	-37.5	27.3	3.02e+01	60	29	0	266338304	46	6457
2026-01-15 20:28:20.50	330.50	10.64	-35.8	-37.1	27.7	3.02e+01	59	29	0	268435456	46	6151
2026-01-15 20:28:21.51	330.30	10.61	-35.8	-37.1	27.6	3.02e+01	60	29	0	270532608	46	6144
2026-01-15 20:28:22.52	330.10	10.58	-35.6	-36.9	27.8	3.02e+01	53	29	0	272105472	46	6036
2026-01-15 20:28:23.53	329.89	10.56	-35.6	-36.9	27.8	3.02e+01	59	29	0	274202624	46	6000
2026-01-15 20:28:24.54	329.69	10.53	-35.7	-37.0	27.7	3.02e+01	58	29	0	275775488	46	6074
2026-01-15 20:28:25.55	329.49	10.50	-35.5	-36.8	27.9	3.02e+01	60	29	0	277872640	46	5960
2026-01-15 20:28:26.56	329.29	10.47	-36.0	-37.4	27.3	3.02e+01	62	29	0	279969792	46	6359
2026-01-15 20:28:27.57	329.09	10.44	-36.2	-37.5	27.3	3.02e+01	47	29	0	281542656	46	6462
2026-01-15 20:28:28.58	328.89	10.41	-36.1	-37.4	27.4	3.02e+01	64	29	0	283639808	46	6399
2026-01-15 20:28:29.59	328.69	10.38	-35.8	-37.1	27.6	3.02e+01	58	29	0	285212672	46	6167
2026-01-15 20:28:30.60	328.49	10.35	-35.7	-37.0	27.8	3.02e+01	53	29	0	287309824	46	6077
2026-01-15 20:28:31.61	328.30	10.32	-35.7	-37.1	27.6	3.02e+01	58	29	0	289406976	46	6138
2026-01-15 20:28:32.62	328.10	10.29	-35.7	-37.0	27.7	3.02e+01	59	29	0	290979840	46	6103
2026-01-15 20:28:33.63	327.90	10.25	-35.9	-37.2	27.5	3.02e+01	60	29	0	293076992	46	6266
2026-01-15 20:28:34.64	327.70	10.22	-35.4	-36.7	28.0	3.02e+01	60	29	0	295174144	46	5885
2026-01-15 20:28:35.65	327.51	10.19	-36.3	-37.7	27.1	3.02e+01	45	29	0	296747008	46	6589
2026-01-15 20:28:36.66	327.31	10.16	-35.6	-36.9	27.7	3.02e+01	60	29	0	298844160	46	6009
2026-01-15 20:28:37.67	327.11	10.13	-36.7	-38.2	26.7	3.02e+01	55	29	0	300417024	46	6968
2026-01-15 20:28:38.67	326.92	10.09	-35.8	-37.1	27.6	3.02e+01	50	29	0	302514176	46	6163
2026-01-15 20:28:39.68	326.73	10.06	-36.3	-37.6	27.1	3.02e+01	57	29	0	304611328	46	6567
2026-01-15 20:28:40.69	326.53	10.03	-36.3	-37.6	27.3	3.02e+01	55	29	0	306184192	46	6566
2026-01-15 20:28:41.70	326.34	9.99	-35.5	-36.8	27.9	3.02e+01	52	29	0	308281344	46	5959
2026-01-15 20:28:42.71	326.15	9.96	-36.0	-37.4	27.3	3.02e+01	58	29	0	309854208	46	6380
2026-01-15 20:28:43.71	325.96	9.93	-35.8	-37.0	27.6	3.02e+01	57	29	0	311951360	46	6109
2026-01-15 20:28:44.72	325.76	9.89	-37.0	-38.5	26.1	3.02e+01	56	29	0	314048512	48	6459
2026-01-15 20:28:45.73	325.57	9.86	-35.5	-36.8	27.7	3.02e+01	61	29	0	315621376	46	5944
2026-01-15 20:28:46.74	325.38	9.82	-37.5	-39.1	25.7	3.02e+01	46	29	0	317718528	48	6907
2026-01-15 20:28:47.75	325.19	9.79	-35.5	-36.7	28.0	3.02e+01	58	29	0	319291392	46	5896
2026-01-15 20:28:48.76	325.00	9.75	-36.5	-38.0	26.8	3.02e+01	60	29	0	321388544	46	6819
2026-01-15 20:28:49.77	324.81	9.72	-35.7	-37.0	27.7	3.02e+01	57	29	0	323485696	46	6066
2026-01-15 20:28:50.78	324.62	9.68	-35.8	-37.1	27.6	3.02e+01	59	29	0	325058560	46	6148
2026-01-15 20:28:51.79	324.43	9.65	-36.2	-37.6	27.1	3.02e+01	53	29	0	327155712	46	6568
2026-01-15 20:28:52.80	324.24	9.61	-35.2	-36.4	28.1	3.02e+01	59	29	0	328728576	46	5719
2026-01-15 20:28:53.80	324.06	9.58	-36.8	-38.2	26.5	3.02e+01	59	29	0	330825728	46	7041
2026-01-15 20:28:54.82	323.87	9.54	-35.6	-36.8	27.8	3.02e+01	54	29	0	332922880	46	5977
2026-01-15 20:28:55.83	323.68	9.50	-36.9	-38.3	26.5	3.02e+01	63	29	0	334495744	46	7089
2026-01-15 20:28:56.84	323.50	9.47	-35.9	-37.3	27.4	3.02e+01	61	29	0	336592896	48	5608
2026-01-15 20:28:57.85	323.31	9.43	-36.0	-37.3	27.4	3.02e+01	60	29	0	338165760	46	6292
2026-01-15 20:28:58.86	323.12	9.39	-36.2	-37.6	27.2	3.02e+01	60	29	0	340262912	46	6545
2026-01-15 20:28:59.86	322.94	9.36	-35.6	-36.9	27.8	3.02e+01	51	29	0	342360064	46	6019
2026-01-15 20:29:00.87	322.76	9.32	-36.1	-37.4	27.2	3.02e+01	55	29	0	343932928	46	6391
2026-01-15 20:29:01.88	322.57	9.28	-36.5	-37.8	26.9	3.02e+01	57	29	0	346030080	46	6718
2026-01-15 20:29:02.89	322.39	9.24	-36.1	-37.4	27.0	3.02e+01	57	29	0	348127232	46	6418
2026-01-15 20:29:03.90	322.21	9.20	-36.9	-38.3	26.5	3.02e+01	57	29	0	349700096	48	6337
2026-01-15 20:29:04.91	322.03	9.16	-35.7	-37.0	27.7	3.02e+01	46	29	0	351797248	46	6100
2026-01-15 20:29:05.92	321.84	9.13	-35.9	-37.3	27.5	3.02e+01	59	29	0	353370112	46	6287
2026-01-15 20:29:06.93	321.66	9.09	-36.0	-37.4	27.3	3.02e+01	60	29	0	355467264	46	6365
2026-01-15 20:29:07.94	321.48	9.05	-36.0	-37.4	27.3	3.02e+01	50	29	0	357564416	46	6354
2026-01-15 20:29:08.95	321.30	9.01	-36.0	-37.4	27.3	3.02e+01	55	29	0	359137280	46	6387
2026-01-15 20:29:09.96	321.12	8.97	-35.9	-37.3	27.4	3.02e+01	61	29	0	361234432	46	6284
2026-01-15 20:29:10.97	320.95	8.93	-36.0	-37.3	27.4	3.02e+01	56	29	0	363331584	46	6326
2026-01-15 20:29:11.98	320.77	8.89	-36.4	-37.8	26.9	3.02e+01	60	29	0	364904448	46	6662
2026-01-15 20:29:12.99	320.59	8.85	-36.2	-37.5	27.1	3.02e+01	46	29	0	367001600	46	6464
2026-01-15 20:29:14.00	320.41	8.81	-36.1	-37.5	27.2	3.02e+01	59	29	0	368574464	46	6429
2026-01-15 20:29:15.01	320.24	8.77	-36.0	-37.4	27.3	3.02e+01	61	29	0	370671616	46	6364
2026-01-15 20:29:16.02	320.06	8.73	-35.8	-37.0	27.5	3.02e+01	45	29	0	372768768	46	6133
2026-01-15 20:29:17.03	319.88	8.69	-36.4	-37.8	26.9	3.02e+01	60	29	0	374341632	46	6667
2026-01-15 20:29:18.04	319.71	8.65	-36.2	-37.5	27.2	3.02e+01	62	29	0	376438784	46	6461
2026-01-15 20:29:19.05	319.53	8.61	-36.2	-37.5	27.2	3.02e+01	60	29	0	378011648	46	6469
2026-01-15 20:29:20.06	319.36	8.57	-36.4	-37.7	27.0	3.02e+01	61	29	0	380108800	46	6634
2026-01-15 20:29:21.06	319.19	8.53	-36.3	-37.6	27.1	3.02e+01	48	29	0	382205952	46	6561
2026-01-15 20:29:22.07	319.01	8.48	-36.0	-37.4	27.3	3.02e+01	59	29	0	383778816	46	6359
2026-01-15 20:29:23.08	318.84	8.44	-36.3	-37.7	27.0	3.02e+01	49	29	0	385875968	46	6613
2026-01-15 20:29:24.09	318.67	8.40	-36.2	-37.5	27.2	3.02e+01	53	29	0	387448832	46	6477
2026-01-15 20:29:25.10	318.50	8.36	-36.1	-37.4	27.2	3.02e+01	62	29	0	389545984	46	6413
2026-01-15 20:29:26.11	318.33	8.32	-36.4	-37.8	26.8	3.02e+01	58	29	0	391643136	46	6716
2026-01-15 20:29:27.12	318.16	8.28	-35.9	-37.2	27.4	3.02e+01	60	29	0	393216000	46	6256
2026-01-15 20:29:28.13	317.99	8.23	-36.6	-38.1	26.7	3.02e+01	59	29	0	395313152	46	6885
2026-01-15 20:29:29.14	317.82	8.19	-36.3	-37.7	26.9	3.02e+01	54	29	0	396886016	46	6582
2026-01-15 20:29:30.15	317.65	8.15	-36.5	-37.9	26.8	3.02e+01	61	29	0	398983168	46	6743
2026-01-15 20:29:31.16	317.48	8.11	-37.3	-38.8	26.2	3.02e+01	58	29	0	401080320	48	6704
2026-01-15 20:29:32.17	317.32	8.06	-36.0	-37.3	27.3	3.02e+01	54	29	0	402653184	48	5657
2026-01-15 20:29:33.18	317.15	8.02	-36.7	-38.1	26.5	3.02e+01	60	29	0	404750336	48	6174
2026-01-15 20:29:34.19	316.98	7.98	-36.4	-37.8	26.9	3.02e+01	52	29	0	406323200	48	5967
2026-01-15 20:29:35.19	316.82	7.93	-36.2	-37.5	27.1	3.02e+01	62	29	0	408420352	48	5768
2026-01-15 20:29:36.20	316.65	7.89	-36.5	-37.9	26.8	3.02e+01	58	29	0	410517504	48	6030
2026-01-15 20:29:37.22	316.49	7.85	-36.4	-37.8	26.8	3.02e+01	47	29	0	412090368	48	5953
2026-01-15 20:29:38.23	316.32	7.80	-37.0	-38.5	26.2	3.02e+01	61	29	0	414187520	48	6451
2026-01-15 20:29:39.24	316.16	7.76	-36.7	-38.1	26.5	3.02e+01	59	29	0	416284672	48	6155
2026-01-15 20:29:40.25	315.99	7.71	-36.7	-38.1	26.6	3.02e+01	56	29	0	417857536	48	6150
2026-01-15 20:29:41.26	315.83	7.67	-37.7	-39.3	25.3	3.02e+01	59	29	0	419954688	48	7103
2026-01-15 20:29:42.27	315.67	7.63	-36.6	-38.0	26.6	3.02e+01	43	29	0	421527552	48	6108
2026-01-15 20:29:43.28	315.51	7.58	-36.7	-38.1	26.3	3.02e+01	58	29	0	423624704	48	6168
2026-01-15 20:29:44.29	315.35	7.54	-37.8	-39.4	25.1	3.02e+01	58	29	0	425721856	48	7175
2026-01-15 20:29:45.30	315.19	7.49	-36.6	-37.9	26.7	3.02e+01	45	29	0	427294720	48	6053
2026-01-15 20:29:46.31	315.03	7.45	-36.8	-38.2	26.2	3.02e+01	57	29	0	429391872	48	6235
2026-01-15 20:29:47.32	314.87	7.40	-37.1	-38.6	25.9	3.02e+01	60	29	0	430964736	48	6568
2026-01-15 20:29:48.33	314.71	7.36	-35.8	-37.1	27.5	3.02e+01	57	29	0	433061888	46	6203
2026-01-15 20:29:49.34	314.55	7.31	-36.5	-37.9	26.6	3.02e+01	59	29	0	435159040	46	6790
2026-01-15 20:29:50.35	314.39	7.27	-36.8	-38.2	26.3	3.02e+01	60	29	0	436731904	46	7024
2026-01-15 20:29:51.35	314.24	7.22	-36.5	-37.9	26.7	3.02e+01	57	29	0	438829056	46	6750
2026-01-15 20:29:52.36	314.08	7.18	-36.8	-38.3	26.4	3.02e+01	58	29	0	440926208	46	7085
2026-01-15 20:29:53.37	313.92	7.13	-36.4	-37.9	26.7	3.02e+01	50	29	0	442499072	46	6728
2026-01-15 20:29:54.38	313.77	7.09	-36.5	-37.8	26.6	3.02e+01	57	29	0	444596224	46	6705
2026-01-15 20:29:55.39	313.61	7.04	-37.3	-38.9	25.9	3.02e+01	60	29	0	446169088	48	6727
2026-01-15 20:29:56.40	313.46	7.00	-37.6	-39.1	25.6	3.02e+01	62	29	0	448266240	48	6895
2026-01-15 20:29:57.41	313.31	6.95	-36.8	-38.2	26.4	3.02e+01	60	29	0	450363392	48	6257
2026-01-15 20:29:58.42	313.15	6.91	-37.3	-38.8	25.9	3.02e+01	48	29	0	451936256	48	6688
2026-01-15 20:29:59.43	313.00	6.86	-36.6	-38.0	26.5	3.02e+01	61	29	0	454033408	48	6091
2026-01-15 20:30:00.43	312.85	6.81	-36.4	-37.7	26.8	3.02e+01	58	29	0	455606272	48	5903
2026-01-15 20:30:01.44	312.70	6.77	-37.1	-38.6	26.0	3.02e+01	52	29	0	457703424	48	6552
2026-01-15 20:30:02.45	312.54	6.72	-36.6	-38.0	26.5	3.02e+01	61	29	0	459800576	48	6068
2026-01-15 20:30:03.46	312.39	6.68	-36.4	-37.8	26.8	3.02e+01	59	29	0	461373440	48	5948
2026-01-15 20:30:04.47	312.24	6.63	-37.0	-38.5	26.0	3.02e+01	58	29	0	463470592	48	6468
2026-01-15 20:30:05.48	312.09	6.58	-36.9	-38.3	26.1	3.02e+01	55	29	0	465043456	48	6320
2026-01-15 20:30:06.49	311.94	6.54	-36.4	-37.7	26.8	3.02e+01	56	29	0	467140608	48	5889
2026-01-15 20:30:07.50	311.80	6.49	-36.5	-37.9	26.6	3.02e+01	61	29	0	469237760	48	6052
2026-01-15 20:30:08.51	311.65	6.44	-36.8	-38.2	26.4	3.02e+01	61	29	0	470810624	48	6246
2026-01-15 20:30:09.52	311.50	6.40	-36.8	-38.2	26.4	3.02e+01	58	29	0	472907776	48	6224
2026-01-15 20:30:10.53	311.35	6.35	-36.7	-38.2	26.3	3.02e+01	59	29	0	474480640	48	6220
2026-01-15 20:30:11.54	311.21	6.30	-36.9	-38.3	26.2	3.02e+01	58	29	0	476577792	48	6345
2026-01-15 20:30:12.55	311.06	6.26	-36.9	-38.3	26.2	3.02e+01	61	29	0	478674944	48	6342
2026-01-15 20:30:13.56	310.91	6.21	-36.8	-38.2	26.3	3.02e+01	59	29	0	480247808	48	6276
2026-01-15 20:30:14.57	310.77	6.16	-37.2	-38.7	25.9	3.02e+01	50	29	0	482344960	48	6612
2026-01-15 20:30:15.58	310.63	6.12	-36.8	-38.3	26.2	3.02e+01	62	29	0	484442112	48	6313
2026-01-15 20:30:16.59	310.48	6.07	-36.7	-38.1	26.4	3.02e+01	62	29	0	486014976	48	6193
2026-01-15 20:30:17.60	310.34	6.02	-36.8	-38.2	26.3	3.02e+01	58	29	0	488112128	48	6275
2026-01-15 20:30:18.61	310.19	5.97	-36.9	-38.4	26.2	3.02e+01	58	29	0	489684992	48	6374
2026-01-15 20:30:19.62	310.05	5.93	-37.1	-38.7	25.8	3.02e+01	51	29	0	491782144	48	6581
2026-01-15 20:30:20.63	309.91	5.88	-37.1	-38.7	26.0	3.02e+01	60	29	0	493879296	48	6577
2026-01-15 20:30:21.64	309.77	5.83	-37.2	-38.7	25.8	3.02e+01	58	29	0	495452160	48	6638
2026-01-15 20:30:22.65	309.63	5.78	-36.9	-38.4	26.1	3.02e+01	44	29	0	497549312	48	6385
2026-01-15 20:30:23.66	309.49	5.74	-36.9	-38.4	26.1	3.02e+01	59	29	0	499122176	48	6358
2026-01-15 20:30:24.67	309.35	5.69	-37.1	-38.6	25.9	3.02e+01	56	29	0	501219328	48	6566
2026-01-15 20:30:25.68	309.21	5.64	-37.2	-38.7	25.8	3.02e+01	61	29	0	503316480	48	6615
2026-01-15 20:30:26.69	309.07	5.59	-37.2	-38.7	25.8	3.02e+01	60	29	0	504889344	48	6647
2026-01-15 20:30:27.70	308.93	5.55	-36.8	-38.2	26.2	3.02e+01	50	29	0	506986496	48	6276
2026-01-15 20:30:28.71	308.79	5.50	-37.0	-38.5	26.0	3.02e+01	57	29	0	509083648	48	6433
2026-01-15 20:30:29.72	308.66	5.45	-37.2	-38.7	25.8	3.02e+01	57	29	0	510656512	48	6617
2026-01-15 20:30:30.73	308.52	5.40	-37.2	-38.7	25.7	3.02e+01	46	29	0	512753664	48	6631
2026-01-15 20:30:31.74	308.38	5.35	-37.0	-38.5	25.9	3.02e+01	58	29	0	514326528	48	6494
2026-01-15 20:30:32.75	308.25	5.31	-36.8	-38.2	26.2	3.02e+01	61	29	0	516423680	48	6260
2026-01-15 20:30:33.76	308.11	5.26	-36.8	-38.2	26.2	3.02e+01	56	29	0	518520832	48	6249
2026-01-15 20:30:34.77	307.98	5.21	-37.0	-38.5	26.0	3.02e+01	59	29	0	520093696	48	6453
2026-01-15 20:30:35.78	307.84	5.16	-37.2	-38.7	25.8	3.02e+01	50	29	0	522190848	48	6585
2026-01-15 20:30:36.79	307.71	5.11	-37.3	-38.8	25.7	3.02e+01	57	29	0	523763712	48	6719
2026-01-15 20:30:37.80	307.57	5.06	-37.3	-38.8	25.7	3.02e+01	59	29	0	525860864	48	6680
2026-01-15 20:30:38.81	307.44	5.02	-37.5	-39.1	25.4	3.02e+01	45	29	0	527958016	48	6926
2026-01-15 20:30:39.82	307.31	4.97	-37.4	-39.0	25.4	3.02e+01	61	29	0	529530880	48	6819
2026-01-15 20:30:40.83	307.18	4.92	-37.1	-38.6	25.8	3.02e+01	62	29	0	531628032	48	6544
2026-01-15 20:30:41.84	307.05	4.87	-37.1	-38.6	25.8	3.02e+01	59	29	0	533200896	48	6526
2026-01-15 20:30:42.84	306.92	4.82	-37.3	-38.8	25.6	3.02e+01	57	29	0	535298048	48	6707
2026-01-15 20:30:43.85	306.79	4.77	-37.6	-39.1	25.3	3.02e+01	55	29	0	537395200	48	6944
2026-01-15 20:30:44.86	306.66	4.73	-37.6	-39.2	25.2	3.02e+01	63	29	0	538968064	48	6995
2026-01-15 20:30:45.87	306.53	4.68	-37.3	-38.9	25.5	3.02e+01	60	29	0	541065216	48	6753
2026-01-15 20:30:46.88	306.40	4.63	-37.4	-39.0	25.4	3.02e+01	60	29	0	542638080	48	6854
2026-01-15 20:30:47.89	306.27	4.58	-37.1	-38.6	25.7	3.02e+01	61	29	0	544735232	48	6570
2026-01-15 20:30:48.90	306.14	4.53	-37.2	-38.7	25.6	3.02e+01	44	29	0	546832384	48	6600
2026-01-15 20:30:49.91	306.01	4.48	-37.3	-38.9	25.5	3.02e+01	58	29	0	548405248	48	6781
2026-01-15 20:30:50.92	305.89	4.43	-37.6	-39.2	25.2	3.02e+01	58	29	0	550502400	48	7022
2026-01-15 20:30:51.93	305.76	4.39	-37.4	-39.0	25.4	3.02e+01	46	29	0	552599552	48	6808
2026-01-15 20:30:52.94	305.63	4.34	-37.3	-38.8	25.5	3.02e+01	59	29	0	554172416	48	6717
2026-01-15 20:30:53.95	305.51	4.29	-37.4	-38.9	25.3	3.02e+01	58	29	0	556269568	48	6780
2026-01-15 20:30:54.96	305.38	4.24	-37.7	-39.3	25.0	3.02e+01	58	29	0	557842432	48	7085
2026-01-15 20:30:55.97	305.26	4.19	-37.9	-39.6	24.8	3.02e+01	59	29	0	559939584	48	7324
2026-01-15 20:30:56.98	305.13	4.14	-38.2	-39.8	24.5	3.02e+01	56	29	0	562036736	50	6717
2026-01-15 20:30:57.99	305.01	4.09	-37.7	-39.3	25.1	3.02e+01	59	29	0	563609600	50	6327
2026-01-15 20:30:59.00	304.89	4.04	-37.3	-38.8	25.5	3.02e+01	59	29	0	565706752	50	5966
2026-01-15 20:31:00.01	304.76	4.00	-37.5	-39.0	25.3	3.02e+01	52	29	0	567279616	50	6114
2026-01-15 20:31:00.99	304.64	3.95	-37.9	-39.5	24.9	3.02e+01	59	29	0	569376768	50	6441
2026-01-15 20:31:02.00	304.52	3.90	-37.9	-39.6	24.7	3.02e+01	60	29	0	570949632	50	6559
2026-01-15 20:31:03.01	304.40	3.85	-38.0	-39.7	24.7	3.02e+01	58	29	0	573046784	50	6597
2026-01-15 20:31:04.02	304.28	3.80	-37.5	-39.1	25.2	3.02e+01	60	29	0	575143936	50	6144
2026-01-15 20:31:05.03	304.16	3.75	-37.7	-39.3	24.9	3.02e+01	58	29	0	576716800	50	6309
2026-01-15 20:31:06.04	304.04	3.70	-37.6	-39.2	25.1	3.02e+01	57	29	0	578813952	50	6209
2026-01-15 20:31:07.05	303.92	3.66	-37.9	-39.5	24.8	3.02e+01	60	29	0	580911104	50	6429
2026-01-15 20:31:08.06	303.80	3.61	-37.8	-39.4	24.9	3.02e+01	51	29	0	582483968	50	6399
2026-01-15 20:31:09.07	303.68	3.56	-38.0	-39.6	24.6	3.02e+01	58	29	0	584581120	50	6552
2026-01-15 20:31:10.08	303.56	3.51	-37.7	-39.3	24.9	3.02e+01	61	29	0	586153984	50	6308
2026-01-15 20:31:11.09	303.44	3.46	-37.8	-39.4	24.8	3.02e+01	60	29	0	588251136	50	6402
2026-01-15 20:31:12.10	303.33	3.41	-37.8	-39.3	24.8	3.02e+01	62	29	0	590348288	50	6346
2026-01-15 20:31:13.11	303.21	3.36	-37.6	-39.2	25.0	3.02e+01	49	29	0	591921152	50	6242
2026-01-15 20:31:14.12	303.09	3.31	-37.7	-39.3	24.8	3.02e+01	60	29	0	594018304	50	6306
2026-01-15 20:31:15.13	302.98	3.26	-37.9	-39.6	24.6	3.02e+01	60	29	0	595591168	50	6519
2026-01-15 20:31:16.14	302.86	3.21	-38.2	-39.9	24.3	3.02e+01	48	29	0	597688320	50	6760
2026-01-15 20:31:17.15	302.75	3.17	-37.8	-39.4	24.7	3.02e+01	62	29	0	599785472	50	6405
2026-01-15 20:31:18.16	302.63	3.12	-38.1	-39.7	24.2	3.02e+01	58	28	0	601358336	50	6621
2026-01-15 20:31:19.17	302.52	3.07	-38.1	-39.7	24.5	3.02e+01	56	29	0	603455488	50	6608
2026-01-15 20:31:20.18	302.40	3.02	-38.0	-39.6	24.7	3.02e+01	58	28	0	605552640	50	6531
2026-01-15 20:31:21.19	302.29	2.97	-47.5	-65.3	3.5	3.02e+01	0	29	104	606076928	60	71240
2026-01-15 20:31:22.20	302.18	2.92	-48.0	-65.5	3.5	3.02e+01	0	29	104	606076928	60	72715
2026-01-15 20:31:23.21	302.06	2.87	-48.2	-66.0	3.5	3.02e+01	0	29	104	606076928	60	77141
2026-01-15 20:31:24.21	301.95	2.82	-48.4	-66.2	3.5	3.02e+01	0	29	104	606076928	60	78522
2026-01-15 20:31:25.22	301.84	2.77	-48.5	-66.3	3.5	3.02e+01	0	29	104	606076928	60	79577
2026-01-15 20:31:26.24	301.73	2.72	-48.5	-66.4	3.5	3.02e+01	0	29	104	606076928	60	80218
2026-01-15 20:31:27.24	301.62	2.68	-48.5	-66.3	3.5	3.02e+01	0	29	104	606076928	60	79462
2026-01-15 20:31:28.25	301.51	2.63	-48.4	-66.3	3.5	3.02e+01	0	29	104	606076928	60	79891
2026-01-15 20:31:29.26	301.40	2.58	-48.5	-66.4	3.5	3.02e+01	0	29	104	606076928	60	80229
2026-01-15 20:31:30.27	301.29	2.53	-48.4	-66.4	3.5	3.02e+01	0	29	104	606076928	60	80736
2026-01-15 20:31:31.28	301.18	2.48	-48.3	-66.3	3.5	3.02e+01	0	29	104	606076928	60	79590
2026-01-15 20:31:32.29	301.07	2.43	-48.4	-66.3	3.5	3.02e+01	0	29	104	606076928	60	79632
2026-01-15 20:31:33.30	300.96	2.38	-48.3	-66.3	3.5	3.02e+01	0	29	104	606076928	60	79229
2026-01-15 20:31:34.31	300.85	2.33	-47.9	-66.2	3.5	3.02e+01	0	29	104	606076928	60	78602
2026-01-15 20:31:35.32	300.74	2.28	-48.2	-66.2	3.5	3.02e+01	0	29	104	606076928	60	78486
2026-01-15 20:31:36.33	300.64	2.23	-48.1	-66.2	3.5	3.02e+01	0	29	104	606076928	60	78959
2026-01-15 20:31:37.34	300.53	2.19	-48.6	-66.5	3.5	3.02e+01	0	29	104	606076928	60	81534
2026-01-15 20:31:38.35	300.42	2.14	-48.4	-66.4	3.5	3.02e+01	0	29	104	606076928	60	80363
2026-01-15 20:31:39.36	300.32	2.09	-48.4	-66.3	3.5	3.02e+01	0	29	104	606076928	60	79807
2026-01-15 20:31:40.36	300.21	2.04	-48.5	-66.4	3.5	3.02e+01	0	29	104	606076928	60	80168
2026-01-15 20:31:41.37	300.11	1.99	-48.4	-66.3	3.5	3.02e+01	0	29	104	606076928	60	79445
2026-01-15 20:31:42.38	300.00	1.94	-48.4	-66.3	3.5	3.02e+01	0	29	104	606076928	60	79602
2026-01-15 20:31:43.40	299.90	1.89	-48.3	-66.3	3.5	3.02e+01	0	29	104	606076928	60	79087
2026-01-15 20:31:44.40	299.79	1.84	-48.4	-66.3	3.5	3.02e+01	0	29	104	606076928	60	79319
2026-01-15 20:31:45.41	299.69	1.79	-48.4	-66.2	3.5	3.02e+01	0	29	104	606076928	60	78691
2026-01-15 20:31:46.42	299.58	1.75	-48.4	-66.3	3.5	3.02e+01	0	29	104	606076928	60	79255
2026-01-15 20:31:47.43	299.48	1.70	-48.4	-66.3	3.5	3.02e+01	0	29	104	606076928	60	79141
2026-01-15 20:31:48.44	299.38	1.65	-48.4	-66.2	3.5	3.02e+01	0	29	104	606076928	60	78793
2026-01-15 20:31:49.45	299.28	1.60	-48.3	-66.2	3.5	3.02e+01	0	29	104	606076928	60	78771
2026-01-15 20:31:50.46	299.17	1.55	-48.3	-66.2	3.5	3.02e+01	0	29	104	606076928	60	78916
2026-01-15 20:31:51.48	299.07	1.50	-48.3	-66.2	3.5	3.02e+01	0	29	104	606076928	60	78499
2026-01-15 20:31:52.49	298.97	1.45	-48.3	-66.2	3.5	3.02e+01	0	29	104	606076928	60	78836
2026-01-15 20:31:53.50	298.87	1.40	-48.3	-66.2	3.5	3.02e+01	0	29	104	606076928	60	78911
2026-01-15 20:31:54.51	298.77	1.35	-48.3	-66.2	3.5	3.02e+01	0	29	104	606076928	60	78857
2026-01-15 20:31:55.52	298.67	1.31	-48.3	-66.2	3.5	3.02e+01	0	29	104	606076928	60	78704
2026-01-15 20:31:56.53	298.57	1.26	-48.3	-66.2	3.5	3.02e+01	0	29	104	606076928	60	78543
2026-01-15 20:31:57.54	298.47	1.21	-48.3	-66.2	3.5	3.02e+01	0	29	104	606076928	60	78905
2026-01-15 20:31:58.55	298.37	1.16	-48.3	-66.2	3.5	3.02e+01	0	29	104	606076928	60	78595
2026-01-15 20:31:59.56	298.27	1.11	-48.3	-66.2	3.5	3.02e+01	0	29	104	606076928	60	78495
2026-01-15 20:32:00.57	298.17	1.06	-48.2	-66.1	3.5	3.02e+01	0	29	104	606076928	60	77872
2026-01-15 20:32:01.58	298.08	1.01	-48.3	-66.3	3.5	3.02e+01	0	29	104	606076928	60	79065
2026-01-15 20:32:02.59	297.98	0.97	-48.3	-66.2	3.5	3.02e+01	0	29	104	606076928	60	78380
2026-01-15 20:32:03.60	297.88	0.92	-48.3	-66.2	3.5	3.02e+01	0	29	104	606076928	60	78158
2026-01-15 20:32:04.61	297.79	0.87	-48.3	-66.2	3.5	3.02e+01	0	29	104	606076928	60	78503
2026-01-15 20:32:05.62	297.69	0.82	-48.3	-66.2	3.5	3.02e+01	0	29	104	606076928	60	78345
2026-01-15 20:32:06.63	297.59	0.77	-48.4	-66.3	3.5	3.02e+01	0	29	104	606076928	60	79267
2026-01-15 20:32:07.64	297.50	0.72	-48.3	-66.2	3.5	3.02e+01	0	29	104	606076928	60	78564
2026-01-15 20:32:08.65	297.40	0.67	-48.3	-66.2	3.5	3.02e+01	0	29	104	606076928	60	78316
2026-01-15 20:32:09.66	297.31	0.63	-48.3	-66.2	3.5	3.02e+01	0	29	104	606076928	60	78192
2026-01-15 20:32:10.67	297.21	0.58	-48.3	-66.2	3.5	3.02e+01	0	29	104	606076928	60	78161
2026-01-15 20:32:11.67	297.12	0.53	-48.3	-66.2	3.5	3.02e+01	0	29	104	606076928	60	78664
2026-01-15 20:32:12.69	297.02	0.48	-48.2	-66.2	3.5	3.02e+01	0	29	104	606076928	60	78230
2026-01-15 20:32:13.70	296.93	0.43	-48.3	-66.2	3.5	3.02e+01	0	29	104	606076928	60	78171
2026-01-15 20:32:14.71	296.84	0.38	-48.2	-66.1	3.5	3.02e+01	0	29	104	606076928	60	78020
2026-01-15 20:32:15.72	296.74	0.33	-48.2	-66.1	3.5	3.02e+01	0	28	104	606076928	60	78024
2026-01-15 20:32:16.73	296.65	0.29	-48.3	-66.2	3.5	3.02e+01	0	29	104	606076928	60	78911
2026-01-15 20:32:17.74	296.56	0.24	-48.3	-66.2	3.5	3.02e+01	0	29	104	606076928	60	78480
2026-01-15 20:32:18.75	296.47	0.19	-48.3	-66.1	3.5	3.02e+01	0	29	104	606076928	60	78122
2026-01-15 20:32:19.76	296.38	0.14	-48.3	-66.2	3.5	3.02e+01	0	29	104	606076928	60	79011
2026-01-15 20:32:20.77	296.28	0.09	-48.3	-66.3	3.5	3.02e+01	0	29	104	606076928	60	79094
2026-01-15 20:32:21.78	296.19	0.04	-48.3	-66.2	3.5	3.02e+01	0	29	104	606076928	60	78889
2026-01-15 20:32:22.79	296.10	-0.00	-48.3	-66.2	3.5	3.02e+01	0	29	104	606076928	60	78448
2026-01-15 20:32:23.80	296.01	-0.05	-48.3	-66.2	3.5	3.02e+01	0	29	104	606076928	60	78529
2026-01-15 20:32:24.80	295.92	-0.10	-48.3	-66.2	3.5	3.02e+01	0	29	104	606076928	60	78454

#Closed at: 2026-01-15 20:32:25
#Recorded file [606 MB]: D:/lorett/data/35029_260116_082142.dat