passes_logs/2026/01/15/R4.6S_Anadyr/R4.6S_Anadyr__20260115_141451_NOAA_21_JPSS-2_rec.log

#Pass ID: 20260115_141451_NOAA 21 (JPSS-2)
#Satellite: NOAA 21 (JPSS-2)
#Configuration: NOAA-21
#almurnet v.1.7.20251203
#Start time: 2026-01-15 14:14:53

#Version: 2.2.20231116
#Station: R4.6S_Anadyr
#Location: 177.4865 lon 64.73178 lat
#TLE: 1 54234U 22150A   26014.58979933  .00000039  00000+0  39403-4 0  9998
#TLE: 2 54234  98.7497 315.4945 0000653 294.6373  65.4735 14.19534652164756

#Time	Az	El	Level	Level2	SNR	BER	BlckErr	Temp	State	Recorded	gain1	gain2
2026-01-15 14:14:53.99	19.66	0.12	-48.4	-63.2	3.5	1.51e+00	0	26	0	0	60	52337
2026-01-15 14:14:55.00	19.68	0.18	-48.3	-61.2	3.5	1.52e+00	0	27	104	0	60	40257
2026-01-15 14:14:56.01	19.70	0.24	-48.4	-61.2	3.5	1.52e+00	0	27	104	0	60	40172
2026-01-15 14:14:57.02	19.72	0.30	-48.3	-61.3	3.5	1.52e+00	0	27	104	0	60	40580
2026-01-15 14:14:58.03	19.74	0.36	-48.3	-61.3	3.5	1.52e+00	0	27	104	0	60	40693
2026-01-15 14:14:59.04	19.75	0.42	-48.3	-61.2	3.5	1.52e+00	0	27	104	0	60	40528
2026-01-15 14:15:00.05	19.77	0.48	-48.4	-61.4	3.5	1.52e+00	0	27	104	0	60	41082
2026-01-15 14:15:01.06	19.79	0.54	-48.4	-61.3	3.5	1.52e+00	0	27	104	0	60	40626
2026-01-15 14:15:02.07	19.81	0.60	-48.3	-61.3	3.5	1.52e+00	0	27	104	0	60	40759
2026-01-15 14:15:03.08	19.83	0.66	-48.3	-61.2	3.5	1.52e+00	0	27	104	0	60	40259
2026-01-15 14:15:04.09	19.85	0.72	-48.2	-61.1	3.5	1.52e+00	0	28	104	0	60	39746
2026-01-15 14:15:05.10	19.87	0.78	-48.2	-61.0	3.5	1.52e+00	0	27	104	0	60	39302
2026-01-15 14:15:06.11	19.89	0.85	-48.1	-60.9	3.5	1.52e+00	0	28	104	0	60	38924
2026-01-15 14:15:07.12	19.91	0.91	-47.7	-60.6	3.6	1.52e+00	0	27	104	0	60	37703
2026-01-15 14:15:08.13	19.93	0.97	-47.6	-60.4	3.5	1.52e+00	0	28	104	0	60	36789
2026-01-15 14:15:09.14	19.94	1.03	-47.3	-60.2	3.5	1.51e+00	0	28	104	0	60	35936
2026-01-15 14:15:10.15	19.96	1.09	-47.1	-59.9	3.5	1.52e+00	0	28	104	0	60	34786
2026-01-15 14:15:11.17	19.98	1.15	-46.8	-59.6	3.5	1.52e+00	0	28	104	0	60	33624
2026-01-15 14:15:12.18	20.00	1.22	-46.8	-59.5	3.5	1.52e+00	0	28	104	0	60	33290
2026-01-15 14:15:13.18	20.02	1.28	-46.8	-59.5	3.5	1.52e+00	0	28	104	0	60	33279
2026-01-15 14:15:14.19	20.04	1.34	-46.8	-59.6	3.5	1.52e+00	0	28	104	0	60	33448
2026-01-15 14:15:15.20	20.06	1.40	-46.8	-59.5	3.5	1.52e+00	0	28	104	0	60	33022
2026-01-15 14:15:16.21	20.08	1.46	-46.8	-59.5	3.5	1.52e+00	0	28	104	0	60	33135
2026-01-15 14:15:17.22	20.10	1.53	-46.8	-59.6	3.5	1.52e+00	0	28	104	0	60	33349
2026-01-15 14:15:18.23	20.12	1.59	-46.8	-59.6	3.5	1.52e+00	0	28	104	0	60	33349
2026-01-15 14:15:19.24	20.14	1.65	-46.8	-59.6	3.5	1.52e+00	0	28	104	0	60	33620
2026-01-15 14:15:20.25	20.16	1.72	-46.8	-59.6	3.5	1.52e+00	0	28	104	0	60	33568
2026-01-15 14:15:21.26	20.18	1.78	-46.8	-59.6	3.5	1.52e+00	0	28	104	0	60	33411
2026-01-15 14:15:22.27	20.20	1.84	-46.8	-59.6	3.5	1.52e+00	0	28	104	0	60	33402
2026-01-15 14:15:23.28	20.22	1.91	-46.8	-59.6	3.5	1.52e+00	0	28	104	0	60	33518
2026-01-15 14:15:24.29	20.24	1.97	-46.8	-59.6	3.5	1.52e+00	0	28	104	0	60	33359
2026-01-15 14:15:25.30	20.26	2.03	-46.8	-59.6	3.5	1.52e+00	0	28	104	0	60	33554
2026-01-15 14:15:26.31	20.28	2.10	-46.8	-59.6	3.5	1.52e+00	0	28	104	0	60	33348
2026-01-15 14:15:27.32	20.30	2.16	-46.8	-59.4	3.5	1.52e+00	0	28	104	0	60	32746
2026-01-15 14:15:28.33	20.32	2.22	-46.7	-59.0	3.5	1.52e+00	0	28	104	0	60	31166
2026-01-15 14:15:29.33	20.34	2.29	-46.7	-58.4	3.5	1.52e+00	0	28	104	0	60	29288
2026-01-15 14:15:30.34	20.36	2.35	-46.6	-57.9	3.5	1.51e+00	0	28	104	0	60	27658
2026-01-15 14:15:31.35	20.39	2.42	-46.6	-57.3	3.8	1.50e+00	0	28	104	0	60	25804
2026-01-15 14:15:32.36	20.41	2.48	-46.5	-57.0	3.8	1.49e+00	0	28	104	0	60	24801
2026-01-15 14:15:33.37	20.43	2.55	-46.6	-57.3	3.8	1.49e+00	0	28	104	0	60	25760
2026-01-15 14:15:34.38	20.45	2.61	-46.6	-57.6	3.5	1.50e+00	0	28	104	0	60	26690
2026-01-15 14:15:35.39	20.47	2.68	-46.6	-57.5	3.7	1.50e+00	0	28	104	0	60	26362
2026-01-15 14:15:36.40	20.49	2.74	-46.4	-55.7	4.3	1.49e+00	0	28	104	0	60	21335
2026-01-15 14:15:37.41	20.51	2.81	-45.8	-52.6	6.7	1.47e+00	123	28	104	0	60	14992
2026-01-15 14:15:38.42	20.53	2.87	-44.7	-48.9	9.6	3.87e-02	123	28	0	1048576	60	9736
2026-01-15 14:15:39.43	20.55	2.94	-43.6	-46.8	12.1	9.88e-04	123	28	0	4194304	60	7637
2026-01-15 14:15:40.44	20.58	3.00	-42.3	-44.7	14.2	6.10e-06	120	28	0	7340032	58	6796
2026-01-15 14:15:41.45	20.60	3.07	-41.0	-42.9	16.0	0.00e+00	123	28	0	10485760	56	6178
2026-01-15 14:15:42.46	20.62	3.14	-40.1	-41.8	17.1	0.00e+00	123	28	0	13631488	54	6070
2026-01-15 14:15:43.46	20.64	3.20	-39.1	-40.6	18.2	0.00e+00	123	28	0	16777216	52	5946
2026-01-15 14:15:44.48	20.66	3.27	-38.6	-40.0	18.6	0.00e+00	123	28	0	19922944	50	6262
2026-01-15 14:15:45.49	20.68	3.34	-38.4	-39.7	19.0	0.00e+00	123	28	0	23068672	50	6060
2026-01-15 14:15:46.50	20.71	3.40	-38.2	-39.6	19.1	0.00e+00	120	28	0	26214400	50	5952
2026-01-15 14:15:47.51	20.73	3.47	-38.7	-40.1	18.6	0.00e+00	122	28	0	29360128	50	6283
2026-01-15 14:15:48.52	20.75	3.54	-38.9	-40.3	18.4	0.00e+00	123	28	0	32505856	50	6463
2026-01-15 14:15:49.53	20.77	3.60	-39.8	-41.4	17.3	0.00e+00	123	28	0	35651584	50	7344
2026-01-15 14:15:50.54	20.79	3.67	-40.8	-42.6	16.2	0.00e+00	123	28	0	38797312	52	7520
2026-01-15 14:15:51.55	20.82	3.74	-41.8	-44.0	14.5	0.00e+00	122	28	0	41943040	54	7870
2026-01-15 14:15:52.56	20.84	3.81	-37.9	-39.1	19.7	0.00e+00	123	28	0	45088768	50	5653
2026-01-15 14:15:53.57	20.86	3.87	-41.3	-43.4	14.2	0.00e+00	122	28	0	48234496	52	8212
2026-01-15 14:15:54.58	20.88	3.94	-42.7	-45.3	12.8	4.53e-02	120	28	0	51380224	58	7228
2026-01-15 14:15:55.58	20.91	4.01	-41.2	-43.5	15.9	2.65e-01	122	28	104	52428800	58	5897
2026-01-15 14:15:56.59	20.93	4.08	-45.1	-50.1	5.2	0.00e+00	123	28	0	53477376	56	14156
2026-01-15 14:15:57.60	20.95	4.15	-44.2	-48.3	4.9	1.52e+00	0	28	104	53477376	60	9127
2026-01-15 14:15:58.61	20.97	4.22	-39.5	-41.1	17.8	0.00e+00	123	28	0	53477376	52	6320
2026-01-15 14:15:59.62	21.00	4.29	-39.5	-41.0	18.0	0.00e+00	123	28	0	56623104	52	6257
2026-01-15 14:16:00.64	21.02	4.36	-39.0	-40.5	18.3	0.00e+00	123	28	0	59768832	52	5859
2026-01-15 14:16:01.65	21.04	4.42	-39.0	-40.4	18.8	0.00e+00	122	28	0	62914560	52	5797
2026-01-15 14:16:02.65	21.07	4.49	-38.3	-39.6	19.3	0.00e+00	122	28	0	66060288	50	5933
2026-01-15 14:16:03.66	21.09	4.56	-37.8	-39.1	19.8	0.00e+00	122	28	0	69206016	50	5597
2026-01-15 14:16:04.68	21.11	4.63	-38.0	-39.2	19.6	0.00e+00	122	28	0	72351744	50	5712
2026-01-15 14:16:05.69	21.14	4.70	-37.5	-38.7	20.1	0.00e+00	120	28	0	75497472	48	6032
2026-01-15 14:16:06.69	21.16	4.77	-37.4	-38.6	20.1	0.00e+00	123	28	0	78643200	48	5983
2026-01-15 14:16:07.71	21.18	4.84	-37.5	-38.7	20.0	0.00e+00	120	28	0	81788928	48	6035
2026-01-15 14:16:08.72	21.21	4.91	-37.4	-38.5	20.3	0.00e+00	123	28	0	84934656	48	5923
2026-01-15 14:16:09.73	21.23	4.99	-37.2	-38.4	20.4	0.00e+00	122	28	0	88080384	48	5817
2026-01-15 14:16:10.74	21.25	5.06	-37.3	-38.5	20.3	0.00e+00	123	28	0	91226112	48	5874
2026-01-15 14:16:11.75	21.28	5.13	-37.2	-38.3	20.5	0.00e+00	122	28	0	94371840	48	5775
2026-01-15 14:16:12.76	21.30	5.20	-37.2	-38.4	20.4	0.00e+00	123	28	0	97517568	48	5838
2026-01-15 14:16:13.77	21.33	5.27	-37.3	-38.5	20.3	0.00e+00	122	28	0	100663296	48	5871
2026-01-15 14:16:14.78	21.35	5.34	-37.1	-38.3	20.5	0.00e+00	123	28	0	103809024	48	5762
2026-01-15 14:16:15.79	21.38	5.41	-37.1	-38.3	20.6	0.00e+00	122	28	0	106954752	48	5748
2026-01-15 14:16:16.80	21.40	5.49	-37.1	-38.3	20.5	0.00e+00	122	29	0	110100480	48	5744
2026-01-15 14:16:17.81	21.42	5.56	-37.1	-38.3	20.6	0.00e+00	120	28	0	113246208	48	5732
2026-01-15 14:16:18.82	21.45	5.63	-37.0	-38.1	20.7	0.00e+00	123	28	0	116391936	48	5646
2026-01-15 14:16:19.83	21.47	5.70	-37.0	-38.1	20.7	0.00e+00	122	28	0	119537664	48	5655
2026-01-15 14:16:20.84	21.50	5.78	-36.9	-38.0	20.8	0.00e+00	123	28	0	122683392	48	5591
2026-01-15 14:16:21.85	21.52	5.85	-36.9	-38.0	20.8	0.00e+00	122	28	0	125829120	48	5583
2026-01-15 14:16:22.86	21.55	5.92	-37.0	-38.1	20.8	0.00e+00	123	28	0	128974848	48	5636
2026-01-15 14:16:23.87	21.57	6.00	-36.8	-38.0	20.9	0.00e+00	120	28	0	132120576	48	5544
2026-01-15 14:16:24.88	21.60	6.07	-36.9	-38.0	20.9	0.00e+00	123	28	0	135266304	48	5565
2026-01-15 14:16:25.89	21.63	6.14	-37.0	-38.1	20.7	0.00e+00	123	28	0	138412032	48	5624
2026-01-15 14:16:26.90	21.65	6.22	-36.9	-38.0	20.8	0.00e+00	122	28	0	141557760	48	5569
2026-01-15 14:16:27.91	21.68	6.29	-37.0	-38.1	20.8	0.00e+00	123	28	0	144703488	48	5645
2026-01-15 14:16:28.92	21.70	6.37	-36.8	-38.0	20.9	0.00e+00	122	28	0	147849216	48	5543
2026-01-15 14:16:29.92	21.73	6.44	-36.8	-37.9	21.0	0.00e+00	123	28	0	150994944	48	5506
2026-01-15 14:16:30.94	21.75	6.52	-36.9	-38.0	21.0	0.00e+00	123	28	0	154140672	48	5584
2026-01-15 14:16:31.94	21.78	6.59	-36.8	-38.0	21.0	0.00e+00	122	29	0	157286400	46	6208
2026-01-15 14:16:32.95	21.81	6.67	-36.9	-38.0	21.0	0.00e+00	123	28	0	160432128	46	6233
2026-01-15 14:16:33.96	21.83	6.74	-36.5	-37.6	21.3	0.00e+00	123	28	0	163577856	46	5975
2026-01-15 14:16:34.97	21.86	6.82	-36.6	-37.7	21.3	0.00e+00	123	29	0	166723584	46	6009
2026-01-15 14:16:35.98	21.88	6.89	-36.4	-37.5	21.3	0.00e+00	123	28	0	169869312	46	5909
2026-01-15 14:16:36.99	21.91	6.97	-36.4	-37.4	21.4	0.00e+00	123	29	0	173015040	46	5857
2026-01-15 14:16:38.00	21.94	7.05	-36.4	-37.5	21.4	0.00e+00	122	29	0	176160768	46	5892
2026-01-15 14:16:39.01	21.96	7.12	-36.3	-37.4	21.5	0.00e+00	121	28	0	179306496	46	5816
2026-01-15 14:16:40.02	21.99	7.20	-36.3	-37.4	21.5	0.00e+00	122	29	0	182452224	46	5803
2026-01-15 14:16:41.03	22.02	7.28	-36.3	-37.4	21.5	0.00e+00	123	28	0	185597952	46	5806
2026-01-15 14:16:42.04	22.05	7.35	-36.3	-37.4	21.5	0.00e+00	123	29	0	188743680	46	5812
2026-01-15 14:16:43.05	22.07	7.43	-36.2	-37.2	21.6	0.00e+00	122	28	0	191889408	46	5721
2026-01-15 14:16:44.05	22.10	7.51	-36.2	-37.3	21.6	0.00e+00	123	28	0	195035136	46	5744
2026-01-15 14:16:45.06	22.13	7.59	-36.3	-37.4	21.5	0.00e+00	122	29	0	198180864	46	5797
2026-01-15 14:16:46.07	22.16	7.67	-36.2	-37.2	21.6	0.00e+00	120	28	0	201326592	46	5708
2026-01-15 14:16:47.08	22.18	7.74	-36.2	-37.2	21.7	0.00e+00	123	28	0	204472320	46	5703
2026-01-15 14:16:48.10	22.21	7.82	-36.1	-37.2	21.8	0.00e+00	120	29	0	207618048	46	5695
2026-01-15 14:16:49.10	22.24	7.90	-36.0	-37.1	21.8	0.00e+00	122	29	0	210763776	46	5596
2026-01-15 14:16:50.11	22.27	7.98	-36.2	-37.2	21.7	0.00e+00	120	29	0	213909504	46	5725
2026-01-15 14:16:51.12	22.30	8.06	-36.1	-37.2	21.7	0.00e+00	123	29	0	217055232	46	5670
2026-01-15 14:16:52.13	22.32	8.14	-36.3	-37.4	21.5	0.00e+00	123	29	0	220200960	46	5814
2026-01-15 14:16:53.14	22.35	8.22	-36.4	-37.4	21.6	0.00e+00	122	29	0	223346688	46	5857
2026-01-15 14:16:54.15	22.38	8.30	-36.4	-37.4	21.4	0.00e+00	124	29	0	226492416	46	5856
2026-01-15 14:16:55.16	22.41	8.38	-36.4	-37.5	21.4	0.00e+00	122	28	0	229638144	46	5901
2026-01-15 14:16:56.17	22.44	8.46	-36.7	-37.7	21.4	0.00e+00	123	28	0	232783872	46	6048
2026-01-15 14:16:57.18	22.47	8.54	-36.3	-37.4	21.7	0.00e+00	123	28	0	235929600	46	5803
2026-01-15 14:16:58.19	22.50	8.62	-36.3	-37.4	21.6	0.00e+00	123	29	0	239075328	46	5804
2026-01-15 14:16:59.20	22.53	8.71	-36.1	-37.1	21.9	0.00e+00	122	28	0	242221056	46	5642
2026-01-15 14:17:00.21	22.56	8.79	-35.8	-36.8	22.1	0.00e+00	120	29	0	245366784	46	5453
2026-01-15 14:17:01.22	22.59	8.87	-35.7	-36.7	22.2	0.00e+00	120	29	0	248512512	44	6035
2026-01-15 14:17:02.22	22.62	8.95	-35.7	-36.7	22.3	0.00e+00	120	29	0	251658240	44	6028
2026-01-15 14:17:03.23	22.65	9.03	-35.6	-36.6	22.4	0.00e+00	122	29	0	254803968	44	5943
2026-01-15 14:17:04.24	22.68	9.12	-35.6	-36.6	22.3	0.00e+00	122	28	0	257949696	44	5945
2026-01-15 14:17:05.25	22.71	9.20	-35.5	-36.5	22.4	0.00e+00	123	29	0	261095424	44	5910
2026-01-15 14:17:06.26	22.74	9.28	-35.4	-36.5	22.5	0.00e+00	123	29	0	264241152	44	5860
2026-01-15 14:17:07.27	22.77	9.37	-35.5	-36.5	22.4	0.00e+00	120	29	0	267386880	44	5918
2026-01-15 14:17:08.28	22.80	9.45	-35.5	-36.5	22.5	0.00e+00	123	29	0	270532608	44	5890
2026-01-15 14:17:09.29	22.83	9.54	-35.5	-36.5	22.5	0.00e+00	123	29	0	273678336	44	5885
2026-01-15 14:17:10.30	22.86	9.62	-35.4	-36.4	22.6	0.00e+00	121	28	0	276824064	44	5830
2026-01-15 14:17:11.31	22.89	9.70	-35.4	-36.4	22.5	0.00e+00	123	29	0	279969792	44	5857
2026-01-15 14:17:12.32	22.92	9.79	-35.3	-36.3	22.6	0.00e+00	123	29	0	283115520	44	5775
2026-01-15 14:17:13.33	22.95	9.88	-35.3	-36.3	22.7	0.00e+00	123	29	0	286261248	44	5731
2026-01-15 14:17:14.34	22.98	9.96	-35.3	-36.3	22.7	0.00e+00	120	29	0	289406976	44	5753
2026-01-15 14:17:15.35	23.02	10.05	-35.2	-36.2	22.7	0.00e+00	122	29	0	292552704	44	5709
2026-01-15 14:17:16.36	23.05	10.13	-35.3	-36.3	22.7	0.00e+00	123	28	0	295698432	44	5777
2026-01-15 14:17:17.37	23.08	10.22	-35.3	-36.3	22.7	0.00e+00	123	29	0	298844160	44	5767
2026-01-15 14:17:18.38	23.11	10.31	-35.2	-36.2	22.8	0.00e+00	123	29	0	301989888	44	5675
2026-01-15 14:17:19.39	23.15	10.39	-35.2	-36.2	22.8	0.00e+00	122	29	0	305135616	44	5697
2026-01-15 14:17:20.40	23.18	10.48	-35.1	-36.1	22.9	0.00e+00	122	29	0	308281344	44	5595
2026-01-15 14:17:21.41	23.21	10.57	-35.0	-36.0	22.9	0.00e+00	122	29	0	312475648	44	5550
2026-01-15 14:17:22.42	23.24	10.66	-35.1	-36.1	22.9	0.00e+00	122	29	0	314572800	44	5617
2026-01-15 14:17:23.43	23.28	10.75	-35.2	-36.2	22.8	0.00e+00	123	29	0	317718528	44	5668
2026-01-15 14:17:24.44	23.31	10.83	-35.1	-36.1	23.0	0.00e+00	120	29	0	320864256	44	5632
2026-01-15 14:17:25.45	23.34	10.92	-35.0	-35.9	23.0	0.00e+00	122	29	0	324009984	44	5527
2026-01-15 14:17:26.46	23.38	11.01	-35.0	-35.9	23.0	0.00e+00	122	29	0	328204288	44	5528
2026-01-15 14:17:27.47	23.41	11.10	-35.0	-35.9	23.1	0.00e+00	122	29	0	331350016	44	5508
2026-01-15 14:17:28.48	23.44	11.19	-35.0	-36.0	23.0	0.00e+00	123	29	0	334495744	44	5555
2026-01-15 14:17:29.49	23.48	11.28	-35.2	-36.1	23.0	0.00e+00	122	29	0	336592896	44	5651
2026-01-15 14:17:30.50	23.51	11.37	-34.9	-35.9	23.1	0.00e+00	123	29	0	339738624	44	5473
2026-01-15 14:17:31.51	23.55	11.46	-35.0	-36.0	23.0	0.00e+00	123	29	0	343932928	44	5556
2026-01-15 14:17:32.52	23.58	11.56	-34.8	-35.7	23.2	0.00e+00	123	29	0	347078656	44	5385
2026-01-15 14:17:33.52	23.62	11.65	-34.8	-35.8	23.2	0.00e+00	120	29	0	350224384	42	6076
2026-01-15 14:17:34.53	23.65	11.74	-34.9	-35.8	23.1	0.00e+00	123	29	0	353370112	42	6134
2026-01-15 14:17:35.54	23.69	11.83	-34.8	-35.7	23.3	0.00e+00	122	29	0	356515840	42	6032
2026-01-15 14:17:36.55	23.72	11.92	-34.8	-35.8	23.2	0.00e+00	123	29	0	359661568	42	6102
2026-01-15 14:17:37.56	23.76	12.02	-34.6	-35.6	23.4	0.00e+00	120	29	0	362807296	42	5955
2026-01-15 14:17:38.57	23.79	12.11	-34.7	-35.7	23.3	0.00e+00	123	29	0	365953024	42	6009
2026-01-15 14:17:39.58	23.83	12.20	-34.6	-35.5	23.4	0.00e+00	120	29	0	369098752	42	5921
2026-01-15 14:17:40.59	23.87	12.30	-34.6	-35.5	23.5	0.00e+00	123	29	0	372244480	42	5911
2026-01-15 14:17:41.60	23.90	12.39	-34.6	-35.5	23.5	0.00e+00	120	29	0	375390208	42	5914
2026-01-15 14:17:42.61	23.94	12.49	-34.6	-35.5	23.5	0.00e+00	123	29	0	378535936	42	5902
2026-01-15 14:17:43.62	23.98	12.58	-34.8	-35.7	23.3	0.00e+00	123	29	0	381681664	42	6043
2026-01-15 14:17:44.63	24.01	12.68	-34.7	-35.6	23.4	0.00e+00	123	29	0	384827392	42	5956
2026-01-15 14:17:45.63	24.05	12.77	-34.6	-35.5	23.5	0.00e+00	123	29	0	387973120	42	5896
2026-01-15 14:17:46.64	24.09	12.87	-34.5	-35.5	23.5	0.00e+00	120	29	0	391118848	42	5871
2026-01-15 14:17:47.65	24.13	12.96	-34.5	-35.4	23.6	0.00e+00	123	29	0	394264576	42	5812
2026-01-15 14:17:48.66	24.16	13.06	-34.4	-35.3	23.6	0.00e+00	121	29	0	397410304	42	5784
2026-01-15 14:17:49.67	24.20	13.16	-34.4	-35.4	23.7	0.00e+00	120	29	0	400556032	42	5794
2026-01-15 14:17:50.68	24.24	13.26	-34.3	-35.3	23.8	0.00e+00	123	29	0	403701760	42	5732
2026-01-15 14:17:51.70	24.28	13.36	-34.3	-35.3	23.7	0.00e+00	121	29	0	406847488	42	5744
2026-01-15 14:17:52.71	24.32	13.45	-34.3	-35.3	23.7	0.00e+00	120	29	0	409993216	42	5734
2026-01-15 14:17:53.72	24.36	13.55	-34.4	-35.4	23.6	0.00e+00	122	29	0	413138944	42	5808
2026-01-15 14:17:54.72	24.40	13.65	-34.2	-35.1	23.8	0.00e+00	122	29	0	416284672	42	5657
2026-01-15 14:17:55.73	24.44	13.75	-34.2	-35.2	23.9	0.00e+00	123	29	0	419430400	42	5663
2026-01-15 14:17:56.74	24.47	13.85	-34.4	-35.3	23.8	0.00e+00	123	29	0	422576128	42	5769
2026-01-15 14:17:57.75	24.51	13.95	-34.3	-35.2	23.8	0.00e+00	123	29	0	425721856	42	5724
2026-01-15 14:17:58.76	24.56	14.05	-34.3	-35.3	23.8	0.00e+00	123	29	0	428867584	42	5726
2026-01-15 14:17:59.77	24.60	14.15	-34.1	-35.1	23.9	0.00e+00	120	29	0	432013312	42	5602
2026-01-15 14:18:00.78	24.64	14.25	-34.3	-35.2	23.8	0.00e+00	123	29	0	435159040	42	5688
2026-01-15 14:18:01.79	24.68	14.36	-34.1	-35.1	23.9	0.00e+00	123	29	0	438304768	42	5596
2026-01-15 14:18:02.81	24.72	14.46	-34.2	-35.1	23.9	0.00e+00	120	29	0	441450496	42	5658
2026-01-15 14:18:03.82	24.76	14.56	-34.3	-35.2	23.8	0.00e+00	123	29	0	444596224	42	5688
2026-01-15 14:18:04.82	24.80	14.67	-34.2	-35.1	23.9	0.00e+00	123	29	0	447741952	42	5637
2026-01-15 14:18:05.83	24.84	14.77	-34.3	-35.2	23.8	0.00e+00	123	29	0	450887680	42	5685
2026-01-15 14:18:06.84	24.89	14.87	-34.3	-35.2	23.9	0.00e+00	122	29	0	454033408	42	5696
2026-01-15 14:18:07.85	24.93	14.98	-34.4	-35.3	23.8	0.00e+00	122	29	0	457179136	42	5761
2026-01-15 14:18:08.86	24.97	15.08	-34.4	-35.3	23.8	0.00e+00	123	29	0	460324864	42	5744
2026-01-15 14:18:09.87	25.01	15.19	-34.2	-35.1	23.9	0.00e+00	123	29	0	463470592	42	5639
2026-01-15 14:18:10.88	25.06	15.30	-34.3	-35.2	23.9	0.00e+00	123	29	0	466616320	42	5691
2026-01-15 14:18:11.89	25.10	15.40	-34.2	-35.1	23.9	0.00e+00	120	29	0	469762048	42	5645
2026-01-15 14:18:12.90	25.15	15.51	-34.3	-35.3	23.7	0.00e+00	123	29	0	472907776	42	5735
2026-01-15 14:18:13.91	25.19	15.62	-34.2	-35.1	23.9	0.00e+00	123	29	0	476053504	42	5640
2026-01-15 14:18:14.92	25.23	15.72	-34.2	-35.1	23.9	0.00e+00	122	29	0	479199232	42	5646
2026-01-15 14:18:15.93	25.28	15.83	-34.2	-35.1	23.8	0.00e+00	123	29	0	482344960	42	5640
2026-01-15 14:18:16.94	25.32	15.94	-34.3	-35.2	23.8	0.00e+00	123	29	0	485490688	42	5679
2026-01-15 14:18:17.95	25.37	16.05	-34.3	-35.2	23.8	0.00e+00	120	29	0	488636416	42	5680
2026-01-15 14:18:18.96	25.41	16.16	-34.4	-35.3	23.6	0.00e+00	122	29	0	491782144	42	5791
2026-01-15 14:18:19.97	25.46	16.27	-34.3	-35.2	23.8	0.00e+00	122	29	0	494927872	42	5722
2026-01-15 14:18:20.98	25.51	16.38	-34.4	-35.3	23.7	0.00e+00	122	29	0	498073600	42	5767
2026-01-15 14:18:21.99	25.55	16.49	-34.4	-35.3	23.7	0.00e+00	122	29	0	501219328	42	5736
2026-01-15 14:18:22.99	25.60	16.60	-34.4	-35.3	23.8	0.00e+00	122	29	0	504365056	42	5770
2026-01-15 14:18:24.00	25.65	16.71	-34.3	-35.3	23.8	0.00e+00	122	29	0	507510784	42	5733
2026-01-15 14:18:25.01	25.69	16.83	-34.5	-35.5	23.6	0.00e+00	120	29	0	510656512	42	5863
2026-01-15 14:18:26.02	25.74	16.94	-34.6	-35.6	23.5	0.00e+00	123	29	0	513802240	42	5949
2026-01-15 14:18:27.03	25.79	17.05	-34.7	-35.7	23.5	0.00e+00	120	29	0	516947968	42	6004
2026-01-15 14:18:28.04	25.84	17.17	-34.6	-35.5	23.6	0.00e+00	123	29	0	520093696	42	5901
2026-01-15 14:18:29.04	25.89	17.28	-34.7	-35.6	23.5	0.00e+00	121	29	0	523239424	42	5954
2026-01-15 14:18:30.05	25.94	17.40	-34.7	-35.6	23.6	0.00e+00	122	29	0	526385152	42	5951
2026-01-15 14:18:31.06	25.99	17.51	-34.6	-35.6	23.5	0.00e+00	123	29	0	529530880	42	5944
2026-01-15 14:18:32.07	26.04	17.63	-34.7	-35.6	23.5	0.00e+00	122	29	0	532676608	42	5970
2026-01-15 14:18:33.08	26.09	17.75	-34.6	-35.6	23.6	0.00e+00	123	29	0	535822336	42	5941
2026-01-15 14:18:34.09	26.14	17.86	-34.7	-35.7	23.6	0.00e+00	122	29	0	538968064	42	6008
2026-01-15 14:18:35.10	26.19	17.98	-34.8	-35.7	23.4	0.00e+00	122	29	0	542113792	42	6060
2026-01-15 14:18:36.11	26.24	18.10	-34.8	-35.7	23.5	0.00e+00	123	29	0	545259520	42	6046
2026-01-15 14:18:37.12	26.29	18.22	-34.8	-35.7	23.4	0.00e+00	122	29	0	548405248	42	6037
2026-01-15 14:18:38.13	26.34	18.34	-34.8	-35.7	23.5	0.00e+00	123	29	0	551550976	42	6048
2026-01-15 14:18:39.14	26.40	18.46	-34.6	-35.5	23.6	0.00e+00	122	29	0	554696704	42	5900
2026-01-15 14:18:40.14	26.45	18.58	-34.7	-35.7	23.5	0.00e+00	122	29	0	557842432	42	6006
2026-01-15 14:18:41.15	26.50	18.70	-34.7	-35.6	23.6	0.00e+00	123	29	0	560988160	42	5972
2026-01-15 14:18:42.16	26.55	18.82	-34.7	-35.7	23.6	0.00e+00	121	29	0	564133888	42	6014
2026-01-15 14:18:43.17	26.61	18.94	-34.7	-35.7	23.5	0.00e+00	122	29	0	567279616	42	6024
2026-01-15 14:18:44.18	26.66	19.07	-34.6	-35.5	23.7	0.00e+00	123	29	0	570425344	42	5896
2026-01-15 14:18:45.19	26.72	19.19	-34.6	-35.5	23.7	0.00e+00	123	29	0	573571072	42	5900
2026-01-15 14:18:46.20	26.77	19.32	-34.5	-35.4	23.8	0.00e+00	122	29	0	576716800	42	5815
2026-01-15 14:18:47.21	26.83	19.44	-34.4	-35.3	23.8	0.00e+00	121	29	0	579862528	42	5744
2026-01-15 14:18:48.22	26.88	19.57	-34.4	-35.4	23.8	0.00e+00	120	29	0	583008256	42	5793
2026-01-15 14:18:49.23	26.94	19.69	-34.3	-35.3	23.8	0.00e+00	122	29	0	586153984	42	5741
2026-01-15 14:18:50.24	27.00	19.82	-34.3	-35.2	23.9	0.00e+00	123	29	0	589299712	42	5702
2026-01-15 14:18:51.25	27.05	19.95	-34.0	-34.9	24.1	0.00e+00	123	29	0	592445440	42	5498
2026-01-15 14:18:52.26	27.11	20.07	-34.1	-35.0	24.0	0.00e+00	120	29	0	595591168	42	5570
2026-01-15 14:18:53.27	27.17	20.20	-34.1	-35.0	24.0	0.00e+00	123	29	0	598736896	42	5551
2026-01-15 14:18:54.28	27.23	20.33	-34.0	-34.9	24.1	0.00e+00	123	29	0	601882624	42	5482
2026-01-15 14:18:55.29	27.29	20.46	-34.0	-34.9	24.0	0.00e+00	122	29	0	605028352	42	5491
2026-01-15 14:18:56.30	27.35	20.59	-33.9	-34.8	24.0	0.00e+00	120	29	0	608174080	42	5464
2026-01-15 14:18:57.31	27.41	20.72	-34.0	-34.9	24.1	0.00e+00	122	29	0	611319808	42	5497
2026-01-15 14:18:58.32	27.47	20.85	-34.0	-34.9	24.1	0.00e+00	120	29	0	614465536	42	5469
2026-01-15 14:18:59.33	27.53	20.99	-33.8	-34.7	24.2	0.00e+00	123	29	0	617611264	42	5356
2026-01-15 14:19:00.34	27.59	21.12	-33.4	-34.3	24.5	0.00e+00	123	29	0	620756992	40	5767
2026-01-15 14:19:01.35	27.65	21.25	-33.6	-34.5	24.4	0.00e+00	122	29	0	623902720	40	5867
2026-01-15 14:19:02.36	27.71	21.39	-33.1	-34.0	24.7	0.00e+00	121	29	0	627048448	40	5560
2026-01-15 14:19:03.37	27.78	21.52	-33.2	-34.1	24.7	0.00e+00	123	29	0	630194176	40	5630
2026-01-15 14:19:04.38	27.84	21.66	-33.1	-34.0	24.6	0.00e+00	122	29	0	633339904	40	5572
2026-01-15 14:19:05.39	27.91	21.80	-33.1	-34.0	24.6	0.00e+00	123	29	0	636485632	40	5580
2026-01-15 14:19:06.40	27.97	21.93	-33.0	-33.9	24.8	0.00e+00	123	29	0	639631360	40	5480
2026-01-15 14:19:07.41	28.04	22.07	-33.0	-33.9	24.8	0.00e+00	123	29	0	642777088	40	5470
2026-01-15 14:19:08.42	28.10	22.21	-33.0	-33.9	24.8	0.00e+00	120	29	0	645922816	40	5493
2026-01-15 14:19:09.43	28.17	22.35	-33.0	-33.9	24.8	0.00e+00	122	29	0	649068544	40	5482
2026-01-15 14:19:10.44	28.23	22.49	-33.0	-33.9	24.8	0.00e+00	122	29	0	652214272	40	5500
2026-01-15 14:19:11.45	28.30	22.63	-32.9	-33.7	24.9	0.00e+00	122	29	0	655360000	40	5399
2026-01-15 14:19:12.46	28.37	22.77	-32.9	-33.8	25.0	0.00e+00	120	29	0	658505728	40	5441
2026-01-15 14:19:13.47	28.44	22.92	-32.9	-33.7	25.0	0.00e+00	122	29	0	661651456	40	5389
2026-01-15 14:19:14.48	28.51	23.06	-32.8	-33.7	25.0	0.00e+00	122	29	0	664797184	40	5352
2026-01-15 14:19:15.48	28.58	23.20	-32.8	-33.7	25.0	0.00e+00	122	29	0	667942912	40	5369
2026-01-15 14:19:16.49	28.65	23.35	-32.9	-33.8	25.0	0.00e+00	123	29	0	671088640	40	5410
2026-01-15 14:19:17.50	28.72	23.49	-32.9	-33.8	25.0	0.00e+00	123	29	0	674234368	40	5415
2026-01-15 14:19:18.51	28.79	23.64	-32.8	-33.7	25.0	0.00e+00	120	29	0	677380096	40	5376
2026-01-15 14:19:19.52	28.86	23.79	-33.0	-33.9	24.9	0.00e+00	123	29	0	680525824	40	5496
2026-01-15 14:19:20.53	28.93	23.93	-32.9	-33.8	25.0	0.00e+00	121	29	0	683671552	40	5408
2026-01-15 14:19:21.54	29.01	24.08	-33.0	-33.8	24.9	0.00e+00	122	29	0	686817280	40	5466
2026-01-15 14:19:22.55	29.08	24.23	-33.1	-34.0	24.8	0.00e+00	123	29	0	689963008	40	5557
2026-01-15 14:19:23.56	29.15	24.38	-33.0	-33.8	25.0	0.00e+00	123	29	0	694157312	40	5461
2026-01-15 14:19:24.57	29.23	24.53	-33.0	-33.9	24.9	0.00e+00	123	29	0	697303040	40	5470
2026-01-15 14:19:25.58	29.31	24.69	-33.0	-33.9	24.9	0.00e+00	121	29	0	700448768	40	5504
2026-01-15 14:19:26.59	29.38	24.84	-33.1	-34.0	24.9	0.00e+00	123	29	0	702545920	40	5553
2026-01-15 14:19:27.60	29.46	24.99	-33.1	-34.0	24.9	0.00e+00	123	29	0	705691648	40	5568
2026-01-15 14:19:28.61	29.54	25.15	-33.2	-34.1	24.8	0.00e+00	123	29	0	709885952	40	5622
2026-01-15 14:19:29.62	29.62	25.30	-33.1	-34.0	24.9	0.00e+00	122	29	0	713031680	40	5571
2026-01-15 14:19:30.63	29.70	25.46	-33.2	-34.1	24.7	0.00e+00	122	29	0	716177408	40	5626
2026-01-15 14:19:31.64	29.78	25.62	-33.3	-34.2	24.9	0.00e+00	123	29	0	719323136	40	5692
2026-01-15 14:19:32.64	29.86	25.77	-33.2	-34.1	24.9	0.00e+00	123	29	0	722468864	40	5616
2026-01-15 14:19:33.65	29.94	25.93	-33.4	-34.3	24.6	0.00e+00	123	29	0	724566016	40	5730
2026-01-15 14:19:34.66	30.02	26.09	-33.5	-34.4	24.6	0.00e+00	120	29	0	728760320	40	5846
2026-01-15 14:19:35.67	30.11	26.25	-33.7	-34.6	24.6	0.00e+00	123	29	0	731906048	40	5945
2026-01-15 14:19:36.67	30.19	26.41	-33.8	-34.6	24.5	0.00e+00	124	29	0	735051776	40	5992
2026-01-15 14:19:37.68	30.27	26.57	-33.9	-34.8	24.4	0.00e+00	123	29	0	738197504	40	6091
2026-01-15 14:19:38.69	30.36	26.74	-34.0	-34.9	24.3	0.00e+00	120	29	0	741343232	40	6193
2026-01-15 14:19:39.70	30.45	26.90	-33.9	-34.8	24.4	0.00e+00	123	29	0	744488960	40	6127
2026-01-15 14:19:40.71	30.53	27.07	-34.1	-35.0	24.2	0.00e+00	123	29	0	747634688	40	6231
2026-01-15 14:19:41.72	30.62	27.23	-34.2	-35.2	24.1	0.00e+00	123	29	0	750780416	40	6362
2026-01-15 14:19:42.73	30.71	27.40	-34.2	-35.2	24.1	0.00e+00	120	29	0	753926144	40	6364
2026-01-15 14:19:43.73	30.80	27.57	-34.4	-35.3	24.0	0.00e+00	122	29	0	757071872	40	6456
2026-01-15 14:19:44.75	30.89	27.74	-34.3	-35.2	24.1	0.00e+00	120	29	0	760217600	40	6391
2026-01-15 14:19:45.76	30.99	27.91	-34.5	-35.4	23.9	0.00e+00	123	29	0	763363328	40	6562
2026-01-15 14:19:46.77	31.08	28.08	-34.4	-35.3	24.0	0.00e+00	123	29	0	766509056	40	6474
2026-01-15 14:19:47.78	31.17	28.25	-34.4	-35.3	24.0	0.00e+00	122	29	0	769654784	40	6448
2026-01-15 14:19:48.79	31.27	28.42	-34.5	-35.4	23.9	0.00e+00	122	29	0	772800512	40	6518
2026-01-15 14:19:49.80	31.36	28.60	-34.4	-35.3	24.0	0.00e+00	123	29	0	775946240	40	6450
2026-01-15 14:19:50.81	31.46	28.77	-34.6	-35.6	23.9	0.00e+00	122	29	0	779091968	40	6650
2026-01-15 14:19:51.82	31.56	28.95	-34.6	-35.5	23.8	0.00e+00	123	29	0	782237696	40	6638
2026-01-15 14:19:52.83	31.66	29.13	-34.4	-35.4	23.9	0.00e+00	123	29	0	785383424	40	6501
2026-01-15 14:19:53.84	31.76	29.30	-34.3	-35.2	24.1	0.00e+00	122	29	0	788529152	40	6398
2026-01-15 14:19:54.85	31.86	29.48	-34.4	-35.3	24.0	0.00e+00	123	29	0	791674880	40	6453
2026-01-15 14:19:55.86	31.96	29.66	-34.2	-35.1	24.2	0.00e+00	120	29	0	794820608	40	6287
2026-01-15 14:19:56.86	32.06	29.84	-34.1	-35.0	24.1	0.00e+00	123	29	0	797966336	40	6268
2026-01-15 14:19:57.88	32.17	30.03	-34.1	-35.0	24.2	0.00e+00	120	29	0	801112064	40	6220
2026-01-15 14:19:58.89	32.28	30.21	-33.9	-34.8	24.3	0.00e+00	122	29	0	804257792	40	6090
2026-01-15 14:19:59.89	32.38	30.39	-34.0	-34.9	24.3	0.00e+00	122	29	0	807403520	40	6157
2026-01-15 14:20:00.90	32.49	30.58	-33.8	-34.7	24.5	0.00e+00	122	29	0	810549248	40	6024
2026-01-15 14:20:01.91	32.60	30.77	-33.7	-34.6	24.5	0.00e+00	122	29	0	813694976	40	5959
2026-01-15 14:20:02.93	32.71	30.96	-33.7	-34.6	24.6	0.00e+00	120	29	0	816840704	40	5939
2026-01-15 14:20:03.93	32.82	31.14	-33.5	-34.4	24.7	0.00e+00	123	29	0	819986432	40	5841
2026-01-15 14:20:04.95	32.93	31.34	-33.6	-34.5	24.6	0.00e+00	124	29	0	823132160	40	5923
2026-01-15 14:20:05.96	33.05	31.53	-33.7	-34.6	24.6	0.00e+00	123	29	0	826277888	40	5929
2026-01-15 14:20:06.97	33.16	31.72	-33.7	-34.6	24.5	0.00e+00	122	29	0	829423616	40	5981
2026-01-15 14:20:07.98	33.28	31.91	-33.7	-34.6	24.5	0.00e+00	122	29	0	832569344	40	5960
2026-01-15 14:20:08.99	33.40	32.11	-33.7	-34.6	24.5	0.00e+00	123	29	0	835715072	40	5967
2026-01-15 14:20:10.00	33.52	32.30	-33.8	-34.7	24.5	0.00e+00	120	29	0	838860800	40	6004
2026-01-15 14:20:11.01	33.64	32.50	-34.0	-34.9	24.3	0.00e+00	120	29	0	842006528	40	6190
2026-01-15 14:20:12.02	33.76	32.70	-34.2	-35.1	24.2	0.00e+00	122	29	0	845152256	40	6288
2026-01-15 14:20:13.03	33.89	32.90	-34.2	-35.1	24.1	0.00e+00	123	29	0	848297984	40	6314
2026-01-15 14:20:14.04	34.01	33.10	-34.3	-35.2	24.1	0.00e+00	123	29	0	851443712	40	6381
2026-01-15 14:20:15.05	34.14	33.30	-34.5	-35.4	23.9	0.00e+00	122	29	0	854589440	40	6523
2026-01-15 14:20:16.06	34.27	33.50	-34.5	-35.4	23.9	0.00e+00	123	29	0	857735168	40	6544
2026-01-15 14:20:17.07	34.40	33.71	-34.3	-35.2	24.1	0.00e+00	122	29	0	860880896	40	6384
2026-01-15 14:20:18.08	34.53	33.91	-34.4	-35.4	24.0	0.00e+00	122	29	0	864026624	40	6501
2026-01-15 14:20:19.09	34.66	34.12	-34.5	-35.4	23.9	0.00e+00	122	29	0	867172352	40	6511
2026-01-15 14:20:20.10	34.79	34.33	-34.7	-35.6	23.7	0.00e+00	120	29	0	870318080	40	6725
2026-01-15 14:20:21.11	34.93	34.54	-34.8	-35.7	23.7	0.00e+00	123	29	0	873463808	42	6040
2026-01-15 14:20:22.12	35.07	34.75	-35.0	-35.9	23.6	0.00e+00	122	29	0	876609536	42	6163
2026-01-15 14:20:23.13	35.21	34.96	-35.1	-36.1	23.4	0.00e+00	123	29	0	879755264	42	6281
2026-01-15 14:20:24.14	35.35	35.17	-35.3	-36.2	23.2	0.00e+00	123	29	0	882900992	42	6420
2026-01-15 14:20:25.15	35.49	35.38	-35.5	-36.4	23.1	0.00e+00	122	29	0	886046720	42	6558
2026-01-15 14:20:26.16	35.64	35.60	-35.4	-36.4	23.1	0.00e+00	122	29	0	889192448	42	6525
2026-01-15 14:20:27.17	35.79	35.82	-35.5	-36.4	23.2	0.00e+00	123	29	0	892338176	42	6565
2026-01-15 14:20:28.18	35.94	36.03	-35.8	-36.7	22.9	0.00e+00	123	29	0	895483904	44	6055
2026-01-15 14:20:29.19	36.09	36.25	-35.9	-36.8	22.9	0.00e+00	123	29	0	898629632	44	6130
2026-01-15 14:20:30.20	36.24	36.47	-35.8	-36.7	22.8	0.00e+00	123	29	0	901775360	44	6048
2026-01-15 14:20:31.21	36.39	36.70	-36.0	-37.0	22.6	0.00e+00	122	29	0	904921088	44	6232
2026-01-15 14:20:32.22	36.55	36.92	-36.1	-37.1	22.5	0.00e+00	123	29	0	908066816	44	6297
2026-01-15 14:20:33.23	36.71	37.14	-36.1	-37.2	22.5	0.00e+00	123	29	0	911212544	44	6354
2026-01-15 14:20:34.25	36.87	37.37	-36.2	-37.2	22.3	0.00e+00	122	29	0	914358272	44	6419
2026-01-15 14:20:35.26	37.04	37.60	-36.4	-37.4	22.2	0.00e+00	123	29	0	917504000	44	6539
2026-01-15 14:20:36.27	37.20	37.83	-36.6	-37.6	22.1	0.00e+00	123	29	0	920649728	44	6700
2026-01-15 14:20:37.28	37.37	38.06	-36.4	-37.4	22.2	0.00e+00	122	29	0	923795456	44	6572
2026-01-15 14:20:38.28	37.54	38.28	-36.5	-37.5	22.2	0.00e+00	123	29	0	926941184	44	6606
2026-01-15 14:20:39.29	37.71	38.52	-36.5	-37.5	22.2	0.00e+00	123	29	0	930086912	44	6641
2026-01-15 14:20:40.30	37.89	38.75	-36.5	-37.6	22.0	0.00e+00	120	29	0	933232640	44	6667
2026-01-15 14:20:41.31	38.07	38.98	-36.4	-37.5	22.2	0.00e+00	122	29	0	936378368	44	6580
2026-01-15 14:20:42.32	38.25	39.22	-36.3	-37.3	22.2	0.00e+00	122	29	0	939524096	44	6453
2026-01-15 14:20:43.33	38.43	39.46	-36.3	-37.3	22.3	0.00e+00	122	29	0	942669824	44	6476
2026-01-15 14:20:44.34	38.61	39.70	-36.3	-37.4	22.4	0.00e+00	122	29	0	945815552	44	6522
2026-01-15 14:20:45.35	38.80	39.94	-36.2	-37.2	22.4	0.00e+00	122	29	0	948961280	44	6387
2026-01-15 14:20:46.36	38.99	40.18	-36.3	-37.4	22.3	0.00e+00	123	29	0	952107008	44	6515
2026-01-15 14:20:47.37	39.19	40.42	-36.3	-37.4	22.4	0.00e+00	123	29	0	955252736	44	6500
2026-01-15 14:20:48.38	39.38	40.66	-36.3	-37.4	22.5	0.00e+00	120	29	0	958398464	44	6500
2026-01-15 14:20:49.39	39.58	40.91	-36.3	-37.4	22.4	0.00e+00	123	29	0	961544192	44	6499
2026-01-15 14:20:50.40	39.79	41.16	-36.4	-37.4	22.4	0.00e+00	123	29	0	964689920	44	6562
2026-01-15 14:20:51.41	39.99	41.40	-36.0	-37.0	22.5	0.00e+00	123	29	0	967835648	44	6249
2026-01-15 14:20:52.42	40.20	41.65	-36.0	-37.0	22.7	0.00e+00	122	29	0	970981376	44	6209
2026-01-15 14:20:53.43	40.41	41.90	-36.1	-37.1	22.5	0.00e+00	120	29	0	974127104	44	6297
2026-01-15 14:20:54.44	40.63	42.16	-36.1	-37.1	22.4	0.00e+00	123	29	0	977272832	44	6332
2026-01-15 14:20:55.45	40.84	42.41	-36.3	-37.3	22.3	0.00e+00	120	29	0	980418560	44	6459
2026-01-15 14:20:56.46	41.07	42.66	-36.5	-37.5	22.2	0.00e+00	123	29	0	983564288	44	6627
2026-01-15 14:20:57.47	41.29	42.92	-36.9	-37.9	21.9	0.00e+00	123	29	0	986710016	44	6950
2026-01-15 14:20:58.48	41.52	43.18	-36.8	-37.9	21.9	0.00e+00	123	29	0	989855744	46	6148
2026-01-15 14:20:59.49	41.75	43.43	-36.7	-37.7	22.0	0.00e+00	122	29	0	993001472	46	6042
2026-01-15 14:21:00.50	41.99	43.69	-36.4	-37.4	22.2	0.00e+00	123	29	0	996147200	46	5852
2026-01-15 14:21:01.51	42.23	43.95	-36.4	-37.4	22.2	0.00e+00	120	29	0	999292928	46	5810
2026-01-15 14:21:02.52	42.47	44.22	-36.3	-37.3	22.3	0.00e+00	122	29	0	1002438656	46	5773
2026-01-15 14:21:03.52	42.72	44.48	-36.2	-37.2	22.4	0.00e+00	123	29	0	1005584384	46	5679
2026-01-15 14:21:04.53	42.97	44.74	-36.3	-37.3	22.4	0.00e+00	123	29	0	1008730112	46	5735
2026-01-15 14:21:05.54	43.23	45.01	-36.1	-37.1	22.5	0.00e+00	122	29	0	1011875840	46	5623
2026-01-15 14:21:06.55	43.49	45.27	-36.0	-37.0	22.6	0.00e+00	122	29	0	1015021568	46	5545
2026-01-15 14:21:07.57	43.75	45.54	-36.2	-37.2	22.6	0.00e+00	123	29	0	1018167296	46	5674
2026-01-15 14:21:08.58	44.02	45.81	-36.4	-37.4	22.4	0.00e+00	123	29	0	1021313024	46	5844
2026-01-15 14:21:09.59	44.30	46.08	-36.6	-37.7	22.1	0.00e+00	123	29	0	1024458752	46	6011
2026-01-15 14:21:10.60	44.57	46.35	-36.7	-37.8	22.1	0.00e+00	120	29	0	1027604480	46	6106
2026-01-15 14:21:11.61	44.86	46.63	-36.6	-37.6	22.1	0.00e+00	123	29	0	1031798784	46	5992
2026-01-15 14:21:12.62	45.15	46.90	-36.5	-37.5	22.3	0.00e+00	123	29	0	1034944512	46	5917
2026-01-15 14:21:13.63	45.44	47.17	-36.1	-37.1	22.6	0.00e+00	123	29	0	1038090240	46	5656
2026-01-15 14:21:14.64	45.74	47.45	-36.1	-37.1	22.6	0.00e+00	123	29	0	1041235968	46	5642
2026-01-15 14:21:15.65	46.04	47.73	-36.4	-37.5	22.3	0.00e+00	122	29	0	1043333120	46	5863
2026-01-15 14:21:16.66	46.35	48.00	-36.6	-37.7	22.0	0.00e+00	123	29	0	1047527424	46	6015
2026-01-15 14:21:17.67	46.66	48.28	-36.5	-37.6	22.1	0.00e+00	122	29	0	1050673152	46	5935
2026-01-15 14:21:18.68	46.98	48.56	-36.2	-37.2	22.4	0.00e+00	122	29	0	1053818880	46	5725
2026-01-15 14:21:19.69	47.31	48.84	-36.0	-37.0	22.5	0.00e+00	123	29	0	1056964608	46	5574
2026-01-15 14:21:20.70	47.64	49.12	-36.2	-37.2	22.4	0.00e+00	123	29	0	1060110336	46	5692
2026-01-15 14:21:21.71	47.98	49.40	-36.2	-37.2	22.4	0.00e+00	122	29	0	1063256064	46	5714
2026-01-15 14:21:22.72	48.32	49.68	-36.5	-37.5	22.2	0.00e+00	123	29	0	1066401792	46	5925
2026-01-15 14:21:23.73	48.67	49.97	-36.5	-37.6	22.2	0.00e+00	123	29	0	1069547520	46	5936
2026-01-15 14:21:24.74	49.03	50.25	-36.2	-37.2	22.5	0.00e+00	122	29	0	1072693248	46	5697
2026-01-15 14:21:25.75	49.39	50.53	-36.2	-37.2	22.6	0.00e+00	120	29	0	1075838976	46	5691
2026-01-15 14:21:26.76	49.76	50.82	-35.9	-36.9	22.7	0.00e+00	122	29	0	1078984704	46	5469
2026-01-15 14:21:27.77	50.14	51.10	-35.6	-36.6	22.9	0.00e+00	122	29	0	1082130432	44	5942
2026-01-15 14:21:28.78	50.52	51.39	-35.5	-36.5	23.0	0.00e+00	123	29	0	1085276160	44	5896
2026-01-15 14:21:29.79	50.92	51.68	-35.5	-36.5	23.2	0.00e+00	123	29	0	1088421888	44	5863
2026-01-15 14:21:30.80	51.32	51.96	-35.2	-36.1	23.4	0.00e+00	123	29	0	1091567616	44	5653
2026-01-15 14:21:31.81	51.72	52.25	-34.8	-35.8	23.5	0.00e+00	122	29	0	1094713344	44	5427
2026-01-15 14:21:32.81	52.13	52.53	-34.7	-35.6	23.8	0.00e+00	122	29	0	1097859072	42	5961
2026-01-15 14:21:33.82	52.56	52.82	-34.6	-35.5	23.8	0.00e+00	123	29	0	1101004800	42	5888
2026-01-15 14:21:34.83	52.99	53.11	-34.4	-35.4	24.0	0.00e+00	123	29	0	1104150528	42	5794
2026-01-15 14:21:35.84	53.43	53.39	-34.1	-35.0	24.3	0.00e+00	122	29	0	1107296256	42	5585
2026-01-15 14:21:36.86	53.88	53.68	-34.1	-35.0	24.3	0.00e+00	120	29	0	1110441984	42	5586
2026-01-15 14:21:37.86	54.33	53.97	-33.7	-34.6	24.6	0.00e+00	122	29	0	1113587712	42	5315
2026-01-15 14:21:38.88	54.80	54.26	-33.7	-34.6	24.4	0.00e+00	123	29	0	1116733440	40	5978
2026-01-15 14:21:39.88	55.27	54.54	-34.1	-35.0	24.2	0.00e+00	122	29	0	1119879168	40	6225
2026-01-15 14:21:40.89	55.76	54.83	-34.2	-35.1	24.0	0.00e+00	123	29	0	1123024896	40	6324
2026-01-15 14:21:41.90	56.25	55.11	-34.1	-35.1	24.1	0.00e+00	123	29	0	1126170624	40	6303
2026-01-15 14:21:42.91	56.76	55.40	-34.0	-34.9	24.2	0.00e+00	123	29	0	1129316352	40	6191
2026-01-15 14:21:43.92	57.27	55.68	-33.8	-34.7	24.3	0.00e+00	123	29	0	1132462080	40	6028
2026-01-15 14:21:44.92	57.80	55.96	-33.2	-34.1	24.8	0.00e+00	123	29	0	1135607808	40	5643
2026-01-15 14:21:45.93	58.33	56.24	-33.2	-34.1	24.7	0.00e+00	122	29	0	1138753536	40	5601
2026-01-15 14:21:46.94	58.88	56.53	-33.2	-34.0	24.8	0.00e+00	122	29	0	1141899264	40	5583
2026-01-15 14:21:47.95	59.44	56.81	-33.2	-34.1	24.8	0.00e+00	123	29	0	1145044992	40	5615
2026-01-15 14:21:48.96	60.01	57.09	-33.3	-34.2	24.8	0.00e+00	123	29	0	1148190720	40	5707
2026-01-15 14:21:49.97	60.59	57.36	-33.4	-34.3	24.6	0.00e+00	122	29	0	1151336448	40	5764
2026-01-15 14:21:50.98	61.18	57.64	-33.2	-34.1	24.2	0.00e+00	123	29	0	1154482176	40	5636
2026-01-15 14:21:51.99	61.79	57.91	-33.1	-34.0	24.6	0.00e+00	123	29	0	1157627904	40	5535
2026-01-15 14:21:53.00	62.40	58.19	-32.7	-33.6	25.2	0.00e+00	122	29	0	1160773632	38	5954
2026-01-15 14:21:54.01	63.03	58.46	-32.7	-33.6	25.3	0.00e+00	123	29	0	1163919360	38	5939
2026-01-15 14:21:55.02	63.68	58.73	-32.4	-33.2	25.5	0.00e+00	123	29	0	1167065088	38	5688
2026-01-15 14:21:56.03	64.33	59.00	-32.4	-33.3	25.4	0.00e+00	122	29	0	1170210816	38	5751
2026-01-15 14:21:57.04	65.00	59.26	-32.6	-33.5	25.1	0.00e+00	123	29	0	1173356544	38	5894
2026-01-15 14:21:58.05	65.69	59.52	-32.9	-33.8	25.0	0.00e+00	123	29	0	1176502272	38	6117
2026-01-15 14:21:59.06	66.38	59.78	-32.9	-33.8	25.1	0.00e+00	122	29	0	1179648000	38	6102
2026-01-15 14:22:00.07	67.09	60.04	-32.7	-33.6	25.3	0.00e+00	124	29	0	1182793728	38	5962
2026-01-15 14:22:01.08	67.82	60.29	-32.2	-33.1	25.4	0.00e+00	120	29	0	1185939456	38	5598
2026-01-15 14:22:02.08	68.55	60.54	-32.1	-33.0	25.6	0.00e+00	122	29	0	1189085184	38	5557
2026-01-15 14:22:03.10	69.31	60.79	-32.3	-33.2	25.4	0.00e+00	120	29	0	1192230912	38	5669
2026-01-15 14:22:04.11	70.08	61.04	-32.5	-33.4	25.4	0.00e+00	123	29	0	1195376640	38	5830
2026-01-15 14:22:05.12	70.86	61.28	-32.4	-33.2	25.5	0.00e+00	122	29	0	1198522368	38	5677
2026-01-15 14:22:06.12	71.66	61.51	-32.4	-33.3	25.5	0.00e+00	120	29	0	1201668096	38	5736
2026-01-15 14:22:07.13	72.47	61.74	-32.3	-33.2	25.6	0.00e+00	123	29	0	1204813824	38	5667
2026-01-15 14:22:08.14	73.30	61.97	-32.2	-33.1	25.7	0.00e+00	122	29	0	1207959552	38	5612
2026-01-15 14:22:09.15	74.14	62.20	-32.1	-32.9	25.6	0.00e+00	123	29	0	1211105280	38	5501
2026-01-15 14:22:10.16	75.00	62.42	-32.3	-33.2	25.4	0.00e+00	122	29	0	1214251008	38	5667
2026-01-15 14:22:11.17	75.88	62.63	-32.6	-33.4	25.2	0.00e+00	122	29	0	1217396736	38	5853
2026-01-15 14:22:12.18	76.77	62.84	-32.5	-33.4	25.2	0.00e+00	123	29	0	1220542464	38	5827
2026-01-15 14:22:13.19	77.68	63.05	-32.3	-33.2	25.3	0.00e+00	122	29	0	1223688192	38	5680
2026-01-15 14:22:14.20	78.60	63.25	-32.2	-33.0	25.4	0.00e+00	123	29	0	1226833920	38	5580
2026-01-15 14:22:15.21	79.54	63.44	-32.2	-33.1	25.6	0.00e+00	123	29	0	1229979648	38	5617
2026-01-15 14:22:16.22	80.49	63.63	-32.4	-33.2	25.4	0.00e+00	122	29	0	1233125376	38	5722
2026-01-15 14:22:17.23	81.46	63.81	-32.6	-33.5	25.1	0.00e+00	123	29	0	1236271104	38	5897
2026-01-15 14:22:18.24	82.44	63.98	-32.9	-33.7	25.0	0.00e+00	123	29	0	1239416832	38	6058
2026-01-15 14:22:19.25	83.44	64.15	-32.6	-33.5	25.3	0.00e+00	122	29	0	1242562560	38	5891
2026-01-15 14:22:20.26	84.45	64.31	-32.2	-33.0	25.5	0.00e+00	122	29	0	1245708288	38	5593
2026-01-15 14:22:21.27	85.47	64.47	-32.2	-33.0	25.2	0.00e+00	123	29	0	1248854016	38	5587
2026-01-15 14:22:22.28	86.51	64.62	-32.6	-33.5	25.3	0.00e+00	122	29	0	1251999744	38	5894
2026-01-15 14:22:23.29	87.57	64.76	-32.4	-33.2	25.6	0.00e+00	123	29	0	1255145472	38	5707
2026-01-15 14:22:24.30	88.63	64.89	-32.0	-32.8	25.7	0.00e+00	123	29	0	1258291200	38	5431
2026-01-15 14:22:25.30	89.70	65.02	-32.0	-32.9	25.6	0.00e+00	123	29	0	1261436928	38	5469
2026-01-15 14:22:26.31	90.79	65.14	-31.8	-32.6	25.6	0.00e+00	120	29	0	1264582656	38	5339
2026-01-15 14:22:27.32	91.89	65.25	-31.7	-32.5	25.8	0.00e+00	123	29	0	1267728384	38	5270
2026-01-15 14:22:28.33	93.00	65.35	-31.7	-32.5	25.9	0.00e+00	123	29	0	1270874112	36	5912
2026-01-15 14:22:29.34	94.12	65.44	-32.1	-32.9	25.5	0.00e+00	122	29	0	1274019840	36	6172
2026-01-15 14:22:30.35	95.25	65.53	-32.5	-33.3	25.2	0.00e+00	122	29	0	1277165568	36	6497
2026-01-15 14:22:31.36	96.39	65.61	-32.6	-33.5	25.0	0.00e+00	123	29	0	1280311296	36	6624
2026-01-15 14:22:32.37	97.54	65.68	-32.3	-33.2	25.5	0.00e+00	120	29	0	1283457024	38	5699
2026-01-15 14:22:33.38	98.69	65.74	-31.9	-32.7	25.8	0.00e+00	123	29	0	1286602752	38	5403
2026-01-15 14:22:34.39	99.85	65.79	-31.8	-32.7	25.8	0.00e+00	123	29	0	1289748480	38	5348
2026-01-15 14:22:35.40	101.01	65.83	-32.1	-32.9	25.6	0.00e+00	123	29	0	1292894208	38	5529
2026-01-15 14:22:36.41	102.18	65.86	-32.2	-33.1	25.5	0.00e+00	122	29	0	1296039936	38	5604
2026-01-15 14:22:37.42	103.35	65.89	-32.3	-33.1	25.3	0.00e+00	122	29	0	1299185664	38	5627
2026-01-15 14:22:38.43	104.52	65.90	-32.2	-33.0	25.2	0.00e+00	120	29	0	1302331392	38	5569
2026-01-15 14:22:39.44	105.70	65.91	-32.2	-33.1	24.7	0.00e+00	120	29	0	1305477120	38	5606
2026-01-15 14:22:40.44	106.86	65.91	-32.6	-33.5	25.1	0.00e+00	122	29	0	1308622848	38	5866
2026-01-15 14:22:41.45	108.04	65.90	-32.9	-33.7	25.2	0.00e+00	122	29	0	1311768576	38	6061
2026-01-15 14:22:42.46	109.21	65.87	-33.3	-34.2	24.8	0.00e+00	123	29	0	1314914304	38	6352
2026-01-15 14:22:43.47	110.38	65.84	-33.0	-33.9	24.9	0.00e+00	120	29	0	1318060032	38	6185
2026-01-15 14:22:44.48	111.54	65.81	-32.8	-33.7	25.1	0.00e+00	122	29	0	1321205760	38	6012
2026-01-15 14:22:45.49	112.70	65.76	-32.4	-33.2	25.5	0.00e+00	121	29	0	1324351488	38	5717
2026-01-15 14:22:46.50	113.86	65.70	-32.1	-33.0	25.5	0.00e+00	123	29	0	1327497216	38	5560
2026-01-15 14:22:47.51	115.01	65.64	-32.6	-33.5	25.2	0.00e+00	123	29	0	1330642944	38	5896
2026-01-15 14:22:48.52	116.15	65.56	-32.8	-33.7	24.7	0.00e+00	123	29	0	1333788672	38	6045
2026-01-15 14:22:49.53	117.29	65.48	-32.9	-33.8	24.4	0.00e+00	122	29	0	1336934400	38	6119
2026-01-15 14:22:50.54	118.41	65.39	-32.5	-33.4	24.9	0.00e+00	122	29	0	1340080128	38	5853
2026-01-15 14:22:51.55	119.53	65.29	-32.4	-33.2	25.5	0.00e+00	123	29	0	1343225856	38	5700
2026-01-15 14:22:52.56	120.63	65.18	-32.2	-33.0	25.6	0.00e+00	123	29	0	1346371584	38	5578
2026-01-15 14:22:53.57	121.73	65.06	-32.6	-33.5	25.3	0.00e+00	122	29	0	1349517312	38	5874
2026-01-15 14:22:54.58	122.81	64.94	-33.3	-34.2	24.9	0.00e+00	123	29	0	1352663040	38	6358
2026-01-15 14:22:55.59	123.88	64.81	-33.2	-34.0	24.7	0.00e+00	123	29	0	1355808768	38	6265
2026-01-15 14:22:56.60	124.94	64.67	-32.7	-33.5	24.8	0.00e+00	123	29	0	1358954496	38	5917
2026-01-15 14:22:57.61	125.99	64.52	-32.6	-33.5	25.2	0.00e+00	120	29	0	1362100224	38	5859
2026-01-15 14:22:58.62	127.02	64.37	-32.3	-33.2	25.3	0.00e+00	122	29	0	1365245952	38	5680
2026-01-15 14:22:59.63	128.03	64.21	-32.2	-33.1	25.3	0.00e+00	120	29	0	1368391680	38	5606
2026-01-15 14:23:00.64	129.04	64.04	-32.6	-33.5	25.3	0.00e+00	123	29	0	1371537408	38	5872
2026-01-15 14:23:01.65	130.03	63.87	-32.9	-33.8	25.1	0.00e+00	120	29	0	1374683136	38	6087
2026-01-15 14:23:02.66	131.00	63.69	-32.7	-33.5	25.3	0.00e+00	123	29	0	1377828864	38	5895
2026-01-15 14:23:03.67	131.96	63.51	-32.1	-32.9	25.5	0.00e+00	123	29	0	1380974592	38	5527
2026-01-15 14:23:04.68	132.90	63.31	-32.2	-33.0	25.3	0.00e+00	123	29	0	1384120320	38	5575
2026-01-15 14:23:05.68	133.82	63.12	-33.3	-34.2	24.9	0.00e+00	122	29	0	1387266048	38	6363
2026-01-15 14:23:06.69	134.74	62.92	-33.6	-34.5	24.7	0.00e+00	123	29	0	1390411776	38	6610
2026-01-15 14:23:07.70	135.64	62.71	-33.5	-34.3	24.7	0.00e+00	122	29	0	1393557504	38	6498
2026-01-15 14:23:08.71	136.52	62.49	-33.0	-33.9	24.4	0.00e+00	122	29	0	1397751808	38	6172
2026-01-15 14:23:09.72	137.38	62.28	-32.8	-33.6	24.5	0.00e+00	122	29	0	1400897536	38	5991
2026-01-15 14:23:10.73	138.24	62.05	-32.2	-33.0	25.3	0.00e+00	123	29	0	1404043264	38	5590
2026-01-15 14:23:11.73	139.06	61.83	-31.9	-32.7	25.8	0.00e+00	120	29	0	1406140416	38	5390
2026-01-15 14:23:12.74	139.88	61.60	-32.6	-33.5	25.2	0.00e+00	123	29	0	1409286144	38	5866
2026-01-15 14:23:13.75	140.69	61.36	-33.7	-34.6	24.6	0.00e+00	123	29	0	1412431872	38	6681
2026-01-15 14:23:14.76	141.48	61.12	-33.3	-34.2	24.9	0.00e+00	122	29	0	1416626176	40	5694
2026-01-15 14:23:15.77	142.26	60.88	-32.2	-33.1	25.5	0.00e+00	121	29	0	1419771904	38	5617
2026-01-15 14:23:16.78	143.02	60.63	-32.1	-32.9	25.5	0.00e+00	123	29	0	1422917632	38	5484
2026-01-15 14:23:17.79	143.76	60.38	-31.7	-32.5	25.8	0.00e+00	121	29	0	1426063360	36	5896
2026-01-15 14:23:18.79	144.49	60.13	-32.3	-33.1	25.6	0.00e+00	123	29	0	1429209088	36	6321
2026-01-15 14:23:19.80	145.20	59.87	-33.2	-34.1	24.9	0.00e+00	123	29	0	1431306240	38	6321
2026-01-15 14:23:20.81	145.91	59.61	-34.3	-35.2	24.1	0.00e+00	123	29	0	1435500544	40	6390
2026-01-15 14:23:21.82	146.60	59.35	-34.3	-35.3	24.0	0.00e+00	123	29	0	1438646272	40	6429
2026-01-15 14:23:22.83	147.27	59.09	-33.0	-33.9	24.5	0.00e+00	120	29	0	1441792000	40	5501
2026-01-15 14:23:23.84	147.93	58.82	-32.5	-33.4	24.8	0.00e+00	123	29	0	1444937728	38	5793
2026-01-15 14:23:24.85	148.58	58.55	-32.5	-33.4	25.0	0.00e+00	122	29	0	1448083456	38	5810
2026-01-15 14:23:25.86	149.22	58.28	-33.3	-34.1	24.9	0.00e+00	123	29	0	1451229184	38	6338
2026-01-15 14:23:26.87	149.84	58.00	-34.5	-35.4	23.8	0.00e+00	122	29	0	1454374912	40	6555
2026-01-15 14:23:27.88	150.45	57.73	-35.5	-36.5	23.0	0.00e+00	122	29	0	1457520640	42	6634
2026-01-15 14:23:28.89	151.05	57.45	-35.5	-36.5	23.2	0.00e+00	120	29	0	1460666368	42	6627
2026-01-15 14:23:29.90	151.64	57.17	-34.5	-35.5	23.5	0.00e+00	122	29	0	1463812096	42	5879
2026-01-15 14:23:30.91	152.21	56.89	-33.3	-34.2	24.0	0.00e+00	122	29	0	1466957824	40	5678
2026-01-15 14:23:31.92	152.78	56.61	-33.2	-34.1	24.6	0.00e+00	122	29	0	1470103552	40	5613
2026-01-15 14:23:32.93	153.33	56.33	-33.1	-34.0	25.0	0.00e+00	123	29	0	1473249280	40	5555
2026-01-15 14:23:33.94	153.87	56.05	-33.9	-34.8	24.5	0.00e+00	127	29	0	1476395008	40	6089
2026-01-15 14:23:34.95	154.40	55.76	-35.3	-36.3	23.1	0.00e+00	124	29	0	1479540736	42	6450
2026-01-15 14:23:35.96	154.92	55.48	-35.8	-36.9	22.5	0.00e+00	122	29	0	1482686464	44	6159
2026-01-15 14:23:36.97	155.43	55.19	-35.3	-36.3	23.2	0.00e+00	120	29	0	1485832192	44	5739
2026-01-15 14:23:37.98	155.93	54.91	-35.2	-36.3	22.6	0.00e+00	122	29	0	1488977920	44	5729
2026-01-15 14:23:38.99	156.42	54.62	-34.8	-35.8	22.6	0.00e+00	123	29	0	1492123648	42	6103
2026-01-15 14:23:40.00	156.90	54.33	-34.6	-35.6	23.5	0.00e+00	122	29	0	1495269376	42	5948
2026-01-15 14:23:41.01	157.37	54.05	-34.5	-35.3	24.0	0.00e+00	123	29	0	1498415104	42	5783
2026-01-15 14:23:42.02	157.83	53.76	-34.5	-35.3	24.0	0.00e+00	120	29	0	1501560832	42	5788
2026-01-15 14:23:43.03	158.28	53.47	-34.9	-35.8	23.7	0.00e+00	122	29	0	1504706560	42	6117
2026-01-15 14:23:44.04	158.72	53.18	-35.5	-36.5	23.0	0.00e+00	122	29	0	1507852288	42	6593
2026-01-15 14:23:45.05	159.16	52.90	-35.2	-36.2	23.1	0.00e+00	123	29	0	1510998016	42	6394
2026-01-15 14:23:46.06	159.58	52.61	-34.8	-35.8	22.3	0.00e+00	122	29	0	1514143744	42	6087
2026-01-15 14:23:47.07	160.00	52.32	-34.7	-35.8	22.3	0.00e+00	120	29	0	1517289472	42	6077
2026-01-15 14:23:48.08	160.41	52.03	-34.6	-35.6	23.1	0.00e+00	123	29	0	1520435200	42	5970
2026-01-15 14:23:49.09	160.82	51.74	-34.9	-35.8	23.5	0.00e+00	120	29	0	1523580928	42	6100
2026-01-15 14:23:50.10	161.21	51.46	-34.8	-35.8	23.5	0.00e+00	122	29	0	1526726656	42	6065
2026-01-15 14:23:51.11	161.60	51.17	-35.6	-36.6	22.7	0.00e+00	122	29	0	1529872384	42	6725
2026-01-15 14:23:52.12	161.98	50.88	-36.5	-37.6	21.8	0.00e+00	122	29	0	1533018112	44	6712
2026-01-15 14:23:53.12	162.35	50.60	-37.2	-38.4	21.4	0.00e+00	122	29	0	1536163840	46	6521
2026-01-15 14:23:54.13	162.71	50.32	-37.2	-38.4	21.4	0.00e+00	120	29	0	1539309568	46	6509
2026-01-15 14:23:55.14	163.07	50.03	-37.3	-38.5	21.0	0.00e+00	122	29	0	1542455296	46	6596
2026-01-15 14:23:56.15	163.43	49.75	-36.9	-38.1	21.8	0.00e+00	123	29	0	1545601024	46	6288
2026-01-15 14:23:57.16	163.77	49.46	-36.3	-37.3	22.6	0.00e+00	120	29	0	1548746752	46	5752
2026-01-15 14:23:58.17	164.11	49.18	-36.3	-37.3	22.4	0.00e+00	122	29	0	1551892480	46	5732
2026-01-15 14:23:59.18	164.45	48.90	-35.2	-36.1	23.4	0.00e+00	120	29	0	1555038208	44	5658
2026-01-15 14:24:00.19	164.78	48.62	-34.9	-35.8	23.6	0.00e+00	120	29	0	1558183936	44	5463
2026-01-15 14:24:01.20	165.10	48.34	-35.7	-36.7	22.9	0.00e+00	121	29	0	1561329664	44	6046
2026-01-15 14:24:02.21	165.41	48.06	-36.9	-38.0	21.9	0.00e+00	123	29	0	1564475392	46	6214
2026-01-15 14:24:03.22	165.72	47.78	-36.7	-37.8	21.9	0.00e+00	123	29	0	1567621120	46	6108
2026-01-15 14:24:04.23	166.03	47.50	-36.7	-37.7	21.9	0.00e+00	123	29	0	1570766848	46	6046
2026-01-15 14:24:05.24	166.33	47.22	-36.7	-37.7	21.8	0.00e+00	123	29	0	1573912576	46	6043
2026-01-15 14:24:06.25	166.63	46.95	-36.1	-37.2	22.2	0.00e+00	123	29	0	1577058304	46	5662
2026-01-15 14:24:07.26	166.92	46.67	-36.1	-37.1	22.2	0.00e+00	120	29	0	1580204032	46	5613
2026-01-15 14:24:08.27	167.20	46.40	-36.1	-37.2	22.3	0.00e+00	123	29	0	1583349760	46	5677
2026-01-15 14:24:09.28	167.48	46.13	-36.1	-37.1	22.5	0.00e+00	123	29	0	1586495488	46	5618
2026-01-15 14:24:10.29	167.76	45.86	-36.0	-37.0	22.6	0.00e+00	123	29	0	1589641216	46	5542
2026-01-15 14:24:11.30	168.03	45.59	-36.3	-37.4	22.3	0.00e+00	122	29	0	1592786944	46	5796
2026-01-15 14:24:12.31	168.29	45.32	-36.8	-37.8	22.0	0.00e+00	122	29	0	1595932672	46	6113
2026-01-15 14:24:13.32	168.56	45.05	-36.9	-38.0	21.7	0.00e+00	123	29	0	1599078400	46	6241
2026-01-15 14:24:14.33	168.81	44.78	-37.1	-38.2	21.4	0.00e+00	122	29	0	1602224128	46	6418
2026-01-15 14:24:15.33	169.07	44.52	-37.8	-39.0	20.6	0.00e+00	122	29	0	1605369856	46	6986
2026-01-15 14:24:16.34	169.31	44.25	-37.8	-39.1	20.7	0.00e+00	123	29	0	1608515584	48	6314
2026-01-15 14:24:17.36	169.56	43.99	-37.6	-38.7	21.2	0.00e+00	123	29	0	1611661312	48	6060
2026-01-15 14:24:18.37	169.80	43.73	-36.8	-37.8	22.1	0.00e+00	122	29	0	1614807040	48	5430
2026-01-15 14:24:19.38	170.04	43.46	-36.4	-37.4	22.3	0.00e+00	122	29	0	1617952768	46	5836
2026-01-15 14:24:20.39	170.28	43.20	-36.1	-37.1	22.7	0.00e+00	123	29	0	1621098496	46	5614
2026-01-15 14:24:21.40	170.51	42.95	-36.1	-37.1	22.6	0.00e+00	123	29	0	1624244224	46	5645
2026-01-15 14:24:22.41	170.73	42.69	-36.6	-37.7	22.1	0.00e+00	123	29	0	1627389952	46	5998
2026-01-15 14:24:23.42	170.96	42.43	-36.8	-37.9	22.1	0.00e+00	120	29	0	1630535680	46	6136
2026-01-15 14:24:24.43	171.17	42.18	-36.4	-37.4	22.3	0.00e+00	123	29	0	1633681408	46	5845
2026-01-15 14:24:25.44	171.39	41.93	-36.0	-37.0	22.7	0.00e+00	123	29	0	1636827136	46	5579
2026-01-15 14:24:26.45	171.60	41.67	-35.9	-36.9	22.8	0.00e+00	123	29	0	1639972864	46	5504
2026-01-15 14:24:27.46	171.81	41.42	-35.8	-36.8	22.9	0.00e+00	123	29	0	1643118592	44	6093
2026-01-15 14:24:28.47	172.02	41.17	-35.5	-36.5	23.0	0.00e+00	123	29	0	1646264320	44	5897
2026-01-15 14:24:29.48	172.22	40.93	-35.7	-36.6	23.0	0.00e+00	123	29	0	1649410048	44	5982
2026-01-15 14:24:30.49	172.42	40.68	-35.6	-36.6	23.0	0.00e+00	122	29	0	1652555776	44	5964
2026-01-15 14:24:31.50	172.62	40.43	-36.1	-37.1	22.5	0.00e+00	121	29	0	1655701504	44	6336
2026-01-15 14:24:32.51	172.82	40.19	-36.3	-37.3	22.3	0.00e+00	123	29	0	1658847232	44	6487
2026-01-15 14:24:33.52	173.01	39.95	-36.4	-37.4	22.3	0.00e+00	123	29	0	1661992960	44	6534
2026-01-15 14:24:34.53	173.20	39.70	-36.7	-37.7	22.1	0.00e+00	123	29	0	1665138688	44	6766
2026-01-15 14:24:35.54	173.38	39.46	-36.7	-37.8	22.1	0.00e+00	123	29	0	1668284416	44	6812
2026-01-15 14:24:36.55	173.57	39.23	-36.3	-37.3	22.4	0.00e+00	123	29	0	1671430144	44	6463
2026-01-15 14:24:37.56	173.75	38.99	-36.3	-37.3	22.4	0.00e+00	123	29	0	1674575872	44	6429
2026-01-15 14:24:38.57	173.93	38.75	-36.2	-37.3	22.1	0.00e+00	120	29	0	1677721600	44	6452
2026-01-15 14:24:39.58	174.10	38.52	-36.4	-37.4	21.8	0.00e+00	123	29	0	1680867328	44	6549
2026-01-15 14:24:40.58	174.27	38.29	-36.1	-37.2	21.7	0.00e+00	123	29	0	1684013056	44	6410
2026-01-15 14:24:41.59	174.45	38.05	-36.0	-37.1	22.0	0.00e+00	123	29	0	1687158784	44	6284
2026-01-15 14:24:42.60	174.61	37.82	-35.9	-36.9	22.4	0.00e+00	122	29	0	1690304512	44	6191
2026-01-15 14:24:43.61	174.78	37.59	-35.0	-36.0	23.2	0.00e+00	122	29	0	1693450240	44	5558
2026-01-15 14:24:44.62	174.95	37.36	-35.0	-36.0	23.3	0.00e+00	123	29	0	1696595968	44	5554
2026-01-15 14:24:45.63	175.11	37.14	-35.0	-35.9	23.6	0.00e+00	123	29	0	1699741696	44	5519
2026-01-15 14:24:46.64	175.27	36.91	-34.4	-35.3	24.0	0.00e+00	120	29	0	1702887424	42	5781
2026-01-15 14:24:47.65	175.43	36.69	-34.5	-35.4	23.9	0.00e+00	123	29	0	1706033152	42	5813
2026-01-15 14:24:48.66	175.58	36.46	-34.7	-35.7	23.7	0.00e+00	123	29	0	1709178880	42	6011
2026-01-15 14:24:49.67	175.73	36.24	-34.8	-35.7	23.8	0.00e+00	123	29	0	1712324608	42	6028
2026-01-15 14:24:50.68	175.89	36.02	-34.6	-35.5	24.0	0.00e+00	123	29	0	1715470336	42	5913
2026-01-15 14:24:51.69	176.04	35.80	-34.4	-35.4	24.1	0.00e+00	123	29	0	1718616064	42	5794
2026-01-15 14:24:52.70	176.18	35.59	-34.4	-35.3	24.1	0.00e+00	120	29	0	1721761792	42	5757
2026-01-15 14:24:53.71	176.33	35.37	-34.5	-35.4	23.9	0.00e+00	123	29	0	1724907520	42	5853
2026-01-15 14:24:54.72	176.47	35.15	-34.7	-35.6	23.8	0.00e+00	123	29	0	1728053248	42	5944
2026-01-15 14:24:55.73	176.62	34.94	-34.7	-35.6	23.8	0.00e+00	123	29	0	1731198976	42	5962
2026-01-15 14:24:56.74	176.76	34.73	-34.9	-35.9	23.6	0.00e+00	122	29	0	1734344704	42	6146
2026-01-15 14:24:57.75	176.89	34.51	-35.3	-36.3	23.1	0.00e+00	122	29	0	1737490432	42	6484
2026-01-15 14:24:58.76	177.03	34.30	-35.9	-36.9	22.6	0.00e+00	122	29	0	1741684736	44	6181
2026-01-15 14:24:59.77	177.17	34.10	-36.3	-37.3	22.2	0.00e+00	123	29	0	1744830464	44	6492
2026-01-15 14:25:00.78	177.30	33.89	-36.3	-37.4	22.1	0.00e+00	122	29	0	1746927616	44	6549
2026-01-15 14:25:01.79	177.43	33.68	-36.2	-37.2	22.3	0.00e+00	123	29	0	1750073344	44	6410
2026-01-15 14:25:02.80	177.56	33.48	-36.0	-37.1	22.4	0.00e+00	122	29	0	1753219072	44	6305
2026-01-15 14:25:03.81	177.69	33.27	-35.1	-36.1	23.0	0.00e+00	123	29	0	1757413376	44	5654
2026-01-15 14:25:04.82	177.82	33.07	-34.9	-35.9	23.1	0.00e+00	122	29	0	1760559104	44	5515
2026-01-15 14:25:05.83	177.94	32.87	-34.5	-35.5	23.6	0.00e+00	120	29	0	1763704832	42	5861
2026-01-15 14:25:06.84	178.07	32.67	-34.0	-34.9	24.0	0.00e+00	123	29	0	1766850560	42	5527
2026-01-15 14:25:07.85	178.19	32.47	-34.1	-35.0	23.8	0.00e+00	120	29	0	1768947712	42	5588
2026-01-15 14:25:08.86	178.31	32.27	-33.8	-34.7	24.1	0.00e+00	123	29	0	1773142016	42	5393
2026-01-15 14:25:09.87	178.43	32.07	-33.6	-34.5	24.5	0.00e+00	123	29	0	1776287744	40	5901
2026-01-15 14:25:10.88	178.55	31.88	-33.5	-34.3	24.7	0.00e+00	123	29	0	1779433472	40	5786
2026-01-15 14:25:11.89	178.67	31.68	-33.4	-34.3	24.8	0.00e+00	120	29	0	1782579200	40	5747
2026-01-15 14:25:12.90	178.78	31.49	-33.4	-34.3	24.7	0.00e+00	123	29	0	1785724928	40	5740
2026-01-15 14:25:13.92	178.90	31.29	-33.3	-34.2	24.8	0.00e+00	122	29	0	1788870656	40	5672
2026-01-15 14:25:14.93	179.01	31.10	-33.6	-34.4	24.7	0.00e+00	122	29	0	1792016384	40	5847
2026-01-15 14:25:15.94	179.12	30.91	-33.5	-34.3	24.8	0.00e+00	123	29	0	1795162112	40	5770
2026-01-15 14:25:16.95	179.23	30.72	-33.6	-34.5	24.6	0.00e+00	123	29	0	1798307840	40	5873
2026-01-15 14:25:17.96	179.34	30.54	-33.7	-34.5	24.7	0.00e+00	123	29	0	1801453568	40	5925
2026-01-15 14:25:18.97	179.45	30.35	-33.9	-34.8	24.4	0.00e+00	120	29	0	1804599296	40	6070
2026-01-15 14:25:19.98	179.56	30.16	-34.0	-34.9	24.3	0.00e+00	122	29	0	1807745024	40	6174
2026-01-15 14:25:20.99	179.66	29.98	-34.2	-35.1	24.1	0.00e+00	123	29	0	1810890752	40	6313
2026-01-15 14:25:22.00	179.77	29.79	-34.4	-35.3	24.0	0.00e+00	122	29	0	1814036480	40	6495
2026-01-15 14:25:23.01	179.87	29.61	-34.4	-35.4	24.0	0.00e+00	120	29	0	1817182208	40	6510
2026-01-15 14:25:24.02	179.97	29.43	-34.5	-35.4	24.0	0.00e+00	123	29	0	1820327936	40	6547
2026-01-15 14:25:25.03	180.07	29.25	-34.5	-35.4	23.9	0.00e+00	123	29	0	1823473664	40	6563
2026-01-15 14:25:26.04	180.17	29.07	-34.4	-35.4	23.9	0.00e+00	123	29	0	1826619392	40	6511
2026-01-15 14:25:27.05	180.27	28.89	-34.3	-35.3	23.9	0.00e+00	123	29	0	1829765120	40	6436
2026-01-15 14:25:28.06	180.37	28.72	-34.4	-35.4	23.8	0.00e+00	123	29	0	1832910848	40	6512
2026-01-15 14:25:29.07	180.47	28.54	-34.4	-35.3	23.9	0.00e+00	122	29	0	1836056576	40	6476
2026-01-15 14:25:30.08	180.57	28.36	-34.4	-35.3	23.8	0.00e+00	123	29	0	1839202304	40	6474
2026-01-15 14:25:31.09	180.66	28.19	-34.4	-35.3	23.9	0.00e+00	123	29	0	1842348032	40	6456
2026-01-15 14:25:32.09	180.75	28.02	-34.4	-35.3	23.8	0.00e+00	120	29	0	1845493760	40	6487
2026-01-15 14:25:33.10	180.85	27.85	-34.1	-35.1	24.0	0.00e+00	122	29	0	1848639488	40	6302
2026-01-15 14:25:34.11	180.94	27.68	-34.0	-34.9	24.1	0.00e+00	122	29	0	1851785216	40	6188
2026-01-15 14:25:35.12	181.03	27.51	-34.0	-34.9	24.2	0.00e+00	122	29	0	1854930944	40	6152
2026-01-15 14:25:36.13	181.12	27.34	-34.0	-34.9	24.2	0.00e+00	123	29	0	1858076672	40	6178
2026-01-15 14:25:37.14	181.21	27.17	-33.8	-34.7	24.3	0.00e+00	123	29	0	1861222400	40	6061
2026-01-15 14:25:38.15	181.30	27.00	-33.7	-34.5	24.5	0.00e+00	123	29	0	1864368128	40	5925
2026-01-15 14:25:39.16	181.39	26.84	-33.6	-34.5	24.5	0.00e+00	123	29	0	1867513856	40	5868
2026-01-15 14:25:40.17	181.47	26.67	-33.2	-34.1	24.9	0.00e+00	120	29	0	1870659584	40	5637
2026-01-15 14:25:41.18	181.56	26.51	-33.1	-33.9	24.9	0.00e+00	122	29	0	1873805312	40	5529
2026-01-15 14:25:42.19	181.64	26.34	-32.8	-33.7	25.2	0.00e+00	122	29	0	1876951040	40	5361
2026-01-15 14:25:43.20	181.73	26.18	-32.7	-33.6	25.2	0.00e+00	122	29	0	1880096768	38	5928
2026-01-15 14:25:44.21	181.81	26.02	-32.6	-33.4	25.2	0.00e+00	120	29	0	1883242496	38	5849
2026-01-15 14:25:45.22	181.89	25.86	-32.6	-33.4	25.2	0.00e+00	123	29	0	1886388224	38	5836
2026-01-15 14:25:46.23	181.98	25.70	-32.6	-33.4	25.2	0.00e+00	123	29	0	1889533952	38	5827
2026-01-15 14:25:47.24	182.06	25.54	-32.7	-33.5	25.1	0.00e+00	120	29	0	1892679680	38	5908
2026-01-15 14:25:48.25	182.14	25.38	-32.8	-33.7	25.1	0.00e+00	120	29	0	1895825408	38	6023
2026-01-15 14:25:49.26	182.22	25.22	-33.0	-33.8	25.0	0.00e+00	123	29	0	1898971136	38	6115
2026-01-15 14:25:50.27	182.29	25.07	-33.1	-33.9	24.9	0.00e+00	123	29	0	1902116864	38	6186
2026-01-15 14:25:51.27	182.37	24.91	-33.1	-33.9	25.0	0.00e+00	121	29	0	1905262592	38	6190
2026-01-15 14:25:52.28	182.45	24.76	-33.1	-34.0	24.9	0.00e+00	123	29	0	1908408320	38	6241
2026-01-15 14:25:53.29	182.53	24.61	-33.1	-34.0	24.9	0.00e+00	120	29	0	1911554048	38	6207
2026-01-15 14:25:54.30	182.60	24.45	-33.1	-34.0	25.0	0.00e+00	123	29	0	1914699776	38	6210
2026-01-15 14:25:55.31	182.68	24.30	-33.2	-34.1	24.9	0.00e+00	122	29	0	1917845504	38	6324
2026-01-15 14:25:56.32	182.75	24.15	-33.2	-34.0	25.0	0.00e+00	122	29	0	1920991232	38	6262
2026-01-15 14:25:57.33	182.83	24.00	-33.2	-34.0	24.9	0.00e+00	123	29	0	1924136960	38	6275
2026-01-15 14:25:58.34	182.90	23.85	-33.2	-34.1	24.9	0.00e+00	123	29	0	1927282688	38	6297
2026-01-15 14:25:59.35	182.97	23.70	-33.4	-34.2	24.7	0.00e+00	122	29	0	1930428416	38	6406
2026-01-15 14:26:00.36	183.04	23.55	-33.4	-34.3	24.6	0.00e+00	122	29	0	1933574144	38	6485
2026-01-15 14:26:01.37	183.11	23.41	-33.5	-34.4	24.5	0.00e+00	122	29	0	1936719872	38	6518
2026-01-15 14:26:02.38	183.19	23.26	-33.6	-34.5	24.5	0.00e+00	123	29	0	1939865600	38	6604
2026-01-15 14:26:03.39	183.26	23.11	-33.6	-34.5	24.5	0.00e+00	120	29	0	1943011328	38	6644
2026-01-15 14:26:04.40	183.32	22.97	-33.5	-34.4	24.6	0.00e+00	121	29	0	1946157056	38	6540
2026-01-15 14:26:05.41	183.39	22.82	-33.6	-34.5	24.6	0.00e+00	123	29	0	1949302784	38	6620
2026-01-15 14:26:06.42	183.46	22.68	-33.6	-34.5	24.5	0.00e+00	121	29	0	1952448512	38	6623
2026-01-15 14:26:07.43	183.53	22.54	-33.7	-34.6	24.5	0.00e+00	122	29	0	1955594240	38	6665
2026-01-15 14:26:08.44	183.60	22.40	-33.7	-34.6	24.4	0.00e+00	123	29	0	1958739968	40	5976
2026-01-15 14:26:09.45	183.66	22.26	-33.7	-34.6	24.4	0.00e+00	123	29	0	1961885696	40	5974
2026-01-15 14:26:10.46	183.73	22.12	-33.6	-34.5	24.4	0.00e+00	120	29	0	1965031424	40	5916
2026-01-15 14:26:11.46	183.79	21.98	-33.7	-34.6	24.4	0.00e+00	123	29	0	1968177152	40	5981
2026-01-15 14:26:12.48	183.86	21.84	-33.6	-34.5	24.4	0.00e+00	123	29	0	1971322880	40	5911
2026-01-15 14:26:13.49	183.92	21.70	-33.6	-34.5	24.4	0.00e+00	122	29	0	1974468608	40	5915
2026-01-15 14:26:14.50	183.99	21.56	-33.6	-34.5	24.4	0.00e+00	123	29	0	1977614336	40	5910
2026-01-15 14:26:15.51	184.05	21.43	-33.4	-34.3	24.6	0.00e+00	122	29	0	1980760064	40	5754
