passes_logs/2026/01/15/R4.6S_Anadyr/R4.6S_Anadyr__20260115_132447_NOAA_20_JPSS-1_rec.log

#Pass ID: 20260115_132447_NOAA 20 (JPSS-1)
#Satellite: NOAA 20 (JPSS-1)
#Configuration: NOAA 20
#almurnet v.1.7.20251203
#Start time: 2026-01-15 13:24:48

#Version: 2.2.20231116
#Station: R4.6S_Anadyr
#Location: 177.4865 lon 64.73178 lat
#TLE: 1 43013U 17073A   26014.55467351  .00000038  00000+0  38801-4 0  9992
#TLE: 2 43013  98.7635 315.4987 0001517  39.9279 320.2008 14.19535859422677

#Time	Az	El	Level	Level2	SNR	BER	BlckErr	Temp	State	Recorded	gain1	gain2
2026-01-15 13:24:48.36	18.83	0.04	-48.3	-63.2	3.5	1.51e+00	0	26	0	0	60	52308
2026-01-15 13:24:49.37	18.88	0.10	-48.4	-63.6	3.6	1.51e+00	0	27	104	0	60	54925
2026-01-15 13:24:50.38	18.92	0.15	-48.5	-63.6	3.6	1.51e+00	0	27	104	0	60	54779
2026-01-15 13:24:51.39	18.96	0.21	-48.4	-63.7	3.6	1.51e+00	0	27	104	0	60	55029
2026-01-15 13:24:52.40	19.01	0.27	-48.2	-63.7	3.6	1.51e+00	0	27	104	0	60	55037
2026-01-15 13:24:53.40	19.05	0.33	-48.5	-63.7	3.6	1.51e+00	0	27	104	0	60	55078
2026-01-15 13:24:54.42	19.10	0.38	-48.5	-63.7	3.6	1.51e+00	0	28	104	0	60	55084
2026-01-15 13:24:55.43	19.14	0.44	-48.4	-63.6	3.6	1.51e+00	0	28	104	0	60	54870
2026-01-15 13:24:56.43	19.19	0.50	-48.4	-63.6	3.6	1.51e+00	0	28	104	0	60	54618
2026-01-15 13:24:57.45	19.23	0.56	-48.2	-63.5	3.6	1.51e+00	0	28	104	0	60	53936
2026-01-15 13:24:58.46	19.28	0.61	-48.2	-63.4	3.6	1.51e+00	0	28	104	0	60	53236
2026-01-15 13:24:59.47	19.32	0.67	-48.0	-63.2	3.6	1.51e+00	0	28	104	0	60	52316
2026-01-15 13:25:00.47	19.37	0.73	-47.7	-63.0	3.6	1.51e+00	0	28	104	0	60	50787
2026-01-15 13:25:01.48	19.41	0.79	-47.6	-62.8	3.6	1.51e+00	0	28	104	0	60	50097
2026-01-15 13:25:02.49	19.46	0.84	-47.3	-62.6	3.6	1.51e+00	0	28	104	0	60	48566
2026-01-15 13:25:03.50	19.50	0.90	-47.0	-62.1	3.6	1.51e+00	0	28	104	0	60	46277
2026-01-15 13:25:04.51	19.55	0.96	-46.7	-61.9	3.6	1.51e+00	0	28	104	0	60	45081
2026-01-15 13:25:05.52	19.60	1.02	-46.7	-62.0	3.6	1.51e+00	0	28	104	0	60	45263
2026-01-15 13:25:06.53	19.64	1.08	-46.7	-61.9	3.6	1.51e+00	0	28	104	0	60	44912
2026-01-15 13:25:07.54	19.69	1.14	-46.7	-61.9	3.6	1.51e+00	0	28	104	0	60	45153
2026-01-15 13:25:08.55	19.74	1.19	-46.7	-61.9	3.6	1.51e+00	0	28	104	0	60	45104
2026-01-15 13:25:09.57	19.78	1.25	-46.7	-61.9	3.6	1.51e+00	0	28	104	0	60	45021
2026-01-15 13:25:10.57	19.83	1.31	-46.7	-61.9	3.6	1.51e+00	0	28	104	0	60	45198
2026-01-15 13:25:11.58	19.88	1.37	-46.7	-61.9	3.6	1.51e+00	0	28	104	0	60	45095
2026-01-15 13:25:12.59	19.92	1.43	-46.7	-61.9	3.6	1.51e+00	0	28	104	0	60	45057
2026-01-15 13:25:13.60	19.97	1.49	-46.7	-61.9	3.6	1.51e+00	0	28	104	0	60	44841
2026-01-15 13:25:14.61	20.02	1.55	-46.7	-61.9	3.6	1.51e+00	0	28	104	0	60	45061
2026-01-15 13:25:15.62	20.07	1.61	-46.7	-61.9	3.6	1.51e+00	0	28	104	0	60	44835
2026-01-15 13:25:16.63	20.11	1.67	-46.7	-61.9	3.6	1.51e+00	0	28	104	0	60	44945
2026-01-15 13:25:17.64	20.16	1.73	-46.7	-61.9	3.6	1.51e+00	0	28	104	0	60	44838
2026-01-15 13:25:18.65	20.21	1.79	-46.7	-61.9	3.6	1.51e+00	0	28	104	0	60	44935
2026-01-15 13:25:19.66	20.26	1.85	-46.7	-61.8	3.6	1.51e+00	0	28	104	0	60	44694
2026-01-15 13:25:20.67	20.31	1.91	-46.7	-61.9	3.6	1.51e+00	0	28	104	0	60	44880
2026-01-15 13:25:21.68	20.36	1.97	-46.7	-61.9	3.6	1.51e+00	0	28	104	0	60	45046
2026-01-15 13:25:22.69	20.41	2.03	-46.7	-61.9	3.6	1.51e+00	0	28	104	0	60	45088
2026-01-15 13:25:23.70	20.46	2.09	-46.7	-61.9	3.6	1.51e+00	0	28	104	0	60	45090
2026-01-15 13:25:24.71	20.51	2.15	-46.7	-61.9	3.5	1.51e+00	0	28	104	0	60	44916
2026-01-15 13:25:25.72	20.55	2.21	-46.7	-61.7	3.6	1.51e+00	0	28	104	0	60	44128
2026-01-15 13:25:26.73	20.60	2.27	-46.7	-61.4	3.6	1.51e+00	0	28	104	0	60	42658
2026-01-15 13:25:27.74	20.65	2.33	-46.6	-61.0	3.6	1.51e+00	0	28	104	0	60	40420
2026-01-15 13:25:28.75	20.70	2.39	-46.6	-61.0	3.6	1.51e+00	0	28	104	0	60	40761
2026-01-15 13:25:29.76	20.75	2.45	-46.7	-61.3	3.6	1.51e+00	0	28	104	0	60	42035
2026-01-15 13:25:30.77	20.81	2.51	-46.7	-61.6	3.6	1.51e+00	0	28	104	0	60	43278
2026-01-15 13:25:31.78	20.86	2.57	-46.6	-61.0	3.6	1.51e+00	0	28	104	0	60	40599
2026-01-15 13:25:32.79	20.91	2.63	-46.5	-58.9	3.7	1.51e+00	0	28	104	0	60	31673
2026-01-15 13:25:33.80	20.96	2.70	-46.2	-54.9	5.8	5.10e-01	0	28	0	0	60	20045
2026-01-15 13:25:34.81	21.01	2.76	-45.6	-51.4	8.9	8.18e-02	0	28	0	1048576	60	13370
2026-01-15 13:25:35.82	21.06	2.82	-44.9	-49.4	11.3	8.91e-03	0	28	0	3145728	60	10675
2026-01-15 13:25:36.83	21.11	2.88	-44.0	-47.5	13.4	2.28e-05	0	28	0	5242880	60	8526
2026-01-15 13:25:37.84	21.16	2.94	-43.3	-46.2	14.8	1.50e-06	0	28	0	7340032	60	7364
2026-01-15 13:25:38.85	21.22	3.00	-42.7	-45.3	15.7	0.00e+00	0	28	0	9437184	60	6650
2026-01-15 13:25:39.86	21.27	3.07	-42.3	-44.7	16.3	0.00e+00	0	28	0	10485760	58	6943
2026-01-15 13:25:40.87	21.32	3.13	-41.9	-44.0	16.8	0.00e+00	0	28	0	12582912	58	6456
2026-01-15 13:25:41.88	21.37	3.19	-42.0	-44.3	16.6	0.00e+00	0	28	0	14680064	58	6627
2026-01-15 13:25:42.89	21.43	3.25	-42.6	-45.1	15.8	0.00e+00	0	28	0	16777216	58	7305
2026-01-15 13:25:43.90	21.48	3.32	-43.2	-46.1	14.7	0.00e+00	0	28	0	18874368	58	8152
2026-01-15 13:25:44.91	21.53	3.38	-44.1	-47.8	13.0	6.80e-06	0	28	0	19922944	60	8879
2026-01-15 13:25:45.92	21.59	3.44	-44.8	-49.4	10.9	1.59e-04	0	28	0	22020096	60	10680
2026-01-15 13:25:46.93	21.64	3.50	-42.5	-44.9	15.9	0.00e+00	0	28	0	24117248	58	7154
2026-01-15 13:25:47.94	21.69	3.57	-46.6	-60.6	3.6	2.51e-01	0	28	104	26214400	60	38704
2026-01-15 13:25:48.95	21.75	3.63	-45.6	-51.6	5.1	1.49e+00	0	28	104	26214400	60	13676
2026-01-15 13:25:49.96	21.80	3.69	-43.6	-46.5	14.4	8.30e-06	0	28	0	26214400	60	7682
2026-01-15 13:25:50.97	21.86	3.76	-46.7	-61.3	3.6	4.47e-01	0	28	104	27262976	60	41934
2026-01-15 13:25:51.98	21.91	3.82	-43.4	-46.3	14.8	1.38e+00	71	28	104	27262976	60	7506
2026-01-15 13:25:52.99	21.97	3.89	-42.9	-45.5	15.4	0.00e+00	0	28	0	27262976	60	6780
2026-01-15 13:25:54.00	22.02	3.95	-42.9	-45.4	15.9	0.00e+00	0	28	0	29360128	60	6739
2026-01-15 13:25:55.01	22.08	4.01	-42.6	-45.0	16.1	0.00e+00	0	28	0	31457280	58	7245
2026-01-15 13:25:56.02	22.13	4.08	-42.0	-44.0	17.2	0.00e+00	0	28	0	32505856	58	6436
2026-01-15 13:25:57.03	22.19	4.14	-41.7	-43.7	17.4	0.00e+00	0	28	0	34603008	58	6202
2026-01-15 13:25:58.04	22.24	4.21	-41.9	-43.8	17.4	0.00e+00	0	28	0	36700160	56	7070
2026-01-15 13:25:59.05	22.30	4.27	-42.0	-44.0	17.2	0.00e+00	0	28	0	38797312	56	7238
2026-01-15 13:26:00.06	22.36	4.34	-41.7	-43.6	17.8	0.00e+00	0	28	0	40894464	56	6871
2026-01-15 13:26:01.07	22.41	4.40	-41.8	-43.7	17.6	0.00e+00	0	28	0	41943040	56	6976
2026-01-15 13:26:02.07	22.47	4.46	-41.4	-43.2	18.0	0.00e+00	0	28	0	44040192	56	6610
2026-01-15 13:26:03.08	22.53	4.53	-41.4	-43.1	18.1	0.00e+00	0	28	0	46137344	56	6536
2026-01-15 13:26:04.09	22.59	4.59	-41.5	-43.3	18.0	0.00e+00	0	28	0	48234496	56	6672
2026-01-15 13:26:05.10	22.64	4.66	-41.5	-43.3	18.0	0.00e+00	0	28	0	50331648	56	6641
2026-01-15 13:26:06.11	22.70	4.73	-41.3	-43.0	18.3	0.00e+00	0	28	0	52428800	56	6448
2026-01-15 13:26:07.12	22.76	4.79	-41.4	-43.2	18.1	0.00e+00	0	28	0	53477376	56	6562
2026-01-15 13:26:08.13	22.82	4.86	-41.3	-43.0	18.3	0.00e+00	0	28	0	55574528	56	6423
2026-01-15 13:26:09.14	22.88	4.92	-41.2	-42.9	18.3	0.00e+00	0	28	0	57671680	56	6323
2026-01-15 13:26:10.15	22.94	4.99	-41.0	-42.7	18.5	0.00e+00	0	28	0	59768832	56	6216
2026-01-15 13:26:11.16	22.99	5.06	-41.0	-42.7	18.6	0.00e+00	0	28	0	61865984	56	6217
2026-01-15 13:26:12.17	23.05	5.12	-41.1	-42.8	18.5	0.00e+00	0	28	0	62914560	56	6247
2026-01-15 13:26:13.18	23.11	5.19	-41.2	-42.9	18.4	0.00e+00	0	28	0	65011712	56	6337
2026-01-15 13:26:14.19	23.17	5.26	-41.3	-43.0	18.3	0.00e+00	0	28	0	67108864	56	6421
2026-01-15 13:26:15.20	23.23	5.32	-41.3	-43.0	18.4	0.00e+00	0	28	0	69206016	56	6432
2026-01-15 13:26:16.21	23.29	5.39	-41.1	-42.8	18.6	0.00e+00	0	28	0	71303168	56	6298
2026-01-15 13:26:17.22	23.35	5.46	-41.1	-42.7	18.7	0.00e+00	0	28	0	72351744	56	6199
2026-01-15 13:26:18.23	23.42	5.52	-41.1	-42.7	18.7	0.00e+00	0	28	0	74448896	56	6213
2026-01-15 13:26:19.24	23.48	5.59	-41.0	-42.6	18.8	0.00e+00	0	28	0	76546048	56	6114
2026-01-15 13:26:20.25	23.54	5.66	-41.0	-42.6	18.8	0.00e+00	0	28	0	78643200	56	6127
2026-01-15 13:26:21.26	23.60	5.73	-40.9	-42.5	18.9	0.00e+00	0	28	0	80740352	56	6095
2026-01-15 13:26:22.27	23.66	5.79	-40.9	-42.4	18.9	0.00e+00	0	28	0	81788928	56	6020
2026-01-15 13:26:23.28	23.72	5.86	-40.9	-42.5	18.9	0.00e+00	0	28	0	83886080	56	6076
2026-01-15 13:26:24.28	23.79	5.93	-40.7	-42.3	19.0	0.00e+00	0	28	0	85983232	54	6634
2026-01-15 13:26:25.29	23.85	6.00	-40.8	-42.4	19.1	0.00e+00	0	28	0	88080384	54	6693
2026-01-15 13:26:26.30	23.91	6.07	-40.6	-42.1	19.2	0.00e+00	0	28	0	90177536	54	6508
2026-01-15 13:26:27.31	23.97	6.13	-40.6	-42.2	19.3	0.00e+00	0	28	0	91226112	54	6544
2026-01-15 13:26:28.32	24.04	6.20	-40.8	-42.4	19.0	0.00e+00	0	28	0	93323264	54	6724
2026-01-15 13:26:29.33	24.10	6.27	-40.5	-41.9	19.4	0.00e+00	0	28	0	95420416	54	6388
2026-01-15 13:26:30.34	24.17	6.34	-40.5	-42.0	19.4	0.00e+00	0	28	0	97517568	54	6439
2026-01-15 13:26:31.35	24.23	6.41	-40.5	-42.0	19.4	0.00e+00	0	28	0	99614720	54	6417
2026-01-15 13:26:32.36	24.30	6.48	-40.5	-42.0	19.5	0.00e+00	0	28	0	100663296	54	6393
2026-01-15 13:26:33.37	24.36	6.55	-40.4	-41.8	19.6	0.00e+00	0	28	0	102760448	54	6276
2026-01-15 13:26:34.38	24.43	6.62	-40.4	-41.8	19.6	0.00e+00	0	28	0	104857600	54	6305
2026-01-15 13:26:35.39	24.49	6.69	-40.3	-41.7	19.7	0.00e+00	0	28	0	106954752	54	6207
2026-01-15 13:26:36.40	24.56	6.76	-40.2	-41.7	19.8	0.00e+00	0	28	0	109051904	54	6179
2026-01-15 13:26:37.41	24.62	6.83	-40.2	-41.6	19.9	0.00e+00	0	28	0	110100480	54	6136
2026-01-15 13:26:38.42	24.69	6.90	-40.3	-41.7	19.8	0.00e+00	0	28	0	112197632	54	6182
2026-01-15 13:26:39.43	24.76	6.97	-40.2	-41.6	19.9	0.00e+00	0	28	0	114294784	54	6166
2026-01-15 13:26:40.44	24.82	7.04	-40.2	-41.6	19.9	0.00e+00	0	28	0	116391936	54	6120
2026-01-15 13:26:41.45	24.89	7.11	-40.1	-41.5	19.9	0.00e+00	0	28	0	118489088	54	6079
2026-01-15 13:26:42.46	24.96	7.18	-40.2	-41.6	19.9	0.00e+00	0	28	0	120586240	54	6150
2026-01-15 13:26:43.47	25.03	7.25	-40.1	-41.5	20.0	0.00e+00	0	28	0	121634816	54	6076
2026-01-15 13:26:44.47	25.09	7.32	-40.1	-41.4	20.1	0.00e+00	0	28	0	123731968	54	6027
2026-01-15 13:26:45.48	25.16	7.40	-40.1	-41.5	20.1	0.00e+00	0	28	0	125829120	54	6074
2026-01-15 13:26:46.49	25.23	7.47	-40.0	-41.3	20.1	0.00e+00	0	28	0	127926272	54	5948
2026-01-15 13:26:47.50	25.30	7.54	-40.0	-41.4	20.2	0.00e+00	0	28	0	130023424	54	5971
2026-01-15 13:26:48.51	25.37	7.61	-39.9	-41.2	20.3	0.00e+00	0	28	0	131072000	54	5848
2026-01-15 13:26:49.52	25.44	7.68	-39.8	-41.1	20.5	0.00e+00	0	28	0	133169152	54	5792
2026-01-15 13:26:50.53	25.51	7.76	-39.8	-41.0	20.5	0.00e+00	0	29	0	135266304	52	6463
2026-01-15 13:26:51.54	25.58	7.83	-39.8	-41.1	20.4	0.00e+00	0	28	0	137363456	52	6511
2026-01-15 13:26:52.55	25.65	7.90	-39.8	-41.1	20.4	0.00e+00	0	28	0	139460608	52	6524
2026-01-15 13:26:53.56	25.72	7.97	-39.6	-40.9	20.7	0.00e+00	0	28	0	140509184	52	6332
2026-01-15 13:26:54.57	25.79	8.05	-39.4	-40.6	20.9	0.00e+00	0	28	0	142606336	52	6151
2026-01-15 13:26:55.58	25.87	8.12	-39.4	-40.7	21.0	0.00e+00	0	29	0	144703488	52	6176
2026-01-15 13:26:56.59	25.94	8.19	-39.5	-40.8	20.9	0.00e+00	0	28	0	146800640	52	6270
2026-01-15 13:26:57.60	26.01	8.27	-39.3	-40.5	21.0	0.00e+00	0	28	0	148897792	52	6091
2026-01-15 13:26:58.61	26.08	8.34	-39.3	-40.5	21.1	0.00e+00	0	29	0	149946368	52	6035
2026-01-15 13:26:59.62	26.16	8.42	-39.3	-40.5	21.0	0.00e+00	0	28	0	152043520	52	6097
2026-01-15 13:27:00.63	26.23	8.49	-39.4	-40.6	21.0	0.00e+00	0	29	0	154140672	52	6126
2026-01-15 13:27:01.63	26.30	8.56	-39.4	-40.6	21.1	0.00e+00	0	28	0	156237824	52	6105
2026-01-15 13:27:02.64	26.38	8.64	-39.4	-40.6	21.0	0.00e+00	0	28	0	158334976	52	6139
2026-01-15 13:27:03.65	26.45	8.71	-39.3	-40.5	21.1	0.00e+00	0	28	0	159383552	52	6053
2026-01-15 13:27:04.66	26.53	8.79	-39.4	-40.6	21.0	0.00e+00	0	28	0	161480704	52	6123
2026-01-15 13:27:05.67	26.60	8.86	-39.3	-40.5	21.1	0.00e+00	0	29	0	163577856	52	6086
2026-01-15 13:27:06.68	26.68	8.94	-39.3	-40.5	21.1	0.00e+00	0	29	0	165675008	52	6076
2026-01-15 13:27:07.69	26.75	9.01	-39.4	-40.7	21.0	0.00e+00	0	29	0	167772160	52	6180
2026-01-15 13:27:08.70	26.83	9.09	-39.6	-40.8	20.9	0.00e+00	0	29	0	168820736	52	6272
2026-01-15 13:27:09.70	26.91	9.16	-39.7	-40.9	20.6	0.00e+00	0	29	0	170917888	52	6373
2026-01-15 13:27:10.72	26.98	9.24	-39.7	-41.0	20.8	0.00e+00	0	28	0	173015040	52	6399
2026-01-15 13:27:11.72	27.06	9.32	-39.7	-40.9	20.8	0.00e+00	0	29	0	175112192	52	6352
2026-01-15 13:27:12.73	27.14	9.39	-39.3	-40.5	21.2	0.00e+00	0	29	0	177209344	52	6082
2026-01-15 13:27:13.74	27.22	9.47	-39.3	-40.5	21.2	0.00e+00	0	29	0	178257920	52	6054
2026-01-15 13:27:14.75	27.30	9.55	-39.2	-40.4	21.3	0.00e+00	0	28	0	180355072	52	5980
2026-01-15 13:27:15.76	27.37	9.62	-39.2	-40.3	21.3	0.00e+00	0	29	0	182452224	52	5964
2026-01-15 13:27:16.77	27.45	9.70	-39.2	-40.3	21.5	0.00e+00	0	29	0	184549376	52	5927
2026-01-15 13:27:17.78	27.53	9.78	-39.0	-40.2	21.5	0.00e+00	0	29	0	186646528	52	5846
2026-01-15 13:27:18.79	27.61	9.85	-39.1	-40.2	21.4	0.00e+00	0	29	0	188743680	52	5849
2026-01-15 13:27:19.80	27.69	9.93	-38.9	-40.0	21.7	0.00e+00	0	29	0	189792256	52	5706
2026-01-15 13:27:20.81	27.78	10.01	-38.8	-39.9	21.7	0.00e+00	0	29	0	191889408	52	5660
2026-01-15 13:27:21.82	27.86	10.09	-38.9	-40.0	21.7	0.00e+00	0	28	0	193986560	52	5712
2026-01-15 13:27:22.83	27.94	10.17	-38.8	-39.8	21.7	0.00e+00	0	29	0	196083712	52	5622
2026-01-15 13:27:23.84	28.02	10.24	-38.6	-39.7	21.9	0.00e+00	0	29	0	198180864	50	6197
2026-01-15 13:27:24.85	28.10	10.32	-38.7	-39.8	21.8	0.00e+00	0	29	0	199229440	50	6276
2026-01-15 13:27:25.86	28.19	10.40	-38.8	-39.9	21.8	0.00e+00	0	29	0	201326592	50	6383
2026-01-15 13:27:26.87	28.27	10.48	-38.5	-39.6	22.1	0.00e+00	0	28	0	203423744	50	6140
2026-01-15 13:27:27.88	28.35	10.56	-38.5	-39.6	22.0	0.00e+00	0	29	0	205520896	50	6117
2026-01-15 13:27:28.88	28.44	10.64	-38.4	-39.5	22.1	0.00e+00	0	29	0	207618048	50	6068
2026-01-15 13:27:29.89	28.52	10.72	-38.4	-39.5	22.1	0.00e+00	0	28	0	208666624	50	6042
2026-01-15 13:27:30.90	28.61	10.80	-38.3	-39.4	22.2	0.00e+00	0	29	0	210763776	50	5973
2026-01-15 13:27:31.91	28.69	10.88	-38.2	-39.3	22.2	0.00e+00	0	29	0	212860928	50	5900
2026-01-15 13:27:32.92	28.78	10.96	-38.2	-39.2	22.4	0.00e+00	0	29	0	214958080	50	5831
2026-01-15 13:27:33.93	28.87	11.04	-38.2	-39.2	22.4	0.00e+00	0	29	0	217055232	50	5855
2026-01-15 13:27:34.94	28.95	11.12	-38.3	-39.3	22.3	0.00e+00	0	29	0	218103808	50	5904
2026-01-15 13:27:35.95	29.04	11.20	-38.1	-39.1	22.6	0.00e+00	0	29	0	220200960	50	5783
2026-01-15 13:27:36.95	29.13	11.28	-37.9	-38.8	22.8	0.00e+00	0	29	0	222298112	50	5630
2026-01-15 13:27:37.96	29.22	11.36	-37.9	-38.9	22.7	0.00e+00	0	29	0	224395264	50	5655
2026-01-15 13:27:38.97	29.31	11.45	-37.7	-38.7	23.0	0.00e+00	0	29	0	226492416	48	6183
2026-01-15 13:27:39.98	29.40	11.53	-37.7	-38.6	23.0	0.00e+00	0	29	0	227540992	48	6170
2026-01-15 13:27:40.99	29.49	11.61	-37.7	-38.7	22.9	0.00e+00	0	28	0	229638144	48	6211
2026-01-15 13:27:42.00	29.58	11.69	-37.6	-38.6	23.0	0.00e+00	0	29	0	231735296	48	6120
2026-01-15 13:27:43.01	29.67	11.77	-37.6	-38.6	23.1	0.00e+00	0	29	0	233832448	48	6137
2026-01-15 13:27:44.02	29.76	11.86	-37.8	-38.7	22.9	0.00e+00	0	29	0	235929600	48	6240
2026-01-15 13:27:45.03	29.85	11.94	-37.7	-38.7	22.9	0.00e+00	0	29	0	236978176	48	6212
2026-01-15 13:27:46.04	29.94	12.02	-37.8	-38.8	22.8	0.00e+00	0	29	0	239075328	48	6263
2026-01-15 13:27:47.04	30.03	12.11	-37.8	-38.8	22.9	0.00e+00	0	29	0	241172480	48	6272
2026-01-15 13:27:48.05	30.13	12.19	-37.7	-38.6	23.0	0.00e+00	0	29	0	243269632	48	6169
2026-01-15 13:27:49.06	30.22	12.27	-37.8	-38.7	22.9	0.00e+00	0	29	0	245366784	48	6229
2026-01-15 13:27:50.07	30.31	12.36	-37.8	-38.7	22.9	0.00e+00	0	29	0	246415360	48	6236
2026-01-15 13:27:51.08	30.41	12.44	-37.9	-38.9	22.8	0.00e+00	0	29	0	248512512	48	6322
2026-01-15 13:27:52.09	30.50	12.53	-37.9	-38.9	22.7	0.00e+00	0	29	0	250609664	48	6372
2026-01-15 13:27:53.10	30.60	12.61	-38.0	-39.0	22.8	0.00e+00	0	29	0	252706816	48	6422
2026-01-15 13:27:54.11	30.70	12.70	-37.9	-38.9	22.8	0.00e+00	0	28	0	254803968	48	6320
2026-01-15 13:27:55.12	30.79	12.78	-37.7	-38.7	23.0	0.00e+00	0	29	0	255852544	48	6174
2026-01-15 13:27:56.13	30.89	12.87	-37.8	-38.7	22.9	0.00e+00	0	29	0	257949696	48	6241
2026-01-15 13:27:57.14	30.99	12.95	-37.8	-38.7	22.9	0.00e+00	0	29	0	260046848	48	6231
2026-01-15 13:27:58.15	31.09	13.04	-37.6	-38.6	23.0	0.00e+00	0	28	0	262144000	48	6130
2026-01-15 13:27:59.16	31.19	13.12	-37.7	-38.6	23.0	0.00e+00	0	29	0	264241152	48	6163
2026-01-15 13:28:00.17	31.29	13.21	-37.6	-38.6	23.1	0.00e+00	0	29	0	265289728	48	6107
2026-01-15 13:28:01.18	31.39	13.30	-37.7	-38.6	23.2	0.00e+00	0	29	0	267386880	48	6153
2026-01-15 13:28:02.19	31.49	13.38	-37.6	-38.6	23.1	0.00e+00	0	29	0	269484032	48	6129
2026-01-15 13:28:03.20	31.59	13.47	-37.7	-38.6	23.1	0.00e+00	0	29	0	271581184	48	6158
2026-01-15 13:28:04.21	31.69	13.56	-37.7	-38.7	23.0	0.00e+00	0	29	0	273678336	48	6186
2026-01-15 13:28:05.22	31.79	13.65	-37.8	-38.8	23.0	0.00e+00	0	29	0	274726912	48	6266
2026-01-15 13:28:06.22	31.89	13.73	-37.6	-38.6	23.1	0.00e+00	0	29	0	276824064	48	6118
2026-01-15 13:28:07.23	32.00	13.82	-37.7	-38.6	23.1	0.00e+00	0	29	0	278921216	48	6156
2026-01-15 13:28:08.24	32.10	13.91	-37.6	-38.5	23.2	0.00e+00	0	28	0	281018368	48	6069
2026-01-15 13:28:09.25	32.21	14.00	-37.7	-38.6	23.1	0.00e+00	0	29	0	283115520	48	6165
2026-01-15 13:28:10.26	32.31	14.09	-37.7	-38.7	23.0	0.00e+00	0	29	0	285212672	48	6207
2026-01-15 13:28:11.27	32.42	14.18	-37.5	-38.5	23.2	0.00e+00	0	29	0	286261248	48	6043
2026-01-15 13:28:12.28	32.52	14.26	-37.6	-38.6	23.2	0.00e+00	0	28	0	288358400	48	6106
2026-01-15 13:28:13.29	32.63	14.35	-37.5	-38.4	23.3	0.00e+00	0	28	0	290455552	48	6021
2026-01-15 13:28:14.30	32.74	14.44	-37.5	-38.4	23.4	0.00e+00	0	29	0	292552704	48	5985
2026-01-15 13:28:15.31	32.85	14.53	-37.5	-38.5	23.1	0.00e+00	0	29	0	294649856	48	6039
2026-01-15 13:28:16.32	32.96	14.62	-37.6	-38.6	23.1	0.00e+00	0	29	0	295698432	48	6128
2026-01-15 13:28:17.33	33.07	14.71	-37.5	-38.4	23.2	0.00e+00	0	28	0	297795584	48	6025
2026-01-15 13:28:18.34	33.18	14.80	-37.7	-38.6	23.1	0.00e+00	0	28	0	299892736	48	6143
2026-01-15 13:28:19.35	33.29	14.90	-37.8	-38.7	23.1	0.00e+00	0	28	0	301989888	48	6240
2026-01-15 13:28:20.36	33.40	14.99	-37.5	-38.4	23.3	0.00e+00	0	29	0	304087040	48	6000
2026-01-15 13:28:21.37	33.51	15.08	-37.6	-38.6	23.2	0.00e+00	0	29	0	305135616	48	6108
2026-01-15 13:28:22.38	33.62	15.17	-37.6	-38.5	23.3	0.00e+00	0	29	0	307232768	48	6067
2026-01-15 13:28:23.39	33.74	15.26	-37.7	-38.6	23.1	0.00e+00	0	29	0	309329920	48	6155
2026-01-15 13:28:24.40	33.85	15.35	-38.1	-39.1	22.7	0.00e+00	0	28	0	311427072	48	6517
2026-01-15 13:28:25.41	33.97	15.45	-37.7	-38.7	23.1	0.00e+00	0	29	0	313524224	48	6212
2026-01-15 13:28:26.42	34.08	15.54	-37.8	-38.8	23.0	0.00e+00	0	29	0	314572800	48	6289
2026-01-15 13:28:27.43	34.20	15.63	-37.9	-38.8	23.0	0.00e+00	0	28	0	316669952	48	6305
2026-01-15 13:28:28.43	34.32	15.72	-38.0	-39.0	22.8	0.00e+00	0	29	0	318767104	48	6418
2026-01-15 13:28:29.44	34.43	15.82	-38.2	-39.2	22.8	0.00e+00	0	29	0	320864256	48	6554
2026-01-15 13:28:30.45	34.55	15.91	-38.2	-39.2	22.6	0.00e+00	0	28	0	322961408	48	6548
2026-01-15 13:28:31.47	34.67	16.01	-38.3	-39.3	22.6	0.00e+00	0	28	0	324009984	48	6672
2026-01-15 13:28:32.48	34.79	16.10	-38.3	-39.3	22.6	0.00e+00	0	29	0	326107136	48	6637
2026-01-15 13:28:33.49	34.91	16.19	-38.2	-39.2	22.6	0.00e+00	0	28	0	328204288	48	6587
2026-01-15 13:28:34.50	35.03	16.29	-38.4	-39.4	22.4	0.00e+00	0	29	0	330301440	48	6718
2026-01-15 13:28:35.51	35.16	16.38	-38.5	-39.6	22.4	0.00e+00	0	29	0	332398592	48	6854
2026-01-15 13:28:36.52	35.28	16.48	-38.7	-39.7	22.2	0.00e+00	0	28	0	333447168	48	6988
2026-01-15 13:28:37.53	35.40	16.57	-38.7	-39.7	22.1	0.00e+00	0	29	0	335544320	50	6227
2026-01-15 13:28:38.54	35.53	16.67	-38.7	-39.8	22.1	0.00e+00	0	28	0	337641472	50	6270
2026-01-15 13:28:39.54	35.65	16.76	-38.8	-39.8	22.0	0.00e+00	0	29	0	339738624	50	6316
2026-01-15 13:28:40.56	35.78	16.86	-38.9	-40.0	21.9	0.00e+00	0	28	0	341835776	50	6416
2026-01-15 13:28:41.57	35.90	16.96	-38.9	-40.0	22.0	0.00e+00	0	29	0	342884352	50	6432
2026-01-15 13:28:42.58	36.03	17.05	-39.1	-40.2	21.8	0.00e+00	0	28	0	344981504	50	6565
2026-01-15 13:28:43.59	36.16	17.15	-38.9	-40.0	21.9	0.00e+00	0	28	0	347078656	50	6406
2026-01-15 13:28:44.60	36.29	17.25	-39.0	-40.1	21.9	0.00e+00	0	29	0	349175808	50	6498
2026-01-15 13:28:45.60	36.42	17.35	-39.0	-40.1	21.8	0.00e+00	0	29	0	351272960	50	6479
2026-01-15 13:28:46.61	36.55	17.44	-38.8	-39.9	22.0	0.00e+00	0	29	0	353370112	50	6335
2026-01-15 13:28:47.62	36.68	17.54	-38.8	-39.9	21.8	0.00e+00	0	29	0	354418688	50	6325
2026-01-15 13:28:48.63	36.81	17.64	-38.8	-39.9	21.9	0.00e+00	0	29	0	356515840	50	6360
2026-01-15 13:28:49.65	36.94	17.74	-38.6	-39.6	22.3	0.00e+00	0	29	0	358612992	50	6124
2026-01-15 13:28:50.65	37.08	17.84	-38.6	-39.6	22.3	0.00e+00	0	29	0	360710144	50	6160
2026-01-15 13:28:51.66	37.21	17.93	-38.6	-39.6	22.3	0.00e+00	0	29	0	362807296	50	6125
2026-01-15 13:28:52.68	37.35	18.03	-38.6	-39.6	22.3	0.00e+00	0	29	0	363855872	50	6135
2026-01-15 13:28:53.69	37.49	18.13	-38.6	-39.6	22.3	0.00e+00	0	29	0	365953024	50	6156
2026-01-15 13:28:54.70	37.62	18.23	-38.6	-39.7	22.3	0.00e+00	0	29	0	368050176	50	6194
2026-01-15 13:28:55.71	37.76	18.33	-38.7	-39.8	22.2	0.00e+00	0	29	0	370147328	50	6262
2026-01-15 13:28:56.72	37.90	18.43	-38.7	-39.8	22.2	0.00e+00	0	29	0	372244480	50	6269
2026-01-15 13:28:57.73	38.04	18.53	-38.9	-39.9	22.0	0.00e+00	0	29	0	373293056	50	6365
2026-01-15 13:28:58.74	38.18	18.63	-38.9	-40.0	22.0	0.00e+00	0	29	0	375390208	50	6415
2026-01-15 13:28:59.75	38.32	18.74	-38.8	-39.9	22.1	0.00e+00	0	29	0	377487360	50	6334
2026-01-15 13:29:00.74	38.46	18.83	-38.8	-39.8	22.1	0.00e+00	0	29	0	379584512	50	6307
2026-01-15 13:29:01.75	38.61	18.94	-38.8	-39.9	22.1	0.00e+00	0	29	0	381681664	50	6339
2026-01-15 13:29:02.76	38.75	19.04	-38.8	-39.8	22.2	0.00e+00	0	29	0	382730240	50	6294
2026-01-15 13:29:03.77	38.90	19.14	-38.9	-39.9	22.0	0.00e+00	0	29	0	384827392	50	6380
2026-01-15 13:29:04.78	39.04	19.24	-38.9	-39.9	22.1	0.00e+00	0	29	0	386924544	50	6369
2026-01-15 13:29:05.79	39.19	19.34	-38.9	-40.0	22.1	0.00e+00	0	29	0	389021696	50	6433
2026-01-15 13:29:06.79	39.34	19.45	-38.7	-39.8	22.2	0.00e+00	0	29	0	391118848	50	6265
2026-01-15 13:29:07.80	39.49	19.55	-38.8	-39.8	22.1	0.00e+00	0	29	0	392167424	50	6298
2026-01-15 13:29:08.81	39.64	19.65	-38.6	-39.7	22.3	0.00e+00	0	29	0	394264576	50	6195
2026-01-15 13:29:09.82	39.79	19.76	-38.6	-39.6	22.3	0.00e+00	0	29	0	396361728	50	6158
2026-01-15 13:29:10.83	39.94	19.86	-38.5	-39.6	22.4	0.00e+00	0	29	0	398458880	50	6116
2026-01-15 13:29:11.84	40.09	19.96	-38.5	-39.5	22.3	0.00e+00	0	28	0	400556032	50	6087
2026-01-15 13:29:12.85	40.25	20.07	-38.6	-39.6	22.2	0.00e+00	0	29	0	401604608	50	6154
2026-01-15 13:29:13.86	40.40	20.17	-38.4	-39.4	22.6	0.00e+00	0	29	0	403701760	50	6022
2026-01-15 13:29:14.87	40.56	20.28	-38.3	-39.3	22.6	0.00e+00	0	29	0	405798912	50	5942
2026-01-15 13:29:15.88	40.71	20.38	-38.2	-39.2	22.7	0.00e+00	0	29	0	407896064	50	5877
2026-01-15 13:29:16.89	40.87	20.48	-38.2	-39.2	22.8	0.00e+00	0	29	0	409993216	50	5836
2026-01-15 13:29:17.90	41.03	20.59	-38.2	-39.2	22.8	0.00e+00	0	29	0	411041792	50	5847
2026-01-15 13:29:18.90	41.19	20.69	-38.1	-39.0	22.9	0.00e+00	0	29	0	413138944	50	5749
2026-01-15 13:29:19.92	41.35	20.80	-38.1	-39.0	22.9	0.00e+00	0	29	0	415236096	50	5744
2026-01-15 13:29:20.93	41.52	20.91	-38.1	-39.1	22.9	0.00e+00	0	29	0	417333248	50	5809
2026-01-15 13:29:21.93	41.68	21.01	-38.0	-38.9	23.0	0.00e+00	0	29	0	419430400	50	5683
2026-01-15 13:29:22.94	41.84	21.12	-37.9	-38.9	23.1	0.00e+00	0	29	0	421527552	50	5665
2026-01-15 13:29:23.95	42.01	21.23	-38.0	-39.0	23.0	0.00e+00	0	29	0	422576128	50	5702
2026-01-15 13:29:24.96	42.18	21.33	-37.8	-38.8	23.2	0.00e+00	0	29	0	424673280	50	5573
2026-01-15 13:29:25.97	42.34	21.44	-37.8	-38.8	23.1	0.00e+00	0	29	0	426770432	50	5594
2026-01-15 13:29:26.98	42.51	21.55	-37.5	-38.4	23.5	0.00e+00	0	29	0	428867584	48	6018
2026-01-15 13:29:27.99	42.68	21.65	-37.4	-38.3	23.6	0.00e+00	0	29	0	430964736	48	5939
2026-01-15 13:29:29.00	42.86	21.76	-37.3	-38.3	23.6	0.00e+00	0	29	0	432013312	48	5899
2026-01-15 13:29:30.01	43.03	21.87	-37.2	-38.1	23.7	0.00e+00	0	29	0	434110464	48	5812
2026-01-15 13:29:31.02	43.20	21.98	-37.3	-38.2	23.6	0.00e+00	0	28	0	436207616	48	5881
2026-01-15 13:29:32.03	43.38	22.08	-37.3	-38.2	23.2	0.00e+00	0	29	0	438304768	48	5883
2026-01-15 13:29:33.04	43.55	22.19	-37.3	-38.3	23.6	0.00e+00	0	29	0	440401920	48	5906
2026-01-15 13:29:34.05	43.73	22.30	-37.1	-38.0	23.5	0.00e+00	0	29	0	441450496	48	5725
2026-01-15 13:29:35.06	43.91	22.41	-37.1	-38.0	23.8	0.00e+00	0	29	0	443547648	48	5749
2026-01-15 13:29:36.07	44.09	22.52	-37.0	-37.9	23.9	0.00e+00	0	29	0	445644800	48	5675
2026-01-15 13:29:37.07	44.27	22.63	-36.9	-37.8	24.0	0.00e+00	0	28	0	447741952	48	5572
2026-01-15 13:29:38.08	44.45	22.74	-36.7	-37.5	24.3	0.00e+00	0	29	0	449839104	46	6098
2026-01-15 13:29:39.09	44.63	22.85	-36.8	-37.6	24.2	0.00e+00	0	29	0	450887680	46	6138
2026-01-15 13:29:40.10	44.82	22.96	-36.7	-37.5	24.3	0.00e+00	0	29	0	452984832	46	6085
2026-01-15 13:29:41.11	45.01	23.07	-36.5	-37.3	24.5	0.00e+00	0	29	0	455081984	46	5943
2026-01-15 13:29:42.13	45.19	23.18	-36.6	-37.4	24.3	0.00e+00	0	29	0	457179136	46	6025
2026-01-15 13:29:43.14	45.38	23.29	-36.6	-37.5	24.3	0.00e+00	0	28	0	459276288	46	6044
2026-01-15 13:29:44.15	45.57	23.40	-36.7	-37.6	24.2	0.00e+00	0	29	0	460324864	46	6140
2026-01-15 13:29:45.16	45.76	23.51	-36.6	-37.5	24.2	0.00e+00	0	29	0	462422016	46	6057
2026-01-15 13:29:46.16	45.96	23.62	-36.8	-37.6	24.1	0.00e+00	0	29	0	464519168	46	6142
2026-01-15 13:29:47.18	46.15	23.73	-36.7	-37.6	24.2	0.00e+00	0	29	0	466616320	46	6135
2026-01-15 13:29:48.19	46.35	23.84	-36.8	-37.6	24.2	0.00e+00	0	29	0	468713472	46	6166
2026-01-15 13:29:49.20	46.54	23.95	-36.6	-37.4	24.4	0.00e+00	0	29	0	469762048	46	6009
2026-01-15 13:29:50.21	46.74	24.06	-36.5	-37.3	24.4	0.00e+00	0	29	0	471859200	46	5957
2026-01-15 13:29:51.22	46.94	24.17	-36.6	-37.4	24.3	0.00e+00	0	29	0	473956352	46	6030
2026-01-15 13:29:52.23	47.14	24.29	-36.5	-37.3	24.5	0.00e+00	0	29	0	476053504	46	5920
2026-01-15 13:29:53.24	47.34	24.40	-36.5	-37.4	24.4	0.00e+00	0	29	0	478150656	46	5981
2026-01-15 13:29:54.25	47.55	24.51	-36.4	-37.2	24.5	0.00e+00	0	29	0	479199232	46	5888
2026-01-15 13:29:55.26	47.75	24.62	-36.5	-37.3	24.5	0.00e+00	0	29	0	481296384	46	5915
2026-01-15 13:29:56.27	47.96	24.73	-36.4	-37.2	24.6	0.00e+00	0	29	0	483393536	46	5849
2026-01-15 13:29:57.28	48.17	24.84	-36.4	-37.2	24.6	0.00e+00	0	29	0	485490688	46	5896
2026-01-15 13:29:58.29	48.38	24.96	-36.4	-37.2	24.4	0.00e+00	0	29	0	487587840	46	5889
2026-01-15 13:29:59.30	48.59	25.07	-36.4	-37.2	24.6	0.00e+00	0	29	0	489684992	46	5882
2026-01-15 13:30:00.31	48.80	25.18	-36.3	-37.2	24.7	0.00e+00	0	29	0	490733568	46	5835
2026-01-15 13:30:01.32	49.01	25.29	-36.4	-37.2	24.6	0.00e+00	0	29	0	492830720	46	5846
2026-01-15 13:30:02.33	49.23	25.41	-36.6	-37.4	24.3	0.00e+00	0	29	0	494927872	46	6020
2026-01-15 13:30:03.34	49.44	25.52	-36.7	-37.5	24.3	0.00e+00	0	29	0	497025024	46	6075
2026-01-15 13:30:04.35	49.66	25.63	-36.9	-37.8	24.1	0.00e+00	0	28	0	499122176	46	6255
2026-01-15 13:30:05.36	49.88	25.74	-37.1	-38.0	24.0	0.00e+00	0	29	0	500170752	46	6397
2026-01-15 13:30:06.37	50.10	25.86	-37.1	-38.0	23.9	0.00e+00	0	29	0	502267904	46	6418
2026-01-15 13:30:07.38	50.33	25.97	-37.0	-37.9	24.1	0.00e+00	0	29	0	504365056	46	6348
2026-01-15 13:30:08.39	50.55	26.08	-36.8	-37.7	24.2	0.00e+00	0	29	0	506462208	46	6192
2026-01-15 13:30:09.40	50.78	26.19	-36.7	-37.6	24.2	0.00e+00	0	29	0	508559360	46	6135
2026-01-15 13:30:10.40	51.00	26.31	-36.8	-37.7	24.1	0.00e+00	0	29	0	509607936	46	6205
2026-01-15 13:30:11.41	51.23	26.42	-36.8	-37.6	24.3	0.00e+00	0	29	0	511705088	46	6144
2026-01-15 13:30:12.42	51.46	26.53	-36.8	-37.6	24.2	0.00e+00	0	29	0	513802240	46	6170
2026-01-15 13:30:13.43	51.69	26.64	-36.9	-37.8	24.1	0.00e+00	0	29	0	515899392	46	6275
2026-01-15 13:30:14.44	51.93	26.76	-37.2	-38.0	23.9	0.00e+00	0	29	0	517996544	46	6440
2026-01-15 13:30:15.45	52.16	26.87	-37.4	-38.3	23.7	0.00e+00	0	29	0	519045120	46	6627
2026-01-15 13:30:16.46	52.40	26.98	-37.4	-38.4	23.6	0.00e+00	0	29	0	521142272	46	6701
2026-01-15 13:30:17.47	52.64	27.09	-37.6	-38.5	23.5	0.00e+00	0	29	0	523239424	46	6777
2026-01-15 13:30:18.48	52.88	27.21	-37.5	-38.4	23.5	0.00e+00	0	28	0	525336576	46	6768
2026-01-15 13:30:19.49	53.12	27.32	-37.5	-38.5	23.5	0.00e+00	0	29	0	527433728	46	6771
2026-01-15 13:30:20.50	53.37	27.43	-37.7	-38.6	23.4	0.00e+00	0	29	0	528482304	46	6857
2026-01-15 13:30:21.51	53.61	27.54	-37.8	-38.7	23.3	0.00e+00	0	29	0	530579456	48	6208
2026-01-15 13:30:22.52	53.86	27.66	-38.1	-39.1	22.9	0.00e+00	0	29	0	532676608	48	6495
2026-01-15 13:30:23.53	54.11	27.77	-38.4	-39.4	22.6	0.00e+00	0	29	0	534773760	48	6749
2026-01-15 13:30:24.54	54.36	27.88	-38.6	-39.6	22.5	0.00e+00	0	29	0	536870912	48	6909
2026-01-15 13:30:25.55	54.61	27.99	-38.7	-39.8	22.3	0.00e+00	0	29	0	537919488	48	7017
2026-01-15 13:30:26.56	54.86	28.10	-38.6	-39.7	22.4	0.00e+00	0	29	0	540016640	48	6934
2026-01-15 13:30:27.57	55.12	28.21	-38.4	-39.4	22.7	0.00e+00	0	29	0	542113792	48	6722
2026-01-15 13:30:28.57	55.38	28.32	-38.6	-39.6	22.5	0.00e+00	0	29	0	544210944	48	6874
2026-01-15 13:30:29.58	55.63	28.44	-38.7	-39.7	22.4	0.00e+00	0	29	0	546308096	48	6978
2026-01-15 13:30:30.60	55.90	28.55	-38.9	-39.9	22.2	0.00e+00	0	29	0	547356672	50	6368
2026-01-15 13:30:31.60	56.16	28.66	-39.1	-40.2	21.9	0.00e+00	0	29	0	549453824	50	6554
2026-01-15 13:30:32.61	56.42	28.77	-39.4	-40.5	21.7	0.00e+00	0	29	0	551550976	50	6795
2026-01-15 13:30:33.62	56.69	28.88	-39.6	-40.8	21.4	0.00e+00	0	29	0	553648128	50	7021
2026-01-15 13:30:34.63	56.96	28.99	-39.8	-41.0	21.2	0.00e+00	0	29	0	555745280	50	7231
2026-01-15 13:30:35.64	57.23	29.10	-39.8	-41.0	21.3	0.00e+00	0	29	0	557842432	52	6401
2026-01-15 13:30:36.65	57.50	29.21	-39.9	-41.1	21.2	0.00e+00	0	29	0	558891008	52	6531
2026-01-15 13:30:37.66	57.77	29.32	-40.1	-41.3	20.9	0.00e+00	0	29	0	560988160	52	6677
2026-01-15 13:30:38.67	58.05	29.43	-40.4	-41.7	20.6	0.00e+00	0	29	0	563085312	52	7005
2026-01-15 13:30:39.68	58.33	29.54	-40.8	-42.2	20.2	0.00e+00	0	29	0	565182464	54	6561
2026-01-15 13:30:40.69	58.61	29.64	-41.3	-42.8	19.5	0.00e+00	0	29	0	567279616	54	7075
2026-01-15 13:30:41.70	58.89	29.75	-42.0	-43.6	18.8	0.00e+00	0	29	0	568328192	56	6890
2026-01-15 13:30:42.71	59.17	29.86	-42.3	-44.1	18.3	0.00e+00	0	29	0	570425344	56	7296
2026-01-15 13:30:43.72	59.45	29.97	-42.5	-44.3	18.2	0.00e+00	0	29	0	572522496	56	7508
2026-01-15 13:30:44.73	59.74	30.08	-42.6	-44.4	18.0	0.00e+00	0	29	0	574619648	56	7583
2026-01-15 13:30:45.74	60.03	30.18	-42.6	-44.5	18.0	0.00e+00	0	29	0	576716800	56	7641
2026-01-15 13:30:46.75	60.32	30.29	-42.6	-44.4	18.0	0.00e+00	0	29	0	577765376	56	7536
2026-01-15 13:30:47.76	60.61	30.40	-42.6	-44.4	18.1	0.00e+00	0	29	0	579862528	56	7546
2026-01-15 13:30:48.77	60.91	30.50	-42.2	-43.9	18.6	0.00e+00	0	29	0	581959680	56	7148
2026-01-15 13:30:49.78	61.20	30.61	-42.2	-44.0	18.4	0.00e+00	0	29	0	584056832	56	7187
2026-01-15 13:30:50.79	61.50	30.71	-42.2	-43.9	18.5	0.00e+00	0	29	0	586153984	56	7130
2026-01-15 13:30:51.79	61.80	30.81	-42.2	-43.9	18.5	0.00e+00	0	29	0	587202560	56	7153
2026-01-15 13:30:52.80	62.10	30.92	-42.2	-43.9	18.5	0.00e+00	0	29	0	589299712	56	7097
2026-01-15 13:30:53.81	62.40	31.02	-42.2	-43.9	18.3	0.00e+00	0	29	0	591396864	56	7147
2026-01-15 13:30:54.82	62.71	31.13	-42.3	-44.1	18.4	0.00e+00	0	29	0	593494016	56	7282
2026-01-15 13:30:55.83	63.02	31.23	-42.2	-43.9	18.5	0.00e+00	0	29	0	595591168	56	7145
2026-01-15 13:30:56.84	63.33	31.33	-42.2	-43.8	18.6	0.00e+00	0	29	0	596639744	56	7079
2026-01-15 13:30:57.85	63.64	31.43	-41.9	-43.6	18.9	0.00e+00	0	29	0	598736896	56	6884
2026-01-15 13:30:58.86	63.95	31.53	-41.6	-43.1	19.2	0.00e+00	0	29	0	600834048	56	6510
2026-01-15 13:30:59.87	64.27	31.63	-41.4	-42.9	19.6	0.00e+00	0	29	0	602931200	56	6318
2026-01-15 13:31:00.88	64.58	31.73	-40.8	-42.2	20.3	0.00e+00	0	29	0	605028352	56	5847
2026-01-15 13:31:01.89	64.90	31.83	-40.3	-41.6	20.7	0.00e+00	0	29	0	606076928	54	6137
2026-01-15 13:31:02.90	65.22	31.93	-40.3	-41.6	20.7	0.00e+00	0	29	0	608174080	54	6124
2026-01-15 13:31:03.91	65.55	32.03	-39.9	-41.1	21.1	0.00e+00	0	29	0	610271232	54	5790
2026-01-15 13:31:04.92	65.87	32.12	-40.0	-41.2	21.0	0.00e+00	0	29	0	612368384	54	5883
2026-01-15 13:31:05.93	66.20	32.22	-39.9	-41.2	21.1	0.00e+00	0	29	0	614465536	54	5856
2026-01-15 13:31:06.93	66.52	32.31	-39.9	-41.3	21.2	0.00e+00	0	29	0	615514112	54	5906
2026-01-15 13:31:07.94	66.85	32.41	-39.8	-41.1	21.3	0.00e+00	0	29	0	617611264	52	6504
2026-01-15 13:31:08.95	67.19	32.50	-39.6	-40.7	21.5	0.00e+00	0	29	0	619708416	52	6225
2026-01-15 13:31:09.96	67.52	32.60	-39.2	-40.2	21.9	0.00e+00	0	29	0	621805568	52	5874
2026-01-15 13:31:10.97	67.86	32.69	-38.8	-39.8	22.4	0.00e+00	0	29	0	623902720	52	5578
2026-01-15 13:31:11.98	68.20	32.78	-38.7	-39.7	22.4	0.00e+00	0	29	0	625999872	50	6244
2026-01-15 13:31:12.99	68.54	32.87	-38.7	-39.8	22.5	0.00e+00	0	29	0	627048448	50	6252
2026-01-15 13:31:14.00	68.88	32.96	-38.8	-39.9	22.2	0.00e+00	0	29	0	629145600	50	6329
2026-01-15 13:31:15.01	69.22	33.05	-39.0	-40.0	22.2	0.00e+00	0	29	0	631242752	50	6431
2026-01-15 13:31:16.02	69.57	33.14	-39.0	-40.1	22.1	0.00e+00	0	29	0	633339904	50	6526
2026-01-15 13:31:17.03	69.92	33.23	-38.8	-39.9	22.3	0.00e+00	0	29	0	635437056	50	6343
2026-01-15 13:31:18.04	70.26	33.31	-38.9	-40.0	22.2	0.00e+00	0	29	0	636485632	50	6418
2026-01-15 13:31:19.05	70.62	33.40	-38.5	-39.5	22.6	0.00e+00	0	29	0	638582784	50	6087
2026-01-15 13:31:20.06	70.97	33.49	-38.1	-39.0	23.1	0.00e+00	0	29	0	640679936	50	5756
2026-01-15 13:31:21.07	71.32	33.57	-38.0	-39.0	22.9	0.00e+00	0	29	0	642777088	50	5706
2026-01-15 13:31:22.08	71.68	33.65	-37.8	-38.8	23.3	0.00e+00	0	29	0	644874240	50	5577
2026-01-15 13:31:23.09	72.04	33.73	-37.9	-38.8	23.3	0.00e+00	0	29	0	645922816	50	5604
2026-01-15 13:31:24.10	72.40	33.81	-38.2	-39.2	23.0	0.00e+00	0	29	0	648019968	50	5832
2026-01-15 13:31:25.11	72.76	33.89	-38.5	-39.5	22.7	0.00e+00	0	29	0	650117120	50	6052
2026-01-15 13:31:26.12	73.12	33.97	-38.6	-39.7	22.5	0.00e+00	0	29	0	652214272	50	6184
2026-01-15 13:31:27.13	73.49	34.05	-38.7	-39.7	22.4	0.00e+00	0	29	0	654311424	50	6243
2026-01-15 13:31:28.14	73.86	34.13	-38.9	-39.9	22.1	0.00e+00	0	29	0	655360000	50	6385
2026-01-15 13:31:29.15	74.23	34.20	-39.3	-40.4	21.9	0.00e+00	0	29	0	657457152	50	6724
2026-01-15 13:31:30.16	74.60	34.28	-39.6	-40.7	21.5	0.00e+00	0	29	0	659554304	50	7000
2026-01-15 13:31:31.17	74.97	34.35	-39.8	-41.0	21.3	0.00e+00	0	29	0	661651456	52	6403
2026-01-15 13:31:32.18	75.34	34.42	-39.9	-41.1	21.3	0.00e+00	0	29	0	663748608	52	6486
2026-01-15 13:31:33.19	75.72	34.49	-39.9	-41.0	21.3	0.00e+00	0	29	0	664797184	52	6450
2026-01-15 13:31:34.20	76.10	34.56	-40.0	-41.1	21.2	0.00e+00	0	29	0	666894336	52	6534
2026-01-15 13:31:35.21	76.47	34.63	-40.2	-41.5	20.8	0.00e+00	0	29	0	668991488	52	6802
2026-01-15 13:31:36.22	76.85	34.70	-40.4	-41.7	20.6	0.00e+00	0	29	0	671088640	52	7000
2026-01-15 13:31:37.23	77.24	34.77	-40.6	-41.9	20.5	0.00e+00	0	29	0	673185792	52	7100
2026-01-15 13:31:38.24	77.62	34.83	-40.5	-41.8	20.4	0.00e+00	0	29	0	674234368	52	7048
2026-01-15 13:31:39.25	78.01	34.90	-40.2	-41.4	21.0	0.00e+00	0	29	0	676331520	52	6716
2026-01-15 13:31:40.26	78.39	34.96	-40.1	-41.4	21.0	0.00e+00	0	29	0	678428672	52	6695
2026-01-15 13:31:41.27	78.78	35.02	-39.9	-41.0	21.3	0.00e+00	0	29	0	680525824	52	6459
2026-01-15 13:31:42.28	79.17	35.08	-39.5	-40.5	21.7	0.00e+00	0	29	0	682622976	52	6103
2026-01-15 13:31:43.29	79.56	35.14	-39.4	-40.5	21.9	0.00e+00	0	29	0	683671552	52	6059
2026-01-15 13:31:44.30	79.95	35.19	-39.1	-40.1	22.1	0.00e+00	0	29	0	685768704	52	5828
2026-01-15 13:31:45.31	80.34	35.25	-38.9	-40.0	22.3	0.00e+00	0	29	0	687865856	52	5698
2026-01-15 13:31:46.32	80.74	35.30	-38.8	-39.8	22.3	0.00e+00	0	29	0	689963008	52	5594
2026-01-15 13:31:47.33	81.14	35.36	-38.6	-39.6	22.6	0.00e+00	0	29	0	692060160	50	6162
2026-01-15 13:31:48.34	81.53	35.41	-38.2	-39.2	23.0	0.00e+00	0	29	0	694157312	50	5852
2026-01-15 13:31:49.35	81.93	35.46	-38.2	-39.2	23.0	0.00e+00	0	29	0	695205888	50	5842
2026-01-15 13:31:50.36	82.33	35.51	-38.1	-39.1	23.1	0.00e+00	0	29	0	697303040	50	5763
2026-01-15 13:31:51.37	82.73	35.55	-38.1	-39.0	23.1	0.00e+00	0	29	0	699400192	50	5739
2026-01-15 13:31:52.38	83.13	35.60	-38.4	-39.4	22.8	0.00e+00	0	29	0	701497344	50	5998
2026-01-15 13:31:53.39	83.54	35.64	-38.6	-39.6	22.5	0.00e+00	0	29	0	703594496	50	6162
2026-01-15 13:31:54.40	83.94	35.69	-39.3	-40.4	21.9	0.00e+00	0	29	0	704643072	50	6714
2026-01-15 13:31:55.41	84.35	35.73	-39.9	-41.1	21.2	0.00e+00	0	29	0	706740224	52	6483
2026-01-15 13:31:56.42	84.75	35.77	-40.1	-41.3	21.1	0.00e+00	0	29	0	708837376	52	6665
2026-01-15 13:31:57.43	85.16	35.80	-39.9	-41.0	21.3	0.00e+00	0	29	0	710934528	52	6452
2026-01-15 13:31:58.44	85.57	35.84	-39.8	-40.9	21.4	0.00e+00	0	29	0	713031680	52	6372
2026-01-15 13:31:59.45	85.98	35.88	-39.7	-40.8	21.3	0.00e+00	0	29	0	714080256	52	6306
2026-01-15 13:32:00.46	86.39	35.91	-40.2	-41.5	20.9	0.00e+00	0	29	0	716177408	52	6788
2026-01-15 13:32:01.47	86.80	35.94	-40.4	-41.7	20.6	0.00e+00	0	29	0	718274560	52	6939
2026-01-15 13:32:02.48	87.21	35.97	-41.0	-42.4	20.0	0.00e+00	0	29	0	720371712	54	6711
2026-01-15 13:32:03.49	87.62	36.00	-40.8	-42.1	20.3	0.00e+00	0	29	0	722468864	54	6512
2026-01-15 13:32:04.49	88.03	36.03	-40.6	-41.9	20.5	0.00e+00	0	29	0	723517440	54	6322
2026-01-15 13:32:05.50	88.44	36.05	-40.7	-42.0	20.4	0.00e+00	0	29	0	725614592	54	6417
2026-01-15 13:32:06.51	88.86	36.07	-40.8	-42.1	20.3	0.00e+00	0	29	0	727711744	54	6512
2026-01-15 13:32:07.52	89.27	36.10	-40.8	-42.1	20.2	0.00e+00	0	29	0	729808896	54	6531
2026-01-15 13:32:08.53	89.69	36.12	-40.8	-42.2	20.2	0.00e+00	0	29	0	731906048	54	6541
2026-01-15 13:32:09.54	90.10	36.14	-40.7	-42.1	20.3	0.00e+00	0	29	0	732954624	54	6486
2026-01-15 13:32:10.55	90.52	36.15	-40.7	-42.2	20.1	0.00e+00	0	29	0	735051776	54	6568
2026-01-15 13:32:11.56	90.93	36.17	-40.4	-41.9	20.4	0.00e+00	0	29	0	737148928	54	6368
2026-01-15 13:32:12.57	91.35	36.18	-40.5	-41.9	20.5	0.00e+00	0	29	0	739246080	54	6320
2026-01-15 13:32:13.58	91.77	36.20	-40.6	-42.0	20.4	0.00e+00	0	29	0	741343232	54	6427
2026-01-15 13:32:14.59	92.19	36.21	-40.2	-41.6	20.8	0.00e+00	0	29	0	742391808	54	6135
2026-01-15 13:32:15.60	92.60	36.21	-39.9	-41.2	21.1	0.00e+00	0	29	0	744488960	54	5836
2026-01-15 13:32:16.61	93.02	36.22	-39.7	-40.8	21.5	0.00e+00	0	29	0	746586112	52	6280
2026-01-15 13:32:17.61	93.44	36.23	-39.6	-40.7	21.6	0.00e+00	0	29	0	748683264	52	6215
2026-01-15 13:32:18.63	93.86	36.23	-39.3	-40.4	21.9	0.00e+00	0	29	0	750780416	52	5973
2026-01-15 13:32:19.64	94.28	36.23	-39.5	-40.7	21.6	0.00e+00	0	29	0	751828992	52	6194
2026-01-15 13:32:20.65	94.70	36.23	-40.0	-41.3	21.0	0.00e+00	0	29	0	753926144	52	6648
2026-01-15 13:32:21.66	95.11	36.23	-39.9	-41.1	21.2	0.00e+00	0	29	0	756023296	52	6538
2026-01-15 13:32:22.67	95.53	36.23	-39.8	-40.9	21.5	0.00e+00	0	29	0	758120448	52	6373
2026-01-15 13:32:23.68	95.95	36.23	-39.2	-40.3	21.8	0.00e+00	0	29	0	760217600	52	5921
2026-01-15 13:32:24.69	96.37	36.22	-38.8	-39.8	22.4	0.00e+00	0	29	0	762314752	52	5604
2026-01-15 13:32:25.69	96.78	36.21	-38.5	-39.5	22.6	0.00e+00	0	29	0	763363328	50	6097
2026-01-15 13:32:26.70	97.20	36.20	-38.7	-39.7	22.6	0.00e+00	0	29	0	765460480	50	6194
2026-01-15 13:32:27.71	97.62	36.19	-39.1	-40.1	22.1	0.00e+00	0	29	0	767557632	50	6506
2026-01-15 13:32:28.72	98.04	36.18	-39.5	-40.6	21.7	0.00e+00	0	29	0	769654784	50	6899
2026-01-15 13:32:29.73	98.45	36.16	-39.4	-40.5	21.8	0.00e+00	0	29	0	771751936	50	6845
2026-01-15 13:32:30.74	98.87	36.15	-39.2	-40.4	21.9	0.00e+00	0	29	0	772800512	50	6701
2026-01-15 13:32:31.75	99.29	36.13	-38.6	-39.7	22.6	0.00e+00	0	29	0	774897664	50	6177
2026-01-15 13:32:32.77	99.71	36.11	-38.3	-39.4	22.7	0.00e+00	0	29	0	776994816	50	5989
2026-01-15 13:32:33.77	100.12	36.09	-38.8	-39.8	22.5	0.00e+00	0	29	0	779091968	50	6274
2026-01-15 13:32:34.78	100.53	36.07	-39.2	-40.3	21.9	0.00e+00	0	29	0	781189120	50	6677
2026-01-15 13:32:35.79	100.95	36.04	-39.6	-40.7	21.6	0.00e+00	0	29	0	782237696	50	6963
2026-01-15 13:32:36.80	101.36	36.01	-39.9	-41.0	21.3	0.00e+00	0	29	0	784334848	52	6439
2026-01-15 13:32:37.81	101.77	35.99	-40.2	-41.5	20.9	0.00e+00	0	29	0	786432000	52	6777
2026-01-15 13:32:38.83	102.19	35.96	-40.4	-41.8	20.7	0.00e+00	0	29	0	788529152	52	7060
2026-01-15 13:32:39.83	102.60	35.93	-40.7	-42.2	20.1	0.00e+00	0	29	0	790626304	52	7341
2026-01-15 13:32:40.84	103.01	35.89	-41.3	-42.8	19.5	0.00e+00	0	29	0	791674880	54	7060
2026-01-15 13:32:41.85	103.42	35.86	-41.6	-43.2	19.2	0.00e+00	0	29	0	793772032	54	7399
2026-01-15 13:32:42.87	103.83	35.82	-41.5	-43.0	19.5	0.00e+00	0	29	0	795869184	54	7236
2026-01-15 13:32:43.88	104.24	35.79	-40.5	-41.8	20.6	0.00e+00	0	29	0	797966336	54	6295
2026-01-15 13:32:44.88	104.64	35.75	-40.1	-41.4	21.0	0.00e+00	0	29	0	800063488	54	5971
2026-01-15 13:32:45.89	105.05	35.71	-40.0	-41.2	21.0	0.00e+00	0	29	0	801112064	54	5887
2026-01-15 13:32:46.90	105.45	35.67	-40.1	-41.3	20.9	0.00e+00	0	29	0	803209216	54	5921
2026-01-15 13:32:47.91	105.86	35.62	-40.2	-41.5	20.8	0.00e+00	0	29	0	805306368	54	6080
2026-01-15 13:32:48.92	106.26	35.58	-40.0	-41.3	21.0	0.00e+00	0	29	0	807403520	54	5961
2026-01-15 13:32:49.93	106.66	35.53	-39.8	-41.0	21.3	0.00e+00	0	29	0	809500672	54	5715
2026-01-15 13:32:50.94	107.06	35.48	-39.6	-40.8	21.5	0.00e+00	0	29	0	810549248	52	6283
2026-01-15 13:32:51.95	107.46	35.44	-39.9	-41.2	21.1	0.00e+00	0	29	0	812646400	52	6550
2026-01-15 13:32:52.95	107.86	35.39	-40.2	-41.6	20.9	0.00e+00	0	29	0	814743552	52	6856
2026-01-15 13:32:53.96	108.25	35.33	-40.0	-41.4	21.0	0.00e+00	0	29	0	816840704	52	6700
2026-01-15 13:32:54.97	108.65	35.28	-39.5	-40.8	21.4	0.00e+00	0	29	0	818937856	52	6301
2026-01-15 13:32:55.98	109.04	35.22	-39.5	-40.6	21.7	0.00e+00	0	29	0	819986432	52	6125
2026-01-15 13:32:56.99	109.44	35.17	-38.9	-39.9	22.4	0.00e+00	0	29	0	822083584	52	5660
2026-01-15 13:32:58.00	109.83	35.11	-38.8	-39.8	22.5	0.00e+00	0	29	0	824180736	50	6257
2026-01-15 13:32:59.02	110.22	35.05	-38.6	-39.6	22.7	0.00e+00	0	29	0	826277888	50	6108
2026-01-15 13:33:00.03	110.61	34.99	-38.9	-39.9	22.3	0.00e+00	0	29	0	828375040	50	6374
2026-01-15 13:33:01.04	111.00	34.93	-38.8	-39.8	22.4	0.00e+00	0	29	0	830472192	50	6300
2026-01-15 13:33:02.05	111.39	34.87	-38.7	-39.7	22.4	0.00e+00	0	29	0	831520768	50	6238
2026-01-15 13:33:03.06	111.77	34.80	-38.3	-39.3	22.9	0.00e+00	0	29	0	833617920	50	5897
2026-01-15 13:33:04.07	112.16	34.74	-38.1	-39.0	23.1	0.00e+00	0	29	0	835715072	50	5737
2026-01-15 13:33:05.08	112.54	34.67	-38.1	-39.1	23.1	0.00e+00	0	29	0	837812224	50	5794
2026-01-15 13:33:06.09	112.92	34.60	-38.2	-39.2	23.1	0.00e+00	0	29	0	839909376	50	5859
2026-01-15 13:33:07.10	113.30	34.53	-37.9	-38.8	23.4	0.00e+00	0	29	0	840957952	50	5599
2026-01-15 13:33:08.11	113.67	34.46	-37.8	-38.7	23.4	0.00e+00	0	29	0	843055104	48	6195
2026-01-15 13:33:09.11	114.05	34.39	-37.8	-38.8	23.3	0.00e+00	0	29	0	845152256	48	6258
2026-01-15 13:33:10.12	114.42	34.32	-38.4	-39.4	22.7	0.00e+00	0	29	0	847249408	48	6730
2026-01-15 13:33:11.13	114.79	34.24	-38.7	-39.7	22.5	0.00e+00	0	29	0	849346560	50	6184
2026-01-15 13:33:12.14	115.16	34.17	-38.7	-39.7	22.5	0.00e+00	0	29	0	850395136	50	6205
2026-01-15 13:33:13.15	115.53	34.09	-38.4	-39.4	22.8	0.00e+00	0	29	0	852492288	50	5976
2026-01-15 13:33:14.16	115.90	34.01	-38.4	-39.4	22.8	0.00e+00	0	29	0	854589440	50	5979
2026-01-15 13:33:15.17	116.27	33.94	-38.4	-39.4	22.9	0.00e+00	0	29	0	856686592	50	5965
2026-01-15 13:33:16.18	116.63	33.86	-38.5	-39.5	22.7	0.00e+00	0	29	0	858783744	50	6046
2026-01-15 13:33:17.19	116.99	33.78	-38.8	-39.8	22.4	0.00e+00	0	29	0	859832320	50	6299
2026-01-15 13:33:18.20	117.35	33.69	-38.7	-39.7	22.5	0.00e+00	0	29	0	861929472	50	6230
2026-01-15 13:33:19.21	117.71	33.61	-38.6	-39.6	22.5	0.00e+00	0	29	0	864026624	50	6171
2026-01-15 13:33:20.21	118.06	33.53	-38.2	-39.1	23.0	0.00e+00	0	29	0	866123776	50	5823
2026-01-15 13:33:21.22	118.42	33.44	-38.1	-39.1	22.8	0.00e+00	0	29	0	868220928	50	5765
2026-01-15 13:33:22.23	118.77	33.36	-38.4	-39.3	22.7	0.00e+00	0	29	0	869269504	50	5950
2026-01-15 13:33:23.24	119.12	33.27	-39.0	-40.1	22.2	0.00e+00	0	29	0	871366656	50	6508
2026-01-15 13:33:24.25	119.47	33.18	-39.3	-40.4	21.8	0.00e+00	0	29	0	873463808	50	6719
2026-01-15 13:33:25.26	119.82	33.10	-39.2	-40.3	22.1	0.00e+00	0	29	0	875560960	50	6621
2026-01-15 13:33:26.27	120.17	33.01	-38.8	-39.8	22.4	0.00e+00	0	29	0	877658112	50	6281
2026-01-15 13:33:27.28	120.51	32.92	-38.6	-39.6	22.5	0.00e+00	0	29	0	878706688	50	6157
2026-01-15 13:33:28.29	120.85	32.83	-39.1	-40.2	22.0	0.00e+00	0	29	0	880803840	50	6562
2026-01-15 13:33:29.29	121.19	32.73	-40.0	-41.2	21.2	0.00e+00	0	29	0	882900992	52	6559
2026-01-15 13:33:30.30	121.53	32.64	-40.8	-42.1	20.3	0.00e+00	0	29	0	884998144	52	7271
2026-01-15 13:33:31.31	121.86	32.55	-40.6	-41.9	20.4	0.00e+00	0	29	0	887095296	54	6371
2026-01-15 13:33:32.32	122.20	32.45	-40.2	-41.4	21.0	0.00e+00	0	29	0	888143872	54	6007
2026-01-15 13:33:33.32	122.53	32.36	-39.8	-41.0	21.3	0.00e+00	0	29	0	890241024	54	5702
2026-01-15 13:33:34.33	122.86	32.27	-39.5	-40.5	21.7	0.00e+00	0	29	0	892338176	52	6091
2026-01-15 13:33:35.34	123.19	32.17	-39.8	-40.9	21.4	0.00e+00	0	29	0	894435328	52	6379
2026-01-15 13:33:36.35	123.51	32.07	-40.2	-41.4	21.0	0.00e+00	0	29	0	896532480	52	6752
2026-01-15 13:33:37.36	123.84	31.97	-40.6	-41.9	20.3	0.00e+00	0	29	0	897581056	54	6378
2026-01-15 13:33:38.37	124.16	31.88	-40.2	-41.5	20.8	0.00e+00	0	29	0	899678208	54	6061
2026-01-15 13:33:39.38	124.48	31.78	-39.2	-40.3	21.8	0.00e+00	0	29	0	901775360	52	5924
2026-01-15 13:33:40.39	124.80	31.68	-39.1	-40.2	21.9	0.00e+00	0	29	0	903872512	52	5855
2026-01-15 13:33:41.40	125.12	31.58	-39.4	-40.5	22.1	0.00e+00	0	29	0	905969664	52	6040
2026-01-15 13:33:42.41	125.43	31.48	-39.9	-41.0	21.2	0.00e+00	0	29	0	907018240	52	6462
2026-01-15 13:33:43.42	125.75	31.37	-40.6	-42.0	20.2	0.00e+00	0	29	0	909115392	54	6401
2026-01-15 13:33:44.43	126.06	31.27	-41.0	-42.3	20.4	0.00e+00	0	29	0	911212544	54	6660
2026-01-15 13:33:45.43	126.36	31.17	-40.4	-41.7	20.6	0.00e+00	0	29	0	913309696	54	6200
2026-01-15 13:33:46.44	126.67	31.07	-39.5	-40.6	21.7	0.00e+00	0	29	0	915406848	52	6152
2026-01-15 13:33:47.45	126.98	30.96	-39.2	-40.2	22.0	0.00e+00	0	29	0	916455424	52	5896
2026-01-15 13:33:48.46	127.28	30.86	-39.7	-40.8	21.4	0.00e+00	0	29	0	918552576	52	6294
2026-01-15 13:33:49.47	127.58	30.75	-40.6	-41.9	20.4	0.00e+00	0	29	0	920649728	52	7124
2026-01-15 13:33:50.48	127.88	30.65	-40.9	-42.3	20.1	0.00e+00	0	29	0	922746880	54	6641
2026-01-15 13:33:51.49	128.18	30.54	-39.9	-41.2	21.2	0.00e+00	0	29	0	924844032	54	5857
2026-01-15 13:33:52.50	128.48	30.44	-39.5	-40.6	21.8	0.00e+00	0	29	0	926941184	52	6137
2026-01-15 13:33:53.51	128.77	30.33	-38.3	-39.2	23.0	0.00e+00	0	29	0	927989760	50	5877
2026-01-15 13:33:54.52	129.06	30.23	-38.0	-38.9	23.1	0.00e+00	0	29	0	930086912	50	5672
2026-01-15 13:33:55.53	129.35	30.12	-38.6	-39.6	22.5	0.00e+00	0	29	0	932184064	50	6141
2026-01-15 13:33:56.54	129.64	30.01	-39.4	-40.5	21.7	0.00e+00	0	29	0	934281216	50	6823
2026-01-15 13:33:57.55	129.93	29.90	-39.6	-40.7	21.5	0.00e+00	0	29	0	936378368	50	6977
2026-01-15 13:33:58.56	130.22	29.79	-38.7	-39.7	22.6	0.00e+00	0	29	0	937426944	50	6184
2026-01-15 13:33:59.57	130.50	29.69	-38.3	-39.3	22.8	0.00e+00	0	29	0	939524096	50	5928
2026-01-15 13:34:00.58	130.78	29.58	-38.2	-39.1	23.0	0.00e+00	0	29	0	941621248	50	5808
2026-01-15 13:34:01.59	131.06	29.47	-38.5	-39.5	22.5	0.00e+00	0	29	0	943718400	50	6083
2026-01-15 13:34:02.60	131.34	29.36	-39.7	-40.9	21.3	0.00e+00	0	29	0	945815552	50	7160
2026-01-15 13:34:03.60	131.61	29.25	-40.8	-42.2	20.0	0.00e+00	0	29	0	946864128	52	7418
2026-01-15 13:34:04.61	131.88	29.14	-41.1	-42.5	19.8	0.00e+00	0	29	0	948961280	54	6823
2026-01-15 13:34:05.62	132.15	29.03	-40.8	-42.2	20.2	0.00e+00	0	29	0	951058432	54	6541
2026-01-15 13:34:06.64	132.43	28.92	-40.7	-42.0	20.4	0.00e+00	0	29	0	953155584	54	6435
2026-01-15 13:34:07.65	132.70	28.81	-40.2	-41.4	20.9	0.00e+00	0	29	0	955252736	54	6029
2026-01-15 13:34:08.66	132.96	28.69	-40.6	-41.9	20.4	0.00e+00	0	29	0	956301312	54	6357
2026-01-15 13:34:09.67	133.23	28.58	-40.7	-42.0	20.2	0.00e+00	0	29	0	958398464	54	6453
2026-01-15 13:34:10.68	133.49	28.47	-41.8	-43.4	18.7	0.00e+00	0	29	0	960495616	54	7583
2026-01-15 13:34:11.69	133.75	28.36	-41.8	-43.5	19.3	0.00e+00	0	29	0	962592768	56	6773
2026-01-15 13:34:12.70	134.01	28.25	-40.7	-42.0	20.2	0.00e+00	0	29	0	964689920	56	5720
2026-01-15 13:34:13.70	134.26	28.14	-39.9	-41.1	21.3	0.00e+00	0	29	0	965738496	52	6528
2026-01-15 13:34:14.71	134.52	28.02	-39.1	-40.2	22.0	0.00e+00	0	29	0	967835648	52	5848
2026-01-15 13:34:15.72	134.77	27.91	-39.4	-40.5	22.1	0.00e+00	0	29	0	969932800	52	6056
2026-01-15 13:34:16.73	135.03	27.80	-39.9	-41.0	21.3	0.00e+00	0	29	0	972029952	52	6457
2026-01-15 13:34:17.74	135.28	27.69	-40.8	-42.1	19.7	0.00e+00	0	29	0	974127104	54	6518
2026-01-15 13:34:18.75	135.53	27.57	-41.6	-43.1	19.5	0.00e+00	0	29	0	975175680	54	7312
2026-01-15 13:34:19.76	135.77	27.46	-40.7	-42.1	20.1	0.00e+00	0	29	0	977272832	54	6481
2026-01-15 13:34:20.77	136.02	27.35	-38.8	-39.8	22.4	0.00e+00	0	29	0	979369984	52	5623
2026-01-15 13:34:21.78	136.26	27.24	-37.1	-37.9	23.9	0.00e+00	0	29	0	981467136	48	5692
2026-01-15 13:34:22.79	136.50	27.12	-36.7	-37.5	24.3	0.00e+00	0	29	0	983564288	46	6088
2026-01-15 13:34:23.80	136.74	27.01	-37.0	-37.9	23.9	0.00e+00	0	29	0	984612864	46	6374
2026-01-15 13:34:24.81	136.98	26.90	-37.5	-38.5	23.5	0.00e+00	0	29	0	986710016	46	6820
2026-01-15 13:34:25.81	137.22	26.78	-38.0	-39.0	22.9	0.00e+00	0	29	0	988807168	48	6441
2026-01-15 13:34:26.82	137.45	26.67	-38.0	-39.0	23.0	0.00e+00	0	29	0	990904320	48	6429
2026-01-15 13:34:27.83	137.69	26.56	-37.7	-38.7	23.4	0.00e+00	0	29	0	993001472	48	6186
2026-01-15 13:34:28.84	137.92	26.44	-37.3	-38.2	23.7	0.00e+00	0	29	0	995098624	48	5871
2026-01-15 13:34:29.85	138.15	26.33	-37.1	-38.0	23.9	0.00e+00	0	29	0	996147200	48	5724
2026-01-15 13:34:30.86	138.38	26.22	-36.5	-37.3	24.5	0.00e+00	0	29	0	998244352	46	5935
2026-01-15 13:34:31.87	138.61	26.10	-36.3	-37.2	24.6	0.00e+00	0	29	0	1000341504	46	5833
2026-01-15 13:34:32.88	138.83	25.99	-36.7	-37.5	24.3	0.00e+00	0	29	0	1002438656	46	6103
2026-01-15 13:34:33.89	139.06	25.88	-37.0	-37.9	23.9	0.00e+00	0	29	0	1004535808	46	6371
2026-01-15 13:34:34.90	139.28	25.76	-37.2	-38.2	23.7	0.00e+00	0	29	0	1005584384	46	6571
2026-01-15 13:34:35.91	139.50	25.65	-37.1	-38.0	23.9	0.00e+00	0	29	0	1007681536	46	6436
2026-01-15 13:34:36.92	139.72	25.54	-36.9	-37.8	24.1	0.00e+00	0	29	0	1009778688	46	6251
2026-01-15 13:34:37.93	139.94	25.42	-36.7	-37.6	24.2	0.00e+00	0	29	0	1011875840	46	6118
2026-01-15 13:34:38.94	140.15	25.31	-36.4	-37.2	24.5	0.00e+00	0	29	0	1013972992	46	5860
2026-01-15 13:34:39.95	140.37	25.20	-36.0	-36.8	24.9	0.00e+00	0	29	0	1015021568	46	5584
2026-01-15 13:34:40.96	140.58	25.08	-36.0	-36.9	24.9	0.00e+00	0	29	0	1017118720	46	5633
2026-01-15 13:34:41.97	140.80	24.97	-36.3	-37.2	24.4	0.00e+00	0	29	0	1019215872	46	5889
2026-01-15 13:34:42.98	141.01	24.86	-36.6	-37.5	24.3	0.00e+00	0	29	0	1021313024	46	6042
2026-01-15 13:34:43.99	141.21	24.75	-36.5	-37.4	24.4	0.00e+00	0	29	0	1023410176	46	5971
2026-01-15 13:34:44.99	141.42	24.63	-36.4	-37.3	24.5	0.00e+00	0	29	0	1024458752	46	5897
2026-01-15 13:34:46.00	141.63	24.52	-35.7	-36.6	25.2	0.00e+00	0	29	0	1026555904	46	5443
2026-01-15 13:34:47.02	141.83	24.41	-35.2	-36.0	25.4	0.00e+00	0	29	0	1028653056	44	5747
2026-01-15 13:34:48.02	142.03	24.30	-35.3	-36.1	25.0	0.00e+00	0	29	0	1030750208	44	5787
2026-01-15 13:34:49.03	142.24	24.19	-35.3	-36.1	25.5	0.00e+00	0	29	0	1032847360	44	5763
2026-01-15 13:34:50.04	142.44	24.07	-35.2	-36.0	25.4	0.00e+00	0	29	0	1033895936	44	5714
2026-01-15 13:34:51.05	142.64	23.96	-35.5	-36.3	25.3	0.00e+00	0	29	0	1035993088	44	5927
2026-01-15 13:34:52.06	142.83	23.85	-35.8	-36.6	24.3	0.00e+00	0	29	0	1038090240	44	6141
2026-01-15 13:34:53.07	143.03	23.74	-36.0	-36.9	24.7	0.00e+00	0	29	0	1040187392	44	6340
2026-01-15 13:34:54.08	143.23	23.63	-36.1	-37.0	24.6	0.00e+00	0	29	0	1042284544	44	6404
2026-01-15 13:34:55.09	143.42	23.51	-35.9	-36.8	24.9	0.00e+00	0	29	0	1043333120	44	6267
2026-01-15 13:34:56.10	143.61	23.40	-35.8	-36.6	25.0	0.00e+00	0	29	0	1045430272	44	6154
2026-01-15 13:34:57.11	143.80	23.29	-35.7	-36.4	25.1	0.00e+00	0	29	0	1047527424	44	6027
2026-01-15 13:34:58.11	143.99	23.18	-35.3	-36.0	25.4	0.00e+00	0	29	0	1049624576	44	5752
2026-01-15 13:34:59.12	144.18	23.07	-35.2	-35.9	25.6	0.00e+00	0	29	0	1051721728	44	5666
2026-01-15 13:35:00.13	144.37	22.96	-35.3	-36.1	25.3	0.00e+00	0	29	0	1052770304	44	5801
2026-01-15 13:35:01.14	144.55	22.85	-35.7	-36.5	25.0	0.00e+00	0	29	0	1054867456	44	6042
2026-01-15 13:35:02.15	144.74	22.74	-36.0	-36.8	24.8	0.00e+00	0	29	0	1056964608	44	6292
2026-01-15 13:35:03.16	144.92	22.63	-36.3	-37.2	24.5	0.00e+00	0	29	0	1059061760	44	6544
2026-01-15 13:35:04.17	145.10	22.52	-36.4	-37.3	24.4	0.00e+00	0	29	0	1061158912	44	6658
2026-01-15 13:35:05.18	145.28	22.41	-36.3	-37.1	24.5	0.00e+00	0	29	0	1063256064	44	6518
2026-01-15 13:35:06.19	145.46	22.30	-36.1	-36.9	24.8	0.00e+00	0	29	0	1064304640	44	6358
2026-01-15 13:35:07.20	145.64	22.19	-36.2	-37.0	24.7	0.00e+00	0	29	0	1066401792	44	6424
2026-01-15 13:35:08.21	145.82	22.08	-35.7	-36.5	25.2	0.00e+00	0	29	0	1068498944	44	6053
2026-01-15 13:35:09.22	146.00	21.97	-35.7	-36.5	25.0	0.00e+00	0	29	0	1070596096	44	6079
2026-01-15 13:35:10.23	146.17	21.86	-35.8	-36.6	25.1	0.00e+00	0	29	0	1072693248	44	6155
2026-01-15 13:35:11.24	146.34	21.76	-36.0	-36.8	24.8	0.00e+00	0	29	0	1073741824	44	6256
2026-01-15 13:35:12.25	146.52	21.65	-36.0	-36.8	24.7	0.00e+00	0	29	0	1075838976	44	6314
2026-01-15 13:35:13.26	146.69	21.54	-36.3	-37.1	24.6	0.00e+00	0	29	0	1077936128	44	6510
2026-01-15 13:35:14.27	146.86	21.43	-36.2	-37.0	24.7	0.00e+00	0	29	0	1080033280	44	6411
2026-01-15 13:35:15.28	147.03	21.32	-36.2	-37.0	24.7	0.00e+00	0	29	0	1082130432	44	6404
2026-01-15 13:35:16.29	147.19	21.22	-36.0	-36.8	24.8	0.00e+00	0	29	0	1083179008	44	6256
2026-01-15 13:35:17.30	147.36	21.11	-36.0	-36.8	24.8	0.00e+00	0	29	0	1085276160	44	6246
2026-01-15 13:35:18.31	147.53	21.00	-36.2	-37.0	24.7	0.00e+00	0	29	0	1087373312	44	6439
2026-01-15 13:35:19.32	147.69	20.90	-36.1	-36.9	24.8	0.00e+00	0	29	0	1089470464	44	6323
2026-01-15 13:35:20.33	147.85	20.79	-36.0	-36.8	24.8	0.00e+00	0	29	0	1091567616	44	6308
2026-01-15 13:35:21.34	148.02	20.68	-36.3	-37.1	24.6	0.00e+00	0	29	0	1092616192	44	6532
2026-01-15 13:35:22.35	148.18	20.58	-36.5	-37.3	24.4	0.00e+00	0	29	0	1094713344	44	6650
2026-01-15 13:35:23.36	148.34	20.47	-36.7	-37.6	24.2	0.00e+00	0	29	0	1096810496	44	6877
2026-01-15 13:35:24.37	148.50	20.36	-36.7	-37.5	24.2	0.00e+00	0	29	0	1098907648	44	6815
2026-01-15 13:35:25.38	148.65	20.26	-36.6	-37.5	24.3	0.00e+00	0	29	0	1101004800	46	6039
2026-01-15 13:35:26.39	148.81	20.15	-36.6	-37.4	24.3	0.00e+00	0	29	0	1102053376	46	6003
2026-01-15 13:35:27.40	148.97	20.05	-36.6	-37.4	24.4	0.00e+00	0	29	0	1104150528	46	6028
2026-01-15 13:35:28.41	149.12	19.94	-36.4	-37.2	24.5	0.00e+00	0	29	0	1106247680	46	5857
2026-01-15 13:35:29.42	149.28	19.84	-36.2	-37.0	24.7	0.00e+00	0	29	0	1108344832	46	5746
2026-01-15 13:35:30.43	149.43	19.73	-36.2	-37.0	24.6	0.00e+00	0	29	0	1110441984	46	5717
2026-01-15 13:35:31.44	149.58	19.63	-36.5	-37.4	24.4	0.00e+00	0	29	0	1111490560	46	5974
2026-01-15 13:35:32.45	149.73	19.53	-36.9	-37.7	24.0	0.00e+00	0	29	0	1113587712	46	6242
2026-01-15 13:35:33.46	149.88	19.42	-37.1	-38.0	23.8	0.00e+00	0	29	0	1115684864	46	6417
2026-01-15 13:35:34.47	150.03	19.32	-37.5	-38.4	23.5	0.00e+00	0	29	0	1117782016	46	6713
2026-01-15 13:35:35.48	150.18	19.22	-37.6	-38.5	23.3	0.00e+00	0	29	0	1119879168	46	6848
2026-01-15 13:35:36.49	150.33	19.11	-37.5	-38.4	23.4	0.00e+00	0	29	0	1120927744	46	6762
2026-01-15 13:35:37.50	150.47	19.01	-37.4	-38.4	23.5	0.00e+00	0	29	0	1123024896	46	6701
2026-01-15 13:35:38.51	150.62	18.91	-37.3	-38.3	23.5	0.00e+00	0	29	0	1125122048	46	6617
2026-01-15 13:35:39.52	150.76	18.81	-37.3	-38.2	23.7	0.00e+00	0	29	0	1127219200	46	6547
2026-01-15 13:35:40.53	150.90	18.70	-37.4	-38.4	23.3	0.00e+00	0	29	0	1129316352	46	6695
2026-01-15 13:35:41.54	151.05	18.60	-37.2	-38.1	23.6	0.00e+00	0	29	0	1131413504	46	6530
2026-01-15 13:35:42.55	151.19	18.50	-37.5	-38.4	23.4	0.00e+00	0	29	0	1132462080	46	6718
2026-01-15 13:35:43.56	151.33	18.40	-37.7	-38.7	23.0	0.00e+00	0	29	0	1134559232	46	6969
2026-01-15 13:35:44.57	151.47	18.30	-38.0	-39.0	22.8	0.00e+00	0	29	0	1136656384	48	6431
2026-01-15 13:35:45.58	151.61	18.20	-38.3	-39.4	22.5	0.00e+00	0	29	0	1138753536	48	6717
2026-01-15 13:35:46.59	151.74	18.10	-38.6	-39.6	22.2	0.00e+00	0	29	0	1140850688	48	6927
2026-01-15 13:35:47.60	151.88	18.00	-38.6	-39.7	22.2	0.00e+00	0	29	0	1141899264	48	6960
2026-01-15 13:35:48.61	152.02	17.90	-38.6	-39.7	22.2	0.00e+00	0	29	0	1143996416	48	6953
2026-01-15 13:35:49.62	152.15	17.80	-38.5	-39.6	22.3	0.00e+00	0	29	0	1146093568	48	6858
2026-01-15 13:35:50.63	152.29	17.70	-37.9	-38.9	23.0	0.00e+00	0	29	0	1148190720	48	6324
2026-01-15 13:35:51.64	152.42	17.60	-37.6	-38.5	23.2	0.00e+00	0	29	0	1150287872	48	6083
2026-01-15 13:35:52.65	152.55	17.50	-37.6	-38.5	23.3	0.00e+00	0	29	0	1151336448	48	6077
2026-01-15 13:35:53.67	152.69	17.40	-37.3	-38.2	23.5	0.00e+00	0	29	0	1153433600	48	5843
2026-01-15 13:35:54.67	152.81	17.30	-37.1	-38.1	23.5	0.00e+00	0	29	0	1155530752	48	5768
2026-01-15 13:35:55.68	152.94	17.21	-37.3	-38.2	23.3	0.00e+00	0	29	0	1157627904	48	5869
2026-01-15 13:35:56.69	153.07	17.11	-37.6	-38.6	23.0	0.00e+00	0	29	0	1159725056	48	6124
2026-01-15 13:35:57.70	153.20	17.01	-37.8	-38.8	22.8	0.00e+00	0	29	0	1160773632	48	6276
2026-01-15 13:35:58.71	153.33	16.91	-38.3	-39.3	22.3	0.00e+00	0	29	0	1162870784	48	6680
2026-01-15 13:35:59.65	153.45	16.82	-38.6	-39.8	21.8	0.00e+00	0	29	0	1164967936	48	7044
2026-01-15 13:36:00.66	153.57	16.73	-39.1	-40.4	21.1	0.00e+00	0	29	0	1167065088	50	6746
2026-01-15 13:36:01.67	153.70	16.63	-39.6	-41.0	20.5	0.00e+00	0	29	0	1169162240	50	7240
2026-01-15 13:36:02.68	153.82	16.53	-39.9	-41.5	20.0	0.00e+00	0	29	0	1170210816	52	6790
2026-01-15 13:36:03.69	153.95	16.44	-40.2	-41.8	19.5	0.00e+00	0	29	0	1172307968	52	7047
2026-01-15 13:36:04.70	154.07	16.34	-40.4	-42.1	19.2	0.00e+00	0	29	0	1174405120	52	7259
2026-01-15 13:36:05.71	154.19	16.25	-40.6	-42.3	19.0	0.00e+00	0	29	0	1176502272	52	7429
2026-01-15 13:36:06.72	154.32	16.15	-40.8	-42.5	18.7	0.00e+00	0	29	0	1178599424	52	7608
2026-01-15 13:36:07.73	154.44	16.06	-40.9	-42.7	18.5	0.00e+00	0	29	0	1179648000	54	6934
2026-01-15 13:36:08.73	154.56	15.96	-41.0	-42.9	18.2	0.00e+00	0	29	0	1181745152	54	7089
2026-01-15 13:36:09.74	154.67	15.87	-41.3	-43.1	17.9	0.00e+00	0	29	0	1183842304	54	7316
2026-01-15 13:36:10.75	154.79	15.77	-41.5	-43.4	17.6	0.00e+00	0	29	0	1185939456	54	7558
2026-01-15 13:36:11.76	154.91	15.68	-41.4	-43.2	17.9	0.00e+00	0	29	0	1188036608	54	7404
2026-01-15 13:36:12.77	155.03	15.59	-41.4	-43.2	17.8	0.00e+00	0	29	0	1189085184	54	7416
2026-01-15 13:36:13.78	155.15	15.49	-41.4	-43.3	17.8	0.00e+00	0	29	0	1191182336	54	7454
2026-01-15 13:36:14.79	155.26	15.40	-41.3	-43.1	18.0	0.00e+00	0	29	0	1193279488	54	7295
2026-01-15 13:36:15.80	155.38	15.31	-41.2	-43.0	18.1	0.00e+00	0	29	0	1195376640	54	7223
2026-01-15 13:36:16.81	155.49	15.21	-41.0	-42.8	18.2	0.00e+00	0	29	0	1197473792	54	7030
2026-01-15 13:36:17.82	155.60	15.12	-40.9	-42.7	18.5	0.00e+00	0	29	0	1199570944	54	6990
2026-01-15 13:36:18.83	155.72	15.03	-40.8	-42.5	18.7	0.00e+00	0	29	0	1200619520	54	6812
2026-01-15 13:36:19.84	155.83	14.94	-40.4	-42.0	19.4	0.00e+00	0	29	0	1202716672	54	6454
2026-01-15 13:36:20.85	155.94	14.84	-40.0	-41.5	19.9	0.00e+00	0	29	0	1204813824	54	6055
2026-01-15 13:36:21.86	156.05	14.75	-39.6	-40.9	20.6	0.00e+00	0	29	0	1206910976	52	6349
2026-01-15 13:36:22.86	156.16	14.66	-39.6	-40.8	20.7	0.00e+00	0	29	0	1209008128	52	6317
2026-01-15 13:36:23.87	156.27	14.57	-39.0	-40.2	21.4	0.00e+00	0	29	0	1210056704	52	5863
2026-01-15 13:36:24.88	156.38	14.48	-38.6	-39.7	21.9	0.00e+00	0	29	0	1212153856	50	6207
2026-01-15 13:36:25.89	156.49	14.39	-38.6	-39.6	22.0	0.00e+00	0	29	0	1214251008	50	6170
2026-01-15 13:36:26.90	156.60	14.30	-38.0	-39.0	22.6	0.00e+00	0	29	0	1216348160	50	5738
