passes_logs/2026/01/15/R4.6S_Anadyr/R4.6S_Anadyr__20260115_152956_AQUA_rec.log

#Pass ID: 20260115_152956_AQUA
#Satellite: AQUA
#Configuration: AQUA
#almurnet v.1.7.20251203
#Start time: 2026-01-15 15:29:59

#Version: 2.2.20231116
#Station: R4.6S_Anadyr
#Location: 177.4865 lon 64.73178 lat
#TLE: 1 27424U 02022A   26014.61231444  .00000653  00000+0  14070-3 0  9991
#TLE: 2 27424  98.4080 341.0332 0002042  78.9336 335.9961 14.61820174260839

#Time	Az	El	Level	Level2	SNR	BER	BlckErr	Temp	State	Recorded	gain1	gain2
2026-01-15 15:29:59.65	19.66	0.17	-48.1	-63.0	3.5	1.51e+00	0	25	0	0	60	51350
2026-01-15 15:30:00.65	19.69	0.23	-48.6	-66.5	3.5	3.02e+01	0	26	104	0	60	81496
2026-01-15 15:30:01.66	19.73	0.29	-48.5	-66.5	3.5	3.02e+01	0	27	104	0	60	81038
2026-01-15 15:30:02.67	19.77	0.35	-48.6	-66.5	3.5	3.02e+01	0	27	104	0	60	80934
2026-01-15 15:30:03.68	19.80	0.41	-48.5	-66.4	3.5	3.02e+01	0	27	104	0	60	80858
2026-01-15 15:30:04.69	19.84	0.47	-48.5	-66.6	3.5	3.02e+01	0	27	104	0	60	81809
2026-01-15 15:30:05.70	19.88	0.53	-48.6	-66.5	3.5	3.02e+01	0	27	104	0	60	81731
2026-01-15 15:30:06.71	19.92	0.59	-48.6	-66.5	3.5	3.02e+01	0	27	104	0	60	81404
2026-01-15 15:30:07.71	19.95	0.65	-48.3	-66.5	3.5	3.02e+01	0	27	104	0	60	81361
2026-01-15 15:30:08.73	19.99	0.71	-48.4	-66.4	3.5	3.02e+01	0	27	104	0	60	80272
2026-01-15 15:30:09.74	20.03	0.78	-48.3	-66.3	3.5	3.02e+01	0	27	104	0	60	79657
2026-01-15 15:30:10.74	20.07	0.84	-48.2	-66.2	3.5	3.02e+01	0	27	104	0	60	78497
2026-01-15 15:30:11.75	20.10	0.90	-48.0	-66.0	3.5	3.02e+01	0	27	104	0	60	76400
2026-01-15 15:30:12.77	20.14	0.96	-47.7	-65.8	3.5	3.02e+01	0	27	104	0	60	75066
2026-01-15 15:30:13.78	20.18	1.02	-47.7	-65.6	3.5	3.02e+01	0	27	104	0	60	73228
2026-01-15 15:30:14.79	20.22	1.09	-47.3	-65.4	3.5	3.02e+01	0	27	104	0	60	71346
2026-01-15 15:30:15.80	20.26	1.15	-46.9	-64.9	3.5	3.02e+01	0	27	104	0	60	67282
2026-01-15 15:30:16.81	20.30	1.21	-46.9	-64.9	3.5	3.02e+01	0	27	104	0	60	67576
2026-01-15 15:30:17.82	20.34	1.27	-47.0	-64.8	3.5	3.02e+01	0	27	104	0	60	67083
2026-01-15 15:30:18.83	20.38	1.34	-47.0	-64.9	3.5	3.02e+01	0	27	104	0	60	67554
2026-01-15 15:30:19.84	20.42	1.40	-47.0	-64.9	3.5	3.02e+01	0	27	104	0	60	67521
2026-01-15 15:30:20.84	20.45	1.46	-47.0	-64.9	3.5	3.02e+01	0	27	104	0	60	67797
2026-01-15 15:30:21.86	20.49	1.52	-47.0	-64.9	3.5	3.02e+01	0	27	104	0	60	67347
2026-01-15 15:30:22.86	20.53	1.59	-47.0	-64.9	3.5	3.02e+01	0	27	104	0	60	67441
2026-01-15 15:30:23.88	20.58	1.65	-47.0	-64.8	3.5	3.02e+01	0	27	104	0	60	66608
2026-01-15 15:30:24.89	20.62	1.72	-47.0	-64.7	3.5	3.02e+01	0	27	104	0	60	66400
2026-01-15 15:30:25.90	20.66	1.78	-47.0	-64.6	3.5	3.02e+01	0	27	104	0	60	65681
2026-01-15 15:30:26.91	20.70	1.84	-47.0	-64.6	3.5	3.02e+01	0	27	104	0	60	65485
2026-01-15 15:30:27.92	20.74	1.91	-47.0	-64.7	3.5	3.02e+01	0	27	104	0	60	66348
2026-01-15 15:30:28.93	20.78	1.97	-47.0	-64.7	3.5	3.02e+01	0	27	104	0	60	66451
2026-01-15 15:30:29.94	20.82	2.04	-47.0	-64.7	3.5	3.02e+01	0	27	104	0	60	65964
2026-01-15 15:30:30.95	20.86	2.10	-47.0	-64.7	3.5	3.02e+01	0	27	104	0	60	65821
2026-01-15 15:30:31.96	20.90	2.16	-47.0	-64.7	3.5	3.02e+01	0	27	104	0	60	66044
2026-01-15 15:30:32.97	20.94	2.23	-47.0	-64.5	3.5	3.02e+01	0	27	104	0	60	64901
2026-01-15 15:30:33.98	20.99	2.29	-47.0	-64.6	3.5	3.02e+01	0	27	104	0	60	65362
2026-01-15 15:30:34.99	21.03	2.36	-47.0	-64.9	3.5	3.02e+01	0	27	104	0	60	67455
2026-01-15 15:30:36.00	21.07	2.42	-47.0	-64.9	3.5	3.02e+01	0	27	104	0	60	67395
2026-01-15 15:30:37.01	21.11	2.49	-47.0	-64.1	3.5	3.02e+01	0	27	104	0	60	61728
2026-01-15 15:30:38.02	21.15	2.56	-46.9	-62.6	3.6	3.02e+01	0	27	104	0	60	52125
2026-01-15 15:30:39.03	21.20	2.62	-46.9	-61.4	4.2	3.02e+01	0	27	104	0	60	45475
2026-01-15 15:30:40.03	21.24	2.69	-46.8	-61.0	3.7	3.02e+01	0	27	104	0	60	43289
2026-01-15 15:30:41.04	21.28	2.75	-46.9	-61.9	4.0	3.02e+01	0	27	104	0	60	47653
2026-01-15 15:30:42.05	21.33	2.82	-47.0	-64.3	3.5	3.02e+01	0	27	104	0	60	63231
2026-01-15 15:30:43.07	21.37	2.89	-46.9	-63.2	3.5	3.02e+01	0	27	104	0	60	55378
2026-01-15 15:30:44.07	21.41	2.95	-46.4	-56.2	8.4	3.02e+01	54	27	104	0	60	24775
2026-01-15 15:30:45.09	21.46	3.02	-45.3	-50.9	13.7	3.02e+01	58	27	0	1572864	60	13437
2026-01-15 15:30:46.10	21.50	3.09	-43.8	-47.5	17.1	3.02e+01	59	27	0	3145728	60	9119
2026-01-15 15:30:47.11	21.55	3.15	-41.9	-44.4	20.2	3.02e+01	50	27	0	5242880	60	6393
2026-01-15 15:30:48.12	21.59	3.22	-40.1	-42.1	22.3	3.02e+01	58	27	0	7340032	56	6179
2026-01-15 15:30:49.13	21.63	3.29	-39.3	-49.9	3.6	3.02e+01	0	27	104	7340032	54	17021
2026-01-15 15:30:50.14	21.68	3.35	-38.5	-49.0	3.6	3.02e+01	0	27	104	7340032	52	17228
2026-01-15 15:30:51.15	21.72	3.42	-37.9	-48.4	3.4	3.02e+01	0	27	104	7340032	50	18091
2026-01-15 15:30:52.16	21.77	3.49	-37.8	-48.3	3.6	3.02e+01	0	27	104	7340032	50	17705
2026-01-15 15:30:53.17	21.82	3.56	-38.2	-48.7	3.6	3.02e+01	0	27	104	7340032	50	18629
2026-01-15 15:30:54.18	21.86	3.63	-38.8	-49.4	3.6	3.02e+01	0	27	104	7340032	50	20210
2026-01-15 15:30:55.19	21.91	3.69	-40.1	-50.9	3.7	3.02e+01	0	27	104	7340032	52	21412
2026-01-15 15:30:56.20	21.95	3.76	-41.7	-52.9	3.4	3.02e+01	0	27	104	7340032	56	21499
2026-01-15 15:30:57.21	22.00	3.83	-42.5	-54.0	3.6	3.02e+01	0	27	104	7340032	60	19308
2026-01-15 15:30:58.22	22.05	3.90	-39.8	-50.5	3.6	3.02e+01	0	27	104	7340032	54	18128
2026-01-15 15:30:59.23	22.09	3.97	-37.8	-48.1	3.6	3.02e+01	0	27	104	7340032	50	17487
2026-01-15 15:31:00.24	22.14	4.04	-46.9	-64.6	3.5	3.02e+01	0	27	104	7340032	60	65645
2026-01-15 15:31:01.24	22.19	4.11	-44.8	-58.0	3.4	3.02e+01	0	27	104	7340032	60	30421
2026-01-15 15:31:02.25	22.23	4.18	-44.4	-56.9	3.8	3.02e+01	0	27	104	7340032	60	26997
2026-01-15 15:31:03.26	22.28	4.25	-40.8	-51.6	3.7	3.02e+01	0	27	104	7340032	56	18462
2026-01-15 15:31:04.27	22.33	4.32	-40.6	-51.4	4.0	3.02e+01	0	27	104	7340032	56	17940
2026-01-15 15:31:05.28	22.38	4.39	-40.8	-51.8	4.0	3.02e+01	0	27	104	7340032	56	18776
2026-01-15 15:31:06.29	22.43	4.46	-40.9	-51.9	3.7	3.02e+01	0	27	104	7340032	56	18981
2026-01-15 15:31:07.30	22.47	4.53	-42.0	-53.4	3.4	3.02e+01	0	27	104	7340032	58	20121
2026-01-15 15:31:08.31	22.52	4.60	-44.3	-56.7	3.9	3.02e+01	0	28	104	7340032	60	26332
2026-01-15 15:31:09.32	22.57	4.67	-45.7	-60.1	3.5	3.02e+01	0	27	104	7340032	60	39021
2026-01-15 15:31:10.33	22.62	4.74	-39.1	-49.8	3.5	3.02e+01	0	27	104	7340032	50	21188
2026-01-15 15:31:11.34	22.67	4.81	-47.1	-64.8	3.5	3.02e+01	0	28	104	7340032	60	67113
2026-01-15 15:31:12.34	22.72	4.88	-38.0	-48.6	3.5	3.02e+01	0	27	104	7340032	50	18403
2026-01-15 15:31:13.35	22.77	4.96	-38.1	-48.7	3.5	3.02e+01	0	27	104	7340032	50	18700
2026-01-15 15:31:14.37	22.82	5.03	-37.8	-48.3	3.6	3.02e+01	0	28	104	7340032	50	17896
2026-01-15 15:31:15.37	22.87	5.10	-37.4	-47.9	3.5	3.02e+01	0	27	104	7340032	50	16947
2026-01-15 15:31:16.38	22.92	5.17	-43.4	-55.2	3.5	3.02e+01	0	28	104	7340032	60	22196
2026-01-15 15:31:17.39	22.97	5.25	-38.4	-49.0	3.5	3.02e+01	0	27	104	7340032	50	19315
2026-01-15 15:31:18.40	23.02	5.32	-47.0	-65.0	3.5	3.02e+01	0	28	104	7340032	60	68577
2026-01-15 15:31:19.41	23.07	5.39	-38.6	-49.2	3.5	3.02e+01	0	28	104	7340032	56	13987
2026-01-15 15:31:20.42	23.13	5.46	-42.7	-54.2	3.5	3.02e+01	0	28	104	7340032	60	19803
2026-01-15 15:31:21.43	23.18	5.54	-38.3	-48.8	3.5	3.02e+01	0	28	104	7340032	52	16802
2026-01-15 15:31:22.44	23.23	5.61	-37.9	-48.4	3.5	3.02e+01	0	27	104	7340032	50	17958
2026-01-15 15:31:23.45	23.28	5.69	-37.7	-48.2	3.5	3.02e+01	0	28	104	7340032	50	17509
2026-01-15 15:31:24.46	23.34	5.76	-37.2	-47.6	3.5	3.02e+01	0	28	104	7340032	50	16403
2026-01-15 15:31:25.47	23.39	5.83	-37.2	-47.7	3.5	3.02e+01	0	28	104	7340032	50	16557
2026-01-15 15:31:26.48	23.44	5.91	-38.5	-49.1	3.4	3.02e+01	0	28	104	7340032	48	21786
2026-01-15 15:31:27.49	23.50	5.98	-47.1	-65.1	3.5	3.02e+01	0	28	104	7340032	60	68857
2026-01-15 15:31:28.50	23.55	6.06	-38.9	-49.5	3.5	3.02e+01	0	28	104	7340032	56	14494
2026-01-15 15:31:29.51	23.60	6.13	-43.5	-55.4	3.5	3.02e+01	0	28	104	7340032	60	22697
2026-01-15 15:31:30.52	23.66	6.21	-39.8	-50.5	3.5	3.02e+01	0	28	104	7340032	56	16282
2026-01-15 15:31:31.52	23.71	6.28	-38.6	-49.1	3.5	3.02e+01	0	28	104	7340032	52	17407
2026-01-15 15:31:32.53	23.77	6.36	-37.9	-48.4	3.5	3.02e+01	0	27	104	7340032	52	16060
2026-01-15 15:31:33.54	23.82	6.44	-37.6	-48.1	3.5	3.02e+01	0	28	104	7340032	50	17321
2026-01-15 15:31:34.55	23.88	6.51	-36.9	-47.2	3.4	3.02e+01	0	28	104	7340032	50	15744
2026-01-15 15:31:35.56	23.93	6.59	-42.6	-53.9	3.5	3.02e+01	0	28	104	7340032	52	30361
2026-01-15 15:31:36.57	23.99	6.67	-46.6	-61.9	3.5	3.02e+01	0	28	104	7340032	60	48132
2026-01-15 15:31:37.58	24.05	6.74	-37.8	-48.3	3.5	3.02e+01	0	28	104	7340032	50	17760
2026-01-15 15:31:38.59	24.10	6.82	-42.5	-53.8	3.5	3.02e+01	0	28	104	7340032	60	18893
2026-01-15 15:31:39.60	24.16	6.90	-40.4	-51.2	3.5	3.02e+01	0	28	104	7340032	56	17649
2026-01-15 15:31:40.61	24.22	6.98	-39.0	-49.5	3.5	3.02e+01	0	28	104	7340032	54	16309
2026-01-15 15:31:41.62	24.27	7.05	-38.1	-48.6	3.5	3.02e+01	0	27	104	7340032	52	16417
2026-01-15 15:31:42.63	24.33	7.13	-37.3	-47.7	3.5	3.02e+01	0	28	104	7340032	50	16587
2026-01-15 15:31:43.64	24.39	7.21	-36.5	-46.9	3.5	3.02e+01	0	28	104	7340032	48	16945
2026-01-15 15:31:44.65	24.45	7.29	-43.8	-55.6	3.5	3.02e+01	0	28	104	7340032	54	32819
2026-01-15 15:31:45.66	24.51	7.37	-45.5	-58.9	3.5	3.02e+01	0	28	104	7340032	60	33877
2026-01-15 15:31:46.67	24.57	7.45	-40.1	-50.8	3.5	3.02e+01	0	28	104	7340032	50	23703
2026-01-15 15:31:47.68	24.63	7.53	-39.1	-49.7	3.5	3.02e+01	0	28	104	7340032	54	16604
2026-01-15 15:31:48.69	24.69	7.61	-37.6	-48.0	3.5	3.02e+01	0	28	104	7340032	50	17258
2026-01-15 15:31:49.70	24.75	7.69	-37.2	-47.7	3.5	3.02e+01	0	28	104	7340032	50	16695
2026-01-15 15:31:50.71	24.81	7.77	-37.4	-47.9	3.5	3.02e+01	0	28	104	7340032	50	16935
2026-01-15 15:31:51.72	24.87	7.85	-36.9	-47.3	3.5	3.02e+01	0	28	104	7340032	48	17747
2026-01-15 15:31:52.73	24.93	7.93	-37.5	-48.0	3.5	3.02e+01	0	28	104	7340032	48	19263
2026-01-15 15:31:53.74	24.99	8.01	-47.1	-63.6	3.5	3.02e+01	0	28	104	7340032	60	58395
2026-01-15 15:31:54.75	25.05	8.09	-46.8	-62.6	3.5	3.02e+01	0	28	104	7340032	60	52064
2026-01-15 15:31:55.76	25.12	8.17	-41.9	-53.0	3.5	3.02e+01	0	28	104	7340032	54	24239
2026-01-15 15:31:56.77	25.18	8.25	-42.3	-53.5	3.5	3.02e+01	0	28	104	7340032	60	18172
2026-01-15 15:31:57.78	25.24	8.34	-40.8	-51.7	3.5	3.02e+01	0	28	104	7340032	56	18553
2026-01-15 15:31:58.79	25.30	8.42	-40.0	-50.7	3.5	3.02e+01	0	28	104	7340032	56	16607
2026-01-15 15:31:59.80	25.37	8.50	-39.6	-50.3	3.5	3.02e+01	0	28	104	7340032	54	17720
2026-01-15 15:32:00.81	25.43	8.59	-39.5	-50.3	3.5	3.02e+01	0	28	104	7340032	54	17728
2026-01-15 15:32:01.82	25.50	8.67	-37.1	-47.5	3.5	3.02e+01	0	28	104	7340032	48	18142
2026-01-15 15:32:02.82	25.56	8.75	-47.5	-64.9	3.5	3.02e+01	0	28	104	7340032	60	67932
2026-01-15 15:32:03.83	25.63	8.83	-44.6	-57.3	3.5	3.02e+01	0	28	104	7340032	60	28360
2026-01-15 15:32:04.84	25.69	8.92	-44.0	-56.2	3.4	3.02e+01	0	28	104	7340032	58	27846
2026-01-15 15:32:05.85	25.76	9.00	-40.9	-51.8	3.6	3.02e+01	0	28	104	7340032	56	18792
2026-01-15 15:32:06.86	25.82	9.09	-40.3	-51.1	3.5	3.02e+01	0	28	104	7340032	54	19478
2026-01-15 15:32:07.87	25.89	9.17	-39.7	-50.4	3.5	3.02e+01	0	28	104	7340032	54	18016
2026-01-15 15:32:08.88	25.96	9.26	-39.4	-50.0	3.5	3.02e+01	0	28	104	7340032	54	17225
2026-01-15 15:32:09.89	26.02	9.34	-36.3	-46.6	3.5	3.02e+01	0	28	104	7340032	48	16405
2026-01-15 15:32:10.90	26.09	9.43	-45.6	-59.0	3.5	3.02e+01	0	28	104	7340032	60	34408
2026-01-15 15:32:11.91	26.16	9.52	-46.6	-61.3	3.5	3.02e+01	0	28	104	7340032	60	44883
2026-01-15 15:32:12.92	26.23	9.60	-36.7	-47.0	3.5	3.02e+01	0	28	104	7340032	48	17224
2026-01-15 15:32:13.93	26.30	9.69	-47.5	-65.0	3.5	3.02e+01	0	28	104	7340032	60	68763
2026-01-15 15:32:14.94	26.37	9.78	-37.8	-48.2	3.5	3.02e+01	0	28	104	7340032	52	15631
2026-01-15 15:32:15.95	26.44	9.86	-36.6	-47.0	3.5	3.02e+01	0	28	104	7340032	48	17123
2026-01-15 15:32:16.95	26.51	9.95	-36.6	-46.9	3.5	3.02e+01	0	28	104	7340032	48	16971
2026-01-15 15:32:17.96	26.58	10.04	-36.2	-46.5	3.5	3.02e+01	0	28	104	7340032	48	16245
2026-01-15 15:32:18.97	26.65	10.13	-44.2	-56.7	3.5	3.02e+01	0	28	104	7340032	60	26343
2026-01-15 15:32:19.98	26.72	10.22	-37.5	-47.9	3.5	3.02e+01	0	28	104	7340032	50	16985
2026-01-15 15:32:20.99	26.79	10.31	-47.6	-64.5	3.5	3.02e+01	0	28	104	7340032	60	64725
2026-01-15 15:32:22.00	26.86	10.39	-46.7	-61.7	3.5	3.02e+01	0	28	104	7340032	60	46926
2026-01-15 15:32:23.01	26.94	10.48	-45.3	-58.7	3.5	3.02e+01	0	28	104	7340032	60	33139
2026-01-15 15:32:24.02	27.01	10.57	-41.0	-52.1	3.5	3.02e+01	0	28	104	7340032	58	17390
2026-01-15 15:32:25.03	27.09	10.66	-41.3	-52.6	3.5	3.02e+01	0	28	104	7340032	58	18379
2026-01-15 15:32:26.04	27.16	10.76	-41.1	-52.3	3.5	3.02e+01	0	28	104	7340032	56	19947
2026-01-15 15:32:27.05	27.23	10.85	-40.8	-51.9	3.5	3.02e+01	0	28	104	7340032	56	18985
2026-01-15 15:32:28.06	27.31	10.94	-38.0	-48.6	3.5	3.02e+01	0	28	104	7340032	50	18434
2026-01-15 15:32:29.07	27.39	11.03	-46.4	-60.7	3.5	3.02e+01	0	28	104	7340032	60	41951
2026-01-15 15:32:30.07	27.46	11.12	-46.8	-62.6	3.5	3.02e+01	0	28	104	7340032	60	51961
2026-01-15 15:32:31.08	27.54	11.21	-37.3	-47.7	3.5	3.02e+01	0	28	104	7340032	50	16642
2026-01-15 15:32:32.09	27.61	11.31	-47.5	-65.2	3.5	3.02e+01	0	28	104	7340032	60	69974
2026-01-15 15:32:33.10	27.69	11.40	-38.6	-49.2	3.5	3.02e+01	0	28	104	7340032	52	17599
2026-01-15 15:32:34.11	27.77	11.49	-38.0	-48.5	3.6	3.02e+01	0	28	104	7340032	52	16278
2026-01-15 15:32:35.12	27.85	11.59	-36.8	-47.2	3.5	3.02e+01	0	28	104	7340032	48	17609
2026-01-15 15:32:36.13	27.93	11.68	-36.3	-46.6	3.5	3.02e+01	0	28	104	7340032	48	16394
2026-01-15 15:32:37.14	28.01	11.77	-41.9	-53.2	3.5	3.02e+01	0	28	104	7340032	58	19833
2026-01-15 15:32:38.15	28.09	11.87	-36.6	-47.0	3.5	3.02e+01	0	28	104	7340032	48	17173
2026-01-15 15:32:39.16	28.17	11.96	-47.7	-64.4	3.5	3.02e+01	0	28	104	7340032	60	63721
2026-01-15 15:32:40.17	28.25	12.06	-42.2	-53.6	3.6	3.02e+01	0	28	104	7340032	60	18475
2026-01-15 15:32:41.18	28.33	12.16	-44.8	-57.4	3.5	3.02e+01	0	28	104	7340032	60	28428
2026-01-15 15:32:42.19	28.42	12.25	-37.1	-47.6	3.6	3.02e+01	0	28	104	7340032	48	18459
2026-01-15 15:32:43.20	28.50	12.35	-37.2	-47.7	3.5	3.02e+01	0	28	104	7340032	48	18592
2026-01-15 15:32:44.21	28.58	12.45	-37.3	-47.7	3.5	3.02e+01	0	28	104	7340032	48	18673
2026-01-15 15:32:45.22	28.67	12.54	-37.1	-47.4	3.5	3.02e+01	0	28	104	7340032	48	18097
2026-01-15 15:32:46.23	28.75	12.64	-36.2	-46.5	3.5	3.02e+01	0	28	104	7340032	46	18286
2026-01-15 15:32:47.24	28.84	12.74	-35.7	-46.0	3.5	3.02e+01	0	28	104	7340032	46	17136
2026-01-15 15:32:48.25	28.92	12.84	-47.0	-64.4	3.5	3.02e+01	0	28	104	7340032	60	63600
2026-01-15 15:32:49.26	29.01	12.94	-44.8	-57.5	3.5	3.02e+01	0	28	104	7340032	60	28899
2026-01-15 15:32:50.27	29.09	13.04	-46.1	-59.7	3.5	3.02e+01	0	28	104	7340032	60	37001
2026-01-15 15:32:51.28	29.18	13.14	-40.8	-51.5	3.5	3.02e+01	0	28	104	7340032	58	16300
2026-01-15 15:32:52.29	29.27	13.24	-39.3	-49.9	3.5	3.02e+01	0	28	104	7340032	54	16919
2026-01-15 15:32:53.30	29.36	13.34	-38.4	-48.9	3.5	3.02e+01	0	28	104	7340032	52	16955
2026-01-15 15:32:54.31	29.45	13.44	-38.3	-48.7	3.5	3.02e+01	0	28	104	7340032	52	16602
2026-01-15 15:32:55.32	29.54	13.54	-39.2	-49.8	3.6	3.02e+01	0	28	104	7340032	50	21081
2026-01-15 15:32:56.32	29.63	13.64	-41.4	-52.3	3.3	3.02e+01	0	28	104	7340032	60	15787
2026-01-15 15:32:57.33	29.72	13.74	-43.9	-56.1	3.5	3.02e+01	0	28	104	7340032	60	24540
2026-01-15 15:32:58.34	29.81	13.85	-37.5	-47.9	3.5	3.02e+01	0	28	104	7340032	48	19085
2026-01-15 15:32:59.35	29.90	13.95	-47.4	-65.1	3.5	3.02e+01	0	28	104	7340032	60	68869
2026-01-15 15:33:00.36	30.00	14.05	-37.9	-48.4	3.5	3.02e+01	0	28	104	7340032	50	18037
2026-01-15 15:33:01.37	30.09	14.16	-38.0	-48.4	3.5	3.02e+01	0	28	104	7340032	50	17934
2026-01-15 15:33:02.38	30.19	14.26	-36.7	-47.0	3.5	3.02e+01	0	28	104	7340032	48	17201
2026-01-15 15:33:03.39	30.28	14.37	-35.4	-45.8	3.5	3.02e+01	0	28	104	7340032	46	16709
2026-01-15 15:33:04.40	30.38	14.47	-38.3	-48.7	3.6	3.02e+01	0	28	104	7340032	52	16663
2026-01-15 15:33:05.41	30.47	14.58	-35.4	-45.7	3.5	3.02e+01	0	28	104	7340032	46	16567
2026-01-15 15:33:06.42	30.57	14.68	-47.4	-64.9	3.6	3.02e+01	0	28	104	7340032	60	67948
2026-01-15 15:33:07.43	30.67	14.79	-36.7	-47.1	3.6	3.02e+01	0	28	104	7340032	52	13759
2026-01-15 15:33:08.44	30.77	14.90	-42.6	-54.0	3.5	3.02e+01	0	28	104	7340032	60	19248
2026-01-15 15:33:09.44	30.87	15.00	-36.9	-47.2	3.6	3.02e+01	0	28	104	7340032	48	17578
2026-01-15 15:33:10.45	30.97	15.11	-36.3	-46.6	3.5	3.02e+01	0	28	104	7340032	48	16502
2026-01-15 15:33:11.46	31.07	15.22	-36.1	-46.4	3.5	3.02e+01	0	28	104	7340032	48	16065
2026-01-15 15:33:12.46	31.17	15.33	-36.7	-47.0	3.5	3.02e+01	0	28	104	7340032	48	17143
2026-01-15 15:33:13.48	31.27	15.44	-37.1	-47.4	3.6	3.02e+01	0	28	104	7340032	50	16131
2026-01-15 15:33:14.49	31.38	15.55	-35.7	-46.0	3.5	3.02e+01	0	28	104	7340032	46	17104
2026-01-15 15:33:15.50	31.48	15.66	-47.6	-65.5	3.5	3.02e+01	0	28	104	7340032	60	72545
2026-01-15 15:33:16.51	31.58	15.77	-38.7	-49.3	3.5	3.02e+01	0	28	104	7340032	58	12527
2026-01-15 15:33:17.51	31.69	15.88	-43.6	-55.3	3.5	3.02e+01	0	28	104	7340032	60	22312
2026-01-15 15:33:18.52	31.80	15.99	-39.9	-50.5	3.5	3.02e+01	0	28	104	7340032	56	16299
2026-01-15 15:33:19.53	31.90	16.10	-39.5	-50.2	3.5	3.02e+01	0	28	104	7340032	54	17506
2026-01-15 15:33:20.54	32.01	16.22	-38.5	-49.0	3.5	3.02e+01	0	28	104	7340032	52	17255
2026-01-15 15:33:21.55	32.12	16.33	-36.9	-47.3	3.5	3.02e+01	0	28	104	7340032	50	15909
2026-01-15 15:33:22.56	32.23	16.44	-38.8	-49.3	3.5	3.02e+01	0	28	104	7340032	48	22515
2026-01-15 15:33:23.58	32.34	16.56	-38.3	-48.7	3.5	3.02e+01	0	28	104	7340032	52	16606
2026-01-15 15:33:24.59	32.45	16.67	-37.0	-47.4	3.5	3.02e+01	0	28	104	7340032	54	12693
2026-01-15 15:33:25.60	32.56	16.79	-40.8	-51.7	3.5	3.02e+01	0	28	104	7340032	48	29502
2026-01-15 15:33:26.61	32.68	16.90	-42.1	-53.2	3.5	3.02e+01	0	28	104	7340032	60	17597
2026-01-15 15:33:27.61	32.79	17.02	-35.5	-45.8	3.5	3.02e+01	0	28	104	7340032	46	16837
2026-01-15 15:33:28.63	32.91	17.14	-35.7	-46.0	3.5	3.02e+01	0	28	104	7340032	46	17164
2026-01-15 15:33:29.63	33.02	17.25	-35.5	-45.8	3.5	3.02e+01	0	28	104	7340032	46	16749
2026-01-15 15:33:30.64	33.14	17.37	-40.9	-51.8	3.5	3.02e+01	0	28	104	7340032	50	26569
2026-01-15 15:33:31.65	33.26	17.49	-37.9	-48.4	3.5	3.02e+01	0	28	104	7340032	54	14285
2026-01-15 15:33:32.66	33.37	17.61	-45.5	-58.6	3.5	3.02e+01	0	28	104	7340032	56	41311
2026-01-15 15:33:33.67	33.49	17.73	-43.3	-54.8	3.5	3.02e+01	0	28	104	7340032	60	21158
2026-01-15 15:33:34.68	33.62	17.85	-39.0	-49.6	3.5	3.02e+01	0	28	104	7340032	46	26136
2026-01-15 15:33:35.69	33.74	17.97	-38.0	-48.4	3.5	3.02e+01	0	28	104	7340032	52	16094
2026-01-15 15:33:36.70	33.86	18.09	-36.4	-46.8	3.5	3.02e+01	0	28	104	7340032	48	16705
2026-01-15 15:33:37.71	33.98	18.21	-35.5	-45.8	3.5	3.02e+01	0	28	104	7340032	46	16778
2026-01-15 15:33:38.72	34.11	18.33	-35.1	-45.5	3.5	3.02e+01	0	28	104	7340032	46	16210
2026-01-15 15:33:39.73	34.23	18.45	-36.6	-46.9	3.5	3.02e+01	0	28	104	7340032	46	19140
2026-01-15 15:33:40.74	34.36	18.58	-37.1	-47.5	3.5	3.02e+01	0	28	104	7340032	48	18295
2026-01-15 15:33:41.75	34.49	18.70	-46.7	-60.8	3.5	3.02e+01	0	28	104	7340032	60	42054
2026-01-15 15:33:42.76	34.62	18.82	-46.3	-59.9	3.5	3.02e+01	0	28	104	7340032	60	37901
2026-01-15 15:33:43.76	34.74	18.95	-41.3	-52.1	3.5	3.02e+01	0	28	104	7340032	52	24585
2026-01-15 15:33:44.78	34.88	19.07	-41.9	-52.9	3.5	3.02e+01	0	28	104	7340032	60	16964
2026-01-15 15:33:45.79	35.01	19.20	-40.4	-51.1	3.5	3.02e+01	0	28	104	7340032	56	17420
2026-01-15 15:33:46.80	35.14	19.33	-38.8	-49.4	3.5	3.02e+01	0	28	104	7340032	52	17902
2026-01-15 15:33:47.81	35.28	19.45	-38.7	-49.2	3.5	3.02e+01	0	28	104	7340032	52	17668
2026-01-15 15:33:48.82	35.41	19.58	-36.1	-46.5	3.5	3.02e+01	0	28	104	7340032	48	16234
2026-01-15 15:33:49.83	35.55	19.71	-45.7	-58.9	3.5	3.02e+01	0	28	104	7340032	60	33763
2026-01-15 15:33:50.84	35.69	19.84	-45.2	-58.2	3.5	3.02e+01	0	28	104	7340032	60	31356
2026-01-15 15:33:51.84	35.82	19.97	-37.3	-47.6	3.5	3.02e+01	0	28	104	7340032	50	16485
2026-01-15 15:33:52.85	35.96	20.10	-47.7	-64.8	3.5	3.02e+01	0	28	104	7340032	60	67130
2026-01-15 15:33:53.86	36.11	20.23	-38.1	-48.5	3.5	3.02e+01	0	28	104	7340032	52	16254
2026-01-15 15:33:54.87	36.25	20.36	-37.6	-48.1	3.5	3.02e+01	0	28	104	7340032	50	17425
2026-01-15 15:33:55.88	36.39	20.49	-37.0	-47.4	3.6	3.02e+01	0	28	104	7340032	50	16117
2026-01-15 15:33:56.89	36.54	20.62	-36.0	-46.3	3.5	3.02e+01	0	28	104	7340032	48	15883
2026-01-15 15:33:57.90	36.68	20.75	-42.6	-53.9	3.5	3.02e+01	0	28	104	7340032	56	24120
2026-01-15 15:33:58.91	36.83	20.89	-37.4	-47.8	3.5	3.02e+01	0	28	104	7340032	50	16785
2026-01-15 15:33:59.92	36.98	21.02	-47.5	-64.5	3.5	3.02e+01	0	28	104	7340032	60	64425
2026-01-15 15:34:00.93	37.13	21.16	-43.7	-55.4	3.5	3.02e+01	0	28	104	7340032	60	22721
2026-01-15 15:34:01.94	37.28	21.29	-44.8	-57.9	3.5	3.02e+01	0	28	104	7340032	60	30151
2026-01-15 15:34:02.95	37.44	21.43	-37.0	-47.5	3.5	3.02e+01	0	28	104	7340032	50	16140
2026-01-15 15:34:03.96	37.59	21.56	-36.4	-46.8	3.5	3.02e+01	0	28	104	7340032	48	16878
2026-01-15 15:34:04.97	37.75	21.70	-35.6	-45.9	3.5	3.02e+01	0	28	104	7340032	46	16949
2026-01-15 15:34:05.97	37.90	21.84	-35.4	-45.6	3.5	3.02e+01	0	28	104	7340032	46	16345
2026-01-15 15:34:06.98	38.06	21.98	-39.2	-49.8	3.5	3.02e+01	0	28	104	7340032	52	18815
2026-01-15 15:34:07.99	38.22	22.12	-37.0	-47.3	3.5	3.02e+01	0	28	104	7340032	46	19983
2026-01-15 15:34:09.00	38.38	22.25	-47.7	-64.2	3.5	3.02e+01	0	28	104	7340032	60	62163
2026-01-15 15:34:10.01	38.54	22.40	-44.4	-56.4	3.6	3.02e+01	0	28	104	7340032	60	25462
2026-01-15 15:34:11.02	38.71	22.54	-46.4	-60.6	3.5	3.02e+01	0	28	104	7340032	60	41293
2026-01-15 15:34:12.03	38.88	22.68	-39.9	-50.5	3.5	3.02e+01	0	28	104	7340032	54	18227
2026-01-15 15:34:13.04	39.04	22.82	-38.0	-48.4	3.5	3.02e+01	0	28	104	7340032	52	15966
2026-01-15 15:34:14.05	39.21	22.96	-36.4	-46.6	3.5	3.02e+01	0	28	104	7340032	48	16478
2026-01-15 15:34:15.06	39.38	23.11	-35.5	-45.8	3.5	3.02e+01	0	28	104	7340032	46	16769
2026-01-15 15:34:16.07	39.56	23.25	-35.9	-46.2	3.5	3.02e+01	0	28	104	7340032	46	17575
2026-01-15 15:34:17.08	39.73	23.39	-37.1	-47.4	3.5	3.02e+01	0	28	104	7340032	48	18057
2026-01-15 15:34:18.09	39.91	23.54	-47.5	-63.6	3.5	3.02e+01	0	28	104	7340032	60	58259
2026-01-15 15:34:19.09	40.08	23.68	-44.4	-56.5	3.5	3.02e+01	0	28	104	7340032	60	25858
2026-01-15 15:34:20.10	40.26	23.83	-46.7	-60.7	3.5	3.02e+01	0	28	104	7340032	60	41707
2026-01-15 15:34:21.11	40.44	23.98	-35.3	-45.6	3.5	3.02e+01	0	28	104	7340032	46	16432
2026-01-15 15:34:22.12	40.62	24.12	-35.0	-45.2	3.6	3.02e+01	0	28	104	7340032	46	15630
2026-01-15 15:34:23.13	40.81	24.27	-35.1	-45.4	3.5	3.02e+01	0	28	104	7340032	46	15965
2026-01-15 15:34:24.14	40.99	24.42	-35.2	-45.5	3.5	3.02e+01	0	28	104	7340032	46	16228
2026-01-15 15:34:25.15	41.18	24.57	-42.1	-53.3	3.5	3.02e+01	0	28	104	7340032	58	19936
2026-01-15 15:34:26.16	41.37	24.72	-36.8	-47.2	3.5	3.02e+01	0	28	104	7340032	48	17613
2026-01-15 15:34:27.17	41.56	24.87	-47.8	-64.0	3.5	3.02e+01	0	28	104	7340032	60	61189
2026-01-15 15:34:28.17	41.75	25.02	-42.0	-53.3	3.5	3.02e+01	0	28	104	7340032	60	17697
2026-01-15 15:34:29.19	41.95	25.18	-45.7	-59.1	3.5	3.02e+01	0	28	104	7340032	60	34805
2026-01-15 15:34:30.20	42.15	25.33	-36.8	-47.2	3.6	3.02e+01	0	28	104	7340032	48	17539
2026-01-15 15:34:31.20	42.35	25.48	-36.3	-46.6	3.5	3.02e+01	0	28	104	7340032	48	16501
2026-01-15 15:34:32.21	42.55	25.63	-35.6	-45.8	3.5	3.02e+01	0	28	104	7340032	46	16729
2026-01-15 15:34:33.22	42.75	25.79	-35.4	-45.6	3.5	3.02e+01	0	28	104	7340032	46	16459
2026-01-15 15:34:34.23	42.95	25.94	-38.7	-49.2	3.5	3.02e+01	0	28	104	7340032	52	17524
2026-01-15 15:34:35.24	43.16	26.10	-35.8	-46.1	3.5	3.02e+01	0	28	104	7340032	48	15506
2026-01-15 15:34:36.25	43.37	26.26	-47.5	-63.8	3.5	3.02e+01	0	28	104	7340032	60	59423
2026-01-15 15:34:37.26	43.58	26.41	-47.6	-64.2	3.5	3.02e+01	0	28	104	7340032	60	62328
2026-01-15 15:34:38.27	43.80	26.57	-47.8	-65.1	3.5	3.02e+01	0	28	104	7340032	60	69527
2026-01-15 15:34:39.28	44.01	26.73	-44.4	-56.3	3.5	3.02e+01	0	28	104	7340032	60	25272
2026-01-15 15:34:40.29	44.23	26.89	-43.0	-54.2	3.5	3.02e+01	0	28	104	7340032	60	19762
2026-01-15 15:34:41.30	44.45	27.05	-42.0	-53.0	3.5	3.02e+01	0	28	104	7340032	60	17158
2026-01-15 15:34:42.31	44.67	27.21	-40.4	-51.2	3.5	3.02e+01	0	28	104	7340032	56	17650
2026-01-15 15:34:43.32	44.90	27.37	-38.9	-49.6	3.6	3.02e+01	0	28	104	7340032	48	23322
2026-01-15 15:34:44.33	45.12	27.53	-45.8	-60.8	3.6	3.02e+01	0	28	104	7340032	60	42274
2026-01-15 15:34:45.34	45.35	27.69	-36.0	-46.4	3.6	3.02e+01	0	28	104	7340032	48	16039
2026-01-15 15:34:46.35	45.59	27.85	-36.9	-47.4	3.4	3.02e+01	0	28	104	7340032	54	12757
2026-01-15 15:34:47.36	45.82	28.01	-43.4	-55.2	3.5	3.02e+01	0	28	104	7340032	60	22114
2026-01-15 15:34:48.37	46.06	28.18	-35.2	-45.5	3.5	3.02e+01	0	28	104	7340032	46	16284
2026-01-15 15:34:49.38	46.29	28.34	-35.1	-45.3	3.5	3.02e+01	0	28	104	7340032	46	15815
2026-01-15 15:34:50.39	46.54	28.51	-35.0	-45.3	3.5	3.02e+01	0	28	104	7340032	46	15772
2026-01-15 15:34:51.40	46.78	28.67	-35.3	-45.6	3.5	3.02e+01	0	28	104	7340032	46	16415
2026-01-15 15:34:52.41	47.03	28.84	-39.6	-50.2	3.5	3.02e+01	0	28	104	7340032	56	15741
2026-01-15 15:34:53.42	47.28	29.00	-35.5	-45.7	3.5	3.02e+01	0	28	104	7340032	46	16629
2026-01-15 15:34:54.43	47.53	29.17	-48.1	-65.5	3.5	3.02e+01	0	28	104	7340032	60	72534
2026-01-15 15:34:55.44	47.78	29.34	-39.6	-50.3	3.6	3.02e+01	0	28	104	7340032	60	12645
2026-01-15 15:34:56.44	48.04	29.50	-45.1	-57.4	3.5	3.02e+01	0	28	104	7340032	60	28579
2026-01-15 15:34:57.45	48.30	29.67	-38.2	-48.6	3.5	3.02e+01	0	28	104	7340032	52	16372
2026-01-15 15:34:58.46	48.56	29.84	-37.6	-48.0	3.6	3.02e+01	0	28	104	7340032	50	17106
2026-01-15 15:34:59.47	48.83	30.01	-36.6	-46.9	3.5	3.02e+01	0	28	104	7340032	48	16902
2026-01-15 15:35:00.48	49.09	30.18	-38.6	-49.2	3.4	3.02e+01	0	28	104	7340032	48	22115
2026-01-15 15:35:01.49	49.36	30.34	-40.1	-51.1	3.5	3.02e+01	0	28	104	7340032	58	15439
2026-01-15 15:35:02.50	49.64	30.51	-35.7	-45.9	3.4	3.02e+01	0	28	104	7340032	46	17021
2026-01-15 15:35:03.51	49.92	30.68	-47.5	-63.1	3.5	3.02e+01	0	28	104	7340032	60	55132
2026-01-15 15:35:04.52	50.20	30.86	-35.4	-45.7	3.5	3.02e+01	0	28	104	7340032	46	16568
2026-01-15 15:35:05.53	50.48	31.03	-41.5	-52.4	3.5	3.02e+01	0	28	104	7340032	60	16059
2026-01-15 15:35:06.54	50.76	31.20	-37.0	-47.3	3.5	3.02e+01	0	28	104	7340032	48	17813
2026-01-15 15:35:07.55	51.05	31.37	-35.9	-46.4	3.5	3.02e+01	0	28	104	7340032	48	15968
2026-01-15 15:35:08.56	51.35	31.54	-35.4	-45.7	3.5	3.02e+01	0	28	104	7340032	46	16648
2026-01-15 15:35:09.57	51.64	31.71	-36.3	-46.7	3.5	3.02e+01	0	28	104	7340032	46	18619
2026-01-15 15:35:10.58	51.94	31.89	-38.9	-49.5	3.6	3.02e+01	0	28	104	7340032	52	18203
2026-01-15 15:35:11.59	52.24	32.06	-38.8	-49.3	3.5	3.02e+01	0	28	104	7340032	46	25157
2026-01-15 15:35:12.60	52.55	32.23	-43.4	-56.2	3.5	3.02e+01	0	28	104	7340032	60	24841
2026-01-15 15:35:13.61	52.86	32.41	-36.1	-46.4	3.5	3.02e+01	0	28	104	7340032	46	17949
2026-01-15 15:35:14.62	53.17	32.58	-36.6	-46.8	3.6	3.02e+01	0	28	104	7340032	50	15035
2026-01-15 15:35:15.63	53.48	32.75	-35.3	-45.4	3.5	3.02e+01	0	28	104	7340032	46	16069
2026-01-15 15:35:16.64	53.80	32.93	-35.5	-45.8	3.5	3.02e+01	0	28	104	7340032	46	16749
2026-01-15 15:35:17.65	54.12	33.10	-35.6	-45.9	3.5	3.02e+01	0	28	104	7340032	46	16994
2026-01-15 15:35:18.66	54.45	33.27	-38.7	-49.1	3.5	3.02e+01	0	28	104	7340032	48	21909
2026-01-15 15:35:19.66	54.78	33.45	-39.8	-50.4	3.5	3.02e+01	0	28	104	7340032	56	16095
2026-01-15 15:35:20.67	55.11	33.62	-44.7	-56.9	3.5	3.02e+01	0	28	104	7340032	54	37904
2026-01-15 15:35:21.68	55.45	33.80	-45.9	-58.9	3.5	3.02e+01	0	28	104	7340032	60	33723
2026-01-15 15:35:22.69	55.79	33.97	-40.8	-51.6	3.5	3.02e+01	0	28	104	7340032	50	26075
2026-01-15 15:35:23.70	56.13	34.14	-40.0	-50.6	3.5	3.02e+01	0	28	104	7340032	58	14699
2026-01-15 15:35:24.71	56.48	34.32	-38.3	-48.7	3.5	3.02e+01	0	28	104	7340032	52	16560
2026-01-15 15:35:25.72	56.83	34.49	-37.5	-47.9	3.5	3.02e+01	0	28	104	7340032	50	16929
2026-01-15 15:35:26.73	57.18	34.67	-37.2	-47.5	3.5	3.02e+01	0	28	104	7340032	50	16294
2026-01-15 15:35:27.74	57.54	34.84	-43.9	-55.5	3.5	3.02e+01	0	28	104	7340032	58	25866
2026-01-15 15:35:28.75	57.90	35.01	-40.4	-51.2	3.6	3.02e+01	0	28	104	7340032	58	15654
2026-01-15 15:35:29.76	58.27	35.19	-45.7	-58.8	3.5	3.02e+01	0	28	104	7340032	58	37452
2026-01-15 15:35:30.77	58.64	35.36	-45.8	-58.7	3.5	3.02e+01	0	28	104	7340032	60	33102
2026-01-15 15:35:31.78	59.02	35.53	-42.2	-53.3	3.5	3.02e+01	0	28	104	7340032	52	28153
2026-01-15 15:35:32.78	59.39	35.70	-40.0	-50.6	3.5	3.02e+01	0	28	104	7340032	56	16446
2026-01-15 15:35:33.79	59.78	35.87	-38.5	-48.9	3.5	3.02e+01	0	28	104	7340032	52	17029
2026-01-15 15:35:34.80	60.16	36.05	-38.0	-48.5	3.5	3.02e+01	0	28	104	7340032	50	18110
2026-01-15 15:35:35.81	60.55	36.22	-37.1	-47.4	3.5	3.02e+01	0	28	104	7340032	50	16030
2026-01-15 15:35:36.82	60.95	36.39	-37.3	-47.7	3.5	3.02e+01	0	28	104	7340032	46	21017
2026-01-15 15:35:37.83	61.35	36.56	-38.6	-49.1	3.5	3.02e+01	0	28	104	7340032	50	19594
2026-01-15 15:35:38.84	61.75	36.73	-48.1	-65.3	3.5	3.02e+01	0	28	104	7340032	60	70682
2026-01-15 15:35:39.85	62.16	36.90	-44.1	-56.0	3.5	3.02e+01	0	28	104	7340032	60	24217
2026-01-15 15:35:40.86	62.57	37.06	-45.9	-58.7	3.5	3.02e+01	0	28	104	7340032	60	33162
2026-01-15 15:35:41.87	62.99	37.23	-35.8	-46.2	3.6	3.02e+01	0	28	104	7340032	48	15595
2026-01-15 15:35:42.88	63.41	37.40	-35.9	-46.1	3.5	3.02e+01	0	28	104	7340032	46	17311
2026-01-15 15:35:43.88	63.83	37.56	-36.2	-46.4	3.5	3.02e+01	0	28	104	7340032	46	18034
2026-01-15 15:35:44.89	64.26	37.73	-36.0	-46.4	3.5	3.02e+01	0	28	104	7340032	46	17953
2026-01-15 15:35:45.90	64.69	37.89	-39.6	-50.1	3.5	3.02e+01	0	28	104	7340032	52	19467
2026-01-15 15:35:46.91	65.13	38.05	-39.1	-49.7	3.5	3.02e+01	0	28	104	7340032	52	18707
2026-01-15 15:35:47.92	65.58	38.22	-48.2	-65.4	3.5	3.02e+01	0	28	104	7340032	60	71283
2026-01-15 15:35:48.93	66.02	38.38	-46.3	-59.6	3.5	3.02e+01	0	28	104	7340032	60	36729
2026-01-15 15:35:49.94	66.48	38.54	-46.8	-60.5	3.5	3.02e+01	0	28	104	7340032	60	40934
2026-01-15 15:35:50.95	66.93	38.70	-38.5	-49.0	3.5	3.02e+01	0	28	104	7340032	54	15374
2026-01-15 15:35:51.96	67.39	38.85	-38.1	-48.3	3.5	3.02e+01	0	28	104	7340032	52	15928
2026-01-15 15:35:52.97	67.86	39.01	-37.1	-47.5	3.5	3.02e+01	0	28	104	7340032	50	16280
2026-01-15 15:35:53.98	68.33	39.17	-37.1	-47.5	3.5	3.02e+01	0	28	104	7340032	50	16178
2026-01-15 15:35:54.99	68.80	39.32	-38.0	-48.3	3.6	3.02e+01	0	28	104	7340032	48	19854
2026-01-15 15:35:56.00	69.28	39.47	-38.9	-49.4	3.5	3.02e+01	0	28	104	7340032	50	20108
2026-01-15 15:35:57.00	69.76	39.62	-48.2	-65.1	3.5	3.02e+01	0	28	104	7340032	60	69124
2026-01-15 15:35:58.01	70.25	39.77	-45.0	-57.3	3.5	3.02e+01	0	28	104	7340032	60	28273
2026-01-15 15:35:59.03	70.75	39.92	-47.2	-61.5	3.5	3.02e+01	0	28	104	7340032	60	45801
2026-01-15 15:36:00.01	71.23	40.06	-36.9	-47.2	3.5	3.02e+01	0	28	104	7340032	50	15720
2026-01-15 15:36:01.02	71.73	40.21	-36.3	-46.7	3.5	3.02e+01	0	28	104	7340032	48	16545
2026-01-15 15:36:02.03	72.24	40.35	-35.4	-45.7	3.5	3.02e+01	0	28	104	7340032	46	16625
2026-01-15 15:36:03.04	72.75	40.49	-34.8	-44.9	3.5	3.02e+01	0	28	104	7340032	44	17038
2026-01-15 15:36:04.05	73.26	40.63	-41.9	-53.0	3.6	3.02e+01	0	28	104	7340032	56	21541
2026-01-15 15:36:05.05	73.78	40.76	-38.0	-48.4	3.6	3.02e+01	0	28	104	7340032	52	15994
2026-01-15 15:36:06.06	74.30	40.90	-47.9	-63.8	3.5	3.02e+01	0	28	104	7340032	60	59434
2026-01-15 15:36:07.07	74.83	41.03	-44.8	-56.9	3.5	3.02e+01	0	28	104	7340032	60	27061
2026-01-15 15:36:08.08	75.36	41.16	-47.2	-61.7	3.5	3.02e+01	0	28	104	7340032	60	46900
2026-01-15 15:36:09.09	75.90	41.29	-34.7	-44.9	3.5	3.02e+01	0	28	104	7340032	44	16898
2026-01-15 15:36:10.10	76.44	41.42	-34.8	-45.1	3.5	3.02e+01	0	28	104	7340032	44	17427
2026-01-15 15:36:11.11	76.99	41.54	-34.8	-45.1	3.5	3.02e+01	0	28	104	7340032	44	17336
2026-01-15 15:36:12.12	77.53	41.66	-34.9	-45.0	3.5	3.02e+01	0	28	104	7340032	44	17163
2026-01-15 15:36:13.13	78.09	41.78	-41.8	-52.9	3.5	3.02e+01	0	28	104	7340032	58	19001
2026-01-15 15:36:14.14	78.65	41.90	-37.5	-47.9	3.5	3.02e+01	0	28	104	7340032	50	17085
2026-01-15 15:36:15.15	79.21	42.01	-48.0	-64.0	3.5	3.02e+01	0	28	104	7340032	60	60687
2026-01-15 15:36:16.16	79.78	42.12	-44.5	-56.4	3.5	3.02e+01	0	28	104	7340032	60	25394
2026-01-15 15:36:17.17	80.35	42.23	-47.3	-61.8	3.5	3.02e+01	0	28	104	7340032	60	47338
2026-01-15 15:36:18.18	80.92	42.34	-37.4	-47.7	3.5	3.02e+01	0	28	104	7340032	50	16679
2026-01-15 15:36:19.19	81.50	42.44	-36.3	-46.6	3.5	3.02e+01	0	28	104	7340032	48	16398
2026-01-15 15:36:20.20	82.08	42.54	-35.8	-46.1	3.5	3.02e+01	0	28	104	7340032	46	17378
2026-01-15 15:36:21.20	82.66	42.64	-35.0	-45.2	3.5	3.02e+01	0	28	104	7340032	46	15753
2026-01-15 15:36:22.22	83.25	42.73	-40.9	-51.7	3.5	3.02e+01	0	28	104	7340032	58	16558
2026-01-15 15:36:23.23	83.84	42.82	-35.5	-45.7	3.5	3.02e+01	0	28	104	7340032	48	14812
2026-01-15 15:36:24.24	84.44	42.91	-48.0	-64.3	3.5	3.02e+01	0	28	104	7340032	60	62844
2026-01-15 15:36:25.24	85.03	42.99	-43.6	-55.0	3.5	3.02e+01	0	28	104	7340032	60	21551
2026-01-15 15:36:26.25	85.63	43.08	-47.1	-61.7	3.6	3.02e+01	0	28	104	7340032	60	46848
2026-01-15 15:36:27.26	86.24	43.15	-37.3	-47.6	3.5	3.02e+01	0	28	104	7340032	50	16393
2026-01-15 15:36:28.27	86.84	43.23	-36.7	-47.1	3.5	3.02e+01	0	28	104	7340032	48	17352
2026-01-15 15:36:29.28	87.46	43.30	-35.8	-46.0	3.5	3.02e+01	0	28	104	7340032	46	17273
2026-01-15 15:36:30.29	88.07	43.37	-35.8	-46.1	3.5	3.02e+01	0	28	104	7340032	46	17377
2026-01-15 15:36:31.30	88.68	43.43	-38.2	-48.6	3.5	3.02e+01	0	28	104	7340032	50	18351
2026-01-15 15:36:32.31	89.30	43.50	-34.6	-44.9	3.5	3.02e+01	0	28	104	7340032	44	16970
2026-01-15 15:36:33.32	89.92	43.55	-47.7	-64.0	3.5	3.02e+01	0	28	104	7340032	60	60745
2026-01-15 15:36:34.33	90.55	43.61	-37.0	-47.4	3.2	3.02e+01	0	28	104	7340032	54	12687
2026-01-15 15:36:35.34	91.17	43.66	-43.3	-54.8	3.5	3.02e+01	0	28	104	7340032	60	21066
2026-01-15 15:36:36.34	91.79	43.71	-34.5	-44.7	3.5	3.02e+01	0	28	104	7340032	44	16514
2026-01-15 15:36:37.36	92.43	43.75	-34.4	-44.7	3.5	3.02e+01	0	28	104	7340032	44	16562
2026-01-15 15:36:38.37	93.06	43.79	-34.7	-44.7	3.5	3.02e+01	0	28	104	7340032	44	16661
2026-01-15 15:36:39.38	93.69	43.83	-35.2	-45.5	3.5	3.02e+01	0	28	104	7340032	44	18131
2026-01-15 15:36:40.38	94.31	43.86	-41.4	-52.4	3.5	3.02e+01	0	28	104	7340032	60	16000
2026-01-15 15:36:41.39	94.95	43.89	-34.5	-44.8	3.5	3.02e+01	0	28	104	7340032	44	16709
2026-01-15 15:36:42.40	95.58	43.91	-47.8	-64.1	3.6	3.02e+01	0	28	104	7340032	60	61695
2026-01-15 15:36:43.41	96.22	43.93	-38.0	-48.6	3.5	3.02e+01	0	28	104	7340032	56	13107
2026-01-15 15:36:44.42	96.86	43.95	-45.3	-57.5	3.5	3.02e+01	0	28	104	7340032	60	28868
2026-01-15 15:36:45.43	97.50	43.96	-37.4	-47.8	3.5	3.02e+01	0	28	104	7340032	50	16784
2026-01-15 15:36:46.44	98.14	43.97	-36.6	-46.8	3.5	3.02e+01	0	28	104	7340032	48	16882
2026-01-15 15:36:47.45	98.77	43.98	-36.8	-47.1	3.5	3.02e+01	0	28	104	7340032	48	17475
2026-01-15 15:36:48.46	99.41	43.98	-35.0	-45.2	3.5	3.02e+01	0	28	104	7340032	46	15722
2026-01-15 15:36:49.47	100.05	43.98	-37.2	-47.5	3.5	3.02e+01	0	28	104	7340032	50	16152
2026-01-15 15:36:50.47	100.68	43.97	-34.7	-45.0	3.5	3.02e+01	0	28	104	7340032	44	17279
2026-01-15 15:36:51.48	101.32	43.97	-47.3	-62.3	3.6	3.02e+01	0	28	104	7340032	60	50004
2026-01-15 15:36:52.49	101.96	43.95	-35.8	-46.1	3.5	3.02e+01	0	28	104	7340032	48	15577
2026-01-15 15:36:53.50	102.60	43.93	-42.1	-53.0	3.6	3.02e+01	0	28	104	7340032	60	17206
2026-01-15 15:36:54.51	103.23	43.91	-36.6	-46.9	3.5	3.02e+01	0	28	104	7340032	48	16942
2026-01-15 15:36:55.52	103.87	43.89	-35.7	-46.0	3.5	3.02e+01	0	28	104	7340032	46	17097
2026-01-15 15:36:56.53	104.51	43.86	-35.1	-45.3	3.5	3.02e+01	0	28	104	7340032	46	15903
2026-01-15 15:36:57.54	105.14	43.83	-36.6	-46.9	3.5	3.02e+01	0	28	104	7340032	44	21375
2026-01-15 15:36:58.55	105.77	43.79	-40.5	-51.3	3.5	3.02e+01	0	28	104	7340032	56	17730
2026-01-15 15:36:59.56	106.40	43.75	-36.7	-46.9	3.5	3.02e+01	0	28	104	7340032	44	21400
2026-01-15 15:37:00.57	107.03	43.71	-41.4	-52.3	3.5	3.02e+01	0	28	104	7340032	60	15865
2026-01-15 15:37:01.58	107.66	43.66	-35.2	-45.5	3.5	3.02e+01	0	28	104	7340032	44	18151
2026-01-15 15:37:02.59	108.28	43.61	-37.6	-47.9	3.5	3.02e+01	0	28	104	7340032	54	13527
2026-01-15 15:37:03.60	108.91	43.56	-34.8	-45.0	3.5	3.02e+01	0	28	104	7340032	44	17243
2026-01-15 15:37:04.61	109.53	43.50	-34.8	-45.2	3.5	3.02e+01	0	28	104	7340032	44	17532
2026-01-15 15:37:05.61	110.14	43.44	-34.9	-45.1	3.5	3.02e+01	0	28	104	7340032	44	17430
2026-01-15 15:37:06.62	110.76	43.37	-38.6	-49.0	3.5	3.02e+01	0	28	104	7340032	46	24402
2026-01-15 15:37:07.63	111.37	43.31	-41.2	-52.1	3.5	3.02e+01	0	28	104	7340032	58	17463
2026-01-15 15:37:08.64	111.98	43.23	-41.7	-52.5	3.5	3.02e+01	0	28	104	7340032	50	28951
2026-01-15 15:37:09.65	112.59	43.16	-43.7	-55.4	3.5	3.02e+01	0	28	104	7340032	60	22556
2026-01-15 15:37:10.66	113.20	43.08	-39.8	-50.3	3.6	3.02e+01	0	28	104	7340032	46	28333
2026-01-15 15:37:11.67	113.80	43.00	-38.6	-49.0	3.5	3.02e+01	0	28	104	7340032	54	15318
2026-01-15 15:37:12.68	114.40	42.92	-36.7	-47.1	3.5	3.02e+01	0	28	104	7340032	48	17441
2026-01-15 15:37:13.69	115.00	42.83	-36.2	-46.5	3.5	3.02e+01	0	28	104	7340032	46	18148
2026-01-15 15:37:14.70	115.59	42.74	-35.5	-45.8	3.5	3.02e+01	0	28	104	7340032	46	16831
2026-01-15 15:37:15.71	116.18	42.64	-38.2	-48.7	3.5	3.02e+01	0	28	104	7340032	46	23327
2026-01-15 15:37:16.72	116.77	42.54	-40.2	-50.9	3.5	3.02e+01	0	28	104	7340032	52	21294
2026-01-15 15:37:17.73	117.35	42.44	-43.0	-54.2	3.5	3.02e+01	0	28	104	7340032	52	31171
2026-01-15 15:37:18.74	117.93	42.34	-43.5	-55.2	3.5	3.02e+01	0	28	104	7340032	60	22191
2026-01-15 15:37:19.75	118.50	42.24	-41.1	-51.7	3.5	3.02e+01	0	28	104	7340032	50	26260
2026-01-15 15:37:20.76	119.07	42.13	-38.2	-48.6	3.6	3.02e+01	0	28	104	7340032	54	14591
2026-01-15 15:37:21.77	119.64	42.02	-36.2	-37.8	24.2	3.02e+01	60	28	104	7340032	48	5928
2026-01-15 15:37:22.78	120.20	41.90	-35.6	-36.9	28.5	3.02e+01	59	28	0	8388608	46	6010
2026-01-15 15:37:23.79	120.76	41.79	-35.3	-36.5	28.7	3.02e+01	45	28	0	10485760	46	5778
2026-01-15 15:37:24.80	121.32	41.67	-35.1	-36.3	29.0	3.02e+01	58	28	0	12058624	46	5652
2026-01-15 15:37:25.81	121.87	41.54	-35.0	-36.2	29.0	3.02e+01	62	28	0	14155776	44	6262
2026-01-15 15:37:26.82	122.42	41.42	-35.1	-36.3	28.9	3.02e+01	60	28	0	16252928	44	6331
2026-01-15 15:37:27.83	122.96	41.29	-34.8	-36.0	29.2	3.02e+01	59	28	0	17825792	44	6096
2026-01-15 15:37:28.84	123.50	41.17	-34.8	-36.0	29.2	3.02e+01	51	28	0	19922944	44	6121
2026-01-15 15:37:29.85	124.03	41.03	-34.9	-36.2	29.1	3.02e+01	57	28	0	21495808	44	6215
2026-01-15 15:37:30.86	124.56	40.90	-34.9	-36.1	29.1	3.02e+01	57	28	0	23592960	44	6184
2026-01-15 15:37:31.87	125.09	40.77	-34.9	-36.1	29.1	3.02e+01	46	28	0	25690112	44	6198
2026-01-15 15:37:32.88	125.61	40.63	-34.8	-36.0	29.2	3.02e+01	56	28	0	27262976	44	6129
2026-01-15 15:37:33.89	126.12	40.49	-35.1	-36.4	28.9	3.02e+01	60	28	0	29360128	44	6356
2026-01-15 15:37:34.90	126.64	40.35	-35.0	-36.2	28.9	3.02e+01	56	28	0	31457280	44	6244
2026-01-15 15:37:35.91	127.14	40.21	-35.0	-36.3	28.9	3.02e+01	60	28	0	33030144	44	6282
2026-01-15 15:37:36.92	127.65	40.06	-34.8	-36.0	29.2	3.02e+01	53	28	0	35127296	44	6128
2026-01-15 15:37:37.93	128.14	39.91	-34.9	-36.2	29.0	3.02e+01	56	28	0	36700160	44	6231
2026-01-15 15:37:38.94	128.64	39.77	-35.1	-36.3	29.0	3.02e+01	59	28	0	38797312	44	6325
2026-01-15 15:37:39.95	129.13	39.62	-35.0	-36.2	29.0	3.02e+01	48	28	0	40894464	44	6253
2026-01-15 15:37:40.96	129.61	39.47	-35.1	-36.3	28.8	3.02e+01	59	28	0	42467328	44	6303
2026-01-15 15:37:41.97	130.09	39.31	-34.8	-36.0	29.1	3.02e+01	58	28	0	44564480	44	6120
2026-01-15 15:37:42.98	130.57	39.16	-35.1	-36.4	29.0	3.02e+01	60	28	0	46137344	44	6360
2026-01-15 15:37:43.99	131.04	39.00	-35.2	-36.5	28.7	3.02e+01	60	28	0	48234496	44	6465
2026-01-15 15:37:45.00	131.51	38.85	-35.0	-36.3	29.0	3.02e+01	49	28	0	50331648	44	6278
2026-01-15 15:37:46.01	131.97	38.69	-35.0	-36.2	29.0	3.02e+01	59	28	0	51904512	44	6248
2026-01-15 15:37:47.01	132.42	38.53	-35.3	-36.6	28.8	3.02e+01	61	28	0	54001664	44	6523
2026-01-15 15:37:48.02	132.87	38.37	-35.0	-36.3	28.9	3.02e+01	39	28	0	55574528	44	6314
2026-01-15 15:37:49.03	133.32	38.21	-34.8	-36.0	29.2	3.02e+01	58	28	0	57671680	44	6105
2026-01-15 15:37:50.04	133.77	38.04	-34.7	-36.0	29.2	3.02e+01	60	28	0	59768832	44	6069
2026-01-15 15:37:51.05	134.21	37.88	-34.8	-36.0	29.2	3.02e+01	61	28	0	61341696	44	6098
2026-01-15 15:37:52.06	134.64	37.71	-34.8	-36.0	29.2	3.02e+01	57	28	0	63438848	44	6088
2026-01-15 15:37:53.07	135.07	37.55	-34.6	-35.9	29.3	3.02e+01	53	28	0	65011712	44	5997
2026-01-15 15:37:54.08	135.50	37.38	-34.8	-36.0	29.1	3.02e+01	61	28	0	67108864	44	6104
2026-01-15 15:37:55.09	135.92	37.21	-34.8	-36.0	29.2	3.02e+01	59	28	0	69206016	44	6088
2026-01-15 15:37:56.09	136.33	37.05	-34.5	-35.7	29.4	3.02e+01	50	28	0	70778880	44	5880
2026-01-15 15:37:57.10	136.75	36.88	-34.6	-35.8	29.2	3.02e+01	59	28	0	72876032	44	5989
2026-01-15 15:37:58.11	137.16	36.71	-34.8	-36.0	29.2	3.02e+01	54	28	0	74973184	44	6091
2026-01-15 15:37:59.12	137.56	36.54	-34.4	-35.6	29.6	3.02e+01	59	28	0	76546048	44	5793
2026-01-15 15:38:00.13	137.96	36.37	-34.2	-35.4	29.6	3.02e+01	60	28	0	78643200	44	5703
2026-01-15 15:38:01.14	138.36	36.20	-34.2	-35.4	29.6	3.02e+01	44	28	0	80216064	44	5693
2026-01-15 15:38:02.15	138.75	36.02	-34.3	-35.5	29.6	3.02e+01	61	28	0	82313216	44	5739
2026-01-15 15:38:03.16	139.14	35.85	-34.2	-35.4	29.6	3.02e+01	60	28	0	84410368	44	5699
2026-01-15 15:38:04.17	139.52	35.68	-33.9	-35.1	30.0	3.02e+01	59	28	0	85983232	42	6176
2026-01-15 15:38:05.18	139.90	35.51	-33.9	-35.1	30.0	3.02e+01	59	28	0	88080384	42	6147
2026-01-15 15:38:06.19	140.28	35.33	-33.8	-35.0	30.0	3.02e+01	46	28	0	89653248	42	6102
2026-01-15 15:38:07.20	140.65	35.16	-33.8	-34.9	30.0	3.02e+01	55	28	0	91750400	42	6045
2026-01-15 15:38:08.21	141.02	34.99	-33.9	-35.0	30.0	3.02e+01	60	28	0	93847552	42	6117
2026-01-15 15:38:09.21	141.38	34.81	-33.7	-34.9	30.1	3.02e+01	46	28	0	95420416	42	6012
2026-01-15 15:38:10.22	141.74	34.64	-33.7	-34.9	30.0	3.02e+01	50	28	0	97517568	42	6034
2026-01-15 15:38:11.23	142.10	34.46	-33.7	-34.9	30.0	3.02e+01	61	28	0	99090432	42	6006
2026-01-15 15:38:12.24	142.45	34.29	-33.5	-34.6	30.2	3.02e+01	60	28	0	101187584	42	5856
2026-01-15 15:38:13.25	142.80	34.11	-33.4	-34.6	30.4	3.02e+01	64	28	0	103284736	42	5826
2026-01-15 15:38:14.26	143.14	33.94	-33.4	-34.6	30.3	3.02e+01	55	28	0	104857600	42	5832
2026-01-15 15:38:15.27	143.48	33.76	-33.3	-34.4	30.4	3.02e+01	60	28	0	106954752	42	5720
2026-01-15 15:38:16.28	143.82	33.59	-33.3	-34.4	30.4	3.02e+01	58	28	0	108527616	42	5703
2026-01-15 15:38:17.29	144.15	33.41	-33.3	-34.5	30.4	3.02e+01	55	28	0	110624768	42	5737
2026-01-15 15:38:18.30	144.48	33.24	-33.4	-34.5	30.4	3.02e+01	61	28	0	112721920	42	5773
2026-01-15 15:38:19.31	144.81	33.06	-33.3	-34.5	30.3	3.02e+01	60	28	0	114294784	42	5746
2026-01-15 15:38:20.32	145.13	32.89	-33.1	-34.3	30.5	3.02e+01	59	28	0	116391936	42	5605
2026-01-15 15:38:21.33	145.45	32.71	-33.2	-34.4	30.3	3.02e+01	60	28	0	117964800	42	5685
2026-01-15 15:38:22.34	145.77	32.54	-32.9	-34.1	30.8	3.02e+01	56	28	0	120061952	42	5483
2026-01-15 15:38:23.35	146.08	32.37	-32.8	-33.9	30.9	3.02e+01	56	28	0	122159104	40	6050
2026-01-15 15:38:24.36	146.39	32.19	-33.0	-34.2	30.6	3.02e+01	62	28	0	123731968	40	6229
2026-01-15 15:38:25.37	146.70	32.02	-33.0	-34.2	30.7	3.02e+01	45	28	0	125829120	40	6212
2026-01-15 15:38:26.38	147.00	31.84	-33.2	-34.3	30.5	3.02e+01	60	28	0	127926272	40	6321
2026-01-15 15:38:27.39	147.30	31.67	-33.3	-34.4	30.5	3.02e+01	53	28	0	129499136	40	6413
2026-01-15 15:38:28.40	147.59	31.50	-33.0	-34.2	30.6	3.02e+01	60	28	0	131596288	40	6222
2026-01-15 15:38:29.41	147.89	31.32	-33.1	-34.2	30.6	3.02e+01	55	28	0	133169152	40	6258
2026-01-15 15:38:30.42	148.18	31.15	-32.9	-34.0	30.7	3.02e+01	51	28	0	135266304	40	6134
2026-01-15 15:38:31.43	148.46	30.98	-32.8	-34.0	30.7	3.02e+01	58	28	0	137363456	40	6081
2026-01-15 15:38:32.44	148.75	30.81	-32.9	-34.0	30.8	3.02e+01	60	28	0	138936320	40	6107
2026-01-15 15:38:33.45	149.03	30.64	-32.8	-34.0	30.8	3.02e+01	58	28	0	141033472	40	6081
2026-01-15 15:38:34.46	149.31	30.46	-33.1	-34.2	30.6	3.02e+01	60	28	0	143130624	40	6272
2026-01-15 15:38:35.47	149.58	30.29	-33.2	-34.4	30.5	3.02e+01	45	28	0	144703488	40	6388
2026-01-15 15:38:36.48	149.85	30.12	-33.2	-34.4	30.4	3.02e+01	56	28	0	146800640	40	6396
2026-01-15 15:38:37.49	150.12	29.95	-33.3	-34.4	30.5	3.02e+01	58	28	0	148373504	40	6412
2026-01-15 15:38:38.50	150.39	29.78	-33.2	-34.3	30.5	3.02e+01	47	28	0	150470656	40	6322
2026-01-15 15:38:39.51	150.65	29.61	-33.1	-34.3	30.5	3.02e+01	62	28	0	152567808	40	6309
2026-01-15 15:38:40.52	150.91	29.45	-33.0	-34.1	30.7	3.02e+01	61	28	0	154140672	40	6199
2026-01-15 15:38:41.52	151.17	29.28	-33.0	-34.1	30.7	3.02e+01	58	28	0	156237824	40	6204
2026-01-15 15:38:42.54	151.42	29.11	-33.1	-34.3	30.6	3.02e+01	60	28	0	157810688	40	6292
2026-01-15 15:38:43.54	151.67	28.94	-33.3	-34.5	30.4	3.02e+01	46	28	0	159907840	40	6432
2026-01-15 15:38:44.55	151.92	28.78	-33.3	-34.5	30.4	3.02e+01	62	28	0	162004992	40	6453
2026-01-15 15:38:45.56	152.17	28.61	-33.5	-34.7	30.3	3.02e+01	58	28	0	163577856	40	6588
2026-01-15 15:38:46.57	152.41	28.45	-33.3	-34.4	30.4	3.02e+01	47	28	0	165675008	40	6395
2026-01-15 15:38:47.58	152.66	28.28	-33.3	-34.4	30.5	3.02e+01	59	28	0	167247872	40	6412
2026-01-15 15:38:48.59	152.90	28.12	-33.3	-34.4	30.4	3.02e+01	58	28	0	169345024	40	6422
2026-01-15 15:38:49.60	153.13	27.95	-33.4	-34.5	30.3	3.02e+01	58	28	0	171442176	40	6493
2026-01-15 15:38:50.61	153.37	27.79	-33.4	-34.5	30.2	3.02e+01	60	28	0	173015040	40	6478
2026-01-15 15:38:51.62	153.60	27.62	-33.4	-34.6	30.2	3.02e+01	53	28	0	175112192	40	6519
2026-01-15 15:38:52.63	153.83	27.46	-33.5	-34.7	30.2	3.02e+01	58	28	0	176685056	40	6624
2026-01-15 15:38:53.64	154.06	27.30	-33.6	-34.8	29.9	3.02e+01	57	28	0	178782208	40	6687
2026-01-15 15:38:54.65	154.28	27.14	-33.8	-35.0	29.9	3.02e+01	50	28	0	180879360	40	6829
2026-01-15 15:38:55.66	154.50	26.98	-33.7	-34.8	29.9	3.02e+01	59	28	0	182452224	40	6724
2026-01-15 15:38:56.67	154.72	26.82	-33.7	-34.9	29.9	3.02e+01	57	28	0	184549376	40	6733
2026-01-15 15:38:57.68	154.94	26.66	-33.8	-35.0	29.8	3.02e+01	59	28	0	186122240	40	6813
2026-01-15 15:38:58.68	155.16	26.50	-33.8	-35.0	29.8	3.02e+01	60	28	0	188219392	40	6866
2026-01-15 15:38:59.69	155.37	26.34	-33.8	-35.0	29.7	3.02e+01	45	28	0	190316544	40	6863
2026-01-15 15:39:00.70	155.58	26.19	-33.8	-34.9	29.7	3.02e+01	60	28	0	191889408	40	6800
2026-01-15 15:39:01.71	155.79	26.03	-33.8	-35.0	29.8	3.02e+01	61	28	0	193986560	40	6810
2026-01-15 15:39:02.72	156.00	25.87	-33.7	-34.8	30.0	3.02e+01	44	28	0	196083712	40	6717
2026-01-15 15:39:03.73	156.20	25.72	-33.6	-34.8	30.0	3.02e+01	59	28	0	197656576	40	6678
2026-01-15 15:39:04.74	156.41	25.56	-33.7	-34.8	30.0	3.02e+01	58	28	0	199753728	40	6709
2026-01-15 15:39:05.75	156.61	25.41	-33.7	-34.9	29.9	3.02e+01	57	28	0	201326592	40	6758
2026-01-15 15:39:06.76	156.81	25.25	-33.7	-34.9	29.9	3.02e+01	62	28	0	203423744	40	6740
2026-01-15 15:39:07.77	157.01	25.10	-33.8	-35.0	29.9	3.02e+01	57	28	0	205520896	40	6834
2026-01-15 15:39:08.78	157.20	24.94	-33.9	-35.1	29.8	3.02e+01	59	28	0	207093760	40	6901
2026-01-15 15:39:09.79	157.40	24.79	-33.8	-35.0	29.9	3.02e+01	59	28	0	209190912	40	6860
2026-01-15 15:39:10.80	157.59	24.64	-33.9	-35.1	29.7	3.02e+01	60	28	0	211288064	40	6942
2026-01-15 15:39:11.81	157.78	24.49	-33.9	-35.1	29.8	3.02e+01	59	28	0	212860928	42	6181
2026-01-15 15:39:12.82	157.96	24.34	-33.9	-35.1	29.8	3.02e+01	54	28	0	214958080	42	6187
2026-01-15 15:39:13.83	158.15	24.19	-34.0	-35.2	29.7	3.02e+01	60	28	0	216530944	42	6218
2026-01-15 15:39:14.84	158.34	24.04	-34.0	-35.2	29.7	3.02e+01	56	28	0	218628096	42	6253
2026-01-15 15:39:15.85	158.52	23.89	-34.1	-35.3	29.7	3.02e+01	46	28	0	220725248	42	6322
2026-01-15 15:39:16.86	158.70	23.74	-34.2	-35.4	29.7	3.02e+01	64	28	0	222298112	42	6358
2026-01-15 15:39:17.87	158.88	23.60	-34.2	-35.4	29.6	3.02e+01	57	28	0	224395264	42	6363
2026-01-15 15:39:18.88	159.06	23.45	-34.1	-35.3	29.7	3.02e+01	60	28	0	225968128	42	6289
2026-01-15 15:39:19.89	159.23	23.31	-34.2	-35.4	29.6	3.02e+01	58	28	0	228065280	42	6395
2026-01-15 15:39:20.89	159.40	23.16	-34.2	-35.4	29.6	3.02e+01	58	28	0	230162432	42	6387
2026-01-15 15:39:21.90	159.58	23.02	-34.2	-35.5	29.5	3.02e+01	59	28	0	231735296	42	6437
2026-01-15 15:39:22.91	159.75	22.87	-34.1	-35.3	29.6	3.02e+01	58	28	0	233832448	42	6342
2026-01-15 15:39:23.92	159.92	22.73	-34.2	-35.4	29.6	3.02e+01	51	28	0	235405312	42	6359
2026-01-15 15:39:24.93	160.08	22.59	-34.0	-35.2	29.6	3.02e+01	61	28	0	237502464	42	6240
2026-01-15 15:39:25.94	160.25	22.44	-34.1	-35.3	29.6	3.02e+01	62	28	0	239599616	42	6299
2026-01-15 15:39:26.95	160.41	22.30	-33.9	-35.1	29.7	3.02e+01	58	28	0	241172480	42	6158
2026-01-15 15:39:27.96	160.58	22.16	-34.1	-35.3	29.6	3.02e+01	57	28	0	243269632	42	6310
2026-01-15 15:39:28.97	160.74	22.02	-33.9	-35.1	29.8	3.02e+01	59	28	0	244842496	42	6168
2026-01-15 15:39:29.98	160.90	21.88	-34.0	-35.3	29.7	3.02e+01	58	28	0	246939648	42	6282
2026-01-15 15:39:30.99	161.06	21.74	-34.1	-35.3	29.6	3.02e+01	56	28	0	249036800	42	6281
2026-01-15 15:39:32.00	161.22	21.60	-34.1	-35.3	29.7	3.02e+01	44	28	0	250609664	42	6285
2026-01-15 15:39:33.01	161.37	21.47	-34.2	-35.4	29.5	3.02e+01	58	28	0	252706816	42	6373
2026-01-15 15:39:34.02	161.53	21.33	-34.1	-35.3	29.6	3.02e+01	58	28	0	254279680	42	6341
2026-01-15 15:39:35.03	161.68	21.19	-34.1	-35.4	29.6	3.02e+01	62	28	0	256376832	42	6352
2026-01-15 15:39:36.04	161.83	21.06	-34.1	-35.3	29.6	3.02e+01	56	28	0	258473984	42	6343
2026-01-15 15:39:37.04	161.98	20.92	-34.1	-35.4	29.5	3.02e+01	52	28	0	260046848	42	6354
2026-01-15 15:39:38.05	162.13	20.79	-34.1	-35.3	29.4	3.02e+01	57	28	0	262144000	42	6343
2026-01-15 15:39:39.06	162.28	20.65	-34.1	-35.3	29.5	3.02e+01	58	28	0	264241152	42	6284
2026-01-15 15:39:40.07	162.42	20.52	-34.0	-35.2	29.6	3.02e+01	49	28	0	265814016	42	6244
2026-01-15 15:39:41.08	162.57	20.39	-34.0	-35.2	29.7	3.02e+01	59	28	0	267911168	42	6206
2026-01-15 15:39:42.09	162.71	20.26	-33.9	-35.1	29.8	3.02e+01	60	28	0	269484032	42	6183
2026-01-15 15:39:43.10	162.85	20.12	-33.9	-35.1	29.7	3.02e+01	59	28	0	271581184	42	6201
2026-01-15 15:39:44.11	162.99	19.99	-33.8	-35.0	29.8	3.02e+01	59	28	0	273678336	42	6123
2026-01-15 15:39:45.12	163.13	19.86	-33.9	-35.0	29.7	3.02e+01	51	28	0	275251200	42	6133
2026-01-15 15:39:46.13	163.27	19.73	-33.8	-35.0	29.9	3.02e+01	60	28	0	277348352	42	6086
2026-01-15 15:39:47.13	163.41	19.60	-33.9	-35.1	29.8	3.02e+01	58	28	0	278921216	42	6142
2026-01-15 15:39:48.15	163.55	19.47	-33.8	-35.0	29.8	3.02e+01	55	28	0	281018368	42	6116
2026-01-15 15:39:49.15	163.68	19.35	-33.8	-35.0	29.8	3.02e+01	49	28	0	283115520	42	6113
2026-01-15 15:39:50.17	163.82	19.22	-33.7	-34.8	30.0	3.02e+01	46	28	0	284688384	42	5981
2026-01-15 15:39:51.18	163.95	19.09	-33.7	-34.9	29.9	3.02e+01	61	28	0	286785536	42	6055
2026-01-15 15:39:52.18	164.08	18.97	-33.8	-35.0	29.9	3.02e+01	54	28	0	288358400	42	6121
2026-01-15 15:39:53.19	164.21	18.84	-33.7	-34.9	29.9	3.02e+01	46	28	0	290455552	42	6044
2026-01-15 15:39:54.20	164.34	18.71	-33.8	-35.0	29.9	3.02e+01	58	28	0	292552704	42	6101
2026-01-15 15:39:55.21	164.47	18.59	-33.7	-34.9	30.0	3.02e+01	61	28	0	294125568	42	5997
2026-01-15 15:39:56.22	164.60	18.47	-33.7	-34.9	30.0	3.02e+01	60	28	0	296222720	42	6002
2026-01-15 15:39:57.23	164.72	18.34	-33.8	-34.9	29.9	3.02e+01	58	28	0	297795584	42	6060
2026-01-15 15:39:58.24	164.85	18.22	-33.7	-34.9	29.9	3.02e+01	59	28	0	299892736	42	6007
2026-01-15 15:39:59.25	164.97	18.10	-33.7	-34.9	29.9	3.02e+01	61	28	0	301989888	42	6048
2026-01-15 15:40:00.26	165.10	17.97	-33.7	-34.9	29.9	3.02e+01	59	28	0	303562752	42	6028
2026-01-15 15:40:01.27	165.22	17.85	-33.7	-34.9	29.9	3.02e+01	55	28	0	305659904	42	6053
2026-01-15 15:40:02.28	165.34	17.73	-33.7	-34.9	29.9	3.02e+01	59	28	0	307757056	42	6006
2026-01-15 15:40:03.29	165.46	17.61	-33.7	-34.8	30.0	3.02e+01	61	28	0	309329920	42	5983
2026-01-15 15:40:04.30	165.58	17.49	-33.6	-34.8	29.9	3.02e+01	56	28	0	311427072	42	5973
2026-01-15 15:40:05.31	165.70	17.37	-33.6	-34.8	29.9	3.02e+01	60	28	0	312999936	42	5975
2026-01-15 15:40:06.32	165.82	17.25	-33.7	-34.8	29.9	3.02e+01	45	28	0	315097088	42	5989
2026-01-15 15:40:07.33	165.93	17.13	-33.7	-34.9	29.8	3.02e+01	60	28	0	317194240	42	6044
2026-01-15 15:40:08.34	166.05	17.02	-33.7	-34.9	29.8	3.02e+01	59	28	0	318767104	42	6049
2026-01-15 15:40:09.35	166.16	16.90	-33.7	-34.9	29.8	3.02e+01	43	28	0	320864256	42	6023
2026-01-15 15:40:10.36	166.28	16.78	-33.9	-35.1	29.7	3.02e+01	58	28	0	322437120	42	6137
2026-01-15 15:40:11.37	166.39	16.67	-33.8	-35.0	29.8	3.02e+01	61	28	0	324534272	42	6099
2026-01-15 15:40:12.38	166.50	16.55	-33.9	-35.1	29.7	3.02e+01	58	28	0	326631424	42	6150
2026-01-15 15:40:13.39	166.61	16.44	-33.8	-35.0	29.8	3.02e+01	58	28	0	328204288	42	6107
2026-01-15 15:40:14.40	166.72	16.32	-33.7	-34.9	29.8	3.02e+01	50	28	0	330301440	42	6026
2026-01-15 15:40:15.41	166.83	16.21	-33.7	-34.9	29.8	3.02e+01	57	28	0	332398592	42	6048
2026-01-15 15:40:16.42	166.94	16.09	-33.8	-35.0	29.7	3.02e+01	60	28	0	333971456	42	6095
2026-01-15 15:40:17.43	167.05	15.98	-33.8	-35.0	29.7	3.02e+01	56	28	0	336068608	42	6084
2026-01-15 15:40:18.44	167.16	15.87	-33.9	-35.1	29.7	3.02e+01	58	28	0	337641472	42	6182
2026-01-15 15:40:19.45	167.26	15.76	-33.8	-34.9	29.8	3.02e+01	45	28	0	339738624	42	6044
2026-01-15 15:40:20.46	167.37	15.64	-33.7	-34.9	29.9	3.02e+01	58	28	0	341835776	42	6025
2026-01-15 15:40:21.47	167.47	15.53	-33.7	-34.8	29.8	3.02e+01	59	28	0	343408640	42	5987
2026-01-15 15:40:22.48	167.58	15.42	-33.7	-34.9	29.8	3.02e+01	47	28	0	345505792	42	6038
2026-01-15 15:40:23.49	167.68	15.31	-33.7	-34.9	29.8	3.02e+01	60	28	0	347602944	42	6002
2026-01-15 15:40:24.50	167.78	15.20	-33.8	-35.0	29.7	3.02e+01	60	28	0	349175808	42	6112
2026-01-15 15:40:25.51	167.88	15.09	-33.8	-35.0	29.8	3.02e+01	57	28	0	351272960	42	6102
2026-01-15 15:40:26.52	167.98	14.98	-33.8	-35.0	29.7	3.02e+01	58	28	0	352845824	42	6125
2026-01-15 15:40:27.53	168.08	14.87	-33.9	-35.0	29.7	3.02e+01	46	28	0	354942976	42	6132
2026-01-15 15:40:28.54	168.18	14.77	-33.9	-35.1	29.7	3.02e+01	59	28	0	357040128	42	6161
2026-01-15 15:40:29.55	168.28	14.66	-33.9	-35.1	29.6	3.02e+01	60	28	0	358612992	42	6190
2026-01-15 15:40:30.56	168.38	14.55	-34.0	-35.2	29.6	3.02e+01	45	28	0	360710144	42	6230
2026-01-15 15:40:31.57	168.48	14.45	-34.0	-35.2	29.5	3.02e+01	61	28	0	362283008	42	6235
2026-01-15 15:40:32.57	168.57	14.34	-33.9	-35.1	29.5	3.02e+01	58	28	0	364380160	42	6202
2026-01-15 15:40:33.58	168.67	14.23	-34.0	-35.2	29.5	3.02e+01	58	28	0	365953024	42	6231
2026-01-15 15:40:34.59	168.76	14.13	-34.0	-35.2	29.5	3.02e+01	59	28	0	368050176	42	6277
2026-01-15 15:40:35.60	168.86	14.02	-34.0	-35.2	29.5	3.02e+01	54	28	0	370147328	42	6252
2026-01-15 15:40:36.61	168.95	13.92	-34.1	-35.4	29.4	3.02e+01	58	28	0	371720192	42	6357
2026-01-15 15:40:37.62	169.04	13.82	-34.0	-35.2	29.5	3.02e+01	59	28	0	373817344	42	6267
2026-01-15 15:40:38.63	169.13	13.71	-34.0	-35.2	29.5	3.02e+01	46	28	0	375914496	42	6257
2026-01-15 15:40:39.64	169.23	13.61	-34.0	-35.2	29.5	3.02e+01	57	28	0	377487360	42	6267
2026-01-15 15:40:40.65	169.32	13.51	-34.1	-35.4	29.4	3.02e+01	57	28	0	379584512	42	6358
2026-01-15 15:40:41.66	169.41	13.40	-34.1	-35.3	29.4	3.02e+01	60	28	0	381157376	42	6320
2026-01-15 15:40:42.67	169.50	13.30	-34.1	-35.3	29.4	3.02e+01	56	28	0	383254528	42	6348
2026-01-15 15:40:43.68	169.59	13.20	-34.1	-35.3	29.4	3.02e+01	45	28	0	385351680	42	6308
2026-01-15 15:40:44.69	169.67	13.10	-34.1	-35.4	29.4	3.02e+01	61	28	0	386924544	42	6357
2026-01-15 15:40:45.70	169.76	13.00	-34.1	-35.3	29.4	3.02e+01	62	28	0	389021696	42	6325
2026-01-15 15:40:46.71	169.85	12.90	-34.1	-35.3	29.4	3.02e+01	45	28	0	390594560	42	6283
2026-01-15 15:40:47.72	169.94	12.80	-34.2	-35.4	29.3	3.02e+01	59	28	0	392691712	42	6405
2026-01-15 15:40:48.73	170.02	12.70	-34.3	-35.5	29.3	3.02e+01	58	28	0	394788864	42	6440
2026-01-15 15:40:49.74	170.11	12.60	-34.1	-35.3	29.4	3.02e+01	51	28	0	396361728	42	6335
2026-01-15 15:40:50.75	170.19	12.50	-34.2	-35.4	29.3	3.02e+01	60	28	0	398458880	42	6377
2026-01-15 15:40:51.76	170.28	12.40	-34.1	-35.3	29.3	3.02e+01	53	28	0	400556032	42	6348
2026-01-15 15:40:52.77	170.36	12.31	-34.3	-35.5	29.2	3.02e+01	60	28	0	402128896	42	6486
2026-01-15 15:40:53.78	170.44	12.21	-34.2	-35.4	29.3	3.02e+01	59	28	0	404226048	42	6388
2026-01-15 15:40:54.79	170.53	12.11	-34.3	-35.5	29.2	3.02e+01	45	28	0	405798912	42	6495
2026-01-15 15:40:55.80	170.61	12.01	-34.3	-35.5	29.3	3.02e+01	57	28	0	407896064	42	6463
2026-01-15 15:40:56.80	170.69	11.92	-34.2	-35.4	29.3	3.02e+01	53	28	0	409993216	42	6400
2026-01-15 15:40:57.81	170.77	11.82	-34.3	-35.5	29.2	3.02e+01	57	28	0	411566080	42	6468
2026-01-15 15:40:58.82	170.85	11.73	-34.3	-35.5	29.2	3.02e+01	62	28	0	413663232	42	6495
2026-01-15 15:40:59.83	170.93	11.63	-34.3	-35.6	29.2	3.02e+01	55	28	0	415236096	42	6512
2026-01-15 15:41:00.84	171.01	11.54	-34.4	-35.6	29.1	3.02e+01	56	28	0	417333248	42	6550
2026-01-15 15:41:01.85	171.09	11.44	-34.5	-35.7	29.1	3.02e+01	58	28	0	419430400	42	6620
2026-01-15 15:41:02.85	171.16	11.35	-34.3	-35.6	29.1	3.02e+01	60	28	0	421003264	42	6515
2026-01-15 15:41:03.86	171.24	11.26	-34.5	-35.7	29.0	3.02e+01	59	28	0	423100416	42	6625
2026-01-15 15:41:04.87	171.32	11.16	-34.4	-35.6	29.1	3.02e+01	43	28	0	424673280	42	6516
2026-01-15 15:41:05.88	171.40	11.07	-34.5	-35.8	28.9	3.02e+01	56	28	0	426770432	42	6668
2026-01-15 15:41:06.89	171.47	10.98	-34.5	-35.7	29.0	3.02e+01	56	28	0	428867584	42	6640
2026-01-15 15:41:07.90	171.55	10.88	-34.4	-35.7	29.0	3.02e+01	51	28	0	430440448	42	6580
2026-01-15 15:41:08.91	171.62	10.79	-34.5	-35.8	28.9	3.02e+01	62	28	0	432537600	42	6654
2026-01-15 15:41:09.92	171.70	10.70	-34.6	-35.8	28.8	3.02e+01	59	28	0	434110464	42	6705
2026-01-15 15:41:10.93	171.77	10.61	-34.6	-35.8	28.9	3.02e+01	57	28	0	436207616	42	6690
2026-01-15 15:41:11.94	171.85	10.52	-34.7	-35.9	28.8	3.02e+01	60	28	0	438304768	42	6779
2026-01-15 15:41:12.95	171.92	10.43	-34.6	-35.9	28.8	3.02e+01	58	28	0	439877632	42	6733
2026-01-15 15:41:13.96	171.99	10.34	-34.8	-36.1	28.7	3.02e+01	59	28	0	441974784	42	6884
2026-01-15 15:41:14.97	172.06	10.25	-34.8	-36.0	28.6	3.02e+01	59	28	0	443547648	42	6871
2026-01-15 15:41:15.98	172.14	10.16	-34.9	-36.1	28.6	3.02e+01	49	28	0	445644800	44	6188
2026-01-15 15:41:16.99	172.21	10.07	-34.9	-36.2	28.5	3.02e+01	58	28	0	447741952	44	6236
2026-01-15 15:41:18.00	172.28	9.98	-34.8	-36.1	28.6	3.02e+01	62	28	0	449314816	44	6135
2026-01-15 15:41:19.01	172.35	9.89	-34.9	-36.2	28.4	3.02e+01	59	28	0	451411968	44	6231
2026-01-15 15:41:20.02	172.42	9.80	-34.8	-36.1	28.5	3.02e+01	56	28	0	453509120	44	6148
2026-01-15 15:41:21.03	172.49	9.71	-34.8	-36.0	28.6	3.02e+01	50	28	0	455081984	44	6106
2026-01-15 15:41:22.04	172.56	9.63	-34.9	-36.2	28.5	3.02e+01	57	28	0	457179136	44	6219
2026-01-15 15:41:23.05	172.63	9.54	-34.9	-36.1	28.4	3.02e+01	61	28	0	458752000	44	6196
2026-01-15 15:41:24.06	172.70	9.45	-34.9	-36.2	28.4	3.02e+01	46	28	0	460849152	44	6253
2026-01-15 15:41:25.07	172.76	9.36	-34.9	-36.1	28.5	3.02e+01	56	28	0	462946304	44	6188
2026-01-15 15:41:26.08	172.83	9.28	-34.9	-36.1	28.5	3.02e+01	57	28	0	464519168	44	6193
2026-01-15 15:41:27.08	172.90	9.19	-34.8	-36.1	28.5	3.02e+01	60	28	0	466616320	44	6175
2026-01-15 15:41:28.10	172.97	9.11	-34.9	-36.2	28.4	3.02e+01	58	28	0	468713472	44	6207
2026-01-15 15:41:29.11	173.03	9.02	-34.9	-36.1	28.4	3.02e+01	53	28	0	470286336	44	6196
2026-01-15 15:41:30.12	173.10	8.93	-34.9	-36.2	28.4	3.02e+01	61	28	0	472383488	44	6225
2026-01-15 15:41:31.12	173.16	8.85	-35.0	-36.3	28.3	3.02e+01	61	28	0	473956352	44	6284
2026-01-15 15:41:32.13	173.23	8.77	-34.9	-36.2	28.4	3.02e+01	49	28	0	476053504	44	6224
2026-01-15 15:41:33.14	173.29	8.68	-35.0	-36.3	28.4	3.02e+01	60	28	0	478150656	44	6291
2026-01-15 15:41:34.15	173.36	8.60	-35.0	-36.2	28.4	3.02e+01	46	28	0	479723520	44	6273
2026-01-15 15:41:35.16	173.42	8.51	-35.1	-36.4	28.3	3.02e+01	61	28	0	481820672	44	6353
2026-01-15 15:41:36.17	173.49	8.43	-35.1	-36.3	28.2	3.02e+01	60	28	0	483393536	44	6343
