passes_logs/2026/01/15/R4.6S_Anadyr/R4.6S_Anadyr__20260115_011943_NOAA_20_JPSS-1_rec.log

#Pass ID: 20260115_011943_NOAA 20 (JPSS-1)
#Satellite: NOAA 20 (JPSS-1)
#Configuration: NOAA 20
#almurnet v.1.7.20251203
#Start time: 2026-01-15 01:19:44

#Version: 2.2.20231116
#Station: R4.6S_Anadyr
#Location: 177.4865 lon 64.73178 lat
#TLE: 1 43013U 17073A   26014.55467351  .00000038  00000+0  38801-4 0  9992
#TLE: 2 43013  98.7635 315.4987 0001517  39.9279 320.2008 14.19535859422677

#Time	Az	El	Level	Level2	SNR	BER	BlckErr	Temp	State	Recorded	gain1	gain2
2026-01-15 01:19:44.71	184.44	0.05	-48.9	-63.8	3.5	1.51e+00	0	27	0	0	60	56120
2026-01-15 01:19:45.72	184.48	0.11	-49.0	-64.2	3.6	1.51e+00	0	28	104	0	60	58400
2026-01-15 01:19:46.73	184.52	0.16	-48.8	-64.1	3.6	1.51e+00	0	28	104	0	60	57998
2026-01-15 01:19:47.74	184.55	0.22	-48.9	-64.1	3.6	1.51e+00	0	28	104	0	60	57850
2026-01-15 01:19:48.75	184.59	0.28	-48.9	-64.2	3.6	1.51e+00	0	28	104	0	60	58627
2026-01-15 01:19:49.76	184.63	0.34	-49.0	-64.1	3.6	1.51e+00	0	28	104	0	60	58208
2026-01-15 01:19:50.77	184.66	0.40	-49.0	-64.1	3.6	1.51e+00	0	28	104	0	60	58175
2026-01-15 01:19:51.78	184.70	0.46	-49.0	-64.2	3.6	1.51e+00	0	28	104	0	60	58398
2026-01-15 01:19:52.79	184.74	0.52	-49.0	-64.2	3.6	1.51e+00	0	28	104	0	60	58527
2026-01-15 01:19:53.80	184.78	0.58	-48.9	-64.1	3.6	1.51e+00	0	28	104	0	60	58088
2026-01-15 01:19:54.81	184.82	0.64	-48.9	-64.2	3.6	1.51e+00	0	28	104	0	60	58427
2026-01-15 01:19:55.82	184.86	0.69	-48.7	-63.9	3.6	1.51e+00	0	28	104	0	60	56870
2026-01-15 01:19:56.83	184.89	0.75	-48.5	-63.7	3.5	1.51e+00	0	28	104	0	60	55520
2026-01-15 01:19:57.84	184.93	0.81	-48.2	-63.5	3.6	1.51e+00	0	28	104	0	60	53974
2026-01-15 01:19:58.85	184.97	0.87	-47.8	-63.0	3.6	1.51e+00	0	28	104	0	60	51118
2026-01-15 01:19:59.86	185.01	0.93	-47.6	-62.7	3.6	1.51e+00	0	28	104	0	60	49232
2026-01-15 01:20:00.87	185.05	0.99	-47.6	-62.7	3.6	1.51e+00	0	28	104	0	60	49364
2026-01-15 01:20:01.88	185.09	1.05	-47.6	-62.7	3.6	1.51e+00	0	28	104	0	60	49564
2026-01-15 01:20:02.89	185.13	1.11	-47.6	-62.7	3.6	1.51e+00	0	28	104	0	60	49310
2026-01-15 01:20:03.90	185.17	1.17	-47.6	-62.8	3.6	1.51e+00	0	28	104	0	60	49625
2026-01-15 01:20:04.91	185.21	1.23	-47.6	-62.7	3.6	1.51e+00	0	28	104	0	60	49577
2026-01-15 01:20:05.92	185.25	1.29	-47.6	-62.8	3.6	1.51e+00	0	28	104	0	60	49712
2026-01-15 01:20:06.92	185.29	1.35	-47.6	-62.7	3.6	1.51e+00	0	28	104	0	60	49555
2026-01-15 01:20:07.94	185.33	1.42	-47.6	-62.8	3.6	1.51e+00	0	28	104	0	60	49673
2026-01-15 01:20:08.95	185.37	1.48	-47.6	-62.7	3.6	1.51e+00	0	29	104	0	60	49452
2026-01-15 01:20:09.96	185.41	1.54	-47.6	-62.7	3.6	1.51e+00	0	29	104	0	60	49243
2026-01-15 01:20:10.97	185.45	1.60	-47.6	-62.7	3.6	1.51e+00	0	28	104	0	60	49411
2026-01-15 01:20:11.98	185.49	1.66	-47.6	-62.6	3.6	1.51e+00	0	29	104	0	60	49020
2026-01-15 01:20:12.99	185.53	1.72	-47.6	-62.6	3.6	1.51e+00	0	28	104	0	60	48795
2026-01-15 01:20:14.00	185.57	1.78	-47.6	-62.7	3.6	1.51e+00	0	28	104	0	60	49328
2026-01-15 01:20:15.01	185.61	1.85	-47.6	-62.7	3.6	1.51e+00	0	29	104	0	60	49459
2026-01-15 01:20:16.02	185.65	1.91	-47.6	-62.7	3.6	1.51e+00	0	29	104	0	60	49297
2026-01-15 01:20:17.03	185.69	1.97	-47.6	-62.7	3.6	1.51e+00	0	29	104	0	60	49424
2026-01-15 01:20:18.04	185.73	2.03	-47.6	-62.7	3.6	1.51e+00	0	29	104	0	60	49325
2026-01-15 01:20:19.05	185.78	2.09	-47.6	-62.7	3.6	1.51e+00	0	29	104	0	60	49199
2026-01-15 01:20:20.06	185.82	2.15	-47.6	-62.7	3.6	1.51e+00	0	29	104	0	60	49200
2026-01-15 01:20:21.06	185.86	2.22	-47.6	-62.7	3.6	1.51e+00	0	29	104	0	60	49158
2026-01-15 01:20:22.07	185.90	2.28	-47.6	-62.7	3.6	1.51e+00	0	29	104	0	60	49497
2026-01-15 01:20:23.08	185.94	2.34	-47.6	-62.7	3.6	1.51e+00	0	29	104	0	60	49436
2026-01-15 01:20:24.09	185.99	2.40	-47.6	-62.6	3.6	1.51e+00	0	29	104	0	60	48528
2026-01-15 01:20:25.10	186.03	2.47	-47.6	-62.3	3.6	1.51e+00	0	29	104	0	60	46862
2026-01-15 01:20:26.11	186.07	2.53	-47.5	-61.8	3.6	1.51e+00	0	29	104	0	60	44310
2026-01-15 01:20:27.12	186.12	2.59	-47.5	-61.6	3.6	1.51e+00	0	29	104	0	60	43695
2026-01-15 01:20:28.13	186.16	2.66	-47.5	-61.8	3.5	1.51e+00	0	29	104	0	60	44525
2026-01-15 01:20:29.14	186.20	2.72	-47.6	-62.1	3.6	1.51e+00	0	29	104	0	60	45938
2026-01-15 01:20:30.15	186.25	2.78	-47.5	-61.6	3.6	1.51e+00	0	29	104	0	60	43397
2026-01-15 01:20:31.16	186.29	2.85	-47.4	-59.2	4.0	1.50e+00	0	29	104	0	60	32969
2026-01-15 01:20:32.17	186.33	2.91	-47.0	-55.1	5.9	7.85e-01	0	29	0	0	60	20467
2026-01-15 01:20:33.18	186.38	2.97	-46.6	-52.7	8.5	6.74e-02	0	29	0	2097152	60	15563
2026-01-15 01:20:34.19	186.42	3.04	-45.7	-50.1	11.5	3.93e-03	0	29	0	4194304	60	11587
2026-01-15 01:20:35.20	186.47	3.10	-44.7	-48.0	13.8	9.38e-05	0	29	0	6291456	60	9061
2026-01-15 01:20:36.21	186.51	3.17	-43.9	-46.6	15.3	0.00e+00	0	29	0	7340032	60	7701
2026-01-15 01:20:37.22	186.56	3.23	-43.0	-45.2	16.6	0.00e+00	0	29	0	9437184	60	6607
2026-01-15 01:20:38.23	186.60	3.30	-42.3	-44.2	17.4	0.00e+00	0	29	0	11534336	58	6614
2026-01-15 01:20:39.24	186.65	3.36	-42.2	-44.1	17.6	0.00e+00	0	29	0	13631488	58	6529
2026-01-15 01:20:40.24	186.69	3.43	-42.3	-44.3	17.3	0.00e+00	0	29	0	15728640	58	6662
2026-01-15 01:20:41.25	186.74	3.49	-42.7	-44.9	16.7	0.00e+00	0	29	0	16777216	58	7092
2026-01-15 01:20:42.26	186.78	3.56	-43.0	-45.1	16.8	0.00e+00	0	29	0	18874368	58	7334
2026-01-15 01:20:43.27	186.83	3.62	-41.8	-43.5	18.3	0.00e+00	0	29	0	20971520	56	6806
2026-01-15 01:20:44.28	186.87	3.69	-42.4	-44.3	17.9	0.00e+00	0	29	0	23068672	60	5943
2026-01-15 01:20:45.29	186.92	3.75	-47.5	-61.3	3.6	5.72e-01	0	29	104	24117248	60	41874
2026-01-15 01:20:46.30	186.97	3.82	-46.4	-52.6	5.4	1.50e+00	0	29	104	24117248	60	15484
2026-01-15 01:20:47.31	187.01	3.88	-43.9	-46.6	15.3	6.29e-01	0	29	104	24117248	60	7739
2026-01-15 01:20:48.32	187.06	3.95	-42.0	-43.7	18.1	0.00e+00	0	29	0	25165824	58	6237
2026-01-15 01:20:49.33	187.11	4.02	-41.9	-43.7	18.3	0.00e+00	0	29	0	27262976	58	6194
2026-01-15 01:20:50.34	187.16	4.08	-41.9	-43.7	18.2	0.00e+00	0	29	0	28311552	58	6206
2026-01-15 01:20:51.35	187.20	4.15	-41.6	-43.2	18.7	0.00e+00	0	29	0	30408704	56	6594
2026-01-15 01:20:52.35	187.25	4.21	-41.8	-43.4	18.5	0.00e+00	0	29	0	32505856	56	6767
2026-01-15 01:20:53.36	187.30	4.28	-41.7	-43.4	18.7	0.00e+00	0	29	0	34603008	56	6696
2026-01-15 01:20:54.37	187.35	4.35	-41.9	-43.7	18.5	0.00e+00	0	29	0	36700160	56	6931
2026-01-15 01:20:55.38	187.39	4.42	-41.8	-43.5	18.5	0.00e+00	0	29	0	37748736	56	6782
2026-01-15 01:20:56.39	187.44	4.48	-41.6	-43.2	18.9	0.00e+00	0	29	0	39845888	56	6597
2026-01-15 01:20:57.40	187.49	4.55	-41.7	-43.4	18.5	0.00e+00	0	29	0	41943040	56	6693
2026-01-15 01:20:58.41	187.54	4.62	-41.5	-43.1	19.0	0.00e+00	0	29	0	44040192	56	6466
2026-01-15 01:20:59.42	187.59	4.69	-41.4	-42.9	19.2	0.00e+00	0	29	0	46137344	56	6354
2026-01-15 01:21:00.43	187.64	4.75	-41.5	-43.1	18.9	0.00e+00	0	29	0	47185920	56	6485
2026-01-15 01:21:01.44	187.69	4.82	-41.5	-43.1	19.0	0.00e+00	0	29	0	49283072	56	6524
2026-01-15 01:21:02.45	187.74	4.89	-41.4	-42.9	19.1	0.00e+00	0	29	0	51380224	56	6379
2026-01-15 01:21:03.46	187.79	4.96	-41.4	-43.0	19.0	0.00e+00	0	29	0	53477376	56	6405
2026-01-15 01:21:04.47	187.84	5.03	-41.5	-43.1	18.9	0.00e+00	0	29	0	55574528	56	6515
2026-01-15 01:21:05.48	187.89	5.09	-41.3	-42.9	19.2	0.00e+00	0	29	0	56623104	56	6339
2026-01-15 01:21:06.49	187.94	5.16	-41.4	-43.0	19.0	0.00e+00	0	29	0	58720256	56	6399
2026-01-15 01:21:07.50	187.99	5.23	-41.3	-42.9	19.2	0.00e+00	0	29	0	60817408	56	6319
2026-01-15 01:21:08.51	188.04	5.30	-41.2	-42.7	19.4	0.00e+00	0	29	0	62914560	56	6245
2026-01-15 01:21:09.52	188.09	5.37	-41.1	-42.6	19.4	0.00e+00	0	29	0	65011712	56	6163
2026-01-15 01:21:10.53	188.15	5.44	-41.1	-42.6	19.5	0.00e+00	0	29	0	67108864	56	6151
2026-01-15 01:21:11.53	188.20	5.51	-41.2	-42.7	19.4	0.00e+00	0	29	0	68157440	56	6177
2026-01-15 01:21:12.54	188.25	5.58	-41.3	-42.8	19.3	0.00e+00	0	29	0	70254592	56	6261
2026-01-15 01:21:13.55	188.30	5.65	-41.0	-42.5	19.7	0.00e+00	0	29	0	72351744	56	6049
2026-01-15 01:21:14.56	188.35	5.72	-41.0	-42.5	19.7	0.00e+00	0	29	0	74448896	56	6044
2026-01-15 01:21:15.57	188.41	5.79	-41.0	-42.5	19.7	0.00e+00	0	29	0	76546048	56	6038
2026-01-15 01:21:16.58	188.46	5.86	-41.0	-42.4	19.7	0.00e+00	0	29	0	77594624	56	6015
2026-01-15 01:21:17.59	188.51	5.93	-40.9	-42.4	19.8	0.00e+00	0	29	0	79691776	56	5967
2026-01-15 01:21:18.60	188.57	6.00	-40.9	-42.3	19.8	0.00e+00	0	29	0	81788928	56	5930
2026-01-15 01:21:19.61	188.62	6.07	-41.0	-42.4	19.8	0.00e+00	0	29	0	83886080	56	5994
2026-01-15 01:21:20.62	188.67	6.14	-40.7	-42.1	19.9	0.00e+00	0	29	0	84934656	54	6518
2026-01-15 01:21:21.63	188.73	6.21	-40.8	-42.2	19.9	0.00e+00	0	29	0	87031808	54	6559
2026-01-15 01:21:22.64	188.78	6.29	-40.6	-41.9	20.2	0.00e+00	0	29	0	89128960	54	6356
2026-01-15 01:21:23.65	188.84	6.36	-40.5	-41.9	20.2	0.00e+00	0	29	0	91226112	54	6333
2026-01-15 01:21:24.66	188.89	6.43	-40.6	-42.0	20.1	0.00e+00	0	29	0	93323264	54	6421
2026-01-15 01:21:25.67	188.95	6.50	-40.8	-42.1	19.9	0.00e+00	0	29	0	95420416	54	6524
2026-01-15 01:21:26.68	189.00	6.57	-40.6	-41.9	20.1	0.00e+00	0	29	0	96468992	54	6345
2026-01-15 01:21:27.69	189.06	6.65	-40.6	-41.9	20.2	0.00e+00	0	29	0	98566144	54	6388
2026-01-15 01:21:28.70	189.11	6.72	-40.6	-41.9	20.3	0.00e+00	0	29	0	100663296	54	6348
2026-01-15 01:21:29.71	189.17	6.79	-40.5	-41.8	20.3	0.00e+00	0	29	0	102760448	54	6253
2026-01-15 01:21:30.71	189.23	6.86	-40.4	-41.7	20.3	0.00e+00	0	29	0	104857600	54	6235
2026-01-15 01:21:31.72	189.28	6.94	-40.4	-41.6	20.4	0.00e+00	0	29	0	105906176	54	6172
2026-01-15 01:21:32.73	189.34	7.01	-40.4	-41.7	20.4	0.00e+00	0	29	0	108003328	54	6202
2026-01-15 01:21:33.74	189.40	7.08	-40.4	-41.7	20.5	0.00e+00	0	29	0	110100480	54	6178
2026-01-15 01:21:34.75	189.45	7.16	-40.5	-41.8	20.3	0.00e+00	0	29	0	112197632	54	6303
2026-01-15 01:21:35.76	189.51	7.23	-40.4	-41.7	20.4	0.00e+00	0	29	0	114294784	54	6177
2026-01-15 01:21:36.77	189.57	7.31	-40.3	-41.5	20.7	0.00e+00	0	29	0	115343360	54	6085
2026-01-15 01:21:37.78	189.63	7.38	-40.3	-41.6	20.6	0.00e+00	0	29	0	117440512	54	6123
2026-01-15 01:21:38.79	189.69	7.45	-40.4	-41.7	20.5	0.00e+00	0	29	0	119537664	54	6232
2026-01-15 01:21:39.80	189.75	7.53	-40.5	-41.7	20.4	0.00e+00	0	29	0	121634816	54	6245
2026-01-15 01:21:40.81	189.81	7.60	-40.4	-41.7	20.5	0.00e+00	0	29	0	123731968	54	6191
2026-01-15 01:21:41.81	189.86	7.68	-40.6	-41.9	20.4	0.00e+00	0	29	0	124780544	54	6353
2026-01-15 01:21:42.82	189.92	7.75	-40.4	-41.7	20.5	0.00e+00	0	29	0	126877696	54	6223
2026-01-15 01:21:43.83	189.98	7.83	-40.3	-41.6	20.6	0.00e+00	0	29	0	128974848	54	6157
2026-01-15 01:21:44.84	190.05	7.90	-40.3	-41.5	20.8	0.00e+00	0	29	0	131072000	54	6082
2026-01-15 01:21:45.85	190.11	7.98	-40.1	-41.4	20.8	0.00e+00	0	29	0	133169152	54	5976
2026-01-15 01:21:46.85	190.17	8.06	-40.0	-41.2	21.0	0.00e+00	0	29	0	134217728	54	5869
2026-01-15 01:21:47.86	190.23	8.13	-40.0	-41.2	21.0	0.00e+00	0	29	0	136314880	54	5869
2026-01-15 01:21:48.87	190.29	8.21	-39.8	-41.0	21.2	0.00e+00	0	29	0	138412032	54	5726
2026-01-15 01:21:49.88	190.35	8.28	-39.9	-41.1	21.1	0.00e+00	0	29	0	140509184	54	5772
2026-01-15 01:21:50.89	190.41	8.36	-39.8	-41.0	21.2	0.00e+00	0	29	0	142606336	52	6410
2026-01-15 01:21:51.90	190.48	8.44	-39.8	-41.0	21.2	0.00e+00	0	29	0	143654912	52	6446
2026-01-15 01:21:52.91	190.54	8.52	-39.8	-41.0	21.2	0.00e+00	0	29	0	145752064	52	6400
2026-01-15 01:21:53.92	190.60	8.59	-39.7	-40.9	21.4	0.00e+00	0	29	0	147849216	52	6344
2026-01-15 01:21:54.93	190.67	8.67	-39.7	-40.8	21.3	0.00e+00	0	29	0	149946368	52	6282
2026-01-15 01:21:55.94	190.73	8.75	-39.6	-40.8	21.5	0.00e+00	0	29	0	152043520	52	6255
2026-01-15 01:21:56.95	190.79	8.83	-39.6	-40.8	21.4	0.00e+00	0	29	0	153092096	52	6262
2026-01-15 01:21:57.95	190.86	8.90	-39.6	-40.7	21.5	0.00e+00	0	29	0	155189248	52	6245
2026-01-15 01:21:58.96	190.92	8.98	-39.7	-40.8	21.5	0.00e+00	0	29	0	157286400	52	6278
2026-01-15 01:21:59.97	190.99	9.06	-39.7	-40.8	21.5	0.00e+00	0	29	0	159383552	52	6283
2026-01-15 01:22:00.98	191.05	9.14	-39.5	-40.6	21.6	0.00e+00	0	29	0	161480704	52	6165
2026-01-15 01:22:01.99	191.12	9.22	-39.5	-40.6	21.7	0.00e+00	0	29	0	163577856	52	6141
2026-01-15 01:22:03.00	191.18	9.30	-39.4	-40.5	21.7	0.00e+00	0	29	0	164626432	52	6076
2026-01-15 01:22:04.01	191.25	9.38	-39.5	-40.6	21.6	0.00e+00	0	29	0	166723584	52	6152
2026-01-15 01:22:05.02	191.32	9.46	-39.5	-40.6	21.7	0.00e+00	0	29	0	168820736	52	6155
2026-01-15 01:22:06.02	191.38	9.54	-39.4	-40.5	21.7	0.00e+00	0	29	0	170917888	52	6088
2026-01-15 01:22:07.03	191.45	9.62	-39.4	-40.5	21.8	0.00e+00	0	29	0	173015040	52	6091
2026-01-15 01:22:08.04	191.52	9.70	-39.3	-40.4	21.8	0.00e+00	0	29	0	174063616	52	5976
2026-01-15 01:22:09.05	191.59	9.78	-39.5	-40.6	21.7	0.00e+00	0	29	0	176160768	52	6132
2026-01-15 01:22:10.06	191.66	9.86	-39.5	-40.6	21.7	0.00e+00	0	29	0	178257920	52	6122
2026-01-15 01:22:11.07	191.72	9.94	-39.3	-40.4	21.9	0.00e+00	0	29	0	180355072	52	6000
2026-01-15 01:22:12.08	191.79	10.02	-39.4	-40.5	21.8	0.00e+00	0	29	0	182452224	52	6064
2026-01-15 01:22:13.09	191.86	10.11	-39.3	-40.4	21.9	0.00e+00	0	29	0	183500800	52	5988
2026-01-15 01:22:14.10	191.93	10.19	-39.2	-40.2	22.0	0.00e+00	0	29	0	185597952	52	5882
2026-01-15 01:22:15.11	192.00	10.27	-39.3	-40.3	21.9	0.00e+00	0	29	0	187695104	52	5953
2026-01-15 01:22:16.12	192.07	10.35	-39.2	-40.3	22.0	0.00e+00	0	29	0	189792256	52	5898
2026-01-15 01:22:17.13	192.15	10.44	-39.1	-40.2	22.0	0.00e+00	0	29	0	191889408	52	5863
2026-01-15 01:22:18.14	192.22	10.52	-39.2	-40.3	22.0	0.00e+00	0	29	0	192937984	52	5928
2026-01-15 01:22:19.14	192.29	10.60	-39.3	-40.4	21.9	0.00e+00	0	29	0	195035136	52	5983
2026-01-15 01:22:20.15	192.36	10.68	-39.1	-40.2	22.1	0.00e+00	0	29	0	197132288	52	5843
2026-01-15 01:22:21.16	192.43	10.77	-39.1	-40.1	22.1	0.00e+00	0	29	0	199229440	52	5825
2026-01-15 01:22:22.17	192.51	10.85	-39.1	-40.2	22.1	0.00e+00	0	29	0	201326592	52	5837
2026-01-15 01:22:23.18	192.58	10.94	-39.0	-40.1	22.1	0.00e+00	0	29	0	202375168	52	5784
2026-01-15 01:22:24.19	192.65	11.02	-39.0	-40.0	22.3	0.00e+00	0	29	0	204472320	52	5731
2026-01-15 01:22:25.20	192.73	11.11	-38.9	-39.9	22.4	0.00e+00	0	29	0	206569472	52	5654
2026-01-15 01:22:26.21	192.80	11.19	-38.9	-39.9	22.4	0.00e+00	0	29	0	208666624	52	5667
2026-01-15 01:22:27.22	192.88	11.28	-38.8	-39.8	22.5	0.00e+00	0	29	0	210763776	50	6271
2026-01-15 01:22:28.23	192.95	11.36	-38.7	-39.7	22.6	0.00e+00	0	29	0	211812352	50	6206
2026-01-15 01:22:29.24	193.03	11.45	-38.7	-39.7	22.6	0.00e+00	0	29	0	213909504	50	6203
2026-01-15 01:22:30.25	193.11	11.53	-38.7	-39.7	22.5	0.00e+00	0	29	0	216006656	50	6213
2026-01-15 01:22:31.25	193.18	11.62	-38.6	-39.6	22.7	0.00e+00	0	29	0	218103808	50	6158
2026-01-15 01:22:32.26	193.26	11.70	-38.8	-39.8	22.5	0.00e+00	0	29	0	220200960	50	6255
2026-01-15 01:22:33.27	193.34	11.79	-38.6	-39.6	22.7	0.00e+00	0	29	0	221249536	50	6157
2026-01-15 01:22:34.28	193.41	11.88	-38.6	-39.6	22.7	0.00e+00	0	29	0	223346688	50	6104
2026-01-15 01:22:35.29	193.49	11.96	-38.5	-39.5	22.7	0.00e+00	0	29	0	225443840	50	6080
2026-01-15 01:22:36.30	193.57	12.05	-38.5	-39.5	22.7	0.00e+00	0	29	0	227540992	50	6079
2026-01-15 01:22:37.31	193.65	12.14	-38.5	-39.5	22.7	0.00e+00	0	29	0	229638144	50	6090
2026-01-15 01:22:38.32	193.73	12.23	-38.6	-39.6	22.7	0.00e+00	0	29	0	230686720	50	6109
2026-01-15 01:22:39.33	193.81	12.32	-38.5	-39.5	22.8	0.00e+00	0	29	0	232783872	50	6060
2026-01-15 01:22:40.34	193.89	12.41	-38.5	-39.5	22.8	0.00e+00	0	29	0	234881024	50	6063
2026-01-15 01:22:41.35	193.97	12.49	-38.5	-39.5	22.8	0.00e+00	0	29	0	236978176	50	6073
2026-01-15 01:22:42.36	194.05	12.58	-38.5	-39.5	22.8	0.00e+00	0	29	0	239075328	50	6049
2026-01-15 01:22:43.37	194.14	12.67	-38.4	-39.4	22.9	0.00e+00	0	29	0	240123904	50	5989
2026-01-15 01:22:44.38	194.22	12.76	-38.4	-39.4	22.9	0.00e+00	0	29	0	242221056	50	5980
2026-01-15 01:22:45.39	194.30	12.85	-38.5	-39.5	22.8	0.00e+00	0	29	0	244318208	50	6036
2026-01-15 01:22:46.40	194.39	12.94	-38.3	-39.3	23.0	0.00e+00	0	29	0	246415360	50	5907
2026-01-15 01:22:47.41	194.47	13.03	-38.4	-39.3	22.9	0.00e+00	0	29	0	248512512	50	5962
2026-01-15 01:22:48.41	194.55	13.12	-38.4	-39.4	22.8	0.00e+00	0	29	0	249561088	50	5992
2026-01-15 01:22:49.42	194.64	13.21	-38.5	-39.4	22.9	0.00e+00	0	29	0	251658240	50	6015
2026-01-15 01:22:50.43	194.72	13.31	-38.4	-39.4	22.9	0.00e+00	0	29	0	253755392	50	5994
2026-01-15 01:22:51.44	194.81	13.40	-38.5	-39.5	22.9	0.00e+00	0	29	0	255852544	50	6055
2026-01-15 01:22:52.45	194.90	13.49	-38.5	-39.5	22.9	0.00e+00	0	29	0	257949696	50	6039
2026-01-15 01:22:53.46	194.98	13.58	-38.5	-39.5	22.8	0.00e+00	0	29	0	260046848	50	6073
2026-01-15 01:22:54.47	195.07	13.67	-38.4	-39.4	23.0	0.00e+00	0	29	0	261095424	50	5994
2026-01-15 01:22:55.48	195.16	13.77	-38.1	-39.1	23.2	0.00e+00	0	29	0	263192576	50	5770
2026-01-15 01:22:56.49	195.25	13.86	-38.2	-39.2	23.1	0.00e+00	0	29	0	265289728	50	5836
2026-01-15 01:22:57.50	195.34	13.95	-38.1	-39.1	23.2	0.00e+00	0	29	0	267386880	50	5770
2026-01-15 01:22:58.50	195.43	14.05	-38.2	-39.2	23.1	0.00e+00	0	29	0	269484032	50	5840
2026-01-15 01:22:59.51	195.52	14.14	-38.1	-39.1	23.2	0.00e+00	0	29	0	270532608	50	5779
2026-01-15 01:23:00.52	195.61	14.23	-38.1	-39.1	23.2	0.00e+00	0	29	0	272629760	50	5782
2026-01-15 01:23:01.53	195.70	14.33	-38.0	-39.0	23.1	0.00e+00	0	29	0	274726912	50	5715
2026-01-15 01:23:02.54	195.79	14.42	-38.0	-38.9	23.3	0.00e+00	0	29	0	276824064	50	5678
2026-01-15 01:23:03.55	195.88	14.52	-38.0	-38.9	23.3	0.00e+00	0	29	0	278921216	50	5687
2026-01-15 01:23:04.56	195.98	14.62	-37.9	-38.8	23.4	0.00e+00	0	29	0	279969792	50	5623
2026-01-15 01:23:05.57	196.07	14.71	-37.9	-38.8	23.4	0.00e+00	0	29	0	282066944	50	5599
2026-01-15 01:23:06.58	196.16	14.81	-38.0	-38.9	23.3	0.00e+00	0	29	0	284164096	50	5691
2026-01-15 01:23:07.59	196.26	14.90	-38.0	-38.9	23.3	0.00e+00	0	29	0	286261248	50	5693
2026-01-15 01:23:08.60	196.35	15.00	-38.1	-39.0	23.4	0.00e+00	0	29	0	288358400	50	5717
2026-01-15 01:23:09.61	196.45	15.10	-37.9	-38.8	23.5	0.00e+00	0	29	0	289406976	50	5585
2026-01-15 01:23:10.61	196.55	15.19	-38.0	-38.9	23.3	0.00e+00	0	29	0	291504128	50	5668
2026-01-15 01:23:11.63	196.64	15.29	-38.1	-39.0	23.2	0.00e+00	0	29	0	293601280	50	5760
2026-01-15 01:23:12.63	196.74	15.39	-38.2	-39.1	23.1	0.00e+00	0	29	0	295698432	50	5823
2026-01-15 01:23:13.64	196.84	15.49	-37.9	-38.9	23.3	0.00e+00	0	29	0	297795584	50	5680
2026-01-15 01:23:14.65	196.94	15.59	-37.9	-39.0	23.2	0.00e+00	0	29	0	298844160	50	5736
2026-01-15 01:23:15.66	197.04	15.69	-37.9	-39.2	23.0	0.00e+00	0	29	0	300941312	50	5895
2026-01-15 01:23:16.67	197.14	15.79	-37.7	-39.1	23.1	0.00e+00	0	29	0	303038464	48	6515
2026-01-15 01:23:17.68	197.24	15.89	-37.8	-39.2	23.0	0.00e+00	0	29	0	305135616	48	6561
2026-01-15 01:23:18.69	197.34	15.99	-38.0	-39.2	23.0	0.00e+00	0	29	0	307232768	48	6611
2026-01-15 01:23:19.70	197.44	16.09	-38.1	-39.3	23.0	0.00e+00	0	29	0	308281344	48	6626
2026-01-15 01:23:20.71	197.55	16.19	-38.3	-39.3	23.0	0.00e+00	0	29	0	310378496	48	6687
2026-01-15 01:23:21.72	197.65	16.29	-38.5	-39.5	23.0	0.00e+00	0	29	0	312475648	48	6776
2026-01-15 01:23:22.73	197.75	16.39	-38.5	-39.4	23.0	0.00e+00	0	29	0	314572800	48	6757
2026-01-15 01:23:23.74	197.86	16.49	-38.3	-39.3	23.1	0.00e+00	0	29	0	316669952	48	6633
2026-01-15 01:23:24.75	197.97	16.59	-38.4	-39.4	23.0	0.00e+00	0	29	0	317718528	48	6738
2026-01-15 01:23:25.76	198.07	16.69	-38.4	-39.4	23.0	0.00e+00	0	29	0	319815680	48	6701
2026-01-15 01:23:26.77	198.18	16.80	-38.4	-39.4	23.0	0.00e+00	0	29	0	321912832	48	6731
2026-01-15 01:23:27.78	198.29	16.90	-38.5	-39.5	22.9	0.00e+00	0	29	0	324009984	48	6789
2026-01-15 01:23:28.78	198.39	17.00	-38.5	-39.4	22.9	0.00e+00	0	29	0	326107136	48	6767
2026-01-15 01:23:29.79	198.50	17.11	-38.5	-39.5	22.9	0.00e+00	0	29	0	328204288	48	6800
2026-01-15 01:23:30.80	198.61	17.21	-38.6	-39.6	22.9	0.00e+00	0	29	0	329252864	48	6853
2026-01-15 01:23:31.81	198.72	17.31	-38.5	-39.5	23.0	0.00e+00	0	29	0	331350016	48	6800
2026-01-15 01:23:32.82	198.83	17.42	-38.5	-39.4	22.9	0.00e+00	0	29	0	333447168	48	6767
2026-01-15 01:23:33.83	198.95	17.52	-38.5	-39.5	22.9	0.00e+00	0	29	0	335544320	48	6820
2026-01-15 01:23:34.84	199.06	17.63	-38.4	-39.4	23.0	0.00e+00	0	29	0	337641472	48	6742
2026-01-15 01:23:35.85	199.17	17.74	-38.4	-39.3	23.0	0.00e+00	0	29	0	338690048	48	6684
2026-01-15 01:23:36.86	199.29	17.84	-38.4	-39.4	23.1	0.00e+00	0	29	0	340787200	48	6708
2026-01-15 01:23:37.87	199.40	17.95	-38.4	-39.4	23.0	0.00e+00	0	29	0	342884352	48	6694
2026-01-15 01:23:38.88	199.52	18.06	-38.2	-39.2	23.2	0.00e+00	0	29	0	344981504	48	6547
2026-01-15 01:23:39.89	199.64	18.16	-38.2	-39.2	23.2	0.00e+00	0	29	0	347078656	48	6549
2026-01-15 01:23:40.90	199.75	18.27	-38.4	-39.4	23.0	0.00e+00	0	29	0	348127232	48	6697
2026-01-15 01:23:41.91	199.87	18.38	-38.2	-39.1	23.3	0.00e+00	0	29	0	350224384	48	6497
2026-01-15 01:23:42.92	199.99	18.49	-38.2	-39.1	23.3	0.00e+00	0	29	0	352321536	48	6508
2026-01-15 01:23:43.93	200.11	18.60	-38.2	-39.1	23.3	0.00e+00	0	29	0	354418688	48	6531
2026-01-15 01:23:44.94	200.23	18.70	-38.1	-39.0	23.4	0.00e+00	0	29	0	356515840	48	6413
2026-01-15 01:23:45.95	200.35	18.81	-38.2	-39.1	23.3	0.00e+00	0	29	0	357564416	48	6528
2026-01-15 01:23:46.96	200.47	18.92	-38.1	-39.1	23.3	0.00e+00	0	29	0	359661568	48	6494
2026-01-15 01:23:47.97	200.60	19.03	-38.3	-39.3	23.1	0.00e+00	0	29	0	361758720	48	6669
2026-01-15 01:23:48.98	200.72	19.14	-38.1	-39.1	23.3	0.00e+00	0	29	0	363855872	48	6487
2026-01-15 01:23:49.99	200.85	19.25	-38.0	-38.9	23.5	0.00e+00	0	29	0	365953024	48	6362
2026-01-15 01:23:51.00	200.97	19.37	-38.1	-39.0	23.4	0.00e+00	0	29	0	367001600	48	6448
2026-01-15 01:23:52.01	201.10	19.48	-38.2	-39.2	23.3	0.00e+00	0	29	0	369098752	48	6554
2026-01-15 01:23:53.02	201.23	19.59	-38.2	-39.1	23.2	0.00e+00	0	29	0	371195904	48	6524
2026-01-15 01:23:54.03	201.36	19.70	-38.0	-38.9	23.5	0.00e+00	0	29	0	373293056	48	6370
2026-01-15 01:23:55.03	201.48	19.81	-38.1	-39.0	23.5	0.00e+00	0	29	0	375390208	48	6436
2026-01-15 01:23:56.04	201.62	19.93	-38.2	-39.2	23.3	0.00e+00	0	29	0	376438784	48	6552
2026-01-15 01:23:57.05	201.75	20.04	-38.2	-39.1	23.3	0.00e+00	0	29	0	378535936	48	6523
2026-01-15 01:23:58.06	201.88	20.15	-38.3	-39.3	23.2	0.00e+00	0	29	0	380633088	48	6649
2026-01-15 01:23:59.07	202.01	20.27	-38.3	-39.3	23.1	0.00e+00	0	29	0	382730240	48	6632
2026-01-15 01:24:00.08	202.15	20.38	-38.4	-39.3	23.1	0.00e+00	0	29	0	384827392	48	6692
2026-01-15 01:24:01.09	202.28	20.50	-38.5	-39.5	22.9	0.00e+00	0	29	0	385875968	48	6800
2026-01-15 01:24:02.10	202.42	20.61	-38.7	-39.6	22.9	0.00e+00	0	29	0	387973120	48	6918
2026-01-15 01:24:03.11	202.56	20.73	-38.6	-39.6	22.9	0.00e+00	0	29	0	390070272	48	6884
2026-01-15 01:24:04.12	202.69	20.84	-38.8	-39.8	22.7	0.00e+00	0	29	0	392167424	50	6250
2026-01-15 01:24:05.13	202.83	20.96	-38.7	-39.6	22.8	0.00e+00	0	29	0	394264576	50	6151
2026-01-15 01:24:06.14	202.97	21.08	-38.6	-39.6	22.9	0.00e+00	0	29	0	396361728	50	6144
2026-01-15 01:24:07.15	203.11	21.19	-38.7	-39.7	22.8	0.00e+00	0	29	0	397410304	50	6200
2026-01-15 01:24:08.16	203.26	21.31	-38.8	-39.8	22.8	0.00e+00	0	29	0	399507456	50	6258
2026-01-15 01:24:09.17	203.40	21.43	-38.7	-39.7	22.8	0.00e+00	0	29	0	401604608	50	6220
2026-01-15 01:24:10.18	203.54	21.55	-38.7	-39.7	22.8	0.00e+00	0	29	0	403701760	50	6216
2026-01-15 01:24:11.18	203.69	21.67	-38.8	-39.8	22.8	0.00e+00	0	29	0	405798912	50	6247
2026-01-15 01:24:12.19	203.83	21.78	-38.9	-39.8	22.7	0.00e+00	0	29	0	406847488	50	6310
2026-01-15 01:24:13.21	203.98	21.90	-38.9	-40.0	22.6	0.00e+00	0	29	0	408944640	50	6399
2026-01-15 01:24:14.21	204.13	22.02	-38.9	-39.9	22.7	0.00e+00	0	29	0	411041792	50	6339
2026-01-15 01:24:15.22	204.28	22.14	-39.1	-40.1	22.4	0.00e+00	0	29	0	413138944	50	6523
2026-01-15 01:24:16.23	204.43	22.26	-38.9	-39.9	22.7	0.00e+00	0	29	0	415236096	50	6355
2026-01-15 01:24:17.24	204.58	22.38	-38.6	-39.6	22.9	0.00e+00	0	29	0	416284672	50	6134
2026-01-15 01:24:18.25	204.74	22.51	-38.6	-39.6	22.9	0.00e+00	0	29	0	418381824	50	6146
2026-01-15 01:24:19.26	204.89	22.63	-38.6	-39.6	22.9	0.00e+00	0	29	0	420478976	50	6135
2026-01-15 01:24:20.27	205.05	22.75	-38.5	-39.4	23.1	0.00e+00	0	29	0	422576128	50	6029
2026-01-15 01:24:21.28	205.20	22.87	-38.5	-39.5	23.0	0.00e+00	0	29	0	424673280	50	6060
2026-01-15 01:24:22.29	205.36	22.99	-38.5	-39.5	23.1	0.00e+00	0	29	0	425721856	50	6061
2026-01-15 01:24:23.30	205.52	23.12	-38.6	-39.6	22.9	0.00e+00	0	29	0	427819008	50	6116
2026-01-15 01:24:24.31	205.68	23.24	-38.6	-39.5	23.0	0.00e+00	0	29	0	429916160	50	6084
2026-01-15 01:24:25.32	205.84	23.36	-38.6	-39.6	23.0	0.00e+00	0	29	0	432013312	50	6105
2026-01-15 01:24:26.33	206.01	23.49	-38.5	-39.5	23.0	0.00e+00	0	29	0	434110464	50	6044
2026-01-15 01:24:27.34	206.17	23.61	-38.5	-39.5	22.9	0.00e+00	0	29	0	435159040	50	6047
2026-01-15 01:24:28.34	206.33	23.74	-38.6	-39.5	23.0	0.00e+00	0	29	0	437256192	50	6097
2026-01-15 01:24:29.36	206.50	23.86	-38.5	-39.5	23.1	0.00e+00	0	29	0	439353344	50	6067
2026-01-15 01:24:30.36	206.67	23.99	-38.6	-39.6	23.0	0.00e+00	0	29	0	441450496	50	6147
2026-01-15 01:24:31.38	206.84	24.12	-38.7	-39.7	22.9	0.00e+00	0	29	0	443547648	50	6189
2026-01-15 01:24:32.38	207.01	24.24	-38.7	-39.7	22.9	0.00e+00	0	29	0	444596224	50	6195
2026-01-15 01:24:33.40	207.18	24.37	-38.8	-39.8	22.8	0.00e+00	0	29	0	446693376	50	6273
2026-01-15 01:24:34.41	207.36	24.50	-38.8	-39.8	22.8	0.00e+00	0	29	0	448790528	50	6286
2026-01-15 01:24:35.41	207.53	24.62	-38.9	-39.9	22.7	0.00e+00	0	29	0	450887680	50	6333
2026-01-15 01:24:36.42	207.71	24.75	-38.9	-39.9	22.6	0.00e+00	0	29	0	452984832	50	6379
2026-01-15 01:24:37.43	207.88	24.88	-39.1	-40.1	22.5	0.00e+00	0	29	0	454033408	50	6517
2026-01-15 01:24:38.44	208.06	25.01	-39.0	-40.0	22.6	0.00e+00	0	29	0	456130560	50	6428
2026-01-15 01:24:39.45	208.24	25.13	-39.1	-40.2	22.4	0.00e+00	0	29	0	458227712	50	6563
2026-01-15 01:24:40.46	208.42	25.26	-39.1	-40.1	22.5	0.00e+00	0	29	0	460324864	50	6532
2026-01-15 01:24:41.47	208.61	25.39	-39.2	-40.2	22.4	0.00e+00	0	29	0	462422016	50	6590
2026-01-15 01:24:42.48	208.79	25.52	-39.0	-40.0	22.6	0.00e+00	0	29	0	464519168	50	6444
2026-01-15 01:24:43.49	208.98	25.65	-39.1	-40.1	22.5	0.00e+00	0	29	0	465567744	50	6533
2026-01-15 01:24:44.50	209.17	25.78	-39.1	-40.2	22.4	0.00e+00	0	29	0	467664896	50	6540
2026-01-15 01:24:45.51	209.35	25.91	-39.2	-40.2	22.4	0.00e+00	0	29	0	469762048	50	6580
2026-01-15 01:24:46.52	209.55	26.04	-39.2	-40.2	22.4	0.00e+00	0	29	0	471859200	50	6588
2026-01-15 01:24:47.52	209.74	26.17	-39.0	-40.0	22.7	0.00e+00	0	29	0	473956352	50	6410
2026-01-15 01:24:48.53	209.93	26.31	-39.0	-40.0	22.5	0.00e+00	0	29	0	475004928	50	6422
2026-01-15 01:24:49.54	210.13	26.44	-38.9	-39.9	22.7	0.00e+00	0	29	0	477102080	50	6356
2026-01-15 01:24:50.55	210.32	26.57	-38.9	-39.9	22.6	0.00e+00	0	29	0	479199232	50	6352
2026-01-15 01:24:51.56	210.52	26.70	-38.9	-39.9	22.7	0.00e+00	0	29	0	481296384	50	6368
2026-01-15 01:24:52.57	210.72	26.84	-38.9	-40.0	22.7	0.00e+00	0	29	0	482344960	50	6394
2026-01-15 01:24:53.58	210.92	26.97	-38.9	-39.9	22.7	0.00e+00	0	29	0	484442112	50	6371
2026-01-15 01:24:54.58	211.12	27.10	-38.7	-39.7	22.9	0.00e+00	0	29	0	486539264	50	6207
2026-01-15 01:24:55.59	211.33	27.23	-38.8	-39.7	22.8	0.00e+00	0	29	0	488636416	50	6238
2026-01-15 01:24:56.61	211.54	27.37	-38.9	-39.9	22.7	0.00e+00	0	29	0	490733568	50	6350
2026-01-15 01:24:57.61	211.74	27.50	-38.9	-39.9	22.7	0.00e+00	0	29	0	492830720	50	6386
2026-01-15 01:24:58.62	211.95	27.64	-39.1	-40.1	22.5	0.00e+00	0	29	0	493879296	50	6513
2026-01-15 01:24:59.63	212.17	27.77	-39.3	-40.3	22.3	0.00e+00	0	29	0	495976448	50	6650
2026-01-15 01:25:00.64	212.38	27.91	-39.3	-40.3	22.3	0.00e+00	0	29	0	498073600	50	6654
2026-01-15 01:25:01.65	212.60	28.04	-39.3	-40.3	22.3	0.00e+00	0	29	0	500170752	50	6668
2026-01-15 01:25:02.66	212.81	28.18	-39.4	-40.5	22.2	0.00e+00	0	29	0	502267904	50	6779
2026-01-15 01:25:03.67	213.03	28.31	-39.3	-40.4	22.3	0.00e+00	0	29	0	503316480	50	6715
2026-01-15 01:25:04.68	213.25	28.45	-39.3	-40.3	22.3	0.00e+00	0	29	0	505413632	50	6664
2026-01-15 01:25:05.69	213.48	28.58	-39.3	-40.3	22.3	0.00e+00	0	29	0	507510784	50	6682
2026-01-15 01:25:06.70	213.70	28.72	-39.2	-40.2	22.5	0.00e+00	0	29	0	509607936	50	6584
2026-01-15 01:25:07.71	213.93	28.86	-39.1	-40.1	22.5	0.00e+00	0	29	0	511705088	50	6527
2026-01-15 01:25:08.72	214.16	28.99	-39.2	-40.2	22.4	0.00e+00	0	29	0	512753664	50	6596
2026-01-15 01:25:09.72	214.38	29.13	-39.5	-40.5	22.1	0.00e+00	0	29	0	514850816	50	6828
2026-01-15 01:25:10.73	214.62	29.27	-39.7	-40.8	22.0	0.00e+00	0	29	0	516947968	50	7031
2026-01-15 01:25:11.74	214.85	29.40	-39.7	-40.8	21.9	0.00e+00	0	29	0	519045120	50	7053
2026-01-15 01:25:12.75	215.09	29.54	-39.6	-40.7	22.1	0.00e+00	0	29	0	521142272	52	6174
2026-01-15 01:25:13.76	215.32	29.68	-39.4	-40.5	22.1	0.00e+00	0	29	0	522190848	52	6068
2026-01-15 01:25:14.77	215.56	29.82	-39.5	-40.6	22.1	0.00e+00	0	29	0	524288000	52	6148
2026-01-15 01:25:15.78	215.81	29.95	-39.4	-40.5	22.3	0.00e+00	0	29	0	526385152	52	6051
2026-01-15 01:25:16.79	216.05	30.09	-39.5	-40.6	22.2	0.00e+00	0	29	0	528482304	52	6107
2026-01-15 01:25:17.80	216.30	30.23	-39.5	-40.6	22.1	0.00e+00	0	29	0	530579456	52	6156
2026-01-15 01:25:18.81	216.54	30.37	-39.7	-40.8	21.9	0.00e+00	0	29	0	531628032	52	6311
2026-01-15 01:25:19.82	216.79	30.51	-40.0	-41.2	21.6	0.00e+00	0	29	0	533725184	52	6546
2026-01-15 01:25:20.83	217.05	30.64	-40.2	-41.4	21.4	0.00e+00	0	29	0	535822336	52	6746
2026-01-15 01:25:21.84	217.30	30.78	-40.3	-41.5	21.2	0.00e+00	0	29	0	537919488	52	6845
2026-01-15 01:25:22.84	217.55	30.92	-40.6	-41.8	20.9	0.00e+00	0	29	0	540016640	52	7069
2026-01-15 01:25:23.85	217.81	31.06	-40.6	-41.8	21.0	0.00e+00	0	29	0	541065216	52	7083
2026-01-15 01:25:24.86	218.07	31.19	-40.7	-41.9	20.9	0.00e+00	0	29	0	543162368	52	7154
2026-01-15 01:25:25.87	218.34	31.33	-40.7	-42.0	20.8	0.00e+00	0	29	0	545259520	54	6403
2026-01-15 01:25:26.88	218.60	31.47	-40.8	-42.1	20.7	0.00e+00	0	29	0	547356672	54	6480
2026-01-15 01:25:27.89	218.87	31.61	-40.9	-42.2	20.5	0.00e+00	0	29	0	549453824	54	6615
2026-01-15 01:25:28.90	219.14	31.75	-41.0	-42.2	20.7	0.00e+00	0	29	0	550502400	54	6613
2026-01-15 01:25:29.91	219.41	31.89	-40.7	-42.0	20.9	0.00e+00	0	29	0	552599552	54	6414
2026-01-15 01:25:30.92	219.69	32.02	-40.7	-41.9	20.8	0.00e+00	0	29	0	554696704	54	6378
2026-01-15 01:25:31.93	219.96	32.16	-40.5	-41.7	21.0	0.00e+00	0	29	0	556793856	54	6242
2026-01-15 01:25:32.94	220.24	32.30	-40.7	-41.9	20.9	0.00e+00	0	29	0	558891008	54	6351
2026-01-15 01:25:33.95	220.52	32.44	-40.8	-42.0	20.8	0.00e+00	0	29	0	560988160	54	6443
2026-01-15 01:25:34.96	220.81	32.58	-40.9	-42.2	20.7	0.00e+00	0	29	0	562036736	54	6552
2026-01-15 01:25:35.97	221.09	32.71	-40.7	-41.9	20.9	0.00e+00	0	29	0	564133888	54	6366
2026-01-15 01:25:36.98	221.38	32.85	-40.7	-41.8	21.0	0.00e+00	0	29	0	566231040	54	6317
2026-01-15 01:25:37.99	221.67	32.99	-40.3	-41.5	21.3	0.00e+00	0	29	0	568328192	54	6060
2026-01-15 01:25:39.00	221.96	33.13	-40.1	-41.2	21.5	0.00e+00	0	29	0	570425344	54	5872
2026-01-15 01:25:40.01	222.26	33.26	-39.9	-41.0	21.6	0.00e+00	0	29	0	571473920	54	5742
2026-01-15 01:25:41.02	222.56	33.40	-40.2	-41.3	21.4	0.00e+00	0	29	0	573571072	54	5937
2026-01-15 01:25:42.03	222.86	33.54	-40.4	-41.6	21.2	0.00e+00	0	29	0	575668224	54	6136
2026-01-15 01:25:43.04	223.16	33.67	-40.7	-41.9	20.9	0.00e+00	0	29	0	577765376	54	6375
2026-01-15 01:25:44.05	223.47	33.81	-40.8	-42.0	20.8	0.00e+00	0	29	0	579862528	54	6451
2026-01-15 01:25:45.06	223.78	33.94	-40.9	-42.1	20.7	0.00e+00	0	29	0	580911104	54	6531
2026-01-15 01:25:46.07	224.09	34.08	-40.5	-41.7	21.1	0.00e+00	0	29	0	583008256	54	6212
2026-01-15 01:25:47.08	224.40	34.21	-40.4	-41.6	21.2	0.00e+00	0	29	0	585105408	54	6107
2026-01-15 01:25:48.09	224.71	34.35	-40.1	-41.2	21.5	0.00e+00	0	29	0	587202560	54	5865
2026-01-15 01:25:49.10	225.03	34.48	-39.8	-40.9	21.7	0.00e+00	0	29	0	589299712	54	5690
2026-01-15 01:25:50.11	225.35	34.62	-39.8	-40.9	21.9	0.00e+00	0	29	0	590348288	52	6335
2026-01-15 01:25:51.12	225.68	34.75	-39.8	-40.9	21.8	0.00e+00	0	29	0	592445440	52	6345
2026-01-15 01:25:52.12	226.00	34.88	-39.7	-40.7	22.0	0.00e+00	0	29	0	594542592	52	6236
2026-01-15 01:25:53.13	226.33	35.02	-39.9	-41.0	21.8	0.00e+00	0	29	0	596639744	52	6433
2026-01-15 01:25:54.14	226.66	35.15	-40.3	-41.5	21.3	0.00e+00	0	29	0	598736896	52	6816
2026-01-15 01:25:55.15	226.99	35.28	-40.8	-42.0	20.7	0.00e+00	0	29	0	599785472	54	6464
2026-01-15 01:25:56.16	227.33	35.41	-41.4	-42.8	20.0	0.00e+00	0	29	0	601882624	54	7067
2026-01-15 01:25:57.17	227.67	35.54	-41.5	-42.9	20.0	0.00e+00	0	29	0	603979776	54	7122
2026-01-15 01:25:58.18	228.01	35.67	-41.4	-42.8	20.0	0.00e+00	0	29	0	606076928	54	7069
2026-01-15 01:25:59.18	228.35	35.80	-41.0	-42.3	20.7	0.00e+00	0	29	0	608174080	54	6656
2026-01-15 01:26:00.18	228.69	35.93	-40.4	-41.6	21.3	0.00e+00	0	29	0	609222656	54	6105
2026-01-15 01:26:01.18	229.04	36.05	-40.4	-41.6	21.2	0.00e+00	0	29	0	611319808	54	6128
2026-01-15 01:26:02.19	229.39	36.18	-40.2	-41.4	21.4	0.00e+00	0	29	0	613416960	54	5996
2026-01-15 01:26:03.20	229.75	36.31	-40.6	-41.8	21.0	0.00e+00	0	29	0	615514112	54	6296
2026-01-15 01:26:04.21	230.11	36.43	-41.1	-42.4	20.4	0.00e+00	0	29	0	617611264	54	6727
2026-01-15 01:26:05.22	230.47	36.56	-41.5	-43.0	19.9	0.00e+00	0	29	0	618659840	54	7182
2026-01-15 01:26:06.23	230.83	36.68	-41.8	-43.2	19.7	0.00e+00	0	29	0	620756992	56	6611
2026-01-15 01:26:07.23	231.19	36.80	-41.5	-42.9	20.0	0.00e+00	0	29	0	622854144	56	6362
2026-01-15 01:26:08.24	231.56	36.93	-41.4	-42.7	20.4	0.00e+00	0	29	0	624951296	56	6223
2026-01-15 01:26:09.25	231.93	37.05	-40.8	-42.0	20.9	0.00e+00	0	29	0	627048448	56	5740
2026-01-15 01:26:10.26	232.31	37.17	-40.6	-41.8	21.0	0.00e+00	0	29	0	628097024	54	6294
2026-01-15 01:26:11.27	232.68	37.29	-40.5	-41.7	21.0	0.00e+00	0	29	0	630194176	54	6224
2026-01-15 01:26:12.28	233.06	37.41	-40.3	-41.5	21.2	0.00e+00	0	29	0	632291328	54	6063
2026-01-15 01:26:13.29	233.45	37.53	-40.5	-41.6	21.1	0.00e+00	0	29	0	634388480	54	6161
2026-01-15 01:26:14.30	233.83	37.65	-40.6	-41.8	21.1	0.00e+00	0	29	0	636485632	54	6291
2026-01-15 01:26:15.31	234.22	37.76	-40.7	-41.9	20.9	0.00e+00	0	29	0	637534208	54	6343
2026-01-15 01:26:16.31	234.61	37.88	-40.9	-42.1	20.7	0.00e+00	0	29	0	639631360	54	6494
2026-01-15 01:26:17.33	235.00	37.99	-40.8	-42.0	20.8	0.00e+00	0	29	0	641728512	54	6440
2026-01-15 01:26:18.34	235.40	38.10	-40.8	-42.0	20.8	0.00e+00	0	29	0	643825664	54	6441
2026-01-15 01:26:19.35	235.80	38.22	-40.4	-41.5	21.3	0.00e+00	0	29	0	645922816	54	6097
2026-01-15 01:26:20.35	236.20	38.32	-40.0	-41.1	21.7	0.00e+00	0	29	0	646971392	54	5787
2026-01-15 01:26:21.37	236.60	38.44	-39.8	-40.9	21.8	0.00e+00	0	29	0	649068544	54	5679
2026-01-15 01:26:22.38	237.01	38.54	-39.9	-40.9	22.0	0.00e+00	0	29	0	651165696	52	6381
2026-01-15 01:26:23.39	237.42	38.65	-39.8	-40.9	21.3	0.00e+00	0	29	0	653262848	52	6327
2026-01-15 01:26:24.40	237.83	38.76	-40.1	-41.3	21.5	0.00e+00	0	29	0	655360000	52	6635
2026-01-15 01:26:25.40	238.24	38.86	-40.8	-42.0	20.8	0.00e+00	0	29	0	657457152	54	6436
2026-01-15 01:26:26.41	238.66	38.96	-41.5	-42.8	20.0	0.00e+00	0	29	0	658505728	54	7084
2026-01-15 01:26:27.42	239.08	39.06	-41.9	-43.4	19.6	0.00e+00	0	29	0	660602880	56	6725
2026-01-15 01:26:28.43	239.50	39.16	-42.1	-43.6	19.4	0.00e+00	0	29	0	662700032	56	6900
2026-01-15 01:26:29.44	239.93	39.26	-42.2	-43.7	19.3	0.00e+00	0	29	0	664797184	56	6932
2026-01-15 01:26:30.45	240.35	39.36	-41.9	-43.3	19.7	0.00e+00	0	29	0	666894336	56	6691
2026-01-15 01:26:31.45	240.78	39.46	-42.1	-43.6	19.5	0.00e+00	0	29	0	667942912	56	6869
2026-01-15 01:26:32.46	241.21	39.55	-41.9	-43.4	19.7	0.00e+00	0	29	0	670040064	56	6693
2026-01-15 01:26:33.47	241.65	39.64	-41.7	-43.2	19.9	0.00e+00	0	29	0	672137216	56	6544
2026-01-15 01:26:34.48	242.08	39.73	-41.4	-42.8	20.3	0.00e+00	0	29	0	674234368	56	6272
2026-01-15 01:26:35.49	242.52	39.82	-41.4	-42.8	20.2	0.00e+00	0	29	0	676331520	56	6248
2026-01-15 01:26:36.50	242.97	39.91	-41.8	-43.2	19.9	0.00e+00	0	29	0	677380096	56	6564
2026-01-15 01:26:37.51	243.41	40.00	-41.9	-43.4	19.7	0.00e+00	0	29	0	679477248	56	6731
2026-01-15 01:26:38.52	243.86	40.08	-41.7	-43.0	19.8	0.00e+00	0	29	0	681574400	56	6460
2026-01-15 01:26:39.53	244.31	40.16	-41.2	-42.5	20.4	0.00e+00	0	29	0	683671552	56	6043
2026-01-15 01:26:40.54	244.76	40.25	-40.9	-42.2	20.9	0.00e+00	0	29	0	685768704	56	5846
2026-01-15 01:26:41.55	245.21	40.33	-40.3	-41.4	21.5	0.00e+00	0	29	0	686817280	54	6027
2026-01-15 01:26:42.56	245.67	40.40	-40.0	-41.2	21.7	0.00e+00	0	29	0	688914432	54	5833
2026-01-15 01:26:43.57	246.12	40.48	-39.5	-40.6	22.2	0.00e+00	0	29	0	691011584	52	6114
2026-01-15 01:26:44.58	246.58	40.55	-39.6	-40.7	22.1	0.00e+00	0	29	0	693108736	52	6184
2026-01-15 01:26:45.59	247.05	40.62	-39.7	-40.7	22.0	0.00e+00	0	29	0	695205888	52	6234
2026-01-15 01:26:46.60	247.51	40.69	-40.0	-41.1	21.8	0.00e+00	0	29	0	696254464	52	6515
2026-01-15 01:26:47.61	247.98	40.76	-40.2	-41.3	21.5	0.00e+00	0	29	0	698351616	52	6631
2026-01-15 01:26:48.62	248.44	40.83	-40.1	-41.2	21.7	0.00e+00	0	29	0	700448768	52	6615
2026-01-15 01:26:49.63	248.91	40.89	-39.9	-41.0	21.9	0.00e+00	0	29	0	702545920	52	6417
2026-01-15 01:26:50.63	249.38	40.95	-39.7	-40.8	22.1	0.00e+00	0	29	0	704643072	52	6261
2026-01-15 01:26:51.65	249.86	41.01	-39.9	-41.0	21.9	0.00e+00	0	29	0	705691648	52	6448
2026-01-15 01:26:52.65	250.33	41.07	-40.6	-41.7	21.1	0.00e+00	0	29	0	707788800	52	6996
2026-01-15 01:26:53.66	250.80	41.13	-41.1	-42.4	20.5	0.00e+00	0	29	0	709885952	54	6718
2026-01-15 01:26:54.67	251.28	41.18	-41.4	-42.7	20.2	0.00e+00	0	29	0	711983104	54	6980
2026-01-15 01:26:55.68	251.76	41.23	-41.7	-43.1	19.9	0.00e+00	0	29	0	714080256	54	7298
2026-01-15 01:26:56.69	252.24	41.28	-41.6	-43.0	19.9	0.00e+00	0	29	0	715128832	54	7199
2026-01-15 01:26:57.70	252.72	41.33	-41.5	-42.8	20.2	0.00e+00	0	29	0	717225984	56	6313
2026-01-15 01:26:58.72	253.21	41.38	-41.4	-42.7	20.3	0.00e+00	0	29	0	719323136	56	6194
2026-01-15 01:26:59.72	253.69	41.42	-41.2	-42.4	20.5	0.00e+00	0	29	0	721420288	56	6014
2026-01-15 01:27:00.73	254.18	41.46	-41.1	-42.4	20.7	0.00e+00	0	29	0	723517440	56	5965
2026-01-15 01:27:01.74	254.67	41.50	-41.4	-42.7	20.3	0.00e+00	0	29	0	725614592	56	6238
2026-01-15 01:27:02.75	255.15	41.53	-41.7	-43.1	20.0	0.00e+00	0	29	0	726663168	56	6515
2026-01-15 01:27:03.76	255.64	41.57	-42.2	-43.8	19.2	0.00e+00	0	29	0	728760320	56	7022
2026-01-15 01:27:04.77	256.13	41.60	-42.6	-44.2	18.9	0.00e+00	0	29	0	730857472	56	7365
2026-01-15 01:27:05.78	256.63	41.63	-42.3	-43.9	19.2	0.00e+00	0	29	0	732954624	56	7096
2026-01-15 01:27:06.79	257.12	41.66	-41.7	-43.0	20.0	0.00e+00	0	29	0	735051776	56	6447
2026-01-15 01:27:07.80	257.61	41.68	-41.3	-42.6	20.3	0.00e+00	0	29	0	736100352	56	6172
2026-01-15 01:27:08.81	258.11	41.70	-40.5	-41.7	21.2	0.00e+00	0	29	0	738197504	54	6184
2026-01-15 01:27:09.82	258.60	41.72	-40.4	-41.6	21.3	0.00e+00	0	29	0	740294656	54	6124
2026-01-15 01:27:10.83	259.09	41.74	-40.8	-42.1	20.8	0.00e+00	0	29	0	742391808	54	6478
2026-01-15 01:27:11.84	259.59	41.76	-41.4	-42.7	20.2	0.00e+00	0	29	0	744488960	54	6984
2026-01-15 01:27:12.85	260.09	41.77	-41.7	-43.1	20.0	0.00e+00	0	29	0	745537536	54	7269
2026-01-15 01:27:13.86	260.58	41.78	-40.9	-42.2	20.7	0.00e+00	0	29	0	747634688	54	6580
2026-01-15 01:27:14.87	261.08	41.79	-40.4	-41.5	21.4	0.00e+00	0	29	0	749731840	54	6102
2026-01-15 01:27:15.88	261.58	41.80	-39.7	-40.7	22.0	0.00e+00	0	29	0	751828992	54	5540
2026-01-15 01:27:16.89	262.07	41.80	-39.5	-40.5	22.3	0.00e+00	0	29	0	753926144	52	6051
2026-01-15 01:27:17.90	262.57	41.80	-39.6	-40.6	22.2	0.00e+00	0	29	0	754974720	52	6137
2026-01-15 01:27:18.91	263.07	41.80	-40.3	-41.4	21.5	0.00e+00	0	29	0	757071872	52	6742
2026-01-15 01:27:19.92	263.56	41.80	-40.8	-42.1	20.8	0.00e+00	0	29	0	759169024	54	6483
2026-01-15 01:27:20.93	264.06	41.79	-40.9	-42.2	20.8	0.00e+00	0	29	0	761266176	54	6562
2026-01-15 01:27:21.94	264.56	41.78	-40.7	-41.9	21.0	0.00e+00	0	29	0	763363328	54	6351
2026-01-15 01:27:22.95	265.05	41.77	-40.3	-41.5	21.4	0.00e+00	0	29	0	764411904	54	6053
2026-01-15 01:27:23.96	265.55	41.76	-39.8	-40.9	22.0	0.00e+00	0	29	0	766509056	54	5644
2026-01-15 01:27:24.97	266.04	41.75	-39.9	-41.0	21.8	0.00e+00	0	29	0	768606208	54	5716
2026-01-15 01:27:25.98	266.54	41.73	-39.4	-40.5	22.4	0.00e+00	0	29	0	770703360	52	6048
2026-01-15 01:27:26.99	267.03	41.71	-39.2	-40.2	22.6	0.00e+00	0	29	0	772800512	52	5884
2026-01-15 01:27:28.00	267.53	41.69	-38.7	-39.7	23.0	0.00e+00	0	29	0	773849088	52	5516
2026-01-15 01:27:29.01	268.02	41.66	-38.4	-39.3	23.4	0.00e+00	0	29	0	775946240	50	5911
2026-01-15 01:27:30.02	268.51	41.64	-38.7	-39.6	23.0	0.00e+00	0	29	0	778043392	50	6127
2026-01-15 01:27:31.03	269.00	41.61	-39.1	-40.1	22.6	0.00e+00	0	29	0	780140544	50	6501
2026-01-15 01:27:32.04	269.49	41.58	-39.1	-40.1	22.4	0.00e+00	0	29	0	782237696	50	6522
2026-01-15 01:27:33.05	269.98	41.54	-38.9	-39.9	22.8	0.00e+00	0	29	0	783286272	50	6355
2026-01-15 01:27:34.06	270.47	41.51	-38.9	-39.9	23.0	0.00e+00	0	29	0	785383424	50	6327
2026-01-15 01:27:35.07	270.96	41.47	-39.1	-40.1	22.5	0.00e+00	0	29	0	787480576	50	6481
2026-01-15 01:27:36.08	271.44	41.43	-40.1	-41.2	21.7	0.00e+00	0	29	0	789577728	52	6596
2026-01-15 01:27:37.09	271.93	41.39	-40.9	-42.1	20.8	0.00e+00	0	29	0	791674880	54	6530
2026-01-15 01:27:38.09	272.41	41.34	-41.2	-42.5	20.5	0.00e+00	0	29	0	793772032	54	6845
2026-01-15 01:27:39.10	272.89	41.30	-41.0	-42.3	20.7	0.00e+00	0	29	0	794820608	54	6635
2026-01-15 01:27:40.11	273.37	41.25	-40.5	-41.6	21.2	0.00e+00	0	29	0	796917760	54	6173
2026-01-15 01:27:41.12	273.85	41.20	-40.1	-41.2	21.7	0.00e+00	0	29	0	799014912	54	5852
2026-01-15 01:27:42.13	274.33	41.14	-40.4	-41.5	21.3	0.00e+00	0	29	0	801112064	54	6096
2026-01-15 01:27:43.14	274.80	41.09	-40.6	-41.8	21.0	0.00e+00	0	29	0	803209216	54	6278
2026-01-15 01:27:44.15	275.28	41.03	-40.6	-41.7	21.0	0.00e+00	0	29	0	804257792	54	6238
2026-01-15 01:27:45.16	275.75	40.97	-40.6	-41.7	21.1	0.00e+00	0	29	0	806354944	54	6245
2026-01-15 01:27:46.17	276.22	40.91	-40.9	-42.1	20.8	0.00e+00	0	29	0	808452096	54	6506
2026-01-15 01:27:47.18	276.69	40.85	-41.5	-42.8	20.1	0.00e+00	0	29	0	810549248	54	7079
2026-01-15 01:27:48.19	277.16	40.78	-41.9	-43.4	19.6	0.00e+00	0	29	0	812646400	56	6727
2026-01-15 01:27:49.20	277.63	40.71	-41.9	-43.3	19.7	0.00e+00	0	29	0	813694976	56	6681
2026-01-15 01:27:50.21	278.09	40.64	-41.3	-42.6	20.3	0.00e+00	0	29	0	815792128	56	6114
2026-01-15 01:27:51.22	278.55	40.57	-40.8	-42.0	21.0	0.00e+00	0	29	0	817889280	56	5720
2026-01-15 01:27:52.23	279.01	40.50	-41.1	-42.3	20.7	0.00e+00	0	29	0	819986432	56	5943
2026-01-15 01:27:53.24	279.47	40.43	-42.0	-43.5	19.5	0.00e+00	0	29	0	822083584	56	6821
2026-01-15 01:27:54.25	279.92	40.35	-43.1	-44.9	18.2	0.00e+00	0	29	0	823132160	58	7090
2026-01-15 01:27:55.26	280.38	40.27	-42.1	-43.6	19.5	0.00e+00	0	29	0	825229312	58	6133
2026-01-15 01:27:56.27	280.83	40.19	-41.0	-42.3	20.7	0.00e+00	0	29	0	827326464	56	5927
2026-01-15 01:27:57.28	281.28	40.11	-40.8	-42.0	20.8	0.00e+00	0	29	0	829423616	54	6410
2026-01-15 01:27:58.29	281.72	40.02	-40.2	-41.4	21.5	0.00e+00	0	29	0	831520768	54	5969
2026-01-15 01:27:59.30	282.17	39.94	-40.2	-41.4	21.5	0.00e+00	0	29	0	832569344	54	5970
2026-01-15 01:28:00.31	282.61	39.85	-40.0	-41.1	21.7	0.00e+00	0	29	0	834666496	54	5791
2026-01-15 01:28:01.31	283.04	39.76	-39.8	-40.8	21.9	0.00e+00	0	29	0	836763648	54	5620
2026-01-15 01:28:02.32	283.48	39.67	-39.7	-40.7	22.1	0.00e+00	0	29	0	838860800	52	6218
2026-01-15 01:28:03.33	283.92	39.58	-39.8	-40.9	22.0	0.00e+00	0	29	0	840957952	52	6326
2026-01-15 01:28:04.34	284.35	39.49	-39.9	-41.0	21.8	0.00e+00	0	29	0	842006528	52	6434
2026-01-15 01:28:05.35	284.78	39.39	-39.8	-40.9	22.0	0.00e+00	0	29	0	844103680	52	6336
2026-01-15 01:28:06.36	285.20	39.30	-39.6	-40.7	22.2	0.00e+00	0	29	0	846200832	52	6183
2026-01-15 01:28:07.37	285.63	39.20	-39.1	-40.1	22.6	0.00e+00	0	29	0	848297984	52	5792
2026-01-15 01:28:08.38	286.05	39.10	-38.8	-39.7	23.0	0.00e+00	0	29	0	850395136	52	5561
2026-01-15 01:28:09.38	286.47	39.00	-38.5	-39.4	23.2	0.00e+00	0	29	0	851443712	50	6008
2026-01-15 01:28:10.40	286.89	38.90	-38.3	-39.2	23.4	0.00e+00	0	29	0	853540864	50	5892
2026-01-15 01:28:11.40	287.30	38.79	-38.0	-38.9	23.7	0.00e+00	0	29	0	855638016	50	5665
2026-01-15 01:28:12.41	287.71	38.69	-37.9	-38.8	23.7	0.00e+00	0	29	0	857735168	50	5618
2026-01-15 01:28:13.42	288.12	38.58	-37.6	-38.5	24.1	0.00e+00	0	29	0	859832320	48	6060
2026-01-15 01:28:14.43	288.53	38.47	-37.3	-38.1	24.4	0.00e+00	0	29	0	861929472	48	5807
2026-01-15 01:28:15.44	288.93	38.37	-37.3	-38.1	24.2	0.00e+00	0	29	0	862978048	48	5818
2026-01-15 01:28:16.46	289.33	38.25	-37.6	-38.5	24.0	0.00e+00	0	29	0	865075200	48	6067
2026-01-15 01:28:17.46	289.73	38.14	-37.6	-38.5	23.8	0.00e+00	0	29	0	867172352	48	6079
2026-01-15 01:28:18.48	290.13	38.03	-37.2	-38.1	24.3	0.00e+00	0	29	0	869269504	48	5789
2026-01-15 01:28:19.48	290.52	37.92	-36.9	-37.7	24.6	0.00e+00	0	29	0	871366656	48	5553
2026-01-15 01:28:20.50	290.91	37.80	-36.7	-37.5	24.9	0.00e+00	0	29	0	872415232	46	6051
2026-01-15 01:28:21.51	291.30	37.69	-36.5	-37.3	25.0	0.00e+00	0	29	0	874512384	46	5911
2026-01-15 01:28:22.51	291.68	37.57	-37.0	-37.8	24.6	0.00e+00	0	29	0	876609536	46	6306
2026-01-15 01:28:23.52	292.06	37.46	-37.0	-37.8	24.7	0.00e+00	0	29	0	878706688	46	6305
2026-01-15 01:28:24.53	292.44	37.34	-37.0	-37.9	24.6	0.00e+00	0	29	0	880803840	46	6324
2026-01-15 01:28:25.54	292.82	37.22	-36.7	-37.6	24.8	0.00e+00	0	29	0	881852416	46	6104
2026-01-15 01:28:26.55	293.19	37.10	-36.2	-37.0	25.3	0.00e+00	0	29	0	883949568	46	5724
2026-01-15 01:28:27.56	293.56	36.98	-36.6	-37.4	24.9	0.00e+00	0	29	0	886046720	46	5975
2026-01-15 01:28:28.57	293.93	36.85	-37.2	-38.0	24.4	0.00e+00	0	29	0	888143872	46	6435
2026-01-15 01:28:29.58	294.30	36.73	-37.7	-38.6	23.9	0.00e+00	0	29	0	890241024	46	6900
2026-01-15 01:28:30.59	294.66	36.61	-37.7	-38.6	24.0	0.00e+00	0	29	0	891289600	48	6162
2026-01-15 01:28:31.60	295.02	36.48	-37.2	-38.1	24.4	0.00e+00	0	29	0	893386752	48	5781
2026-01-15 01:28:32.61	295.38	36.36	-36.9	-37.8	24.7	0.00e+00	0	29	0	895483904	48	5573
2026-01-15 01:28:33.62	295.73	36.23	-37.0	-37.8	24.6	0.00e+00	0	29	0	897581056	48	5615
2026-01-15 01:28:34.63	296.09	36.11	-37.3	-38.2	24.3	0.00e+00	0	29	0	899678208	48	5854
2026-01-15 01:28:35.64	296.44	35.98	-37.5	-38.3	24.1	0.00e+00	0	29	0	900726784	48	5962
2026-01-15 01:28:36.64	296.78	35.85	-37.2	-38.0	24.5	0.00e+00	0	29	0	902823936	48	5732
2026-01-15 01:28:37.65	297.12	35.72	-36.8	-37.7	24.7	0.00e+00	0	29	0	904921088	48	5506
2026-01-15 01:28:38.66	297.47	35.59	-36.9	-37.7	24.7	0.00e+00	0	29	0	907018240	48	5524
2026-01-15 01:28:39.67	297.80	35.46	-37.0	-37.8	24.4	0.00e+00	0	29	0	909115392	48	5574
2026-01-15 01:28:40.68	298.14	35.33	-37.5	-38.3	24.2	0.00e+00	0	29	0	910163968	48	5960
2026-01-15 01:28:41.69	298.47	35.20	-37.7	-38.6	23.9	0.00e+00	0	29	0	912261120	48	6136
2026-01-15 01:28:42.70	298.80	35.07	-38.0	-38.9	23.7	0.00e+00	0	29	0	914358272	48	6385
2026-01-15 01:28:43.71	299.13	34.94	-38.2	-39.1	23.5	0.00e+00	0	29	0	916455424	48	6490
2026-01-15 01:28:44.72	299.46	34.81	-38.6	-39.6	23.1	0.00e+00	0	29	0	918552576	48	6875
2026-01-15 01:28:45.73	299.78	34.68	-39.2	-40.2	22.5	0.00e+00	0	29	0	919601152	50	6591
2026-01-15 01:28:46.74	300.10	34.54	-39.5	-40.6	22.1	0.00e+00	0	29	0	921698304	50	6893
2026-01-15 01:28:47.75	300.42	34.41	-39.5	-40.5	22.3	0.00e+00	0	29	0	923795456	50	6829
2026-01-15 01:28:48.76	300.74	34.28	-39.1	-40.1	22.7	0.00e+00	0	29	0	925892608	50	6478
2026-01-15 01:28:49.77	301.05	34.14	-38.4	-39.4	23.3	0.00e+00	0	29	0	927989760	50	5972
2026-01-15 01:28:50.78	301.36	34.01	-38.1	-39.0	23.6	0.00e+00	0	29	0	930086912	50	5742
2026-01-15 01:28:51.79	301.67	33.87	-38.1	-39.0	23.6	0.00e+00	0	29	0	931135488	50	5713
2026-01-15 01:28:52.80	301.97	33.74	-38.4	-39.3	23.3	0.00e+00	0	29	0	933232640	50	5926
2026-01-15 01:28:53.81	302.27	33.60	-38.9	-39.9	22.6	0.00e+00	0	29	0	935329792	50	6381
2026-01-15 01:28:54.82	302.57	33.47	-39.1	-40.1	22.6	0.00e+00	0	29	0	937426944	50	6519
2026-01-15 01:28:55.83	302.87	33.33	-38.8	-39.8	22.9	0.00e+00	0	29	0	939524096	50	6284
2026-01-15 01:28:56.84	303.17	33.19	-38.5	-39.4	23.1	0.00e+00	0	29	0	940572672	50	5985
2026-01-15 01:28:57.85	303.46	33.06	-38.0	-38.9	23.6	0.00e+00	0	29	0	942669824	50	5668
2026-01-15 01:28:58.86	303.75	32.92	-38.5	-39.5	23.2	0.00e+00	0	29	0	944766976	50	6036
2026-01-15 01:28:59.87	304.04	32.78	-39.5	-40.6	22.2	0.00e+00	0	29	0	946864128	50	6852
2026-01-15 01:29:00.88	304.33	32.65	-40.8	-42.0	20.8	0.00e+00	0	29	0	948961280	52	7204
2026-01-15 01:29:01.89	304.61	32.51	-41.0	-42.3	20.6	0.00e+00	0	29	0	950009856	54	6670
2026-01-15 01:29:02.90	304.89	32.37	-40.4	-41.6	21.2	0.00e+00	0	29	0	952107008	54	6134
2026-01-15 01:29:03.91	305.17	32.24	-40.0	-41.1	21.7	0.00e+00	0	29	0	954204160	54	5774
2026-01-15 01:29:04.92	305.44	32.10	-39.8	-40.9	21.8	0.00e+00	0	29	0	956301312	54	5679
2026-01-15 01:29:05.93	305.72	31.96	-39.8	-40.9	21.9	0.00e+00	0	29	0	958398464	54	5655
2026-01-15 01:29:06.94	305.99	31.82	-40.3	-41.5	21.3	0.00e+00	0	29	0	959447040	54	6058
2026-01-15 01:29:07.95	306.26	31.69	-41.1	-42.4	20.4	0.00e+00	0	30	0	961544192	54	6709
2026-01-15 01:29:08.96	306.53	31.55	-41.1	-42.4	20.5	0.00e+00	0	29	0	963641344	54	6705
2026-01-15 01:29:09.97	306.79	31.41	-40.5	-41.7	21.2	0.00e+00	0	29	0	965738496	54	6224
2026-01-15 01:29:10.98	307.06	31.27	-39.8	-40.9	22.1	0.00e+00	0	29	0	967835648	54	5667
2026-01-15 01:29:11.99	307.32	31.14	-39.0	-40.0	22.7	0.00e+00	0	29	0	968884224	52	5733
2026-01-15 01:29:13.00	307.58	31.00	-38.4	-39.3	23.4	0.00e+00	0	29	0	970981376	50	5930
2026-01-15 01:29:14.01	307.83	30.86	-38.2	-39.0	23.5	0.00e+00	0	29	0	973078528	50	5755
2026-01-15 01:29:15.02	308.09	30.72	-38.9	-39.9	22.5	0.00e+00	0	29	0	975175680	50	6331
2026-01-15 01:29:16.03	308.34	30.59	-40.2	-41.4	21.4	0.00e+00	0	29	0	977272832	52	6715
2026-01-15 01:29:17.04	308.59	30.45	-41.1	-42.5	20.4	0.00e+00	0	29	0	978321408	54	6770
2026-01-15 01:29:18.05	308.84	30.31	-40.0	-41.1	21.7	0.00e+00	0	29	0	980418560	54	5801
2026-01-15 01:29:19.06	309.08	30.18	-39.4	-40.4	22.4	0.00e+00	0	29	0	982515712	52	5987
2026-01-15 01:29:20.07	309.33	30.04	-38.3	-39.2	23.4	0.00e+00	0	29	0	984612864	50	5843
2026-01-15 01:29:21.08	309.57	29.90	-37.9	-38.7	23.8	0.00e+00	0	29	0	986710016	50	5553
2026-01-15 01:29:22.09	309.81	29.77	-38.1	-39.0	23.5	0.00e+00	0	29	0	987758592	50	5752
2026-01-15 01:29:23.10	310.05	29.63	-39.1	-40.1	22.6	0.00e+00	0	29	0	989855744	50	6497
2026-01-15 01:29:24.10	310.28	29.49	-39.9	-41.0	21.8	0.00e+00	0	29	0	991952896	50	7205
2026-01-15 01:29:25.11	310.51	29.36	-40.1	-41.3	21.5	0.00e+00	0	29	0	994050048	52	6618
2026-01-15 01:29:26.12	310.75	29.22	-40.0	-41.1	21.6	0.00e+00	0	29	0	996147200	52	6494
2026-01-15 01:29:27.13	310.98	29.08	-39.6	-40.7	22.2	0.00e+00	0	29	0	998244352	52	6215
2026-01-15 01:29:28.14	311.20	28.95	-38.1	-39.0	23.7	0.00e+00	0	29	0	999292928	50	5706
2026-01-15 01:29:29.15	311.43	28.81	-37.2	-38.0	24.4	0.00e+00	0	29	0	1001390080	48	5753
2026-01-15 01:29:30.16	311.65	28.68	-37.1	-37.9	24.4	0.00e+00	0	29	0	1003487232	48	5670
2026-01-15 01:29:31.16	311.88	28.54	-37.2	-38.0	24.1	0.00e+00	0	29	0	1005584384	48	5721
2026-01-15 01:29:32.17	312.10	28.41	-37.7	-38.6	23.8	0.00e+00	0	29	0	1006632960	48	6107
2026-01-15 01:29:33.18	312.32	28.27	-38.3	-39.3	23.2	0.00e+00	0	29	0	1008730112	48	6618
2026-01-15 01:29:34.19	312.53	28.14	-38.8	-39.8	22.3	0.00e+00	0	29	0	1010827264	48	7045
2026-01-15 01:29:35.20	312.75	28.01	-38.4	-39.3	23.3	0.00e+00	0	29	0	1012924416	50	5959
2026-01-15 01:29:36.20	312.96	27.87	-38.0	-38.9	23.6	0.00e+00	0	29	0	1015021568	50	5678
2026-01-15 01:29:37.21	313.17	27.74	-38.1	-39.0	23.6	0.00e+00	0	29	0	1016070144	50	5700
2026-01-15 01:29:38.22	313.38	27.60	-36.6	-37.3	24.9	0.00e+00	0	29	0	1018167296	46	5959
2026-01-15 01:29:39.23	313.59	27.47	-36.0	-36.8	25.4	0.00e+00	0	29	0	1020264448	46	5568
2026-01-15 01:29:40.24	313.80	27.34	-36.3	-37.0	25.2	0.00e+00	0	29	0	1022361600	46	5742
2026-01-15 01:29:41.25	314.00	27.21	-36.9	-37.7	24.6	0.00e+00	0	29	0	1024458752	46	6237
2026-01-15 01:29:42.26	314.21	27.07	-37.8	-38.7	23.7	0.00e+00	0	29	0	1026555904	46	6975
2026-01-15 01:29:43.27	314.41	26.94	-38.5	-39.5	23.1	0.00e+00	0	29	0	1027604480	48	6790
2026-01-15 01:29:44.28	314.61	26.81	-38.7	-39.7	22.9	0.00e+00	0	29	0	1029701632	48	6972
2026-01-15 01:29:45.29	314.81	26.68	-38.5	-39.5	23.0	0.00e+00	0	29	0	1031798784	48	6817
2026-01-15 01:29:46.30	315.00	26.55	-38.2	-39.2	23.3	0.00e+00	0	29	0	1033895936	48	6550
2026-01-15 01:29:47.31	315.20	26.41	-37.5	-38.3	24.2	0.00e+00	0	29	0	1035993088	48	5946
2026-01-15 01:29:48.32	315.39	26.28	-36.6	-37.4	24.9	0.00e+00	0	29	0	1037041664	46	5986
2026-01-15 01:29:49.32	315.58	26.15	-36.5	-37.3	24.9	0.00e+00	0	29	0	1039138816	46	5919
2026-01-15 01:29:50.33	315.77	26.02	-36.2	-37.0	25.1	0.00e+00	0	29	0	1041235968	46	5724
2026-01-15 01:29:51.34	315.96	25.89	-36.4	-37.2	25.0	0.00e+00	0	29	0	1043333120	46	5877
2026-01-15 01:29:52.35	316.15	25.76	-36.8	-37.6	24.7	0.00e+00	0	29	0	1045430272	46	6135
2026-01-15 01:29:53.36	316.34	25.63	-37.2	-38.0	24.3	0.00e+00	0	29	0	1046478848	46	6439
2026-01-15 01:29:54.37	316.52	25.51	-37.3	-38.2	24.2	0.00e+00	0	29	0	1048576000	46	6580
2026-01-15 01:29:55.38	316.71	25.38	-37.4	-38.2	24.2	0.00e+00	0	29	0	1050673152	46	6602
2026-01-15 01:29:56.39	316.89	25.25	-36.8	-37.7	24.6	0.00e+00	0	29	0	1052770304	46	6182
2026-01-15 01:29:57.40	317.07	25.12	-36.6	-37.4	24.9	0.00e+00	0	29	0	1054867456	46	6005
2026-01-15 01:29:58.41	317.25	24.99	-36.1	-36.8	25.3	0.00e+00	0	29	0	1055916032	46	5618
2026-01-15 01:29:59.42	317.42	24.87	-35.6	-36.4	25.6	0.00e+00	0	29	0	1058013184	44	5991
2026-01-15 01:30:00.43	317.60	24.74	-35.7	-36.5	25.5	0.00e+00	0	29	0	1060110336	44	6065
2026-01-15 01:30:01.44	317.78	24.61	-36.0	-36.7	25.4	0.00e+00	0	29	0	1062207488	44	6228
2026-01-15 01:30:02.45	317.95	24.49	-36.3	-37.0	25.1	0.00e+00	0	29	0	1064304640	44	6463
2026-01-15 01:30:03.45	318.12	24.36	-36.6	-37.4	24.6	0.00e+00	0	29	0	1065353216	44	6765
2026-01-15 01:30:04.46	318.29	24.24	-36.8	-37.6	24.7	0.00e+00	0	29	0	1067450368	46	6152
2026-01-15 01:30:05.48	318.46	24.11	-36.8	-37.6	24.6	0.00e+00	0	29	0	1069547520	46	6167
2026-01-15 01:30:06.48	318.63	23.99	-36.7	-37.5	24.7	0.00e+00	0	29	0	1071644672	46	6084
2026-01-15 01:30:07.49	318.80	23.86	-36.7	-37.5	24.8	0.00e+00	0	29	0	1073741824	46	6062
2026-01-15 01:30:08.50	318.96	23.74	-36.5	-37.3	24.9	0.00e+00	0	29	0	1074790400	46	5919
2026-01-15 01:30:09.51	319.13	23.61	-36.6	-37.4	24.9	0.00e+00	0	29	0	1076887552	46	5984
2026-01-15 01:30:10.52	319.29	23.49	-36.6	-37.4	24.9	0.00e+00	0	29	0	1078984704	46	5972
2026-01-15 01:30:11.53	319.45	23.37	-36.8	-37.6	24.7	0.00e+00	0	29	0	1081081856	46	6111
2026-01-15 01:30:12.54	319.61	23.24	-36.9	-37.8	24.6	0.00e+00	0	29	0	1083179008	46	6247
2026-01-15 01:30:13.55	319.77	23.12	-37.0	-37.8	24.5	0.00e+00	0	29	0	1084227584	46	6313
2026-01-15 01:30:14.56	319.93	23.00	-37.1	-37.9	24.4	0.00e+00	0	29	0	1086324736	46	6380
2026-01-15 01:30:15.57	320.09	22.88	-37.2	-38.1	24.3	0.00e+00	0	29	0	1088421888	46	6477
2026-01-15 01:30:16.58	320.24	22.76	-37.0	-37.9	24.4	0.00e+00	0	29	0	1090519040	46	6335
2026-01-15 01:30:17.59	320.40	22.63	-37.0	-37.9	24.5	0.00e+00	0	29	0	1092616192	46	6326
2026-01-15 01:30:18.60	320.55	22.51	-37.1	-37.9	24.4	0.00e+00	0	29	0	1094713344	46	6359
2026-01-15 01:30:19.61	320.70	22.39	-36.8	-37.6	24.6	0.00e+00	0	29	0	1095761920	46	6161
2026-01-15 01:30:20.62	320.85	22.27	-36.7	-37.5	24.8	0.00e+00	0	29	0	1097859072	46	6093
2026-01-15 01:30:21.63	321.00	22.15	-36.9	-37.8	24.5	0.00e+00	0	29	0	1099956224	46	6250
2026-01-15 01:30:22.64	321.15	22.04	-36.9	-37.7	24.5	0.00e+00	0	29	0	1102053376	46	6239
2026-01-15 01:30:23.65	321.30	21.92	-37.2	-38.1	24.3	0.00e+00	0	29	0	1104150528	46	6497
2026-01-15 01:30:24.66	321.45	21.80	-37.2	-38.1	24.2	0.00e+00	0	29	0	1105199104	46	6492
2026-01-15 01:30:25.67	321.59	21.68	-37.4	-38.3	24.1	0.00e+00	0	29	0	1107296256	46	6644
2026-01-15 01:30:26.68	321.74	21.56	-37.4	-38.3	24.0	0.00e+00	0	29	0	1109393408	46	6645
2026-01-15 01:30:27.69	321.88	21.45	-37.4	-38.2	24.0	0.00e+00	0	29	0	1111490560	46	6604
2026-01-15 01:30:28.70	322.02	21.33	-37.3	-38.2	24.1	0.00e+00	0	29	0	1113587712	46	6561
2026-01-15 01:30:29.70	322.16	21.21	-37.5	-38.4	23.9	0.00e+00	0	29	0	1114636288	46	6695
2026-01-15 01:30:30.71	322.30	21.10	-37.4	-38.3	24.0	0.00e+00	0	29	0	1116733440	46	6630
2026-01-15 01:30:31.72	322.44	20.98	-37.3	-38.1	24.1	0.00e+00	0	29	0	1118830592	46	6509
2026-01-15 01:30:32.73	322.58	20.87	-37.5	-38.3	24.0	0.00e+00	0	29	0	1120927744	46	6660
2026-01-15 01:30:33.74	322.72	20.75	-37.8	-38.7	23.7	0.00e+00	0	29	0	1123024896	48	6191
2026-01-15 01:30:34.75	322.86	20.64	-38.1	-39.1	23.3	0.00e+00	0	29	0	1124073472	48	6476
2026-01-15 01:30:35.76	322.99	20.52	-38.6	-39.6	22.8	0.00e+00	0	29	0	1126170624	48	6903
2026-01-15 01:30:36.76	323.13	20.41	-39.0	-40.0	22.5	0.00e+00	0	29	0	1128267776	50	6442
2026-01-15 01:30:37.77	323.26	20.30	-39.2	-40.3	22.2	0.00e+00	0	29	0	1130364928	50	6617
2026-01-15 01:30:38.78	323.39	20.18	-39.2	-40.3	22.2	0.00e+00	0	29	0	1132462080	50	6649
2026-01-15 01:30:39.79	323.52	20.07	-39.0	-40.0	22.6	0.00e+00	0	29	0	1133510656	50	6428
2026-01-15 01:30:40.80	323.65	19.96	-38.8	-39.8	22.7	0.00e+00	0	29	0	1135607808	50	6292
2026-01-15 01:30:41.81	323.78	19.84	-38.8	-39.8	22.8	0.00e+00	0	29	0	1137704960	50	6254
2026-01-15 01:30:42.82	323.91	19.73	-38.2	-39.2	23.3	0.00e+00	0	29	0	1139802112	50	5831
2026-01-15 01:30:43.83	324.04	19.62	-38.2	-39.1	23.2	0.00e+00	0	29	0	1141899264	50	5812
2026-01-15 01:30:44.84	324.17	19.51	-38.0	-38.9	23.4	0.00e+00	0	29	0	1142947840	50	5679
2026-01-15 01:30:45.85	324.29	19.40	-37.7	-38.6	23.8	0.00e+00	0	29	0	1145044992	48	6124
2026-01-15 01:30:46.86	324.42	19.29	-37.5	-38.4	23.9	0.00e+00	0	29	0	1147142144	48	6008
2026-01-15 01:30:47.87	324.54	19.18	-37.6	-38.5	23.9	0.00e+00	0	29	0	1149239296	48	6064
2026-01-15 01:30:48.88	324.67	19.07	-37.7	-38.5	23.8	0.00e+00	0	29	0	1151336448	48	6093
2026-01-15 01:30:49.89	324.79	18.96	-37.8	-38.7	23.6	0.00e+00	0	29	0	1152385024	48	6202
2026-01-15 01:30:50.90	324.91	18.85	-38.0	-38.9	23.2	0.00e+00	0	29	0	1154482176	48	6388
2026-01-15 01:30:51.91	325.03	18.74	-38.3	-39.2	23.1	0.00e+00	0	29	0	1156579328	48	6594
2026-01-15 01:30:52.92	325.15	18.64	-38.4	-39.4	23.0	0.00e+00	0	29	0	1158676480	48	6699
2026-01-15 01:30:53.93	325.27	18.53	-38.6	-39.6	22.8	0.00e+00	0	29	0	1160773632	48	6857
2026-01-15 01:30:54.94	325.39	18.42	-38.5	-39.5	22.9	0.00e+00	0	29	0	1162870784	48	6811
2026-01-15 01:30:55.94	325.51	18.31	-38.5	-39.4	22.9	0.00e+00	0	29	0	1163919360	48	6762
2026-01-15 01:30:56.95	325.63	18.21	-38.6	-39.5	22.9	0.00e+00	0	29	0	1166016512	48	6838
2026-01-15 01:30:57.96	325.74	18.10	-38.7	-39.7	22.8	0.00e+00	0	29	0	1168113664	48	6976
2026-01-15 01:30:58.97	325.86	18.00	-38.2	-39.2	23.2	0.00e+00	0	29	0	1170210816	48	6553
2026-01-15 01:30:59.98	325.97	17.89	-38.3	-39.2	23.2	0.00e+00	0	29	0	1172307968	48	6587
2026-01-15 01:31:00.99	326.09	17.78	-38.3	-39.2	23.2	0.00e+00	0	29	0	1173356544	48	6571
2026-01-15 01:31:02.00	326.20	17.68	-38.0	-39.0	23.4	0.00e+00	0	29	0	1175453696	48	6403
2026-01-15 01:31:03.01	326.31	17.58	-37.9	-38.8	23.5	0.00e+00	0	29	0	1177550848	48	6274
2026-01-15 01:31:04.02	326.42	17.47	-37.8	-38.7	23.6	0.00e+00	0	29	0	1179648000	48	6181
2026-01-15 01:31:05.03	326.54	17.37	-37.8	-38.7	23.6	0.00e+00	0	29	0	1181745152	48	6207
2026-01-15 01:31:06.04	326.65	17.26	-37.9	-38.8	23.4	0.00e+00	0	29	0	1182793728	48	6271
2026-01-15 01:31:07.05	326.76	17.16	-37.8	-38.7	23.6	0.00e+00	0	29	0	1184890880	48	6198
2026-01-15 01:31:08.06	326.86	17.06	-37.9	-38.8	23.4	0.00e+00	0	29	0	1186988032	48	6315
2026-01-15 01:31:09.07	326.97	16.95	-38.0	-38.9	23.5	0.00e+00	0	29	0	1189085184	48	6362
2026-01-15 01:31:10.08	327.08	16.85	-38.1	-39.0	23.3	0.00e+00	0	29	0	1191182336	48	6448
2026-01-15 01:31:11.09	327.19	16.75	-38.1	-39.1	23.2	0.00e+00	0	29	0	1192230912	48	6478
2026-01-15 01:31:12.10	327.29	16.65	-38.2	-39.2	23.1	0.00e+00	0	29	0	1194328064	48	6561
2026-01-15 01:31:13.11	327.40	16.55	-38.3	-39.3	23.0	0.00e+00	0	29	0	1196425216	48	6649
2026-01-15 01:31:14.12	327.50	16.45	-38.3	-39.3	23.0	0.00e+00	0	29	0	1198522368	48	6647
2026-01-15 01:31:15.13	327.61	16.35	-38.4	-39.4	22.9	0.00e+00	0	29	0	1200619520	48	6722
2026-01-15 01:31:16.14	327.71	16.25	-38.4	-39.3	23.1	0.00e+00	0	29	0	1201668096	48	6677
2026-01-15 01:31:17.15	327.81	16.15	-38.4	-39.3	22.9	0.00e+00	0	29	0	1203765248	48	6690
2026-01-15 01:31:18.16	327.92	16.05	-38.5	-39.4	22.9	0.00e+00	0	29	0	1205862400	48	6759
