passes_logs/2026/01/15/R4.6S_Anadyr/R4.6S_Anadyr__20260115_150514_NOAA_20_JPSS-1_rec.log

#Pass ID: 20260115_150514_NOAA 20 (JPSS-1)
#Satellite: NOAA 20 (JPSS-1)
#Configuration: NOAA 20
#almurnet v.1.7.20251203
#Start time: 2026-01-15 15:05:16

#Version: 2.2.20231116
#Station: R4.6S_Anadyr
#Location: 177.4865 lon 64.73178 lat
#TLE: 1 43013U 17073A   26014.55467351  .00000038  00000+0  38801-4 0  9992
#TLE: 2 43013  98.7635 315.4987 0001517  39.9279 320.2008 14.19535859422677

#Time	Az	El	Level	Level2	SNR	BER	BlckErr	Temp	State	Recorded	gain1	gain2
2026-01-15 15:05:16.19	21.34	0.07	-48.2	-63.1	3.5	1.51e+00	0	26	0	0	60	51475
2026-01-15 15:05:17.19	21.33	0.13	-48.2	-63.5	3.6	1.51e+00	0	27	104	0	60	53806
2026-01-15 15:05:18.20	21.32	0.19	-48.2	-63.4	3.6	1.51e+00	0	27	104	0	60	53516
2026-01-15 15:05:19.21	21.32	0.25	-48.1	-63.4	3.6	1.51e+00	0	27	104	0	60	53579
2026-01-15 15:05:20.22	21.31	0.32	-48.2	-63.5	3.6	1.51e+00	0	27	104	0	60	53999
2026-01-15 15:05:21.23	21.31	0.38	-48.3	-63.5	3.6	1.51e+00	0	27	104	0	60	54123
2026-01-15 15:05:22.24	21.30	0.44	-48.2	-63.5	3.6	1.51e+00	0	27	104	0	60	53835
2026-01-15 15:05:23.25	21.30	0.50	-48.2	-63.4	3.6	1.51e+00	0	27	104	0	60	53751
2026-01-15 15:05:24.26	21.29	0.56	-48.1	-63.3	3.6	1.51e+00	0	27	104	0	60	52909
2026-01-15 15:05:25.27	21.28	0.62	-48.1	-63.3	3.6	1.51e+00	0	27	104	0	60	52970
2026-01-15 15:05:26.28	21.28	0.68	-48.0	-63.2	3.6	1.51e+00	0	27	104	0	60	52111
2026-01-15 15:05:27.29	21.27	0.74	-47.8	-63.0	3.6	1.51e+00	0	27	104	0	60	51114
2026-01-15 15:05:28.30	21.26	0.81	-47.1	-62.7	3.6	1.51e+00	0	27	104	0	60	49542
2026-01-15 15:05:29.31	21.26	0.87	-47.4	-62.7	3.6	1.51e+00	0	27	104	0	60	49064
2026-01-15 15:05:30.32	21.25	0.93	-47.2	-62.4	3.6	1.51e+00	0	27	104	0	60	47467
2026-01-15 15:05:31.33	21.25	0.99	-46.8	-62.0	3.6	1.51e+00	0	27	104	0	60	45526
2026-01-15 15:05:32.34	21.24	1.05	-46.6	-61.9	3.6	1.51e+00	0	27	104	0	60	44788
2026-01-15 15:05:33.35	21.23	1.12	-46.6	-61.9	3.6	1.51e+00	0	27	104	0	60	44748
2026-01-15 15:05:34.36	21.23	1.18	-46.6	-61.8	3.6	1.51e+00	0	27	104	0	60	44550
2026-01-15 15:05:35.37	21.22	1.24	-46.6	-61.8	3.6	1.51e+00	0	27	104	0	60	44295
2026-01-15 15:05:36.38	21.21	1.30	-46.6	-61.7	3.6	1.51e+00	0	27	104	0	60	44078
2026-01-15 15:05:37.39	21.21	1.37	-46.6	-61.7	3.6	1.51e+00	0	27	104	0	60	43885
2026-01-15 15:05:38.40	21.20	1.43	-46.6	-61.7	3.6	1.51e+00	0	27	104	0	60	43863
2026-01-15 15:05:39.41	21.19	1.49	-46.6	-61.6	3.6	1.51e+00	0	27	104	0	60	43454
2026-01-15 15:05:40.42	21.19	1.56	-46.6	-61.7	3.6	1.51e+00	0	27	104	0	60	43780
2026-01-15 15:05:41.43	21.18	1.62	-46.6	-61.7	3.6	1.51e+00	0	27	104	0	60	43988
2026-01-15 15:05:42.44	21.17	1.68	-46.6	-61.7	3.6	1.51e+00	0	27	104	0	60	44178
2026-01-15 15:05:43.45	21.17	1.75	-46.6	-61.7	3.6	1.51e+00	0	27	104	0	60	44207
2026-01-15 15:05:44.46	21.16	1.81	-46.6	-61.8	3.6	1.51e+00	0	27	104	0	60	44347
2026-01-15 15:05:45.47	21.15	1.87	-46.6	-61.8	3.6	1.51e+00	0	27	104	0	60	44626
2026-01-15 15:05:46.48	21.15	1.94	-46.6	-61.8	3.6	1.51e+00	0	27	104	0	60	44434
2026-01-15 15:05:47.49	21.14	2.00	-46.6	-61.7	3.6	1.51e+00	0	27	104	0	60	43981
2026-01-15 15:05:48.50	21.13	2.07	-46.6	-61.8	3.6	1.51e+00	0	27	104	0	60	44324
2026-01-15 15:05:49.51	21.12	2.13	-46.6	-61.6	3.6	1.51e+00	0	27	104	0	60	43686
2026-01-15 15:05:50.51	21.12	2.20	-46.6	-61.6	3.6	1.51e+00	0	28	104	0	60	43320
2026-01-15 15:05:51.52	21.11	2.26	-46.6	-61.3	3.6	1.51e+00	0	28	104	0	60	41990
2026-01-15 15:05:52.53	21.10	2.33	-46.5	-61.0	3.6	1.51e+00	0	27	104	0	60	40668
2026-01-15 15:05:53.54	21.10	2.39	-46.5	-60.7	3.6	1.51e+00	0	28	104	0	60	39276
2026-01-15 15:05:54.55	21.09	2.46	-46.5	-60.5	3.6	1.51e+00	0	28	104	0	60	38085
2026-01-15 15:05:55.56	21.08	2.52	-46.5	-60.1	3.6	1.50e+00	0	28	104	0	60	36425
2026-01-15 15:05:56.57	21.07	2.59	-46.5	-60.1	3.6	1.51e+00	0	28	104	0	60	36407
2026-01-15 15:05:57.58	21.07	2.65	-46.5	-60.3	3.6	1.51e+00	0	28	104	0	60	37287
2026-01-15 15:05:58.59	21.06	2.72	-46.5	-60.0	3.6	1.51e+00	0	28	104	0	60	36030
2026-01-15 15:05:59.60	21.05	2.79	-46.4	-58.9	3.9	1.49e+00	0	28	104	0	60	31997
2026-01-15 15:06:00.61	21.04	2.85	-46.3	-55.9	4.3	1.39e+00	6	28	0	0	60	22597
2026-01-15 15:06:01.62	21.03	2.92	-46.1	-54.1	5.5	5.11e-01	92	28	0	2097152	60	18350
2026-01-15 15:06:02.63	21.03	2.98	-45.8	-52.5	7.3	1.79e-01	6	28	0	4194304	60	15237
2026-01-15 15:06:03.64	21.02	3.05	-45.2	-50.4	9.9	3.52e-02	9	28	0	5242880	60	11977
2026-01-15 15:06:04.65	21.01	3.12	-44.8	-49.5	11.0	6.12e-03	5	28	0	7340032	60	10816
2026-01-15 15:06:05.66	21.00	3.18	-44.3	-48.3	12.4	3.32e-04	6	28	0	9437184	60	9365
2026-01-15 15:06:06.67	20.99	3.25	-43.9	-47.4	13.3	2.89e-05	0	28	0	11534336	60	8463
2026-01-15 15:06:07.68	20.99	3.32	-43.4	-46.6	14.1	5.30e-06	0	28	0	13631488	60	7711
2026-01-15 15:06:08.69	20.98	3.39	-43.4	-46.5	14.3	1.50e-06	92	28	0	14680064	60	7608
2026-01-15 15:06:09.70	20.97	3.45	-43.2	-46.2	14.6	7.00e-07	6	27	0	16777216	60	7350
2026-01-15 15:06:10.71	20.96	3.52	-43.4	-46.5	14.2	0.00e+00	0	28	0	18874368	60	7630
2026-01-15 15:06:11.72	20.95	3.59	-43.6	-46.9	13.8	1.50e-06	0	28	0	20971520	60	8001
2026-01-15 15:06:12.73	20.94	3.66	-44.0	-47.7	12.9	2.44e-05	82	28	0	23068672	60	8769
2026-01-15 15:06:13.74	20.94	3.73	-44.5	-48.8	11.6	2.06e-04	0	28	0	25165824	60	9992
2026-01-15 15:06:14.75	20.93	3.80	-41.8	-43.9	16.9	6.50e-04	81	28	0	26214400	58	6340
2026-01-15 15:06:15.76	20.92	3.86	-42.2	-44.5	16.1	0.00e+00	92	27	0	28311552	56	7630
2026-01-15 15:06:16.76	20.91	3.93	-46.6	-59.4	3.6	2.89e-05	0	28	104	30408704	60	33925
2026-01-15 15:06:17.77	20.90	4.00	-43.0	-45.7	5.9	1.50e+00	0	28	104	30408704	60	6996
2026-01-15 15:06:18.78	20.89	4.07	-46.4	-58.5	3.6	2.19e-02	12	28	0	30408704	60	30369
2026-01-15 15:06:19.79	20.88	4.14	-43.2	-46.1	5.9	1.50e+00	0	28	104	30408704	60	7270
2026-01-15 15:06:20.80	20.87	4.21	-42.3	-44.6	16.0	8.77e-02	2	28	0	30408704	58	6854
2026-01-15 15:06:21.81	20.87	4.28	-42.4	-44.7	16.3	0.00e+00	0	28	0	32505856	58	6998
2026-01-15 15:06:22.82	20.86	4.35	-41.7	-43.7	17.3	0.00e+00	81	28	0	33554432	56	6976
2026-01-15 15:06:23.83	20.85	4.42	-41.2	-43.0	17.9	0.00e+00	0	28	0	35651584	56	6435
2026-01-15 15:06:24.84	20.84	4.49	-41.1	-42.9	18.1	0.00e+00	90	28	0	37748736	56	6335
2026-01-15 15:06:25.85	20.83	4.56	-41.0	-42.8	18.2	0.00e+00	0	28	0	39845888	56	6263
2026-01-15 15:06:26.85	20.82	4.63	-41.2	-42.9	18.1	0.00e+00	0	28	0	41943040	56	6373
2026-01-15 15:06:27.86	20.81	4.70	-41.1	-42.8	18.1	0.00e+00	0	28	0	42991616	56	6288
2026-01-15 15:06:28.87	20.80	4.77	-41.2	-43.0	18.1	0.00e+00	0	28	0	45088768	56	6446
2026-01-15 15:06:29.88	20.79	4.84	-41.0	-42.8	18.3	0.00e+00	0	28	0	47185920	56	6259
2026-01-15 15:06:30.89	20.78	4.91	-41.2	-43.0	18.1	0.00e+00	0	28	0	49283072	56	6395
2026-01-15 15:06:31.90	20.77	4.99	-41.0	-42.7	18.3	0.00e+00	92	28	0	51380224	56	6231
2026-01-15 15:06:32.91	20.76	5.06	-40.9	-42.6	18.5	0.00e+00	82	28	0	52428800	56	6158
2026-01-15 15:06:33.92	20.75	5.13	-40.9	-42.6	18.5	0.00e+00	15	28	0	54525952	56	6108
2026-01-15 15:06:34.93	20.74	5.20	-40.9	-42.6	18.5	0.00e+00	0	28	0	56623104	56	6143
2026-01-15 15:06:35.94	20.73	5.27	-40.9	-42.5	18.6	0.00e+00	82	28	0	58720256	56	6076
2026-01-15 15:06:36.95	20.72	5.35	-40.8	-42.4	18.7	0.00e+00	0	28	0	60817408	56	6008
2026-01-15 15:06:37.96	20.71	5.42	-40.8	-42.4	18.6	0.00e+00	0	28	0	61865984	54	6767
2026-01-15 15:06:38.97	20.70	5.49	-40.7	-42.3	18.8	0.00e+00	92	28	0	63963136	54	6675
2026-01-15 15:06:39.98	20.69	5.56	-40.6	-42.2	18.9	0.00e+00	82	28	0	66060288	54	6540
2026-01-15 15:06:40.99	20.68	5.64	-40.6	-42.2	18.9	0.00e+00	92	28	0	68157440	54	6593
2026-01-15 15:06:42.00	20.67	5.71	-40.7	-42.3	18.8	0.00e+00	81	28	0	70254592	54	6625
2026-01-15 15:06:43.01	20.66	5.79	-40.6	-42.2	19.0	0.00e+00	0	28	0	71303168	54	6567
2026-01-15 15:06:44.02	20.65	5.86	-40.7	-42.2	18.9	0.00e+00	0	28	0	73400320	54	6609
2026-01-15 15:06:45.03	20.64	5.93	-40.6	-42.2	19.0	0.00e+00	0	28	0	75497472	54	6601
2026-01-15 15:06:46.04	20.63	6.01	-40.5	-42.1	19.1	0.00e+00	68	28	0	77594624	54	6493
2026-01-15 15:06:47.05	20.62	6.08	-40.5	-42.1	19.1	0.00e+00	2	28	0	79691776	54	6509
2026-01-15 15:06:48.06	20.61	6.16	-40.6	-42.1	19.1	0.00e+00	92	28	0	80740352	54	6508
2026-01-15 15:06:49.07	20.60	6.23	-40.5	-42.1	19.1	0.00e+00	2	28	0	82837504	54	6476
2026-01-15 15:06:50.08	20.59	6.31	-40.4	-41.9	19.3	0.00e+00	0	28	0	84934656	54	6372
2026-01-15 15:06:51.09	20.57	6.38	-40.4	-41.9	19.3	0.00e+00	0	28	0	87031808	54	6328
2026-01-15 15:06:52.10	20.56	6.46	-40.5	-42.1	19.2	0.00e+00	82	28	0	89128960	54	6477
2026-01-15 15:06:53.11	20.55	6.53	-40.5	-42.0	19.2	0.00e+00	87	28	0	90177536	54	6448
2026-01-15 15:06:54.12	20.54	6.61	-40.4	-41.9	19.4	0.00e+00	81	28	0	92274688	54	6351
2026-01-15 15:06:55.13	20.53	6.69	-40.4	-41.9	19.4	0.00e+00	92	28	0	94371840	54	6341
2026-01-15 15:06:56.14	20.52	6.76	-40.3	-41.8	19.4	0.00e+00	82	28	0	96468992	54	6273
2026-01-15 15:06:57.15	20.51	6.84	-40.4	-41.9	19.3	0.00e+00	92	28	0	98566144	54	6356
2026-01-15 15:06:58.16	20.49	6.92	-40.2	-41.6	19.6	0.00e+00	0	28	0	100663296	54	6170
2026-01-15 15:06:59.17	20.48	6.99	-40.2	-41.6	19.7	0.00e+00	0	28	0	101711872	54	6148
2026-01-15 15:07:00.18	20.47	7.07	-40.2	-41.6	19.8	0.00e+00	70	28	0	103809024	54	6121
2026-01-15 15:07:01.19	20.46	7.15	-40.1	-41.5	19.8	0.00e+00	0	28	0	105906176	54	6074
2026-01-15 15:07:02.20	20.45	7.23	-40.0	-41.4	19.8	0.00e+00	91	28	0	108003328	54	6018
2026-01-15 15:07:03.21	20.44	7.31	-40.3	-41.7	19.5	0.00e+00	0	28	0	110100480	54	6220
2026-01-15 15:07:04.22	20.42	7.38	-40.0	-41.4	19.9	0.00e+00	62	28	0	111149056	54	5996
2026-01-15 15:07:05.23	20.41	7.46	-40.1	-41.5	19.8	0.00e+00	0	28	0	113246208	54	6037
2026-01-15 15:07:06.24	20.40	7.54	-40.1	-41.5	19.8	0.00e+00	0	28	0	115343360	54	6058
2026-01-15 15:07:07.25	20.39	7.62	-39.9	-41.2	20.1	0.00e+00	0	28	0	117440512	54	5889
2026-01-15 15:07:08.26	20.37	7.70	-39.9	-41.3	19.9	0.00e+00	2	28	0	119537664	54	5940
2026-01-15 15:07:09.27	20.36	7.78	-39.9	-41.2	20.1	0.00e+00	90	28	0	120586240	54	5881
2026-01-15 15:07:10.28	20.35	7.86	-39.9	-41.3	20.0	0.00e+00	0	28	0	122683392	54	5904
2026-01-15 15:07:11.29	20.34	7.94	-39.8	-41.2	20.2	0.00e+00	92	28	0	124780544	54	5829
2026-01-15 15:07:12.30	20.32	8.02	-39.9	-41.2	20.2	0.00e+00	0	28	0	126877696	52	6585
2026-01-15 15:07:13.31	20.31	8.10	-39.9	-41.3	20.1	0.00e+00	82	28	0	128974848	52	6621
2026-01-15 15:07:14.32	20.30	8.18	-39.8	-41.1	20.3	0.00e+00	0	28	0	130023424	52	6511
2026-01-15 15:07:15.33	20.28	8.26	-39.8	-41.1	20.3	0.00e+00	0	28	0	132120576	52	6531
2026-01-15 15:07:16.34	20.27	8.34	-39.7	-41.0	20.3	0.00e+00	0	28	0	134217728	52	6457
2026-01-15 15:07:17.35	20.26	8.43	-39.7	-41.0	20.4	0.00e+00	0	28	0	136314880	52	6451
2026-01-15 15:07:18.36	20.24	8.51	-39.7	-41.0	20.4	0.00e+00	92	28	0	138412032	52	6456
2026-01-15 15:07:19.37	20.23	8.59	-39.7	-41.0	20.5	0.00e+00	82	28	0	139460608	52	6397
2026-01-15 15:07:20.38	20.22	8.67	-39.7	-41.0	20.4	0.00e+00	21	28	0	141557760	52	6423
2026-01-15 15:07:21.39	20.20	8.76	-39.7	-40.9	20.5	0.00e+00	0	28	0	143654912	52	6378
2026-01-15 15:07:22.40	20.19	8.84	-39.7	-41.0	20.5	0.00e+00	0	28	0	145752064	52	6391
2026-01-15 15:07:23.41	20.17	8.92	-39.7	-41.0	20.5	0.00e+00	0	28	0	147849216	52	6397
2026-01-15 15:07:24.42	20.16	9.00	-39.6	-40.9	20.5	0.00e+00	6	28	0	148897792	52	6366
2026-01-15 15:07:25.42	20.15	9.09	-39.5	-40.8	20.6	0.00e+00	90	28	0	150994944	52	6301
2026-01-15 15:07:26.43	20.13	9.17	-39.7	-41.0	20.6	0.00e+00	6	28	0	153092096	52	6392
2026-01-15 15:07:27.44	20.12	9.26	-39.5	-40.8	20.6	0.00e+00	92	28	0	155189248	52	6284
2026-01-15 15:07:28.45	20.10	9.34	-39.5	-40.8	20.6	0.00e+00	5	28	0	157286400	52	6277
2026-01-15 15:07:29.46	20.09	9.43	-39.6	-40.8	20.7	0.00e+00	5	28	0	158334976	52	6284
2026-01-15 15:07:30.48	20.07	9.51	-39.6	-40.8	20.7	0.00e+00	5	28	0	160432128	52	6317
2026-01-15 15:07:31.48	20.06	9.60	-39.4	-40.6	20.8	0.00e+00	5	28	0	162529280	52	6130
2026-01-15 15:07:32.49	20.04	9.68	-39.4	-40.6	20.9	0.00e+00	78	28	0	164626432	52	6150
2026-01-15 15:07:33.50	20.03	9.77	-39.3	-40.6	20.9	0.00e+00	83	28	0	166723584	52	6106
2026-01-15 15:07:34.51	20.01	9.86	-39.2	-40.4	21.0	0.00e+00	92	28	0	168820736	52	6012
2026-01-15 15:07:35.52	20.00	9.94	-39.3	-40.5	21.0	0.00e+00	0	28	0	169869312	52	6037
2026-01-15 15:07:36.53	19.98	10.03	-39.3	-40.5	21.0	0.00e+00	0	28	0	171966464	52	6052
2026-01-15 15:07:37.54	19.97	10.12	-39.3	-40.4	21.1	0.00e+00	0	28	0	174063616	52	6033
2026-01-15 15:07:38.55	19.95	10.20	-39.4	-40.6	20.9	0.00e+00	0	28	0	176160768	52	6158
2026-01-15 15:07:39.56	19.93	10.29	-39.3	-40.5	21.0	0.00e+00	0	28	0	178257920	52	6058
2026-01-15 15:07:40.57	19.92	10.38	-39.3	-40.5	21.0	0.00e+00	86	28	0	179306496	52	6050
2026-01-15 15:07:41.58	19.90	10.47	-39.4	-40.6	20.9	0.00e+00	90	28	0	181403648	52	6152
2026-01-15 15:07:42.59	19.89	10.56	-39.2	-40.4	21.1	0.00e+00	82	28	0	183500800	52	5993
2026-01-15 15:07:43.60	19.87	10.65	-39.0	-40.2	21.2	0.00e+00	90	28	0	185597952	52	5895
2026-01-15 15:07:44.61	19.85	10.74	-39.0	-40.3	21.2	0.00e+00	6	28	0	187695104	52	5904
2026-01-15 15:07:45.62	19.84	10.83	-39.1	-40.3	21.1	0.00e+00	0	28	0	188743680	52	5950
2026-01-15 15:07:46.63	19.82	10.92	-39.0	-40.2	21.3	0.00e+00	0	28	0	190840832	52	5880
2026-01-15 15:07:47.64	19.80	11.01	-39.0	-40.2	21.3	0.00e+00	0	28	0	192937984	52	5855
2026-01-15 15:07:48.65	19.79	11.10	-38.9	-40.2	21.3	0.00e+00	94	28	0	195035136	52	5870
2026-01-15 15:07:49.66	19.77	11.19	-38.9	-40.2	21.3	0.00e+00	0	28	0	197132288	52	5858
2026-01-15 15:07:50.66	19.75	11.28	-38.8	-40.0	21.4	0.00e+00	92	28	0	198180864	52	5746
2026-01-15 15:07:51.67	19.74	11.37	-38.9	-40.1	21.5	0.00e+00	6	28	0	200278016	52	5775
2026-01-15 15:07:52.68	19.72	11.46	-38.7	-39.9	21.6	0.00e+00	7	28	0	202375168	50	6358
2026-01-15 15:07:53.69	19.70	11.56	-38.8	-40.0	21.5	0.00e+00	6	28	0	204472320	50	6419
2026-01-15 15:07:54.70	19.68	11.65	-38.8	-40.0	21.6	0.00e+00	0	28	0	206569472	50	6391
2026-01-15 15:07:55.71	19.66	11.74	-38.9	-40.0	21.5	0.00e+00	92	28	0	207618048	50	6430
2026-01-15 15:07:56.72	19.65	11.84	-38.8	-39.9	21.6	0.00e+00	81	28	0	209715200	50	6349
2026-01-15 15:07:57.73	19.63	11.93	-38.8	-39.9	21.6	0.00e+00	92	28	0	211812352	50	6352
2026-01-15 15:07:58.74	19.61	12.02	-38.7	-39.9	21.7	0.00e+00	0	28	0	213909504	50	6320
2026-01-15 15:07:59.75	19.59	12.12	-38.7	-39.8	21.7	0.00e+00	81	28	0	216006656	50	6298
2026-01-15 15:08:00.76	19.57	12.21	-38.7	-39.9	21.7	0.00e+00	81	28	0	217055232	50	6320
2026-01-15 15:08:01.77	19.55	12.31	-38.8	-39.9	21.7	0.00e+00	82	28	0	219152384	50	6322
2026-01-15 15:08:02.78	19.54	12.40	-38.6	-39.7	21.9	0.00e+00	71	28	0	221249536	50	6203
2026-01-15 15:08:03.79	19.52	12.50	-38.6	-39.7	21.9	0.00e+00	0	28	0	223346688	50	6188
2026-01-15 15:08:04.80	19.50	12.60	-38.7	-39.8	21.7	0.00e+00	92	28	0	225443840	50	6262
2026-01-15 15:08:05.81	19.48	12.69	-38.6	-39.7	21.9	0.00e+00	0	28	0	226492416	50	6198
2026-01-15 15:08:06.82	19.46	12.79	-38.7	-39.7	21.8	0.00e+00	92	28	0	228589568	50	6243
2026-01-15 15:08:07.83	19.44	12.89	-38.6	-39.7	22.0	0.00e+00	0	28	0	230686720	50	6234
2026-01-15 15:08:08.84	19.42	12.99	-38.4	-39.5	22.1	0.00e+00	0	28	0	232783872	50	6067
2026-01-15 15:08:09.85	19.40	13.09	-38.5	-39.5	22.1	0.00e+00	2	28	0	234881024	50	6084
2026-01-15 15:08:10.86	19.38	13.18	-38.5	-39.6	22.0	0.00e+00	0	28	0	236978176	50	6141
2026-01-15 15:08:11.87	19.36	13.28	-38.4	-39.4	22.1	0.00e+00	91	28	0	238026752	50	6004
2026-01-15 15:08:12.88	19.34	13.38	-38.5	-39.5	22.1	0.00e+00	0	28	0	240123904	50	6096
2026-01-15 15:08:13.89	19.32	13.48	-38.3	-39.4	22.1	0.00e+00	92	28	0	242221056	50	6000
2026-01-15 15:08:14.90	19.30	13.58	-38.4	-39.4	22.2	0.00e+00	82	28	0	244318208	50	6000
2026-01-15 15:08:15.91	19.28	13.69	-38.3	-39.3	22.2	0.00e+00	82	28	0	246415360	50	5962
2026-01-15 15:08:16.92	19.25	13.79	-38.2	-39.3	22.3	0.00e+00	0	28	0	247463936	50	5910
2026-01-15 15:08:17.93	19.23	13.89	-38.2	-39.2	22.4	0.00e+00	82	28	0	249561088	50	5851
2026-01-15 15:08:18.94	19.21	13.99	-38.2	-39.2	22.4	0.00e+00	60	28	0	251658240	50	5872
2026-01-15 15:08:19.95	19.19	14.09	-38.1	-39.1	22.4	0.00e+00	0	28	0	253755392	50	5798
2026-01-15 15:08:20.96	19.17	14.20	-38.2	-39.2	22.3	0.00e+00	92	28	0	255852544	50	5847
2026-01-15 15:08:21.97	19.15	14.30	-38.1	-39.1	22.4	0.00e+00	80	28	0	256901120	50	5813
2026-01-15 15:08:22.98	19.12	14.40	-38.1	-39.1	22.4	0.00e+00	82	28	0	258998272	50	5788
2026-01-15 15:08:23.99	19.10	14.51	-38.0	-39.1	22.5	0.00e+00	0	28	0	261095424	50	5763
2026-01-15 15:08:24.99	19.08	14.61	-38.0	-39.0	22.6	0.00e+00	0	28	0	263192576	50	5748
2026-01-15 15:08:26.00	19.06	14.72	-38.0	-39.0	22.5	0.00e+00	91	28	0	265289728	50	5720
2026-01-15 15:08:27.01	19.03	14.82	-38.2	-39.2	22.4	0.00e+00	0	28	0	266338304	50	5855
2026-01-15 15:08:28.02	19.01	14.93	-37.9	-38.9	22.7	0.00e+00	92	28	0	268435456	50	5633
2026-01-15 15:08:29.03	18.99	15.03	-38.0	-39.0	22.6	0.00e+00	0	28	0	270532608	50	5699
2026-01-15 15:08:30.04	18.96	15.14	-37.9	-38.9	22.7	0.00e+00	62	28	0	272629760	50	5677
2026-01-15 15:08:31.05	18.94	15.25	-38.0	-39.0	22.6	0.00e+00	0	28	0	274726912	50	5719
2026-01-15 15:08:32.06	18.91	15.36	-37.8	-38.8	22.8	0.00e+00	0	28	0	275775488	50	5605
2026-01-15 15:08:33.07	18.89	15.47	-37.8	-38.8	22.8	0.00e+00	2	28	0	277872640	50	5586
2026-01-15 15:08:34.08	18.87	15.57	-37.7	-38.7	22.9	0.00e+00	0	28	0	279969792	48	6207
2026-01-15 15:08:35.08	18.84	15.68	-37.8	-38.8	22.8	0.00e+00	92	28	0	282066944	48	6256
2026-01-15 15:08:36.09	18.82	15.79	-37.8	-38.8	22.7	0.00e+00	0	28	0	284164096	48	6275
2026-01-15 15:08:37.10	18.79	15.90	-37.6	-38.6	23.0	0.00e+00	92	28	0	285212672	48	6104
2026-01-15 15:08:38.11	18.77	16.01	-37.6	-38.5	23.0	0.00e+00	81	28	0	287309824	48	6092
2026-01-15 15:08:39.11	18.74	16.12	-37.6	-38.6	23.0	0.00e+00	0	28	0	289406976	48	6111
2026-01-15 15:08:40.12	18.72	16.24	-37.5	-38.4	23.1	0.00e+00	80	28	0	291504128	48	6018
2026-01-15 15:08:41.13	18.69	16.35	-37.5	-38.4	23.1	0.00e+00	0	28	0	293601280	48	6006
2026-01-15 15:08:42.14	18.66	16.46	-37.5	-38.4	23.2	0.00e+00	90	28	0	294649856	48	6001
2026-01-15 15:08:43.15	18.64	16.57	-37.6	-38.5	23.0	0.00e+00	0	28	0	296747008	48	6084
2026-01-15 15:08:44.16	18.61	16.69	-37.5	-38.4	23.1	0.00e+00	90	28	0	298844160	48	6015
2026-01-15 15:08:45.17	18.58	16.80	-37.4	-38.3	23.2	0.00e+00	0	28	0	300941312	48	5950
2026-01-15 15:08:46.18	18.56	16.92	-37.4	-38.3	23.2	0.00e+00	81	28	0	303038464	48	5944
2026-01-15 15:08:47.19	18.53	17.03	-37.4	-38.3	23.2	0.00e+00	0	28	0	304087040	48	5917
2026-01-15 15:08:48.20	18.50	17.15	-37.3	-38.3	23.3	0.00e+00	0	28	0	306184192	48	5911
2026-01-15 15:08:49.21	18.47	17.27	-37.4	-38.3	23.2	0.00e+00	78	28	0	308281344	48	5921
2026-01-15 15:08:50.22	18.45	17.38	-37.3	-38.2	23.3	0.00e+00	0	28	0	310378496	48	5871
2026-01-15 15:08:51.23	18.42	17.50	-37.4	-38.3	23.2	0.00e+00	90	28	0	312475648	48	5936
2026-01-15 15:08:52.24	18.39	17.62	-37.2	-38.1	23.4	0.00e+00	0	28	0	313524224	48	5817
2026-01-15 15:08:53.24	18.36	17.74	-37.1	-38.0	23.5	0.00e+00	61	28	0	315621376	48	5751
2026-01-15 15:08:54.25	18.33	17.86	-37.1	-38.1	23.5	0.00e+00	0	28	0	317718528	48	5770
2026-01-15 15:08:55.26	18.30	17.98	-37.1	-38.0	23.6	0.00e+00	0	28	0	319815680	48	5719
2026-01-15 15:08:56.27	18.27	18.10	-37.2	-38.1	23.5	0.00e+00	0	28	0	321912832	48	5779
2026-01-15 15:08:57.28	18.24	18.22	-37.1	-38.0	23.5	0.00e+00	2	28	0	322961408	48	5719
2026-01-15 15:08:58.29	18.21	18.34	-37.1	-38.0	23.6	0.00e+00	92	28	0	325058560	48	5728
2026-01-15 15:08:59.30	18.18	18.46	-37.0	-37.9	23.7	0.00e+00	0	28	0	327155712	48	5639
2026-01-15 15:09:00.31	18.15	18.58	-36.9	-37.8	23.7	0.00e+00	92	28	0	329252864	48	5610
2026-01-15 15:09:01.32	18.12	18.71	-36.9	-37.8	23.8	0.00e+00	0	28	0	331350016	48	5597
2026-01-15 15:09:02.33	18.09	18.83	-36.9	-37.8	23.7	0.00e+00	82	28	0	333447168	48	5615
2026-01-15 15:09:03.33	18.06	18.96	-36.8	-37.7	23.9	0.00e+00	0	28	0	334495744	48	5525
2026-01-15 15:09:04.35	18.03	19.08	-37.0	-37.9	23.8	0.00e+00	80	28	0	336592896	48	5632
2026-01-15 15:09:05.36	17.99	19.21	-36.9	-37.8	23.7	0.00e+00	90	28	0	338690048	48	5571
2026-01-15 15:09:06.36	17.96	19.33	-36.8	-37.7	23.8	0.00e+00	2	28	0	340787200	48	5538
2026-01-15 15:09:07.37	17.93	19.46	-36.8	-37.7	23.9	0.00e+00	92	28	0	342884352	46	6175
2026-01-15 15:09:08.38	17.90	19.59	-36.8	-37.7	23.9	0.00e+00	81	28	0	343932928	46	6193
2026-01-15 15:09:09.39	17.86	19.72	-36.8	-37.7	23.9	0.00e+00	92	28	0	346030080	46	6218
2026-01-15 15:09:10.40	17.83	19.85	-36.8	-37.7	23.8	0.00e+00	5	28	0	348127232	46	6220
2026-01-15 15:09:11.41	17.80	19.98	-36.7	-37.6	24.0	0.00e+00	0	28	0	350224384	46	6111
2026-01-15 15:09:12.42	17.76	20.11	-36.6	-37.4	24.1	0.00e+00	0	28	0	352321536	46	6027
2026-01-15 15:09:13.43	17.73	20.24	-36.6	-37.5	24.1	0.00e+00	5	28	0	353370112	46	6076
2026-01-15 15:09:14.43	17.69	20.37	-36.6	-37.4	24.1	0.00e+00	92	28	0	355467264	46	6031
2026-01-15 15:09:15.45	17.66	20.50	-36.6	-37.4	24.2	0.00e+00	0	28	0	357564416	46	6032
2026-01-15 15:09:16.45	17.62	20.63	-36.7	-37.5	24.0	0.00e+00	70	28	0	359661568	46	6091
2026-01-15 15:09:17.47	17.59	20.77	-36.6	-37.5	24.0	0.00e+00	5	28	0	361758720	46	6051
2026-01-15 15:09:18.48	17.55	20.90	-36.4	-37.3	24.3	0.00e+00	0	28	0	362807296	46	5897
2026-01-15 15:09:19.49	17.51	21.04	-36.4	-37.3	24.3	0.00e+00	0	28	0	364904448	46	5908
2026-01-15 15:09:20.50	17.48	21.18	-36.4	-37.3	24.3	0.00e+00	0	28	0	367001600	46	5914
2026-01-15 15:09:21.51	17.44	21.31	-36.4	-37.3	24.2	0.00e+00	92	28	0	369098752	46	5919
2026-01-15 15:09:22.51	17.40	21.45	-36.3	-37.1	24.4	0.00e+00	85	28	0	371195904	46	5800
2026-01-15 15:09:23.52	17.36	21.59	-36.2	-37.0	24.5	0.00e+00	92	28	0	372244480	46	5760
2026-01-15 15:09:24.53	17.32	21.73	-36.2	-37.1	24.5	0.00e+00	85	28	0	374341632	46	5772
2026-01-15 15:09:25.54	17.28	21.87	-36.3	-37.2	24.4	0.00e+00	0	28	0	376438784	46	5837
2026-01-15 15:09:26.55	17.25	22.01	-36.1	-37.0	24.6	0.00e+00	84	28	0	378535936	46	5703
2026-01-15 15:09:27.56	17.21	22.15	-36.0	-36.8	24.7	0.00e+00	1	28	0	380633088	46	5622
2026-01-15 15:09:28.57	17.17	22.29	-36.0	-36.9	24.6	0.00e+00	0	28	0	381681664	46	5641
2026-01-15 15:09:29.58	17.13	22.43	-36.0	-36.9	24.6	0.00e+00	0	28	0	383778816	46	5632
2026-01-15 15:09:30.59	17.08	22.58	-35.9	-36.8	24.7	0.00e+00	92	28	0	385875968	46	5576
2026-01-15 15:09:31.60	17.04	22.72	-36.0	-36.8	24.7	0.00e+00	86	28	0	387973120	46	5605
2026-01-15 15:09:32.61	17.00	22.87	-36.0	-36.8	24.5	0.00e+00	54	28	0	390070272	46	5604
2026-01-15 15:09:33.62	16.96	23.01	-36.1	-36.9	24.5	0.00e+00	6	28	0	391118848	46	5639
2026-01-15 15:09:34.63	16.92	23.16	-36.2	-37.0	24.6	0.00e+00	8	28	0	393216000	46	5715
2026-01-15 15:09:35.64	16.87	23.31	-36.0	-36.8	24.6	0.00e+00	2	28	0	395313152	46	5610
2026-01-15 15:09:36.65	16.83	23.46	-36.0	-36.8	24.7	0.00e+00	0	28	0	397410304	46	5614
2026-01-15 15:09:37.66	16.79	23.61	-36.1	-36.9	24.6	0.00e+00	88	28	0	399507456	46	5686
2026-01-15 15:09:38.67	16.74	23.76	-36.1	-36.9	24.6	0.00e+00	0	28	0	401604608	46	5665
2026-01-15 15:09:39.67	16.70	23.90	-36.0	-36.8	24.6	0.00e+00	17	28	0	402653184	46	5630
2026-01-15 15:09:40.68	16.65	24.06	-36.1	-36.9	24.5	0.00e+00	0	28	0	404750336	46	5654
2026-01-15 15:09:41.70	16.61	24.21	-36.1	-36.9	24.6	0.00e+00	6	28	0	406847488	46	5679
2026-01-15 15:09:42.71	16.56	24.36	-36.1	-36.9	24.5	0.00e+00	55	28	0	408944640	46	5683
2026-01-15 15:09:43.71	16.51	24.52	-36.1	-36.9	24.6	0.00e+00	81	28	0	411041792	46	5688
2026-01-15 15:09:44.72	16.47	24.67	-36.3	-37.2	24.4	0.00e+00	92	28	0	412090368	46	5829
2026-01-15 15:09:45.73	16.42	24.83	-36.2	-37.0	24.5	0.00e+00	0	28	0	414187520	46	5759
2026-01-15 15:09:46.74	16.37	24.99	-36.2	-37.1	24.5	0.00e+00	92	28	0	416284672	46	5777
2026-01-15 15:09:47.75	16.32	25.15	-36.2	-37.0	24.6	0.00e+00	81	28	0	418381824	46	5738
2026-01-15 15:09:48.76	16.27	25.30	-36.3	-37.2	24.5	0.00e+00	0	28	0	420478976	46	5842
2026-01-15 15:09:49.77	16.22	25.46	-36.3	-37.1	24.5	0.00e+00	81	28	0	421527552	46	5819
2026-01-15 15:09:50.78	16.17	25.63	-36.4	-37.2	24.4	0.00e+00	0	28	0	423624704	46	5885
2026-01-15 15:09:51.79	16.12	25.79	-36.5	-37.3	24.3	0.00e+00	0	28	0	425721856	46	5957
2026-01-15 15:09:52.80	16.07	25.95	-36.7	-37.5	24.2	0.00e+00	0	28	0	427819008	46	6084
2026-01-15 15:09:53.81	16.02	26.11	-36.7	-37.5	24.1	0.00e+00	92	28	0	429916160	46	6092
2026-01-15 15:09:54.82	15.96	26.28	-36.9	-37.7	24.0	0.00e+00	0	28	0	430964736	46	6245
2026-01-15 15:09:55.83	15.91	26.44	-37.0	-37.9	23.8	0.00e+00	79	28	0	433061888	46	6343
2026-01-15 15:09:56.83	15.86	26.61	-37.2	-38.1	23.5	0.00e+00	0	28	0	435159040	46	6515
2026-01-15 15:09:57.84	15.80	26.78	-37.5	-38.5	23.3	0.00e+00	0	28	0	437256192	46	6800
2026-01-15 15:09:58.85	15.75	26.95	-37.6	-38.6	23.2	0.00e+00	0	28	0	439353344	46	6871
2026-01-15 15:09:59.86	15.69	27.12	-37.5	-38.4	23.4	0.00e+00	0	28	0	440401920	46	6769
2026-01-15 15:10:00.87	15.63	27.29	-37.8	-38.7	23.0	0.00e+00	92	28	0	442499072	48	6240
2026-01-15 15:10:01.88	15.58	27.46	-37.7	-38.6	23.2	0.00e+00	0	28	0	444596224	48	6139
2026-01-15 15:10:02.89	15.52	27.63	-37.8	-38.8	23.0	0.00e+00	92	28	0	446693376	48	6280
2026-01-15 15:10:03.90	15.46	27.81	-37.9	-38.9	23.0	0.00e+00	0	28	0	448790528	48	6328
2026-01-15 15:10:04.91	15.40	27.98	-37.6	-38.5	23.0	0.00e+00	81	28	0	449839104	48	6097
2026-01-15 15:10:05.92	15.34	28.16	-37.7	-38.6	23.0	0.00e+00	0	28	0	451936256	48	6156
2026-01-15 15:10:06.92	15.28	28.33	-37.6	-38.6	23.2	0.00e+00	81	28	0	454033408	48	6120
2026-01-15 15:10:07.93	15.22	28.51	-37.8	-38.7	23.1	0.00e+00	92	28	0	456130560	48	6227
2026-01-15 15:10:08.94	15.16	28.69	-37.9	-38.9	23.0	0.00e+00	80	28	0	458227712	48	6358
2026-01-15 15:10:09.95	15.10	28.87	-38.1	-39.1	22.7	0.00e+00	92	28	0	459276288	48	6501
2026-01-15 15:10:10.96	15.03	29.05	-38.5	-39.5	22.4	0.00e+00	0	28	0	461373440	48	6785
2026-01-15 15:10:11.97	14.97	29.24	-38.5	-39.5	22.4	0.00e+00	80	28	0	463470592	48	6800
2026-01-15 15:10:12.98	14.90	29.42	-38.6	-39.7	22.2	0.00e+00	81	28	0	465567744	48	6956
2026-01-15 15:10:13.99	14.84	29.61	-38.8	-39.8	22.2	0.00e+00	0	28	0	467664896	50	6301
2026-01-15 15:10:15.00	14.77	29.79	-38.9	-40.0	22.0	0.00e+00	62	28	0	469762048	50	6403
2026-01-15 15:10:16.01	14.70	29.98	-39.0	-40.1	22.0	0.00e+00	0	28	0	470810624	50	6483
2026-01-15 15:10:17.02	14.64	30.17	-39.1	-40.2	21.9	0.00e+00	92	28	0	472907776	50	6547
2026-01-15 15:10:18.03	14.57	30.36	-39.3	-40.5	21.6	0.00e+00	0	28	0	475004928	50	6787
2026-01-15 15:10:19.04	14.50	30.55	-39.3	-40.5	21.5	0.00e+00	92	28	0	477102080	50	6790
2026-01-15 15:10:20.05	14.43	30.74	-39.4	-40.5	21.5	0.00e+00	0	28	0	479199232	50	6831
2026-01-15 15:10:21.06	14.35	30.94	-39.6	-40.8	21.3	0.00e+00	0	28	0	480247808	50	7018
2026-01-15 15:10:22.07	14.28	31.13	-39.7	-40.9	21.2	0.00e+00	0	28	0	482344960	50	7118
2026-01-15 15:10:23.08	14.21	31.33	-39.8	-41.0	21.0	0.00e+00	0	28	0	484442112	52	6462
2026-01-15 15:10:24.09	14.13	31.53	-40.0	-41.3	20.8	0.00e+00	92	28	0	486539264	52	6642
2026-01-15 15:10:25.10	14.06	31.72	-40.1	-41.4	20.8	0.00e+00	2	28	0	488636416	52	6713
2026-01-15 15:10:26.11	13.98	31.92	-40.2	-41.5	20.6	0.00e+00	63	28	0	489684992	52	6794
2026-01-15 15:10:27.12	13.90	32.13	-40.0	-41.3	20.7	0.00e+00	0	28	0	491782144	52	6653
2026-01-15 15:10:28.13	13.82	32.33	-40.2	-41.5	20.5	0.00e+00	79	28	0	493879296	52	6821
2026-01-15 15:10:29.14	13.74	32.53	-40.1	-41.5	20.6	0.00e+00	0	28	0	495976448	52	6798
2026-01-15 15:10:30.15	13.66	32.74	-40.1	-41.5	20.7	0.00e+00	0	28	0	498073600	52	6812
2026-01-15 15:10:31.16	13.58	32.94	-39.8	-41.2	20.9	0.00e+00	92	28	0	499122176	52	6567
2026-01-15 15:10:32.17	13.50	33.15	-39.8	-41.2	20.9	0.00e+00	76	28	0	501219328	52	6605
2026-01-15 15:10:33.18	13.42	33.36	-39.8	-41.3	20.9	0.00e+00	92	28	0	503316480	52	6641
2026-01-15 15:10:34.19	13.33	33.57	-39.8	-41.2	21.0	0.00e+00	0	28	0	505413632	52	6577
2026-01-15 15:10:35.20	13.24	33.78	-39.8	-41.3	20.8	0.00e+00	0	28	0	507510784	52	6636
2026-01-15 15:10:36.21	13.16	34.00	-39.9	-41.3	20.9	0.00e+00	0	28	0	508559360	52	6637
2026-01-15 15:10:37.22	13.07	34.21	-39.6	-40.9	21.2	0.00e+00	0	28	0	510656512	52	6346
2026-01-15 15:10:38.23	12.98	34.43	-39.6	-40.9	21.2	0.00e+00	84	28	0	512753664	52	6362
2026-01-15 15:10:39.24	12.89	34.65	-39.4	-40.6	21.5	0.00e+00	2	28	0	514850816	52	6127
2026-01-15 15:10:40.24	12.80	34.86	-39.2	-40.3	21.7	0.00e+00	92	28	0	516947968	52	5961
2026-01-15 15:10:41.25	12.70	35.08	-39.0	-40.1	21.9	0.00e+00	0	28	0	517996544	52	5801
2026-01-15 15:10:42.26	12.61	35.31	-38.9	-40.0	22.2	0.00e+00	1	28	0	520093696	52	5697
2026-01-15 15:10:43.27	12.51	35.53	-38.7	-39.8	22.2	0.00e+00	0	28	0	522190848	50	6263
2026-01-15 15:10:44.27	12.41	35.75	-38.6	-39.6	22.4	0.00e+00	0	28	0	524288000	50	6118
2026-01-15 15:10:45.28	12.31	35.98	-38.4	-39.4	22.6	0.00e+00	0	28	0	526385152	50	5977
2026-01-15 15:10:46.29	12.21	36.21	-38.1	-39.0	22.9	0.00e+00	0	28	0	527433728	50	5725
2026-01-15 15:10:47.30	12.11	36.44	-38.0	-39.0	23.0	0.00e+00	92	28	0	529530880	50	5702
2026-01-15 15:10:48.31	12.01	36.67	-38.0	-39.0	23.0	0.00e+00	79	28	0	531628032	50	5733
2026-01-15 15:10:49.32	11.90	36.90	-38.3	-39.3	22.6	0.00e+00	92	28	0	533725184	50	5937
2026-01-15 15:10:50.33	11.80	37.13	-38.2	-39.2	22.8	0.00e+00	0	28	0	535822336	50	5832
2026-01-15 15:10:51.34	11.69	37.37	-37.9	-38.8	23.2	0.00e+00	0	28	0	536870912	50	5607
2026-01-15 15:10:52.35	11.58	37.61	-38.1	-39.1	23.0	0.00e+00	0	28	0	538968064	50	5795
2026-01-15 15:10:53.36	11.47	37.85	-38.1	-39.1	22.9	0.00e+00	0	28	0	541065216	50	5787
2026-01-15 15:10:54.37	11.35	38.09	-38.1	-39.1	22.9	0.00e+00	90	28	0	543162368	50	5828
2026-01-15 15:10:55.37	11.24	38.33	-38.3	-39.3	22.7	0.00e+00	0	28	0	545259520	50	5932
2026-01-15 15:10:56.38	11.12	38.57	-38.4	-39.4	22.6	0.00e+00	92	28	0	546308096	50	5991
2026-01-15 15:10:57.39	11.00	38.82	-38.6	-39.7	22.3	0.00e+00	0	28	0	548405248	50	6180
2026-01-15 15:10:58.40	10.88	39.06	-38.8	-39.9	22.2	0.00e+00	7	28	0	550502400	50	6347
2026-01-15 15:10:59.41	10.76	39.31	-39.0	-40.1	22.0	0.00e+00	0	28	0	552599552	50	6472
2026-01-15 15:11:00.42	10.64	39.56	-39.0	-40.1	21.9	0.00e+00	7	28	0	554696704	50	6532
2026-01-15 15:11:01.43	10.51	39.81	-39.2	-40.3	21.6	0.00e+00	10	28	0	555745280	50	6647
2026-01-15 15:11:02.44	10.38	40.07	-39.6	-40.7	21.3	0.00e+00	7	28	0	557842432	50	7006
2026-01-15 15:11:03.45	10.25	40.32	-39.4	-40.5	21.6	0.00e+00	92	28	0	559939584	50	6780
2026-01-15 15:11:04.46	10.12	40.58	-39.5	-40.6	21.4	0.00e+00	2	28	0	562036736	50	6874
2026-01-15 15:11:05.47	9.98	40.84	-39.6	-40.7	21.4	0.00e+00	90	28	0	564133888	50	6995
2026-01-15 15:11:06.48	9.85	41.10	-39.6	-40.7	21.5	0.00e+00	3	28	0	566231040	52	6203
2026-01-15 15:11:07.49	9.71	41.36	-39.5	-40.6	21.5	0.00e+00	0	28	0	567279616	52	6152
2026-01-15 15:11:08.50	9.57	41.62	-39.4	-40.5	21.6	0.00e+00	0	28	0	569376768	52	6057
2026-01-15 15:11:09.51	9.42	41.89	-39.5	-40.6	21.6	0.00e+00	1	28	0	571473920	52	6166
2026-01-15 15:11:10.52	9.28	42.15	-39.9	-41.1	21.1	0.00e+00	92	28	0	573571072	52	6465
2026-01-15 15:11:11.52	9.13	42.42	-39.9	-41.2	21.0	0.00e+00	85	28	0	575668224	52	6545
2026-01-15 15:11:12.53	8.98	42.69	-40.0	-41.2	20.9	0.00e+00	90	28	0	576716800	52	6572
2026-01-15 15:11:13.54	8.82	42.96	-39.8	-41.0	20.5	0.00e+00	4	28	0	578813952	52	6432
2026-01-15 15:11:14.55	8.67	43.24	-39.5	-40.6	21.5	0.00e+00	0	28	0	580911104	52	6147
2026-01-15 15:11:15.56	8.51	43.51	-39.4	-40.5	21.5	0.00e+00	87	28	0	583008256	52	6074
2026-01-15 15:11:16.57	8.34	43.79	-39.4	-40.6	21.5	0.00e+00	84	28	0	585105408	52	6106
2026-01-15 15:11:17.58	8.18	44.07	-39.6	-40.7	21.4	0.00e+00	90	28	0	586153984	52	6244
2026-01-15 15:11:18.59	8.01	44.35	-39.5	-40.7	21.4	0.00e+00	0	28	0	588251136	52	6200
2026-01-15 15:11:19.60	7.84	44.63	-39.4	-40.6	21.5	0.00e+00	90	28	0	590348288	52	6125
2026-01-15 15:11:20.61	7.66	44.92	-39.5	-40.6	21.5	0.00e+00	0	28	0	592445440	52	6153
2026-01-15 15:11:21.62	7.48	45.20	-39.2	-40.4	21.8	0.00e+00	7	28	0	594542592	52	5978
2026-01-15 15:11:22.63	7.30	45.49	-39.2	-40.3	21.8	0.00e+00	0	28	0	595591168	52	5922
2026-01-15 15:11:23.64	7.12	45.78	-38.9	-40.0	22.1	0.00e+00	0	28	0	597688320	52	5741
2026-01-15 15:11:24.65	6.93	46.07	-38.9	-40.0	22.1	0.00e+00	0	28	0	599785472	52	5727
2026-01-15 15:11:25.66	6.74	46.36	-38.8	-39.9	22.1	0.00e+00	6	28	0	601882624	52	5674
2026-01-15 15:11:26.67	6.54	46.66	-38.9	-40.0	22.0	0.00e+00	91	28	0	603979776	50	6434
2026-01-15 15:11:27.68	6.34	46.96	-39.1	-40.2	21.9	0.00e+00	0	28	0	605028352	50	6559
2026-01-15 15:11:28.69	6.14	47.25	-39.0	-40.1	22.0	0.00e+00	92	28	0	607125504	50	6497
2026-01-15 15:11:29.70	5.93	47.55	-39.0	-40.1	21.8	0.00e+00	0	28	0	609222656	50	6539
2026-01-15 15:11:30.70	5.72	47.85	-38.9	-40.0	22.0	0.00e+00	0	28	0	611319808	50	6445
2026-01-15 15:11:31.71	5.51	48.16	-38.9	-39.9	22.1	0.00e+00	0	28	0	613416960	50	6387
2026-01-15 15:11:32.72	5.29	48.46	-38.9	-39.9	22.1	0.00e+00	82	28	0	614465536	50	6390
2026-01-15 15:11:33.73	5.06	48.77	-38.9	-39.9	22.2	0.00e+00	88	28	0	616562688	50	6386
2026-01-15 15:11:34.74	4.84	49.08	-38.7	-39.8	22.3	0.00e+00	2	28	0	618659840	50	6246
2026-01-15 15:11:35.75	4.60	49.39	-38.5	-39.6	22.4	0.00e+00	92	28	0	620756992	50	6129
2026-01-15 15:11:36.76	4.36	49.70	-38.4	-39.4	22.6	0.00e+00	0	28	0	622854144	50	6017
2026-01-15 15:11:37.77	4.12	50.01	-37.9	-38.9	23.0	0.00e+00	77	28	0	623902720	50	5665
2026-01-15 15:11:38.78	3.87	50.33	-37.9	-38.8	22.9	0.00e+00	79	28	0	625999872	50	5624
2026-01-15 15:11:39.79	3.62	50.64	-37.5	-38.5	23.5	0.00e+00	0	28	0	628097024	48	6050
2026-01-15 15:11:40.80	3.36	50.96	-37.5	-38.5	23.4	0.00e+00	92	28	0	630194176	48	6044
2026-01-15 15:11:41.80	3.10	51.28	-37.3	-38.2	23.6	0.00e+00	0	28	0	632291328	48	5870
2026-01-15 15:11:42.81	2.82	51.60	-37.0	-37.9	24.0	0.00e+00	92	28	0	634388480	48	5647
2026-01-15 15:11:43.82	2.55	51.92	-36.8	-37.7	24.0	0.00e+00	0	28	0	635437056	48	5526
2026-01-15 15:11:44.83	2.26	52.24	-36.4	-37.2	24.7	0.00e+00	69	28	0	637534208	46	5875
2026-01-15 15:11:45.84	1.98	52.57	-35.9	-36.7	24.9	0.00e+00	0	28	0	639631360	46	5519
2026-01-15 15:11:46.85	1.68	52.90	-36.1	-36.9	24.8	0.00e+00	0	28	0	641728512	46	5657
2026-01-15 15:11:47.86	1.38	53.22	-36.2	-37.1	24.6	0.00e+00	0	28	0	643825664	46	5798
2026-01-15 15:11:48.87	1.07	53.55	-36.2	-37.0	24.6	0.00e+00	3	28	0	644874240	46	5758
2026-01-15 15:11:49.88	0.75	53.88	-36.2	-37.0	24.6	0.00e+00	91	28	0	646971392	46	5755
2026-01-15 15:11:50.89	0.43	54.22	-36.4	-37.2	24.3	0.00e+00	0	28	0	649068544	46	5876
2026-01-15 15:11:51.90	0.09	54.55	-36.9	-37.8	24.0	0.00e+00	90	28	0	651165696	46	6312
2026-01-15 15:11:52.91	359.75	54.88	-37.5	-38.5	23.5	0.00e+00	3	28	0	653262848	46	6775
2026-01-15 15:11:53.91	359.41	55.21	-37.5	-38.5	23.4	0.00e+00	3	28	0	654311424	46	6799
2026-01-15 15:11:54.92	359.05	55.55	-37.2	-38.1	23.7	0.00e+00	0	28	0	656408576	46	6493
2026-01-15 15:11:55.93	358.69	55.89	-37.3	-38.2	23.6	0.00e+00	0	28	0	658505728	46	6615
2026-01-15 15:11:56.94	358.31	56.23	-37.7	-38.6	23.2	0.00e+00	91	28	0	660602880	46	6905
2026-01-15 15:11:57.95	357.93	56.57	-38.2	-39.2	22.7	0.00e+00	0	28	0	662700032	48	6597
2026-01-15 15:11:58.96	357.53	56.91	-38.5	-39.6	22.3	0.00e+00	92	28	0	663748608	48	6850
2026-01-15 15:11:59.97	357.13	57.25	-39.1	-40.3	21.7	0.00e+00	81	28	0	665845760	50	6624
2026-01-15 15:12:00.98	356.72	57.59	-39.5	-40.7	21.3	0.00e+00	80	28	0	667942912	50	6939
2026-01-15 15:12:01.99	356.29	57.93	-39.5	-40.7	21.4	0.00e+00	0	28	0	670040064	50	6965
2026-01-15 15:12:03.00	355.86	58.27	-39.5	-40.7	21.4	0.00e+00	2	28	0	672137216	50	6929
2026-01-15 15:12:04.01	355.41	58.61	-39.1	-40.3	21.7	0.00e+00	90	28	0	673185792	50	6622
2026-01-15 15:12:05.02	354.95	58.96	-39.1	-40.2	21.7	0.00e+00	0	28	0	675282944	50	6608
2026-01-15 15:12:06.03	354.48	59.30	-39.0	-40.1	21.8	0.00e+00	91	28	0	677380096	50	6484
2026-01-15 15:12:07.04	354.00	59.64	-38.5	-39.5	22.5	0.00e+00	0	28	0	679477248	50	6045
2026-01-15 15:12:08.05	353.50	59.99	-38.1	-39.1	22.9	0.00e+00	5	28	0	681574400	50	5805
2026-01-15 15:12:09.06	352.99	60.33	-37.4	-38.3	23.5	0.00e+00	0	28	0	682622976	48	5913
2026-01-15 15:12:10.07	352.47	60.67	-37.0	-37.9	23.8	0.00e+00	0	28	0	684720128	48	5678
2026-01-15 15:12:11.08	351.93	61.01	-36.5	-37.3	24.3	0.00e+00	5	28	0	686817280	46	5923
2026-01-15 15:12:12.08	351.38	61.35	-36.3	-37.1	24.5	0.00e+00	0	28	0	688914432	46	5776
2026-01-15 15:12:13.09	350.81	61.69	-36.2	-37.0	24.7	0.00e+00	90	28	0	691011584	46	5700
2026-01-15 15:12:14.10	350.23	62.03	-36.1	-36.9	24.8	0.00e+00	77	28	0	692060160	46	5671
2026-01-15 15:12:15.11	349.63	62.37	-36.4	-37.3	24.3	0.00e+00	92	28	0	694157312	46	5914
2026-01-15 15:12:16.12	349.01	62.71	-36.7	-37.5	24.1	0.00e+00	77	28	0	696254464	46	6088
2026-01-15 15:12:17.13	348.37	63.05	-36.5	-37.4	24.3	0.00e+00	3	28	0	698351616	46	5980
2026-01-15 15:12:18.14	347.72	63.39	-36.4	-37.2	24.5	0.00e+00	2	28	0	700448768	46	5867
2026-01-15 15:12:19.15	347.05	63.72	-36.3	-37.1	24.5	0.00e+00	0	28	0	701497344	46	5805
2026-01-15 15:12:20.16	346.35	64.05	-36.6	-37.5	24.2	0.00e+00	92	28	0	703594496	46	6040
2026-01-15 15:12:21.17	345.64	64.38	-36.8	-37.7	24.0	0.00e+00	79	28	0	705691648	46	6188
2026-01-15 15:12:22.18	344.90	64.71	-37.3	-38.3	23.5	0.00e+00	92	28	0	707788800	46	6634
2026-01-15 15:12:23.18	344.16	65.03	-38.3	-39.4	22.5	0.00e+00	0	28	0	709885952	48	6698
2026-01-15 15:12:24.20	343.37	65.36	-38.9	-40.0	22.0	0.00e+00	0	28	0	710934528	50	6464
2026-01-15 15:12:25.20	342.58	65.68	-39.0	-40.1	22.0	0.00e+00	0	28	0	713031680	50	6513
2026-01-15 15:12:26.21	341.75	65.99	-39.0	-40.1	21.8	0.00e+00	0	28	0	715128832	50	6534
2026-01-15 15:12:27.22	340.90	66.31	-39.2	-40.3	21.6	0.00e+00	0	28	0	717225984	50	6651
2026-01-15 15:12:28.23	340.03	66.62	-39.3	-40.4	21.6	0.00e+00	0	28	0	719323136	50	6742
2026-01-15 15:12:29.24	339.13	66.92	-39.3	-40.5	21.6	0.00e+00	92	28	0	720371712	50	6772
2026-01-15 15:12:30.25	338.20	67.22	-39.7	-40.9	21.2	0.00e+00	0	28	0	722468864	50	7142
2026-01-15 15:12:31.26	337.25	67.52	-40.0	-41.3	20.8	0.00e+00	92	28	0	724566016	52	6626
2026-01-15 15:12:32.27	336.27	67.81	-40.0	-41.3	20.7	0.00e+00	0	28	0	726663168	52	6658
2026-01-15 15:12:33.28	335.26	68.10	-39.8	-41.0	21.2	0.00e+00	0	28	0	728760320	52	6439
2026-01-15 15:12:34.29	334.22	68.38	-39.1	-40.2	21.8	0.00e+00	0	28	0	730857472	52	5860
2026-01-15 15:12:35.30	333.15	68.66	-38.8	-39.8	22.2	0.00e+00	0	28	0	731906048	52	5626
2026-01-15 15:12:36.31	332.06	68.93	-39.1	-40.3	21.7	0.00e+00	92	28	0	734003200	50	6627
2026-01-15 15:12:37.32	330.93	69.19	-39.3	-40.4	21.6	0.00e+00	77	28	0	736100352	50	6766
2026-01-15 15:12:38.33	329.77	69.44	-39.4	-40.6	21.4	0.00e+00	92	28	0	738197504	50	6881
2026-01-15 15:12:39.34	328.58	69.69	-39.5	-40.7	21.5	0.00e+00	79	28	0	740294656	50	6961
2026-01-15 15:12:40.35	327.36	69.93	-38.8	-39.9	22.3	0.00e+00	2	28	0	741343232	50	6357
2026-01-15 15:12:41.36	326.11	70.17	-38.3	-39.4	22.7	0.00e+00	0	28	0	743440384	50	5971
2026-01-15 15:12:42.36	324.84	70.39	-38.0	-38.9	23.1	0.00e+00	0	28	0	745537536	50	5687
2026-01-15 15:12:43.37	323.52	70.60	-37.8	-38.8	23.2	0.00e+00	92	28	0	747634688	50	5572
2026-01-15 15:12:44.38	322.18	70.81	-37.5	-38.4	23.4	0.00e+00	79	28	0	749731840	48	6010
2026-01-15 15:12:45.39	320.80	71.00	-37.5	-38.5	23.3	0.00e+00	93	28	0	750780416	48	6060
2026-01-15 15:12:46.40	319.40	71.19	-37.3	-38.2	23.8	0.00e+00	0	28	0	752877568	48	5843
2026-01-15 15:12:47.41	317.96	71.36	-37.1	-38.0	23.7	0.00e+00	6	28	0	754974720	48	5755
2026-01-15 15:12:48.42	316.50	71.53	-37.4	-38.3	23.2	0.00e+00	0	28	0	757071872	48	5958
2026-01-15 15:12:49.43	315.01	71.68	-37.1	-38.0	23.8	0.00e+00	2	28	0	759169024	48	5741
2026-01-15 15:12:50.44	313.50	71.82	-37.0	-37.9	23.8	0.00e+00	0	28	0	760217600	48	5649
2026-01-15 15:12:51.45	311.96	71.95	-37.3	-38.2	23.3	0.00e+00	2	28	0	762314752	48	5856
2026-01-15 15:12:52.46	310.40	72.06	-38.0	-39.0	22.8	0.00e+00	92	28	0	764411904	48	6410
2026-01-15 15:12:53.47	308.81	72.17	-38.5	-39.5	22.3	0.00e+00	5	28	0	766509056	48	6827
2026-01-15 15:12:54.48	307.22	72.26	-38.9	-40.0	22.0	0.00e+00	92	28	0	768606208	48	7209
2026-01-15 15:12:55.49	305.60	72.33	-38.4	-39.4	22.5	0.00e+00	0	28	0	769654784	50	6032
2026-01-15 15:12:56.50	303.97	72.40	-38.7	-39.7	22.2	0.00e+00	0	28	0	771751936	50	6197
2026-01-15 15:12:57.51	302.33	72.45	-39.2	-40.3	21.7	0.00e+00	0	28	0	773849088	50	6663
2026-01-15 15:12:58.52	300.68	72.48	-39.0	-40.1	21.8	0.00e+00	86	28	0	775946240	50	6500
2026-01-15 15:12:59.53	299.03	72.51	-38.9	-39.9	22.0	0.00e+00	92	28	0	778043392	50	6371
2026-01-15 15:13:00.54	297.37	72.52	-38.6	-39.6	22.2	0.00e+00	86	28	0	779091968	50	6127
2026-01-15 15:13:01.55	295.71	72.51	-38.1	-39.1	22.7	0.00e+00	92	28	0	781189120	50	5790
2026-01-15 15:13:02.56	294.05	72.49	-38.2	-39.2	22.6	0.00e+00	0	28	0	783286272	50	5835
2026-01-15 15:13:03.57	292.40	72.46	-38.5	-39.6	22.2	0.00e+00	0	28	0	785383424	50	6105
2026-01-15 15:13:04.58	290.76	72.41	-38.2	-39.2	22.6	0.00e+00	0	28	0	787480576	50	5871
2026-01-15 15:13:05.59	289.13	72.35	-38.3	-39.3	22.4	0.00e+00	0	28	0	788529152	50	5955
2026-01-15 15:13:06.60	287.51	72.27	-38.6	-39.7	22.3	0.00e+00	90	28	0	790626304	50	6189
2026-01-15 15:13:07.61	285.91	72.19	-37.9	-38.9	23.0	0.00e+00	0	28	0	792723456	50	5663
2026-01-15 15:13:08.62	284.32	72.09	-37.3	-38.3	23.5	0.00e+00	92	28	0	794820608	48	5919
2026-01-15 15:13:09.63	282.75	71.97	-37.3	-38.2	23.5	0.00e+00	7	28	0	796917760	48	5842
2026-01-15 15:13:10.64	281.21	71.85	-37.0	-37.9	23.8	0.00e+00	5	28	0	799014912	48	5668
2026-01-15 15:13:11.65	279.69	71.71	-36.8	-37.7	24.0	0.00e+00	0	28	0	800063488	46	6207
2026-01-15 15:13:12.66	278.19	71.56	-36.8	-37.7	24.0	0.00e+00	7	28	0	802160640	46	6200
2026-01-15 15:13:13.67	276.72	71.40	-36.4	-37.3	24.3	0.00e+00	0	28	0	804257792	46	5928
2026-01-15 15:13:14.69	275.27	71.22	-37.3	-38.2	23.6	0.00e+00	3	28	0	806354944	46	6563
2026-01-15 15:13:15.69	273.87	71.04	-38.0	-39.0	22.8	0.00e+00	92	28	0	808452096	48	6452
2026-01-15 15:13:16.70	272.49	70.85	-38.6	-39.7	22.3	0.00e+00	2	28	0	809500672	48	6942
2026-01-15 15:13:17.71	271.14	70.65	-38.8	-39.9	21.9	0.00e+00	77	28	0	811597824	50	6355
2026-01-15 15:13:18.73	269.80	70.43	-38.8	-39.9	22.1	0.00e+00	4	28	0	813694976	50	6345
2026-01-15 15:13:19.73	268.52	70.21	-38.6	-39.6	22.2	0.00e+00	3	28	0	815792128	50	6168
2026-01-15 15:13:20.74	267.26	69.98	-39.0	-40.1	21.7	0.00e+00	0	28	0	817889280	50	6496
2026-01-15 15:13:21.75	266.03	69.74	-39.2	-40.2	21.7	0.00e+00	0	28	0	818937856	50	6615
2026-01-15 15:13:22.76	264.84	69.49	-39.3	-40.4	21.5	0.00e+00	91	28	0	821035008	50	6766
2026-01-15 15:13:23.78	263.66	69.24	-39.8	-41.1	20.9	0.00e+00	78	28	0	823132160	52	6466
2026-01-15 15:13:24.78	262.54	68.98	-39.9	-41.1	20.9	0.00e+00	92	28	0	825229312	52	6502
2026-01-15 15:13:25.79	261.43	68.71	-40.7	-42.0	20.0	0.00e+00	0	28	0	827326464	52	7237
2026-01-15 15:13:26.80	260.36	68.44	-41.3	-42.9	19.3	0.00e+00	0	28	0	828375040	54	7130
2026-01-15 15:13:27.81	259.31	68.16	-41.3	-42.8	19.4	0.00e+00	0	28	0	830472192	54	7069
2026-01-15 15:13:28.82	258.29	67.87	-40.9	-42.3	19.8	0.00e+00	0	28	0	832569344	54	6677
2026-01-15 15:13:29.83	257.31	67.58	-40.1	-41.4	20.6	0.00e+00	92	28	0	834666496	54	5998
2026-01-15 15:13:30.84	256.35	67.28	-39.5	-40.6	21.5	0.00e+00	0	28	0	836763648	52	6165
2026-01-15 15:13:31.85	255.41	66.98	-39.3	-40.5	21.6	0.00e+00	91	28	0	838860800	52	6049
2026-01-15 15:13:32.86	254.51	66.67	-39.1	-40.2	21.7	0.00e+00	0	28	0	839909376	52	5886
2026-01-15 15:13:33.86	253.64	66.37	-38.8	-39.9	22.1	0.00e+00	3	28	0	842006528	52	5677
2026-01-15 15:13:34.87	252.78	66.05	-38.6	-39.7	22.2	0.00e+00	0	28	0	844103680	50	6209
2026-01-15 15:13:35.88	251.95	65.74	-38.1	-39.1	22.8	0.00e+00	0	28	0	846200832	50	5786
2026-01-15 15:13:36.89	251.14	65.42	-37.1	-38.0	23.7	0.00e+00	0	28	0	847249408	48	5720
2026-01-15 15:13:37.90	250.36	65.09	-36.8	-37.7	24.0	0.00e+00	3	28	0	849346560	48	5511
2026-01-15 15:13:38.91	249.60	64.77	-36.2	-37.1	24.6	0.00e+00	92	28	0	851443712	46	5778
2026-01-15 15:13:39.92	248.86	64.44	-35.8	-36.6	24.9	0.00e+00	3	28	0	853540864	46	5460
2026-01-15 15:13:40.93	248.14	64.11	-35.4	-36.2	25.2	0.00e+00	90	28	0	855638016	44	5867
2026-01-15 15:13:41.93	247.45	63.78	-35.7	-36.5	24.9	0.00e+00	79	28	0	856686592	44	6039
2026-01-15 15:13:42.94	246.77	63.45	-35.9	-36.7	24.8	0.00e+00	3	28	0	858783744	44	6204
2026-01-15 15:13:43.95	246.11	63.11	-36.0	-36.8	24.7	0.00e+00	82	28	0	860880896	44	6291
2026-01-15 15:13:44.96	245.47	62.77	-36.1	-37.0	24.4	0.00e+00	0	28	0	862978048	44	6406
2026-01-15 15:13:45.97	244.85	62.43	-36.0	-36.8	24.7	0.00e+00	92	28	0	865075200	44	6313
2026-01-15 15:13:46.98	244.24	62.09	-36.0	-36.8	24.8	0.00e+00	0	28	0	867172352	44	6304
2026-01-15 15:13:47.99	243.66	61.75	-36.1	-36.9	24.6	0.00e+00	92	28	0	868220928	44	6389
2026-01-15 15:13:49.00	243.08	61.41	-36.2	-37.1	24.6	0.00e+00	0	28	0	870318080	44	6476
2026-01-15 15:13:50.01	242.53	61.07	-36.6	-37.5	24.2	0.00e+00	0	28	0	872415232	44	6794
2026-01-15 15:13:51.02	241.98	60.72	-37.1	-38.0	23.8	0.00e+00	0	28	0	874512384	46	6419
2026-01-15 15:13:52.03	241.46	60.38	-37.4	-38.3	23.5	0.00e+00	2	28	0	876609536	46	6688
2026-01-15 15:13:53.04	240.94	60.04	-37.7	-38.7	23.2	0.00e+00	57	28	0	877658112	48	6228
2026-01-15 15:13:54.05	240.44	59.69	-38.1	-39.2	22.7	0.00e+00	0	28	0	879755264	48	6543
2026-01-15 15:13:55.06	239.96	59.35	-39.0	-40.1	21.9	0.00e+00	92	28	0	881852416	50	6535
2026-01-15 15:13:56.07	239.48	59.01	-39.5	-40.7	21.4	0.00e+00	0	28	0	883949568	50	6951
2026-01-15 15:13:57.08	239.02	58.66	-39.4	-40.6	21.5	0.00e+00	0	28	0	886046720	50	6865
2026-01-15 15:13:58.09	238.57	58.32	-39.4	-40.5	21.6	0.00e+00	0	28	0	887095296	50	6837
2026-01-15 15:13:59.10	238.13	57.98	-39.3	-40.5	21.6	0.00e+00	0	28	0	889192448	50	6796
2026-01-15 15:14:00.11	237.71	57.63	-39.6	-40.8	21.3	0.00e+00	89	28	0	891289600	50	7020
2026-01-15 15:14:01.13	237.29	57.29	-39.4	-40.6	21.4	0.00e+00	80	28	0	893386752	50	6900
2026-01-15 15:14:02.14	236.88	56.95	-39.7	-40.9	21.2	0.00e+00	92	28	0	895483904	52	6373
2026-01-15 15:14:03.15	236.49	56.61	-39.5	-40.7	21.4	0.00e+00	2	28	0	896532480	52	6209
2026-01-15 15:14:04.16	236.10	56.27	-38.8	-39.9	22.2	0.00e+00	92	28	0	898629632	52	5671
2026-01-15 15:14:05.17	235.72	55.93	-37.8	-38.8	23.1	0.00e+00	79	28	0	900726784	50	5583
2026-01-15 15:14:06.18	235.36	55.59	-37.3	-38.3	23.4	0.00e+00	79	28	0	902823936	48	5900
2026-01-15 15:14:07.19	235.00	55.25	-36.8	-37.7	24.1	0.00e+00	4	28	0	904921088	48	5513
2026-01-15 15:14:08.20	234.65	54.91	-36.5	-37.4	24.4	0.00e+00	78	28	0	905969664	46	5990
2026-01-15 15:14:09.21	234.31	54.58	-36.3	-37.1	24.4	0.00e+00	92	28	0	908066816	46	5818
2026-01-15 15:14:10.22	233.97	54.24	-36.3	-37.1	24.6	0.00e+00	0	28	0	910163968	46	5821
2026-01-15 15:14:11.23	233.65	53.91	-36.2	-37.0	24.6	0.00e+00	61	28	0	912261120	46	5738
2026-01-15 15:14:12.24	233.33	53.58	-35.8	-36.6	25.0	0.00e+00	0	28	0	914358272	46	5457
2026-01-15 15:14:13.25	233.02	53.25	-36.1	-36.9	24.6	0.00e+00	0	28	0	916455424	46	5673
2026-01-15 15:14:14.26	232.71	52.92	-36.2	-37.0	24.6	0.00e+00	2	28	0	917504000	46	5737
2026-01-15 15:14:15.27	232.41	52.59	-36.1	-37.0	24.7	0.00e+00	0	28	0	919601152	46	5697
2026-01-15 15:14:16.28	232.12	52.27	-36.4	-37.2	24.4	0.00e+00	89	28	0	921698304	46	5885
2026-01-15 15:14:17.29	231.84	51.94	-36.7	-37.6	24.1	0.00e+00	0	28	0	923795456	46	6128
2026-01-15 15:14:18.30	231.56	51.62	-36.8	-37.7	24.0	0.00e+00	90	28	0	924844032	46	6223
2026-01-15 15:14:19.30	231.29	51.30	-36.9	-37.8	24.0	0.00e+00	0	28	0	926941184	46	6257
2026-01-15 15:14:20.32	231.02	50.97	-37.3	-38.2	23.6	0.00e+00	81	28	0	929038336	46	6607
2026-01-15 15:14:21.33	230.76	50.66	-37.8	-38.7	23.2	0.00e+00	0	28	0	931135488	46	6979
2026-01-15 15:14:22.33	230.51	50.34	-38.1	-39.1	22.9	0.00e+00	0	28	0	933232640	48	6473
2026-01-15 15:14:23.34	230.26	50.03	-38.4	-39.4	22.5	0.00e+00	0	28	0	935329792	48	6727
2026-01-15 15:14:24.35	230.01	49.71	-38.8	-39.8	22.1	0.00e+00	0	28	0	936378368	50	6310
2026-01-15 15:14:25.36	229.77	49.40	-38.9	-40.0	21.9	0.00e+00	92	28	0	938475520	50	6430
2026-01-15 15:14:26.37	229.54	49.09	-38.9	-40.0	22.1	0.00e+00	0	28	0	940572672	50	6408
2026-01-15 15:14:27.38	229.31	48.78	-39.0	-40.1	22.0	0.00e+00	0	28	0	942669824	50	6465
2026-01-15 15:14:28.39	229.08	48.47	-39.3	-40.5	21.6	0.00e+00	81	28	0	944766976	50	6788
2026-01-15 15:14:29.40	228.86	48.16	-39.3	-40.4	21.6	0.00e+00	0	28	0	945815552	50	6729
2026-01-15 15:14:30.41	228.64	47.86	-39.3	-40.4	21.7	0.00e+00	0	28	0	947912704	50	6768
2026-01-15 15:14:31.41	228.43	47.56	-39.3	-40.4	21.6	0.00e+00	0	28	0	950009856	50	6740
2026-01-15 15:14:32.43	228.22	47.26	-39.4	-40.5	21.5	0.00e+00	91	28	0	952107008	50	6818
2026-01-15 15:14:33.43	228.02	46.96	-39.4	-40.6	21.5	0.00e+00	5	28	0	954204160	50	6858
2026-01-15 15:14:34.45	227.82	46.66	-39.2	-40.4	21.7	0.00e+00	49	28	0	955252736	50	6700
2026-01-15 15:14:35.46	227.62	46.36	-39.2	-40.4	21.7	0.00e+00	6	28	0	957349888	50	6694
2026-01-15 15:14:36.47	227.43	46.07	-39.4	-40.6	21.6	0.00e+00	6	28	0	959447040	50	6859
2026-01-15 15:14:37.48	227.24	45.78	-39.2	-40.4	21.7	0.00e+00	0	28	0	961544192	50	6714
2026-01-15 15:14:38.49	227.06	45.49	-38.8	-39.9	22.1	0.00e+00	6	28	0	963641344	50	6344
2026-01-15 15:14:39.49	226.87	45.20	-38.7	-39.7	22.3	0.00e+00	82	28	0	964689920	50	6202
2026-01-15 15:14:40.50	226.70	44.91	-38.8	-39.9	22.1	0.00e+00	85	28	0	966787072	50	6363
2026-01-15 15:14:41.51	226.52	44.63	-39.3	-40.4	21.7	0.00e+00	90	28	0	968884224	50	6728
2026-01-15 15:14:42.52	226.35	44.34	-39.4	-40.6	21.6	0.00e+00	0	28	0	970981376	50	6860
2026-01-15 15:14:43.53	226.18	44.06	-39.6	-40.8	21.3	0.00e+00	1	28	0	973078528	50	7019
2026-01-15 15:14:44.54	226.01	43.78	-39.7	-40.9	21.3	0.00e+00	0	28	0	974127104	50	7112
2026-01-15 15:14:45.55	225.85	43.50	-39.6	-40.7	21.3	0.00e+00	0	28	0	976224256	52	6237
2026-01-15 15:14:46.56	225.69	43.23	-39.7	-40.9	21.2	0.00e+00	63	28	0	978321408	52	6366
2026-01-15 15:14:47.57	225.53	42.95	-39.5	-40.6	21.5	0.00e+00	84	28	0	980418560	52	6168
2026-01-15 15:14:48.58	225.38	42.68	-39.3	-40.5	21.6	0.00e+00	90	28	0	982515712	52	6041
2026-01-15 15:14:49.59	225.22	42.41	-39.5	-40.7	21.4	0.00e+00	6	28	0	983564288	52	6213
2026-01-15 15:14:50.60	225.07	42.14	-39.9	-41.2	20.9	0.00e+00	0	28	0	985661440	52	6562
2026-01-15 15:14:51.61	224.93	41.87	-40.6	-42.0	20.2	0.00e+00	8	28	0	987758592	52	7190
2026-01-15 15:14:52.62	224.78	41.60	-40.4	-41.8	20.4	0.00e+00	7	28	0	989855744	52	7033
2026-01-15 15:14:53.63	224.64	41.34	-40.5	-41.8	20.1	0.00e+00	0	28	0	991952896	52	7080
2026-01-15 15:14:54.64	224.50	41.07	-40.3	-41.7	20.4	0.00e+00	8	28	0	993001472	52	6948
2026-01-15 15:14:55.65	224.36	40.81	-40.5	-41.8	20.3	0.00e+00	92	28	0	995098624	52	7087
2026-01-15 15:14:56.66	224.22	40.55	-40.3	-41.7	20.5	0.00e+00	0	28	0	997195776	52	6939
2026-01-15 15:14:57.67	224.09	40.30	-40.3	-41.7	20.5	0.00e+00	92	28	0	999292928	52	6946
2026-01-15 15:14:58.67	223.96	40.04	-40.4	-41.7	20.4	0.00e+00	0	28	0	1001390080	52	6977
2026-01-15 15:14:59.68	223.83	39.79	-40.7	-42.1	20.1	0.00e+00	0	28	0	1003487232	52	7337
2026-01-15 15:15:00.69	223.71	39.54	-40.3	-41.6	20.5	0.00e+00	5	28	0	1004535808	52	6884
2026-01-15 15:15:01.70	223.58	39.28	-39.9	-41.2	21.0	0.00e+00	81	28	0	1006632960	52	6540
2026-01-15 15:15:02.71	223.46	39.03	-39.7	-40.9	21.3	0.00e+00	90	28	0	1008730112	52	6329
2026-01-15 15:15:03.72	223.34	38.79	-39.4	-40.6	21.4	0.00e+00	0	28	0	1010827264	52	6145
2026-01-15 15:15:04.73	223.22	38.54	-39.6	-40.8	21.3	0.00e+00	92	28	0	1012924416	52	6311
2026-01-15 15:15:05.74	223.10	38.30	-39.6	-40.8	21.3	0.00e+00	0	28	0	1013972992	52	6292
2026-01-15 15:15:06.75	222.98	38.05	-39.5	-40.7	21.3	0.00e+00	0	28	0	1016070144	52	6201
2026-01-15 15:15:07.76	222.87	37.81	-39.5	-40.7	21.3	0.00e+00	0	28	0	1018167296	52	6213
2026-01-15 15:15:08.77	222.76	37.57	-39.0	-40.1	22.0	0.00e+00	0	28	0	1020264448	52	5795
2026-01-15 15:15:09.78	222.65	37.33	-38.6	-39.7	22.3	0.00e+00	69	28	0	1022361600	50	6232
2026-01-15 15:15:10.79	222.54	37.10	-38.6	-39.7	22.4	0.00e+00	81	28	0	1023410176	50	6187
2026-01-15 15:15:11.79	222.43	36.86	-38.6	-39.7	22.3	0.00e+00	90	28	0	1025507328	50	6227
2026-01-15 15:15:12.80	222.33	36.63	-38.8	-39.9	22.1	0.00e+00	0	28	0	1027604480	50	6322
2026-01-15 15:15:13.81	222.22	36.40	-38.9	-40.0	22.0	0.00e+00	71	28	0	1029701632	50	6409
2026-01-15 15:15:14.82	222.12	36.17	-38.9	-40.1	21.9	0.00e+00	0	28	0	1031798784	50	6468
2026-01-15 15:15:15.83	222.02	35.94	-38.7	-39.8	22.2	0.00e+00	2	28	0	1032847360	50	6295
2026-01-15 15:15:16.84	221.92	35.71	-38.8	-40.0	22.1	0.00e+00	0	28	0	1034944512	50	6400
2026-01-15 15:15:17.85	221.82	35.49	-38.8	-39.9	22.1	0.00e+00	0	28	0	1037041664	50	6358
2026-01-15 15:15:18.86	221.72	35.26	-39.2	-40.3	21.7	0.00e+00	91	28	0	1039138816	50	6679
2026-01-15 15:15:19.87	221.63	35.04	-39.4	-40.6	21.3	0.00e+00	0	28	0	1041235968	50	6916
2026-01-15 15:15:20.88	221.53	34.82	-39.7	-40.9	21.1	0.00e+00	92	28	0	1042284544	50	7129
2026-01-15 15:15:21.89	221.44	34.60	-39.8	-41.1	21.0	0.00e+00	0	28	0	1044381696	52	6495
2026-01-15 15:15:22.90	221.35	34.38	-40.0	-41.3	20.8	0.00e+00	4	28	0	1046478848	52	6687
2026-01-15 15:15:23.91	221.26	34.16	-40.0	-41.2	20.9	0.00e+00	82	28	0	1048576000	52	6598
2026-01-15 15:15:24.92	221.17	33.95	-39.7	-40.9	21.1	0.00e+00	82	28	0	1050673152	52	6375
2026-01-15 15:15:25.93	221.08	33.73	-39.8	-41.1	21.0	0.00e+00	92	28	0	1051721728	52	6486
2026-01-15 15:15:26.94	220.99	33.52	-40.0	-41.3	20.8	0.00e+00	0	28	0	1053818880	52	6658
2026-01-15 15:15:27.95	220.91	33.31	-40.3	-41.7	20.4	0.00e+00	92	28	0	1055916032	52	6951
2026-01-15 15:15:28.96	220.82	33.10	-40.6	-42.0	20.2	0.00e+00	0	28	0	1058013184	52	7186
2026-01-15 15:15:29.97	220.74	32.89	-40.7	-42.2	19.9	0.00e+00	0	28	0	1060110336	54	6563
2026-01-15 15:15:30.98	220.66	32.68	-40.7	-42.2	19.9	0.00e+00	3	28	0	1061158912	54	6561
2026-01-15 15:15:31.99	220.58	32.48	-40.9	-42.4	19.7	0.00e+00	82	28	0	1063256064	54	6698
2026-01-15 15:15:33.00	220.50	32.27	-41.0	-42.5	19.5	0.00e+00	81	28	0	1065353216	54	6834
2026-01-15 15:15:34.01	220.42	32.07	-41.2	-42.7	19.4	0.00e+00	0	28	0	1067450368	54	6949
2026-01-15 15:15:35.02	220.34	31.87	-41.3	-42.9	19.3	0.00e+00	88	28	0	1069547520	54	7112
2026-01-15 15:15:36.03	220.26	31.66	-41.3	-42.8	19.3	0.00e+00	0	28	0	1071644672	54	7082
2026-01-15 15:15:37.04	220.19	31.46	-41.4	-43.1	19.0	0.00e+00	92	28	0	1072693248	54	7254
2026-01-15 15:15:38.06	220.11	31.26	-41.4	-43.0	19.1	0.00e+00	0	28	0	1074790400	54	7245
2026-01-15 15:15:39.06	220.04	31.07	-41.4	-42.9	19.1	0.00e+00	0	28	0	1076887552	54	7166
2026-01-15 15:15:40.07	219.96	30.87	-41.1	-42.6	19.5	0.00e+00	0	28	0	1078984704	54	6865
2026-01-15 15:15:41.08	219.89	30.68	-41.2	-42.7	19.3	0.00e+00	0	28	0	1081081856	54	6979
2026-01-15 15:15:42.09	219.82	30.49	-41.1	-42.6	19.4	0.00e+00	92	28	0	1082130432	54	6910
2026-01-15 15:15:43.10	219.75	30.29	-41.1	-42.7	19.5	0.00e+00	82	28	0	1084227584	54	6928
2026-01-15 15:15:44.11	219.68	30.10	-41.1	-42.6	19.6	0.00e+00	92	28	0	1086324736	54	6913
2026-01-15 15:15:45.12	219.61	29.91	-40.9	-42.3	19.8	0.00e+00	0	28	0	1088421888	54	6687
2026-01-15 15:15:46.13	219.54	29.73	-40.8	-42.3	19.8	0.00e+00	0	28	0	1090519040	54	6641
2026-01-15 15:15:47.14	219.48	29.54	-40.7	-42.2	19.9	0.00e+00	0	28	0	1091567616	54	6572
2026-01-15 15:15:48.15	219.41	29.35	-40.5	-41.9	20.2	0.00e+00	0	28	0	1093664768	54	6356
2026-01-15 15:15:49.16	219.34	29.17	-40.5	-42.0	20.1	0.00e+00	92	28	0	1095761920	54	6405
2026-01-15 15:15:50.17	219.28	28.99	-40.6	-42.0	20.0	0.00e+00	81	28	0	1097859072	54	6460
2026-01-15 15:15:51.17	219.22	28.80	-40.6	-42.0	20.1	0.00e+00	91	28	0	1099956224	54	6437
2026-01-15 15:15:52.18	219.15	28.62	-40.7	-42.2	20.0	0.00e+00	0	28	0	1101004800	54	6591
2026-01-15 15:15:53.19	219.09	28.44	-40.7	-42.2	19.9	0.00e+00	92	28	0	1103101952	54	6543
2026-01-15 15:15:54.20	219.03	28.26	-40.7	-42.1	19.9	0.00e+00	0	28	0	1105199104	54	6538
2026-01-15 15:15:55.21	218.97	28.09	-40.5	-41.9	20.1	0.00e+00	2	28	0	1107296256	54	6380
2026-01-15 15:15:56.22	218.91	27.91	-40.4	-41.8	20.2	0.00e+00	82	28	0	1109393408	54	6291
2026-01-15 15:15:57.23	218.85	27.73	-40.3	-41.6	20.4	0.00e+00	0	28	0	1110441984	54	6166
2026-01-15 15:15:58.24	218.79	27.56	-40.2	-41.6	20.4	0.00e+00	92	28	0	1112539136	54	6110
2026-01-15 15:15:59.25	218.73	27.39	-40.2	-41.5	20.5	0.00e+00	4	28	0	1114636288	54	6068
2026-01-15 15:16:00.26	218.67	27.21	-39.9	-41.2	20.8	0.00e+00	75	28	0	1116733440	54	5841
2026-01-15 15:16:01.27	218.62	27.04	-39.9	-41.2	20.8	0.00e+00	2	28	0	1118830592	54	5840
2026-01-15 15:16:02.28	218.56	26.87	-39.7	-41.0	21.0	0.00e+00	0	28	0	1119879168	52	6419
2026-01-15 15:16:03.29	218.50	26.70	-39.6	-40.8	21.1	0.00e+00	0	28	0	1121976320	52	6269
2026-01-15 15:16:04.30	218.45	26.53	-39.5	-40.7	21.3	0.00e+00	81	28	0	1124073472	52	6181
2026-01-15 15:16:05.31	218.39	26.37	-39.4	-40.7	21.3	0.00e+00	92	28	0	1126170624	52	6177
2026-01-15 15:16:06.32	218.34	26.20	-39.5	-40.7	21.3	0.00e+00	81	28	0	1128267776	52	6193
2026-01-15 15:16:07.33	218.29	26.03	-39.4	-40.6	21.4	0.00e+00	92	28	0	1129316352	52	6126
2026-01-15 15:16:08.34	218.23	25.87	-39.3	-40.5	21.5	0.00e+00	0	28	0	1131413504	52	6077
2026-01-15 15:16:09.35	218.18	25.71	-39.6	-40.8	21.2	0.00e+00	82	28	0	1133510656	52	6310
2026-01-15 15:16:10.35	218.13	25.54	-39.3	-40.5	21.4	0.00e+00	0	28	0	1135607808	52	6094
2026-01-15 15:16:11.36	218.08	25.38	-39.5	-40.8	21.2	0.00e+00	0	28	0	1137704960	52	6249
2026-01-15 15:16:12.37	218.03	25.22	-39.5	-40.8	21.2	0.00e+00	92	28	0	1139802112	52	6258
2026-01-15 15:16:13.38	217.98	25.06	-39.5	-40.8	21.2	0.00e+00	0	28	0	1140850688	52	6273
2026-01-15 15:16:14.39	217.93	24.90	-39.5	-40.8	21.1	0.00e+00	92	28	0	1142947840	52	6317
2026-01-15 15:16:15.40	217.88	24.75	-39.5	-40.9	21.2	0.00e+00	0	28	0	1145044992	52	6320
2026-01-15 15:16:16.41	217.83	24.59	-39.3	-40.6	21.4	0.00e+00	92	28	0	1147142144	52	6166
2026-01-15 15:16:17.42	217.79	24.43	-39.2	-40.5	21.4	0.00e+00	0	28	0	1149239296	52	6071
2026-01-15 15:16:18.43	217.74	24.28	-39.4	-40.7	21.3	0.00e+00	0	28	0	1150287872	52	6174
2026-01-15 15:16:19.44	217.69	24.12	-38.9	-40.1	21.9	0.00e+00	0	28	0	1152385024	52	5779
2026-01-15 15:16:20.45	217.64	23.97	-38.9	-40.1	21.8	0.00e+00	6	28	0	1154482176	52	5768
2026-01-15 15:16:21.46	217.60	23.82	-38.6	-39.7	22.2	0.00e+00	91	28	0	1156579328	50	6239
2026-01-15 15:16:22.47	217.55	23.67	-38.2	-39.3	22.5	0.00e+00	8	28	0	1158676480	50	5951
2026-01-15 15:16:23.48	217.51	23.52	-38.1	-39.2	22.6	0.00e+00	92	28	0	1159725056	50	5844
2026-01-15 15:16:24.49	217.46	23.37	-38.0	-39.0	22.7	0.00e+00	0	28	0	1161822208	50	5757
2026-01-15 15:16:25.50	217.42	23.22	-37.8	-38.8	22.8	0.00e+00	6	28	0	1163919360	50	5608
2026-01-15 15:16:26.51	217.38	23.07	-37.9	-38.9	22.7	0.00e+00	0	28	0	1166016512	50	5685
2026-01-15 15:16:27.52	217.33	22.92	-37.7	-38.7	23.0	0.00e+00	75	28	0	1168113664	48	6179
2026-01-15 15:16:28.53	217.29	22.78	-37.6	-38.6	23.1	0.00e+00	92	28	0	1169162240	48	6125
2026-01-15 15:16:29.54	217.25	22.63	-37.7	-38.7	23.0	0.00e+00	82	28	0	1171259392	48	6189
2026-01-15 15:16:30.55	217.21	22.48	-37.6	-38.5	23.2	0.00e+00	91	28	0	1173356544	48	6092
2026-01-15 15:16:31.56	217.16	22.34	-37.5	-38.5	23.2	0.00e+00	5	28	0	1175453696	48	6068
2026-01-15 15:16:32.57	217.12	22.20	-37.5	-38.5	23.2	0.00e+00	6	28	0	1177550848	48	6064
2026-01-15 15:16:33.58	217.08	22.05	-37.7	-38.7	23.0	0.00e+00	7	28	0	1178599424	48	6189
2026-01-15 15:16:34.59	217.04	21.91	-37.6	-38.5	23.1	0.00e+00	86	28	0	1180696576	48	6102
2026-01-15 15:16:35.60	217.00	21.77	-37.6	-38.6	23.1	0.00e+00	0	28	0	1182793728	48	6140
2026-01-15 15:16:36.61	216.96	21.63	-37.7	-38.7	22.8	0.00e+00	0	28	0	1184890880	48	6202
2026-01-15 15:16:37.62	216.92	21.49	-37.6	-38.6	23.0	0.00e+00	92	28	0	1186988032	48	6124
2026-01-15 15:16:38.63	216.89	21.35	-37.7	-38.6	23.0	0.00e+00	6	28	0	1188036608	48	6167
2026-01-15 15:16:39.63	216.85	21.22	-37.8	-38.8	22.9	0.00e+00	81	28	0	1190133760	48	6277
2026-01-15 15:16:40.64	216.81	21.08	-37.8	-38.7	23.0	0.00e+00	0	28	0	1192230912	48	6227
2026-01-15 15:16:41.65	216.77	20.94	-37.9	-38.9	22.8	0.00e+00	7	28	0	1194328064	48	6387
2026-01-15 15:16:42.66	216.73	20.81	-38.0	-39.0	22.8	0.00e+00	0	28	0	1196425216	48	6408
2026-01-15 15:16:43.67	216.70	20.67	-38.0	-39.0	22.7	0.00e+00	0	28	0	1197473792	48	6464
2026-01-15 15:16:44.68	216.66	20.54	-38.2	-39.2	22.6	0.00e+00	92	28	0	1199570944	48	6566
2026-01-15 15:16:45.69	216.63	20.40	-38.1	-39.1	22.6	0.00e+00	6	28	0	1201668096	48	6507
2026-01-15 15:16:46.70	216.59	20.27	-38.2	-39.3	22.5	0.00e+00	90	28	0	1203765248	48	6625
2026-01-15 15:16:47.71	216.55	20.14	-38.3	-39.3	22.5	0.00e+00	81	28	0	1205862400	48	6678
2026-01-15 15:16:48.72	216.52	20.01	-38.3	-39.3	22.5	0.00e+00	81	28	0	1207959552	48	6680
2026-01-15 15:16:49.73	216.48	19.88	-38.3	-39.3	22.4	0.00e+00	0	28	0	1209008128	48	6667
2026-01-15 15:16:50.74	216.45	19.75	-38.3	-39.4	22.3	0.00e+00	81	28	0	1211105280	48	6730
2026-01-15 15:16:51.75	216.42	19.62	-38.4	-39.4	22.3	0.00e+00	90	28	0	1213202432	48	6734
