passes_logs/2026/01/15/R4.6S_Anadyr/R4.6S_Anadyr__20260115_030250_NOAA_20_JPSS-1_rec.log

#Pass ID: 20260115_030250_NOAA 20 (JPSS-1)
#Satellite: NOAA 20 (JPSS-1)
#Configuration: NOAA 20
#almurnet v.1.7.20251203
#Start time: 2026-01-15 03:02:52

#Version: 2.2.20231116
#Station: R4.6S_Anadyr
#Location: 177.4865 lon 64.73178 lat
#TLE: 1 43013U 17073A   26014.55467351  .00000038  00000+0  38801-4 0  9992
#TLE: 2 43013  98.7635 315.4987 0001517  39.9279 320.2008 14.19535859422677

#Time	Az	El	Level	Level2	SNR	BER	BlckErr	Temp	State	Recorded	gain1	gain2
2026-01-15 03:02:52.95	232.01	0.12	-48.8	-63.7	3.6	1.51e+00	0	27	0	0	60	55061
2026-01-15 03:02:53.96	232.10	0.16	-48.8	-64.1	3.6	1.51e+00	0	28	104	0	60	57733
2026-01-15 03:02:54.96	232.18	0.21	-48.8	-64.1	3.6	1.51e+00	0	28	104	0	60	57927
2026-01-15 03:02:55.98	232.27	0.25	-48.9	-64.0	3.6	1.51e+00	0	28	104	0	60	57536
2026-01-15 03:02:56.98	232.36	0.30	-48.7	-64.0	3.6	1.51e+00	0	28	104	0	60	57344
2026-01-15 03:02:57.99	232.45	0.34	-48.8	-64.1	3.6	1.51e+00	0	28	104	0	60	57849
2026-01-15 03:02:59.00	232.54	0.39	-48.9	-64.1	3.6	1.51e+00	0	29	104	0	60	57804
2026-01-15 03:03:00.01	232.62	0.43	-48.9	-64.1	3.6	1.51e+00	0	28	104	0	60	58098
2026-01-15 03:03:01.02	232.71	0.48	-48.8	-64.1	3.6	1.51e+00	0	28	104	0	60	57954
2026-01-15 03:03:02.03	232.80	0.52	-48.7	-64.2	3.6	1.51e+00	0	28	104	0	60	58600
2026-01-15 03:03:03.04	232.89	0.57	-48.9	-64.2	3.6	1.51e+00	0	29	104	0	60	58346
2026-01-15 03:03:04.05	232.98	0.62	-48.9	-64.0	3.6	1.51e+00	0	28	104	0	60	57616
2026-01-15 03:03:05.06	233.07	0.66	-48.9	-64.0	3.6	1.51e+00	0	28	104	0	60	57405
2026-01-15 03:03:06.06	233.16	0.71	-48.8	-64.0	3.6	1.51e+00	0	28	104	0	60	57131
2026-01-15 03:03:07.07	233.25	0.75	-48.6	-63.8	3.6	1.51e+00	0	28	104	0	60	56080
2026-01-15 03:03:08.08	233.34	0.80	-48.2	-63.4	3.6	1.51e+00	0	28	104	0	60	53381
2026-01-15 03:03:09.09	233.43	0.84	-47.5	-62.8	3.6	1.51e+00	0	29	104	0	60	50087
2026-01-15 03:03:10.10	233.53	0.89	-46.7	-61.8	3.6	1.51e+00	0	28	104	0	60	44380
2026-01-15 03:03:11.11	233.62	0.93	-46.6	-61.8	3.6	1.51e+00	0	29	104	0	60	44397
2026-01-15 03:03:12.12	233.71	0.98	-46.6	-61.8	3.6	1.51e+00	0	29	104	0	60	44438
2026-01-15 03:03:13.13	233.80	1.02	-46.6	-61.8	3.6	1.51e+00	0	29	104	0	60	44376
2026-01-15 03:03:14.14	233.89	1.07	-46.6	-61.8	3.6	1.51e+00	0	29	104	0	60	44383
2026-01-15 03:03:15.15	233.99	1.12	-46.6	-61.8	3.6	1.51e+00	0	29	104	0	60	44253
2026-01-15 03:03:16.16	234.08	1.16	-46.6	-61.7	3.6	1.51e+00	0	29	104	0	60	44155
2026-01-15 03:03:17.17	234.17	1.21	-46.6	-61.8	3.6	1.51e+00	0	29	104	0	60	44290
2026-01-15 03:03:18.18	234.27	1.25	-46.6	-61.8	3.6	1.51e+00	0	29	104	0	60	44320
2026-01-15 03:03:19.19	234.36	1.30	-46.6	-61.7	3.6	1.51e+00	0	29	104	0	60	44175
2026-01-15 03:03:20.20	234.46	1.34	-46.6	-61.8	3.6	1.51e+00	0	29	104	0	60	44307
2026-01-15 03:03:21.21	234.55	1.39	-46.6	-61.8	3.6	1.51e+00	0	29	104	0	60	44478
2026-01-15 03:03:22.21	234.64	1.43	-46.6	-61.8	3.6	1.51e+00	0	29	104	0	60	44478
2026-01-15 03:03:23.22	234.74	1.48	-46.6	-61.8	3.6	1.51e+00	0	29	104	0	60	44286
2026-01-15 03:03:24.23	234.83	1.53	-46.6	-61.8	3.6	1.51e+00	0	29	104	0	60	44306
2026-01-15 03:03:25.24	234.93	1.57	-46.6	-61.8	3.6	1.51e+00	0	29	104	0	60	44292
2026-01-15 03:03:26.25	235.02	1.62	-46.6	-61.8	3.6	1.51e+00	0	29	104	0	60	44322
2026-01-15 03:03:27.26	235.12	1.66	-46.6	-61.7	3.6	1.51e+00	0	29	104	0	60	44037
2026-01-15 03:03:28.27	235.22	1.71	-46.6	-61.7	3.6	1.51e+00	0	29	104	0	60	44126
2026-01-15 03:03:29.28	235.31	1.75	-46.6	-61.8	3.6	1.51e+00	0	29	104	0	60	44376
2026-01-15 03:03:30.29	235.41	1.80	-46.6	-61.7	3.6	1.51e+00	0	29	104	0	60	44004
2026-01-15 03:03:31.30	235.51	1.85	-46.6	-61.7	3.6	1.51e+00	0	29	104	0	60	44101
2026-01-15 03:03:32.31	235.61	1.89	-46.6	-61.8	3.6	1.51e+00	0	29	104	0	60	44343
2026-01-15 03:03:33.32	235.70	1.94	-46.6	-61.8	3.6	1.51e+00	0	29	104	0	60	44223
2026-01-15 03:03:34.32	235.80	1.98	-46.6	-61.7	3.6	1.51e+00	0	29	104	0	60	44118
2026-01-15 03:03:35.33	235.90	2.03	-46.6	-61.8	3.6	1.51e+00	0	29	104	0	60	44248
2026-01-15 03:03:36.34	236.00	2.07	-46.6	-61.7	3.6	1.51e+00	0	29	104	0	60	44164
2026-01-15 03:03:37.35	236.10	2.12	-46.6	-61.8	3.6	1.51e+00	0	29	104	0	60	44310
2026-01-15 03:03:38.36	236.20	2.16	-46.6	-61.7	3.6	1.51e+00	0	29	104	0	60	44210
2026-01-15 03:03:39.37	236.30	2.21	-46.6	-61.8	3.5	1.51e+00	0	29	104	0	60	44333
2026-01-15 03:03:40.37	236.39	2.26	-46.6	-61.8	3.6	1.51e+00	0	29	104	0	60	44240
2026-01-15 03:03:41.38	236.49	2.30	-46.6	-61.7	3.6	1.51e+00	0	29	104	0	60	44087
2026-01-15 03:03:42.39	236.59	2.35	-46.6	-61.7	3.6	1.51e+00	0	29	104	0	60	44117
2026-01-15 03:03:43.40	236.70	2.39	-46.6	-61.8	3.6	1.51e+00	0	29	104	0	60	44324
2026-01-15 03:03:44.41	236.80	2.44	-46.6	-61.7	3.6	1.51e+00	0	29	104	0	60	43986
2026-01-15 03:03:45.42	236.90	2.48	-46.6	-61.8	3.6	1.51e+00	0	29	104	0	60	44312
2026-01-15 03:03:46.43	237.00	2.53	-46.6	-61.7	3.6	1.51e+00	0	29	104	0	60	44177
2026-01-15 03:03:47.44	237.10	2.58	-46.6	-61.7	3.6	1.51e+00	0	29	104	0	60	44068
2026-01-15 03:03:48.45	237.20	2.62	-46.6	-61.7	3.6	1.51e+00	0	29	104	0	60	44098
2026-01-15 03:03:49.46	237.31	2.67	-46.6	-61.7	3.6	1.51e+00	0	29	104	0	60	44075
2026-01-15 03:03:50.46	237.41	2.71	-46.6	-61.8	3.6	1.51e+00	0	29	104	0	60	44570
2026-01-15 03:03:51.47	237.51	2.76	-46.6	-61.7	3.6	1.51e+00	0	29	104	0	60	44114
2026-01-15 03:03:52.48	237.61	2.81	-46.6	-61.7	3.6	1.51e+00	0	29	104	0	60	43992
2026-01-15 03:03:53.49	237.72	2.85	-46.6	-61.7	3.6	1.51e+00	0	29	104	0	60	43900
2026-01-15 03:03:54.50	237.82	2.90	-46.6	-61.6	3.6	1.51e+00	0	29	104	0	60	43660
2026-01-15 03:03:55.51	237.93	2.94	-46.6	-61.6	3.6	1.51e+00	0	29	104	0	60	43315
2026-01-15 03:03:56.52	238.03	2.99	-46.6	-61.6	3.6	1.51e+00	0	29	104	0	60	43705
2026-01-15 03:03:57.53	238.14	3.03	-46.6	-61.6	3.6	1.51e+00	0	29	104	0	60	43287
2026-01-15 03:03:58.54	238.24	3.08	-46.7	-61.2	3.6	1.51e+00	0	29	104	0	60	41723
2026-01-15 03:03:59.55	238.35	3.13	-46.7	-61.6	3.6	1.51e+00	0	29	104	0	60	43214
2026-01-15 03:04:00.56	238.45	3.17	-46.5	-61.6	3.6	1.51e+00	0	29	104	0	60	43328
2026-01-15 03:04:01.57	238.56	3.22	-46.5	-61.6	3.6	1.51e+00	0	29	104	0	60	43492
2026-01-15 03:04:02.58	238.67	3.26	-46.7	-61.3	3.6	1.51e+00	0	29	104	0	60	42115
2026-01-15 03:04:03.59	238.77	3.31	-46.7	-61.2	3.6	1.51e+00	0	29	104	0	60	41532
2026-01-15 03:04:04.60	238.88	3.35	-46.7	-61.5	3.6	1.51e+00	0	29	104	0	60	43101
2026-01-15 03:04:05.61	238.99	3.40	-46.6	-61.6	3.6	1.51e+00	0	29	104	0	60	43426
2026-01-15 03:04:06.61	239.09	3.45	-46.8	-61.3	3.5	1.51e+00	0	29	104	0	60	42024
2026-01-15 03:04:07.62	239.20	3.49	-46.7	-60.7	3.6	1.51e+00	0	29	104	0	60	39078
2026-01-15 03:04:08.63	239.31	3.54	-46.7	-60.4	3.6	1.51e+00	0	29	104	0	60	37891
2026-01-15 03:04:09.64	239.42	3.58	-46.7	-59.6	3.7	1.50e+00	0	29	104	0	60	34367
2026-01-15 03:04:10.65	239.53	3.63	-46.7	-59.2	3.8	1.48e+00	0	29	104	0	60	33131
2026-01-15 03:04:11.66	239.64	3.67	-46.7	-59.0	3.9	1.48e+00	0	29	104	0	60	32247
2026-01-15 03:04:12.67	239.75	3.72	-46.7	-58.7	3.7	1.44e+00	0	29	104	0	60	31193
2026-01-15 03:04:13.68	239.86	3.77	-46.7	-57.2	3.9	1.36e+00	54	29	0	0	60	26153
2026-01-15 03:04:14.69	239.97	3.81	-46.7	-56.9	4.0	1.36e+00	9	29	0	0	60	25185
2026-01-15 03:04:15.70	240.08	3.86	-46.6	-56.2	4.3	1.13e+00	0	29	0	2097152	60	23217
2026-01-15 03:04:16.71	240.19	3.90	-46.6	-55.7	4.6	7.89e-01	0	29	0	4194304	60	21924
2026-01-15 03:04:17.72	240.30	3.95	-46.6	-55.3	4.8	6.66e-01	0	29	0	6291456	60	20989
2026-01-15 03:04:18.73	240.41	3.99	-46.5	-55.1	5.0	6.30e-01	0	29	0	7340032	60	20565
2026-01-15 03:04:19.73	240.53	4.04	-46.5	-54.8	5.2	5.46e-01	0	29	0	9437184	60	19913
2026-01-15 03:04:20.74	240.64	4.09	-46.4	-54.6	5.5	4.45e-01	0	29	0	11534336	60	19313
2026-01-15 03:04:21.75	240.75	4.13	-46.4	-54.4	5.7	3.72e-01	0	29	0	13631488	60	18979
2026-01-15 03:04:22.77	240.86	4.18	-46.3	-53.9	6.1	3.03e-01	0	29	0	15728640	60	18005
2026-01-15 03:04:23.77	240.98	4.22	-46.3	-53.7	6.4	2.68e-01	0	29	0	16777216	60	17590
2026-01-15 03:04:24.78	241.09	4.27	-46.3	-53.3	6.9	1.80e-01	0	29	0	18874368	60	16781
2026-01-15 03:04:25.79	241.21	4.31	-46.2	-53.2	7.2	1.59e-01	0	29	0	20971520	60	16491
2026-01-15 03:04:26.80	241.32	4.36	-46.2	-52.8	7.7	9.34e-02	0	29	0	23068672	60	15694
2026-01-15 03:04:27.81	241.43	4.40	-46.0	-52.1	8.4	6.29e-02	0	29	0	25165824	60	14632
2026-01-15 03:04:28.82	241.55	4.45	-46.1	-52.0	8.6	3.55e-02	0	29	0	27262976	60	14405
2026-01-15 03:04:29.83	241.67	4.50	-45.9	-51.6	9.1	2.80e-02	0	29	0	28311552	60	13811
2026-01-15 03:04:30.84	241.78	4.54	-45.8	-51.3	9.7	1.59e-02	0	29	0	30408704	60	13248
2026-01-15 03:04:31.84	241.90	4.59	-45.6	-50.5	10.4	7.28e-03	0	29	0	32505856	60	12152
2026-01-15 03:04:32.85	242.01	4.63	-45.5	-50.3	10.8	2.67e-03	0	29	0	34603008	60	11789
2026-01-15 03:04:33.86	242.13	4.68	-45.4	-50.0	11.1	2.58e-03	0	29	0	36700160	60	11467
2026-01-15 03:04:34.87	242.25	4.72	-45.2	-49.3	11.9	7.84e-04	0	29	0	37748736	60	10581
2026-01-15 03:04:35.88	242.36	4.77	-45.0	-48.9	12.3	3.07e-04	0	29	0	39845888	60	10116
2026-01-15 03:04:36.89	242.48	4.81	-44.8	-48.4	13.0	6.56e-05	0	29	0	41943040	60	9555
2026-01-15 03:04:37.90	242.60	4.86	-44.8	-48.4	13.0	3.96e-05	0	29	0	44040192	60	9532
2026-01-15 03:04:38.91	242.72	4.90	-44.7	-48.1	13.4	4.11e-05	0	29	0	45088768	60	9176
2026-01-15 03:04:39.92	242.84	4.95	-44.5	-47.8	13.7	1.22e-05	0	29	0	47185920	60	8910
2026-01-15 03:04:40.92	242.96	4.99	-44.4	-47.6	14.0	6.10e-06	0	29	0	49283072	60	8623
2026-01-15 03:04:41.93	243.08	5.04	-44.3	-47.4	14.2	3.80e-06	0	29	0	51380224	60	8430
2026-01-15 03:04:42.94	243.20	5.08	-44.2	-47.3	14.3	2.20e-06	0	29	0	53477376	60	8369
2026-01-15 03:04:43.95	243.32	5.13	-44.1	-47.0	14.6	0.00e+00	0	29	0	55574528	60	8091
2026-01-15 03:04:44.96	243.44	5.18	-44.1	-47.0	14.7	0.00e+00	0	29	0	56623104	60	8051
2026-01-15 03:04:45.97	243.56	5.22	-43.8	-46.6	15.1	0.00e+00	0	29	0	58720256	60	7720
2026-01-15 03:04:46.98	243.68	5.27	-43.7	-46.4	15.3	0.00e+00	0	29	0	60817408	60	7516
2026-01-15 03:04:47.99	243.80	5.31	-43.5	-46.0	15.7	0.00e+00	0	29	0	62914560	60	7213
2026-01-15 03:04:49.00	243.92	5.36	-43.5	-46.0	15.7	0.00e+00	0	29	0	65011712	60	7234
2026-01-15 03:04:50.01	244.05	5.40	-43.5	-46.0	15.8	0.00e+00	0	29	0	66060288	60	7208
2026-01-15 03:04:51.02	244.17	5.45	-43.3	-45.8	16.0	0.00e+00	0	29	0	68157440	60	7020
2026-01-15 03:04:52.03	244.29	5.49	-43.3	-45.6	16.1	0.00e+00	0	29	0	70254592	60	6918
2026-01-15 03:04:53.04	244.42	5.54	-43.1	-45.4	16.3	0.00e+00	0	29	0	72351744	60	6763
2026-01-15 03:04:54.05	244.54	5.58	-43.1	-45.4	16.4	0.00e+00	0	29	0	74448896	60	6722
2026-01-15 03:04:55.06	244.66	5.63	-43.0	-45.1	16.7	0.00e+00	0	29	0	75497472	60	6534
2026-01-15 03:04:56.07	244.79	5.67	-42.8	-44.9	16.9	0.00e+00	0	29	0	77594624	60	6346
2026-01-15 03:04:57.07	244.91	5.71	-42.5	-44.5	17.2	0.00e+00	0	29	0	79691776	58	6828
2026-01-15 03:04:58.08	245.04	5.76	-42.4	-44.4	17.4	0.00e+00	0	29	0	81788928	58	6701
2026-01-15 03:04:59.09	245.17	5.80	-42.2	-44.1	17.6	0.00e+00	0	30	0	83886080	58	6527
2026-01-15 03:05:00.10	245.29	5.85	-42.2	-44.1	17.7	0.00e+00	0	29	0	84934656	58	6497
2026-01-15 03:05:01.11	245.42	5.89	-41.9	-43.7	18.0	0.00e+00	0	29	0	87031808	58	6239
2026-01-15 03:05:02.12	245.54	5.94	-41.7	-43.5	18.3	0.00e+00	0	29	0	89128960	58	6039
2026-01-15 03:05:03.13	245.67	5.98	-41.6	-43.3	18.5	0.00e+00	0	29	0	91226112	56	6658
2026-01-15 03:05:04.14	245.80	6.03	-41.5	-43.1	18.7	0.00e+00	0	29	0	93323264	56	6539
2026-01-15 03:05:05.15	245.93	6.07	-41.4	-43.0	18.9	0.00e+00	0	29	0	94371840	56	6445
2026-01-15 03:05:06.16	246.06	6.12	-41.3	-42.8	19.1	0.00e+00	0	29	0	96468992	56	6305
2026-01-15 03:05:07.17	246.19	6.16	-41.2	-42.7	19.2	0.00e+00	0	29	0	98566144	56	6206
2026-01-15 03:05:08.18	246.31	6.21	-41.1	-42.6	19.3	0.00e+00	0	29	0	100663296	56	6126
2026-01-15 03:05:09.19	246.44	6.25	-41.0	-42.5	19.4	0.00e+00	0	29	0	102760448	56	6046
2026-01-15 03:05:10.19	246.57	6.29	-41.0	-42.5	19.5	0.00e+00	0	29	0	103809024	56	6042
2026-01-15 03:05:11.20	246.70	6.34	-40.9	-42.3	19.6	0.00e+00	0	29	0	105906176	56	5944
2026-01-15 03:05:12.21	246.83	6.38	-40.6	-42.0	19.9	0.00e+00	0	29	0	108003328	54	6409
2026-01-15 03:05:13.22	246.97	6.43	-40.6	-42.0	19.9	0.00e+00	0	29	0	110100480	54	6391
2026-01-15 03:05:14.23	247.10	6.47	-40.6	-41.9	19.9	0.00e+00	0	29	0	112197632	54	6381
2026-01-15 03:05:15.24	247.23	6.51	-40.2	-41.5	20.4	0.00e+00	0	29	0	113246208	54	6066
2026-01-15 03:05:16.25	247.36	6.56	-40.3	-41.6	20.3	0.00e+00	0	29	0	115343360	54	6145
2026-01-15 03:05:17.26	247.49	6.60	-40.3	-41.6	20.3	0.00e+00	0	29	0	117440512	54	6120
2026-01-15 03:05:18.27	247.63	6.65	-40.2	-41.4	20.5	0.00e+00	0	29	0	119537664	54	6018
2026-01-15 03:05:19.28	247.76	6.69	-40.0	-41.3	20.6	0.00e+00	0	29	0	121634816	54	5915
2026-01-15 03:05:20.28	247.89	6.73	-40.0	-41.3	20.6	0.00e+00	0	29	0	123731968	54	5908
2026-01-15 03:05:21.29	248.03	6.78	-39.8	-41.0	20.9	0.00e+00	0	29	0	124780544	54	5739
2026-01-15 03:05:22.30	248.16	6.82	-39.8	-41.0	21.0	0.00e+00	0	29	0	126877696	54	5724
2026-01-15 03:05:23.31	248.30	6.86	-39.8	-41.0	21.0	0.00e+00	0	29	0	128974848	52	6399
2026-01-15 03:05:24.32	248.43	6.91	-39.8	-41.0	21.0	0.00e+00	0	29	0	131072000	52	6403
2026-01-15 03:05:25.33	248.57	6.95	-39.7	-40.9	21.1	0.00e+00	0	29	0	133169152	52	6353
2026-01-15 03:05:26.34	248.70	6.99	-39.7	-40.9	21.2	0.00e+00	0	29	0	134217728	52	6329
2026-01-15 03:05:27.35	248.84	7.04	-39.6	-40.7	21.2	0.00e+00	0	29	0	136314880	52	6219
2026-01-15 03:05:28.36	248.98	7.08	-39.4	-40.5	21.4	0.00e+00	0	29	0	138412032	52	6081
2026-01-15 03:05:29.37	249.11	7.12	-39.4	-40.5	21.5	0.00e+00	0	29	0	140509184	52	6080
2026-01-15 03:05:30.38	249.25	7.17	-39.5	-40.6	21.4	0.00e+00	0	29	0	142606336	52	6145
2026-01-15 03:05:31.39	249.39	7.21	-39.3	-40.4	21.6	0.00e+00	0	29	0	143654912	52	6010
2026-01-15 03:05:32.40	249.53	7.25	-39.4	-40.5	21.5	0.00e+00	0	29	0	145752064	52	6084
2026-01-15 03:05:33.40	249.67	7.30	-39.4	-40.5	21.5	0.00e+00	0	29	0	147849216	52	6080
2026-01-15 03:05:34.41	249.81	7.34	-39.4	-40.5	21.5	0.00e+00	0	29	0	149946368	52	6061
2026-01-15 03:05:35.42	249.95	7.38	-39.4	-40.5	21.5	0.00e+00	0	29	0	152043520	52	6060
2026-01-15 03:05:36.43	250.09	7.42	-39.4	-40.5	21.5	0.00e+00	0	29	0	153092096	52	6049
2026-01-15 03:05:37.44	250.23	7.47	-39.4	-40.6	21.5	0.00e+00	0	29	0	155189248	52	6110
2026-01-15 03:05:38.45	250.37	7.51	-39.2	-40.3	21.8	0.00e+00	0	29	0	157286400	52	5923
2026-01-15 03:05:39.46	250.51	7.55	-39.3	-40.4	21.6	0.00e+00	0	29	0	159383552	52	6013
2026-01-15 03:05:40.47	250.65	7.59	-39.3	-40.4	21.5	0.00e+00	0	29	0	161480704	52	6016
2026-01-15 03:05:41.48	250.79	7.64	-39.3	-40.4	21.6	0.00e+00	0	29	0	162529280	52	6013
2026-01-15 03:05:42.49	250.93	7.68	-39.3	-40.5	21.6	0.00e+00	0	29	0	164626432	52	6035
2026-01-15 03:05:43.50	251.08	7.72	-39.3	-40.4	21.7	0.00e+00	0	29	0	166723584	52	6020
2026-01-15 03:05:44.50	251.22	7.76	-39.3	-40.4	21.7	0.00e+00	0	29	0	168820736	52	5986
2026-01-15 03:05:45.51	251.36	7.80	-39.3	-40.4	21.7	0.00e+00	0	29	0	170917888	52	5989
2026-01-15 03:05:46.52	251.51	7.85	-39.2	-40.3	21.8	0.00e+00	0	29	0	171966464	52	5930
2026-01-15 03:05:47.53	251.65	7.89	-39.2	-40.3	21.7	0.00e+00	0	29	0	174063616	52	5954
2026-01-15 03:05:48.54	251.80	7.93	-39.3	-40.4	21.6	0.00e+00	0	29	0	176160768	52	5996
2026-01-15 03:05:49.54	251.94	7.97	-39.4	-40.5	21.6	0.00e+00	0	29	0	178257920	52	6051
2026-01-15 03:05:50.55	252.09	8.01	-39.3	-40.4	21.7	0.00e+00	0	29	0	180355072	52	5999
2026-01-15 03:05:51.56	252.23	8.05	-39.3	-40.4	21.6	0.00e+00	0	30	0	181403648	52	6030
2026-01-15 03:05:52.57	252.38	8.10	-39.3	-40.4	21.7	0.00e+00	0	29	0	183500800	52	5997
2026-01-15 03:05:53.58	252.52	8.14	-39.3	-40.4	21.7	0.00e+00	0	29	0	185597952	52	5994
2026-01-15 03:05:54.58	252.67	8.18	-39.3	-40.4	21.7	0.00e+00	0	29	0	187695104	52	5985
2026-01-15 03:05:55.59	252.82	8.22	-39.2	-40.2	21.8	0.00e+00	0	30	0	189792256	52	5890
2026-01-15 03:05:56.60	252.97	8.26	-39.3	-40.4	21.8	0.00e+00	0	29	0	190840832	52	6005
2026-01-15 03:05:57.61	253.11	8.30	-39.4	-40.5	21.7	0.00e+00	0	30	0	192937984	52	6046
2026-01-15 03:05:58.62	253.26	8.34	-39.3	-40.4	21.8	0.00e+00	0	29	0	195035136	52	5997
2026-01-15 03:05:59.63	253.41	8.38	-39.3	-40.3	21.8	0.00e+00	0	29	0	197132288	52	5962
2026-01-15 03:06:00.64	253.56	8.42	-39.4	-40.5	21.7	0.00e+00	0	29	0	199229440	52	6056
2026-01-15 03:06:01.65	253.71	8.46	-39.3	-40.4	21.8	0.00e+00	0	29	0	200278016	52	6009
2026-01-15 03:06:02.66	253.86	8.50	-39.5	-40.6	21.5	0.00e+00	0	29	0	202375168	52	6143
2026-01-15 03:06:03.67	254.01	8.55	-39.7	-40.8	21.3	0.00e+00	0	30	0	204472320	52	6288
2026-01-15 03:06:04.68	254.16	8.59	-39.6	-40.7	21.4	0.00e+00	0	29	0	206569472	52	6219
2026-01-15 03:06:05.69	254.32	8.63	-39.6	-40.7	21.4	0.00e+00	0	29	0	208666624	52	6217
2026-01-15 03:06:06.70	254.47	8.67	-39.6	-40.7	21.4	0.00e+00	0	29	0	209715200	52	6229
2026-01-15 03:06:07.71	254.62	8.71	-39.6	-40.7	21.4	0.00e+00	0	29	0	211812352	52	6227
2026-01-15 03:06:08.72	254.77	8.75	-39.7	-40.8	21.3	0.00e+00	0	29	0	213909504	52	6307
2026-01-15 03:06:09.73	254.93	8.78	-39.6	-40.8	21.5	0.00e+00	0	29	0	216006656	52	6257
2026-01-15 03:06:10.73	255.08	8.82	-39.4	-40.5	21.6	0.00e+00	0	29	0	218103808	52	6094
2026-01-15 03:06:11.74	255.23	8.86	-39.4	-40.5	21.6	0.00e+00	0	29	0	220200960	52	6103
2026-01-15 03:06:12.75	255.39	8.90	-39.5	-40.6	21.6	0.00e+00	0	29	0	221249536	52	6114
2026-01-15 03:06:13.76	255.54	8.94	-39.4	-40.5	21.7	0.00e+00	0	29	0	223346688	52	6035
2026-01-15 03:06:14.77	255.70	8.98	-39.4	-40.5	21.6	0.00e+00	0	29	0	225443840	52	6084
2026-01-15 03:06:15.78	255.85	9.02	-39.5	-40.6	21.6	0.00e+00	0	29	0	227540992	52	6135
2026-01-15 03:06:16.79	256.01	9.06	-39.6	-40.7	21.5	0.00e+00	0	29	0	229638144	52	6203
2026-01-15 03:06:17.80	256.17	9.10	-39.6	-40.7	20.9	0.00e+00	0	29	0	230686720	52	6204
2026-01-15 03:06:18.80	256.32	9.14	-39.7	-40.8	21.4	0.00e+00	0	29	0	232783872	52	6298
2026-01-15 03:06:19.81	256.48	9.17	-39.7	-40.8	21.4	0.00e+00	0	29	0	234881024	52	6303
2026-01-15 03:06:20.82	256.64	9.21	-39.7	-40.9	21.4	0.00e+00	0	29	0	236978176	52	6323
2026-01-15 03:06:21.83	256.79	9.25	-39.8	-40.9	21.3	0.00e+00	0	29	0	239075328	52	6367
2026-01-15 03:06:22.84	256.95	9.29	-39.8	-40.9	21.4	0.00e+00	0	29	0	240123904	52	6375
2026-01-15 03:06:23.85	257.11	9.33	-39.6	-40.8	21.4	0.00e+00	0	30	0	242221056	52	6252
2026-01-15 03:06:24.86	257.27	9.36	-39.8	-41.0	21.3	0.00e+00	0	29	0	244318208	52	6393
2026-01-15 03:06:25.87	257.43	9.40	-39.6	-40.8	21.4	0.00e+00	0	29	0	246415360	52	6246
2026-01-15 03:06:26.88	257.59	9.44	-39.6	-40.7	21.5	0.00e+00	0	29	0	248512512	52	6235
2026-01-15 03:06:27.89	257.75	9.48	-39.6	-40.7	21.5	0.00e+00	0	29	0	249561088	52	6198
2026-01-15 03:06:28.90	257.91	9.51	-39.6	-40.8	21.4	0.00e+00	0	29	0	251658240	52	6253
2026-01-15 03:06:29.91	258.07	9.55	-39.7	-40.8	21.4	0.00e+00	0	30	0	253755392	52	6309
2026-01-15 03:06:30.92	258.23	9.59	-39.8	-41.0	21.2	0.00e+00	0	29	0	255852544	52	6416
2026-01-15 03:06:31.93	258.40	9.63	-39.8	-40.9	21.3	0.00e+00	0	29	0	257949696	52	6379
2026-01-15 03:06:32.94	258.56	9.66	-39.8	-41.0	21.2	0.00e+00	0	29	0	258998272	52	6443
2026-01-15 03:06:33.95	258.72	9.70	-39.9	-41.0	21.3	0.00e+00	0	29	0	261095424	52	6456
2026-01-15 03:06:34.96	258.88	9.74	-39.8	-41.0	21.3	0.00e+00	0	29	0	263192576	52	6430
2026-01-15 03:06:35.97	259.05	9.77	-39.9	-41.1	21.2	0.00e+00	0	29	0	265289728	52	6477
2026-01-15 03:06:36.97	259.21	9.81	-40.0	-41.2	21.2	0.00e+00	0	30	0	267386880	52	6589
2026-01-15 03:06:37.98	259.37	9.84	-39.8	-41.0	21.3	0.00e+00	0	29	0	268435456	52	6405
2026-01-15 03:06:38.99	259.54	9.88	-39.8	-41.0	21.3	0.00e+00	0	30	0	270532608	52	6440
2026-01-15 03:06:40.00	259.70	9.91	-39.7	-40.8	21.4	0.00e+00	0	29	0	272629760	52	6270
2026-01-15 03:06:41.01	259.87	9.95	-39.8	-40.9	21.3	0.00e+00	0	29	0	274726912	52	6378
2026-01-15 03:06:42.02	260.04	9.99	-39.6	-40.8	21.4	0.00e+00	0	29	0	276824064	52	6264
2026-01-15 03:06:43.03	260.20	10.02	-39.7	-40.9	21.4	0.00e+00	0	30	0	277872640	52	6319
2026-01-15 03:06:44.04	260.37	10.06	-39.7	-40.9	21.4	0.00e+00	0	30	0	279969792	52	6344
2026-01-15 03:06:45.04	260.53	10.09	-39.8	-41.0	21.2	0.00e+00	0	29	0	282066944	52	6403
2026-01-15 03:06:46.05	260.70	10.12	-39.9	-41.0	21.2	0.00e+00	0	30	0	284164096	52	6447
2026-01-15 03:06:47.06	260.87	10.16	-39.9	-41.1	21.2	0.00e+00	0	29	0	286261248	52	6511
2026-01-15 03:06:48.07	261.04	10.19	-39.9	-41.1	21.1	0.00e+00	0	29	0	288358400	52	6517
2026-01-15 03:06:49.08	261.21	10.23	-40.0	-41.2	21.1	0.00e+00	0	29	0	289406976	52	6541
2026-01-15 03:06:50.09	261.38	10.26	-40.1	-41.4	21.0	0.00e+00	0	29	0	291504128	52	6694
2026-01-15 03:06:51.09	261.54	10.30	-39.8	-41.0	21.2	0.00e+00	0	30	0	293601280	52	6394
2026-01-15 03:06:52.10	261.71	10.33	-39.8	-41.0	21.3	0.00e+00	0	29	0	295698432	52	6396
2026-01-15 03:06:53.11	261.88	10.36	-39.7	-40.8	21.4	0.00e+00	0	29	0	296747008	52	6309
2026-01-15 03:06:54.12	262.05	10.40	-39.6	-40.8	21.5	0.00e+00	0	29	0	298844160	52	6260
2026-01-15 03:06:55.13	262.22	10.43	-39.7	-40.8	21.4	0.00e+00	0	29	0	300941312	52	6287
2026-01-15 03:06:56.14	262.40	10.46	-39.5	-40.7	21.7	0.00e+00	0	30	0	303038464	52	6176
2026-01-15 03:06:57.14	262.56	10.49	-39.5	-40.6	21.7	0.00e+00	0	29	0	305135616	52	6137
2026-01-15 03:06:58.15	262.74	10.53	-39.5	-40.7	21.6	0.00e+00	0	29	0	306184192	52	6186
2026-01-15 03:06:59.16	262.91	10.56	-39.5	-40.6	21.7	0.00e+00	0	29	0	308281344	52	6140
2026-01-15 03:07:00.16	263.08	10.59	-39.5	-40.6	21.7	0.00e+00	0	29	0	310378496	52	6139
2026-01-15 03:07:01.17	263.25	10.62	-39.6	-40.7	21.5	0.00e+00	0	30	0	312475648	52	6216
2026-01-15 03:07:02.18	263.43	10.65	-39.6	-40.8	21.5	0.00e+00	0	29	0	314572800	52	6260
2026-01-15 03:07:03.19	263.60	10.69	-39.8	-40.9	21.4	0.00e+00	0	29	0	316669952	52	6363
2026-01-15 03:07:04.20	263.77	10.72	-39.9	-41.1	21.2	0.00e+00	0	29	0	317718528	52	6484
2026-01-15 03:07:05.21	263.95	10.75	-39.9	-41.1	21.2	0.00e+00	0	29	0	319815680	52	6490
2026-01-15 03:07:06.21	264.12	10.78	-40.0	-41.2	21.2	0.00e+00	0	29	0	321912832	52	6566
2026-01-15 03:07:07.22	264.30	10.81	-39.9	-41.1	21.2	0.00e+00	0	29	0	324009984	52	6504
2026-01-15 03:07:08.23	264.47	10.84	-39.9	-41.1	21.2	0.00e+00	0	30	0	326107136	52	6522
2026-01-15 03:07:09.24	264.65	10.87	-40.1	-41.3	21.1	0.00e+00	0	30	0	327155712	52	6653
2026-01-15 03:07:10.25	264.82	10.90	-39.9	-41.0	21.3	0.00e+00	0	29	0	329252864	52	6455
2026-01-15 03:07:11.26	265.00	10.93	-39.8	-41.0	20.9	0.00e+00	0	29	0	331350016	52	6394
2026-01-15 03:07:12.26	265.18	10.96	-39.9	-41.1	21.2	0.00e+00	0	29	0	333447168	52	6512
2026-01-15 03:07:13.27	265.35	10.99	-39.9	-41.1	21.2	0.00e+00	0	30	0	335544320	52	6479
2026-01-15 03:07:14.28	265.53	11.02	-39.8	-41.0	21.3	0.00e+00	0	29	0	336592896	52	6426
2026-01-15 03:07:15.29	265.71	11.05	-39.7	-40.8	21.5	0.00e+00	0	29	0	338690048	52	6291
2026-01-15 03:07:16.30	265.89	11.08	-39.7	-40.8	21.4	0.00e+00	0	29	0	340787200	52	6300
2026-01-15 03:07:17.31	266.07	11.11	-39.8	-40.9	21.3	0.00e+00	0	29	0	342884352	52	6371
2026-01-15 03:07:18.32	266.25	11.14	-39.9	-41.0	21.3	0.00e+00	0	29	0	344981504	52	6440
2026-01-15 03:07:19.33	266.42	11.17	-39.7	-40.9	21.4	0.00e+00	0	29	0	346030080	52	6320
2026-01-15 03:07:20.34	266.60	11.19	-39.8	-40.9	21.3	0.00e+00	0	29	0	348127232	52	6366
2026-01-15 03:07:21.35	266.78	11.22	-39.6	-40.8	21.5	0.00e+00	0	29	0	350224384	52	6248
2026-01-15 03:07:22.36	266.96	11.25	-39.7	-40.8	21.4	0.00e+00	0	29	0	352321536	52	6310
2026-01-15 03:07:23.36	267.14	11.28	-39.7	-40.8	21.4	0.00e+00	0	29	0	354418688	52	6316
2026-01-15 03:07:24.37	267.32	11.30	-39.8	-41.0	21.3	0.00e+00	0	29	0	355467264	52	6401
2026-01-15 03:07:25.38	267.51	11.33	-40.0	-41.1	21.1	0.00e+00	0	29	0	357564416	52	6522
2026-01-15 03:07:26.39	267.69	11.36	-40.1	-41.3	21.1	0.00e+00	0	29	0	359661568	52	6617
2026-01-15 03:07:27.40	267.87	11.38	-40.2	-41.4	21.0	0.00e+00	0	30	0	361758720	52	6760
2026-01-15 03:07:28.41	268.05	11.41	-40.2	-41.5	20.8	0.00e+00	0	29	0	363855872	52	6779
2026-01-15 03:07:29.42	268.23	11.44	-40.2	-41.4	20.9	0.00e+00	0	29	0	364904448	52	6722
2026-01-15 03:07:30.43	268.42	11.46	-40.3	-41.5	20.9	0.00e+00	0	29	0	367001600	52	6831
2026-01-15 03:07:31.44	268.60	11.49	-40.1	-41.3	21.0	0.00e+00	0	29	0	369098752	52	6630
2026-01-15 03:07:32.45	268.78	11.51	-40.1	-41.3	21.1	0.00e+00	0	30	0	371195904	52	6669
2026-01-15 03:07:33.46	268.97	11.54	-40.0	-41.2	21.1	0.00e+00	0	29	0	373293056	52	6551
2026-01-15 03:07:34.47	269.15	11.56	-40.1	-41.3	21.1	0.00e+00	0	29	0	374341632	52	6667
2026-01-15 03:07:35.47	269.33	11.59	-39.7	-40.8	21.5	0.00e+00	0	29	0	376438784	52	6271
2026-01-15 03:07:36.48	269.52	11.61	-39.6	-40.7	21.6	0.00e+00	0	29	0	378535936	52	6211
2026-01-15 03:07:37.49	269.70	11.64	-39.6	-40.7	21.7	0.00e+00	0	29	0	380633088	52	6203
2026-01-15 03:07:38.50	269.89	11.66	-39.4	-40.5	21.7	0.00e+00	0	29	0	382730240	52	6076
2026-01-15 03:07:39.51	270.07	11.68	-39.4	-40.5	21.8	0.00e+00	0	29	0	383778816	52	6043
2026-01-15 03:07:40.52	270.26	11.71	-39.4	-40.5	21.8	0.00e+00	0	29	0	385875968	52	6062
2026-01-15 03:07:41.53	270.45	11.73	-39.5	-40.6	21.5	0.00e+00	0	29	0	387973120	52	6136
2026-01-15 03:07:42.54	270.63	11.75	-39.5	-40.6	21.7	0.00e+00	0	29	0	390070272	52	6139
2026-01-15 03:07:43.55	270.82	11.78	-39.5	-40.7	21.6	0.00e+00	0	29	0	392167424	52	6178
2026-01-15 03:07:44.56	271.01	11.80	-39.5	-40.6	21.7	0.00e+00	0	30	0	393216000	52	6157
2026-01-15 03:07:45.57	271.19	11.82	-39.6	-40.7	21.6	0.00e+00	0	30	0	395313152	52	6191
2026-01-15 03:07:46.57	271.38	11.84	-39.6	-40.7	21.6	0.00e+00	0	30	0	397410304	52	6228
2026-01-15 03:07:47.59	271.57	11.87	-39.6	-40.8	21.5	0.00e+00	0	29	0	399507456	52	6262
2026-01-15 03:07:48.60	271.76	11.89	-39.4	-40.5	21.8	0.00e+00	0	30	0	401604608	52	6052
2026-01-15 03:07:49.61	271.94	11.91	-39.4	-40.5	21.8	0.00e+00	0	29	0	402653184	52	6054
2026-01-15 03:07:50.61	272.13	11.93	-39.2	-40.3	22.0	0.00e+00	0	29	0	404750336	52	5917
2026-01-15 03:07:51.62	272.32	11.95	-39.2	-40.3	22.0	0.00e+00	0	29	0	406847488	52	5949
2026-01-15 03:07:52.63	272.51	11.97	-39.0	-40.0	22.2	0.00e+00	0	29	0	408944640	52	5724
2026-01-15 03:07:53.64	272.70	11.99	-38.9	-39.9	22.3	0.00e+00	0	29	0	411041792	52	5646
2026-01-15 03:07:54.65	272.89	12.01	-38.9	-39.9	22.3	0.00e+00	0	29	0	413138944	52	5649
2026-01-15 03:07:55.66	273.08	12.03	-38.9	-39.9	22.3	0.00e+00	0	30	0	414187520	52	5670
2026-01-15 03:07:56.67	273.27	12.05	-39.0	-40.0	22.3	0.00e+00	0	30	0	416284672	52	5717
2026-01-15 03:07:57.68	273.46	12.07	-39.1	-40.1	22.1	0.00e+00	0	29	0	418381824	52	5802
2026-01-15 03:07:58.69	273.65	12.09	-39.1	-40.2	22.0	0.00e+00	0	30	0	420478976	52	5859
2026-01-15 03:07:59.69	273.84	12.11	-39.3	-40.4	21.9	0.00e+00	0	30	0	422576128	52	5971
2026-01-15 03:08:00.70	274.03	12.12	-39.5	-40.6	21.7	0.00e+00	0	30	0	423624704	52	6146
2026-01-15 03:08:01.71	274.22	12.14	-39.5	-40.6	21.6	0.00e+00	0	29	0	425721856	52	6170
2026-01-15 03:08:02.72	274.41	12.16	-39.7	-40.8	21.5	0.00e+00	0	29	0	427819008	52	6307
2026-01-15 03:08:03.73	274.60	12.18	-39.8	-40.9	21.4	0.00e+00	0	29	0	429916160	52	6375
2026-01-15 03:08:04.74	274.79	12.20	-39.8	-41.0	21.4	0.00e+00	0	29	0	432013312	52	6394
2026-01-15 03:08:05.75	274.99	12.21	-39.7	-40.9	21.5	0.00e+00	0	30	0	433061888	52	6320
2026-01-15 03:08:06.76	275.18	12.23	-39.7	-40.8	21.5	0.00e+00	0	29	0	435159040	52	6297
2026-01-15 03:08:07.76	275.37	12.25	-39.7	-40.8	21.5	0.00e+00	0	29	0	437256192	52	6292
2026-01-15 03:08:08.77	275.56	12.26	-39.7	-40.8	21.5	0.00e+00	0	30	0	439353344	52	6296
2026-01-15 03:08:09.78	275.75	12.28	-39.8	-41.0	21.3	0.00e+00	0	29	0	441450496	52	6403
2026-01-15 03:08:10.79	275.95	12.29	-39.8	-41.0	21.3	0.00e+00	0	29	0	442499072	52	6405
2026-01-15 03:08:11.80	276.14	12.31	-39.9	-41.0	21.3	0.00e+00	0	29	0	444596224	52	6440
2026-01-15 03:08:12.80	276.33	12.32	-40.1	-41.2	21.1	0.00e+00	0	29	0	446693376	52	6615
2026-01-15 03:08:13.81	276.53	12.34	-40.1	-41.3	21.2	0.00e+00	0	29	0	448790528	52	6634
2026-01-15 03:08:14.82	276.72	12.35	-40.2	-41.4	20.9	0.00e+00	0	30	0	450887680	52	6734
2026-01-15 03:08:15.83	276.91	12.37	-40.3	-41.6	20.8	0.00e+00	0	29	0	451936256	52	6849
2026-01-15 03:08:16.84	277.11	12.38	-40.4	-41.6	20.7	0.00e+00	0	29	0	454033408	52	6925
2026-01-15 03:08:17.85	277.30	12.39	-40.4	-41.6	20.8	0.00e+00	0	29	0	456130560	52	6900
2026-01-15 03:08:18.86	277.50	12.41	-40.3	-41.6	20.8	0.00e+00	0	29	0	458227712	52	6880
2026-01-15 03:08:19.87	277.69	12.42	-40.3	-41.5	20.8	0.00e+00	0	29	0	460324864	52	6837
2026-01-15 03:08:20.88	277.89	12.43	-40.3	-41.5	20.9	0.00e+00	0	29	0	461373440	52	6822
2026-01-15 03:08:21.89	278.08	12.44	-40.2	-41.4	20.9	0.00e+00	0	29	0	463470592	52	6767
2026-01-15 03:08:22.89	278.28	12.46	-40.1	-41.3	21.0	0.00e+00	0	29	0	465567744	52	6645
2026-01-15 03:08:23.90	278.47	12.47	-40.2	-41.4	21.0	0.00e+00	0	29	0	467664896	52	6717
2026-01-15 03:08:24.91	278.67	12.48	-40.1	-41.3	21.1	0.00e+00	0	29	0	469762048	52	6681
2026-01-15 03:08:25.92	278.86	12.49	-40.3	-41.5	20.9	0.00e+00	0	29	0	470810624	52	6781
2026-01-15 03:08:26.93	279.06	12.50	-40.2	-41.4	21.0	0.00e+00	0	29	0	472907776	52	6714
2026-01-15 03:08:27.94	279.25	12.51	-40.2	-41.4	21.0	0.00e+00	0	29	0	475004928	52	6736
2026-01-15 03:08:28.95	279.45	12.52	-40.2	-41.5	20.9	0.00e+00	0	29	0	477102080	52	6774
2026-01-15 03:08:29.96	279.65	12.53	-40.2	-41.4	21.0	0.00e+00	0	29	0	479199232	52	6726
2026-01-15 03:08:30.96	279.84	12.54	-40.1	-41.3	21.1	0.00e+00	0	29	0	481296384	52	6617
2026-01-15 03:08:31.97	280.04	12.55	-40.1	-41.3	21.1	0.00e+00	0	29	0	482344960	52	6671
2026-01-15 03:08:32.98	280.23	12.56	-40.0	-41.1	21.2	0.00e+00	0	29	0	484442112	52	6513
2026-01-15 03:08:33.99	280.43	12.57	-39.8	-41.0	21.4	0.00e+00	0	29	0	486539264	52	6407
2026-01-15 03:08:35.00	280.63	12.58	-39.8	-40.9	21.3	0.00e+00	0	29	0	488636416	52	6385
2026-01-15 03:08:36.01	280.82	12.59	-39.9	-41.1	21.3	0.00e+00	0	29	0	489684992	52	6478
2026-01-15 03:08:37.02	281.02	12.59	-39.9	-41.1	21.3	0.00e+00	0	29	0	491782144	52	6482
2026-01-15 03:08:38.03	281.22	12.60	-39.9	-41.1	21.4	0.00e+00	0	30	0	493879296	52	6478
2026-01-15 03:08:39.04	281.41	12.61	-39.9	-41.1	21.3	0.00e+00	0	29	0	495976448	52	6471
2026-01-15 03:08:40.04	281.61	12.62	-39.9	-41.0	21.3	0.00e+00	0	29	0	498073600	52	6449
2026-01-15 03:08:41.05	281.81	12.62	-40.1	-41.3	21.1	0.00e+00	0	29	0	499122176	52	6642
2026-01-15 03:08:42.06	282.00	12.63	-39.9	-41.0	21.3	0.00e+00	0	29	0	501219328	52	6456
2026-01-15 03:08:43.07	282.20	12.64	-39.9	-41.1	21.3	0.00e+00	0	29	0	503316480	52	6485
2026-01-15 03:08:44.08	282.40	12.64	-39.9	-41.0	21.4	0.00e+00	0	29	0	505413632	52	6428
2026-01-15 03:08:45.09	282.60	12.65	-39.8	-40.9	21.4	0.00e+00	0	29	0	507510784	52	6380
2026-01-15 03:08:46.10	282.79	12.65	-39.8	-40.9	21.5	0.00e+00	0	29	0	509607936	52	6370
2026-01-15 03:08:47.10	282.99	12.66	-39.8	-40.9	21.5	0.00e+00	0	29	0	510656512	52	6344
2026-01-15 03:08:48.11	283.19	12.66	-39.5	-40.6	21.7	0.00e+00	0	29	0	512753664	52	6143
2026-01-15 03:08:49.12	283.38	12.67	-39.5	-40.6	21.8	0.00e+00	0	29	0	514850816	52	6105
2026-01-15 03:08:50.13	283.58	12.67	-39.4	-40.4	21.9	0.00e+00	0	29	0	516947968	52	6029
2026-01-15 03:08:51.14	283.78	12.67	-39.5	-40.6	21.7	0.00e+00	0	30	0	519045120	52	6153
2026-01-15 03:08:52.15	283.98	12.68	-39.5	-40.6	21.7	0.00e+00	0	29	0	520093696	52	6142
2026-01-15 03:08:53.16	284.18	12.68	-39.5	-40.6	21.7	0.00e+00	0	29	0	522190848	52	6116
2026-01-15 03:08:54.16	284.37	12.68	-39.6	-40.8	21.6	0.00e+00	0	29	0	524288000	52	6256
2026-01-15 03:08:55.17	284.57	12.69	-39.6	-40.8	21.6	0.00e+00	0	29	0	526385152	52	6250
2026-01-15 03:08:56.18	284.77	12.69	-39.7	-40.8	21.5	0.00e+00	0	30	0	528482304	52	6297
2026-01-15 03:08:57.19	284.97	12.69	-39.7	-40.9	21.5	0.00e+00	0	29	0	529530880	52	6345
2026-01-15 03:08:58.20	285.16	12.69	-39.6	-40.7	21.6	0.00e+00	0	29	0	531628032	52	6213
2026-01-15 03:08:59.21	285.36	12.69	-39.5	-40.6	21.8	0.00e+00	0	29	0	533725184	52	6146
2026-01-15 03:09:00.22	285.56	12.69	-39.3	-40.4	21.9	0.00e+00	0	29	0	535822336	52	5972
2026-01-15 03:09:01.23	285.76	12.69	-39.4	-40.4	21.8	0.00e+00	0	29	0	537919488	52	6024
2026-01-15 03:09:02.24	285.96	12.69	-39.2	-40.3	22.1	0.00e+00	0	29	0	538968064	52	5902
2026-01-15 03:09:03.25	286.16	12.69	-39.3	-40.4	21.9	0.00e+00	0	29	0	541065216	52	5985
2026-01-15 03:09:04.25	286.35	12.69	-39.2	-40.3	22.0	0.00e+00	0	29	0	543162368	52	5925
2026-01-15 03:09:05.26	286.55	12.69	-39.2	-40.3	22.0	0.00e+00	0	30	0	545259520	52	5916
2026-01-15 03:09:06.26	286.75	12.69	-39.3	-40.4	21.9	0.00e+00	0	29	0	547356672	52	5986
2026-01-15 03:09:07.27	286.94	12.69	-39.2	-40.3	21.4	0.00e+00	0	29	0	548405248	52	5922
2026-01-15 03:09:08.28	287.14	12.69	-39.0	-40.0	22.3	0.00e+00	0	29	0	550502400	52	5745
2026-01-15 03:09:09.29	287.34	12.69	-39.0	-40.0	22.3	0.00e+00	0	29	0	552599552	52	5731
2026-01-15 03:09:10.30	287.54	12.68	-38.9	-39.9	22.3	0.00e+00	0	29	0	554696704	52	5687
2026-01-15 03:09:11.31	287.74	12.68	-38.8	-39.8	22.4	0.00e+00	0	30	0	556793856	52	5627
2026-01-15 03:09:12.32	287.93	12.68	-38.6	-39.6	22.6	0.00e+00	0	29	0	557842432	50	6128
2026-01-15 03:09:13.33	288.13	12.68	-38.6	-39.5	22.6	0.00e+00	0	29	0	559939584	50	6092
2026-01-15 03:09:14.33	288.33	12.67	-38.7	-39.6	22.6	0.00e+00	0	29	0	562036736	50	6172
2026-01-15 03:09:15.34	288.53	12.67	-38.4	-39.4	22.8	0.00e+00	0	29	0	564133888	50	6010
2026-01-15 03:09:16.35	288.72	12.66	-38.4	-39.4	22.9	0.00e+00	0	30	0	566231040	50	5969
2026-01-15 03:09:17.36	288.92	12.66	-38.4	-39.4	22.8	0.00e+00	0	29	0	567279616	50	5989
2026-01-15 03:09:18.37	289.12	12.66	-38.6	-39.5	22.7	0.00e+00	0	29	0	569376768	50	6099
2026-01-15 03:09:19.38	289.32	12.65	-38.5	-39.5	22.8	0.00e+00	0	30	0	571473920	50	6056
2026-01-15 03:09:20.39	289.51	12.64	-38.6	-39.6	22.6	0.00e+00	0	29	0	573571072	50	6113
2026-01-15 03:09:21.40	289.71	12.64	-38.5	-39.5	22.8	0.00e+00	0	29	0	575668224	50	6055
2026-01-15 03:09:22.40	289.91	12.63	-38.5	-39.5	22.7	0.00e+00	0	30	0	576716800	50	6066
2026-01-15 03:09:23.41	290.10	12.63	-38.4	-39.4	22.8	0.00e+00	0	30	0	578813952	50	5997
2026-01-15 03:09:24.42	290.30	12.62	-38.5	-39.5	22.8	0.00e+00	0	30	0	580911104	50	6055
2026-01-15 03:09:25.43	290.50	12.61	-38.3	-39.3	23.0	0.00e+00	0	30	0	583008256	50	5915
2026-01-15 03:09:26.44	290.69	12.61	-38.3	-39.3	22.9	0.00e+00	0	30	0	585105408	50	5931
2026-01-15 03:09:27.45	290.89	12.60	-38.4	-39.4	22.8	0.00e+00	0	30	0	586153984	50	5996
2026-01-15 03:09:28.46	291.09	12.59	-38.3	-39.3	23.0	0.00e+00	0	30	0	588251136	50	5933
2026-01-15 03:09:29.47	291.28	12.58	-38.2	-39.1	23.0	0.00e+00	0	29	0	590348288	50	5814
2026-01-15 03:09:30.47	291.48	12.58	-38.2	-39.2	23.1	0.00e+00	0	30	0	592445440	50	5831
2026-01-15 03:09:31.48	291.68	12.57	-38.3	-39.3	22.9	0.00e+00	0	30	0	594542592	50	5909
2026-01-15 03:09:32.49	291.87	12.56	-38.4	-39.3	22.9	0.00e+00	0	29	0	595591168	50	5955
2026-01-15 03:09:33.50	292.07	12.55	-38.2	-39.1	23.0	0.00e+00	0	30	0	597688320	50	5824
2026-01-15 03:09:34.50	292.26	12.54	-38.1	-39.1	23.1	0.00e+00	0	29	0	599785472	50	5775
2026-01-15 03:09:35.51	292.46	12.53	-38.1	-39.0	23.1	0.00e+00	0	29	0	601882624	50	5759
2026-01-15 03:09:36.52	292.65	12.52	-38.3	-39.3	23.1	0.00e+00	0	30	0	603979776	50	5927
2026-01-15 03:09:37.53	292.85	12.51	-38.2	-39.2	22.9	0.00e+00	0	29	0	606076928	50	5832
2026-01-15 03:09:38.54	293.05	12.50	-38.4	-39.3	23.0	0.00e+00	0	29	0	607125504	50	5950
2026-01-15 03:09:39.55	293.24	12.49	-38.3	-39.2	22.9	0.00e+00	0	29	0	609222656	50	5880
2026-01-15 03:09:40.55	293.43	12.48	-38.4	-39.4	22.8	0.00e+00	0	30	0	611319808	50	6014
2026-01-15 03:09:41.57	293.63	12.46	-38.4	-39.4	22.9	0.00e+00	0	30	0	613416960	50	5979
2026-01-15 03:09:42.58	293.83	12.45	-38.1	-39.1	23.1	0.00e+00	0	30	0	615514112	50	5796
2026-01-15 03:09:43.58	294.02	12.44	-38.3	-39.2	22.9	0.00e+00	0	30	0	616562688	50	5895
2026-01-15 03:09:44.59	294.21	12.43	-38.2	-39.2	23.0	0.00e+00	0	30	0	618659840	50	5842
2026-01-15 03:09:45.60	294.41	12.41	-38.4	-39.3	22.9	0.00e+00	0	30	0	620756992	50	5948
2026-01-15 03:09:46.61	294.60	12.40	-38.3	-39.3	22.9	0.00e+00	0	29	0	622854144	50	5924
2026-01-15 03:09:47.62	294.80	12.39	-38.4	-39.4	22.8	0.00e+00	0	30	0	624951296	50	5999
2026-01-15 03:09:48.63	294.99	12.37	-38.4	-39.3	22.8	0.00e+00	0	30	0	625999872	50	5942
2026-01-15 03:09:49.64	295.18	12.36	-38.3	-39.3	22.8	0.00e+00	0	30	0	628097024	50	5935
2026-01-15 03:09:50.65	295.38	12.35	-38.4	-39.4	22.8	0.00e+00	0	30	0	630194176	50	6011
2026-01-15 03:09:51.65	295.57	12.33	-38.6	-39.6	22.6	0.00e+00	0	29	0	632291328	50	6136
2026-01-15 03:09:52.66	295.76	12.32	-38.7	-39.7	22.6	0.00e+00	0	30	0	634388480	50	6178
2026-01-15 03:09:53.67	295.96	12.30	-38.5	-39.4	22.7	0.00e+00	0	30	0	635437056	50	6033
2026-01-15 03:09:54.68	296.15	12.29	-38.5	-39.5	22.7	0.00e+00	0	30	0	637534208	50	6094
2026-01-15 03:09:55.69	296.34	12.27	-38.4	-39.4	22.8	0.00e+00	0	30	0	639631360	50	6023
2026-01-15 03:09:56.70	296.53	12.26	-38.3	-39.3	22.9	0.00e+00	0	29	0	641728512	50	5943
2026-01-15 03:09:57.71	296.73	12.24	-38.4	-39.4	22.8	0.00e+00	0	30	0	643825664	50	5990
2026-01-15 03:09:58.72	296.92	12.22	-38.3	-39.3	22.9	0.00e+00	0	30	0	644874240	50	5916
2026-01-15 03:09:59.72	297.11	12.21	-38.4	-39.3	22.9	0.00e+00	0	29	0	646971392	50	5955
2026-01-15 03:10:00.73	297.30	12.19	-38.4	-39.3	22.9	0.00e+00	0	29	0	649068544	50	5959
2026-01-15 03:10:01.74	297.49	12.17	-38.5	-39.5	22.7	0.00e+00	0	30	0	651165696	50	6059
2026-01-15 03:10:02.75	297.68	12.15	-38.6	-39.6	22.6	0.00e+00	0	29	0	653262848	50	6143
2026-01-15 03:10:03.76	297.87	12.14	-38.7	-39.7	22.6	0.00e+00	0	29	0	654311424	50	6183
2026-01-15 03:10:04.77	298.06	12.12	-38.8	-39.8	22.4	0.00e+00	0	30	0	656408576	50	6266
2026-01-15 03:10:05.78	298.25	12.10	-39.0	-40.0	22.2	0.00e+00	0	30	0	658505728	50	6445
2026-01-15 03:10:06.79	298.44	12.08	-38.9	-40.0	22.3	0.00e+00	0	30	0	660602880	50	6405
2026-01-15 03:10:07.80	298.63	12.06	-38.9	-39.9	22.3	0.00e+00	0	30	0	662700032	50	6380
2026-01-15 03:10:08.81	298.82	12.04	-38.9	-39.9	22.3	0.00e+00	0	30	0	663748608	50	6367
2026-01-15 03:10:09.82	299.01	12.02	-38.6	-39.6	22.6	0.00e+00	0	30	0	665845760	50	6151
2026-01-15 03:10:10.83	299.20	12.00	-38.5	-39.5	22.7	0.00e+00	0	30	0	667942912	50	6063
2026-01-15 03:10:11.84	299.39	11.98	-38.5	-39.5	22.8	0.00e+00	0	30	0	670040064	50	6044
2026-01-15 03:10:12.85	299.58	11.96	-38.4	-39.3	22.9	0.00e+00	0	30	0	672137216	50	5951
2026-01-15 03:10:13.85	299.77	11.94	-38.3	-39.2	23.0	0.00e+00	0	30	0	673185792	50	5888
2026-01-15 03:10:14.86	299.95	11.92	-38.3	-39.3	22.9	0.00e+00	0	30	0	675282944	50	5910
2026-01-15 03:10:15.87	300.14	11.90	-38.4	-39.3	22.9	0.00e+00	0	30	0	677380096	50	5942
2026-01-15 03:10:16.88	300.33	11.88	-38.3	-39.3	22.9	0.00e+00	0	30	0	679477248	50	5937
2026-01-15 03:10:17.89	300.52	11.86	-38.3	-39.2	23.0	0.00e+00	0	30	0	681574400	50	5864
2026-01-15 03:10:18.90	300.70	11.84	-38.1	-39.0	23.0	0.00e+00	0	29	0	682622976	50	5758
2026-01-15 03:10:19.91	300.89	11.82	-38.0	-39.0	23.1	0.00e+00	0	30	0	684720128	50	5698
2026-01-15 03:10:20.91	301.08	11.79	-38.2	-39.1	23.0	0.00e+00	0	30	0	686817280	50	5824
2026-01-15 03:10:21.92	301.26	11.77	-38.3	-39.2	22.9	0.00e+00	0	30	0	688914432	50	5884
2026-01-15 03:10:22.93	301.45	11.75	-38.1	-39.1	22.9	0.00e+00	0	30	0	691011584	50	5771
2026-01-15 03:10:23.94	301.63	11.73	-38.4	-39.3	23.0	0.00e+00	0	29	0	692060160	50	5959
2026-01-15 03:10:24.95	301.82	11.70	-38.4	-39.4	23.0	0.00e+00	0	30	0	694157312	50	5987
2026-01-15 03:10:25.96	302.00	11.68	-38.4	-39.3	22.7	0.00e+00	0	30	0	696254464	50	5951
2026-01-15 03:10:26.97	302.19	11.65	-38.4	-39.4	22.8	0.00e+00	0	30	0	698351616	50	6004
2026-01-15 03:10:27.98	302.37	11.63	-38.4	-39.4	22.7	0.00e+00	0	30	0	700448768	50	6025
2026-01-15 03:10:28.99	302.56	11.61	-38.6	-39.6	22.7	0.00e+00	0	30	0	702545920	50	6131
2026-01-15 03:10:30.00	302.74	11.58	-38.3	-39.3	22.8	0.00e+00	0	30	0	703594496	50	5945
2026-01-15 03:10:31.00	302.92	11.56	-38.4	-39.4	22.8	0.00e+00	0	30	0	705691648	50	6007
2026-01-15 03:10:32.01	303.11	11.53	-38.2	-39.2	22.9	0.00e+00	0	30	0	707788800	50	5844
2026-01-15 03:10:33.02	303.29	11.51	-38.4	-39.4	22.8	0.00e+00	0	30	0	709885952	50	5965
2026-01-15 03:10:34.03	303.47	11.48	-38.5	-39.5	22.8	0.00e+00	0	29	0	711983104	50	6062
2026-01-15 03:10:35.04	303.65	11.46	-38.3	-39.3	22.8	0.00e+00	0	30	0	713031680	50	5930
2026-01-15 03:10:36.05	303.84	11.43	-38.4	-39.4	22.8	0.00e+00	0	30	0	715128832	50	6021
2026-01-15 03:10:37.05	304.02	11.40	-38.3	-39.2	22.9	0.00e+00	0	29	0	717225984	50	5891
2026-01-15 03:10:38.06	304.20	11.38	-38.4	-39.4	22.9	0.00e+00	0	29	0	719323136	50	6011
2026-01-15 03:10:39.07	304.38	11.35	-38.1	-39.0	23.1	0.00e+00	0	30	0	721420288	50	5730
2026-01-15 03:10:40.08	304.56	11.33	-38.1	-39.1	23.1	0.00e+00	0	30	0	722468864	50	5764
2026-01-15 03:10:41.09	304.74	11.30	-38.1	-39.1	23.0	0.00e+00	0	30	0	724566016	50	5780
2026-01-15 03:10:42.10	304.92	11.27	-38.1	-39.1	23.0	0.00e+00	0	30	0	726663168	50	5764
2026-01-15 03:10:43.11	305.10	11.24	-38.1	-39.0	23.1	0.00e+00	0	30	0	728760320	50	5742
2026-01-15 03:10:44.12	305.28	11.22	-38.1	-39.1	23.1	0.00e+00	0	30	0	730857472	50	5774
2026-01-15 03:10:45.13	305.46	11.19	-38.1	-39.0	23.1	0.00e+00	0	30	0	731906048	50	5747
2026-01-15 03:10:46.14	305.64	11.16	-38.0	-39.0	23.1	0.00e+00	0	30	0	734003200	50	5713
2026-01-15 03:10:47.15	305.82	11.13	-38.1	-39.1	23.1	0.00e+00	0	30	0	736100352	50	5766
2026-01-15 03:10:48.16	306.00	11.10	-38.1	-39.1	22.9	0.00e+00	0	29	0	738197504	50	5797
2026-01-15 03:10:49.17	306.17	11.07	-38.3	-39.3	22.8	0.00e+00	0	30	0	740294656	50	5911
2026-01-15 03:10:50.18	306.35	11.05	-38.1	-39.1	22.9	0.00e+00	0	30	0	741343232	50	5799
2026-01-15 03:10:51.18	306.53	11.02	-38.2	-39.1	23.0	0.00e+00	0	30	0	743440384	50	5807
2026-01-15 03:10:52.19	306.70	10.99	-38.1	-39.1	23.0	0.00e+00	0	29	0	745537536	50	5765
2026-01-15 03:10:53.20	306.88	10.96	-37.9	-38.8	23.2	0.00e+00	0	29	0	747634688	50	5601
2026-01-15 03:10:54.21	307.06	10.93	-37.9	-38.8	23.0	0.00e+00	0	30	0	749731840	50	5600
2026-01-15 03:10:55.22	307.23	10.90	-37.8	-38.8	23.3	0.00e+00	0	30	0	750780416	50	5584
2026-01-15 03:10:56.23	307.41	10.87	-37.9	-38.8	23.2	0.00e+00	0	30	0	752877568	50	5599
2026-01-15 03:10:57.24	307.58	10.84	-37.8	-38.8	23.2	0.00e+00	0	30	0	754974720	50	5580
2026-01-15 03:10:58.25	307.76	10.81	-38.1	-39.0	23.0	0.00e+00	0	29	0	757071872	50	5739
2026-01-15 03:10:59.26	307.93	10.78	-38.2	-39.2	22.9	0.00e+00	0	30	0	759169024	50	5866
2026-01-15 03:11:00.27	308.11	10.75	-38.3	-39.3	22.8	0.00e+00	0	30	0	760217600	50	5917
2026-01-15 03:11:01.28	308.28	10.71	-38.4	-39.3	22.8	0.00e+00	0	29	0	762314752	50	5961
2026-01-15 03:11:02.29	308.45	10.68	-38.3	-39.3	22.7	0.00e+00	0	29	0	764411904	50	5944
2026-01-15 03:11:03.30	308.62	10.65	-38.4	-39.3	22.8	0.00e+00	0	29	0	766509056	50	5955
2026-01-15 03:11:04.31	308.80	10.62	-38.4	-39.4	22.7	0.00e+00	0	30	0	768606208	50	6023
2026-01-15 03:11:05.32	308.97	10.59	-38.5	-39.5	22.5	0.00e+00	0	30	0	770703360	50	6063
2026-01-15 03:11:06.33	309.14	10.56	-38.5	-39.5	22.7	0.00e+00	0	30	0	771751936	50	6073
2026-01-15 03:11:07.34	309.31	10.52	-38.5	-39.5	22.5	0.00e+00	0	29	0	773849088	50	6068
2026-01-15 03:11:08.35	309.48	10.49	-38.6	-39.6	22.5	0.00e+00	0	30	0	775946240	50	6112
2026-01-15 03:11:09.36	309.65	10.46	-38.6	-39.6	22.5	0.00e+00	0	30	0	778043392	50	6138
2026-01-15 03:11:10.37	309.83	10.43	-38.7	-39.7	22.4	0.00e+00	0	30	0	780140544	50	6221
2026-01-15 03:11:11.38	310.00	10.39	-38.7	-39.7	22.4	0.00e+00	0	30	0	781189120	50	6231
2026-01-15 03:11:12.38	310.16	10.36	-38.9	-39.9	22.1	0.00e+00	0	29	0	783286272	50	6382
2026-01-15 03:11:13.39	310.33	10.33	-38.9	-40.0	22.1	0.00e+00	0	29	0	785383424	50	6398
2026-01-15 03:11:14.40	310.50	10.29	-39.0	-40.1	22.1	0.00e+00	0	30	0	787480576	50	6510
2026-01-15 03:11:15.41	310.67	10.26	-39.2	-40.2	21.9	0.00e+00	0	29	0	789577728	50	6597
2026-01-15 03:11:16.42	310.84	10.23	-39.3	-40.4	21.8	0.00e+00	0	30	0	790626304	50	6702
2026-01-15 03:11:17.43	311.01	10.19	-39.3	-40.4	21.7	0.00e+00	0	29	0	792723456	50	6767
2026-01-15 03:11:18.44	311.17	10.16	-39.5	-40.6	21.4	0.00e+00	0	30	0	794820608	50	6920
2026-01-15 03:11:19.45	311.34	10.12	-39.7	-40.8	21.4	0.00e+00	0	29	0	796917760	50	7047
2026-01-15 03:11:20.46	311.51	10.09	-39.8	-41.0	21.3	0.00e+00	0	29	0	799014912	52	6427
2026-01-15 03:11:21.47	311.67	10.05	-40.0	-41.2	21.0	0.00e+00	0	29	0	800063488	52	6570
2026-01-15 03:11:22.48	311.84	10.02	-40.1	-41.3	20.9	0.00e+00	0	29	0	802160640	52	6678
2026-01-15 03:11:23.49	312.00	9.98	-40.3	-41.5	20.7	0.00e+00	0	29	0	804257792	52	6823
2026-01-15 03:11:24.49	312.17	9.95	-40.2	-41.5	20.7	0.00e+00	0	29	0	806354944	52	6808
2026-01-15 03:11:25.50	312.33	9.91	-40.2	-41.4	20.8	0.00e+00	0	29	0	808452096	52	6742
2026-01-15 03:11:26.51	312.50	9.88	-40.0	-41.3	20.9	0.00e+00	0	30	0	809500672	52	6628
2026-01-15 03:11:27.52	312.66	9.84	-40.1	-41.3	20.9	0.00e+00	0	29	0	811597824	52	6679
2026-01-15 03:11:28.53	312.82	9.81	-40.0	-41.2	21.0	0.00e+00	0	29	0	813694976	52	6575
2026-01-15 03:11:29.54	312.99	9.77	-40.1	-41.4	20.8	0.00e+00	0	30	0	815792128	52	6697
2026-01-15 03:11:30.55	313.15	9.74	-40.2	-41.5	20.9	0.00e+00	0	30	0	817889280	52	6775
2026-01-15 03:11:31.56	313.31	9.70	-40.2	-41.4	20.8	0.00e+00	0	29	0	818937856	52	6748
2026-01-15 03:11:32.57	313.47	9.66	-40.3	-41.5	20.7	0.00e+00	0	30	0	821035008	52	6811
2026-01-15 03:11:33.58	313.64	9.63	-40.3	-41.5	20.6	0.00e+00	0	29	0	823132160	52	6844
2026-01-15 03:11:34.59	313.80	9.59	-40.3	-41.6	20.6	0.00e+00	0	30	0	825229312	52	6849
2026-01-15 03:11:35.60	313.96	9.55	-40.5	-41.8	20.3	0.00e+00	0	29	0	827326464	52	7054
2026-01-15 03:11:36.61	314.12	9.52	-40.7	-42.0	20.2	0.00e+00	0	29	0	828375040	52	7208
2026-01-15 03:11:37.61	314.28	9.48	-40.7	-42.0	20.1	0.00e+00	0	30	0	830472192	54	6444
2026-01-15 03:11:38.62	314.44	9.44	-40.9	-42.3	20.0	0.00e+00	0	29	0	832569344	54	6629
2026-01-15 03:11:39.63	314.59	9.41	-41.0	-42.4	19.8	0.00e+00	0	29	0	834666496	54	6712
2026-01-15 03:11:40.64	314.75	9.37	-41.4	-42.8	19.4	0.00e+00	0	29	0	836763648	54	7082
2026-01-15 03:11:41.64	314.91	9.33	-41.4	-42.8	19.6	0.00e+00	0	30	0	837812224	54	7086
2026-01-15 03:11:42.65	315.07	9.29	-41.4	-42.9	19.3	0.00e+00	0	29	0	839909376	54	7148
2026-01-15 03:11:43.66	315.23	9.26	-41.7	-43.3	18.9	0.00e+00	0	30	0	842006528	54	7479
2026-01-15 03:11:44.67	315.38	9.22	-41.9	-43.5	18.8	0.00e+00	0	29	0	844103680	56	6770
2026-01-15 03:11:45.68	315.54	9.18	-41.9	-43.6	18.8	0.00e+00	0	30	0	846200832	56	6868
2026-01-15 03:11:46.70	315.70	9.14	-41.9	-43.5	18.7	0.00e+00	0	29	0	847249408	56	6793
2026-01-15 03:11:47.70	315.85	9.10	-41.8	-43.4	18.8	0.00e+00	0	30	0	849346560	56	6733
2026-01-15 03:11:48.71	316.01	9.06	-41.8	-43.4	18.9	0.00e+00	0	30	0	851443712	56	6698
2026-01-15 03:11:49.73	316.16	9.03	-41.6	-43.2	19.1	0.00e+00	0	30	0	853540864	56	6545
2026-01-15 03:11:50.74	316.32	8.99	-41.5	-43.1	19.2	0.00e+00	0	30	0	855638016	56	6485
2026-01-15 03:11:51.74	316.47	8.95	-41.5	-43.0	19.2	0.00e+00	0	30	0	856686592	56	6430
2026-01-15 03:11:52.75	316.63	8.91	-41.4	-42.8	19.4	0.00e+00	0	30	0	858783744	56	6315
2026-01-15 03:11:53.77	316.78	8.87	-41.3	-42.8	19.4	0.00e+00	0	30	0	860880896	56	6279
2026-01-15 03:11:54.77	316.93	8.83	-41.3	-42.8	19.4	0.00e+00	0	30	0	862978048	56	6290
2026-01-15 03:11:55.78	317.09	8.79	-41.4	-42.9	19.4	0.00e+00	0	30	0	865075200	56	6328
2026-01-15 03:11:56.79	317.24	8.75	-41.2	-42.6	19.5	0.00e+00	0	30	0	867172352	56	6154
2026-01-15 03:11:57.80	317.39	8.71	-41.2	-42.6	19.6	0.00e+00	0	30	0	868220928	56	6167
2026-01-15 03:11:58.81	317.54	8.67	-41.2	-42.6	19.5	0.00e+00	0	29	0	870318080	56	6170
2026-01-15 03:11:59.82	317.69	8.63	-41.3	-42.8	19.4	0.00e+00	0	30	0	872415232	56	6271
2026-01-15 03:12:00.83	317.84	8.59	-41.4	-42.9	19.3	0.00e+00	0	30	0	874512384	56	6366
2026-01-15 03:12:01.84	317.99	8.55	-41.4	-42.9	19.3	0.00e+00	0	29	0	876609536	56	6351
2026-01-15 03:12:02.84	318.14	8.51	-41.6	-43.1	19.0	0.00e+00	0	30	0	877658112	56	6523
2026-01-15 03:12:03.85	318.29	8.47	-41.8	-43.4	18.9	0.00e+00	0	30	0	879755264	56	6721
2026-01-15 03:12:04.86	318.44	8.43	-41.6	-43.2	19.0	0.00e+00	0	29	0	881852416	56	6590
2026-01-15 03:12:05.87	318.59	8.39	-41.7	-43.3	18.9	0.00e+00	0	30	0	883949568	56	6675
2026-01-15 03:12:06.88	318.74	8.35	-41.7	-43.3	19.0	0.00e+00	0	30	0	886046720	56	6626
2026-01-15 03:12:07.89	318.89	8.31	-41.7	-43.3	18.8	0.00e+00	0	30	0	887095296	56	6625
2026-01-15 03:12:08.90	319.03	8.27	-41.5	-43.0	19.1	0.00e+00	0	30	0	889192448	56	6435
2026-01-15 03:12:09.91	319.18	8.23	-41.4	-42.9	19.2	0.00e+00	0	30	0	891289600	56	6360
2026-01-15 03:12:10.92	319.33	8.19	-41.2	-42.7	19.4	0.00e+00	0	30	0	893386752	56	6229
2026-01-15 03:12:11.93	319.48	8.15	-41.0	-42.5	19.7	0.00e+00	0	29	0	895483904	56	6042
2026-01-15 03:12:12.94	319.62	8.11	-40.9	-42.3	19.8	0.00e+00	0	30	0	896532480	56	5923
2026-01-15 03:12:13.95	319.77	8.07	-40.9	-42.3	19.8	0.00e+00	0	30	0	898629632	56	5957
2026-01-15 03:12:14.96	319.91	8.03	-41.0	-42.4	19.7	0.00e+00	0	30	0	900726784	56	6003
2026-01-15 03:12:15.96	320.06	7.99	-41.1	-42.5	19.6	0.00e+00	0	30	0	902823936	56	6087
2026-01-15 03:12:16.97	320.20	7.94	-41.1	-42.5	19.6	0.00e+00	0	30	0	904921088	56	6080
2026-01-15 03:12:17.98	320.34	7.90	-41.3	-42.8	19.3	0.00e+00	0	29	0	905969664	56	6270
2026-01-15 03:12:18.99	320.49	7.86	-41.4	-42.9	19.2	0.00e+00	0	30	0	908066816	56	6368
2026-01-15 03:12:20.00	320.63	7.82	-41.4	-42.9	19.2	0.00e+00	0	30	0	910163968	56	6343
2026-01-15 03:12:21.01	320.77	7.78	-41.4	-42.9	19.2	0.00e+00	0	30	0	912261120	56	6327
2026-01-15 03:12:22.02	320.92	7.74	-41.3	-42.8	19.4	0.00e+00	0	30	0	914358272	56	6251
2026-01-15 03:12:23.03	321.06	7.69	-41.0	-42.5	19.6	0.00e+00	0	30	0	915406848	56	6037
2026-01-15 03:12:24.04	321.20	7.65	-40.8	-42.2	19.8	0.00e+00	0	30	0	917504000	56	5844
2026-01-15 03:12:25.05	321.34	7.61	-40.8	-42.2	19.9	0.00e+00	0	29	0	919601152	56	5831
2026-01-15 03:12:26.06	321.48	7.57	-40.3	-41.6	20.4	0.00e+00	0	30	0	921698304	54	6118
2026-01-15 03:12:27.06	321.62	7.53	-40.2	-41.5	20.4	0.00e+00	0	30	0	923795456	54	6060
2026-01-15 03:12:28.07	321.76	7.49	-40.3	-41.6	20.4	0.00e+00	0	30	0	924844032	54	6144
2026-01-15 03:12:29.08	321.90	7.44	-40.2	-41.5	20.4	0.00e+00	0	30	0	926941184	54	6097
2026-01-15 03:12:30.09	322.04	7.40	-40.2	-41.5	20.3	0.00e+00	0	30	0	929038336	54	6065
2026-01-15 03:12:31.09	322.18	7.36	-40.3	-41.6	20.3	0.00e+00	0	30	0	931135488	54	6164
2026-01-15 03:12:32.10	322.32	7.32	-40.5	-41.8	20.2	0.00e+00	0	29	0	933232640	54	6315
2026-01-15 03:12:33.11	322.46	7.27	-40.6	-41.9	19.9	0.00e+00	0	30	0	934281216	54	6383
2026-01-15 03:12:34.12	322.59	7.23	-40.7	-42.0	19.9	0.00e+00	0	30	0	936378368	54	6449
2026-01-15 03:12:35.13	322.73	7.19	-40.8	-42.2	19.8	0.00e+00	0	30	0	938475520	54	6561
2026-01-15 03:12:36.14	322.87	7.15	-40.7	-42.1	20.0	0.00e+00	0	30	0	940572672	54	6507
2026-01-15 03:12:37.15	323.00	7.10	-40.6	-42.0	19.8	0.00e+00	0	30	0	942669824	54	6427
2026-01-15 03:12:38.16	323.14	7.06	-40.8	-42.2	20.0	0.00e+00	0	30	0	943718400	54	6610
2026-01-15 03:12:39.17	323.28	7.02	-40.7	-42.1	19.7	0.00e+00	0	30	0	945815552	54	6529
2026-01-15 03:12:40.18	323.41	6.97	-40.8	-42.2	19.9	0.00e+00	0	30	0	947912704	54	6560
2026-01-15 03:12:41.18	323.55	6.93	-40.9	-42.4	19.4	0.00e+00	0	30	0	950009856	54	6725
2026-01-15 03:12:42.19	323.68	6.89	-40.8	-42.2	19.8	0.00e+00	0	29	0	952107008	54	6554
2026-01-15 03:12:43.20	323.81	6.84	-40.8	-42.2	19.7	0.00e+00	0	29	0	953155584	54	6584
2026-01-15 03:12:44.21	323.95	6.80	-40.8	-42.2	19.8	0.00e+00	0	30	0	955252736	54	6568
2026-01-15 03:12:45.22	324.08	6.76	-40.9	-42.3	19.6	0.00e+00	0	30	0	957349888	54	6637
2026-01-15 03:12:46.23	324.22	6.72	-40.8	-42.2	19.8	0.00e+00	0	29	0	959447040	54	6588
2026-01-15 03:12:47.24	324.35	6.67	-40.7	-42.1	19.8	0.00e+00	0	30	0	961544192	54	6484
2026-01-15 03:12:48.25	324.48	6.63	-40.5	-41.8	20.1	0.00e+00	0	30	0	963641344	54	6292
2026-01-15 03:12:49.26	324.61	6.58	-40.1	-41.4	20.4	0.00e+00	0	29	0	964689920	54	6026
2026-01-15 03:12:50.26	324.74	6.54	-40.0	-41.3	20.5	0.00e+00	0	29	0	966787072	54	5928
2026-01-15 03:12:51.27	324.87	6.50	-40.1	-41.4	20.4	0.00e+00	0	30	0	968884224	54	5984
2026-01-15 03:12:52.28	325.01	6.45	-40.0	-41.2	20.5	0.00e+00	0	30	0	970981376	54	5888
2026-01-15 03:12:53.29	325.14	6.41	-40.0	-41.2	20.8	0.00e+00	0	30	0	973078528	54	5874
2026-01-15 03:12:54.30	325.27	6.37	-40.0	-41.2	20.7	0.00e+00	0	30	0	974127104	52	6577
2026-01-15 03:12:55.31	325.40	6.32	-39.9	-41.1	20.5	0.00e+00	0	30	0	976224256	52	6523
2026-01-15 03:12:56.32	325.53	6.28	-40.0	-41.3	20.5	0.00e+00	0	30	0	978321408	52	6627
2026-01-15 03:12:57.33	325.65	6.24	-39.8	-41.5	19.4	5.13e-03	0	29	0	980418560	52	6824
2026-01-15 03:12:58.34	325.78	6.19	-39.6	-41.2	19.5	7.36e-03	0	30	0	982515712	52	6614
2026-01-15 03:12:59.35	325.91	6.15	-39.8	-41.7	19.3	6.67e-03	0	30	0	983564288	52	6931
2026-01-15 03:13:00.36	326.04	6.10	-39.7	-41.4	19.4	4.10e-03	0	29	0	985661440	52	6737
2026-01-15 03:13:01.37	326.17	6.06	-39.8	-41.8	19.0	7.96e-03	0	30	0	987758592	52	7037
2026-01-15 03:13:02.38	326.29	6.02	-39.7	-41.8	19.0	8.14e-03	0	30	0	989855744	52	7056
2026-01-15 03:13:03.39	326.42	5.97	-39.8	-41.7	18.9	6.96e-03	0	30	0	991952896	52	6934
2026-01-15 03:13:04.40	326.55	5.93	-39.9	-41.8	19.5	5.57e-03	0	30	0	993001472	52	7077
2026-01-15 03:13:05.40	326.67	5.88	-39.6	-41.7	19.1	4.89e-03	0	30	0	995098624	52	6976
2026-01-15 03:13:06.41	326.80	5.84	-39.6	-41.6	19.3	7.55e-03	0	30	0	997195776	52	6853
2026-01-15 03:13:07.42	326.92	5.79	-39.3	-41.0	19.6	6.97e-03	0	30	0	999292928	52	6447
2026-01-15 03:13:08.43	327.05	5.75	-39.4	-41.1	19.4	7.81e-03	0	30	0	1001390080	52	6523
2026-01-15 03:13:09.44	327.17	5.71	-39.2	-41.0	19.4	7.83e-03	0	29	0	1002438656	52	6453
2026-01-15 03:13:10.45	327.30	5.66	-39.3	-41.2	19.0	8.56e-03	0	30	0	1004535808	52	6600
2026-01-15 03:13:11.46	327.42	5.62	-39.3	-41.5	18.6	9.84e-03	0	30	0	1006632960	52	6797
2026-01-15 03:13:12.47	327.54	5.57	-39.3	-41.7	18.7	2.05e-03	0	30	0	1008730112	52	6965
2026-01-15 03:13:13.48	327.67	5.53	-40.2	-41.6	20.1	1.21e-03	0	30	0	1010827264	52	6868
2026-01-15 03:13:14.49	327.79	5.48	-40.3	-41.7	20.1	0.00e+00	0	30	0	1011875840	52	6935
2026-01-15 03:13:15.50	327.91	5.44	-40.4	-41.7	20.0	0.00e+00	0	29	0	1013972992	52	7007
2026-01-15 03:13:16.51	328.03	5.39	-40.3	-41.6	20.1	0.00e+00	0	30	0	1016070144	52	6900
2026-01-15 03:13:17.52	328.16	5.35	-40.2	-41.5	20.2	0.00e+00	0	30	0	1018167296	52	6846
2026-01-15 03:13:18.53	328.28	5.31	-39.9	-41.2	20.5	0.00e+00	0	29	0	1020264448	52	6564
2026-01-15 03:13:19.54	328.40	5.26	-39.8	-41.1	20.6	0.00e+00	0	30	0	1021313024	52	6469
2026-01-15 03:13:20.55	328.52	5.22	-39.8	-41.0	20.6	0.00e+00	0	30	0	1023410176	52	6456
2026-01-15 03:13:21.56	328.64	5.17	-39.6	-40.9	20.7	0.00e+00	0	29	0	1025507328	52	6337
2026-01-15 03:13:22.57	328.76	5.13	-39.6	-40.8	20.7	0.00e+00	0	30	0	1027604480	52	6285
2026-01-15 03:13:23.57	328.88	5.08	-39.7	-40.9	20.7	0.00e+00	0	30	0	1029701632	52	6355
2026-01-15 03:13:24.58	329.00	5.04	-39.4	-40.6	20.9	0.00e+00	0	30	0	1031798784	52	6156
2026-01-15 03:13:25.59	329.12	4.99	-39.8	-41.0	20.6	0.00e+00	0	30	0	1032847360	52	6443
2026-01-15 03:13:26.60	329.23	4.95	-39.8	-41.1	20.4	0.00e+00	0	30	0	1034944512	52	6517
2026-01-15 03:13:27.61	329.35	4.90	-37.0	-41.0	17.2	2.92e-02	0	30	0	1037041664	48	8138
2026-01-15 03:13:28.62	329.47	4.86	-37.4	-41.1	17.3	2.48e-02	0	29	0	1039138816	48	8183
2026-01-15 03:13:29.62	329.59	4.81	-37.8	-41.3	17.6	1.91e-02	0	29	0	1041235968	48	8363
2026-01-15 03:13:30.63	329.70	4.77	-38.0	-41.4	18.0	1.77e-02	0	30	0	1042284544	48	8460
2026-01-15 03:13:31.65	329.82	4.72	-37.2	-41.4	16.8	2.42e-02	0	30	0	1044381696	48	8508
2026-01-15 03:13:32.65	329.94	4.68	-38.1	-41.6	17.1	3.06e-02	0	30	0	1046478848	48	8623
2026-01-15 03:13:33.66	330.05	4.63	-37.7	-41.5	17.4	2.26e-02	0	29	0	1048576000	48	8523
2026-01-15 03:13:34.67	330.17	4.59	-37.2	-41.3	17.6	2.16e-02	0	30	0	1050673152	48	8418
2026-01-15 03:13:35.68	330.29	4.54	-37.3	-41.1	17.3	1.98e-02	0	30	0	1051721728	48	8176
2026-01-15 03:13:36.69	330.40	4.50	-37.9	-40.7	18.6	2.14e-02	0	30	0	1053818880	48	7835
2026-01-15 03:13:37.70	330.52	4.45	-37.5	-41.0	18.1	1.35e-02	0	30	0	1055916032	48	8133
2026-01-15 03:13:38.71	330.63	4.41	-37.7	-41.5	17.0	2.24e-02	0	30	0	1058013184	48	8585
2026-01-15 03:13:39.72	330.74	4.36	-38.6	-41.4	18.0	1.87e-02	0	29	0	1060110336	48	8483
2026-01-15 03:13:40.73	330.86	4.32	-38.1	-41.2	17.7	1.40e-02	0	30	0	1061158912	50	7422
2026-01-15 03:13:41.74	330.97	4.27	-38.2	-41.3	17.6	2.50e-02	0	30	0	1063256064	50	7501
2026-01-15 03:13:42.75	331.08	4.23	-37.9	-41.4	17.3	2.79e-02	0	30	0	1065353216	48	8446
2026-01-15 03:13:43.76	331.20	4.18	-37.6	-41.7	16.4	3.66e-02	0	30	0	1067450368	48	8817
2026-01-15 03:13:44.77	331.31	4.14	-37.3	-42.3	16.0	3.68e-02	0	30	0	1069547520	48	9387
2026-01-15 03:13:45.78	331.42	4.09	-36.9	-42.6	15.6	3.64e-02	0	30	0	1070596096	48	9748
2026-01-15 03:13:46.79	331.53	4.05	-36.1	-42.8	15.3	4.47e-02	0	30	0	1072693248	46	11164
2026-01-15 03:13:47.80	331.64	4.00	-41.6	-43.7	16.6	8.50e-03	0	30	0	1074790400	56	6995
2026-01-15 03:13:48.80	331.75	3.96	-41.9	-44.3	16.2	0.00e+00	0	30	0	1076887552	56	7436
2026-01-15 03:13:49.81	331.87	3.91	-42.3	-45.0	14.9	0.00e+00	0	30	0	1078984704	56	8101
2026-01-15 03:13:50.82	331.98	3.87	-42.7	-46.1	13.5	1.50e-06	0	30	0	1080033280	58	8181
2026-01-15 03:13:51.83	332.09	3.82	-42.8	-46.5	12.6	1.29e-05	0	30	0	1082130432	58	8617
2026-01-15 03:13:52.84	332.20	3.78	-43.1	-47.7	11.0	6.52e-04	0	30	0	1084227584	58	9844
2026-01-15 03:13:53.85	332.31	3.73	-43.5	-49.5	8.6	9.83e-03	0	30	0	1086324736	58	12070
2026-01-15 03:13:54.86	332.41	3.69	-43.5	-50.2	7.5	5.83e-02	0	30	0	1088421888	58	13066
2026-01-15 03:13:55.87	332.52	3.64	-43.6	-51.2	5.9	2.06e-01	0	30	0	1089470464	58	14699
2026-01-15 03:13:56.88	332.63	3.60	-43.7	-53.3	4.1	7.45e-01	5	30	0	1091567616	58	18851
2026-01-15 03:13:57.89	332.74	3.55	-43.7	-54.0	3.8	1.24e+00	0	30	0	1093664768	58	20237
2026-01-15 03:13:58.90	332.85	3.50	-43.7	-56.4	3.7	1.50e+00	0	30	104	1093664768	58	26891
2026-01-15 03:13:59.90	332.95	3.46	-43.7	-57.5	3.5	1.51e+00	0	30	104	1093664768	58	30271
2026-01-15 03:14:00.91	333.06	3.41	-43.7	-57.9	3.6	1.51e+00	0	30	104	1093664768	58	31671
2026-01-15 03:14:01.92	333.17	3.37	-43.7	-58.1	3.6	1.51e+00	0	30	104	1093664768	58	32763
2026-01-15 03:14:02.93	333.28	3.32	-43.7	-58.4	3.6	1.51e+00	0	30	104	1093664768	58	33590
2026-01-15 03:14:03.94	333.38	3.28	-43.6	-58.6	3.6	1.51e+00	0	30	104	1093664768	58	34597
2026-01-15 03:14:04.95	333.49	3.23	-43.7	-58.7	3.6	1.51e+00	0	30	104	1093664768	58	35061
2026-01-15 03:14:05.96	333.59	3.19	-43.7	-58.7	3.6	1.51e+00	0	30	104	1093664768	58	34871
2026-01-15 03:14:06.97	333.70	3.14	-43.7	-58.8	3.6	1.51e+00	0	30	104	1093664768	58	35198
2026-01-15 03:14:07.98	333.80	3.10	-43.7	-58.7	3.6	1.51e+00	0	30	104	1093664768	58	34812
2026-01-15 03:14:08.99	333.91	3.05	-43.7	-58.8	3.6	1.51e+00	0	30	104	1093664768	58	35297
2026-01-15 03:14:09.99	334.01	3.01	-43.7	-58.8	3.6	1.51e+00	0	30	104	1093664768	58	35131
2026-01-15 03:14:11.00	334.12	2.96	-44.2	-59.0	3.6	1.51e+00	0	30	104	1093664768	58	36108
2026-01-15 03:14:12.00	334.22	2.92	-47.9	-63.0	3.6	1.51e+00	0	30	104	1093664768	60	50890
2026-01-15 03:14:13.01	334.32	2.87	-48.3	-63.5	3.6	1.51e+00	0	30	104	1093664768	60	54151
2026-01-15 03:14:14.02	334.43	2.83	-48.6	-63.7	3.6	1.51e+00	0	30	104	1093664768	60	55298
2026-01-15 03:14:15.04	334.53	2.78	-48.7	-63.8	3.6	1.51e+00	0	30	104	1093664768	60	56303
2026-01-15 03:14:16.04	334.63	2.74	-48.8	-63.9	3.6	1.51e+00	0	30	104	1093664768	60	56716
2026-01-15 03:14:17.05	334.73	2.69	-48.8	-64.0	3.6	1.51e+00	0	30	104	1093664768	60	57455
2026-01-15 03:14:18.06	334.84	2.65	-48.9	-64.1	3.6	1.51e+00	0	30	104	1093664768	60	57821
2026-01-15 03:14:19.07	334.94	2.60	-48.8	-64.1	3.6	1.51e+00	0	30	104	1093664768	60	57906
2026-01-15 03:14:20.08	335.04	2.55	-48.8	-64.1	3.6	1.51e+00	0	30	104	1093664768	60	58276
2026-01-15 03:14:21.08	335.14	2.51	-48.1	-64.0	3.6	1.51e+00	0	30	104	1093664768	60	57414
2026-01-15 03:14:22.09	335.24	2.46	-48.8	-64.2	3.6	1.51e+00	0	30	104	1093664768	60	58382
2026-01-15 03:14:23.10	335.34	2.42	-48.8	-64.0	3.6	1.51e+00	0	30	104	1093664768	60	57263
2026-01-15 03:14:24.11	335.44	2.37	-48.7	-63.9	3.6	1.51e+00	0	30	104	1093664768	60	56955
2026-01-15 03:14:25.12	335.54	2.33	-48.8	-64.0	3.6	1.51e+00	0	30	104	1093664768	60	57075
2026-01-15 03:14:26.12	335.64	2.28	-48.8	-64.0	3.6	1.51e+00	0	30	104	1093664768	60	57183
2026-01-15 03:14:27.13	335.74	2.24	-49.0	-64.1	3.6	1.51e+00	0	30	104	1093664768	60	58134
2026-01-15 03:14:28.14	335.84	2.19	-48.9	-64.1	3.6	1.51e+00	0	30	104	1093664768	60	57686
2026-01-15 03:14:29.14	335.94	2.15	-48.9	-64.0	3.6	1.51e+00	0	30	104	1093664768	60	57470
2026-01-15 03:14:30.15	336.04	2.10	-48.9	-64.1	3.6	1.51e+00	0	30	104	1093664768	60	57764
2026-01-15 03:14:31.16	336.13	2.06	-48.9	-64.0	3.6	1.51e+00	0	30	104	1093664768	60	57452
