passes_logs/2026/01/15/R4.6S_Anadyr/R4.6S_Anadyr__20260115_205235_NOAA_21_JPSS-2_rec.log

#Pass ID: 20260115_205235_NOAA 21 (JPSS-2)
#Satellite: NOAA 21 (JPSS-2)
#Configuration: NOAA-21
#almurnet v.1.7.20251203
#Start time: 2026-01-15 20:52:36

#Version: 2.2.20231116
#Station: R4.6S_Anadyr
#Location: 177.4865 lon 64.73178 lat
#TLE: 1 54234U 22150A   26014.58979933  .00000039  00000+0  39403-4 0  9998
#TLE: 2 54234  98.7497 315.4945 0000653 294.6373  65.4735 14.19534652164756

#Time	Az	El	Level	Level2	SNR	BER	BlckErr	Temp	State	Recorded	gain1	gain2
2026-01-15 20:52:36.24	78.70	0.05	-48.3	-66.0	3.5	3.02e+01	0	25	0	0	60	77086
2026-01-15 20:52:37.24	78.63	0.10	-48.3	-61.2	3.5	1.52e+00	0	26	104	0	60	40487
2026-01-15 20:52:38.26	78.56	0.16	-47.9	-61.0	3.5	1.52e+00	0	26	104	0	60	39228
2026-01-15 20:52:39.27	78.49	0.21	-48.1	-60.9	3.5	1.52e+00	0	26	104	0	60	39054
2026-01-15 20:52:40.28	78.42	0.26	-48.1	-61.0	3.5	1.52e+00	0	26	104	0	60	39176
2026-01-15 20:52:41.29	78.35	0.31	-48.1	-60.9	3.5	1.52e+00	0	26	104	0	60	39099
2026-01-15 20:52:42.30	78.28	0.36	-48.1	-61.0	3.5	1.52e+00	0	26	104	0	60	39335
2026-01-15 20:52:43.31	78.21	0.41	-48.2	-61.0	3.5	1.52e+00	0	26	104	0	60	39585
2026-01-15 20:52:44.32	78.14	0.47	-48.1	-61.1	3.5	1.52e+00	0	26	104	0	60	39715
2026-01-15 20:52:45.33	78.07	0.52	-48.0	-61.0	3.5	1.52e+00	0	26	104	0	60	39298
2026-01-15 20:52:46.34	78.00	0.57	-48.1	-61.0	3.5	1.52e+00	0	26	104	0	60	39333
2026-01-15 20:52:47.35	77.93	0.62	-48.1	-60.9	3.5	1.52e+00	0	26	104	0	60	39022
2026-01-15 20:52:48.36	77.86	0.67	-48.0	-60.9	3.5	1.52e+00	0	26	104	0	60	38767
2026-01-15 20:52:49.37	77.79	0.73	-47.8	-60.7	3.5	1.52e+00	0	26	104	0	60	38186
2026-01-15 20:52:50.38	77.72	0.78	-46.6	-60.6	3.5	1.52e+00	0	26	104	0	60	37792
2026-01-15 20:52:51.39	77.64	0.83	-47.4	-60.4	3.5	1.52e+00	0	26	104	0	60	36613
2026-01-15 20:52:52.40	77.57	0.88	-47.1	-59.9	3.5	1.52e+00	0	26	104	0	60	34860
2026-01-15 20:52:53.41	77.50	0.93	-46.7	-59.4	3.5	1.52e+00	0	26	104	0	60	32825
2026-01-15 20:52:54.42	77.43	0.99	-45.6	-59.1	3.5	1.52e+00	0	26	104	0	60	31502
2026-01-15 20:52:55.43	77.35	1.04	-45.5	-59.0	3.5	1.52e+00	0	26	104	0	60	31453
2026-01-15 20:52:56.44	77.28	1.09	-45.5	-59.1	3.5	1.52e+00	0	26	104	0	60	31535
2026-01-15 20:52:57.45	77.20	1.14	-45.5	-59.0	3.5	1.52e+00	0	26	104	0	60	31395
2026-01-15 20:52:58.46	77.13	1.19	-45.5	-59.1	3.5	1.52e+00	0	27	104	0	60	31480
2026-01-15 20:52:59.47	77.06	1.25	-45.5	-59.1	3.5	1.52e+00	0	26	104	0	60	31599
2026-01-15 20:53:00.48	76.98	1.30	-45.5	-59.0	3.5	1.51e+00	0	26	104	0	60	31296
2026-01-15 20:53:01.49	76.91	1.35	-45.5	-58.8	3.5	1.52e+00	0	26	104	0	60	30606
2026-01-15 20:53:02.50	76.83	1.41	-45.5	-59.0	3.5	1.52e+00	0	26	104	0	60	31299
2026-01-15 20:53:03.51	76.76	1.46	-45.5	-59.0	3.5	1.52e+00	0	27	104	0	60	31140
2026-01-15 20:53:04.52	76.68	1.51	-45.5	-59.0	3.5	1.52e+00	0	27	104	0	60	31159
2026-01-15 20:53:05.53	76.60	1.56	-45.5	-59.0	3.5	1.52e+00	0	26	104	0	60	31131
2026-01-15 20:53:06.54	76.53	1.62	-45.5	-59.0	3.5	1.52e+00	0	27	104	0	60	31131
2026-01-15 20:53:07.55	76.45	1.67	-45.5	-58.9	3.5	1.52e+00	0	27	104	0	60	30847
2026-01-15 20:53:08.56	76.37	1.72	-45.5	-58.8	3.5	1.52e+00	0	26	104	0	60	30705
2026-01-15 20:53:09.57	76.30	1.77	-45.5	-58.6	3.5	1.52e+00	0	27	104	0	60	29814
2026-01-15 20:53:10.58	76.22	1.83	-45.4	-58.7	3.5	1.52e+00	0	27	104	0	60	30117
2026-01-15 20:53:11.59	76.14	1.88	-45.4	-58.3	3.5	1.52e+00	0	27	104	0	60	28985
2026-01-15 20:53:12.60	76.06	1.93	-45.4	-58.1	3.5	1.51e+00	0	27	104	0	60	28096
2026-01-15 20:53:13.61	75.99	1.99	-45.4	-58.1	3.5	1.52e+00	0	27	104	0	60	28168
2026-01-15 20:53:14.62	75.91	2.04	-45.4	-58.2	3.5	1.51e+00	0	27	104	0	60	28523
2026-01-15 20:53:15.63	75.83	2.09	-45.4	-58.4	3.5	1.52e+00	0	27	104	0	60	29294
2026-01-15 20:53:16.64	75.75	2.15	-45.4	-58.8	3.5	1.52e+00	0	27	104	0	60	30676
2026-01-15 20:53:17.65	75.67	2.20	-45.4	-59.0	3.5	1.52e+00	0	27	104	0	60	31117
2026-01-15 20:53:18.66	75.59	2.25	-45.4	-58.9	3.5	1.52e+00	0	27	104	0	60	31080
2026-01-15 20:53:19.67	75.51	2.31	-45.4	-58.9	3.5	1.51e+00	0	27	104	0	60	30867
2026-01-15 20:53:20.68	75.43	2.36	-45.4	-58.9	3.5	1.52e+00	0	27	104	0	60	30749
2026-01-15 20:53:21.69	75.35	2.41	-45.4	-58.9	3.5	1.52e+00	0	27	104	0	60	31075
2026-01-15 20:53:22.70	75.27	2.47	-45.4	-58.7	3.5	1.52e+00	0	27	104	0	60	30194
2026-01-15 20:53:23.71	75.19	2.52	-45.3	-57.9	3.5	1.52e+00	0	27	104	0	60	27719
2026-01-15 20:53:24.71	75.11	2.57	-45.2	-57.0	3.6	1.50e+00	0	27	104	0	60	24962
2026-01-15 20:53:25.72	75.02	2.63	-45.2	-56.6	3.8	1.49e+00	0	27	104	0	60	23693
2026-01-15 20:53:26.74	74.94	2.68	-45.2	-56.9	3.5	1.50e+00	0	27	104	0	60	24434
2026-01-15 20:53:27.74	74.86	2.74	-45.3	-57.8	3.5	1.51e+00	0	27	104	0	60	27352
2026-01-15 20:53:28.75	74.78	2.79	-45.3	-58.2	3.5	1.52e+00	0	27	104	0	60	28395
2026-01-15 20:53:29.76	74.69	2.84	-45.2	-56.6	3.5	1.51e+00	0	27	104	0	60	23608
2026-01-15 20:53:30.77	74.61	2.90	-44.8	-53.9	5.0	8.29e-01	122	27	104	0	60	17297
2026-01-15 20:53:31.78	74.53	2.95	-44.5	-51.9	6.6	4.08e-01	120	27	104	0	60	13813
2026-01-15 20:53:32.79	74.44	3.01	-44.2	-50.2	7.3	9.88e-02	123	27	0	1048576	60	11308
2026-01-15 20:53:33.80	74.36	3.06	-44.0	-49.4	8.0	8.35e-02	123	27	0	5242880	60	10370
2026-01-15 20:53:34.81	74.27	3.11	-45.8	-53.5	3.6	0.00e+00	57	27	104	7340032	60	16654
2026-01-15 20:53:35.82	74.19	3.17	-38.5	-40.3	18.7	2.86e-03	122	27	104	7340032	52	5727
2026-01-15 20:53:36.83	74.10	3.22	-45.7	-58.0	3.5	8.27e-01	0	27	104	9437184	60	27730
2026-01-15 20:53:37.84	74.02	3.28	-43.6	-47.6	10.7	1.43e+00	16	27	104	9437184	60	8417
2026-01-15 20:53:38.85	73.93	3.33	-38.7	-40.1	17.6	0.00e+00	123	27	0	9437184	48	7125
2026-01-15 20:53:39.86	73.84	3.38	-38.1	-39.5	18.7	0.00e+00	120	27	0	13631488	50	5883
2026-01-15 20:53:40.86	73.76	3.44	-37.9	-39.2	19.1	0.00e+00	122	27	0	16777216	50	5713
2026-01-15 20:53:41.87	73.67	3.49	-37.7	-39.1	19.1	0.00e+00	122	27	0	19922944	48	6281
2026-01-15 20:53:42.88	73.58	3.55	-37.6	-38.9	19.5	0.00e+00	120	27	0	23068672	48	6197
2026-01-15 20:53:43.89	73.50	3.60	-37.4	-38.7	19.7	0.00e+00	123	27	0	26214400	48	5997
2026-01-15 20:53:44.90	73.41	3.66	-37.8	-39.2	19.1	0.00e+00	123	27	0	29360128	48	6365
2026-01-15 20:53:45.91	73.32	3.71	-36.9	-38.2	20.1	0.00e+00	120	27	0	32505856	48	5672
2026-01-15 20:53:46.92	73.23	3.77	-37.1	-38.4	19.9	0.00e+00	123	27	0	35651584	48	5793
2026-01-15 20:53:47.93	73.14	3.82	-36.8	-38.0	20.2	0.00e+00	120	27	0	38797312	48	5575
2026-01-15 20:53:48.94	73.05	3.88	-37.1	-38.4	19.9	0.00e+00	122	27	0	41943040	46	6511
2026-01-15 20:53:49.95	72.96	3.93	-37.2	-38.4	19.9	0.00e+00	123	27	0	45088768	46	6573
2026-01-15 20:53:50.96	72.87	3.99	-36.9	-38.1	20.2	0.00e+00	120	27	0	48234496	46	6322
2026-01-15 20:53:51.97	72.78	4.04	-36.8	-38.0	20.3	0.00e+00	123	27	0	51380224	46	6244
2026-01-15 20:53:52.98	72.69	4.10	-36.8	-38.0	20.3	0.00e+00	118	27	0	54525952	46	6254
2026-01-15 20:53:53.99	72.60	4.15	-37.0	-38.2	20.1	0.00e+00	123	27	0	57671680	46	6384
2026-01-15 20:53:55.00	72.51	4.21	-37.1	-38.3	20.1	0.00e+00	122	27	0	60817408	46	6492
2026-01-15 20:53:56.01	72.42	4.26	-37.5	-38.8	19.8	0.00e+00	123	27	0	63963136	46	6806
2026-01-15 20:53:57.02	72.32	4.32	-37.6	-38.9	19.7	0.00e+00	123	27	0	67108864	46	6884
2026-01-15 20:53:58.03	72.23	4.37	-37.5	-38.7	19.7	0.00e+00	122	27	0	70254592	46	6802
2026-01-15 20:53:59.04	72.14	4.43	-37.3	-38.5	19.9	0.00e+00	123	27	0	73400320	46	6639
2026-01-15 20:54:00.05	72.05	4.48	-37.5	-38.8	19.6	0.00e+00	123	27	0	76546048	46	6867
2026-01-15 20:54:01.06	71.95	4.54	-36.9	-38.1	20.2	0.00e+00	122	27	0	79691776	46	6290
2026-01-15 20:54:02.07	71.86	4.59	-37.2	-38.4	20.1	0.00e+00	122	27	0	82837504	46	6555
2026-01-15 20:54:03.08	71.76	4.65	-37.2	-38.4	20.1	0.00e+00	122	27	0	85983232	46	6571
2026-01-15 20:54:04.09	71.67	4.70	-37.2	-38.4	20.1	0.00e+00	122	27	0	89128960	46	6522
2026-01-15 20:54:05.10	71.57	4.76	-37.2	-38.4	20.1	0.00e+00	123	27	0	92274688	46	6545
2026-01-15 20:54:06.11	71.48	4.81	-37.3	-38.5	19.9	0.00e+00	122	27	0	95420416	46	6630
2026-01-15 20:54:07.12	71.38	4.87	-37.1	-38.3	20.1	0.00e+00	123	27	0	98566144	46	6494
2026-01-15 20:54:08.13	71.29	4.92	-37.0	-38.2	20.3	0.00e+00	122	27	0	101711872	46	6419
2026-01-15 20:54:09.14	71.19	4.98	-37.3	-38.5	20.0	0.00e+00	123	27	0	104857600	46	6605
2026-01-15 20:54:10.15	71.09	5.04	-37.1	-38.3	20.2	0.00e+00	120	27	0	108003328	46	6447
2026-01-15 20:54:11.16	70.99	5.09	-37.2	-38.5	20.2	0.00e+00	122	27	0	111149056	46	6574
2026-01-15 20:54:12.17	70.90	5.15	-37.0	-38.2	20.3	0.00e+00	120	27	0	114294784	46	6375
2026-01-15 20:54:13.18	70.80	5.20	-37.0	-38.2	20.3	0.00e+00	122	27	0	117440512	46	6389
2026-01-15 20:54:14.20	70.70	5.26	-37.2	-38.4	20.3	0.00e+00	123	27	0	120586240	46	6527
2026-01-15 20:54:15.21	70.60	5.32	-37.0	-38.1	20.3	0.00e+00	122	27	0	123731968	46	6350
2026-01-15 20:54:16.22	70.50	5.37	-37.0	-38.2	20.4	0.00e+00	123	27	0	126877696	46	6384
2026-01-15 20:54:17.23	70.40	5.43	-36.9	-38.1	20.5	0.00e+00	123	27	0	130023424	46	6291
2026-01-15 20:54:18.24	70.30	5.48	-36.9	-38.1	20.4	0.00e+00	122	27	0	133169152	46	6321
2026-01-15 20:54:19.25	70.20	5.54	-36.9	-38.0	20.6	0.00e+00	122	27	0	136314880	46	6271
2026-01-15 20:54:20.26	70.10	5.60	-36.9	-38.1	20.5	0.00e+00	122	27	0	139460608	46	6325
2026-01-15 20:54:21.27	70.00	5.65	-36.9	-38.0	20.5	0.00e+00	122	27	0	142606336	46	6277
2026-01-15 20:54:22.28	69.90	5.71	-36.7	-37.8	20.8	0.00e+00	120	27	0	145752064	46	6093
2026-01-15 20:54:23.29	69.79	5.76	-36.8	-38.0	20.5	0.00e+00	122	27	0	148897792	46	6250
2026-01-15 20:54:24.30	69.69	5.82	-36.8	-38.0	20.5	0.00e+00	123	27	0	152043520	46	6250
2026-01-15 20:54:25.31	69.59	5.88	-36.9	-38.1	20.5	0.00e+00	122	27	0	155189248	46	6300
2026-01-15 20:54:26.32	69.48	5.93	-36.9	-38.0	20.5	0.00e+00	123	27	0	158334976	46	6266
2026-01-15 20:54:27.33	69.38	5.99	-37.1	-38.3	20.4	0.00e+00	123	27	0	161480704	46	6458
2026-01-15 20:54:28.34	69.28	6.05	-36.9	-38.1	20.5	0.00e+00	123	27	0	164626432	46	6285
2026-01-15 20:54:29.35	69.17	6.10	-36.9	-38.1	20.5	0.00e+00	122	27	0	167772160	46	6310
2026-01-15 20:54:30.36	69.07	6.16	-36.8	-37.9	20.6	0.00e+00	120	27	0	170917888	46	6180
2026-01-15 20:54:31.37	68.96	6.21	-36.9	-38.0	20.5	0.00e+00	122	27	0	174063616	46	6265
2026-01-15 20:54:32.38	68.86	6.27	-36.9	-38.0	20.7	0.00e+00	122	27	0	177209344	46	6275
2026-01-15 20:54:33.39	68.75	6.33	-36.9	-38.1	20.5	0.00e+00	123	27	0	180355072	46	6305
2026-01-15 20:54:34.40	68.64	6.38	-37.1	-38.3	20.4	0.00e+00	123	27	0	183500800	46	6425
2026-01-15 20:54:35.41	68.54	6.44	-36.9	-38.1	20.6	0.00e+00	122	27	0	186646528	46	6292
2026-01-15 20:54:36.42	68.43	6.50	-36.8	-38.0	20.7	0.00e+00	121	27	0	189792256	46	6228
2026-01-15 20:54:37.43	68.32	6.55	-36.8	-38.0	20.7	0.00e+00	123	27	0	192937984	46	6211
2026-01-15 20:54:38.44	68.21	6.61	-36.8	-38.0	20.7	0.00e+00	123	27	0	196083712	46	6238
2026-01-15 20:54:39.45	68.10	6.67	-36.5	-37.6	21.0	0.00e+00	122	27	0	199229440	46	5994
2026-01-15 20:54:40.46	67.99	6.72	-36.4	-37.5	21.1	0.00e+00	123	27	0	202375168	46	5911
2026-01-15 20:54:41.47	67.88	6.78	-36.4	-37.5	21.0	0.00e+00	121	27	0	205520896	46	5904
2026-01-15 20:54:42.48	67.77	6.84	-36.3	-37.4	21.2	0.00e+00	123	27	0	208666624	46	5842
2026-01-15 20:54:43.50	67.66	6.89	-36.3	-37.5	21.1	0.00e+00	120	27	0	211812352	46	5879
2026-01-15 20:54:44.51	67.55	6.95	-36.4	-37.5	21.0	0.00e+00	122	27	0	214958080	46	5920
2026-01-15 20:54:45.52	67.44	7.01	-36.4	-37.5	21.1	0.00e+00	123	27	0	218103808	46	5871
2026-01-15 20:54:46.53	67.33	7.06	-36.3	-37.4	21.2	0.00e+00	122	27	0	221249536	46	5809
2026-01-15 20:54:47.54	67.22	7.12	-36.3	-37.4	21.2	0.00e+00	122	27	0	224395264	46	5823
2026-01-15 20:54:48.55	67.10	7.18	-36.1	-37.2	21.3	0.00e+00	122	27	0	227540992	46	5706
2026-01-15 20:54:49.56	66.99	7.23	-36.2	-37.3	21.2	0.00e+00	120	27	0	230686720	46	5776
2026-01-15 20:54:50.57	66.88	7.29	-36.3	-37.4	21.2	0.00e+00	122	27	0	233832448	46	5843
2026-01-15 20:54:51.58	66.76	7.35	-36.3	-37.5	21.3	0.00e+00	123	27	0	236978176	46	5861
2026-01-15 20:54:52.58	66.65	7.40	-36.0	-37.1	21.6	0.00e+00	122	27	0	240123904	46	5646
2026-01-15 20:54:53.60	66.53	7.46	-36.0	-37.1	21.6	0.00e+00	120	27	0	243269632	46	5597
2026-01-15 20:54:54.61	66.42	7.52	-36.1	-37.2	21.5	0.00e+00	123	27	0	246415360	46	5676
2026-01-15 20:54:55.62	66.30	7.58	-36.0	-37.1	21.6	0.00e+00	120	27	0	249561088	46	5611
2026-01-15 20:54:56.63	66.18	7.63	-35.9	-37.0	21.6	0.00e+00	122	27	0	252706816	46	5567
2026-01-15 20:54:57.64	66.07	7.69	-35.7	-36.7	21.8	0.00e+00	122	27	0	255852544	44	6059
2026-01-15 20:54:58.65	65.95	7.75	-35.6	-36.6	22.0	0.00e+00	122	27	0	258998272	44	5956
2026-01-15 20:54:59.66	65.83	7.80	-35.5	-36.5	22.0	0.00e+00	123	27	0	262144000	44	5904
2026-01-15 20:55:00.67	65.71	7.86	-35.2	-36.2	22.2	0.00e+00	122	27	0	265289728	44	5700
2026-01-15 20:55:01.68	65.59	7.92	-35.3	-36.3	22.3	0.00e+00	120	27	0	268435456	44	5743
2026-01-15 20:55:02.69	65.47	7.98	-35.3	-36.4	22.2	0.00e+00	122	27	0	271581184	44	5810
2026-01-15 20:55:03.70	65.35	8.03	-35.4	-36.4	22.0	0.00e+00	123	27	0	274726912	44	5854
2026-01-15 20:55:04.71	65.23	8.09	-35.4	-36.5	21.9	0.00e+00	121	27	0	277872640	44	5881
2026-01-15 20:55:05.72	65.11	8.15	-35.6	-36.6	21.9	0.00e+00	122	27	0	281018368	44	5968
2026-01-15 20:55:06.73	64.99	8.20	-35.5	-36.6	22.0	0.00e+00	123	27	0	284164096	44	5940
2026-01-15 20:55:07.74	64.87	8.26	-35.5	-36.5	22.1	0.00e+00	123	27	0	287309824	44	5896
2026-01-15 20:55:08.75	64.75	8.32	-35.3	-36.3	22.3	0.00e+00	122	27	0	291504128	44	5772
2026-01-15 20:55:09.76	64.63	8.37	-35.2	-36.2	22.3	0.00e+00	123	27	0	294649856	44	5722
2026-01-15 20:55:10.77	64.50	8.43	-35.2	-36.2	22.4	0.00e+00	120	27	0	297795584	44	5667
2026-01-15 20:55:11.78	64.38	8.49	-35.3	-36.3	22.2	0.00e+00	122	27	0	299892736	44	5762
2026-01-15 20:55:12.79	64.25	8.55	-35.1	-36.1	22.4	0.00e+00	121	27	0	303038464	44	5630
2026-01-15 20:55:13.80	64.13	8.60	-35.3	-36.4	22.1	0.00e+00	120	27	0	307232768	44	5794
2026-01-15 20:55:14.81	64.00	8.66	-35.2	-36.3	22.3	0.00e+00	123	27	0	310378496	44	5730
2026-01-15 20:55:15.81	63.88	8.72	-35.2	-36.2	22.2	0.00e+00	120	27	0	313524224	44	5677
2026-01-15 20:55:16.83	63.75	8.77	-35.3	-36.3	22.3	0.00e+00	123	27	0	316669952	44	5776
2026-01-15 20:55:17.84	63.63	8.83	-35.2	-36.3	22.1	0.00e+00	122	27	0	319815680	44	5739
2026-01-15 20:55:18.84	63.50	8.89	-35.5	-36.6	22.1	0.00e+00	122	27	0	322961408	44	5959
2026-01-15 20:55:19.85	63.37	8.94	-35.4	-36.5	22.0	0.00e+00	122	27	0	326107136	44	5887
2026-01-15 20:55:20.86	63.24	9.00	-35.4	-36.4	22.2	0.00e+00	123	27	0	329252864	44	5820
2026-01-15 20:55:21.87	63.11	9.06	-35.4	-36.5	22.2	0.00e+00	123	27	0	332398592	44	5860
2026-01-15 20:55:22.88	62.99	9.12	-35.5	-36.5	22.1	0.00e+00	120	27	0	335544320	44	5894
2026-01-15 20:55:23.89	62.86	9.17	-35.5	-36.5	22.2	0.00e+00	122	27	0	338690048	44	5885
2026-01-15 20:55:24.90	62.73	9.23	-34.8	-35.8	22.8	0.00e+00	122	27	0	341835776	44	5443
2026-01-15 20:55:25.91	62.59	9.29	-34.9	-35.9	22.7	0.00e+00	123	27	0	344981504	44	5488
2026-01-15 20:55:26.92	62.46	9.34	-34.7	-35.7	22.8	0.00e+00	122	27	0	348127232	44	5380
2026-01-15 20:55:27.93	62.33	9.40	-34.6	-35.6	23.0	0.00e+00	122	27	0	351272960	42	5940
2026-01-15 20:55:28.94	62.20	9.46	-34.7	-35.7	22.8	0.00e+00	122	27	0	354418688	42	6032
2026-01-15 20:55:29.95	62.07	9.52	-34.7	-35.7	22.9	0.00e+00	120	27	0	357564416	42	6011
2026-01-15 20:55:30.96	61.93	9.57	-34.7	-35.6	23.0	0.00e+00	122	27	0	360710144	42	5989
2026-01-15 20:55:31.97	61.80	9.63	-34.7	-35.7	22.8	0.00e+00	120	27	0	363855872	42	6029
2026-01-15 20:55:32.98	61.66	9.69	-34.7	-35.7	22.8	0.00e+00	123	27	0	367001600	42	6026
2026-01-15 20:55:33.99	61.53	9.74	-34.7	-35.7	23.0	0.00e+00	121	27	0	370147328	42	5998
2026-01-15 20:55:35.00	61.39	9.80	-34.7	-35.7	22.9	0.00e+00	123	27	0	373293056	42	6050
2026-01-15 20:55:36.01	61.26	9.86	-34.7	-35.6	23.0	0.00e+00	123	27	0	376438784	42	5986
2026-01-15 20:55:37.02	61.12	9.91	-34.8	-35.8	22.8	0.00e+00	123	27	0	379584512	42	6108
2026-01-15 20:55:38.03	60.98	9.97	-34.5	-35.5	23.2	0.00e+00	123	27	0	382730240	42	5860
2026-01-15 20:55:39.04	60.85	10.03	-34.6	-35.6	23.0	0.00e+00	120	27	0	385875968	42	5928
2026-01-15 20:55:40.05	60.71	10.08	-34.7	-35.6	23.0	0.00e+00	122	27	0	389021696	42	5975
2026-01-15 20:55:41.06	60.57	10.14	-34.7	-35.6	23.0	0.00e+00	123	27	0	392167424	42	5990
2026-01-15 20:55:42.07	60.43	10.20	-34.9	-35.9	22.7	0.00e+00	122	27	0	395313152	42	6145
2026-01-15 20:55:43.08	60.29	10.25	-34.8	-35.8	22.9	0.00e+00	122	27	0	398458880	42	6067
2026-01-15 20:55:44.09	60.15	10.31	-34.9	-35.9	22.8	0.00e+00	120	27	0	401604608	42	6153
2026-01-15 20:55:45.10	60.01	10.37	-34.7	-35.7	22.9	0.00e+00	122	27	0	404750336	42	6030
2026-01-15 20:55:46.11	59.87	10.42	-34.7	-35.7	23.1	0.00e+00	122	27	0	407896064	42	6022
2026-01-15 20:55:47.12	59.72	10.48	-34.7	-35.7	23.0	0.00e+00	122	27	0	411041792	42	6043
2026-01-15 20:55:48.13	59.58	10.54	-34.7	-35.6	23.1	0.00e+00	123	27	0	414187520	42	5985
2026-01-15 20:55:49.14	59.44	10.59	-34.5	-35.5	23.3	0.00e+00	120	27	0	417333248	42	5869
2026-01-15 20:55:50.15	59.29	10.65	-34.6	-35.5	23.2	0.00e+00	122	27	0	420478976	42	5904
2026-01-15 20:55:51.16	59.15	10.70	-34.7	-35.6	23.0	0.00e+00	123	27	0	423624704	42	5991
2026-01-15 20:55:52.17	59.01	10.76	-34.5	-35.4	23.2	0.00e+00	122	27	0	426770432	42	5855
2026-01-15 20:55:53.18	58.86	10.82	-34.5	-35.5	23.1	0.00e+00	122	27	0	429916160	42	5895
2026-01-15 20:55:54.19	58.71	10.87	-34.6	-35.6	23.0	0.00e+00	122	27	0	433061888	42	5929
2026-01-15 20:55:55.20	58.57	10.93	-34.6	-35.6	23.1	0.00e+00	123	27	0	436207616	42	5942
2026-01-15 20:55:56.21	58.42	10.98	-34.7	-35.7	22.9	0.00e+00	123	27	0	439353344	42	6005
2026-01-15 20:55:57.23	58.27	11.04	-34.6	-35.5	23.1	0.00e+00	120	27	0	442499072	42	5925
2026-01-15 20:55:58.24	58.12	11.10	-34.8	-35.8	22.9	0.00e+00	123	27	0	445644800	42	6072
2026-01-15 20:55:59.25	57.97	11.15	-34.7	-35.7	23.1	0.00e+00	122	27	0	448790528	42	5997
2026-01-15 20:56:00.26	57.82	11.21	-34.7	-35.6	23.1	0.00e+00	123	27	0	451936256	42	5992
2026-01-15 20:56:01.27	57.67	11.26	-34.6	-35.6	23.1	0.00e+00	122	27	0	455081984	42	5949
2026-01-15 20:56:02.28	57.52	11.32	-34.7	-35.7	22.9	0.00e+00	122	27	0	458227712	42	6030
2026-01-15 20:56:03.29	57.37	11.38	-34.7	-35.6	23.0	0.00e+00	121	27	0	461373440	42	5985
2026-01-15 20:56:04.30	57.22	11.43	-34.8	-35.8	22.8	0.00e+00	120	27	0	464519168	42	6110
2026-01-15 20:56:05.31	57.07	11.49	-34.6	-35.6	22.9	0.00e+00	123	27	0	467664896	42	5952
2026-01-15 20:56:06.32	56.91	11.54	-34.8	-35.8	22.7	0.00e+00	123	27	0	470810624	42	6101
2026-01-15 20:56:07.33	56.76	11.60	-34.9	-35.9	22.8	0.00e+00	123	27	0	473956352	42	6164
2026-01-15 20:56:08.34	56.61	11.65	-35.0	-36.0	22.7	0.00e+00	123	27	0	477102080	42	6249
2026-01-15 20:56:09.35	56.45	11.71	-34.9	-35.9	22.9	0.00e+00	122	27	0	480247808	42	6180
2026-01-15 20:56:10.36	56.30	11.76	-35.1	-36.1	22.7	0.00e+00	122	27	0	483393536	42	6308
2026-01-15 20:56:11.37	56.14	11.82	-35.0	-36.0	22.8	0.00e+00	122	27	0	486539264	42	6223
2026-01-15 20:56:12.38	55.98	11.87	-35.0	-36.0	22.8	0.00e+00	123	27	0	489684992	42	6216
2026-01-15 20:56:13.39	55.83	11.93	-34.8	-35.7	23.0	0.00e+00	122	27	0	492830720	42	6043
2026-01-15 20:56:14.40	55.67	11.98	-34.9	-35.9	22.9	0.00e+00	122	27	0	495976448	42	6148
2026-01-15 20:56:15.41	55.51	12.04	-34.8	-35.8	22.9	0.00e+00	123	27	0	499122176	42	6084
2026-01-15 20:56:16.42	55.35	12.09	-34.9	-35.9	22.8	0.00e+00	120	27	0	502267904	42	6158
2026-01-15 20:56:17.43	55.19	12.14	-34.9	-35.9	22.8	0.00e+00	120	27	0	505413632	42	6179
2026-01-15 20:56:18.44	55.03	12.20	-35.0	-36.0	22.8	0.00e+00	122	27	0	508559360	42	6243
2026-01-15 20:56:19.45	54.87	12.25	-35.0	-36.0	22.8	0.00e+00	122	27	0	511705088	42	6271
2026-01-15 20:56:20.46	54.71	12.31	-34.9	-35.9	22.9	0.00e+00	122	27	0	514850816	42	6160
2026-01-15 20:56:21.47	54.55	12.36	-35.0	-36.0	22.8	0.00e+00	123	27	0	517996544	42	6276
2026-01-15 20:56:22.48	54.39	12.41	-35.0	-35.9	22.9	0.00e+00	123	27	0	521142272	42	6186
2026-01-15 20:56:23.49	54.22	12.47	-34.8	-35.8	23.0	0.00e+00	122	27	0	524288000	42	6114
2026-01-15 20:56:24.50	54.06	12.52	-34.9	-35.9	22.9	0.00e+00	123	27	0	527433728	42	6186
2026-01-15 20:56:25.51	53.89	12.58	-34.9	-35.9	23.0	0.00e+00	123	27	0	530579456	42	6161
2026-01-15 20:56:26.52	53.73	12.63	-34.7	-35.7	23.2	0.00e+00	123	27	0	533725184	42	6033
2026-01-15 20:56:27.53	53.56	12.68	-34.6	-35.6	23.2	0.00e+00	123	27	0	536870912	42	5939
2026-01-15 20:56:28.54	53.40	12.73	-34.6	-35.5	23.2	0.00e+00	122	27	0	540016640	42	5912
2026-01-15 20:56:29.55	53.23	12.79	-34.5	-35.4	23.3	0.00e+00	121	27	0	543162368	42	5835
2026-01-15 20:56:30.56	53.06	12.84	-34.4	-35.4	23.3	0.00e+00	123	27	0	546308096	42	5808
2026-01-15 20:56:31.57	52.90	12.89	-34.6	-35.5	23.2	0.00e+00	123	27	0	549453824	42	5904
2026-01-15 20:56:32.57	52.73	12.95	-34.4	-35.4	23.3	0.00e+00	123	27	0	552599552	42	5814
2026-01-15 20:56:33.58	52.56	13.00	-34.3	-35.2	23.5	0.00e+00	123	27	0	555745280	42	5719
2026-01-15 20:56:34.60	52.39	13.05	-34.2	-35.2	23.5	0.00e+00	122	27	0	558891008	42	5665
2026-01-15 20:56:35.60	52.22	13.10	-34.4	-35.3	23.5	0.00e+00	122	27	0	562036736	42	5785
2026-01-15 20:56:36.61	52.05	13.15	-34.2	-35.2	23.4	0.00e+00	122	27	0	565182464	42	5664
2026-01-15 20:56:37.62	51.88	13.21	-34.5	-35.5	23.1	0.00e+00	122	27	0	568328192	42	5867
2026-01-15 20:56:38.64	51.70	13.26	-34.6	-35.6	23.0	0.00e+00	121	27	0	571473920	42	5933
2026-01-15 20:56:39.65	51.53	13.31	-34.5	-35.5	23.1	0.00e+00	123	27	0	574619648	42	5879
2026-01-15 20:56:40.66	51.36	13.36	-34.7	-35.6	23.1	0.00e+00	123	27	0	577765376	42	5982
2026-01-15 20:56:41.67	51.18	13.41	-34.7	-35.7	23.1	0.00e+00	123	27	0	580911104	42	6025
2026-01-15 20:56:42.68	51.01	13.46	-34.7	-35.6	23.1	0.00e+00	122	27	0	584056832	42	5991
2026-01-15 20:56:43.69	50.83	13.52	-34.6	-35.6	23.1	0.00e+00	120	27	0	587202560	42	5938
2026-01-15 20:56:44.70	50.66	13.57	-34.4	-35.3	23.4	0.00e+00	123	27	0	590348288	42	5775
2026-01-15 20:56:45.71	50.48	13.62	-34.4	-35.4	23.3	0.00e+00	123	27	0	593494016	42	5805
2026-01-15 20:56:46.72	50.30	13.67	-34.5	-35.5	23.2	0.00e+00	123	27	0	596639744	42	5882
2026-01-15 20:56:47.73	50.12	13.72	-34.7	-35.6	23.1	0.00e+00	123	27	0	599785472	42	5972
2026-01-15 20:56:48.74	49.95	13.77	-34.7	-35.7	23.0	0.00e+00	120	27	0	602931200	42	5995
2026-01-15 20:56:49.75	49.77	13.82	-34.5	-35.5	23.3	0.00e+00	123	27	0	606076928	42	5860
2026-01-15 20:56:50.76	49.59	13.87	-34.5	-35.5	23.3	0.00e+00	122	27	0	610271232	42	5877
2026-01-15 20:56:51.77	49.41	13.92	-34.5	-35.5	23.2	0.00e+00	122	27	0	613416960	42	5871
2026-01-15 20:56:52.78	49.23	13.97	-34.4	-35.4	23.3	0.00e+00	123	27	0	616562688	42	5825
2026-01-15 20:56:53.79	49.04	14.02	-34.3	-35.3	23.5	0.00e+00	123	27	0	618659840	42	5746
2026-01-15 20:56:54.80	48.86	14.07	-34.3	-35.3	23.4	0.00e+00	122	27	0	622854144	42	5755
2026-01-15 20:56:55.81	48.68	14.11	-34.3	-35.3	23.4	0.00e+00	122	27	0	625999872	42	5735
2026-01-15 20:56:56.82	48.50	14.16	-34.3	-35.2	23.5	0.00e+00	122	27	0	629145600	42	5696
2026-01-15 20:56:57.83	48.31	14.21	-34.3	-35.3	23.4	0.00e+00	122	27	0	632291328	42	5751
2026-01-15 20:56:58.84	48.13	14.26	-34.3	-35.3	23.4	0.00e+00	123	27	0	635437056	42	5753
2026-01-15 20:56:59.85	47.94	14.31	-34.5	-35.5	23.3	0.00e+00	123	27	0	638582784	42	5889
2026-01-15 20:57:00.86	47.76	14.36	-34.6	-35.6	23.1	0.00e+00	123	27	0	641728512	42	5945
2026-01-15 20:57:01.87	47.57	14.40	-34.6	-35.5	23.2	0.00e+00	123	27	0	644874240	42	5899
2026-01-15 20:57:02.88	47.38	14.45	-34.5	-35.4	23.3	0.00e+00	123	27	0	648019968	42	5830
2026-01-15 20:57:03.89	47.20	14.50	-34.6	-35.5	23.2	0.00e+00	123	27	0	651165696	42	5896
2026-01-15 20:57:04.90	47.01	14.55	-34.4	-35.3	23.3	0.00e+00	123	27	0	654311424	42	5758
2026-01-15 20:57:05.91	46.82	14.59	-34.2	-35.2	23.5	0.00e+00	122	27	0	657457152	42	5669
2026-01-15 20:57:06.92	46.63	14.64	-34.3	-35.2	23.4	0.00e+00	123	27	0	660602880	42	5701
2026-01-15 20:57:07.93	46.44	14.68	-34.4	-35.3	23.4	0.00e+00	123	27	0	663748608	42	5781
2026-01-15 20:57:08.94	46.25	14.73	-34.3	-35.2	23.4	0.00e+00	123	27	0	666894336	42	5710
2026-01-15 20:57:09.95	46.06	14.78	-34.4	-35.4	23.4	0.00e+00	120	27	0	670040064	42	5806
2026-01-15 20:57:10.96	45.87	14.82	-34.4	-35.3	23.4	0.00e+00	121	27	0	673185792	42	5758
2026-01-15 20:57:11.97	45.68	14.87	-34.3	-35.2	23.5	0.00e+00	123	27	0	676331520	42	5688
2026-01-15 20:57:12.98	45.48	14.91	-34.4	-35.4	23.3	0.00e+00	123	27	0	679477248	42	5805
2026-01-15 20:57:13.99	45.29	14.96	-34.4	-35.3	23.4	0.00e+00	123	27	0	682622976	42	5777
2026-01-15 20:57:15.00	45.10	15.00	-34.2	-35.2	23.5	0.00e+00	123	27	0	685768704	42	5697
2026-01-15 20:57:16.01	44.90	15.05	-34.3	-35.3	23.5	0.00e+00	123	27	0	688914432	42	5741
2026-01-15 20:57:17.03	44.70	15.09	-34.4	-35.3	23.5	0.00e+00	123	27	0	692060160	42	5762
2026-01-15 20:57:18.04	44.51	15.14	-34.1	-35.0	23.7	0.00e+00	122	27	0	695205888	42	5563
2026-01-15 20:57:19.05	44.31	15.18	-34.1	-35.0	23.7	0.00e+00	123	27	0	698351616	42	5582
2026-01-15 20:57:20.06	44.11	15.22	-34.1	-35.0	23.8	0.00e+00	122	27	0	701497344	42	5580
2026-01-15 20:57:21.07	43.92	15.27	-33.9	-34.8	23.9	0.00e+00	122	27	0	704643072	42	5454
2026-01-15 20:57:22.08	43.72	15.31	-33.8	-34.8	24.0	0.00e+00	123	27	0	707788800	42	5412
2026-01-15 20:57:23.09	43.52	15.35	-33.7	-34.6	24.0	0.00e+00	123	27	0	710934528	40	5954
2026-01-15 20:57:24.10	43.32	15.39	-33.7	-34.6	24.0	0.00e+00	123	27	0	714080256	40	5982
2026-01-15 20:57:25.11	43.12	15.44	-33.7	-34.6	23.8	0.00e+00	123	27	0	717225984	40	5981
2026-01-15 20:57:26.12	42.92	15.48	-33.9	-34.8	23.8	0.00e+00	123	27	0	720371712	40	6099
2026-01-15 20:57:27.13	42.72	15.52	-33.9	-34.8	23.7	0.00e+00	122	27	0	723517440	40	6133
2026-01-15 20:57:28.13	42.52	15.56	-34.0	-34.9	23.7	0.00e+00	120	27	0	726663168	40	6179
2026-01-15 20:57:29.15	42.32	15.60	-33.9	-34.8	23.7	0.00e+00	123	27	0	729808896	40	6126
2026-01-15 20:57:30.16	42.11	15.64	-34.0	-34.9	23.7	0.00e+00	120	27	0	732954624	40	6169
2026-01-15 20:57:31.17	41.91	15.68	-34.0	-34.9	23.6	0.00e+00	123	27	0	736100352	40	6180
2026-01-15 20:57:32.18	41.71	15.72	-34.0	-35.0	23.6	0.00e+00	123	27	0	739246080	40	6209
2026-01-15 20:57:33.19	41.50	15.76	-33.9	-34.8	23.7	0.00e+00	122	27	0	742391808	40	6082
2026-01-15 20:57:34.19	41.30	15.80	-33.9	-34.8	23.7	0.00e+00	123	27	0	745537536	40	6093
2026-01-15 20:57:35.21	41.09	15.84	-34.0	-34.9	23.6	0.00e+00	122	27	0	748683264	40	6177
2026-01-15 20:57:36.22	40.89	15.88	-33.9	-34.9	23.7	0.00e+00	122	27	0	751828992	40	6151
2026-01-15 20:57:37.23	40.68	15.92	-33.9	-34.9	23.7	0.00e+00	123	27	0	754974720	40	6146
2026-01-15 20:57:38.24	40.47	15.96	-34.0	-34.9	23.6	0.00e+00	120	27	0	758120448	40	6156
2026-01-15 20:57:39.25	40.27	15.99	-34.0	-34.9	23.6	0.00e+00	120	27	0	761266176	40	6178
2026-01-15 20:57:40.26	40.06	16.03	-34.0	-35.0	23.7	0.00e+00	123	27	0	764411904	40	6220
2026-01-15 20:57:41.27	39.85	16.07	-33.9	-34.9	23.7	0.00e+00	123	27	0	767557632	40	6135
2026-01-15 20:57:42.28	39.64	16.11	-34.0	-34.9	23.6	0.00e+00	123	27	0	770703360	40	6189
2026-01-15 20:57:43.29	39.43	16.14	-34.0	-34.9	23.7	0.00e+00	122	27	0	773849088	40	6169
2026-01-15 20:57:44.30	39.22	16.18	-33.9	-34.8	23.8	0.00e+00	121	27	0	776994816	40	6129
2026-01-15 20:57:45.31	39.01	16.21	-33.9	-34.8	23.8	0.00e+00	123	27	0	780140544	40	6127
2026-01-15 20:57:46.32	38.80	16.25	-34.0	-34.9	23.8	0.00e+00	122	27	0	783286272	40	6176
2026-01-15 20:57:47.33	38.59	16.28	-34.0	-35.0	23.7	0.00e+00	122	27	0	786432000	40	6217
2026-01-15 20:57:48.34	38.38	16.32	-33.9	-34.8	23.7	0.00e+00	122	27	0	789577728	40	6119
2026-01-15 20:57:49.35	38.16	16.35	-33.8	-34.7	23.9	0.00e+00	123	27	0	792723456	40	6021
2026-01-15 20:57:50.36	37.95	16.39	-33.7	-34.6	24.0	0.00e+00	123	27	0	795869184	40	5944
2026-01-15 20:57:51.37	37.74	16.42	-33.6	-34.5	24.1	0.00e+00	123	27	0	799014912	40	5916
2026-01-15 20:57:52.38	37.52	16.45	-33.5	-34.4	24.1	0.00e+00	118	27	0	802160640	40	5850
2026-01-15 20:57:53.39	37.31	16.49	-33.7	-34.6	24.0	0.00e+00	122	27	0	805306368	40	5972
2026-01-15 20:57:54.40	37.09	16.52	-33.7	-34.6	24.0	0.00e+00	123	27	0	808452096	40	5973
2026-01-15 20:57:55.41	36.88	16.55	-33.8	-34.7	23.9	0.00e+00	122	27	0	811597824	40	6035
2026-01-15 20:57:56.42	36.66	16.58	-33.9	-34.9	23.7	0.00e+00	123	27	0	814743552	40	6139
2026-01-15 20:57:57.43	36.44	16.62	-33.7	-34.6	23.9	0.00e+00	123	27	0	817889280	40	5994
2026-01-15 20:57:58.44	36.23	16.65	-33.9	-34.8	23.7	0.00e+00	121	27	0	821035008	40	6104
2026-01-15 20:57:59.45	36.01	16.68	-33.7	-34.6	23.9	0.00e+00	123	27	0	824180736	40	5948
2026-01-15 20:58:00.46	35.79	16.71	-33.8	-34.7	23.8	0.00e+00	122	27	0	827326464	40	6015
2026-01-15 20:58:01.47	35.57	16.74	-33.7	-34.7	23.9	0.00e+00	122	27	0	830472192	40	6004
2026-01-15 20:58:02.48	35.36	16.77	-33.8	-34.7	23.8	0.00e+00	122	27	0	833617920	40	6033
2026-01-15 20:58:03.49	35.14	16.80	-33.8	-34.8	23.8	0.00e+00	120	27	0	836763648	40	6073
2026-01-15 20:58:04.51	34.91	16.83	-33.8	-34.8	23.8	0.00e+00	122	27	0	839909376	40	6066
2026-01-15 20:58:05.52	34.70	16.85	-34.0	-34.9	23.6	0.00e+00	120	27	0	843055104	40	6190
2026-01-15 20:58:06.53	34.47	16.88	-33.8	-34.8	23.9	0.00e+00	122	27	0	846200832	40	6088
2026-01-15 20:58:07.54	34.25	16.91	-34.1	-35.0	23.7	0.00e+00	120	27	0	849346560	40	6248
2026-01-15 20:58:08.55	34.03	16.94	-33.8	-34.7	23.8	0.00e+00	122	27	0	852492288	40	6059
2026-01-15 20:58:09.56	33.81	16.96	-33.8	-34.7	23.9	0.00e+00	122	27	0	855638016	40	6026
2026-01-15 20:58:10.57	33.59	16.99	-33.9	-34.8	23.8	0.00e+00	120	27	0	858783744	40	6125
2026-01-15 20:58:11.58	33.37	17.02	-33.9	-34.8	23.9	0.00e+00	122	27	0	861929472	40	6109
2026-01-15 20:58:12.59	33.14	17.04	-33.9	-34.8	23.9	0.00e+00	123	27	0	865075200	40	6129
2026-01-15 20:58:13.60	32.92	17.07	-33.7	-34.7	24.0	0.00e+00	120	27	0	868220928	40	6001
2026-01-15 20:58:14.61	32.70	17.09	-33.7	-34.6	24.1	0.00e+00	123	27	0	871366656	40	5970
2026-01-15 20:58:15.62	32.47	17.12	-33.5	-34.5	24.1	0.00e+00	123	27	0	874512384	40	5866
2026-01-15 20:58:16.63	32.25	17.14	-33.6	-34.5	24.1	0.00e+00	123	27	0	877658112	40	5906
2026-01-15 20:58:17.64	32.03	17.16	-33.5	-34.5	24.2	0.00e+00	123	27	0	880803840	40	5861
2026-01-15 20:58:18.65	31.80	17.19	-33.5	-34.4	24.1	0.00e+00	121	27	0	883949568	40	5850
2026-01-15 20:58:19.66	31.58	17.21	-33.6	-34.5	24.0	0.00e+00	122	27	0	887095296	40	5905
2026-01-15 20:58:20.67	31.35	17.23	-33.7	-34.7	24.0	0.00e+00	120	27	0	890241024	40	6000
2026-01-15 20:58:21.68	31.12	17.25	-33.9	-34.8	23.9	0.00e+00	120	27	0	893386752	40	6109
2026-01-15 20:58:22.68	30.90	17.27	-33.8	-34.7	24.0	0.00e+00	122	27	0	896532480	40	6055
2026-01-15 20:58:23.69	30.67	17.29	-33.8	-34.7	24.0	0.00e+00	117	27	0	899678208	40	6021
2026-01-15 20:58:24.70	30.45	17.32	-33.7	-34.6	24.0	0.00e+00	123	27	0	903872512	40	5986
2026-01-15 20:58:25.71	30.22	17.34	-33.8	-34.7	24.0	0.00e+00	123	27	0	907018240	40	6017
2026-01-15 20:58:26.72	29.99	17.35	-33.8	-34.8	23.9	0.00e+00	122	27	0	909115392	40	6072
2026-01-15 20:58:27.73	29.76	17.37	-34.0	-34.9	23.8	0.00e+00	123	27	0	912261120	40	6179
2026-01-15 20:58:28.74	29.54	17.39	-34.0	-34.9	23.7	0.00e+00	123	27	0	915406848	40	6167
2026-01-15 20:58:29.75	29.31	17.41	-34.0	-35.0	23.8	0.00e+00	123	27	0	919601152	40	6208
2026-01-15 20:58:30.76	29.08	17.43	-34.2	-35.1	23.7	0.00e+00	122	27	0	922746880	40	6304
2026-01-15 20:58:31.77	28.85	17.45	-34.0	-35.0	23.8	0.00e+00	123	27	0	925892608	40	6213
2026-01-15 20:58:32.78	28.62	17.46	-33.9	-34.8	23.9	0.00e+00	122	27	0	929038336	40	6100
2026-01-15 20:58:33.79	28.39	17.48	-33.8	-34.7	23.9	0.00e+00	122	27	0	932184064	40	6051
2026-01-15 20:58:34.81	28.16	17.49	-33.7	-34.6	24.0	0.00e+00	123	27	0	935329792	40	5959
2026-01-15 20:58:35.82	27.93	17.51	-33.7	-34.7	24.0	0.00e+00	123	27	0	938475520	40	6003
2026-01-15 20:58:36.82	27.70	17.52	-33.6	-34.5	24.0	0.00e+00	123	27	0	941621248	40	5911
2026-01-15 20:58:37.84	27.47	17.54	-33.6	-34.6	24.1	0.00e+00	123	27	0	944766976	40	5935
2026-01-15 20:58:38.85	27.24	17.55	-33.6	-34.4	24.1	0.00e+00	122	27	0	947912704	40	5853
2026-01-15 20:58:39.86	27.01	17.57	-33.5	-34.4	24.1	0.00e+00	122	27	0	951058432	40	5844
2026-01-15 20:58:40.87	26.78	17.58	-33.6	-34.5	24.1	0.00e+00	123	27	0	954204160	40	5888
2026-01-15 20:58:41.87	26.55	17.59	-33.6	-34.5	24.0	0.00e+00	122	27	0	957349888	40	5906
2026-01-15 20:58:42.88	26.32	17.60	-33.7	-34.6	24.0	0.00e+00	122	27	0	960495616	40	5953
2026-01-15 20:58:43.89	26.09	17.62	-33.6	-34.5	24.0	0.00e+00	123	27	0	963641344	40	5924
2026-01-15 20:58:44.90	25.86	17.63	-33.6	-34.5	24.0	0.00e+00	120	27	0	966787072	40	5878
2026-01-15 20:58:45.92	25.62	17.64	-33.7	-34.6	23.9	0.00e+00	122	27	0	969932800	40	5975
2026-01-15 20:58:46.93	25.39	17.65	-33.8	-34.8	23.7	0.00e+00	123	27	0	973078528	40	6074
2026-01-15 20:58:47.93	25.16	17.66	-33.8	-34.7	23.8	0.00e+00	122	27	0	976224256	40	6031
2026-01-15 20:58:48.94	24.93	17.67	-33.8	-34.7	23.8	0.00e+00	123	27	0	979369984	40	6039
2026-01-15 20:58:49.95	24.70	17.68	-33.7	-34.6	23.9	0.00e+00	123	27	0	982515712	40	5981
2026-01-15 20:58:50.96	24.46	17.68	-33.8	-34.7	23.8	0.00e+00	120	27	0	985661440	40	6026
2026-01-15 20:58:51.97	24.23	17.69	-33.9	-34.8	23.7	0.00e+00	122	27	0	988807168	40	6078
2026-01-15 20:58:52.98	24.00	17.70	-33.9	-34.8	23.7	0.00e+00	123	27	0	991952896	40	6129
2026-01-15 20:58:53.99	23.76	17.71	-34.1	-35.1	23.5	0.00e+00	120	27	0	995098624	40	6286
2026-01-15 20:58:55.00	23.53	17.71	-34.1	-35.0	23.5	0.00e+00	122	27	0	998244352	40	6239
2026-01-15 20:58:56.01	23.30	17.72	-34.2	-35.2	23.4	0.00e+00	123	27	0	1001390080	40	6366
2026-01-15 20:58:57.02	23.07	17.72	-34.1	-35.1	23.6	0.00e+00	123	27	0	1004535808	40	6295
2026-01-15 20:58:58.03	22.83	17.73	-34.2	-35.2	23.5	0.00e+00	122	27	0	1007681536	40	6379
2026-01-15 20:58:59.04	22.60	17.73	-34.1	-35.0	23.6	0.00e+00	120	27	0	1010827264	40	6246
2026-01-15 20:59:00.05	22.37	17.74	-34.0	-35.0	23.6	0.00e+00	123	27	0	1013972992	40	6233
2026-01-15 20:59:01.06	22.13	17.74	-34.1	-35.1	23.6	0.00e+00	120	27	0	1017118720	40	6292
2026-01-15 20:59:02.07	21.90	17.74	-33.8	-34.7	23.9	0.00e+00	123	27	0	1020264448	40	6064
2026-01-15 20:59:03.08	21.67	17.74	-33.7	-34.6	24.0	0.00e+00	120	27	0	1023410176	40	5947
2026-01-15 20:59:04.09	21.43	17.75	-33.8	-34.7	24.0	0.00e+00	122	27	0	1026555904	40	6012
2026-01-15 20:59:05.10	21.20	17.75	-33.6	-34.6	23.9	0.00e+00	120	27	0	1029701632	40	5931
2026-01-15 20:59:06.11	20.96	17.75	-33.6	-34.6	23.9	0.00e+00	123	27	0	1032847360	40	5936
2026-01-15 20:59:07.12	20.73	17.75	-33.7	-34.6	23.9	0.00e+00	120	27	0	1035993088	40	5969
2026-01-15 20:59:08.13	20.50	17.75	-33.9	-34.8	23.8	0.00e+00	123	27	0	1039138816	40	6119
2026-01-15 20:59:09.14	20.26	17.75	-33.7	-34.6	24.0	0.00e+00	122	27	0	1042284544	40	5927
2026-01-15 20:59:10.15	20.03	17.75	-33.6	-34.5	24.0	0.00e+00	122	27	0	1045430272	40	5923
2026-01-15 20:59:11.16	19.80	17.75	-33.7	-34.6	23.9	0.00e+00	122	27	0	1048576000	40	5980
2026-01-15 20:59:12.17	19.56	17.74	-33.8	-34.7	23.8	0.00e+00	122	27	0	1051721728	40	6023
2026-01-15 20:59:13.18	19.33	17.74	-33.8	-34.8	23.8	0.00e+00	123	27	0	1054867456	40	6080
2026-01-15 20:59:14.19	19.10	17.74	-33.7	-34.6	23.9	0.00e+00	122	28	0	1058013184	40	5945
2026-01-15 20:59:15.20	18.86	17.74	-33.8	-34.7	23.8	0.00e+00	122	27	0	1061158912	40	6044
2026-01-15 20:59:16.21	18.63	17.73	-33.7	-34.6	23.9	0.00e+00	123	27	0	1064304640	40	5932
2026-01-15 20:59:17.22	18.40	17.73	-33.8	-34.7	23.9	0.00e+00	122	27	0	1067450368	40	6062
2026-01-15 20:59:18.22	18.17	17.72	-33.8	-34.7	23.9	0.00e+00	123	28	0	1070596096	40	6018
2026-01-15 20:59:19.23	17.93	17.72	-33.7	-34.6	23.9	0.00e+00	123	27	0	1073741824	40	5993
2026-01-15 20:59:20.24	17.70	17.71	-33.8	-34.7	23.9	0.00e+00	120	27	0	1076887552	40	6057
2026-01-15 20:59:21.25	17.47	17.70	-33.8	-34.7	24.0	0.00e+00	122	27	0	1080033280	40	6011
2026-01-15 20:59:22.26	17.23	17.70	-33.8	-34.7	23.9	0.00e+00	123	27	0	1083179008	40	6032
2026-01-15 20:59:23.27	17.00	17.69	-33.8	-34.7	23.8	0.00e+00	120	27	0	1086324736	40	6046
2026-01-15 20:59:24.28	16.77	17.68	-33.6	-34.5	24.1	0.00e+00	123	27	0	1089470464	40	5904
2026-01-15 20:59:25.29	16.54	17.67	-33.6	-34.5	24.0	0.00e+00	122	27	0	1092616192	40	5925
2026-01-15 20:59:26.30	16.30	17.66	-33.7	-34.6	23.9	0.00e+00	122	27	0	1095761920	40	5950
2026-01-15 20:59:27.31	16.07	17.66	-33.7	-34.6	23.9	0.00e+00	120	27	0	1098907648	40	5981
2026-01-15 20:59:28.32	15.84	17.65	-33.7	-34.7	23.9	0.00e+00	122	27	0	1102053376	40	6000
2026-01-15 20:59:29.33	15.61	17.64	-33.5	-34.4	24.2	0.00e+00	120	27	0	1105199104	40	5797
2026-01-15 20:59:30.34	15.38	17.62	-33.6	-34.5	24.0	0.00e+00	123	27	0	1108344832	40	5898
2026-01-15 20:59:31.35	15.14	17.61	-33.5	-34.4	24.1	0.00e+00	123	27	0	1111490560	40	5842
2026-01-15 20:59:32.36	14.91	17.60	-33.5	-34.4	24.1	0.00e+00	123	27	0	1114636288	40	5835
2026-01-15 20:59:33.37	14.68	17.59	-33.5	-34.5	24.1	0.00e+00	123	27	0	1117782016	40	5864
2026-01-15 20:59:34.38	14.45	17.58	-33.7	-34.6	24.0	0.00e+00	123	27	0	1120927744	40	5990
2026-01-15 20:59:35.39	14.22	17.56	-33.7	-34.6	24.0	0.00e+00	123	27	0	1124073472	40	5981
2026-01-15 20:59:36.40	13.99	17.55	-33.8	-34.8	23.9	0.00e+00	123	27	0	1127219200	40	6070
2026-01-15 20:59:37.41	13.76	17.54	-33.8	-34.7	24.0	0.00e+00	122	27	0	1130364928	40	6025
2026-01-15 20:59:38.42	13.53	17.52	-33.9	-34.8	23.8	0.00e+00	120	27	0	1133510656	40	6132
2026-01-15 20:59:39.43	13.30	17.51	-33.9	-34.8	23.9	0.00e+00	120	28	0	1136656384	40	6099
2026-01-15 20:59:40.44	13.07	17.49	-33.9	-34.9	23.8	0.00e+00	123	27	0	1139802112	40	6160
2026-01-15 20:59:41.45	12.84	17.48	-34.0	-35.0	23.6	0.00e+00	122	27	0	1142947840	40	6232
2026-01-15 20:59:42.46	12.61	17.46	-34.2	-35.1	23.6	0.00e+00	123	27	0	1146093568	40	6333
2026-01-15 20:59:43.47	12.38	17.44	-34.2	-35.2	23.4	0.00e+00	123	27	0	1149239296	40	6375
2026-01-15 20:59:44.48	12.15	17.42	-34.0	-35.0	23.6	0.00e+00	122	27	0	1152385024	40	6221
2026-01-15 20:59:45.49	11.93	17.41	-33.8	-34.8	23.9	0.00e+00	120	27	0	1155530752	40	6078
2026-01-15 20:59:46.51	11.70	17.39	-33.9	-34.8	23.8	0.00e+00	122	27	0	1158676480	40	6090
2026-01-15 20:59:47.52	11.47	17.37	-33.9	-34.8	23.8	0.00e+00	122	27	0	1161822208	40	6123
2026-01-15 20:59:48.53	11.24	17.35	-33.8	-34.7	23.9	0.00e+00	122	27	0	1164967936	40	6054
2026-01-15 20:59:49.53	11.02	17.33	-33.7	-34.7	24.0	0.00e+00	122	28	0	1168113664	40	5999
2026-01-15 20:59:50.54	10.79	17.31	-33.7	-34.6	24.0	0.00e+00	122	27	0	1171259392	40	5955
2026-01-15 20:59:51.55	10.56	17.29	-33.6	-34.5	24.1	0.00e+00	120	27	0	1174405120	40	5888
2026-01-15 20:59:52.56	10.34	17.27	-33.4	-34.4	24.1	0.00e+00	122	27	0	1177550848	40	5802
2026-01-15 20:59:53.57	10.11	17.25	-33.5	-34.4	24.0	0.00e+00	123	27	0	1180696576	40	5834
2026-01-15 20:59:54.58	9.88	17.23	-33.5	-34.4	23.9	0.00e+00	123	27	0	1183842304	40	5858
2026-01-15 20:59:55.59	9.66	17.21	-33.5	-34.4	24.0	0.00e+00	122	27	0	1186988032	40	5835
2026-01-15 20:59:56.60	9.43	17.18	-33.6	-34.5	24.1	0.00e+00	123	27	0	1190133760	40	5906
2026-01-15 20:59:57.61	9.21	17.16	-33.4	-34.3	24.2	0.00e+00	123	27	0	1193279488	40	5786
2026-01-15 20:59:58.62	8.99	17.14	-33.6	-34.5	24.1	0.00e+00	122	27	0	1196425216	40	5867
2026-01-15 20:59:59.63	8.76	17.11	-33.5	-34.4	24.2	0.00e+00	123	27	0	1199570944	40	5813
2026-01-15 21:00:00.64	8.54	17.09	-33.5	-34.5	24.1	0.00e+00	123	27	0	1202716672	40	5866
2026-01-15 21:00:01.65	8.31	17.06	-33.5	-34.4	24.1	0.00e+00	122	27	0	1205862400	40	5857
2026-01-15 21:00:02.66	8.09	17.04	-33.7	-34.6	24.0	0.00e+00	122	27	0	1209008128	40	5958
2026-01-15 21:00:03.67	7.87	17.01	-33.6	-34.6	24.0	0.00e+00	120	27	0	1212153856	40	5937
2026-01-15 21:00:04.68	7.65	16.99	-33.7	-34.6	24.1	0.00e+00	123	27	0	1215299584	40	5990
2026-01-15 21:00:05.69	7.43	16.96	-33.7	-34.6	24.0	0.00e+00	123	27	0	1218445312	40	5954
2026-01-15 21:00:06.70	7.20	16.93	-33.7	-34.6	24.0	0.00e+00	123	27	0	1221591040	40	5990
2026-01-15 21:00:07.70	6.99	16.91	-33.9	-34.8	23.8	0.00e+00	123	27	0	1225785344	40	6124
2026-01-15 21:00:08.71	6.77	16.88	-33.8	-34.7	23.9	0.00e+00	123	27	0	1227882496	40	6055
2026-01-15 21:00:09.72	6.55	16.85	-33.9	-34.9	23.7	0.00e+00	123	27	0	1231028224	40	6166
2026-01-15 21:00:10.73	6.33	16.82	-34.0	-34.9	23.7	0.00e+00	122	27	0	1234173952	40	6204
2026-01-15 21:00:11.74	6.11	16.79	-33.9	-34.8	23.8	0.00e+00	123	27	0	1237319680	40	6121
2026-01-15 21:00:12.75	5.89	16.76	-34.0	-34.9	23.7	0.00e+00	121	27	0	1241513984	40	6165
2026-01-15 21:00:13.76	5.67	16.73	-33.8	-34.7	23.9	0.00e+00	123	27	0	1244659712	40	6046
2026-01-15 21:00:14.77	5.45	16.70	-33.9	-34.8	23.8	0.00e+00	123	27	0	1247805440	40	6097
2026-01-15 21:00:15.78	5.23	16.67	-33.9	-34.8	23.8	0.00e+00	123	27	0	1249902592	40	6097
2026-01-15 21:00:16.79	5.02	16.64	-33.8	-34.7	23.9	0.00e+00	122	27	0	1253048320	40	6014
2026-01-15 21:00:17.80	4.80	16.61	-33.7	-34.6	24.0	0.00e+00	120	27	0	1257242624	40	5952
2026-01-15 21:00:18.82	4.58	16.58	-33.8	-34.7	23.9	0.00e+00	122	27	0	1260388352	40	6038
2026-01-15 21:00:19.82	4.37	16.55	-33.8	-34.8	24.0	0.00e+00	120	27	0	1263534080	40	6081
2026-01-15 21:00:20.83	4.15	16.52	-33.6	-34.6	24.0	0.00e+00	123	27	0	1266679808	40	5933
2026-01-15 21:00:21.84	3.94	16.48	-33.6	-34.5	24.1	0.00e+00	122	27	0	1269825536	40	5896
2026-01-15 21:00:22.85	3.72	16.45	-33.7	-34.6	24.0	0.00e+00	120	27	0	1272971264	40	5959
2026-01-15 21:00:23.86	3.51	16.42	-33.6	-34.6	24.0	0.00e+00	123	27	0	1276116992	40	5938
2026-01-15 21:00:24.87	3.30	16.38	-33.7	-34.7	23.9	0.00e+00	121	27	0	1279262720	40	6006
2026-01-15 21:00:25.87	3.09	16.35	-33.7	-34.7	23.9	0.00e+00	123	27	0	1282408448	40	5998
2026-01-15 21:00:26.88	2.88	16.31	-33.8	-34.8	23.8	0.00e+00	123	27	0	1285554176	40	6069
2026-01-15 21:00:27.89	2.66	16.28	-33.9	-34.9	23.8	0.00e+00	120	27	0	1288699904	40	6140
2026-01-15 21:00:28.90	2.45	16.24	-33.8	-34.7	23.9	0.00e+00	122	27	0	1291845632	40	6063
2026-01-15 21:00:29.91	2.24	16.21	-33.9	-34.9	23.9	0.00e+00	122	27	0	1294991360	40	6145
2026-01-15 21:00:30.92	2.03	16.17	-34.1	-35.0	23.7	0.00e+00	121	27	0	1298137088	40	6230
2026-01-15 21:00:31.93	1.82	16.14	-33.9	-34.9	23.8	0.00e+00	120	27	0	1301282816	40	6135
2026-01-15 21:00:32.94	1.61	16.10	-33.8	-34.8	23.9	0.00e+00	123	27	0	1304428544	40	6080
2026-01-15 21:00:33.95	1.40	16.06	-33.9	-34.8	23.8	0.00e+00	122	27	0	1307574272	40	6128
2026-01-15 21:00:34.96	1.20	16.03	-34.0	-34.9	23.7	0.00e+00	122	27	0	1310720000	40	6182
2026-01-15 21:00:35.97	0.99	15.99	-33.9	-34.8	23.8	0.00e+00	123	27	0	1313865728	40	6093
2026-01-15 21:00:36.98	0.78	15.95	-33.8	-34.8	23.9	0.00e+00	122	27	0	1317011456	40	6075
2026-01-15 21:00:37.99	0.57	15.91	-33.7	-34.7	23.8	0.00e+00	120	27	0	1320157184	40	5996
2026-01-15 21:00:39.00	0.37	15.87	-33.8	-34.8	23.8	0.00e+00	123	27	0	1323302912	40	6065
2026-01-15 21:00:40.01	0.16	15.84	-33.6	-34.5	24.0	0.00e+00	123	27	0	1326448640	40	5910
2026-01-15 21:00:41.02	359.96	15.80	-33.6	-34.6	23.9	0.00e+00	123	27	0	1329594368	40	5942
2026-01-15 21:00:42.03	359.75	15.76	-33.6	-34.5	24.0	0.00e+00	123	27	0	1332740096	40	5878
2026-01-15 21:00:43.04	359.55	15.72	-33.7	-34.6	23.9	0.00e+00	123	27	0	1335885824	40	5994
2026-01-15 21:00:44.05	359.35	15.68	-33.7	-34.6	23.9	0.00e+00	122	27	0	1339031552	40	5980
2026-01-15 21:00:45.07	359.14	15.64	-33.8	-34.8	23.8	0.00e+00	123	27	0	1342177280	40	6083
2026-01-15 21:00:46.07	358.94	15.60	-33.9	-34.8	23.8	0.00e+00	122	27	0	1345323008	40	6119
2026-01-15 21:00:47.08	358.74	15.56	-33.9	-34.8	23.8	0.00e+00	123	27	0	1348468736	40	6111
2026-01-15 21:00:48.10	358.54	15.51	-34.0	-34.9	23.8	0.00e+00	123	27	0	1351614464	40	6167
2026-01-15 21:00:49.11	358.34	15.47	-34.0	-34.9	23.8	0.00e+00	123	27	0	1354760192	40	6165
2026-01-15 21:00:50.12	358.14	15.43	-34.0	-35.0	23.7	0.00e+00	123	27	0	1357905920	40	6216
2026-01-15 21:00:51.13	357.94	15.39	-34.0	-34.9	23.7	0.00e+00	122	27	0	1361051648	40	6171
2026-01-15 21:00:52.14	357.74	15.35	-33.8	-34.7	23.9	0.00e+00	123	27	0	1364197376	40	6037
2026-01-15 21:00:53.15	357.54	15.30	-33.6	-34.6	24.0	0.00e+00	123	27	0	1367343104	40	5936
2026-01-15 21:00:54.16	357.34	15.26	-33.6	-34.6	23.9	0.00e+00	122	27	0	1370488832	40	5936
2026-01-15 21:00:55.17	357.14	15.22	-33.6	-34.5	23.9	0.00e+00	122	27	0	1373634560	40	5901
2026-01-15 21:00:56.18	356.95	15.17	-33.6	-34.6	23.9	0.00e+00	120	27	0	1376780288	40	5933
2026-01-15 21:00:57.19	356.75	15.13	-33.8	-34.7	23.8	0.00e+00	122	27	0	1379926016	40	6060
2026-01-15 21:00:58.20	356.56	15.09	-33.9	-34.8	23.7	0.00e+00	123	27	0	1383071744	40	6134
2026-01-15 21:00:59.21	356.36	15.04	-34.0	-35.0	23.6	0.00e+00	122	27	0	1386217472	40	6220
2026-01-15 21:01:00.22	356.17	15.00	-34.2	-35.2	23.4	0.00e+00	122	27	0	1389363200	40	6373
2026-01-15 21:01:01.23	355.97	14.95	-34.2	-35.1	23.5	0.00e+00	123	27	0	1392508928	40	6334
2026-01-15 21:01:02.24	355.78	14.91	-34.2	-35.2	23.5	0.00e+00	123	27	0	1395654656	40	6352
2026-01-15 21:01:03.25	355.59	14.86	-34.1	-35.1	23.6	0.00e+00	123	27	0	1398800384	40	6288
2026-01-15 21:01:04.26	355.40	14.82	-34.0	-35.0	23.7	0.00e+00	123	27	0	1401946112	40	6234
2026-01-15 21:01:05.27	355.21	14.77	-34.0	-35.0	23.7	0.00e+00	123	27	0	1405091840	40	6224
2026-01-15 21:01:06.28	355.01	14.73	-34.1	-35.0	23.7	0.00e+00	120	27	0	1408237568	40	6254
2026-01-15 21:01:07.29	354.82	14.68	-34.2	-35.1	23.6	0.00e+00	123	27	0	1411383296	40	6349
2026-01-15 21:01:08.30	354.64	14.63	-34.1	-35.1	23.7	0.00e+00	122	27	0	1414529024	40	6291
2026-01-15 21:01:09.31	354.45	14.59	-34.1	-35.0	23.6	0.00e+00	122	27	0	1417674752	40	6259
2026-01-15 21:01:10.32	354.26	14.54	-34.1	-35.1	23.6	0.00e+00	120	27	0	1420820480	40	6289
2026-01-15 21:01:11.33	354.07	14.49	-34.1	-35.1	23.6	0.00e+00	122	27	0	1423966208	40	6282
2026-01-15 21:01:12.34	353.88	14.45	-34.2	-35.1	23.6	0.00e+00	123	27	0	1427111936	40	6311
2026-01-15 21:01:13.35	353.70	14.40	-34.0	-35.0	23.6	0.00e+00	122	27	0	1430257664	40	6223
2026-01-15 21:01:14.36	353.51	14.35	-34.0	-34.9	23.7	0.00e+00	123	27	0	1433403392	40	6174
2026-01-15 21:01:15.37	353.33	14.30	-34.1	-35.1	23.5	0.00e+00	122	27	0	1436549120	40	6311
2026-01-15 21:01:16.38	353.14	14.26	-34.0	-35.0	23.6	0.00e+00	123	27	0	1439694848	40	6238
2026-01-15 21:01:17.39	352.96	14.21	-34.1	-35.0	23.6	0.00e+00	123	27	0	1442840576	40	6262
2026-01-15 21:01:18.40	352.77	14.16	-34.1	-35.1	23.6	0.00e+00	120	27	0	1445986304	40	6286
2026-01-15 21:01:19.41	352.59	14.11	-34.1	-35.0	23.7	0.00e+00	123	27	0	1449132032	40	6252
2026-01-15 21:01:20.42	352.41	14.06	-34.2	-35.1	23.6	0.00e+00	121	27	0	1452277760	40	6328
2026-01-15 21:01:21.43	352.23	14.01	-34.3	-35.2	23.5	0.00e+00	123	27	0	1455423488	40	6387
2026-01-15 21:01:22.44	352.05	13.96	-34.4	-35.3	23.4	0.00e+00	122	27	0	1458569216	40	6466
2026-01-15 21:01:23.45	351.87	13.91	-34.5	-35.4	23.3	0.00e+00	123	27	0	1461714944	40	6539
2026-01-15 21:01:24.46	351.69	13.86	-34.6	-35.5	23.2	0.00e+00	120	27	0	1464860672	40	6629
2026-01-15 21:01:25.47	351.51	13.81	-34.6	-35.5	23.2	0.00e+00	122	27	0	1468006400	40	6642
2026-01-15 21:01:26.49	351.33	13.76	-34.5	-35.5	23.2	0.00e+00	122	27	0	1471152128	40	6596
2026-01-15 21:01:27.50	351.15	13.71	-34.6	-35.5	23.2	0.00e+00	122	27	0	1474297856	40	6627
2026-01-15 21:01:28.51	350.97	13.66	-34.4	-35.3	23.3	0.00e+00	122	27	0	1477443584	40	6478
2026-01-15 21:01:29.51	350.80	13.61	-34.3	-35.3	23.2	0.00e+00	123	27	0	1480589312	40	6456
2026-01-15 21:01:30.53	350.62	13.56	-34.4	-35.4	23.2	0.00e+00	123	27	0	1483735040	40	6506
2026-01-15 21:01:31.54	350.44	13.51	-34.4	-35.4	23.1	0.00e+00	120	27	0	1486880768	40	6531
2026-01-15 21:01:32.55	350.27	13.46	-34.2	-35.2	23.4	0.00e+00	123	27	0	1490026496	40	6397
2026-01-15 21:01:33.56	350.09	13.41	-34.4	-35.4	23.3	0.00e+00	120	27	0	1493172224	40	6512
2026-01-15 21:01:34.57	349.92	13.36	-34.4	-35.3	23.4	0.00e+00	123	27	0	1496317952	40	6469
2026-01-15 21:01:35.58	349.75	13.31	-34.4	-35.4	23.4	0.00e+00	122	27	0	1499463680	40	6502
2026-01-15 21:01:36.59	349.58	13.26	-34.4	-35.4	23.4	0.00e+00	123	27	0	1502609408	40	6502
2026-01-15 21:01:37.60	349.40	13.20	-34.4	-35.3	23.4	0.00e+00	122	27	0	1505755136	40	6497
2026-01-15 21:01:38.61	349.23	13.15	-34.3	-35.3	23.4	0.00e+00	120	27	0	1508900864	40	6426
2026-01-15 21:01:39.62	349.06	13.10	-34.3	-35.2	23.5	0.00e+00	122	27	0	1512046592	40	6416
2026-01-15 21:01:40.63	348.89	13.05	-34.2	-35.2	23.5	0.00e+00	122	27	0	1515192320	40	6388
2026-01-15 21:01:41.64	348.72	13.00	-34.0	-34.9	23.7	0.00e+00	123	27	0	1518338048	40	6197
2026-01-15 21:01:42.65	348.55	12.94	-34.0	-34.9	23.7	0.00e+00	123	27	0	1521483776	40	6200
2026-01-15 21:01:43.66	348.39	12.89	-34.0	-34.9	23.7	0.00e+00	123	27	0	1524629504	40	6184
2026-01-15 21:01:44.67	348.22	12.84	-34.0	-35.0	23.6	0.00e+00	120	27	0	1527775232	40	6219
2026-01-15 21:01:45.68	348.05	12.78	-34.0	-35.0	23.6	0.00e+00	123	27	0	1530920960	40	6207
2026-01-15 21:01:46.69	347.89	12.73	-34.2	-35.2	23.4	0.00e+00	122	27	0	1534066688	40	6364
2026-01-15 21:01:47.70	347.72	12.68	-34.3	-35.2	23.3	0.00e+00	123	27	0	1538260992	40	6417
2026-01-15 21:01:48.72	347.55	12.62	-34.3	-35.2	23.3	0.00e+00	121	27	0	1541406720	40	6412
2026-01-15 21:01:49.72	347.39	12.57	-34.3	-35.3	23.2	0.00e+00	122	27	0	1543503872	40	6431
2026-01-15 21:01:50.74	347.22	12.52	-34.3	-35.3	23.1	0.00e+00	120	27	0	1546649600	40	6455
2026-01-15 21:01:51.74	347.06	12.47	-34.4	-35.4	23.1	0.00e+00	123	27	0	1549795328	40	6500
2026-01-15 21:01:52.75	346.90	12.41	-34.3	-35.3	23.2	0.00e+00	120	27	0	1553989632	40	6459
2026-01-15 21:01:53.76	346.74	12.36	-34.2	-35.2	23.3	0.00e+00	123	27	0	1557135360	40	6370
2026-01-15 21:01:54.78	346.58	12.30	-34.4	-35.4	23.1	0.00e+00	122	27	0	1560281088	40	6515
2026-01-15 21:01:55.78	346.42	12.25	-34.4	-35.4	23.1	0.00e+00	121	27	0	1563426816	40	6549
2026-01-15 21:01:56.79	346.26	12.20	-34.6	-35.6	22.9	0.00e+00	123	28	0	1565523968	40	6692
2026-01-15 21:01:57.80	346.10	12.14	-34.8	-35.8	22.9	0.00e+00	122	27	0	1569718272	42	6070
2026-01-15 21:01:58.81	345.94	12.09	-34.8	-35.8	22.8	0.00e+00	123	27	0	1572864000	42	6129
2026-01-15 21:01:59.82	345.78	12.03	-34.9	-35.9	22.8	0.00e+00	123	27	0	1576009728	42	6188
2026-01-15 21:02:00.83	345.62	11.98	-35.0	-36.0	22.7	0.00e+00	123	27	0	1579155456	42	6268
2026-01-15 21:02:01.84	345.46	11.92	-35.0	-36.0	22.6	0.00e+00	123	27	0	1582301184	42	6272
2026-01-15 21:02:02.85	345.31	11.87	-35.0	-36.1	22.6	0.00e+00	122	27	0	1585446912	42	6304
2026-01-15 21:02:03.86	345.15	11.81	-35.1	-36.1	22.6	0.00e+00	122	27	0	1588592640	42	6313
2026-01-15 21:02:04.87	345.00	11.76	-34.9	-36.0	22.7	0.00e+00	122	27	0	1591738368	42	6206
2026-01-15 21:02:05.88	344.84	11.70	-35.0	-36.0	22.7	0.00e+00	120	27	0	1594884096	42	6227
2026-01-15 21:02:06.89	344.69	11.65	-35.0	-36.0	22.7	0.00e+00	122	27	0	1598029824	42	6237
2026-01-15 21:02:07.90	344.53	11.59	-35.1	-36.1	22.6	0.00e+00	120	27	0	1601175552	42	6315
2026-01-15 21:02:08.92	344.38	11.54	-35.1	-36.1	22.5	0.00e+00	122	27	0	1604321280	42	6341
2026-01-15 21:02:09.93	344.23	11.48	-35.3	-36.3	22.5	0.00e+00	122	27	0	1607467008	42	6498
2026-01-15 21:02:10.94	344.07	11.43	-35.5	-36.5	22.2	0.00e+00	122	27	0	1610612736	42	6618
2026-01-15 21:02:11.94	343.92	11.37	-35.5	-36.6	22.4	0.00e+00	123	27	0	1613758464	42	6661
2026-01-15 21:02:12.95	343.77	11.32	-35.4	-36.5	22.2	0.00e+00	120	27	0	1616904192	42	6605
2026-01-15 21:02:13.97	343.62	11.26	-35.4	-36.5	22.2	0.00e+00	122	27	0	1620049920	42	6594
2026-01-15 21:02:14.97	343.47	11.21	-35.4	-36.4	22.3	0.00e+00	120	27	0	1623195648	42	6559
2026-01-15 21:02:15.98	343.32	11.15	-35.3	-36.3	22.4	0.00e+00	122	27	0	1626341376	42	6443
2026-01-15 21:02:16.99	343.18	11.10	-35.4	-36.4	22.4	0.00e+00	123	27	0	1629487104	42	6561
2026-01-15 21:02:18.00	343.03	11.04	-35.3	-36.3	22.5	0.00e+00	120	27	0	1632632832	42	6439
2026-01-15 21:02:19.01	342.88	10.98	-35.2	-36.3	22.5	0.00e+00	122	27	0	1635778560	42	6426
2026-01-15 21:02:20.02	342.73	10.93	-35.1	-36.1	22.6	0.00e+00	120	27	0	1638924288	42	6311
2026-01-15 21:02:21.03	342.59	10.87	-34.9	-36.0	22.8	0.00e+00	122	27	0	1642070016	42	6208
2026-01-15 21:02:22.04	342.44	10.82	-35.0	-36.0	22.7	0.00e+00	122	27	0	1645215744	42	6218
2026-01-15 21:02:23.05	342.30	10.76	-35.0	-36.0	22.7	0.00e+00	123	27	0	1648361472	42	6239
2026-01-15 21:02:24.06	342.15	10.70	-35.0	-36.0	22.7	0.00e+00	120	27	0	1651507200	42	6270
2026-01-15 21:02:25.07	342.01	10.65	-35.1	-36.1	22.7	0.00e+00	123	27	0	1654652928	42	6318
2026-01-15 21:02:26.08	341.87	10.59	-35.2	-36.3	22.6	0.00e+00	120	27	0	1657798656	42	6433
2026-01-15 21:02:27.09	341.72	10.54	-35.1	-36.2	22.6	0.00e+00	123	27	0	1660944384	42	6371
2026-01-15 21:02:28.10	341.58	10.48	-35.2	-36.2	22.5	0.00e+00	123	27	0	1664090112	42	6387
2026-01-15 21:02:29.11	341.44	10.42	-35.2	-36.3	22.6	0.00e+00	122	27	0	1667235840	42	6451
2026-01-15 21:02:30.12	341.30	10.37	-35.1	-36.1	22.6	0.00e+00	122	27	0	1670381568	42	6338
2026-01-15 21:02:31.13	341.16	10.31	-35.2	-36.2	22.4	0.00e+00	123	27	0	1673527296	42	6416
2026-01-15 21:02:32.14	341.02	10.25	-35.0	-36.1	22.6	0.00e+00	123	27	0	1676673024	42	6282
2026-01-15 21:02:33.15	340.88	10.20	-35.1	-36.1	22.5	0.00e+00	123	27	0	1679818752	42	6314
2026-01-15 21:02:34.15	340.74	10.14	-34.9	-35.9	22.6	0.00e+00	122	27	0	1682964480	42	6182
2026-01-15 21:02:35.17	340.60	10.08	-35.1	-36.1	22.6	0.00e+00	120	27	0	1686110208	42	6304
2026-01-15 21:02:36.18	340.46	10.03	-35.0	-36.0	22.7	0.00e+00	123	27	0	1689255936	42	6235
2026-01-15 21:02:37.18	340.33	9.97	-35.1	-36.1	22.6	0.00e+00	123	27	0	1692401664	42	6289
2026-01-15 21:02:38.19	340.19	9.91	-35.1	-36.1	22.5	0.00e+00	123	27	0	1695547392	42	6345
2026-01-15 21:02:39.20	340.05	9.86	-35.0	-36.0	22.6	0.00e+00	123	27	0	1698693120	42	6242
2026-01-15 21:02:40.21	339.92	9.80	-35.1	-36.1	22.5	0.00e+00	123	27	0	1701838848	42	6290
2026-01-15 21:02:41.22	339.78	9.74	-35.2	-36.2	22.5	0.00e+00	123	27	0	1704984576	42	6391
2026-01-15 21:02:42.23	339.65	9.69	-35.0	-36.0	22.6	0.00e+00	122	27	0	1708130304	42	6262
2026-01-15 21:02:43.24	339.51	9.63	-35.1	-36.1	22.5	0.00e+00	122	27	0	1711276032	42	6347
2026-01-15 21:02:44.24	339.38	9.57	-35.2	-36.2	22.5	0.00e+00	120	27	0	1714421760	42	6387
2026-01-15 21:02:45.25	339.25	9.52	-35.3	-36.3	22.2	0.00e+00	122	27	0	1717567488	42	6483
2026-01-15 21:02:46.27	339.12	9.46	-35.2	-36.2	22.4	0.00e+00	122	27	0	1720713216	42	6401
2026-01-15 21:02:47.28	338.98	9.40	-35.3	-36.4	22.3	0.00e+00	123	27	0	1723858944	42	6507
2026-01-15 21:02:48.28	338.85	9.35	-35.2	-36.3	22.4	0.00e+00	123	27	0	1727004672	42	6438
2026-01-15 21:02:49.29	338.72	9.29	-35.1	-36.2	22.5	0.00e+00	123	27	0	1730150400	42	6356
2026-01-15 21:02:50.30	338.59	9.23	-35.2	-36.1	22.5	0.00e+00	123	27	0	1733296128	42	6346
2026-01-15 21:02:51.31	338.46	9.18	-35.3	-36.3	22.3	0.00e+00	123	27	0	1736441856	42	6480
2026-01-15 21:02:52.32	338.33	9.12	-35.4	-36.4	22.3	0.00e+00	120	27	0	1739587584	42	6553
2026-01-15 21:02:53.33	338.20	9.06	-35.4	-36.4	22.2	0.00e+00	123	27	0	1742733312	42	6541
2026-01-15 21:02:54.34	338.08	9.01	-35.6	-36.6	22.2	0.00e+00	122	27	0	1745879040	42	6692
2026-01-15 21:02:55.35	337.95	8.95	-35.5	-36.6	22.1	0.00e+00	123	27	0	1749024768	42	6678
2026-01-15 21:02:56.36	337.82	8.89	-35.6	-36.7	22.0	0.00e+00	120	27	0	1752170496	42	6758
2026-01-15 21:02:57.37	337.69	8.84	-35.7	-36.7	21.9	0.00e+00	122	27	0	1755316224	44	6060
2026-01-15 21:02:58.38	337.57	8.78	-35.7	-36.8	21.9	0.00e+00	123	27	0	1758461952	44	6066
2026-01-15 21:02:59.39	337.44	8.72	-35.8	-36.9	21.7	0.00e+00	122	27	0	1761607680	44	6188
2026-01-15 21:03:00.40	337.32	8.66	-35.8	-36.9	21.8	0.00e+00	120	27	0	1764753408	44	6137
2026-01-15 21:03:01.40	337.19	8.61	-35.8	-36.8	21.8	0.00e+00	120	27	0	1767899136	44	6102
2026-01-15 21:03:02.41	337.07	8.55	-35.9	-36.9	21.7	0.00e+00	123	27	0	1771044864	44	6176
2026-01-15 21:03:03.42	336.95	8.49	-35.9	-37.0	21.7	0.00e+00	123	27	0	1774190592	44	6236
2026-01-15 21:03:04.43	336.82	8.44	-35.6	-36.6	21.9	0.00e+00	122	27	0	1777336320	44	5982
2026-01-15 21:03:05.44	336.70	8.38	-35.6	-36.7	22.0	0.00e+00	120	27	0	1780482048	44	6007
2026-01-15 21:03:06.45	336.58	8.32	-35.6	-36.7	21.9	0.00e+00	123	27	0	1783627776	44	6027
2026-01-15 21:03:07.46	336.46	8.27	-35.6	-36.6	22.1	0.00e+00	123	27	0	1786773504	44	5954
2026-01-15 21:03:08.47	336.33	8.21	-35.7	-36.8	21.9	0.00e+00	123	27	0	1789919232	44	6073
2026-01-15 21:03:09.48	336.21	8.15	-35.8	-36.8	21.8	0.00e+00	122	27	0	1793064960	44	6112
2026-01-15 21:03:10.49	336.09	8.09	-35.9	-37.0	21.8	0.00e+00	123	27	0	1796210688	44	6228
2026-01-15 21:03:11.50	335.97	8.04	-35.7	-36.8	21.9	0.00e+00	123	27	0	1799356416	44	6092
2026-01-15 21:03:12.51	335.85	7.98	-35.8	-36.9	21.7	0.00e+00	123	27	0	1802502144	44	6172
2026-01-15 21:03:13.52	335.74	7.92	-35.9	-37.0	21.7	0.00e+00	123	27	0	1805647872	44	6219
2026-01-15 21:03:14.53	335.62	7.87	-36.0	-37.0	21.6	0.00e+00	123	27	0	1808793600	44	6273
2026-01-15 21:03:15.53	335.50	7.81	-35.9	-36.9	21.7	0.00e+00	123	27	0	1811939328	44	6201
2026-01-15 21:03:16.54	335.38	7.75	-36.0	-37.0	21.6	0.00e+00	123	27	0	1815085056	44	6262
2026-01-15 21:03:17.55	335.27	7.70	-35.8	-36.9	21.7	0.00e+00	123	27	0	1818230784	44	6170
2026-01-15 21:03:18.56	335.15	7.64	-35.8	-36.9	21.6	0.00e+00	123	27	0	1821376512	44	6147
2026-01-15 21:03:19.57	335.03	7.58	-35.6	-36.6	21.9	0.00e+00	122	27	0	1824522240	44	5972
2026-01-15 21:03:20.58	334.92	7.53	-35.6	-36.6	21.8	0.00e+00	122	27	0	1827667968	44	5971
2026-01-15 21:03:21.59	334.80	7.47	-35.6	-36.6	21.8	0.00e+00	122	27	0	1830813696	44	5963
2026-01-15 21:03:22.60	334.69	7.41	-35.5	-36.5	21.9	0.00e+00	123	27	0	1833959424	44	5921
2026-01-15 21:03:23.61	334.57	7.36	-35.3	-36.3	22.0	0.00e+00	120	27	0	1837105152	44	5783
2026-01-15 21:03:24.62	334.46	7.30	-35.4	-36.4	22.0	0.00e+00	123	27	0	1840250880	44	5818
2026-01-15 21:03:25.63	334.35	7.24	-35.5	-36.5	22.1	0.00e+00	123	27	0	1843396608	44	5881
2026-01-15 21:03:26.64	334.23	7.19	-35.4	-36.4	22.1	0.00e+00	123	27	0	1846542336	44	5811
2026-01-15 21:03:27.65	334.12	7.13	-35.5	-36.5	21.9	0.00e+00	120	27	0	1849688064	44	5906
2026-01-15 21:03:28.66	334.01	7.07	-35.7	-36.7	21.8	0.00e+00	123	27	0	1852833792	44	6034
2026-01-15 21:03:29.67	333.90	7.01	-35.7	-36.8	21.7	0.00e+00	122	27	0	1855979520	44	6074
2026-01-15 21:03:30.68	333.79	6.96	-35.9	-37.0	21.5	0.00e+00	123	27	0	1859125248	44	6214
2026-01-15 21:03:31.69	333.68	6.90	-35.8	-36.9	21.6	0.00e+00	123	27	0	1862270976	44	6173
2026-01-15 21:03:32.70	333.57	6.84	-35.9	-37.0	21.5	0.00e+00	122	27	0	1865416704	44	6247
2026-01-15 21:03:33.70	333.46	6.79	-35.9	-37.0	21.5	0.00e+00	123	27	0	1868562432	44	6214
2026-01-15 21:03:34.71	333.35	6.73	-36.0	-37.1	21.4	0.00e+00	122	27	0	1871708160	44	6308
2026-01-15 21:03:35.73	333.24	6.68	-35.9	-37.0	21.4	0.00e+00	122	27	0	1874853888	44	6219
2026-01-15 21:03:36.74	333.13	6.62	-35.9	-37.0	21.5	0.00e+00	121	27	0	1877999616	44	6219
2026-01-15 21:03:37.75	333.02	6.56	-35.9	-37.0	21.4	0.00e+00	123	27	0	1881145344	44	6237
2026-01-15 21:03:38.75	332.92	6.51	-35.9	-37.0	21.4	0.00e+00	123	27	0	1884291072	44	6222
2026-01-15 21:03:39.76	332.81	6.45	-35.9	-37.0	21.5	0.00e+00	122	27	0	1887436800	44	6234
2026-01-15 21:03:40.77	332.70	6.39	-35.8	-36.8	21.6	0.00e+00	123	27	0	1890582528	44	6112
2026-01-15 21:03:41.78	332.60	6.34	-35.5	-36.5	21.9	0.00e+00	123	27	0	1893728256	44	5890
2026-01-15 21:03:42.79	332.49	6.28	-35.6	-36.6	21.8	0.00e+00	123	27	0	1896873984	44	5965
2026-01-15 21:03:43.80	332.38	6.22	-35.7	-36.7	21.7	0.00e+00	122	27	0	1900019712	44	6051
2026-01-15 21:03:44.81	332.28	6.17	-35.6	-36.7	21.7	0.00e+00	123	27	0	1904214016	44	6025
2026-01-15 21:03:45.82	332.18	6.11	-35.8	-36.9	21.6	0.00e+00	123	27	0	1906311168	44	6136
2026-01-15 21:03:46.82	332.07	6.06	-35.9	-36.9	21.5	0.00e+00	122	27	0	1909456896	44	6192
2026-01-15 21:03:47.83	331.97	6.00	-36.1	-37.1	21.3	0.00e+00	122	27	0	1912602624	44	6345
2026-01-15 21:03:48.84	331.86	5.94	-36.3	-37.4	21.1	0.00e+00	122	27	0	1915748352	44	6536
2026-01-15 21:03:49.85	331.76	5.89	-36.6	-37.7	20.8	0.00e+00	123	27	0	1918894080	44	6765
2026-01-15 21:03:50.86	331.66	5.83	-36.8	-38.0	20.5	0.00e+00	123	27	0	1923088384	46	6235
2026-01-15 21:03:51.87	331.56	5.78	-36.7	-37.9	20.7	0.00e+00	120	27	0	1926234112	46	6138
2026-01-15 21:03:52.88	331.46	5.72	-36.8	-38.0	20.5	0.00e+00	122	27	0	1928331264	46	6241
2026-01-15 21:03:53.89	331.35	5.66	-37.0	-38.2	20.4	0.00e+00	123	27	0	1931476992	46	6356
2026-01-15 21:03:54.90	331.25	5.61	-37.1	-38.2	20.3	0.00e+00	123	27	0	1934622720	46	6423
2026-01-15 21:03:55.91	331.15	5.55	-37.1	-38.3	20.2	0.00e+00	122	27	0	1938817024	46	6455
2026-01-15 21:03:56.91	331.05	5.50	-37.2	-38.4	20.1	0.00e+00	120	27	0	1941962752	46	6531
2026-01-15 21:03:57.92	330.95	5.44	-36.9	-38.1	20.3	0.00e+00	123	27	0	1945108480	46	6348
2026-01-15 21:03:58.93	330.85	5.38	-36.8	-38.0	20.4	0.00e+00	123	27	0	1948254208	46	6237
2026-01-15 21:03:59.94	330.76	5.33	-36.7	-37.9	20.5	0.00e+00	121	27	0	1951399936	46	6157
2026-01-15 21:04:00.95	330.66	5.27	-36.7	-37.9	20.5	0.00e+00	123	27	0	1954545664	46	6153
