passes_logs/2026/01/15/R4.6S_Anadyr/R4.6S_Anadyr__20260115_190359_FENGYUN_3D_rec.log

#Pass ID: 20260115_190359_FENGYUN 3D
#Satellite: FENGYUN 3D
#Configuration: FENGYUN 3D
#almurnet v.1.7.20251203
#Start time: 2026-01-15 19:04:03

#Version: 2.2.20231116
#Station: R4.6S_Anadyr
#Location: 177.4865 lon 64.73178 lat
#TLE: 1 43010U 17072A   26014.65117763 -.00000217  00000+0 -80772-4 0  9993
#TLE: 2 43010  98.9933 346.4618 0002330 108.4699 251.6730 14.19694700423204

#Time	Az	El	Level	Level2	SNR	BER	BlckErr	Temp	State	Recorded	gain1	gain2
2026-01-15 19:04:03.09	29.50	0.18	-47.9	-58.7	3.3	8.40e-01	0	26	0	0	60	31209
2026-01-15 19:04:04.10	29.45	0.24	-48.0	-60.2	3.6	8.46e-01	0	26	104	0	60	37171
2026-01-15 19:04:05.11	29.40	0.29	-48.1	-60.3	3.6	8.46e-01	0	26	104	0	60	37274
2026-01-15 19:04:06.12	29.35	0.35	-48.1	-60.2	3.6	8.46e-01	0	26	104	0	60	37188
2026-01-15 19:04:07.13	29.29	0.41	-48.1	-60.2	3.6	8.45e-01	0	26	104	0	60	37065
2026-01-15 19:04:08.14	29.24	0.46	-47.9	-60.2	3.6	8.44e-01	0	26	104	0	60	36990
2026-01-15 19:04:09.15	29.19	0.52	-47.9	-60.0	3.6	8.45e-01	0	26	104	0	60	36285
2026-01-15 19:04:10.16	29.14	0.57	-47.9	-59.9	3.6	8.45e-01	0	26	104	0	60	35905
2026-01-15 19:04:11.16	29.09	0.63	-47.7	-59.8	3.6	8.44e-01	0	26	104	0	60	35409
2026-01-15 19:04:12.17	29.03	0.69	-47.6	-59.7	3.6	8.45e-01	0	26	104	0	60	34984
2026-01-15 19:04:13.18	28.98	0.74	-47.4	-59.5	3.6	8.46e-01	0	26	104	0	60	34246
2026-01-15 19:04:14.19	28.93	0.80	-47.2	-59.3	3.6	8.45e-01	0	26	104	0	60	33248
2026-01-15 19:04:15.20	28.87	0.86	-46.8	-58.9	3.6	8.47e-01	0	26	104	0	60	31947
2026-01-15 19:04:16.21	28.82	0.91	-46.3	-58.4	3.6	8.46e-01	0	26	104	0	60	29902
2026-01-15 19:04:17.22	28.77	0.97	-46.3	-58.3	3.6	8.47e-01	0	26	104	0	60	29677
2026-01-15 19:04:18.23	28.71	1.03	-46.3	-58.3	3.6	8.46e-01	0	26	104	0	60	29690
2026-01-15 19:04:19.24	28.66	1.08	-46.3	-58.3	3.6	8.45e-01	0	26	104	0	60	29628
2026-01-15 19:04:20.25	28.60	1.14	-46.3	-58.3	3.6	8.45e-01	0	26	104	0	60	29675
2026-01-15 19:04:21.26	28.55	1.20	-46.3	-58.3	3.6	8.45e-01	0	26	104	0	60	29721
2026-01-15 19:04:22.27	28.49	1.26	-46.3	-58.3	3.6	8.46e-01	0	26	104	0	60	29654
2026-01-15 19:04:23.28	28.44	1.31	-46.3	-58.4	3.6	8.45e-01	0	26	104	0	60	29908
2026-01-15 19:04:24.29	28.38	1.37	-46.3	-58.3	3.6	8.45e-01	0	26	104	0	60	29762
2026-01-15 19:04:25.30	28.33	1.43	-46.3	-58.4	3.6	8.44e-01	0	26	104	0	60	29932
2026-01-15 19:04:26.31	28.27	1.49	-46.3	-58.4	3.6	8.45e-01	0	27	104	0	60	30009
2026-01-15 19:04:27.32	28.21	1.54	-46.3	-58.4	3.6	8.46e-01	0	27	104	0	60	29942
2026-01-15 19:04:28.33	28.16	1.60	-46.3	-58.3	3.6	8.45e-01	0	27	104	0	60	29836
2026-01-15 19:04:29.34	28.10	1.66	-46.3	-58.3	3.6	8.45e-01	0	26	104	0	60	29700
2026-01-15 19:04:30.35	28.05	1.72	-46.3	-58.4	3.6	8.46e-01	0	26	104	0	60	29983
2026-01-15 19:04:31.36	27.99	1.78	-46.2	-58.2	3.6	8.44e-01	0	27	104	0	60	29295
2026-01-15 19:04:32.36	27.93	1.83	-46.2	-58.0	3.6	8.46e-01	0	27	104	0	60	28555
2026-01-15 19:04:33.37	27.87	1.89	-46.2	-57.6	3.6	8.46e-01	0	27	104	0	60	27295
2026-01-15 19:04:34.38	27.82	1.95	-46.2	-57.7	3.6	8.45e-01	0	27	104	0	60	27849
2026-01-15 19:04:35.39	27.76	2.01	-46.2	-57.6	3.6	8.45e-01	0	27	104	0	60	27514
2026-01-15 19:04:36.40	27.70	2.07	-46.2	-57.7	3.6	8.46e-01	0	27	104	0	60	27761
2026-01-15 19:04:37.41	27.64	2.13	-46.2	-57.9	3.6	8.46e-01	0	27	104	0	60	28356
2026-01-15 19:04:38.42	27.58	2.18	-46.2	-58.3	3.6	8.44e-01	0	27	104	0	60	29565
2026-01-15 19:04:39.43	27.52	2.24	-46.2	-58.4	3.6	8.46e-01	0	27	104	0	60	29934
2026-01-15 19:04:40.44	27.46	2.30	-46.2	-58.3	3.6	8.46e-01	0	27	104	0	60	29803
2026-01-15 19:04:41.45	27.40	2.36	-46.2	-58.3	3.6	8.45e-01	0	27	104	0	60	29689
2026-01-15 19:04:42.46	27.35	2.42	-46.2	-58.3	3.6	8.45e-01	0	27	104	0	60	29748
2026-01-15 19:04:43.47	27.29	2.48	-46.2	-58.3	3.6	8.45e-01	0	27	104	0	60	29874
2026-01-15 19:04:44.48	27.22	2.54	-46.2	-58.1	3.6	8.45e-01	0	27	104	0	60	28919
2026-01-15 19:04:45.49	27.16	2.60	-46.2	-57.3	3.6	8.46e-01	0	27	104	0	60	26596
2026-01-15 19:04:46.50	27.10	2.66	-46.1	-56.7	3.6	8.46e-01	0	27	104	0	60	24716
2026-01-15 19:04:47.51	27.04	2.72	-46.1	-56.5	3.6	8.45e-01	0	27	104	0	60	24212
2026-01-15 19:04:48.52	26.98	2.78	-46.1	-56.9	3.6	8.44e-01	0	27	104	0	60	25344
2026-01-15 19:04:49.53	26.92	2.84	-46.2	-57.5	3.6	8.46e-01	0	27	104	0	60	27027
2026-01-15 19:04:50.54	26.86	2.90	-46.2	-57.6	3.6	8.45e-01	0	27	104	0	60	27345
2026-01-15 19:04:51.55	26.80	2.96	-45.9	-54.9	4.0	8.44e-01	0	27	104	0	60	20144
2026-01-15 19:04:52.56	26.73	3.02	-45.4	-50.8	5.6	7.45e-01	0	27	0	0	60	12599
2026-01-15 19:04:53.56	26.67	3.08	-44.6	-48.9	7.7	1.46e-01	0	27	0	5242880	60	10115
2026-01-15 19:04:54.57	26.61	3.14	-43.8	-47.2	9.8	2.45e-02	0	27	0	10485760	60	8262
2026-01-15 19:04:55.58	26.55	3.20	-43.3	-46.2	10.9	5.49e-03	0	27	0	16777216	60	7396
2026-01-15 19:04:56.59	26.48	3.26	-43.1	-46.0	11.1	2.26e-03	0	27	0	22020096	60	7202
2026-01-15 19:04:57.60	26.42	3.32	-43.3	-46.3	10.7	2.25e-03	0	27	0	28311552	60	7456
2026-01-15 19:04:58.61	26.35	3.38	-45.9	-53.5	3.9	2.00e-01	0	27	0	33554432	60	17051
2026-01-15 19:04:59.62	26.29	3.44	-46.0	-55.1	3.9	8.45e-01	0	27	104	33554432	60	20492
2026-01-15 19:05:00.63	26.22	3.50	-43.3	-46.5	7.8	5.32e-03	0	27	0	33554432	60	7610
2026-01-15 19:05:01.64	26.16	3.56	-40.0	-41.1	18.6	3.49e-01	0	27	0	35651584	60	4115
2026-01-15 19:05:02.65	26.09	3.62	-46.2	-56.6	3.6	2.86e-01	0	27	104	40894464	60	24487
2026-01-15 19:05:03.66	26.03	3.68	-39.9	-41.3	6.1	8.42e-01	0	27	104	40894464	60	4201
2026-01-15 19:05:04.67	25.96	3.74	-35.2	-36.0	21.5	0.00e+00	0	27	0	40894464	44	5721
2026-01-15 19:05:05.68	25.90	3.80	-35.4	-36.3	21.3	0.00e+00	0	27	0	47185920	44	5903
2026-01-15 19:05:06.70	25.83	3.87	-35.3	-36.2	21.3	0.00e+00	0	27	0	52428800	44	5840
2026-01-15 19:05:07.71	25.76	3.93	-35.3	-36.1	21.3	0.00e+00	0	27	0	58720256	44	5807
2026-01-15 19:05:08.72	25.70	3.99	-35.5	-36.3	21.2	0.00e+00	0	27	0	63963136	44	5953
2026-01-15 19:05:09.73	25.63	4.05	-35.3	-36.1	21.4	0.00e+00	0	27	0	69206016	44	5825
2026-01-15 19:05:10.74	25.56	4.11	-35.1	-36.0	21.6	0.00e+00	0	27	0	75497472	44	5714
2026-01-15 19:05:11.75	25.49	4.17	-35.4	-36.3	21.3	0.00e+00	0	27	0	80740352	44	5903
2026-01-15 19:05:12.76	25.43	4.24	-34.9	-35.7	21.9	0.00e+00	0	27	0	87031808	44	5565
2026-01-15 19:05:13.77	25.36	4.30	-34.8	-35.6	22.0	0.00e+00	0	27	0	92274688	42	6130
2026-01-15 19:05:14.78	25.29	4.36	-34.9	-35.7	21.8	0.00e+00	0	27	0	97517568	42	6206
2026-01-15 19:05:15.78	25.22	4.42	-35.0	-35.8	21.9	0.00e+00	0	27	0	103809024	42	6297
2026-01-15 19:05:16.79	25.15	4.49	-34.8	-35.6	22.0	0.00e+00	0	27	0	109051904	42	6146
2026-01-15 19:05:17.80	25.08	4.55	-34.6	-35.4	22.3	0.00e+00	0	27	0	114294784	42	5990
2026-01-15 19:05:18.81	25.01	4.61	-34.4	-35.2	22.4	0.00e+00	0	27	0	120586240	42	5860
2026-01-15 19:05:19.82	24.94	4.67	-34.6	-35.4	22.3	0.00e+00	0	27	0	125829120	42	5983
2026-01-15 19:05:20.83	24.87	4.74	-34.6	-35.4	22.3	0.00e+00	0	27	0	132120576	42	5982
2026-01-15 19:05:21.84	24.80	4.80	-34.7	-35.5	22.2	0.00e+00	0	27	0	137363456	42	6063
2026-01-15 19:05:22.85	24.73	4.86	-34.4	-35.2	22.4	0.00e+00	0	27	0	143654912	42	5870
2026-01-15 19:05:23.86	24.66	4.93	-34.5	-35.3	22.4	0.00e+00	0	27	0	148897792	42	5962
2026-01-15 19:05:24.87	24.58	4.99	-34.4	-35.2	22.5	0.00e+00	0	27	0	155189248	42	5848
2026-01-15 19:05:25.88	24.51	5.05	-34.4	-35.2	22.5	0.00e+00	0	27	0	160432128	42	5892
2026-01-15 19:05:26.89	24.44	5.12	-34.4	-35.1	22.6	0.00e+00	0	27	0	165675008	42	5817
2026-01-15 19:05:27.91	24.37	5.18	-34.4	-35.2	22.5	0.00e+00	0	27	0	171966464	42	5865
2026-01-15 19:05:28.92	24.29	5.24	-34.3	-35.1	22.6	0.00e+00	0	27	0	177209344	42	5762
2026-01-15 19:05:29.93	24.22	5.31	-34.4	-35.1	22.6	0.00e+00	0	27	0	183500800	42	5808
2026-01-15 19:05:30.94	24.15	5.37	-34.5	-35.2	22.5	0.00e+00	0	27	0	188743680	42	5884
2026-01-15 19:05:31.95	24.07	5.44	-34.6	-35.4	22.4	0.00e+00	0	27	0	193986560	42	5968
2026-01-15 19:05:32.96	24.00	5.50	-34.4	-35.2	22.6	0.00e+00	0	27	0	200278016	42	5851
2026-01-15 19:05:33.97	23.92	5.56	-34.4	-35.2	22.6	0.00e+00	0	27	0	205520896	42	5864
2026-01-15 19:05:34.98	23.85	5.63	-34.3	-35.1	22.7	0.00e+00	0	27	0	211812352	42	5765
2026-01-15 19:05:35.99	23.77	5.69	-34.3	-35.1	22.8	0.00e+00	0	27	0	217055232	42	5768
2026-01-15 19:05:37.00	23.69	5.76	-34.1	-34.9	22.9	0.00e+00	0	27	0	222298112	42	5652
2026-01-15 19:05:38.01	23.62	5.82	-34.2	-34.9	22.9	0.00e+00	0	27	0	228589568	42	5679
2026-01-15 19:05:39.02	23.54	5.89	-34.2	-35.0	22.8	0.00e+00	0	27	0	233832448	42	5717
2026-01-15 19:05:40.03	23.46	5.95	-34.3	-35.0	22.8	0.00e+00	0	27	0	240123904	42	5753
2026-01-15 19:05:41.04	23.39	6.02	-34.3	-35.0	22.9	0.00e+00	0	28	0	245366784	42	5728
2026-01-15 19:05:42.05	23.31	6.08	-34.2	-35.0	22.8	0.00e+00	0	28	0	251658240	42	5723
2026-01-15 19:05:43.06	23.23	6.15	-34.2	-35.0	22.8	0.00e+00	0	28	0	256901120	42	5738
2026-01-15 19:05:44.07	23.15	6.21	-34.4	-35.2	22.7	0.00e+00	0	28	0	263192576	42	5847
2026-01-15 19:05:45.08	23.07	6.28	-34.2	-35.0	22.9	0.00e+00	0	28	0	268435456	42	5720
2026-01-15 19:05:46.09	22.99	6.34	-34.2	-35.0	22.9	0.00e+00	0	28	0	273678336	42	5731
2026-01-15 19:05:47.10	22.91	6.41	-34.3	-35.1	22.9	0.00e+00	0	27	0	279969792	42	5794
2026-01-15 19:05:48.11	22.83	6.47	-34.4	-35.2	22.7	0.00e+00	0	28	0	285212672	42	5853
2026-01-15 19:05:49.12	22.75	6.54	-34.4	-35.1	22.8	0.00e+00	0	28	0	291504128	42	5808
2026-01-15 19:05:50.13	22.67	6.61	-34.2	-35.0	22.9	0.00e+00	0	28	0	296747008	42	5700
2026-01-15 19:05:51.14	22.59	6.67	-34.2	-35.0	22.9	0.00e+00	0	28	0	301989888	42	5705
2026-01-15 19:05:52.16	22.51	6.74	-34.3	-35.0	23.0	0.00e+00	0	28	0	308281344	42	5739
2026-01-15 19:05:53.17	22.43	6.81	-34.3	-35.0	22.9	0.00e+00	0	28	0	313524224	42	5742
2026-01-15 19:05:54.17	22.35	6.87	-34.2	-34.9	23.0	0.00e+00	0	28	0	319815680	42	5689
2026-01-15 19:05:55.18	22.26	6.94	-34.2	-34.9	23.0	0.00e+00	0	28	0	325058560	42	5678
2026-01-15 19:05:56.20	22.18	7.01	-34.1	-34.8	23.1	0.00e+00	0	28	0	330301440	42	5625
2026-01-15 19:05:57.21	22.10	7.07	-34.1	-34.8	23.2	0.00e+00	0	28	0	336592896	42	5603
2026-01-15 19:05:58.22	22.01	7.14	-34.1	-34.9	23.0	0.00e+00	0	28	0	341835776	42	5668
2026-01-15 19:05:59.23	21.93	7.21	-34.1	-34.9	23.1	0.00e+00	0	28	0	348127232	42	5634
2026-01-15 19:06:00.24	21.84	7.27	-34.2	-34.9	22.9	0.00e+00	0	28	0	353370112	42	5692
2026-01-15 19:06:01.25	21.76	7.34	-34.3	-35.1	22.9	0.00e+00	0	28	0	359661568	42	5800
2026-01-15 19:06:02.26	21.67	7.41	-34.0	-34.8	23.2	0.00e+00	0	28	0	364904448	42	5591
2026-01-15 19:06:03.27	21.59	7.48	-34.1	-34.9	23.1	0.00e+00	0	28	0	371195904	42	5666
2026-01-15 19:06:04.28	21.50	7.54	-33.9	-34.7	23.3	0.00e+00	0	28	0	376438784	42	5528
2026-01-15 19:06:05.29	21.41	7.61	-33.9	-34.7	23.3	0.00e+00	0	28	0	381681664	42	5525
2026-01-15 19:06:06.30	21.32	7.68	-34.0	-34.7	23.2	0.00e+00	0	28	0	387973120	42	5549
2026-01-15 19:06:07.32	21.24	7.75	-33.9	-34.6	23.4	0.00e+00	0	28	0	393216000	42	5480
2026-01-15 19:06:08.33	21.15	7.82	-33.7	-34.5	23.5	0.00e+00	0	28	0	399507456	40	6054
2026-01-15 19:06:09.34	21.06	7.88	-33.7	-34.5	23.6	0.00e+00	0	28	0	404750336	40	6039
2026-01-15 19:06:10.35	20.97	7.95	-33.6	-34.4	23.6	0.00e+00	0	28	0	409993216	40	5968
2026-01-15 19:06:11.36	20.88	8.02	-33.9	-34.6	23.4	0.00e+00	0	28	0	416284672	40	6172
2026-01-15 19:06:12.37	20.79	8.09	-33.6	-34.3	23.7	0.00e+00	0	28	0	421527552	40	5960
2026-01-15 19:06:13.38	20.70	8.16	-33.4	-34.1	23.9	0.00e+00	0	28	0	427819008	40	5775
2026-01-15 19:06:14.39	20.61	8.23	-33.5	-34.3	23.7	0.00e+00	0	28	0	433061888	40	5914
2026-01-15 19:06:15.40	20.52	8.30	-33.5	-34.2	23.8	0.00e+00	0	28	0	438304768	40	5867
2026-01-15 19:06:16.41	20.43	8.36	-33.6	-34.3	23.7	0.00e+00	0	28	0	444596224	40	5944
2026-01-15 19:06:17.42	20.33	8.43	-33.5	-34.2	23.8	0.00e+00	0	28	0	449839104	40	5884
2026-01-15 19:06:18.43	20.24	8.50	-33.5	-34.2	23.8	0.00e+00	0	28	0	456130560	40	5865
2026-01-15 19:06:19.44	20.15	8.57	-33.6	-34.3	23.7	0.00e+00	0	28	0	461373440	40	5956
2026-01-15 19:06:20.45	20.06	8.64	-33.6	-34.3	23.7	0.00e+00	0	28	0	467664896	40	5923
2026-01-15 19:06:21.46	19.96	8.71	-33.6	-34.4	23.7	0.00e+00	0	28	0	472907776	40	5969
2026-01-15 19:06:22.47	19.87	8.78	-33.5	-34.2	23.7	0.00e+00	0	28	0	479199232	40	5891
2026-01-15 19:06:23.48	19.77	8.85	-33.5	-34.2	23.8	0.00e+00	0	28	0	484442112	40	5888
2026-01-15 19:06:24.49	19.68	8.92	-33.4	-34.2	23.9	0.00e+00	0	28	0	489684992	40	5830
2026-01-15 19:06:25.50	19.58	8.99	-33.4	-34.2	23.9	0.00e+00	0	28	0	495976448	40	5842
2026-01-15 19:06:26.51	19.48	9.06	-33.4	-34.2	23.9	0.00e+00	0	28	0	501219328	40	5844
2026-01-15 19:06:27.52	19.39	9.13	-33.4	-34.1	24.0	0.00e+00	0	28	0	507510784	40	5776
2026-01-15 19:06:28.53	19.29	9.20	-33.4	-34.1	23.9	0.00e+00	0	28	0	512753664	40	5803
2026-01-15 19:06:29.54	19.19	9.27	-33.2	-33.9	24.1	0.00e+00	0	28	0	517996544	40	5685
2026-01-15 19:06:30.55	19.09	9.34	-33.3	-34.0	24.1	0.00e+00	0	28	0	524288000	40	5726
2026-01-15 19:06:31.56	19.00	9.41	-33.3	-34.0	24.1	0.00e+00	0	28	0	529530880	40	5728
2026-01-15 19:06:32.56	18.90	9.48	-33.4	-34.1	24.0	0.00e+00	0	28	0	535822336	40	5779
2026-01-15 19:06:33.57	18.80	9.56	-33.4	-34.2	23.9	0.00e+00	0	28	0	541065216	40	5846
2026-01-15 19:06:34.58	18.70	9.63	-33.2	-34.0	24.1	0.00e+00	0	28	0	546308096	40	5704
2026-01-15 19:06:35.59	18.60	9.70	-33.3	-34.0	24.2	0.00e+00	0	28	0	552599552	40	5726
2026-01-15 19:06:36.61	18.49	9.77	-33.2	-33.9	24.2	0.00e+00	0	28	0	557842432	40	5668
2026-01-15 19:06:37.61	18.39	9.84	-33.1	-33.8	24.2	0.00e+00	0	28	0	564133888	40	5618
2026-01-15 19:06:38.62	18.29	9.91	-33.0	-33.7	24.4	0.00e+00	0	28	0	569376768	40	5503
2026-01-15 19:06:39.64	18.19	9.98	-32.9	-33.6	24.4	0.00e+00	0	28	0	575668224	40	5484
2026-01-15 19:06:40.65	18.08	10.06	-32.9	-33.6	24.5	0.00e+00	0	28	0	580911104	40	5456
2026-01-15 19:06:41.65	17.98	10.13	-33.0	-33.7	24.4	0.00e+00	0	28	0	587202560	40	5531
2026-01-15 19:06:42.67	17.87	10.20	-32.8	-33.5	24.6	0.00e+00	0	28	0	592445440	40	5429
2026-01-15 19:06:43.67	17.77	10.27	-32.9	-33.6	24.6	0.00e+00	0	28	0	597688320	38	6141
2026-01-15 19:06:44.68	17.67	10.34	-32.9	-33.6	24.6	0.00e+00	0	28	0	603979776	38	6127
2026-01-15 19:06:45.70	17.56	10.42	-32.9	-33.6	24.6	0.00e+00	0	28	0	609222656	38	6114
2026-01-15 19:06:46.70	17.45	10.49	-33.0	-33.6	24.4	0.00e+00	0	28	0	615514112	38	6160
2026-01-15 19:06:47.72	17.34	10.56	-32.8	-33.5	24.6	0.00e+00	0	28	0	620756992	38	6063
2026-01-15 19:06:48.73	17.24	10.64	-33.0	-33.7	24.5	0.00e+00	0	28	0	625999872	38	6193
2026-01-15 19:06:49.73	17.13	10.71	-32.9	-33.6	24.6	0.00e+00	0	28	0	632291328	38	6114
2026-01-15 19:06:50.74	17.02	10.78	-33.0	-33.7	24.5	0.00e+00	0	28	0	637534208	38	6191
2026-01-15 19:06:51.75	16.91	10.85	-33.0	-33.7	24.4	0.00e+00	0	28	0	642777088	38	6215
2026-01-15 19:06:52.76	16.80	10.93	-33.0	-33.7	24.5	0.00e+00	0	28	0	649068544	38	6211
2026-01-15 19:06:53.77	16.69	11.00	-32.9	-33.6	24.5	0.00e+00	0	28	0	654311424	38	6149
2026-01-15 19:06:54.78	16.58	11.07	-32.8	-33.5	24.6	0.00e+00	0	28	0	660602880	38	6087
2026-01-15 19:06:55.79	16.47	11.15	-32.8	-33.5	24.7	0.00e+00	0	28	0	665845760	38	6076
2026-01-15 19:06:56.80	16.36	11.22	-32.7	-33.4	24.8	0.00e+00	0	28	0	672137216	38	6010
2026-01-15 19:06:57.81	16.24	11.29	-32.6	-33.3	24.8	0.00e+00	0	28	0	677380096	38	5944
2026-01-15 19:06:58.82	16.13	11.37	-32.6	-33.3	24.8	0.00e+00	0	28	0	683671552	38	5940
2026-01-15 19:06:59.83	16.02	11.44	-32.6	-33.3	24.8	0.00e+00	0	28	0	688914432	38	5959
2026-01-15 19:07:00.84	15.90	11.52	-32.8	-33.5	24.7	0.00e+00	0	28	0	694157312	38	6067
2026-01-15 19:07:01.85	15.79	11.59	-32.8	-33.5	24.6	0.00e+00	0	29	0	700448768	38	6091
2026-01-15 19:07:02.87	15.67	11.67	-32.8	-33.5	24.7	0.00e+00	0	28	0	705691648	38	6053
2026-01-15 19:07:03.88	15.55	11.74	-32.9	-33.6	24.5	0.00e+00	0	29	0	711983104	38	6128
2026-01-15 19:07:04.89	15.44	11.82	-32.8	-33.6	24.7	0.00e+00	0	28	0	717225984	38	6104
2026-01-15 19:07:05.90	15.32	11.89	-32.9	-33.7	24.5	0.00e+00	0	29	0	722468864	38	6189
2026-01-15 19:07:06.91	15.20	11.96	-32.8	-33.5	24.7	0.00e+00	0	29	0	728760320	38	6072
2026-01-15 19:07:07.91	15.08	12.04	-32.6	-33.3	24.8	0.00e+00	0	28	0	734003200	38	5948
2026-01-15 19:07:08.93	14.96	12.11	-32.6	-33.3	24.9	0.00e+00	0	29	0	740294656	38	5933
2026-01-15 19:07:09.94	14.84	12.19	-32.6	-33.3	24.9	0.00e+00	0	29	0	745537536	38	5943
2026-01-15 19:07:10.95	14.72	12.26	-32.6	-33.3	24.9	0.00e+00	0	29	0	750780416	38	5909
2026-01-15 19:07:11.96	14.60	12.34	-32.6	-33.3	24.9	0.00e+00	0	29	0	757071872	38	5942
2026-01-15 19:07:12.97	14.48	12.42	-32.5	-33.2	25.0	0.00e+00	0	28	0	762314752	38	5842
2026-01-15 19:07:13.98	14.35	12.49	-32.5	-33.2	25.0	0.00e+00	0	29	0	768606208	38	5879
2026-01-15 19:07:14.99	14.23	12.57	-32.5	-33.2	25.0	0.00e+00	0	28	0	773849088	38	5886
2026-01-15 19:07:16.00	14.11	12.64	-32.5	-33.1	25.0	0.00e+00	0	29	0	780140544	38	5825
2026-01-15 19:07:17.01	13.98	12.72	-32.4	-33.1	25.1	0.00e+00	0	29	0	785383424	38	5819
2026-01-15 19:07:18.02	13.86	12.79	-32.5	-33.2	25.0	0.00e+00	0	29	0	791674880	38	5884
2026-01-15 19:07:19.03	13.73	12.87	-32.3	-33.0	25.1	0.00e+00	0	28	0	796917760	38	5740
2026-01-15 19:07:20.04	13.60	12.95	-32.5	-33.1	25.1	0.00e+00	0	29	0	802160640	38	5824
2026-01-15 19:07:21.05	13.48	13.02	-32.3	-33.0	25.2	0.00e+00	0	29	0	808452096	38	5740
2026-01-15 19:07:22.06	13.35	13.10	-32.5	-33.2	25.1	0.00e+00	0	29	0	813694976	38	5847
2026-01-15 19:07:23.07	13.22	13.17	-32.2	-32.9	25.3	0.00e+00	0	29	0	819986432	38	5662
2026-01-15 19:07:24.08	13.09	13.25	-32.4	-33.1	25.1	0.00e+00	0	29	0	825229312	38	5804
2026-01-15 19:07:25.09	12.96	13.33	-32.3	-33.0	25.2	0.00e+00	0	29	0	830472192	38	5700
2026-01-15 19:07:26.10	12.83	13.40	-32.1	-32.8	25.4	0.00e+00	0	28	0	836763648	38	5599
2026-01-15 19:07:27.11	12.70	13.48	-32.2	-32.9	25.2	0.00e+00	0	29	0	842006528	38	5665
2026-01-15 19:07:28.12	12.57	13.56	-32.1	-32.8	25.4	0.00e+00	0	29	0	848297984	38	5611
2026-01-15 19:07:29.13	12.43	13.64	-32.1	-32.8	25.3	0.00e+00	0	29	0	853540864	38	5585
2026-01-15 19:07:30.14	12.30	13.71	-32.3	-33.0	25.4	0.00e+00	0	29	0	858783744	38	5709
2026-01-15 19:07:31.15	12.17	13.79	-32.2	-32.9	25.3	0.00e+00	0	29	0	865075200	38	5656
2026-01-15 19:07:32.16	12.03	13.87	-31.8	-32.5	25.7	0.00e+00	0	29	0	870318080	38	5403
2026-01-15 19:07:33.17	11.89	13.94	-31.8	-32.5	25.6	0.00e+00	0	29	0	876609536	38	5425
2026-01-15 19:07:34.18	11.76	14.02	-31.8	-32.5	25.7	0.00e+00	0	29	0	881852416	38	5404
2026-01-15 19:07:35.19	11.62	14.10	-31.9	-32.6	25.6	0.00e+00	0	29	0	888143872	38	5465
2026-01-15 19:07:36.20	11.48	14.18	-31.9	-32.6	25.6	0.00e+00	0	29	0	893386752	38	5456
2026-01-15 19:07:37.21	11.34	14.25	-31.9	-32.6	25.6	0.00e+00	0	29	0	899678208	38	5440
2026-01-15 19:07:38.22	11.20	14.33	-31.9	-32.6	25.6	0.00e+00	0	29	0	904921088	38	5467
2026-01-15 19:07:39.23	11.06	14.41	-31.8	-32.5	25.7	0.00e+00	0	29	0	910163968	38	5399
2026-01-15 19:07:40.24	10.92	14.49	-31.7	-32.4	25.8	0.00e+00	0	29	0	916455424	36	5968
2026-01-15 19:07:41.25	10.78	14.56	-31.7	-32.3	25.8	0.00e+00	0	29	0	921698304	36	5951
2026-01-15 19:07:42.26	10.64	14.64	-31.7	-32.4	25.8	0.00e+00	0	29	0	927989760	36	5989
2026-01-15 19:07:43.27	10.50	14.72	-31.8	-32.5	25.7	0.00e+00	0	29	0	933232640	36	6067
2026-01-15 19:07:44.28	10.35	14.80	-31.9	-32.5	25.6	0.00e+00	0	29	0	938475520	36	6087
2026-01-15 19:07:45.29	10.21	14.88	-32.0	-32.6	25.6	0.00e+00	0	29	0	944766976	36	6164
2026-01-15 19:07:46.30	10.06	14.96	-32.0	-32.7	25.5	0.00e+00	0	29	0	950009856	36	6174
2026-01-15 19:07:47.31	9.92	15.03	-31.6	-32.3	26.0	0.00e+00	0	29	0	956301312	36	5906
2026-01-15 19:07:48.32	9.77	15.11	-31.6	-32.3	25.8	0.00e+00	0	29	0	961544192	36	5915
2026-01-15 19:07:49.33	9.62	15.19	-31.6	-32.3	25.9	0.00e+00	0	29	0	966787072	36	5960
2026-01-15 19:07:50.34	9.47	15.27	-31.5	-32.2	25.9	0.00e+00	0	29	0	973078528	36	5862
2026-01-15 19:07:51.35	9.32	15.35	-31.5	-32.2	26.0	0.00e+00	0	29	0	978321408	36	5882
2026-01-15 19:07:52.35	9.17	15.42	-31.6	-32.2	26.0	0.00e+00	0	29	0	984612864	36	5860
2026-01-15 19:07:53.36	9.02	15.50	-31.5	-32.2	26.0	0.00e+00	0	29	0	989855744	36	5852
2026-01-15 19:07:54.37	8.87	15.58	-31.6	-32.3	25.9	0.00e+00	0	29	0	996147200	36	5906
2026-01-15 19:07:55.39	8.72	15.66	-31.6	-32.2	25.9	0.00e+00	0	29	0	1001390080	36	5868
2026-01-15 19:07:56.39	8.56	15.74	-31.6	-32.3	25.9	0.00e+00	0	29	0	1006632960	36	5912
2026-01-15 19:07:57.40	8.41	15.82	-31.6	-32.3	25.9	0.00e+00	0	29	0	1012924416	36	5933
2026-01-15 19:07:58.42	8.25	15.90	-31.5	-32.2	26.1	0.00e+00	0	29	0	1018167296	36	5861
2026-01-15 19:07:59.42	8.10	15.98	-31.5	-32.2	25.9	0.00e+00	0	29	0	1024458752	36	5880
2026-01-15 19:08:00.43	7.94	16.06	-31.4	-32.0	26.1	0.00e+00	0	29	0	1029701632	36	5753
2026-01-15 19:08:01.45	7.78	16.13	-31.4	-32.1	26.1	0.00e+00	0	29	0	1034944512	36	5773
2026-01-15 19:08:02.45	7.63	16.21	-31.3	-32.0	26.1	0.00e+00	0	29	0	1041235968	36	5705
2026-01-15 19:08:03.47	7.46	16.29	-31.3	-31.9	26.3	0.00e+00	0	29	0	1046478848	36	5681
2026-01-15 19:08:04.47	7.31	16.37	-31.3	-32.0	26.2	0.00e+00	0	29	0	1052770304	36	5699
2026-01-15 19:08:05.49	7.14	16.45	-31.2	-31.9	26.3	0.00e+00	0	29	0	1058013184	36	5658
2026-01-15 19:08:06.50	6.98	16.53	-31.3	-31.9	26.3	0.00e+00	0	29	0	1063256064	36	5676
2026-01-15 19:08:07.51	6.82	16.61	-31.1	-31.8	26.4	0.00e+00	0	29	0	1069547520	36	5604
2026-01-15 19:08:08.52	6.65	16.69	-31.2	-31.8	26.3	0.00e+00	0	29	0	1074790400	36	5624
2026-01-15 19:08:09.53	6.49	16.77	-31.1	-31.8	26.3	0.00e+00	0	29	0	1081081856	36	5585
2026-01-15 19:08:10.54	6.32	16.85	-31.1	-31.8	26.4	0.00e+00	0	29	0	1086324736	36	5581
2026-01-15 19:08:11.55	6.16	16.93	-31.1	-31.8	26.5	0.00e+00	0	29	0	1092616192	36	5574
2026-01-15 19:08:12.56	5.99	17.00	-31.0	-31.7	26.5	0.00e+00	0	29	0	1097859072	36	5521
2026-01-15 19:08:13.56	5.82	17.08	-31.1	-31.8	26.5	0.00e+00	0	29	0	1104150528	36	5571
2026-01-15 19:08:14.58	5.65	17.16	-31.0	-31.7	26.5	0.00e+00	0	29	0	1109393408	36	5520
2026-01-15 19:08:15.59	5.48	17.24	-31.3	-31.9	26.3	0.00e+00	0	29	0	1114636288	36	5691
2026-01-15 19:08:16.60	5.31	17.32	-31.1	-31.8	26.4	0.00e+00	0	29	0	1120927744	36	5595
2026-01-15 19:08:17.61	5.14	17.40	-31.2	-31.9	26.3	0.00e+00	0	29	0	1126170624	36	5664
2026-01-15 19:08:18.62	4.97	17.48	-31.0	-31.6	26.4	0.00e+00	0	29	0	1132462080	36	5501
2026-01-15 19:08:19.63	4.79	17.56	-31.0	-31.6	26.5	0.00e+00	0	29	0	1137704960	36	5496
2026-01-15 19:08:20.64	4.62	17.64	-31.1	-31.8	26.4	0.00e+00	0	29	0	1142947840	36	5572
2026-01-15 19:08:21.65	4.44	17.72	-30.9	-31.6	26.6	0.00e+00	0	29	0	1149239296	36	5458
2026-01-15 19:08:22.66	4.27	17.80	-30.9	-31.5	26.6	0.00e+00	0	29	0	1154482176	36	5429
2026-01-15 19:08:23.67	4.09	17.88	-31.0	-31.7	26.6	0.00e+00	0	29	0	1160773632	36	5522
2026-01-15 19:08:24.68	3.91	17.95	-31.2	-31.8	26.4	0.00e+00	0	29	0	1166016512	36	5623
2026-01-15 19:08:25.69	3.73	18.03	-31.3	-32.0	26.4	0.00e+00	0	29	0	1171259392	36	5715
2026-01-15 19:08:26.70	3.55	18.11	-31.3	-32.0	26.3	0.00e+00	0	29	0	1177550848	36	5719
2026-01-15 19:08:27.71	3.37	18.19	-31.2	-31.9	26.4	0.00e+00	0	29	0	1182793728	36	5665
2026-01-15 19:08:28.72	3.19	18.27	-31.2	-31.9	26.4	0.00e+00	0	29	0	1189085184	36	5654
2026-01-15 19:08:29.73	3.00	18.35	-31.0	-31.7	26.5	0.00e+00	0	29	0	1194328064	36	5538
2026-01-15 19:08:30.74	2.82	18.43	-31.0	-31.7	26.6	0.00e+00	0	29	0	1200619520	36	5508
2026-01-15 19:08:31.75	2.63	18.51	-30.9	-31.5	26.7	0.00e+00	0	29	0	1205862400	36	5400
2026-01-15 19:08:32.75	2.45	18.58	-30.9	-31.6	26.6	0.00e+00	0	29	0	1212153856	36	5451
2026-01-15 19:08:33.76	2.26	18.66	-30.8	-31.5	26.7	0.00e+00	0	29	0	1217396736	36	5396
2026-01-15 19:08:34.77	2.07	18.74	-30.7	-31.3	26.8	0.00e+00	0	29	0	1222639616	34	5937
2026-01-15 19:08:35.78	1.89	18.82	-30.9	-31.5	26.6	0.00e+00	0	29	0	1228931072	34	6066
2026-01-15 19:08:36.79	1.70	18.90	-30.7	-31.4	26.8	0.00e+00	0	29	0	1234173952	34	5996
2026-01-15 19:08:37.80	1.50	18.98	-30.6	-31.2	26.9	0.00e+00	0	29	0	1239416832	34	5884
2026-01-15 19:08:38.81	1.31	19.05	-30.6	-31.2	26.9	0.00e+00	0	29	0	1245708288	34	5879
2026-01-15 19:08:39.82	1.12	19.13	-30.5	-31.1	26.9	0.00e+00	0	29	0	1250951168	34	5826
2026-01-15 19:08:40.83	0.92	19.21	-30.6	-31.2	26.9	0.00e+00	0	29	0	1257242624	34	5892
2026-01-15 19:08:41.84	0.73	19.29	-30.7	-31.3	26.8	0.00e+00	0	29	0	1262485504	34	5919
2026-01-15 19:08:42.85	0.53	19.37	-30.7	-31.4	26.8	0.00e+00	0	29	0	1267728384	34	5975
2026-01-15 19:08:43.85	0.34	19.44	-30.9	-31.5	26.7	0.00e+00	0	29	0	1274019840	34	6080
2026-01-15 19:08:44.86	0.14	19.52	-30.8	-31.5	26.7	0.00e+00	0	29	0	1279262720	34	6067
2026-01-15 19:08:45.87	359.94	19.60	-30.6	-31.3	26.8	0.00e+00	0	29	0	1285554176	34	5928
2026-01-15 19:08:46.88	359.74	19.67	-30.7	-31.4	26.8	0.00e+00	0	29	0	1290797056	34	5980
2026-01-15 19:08:47.90	359.54	19.75	-30.5	-31.2	26.9	0.00e+00	0	29	0	1297088512	34	5853
2026-01-15 19:08:48.91	359.34	19.83	-30.7	-31.3	26.9	0.00e+00	0	29	0	1302331392	34	5948
2026-01-15 19:08:49.92	359.13	19.91	-30.5	-31.1	27.0	0.00e+00	0	29	0	1308622848	34	5817
2026-01-15 19:08:50.93	358.93	19.98	-30.5	-31.2	27.0	0.00e+00	0	29	0	1313865728	34	5866
2026-01-15 19:08:51.94	358.72	20.06	-30.5	-31.1	26.9	0.00e+00	0	29	0	1319108608	34	5819
2026-01-15 19:08:52.95	358.52	20.14	-30.5	-31.2	26.9	0.00e+00	0	29	0	1325400064	34	5863
2026-01-15 19:08:53.96	358.31	20.21	-30.6	-31.2	26.9	0.00e+00	0	29	0	1330642944	34	5887
2026-01-15 19:08:54.97	358.10	20.29	-30.5	-31.1	26.9	0.00e+00	0	29	0	1336934400	34	5800
2026-01-15 19:08:55.98	357.89	20.36	-30.3	-31.0	27.0	0.00e+00	0	29	0	1342177280	34	5729
2026-01-15 19:08:56.99	357.68	20.44	-30.3	-31.0	27.1	0.00e+00	0	29	0	1347420160	34	5709
2026-01-15 19:08:58.00	357.47	20.51	-30.3	-31.0	27.1	0.00e+00	0	29	0	1353711616	34	5702
2026-01-15 19:08:59.01	357.26	20.59	-30.3	-30.9	27.1	0.00e+00	0	29	0	1358954496	34	5689
2026-01-15 19:09:00.02	357.04	20.66	-30.2	-30.9	27.1	0.00e+00	0	29	0	1365245952	34	5641
2026-01-15 19:09:01.03	356.83	20.74	-30.1	-30.8	27.3	0.00e+00	0	29	0	1370488832	34	5595
2026-01-15 19:09:02.04	356.61	20.81	-30.2	-30.8	27.3	0.00e+00	0	29	0	1375731712	34	5591
2026-01-15 19:09:03.05	356.39	20.89	-30.0	-30.6	27.4	0.00e+00	0	29	0	1382023168	34	5483
2026-01-15 19:09:04.05	356.18	20.96	-30.1	-30.7	27.3	0.00e+00	0	29	0	1387266048	34	5537
2026-01-15 19:09:05.07	355.96	21.04	-30.0	-30.6	27.3	0.00e+00	0	29	0	1393557504	34	5471
2026-01-15 19:09:06.07	355.74	21.11	-30.1	-30.7	27.4	0.00e+00	0	29	0	1398800384	34	5520
2026-01-15 19:09:07.09	355.52	21.18	-30.0	-30.6	27.4	0.00e+00	0	29	0	1405091840	34	5475
2026-01-15 19:09:08.10	355.29	21.26	-30.0	-30.7	27.3	0.00e+00	0	29	0	1410334720	34	5509
2026-01-15 19:09:09.10	355.07	21.33	-30.1	-30.8	27.3	0.00e+00	0	29	0	1416626176	34	5590
2026-01-15 19:09:10.12	354.84	21.40	-30.0	-30.6	27.4	0.00e+00	0	29	0	1421869056	34	5495
2026-01-15 19:09:11.13	354.62	21.48	-30.0	-30.6	27.4	0.00e+00	0	29	0	1427111936	34	5474
2026-01-15 19:09:12.14	354.39	21.55	-30.1	-30.7	27.3	0.00e+00	0	29	0	1433403392	34	5555
2026-01-15 19:09:13.15	354.17	21.62	-30.0	-30.7	27.3	0.00e+00	0	29	0	1438646272	34	5508
2026-01-15 19:09:14.16	353.94	21.69	-30.2	-30.9	27.1	0.00e+00	0	29	0	1444937728	34	5633
2026-01-15 19:09:15.17	353.71	21.76	-30.1	-30.8	27.3	0.00e+00	0	29	0	1450180608	34	5570
2026-01-15 19:09:16.18	353.48	21.84	-30.1	-30.7	27.3	0.00e+00	0	29	0	1455423488	34	5559
2026-01-15 19:09:17.19	353.24	21.91	-30.2	-30.9	27.2	0.00e+00	0	29	0	1461714944	34	5632
2026-01-15 19:09:18.20	353.01	21.98	-30.1	-30.7	27.3	0.00e+00	0	29	0	1466957824	34	5550
2026-01-15 19:09:19.21	352.78	22.05	-30.2	-30.8	27.1	0.00e+00	0	29	0	1473249280	34	5623
2026-01-15 19:09:20.22	352.54	22.12	-30.2	-30.8	27.2	0.00e+00	0	29	0	1478492160	34	5628
2026-01-15 19:09:21.23	352.30	22.19	-30.2	-30.8	27.2	0.00e+00	0	29	0	1483735040	34	5579
2026-01-15 19:09:22.24	352.07	22.26	-30.1	-30.8	27.3	0.00e+00	0	29	0	1490026496	34	5573
2026-01-15 19:09:23.25	351.83	22.32	-30.1	-30.7	27.4	0.00e+00	0	29	0	1495269376	34	5526
2026-01-15 19:09:24.26	351.59	22.39	-30.1	-30.7	27.3	0.00e+00	0	29	0	1501560832	34	5556
2026-01-15 19:09:25.27	351.35	22.46	-29.9	-30.6	27.5	0.00e+00	0	29	0	1506803712	34	5457
2026-01-15 19:09:26.28	351.11	22.53	-29.9	-30.6	27.4	0.00e+00	0	29	0	1513095168	34	5448
2026-01-15 19:09:27.29	350.86	22.60	-29.9	-30.5	27.5	0.00e+00	0	29	0	1518338048	34	5413
2026-01-15 19:09:28.30	350.62	22.66	-30.0	-30.7	27.4	0.00e+00	0	29	0	1523580928	34	5519
2026-01-15 19:09:29.31	350.38	22.73	-30.2	-30.9	27.4	0.00e+00	0	29	0	1529872384	34	5650
2026-01-15 19:09:30.32	350.13	22.80	-30.1	-30.8	27.3	0.00e+00	0	29	0	1535115264	34	5568
2026-01-15 19:09:31.33	349.88	22.86	-30.0	-30.6	27.5	0.00e+00	0	29	0	1541406720	34	5472
2026-01-15 19:09:32.34	349.64	22.93	-30.0	-30.6	27.5	0.00e+00	0	29	0	1546649600	34	5476
2026-01-15 19:09:33.35	349.39	22.99	-29.9	-30.5	27.6	0.00e+00	0	29	0	1552941056	34	5423
2026-01-15 19:09:34.36	349.14	23.06	-29.7	-30.3	27.6	0.00e+00	0	29	0	1558183936	32	5960
2026-01-15 19:09:35.37	348.88	23.12	-29.9	-30.5	27.6	0.00e+00	0	29	0	1563426816	32	6099
2026-01-15 19:09:36.38	348.63	23.19	-29.9	-30.6	27.5	0.00e+00	0	30	0	1569718272	32	6108
2026-01-15 19:09:37.40	348.38	23.25	-29.9	-30.5	27.5	0.00e+00	0	29	0	1574961152	32	6103
2026-01-15 19:09:38.41	348.12	23.31	-29.9	-30.6	27.5	0.00e+00	0	30	0	1581252608	32	6115
2026-01-15 19:09:39.42	347.87	23.38	-29.9	-30.5	27.6	0.00e+00	0	29	0	1586495488	32	6064
2026-01-15 19:09:40.42	347.61	23.44	-30.0	-30.6	27.5	0.00e+00	0	29	0	1591738368	32	6169
2026-01-15 19:09:41.44	347.35	23.50	-29.8	-30.5	27.6	0.00e+00	0	29	0	1598029824	32	6037
2026-01-15 19:09:42.45	347.09	23.56	-29.9	-30.5	27.6	0.00e+00	0	29	0	1603272704	32	6058
2026-01-15 19:09:43.46	346.84	23.62	-29.9	-30.6	27.5	0.00e+00	0	29	0	1609564160	32	6127
2026-01-15 19:09:44.47	346.58	23.68	-29.9	-30.6	27.5	0.00e+00	0	29	0	1614807040	32	6121
2026-01-15 19:09:45.48	346.31	23.74	-30.0	-30.7	27.5	0.00e+00	0	29	0	1621098496	32	6185
2026-01-15 19:09:46.49	346.05	23.80	-29.7	-30.3	27.6	0.00e+00	0	29	0	1626341376	32	5944
2026-01-15 19:09:47.50	345.79	23.86	-29.7	-30.3	27.7	0.00e+00	0	29	0	1631584256	32	5930
2026-01-15 19:09:48.51	345.52	23.92	-29.7	-30.3	27.7	0.00e+00	0	29	0	1637875712	32	5962
2026-01-15 19:09:49.52	345.26	23.97	-29.9	-30.5	27.5	0.00e+00	0	29	0	1643118592	32	6079
2026-01-15 19:09:50.53	344.99	24.03	-29.8	-30.5	27.7	0.00e+00	0	30	0	1649410048	32	6058
2026-01-15 19:09:51.54	344.72	24.09	-29.8	-30.4	27.6	0.00e+00	0	30	0	1654652928	32	6000
2026-01-15 19:09:52.55	344.46	24.14	-29.7	-30.4	27.7	0.00e+00	0	30	0	1659895808	32	5979
2026-01-15 19:09:53.56	344.19	24.20	-29.6	-30.3	27.7	0.00e+00	0	29	0	1666187264	32	5919
2026-01-15 19:09:54.57	343.92	24.25	-29.8	-30.4	27.6	0.00e+00	0	29	0	1671430144	32	6008
2026-01-15 19:09:55.58	343.64	24.31	-29.8	-30.4	27.5	0.00e+00	0	30	0	1677721600	32	6017
2026-01-15 19:09:56.59	343.37	24.36	-29.8	-30.4	27.6	0.00e+00	0	30	0	1682964480	32	5998
2026-01-15 19:09:57.60	343.10	24.41	-29.9	-30.5	27.5	0.00e+00	0	30	0	1688207360	32	6054
2026-01-15 19:09:58.61	342.83	24.46	-29.7	-30.3	27.7	0.00e+00	0	29	0	1694498816	32	5949
2026-01-15 19:09:59.62	342.55	24.52	-29.8	-30.5	27.5	0.00e+00	0	30	0	1699741696	32	6047
2026-01-15 19:10:00.63	342.27	24.57	-29.6	-30.2	27.6	0.00e+00	0	30	0	1706033152	32	5878
2026-01-15 19:10:01.64	342.00	24.62	-29.4	-30.0	28.0	0.00e+00	0	30	0	1711276032	32	5738
2026-01-15 19:10:02.65	341.72	24.67	-29.4	-30.1	27.9	0.00e+00	0	30	0	1717567488	32	5784
2026-01-15 19:10:03.66	341.44	24.72	-29.4	-30.0	27.9	0.00e+00	0	30	0	1722810368	32	5742
2026-01-15 19:10:04.67	341.16	24.76	-29.4	-30.0	27.9	0.00e+00	0	30	0	1729101824	32	5727
2026-01-15 19:10:05.68	340.88	24.81	-29.4	-30.1	27.9	0.00e+00	0	30	0	1734344704	32	5764
2026-01-15 19:10:06.69	340.60	24.86	-29.4	-30.1	27.9	0.00e+00	0	30	0	1739587584	32	5768
2026-01-15 19:10:07.70	340.32	24.91	-29.4	-30.1	27.9	0.00e+00	0	29	0	1745879040	32	5776
2026-01-15 19:10:08.71	340.04	24.95	-29.5	-30.2	27.8	0.00e+00	0	29	0	1751121920	32	5838
2026-01-15 19:10:09.72	339.75	25.00	-29.5	-30.2	27.7	0.00e+00	0	30	0	1757413376	32	5843
2026-01-15 19:10:10.73	339.47	25.04	-29.4	-30.1	27.9	0.00e+00	0	30	0	1762656256	32	5762
2026-01-15 19:10:11.74	339.18	25.08	-29.4	-30.0	27.9	0.00e+00	0	30	0	1767899136	32	5720
2026-01-15 19:10:12.75	338.90	25.13	-29.3	-30.0	27.9	0.00e+00	0	30	0	1774190592	32	5709
2026-01-15 19:10:13.76	338.61	25.17	-29.3	-29.9	28.0	0.00e+00	0	30	0	1779433472	32	5673
2026-01-15 19:10:14.77	338.32	25.21	-29.3	-29.9	28.1	0.00e+00	0	30	0	1785724928	32	5654
2026-01-15 19:10:15.78	338.03	25.25	-29.2	-29.8	28.0	0.00e+00	0	30	0	1790967808	32	5624
2026-01-15 19:10:16.79	337.74	25.29	-29.3	-29.9	27.9	0.00e+00	0	30	0	1796210688	32	5693
2026-01-15 19:10:17.80	337.45	25.33	-29.5	-30.1	27.8	0.00e+00	0	30	0	1802502144	32	5823
2026-01-15 19:10:18.81	337.16	25.37	-29.7	-30.4	27.7	0.00e+00	0	30	0	1807745024	32	5996
2026-01-15 19:10:19.82	336.87	25.41	-29.7	-30.4	27.7	0.00e+00	0	30	0	1814036480	32	6000
2026-01-15 19:10:20.83	336.58	25.45	-29.9	-30.5	27.5	0.00e+00	0	30	0	1819279360	32	6071
2026-01-15 19:10:21.84	336.29	25.48	-29.7	-30.4	27.7	0.00e+00	0	30	0	1825570816	32	5967
2026-01-15 19:10:22.85	335.99	25.52	-29.6	-30.3	27.7	0.00e+00	0	30	0	1830813696	32	5898
2026-01-15 19:10:23.86	335.70	25.55	-29.6	-30.2	27.9	0.00e+00	0	30	0	1837105152	32	5850
2026-01-15 19:10:24.87	335.41	25.59	-29.6	-30.2	27.7	0.00e+00	0	30	0	1842348032	32	5896
2026-01-15 19:10:25.88	335.11	25.62	-29.5	-30.1	27.9	0.00e+00	0	30	0	1847590912	32	5808
2026-01-15 19:10:26.89	334.81	25.65	-29.4	-30.0	27.9	0.00e+00	0	30	0	1853882368	32	5755
2026-01-15 19:10:27.90	334.52	25.68	-29.4	-30.0	27.9	0.00e+00	0	30	0	1859125248	32	5739
2026-01-15 19:10:28.91	334.22	25.71	-29.5	-30.2	27.9	0.00e+00	0	30	0	1865416704	32	5859
2026-01-15 19:10:29.92	333.92	25.74	-29.4	-30.1	27.9	0.00e+00	0	30	0	1870659584	32	5789
2026-01-15 19:10:30.93	333.63	25.77	-29.4	-30.0	27.9	0.00e+00	0	30	0	1875902464	32	5750
2026-01-15 19:10:31.94	333.33	25.80	-29.5	-30.1	27.9	0.00e+00	0	30	0	1882193920	32	5806
2026-01-15 19:10:32.95	333.03	25.83	-29.5	-30.2	27.8	0.00e+00	0	30	0	1887436800	32	5848
2026-01-15 19:10:33.96	332.73	25.86	-29.5	-30.2	27.9	0.00e+00	0	30	0	1893728256	32	5832
2026-01-15 19:10:34.97	332.43	25.88	-29.6	-30.2	27.8	0.00e+00	0	30	0	1898971136	32	5896
2026-01-15 19:10:35.98	332.13	25.91	-29.5	-30.1	27.9	0.00e+00	0	30	0	1904214016	32	5808
2026-01-15 19:10:36.99	331.82	25.93	-29.5	-30.1	27.8	0.00e+00	0	30	0	1910505472	32	5784
2026-01-15 19:10:38.00	331.52	25.95	-29.3	-29.9	28.0	0.00e+00	0	30	0	1915748352	32	5671
2026-01-15 19:10:39.01	331.22	25.98	-29.5	-30.1	27.9	0.00e+00	0	30	0	1922039808	32	5805
2026-01-15 19:10:40.02	330.92	26.00	-29.4	-30.0	28.0	0.00e+00	0	30	0	1927282688	32	5752
2026-01-15 19:10:41.04	330.61	26.02	-29.5	-30.1	27.9	0.00e+00	0	30	0	1933574144	32	5798
2026-01-15 19:10:42.05	330.31	26.04	-29.4	-30.1	27.9	0.00e+00	0	30	0	1938817024	32	5763
2026-01-15 19:10:43.06	330.00	26.06	-29.6	-30.2	27.8	0.00e+00	0	30	0	1945108480	32	5857
2026-01-15 19:10:44.07	329.70	26.08	-29.6	-30.2	27.7	0.00e+00	0	30	0	1950351360	32	5892
2026-01-15 19:10:45.08	329.40	26.09	-29.7	-30.4	27.6	0.00e+00	0	30	0	1955594240	32	5975
2026-01-15 19:10:46.09	329.09	26.11	-29.7	-30.4	27.7	0.00e+00	0	30	0	1961885696	32	5974
2026-01-15 19:10:47.10	328.79	26.12	-29.9	-30.5	27.6	0.00e+00	0	30	0	1967128576	32	6086
2026-01-15 19:10:48.11	328.48	26.14	-29.9	-30.5	27.6	0.00e+00	0	30	0	1973420032	32	6056
2026-01-15 19:10:49.12	328.17	26.15	-30.1	-30.7	27.4	0.00e+00	0	30	0	1978662912	32	6226
2026-01-15 19:10:50.13	327.87	26.17	-29.8	-30.4	27.7	0.00e+00	0	30	0	1983905792	32	5999
2026-01-15 19:10:51.14	327.56	26.18	-29.7	-30.4	27.7	0.00e+00	0	30	0	1990197248	32	5981
2026-01-15 19:10:52.15	327.26	26.19	-29.5	-30.2	27.9	0.00e+00	0	30	0	1995440128	32	5837
2026-01-15 19:10:53.16	326.95	26.20	-29.5	-30.1	27.8	0.00e+00	0	30	0	2001731584	32	5783
2026-01-15 19:10:54.17	326.64	26.21	-29.5	-30.1	27.8	0.00e+00	0	30	0	2006974464	32	5789
2026-01-15 19:10:55.18	326.33	26.22	-29.3	-29.9	28.0	0.00e+00	0	30	0	2012217344	32	5683
2026-01-15 19:10:56.19	326.03	26.22	-29.2	-29.9	28.1	0.00e+00	0	30	0	2018508800	32	5652
2026-01-15 19:10:57.20	325.72	26.23	-29.2	-29.8	28.1	0.00e+00	0	30	0	2023751680	32	5587
2026-01-15 19:10:58.21	325.41	26.23	-29.2	-29.7	28.2	0.00e+00	0	30	0	2030043136	32	5562
2026-01-15 19:10:59.22	325.10	26.24	-29.3	-29.9	28.0	0.00e+00	0	30	0	2035286016	32	5685
2026-01-15 19:11:00.23	324.80	26.24	-29.3	-30.0	27.9	0.00e+00	0	30	0	2041577472	32	5699
2026-01-15 19:11:01.25	324.49	26.25	-29.3	-30.0	28.0	0.00e+00	0	30	0	2046820352	32	5698
2026-01-15 19:11:02.25	324.18	26.25	-29.3	-29.9	28.1	0.00e+00	0	30	0	2053111808	32	5633
2026-01-15 19:11:03.27	323.87	26.25	-29.4	-30.0	27.9	0.00e+00	0	30	0	2058354688	32	5732
2026-01-15 19:11:04.27	323.57	26.25	-29.5	-30.2	27.9	0.00e+00	0	30	0	2063597568	32	5865
2026-01-15 19:11:05.29	323.25	26.25	-29.7	-30.4	27.6	0.00e+00	0	30	0	2069889024	32	5987
2026-01-15 19:11:06.30	322.95	26.25	-29.9	-30.5	27.6	0.00e+00	0	30	0	2075131904	32	6095
2026-01-15 19:11:07.31	322.64	26.24	-29.7	-30.4	27.7	0.00e+00	0	30	0	2081423360	32	6000
2026-01-15 19:11:08.32	322.33	26.24	-29.7	-30.3	27.7	0.00e+00	0	30	0	2086666240	32	5951
2026-01-15 19:11:09.33	322.02	26.24	-29.5	-30.1	27.8	0.00e+00	0	30	0	2091909120	32	5801
2026-01-15 19:11:10.34	321.72	26.23	-29.5	-30.1	27.8	0.00e+00	0	30	0	2098200576	32	5826
2026-01-15 19:11:11.35	321.41	26.22	-29.5	-30.1	27.9	0.00e+00	0	30	0	2103443456	32	5788
2026-01-15 19:11:12.36	321.10	26.22	-29.5	-30.1	27.8	0.00e+00	0	30	0	2109734912	32	5821
2026-01-15 19:11:13.37	320.79	26.21	-29.3	-29.9	27.6	0.00e+00	0	30	0	2114977792	32	5662
2026-01-15 19:11:14.38	320.49	26.20	-29.2	-29.8	28.0	0.00e+00	0	30	0	2120220672	32	5611
2026-01-15 19:11:15.39	320.18	26.19	-29.2	-29.8	28.0	0.00e+00	0	30	0	2126512128	32	5587
2026-01-15 19:11:16.40	319.87	26.18	-29.1	-29.8	28.0	0.00e+00	0	30	0	2131755008	32	5592
2026-01-15 19:11:17.41	319.57	26.17	-29.0	-29.6	28.0	0.00e+00	0	30	0	2138046464	32	5469
2026-01-15 19:11:18.42	319.26	26.16	-29.3	-29.9	27.9	0.00e+00	0	30	0	2143289344	32	5637
2026-01-15 19:11:19.43	318.95	26.14	-29.4	-30.0	27.8	0.00e+00	0	30	0	2149580800	32	5734
2026-01-15 19:11:20.44	318.65	26.13	-29.6	-30.2	27.7	0.00e+00	0	30	0	2154823680	32	5881
2026-01-15 19:11:21.45	318.34	26.11	-29.5	-30.1	27.8	0.00e+00	0	30	0	2160066560	32	5804
2026-01-15 19:11:22.46	318.04	26.10	-29.5	-30.1	27.7	0.00e+00	0	30	0	2166358016	32	5816
2026-01-15 19:11:23.47	317.73	26.08	-29.5	-30.1	27.8	0.00e+00	0	30	0	2171600896	32	5796
2026-01-15 19:11:24.48	317.43	26.06	-29.6	-30.2	27.7	0.00e+00	0	30	0	2177892352	32	5895
2026-01-15 19:11:25.49	317.12	26.04	-29.8	-30.4	27.7	0.00e+00	0	30	0	2183135232	32	6004
2026-01-15 19:11:26.50	316.82	26.02	-29.6	-30.2	27.8	0.00e+00	0	30	0	2188378112	32	5890
2026-01-15 19:11:27.51	316.52	26.00	-29.6	-30.3	27.8	0.00e+00	0	30	0	2194669568	32	5909
2026-01-15 19:11:28.52	316.21	25.98	-29.3	-30.0	27.9	0.00e+00	0	30	0	2199912448	32	5716
2026-01-15 19:11:29.53	315.91	25.96	-29.1	-29.7	28.2	0.00e+00	0	30	0	2206203904	32	5511
2026-01-15 19:11:30.54	315.61	25.94	-29.1	-29.8	28.1	0.00e+00	0	30	0	2211446784	32	5573
2026-01-15 19:11:31.55	315.31	25.91	-29.3	-29.9	28.0	0.00e+00	0	30	0	2216689664	32	5685
2026-01-15 19:11:32.56	315.01	25.89	-29.3	-30.0	28.0	0.00e+00	0	30	0	2222981120	32	5741
2026-01-15 19:11:33.57	314.71	25.86	-29.3	-29.9	28.0	0.00e+00	0	30	0	2228224000	32	5659
2026-01-15 19:11:34.58	314.41	25.83	-29.3	-30.0	27.9	0.00e+00	0	30	0	2234515456	32	5705
2026-01-15 19:11:35.59	314.11	25.81	-29.3	-30.0	27.8	0.00e+00	0	30	0	2239758336	32	5728
2026-01-15 19:11:36.60	313.81	25.78	-29.2	-29.8	28.0	0.00e+00	0	30	0	2246049792	32	5602
2026-01-15 19:11:37.61	313.51	25.75	-29.1	-29.8	28.1	0.00e+00	0	30	0	2251292672	32	5599
2026-01-15 19:11:38.62	313.21	25.72	-29.2	-29.9	28.0	0.00e+00	0	30	0	2257584128	32	5643
2026-01-15 19:11:39.63	312.91	25.69	-29.4	-30.1	27.9	0.00e+00	0	30	0	2262827008	32	5779
2026-01-15 19:11:40.64	312.62	25.66	-29.5	-30.2	27.9	0.00e+00	0	30	0	2268069888	32	5840
2026-01-15 19:11:41.66	312.32	25.63	-29.6	-30.1	27.8	0.00e+00	0	30	0	2274361344	32	5827
2026-01-15 19:11:42.66	312.02	25.59	-29.5	-30.2	27.8	0.00e+00	0	30	0	2279604224	32	5841
2026-01-15 19:11:43.67	311.73	25.56	-29.4	-30.0	27.9	0.00e+00	0	30	0	2285895680	32	5703
2026-01-15 19:11:44.69	311.43	25.52	-29.4	-30.1	27.9	0.00e+00	0	30	0	2291138560	32	5784
2026-01-15 19:11:45.70	311.14	25.49	-29.4	-30.0	27.9	0.00e+00	0	30	0	2296381440	32	5727
2026-01-15 19:11:46.71	310.84	25.45	-29.4	-30.1	28.0	0.00e+00	0	30	0	2302672896	32	5763
2026-01-15 19:11:47.72	310.55	25.42	-29.3	-29.9	28.0	0.00e+00	0	30	0	2307915776	32	5693
2026-01-15 19:11:48.73	310.26	25.38	-29.3	-29.9	28.0	0.00e+00	0	30	0	2314207232	32	5632
2026-01-15 19:11:49.74	309.97	25.34	-29.2	-29.8	28.0	0.00e+00	0	30	0	2319450112	32	5589
2026-01-15 19:11:50.75	309.68	25.30	-29.0	-29.7	28.3	0.00e+00	0	30	0	2324692992	32	5547
2026-01-15 19:11:51.76	309.39	25.26	-29.0	-29.6	28.2	0.00e+00	0	30	0	2330984448	32	5451
2026-01-15 19:11:52.77	309.10	25.22	-29.2	-29.8	28.0	0.00e+00	0	30	0	2336227328	32	5578
2026-01-15 19:11:53.78	308.81	25.18	-29.2	-29.8	28.0	0.00e+00	0	30	0	2342518784	32	5620
2026-01-15 19:11:54.79	308.52	25.14	-29.2	-29.9	28.0	0.00e+00	0	30	0	2347761664	32	5668
2026-01-15 19:11:55.80	308.24	25.09	-29.3	-29.9	28.0	0.00e+00	0	30	0	2354053120	32	5641
2026-01-15 19:11:56.81	307.95	25.05	-29.3	-29.9	27.9	0.00e+00	0	30	0	2359296000	32	5656
2026-01-15 19:11:57.82	307.67	25.01	-29.5	-30.2	27.8	0.00e+00	0	30	0	2365587456	32	5834
2026-01-15 19:11:58.83	307.38	24.96	-29.5	-30.0	27.7	0.00e+00	0	30	0	2370830336	32	5751
2026-01-15 19:11:59.84	307.10	24.91	-29.5	-30.1	27.8	0.00e+00	0	30	0	2376073216	32	5775
2026-01-15 19:12:00.85	306.82	24.87	-29.6	-30.3	27.7	0.00e+00	0	30	0	2382364672	32	5904
2026-01-15 19:12:01.86	306.53	24.82	-29.6	-30.2	27.7	0.00e+00	0	30	0	2387607552	32	5881
2026-01-15 19:12:02.87	306.25	24.77	-29.6	-30.3	27.6	0.00e+00	0	30	0	2393899008	32	5955
2026-01-15 19:12:03.88	305.97	24.73	-29.6	-30.2	27.8	0.00e+00	0	30	0	2399141888	32	5841
2026-01-15 19:12:04.89	305.69	24.68	-29.5	-30.1	27.8	0.00e+00	0	30	0	2404384768	32	5807
2026-01-15 19:12:05.90	305.42	24.63	-29.4	-30.0	27.8	0.00e+00	0	30	0	2410676224	32	5715
2026-01-15 19:12:06.91	305.14	24.58	-29.4	-30.0	27.9	0.00e+00	0	30	0	2415919104	32	5708
2026-01-15 19:12:07.92	304.86	24.53	-29.2	-29.9	28.1	0.00e+00	0	30	0	2422210560	32	5665
2026-01-15 19:12:08.93	304.59	24.47	-29.2	-29.8	28.0	0.00e+00	0	30	0	2427453440	32	5622
2026-01-15 19:12:09.94	304.31	24.42	-29.1	-29.8	28.1	0.00e+00	0	30	0	2432696320	32	5593
2026-01-15 19:12:10.96	304.03	24.37	-29.2	-29.7	28.1	0.00e+00	0	30	0	2438987776	32	5558
2026-01-15 19:12:11.97	303.76	24.31	-29.3	-29.9	27.9	0.00e+00	0	30	0	2444230656	32	5638
2026-01-15 19:12:12.98	303.49	24.26	-29.3	-30.0	27.9	0.00e+00	0	30	0	2450522112	32	5712
2026-01-15 19:12:13.99	303.22	24.21	-29.2	-29.9	28.0	0.00e+00	0	30	0	2455764992	32	5651
2026-01-15 19:12:15.00	302.95	24.15	-29.3	-29.9	28.0	0.00e+00	0	30	0	2462056448	32	5633
2026-01-15 19:12:16.01	302.68	24.10	-29.3	-30.0	28.0	0.00e+00	0	30	0	2467299328	32	5756
2026-01-15 19:12:17.02	302.41	24.04	-29.4	-29.9	27.9	0.00e+00	0	30	0	2473590784	32	5693
2026-01-15 19:12:18.03	302.14	23.98	-29.7	-30.4	27.7	0.00e+00	0	30	0	2478833664	32	6000
2026-01-15 19:12:19.04	301.88	23.92	-29.6	-30.1	27.7	0.00e+00	0	30	0	2484076544	32	5807
2026-01-15 19:12:20.05	301.61	23.87	-29.5	-30.1	27.8	0.00e+00	0	30	0	2490368000	32	5795
2026-01-15 19:12:21.06	301.35	23.81	-29.5	-30.0	27.9	0.00e+00	0	30	0	2495610880	32	5758
2026-01-15 19:12:22.07	301.09	23.75	-29.4	-30.1	27.9	0.00e+00	0	30	0	2501902336	32	5806
2026-01-15 19:12:23.08	300.82	23.69	-29.5	-30.2	27.8	0.00e+00	0	30	0	2507145216	32	5842
2026-01-15 19:12:24.09	300.56	23.63	-29.5	-30.1	27.8	0.00e+00	0	30	0	2512388096	32	5781
2026-01-15 19:12:25.11	300.30	23.57	-29.5	-30.1	27.8	0.00e+00	0	30	0	2518679552	32	5780
2026-01-15 19:12:26.12	300.04	23.51	-29.5	-30.2	27.8	0.00e+00	0	30	0	2523922432	32	5845
2026-01-15 19:12:27.13	299.78	23.45	-29.5	-30.1	27.8	0.00e+00	0	30	0	2530213888	32	5795
2026-01-15 19:12:28.14	299.52	23.38	-29.4	-30.1	28.0	0.00e+00	0	30	0	2535456768	32	5765
2026-01-15 19:12:29.15	299.27	23.32	-29.4	-30.1	27.9	0.00e+00	0	30	0	2540699648	32	5771
2026-01-15 19:12:30.16	299.01	23.26	-29.5	-30.1	27.9	0.00e+00	0	30	0	2546991104	32	5825
2026-01-15 19:12:31.17	298.76	23.20	-29.3	-30.0	27.9	0.00e+00	0	30	0	2552233984	32	5723
2026-01-15 19:12:32.18	298.51	23.13	-29.2	-29.9	28.0	0.00e+00	0	30	0	2558525440	32	5665
2026-01-15 19:12:33.19	298.25	23.07	-29.2	-29.9	28.1	0.00e+00	0	30	0	2563768320	32	5663
2026-01-15 19:12:34.20	298.00	23.00	-29.3	-29.8	28.0	0.00e+00	0	30	0	2570059776	32	5614
2026-01-15 19:12:35.21	297.75	22.94	-29.3	-30.0	28.0	0.00e+00	0	30	0	2575302656	32	5700
2026-01-15 19:12:36.22	297.50	22.87	-29.4	-29.9	27.8	0.00e+00	0	30	0	2581594112	32	5695
2026-01-15 19:12:37.23	297.26	22.81	-29.6	-30.2	27.8	0.00e+00	0	30	0	2586836992	32	5882
2026-01-15 19:12:38.24	297.01	22.74	-29.6	-30.3	27.7	0.00e+00	0	30	0	2592079872	32	5919
2026-01-15 19:12:39.24	296.77	22.67	-29.5	-30.1	27.8	0.00e+00	0	30	0	2598371328	32	5828
2026-01-15 19:12:40.25	296.52	22.61	-29.6	-30.3	27.7	0.00e+00	0	30	0	2603614208	32	5931
2026-01-15 19:12:41.26	296.28	22.54	-29.6	-30.2	27.7	0.00e+00	0	30	0	2609905664	32	5877
2026-01-15 19:12:42.27	296.04	22.47	-29.7	-30.3	27.7	0.00e+00	0	30	0	2615148544	32	5910
2026-01-15 19:12:43.29	295.79	22.40	-29.8	-30.5	27.6	0.00e+00	0	30	0	2620391424	32	6042
2026-01-15 19:12:44.29	295.55	22.33	-29.9	-30.5	27.5	0.00e+00	0	30	0	2626682880	32	6037
2026-01-15 19:12:45.30	295.32	22.26	-29.7	-30.4	27.6	0.00e+00	0	30	0	2631925760	32	5997
2026-01-15 19:12:46.32	295.07	22.19	-29.8	-30.5	27.5	0.00e+00	0	30	0	2638217216	32	6090
2026-01-15 19:12:47.33	294.84	22.12	-29.9	-30.5	27.6	0.00e+00	0	30	0	2643460096	32	6103
2026-01-15 19:12:48.34	294.60	22.05	-29.6	-30.3	27.7	0.00e+00	0	30	0	2648702976	32	5915
2026-01-15 19:12:49.34	294.37	21.99	-29.6	-30.2	27.7	0.00e+00	0	30	0	2654994432	32	5861
2026-01-15 19:12:50.35	294.13	21.91	-29.8	-30.4	27.5	0.00e+00	0	30	0	2660237312	32	5992
2026-01-15 19:12:51.36	293.90	21.84	-29.6	-30.2	27.7	0.00e+00	0	30	0	2666528768	32	5884
2026-01-15 19:12:52.37	293.67	21.77	-29.8	-30.3	27.6	0.00e+00	0	30	0	2671771648	32	5945
2026-01-15 19:12:53.38	293.44	21.70	-29.8	-30.5	27.5	0.00e+00	0	29	0	2678063104	32	6066
2026-01-15 19:12:54.39	293.21	21.63	-29.9	-30.4	27.4	0.00e+00	0	30	0	2683305984	32	6020
2026-01-15 19:12:55.40	292.98	21.56	-29.9	-30.5	27.5	0.00e+00	0	29	0	2688548864	32	6036
2026-01-15 19:12:56.41	292.75	21.48	-30.0	-30.6	27.2	0.00e+00	0	29	0	2694840320	32	6148
2026-01-15 19:12:57.42	292.53	21.41	-30.0	-30.6	27.1	0.00e+00	0	29	0	2700083200	32	6158
2026-01-15 19:12:58.43	292.30	21.34	-30.0	-30.7	27.2	0.00e+00	0	29	0	2706374656	32	6184
2026-01-15 19:12:59.44	292.08	21.27	-30.1	-30.7	27.1	0.00e+00	0	30	0	2711617536	32	6186
2026-01-15 19:13:00.45	291.85	21.19	-30.1	-30.7	27.1	0.00e+00	0	30	0	2716860416	32	6180
2026-01-15 19:13:01.46	291.63	21.12	-30.1	-30.7	27.1	0.00e+00	0	30	0	2723151872	32	6201
2026-01-15 19:13:02.47	291.41	21.04	-29.8	-30.5	27.3	0.00e+00	0	29	0	2728394752	32	6093
2026-01-15 19:13:03.48	291.19	20.97	-29.8	-30.5	27.3	0.00e+00	0	30	0	2734686208	32	6061
2026-01-15 19:13:04.49	290.97	20.90	-29.7	-30.4	27.4	0.00e+00	0	29	0	2739929088	32	5990
2026-01-15 19:13:05.51	290.75	20.82	-29.7	-30.3	27.4	0.00e+00	0	30	0	2746220544	32	5899
2026-01-15 19:13:06.52	290.54	20.75	-29.8	-30.3	27.3	0.00e+00	0	29	0	2751463424	32	5955
2026-01-15 19:13:07.52	290.32	20.67	-30.0	-30.6	27.2	0.00e+00	0	30	0	2756706304	32	6113
2026-01-15 19:13:08.53	290.11	20.60	-30.1	-30.7	27.1	0.00e+00	0	29	0	2762997760	32	6209
2026-01-15 19:13:09.55	289.89	20.52	-30.1	-30.7	27.0	0.00e+00	0	29	0	2768240640	32	6224
2026-01-15 19:13:10.56	289.68	20.44	-30.2	-30.8	27.1	0.00e+00	0	30	0	2774532096	32	6287
2026-01-15 19:13:11.57	289.47	20.37	-30.1	-30.7	27.1	0.00e+00	0	29	0	2779774976	32	6181
2026-01-15 19:13:12.58	289.26	20.29	-30.1	-30.7	27.1	0.00e+00	0	29	0	2786066432	32	6200
2026-01-15 19:13:13.59	289.05	20.22	-30.2	-30.8	27.0	0.00e+00	0	29	0	2791309312	32	6291
2026-01-15 19:13:14.60	288.84	20.14	-30.5	-31.1	26.8	0.00e+00	0	29	0	2796552192	32	6484
2026-01-15 19:13:15.61	288.63	20.06	-30.4	-31.1	26.8	0.00e+00	0	29	0	2802843648	32	6509
2026-01-15 19:13:16.62	288.43	19.99	-30.4	-31.1	26.8	0.00e+00	0	29	0	2808086528	32	6500
2026-01-15 19:13:17.63	288.22	19.91	-30.3	-31.1	26.9	0.00e+00	0	29	0	2814377984	32	6473
2026-01-15 19:13:18.64	288.02	19.83	-30.4	-31.1	26.8	0.00e+00	0	29	0	2819620864	32	6488
2026-01-15 19:13:19.65	287.81	19.75	-30.4	-31.0	26.8	0.00e+00	0	29	0	2824863744	32	6424
2026-01-15 19:13:20.66	287.61	19.68	-30.5	-31.2	26.4	0.00e+00	0	29	0	2831155200	32	6552
2026-01-15 19:13:21.67	287.41	19.60	-30.6	-31.2	26.7	0.00e+00	0	29	0	2836398080	32	6589
2026-01-15 19:13:22.68	287.21	19.52	-30.7	-31.3	26.4	0.00e+00	0	29	0	2842689536	32	6675
2026-01-15 19:13:23.69	287.01	19.44	-30.5	-31.1	26.5	0.00e+00	0	29	0	2847932416	32	6530
2026-01-15 19:13:24.70	286.81	19.37	-30.5	-31.1	26.6	0.00e+00	0	29	0	2853175296	32	6528
2026-01-15 19:13:25.71	286.62	19.29	-30.4	-31.1	26.6	0.00e+00	0	29	0	2859466752	32	6535
2026-01-15 19:13:26.72	286.42	19.21	-30.4	-31.0	26.6	0.00e+00	0	29	0	2864709632	32	6423
2026-01-15 19:13:27.73	286.23	19.13	-30.4	-31.0	26.7	0.00e+00	0	29	0	2871001088	32	6395
2026-01-15 19:13:28.74	286.03	19.05	-30.4	-31.0	26.8	0.00e+00	0	29	0	2876243968	32	6444
2026-01-15 19:13:29.75	285.84	18.98	-30.5	-31.1	26.5	0.00e+00	0	29	0	2882535424	32	6480
2026-01-15 19:13:30.76	285.65	18.90	-30.4	-31.2	26.8	0.00e+00	0	29	0	2887778304	32	6542
2026-01-15 19:13:31.77	285.46	18.82	-30.4	-31.1	26.9	0.00e+00	0	29	0	2894069760	32	6504
2026-01-15 19:13:32.78	285.27	18.74	-30.5	-31.2	26.7	0.00e+00	0	29	0	2899312640	32	6598
2026-01-15 19:13:33.79	285.08	18.66	-30.5	-31.1	26.7	0.00e+00	0	29	0	2904555520	32	6518
2026-01-15 19:13:34.81	284.89	18.58	-30.5	-31.0	26.7	0.00e+00	0	29	0	2910846976	32	6464
2026-01-15 19:13:35.82	284.70	18.50	-30.5	-31.2	26.8	0.00e+00	0	29	0	2916089856	32	6600
2026-01-15 19:13:36.83	284.51	18.43	-30.5	-31.2	26.8	0.00e+00	0	29	0	2922381312	32	6574
2026-01-15 19:13:37.83	284.33	18.35	-30.3	-31.0	26.9	0.00e+00	0	29	0	2927624192	32	6449
2026-01-15 19:13:38.84	284.15	18.27	-30.3	-31.0	26.9	0.00e+00	0	29	0	2932867072	32	6416
2026-01-15 19:13:39.85	283.96	18.19	-30.4	-31.1	26.9	0.00e+00	0	29	0	2939158528	32	6476
2026-01-15 19:13:40.86	283.78	18.11	-30.4	-31.1	26.8	0.00e+00	0	29	0	2944401408	32	6510
2026-01-15 19:13:41.87	283.60	18.03	-30.6	-31.2	26.6	0.00e+00	0	29	0	2950692864	32	6579
2026-01-15 19:13:42.88	283.42	17.95	-30.7	-31.3	26.6	0.00e+00	0	29	0	2955935744	32	6623
2026-01-15 19:13:43.89	283.24	17.87	-30.8	-31.5	26.5	0.00e+00	0	29	0	2961178624	34	6060
2026-01-15 19:13:44.90	283.06	17.79	-30.9	-31.7	26.4	0.00e+00	0	29	0	2967470080	34	6180
2026-01-15 19:13:45.91	282.88	17.71	-31.2	-31.9	26.1	0.00e+00	0	29	0	2972712960	34	6345
2026-01-15 19:13:46.92	282.71	17.63	-30.9	-31.6	26.3	0.00e+00	0	29	0	2979004416	34	6173
2026-01-15 19:13:47.93	282.53	17.56	-30.8	-31.4	26.4	0.00e+00	0	29	0	2984247296	34	6018
2026-01-15 19:13:48.94	282.36	17.48	-30.8	-31.4	26.4	0.00e+00	0	29	0	2990538752	34	6018
2026-01-15 19:13:49.96	282.18	17.40	-30.9	-31.5	26.4	0.00e+00	0	29	0	2995781632	34	6054
2026-01-15 19:13:50.97	282.01	17.32	-30.9	-31.5	26.3	0.00e+00	0	29	0	3002073088	34	6049
2026-01-15 19:13:51.98	281.84	17.24	-30.8	-31.4	26.5	0.00e+00	0	29	0	3007315968	34	5991
2026-01-15 19:13:52.98	281.67	17.16	-30.8	-31.5	26.4	0.00e+00	0	29	0	3012558848	34	6064
2026-01-15 19:13:54.00	281.50	17.08	-30.8	-31.5	26.4	0.00e+00	0	29	0	3018850304	34	6082
2026-01-15 19:13:55.00	281.33	17.00	-30.8	-31.5	26.4	0.00e+00	0	29	0	3024093184	34	6073
2026-01-15 19:13:56.02	281.16	16.92	-30.8	-31.3	26.4	0.00e+00	0	29	0	3030384640	34	5955
2026-01-15 19:13:57.03	280.99	16.84	-30.8	-31.5	26.5	0.00e+00	0	29	0	3035627520	34	6092
2026-01-15 19:13:58.04	280.83	16.76	-30.8	-31.6	26.4	0.00e+00	0	29	0	3040870400	34	6111
2026-01-15 19:13:59.05	280.66	16.68	-30.9	-31.5	26.4	0.00e+00	0	29	0	3047161856	34	6052
2026-01-15 19:14:00.06	280.50	16.60	-31.0	-31.7	26.3	0.00e+00	0	29	0	3052404736	34	6224
2026-01-15 19:14:01.07	280.33	16.52	-31.0	-31.7	26.3	0.00e+00	0	29	0	3058696192	34	6212
2026-01-15 19:14:02.08	280.17	16.44	-31.2	-31.9	26.2	0.00e+00	0	29	0	3063939072	34	6343
2026-01-15 19:14:03.09	280.01	16.36	-31.4	-32.0	26.0	0.00e+00	0	29	0	3069181952	34	6433
2026-01-15 19:14:04.10	279.85	16.28	-31.5	-32.1	25.9	0.00e+00	0	29	0	3075473408	34	6489
2026-01-15 19:14:05.11	279.69	16.21	-31.4	-32.2	26.0	0.00e+00	0	29	0	3080716288	34	6559
2026-01-15 19:14:06.12	279.53	16.13	-31.2	-31.9	26.1	0.00e+00	0	29	0	3087007744	34	6387
2026-01-15 19:14:07.13	279.37	16.05	-31.4	-32.0	26.1	0.00e+00	0	29	0	3092250624	34	6407
2026-01-15 19:14:08.14	279.21	15.97	-31.3	-31.9	26.1	0.00e+00	0	29	0	3098542080	34	6344
2026-01-15 19:14:09.15	279.05	15.89	-31.3	-31.8	26.1	0.00e+00	0	29	0	3103784960	34	6315
2026-01-15 19:14:10.16	278.90	15.81	-31.3	-31.9	26.0	0.00e+00	0	29	0	3109027840	34	6370
2026-01-15 19:14:11.17	278.74	15.73	-31.2	-32.0	26.1	0.00e+00	0	29	0	3115319296	34	6399
2026-01-15 19:14:12.18	278.59	15.65	-31.2	-31.9	26.1	0.00e+00	0	29	0	3120562176	34	6387
2026-01-15 19:14:13.19	278.43	15.57	-31.4	-32.1	26.0	0.00e+00	0	29	0	3126853632	34	6498
2026-01-15 19:14:14.20	278.28	15.49	-31.5	-32.3	25.9	0.00e+00	0	29	0	3132096512	34	6618
2026-01-15 19:14:15.21	278.13	15.42	-31.7	-32.4	25.7	0.00e+00	0	29	0	3138387968	34	6702
2026-01-15 19:14:16.22	277.98	15.34	-31.6	-32.4	25.7	0.00e+00	0	29	0	3143630848	34	6712
2026-01-15 19:14:17.23	277.83	15.26	-31.6	-32.2	25.8	0.00e+00	0	29	0	3148873728	34	6566
2026-01-15 19:14:18.24	277.68	15.18	-31.6	-32.2	25.8	0.00e+00	0	29	0	3155165184	34	6606
2026-01-15 19:14:19.25	277.53	15.10	-31.5	-32.2	25.9	0.00e+00	0	29	0	3160408064	34	6589
2026-01-15 19:14:20.26	277.38	15.02	-31.5	-32.2	25.9	0.00e+00	0	29	0	3166699520	34	6565
2026-01-15 19:14:21.27	277.23	14.94	-31.4	-32.0	25.9	0.00e+00	0	29	0	3171942400	34	6434
2026-01-15 19:14:22.28	277.09	14.86	-31.5	-32.1	25.9	0.00e+00	0	29	0	3177185280	34	6483
2026-01-15 19:14:23.29	276.94	14.79	-31.7	-32.3	25.7	0.00e+00	0	29	0	3183476736	34	6621
2026-01-15 19:14:24.30	276.80	14.71	-31.7	-32.3	25.7	0.00e+00	0	29	0	3188719616	34	6622
2026-01-15 19:14:25.31	276.65	14.63	-31.6	-32.2	25.8	0.00e+00	0	29	0	3195011072	34	6566
2026-01-15 19:14:26.32	276.51	14.55	-31.7	-32.3	25.6	0.00e+00	0	29	0	3200253952	34	6656
2026-01-15 19:14:27.33	276.37	14.47	-31.7	-32.3	25.7	0.00e+00	0	29	0	3205496832	36	5940
2026-01-15 19:14:28.34	276.23	14.40	-31.7	-32.3	25.6	0.00e+00	0	29	0	3211788288	36	5957
2026-01-15 19:14:29.36	276.08	14.32	-31.6	-32.2	25.7	0.00e+00	0	29	0	3217031168	36	5848
2026-01-15 19:14:30.37	275.94	14.24	-31.5	-32.1	25.8	0.00e+00	0	29	0	3223322624	36	5820
2026-01-15 19:14:31.38	275.80	14.16	-31.6	-32.2	25.8	0.00e+00	0	29	0	3228565504	36	5854
2026-01-15 19:14:32.39	275.67	14.08	-31.6	-32.2	25.8	0.00e+00	0	29	0	3234856960	36	5838
2026-01-15 19:14:33.40	275.53	14.01	-31.7	-32.3	25.7	0.00e+00	0	29	0	3240099840	36	5901
2026-01-15 19:14:34.41	275.39	13.93	-31.8	-32.3	25.6	0.00e+00	0	29	0	3246391296	36	5962
2026-01-15 19:14:35.42	275.25	13.85	-31.7	-32.5	25.6	0.00e+00	0	29	0	3251634176	36	6051
2026-01-15 19:14:36.43	275.12	13.77	-31.9	-32.5	25.4	0.00e+00	0	29	0	3256877056	36	6082
2026-01-15 19:14:37.44	274.98	13.70	-31.9	-32.6	25.5	0.00e+00	0	29	0	3263168512	36	6158
2026-01-15 19:14:38.45	274.85	13.62	-31.9	-32.7	25.5	0.00e+00	0	29	0	3268411392	36	6188
2026-01-15 19:14:39.46	274.72	13.54	-32.0	-32.7	25.4	0.00e+00	0	29	0	3274702848	36	6224
2026-01-15 19:14:40.47	274.58	13.46	-32.0	-32.6	25.4	0.00e+00	0	29	0	3279945728	36	6123
2026-01-15 19:14:41.48	274.45	13.39	-32.0	-32.7	25.3	0.00e+00	0	29	0	3285188608	36	6241
2026-01-15 19:14:42.49	274.32	13.31	-32.1	-32.7	25.3	0.00e+00	0	29	0	3291480064	36	6206
2026-01-15 19:14:43.50	274.19	13.23	-32.2	-32.8	25.3	0.00e+00	0	29	0	3296722944	36	6287
2026-01-15 19:14:44.51	274.06	13.16	-31.9	-32.5	25.5	0.00e+00	0	29	0	3303014400	36	6097
2026-01-15 19:14:45.52	273.93	13.08	-32.0	-32.6	25.4	0.00e+00	0	29	0	3308257280	36	6133
2026-01-15 19:14:46.53	273.80	13.00	-32.1	-32.7	25.3	0.00e+00	0	29	0	3313500160	36	6230
2026-01-15 19:14:47.54	273.67	12.93	-32.1	-32.9	25.2	0.00e+00	0	29	0	3319791616	36	6353
2026-01-15 19:14:48.55	273.54	12.85	-32.1	-32.8	25.4	0.00e+00	0	29	0	3325034496	36	6300
2026-01-15 19:14:49.56	273.42	12.77	-32.1	-32.9	25.3	0.00e+00	0	29	0	3331325952	36	6347
2026-01-15 19:14:50.57	273.29	12.70	-32.3	-33.0	25.1	0.00e+00	0	29	0	3336568832	36	6394
2026-01-15 19:14:51.58	273.17	12.62	-32.2	-32.9	25.2	0.00e+00	0	29	0	3342860288	36	6388
2026-01-15 19:14:52.59	273.04	12.55	-32.3	-32.9	25.1	0.00e+00	0	29	0	3348103168	36	6343
2026-01-15 19:14:53.60	272.92	12.47	-32.4	-33.2	25.0	0.00e+00	0	29	0	3354394624	36	6580
2026-01-15 19:14:54.61	272.79	12.40	-32.4	-33.2	25.0	0.00e+00	0	29	0	3359637504	36	6552
2026-01-15 19:14:55.62	272.67	12.32	-32.4	-33.2	24.9	0.00e+00	0	29	0	3364880384	36	6568
2026-01-15 19:14:56.63	272.55	12.24	-32.7	-33.4	24.8	0.00e+00	0	29	0	3371171840	38	5976
2026-01-15 19:14:57.64	272.43	12.17	-32.9	-33.7	24.5	0.00e+00	0	29	0	3376414720	38	6190
2026-01-15 19:14:58.65	272.31	12.09	-33.1	-33.7	24.3	0.00e+00	0	29	0	3382706176	38	6227
2026-01-15 19:14:59.67	272.19	12.02	-33.1	-33.7	24.5	0.00e+00	0	29	0	3387949056	38	6199
2026-01-15 19:15:00.68	272.07	11.94	-32.8	-33.4	24.6	0.00e+00	0	29	0	3393191936	38	6012
2026-01-15 19:15:01.69	271.95	11.87	-32.5	-33.3	24.8	0.00e+00	0	29	0	3399483392	38	5906
2026-01-15 19:15:02.70	271.83	11.79	-32.7	-33.3	24.7	0.00e+00	0	29	0	3404726272	38	5955
2026-01-15 19:15:03.71	271.71	11.72	-32.6	-33.3	24.8	0.00e+00	0	29	0	3411017728	38	5942
2026-01-15 19:15:04.72	271.59	11.64	-32.5	-33.1	24.9	0.00e+00	0	29	0	3416260608	38	5826
2026-01-15 19:15:05.73	271.48	11.57	-32.5	-33.1	24.9	0.00e+00	0	29	0	3421503488	38	5793
2026-01-15 19:15:06.73	271.36	11.49	-32.5	-33.1	24.9	0.00e+00	0	29	0	3427794944	38	5799
2026-01-15 19:15:07.74	271.25	11.42	-32.6	-33.2	24.8	0.00e+00	0	29	0	3433037824	38	5857
2026-01-15 19:15:08.76	271.13	11.35	-32.5	-33.1	24.8	0.00e+00	0	29	0	3439329280	38	5820
2026-01-15 19:15:09.77	271.02	11.27	-32.5	-33.3	24.9	0.00e+00	0	29	0	3444572160	38	5901
2026-01-15 19:15:10.78	270.90	11.20	-32.5	-33.2	24.9	0.00e+00	0	29	0	3450863616	38	5879
2026-01-15 19:15:11.79	270.79	11.12	-32.5	-33.2	24.8	0.00e+00	0	29	0	3456106496	38	5883
2026-01-15 19:15:12.79	270.68	11.05	-32.6	-33.4	24.8	0.00e+00	0	29	0	3461349376	38	5989
2026-01-15 19:15:13.80	270.57	10.98	-32.6	-33.2	24.8	0.00e+00	0	29	0	3467640832	38	5870
2026-01-15 19:15:14.81	270.46	10.90	-32.7	-33.3	24.7	0.00e+00	0	29	0	3472883712	38	5923
2026-01-15 19:15:15.82	270.34	10.83	-32.5	-33.1	24.8	0.00e+00	0	29	0	3479175168	38	5813
2026-01-15 19:15:16.83	270.23	10.76	-32.8	-33.4	24.6	0.00e+00	0	29	0	3484418048	38	5998
2026-01-15 19:15:17.84	270.13	10.68	-32.8	-33.4	24.6	0.00e+00	0	29	0	3489660928	38	6025
2026-01-15 19:15:18.85	270.02	10.61	-32.9	-33.6	24.5	0.00e+00	0	29	0	3495952384	38	6114
2026-01-15 19:15:19.87	269.91	10.54	-33.0	-33.7	24.4	0.00e+00	0	29	0	3501195264	38	6198
2026-01-15 19:15:20.88	269.80	10.46	-33.0	-33.7	24.3	0.00e+00	0	29	0	3507486720	38	6192
2026-01-15 19:15:21.88	269.69	10.39	-33.1	-33.9	24.3	0.00e+00	0	29	0	3512729600	38	6353
2026-01-15 19:15:22.90	269.58	10.32	-33.1	-33.8	24.1	0.00e+00	0	29	0	3517972480	38	6276
2026-01-15 19:15:23.91	269.48	10.25	-33.1	-33.8	24.3	0.00e+00	0	29	0	3524263936	38	6262
2026-01-15 19:15:24.92	269.37	10.17	-33.1	-33.8	24.3	0.00e+00	0	29	0	3529506816	38	6250
2026-01-15 19:15:25.92	269.27	10.10	-33.0	-33.8	24.3	0.00e+00	0	29	0	3535798272	38	6263
2026-01-15 19:15:26.93	269.16	10.03	-33.0	-33.6	24.4	0.00e+00	0	29	0	3541041152	38	6151
2026-01-15 19:15:27.95	269.06	9.96	-32.9	-33.6	24.3	0.00e+00	0	29	0	3547332608	38	6116
2026-01-15 19:15:28.96	268.96	9.89	-33.1	-33.8	24.3	0.00e+00	0	29	0	3552575488	38	6248
2026-01-15 19:15:29.97	268.85	9.81	-33.0	-33.6	24.4	0.00e+00	0	29	0	3558866944	38	6137
2026-01-15 19:15:30.97	268.75	9.74	-33.1	-33.9	24.2	0.00e+00	0	29	0	3564109824	38	6363
2026-01-15 19:15:31.99	268.65	9.67	-33.3	-34.1	24.0	0.00e+00	0	29	0	3569352704	38	6517
2026-01-15 19:15:33.00	268.55	9.60	-33.2	-33.9	24.1	0.00e+00	0	29	0	3575644160	38	6339
2026-01-15 19:15:34.00	268.45	9.53	-33.5	-34.3	23.8	0.00e+00	0	29	0	3580887040	38	6638
2026-01-15 19:15:35.01	268.35	9.46	-33.5	-34.1	23.9	0.00e+00	0	29	0	3587178496	38	6522
2026-01-15 19:15:36.02	268.25	9.39	-33.3	-34.0	24.0	0.00e+00	0	29	0	3592421376	38	6435
2026-01-15 19:15:37.03	268.15	9.31	-33.4	-34.1	23.9	0.00e+00	0	29	0	3597664256	38	6487
