passes_logs/2026/01/15/R4.6S_Anadyr/R4.6S_Anadyr__20260115_033841_FENGYUN_3D_rec.log

#Pass ID: 20260115_033841_FENGYUN 3D
#Satellite: FENGYUN 3D
#Configuration: FENGYUN 3D
#almurnet v.1.7.20251203
#Start time: 2026-01-15 03:38:43

#Version: 2.2.20231116
#Station: R4.6S_Anadyr
#Location: 177.4865 lon 64.73178 lat
#TLE: 1 43010U 17072A   26014.65117763 -.00000217  00000+0 -80772-4 0  9993
#TLE: 2 43010  98.9933 346.4618 0002330 108.4699 251.6730 14.19694700423204

#Time	Az	El	Level	Level2	SNR	BER	BlckErr	Temp	State	Recorded	gain1	gain2
2026-01-15 03:38:43.01	191.51	0.08	-48.8	-63.6	3.5	1.51e+00	0	27	0	0	60	54751
2026-01-15 03:38:44.02	191.56	0.13	-48.7	-60.8	3.6	8.45e-01	0	28	104	0	60	39663
2026-01-15 03:38:45.03	191.61	0.19	-48.8	-60.9	3.6	8.46e-01	0	28	104	0	60	40201
2026-01-15 03:38:46.04	191.65	0.25	-48.8	-61.0	3.6	8.45e-01	0	28	104	0	60	40606
2026-01-15 03:38:47.05	191.70	0.30	-48.8	-60.9	3.6	8.46e-01	0	28	104	0	60	40256
2026-01-15 03:38:48.06	191.75	0.36	-48.8	-60.9	3.6	8.46e-01	0	28	104	0	60	40187
2026-01-15 03:38:49.07	191.79	0.42	-48.9	-61.0	3.6	8.45e-01	0	28	104	0	60	40599
2026-01-15 03:38:50.08	191.84	0.48	-48.8	-60.9	3.6	8.45e-01	0	28	104	0	60	40176
2026-01-15 03:38:51.08	191.89	0.53	-48.9	-61.1	3.6	8.46e-01	0	28	104	0	60	40797
2026-01-15 03:38:52.09	191.93	0.59	-48.8	-60.9	3.5	8.46e-01	0	28	104	0	60	40257
2026-01-15 03:38:53.10	191.98	0.65	-48.8	-61.0	3.6	8.44e-01	0	28	104	0	60	40656
2026-01-15 03:38:54.11	192.03	0.71	-48.5	-60.8	3.6	8.46e-01	0	28	104	0	60	39512
2026-01-15 03:38:55.12	192.07	0.77	-48.4	-60.7	3.6	8.44e-01	0	28	104	0	60	39030
2026-01-15 03:38:56.13	192.12	0.82	-48.4	-60.5	3.6	8.46e-01	0	28	104	0	60	38158
2026-01-15 03:38:57.14	192.17	0.88	-48.0	-60.1	3.6	8.45e-01	0	28	104	0	60	36634
2026-01-15 03:38:58.15	192.22	0.94	-47.9	-60.0	3.6	8.46e-01	0	28	104	0	60	36060
2026-01-15 03:38:59.16	192.27	1.00	-47.5	-59.5	3.6	8.47e-01	0	28	104	0	60	33992
2026-01-15 03:39:00.17	192.32	1.06	-47.4	-59.3	3.5	8.45e-01	0	28	104	0	60	33509
2026-01-15 03:39:01.18	192.36	1.12	-47.4	-59.3	3.6	8.44e-01	0	28	104	0	60	33461
2026-01-15 03:39:02.19	192.41	1.18	-47.4	-59.3	3.6	8.45e-01	0	28	104	0	60	33436
2026-01-15 03:39:03.20	192.46	1.23	-47.4	-59.4	3.6	8.46e-01	0	28	104	0	60	33596
2026-01-15 03:39:04.21	192.51	1.29	-47.5	-59.4	3.6	8.46e-01	0	28	104	0	60	33882
2026-01-15 03:39:05.22	192.56	1.35	-47.4	-59.4	3.6	8.45e-01	0	29	104	0	60	33772
2026-01-15 03:39:06.23	192.61	1.41	-47.4	-59.4	3.6	8.45e-01	0	29	104	0	60	33854
2026-01-15 03:39:07.24	192.66	1.47	-47.4	-59.4	3.6	8.46e-01	0	29	104	0	60	33880
2026-01-15 03:39:08.24	192.71	1.53	-47.4	-59.5	3.6	8.45e-01	0	29	104	0	60	34050
2026-01-15 03:39:09.25	192.76	1.59	-47.4	-59.5	3.6	8.45e-01	0	29	104	0	60	34050
2026-01-15 03:39:10.26	192.81	1.65	-47.4	-59.4	3.6	8.46e-01	0	29	104	0	60	33841
2026-01-15 03:39:11.27	192.86	1.71	-47.4	-59.4	3.6	8.44e-01	0	29	104	0	60	33694
2026-01-15 03:39:12.29	192.91	1.77	-47.4	-59.4	3.6	8.44e-01	0	29	104	0	60	33764
2026-01-15 03:39:13.30	192.96	1.83	-47.4	-59.4	3.6	8.45e-01	0	29	104	0	60	33857
2026-01-15 03:39:14.30	193.01	1.89	-47.4	-59.4	3.6	8.46e-01	0	29	104	0	60	33602
2026-01-15 03:39:15.32	193.07	1.95	-47.4	-59.5	3.6	8.45e-01	0	29	104	0	60	34011
2026-01-15 03:39:16.32	193.12	2.01	-47.4	-59.5	3.6	8.46e-01	0	29	104	0	60	34197
2026-01-15 03:39:17.33	193.17	2.07	-47.4	-59.5	3.6	8.44e-01	0	29	104	0	60	34111
2026-01-15 03:39:18.35	193.22	2.13	-47.4	-59.5	3.6	8.45e-01	0	29	104	0	60	33978
2026-01-15 03:39:19.35	193.27	2.19	-47.4	-59.5	3.6	8.46e-01	0	29	104	0	60	34066
2026-01-15 03:39:20.36	193.32	2.25	-47.4	-59.4	3.6	8.45e-01	0	29	104	0	60	33554
2026-01-15 03:39:21.37	193.38	2.31	-47.4	-59.5	3.6	8.45e-01	0	29	104	0	60	34072
2026-01-15 03:39:22.38	193.43	2.37	-47.4	-59.5	3.6	8.45e-01	0	29	104	0	60	34126
2026-01-15 03:39:23.39	193.48	2.43	-47.4	-59.2	3.6	8.46e-01	0	29	104	0	60	33012
2026-01-15 03:39:24.40	193.54	2.49	-47.4	-58.5	3.6	8.45e-01	0	29	104	0	60	30286
2026-01-15 03:39:25.41	193.59	2.56	-47.3	-57.7	3.6	8.45e-01	0	29	104	0	60	27579
2026-01-15 03:39:26.42	193.64	2.62	-47.2	-57.0	3.6	8.45e-01	0	29	104	0	60	25488
2026-01-15 03:39:27.43	193.70	2.68	-47.1	-56.6	3.8	8.40e-01	0	29	104	0	60	24349
2026-01-15 03:39:28.44	193.75	2.74	-47.3	-57.6	3.6	8.44e-01	0	29	104	0	60	27506
2026-01-15 03:39:29.45	193.80	2.80	-47.4	-58.6	3.6	8.45e-01	0	29	104	0	60	30826
2026-01-15 03:39:30.46	193.86	2.86	-47.1	-56.4	3.7	8.45e-01	0	29	104	0	60	23770
2026-01-15 03:39:31.47	193.91	2.93	-46.3	-51.4	6.2	6.67e-01	0	29	0	1048576	60	13439
2026-01-15 03:39:32.48	193.97	2.99	-44.5	-47.5	10.7	1.01e-02	0	29	0	7340032	60	8542
2026-01-15 03:39:33.49	194.02	3.05	-42.5	-44.4	14.4	1.30e-04	0	29	0	12582912	60	5981
2026-01-15 03:39:34.50	194.08	3.11	-40.8	-42.2	16.4	0.00e+00	0	29	0	17825792	56	5860
2026-01-15 03:39:35.51	194.13	3.18	-39.4	-40.6	18.1	0.00e+00	0	29	0	24117248	52	6129
2026-01-15 03:39:36.52	194.19	3.24	-38.0	-39.0	19.5	0.00e+00	0	29	0	29360128	50	5696
2026-01-15 03:39:37.53	194.25	3.30	-37.4	-38.3	20.0	0.00e+00	0	29	0	35651584	48	5950
2026-01-15 03:39:38.54	194.30	3.36	-36.9	-37.8	20.6	0.00e+00	0	29	0	40894464	48	5601
2026-01-15 03:39:39.55	194.36	3.43	-37.3	-38.2	20.2	0.00e+00	0	29	0	46137344	48	5888
2026-01-15 03:39:40.56	194.41	3.49	-37.6	-38.6	19.9	0.00e+00	0	29	0	52428800	48	6137
2026-01-15 03:39:41.57	194.47	3.55	-36.0	-36.8	21.2	0.00e+00	0	29	0	57671680	46	5580
2026-01-15 03:39:42.58	194.53	3.62	-37.3	-38.3	18.6	0.00e+00	0	29	0	63963136	44	7430
2026-01-15 03:39:43.59	194.59	3.68	-37.4	-38.2	21.0	3.50e-01	0	29	0	67108864	54	4165
2026-01-15 03:39:44.60	194.64	3.74	-39.6	-40.8	17.3	0.00e+00	0	29	0	72351744	50	7080
2026-01-15 03:39:45.61	194.70	3.81	-37.3	-38.2	20.0	0.00e+00	0	29	0	78643200	48	5868
2026-01-15 03:39:46.62	194.76	3.87	-40.7	-42.0	17.2	7.57e-03	0	29	0	83886080	56	5716
2026-01-15 03:39:47.63	194.82	3.93	-38.0	-39.0	19.3	0.00e+00	0	29	0	90177536	50	5748
2026-01-15 03:39:48.64	194.88	4.00	-38.3	-39.3	19.0	0.00e+00	0	29	0	95420416	50	5922
2026-01-15 03:39:49.65	194.93	4.06	-37.9	-38.9	20.0	0.00e+00	0	29	0	100663296	50	5665
2026-01-15 03:39:50.66	194.99	4.13	-37.8	-38.8	19.8	0.00e+00	0	29	0	106954752	48	6314
2026-01-15 03:39:51.67	195.05	4.19	-38.1	-39.1	19.7	0.00e+00	0	29	0	112197632	48	6506
2026-01-15 03:39:52.68	195.11	4.26	-37.2	-38.1	20.4	0.00e+00	0	29	0	117440512	48	5782
2026-01-15 03:39:53.69	195.17	4.32	-36.9	-37.8	21.0	0.00e+00	0	29	0	123731968	48	5605
2026-01-15 03:39:54.69	195.23	4.39	-36.6	-37.4	21.2	0.00e+00	0	29	0	128974848	46	5999
2026-01-15 03:39:55.71	195.29	4.45	-36.6	-37.5	21.3	0.00e+00	0	29	0	135266304	46	6036
2026-01-15 03:39:56.72	195.35	4.52	-36.1	-37.0	21.8	0.00e+00	0	29	0	140509184	46	5706
2026-01-15 03:39:57.73	195.41	4.58	-35.7	-36.5	22.2	0.00e+00	0	29	0	145752064	44	6065
2026-01-15 03:39:58.74	195.47	4.65	-35.5	-36.3	22.3	0.00e+00	0	29	0	152043520	44	5946
2026-01-15 03:39:59.75	195.54	4.71	-35.4	-36.2	22.4	0.00e+00	0	29	0	157286400	44	5856
2026-01-15 03:40:00.76	195.60	4.78	-35.1	-35.9	22.7	0.00e+00	0	29	0	163577856	44	5670
2026-01-15 03:40:01.77	195.66	4.84	-35.3	-36.2	22.5	0.00e+00	0	29	0	168820736	44	5831
2026-01-15 03:40:02.78	195.72	4.91	-35.2	-36.0	22.7	0.00e+00	0	29	0	175112192	44	5710
2026-01-15 03:40:03.79	195.78	4.98	-35.3	-36.1	22.5	0.00e+00	0	29	0	180355072	44	5782
2026-01-15 03:40:04.80	195.85	5.04	-35.2	-36.0	22.7	0.00e+00	0	29	0	186646528	44	5748
2026-01-15 03:40:05.81	195.91	5.11	-35.2	-36.0	22.7	0.00e+00	0	29	0	191889408	44	5713
2026-01-15 03:40:06.82	195.97	5.17	-35.2	-35.9	22.7	0.00e+00	0	29	0	197132288	44	5664
2026-01-15 03:40:07.83	196.03	5.24	-35.1	-35.9	22.8	0.00e+00	0	29	0	203423744	44	5677
2026-01-15 03:40:08.84	196.10	5.31	-35.0	-35.7	22.9	0.00e+00	0	29	0	208666624	44	5556
2026-01-15 03:40:09.85	196.16	5.37	-35.0	-35.8	22.9	0.00e+00	0	29	0	214958080	44	5616
2026-01-15 03:40:10.86	196.23	5.44	-35.0	-35.8	22.9	0.00e+00	0	29	0	220200960	44	5579
2026-01-15 03:40:11.87	196.29	5.51	-35.0	-35.8	23.0	0.00e+00	0	29	0	225443840	44	5589
2026-01-15 03:40:12.88	196.36	5.58	-35.0	-35.8	22.9	0.00e+00	0	29	0	231735296	44	5600
2026-01-15 03:40:13.89	196.42	5.64	-35.0	-35.8	23.0	0.00e+00	0	29	0	236978176	44	5595
2026-01-15 03:40:14.89	196.48	5.71	-35.0	-35.7	23.0	0.00e+00	0	29	0	243269632	44	5560
2026-01-15 03:40:15.90	196.55	5.78	-34.9	-35.7	23.1	0.00e+00	0	29	0	248512512	44	5536
2026-01-15 03:40:16.91	196.62	5.85	-34.8	-35.6	23.2	0.00e+00	0	29	0	253755392	42	6114
2026-01-15 03:40:17.92	196.68	5.91	-34.8	-35.5	23.2	0.00e+00	0	29	0	260046848	42	6088
2026-01-15 03:40:18.93	196.75	5.98	-34.7	-35.5	23.3	0.00e+00	0	29	0	265289728	42	6053
2026-01-15 03:40:19.94	196.82	6.05	-35.0	-35.8	23.1	0.00e+00	0	29	0	271581184	42	6271
2026-01-15 03:40:20.95	196.88	6.12	-35.3	-36.0	22.9	0.00e+00	0	29	0	276824064	42	6456
2026-01-15 03:40:21.96	196.95	6.19	-35.2	-35.9	22.8	0.00e+00	0	29	0	283115520	42	6375
2026-01-15 03:40:22.97	197.02	6.26	-34.8	-35.6	23.2	0.00e+00	0	29	0	288358400	42	6124
2026-01-15 03:40:23.98	197.09	6.33	-34.8	-35.5	23.3	0.00e+00	0	29	0	294649856	42	6072
2026-01-15 03:40:24.99	197.15	6.40	-34.5	-35.2	23.5	0.00e+00	0	29	0	299892736	42	5896
2026-01-15 03:40:26.00	197.22	6.46	-34.5	-35.2	23.6	0.00e+00	0	29	0	305135616	42	5872
2026-01-15 03:40:27.01	197.29	6.53	-34.5	-35.3	23.6	0.00e+00	0	29	0	311427072	42	5924
2026-01-15 03:40:28.02	197.36	6.60	-34.5	-35.3	23.6	0.00e+00	0	29	0	316669952	42	5914
2026-01-15 03:40:29.03	197.43	6.67	-34.7	-35.5	23.3	0.00e+00	0	29	0	321912832	42	6069
2026-01-15 03:40:30.04	197.50	6.74	-34.4	-35.2	23.7	0.00e+00	0	29	0	328204288	42	5831
2026-01-15 03:40:31.05	197.57	6.81	-34.4	-35.1	23.7	0.00e+00	0	29	0	333447168	42	5813
2026-01-15 03:40:32.06	197.64	6.88	-34.4	-35.2	23.7	0.00e+00	0	29	0	339738624	42	5840
2026-01-15 03:40:33.06	197.71	6.95	-34.5	-35.3	23.5	0.00e+00	0	29	0	344981504	42	5910
2026-01-15 03:40:34.07	197.78	7.02	-34.4	-35.2	23.7	0.00e+00	0	29	0	350224384	42	5845
2026-01-15 03:40:35.09	197.85	7.10	-34.5	-35.2	23.6	0.00e+00	0	29	0	356515840	42	5879
2026-01-15 03:40:36.10	197.93	7.17	-34.3	-35.0	23.8	0.00e+00	0	29	0	361758720	42	5759
2026-01-15 03:40:37.11	198.00	7.24	-34.6	-35.3	23.6	0.00e+00	0	29	0	368050176	42	5950
2026-01-15 03:40:38.12	198.07	7.31	-34.6	-35.3	23.6	0.00e+00	0	29	0	373293056	42	5963
2026-01-15 03:40:39.13	198.14	7.38	-34.5	-35.3	23.6	0.00e+00	0	29	0	379584512	42	5934
2026-01-15 03:40:40.13	198.21	7.45	-34.5	-35.2	23.7	0.00e+00	0	29	0	384827392	42	5893
2026-01-15 03:40:41.14	198.29	7.52	-34.5	-35.2	23.8	0.00e+00	0	29	0	391118848	42	5862
2026-01-15 03:40:42.15	198.36	7.59	-34.4	-35.2	23.7	0.00e+00	0	29	0	396361728	42	5835
2026-01-15 03:40:43.16	198.44	7.67	-34.5	-35.3	23.6	0.00e+00	0	29	0	401604608	42	5920
2026-01-15 03:40:44.16	198.51	7.74	-34.5	-35.3	23.6	0.00e+00	0	29	0	407896064	42	5897
2026-01-15 03:40:45.17	198.58	7.81	-34.6	-35.3	23.6	0.00e+00	0	29	0	413138944	42	5933
2026-01-15 03:40:46.18	198.66	7.88	-34.7	-35.5	23.4	0.00e+00	0	29	0	419430400	42	6056
2026-01-15 03:40:47.19	198.74	7.95	-34.9	-35.6	23.3	0.00e+00	0	29	0	424673280	42	6173
2026-01-15 03:40:48.20	198.81	8.03	-35.0	-35.8	23.3	0.00e+00	0	29	0	429916160	42	6256
2026-01-15 03:40:49.20	198.89	8.10	-34.4	-35.1	23.8	0.00e+00	0	29	0	436207616	42	5816
2026-01-15 03:40:50.21	198.96	8.17	-34.6	-35.3	23.6	0.00e+00	0	29	0	441450496	42	5945
2026-01-15 03:40:51.22	199.04	8.25	-34.4	-35.1	23.8	0.00e+00	0	29	0	446693376	42	5795
2026-01-15 03:40:52.23	199.12	8.32	-34.5	-35.2	23.7	0.00e+00	0	29	0	452984832	42	5890
2026-01-15 03:40:53.24	199.20	8.39	-34.4	-35.1	23.8	0.00e+00	0	29	0	458227712	42	5805
2026-01-15 03:40:54.25	199.27	8.47	-34.3	-35.0	23.9	0.00e+00	0	29	0	464519168	42	5749
2026-01-15 03:40:55.26	199.35	8.54	-34.2	-34.9	24.0	0.00e+00	0	29	0	469762048	42	5694
2026-01-15 03:40:56.27	199.43	8.62	-34.2	-35.0	24.0	0.00e+00	0	29	0	476053504	42	5719
2026-01-15 03:40:57.28	199.51	8.69	-34.0	-34.7	24.1	0.00e+00	0	29	0	481296384	42	5558
2026-01-15 03:40:58.29	199.59	8.76	-34.0	-34.8	24.2	0.00e+00	0	29	0	487587840	42	5579
2026-01-15 03:40:59.30	199.67	8.84	-34.0	-34.7	24.3	0.00e+00	0	29	0	492830720	42	5555
2026-01-15 03:41:00.31	199.75	8.91	-33.9	-34.6	24.4	0.00e+00	0	29	0	498073600	42	5458
2026-01-15 03:41:01.32	199.83	8.99	-33.9	-34.6	24.4	0.00e+00	0	29	0	504365056	42	5500
2026-01-15 03:41:02.33	199.91	9.06	-33.9	-34.6	24.4	0.00e+00	0	29	0	509607936	42	5457
2026-01-15 03:41:03.34	199.99	9.14	-33.9	-34.6	24.4	0.00e+00	0	29	0	515899392	42	5492
2026-01-15 03:41:04.35	200.08	9.22	-33.7	-34.4	24.6	0.00e+00	0	29	0	521142272	42	5354
2026-01-15 03:41:05.36	200.16	9.29	-33.7	-34.4	24.5	0.00e+00	0	29	0	526385152	40	5975
2026-01-15 03:41:06.37	200.24	9.37	-33.6	-34.3	24.6	0.00e+00	0	29	0	532676608	40	5918
2026-01-15 03:41:07.38	200.32	9.44	-33.6	-34.3	24.6	0.00e+00	0	29	0	537919488	40	5909
2026-01-15 03:41:08.39	200.41	9.52	-33.6	-34.3	24.6	0.00e+00	0	29	0	544210944	40	5931
2026-01-15 03:41:09.39	200.49	9.60	-33.5	-34.2	24.7	0.00e+00	0	29	0	549453824	40	5878
2026-01-15 03:41:10.40	200.57	9.67	-33.6	-34.3	24.6	0.00e+00	0	29	0	554696704	40	5938
2026-01-15 03:41:11.41	200.66	9.75	-33.6	-34.3	24.7	0.00e+00	0	29	0	560988160	40	5924
2026-01-15 03:41:12.42	200.75	9.83	-33.5	-34.1	24.8	0.00e+00	0	29	0	566231040	40	5817
2026-01-15 03:41:13.43	200.83	9.90	-33.4	-34.1	24.8	0.00e+00	0	29	0	572522496	40	5763
2026-01-15 03:41:14.44	200.92	9.98	-33.5	-34.2	24.7	0.00e+00	0	29	0	577765376	40	5843
2026-01-15 03:41:15.45	201.00	10.06	-33.4	-34.1	24.8	0.00e+00	0	29	0	584056832	40	5798
2026-01-15 03:41:16.46	201.09	10.14	-33.4	-34.1	24.8	0.00e+00	0	29	0	589299712	40	5810
2026-01-15 03:41:17.47	201.18	10.21	-33.4	-34.1	24.7	0.00e+00	0	29	0	594542592	40	5800
2026-01-15 03:41:18.48	201.27	10.29	-33.4	-34.1	24.9	0.00e+00	0	29	0	600834048	40	5774
2026-01-15 03:41:19.49	201.35	10.37	-33.5	-34.2	24.7	0.00e+00	0	29	0	606076928	40	5840
2026-01-15 03:41:20.50	201.44	10.45	-33.4	-34.1	24.8	0.00e+00	0	29	0	612368384	40	5805
2026-01-15 03:41:21.51	201.53	10.53	-33.4	-34.0	24.9	0.00e+00	0	29	0	617611264	40	5760
2026-01-15 03:41:22.52	201.62	10.61	-33.5	-34.2	24.8	0.00e+00	0	29	0	622854144	40	5854
2026-01-15 03:41:23.53	201.71	10.69	-33.5	-34.2	24.8	0.00e+00	0	29	0	629145600	40	5873
2026-01-15 03:41:24.54	201.80	10.77	-33.3	-34.0	25.0	0.00e+00	0	29	0	634388480	40	5707
2026-01-15 03:41:25.55	201.89	10.85	-33.3	-34.0	25.0	0.00e+00	0	29	0	640679936	40	5701
2026-01-15 03:41:26.56	201.99	10.93	-33.2	-33.9	25.1	0.00e+00	0	29	0	645922816	40	5645
2026-01-15 03:41:27.57	202.08	11.01	-33.1	-33.8	25.1	0.00e+00	0	29	0	651165696	40	5612
2026-01-15 03:41:28.58	202.17	11.09	-33.1	-33.8	25.1	0.00e+00	0	29	0	657457152	40	5587
2026-01-15 03:41:29.59	202.26	11.17	-33.1	-33.7	25.2	0.00e+00	0	29	0	662700032	40	5559
2026-01-15 03:41:30.60	202.36	11.25	-33.0	-33.7	25.1	0.00e+00	0	29	0	668991488	40	5566
2026-01-15 03:41:31.61	202.45	11.33	-33.0	-33.7	25.3	0.00e+00	0	29	0	674234368	40	5546
2026-01-15 03:41:32.61	202.55	11.41	-32.9	-33.6	25.3	0.00e+00	0	29	0	680525824	40	5483
2026-01-15 03:41:33.62	202.64	11.49	-32.9	-33.5	25.4	0.00e+00	0	29	0	685768704	40	5434
2026-01-15 03:41:34.63	202.74	11.57	-32.9	-33.5	25.4	0.00e+00	0	29	0	692060160	40	5436
2026-01-15 03:41:35.64	202.83	11.65	-32.9	-33.6	25.4	0.00e+00	0	29	0	697303040	40	5440
2026-01-15 03:41:36.65	202.93	11.73	-32.9	-33.6	25.4	0.00e+00	0	29	0	702545920	40	5454
2026-01-15 03:41:37.66	203.03	11.82	-33.0	-33.7	25.2	0.00e+00	0	29	0	708837376	40	5530
2026-01-15 03:41:38.67	203.12	11.90	-32.9	-33.6	25.3	0.00e+00	0	29	0	714080256	40	5483
2026-01-15 03:41:39.68	203.22	11.98	-33.0	-33.6	25.3	0.00e+00	0	29	0	720371712	40	5480
2026-01-15 03:41:40.69	203.32	12.06	-32.9	-33.5	25.4	0.00e+00	0	29	0	725614592	40	5436
2026-01-15 03:41:41.70	203.42	12.15	-32.8	-33.5	25.5	0.00e+00	0	29	0	730857472	38	6066
2026-01-15 03:41:42.71	203.52	12.23	-32.8	-33.5	25.5	0.00e+00	0	29	0	737148928	38	6062
2026-01-15 03:41:43.72	203.62	12.31	-33.0	-33.6	25.3	0.00e+00	0	29	0	742391808	38	6168
2026-01-15 03:41:44.73	203.72	12.40	-32.8	-33.4	25.5	0.00e+00	0	29	0	748683264	38	6022
2026-01-15 03:41:45.74	203.82	12.48	-32.8	-33.5	25.5	0.00e+00	0	29	0	753926144	38	6080
2026-01-15 03:41:46.75	203.92	12.56	-32.8	-33.5	25.5	0.00e+00	0	29	0	759169024	38	6064
2026-01-15 03:41:47.76	204.03	12.65	-32.6	-33.2	25.7	0.00e+00	0	29	0	765460480	38	5895
2026-01-15 03:41:48.77	204.13	12.73	-32.7	-33.3	25.7	0.00e+00	0	29	0	770703360	38	5939
2026-01-15 03:41:49.78	204.23	12.82	-32.6	-33.2	25.7	0.00e+00	0	29	0	776994816	38	5891
2026-01-15 03:41:50.79	204.34	12.90	-32.6	-33.3	25.6	0.00e+00	0	29	0	782237696	38	5917
2026-01-15 03:41:51.80	204.44	12.98	-32.6	-33.2	25.7	0.00e+00	0	29	0	788529152	38	5860
2026-01-15 03:41:52.81	204.55	13.07	-32.5	-33.1	25.8	0.00e+00	0	29	0	793772032	38	5826
2026-01-15 03:41:53.82	204.65	13.16	-32.5	-33.2	25.8	0.00e+00	0	29	0	799014912	38	5850
2026-01-15 03:41:54.83	204.76	13.24	-32.5	-33.2	25.8	0.00e+00	0	29	0	805306368	38	5849
2026-01-15 03:41:55.84	204.87	13.33	-32.5	-33.2	25.8	0.00e+00	0	29	0	810549248	38	5849
2026-01-15 03:41:56.85	204.97	13.41	-32.5	-33.2	25.8	0.00e+00	0	29	0	816840704	38	5840
2026-01-15 03:41:57.86	205.08	13.50	-32.7	-33.4	25.7	0.00e+00	0	29	0	822083584	38	6028
2026-01-15 03:41:58.86	205.19	13.58	-32.6	-33.3	25.6	0.00e+00	0	29	0	827326464	38	5922
2026-01-15 03:41:59.87	205.30	13.67	-32.7	-33.4	25.6	0.00e+00	0	29	0	833617920	38	5994
2026-01-15 03:42:00.88	205.41	13.76	-32.4	-33.1	25.9	0.00e+00	0	29	0	838860800	38	5773
2026-01-15 03:42:01.89	205.52	13.84	-32.4	-33.0	25.9	0.00e+00	0	29	0	845152256	38	5755
2026-01-15 03:42:02.90	205.63	13.93	-32.3	-33.0	26.0	0.00e+00	0	29	0	850395136	38	5740
2026-01-15 03:42:03.91	205.74	14.02	-32.3	-32.9	26.0	0.00e+00	0	29	0	855638016	38	5691
2026-01-15 03:42:04.92	205.86	14.11	-32.2	-32.8	26.1	0.00e+00	0	29	0	861929472	38	5615
2026-01-15 03:42:05.93	205.97	14.19	-32.2	-32.8	26.1	0.00e+00	0	29	0	867172352	38	5599
2026-01-15 03:42:06.94	206.08	14.28	-32.2	-32.9	26.0	0.00e+00	0	29	0	873463808	38	5657
2026-01-15 03:42:07.95	206.20	14.37	-32.3	-33.0	26.1	0.00e+00	0	29	0	878706688	38	5697
2026-01-15 03:42:08.96	206.31	14.46	-32.3	-33.0	25.9	0.00e+00	0	29	0	884998144	38	5704
2026-01-15 03:42:09.96	206.43	14.55	-32.3	-32.9	26.0	0.00e+00	0	29	0	890241024	38	5686
2026-01-15 03:42:10.97	206.55	14.64	-32.3	-32.9	26.0	0.00e+00	0	29	0	895483904	38	5683
2026-01-15 03:42:11.98	206.66	14.73	-32.3	-33.0	26.0	0.00e+00	0	29	0	901775360	38	5725
2026-01-15 03:42:12.99	206.78	14.82	-32.3	-33.0	26.0	0.00e+00	0	29	0	907018240	38	5721
2026-01-15 03:42:14.00	206.90	14.90	-32.4	-33.1	25.9	0.00e+00	0	29	0	913309696	38	5785
2026-01-15 03:42:15.01	207.02	14.99	-32.3	-33.0	26.0	0.00e+00	0	29	0	918552576	38	5728
2026-01-15 03:42:16.02	207.14	15.08	-32.4	-33.0	25.9	0.00e+00	0	29	0	923795456	38	5739
2026-01-15 03:42:17.03	207.26	15.17	-32.1	-32.8	26.2	0.00e+00	0	30	0	930086912	38	5576
2026-01-15 03:42:18.04	207.38	15.27	-32.1	-32.8	26.2	0.00e+00	0	29	0	935329792	38	5571
2026-01-15 03:42:19.05	207.50	15.36	-32.1	-32.8	26.2	0.00e+00	0	29	0	941621248	38	5611
2026-01-15 03:42:20.06	207.63	15.45	-32.0	-32.7	26.3	0.00e+00	0	29	0	946864128	38	5529
2026-01-15 03:42:21.07	207.75	15.54	-32.1	-32.7	26.2	0.00e+00	0	29	0	952107008	38	5554
2026-01-15 03:42:22.08	207.87	15.63	-31.9	-32.5	26.4	0.00e+00	0	29	0	958398464	38	5432
2026-01-15 03:42:23.08	208.00	15.72	-31.9	-32.5	26.4	0.00e+00	0	29	0	963641344	38	5430
2026-01-15 03:42:24.09	208.12	15.81	-31.9	-32.6	26.3	0.00e+00	0	29	0	969932800	38	5470
2026-01-15 03:42:25.10	208.25	15.90	-31.8	-32.4	26.5	0.00e+00	0	29	0	975175680	38	5353
2026-01-15 03:42:26.11	208.38	16.00	-31.8	-32.4	26.4	0.00e+00	0	29	0	981467136	38	5373
2026-01-15 03:42:27.13	208.51	16.09	-31.8	-32.5	26.4	0.00e+00	0	29	0	986710016	38	5414
2026-01-15 03:42:28.13	208.64	16.18	-32.0	-32.6	26.3	0.00e+00	0	29	0	993001472	38	5500
2026-01-15 03:42:29.14	208.76	16.27	-32.2	-32.9	26.2	0.00e+00	0	29	0	998244352	38	5651
2026-01-15 03:42:30.15	208.90	16.37	-32.2	-32.8	26.1	0.00e+00	0	29	0	1003487232	38	5615
2026-01-15 03:42:31.16	209.03	16.46	-32.1	-32.8	26.3	0.00e+00	0	29	0	1009778688	38	5585
2026-01-15 03:42:32.17	209.16	16.55	-32.1	-32.7	26.2	0.00e+00	0	29	0	1015021568	38	5535
2026-01-15 03:42:33.18	209.29	16.65	-32.1	-32.8	26.2	0.00e+00	0	29	0	1021313024	38	5582
2026-01-15 03:42:34.19	209.42	16.74	-32.0	-32.6	26.4	0.00e+00	0	29	0	1026555904	38	5473
2026-01-15 03:42:35.20	209.56	16.84	-32.0	-32.7	26.3	0.00e+00	0	29	0	1031798784	38	5529
2026-01-15 03:42:36.21	209.69	16.93	-32.0	-32.7	26.3	0.00e+00	0	29	0	1038090240	38	5511
2026-01-15 03:42:37.22	209.83	17.03	-32.0	-32.6	26.3	0.00e+00	0	30	0	1043333120	38	5488
2026-01-15 03:42:38.23	209.97	17.12	-32.1	-32.8	26.2	0.00e+00	0	30	0	1049624576	38	5580
2026-01-15 03:42:39.24	210.10	17.22	-31.8	-32.4	26.5	0.00e+00	0	30	0	1054867456	38	5371
2026-01-15 03:42:40.25	210.24	17.31	-31.7	-32.4	26.5	0.00e+00	0	29	0	1060110336	36	5996
2026-01-15 03:42:41.26	210.38	17.41	-31.6	-32.3	26.7	0.00e+00	0	30	0	1066401792	36	5910
2026-01-15 03:42:42.27	210.52	17.50	-31.6	-32.3	26.6	0.00e+00	0	29	0	1071644672	36	5920
2026-01-15 03:42:43.28	210.66	17.60	-31.6	-32.3	26.6	0.00e+00	0	30	0	1077936128	36	5914
2026-01-15 03:42:44.29	210.81	17.69	-31.6	-32.2	26.6	0.00e+00	0	29	0	1083179008	36	5876
2026-01-15 03:42:45.29	210.95	17.79	-31.6	-32.3	26.6	0.00e+00	0	29	0	1089470464	36	5920
2026-01-15 03:42:46.30	211.09	17.89	-31.6	-32.3	26.6	0.00e+00	0	29	0	1094713344	36	5906
2026-01-15 03:42:47.31	211.24	17.98	-31.6	-32.2	26.7	0.00e+00	0	29	0	1099956224	36	5871
2026-01-15 03:42:48.32	211.38	18.08	-31.5	-32.2	26.7	0.00e+00	0	29	0	1106247680	36	5832
2026-01-15 03:42:49.33	211.53	18.18	-31.6	-32.3	26.7	0.00e+00	0	29	0	1111490560	36	5912
2026-01-15 03:42:50.34	211.67	18.27	-31.6	-32.2	26.6	0.00e+00	0	29	0	1117782016	36	5879
2026-01-15 03:42:51.35	211.82	18.37	-31.5	-32.2	26.7	0.00e+00	0	29	0	1123024896	36	5874
2026-01-15 03:42:52.36	211.97	18.47	-31.5	-32.2	26.7	0.00e+00	0	29	0	1128267776	36	5872
2026-01-15 03:42:53.37	212.12	18.57	-31.4	-32.1	26.7	0.00e+00	0	29	0	1134559232	36	5808
2026-01-15 03:42:54.37	212.27	18.66	-31.7	-32.4	26.6	0.00e+00	0	29	0	1139802112	36	6003
2026-01-15 03:42:55.39	212.43	18.76	-31.5	-32.1	26.7	0.00e+00	0	29	0	1146093568	36	5821
2026-01-15 03:42:56.39	212.58	18.86	-31.2	-31.9	27.0	0.00e+00	0	29	0	1151336448	36	5633
2026-01-15 03:42:57.40	212.73	18.96	-31.2	-31.9	26.9	0.00e+00	0	29	0	1156579328	36	5652
2026-01-15 03:42:58.41	212.89	19.06	-31.1	-31.7	27.0	0.00e+00	0	29	0	1162870784	36	5538
2026-01-15 03:42:59.42	213.04	19.16	-31.2	-31.8	27.0	0.00e+00	0	29	0	1168113664	36	5599
2026-01-15 03:43:00.43	213.20	19.26	-31.1	-31.7	27.0	0.00e+00	0	29	0	1174405120	36	5559
2026-01-15 03:43:01.44	213.36	19.36	-31.1	-31.7	27.1	0.00e+00	0	29	0	1179648000	36	5558
2026-01-15 03:43:02.45	213.51	19.46	-31.1	-31.7	27.1	0.00e+00	0	29	0	1185939456	36	5535
2026-01-15 03:43:03.45	213.67	19.56	-31.2	-31.9	26.9	0.00e+00	0	29	0	1191182336	36	5646
2026-01-15 03:43:04.47	213.84	19.66	-31.2	-31.8	27.0	0.00e+00	0	30	0	1196425216	36	5612
2026-01-15 03:43:05.48	214.00	19.76	-31.1	-31.8	27.1	0.00e+00	0	29	0	1202716672	36	5599
2026-01-15 03:43:06.49	214.16	19.86	-31.2	-31.9	27.0	0.00e+00	0	29	0	1207959552	36	5659
2026-01-15 03:43:07.49	214.32	19.96	-31.1	-31.7	27.1	0.00e+00	0	29	0	1214251008	36	5555
2026-01-15 03:43:08.50	214.49	20.06	-31.2	-31.8	27.0	0.00e+00	0	29	0	1219493888	36	5611
2026-01-15 03:43:09.51	214.65	20.16	-31.1	-31.8	27.1	0.00e+00	0	29	0	1224736768	36	5582
2026-01-15 03:43:10.52	214.82	20.26	-31.1	-31.8	27.0	0.00e+00	0	29	0	1231028224	36	5587
2026-01-15 03:43:11.53	214.99	20.36	-31.2	-31.8	27.0	0.00e+00	0	29	0	1236271104	36	5604
2026-01-15 03:43:12.54	215.16	20.46	-31.1	-31.7	27.1	0.00e+00	0	29	0	1242562560	36	5554
2026-01-15 03:43:13.55	215.33	20.57	-31.1	-31.7	27.1	0.00e+00	0	29	0	1247805440	36	5538
2026-01-15 03:43:14.56	215.50	20.67	-31.0	-31.6	27.2	0.00e+00	0	29	0	1253048320	36	5483
2026-01-15 03:43:15.57	215.67	20.77	-30.9	-31.6	27.1	0.00e+00	0	29	0	1259339776	36	5448
2026-01-15 03:43:16.58	215.85	20.87	-30.8	-31.5	27.3	0.00e+00	0	30	0	1264582656	36	5394
2026-01-15 03:43:17.59	216.02	20.97	-30.9	-31.5	27.3	0.00e+00	0	29	0	1270874112	36	5412
2026-01-15 03:43:18.61	216.20	21.08	-30.8	-31.4	27.3	0.00e+00	0	30	0	1276116992	36	5345
2026-01-15 03:43:19.61	216.37	21.18	-30.9	-31.6	27.2	0.00e+00	0	29	0	1282408448	36	5466
2026-01-15 03:43:20.63	216.55	21.28	-31.0	-31.7	27.1	0.00e+00	0	29	0	1287651328	36	5507
2026-01-15 03:43:21.64	216.73	21.39	-30.8	-31.5	27.3	0.00e+00	0	29	0	1293942784	36	5396
2026-01-15 03:43:22.64	216.91	21.49	-30.9	-31.5	27.3	0.00e+00	0	30	0	1299185664	36	5421
2026-01-15 03:43:23.65	217.09	21.59	-30.8	-31.5	27.3	0.00e+00	0	29	0	1304428544	36	5383
2026-01-15 03:43:24.66	217.28	21.69	-30.7	-31.4	27.3	0.00e+00	0	29	0	1310720000	34	6000
2026-01-15 03:43:25.67	217.46	21.80	-30.7	-31.3	27.4	0.00e+00	0	29	0	1315962880	34	5935
2026-01-15 03:43:26.68	217.65	21.90	-30.6	-31.2	27.5	0.00e+00	0	29	0	1322254336	34	5875
2026-01-15 03:43:27.69	217.83	22.01	-30.8	-31.5	27.3	0.00e+00	0	29	0	1327497216	34	6060
2026-01-15 03:43:28.70	218.02	22.11	-30.4	-31.0	27.6	0.00e+00	0	29	0	1332740096	34	5761
2026-01-15 03:43:29.71	218.21	22.21	-30.6	-31.2	27.4	0.00e+00	0	29	0	1339031552	34	5878
2026-01-15 03:43:30.72	218.40	22.32	-30.4	-31.0	27.7	0.00e+00	0	30	0	1344274432	34	5735
2026-01-15 03:43:31.73	218.59	22.42	-30.4	-31.1	27.7	0.00e+00	0	29	0	1350565888	34	5789
2026-01-15 03:43:32.74	218.78	22.53	-30.4	-31.0	27.6	0.00e+00	0	30	0	1355808768	34	5742
2026-01-15 03:43:33.75	218.98	22.63	-30.4	-31.0	27.7	0.00e+00	0	29	0	1361051648	34	5718
2026-01-15 03:43:34.76	219.17	22.73	-30.4	-31.0	27.7	0.00e+00	0	29	0	1367343104	34	5745
2026-01-15 03:43:35.77	219.37	22.84	-30.3	-30.9	27.7	0.00e+00	0	29	0	1372585984	34	5680
2026-01-15 03:43:36.77	219.56	22.94	-30.3	-30.9	27.7	0.00e+00	0	29	0	1378877440	34	5678
2026-01-15 03:43:37.78	219.76	23.05	-30.3	-30.8	27.7	0.00e+00	0	29	0	1384120320	34	5627
2026-01-15 03:43:38.79	219.96	23.15	-30.2	-30.9	27.8	0.00e+00	0	29	0	1390411776	34	5655
2026-01-15 03:43:39.80	220.17	23.26	-30.3	-30.9	27.7	0.00e+00	0	30	0	1395654656	34	5672
2026-01-15 03:43:40.81	220.37	23.36	-30.5	-31.1	27.6	0.00e+00	0	29	0	1400897536	34	5788
2026-01-15 03:43:41.82	220.57	23.47	-30.3	-30.9	27.7	0.00e+00	0	29	0	1407188992	34	5693
2026-01-15 03:43:42.83	220.78	23.57	-30.4	-31.0	27.7	0.00e+00	0	29	0	1412431872	34	5739
2026-01-15 03:43:43.84	220.99	23.68	-30.2	-30.9	27.8	0.00e+00	0	29	0	1418723328	34	5657
2026-01-15 03:43:44.85	221.19	23.78	-30.4	-31.0	27.6	0.00e+00	0	29	0	1423966208	34	5739
2026-01-15 03:43:45.86	221.40	23.89	-30.4	-31.0	27.6	0.00e+00	0	30	0	1429209088	34	5753
2026-01-15 03:43:46.87	221.61	23.99	-30.2	-30.9	27.7	0.00e+00	0	30	0	1435500544	34	5647
2026-01-15 03:43:47.88	221.83	24.10	-30.1	-30.7	27.9	0.00e+00	0	29	0	1440743424	34	5519
2026-01-15 03:43:48.88	222.04	24.20	-30.0	-30.7	27.9	0.00e+00	0	29	0	1447034880	34	5537
2026-01-15 03:43:49.89	222.25	24.31	-30.0	-30.6	28.0	0.00e+00	0	29	0	1452277760	34	5494
2026-01-15 03:43:50.90	222.47	24.41	-30.0	-30.6	28.0	0.00e+00	0	29	0	1457520640	34	5495
2026-01-15 03:43:51.91	222.69	24.52	-30.0	-30.6	28.0	0.00e+00	0	29	0	1463812096	34	5493
2026-01-15 03:43:52.92	222.91	24.62	-30.2	-30.8	27.9	0.00e+00	0	29	0	1469054976	34	5604
2026-01-15 03:43:53.93	223.13	24.73	-30.0	-30.6	27.9	0.00e+00	0	29	0	1475346432	34	5476
2026-01-15 03:43:54.94	223.35	24.83	-30.0	-30.7	28.0	0.00e+00	0	29	0	1480589312	34	5505
2026-01-15 03:43:55.95	223.58	24.94	-30.0	-30.7	28.0	0.00e+00	0	30	0	1486880768	34	5505
2026-01-15 03:43:56.96	223.80	25.04	-30.0	-30.7	27.9	0.00e+00	0	29	0	1492123648	34	5505
2026-01-15 03:43:57.97	224.03	25.15	-30.1	-30.7	27.8	0.00e+00	0	29	0	1497366528	34	5556
2026-01-15 03:43:58.98	224.26	25.25	-30.2	-30.8	27.8	0.00e+00	0	29	0	1503657984	34	5606
2026-01-15 03:43:59.99	224.49	25.36	-30.1	-30.7	27.9	0.00e+00	0	29	0	1508900864	34	5520
2026-01-15 03:44:01.00	224.72	25.46	-30.1	-30.7	27.9	0.00e+00	0	29	0	1515192320	34	5545
2026-01-15 03:44:02.01	224.95	25.57	-30.1	-30.7	27.9	0.00e+00	0	29	0	1520435200	34	5559
2026-01-15 03:44:03.01	225.18	25.67	-30.2	-30.8	27.7	0.00e+00	0	29	0	1525678080	34	5601
2026-01-15 03:44:04.02	225.42	25.78	-30.2	-30.8	27.8	0.00e+00	0	29	0	1531969536	34	5620
2026-01-15 03:44:05.03	225.65	25.88	-30.2	-30.8	27.9	0.00e+00	0	29	0	1537212416	34	5610
2026-01-15 03:44:06.04	225.89	25.99	-30.1	-30.8	27.9	0.00e+00	0	29	0	1543503872	34	5578
2026-01-15 03:44:07.04	226.13	26.09	-30.0	-30.6	28.1	0.00e+00	0	29	0	1548746752	34	5483
2026-01-15 03:44:08.06	226.38	26.20	-29.9	-30.5	28.1	0.00e+00	0	29	0	1553989632	34	5425
2026-01-15 03:44:09.07	226.62	26.30	-29.8	-30.4	28.1	0.00e+00	0	29	0	1560281088	34	5353
2026-01-15 03:44:10.07	226.86	26.40	-29.8	-30.4	28.2	0.00e+00	0	29	0	1565523968	32	5999
2026-01-15 03:44:11.08	227.11	26.51	-29.8	-30.5	28.2	0.00e+00	0	29	0	1571815424	32	6045
2026-01-15 03:44:12.09	227.36	26.61	-29.6	-30.3	28.2	0.00e+00	0	29	0	1577058304	32	5906
2026-01-15 03:44:13.10	227.61	26.71	-29.7	-30.2	28.2	0.00e+00	0	29	0	1583349760	32	5895
2026-01-15 03:44:14.11	227.86	26.82	-29.8	-30.4	28.2	0.00e+00	0	29	0	1588592640	32	5979
2026-01-15 03:44:15.12	228.11	26.92	-29.8	-30.4	28.2	0.00e+00	0	30	0	1593835520	32	5992
2026-01-15 03:44:16.13	228.36	27.02	-29.8	-30.5	28.1	0.00e+00	0	29	0	1600126976	32	6048
2026-01-15 03:44:17.14	228.62	27.13	-29.7	-30.3	28.3	0.00e+00	0	29	0	1605369856	32	5916
2026-01-15 03:44:18.15	228.88	27.23	-29.5	-30.1	28.4	0.00e+00	0	29	0	1611661312	32	5809
2026-01-15 03:44:19.16	229.14	27.33	-29.4	-30.0	28.5	0.00e+00	0	30	0	1616904192	32	5754
2026-01-15 03:44:20.17	229.40	27.43	-29.5	-30.1	28.3	0.00e+00	0	30	0	1622147072	32	5816
2026-01-15 03:44:21.18	229.66	27.53	-29.7	-30.3	28.2	0.00e+00	0	29	0	1628438528	32	5963
2026-01-15 03:44:22.19	229.93	27.64	-29.7	-30.3	28.3	0.00e+00	0	30	0	1633681408	32	5926
2026-01-15 03:44:23.19	230.19	27.74	-29.7	-30.3	28.2	0.00e+00	0	29	0	1639972864	32	5961
2026-01-15 03:44:24.20	230.46	27.84	-29.6	-30.3	28.3	0.00e+00	0	30	0	1645215744	32	5909
2026-01-15 03:44:25.22	230.73	27.94	-29.5	-30.1	28.5	0.00e+00	0	29	0	1650458624	32	5820
2026-01-15 03:44:26.23	231.00	28.04	-29.6	-30.2	28.4	0.00e+00	0	29	0	1656750080	32	5843
2026-01-15 03:44:27.24	231.27	28.14	-29.5	-30.1	28.4	0.00e+00	0	29	0	1661992960	32	5809
2026-01-15 03:44:28.25	231.55	28.24	-29.4	-30.0	28.5	0.00e+00	0	29	0	1668284416	32	5713
2026-01-15 03:44:29.25	231.82	28.34	-29.5	-30.1	28.4	0.00e+00	0	30	0	1673527296	32	5822
2026-01-15 03:44:30.26	232.10	28.44	-29.4	-30.0	28.4	0.00e+00	0	29	0	1679818752	32	5758
2026-01-15 03:44:31.27	232.38	28.54	-29.4	-30.0	28.4	0.00e+00	0	30	0	1685061632	32	5737
2026-01-15 03:44:32.28	232.66	28.63	-29.4	-30.0	28.4	0.00e+00	0	30	0	1691353088	32	5728
2026-01-15 03:44:33.29	232.94	28.73	-29.4	-30.0	28.5	0.00e+00	0	29	0	1696595968	32	5701
2026-01-15 03:44:34.30	233.22	28.83	-29.4	-30.0	28.4	0.00e+00	0	29	0	1701838848	32	5756
2026-01-15 03:44:35.31	233.51	28.93	-29.5	-30.2	28.2	0.00e+00	0	29	0	1708130304	32	5836
2026-01-15 03:44:36.32	233.80	29.02	-29.5	-30.1	28.3	0.00e+00	0	29	0	1713373184	32	5820
2026-01-15 03:44:37.33	234.09	29.12	-29.7	-30.3	28.1	0.00e+00	0	30	0	1719664640	32	5947
2026-01-15 03:44:38.34	234.38	29.22	-29.4	-30.1	28.4	0.00e+00	0	30	0	1724907520	32	5767
2026-01-15 03:44:39.35	234.67	29.31	-29.3	-29.9	28.4	0.00e+00	0	30	0	1730150400	32	5688
2026-01-15 03:44:40.36	234.97	29.41	-29.4	-30.0	28.4	0.00e+00	0	30	0	1736441856	32	5727
2026-01-15 03:44:41.36	235.26	29.50	-29.3	-30.0	28.5	0.00e+00	0	30	0	1741684736	32	5714
2026-01-15 03:44:42.37	235.56	29.59	-29.6	-30.2	28.4	0.00e+00	0	29	0	1746927616	32	5842
2026-01-15 03:44:43.38	235.86	29.69	-29.4	-30.0	28.5	0.00e+00	0	29	0	1753219072	32	5706
2026-01-15 03:44:44.39	236.16	29.78	-29.6	-30.2	28.4	0.00e+00	0	29	0	1758461952	32	5885
2026-01-15 03:44:45.40	236.46	29.87	-29.7	-30.4	28.3	0.00e+00	0	30	0	1764753408	32	5980
2026-01-15 03:44:46.41	236.77	29.96	-30.0	-30.7	28.0	0.00e+00	0	30	0	1769996288	32	6176
2026-01-15 03:44:47.42	237.07	30.05	-30.0	-30.6	28.1	0.00e+00	0	29	0	1776287744	32	6115
2026-01-15 03:44:48.43	237.38	30.14	-29.5	-30.1	28.5	0.00e+00	0	29	0	1781530624	32	5779
2026-01-15 03:44:49.44	237.69	30.23	-29.4	-30.0	28.5	0.00e+00	0	29	0	1787822080	32	5752
2026-01-15 03:44:50.45	238.00	30.32	-29.5	-30.1	28.5	0.00e+00	0	29	0	1793064960	32	5779
2026-01-15 03:44:51.46	238.31	30.41	-29.4	-30.0	28.6	0.00e+00	0	29	0	1798307840	32	5759
2026-01-15 03:44:52.47	238.63	30.50	-29.4	-30.1	28.5	0.00e+00	0	29	0	1804599296	32	5779
2026-01-15 03:44:53.48	238.95	30.59	-29.5	-30.1	28.4	0.00e+00	0	30	0	1809842176	32	5803
2026-01-15 03:44:54.49	239.26	30.67	-29.6	-30.2	28.4	0.00e+00	0	29	0	1816133632	32	5861
2026-01-15 03:44:55.50	239.58	30.76	-29.6	-30.2	28.4	0.00e+00	0	29	0	1821376512	32	5888
2026-01-15 03:44:56.51	239.90	30.85	-29.6	-30.2	28.3	0.00e+00	0	29	0	1826619392	32	5839
2026-01-15 03:44:57.52	240.23	30.93	-29.6	-30.2	28.3	0.00e+00	0	30	0	1832910848	32	5881
2026-01-15 03:44:58.52	240.55	31.01	-29.4	-30.0	28.5	0.00e+00	0	30	0	1838153728	32	5733
2026-01-15 03:44:59.53	240.88	31.10	-29.5	-30.1	28.3	0.00e+00	0	29	0	1844445184	32	5788
2026-01-15 03:45:00.54	241.20	31.18	-29.5	-30.1	28.4	0.00e+00	0	29	0	1849688064	32	5802
2026-01-15 03:45:01.55	241.53	31.26	-29.6	-30.3	28.3	0.00e+00	0	29	0	1854930944	32	5925
2026-01-15 03:45:02.56	241.86	31.34	-29.7	-30.3	28.4	0.00e+00	0	29	0	1861222400	32	5909
2026-01-15 03:45:03.57	242.20	31.42	-29.6	-30.2	28.4	0.00e+00	0	29	0	1866465280	32	5848
2026-01-15 03:45:04.58	242.53	31.50	-29.3	-30.0	28.6	0.00e+00	0	29	0	1872756736	32	5710
2026-01-15 03:45:05.59	242.87	31.58	-29.3	-29.9	28.6	0.00e+00	0	29	0	1877999616	32	5640
2026-01-15 03:45:06.60	243.21	31.65	-29.4	-29.9	28.5	0.00e+00	0	29	0	1884291072	32	5691
2026-01-15 03:45:07.61	243.55	31.73	-29.3	-30.0	28.6	0.00e+00	0	29	0	1889533952	32	5709
2026-01-15 03:45:08.62	243.89	31.81	-29.3	-29.9	28.5	0.00e+00	0	29	0	1894776832	32	5677
2026-01-15 03:45:09.63	244.23	31.88	-29.4	-30.0	28.5	0.00e+00	0	29	0	1901068288	32	5716
2026-01-15 03:45:10.64	244.57	31.95	-29.4	-30.0	28.5	0.00e+00	0	30	0	1906311168	32	5756
2026-01-15 03:45:11.65	244.92	32.03	-29.3	-29.9	28.5	0.00e+00	0	29	0	1912602624	32	5658
2026-01-15 03:45:12.66	245.26	32.10	-29.0	-29.6	28.8	0.00e+00	0	29	0	1917845504	32	5500
2026-01-15 03:45:13.67	245.61	32.17	-29.1	-29.7	28.7	0.00e+00	0	29	0	1923088384	32	5532
2026-01-15 03:45:14.68	245.96	32.24	-29.2	-29.7	28.6	0.00e+00	0	29	0	1929379840	32	5560
2026-01-15 03:45:15.69	246.31	32.31	-29.4	-30.0	28.5	0.00e+00	0	29	0	1934622720	32	5741
2026-01-15 03:45:16.70	246.67	32.37	-29.6	-30.2	28.4	0.00e+00	0	29	0	1940914176	32	5839
2026-01-15 03:45:17.70	247.02	32.44	-29.7	-30.3	28.3	0.00e+00	0	29	0	1946157056	32	5919
2026-01-15 03:45:18.71	247.37	32.51	-29.5	-30.1	28.5	0.00e+00	0	29	0	1951399936	32	5805
2026-01-15 03:45:19.72	247.73	32.57	-29.6	-30.2	28.3	0.00e+00	0	30	0	1957691392	32	5873
2026-01-15 03:45:20.73	248.09	32.63	-29.5	-30.2	28.4	0.00e+00	0	29	0	1962934272	32	5849
2026-01-15 03:45:21.74	248.45	32.70	-29.4	-30.0	28.4	0.00e+00	0	29	0	1969225728	32	5747
2026-01-15 03:45:22.75	248.81	32.76	-29.4	-30.0	28.5	0.00e+00	0	30	0	1974468608	32	5759
2026-01-15 03:45:23.76	249.17	32.82	-29.2	-29.8	28.6	0.00e+00	0	29	0	1980760064	32	5630
2026-01-15 03:45:24.77	249.54	32.88	-29.3	-29.9	28.5	0.00e+00	0	29	0	1986002944	32	5678
2026-01-15 03:45:25.78	249.90	32.94	-29.5	-30.1	28.5	0.00e+00	0	29	0	1991245824	32	5791
2026-01-15 03:45:26.79	250.27	32.99	-29.6	-30.2	28.3	0.00e+00	0	29	0	1997537280	32	5860
2026-01-15 03:45:27.79	250.63	33.05	-29.3	-29.9	28.7	0.00e+00	0	29	0	2002780160	32	5695
2026-01-15 03:45:28.80	251.00	33.10	-29.3	-29.9	28.6	0.00e+00	0	29	0	2009071616	32	5664
2026-01-15 03:45:29.81	251.37	33.15	-29.4	-30.0	28.4	0.00e+00	0	29	0	2014314496	32	5709
2026-01-15 03:45:30.82	251.74	33.21	-29.5	-30.1	28.5	0.00e+00	0	29	0	2019557376	32	5766
2026-01-15 03:45:31.83	252.11	33.26	-29.5	-30.2	28.4	0.00e+00	0	29	0	2025848832	32	5833
2026-01-15 03:45:32.84	252.49	33.31	-29.5	-30.1	28.5	0.00e+00	0	30	0	2031091712	32	5789
2026-01-15 03:45:33.85	252.86	33.36	-29.5	-30.1	28.4	0.00e+00	0	29	0	2037383168	32	5794
2026-01-15 03:45:34.85	253.23	33.40	-29.4	-30.0	28.6	0.00e+00	0	30	0	2042626048	32	5727
2026-01-15 03:45:35.86	253.61	33.45	-29.0	-29.6	28.8	0.00e+00	0	29	0	2047868928	32	5490
2026-01-15 03:45:36.87	253.99	33.49	-29.1	-29.8	28.7	0.00e+00	0	29	0	2054160384	32	5580
2026-01-15 03:45:37.88	254.37	33.53	-29.3	-29.9	28.6	0.00e+00	0	29	0	2059403264	32	5695
2026-01-15 03:45:38.89	254.75	33.58	-29.4	-30.1	28.4	0.00e+00	0	30	0	2065694720	32	5796
2026-01-15 03:45:39.90	255.13	33.62	-29.4	-30.1	28.5	0.00e+00	0	30	0	2070937600	32	5767
2026-01-15 03:45:40.91	255.51	33.66	-29.3	-29.9	28.6	0.00e+00	0	29	0	2077229056	32	5674
2026-01-15 03:45:41.92	255.89	33.69	-29.3	-29.9	28.5	0.00e+00	0	29	0	2082471936	32	5663
2026-01-15 03:45:42.93	256.27	33.73	-29.4	-30.0	28.6	0.00e+00	0	29	0	2087714816	32	5735
2026-01-15 03:45:43.93	256.65	33.77	-29.3	-30.0	28.6	0.00e+00	0	29	0	2094006272	32	5704
2026-01-15 03:45:44.95	257.04	33.80	-29.3	-29.9	28.6	0.00e+00	0	29	0	2099249152	32	5671
2026-01-15 03:45:45.96	257.43	33.83	-29.5	-30.1	28.6	0.00e+00	0	29	0	2105540608	32	5781
2026-01-15 03:45:46.97	257.81	33.86	-29.3	-29.9	28.6	0.00e+00	0	29	0	2110783488	32	5680
2026-01-15 03:45:47.97	258.20	33.89	-29.4	-30.0	28.5	0.00e+00	0	29	0	2116026368	32	5721
2026-01-15 03:45:48.98	258.58	33.92	-29.4	-30.1	28.5	0.00e+00	0	29	0	2122317824	32	5784
2026-01-15 03:45:49.99	258.97	33.95	-29.3	-29.9	28.5	0.00e+00	0	29	0	2127560704	32	5656
2026-01-15 03:45:51.00	259.36	33.97	-29.2	-29.8	28.6	0.00e+00	0	29	0	2133852160	32	5599
2026-01-15 03:45:52.01	259.75	34.00	-29.1	-29.7	28.7	0.00e+00	0	30	0	2139095040	32	5520
2026-01-15 03:45:53.02	260.14	34.02	-29.1	-29.8	28.6	0.00e+00	0	29	0	2144337920	32	5571
2026-01-15 03:45:54.03	260.53	34.04	-29.0	-29.6	28.8	0.00e+00	0	29	0	2150629376	32	5502
2026-01-15 03:45:55.04	260.92	34.06	-29.1	-29.8	28.6	0.00e+00	0	29	0	2155872256	32	5571
2026-01-15 03:45:56.05	261.31	34.08	-29.1	-29.8	28.7	0.00e+00	0	29	0	2162163712	32	5573
2026-01-15 03:45:57.05	261.70	34.09	-29.1	-29.8	28.8	0.00e+00	0	30	0	2167406592	32	5567
2026-01-15 03:45:58.07	262.10	34.11	-29.1	-29.7	28.7	0.00e+00	0	29	0	2173698048	32	5514
2026-01-15 03:45:59.08	262.49	34.12	-29.0	-29.6	28.8	0.00e+00	0	29	0	2178940928	32	5492
2026-01-15 03:46:00.09	262.88	34.14	-28.9	-29.5	28.7	0.00e+00	0	29	0	2185232384	32	5414
2026-01-15 03:46:01.09	263.27	34.15	-29.1	-29.7	28.7	0.00e+00	0	29	0	2190475264	32	5529
2026-01-15 03:46:02.10	263.67	34.16	-29.2	-29.8	28.6	0.00e+00	0	30	0	2195718144	32	5606
2026-01-15 03:46:03.11	264.06	34.16	-29.2	-29.9	28.6	0.00e+00	0	29	0	2202009600	32	5632
2026-01-15 03:46:04.12	264.45	34.17	-29.2	-29.8	28.5	0.00e+00	0	29	0	2207252480	32	5626
2026-01-15 03:46:05.13	264.85	34.18	-29.1	-29.7	28.7	0.00e+00	0	29	0	2213543936	32	5531
2026-01-15 03:46:06.14	265.24	34.18	-29.1	-29.7	28.7	0.00e+00	0	29	0	2218786816	32	5545
2026-01-15 03:46:07.15	265.63	34.18	-29.1	-29.7	28.7	0.00e+00	0	29	0	2224029696	32	5551
2026-01-15 03:46:08.15	266.02	34.18	-29.3	-29.9	28.4	0.00e+00	0	29	0	2230321152	32	5663
2026-01-15 03:46:09.16	266.42	34.18	-29.4	-30.0	28.4	0.00e+00	0	29	0	2235564032	32	5741
2026-01-15 03:46:10.18	266.82	34.18	-29.3	-29.8	28.5	0.00e+00	0	29	0	2240806912	32	5614
2026-01-15 03:46:11.19	267.21	34.17	-29.2	-29.8	28.5	0.00e+00	0	29	0	2247098368	32	5591
2026-01-15 03:46:12.20	267.60	34.17	-29.3	-29.9	28.5	0.00e+00	0	29	0	2252341248	32	5650
2026-01-15 03:46:13.20	267.99	34.16	-29.4	-30.0	28.5	0.00e+00	0	29	0	2258632704	32	5750
2026-01-15 03:46:14.21	268.39	34.15	-29.4	-30.1	28.4	0.00e+00	0	29	0	2263875584	32	5766
2026-01-15 03:46:15.22	268.78	34.14	-29.1	-29.6	28.5	0.00e+00	0	29	0	2270167040	32	5484
2026-01-15 03:46:16.23	269.17	34.13	-29.1	-29.8	28.5	0.00e+00	0	29	0	2275409920	32	5583
2026-01-15 03:46:17.24	269.56	34.12	-29.2	-29.9	28.6	0.00e+00	0	29	0	2281701376	32	5640
2026-01-15 03:46:18.24	269.95	34.11	-29.3	-29.9	28.4	0.00e+00	0	29	0	2286944256	32	5691
2026-01-15 03:46:19.25	270.34	34.09	-29.3	-30.0	28.4	0.00e+00	0	29	0	2292187136	32	5719
2026-01-15 03:46:20.26	270.74	34.07	-29.2	-29.8	28.6	0.00e+00	0	29	0	2298478592	32	5622
2026-01-15 03:46:21.27	271.13	34.05	-29.1	-29.7	28.6	0.00e+00	0	29	0	2303721472	32	5524
2026-01-15 03:46:22.29	271.52	34.03	-29.0	-29.6	28.7	0.00e+00	0	29	0	2310012928	32	5502
2026-01-15 03:46:23.29	271.91	34.01	-29.1	-29.7	28.7	0.00e+00	0	29	0	2315255808	32	5539
2026-01-15 03:46:24.30	272.30	33.99	-29.4	-30.0	28.5	0.00e+00	0	29	0	2320498688	32	5716
2026-01-15 03:46:25.31	272.69	33.97	-29.5	-30.1	28.4	0.00e+00	0	29	0	2326790144	32	5776
2026-01-15 03:46:26.32	273.07	33.94	-29.6	-30.2	28.3	0.00e+00	0	29	0	2332033024	32	5872
2026-01-15 03:46:27.33	273.46	33.91	-29.3	-29.9	28.6	0.00e+00	0	29	0	2338324480	32	5662
2026-01-15 03:46:28.34	273.85	33.88	-29.1	-29.7	28.7	0.00e+00	0	29	0	2343567360	32	5529
2026-01-15 03:46:29.35	274.24	33.85	-29.1	-29.8	28.7	0.00e+00	0	29	0	2348810240	32	5582
2026-01-15 03:46:30.36	274.62	33.82	-29.3	-29.9	28.6	0.00e+00	0	29	0	2355101696	32	5663
2026-01-15 03:46:31.37	275.01	33.79	-29.2	-29.9	28.6	0.00e+00	0	29	0	2360344576	32	5638
2026-01-15 03:46:32.37	275.39	33.76	-29.3	-29.9	28.6	0.00e+00	0	29	0	2366636032	32	5680
2026-01-15 03:46:33.38	275.77	33.72	-29.1	-29.7	28.7	0.00e+00	0	29	0	2371878912	32	5517
2026-01-15 03:46:34.39	276.15	33.68	-29.0	-29.7	28.7	0.00e+00	0	29	0	2378170368	32	5513
2026-01-15 03:46:35.40	276.53	33.65	-29.2	-29.9	28.6	0.00e+00	0	29	0	2383413248	32	5636
2026-01-15 03:46:36.41	276.92	33.61	-29.4	-30.0	28.4	0.00e+00	0	29	0	2388656128	32	5726
2026-01-15 03:46:37.42	277.29	33.57	-29.5	-30.1	28.3	0.00e+00	0	29	0	2394947584	32	5809
2026-01-15 03:46:38.43	277.67	33.52	-29.4	-30.1	28.5	0.00e+00	0	30	0	2400190464	32	5800
2026-01-15 03:46:39.44	278.05	33.48	-29.4	-30.0	28.5	0.00e+00	0	29	0	2406481920	32	5740
2026-01-15 03:46:40.45	278.43	33.44	-29.2	-29.8	28.6	0.00e+00	0	30	0	2411724800	32	5616
2026-01-15 03:46:41.46	278.80	33.39	-29.2	-29.9	28.7	0.00e+00	0	29	0	2416967680	32	5668
2026-01-15 03:46:42.47	279.18	33.34	-29.5	-30.1	28.4	0.00e+00	0	30	0	2423259136	32	5804
2026-01-15 03:46:43.48	279.55	33.29	-29.6	-30.2	28.3	0.00e+00	0	30	0	2428502016	32	5839
2026-01-15 03:46:44.49	279.92	33.24	-29.6	-30.3	28.3	0.00e+00	0	30	0	2434793472	32	5915
2026-01-15 03:46:45.50	280.30	33.19	-29.5	-30.1	28.3	0.00e+00	0	29	0	2440036352	32	5788
2026-01-15 03:46:46.51	280.67	33.14	-29.4	-30.0	28.4	0.00e+00	0	30	0	2445279232	32	5759
2026-01-15 03:46:47.52	281.04	33.09	-29.6	-30.3	28.4	0.00e+00	0	30	0	2451570688	32	5900
2026-01-15 03:46:48.52	281.40	33.03	-29.8	-30.3	28.2	0.00e+00	0	30	0	2456813568	32	5955
2026-01-15 03:46:49.53	281.77	32.98	-29.9	-30.6	28.1	0.00e+00	0	29	0	2463105024	32	6113
2026-01-15 03:46:50.55	282.13	32.92	-29.4	-30.0	28.4	0.00e+00	0	29	0	2468347904	32	5710
2026-01-15 03:46:51.56	282.50	32.86	-29.3	-30.0	28.6	0.00e+00	0	30	0	2474639360	32	5721
2026-01-15 03:46:52.56	282.86	32.80	-29.2	-29.8	28.5	0.00e+00	0	29	0	2479882240	32	5584
2026-01-15 03:46:53.57	283.22	32.74	-29.5	-30.2	28.3	0.00e+00	0	29	0	2485125120	32	5849
2026-01-15 03:46:54.58	283.58	32.68	-29.7	-30.3	28.2	0.00e+00	0	29	0	2491416576	32	5904
2026-01-15 03:46:55.59	283.94	32.62	-29.6	-30.2	28.3	0.00e+00	0	29	0	2496659456	32	5852
2026-01-15 03:46:56.60	284.30	32.56	-29.6	-30.3	28.3	0.00e+00	0	29	0	2502950912	32	5908
2026-01-15 03:46:57.61	284.65	32.49	-29.2	-29.8	28.5	0.00e+00	0	30	0	2508193792	32	5591
2026-01-15 03:46:58.62	285.01	32.43	-29.2	-29.7	28.6	0.00e+00	0	29	0	2513436672	32	5565
2026-01-15 03:46:59.63	285.36	32.36	-29.4	-30.1	28.5	0.00e+00	0	29	0	2519728128	32	5774
2026-01-15 03:47:00.64	285.71	32.29	-29.5	-30.1	28.3	0.00e+00	0	30	0	2524971008	32	5810
2026-01-15 03:47:01.65	286.06	32.22	-29.6	-30.2	28.3	0.00e+00	0	29	0	2531262464	32	5855
2026-01-15 03:47:02.65	286.41	32.15	-29.7	-30.4	28.2	0.00e+00	0	29	0	2536505344	32	6000
2026-01-15 03:47:03.66	286.75	32.08	-29.8	-30.5	28.3	0.00e+00	0	29	0	2541748224	32	6038
2026-01-15 03:47:04.67	287.10	32.01	-29.9	-30.5	28.2	0.00e+00	0	29	0	2548039680	32	6067
2026-01-15 03:47:05.68	287.44	31.94	-29.9	-30.5	28.1	0.00e+00	0	29	0	2553282560	32	6084
2026-01-15 03:47:06.69	287.79	31.86	-30.0	-30.5	28.1	0.00e+00	0	29	0	2559574016	32	6096
2026-01-15 03:47:07.70	288.13	31.79	-29.8	-30.5	28.1	0.00e+00	0	29	0	2564816896	32	6094
2026-01-15 03:47:08.71	288.47	31.71	-29.6	-30.3	28.3	0.00e+00	0	30	0	2571108352	32	5926
2026-01-15 03:47:09.72	288.80	31.64	-29.6	-30.1	28.4	0.00e+00	0	30	0	2576351232	32	5815
2026-01-15 03:47:10.72	289.14	31.56	-29.6	-30.3	28.3	0.00e+00	0	30	0	2581594112	32	5945
2026-01-15 03:47:11.74	289.48	31.48	-29.7	-30.4	28.1	0.00e+00	0	29	0	2587885568	32	5996
2026-01-15 03:47:12.74	289.81	31.40	-29.7	-30.3	28.3	0.00e+00	0	29	0	2593128448	32	5950
2026-01-15 03:47:13.75	290.14	31.32	-29.6	-30.3	28.2	0.00e+00	0	30	0	2599419904	32	5928
2026-01-15 03:47:14.77	290.47	31.24	-29.7	-30.4	28.2	0.00e+00	0	30	0	2604662784	32	6009
2026-01-15 03:47:15.78	290.80	31.16	-29.7	-30.2	28.3	0.00e+00	0	30	0	2609905664	32	5884
2026-01-15 03:47:16.79	291.13	31.08	-29.8	-30.4	28.2	0.00e+00	0	30	0	2616197120	32	6012
2026-01-15 03:47:17.79	291.45	31.00	-29.8	-30.4	28.1	0.00e+00	0	30	0	2621440000	32	6025
2026-01-15 03:47:18.81	291.77	30.91	-29.7	-30.4	28.3	0.00e+00	0	30	0	2627731456	32	5993
2026-01-15 03:47:19.81	292.09	30.83	-29.6	-30.3	28.2	0.00e+00	0	29	0	2632974336	32	5899
2026-01-15 03:47:20.82	292.41	30.75	-29.8	-30.4	28.2	0.00e+00	0	30	0	2638217216	32	6027
2026-01-15 03:47:21.83	292.73	30.66	-29.7	-30.3	28.2	0.00e+00	0	30	0	2644508672	32	5907
2026-01-15 03:47:22.84	293.05	30.57	-29.7	-30.4	28.2	0.00e+00	0	30	0	2649751552	32	5966
2026-01-15 03:47:23.85	293.36	30.49	-29.8	-30.5	28.2	0.00e+00	0	30	0	2656043008	32	6038
2026-01-15 03:47:24.86	293.68	30.40	-29.9	-30.5	28.1	0.00e+00	0	29	0	2661285888	32	6076
2026-01-15 03:47:25.87	293.99	30.31	-29.8	-30.4	28.2	0.00e+00	0	29	0	2667577344	32	6016
2026-01-15 03:47:26.88	294.30	30.22	-29.6	-30.3	28.3	0.00e+00	0	29	0	2672820224	32	5899
2026-01-15 03:47:27.89	294.61	30.13	-29.5	-30.2	28.4	0.00e+00	0	29	0	2679111680	32	5875
2026-01-15 03:47:28.90	294.91	30.04	-29.5	-30.1	28.3	0.00e+00	0	29	0	2684354560	32	5792
2026-01-15 03:47:29.91	295.22	29.95	-29.6	-30.3	28.3	0.00e+00	0	29	0	2689597440	32	5914
2026-01-15 03:47:30.92	295.52	29.86	-29.8	-30.4	28.1	0.00e+00	0	29	0	2695888896	32	5973
2026-01-15 03:47:31.93	295.82	29.77	-29.9	-30.6	28.1	0.00e+00	0	29	0	2701131776	32	6131
2026-01-15 03:47:32.94	296.12	29.67	-30.0	-30.6	27.9	0.00e+00	0	29	0	2707423232	32	6117
2026-01-15 03:47:33.94	296.42	29.58	-29.9	-30.6	28.0	0.00e+00	0	30	0	2712666112	32	6145
2026-01-15 03:47:34.95	296.72	29.49	-30.0	-30.7	27.9	0.00e+00	0	30	0	2717908992	32	6216
2026-01-15 03:47:35.96	297.01	29.39	-29.5	-30.1	28.3	0.00e+00	0	30	0	2724200448	32	5771
2026-01-15 03:47:36.97	297.30	29.30	-29.5	-30.1	28.3	0.00e+00	0	29	0	2729443328	32	5799
2026-01-15 03:47:37.98	297.60	29.21	-29.7	-30.2	28.2	0.00e+00	0	29	0	2735734784	32	5886
2026-01-15 03:47:38.99	297.89	29.11	-29.9	-30.6	28.0	0.00e+00	0	30	0	2740977664	32	6145
2026-01-15 03:47:40.00	298.17	29.01	-30.1	-30.8	27.9	0.00e+00	0	29	0	2746220544	32	6287
2026-01-15 03:47:41.01	298.46	28.92	-30.0	-30.7	27.9	0.00e+00	0	29	0	2752512000	32	6236
2026-01-15 03:47:42.02	298.75	28.82	-30.0	-30.6	28.0	0.00e+00	0	30	0	2757754880	32	6168
2026-01-15 03:47:43.03	299.03	28.72	-29.8	-30.3	28.0	0.00e+00	0	29	0	2764046336	32	5956
2026-01-15 03:47:44.04	299.31	28.63	-29.7	-30.3	28.2	0.00e+00	0	30	0	2769289216	32	5904
2026-01-15 03:47:45.05	299.59	28.53	-29.8	-30.4	28.2	0.00e+00	0	30	0	2775580672	32	6032
2026-01-15 03:47:46.06	299.87	28.43	-29.9	-30.5	28.0	0.00e+00	0	29	0	2780823552	32	6045
2026-01-15 03:47:47.07	300.14	28.33	-30.1	-30.7	27.8	0.00e+00	0	30	0	2786066432	32	6243
2026-01-15 03:47:48.08	300.42	28.23	-30.2	-30.9	27.8	0.00e+00	0	30	0	2792357888	32	6351
2026-01-15 03:47:49.09	300.69	28.13	-30.0	-30.5	27.9	0.00e+00	0	30	0	2797600768	32	6094
2026-01-15 03:47:50.10	300.96	28.03	-29.9	-30.5	28.0	0.00e+00	0	30	0	2803892224	32	6100
2026-01-15 03:47:51.11	301.23	27.93	-29.7	-30.3	28.2	0.00e+00	0	29	0	2809135104	32	5929
2026-01-15 03:47:52.11	301.50	27.83	-29.6	-30.3	28.2	0.00e+00	0	29	0	2814377984	32	5939
2026-01-15 03:47:53.12	301.76	27.73	-29.7	-30.3	28.1	0.00e+00	0	29	0	2820669440	32	5940
2026-01-15 03:47:54.13	302.03	27.63	-29.9	-30.4	28.0	0.00e+00	0	29	0	2825912320	32	6027
2026-01-15 03:47:55.14	302.29	27.53	-30.1	-30.6	27.8	0.00e+00	0	29	0	2832203776	32	6165
2026-01-15 03:47:56.15	302.55	27.43	-30.1	-30.7	27.8	0.00e+00	0	30	0	2837446656	32	6174
2026-01-15 03:47:57.16	302.81	27.33	-30.2	-30.7	27.8	0.00e+00	0	30	0	2842689536	32	6225
2026-01-15 03:47:58.17	303.07	27.23	-30.0	-30.7	27.8	0.00e+00	0	30	0	2848980992	32	6176
2026-01-15 03:47:59.18	303.33	27.13	-30.1	-30.7	27.8	0.00e+00	0	30	0	2854223872	32	6191
2026-01-15 03:48:00.18	303.58	27.02	-29.9	-30.6	28.0	0.00e+00	0	29	0	2860515328	32	6146
2026-01-15 03:48:01.19	303.83	26.92	-29.9	-30.6	27.9	0.00e+00	0	30	0	2865758208	32	6171
2026-01-15 03:48:02.20	304.09	26.82	-29.9	-30.6	27.9	0.00e+00	0	30	0	2872049664	32	6155
2026-01-15 03:48:03.21	304.34	26.72	-30.0	-30.7	27.6	0.00e+00	0	29	0	2877292544	32	6184
2026-01-15 03:48:04.22	304.58	26.61	-30.0	-30.7	27.7	0.00e+00	0	30	0	2882535424	32	6208
2026-01-15 03:48:05.23	304.83	26.51	-30.1	-30.8	27.7	0.00e+00	0	29	0	2888826880	32	6273
2026-01-15 03:48:06.24	305.08	26.41	-30.0	-30.6	27.7	0.00e+00	0	30	0	2894069760	32	6116
2026-01-15 03:48:07.25	305.32	26.30	-30.0	-30.5	27.8	0.00e+00	0	30	0	2900361216	32	6097
2026-01-15 03:48:08.26	305.56	26.20	-30.0	-30.7	27.8	0.00e+00	0	30	0	2905604096	32	6230
2026-01-15 03:48:09.27	305.80	26.10	-30.2	-30.7	27.7	0.00e+00	0	29	0	2910846976	32	6216
2026-01-15 03:48:10.28	306.04	25.99	-30.1	-30.7	27.5	0.00e+00	0	29	0	2917138432	32	6178
2026-01-15 03:48:11.29	306.28	25.89	-30.1	-30.8	27.2	0.00e+00	0	30	0	2922381312	32	6307
2026-01-15 03:48:12.30	306.52	25.78	-30.2	-30.9	27.3	0.00e+00	0	29	0	2928672768	32	6331
2026-01-15 03:48:13.31	306.75	25.68	-30.0	-30.6	27.6	0.00e+00	0	29	0	2933915648	32	6127
2026-01-15 03:48:14.32	306.99	25.58	-29.9	-30.4	27.9	0.00e+00	0	29	0	2939158528	32	6012
2026-01-15 03:48:15.33	307.22	25.47	-30.0	-30.7	27.9	0.00e+00	0	29	0	2945449984	32	6201
2026-01-15 03:48:16.34	307.45	25.37	-30.1	-30.6	27.8	0.00e+00	0	29	0	2950692864	32	6148
2026-01-15 03:48:17.35	307.68	25.26	-30.3	-30.8	27.7	0.00e+00	0	29	0	2956984320	32	6301
2026-01-15 03:48:18.36	307.90	25.16	-30.4	-31.0	27.6	0.00e+00	0	30	0	2962227200	32	6398
2026-01-15 03:48:19.37	308.13	25.05	-30.2	-30.8	27.7	0.00e+00	0	30	0	2967470080	32	6303
2026-01-15 03:48:20.37	308.35	24.95	-30.3	-31.0	27.7	0.00e+00	0	29	0	2973761536	32	6401
2026-01-15 03:48:21.38	308.57	24.85	-30.2	-30.9	27.7	0.00e+00	0	30	0	2979004416	32	6354
2026-01-15 03:48:22.40	308.80	24.74	-30.2	-30.7	27.8	0.00e+00	0	29	0	2985295872	32	6221
2026-01-15 03:48:23.40	309.02	24.64	-30.2	-30.9	27.7	0.00e+00	0	30	0	2990538752	32	6364
2026-01-15 03:48:24.41	309.23	24.53	-30.2	-30.9	27.8	0.00e+00	0	30	0	2996830208	32	6344
2026-01-15 03:48:25.42	309.45	24.43	-30.4	-31.0	27.7	0.00e+00	0	30	0	3002073088	32	6427
2026-01-15 03:48:26.43	309.67	24.32	-30.4	-31.0	27.6	0.00e+00	0	30	0	3008364544	32	6448
2026-01-15 03:48:27.44	309.88	24.22	-30.3	-30.9	27.6	0.00e+00	0	30	0	3013607424	32	6340
2026-01-15 03:48:28.45	310.09	24.11	-30.4	-31.1	27.6	0.00e+00	0	30	0	3018850304	32	6486
2026-01-15 03:48:29.46	310.31	24.01	-30.5	-31.1	27.5	0.00e+00	0	30	0	3025141760	32	6494
2026-01-15 03:48:30.47	310.52	23.90	-30.3	-31.0	27.7	0.00e+00	0	29	0	3030384640	32	6429
2026-01-15 03:48:31.48	310.72	23.80	-30.4	-31.1	27.5	0.00e+00	0	30	0	3036676096	32	6503
2026-01-15 03:48:32.49	310.93	23.70	-30.3	-30.8	27.7	0.00e+00	0	30	0	3041918976	32	6293
2026-01-15 03:48:33.49	311.14	23.59	-30.3	-30.8	27.7	0.00e+00	0	29	0	3047161856	32	6284
2026-01-15 03:48:34.50	311.34	23.49	-30.4	-31.1	27.6	0.00e+00	0	30	0	3053453312	32	6496
2026-01-15 03:48:35.51	311.54	23.38	-30.4	-30.9	27.6	0.00e+00	0	29	0	3058696192	32	6389
2026-01-15 03:48:36.53	311.75	23.28	-30.4	-31.0	27.6	0.00e+00	0	30	0	3063939072	32	6421
2026-01-15 03:48:37.54	311.95	23.17	-30.4	-31.1	27.6	0.00e+00	0	30	0	3070230528	32	6527
2026-01-15 03:48:38.55	312.15	23.07	-30.4	-31.1	27.6	0.00e+00	0	30	0	3075473408	32	6480
2026-01-15 03:48:39.56	312.35	22.97	-30.4	-31.0	27.5	0.00e+00	0	29	0	3081764864	32	6436
2026-01-15 03:48:40.57	312.54	22.86	-30.4	-30.9	27.6	0.00e+00	0	30	0	3087007744	32	6377
2026-01-15 03:48:41.57	312.74	22.76	-30.4	-31.0	27.5	0.00e+00	0	29	0	3093299200	32	6417
2026-01-15 03:48:42.58	312.93	22.65	-30.6	-31.3	27.4	0.00e+00	0	29	0	3098542080	32	6668
2026-01-15 03:48:43.59	313.13	22.55	-30.7	-31.4	27.3	0.00e+00	0	29	0	3104833536	34	5988
2026-01-15 03:48:44.60	313.32	22.45	-30.8	-31.5	27.2	0.00e+00	0	30	0	3110076416	34	6092
2026-01-15 03:48:45.61	313.51	22.34	-30.9	-31.7	27.1	0.00e+00	0	29	0	3115319296	34	6184
2026-01-15 03:48:46.62	313.70	22.24	-31.0	-31.7	27.1	0.00e+00	0	29	0	3121610752	34	6237
2026-01-15 03:48:47.63	313.89	22.14	-31.1	-31.6	27.0	0.00e+00	0	29	0	3126853632	34	6161
2026-01-15 03:48:48.64	314.07	22.03	-31.0	-31.6	27.1	0.00e+00	0	29	0	3133145088	34	6171
2026-01-15 03:48:49.65	314.26	21.93	-31.0	-31.7	27.0	0.00e+00	0	30	0	3138387968	34	6217
2026-01-15 03:48:50.66	314.44	21.83	-31.1	-31.8	27.0	0.00e+00	0	29	0	3143630848	34	6294
2026-01-15 03:48:51.67	314.63	21.73	-31.1	-31.8	27.0	0.00e+00	0	30	0	3149922304	34	6257
2026-01-15 03:48:52.68	314.81	21.62	-31.3	-32.0	26.9	0.00e+00	0	29	0	3155165184	34	6417
2026-01-15 03:48:53.69	314.99	21.52	-31.3	-32.0	26.7	0.00e+00	0	29	0	3161456640	34	6440
2026-01-15 03:48:54.69	315.17	21.42	-31.3	-31.9	26.8	0.00e+00	0	29	0	3166699520	34	6355
2026-01-15 03:48:55.70	315.35	21.32	-31.3	-31.9	26.9	0.00e+00	0	30	0	3171942400	34	6328
2026-01-15 03:48:56.71	315.52	21.21	-31.4	-32.0	26.8	0.00e+00	0	29	0	3178233856	34	6394
2026-01-15 03:48:57.72	315.70	21.11	-31.3	-32.0	26.9	0.00e+00	0	30	0	3183476736	34	6424
2026-01-15 03:48:58.73	315.88	21.01	-31.3	-32.0	27.0	0.00e+00	0	30	0	3189768192	34	6408
2026-01-15 03:48:59.74	316.05	20.91	-31.2	-32.0	26.9	0.00e+00	0	30	0	3195011072	34	6394
2026-01-15 03:49:00.75	316.22	20.81	-31.1	-31.7	27.0	0.00e+00	0	30	0	3201302528	34	6196
2026-01-15 03:49:01.76	316.40	20.71	-31.2	-31.7	26.9	0.00e+00	0	30	0	3206545408	34	6233
2026-01-15 03:49:02.77	316.57	20.61	-31.0	-31.7	27.1	0.00e+00	0	29	0	3211788288	34	6186
2026-01-15 03:49:03.78	316.74	20.50	-31.1	-31.8	27.0	0.00e+00	0	29	0	3218079744	34	6283
2026-01-15 03:49:04.79	316.90	20.40	-31.1	-31.8	27.0	0.00e+00	0	30	0	3223322624	34	6277
2026-01-15 03:49:05.80	317.07	20.30	-31.2	-31.8	26.9	0.00e+00	0	30	0	3229614080	34	6255
2026-01-15 03:49:06.81	317.24	20.20	-31.2	-31.9	26.9	0.00e+00	0	30	0	3234856960	34	6349
2026-01-15 03:49:07.82	317.40	20.10	-31.3	-32.0	26.9	0.00e+00	0	30	0	3240099840	34	6419
2026-01-15 03:49:08.83	317.57	20.00	-31.3	-31.9	26.7	0.00e+00	0	29	0	3246391296	34	6366
2026-01-15 03:49:09.84	317.73	19.90	-31.3	-32.1	26.8	0.00e+00	0	29	0	3251634176	34	6476
2026-01-15 03:49:10.85	317.90	19.80	-31.3	-32.0	26.7	0.00e+00	0	29	0	3257925632	34	6446
2026-01-15 03:49:11.86	318.06	19.70	-31.4	-32.2	26.7	0.00e+00	0	30	0	3263168512	34	6548
2026-01-15 03:49:12.87	318.22	19.60	-31.4	-32.1	26.8	0.00e+00	0	29	0	3268411392	34	6493
2026-01-15 03:49:13.87	318.37	19.50	-31.4	-32.1	26.7	0.00e+00	0	29	0	3274702848	34	6527
2026-01-15 03:49:14.88	318.53	19.41	-31.5	-32.0	26.7	0.00e+00	0	29	0	3279945728	34	6455
2026-01-15 03:49:15.89	318.69	19.31	-31.5	-32.2	26.6	0.00e+00	0	29	0	3286237184	34	6588
2026-01-15 03:49:16.90	318.85	19.21	-31.5	-32.2	26.6	0.00e+00	0	30	0	3291480064	34	6601
2026-01-15 03:49:17.91	319.00	19.11	-31.6	-32.2	26.5	0.00e+00	0	30	0	3297771520	34	6550
2026-01-15 03:49:18.92	319.16	19.01	-31.7	-32.4	26.5	0.00e+00	0	29	0	3303014400	36	6004
2026-01-15 03:49:19.93	319.31	18.91	-31.8	-32.4	26.5	0.00e+00	0	30	0	3308257280	36	5996
2026-01-15 03:49:20.93	319.46	18.82	-31.7	-32.4	26.6	0.00e+00	0	29	0	3314548736	36	5985
2026-01-15 03:49:21.94	319.61	18.72	-31.8	-32.5	26.4	0.00e+00	0	29	0	3319791616	36	6076
2026-01-15 03:49:22.95	319.76	18.62	-31.8	-32.4	26.4	0.00e+00	0	29	0	3326083072	36	5985
2026-01-15 03:49:23.96	319.91	18.52	-31.9	-32.5	26.3	0.00e+00	0	29	0	3331325952	36	6067
2026-01-15 03:49:24.97	320.06	18.43	-31.8	-32.3	26.5	0.00e+00	0	30	0	3336568832	36	5964
2026-01-15 03:49:25.98	320.21	18.33	-31.8	-32.5	26.5	0.00e+00	0	30	0	3342860288	36	6055
2026-01-15 03:49:26.99	320.36	18.23	-31.8	-32.4	26.3	0.00e+00	0	29	0	3348103168	36	5992
2026-01-15 03:49:28.00	320.50	18.14	-31.8	-32.5	26.4	0.00e+00	0	29	0	3354394624	36	6074
2026-01-15 03:49:29.01	320.65	18.04	-31.7	-32.3	26.4	0.00e+00	0	30	0	3359637504	36	5941
2026-01-15 03:49:30.02	320.79	17.94	-31.9	-32.5	26.3	0.00e+00	0	30	0	3364880384	36	6052
2026-01-15 03:49:31.03	320.94	17.85	-31.9	-32.5	26.2	0.00e+00	0	30	0	3371171840	36	6065
2026-01-15 03:49:32.04	321.08	17.75	-32.0	-32.5	26.2	0.00e+00	0	30	0	3376414720	36	6097
2026-01-15 03:49:33.05	321.22	17.66	-32.1	-32.6	26.2	0.00e+00	0	30	0	3382706176	36	6159
2026-01-15 03:49:34.06	321.36	17.56	-32.1	-32.9	26.0	0.00e+00	0	29	0	3387949056	36	6330
2026-01-15 03:49:35.06	321.50	17.47	-32.3	-33.0	25.9	0.00e+00	0	30	0	3394240512	36	6436
2026-01-15 03:49:36.07	321.64	17.37	-32.3	-32.9	25.9	0.00e+00	0	30	0	3399483392	36	6333
2026-01-15 03:49:37.08	321.78	17.28	-32.5	-33.1	25.8	0.00e+00	0	30	0	3405774848	36	6494
2026-01-15 03:49:38.09	321.91	17.18	-32.7	-33.3	25.7	0.00e+00	0	30	0	3411017728	36	6624
2026-01-15 03:49:39.10	322.05	17.09	-32.5	-33.3	25.8	0.00e+00	0	30	0	3416260608	38	5918
2026-01-15 03:49:40.11	322.19	16.99	-32.5	-33.1	25.7	0.00e+00	0	30	0	3422552064	38	5777
2026-01-15 03:49:41.12	322.32	16.90	-32.4	-32.9	25.8	0.00e+00	0	29	0	3427794944	38	5686
2026-01-15 03:49:42.13	322.46	16.81	-32.3	-32.8	25.9	0.00e+00	0	29	0	3434086400	38	5625
2026-01-15 03:49:43.13	322.59	16.72	-32.3	-32.9	26.0	0.00e+00	0	29	0	3439329280	38	5666
2026-01-15 03:49:44.14	322.72	16.62	-32.5	-33.2	25.7	0.00e+00	0	30	0	3444572160	38	5881
2026-01-15 03:49:45.15	322.85	16.53	-32.3	-33.1	25.9	0.00e+00	0	29	0	3450863616	38	5763
2026-01-15 03:49:46.16	322.98	16.44	-32.5	-33.1	25.8	0.00e+00	0	30	0	3456106496	38	5820
2026-01-15 03:49:47.17	323.11	16.34	-32.4	-33.2	25.8	0.00e+00	0	30	0	3461349376	38	5847
2026-01-15 03:49:48.18	323.24	16.25	-32.4	-33.0	25.8	0.00e+00	0	29	0	3467640832	38	5735
2026-01-15 03:49:49.18	323.37	16.16	-32.5	-33.0	25.7	0.00e+00	0	30	0	3472883712	38	5759
2026-01-15 03:49:50.19	323.50	16.07	-32.6	-33.3	25.7	0.00e+00	0	29	0	3479175168	38	5952
2026-01-15 03:49:51.20	323.63	15.98	-32.4	-33.2	25.8	0.00e+00	0	29	0	3484418048	38	5846
2026-01-15 03:49:52.21	323.75	15.89	-32.4	-33.2	25.8	0.00e+00	0	30	0	3490709504	38	5853
2026-01-15 03:49:53.22	323.88	15.79	-32.5	-33.1	25.8	0.00e+00	0	30	0	3495952384	38	5809
2026-01-15 03:49:54.23	324.00	15.70	-32.4	-33.0	25.8	0.00e+00	0	30	0	3502243840	38	5727
2026-01-15 03:49:55.24	324.13	15.61	-32.5	-33.1	25.8	0.00e+00	0	30	0	3507486720	38	5777
2026-01-15 03:49:56.25	324.25	15.52	-32.4	-33.1	25.8	0.00e+00	0	30	0	3512729600	38	5824
2026-01-15 03:49:57.26	324.37	15.43	-32.3	-32.9	25.8	0.00e+00	0	29	0	3519021056	38	5691
2026-01-15 03:49:58.27	324.50	15.34	-32.3	-33.1	25.8	0.00e+00	0	29	0	3524263936	38	5778
2026-01-15 03:49:59.27	324.62	15.25	-32.3	-32.9	25.9	0.00e+00	0	30	0	3529506816	38	5695
2026-01-15 03:50:00.28	324.74	15.16	-32.2	-32.8	25.9	0.00e+00	0	30	0	3535798272	38	5622
2026-01-15 03:50:01.29	324.86	15.07	-32.3	-33.0	25.9	0.00e+00	0	29	0	3541041152	38	5699
2026-01-15 03:50:02.30	324.98	14.98	-32.3	-32.9	25.8	0.00e+00	0	30	0	3547332608	38	5670
2026-01-15 03:50:03.31	325.10	14.90	-32.4	-33.0	25.8	0.00e+00	0	30	0	3552575488	38	5725
2026-01-15 03:50:04.32	325.21	14.81	-32.5	-33.1	25.7	0.00e+00	0	30	0	3557818368	38	5768
2026-01-15 03:50:05.33	325.33	14.72	-32.6	-33.2	25.6	0.00e+00	0	29	0	3564109824	38	5853
2026-01-15 03:50:06.34	325.45	14.63	-32.7	-33.2	25.6	0.00e+00	0	29	0	3569352704	38	5886
2026-01-15 03:50:07.35	325.56	14.54	-32.8	-33.4	25.4	0.00e+00	0	29	0	3575644160	38	6011
2026-01-15 03:50:08.36	325.68	14.45	-32.5	-33.1	25.6	0.00e+00	0	29	0	3580887040	38	5805
2026-01-15 03:50:09.37	325.79	14.37	-32.7	-33.2	25.5	0.00e+00	0	29	0	3587178496	38	5894
2026-01-15 03:50:10.37	325.91	14.28	-32.7	-33.4	25.5	0.00e+00	0	29	0	3592421376	38	6000
2026-01-15 03:50:11.38	326.02	14.19	-32.6	-33.2	25.6	0.00e+00	0	29	0	3598712832	38	5873
2026-01-15 03:50:12.39	326.13	14.10	-32.6	-33.2	25.6	0.00e+00	0	30	0	3603955712	38	5864
