passes_logs/2026/01/15/R4.6S_Anadyr/R4.6S_Anadyr__20260115_172352_FENGYUN_3D_rec.log

#Pass ID: 20260115_172352_FENGYUN 3D
#Satellite: FENGYUN 3D
#Configuration: FENGYUN 3D
#almurnet v.1.7.20251203
#Start time: 2026-01-15 17:23:53

#Version: 2.2.20231116
#Station: R4.6S_Anadyr
#Location: 177.4865 lon 64.73178 lat
#TLE: 1 43010U 17072A   26014.65117763 -.00000217  00000+0 -80772-4 0  9993
#TLE: 2 43010  98.9933 346.4618 0002330 108.4699 251.6730 14.19694700423204

#Time	Az	El	Level	Level2	SNR	BER	BlckErr	Temp	State	Recorded	gain1	gain2
2026-01-15 17:23:53.14	22.49	0.05	-48.4	-66.2	3.5	3.02e+01	0	25	0	0	60	78678
2026-01-15 17:23:54.15	22.48	0.11	-48.0	-60.2	3.6	8.45e-01	0	26	104	0	60	37140
2026-01-15 17:23:55.16	22.47	0.18	-47.9	-60.3	3.6	8.45e-01	0	26	104	0	60	37356
2026-01-15 17:23:56.18	22.46	0.24	-48.1	-60.2	3.6	8.45e-01	0	26	104	0	60	37193
2026-01-15 17:23:57.19	22.45	0.30	-48.2	-60.3	3.6	8.46e-01	0	26	104	0	60	37424
2026-01-15 17:23:58.20	22.44	0.36	-48.1	-60.3	3.6	8.46e-01	0	26	104	0	60	37401
2026-01-15 17:23:59.21	22.42	0.42	-48.2	-60.3	3.6	8.45e-01	0	26	104	0	60	37235
2026-01-15 17:24:00.22	22.41	0.48	-48.1	-60.3	3.6	8.46e-01	0	26	104	0	60	37234
2026-01-15 17:24:01.23	22.40	0.54	-48.1	-60.2	3.6	8.45e-01	0	26	104	0	60	36840
2026-01-15 17:24:02.25	22.39	0.60	-48.0	-60.1	3.6	8.45e-01	0	26	104	0	60	36479
2026-01-15 17:24:03.26	22.38	0.66	-47.9	-60.0	3.6	8.45e-01	0	26	104	0	60	35947
2026-01-15 17:24:04.27	22.36	0.72	-47.7	-59.8	3.6	8.44e-01	0	26	104	0	60	35253
2026-01-15 17:24:05.27	22.35	0.79	-46.9	-59.5	3.6	8.47e-01	0	26	104	0	60	34206
2026-01-15 17:24:06.29	22.34	0.85	-47.3	-59.4	3.6	8.45e-01	0	27	104	0	60	33799
2026-01-15 17:24:07.30	22.33	0.91	-47.1	-59.2	3.6	8.45e-01	0	27	104	0	60	32916
2026-01-15 17:24:08.31	22.31	0.97	-46.7	-58.8	3.6	8.45e-01	0	27	104	0	60	31481
2026-01-15 17:24:09.32	22.30	1.03	-46.5	-58.6	3.6	8.44e-01	0	27	104	0	60	30802
2026-01-15 17:24:10.33	22.29	1.09	-46.5	-58.6	3.6	8.45e-01	0	26	104	0	60	30704
2026-01-15 17:24:11.34	22.28	1.16	-46.5	-58.5	3.6	8.45e-01	0	27	104	0	60	30546
2026-01-15 17:24:12.35	22.26	1.22	-46.5	-58.5	3.6	8.45e-01	0	27	104	0	60	30450
2026-01-15 17:24:13.36	22.25	1.28	-46.5	-58.4	3.6	8.45e-01	0	27	104	0	60	30050
2026-01-15 17:24:14.37	22.24	1.34	-46.4	-58.2	3.6	8.44e-01	0	27	104	0	60	29220
2026-01-15 17:24:15.38	22.22	1.41	-46.4	-58.1	3.6	8.46e-01	0	27	104	0	60	28954
2026-01-15 17:24:16.39	22.21	1.47	-46.4	-57.9	3.6	8.45e-01	0	27	104	0	60	28239
2026-01-15 17:24:17.40	22.20	1.53	-46.4	-57.7	3.6	8.44e-01	0	27	104	0	60	27671
2026-01-15 17:24:18.41	22.18	1.60	-46.4	-57.9	3.6	8.46e-01	0	27	104	0	60	28382
2026-01-15 17:24:19.42	22.17	1.66	-46.4	-58.0	3.6	8.44e-01	0	27	104	0	60	28813
2026-01-15 17:24:20.43	22.16	1.72	-46.4	-58.1	3.6	8.44e-01	0	27	104	0	60	29208
2026-01-15 17:24:21.44	22.14	1.79	-46.4	-58.4	3.6	8.45e-01	0	27	104	0	60	29999
2026-01-15 17:24:22.45	22.13	1.85	-46.5	-58.5	3.6	8.45e-01	0	27	104	0	60	30386
2026-01-15 17:24:23.46	22.12	1.91	-46.5	-58.6	3.6	8.46e-01	0	27	104	0	60	30658
2026-01-15 17:24:24.47	22.10	1.98	-46.5	-58.5	3.6	8.45e-01	0	27	104	0	60	30490
2026-01-15 17:24:25.48	22.09	2.04	-46.5	-58.5	3.6	8.46e-01	0	27	104	0	60	30378
2026-01-15 17:24:26.49	22.08	2.11	-46.5	-58.4	3.6	8.46e-01	0	27	104	0	60	30023
2026-01-15 17:24:27.50	22.06	2.17	-46.4	-58.1	3.6	8.45e-01	0	27	104	0	60	28917
2026-01-15 17:24:28.51	22.05	2.24	-46.4	-57.8	3.6	8.46e-01	0	27	104	0	60	28177
2026-01-15 17:24:29.52	22.03	2.30	-46.4	-57.4	3.6	8.45e-01	0	27	104	0	60	26854
2026-01-15 17:24:30.53	22.02	2.37	-46.3	-56.8	3.6	8.45e-01	0	27	104	0	60	25072
2026-01-15 17:24:31.54	22.00	2.43	-46.2	-56.1	3.7	8.43e-01	0	27	104	0	60	23167
2026-01-15 17:24:32.54	21.99	2.50	-46.2	-56.3	3.6	8.45e-01	0	27	104	0	60	23685
2026-01-15 17:24:33.55	21.98	2.56	-46.2	-55.8	3.8	8.42e-01	0	27	104	0	60	22252
2026-01-15 17:24:34.57	21.96	2.63	-46.2	-55.8	3.8	8.44e-01	0	27	104	0	60	22291
2026-01-15 17:24:35.58	21.95	2.69	-46.2	-56.2	3.7	8.43e-01	0	27	104	0	60	23251
2026-01-15 17:24:36.58	21.93	2.76	-46.2	-55.8	3.8	8.43e-01	0	27	104	0	60	22214
2026-01-15 17:24:37.59	21.92	2.82	-46.0	-53.2	4.1	8.32e-01	0	27	0	0	60	16510
2026-01-15 17:24:38.60	21.90	2.89	-45.5	-50.9	5.7	7.69e-01	0	27	0	0	60	12674
2026-01-15 17:24:39.61	21.89	2.96	-44.6	-48.5	8.4	9.45e-02	0	27	0	5242880	60	9568
2026-01-15 17:24:40.62	21.87	3.02	-43.7	-46.7	10.6	1.42e-02	0	27	0	11534336	60	7841
2026-01-15 17:24:41.63	21.86	3.09	-42.4	-44.7	12.8	2.32e-04	0	27	0	16777216	58	6952
2026-01-15 17:24:42.64	21.84	3.16	-41.4	-43.2	14.2	5.70e-06	0	27	0	22020096	56	6596
2026-01-15 17:24:43.65	21.83	3.22	-40.4	-41.9	15.6	1.10e-06	0	27	0	28311552	54	6389
2026-01-15 17:24:44.66	21.81	3.29	-39.5	-40.9	16.6	0.00e+00	0	27	0	33554432	52	6345
2026-01-15 17:24:45.67	21.80	3.36	-38.8	-40.1	17.5	0.00e+00	0	27	0	39845888	52	5793
2026-01-15 17:24:46.68	21.78	3.42	-39.0	-40.3	17.4	0.00e+00	0	27	0	45088768	52	5910
2026-01-15 17:24:47.69	21.76	3.49	-38.9	-40.2	17.4	0.00e+00	0	27	0	51380224	50	6559
2026-01-15 17:24:48.70	21.75	3.56	-39.1	-40.3	17.1	0.00e+00	0	27	0	56623104	50	6687
2026-01-15 17:24:49.71	21.73	3.63	-39.7	-41.2	16.3	0.00e+00	0	27	0	62914560	50	7351
2026-01-15 17:24:50.72	21.72	3.69	-40.7	-42.3	15.1	0.00e+00	0	27	0	68157440	52	7482
2026-01-15 17:24:51.73	21.70	3.76	-46.4	-57.6	3.6	1.23e-02	0	27	104	72351744	60	27467
2026-01-15 17:24:52.74	21.68	3.83	-43.2	-46.0	11.9	4.85e-01	0	27	0	72351744	60	7229
2026-01-15 17:24:53.75	21.67	3.90	-46.2	-55.2	3.4	0.00e+00	0	27	0	77594624	60	20871
2026-01-15 17:24:54.75	21.65	3.97	-35.2	-36.0	19.9	4.21e-04	0	27	104	77594624	44	5722
2026-01-15 17:24:55.77	21.64	4.04	-45.7	-51.9	3.7	0.00e+00	0	27	0	81788928	60	14204
2026-01-15 17:24:56.78	21.62	4.11	-35.4	-36.2	19.9	0.00e+00	0	27	104	81788928	46	5211
2026-01-15 17:24:57.78	21.60	4.17	-35.2	-36.0	21.7	0.00e+00	0	27	0	85983232	44	5742
2026-01-15 17:24:58.79	21.59	4.24	-35.0	-35.8	21.8	0.00e+00	0	27	0	92274688	44	5572
2026-01-15 17:24:59.80	21.57	4.31	-34.9	-35.8	21.9	0.00e+00	0	27	0	97517568	44	5576
2026-01-15 17:25:00.81	21.55	4.38	-35.1	-36.0	21.7	0.00e+00	0	27	0	103809024	44	5707
2026-01-15 17:25:01.82	21.53	4.45	-35.1	-35.9	21.8	0.00e+00	0	27	0	109051904	44	5687
2026-01-15 17:25:02.83	21.52	4.52	-35.0	-35.8	21.8	0.00e+00	0	27	0	114294784	44	5597
2026-01-15 17:25:03.83	21.50	4.59	-35.2	-36.0	21.8	0.00e+00	0	27	0	120586240	44	5715
2026-01-15 17:25:04.84	21.48	4.66	-34.8	-35.6	22.2	0.00e+00	0	27	0	125829120	42	6114
2026-01-15 17:25:05.85	21.47	4.73	-34.9	-35.7	22.1	0.00e+00	0	27	0	131072000	42	6185
2026-01-15 17:25:06.86	21.45	4.80	-34.9	-35.7	22.0	0.00e+00	0	27	0	137363456	42	6225
2026-01-15 17:25:07.87	21.43	4.88	-34.8	-35.6	22.1	0.00e+00	0	27	0	142606336	42	6163
2026-01-15 17:25:08.88	21.41	4.95	-34.8	-35.6	22.1	0.00e+00	0	27	0	148897792	42	6120
2026-01-15 17:25:09.89	21.39	5.02	-34.9	-35.7	22.0	0.00e+00	0	27	0	154140672	42	6223
2026-01-15 17:25:10.90	21.38	5.09	-34.6	-35.4	22.4	0.00e+00	0	27	0	159383552	42	6011
2026-01-15 17:25:11.90	21.36	5.16	-34.7	-35.5	22.3	0.00e+00	0	27	0	165675008	42	6058
2026-01-15 17:25:12.91	21.34	5.23	-34.8	-35.6	22.2	0.00e+00	0	27	0	170917888	42	6115
2026-01-15 17:25:13.92	21.32	5.30	-34.6	-35.4	22.3	0.00e+00	0	27	0	177209344	42	6010
2026-01-15 17:25:14.93	21.30	5.38	-34.7	-35.5	22.4	0.00e+00	0	27	0	182452224	42	6056
2026-01-15 17:25:15.94	21.28	5.45	-34.7	-35.5	22.3	0.00e+00	0	27	0	188743680	42	6054
2026-01-15 17:25:16.95	21.27	5.52	-34.6	-35.4	22.4	0.00e+00	0	27	0	193986560	42	6007
2026-01-15 17:25:17.96	21.25	5.59	-34.7	-35.5	22.4	0.00e+00	0	27	0	200278016	42	6037
2026-01-15 17:25:18.97	21.23	5.67	-34.6	-35.4	22.5	0.00e+00	0	27	0	205520896	42	5971
2026-01-15 17:25:19.98	21.21	5.74	-34.4	-35.2	22.5	0.00e+00	0	27	0	210763776	42	5867
2026-01-15 17:25:21.00	21.19	5.81	-34.7	-35.4	22.4	0.00e+00	0	27	0	217055232	42	6026
2026-01-15 17:25:22.00	21.17	5.89	-34.4	-35.2	22.7	0.00e+00	0	27	0	222298112	42	5860
2026-01-15 17:25:23.01	21.15	5.96	-34.5	-35.3	22.5	0.00e+00	0	27	0	228589568	42	5920
2026-01-15 17:25:24.02	21.13	6.04	-34.4	-35.2	22.7	0.00e+00	0	27	0	233832448	42	5844
2026-01-15 17:25:25.03	21.11	6.11	-34.5	-35.3	22.6	0.00e+00	0	27	0	239075328	42	5911
2026-01-15 17:25:26.04	21.09	6.18	-34.5	-35.3	22.6	0.00e+00	0	27	0	245366784	42	5907
2026-01-15 17:25:27.04	21.07	6.26	-34.4	-35.2	22.7	0.00e+00	0	27	0	250609664	42	5839
2026-01-15 17:25:28.05	21.05	6.33	-34.4	-35.1	22.8	0.00e+00	0	27	0	255852544	42	5789
2026-01-15 17:25:29.06	21.03	6.41	-34.3	-35.1	22.8	0.00e+00	0	27	0	262144000	42	5779
2026-01-15 17:25:30.07	21.01	6.48	-34.4	-35.1	22.8	0.00e+00	0	27	0	267386880	42	5805
2026-01-15 17:25:31.08	20.99	6.56	-34.3	-35.1	22.8	0.00e+00	0	27	0	273678336	42	5788
2026-01-15 17:25:32.09	20.97	6.64	-34.4	-35.2	22.7	0.00e+00	0	27	0	278921216	42	5852
2026-01-15 17:25:33.10	20.95	6.71	-34.3	-35.0	22.9	0.00e+00	0	27	0	285212672	42	5754
2026-01-15 17:25:34.11	20.93	6.79	-34.3	-35.1	22.9	0.00e+00	0	27	0	290455552	42	5763
2026-01-15 17:25:35.12	20.91	6.86	-34.3	-35.1	22.9	0.00e+00	0	27	0	296747008	42	5773
2026-01-15 17:25:36.13	20.89	6.94	-34.3	-35.1	23.0	0.00e+00	0	27	0	301989888	42	5767
2026-01-15 17:25:37.15	20.87	7.02	-34.1	-34.8	23.2	0.00e+00	0	27	0	307232768	42	5579
2026-01-15 17:25:38.15	20.85	7.09	-34.1	-34.8	23.1	0.00e+00	0	27	0	313524224	42	5606
2026-01-15 17:25:39.16	20.82	7.17	-34.0	-34.7	23.2	0.00e+00	0	27	0	318767104	42	5550
2026-01-15 17:25:40.17	20.80	7.25	-34.0	-34.7	23.2	0.00e+00	0	27	0	325058560	42	5559
2026-01-15 17:25:41.18	20.78	7.33	-34.0	-34.7	23.2	0.00e+00	0	27	0	330301440	42	5559
2026-01-15 17:25:42.19	20.76	7.41	-34.1	-34.8	23.2	0.00e+00	0	27	0	335544320	42	5630
2026-01-15 17:25:43.20	20.74	7.48	-34.0	-34.7	23.2	0.00e+00	0	27	0	341835776	42	5552
2026-01-15 17:25:44.21	20.72	7.56	-33.9	-34.6	23.3	0.00e+00	0	27	0	347078656	42	5497
2026-01-15 17:25:45.22	20.69	7.64	-33.9	-34.7	23.3	0.00e+00	0	27	0	353370112	42	5503
2026-01-15 17:25:46.23	20.67	7.72	-33.7	-34.4	23.6	0.00e+00	0	27	0	358612992	40	5983
2026-01-15 17:25:47.24	20.65	7.80	-33.8	-34.6	23.5	0.00e+00	0	27	0	363855872	40	6109
2026-01-15 17:25:48.25	20.63	7.88	-33.7	-34.5	23.5	0.00e+00	0	27	0	370147328	40	6051
2026-01-15 17:25:49.26	20.60	7.96	-33.6	-34.3	23.6	0.00e+00	0	27	0	375390208	40	5905
2026-01-15 17:25:50.27	20.58	8.04	-33.6	-34.3	23.7	0.00e+00	0	27	0	381681664	40	5931
2026-01-15 17:25:51.28	20.56	8.12	-33.6	-34.3	23.7	0.00e+00	0	27	0	386924544	40	5931
2026-01-15 17:25:52.29	20.53	8.20	-33.7	-34.4	23.6	0.00e+00	0	27	0	393216000	40	5984
2026-01-15 17:25:53.30	20.51	8.28	-33.4	-34.1	23.8	0.00e+00	0	27	0	398458880	40	5824
2026-01-15 17:25:54.31	20.49	8.36	-33.4	-34.1	23.8	0.00e+00	0	27	0	404750336	40	5804
2026-01-15 17:25:55.32	20.46	8.44	-33.6	-34.3	23.8	0.00e+00	0	27	0	409993216	40	5938
2026-01-15 17:25:56.33	20.44	8.52	-33.3	-34.0	24.0	0.00e+00	0	27	0	415236096	40	5716
2026-01-15 17:25:57.34	20.41	8.61	-33.4	-34.1	23.9	0.00e+00	0	27	0	421527552	40	5777
2026-01-15 17:25:58.35	20.39	8.69	-33.3	-34.0	24.1	0.00e+00	0	27	0	426770432	40	5735
2026-01-15 17:25:59.36	20.37	8.77	-33.3	-34.0	24.0	0.00e+00	0	27	0	433061888	40	5724
2026-01-15 17:26:00.37	20.34	8.85	-33.1	-33.8	24.1	0.00e+00	0	27	0	438304768	40	5617
2026-01-15 17:26:01.38	20.32	8.94	-33.1	-33.8	24.2	0.00e+00	0	27	0	443547648	40	5597
2026-01-15 17:26:02.38	20.29	9.02	-33.0	-33.7	24.3	0.00e+00	0	27	0	449839104	40	5543
2026-01-15 17:26:03.39	20.27	9.10	-33.0	-33.7	24.3	0.00e+00	0	27	0	455081984	40	5526
2026-01-15 17:26:04.40	20.24	9.18	-32.9	-33.6	24.4	0.00e+00	0	27	0	460324864	40	5493
2026-01-15 17:26:05.41	20.22	9.27	-32.9	-33.6	24.4	0.00e+00	0	27	0	466616320	40	5483
2026-01-15 17:26:06.42	20.19	9.35	-32.9	-33.6	24.4	0.00e+00	0	27	0	471859200	40	5472
2026-01-15 17:26:07.43	20.16	9.44	-32.9	-33.6	24.4	0.00e+00	0	27	0	478150656	40	5479
2026-01-15 17:26:08.44	20.14	9.52	-32.9	-33.6	24.5	0.00e+00	0	27	0	483393536	40	5446
2026-01-15 17:26:09.45	20.11	9.61	-32.8	-33.5	24.5	0.00e+00	0	27	0	489684992	40	5412
2026-01-15 17:26:10.46	20.09	9.69	-33.0	-33.6	24.4	0.00e+00	0	27	0	494927872	40	5500
2026-01-15 17:26:11.47	20.06	9.78	-32.8	-33.5	24.6	0.00e+00	0	27	0	501219328	40	5391
2026-01-15 17:26:12.48	20.03	9.86	-32.7	-33.4	24.6	0.00e+00	0	27	0	506462208	38	6014
2026-01-15 17:26:13.48	20.01	9.95	-32.8	-33.5	24.5	0.00e+00	0	27	0	511705088	38	6076
2026-01-15 17:26:14.49	19.98	10.04	-32.8	-33.5	24.6	0.00e+00	0	27	0	517996544	38	6044
2026-01-15 17:26:15.50	19.95	10.12	-32.7	-33.4	24.6	0.00e+00	0	27	0	523239424	38	6005
2026-01-15 17:26:16.51	19.92	10.21	-32.7	-33.4	24.7	0.00e+00	0	27	0	529530880	38	5972
2026-01-15 17:26:17.52	19.90	10.30	-32.6	-33.3	24.7	0.00e+00	0	27	0	534773760	38	5920
2026-01-15 17:26:18.53	19.87	10.38	-32.7	-33.4	24.5	0.00e+00	0	27	0	540016640	38	5992
2026-01-15 17:26:19.54	19.84	10.47	-32.5	-33.2	24.8	0.00e+00	0	27	0	546308096	38	5886
2026-01-15 17:26:20.55	19.81	10.56	-32.5	-33.2	24.8	0.00e+00	0	27	0	551550976	38	5862
2026-01-15 17:26:21.56	19.78	10.65	-32.6	-33.2	24.8	0.00e+00	0	27	0	557842432	38	5887
2026-01-15 17:26:22.57	19.76	10.74	-32.6	-33.3	24.7	0.00e+00	0	27	0	563085312	38	5913
2026-01-15 17:26:23.58	19.73	10.83	-32.6	-33.3	24.7	0.00e+00	0	27	0	568328192	38	5929
2026-01-15 17:26:24.58	19.70	10.92	-32.7	-33.3	24.7	0.00e+00	0	27	0	574619648	38	5954
2026-01-15 17:26:25.60	19.67	11.01	-32.4	-33.1	24.8	0.00e+00	0	27	0	579862528	38	5786
2026-01-15 17:26:26.61	19.64	11.10	-32.4	-33.1	24.9	0.00e+00	0	27	0	586153984	38	5780
2026-01-15 17:26:27.62	19.61	11.19	-32.4	-33.1	24.9	0.00e+00	0	27	0	591396864	38	5802
2026-01-15 17:26:28.63	19.58	11.28	-32.4	-33.1	24.9	0.00e+00	0	27	0	597688320	38	5785
2026-01-15 17:26:29.64	19.55	11.37	-32.5	-33.2	24.9	0.00e+00	0	27	0	602931200	38	5845
2026-01-15 17:26:30.64	19.52	11.46	-32.4	-33.1	25.0	0.00e+00	0	27	0	608174080	38	5790
2026-01-15 17:26:31.65	19.49	11.55	-32.4	-33.1	25.0	0.00e+00	0	27	0	614465536	38	5795
2026-01-15 17:26:32.66	19.46	11.64	-32.4	-33.1	25.0	0.00e+00	0	27	0	619708416	38	5788
2026-01-15 17:26:33.67	19.43	11.74	-32.4	-33.0	25.1	0.00e+00	0	27	0	625999872	38	5740
2026-01-15 17:26:34.68	19.40	11.83	-32.4	-33.1	25.0	0.00e+00	0	27	0	631242752	38	5795
2026-01-15 17:26:35.69	19.37	11.92	-32.5	-33.1	25.0	0.00e+00	0	27	0	636485632	38	5810
2026-01-15 17:26:36.70	19.33	12.02	-32.2	-32.9	25.1	0.00e+00	0	27	0	642777088	38	5674
2026-01-15 17:26:37.71	19.30	12.11	-32.3	-33.0	25.1	0.00e+00	0	27	0	648019968	38	5707
2026-01-15 17:26:38.72	19.27	12.20	-32.3	-32.9	25.2	0.00e+00	0	27	0	654311424	38	5689
2026-01-15 17:26:39.74	19.24	12.30	-32.2	-32.9	25.2	0.00e+00	0	27	0	659554304	38	5652
2026-01-15 17:26:40.74	19.21	12.39	-32.3	-33.0	25.1	0.00e+00	0	27	0	664797184	38	5714
2026-01-15 17:26:41.75	19.17	12.49	-32.2	-32.9	25.2	0.00e+00	0	27	0	671088640	38	5672
2026-01-15 17:26:42.76	19.14	12.58	-32.2	-32.8	25.2	0.00e+00	0	27	0	676331520	38	5612
2026-01-15 17:26:43.78	19.11	12.68	-32.2	-32.9	25.1	0.00e+00	0	27	0	682622976	38	5652
2026-01-15 17:26:44.79	19.07	12.78	-32.2	-32.8	25.3	0.00e+00	0	27	0	687865856	38	5626
2026-01-15 17:26:45.80	19.04	12.87	-32.2	-32.9	25.2	0.00e+00	0	27	0	694157312	38	5642
2026-01-15 17:26:46.81	19.01	12.97	-32.2	-32.9	25.3	0.00e+00	0	27	0	699400192	38	5642
2026-01-15 17:26:47.82	18.97	13.07	-32.2	-32.9	25.2	0.00e+00	0	27	0	705691648	38	5666
2026-01-15 17:26:48.83	18.94	13.17	-32.1	-32.8	25.3	0.00e+00	0	27	0	710934528	38	5602
2026-01-15 17:26:49.84	18.90	13.26	-32.1	-32.8	25.3	0.00e+00	0	27	0	716177408	38	5591
2026-01-15 17:26:50.85	18.87	13.36	-32.4	-33.0	25.1	0.00e+00	0	27	0	722468864	38	5750
2026-01-15 17:26:51.86	18.83	13.46	-32.0	-32.7	25.4	0.00e+00	0	27	0	727711744	38	5522
2026-01-15 17:26:52.86	18.80	13.56	-32.1	-32.7	25.4	0.00e+00	0	27	0	734003200	38	5539
2026-01-15 17:26:53.87	18.76	13.66	-32.0	-32.7	25.4	0.00e+00	0	27	0	739246080	38	5519
2026-01-15 17:26:54.88	18.73	13.76	-32.1	-32.8	25.3	0.00e+00	0	27	0	744488960	38	5587
2026-01-15 17:26:55.89	18.69	13.86	-32.1	-32.8	25.4	0.00e+00	0	27	0	750780416	38	5591
2026-01-15 17:26:56.90	18.65	13.96	-32.0	-32.7	25.5	0.00e+00	0	27	0	756023296	38	5505
2026-01-15 17:26:57.91	18.62	14.06	-31.9	-32.6	25.6	0.00e+00	0	27	0	762314752	38	5469
2026-01-15 17:26:58.92	18.58	14.17	-31.9	-32.6	25.6	0.00e+00	0	27	0	767557632	38	5440
2026-01-15 17:26:59.94	18.54	14.27	-32.0	-32.7	25.4	0.00e+00	0	27	0	772800512	38	5503
2026-01-15 17:27:00.95	18.50	14.37	-31.8	-32.5	25.6	0.00e+00	0	27	0	779091968	38	5381
2026-01-15 17:27:01.96	18.47	14.48	-31.9	-32.6	25.5	0.00e+00	0	27	0	784334848	38	5465
2026-01-15 17:27:02.97	18.43	14.58	-31.8	-32.4	25.7	0.00e+00	0	27	0	790626304	38	5361
2026-01-15 17:27:03.98	18.39	14.68	-31.8	-32.5	25.7	0.00e+00	0	27	0	795869184	36	6050
2026-01-15 17:27:04.98	18.35	14.79	-31.7	-32.4	25.7	0.00e+00	0	27	0	802160640	36	6009
2026-01-15 17:27:05.99	18.31	14.89	-31.8	-32.5	25.6	0.00e+00	0	27	0	807403520	36	6040
2026-01-15 17:27:07.01	18.27	15.00	-31.8	-32.5	25.7	0.00e+00	0	27	0	813694976	36	6043
2026-01-15 17:27:08.02	18.23	15.10	-31.6	-32.2	25.9	0.00e+00	0	27	0	818937856	36	5891
2026-01-15 17:27:09.03	18.19	15.21	-31.7	-32.4	25.7	0.00e+00	0	27	0	824180736	36	5967
2026-01-15 17:27:10.04	18.15	15.32	-31.7	-32.3	25.8	0.00e+00	0	27	0	830472192	36	5927
2026-01-15 17:27:11.04	18.11	15.42	-31.6	-32.2	25.9	0.00e+00	0	27	0	835715072	36	5878
2026-01-15 17:27:12.05	18.07	15.53	-31.4	-32.0	26.0	0.00e+00	0	27	0	840957952	36	5758
2026-01-15 17:27:13.06	18.03	15.64	-31.4	-32.0	25.9	0.00e+00	0	27	0	847249408	36	5737
2026-01-15 17:27:14.07	17.99	15.75	-31.6	-32.2	25.9	0.00e+00	0	27	0	852492288	36	5880
2026-01-15 17:27:15.08	17.95	15.86	-31.3	-32.0	26.0	0.00e+00	0	27	0	858783744	36	5736
2026-01-15 17:27:16.09	17.90	15.96	-31.2	-31.9	26.2	0.00e+00	0	27	0	864026624	36	5664
2026-01-15 17:27:17.10	17.86	16.07	-31.2	-31.8	26.3	0.00e+00	0	27	0	869269504	36	5599
2026-01-15 17:27:18.11	17.82	16.18	-31.2	-31.8	26.2	0.00e+00	0	27	0	875560960	36	5599
2026-01-15 17:27:19.12	17.77	16.30	-31.2	-31.9	26.2	0.00e+00	0	27	0	880803840	36	5645
2026-01-15 17:27:20.12	17.73	16.41	-31.1	-31.7	26.4	0.00e+00	0	27	0	887095296	36	5523
2026-01-15 17:27:21.14	17.69	16.52	-31.2	-31.8	26.3	0.00e+00	0	27	0	892338176	36	5622
2026-01-15 17:27:22.15	17.64	16.63	-31.0	-31.6	26.4	0.00e+00	0	27	0	898629632	36	5500
2026-01-15 17:27:23.15	17.60	16.74	-31.1	-31.7	26.3	0.00e+00	0	27	0	903872512	36	5510
2026-01-15 17:27:24.16	17.55	16.86	-31.0	-31.7	26.4	0.00e+00	0	27	0	910163968	36	5527
2026-01-15 17:27:25.17	17.51	16.97	-31.0	-31.6	26.4	0.00e+00	0	27	0	915406848	36	5478
2026-01-15 17:27:26.18	17.46	17.08	-31.1	-31.7	26.3	0.00e+00	0	27	0	920649728	36	5539
2026-01-15 17:27:27.19	17.41	17.20	-31.1	-31.8	26.3	0.00e+00	0	27	0	926941184	36	5577
2026-01-15 17:27:28.20	17.37	17.31	-31.2	-31.8	26.4	0.00e+00	0	27	0	932184064	36	5585
2026-01-15 17:27:29.21	17.32	17.43	-30.9	-31.5	26.6	0.00e+00	0	27	0	938475520	36	5419
2026-01-15 17:27:30.22	17.27	17.55	-30.9	-31.5	26.6	0.00e+00	0	27	0	943718400	36	5422
2026-01-15 17:27:31.23	17.23	17.66	-30.8	-31.5	26.6	0.00e+00	0	27	0	948961280	36	5383
2026-01-15 17:27:32.24	17.18	17.78	-30.8	-31.5	26.7	0.00e+00	0	27	0	955252736	36	5379
2026-01-15 17:27:33.25	17.13	17.90	-30.7	-31.3	26.7	0.00e+00	0	27	0	960495616	34	5938
2026-01-15 17:27:34.26	17.08	18.02	-30.6	-31.3	26.7	0.00e+00	0	27	0	966787072	34	5899
2026-01-15 17:27:35.26	17.03	18.14	-30.6	-31.2	26.8	0.00e+00	0	27	0	972029952	34	5894
2026-01-15 17:27:36.28	16.98	18.26	-30.5	-31.1	26.9	0.00e+00	0	27	0	977272832	34	5798
2026-01-15 17:27:37.28	16.93	18.38	-30.6	-31.2	26.9	0.00e+00	0	27	0	983564288	34	5848
2026-01-15 17:27:38.29	16.88	18.50	-30.5	-31.1	26.8	0.00e+00	0	27	0	988807168	34	5791
2026-01-15 17:27:39.30	16.83	18.62	-30.5	-31.1	26.8	0.00e+00	0	27	0	995098624	34	5803
2026-01-15 17:27:40.31	16.78	18.74	-30.3	-30.9	27.0	0.00e+00	0	27	0	1000341504	34	5680
2026-01-15 17:27:41.32	16.72	18.86	-30.3	-31.0	27.0	0.00e+00	0	27	0	1006632960	34	5708
2026-01-15 17:27:42.33	16.67	18.99	-30.3	-30.9	27.1	0.00e+00	0	27	0	1011875840	34	5690
2026-01-15 17:27:43.34	16.62	19.11	-30.3	-30.9	27.0	0.00e+00	0	27	0	1017118720	34	5651
2026-01-15 17:27:44.35	16.56	19.23	-30.4	-31.0	27.0	0.00e+00	0	27	0	1023410176	34	5714
2026-01-15 17:27:45.36	16.51	19.36	-30.3	-31.0	27.0	0.00e+00	0	27	0	1028653056	34	5733
2026-01-15 17:27:46.36	16.46	19.48	-30.3	-30.9	27.1	0.00e+00	0	27	0	1034944512	34	5674
2026-01-15 17:27:47.37	16.40	19.61	-30.4	-31.0	27.0	0.00e+00	0	27	0	1040187392	34	5749
2026-01-15 17:27:48.38	16.35	19.74	-30.2	-30.9	27.1	0.00e+00	0	27	0	1045430272	34	5641
2026-01-15 17:27:49.40	16.29	19.87	-30.3	-30.9	27.0	0.00e+00	0	27	0	1051721728	34	5687
2026-01-15 17:27:50.40	16.23	19.99	-30.2	-30.8	27.1	0.00e+00	0	27	0	1056964608	34	5612
2026-01-15 17:27:51.41	16.18	20.12	-30.4	-31.1	27.0	0.00e+00	0	27	0	1063256064	34	5770
2026-01-15 17:27:52.42	16.12	20.25	-30.2	-30.8	27.2	0.00e+00	0	27	0	1068498944	34	5603
2026-01-15 17:27:53.43	16.06	20.38	-30.2	-30.8	27.2	0.00e+00	0	27	0	1073741824	34	5598
2026-01-15 17:27:54.44	16.00	20.51	-30.2	-30.8	27.2	0.00e+00	0	27	0	1080033280	34	5613
2026-01-15 17:27:55.45	15.94	20.64	-30.1	-30.8	27.3	0.00e+00	0	27	0	1085276160	34	5567
2026-01-15 17:27:56.46	15.88	20.77	-30.2	-30.8	27.2	0.00e+00	0	27	0	1091567616	34	5611
2026-01-15 17:27:57.48	15.82	20.91	-30.0	-30.6	27.3	0.00e+00	0	27	0	1096810496	34	5492
2026-01-15 17:27:58.49	15.76	21.04	-30.0	-30.6	27.3	0.00e+00	0	27	0	1103101952	34	5476
2026-01-15 17:27:59.50	15.70	21.17	-30.1	-30.7	27.2	0.00e+00	0	27	0	1108344832	34	5548
2026-01-15 17:28:00.51	15.64	21.31	-30.0	-30.6	27.4	0.00e+00	0	27	0	1114636288	34	5483
2026-01-15 17:28:01.52	15.58	21.44	-30.1	-30.7	27.3	0.00e+00	0	27	0	1119879168	34	5565
2026-01-15 17:28:02.53	15.51	21.58	-29.9	-30.6	27.4	0.00e+00	0	27	0	1125122048	34	5443
2026-01-15 17:28:03.54	15.45	21.72	-29.8	-30.4	27.5	0.00e+00	0	27	0	1131413504	34	5331
2026-01-15 17:28:04.55	15.39	21.85	-29.8	-30.4	27.4	0.00e+00	0	27	0	1136656384	34	5375
2026-01-15 17:28:05.56	15.32	21.99	-29.8	-30.4	27.5	0.00e+00	0	27	0	1142947840	34	5328
2026-01-15 17:28:06.57	15.26	22.13	-29.7	-30.3	27.6	0.00e+00	0	27	0	1148190720	32	5939
2026-01-15 17:28:07.58	15.19	22.27	-29.8	-30.4	27.5	0.00e+00	0	27	0	1153433600	32	5990
2026-01-15 17:28:08.59	15.12	22.41	-29.7	-30.3	27.6	0.00e+00	0	27	0	1159725056	32	5941
2026-01-15 17:28:09.60	15.06	22.55	-29.7	-30.3	27.6	0.00e+00	0	27	0	1164967936	32	5932
2026-01-15 17:28:10.61	14.99	22.69	-29.8	-30.4	27.5	0.00e+00	0	27	0	1171259392	32	5985
2026-01-15 17:28:11.62	14.92	22.84	-29.8	-30.4	27.6	0.00e+00	0	27	0	1176502272	32	5996
2026-01-15 17:28:12.63	14.85	22.98	-29.9	-30.5	27.5	0.00e+00	0	27	0	1181745152	32	6057
2026-01-15 17:28:13.64	14.78	23.12	-29.7	-30.4	27.6	0.00e+00	0	27	0	1188036608	32	5985
2026-01-15 17:28:14.65	14.71	23.27	-29.8	-30.4	27.5	0.00e+00	0	27	0	1193279488	32	6025
2026-01-15 17:28:15.66	14.64	23.41	-29.8	-30.5	27.5	0.00e+00	0	27	0	1199570944	32	6036
2026-01-15 17:28:16.67	14.57	23.56	-29.9	-30.5	27.5	0.00e+00	0	27	0	1204813824	32	6081
2026-01-15 17:28:17.68	14.49	23.71	-29.9	-30.5	27.5	0.00e+00	0	27	0	1211105280	32	6054
2026-01-15 17:28:18.69	14.42	23.85	-29.8	-30.4	27.6	0.00e+00	0	27	0	1216348160	32	5981
2026-01-15 17:28:19.70	14.35	24.00	-29.8	-30.5	27.5	0.00e+00	0	27	0	1221591040	32	6042
2026-01-15 17:28:20.71	14.27	24.15	-29.7	-30.3	27.6	0.00e+00	0	27	0	1227882496	32	5959
2026-01-15 17:28:21.72	14.20	24.30	-29.7	-30.4	27.7	0.00e+00	0	27	0	1233125376	32	5969
2026-01-15 17:28:22.73	14.12	24.45	-29.6	-30.2	27.7	0.00e+00	0	27	0	1239416832	32	5876
2026-01-15 17:28:23.74	14.04	24.60	-29.6	-30.2	27.7	0.00e+00	0	27	0	1244659712	32	5892
2026-01-15 17:28:24.75	13.96	24.76	-29.7	-30.2	27.7	0.00e+00	0	27	0	1249902592	32	5874
2026-01-15 17:28:25.76	13.89	24.91	-29.5	-30.1	27.8	0.00e+00	0	27	0	1256194048	32	5776
2026-01-15 17:28:26.77	13.81	25.06	-29.5	-30.1	27.8	0.00e+00	0	27	0	1261436928	32	5796
2026-01-15 17:28:27.78	13.73	25.22	-29.4	-30.0	27.9	0.00e+00	0	27	0	1267728384	32	5757
2026-01-15 17:28:28.79	13.64	25.38	-29.4	-30.0	27.9	0.00e+00	0	27	0	1272971264	32	5746
2026-01-15 17:28:29.80	13.56	25.53	-29.3	-30.0	27.9	0.00e+00	0	27	0	1278214144	32	5697
2026-01-15 17:28:30.81	13.48	25.69	-29.3	-30.0	27.8	0.00e+00	0	27	0	1284505600	32	5703
2026-01-15 17:28:31.82	13.40	25.85	-29.2	-29.9	28.1	0.00e+00	0	27	0	1289748480	32	5639
2026-01-15 17:28:32.83	13.31	26.01	-29.1	-29.7	28.1	0.00e+00	0	27	0	1296039936	32	5544
2026-01-15 17:28:33.84	13.23	26.17	-29.1	-29.8	28.1	0.00e+00	0	27	0	1301282816	32	5569
2026-01-15 17:28:34.85	13.14	26.33	-29.2	-29.8	28.1	0.00e+00	0	27	0	1307574272	32	5585
2026-01-15 17:28:35.86	13.05	26.49	-29.2	-29.8	28.1	0.00e+00	0	27	0	1312817152	32	5589
2026-01-15 17:28:36.87	12.96	26.65	-29.2	-29.8	28.0	0.00e+00	0	27	0	1319108608	32	5622
2026-01-15 17:28:37.88	12.87	26.82	-29.3	-29.9	28.0	0.00e+00	0	27	0	1324351488	32	5678
2026-01-15 17:28:38.89	12.78	26.98	-29.3	-30.0	28.0	0.00e+00	0	27	0	1329594368	32	5701
2026-01-15 17:28:39.90	12.69	27.15	-29.5	-30.1	27.9	0.00e+00	0	27	0	1335885824	32	5789
2026-01-15 17:28:40.90	12.60	27.31	-29.6	-30.3	27.8	0.00e+00	0	27	0	1341128704	32	5914
2026-01-15 17:28:41.91	12.51	27.48	-29.5	-30.2	27.8	0.00e+00	0	27	0	1347420160	32	5841
2026-01-15 17:28:42.92	12.41	27.65	-29.5	-30.1	27.8	0.00e+00	0	27	0	1352663040	32	5812
2026-01-15 17:28:43.94	12.32	27.82	-29.3	-30.0	27.9	0.00e+00	0	27	0	1357905920	32	5711
2026-01-15 17:28:44.94	12.22	27.99	-29.3	-30.0	27.9	0.00e+00	0	27	0	1364197376	32	5699
2026-01-15 17:28:45.95	12.12	28.16	-29.2	-29.8	28.1	0.00e+00	0	27	0	1369440256	32	5569
2026-01-15 17:28:46.96	12.03	28.33	-29.2	-29.8	28.1	0.00e+00	0	27	0	1375731712	32	5628
2026-01-15 17:28:47.97	11.93	28.51	-29.1	-29.7	28.1	0.00e+00	0	27	0	1380974592	32	5508
2026-01-15 17:28:48.98	11.82	28.68	-29.1	-29.8	28.1	0.00e+00	0	27	0	1386217472	32	5567
2026-01-15 17:28:49.98	11.72	28.86	-29.1	-29.7	28.2	0.00e+00	0	27	0	1392508928	32	5513
2026-01-15 17:28:50.99	11.62	29.03	-29.1	-29.7	28.1	0.00e+00	0	27	0	1397751808	32	5523
2026-01-15 17:28:52.00	11.52	29.21	-29.1	-29.7	28.3	0.00e+00	0	27	0	1404043264	32	5541
2026-01-15 17:28:53.01	11.41	29.39	-29.2	-29.8	28.1	0.00e+00	0	27	0	1409286144	32	5611
2026-01-15 17:28:54.02	11.30	29.57	-29.1	-29.7	28.2	0.00e+00	0	27	0	1415577600	32	5524
2026-01-15 17:28:55.03	11.20	29.75	-29.1	-29.8	28.0	0.00e+00	0	27	0	1420820480	32	5575
2026-01-15 17:28:56.04	11.09	29.93	-29.2	-29.8	28.2	0.00e+00	0	27	0	1426063360	32	5592
2026-01-15 17:28:57.05	10.98	30.11	-29.4	-30.0	28.0	0.00e+00	0	27	0	1432354816	32	5699
2026-01-15 17:28:58.06	10.86	30.29	-29.3	-30.0	28.1	0.00e+00	0	27	0	1437597696	32	5700
2026-01-15 17:28:59.07	10.75	30.48	-29.3	-29.9	28.0	0.00e+00	0	27	0	1443889152	32	5668
2026-01-15 17:29:00.07	10.64	30.66	-29.4	-30.0	28.0	0.00e+00	0	27	0	1449132032	32	5750
2026-01-15 17:29:01.06	10.52	30.85	-29.2	-29.8	28.1	0.00e+00	0	27	0	1454374912	32	5600
2026-01-15 17:29:02.07	10.41	31.03	-29.1	-29.8	28.2	0.00e+00	0	27	0	1460666368	32	5575
2026-01-15 17:29:03.08	10.29	31.22	-28.9	-29.6	28.3	0.00e+00	0	27	0	1465909248	32	5441
2026-01-15 17:29:04.09	10.17	31.41	-28.9	-29.5	28.4	0.00e+00	0	27	0	1471152128	32	5417
2026-01-15 17:29:05.09	10.05	31.60	-28.9	-29.5	28.3	0.00e+00	0	27	0	1477443584	32	5391
2026-01-15 17:29:06.11	9.92	31.80	-28.7	-29.3	28.5	0.00e+00	0	27	0	1482686464	30	5955
2026-01-15 17:29:07.11	9.80	31.99	-28.7	-29.3	28.5	0.00e+00	0	27	0	1488977920	30	5910
2026-01-15 17:29:08.12	9.67	32.18	-28.8	-29.5	28.4	0.00e+00	0	27	0	1494220800	30	6037
2026-01-15 17:29:09.13	9.55	32.38	-28.8	-29.4	28.4	0.00e+00	0	27	0	1500512256	30	6025
2026-01-15 17:29:10.14	9.42	32.57	-28.9	-29.5	28.4	0.00e+00	0	27	0	1505755136	30	6087
2026-01-15 17:29:11.15	9.29	32.77	-28.9	-29.5	28.4	0.00e+00	0	27	0	1510998016	30	6048
2026-01-15 17:29:12.16	9.15	32.97	-28.6	-29.2	28.6	0.00e+00	0	27	0	1517289472	30	5859
2026-01-15 17:29:13.17	9.02	33.17	-28.5	-29.1	28.6	0.00e+00	0	27	0	1522532352	30	5814
2026-01-15 17:29:14.18	8.88	33.37	-28.5	-29.1	28.6	0.00e+00	0	27	0	1528823808	30	5815
2026-01-15 17:29:15.18	8.75	33.57	-28.5	-29.2	28.5	0.00e+00	0	27	0	1534066688	30	5837
2026-01-15 17:29:16.19	8.61	33.77	-28.6	-29.2	28.6	0.00e+00	0	27	0	1539309568	30	5851
2026-01-15 17:29:17.20	8.47	33.98	-28.7	-29.3	28.4	0.00e+00	0	27	0	1545601024	30	5946
2026-01-15 17:29:18.21	8.32	34.18	-28.7	-29.2	28.5	0.00e+00	0	27	0	1550843904	30	5885
2026-01-15 17:29:19.22	8.18	34.39	-28.7	-29.3	28.5	0.00e+00	0	27	0	1557135360	30	5912
2026-01-15 17:29:20.23	8.03	34.60	-28.7	-29.3	28.5	0.00e+00	0	27	0	1562378240	30	5921
2026-01-15 17:29:21.24	7.88	34.81	-28.7	-29.3	28.5	0.00e+00	0	27	0	1567621120	30	5957
2026-01-15 17:29:22.25	7.73	35.02	-28.7	-29.3	28.4	0.00e+00	0	27	0	1573912576	30	5949
2026-01-15 17:29:23.26	7.58	35.23	-28.7	-29.3	28.4	0.00e+00	0	27	0	1579155456	30	5947
2026-01-15 17:29:24.26	7.43	35.44	-28.5	-29.1	28.7	0.00e+00	0	27	0	1585446912	30	5797
2026-01-15 17:29:25.27	7.27	35.66	-28.5	-29.1	28.6	0.00e+00	0	27	0	1590689792	30	5812
2026-01-15 17:29:26.28	7.11	35.87	-28.4	-29.0	28.6	0.00e+00	0	27	0	1596981248	30	5744
2026-01-15 17:29:27.29	6.95	36.09	-28.3	-28.9	28.7	0.00e+00	0	27	0	1602224128	30	5689
2026-01-15 17:29:28.30	6.79	36.30	-28.3	-29.0	28.8	0.00e+00	0	27	0	1607467008	30	5698
2026-01-15 17:29:29.31	6.62	36.52	-28.4	-29.0	28.7	0.00e+00	0	27	0	1613758464	30	5724
2026-01-15 17:29:30.32	6.45	36.74	-28.5	-29.1	28.7	0.00e+00	0	27	0	1619001344	30	5783
2026-01-15 17:29:31.33	6.28	36.96	-28.6	-29.2	28.6	0.00e+00	0	27	0	1625292800	30	5879
2026-01-15 17:29:32.34	6.11	37.19	-28.5	-29.1	28.7	0.00e+00	0	27	0	1630535680	30	5809
2026-01-15 17:29:33.35	5.94	37.41	-28.6	-29.2	28.6	0.00e+00	0	27	0	1635778560	30	5871
2026-01-15 17:29:34.36	5.76	37.63	-28.6	-29.2	28.6	0.00e+00	0	27	0	1642070016	30	5883
2026-01-15 17:29:35.37	5.58	37.86	-28.7	-29.4	28.4	0.00e+00	0	27	0	1647312896	30	5976
2026-01-15 17:29:36.38	5.40	38.09	-28.8	-29.4	28.3	0.00e+00	0	27	0	1653604352	30	5976
2026-01-15 17:29:37.38	5.21	38.31	-28.7	-29.3	28.4	0.00e+00	0	27	0	1658847232	30	5941
2026-01-15 17:29:38.39	5.03	38.54	-28.7	-29.3	28.5	0.00e+00	0	27	0	1665138688	30	5924
2026-01-15 17:29:39.40	4.83	38.77	-28.8	-29.4	28.4	0.00e+00	0	27	0	1670381568	30	5973
2026-01-15 17:29:40.41	4.64	39.01	-28.7	-29.3	28.3	0.00e+00	0	27	0	1675624448	30	5917
2026-01-15 17:29:41.42	4.45	39.24	-28.8	-29.4	28.4	0.00e+00	0	27	0	1681915904	30	5999
2026-01-15 17:29:42.43	4.25	39.47	-28.5	-29.1	28.6	0.00e+00	0	27	0	1687158784	30	5812
2026-01-15 17:29:43.44	4.04	39.71	-28.5	-29.0	28.6	0.00e+00	0	27	0	1693450240	30	5758
2026-01-15 17:29:44.45	3.84	39.94	-28.5	-29.0	28.8	0.00e+00	0	27	0	1698693120	30	5752
2026-01-15 17:29:45.46	3.63	40.18	-28.5	-29.1	28.7	0.00e+00	0	27	0	1704984576	30	5768
2026-01-15 17:29:46.47	3.42	40.42	-28.6	-29.2	28.6	0.00e+00	0	27	0	1710227456	30	5855
2026-01-15 17:29:47.48	3.21	40.66	-28.8	-29.4	28.3	0.00e+00	0	27	0	1715470336	30	6026
2026-01-15 17:29:48.49	2.99	40.90	-29.0	-29.6	28.3	0.00e+00	0	27	0	1721761792	30	6124
2026-01-15 17:29:49.50	2.77	41.15	-29.1	-29.6	28.2	0.00e+00	0	27	0	1727004672	30	6170
2026-01-15 17:29:50.51	2.54	41.39	-28.9	-29.5	28.4	0.00e+00	0	27	0	1733296128	30	6040
2026-01-15 17:29:51.52	2.31	41.63	-28.9	-29.5	28.2	0.00e+00	0	27	0	1738539008	30	6103
2026-01-15 17:29:52.53	2.08	41.88	-29.0	-29.6	28.3	0.00e+00	0	27	0	1743781888	30	6112
2026-01-15 17:29:53.54	1.85	42.13	-29.1	-29.7	28.1	0.00e+00	0	27	0	1750073344	30	6216
2026-01-15 17:29:54.55	1.61	42.37	-29.2	-29.8	28.2	0.00e+00	0	27	0	1755316224	30	6273
2026-01-15 17:29:55.56	1.37	42.62	-29.2	-29.8	28.1	0.00e+00	0	27	0	1761607680	30	6286
2026-01-15 17:29:56.56	1.12	42.87	-29.2	-29.8	28.0	0.00e+00	0	27	0	1766850560	30	6289
2026-01-15 17:29:57.57	0.87	43.12	-29.2	-29.8	28.0	0.00e+00	0	27	0	1773142016	30	6301
2026-01-15 17:29:58.58	0.62	43.37	-29.3	-29.9	28.0	0.00e+00	0	27	0	1778384896	30	6389
2026-01-15 17:29:59.59	0.36	43.63	-29.4	-30.0	28.1	0.00e+00	0	27	0	1783627776	30	6400
2026-01-15 17:30:00.60	0.10	43.88	-29.4	-30.1	27.9	0.00e+00	0	27	0	1789919232	30	6476
2026-01-15 17:30:01.61	359.83	44.14	-29.3	-29.9	28.0	0.00e+00	0	27	0	1795162112	30	6360
2026-01-15 17:30:02.62	359.56	44.39	-29.5	-30.1	28.0	0.00e+00	0	27	0	1801453568	30	6498
2026-01-15 17:30:03.63	359.28	44.65	-29.4	-30.0	27.9	0.00e+00	0	27	0	1806696448	30	6450
2026-01-15 17:30:04.64	359.00	44.91	-29.5	-30.1	27.9	0.00e+00	0	27	0	1811939328	30	6480
2026-01-15 17:30:05.65	358.72	45.17	-29.1	-29.7	28.2	0.00e+00	0	27	0	1818230784	30	6214
2026-01-15 17:30:06.66	358.43	45.43	-29.0	-29.6	28.2	0.00e+00	0	27	0	1823473664	30	6156
2026-01-15 17:30:07.67	358.13	45.69	-29.1	-29.7	28.2	0.00e+00	0	27	0	1829765120	30	6195
2026-01-15 17:30:08.68	357.83	45.95	-29.2	-29.8	28.0	0.00e+00	0	27	0	1835008000	30	6305
2026-01-15 17:30:09.69	357.53	46.21	-29.2	-29.8	28.0	0.00e+00	0	27	0	1840250880	30	6278
2026-01-15 17:30:10.70	357.22	46.48	-29.4	-30.0	27.9	0.00e+00	0	27	0	1846542336	30	6430
2026-01-15 17:30:11.71	356.90	46.74	-29.5	-30.1	27.9	0.00e+00	0	27	0	1851785216	30	6491
2026-01-15 17:30:12.72	356.58	47.00	-29.4	-30.0	28.0	0.00e+00	0	27	0	1858076672	30	6436
2026-01-15 17:30:13.73	356.26	47.27	-29.2	-29.8	28.2	0.00e+00	0	27	0	1863319552	30	6315
2026-01-15 17:30:14.73	355.93	47.53	-29.2	-29.8	28.2	0.00e+00	0	27	0	1869611008	30	6313
2026-01-15 17:30:15.74	355.59	47.80	-29.4	-30.0	27.9	0.00e+00	0	27	0	1874853888	30	6437
2026-01-15 17:30:16.75	355.25	48.07	-29.7	-30.3	27.8	0.00e+00	0	27	0	1880096768	30	6630
2026-01-15 17:30:17.76	354.90	48.33	-29.8	-30.5	27.6	0.00e+00	0	27	0	1886388224	32	6036
2026-01-15 17:30:18.78	354.54	48.61	-29.8	-30.4	27.6	0.00e+00	0	27	0	1891631104	32	6014
2026-01-15 17:30:19.78	354.18	48.87	-29.7	-30.3	27.8	0.00e+00	0	27	0	1897922560	32	5925
2026-01-15 17:30:20.79	353.81	49.14	-29.4	-30.0	27.9	0.00e+00	0	27	0	1903165440	32	5721
2026-01-15 17:30:21.80	353.44	49.41	-29.7	-30.3	27.7	0.00e+00	0	27	0	1908408320	32	5930
2026-01-15 17:30:22.81	353.06	49.68	-30.3	-31.0	27.3	0.00e+00	0	27	0	1914699776	32	6431
2026-01-15 17:30:23.82	352.67	49.95	-30.6	-31.3	27.0	0.00e+00	0	27	0	1919942656	32	6622
2026-01-15 17:30:24.83	352.27	50.22	-30.4	-31.0	27.2	0.00e+00	0	27	0	1926234112	32	6461
2026-01-15 17:30:25.84	351.87	50.49	-30.2	-30.8	27.3	0.00e+00	0	27	0	1931476992	32	6300
2026-01-15 17:30:26.85	351.46	50.76	-30.2	-30.9	27.3	0.00e+00	0	27	0	1936719872	32	6340
2026-01-15 17:30:27.86	351.04	51.03	-30.2	-30.8	27.4	0.00e+00	0	27	0	1943011328	32	6284
2026-01-15 17:30:28.87	350.62	51.30	-30.4	-31.0	27.2	0.00e+00	0	27	0	1948254208	32	6442
2026-01-15 17:30:29.88	350.18	51.57	-30.1	-30.7	27.4	0.00e+00	0	27	0	1954545664	32	6231
2026-01-15 17:30:30.89	349.74	51.84	-30.1	-30.7	27.2	0.00e+00	0	27	0	1959788544	32	6202
2026-01-15 17:30:31.89	349.30	52.10	-29.9	-30.5	27.5	0.00e+00	0	27	0	1966080000	32	6059
2026-01-15 17:30:32.90	348.84	52.37	-29.8	-30.4	27.5	0.00e+00	0	27	0	1971322880	32	6009
2026-01-15 17:30:33.91	348.38	52.64	-29.9	-30.5	27.5	0.00e+00	0	27	0	1976565760	32	6084
2026-01-15 17:30:34.92	347.90	52.91	-30.1	-30.7	27.2	0.00e+00	0	27	0	1982857216	32	6230
2026-01-15 17:30:35.93	347.42	53.18	-30.3	-30.9	27.2	0.00e+00	0	27	0	1988100096	32	6326
2026-01-15 17:30:36.94	346.93	53.44	-30.6	-31.2	27.1	0.00e+00	0	27	0	1994391552	32	6551
2026-01-15 17:30:37.95	346.42	53.71	-30.5	-31.1	27.2	0.00e+00	0	27	0	1999634432	32	6507
2026-01-15 17:30:38.96	345.91	53.97	-30.5	-31.2	27.1	0.00e+00	0	27	0	2005925888	32	6567
2026-01-15 17:30:39.97	345.39	54.24	-30.1	-30.7	27.5	0.00e+00	0	27	0	2011168768	32	6220
2026-01-15 17:30:40.98	344.86	54.50	-29.7	-30.3	27.7	0.00e+00	0	27	0	2016411648	32	5959
2026-01-15 17:30:41.99	344.32	54.76	-29.6	-30.3	27.7	0.00e+00	0	27	0	2022703104	32	5903
2026-01-15 17:30:43.00	343.77	55.02	-29.7	-30.3	27.8	0.00e+00	0	27	0	2027945984	32	5931
2026-01-15 17:30:44.01	343.21	55.28	-29.6	-30.2	27.8	0.00e+00	0	27	0	2034237440	32	5871
2026-01-15 17:30:45.02	342.64	55.54	-29.5	-30.2	27.8	0.00e+00	0	27	0	2039480320	32	5834
2026-01-15 17:30:46.03	342.06	55.79	-29.4	-30.0	28.0	0.00e+00	0	27	0	2044723200	32	5737
2026-01-15 17:30:47.04	341.47	56.05	-29.7	-30.3	27.7	0.00e+00	0	27	0	2051014656	32	5928
2026-01-15 17:30:48.05	340.87	56.30	-29.8	-30.5	27.6	0.00e+00	0	27	0	2056257536	32	6047
2026-01-15 17:30:49.06	340.25	56.55	-29.9	-30.5	27.5	0.00e+00	0	27	0	2062548992	32	6090
2026-01-15 17:30:50.07	339.63	56.80	-30.0	-30.6	27.4	0.00e+00	0	27	0	2067791872	32	6159
2026-01-15 17:30:51.08	338.99	57.04	-30.2	-30.9	27.2	0.00e+00	0	27	0	2073034752	32	6337
2026-01-15 17:30:52.09	338.34	57.29	-30.2	-30.8	27.4	0.00e+00	0	27	0	2079326208	32	6263
2026-01-15 17:30:53.10	337.68	57.53	-30.3	-30.9	27.3	0.00e+00	0	27	0	2084569088	32	6387
2026-01-15 17:30:54.11	337.01	57.77	-30.0	-30.7	27.5	0.00e+00	0	27	0	2090860544	32	6193
2026-01-15 17:30:55.12	336.33	58.00	-29.9	-30.5	27.6	0.00e+00	0	27	0	2096103424	32	6060
2026-01-15 17:30:56.13	335.63	58.23	-29.8	-30.4	27.6	0.00e+00	0	27	0	2102394880	32	6032
2026-01-15 17:30:57.14	334.92	58.46	-30.3	-31.0	27.3	0.00e+00	0	27	0	2107637760	32	6415
2026-01-15 17:30:58.15	334.20	58.69	-30.2	-30.8	27.4	0.00e+00	0	27	0	2112880640	32	6280
2026-01-15 17:30:59.16	333.47	58.91	-30.1	-30.7	27.4	0.00e+00	0	27	0	2119172096	32	6223
2026-01-15 17:31:00.16	332.73	59.13	-29.9	-30.5	27.6	0.00e+00	0	27	0	2124414976	32	6066
2026-01-15 17:31:01.17	331.98	59.34	-29.9	-30.5	27.6	0.00e+00	0	27	0	2130706432	32	6075
2026-01-15 17:31:02.18	331.21	59.55	-29.8	-30.4	27.6	0.00e+00	0	27	0	2135949312	32	6029
2026-01-15 17:31:03.19	330.42	59.76	-29.8	-30.4	27.7	0.00e+00	0	27	0	2141192192	32	5990
2026-01-15 17:31:04.20	329.63	59.96	-29.8	-30.4	27.7	0.00e+00	0	27	0	2147483648	32	5983
2026-01-15 17:31:05.21	328.82	60.16	-29.6	-30.2	27.8	0.00e+00	0	27	0	2152726528	32	5866
2026-01-15 17:31:06.22	328.00	60.36	-29.8	-30.5	27.6	0.00e+00	0	27	0	2159017984	32	6045
2026-01-15 17:31:07.23	327.17	60.54	-29.5	-30.1	27.8	0.00e+00	0	27	0	2164260864	32	5812
2026-01-15 17:31:08.24	326.33	60.73	-29.3	-29.9	28.0	0.00e+00	0	27	0	2170552320	32	5670
2026-01-15 17:31:09.25	325.47	60.91	-29.4	-30.0	28.0	0.00e+00	0	27	0	2175795200	32	5741
2026-01-15 17:31:10.26	324.60	61.08	-29.4	-30.0	27.9	0.00e+00	0	27	0	2181038080	32	5719
2026-01-15 17:31:11.27	323.72	61.25	-29.4	-30.0	27.9	0.00e+00	0	27	0	2187329536	32	5737
2026-01-15 17:31:12.28	322.82	61.41	-29.2	-29.8	28.1	0.00e+00	0	27	0	2192572416	32	5568
2026-01-15 17:31:13.28	321.93	61.57	-29.1	-29.7	28.2	0.00e+00	0	27	0	2198863872	32	5549
2026-01-15 17:31:14.29	321.01	61.72	-29.0	-29.6	28.2	0.00e+00	0	27	0	2204106752	32	5472
2026-01-15 17:31:15.30	320.09	61.86	-28.8	-29.3	28.3	0.00e+00	0	27	0	2209349632	32	5313
2026-01-15 17:31:16.31	319.15	62.00	-28.9	-29.5	28.1	0.00e+00	0	27	0	2215641088	30	6056
2026-01-15 17:31:17.32	318.20	62.13	-29.0	-29.6	28.3	0.00e+00	0	27	0	2220883968	30	6130
2026-01-15 17:31:18.33	317.24	62.26	-29.1	-29.7	28.1	0.00e+00	0	27	0	2227175424	30	6237
2026-01-15 17:31:19.34	316.27	62.38	-29.2	-29.8	28.0	0.00e+00	0	27	0	2232418304	30	6285
2026-01-15 17:31:20.35	315.30	62.49	-29.3	-29.9	27.9	0.00e+00	0	27	0	2237661184	30	6378
2026-01-15 17:31:21.36	314.31	62.60	-29.5	-30.1	27.9	0.00e+00	0	27	0	2243952640	30	6508
2026-01-15 17:31:22.37	313.31	62.70	-29.5	-30.1	27.9	0.00e+00	0	27	0	2249195520	30	6524
2026-01-15 17:31:23.38	312.31	62.79	-29.4	-30.1	27.9	0.00e+00	0	27	0	2255486976	30	6468
2026-01-15 17:31:24.39	311.30	62.87	-29.2	-29.8	28.1	0.00e+00	0	27	0	2260729856	30	6294
2026-01-15 17:31:25.39	310.29	62.95	-29.5	-30.1	27.9	0.00e+00	0	27	0	2265972736	30	6521
2026-01-15 17:31:26.40	309.27	63.01	-29.2	-29.9	28.1	0.00e+00	0	27	0	2272264192	30	6323
2026-01-15 17:31:27.41	308.24	63.08	-28.7	-29.4	28.4	0.00e+00	0	27	0	2277507072	30	5970
2026-01-15 17:31:28.42	307.21	63.13	-28.7	-29.3	28.4	0.00e+00	0	27	0	2283798528	30	5934
2026-01-15 17:31:29.43	306.17	63.17	-28.6	-29.2	28.5	0.00e+00	0	27	0	2289041408	30	5837
2026-01-15 17:31:30.44	305.13	63.21	-28.4	-29.0	28.6	0.00e+00	0	27	0	2295332864	30	5743
2026-01-15 17:31:31.45	304.08	63.24	-28.4	-28.9	28.6	0.00e+00	0	27	0	2300575744	30	5671
2026-01-15 17:31:32.46	303.04	63.26	-28.5	-29.1	28.5	0.00e+00	0	27	0	2306867200	30	5828
2026-01-15 17:31:33.47	301.99	63.28	-28.8	-29.4	28.3	0.00e+00	0	27	0	2312110080	30	5993
2026-01-15 17:31:34.48	300.94	63.28	-28.7	-29.3	28.4	0.00e+00	0	27	0	2317352960	30	5947
2026-01-15 17:31:35.49	299.89	63.28	-28.4	-28.9	28.6	0.00e+00	0	27	0	2323644416	30	5690
2026-01-15 17:31:36.50	298.84	63.27	-28.6	-29.2	28.4	0.00e+00	0	27	0	2328887296	30	5841
2026-01-15 17:31:37.51	297.79	63.25	-28.7	-29.3	28.4	0.00e+00	0	27	0	2335178752	30	5908
2026-01-15 17:31:38.52	296.74	63.23	-28.4	-29.0	28.7	0.00e+00	0	27	0	2340421632	30	5743
2026-01-15 17:31:39.53	295.70	63.20	-28.1	-28.6	28.9	0.00e+00	0	27	0	2345664512	30	5463
2026-01-15 17:31:40.54	294.66	63.15	-28.3	-28.9	28.6	0.00e+00	0	27	0	2351955968	30	5684
2026-01-15 17:31:41.55	293.62	63.10	-28.2	-28.8	28.5	0.00e+00	0	27	0	2357198848	30	5616
2026-01-15 17:31:42.56	292.59	63.05	-28.2	-28.8	28.6	0.00e+00	0	27	0	2363490304	30	5607
2026-01-15 17:31:43.57	291.56	62.98	-28.4	-28.9	28.6	0.00e+00	0	27	0	2368733184	30	5686
2026-01-15 17:31:44.57	290.55	62.91	-28.5	-29.1	28.5	0.00e+00	0	27	0	2373976064	30	5783
2026-01-15 17:31:45.58	289.54	62.83	-28.5	-29.1	28.6	0.00e+00	0	27	0	2380267520	30	5769
2026-01-15 17:31:46.59	288.53	62.74	-28.8	-29.4	28.3	0.00e+00	0	27	0	2385510400	30	6007
2026-01-15 17:31:47.60	287.53	62.65	-29.0	-29.6	28.0	0.00e+00	0	27	0	2391801856	30	6133
2026-01-15 17:31:48.61	286.54	62.55	-29.1	-29.7	28.2	0.00e+00	0	27	0	2397044736	30	6186
2026-01-15 17:31:49.61	285.57	62.44	-28.9	-29.5	28.3	0.00e+00	0	27	0	2403336192	30	6036
2026-01-15 17:31:50.62	284.59	62.32	-28.5	-29.0	28.6	0.00e+00	0	27	0	2408579072	30	5756
2026-01-15 17:31:51.63	283.63	62.20	-28.6	-29.2	28.5	0.00e+00	0	27	0	2413821952	30	5860
2026-01-15 17:31:52.64	282.68	62.07	-28.9	-29.5	28.3	0.00e+00	0	27	0	2420113408	30	6102
2026-01-15 17:31:53.65	281.73	61.94	-28.7	-29.4	28.3	0.00e+00	0	27	0	2425356288	30	5975
2026-01-15 17:31:54.66	280.80	61.80	-28.7	-29.3	28.4	0.00e+00	0	27	0	2431647744	30	5900
2026-01-15 17:31:55.67	279.87	61.65	-29.2	-29.8	28.1	0.00e+00	0	27	0	2436890624	30	6277
2026-01-15 17:31:56.68	278.96	61.49	-29.7	-30.4	27.7	0.00e+00	0	27	0	2442133504	30	6700
2026-01-15 17:31:57.69	278.06	61.33	-29.4	-29.9	28.0	0.00e+00	0	27	0	2448424960	30	6374
2026-01-15 17:31:58.70	277.17	61.17	-29.2	-29.9	28.1	0.00e+00	0	27	0	2453667840	30	6331
2026-01-15 17:31:59.71	276.30	61.00	-29.2	-29.8	28.0	0.00e+00	0	27	0	2459959296	30	6304
2026-01-15 17:32:00.72	275.43	60.82	-29.1	-29.8	28.2	0.00e+00	0	27	0	2465202176	30	6254
2026-01-15 17:32:01.72	274.59	60.64	-29.2	-29.9	28.2	0.00e+00	0	27	0	2470445056	30	6318
2026-01-15 17:32:02.73	273.75	60.45	-29.5	-30.1	27.9	0.00e+00	0	27	0	2476736512	30	6484
2026-01-15 17:32:03.74	272.92	60.26	-29.5	-30.0	27.8	0.00e+00	0	27	0	2481979392	30	6434
2026-01-15 17:32:04.75	272.11	60.07	-29.4	-29.9	28.0	0.00e+00	0	27	0	2488270848	30	6354
2026-01-15 17:32:05.76	271.30	59.87	-28.8	-29.4	28.4	0.00e+00	0	27	0	2493513728	30	5999
2026-01-15 17:32:06.77	270.51	59.66	-28.8	-29.3	28.3	0.00e+00	0	27	0	2499805184	30	5949
2026-01-15 17:32:07.78	269.74	59.45	-29.2	-29.9	28.0	0.00e+00	0	27	0	2505048064	30	6336
2026-01-15 17:32:08.78	268.98	59.24	-29.3	-30.0	27.9	0.00e+00	0	27	0	2510290944	30	6436
2026-01-15 17:32:09.79	268.23	59.02	-29.3	-29.8	27.9	0.00e+00	0	27	0	2516582400	30	6313
2026-01-15 17:32:10.80	267.49	58.80	-29.2	-29.9	27.9	0.00e+00	0	27	0	2521825280	30	6361
2026-01-15 17:32:11.81	266.76	58.58	-29.1	-29.7	28.1	0.00e+00	0	27	0	2528116736	30	6192
2026-01-15 17:32:12.82	266.04	58.35	-29.2	-29.8	28.0	0.00e+00	0	27	0	2533359616	30	6261
2026-01-15 17:32:13.83	265.34	58.12	-29.3	-29.9	27.9	0.00e+00	0	27	0	2538602496	30	6341
2026-01-15 17:32:14.84	264.65	57.89	-29.2	-29.9	28.1	0.00e+00	0	27	0	2544893952	30	6333
2026-01-15 17:32:15.85	263.97	57.65	-29.3	-29.8	28.0	0.00e+00	0	27	0	2550136832	30	6317
2026-01-15 17:32:16.86	263.30	57.41	-29.8	-30.5	27.5	0.00e+00	0	27	0	2556428288	30	6783
2026-01-15 17:32:17.87	262.65	57.17	-29.5	-30.1	27.8	0.00e+00	0	27	0	2561671168	32	5791
2026-01-15 17:32:18.88	262.01	56.92	-29.4	-29.9	28.0	0.00e+00	0	27	0	2566914048	32	5650
2026-01-15 17:32:19.89	261.37	56.67	-29.5	-30.0	27.8	0.00e+00	0	27	0	2573205504	32	5726
2026-01-15 17:32:20.90	260.75	56.42	-30.0	-30.6	27.5	0.00e+00	0	27	0	2578448384	32	6122
2026-01-15 17:32:21.91	260.14	56.17	-29.9	-30.4	27.6	0.00e+00	0	27	0	2584739840	32	6032
2026-01-15 17:32:22.92	259.54	55.92	-29.5	-30.0	27.9	0.00e+00	0	27	0	2589982720	32	5752
2026-01-15 17:32:23.93	258.96	55.66	-29.6	-30.3	27.8	0.00e+00	0	27	0	2596274176	32	5906
2026-01-15 17:32:24.94	258.38	55.41	-29.7	-30.4	27.8	0.00e+00	0	27	0	2601517056	32	5985
2026-01-15 17:32:25.95	257.81	55.15	-29.9	-30.5	27.6	0.00e+00	0	27	0	2606759936	32	6101
2026-01-15 17:32:26.96	257.26	54.89	-29.2	-29.9	28.1	0.00e+00	0	27	0	2613051392	32	5653
2026-01-15 17:32:27.97	256.71	54.63	-29.2	-29.7	28.2	0.00e+00	0	27	0	2618294272	32	5525
2026-01-15 17:32:28.97	256.18	54.37	-29.3	-29.8	28.0	0.00e+00	0	27	0	2624585728	32	5607
2026-01-15 17:32:29.98	255.65	54.10	-29.6	-30.3	27.7	0.00e+00	0	27	0	2629828608	32	5937
2026-01-15 17:32:30.99	255.14	53.84	-29.9	-30.4	27.6	0.00e+00	0	27	0	2635071488	32	6011
2026-01-15 17:32:32.00	254.63	53.57	-29.8	-30.4	27.6	0.00e+00	0	27	0	2641362944	32	6029
2026-01-15 17:32:33.01	254.13	53.30	-29.8	-30.4	27.7	0.00e+00	0	27	0	2646605824	32	5993
2026-01-15 17:32:34.02	253.64	53.04	-29.7	-30.2	27.7	0.00e+00	0	27	0	2652897280	32	5888
2026-01-15 17:32:35.03	253.16	52.77	-29.6	-30.2	27.8	0.00e+00	0	27	0	2658140160	32	5829
2026-01-15 17:32:36.04	252.69	52.50	-29.5	-30.1	27.9	0.00e+00	0	27	0	2663383040	32	5763
2026-01-15 17:32:37.05	252.23	52.23	-29.4	-30.0	27.9	0.00e+00	0	27	0	2669674496	32	5761
2026-01-15 17:32:38.06	251.77	51.96	-29.5	-30.0	27.9	0.00e+00	0	27	0	2674917376	32	5713
2026-01-15 17:32:39.07	251.33	51.69	-29.5	-30.1	27.8	0.00e+00	0	27	0	2681208832	32	5769
2026-01-15 17:32:40.08	250.89	51.42	-29.6	-30.1	27.8	0.00e+00	0	27	0	2686451712	32	5808
2026-01-15 17:32:41.09	250.46	51.15	-29.6	-30.1	27.8	0.00e+00	0	27	0	2692743168	32	5809
2026-01-15 17:32:42.10	250.04	50.88	-29.6	-30.3	27.7	0.00e+00	0	27	0	2697986048	32	5944
2026-01-15 17:32:43.10	249.63	50.61	-29.7	-30.4	27.7	0.00e+00	0	27	0	2703228928	32	5970
2026-01-15 17:32:44.11	249.22	50.34	-29.7	-30.4	27.7	0.00e+00	0	27	0	2709520384	32	5975
2026-01-15 17:32:45.12	248.82	50.07	-29.6	-30.3	27.8	0.00e+00	0	27	0	2714763264	32	5938
2026-01-15 17:32:46.13	248.43	49.80	-29.5	-30.0	27.9	0.00e+00	0	27	0	2721054720	32	5736
2026-01-15 17:32:47.14	248.04	49.53	-29.6	-30.1	27.8	0.00e+00	0	27	0	2726297600	32	5793
2026-01-15 17:32:48.15	247.66	49.26	-29.4	-29.9	28.0	0.00e+00	0	27	0	2731540480	32	5680
2026-01-15 17:32:49.17	247.28	48.98	-29.5	-30.1	27.9	0.00e+00	0	27	0	2737831936	32	5772
2026-01-15 17:32:50.17	246.92	48.72	-29.4	-30.1	27.9	0.00e+00	0	27	0	2743074816	32	5810
2026-01-15 17:32:51.18	246.56	48.45	-29.5	-30.0	27.8	0.00e+00	0	27	0	2749366272	32	5743
2026-01-15 17:32:52.19	246.21	48.18	-29.1	-29.7	27.9	0.00e+00	0	27	0	2754609152	32	5527
2026-01-15 17:32:53.20	245.86	47.91	-29.1	-29.8	27.9	0.00e+00	0	27	0	2759852032	32	5600
2026-01-15 17:32:54.21	245.52	47.64	-29.0	-29.7	28.0	0.00e+00	0	27	0	2766143488	32	5511
2026-01-15 17:32:55.22	245.19	47.38	-28.7	-29.3	28.2	0.00e+00	0	27	0	2771386368	30	5948
2026-01-15 17:32:56.23	244.86	47.11	-28.5	-29.1	28.1	0.00e+00	0	27	0	2777677824	30	5825
2026-01-15 17:32:57.24	244.53	46.84	-28.5	-29.0	28.1	0.00e+00	0	27	0	2782920704	30	5715
2026-01-15 17:32:58.25	244.21	46.58	-28.5	-29.0	28.3	0.00e+00	0	27	0	2789212160	30	5723
2026-01-15 17:32:59.26	243.90	46.32	-28.6	-29.2	28.4	0.00e+00	0	27	0	2794455040	30	5879
2026-01-15 17:33:00.27	243.59	46.05	-28.6	-29.3	28.4	0.00e+00	0	27	0	2800746496	30	5943
2026-01-15 17:33:01.27	243.29	45.79	-28.8	-29.5	28.4	0.00e+00	0	27	0	2805989376	30	6045
2026-01-15 17:33:02.28	242.99	45.53	-28.7	-29.3	28.4	0.00e+00	0	27	0	2811232256	30	5930
2026-01-15 17:33:03.29	242.70	45.27	-28.6	-29.1	28.5	0.00e+00	0	27	0	2817523712	30	5809
2026-01-15 17:33:04.30	242.41	45.01	-28.6	-29.1	28.6	0.00e+00	0	27	0	2822766592	30	5813
2026-01-15 17:33:05.31	242.13	44.75	-28.5	-29.2	28.5	0.00e+00	0	27	0	2829058048	30	5839
2026-01-15 17:33:06.32	241.85	44.49	-28.5	-29.1	28.6	0.00e+00	0	27	0	2834300928	30	5828
2026-01-15 17:33:07.33	241.58	44.23	-28.6	-29.3	28.4	0.00e+00	0	27	0	2839543808	30	5952
2026-01-15 17:33:08.34	241.31	43.98	-28.7	-29.2	28.4	0.00e+00	0	27	0	2845835264	30	5884
2026-01-15 17:33:09.35	241.04	43.72	-28.7	-29.2	28.5	0.00e+00	0	27	0	2851078144	30	5870
2026-01-15 17:33:10.36	240.78	43.46	-28.5	-29.0	28.6	0.00e+00	0	27	0	2857369600	30	5761
2026-01-15 17:33:11.37	240.52	43.21	-28.4	-28.9	28.6	0.00e+00	0	27	0	2862612480	30	5680
2026-01-15 17:33:12.38	240.27	42.96	-28.4	-29.0	28.6	0.00e+00	0	27	0	2867855360	30	5719
2026-01-15 17:33:13.39	240.02	42.71	-28.3	-29.0	28.7	0.00e+00	0	27	0	2874146816	30	5697
2026-01-15 17:33:14.40	239.78	42.46	-28.5	-29.2	28.6	0.00e+00	0	27	0	2879389696	30	5843
2026-01-15 17:33:15.41	239.54	42.21	-28.5	-29.2	28.6	0.00e+00	0	27	0	2885681152	30	5869
2026-01-15 17:33:16.42	239.30	41.96	-28.7	-29.2	28.4	0.00e+00	0	27	0	2890924032	30	5889
2026-01-15 17:33:17.43	239.06	41.71	-28.6	-29.2	28.5	0.00e+00	0	27	0	2897215488	30	5843
2026-01-15 17:33:18.44	238.83	41.47	-28.9	-29.4	28.3	0.00e+00	0	27	0	2902458368	30	6005
2026-01-15 17:33:19.45	238.61	41.22	-28.9	-29.5	28.3	0.00e+00	0	27	0	2907701248	30	6069
2026-01-15 17:33:20.46	238.38	40.98	-28.9	-29.4	28.3	0.00e+00	0	27	0	2913992704	30	6026
2026-01-15 17:33:21.47	238.16	40.73	-28.8	-29.4	28.4	0.00e+00	0	27	0	2919235584	30	5968
2026-01-15 17:33:22.48	237.95	40.49	-28.6	-29.3	28.6	0.00e+00	0	27	0	2925527040	30	5928
2026-01-15 17:33:23.49	237.73	40.25	-28.5	-29.1	28.7	0.00e+00	0	27	0	2930769920	30	5815
2026-01-15 17:33:24.50	237.52	40.01	-28.5	-29.0	28.7	0.00e+00	0	27	0	2936012800	30	5715
2026-01-15 17:33:25.51	237.32	39.77	-28.4	-28.9	28.6	0.00e+00	0	27	0	2942304256	30	5679
2026-01-15 17:33:26.52	237.11	39.54	-28.4	-29.1	28.6	0.00e+00	0	27	0	2947547136	30	5797
2026-01-15 17:33:27.53	236.91	39.30	-28.3	-28.8	28.8	0.00e+00	0	27	0	2953838592	30	5612
2026-01-15 17:33:28.54	236.71	39.07	-28.4	-28.9	28.7	0.00e+00	0	27	0	2959081472	30	5689
2026-01-15 17:33:29.55	236.52	38.83	-28.4	-29.0	28.6	0.00e+00	0	27	0	2964324352	30	5701
2026-01-15 17:33:30.56	236.33	38.60	-28.5	-29.0	28.6	0.00e+00	0	27	0	2970615808	30	5757
2026-01-15 17:33:31.57	236.14	38.37	-28.6	-29.2	28.5	0.00e+00	0	27	0	2975858688	30	5887
2026-01-15 17:33:32.58	235.95	38.14	-28.6	-29.1	28.6	0.00e+00	0	27	0	2982150144	30	5796
2026-01-15 17:33:33.58	235.77	37.92	-28.4	-28.9	28.7	0.00e+00	0	27	0	2987393024	30	5668
2026-01-15 17:33:34.59	235.58	37.69	-28.4	-29.0	28.6	0.00e+00	0	27	0	2993684480	30	5755
2026-01-15 17:33:35.60	235.40	37.46	-28.4	-29.0	28.6	0.00e+00	0	27	0	2998927360	30	5749
2026-01-15 17:33:36.61	235.23	37.24	-28.5	-29.0	28.6	0.00e+00	0	27	0	3005218816	30	5714
2026-01-15 17:33:37.62	235.05	37.01	-28.4	-28.9	28.6	0.00e+00	0	27	0	3010461696	30	5690
2026-01-15 17:33:38.63	234.88	36.79	-28.6	-29.1	28.5	0.00e+00	0	27	0	3015704576	30	5811
2026-01-15 17:33:39.65	234.71	36.57	-28.7	-29.2	28.4	0.00e+00	0	27	0	3021996032	30	5860
2026-01-15 17:33:40.66	234.54	36.35	-28.8	-29.4	28.3	0.00e+00	0	27	0	3027238912	30	5996
2026-01-15 17:33:41.66	234.38	36.13	-28.7	-29.4	28.4	0.00e+00	0	27	0	3033530368	30	5992
2026-01-15 17:33:42.67	234.22	35.91	-28.6	-29.2	28.4	0.00e+00	0	27	0	3038773248	30	5892
2026-01-15 17:33:43.68	234.06	35.70	-28.6	-29.3	28.4	0.00e+00	0	27	0	3044016128	30	5939
2026-01-15 17:33:44.69	233.90	35.48	-28.6	-29.3	28.4	0.00e+00	0	27	0	3050307584	30	5913
2026-01-15 17:33:45.70	233.74	35.27	-28.7	-29.4	28.4	0.00e+00	0	27	0	3055550464	30	5972
2026-01-15 17:33:46.71	233.59	35.06	-28.8	-29.5	28.3	0.00e+00	0	27	0	3061841920	30	6059
2026-01-15 17:33:47.72	233.44	34.84	-28.6	-29.3	28.4	0.00e+00	0	27	0	3067084800	30	5947
2026-01-15 17:33:48.73	233.29	34.63	-28.8	-29.4	28.3	0.00e+00	0	27	0	3072327680	30	5998
2026-01-15 17:33:49.74	233.14	34.42	-28.5	-29.1	28.5	0.00e+00	0	27	0	3078619136	30	5787
2026-01-15 17:33:50.74	232.99	34.22	-28.5	-29.2	28.5	0.00e+00	0	27	0	3083862016	30	5836
2026-01-15 17:33:51.75	232.85	34.01	-28.3	-29.0	28.7	0.00e+00	0	27	0	3090153472	30	5716
2026-01-15 17:33:52.76	232.71	33.81	-28.3	-28.8	28.6	0.00e+00	0	27	0	3095396352	30	5620
2026-01-15 17:33:53.77	232.56	33.60	-28.4	-29.0	28.6	0.00e+00	0	27	0	3101687808	30	5759
2026-01-15 17:33:54.78	232.43	33.40	-28.5	-29.2	28.5	0.00e+00	0	27	0	3106930688	30	5830
2026-01-15 17:33:55.79	232.29	33.20	-28.7	-29.4	28.3	0.00e+00	0	27	0	3112173568	30	5965
2026-01-15 17:33:56.80	232.15	32.99	-28.9	-29.4	28.3	0.00e+00	0	27	0	3118465024	30	6019
2026-01-15 17:33:57.81	232.02	32.79	-28.9	-29.5	28.2	0.00e+00	0	27	0	3123707904	30	6040
2026-01-15 17:33:58.82	231.89	32.60	-28.9	-29.5	28.2	0.00e+00	0	27	0	3129999360	30	6041
2026-01-15 17:33:59.83	231.76	32.40	-28.8	-29.4	28.2	0.00e+00	0	27	0	3135242240	30	5984
2026-01-15 17:34:00.84	231.63	32.20	-28.8	-29.5	28.3	0.00e+00	0	27	0	3140485120	30	6089
2026-01-15 17:34:01.85	231.50	32.01	-28.7	-29.3	28.4	0.00e+00	0	27	0	3146776576	30	5898
2026-01-15 17:34:02.86	231.37	31.81	-28.6	-29.2	28.4	0.00e+00	0	27	0	3152019456	30	5833
2026-01-15 17:34:03.87	231.25	31.62	-28.7	-29.2	28.4	0.00e+00	0	27	0	3158310912	30	5896
2026-01-15 17:34:04.88	231.13	31.43	-28.8	-29.3	28.4	0.00e+00	0	27	0	3163553792	30	5911
2026-01-15 17:34:05.89	231.01	31.23	-28.8	-29.3	28.3	0.00e+00	0	27	0	3168796672	30	5912
2026-01-15 17:34:06.89	230.89	31.05	-28.7	-29.2	28.4	0.00e+00	0	27	0	3175088128	30	5849
2026-01-15 17:34:07.90	230.77	30.86	-28.8	-29.3	28.3	0.00e+00	0	27	0	3180331008	30	5938
2026-01-15 17:34:08.91	230.65	30.67	-28.7	-29.2	28.4	0.00e+00	0	27	0	3186622464	30	5871
2026-01-15 17:34:09.92	230.54	30.48	-28.7	-29.3	28.3	0.00e+00	0	27	0	3191865344	30	5919
2026-01-15 17:34:10.93	230.42	30.30	-28.8	-29.3	28.3	0.00e+00	0	27	0	3198156800	30	5923
2026-01-15 17:34:11.94	230.31	30.11	-28.8	-29.4	28.3	0.00e+00	0	27	0	3203399680	30	5985
2026-01-15 17:34:12.95	230.20	29.93	-28.9	-29.4	28.2	0.00e+00	0	27	0	3208642560	30	6024
2026-01-15 17:34:13.96	230.09	29.75	-28.9	-29.4	28.3	0.00e+00	0	27	0	3214934016	30	6008
2026-01-15 17:34:14.97	229.98	29.57	-29.1	-29.6	28.1	0.00e+00	0	27	0	3220176896	30	6160
2026-01-15 17:34:15.98	229.87	29.38	-29.0	-29.6	28.1	0.00e+00	0	27	0	3226468352	30	6127
2026-01-15 17:34:16.99	229.76	29.21	-29.1	-29.8	28.0	0.00e+00	0	27	0	3231711232	30	6264
2026-01-15 17:34:18.00	229.66	29.03	-29.1	-29.8	28.0	0.00e+00	0	27	0	3236954112	30	6287
2026-01-15 17:34:19.01	229.56	28.85	-29.1	-29.8	28.1	0.00e+00	0	27	0	3243245568	30	6268
2026-01-15 17:34:20.02	229.45	28.67	-29.2	-29.7	28.1	0.00e+00	0	27	0	3248488448	30	6236
2026-01-15 17:34:21.02	229.35	28.50	-29.2	-29.8	28.1	0.00e+00	0	27	0	3254779904	30	6310
2026-01-15 17:34:22.04	229.25	28.32	-29.3	-30.0	28.0	0.00e+00	0	27	0	3260022784	30	6395
2026-01-15 17:34:23.05	229.15	28.15	-29.2	-29.8	28.1	0.00e+00	0	27	0	3265265664	30	6298
2026-01-15 17:34:24.05	229.05	27.98	-29.1	-29.8	28.1	0.00e+00	0	27	0	3271557120	30	6284
2026-01-15 17:34:25.06	228.96	27.81	-29.2	-29.9	28.0	0.00e+00	0	27	0	3276800000	30	6344
2026-01-15 17:34:26.07	228.86	27.64	-29.1	-29.7	28.1	0.00e+00	0	27	0	3283091456	30	6245
2026-01-15 17:34:27.08	228.76	27.47	-29.1	-29.8	28.1	0.00e+00	0	27	0	3288334336	30	6272
2026-01-15 17:34:28.09	228.67	27.30	-29.2	-29.8	28.0	0.00e+00	0	27	0	3294625792	30	6301
2026-01-15 17:34:29.10	228.58	27.13	-29.2	-29.9	28.0	0.00e+00	0	27	0	3299868672	30	6336
2026-01-15 17:34:30.11	228.48	26.97	-29.0	-29.7	28.1	0.00e+00	0	27	0	3306160128	30	6210
2026-01-15 17:34:31.12	228.39	26.80	-29.1	-29.8	28.1	0.00e+00	0	27	0	3311403008	30	6267
2026-01-15 17:34:32.13	228.30	26.63	-29.1	-29.7	28.2	0.00e+00	0	27	0	3316645888	30	6224
2026-01-15 17:34:33.14	228.21	26.47	-29.0	-29.7	28.1	0.00e+00	0	27	0	3322937344	30	6199
2026-01-15 17:34:34.15	228.12	26.31	-29.0	-29.7	28.0	0.00e+00	0	27	0	3328180224	30	6192
2026-01-15 17:34:35.16	228.04	26.15	-29.0	-29.7	28.1	0.00e+00	0	27	0	3334471680	30	6205
2026-01-15 17:34:36.18	227.95	25.98	-29.0	-29.7	28.1	0.00e+00	0	27	0	3339714560	30	6223
2026-01-15 17:34:37.18	227.87	25.82	-29.1	-29.8	28.1	0.00e+00	0	27	0	3344957440	30	6283
2026-01-15 17:34:38.19	227.78	25.66	-29.2	-29.9	27.9	0.00e+00	0	27	0	3351248896	30	6336
2026-01-15 17:34:39.20	227.70	25.51	-29.2	-29.9	27.9	0.00e+00	0	27	0	3356491776	30	6340
2026-01-15 17:34:40.21	227.61	25.35	-29.3	-30.0	27.9	0.00e+00	0	27	0	3362783232	30	6401
2026-01-15 17:34:41.22	227.53	25.19	-29.2	-29.9	28.0	0.00e+00	0	27	0	3368026112	30	6321
2026-01-15 17:34:42.23	227.45	25.04	-29.2	-29.8	27.8	0.00e+00	0	27	0	3373268992	30	6311
2026-01-15 17:34:43.24	227.37	24.88	-29.3	-29.9	27.7	0.00e+00	0	27	0	3379560448	30	6381
2026-01-15 17:34:44.25	227.29	24.73	-29.2	-29.9	27.7	0.00e+00	0	27	0	3384803328	30	6374
2026-01-15 17:34:45.26	227.21	24.57	-29.2	-29.9	27.6	0.00e+00	0	27	0	3391094784	30	6370
2026-01-15 17:34:46.27	227.13	24.42	-29.2	-29.9	27.8	0.00e+00	0	27	0	3396337664	30	6333
2026-01-15 17:34:47.28	227.06	24.27	-29.2	-29.9	27.8	0.00e+00	0	27	0	3402629120	30	6350
2026-01-15 17:34:48.29	226.98	24.12	-29.3	-30.0	27.6	0.00e+00	0	27	0	3407872000	30	6421
2026-01-15 17:34:49.30	226.90	23.97	-29.2	-29.9	27.8	0.00e+00	0	27	0	3413114880	30	6350
2026-01-15 17:34:50.31	226.83	23.82	-29.3	-30.0	27.7	0.00e+00	0	27	0	3419406336	30	6399
2026-01-15 17:34:51.32	226.75	23.67	-29.3	-29.9	27.7	0.00e+00	0	27	0	3424649216	30	6389
2026-01-15 17:34:52.33	226.68	23.52	-29.2	-29.9	27.8	0.00e+00	0	27	0	3430940672	30	6360
2026-01-15 17:34:53.34	226.61	23.38	-29.3	-29.9	27.7	0.00e+00	0	27	0	3436183552	30	6382
2026-01-15 17:34:54.34	226.54	23.23	-29.3	-29.9	27.7	0.00e+00	0	27	0	3441426432	30	6333
2026-01-15 17:34:55.35	226.47	23.08	-29.4	-29.9	27.6	0.00e+00	0	27	0	3447717888	30	6367
2026-01-15 17:34:56.36	226.39	22.94	-29.3	-29.9	27.6	0.00e+00	0	27	0	3452960768	30	6339
2026-01-15 17:34:57.37	226.32	22.80	-29.4	-30.0	27.6	0.00e+00	0	27	0	3459252224	30	6422
2026-01-15 17:34:58.38	226.26	22.65	-29.5	-30.1	27.5	0.00e+00	0	27	0	3464495104	30	6492
2026-01-15 17:34:59.40	226.19	22.51	-29.7	-30.4	27.3	0.00e+00	0	27	0	3469737984	30	6726
2026-01-15 17:35:00.41	226.12	22.37	-29.8	-30.5	27.3	0.00e+00	0	27	0	3476029440	32	6043
2026-01-15 17:35:01.41	226.05	22.23	-29.4	-30.2	27.5	0.00e+00	0	27	0	3481272320	32	5830
2026-01-15 17:35:02.42	225.98	22.09	-29.5	-30.1	27.5	0.00e+00	0	27	0	3487563776	32	5769
2026-01-15 17:35:03.44	225.92	21.95	-29.6	-30.1	27.5	0.00e+00	0	27	0	3492806656	32	5807
2026-01-15 17:35:04.44	225.85	21.81	-29.6	-30.3	27.4	0.00e+00	0	27	0	3499098112	32	5942
2026-01-15 17:35:05.46	225.79	21.67	-29.6	-30.2	27.4	0.00e+00	0	27	0	3504340992	32	5895
2026-01-15 17:35:06.47	225.72	21.53	-29.6	-30.2	27.4	0.00e+00	0	27	0	3510632448	32	5896
2026-01-15 17:35:07.48	225.66	21.40	-29.5	-30.2	27.4	0.00e+00	0	27	0	3515875328	32	5891
2026-01-15 17:35:08.49	225.60	21.26	-29.6	-30.3	27.4	0.00e+00	0	27	0	3521118208	32	5951
2026-01-15 17:35:09.50	225.53	21.13	-29.7	-30.4	27.3	0.00e+00	0	27	0	3527409664	32	5998
2026-01-15 17:35:10.50	225.47	20.99	-29.7	-30.3	27.3	0.00e+00	0	27	0	3532652544	32	5914
2026-01-15 17:35:11.51	225.41	20.86	-29.8	-30.4	27.2	0.00e+00	0	27	0	3538944000	32	5991
2026-01-15 17:35:12.52	225.35	20.73	-29.8	-30.3	27.3	0.00e+00	0	27	0	3544186880	32	5956
2026-01-15 17:35:13.53	225.29	20.59	-29.8	-30.5	27.2	0.00e+00	0	27	0	3549429760	32	6094
2026-01-15 17:35:14.54	225.23	20.46	-30.0	-30.5	27.2	0.00e+00	0	27	0	3555721216	32	6092
2026-01-15 17:35:15.55	225.17	20.33	-30.0	-30.6	27.2	0.00e+00	0	27	0	3560964096	32	6104
2026-01-15 17:35:16.56	225.11	20.20	-30.1	-30.6	27.0	0.00e+00	0	27	0	3567255552	32	6167
2026-01-15 17:35:17.57	225.05	20.07	-30.1	-30.7	27.1	0.00e+00	0	27	0	3572498432	32	6192
2026-01-15 17:35:18.58	224.99	19.94	-30.1	-30.7	27.0	0.00e+00	0	27	0	3577741312	32	6213
2026-01-15 17:35:19.59	224.94	19.81	-30.2	-30.8	26.9	0.00e+00	0	27	0	3584032768	32	6296
2026-01-15 17:35:20.60	224.88	19.68	-30.2	-30.8	26.9	0.00e+00	0	27	0	3589275648	32	6288
2026-01-15 17:35:21.61	224.82	19.56	-30.4	-31.0	26.8	0.00e+00	0	27	0	3595567104	32	6402
2026-01-15 17:35:22.61	224.77	19.43	-30.3	-30.9	26.8	0.00e+00	0	27	0	3600809984	32	6376
2026-01-15 17:35:23.63	224.71	19.30	-30.4	-31.0	26.8	0.00e+00	0	27	0	3607101440	32	6463
2026-01-15 17:35:24.64	224.66	19.18	-30.4	-31.0	26.7	0.00e+00	0	27	0	3612344320	32	6436
2026-01-15 17:35:25.65	224.60	19.05	-30.6	-31.2	26.6	0.00e+00	0	27	0	3617587200	32	6571
2026-01-15 17:35:26.66	224.55	18.93	-30.5	-31.2	26.7	0.00e+00	0	27	0	3623878656	32	6607
