passes_logs/2026/01/15/R4.6S_Anadyr/R4.6S_Anadyr__20260115_194333_SUOMI_NPP_rec.log

#Pass ID: 20260115_194333_SUOMI NPP
#Satellite: SUOMI NPP
#Configuration: NPP
#almurnet v.1.7.20251203
#Start time: 2026-01-15 19:43:36

#Version: 2.2.20231116
#Station: R4.6S_Anadyr
#Location: 177.4865 lon 64.73178 lat
#TLE: 1 37849U 11061A   26014.61059675  .00000037  00000+0  38639-4 0  9994
#TLE: 2 37849  98.7810 316.6625 0002460  64.3781 295.7649 14.19525105736658

#Time	Az	El	Level	Level2	SNR	BER	BlckErr	Temp	State	Recorded	gain1	gain2
2026-01-15 19:43:36.02	56.42	0.12	-47.8	-59.5	3.5	8.46e-01	0	24	0	0	60	34286
2026-01-15 19:43:37.03	56.34	0.17	-48.1	-63.3	3.6	1.51e+00	0	26	104	0	60	52712
2026-01-15 19:43:38.04	56.26	0.22	-48.0	-63.3	3.6	1.51e+00	0	26	104	0	60	52903
2026-01-15 19:43:39.05	56.19	0.26	-48.1	-63.3	3.6	1.51e+00	0	26	104	0	60	53073
2026-01-15 19:43:40.06	56.11	0.31	-48.2	-63.4	3.6	1.51e+00	0	26	104	0	60	53554
2026-01-15 19:43:41.07	56.03	0.36	-48.2	-63.5	3.6	1.51e+00	0	26	104	0	60	54059
2026-01-15 19:43:42.08	55.95	0.41	-48.2	-63.4	3.6	1.51e+00	0	26	104	0	60	53429
2026-01-15 19:43:43.09	55.87	0.46	-48.2	-63.4	3.6	1.51e+00	0	26	104	0	60	53174
2026-01-15 19:43:44.10	55.80	0.51	-48.1	-63.3	3.6	1.51e+00	0	26	104	0	60	53089
2026-01-15 19:43:45.11	55.72	0.56	-48.1	-63.3	3.6	1.51e+00	0	26	104	0	60	53058
2026-01-15 19:43:46.12	55.64	0.61	-48.1	-63.3	3.6	1.51e+00	0	26	104	0	60	52783
2026-01-15 19:43:47.13	55.56	0.66	-48.1	-63.4	3.6	1.51e+00	0	26	104	0	60	53184
2026-01-15 19:43:48.14	55.48	0.71	-47.8	-63.1	3.6	1.51e+00	0	26	104	0	60	51895
2026-01-15 19:43:49.15	55.40	0.76	-47.9	-63.1	3.6	1.51e+00	0	26	104	0	60	51590
2026-01-15 19:43:50.16	55.32	0.81	-47.5	-62.9	3.6	1.51e+00	0	26	104	0	60	50424
2026-01-15 19:43:51.17	55.24	0.86	-47.3	-62.6	3.6	1.51e+00	0	26	104	0	60	48624
2026-01-15 19:43:52.17	55.16	0.90	-46.8	-61.9	3.6	1.51e+00	0	26	104	0	60	45090
2026-01-15 19:43:53.19	55.08	0.95	-46.3	-61.5	3.6	1.51e+00	0	26	104	0	60	42837
2026-01-15 19:43:54.20	55.00	1.00	-46.3	-61.5	3.6	1.51e+00	0	26	104	0	60	42799
2026-01-15 19:43:55.20	54.92	1.05	-46.3	-61.5	3.6	1.51e+00	0	26	104	0	60	42798
2026-01-15 19:43:56.22	54.83	1.10	-46.3	-61.5	3.6	1.51e+00	0	26	104	0	60	43092
2026-01-15 19:43:57.23	54.75	1.15	-46.3	-61.5	3.6	1.51e+00	0	26	104	0	60	42781
2026-01-15 19:43:58.23	54.67	1.20	-46.3	-61.5	3.6	1.51e+00	0	26	104	0	60	42807
2026-01-15 19:43:59.24	54.59	1.25	-46.3	-61.5	3.6	1.51e+00	0	26	104	0	60	42719
2026-01-15 19:44:00.25	54.51	1.30	-46.3	-61.4	3.6	1.51e+00	0	26	104	0	60	42640
2026-01-15 19:44:01.26	54.42	1.35	-46.2	-61.4	3.6	1.51e+00	0	26	104	0	60	42338
2026-01-15 19:44:02.27	54.34	1.40	-46.2	-61.4	3.6	1.51e+00	0	26	104	0	60	42554
2026-01-15 19:44:03.28	54.26	1.45	-46.2	-61.4	3.6	1.51e+00	0	26	104	0	60	42586
2026-01-15 19:44:04.29	54.17	1.50	-46.2	-61.4	3.6	1.51e+00	0	26	104	0	60	42345
2026-01-15 19:44:05.30	54.09	1.55	-46.2	-61.3	3.6	1.51e+00	0	26	104	0	60	42144
2026-01-15 19:44:06.31	54.00	1.60	-46.2	-61.4	3.6	1.51e+00	0	26	104	0	60	42344
2026-01-15 19:44:07.32	53.92	1.65	-46.2	-61.3	3.6	1.51e+00	0	26	104	0	60	42215
2026-01-15 19:44:08.33	53.83	1.70	-46.2	-61.3	3.6	1.51e+00	0	26	104	0	60	42009
2026-01-15 19:44:09.34	53.75	1.75	-46.2	-61.4	3.6	1.51e+00	0	26	104	0	60	42256
2026-01-15 19:44:10.35	53.66	1.80	-46.2	-61.3	3.6	1.51e+00	0	26	104	0	60	42045
2026-01-15 19:44:11.36	53.58	1.85	-46.2	-61.3	3.6	1.51e+00	0	26	104	0	60	42016
2026-01-15 19:44:12.37	53.49	1.90	-46.2	-61.2	3.6	1.51e+00	0	26	104	0	60	41429
2026-01-15 19:44:13.38	53.40	1.95	-46.2	-61.0	3.6	1.51e+00	0	26	104	0	60	40521
2026-01-15 19:44:14.39	53.32	2.00	-46.2	-60.9	3.6	1.51e+00	0	26	104	0	60	40144
2026-01-15 19:44:15.40	53.23	2.05	-46.2	-60.7	3.6	1.51e+00	0	26	104	0	60	39272
2026-01-15 19:44:16.40	53.14	2.10	-46.2	-60.8	3.6	1.51e+00	0	26	104	0	60	39791
2026-01-15 19:44:17.41	53.05	2.15	-46.2	-61.0	3.6	1.51e+00	0	26	104	0	60	40466
2026-01-15 19:44:18.42	52.97	2.20	-46.2	-61.3	3.6	1.51e+00	0	26	104	0	60	41797
2026-01-15 19:44:19.44	52.88	2.25	-46.2	-61.3	3.6	1.51e+00	0	27	104	0	60	42056
2026-01-15 19:44:20.45	52.79	2.30	-46.2	-61.4	3.6	1.51e+00	0	27	104	0	60	42646
2026-01-15 19:44:21.46	52.70	2.35	-46.2	-61.3	3.6	1.51e+00	0	27	104	0	60	42185
2026-01-15 19:44:22.46	52.61	2.40	-46.2	-61.3	3.6	1.51e+00	0	27	104	0	60	42116
2026-01-15 19:44:23.47	52.52	2.45	-46.2	-61.4	3.6	1.51e+00	0	27	104	0	60	42274
2026-01-15 19:44:24.49	52.43	2.50	-46.2	-61.2	3.6	1.51e+00	0	27	104	0	60	41643
2026-01-15 19:44:25.50	52.34	2.55	-46.2	-60.8	3.6	1.51e+00	0	27	104	0	60	39685
2026-01-15 19:44:26.51	52.25	2.60	-46.1	-59.9	3.6	1.51e+00	0	27	104	0	60	35763
2026-01-15 19:44:27.52	52.16	2.65	-46.1	-59.7	3.6	1.51e+00	0	27	104	0	60	34844
2026-01-15 19:44:28.52	52.07	2.70	-46.1	-59.8	3.6	1.51e+00	0	27	104	0	60	35488
2026-01-15 19:44:29.54	51.97	2.75	-46.1	-60.6	3.6	1.51e+00	0	27	104	0	60	38881
2026-01-15 19:44:30.55	51.88	2.80	-46.2	-61.0	3.6	1.51e+00	0	27	104	0	60	40334
2026-01-15 19:44:31.56	51.79	2.85	-46.1	-59.9	3.6	1.51e+00	0	27	104	0	60	35764
2026-01-15 19:44:32.56	51.70	2.90	-46.0	-58.2	3.9	1.47e+00	0	27	104	0	60	29391
2026-01-15 19:44:33.57	51.60	2.95	-45.8	-54.6	4.9	9.39e-01	0	27	0	1048576	60	19464
2026-01-15 19:44:34.58	51.51	3.01	-45.7	-54.0	5.3	5.81e-01	90	27	0	3145728	60	18031
2026-01-15 19:44:35.59	51.42	3.06	-44.9	-50.2	7.7	1.62e-01	0	27	0	4194304	60	11734
2026-01-15 19:44:36.60	51.32	3.11	-46.2	-58.1	3.7	1.51e+00	0	27	104	5242880	60	29182
2026-01-15 19:44:37.62	51.23	3.16	-45.7	-54.8	4.3	1.51e+00	0	27	104	5242880	60	19826
2026-01-15 19:44:38.62	51.13	3.21	-43.7	-47.4	13.7	6.70e-01	70	27	0	5242880	60	8511
2026-01-15 19:44:39.63	51.04	3.26	-46.1	-58.8	3.5	4.75e-04	0	27	0	6291456	60	31603
2026-01-15 19:44:40.64	50.94	3.31	-45.7	-54.4	5.5	1.51e+00	0	27	104	6291456	60	18889
2026-01-15 19:44:41.66	50.85	3.36	-42.2	-44.7	16.0	0.00e+00	92	27	0	6291456	56	7795
2026-01-15 19:44:42.66	50.75	3.41	-41.8	-44.1	16.2	0.00e+00	0	27	0	8388608	56	7274
2026-01-15 19:44:43.68	50.65	3.46	-42.0	-44.3	16.3	0.00e+00	63	27	0	9437184	56	7469
2026-01-15 19:44:44.68	50.56	3.51	-41.9	-44.2	16.3	0.00e+00	0	27	0	11534336	56	7354
2026-01-15 19:44:45.69	50.46	3.56	-41.6	-43.8	16.6	0.00e+00	85	27	0	13631488	56	7029
2026-01-15 19:44:46.70	50.36	3.61	-41.4	-43.5	17.0	0.00e+00	0	27	0	15728640	56	6803
2026-01-15 19:44:47.71	50.27	3.66	-41.7	-43.8	16.8	0.00e+00	65	27	0	17825792	56	7077
2026-01-15 19:44:48.72	50.17	3.72	-41.3	-43.3	17.3	0.00e+00	92	27	0	18874368	56	6657
2026-01-15 19:44:49.73	50.07	3.77	-41.3	-43.4	17.4	0.00e+00	0	27	0	20971520	56	6697
2026-01-15 19:44:50.74	49.97	3.82	-41.5	-43.5	17.0	0.00e+00	0	27	0	23068672	56	6843
2026-01-15 19:44:51.75	49.87	3.87	-41.4	-43.4	17.1	0.00e+00	0	27	0	25165824	56	6728
2026-01-15 19:44:52.76	49.77	3.92	-41.4	-43.4	17.3	0.00e+00	69	27	0	27262976	56	6732
2026-01-15 19:44:53.77	49.67	3.97	-41.5	-43.6	17.1	0.00e+00	0	27	0	28311552	56	6850
2026-01-15 19:44:54.78	49.57	4.02	-41.4	-43.4	17.3	0.00e+00	67	27	0	30408704	56	6698
2026-01-15 19:44:55.79	49.47	4.07	-41.6	-43.7	17.0	0.00e+00	92	27	0	32505856	56	6980
2026-01-15 19:44:56.80	49.37	4.12	-41.3	-43.3	17.3	0.00e+00	0	27	0	34603008	56	6653
2026-01-15 19:44:57.81	49.27	4.17	-41.3	-43.3	17.4	0.00e+00	49	27	0	36700160	56	6617
2026-01-15 19:44:58.82	49.17	4.22	-41.3	-43.4	17.3	0.00e+00	0	27	0	37748736	56	6693
2026-01-15 19:44:59.83	49.06	4.27	-41.2	-43.2	17.5	0.00e+00	62	27	0	39845888	56	6585
2026-01-15 19:45:00.84	48.96	4.33	-41.2	-43.1	17.4	0.00e+00	0	27	0	41943040	56	6508
2026-01-15 19:45:01.85	48.86	4.38	-41.4	-43.4	17.3	0.00e+00	92	27	0	44040192	56	6699
2026-01-15 19:45:02.86	48.76	4.43	-41.6	-43.6	17.0	0.00e+00	7	27	0	46137344	56	6909
2026-01-15 19:45:03.86	48.65	4.48	-41.7	-43.9	17.0	0.00e+00	0	27	0	47185920	56	7149
2026-01-15 19:45:04.88	48.55	4.53	-41.5	-43.5	17.3	0.00e+00	92	27	0	49283072	56	6830
2026-01-15 19:45:05.89	48.44	4.58	-41.7	-43.8	17.0	0.00e+00	0	27	0	51380224	56	7044
2026-01-15 19:45:06.90	48.34	4.63	-41.2	-43.1	17.7	0.00e+00	92	27	0	53477376	56	6524
2026-01-15 19:45:07.91	48.23	4.68	-41.6	-43.7	17.2	0.00e+00	0	27	0	55574528	56	6977
2026-01-15 19:45:08.92	48.13	4.73	-41.5	-43.5	17.3	0.00e+00	83	27	0	56623104	56	6832
2026-01-15 19:45:09.93	48.02	4.79	-41.0	-42.9	17.9	0.00e+00	0	27	0	58720256	56	6352
2026-01-15 19:45:10.94	47.92	4.84	-41.0	-42.9	17.8	0.00e+00	0	27	0	60817408	56	6371
2026-01-15 19:45:11.95	47.81	4.89	-41.3	-43.3	17.4	0.00e+00	77	27	0	62914560	56	6633
2026-01-15 19:45:12.95	47.70	4.94	-41.1	-43.0	17.7	0.00e+00	0	27	0	65011712	56	6429
2026-01-15 19:45:13.96	47.60	4.99	-41.2	-43.1	17.7	0.00e+00	38	27	0	66060288	56	6485
2026-01-15 19:45:14.97	47.49	5.04	-41.1	-42.9	17.8	0.00e+00	0	27	0	68157440	56	6381
2026-01-15 19:45:15.98	47.38	5.09	-41.0	-42.8	18.0	0.00e+00	90	27	0	70254592	56	6276
2026-01-15 19:45:16.99	47.27	5.14	-41.0	-42.9	18.0	0.00e+00	0	27	0	72351744	56	6330
2026-01-15 19:45:18.00	47.16	5.19	-41.0	-42.8	17.9	0.00e+00	0	27	0	74448896	56	6309
2026-01-15 19:45:19.01	47.05	5.24	-41.0	-42.9	18.0	0.00e+00	92	27	0	76546048	56	6320
2026-01-15 19:45:20.02	46.94	5.30	-40.7	-42.4	18.4	0.00e+00	0	27	0	77594624	56	6020
2026-01-15 19:45:21.03	46.83	5.35	-40.9	-42.7	18.1	0.00e+00	8	27	0	79691776	54	6983
2026-01-15 19:45:22.04	46.72	5.40	-40.8	-42.5	18.2	0.00e+00	0	27	0	81788928	54	6832
2026-01-15 19:45:23.05	46.61	5.45	-40.8	-42.5	18.3	0.00e+00	92	27	0	83886080	54	6818
2026-01-15 19:45:24.06	46.50	5.50	-40.7	-42.4	18.3	0.00e+00	0	27	0	85983232	54	6707
2026-01-15 19:45:25.07	46.39	5.55	-40.7	-42.4	18.4	0.00e+00	0	27	0	87031808	54	6714
2026-01-15 19:45:26.08	46.28	5.60	-40.4	-42.0	18.8	0.00e+00	81	27	0	89128960	54	6413
2026-01-15 19:45:27.09	46.17	5.65	-40.3	-41.8	18.9	0.00e+00	0	27	0	91226112	54	6313
2026-01-15 19:45:28.09	46.05	5.70	-40.3	-41.9	18.9	0.00e+00	0	27	0	93323264	54	6340
2026-01-15 19:45:29.11	45.94	5.75	-40.1	-41.7	19.1	0.00e+00	0	27	0	95420416	54	6182
2026-01-15 19:45:30.12	45.83	5.81	-40.0	-41.4	19.3	0.00e+00	62	27	0	96468992	54	6032
2026-01-15 19:45:31.12	45.71	5.86	-39.9	-41.3	19.4	0.00e+00	0	27	0	98566144	54	5957
2026-01-15 19:45:32.13	45.60	5.91	-39.9	-41.4	19.4	0.00e+00	73	27	0	100663296	54	5969
2026-01-15 19:45:33.14	45.48	5.96	-40.0	-41.5	19.3	0.00e+00	49	27	0	102760448	54	6036
2026-01-15 19:45:34.15	45.37	6.01	-39.8	-41.2	19.6	0.00e+00	33	27	0	104857600	54	5854
2026-01-15 19:45:35.16	45.25	6.06	-39.6	-41.0	19.7	0.00e+00	44	27	0	105906176	52	6427
2026-01-15 19:45:36.17	45.14	6.11	-39.8	-41.2	19.5	0.00e+00	0	27	0	108003328	52	6599
2026-01-15 19:45:37.18	45.02	6.16	-39.7	-41.1	19.5	0.00e+00	90	27	0	110100480	52	6523
2026-01-15 19:45:38.19	44.90	6.21	-39.8	-41.2	19.6	0.00e+00	7	27	0	112197632	52	6593
2026-01-15 19:45:39.20	44.78	6.26	-39.8	-41.2	19.6	0.00e+00	92	27	0	114294784	52	6568
2026-01-15 19:45:40.21	44.67	6.31	-39.8	-41.2	19.6	0.00e+00	24	27	0	115343360	52	6578
2026-01-15 19:45:41.22	44.55	6.37	-39.8	-41.3	19.6	0.00e+00	5	27	0	117440512	52	6622
2026-01-15 19:45:42.23	44.43	6.42	-39.8	-41.2	19.6	0.00e+00	88	27	0	119537664	52	6565
2026-01-15 19:45:43.24	44.31	6.47	-39.7	-41.1	19.6	0.00e+00	0	27	0	121634816	52	6502
2026-01-15 19:45:44.25	44.19	6.52	-39.8	-41.3	19.6	0.00e+00	75	27	0	123731968	52	6641
2026-01-15 19:45:45.26	44.07	6.57	-39.8	-41.2	19.2	0.00e+00	0	27	0	124780544	52	6601
2026-01-15 19:45:46.27	43.95	6.62	-39.8	-41.2	19.6	0.00e+00	87	27	0	126877696	52	6576
2026-01-15 19:45:47.28	43.83	6.67	-39.9	-41.3	19.5	0.00e+00	0	27	0	128974848	52	6683
2026-01-15 19:45:48.29	43.71	6.72	-40.0	-41.4	19.4	0.00e+00	0	27	0	131072000	52	6760
2026-01-15 19:45:49.30	43.59	6.77	-40.2	-41.7	19.2	0.00e+00	92	27	0	133169152	52	6950
2026-01-15 19:45:50.31	43.46	6.82	-40.1	-41.6	19.3	0.00e+00	0	27	0	134217728	52	6893
2026-01-15 19:45:51.32	43.34	6.87	-40.0	-41.5	19.4	0.00e+00	38	27	0	136314880	52	6810
2026-01-15 19:45:52.33	43.22	6.92	-40.0	-41.5	19.5	0.00e+00	0	27	0	138412032	52	6818
2026-01-15 19:45:53.34	43.10	6.98	-40.0	-41.4	19.5	0.00e+00	92	27	0	140509184	52	6754
2026-01-15 19:45:54.35	42.97	7.03	-39.9	-41.3	19.5	0.00e+00	0	27	0	142606336	52	6672
2026-01-15 19:45:55.36	42.85	7.08	-40.0	-41.5	19.5	0.00e+00	17	27	0	144703488	52	6777
2026-01-15 19:45:56.37	42.72	7.13	-40.1	-41.7	19.3	0.00e+00	92	27	0	145752064	52	6929
2026-01-15 19:45:57.37	42.60	7.18	-40.2	-41.8	19.0	0.00e+00	0	27	0	147849216	52	7014
2026-01-15 19:45:58.38	42.47	7.23	-40.3	-41.8	19.1	0.00e+00	9	27	0	149946368	52	7054
2026-01-15 19:45:59.39	42.35	7.28	-40.2	-41.8	19.2	0.00e+00	0	27	0	152043520	52	7018
2026-01-15 19:46:00.40	42.22	7.33	-40.2	-41.7	19.2	0.00e+00	66	27	0	154140672	52	6958
2026-01-15 19:46:01.41	42.09	7.38	-40.2	-41.7	19.3	0.00e+00	0	27	0	155189248	52	6955
2026-01-15 19:46:02.42	41.97	7.43	-40.2	-41.7	19.3	0.00e+00	70	27	0	157286400	52	7007
2026-01-15 19:46:03.43	41.84	7.48	-40.1	-41.6	19.4	0.00e+00	8	27	0	159383552	52	6862
2026-01-15 19:46:04.44	41.71	7.53	-40.1	-41.7	19.3	0.00e+00	0	27	0	161480704	52	6930
2026-01-15 19:46:05.45	41.58	7.58	-40.3	-41.8	19.1	0.00e+00	62	27	0	163577856	52	7074
2026-01-15 19:46:06.46	41.45	7.63	-40.1	-41.6	19.4	0.00e+00	0	27	0	164626432	52	6863
2026-01-15 19:46:07.46	41.32	7.68	-40.1	-41.6	19.4	0.00e+00	92	27	0	166723584	52	6871
2026-01-15 19:46:08.47	41.19	7.73	-40.1	-41.5	19.4	0.00e+00	0	27	0	168820736	52	6825
2026-01-15 19:46:09.48	41.06	7.78	-39.9	-41.3	19.7	0.00e+00	92	27	0	170917888	52	6625
2026-01-15 19:46:10.49	40.93	7.83	-40.0	-41.5	19.7	0.00e+00	4	27	0	173015040	52	6793
2026-01-15 19:46:11.50	40.80	7.88	-40.0	-41.5	19.5	0.00e+00	0	27	0	174063616	52	6783
2026-01-15 19:46:12.51	40.67	7.93	-39.7	-41.1	19.9	0.00e+00	80	27	0	176160768	52	6476
2026-01-15 19:46:13.52	40.53	7.98	-39.8	-41.1	20.0	0.00e+00	0	27	0	178257920	52	6532
2026-01-15 19:46:14.53	40.40	8.03	-39.7	-41.1	19.9	0.00e+00	69	27	0	180355072	52	6508
2026-01-15 19:46:15.54	40.27	8.08	-39.7	-41.0	19.8	0.00e+00	0	27	0	182452224	52	6452
2026-01-15 19:46:16.55	40.13	8.13	-39.6	-41.0	20.0	0.00e+00	61	27	0	183500800	52	6422
2026-01-15 19:46:17.56	40.00	8.18	-39.5	-40.8	20.1	0.00e+00	3	27	0	185597952	52	6281
2026-01-15 19:46:18.57	39.86	8.23	-39.6	-41.0	20.0	0.00e+00	0	27	0	187695104	52	6403
2026-01-15 19:46:19.58	39.73	8.28	-39.8	-41.2	19.7	0.00e+00	90	27	0	189792256	52	6605
2026-01-15 19:46:20.59	39.59	8.33	-40.0	-41.4	19.6	0.00e+00	0	27	0	191889408	52	6755
2026-01-15 19:46:21.60	39.46	8.38	-40.1	-41.6	19.4	0.00e+00	92	27	0	192937984	52	6888
2026-01-15 19:46:22.61	39.32	8.43	-40.1	-41.6	19.4	0.00e+00	0	27	0	195035136	52	6879
2026-01-15 19:46:23.62	39.18	8.48	-40.4	-42.0	19.1	0.00e+00	0	27	0	197132288	52	7238
2026-01-15 19:46:24.63	39.05	8.53	-40.2	-41.7	19.4	0.00e+00	0	27	0	199229440	52	7000
2026-01-15 19:46:25.64	38.91	8.58	-40.3	-41.8	19.2	0.00e+00	0	27	0	201326592	52	7082
2026-01-15 19:46:26.65	38.77	8.62	-40.2	-41.7	19.3	0.00e+00	40	27	0	202375168	52	6991
2026-01-15 19:46:27.66	38.63	8.67	-40.2	-41.7	19.3	0.00e+00	0	27	0	204472320	52	7003
2026-01-15 19:46:28.67	38.49	8.72	-40.3	-41.8	19.3	0.00e+00	74	27	0	206569472	52	7055
2026-01-15 19:46:29.68	38.35	8.77	-40.1	-41.6	19.4	0.00e+00	0	27	0	208666624	52	6922
2026-01-15 19:46:30.69	38.21	8.82	-40.2	-41.7	19.3	0.00e+00	0	27	0	210763776	52	6982
2026-01-15 19:46:31.70	38.07	8.87	-39.9	-41.3	19.7	0.00e+00	0	27	0	212860928	52	6683
2026-01-15 19:46:32.71	37.93	8.92	-39.8	-41.2	19.9	0.00e+00	0	27	0	213909504	52	6541
2026-01-15 19:46:33.72	37.78	8.97	-39.8	-41.2	19.9	0.00e+00	92	27	0	216006656	52	6575
2026-01-15 19:46:34.73	37.64	9.02	-39.6	-41.0	20.0	0.00e+00	0	27	0	218103808	52	6423
2026-01-15 19:46:35.74	37.50	9.06	-39.5	-40.9	20.1	0.00e+00	79	27	0	220200960	52	6328
2026-01-15 19:46:36.75	37.36	9.11	-39.5	-40.9	20.1	0.00e+00	0	27	0	222298112	52	6339
2026-01-15 19:46:37.76	37.21	9.16	-39.5	-40.9	20.2	0.00e+00	0	27	0	223346688	52	6333
2026-01-15 19:46:38.77	37.07	9.21	-39.4	-40.7	20.4	0.00e+00	0	27	0	225443840	52	6221
2026-01-15 19:46:39.77	36.92	9.26	-39.2	-40.5	20.5	0.00e+00	0	27	0	227540992	52	6066
2026-01-15 19:46:40.78	36.78	9.31	-39.2	-40.4	20.5	0.00e+00	5	27	0	229638144	52	6027
2026-01-15 19:46:41.79	36.63	9.35	-39.1	-40.4	20.6	0.00e+00	0	27	0	231735296	52	6006
2026-01-15 19:46:42.80	36.49	9.40	-38.8	-40.1	20.8	0.00e+00	92	27	0	232783872	52	5769
2026-01-15 19:46:43.81	36.34	9.45	-39.0	-40.2	20.8	0.00e+00	0	27	0	234881024	52	5892
2026-01-15 19:46:44.82	36.19	9.50	-38.8	-40.0	21.0	0.00e+00	0	27	0	236978176	52	5751
2026-01-15 19:46:45.83	36.04	9.55	-38.8	-40.0	21.0	0.00e+00	0	27	0	239075328	50	6419
2026-01-15 19:46:46.84	35.90	9.59	-38.7	-39.9	21.0	0.00e+00	0	27	0	241172480	50	6366
2026-01-15 19:46:47.86	35.75	9.64	-38.5	-39.7	21.2	0.00e+00	10	27	0	242221056	50	6213
2026-01-15 19:46:48.87	35.60	9.69	-38.5	-39.7	21.2	0.00e+00	0	27	0	244318208	50	6208
2026-01-15 19:46:49.88	35.45	9.74	-38.3	-39.4	21.4	0.00e+00	58	27	0	246415360	50	5994
2026-01-15 19:46:50.89	35.30	9.78	-38.2	-39.4	21.4	0.00e+00	0	27	0	248512512	50	5977
2026-01-15 19:46:51.90	35.14	9.83	-38.3	-39.4	21.2	0.00e+00	6	27	0	250609664	50	5993
2026-01-15 19:46:52.91	34.99	9.88	-38.2	-39.3	21.6	0.00e+00	0	27	0	251658240	50	5964
2026-01-15 19:46:53.91	34.84	9.92	-37.9	-39.0	21.9	0.00e+00	0	27	0	253755392	50	5703
2026-01-15 19:46:54.92	34.69	9.97	-37.9	-38.9	21.9	0.00e+00	23	27	0	255852544	50	5674
2026-01-15 19:46:55.93	34.54	10.02	-37.8	-38.9	21.9	0.00e+00	0	27	0	257949696	48	6349
2026-01-15 19:46:56.94	34.38	10.06	-37.9	-39.0	21.9	0.00e+00	92	27	0	260046848	48	6454
2026-01-15 19:46:57.95	34.23	10.11	-37.8	-38.9	21.8	0.00e+00	0	27	0	261095424	48	6348
2026-01-15 19:46:58.96	34.08	10.16	-38.2	-39.3	21.6	0.00e+00	91	27	0	263192576	48	6644
2026-01-15 19:46:59.97	33.92	10.20	-38.2	-39.4	21.5	0.00e+00	0	27	0	265289728	48	6699
2026-01-15 19:47:00.97	33.77	10.25	-38.4	-39.6	21.3	0.00e+00	0	27	0	267386880	48	6913
2026-01-15 19:47:01.98	33.61	10.29	-38.3	-39.5	21.4	0.00e+00	10	27	0	269484032	48	6836
2026-01-15 19:47:02.99	33.46	10.34	-38.4	-39.6	21.3	0.00e+00	0	27	0	270532608	48	6850
2026-01-15 19:47:04.00	33.30	10.39	-38.2	-39.4	21.6	0.00e+00	7	27	0	272629760	48	6700
2026-01-15 19:47:05.02	33.14	10.43	-38.2	-39.4	21.5	0.00e+00	0	27	0	274726912	48	6699
2026-01-15 19:47:06.03	32.98	10.48	-38.1	-39.2	21.6	7.00e-07	61	27	0	276824064	48	6592
2026-01-15 19:47:07.04	32.82	10.52	-38.2	-39.3	21.6	0.00e+00	0	27	0	278921216	48	6654
2026-01-15 19:47:08.05	32.66	10.57	-38.0	-39.1	21.8	0.00e+00	0	27	0	281018368	48	6486
2026-01-15 19:47:09.06	32.51	10.61	-37.9	-39.0	21.8	0.00e+00	0	27	0	282066944	48	6413
2026-01-15 19:47:10.07	32.35	10.66	-37.6	-38.7	21.9	0.00e+00	0	27	0	284164096	48	6215
2026-01-15 19:47:11.08	32.19	10.70	-37.5	-38.5	22.2	0.00e+00	79	27	0	286261248	48	6067
2026-01-15 19:47:12.09	32.02	10.75	-37.1	-38.1	22.6	0.00e+00	0	27	0	288358400	48	5793
2026-01-15 19:47:13.10	31.86	10.79	-37.1	-38.1	22.5	0.00e+00	29	27	0	290455552	48	5776
2026-01-15 19:47:14.11	31.70	10.84	-37.0	-38.0	22.6	0.00e+00	0	27	0	291504128	48	5728
2026-01-15 19:47:15.12	31.54	10.88	-37.2	-38.2	22.5	0.00e+00	0	27	0	293601280	48	5836
2026-01-15 19:47:16.13	31.38	10.93	-37.1	-38.0	22.7	0.00e+00	0	27	0	295698432	48	5747
2026-01-15 19:47:17.14	31.21	10.97	-37.1	-38.1	22.6	0.00e+00	0	27	0	297795584	48	5790
2026-01-15 19:47:18.15	31.05	11.01	-37.0	-38.0	22.6	0.00e+00	67	27	0	299892736	48	5711
2026-01-15 19:47:19.16	30.88	11.06	-37.3	-38.3	22.4	0.00e+00	0	27	0	300941312	48	5938
2026-01-15 19:47:20.17	30.72	11.10	-37.3	-38.4	22.3	0.00e+00	59	27	0	303038464	48	5970
2026-01-15 19:47:21.18	30.55	11.14	-37.3	-38.3	22.4	0.00e+00	0	27	0	305135616	48	5940
2026-01-15 19:47:22.19	30.39	11.19	-37.4	-38.4	22.3	0.00e+00	25	27	0	307232768	48	6020
2026-01-15 19:47:23.20	30.22	11.23	-37.6	-38.6	22.2	0.00e+00	0	27	0	309329920	48	6140
2026-01-15 19:47:24.21	30.06	11.27	-37.4	-38.5	22.3	0.00e+00	0	27	0	310378496	48	6040
2026-01-15 19:47:25.22	29.89	11.32	-37.2	-38.2	22.5	0.00e+00	12	27	0	312475648	48	5873
2026-01-15 19:47:26.23	29.72	11.36	-37.0	-38.0	22.6	0.00e+00	0	27	0	314572800	48	5733
2026-01-15 19:47:27.24	29.55	11.40	-36.9	-37.8	22.8	0.00e+00	82	27	0	316669952	48	5604
2026-01-15 19:47:28.25	29.38	11.44	-36.9	-37.8	22.9	0.00e+00	0	27	0	318767104	46	6279
2026-01-15 19:47:29.26	29.21	11.49	-36.7	-37.6	23.0	0.00e+00	13	27	0	319815680	46	6160
2026-01-15 19:47:30.27	29.04	11.53	-36.8	-37.8	22.9	0.00e+00	0	27	0	321912832	46	6251
2026-01-15 19:47:31.28	28.87	11.57	-36.8	-37.8	22.9	0.00e+00	0	27	0	324009984	46	6249
2026-01-15 19:47:32.29	28.70	11.61	-36.8	-37.8	22.8	0.00e+00	10	27	0	326107136	46	6288
2026-01-15 19:47:33.30	28.53	11.65	-36.9	-37.9	22.7	0.00e+00	0	27	0	328204288	46	6352
2026-01-15 19:47:34.31	28.36	11.69	-37.1	-38.1	22.6	0.00e+00	31	27	0	329252864	46	6535
2026-01-15 19:47:35.32	28.19	11.74	-37.3	-38.3	22.3	0.00e+00	0	27	0	331350016	46	6649
2026-01-15 19:47:36.32	28.02	11.78	-37.3	-38.3	22.4	0.00e+00	80	27	0	333447168	46	6690
2026-01-15 19:47:37.34	27.84	11.82	-37.6	-38.7	22.2	0.00e+00	0	27	0	335544320	46	6953
2026-01-15 19:47:38.35	27.67	11.86	-37.6	-38.7	22.2	0.00e+00	0	27	0	337641472	46	6932
2026-01-15 19:47:39.36	27.49	11.90	-37.7	-38.8	22.0	0.00e+00	10	27	0	338690048	46	7059
2026-01-15 19:47:40.37	27.32	11.94	-37.7	-38.7	22.2	0.00e+00	0	27	0	340787200	46	6988
2026-01-15 19:47:41.38	27.15	11.98	-37.6	-38.7	22.1	0.00e+00	8	27	0	342884352	46	6929
2026-01-15 19:47:42.39	26.97	12.02	-37.6	-38.6	21.9	0.00e+00	0	27	0	344981504	46	6925
2026-01-15 19:47:43.40	26.79	12.06	-37.7	-38.7	22.0	0.00e+00	86	27	0	347078656	46	6963
2026-01-15 19:47:44.41	26.62	12.10	-37.5	-38.5	22.3	0.00e+00	0	27	0	349175808	48	6066
2026-01-15 19:47:45.42	26.44	12.13	-37.4	-38.5	22.3	0.00e+00	0	27	0	350224384	48	6041
2026-01-15 19:47:46.43	26.26	12.17	-37.3	-38.3	22.5	0.00e+00	0	27	0	352321536	48	5915
2026-01-15 19:47:47.44	26.08	12.21	-37.5	-38.6	22.3	0.00e+00	0	27	0	354418688	48	6120
2026-01-15 19:47:48.45	25.91	12.25	-37.6	-38.6	22.3	0.00e+00	81	27	0	356515840	48	6154
2026-01-15 19:47:49.46	25.73	12.29	-37.8	-38.9	22.0	0.00e+00	0	27	0	358612992	48	6335
2026-01-15 19:47:50.47	25.55	12.33	-37.9	-39.0	21.9	0.00e+00	80	27	0	359661568	48	6436
2026-01-15 19:47:51.47	25.37	12.36	-38.0	-39.1	21.9	0.00e+00	0	27	0	361758720	48	6523
2026-01-15 19:47:52.48	25.19	12.40	-38.0	-39.1	21.9	0.00e+00	0	27	0	363855872	48	6498
2026-01-15 19:47:53.49	25.01	12.44	-37.7	-38.8	22.1	0.00e+00	0	27	0	365953024	48	6289
2026-01-15 19:47:54.50	24.83	12.48	-37.7	-38.7	22.2	0.00e+00	0	27	0	368050176	48	6233
2026-01-15 19:47:55.51	24.65	12.51	-37.6	-38.7	22.2	0.00e+00	69	27	0	369098752	48	6174
2026-01-15 19:47:56.52	24.46	12.55	-37.6	-38.7	22.2	0.00e+00	0	27	0	371195904	48	6195
2026-01-15 19:47:57.53	24.28	12.59	-37.3	-38.3	22.3	0.00e+00	91	27	0	373293056	48	5945
2026-01-15 19:47:58.54	24.10	12.62	-37.2	-38.2	22.6	0.00e+00	0	27	0	375390208	48	5880
2026-01-15 19:47:59.55	23.91	12.66	-37.1	-38.1	22.7	0.00e+00	0	27	0	377487360	48	5784
2026-01-15 19:48:00.56	23.73	12.69	-37.2	-38.1	22.6	0.00e+00	0	27	0	378535936	48	5817
2026-01-15 19:48:01.57	23.54	12.73	-37.3	-38.3	22.5	0.00e+00	0	27	0	380633088	48	5923
2026-01-15 19:48:02.58	23.36	12.77	-37.4	-38.4	22.5	0.00e+00	8	27	0	382730240	48	5985
2026-01-15 19:48:03.59	23.17	12.80	-37.5	-38.6	22.3	0.00e+00	0	27	0	384827392	48	6109
2026-01-15 19:48:04.60	22.99	12.84	-37.6	-38.7	22.1	0.00e+00	61	27	0	386924544	48	6204
2026-01-15 19:48:05.60	22.80	12.87	-37.3	-38.3	22.5	0.00e+00	0	27	0	387973120	48	5928
2026-01-15 19:48:06.61	22.62	12.90	-37.2	-38.2	22.7	0.00e+00	0	27	0	390070272	48	5840
2026-01-15 19:48:07.62	22.43	12.94	-37.1	-38.1	22.7	0.00e+00	0	27	0	392167424	48	5774
2026-01-15 19:48:08.63	22.24	12.97	-37.0	-38.0	22.8	0.00e+00	0	27	0	394264576	48	5746
2026-01-15 19:48:09.64	22.06	13.01	-37.1	-38.1	22.7	0.00e+00	8	27	0	396361728	48	5766
2026-01-15 19:48:10.65	21.87	13.04	-37.0	-38.0	22.7	0.00e+00	0	27	0	397410304	48	5741
2026-01-15 19:48:11.66	21.68	13.07	-37.1	-38.1	22.6	0.00e+00	61	27	0	399507456	48	5781
2026-01-15 19:48:12.67	21.49	13.10	-37.4	-38.4	22.4	0.00e+00	0	27	0	401604608	48	6007
2026-01-15 19:48:13.67	21.30	13.14	-37.5	-38.5	22.2	0.00e+00	92	27	0	403701760	48	6062
2026-01-15 19:48:14.68	21.11	13.17	-37.7	-38.8	22.1	0.00e+00	0	27	0	405798912	48	6285
2026-01-15 19:48:15.69	20.92	13.20	-37.8	-38.9	22.1	0.00e+00	0	27	0	406847488	48	6359
2026-01-15 19:48:16.70	20.73	13.23	-38.2	-39.4	21.7	0.00e+00	0	27	0	408944640	48	6706
2026-01-15 19:48:17.71	20.54	13.26	-38.1	-39.3	21.7	0.00e+00	0	27	0	411041792	48	6647
2026-01-15 19:48:18.72	20.35	13.29	-38.1	-39.2	21.8	0.00e+00	0	27	0	413138944	48	6576
2026-01-15 19:48:19.73	20.15	13.33	-37.8	-38.9	22.1	0.00e+00	0	27	0	415236096	48	6337
2026-01-15 19:48:20.74	19.96	13.36	-37.6	-38.6	22.2	0.00e+00	92	27	0	417333248	48	6128
2026-01-15 19:48:21.75	19.77	13.39	-37.0	-37.9	22.9	0.00e+00	0	27	0	418381824	48	5684
2026-01-15 19:48:22.76	19.57	13.42	-36.7	-37.7	23.1	0.00e+00	0	27	0	420478976	48	5517
2026-01-15 19:48:23.77	19.38	13.45	-37.1	-38.0	22.8	0.00e+00	0	27	0	422576128	46	6437
2026-01-15 19:48:24.77	19.19	13.48	-37.2	-38.1	22.5	0.00e+00	0	27	0	424673280	46	6511
2026-01-15 19:48:25.78	18.99	13.50	-36.9	-37.8	23.0	0.00e+00	7	27	0	425721856	46	6316
2026-01-15 19:48:26.79	18.80	13.53	-36.8	-37.8	22.9	0.00e+00	0	27	0	427819008	46	6263
2026-01-15 19:48:27.80	18.60	13.56	-36.7	-37.6	23.1	0.00e+00	74	27	0	429916160	46	6130
2026-01-15 19:48:28.81	18.41	13.59	-36.5	-37.4	23.3	0.00e+00	0	27	0	432013312	46	5979
2026-01-15 19:48:29.82	18.21	13.62	-36.6	-37.6	23.2	0.00e+00	0	27	0	434110464	46	6115
2026-01-15 19:48:30.83	18.02	13.65	-37.0	-38.0	22.9	0.00e+00	0	27	0	435159040	46	6391
2026-01-15 19:48:31.84	17.82	13.67	-36.9	-37.8	22.8	0.00e+00	0	27	0	437256192	46	6287
2026-01-15 19:48:32.85	17.62	13.70	-37.0	-37.9	22.9	0.00e+00	58	27	0	439353344	46	6377
2026-01-15 19:48:33.86	17.42	13.73	-37.0	-38.0	22.9	0.00e+00	27	27	0	441450496	46	6411
2026-01-15 19:48:34.87	17.23	13.75	-36.6	-37.5	23.2	0.00e+00	92	27	0	443547648	46	6099
2026-01-15 19:48:35.88	17.03	13.78	-36.4	-37.3	23.4	0.00e+00	0	27	0	445644800	46	5910
2026-01-15 19:48:36.89	16.83	13.80	-36.3	-37.1	23.6	0.00e+00	0	27	0	446693376	46	5820
2026-01-15 19:48:37.90	16.63	13.83	-36.4	-37.3	23.3	0.00e+00	0	27	0	448790528	46	5919
2026-01-15 19:48:38.91	16.43	13.85	-36.8	-37.7	22.8	0.00e+00	0	27	0	450887680	46	6231
2026-01-15 19:48:39.92	16.23	13.88	-37.2	-38.1	22.7	0.00e+00	52	27	0	452984832	46	6523
2026-01-15 19:48:40.93	16.03	13.90	-37.3	-38.3	22.6	0.00e+00	0	27	0	455081984	46	6624
2026-01-15 19:48:41.94	15.83	13.93	-37.5	-38.5	22.4	0.00e+00	89	27	0	456130560	46	6805
2026-01-15 19:48:42.95	15.63	13.95	-37.5	-38.5	22.3	0.00e+00	0	27	0	458227712	46	6843
2026-01-15 19:48:43.96	15.43	13.98	-37.5	-38.5	22.3	0.00e+00	90	27	0	460324864	46	6843
2026-01-15 19:48:44.97	15.23	14.00	-37.4	-38.4	22.3	0.00e+00	0	27	0	462422016	46	6733
2026-01-15 19:48:45.98	15.03	14.02	-37.4	-38.5	22.4	0.00e+00	0	27	0	464519168	46	6791
2026-01-15 19:48:47.00	14.82	14.04	-37.9	-38.9	22.1	0.00e+00	40	27	0	465567744	48	6369
2026-01-15 19:48:48.00	14.62	14.07	-37.8	-38.8	22.2	0.00e+00	0	27	0	467664896	48	6312
2026-01-15 19:48:49.02	14.42	14.09	-37.9	-39.0	22.0	0.00e+00	2	27	0	469762048	48	6411
2026-01-15 19:48:50.02	14.22	14.11	-37.8	-38.9	22.1	0.00e+00	0	27	0	471859200	48	6377
2026-01-15 19:48:51.03	14.01	14.13	-37.7	-38.7	22.2	0.00e+00	91	27	0	473956352	48	6243
2026-01-15 19:48:52.05	13.81	14.15	-37.8	-38.9	21.9	0.00e+00	0	27	0	475004928	48	6364
2026-01-15 19:48:53.06	13.60	14.17	-37.6	-38.7	22.3	0.00e+00	0	27	0	477102080	48	6182
2026-01-15 19:48:54.07	13.40	14.19	-37.7	-38.8	22.1	0.00e+00	0	27	0	479199232	48	6298
2026-01-15 19:48:55.08	13.20	14.21	-37.9	-39.0	22.0	0.00e+00	0	27	0	481296384	48	6391
2026-01-15 19:48:56.09	12.99	14.23	-38.0	-39.1	22.0	0.00e+00	0	27	0	483393536	48	6521
2026-01-15 19:48:57.09	12.79	14.25	-37.8	-38.8	22.2	0.00e+00	0	27	0	485490688	48	6311
2026-01-15 19:48:58.10	12.58	14.27	-37.6	-38.7	22.2	0.00e+00	42	27	0	486539264	48	6184
2026-01-15 19:48:59.11	12.38	14.29	-37.5	-38.5	22.4	0.00e+00	0	27	0	488636416	48	6101
2026-01-15 19:49:00.12	12.17	14.31	-37.4	-38.4	22.5	0.00e+00	0	27	0	490733568	48	6020
2026-01-15 19:49:01.12	11.97	14.32	-37.1	-38.1	22.7	0.00e+00	0	27	0	492830720	48	5804
2026-01-15 19:49:02.13	11.76	14.34	-37.0	-38.0	22.9	0.00e+00	0	27	0	493879296	48	5696
2026-01-15 19:49:03.14	11.56	14.36	-36.9	-37.9	22.9	0.00e+00	7	27	0	495976448	48	5641
2026-01-15 19:49:04.15	11.35	14.37	-36.9	-37.8	22.9	0.00e+00	0	27	0	498073600	48	5622
2026-01-15 19:49:05.16	11.14	14.39	-36.9	-37.8	22.9	0.00e+00	73	27	0	500170752	48	5623
2026-01-15 19:49:06.17	10.94	14.41	-36.9	-37.9	23.0	0.00e+00	9	27	0	502267904	48	5656
2026-01-15 19:49:07.18	10.73	14.42	-36.9	-37.9	23.0	0.00e+00	17	27	0	503316480	46	6328
2026-01-15 19:49:08.19	10.52	14.44	-37.0	-38.0	22.9	0.00e+00	0	27	0	505413632	46	6391
2026-01-15 19:49:09.20	10.31	14.45	-37.1	-38.0	22.8	0.00e+00	25	27	0	507510784	46	6464
2026-01-15 19:49:10.21	10.11	14.47	-37.3	-38.3	22.6	0.00e+00	7	27	0	509607936	46	6661
2026-01-15 19:49:11.22	9.90	14.48	-37.4	-38.4	22.6	0.00e+00	0	27	0	511705088	46	6731
2026-01-15 19:49:12.23	9.69	14.49	-37.4	-38.5	22.4	0.00e+00	91	27	0	513802240	46	6804
2026-01-15 19:49:13.24	9.48	14.51	-37.5	-38.5	22.5	0.00e+00	0	27	0	514850816	46	6822
2026-01-15 19:49:14.25	9.27	14.52	-37.0	-38.0	22.7	0.00e+00	74	27	0	516947968	46	6454
2026-01-15 19:49:15.26	9.06	14.53	-36.9	-37.9	22.9	0.00e+00	0	27	0	519045120	46	6349
2026-01-15 19:49:16.27	8.85	14.54	-36.8	-37.8	22.7	0.00e+00	0	27	0	521142272	46	6281
2026-01-15 19:49:17.28	8.65	14.56	-37.0	-38.0	22.9	0.00e+00	12	27	0	523239424	46	6419
2026-01-15 19:49:18.29	8.44	14.57	-37.0	-38.0	22.8	0.00e+00	0	27	0	524288000	46	6433
2026-01-15 19:49:19.30	8.23	14.58	-37.2	-38.2	22.6	0.00e+00	90	27	0	526385152	46	6559
2026-01-15 19:49:20.31	8.02	14.59	-37.5	-38.5	22.3	0.00e+00	0	27	0	528482304	46	6818
2026-01-15 19:49:21.32	7.81	14.60	-37.6	-38.6	22.4	0.00e+00	55	27	0	530579456	46	6919
2026-01-15 19:49:22.33	7.60	14.61	-37.7	-38.8	22.4	0.00e+00	0	27	0	532676608	46	7033
2026-01-15 19:49:23.34	7.39	14.62	-37.6	-38.7	22.2	0.00e+00	0	27	0	533725184	46	6964
2026-01-15 19:49:24.34	7.18	14.63	-37.6	-38.6	22.3	0.00e+00	0	27	0	535822336	48	6171
2026-01-15 19:49:25.35	6.97	14.64	-37.6	-38.6	22.3	0.00e+00	0	27	0	537919488	48	6170
2026-01-15 19:49:26.36	6.76	14.65	-37.4	-38.4	22.6	0.00e+00	35	27	0	540016640	48	6010
2026-01-15 19:49:27.37	6.55	14.65	-37.4	-38.4	22.5	0.00e+00	0	27	0	542113792	48	5979
2026-01-15 19:49:28.38	6.34	14.66	-37.3	-38.3	22.6	0.00e+00	92	27	0	543162368	48	5944
2026-01-15 19:49:29.39	6.13	14.67	-37.5	-38.5	22.5	0.00e+00	0	27	0	545259520	48	6068
2026-01-15 19:49:30.40	5.92	14.68	-37.7	-38.7	22.3	0.00e+00	0	27	0	547356672	48	6228
2026-01-15 19:49:31.41	5.70	14.68	-37.4	-38.4	22.5	0.00e+00	0	27	0	549453824	48	5985
2026-01-15 19:49:32.42	5.49	14.69	-37.3	-38.3	22.6	0.00e+00	0	27	0	551550976	48	5899
2026-01-15 19:49:33.43	5.28	14.69	-37.2	-38.2	22.7	0.00e+00	92	27	0	552599552	48	5829
2026-01-15 19:49:34.44	5.07	14.70	-37.1	-38.1	22.8	0.00e+00	0	27	0	554696704	48	5787
2026-01-15 19:49:35.45	4.86	14.70	-37.2	-38.1	22.8	0.00e+00	81	27	0	556793856	48	5820
2026-01-15 19:49:36.46	4.65	14.71	-37.2	-38.2	22.8	0.00e+00	0	27	0	558891008	48	5854
2026-01-15 19:49:37.47	4.44	14.71	-37.1	-38.2	22.8	0.00e+00	0	27	0	560988160	48	5843
2026-01-15 19:49:38.48	4.23	14.72	-37.2	-38.3	22.7	0.00e+00	0	27	0	562036736	48	5912
2026-01-15 19:49:39.49	4.01	14.72	-37.5	-38.6	22.4	0.00e+00	0	27	0	564133888	48	6123
2026-01-15 19:49:40.50	3.80	14.72	-37.5	-38.6	22.5	0.00e+00	3	27	0	566231040	48	6108
2026-01-15 19:49:41.51	3.59	14.72	-37.5	-38.6	22.3	0.00e+00	0	27	0	568328192	48	6162
2026-01-15 19:49:42.52	3.38	14.73	-37.5	-38.6	22.4	0.00e+00	80	27	0	570425344	48	6119
2026-01-15 19:49:43.53	3.17	14.73	-37.5	-38.6	22.4	0.00e+00	0	27	0	571473920	48	6129
2026-01-15 19:49:44.54	2.96	14.73	-37.6	-38.6	22.4	0.00e+00	0	27	0	573571072	48	6145
2026-01-15 19:49:45.55	2.74	14.73	-37.6	-38.7	22.3	0.00e+00	0	27	0	575668224	48	6190
2026-01-15 19:49:46.56	2.53	14.73	-37.3	-38.4	22.6	0.00e+00	0	27	0	577765376	48	5981
2026-01-15 19:49:47.57	2.32	14.73	-37.5	-38.5	22.4	0.00e+00	3	27	0	579862528	48	6066
2026-01-15 19:49:48.58	2.11	14.73	-37.2	-38.2	22.8	0.00e+00	0	27	0	581959680	48	5837
2026-01-15 19:49:49.59	1.90	14.73	-36.9	-37.9	23.0	0.00e+00	91	27	0	583008256	48	5671
2026-01-15 19:49:50.60	1.69	14.73	-36.9	-37.8	23.1	0.00e+00	0	27	0	585105408	48	5611
2026-01-15 19:49:51.61	1.47	14.73	-36.8	-37.7	23.1	0.00e+00	0	27	0	587202560	48	5550
2026-01-15 19:49:52.62	1.26	14.73	-36.8	-37.8	23.1	0.00e+00	0	27	0	589299712	46	6277
2026-01-15 19:49:53.63	1.05	14.72	-36.9	-37.9	22.9	0.00e+00	0	27	0	591396864	46	6357
2026-01-15 19:49:54.64	0.84	14.72	-37.1	-38.1	22.8	0.00e+00	18	27	0	592445440	46	6532
2026-01-15 19:49:55.65	0.63	14.72	-37.3	-38.3	22.6	0.00e+00	0	27	0	594542592	46	6672
2026-01-15 19:49:56.66	0.42	14.72	-37.4	-38.4	22.5	0.00e+00	92	27	0	596639744	46	6720
2026-01-15 19:49:57.67	0.20	14.71	-37.6	-38.7	22.3	0.00e+00	0	27	0	598736896	46	6966
2026-01-15 19:49:58.68	359.99	14.71	-37.7	-38.7	22.3	0.00e+00	92	27	0	600834048	46	6985
2026-01-15 19:49:59.69	359.78	14.70	-37.8	-38.8	22.3	0.00e+00	0	27	0	601882624	48	6293
2026-01-15 19:50:00.70	359.57	14.70	-37.8	-38.8	22.3	0.00e+00	0	27	0	603979776	48	6283
2026-01-15 19:50:01.71	359.36	14.69	-37.9	-38.9	22.2	0.00e+00	11	27	0	606076928	48	6376
2026-01-15 19:50:02.72	359.15	14.69	-37.7	-38.8	22.2	0.00e+00	0	27	0	608174080	48	6268
2026-01-15 19:50:03.73	358.94	14.68	-37.9	-39.0	22.1	0.00e+00	91	27	0	610271232	48	6419
2026-01-15 19:50:04.74	358.73	14.67	-38.0	-39.1	21.6	0.00e+00	0	27	0	611319808	48	6494
2026-01-15 19:50:05.75	358.51	14.67	-37.9	-39.0	21.9	0.00e+00	90	27	0	613416960	48	6432
2026-01-15 19:50:06.76	358.30	14.66	-38.0	-39.1	21.9	0.00e+00	0	27	0	615514112	48	6531
2026-01-15 19:50:07.77	358.09	14.65	-38.0	-39.1	21.8	0.00e+00	0	27	0	617611264	48	6487
2026-01-15 19:50:08.78	357.88	14.65	-37.8	-38.9	22.1	0.00e+00	0	27	0	619708416	48	6333
2026-01-15 19:50:09.79	357.67	14.64	-37.9	-39.0	22.1	0.00e+00	0	27	0	621805568	48	6427
2026-01-15 19:50:10.80	357.46	14.63	-37.5	-38.6	22.4	0.00e+00	92	27	0	622854144	48	6104
2026-01-15 19:50:11.81	357.25	14.62	-37.3	-38.4	22.6	0.00e+00	0	27	0	624951296	48	5979
2026-01-15 19:50:12.82	357.04	14.61	-37.4	-38.5	22.3	0.00e+00	56	27	0	627048448	48	6041
2026-01-15 19:50:13.83	356.83	14.60	-37.4	-38.4	22.6	0.00e+00	0	27	0	629145600	48	6000
2026-01-15 19:50:14.84	356.62	14.59	-37.3	-38.3	22.7	0.00e+00	0	27	0	631242752	48	5897
2026-01-15 19:50:15.85	356.41	14.58	-36.9	-37.9	22.9	0.00e+00	0	27	0	632291328	48	5663
2026-01-15 19:50:16.86	356.20	14.57	-37.2	-38.2	22.7	0.00e+00	0	27	0	634388480	48	5859
2026-01-15 19:50:17.87	355.99	14.56	-37.1	-38.1	22.7	0.00e+00	9	27	0	636485632	48	5822
2026-01-15 19:50:18.88	355.78	14.54	-37.2	-38.3	22.7	0.00e+00	0	27	0	638582784	48	5920
2026-01-15 19:50:19.89	355.58	14.53	-37.4	-38.5	22.5	0.00e+00	63	27	0	640679936	48	6044
2026-01-15 19:50:20.91	355.36	14.52	-37.4	-38.6	22.6	0.00e+00	11	27	0	641728512	48	6105
2026-01-15 19:50:21.91	355.16	14.51	-37.2	-38.3	22.7	0.00e+00	0	27	0	643825664	48	5954
2026-01-15 19:50:22.92	354.95	14.49	-37.1	-38.2	22.6	0.00e+00	0	27	0	645922816	48	5880
2026-01-15 19:50:23.93	354.74	14.48	-37.0	-38.0	22.9	0.00e+00	0	27	0	648019968	48	5736
2026-01-15 19:50:24.94	354.53	14.47	-36.8	-37.7	23.2	0.00e+00	56	27	0	650117120	46	6227
2026-01-15 19:50:25.95	354.33	14.45	-36.9	-37.8	23.1	0.00e+00	0	27	0	651165696	46	6287
2026-01-15 19:50:26.96	354.12	14.44	-36.8	-37.7	22.9	0.00e+00	92	27	0	653262848	46	6211
2026-01-15 19:50:27.97	353.91	14.42	-36.7	-37.6	23.1	0.00e+00	0	27	0	655360000	46	6124
2026-01-15 19:50:28.98	353.70	14.41	-36.8	-37.7	22.9	0.00e+00	0	27	0	657457152	46	6225
2026-01-15 19:50:29.99	353.50	14.39	-36.9	-37.9	23.0	0.00e+00	0	27	0	659554304	46	6345
2026-01-15 19:50:31.00	353.29	14.37	-37.0	-38.0	22.9	0.00e+00	0	27	0	660602880	46	6454
2026-01-15 19:50:32.01	353.08	14.36	-37.1	-38.2	22.7	0.00e+00	12	27	0	662700032	46	6563
2026-01-15 19:50:33.02	352.88	14.34	-37.1	-38.2	22.8	0.00e+00	0	27	0	664797184	46	6547
2026-01-15 19:50:34.03	352.67	14.32	-37.4	-38.4	22.6	0.00e+00	91	27	0	666894336	46	6730
2026-01-15 19:50:35.04	352.47	14.31	-37.4	-38.4	22.4	0.00e+00	0	27	0	668991488	46	6728
2026-01-15 19:50:36.05	352.26	14.29	-37.7	-38.7	22.4	0.00e+00	72	27	0	670040064	46	6978
2026-01-15 19:50:37.06	352.05	14.27	-37.8	-38.9	22.2	0.00e+00	0	27	0	672137216	48	6335
2026-01-15 19:50:38.07	351.85	14.25	-37.9	-38.9	22.0	0.00e+00	0	27	0	674234368	48	6390
2026-01-15 19:50:39.07	351.65	14.23	-37.8	-38.9	22.2	0.00e+00	0	27	0	676331520	48	6350
2026-01-15 19:50:40.09	351.44	14.21	-37.8	-38.8	22.2	0.00e+00	0	27	0	678428672	48	6300
2026-01-15 19:50:41.10	351.24	14.19	-37.5	-38.5	22.5	0.00e+00	0	27	0	679477248	48	6082
2026-01-15 19:50:42.11	351.03	14.17	-37.7	-38.7	22.3	0.00e+00	0	27	0	681574400	48	6203
2026-01-15 19:50:43.11	350.83	14.15	-37.6	-38.7	22.6	0.00e+00	49	27	0	683671552	48	6182
2026-01-15 19:50:44.12	350.63	14.13	-37.6	-38.6	22.5	0.00e+00	0	27	0	685768704	48	6151
2026-01-15 19:50:45.14	350.42	14.11	-37.3	-38.3	22.6	0.00e+00	0	27	0	687865856	48	5959
2026-01-15 19:50:46.14	350.22	14.09	-37.3	-38.4	22.6	0.00e+00	8	27	0	689963008	48	5974
2026-01-15 19:50:47.15	350.02	14.07	-37.3	-38.3	22.6	0.00e+00	0	27	0	691011584	48	5945
2026-01-15 19:50:48.16	349.82	14.04	-37.0	-37.9	22.9	0.00e+00	21	27	0	693108736	48	5683
2026-01-15 19:50:49.17	349.61	14.02	-37.1	-38.1	22.8	0.00e+00	11	27	0	695205888	48	5784
2026-01-15 19:50:50.18	349.41	14.00	-36.9	-37.9	22.9	0.00e+00	75	27	0	697303040	48	5644
2026-01-15 19:50:51.19	349.21	13.98	-37.2	-38.2	22.9	0.00e+00	0	27	0	699400192	48	5830
2026-01-15 19:50:52.20	349.01	13.95	-37.2	-38.2	22.8	0.00e+00	0	27	0	700448768	48	5837
2026-01-15 19:50:53.21	348.81	13.93	-37.0	-38.0	22.8	0.00e+00	5	27	0	702545920	48	5709
2026-01-15 19:50:54.22	348.61	13.90	-37.0	-38.0	22.6	0.00e+00	0	27	0	704643072	48	5743
2026-01-15 19:50:55.23	348.41	13.88	-36.8	-37.7	23.1	0.00e+00	68	27	0	706740224	48	5555
2026-01-15 19:50:56.24	348.21	13.85	-36.9	-37.9	23.0	0.00e+00	26	27	0	708837376	48	5633
2026-01-15 19:50:57.25	348.01	13.83	-36.7	-37.6	23.1	0.00e+00	92	27	0	709885952	46	6151
2026-01-15 19:50:58.26	347.81	13.80	-36.8	-37.7	23.0	0.00e+00	0	27	0	711983104	46	6241
2026-01-15 19:50:59.27	347.61	13.78	-36.8	-37.8	22.9	0.00e+00	0	27	0	714080256	46	6284
2026-01-15 19:51:00.28	347.42	13.75	-37.1	-38.1	22.8	0.00e+00	0	27	0	716177408	46	6468
2026-01-15 19:51:01.29	347.22	13.73	-37.1	-38.1	22.8	0.00e+00	0	27	0	718274560	46	6517
2026-01-15 19:51:02.30	347.02	13.70	-37.4	-38.5	22.5	0.00e+00	8	27	0	719323136	46	6786
2026-01-15 19:51:03.31	346.82	13.67	-37.5	-38.6	22.4	0.00e+00	0	27	0	721420288	46	6851
2026-01-15 19:51:04.32	346.63	13.64	-37.5	-38.6	22.4	0.00e+00	91	27	0	723517440	46	6879
2026-01-15 19:51:05.33	346.43	13.62	-37.6	-38.6	22.4	0.00e+00	0	27	0	725614592	46	6927
2026-01-15 19:51:06.34	346.23	13.59	-37.4	-38.6	22.4	0.00e+00	0	27	0	727711744	46	6856
2026-01-15 19:51:07.35	346.04	13.56	-37.3	-38.4	22.4	0.00e+00	0	27	0	728760320	46	6729
2026-01-15 19:51:08.36	345.84	13.53	-37.4	-38.6	22.3	0.00e+00	0	27	0	730857472	46	6868
2026-01-15 19:51:09.36	345.65	13.50	-37.5	-38.7	22.2	0.00e+00	9	27	0	732954624	46	6940
2026-01-15 19:51:10.37	345.46	13.47	-37.4	-38.5	22.5	0.00e+00	0	27	0	735051776	46	6803
2026-01-15 19:51:11.38	345.26	13.45	-37.5	-38.7	22.2	0.00e+00	90	27	0	737148928	46	6972
2026-01-15 19:51:12.39	345.07	13.42	-37.7	-38.9	22.1	0.00e+00	0	27	0	738197504	46	7162
2026-01-15 19:51:13.40	344.87	13.39	-37.7	-38.9	22.1	0.00e+00	78	27	0	740294656	46	7145
2026-01-15 19:51:14.41	344.68	13.36	-37.7	-38.9	22.1	0.00e+00	0	27	0	742391808	48	6360
2026-01-15 19:51:15.42	344.49	13.32	-37.6	-38.8	22.1	0.00e+00	0	27	0	744488960	48	6296
2026-01-15 19:51:16.43	344.30	13.29	-37.4	-38.6	22.4	0.00e+00	0	27	0	746586112	48	6122
2026-01-15 19:51:17.43	344.11	13.26	-37.3	-38.4	22.5	0.00e+00	0	27	0	747634688	48	6008
2026-01-15 19:51:18.44	343.92	13.23	-37.0	-38.1	22.7	0.00e+00	92	27	0	749731840	48	5802
2026-01-15 19:51:19.45	343.72	13.20	-37.1	-38.2	22.6	0.00e+00	0	27	0	751828992	48	5893
2026-01-15 19:51:20.46	343.53	13.17	-36.9	-37.9	22.8	0.00e+00	92	27	0	753926144	48	5690
2026-01-15 19:51:21.47	343.34	13.14	-36.8	-37.9	22.8	0.00e+00	0	27	0	756023296	48	5692
2026-01-15 19:51:22.49	343.15	13.10	-36.8	-37.9	22.9	0.00e+00	0	27	0	758120448	48	5675
2026-01-15 19:51:23.49	342.97	13.07	-36.9	-38.0	22.9	0.00e+00	0	27	0	759169024	48	5707
2026-01-15 19:51:24.50	342.78	13.04	-36.8	-38.0	22.8	0.00e+00	0	27	0	761266176	48	5699
2026-01-15 19:51:25.51	342.59	13.00	-36.8	-37.9	22.8	0.00e+00	85	27	0	763363328	46	6381
2026-01-15 19:51:26.52	342.40	12.97	-36.7	-37.9	22.9	0.00e+00	0	27	0	765460480	46	6320
2026-01-15 19:51:27.53	342.21	12.94	-36.7	-37.7	22.9	0.00e+00	92	27	0	766509056	46	6242
2026-01-15 19:51:28.54	342.03	12.90	-36.6	-37.7	23.1	0.00e+00	0	27	0	768606208	46	6191
2026-01-15 19:51:29.55	341.84	12.87	-36.6	-37.6	23.1	0.00e+00	0	27	0	770703360	46	6164
2026-01-15 19:51:30.56	341.65	12.83	-36.4	-37.4	23.4	0.00e+00	0	27	0	772800512	46	6030
2026-01-15 19:51:31.57	341.47	12.80	-36.1	-37.1	23.4	0.00e+00	0	27	0	774897664	46	5828
2026-01-15 19:51:32.58	341.28	12.76	-36.2	-37.2	23.5	0.00e+00	62	27	0	775946240	46	5863
2026-01-15 19:51:33.59	341.10	12.73	-36.1	-37.1	23.4	0.00e+00	0	27	0	778043392	46	5823
2026-01-15 19:51:34.60	340.91	12.69	-36.4	-37.4	23.2	0.00e+00	75	27	0	780140544	46	6030
2026-01-15 19:51:35.61	340.73	12.66	-36.4	-37.5	23.2	0.00e+00	0	27	0	782237696	46	6044
2026-01-15 19:51:36.62	340.55	12.62	-36.7	-37.8	23.0	0.00e+00	0	27	0	784334848	46	6290
2026-01-15 19:51:37.63	340.36	12.59	-36.8	-38.0	22.7	0.00e+00	0	27	0	786432000	46	6401
2026-01-15 19:51:38.64	340.18	12.55	-37.0	-38.2	22.5	0.00e+00	0	27	0	787480576	46	6562
2026-01-15 19:51:39.65	340.00	12.51	-37.1	-38.3	22.6	0.00e+00	63	27	0	789577728	46	6627
2026-01-15 19:51:40.65	339.82	12.48	-37.4	-38.6	22.3	0.00e+00	0	27	0	791674880	46	6889
2026-01-15 19:51:41.66	339.64	12.44	-37.5	-38.8	22.1	0.00e+00	75	27	0	793772032	46	7058
2026-01-15 19:51:42.67	339.46	12.40	-37.4	-38.7	22.2	0.00e+00	0	27	0	795869184	46	6964
2026-01-15 19:51:43.68	339.28	12.36	-37.8	-39.2	21.8	0.00e+00	92	27	0	796917760	48	6577
2026-01-15 19:51:44.69	339.10	12.33	-37.8	-39.1	21.9	0.00e+00	0	27	0	799014912	48	6515
2026-01-15 19:51:45.70	338.92	12.29	-37.8	-39.2	21.8	0.00e+00	0	27	0	801112064	48	6548
2026-01-15 19:51:46.71	338.74	12.25	-37.8	-39.1	21.9	0.00e+00	44	27	0	803209216	48	6503
2026-01-15 19:51:47.72	338.56	12.21	-37.8	-39.1	21.9	0.00e+00	0	27	0	805306368	48	6532
2026-01-15 19:51:48.73	338.38	12.17	-37.8	-39.1	21.8	0.00e+00	7	27	0	806354944	48	6505
2026-01-15 19:51:49.74	338.20	12.13	-37.7	-39.0	21.9	0.00e+00	0	27	0	808452096	48	6397
2026-01-15 19:51:50.75	338.03	12.10	-37.8	-39.0	21.9	0.00e+00	92	27	0	810549248	48	6459
2026-01-15 19:51:51.76	337.85	12.06	-37.7	-38.9	22.1	0.00e+00	0	27	0	812646400	48	6321
2026-01-15 19:51:52.77	337.68	12.02	-37.8	-39.0	21.8	0.00e+00	0	27	0	814743552	48	6407
2026-01-15 19:51:53.78	337.50	11.98	-37.9	-39.1	21.8	0.00e+00	0	27	0	815792128	48	6510
2026-01-15 19:51:54.79	337.32	11.94	-38.0	-39.2	21.7	0.00e+00	0	27	0	817889280	48	6574
2026-01-15 19:51:55.80	337.15	11.90	-38.0	-39.2	21.8	0.00e+00	90	27	0	819986432	48	6601
2026-01-15 19:51:56.81	336.98	11.86	-38.1	-39.3	21.7	0.00e+00	29	27	0	822083584	48	6638
2026-01-15 19:51:57.82	336.80	11.82	-38.0	-39.3	21.7	0.00e+00	90	27	0	824180736	48	6633
2026-01-15 19:51:58.83	336.63	11.78	-38.0	-39.2	21.7	0.00e+00	0	27	0	825229312	48	6604
2026-01-15 19:51:59.84	336.46	11.73	-38.4	-39.6	21.3	0.00e+00	0	27	0	827326464	48	6919
2026-01-15 19:52:00.85	336.28	11.69	-38.3	-39.6	21.5	0.00e+00	0	27	0	829423616	48	6872
2026-01-15 19:52:01.86	336.11	11.65	-38.1	-39.3	21.6	0.00e+00	0	27	0	831520768	48	6617
2026-01-15 19:52:02.87	335.94	11.61	-38.2	-39.4	21.6	0.00e+00	85	27	0	833617920	48	6699
2026-01-15 19:52:03.88	335.77	11.57	-38.4	-39.6	21.3	0.00e+00	0	27	0	834666496	48	6872
2026-01-15 19:52:04.89	335.60	11.53	-38.4	-39.6	21.6	0.00e+00	34	27	0	836763648	48	6918
2026-01-15 19:52:05.90	335.43	11.49	-38.4	-39.6	21.3	0.00e+00	0	27	0	838860800	48	6887
2026-01-15 19:52:06.91	335.26	11.44	-38.6	-39.8	21.4	0.00e+00	0	27	0	840957952	48	7025
2026-01-15 19:52:07.92	335.09	11.40	-38.3	-39.4	21.4	0.00e+00	0	27	0	843055104	48	6759
2026-01-15 19:52:08.93	334.93	11.36	-38.3	-39.5	21.5	0.00e+00	0	27	0	844103680	48	6783
2026-01-15 19:52:09.94	334.76	11.32	-37.8	-38.8	22.1	0.00e+00	70	27	0	846200832	48	6295
2026-01-15 19:52:10.95	334.59	11.27	-37.8	-38.8	22.2	0.00e+00	0	27	0	848297984	48	6260
2026-01-15 19:52:11.96	334.42	11.23	-37.5	-38.6	22.3	0.00e+00	92	27	0	850395136	48	6108
2026-01-15 19:52:12.97	334.26	11.19	-37.6	-38.7	22.2	0.00e+00	0	27	0	852492288	48	6180
2026-01-15 19:52:13.98	334.09	11.14	-37.6	-38.6	22.2	0.00e+00	9	27	0	854589440	48	6166
2026-01-15 19:52:14.99	333.93	11.10	-37.9	-39.0	21.9	0.00e+00	0	27	0	855638016	48	6426
2026-01-15 19:52:15.99	333.76	11.06	-38.2	-39.3	21.6	0.00e+00	0	27	0	857735168	48	6663
2026-01-15 19:52:17.00	333.60	11.01	-38.6	-39.7	21.3	0.00e+00	67	27	0	859832320	48	7005
2026-01-15 19:52:18.01	333.44	10.97	-39.0	-40.3	20.8	0.00e+00	0	27	0	861929472	50	6643
2026-01-15 19:52:19.02	333.27	10.93	-39.2	-40.5	20.6	0.00e+00	92	27	0	864026624	50	6783
2026-01-15 19:52:20.04	333.11	10.88	-39.6	-41.0	20.1	0.00e+00	0	27	0	865075200	50	7182
2026-01-15 19:52:21.04	332.95	10.84	-39.3	-40.6	20.6	0.00e+00	66	27	0	867172352	50	6905
2026-01-15 19:52:22.05	332.79	10.79	-39.2	-40.4	20.6	0.00e+00	0	27	0	869269504	50	6749
2026-01-15 19:52:23.07	332.62	10.75	-39.1	-40.4	20.8	0.00e+00	0	27	0	871366656	50	6695
2026-01-15 19:52:24.07	332.46	10.70	-39.2	-40.4	20.8	0.00e+00	0	27	0	873463808	50	6733
2026-01-15 19:52:25.09	332.30	10.66	-38.8	-40.0	21.0	0.00e+00	0	27	0	874512384	50	6425
2026-01-15 19:52:26.10	332.14	10.61	-38.5	-39.7	21.4	0.00e+00	20	27	0	876609536	50	6195
2026-01-15 19:52:27.10	331.99	10.57	-38.5	-39.7	21.3	0.00e+00	0	27	0	878706688	50	6182
2026-01-15 19:52:28.11	331.83	10.52	-38.6	-39.8	21.2	0.00e+00	63	27	0	880803840	50	6283
2026-01-15 19:52:29.13	331.67	10.48	-39.3	-40.6	20.5	0.00e+00	0	27	0	882900992	50	6874
2026-01-15 19:52:30.13	331.51	10.43	-39.3	-40.6	20.4	0.00e+00	0	27	0	883949568	50	6862
2026-01-15 19:52:31.14	331.35	10.39	-39.9	-41.3	19.8	0.00e+00	4	27	0	886046720	52	6684
2026-01-15 19:52:32.15	331.20	10.34	-40.4	-42.0	19.2	0.00e+00	0	27	0	888143872	52	7176
2026-01-15 19:52:33.16	331.04	10.30	-41.0	-42.7	18.5	7.00e-07	65	27	0	890241024	54	6953
2026-01-15 19:52:34.17	330.88	10.25	-41.5	-43.4	18.3	0.00e+00	4	27	0	892338176	54	7514
2026-01-15 19:52:35.18	330.73	10.20	-41.6	-43.4	17.8	0.00e+00	66	27	0	893386752	54	7594
2026-01-15 19:52:36.19	330.57	10.16	-41.5	-43.3	18.1	0.00e+00	0	27	0	895483904	54	7507
2026-01-15 19:52:37.20	330.42	10.11	-41.2	-42.9	18.1	0.00e+00	28	27	0	897581056	54	7131
2026-01-15 19:52:38.21	330.27	10.06	-41.0	-42.7	18.7	0.00e+00	0	27	0	899678208	54	6942
2026-01-15 19:52:39.22	330.11	10.02	-41.0	-42.7	18.5	7.00e-07	0	27	0	901775360	54	6984
2026-01-15 19:52:40.23	329.96	9.97	-41.2	-42.9	18.4	0.00e+00	90	27	0	902823936	54	7135
2026-01-15 19:52:41.23	329.81	9.92	-40.8	-42.4	18.8	0.00e+00	0	27	0	904921088	54	6751
2026-01-15 19:52:42.24	329.66	9.88	-41.0	-42.6	18.6	0.00e+00	92	27	0	907018240	54	6922
2026-01-15 19:52:43.25	329.51	9.83	-40.8	-42.4	18.7	0.00e+00	0	27	0	909115392	54	6694
2026-01-15 19:52:44.26	329.36	9.78	-40.8	-42.4	18.8	0.00e+00	0	27	0	911212544	54	6741
2026-01-15 19:52:45.27	329.21	9.74	-40.7	-42.2	19.0	0.00e+00	0	27	0	912261120	54	6598
2026-01-15 19:52:46.28	329.06	9.69	-40.9	-42.5	18.9	0.00e+00	0	27	0	914358272	54	6785
2026-01-15 19:52:47.29	328.91	9.64	-40.3	-41.7	19.5	0.00e+00	75	27	0	916455424	54	6229
2026-01-15 19:52:48.30	328.76	9.59	-40.0	-41.4	19.7	0.00e+00	0	27	0	918552576	54	6026
2026-01-15 19:52:49.31	328.61	9.55	-39.9	-41.3	19.8	0.00e+00	90	27	0	920649728	54	5960
2026-01-15 19:52:50.32	328.46	9.50	-39.7	-41.1	20.0	0.00e+00	0	27	0	921698304	52	6479
2026-01-15 19:52:51.33	328.32	9.45	-39.9	-41.3	19.8	0.00e+00	67	27	0	923795456	52	6665
2026-01-15 19:52:52.34	328.17	9.40	-40.1	-41.5	19.7	0.00e+00	0	27	0	925892608	52	6795
2026-01-15 19:52:53.35	328.02	9.36	-40.0	-41.5	19.7	0.00e+00	26	27	0	927989760	52	6771
2026-01-15 19:52:54.36	327.88	9.31	-40.2	-41.7	19.4	0.00e+00	12	27	0	930086912	52	6930
2026-01-15 19:52:55.37	327.73	9.26	-40.0	-41.4	19.6	0.00e+00	0	27	0	932184064	52	6759
2026-01-15 19:52:56.38	327.59	9.21	-39.8	-41.1	20.0	0.00e+00	92	27	0	933232640	52	6522
2026-01-15 19:52:57.39	327.44	9.16	-39.7	-41.0	20.1	0.00e+00	0	27	0	935329792	52	6435
2026-01-15 19:52:58.40	327.30	9.11	-39.5	-40.8	20.2	0.00e+00	0	27	0	937426944	52	6298
2026-01-15 19:52:59.41	327.15	9.07	-39.4	-40.7	20.4	0.00e+00	0	27	0	939524096	52	6176
2026-01-15 19:53:00.42	327.01	9.02	-39.1	-40.4	20.6	0.00e+00	0	27	0	941621248	52	5975
2026-01-15 19:53:01.42	326.87	8.97	-39.2	-40.5	20.7	0.00e+00	0	27	0	942669824	52	6037
2026-01-15 19:53:02.44	326.73	8.92	-39.0	-40.3	20.8	0.00e+00	0	27	0	944766976	52	5902
2026-01-15 19:53:03.44	326.59	8.87	-39.1	-40.3	20.8	0.00e+00	92	27	0	946864128	52	5940
2026-01-15 19:53:04.45	326.45	8.82	-39.1	-40.4	20.6	0.00e+00	0	27	0	948961280	52	5972
2026-01-15 19:53:05.46	326.31	8.77	-38.9	-40.1	20.8	0.00e+00	92	27	0	951058432	52	5820
2026-01-15 19:53:06.47	326.17	8.72	-39.1	-40.3	20.6	0.00e+00	0	27	0	952107008	52	5954
2026-01-15 19:53:07.48	326.03	8.68	-39.1	-40.3	20.6	0.00e+00	0	27	0	954204160	52	5955
2026-01-15 19:53:08.49	325.89	8.63	-39.2	-40.5	20.5	0.00e+00	0	27	0	956301312	52	6072
2026-01-15 19:53:09.50	325.75	8.58	-39.4	-40.7	20.4	0.00e+00	0	27	0	958398464	52	6192
2026-01-15 19:53:10.51	325.61	8.53	-39.4	-40.8	20.3	0.00e+00	90	27	0	960495616	52	6254
2026-01-15 19:53:11.52	325.47	8.48	-39.5	-40.8	20.2	0.00e+00	0	27	0	961544192	52	6287
2026-01-15 19:53:12.52	325.34	8.43	-39.6	-41.0	20.0	0.00e+00	52	27	0	963641344	52	6415
2026-01-15 19:53:13.53	325.20	8.38	-39.7	-41.0	20.0	0.00e+00	0	27	0	965738496	52	6451
2026-01-15 19:53:14.54	325.06	8.33	-39.6	-41.0	20.1	0.00e+00	0	27	0	967835648	52	6404
2026-01-15 19:53:15.55	324.93	8.28	-39.6	-40.9	20.1	0.00e+00	0	27	0	969932800	52	6380
2026-01-15 19:53:16.56	324.79	8.23	-39.7	-41.0	20.1	0.00e+00	0	27	0	970981376	52	6443
2026-01-15 19:53:17.57	324.66	8.18	-39.7	-41.0	20.1	0.00e+00	0	27	0	973078528	52	6435
2026-01-15 19:53:18.58	324.52	8.13	-39.5	-40.8	20.2	0.00e+00	0	27	0	975175680	52	6309
2026-01-15 19:53:19.59	324.39	8.08	-39.6	-40.9	20.1	0.00e+00	51	27	0	977272832	52	6335
2026-01-15 19:53:20.60	324.26	8.03	-39.4	-40.7	20.2	0.00e+00	0	27	0	979369984	52	6180
2026-01-15 19:53:21.61	324.12	7.98	-39.2	-40.4	20.5	0.00e+00	0	27	0	980418560	52	6000
2026-01-15 19:53:22.62	323.99	7.93	-39.2	-40.5	20.5	0.00e+00	0	27	0	982515712	52	6070
2026-01-15 19:53:23.63	323.86	7.88	-39.3	-40.5	20.6	0.00e+00	0	27	0	984612864	52	6100
2026-01-15 19:53:24.64	323.73	7.83	-39.2	-40.5	20.4	0.00e+00	1	27	0	986710016	52	6045
2026-01-15 19:53:25.65	323.60	7.78	-39.3	-40.6	20.3	0.00e+00	0	27	0	988807168	52	6119
2026-01-15 19:53:26.66	323.47	7.73	-39.1	-40.4	20.5	0.00e+00	75	27	0	989855744	52	6009
2026-01-15 19:53:27.67	323.34	7.68	-39.1	-40.3	20.6	0.00e+00	0	27	0	991952896	52	5937
2026-01-15 19:53:28.68	323.21	7.63	-39.0	-40.2	20.7	0.00e+00	89	27	0	994050048	52	5896
2026-01-15 19:53:29.69	323.08	7.58	-38.7	-40.0	20.9	0.00e+00	0	27	0	996147200	50	6396
2026-01-15 19:53:30.70	322.95	7.53	-38.5	-39.7	21.1	0.00e+00	0	27	0	998244352	50	6224
2026-01-15 19:53:31.71	322.82	7.48	-38.3	-39.5	21.4	0.00e+00	57	27	0	1000341504	50	6051
2026-01-15 19:53:32.72	322.69	7.43	-38.1	-39.2	21.6	0.00e+00	0	27	0	1001390080	50	5880
2026-01-15 19:53:33.72	322.57	7.38	-38.0	-39.1	21.6	0.00e+00	92	27	0	1003487232	50	5804
2026-01-15 19:53:34.73	322.44	7.33	-38.0	-39.1	21.6	0.00e+00	0	27	0	1005584384	50	5824
2026-01-15 19:53:35.74	322.31	7.28	-37.9	-39.0	21.8	0.00e+00	92	27	0	1007681536	50	5716
2026-01-15 19:53:36.75	322.19	7.23	-37.9	-39.0	21.7	0.00e+00	0	27	0	1009778688	50	5738
2026-01-15 19:53:37.76	322.06	7.18	-38.1	-39.2	21.5	0.00e+00	0	27	0	1010827264	50	5859
2026-01-15 19:53:38.77	321.94	7.13	-38.1	-39.2	21.6	0.00e+00	0	27	0	1012924416	50	5861
2026-01-15 19:53:39.78	321.81	7.08	-38.3	-39.4	21.3	0.00e+00	0	27	0	1015021568	50	6013
2026-01-15 19:53:40.79	321.69	7.03	-38.4	-39.6	21.2	0.00e+00	0	27	0	1017118720	50	6136
2026-01-15 19:53:41.80	321.56	6.98	-38.3	-39.4	21.3	0.00e+00	0	27	0	1019215872	50	5997
2026-01-15 19:53:42.81	321.44	6.93	-38.5	-39.7	21.1	0.00e+00	83	27	0	1020264448	50	6223
2026-01-15 19:53:43.82	321.32	6.88	-38.5	-39.7	21.1	0.00e+00	0	27	0	1022361600	50	6214
2026-01-15 19:53:44.83	321.20	6.83	-38.4	-39.6	21.2	0.00e+00	0	27	0	1024458752	50	6104
2026-01-15 19:53:45.84	321.07	6.78	-38.2	-39.4	21.4	0.00e+00	4	27	0	1026555904	50	5978
2026-01-15 19:53:46.85	320.95	6.72	-38.2	-39.3	21.4	0.00e+00	0	27	0	1028653056	50	5938
2026-01-15 19:53:47.85	320.83	6.67	-38.1	-39.2	21.6	0.00e+00	57	27	0	1029701632	50	5839
2026-01-15 19:53:48.86	320.71	6.62	-38.1	-39.2	21.6	0.00e+00	0	27	0	1031798784	50	5841
2026-01-15 19:53:49.87	320.59	6.57	-38.0	-39.1	21.6	0.00e+00	90	27	0	1033895936	50	5768
2026-01-15 19:53:50.88	320.47	6.52	-38.2	-39.3	21.4	0.00e+00	0	27	0	1035993088	50	5935
2026-01-15 19:53:51.89	320.35	6.47	-38.0	-39.1	21.5	0.00e+00	0	27	0	1038090240	50	5796
2026-01-15 19:53:52.90	320.23	6.42	-38.3	-39.5	21.2	0.00e+00	0	27	0	1039138816	50	6050
2026-01-15 19:53:53.91	320.11	6.37	-38.3	-39.5	21.2	0.00e+00	0	27	0	1041235968	50	6049
2026-01-15 19:53:54.92	320.00	6.32	-38.6	-39.8	20.9	0.00e+00	92	27	0	1043333120	50	6276
2026-01-15 19:53:55.93	319.88	6.27	-38.6	-39.8	20.9	0.00e+00	0	27	0	1045430272	50	6289
2026-01-15 19:53:56.94	319.76	6.22	-38.8	-40.0	20.7	0.00e+00	92	27	0	1047527424	50	6453
2026-01-15 19:53:57.95	319.64	6.17	-38.7	-40.0	20.7	0.00e+00	0	27	0	1048576000	50	6401
2026-01-15 19:53:58.95	319.53	6.12	-38.9	-40.2	20.7	0.00e+00	9	27	0	1050673152	50	6563
2026-01-15 19:53:59.96	319.41	6.06	-39.0	-40.3	20.5	0.00e+00	0	27	0	1052770304	50	6651
2026-01-15 19:54:00.97	319.30	6.01	-39.0	-40.2	20.6	0.00e+00	0	27	0	1054867456	50	6603
2026-01-15 19:54:01.98	319.18	5.96	-38.9	-40.2	20.5	0.00e+00	14	27	0	1056964608	50	6593
2026-01-15 19:54:02.99	319.07	5.91	-39.0	-40.3	20.5	0.00e+00	0	27	0	1058013184	50	6618
2026-01-15 19:54:04.00	318.95	5.86	-38.9	-40.1	20.5	0.00e+00	68	27	0	1060110336	50	6522
2026-01-15 19:54:05.01	318.84	5.81	-38.7	-39.9	20.8	0.00e+00	0	27	0	1062207488	50	6388
2026-01-15 19:54:06.02	318.72	5.76	-38.8	-40.1	20.6	0.00e+00	49	27	0	1064304640	50	6489
2026-01-15 19:54:07.03	318.61	5.71	-38.8	-40.1	20.7	0.00e+00	0	27	0	1066401792	50	6478
2026-01-15 19:54:08.04	318.50	5.66	-38.8	-40.0	20.7	0.00e+00	0	27	0	1068498944	50	6439
2026-01-15 19:54:09.05	318.39	5.61	-38.7	-39.9	20.8	0.00e+00	0	27	0	1069547520	50	6328
2026-01-15 19:54:10.06	318.27	5.55	-38.7	-40.0	20.6	0.00e+00	0	27	0	1071644672	50	6392
2026-01-15 19:54:11.07	318.16	5.50	-38.7	-40.0	20.7	0.00e+00	35	27	0	1073741824	50	6394
2026-01-15 19:54:12.08	318.05	5.45	-38.7	-39.9	20.5	0.00e+00	0	27	0	1075838976	50	6348
2026-01-15 19:54:13.09	317.94	5.40	-38.6	-39.8	20.6	0.00e+00	90	27	0	1077936128	50	6289
2026-01-15 19:54:14.10	317.83	5.35	-38.7	-39.9	20.7	0.00e+00	0	27	0	1078984704	50	6335
2026-01-15 19:54:15.11	317.72	5.30	-38.6	-39.8	20.8	0.00e+00	0	27	0	1081081856	50	6269
2026-01-15 19:54:16.12	317.61	5.25	-38.6	-39.9	20.7	0.00e+00	0	27	0	1083179008	50	6318
2026-01-15 19:54:17.12	317.50	5.20	-38.2	-39.4	21.1	0.00e+00	0	27	0	1085276160	50	5982
2026-01-15 19:54:18.13	317.39	5.15	-38.2	-39.3	21.2	0.00e+00	67	27	0	1086324736	50	5954
2026-01-15 19:54:19.14	317.28	5.10	-38.0	-39.1	21.1	0.00e+00	0	27	0	1088421888	50	5790
2026-01-15 19:54:20.15	317.18	5.04	-38.0	-39.2	21.3	0.00e+00	61	27	0	1090519040	50	5842
2026-01-15 19:54:21.16	317.07	4.99	-38.3	-39.5	21.0	0.00e+00	0	27	0	1092616192	50	6042
2026-01-15 19:54:22.17	316.96	4.94	-38.2	-39.3	21.1	0.00e+00	0	27	0	1094713344	50	5931
2026-01-15 19:54:23.18	316.85	4.89	-38.1	-39.2	21.3	0.00e+00	0	27	0	1096810496	50	5881
2026-01-15 19:54:24.20	316.75	4.84	-38.1	-39.2	21.3	0.00e+00	33	27	0	1097859072	50	5860
2026-01-15 19:54:25.21	316.64	4.79	-38.4	-39.6	20.9	0.00e+00	0	27	0	1099956224	50	6140
2026-01-15 19:54:26.22	316.54	4.74	-38.4	-39.6	21.0	0.00e+00	0	27	0	1102053376	50	6158
2026-01-15 19:54:27.23	316.43	4.69	-38.5	-39.7	20.8	0.00e+00	92	27	0	1104150528	50	6189
2026-01-15 19:54:28.23	316.33	4.64	-38.6	-39.8	20.6	0.00e+00	0	27	0	1106247680	50	6295
2026-01-15 19:54:29.25	316.22	4.59	-38.8	-40.1	20.4	0.00e+00	0	27	0	1107296256	50	6467
2026-01-15 19:54:30.26	316.12	4.53	-39.1	-40.4	20.2	0.00e+00	0	27	0	1109393408	50	6740
2026-01-15 19:54:31.27	316.01	4.48	-39.2	-40.6	20.0	0.00e+00	0	27	0	1111490560	50	6860
2026-01-15 19:54:32.28	315.91	4.43	-39.2	-40.6	19.9	0.00e+00	57	27	0	1113587712	50	6851
2026-01-15 19:54:33.28	315.81	4.38	-39.5	-40.9	19.7	0.00e+00	0	27	0	1115684864	50	7170
2026-01-15 19:54:34.29	315.70	4.33	-39.4	-40.8	19.9	0.00e+00	91	27	0	1116733440	50	7064
2026-01-15 19:54:35.30	315.60	4.28	-39.5	-40.9	19.7	0.00e+00	0	27	0	1118830592	50	7142
2026-01-15 19:54:36.31	315.50	4.23	-39.3	-40.7	19.9	0.00e+00	33	27	0	1120927744	50	6951
2026-01-15 19:54:37.32	315.40	4.18	-39.4	-40.8	19.6	0.00e+00	0	27	0	1123024896	50	7041
2026-01-15 19:54:38.33	315.30	4.13	-39.5	-40.9	19.8	0.00e+00	0	27	0	1125122048	50	7096
2026-01-15 19:54:39.34	315.20	4.08	-39.7	-41.2	19.5	0.00e+00	31	27	0	1126170624	50	7340
2026-01-15 19:54:40.35	315.10	4.03	-38.9	-40.1	20.4	0.00e+00	0	27	0	1128267776	50	6523
2026-01-15 19:54:41.36	315.00	3.97	-38.5	-39.7	20.7	0.00e+00	91	27	0	1130364928	50	6201
2026-01-15 19:54:42.36	314.90	3.92	-38.8	-40.1	20.2	0.00e+00	0	27	0	1132462080	50	6509
2026-01-15 19:54:43.37	314.80	3.87	-38.4	-39.6	20.7	0.00e+00	71	27	0	1134559232	50	6159
2026-01-15 19:54:44.38	314.70	3.82	-38.3	-39.6	20.7	0.00e+00	0	27	0	1135607808	50	6104
2026-01-15 19:54:45.40	314.60	3.77	-38.6	-39.8	20.6	0.00e+00	0	27	0	1137704960	50	6316
2026-01-15 19:54:46.41	314.50	3.72	-38.5	-39.7	20.8	0.00e+00	16	27	0	1139802112	50	6215
2026-01-15 19:54:47.42	314.40	3.67	-38.2	-39.4	21.0	0.00e+00	0	27	0	1141899264	50	5990
2026-01-15 19:54:48.43	314.30	3.62	-38.3	-39.4	20.7	0.00e+00	88	27	0	1143996416	50	6032
2026-01-15 19:54:49.44	314.21	3.57	-38.7	-40.0	20.3	0.00e+00	0	27	0	1146093568	50	6410
2026-01-15 19:54:50.44	314.11	3.52	-38.5	-39.7	20.6	1.50e-06	92	27	0	1147142144	50	6219
2026-01-15 19:54:51.45	314.01	3.47	-39.0	-40.3	20.1	0.00e+00	0	27	0	1149239296	50	6640
2026-01-15 19:54:52.46	313.92	3.42	-39.0	-40.4	20.0	0.00e+00	0	27	0	1151336448	50	6725
2026-01-15 19:54:53.47	313.82	3.37	-39.0	-40.4	19.9	0.00e+00	0	27	0	1153433600	50	6712
2026-01-15 19:54:54.48	313.73	3.32	-39.4	-40.8	19.6	0.00e+00	0	27	0	1154482176	50	7051
2026-01-15 19:54:55.49	313.63	3.26	-39.5	-41.0	19.6	0.00e+00	88	27	0	1156579328	50	7189
2026-01-15 19:54:56.50	313.54	3.21	-39.6	-41.1	19.2	0.00e+00	0	27	0	1158676480	50	7312
2026-01-15 19:54:57.51	313.44	3.16	-40.1	-41.7	18.8	0.00e+00	87	27	0	1160773632	52	6937
2026-01-15 19:54:58.52	313.35	3.11	-39.9	-41.4	19.0	0.00e+00	0	27	0	1162870784	52	6724
2026-01-15 19:54:59.53	313.25	3.06	-40.1	-41.7	18.7	0.00e+00	0	27	0	1164967936	52	6967
2026-01-15 19:55:00.54	313.16	3.01	-46.1	-55.6	3.6	0.00e+00	0	27	104	1166016512	58	24363
2026-01-15 19:55:01.55	313.07	2.96	-47.3	-62.5	3.6	1.51e+00	0	27	104	1166016512	60	48186
2026-01-15 19:55:02.55	312.97	2.91	-47.7	-62.8	3.6	1.51e+00	0	27	104	1166016512	60	50161
2026-01-15 19:55:03.56	312.88	2.86	-47.9	-63.1	3.6	1.51e+00	0	27	104	1166016512	60	51730
2026-01-15 19:55:04.57	312.79	2.81	-48.1	-63.3	3.6	1.51e+00	0	27	104	1166016512	60	52591
2026-01-15 19:55:05.58	312.70	2.76	-48.1	-63.3	3.6	1.51e+00	0	27	104	1166016512	60	52934
2026-01-15 19:55:06.59	312.61	2.71	-48.2	-63.4	3.6	1.51e+00	0	27	104	1166016512	60	53492
2026-01-15 19:55:07.60	312.51	2.66	-48.2	-63.4	3.6	1.51e+00	0	27	104	1166016512	60	53635
2026-01-15 19:55:08.61	312.42	2.61	-48.2	-63.4	3.6	1.51e+00	0	27	104	1166016512	60	53436
2026-01-15 19:55:09.62	312.33	2.56	-48.1	-63.4	3.6	1.51e+00	0	27	104	1166016512	60	53543
2026-01-15 19:55:10.63	312.24	2.51	-47.6	-63.4	3.6	1.51e+00	0	27	104	1166016512	60	53516
2026-01-15 19:55:11.64	312.15	2.46	-47.7	-63.2	3.6	1.51e+00	0	27	104	1166016512	60	52450
2026-01-15 19:55:12.65	312.06	2.41	-47.9	-63.3	3.6	1.51e+00	0	27	104	1166016512	60	52866
2026-01-15 19:55:13.66	311.97	2.36	-47.9	-63.3	3.6	1.51e+00	0	27	104	1166016512	60	52647
2026-01-15 19:55:14.67	311.88	2.31	-48.0	-63.3	3.6	1.51e+00	0	27	104	1166016512	60	52597
2026-01-15 19:55:15.67	311.80	2.26	-48.0	-63.2	3.6	1.51e+00	0	27	104	1166016512	60	52524
