passes_logs/2026/01/15/R4.6S_Anadyr/R4.6S_Anadyr__20260115_130406_SUOMI_NPP_rec.log

#Pass ID: 20260115_130406_SUOMI NPP
#Satellite: SUOMI NPP
#Configuration: NPP
#almurnet v.1.7.20251203
#Start time: 2026-01-15 13:04:09

#Version: 2.2.20231116
#Station: R4.6S_Anadyr
#Location: 177.4865 lon 64.73178 lat
#TLE: 1 37849U 11061A   26014.61059675  .00000037  00000+0  38639-4 0  9994
#TLE: 2 37849  98.7810 316.6625 0002460  64.3781 295.7649 14.19525105736658

#Time	Az	El	Level	Level2	SNR	BER	BlckErr	Temp	State	Recorded	gain1	gain2
2026-01-15 13:04:09.18	18.92	0.17	-48.4	-62.2	3.3	1.54e+00	0	27	0	0	60	46549
2026-01-15 13:04:10.18	18.98	0.22	-48.5	-63.8	3.6	1.51e+00	0	27	104	0	60	55690
2026-01-15 13:04:11.19	19.04	0.28	-48.4	-63.7	3.6	1.51e+00	0	28	104	0	60	55414
2026-01-15 13:04:12.20	19.09	0.33	-48.5	-63.8	3.6	1.51e+00	0	28	104	0	60	55704
2026-01-15 13:04:13.21	19.15	0.38	-48.5	-63.7	3.6	1.51e+00	0	28	104	0	60	55422
2026-01-15 13:04:14.22	19.21	0.44	-48.5	-63.7	3.6	1.51e+00	0	28	104	0	60	55417
2026-01-15 13:04:15.23	19.27	0.49	-48.4	-63.6	3.6	1.51e+00	0	28	104	0	60	54878
2026-01-15 13:04:16.24	19.32	0.55	-48.4	-63.6	3.6	1.51e+00	0	28	104	0	60	54458
2026-01-15 13:04:17.25	19.38	0.60	-48.3	-63.5	3.6	1.51e+00	0	28	104	0	60	54038
2026-01-15 13:04:18.26	19.44	0.66	-48.1	-63.3	3.6	1.51e+00	0	28	104	0	60	53013
2026-01-15 13:04:19.27	19.50	0.71	-47.6	-63.1	3.6	1.51e+00	0	28	104	0	60	51800
2026-01-15 13:04:20.28	19.56	0.77	-47.7	-62.9	3.6	1.51e+00	0	28	104	0	60	50572
2026-01-15 13:04:21.29	19.62	0.82	-47.5	-62.7	3.6	1.51e+00	0	28	104	0	60	49125
2026-01-15 13:04:22.30	19.68	0.88	-47.1	-62.3	3.6	1.51e+00	0	28	104	0	60	47106
2026-01-15 13:04:23.31	19.74	0.94	-46.8	-61.9	3.6	1.51e+00	0	28	104	0	60	44898
2026-01-15 13:04:24.32	19.80	0.99	-46.8	-61.8	3.6	1.51e+00	0	28	104	0	60	44648
2026-01-15 13:04:25.33	19.86	1.05	-46.8	-61.9	3.6	1.51e+00	0	28	104	0	60	44937
2026-01-15 13:04:26.34	19.92	1.10	-46.8	-61.9	3.6	1.51e+00	0	28	104	0	60	45220
2026-01-15 13:04:27.35	19.98	1.16	-46.8	-62.0	3.6	1.51e+00	0	28	104	0	60	45275
2026-01-15 13:04:28.36	20.04	1.21	-46.8	-61.9	3.6	1.51e+00	0	28	104	0	60	45221
2026-01-15 13:04:29.37	20.10	1.27	-46.8	-62.0	3.6	1.51e+00	0	28	104	0	60	45392
2026-01-15 13:04:30.37	20.16	1.33	-46.8	-62.0	3.6	1.51e+00	0	28	104	0	60	45274
2026-01-15 13:04:31.38	20.22	1.38	-46.8	-62.0	3.6	1.51e+00	0	28	104	0	60	45507
2026-01-15 13:04:32.39	20.28	1.44	-46.8	-61.9	3.6	1.51e+00	0	28	104	0	60	45167
2026-01-15 13:04:33.40	20.34	1.49	-46.8	-61.9	3.6	1.51e+00	0	28	104	0	60	45214
2026-01-15 13:04:34.41	20.40	1.55	-46.8	-61.9	3.6	1.51e+00	0	28	104	0	60	45012
2026-01-15 13:04:35.42	20.46	1.61	-46.8	-61.9	3.5	1.51e+00	0	28	104	0	60	45000
2026-01-15 13:04:36.43	20.53	1.66	-46.8	-61.9	3.6	1.51e+00	0	28	104	0	60	44957
2026-01-15 13:04:37.44	20.59	1.72	-46.8	-61.8	3.6	1.51e+00	0	28	104	0	60	44652
2026-01-15 13:04:38.45	20.65	1.78	-46.8	-61.9	3.6	1.51e+00	0	28	104	0	60	44864
2026-01-15 13:04:39.46	20.71	1.83	-46.8	-61.9	3.6	1.51e+00	0	28	104	0	60	44776
2026-01-15 13:04:40.47	20.78	1.89	-46.8	-61.9	3.6	1.51e+00	0	28	104	0	60	45031
2026-01-15 13:04:41.48	20.84	1.95	-46.8	-61.9	3.6	1.51e+00	0	28	104	0	60	44972
2026-01-15 13:04:42.49	20.90	2.00	-46.8	-61.9	3.6	1.51e+00	0	28	104	0	60	44985
2026-01-15 13:04:43.50	20.97	2.06	-46.8	-62.0	3.6	1.51e+00	0	28	104	0	60	45283
2026-01-15 13:04:44.51	21.03	2.12	-46.8	-61.9	3.6	1.51e+00	0	28	104	0	60	45100
2026-01-15 13:04:45.52	21.09	2.18	-46.8	-61.8	3.6	1.51e+00	0	28	104	0	60	44609
2026-01-15 13:04:46.52	21.16	2.23	-46.8	-61.3	3.6	1.51e+00	0	28	104	0	60	41849
2026-01-15 13:04:47.53	21.22	2.29	-46.7	-60.9	3.6	1.51e+00	0	28	104	0	60	39926
2026-01-15 13:04:48.54	21.29	2.35	-46.7	-60.5	3.6	1.51e+00	0	28	104	0	60	38394
2026-01-15 13:04:49.55	21.35	2.41	-46.7	-60.6	3.6	1.51e+00	0	28	104	0	60	38917
2026-01-15 13:04:50.56	21.42	2.46	-46.7	-60.5	3.6	1.51e+00	0	28	104	0	60	38473
2026-01-15 13:04:51.57	21.48	2.52	-46.6	-58.9	3.8	1.51e+00	0	28	104	0	60	31783
2026-01-15 13:04:52.58	21.55	2.58	-46.4	-55.2	5.4	1.14e+00	0	28	0	1048576	60	20790
2026-01-15 13:04:53.60	21.62	2.64	-45.5	-51.1	9.3	6.11e-02	0	28	0	2097152	60	12925
2026-01-15 13:04:54.61	21.68	2.70	-44.4	-48.3	12.5	2.71e-03	0	28	0	4194304	60	9436
2026-01-15 13:04:55.62	21.75	2.76	-43.3	-46.2	14.7	2.74e-05	0	28	0	6291456	60	7415
2026-01-15 13:04:56.63	21.82	2.81	-42.2	-44.4	16.4	0.00e+00	0	28	0	8388608	58	6745
2026-01-15 13:04:57.64	21.88	2.87	-41.6	-43.6	17.3	0.00e+00	0	28	0	10485760	56	6853
2026-01-15 13:04:58.65	21.95	2.93	-41.1	-43.0	17.9	0.00e+00	0	28	0	11534336	56	6411
2026-01-15 13:04:59.66	22.02	2.99	-40.7	-42.4	18.4	0.00e+00	0	28	0	13631488	56	6001
2026-01-15 13:05:00.67	22.08	3.05	-41.2	-43.1	17.6	0.00e+00	0	28	0	15728640	54	7314
2026-01-15 13:05:01.68	22.15	3.11	-41.8	-43.9	16.9	0.00e+00	0	28	0	17825792	54	7986
2026-01-15 13:05:02.69	22.22	3.17	-43.0	-45.7	15.0	0.00e+00	0	28	0	19922944	58	7855
2026-01-15 13:05:03.70	22.29	3.23	-44.2	-47.9	12.9	8.30e-06	0	28	0	20971520	60	8939
2026-01-15 13:05:04.71	22.36	3.28	-43.0	-45.6	15.3	1.06e-04	0	28	0	23068672	60	6872
2026-01-15 13:05:05.72	22.43	3.34	-46.6	-60.1	3.6	7.00e-07	0	28	104	25165824	60	36550
2026-01-15 13:05:06.73	22.50	3.40	-43.2	-46.1	5.9	1.48e+00	0	28	104	25165824	60	7320
2026-01-15 13:05:07.74	22.57	3.46	-42.8	-45.3	15.7	4.37e-04	0	28	0	25165824	58	7469
2026-01-15 13:05:08.75	22.64	3.52	-46.5	-56.4	3.8	0.00e+00	0	28	0	27262976	60	23866
2026-01-15 13:05:09.76	22.71	3.58	-43.3	-46.2	5.9	1.49e+00	0	28	104	27262976	60	7421
2026-01-15 13:05:10.77	22.78	3.64	-42.4	-44.7	16.2	0.00e+00	0	28	0	27262976	58	6968
2026-01-15 13:05:11.78	22.85	3.70	-41.5	-43.3	17.6	0.00e+00	0	28	0	28311552	56	6683
2026-01-15 13:05:12.79	22.92	3.76	-41.0	-42.8	17.9	0.00e+00	0	28	0	30408704	56	6270
2026-01-15 13:05:13.80	22.99	3.82	-40.7	-42.3	18.5	0.00e+00	0	28	0	32505856	56	5920
2026-01-15 13:05:14.81	23.06	3.88	-40.9	-42.6	18.6	0.00e+00	0	28	0	34603008	54	6883
2026-01-15 13:05:15.82	23.13	3.94	-40.8	-42.5	18.4	0.00e+00	0	28	0	36700160	54	6818
2026-01-15 13:05:16.82	23.20	4.00	-40.5	-42.1	18.9	0.00e+00	0	28	0	37748736	54	6505
2026-01-15 13:05:17.83	23.27	4.06	-40.5	-42.0	18.8	0.00e+00	0	28	0	39845888	54	6446
2026-01-15 13:05:18.84	23.35	4.12	-40.5	-42.1	18.9	0.00e+00	0	28	0	41943040	54	6466
2026-01-15 13:05:19.85	23.42	4.18	-40.2	-41.7	19.1	0.00e+00	0	28	0	44040192	54	6209
2026-01-15 13:05:20.86	23.49	4.24	-40.3	-41.9	18.9	0.00e+00	0	28	0	46137344	54	6320
2026-01-15 13:05:21.87	23.57	4.30	-40.0	-41.5	19.5	0.00e+00	0	28	0	47185920	54	6059
2026-01-15 13:05:22.88	23.64	4.36	-39.6	-41.0	19.9	0.00e+00	0	28	0	49283072	52	6435
2026-01-15 13:05:23.89	23.71	4.43	-39.7	-41.1	19.9	0.00e+00	0	28	0	51380224	52	6516
2026-01-15 13:05:24.90	23.79	4.49	-39.6	-41.0	20.0	0.00e+00	0	28	0	53477376	52	6397
2026-01-15 13:05:25.91	23.86	4.55	-39.7	-41.0	19.9	0.00e+00	0	28	0	55574528	52	6455
2026-01-15 13:05:26.92	23.94	4.61	-39.5	-40.8	20.1	0.00e+00	0	28	0	56623104	52	6307
2026-01-15 13:05:27.93	24.01	4.67	-39.5	-40.9	20.1	0.00e+00	0	28	0	58720256	52	6331
2026-01-15 13:05:28.94	24.09	4.73	-39.6	-41.0	20.0	0.00e+00	0	28	0	60817408	52	6414
2026-01-15 13:05:29.95	24.16	4.79	-39.6	-40.9	20.1	0.00e+00	0	28	0	62914560	52	6358
2026-01-15 13:05:30.96	24.24	4.86	-39.8	-41.2	19.7	0.00e+00	0	28	0	65011712	52	6609
2026-01-15 13:05:31.97	24.31	4.92	-39.9	-41.3	19.8	0.00e+00	0	28	0	66060288	52	6651
2026-01-15 13:05:32.98	24.39	4.98	-39.8	-41.2	19.9	0.00e+00	0	28	0	68157440	52	6555
2026-01-15 13:05:33.99	24.47	5.04	-39.9	-41.3	19.7	0.00e+00	0	28	0	70254592	52	6677
2026-01-15 13:05:35.00	24.55	5.10	-39.9	-41.3	19.8	0.00e+00	0	28	0	72351744	52	6672
2026-01-15 13:05:36.00	24.62	5.17	-40.0	-41.4	19.7	0.00e+00	0	28	0	74448896	52	6726
2026-01-15 13:05:37.01	24.70	5.23	-39.9	-41.4	19.7	0.00e+00	0	28	0	75497472	52	6714
2026-01-15 13:05:38.02	24.78	5.29	-39.8	-41.3	19.8	0.00e+00	0	28	0	77594624	52	6621
2026-01-15 13:05:39.03	24.86	5.35	-40.0	-41.4	19.6	0.00e+00	0	28	0	79691776	52	6738
2026-01-15 13:05:40.04	24.93	5.42	-39.8	-41.2	19.9	0.00e+00	0	28	0	81788928	52	6576
2026-01-15 13:05:41.05	25.01	5.48	-39.5	-40.8	20.3	0.00e+00	0	28	0	83886080	52	6276
2026-01-15 13:05:42.06	25.09	5.54	-39.7	-41.1	20.0	0.00e+00	0	28	0	85983232	52	6472
2026-01-15 13:05:43.07	25.17	5.60	-39.7	-41.1	20.0	0.00e+00	0	28	0	87031808	52	6496
2026-01-15 13:05:44.08	25.25	5.67	-39.5	-40.8	20.3	0.00e+00	0	28	0	89128960	52	6282
2026-01-15 13:05:45.09	25.33	5.73	-39.5	-40.8	20.3	0.00e+00	0	28	0	91226112	52	6273
2026-01-15 13:05:46.10	25.41	5.79	-39.6	-41.0	20.1	0.00e+00	0	28	0	93323264	52	6405
2026-01-15 13:05:47.11	25.49	5.86	-39.5	-40.8	20.3	0.00e+00	0	28	0	95420416	52	6275
2026-01-15 13:05:48.12	25.58	5.92	-39.3	-40.6	20.6	0.00e+00	0	28	0	96468992	52	6108
2026-01-15 13:05:49.13	25.66	5.98	-39.2	-40.4	20.6	0.00e+00	0	28	0	98566144	52	6020
2026-01-15 13:05:50.14	25.74	6.05	-39.3	-40.5	20.6	0.00e+00	0	28	0	100663296	52	6061
2026-01-15 13:05:51.15	25.82	6.11	-39.1	-40.4	20.8	0.00e+00	0	28	0	102760448	52	5967
2026-01-15 13:05:52.15	25.90	6.18	-39.1	-40.3	20.7	0.00e+00	0	28	0	104857600	52	5910
2026-01-15 13:05:53.16	25.99	6.24	-39.1	-40.3	20.8	0.00e+00	0	28	0	105906176	52	5952
2026-01-15 13:05:54.17	26.07	6.30	-39.2	-40.4	20.7	0.00e+00	0	28	0	108003328	52	6011
2026-01-15 13:05:55.18	26.15	6.37	-38.9	-40.1	21.0	0.00e+00	0	28	0	110100480	52	5799
2026-01-15 13:05:56.19	26.24	6.43	-38.8	-40.0	21.1	0.00e+00	0	28	0	112197632	52	5718
2026-01-15 13:05:57.20	26.32	6.50	-39.0	-40.1	21.0	0.00e+00	0	28	0	114294784	52	5822
2026-01-15 13:05:58.21	26.41	6.56	-38.8	-40.0	21.1	0.00e+00	0	28	0	115343360	52	5730
2026-01-15 13:05:59.22	26.49	6.63	-38.7	-39.9	21.2	0.00e+00	0	28	0	117440512	50	6344
2026-01-15 13:06:00.23	26.58	6.69	-39.0	-40.1	21.0	0.00e+00	0	28	0	119537664	50	6538
2026-01-15 13:06:01.24	26.66	6.76	-38.6	-39.7	21.2	0.00e+00	0	28	0	121634816	50	6241
2026-01-15 13:06:02.25	26.75	6.82	-38.8	-39.9	21.3	0.00e+00	0	28	0	123731968	50	6376
2026-01-15 13:06:03.26	26.84	6.89	-38.7	-39.9	21.4	0.00e+00	0	28	0	124780544	50	6329
2026-01-15 13:06:04.27	26.92	6.95	-38.6	-39.7	21.3	0.00e+00	0	28	0	126877696	50	6217
2026-01-15 13:06:05.28	27.01	7.02	-38.7	-39.9	21.3	0.00e+00	0	28	0	128974848	50	6318
2026-01-15 13:06:06.29	27.10	7.08	-38.6	-39.8	21.3	0.00e+00	0	28	0	131072000	50	6261
2026-01-15 13:06:07.30	27.19	7.15	-38.7	-39.8	21.3	0.00e+00	0	28	0	133169152	50	6302
2026-01-15 13:06:08.30	27.27	7.21	-38.7	-39.8	21.3	0.00e+00	0	28	0	134217728	50	6277
2026-01-15 13:06:09.32	27.36	7.28	-38.5	-39.6	21.4	0.00e+00	0	28	0	136314880	50	6131
2026-01-15 13:06:10.32	27.45	7.35	-38.4	-39.5	21.5	0.00e+00	0	28	0	138412032	50	6048
2026-01-15 13:06:11.34	27.54	7.41	-38.7	-39.9	21.3	0.00e+00	0	28	0	140509184	50	6357
2026-01-15 13:06:12.34	27.63	7.48	-38.6	-39.8	21.2	0.00e+00	0	28	0	142606336	50	6248
2026-01-15 13:06:13.35	27.72	7.54	-38.6	-39.8	21.2	0.00e+00	0	28	0	143654912	50	6255
2026-01-15 13:06:14.36	27.81	7.61	-38.6	-39.8	21.2	0.00e+00	0	28	0	145752064	50	6255
2026-01-15 13:06:15.37	27.90	7.68	-38.5	-39.6	21.4	0.00e+00	0	28	0	147849216	50	6171
2026-01-15 13:06:16.38	27.99	7.74	-38.5	-39.7	21.4	0.00e+00	0	28	0	149946368	50	6188
2026-01-15 13:06:17.39	28.08	7.81	-38.5	-39.6	21.5	0.00e+00	0	28	0	152043520	50	6143
2026-01-15 13:06:18.40	28.18	7.88	-38.6	-39.8	21.4	0.00e+00	0	28	0	154140672	50	6266
2026-01-15 13:06:19.41	28.27	7.95	-38.5	-39.6	21.5	0.00e+00	0	28	0	155189248	50	6113
2026-01-15 13:06:20.42	28.36	8.01	-38.4	-39.5	21.6	0.00e+00	0	28	0	157286400	50	6076
2026-01-15 13:06:21.43	28.46	8.08	-38.4	-39.5	21.6	0.00e+00	0	28	0	159383552	50	6088
2026-01-15 13:06:22.44	28.55	8.15	-38.7	-39.8	21.4	0.00e+00	0	28	0	161480704	50	6304
2026-01-15 13:06:23.45	28.64	8.21	-38.6	-39.8	21.4	0.00e+00	0	28	0	163577856	50	6251
2026-01-15 13:06:24.46	28.74	8.28	-38.6	-39.7	21.4	0.00e+00	0	28	0	164626432	50	6240
2026-01-15 13:06:25.47	28.83	8.35	-38.5	-39.6	21.6	0.00e+00	0	29	0	166723584	50	6159
2026-01-15 13:06:26.48	28.93	8.42	-38.7	-39.8	21.4	0.00e+00	0	28	0	168820736	50	6283
2026-01-15 13:06:27.49	29.03	8.49	-38.8	-39.9	21.3	0.00e+00	0	29	0	170917888	50	6363
2026-01-15 13:06:28.50	29.12	8.55	-38.8	-39.9	21.3	0.00e+00	0	29	0	173015040	50	6371
2026-01-15 13:06:29.51	29.22	8.62	-38.8	-39.9	21.2	0.00e+00	0	28	0	174063616	50	6370
2026-01-15 13:06:30.52	29.32	8.69	-38.9	-40.1	21.1	0.00e+00	0	28	0	176160768	50	6524
2026-01-15 13:06:31.53	29.41	8.76	-39.0	-40.2	21.1	0.00e+00	0	28	0	178257920	50	6587
2026-01-15 13:06:32.54	29.51	8.83	-39.1	-40.3	21.0	0.00e+00	0	28	0	180355072	50	6626
2026-01-15 13:06:33.55	29.61	8.90	-39.0	-40.2	21.2	0.00e+00	0	28	0	182452224	50	6542
2026-01-15 13:06:34.56	29.71	8.97	-38.9	-40.1	21.1	0.00e+00	0	29	0	183500800	50	6466
2026-01-15 13:06:35.57	29.81	9.03	-39.0	-40.2	21.1	0.00e+00	0	28	0	185597952	50	6576
2026-01-15 13:06:36.58	29.91	9.10	-39.0	-40.2	21.1	0.00e+00	0	28	0	187695104	50	6580
2026-01-15 13:06:37.59	30.01	9.17	-38.9	-40.1	21.2	0.00e+00	0	28	0	189792256	50	6479
2026-01-15 13:06:38.59	30.11	9.24	-39.0	-40.1	21.1	0.00e+00	0	28	0	191889408	50	6516
2026-01-15 13:06:39.61	30.21	9.31	-38.7	-39.9	21.4	0.00e+00	0	28	0	192937984	50	6334
2026-01-15 13:06:40.61	30.31	9.38	-38.7	-39.8	21.4	0.00e+00	0	28	0	195035136	50	6292
2026-01-15 13:06:41.62	30.41	9.45	-38.7	-39.8	21.4	0.00e+00	0	28	0	197132288	50	6305
2026-01-15 13:06:42.63	30.52	9.52	-38.5	-39.6	21.7	0.00e+00	0	28	0	199229440	50	6119
2026-01-15 13:06:43.64	30.62	9.59	-38.4	-39.5	21.6	0.00e+00	0	28	0	201326592	50	6092
2026-01-15 13:06:44.65	30.72	9.66	-38.6	-39.7	21.7	0.00e+00	0	28	0	202375168	50	6203
2026-01-15 13:06:45.66	30.83	9.73	-38.1	-39.2	22.0	0.00e+00	0	29	0	204472320	50	5856
2026-01-15 13:06:46.67	30.93	9.80	-38.2	-39.3	22.0	0.00e+00	0	28	0	206569472	50	5907
2026-01-15 13:06:47.67	31.04	9.87	-38.0	-39.0	22.1	0.00e+00	0	28	0	208666624	50	5724
2026-01-15 13:06:48.68	31.14	9.94	-37.9	-38.9	22.3	0.00e+00	0	29	0	210763776	50	5650
2026-01-15 13:06:49.69	31.25	10.01	-37.7	-38.7	22.4	0.00e+00	0	29	0	211812352	50	5532
2026-01-15 13:06:50.70	31.35	10.08	-37.8	-38.8	22.4	0.00e+00	0	29	0	213909504	48	6281
2026-01-15 13:06:51.71	31.46	10.15	-37.8	-38.8	22.4	0.00e+00	0	29	0	216006656	48	6291
2026-01-15 13:06:52.72	31.57	10.22	-37.8	-38.8	22.4	0.00e+00	0	29	0	218103808	48	6294
2026-01-15 13:06:53.73	31.68	10.30	-37.8	-38.9	22.3	0.00e+00	0	29	0	220200960	48	6330
2026-01-15 13:06:54.74	31.78	10.37	-37.7	-38.7	22.4	0.00e+00	0	29	0	222298112	48	6192
2026-01-15 13:06:55.75	31.89	10.44	-37.8	-38.8	22.4	0.00e+00	0	29	0	223346688	48	6265
2026-01-15 13:06:56.76	32.00	10.51	-37.9	-38.9	22.2	0.00e+00	0	29	0	225443840	48	6384
2026-01-15 13:06:57.77	32.11	10.58	-37.7	-38.7	22.3	0.00e+00	0	29	0	227540992	48	6199
2026-01-15 13:06:58.78	32.22	10.65	-37.8	-38.8	22.3	0.00e+00	0	29	0	229638144	48	6300
2026-01-15 13:06:59.79	32.33	10.73	-37.9	-38.9	22.3	0.00e+00	0	29	0	231735296	48	6324
2026-01-15 13:07:00.80	32.45	10.80	-37.9	-38.9	22.2	0.00e+00	0	28	0	232783872	48	6390
2026-01-15 13:07:01.81	32.56	10.87	-38.1	-39.1	22.1	0.00e+00	0	29	0	234881024	48	6494
2026-01-15 13:07:02.82	32.67	10.94	-38.2	-39.2	22.1	0.00e+00	0	28	0	236978176	48	6611
2026-01-15 13:07:03.83	32.78	11.01	-38.1	-39.2	22.1	0.00e+00	0	29	0	239075328	48	6568
2026-01-15 13:07:04.84	32.90	11.09	-38.1	-39.2	22.0	0.00e+00	0	29	0	241172480	48	6542
2026-01-15 13:07:05.85	33.01	11.16	-38.3	-39.3	22.0	0.00e+00	0	28	0	242221056	48	6664
2026-01-15 13:07:06.86	33.13	11.23	-38.4	-39.5	21.8	0.00e+00	0	28	0	244318208	48	6798
2026-01-15 13:07:07.87	33.24	11.30	-38.4	-39.5	21.8	0.00e+00	0	29	0	246415360	48	6795
2026-01-15 13:07:08.88	33.36	11.38	-38.4	-39.5	21.8	0.00e+00	0	29	0	248512512	48	6833
2026-01-15 13:07:09.89	33.47	11.45	-38.3	-39.4	22.0	0.00e+00	0	29	0	250609664	48	6720
2026-01-15 13:07:10.90	33.59	11.52	-38.5	-39.5	21.9	0.00e+00	0	28	0	251658240	48	6834
2026-01-15 13:07:11.91	33.71	11.60	-38.4	-39.5	21.8	0.00e+00	0	28	0	253755392	48	6829
2026-01-15 13:07:12.92	33.83	11.67	-38.4	-39.5	21.8	0.00e+00	0	29	0	255852544	48	6810
2026-01-15 13:07:13.93	33.95	11.74	-38.5	-39.6	21.8	0.00e+00	0	29	0	257949696	48	6871
2026-01-15 13:07:14.94	34.06	11.82	-38.5	-39.6	21.7	0.00e+00	0	28	0	260046848	48	6896
2026-01-15 13:07:15.95	34.18	11.89	-38.6	-39.7	21.7	0.00e+00	0	28	0	261095424	48	6995
2026-01-15 13:07:16.96	34.30	11.96	-38.7	-39.8	21.7	0.00e+00	0	29	0	263192576	48	7053
2026-01-15 13:07:17.97	34.43	12.04	-38.8	-39.9	21.5	0.00e+00	0	29	0	265289728	50	6359
2026-01-15 13:07:18.98	34.55	12.11	-38.9	-40.0	21.4	0.00e+00	0	29	0	267386880	50	6458
2026-01-15 13:07:19.99	34.67	12.19	-39.0	-40.1	21.3	0.00e+00	0	29	0	269484032	50	6528
2026-01-15 13:07:21.00	34.79	12.26	-39.0	-40.2	21.4	0.00e+00	0	29	0	270532608	50	6573
2026-01-15 13:07:22.00	34.91	12.33	-39.1	-40.4	21.2	0.00e+00	0	29	0	272629760	50	6693
2026-01-15 13:07:23.01	35.04	12.41	-38.9	-40.0	21.5	0.00e+00	0	29	0	274726912	50	6449
2026-01-15 13:07:24.02	35.16	12.48	-39.0	-40.2	21.2	0.00e+00	0	28	0	276824064	50	6598
2026-01-15 13:07:25.03	35.29	12.56	-39.0	-40.2	21.4	0.00e+00	0	29	0	278921216	50	6541
2026-01-15 13:07:26.04	35.41	12.63	-38.9	-40.0	21.5	0.00e+00	0	29	0	279969792	50	6434
2026-01-15 13:07:27.05	35.54	12.71	-38.7	-39.8	21.6	0.00e+00	0	29	0	282066944	50	6260
2026-01-15 13:07:28.06	35.67	12.78	-38.5	-39.5	21.7	0.00e+00	0	29	0	284164096	50	6098
2026-01-15 13:07:29.07	35.79	12.86	-38.5	-39.6	21.6	0.00e+00	0	29	0	286261248	50	6107
2026-01-15 13:07:30.08	35.92	12.93	-38.4	-39.4	21.9	0.00e+00	0	29	0	288358400	50	6023
2026-01-15 13:07:31.09	36.05	13.01	-38.1	-39.2	22.0	0.00e+00	0	29	0	290455552	50	5840
2026-01-15 13:07:32.10	36.18	13.08	-38.1	-39.1	22.2	0.00e+00	0	29	0	291504128	50	5828
2026-01-15 13:07:33.11	36.31	13.16	-38.1	-39.2	22.1	0.00e+00	0	29	0	293601280	50	5846
2026-01-15 13:07:34.12	36.44	13.24	-37.9	-38.9	22.4	0.00e+00	0	29	0	295698432	50	5644
2026-01-15 13:07:35.13	36.57	13.31	-37.7	-38.7	22.5	0.00e+00	0	29	0	297795584	48	6216
2026-01-15 13:07:36.14	36.70	13.39	-37.6	-38.6	22.7	0.00e+00	0	29	0	299892736	48	6120
2026-01-15 13:07:37.15	36.84	13.46	-37.7	-38.7	22.7	0.00e+00	0	29	0	300941312	48	6188
2026-01-15 13:07:38.16	36.97	13.54	-37.5	-38.4	22.7	0.00e+00	0	29	0	303038464	48	6025
2026-01-15 13:07:39.17	37.10	13.62	-37.7	-38.7	22.7	0.00e+00	0	28	0	305135616	48	6215
2026-01-15 13:07:40.18	37.24	13.69	-37.4	-38.3	23.0	0.00e+00	0	29	0	307232768	48	5961
2026-01-15 13:07:41.19	37.37	13.77	-37.5	-38.4	22.8	0.00e+00	0	29	0	309329920	48	6033
2026-01-15 13:07:42.20	37.51	13.85	-37.4	-38.4	22.8	0.00e+00	0	29	0	310378496	48	5997
2026-01-15 13:07:43.21	37.65	13.92	-37.6	-38.6	22.7	0.00e+00	0	29	0	312475648	48	6148
2026-01-15 13:07:44.22	37.79	14.00	-37.5	-38.4	22.8	0.00e+00	0	29	0	314572800	48	6018
2026-01-15 13:07:45.23	37.92	14.08	-37.5	-38.5	22.8	0.00e+00	0	29	0	316669952	48	6036
2026-01-15 13:07:46.23	38.06	14.15	-37.2	-38.2	23.0	0.00e+00	0	29	0	318767104	48	5831
2026-01-15 13:07:47.24	38.20	14.23	-37.4	-38.4	22.8	0.00e+00	0	29	0	319815680	48	5986
2026-01-15 13:07:48.25	38.34	14.31	-37.2	-38.2	23.0	0.00e+00	0	29	0	321912832	48	5857
2026-01-15 13:07:49.26	38.48	14.38	-37.2	-38.2	23.1	0.00e+00	0	28	0	324009984	48	5833
2026-01-15 13:07:50.27	38.62	14.46	-37.2	-38.1	23.0	0.00e+00	0	28	0	326107136	48	5815
2026-01-15 13:07:51.28	38.76	14.54	-37.4	-38.4	22.9	0.00e+00	0	29	0	328204288	48	5982
2026-01-15 13:07:52.29	38.91	14.61	-37.5	-38.5	22.9	0.00e+00	0	29	0	329252864	48	6057
2026-01-15 13:07:53.30	39.05	14.69	-37.5	-38.4	22.7	0.00e+00	0	28	0	331350016	48	6001
2026-01-15 13:07:54.31	39.20	14.77	-37.6	-38.6	22.9	0.00e+00	0	29	0	333447168	48	6122
2026-01-15 13:07:55.32	39.34	14.85	-37.7	-38.7	22.5	0.00e+00	0	29	0	335544320	48	6239
2026-01-15 13:07:56.33	39.49	14.93	-37.7	-38.7	22.6	0.00e+00	0	29	0	337641472	48	6223
2026-01-15 13:07:57.33	39.63	15.00	-37.8	-38.8	22.6	0.00e+00	0	29	0	338690048	48	6306
2026-01-15 13:07:58.34	39.78	15.08	-38.0	-39.1	22.3	0.00e+00	0	29	0	340787200	48	6480
2026-01-15 13:07:59.36	39.93	15.16	-38.0	-39.0	22.4	0.00e+00	0	29	0	342884352	48	6448
2026-01-15 13:08:00.37	40.08	15.24	-38.0	-39.0	22.4	0.00e+00	0	29	0	344981504	48	6437
2026-01-15 13:08:01.38	40.23	15.32	-38.2	-39.2	22.3	0.00e+00	0	29	0	347078656	48	6607
2026-01-15 13:08:02.39	40.38	15.39	-38.1	-39.1	22.3	0.00e+00	0	29	0	348127232	48	6528
2026-01-15 13:08:03.40	40.53	15.47	-38.1	-39.2	22.3	0.00e+00	0	29	0	350224384	48	6559
2026-01-15 13:08:04.41	40.68	15.55	-38.2	-39.2	22.2	0.00e+00	0	29	0	352321536	48	6577
2026-01-15 13:08:05.42	40.83	15.63	-37.9	-38.9	22.5	0.00e+00	0	29	0	354418688	48	6327
2026-01-15 13:08:06.43	40.99	15.71	-37.9	-38.9	22.5	0.00e+00	0	29	0	356515840	48	6323
2026-01-15 13:08:07.44	41.14	15.79	-37.7	-38.7	22.5	0.00e+00	0	29	0	358612992	48	6193
2026-01-15 13:08:08.45	41.30	15.86	-37.2	-38.2	23.1	0.00e+00	0	28	0	359661568	48	5834
2026-01-15 13:08:09.46	41.45	15.94	-37.3	-38.2	23.0	0.00e+00	0	29	0	361758720	48	5874
2026-01-15 13:08:10.47	41.61	16.02	-37.2	-38.1	23.2	0.00e+00	0	29	0	363855872	48	5777
2026-01-15 13:08:11.48	41.77	16.10	-36.9	-37.8	23.4	0.00e+00	0	29	0	365953024	48	5572
2026-01-15 13:08:12.48	41.92	16.18	-36.8	-37.7	23.4	0.00e+00	0	29	0	367001600	48	5513
2026-01-15 13:08:13.49	42.08	16.26	-36.8	-37.7	23.5	0.00e+00	0	29	0	369098752	46	6182
2026-01-15 13:08:14.50	42.24	16.34	-36.7	-37.5	23.6	0.00e+00	0	29	0	371195904	46	6103
2026-01-15 13:08:15.51	42.40	16.42	-36.6	-37.5	23.5	0.00e+00	0	29	0	373293056	46	6065
2026-01-15 13:08:16.52	42.56	16.49	-36.8	-37.7	23.4	0.00e+00	0	29	0	375390208	46	6198
2026-01-15 13:08:17.53	42.73	16.57	-36.6	-37.5	23.2	0.00e+00	0	29	0	376438784	46	6041
2026-01-15 13:08:18.54	42.89	16.65	-36.6	-37.5	22.8	0.00e+00	0	29	0	378535936	46	6076
2026-01-15 13:08:19.55	43.05	16.73	-36.3	-37.2	23.7	0.00e+00	0	29	0	380633088	46	5832
2026-01-15 13:08:20.56	43.22	16.81	-36.3	-37.1	23.8	0.00e+00	0	29	0	382730240	46	5820
2026-01-15 13:08:21.57	43.38	16.89	-36.3	-37.1	23.9	0.00e+00	0	29	0	384827392	46	5796
2026-01-15 13:08:22.58	43.55	16.97	-36.2	-37.1	23.9	0.00e+00	0	29	0	386924544	46	5780
2026-01-15 13:08:23.59	43.72	17.05	-36.4	-37.2	23.8	0.00e+00	0	29	0	387973120	46	5877
2026-01-15 13:08:24.60	43.89	17.13	-36.5	-37.3	23.7	0.00e+00	0	29	0	390070272	46	5949
2026-01-15 13:08:25.61	44.06	17.21	-36.8	-37.7	23.5	0.00e+00	0	29	0	392167424	46	6216
2026-01-15 13:08:26.62	44.23	17.29	-36.7	-37.6	23.5	0.00e+00	0	29	0	394264576	46	6152
2026-01-15 13:08:27.63	44.40	17.37	-37.1	-38.0	23.2	0.00e+00	0	29	0	396361728	46	6416
2026-01-15 13:08:28.64	44.57	17.45	-37.1	-38.0	23.3	0.00e+00	0	29	0	397410304	46	6452
2026-01-15 13:08:29.65	44.74	17.53	-37.1	-38.1	23.2	0.00e+00	0	29	0	399507456	46	6469
2026-01-15 13:08:30.65	44.91	17.60	-37.0	-37.9	23.3	0.00e+00	0	29	0	401604608	46	6359
2026-01-15 13:08:31.66	45.09	17.68	-36.9	-37.8	23.4	0.00e+00	0	29	0	403701760	46	6271
2026-01-15 13:08:32.67	45.26	17.76	-36.9	-37.8	23.4	0.00e+00	0	29	0	405798912	46	6299
2026-01-15 13:08:33.68	45.44	17.84	-36.9	-37.8	23.3	0.00e+00	0	29	0	406847488	46	6300
2026-01-15 13:08:34.69	45.62	17.92	-37.3	-38.2	23.3	0.00e+00	0	29	0	408944640	46	6561
2026-01-15 13:08:35.70	45.79	18.00	-37.2	-38.1	23.2	0.00e+00	0	29	0	411041792	46	6477
2026-01-15 13:08:36.70	45.97	18.08	-37.4	-38.3	23.1	0.00e+00	0	28	0	413138944	46	6652
2026-01-15 13:08:37.72	46.15	18.16	-37.2	-38.1	23.1	0.00e+00	0	29	0	415236096	46	6523
2026-01-15 13:08:38.72	46.33	18.24	-37.2	-38.2	23.2	0.00e+00	0	29	0	416284672	46	6550
2026-01-15 13:08:39.73	46.51	18.32	-37.3	-38.2	23.1	0.00e+00	0	29	0	418381824	46	6595
2026-01-15 13:08:40.74	46.70	18.40	-37.2	-38.1	23.3	0.00e+00	0	29	0	420478976	46	6490
2026-01-15 13:08:41.75	46.88	18.48	-36.9	-37.8	23.4	0.00e+00	0	29	0	422576128	46	6285
2026-01-15 13:08:42.76	47.06	18.56	-36.9	-37.8	23.5	0.00e+00	0	28	0	424673280	46	6271
2026-01-15 13:08:43.77	47.25	18.64	-36.7	-37.6	23.6	0.00e+00	0	29	0	425721856	46	6149
2026-01-15 13:08:44.78	47.44	18.71	-36.5	-37.3	23.7	0.00e+00	0	29	0	427819008	46	5961
2026-01-15 13:08:45.79	47.62	18.79	-36.5	-37.4	23.7	0.00e+00	0	29	0	429916160	46	5988
2026-01-15 13:08:46.80	47.81	18.87	-36.4	-37.3	23.9	0.00e+00	0	29	0	432013312	46	5898
2026-01-15 13:08:47.81	48.00	18.95	-36.4	-37.2	23.9	0.00e+00	0	29	0	434110464	46	5887
2026-01-15 13:08:48.82	48.19	19.03	-36.1	-37.0	24.1	0.00e+00	0	29	0	435159040	46	5715
2026-01-15 13:08:49.83	48.38	19.11	-36.0	-36.8	24.2	0.00e+00	0	29	0	437256192	46	5608
2026-01-15 13:08:50.84	48.57	19.19	-36.0	-36.8	24.3	0.00e+00	0	29	0	439353344	46	5581
2026-01-15 13:08:51.85	48.77	19.27	-35.8	-36.6	24.2	0.00e+00	0	29	0	441450496	44	6169
2026-01-15 13:08:52.86	48.96	19.35	-35.6	-36.4	24.4	0.00e+00	0	29	0	443547648	44	6033
2026-01-15 13:08:53.87	49.16	19.43	-35.6	-36.4	24.4	0.00e+00	0	29	0	444596224	44	6003
2026-01-15 13:08:54.88	49.35	19.50	-35.6	-36.4	24.3	0.00e+00	0	29	0	446693376	44	6003
2026-01-15 13:08:55.89	49.55	19.58	-35.5	-36.3	24.5	0.00e+00	0	29	0	448790528	44	5964
2026-01-15 13:08:56.90	49.75	19.66	-35.5	-36.3	24.6	0.00e+00	0	29	0	450887680	44	5916
2026-01-15 13:08:57.90	49.94	19.74	-35.5	-36.3	24.5	0.00e+00	0	29	0	452984832	44	5911
2026-01-15 13:08:58.91	50.14	19.82	-35.4	-36.2	24.6	0.00e+00	0	29	0	455081984	44	5834
2026-01-15 13:08:59.92	50.34	19.90	-35.3	-36.1	24.7	0.00e+00	0	28	0	456130560	44	5780
2026-01-15 13:09:00.93	50.55	19.97	-35.2	-36.0	24.6	0.00e+00	0	29	0	458227712	44	5736
2026-01-15 13:09:01.94	50.75	20.05	-35.1	-35.8	24.8	0.00e+00	0	29	0	460324864	44	5627
2026-01-15 13:09:02.95	50.95	20.13	-35.1	-35.9	24.9	0.00e+00	0	29	0	462422016	44	5663
2026-01-15 13:09:03.96	51.16	20.21	-35.1	-35.9	24.7	0.00e+00	0	29	0	464519168	44	5661
2026-01-15 13:09:04.97	51.36	20.29	-35.2	-36.0	24.9	0.00e+00	0	29	0	465567744	44	5709
2026-01-15 13:09:05.98	51.57	20.36	-35.4	-36.2	24.7	0.00e+00	0	29	0	467664896	44	5848
2026-01-15 13:09:06.99	51.78	20.44	-35.5	-36.3	24.5	0.00e+00	0	29	0	469762048	44	5930
2026-01-15 13:09:08.00	51.99	20.52	-35.5	-36.3	24.6	0.00e+00	0	29	0	471859200	44	5945
2026-01-15 13:09:09.01	52.20	20.60	-35.6	-36.4	24.3	0.00e+00	0	28	0	473956352	44	5994
2026-01-15 13:09:10.02	52.41	20.67	-35.5	-36.3	24.0	0.00e+00	0	29	0	475004928	44	5914
2026-01-15 13:09:11.03	52.62	20.75	-35.5	-36.3	24.5	0.00e+00	0	29	0	477102080	44	5937
2026-01-15 13:09:12.03	52.83	20.83	-35.6	-36.4	24.5	0.00e+00	0	29	0	479199232	44	5986
2026-01-15 13:09:13.04	53.05	20.90	-35.5	-36.3	24.5	0.00e+00	0	28	0	481296384	44	5964
2026-01-15 13:09:14.05	53.26	20.98	-35.7	-36.5	24.4	0.00e+00	0	29	0	483393536	44	6072
2026-01-15 13:09:15.06	53.48	21.06	-35.6	-36.4	24.5	0.00e+00	0	29	0	484442112	44	5979
2026-01-15 13:09:16.07	53.69	21.13	-35.5	-36.3	24.6	0.00e+00	0	29	0	486539264	44	5936
2026-01-15 13:09:17.08	53.91	21.21	-35.3	-36.1	24.7	0.00e+00	0	29	0	488636416	44	5807
2026-01-15 13:09:18.09	54.13	21.28	-35.2	-36.0	24.6	0.00e+00	0	29	0	490733568	44	5747
2026-01-15 13:09:19.10	54.35	21.36	-35.5	-36.3	24.6	0.00e+00	0	29	0	492830720	44	5951
2026-01-15 13:09:20.11	54.57	21.44	-35.4	-36.2	24.6	0.00e+00	0	29	0	493879296	44	5891
2026-01-15 13:09:21.12	54.80	21.51	-35.2	-36.0	24.7	0.00e+00	0	29	0	495976448	44	5737
2026-01-15 13:09:22.12	55.02	21.58	-35.4	-36.2	24.8	0.00e+00	0	29	0	498073600	44	5836
2026-01-15 13:09:23.13	55.24	21.66	-35.7	-36.5	24.4	0.00e+00	0	29	0	500170752	44	6056
2026-01-15 13:09:24.15	55.47	21.73	-35.8	-36.7	24.4	0.00e+00	0	29	0	502267904	44	6189
2026-01-15 13:09:25.15	55.70	21.81	-35.9	-36.8	24.3	0.00e+00	0	29	0	503316480	44	6273
2026-01-15 13:09:26.16	55.92	21.88	-35.8	-36.6	24.3	0.00e+00	0	29	0	505413632	44	6171
2026-01-15 13:09:27.18	56.16	21.96	-35.7	-36.6	24.4	0.00e+00	0	29	0	507510784	44	6127
2026-01-15 13:09:28.19	56.39	22.03	-35.7	-36.5	24.5	0.00e+00	0	29	0	509607936	44	6079
2026-01-15 13:09:29.19	56.61	22.10	-35.7	-36.6	24.4	0.00e+00	0	29	0	511705088	44	6112
2026-01-15 13:09:30.20	56.85	22.18	-35.8	-36.6	24.3	0.00e+00	0	29	0	512753664	44	6172
2026-01-15 13:09:31.21	57.08	22.25	-36.1	-37.0	24.1	0.00e+00	0	29	0	514850816	44	6392
2026-01-15 13:09:32.22	57.31	22.32	-36.1	-37.0	24.0	0.00e+00	0	29	0	516947968	44	6448
2026-01-15 13:09:33.23	57.55	22.39	-36.2	-37.1	24.1	0.00e+00	0	29	0	519045120	44	6514
2026-01-15 13:09:34.24	57.79	22.47	-35.8	-36.6	24.4	0.00e+00	0	29	0	521142272	44	6151
2026-01-15 13:09:35.25	58.02	22.54	-35.7	-36.5	24.4	0.00e+00	0	29	0	523239424	44	6092
2026-01-15 13:09:36.26	58.26	22.61	-35.7	-36.6	24.3	0.00e+00	0	29	0	524288000	44	6115
2026-01-15 13:09:37.27	58.50	22.68	-35.7	-36.5	24.3	0.00e+00	0	29	0	526385152	44	6099
2026-01-15 13:09:38.28	58.74	22.75	-36.0	-36.9	24.1	0.00e+00	0	29	0	528482304	44	6326
2026-01-15 13:09:39.29	58.98	22.82	-36.6	-37.5	23.7	0.00e+00	0	29	0	530579456	44	6772
2026-01-15 13:09:40.30	59.23	22.89	-36.8	-37.7	23.5	0.00e+00	0	29	0	532676608	46	6207
2026-01-15 13:09:41.31	59.47	22.96	-37.0	-37.9	23.3	0.00e+00	0	29	0	533725184	46	6352
2026-01-15 13:09:42.32	59.72	23.03	-36.7	-37.5	23.8	0.00e+00	0	29	0	535822336	46	6093
2026-01-15 13:09:43.33	59.96	23.10	-36.0	-36.8	24.1	0.00e+00	0	29	0	537919488	46	5623
2026-01-15 13:09:44.33	60.21	23.17	-35.8	-36.6	24.4	0.00e+00	0	29	0	540016640	46	5444
2026-01-15 13:09:45.34	60.46	23.24	-35.6	-36.4	24.4	0.00e+00	0	29	0	542113792	44	6000
2026-01-15 13:09:46.35	60.71	23.31	-35.9	-36.8	24.2	0.00e+00	0	29	0	543162368	44	6246
2026-01-15 13:09:47.36	60.96	23.37	-36.6	-37.4	23.7	0.00e+00	0	29	0	545259520	44	6740
2026-01-15 13:09:48.37	61.21	23.44	-36.8	-37.7	23.4	0.00e+00	0	29	0	547356672	46	6217
2026-01-15 13:09:49.37	61.46	23.51	-37.0	-37.9	23.0	0.00e+00	0	29	0	549453824	46	6347
2026-01-15 13:09:50.38	61.71	23.57	-37.0	-37.8	23.4	0.00e+00	0	29	0	551550976	46	6316
2026-01-15 13:09:51.39	61.97	23.64	-37.0	-37.9	23.5	0.00e+00	0	29	0	552599552	46	6383
2026-01-15 13:09:52.40	62.22	23.71	-37.3	-38.2	23.2	0.00e+00	0	29	0	554696704	46	6566
2026-01-15 13:09:53.41	62.48	23.77	-37.5	-38.4	23.0	0.00e+00	0	29	0	556793856	46	6758
2026-01-15 13:09:54.42	62.74	23.84	-37.8	-38.7	22.8	0.00e+00	0	29	0	558891008	48	6244
2026-01-15 13:09:55.43	62.99	23.90	-38.2	-39.2	22.4	0.00e+00	0	29	0	560988160	48	6545
2026-01-15 13:09:56.44	63.25	23.96	-38.1	-39.1	22.5	0.00e+00	0	29	0	562036736	48	6474
2026-01-15 13:09:57.45	63.52	24.03	-37.6	-38.5	22.9	0.00e+00	0	29	0	564133888	48	6068
2026-01-15 13:09:58.46	63.78	24.09	-37.4	-38.3	23.1	0.00e+00	0	28	0	566231040	48	5924
2026-01-15 13:09:59.47	64.04	24.15	-37.3	-38.2	23.3	0.00e+00	0	29	0	568328192	48	5894
2026-01-15 13:10:00.48	64.30	24.22	-37.5	-38.4	22.8	0.00e+00	0	29	0	570425344	48	6026
2026-01-15 13:10:01.49	64.57	24.28	-37.6	-38.5	22.8	0.00e+00	0	29	0	571473920	48	6098
2026-01-15 13:10:02.50	64.84	24.34	-38.1	-39.1	22.5	0.00e+00	0	29	0	573571072	48	6491
2026-01-15 13:10:03.51	65.10	24.40	-38.6	-39.7	22.0	0.00e+00	0	29	0	575668224	48	6937
2026-01-15 13:10:04.52	65.37	24.46	-39.0	-40.1	21.7	0.00e+00	0	29	0	577765376	50	6522
2026-01-15 13:10:05.52	65.64	24.52	-39.3	-40.5	21.4	0.00e+00	0	29	0	579862528	50	6778
2026-01-15 13:10:06.53	65.91	24.58	-39.4	-40.5	21.1	0.00e+00	0	29	0	580911104	50	6837
2026-01-15 13:10:07.54	66.18	24.64	-39.6	-40.9	21.0	0.00e+00	0	29	0	583008256	50	7091
2026-01-15 13:10:08.55	66.45	24.70	-39.7	-40.9	21.1	0.00e+00	0	29	0	585105408	52	6325
2026-01-15 13:10:09.56	66.72	24.75	-39.3	-40.5	21.4	0.00e+00	0	29	0	587202560	52	6056
2026-01-15 13:10:10.57	67.00	24.81	-38.4	-39.4	22.3	0.00e+00	0	29	0	589299712	50	5986
2026-01-15 13:10:11.58	67.27	24.87	-38.2	-39.2	22.3	0.00e+00	0	29	0	590348288	50	5857
2026-01-15 13:10:12.59	67.55	24.92	-38.0	-39.0	22.6	0.00e+00	0	29	0	592445440	50	5741
2026-01-15 13:10:13.60	67.83	24.98	-38.2	-39.2	22.3	0.00e+00	0	29	0	594542592	50	5866
2026-01-15 13:10:14.61	68.10	25.03	-39.1	-40.3	21.5	0.00e+00	0	29	0	596639744	50	6621
2026-01-15 13:10:15.62	68.38	25.09	-39.7	-41.0	20.8	0.00e+00	0	29	0	598736896	52	6443
2026-01-15 13:10:16.63	68.66	25.14	-40.6	-42.1	19.9	0.00e+00	0	29	0	599785472	52	7331
2026-01-15 13:10:17.64	68.94	25.19	-40.8	-42.3	19.7	0.00e+00	0	29	0	601882624	54	6643
2026-01-15 13:10:18.65	69.23	25.25	-40.5	-42.0	20.1	0.00e+00	0	29	0	603979776	54	6400
2026-01-15 13:10:19.66	69.51	25.30	-40.2	-41.5	20.4	0.00e+00	0	29	0	606076928	54	6101
2026-01-15 13:10:20.67	69.79	25.35	-40.0	-41.2	20.7	0.00e+00	0	29	0	608174080	54	5889
2026-01-15 13:10:21.68	70.08	25.40	-40.1	-41.5	20.1	0.00e+00	0	29	0	609222656	54	6038
2026-01-15 13:10:22.69	70.36	25.45	-40.2	-41.6	20.4	0.00e+00	0	29	0	611319808	54	6121
2026-01-15 13:10:23.69	70.65	25.50	-40.1	-41.4	20.6	0.00e+00	0	29	0	613416960	54	5967
2026-01-15 13:10:24.70	70.93	25.55	-39.9	-41.2	20.9	0.00e+00	0	29	0	615514112	52	6543
2026-01-15 13:10:25.71	71.22	25.60	-39.2	-40.3	21.6	0.00e+00	0	29	0	617611264	52	5930
2026-01-15 13:10:26.72	71.51	25.64	-39.1	-40.2	21.7	0.00e+00	0	29	0	619708416	52	5855
2026-01-15 13:10:27.73	71.80	25.69	-39.2	-40.4	21.4	0.00e+00	0	29	0	620756992	52	5966
2026-01-15 13:10:28.74	72.09	25.74	-39.5	-40.7	21.2	0.00e+00	0	29	0	622854144	52	6219
2026-01-15 13:10:29.75	72.38	25.78	-40.3	-41.6	20.4	0.00e+00	0	29	0	624951296	52	6896
2026-01-15 13:10:30.76	72.67	25.83	-40.2	-41.5	20.5	0.00e+00	0	29	0	627048448	52	6794
2026-01-15 13:10:31.77	72.97	25.87	-39.7	-41.0	20.9	0.00e+00	0	29	0	629145600	52	6391
2026-01-15 13:10:32.78	73.26	25.91	-39.7	-40.9	21.1	0.00e+00	0	29	0	630194176	52	6327
2026-01-15 13:10:33.79	73.55	25.96	-39.5	-40.6	21.2	0.00e+00	0	29	0	632291328	52	6160
2026-01-15 13:10:34.80	73.85	26.00	-40.1	-41.4	20.6	0.00e+00	0	29	0	634388480	52	6713
2026-01-15 13:10:35.81	74.15	26.04	-40.7	-42.1	20.0	0.00e+00	0	29	0	636485632	52	7277
2026-01-15 13:10:36.82	74.44	26.08	-40.9	-42.4	19.8	0.00e+00	0	29	0	638582784	54	6704
2026-01-15 13:10:37.83	74.74	26.12	-40.9	-42.4	19.6	0.00e+00	0	29	0	639631360	54	6744
2026-01-15 13:10:38.84	75.04	26.16	-40.3	-41.6	20.4	0.00e+00	0	29	0	641728512	54	6159
2026-01-15 13:10:39.84	75.33	26.19	-39.5	-40.7	21.3	0.00e+00	0	29	0	643825664	52	6215
2026-01-15 13:10:40.85	75.63	26.23	-39.3	-40.4	21.3	0.00e+00	0	29	0	645922816	52	6024
2026-01-15 13:10:41.87	75.94	26.27	-38.8	-39.9	21.7	0.00e+00	0	29	0	648019968	52	5672
2026-01-15 13:10:42.87	76.24	26.30	-39.0	-40.1	21.7	0.00e+00	0	29	0	649068544	50	6502
2026-01-15 13:10:43.88	76.54	26.34	-38.7	-39.8	21.9	0.00e+00	0	29	0	651165696	50	6268
2026-01-15 13:10:44.89	76.84	26.37	-38.6	-39.6	22.2	0.00e+00	0	29	0	653262848	50	6156
2026-01-15 13:10:45.90	77.14	26.41	-38.7	-39.7	21.9	0.00e+00	0	29	0	655360000	50	6230
2026-01-15 13:10:46.91	77.45	26.44	-39.2	-40.3	21.5	0.00e+00	0	29	0	657457152	50	6664
2026-01-15 13:10:47.92	77.75	26.47	-39.4	-40.5	21.3	0.00e+00	0	29	0	658505728	50	6796
2026-01-15 13:10:48.93	78.06	26.50	-40.0	-41.2	20.7	0.00e+00	0	29	0	660602880	52	6605
2026-01-15 13:10:49.94	78.36	26.53	-39.7	-40.9	21.1	0.00e+00	0	29	0	662700032	52	6338
2026-01-15 13:10:50.95	78.67	26.56	-39.6	-40.8	20.9	0.00e+00	0	29	0	664797184	52	6285
2026-01-15 13:10:51.96	78.97	26.59	-39.7	-40.9	21.1	0.00e+00	0	29	0	666894336	52	6318
2026-01-15 13:10:52.96	79.28	26.62	-39.6	-40.8	21.2	0.00e+00	0	29	0	667942912	52	6316
2026-01-15 13:10:53.98	79.59	26.64	-39.2	-40.4	21.6	0.00e+00	0	29	0	670040064	52	5968
2026-01-15 13:10:54.99	79.90	26.67	-38.9	-39.9	21.9	0.00e+00	0	29	0	672137216	52	5669
2026-01-15 13:10:56.00	80.21	26.70	-39.0	-40.1	21.7	0.00e+00	0	29	0	674234368	50	6532
2026-01-15 13:10:57.00	80.51	26.72	-39.0	-40.1	21.7	0.00e+00	0	29	0	676331520	50	6516
2026-01-15 13:10:58.02	80.82	26.74	-39.3	-40.5	21.4	0.00e+00	0	29	0	677380096	50	6783
2026-01-15 13:10:59.03	81.13	26.77	-39.5	-40.9	21.0	0.00e+00	0	29	0	679477248	50	7125
2026-01-15 13:11:00.04	81.44	26.79	-39.8	-41.0	20.9	0.00e+00	0	29	0	681574400	52	6448
2026-01-15 13:11:01.05	81.76	26.81	-39.5	-40.7	21.3	0.00e+00	0	29	0	683671552	52	6198
2026-01-15 13:11:02.06	82.07	26.83	-39.0	-40.1	21.6	0.00e+00	0	29	0	685768704	52	5810
2026-01-15 13:11:03.07	82.38	26.85	-38.3	-39.3	22.3	0.00e+00	0	29	0	687865856	50	5940
2026-01-15 13:11:04.07	82.69	26.87	-38.3	-39.3	22.4	0.00e+00	0	29	0	688914432	50	5923
2026-01-15 13:11:05.08	83.00	26.88	-38.4	-39.4	22.2	0.00e+00	0	29	0	691011584	50	6030
2026-01-15 13:11:06.09	83.31	26.90	-38.6	-39.7	22.1	0.00e+00	0	29	0	693108736	50	6200
2026-01-15 13:11:07.10	83.63	26.91	-38.8	-39.9	21.9	0.00e+00	0	29	0	695205888	50	6333
2026-01-15 13:11:08.11	83.94	26.93	-39.0	-40.0	21.9	0.00e+00	0	29	0	697303040	50	6450
2026-01-15 13:11:09.12	84.25	26.94	-38.9	-40.0	21.7	0.00e+00	0	29	0	698351616	50	6419
2026-01-15 13:11:10.13	84.57	26.96	-38.8	-39.9	21.6	0.00e+00	0	29	0	700448768	50	6389
2026-01-15 13:11:11.14	84.88	26.97	-39.0	-40.1	21.6	0.00e+00	0	29	0	702545920	50	6513
2026-01-15 13:11:12.15	85.19	26.98	-39.0	-40.2	21.6	0.00e+00	0	29	0	704643072	50	6580
2026-01-15 13:11:13.16	85.51	26.99	-39.6	-40.9	21.1	0.00e+00	0	29	0	706740224	50	7097
2026-01-15 13:11:14.17	85.82	27.00	-39.7	-40.9	21.3	0.00e+00	0	29	0	707788800	50	7125
2026-01-15 13:11:15.18	86.14	27.01	-39.2	-40.4	21.4	0.00e+00	0	29	0	709885952	50	6740
2026-01-15 13:11:16.19	86.45	27.01	-39.2	-40.3	21.5	0.00e+00	0	29	0	711983104	50	6686
2026-01-15 13:11:17.20	86.77	27.02	-39.3	-40.5	21.4	0.00e+00	0	29	0	714080256	50	6785
2026-01-15 13:11:18.21	87.08	27.03	-39.9	-41.2	20.7	0.00e+00	0	29	0	716177408	50	7355
2026-01-15 13:11:19.22	87.40	27.03	-40.2	-41.6	20.5	0.00e+00	0	29	0	717225984	52	6849
2026-01-15 13:11:20.23	87.72	27.04	-40.1	-41.5	20.6	0.00e+00	0	29	0	719323136	52	6791
2026-01-15 13:11:21.24	88.03	27.04	-39.5	-40.7	21.2	0.00e+00	0	29	0	721420288	52	6243
2026-01-15 13:11:22.25	88.35	27.04	-39.2	-40.3	21.6	0.00e+00	0	29	0	723517440	52	5957
2026-01-15 13:11:23.25	88.66	27.04	-38.7	-39.9	21.8	0.00e+00	0	29	0	725614592	52	5676
2026-01-15 13:11:24.26	88.98	27.04	-38.5	-39.7	22.1	0.00e+00	0	29	0	726663168	50	6184
2026-01-15 13:11:25.27	89.29	27.04	-38.6	-39.6	22.1	0.00e+00	0	29	0	728760320	50	6168
2026-01-15 13:11:26.28	89.61	27.04	-38.4	-39.6	22.2	0.00e+00	0	29	0	730857472	50	6131
2026-01-15 13:11:27.29	89.92	27.04	-38.3	-39.4	22.3	0.00e+00	0	29	0	732954624	50	6010
2026-01-15 13:11:28.30	90.24	27.03	-37.9	-38.9	22.7	0.00e+00	0	29	0	735051776	50	5636
2026-01-15 13:11:29.31	90.55	27.03	-38.0	-39.1	22.6	0.00e+00	0	29	0	736100352	50	5767
2026-01-15 13:11:30.32	90.87	27.02	-38.2	-39.3	22.4	0.00e+00	0	29	0	738197504	50	5952
2026-01-15 13:11:31.33	91.18	27.02	-38.5	-39.7	21.8	0.00e+00	0	29	0	740294656	50	6232
2026-01-15 13:11:32.34	91.50	27.01	-39.2	-40.4	21.4	0.00e+00	0	29	0	742391808	50	6716
2026-01-15 13:11:33.35	91.81	27.00	-39.7	-40.9	21.0	0.00e+00	0	29	0	744488960	50	7104
2026-01-15 13:11:34.35	92.13	26.99	-39.7	-40.9	21.0	0.00e+00	0	29	0	745537536	52	6380
2026-01-15 13:11:35.36	92.44	26.98	-39.5	-40.7	21.1	0.00e+00	0	29	0	747634688	52	6215
2026-01-15 13:11:36.37	92.76	26.97	-39.0	-40.2	21.5	0.00e+00	0	29	0	749731840	52	5835
2026-01-15 13:11:37.38	93.07	26.96	-38.8	-39.9	21.9	0.00e+00	0	29	0	751828992	52	5641
2026-01-15 13:11:38.39	93.38	26.95	-38.5	-39.5	22.1	0.00e+00	0	29	0	753926144	50	6040
2026-01-15 13:11:39.40	93.70	26.93	-38.2	-39.2	22.3	0.00e+00	0	29	0	756023296	50	5872
2026-01-15 13:11:40.41	94.01	26.92	-38.3	-39.3	22.2	0.00e+00	0	29	0	757071872	50	5953
2026-01-15 13:11:41.42	94.33	26.91	-38.1	-39.2	22.4	0.00e+00	0	29	0	759169024	50	5861
2026-01-15 13:11:42.43	94.64	26.89	-38.3	-39.4	22.3	0.00e+00	0	29	0	761266176	50	6004
2026-01-15 13:11:43.44	94.95	26.87	-38.2	-39.2	22.3	0.00e+00	0	29	0	763363328	50	5874
2026-01-15 13:11:44.45	95.26	26.85	-38.0	-38.9	22.5	0.00e+00	0	29	0	765460480	50	5680
2026-01-15 13:11:45.46	95.58	26.84	-38.0	-38.9	22.7	0.00e+00	0	29	0	766509056	50	5669
2026-01-15 13:11:46.47	95.89	26.82	-37.9	-38.8	22.7	0.00e+00	0	29	0	768606208	50	5607
2026-01-15 13:11:47.47	96.20	26.80	-38.3	-39.3	22.4	0.00e+00	0	29	0	770703360	50	5910
2026-01-15 13:11:48.49	96.51	26.77	-38.2	-39.2	22.3	0.00e+00	0	29	0	772800512	50	5830
2026-01-15 13:11:49.50	96.82	26.75	-38.2	-39.3	22.4	0.00e+00	0	29	0	774897664	50	5897
2026-01-15 13:11:50.51	97.13	26.73	-37.9	-38.9	22.6	0.00e+00	0	29	0	775946240	50	5654
2026-01-15 13:11:51.52	97.44	26.70	-37.6	-38.5	22.9	0.00e+00	0	29	0	778043392	48	6103
2026-01-15 13:11:52.53	97.75	26.68	-37.3	-38.2	23.2	0.00e+00	0	29	0	780140544	48	5895
2026-01-15 13:11:53.54	98.06	26.65	-37.3	-38.2	23.1	0.00e+00	0	29	0	782237696	48	5884
2026-01-15 13:11:54.55	98.37	26.63	-37.2	-38.1	23.2	0.00e+00	0	29	0	784334848	48	5784
2026-01-15 13:11:55.56	98.67	26.60	-37.3	-38.3	23.0	0.00e+00	0	29	0	785383424	48	5903
2026-01-15 13:11:56.57	98.98	26.57	-37.6	-38.6	22.8	0.00e+00	0	29	0	787480576	48	6146
2026-01-15 13:11:57.58	99.29	26.54	-38.1	-39.2	22.3	0.00e+00	0	29	0	789577728	48	6559
2026-01-15 13:11:58.59	99.59	26.51	-38.6	-39.8	22.0	0.00e+00	0	29	0	791674880	48	7022
2026-01-15 13:11:59.60	99.90	26.48	-38.8	-40.0	21.7	0.00e+00	0	29	0	793772032	50	6403
2026-01-15 13:12:00.61	100.20	26.45	-38.7	-39.8	21.8	0.00e+00	0	29	0	794820608	50	6305
2026-01-15 13:12:01.62	100.51	26.42	-38.4	-39.5	22.3	0.00e+00	0	29	0	796917760	50	6034
2026-01-15 13:12:02.63	100.81	26.38	-37.8	-38.8	22.8	0.00e+00	0	29	0	799014912	50	5576
2026-01-15 13:12:03.64	101.12	26.35	-37.3	-38.3	23.2	0.00e+00	0	29	0	801112064	48	5904
2026-01-15 13:12:04.65	101.42	26.32	-37.0	-37.9	23.1	0.00e+00	0	29	0	803209216	48	5644
2026-01-15 13:12:05.66	101.72	26.28	-36.8	-37.7	23.6	0.00e+00	0	29	0	804257792	46	6179
2026-01-15 13:12:06.66	102.02	26.24	-36.4	-37.3	23.9	0.00e+00	0	29	0	806354944	46	5916
2026-01-15 13:12:07.67	102.32	26.21	-36.0	-36.8	24.1	0.00e+00	0	29	0	808452096	46	5615
2026-01-15 13:12:08.68	102.62	26.17	-35.6	-36.4	24.6	0.00e+00	0	29	0	810549248	44	5985
2026-01-15 13:12:09.69	102.92	26.13	-35.8	-36.6	24.5	0.00e+00	0	29	0	812646400	44	6121
2026-01-15 13:12:10.70	103.22	26.09	-36.0	-36.8	24.2	0.00e+00	0	29	0	813694976	44	6292
2026-01-15 13:12:11.71	103.51	26.05	-36.3	-37.2	24.0	0.00e+00	0	29	0	815792128	44	6540
2026-01-15 13:12:12.72	103.81	26.01	-37.1	-38.0	23.4	0.00e+00	0	29	0	817889280	46	6432
2026-01-15 13:12:13.73	104.11	25.97	-37.2	-38.1	23.1	0.00e+00	0	29	0	819986432	46	6529
2026-01-15 13:12:14.74	104.40	25.93	-37.2	-38.2	23.2	0.00e+00	0	29	0	822083584	46	6578
2026-01-15 13:12:15.75	104.70	25.88	-37.0	-38.0	23.4	0.00e+00	0	29	0	824180736	46	6408
2026-01-15 13:12:16.76	104.99	25.84	-36.3	-37.2	24.0	0.00e+00	0	29	0	825229312	46	5871
2026-01-15 13:12:17.77	105.28	25.80	-35.7	-36.6	24.4	0.00e+00	0	29	0	827326464	46	5476
2026-01-15 13:12:18.78	105.58	25.75	-35.5	-36.5	24.5	0.00e+00	0	29	0	829423616	44	6039
2026-01-15 13:12:19.79	105.87	25.70	-35.5	-36.5	24.4	0.00e+00	0	29	0	831520768	44	6042
2026-01-15 13:12:20.80	106.16	25.66	-35.5	-36.4	24.6	0.00e+00	0	29	0	833617920	44	6021
2026-01-15 13:12:21.81	106.45	25.61	-35.5	-36.4	24.5	0.00e+00	0	29	0	834666496	44	5985
2026-01-15 13:12:22.82	106.74	25.56	-35.1	-35.9	24.8	0.00e+00	0	29	0	836763648	44	5684
2026-01-15 13:12:23.83	107.02	25.51	-35.0	-35.8	24.8	0.00e+00	0	29	0	838860800	44	5616
2026-01-15 13:12:24.84	107.31	25.46	-35.0	-35.8	24.8	0.00e+00	0	29	0	840957952	44	5593
2026-01-15 13:12:25.85	107.60	25.41	-35.0	-35.8	24.9	0.00e+00	0	29	0	843055104	44	5571
2026-01-15 13:12:26.86	107.88	25.36	-35.3	-36.1	24.7	0.00e+00	0	29	0	844103680	44	5801
2026-01-15 13:12:27.87	108.17	25.31	-35.9	-36.7	24.3	0.00e+00	0	29	0	846200832	44	6202
2026-01-15 13:12:28.88	108.45	25.26	-36.4	-37.2	24.0	0.00e+00	0	29	0	848297984	44	6581
2026-01-15 13:12:29.88	108.73	25.21	-36.3	-37.1	24.0	0.00e+00	0	29	0	850395136	44	6524
2026-01-15 13:12:30.90	109.02	25.16	-36.1	-36.9	24.1	0.00e+00	0	29	0	852492288	44	6369
2026-01-15 13:12:31.90	109.29	25.10	-35.7	-36.5	24.5	0.00e+00	0	29	0	853540864	44	6068
2026-01-15 13:12:32.91	109.57	25.05	-35.3	-36.0	24.8	0.00e+00	0	29	0	855638016	44	5759
2026-01-15 13:12:33.92	109.85	24.99	-35.0	-35.7	25.0	0.00e+00	0	29	0	857735168	44	5563
2026-01-15 13:12:34.93	110.13	24.94	-34.9	-35.7	25.0	0.00e+00	0	29	0	859832320	42	6201
2026-01-15 13:12:35.94	110.41	24.88	-35.1	-35.9	24.9	0.00e+00	0	29	0	861929472	42	6353
2026-01-15 13:12:36.95	110.68	24.82	-35.1	-35.8	24.9	0.00e+00	0	29	0	862978048	42	6314
2026-01-15 13:12:37.96	110.96	24.77	-35.2	-36.0	24.8	0.00e+00	0	29	0	865075200	42	6422
2026-01-15 13:12:38.97	111.23	24.71	-35.1	-35.9	24.9	0.00e+00	0	29	0	867172352	42	6352
2026-01-15 13:12:39.98	111.51	24.65	-35.4	-36.2	24.7	0.00e+00	0	29	0	869269504	42	6550
2026-01-15 13:12:40.99	111.78	24.59	-35.9	-36.7	24.2	0.00e+00	0	29	0	871366656	44	6243
2026-01-15 13:12:42.00	112.05	24.53	-35.9	-36.7	24.3	0.00e+00	0	29	0	872415232	44	6245
2026-01-15 13:12:43.01	112.32	24.47	-35.9	-36.7	24.3	0.00e+00	0	29	0	874512384	44	6223
2026-01-15 13:12:44.02	112.59	24.41	-36.0	-36.8	24.1	0.00e+00	0	29	0	876609536	44	6306
2026-01-15 13:12:45.03	112.86	24.35	-36.0	-36.8	23.8	0.00e+00	0	29	0	878706688	44	6314
2026-01-15 13:12:46.04	113.13	24.29	-35.5	-36.3	24.5	0.00e+00	0	29	0	880803840	44	5911
2026-01-15 13:12:47.05	113.39	24.23	-35.5	-36.3	24.3	0.00e+00	0	29	0	881852416	44	5951
2026-01-15 13:12:48.06	113.66	24.17	-35.7	-36.6	24.0	0.00e+00	0	29	0	883949568	44	6115
2026-01-15 13:12:49.07	113.92	24.10	-35.8	-36.7	24.3	0.00e+00	0	29	0	886046720	44	6183
2026-01-15 13:12:50.07	114.18	24.04	-35.9	-36.7	24.2	0.00e+00	0	29	0	888143872	44	6229
2026-01-15 13:12:51.08	114.44	23.98	-36.3	-37.2	23.9	0.00e+00	0	29	0	890241024	44	6543
2026-01-15 13:12:52.09	114.70	23.91	-36.0	-36.8	24.2	0.00e+00	0	29	0	892338176	44	6274
2026-01-15 13:12:53.10	114.96	23.85	-36.0	-36.9	24.1	0.00e+00	0	29	0	893386752	44	6347
2026-01-15 13:12:54.11	115.22	23.78	-35.9	-36.7	24.2	0.00e+00	0	29	0	895483904	44	6224
2026-01-15 13:12:55.12	115.48	23.72	-36.1	-36.9	24.1	0.00e+00	0	29	0	897581056	44	6351
2026-01-15 13:12:56.13	115.74	23.65	-36.4	-37.3	23.7	0.00e+00	0	29	0	899678208	44	6643
2026-01-15 13:12:57.14	115.99	23.59	-36.8	-37.8	23.3	0.00e+00	0	29	0	901775360	46	6277
2026-01-15 13:12:58.15	116.25	23.52	-37.0	-38.0	23.2	0.00e+00	0	29	0	902823936	46	6461
2026-01-15 13:12:59.16	116.50	23.45	-37.1	-38.2	23.1	0.00e+00	0	29	0	904921088	46	6563
2026-01-15 13:13:00.17	116.76	23.38	-36.7	-37.7	23.5	0.00e+00	0	29	0	907018240	46	6195
2026-01-15 13:13:01.18	117.01	23.32	-36.5	-37.5	23.7	0.00e+00	0	29	0	909115392	46	6063
2026-01-15 13:13:02.19	117.26	23.25	-36.2	-37.1	23.9	0.00e+00	0	29	0	911212544	46	5798
2026-01-15 13:13:03.20	117.51	23.18	-35.9	-36.8	24.1	0.00e+00	0	29	0	912261120	46	5608
2026-01-15 13:13:04.20	117.75	23.11	-35.8	-36.7	24.3	0.00e+00	0	29	0	914358272	44	6176
2026-01-15 13:13:05.22	118.00	23.04	-35.9	-36.8	24.3	0.00e+00	0	29	0	916455424	44	6296
2026-01-15 13:13:06.23	118.25	22.97	-36.0	-36.9	24.2	0.00e+00	0	29	0	918552576	44	6357
2026-01-15 13:13:07.23	118.49	22.90	-36.3	-37.2	23.9	0.00e+00	0	29	0	920649728	44	6554
2026-01-15 13:13:08.24	118.74	22.83	-36.3	-37.1	23.9	0.00e+00	0	29	0	921698304	44	6527
2026-01-15 13:13:09.25	118.98	22.76	-36.3	-37.2	23.8	0.00e+00	0	29	0	923795456	44	6587
2026-01-15 13:13:10.26	119.22	22.69	-36.5	-37.4	23.7	0.00e+00	0	29	0	925892608	44	6747
2026-01-15 13:13:11.27	119.46	22.62	-36.4	-37.4	23.8	0.00e+00	0	29	0	927989760	44	6711
2026-01-15 13:13:12.28	119.70	22.54	-36.5	-37.4	23.7	0.00e+00	0	29	0	930086912	44	6744
2026-01-15 13:13:13.29	119.94	22.47	-36.5	-37.4	23.7	0.00e+00	0	29	0	931135488	44	6737
2026-01-15 13:13:14.30	120.18	22.40	-36.4	-37.3	23.9	0.00e+00	0	29	0	933232640	44	6660
2026-01-15 13:13:15.31	120.41	22.33	-36.4	-37.3	23.7	0.00e+00	0	29	0	935329792	44	6647
2026-01-15 13:13:16.32	120.65	22.25	-36.5	-37.4	23.7	0.00e+00	0	29	0	937426944	44	6754
2026-01-15 13:13:17.33	120.88	22.18	-36.5	-37.4	23.6	0.00e+00	0	29	0	939524096	44	6736
2026-01-15 13:13:18.34	121.12	22.11	-36.7	-37.7	23.6	0.00e+00	0	29	0	940572672	46	6191
2026-01-15 13:13:19.35	121.35	22.03	-36.8	-37.7	23.5	0.00e+00	0	29	0	942669824	46	6237
2026-01-15 13:13:20.36	121.58	21.96	-36.7	-37.7	23.5	0.00e+00	0	29	0	944766976	46	6208
2026-01-15 13:13:21.37	121.81	21.89	-36.7	-37.6	23.6	0.00e+00	0	29	0	946864128	46	6162
2026-01-15 13:13:22.38	122.04	21.81	-36.4	-37.3	23.8	0.00e+00	0	29	0	948961280	46	5936
2026-01-15 13:13:23.39	122.27	21.74	-36.4	-37.3	23.8	0.00e+00	0	29	0	950009856	46	5906
2026-01-15 13:13:24.40	122.49	21.66	-36.6	-37.5	23.7	0.00e+00	0	29	0	952107008	46	6060
2026-01-15 13:13:25.41	122.72	21.59	-36.8	-37.8	23.5	0.00e+00	0	29	0	954204160	46	6252
2026-01-15 13:13:26.42	122.94	21.51	-37.3	-38.3	23.0	0.00e+00	0	29	0	956301312	46	6642
2026-01-15 13:13:27.43	123.17	21.44	-37.8	-38.9	22.6	0.00e+00	0	29	0	958398464	48	6320
2026-01-15 13:13:28.44	123.39	21.36	-37.9	-39.1	22.4	0.00e+00	0	29	0	960495616	48	6490
2026-01-15 13:13:29.45	123.61	21.28	-37.8	-38.9	22.5	0.00e+00	0	29	0	961544192	48	6374
2026-01-15 13:13:30.46	123.83	21.21	-37.4	-38.4	23.1	0.00e+00	0	29	0	963641344	48	6032
2026-01-15 13:13:31.47	124.05	21.13	-36.3	-37.3	23.9	0.00e+00	0	29	0	965738496	46	5910
2026-01-15 13:13:32.48	124.27	21.05	-36.2	-37.1	24.0	0.00e+00	0	29	0	967835648	46	5799
2026-01-15 13:13:33.49	124.49	20.98	-35.9	-36.7	24.3	0.00e+00	0	29	0	968884224	46	5545
2026-01-15 13:13:34.49	124.70	20.90	-35.8	-36.6	24.1	0.00e+00	0	29	0	970981376	44	6131
2026-01-15 13:13:35.50	124.92	20.82	-36.2	-37.1	23.8	0.00e+00	0	29	0	973078528	44	6516
2026-01-15 13:13:36.51	125.13	20.75	-36.3	-37.3	23.8	0.00e+00	0	29	0	975175680	44	6652
2026-01-15 13:13:37.52	125.34	20.67	-36.7	-37.8	23.4	0.00e+00	0	29	0	977272832	44	7048
2026-01-15 13:13:38.53	125.56	20.59	-37.0	-38.1	23.1	0.00e+00	0	29	0	978321408	46	6495
2026-01-15 13:13:39.54	125.77	20.51	-37.1	-38.3	23.0	0.00e+00	0	29	0	980418560	46	6643
2026-01-15 13:13:40.55	125.98	20.44	-37.5	-38.6	22.7	0.00e+00	0	29	0	982515712	46	6900
2026-01-15 13:13:41.56	126.19	20.36	-37.8	-38.9	22.6	0.00e+00	0	29	0	984612864	48	6362
2026-01-15 13:13:42.57	126.39	20.28	-38.1	-39.3	22.3	0.00e+00	0	29	0	986710016	48	6629
2026-01-15 13:13:43.58	126.60	20.20	-38.0	-39.2	22.3	0.00e+00	0	29	0	988807168	48	6542
2026-01-15 13:13:44.59	126.81	20.12	-37.8	-38.8	22.7	0.00e+00	0	29	0	989855744	48	6279
2026-01-15 13:13:45.60	127.01	20.05	-37.5	-38.4	22.8	0.00e+00	0	29	0	991952896	48	6013
2026-01-15 13:13:46.61	127.22	19.97	-37.0	-37.9	23.3	0.00e+00	0	29	0	994050048	48	5691
2026-01-15 13:13:47.62	127.42	19.89	-36.5	-37.4	23.8	0.00e+00	0	29	0	996147200	46	6006
2026-01-15 13:13:48.63	127.62	19.81	-36.3	-37.1	23.9	0.00e+00	0	29	0	998244352	46	5787
2026-01-15 13:13:49.64	127.82	19.73	-35.8	-36.6	24.2	0.00e+00	0	29	0	999292928	46	5447
2026-01-15 13:13:50.65	128.02	19.65	-35.8	-36.7	24.2	0.00e+00	0	29	0	1001390080	44	6176
2026-01-15 13:13:51.66	128.22	19.57	-36.1	-36.9	24.0	0.00e+00	0	29	0	1003487232	44	6360
2026-01-15 13:13:52.67	128.42	19.49	-36.8	-37.7	23.4	0.00e+00	0	29	0	1005584384	44	6950
2026-01-15 13:13:53.68	128.61	19.41	-37.2	-38.1	23.0	0.00e+00	0	29	0	1007681536	46	6520
2026-01-15 13:13:54.69	128.81	19.33	-37.6	-38.6	22.7	0.00e+00	0	29	0	1008730112	46	6907
2026-01-15 13:13:55.70	129.00	19.26	-37.8	-38.8	22.7	0.00e+00	0	29	0	1010827264	48	6275
2026-01-15 13:13:56.71	129.20	19.18	-37.6	-38.6	22.8	0.00e+00	0	29	0	1012924416	48	6135
2026-01-15 13:13:57.72	129.39	19.10	-37.6	-38.6	22.8	0.00e+00	0	29	0	1015021568	48	6136
2026-01-15 13:13:58.73	129.58	19.02	-37.3	-38.3	23.1	0.00e+00	0	29	0	1017118720	48	5897
2026-01-15 13:13:59.74	129.77	18.94	-36.7	-37.6	23.5	0.00e+00	0	29	0	1018167296	48	5451
2026-01-15 13:14:00.75	129.96	18.86	-36.6	-37.5	23.5	0.00e+00	0	29	0	1020264448	46	6040
2026-01-15 13:14:01.76	130.15	18.78	-36.9	-37.7	23.4	0.00e+00	0	29	0	1022361600	46	6244
2026-01-15 13:14:02.77	130.34	18.70	-36.9	-37.8	23.4	0.00e+00	0	29	0	1024458752	46	6270
2026-01-15 13:14:03.77	130.53	18.62	-36.8	-37.8	23.4	0.00e+00	0	29	0	1026555904	46	6256
2026-01-15 13:14:04.79	130.71	18.54	-36.7	-37.7	23.3	0.00e+00	0	29	0	1028653056	46	6232
2026-01-15 13:14:05.80	130.90	18.46	-36.5	-37.5	23.3	0.00e+00	0	29	0	1029701632	46	6041
2026-01-15 13:14:06.80	131.08	18.38	-36.2	-37.1	23.8	0.00e+00	0	29	0	1031798784	46	5808
2026-01-15 13:14:07.81	131.27	18.30	-36.1	-37.0	23.9	0.00e+00	0	29	0	1033895936	46	5709
2026-01-15 13:14:08.82	131.45	18.22	-35.9	-36.8	24.1	0.00e+00	0	29	0	1035993088	46	5606
2026-01-15 13:14:09.83	131.63	18.14	-36.1	-37.1	23.8	0.00e+00	0	29	0	1037041664	46	5797
2026-01-15 13:14:10.84	131.81	18.06	-36.3	-37.3	23.7	0.00e+00	0	29	0	1039138816	46	5900
2026-01-15 13:14:11.85	131.99	17.98	-36.6	-37.5	23.6	0.00e+00	0	29	0	1041235968	46	6063
2026-01-15 13:14:12.86	132.17	17.90	-36.6	-37.5	23.6	0.00e+00	0	29	0	1043333120	46	6080
2026-01-15 13:14:13.87	132.35	17.82	-36.7	-37.7	23.4	0.00e+00	0	29	0	1045430272	46	6238
2026-01-15 13:14:14.88	132.52	17.74	-36.6	-37.7	23.5	0.00e+00	0	29	0	1046478848	46	6202
2026-01-15 13:14:15.89	132.70	17.66	-36.6	-37.6	23.5	0.00e+00	0	29	0	1048576000	46	6148
2026-01-15 13:14:16.89	132.87	17.58	-36.5	-37.5	23.6	0.00e+00	0	29	0	1050673152	46	6087
2026-01-15 13:14:17.90	133.05	17.50	-36.6	-37.5	23.5	0.00e+00	0	29	0	1052770304	46	6085
2026-01-15 13:14:18.91	133.22	17.42	-36.9	-37.8	23.3	0.00e+00	0	29	0	1054867456	46	6294
2026-01-15 13:14:19.92	133.39	17.34	-37.1	-38.1	23.1	0.00e+00	0	29	0	1056964608	46	6476
2026-01-15 13:14:20.93	133.56	17.26	-37.5	-38.5	22.8	0.00e+00	0	29	0	1058013184	46	6800
2026-01-15 13:14:21.94	133.73	17.18	-38.0	-39.0	22.4	0.00e+00	0	29	0	1060110336	48	6439
2026-01-15 13:14:22.95	133.90	17.10	-38.0	-39.1	22.3	0.00e+00	0	29	0	1062207488	48	6480
2026-01-15 13:14:23.96	134.07	17.02	-38.0	-39.0	22.4	0.00e+00	0	29	0	1064304640	48	6417
2026-01-15 13:14:24.97	134.24	16.94	-37.8	-38.8	22.6	0.00e+00	0	29	0	1066401792	48	6282
2026-01-15 13:14:25.98	134.41	16.86	-37.6	-38.6	22.8	0.00e+00	0	29	0	1067450368	48	6168
2026-01-15 13:14:26.99	134.57	16.78	-37.2	-38.2	22.9	0.00e+00	0	29	0	1069547520	48	5839
2026-01-15 13:14:28.00	134.74	16.70	-37.0	-38.0	23.2	0.00e+00	0	29	0	1071644672	48	5699
2026-01-15 13:14:29.01	134.90	16.62	-36.9	-37.8	23.2	0.00e+00	0	29	0	1073741824	48	5620
2026-01-15 13:14:30.02	135.07	16.54	-36.7	-37.6	23.5	0.00e+00	0	29	0	1075838976	46	6107
2026-01-15 13:14:31.03	135.23	16.46	-36.8	-37.7	23.3	0.00e+00	0	29	0	1076887552	46	6194
2026-01-15 13:14:32.04	135.39	16.38	-36.6	-37.5	23.6	0.00e+00	0	29	0	1078984704	46	6051
2026-01-15 13:14:33.05	135.55	16.30	-36.4	-37.3	23.6	0.00e+00	0	29	0	1081081856	46	5933
2026-01-15 13:14:34.06	135.71	16.22	-36.4	-37.4	23.7	0.00e+00	0	29	0	1083179008	46	5977
2026-01-15 13:14:35.07	135.87	16.14	-36.4	-37.3	23.7	0.00e+00	0	29	0	1085276160	46	5924
2026-01-15 13:14:36.08	136.03	16.06	-36.1	-37.0	23.9	0.00e+00	0	29	0	1086324736	46	5759
2026-01-15 13:14:37.09	136.19	15.98	-36.1	-37.0	23.9	0.00e+00	0	29	0	1088421888	46	5751
2026-01-15 13:14:38.10	136.35	15.91	-36.3	-37.2	23.8	0.00e+00	0	29	0	1090519040	46	5883
2026-01-15 13:14:39.11	136.50	15.83	-36.2	-37.1	23.9	0.00e+00	0	29	0	1092616192	46	5768
2026-01-15 13:14:40.12	136.66	15.75	-36.4	-37.3	23.7	0.00e+00	0	29	0	1094713344	46	5949
2026-01-15 13:14:41.12	136.81	15.67	-36.5	-37.4	23.6	0.00e+00	0	29	0	1095761920	46	6011
2026-01-15 13:14:42.13	136.97	15.59	-36.7	-37.6	23.4	0.00e+00	0	29	0	1097859072	46	6130
2026-01-15 13:14:43.14	137.12	15.51	-36.8	-37.7	23.4	0.00e+00	0	29	0	1099956224	46	6196
2026-01-15 13:14:44.16	137.27	15.43	-37.1	-38.1	23.1	0.00e+00	0	29	0	1102053376	46	6473
2026-01-15 13:14:45.17	137.43	15.35	-37.3	-38.3	22.5	0.00e+00	0	29	0	1104150528	46	6636
2026-01-15 13:14:46.17	137.57	15.27	-37.6	-38.6	22.6	0.00e+00	0	29	0	1105199104	46	6887
2026-01-15 13:14:47.18	137.72	15.20	-37.6	-38.6	22.7	0.00e+00	0	29	0	1107296256	46	6853
2026-01-15 13:14:48.19	137.87	15.12	-37.7	-38.7	22.5	0.00e+00	0	29	0	1109393408	46	6955
2026-01-15 13:14:49.20	138.02	15.04	-37.7	-38.8	22.3	0.00e+00	0	29	0	1111490560	48	6271
2026-01-15 13:14:50.21	138.17	14.96	-37.8	-38.8	22.2	0.00e+00	0	29	0	1113587712	48	6308
2026-01-15 13:14:51.22	138.32	14.88	-37.6	-38.6	22.0	0.00e+00	0	29	0	1114636288	48	6157
2026-01-15 13:14:52.23	138.46	14.80	-37.7	-38.8	22.3	0.00e+00	0	29	0	1116733440	48	6257
2026-01-15 13:14:53.24	138.61	14.72	-37.4	-38.4	22.7	0.00e+00	0	29	0	1118830592	48	6006
2026-01-15 13:14:54.25	138.75	14.65	-37.2	-38.2	22.8	0.00e+00	0	29	0	1120927744	48	5843
2026-01-15 13:14:55.26	138.90	14.57	-37.2	-38.1	23.0	0.00e+00	0	29	0	1123024896	48	5820
2026-01-15 13:14:56.27	139.04	14.49	-37.1	-38.1	23.0	0.00e+00	0	29	0	1125122048	48	5768
2026-01-15 13:14:57.28	139.18	14.41	-37.0	-37.9	23.1	0.00e+00	0	29	0	1126170624	48	5674
2026-01-15 13:14:58.28	139.32	14.34	-36.8	-37.8	23.2	0.00e+00	0	29	0	1128267776	48	5571
2026-01-15 13:14:59.29	139.47	14.26	-36.8	-37.7	23.2	0.00e+00	0	29	0	1130364928	48	5566
2026-01-15 13:15:00.30	139.61	14.18	-36.9	-37.8	23.2	0.00e+00	0	29	0	1132462080	48	5596
2026-01-15 13:15:01.31	139.75	14.10	-36.9	-37.9	23.2	0.00e+00	0	29	0	1134559232	48	5634
2026-01-15 13:15:02.32	139.89	14.02	-36.9	-37.8	23.1	0.00e+00	0	29	0	1135607808	48	5629
2026-01-15 13:15:03.33	140.02	13.95	-36.8	-37.8	23.2	0.00e+00	0	29	0	1137704960	46	6251
2026-01-15 13:15:04.34	140.16	13.87	-36.9	-37.8	23.1	0.00e+00	0	29	0	1139802112	46	6291
2026-01-15 13:15:05.35	140.30	13.79	-36.9	-37.8	23.0	0.00e+00	0	29	0	1141899264	46	6313
2026-01-15 13:15:06.36	140.43	13.72	-36.8	-37.8	23.1	0.00e+00	0	29	0	1143996416	46	6250
2026-01-15 13:15:07.37	140.57	13.64	-37.0	-38.0	22.9	0.00e+00	0	29	0	1145044992	46	6403
2026-01-15 13:15:08.38	140.71	13.56	-37.1	-38.1	22.7	0.00e+00	0	29	0	1147142144	46	6483
2026-01-15 13:15:09.39	140.84	13.49	-37.2	-38.2	22.6	0.00e+00	0	29	0	1149239296	46	6572
2026-01-15 13:15:10.40	140.97	13.41	-37.6	-38.6	22.2	0.00e+00	0	29	0	1151336448	46	6872
2026-01-15 13:15:11.41	141.11	13.33	-37.9	-38.9	21.9	0.00e+00	0	29	0	1153433600	48	6376
2026-01-15 13:15:12.42	141.24	13.26	-38.4	-39.5	21.4	0.00e+00	0	29	0	1154482176	48	6809
2026-01-15 13:15:13.43	141.37	13.18	-38.6	-39.7	21.0	0.00e+00	0	29	0	1156579328	48	6994
2026-01-15 13:15:14.44	141.50	13.10	-38.8	-40.0	20.9	0.00e+00	0	29	0	1158676480	50	6449
2026-01-15 13:15:15.45	141.63	13.03	-39.0	-40.2	20.7	0.00e+00	0	29	0	1160773632	50	6578
2026-01-15 13:15:16.46	141.76	12.95	-39.1	-40.4	20.5	0.00e+00	0	29	0	1162870784	50	6728
2026-01-15 13:15:17.47	141.89	12.87	-39.0	-40.3	20.6	0.00e+00	0	29	0	1163919360	50	6643
2026-01-15 13:15:18.48	142.02	12.80	-39.0	-40.3	20.6	0.00e+00	0	29	0	1166016512	50	6652
2026-01-15 13:15:19.49	142.15	12.72	-39.0	-40.3	20.6	0.00e+00	0	29	0	1168113664	50	6661
2026-01-15 13:15:20.50	142.27	12.65	-38.7	-39.9	21.0	0.00e+00	0	29	0	1170210816	50	6347
2026-01-15 13:15:21.50	142.40	12.57	-38.6	-39.8	21.1	0.00e+00	0	29	0	1172307968	50	6264
2026-01-15 13:15:22.51	142.52	12.50	-38.5	-39.6	21.3	0.00e+00	0	29	0	1173356544	50	6149
2026-01-15 13:15:23.52	142.65	12.42	-38.3	-39.4	21.4	0.00e+00	0	29	0	1175453696	50	5992
2026-01-15 13:15:24.53	142.77	12.35	-38.3	-39.4	21.5	0.00e+00	0	29	0	1177550848	50	5991
2026-01-15 13:15:25.54	142.90	12.27	-38.3	-39.4	21.6	0.00e+00	0	29	0	1179648000	50	6011
2026-01-15 13:15:26.55	143.02	12.20	-38.4	-39.5	21.5	0.00e+00	0	29	0	1181745152	50	6075
2026-01-15 13:15:27.56	143.15	12.12	-38.4	-39.5	21.5	0.00e+00	0	29	0	1182793728	50	6063
2026-01-15 13:15:28.57	143.27	12.05	-38.3	-39.4	21.5	0.00e+00	0	29	0	1184890880	50	6011
2026-01-15 13:15:29.58	143.39	11.97	-38.6	-39.7	21.3	0.00e+00	0	29	0	1186988032	50	6230
2026-01-15 13:15:30.59	143.51	11.90	-38.5	-39.6	21.4	0.00e+00	0	29	0	1189085184	50	6157
2026-01-15 13:15:31.60	143.63	11.82	-38.9	-40.1	20.9	0.00e+00	0	29	0	1191182336	50	6493
2026-01-15 13:15:32.60	143.75	11.75	-39.1	-40.3	20.8	0.00e+00	0	29	0	1192230912	50	6656
2026-01-15 13:15:33.62	143.87	11.68	-38.9	-40.1	21.0	0.00e+00	0	29	0	1194328064	50	6494
2026-01-15 13:15:34.62	143.99	11.60	-38.9	-40.0	21.0	0.00e+00	0	29	0	1196425216	50	6457
2026-01-15 13:15:35.63	144.11	11.53	-38.8	-39.9	21.3	0.00e+00	0	29	0	1198522368	50	6372
2026-01-15 13:15:36.64	144.22	11.45	-38.7	-39.8	21.3	0.00e+00	0	29	0	1200619520	50	6279
2026-01-15 13:15:37.65	144.34	11.38	-38.7	-39.8	21.2	0.00e+00	0	29	0	1202716672	50	6314
2026-01-15 13:15:38.66	144.46	11.31	-38.4	-39.5	21.6	0.00e+00	0	29	0	1203765248	50	6087
2026-01-15 13:15:39.67	144.57	11.23	-38.3	-39.4	21.6	0.00e+00	0	29	0	1205862400	50	5991
2026-01-15 13:15:40.68	144.69	11.16	-38.4	-39.5	21.6	0.00e+00	0	29	0	1207959552	50	6057
2026-01-15 13:15:41.69	144.80	11.09	-38.2	-39.3	21.7	0.00e+00	0	29	0	1210056704	50	5943
2026-01-15 13:15:42.70	144.92	11.01	-38.5	-39.6	21.5	0.00e+00	0	29	0	1212153856	50	6119
2026-01-15 13:15:43.71	145.03	10.94	-38.3	-39.4	21.6	0.00e+00	0	29	0	1213202432	50	6025
2026-01-15 13:15:44.72	145.14	10.87	-38.4	-39.5	21.6	0.00e+00	0	29	0	1215299584	50	6058
2026-01-15 13:15:45.73	145.26	10.79	-38.7	-39.9	21.2	0.00e+00	0	29	0	1217396736	50	6333
2026-01-15 13:15:46.74	145.37	10.72	-38.6	-39.8	21.4	0.00e+00	0	29	0	1219493888	50	6266
2026-01-15 13:15:47.75	145.48	10.65	-38.7	-39.8	21.3	0.00e+00	0	29	0	1221591040	50	6279
2026-01-15 13:15:48.76	145.59	10.58	-38.7	-39.8	21.4	0.00e+00	0	29	0	1222639616	50	6289
