passes_logs/2026/01/15/R4.6S_Anadyr/R4.6S_Anadyr__20260115_233238_AQUA_rec.log

#Pass ID: 20260115_233238_AQUA
#Satellite: AQUA
#Configuration: AQUA
#almurnet v.1.7.20251203
#Start time: 2026-01-15 23:35:45

#Version: 2.2.20231116
#Station: R4.6S_Anadyr
#Location: 177.4865 lon 64.73178 lat
#TLE: 1 27424U 02022A   26014.61231444  .00000653  00000+0  14070-3 0  9991
#TLE: 2 27424  98.4080 341.0332 0002042  78.9336 335.9961 14.61820174260839

#Time	Az	El	Level	Level2	SNR	BER	BlckErr	Temp	State	Recorded	gain1	gain2
2026-01-15 23:35:45.93	76.12	11.47	-48.1	-63.1	3.5	1.51e+00	0	28	0	0	60	51514
2026-01-15 23:35:46.93	75.96	11.53	-48.6	-66.5	3.5	3.02e+01	0	28	104	0	60	81166
2026-01-15 23:35:47.94	75.79	11.60	-48.7	-66.6	3.5	3.02e+01	0	28	104	0	60	82178
2026-01-15 23:35:48.95	75.62	11.67	-48.6	-66.5	3.5	3.02e+01	0	28	104	0	60	81231
2026-01-15 23:35:49.96	75.46	11.73	-48.6	-66.5	3.5	3.02e+01	0	28	104	0	60	81363
2026-01-15 23:35:50.97	75.29	11.80	-48.6	-66.5	3.5	3.02e+01	0	28	104	0	60	81559
2026-01-15 23:35:51.98	75.12	11.87	-48.7	-66.5	3.5	3.02e+01	0	28	104	0	60	81425
2026-01-15 23:35:52.99	74.95	11.93	-48.6	-66.5	3.5	3.02e+01	0	28	104	0	60	81373
2026-01-15 23:35:54.00	74.78	12.00	-48.6	-66.5	3.5	3.02e+01	0	28	104	0	60	81588
2026-01-15 23:35:55.01	74.61	12.07	-48.4	-66.5	3.5	3.02e+01	0	28	104	0	60	81554
2026-01-15 23:35:56.02	74.44	12.13	-48.4	-66.5	3.5	3.02e+01	0	28	104	0	60	81133
2026-01-15 23:35:57.03	74.27	12.20	-48.1	-66.5	3.5	3.02e+01	0	28	104	0	60	81049
2026-01-15 23:35:58.04	74.10	12.27	-47.2	-66.4	3.5	3.02e+01	0	28	104	0	60	80104
2026-01-15 23:35:59.05	73.92	12.33	-48.2	-66.2	3.5	3.02e+01	0	28	104	0	60	78660
2026-01-15 23:36:00.06	73.75	12.40	-48.1	-66.0	3.5	3.02e+01	0	28	104	0	60	77008
2026-01-15 23:36:01.05	73.57	12.47	-47.9	-66.1	3.5	3.02e+01	0	28	104	0	60	77773
2026-01-15 23:36:02.06	73.40	12.53	-47.9	-66.0	3.5	3.02e+01	0	28	104	0	60	76604
2026-01-15 23:36:03.07	73.22	12.60	-47.8	-66.0	3.5	3.02e+01	0	28	104	0	60	76464
2026-01-15 23:36:04.08	73.04	12.67	-47.9	-66.0	3.5	3.02e+01	0	28	104	0	60	76738
2026-01-15 23:36:05.09	72.86	12.73	-47.8	-66.0	3.5	3.02e+01	0	28	104	0	60	76715
2026-01-15 23:36:06.10	72.68	12.80	-47.8	-66.0	3.5	3.02e+01	0	28	104	0	60	76542
2026-01-15 23:36:07.11	72.50	12.86	-47.8	-65.9	3.5	3.02e+01	0	28	104	0	60	76239
2026-01-15 23:36:08.12	72.32	12.93	-47.8	-65.9	3.5	3.02e+01	0	28	104	0	60	76276
2026-01-15 23:36:09.13	72.14	13.00	-47.8	-65.9	3.5	3.02e+01	0	28	104	0	60	75929
2026-01-15 23:36:10.14	71.95	13.06	-47.8	-65.9	3.5	3.02e+01	0	28	104	0	60	75885
2026-01-15 23:36:11.15	71.77	13.13	-47.8	-65.9	3.5	3.02e+01	0	28	104	0	60	75715
2026-01-15 23:36:12.16	71.58	13.19	-47.8	-65.9	3.5	3.02e+01	0	28	104	0	60	75871
2026-01-15 23:36:13.17	71.40	13.26	-47.8	-65.9	3.5	3.02e+01	0	28	104	0	60	75618
2026-01-15 23:36:14.18	71.21	13.33	-47.7	-65.9	3.5	3.02e+01	0	28	104	0	60	75820
2026-01-15 23:36:15.19	71.02	13.39	-47.8	-65.9	3.5	3.02e+01	0	28	104	0	60	76322
2026-01-15 23:36:16.20	70.83	13.46	-47.8	-66.0	3.5	3.02e+01	0	28	104	0	60	76377
2026-01-15 23:36:17.21	70.64	13.52	-47.7	-65.9	3.5	3.02e+01	0	28	104	0	60	75645
2026-01-15 23:36:18.21	70.45	13.59	-47.8	-65.9	3.5	3.02e+01	0	28	104	0	60	75647
2026-01-15 23:36:19.22	70.26	13.65	-47.8	-65.9	3.5	3.02e+01	0	28	104	0	60	76220
2026-01-15 23:36:20.23	70.07	13.72	-47.7	-65.9	3.5	3.02e+01	0	28	104	0	60	75524
2026-01-15 23:36:21.24	69.87	13.78	-47.8	-65.9	3.5	3.02e+01	0	28	104	0	60	76117
2026-01-15 23:36:22.25	69.68	13.85	-47.8	-65.9	3.5	3.02e+01	0	28	104	0	60	75986
2026-01-15 23:36:23.26	69.48	13.91	-47.7	-65.9	3.5	3.02e+01	0	28	104	0	60	76027
2026-01-15 23:36:24.27	69.29	13.98	-47.7	-65.9	3.5	3.02e+01	0	28	104	0	60	75992
2026-01-15 23:36:25.28	69.09	14.04	-47.7	-65.8	3.5	3.02e+01	0	28	104	0	60	75444
2026-01-15 23:36:26.29	68.89	14.10	-47.7	-65.8	3.5	3.02e+01	0	28	104	0	60	75440
2026-01-15 23:36:27.30	68.69	14.17	-47.7	-65.8	3.5	3.02e+01	0	28	104	0	60	75065
2026-01-15 23:36:28.31	68.49	14.23	-47.7	-65.9	3.5	3.02e+01	0	28	104	0	60	75707
2026-01-15 23:36:29.32	68.29	14.30	-47.7	-65.9	3.5	3.02e+01	0	28	104	0	60	76165
2026-01-15 23:36:30.33	68.09	14.36	-47.7	-65.8	3.5	3.02e+01	0	28	104	0	60	74758
2026-01-15 23:36:31.34	67.89	14.42	-47.7	-65.5	3.5	3.02e+01	0	28	104	0	60	72764
2026-01-15 23:36:32.35	67.68	14.49	-47.7	-65.5	3.5	3.02e+01	0	28	104	0	60	72443
2026-01-15 23:36:33.36	67.48	14.55	-47.7	-65.6	3.5	3.02e+01	0	28	104	0	60	73342
2026-01-15 23:36:34.37	67.27	14.61	-47.7	-65.5	3.5	3.02e+01	0	28	104	0	60	72128
2026-01-15 23:36:35.38	67.06	14.68	-47.6	-64.7	3.5	3.02e+01	0	28	104	0	60	66486
2026-01-15 23:36:36.39	66.86	14.74	-47.5	-64.5	3.5	3.02e+01	0	28	104	0	60	64855
2026-01-15 23:36:37.40	66.65	14.80	-47.7	-65.6	3.5	3.02e+01	0	28	104	0	60	73103
2026-01-15 23:36:38.41	66.44	14.86	-47.7	-65.7	3.5	3.02e+01	0	28	104	0	60	74603
2026-01-15 23:36:39.42	66.23	14.93	-47.8	-65.9	3.5	3.02e+01	0	28	104	0	60	75543
2026-01-15 23:36:40.43	66.02	14.99	-47.5	-64.4	3.5	3.02e+01	0	28	104	0	60	64236
2026-01-15 23:36:41.44	65.80	15.05	-47.6	-65.0	3.5	3.02e+01	0	28	104	0	60	68586
2026-01-15 23:36:42.45	65.59	15.11	-45.8	-59.4	3.5	3.02e+01	0	28	104	0	60	35867
2026-01-15 23:36:43.46	65.38	15.17	-39.1	-49.8	3.6	3.02e+01	0	28	104	0	54	16735
2026-01-15 23:36:44.47	65.16	15.23	-36.9	-47.3	3.5	3.02e+01	0	28	104	0	48	17818
2026-01-15 23:36:45.48	64.95	15.29	-42.8	-54.2	3.5	3.02e+01	0	28	104	0	56	24819
2026-01-15 23:36:46.49	64.73	15.35	-36.7	-47.2	3.6	3.02e+01	0	28	104	0	54	12461
2026-01-15 23:36:47.50	64.51	15.42	-36.8	-47.2	3.5	3.02e+01	0	28	104	0	48	17595
2026-01-15 23:36:48.51	64.29	15.48	-35.8	-46.1	3.5	3.02e+01	0	28	104	0	46	17341
2026-01-15 23:36:49.52	64.07	15.54	-43.8	-56.0	3.5	3.02e+01	0	28	104	0	60	24331
2026-01-15 23:36:50.53	63.85	15.60	-37.8	-48.2	3.5	3.02e+01	0	28	104	0	52	15724
2026-01-15 23:36:51.54	63.63	15.65	-36.0	-46.3	3.6	3.02e+01	0	28	104	0	48	15872
2026-01-15 23:36:52.55	63.41	15.71	-35.4	-45.7	3.5	3.02e+01	0	28	104	0	46	16598
2026-01-15 23:36:53.56	63.18	15.77	-35.9	-46.3	3.5	3.02e+01	0	28	104	0	46	17701
2026-01-15 23:36:54.57	62.96	15.83	-35.5	-45.9	3.5	3.02e+01	0	28	104	0	46	16996
2026-01-15 23:36:55.57	62.73	15.89	-37.3	-47.8	3.3	3.02e+01	0	28	104	0	46	21225
2026-01-15 23:36:56.58	62.51	15.95	-45.1	-58.7	3.5	3.02e+01	0	28	104	0	60	33245
2026-01-15 23:36:57.59	62.28	16.01	-39.3	-50.6	3.5	3.02e+01	0	28	104	0	52	20617
2026-01-15 23:36:58.60	62.05	16.06	-42.5	-58.7	3.5	3.02e+01	0	28	104	0	60	33055
2026-01-15 23:36:59.61	61.82	16.12	-38.8	-51.6	3.5	3.02e+01	0	28	104	0	52	23212
2026-01-15 23:37:00.62	61.59	16.18	-39.3	-51.9	3.5	3.02e+01	0	28	104	0	52	24108
2026-01-15 23:37:01.63	61.36	16.23	-39.9	-51.5	3.5	3.02e+01	0	28	104	0	54	20511
2026-01-15 23:37:02.64	61.13	16.29	-39.1	-50.1	3.5	3.02e+01	0	28	104	0	52	19563
2026-01-15 23:37:03.65	60.90	16.35	-45.9	-59.4	3.5	3.02e+01	0	28	104	0	60	35886
2026-01-15 23:37:04.66	60.66	16.40	-38.1	-49.2	3.6	3.02e+01	0	28	104	0	48	22027
2026-01-15 23:37:05.67	60.43	16.46	-46.7	-64.0	3.5	3.02e+01	0	28	104	0	60	61013
2026-01-15 23:37:06.68	60.19	16.51	-36.4	-46.9	3.5	3.02e+01	0	28	104	0	48	17011
2026-01-15 23:37:07.69	59.95	16.57	-37.3	-47.7	3.5	3.02e+01	0	28	104	0	50	16644
2026-01-15 23:37:08.69	59.72	16.62	-36.9	-47.4	3.5	3.02e+01	0	28	104	0	50	15962
2026-01-15 23:37:09.70	59.48	16.67	-36.9	-47.4	3.5	3.02e+01	0	28	104	0	48	18068
2026-01-15 23:37:10.71	59.24	16.73	-37.3	-47.8	3.5	3.02e+01	0	28	104	0	48	18888
2026-01-15 23:37:11.72	59.00	16.78	-34.8	-45.2	3.5	3.02e+01	0	28	104	0	46	15735
2026-01-15 23:37:12.73	58.76	16.83	-35.9	-46.5	3.5	3.02e+01	0	28	104	0	44	20327
2026-01-15 23:37:13.74	58.52	16.89	-43.4	-56.2	3.5	3.02e+01	0	28	104	0	54	35297
2026-01-15 23:37:14.75	58.27	16.94	-41.7	-55.2	3.5	3.02e+01	0	28	104	0	58	24991
2026-01-15 23:37:15.75	58.03	16.99	-43.5	-55.0	3.5	3.02e+01	0	28	104	0	52	34445
2026-01-15 23:37:16.76	57.79	17.04	-37.8	-48.3	3.5	3.02e+01	0	28	104	0	52	15878
2026-01-15 23:37:17.77	57.54	17.09	-36.3	-46.6	3.5	3.02e+01	0	28	104	0	48	16508
2026-01-15 23:37:18.78	57.29	17.14	-35.6	-45.9	3.5	3.02e+01	0	28	104	0	46	16977
2026-01-15 23:37:19.79	57.05	17.19	-35.2	-45.6	3.5	3.02e+01	0	28	104	0	46	16444
2026-01-15 23:37:20.80	56.80	17.24	-45.9	-58.8	3.5	3.02e+01	0	28	104	0	60	33533
2026-01-15 23:37:21.81	56.55	17.29	-37.2	-47.8	3.5	3.02e+01	0	28	104	0	50	16752
2026-01-15 23:37:22.82	56.30	17.34	-44.8	-58.7	3.5	3.02e+01	0	28	104	0	56	41583
2026-01-15 23:37:23.83	56.05	17.39	-44.6	-56.6	3.5	3.02e+01	0	28	104	0	60	26060
2026-01-15 23:37:24.84	55.79	17.44	-47.2	-63.2	3.5	3.02e+01	0	28	104	0	60	55845
2026-01-15 23:37:25.85	55.54	17.49	-39.5	-50.2	3.5	3.02e+01	0	28	104	0	56	15660
2026-01-15 23:37:26.86	55.29	17.53	-39.1	-49.7	3.5	3.02e+01	0	28	104	0	52	18562
2026-01-15 23:37:27.86	55.04	17.58	-38.4	-48.9	3.5	3.02e+01	0	28	104	0	52	17017
2026-01-15 23:37:28.87	54.78	17.63	-38.6	-49.1	3.5	3.02e+01	0	28	104	0	52	17415
2026-01-15 23:37:29.88	54.52	17.67	-40.5	-51.5	3.5	3.02e+01	0	28	104	0	54	20433
2026-01-15 23:37:30.89	54.27	17.72	-47.7	-65.2	3.5	3.02e+01	0	28	104	0	60	69894
2026-01-15 23:37:31.89	54.01	17.76	-43.5	-55.5	3.5	3.02e+01	0	28	104	0	56	28804
2026-01-15 23:37:32.90	53.75	17.81	-47.3	-65.7	3.5	3.02e+01	0	28	104	0	60	73831
2026-01-15 23:37:33.91	53.49	17.85	-37.4	-47.9	3.5	3.02e+01	0	28	104	0	48	18983
2026-01-15 23:37:34.92	53.23	17.89	-37.0	-47.3	3.5	3.02e+01	0	28	104	0	48	17847
2026-01-15 23:37:35.93	52.97	17.94	-36.7	-47.0	3.5	3.02e+01	0	28	104	0	48	17285
2026-01-15 23:37:36.94	52.71	17.98	-35.8	-46.1	3.5	3.02e+01	0	28	104	0	46	17306
2026-01-15 23:37:37.95	52.45	18.02	-35.5	-45.8	3.5	3.02e+01	0	28	104	0	46	16760
2026-01-15 23:37:38.96	52.19	18.06	-37.1	-47.5	3.5	3.02e+01	0	28	104	0	46	20453
2026-01-15 23:37:39.97	51.92	18.10	-37.2	-47.7	3.5	3.02e+01	0	28	104	0	46	20862
2026-01-15 23:37:40.98	51.66	18.14	-47.6	-65.2	3.5	3.02e+01	0	28	104	0	60	70317
2026-01-15 23:37:41.99	51.39	18.18	-45.0	-57.3	3.5	3.02e+01	0	28	104	0	60	28230
2026-01-15 23:37:43.00	51.12	18.22	-47.8	-65.8	3.5	3.02e+01	0	28	104	0	60	75383
2026-01-15 23:37:44.01	50.86	18.26	-36.5	-46.9	3.5	3.02e+01	0	28	104	0	48	16966
2026-01-15 23:37:45.02	50.59	18.30	-35.9	-46.3	3.5	3.02e+01	0	28	104	0	48	15822
2026-01-15 23:37:46.02	50.32	18.34	-35.3	-45.6	3.5	3.02e+01	0	28	104	0	46	16451
2026-01-15 23:37:47.03	50.05	18.37	-35.0	-45.4	3.5	3.02e+01	0	28	104	0	46	15958
2026-01-15 23:37:48.04	49.78	18.41	-41.0	-51.9	3.5	3.02e+01	0	28	104	0	54	21406
2026-01-15 23:37:49.05	49.51	18.45	-37.2	-47.7	3.5	3.02e+01	0	28	104	0	46	20939
2026-01-15 23:37:50.06	49.24	18.48	-47.4	-65.6	3.5	3.02e+01	0	28	104	0	60	73626
2026-01-15 23:37:51.07	48.97	18.52	-44.7	-57.2	3.5	3.02e+01	0	28	104	0	60	27884
2026-01-15 23:37:52.08	48.70	18.55	-48.1	-66.0	3.5	3.02e+01	0	28	104	0	60	76981
2026-01-15 23:37:53.09	48.43	18.58	-38.8	-49.5	3.5	3.02e+01	0	28	104	0	54	16215
2026-01-15 23:37:54.10	48.15	18.62	-39.9	-50.6	3.5	3.02e+01	0	28	104	0	52	20607
2026-01-15 23:37:55.11	47.88	18.65	-40.5	-51.2	3.5	3.02e+01	0	28	104	0	54	19691
2026-01-15 23:37:56.12	47.60	18.68	-39.4	-50.0	3.5	3.02e+01	0	28	104	0	54	17174
2026-01-15 23:37:57.13	47.33	18.71	-40.5	-51.4	3.5	3.02e+01	0	28	104	0	56	17950
2026-01-15 23:37:58.14	47.05	18.74	-47.6	-64.0	3.6	3.02e+01	0	28	104	0	60	60971
2026-01-15 23:37:59.15	46.77	18.77	-44.7	-57.0	3.5	3.02e+01	0	28	104	0	60	27270
2026-01-15 23:38:00.15	46.50	18.80	-47.5	-63.6	3.5	3.02e+01	0	28	104	0	60	58084
2026-01-15 23:38:01.16	46.22	18.83	-39.0	-49.6	3.5	3.02e+01	0	28	104	0	50	20615
2026-01-15 23:38:02.17	45.94	18.86	-37.4	-47.7	3.5	3.02e+01	0	28	104	0	50	16696
2026-01-15 23:38:03.18	45.66	18.89	-36.5	-46.8	3.5	3.02e+01	0	28	104	0	48	16874
2026-01-15 23:38:04.19	45.38	18.91	-35.8	-46.0	3.6	3.02e+01	0	28	104	0	46	17158
2026-01-15 23:38:05.20	45.10	18.94	-35.5	-45.7	3.6	3.02e+01	0	28	104	0	46	16571
2026-01-15 23:38:06.21	44.82	18.97	-36.0	-46.1	3.6	3.02e+01	0	28	104	0	46	17463
2026-01-15 23:38:07.22	44.54	18.99	-36.2	-37.8	5.2	3.02e+01	0	28	104	0	48	5971
2026-01-15 23:38:08.23	44.26	19.01	-46.7	-56.1	13.0	3.02e+01	0	28	0	0	60	24665
2026-01-15 23:38:09.24	43.98	19.04	-41.0	-42.8	24.8	3.02e+01	0	28	0	1572864	60	5341
2026-01-15 23:38:10.25	43.70	19.06	-47.6	-59.2	10.0	3.02e+01	1	28	104	2621440	60	35210
2026-01-15 23:38:11.26	43.41	19.08	-36.1	-37.4	27.8	3.02e+01	0	28	0	3145728	48	5710
2026-01-15 23:38:12.26	43.13	19.10	-36.1	-37.4	27.9	3.02e+01	0	28	0	4718592	48	5681
2026-01-15 23:38:13.27	42.85	19.13	-35.3	-36.6	28.5	3.02e+01	0	28	0	6815744	46	5839
2026-01-15 23:38:14.28	42.56	19.15	-34.9	-36.2	28.9	3.02e+01	0	28	0	8912896	44	6207
2026-01-15 23:38:15.29	42.28	19.16	-34.8	-36.1	28.9	3.02e+01	0	28	0	10485760	44	6140
2026-01-15 23:38:16.30	41.99	19.18	-34.7	-35.9	29.0	3.02e+01	0	28	0	12582912	44	6044
2026-01-15 23:38:17.31	41.71	19.20	-34.7	-35.9	29.0	3.02e+01	0	28	0	14155776	44	6042
2026-01-15 23:38:18.32	41.42	19.22	-34.8	-36.0	29.0	3.02e+01	0	28	0	16252928	44	6108
2026-01-15 23:38:19.33	41.14	19.24	-35.0	-36.2	28.8	3.02e+01	0	28	0	18350080	44	6247
2026-01-15 23:38:20.34	40.85	19.25	-34.7	-35.9	29.0	3.02e+01	0	28	0	19922944	44	6063
2026-01-15 23:38:21.35	40.56	19.27	-34.7	-36.0	29.0	3.02e+01	0	28	0	22020096	44	6073
2026-01-15 23:38:22.36	40.28	19.28	-34.8	-36.0	29.0	3.02e+01	0	28	0	23592960	44	6097
2026-01-15 23:38:23.37	39.99	19.30	-34.9	-36.2	28.9	3.02e+01	0	28	0	25690112	44	6209
2026-01-15 23:38:24.37	39.71	19.31	-34.8	-36.0	28.9	3.02e+01	0	28	0	27787264	44	6104
2026-01-15 23:38:25.39	39.42	19.32	-34.9	-36.1	28.8	3.02e+01	0	28	0	29360128	44	6172
2026-01-15 23:38:26.40	39.13	19.33	-34.8	-36.1	28.9	3.02e+01	0	28	0	31457280	44	6163
2026-01-15 23:38:27.41	38.84	19.34	-34.9	-36.2	28.7	3.02e+01	0	28	0	33030144	44	6213
2026-01-15 23:38:28.41	38.55	19.35	-34.8	-36.0	28.9	3.02e+01	0	28	0	35127296	44	6124
2026-01-15 23:38:29.42	38.27	19.36	-34.8	-36.0	28.9	3.02e+01	0	28	0	37224448	44	6112
2026-01-15 23:38:30.43	37.98	19.37	-34.9	-36.2	28.9	3.02e+01	0	28	0	38797312	44	6230
2026-01-15 23:38:31.44	37.69	19.38	-34.9	-36.2	28.8	3.02e+01	0	28	0	40894464	44	6209
2026-01-15 23:38:32.45	37.40	19.39	-35.0	-36.2	28.8	3.02e+01	0	28	0	42467328	44	6255
2026-01-15 23:38:33.46	37.11	19.39	-34.9	-36.2	28.8	3.02e+01	0	28	0	44564480	44	6229
2026-01-15 23:38:34.47	36.82	19.40	-34.9	-36.2	28.8	3.02e+01	0	28	0	46661632	44	6232
2026-01-15 23:38:35.48	36.53	19.41	-34.8	-36.0	28.9	3.02e+01	0	28	0	48234496	44	6127
2026-01-15 23:38:36.49	36.24	19.41	-34.7	-36.0	29.0	3.02e+01	0	28	0	50331648	44	6076
2026-01-15 23:38:37.49	35.95	19.41	-34.8	-36.0	29.0	3.02e+01	0	28	0	52428800	44	6103
2026-01-15 23:38:38.50	35.67	19.42	-34.9	-36.2	28.9	3.02e+01	0	28	0	54001664	44	6240
2026-01-15 23:38:39.51	35.38	19.42	-35.0	-36.2	28.8	3.02e+01	0	28	0	56098816	44	6267
2026-01-15 23:38:40.52	35.09	19.42	-34.9	-36.2	28.8	3.02e+01	0	28	0	57671680	44	6212
2026-01-15 23:38:41.53	34.80	19.42	-35.0	-36.2	28.8	3.02e+01	0	28	0	59768832	44	6265
2026-01-15 23:38:42.54	34.51	19.42	-34.9	-36.2	28.8	3.02e+01	0	28	0	61865984	44	6232
2026-01-15 23:38:43.55	34.22	19.42	-34.9	-36.1	28.9	3.02e+01	0	28	0	63438848	44	6167
2026-01-15 23:38:44.56	33.93	19.42	-34.9	-36.2	28.8	3.02e+01	0	28	0	65536000	44	6225
2026-01-15 23:38:45.57	33.64	19.42	-34.8	-36.0	28.9	3.02e+01	0	28	0	67108864	44	6125
2026-01-15 23:38:46.58	33.35	19.41	-34.9	-36.1	28.8	3.02e+01	0	28	0	69206016	44	6198
2026-01-15 23:38:47.59	33.06	19.41	-35.0	-36.2	28.7	3.02e+01	0	28	0	71303168	44	6248
2026-01-15 23:38:48.60	32.77	19.41	-35.0	-36.3	28.6	3.02e+01	0	28	0	72876032	44	6303
2026-01-15 23:38:49.61	32.48	19.40	-34.7	-35.9	29.0	3.02e+01	0	28	0	74973184	44	6064
2026-01-15 23:38:50.61	32.19	19.40	-34.9	-36.1	28.9	3.02e+01	0	28	0	76546048	44	6160
2026-01-15 23:38:51.62	31.90	19.39	-35.0	-36.3	28.7	3.02e+01	0	28	0	78643200	44	6285
2026-01-15 23:38:52.63	31.61	19.38	-35.0	-36.3	28.7	3.02e+01	0	28	0	80740352	44	6290
2026-01-15 23:38:53.64	31.33	19.37	-35.0	-36.2	28.8	3.02e+01	0	28	0	82313216	44	6241
2026-01-15 23:38:54.65	31.04	19.37	-35.1	-36.3	28.7	3.02e+01	0	28	0	84410368	44	6333
2026-01-15 23:38:55.66	30.75	19.36	-34.8	-36.0	28.9	3.02e+01	0	28	0	85983232	44	6100
2026-01-15 23:38:56.67	30.46	19.35	-34.9	-36.1	28.8	3.02e+01	0	28	0	88080384	44	6161
2026-01-15 23:38:57.68	30.17	19.34	-34.9	-36.1	28.9	3.02e+01	0	28	0	90177536	44	6203
2026-01-15 23:38:58.69	29.88	19.32	-35.0	-36.2	28.8	3.02e+01	0	28	0	91750400	44	6248
2026-01-15 23:38:59.70	29.60	19.31	-35.0	-36.3	28.7	3.02e+01	0	28	0	93847552	44	6311
2026-01-15 23:39:00.71	29.31	19.30	-35.2	-36.4	28.5	3.02e+01	0	28	0	95944704	44	6413
2026-01-15 23:39:01.72	29.02	19.29	-35.0	-36.3	28.7	3.02e+01	0	28	0	97517568	44	6281
2026-01-15 23:39:02.72	28.74	19.27	-34.8	-36.0	28.9	3.02e+01	0	28	0	99614720	44	6102
2026-01-15 23:39:03.74	28.45	19.26	-34.8	-36.0	28.9	3.02e+01	0	28	0	101187584	44	6132
2026-01-15 23:39:04.74	28.17	19.24	-35.1	-36.3	28.7	3.02e+01	0	28	0	103284736	44	6328
2026-01-15 23:39:05.76	27.88	19.22	-35.0	-36.3	28.7	3.02e+01	0	28	0	105381888	44	6312
2026-01-15 23:39:06.77	27.59	19.21	-35.0	-36.2	28.7	3.02e+01	0	28	0	106954752	44	6269
2026-01-15 23:39:07.78	27.31	19.19	-34.9	-36.1	28.8	3.02e+01	0	28	0	109051904	44	6157
2026-01-15 23:39:08.78	27.02	19.17	-34.8	-36.0	28.9	3.02e+01	0	28	0	110624768	44	6099
2026-01-15 23:39:09.79	26.74	19.15	-34.8	-36.0	28.9	3.02e+01	0	28	0	112721920	44	6107
2026-01-15 23:39:10.80	26.46	19.13	-34.9	-36.2	28.7	3.02e+01	0	28	0	114819072	44	6217
2026-01-15 23:39:11.81	26.17	19.11	-35.0	-36.2	28.7	3.02e+01	0	28	0	116391936	44	6247
2026-01-15 23:39:12.82	25.89	19.09	-34.9	-36.1	28.8	3.02e+01	0	28	0	118489088	44	6171
2026-01-15 23:39:13.83	25.61	19.07	-35.1	-36.3	28.7	3.02e+01	0	28	0	120586240	44	6328
2026-01-15 23:39:14.84	25.32	19.04	-35.0	-36.3	28.7	3.02e+01	0	28	0	122159104	44	6292
2026-01-15 23:39:15.85	25.04	19.02	-34.9	-36.2	28.9	3.02e+01	0	28	0	124256256	44	6212
2026-01-15 23:39:16.85	24.76	19.00	-35.0	-36.3	28.7	3.02e+01	0	28	0	125829120	44	6295
2026-01-15 23:39:17.86	24.48	18.97	-35.1	-36.3	28.7	3.02e+01	0	28	0	127926272	44	6311
2026-01-15 23:39:18.87	24.20	18.95	-35.0	-36.2	28.7	3.02e+01	0	28	0	129499136	44	6277
2026-01-15 23:39:19.88	23.92	18.92	-35.1	-36.3	28.7	3.02e+01	0	28	0	131596288	44	6325
2026-01-15 23:39:20.89	23.64	18.90	-35.1	-36.4	28.6	3.02e+01	0	28	0	133693440	44	6352
2026-01-15 23:39:21.90	23.36	18.87	-35.0	-36.2	28.6	3.02e+01	0	28	0	135266304	44	6252
2026-01-15 23:39:22.91	23.09	18.84	-34.9	-36.2	28.8	3.02e+01	0	27	0	137363456	44	6221
2026-01-15 23:39:23.92	22.81	18.81	-34.8	-36.1	28.8	3.02e+01	0	27	0	138936320	44	6148
2026-01-15 23:39:24.93	22.53	18.78	-34.8	-36.0	28.9	3.02e+01	0	28	0	141033472	44	6099
2026-01-15 23:39:25.94	22.25	18.75	-34.9	-36.2	28.8	3.02e+01	0	27	0	143130624	44	6208
2026-01-15 23:39:26.95	21.98	18.72	-35.0	-36.3	28.7	3.02e+01	0	28	0	144703488	44	6306
2026-01-15 23:39:27.96	21.70	18.69	-34.9	-36.1	28.8	3.02e+01	0	27	0	146800640	44	6180
2026-01-15 23:39:28.97	21.43	18.66	-34.9	-36.2	28.7	3.02e+01	0	28	0	148897792	44	6213
2026-01-15 23:39:29.97	21.16	18.63	-34.8	-36.1	28.8	3.02e+01	0	27	0	150470656	44	6160
2026-01-15 23:39:30.98	20.88	18.60	-34.8	-36.1	28.9	3.02e+01	0	28	0	152567808	44	6150
2026-01-15 23:39:31.99	20.61	18.56	-34.7	-35.9	29.0	3.02e+01	0	28	0	154140672	44	6020
2026-01-15 23:39:33.00	20.34	18.53	-34.8	-36.0	28.9	3.02e+01	0	28	0	156237824	44	6114
2026-01-15 23:39:34.01	20.07	18.49	-34.9	-36.2	28.8	3.02e+01	0	27	0	158334976	44	6223
2026-01-15 23:39:35.02	19.80	18.46	-35.0	-36.2	28.7	3.02e+01	0	28	0	159907840	44	6238
2026-01-15 23:39:36.02	19.53	18.42	-34.9	-36.2	28.7	3.02e+01	0	28	0	162004992	44	6235
2026-01-15 23:39:37.03	19.26	18.39	-34.8	-36.0	28.8	3.02e+01	0	27	0	164102144	44	6101
2026-01-15 23:39:38.04	18.99	18.35	-34.8	-36.0	28.8	3.02e+01	0	27	0	165675008	44	6109
2026-01-15 23:39:39.05	18.72	18.31	-34.8	-36.0	28.8	3.02e+01	0	28	0	167772160	44	6114
2026-01-15 23:39:40.06	18.45	18.27	-34.8	-36.0	28.8	3.02e+01	0	27	0	169345024	44	6118
2026-01-15 23:39:41.07	18.19	18.24	-34.8	-36.1	28.8	3.02e+01	0	28	0	171442176	44	6151
2026-01-15 23:39:42.08	17.92	18.20	-34.8	-36.1	28.7	3.02e+01	0	28	0	173539328	44	6155
2026-01-15 23:39:43.09	17.65	18.16	-34.9	-36.1	28.8	3.02e+01	0	27	0	175112192	44	6155
2026-01-15 23:39:44.10	17.39	18.12	-34.7	-35.9	28.9	3.02e+01	0	27	0	177209344	44	6056
2026-01-15 23:39:45.11	17.13	18.08	-34.8	-36.0	28.8	3.02e+01	0	27	0	178782208	44	6107
2026-01-15 23:39:46.12	16.86	18.04	-34.8	-36.0	28.8	3.02e+01	0	27	0	180879360	44	6133
2026-01-15 23:39:47.12	16.60	17.99	-34.8	-36.1	28.8	3.02e+01	0	27	0	182976512	44	6138
2026-01-15 23:39:48.13	16.34	17.95	-34.8	-36.1	28.8	3.02e+01	0	28	0	184549376	44	6153
2026-01-15 23:39:49.14	16.08	17.91	-34.9	-36.1	28.8	3.02e+01	0	28	0	186646528	44	6186
2026-01-15 23:39:50.15	15.82	17.87	-34.8	-36.1	28.8	3.02e+01	0	27	0	188219392	44	6144
2026-01-15 23:39:51.16	15.56	17.82	-34.7	-35.9	28.9	3.02e+01	0	28	0	190316544	44	6064
2026-01-15 23:39:52.17	15.30	17.78	-34.8	-36.0	28.9	3.02e+01	0	27	0	192413696	44	6128
2026-01-15 23:39:53.18	15.05	17.73	-34.8	-36.0	28.8	3.02e+01	0	28	0	193986560	44	6091
2026-01-15 23:39:54.19	14.79	17.69	-34.9	-36.1	28.7	3.02e+01	0	28	0	196083712	44	6205
2026-01-15 23:39:55.20	14.53	17.64	-35.0	-36.2	28.7	3.02e+01	0	28	0	197656576	44	6273
2026-01-15 23:39:56.21	14.28	17.60	-34.7	-36.0	28.9	3.02e+01	0	28	0	199753728	44	6086
2026-01-15 23:39:57.22	14.02	17.55	-34.8	-36.0	28.8	3.02e+01	0	28	0	201850880	44	6122
2026-01-15 23:39:58.23	13.77	17.50	-34.8	-36.0	28.9	3.02e+01	0	28	0	203423744	44	6109
2026-01-15 23:39:59.23	13.52	17.46	-34.7	-35.9	28.9	3.02e+01	0	27	0	205520896	44	6041
2026-01-15 23:40:00.25	13.27	17.41	-34.7	-35.9	28.9	3.02e+01	0	27	0	207093760	44	6042
2026-01-15 23:40:01.25	13.02	17.36	-34.7	-35.9	29.0	3.02e+01	0	27	0	209190912	44	6054
2026-01-15 23:40:02.26	12.77	17.31	-34.9	-36.2	28.7	3.02e+01	0	27	0	211288064	44	6232
2026-01-15 23:40:03.27	12.52	17.26	-34.9	-36.1	28.8	3.02e+01	0	28	0	212860928	44	6174
2026-01-15 23:40:04.28	12.27	17.21	-34.8	-36.1	28.8	3.02e+01	0	27	0	214958080	44	6151
2026-01-15 23:40:05.29	12.02	17.16	-34.7	-35.9	29.0	3.02e+01	0	28	0	217055232	44	6013
2026-01-15 23:40:06.30	11.78	17.11	-34.7	-35.9	29.0	3.02e+01	0	28	0	218628096	44	6035
2026-01-15 23:40:07.31	11.53	17.06	-34.9	-36.1	28.7	3.02e+01	0	28	0	220725248	44	6196
2026-01-15 23:40:08.31	11.29	17.01	-34.7	-36.0	29.0	3.02e+01	0	27	0	222298112	44	6092
2026-01-15 23:40:09.32	11.05	16.96	-34.7	-35.9	28.9	3.02e+01	0	28	0	224395264	44	6035
2026-01-15 23:40:10.33	10.80	16.91	-34.8	-36.1	28.8	3.02e+01	0	28	0	226492416	44	6161
2026-01-15 23:40:11.34	10.56	16.85	-34.8	-36.1	28.8	3.02e+01	0	27	0	228065280	44	6150
2026-01-15 23:40:12.35	10.32	16.80	-34.9	-36.1	28.8	3.02e+01	0	27	0	230162432	44	6182
2026-01-15 23:40:13.36	10.08	16.75	-34.8	-36.0	28.8	3.02e+01	0	27	0	231735296	44	6119
2026-01-15 23:40:14.37	9.84	16.70	-34.6	-35.9	28.9	3.02e+01	0	27	0	233832448	44	5999
2026-01-15 23:40:15.38	9.60	16.64	-34.7	-35.9	28.9	3.02e+01	0	28	0	235929600	44	6050
2026-01-15 23:40:16.39	9.37	16.59	-34.8	-36.0	28.9	3.02e+01	0	27	0	237502464	44	6132
2026-01-15 23:40:17.40	9.13	16.53	-34.7	-35.9	28.9	3.02e+01	0	27	0	239599616	44	6052
2026-01-15 23:40:18.41	8.89	16.48	-34.8	-36.0	28.8	3.02e+01	0	27	0	241172480	44	6096
2026-01-15 23:40:19.42	8.66	16.42	-34.8	-36.1	28.7	3.02e+01	0	28	0	243269632	44	6138
2026-01-15 23:40:20.43	8.43	16.37	-34.7	-35.9	29.0	3.02e+01	0	28	0	245366784	44	6046
2026-01-15 23:40:21.44	8.19	16.31	-34.5	-35.7	29.0	3.02e+01	0	28	0	246939648	44	5924
2026-01-15 23:40:22.45	7.96	16.26	-34.6	-35.8	29.0	3.02e+01	0	28	0	249036800	44	5956
2026-01-15 23:40:23.46	7.73	16.20	-34.7	-35.9	28.9	3.02e+01	0	28	0	250609664	44	6041
2026-01-15 23:40:24.47	7.50	16.14	-34.9	-36.2	28.7	3.02e+01	0	28	0	252706816	44	6210
2026-01-15 23:40:25.48	7.27	16.09	-34.9	-36.2	28.6	3.02e+01	0	28	0	254803968	44	6230
2026-01-15 23:40:26.49	7.04	16.03	-34.8	-36.0	28.8	3.02e+01	0	27	0	256376832	44	6094
2026-01-15 23:40:27.50	6.82	15.97	-34.7	-35.9	28.9	3.02e+01	0	27	0	258473984	44	6044
2026-01-15 23:40:28.50	6.59	15.91	-34.5	-35.7	29.1	3.02e+01	0	28	0	260571136	44	5921
2026-01-15 23:40:29.51	6.37	15.85	-34.6	-35.8	29.0	3.02e+01	0	28	0	262144000	44	5975
2026-01-15 23:40:30.52	6.14	15.80	-34.6	-35.8	29.0	3.02e+01	0	28	0	264241152	44	5973
2026-01-15 23:40:31.53	5.92	15.74	-35.0	-36.2	28.8	3.02e+01	0	28	0	265814016	44	6242
2026-01-15 23:40:32.54	5.70	15.68	-34.9	-36.1	28.7	3.02e+01	0	28	0	267911168	44	6183
2026-01-15 23:40:33.55	5.48	15.62	-34.7	-35.9	28.9	3.02e+01	0	28	0	270008320	44	6047
2026-01-15 23:40:34.56	5.26	15.56	-35.0	-36.3	28.6	3.02e+01	0	28	0	271581184	44	6312
2026-01-15 23:40:35.57	5.04	15.50	-34.6	-35.9	29.0	3.02e+01	0	28	0	273678336	44	6002
2026-01-15 23:40:36.58	4.82	15.44	-34.8	-36.1	28.7	3.02e+01	0	28	0	275251200	44	6156
2026-01-15 23:40:37.59	4.60	15.38	-34.6	-35.9	28.9	3.02e+01	0	28	0	277348352	44	5995
2026-01-15 23:40:38.60	4.38	15.32	-34.7	-36.0	28.9	3.02e+01	0	27	0	279445504	44	6085
2026-01-15 23:40:39.61	4.17	15.26	-34.6	-35.8	29.0	3.02e+01	0	27	0	281018368	44	5951
2026-01-15 23:40:40.61	3.95	15.20	-34.8	-36.0	28.9	3.02e+01	0	28	0	283115520	44	6109
2026-01-15 23:40:41.62	3.74	15.14	-34.8	-36.0	28.8	3.02e+01	0	28	0	285212672	44	6127
2026-01-15 23:40:42.63	3.53	15.08	-34.8	-36.0	28.8	3.02e+01	0	27	0	286785536	44	6116
2026-01-15 23:40:43.64	3.32	15.02	-34.9	-36.2	28.7	3.02e+01	0	28	0	288882688	44	6211
2026-01-15 23:40:44.64	3.11	14.95	-34.7	-35.9	28.8	3.02e+01	0	28	0	290455552	44	6050
2026-01-15 23:40:45.66	2.89	14.89	-34.7	-36.0	28.8	3.02e+01	0	27	0	292552704	44	6081
2026-01-15 23:40:46.67	2.69	14.83	-34.6	-35.8	28.9	3.02e+01	0	27	0	294125568	44	5990
2026-01-15 23:40:47.67	2.48	14.77	-34.8	-36.0	28.9	3.02e+01	0	28	0	296222720	44	6103
2026-01-15 23:40:48.68	2.27	14.71	-34.9	-36.1	28.8	3.02e+01	0	27	0	298319872	44	6197
2026-01-15 23:40:49.69	2.07	14.64	-34.7	-36.0	28.8	3.02e+01	0	27	0	299892736	44	6080
2026-01-15 23:40:50.70	1.86	14.58	-35.0	-36.2	28.7	3.02e+01	0	27	0	301989888	44	6256
2026-01-15 23:40:51.71	1.66	14.52	-35.2	-36.5	28.5	3.02e+01	0	27	0	303562752	44	6433
2026-01-15 23:40:52.72	1.45	14.45	-35.1	-36.3	28.5	3.02e+01	0	27	0	305659904	44	6333
2026-01-15 23:40:53.73	1.25	14.39	-35.0	-36.3	28.7	3.02e+01	0	27	0	307757056	44	6283
2026-01-15 23:40:54.74	1.05	14.33	-34.6	-35.8	28.9	3.02e+01	0	27	0	309329920	44	5967
2026-01-15 23:40:55.75	0.85	14.26	-34.7	-35.9	28.8	3.02e+01	0	27	0	311427072	44	6047
2026-01-15 23:40:56.76	0.65	14.20	-34.8	-36.0	28.8	3.02e+01	0	28	0	313524224	44	6102
2026-01-15 23:40:57.77	0.45	14.14	-34.7	-35.9	28.9	3.02e+01	0	27	0	315097088	44	6048
2026-01-15 23:40:58.78	0.25	14.07	-34.9	-36.1	28.6	3.02e+01	0	27	0	317194240	44	6178
2026-01-15 23:40:59.79	0.05	14.01	-34.9	-36.1	28.6	3.02e+01	0	27	0	318767104	44	6166
2026-01-15 23:41:00.80	359.86	13.94	-34.9	-36.1	28.6	3.02e+01	0	27	0	320864256	44	6196
2026-01-15 23:41:01.80	359.67	13.88	-34.9	-36.1	28.6	3.02e+01	0	27	0	322961408	44	6168
2026-01-15 23:41:02.81	359.47	13.81	-34.9	-36.2	28.7	3.02e+01	0	27	0	324534272	44	6209
2026-01-15 23:41:03.82	359.28	13.75	-35.0	-36.2	28.6	3.02e+01	0	27	0	326631424	44	6242
2026-01-15 23:41:04.83	359.09	13.69	-34.9	-36.1	28.7	3.02e+01	0	27	0	328728576	44	6169
2026-01-15 23:41:05.84	358.89	13.62	-34.9	-36.2	28.6	3.02e+01	0	27	0	330301440	44	6244
2026-01-15 23:41:06.85	358.70	13.56	-34.8	-36.1	28.8	3.02e+01	0	27	0	332398592	44	6142
2026-01-15 23:41:07.86	358.51	13.49	-34.9	-36.2	28.6	3.02e+01	0	27	0	333971456	44	6246
2026-01-15 23:41:08.87	358.33	13.43	-35.0	-36.3	28.5	3.02e+01	0	27	0	336068608	44	6281
2026-01-15 23:41:09.87	358.14	13.36	-35.1	-36.4	28.4	3.02e+01	0	27	0	338165760	44	6360
2026-01-15 23:41:10.88	357.95	13.30	-35.0	-36.3	28.5	3.02e+01	0	27	0	339738624	44	6280
2026-01-15 23:41:11.89	357.77	13.23	-34.6	-35.8	28.9	3.02e+01	0	27	0	341835776	44	5982
2026-01-15 23:41:12.90	357.58	13.16	-34.7	-36.0	28.7	3.02e+01	0	27	0	343408640	44	6080
2026-01-15 23:41:13.91	357.40	13.10	-34.9	-36.2	28.6	3.02e+01	0	27	0	345505792	44	6226
2026-01-15 23:41:14.91	357.22	13.03	-34.9	-36.1	28.7	3.02e+01	0	27	0	347078656	44	6184
2026-01-15 23:41:15.92	357.03	12.97	-35.1	-36.4	28.4	3.02e+01	0	27	0	349175808	44	6366
2026-01-15 23:41:16.93	356.85	12.90	-34.7	-36.0	28.7	3.02e+01	0	27	0	351272960	44	6073
2026-01-15 23:41:17.94	356.67	12.84	-35.1	-36.3	28.4	3.02e+01	0	27	0	352845824	44	6318
2026-01-15 23:41:18.95	356.49	12.77	-35.0	-36.3	28.5	3.02e+01	0	28	0	354942976	44	6290
2026-01-15 23:41:19.96	356.31	12.70	-35.1	-36.3	28.5	3.02e+01	0	27	0	357040128	44	6329
2026-01-15 23:41:20.97	356.13	12.64	-35.3	-36.6	28.3	3.02e+01	0	27	0	358612992	44	6525
2026-01-15 23:41:21.98	355.96	12.57	-34.8	-36.1	28.6	3.02e+01	0	27	0	360710144	44	6136
2026-01-15 23:41:22.99	355.78	12.50	-35.0	-36.3	28.5	3.02e+01	0	27	0	362283008	44	6278
2026-01-15 23:41:24.00	355.61	12.44	-35.1	-36.4	28.4	3.02e+01	0	27	0	364380160	44	6374
2026-01-15 23:41:25.01	355.43	12.37	-35.2	-36.5	28.3	3.02e+01	0	27	0	366477312	44	6430
2026-01-15 23:41:26.02	355.26	12.31	-35.1	-36.3	28.5	3.02e+01	0	27	0	368050176	44	6332
2026-01-15 23:41:27.03	355.08	12.24	-35.0	-36.3	28.5	3.02e+01	0	27	0	370147328	44	6309
2026-01-15 23:41:28.04	354.91	12.17	-35.1	-36.3	28.4	3.02e+01	0	27	0	371720192	44	6340
2026-01-15 23:41:29.05	354.74	12.11	-35.2	-36.5	28.3	3.02e+01	0	27	0	373817344	44	6478
2026-01-15 23:41:30.05	354.57	12.04	-35.2	-36.5	28.2	3.02e+01	0	28	0	375914496	44	6445
2026-01-15 23:41:31.06	354.40	11.97	-35.5	-36.8	28.0	3.02e+01	0	27	0	377487360	44	6673
2026-01-15 23:41:32.07	354.23	11.91	-35.0	-36.2	28.5	3.02e+01	0	27	0	379584512	44	6246
2026-01-15 23:41:33.08	354.07	11.84	-35.2	-36.5	28.3	3.02e+01	0	27	0	381681664	44	6448
2026-01-15 23:41:34.09	353.90	11.77	-35.1	-36.3	28.4	3.02e+01	0	27	0	383254528	44	6323
2026-01-15 23:41:35.10	353.73	11.71	-35.7	-37.0	27.8	3.02e+01	0	27	0	385351680	44	6832
2026-01-15 23:41:36.11	353.57	11.64	-35.7	-36.9	27.8	3.02e+01	0	27	0	386924544	44	6797
2026-01-15 23:41:37.12	353.40	11.57	-36.3	-37.7	27.3	3.02e+01	0	27	0	389021696	46	6592
2026-01-15 23:41:38.13	353.24	11.51	-35.8	-37.1	27.8	3.02e+01	0	27	0	391118848	46	6188
2026-01-15 23:41:39.14	353.08	11.44	-36.3	-37.7	27.0	3.02e+01	0	27	0	392691712	46	6609
2026-01-15 23:41:40.15	352.92	11.37	-36.4	-37.7	27.1	3.02e+01	0	27	0	394788864	46	6618
2026-01-15 23:41:41.15	352.76	11.31	-36.8	-38.2	26.5	3.02e+01	0	27	0	396361728	46	7033
2026-01-15 23:41:42.16	352.60	11.24	-36.6	-38.0	26.8	3.02e+01	0	27	0	398458880	48	6067
2026-01-15 23:41:43.18	352.43	11.17	-36.4	-37.8	26.9	3.02e+01	0	27	0	400556032	48	5952
2026-01-15 23:41:44.19	352.28	11.11	-36.4	-37.7	27.0	3.02e+01	0	27	0	402128896	48	5920
2026-01-15 23:41:45.20	352.12	11.04	-35.6	-36.8	27.9	3.02e+01	0	27	0	404226048	46	5991
2026-01-15 23:41:46.21	351.96	10.97	-35.8	-37.1	27.5	3.02e+01	0	27	0	405798912	46	6159
2026-01-15 23:41:47.22	351.80	10.91	-35.2	-36.4	28.2	3.02e+01	0	27	0	407896064	46	5683
2026-01-15 23:41:48.23	351.65	10.84	-35.7	-37.0	27.7	3.02e+01	0	27	0	409993216	46	6133
2026-01-15 23:41:49.24	351.49	10.77	-34.9	-36.1	28.5	3.02e+01	0	27	0	411566080	44	6166
2026-01-15 23:41:50.24	351.34	10.71	-35.6	-37.0	27.8	3.02e+01	0	27	0	413663232	44	6837
2026-01-15 23:41:51.25	351.19	10.64	-35.3	-36.6	28.1	3.02e+01	0	27	0	415236096	44	6522
2026-01-15 23:41:52.26	351.04	10.57	-36.0	-37.4	27.4	3.02e+01	0	27	0	417333248	46	6397
2026-01-15 23:41:53.27	350.88	10.51	-35.4	-36.6	28.0	3.02e+01	0	27	0	419430400	46	5844
2026-01-15 23:41:54.28	350.73	10.44	-36.2	-37.6	27.0	3.02e+01	0	27	0	421003264	46	6540
2026-01-15 23:41:55.29	350.58	10.37	-35.9	-37.2	27.2	3.02e+01	0	27	0	423100416	46	6258
2026-01-15 23:41:56.30	350.43	10.31	-36.2	-37.5	26.9	3.02e+01	0	27	0	425197568	46	6492
2026-01-15 23:41:57.31	350.28	10.24	-36.6	-38.0	26.5	3.02e+01	0	27	0	426770432	48	6102
2026-01-15 23:41:58.32	350.14	10.17	-35.0	-36.2	28.2	3.02e+01	0	27	0	428867584	46	5564
2026-01-15 23:41:59.33	349.99	10.11	-36.4	-37.8	26.9	3.02e+01	0	27	0	430440448	46	6682
2026-01-15 23:42:00.33	349.84	10.04	-35.6	-36.8	27.7	3.02e+01	0	27	0	432537600	46	5975
2026-01-15 23:42:01.34	349.70	9.97	-36.7	-38.1	26.6	3.02e+01	0	27	0	434634752	46	6952
2026-01-15 23:42:02.35	349.55	9.91	-36.0	-37.3	27.0	3.02e+01	0	27	0	436207616	46	6349
2026-01-15 23:42:03.36	349.41	9.84	-36.0	-37.3	27.2	3.02e+01	0	28	0	438304768	46	6306
2026-01-15 23:42:04.37	349.27	9.77	-36.9	-38.4	26.4	3.02e+01	0	27	0	439877632	48	6387
2026-01-15 23:42:05.38	349.12	9.71	-35.1	-36.3	28.2	3.02e+01	0	27	0	441974784	46	5613
2026-01-15 23:42:06.39	348.98	9.64	-36.0	-37.3	27.1	3.02e+01	0	27	0	444071936	46	6345
2026-01-15 23:42:07.40	348.84	9.57	-35.7	-37.0	27.0	3.02e+01	0	28	0	445644800	46	6092
2026-01-15 23:42:08.41	348.70	9.51	-35.3	-36.5	27.7	3.02e+01	0	28	0	447741952	46	5760
2026-01-15 23:42:09.42	348.56	9.44	-36.7	-38.2	26.2	3.02e+01	0	27	0	449314816	46	7022
2026-01-15 23:42:10.42	348.42	9.38	-35.8	-37.0	27.5	3.02e+01	0	27	0	451411968	46	6125
2026-01-15 23:42:11.43	348.28	9.31	-36.9	-38.3	26.1	3.02e+01	0	27	0	453509120	46	7077
2026-01-15 23:42:12.44	348.14	9.24	-36.5	-37.9	26.4	3.02e+01	0	27	0	455081984	48	6052
2026-01-15 23:42:13.45	348.01	9.18	-35.6	-36.9	27.5	3.02e+01	0	27	0	457179136	46	6004
2026-01-15 23:42:14.46	347.87	9.11	-36.6	-38.0	26.8	3.02e+01	0	27	0	458752000	46	6855
2026-01-15 23:42:15.47	347.73	9.05	-36.2	-37.5	27.2	3.02e+01	0	27	0	460849152	46	6456
2026-01-15 23:42:16.48	347.60	8.98	-36.3	-37.7	27.0	3.02e+01	0	27	0	462946304	46	6595
2026-01-15 23:42:17.49	347.46	8.91	-36.5	-37.9	26.6	3.02e+01	0	27	0	464519168	46	6761
2026-01-15 23:42:18.50	347.33	8.85	-35.9	-37.2	27.3	3.02e+01	0	27	0	466616320	46	6223
2026-01-15 23:42:19.51	347.20	8.78	-36.6	-38.0	26.6	3.02e+01	0	27	0	468189184	46	6836
2026-01-15 23:42:20.52	347.06	8.72	-36.7	-38.1	26.5	3.02e+01	0	27	0	470286336	46	6896
2026-01-15 23:42:21.53	346.93	8.65	-36.2	-37.5	27.2	3.02e+01	0	27	0	472383488	46	6427
2026-01-15 23:42:22.54	346.80	8.58	-36.9	-38.3	26.4	3.02e+01	0	27	0	473956352	46	7116
2026-01-15 23:42:23.55	346.67	8.52	-36.4	-37.7	26.8	3.02e+01	0	27	0	476053504	48	5925
2026-01-15 23:42:24.56	346.54	8.45	-36.2	-37.5	27.0	3.02e+01	0	27	0	478150656	48	5768
2026-01-15 23:42:25.56	346.41	8.39	-36.6	-38.0	26.5	3.02e+01	0	27	0	479723520	48	6126
2026-01-15 23:42:26.57	346.28	8.32	-35.7	-37.0	27.7	3.02e+01	0	27	0	481820672	46	6069
2026-01-15 23:42:27.58	346.16	8.26	-36.1	-37.4	27.1	3.02e+01	0	27	0	483393536	46	6398
2026-01-15 23:42:28.59	346.03	8.19	-36.3	-37.7	27.0	3.02e+01	0	27	0	485490688	46	6604
2026-01-15 23:42:29.60	345.90	8.13	-36.3	-37.7	27.2	3.02e+01	0	27	0	487587840	46	6597
2026-01-15 23:42:30.61	345.78	8.06	-36.3	-37.7	26.9	3.02e+01	0	27	0	489160704	46	6603
2026-01-15 23:42:31.62	345.65	8.00	-36.5	-37.9	26.8	3.02e+01	0	27	0	491257856	46	6775
2026-01-15 23:42:32.63	345.53	7.93	-36.4	-37.7	27.0	3.02e+01	0	27	0	493355008	46	6643
2026-01-15 23:42:33.64	345.40	7.87	-36.3	-37.7	26.9	3.02e+01	0	27	0	494927872	46	6610
2026-01-15 23:42:34.65	345.28	7.80	-36.7	-38.1	26.6	3.02e+01	0	27	0	497025024	46	6929
2026-01-15 23:42:35.66	345.16	7.74	-35.9	-37.3	27.2	3.02e+01	0	27	0	498597888	46	6280
2026-01-15 23:42:36.66	345.04	7.67	-36.1	-37.5	27.1	3.02e+01	0	27	0	500695040	46	6442
2026-01-15 23:42:37.67	344.91	7.61	-36.6	-38.0	26.6	3.02e+01	0	27	0	502792192	46	6826
2026-01-15 23:42:38.68	344.79	7.54	-36.1	-37.5	27.0	3.02e+01	0	27	0	504365056	46	6424
2026-01-15 23:42:39.69	344.67	7.48	-36.1	-37.5	27.1	3.02e+01	0	27	0	506462208	46	6434
2026-01-15 23:42:40.70	344.55	7.41	-36.6	-38.1	26.5	3.02e+01	0	27	0	508035072	46	6906
2026-01-15 23:42:41.71	344.43	7.35	-36.3	-37.7	26.8	3.02e+01	0	27	0	510132224	46	6588
2026-01-15 23:42:42.72	344.31	7.29	-36.4	-37.8	26.8	3.02e+01	0	27	0	511705088	46	6680
2026-01-15 23:42:43.73	344.20	7.22	-36.8	-38.2	26.3	3.02e+01	0	27	0	513802240	46	7035
2026-01-15 23:42:44.74	344.08	7.16	-36.7	-38.1	26.4	3.02e+01	0	27	0	515899392	46	6924
2026-01-15 23:42:45.75	343.96	7.09	-36.5	-37.8	26.7	3.02e+01	0	27	0	517472256	46	6709
2026-01-15 23:42:46.76	343.84	7.03	-36.5	-37.9	26.5	3.02e+01	0	27	0	519569408	46	6801
2026-01-15 23:42:47.76	343.73	6.96	-36.7	-38.2	26.3	3.02e+01	0	27	0	521666560	46	6967
2026-01-15 23:42:48.77	343.61	6.90	-36.1	-37.5	27.1	3.02e+01	0	27	0	523239424	46	6424
2026-01-15 23:42:49.78	343.50	6.84	-36.2	-37.6	26.8	3.02e+01	0	27	0	525336576	46	6526
2026-01-15 23:42:50.79	343.39	6.77	-36.6	-38.0	26.5	3.02e+01	0	27	0	526909440	46	6877
2026-01-15 23:42:51.80	343.27	6.71	-36.4	-37.8	26.6	3.02e+01	0	27	0	529006592	46	6667
2026-01-15 23:42:52.81	343.16	6.65	-36.5	-37.8	26.7	3.02e+01	0	27	0	531103744	46	6723
2026-01-15 23:42:53.82	343.05	6.58	-36.7	-38.1	26.4	3.02e+01	0	27	0	532676608	46	6938
2026-01-15 23:42:54.83	342.94	6.52	-36.7	-38.1	26.3	3.02e+01	0	27	0	534773760	46	6948
2026-01-15 23:42:55.84	342.82	6.46	-36.7	-38.1	26.3	3.02e+01	0	27	0	536346624	46	6896
2026-01-15 23:42:56.85	342.71	6.39	-36.9	-38.3	26.1	3.02e+01	0	27	0	538443776	46	7074
2026-01-15 23:42:57.85	342.60	6.33	-37.1	-38.5	25.8	3.02e+01	0	27	0	540540928	48	6486
2026-01-15 23:42:58.87	342.49	6.27	-37.2	-38.7	25.6	3.02e+01	0	27	0	542113792	48	6575
2026-01-15 23:42:59.88	342.38	6.20	-37.4	-38.9	25.3	3.02e+01	0	27	0	544210944	48	6766
2026-01-15 23:43:00.88	342.28	6.14	-37.8	-39.3	25.0	3.02e+01	0	27	0	546308096	48	7119
2026-01-15 23:43:01.89	342.17	6.08	-37.7	-39.3	24.9	3.02e+01	0	27	0	547880960	48	7050
2026-01-15 23:43:02.90	342.06	6.01	-37.6	-39.2	25.0	3.02e+01	0	27	0	549978112	48	6964
2026-01-15 23:43:03.91	341.95	5.95	-37.7	-39.3	24.8	3.02e+01	0	27	0	551550976	48	7058
2026-01-15 23:43:04.92	341.85	5.89	-38.0	-39.7	24.2	3.02e+01	0	27	0	553648128	50	6586
2026-01-15 23:43:05.93	341.74	5.83	-38.3	-40.0	24.2	3.02e+01	0	27	0	555745280	50	6815
2026-01-15 23:43:06.94	341.63	5.76	-38.3	-40.0	23.8	3.02e+01	0	27	0	557318144	50	6852
2026-01-15 23:43:07.95	341.53	5.70	-38.1	-39.8	24.1	3.02e+01	0	27	0	559415296	50	6680
2026-01-15 23:43:08.96	341.43	5.64	-38.4	-40.1	23.7	3.02e+01	0	27	0	560988160	50	6955
2026-01-15 23:43:09.97	341.32	5.58	-38.9	-40.8	23.0	3.02e+01	0	27	0	563085312	50	7486
2026-01-15 23:43:10.98	341.22	5.51	-39.1	-41.0	22.6	3.02e+01	0	27	0	565182464	52	6847
2026-01-15 23:43:11.99	341.11	5.45	-39.1	-41.0	22.5	3.02e+01	0	27	0	566755328	52	6880
2026-01-15 23:43:13.00	341.01	5.39	-39.6	-41.7	21.8	3.02e+01	0	27	0	568852480	52	7459
2026-01-15 23:43:14.01	340.91	5.33	-39.8	-42.0	21.3	3.02e+01	0	27	0	570425344	52	7687
2026-01-15 23:43:15.02	340.81	5.27	-39.9	-42.1	21.1	3.02e+01	0	27	0	572522496	52	7751
2026-01-15 23:43:16.03	340.71	5.20	-40.0	-42.4	20.6	3.02e+01	0	27	0	574619648	54	7176
2026-01-15 23:43:17.04	340.61	5.14	-40.3	-42.9	20.0	3.02e+01	0	27	0	576192512	54	7576
2026-01-15 23:43:18.05	340.51	5.08	-40.6	-43.2	19.8	3.02e+01	0	27	0	578289664	54	7845
2026-01-15 23:43:19.06	340.41	5.02	-40.8	-43.6	19.2	3.02e+01	0	27	0	579862528	54	8258
2026-01-15 23:43:20.07	340.31	4.96	-41.0	-43.8	19.1	3.02e+01	0	27	0	581959680	56	7502
2026-01-15 23:43:21.07	340.21	4.90	-41.4	-44.5	18.3	3.02e+01	0	27	0	584056832	56	8145
2026-01-15 23:43:22.08	340.11	4.83	-41.7	-44.9	17.7	3.02e+01	0	27	0	585629696	56	8561
2026-01-15 23:43:23.09	340.01	4.77	-41.8	-45.4	17.1	3.02e+01	0	27	0	587726848	56	9016
2026-01-15 23:43:24.10	339.92	4.71	-42.0	-45.8	16.6	3.02e+01	0	27	0	589299712	58	8455
2026-01-15 23:43:25.11	339.82	4.65	-42.3	-46.3	16.0	3.02e+01	0	27	0	591396864	58	8949
2026-01-15 23:43:26.12	339.72	4.59	-42.5	-47.1	15.2	3.02e+01	0	27	0	593494016	58	9743
2026-01-15 23:43:27.13	339.63	4.53	-42.6	-47.4	14.6	3.02e+01	0	27	0	595066880	58	10115
2026-01-15 23:43:28.14	339.53	4.47	-42.7	-47.8	14.1	3.02e+01	0	27	0	597164032	58	10646
2026-01-15 23:43:29.15	339.44	4.41	-42.9	-48.3	13.6	3.02e+01	0	27	0	599261184	58	11228
2026-01-15 23:43:30.16	339.34	4.35	-43.1	-49.1	12.5	3.02e+01	0	27	0	600834048	60	10999
2026-01-15 23:43:31.17	339.25	4.29	-43.2	-49.7	11.8	3.02e+01	0	27	0	602931200	60	11768
2026-01-15 23:43:32.18	339.16	4.23	-43.3	-50.3	11.2	3.02e+01	0	27	0	604504064	60	12541
2026-01-15 23:43:33.19	339.06	4.17	-43.4	-50.9	10.4	3.02e+01	0	27	0	606601216	60	13497
2026-01-15 23:43:34.20	338.97	4.10	-43.5	-51.5	9.6	3.02e+01	0	28	0	608698368	60	14486
2026-01-15 23:43:35.20	338.88	4.04	-43.6	-52.5	8.2	3.02e+01	44	27	0	610271232	60	16321
2026-01-15 23:43:36.21	338.79	3.98	-43.6	-53.3	7.3	3.02e+01	92	27	0	612368384	60	17772
2026-01-15 23:43:37.22	338.69	3.92	-43.7	-54.3	6.2	3.02e+01	92	27	0	614465536	60	19878
2026-01-15 23:43:38.23	338.60	3.86	-43.7	-56.2	3.9	3.02e+01	0	27	104	615514112	60	24962
2026-01-15 23:43:39.24	338.51	3.80	-43.7	-56.9	3.8	3.02e+01	0	27	104	615514112	60	26987
2026-01-15 23:43:40.25	338.42	3.74	-43.7	-57.9	3.7	3.02e+01	0	27	104	615514112	60	30315
2026-01-15 23:43:41.26	338.33	3.68	-43.8	-58.5	4.0	3.02e+01	0	27	104	615514112	60	32519
2026-01-15 23:43:42.27	338.24	3.63	-43.7	-59.3	3.7	3.02e+01	0	27	104	615514112	60	35504
2026-01-15 23:43:43.28	338.15	3.57	-43.7	-60.2	3.5	3.02e+01	0	27	104	615514112	60	39305
2026-01-15 23:43:44.29	338.07	3.51	-43.7	-60.3	3.5	3.02e+01	0	27	104	615514112	60	39994
2026-01-15 23:43:45.30	337.98	3.45	-43.7	-61.6	3.5	3.02e+01	0	27	104	615514112	60	46191
2026-01-15 23:43:46.31	337.89	3.39	-43.7	-61.6	3.5	3.02e+01	0	27	104	615514112	60	46050
2026-01-15 23:43:47.32	337.80	3.33	-43.9	-60.3	3.5	3.02e+01	0	28	104	615514112	60	39878
2026-01-15 23:43:48.33	337.72	3.27	-43.8	-60.6	3.5	3.02e+01	0	28	104	615514112	60	41154
2026-01-15 23:43:49.34	337.63	3.21	-43.8	-60.8	3.5	3.02e+01	0	27	104	615514112	60	42327
2026-01-15 23:43:50.34	337.54	3.15	-43.8	-61.0	3.5	3.02e+01	0	27	104	615514112	60	42982
2026-01-15 23:43:51.35	337.46	3.09	-43.7	-61.2	3.5	3.02e+01	0	27	104	615514112	60	44356
2026-01-15 23:43:52.36	337.37	3.03	-43.7	-61.4	3.5	3.02e+01	0	28	104	615514112	60	45334
2026-01-15 23:43:53.37	337.29	2.97	-47.5	-65.4	3.5	3.02e+01	0	27	104	615514112	60	71916
2026-01-15 23:43:54.38	337.20	2.92	-48.0	-65.8	3.5	3.02e+01	0	28	104	615514112	60	75389
2026-01-15 23:43:55.39	337.12	2.86	-48.2	-66.1	3.5	3.02e+01	0	27	104	615514112	60	77772
2026-01-15 23:43:56.40	337.03	2.80	-48.4	-66.4	3.5	3.02e+01	0	27	104	615514112	60	80069
2026-01-15 23:43:57.41	336.95	2.74	-48.6	-66.5	3.5	3.02e+01	0	27	104	615514112	60	81066
2026-01-15 23:43:58.42	336.87	2.68	-48.4	-66.6	3.5	3.02e+01	0	27	104	615514112	60	82016
2026-01-15 23:43:59.43	336.79	2.62	-48.6	-66.6	3.5	3.02e+01	0	27	104	615514112	60	82631
2026-01-15 23:44:00.44	336.70	2.56	-48.7	-66.6	3.5	3.02e+01	0	27	104	615514112	60	82624
2026-01-15 23:44:01.44	336.62	2.51	-48.5	-66.5	3.5	3.02e+01	0	27	104	615514112	60	81802
2026-01-15 23:44:02.45	336.54	2.45	-48.5	-66.6	3.5	3.02e+01	0	28	104	615514112	60	81848
2026-01-15 23:44:03.46	336.46	2.39	-47.8	-66.4	3.5	3.02e+01	0	27	104	615514112	60	80826
2026-01-15 23:44:04.47	336.38	2.33	-48.4	-66.4	3.5	3.02e+01	0	27	104	615514112	60	80207
2026-01-15 23:44:05.48	336.30	2.28	-48.5	-66.4	3.5	3.02e+01	0	27	104	615514112	60	80491
2026-01-15 23:44:06.49	336.22	2.22	-48.4	-66.4	3.5	3.02e+01	0	27	104	615514112	60	79997
2026-01-15 23:44:07.50	336.14	2.16	-48.5	-66.6	3.5	3.02e+01	0	27	104	615514112	60	81840
2026-01-15 23:44:08.51	336.06	2.10	-48.5	-66.5	3.5	3.02e+01	0	27	104	615514112	60	80877
2026-01-15 23:44:09.52	335.98	2.04	-48.5	-66.4	3.5	3.02e+01	0	27	104	615514112	60	80765
2026-01-15 23:44:10.53	335.90	1.99	-48.5	-66.4	3.5	3.02e+01	0	28	104	615514112	60	80434
2026-01-15 23:44:11.54	335.82	1.93	-48.5	-66.5	3.5	3.02e+01	0	28	104	615514112	60	80884
2026-01-15 23:44:12.55	335.74	1.87	-48.5	-66.4	3.5	3.02e+01	0	28	104	615514112	60	80138
2026-01-15 23:44:13.56	335.67	1.82	-48.5	-66.4	3.5	3.02e+01	0	27	104	615514112	60	80574
2026-01-15 23:44:14.57	335.59	1.76	-48.5	-66.4	3.5	3.02e+01	0	28	104	615514112	60	80515
2026-01-15 23:44:15.58	335.51	1.70	-48.5	-66.4	3.5	3.02e+01	0	28	104	615514112	60	80640
2026-01-15 23:44:16.59	335.44	1.64	-48.6	-66.4	3.5	3.02e+01	0	28	104	615514112	60	80755
2026-01-15 23:44:17.60	335.36	1.59	-48.5	-66.4	3.5	3.02e+01	0	27	104	615514112	60	80042
2026-01-15 23:44:18.60	335.28	1.53	-48.5	-66.4	3.5	3.02e+01	0	27	104	615514112	60	80144
2026-01-15 23:44:19.61	335.21	1.47	-48.5	-66.4	3.5	3.02e+01	0	27	104	615514112	60	80347
2026-01-15 23:44:20.62	335.13	1.42	-48.5	-66.4	3.5	3.02e+01	0	27	104	615514112	60	80032
2026-01-15 23:44:21.63	335.06	1.36	-48.5	-66.3	3.5	3.02e+01	0	27	104	615514112	60	79866
2026-01-15 23:44:22.64	334.98	1.30	-48.5	-66.3	3.5	3.02e+01	0	27	104	615514112	60	79567
2026-01-15 23:44:23.65	334.91	1.25	-48.5	-66.4	3.5	3.02e+01	0	27	104	615514112	60	80079
2026-01-15 23:44:24.66	334.84	1.19	-48.4	-66.3	3.5	3.02e+01	0	27	104	615514112	60	79619
2026-01-15 23:44:25.67	334.76	1.14	-48.5	-66.3	3.5	3.02e+01	0	27	104	615514112	60	79916
2026-01-15 23:44:26.68	334.69	1.08	-48.4	-66.3	3.5	3.02e+01	0	27	104	615514112	60	79841
2026-01-15 23:44:27.69	334.62	1.02	-48.4	-66.3	3.5	3.02e+01	0	27	104	615514112	60	79481
2026-01-15 23:44:28.70	334.54	0.97	-48.5	-66.3	3.5	3.02e+01	0	27	104	615514112	60	79675
2026-01-15 23:44:29.71	334.47	0.91	-48.4	-66.3	3.5	3.02e+01	0	27	104	615514112	60	79898
2026-01-15 23:44:30.72	334.40	0.86	-48.4	-66.3	3.5	3.02e+01	0	27	104	615514112	60	79735
2026-01-15 23:44:31.73	334.33	0.80	-48.4	-66.3	3.5	3.02e+01	0	27	104	615514112	60	79631
2026-01-15 23:44:32.74	334.26	0.74	-48.5	-66.3	3.5	3.02e+01	0	27	104	615514112	60	79665
2026-01-15 23:44:33.75	334.19	0.69	-48.4	-66.3	3.5	3.02e+01	0	28	104	615514112	60	79897
2026-01-15 23:44:34.76	334.11	0.63	-48.5	-66.4	3.5	3.02e+01	0	28	104	615514112	60	80028
2026-01-15 23:44:35.77	334.04	0.58	-48.5	-66.4	3.5	3.02e+01	0	27	104	615514112	60	80430
2026-01-15 23:44:36.78	333.97	0.52	-48.5	-66.4	3.5	3.02e+01	0	27	104	615514112	60	80517
2026-01-15 23:44:37.79	333.90	0.47	-48.5	-66.4	3.5	3.02e+01	0	27	104	615514112	60	80275
2026-01-15 23:44:38.80	333.83	0.41	-48.5	-66.4	3.5	3.02e+01	0	28	104	615514112	60	80373
2026-01-15 23:44:39.80	333.77	0.36	-48.8	-66.6	3.5	3.02e+01	0	27	104	615514112	60	82723
2026-01-15 23:44:40.81	333.70	0.30	-48.5	-66.4	3.5	3.02e+01	0	27	104	615514112	60	80180
2026-01-15 23:44:41.82	333.63	0.25	-48.5	-66.4	3.5	3.02e+01	0	27	104	615514112	60	80544
2026-01-15 23:44:42.83	333.56	0.19	-48.5	-66.4	3.5	3.02e+01	0	27	104	615514112	60	80435
2026-01-15 23:44:43.84	333.49	0.14	-48.5	-66.4	3.5	3.02e+01	0	27	104	615514112	60	80061
2026-01-15 23:44:44.85	333.42	0.08	-48.5	-66.3	3.5	3.02e+01	0	27	104	615514112	60	79626
2026-01-15 23:44:45.86	333.36	0.03	-48.5	-66.4	3.5	3.02e+01	0	27	104	615514112	60	80594
2026-01-15 23:44:46.88	333.29	-0.03	-48.4	-66.3	3.5	3.02e+01	0	28	104	615514112	60	79348

#Closed at: 2026-01-15 23:44:47
#Recorded file [615 MB]: D:/lorett/data/35029_260116_113545.dat