passes_logs/2026/01/15/R4.6S_Anadyr/R4.6S_Anadyr__20260115_144433_SUOMI_NPP_rec.log

#Pass ID: 20260115_144433_SUOMI NPP
#Satellite: SUOMI NPP
#Configuration: NPP
#almurnet v.1.7.20251203
#Start time: 2026-01-15 14:44:34

#Version: 2.2.20231116
#Station: R4.6S_Anadyr
#Location: 177.4865 lon 64.73178 lat
#TLE: 1 37849U 11061A   26014.61059675  .00000037  00000+0  38639-4 0  9994
#TLE: 2 37849  98.7810 316.6625 0002460  64.3781 295.7649 14.19525105736658

#Time	Az	El	Level	Level2	SNR	BER	BlckErr	Temp	State	Recorded	gain1	gain2
2026-01-15 14:44:34.95	20.44	0.08	-48.3	-60.8	3.4	1.51e+00	0	26	0	0	60	38392
2026-01-15 14:44:35.96	20.45	0.14	-48.2	-63.4	3.6	1.51e+00	0	27	104	0	60	53583
2026-01-15 14:44:36.97	20.45	0.20	-48.2	-63.4	3.6	1.51e+00	0	27	104	0	60	53592
2026-01-15 14:44:37.98	20.46	0.26	-48.3	-63.4	3.6	1.51e+00	0	27	104	0	60	53730
2026-01-15 14:44:38.99	20.47	0.32	-48.3	-63.5	3.6	1.51e+00	0	27	104	0	60	53878
2026-01-15 14:44:40.00	20.47	0.38	-48.3	-63.5	3.6	1.51e+00	0	27	104	0	60	54261
2026-01-15 14:44:41.01	20.48	0.44	-48.3	-63.6	3.6	1.51e+00	0	27	104	0	60	54524
2026-01-15 14:44:42.02	20.48	0.50	-48.3	-63.5	3.6	1.51e+00	0	27	104	0	60	54022
2026-01-15 14:44:43.03	20.49	0.56	-48.2	-63.5	3.6	1.51e+00	0	27	104	0	60	53869
2026-01-15 14:44:44.03	20.50	0.63	-48.1	-63.4	3.6	1.51e+00	0	27	104	0	60	53653
2026-01-15 14:44:45.04	20.50	0.69	-48.2	-63.3	3.6	1.51e+00	0	27	104	0	60	53079
2026-01-15 14:44:46.05	20.51	0.75	-48.1	-63.2	3.6	1.51e+00	0	27	104	0	60	52362
2026-01-15 14:44:47.06	20.52	0.81	-47.9	-63.1	3.6	1.51e+00	0	27	104	0	60	51780
2026-01-15 14:44:48.07	20.52	0.87	-47.6	-62.9	3.6	1.51e+00	0	27	104	0	60	50216
2026-01-15 14:44:49.08	20.53	0.93	-47.5	-62.7	3.6	1.51e+00	0	27	104	0	60	49490
2026-01-15 14:44:50.09	20.54	1.00	-47.3	-62.5	3.6	1.51e+00	0	27	104	0	60	48167
2026-01-15 14:44:51.10	20.54	1.06	-46.9	-62.1	3.6	1.51e+00	0	27	104	0	60	45954
2026-01-15 14:44:52.11	20.55	1.12	-46.7	-61.9	3.6	1.51e+00	0	27	104	0	60	44832
2026-01-15 14:44:53.12	20.55	1.18	-46.7	-61.8	3.6	1.51e+00	0	27	104	0	60	44497
2026-01-15 14:44:54.13	20.56	1.25	-46.7	-61.8	3.6	1.51e+00	0	27	104	0	60	44592
2026-01-15 14:44:55.14	20.57	1.31	-46.7	-61.8	3.6	1.51e+00	0	27	104	0	60	44462
2026-01-15 14:44:56.15	20.57	1.37	-46.7	-61.7	3.6	1.51e+00	0	27	104	0	60	44003
2026-01-15 14:44:57.16	20.58	1.43	-46.7	-61.8	3.6	1.51e+00	0	27	104	0	60	44260
2026-01-15 14:44:58.17	20.59	1.50	-46.7	-61.8	3.6	1.51e+00	0	27	104	0	60	44405
2026-01-15 14:44:59.18	20.59	1.56	-46.6	-61.8	3.6	1.51e+00	0	27	104	0	60	44432
2026-01-15 14:45:00.19	20.60	1.62	-46.7	-61.8	3.6	1.51e+00	0	27	104	0	60	44385
2026-01-15 14:45:01.20	20.61	1.69	-46.6	-61.8	3.6	1.51e+00	0	27	104	0	60	44430
2026-01-15 14:45:02.20	20.61	1.75	-46.6	-61.8	3.6	1.51e+00	0	27	104	0	60	44462
2026-01-15 14:45:03.21	20.62	1.81	-46.6	-61.8	3.6	1.51e+00	0	27	104	0	60	44629
2026-01-15 14:45:04.22	20.63	1.88	-46.6	-61.8	3.6	1.51e+00	0	27	104	0	60	44558
2026-01-15 14:45:05.24	20.63	1.94	-46.6	-61.8	3.6	1.51e+00	0	27	104	0	60	44351
2026-01-15 14:45:06.25	20.64	2.01	-46.6	-61.8	3.6	1.51e+00	0	27	104	0	60	44512
2026-01-15 14:45:07.26	20.65	2.07	-46.6	-61.8	3.6	1.51e+00	0	28	104	0	60	44442
2026-01-15 14:45:08.27	20.65	2.14	-46.6	-61.7	3.6	1.51e+00	0	27	104	0	60	43963
2026-01-15 14:45:09.28	20.66	2.20	-46.6	-61.4	3.6	1.51e+00	0	27	104	0	60	42487
2026-01-15 14:45:10.29	20.67	2.27	-46.6	-61.1	3.5	1.51e+00	0	27	104	0	60	41225
2026-01-15 14:45:11.29	20.67	2.33	-46.6	-60.5	3.6	1.51e+00	0	27	104	0	60	38138
2026-01-15 14:45:12.30	20.68	2.40	-46.5	-60.1	3.6	1.51e+00	0	28	104	0	60	36410
2026-01-15 14:45:13.31	20.69	2.46	-46.6	-60.1	3.6	1.51e+00	0	28	104	0	60	36498
2026-01-15 14:45:14.32	20.69	2.53	-46.6	-59.8	3.6	1.51e+00	0	27	104	0	60	35469
2026-01-15 14:45:15.33	20.70	2.59	-46.5	-59.8	3.6	1.51e+00	0	28	104	0	60	35232
2026-01-15 14:45:16.34	20.71	2.66	-46.5	-59.9	3.6	1.50e+00	0	28	104	0	60	35571
2026-01-15 14:45:17.35	20.71	2.72	-46.5	-59.1	3.8	1.50e+00	0	27	104	0	60	32509
2026-01-15 14:45:18.36	20.72	2.79	-46.4	-56.4	4.3	1.35e+00	92	28	0	0	60	23835
2026-01-15 14:45:19.37	20.73	2.86	-46.1	-53.9	5.8	6.27e-01	0	28	0	2097152	60	17850
2026-01-15 14:45:20.38	20.73	2.92	-45.7	-52.1	7.8	1.28e-01	0	28	0	4194304	60	14508
2026-01-15 14:45:21.39	20.74	2.99	-45.2	-50.5	9.8	2.75e-02	0	28	0	6291456	60	12127
2026-01-15 14:45:22.40	20.75	3.06	-44.5	-48.8	11.7	3.23e-03	0	28	0	7340032	60	9955
2026-01-15 14:45:23.41	20.75	3.12	-44.0	-47.8	12.9	2.68e-04	69	28	0	9437184	60	8836
2026-01-15 14:45:24.41	20.76	3.19	-43.4	-46.5	14.1	1.06e-05	0	28	0	11534336	60	7614
2026-01-15 14:45:25.42	20.77	3.26	-42.9	-45.7	15.1	0.00e+00	91	28	0	13631488	60	6949
2026-01-15 14:45:26.43	20.77	3.32	-42.9	-45.7	14.9	0.00e+00	0	28	0	15728640	60	6957
2026-01-15 14:45:27.44	20.78	3.39	-42.7	-45.4	15.3	0.00e+00	0	28	0	16777216	58	7534
2026-01-15 14:45:28.45	20.79	3.46	-42.7	-45.4	15.3	7.00e-07	0	28	0	18874368	58	7517
2026-01-15 14:45:29.46	20.79	3.53	-43.2	-46.2	14.3	7.00e-07	0	28	0	20971520	58	8278
2026-01-15 14:45:30.47	20.80	3.60	-43.5	-46.7	13.8	2.20e-06	5	28	0	23068672	58	8808
2026-01-15 14:45:31.48	20.81	3.66	-44.0	-47.8	12.7	2.74e-05	0	28	0	25165824	60	8862
2026-01-15 14:45:32.49	20.81	3.73	-44.7	-49.2	11.1	3.84e-04	47	28	0	26214400	60	10421
2026-01-15 14:45:33.50	20.82	3.80	-42.7	-45.2	16.7	1.25e-03	0	28	0	28311552	60	6575
2026-01-15 14:45:34.51	20.83	3.87	-41.9	-44.0	15.9	0.00e+00	0	28	0	30408704	58	6457
2026-01-15 14:45:35.51	20.83	3.94	-45.1	-50.2	9.2	4.08e-03	0	28	0	32505856	60	11663
2026-01-15 14:45:36.52	20.84	4.01	-45.4	-51.3	5.4	1.42e+00	0	28	104	32505856	60	13299
2026-01-15 14:45:37.54	20.85	4.08	-46.0	-53.8	4.8	2.69e-01	85	28	104	32505856	60	17716
2026-01-15 14:45:38.55	20.85	4.15	-46.6	-60.1	3.7	1.51e+00	0	28	104	32505856	60	36501
2026-01-15 14:45:39.56	20.86	4.22	-45.4	-51.0	9.4	1.65e-01	78	28	0	32505856	60	12822
2026-01-15 14:45:40.57	20.87	4.29	-45.3	-50.6	9.7	3.23e-02	0	28	0	34603008	60	12307
2026-01-15 14:45:41.58	20.87	4.36	-44.6	-48.7	12.1	1.98e-03	10	28	0	35651584	60	9845
2026-01-15 14:45:42.59	20.88	4.43	-44.2	-47.8	13.1	1.33e-04	0	28	0	37748736	60	8846
2026-01-15 14:45:43.60	20.89	4.50	-44.1	-47.6	13.3	1.44e-05	0	28	0	39845888	60	8623
2026-01-15 14:45:44.61	20.89	4.57	-44.3	-48.1	12.8	2.44e-05	0	28	0	41943040	60	9165
2026-01-15 14:45:45.62	20.90	4.64	-44.4	-48.3	12.6	7.40e-05	0	28	0	44040192	60	9410
2026-01-15 14:45:46.63	20.91	4.71	-44.1	-47.6	13.3	8.30e-06	92	28	0	45088768	60	8704
2026-01-15 14:45:47.64	20.92	4.78	-44.2	-47.8	13.3	3.89e-05	0	28	0	47185920	60	8916
2026-01-15 14:45:48.65	20.92	4.85	-43.8	-47.1	13.8	6.80e-06	78	28	0	49283072	60	8170
2026-01-15 14:45:49.66	20.93	4.92	-43.3	-46.1	14.7	7.00e-07	0	28	0	51380224	60	7325
2026-01-15 14:45:50.67	20.94	4.99	-42.7	-45.3	15.7	0.00e+00	0	28	0	53477376	60	6631
2026-01-15 14:45:51.68	20.94	5.07	-42.7	-45.1	15.8	0.00e+00	0	28	0	54525952	58	7317
2026-01-15 14:45:52.69	20.95	5.14	-42.6	-45.1	15.9	0.00e+00	0	28	0	56623104	58	7304
2026-01-15 14:45:53.70	20.96	5.21	-42.6	-45.0	16.0	0.00e+00	92	28	0	58720256	58	7180
2026-01-15 14:45:54.70	20.96	5.28	-42.2	-44.4	16.6	0.00e+00	0	28	0	60817408	58	6760
2026-01-15 14:45:55.71	20.97	5.35	-41.8	-43.9	17.2	0.00e+00	79	28	0	62914560	58	6355
2026-01-15 14:45:56.72	20.98	5.43	-41.7	-43.7	17.3	0.00e+00	0	28	0	63963136	56	6962
2026-01-15 14:45:57.73	20.99	5.50	-41.6	-43.6	17.6	0.00e+00	0	28	0	66060288	56	6849
2026-01-15 14:45:58.74	20.99	5.57	-41.7	-43.6	17.5	0.00e+00	0	28	0	68157440	56	6902
2026-01-15 14:45:59.75	21.00	5.65	-41.3	-43.2	17.9	0.00e+00	0	28	0	70254592	56	6577
2026-01-15 14:46:00.76	21.01	5.72	-41.1	-42.9	18.1	0.00e+00	90	28	0	72351744	56	6363
2026-01-15 14:46:01.77	21.01	5.79	-41.2	-43.0	18.2	0.00e+00	0	28	0	74448896	56	6406
2026-01-15 14:46:02.78	21.02	5.87	-41.1	-42.9	18.2	0.00e+00	65	28	0	75497472	56	6330
2026-01-15 14:46:03.79	21.03	5.94	-41.3	-43.1	18.1	0.00e+00	0	28	0	77594624	56	6490
2026-01-15 14:46:04.80	21.04	6.02	-41.1	-42.8	18.2	0.00e+00	0	28	0	79691776	56	6307
2026-01-15 14:46:05.81	21.04	6.09	-41.2	-43.0	18.2	0.00e+00	0	28	0	81788928	56	6392
2026-01-15 14:46:06.82	21.05	6.17	-41.1	-42.9	18.2	0.00e+00	0	28	0	83886080	56	6376
2026-01-15 14:46:07.83	21.06	6.24	-41.2	-42.9	18.2	0.00e+00	12	28	0	84934656	56	6376
2026-01-15 14:46:08.84	21.06	6.32	-41.1	-42.8	18.3	0.00e+00	0	28	0	87031808	56	6307
2026-01-15 14:46:09.85	21.07	6.39	-41.1	-42.8	18.3	0.00e+00	75	28	0	89128960	56	6272
2026-01-15 14:46:10.86	21.08	6.47	-40.8	-42.5	18.5	0.00e+00	0	28	0	91226112	54	6803
2026-01-15 14:46:11.87	21.09	6.55	-40.9	-42.6	18.5	0.00e+00	0	28	0	93323264	54	6888
2026-01-15 14:46:12.87	21.09	6.62	-40.9	-42.6	18.3	0.00e+00	0	28	0	94371840	54	6898
2026-01-15 14:46:13.88	21.10	6.70	-40.9	-42.6	18.5	0.00e+00	0	28	0	96468992	54	6899
2026-01-15 14:46:14.89	21.11	6.77	-41.2	-43.0	18.1	0.00e+00	12	28	0	98566144	54	7171
2026-01-15 14:46:15.90	21.12	6.85	-40.8	-42.5	18.6	0.00e+00	0	28	0	100663296	54	6799
2026-01-15 14:46:16.91	21.12	6.93	-40.9	-42.6	18.6	0.00e+00	92	28	0	102760448	54	6850
2026-01-15 14:46:17.92	21.13	7.01	-40.7	-42.3	18.8	0.00e+00	0	28	0	103809024	54	6633
2026-01-15 14:46:18.93	21.14	7.08	-40.7	-42.3	18.8	0.00e+00	0	28	0	105906176	54	6666
2026-01-15 14:46:19.94	21.14	7.16	-40.6	-42.3	18.9	0.00e+00	0	28	0	108003328	54	6619
2026-01-15 14:46:20.95	21.15	7.24	-40.8	-42.5	18.8	0.00e+00	0	28	0	110100480	54	6810
2026-01-15 14:46:21.96	21.16	7.32	-40.5	-42.1	19.0	0.00e+00	0	28	0	112197632	54	6515
2026-01-15 14:46:22.97	21.17	7.40	-40.4	-41.9	19.2	0.00e+00	0	28	0	113246208	54	6362
2026-01-15 14:46:23.98	21.17	7.48	-40.4	-42.0	19.1	0.00e+00	52	28	0	115343360	54	6436
2026-01-15 14:46:24.99	21.18	7.55	-40.4	-41.9	19.2	0.00e+00	0	28	0	117440512	54	6378
2026-01-15 14:46:26.00	21.19	7.63	-40.4	-41.9	19.2	0.00e+00	0	28	0	119537664	54	6353
2026-01-15 14:46:27.01	21.20	7.71	-40.3	-41.8	19.4	0.00e+00	0	28	0	121634816	54	6292
2026-01-15 14:46:28.01	21.20	7.79	-40.2	-41.8	19.4	0.00e+00	0	28	0	122683392	54	6258
2026-01-15 14:46:29.02	21.21	7.87	-40.2	-41.7	19.4	0.00e+00	0	28	0	124780544	54	6191
2026-01-15 14:46:30.03	21.22	7.95	-40.4	-41.9	19.2	0.00e+00	0	28	0	126877696	54	6351
2026-01-15 14:46:31.04	21.23	8.03	-40.2	-41.7	19.4	0.00e+00	69	28	0	128974848	54	6216
2026-01-15 14:46:32.05	21.23	8.11	-40.1	-41.6	19.6	0.00e+00	0	28	0	131072000	54	6167
2026-01-15 14:46:33.06	21.24	8.20	-40.1	-41.6	19.5	0.00e+00	58	28	0	132120576	54	6105
2026-01-15 14:46:34.06	21.25	8.28	-40.0	-41.5	19.7	0.00e+00	0	28	0	134217728	54	6067
2026-01-15 14:46:35.07	21.26	8.36	-40.0	-41.4	19.7	0.00e+00	0	28	0	136314880	54	6010
2026-01-15 14:46:36.09	21.27	8.44	-40.0	-41.4	19.8	0.00e+00	9	28	0	138412032	54	5999
2026-01-15 14:46:37.10	21.27	8.52	-39.8	-41.2	19.9	0.00e+00	0	28	0	140509184	54	5862
2026-01-15 14:46:38.11	21.28	8.60	-40.0	-41.5	19.8	0.00e+00	78	28	0	141557760	54	6034
2026-01-15 14:46:39.12	21.29	8.69	-39.8	-41.3	19.9	0.00e+00	11	28	0	143654912	54	5906
2026-01-15 14:46:40.12	21.30	8.77	-39.9	-41.4	19.8	0.00e+00	90	28	0	145752064	52	6726
2026-01-15 14:46:41.13	21.30	8.85	-39.8	-41.1	20.0	0.00e+00	0	28	0	147849216	52	6532
2026-01-15 14:46:42.14	21.31	8.94	-39.7	-41.0	20.1	0.00e+00	0	28	0	149946368	52	6456
2026-01-15 14:46:43.15	21.32	9.02	-39.7	-41.0	20.2	0.00e+00	10	28	0	150994944	52	6453
2026-01-15 14:46:44.16	21.33	9.10	-39.5	-40.8	20.3	0.00e+00	0	28	0	153092096	52	6297
2026-01-15 14:46:45.17	21.33	9.19	-39.6	-41.0	20.2	0.00e+00	10	28	0	155189248	52	6440
2026-01-15 14:46:46.18	21.34	9.27	-39.6	-41.0	20.3	0.00e+00	0	28	0	157286400	52	6413
2026-01-15 14:46:47.19	21.35	9.36	-39.5	-40.9	20.3	0.00e+00	50	28	0	159383552	52	6335
2026-01-15 14:46:48.20	21.36	9.44	-39.5	-40.8	20.4	0.00e+00	0	28	0	160432128	52	6277
2026-01-15 14:46:49.20	21.37	9.53	-39.5	-40.8	20.4	0.00e+00	67	28	0	162529280	52	6288
2026-01-15 14:46:50.21	21.37	9.61	-39.2	-40.5	20.7	0.00e+00	0	28	0	164626432	52	6086
2026-01-15 14:46:51.22	21.38	9.70	-39.4	-40.7	20.5	0.00e+00	0	28	0	166723584	52	6220
2026-01-15 14:46:52.23	21.39	9.79	-39.3	-40.6	20.6	0.00e+00	11	28	0	168820736	52	6167
2026-01-15 14:46:53.24	21.40	9.87	-39.3	-40.6	20.6	0.00e+00	0	28	0	170917888	52	6172
2026-01-15 14:46:54.25	21.41	9.96	-39.2	-40.4	20.8	0.00e+00	55	28	0	171966464	52	6033
2026-01-15 14:46:55.26	21.41	10.05	-39.0	-40.3	20.9	0.00e+00	0	28	0	174063616	52	5924
2026-01-15 14:46:56.27	21.42	10.14	-39.1	-40.4	20.9	0.00e+00	51	28	0	176160768	52	5965
2026-01-15 14:46:57.28	21.43	10.22	-39.1	-40.3	20.9	0.00e+00	0	28	0	178257920	52	5937
2026-01-15 14:46:58.29	21.44	10.31	-39.0	-40.3	21.0	0.00e+00	0	28	0	180355072	52	5900
2026-01-15 14:46:59.30	21.45	10.40	-39.1	-40.3	20.9	0.00e+00	14	28	0	181403648	52	5963
2026-01-15 14:47:00.30	21.45	10.49	-39.0	-40.2	21.0	0.00e+00	0	28	0	183500800	52	5849
2026-01-15 14:47:01.31	21.46	10.58	-38.9	-40.1	21.1	0.00e+00	37	28	0	185597952	52	5809
2026-01-15 14:47:02.31	21.47	10.67	-38.8	-40.0	21.2	0.00e+00	0	28	0	187695104	52	5696
2026-01-15 14:47:03.32	21.48	10.76	-38.7	-39.8	21.3	0.00e+00	66	28	0	189792256	50	6307
2026-01-15 14:47:04.33	21.49	10.85	-38.7	-39.9	21.3	0.00e+00	0	28	0	190840832	50	6336
2026-01-15 14:47:05.35	21.50	10.94	-38.7	-39.9	21.2	0.00e+00	0	28	0	192937984	50	6388
2026-01-15 14:47:06.35	21.50	11.03	-38.6	-39.8	21.3	0.00e+00	0	28	0	195035136	50	6303
2026-01-15 14:47:07.35	21.51	11.12	-38.5	-39.6	21.5	0.00e+00	0	28	0	197132288	50	6167
2026-01-15 14:47:08.37	21.52	11.21	-38.5	-39.7	21.4	0.00e+00	7	28	0	199229440	50	6238
2026-01-15 14:47:09.37	21.53	11.30	-38.6	-39.8	21.4	0.00e+00	0	28	0	200278016	50	6287
2026-01-15 14:47:10.38	21.54	11.39	-38.3	-39.5	21.6	0.00e+00	79	28	0	202375168	50	6060
2026-01-15 14:47:11.39	21.54	11.49	-38.3	-39.4	21.7	0.00e+00	0	28	0	204472320	50	6011
2026-01-15 14:47:12.41	21.55	11.58	-38.3	-39.4	21.6	0.00e+00	0	28	0	206569472	50	6025
2026-01-15 14:47:13.42	21.56	11.67	-38.2	-39.3	21.7	0.00e+00	0	28	0	208666624	50	5926
2026-01-15 14:47:14.42	21.57	11.77	-38.2	-39.3	21.8	0.00e+00	0	28	0	209715200	50	5916
2026-01-15 14:47:15.43	21.58	11.86	-38.1	-39.2	21.9	0.00e+00	9	28	0	211812352	50	5850
2026-01-15 14:47:16.44	21.59	11.96	-38.1	-39.3	21.8	0.00e+00	0	28	0	213909504	50	5908
2026-01-15 14:47:17.45	21.60	12.05	-38.1	-39.2	21.8	0.00e+00	92	28	0	216006656	50	5890
2026-01-15 14:47:18.46	21.60	12.15	-37.9	-39.1	22.0	0.00e+00	0	28	0	218103808	50	5772
2026-01-15 14:47:19.47	21.61	12.24	-38.0	-39.1	21.9	0.00e+00	0	28	0	219152384	50	5818
2026-01-15 14:47:20.48	21.62	12.34	-37.8	-39.0	22.1	0.00e+00	0	28	0	221249536	50	5708
2026-01-15 14:47:21.49	21.63	12.43	-37.8	-38.8	22.2	0.00e+00	0	28	0	223346688	48	6310
2026-01-15 14:47:22.50	21.64	12.53	-37.8	-38.9	22.0	0.00e+00	56	28	0	225443840	48	6380
2026-01-15 14:47:23.51	21.65	12.63	-37.8	-38.9	22.2	0.00e+00	0	28	0	227540992	48	6361
2026-01-15 14:47:24.52	21.66	12.72	-37.7	-38.8	22.2	0.00e+00	92	28	0	228589568	48	6278
2026-01-15 14:47:25.53	21.67	12.82	-37.8	-38.8	22.3	0.00e+00	0	28	0	230686720	48	6313
2026-01-15 14:47:26.54	21.67	12.92	-37.5	-38.5	22.4	0.00e+00	0	28	0	232783872	48	6103
2026-01-15 14:47:27.55	21.68	13.02	-37.6	-38.7	22.4	0.00e+00	0	28	0	234881024	48	6178
2026-01-15 14:47:28.56	21.69	13.12	-37.5	-38.6	22.5	0.00e+00	0	28	0	236978176	48	6108
2026-01-15 14:47:29.57	21.70	13.22	-37.5	-38.6	22.4	0.00e+00	24	28	0	239075328	48	6117
2026-01-15 14:47:30.58	21.71	13.32	-37.6	-38.6	22.5	0.00e+00	0	28	0	240123904	48	6146
2026-01-15 14:47:31.59	21.72	13.42	-37.4	-38.4	22.7	0.00e+00	92	28	0	242221056	48	5970
2026-01-15 14:47:32.60	21.73	13.52	-37.3	-38.3	22.7	0.00e+00	0	28	0	244318208	48	5921
2026-01-15 14:47:33.62	21.74	13.62	-37.2	-38.2	22.8	0.00e+00	50	28	0	246415360	48	5849
2026-01-15 14:47:34.63	21.75	13.72	-37.2	-38.2	22.7	0.00e+00	0	28	0	248512512	48	5881
2026-01-15 14:47:35.64	21.75	13.82	-37.3	-38.3	22.8	0.00e+00	0	28	0	249561088	48	5923
2026-01-15 14:47:36.65	21.76	13.93	-37.1	-38.1	22.8	0.00e+00	0	28	0	251658240	48	5805
2026-01-15 14:47:37.66	21.77	14.03	-37.2	-38.2	22.7	0.00e+00	0	28	0	253755392	48	5857
2026-01-15 14:47:38.67	21.78	14.13	-37.4	-38.4	22.6	0.00e+00	92	28	0	255852544	48	5983
2026-01-15 14:47:39.68	21.79	14.24	-37.1	-38.1	22.9	0.00e+00	0	28	0	257949696	48	5765
2026-01-15 14:47:40.69	21.80	14.34	-37.0	-37.9	22.9	0.00e+00	71	28	0	258998272	48	5672
2026-01-15 14:47:41.70	21.81	14.44	-36.9	-37.9	23.1	0.00e+00	0	28	0	261095424	48	5660
2026-01-15 14:47:42.70	21.82	14.55	-36.8	-37.8	23.1	0.00e+00	0	28	0	263192576	48	5580
2026-01-15 14:47:43.72	21.83	14.65	-37.0	-38.0	22.9	0.00e+00	0	28	0	265289728	48	5737
2026-01-15 14:47:44.72	21.84	14.76	-37.1	-38.0	22.9	0.00e+00	0	28	0	267386880	48	5756
2026-01-15 14:47:45.73	21.85	14.87	-37.1	-38.1	22.8	0.00e+00	92	28	0	268435456	48	5804
2026-01-15 14:47:46.74	21.86	14.97	-36.9	-37.8	23.0	0.00e+00	0	28	0	270532608	48	5622
2026-01-15 14:47:47.75	21.87	15.08	-37.0	-37.9	22.9	0.00e+00	43	28	0	272629760	48	5694
2026-01-15 14:47:48.76	21.88	15.19	-37.0	-38.0	22.9	0.00e+00	0	28	0	274726912	48	5718
2026-01-15 14:47:49.78	21.89	15.30	-36.9	-37.8	23.2	0.00e+00	0	28	0	276824064	48	5613
2026-01-15 14:47:50.79	21.90	15.41	-36.9	-37.8	23.1	0.00e+00	0	28	0	277872640	48	5610
2026-01-15 14:47:51.79	21.90	15.51	-37.0	-37.9	23.1	0.00e+00	0	28	0	279969792	48	5675
2026-01-15 14:47:52.80	21.91	15.62	-37.0	-38.0	23.0	0.00e+00	67	28	0	282066944	48	5720
2026-01-15 14:47:53.81	21.92	15.73	-36.8	-37.8	23.2	0.00e+00	0	28	0	284164096	48	5573
2026-01-15 14:47:54.82	21.93	15.85	-36.9	-37.8	23.1	0.00e+00	92	28	0	286261248	48	5618
2026-01-15 14:47:55.83	21.94	15.96	-36.8	-37.7	23.2	0.00e+00	0	28	0	287309824	48	5546
2026-01-15 14:47:56.84	21.95	16.07	-36.9	-37.8	23.1	0.00e+00	0	28	0	289406976	46	6304
2026-01-15 14:47:57.85	21.96	16.18	-36.6	-37.5	23.4	0.00e+00	0	28	0	291504128	46	6080
2026-01-15 14:47:58.86	21.97	16.29	-36.6	-37.5	23.3	0.00e+00	0	28	0	293601280	46	6060
2026-01-15 14:47:59.87	21.98	16.41	-36.5	-37.4	23.4	0.00e+00	49	28	0	295698432	46	5989
2026-01-15 14:48:00.88	21.99	16.52	-36.5	-37.4	23.3	0.00e+00	0	28	0	296747008	46	5985
2026-01-15 14:48:01.89	22.00	16.64	-36.5	-37.4	23.5	0.00e+00	91	28	0	298844160	46	5970
2026-01-15 14:48:02.89	22.01	16.75	-36.6	-37.5	23.1	0.00e+00	0	28	0	300941312	46	6098
2026-01-15 14:48:03.90	22.02	16.86	-36.4	-37.3	23.1	0.00e+00	0	28	0	303038464	46	5942
2026-01-15 14:48:04.91	22.03	16.98	-36.6	-37.5	22.9	0.00e+00	0	28	0	305135616	46	6052
2026-01-15 14:48:05.92	22.04	17.10	-36.3	-37.2	23.2	0.00e+00	0	28	0	307232768	46	5859
2026-01-15 14:48:06.93	22.05	17.21	-36.4	-37.3	23.2	0.00e+00	14	28	0	308281344	46	5934
2026-01-15 14:48:07.94	22.06	17.33	-36.4	-37.3	23.4	0.00e+00	0	28	0	310378496	46	5937
2026-01-15 14:48:08.95	22.08	17.45	-36.4	-37.3	23.6	0.00e+00	13	28	0	312475648	46	5930
2026-01-15 14:48:09.96	22.09	17.57	-36.5	-37.4	23.5	0.00e+00	0	28	0	314572800	46	5976
2026-01-15 14:48:10.97	22.10	17.69	-36.4	-37.3	23.5	0.00e+00	71	28	0	316669952	46	5917
2026-01-15 14:48:11.98	22.11	17.81	-36.4	-37.3	23.5	0.00e+00	0	28	0	317718528	46	5937
2026-01-15 14:48:12.98	22.12	17.93	-36.4	-37.3	23.5	0.00e+00	0	28	0	319815680	46	5956
2026-01-15 14:48:14.00	22.13	18.05	-36.5	-37.4	23.5	0.00e+00	0	28	0	321912832	46	6011
2026-01-15 14:48:15.01	22.14	18.17	-36.6	-37.6	23.4	0.00e+00	0	28	0	324009984	46	6105
2026-01-15 14:48:16.02	22.15	18.29	-36.6	-37.6	23.3	0.00e+00	70	28	0	326107136	46	6105
2026-01-15 14:48:17.03	22.16	18.42	-36.7	-37.6	23.3	0.00e+00	0	28	0	327155712	46	6155
2026-01-15 14:48:18.03	22.17	18.54	-36.7	-37.6	23.3	0.00e+00	83	28	0	329252864	46	6150
2026-01-15 14:48:19.04	22.18	18.66	-36.7	-37.6	23.4	0.00e+00	0	28	0	331350016	46	6121
2026-01-15 14:48:20.05	22.19	18.79	-36.8	-37.8	23.2	0.00e+00	0	28	0	333447168	46	6259
2026-01-15 14:48:21.06	22.20	18.92	-37.0	-38.0	23.1	0.00e+00	0	28	0	335544320	46	6393
2026-01-15 14:48:22.07	22.21	19.04	-37.0	-37.9	23.2	0.00e+00	14	28	0	336592896	46	6376
2026-01-15 14:48:23.08	22.23	19.17	-37.0	-37.9	23.0	0.00e+00	12	28	0	338690048	46	6359
2026-01-15 14:48:24.09	22.24	19.30	-36.8	-37.8	23.2	0.00e+00	0	28	0	340787200	46	6263
2026-01-15 14:48:25.11	22.25	19.43	-37.0	-38.0	23.1	0.00e+00	83	28	0	342884352	46	6398
2026-01-15 14:48:26.12	22.26	19.55	-36.8	-37.8	23.2	0.00e+00	0	28	0	344981504	46	6252
2026-01-15 14:48:27.13	22.27	19.68	-37.0	-37.9	23.1	0.00e+00	0	28	0	346030080	46	6351
2026-01-15 14:48:28.14	22.28	19.81	-37.0	-37.9	23.2	0.00e+00	0	28	0	348127232	46	6367
2026-01-15 14:48:29.15	22.29	19.94	-37.0	-38.0	23.2	0.00e+00	0	28	0	350224384	46	6423
2026-01-15 14:48:30.15	22.31	20.07	-37.0	-37.9	23.2	0.00e+00	90	28	0	352321536	46	6368
2026-01-15 14:48:31.17	22.32	20.21	-37.2	-38.1	23.0	0.00e+00	0	28	0	354418688	46	6511
2026-01-15 14:48:32.17	22.33	20.34	-37.1	-38.1	23.1	0.00e+00	39	28	0	355467264	46	6477
2026-01-15 14:48:33.18	22.34	20.47	-37.3	-38.3	22.8	0.00e+00	17	28	0	357564416	46	6675
2026-01-15 14:48:34.19	22.35	20.61	-37.6	-38.6	22.6	0.00e+00	0	28	0	359661568	46	6909
2026-01-15 14:48:35.20	22.36	20.74	-37.5	-38.5	22.7	0.00e+00	0	28	0	361758720	46	6828
2026-01-15 14:48:36.21	22.38	20.88	-37.5	-38.5	22.7	0.00e+00	14	28	0	363855872	46	6791
2026-01-15 14:48:37.22	22.39	21.02	-37.6	-38.6	22.7	0.00e+00	73	28	0	364904448	46	6925
2026-01-15 14:48:38.23	22.40	21.15	-37.7	-38.8	22.5	0.00e+00	0	28	0	367001600	48	6260
2026-01-15 14:48:39.24	22.41	21.29	-37.7	-38.8	22.4	0.00e+00	92	28	0	369098752	48	6266
2026-01-15 14:48:40.24	22.42	21.43	-37.9	-39.0	22.3	0.00e+00	0	28	0	371195904	48	6407
2026-01-15 14:48:41.25	22.44	21.57	-37.9	-39.0	22.4	0.00e+00	0	28	0	373293056	48	6425
2026-01-15 14:48:42.26	22.45	21.71	-37.7	-38.8	22.5	0.00e+00	0	28	0	375390208	48	6259
2026-01-15 14:48:43.27	22.46	21.85	-37.8	-38.9	22.4	0.00e+00	0	28	0	376438784	48	6336
2026-01-15 14:48:44.28	22.47	21.99	-37.8	-38.9	22.4	0.00e+00	14	28	0	378535936	48	6339
2026-01-15 14:48:45.29	22.49	22.13	-37.7	-38.7	22.5	0.00e+00	0	28	0	380633088	48	6233
2026-01-15 14:48:46.30	22.50	22.28	-37.9	-38.9	22.3	0.00e+00	41	28	0	382730240	48	6364
2026-01-15 14:48:47.31	22.51	22.42	-37.9	-38.9	22.4	0.00e+00	0	28	0	383778816	48	6372
2026-01-15 14:48:48.32	22.52	22.57	-37.8	-38.9	22.5	0.00e+00	92	28	0	385875968	48	6330
2026-01-15 14:48:49.33	22.54	22.71	-37.8	-38.8	22.6	0.00e+00	0	28	0	387973120	48	6271
2026-01-15 14:48:50.34	22.55	22.86	-37.7	-38.7	22.6	0.00e+00	0	28	0	390070272	48	6231
2026-01-15 14:48:51.35	22.56	23.01	-38.0	-39.1	22.3	0.00e+00	0	28	0	392167424	48	6490
2026-01-15 14:48:52.36	22.58	23.16	-37.8	-38.9	22.4	0.00e+00	0	28	0	393216000	48	6335
2026-01-15 14:48:53.37	22.59	23.31	-37.9	-38.9	22.5	0.00e+00	21	28	0	395313152	48	6357
2026-01-15 14:48:54.38	22.60	23.46	-38.0	-39.0	22.3	0.00e+00	0	28	0	397410304	48	6452
2026-01-15 14:48:55.39	22.62	23.61	-38.3	-39.4	22.3	0.00e+00	90	28	0	399507456	48	6732
2026-01-15 14:48:56.40	22.63	23.76	-38.0	-39.0	22.3	0.00e+00	0	28	0	401604608	48	6430
2026-01-15 14:48:57.41	22.64	23.91	-38.1	-39.2	22.2	0.00e+00	0	28	0	403701760	48	6551
2026-01-15 14:48:58.42	22.66	24.07	-37.8	-38.8	22.6	0.00e+00	0	28	0	404750336	48	6258
2026-01-15 14:48:59.43	22.67	24.22	-38.0	-39.0	22.5	0.00e+00	0	28	0	406847488	48	6410
2026-01-15 14:49:00.44	22.68	24.38	-37.8	-38.8	22.6	0.00e+00	92	28	0	408944640	48	6252
2026-01-15 14:49:01.45	22.70	24.53	-37.6	-38.6	22.6	0.00e+00	0	28	0	411041792	48	6139
2026-01-15 14:49:02.46	22.71	24.69	-37.8	-38.8	22.4	0.00e+00	92	28	0	413138944	48	6282
2026-01-15 14:49:03.47	22.73	24.85	-37.6	-38.6	22.7	0.00e+00	0	28	0	414187520	48	6145
2026-01-15 14:49:04.48	22.74	25.01	-37.8	-38.8	22.5	0.00e+00	0	28	0	416284672	48	6254
2026-01-15 14:49:05.49	22.76	25.17	-37.7	-38.7	22.6	0.00e+00	0	28	0	418381824	48	6188
2026-01-15 14:49:06.50	22.77	25.33	-37.6	-38.6	22.7	0.00e+00	0	28	0	420478976	48	6149
2026-01-15 14:49:07.51	22.78	25.49	-37.8	-38.8	22.6	0.00e+00	15	28	0	422576128	48	6262
2026-01-15 14:49:08.52	22.80	25.66	-38.0	-39.0	22.3	0.00e+00	0	28	0	423624704	48	6422
2026-01-15 14:49:09.52	22.81	25.82	-37.9	-38.9	22.5	0.00e+00	83	28	0	425721856	48	6361
2026-01-15 14:49:10.53	22.83	25.99	-38.0	-39.0	22.5	0.00e+00	0	28	0	427819008	48	6406
2026-01-15 14:49:11.54	22.84	26.15	-37.8	-38.8	22.5	0.00e+00	0	28	0	429916160	48	6265
2026-01-15 14:49:12.55	22.86	26.32	-37.6	-38.6	22.6	0.00e+00	0	28	0	432013312	48	6114
2026-01-15 14:49:13.56	22.87	26.49	-37.8	-38.9	22.5	0.00e+00	0	28	0	433061888	48	6322
2026-01-15 14:49:14.57	22.89	26.66	-37.8	-38.8	22.5	0.00e+00	30	28	0	435159040	48	6253
2026-01-15 14:49:15.58	22.90	26.83	-37.3	-38.3	22.7	0.00e+00	0	28	0	437256192	48	5932
2026-01-15 14:49:16.59	22.92	27.00	-37.6	-38.6	22.7	0.00e+00	91	28	0	439353344	48	6124
2026-01-15 14:49:17.60	22.94	27.17	-37.6	-38.5	22.8	0.00e+00	0	28	0	441450496	48	6100
2026-01-15 14:49:18.60	22.95	27.35	-37.5	-38.4	22.8	0.00e+00	19	28	0	442499072	48	6032
2026-01-15 14:49:19.61	22.97	27.52	-38.0	-39.0	22.5	0.00e+00	0	28	0	444596224	48	6399
2026-01-15 14:49:20.62	22.98	27.70	-38.2	-39.2	22.2	0.00e+00	0	28	0	446693376	48	6596
2026-01-15 14:49:21.63	23.00	27.87	-38.3	-39.3	22.1	0.00e+00	13	28	0	448790528	48	6686
2026-01-15 14:49:22.64	23.02	28.05	-38.7	-39.7	21.7	0.00e+00	0	28	0	450887680	50	6244
2026-01-15 14:49:23.65	23.03	28.23	-38.3	-39.3	22.1	0.00e+00	10	28	0	451936256	50	5926
2026-01-15 14:49:24.66	23.05	28.41	-38.2	-39.2	22.2	0.00e+00	0	28	0	454033408	50	5883
2026-01-15 14:49:25.67	23.07	28.60	-38.1	-39.1	22.4	0.00e+00	92	28	0	456130560	50	5774
2026-01-15 14:49:26.68	23.08	28.78	-38.0	-39.0	22.3	0.00e+00	0	28	0	458227712	50	5754
2026-01-15 14:49:27.68	23.10	28.96	-38.0	-39.0	22.4	0.00e+00	0	28	0	460324864	50	5744
2026-01-15 14:49:28.69	23.12	29.15	-37.9	-38.9	22.5	0.00e+00	16	28	0	461373440	50	5679
2026-01-15 14:49:29.70	23.14	29.33	-38.0	-39.0	22.4	0.00e+00	0	28	0	463470592	50	5761
2026-01-15 14:49:30.71	23.15	29.52	-38.5	-39.6	22.0	0.00e+00	11	28	0	465567744	50	6146
2026-01-15 14:49:31.72	23.17	29.71	-38.2	-39.2	22.2	0.00e+00	0	28	0	467664896	50	5863
2026-01-15 14:49:32.73	23.19	29.90	-38.5	-39.6	21.9	0.00e+00	38	28	0	469762048	50	6151
2026-01-15 14:49:33.74	23.21	30.09	-39.2	-40.4	21.5	0.00e+00	0	28	0	471859200	50	6728
2026-01-15 14:49:34.75	23.22	30.29	-39.2	-40.4	21.2	0.00e+00	0	28	0	472907776	50	6722
2026-01-15 14:49:35.76	23.24	30.48	-39.6	-40.9	20.9	0.00e+00	0	28	0	475004928	50	7114
2026-01-15 14:49:36.77	23.26	30.68	-39.9	-41.3	20.6	0.00e+00	0	28	0	477102080	52	6651
2026-01-15 14:49:37.78	23.28	30.88	-39.7	-41.0	20.8	0.00e+00	17	28	0	479199232	52	6403
2026-01-15 14:49:38.79	23.30	31.07	-39.8	-41.1	20.5	0.00e+00	0	28	0	481296384	52	6519
2026-01-15 14:49:39.80	23.32	31.27	-40.1	-41.4	20.5	0.00e+00	39	28	0	482344960	52	6766
2026-01-15 14:49:40.81	23.34	31.48	-40.3	-41.7	20.3	0.00e+00	0	28	0	484442112	52	6959
2026-01-15 14:49:41.82	23.36	31.68	-40.1	-41.4	20.4	0.00e+00	0	28	0	486539264	52	6751
2026-01-15 14:49:42.83	23.38	31.88	-40.0	-41.4	20.5	0.00e+00	0	28	0	488636416	52	6703
2026-01-15 14:49:43.84	23.40	32.09	-39.6	-40.8	21.0	0.00e+00	0	28	0	490733568	52	6317
2026-01-15 14:49:44.85	23.42	32.30	-40.5	-42.0	19.9	0.00e+00	54	28	0	491782144	52	7191
2026-01-15 14:49:45.86	23.44	32.50	-40.5	-41.9	20.0	0.00e+00	0	28	0	493879296	54	6366
2026-01-15 14:49:46.86	23.46	32.71	-40.2	-41.5	20.3	0.00e+00	91	28	0	495976448	54	6060
2026-01-15 14:49:47.87	23.48	32.92	-40.6	-42.0	19.7	0.00e+00	0	28	0	498073600	54	6395
2026-01-15 14:49:48.88	23.50	33.14	-40.0	-41.2	20.4	0.00e+00	22	28	0	500170752	54	5866
2026-01-15 14:49:49.89	23.52	33.35	-40.3	-41.6	20.3	0.00e+00	0	28	0	501219328	54	6164
2026-01-15 14:49:50.90	23.54	33.57	-40.2	-41.5	20.4	0.00e+00	0	28	0	503316480	54	6073
2026-01-15 14:49:51.91	23.56	33.78	-39.5	-40.7	21.0	0.00e+00	0	28	0	505413632	52	6207
2026-01-15 14:49:52.92	23.58	34.00	-39.5	-40.7	21.0	0.00e+00	0	28	0	507510784	52	6184
2026-01-15 14:49:53.93	23.61	34.22	-39.0	-40.1	21.4	0.00e+00	90	28	0	509607936	52	5799
2026-01-15 14:49:54.94	23.63	34.45	-38.5	-39.5	22.1	0.00e+00	0	28	0	510656512	50	6086
2026-01-15 14:49:55.94	23.65	34.67	-38.4	-39.4	22.2	0.00e+00	56	28	0	512753664	50	6010
2026-01-15 14:49:56.95	23.67	34.89	-38.4	-39.4	22.2	0.00e+00	0	28	0	514850816	50	6000
2026-01-15 14:49:57.96	23.70	35.12	-37.8	-38.8	22.7	0.00e+00	0	28	0	516947968	50	5591
2026-01-15 14:49:58.97	23.72	35.35	-37.1	-38.0	23.2	0.00e+00	0	28	0	519045120	48	5723
2026-01-15 14:49:59.98	23.74	35.58	-36.6	-37.4	23.7	0.00e+00	0	28	0	520093696	46	6032
2026-01-15 14:50:00.99	23.77	35.81	-36.4	-37.2	23.9	0.00e+00	4	28	0	522190848	46	5876
2026-01-15 14:50:02.00	23.79	36.04	-36.3	-37.1	24.0	0.00e+00	0	28	0	524288000	46	5827
2026-01-15 14:50:03.01	23.82	36.28	-36.1	-36.9	24.0	0.00e+00	92	28	0	526385152	46	5644
2026-01-15 14:50:04.02	23.84	36.52	-36.4	-37.2	24.0	0.00e+00	0	28	0	528482304	46	5876
2026-01-15 14:50:05.02	23.87	36.75	-36.4	-37.2	23.9	0.00e+00	0	28	0	529530880	46	5879
2026-01-15 14:50:06.03	23.89	36.99	-36.5	-37.4	23.7	0.00e+00	0	28	0	531628032	46	5981
2026-01-15 14:50:07.05	23.92	37.24	-36.4	-37.3	23.8	0.00e+00	0	28	0	533725184	46	5903
2026-01-15 14:50:08.05	23.94	37.48	-36.3	-37.2	23.9	0.00e+00	0	28	0	535822336	46	5829
2026-01-15 14:50:09.06	23.97	37.73	-36.0	-36.9	24.1	0.00e+00	0	28	0	537919488	46	5654
2026-01-15 14:50:10.07	23.99	37.97	-36.0	-36.8	24.2	0.00e+00	92	28	0	540016640	46	5614
2026-01-15 14:50:11.08	24.02	38.22	-36.0	-36.9	24.1	0.00e+00	0	28	0	541065216	46	5654
2026-01-15 14:50:12.09	24.05	38.47	-36.2	-37.1	24.0	0.00e+00	0	28	0	543162368	46	5781
2026-01-15 14:50:13.10	24.08	38.73	-36.2	-37.0	24.1	0.00e+00	0	28	0	545259520	46	5754
2026-01-15 14:50:14.11	24.11	38.98	-36.0	-36.9	24.1	0.00e+00	15	28	0	547356672	46	5642
2026-01-15 14:50:15.12	24.13	39.24	-36.1	-37.0	24.1	0.00e+00	57	28	0	549453824	46	5733
2026-01-15 14:50:16.13	24.16	39.50	-36.4	-37.3	23.8	0.00e+00	0	28	0	550502400	46	5916
2026-01-15 14:50:17.14	24.19	39.76	-36.2	-37.1	24.0	0.00e+00	92	28	0	552599552	46	5784
2026-01-15 14:50:18.14	24.22	40.02	-36.5	-37.4	23.8	0.00e+00	0	28	0	554696704	46	5980
2026-01-15 14:50:19.15	24.25	40.29	-36.7	-37.6	23.7	0.00e+00	0	28	0	556793856	46	6108
2026-01-15 14:50:20.16	24.28	40.55	-36.8	-37.7	23.6	0.00e+00	15	28	0	558891008	46	6175
2026-01-15 14:50:21.17	24.31	40.82	-37.3	-38.2	23.4	0.00e+00	0	28	0	559939584	46	6576
2026-01-15 14:50:22.18	24.34	41.09	-37.5	-38.5	22.9	0.00e+00	19	28	0	562036736	46	6779
2026-01-15 14:50:23.19	24.38	41.37	-37.3	-38.2	23.1	0.00e+00	0	28	0	564133888	46	6608
2026-01-15 14:50:24.20	24.41	41.64	-37.1	-37.9	23.3	0.00e+00	92	28	0	566231040	46	6375
2026-01-15 14:50:25.21	24.44	41.92	-37.3	-38.3	22.6	0.00e+00	0	28	0	568328192	46	6620
2026-01-15 14:50:26.22	24.47	42.20	-37.1	-38.0	23.2	0.00e+00	0	28	0	569376768	46	6442
2026-01-15 14:50:27.23	24.51	42.48	-37.8	-38.8	22.6	0.00e+00	0	28	0	571473920	46	7027
2026-01-15 14:50:28.24	24.54	42.76	-37.5	-38.5	22.7	0.00e+00	0	28	0	573571072	48	6060
2026-01-15 14:50:29.25	24.58	43.05	-37.6	-38.5	22.8	0.00e+00	17	28	0	575668224	48	6102
2026-01-15 14:50:30.26	24.61	43.34	-38.0	-39.1	22.5	0.00e+00	0	28	0	577765376	48	6466
2026-01-15 14:50:31.27	24.65	43.63	-38.1	-39.1	22.5	0.00e+00	72	28	0	578813952	48	6497
2026-01-15 14:50:32.28	24.69	43.92	-37.6	-38.5	23.0	0.00e+00	0	28	0	580911104	48	6064
2026-01-15 14:50:33.29	24.72	44.21	-37.5	-38.5	22.9	0.00e+00	91	28	0	583008256	48	6061
2026-01-15 14:50:34.30	24.76	44.51	-37.2	-38.1	23.3	0.00e+00	0	28	0	585105408	48	5827
2026-01-15 14:50:35.31	24.80	44.81	-37.1	-37.9	23.4	0.00e+00	0	28	0	587202560	48	5691
2026-01-15 14:50:36.32	24.84	45.11	-37.4	-38.3	23.1	0.00e+00	0	28	0	588251136	48	5952
2026-01-15 14:50:37.33	24.88	45.41	-37.8	-38.7	22.7	0.00e+00	0	28	0	590348288	48	6234
2026-01-15 14:50:38.34	24.92	45.72	-38.0	-39.0	22.6	0.00e+00	20	28	0	592445440	48	6392
2026-01-15 14:50:39.35	24.96	46.03	-38.1	-39.1	22.4	0.00e+00	0	28	0	594542592	48	6509
2026-01-15 14:50:40.35	25.00	46.33	-39.0	-40.1	21.7	0.00e+00	90	28	0	596639744	50	6473
2026-01-15 14:50:41.36	25.04	46.65	-39.4	-40.6	21.2	0.00e+00	0	28	0	597688320	50	6851
2026-01-15 14:50:42.37	25.09	46.96	-39.8	-41.0	20.9	0.00e+00	0	28	0	599785472	50	7220
2026-01-15 14:50:43.38	25.13	47.28	-40.0	-41.2	20.8	0.00e+00	0	28	0	601882624	52	6576
2026-01-15 14:50:44.39	25.18	47.60	-40.9	-42.3	19.9	0.00e+00	0	28	0	603979776	54	6637
2026-01-15 14:50:45.40	25.22	47.92	-41.1	-42.7	19.3	0.00e+00	65	28	0	606076928	54	6941
2026-01-15 14:50:46.41	25.27	48.25	-42.1	-44.0	17.7	0.00e+00	0	28	0	607125504	56	7230
2026-01-15 14:50:47.42	25.32	48.57	-43.0	-45.4	17.1	0.00e+00	35	28	0	609222656	58	7523
2026-01-15 14:50:48.43	25.37	48.90	-42.4	-44.5	17.3	0.00e+00	0	28	0	611319808	58	6801
2026-01-15 14:50:49.44	25.42	49.24	-41.9	-43.9	18.4	0.00e+00	0	28	0	613416960	58	6331
2026-01-15 14:50:50.45	25.47	49.57	-40.4	-41.9	20.2	0.00e+00	0	28	0	615514112	54	6359
2026-01-15 14:50:51.46	25.52	49.91	-39.7	-41.0	21.0	0.00e+00	0	28	0	616562688	52	6447
2026-01-15 14:50:52.47	25.57	50.25	-38.7	-39.8	21.9	0.00e+00	18	28	0	618659840	52	5585
2026-01-15 14:50:53.48	25.63	50.59	-38.8	-40.0	21.8	0.00e+00	0	28	0	620756992	50	6405
2026-01-15 14:50:54.49	25.68	50.93	-38.4	-39.5	22.2	0.00e+00	73	28	0	622854144	50	6054
2026-01-15 14:50:55.50	25.74	51.28	-37.0	-37.9	23.3	0.00e+00	0	28	0	624951296	48	5677
2026-01-15 14:50:56.51	25.79	51.63	-36.5	-37.3	23.7	0.00e+00	0	28	0	625999872	46	5960
2026-01-15 14:50:57.51	25.85	51.98	-36.3	-37.2	23.9	0.00e+00	0	28	0	628097024	46	5862
2026-01-15 14:50:58.53	25.91	52.34	-36.0	-36.8	24.3	0.00e+00	0	28	0	630194176	46	5584
2026-01-15 14:50:59.53	25.97	52.69	-36.3	-37.1	24.0	0.00e+00	17	28	0	632291328	46	5825
2026-01-15 14:51:00.54	26.04	53.05	-36.6	-37.5	23.7	0.00e+00	0	28	0	634388480	46	6051
2026-01-15 14:51:01.55	26.10	53.42	-36.5	-37.4	23.8	0.00e+00	23	28	0	636485632	46	5966
2026-01-15 14:51:02.56	26.17	53.78	-36.8	-37.7	23.6	0.00e+00	0	28	0	637534208	46	6231
2026-01-15 14:51:03.57	26.24	54.15	-36.2	-37.0	24.2	0.00e+00	0	28	0	639631360	46	5725
2026-01-15 14:51:04.58	26.30	54.52	-35.4	-36.2	24.5	0.00e+00	0	28	0	641728512	44	5868
2026-01-15 14:51:05.59	26.38	54.89	-35.1	-35.9	24.6	0.00e+00	0	28	0	643825664	44	5678
2026-01-15 14:51:06.60	26.45	55.27	-35.1	-35.9	24.7	0.00e+00	17	28	0	645922816	44	5650
2026-01-15 14:51:07.61	26.52	55.65	-34.8	-35.5	25.2	0.00e+00	0	28	0	646971392	42	6080
2026-01-15 14:51:08.62	26.60	56.03	-34.4	-35.2	25.3	0.00e+00	19	28	0	649068544	42	5830
2026-01-15 14:51:09.63	26.68	56.41	-33.9	-34.6	25.7	0.00e+00	0	28	0	651165696	42	5487
2026-01-15 14:51:10.64	26.76	56.80	-34.6	-35.4	25.1	0.00e+00	82	28	0	653262848	42	5983
2026-01-15 14:51:11.65	26.84	57.19	-35.0	-35.8	24.8	0.00e+00	0	28	0	655360000	42	6310
2026-01-15 14:51:12.66	26.93	57.58	-35.9	-36.8	23.9	0.00e+00	0	28	0	656408576	44	6268
2026-01-15 14:51:13.67	27.01	57.97	-36.5	-37.4	23.7	0.00e+00	17	28	0	658505728	44	6693
2026-01-15 14:51:14.68	27.10	58.37	-36.5	-37.4	23.9	0.00e+00	0	28	0	660602880	46	6016
2026-01-15 14:51:15.69	27.20	58.77	-36.4	-37.3	23.9	0.00e+00	59	28	0	662700032	46	5897
2026-01-15 14:51:16.70	27.29	59.17	-36.0	-36.8	24.0	0.00e+00	0	28	0	664797184	46	5629
2026-01-15 14:51:17.71	27.39	59.57	-36.0	-36.8	24.2	0.00e+00	90	28	0	665845760	46	5626
2026-01-15 14:51:18.72	27.49	59.98	-35.9	-36.7	24.2	0.00e+00	0	28	0	667942912	46	5536
2026-01-15 14:51:19.73	27.59	60.39	-35.6	-36.4	24.2	0.00e+00	0	28	0	670040064	44	6027
2026-01-15 14:51:20.74	27.70	60.80	-35.3	-36.1	24.7	0.00e+00	0	28	0	672137216	44	5791
2026-01-15 14:51:21.75	27.81	61.22	-34.6	-35.4	25.2	0.00e+00	0	28	0	674234368	42	5990
2026-01-15 14:51:22.76	27.93	61.64	-34.2	-34.9	25.5	0.00e+00	16	28	0	675282944	42	5695
2026-01-15 14:51:23.77	28.05	62.06	-34.0	-34.7	25.6	0.00e+00	0	28	0	677380096	42	5539
2026-01-15 14:51:24.78	28.17	62.48	-34.1	-34.8	25.5	0.00e+00	93	28	0	679477248	42	5613
2026-01-15 14:51:25.79	28.29	62.90	-34.4	-35.2	25.3	0.00e+00	0	28	0	681574400	42	5849
2026-01-15 14:51:26.79	28.42	63.33	-34.1	-34.8	25.5	0.00e+00	0	28	0	683671552	42	5628
2026-01-15 14:51:27.80	28.56	63.76	-33.9	-34.7	25.6	0.00e+00	0	28	0	684720128	40	6200
2026-01-15 14:51:28.81	28.70	64.19	-34.3	-35.1	25.3	0.00e+00	0	28	0	686817280	40	6476
2026-01-15 14:51:29.83	28.85	64.63	-35.3	-36.1	24.7	0.00e+00	21	28	0	688914432	42	6513
2026-01-15 14:51:30.83	29.00	65.06	-36.0	-36.9	24.1	0.00e+00	0	28	0	691011584	44	6331
2026-01-15 14:51:31.84	29.16	65.50	-36.8	-37.7	23.4	0.00e+00	73	28	0	693108736	46	6240
2026-01-15 14:51:32.85	29.32	65.94	-37.6	-38.5	22.6	0.00e+00	0	28	0	694157312	46	6846
2026-01-15 14:51:33.86	29.49	66.39	-38.1	-39.2	22.2	0.00e+00	15	28	0	696254464	48	6585
2026-01-15 14:51:34.87	29.67	66.84	-38.0	-39.0	22.4	0.00e+00	0	28	0	698351616	48	6439
2026-01-15 14:51:35.88	29.85	67.28	-37.5	-38.5	23.0	0.00e+00	0	28	0	700448768	48	6065
2026-01-15 14:51:36.89	30.04	67.74	-37.4	-38.4	23.1	0.00e+00	21	28	0	702545920	48	5986
2026-01-15 14:51:37.90	30.25	68.19	-38.2	-39.2	22.1	0.00e+00	0	28	0	704643072	48	6565
2026-01-15 14:51:38.91	30.46	68.64	-38.9	-40.0	21.6	0.00e+00	92	28	0	705691648	50	6411
2026-01-15 14:51:39.92	30.68	69.10	-38.9	-40.0	21.7	0.00e+00	0	28	0	707788800	50	6429
2026-01-15 14:51:40.93	30.91	69.56	-38.3	-39.3	22.3	0.00e+00	27	28	0	709885952	50	5920
2026-01-15 14:51:41.94	31.15	70.02	-38.9	-40.0	21.6	0.00e+00	0	28	0	711983104	50	6435
2026-01-15 14:51:42.95	31.40	70.49	-39.8	-41.0	20.7	0.00e+00	0	28	0	714080256	50	7226
2026-01-15 14:51:43.96	31.67	70.95	-39.8	-41.0	20.8	0.00e+00	0	28	0	715128832	52	6452
2026-01-15 14:51:44.97	31.95	71.42	-39.0	-40.2	21.4	0.00e+00	11	28	0	717225984	52	5834
2026-01-15 14:51:45.98	32.25	71.89	-37.3	-38.2	23.3	0.00e+00	91	28	0	719323136	48	5872
2026-01-15 14:51:46.99	32.56	72.36	-36.1	-36.9	24.1	0.00e+00	0	28	0	721420288	46	5654
2026-01-15 14:51:47.99	32.89	72.82	-35.6	-36.5	24.3	0.00e+00	90	28	0	723517440	44	6043
2026-01-15 14:51:49.01	33.24	73.30	-36.0	-36.9	23.9	0.00e+00	0	28	0	724566016	44	6365
2026-01-15 14:51:50.01	33.61	73.77	-35.5	-36.3	24.3	0.00e+00	0	28	0	726663168	44	5937
2026-01-15 14:51:51.02	34.00	74.24	-34.7	-35.4	25.2	0.00e+00	0	28	0	728760320	42	5991
2026-01-15 14:51:52.03	34.42	74.72	-35.6	-36.5	24.2	0.00e+00	0	28	0	730857472	42	6790
2026-01-15 14:51:53.04	34.87	75.20	-37.6	-38.6	22.7	0.00e+00	90	28	0	732954624	46	6914
2026-01-15 14:51:54.05	35.35	75.68	-37.4	-38.4	23.1	0.00e+00	0	28	0	734003200	48	6003
2026-01-15 14:51:55.06	35.86	76.16	-36.5	-37.3	23.8	0.00e+00	89	28	0	736100352	46	5924
2026-01-15 14:51:56.07	36.41	76.64	-36.5	-37.3	23.8	0.00e+00	21	28	0	738197504	46	5955
2026-01-15 14:51:57.08	37.00	77.12	-37.5	-38.5	21.5	0.00e+00	23	28	0	740294656	46	6819
2026-01-15 14:51:58.09	37.64	77.60	-38.4	-39.4	22.4	0.00e+00	0	28	0	742391808	48	6727
2026-01-15 14:51:59.10	38.34	78.08	-38.6	-39.7	21.7	0.00e+00	0	28	0	743440384	50	6193
2026-01-15 14:52:00.11	39.09	78.55	-39.2	-40.3	21.3	0.00e+00	21	28	0	745537536	50	6650
2026-01-15 14:52:01.12	39.90	79.03	-38.3	-39.3	22.2	0.00e+00	22	28	0	747634688	50	5928
2026-01-15 14:52:02.13	40.80	79.51	-38.3	-39.3	22.4	0.00e+00	92	28	0	749731840	50	5935
2026-01-15 14:52:03.14	41.78	79.99	-38.3	-39.3	22.2	0.00e+00	0	28	0	751828992	50	5911
2026-01-15 14:52:04.15	42.86	80.46	-38.7	-39.7	22.1	0.00e+00	14	28	0	752877568	50	6236
2026-01-15 14:52:05.16	44.05	80.93	-39.6	-40.8	20.9	0.00e+00	0	28	0	754974720	50	7028
2026-01-15 14:52:06.17	45.37	81.40	-41.5	-43.2	19.1	0.00e+00	0	28	0	757071872	54	7375
2026-01-15 14:52:07.18	46.85	81.87	-41.7	-43.4	18.9	0.00e+00	35	28	0	759169024	56	6714
2026-01-15 14:52:08.19	48.51	82.32	-39.8	-41.1	21.0	0.00e+00	0	28	0	761266176	54	5765
2026-01-15 14:52:09.20	50.38	82.78	-38.0	-39.0	22.5	0.00e+00	72	28	0	762314752	50	5717
2026-01-15 14:52:10.20	52.47	83.22	-36.8	-37.7	23.4	0.00e+00	0	28	0	764411904	48	5546
2026-01-15 14:52:11.21	54.88	83.65	-36.6	-37.4	23.7	0.00e+00	0	28	0	766509056	46	6003
2026-01-15 14:52:12.22	57.65	84.08	-36.9	-37.8	23.8	0.00e+00	0	28	0	768606208	46	6254
2026-01-15 14:52:13.23	60.83	84.48	-36.9	-37.7	23.5	0.00e+00	0	28	0	770703360	46	6228
2026-01-15 14:52:14.24	64.51	84.87	-37.7	-38.7	22.9	0.00e+00	21	28	0	772800512	46	6949
2026-01-15 14:52:15.25	68.77	85.24	-36.9	-37.8	23.5	0.00e+00	0	28	0	773849088	46	6288
2026-01-15 14:52:16.26	73.72	85.57	-36.9	-37.7	23.7	0.00e+00	92	28	0	775946240	46	6220
2026-01-15 14:52:17.26	79.36	85.87	-37.8	-38.8	22.7	0.00e+00	0	28	0	778043392	48	6258
2026-01-15 14:52:18.27	85.86	86.12	-38.1	-39.1	22.4	0.00e+00	89	28	0	780140544	48	6528
2026-01-15 14:52:19.28	93.16	86.31	-37.8	-38.8	22.6	0.00e+00	0	28	0	782237696	48	6262
2026-01-15 14:52:20.29	101.13	86.44	-38.9	-40.1	21.8	0.00e+00	0	28	0	783286272	50	6480
2026-01-15 14:52:21.30	109.52	86.50	-37.8	-38.8	22.7	0.00e+00	0	28	0	785383424	50	5583
2026-01-15 14:52:22.31	118.00	86.48	-36.1	-36.9	24.1	0.00e+00	0	28	0	787480576	46	5648
2026-01-15 14:52:23.32	126.21	86.38	-35.9	-36.6	24.2	0.00e+00	92	28	0	789577728	46	5501
2026-01-15 14:52:24.33	133.85	86.22	-36.7	-37.5	23.6	0.00e+00	0	28	0	791674880	46	6102
2026-01-15 14:52:25.34	140.74	85.99	-39.1	-40.3	21.3	0.00e+00	75	28	0	792723456	50	6641
2026-01-15 14:52:26.35	146.82	85.72	-39.1	-40.2	21.7	0.00e+00	0	28	0	794820608	50	6608
2026-01-15 14:52:27.36	152.11	85.40	-37.8	-38.8	22.4	0.00e+00	0	28	0	796917760	50	5598
2026-01-15 14:52:28.37	156.68	85.05	-37.4	-38.3	22.6	0.00e+00	0	28	0	799014912	48	5957
2026-01-15 14:52:29.38	160.62	84.67	-37.0	-37.9	23.0	0.00e+00	0	29	0	801112064	48	5685
2026-01-15 14:52:30.39	164.03	84.27	-36.6	-37.5	23.7	0.00e+00	14	28	0	802160640	46	6102
2026-01-15 14:52:31.40	166.98	83.85	-36.6	-37.5	23.7	0.00e+00	0	28	0	804257792	46	6057
2026-01-15 14:52:32.41	169.55	83.42	-36.5	-37.4	23.6	0.00e+00	90	28	0	806354944	46	6019
2026-01-15 14:52:33.42	171.80	82.98	-36.7	-37.6	23.7	0.00e+00	0	28	0	808452096	46	6107
2026-01-15 14:52:34.43	173.77	82.53	-37.5	-38.4	23.0	0.00e+00	0	28	0	810549248	46	6718
2026-01-15 14:52:35.44	175.52	82.07	-38.7	-39.8	21.9	0.00e+00	0	28	0	811597824	48	7014
2026-01-15 14:52:36.45	177.08	81.61	-39.9	-41.2	20.4	0.00e+00	0	28	0	813694976	52	6613
2026-01-15 14:52:37.46	178.47	81.14	-38.5	-39.6	22.5	0.00e+00	69	28	0	815792128	50	6139
2026-01-15 14:52:38.47	179.72	80.67	-37.3	-38.2	23.1	0.00e+00	0	28	0	817889280	48	5850
2026-01-15 14:52:39.48	180.85	80.20	-37.0	-37.8	23.5	0.00e+00	49	28	0	819986432	48	5597
2026-01-15 14:52:40.49	181.88	79.73	-36.4	-37.2	23.9	0.00e+00	0	28	0	821035008	46	5859
2026-01-15 14:52:41.50	182.81	79.25	-37.5	-38.4	22.9	0.00e+00	56	28	0	823132160	46	6727
2026-01-15 14:52:42.51	183.66	78.77	-40.8	-42.2	19.8	0.00e+00	0	28	0	825229312	52	7411
2026-01-15 14:52:43.52	184.44	78.29	-39.8	-41.1	21.0	0.00e+00	0	28	0	827326464	52	6481
2026-01-15 14:52:44.52	185.15	77.81	-38.3	-39.3	22.1	0.00e+00	58	28	0	829423616	50	5963
2026-01-15 14:52:45.53	185.81	77.33	-39.6	-40.9	20.8	0.00e+00	0	28	0	830472192	50	7094
2026-01-15 14:52:46.54	186.43	76.85	-38.8	-39.9	21.7	0.00e+00	52	28	0	832569344	50	6358
2026-01-15 14:52:47.55	187.00	76.37	-37.0	-37.9	23.1	0.00e+00	0	28	0	834666496	48	5650
2026-01-15 14:52:48.56	187.53	75.89	-37.4	-38.4	23.0	0.00e+00	0	28	0	836763648	48	5973
2026-01-15 14:52:49.57	188.02	75.41	-37.4	-38.3	23.1	0.00e+00	0	28	0	838860800	48	5950
2026-01-15 14:52:50.58	188.48	74.94	-38.1	-39.1	22.5	0.00e+00	0	28	0	840957952	48	6485
2026-01-15 14:52:51.59	188.91	74.46	-39.7	-40.9	20.2	0.00e+00	0	28	0	842006528	50	7108
2026-01-15 14:52:52.60	189.32	73.98	-38.9	-39.9	21.5	0.00e+00	0	28	0	844103680	52	5694
2026-01-15 14:52:53.61	189.70	73.51	-38.3	-39.3	22.0	0.00e+00	92	28	0	846200832	50	5931
2026-01-15 14:52:54.62	190.06	73.03	-38.9	-40.0	21.7	0.00e+00	0	28	0	848297984	50	6446
2026-01-15 14:52:55.63	190.40	72.56	-40.7	-42.2	19.4	0.00e+00	79	28	0	850395136	54	6543
2026-01-15 14:52:56.64	190.72	72.09	-40.5	-41.9	20.2	0.00e+00	0	28	0	851443712	54	6328
2026-01-15 14:52:57.65	191.02	71.62	-39.6	-40.8	21.0	0.00e+00	0	28	0	853540864	52	6283
2026-01-15 14:52:58.66	191.31	71.15	-40.9	-42.4	19.5	0.00e+00	17	28	0	855638016	52	7513
2026-01-15 14:52:59.67	191.59	70.68	-42.0	-43.7	19.2	0.00e+00	0	28	0	857735168	56	6961
2026-01-15 14:53:00.68	191.85	70.22	-40.4	-41.7	20.0	0.00e+00	92	28	0	859832320	56	5528
2026-01-15 14:53:01.69	192.09	69.76	-40.0	-41.3	20.3	0.00e+00	0	28	0	860880896	54	5934
2026-01-15 14:53:02.70	192.33	69.29	-38.3	-39.3	22.5	0.00e+00	92	28	0	862978048	52	5267
2026-01-15 14:53:03.71	192.55	68.83	-38.2	-39.2	22.1	0.00e+00	0	28	0	865075200	48	6568
2026-01-15 14:53:04.72	192.77	68.38	-40.4	-41.8	20.2	0.00e+00	0	28	0	867172352	52	7030
2026-01-15 14:53:05.73	192.97	67.92	-39.7	-40.9	21.0	0.00e+00	0	28	0	869269504	52	6335
2026-01-15 14:53:06.74	193.17	67.47	-39.0	-40.1	21.5	0.00e+00	0	28	0	870318080	52	5800
2026-01-15 14:53:07.75	193.36	67.02	-39.5	-40.8	21.0	0.00e+00	16	28	0	872415232	50	7023
2026-01-15 14:53:08.76	193.54	66.57	-40.0	-41.4	20.8	0.00e+00	0	28	0	874512384	52	6694
2026-01-15 14:53:09.77	193.71	66.12	-39.1	-40.3	21.6	0.00e+00	61	28	0	876609536	52	5935
2026-01-15 14:53:10.78	193.88	65.68	-38.7	-39.8	21.6	0.00e+00	0	28	0	878706688	50	6288
2026-01-15 14:53:11.78	194.04	65.24	-38.4	-39.5	22.1	0.00e+00	0	28	0	879755264	50	6054
2026-01-15 14:53:12.79	194.19	64.80	-36.8	-37.7	23.7	0.00e+00	0	28	0	881852416	48	5511
2026-01-15 14:53:13.81	194.34	64.36	-35.8	-36.7	24.3	0.00e+00	0	28	0	883949568	46	5510
2026-01-15 14:53:14.81	194.48	63.93	-36.4	-37.3	23.7	0.00e+00	36	28	0	886046720	46	5909
2026-01-15 14:53:15.82	194.62	63.50	-37.7	-38.7	22.6	0.00e+00	0	28	0	888143872	46	6928
2026-01-15 14:53:16.83	194.75	63.07	-36.5	-37.3	23.5	0.00e+00	92	28	0	889192448	46	5945
2026-01-15 14:53:17.84	194.88	62.64	-35.6	-36.5	24.5	0.00e+00	0	28	0	891289600	44	6036
2026-01-15 14:53:18.85	195.01	62.22	-34.8	-35.6	25.0	0.00e+00	78	28	0	893386752	44	5485
2026-01-15 14:53:19.86	195.13	61.80	-35.1	-35.8	25.0	0.00e+00	0	28	0	895483904	42	6315
2026-01-15 14:53:20.87	195.24	61.38	-35.7	-36.5	24.5	0.00e+00	0	28	0	897581056	42	6830
2026-01-15 14:53:21.88	195.36	60.96	-37.0	-37.9	23.3	0.00e+00	18	28	0	898629632	46	6387
2026-01-15 14:53:22.89	195.46	60.55	-38.0	-39.1	22.4	0.00e+00	0	28	0	900726784	48	6511
2026-01-15 14:53:23.90	195.57	60.13	-38.1	-39.2	22.5	0.00e+00	90	28	0	902823936	48	6540
2026-01-15 14:53:24.90	195.67	59.73	-36.6	-37.5	23.5	0.00e+00	0	28	0	904921088	48	5403
2026-01-15 14:53:25.91	195.77	59.32	-37.2	-38.2	23.3	0.00e+00	90	28	0	907018240	46	6552
2026-01-15 14:53:26.92	195.87	58.92	-36.9	-37.8	23.4	0.00e+00	0	28	0	909115392	46	6298
2026-01-15 14:53:27.93	195.96	58.52	-36.0	-36.8	24.3	0.00e+00	0	28	0	910163968	46	5626
2026-01-15 14:53:28.94	196.05	58.12	-35.5	-36.3	24.4	0.00e+00	17	28	0	912261120	44	5908
2026-01-15 14:53:29.95	196.14	57.72	-37.5	-38.5	22.9	0.00e+00	0	28	0	914358272	46	6772
2026-01-15 14:53:30.96	196.23	57.33	-38.4	-39.5	22.1	0.00e+00	52	28	0	916455424	50	6084
2026-01-15 14:53:31.97	196.31	56.94	-36.8	-37.7	23.6	0.00e+00	0	28	0	918552576	48	5562
2026-01-15 14:53:32.98	196.39	56.55	-35.5	-36.3	24.6	0.00e+00	92	28	0	919601152	44	5947
2026-01-15 14:53:33.99	196.47	56.16	-35.9	-36.8	24.2	0.00e+00	0	28	0	921698304	44	6253
2026-01-15 14:53:35.00	196.55	55.78	-37.3	-38.2	23.2	0.00e+00	0	28	0	923795456	46	6579
2026-01-15 14:53:36.01	196.62	55.40	-36.8	-37.7	23.6	0.00e+00	0	28	0	925892608	46	6194
2026-01-15 14:53:37.03	196.70	55.02	-36.4	-37.2	23.9	0.00e+00	0	28	0	927989760	46	5856
2026-01-15 14:53:38.04	196.77	54.64	-37.5	-38.5	22.8	0.00e+00	86	28	0	929038336	46	6778
2026-01-15 14:53:39.04	196.84	54.27	-39.6	-40.9	21.0	0.00e+00	0	28	0	931135488	50	7099
2026-01-15 14:53:40.05	196.91	53.90	-39.8	-41.2	20.9	0.00e+00	48	28	0	933232640	52	6542
2026-01-15 14:53:41.06	196.97	53.54	-37.7	-38.8	22.9	0.00e+00	0	28	0	935329792	50	5573
2026-01-15 14:53:42.07	197.04	53.17	-35.8	-36.7	24.3	0.00e+00	0	28	0	937426944	46	5507
2026-01-15 14:53:43.08	197.10	52.81	-36.2	-37.1	24.0	0.00e+00	0	28	0	938475520	44	6474
2026-01-15 14:53:44.09	197.16	52.45	-37.7	-38.7	22.6	0.00e+00	0	28	0	940572672	46	6964
2026-01-15 14:53:45.10	197.22	52.09	-39.5	-40.8	20.7	0.00e+00	14	28	0	942669824	50	7054
2026-01-15 14:53:46.11	197.28	51.74	-39.7	-41.0	20.5	0.00e+00	0	28	0	944766976	52	6446
2026-01-15 14:53:47.12	197.34	51.39	-38.7	-39.9	21.9	0.00e+00	95	28	0	946864128	50	6384
2026-01-15 14:53:48.13	197.40	51.04	-38.0	-39.1	22.5	0.00e+00	17	28	0	947912704	50	5793
2026-01-15 14:53:49.14	197.45	50.69	-37.9	-38.9	22.7	0.00e+00	0	28	0	950009856	50	5644
2026-01-15 14:53:50.14	197.51	50.35	-36.8	-37.7	23.6	0.00e+00	0	28	0	952107008	48	5529
2026-01-15 14:53:51.15	197.56	50.01	-36.7	-37.5	23.8	0.00e+00	17	28	0	954204160	46	6072
2026-01-15 14:53:52.16	197.61	49.67	-37.2	-38.2	23.1	0.00e+00	17	28	0	956301312	46	6571
2026-01-15 14:53:53.17	197.66	49.33	-38.5	-39.6	21.7	0.00e+00	0	28	0	957349888	48	6921
2026-01-15 14:53:54.19	197.71	48.99	-41.1	-42.8	19.1	0.00e+00	92	28	0	959447040	54	7055
2026-01-15 14:53:55.19	197.76	48.67	-43.3	-46.0	16.3	0.00e+00	0	28	0	961544192	58	8051
2026-01-15 14:53:56.20	197.81	48.34	-42.3	-44.5	18.2	0.00e+00	92	28	0	963641344	58	6784
2026-01-15 14:53:57.21	197.86	48.01	-38.6	-39.8	22.0	0.00e+00	0	28	0	965738496	52	5603
2026-01-15 14:53:58.22	197.90	47.68	-36.7	-37.6	23.7	0.00e+00	0	28	0	966787072	48	5461
2026-01-15 14:53:59.23	197.95	47.36	-35.3	-36.0	24.9	0.00e+00	41	28	0	968884224	44	5754
2026-01-15 14:54:00.24	197.99	47.04	-35.7	-36.4	24.5	0.00e+00	17	28	0	970981376	44	6012
2026-01-15 14:54:01.25	198.04	46.73	-36.7	-37.5	22.6	0.00e+00	69	28	0	973078528	44	6830
2026-01-15 14:54:02.26	198.08	46.41	-37.3	-38.2	23.3	0.00e+00	0	28	0	975175680	48	5879
2026-01-15 14:54:03.27	198.12	46.10	-37.8	-38.8	22.5	0.00e+00	61	28	0	977272832	48	6278
2026-01-15 14:54:04.28	198.16	45.79	-38.7	-39.8	21.5	0.00e+00	0	28	0	978321408	50	6259
2026-01-15 14:54:05.29	198.20	45.48	-38.4	-39.4	22.1	0.00e+00	0	28	0	980418560	50	6031
2026-01-15 14:54:06.30	198.24	45.18	-38.7	-39.9	21.8	0.00e+00	0	28	0	982515712	50	6320
2026-01-15 14:54:07.31	198.28	44.87	-38.7	-39.9	21.7	0.00e+00	0	28	0	984612864	50	6333
2026-01-15 14:54:08.32	198.32	44.57	-37.7	-38.8	22.6	0.00e+00	14	28	0	986710016	50	5568
2026-01-15 14:54:09.33	198.36	44.27	-36.8	-37.7	23.6	0.00e+00	0	28	0	987758592	48	5522
2026-01-15 14:54:10.34	198.40	43.98	-36.7	-37.6	23.7	0.00e+00	91	28	0	989855744	46	6111
2026-01-15 14:54:11.35	198.43	43.68	-35.2	-35.9	24.8	0.00e+00	0	28	0	991952896	44	5692
2026-01-15 14:54:12.36	198.47	43.39	-35.0	-35.8	24.9	0.00e+00	0	28	0	994050048	42	6263
2026-01-15 14:54:13.37	198.50	43.10	-35.6	-36.4	24.5	0.00e+00	0	28	0	996147200	42	6751
2026-01-15 14:54:14.38	198.54	42.81	-36.2	-37.0	23.9	0.00e+00	0	28	0	997195776	44	6464
2026-01-15 14:54:15.39	198.57	42.53	-37.5	-38.4	22.9	0.00e+00	7	28	0	999292928	46	6757
2026-01-15 14:54:16.40	198.61	42.25	-38.2	-39.2	22.2	0.00e+00	0	28	0	1001390080	48	6582
2026-01-15 14:54:17.41	198.64	41.97	-39.6	-40.9	21.0	0.00e+00	92	28	0	1003487232	50	7112
2026-01-15 14:54:18.42	198.67	41.69	-39.8	-41.1	20.7	0.00e+00	0	28	0	1005584384	52	6533
2026-01-15 14:54:19.43	198.70	41.41	-40.0	-41.3	20.6	0.00e+00	0	28	0	1006632960	52	6673
2026-01-15 14:54:20.44	198.74	41.13	-38.6	-39.7	22.0	0.00e+00	0	28	0	1008730112	52	5516
2026-01-15 14:54:21.44	198.77	40.86	-37.3	-38.2	23.2	0.00e+00	0	28	0	1010827264	48	5873
2026-01-15 14:54:22.45	198.80	40.59	-36.4	-37.2	24.0	0.00e+00	9	28	0	1012924416	46	5851
2026-01-15 14:54:23.46	198.83	40.33	-35.5	-36.3	24.4	0.00e+00	0	28	0	1015021568	44	5935
2026-01-15 14:54:24.47	198.86	40.06	-36.8	-37.6	23.5	0.00e+00	44	28	0	1016070144	44	6887
2026-01-15 14:54:25.48	198.89	39.79	-37.9	-38.8	22.8	0.00e+00	0	28	0	1018167296	46	7064
2026-01-15 14:54:26.49	198.92	39.53	-39.1	-40.2	21.6	0.00e+00	25	28	0	1020264448	50	6571
2026-01-15 14:54:27.50	198.95	39.27	-40.2	-41.5	20.4	0.00e+00	0	28	0	1022361600	52	6784
2026-01-15 14:54:28.51	198.97	39.01	-41.6	-43.2	18.6	0.00e+00	0	28	0	1024458752	54	7382
2026-01-15 14:54:29.52	199.00	38.76	-43.0	-45.2	16.7	0.00e+00	81	28	0	1025507328	58	7385
2026-01-15 14:54:30.53	199.03	38.50	-44.3	-47.6	14.5	0.00e+00	0	28	0	1027604480	60	8636
2026-01-15 14:54:31.54	199.06	38.25	-44.3	-47.7	14.6	4.50e-06	75	28	0	1029701632	60	8815
2026-01-15 14:54:32.55	199.08	38.00	-44.1	-47.3	15.0	7.00e-07	0	28	0	1031798784	60	8360
2026-01-15 14:54:33.56	199.11	37.75	-44.1	-47.1	15.2	7.00e-07	92	28	0	1033895936	60	8146
2026-01-15 14:54:34.57	199.14	37.50	-42.8	-44.9	17.4	0.00e+00	0	28	0	1034944512	58	7103
2026-01-15 14:54:35.58	199.16	37.25	-40.8	-42.2	20.0	0.00e+00	0	28	0	1037041664	56	5845
2026-01-15 14:54:36.59	199.19	37.01	-39.3	-40.4	21.3	0.00e+00	0	28	0	1039138816	52	6005
2026-01-15 14:54:37.60	199.21	36.77	-37.7	-38.6	22.9	0.00e+00	0	28	0	1041235968	50	5476
2026-01-15 14:54:38.61	199.24	36.53	-37.0	-37.8	23.5	0.00e+00	92	28	0	1043333120	48	5596
2026-01-15 14:54:39.62	199.26	36.29	-37.3	-38.2	23.1	0.00e+00	0	28	0	1045430272	48	5871
2026-01-15 14:54:40.63	199.29	36.05	-37.8	-38.7	22.7	0.00e+00	92	28	0	1046478848	48	6214
2026-01-15 14:54:41.64	199.31	35.82	-38.8	-39.9	21.7	0.00e+00	0	28	0	1048576000	48	7092
2026-01-15 14:54:42.65	199.33	35.59	-40.7	-42.1	19.8	0.00e+00	0	28	0	1050673152	52	7284
2026-01-15 14:54:43.66	199.36	35.35	-42.0	-43.7	18.3	0.00e+00	0	28	0	1052770304	54	7809
2026-01-15 14:54:44.67	199.38	35.12	-43.4	-45.7	16.6	0.00e+00	0	28	0	1054867456	58	7857
2026-01-15 14:54:45.68	199.40	34.90	-44.8	-48.2	14.1	0.00e+00	41	28	0	1055916032	60	9336
2026-01-15 14:54:46.69	199.43	34.67	-44.9	-48.6	13.4	5.30e-06	0	28	0	1058013184	60	9696
2026-01-15 14:54:47.70	199.45	34.44	-44.3	-47.4	15.0	1.22e-05	92	28	0	1060110336	60	8468
2026-01-15 14:54:48.71	199.47	34.22	-44.7	-48.2	13.7	7.00e-07	0	28	0	1062207488	60	9291
2026-01-15 14:54:49.72	199.49	34.00	-44.4	-47.7	14.7	0.00e+00	0	28	0	1064304640	60	8773
2026-01-15 14:54:50.73	199.51	33.78	-42.8	-45.1	17.0	0.00e+00	0	28	0	1065353216	58	7296
2026-01-15 14:54:51.74	199.54	33.56	-41.7	-43.6	18.5	0.00e+00	0	28	0	1067450368	58	6122
2026-01-15 14:54:52.75	199.56	33.34	-41.4	-43.0	19.0	0.00e+00	92	28	0	1069547520	56	6456
2026-01-15 14:54:53.75	199.58	33.13	-40.6	-42.0	19.6	0.00e+00	0	28	0	1071644672	54	6451
2026-01-15 14:54:54.76	199.60	32.92	-40.5	-41.9	19.9	0.00e+00	90	28	0	1073741824	54	6332
2026-01-15 14:54:55.77	199.62	32.70	-40.0	-41.3	20.6	0.00e+00	0	28	0	1074790400	54	5898
2026-01-15 14:54:56.78	199.64	32.49	-39.8	-41.0	21.0	0.00e+00	0	28	0	1076887552	54	5699
2026-01-15 14:54:57.79	199.66	32.28	-39.3	-40.5	21.2	0.00e+00	0	28	0	1078984704	52	6044
2026-01-15 14:54:58.80	199.68	32.07	-39.2	-40.3	21.5	0.00e+00	0	28	0	1081081856	52	5914
2026-01-15 14:54:59.81	199.70	31.87	-39.1	-40.2	21.5	0.00e+00	92	28	0	1083179008	52	5833
2026-01-15 14:55:00.82	199.72	31.66	-38.9	-40.0	21.7	0.00e+00	0	28	0	1084227584	52	5724
2026-01-15 14:55:01.83	199.74	31.46	-38.7	-39.7	22.1	0.00e+00	92	28	0	1086324736	52	5541
2026-01-15 14:55:02.84	199.76	31.26	-38.5	-39.5	22.2	0.00e+00	0	28	0	1088421888	50	6038
2026-01-15 14:55:03.85	199.77	31.05	-38.4	-39.4	22.3	0.00e+00	0	28	0	1090519040	50	6013
2026-01-15 14:55:04.86	199.79	30.85	-38.6	-39.6	22.0	0.00e+00	0	28	0	1092616192	50	6130
2026-01-15 14:55:05.87	199.81	30.66	-38.7	-39.7	21.9	0.00e+00	0	28	0	1093664768	50	6206
2026-01-15 14:55:06.88	199.83	30.46	-38.8	-39.8	21.8	0.00e+00	13	28	0	1095761920	50	6305
2026-01-15 14:55:07.89	199.85	30.26	-39.0	-40.2	21.6	0.00e+00	0	28	0	1097859072	50	6549
2026-01-15 14:55:08.90	199.87	30.07	-38.7	-39.8	21.4	0.00e+00	90	28	0	1099956224	50	6253
2026-01-15 14:55:09.91	199.88	29.88	-39.3	-40.5	21.1	0.00e+00	0	28	0	1102053376	50	6787
2026-01-15 14:55:10.92	199.90	29.68	-40.0	-41.3	20.6	0.00e+00	28	28	0	1103101952	52	6629
2026-01-15 14:55:11.93	199.92	29.49	-40.5	-41.9	20.1	0.00e+00	0	28	0	1105199104	52	7093
2026-01-15 14:55:12.94	199.94	29.30	-40.8	-42.2	19.7	0.00e+00	0	28	0	1107296256	54	6615
2026-01-15 14:55:13.95	199.95	29.12	-41.0	-42.6	19.3	0.00e+00	14	28	0	1109393408	54	6879
2026-01-15 14:55:14.97	199.97	28.93	-41.1	-42.7	19.2	0.00e+00	0	28	0	1111490560	54	6957
2026-01-15 14:55:15.97	199.99	28.74	-41.2	-42.7	19.2	0.00e+00	92	28	0	1113587712	54	7006
2026-01-15 14:55:16.98	200.00	28.56	-40.3	-41.6	19.7	0.00e+00	0	28	0	1114636288	54	6163
2026-01-15 14:55:17.99	200.02	28.38	-39.6	-40.8	21.0	0.00e+00	80	28	0	1116733440	52	6300
2026-01-15 14:55:19.00	200.04	28.20	-38.7	-39.7	22.0	0.00e+00	0	28	0	1118830592	52	5553
2026-01-15 14:55:20.01	200.05	28.02	-37.7	-38.6	22.8	0.00e+00	0	28	0	1120927744	50	5472
2026-01-15 14:55:21.02	200.07	27.84	-37.0	-37.9	23.4	0.00e+00	0	28	0	1123024896	48	5651
2026-01-15 14:55:22.03	200.08	27.66	-36.9	-37.7	23.6	0.00e+00	0	28	0	1124073472	48	5548
2026-01-15 14:55:23.04	200.10	27.48	-36.8	-37.7	23.5	0.00e+00	76	28	0	1126170624	46	6196
2026-01-15 14:55:24.05	200.11	27.30	-36.8	-37.6	23.7	0.00e+00	0	28	0	1128267776	46	6159
2026-01-15 14:55:25.06	200.13	27.13	-36.8	-37.6	23.5	0.00e+00	79	28	0	1130364928	46	6168
2026-01-15 14:55:26.07	200.15	26.96	-37.1	-38.0	23.3	0.00e+00	0	28	0	1132462080	46	6451
2026-01-15 14:55:27.08	200.16	26.78	-37.5	-38.4	23.0	0.00e+00	0	28	0	1133510656	46	6724
2026-01-15 14:55:28.09	200.18	26.61	-37.5	-38.4	22.8	0.00e+00	11	28	0	1135607808	46	6751
2026-01-15 14:55:29.10	200.19	26.44	-37.6	-38.5	22.9	0.00e+00	0	28	0	1137704960	46	6822
2026-01-15 14:55:30.11	200.21	26.27	-37.5	-38.4	22.8	0.00e+00	75	28	0	1139802112	48	6029
2026-01-15 14:55:31.11	200.22	26.10	-37.5	-38.5	22.9	0.00e+00	0	28	0	1141899264	48	6060
2026-01-15 14:55:32.12	200.23	25.94	-37.7	-38.7	22.7	0.00e+00	90	28	0	1142947840	48	6188
2026-01-15 14:55:33.13	200.25	25.77	-37.5	-38.5	22.9	0.00e+00	0	28	0	1145044992	48	6059
2026-01-15 14:55:34.14	200.26	25.61	-37.5	-38.5	22.8	0.00e+00	0	28	0	1147142144	48	6053
2026-01-15 14:55:35.15	200.28	25.44	-37.5	-38.5	22.9	0.00e+00	12	28	0	1149239296	48	6092
2026-01-15 14:55:36.16	200.29	25.28	-37.3	-38.3	23.0	0.00e+00	0	28	0	1151336448	48	5931
2026-01-15 14:55:37.17	200.31	25.12	-37.2	-38.2	23.0	0.00e+00	11	28	0	1152385024	48	5866
2026-01-15 14:55:38.18	200.32	24.95	-37.4	-38.4	22.6	0.00e+00	0	28	0	1154482176	48	5999
2026-01-15 14:55:39.19	200.33	24.79	-37.4	-38.4	23.0	0.00e+00	92	28	0	1156579328	48	5974
2026-01-15 14:55:40.20	200.35	24.64	-37.3	-38.3	23.2	0.00e+00	0	28	0	1158676480	48	5939
2026-01-15 14:55:41.21	200.36	24.48	-37.2	-38.2	23.0	0.00e+00	77	28	0	1160773632	48	5859
2026-01-15 14:55:42.22	200.37	24.32	-36.7	-37.6	23.5	0.00e+00	0	28	0	1161822208	48	5475
2026-01-15 14:55:43.22	200.39	24.16	-36.7	-37.6	23.6	0.00e+00	0	28	0	1163919360	46	6152
2026-01-15 14:55:44.23	200.40	24.01	-36.8	-37.7	23.4	0.00e+00	11	28	0	1166016512	46	6204
2026-01-15 14:55:45.24	200.41	23.85	-36.6	-37.5	23.6	0.00e+00	0	28	0	1168113664	46	6064
2026-01-15 14:55:46.26	200.43	23.70	-36.6	-37.4	23.6	0.00e+00	43	28	0	1170210816	46	6031
2026-01-15 14:55:47.26	200.44	23.55	-36.6	-37.4	23.7	0.00e+00	0	28	0	1171259392	46	6011
2026-01-15 14:55:48.27	200.45	23.40	-36.5	-37.4	23.9	0.00e+00	79	28	0	1173356544	46	5976
2026-01-15 14:55:49.28	200.47	23.24	-36.7	-37.6	23.5	0.00e+00	0	28	0	1175453696	46	6110
2026-01-15 14:55:50.29	200.48	23.09	-36.6	-37.5	23.6	0.00e+00	0	28	0	1177550848	46	6080
2026-01-15 14:55:51.31	200.49	22.94	-36.6	-37.5	23.6	0.00e+00	12	28	0	1179648000	46	6043
2026-01-15 14:55:52.31	200.50	22.80	-36.6	-37.4	23.7	0.00e+00	0	28	0	1180696576	46	6031
2026-01-15 14:55:53.32	200.52	22.65	-36.4	-37.3	23.8	0.00e+00	56	28	0	1182793728	46	5925
2026-01-15 14:55:54.33	200.53	22.50	-36.1	-37.0	24.1	0.00e+00	0	28	0	1184890880	46	5707
2026-01-15 14:55:55.34	200.54	22.36	-36.1	-36.9	24.0	0.00e+00	92	28	0	1186988032	46	5673
2026-01-15 14:55:56.35	200.55	22.21	-36.2	-37.1	23.9	0.00e+00	0	28	0	1189085184	46	5787
2026-01-15 14:55:57.36	200.57	22.07	-35.7	-36.5	24.4	0.00e+00	0	28	0	1191182336	46	5437
2026-01-15 14:55:58.37	200.58	21.92	-35.6	-36.4	24.3	0.00e+00	0	28	0	1192230912	44	6016
2026-01-15 14:55:59.38	200.59	21.78	-35.7	-36.5	24.4	0.00e+00	0	28	0	1194328064	44	6051
2026-01-15 14:56:00.39	200.60	21.64	-35.4	-36.2	24.5	0.00e+00	19	28	0	1196425216	44	5849
2026-01-15 14:56:01.40	200.61	21.50	-35.5	-36.4	24.4	0.00e+00	0	28	0	1198522368	44	5969
2026-01-15 14:56:02.41	200.63	21.36	-35.6	-36.5	24.1	0.00e+00	92	28	0	1199570944	44	6047
2026-01-15 14:56:03.42	200.64	21.22	-36.1	-36.9	24.0	0.00e+00	0	28	0	1201668096	44	6356
2026-01-15 14:56:04.43	200.65	21.08	-36.1	-36.9	24.0	0.00e+00	0	28	0	1203765248	44	6387
2026-01-15 14:56:05.44	200.66	20.94	-36.3	-37.2	23.8	0.00e+00	0	28	0	1205862400	44	6559
2026-01-15 14:56:06.45	200.67	20.81	-36.4	-37.3	23.7	0.00e+00	0	28	0	1207959552	44	6644
2026-01-15 14:56:07.46	200.68	20.67	-36.7	-37.7	23.4	0.00e+00	60	28	0	1210056704	44	6932
2026-01-15 14:56:08.47	200.70	20.53	-36.8	-37.7	23.4	0.00e+00	0	28	0	1211105280	46	6240
2026-01-15 14:56:09.48	200.71	20.40	-37.2	-38.1	23.1	0.00e+00	79	28	0	1213202432	46	6518
2026-01-15 14:56:10.48	200.72	20.27	-37.6	-38.6	22.7	0.00e+00	0	28	0	1215299584	46	6878
2026-01-15 14:56:11.49	200.73	20.13	-37.5	-38.5	22.8	0.00e+00	6	28	0	1217396736	46	6842
