passes_logs/2026/01/15/R4.6S_Anadyr/R4.6S_Anadyr__20260115_215725_AQUA_rec.log

#Pass ID: 20260115_215725_AQUA
#Satellite: AQUA
#Configuration: AQUA
#almurnet v.1.7.20251203
#Start time: 2026-01-15 21:57:31

#Version: 2.2.20231116
#Station: R4.6S_Anadyr
#Location: 177.4865 lon 64.73178 lat
#TLE: 1 27424U 02022A   26014.61231444  .00000653  00000+0  14070-3 0  9991
#TLE: 2 27424  98.4080 341.0332 0002042  78.9336 335.9961 14.61820174260839

#Time	Az	El	Level	Level2	SNR	BER	BlckErr	Temp	State	Recorded	gain1	gain2
2026-01-15 21:57:31.26	61.41	0.26	-48.4	-49.9	5.7	0.00e+00	0	28	0	0	60	38445
2026-01-15 21:57:32.27	61.31	0.31	-48.7	-66.6	3.5	7.72e-01	0	29	104	0	60	82130
2026-01-15 21:57:33.27	61.22	0.36	-48.6	-66.5	3.5	7.72e-01	0	29	104	0	60	81684
2026-01-15 21:57:34.28	61.13	0.41	-48.6	-66.6	3.5	7.72e-01	0	29	104	0	60	81960
2026-01-15 21:57:35.29	61.03	0.45	-48.7	-66.6	3.5	7.72e-01	0	29	104	0	60	81875
2026-01-15 21:57:36.28	60.94	0.50	-48.4	-66.5	3.5	7.72e-01	0	29	104	0	60	81214
2026-01-15 21:57:37.27	60.85	0.55	-48.4	-66.5	3.5	7.72e-01	0	29	104	0	60	81459
2026-01-15 21:57:38.26	60.75	0.60	-48.4	-66.5	3.5	7.72e-01	0	29	104	0	60	81644
2026-01-15 21:57:39.24	60.66	0.64	-48.1	-66.5	3.5	7.72e-01	0	29	104	0	60	81166
2026-01-15 21:57:40.22	60.57	0.69	-48.0	-66.3	3.5	7.72e-01	0	29	104	0	60	79699
2026-01-15 21:57:41.20	60.47	0.74	-47.3	-66.2	3.5	7.72e-01	0	29	104	0	60	78418
2026-01-15 21:57:42.18	60.38	0.78	-47.0	-66.1	3.5	7.72e-01	0	29	104	0	60	77514
2026-01-15 21:57:43.15	60.29	0.83	-46.8	-65.8	3.5	7.72e-01	0	29	104	0	60	75184
2026-01-15 21:57:44.13	60.19	0.88	-46.4	-65.3	3.5	7.72e-01	0	29	104	0	60	71236
2026-01-15 21:57:45.11	60.10	0.92	-44.8	-64.9	3.5	7.72e-01	0	29	104	0	60	67887
2026-01-15 21:57:46.09	60.00	0.97	-44.9	-64.8	3.5	7.72e-01	0	29	104	0	60	67101
2026-01-15 21:57:47.06	59.91	1.02	-44.9	-64.9	3.5	7.72e-01	0	29	104	0	60	67361
2026-01-15 21:57:48.04	59.81	1.06	-44.8	-64.9	3.5	7.72e-01	0	29	104	0	60	67403
2026-01-15 21:57:49.01	59.72	1.11	-44.8	-64.9	3.5	7.72e-01	0	29	104	0	60	67325
2026-01-15 21:57:49.99	59.62	1.16	-44.8	-64.9	3.5	7.72e-01	0	29	104	0	60	67424
2026-01-15 21:57:50.97	59.52	1.20	-44.8	-64.8	3.5	7.72e-01	0	29	104	0	60	67068
2026-01-15 21:57:51.95	59.42	1.25	-44.8	-64.8	3.5	7.72e-01	0	29	104	0	60	67085
2026-01-15 21:57:52.93	59.33	1.30	-44.7	-64.8	3.5	7.72e-01	0	29	104	0	60	67124
2026-01-15 21:57:53.91	59.23	1.35	-44.8	-64.8	3.5	7.72e-01	0	29	104	0	60	66708
2026-01-15 21:57:54.89	59.13	1.39	-44.7	-64.9	3.5	7.72e-01	0	29	104	0	60	67329
2026-01-15 21:57:55.86	59.03	1.44	-44.8	-64.9	3.5	7.72e-01	0	29	104	0	60	67327
2026-01-15 21:57:56.84	58.93	1.49	-44.8	-64.8	3.5	7.72e-01	0	29	104	0	60	66995
2026-01-15 21:57:57.82	58.83	1.53	-44.7	-64.8	3.5	7.72e-01	0	29	104	0	60	67072
2026-01-15 21:57:58.79	58.74	1.58	-44.7	-64.8	3.5	7.72e-01	0	29	104	0	60	66865
2026-01-15 21:57:59.77	58.64	1.63	-44.7	-64.8	3.5	7.72e-01	0	29	104	0	60	67090
2026-01-15 21:58:00.75	58.54	1.67	-44.7	-64.8	3.5	7.72e-01	0	29	104	0	60	67067
2026-01-15 21:58:01.73	58.43	1.72	-44.7	-64.8	3.5	7.72e-01	0	29	104	0	60	67041
2026-01-15 21:58:02.71	58.33	1.77	-44.7	-64.9	3.5	7.72e-01	0	29	104	0	60	67273
2026-01-15 21:58:03.68	58.23	1.81	-44.8	-64.9	3.5	7.72e-01	0	29	104	0	60	67329
2026-01-15 21:58:04.66	58.13	1.86	-44.7	-64.8	3.5	7.72e-01	0	29	104	0	60	66927
2026-01-15 21:58:05.64	58.03	1.91	-44.7	-64.8	3.5	7.72e-01	0	29	104	0	60	66541
2026-01-15 21:58:06.61	57.93	1.95	-44.7	-64.7	3.5	7.72e-01	0	29	104	0	60	66183
2026-01-15 21:58:07.59	57.82	2.00	-44.7	-64.7	3.5	7.72e-01	0	29	104	0	60	65878
2026-01-15 21:58:08.56	57.72	2.05	-44.7	-64.7	3.5	7.72e-01	0	29	104	0	60	65881
2026-01-15 21:58:09.54	57.62	2.10	-44.6	-64.7	3.5	7.72e-01	0	29	104	0	60	66323
2026-01-15 21:58:10.51	57.52	2.14	-44.7	-64.7	3.5	7.72e-01	0	29	104	0	60	66164
2026-01-15 21:58:11.49	57.41	2.19	-44.7	-64.7	3.5	7.72e-01	0	29	104	0	60	66015
2026-01-15 21:58:12.47	57.31	2.24	-44.7	-64.5	3.5	7.72e-01	0	29	104	0	60	64803
2026-01-15 21:58:13.45	57.20	2.28	-44.6	-64.5	3.5	7.72e-01	0	29	104	0	60	64550
2026-01-15 21:58:14.42	57.10	2.33	-44.6	-64.3	3.5	7.72e-01	0	29	104	0	60	63361
2026-01-15 21:58:15.40	56.99	2.38	-44.6	-64.4	3.5	7.72e-01	0	29	104	0	60	63684
2026-01-15 21:58:16.38	56.88	2.42	-44.7	-64.6	3.5	7.72e-01	0	29	104	0	60	65176
2026-01-15 21:58:17.36	56.78	2.47	-44.7	-64.8	3.5	7.72e-01	0	29	104	0	60	66576
2026-01-15 21:58:18.33	56.67	2.52	-44.7	-64.8	3.5	7.72e-01	0	29	104	0	60	67024
2026-01-15 21:58:19.31	56.56	2.57	-44.7	-64.7	3.5	7.72e-01	0	29	104	0	60	66199
2026-01-15 21:58:20.29	56.46	2.61	-44.8	-64.8	3.5	7.72e-01	0	29	104	0	60	66690
2026-01-15 21:58:21.27	56.35	2.66	-44.7	-64.8	3.5	7.72e-01	0	29	104	0	60	66621
2026-01-15 21:58:22.24	56.24	2.71	-44.7	-64.3	3.5	7.72e-01	0	29	104	0	60	63359
2026-01-15 21:58:23.22	56.13	2.75	-44.6	-64.0	3.5	7.72e-01	0	29	104	0	60	60973
2026-01-15 21:58:24.20	56.02	2.80	-44.6	-64.1	3.5	7.72e-01	0	29	104	0	60	61950
2026-01-15 21:58:25.17	55.91	2.85	-44.6	-64.5	3.5	7.72e-01	0	30	104	0	60	64500
2026-01-15 21:58:26.15	55.80	2.89	-44.2	-61.2	3.5	7.72e-01	0	30	104	0	60	44028
2026-01-15 21:58:27.13	55.69	2.94	-42.7	-56.3	3.5	7.72e-01	0	29	104	0	60	25119
2026-01-15 21:58:28.11	55.58	2.99	-41.0	-53.1	3.5	7.72e-01	0	29	104	0	58	19586
2026-01-15 21:58:29.08	55.47	3.04	-39.7	-51.3	3.5	7.72e-01	0	30	104	0	54	19898
2026-01-15 21:58:30.06	55.36	3.08	-47.1	-64.9	3.5	7.72e-01	0	30	104	0	60	67839
2026-01-15 21:58:31.04	55.25	3.13	-43.4	-56.0	3.5	7.72e-01	0	30	104	0	60	24159
2026-01-15 21:58:32.01	55.14	3.18	-43.6	-64.5	3.5	7.72e-01	0	29	104	0	60	64750
2026-01-15 21:58:32.99	55.02	3.22	-45.1	-63.1	3.5	7.72e-01	0	30	104	0	60	55264
2026-01-15 21:58:33.97	54.91	3.27	-39.6	-51.0	3.5	7.72e-01	0	29	104	0	52	21643
2026-01-15 21:58:34.95	54.79	3.32	-38.8	-50.2	3.5	7.72e-01	0	29	104	0	52	19729
2026-01-15 21:58:35.93	54.68	3.36	-38.1	-49.4	3.6	7.72e-01	0	30	104	0	52	18036
2026-01-15 21:58:36.90	54.57	3.41	-37.9	-48.9	3.5	7.72e-01	0	29	104	0	50	19028
2026-01-15 21:58:37.88	54.45	3.46	-38.1	-49.0	3.5	7.72e-01	0	29	104	0	50	19181
2026-01-15 21:58:38.86	54.34	3.51	-37.9	-48.6	3.5	7.72e-01	0	29	104	0	50	18327
2026-01-15 21:58:39.84	54.22	3.55	-39.7	-51.0	3.5	7.72e-01	0	30	104	0	52	21558
2026-01-15 21:58:40.81	54.11	3.60	-43.5	-59.3	3.5	7.72e-01	0	29	104	0	58	39657
2026-01-15 21:58:41.79	53.99	3.65	-42.7	-54.9	3.5	7.72e-01	0	30	104	0	60	21496
2026-01-15 21:58:42.77	53.87	3.69	-43.8	-62.9	3.5	7.72e-01	0	29	104	0	60	53587
2026-01-15 21:58:43.75	53.75	3.74	-40.2	-52.4	3.6	7.72e-01	0	29	104	0	56	20275
2026-01-15 21:58:44.73	53.64	3.79	-38.6	-49.8	3.5	7.72e-01	0	30	104	0	52	18798
2026-01-15 21:58:45.71	53.52	3.83	-38.1	-49.1	3.5	7.72e-01	0	29	104	0	52	17335
2026-01-15 21:58:46.68	53.40	3.88	-38.0	-49.1	3.5	7.72e-01	0	30	104	0	52	17322
2026-01-15 21:58:47.66	53.28	3.93	-42.5	-54.2	3.5	7.72e-01	0	30	104	0	56	24812
2026-01-15 21:58:48.63	53.16	3.97	-44.6	-58.2	3.5	7.72e-01	0	30	104	0	60	31345
2026-01-15 21:58:49.61	53.04	4.02	-40.9	-54.0	3.5	7.72e-01	0	29	104	0	50	34159
2026-01-15 21:58:50.59	52.92	4.07	-42.8	-60.3	3.5	7.72e-01	0	30	104	0	60	39796
2026-01-15 21:58:51.57	52.80	4.11	-38.4	-49.5	3.5	7.72e-01	0	30	104	0	54	16310
2026-01-15 21:58:52.55	52.68	4.16	-38.1	-49.1	3.5	7.72e-01	0	30	104	0	52	17419
2026-01-15 21:58:53.52	52.56	4.21	-37.6	-48.7	3.5	7.72e-01	0	30	104	0	50	18561
2026-01-15 21:58:54.50	52.44	4.25	-38.1	-49.3	3.5	7.72e-01	0	30	104	0	50	20046
2026-01-15 21:58:55.48	52.31	4.30	-38.0	-49.2	3.5	7.72e-01	0	30	104	0	50	19723
2026-01-15 21:58:56.46	52.19	4.35	-38.7	-49.7	3.5	7.72e-01	0	30	104	0	50	20926
2026-01-15 21:58:57.44	52.07	4.39	-38.4	-49.3	3.6	7.72e-01	0	30	104	0	52	17847
2026-01-15 21:58:58.41	51.94	4.44	-38.0	-48.8	3.5	7.72e-01	0	30	104	0	52	16722
2026-01-15 21:58:59.39	51.82	4.49	-44.3	-57.3	3.5	7.72e-01	0	30	104	0	60	28346
2026-01-15 21:59:00.37	51.69	4.53	-38.6	-49.3	3.5	7.72e-01	0	30	104	0	56	14109
2026-01-15 21:59:01.34	51.57	4.58	-44.7	-63.2	3.5	7.72e-01	0	30	104	0	60	55346
2026-01-15 21:59:02.32	51.44	4.63	-40.8	-52.6	3.5	7.72e-01	0	30	104	0	56	20710
2026-01-15 21:59:03.30	51.32	4.67	-40.5	-52.3	3.5	7.72e-01	0	30	104	0	56	19995
2026-01-15 21:59:04.28	51.19	4.72	-40.5	-52.6	3.6	7.72e-01	0	30	104	0	56	20578
2026-01-15 21:59:05.26	51.06	4.77	-40.6	-52.8	3.5	7.72e-01	0	30	104	0	56	21124
2026-01-15 21:59:06.23	50.94	4.81	-45.5	-64.3	3.5	7.72e-01	0	30	104	0	60	63206
2026-01-15 21:59:07.21	50.81	4.86	-44.3	-63.4	3.6	7.72e-01	0	30	104	0	60	56961
2026-01-15 21:59:08.19	50.68	4.90	-44.5	-57.1	3.5	7.72e-01	0	30	104	0	60	27409
2026-01-15 21:59:09.16	50.55	4.95	-46.7	-63.8	3.5	7.72e-01	0	30	104	0	60	59858
2026-01-15 21:59:10.14	50.42	5.00	-38.9	-49.6	3.5	7.72e-01	0	30	104	0	50	20572
2026-01-15 21:59:11.11	50.30	5.04	-38.1	-48.6	3.5	7.72e-01	0	30	104	0	50	18426
2026-01-15 21:59:12.09	50.16	5.09	-38.1	-48.6	3.5	7.72e-01	0	30	104	0	50	18523
2026-01-15 21:59:13.07	50.03	5.13	-37.5	-48.0	3.5	7.72e-01	0	30	104	0	50	17243
2026-01-15 21:59:14.05	49.90	5.18	-37.0	-47.5	3.5	7.72e-01	0	30	104	0	50	16256
2026-01-15 21:59:15.02	49.77	5.23	-37.7	-48.5	3.5	7.72e-01	0	30	104	0	50	18133
2026-01-15 21:59:16.00	49.64	5.27	-39.0	-49.9	3.5	7.72e-01	0	30	104	0	50	21303
2026-01-15 21:59:16.97	49.51	5.32	-45.3	-63.2	3.5	7.72e-01	0	30	104	0	60	55721
2026-01-15 21:59:17.95	49.38	5.36	-44.4	-57.2	3.5	7.72e-01	0	30	104	0	60	27749
2026-01-15 21:59:18.93	49.24	5.41	-44.6	-64.9	3.5	7.72e-01	0	30	104	0	60	67807
2026-01-15 21:59:19.90	49.11	5.46	-40.5	-52.6	3.5	7.72e-01	0	30	104	0	58	18316
2026-01-15 21:59:20.88	48.97	5.50	-40.0	-51.7	3.5	7.72e-01	0	30	104	0	54	20931
2026-01-15 21:59:21.86	48.84	5.55	-40.0	-51.6	3.5	7.72e-01	0	30	104	0	54	20610
2026-01-15 21:59:22.83	48.71	5.59	-39.7	-51.0	3.5	7.72e-01	0	30	104	0	54	19282
2026-01-15 21:59:23.82	48.57	5.64	-39.4	-50.5	3.5	7.72e-01	0	30	104	0	52	20349
2026-01-15 21:59:24.79	48.43	5.68	-44.6	-63.6	3.5	7.72e-01	0	30	104	0	60	58342
2026-01-15 21:59:25.77	48.30	5.73	-39.9	-50.8	3.5	7.72e-01	0	30	104	0	52	21223
2026-01-15 21:59:26.74	48.16	5.77	-46.8	-63.3	3.5	7.72e-01	0	30	104	0	60	56423
2026-01-15 21:59:27.72	48.02	5.82	-37.8	-48.4	3.5	7.72e-01	0	30	104	0	52	16021
2026-01-15 21:59:28.70	47.88	5.86	-38.1	-48.7	3.5	7.72e-01	0	30	104	0	52	16576
2026-01-15 21:59:29.67	47.75	5.91	-37.8	-48.3	3.5	7.72e-01	0	30	104	0	50	17890
2026-01-15 21:59:30.65	47.61	5.95	-37.1	-47.7	3.5	7.72e-01	0	30	104	0	50	16582
2026-01-15 21:59:31.62	47.47	6.00	-37.1	-47.6	3.5	7.72e-01	0	30	104	0	50	16383
2026-01-15 21:59:32.60	47.33	6.04	-37.2	-47.8	3.5	7.72e-01	0	30	104	0	48	18818
2026-01-15 21:59:33.58	47.19	6.09	-36.8	-47.4	3.5	7.72e-01	0	30	104	0	48	18055
2026-01-15 21:59:34.56	47.05	6.13	-38.8	-49.7	3.5	7.72e-01	0	30	104	0	50	20915
2026-01-15 21:59:35.54	46.91	6.18	-45.2	-58.7	3.5	7.72e-01	0	30	104	0	60	32985
2026-01-15 21:59:36.51	46.76	6.22	-39.8	-50.9	3.5	7.72e-01	0	30	104	0	58	15197
2026-01-15 21:59:37.49	46.62	6.27	-45.1	-62.3	3.5	7.72e-01	0	30	104	0	60	50091
2026-01-15 21:59:38.47	46.48	6.31	-41.5	-54.2	3.5	7.72e-01	0	30	104	0	58	22185
2026-01-15 21:59:39.44	46.34	6.36	-41.3	-53.7	3.5	7.72e-01	0	30	104	0	58	20898
2026-01-15 21:59:40.42	46.19	6.40	-40.7	-52.5	3.5	7.72e-01	0	30	104	0	56	20544
2026-01-15 21:59:41.41	46.05	6.45	-39.2	-50.3	3.5	7.72e-01	0	30	104	0	54	17745
2026-01-15 21:59:42.39	45.90	6.49	-39.1	-50.0	3.5	7.72e-01	0	30	104	0	52	19298
2026-01-15 21:59:43.37	45.76	6.54	-43.7	-59.0	3.7	7.72e-01	0	30	104	0	60	34414
2026-01-15 21:59:44.35	45.61	6.58	-44.9	-58.1	3.5	7.72e-01	0	30	104	0	60	30788
2026-01-15 21:59:45.32	45.46	6.62	-44.6	-58.5	3.5	7.72e-01	0	30	104	0	60	32491
2026-01-15 21:59:46.30	45.32	6.67	-38.7	-49.4	3.5	7.72e-01	0	30	104	0	50	20214
2026-01-15 21:59:47.27	45.17	6.71	-37.8	-48.4	3.5	7.72e-01	0	30	104	0	50	18053
2026-01-15 21:59:48.25	45.02	6.76	-38.0	-48.6	3.5	7.72e-01	0	30	104	0	50	18368
2026-01-15 21:59:49.23	44.87	6.80	-37.6	-48.2	3.5	7.72e-01	0	30	104	0	50	17572
2026-01-15 21:59:50.20	44.73	6.84	-36.6	-47.1	3.5	7.72e-01	0	30	104	0	48	17358
2026-01-15 21:59:51.19	44.58	6.89	-36.6	-47.2	3.5	7.72e-01	0	30	104	0	48	17492
2026-01-15 21:59:52.16	44.43	6.93	-37.9	-48.7	3.6	7.72e-01	0	30	104	0	50	18593
2026-01-15 21:59:53.14	44.28	6.97	-45.9	-62.5	3.5	7.72e-01	0	30	104	0	60	51530
2026-01-15 21:59:54.11	44.13	7.02	-44.9	-57.6	3.5	7.72e-01	0	30	104	0	60	29262
2026-01-15 21:59:55.09	43.98	7.06	-46.3	-65.2	3.5	7.72e-01	0	30	104	0	60	70312
2026-01-15 21:59:56.07	43.82	7.10	-39.8	-50.8	3.5	7.72e-01	0	30	104	0	56	16782
2026-01-15 21:59:57.04	43.67	7.15	-39.8	-50.8	3.5	7.72e-01	0	30	104	0	54	18771
2026-01-15 21:59:58.02	43.52	7.19	-39.8	-50.8	3.5	7.72e-01	0	30	104	0	54	18926
2026-01-15 21:59:59.00	43.37	7.23	-40.0	-51.2	3.5	7.72e-01	0	30	104	0	54	19812
2026-01-15 21:59:59.98	43.21	7.27	-38.2	-48.7	3.5	7.72e-01	0	30	104	0	50	18706
2026-01-15 22:00:00.95	43.06	7.32	-46.5	-65.3	3.5	7.72e-01	0	30	104	0	60	70759
2026-01-15 22:00:01.93	42.90	7.36	-45.1	-58.0	3.5	7.72e-01	0	30	104	0	60	30653
2026-01-15 22:00:02.91	42.75	7.40	-47.1	-65.0	3.5	7.72e-01	0	30	104	0	60	68175
2026-01-15 22:00:03.89	42.59	7.44	-38.0	-48.7	3.5	7.72e-01	0	30	104	0	50	18590
2026-01-15 22:00:04.86	42.44	7.49	-37.8	-48.3	3.5	7.72e-01	0	30	104	0	50	17796
2026-01-15 22:00:05.84	42.28	7.53	-38.0	-48.5	3.5	7.72e-01	0	30	104	0	50	18171
2026-01-15 22:00:06.82	42.12	7.57	-37.5	-48.0	3.5	7.72e-01	0	30	104	0	50	17173
2026-01-15 22:00:07.80	41.97	7.61	-38.1	-48.6	3.5	7.72e-01	0	30	104	0	50	18373
2026-01-15 22:00:08.77	41.81	7.65	-36.1	-46.4	3.5	7.72e-01	0	30	104	0	48	16087
2026-01-15 22:00:09.75	41.65	7.70	-37.1	-47.6	3.5	7.72e-01	0	30	104	0	46	20674
2026-01-15 22:00:10.73	41.49	7.74	-44.0	-56.8	3.5	7.72e-01	0	30	104	0	56	33615
2026-01-15 22:00:11.70	41.33	7.78	-43.9	-56.2	3.5	7.72e-01	0	30	104	0	60	24911
2026-01-15 22:00:12.68	41.17	7.82	-44.2	-57.6	3.6	7.72e-01	0	30	104	0	56	36609
2026-01-15 22:00:13.66	41.01	7.86	-39.7	-50.7	3.6	7.72e-01	0	30	104	0	58	14723
2026-01-15 22:00:14.64	40.85	7.90	-37.7	-48.2	3.5	7.72e-01	0	30	104	0	50	17683
2026-01-15 22:00:15.61	40.69	7.94	-37.4	-48.1	3.5	7.72e-01	0	30	104	0	50	17311
2026-01-15 22:00:16.59	40.53	7.98	-37.4	-48.0	3.5	7.72e-01	0	30	104	0	50	17238
2026-01-15 22:00:17.57	40.36	8.02	-41.9	-53.2	3.6	7.72e-01	0	30	104	0	54	24825
2026-01-15 22:00:18.54	40.20	8.06	-45.9	-59.8	3.5	7.72e-01	0	30	104	0	60	37734
2026-01-15 22:00:19.52	40.04	8.10	-37.6	-48.1	3.5	7.72e-01	0	30	104	0	52	15571
2026-01-15 22:00:20.49	39.87	8.14	-45.7	-63.2	3.5	7.72e-01	0	30	104	0	60	55794
2026-01-15 22:00:21.47	39.71	8.18	-40.5	-51.9	3.4	7.72e-01	0	30	104	0	60	15179
2026-01-15 22:00:22.44	39.54	8.22	-39.5	-50.6	3.5	7.72e-01	0	30	104	0	54	18355
2026-01-15 22:00:23.42	39.38	8.26	-38.9	-49.8	3.5	7.72e-01	0	30	104	0	52	18772
2026-01-15 22:00:24.40	39.21	8.30	-38.5	-49.3	3.5	7.72e-01	0	30	104	0	52	17826
2026-01-15 22:00:25.38	39.05	8.34	-37.4	-47.8	3.5	7.72e-01	0	30	104	0	50	16794
2026-01-15 22:00:26.36	38.88	8.38	-36.4	-46.8	3.5	7.72e-01	0	30	104	0	48	16843
2026-01-15 22:00:27.33	38.71	8.42	-36.3	-46.7	3.5	7.72e-01	0	30	104	0	48	16646
2026-01-15 22:00:28.31	38.54	8.46	-36.5	-46.9	3.5	7.72e-01	0	30	104	0	48	16956
2026-01-15 22:00:29.28	38.38	8.50	-44.5	-59.1	3.5	7.72e-01	0	30	104	0	60	34853
2026-01-15 22:00:30.26	38.21	8.54	-41.6	-52.8	3.6	7.72e-01	0	30	104	0	60	16782
2026-01-15 22:00:31.24	38.04	8.58	-46.3	-63.9	3.6	7.72e-01	0	30	104	0	60	60426
2026-01-15 22:00:32.22	37.87	8.62	-37.3	-48.0	3.5	7.72e-01	0	30	104	0	50	17204
2026-01-15 22:00:33.20	37.69	8.65	-37.1	-47.7	3.5	7.72e-01	0	30	104	0	48	18602
2026-01-15 22:00:34.17	37.52	8.69	-36.7	-47.3	3.5	7.72e-01	0	30	104	0	48	17736
2026-01-15 22:00:35.15	37.35	8.73	-36.7	-47.2	3.5	7.72e-01	0	30	104	0	48	17594
2026-01-15 22:00:36.13	37.18	8.77	-43.1	-55.0	3.5	7.72e-01	0	30	104	0	60	21683
2026-01-15 22:00:37.11	37.01	8.81	-37.8	-48.5	3.5	7.72e-01	0	30	104	0	48	20387
2026-01-15 22:00:38.08	36.84	8.84	-46.7	-64.5	3.5	7.72e-01	0	30	104	0	60	64536
2026-01-15 22:00:39.06	36.66	8.88	-44.8	-57.3	3.5	7.72e-01	0	30	104	0	60	28274
2026-01-15 22:00:40.03	36.49	8.92	-47.7	-65.5	3.5	7.72e-01	0	30	104	0	60	72384
2026-01-15 22:00:41.01	36.31	8.95	-40.1	-50.9	3.5	7.72e-01	0	30	104	0	56	16917
2026-01-15 22:00:41.99	36.14	8.99	-39.3	-50.1	3.5	7.72e-01	0	30	104	0	54	17463
2026-01-15 22:00:42.97	35.96	9.03	-38.0	-48.8	3.5	7.72e-01	0	30	104	0	52	16718
2026-01-15 22:00:43.95	35.79	9.06	-37.2	-47.7	3.5	7.72e-01	0	30	104	0	50	16696
2026-01-15 22:00:44.92	35.61	9.10	-42.6	-54.1	3.5	7.72e-01	0	30	104	0	58	21886
2026-01-15 22:00:45.90	35.43	9.14	-45.3	-58.2	3.5	7.72e-01	0	30	104	0	60	31334
2026-01-15 22:00:46.88	35.26	9.17	-47.4	-65.2	3.5	7.72e-01	0	30	104	0	60	70355
2026-01-15 22:00:47.85	35.08	9.21	-45.7	-64.2	3.5	7.72e-01	0	30	104	0	60	62215
2026-01-15 22:00:48.83	34.90	9.24	-36.1	-46.5	3.5	7.72e-01	0	30	104	0	46	18231
2026-01-15 22:00:49.80	34.72	9.28	-36.0	-46.5	3.5	7.72e-01	0	30	104	0	48	16238
2026-01-15 22:00:50.78	34.54	9.31	-35.8	-46.3	3.5	7.72e-01	0	30	104	0	46	17809
2026-01-15 22:00:51.76	34.36	9.35	-35.7	-46.2	3.5	7.72e-01	0	30	104	0	46	17578
2026-01-15 22:00:52.74	34.18	9.38	-35.7	-46.1	3.5	7.72e-01	0	30	104	0	46	17342
2026-01-15 22:00:53.72	34.00	9.42	-38.1	-48.7	3.5	7.72e-01	0	30	104	0	48	20910
2026-01-15 22:00:54.69	33.82	9.45	-36.9	-47.4	3.5	7.72e-01	0	30	104	0	50	16069
2026-01-15 22:00:55.67	33.64	9.48	-42.5	-54.0	3.5	7.72e-01	0	30	104	0	52	30459
2026-01-15 22:00:56.64	33.46	9.52	-43.5	-55.6	3.5	7.72e-01	0	30	104	0	60	23285
2026-01-15 22:00:57.62	33.28	9.55	-38.4	-49.0	3.5	7.72e-01	0	30	104	0	50	19288
2026-01-15 22:00:58.59	33.10	9.58	-44.2	-56.4	3.5	7.72e-01	0	30	104	0	60	25491
2026-01-15 22:00:59.57	32.91	9.62	-39.8	-50.6	3.5	7.72e-01	0	30	104	0	54	18326
2026-01-15 22:01:00.54	32.73	9.65	-39.8	-50.5	3.5	7.72e-01	0	30	104	0	54	18287
2026-01-15 22:01:01.52	32.54	9.68	-40.3	-51.1	3.5	7.72e-01	0	30	104	0	54	19591
2026-01-15 22:01:02.49	32.36	9.72	-44.5	-56.7	3.5	7.72e-01	0	30	104	0	60	26296
2026-01-15 22:01:03.47	32.17	9.75	-47.7	-65.5	3.5	7.72e-01	0	30	104	0	60	72817
2026-01-15 22:01:04.45	31.99	9.78	-41.5	-52.6	3.7	7.72e-01	0	30	104	0	60	16352
2026-01-15 22:01:05.42	31.80	9.81	-44.9	-58.0	3.5	7.72e-01	0	30	104	0	60	30406
2026-01-15 22:01:06.40	31.62	9.84	-42.9	-54.7	3.5	7.72e-01	0	30	104	0	60	20818
2026-01-15 22:01:07.38	31.43	9.87	-38.2	-48.9	3.5	7.72e-01	0	30	104	0	50	18960
2026-01-15 22:01:08.36	31.24	9.91	-37.4	-48.0	3.5	7.72e-01	0	30	104	0	50	17170
2026-01-15 22:01:09.33	31.06	9.94	-36.7	-47.2	3.5	7.72e-01	0	30	104	0	48	17493
2026-01-15 22:01:10.31	30.87	9.97	-35.9	-46.3	3.5	7.72e-01	0	30	104	0	46	17769
2026-01-15 22:01:11.28	30.68	10.00	-35.7	-46.1	3.4	7.72e-01	0	30	104	0	46	17467
2026-01-15 22:01:12.25	30.49	10.03	-37.4	-47.9	3.5	7.72e-01	0	30	104	0	48	19036
2026-01-15 22:01:13.23	30.30	10.06	-36.6	-46.9	3.5	7.72e-01	0	30	104	0	48	17048
2026-01-15 22:01:14.21	30.11	10.09	-46.0	-60.9	3.5	7.72e-01	0	30	104	0	60	42665
2026-01-15 22:01:15.19	29.92	10.12	-42.1	-53.4	3.8	7.72e-01	0	30	104	0	60	18020
2026-01-15 22:01:16.17	29.73	10.15	-47.4	-64.7	3.5	7.72e-01	0	30	104	0	60	66087
2026-01-15 22:01:17.14	29.54	10.18	-38.7	-49.3	3.5	7.72e-01	0	30	104	0	52	17773
2026-01-15 22:01:18.12	29.35	10.20	-39.5	-50.2	3.5	7.72e-01	0	30	104	0	52	19683
2026-01-15 22:01:19.09	29.16	10.23	-39.8	-50.5	3.5	7.72e-01	0	30	104	0	52	20493
2026-01-15 22:01:20.07	28.96	10.26	-38.7	-49.3	3.5	7.72e-01	0	30	104	0	52	17794
2026-01-15 22:01:21.05	28.77	10.29	-38.0	-48.6	3.5	7.72e-01	0	30	104	0	50	18523
2026-01-15 22:01:22.03	28.58	10.32	-37.5	-48.0	3.5	7.72e-01	0	30	104	0	48	19322
2026-01-15 22:01:23.01	28.38	10.34	-47.4	-65.0	3.5	7.72e-01	0	30	104	0	60	68448
2026-01-15 22:01:23.99	28.19	10.37	-44.9	-57.4	3.5	7.72e-01	0	30	104	0	60	28530
2026-01-15 22:01:24.96	27.99	10.40	-47.7	-65.7	3.5	7.72e-01	0	30	104	0	60	74512
2026-01-15 22:01:25.95	27.80	10.42	-40.6	-51.4	3.5	7.72e-01	0	30	104	0	58	16067
2026-01-15 22:01:26.92	27.60	10.45	-39.6	-50.2	3.5	7.72e-01	0	30	104	0	54	17664
2026-01-15 22:01:27.90	27.41	10.48	-38.2	-48.7	3.5	7.72e-01	0	30	104	0	52	16676
2026-01-15 22:01:28.88	27.21	10.50	-37.4	-47.9	3.5	7.72e-01	0	30	104	0	50	16951
2026-01-15 22:01:29.86	27.01	10.53	-42.9	-54.6	3.5	7.72e-01	0	30	104	0	56	26020
2026-01-15 22:01:30.84	26.82	10.55	-45.1	-57.8	3.5	7.72e-01	0	30	104	0	60	30005
2026-01-15 22:01:31.81	26.62	10.58	-47.4	-63.5	3.5	7.72e-01	0	30	104	0	60	57628
2026-01-15 22:01:32.79	26.42	10.60	-47.6	-64.8	3.5	7.72e-01	0	30	104	0	60	67261
2026-01-15 22:01:33.77	26.22	10.63	-35.8	-46.0	3.5	7.72e-01	0	30	104	0	46	17286
2026-01-15 22:01:34.75	26.03	10.65	-36.0	-46.3	3.5	7.72e-01	0	30	104	0	48	15851
2026-01-15 22:01:35.72	25.83	10.68	-35.9	-46.1	3.5	7.72e-01	0	30	104	0	46	17404
2026-01-15 22:01:36.70	25.63	10.70	-35.8	-46.1	3.5	7.72e-01	0	30	104	0	46	17307
2026-01-15 22:01:37.68	25.43	10.72	-35.7	-46.1	3.5	7.72e-01	0	30	104	0	46	17381
2026-01-15 22:01:38.66	25.23	10.75	-35.6	-45.8	3.6	7.72e-01	0	30	104	0	46	16761
2026-01-15 22:01:39.63	25.03	10.77	-36.1	-46.4	3.6	7.72e-01	0	30	104	0	46	17962
2026-01-15 22:01:40.61	24.83	10.79	-39.5	-50.1	3.5	7.72e-01	0	30	104	0	48	24559
2026-01-15 22:01:41.59	24.63	10.81	-42.9	-45.9	5.1	7.72e-01	0	30	104	0	60	7620
2026-01-15 22:01:42.56	24.43	10.83	-39.0	-40.6	22.8	7.72e-01	0	30	0	0	48	8271
2026-01-15 22:01:43.54	24.23	10.86	-44.3	-48.2	4.9	7.72e-01	0	30	104	524288	60	9889
2026-01-15 22:01:44.51	24.03	10.88	-39.9	-42.0	21.6	7.72e-01	0	30	104	524288	54	6846
2026-01-15 22:01:45.49	23.83	10.90	-40.0	-41.8	22.9	7.72e-01	0	30	0	1572864	54	6720
2026-01-15 22:01:46.47	23.62	10.92	-38.6	-40.3	25.1	7.72e-01	0	30	0	3670016	52	6292
2026-01-15 22:01:47.44	23.42	10.94	-37.5	-39.0	26.2	7.72e-01	0	30	0	5242880	50	6097
2026-01-15 22:01:48.42	23.22	10.96	-37.0	-38.4	26.6	7.72e-01	0	30	0	7340032	50	5720
2026-01-15 22:01:49.40	23.01	10.98	-36.8	-38.2	26.7	7.72e-01	0	30	0	8912896	48	6263
2026-01-15 22:01:50.37	22.81	11.00	-36.4	-37.9	27.1	7.72e-01	0	30	0	11010048	48	6026
2026-01-15 22:01:51.35	22.61	11.02	-36.4	-37.9	27.0	7.72e-01	0	30	0	12582912	48	5996
2026-01-15 22:01:52.33	22.40	11.03	-35.9	-37.3	27.7	7.72e-01	0	30	0	14680064	46	6292
2026-01-15 22:01:53.30	22.20	11.05	-35.3	-36.7	28.2	7.72e-01	0	30	0	16252928	46	5872
2026-01-15 22:01:54.28	22.00	11.07	-35.2	-36.5	28.3	7.72e-01	0	30	0	18350080	46	5738
2026-01-15 22:01:55.26	21.79	11.09	-35.2	-36.5	28.3	7.72e-01	0	30	0	19922944	46	5733
2026-01-15 22:01:56.24	21.59	11.11	-35.1	-36.4	28.5	7.72e-01	0	30	0	22020096	46	5694
2026-01-15 22:01:57.21	21.38	11.12	-35.2	-36.5	28.4	7.72e-01	0	30	0	23592960	46	5734
2026-01-15 22:01:58.19	21.18	11.14	-35.2	-36.5	28.3	7.72e-01	0	30	0	25690112	46	5757
2026-01-15 22:01:59.17	20.97	11.16	-35.1	-36.4	28.4	7.72e-01	0	30	0	27262976	46	5701
2026-01-15 22:02:00.15	20.76	11.17	-35.2	-36.5	28.3	7.72e-01	0	30	0	29360128	46	5740
2026-01-15 22:02:01.13	20.56	11.19	-35.2	-36.6	28.3	7.72e-01	0	30	0	30932992	46	5798
2026-01-15 22:02:02.10	20.35	11.20	-35.3	-36.6	28.2	7.72e-01	0	30	0	33030144	46	5827
2026-01-15 22:02:03.08	20.14	11.22	-35.1	-36.4	28.4	7.72e-01	0	30	0	34603008	46	5684
2026-01-15 22:02:04.05	19.94	11.23	-35.2	-36.5	28.3	7.72e-01	0	30	0	36700160	46	5769
2026-01-15 22:02:05.03	19.73	11.25	-35.1	-36.4	28.4	7.72e-01	0	30	0	38273024	46	5714
2026-01-15 22:02:06.01	19.52	11.26	-35.1	-36.4	28.4	7.72e-01	0	30	0	40370176	46	5694
2026-01-15 22:02:06.99	19.31	11.28	-35.2	-36.5	28.4	7.72e-01	0	30	0	41943040	46	5741
2026-01-15 22:02:07.96	19.11	11.29	-35.2	-36.5	28.3	7.72e-01	0	30	0	44040192	46	5769
2026-01-15 22:02:08.94	18.90	11.30	-35.2	-36.5	28.3	7.72e-01	0	30	0	45613056	46	5747
2026-01-15 22:02:09.91	18.69	11.32	-35.2	-36.5	28.3	7.72e-01	0	30	0	47710208	46	5752
2026-01-15 22:02:10.89	18.48	11.33	-35.2	-36.4	28.4	7.72e-01	0	30	0	49283072	46	5715
2026-01-15 22:02:11.87	18.27	11.34	-35.2	-36.5	28.3	7.72e-01	0	30	0	51380224	46	5756
2026-01-15 22:02:12.85	18.06	11.35	-35.1	-36.4	28.4	7.72e-01	0	30	0	52953088	46	5666
2026-01-15 22:02:13.83	17.86	11.36	-35.0	-36.3	28.5	7.72e-01	0	30	0	55050240	46	5615
2026-01-15 22:02:14.80	17.65	11.37	-34.9	-36.1	28.6	7.72e-01	0	30	0	56623104	44	6203
2026-01-15 22:02:15.78	17.44	11.39	-35.0	-36.2	28.6	7.72e-01	0	30	0	58720256	44	6252
2026-01-15 22:02:16.76	17.23	11.40	-35.0	-36.3	28.5	7.72e-01	0	30	0	60293120	44	6299
2026-01-15 22:02:17.74	17.02	11.41	-35.2	-36.4	28.4	7.72e-01	0	30	0	62390272	44	6417
2026-01-15 22:02:18.71	16.81	11.42	-35.2	-36.5	28.3	7.72e-01	0	30	0	63963136	44	6456
2026-01-15 22:02:19.69	16.60	11.43	-35.3	-36.5	28.3	7.72e-01	0	30	0	66060288	44	6488
2026-01-15 22:02:20.67	16.39	11.43	-35.2	-36.4	28.3	7.72e-01	0	30	0	67633152	44	6405
2026-01-15 22:02:21.64	16.18	11.44	-35.1	-36.3	28.5	7.72e-01	0	30	0	69730304	44	6347
2026-01-15 22:02:22.62	15.97	11.45	-35.0	-36.2	28.5	7.72e-01	0	30	0	71303168	44	6271
2026-01-15 22:02:23.60	15.76	11.46	-35.1	-36.3	28.5	7.72e-01	0	30	0	73400320	44	6322
2026-01-15 22:02:24.58	15.55	11.47	-35.1	-36.4	28.4	7.72e-01	0	30	0	74973184	44	6403
2026-01-15 22:02:25.56	15.33	11.47	-35.2	-36.4	28.4	7.72e-01	0	30	0	77070336	44	6420
2026-01-15 22:02:26.53	15.13	11.48	-35.2	-36.4	28.3	7.72e-01	0	30	0	78643200	44	6415
2026-01-15 22:02:27.51	14.91	11.49	-35.2	-36.4	28.4	7.72e-01	0	30	0	80216064	44	6412
2026-01-15 22:02:28.49	14.70	11.49	-35.3	-36.6	28.3	7.72e-01	0	30	0	82313216	44	6509
2026-01-15 22:02:29.46	14.49	11.50	-35.2	-36.5	28.3	7.72e-01	0	30	0	83886080	44	6459
2026-01-15 22:02:30.44	14.28	11.50	-35.3	-36.5	28.4	7.72e-01	0	30	0	85983232	44	6497
2026-01-15 22:02:31.42	14.07	11.51	-35.3	-36.5	28.3	7.72e-01	0	30	0	87556096	44	6494
2026-01-15 22:02:32.40	13.86	11.51	-35.1	-36.3	28.5	7.72e-01	0	30	0	89653248	44	6321
2026-01-15 22:02:33.37	13.65	11.52	-35.1	-36.4	28.4	7.72e-01	0	30	0	91226112	44	6360
2026-01-15 22:02:34.35	13.43	11.52	-35.2	-36.5	28.3	7.72e-01	0	30	0	93323264	44	6458
2026-01-15 22:02:35.32	13.22	11.53	-35.2	-36.4	28.4	7.72e-01	0	30	0	94896128	44	6411
2026-01-15 22:02:36.30	13.01	11.53	-35.1	-36.4	28.4	7.72e-01	0	30	0	96993280	44	6379
2026-01-15 22:02:37.28	12.80	11.53	-35.2	-36.5	28.3	7.72e-01	0	30	0	99090432	44	6444
2026-01-15 22:02:38.25	12.59	11.54	-35.2	-36.4	28.4	7.72e-01	0	30	0	100663296	44	6420
2026-01-15 22:02:39.23	12.38	11.54	-35.1	-36.4	28.4	7.72e-01	0	30	0	102760448	44	6370
2026-01-15 22:02:40.21	12.17	11.54	-35.2	-36.4	28.4	7.72e-01	0	30	0	104333312	44	6400
2026-01-15 22:02:41.19	11.95	11.54	-35.3	-36.6	28.3	7.72e-01	0	30	0	105906176	44	6512
2026-01-15 22:02:42.16	11.74	11.54	-35.3	-36.6	28.2	7.72e-01	0	30	0	108003328	44	6541
2026-01-15 22:02:43.14	11.53	11.54	-35.1	-36.4	28.5	7.72e-01	0	30	0	109576192	44	6360
2026-01-15 22:02:44.11	11.32	11.54	-35.2	-36.5	28.3	7.72e-01	0	30	0	111673344	44	6459
2026-01-15 22:02:45.09	11.11	11.54	-35.1	-36.3	28.5	7.72e-01	0	30	0	113246208	44	6340
2026-01-15 22:02:46.07	10.89	11.54	-35.1	-36.3	28.4	7.72e-01	0	30	0	115343360	44	6347
2026-01-15 22:02:47.04	10.68	11.54	-35.2	-36.4	28.4	7.72e-01	0	30	0	116916224	44	6399
2026-01-15 22:02:48.02	10.47	11.54	-35.2	-36.5	28.3	7.72e-01	0	30	0	119013376	44	6468
2026-01-15 22:02:48.99	10.26	11.54	-35.2	-36.5	28.4	7.72e-01	0	30	0	120586240	44	6437
2026-01-15 22:02:49.97	10.05	11.54	-35.1	-36.4	28.4	7.72e-01	0	30	0	122683392	44	6384
2026-01-15 22:02:50.95	9.84	11.54	-35.2	-36.5	28.3	7.72e-01	0	30	0	124256256	44	6446
2026-01-15 22:02:51.93	9.62	11.53	-35.2	-36.5	28.3	7.72e-01	0	30	0	126353408	44	6465
2026-01-15 22:02:52.91	9.41	11.53	-35.3	-36.5	28.2	7.72e-01	0	30	0	127926272	44	6487
2026-01-15 22:02:53.88	9.20	11.53	-35.1	-36.4	28.4	7.72e-01	0	30	0	130023424	44	6384
2026-01-15 22:02:54.86	8.99	11.53	-35.1	-36.4	28.4	7.72e-01	0	30	0	131596288	44	6374
2026-01-15 22:02:55.83	8.78	11.52	-35.2	-36.4	28.4	7.72e-01	0	30	0	133693440	44	6412
2026-01-15 22:02:56.81	8.57	11.52	-35.3	-36.5	28.3	7.72e-01	0	30	0	135266304	44	6481
2026-01-15 22:02:57.79	8.36	11.51	-35.3	-36.5	28.4	7.72e-01	0	30	0	137363456	44	6494
2026-01-15 22:02:58.77	8.14	11.51	-35.4	-36.6	28.2	7.72e-01	0	30	0	138936320	44	6563
2026-01-15 22:02:59.74	7.93	11.50	-35.3	-36.5	28.3	7.72e-01	0	30	0	141033472	44	6497
2026-01-15 22:03:00.72	7.72	11.50	-35.4	-36.7	28.3	7.72e-01	0	30	0	142606336	44	6596
2026-01-15 22:03:01.70	7.51	11.49	-35.2	-36.5	28.3	7.72e-01	0	30	0	144703488	44	6430
2026-01-15 22:03:02.68	7.30	11.48	-35.4	-36.6	28.3	7.72e-01	0	30	0	146276352	44	6563
2026-01-15 22:03:03.66	7.09	11.48	-35.2	-36.4	28.4	7.72e-01	0	30	0	148373504	44	6408
2026-01-15 22:03:04.63	6.88	11.47	-35.3	-36.6	28.3	7.72e-01	0	30	0	149946368	44	6536
2026-01-15 22:03:05.61	6.67	11.46	-35.3	-36.6	28.3	7.72e-01	0	30	0	152043520	44	6513
2026-01-15 22:03:06.59	6.46	11.46	-35.2	-36.5	28.4	7.72e-01	0	30	0	153616384	44	6430
2026-01-15 22:03:07.57	6.25	11.45	-35.1	-36.3	28.5	7.72e-01	0	30	0	155713536	44	6342
2026-01-15 22:03:08.55	6.03	11.44	-35.1	-36.4	28.3	7.72e-01	0	30	0	157286400	44	6377
2026-01-15 22:03:09.52	5.83	11.43	-35.2	-36.5	28.4	7.72e-01	0	30	0	159383552	44	6424
2026-01-15 22:03:10.50	5.62	11.42	-35.4	-36.7	28.1	7.72e-01	0	30	0	160956416	44	6595
2026-01-15 22:03:11.48	5.41	11.41	-35.2	-36.5	28.3	7.72e-01	0	30	0	163053568	44	6466
2026-01-15 22:03:12.46	5.19	11.40	-35.2	-36.5	28.3	7.72e-01	0	30	0	164626432	44	6462
2026-01-15 22:03:13.43	4.99	11.39	-35.1	-36.3	28.4	7.72e-01	0	30	0	166723584	44	6324
2026-01-15 22:03:14.41	4.78	11.38	-35.2	-36.5	28.4	7.72e-01	0	30	0	168296448	44	6432
2026-01-15 22:03:15.38	4.57	11.37	-35.3	-36.6	28.2	7.72e-01	0	30	0	170393600	44	6555
2026-01-15 22:03:16.35	4.36	11.36	-35.4	-36.6	28.2	7.72e-01	0	30	0	171966464	44	6571
2026-01-15 22:03:17.33	4.15	11.35	-35.5	-36.8	28.1	7.72e-01	0	30	0	174063616	44	6686
2026-01-15 22:03:18.31	3.94	11.34	-35.4	-36.7	28.1	7.72e-01	0	29	0	175636480	44	6625
2026-01-15 22:03:19.28	3.74	11.32	-35.4	-36.6	28.2	7.72e-01	0	30	0	177733632	44	6566
2026-01-15 22:03:20.26	3.53	11.31	-35.1	-36.3	28.4	7.72e-01	0	30	0	179306496	44	6349
2026-01-15 22:03:21.24	3.32	11.30	-35.1	-36.4	28.4	7.72e-01	0	30	0	181403648	44	6387
2026-01-15 22:03:22.21	3.11	11.28	-35.1	-36.4	28.4	7.72e-01	0	30	0	182976512	44	6353
2026-01-15 22:03:23.19	2.90	11.27	-35.2	-36.5	28.3	7.72e-01	0	30	0	185073664	44	6437
2026-01-15 22:03:24.17	2.70	11.26	-35.3	-36.6	28.3	7.72e-01	0	30	0	186646528	44	6528
2026-01-15 22:03:25.15	2.49	11.24	-35.2	-36.4	28.4	7.72e-01	0	30	0	188743680	44	6401
2026-01-15 22:03:26.12	2.28	11.23	-35.1	-36.4	28.4	7.72e-01	0	30	0	190316544	44	6382
2026-01-15 22:03:27.10	2.08	11.21	-35.0	-36.3	28.5	7.72e-01	0	30	0	192413696	44	6308
2026-01-15 22:03:28.07	1.87	11.20	-35.1	-36.4	28.4	7.72e-01	0	30	0	193986560	44	6388
2026-01-15 22:03:29.05	1.66	11.18	-35.1	-36.4	28.5	7.72e-01	0	30	0	196083712	44	6358
2026-01-15 22:03:30.03	1.46	11.17	-35.2	-36.5	28.3	7.72e-01	0	30	0	197656576	44	6472
2026-01-15 22:03:31.01	1.25	11.15	-35.2	-36.5	28.4	7.72e-01	0	30	0	199753728	44	6432
2026-01-15 22:03:31.99	1.04	11.13	-35.1	-36.3	28.5	7.72e-01	0	30	0	201326592	44	6329
2026-01-15 22:03:32.97	0.84	11.12	-35.1	-36.4	28.4	7.72e-01	0	30	0	203423744	44	6367
2026-01-15 22:03:33.95	0.63	11.10	-35.2	-36.5	28.4	7.72e-01	0	30	0	204996608	44	6428
2026-01-15 22:03:34.93	0.43	11.08	-35.3	-36.6	28.2	7.72e-01	0	30	0	207093760	44	6512
2026-01-15 22:03:35.90	0.22	11.06	-35.3	-36.6	28.3	7.72e-01	0	30	0	208666624	44	6509
2026-01-15 22:03:36.87	0.02	11.05	-35.1	-36.4	28.4	7.72e-01	0	30	0	210763776	44	6362
2026-01-15 22:03:37.85	359.82	11.03	-35.3	-36.5	28.4	7.72e-01	0	30	0	212336640	44	6479
2026-01-15 22:03:38.83	359.61	11.01	-35.0	-36.3	28.6	7.72e-01	0	30	0	214433792	44	6310
2026-01-15 22:03:39.81	359.41	10.99	-35.2	-36.4	28.4	7.72e-01	0	30	0	216006656	44	6417
2026-01-15 22:03:40.79	359.21	10.97	-35.4	-36.7	28.2	7.72e-01	0	30	0	218103808	44	6601
2026-01-15 22:03:41.76	359.00	10.95	-35.4	-36.7	28.2	7.72e-01	0	30	0	219676672	44	6623
2026-01-15 22:03:42.74	358.80	10.93	-35.3	-36.6	28.2	7.72e-01	0	30	0	221773824	44	6526
2026-01-15 22:03:43.72	358.60	10.91	-35.3	-36.5	28.3	7.72e-01	0	30	0	223346688	44	6491
2026-01-15 22:03:44.69	358.40	10.89	-35.2	-36.5	28.4	7.72e-01	0	30	0	225443840	44	6448
2026-01-15 22:03:45.67	358.20	10.87	-35.4	-36.6	28.3	7.72e-01	0	30	0	227016704	44	6566
2026-01-15 22:03:46.65	357.99	10.85	-35.2	-36.5	28.3	7.72e-01	0	30	0	229113856	44	6439
2026-01-15 22:03:47.63	357.79	10.82	-35.3	-36.5	28.2	7.72e-01	0	30	0	230686720	44	6483
2026-01-15 22:03:48.60	357.59	10.80	-35.3	-36.5	28.3	7.72e-01	0	30	0	232783872	44	6479
2026-01-15 22:03:49.58	357.39	10.78	-35.4	-36.7	28.1	7.72e-01	0	30	0	234356736	44	6609
2026-01-15 22:03:50.56	357.19	10.76	-35.3	-36.6	28.2	7.72e-01	0	30	0	236453888	44	6546
2026-01-15 22:03:51.54	356.99	10.74	-35.3	-36.6	28.2	7.72e-01	0	30	0	238026752	44	6505
2026-01-15 22:03:52.52	356.79	10.71	-35.2	-36.5	28.3	7.72e-01	0	30	0	239599616	44	6471
2026-01-15 22:03:53.49	356.59	10.69	-35.4	-36.7	28.1	7.72e-01	0	30	0	241696768	44	6620
2026-01-15 22:03:54.47	356.40	10.67	-35.3	-36.6	28.3	7.72e-01	0	30	0	243269632	44	6501
2026-01-15 22:03:55.45	356.20	10.64	-35.3	-36.5	28.3	7.72e-01	0	30	0	245366784	44	6483
2026-01-15 22:03:56.43	356.00	10.62	-35.4	-36.6	28.2	7.72e-01	0	30	0	247463936	44	6560
2026-01-15 22:03:57.41	355.80	10.59	-35.3	-36.6	28.2	7.72e-01	0	30	0	249036800	44	6518
2026-01-15 22:03:58.38	355.60	10.57	-35.4	-36.7	28.1	7.72e-01	0	30	0	251133952	44	6617
2026-01-15 22:03:59.36	355.41	10.54	-35.5	-36.8	28.1	7.72e-01	0	30	0	252706816	44	6652
2026-01-15 22:04:00.33	355.21	10.52	-35.4	-36.7	28.1	7.72e-01	0	30	0	254803968	44	6642
2026-01-15 22:04:01.31	355.02	10.49	-35.6	-36.9	28.0	7.72e-01	0	30	0	256376832	44	6739
2026-01-15 22:04:02.29	354.82	10.47	-35.6	-36.9	27.9	7.72e-01	0	30	0	258473984	44	6787
2026-01-15 22:04:03.27	354.62	10.44	-35.6	-36.9	28.0	7.72e-01	0	30	0	260046848	44	6736
2026-01-15 22:04:04.24	354.43	10.41	-35.3	-36.6	28.2	7.72e-01	0	30	0	261619712	44	6514
2026-01-15 22:04:05.22	354.24	10.39	-35.2	-36.4	28.3	7.72e-01	0	30	0	263716864	44	6405
2026-01-15 22:04:06.20	354.04	10.36	-35.4	-36.6	28.1	7.72e-01	0	30	0	265289728	44	6567
2026-01-15 22:04:07.18	353.85	10.33	-35.4	-36.7	28.2	7.72e-01	0	30	0	267386880	44	6580
2026-01-15 22:04:08.16	353.65	10.30	-35.5	-36.8	28.0	7.72e-01	0	29	0	268959744	44	6697
2026-01-15 22:04:09.13	353.46	10.28	-35.7	-37.0	27.9	7.72e-01	0	30	0	271056896	44	6843
2026-01-15 22:04:10.11	353.27	10.25	-35.6	-36.9	28.0	7.72e-01	0	30	0	272629760	44	6737
2026-01-15 22:04:11.09	353.08	10.22	-35.5	-36.8	28.1	7.72e-01	0	30	0	274726912	44	6653
2026-01-15 22:04:12.07	352.88	10.19	-35.5	-36.8	28.0	7.72e-01	0	30	0	276299776	44	6698
2026-01-15 22:04:13.04	352.69	10.16	-35.5	-36.8	28.0	7.72e-01	0	29	0	278396928	44	6709
2026-01-15 22:04:14.02	352.50	10.13	-35.4	-36.7	28.1	7.72e-01	0	30	0	279969792	44	6619
2026-01-15 22:04:15.00	352.31	10.10	-35.5	-36.8	28.1	7.72e-01	0	29	0	282066944	44	6653
2026-01-15 22:04:15.98	352.12	10.08	-35.4	-36.7	28.1	7.72e-01	0	30	0	284164096	44	6627
2026-01-15 22:04:16.96	351.93	10.05	-35.8	-37.1	27.8	7.72e-01	0	30	0	285736960	44	6905
2026-01-15 22:04:17.93	351.74	10.02	-35.6	-36.9	27.9	7.72e-01	0	29	0	287309824	44	6778
2026-01-15 22:04:18.91	351.55	9.98	-35.9	-37.2	27.7	7.72e-01	0	30	0	289406976	46	6268
2026-01-15 22:04:19.89	351.36	9.95	-35.9	-37.2	27.5	7.72e-01	0	30	0	290979840	46	6257
2026-01-15 22:04:20.86	351.18	9.92	-36.2	-37.5	27.3	7.72e-01	0	30	0	293076992	46	6480
2026-01-15 22:04:21.84	350.99	9.89	-35.9	-37.2	27.6	7.72e-01	0	30	0	294649856	46	6262
2026-01-15 22:04:22.82	350.80	9.86	-36.1	-37.4	27.3	7.72e-01	0	30	0	296747008	46	6415
2026-01-15 22:04:23.79	350.62	9.83	-35.8	-37.1	27.8	7.72e-01	0	30	0	298319872	46	6157
2026-01-15 22:04:24.77	350.43	9.80	-35.9	-37.2	27.6	7.72e-01	0	30	0	300417024	46	6263
2026-01-15 22:04:25.74	350.25	9.77	-35.9	-37.2	27.6	7.72e-01	0	30	0	301989888	46	6274
2026-01-15 22:04:26.72	350.06	9.73	-36.5	-37.8	27.1	7.72e-01	0	29	0	304087040	46	6724
2026-01-15 22:04:27.70	349.88	9.70	-36.0	-37.3	27.6	7.72e-01	0	30	0	305659904	46	6288
2026-01-15 22:04:28.68	349.69	9.67	-36.8	-38.2	26.8	7.72e-01	0	29	0	307757056	46	6999
2026-01-15 22:04:29.66	349.51	9.64	-35.6	-36.9	27.9	7.72e-01	0	30	0	309329920	46	6017
2026-01-15 22:04:30.63	349.32	9.60	-36.3	-37.7	27.2	7.72e-01	0	29	0	311427072	46	6586
2026-01-15 22:04:31.61	349.14	9.57	-35.4	-36.6	28.1	7.72e-01	0	29	0	312999936	46	5830
2026-01-15 22:04:32.59	348.96	9.54	-36.1	-37.4	27.4	7.72e-01	0	30	0	315097088	46	6414
2026-01-15 22:04:33.57	348.77	9.50	-35.5	-36.7	28.0	7.72e-01	0	29	0	316669952	46	5919
2026-01-15 22:04:34.55	348.59	9.47	-36.5	-37.8	27.1	7.72e-01	0	30	0	318767104	46	6719
2026-01-15 22:04:35.53	348.41	9.44	-35.6	-36.8	28.0	7.72e-01	0	29	0	320339968	46	5956
2026-01-15 22:04:36.50	348.23	9.40	-37.1	-38.6	26.3	7.72e-01	0	29	0	322437120	46	7325
2026-01-15 22:04:37.48	348.05	9.37	-35.6	-36.8	28.0	7.72e-01	0	29	0	324009984	46	5966
2026-01-15 22:04:38.46	347.87	9.33	-37.1	-38.6	26.3	7.72e-01	0	29	0	326107136	46	7369
2026-01-15 22:04:39.43	347.69	9.30	-35.6	-36.9	27.8	7.72e-01	0	29	0	327680000	46	5998
2026-01-15 22:04:40.41	347.51	9.26	-37.2	-38.7	26.1	7.72e-01	0	29	0	329777152	48	6612
2026-01-15 22:04:41.38	347.34	9.23	-35.5	-36.7	28.0	7.72e-01	0	29	0	331350016	46	5916
2026-01-15 22:04:42.36	347.16	9.19	-37.0	-38.4	26.1	7.72e-01	0	29	0	333447168	46	7201
2026-01-15 22:04:43.34	346.98	9.16	-35.4	-36.6	28.2	7.72e-01	0	29	0	335020032	46	5833
2026-01-15 22:04:44.32	346.80	9.12	-36.4	-37.8	27.0	7.72e-01	0	29	0	337117184	46	6716
2026-01-15 22:04:45.30	346.63	9.08	-35.8	-37.1	27.7	7.72e-01	0	29	0	338690048	46	6140
2026-01-15 22:04:46.28	346.45	9.05	-36.7	-38.1	26.8	7.72e-01	0	29	0	340787200	46	6889
2026-01-15 22:04:47.25	346.28	9.01	-36.1	-37.4	27.4	7.72e-01	0	29	0	342360064	48	5703
2026-01-15 22:04:48.23	346.10	8.97	-36.7	-38.1	26.6	7.72e-01	0	29	0	344457216	46	6926
2026-01-15 22:04:49.21	345.93	8.94	-35.9	-37.2	27.5	7.72e-01	0	29	0	346030080	48	5567
2026-01-15 22:04:50.19	345.75	8.90	-36.3	-37.7	27.1	7.72e-01	0	29	0	348127232	46	6600
2026-01-15 22:04:51.17	345.58	8.86	-36.1	-37.5	27.3	7.72e-01	0	29	0	349700096	46	6425
2026-01-15 22:04:52.14	345.41	8.83	-36.1	-37.5	27.3	7.72e-01	0	29	0	351797248	46	6434
2026-01-15 22:04:53.12	345.23	8.79	-36.3	-37.6	27.2	7.72e-01	0	29	0	353370112	46	6548
2026-01-15 22:04:54.10	345.06	8.75	-35.9	-37.2	27.6	7.72e-01	0	29	0	355467264	46	6246
2026-01-15 22:04:55.07	344.89	8.71	-36.5	-37.9	26.9	7.72e-01	0	29	0	357040128	46	6750
2026-01-15 22:04:56.05	344.72	8.68	-35.9	-37.1	27.7	7.72e-01	0	29	0	359137280	46	6197
2026-01-15 22:04:57.03	344.55	8.64	-36.8	-38.2	26.7	7.72e-01	0	29	0	360710144	46	7009
2026-01-15 22:04:58.00	344.38	8.60	-36.0	-37.2	27.4	7.72e-01	0	29	0	362807296	46	6273
2026-01-15 22:04:58.98	344.21	8.56	-36.6	-37.9	26.9	7.72e-01	0	29	0	364380160	46	6793
2026-01-15 22:04:59.95	344.04	8.52	-36.2	-37.5	27.3	7.72e-01	0	29	0	366477312	46	6474
2026-01-15 22:05:00.93	343.87	8.48	-36.5	-37.8	27.0	7.72e-01	0	29	0	368050176	46	6696
2026-01-15 22:05:01.91	343.70	8.44	-36.4	-37.7	27.1	7.72e-01	0	29	0	370147328	46	6627
2026-01-15 22:05:02.89	343.53	8.41	-36.3	-37.7	27.1	7.72e-01	0	29	0	371720192	46	6602
2026-01-15 22:05:03.86	343.37	8.37	-36.9	-38.3	26.4	7.72e-01	0	29	0	373817344	48	6344
2026-01-15 22:05:04.84	343.20	8.33	-36.6	-38.0	26.8	7.72e-01	0	29	0	375390208	48	6067
2026-01-15 22:05:05.82	343.04	8.29	-37.1	-38.6	26.3	7.72e-01	0	29	0	377487360	48	6524
2026-01-15 22:05:06.79	342.87	8.25	-36.6	-38.0	26.9	7.72e-01	0	29	0	379060224	48	6078
2026-01-15 22:05:07.77	342.71	8.21	-36.3	-37.7	27.1	7.72e-01	0	29	0	381157376	48	5862
2026-01-15 22:05:08.74	342.54	8.17	-36.4	-37.8	27.0	7.72e-01	0	29	0	382730240	48	5937
2026-01-15 22:05:09.72	342.38	8.13	-36.2	-37.5	27.2	7.72e-01	0	29	0	384827392	48	5789
2026-01-15 22:05:10.70	342.21	8.09	-36.7	-38.1	26.7	7.72e-01	0	29	0	386400256	48	6160
2026-01-15 22:05:11.68	342.05	8.05	-36.4	-37.7	27.0	7.72e-01	0	29	0	388497408	48	5907
2026-01-15 22:05:12.65	341.89	8.01	-36.8	-38.2	26.5	7.72e-01	0	29	0	390070272	48	6277
2026-01-15 22:05:13.63	341.73	7.97	-36.6	-38.0	26.7	7.72e-01	0	29	0	392167424	48	6082
2026-01-15 22:05:14.60	341.57	7.93	-36.6	-38.0	26.8	7.72e-01	0	29	0	393740288	48	6119
2026-01-15 22:05:15.58	341.40	7.89	-36.4	-37.7	27.0	7.72e-01	0	29	0	395837440	48	5906
2026-01-15 22:05:16.56	341.24	7.84	-36.4	-37.8	26.9	7.72e-01	0	29	0	397410304	48	5961
2026-01-15 22:05:17.54	341.08	7.80	-36.4	-37.8	26.9	7.72e-01	0	29	0	399507456	48	5952
2026-01-15 22:05:18.51	340.92	7.76	-36.4	-37.8	26.9	7.72e-01	0	29	0	401080320	48	5943
2026-01-15 22:05:19.49	340.76	7.72	-36.7	-38.1	26.5	7.72e-01	0	29	0	403177472	48	6195
2026-01-15 22:05:20.47	340.60	7.68	-36.5	-37.9	26.9	7.72e-01	0	29	0	404750336	48	6010
2026-01-15 22:05:21.44	340.45	7.64	-36.7	-38.2	26.6	7.72e-01	0	29	0	406847488	48	6207
2026-01-15 22:05:22.42	340.29	7.60	-36.6	-38.0	26.8	7.72e-01	0	29	0	408420352	48	6065
2026-01-15 22:05:23.40	340.13	7.55	-36.4	-37.8	26.8	7.72e-01	0	29	0	410517504	48	5936
2026-01-15 22:05:24.38	339.98	7.51	-37.0	-38.4	26.3	7.72e-01	0	29	0	412090368	48	6404
2026-01-15 22:05:25.36	339.82	7.47	-36.9	-38.3	26.5	7.72e-01	0	29	0	414187520	48	6286
2026-01-15 22:05:26.34	339.66	7.43	-37.0	-38.4	26.4	7.72e-01	0	29	0	415760384	48	6390
2026-01-15 22:05:27.31	339.51	7.39	-36.6	-38.0	26.6	7.72e-01	0	29	0	417333248	48	6095
2026-01-15 22:05:28.29	339.35	7.34	-36.9	-38.3	26.5	7.72e-01	0	29	0	419430400	48	6297
2026-01-15 22:05:29.27	339.20	7.30	-37.0	-38.5	26.5	7.72e-01	0	29	0	421003264	48	6431
2026-01-15 22:05:30.24	339.05	7.26	-37.0	-38.4	26.2	7.72e-01	0	29	0	423100416	48	6416
2026-01-15 22:05:31.22	338.89	7.21	-37.0	-38.4	26.5	7.72e-01	0	29	0	424673280	48	6366
2026-01-15 22:05:32.20	338.74	7.17	-37.1	-38.6	26.1	7.72e-01	0	29	0	426770432	48	6546
2026-01-15 22:05:33.18	338.59	7.13	-36.6	-38.0	26.7	7.72e-01	0	29	0	428867584	48	6085
2026-01-15 22:05:34.16	338.44	7.09	-36.8	-38.2	26.3	7.72e-01	0	29	0	430440448	48	6251
2026-01-15 22:05:35.13	338.29	7.04	-37.1	-38.6	25.9	7.72e-01	0	29	0	432537600	48	6524
2026-01-15 22:05:36.11	338.13	7.00	-37.1	-38.5	26.2	7.72e-01	0	29	0	434110464	48	6427
2026-01-15 22:05:37.09	337.98	6.96	-37.9	-39.5	25.2	7.72e-01	0	29	0	436207616	48	7285
2026-01-15 22:05:38.07	337.83	6.91	-37.1	-38.5	26.1	7.72e-01	0	29	0	437780480	48	6446
2026-01-15 22:05:39.04	337.69	6.87	-37.8	-39.4	25.4	7.72e-01	0	29	0	439877632	48	7142
2026-01-15 22:05:40.02	337.54	6.83	-37.4	-38.9	25.8	7.72e-01	0	29	0	441450496	48	6743
2026-01-15 22:05:41.00	337.39	6.78	-37.5	-38.9	25.6	7.72e-01	0	29	0	443023360	48	6802
2026-01-15 22:05:41.97	337.24	6.74	-37.1	-38.5	26.1	7.72e-01	0	29	0	445120512	48	6480
2026-01-15 22:05:42.95	337.09	6.69	-36.8	-38.2	26.4	7.72e-01	0	29	0	446693376	48	6230
2026-01-15 22:05:43.93	336.95	6.65	-37.3	-38.7	25.8	7.72e-01	0	29	0	448790528	48	6647
2026-01-15 22:05:44.90	336.80	6.61	-37.0	-38.4	26.3	7.72e-01	0	29	0	450363392	48	6370
2026-01-15 22:05:45.88	336.66	6.56	-37.3	-38.8	25.8	7.72e-01	0	29	0	452460544	48	6651
2026-01-15 22:05:46.86	336.51	6.52	-37.1	-38.5	26.1	7.72e-01	0	29	0	454033408	48	6465
2026-01-15 22:05:47.84	336.36	6.47	-37.2	-38.7	26.1	7.72e-01	0	29	0	456130560	48	6578
2026-01-15 22:05:48.81	336.22	6.43	-37.0	-38.5	26.1	7.72e-01	0	29	0	457703424	48	6438
2026-01-15 22:05:49.79	336.08	6.39	-36.6	-38.0	26.4	7.72e-01	0	29	0	459800576	48	6115
2026-01-15 22:05:50.77	335.93	6.34	-37.2	-38.8	25.7	7.72e-01	0	29	0	461373440	48	6657
2026-01-15 22:05:51.75	335.79	6.30	-36.6	-38.0	26.4	7.72e-01	0	29	0	463470592	48	6103
2026-01-15 22:05:52.73	335.65	6.25	-37.5	-39.1	25.4	7.72e-01	0	29	0	465567744	48	6892
2026-01-15 22:05:53.70	335.51	6.21	-37.4	-39.0	25.2	7.72e-01	0	29	0	467140608	48	6812
2026-01-15 22:05:54.68	335.37	6.16	-37.4	-38.8	25.5	7.72e-01	0	29	0	468713472	48	6704
2026-01-15 22:05:55.66	335.22	6.12	-38.2	-39.9	24.4	7.72e-01	0	29	0	470810624	50	6784
2026-01-15 22:05:56.64	335.08	6.07	-37.6	-39.1	25.0	7.72e-01	0	29	0	472383488	50	6164
2026-01-15 22:05:57.62	334.94	6.03	-37.8	-39.3	24.8	7.72e-01	0	29	0	474480640	50	6330
2026-01-15 22:05:58.60	334.80	5.98	-38.4	-40.1	24.0	7.72e-01	0	29	0	476053504	50	6905
2026-01-15 22:05:59.57	334.67	5.94	-38.2	-39.9	24.1	7.72e-01	0	29	0	478150656	50	6771
2026-01-15 22:06:00.55	334.53	5.89	-38.5	-40.3	23.5	7.72e-01	0	29	0	479723520	50	7073
2026-01-15 22:06:01.53	334.39	5.85	-38.6	-40.4	23.3	7.72e-01	0	29	0	481820672	50	7206
2026-01-15 22:06:02.51	334.25	5.80	-38.8	-40.6	23.1	7.72e-01	0	29	0	483393536	50	7317
2026-01-15 22:06:03.48	334.11	5.76	-38.9	-40.7	23.0	7.72e-01	0	29	0	485490688	50	7449
2026-01-15 22:06:04.46	333.98	5.71	-38.8	-40.6	23.0	7.72e-01	0	29	0	487063552	52	6568
2026-01-15 22:06:05.44	333.84	5.67	-38.9	-40.8	22.9	7.72e-01	0	29	0	489160704	52	6688
2026-01-15 22:06:06.42	333.71	5.62	-38.8	-40.6	23.2	7.72e-01	0	29	0	490733568	52	6570
2026-01-15 22:06:07.39	333.57	5.58	-38.9	-40.7	23.0	7.72e-01	0	29	0	492830720	52	6639
2026-01-15 22:06:08.37	333.44	5.53	-38.9	-40.8	22.8	7.72e-01	0	29	0	494403584	52	6699
2026-01-15 22:06:09.35	333.30	5.48	-38.7	-40.5	23.2	7.72e-01	0	29	0	496500736	52	6477
2026-01-15 22:06:10.33	333.17	5.44	-38.8	-40.6	23.2	7.72e-01	0	29	0	498073600	52	6539
2026-01-15 22:06:11.31	333.03	5.39	-38.9	-40.8	23.0	7.72e-01	0	29	0	500170752	52	6698
2026-01-15 22:06:12.28	332.90	5.35	-38.8	-40.6	23.5	7.72e-01	0	29	0	501743616	52	6526
2026-01-15 22:06:13.26	332.77	5.30	-38.6	-40.4	23.5	7.72e-01	0	29	0	503840768	52	6377
2026-01-15 22:06:14.24	332.64	5.25	-38.6	-40.4	23.7	7.72e-01	0	29	0	505413632	52	6352
2026-01-15 22:06:15.22	332.51	5.21	-38.2	-39.9	24.2	7.72e-01	0	29	0	507510784	52	6029
2026-01-15 22:06:16.19	332.38	5.16	-38.6	-40.3	23.9	7.72e-01	0	29	0	509083648	52	6340
2026-01-15 22:06:17.17	332.24	5.12	-38.5	-40.2	24.0	7.72e-01	0	29	0	511180800	52	6251
2026-01-15 22:06:18.15	332.11	5.07	-37.5	-39.1	25.2	7.72e-01	0	29	0	512753664	50	6136
2026-01-15 22:06:19.12	331.99	5.03	-37.9	-39.5	24.8	7.72e-01	0	29	0	514850816	50	6427
2026-01-15 22:06:20.10	331.86	4.98	-38.1	-39.7	24.6	7.72e-01	0	29	0	516423680	50	6589
2026-01-15 22:06:21.08	331.73	4.93	-37.6	-39.1	25.2	7.72e-01	0	29	0	518520832	50	6160
2026-01-15 22:06:22.05	331.60	4.89	-37.5	-39.0	25.3	7.72e-01	0	29	0	520093696	50	6082
2026-01-15 22:06:23.03	331.47	4.84	-37.7	-39.2	25.2	7.72e-01	0	29	0	522190848	50	6273
2026-01-15 22:06:24.00	331.35	4.79	-37.6	-39.2	25.2	7.72e-01	0	29	0	523763712	50	6231
2026-01-15 22:06:24.98	331.22	4.75	-37.8	-39.3	25.1	7.72e-01	0	29	0	525860864	50	6344
2026-01-15 22:06:25.95	331.09	4.70	-37.9	-39.4	25.0	7.72e-01	0	29	0	527433728	50	6390
2026-01-15 22:06:26.93	330.97	4.66	-38.1	-39.7	24.8	7.72e-01	0	29	0	529530880	50	6628
2026-01-15 22:06:27.91	330.84	4.61	-38.0	-39.5	24.9	7.72e-01	0	29	0	531103744	50	6475
2026-01-15 22:06:28.89	330.72	4.56	-37.2	-38.7	25.8	7.72e-01	0	29	0	533200896	50	5873
2026-01-15 22:06:29.86	330.59	4.52	-37.3	-38.8	25.5	7.72e-01	0	29	0	534773760	50	5949
2026-01-15 22:06:30.84	330.47	4.47	-38.0	-39.6	24.8	7.72e-01	0	29	0	536870912	50	6534
2026-01-15 22:06:31.82	330.34	4.42	-37.4	-39.0	25.4	7.72e-01	0	29	0	538443776	50	6068
2026-01-15 22:06:32.79	330.22	4.38	-37.3	-38.8	25.6	7.72e-01	0	29	0	540540928	50	5984
2026-01-15 22:06:33.77	330.10	4.33	-37.9	-39.5	24.9	7.72e-01	0	29	0	542113792	50	6441
2026-01-15 22:06:34.75	329.98	4.28	-37.9	-39.5	24.8	7.72e-01	0	29	0	544210944	50	6486
2026-01-15 22:06:35.73	329.85	4.24	-37.7	-39.2	25.1	7.72e-01	0	29	0	545783808	50	6222
2026-01-15 22:06:36.71	329.73	4.19	-38.0	-39.5	24.9	7.72e-01	0	29	0	547880960	50	6481
2026-01-15 22:06:37.68	329.61	4.14	-37.8	-39.4	25.0	7.72e-01	0	29	0	549453824	50	6385
2026-01-15 22:06:38.66	329.49	4.10	-37.9	-39.5	25.0	7.72e-01	0	29	0	551550976	50	6448
2026-01-15 22:06:39.64	329.37	4.05	-37.8	-39.4	25.0	7.72e-01	0	29	0	553123840	50	6378
2026-01-15 22:06:40.61	329.25	4.00	-38.0	-39.6	24.8	7.72e-01	0	29	0	555220992	50	6528
2026-01-15 22:06:41.60	329.13	3.96	-37.8	-39.4	25.0	7.72e-01	0	29	0	556793856	50	6406
2026-01-15 22:06:42.57	329.01	3.91	-37.5	-39.0	25.3	7.72e-01	0	29	0	558891008	50	6107
2026-01-15 22:06:43.55	328.89	3.86	-38.0	-39.5	24.8	7.72e-01	0	29	0	560463872	50	6480
2026-01-15 22:06:44.53	328.77	3.82	-38.1	-39.7	24.6	7.72e-01	0	29	0	562561024	50	6639
2026-01-15 22:06:45.50	328.66	3.77	-37.6	-39.2	25.1	7.72e-01	0	29	0	564133888	50	6216
2026-01-15 22:06:46.48	328.54	3.72	-37.3	-38.8	25.4	7.72e-01	0	29	0	566231040	50	5954
2026-01-15 22:06:47.46	328.42	3.68	-37.8	-39.4	24.8	7.72e-01	0	29	0	567803904	50	6362
2026-01-15 22:06:48.44	328.31	3.63	-38.3	-40.0	24.3	7.72e-01	0	29	0	569901056	50	6816
2026-01-15 22:06:49.42	328.19	3.58	-38.3	-40.0	24.3	7.72e-01	0	29	0	571473920	50	6807
2026-01-15 22:06:50.39	328.08	3.54	-38.2	-39.8	24.5	7.72e-01	0	29	0	573571072	50	6691
2026-01-15 22:06:51.37	327.96	3.49	-37.9	-39.4	24.8	7.72e-01	0	29	0	575143936	50	6409
2026-01-15 22:06:52.34	327.85	3.44	-38.1	-39.8	24.5	7.72e-01	0	29	0	577241088	50	6672
2026-01-15 22:06:53.32	327.73	3.40	-38.1	-39.8	24.4	7.72e-01	0	29	0	578813952	50	6698
2026-01-15 22:06:54.30	327.62	3.35	-38.0	-39.6	24.6	7.72e-01	0	29	0	580911104	50	6567
2026-01-15 22:06:55.28	327.50	3.30	-37.5	-39.0	25.3	7.72e-01	0	29	0	582483968	50	6070
2026-01-15 22:06:56.25	327.39	3.25	-38.4	-40.0	24.1	7.72e-01	0	29	0	584581120	50	6864
2026-01-15 22:06:57.23	327.28	3.21	-38.9	-40.7	23.7	7.72e-01	0	29	0	586153984	50	7430
2026-01-15 22:06:58.20	327.17	3.16	-38.7	-40.4	23.8	7.72e-01	0	29	0	588251136	50	7193
2026-01-15 22:06:59.18	327.05	3.11	-38.3	-39.9	24.3	7.72e-01	0	29	0	589824000	50	6761
2026-01-15 22:07:00.16	326.94	3.07	-39.1	-40.8	23.2	7.72e-01	0	29	0	591921152	50	7517
2026-01-15 22:07:01.13	326.83	3.02	-39.1	-41.0	23.2	7.72e-01	0	29	0	593494016	52	6808
2026-01-15 22:07:02.11	326.72	2.97	-47.2	-65.4	3.5	7.72e-01	0	29	104	594018304	60	72009
2026-01-15 22:07:03.08	326.61	2.93	-48.1	-65.9	3.5	7.72e-01	0	29	104	594018304	60	75932
2026-01-15 22:07:04.06	326.50	2.88	-48.0	-66.2	3.5	7.72e-01	0	29	104	594018304	60	78667
2026-01-15 22:07:05.04	326.39	2.83	-48.3	-66.4	3.5	7.72e-01	0	29	104	594018304	60	80393
2026-01-15 22:07:06.02	326.28	2.79	-48.5	-66.5	3.5	7.72e-01	0	29	104	594018304	60	81750
2026-01-15 22:07:07.00	326.17	2.74	-48.2	-66.6	3.5	7.72e-01	0	29	104	594018304	60	82237
2026-01-15 22:07:07.97	326.07	2.69	-48.4	-66.7	3.5	7.72e-01	0	29	104	594018304	60	82784
2026-01-15 22:07:08.95	325.96	2.64	-48.4	-66.6	3.5	7.72e-01	0	29	104	594018304	60	82225
2026-01-15 22:07:09.93	325.85	2.60	-48.4	-66.7	3.5	7.72e-01	0	29	104	594018304	60	82811
2026-01-15 22:07:10.90	325.74	2.55	-48.5	-66.7	3.5	7.72e-01	0	29	104	594018304	60	83286
2026-01-15 22:07:11.88	325.64	2.50	-48.4	-66.7	3.5	7.72e-01	0	29	104	594018304	60	82941
2026-01-15 22:07:12.86	325.53	2.46	-48.6	-66.6	3.5	7.72e-01	0	29	104	594018304	60	82050
2026-01-15 22:07:13.84	325.42	2.41	-48.5	-66.5	3.5	7.72e-01	0	29	104	594018304	60	81754
2026-01-15 22:07:14.81	325.32	2.36	-48.4	-66.4	3.5	7.72e-01	0	29	104	594018304	60	80781
2026-01-15 22:07:15.79	325.21	2.32	-48.6	-66.5	3.5	7.72e-01	0	29	104	594018304	60	81261
2026-01-15 22:07:16.77	325.11	2.27	-48.1	-66.6	3.5	7.72e-01	0	29	104	594018304	60	81987
2026-01-15 22:07:17.75	325.00	2.22	-48.7	-66.6	3.5	7.72e-01	0	29	104	594018304	60	82528
2026-01-15 22:07:18.73	324.90	2.17	-48.7	-66.6	3.5	7.72e-01	0	29	104	594018304	60	82024
2026-01-15 22:07:19.70	324.80	2.13	-48.6	-66.5	3.5	7.72e-01	0	29	104	594018304	60	81726
2026-01-15 22:07:20.68	324.69	2.08	-48.6	-66.6	3.5	7.72e-01	0	29	104	594018304	60	81884
2026-01-15 22:07:21.66	324.59	2.03	-48.6	-66.6	3.5	7.72e-01	0	29	104	594018304	60	81907
2026-01-15 22:07:22.64	324.49	1.99	-48.6	-66.5	3.5	7.72e-01	0	29	104	594018304	60	81524
2026-01-15 22:07:23.62	324.38	1.94	-48.6	-66.6	3.5	7.72e-01	0	29	104	594018304	60	81808
2026-01-15 22:07:24.60	324.28	1.89	-48.6	-66.5	3.5	7.72e-01	0	29	104	594018304	60	81613
2026-01-15 22:07:25.57	324.18	1.85	-48.6	-66.5	3.5	7.72e-01	0	29	104	594018304	60	81472
2026-01-15 22:07:26.55	324.08	1.80	-48.6	-66.6	3.5	7.72e-01	0	29	104	594018304	60	82291
2026-01-15 22:07:27.53	323.98	1.75	-48.6	-66.6	3.5	7.72e-01	0	29	104	594018304	60	81833
2026-01-15 22:07:28.51	323.88	1.71	-48.6	-66.6	3.5	7.72e-01	0	29	104	594018304	60	81948
2026-01-15 22:07:29.49	323.78	1.66	-48.6	-66.5	3.5	7.72e-01	0	29	104	594018304	60	81384
2026-01-15 22:07:30.47	323.68	1.61	-48.6	-66.5	3.5	7.72e-01	0	29	104	594018304	60	81730
2026-01-15 22:07:31.44	323.58	1.56	-48.6	-66.5	3.5	7.72e-01	0	29	104	594018304	60	81446
2026-01-15 22:07:32.42	323.48	1.52	-48.6	-66.5	3.5	7.72e-01	0	29	104	594018304	60	81586
2026-01-15 22:07:33.40	323.38	1.47	-48.6	-66.5	3.5	7.72e-01	0	29	104	594018304	60	81668
2026-01-15 22:07:34.37	323.28	1.42	-48.6	-66.5	3.5	7.72e-01	0	29	104	594018304	60	81664
2026-01-15 22:07:35.35	323.18	1.38	-48.6	-66.5	3.5	7.72e-01	0	29	104	594018304	60	81276
2026-01-15 22:07:36.33	323.09	1.33	-48.6	-66.5	3.5	7.72e-01	0	29	104	594018304	60	80934
2026-01-15 22:07:37.31	322.99	1.28	-48.6	-66.4	3.5	7.72e-01	0	29	104	594018304	60	80852
2026-01-15 22:07:38.29	322.89	1.24	-48.6	-66.5	3.5	7.72e-01	0	29	104	594018304	60	81355
2026-01-15 22:07:39.26	322.80	1.19	-48.6	-66.5	3.5	7.72e-01	0	29	104	594018304	60	81736
2026-01-15 22:07:40.23	322.70	1.14	-48.6	-66.5	3.5	7.72e-01	0	29	104	594018304	60	81132
2026-01-15 22:07:41.21	322.60	1.10	-48.6	-66.5	3.5	7.72e-01	0	29	104	594018304	60	81525
2026-01-15 22:07:42.19	322.51	1.05	-48.6	-66.6	3.5	7.72e-01	0	29	104	594018304	60	81822
2026-01-15 22:07:43.17	322.41	1.00	-48.6	-66.5	3.5	7.72e-01	0	29	104	594018304	60	81259
2026-01-15 22:07:44.14	322.32	0.96	-48.6	-66.5	3.5	7.72e-01	0	29	104	594018304	60	81694
2026-01-15 22:07:45.12	322.22	0.91	-48.5	-66.5	3.5	7.72e-01	0	29	104	594018304	60	80994
2026-01-15 22:07:46.09	322.13	0.86	-48.6	-66.5	3.5	7.72e-01	0	29	104	594018304	60	81230
2026-01-15 22:07:47.08	322.04	0.82	-48.6	-66.5	3.5	7.72e-01	0	29	104	594018304	60	81461
2026-01-15 22:07:48.05	321.94	0.77	-48.6	-66.5	3.5	7.72e-01	0	29	104	594018304	60	81384
2026-01-15 22:07:49.03	321.85	0.72	-48.6	-66.6	3.5	7.72e-01	0	29	104	594018304	60	82092
2026-01-15 22:07:50.01	321.76	0.68	-48.5	-66.4	3.5	7.72e-01	0	29	104	594018304	60	80790
2026-01-15 22:07:50.98	321.66	0.63	-48.7	-66.6	3.5	7.72e-01	0	29	104	594018304	60	81852
2026-01-15 22:07:51.96	321.57	0.58	-48.7	-66.6	3.5	7.72e-01	0	29	104	594018304	60	82206
2026-01-15 22:07:52.94	321.48	0.54	-48.6	-66.6	3.6	7.72e-01	0	29	104	594018304	60	81960
2026-01-15 22:07:53.91	321.39	0.49	-48.6	-66.5	3.5	7.72e-01	0	29	104	594018304	60	81576
2026-01-15 22:07:54.89	321.30	0.44	-48.7	-66.5	3.5	7.72e-01	0	29	104	594018304	60	81695
2026-01-15 22:07:55.87	321.21	0.40	-48.6	-66.5	3.5	7.72e-01	0	29	104	594018304	60	81745
2026-01-15 22:07:56.84	321.12	0.35	-48.6	-66.5	3.5	7.72e-01	0	29	104	594018304	60	81432
2026-01-15 22:07:57.82	321.03	0.30	-48.6	-66.5	3.5	7.72e-01	0	29	104	594018304	60	81095
2026-01-15 22:07:58.80	320.94	0.26	-48.6	-66.4	3.5	7.72e-01	0	29	104	594018304	60	80622
2026-01-15 22:07:59.78	320.85	0.21	-48.6	-66.5	3.5	7.72e-01	0	29	104	594018304	60	81393
2026-01-15 22:08:00.76	320.76	0.16	-48.6	-66.5	3.5	7.72e-01	0	29	104	594018304	60	81076
2026-01-15 22:08:01.73	320.67	0.12	-48.6	-66.5	3.5	7.72e-01	0	29	104	594018304	60	81152
2026-01-15 22:08:02.71	320.58	0.07	-48.6	-66.5	3.5	7.72e-01	0	29	104	594018304	60	81336
2026-01-15 22:08:03.69	320.49	0.03	-48.6	-66.5	3.5	7.72e-01	0	29	104	594018304	60	81364
2026-01-15 22:08:04.67	320.40	-0.02	-48.6	-66.5	3.5	7.72e-01	0	29	104	594018304	60	81228
2026-01-15 22:08:05.64	320.32	-0.07	-48.6	-66.5	3.5	7.72e-01	0	29	104	594018304	60	81492
2026-01-15 22:08:06.63	320.23	-0.11	-48.6	-66.5	3.5	7.72e-01	0	29	104	594018304	60	81221

#Closed at: 2026-01-15 22:08:07
#Recorded file [594 MB]: D:/lorett/data/35029_260116_095731.dat