passes_logs/2026/01/15/R4.6S_Anadyr/R4.6S_Anadyr__20260115_200342_NOAA_20_JPSS-1_rec.log

#Pass ID: 20260115_200342_NOAA 20 (JPSS-1)
#Satellite: NOAA 20 (JPSS-1)
#Configuration: NOAA 20
#almurnet v.1.7.20251203
#Start time: 2026-01-15 20:03:45

#Version: 2.2.20231116
#Station: R4.6S_Anadyr
#Location: 177.4865 lon 64.73178 lat
#TLE: 1 43013U 17073A   26014.55467351  .00000038  00000+0  38801-4 0  9992
#TLE: 2 43013  98.7635 315.4987 0001517  39.9279 320.2008 14.19535859422677

#Time	Az	El	Level	Level2	SNR	BER	BlckErr	Temp	State	Recorded	gain1	gain2
2026-01-15 20:03:45.97	63.11	0.15	-48.1	-61.9	3.3	1.54e+00	0	25	0	0	60	45053
2026-01-15 20:03:46.98	63.03	0.20	-48.1	-63.4	3.6	1.51e+00	0	26	104	0	60	53161
2026-01-15 20:03:47.99	62.96	0.25	-48.3	-63.5	3.6	1.51e+00	0	26	104	0	60	54305
2026-01-15 20:03:49.00	62.88	0.30	-48.2	-63.4	3.6	1.51e+00	0	26	104	0	60	53639
2026-01-15 20:03:50.01	62.81	0.35	-48.2	-63.3	3.6	1.51e+00	0	26	104	0	60	53093
2026-01-15 20:03:51.02	62.73	0.40	-48.1	-63.3	3.6	1.51e+00	0	26	104	0	60	53021
2026-01-15 20:03:52.03	62.65	0.45	-48.1	-63.3	3.6	1.51e+00	0	26	104	0	60	53073
2026-01-15 20:03:53.04	62.58	0.50	-48.1	-63.3	3.6	1.51e+00	0	26	104	0	60	53144
2026-01-15 20:03:54.05	62.50	0.55	-47.9	-63.2	3.6	1.51e+00	0	26	104	0	60	52399
2026-01-15 20:03:55.06	62.42	0.60	-47.7	-63.2	3.6	1.51e+00	0	26	104	0	60	52362
2026-01-15 20:03:56.07	62.34	0.65	-47.9	-63.1	3.6	1.51e+00	0	26	104	0	60	51359
2026-01-15 20:03:57.08	62.26	0.70	-47.7	-62.9	3.6	1.51e+00	0	26	104	0	60	50643
2026-01-15 20:03:58.09	62.19	0.75	-47.4	-62.6	3.6	1.51e+00	0	26	104	0	60	48724
2026-01-15 20:03:59.10	62.11	0.80	-46.9	-62.1	3.6	1.51e+00	0	26	104	0	60	45943
2026-01-15 20:04:00.11	62.03	0.85	-46.4	-61.6	3.6	1.51e+00	0	26	104	0	60	43322
2026-01-15 20:04:01.12	61.95	0.90	-46.3	-61.5	3.6	1.51e+00	0	26	104	0	60	42930
2026-01-15 20:04:02.13	61.87	0.95	-46.3	-61.4	3.6	1.51e+00	0	26	104	0	60	42594
2026-01-15 20:04:03.14	61.79	1.00	-46.2	-61.5	3.6	1.51e+00	0	26	104	0	60	42721
2026-01-15 20:04:04.15	61.71	1.05	-46.2	-61.4	3.6	1.51e+00	0	26	104	0	60	42591
2026-01-15 20:04:05.16	61.63	1.10	-46.2	-61.4	3.6	1.51e+00	0	26	104	0	60	42657
2026-01-15 20:04:06.17	61.55	1.15	-46.2	-61.4	3.6	1.51e+00	0	26	104	0	60	42696
2026-01-15 20:04:07.18	61.47	1.20	-46.2	-61.4	3.6	1.51e+00	0	26	104	0	60	42403
2026-01-15 20:04:08.19	61.39	1.25	-46.2	-61.4	3.6	1.51e+00	0	26	104	0	60	42265
2026-01-15 20:04:09.20	61.30	1.30	-46.2	-61.4	3.6	1.51e+00	0	26	104	0	60	42301
2026-01-15 20:04:10.21	61.22	1.35	-46.2	-61.4	3.6	1.51e+00	0	26	104	0	60	42238
2026-01-15 20:04:11.22	61.14	1.40	-46.2	-61.4	3.6	1.51e+00	0	26	104	0	60	42515
2026-01-15 20:04:12.23	61.06	1.45	-46.2	-61.3	3.6	1.51e+00	0	26	104	0	60	42142
2026-01-15 20:04:13.24	60.97	1.50	-46.2	-61.4	3.6	1.51e+00	0	26	104	0	60	42382
2026-01-15 20:04:14.24	60.89	1.55	-46.2	-61.3	3.6	1.51e+00	0	26	104	0	60	42214
2026-01-15 20:04:15.25	60.81	1.60	-46.2	-61.3	3.6	1.51e+00	0	26	104	0	60	42047
2026-01-15 20:04:16.26	60.73	1.65	-46.2	-61.3	3.6	1.51e+00	0	26	104	0	60	41967
2026-01-15 20:04:17.27	60.64	1.70	-46.2	-61.3	3.6	1.51e+00	0	26	104	0	60	42019
2026-01-15 20:04:18.28	60.56	1.75	-46.2	-61.3	3.6	1.51e+00	0	26	104	0	60	42041
2026-01-15 20:04:19.29	60.47	1.80	-46.2	-61.2	3.6	1.51e+00	0	26	104	0	60	41639
2026-01-15 20:04:20.30	60.39	1.85	-46.2	-61.2	3.6	1.51e+00	0	26	104	0	60	41589
2026-01-15 20:04:21.31	60.30	1.90	-46.2	-61.1	3.6	1.51e+00	0	26	104	0	60	40941
2026-01-15 20:04:22.31	60.22	1.95	-46.2	-61.0	3.5	1.51e+00	0	26	104	0	60	40558
2026-01-15 20:04:23.32	60.13	2.00	-46.2	-60.7	3.6	1.51e+00	0	26	104	0	60	39394
2026-01-15 20:04:24.33	60.05	2.05	-46.1	-60.7	3.6	1.51e+00	0	26	104	0	60	39222
2026-01-15 20:04:25.34	59.96	2.11	-46.1	-60.7	3.6	1.51e+00	0	26	104	0	60	39229
2026-01-15 20:04:26.35	59.87	2.16	-46.1	-61.0	3.6	1.51e+00	0	26	104	0	60	40533
2026-01-15 20:04:27.36	59.79	2.21	-46.1	-61.2	3.6	1.51e+00	0	26	104	0	60	41658
2026-01-15 20:04:28.37	59.70	2.26	-46.1	-61.3	3.6	1.51e+00	0	26	104	0	60	41998
2026-01-15 20:04:29.38	59.61	2.31	-46.1	-61.3	3.6	1.51e+00	0	26	104	0	60	41916
2026-01-15 20:04:30.39	59.52	2.36	-46.1	-61.2	3.6	1.51e+00	0	26	104	0	60	41699
2026-01-15 20:04:31.40	59.44	2.41	-46.1	-61.2	3.6	1.51e+00	0	26	104	0	60	41604
2026-01-15 20:04:32.41	59.35	2.46	-46.2	-61.3	3.6	1.51e+00	0	26	104	0	60	41874
2026-01-15 20:04:33.42	59.26	2.51	-46.1	-61.2	3.6	1.51e+00	0	26	104	0	60	41701
2026-01-15 20:04:34.43	59.17	2.56	-46.1	-60.7	3.6	1.51e+00	0	26	104	0	60	39359
2026-01-15 20:04:35.44	59.08	2.61	-46.1	-60.3	3.6	1.51e+00	0	26	104	0	60	37434
2026-01-15 20:04:36.45	58.99	2.66	-46.1	-60.0	3.6	1.51e+00	0	26	104	0	60	35960
2026-01-15 20:04:37.46	58.90	2.72	-46.1	-60.0	3.6	1.51e+00	0	26	104	0	60	36279
2026-01-15 20:04:38.47	58.81	2.77	-46.1	-60.4	3.6	1.51e+00	0	26	104	0	60	37984
2026-01-15 20:04:39.48	58.72	2.82	-46.1	-60.9	3.6	1.51e+00	0	26	104	0	60	40253
2026-01-15 20:04:40.49	58.63	2.87	-46.1	-60.0	3.5	1.51e+00	0	26	104	0	60	36141
2026-01-15 20:04:41.50	58.54	2.92	-45.9	-57.7	3.7	1.50e+00	0	26	104	0	60	27708
2026-01-15 20:04:42.51	58.44	2.97	-45.8	-56.0	4.6	1.08e+00	0	26	0	0	60	22742
2026-01-15 20:04:43.52	58.35	3.02	-45.8	-54.5	4.9	6.39e-01	92	26	0	2097152	60	19228
2026-01-15 20:04:44.53	58.26	3.07	-44.6	-48.8	12.5	3.15e-01	77	26	0	3145728	60	9992
2026-01-15 20:04:45.54	58.17	3.12	-45.5	-52.1	6.7	2.49e-01	92	26	0	5242880	60	14629
2026-01-15 20:04:46.55	58.07	3.17	-45.8	-54.9	4.3	1.49e+00	0	26	104	6291456	60	20177
2026-01-15 20:04:47.56	57.98	3.23	-44.5	-49.5	5.6	1.50e+00	0	26	104	6291456	60	10794
2026-01-15 20:04:48.56	57.89	3.28	-45.7	-54.2	4.5	0.00e+00	92	26	104	6291456	60	18476
2026-01-15 20:04:49.57	57.79	3.33	-46.1	-58.8	3.9	1.51e+00	0	26	104	6291456	60	31525
2026-01-15 20:04:50.59	57.70	3.38	-41.5	-43.5	16.8	0.00e+00	92	26	0	6291456	56	6818
2026-01-15 20:04:51.59	57.61	3.43	-41.7	-43.8	16.9	0.00e+00	13	26	0	7340032	56	7086
2026-01-15 20:04:52.60	57.51	3.48	-41.8	-43.9	16.8	0.00e+00	92	26	0	9437184	56	7143
2026-01-15 20:04:53.61	57.41	3.53	-41.6	-43.7	16.9	0.00e+00	92	26	0	11534336	56	6981
2026-01-15 20:04:54.62	57.32	3.58	-41.6	-43.6	17.0	0.00e+00	72	26	0	13631488	56	6917
2026-01-15 20:04:55.63	57.22	3.64	-41.7	-43.8	16.8	0.00e+00	90	26	0	15728640	56	7088
2026-01-15 20:04:56.64	57.13	3.69	-41.7	-43.9	16.8	0.00e+00	73	26	0	16777216	56	7110
2026-01-15 20:04:57.65	57.03	3.74	-41.6	-43.7	17.2	0.00e+00	92	26	0	18874368	56	6947
2026-01-15 20:04:58.66	56.93	3.79	-41.6	-43.7	16.9	0.00e+00	90	26	0	20971520	56	6961
2026-01-15 20:04:59.67	56.83	3.84	-41.8	-44.0	16.9	0.00e+00	74	26	0	23068672	56	7185
2026-01-15 20:05:00.68	56.74	3.89	-41.6	-43.7	17.0	0.00e+00	92	26	0	25165824	56	6932
2026-01-15 20:05:01.69	56.64	3.95	-41.8	-44.0	16.6	0.00e+00	1	26	0	26214400	56	7219
2026-01-15 20:05:02.70	56.54	4.00	-41.7	-43.8	16.9	0.00e+00	90	26	0	28311552	56	7067
2026-01-15 20:05:03.71	56.44	4.05	-42.0	-44.2	16.6	0.00e+00	0	26	0	30408704	56	7383
2026-01-15 20:05:04.72	56.34	4.10	-41.8	-43.9	16.9	0.00e+00	92	26	0	32505856	56	7122
2026-01-15 20:05:05.73	56.24	4.15	-41.4	-43.3	17.4	0.00e+00	12	26	0	34603008	56	6687
2026-01-15 20:05:06.74	56.14	4.20	-41.6	-43.7	17.1	0.00e+00	63	26	0	36700160	56	6954
2026-01-15 20:05:07.75	56.04	4.25	-41.5	-43.5	17.4	0.00e+00	90	27	0	37748736	56	6774
2026-01-15 20:05:08.76	55.94	4.31	-41.5	-43.4	17.5	0.00e+00	14	26	0	39845888	56	6730
2026-01-15 20:05:09.76	55.84	4.36	-41.6	-43.6	17.3	0.00e+00	92	26	0	41943040	56	6868
2026-01-15 20:05:10.77	55.74	4.41	-41.6	-43.6	17.3	0.00e+00	13	26	0	44040192	56	6859
2026-01-15 20:05:11.78	55.64	4.46	-41.5	-43.4	17.4	0.00e+00	92	26	0	45088768	56	6740
2026-01-15 20:05:12.79	55.54	4.51	-41.6	-43.6	17.4	0.00e+00	67	26	0	47185920	56	6858
2026-01-15 20:05:13.80	55.43	4.56	-41.2	-43.1	17.8	0.00e+00	92	26	0	49283072	56	6490
2026-01-15 20:05:14.81	55.33	4.62	-41.1	-42.9	17.9	0.00e+00	0	27	0	51380224	56	6372
2026-01-15 20:05:15.82	55.23	4.67	-41.2	-43.0	17.8	0.00e+00	68	26	0	53477376	56	6462
2026-01-15 20:05:16.83	55.12	4.72	-41.1	-43.0	17.9	0.00e+00	92	26	0	54525952	56	6392
2026-01-15 20:05:17.84	55.02	4.77	-41.2	-43.0	17.9	0.00e+00	65	26	0	56623104	56	6427
2026-01-15 20:05:18.85	54.91	4.82	-41.0	-42.8	18.1	0.00e+00	92	26	0	58720256	56	6310
2026-01-15 20:05:19.86	54.81	4.87	-40.9	-42.7	18.2	0.00e+00	69	26	0	60817408	56	6219
2026-01-15 20:05:20.87	54.70	4.93	-40.8	-42.5	18.3	0.00e+00	92	26	0	62914560	56	6096
2026-01-15 20:05:21.88	54.60	4.98	-40.6	-42.3	18.7	0.00e+00	0	26	0	65011712	54	6636
2026-01-15 20:05:22.89	54.49	5.03	-40.7	-42.4	18.4	0.00e+00	0	27	0	66060288	54	6740
2026-01-15 20:05:23.90	54.39	5.08	-40.7	-42.4	18.4	0.00e+00	90	27	0	68157440	54	6716
2026-01-15 20:05:24.91	54.28	5.13	-40.9	-42.7	18.1	0.00e+00	0	26	0	70254592	54	6937
2026-01-15 20:05:25.92	54.17	5.19	-41.0	-42.8	18.1	0.00e+00	92	26	0	72351744	54	7013
2026-01-15 20:05:26.93	54.06	5.24	-40.6	-42.3	18.6	0.00e+00	2	27	0	74448896	54	6632
2026-01-15 20:05:27.94	53.96	5.29	-40.4	-42.0	18.8	0.00e+00	92	27	0	75497472	54	6458
2026-01-15 20:05:28.95	53.85	5.34	-40.5	-42.2	18.7	0.00e+00	0	27	0	77594624	54	6550
2026-01-15 20:05:29.96	53.74	5.39	-40.6	-42.2	18.6	0.00e+00	87	26	0	79691776	54	6604
2026-01-15 20:05:30.97	53.63	5.45	-40.6	-42.2	18.7	0.00e+00	92	26	0	81788928	54	6569
2026-01-15 20:05:31.98	53.52	5.50	-40.5	-42.1	18.8	0.00e+00	13	27	0	83886080	54	6476
2026-01-15 20:05:32.98	53.41	5.55	-40.5	-42.1	18.8	0.00e+00	92	27	0	84934656	54	6507
2026-01-15 20:05:33.99	53.30	5.60	-40.5	-42.1	18.6	0.00e+00	67	26	0	87031808	54	6495
2026-01-15 20:05:35.00	53.19	5.65	-40.5	-42.1	18.7	0.00e+00	90	27	0	89128960	54	6530
2026-01-15 20:05:36.01	53.08	5.70	-40.5	-42.1	18.5	0.00e+00	14	26	0	91226112	54	6467
2026-01-15 20:05:37.02	52.97	5.76	-40.3	-41.8	19.0	0.00e+00	91	26	0	93323264	54	6311
2026-01-15 20:05:38.03	52.86	5.81	-40.3	-41.8	19.0	0.00e+00	0	27	0	94371840	54	6311
2026-01-15 20:05:39.04	52.74	5.86	-40.2	-41.8	19.2	0.00e+00	0	27	0	96468992	54	6258
2026-01-15 20:05:40.05	52.63	5.91	-40.1	-41.6	19.4	0.00e+00	91	26	0	98566144	54	6116
2026-01-15 20:05:41.06	52.52	5.96	-40.0	-41.4	19.5	0.00e+00	0	27	0	100663296	54	6010
2026-01-15 20:05:42.07	52.40	6.02	-40.1	-41.6	19.4	0.00e+00	90	27	0	102760448	54	6122
2026-01-15 20:05:43.07	52.29	6.07	-40.1	-41.6	19.4	0.00e+00	1	27	0	103809024	54	6152
2026-01-15 20:05:44.08	52.18	6.12	-40.1	-41.6	19.4	0.00e+00	92	27	0	105906176	54	6114
2026-01-15 20:05:45.09	52.06	6.17	-40.1	-41.6	19.4	0.00e+00	0	27	0	108003328	54	6142
2026-01-15 20:05:46.10	51.95	6.22	-40.1	-41.6	19.4	0.00e+00	0	27	0	110100480	54	6160
2026-01-15 20:05:47.11	51.83	6.27	-39.9	-41.4	19.6	0.00e+00	92	27	0	112197632	54	5986
2026-01-15 20:05:48.12	51.71	6.33	-40.1	-41.5	19.5	0.00e+00	2	27	0	113246208	54	6087
2026-01-15 20:05:49.13	51.60	6.38	-40.1	-41.6	19.3	0.00e+00	92	27	0	115343360	54	6167
2026-01-15 20:05:50.14	51.48	6.43	-39.9	-41.4	19.6	7.00e-07	16	27	0	117440512	54	5993
2026-01-15 20:05:51.15	51.36	6.48	-40.0	-41.4	19.6	0.00e+00	92	26	0	119537664	54	6025
2026-01-15 20:05:52.16	51.24	6.53	-40.1	-41.6	19.5	0.00e+00	0	27	0	121634816	54	6135
2026-01-15 20:05:53.17	51.13	6.59	-40.2	-41.7	19.4	1.50e-06	92	27	0	122683392	54	6238
2026-01-15 20:05:54.18	51.01	6.64	-40.2	-41.7	19.4	0.00e+00	91	27	0	124780544	54	6215
2026-01-15 20:05:55.19	50.89	6.69	-40.2	-41.7	19.3	0.00e+00	0	27	0	126877696	54	6203
2026-01-15 20:05:56.20	50.77	6.74	-40.3	-41.8	19.3	0.00e+00	92	27	0	128974848	54	6264
2026-01-15 20:05:57.21	50.65	6.79	-40.5	-42.1	19.1	0.00e+00	16	27	0	131072000	54	6510
2026-01-15 20:05:58.22	50.53	6.84	-40.2	-41.7	19.3	0.00e+00	92	27	0	133169152	54	6235
2026-01-15 20:05:59.22	50.41	6.90	-40.2	-41.8	19.3	0.00e+00	15	26	0	134217728	54	6254
2026-01-15 20:06:00.23	50.29	6.95	-40.2	-41.8	19.3	0.00e+00	92	27	0	136314880	54	6249
2026-01-15 20:06:01.25	50.16	7.00	-40.3	-41.8	19.3	0.00e+00	72	26	0	138412032	54	6300
2026-01-15 20:06:02.25	50.04	7.05	-40.3	-41.8	19.3	0.00e+00	0	27	0	140509184	54	6292
2026-01-15 20:06:03.26	49.92	7.10	-40.4	-41.9	19.3	0.00e+00	92	27	0	142606336	54	6350
2026-01-15 20:06:04.27	49.80	7.15	-40.4	-41.9	19.1	0.00e+00	0	26	0	143654912	54	6374
2026-01-15 20:06:05.28	49.67	7.20	-40.2	-41.6	19.5	0.00e+00	92	27	0	145752064	54	6173
2026-01-15 20:06:06.29	49.55	7.26	-40.2	-41.7	19.5	0.00e+00	0	27	0	147849216	54	6240
2026-01-15 20:06:07.30	49.43	7.31	-40.0	-41.4	19.7	0.00e+00	92	27	0	149946368	54	5984
2026-01-15 20:06:08.31	49.30	7.36	-39.8	-41.2	19.8	0.00e+00	0	26	0	152043520	54	5888
2026-01-15 20:06:09.32	49.18	7.41	-39.8	-41.2	19.8	0.00e+00	9	27	0	153092096	54	5863
2026-01-15 20:06:10.33	49.05	7.46	-39.9	-41.3	19.9	0.00e+00	92	27	0	155189248	54	5906
2026-01-15 20:06:11.34	48.92	7.51	-39.8	-41.3	19.8	0.00e+00	2	26	0	157286400	54	5899
2026-01-15 20:06:12.35	48.80	7.57	-39.9	-41.4	19.7	0.00e+00	92	27	0	159383552	54	5976
2026-01-15 20:06:13.36	48.67	7.62	-40.0	-41.4	19.7	0.00e+00	2	27	0	161480704	54	5995
2026-01-15 20:06:14.36	48.54	7.67	-39.8	-41.2	19.9	0.00e+00	92	27	0	162529280	54	5837
2026-01-15 20:06:15.37	48.41	7.72	-40.0	-41.4	19.7	0.00e+00	0	27	0	164626432	54	5999
2026-01-15 20:06:16.39	48.28	7.77	-39.8	-41.2	19.9	0.00e+00	79	27	0	166723584	54	5843
2026-01-15 20:06:17.39	48.16	7.82	-39.9	-41.2	19.9	0.00e+00	50	27	0	168820736	52	6594
2026-01-15 20:06:18.40	48.03	7.87	-39.8	-41.2	19.9	0.00e+00	0	27	0	170917888	52	6588
2026-01-15 20:06:19.41	47.90	7.92	-39.8	-41.1	20.0	0.00e+00	92	27	0	171966464	52	6512
2026-01-15 20:06:20.42	47.77	7.97	-39.8	-41.2	20.0	0.00e+00	14	27	0	174063616	52	6547
2026-01-15 20:06:21.43	47.64	8.03	-39.9	-41.3	19.9	7.00e-07	92	27	0	176160768	52	6625
2026-01-15 20:06:22.44	47.50	8.08	-39.8	-41.1	20.0	0.00e+00	0	26	0	178257920	52	6533
2026-01-15 20:06:23.45	47.37	8.13	-39.8	-41.1	20.1	0.00e+00	92	27	0	180355072	52	6538
2026-01-15 20:06:24.46	47.24	8.18	-39.7	-41.0	20.2	0.00e+00	72	27	0	181403648	52	6458
2026-01-15 20:06:25.47	47.11	8.23	-39.7	-41.0	20.1	0.00e+00	68	27	0	183500800	52	6464
2026-01-15 20:06:26.48	46.97	8.28	-39.7	-41.1	20.2	0.00e+00	92	27	0	185597952	52	6488
2026-01-15 20:06:27.49	46.84	8.33	-39.7	-41.1	20.1	0.00e+00	0	27	0	187695104	52	6490
2026-01-15 20:06:28.50	46.71	8.38	-39.5	-40.8	20.4	0.00e+00	92	27	0	189792256	52	6293
2026-01-15 20:06:29.51	46.57	8.43	-39.5	-40.8	20.4	0.00e+00	6	27	0	190840832	52	6255
2026-01-15 20:06:30.52	46.44	8.48	-39.4	-40.7	20.5	0.00e+00	92	27	0	192937984	52	6231
2026-01-15 20:06:31.53	46.30	8.53	-39.5	-40.8	20.4	0.00e+00	0	27	0	195035136	52	6282
2026-01-15 20:06:32.53	46.17	8.58	-39.5	-40.8	20.4	0.00e+00	92	27	0	197132288	52	6291
2026-01-15 20:06:33.55	46.03	8.64	-39.4	-40.7	20.5	0.00e+00	92	27	0	199229440	52	6236
2026-01-15 20:06:34.55	45.89	8.69	-39.4	-40.7	20.5	0.00e+00	16	27	0	201326592	52	6191
2026-01-15 20:06:35.56	45.76	8.74	-39.4	-40.7	20.5	0.00e+00	90	27	0	202375168	52	6179
2026-01-15 20:06:36.57	45.62	8.79	-39.4	-40.6	20.5	0.00e+00	6	27	0	204472320	52	6168
2026-01-15 20:06:37.58	45.48	8.84	-39.4	-40.7	20.5	0.00e+00	92	27	0	206569472	52	6186
2026-01-15 20:06:38.59	45.34	8.89	-39.4	-40.7	20.5	0.00e+00	13	27	0	208666624	52	6223
2026-01-15 20:06:39.60	45.20	8.94	-39.5	-40.8	20.5	0.00e+00	73	27	0	210763776	52	6286
2026-01-15 20:06:40.61	45.06	8.99	-39.4	-40.7	20.6	0.00e+00	29	27	0	211812352	52	6213
2026-01-15 20:06:41.62	44.92	9.04	-39.4	-40.7	20.5	0.00e+00	6	27	0	213909504	52	6214
2026-01-15 20:06:42.63	44.78	9.09	-39.4	-40.7	20.5	0.00e+00	92	27	0	216006656	52	6234
2026-01-15 20:06:43.64	44.64	9.14	-39.5	-40.8	20.4	0.00e+00	0	27	0	218103808	52	6251
2026-01-15 20:06:44.65	44.50	9.19	-39.5	-40.8	20.5	0.00e+00	92	27	0	220200960	52	6249
2026-01-15 20:06:45.66	44.35	9.24	-39.5	-40.7	20.5	0.00e+00	3	27	0	221249536	52	6245
2026-01-15 20:06:46.67	44.21	9.29	-39.4	-40.7	20.7	7.00e-07	92	27	0	223346688	52	6202
2026-01-15 20:06:47.68	44.07	9.34	-39.4	-40.6	20.6	0.00e+00	80	26	0	225443840	52	6168
2026-01-15 20:06:48.69	43.92	9.39	-39.4	-40.7	20.4	0.00e+00	4	27	0	227540992	52	6208
2026-01-15 20:06:49.70	43.78	9.44	-39.5	-40.8	20.5	0.00e+00	92	27	0	229638144	52	6272
2026-01-15 20:06:50.71	43.63	9.48	-39.4	-40.7	20.6	0.00e+00	5	27	0	230686720	52	6187
2026-01-15 20:06:51.72	43.49	9.53	-39.4	-40.7	20.6	0.00e+00	92	27	0	232783872	52	6205
2026-01-15 20:06:52.73	43.34	9.58	-39.4	-40.6	20.6	0.00e+00	5	27	0	234881024	52	6172
2026-01-15 20:06:53.74	43.19	9.63	-39.3	-40.6	20.7	0.00e+00	92	27	0	236978176	52	6107
2026-01-15 20:06:54.75	43.05	9.68	-39.4	-40.7	20.7	0.00e+00	0	27	0	239075328	52	6184
2026-01-15 20:06:55.76	42.90	9.73	-39.3	-40.6	20.7	0.00e+00	15	27	0	240123904	52	6147
2026-01-15 20:06:56.77	42.75	9.78	-39.2	-40.5	20.8	0.00e+00	92	27	0	242221056	52	6059
2026-01-15 20:06:57.78	42.60	9.83	-39.3	-40.5	20.8	0.00e+00	16	27	0	244318208	52	6095
2026-01-15 20:06:58.79	42.45	9.88	-39.3	-40.5	20.7	0.00e+00	92	27	0	246415360	52	6097
2026-01-15 20:06:59.79	42.31	9.93	-38.9	-40.1	21.1	0.00e+00	16	27	0	248512512	52	5792
2026-01-15 20:07:00.81	42.16	9.97	-39.0	-40.2	21.1	0.00e+00	92	27	0	249561088	52	5844
2026-01-15 20:07:01.81	42.01	10.02	-38.8	-40.0	21.2	0.00e+00	16	27	0	251658240	52	5727
2026-01-15 20:07:02.83	41.85	10.07	-38.8	-40.0	21.3	0.00e+00	92	27	0	253755392	52	5732
2026-01-15 20:07:03.84	41.70	10.12	-38.6	-39.8	21.4	0.00e+00	91	27	0	255852544	50	6276
2026-01-15 20:07:04.85	41.55	10.17	-38.8	-39.9	21.3	0.00e+00	0	27	0	257949696	50	6378
2026-01-15 20:07:05.86	41.40	10.22	-38.7	-39.8	21.4	0.00e+00	91	27	0	258998272	50	6282
2026-01-15 20:07:06.86	41.25	10.26	-38.5	-39.6	21.6	0.00e+00	0	27	0	261095424	50	6128
2026-01-15 20:07:07.87	41.09	10.31	-38.4	-39.5	21.7	0.00e+00	91	27	0	263192576	50	6103
2026-01-15 20:07:08.88	40.94	10.36	-38.3	-39.4	21.9	0.00e+00	0	27	0	265289728	50	5988
2026-01-15 20:07:09.89	40.78	10.41	-38.4	-39.5	21.8	0.00e+00	91	27	0	267386880	50	6056
2026-01-15 20:07:10.90	40.63	10.45	-38.4	-39.5	21.7	0.00e+00	0	27	0	269484032	50	6043
2026-01-15 20:07:11.91	40.47	10.50	-38.2	-39.3	21.9	0.00e+00	0	27	0	270532608	50	5932
2026-01-15 20:07:12.92	40.32	10.55	-38.2	-39.3	21.9	0.00e+00	92	27	0	272629760	50	5920
2026-01-15 20:07:13.93	40.16	10.60	-38.2	-39.2	22.0	0.00e+00	0	27	0	274726912	50	5892
2026-01-15 20:07:14.94	40.00	10.64	-37.9	-38.9	22.3	0.00e+00	3	27	0	276824064	50	5658
2026-01-15 20:07:15.95	39.85	10.69	-37.8	-38.8	22.4	0.00e+00	15	27	0	278921216	50	5582
2026-01-15 20:07:16.96	39.69	10.74	-37.9	-38.9	22.3	0.00e+00	15	27	0	279969792	48	6354
2026-01-15 20:07:17.97	39.53	10.78	-37.8	-38.9	22.2	0.00e+00	0	27	0	282066944	48	6332
2026-01-15 20:07:18.98	39.37	10.83	-37.8	-38.8	22.3	0.00e+00	2	27	0	284164096	48	6316
2026-01-15 20:07:19.99	39.21	10.88	-38.0	-39.0	22.2	0.00e+00	92	27	0	286261248	48	6439
2026-01-15 20:07:21.00	39.05	10.92	-38.0	-39.0	22.3	0.00e+00	67	27	0	288358400	48	6438
2026-01-15 20:07:22.01	38.89	10.97	-37.9	-38.9	22.3	0.00e+00	92	27	0	289406976	48	6384
2026-01-15 20:07:23.02	38.73	11.01	-37.9	-39.0	22.3	0.00e+00	4	27	0	291504128	48	6398
2026-01-15 20:07:24.03	38.57	11.06	-37.7	-38.7	22.5	0.00e+00	67	27	0	293601280	48	6232
2026-01-15 20:07:25.04	38.40	11.11	-37.7	-38.8	22.4	0.00e+00	66	27	0	295698432	48	6262
2026-01-15 20:07:26.05	38.24	11.15	-37.7	-38.7	22.5	0.00e+00	0	27	0	297795584	48	6225
2026-01-15 20:07:27.06	38.08	11.20	-37.7	-38.7	22.5	0.00e+00	92	27	0	298844160	48	6200
2026-01-15 20:07:28.07	37.91	11.24	-37.7	-38.7	22.5	0.00e+00	1	27	0	300941312	48	6209
2026-01-15 20:07:29.08	37.75	11.29	-37.7	-38.7	22.6	0.00e+00	92	27	0	303038464	48	6215
2026-01-15 20:07:30.09	37.58	11.33	-37.7	-38.7	22.6	0.00e+00	0	27	0	305135616	48	6240
2026-01-15 20:07:31.10	37.42	11.38	-37.7	-38.7	22.6	0.00e+00	0	27	0	307232768	48	6211
2026-01-15 20:07:32.11	37.25	11.42	-37.5	-38.5	22.8	0.00e+00	0	27	0	308281344	48	6070
2026-01-15 20:07:33.12	37.09	11.47	-37.5	-38.4	22.8	0.00e+00	0	27	0	310378496	48	6028
2026-01-15 20:07:34.13	36.92	11.51	-37.4	-38.4	22.8	0.00e+00	0	27	0	312475648	48	6016
2026-01-15 20:07:35.14	36.75	11.56	-37.3	-38.3	22.8	0.00e+00	15	27	0	314572800	48	5949
2026-01-15 20:07:36.15	36.58	11.60	-37.3	-38.3	23.0	0.00e+00	90	27	0	316669952	48	5920
2026-01-15 20:07:37.16	36.42	11.64	-37.2	-38.2	23.0	0.00e+00	0	27	0	317718528	48	5842
2026-01-15 20:07:38.17	36.25	11.69	-37.2	-38.1	23.0	0.00e+00	92	27	0	319815680	48	5814
2026-01-15 20:07:39.18	36.08	11.73	-37.1	-38.0	23.2	0.00e+00	0	27	0	321912832	48	5740
2026-01-15 20:07:40.18	35.91	11.77	-37.2	-38.2	23.0	7.00e-07	15	27	0	324009984	48	5832
2026-01-15 20:07:41.19	35.74	11.82	-37.0	-38.0	23.2	0.00e+00	0	27	0	326107136	48	5704
2026-01-15 20:07:42.20	35.57	11.86	-37.0	-38.0	22.5	0.00e+00	66	27	0	327155712	48	5696
2026-01-15 20:07:43.21	35.40	11.90	-36.9	-37.8	23.3	0.00e+00	92	27	0	329252864	48	5620
2026-01-15 20:07:44.22	35.22	11.95	-36.9	-37.8	23.2	0.00e+00	63	27	0	331350016	48	5615
2026-01-15 20:07:45.23	35.05	11.99	-37.0	-37.9	23.2	0.00e+00	92	27	0	333447168	48	5657
2026-01-15 20:07:46.24	34.88	12.03	-37.0	-38.0	23.1	0.00e+00	0	27	0	335544320	48	5711
2026-01-15 20:07:47.25	34.71	12.07	-37.0	-38.0	23.2	0.00e+00	0	27	0	337641472	48	5702
2026-01-15 20:07:48.26	34.53	12.12	-37.1	-38.1	23.2	0.00e+00	64	27	0	338690048	48	5792
2026-01-15 20:07:49.27	34.36	12.16	-37.0	-38.0	23.2	0.00e+00	65	27	0	340787200	48	5733
2026-01-15 20:07:50.27	34.18	12.20	-37.1	-38.1	23.0	0.00e+00	89	27	0	342884352	48	5800
2026-01-15 20:07:51.28	34.01	12.24	-37.2	-38.2	23.0	0.00e+00	66	27	0	344981504	48	5830
2026-01-15 20:07:52.29	33.83	12.28	-37.3	-38.3	22.8	0.00e+00	90	27	0	347078656	48	5936
2026-01-15 20:07:53.30	33.66	12.32	-37.5	-38.6	22.8	0.00e+00	0	27	0	348127232	48	6104
2026-01-15 20:07:54.31	33.48	12.36	-37.5	-38.5	22.7	0.00e+00	0	27	0	350224384	48	6088
2026-01-15 20:07:55.32	33.30	12.40	-37.4	-38.4	22.9	0.00e+00	0	27	0	352321536	48	5992
2026-01-15 20:07:56.33	33.12	12.44	-37.3	-38.3	22.9	0.00e+00	0	27	0	354418688	48	5933
2026-01-15 20:07:57.34	32.94	12.48	-37.3	-38.3	22.8	0.00e+00	16	27	0	356515840	48	5916
2026-01-15 20:07:58.35	32.77	12.52	-37.5	-38.4	22.7	0.00e+00	15	26	0	357564416	48	6031
2026-01-15 20:07:59.36	32.59	12.56	-37.4	-38.4	22.8	0.00e+00	92	27	0	359661568	48	5984
2026-01-15 20:08:00.37	32.41	12.60	-37.5	-38.5	22.7	0.00e+00	0	27	0	361758720	48	6073
2026-01-15 20:08:01.38	32.23	12.64	-37.5	-38.5	22.7	0.00e+00	90	27	0	363855872	48	6086
2026-01-15 20:08:02.39	32.04	12.68	-37.5	-38.5	22.8	0.00e+00	0	27	0	365953024	48	6038
2026-01-15 20:08:03.40	31.86	12.72	-37.5	-38.5	22.7	0.00e+00	0	27	0	367001600	48	6088
2026-01-15 20:08:04.41	31.68	12.76	-37.5	-38.5	22.8	0.00e+00	81	27	0	369098752	48	6044
2026-01-15 20:08:05.42	31.50	12.80	-37.5	-38.5	22.7	0.00e+00	65	27	0	371195904	48	6047
2026-01-15 20:08:06.43	31.32	12.84	-37.5	-38.5	22.7	0.00e+00	92	27	0	373293056	48	6066
2026-01-15 20:08:07.44	31.13	12.87	-37.4	-38.3	22.9	0.00e+00	66	27	0	375390208	48	5944
2026-01-15 20:08:08.44	30.95	12.91	-37.4	-38.4	23.0	0.00e+00	91	27	0	376438784	48	5982
2026-01-15 20:08:09.45	30.77	12.95	-37.4	-38.3	22.9	0.00e+00	7	27	0	378535936	48	5946
2026-01-15 20:08:10.47	30.58	12.99	-37.2	-38.2	23.1	0.00e+00	0	27	0	380633088	48	5839
2026-01-15 20:08:11.48	30.39	13.02	-37.2	-38.1	23.1	0.00e+00	0	27	0	382730240	48	5811
2026-01-15 20:08:12.49	30.21	13.06	-37.3	-38.2	22.6	0.00e+00	5	27	0	384827392	48	5880
2026-01-15 20:08:13.50	30.02	13.10	-37.4	-38.3	22.9	0.00e+00	74	27	0	385875968	48	5949
2026-01-15 20:08:14.51	29.84	13.13	-37.4	-38.4	22.8	0.00e+00	8	27	0	387973120	48	6010
2026-01-15 20:08:15.52	29.65	13.17	-37.3	-38.3	22.9	0.00e+00	91	27	0	390070272	48	5935
2026-01-15 20:08:16.53	29.46	13.21	-37.3	-38.3	23.0	0.00e+00	0	27	0	392167424	48	5932
2026-01-15 20:08:17.54	29.27	13.24	-37.3	-38.2	23.0	0.00e+00	64	27	0	394264576	48	5885
2026-01-15 20:08:18.55	29.08	13.28	-37.3	-38.2	23.0	0.00e+00	14	27	0	395313152	48	5887
2026-01-15 20:08:19.56	28.90	13.31	-37.1	-38.1	23.2	0.00e+00	6	27	0	397410304	48	5781
2026-01-15 20:08:20.57	28.71	13.35	-37.2	-38.2	23.1	0.00e+00	6	27	0	399507456	48	5846
2026-01-15 20:08:21.58	28.52	13.38	-37.2	-38.1	23.1	0.00e+00	6	27	0	401604608	48	5808
2026-01-15 20:08:22.59	28.33	13.42	-37.3	-38.2	23.0	0.00e+00	92	27	0	403701760	48	5874
2026-01-15 20:08:23.60	28.13	13.45	-37.2	-38.1	23.2	0.00e+00	71	27	0	405798912	48	5796
2026-01-15 20:08:24.61	27.94	13.48	-37.0	-37.9	23.2	0.00e+00	92	27	0	406847488	48	5695
2026-01-15 20:08:25.62	27.75	13.52	-37.2	-38.1	23.0	0.00e+00	0	27	0	408944640	48	5806
2026-01-15 20:08:26.63	27.56	13.55	-37.3	-38.2	22.3	0.00e+00	70	27	0	411041792	48	5858
2026-01-15 20:08:27.64	27.37	13.58	-37.1	-38.1	23.0	0.00e+00	82	27	0	413138944	48	5777
2026-01-15 20:08:28.65	27.17	13.62	-37.1	-38.1	23.2	0.00e+00	68	27	0	415236096	48	5780
2026-01-15 20:08:29.66	26.98	13.65	-37.2	-38.1	23.0	0.00e+00	90	27	0	416284672	48	5824
2026-01-15 20:08:30.67	26.79	13.68	-37.0	-38.0	23.2	0.00e+00	0	27	0	418381824	48	5715
2026-01-15 20:08:31.68	26.59	13.71	-37.0	-37.9	23.3	0.00e+00	91	27	0	420478976	48	5661
2026-01-15 20:08:32.69	26.40	13.74	-37.1	-38.1	23.1	0.00e+00	2	27	0	422576128	48	5796
2026-01-15 20:08:33.70	26.20	13.78	-37.0	-38.0	23.2	0.00e+00	5	27	0	424673280	48	5700
2026-01-15 20:08:34.70	26.01	13.81	-37.2	-38.2	23.1	0.00e+00	4	27	0	425721856	48	5841
2026-01-15 20:08:35.71	25.81	13.84	-36.9	-37.9	23.3	0.00e+00	1	27	0	427819008	48	5650
2026-01-15 20:08:36.72	25.62	13.87	-36.9	-37.8	23.3	0.00e+00	81	27	0	429916160	48	5628
2026-01-15 20:08:37.73	25.42	13.90	-36.9	-37.8	23.4	0.00e+00	4	27	0	432013312	48	5623
2026-01-15 20:08:38.74	25.22	13.93	-36.8	-37.7	23.4	0.00e+00	92	27	0	434110464	46	6235
2026-01-15 20:08:39.75	25.03	13.96	-36.8	-37.8	23.4	0.00e+00	17	27	0	435159040	46	6247
2026-01-15 20:08:40.76	24.83	13.99	-37.0	-38.0	23.3	0.00e+00	72	27	0	437256192	46	6394
2026-01-15 20:08:41.77	24.63	14.01	-37.1	-38.0	23.2	0.00e+00	17	27	0	439353344	46	6461
2026-01-15 20:08:42.78	24.43	14.04	-37.0	-38.0	23.2	0.00e+00	3	27	0	441450496	46	6412
2026-01-15 20:08:43.79	24.23	14.07	-37.0	-38.0	23.2	0.00e+00	0	27	0	443547648	46	6409
2026-01-15 20:08:44.80	24.03	14.10	-37.0	-37.9	23.3	0.00e+00	15	27	0	444596224	46	6375
2026-01-15 20:08:45.81	23.83	14.13	-36.8	-37.7	23.5	0.00e+00	92	27	0	446693376	46	6184
2026-01-15 20:08:46.82	23.63	14.15	-36.9	-37.9	23.3	0.00e+00	15	27	0	448790528	46	6323
2026-01-15 20:08:47.83	23.43	14.18	-36.9	-37.9	23.3	0.00e+00	92	27	0	450887680	46	6333
2026-01-15 20:08:48.84	23.23	14.21	-37.0	-37.9	23.3	0.00e+00	65	27	0	452984832	46	6384
2026-01-15 20:08:49.84	23.03	14.23	-37.0	-38.0	23.3	0.00e+00	0	27	0	454033408	46	6407
2026-01-15 20:08:50.85	22.83	14.26	-37.0	-37.9	23.3	0.00e+00	0	27	0	456130560	46	6376
2026-01-15 20:08:51.86	22.63	14.29	-37.1	-38.0	23.2	0.00e+00	0	27	0	458227712	46	6442
2026-01-15 20:08:52.87	22.43	14.31	-37.1	-38.1	23.2	0.00e+00	90	27	0	460324864	46	6482
2026-01-15 20:08:53.88	22.22	14.34	-37.3	-38.2	23.0	0.00e+00	65	27	0	462422016	46	6590
2026-01-15 20:08:54.89	22.02	14.36	-37.4	-38.3	22.9	0.00e+00	93	27	0	463470592	46	6668
2026-01-15 20:08:55.90	21.82	14.39	-37.4	-38.3	22.9	0.00e+00	2	27	0	465567744	46	6669
2026-01-15 20:08:56.91	21.61	14.41	-37.4	-38.3	23.0	0.00e+00	0	27	0	467664896	46	6691
2026-01-15 20:08:57.92	21.41	14.43	-37.4	-38.4	22.9	0.00e+00	0	27	0	469762048	46	6732
2026-01-15 20:08:58.93	21.20	14.46	-37.2	-38.2	23.1	0.00e+00	0	27	0	471859200	46	6574
2026-01-15 20:08:59.94	21.00	14.48	-37.3	-38.2	23.0	0.00e+00	92	27	0	473956352	46	6596
2026-01-15 20:09:00.95	20.79	14.50	-37.5	-38.5	22.8	0.00e+00	16	27	0	475004928	46	6801
2026-01-15 20:09:01.96	20.59	14.52	-37.6	-38.5	22.7	0.00e+00	92	27	0	477102080	46	6846
2026-01-15 20:09:02.97	20.38	14.55	-37.8	-38.8	22.4	0.00e+00	0	27	0	479199232	48	6284
2026-01-15 20:09:03.98	20.18	14.57	-37.7	-38.7	22.6	0.00e+00	15	27	0	481296384	48	6226
2026-01-15 20:09:04.99	19.97	14.59	-37.9	-38.9	22.5	0.00e+00	15	27	0	483393536	48	6342
2026-01-15 20:09:06.00	19.76	14.61	-37.7	-38.7	22.6	0.00e+00	16	27	0	484442112	48	6199
2026-01-15 20:09:07.01	19.56	14.63	-37.8	-38.8	22.6	0.00e+00	0	27	0	486539264	48	6284
2026-01-15 20:09:08.02	19.35	14.65	-37.8	-38.8	22.6	0.00e+00	66	27	0	488636416	48	6296
2026-01-15 20:09:09.03	19.14	14.67	-37.8	-38.8	22.5	0.00e+00	92	27	0	490733568	48	6306
2026-01-15 20:09:10.04	18.94	14.69	-37.8	-38.8	22.5	0.00e+00	64	27	0	492830720	48	6315
2026-01-15 20:09:11.05	18.73	14.71	-37.7	-38.7	22.6	0.00e+00	90	27	0	493879296	48	6219
2026-01-15 20:09:12.06	18.52	14.73	-37.7	-38.7	22.6	0.00e+00	67	27	0	495976448	48	6190
2026-01-15 20:09:13.07	18.31	14.75	-37.6	-38.6	22.8	0.00e+00	0	27	0	498073600	48	6131
2026-01-15 20:09:14.08	18.10	14.76	-37.4	-38.3	23.0	0.00e+00	66	27	0	500170752	48	5943
2026-01-15 20:09:15.09	17.89	14.78	-37.3	-38.3	23.0	0.00e+00	0	27	0	502267904	48	5924
2026-01-15 20:09:16.10	17.68	14.80	-37.4	-38.3	22.9	7.00e-07	90	27	0	503316480	48	5947
2026-01-15 20:09:17.11	17.47	14.82	-37.3	-38.3	23.0	0.00e+00	0	27	0	505413632	48	5911
2026-01-15 20:09:18.12	17.27	14.83	-37.3	-38.3	23.0	0.00e+00	92	27	0	507510784	48	5899
2026-01-15 20:09:19.13	17.06	14.85	-37.3	-38.2	23.0	0.00e+00	2	27	0	509607936	48	5880
2026-01-15 20:09:20.14	16.85	14.86	-37.1	-38.1	23.2	0.00e+00	0	27	0	511705088	48	5785
2026-01-15 20:09:21.15	16.63	14.88	-37.2	-38.1	23.1	0.00e+00	0	27	0	512753664	48	5814
2026-01-15 20:09:22.16	16.42	14.89	-37.1	-38.1	23.2	0.00e+00	2	27	0	514850816	48	5765
2026-01-15 20:09:23.17	16.21	14.91	-37.2	-38.1	23.1	0.00e+00	0	27	0	516947968	48	5821
2026-01-15 20:09:24.18	16.00	14.92	-37.2	-38.2	23.1	0.00e+00	16	27	0	519045120	48	5839
2026-01-15 20:09:25.19	15.79	14.94	-37.4	-38.3	23.0	0.00e+00	90	27	0	521142272	48	5956
2026-01-15 20:09:26.20	15.58	14.95	-37.4	-38.3	22.9	0.00e+00	70	27	0	522190848	48	5964
2026-01-15 20:09:27.21	15.37	14.96	-37.4	-38.4	22.9	0.00e+00	9	27	0	524288000	48	6007
2026-01-15 20:09:28.22	15.16	14.98	-37.5	-38.4	22.8	0.00e+00	70	27	0	526385152	48	6018
2026-01-15 20:09:29.23	14.94	14.99	-37.4	-38.4	22.9	0.00e+00	10	27	0	528482304	48	5982
2026-01-15 20:09:30.24	14.73	15.00	-37.3	-38.3	23.0	0.00e+00	2	27	0	530579456	48	5909
2026-01-15 20:09:31.25	14.52	15.01	-37.3	-38.2	23.1	0.00e+00	0	27	0	531628032	48	5884
2026-01-15 20:09:32.26	14.31	15.02	-37.4	-38.3	22.9	0.00e+00	92	27	0	533725184	48	5957
2026-01-15 20:09:33.27	14.09	15.03	-37.5	-38.5	22.9	0.00e+00	0	27	0	535822336	48	6060
2026-01-15 20:09:34.28	13.88	15.04	-37.3	-38.3	22.9	0.00e+00	92	27	0	537919488	48	5941
2026-01-15 20:09:35.28	13.67	15.05	-37.5	-38.4	22.9	0.00e+00	1	27	0	540016640	48	6027
2026-01-15 20:09:36.30	13.46	15.06	-37.4	-38.4	23.0	0.00e+00	0	27	0	542113792	48	5982
2026-01-15 20:09:37.31	13.24	15.07	-37.2	-38.2	23.1	0.00e+00	0	27	0	543162368	48	5864
2026-01-15 20:09:38.31	13.03	15.08	-37.2	-38.2	23.1	0.00e+00	0	27	0	545259520	48	5871
2026-01-15 20:09:39.32	12.82	15.09	-37.3	-38.3	23.0	0.00e+00	92	27	0	547356672	48	5937
2026-01-15 20:09:40.33	12.60	15.10	-37.3	-38.3	23.0	0.00e+00	1	27	0	549453824	48	5944
2026-01-15 20:09:41.34	12.39	15.11	-37.5	-38.4	22.9	0.00e+00	90	27	0	551550976	48	6029
2026-01-15 20:09:42.35	12.18	15.11	-37.5	-38.5	22.8	0.00e+00	0	27	0	552599552	48	6055
2026-01-15 20:09:43.36	11.96	15.12	-37.6	-38.5	22.8	0.00e+00	2	27	0	554696704	48	6103
2026-01-15 20:09:44.37	11.75	15.13	-37.5	-38.5	22.8	0.00e+00	0	27	0	556793856	48	6063
2026-01-15 20:09:45.38	11.53	15.13	-37.4	-38.4	22.9	0.00e+00	0	27	0	558891008	48	6002
2026-01-15 20:09:46.39	11.32	15.14	-37.3	-38.3	22.9	0.00e+00	92	27	0	560988160	48	5936
2026-01-15 20:09:47.40	11.11	15.14	-37.3	-38.3	23.0	0.00e+00	0	27	0	562036736	48	5897
2026-01-15 20:09:48.41	10.89	15.15	-37.3	-38.2	23.0	0.00e+00	90	27	0	564133888	48	5896
2026-01-15 20:09:49.42	10.68	15.15	-37.3	-38.3	23.0	0.00e+00	67	27	0	566231040	48	5924
2026-01-15 20:09:50.43	10.46	15.16	-37.4	-38.4	23.0	0.00e+00	92	27	0	568328192	48	5988
2026-01-15 20:09:51.44	10.25	15.16	-37.3	-38.3	23.1	0.00e+00	68	27	0	570425344	48	5905
2026-01-15 20:09:52.45	10.03	15.16	-37.2	-38.1	23.2	0.00e+00	67	27	0	571473920	48	5818
2026-01-15 20:09:53.46	9.82	15.17	-37.2	-38.2	23.1	0.00e+00	84	27	0	573571072	48	5839
2026-01-15 20:09:54.47	9.61	15.17	-37.4	-38.4	23.0	0.00e+00	0	27	0	575668224	48	5965
2026-01-15 20:09:55.48	9.39	15.17	-37.1	-38.1	23.1	0.00e+00	90	27	0	577765376	48	5802
2026-01-15 20:09:56.49	9.18	15.17	-37.4	-38.3	23.0	0.00e+00	0	27	0	579862528	48	5943
2026-01-15 20:09:57.50	8.96	15.17	-37.4	-38.4	22.9	0.00e+00	92	27	0	580911104	48	6010
2026-01-15 20:09:58.51	8.75	15.17	-37.4	-38.3	23.0	0.00e+00	7	27	0	583008256	48	5952
2026-01-15 20:09:59.52	8.53	15.17	-37.5	-38.4	22.9	0.00e+00	0	27	0	585105408	48	6030
2026-01-15 20:10:00.53	8.32	15.17	-37.5	-38.5	22.9	0.00e+00	0	27	0	587202560	48	6037
2026-01-15 20:10:01.54	8.10	15.17	-37.3	-38.3	23.0	0.00e+00	0	27	0	589299712	48	5927
2026-01-15 20:10:02.55	7.89	15.17	-37.4	-38.3	22.9	0.00e+00	92	27	0	590348288	48	5950
2026-01-15 20:10:03.56	7.67	15.17	-37.3	-38.2	23.1	0.00e+00	6	27	0	592445440	48	5877
2026-01-15 20:10:04.57	7.46	15.17	-37.1	-38.0	23.3	0.00e+00	92	27	0	594542592	48	5726
2026-01-15 20:10:05.58	7.24	15.17	-37.1	-38.0	23.3	0.00e+00	16	27	0	596639744	48	5723
2026-01-15 20:10:06.59	7.03	15.17	-37.1	-38.1	23.1	0.00e+00	14	27	0	598736896	48	5789
2026-01-15 20:10:07.60	6.81	15.16	-37.3	-38.2	23.0	0.00e+00	15	27	0	599785472	48	5893
2026-01-15 20:10:08.61	6.60	15.16	-37.3	-38.3	22.8	0.00e+00	15	27	0	601882624	48	5934
2026-01-15 20:10:09.62	6.39	15.16	-37.4	-38.4	23.0	0.00e+00	92	27	0	603979776	48	5979
2026-01-15 20:10:10.63	6.17	15.15	-37.5	-38.5	22.8	0.00e+00	14	27	0	606076928	48	6067
2026-01-15 20:10:11.64	5.96	15.15	-37.6	-38.6	22.7	0.00e+00	90	27	0	608174080	48	6124
2026-01-15 20:10:12.65	5.74	15.14	-37.5	-38.5	22.8	0.00e+00	73	27	0	610271232	48	6083
2026-01-15 20:10:13.66	5.53	15.14	-37.6	-38.5	22.8	0.00e+00	92	27	0	611319808	48	6099
2026-01-15 20:10:14.67	5.31	15.13	-37.5	-38.5	22.8	0.00e+00	3	27	0	613416960	48	6063
2026-01-15 20:10:15.68	5.10	15.12	-37.7	-38.7	22.7	0.00e+00	72	27	0	615514112	48	6183
2026-01-15 20:10:16.69	4.89	15.12	-37.7	-38.7	22.7	0.00e+00	0	27	0	617611264	48	6199
2026-01-15 20:10:17.70	4.67	15.11	-37.7	-38.7	22.7	0.00e+00	6	27	0	619708416	48	6196
2026-01-15 20:10:18.71	4.46	15.10	-37.7	-38.7	22.6	0.00e+00	92	27	0	620756992	48	6229
2026-01-15 20:10:19.72	4.25	15.10	-37.7	-38.7	22.7	0.00e+00	0	27	0	622854144	48	6219
2026-01-15 20:10:20.73	4.03	15.09	-37.6	-38.6	22.7	0.00e+00	66	27	0	624951296	48	6158
2026-01-15 20:10:21.74	3.82	15.08	-37.5	-38.6	22.8	0.00e+00	6	27	0	627048448	48	6124
2026-01-15 20:10:22.75	3.61	15.07	-37.4	-38.4	22.9	0.00e+00	5	27	0	629145600	48	5987
2026-01-15 20:10:23.76	3.39	15.06	-37.3	-38.3	23.0	0.00e+00	5	27	0	630194176	48	5936
2026-01-15 20:10:24.77	3.18	15.05	-37.3	-38.3	23.0	0.00e+00	15	27	0	632291328	48	5934
2026-01-15 20:10:25.78	2.97	15.04	-37.3	-38.3	23.0	0.00e+00	92	27	0	634388480	48	5918
2026-01-15 20:10:26.79	2.75	15.03	-37.4	-38.4	23.0	0.00e+00	11	27	0	636485632	48	5977
2026-01-15 20:10:27.79	2.54	15.02	-37.5	-38.5	22.8	0.00e+00	92	27	0	638582784	48	6084
2026-01-15 20:10:28.80	2.33	15.01	-37.6	-38.6	22.7	0.00e+00	70	27	0	639631360	48	6163
2026-01-15 20:10:29.81	2.12	15.00	-37.7	-38.7	22.6	0.00e+00	70	27	0	641728512	48	6194
2026-01-15 20:10:30.82	1.91	14.99	-37.7	-38.7	22.7	0.00e+00	72	27	0	643825664	48	6221
2026-01-15 20:10:31.83	1.69	14.97	-37.7	-38.8	22.6	0.00e+00	11	27	0	645922816	48	6263
2026-01-15 20:10:32.84	1.48	14.96	-37.6	-38.6	22.7	0.00e+00	92	27	0	648019968	48	6163
2026-01-15 20:10:33.85	1.27	14.95	-37.6	-38.6	22.8	0.00e+00	0	27	0	649068544	48	6125
2026-01-15 20:10:34.86	1.06	14.93	-37.6	-38.6	22.8	0.00e+00	91	27	0	651165696	48	6116
2026-01-15 20:10:35.87	0.85	14.92	-37.3	-38.3	23.0	0.00e+00	67	27	0	653262848	48	5914
2026-01-15 20:10:36.88	0.64	14.90	-37.3	-38.3	23.0	0.00e+00	91	27	0	655360000	48	5941
2026-01-15 20:10:37.89	0.43	14.89	-37.2	-38.2	23.1	0.00e+00	0	27	0	657457152	48	5852
2026-01-15 20:10:38.90	0.22	14.88	-37.1	-38.1	23.2	0.00e+00	0	27	0	658505728	48	5789
2026-01-15 20:10:39.91	0.01	14.86	-37.3	-38.2	23.1	0.00e+00	0	27	0	660602880	48	5881
2026-01-15 20:10:40.92	359.80	14.84	-37.2	-38.2	23.1	0.00e+00	0	27	0	662700032	48	5833
2026-01-15 20:10:41.93	359.59	14.83	-37.3	-38.3	23.0	0.00e+00	90	27	0	664797184	48	5939
2026-01-15 20:10:42.94	359.38	14.81	-37.3	-38.3	23.1	0.00e+00	0	27	0	666894336	48	5898
2026-01-15 20:10:43.94	359.17	14.79	-37.2	-38.2	23.1	0.00e+00	90	27	0	667942912	48	5836
2026-01-15 20:10:44.95	358.96	14.78	-37.2	-38.2	23.1	0.00e+00	0	27	0	670040064	48	5879
2026-01-15 20:10:45.96	358.75	14.76	-37.1	-38.1	23.1	0.00e+00	15	27	0	672137216	48	5804
2026-01-15 20:10:46.97	358.54	14.74	-37.2	-38.1	23.2	0.00e+00	1	27	0	674234368	48	5821
2026-01-15 20:10:47.98	358.34	14.72	-37.1	-38.0	23.2	0.00e+00	16	27	0	676331520	48	5760
2026-01-15 20:10:48.99	358.13	14.70	-37.0	-38.0	23.3	0.00e+00	92	27	0	678428672	48	5715
2026-01-15 20:10:50.00	357.92	14.68	-37.3	-38.2	23.1	0.00e+00	15	27	0	679477248	48	5883
2026-01-15 20:10:51.01	357.71	14.66	-37.4	-38.4	23.0	0.00e+00	90	27	0	681574400	48	6013
2026-01-15 20:10:52.02	357.51	14.64	-37.1	-38.1	23.3	0.00e+00	14	27	0	683671552	48	5773
2026-01-15 20:10:53.03	357.30	14.62	-37.1	-38.1	23.1	0.00e+00	15	27	0	685768704	48	5798
2026-01-15 20:10:54.04	357.09	14.60	-37.1	-38.1	23.1	0.00e+00	67	27	0	687865856	48	5786
2026-01-15 20:10:55.05	356.89	14.58	-37.1	-38.0	23.2	0.00e+00	73	27	0	688914432	48	5722
2026-01-15 20:10:56.06	356.68	14.56	-37.0	-38.0	23.3	0.00e+00	91	27	0	691011584	48	5713
2026-01-15 20:10:57.07	356.47	14.54	-37.0	-37.9	23.3	0.00e+00	72	27	0	693108736	48	5679
2026-01-15 20:10:58.08	356.27	14.52	-37.1	-38.0	23.3	0.00e+00	92	27	0	695205888	48	5749
2026-01-15 20:10:59.09	356.06	14.50	-37.1	-38.0	23.3	0.00e+00	0	27	0	697303040	48	5739
2026-01-15 20:11:00.10	355.86	14.47	-37.2	-38.1	23.1	0.00e+00	48	27	0	698351616	48	5828
2026-01-15 20:11:01.10	355.66	14.45	-37.2	-38.2	23.1	0.00e+00	0	27	0	700448768	48	5894
2026-01-15 20:11:02.11	355.45	14.43	-37.3	-38.3	22.9	0.00e+00	0	27	0	702545920	48	5949
2026-01-15 20:11:03.12	355.25	14.40	-37.3	-38.3	23.0	0.00e+00	0	27	0	704643072	48	5943
2026-01-15 20:11:04.13	355.04	14.38	-37.3	-38.3	22.9	0.00e+00	0	27	0	706740224	48	5964
2026-01-15 20:11:05.14	354.84	14.35	-37.4	-38.4	22.9	0.00e+00	92	27	0	707788800	48	6012
2026-01-15 20:11:06.15	354.64	14.33	-37.4	-38.4	22.9	0.00e+00	0	27	0	709885952	48	5994
2026-01-15 20:11:07.16	354.44	14.30	-37.4	-38.3	23.0	0.00e+00	92	27	0	711983104	48	5959
2026-01-15 20:11:08.17	354.23	14.28	-37.5	-38.4	22.9	0.00e+00	15	27	0	714080256	48	6021
2026-01-15 20:11:09.18	354.03	14.25	-37.4	-38.4	23.0	0.00e+00	16	27	0	716177408	48	5981
2026-01-15 20:11:10.19	353.83	14.23	-37.4	-38.3	23.0	0.00e+00	0	27	0	717225984	48	5953
2026-01-15 20:11:11.20	353.63	14.20	-37.4	-38.4	23.0	0.00e+00	65	27	0	719323136	48	6007
2026-01-15 20:11:12.21	353.43	14.17	-37.5	-38.5	22.8	0.00e+00	92	27	0	721420288	48	6076
2026-01-15 20:11:13.22	353.23	14.15	-37.4	-38.5	22.9	0.00e+00	16	27	0	723517440	48	6046
2026-01-15 20:11:14.23	353.03	14.12	-37.5	-38.6	22.8	0.00e+00	92	27	0	725614592	48	6121
2026-01-15 20:11:15.24	352.83	14.09	-37.6	-38.7	22.7	0.00e+00	0	27	0	726663168	48	6176
2026-01-15 20:11:16.24	352.63	14.06	-37.5	-38.5	22.9	0.00e+00	68	27	0	728760320	48	6060
2026-01-15 20:11:17.25	352.43	14.04	-37.5	-38.5	23.0	0.00e+00	0	27	0	730857472	48	6036
2026-01-15 20:11:18.26	352.23	14.01	-37.5	-38.5	22.9	0.00e+00	0	27	0	732954624	48	6047
2026-01-15 20:11:19.27	352.04	13.98	-37.5	-38.5	22.9	0.00e+00	0	27	0	735051776	48	6067
2026-01-15 20:11:20.28	351.84	13.95	-37.5	-38.5	22.9	0.00e+00	65	27	0	736100352	48	6079
2026-01-15 20:11:21.29	351.64	13.92	-37.6	-38.5	22.8	0.00e+00	92	27	0	738197504	48	6091
2026-01-15 20:11:22.30	351.44	13.89	-37.5	-38.5	22.9	0.00e+00	0	27	0	740294656	48	6088
2026-01-15 20:11:23.31	351.25	13.86	-37.5	-38.5	22.8	0.00e+00	0	27	0	742391808	48	6084
2026-01-15 20:11:24.32	351.05	13.83	-37.6	-38.6	22.8	0.00e+00	0	27	0	744488960	48	6135
2026-01-15 20:11:25.33	350.86	13.80	-37.4	-38.4	22.9	0.00e+00	0	27	0	745537536	48	6016
2026-01-15 20:11:26.34	350.66	13.77	-37.5	-38.5	22.9	0.00e+00	0	27	0	747634688	48	6066
2026-01-15 20:11:27.35	350.47	13.74	-37.4	-38.4	22.8	0.00e+00	6	27	0	749731840	48	5984
2026-01-15 20:11:28.36	350.27	13.70	-37.4	-38.4	22.9	0.00e+00	90	27	0	751828992	48	5999
2026-01-15 20:11:29.37	350.08	13.67	-37.2	-38.1	23.1	0.00e+00	0	27	0	753926144	48	5825
2026-01-15 20:11:30.38	349.88	13.64	-37.2	-38.2	23.1	0.00e+00	92	27	0	754974720	48	5859
2026-01-15 20:11:31.39	349.69	13.61	-37.1	-38.1	23.2	0.00e+00	0	27	0	757071872	48	5786
2026-01-15 20:11:32.40	349.50	13.57	-37.2	-38.1	23.0	0.00e+00	8	27	0	759169024	48	5808
2026-01-15 20:11:33.41	349.31	13.54	-37.3	-38.2	22.9	0.00e+00	75	27	0	761266176	48	5892
2026-01-15 20:11:34.42	349.11	13.51	-37.2	-38.2	23.1	0.00e+00	11	27	0	763363328	48	5860
2026-01-15 20:11:35.42	348.92	13.48	-37.2	-38.2	23.2	0.00e+00	90	27	0	764411904	48	5858
2026-01-15 20:11:36.43	348.73	13.44	-37.1	-38.1	22.7	0.00e+00	12	27	0	766509056	48	5824
2026-01-15 20:11:37.44	348.54	13.41	-37.0	-38.0	23.2	0.00e+00	92	27	0	768606208	48	5712
2026-01-15 20:11:38.45	348.35	13.37	-37.0	-38.0	23.3	0.00e+00	0	27	0	770703360	48	5728
2026-01-15 20:11:39.46	348.16	13.34	-37.0	-38.0	23.2	0.00e+00	0	27	0	772800512	48	5723
2026-01-15 20:11:40.47	347.97	13.30	-37.0	-38.0	23.2	0.00e+00	1	27	0	774897664	48	5722
2026-01-15 20:11:41.48	347.79	13.27	-37.3	-38.3	23.1	0.00e+00	66	27	0	775946240	48	5901
2026-01-15 20:11:42.49	347.60	13.23	-37.3	-38.3	22.9	0.00e+00	74	27	0	778043392	48	5959
2026-01-15 20:11:43.50	347.41	13.20	-37.3	-38.2	23.0	0.00e+00	0	27	0	780140544	48	5895
2026-01-15 20:11:44.50	347.22	13.16	-37.3	-38.3	22.9	0.00e+00	92	27	0	782237696	48	5918
2026-01-15 20:11:45.51	347.04	13.13	-37.3	-38.3	22.9	0.00e+00	0	27	0	784334848	48	5960
2026-01-15 20:11:46.52	346.85	13.09	-37.2	-38.2	22.9	0.00e+00	0	27	0	785383424	48	5876
2026-01-15 20:11:47.53	346.67	13.05	-37.3	-38.3	23.0	0.00e+00	5	27	0	787480576	48	5948
2026-01-15 20:11:48.54	346.48	13.02	-37.2	-38.2	23.0	0.00e+00	6	27	0	789577728	48	5869
2026-01-15 20:11:49.55	346.29	12.98	-37.3	-38.4	22.9	0.00e+00	0	27	0	791674880	48	5971
2026-01-15 20:11:50.56	346.11	12.94	-37.1	-38.2	23.1	0.00e+00	13	27	0	793772032	48	5835
2026-01-15 20:11:51.57	345.93	12.90	-37.3	-38.4	22.9	0.00e+00	92	27	0	794820608	48	6009
2026-01-15 20:11:52.58	345.74	12.87	-37.3	-38.4	22.8	0.00e+00	14	27	0	796917760	48	6003
2026-01-15 20:11:53.59	345.56	12.83	-37.4	-38.5	22.8	0.00e+00	50	27	0	799014912	48	6068
2026-01-15 20:11:54.60	345.38	12.79	-37.4	-38.5	22.9	0.00e+00	12	27	0	801112064	48	6091
2026-01-15 20:11:55.61	345.20	12.75	-37.0	-38.1	23.2	0.00e+00	6	27	0	803209216	48	5816
2026-01-15 20:11:56.62	345.01	12.71	-37.0	-38.1	23.1	0.00e+00	6	27	0	804257792	48	5808
2026-01-15 20:11:57.63	344.83	12.67	-37.3	-38.4	23.0	0.00e+00	8	27	0	806354944	48	5977
2026-01-15 20:11:58.64	344.65	12.63	-37.0	-38.1	23.1	0.00e+00	92	27	0	808452096	48	5801
2026-01-15 20:11:59.64	344.47	12.59	-37.1	-38.2	23.0	0.00e+00	73	27	0	810549248	48	5874
2026-01-15 20:12:00.65	344.29	12.56	-37.1	-38.2	23.1	0.00e+00	90	27	0	812646400	48	5834
2026-01-15 20:12:01.66	344.11	12.52	-37.0	-38.1	23.1	0.00e+00	0	27	0	813694976	48	5809
2026-01-15 20:12:02.67	343.94	12.48	-37.2	-38.3	23.0	0.00e+00	0	27	0	815792128	48	5909
2026-01-15 20:12:03.68	343.76	12.44	-37.3	-38.4	22.8	0.00e+00	0	27	0	817889280	48	6004
2026-01-15 20:12:04.69	343.58	12.39	-37.3	-38.4	22.8	0.00e+00	0	27	0	819986432	48	6017
2026-01-15 20:12:05.70	343.40	12.35	-37.5	-38.7	22.6	0.00e+00	87	27	0	822083584	48	6181
2026-01-15 20:12:06.71	343.23	12.31	-37.6	-38.7	22.5	0.00e+00	0	27	0	823132160	48	6222
2026-01-15 20:12:07.72	343.05	12.27	-37.7	-38.9	22.4	0.00e+00	91	27	0	825229312	48	6325
2026-01-15 20:12:08.73	342.87	12.23	-37.7	-38.8	22.4	0.00e+00	6	27	0	827326464	48	6304
2026-01-15 20:12:09.74	342.70	12.19	-37.7	-38.9	22.3	0.00e+00	7	27	0	829423616	48	6382
2026-01-15 20:12:10.75	342.52	12.15	-37.8	-39.0	22.3	0.00e+00	12	27	0	831520768	48	6420
2026-01-15 20:12:11.76	342.35	12.11	-37.8	-39.0	22.3	0.00e+00	7	27	0	832569344	48	6429
2026-01-15 20:12:12.77	342.18	12.06	-37.8	-39.1	22.2	0.00e+00	5	27	0	834666496	48	6465
2026-01-15 20:12:13.78	342.00	12.02	-37.9	-39.1	22.1	0.00e+00	6	27	0	836763648	48	6516
2026-01-15 20:12:14.79	341.83	11.98	-38.0	-39.2	22.0	0.00e+00	92	27	0	838860800	48	6590
2026-01-15 20:12:15.80	341.66	11.94	-38.0	-39.3	22.0	0.00e+00	14	27	0	840957952	48	6659
2026-01-15 20:12:16.81	341.49	11.89	-38.1	-39.4	22.0	0.00e+00	92	27	0	843055104	48	6735
2026-01-15 20:12:17.82	341.32	11.85	-38.1	-39.4	21.9	0.00e+00	11	27	0	844103680	48	6716
2026-01-15 20:12:18.83	341.14	11.81	-38.2	-39.5	21.8	0.00e+00	11	27	0	846200832	48	6796
2026-01-15 20:12:19.84	340.97	11.76	-38.1	-39.5	21.8	0.00e+00	0	27	0	848297984	48	6842
2026-01-15 20:12:20.85	340.80	11.72	-38.3	-39.7	21.6	0.00e+00	75	27	0	850395136	48	6930
2026-01-15 20:12:21.85	340.64	11.68	-38.5	-39.9	21.4	0.00e+00	92	27	0	852492288	48	7128
2026-01-15 20:12:22.86	340.47	11.63	-38.6	-40.1	21.3	0.00e+00	0	27	0	853540864	48	7272
2026-01-15 20:12:23.87	340.30	11.59	-38.6	-40.1	21.2	0.00e+00	90	27	0	855638016	48	7336
2026-01-15 20:12:24.88	340.13	11.55	-38.7	-40.2	21.1	0.00e+00	0	27	0	857735168	48	7393
2026-01-15 20:12:25.89	339.97	11.50	-38.8	-40.4	21.0	0.00e+00	0	27	0	859832320	50	6716
2026-01-15 20:12:26.90	339.80	11.46	-38.9	-40.4	21.0	0.00e+00	0	27	0	861929472	50	6745
2026-01-15 20:12:27.91	339.63	11.41	-38.9	-40.4	21.0	0.00e+00	2	27	0	862978048	50	6751
2026-01-15 20:12:28.92	339.47	11.37	-39.0	-40.6	20.8	0.00e+00	0	27	0	865075200	50	6906
2026-01-15 20:12:29.93	339.30	11.32	-39.1	-40.6	20.8	0.00e+00	0	27	0	867172352	50	6907
2026-01-15 20:12:30.94	339.14	11.28	-39.1	-40.6	20.7	0.00e+00	92	27	0	869269504	50	6922
2026-01-15 20:12:31.95	338.97	11.23	-39.1	-40.7	20.7	0.00e+00	0	27	0	871366656	50	6943
2026-01-15 20:12:32.95	338.81	11.19	-39.1	-40.6	20.8	0.00e+00	12	27	0	872415232	50	6856
2026-01-15 20:12:33.96	338.65	11.14	-39.1	-40.6	20.7	0.00e+00	11	27	0	874512384	50	6923
2026-01-15 20:12:34.97	338.49	11.10	-39.1	-40.6	20.7	0.00e+00	3	27	0	876609536	50	6916
2026-01-15 20:12:35.98	338.33	11.05	-39.2	-40.7	20.6	0.00e+00	0	27	0	878706688	50	7003
2026-01-15 20:12:36.99	338.16	11.01	-39.4	-40.9	20.4	0.00e+00	7	27	0	880803840	50	7160
2026-01-15 20:12:37.99	338.00	10.96	-39.5	-41.1	20.4	0.00e+00	91	27	0	881852416	50	7269
2026-01-15 20:12:39.00	337.84	10.91	-39.7	-41.3	20.1	0.00e+00	12	27	0	883949568	50	7438
2026-01-15 20:12:40.01	337.68	10.87	-39.8	-41.3	20.0	0.00e+00	92	27	0	886046720	52	6668
2026-01-15 20:12:41.02	337.52	10.82	-39.9	-41.5	19.9	0.00e+00	70	27	0	888143872	52	6816
2026-01-15 20:12:42.03	337.37	10.77	-40.0	-41.5	19.8	0.00e+00	70	27	0	890241024	52	6844
2026-01-15 20:12:43.04	337.21	10.73	-40.0	-41.5	19.9	0.00e+00	0	27	0	891289600	52	6818
2026-01-15 20:12:44.05	337.05	10.68	-39.9	-41.5	19.9	0.00e+00	75	27	0	893386752	52	6770
2026-01-15 20:12:45.06	336.89	10.63	-39.8	-41.3	20.0	0.00e+00	89	27	0	895483904	52	6684
2026-01-15 20:12:46.07	336.74	10.59	-39.9	-41.4	20.0	0.00e+00	72	27	0	897581056	52	6698
2026-01-15 20:12:47.08	336.58	10.54	-40.0	-41.5	19.9	0.00e+00	92	27	0	899678208	52	6792
2026-01-15 20:12:48.09	336.42	10.49	-39.9	-41.3	20.0	0.00e+00	0	27	0	900726784	52	6682
2026-01-15 20:12:49.10	336.27	10.45	-39.9	-41.4	19.9	0.00e+00	36	27	0	902823936	52	6737
2026-01-15 20:12:50.11	336.11	10.40	-40.1	-41.6	19.8	0.00e+00	0	27	0	904921088	52	6856
2026-01-15 20:12:51.12	335.96	10.35	-40.0	-41.5	19.8	0.00e+00	0	26	0	907018240	52	6842
2026-01-15 20:12:52.13	335.81	10.30	-40.2	-41.7	19.7	0.00e+00	0	27	0	909115392	52	6988
2026-01-15 20:12:53.14	335.65	10.25	-40.1	-41.7	19.6	0.00e+00	7	27	0	911212544	52	6960
2026-01-15 20:12:54.15	335.50	10.21	-40.2	-41.8	19.5	0.00e+00	92	27	0	912261120	52	7047
2026-01-15 20:12:55.16	335.35	10.16	-40.2	-41.8	19.6	0.00e+00	0	27	0	914358272	52	7028
2026-01-15 20:12:56.17	335.20	10.11	-40.3	-41.9	19.4	0.00e+00	92	27	0	916455424	52	7140
2026-01-15 20:12:57.17	335.05	10.06	-40.3	-41.9	19.5	0.00e+00	11	27	0	918552576	52	7134
2026-01-15 20:12:58.18	334.90	10.01	-40.2	-41.8	19.6	0.00e+00	0	27	0	919601152	52	7016
2026-01-15 20:12:59.19	334.75	9.97	-40.3	-41.9	19.5	0.00e+00	0	27	0	921698304	52	7110
2026-01-15 20:13:00.20	334.60	9.92	-40.2	-41.7	19.6	0.00e+00	74	27	0	923795456	52	6943
2026-01-15 20:13:01.21	334.45	9.87	-40.2	-41.6	19.7	0.00e+00	92	27	0	925892608	52	6923
2026-01-15 20:13:02.22	334.30	9.82	-40.1	-41.6	19.8	0.00e+00	11	27	0	927989760	52	6878
2026-01-15 20:13:03.23	334.15	9.77	-40.2	-41.7	19.6	0.00e+00	90	27	0	929038336	52	6943
2026-01-15 20:13:04.24	334.00	9.72	-40.3	-41.8	19.6	0.00e+00	69	27	0	931135488	52	7045
2026-01-15 20:13:05.25	333.85	9.67	-40.2	-41.7	19.6	0.00e+00	0	27	0	933232640	52	6998
2026-01-15 20:13:06.26	333.71	9.62	-40.3	-41.9	19.4	0.00e+00	0	27	0	935329792	52	7102
2026-01-15 20:13:07.27	333.56	9.58	-40.3	-41.8	19.5	0.00e+00	2	27	0	937426944	52	7029
2026-01-15 20:13:08.28	333.42	9.53	-40.3	-41.8	19.4	0.00e+00	84	27	0	939524096	52	7021
2026-01-15 20:13:09.29	333.27	9.48	-40.2	-41.6	19.6	0.00e+00	0	27	0	940572672	52	6926
2026-01-15 20:13:10.29	333.13	9.43	-40.0	-41.4	19.8	0.00e+00	90	27	0	942669824	52	6757
2026-01-15 20:13:11.30	332.98	9.38	-40.0	-41.5	19.8	0.00e+00	0	27	0	944766976	52	6780
2026-01-15 20:13:12.31	332.84	9.33	-40.0	-41.4	19.9	0.00e+00	35	27	0	946864128	52	6717
2026-01-15 20:13:13.32	332.70	9.28	-39.7	-41.1	20.2	0.00e+00	0	27	0	948961280	52	6528
2026-01-15 20:13:14.33	332.55	9.23	-39.9	-41.3	19.9	0.00e+00	0	27	0	950009856	52	6682
2026-01-15 20:13:15.34	332.41	9.18	-39.7	-41.0	20.3	0.00e+00	0	27	0	952107008	52	6432
2026-01-15 20:13:16.35	332.27	9.13	-39.7	-41.1	20.2	0.00e+00	2	27	0	954204160	52	6487
2026-01-15 20:13:17.36	332.13	9.08	-40.0	-41.4	19.8	0.00e+00	92	27	0	956301312	52	6748
2026-01-15 20:13:18.37	331.99	9.03	-39.7	-41.1	20.1	0.00e+00	0	27	0	958398464	52	6482
2026-01-15 20:13:19.38	331.85	8.98	-40.0	-41.4	19.8	0.00e+00	90	27	0	959447040	52	6705
2026-01-15 20:13:20.39	331.71	8.93	-39.7	-41.0	20.2	0.00e+00	70	27	0	961544192	52	6428
2026-01-15 20:13:21.40	331.57	8.88	-39.8	-41.2	20.0	0.00e+00	9	27	0	963641344	52	6582
2026-01-15 20:13:22.41	331.43	8.83	-39.8	-41.2	19.9	0.00e+00	0	27	0	965738496	52	6595
2026-01-15 20:13:23.42	331.29	8.78	-39.9	-41.3	20.0	0.00e+00	0	27	0	967835648	52	6626
2026-01-15 20:13:24.43	331.16	8.73	-39.9	-41.3	20.0	0.00e+00	92	27	0	968884224	52	6623
2026-01-15 20:13:25.44	331.02	8.68	-39.7	-41.1	20.2	0.00e+00	76	27	0	970981376	52	6489
2026-01-15 20:13:26.45	330.88	8.63	-39.4	-40.7	20.5	0.00e+00	90	27	0	973078528	52	6235
2026-01-15 20:13:27.46	330.74	8.58	-39.5	-40.8	20.4	0.00e+00	0	27	0	975175680	52	6269
2026-01-15 20:13:28.47	330.61	8.53	-39.5	-40.8	20.4	0.00e+00	0	27	0	977272832	52	6255
2026-01-15 20:13:29.48	330.47	8.48	-39.2	-40.4	20.8	0.00e+00	73	27	0	978321408	52	6016
2026-01-15 20:13:30.48	330.34	8.43	-39.3	-40.5	20.7	0.00e+00	0	27	0	980418560	52	6080
2026-01-15 20:13:31.49	330.21	8.38	-39.1	-40.3	20.8	0.00e+00	80	27	0	982515712	52	5947
2026-01-15 20:13:32.50	330.07	8.33	-39.2	-40.5	20.7	0.00e+00	6	27	0	984612864	52	6038
2026-01-15 20:13:33.51	329.94	8.27	-38.9	-40.1	21.0	0.00e+00	90	27	0	986710016	52	5815
2026-01-15 20:13:34.52	329.81	8.22	-38.9	-40.1	21.0	0.00e+00	0	27	0	987758592	52	5808
2026-01-15 20:13:35.54	329.67	8.17	-38.9	-40.1	21.0	0.00e+00	84	27	0	989855744	52	5819
2026-01-15 20:13:36.54	329.54	8.12	-38.7	-39.9	21.3	0.00e+00	10	27	0	991952896	52	5669
2026-01-15 20:13:37.56	329.41	8.07	-38.8	-40.0	21.1	0.00e+00	0	27	0	994050048	50	6426
2026-01-15 20:13:38.57	329.28	8.02	-38.6	-39.7	21.3	0.00e+00	5	27	0	996147200	50	6221
2026-01-15 20:13:39.58	329.15	7.97	-38.5	-39.7	21.4	0.00e+00	5	27	0	997195776	50	6194
2026-01-15 20:13:40.59	329.02	7.92	-38.6	-39.8	21.3	0.00e+00	92	27	0	999292928	50	6268
2026-01-15 20:13:41.60	328.89	7.87	-38.6	-39.7	21.4	0.00e+00	80	27	0	1001390080	50	6218
2026-01-15 20:13:42.60	328.76	7.82	-38.5	-39.7	21.4	0.00e+00	90	27	0	1003487232	50	6174
2026-01-15 20:13:43.62	328.63	7.76	-38.3	-39.5	21.6	0.00e+00	79	27	0	1005584384	50	6035
2026-01-15 20:13:44.62	328.50	7.71	-38.4	-39.5	21.5	0.00e+00	77	27	0	1007681536	50	6092
2026-01-15 20:13:45.63	328.37	7.66	-38.2	-39.3	21.8	0.00e+00	0	27	0	1008730112	50	5908
2026-01-15 20:13:46.64	328.25	7.61	-38.2	-39.3	21.8	0.00e+00	77	27	0	1010827264	50	5921
2026-01-15 20:13:47.65	328.12	7.56	-38.2	-39.3	21.7	0.00e+00	90	27	0	1012924416	50	5946
2026-01-15 20:13:48.66	327.99	7.51	-38.3	-39.4	21.7	0.00e+00	82	27	0	1015021568	50	5983
2026-01-15 20:13:49.67	327.87	7.46	-38.4	-39.5	21.4	0.00e+00	90	27	0	1017118720	50	6098
2026-01-15 20:13:50.68	327.74	7.40	-38.1	-39.2	21.8	0.00e+00	79	27	0	1018167296	50	5864
2026-01-15 20:13:51.69	327.62	7.35	-38.2	-39.3	21.8	0.00e+00	6	27	0	1020264448	50	5911
2026-01-15 20:13:52.70	327.49	7.30	-38.0	-39.0	21.9	0.00e+00	5	27	0	1022361600	50	5743
2026-01-15 20:13:53.71	327.37	7.25	-38.1	-39.2	21.8	0.00e+00	8	27	0	1024458752	50	5856
2026-01-15 20:13:54.72	327.24	7.20	-38.1	-39.2	21.8	0.00e+00	86	27	0	1026555904	50	5876
2026-01-15 20:13:55.73	327.12	7.15	-38.2	-39.3	21.5	0.00e+00	6	27	0	1027604480	50	5905
2026-01-15 20:13:56.74	327.00	7.10	-38.0	-39.1	21.9	0.00e+00	92	27	0	1029701632	50	5766
2026-01-15 20:13:57.75	326.88	7.04	-38.0	-39.1	21.9	0.00e+00	4	27	0	1031798784	50	5805
2026-01-15 20:13:58.76	326.75	6.99	-38.0	-39.1	21.9	0.00e+00	92	27	0	1033895936	50	5774
2026-01-15 20:13:59.77	326.63	6.94	-38.1	-39.2	21.7	0.00e+00	7	27	0	1035993088	50	5871
2026-01-15 20:14:00.78	326.51	6.89	-38.2	-39.3	21.5	0.00e+00	9	27	0	1037041664	50	5952
2026-01-15 20:14:01.78	326.39	6.84	-38.1	-39.2	21.6	0.00e+00	0	27	0	1039138816	50	5881
2026-01-15 20:14:02.79	326.27	6.79	-38.2	-39.3	21.2	0.00e+00	10	27	0	1041235968	50	5912
2026-01-15 20:14:03.80	326.15	6.73	-38.3	-39.4	21.5	0.00e+00	92	27	0	1043333120	50	6015
2026-01-15 20:14:04.81	326.03	6.68	-38.3	-39.4	21.5	0.00e+00	4	27	0	1045430272	50	6023
2026-01-15 20:14:05.82	325.91	6.63	-38.5	-39.6	21.3	0.00e+00	92	27	0	1046478848	50	6166
2026-01-15 20:14:06.83	325.80	6.58	-38.4	-39.5	21.4	0.00e+00	72	27	0	1048576000	50	6086
2026-01-15 20:14:07.84	325.68	6.53	-38.2	-39.3	21.6	0.00e+00	72	27	0	1050673152	50	5923
2026-01-15 20:14:08.85	325.56	6.48	-38.0	-39.1	21.8	0.00e+00	71	27	0	1052770304	50	5812
2026-01-15 20:14:09.86	325.44	6.42	-38.1	-39.2	21.7	0.00e+00	0	27	0	1054867456	50	5894
2026-01-15 20:14:10.87	325.33	6.37	-38.1	-39.3	21.8	0.00e+00	91	27	0	1055916032	50	5898
2026-01-15 20:14:11.88	325.21	6.32	-38.2	-39.3	21.6	0.00e+00	78	27	0	1058013184	50	5949
2026-01-15 20:14:12.89	325.10	6.27	-38.0	-39.1	21.7	0.00e+00	92	27	0	1060110336	50	5819
2026-01-15 20:14:13.90	324.98	6.22	-38.2	-39.3	21.6	0.00e+00	0	27	0	1062207488	50	5935
2026-01-15 20:14:14.91	324.86	6.17	-38.2	-39.3	21.6	0.00e+00	2	27	0	1064304640	50	5953
2026-01-15 20:14:15.92	324.75	6.11	-38.3	-39.5	21.4	0.00e+00	0	27	0	1065353216	50	6058
2026-01-15 20:14:16.93	324.64	6.06	-38.4	-39.5	21.3	0.00e+00	0	27	0	1067450368	50	6079
2026-01-15 20:14:17.94	324.52	6.01	-38.4	-39.6	21.3	0.00e+00	74	27	0	1069547520	50	6123
2026-01-15 20:14:18.95	324.41	5.96	-38.5	-39.7	21.2	0.00e+00	0	27	0	1071644672	50	6221
2026-01-15 20:14:19.96	324.30	5.91	-38.5	-39.7	21.2	0.00e+00	92	27	0	1073741824	50	6218
2026-01-15 20:14:20.97	324.18	5.85	-38.5	-39.7	21.2	0.00e+00	3	27	0	1075838976	50	6206
2026-01-15 20:14:21.98	324.07	5.80	-38.6	-39.8	21.1	0.00e+00	91	27	0	1076887552	50	6288
2026-01-15 20:14:22.99	323.96	5.75	-38.6	-39.8	21.1	0.00e+00	8	27	0	1078984704	50	6267
2026-01-15 20:14:24.00	323.85	5.70	-38.7	-39.9	20.9	0.00e+00	73	27	0	1081081856	50	6382
2026-01-15 20:14:25.01	323.74	5.65	-38.7	-40.0	21.0	0.00e+00	0	27	0	1083179008	50	6396
2026-01-15 20:14:26.02	323.63	5.60	-38.8	-40.0	20.9	0.00e+00	9	27	0	1085276160	50	6434
2026-01-15 20:14:27.03	323.52	5.54	-38.7	-39.9	21.0	0.00e+00	92	27	0	1086324736	50	6336
2026-01-15 20:14:28.03	323.41	5.49	-38.6	-39.8	21.0	0.00e+00	79	27	0	1088421888	50	6310
2026-01-15 20:14:29.04	323.30	5.44	-38.7	-39.9	21.0	0.00e+00	92	27	0	1090519040	50	6354
2026-01-15 20:14:30.05	323.19	5.39	-38.7	-39.9	20.9	0.00e+00	0	27	0	1092616192	50	6335
2026-01-15 20:14:31.06	323.08	5.34	-38.7	-39.9	21.0	0.00e+00	76	27	0	1094713344	50	6376
2026-01-15 20:14:32.07	322.97	5.28	-38.7	-39.9	20.9	0.00e+00	74	27	0	1095761920	50	6390
2026-01-15 20:14:33.08	322.87	5.23	-38.8	-40.0	20.9	0.00e+00	0	27	0	1097859072	50	6417
2026-01-15 20:14:34.09	322.76	5.18	-38.7	-40.0	20.9	0.00e+00	92	27	0	1099956224	50	6404
2026-01-15 20:14:35.10	322.65	5.13	-38.9	-40.2	20.7	0.00e+00	0	27	0	1102053376	50	6567
2026-01-15 20:14:36.11	322.55	5.08	-38.7	-39.9	20.9	0.00e+00	92	27	0	1104150528	50	6349
2026-01-15 20:14:37.12	322.44	5.03	-38.8	-40.0	20.8	0.00e+00	0	27	0	1105199104	50	6444
2026-01-15 20:14:38.13	322.33	4.97	-38.8	-40.1	20.8	0.00e+00	0	27	0	1107296256	50	6472
2026-01-15 20:14:39.14	322.23	4.92	-38.8	-40.1	20.7	0.00e+00	2	27	0	1109393408	50	6483
2026-01-15 20:14:40.14	322.12	4.87	-38.9	-40.2	20.6	0.00e+00	0	27	0	1111490560	50	6559
2026-01-15 20:14:41.15	322.02	4.82	-39.0	-40.3	20.6	0.00e+00	0	27	0	1113587712	50	6616
2026-01-15 20:14:42.16	321.92	4.77	-39.1	-40.4	20.4	0.00e+00	0	27	0	1114636288	50	6726
2026-01-15 20:14:43.17	321.81	4.72	-39.2	-40.4	20.4	0.00e+00	92	27	0	1116733440	50	6767
2026-01-15 20:14:44.18	321.71	4.66	-39.5	-40.9	19.9	0.00e+00	2	27	0	1118830592	50	7098
2026-01-15 20:14:45.19	321.61	4.61	-39.3	-40.7	20.2	0.00e+00	89	27	0	1120927744	50	6959
2026-01-15 20:14:46.20	321.50	4.56	-39.3	-40.7	20.0	0.00e+00	8	27	0	1123024896	50	6943
2026-01-15 20:14:47.21	321.40	4.51	-39.5	-40.8	20.0	0.00e+00	72	27	0	1124073472	50	7086
2026-01-15 20:14:48.22	321.30	4.46	-39.3	-40.7	20.0	0.00e+00	0	27	0	1126170624	50	6962
2026-01-15 20:14:49.23	321.20	4.41	-39.5	-40.9	19.9	0.00e+00	7	27	0	1128267776	50	7095
2026-01-15 20:14:50.24	321.10	4.35	-39.4	-40.8	19.9	0.00e+00	92	27	0	1130364928	50	7050
2026-01-15 20:14:51.25	320.99	4.30	-39.5	-40.9	19.9	0.00e+00	0	27	0	1132462080	50	7089
2026-01-15 20:14:52.26	320.89	4.25	-39.6	-41.0	19.8	0.00e+00	92	27	0	1133510656	50	7210
2026-01-15 20:14:53.27	320.79	4.20	-39.7	-41.1	19.6	0.00e+00	75	27	0	1135607808	50	7314
2026-01-15 20:14:54.28	320.69	4.15	-39.5	-40.9	19.8	0.00e+00	72	27	0	1137704960	50	7099
2026-01-15 20:14:55.29	320.60	4.10	-39.7	-41.2	19.5	0.00e+00	2	27	0	1139802112	52	6552
2026-01-15 20:14:56.30	320.50	4.04	-39.6	-41.0	19.6	0.00e+00	0	27	0	1141899264	52	6450
2026-01-15 20:14:57.31	320.40	3.99	-40.0	-41.5	19.2	0.00e+00	92	27	0	1143996416	52	6793
2026-01-15 20:14:58.32	320.30	3.94	-39.7	-41.2	19.5	0.00e+00	0	27	0	1145044992	52	6543
2026-01-15 20:14:59.33	320.20	3.89	-39.8	-41.3	19.4	0.00e+00	90	27	0	1147142144	52	6675
2026-01-15 20:15:00.34	320.10	3.84	-39.9	-41.4	19.3	0.00e+00	7	27	0	1149239296	52	6713
2026-01-15 20:15:01.35	320.01	3.79	-39.9	-41.4	19.1	0.00e+00	7	27	0	1151336448	52	6735
2026-01-15 20:15:02.36	319.91	3.74	-40.1	-41.7	18.9	0.00e+00	0	27	0	1153433600	52	6963
2026-01-15 20:15:03.37	319.81	3.68	-40.3	-41.9	18.7	0.00e+00	2	27	0	1154482176	52	7103
2026-01-15 20:15:04.38	319.72	3.63	-40.4	-42.1	18.5	0.00e+00	0	27	0	1156579328	52	7290
2026-01-15 20:15:05.39	319.62	3.58	-40.6	-42.3	18.0	0.00e+00	76	27	0	1158676480	52	7426
2026-01-15 20:15:06.39	319.53	3.53	-40.6	-42.3	18.3	0.00e+00	92	27	0	1160773632	54	6639
2026-01-15 20:15:07.41	319.43	3.48	-40.7	-42.4	18.1	0.00e+00	0	27	0	1162870784	54	6748
2026-01-15 20:15:08.42	319.34	3.43	-40.6	-42.3	18.1	0.00e+00	90	27	0	1163919360	54	6647
2026-01-15 20:15:09.42	319.24	3.38	-41.0	-42.8	17.7	0.00e+00	76	27	0	1166016512	54	7039
2026-01-15 20:15:10.44	319.15	3.33	-40.7	-42.4	18.1	0.00e+00	78	27	0	1168113664	54	6753
2026-01-15 20:15:11.44	319.05	3.27	-40.5	-42.1	18.3	0.00e+00	3	27	0	1170210816	54	6539
2026-01-15 20:15:12.46	318.96	3.22	-40.5	-42.2	18.3	0.00e+00	73	27	0	1172307968	54	6615
2026-01-15 20:15:13.46	318.87	3.17	-40.5	-42.2	18.3	0.00e+00	90	27	0	1173356544	54	6589
2026-01-15 20:15:14.47	318.78	3.12	-40.2	-41.8	18.7	0.00e+00	0	27	0	1175453696	54	6298
2026-01-15 20:15:15.48	318.68	3.07	-40.4	-42.1	18.4	0.00e+00	82	27	0	1177550848	54	6532
2026-01-15 20:15:16.49	318.59	3.02	-45.4	-51.8	3.5	5.00e-02	0	27	0	1179648000	56	17689
2026-01-15 20:15:17.50	318.50	2.97	-47.3	-62.4	3.6	1.51e+00	0	27	104	1179648000	60	47671
2026-01-15 20:15:18.51	318.41	2.92	-47.6	-62.8	3.6	1.51e+00	0	27	104	1179648000	60	49853
2026-01-15 20:15:19.52	318.32	2.87	-47.9	-63.0	3.6	1.51e+00	0	27	104	1179648000	60	51085
2026-01-15 20:15:20.53	318.23	2.81	-48.0	-63.2	3.6	1.51e+00	0	27	104	1179648000	60	52047
2026-01-15 20:15:21.54	318.14	2.76	-48.1	-63.2	3.6	1.51e+00	0	27	104	1179648000	60	52275
2026-01-15 20:15:22.55	318.05	2.71	-48.1	-63.3	3.6	1.51e+00	0	27	104	1179648000	60	52974
2026-01-15 20:15:23.56	317.96	2.66	-48.1	-63.4	3.6	1.51e+00	0	27	104	1179648000	60	53163
