passes_logs/2026/01/15/R4.6S_Anadyr/R4.6S_Anadyr__20260115_162452_SUOMI_NPP_rec.log

#Pass ID: 20260115_162452_SUOMI NPP
#Satellite: SUOMI NPP
#Configuration: NPP
#almurnet v.1.7.20251203
#Start time: 2026-01-15 16:24:53

#Version: 2.2.20231116
#Station: R4.6S_Anadyr
#Location: 177.4865 lon 64.73178 lat
#TLE: 1 37849U 11061A   26014.61059675  .00000037  00000+0  38639-4 0  9994
#TLE: 2 37849  98.7810 316.6625 0002460  64.3781 295.7649 14.19525105736658

#Time	Az	El	Level	Level2	SNR	BER	BlckErr	Temp	State	Recorded	gain1	gain2
2026-01-15 16:24:53.23	25.68	0.05	-48.4	-66.2	3.5	3.02e+01	0	25	0	0	60	79009
2026-01-15 16:24:54.24	25.64	0.10	-48.0	-63.2	3.6	1.51e+00	0	26	104	0	60	52393
2026-01-15 16:24:55.25	25.61	0.16	-48.0	-63.2	3.6	1.51e+00	0	26	104	0	60	52322
2026-01-15 16:24:56.26	25.57	0.22	-48.0	-63.3	3.6	1.51e+00	0	26	104	0	60	52597
2026-01-15 16:24:57.27	25.53	0.28	-48.1	-63.3	3.6	1.51e+00	0	26	104	0	60	52868
2026-01-15 16:24:58.28	25.49	0.34	-48.2	-63.4	3.6	1.51e+00	0	26	104	0	60	53320
2026-01-15 16:24:59.29	25.45	0.39	-48.3	-63.5	3.6	1.51e+00	0	26	104	0	60	54185
2026-01-15 16:25:00.30	25.41	0.45	-48.2	-63.4	3.6	1.51e+00	0	26	104	0	60	53598
2026-01-15 16:25:01.31	25.38	0.51	-48.2	-63.5	3.6	1.51e+00	0	26	104	0	60	54288
2026-01-15 16:25:02.32	25.34	0.57	-48.3	-63.5	3.6	1.51e+00	0	26	104	0	60	54109
2026-01-15 16:25:03.33	25.30	0.63	-48.3	-63.5	3.6	1.51e+00	0	26	104	0	60	54019
2026-01-15 16:25:04.34	25.26	0.69	-48.2	-63.4	3.6	1.51e+00	0	27	104	0	60	53528
2026-01-15 16:25:05.35	25.22	0.75	-48.1	-63.3	3.6	1.51e+00	0	26	104	0	60	52823
2026-01-15 16:25:06.36	25.18	0.80	-48.0	-63.3	3.5	1.51e+00	0	26	104	0	60	52890
2026-01-15 16:25:07.37	25.14	0.86	-48.0	-63.1	3.6	1.51e+00	0	27	104	0	60	51727
2026-01-15 16:25:08.38	25.10	0.92	-47.8	-63.0	3.6	1.51e+00	0	26	104	0	60	50972
2026-01-15 16:25:09.39	25.06	0.98	-47.5	-62.8	3.6	1.51e+00	0	27	104	0	60	49688
2026-01-15 16:25:10.40	25.02	1.04	-47.4	-62.7	3.6	1.51e+00	0	27	104	0	60	49182
2026-01-15 16:25:11.41	24.98	1.10	-47.3	-62.4	3.6	1.51e+00	0	27	104	0	60	47649
2026-01-15 16:25:12.42	24.94	1.16	-46.8	-61.9	3.6	1.51e+00	0	27	104	0	60	45179
2026-01-15 16:25:13.43	24.90	1.22	-46.6	-61.7	3.6	1.51e+00	0	27	104	0	60	44156
2026-01-15 16:25:14.44	24.86	1.28	-46.6	-61.7	3.6	1.51e+00	0	27	104	0	60	43959
2026-01-15 16:25:15.45	24.81	1.34	-46.6	-61.7	3.6	1.51e+00	0	27	104	0	60	43845
2026-01-15 16:25:16.46	24.77	1.40	-46.6	-61.7	3.6	1.51e+00	0	27	104	0	60	43821
2026-01-15 16:25:17.47	24.73	1.46	-46.6	-61.6	3.6	1.51e+00	0	27	104	0	60	43615
2026-01-15 16:25:18.48	24.69	1.52	-46.6	-61.7	3.6	1.51e+00	0	27	104	0	60	43862
2026-01-15 16:25:19.49	24.65	1.58	-46.6	-61.7	3.6	1.51e+00	0	27	104	0	60	44125
2026-01-15 16:25:20.49	24.61	1.64	-46.6	-61.7	3.6	1.51e+00	0	27	104	0	60	44045
2026-01-15 16:25:21.50	24.56	1.70	-46.6	-61.7	3.6	1.51e+00	0	27	104	0	60	44025
2026-01-15 16:25:22.51	24.52	1.76	-46.6	-61.7	3.6	1.51e+00	0	27	104	0	60	43743
2026-01-15 16:25:23.52	24.48	1.82	-46.6	-61.6	3.6	1.51e+00	0	27	104	0	60	43533
2026-01-15 16:25:24.53	24.44	1.88	-46.6	-61.5	3.6	1.51e+00	0	27	104	0	60	43191
2026-01-15 16:25:25.54	24.39	1.94	-46.6	-61.5	3.6	1.51e+00	0	27	104	0	60	43161
2026-01-15 16:25:26.55	24.35	2.01	-46.6	-61.6	3.5	1.51e+00	0	27	104	0	60	43252
2026-01-15 16:25:27.56	24.31	2.07	-46.6	-61.5	3.6	1.51e+00	0	27	104	0	60	43162
2026-01-15 16:25:28.57	24.26	2.13	-46.6	-61.7	3.6	1.51e+00	0	27	104	0	60	44133
2026-01-15 16:25:29.58	24.22	2.19	-46.6	-61.7	3.6	1.51e+00	0	27	104	0	60	44060
2026-01-15 16:25:30.59	24.17	2.25	-46.6	-61.7	3.6	1.51e+00	0	27	104	0	60	44179
2026-01-15 16:25:31.60	24.13	2.31	-46.6	-61.7	3.6	1.51e+00	0	27	104	0	60	43824
2026-01-15 16:25:32.61	24.08	2.37	-46.6	-61.7	3.6	1.51e+00	0	27	104	0	60	43714
2026-01-15 16:25:33.62	24.04	2.44	-46.6	-61.6	3.6	1.51e+00	0	27	104	0	60	43469
2026-01-15 16:25:34.63	23.99	2.50	-46.6	-61.5	3.6	1.51e+00	0	27	104	0	60	42888
2026-01-15 16:25:35.64	23.95	2.56	-46.6	-61.4	3.6	1.51e+00	0	27	104	0	60	42593
2026-01-15 16:25:36.65	23.90	2.62	-46.6	-61.3	3.6	1.51e+00	0	27	104	0	60	42028
2026-01-15 16:25:37.66	23.86	2.69	-46.5	-60.9	3.6	1.51e+00	0	27	104	0	60	40107
2026-01-15 16:25:38.67	23.81	2.75	-46.5	-60.9	3.6	1.51e+00	0	27	104	0	60	39873
2026-01-15 16:25:39.68	23.77	2.81	-46.5	-61.3	3.6	1.51e+00	0	27	104	0	60	41922
2026-01-15 16:25:40.69	23.72	2.87	-46.6	-61.6	3.6	1.51e+00	0	27	104	0	60	43540
2026-01-15 16:25:41.70	23.67	2.94	-46.6	-61.6	3.6	1.51e+00	0	27	104	0	60	43376
2026-01-15 16:25:42.71	23.63	3.00	-46.5	-60.4	3.6	1.51e+00	0	27	104	0	60	37810
2026-01-15 16:25:43.72	23.58	3.06	-46.3	-57.5	4.3	1.39e+00	17	27	0	0	60	27140
2026-01-15 16:25:44.73	23.53	3.13	-46.1	-54.2	5.7	6.05e-01	92	27	0	1048576	60	18445
2026-01-15 16:25:45.74	23.49	3.19	-45.6	-52.1	7.9	2.09e-01	0	27	0	3145728	60	14481
2026-01-15 16:25:46.75	23.44	3.25	-45.2	-50.7	9.5	2.55e-02	0	27	0	5242880	60	12353
2026-01-15 16:25:47.76	23.39	3.32	-44.8	-49.6	10.8	4.75e-03	0	27	0	7340032	60	10877
2026-01-15 16:25:48.77	23.34	3.38	-44.6	-49.1	11.3	1.53e-03	0	27	0	9437184	60	10316
2026-01-15 16:25:49.78	23.30	3.44	-44.4	-48.6	11.8	9.35e-04	44	27	0	10485760	60	9691
2026-01-15 16:25:50.79	23.25	3.51	-44.6	-49.1	11.3	1.04e-03	0	27	0	12582912	60	10272
2026-01-15 16:25:51.80	23.20	3.57	-46.6	-61.1	3.6	6.15e-02	0	27	104	14680064	60	41044
2026-01-15 16:25:52.81	23.15	3.64	-46.3	-56.0	4.3	1.49e+00	0	27	104	14680064	60	22854
2026-01-15 16:25:53.82	23.10	3.70	-46.3	-56.7	3.8	2.10e-02	0	27	0	14680064	60	24812
2026-01-15 16:25:54.83	23.05	3.77	-40.6	-42.3	17.3	5.54e-01	0	27	104	14680064	54	6653
2026-01-15 16:25:55.83	23.00	3.83	-46.5	-61.4	3.6	0.00e+00	0	27	104	15728640	60	42438
2026-01-15 16:25:56.84	22.95	3.89	-41.4	-43.4	6.0	1.48e+00	0	27	104	15728640	58	6015
2026-01-15 16:25:57.85	22.90	3.96	-41.0	-42.8	17.8	0.00e+00	0	27	0	15728640	56	6317
2026-01-15 16:25:58.86	22.85	4.02	-40.7	-42.4	18.3	0.00e+00	72	27	0	17825792	54	6724
2026-01-15 16:25:59.87	22.80	4.09	-40.5	-42.1	18.5	0.00e+00	0	27	0	19922944	54	6531
2026-01-15 16:26:00.88	22.75	4.15	-40.6	-42.3	18.4	0.00e+00	0	27	0	20971520	54	6671
2026-01-15 16:26:01.89	22.70	4.22	-40.3	-41.9	18.8	0.00e+00	0	27	0	23068672	54	6363
2026-01-15 16:26:02.90	22.65	4.29	-40.5	-42.2	18.5	0.00e+00	0	27	0	25165824	54	6540
2026-01-15 16:26:03.91	22.60	4.35	-40.4	-42.1	18.6	0.00e+00	0	27	0	27262976	54	6485
2026-01-15 16:26:04.92	22.55	4.42	-40.4	-42.0	18.7	0.00e+00	0	27	0	29360128	54	6404
2026-01-15 16:26:05.93	22.49	4.48	-40.6	-42.2	18.4	0.00e+00	92	27	0	30408704	54	6614
2026-01-15 16:26:06.94	22.44	4.55	-40.3	-42.0	18.7	0.00e+00	0	27	0	32505856	54	6402
2026-01-15 16:26:07.95	22.39	4.62	-40.4	-42.0	18.8	0.00e+00	0	27	0	34603008	54	6411
2026-01-15 16:26:08.96	22.34	4.68	-40.5	-42.2	18.5	0.00e+00	0	27	0	36700160	54	6560
2026-01-15 16:26:09.96	22.28	4.75	-40.4	-42.1	18.6	0.00e+00	0	27	0	38797312	54	6490
2026-01-15 16:26:10.97	22.23	4.82	-40.3	-42.0	18.8	0.00e+00	9	27	0	39845888	54	6392
2026-01-15 16:26:11.98	22.18	4.88	-40.6	-42.3	18.4	0.00e+00	0	27	0	41943040	54	6656
2026-01-15 16:26:13.00	22.12	4.95	-40.5	-42.2	18.6	0.00e+00	90	27	0	44040192	54	6561
2026-01-15 16:26:14.00	22.07	5.02	-40.4	-42.0	18.7	0.00e+00	0	27	0	46137344	54	6413
2026-01-15 16:26:15.01	22.01	5.08	-40.5	-42.1	18.7	0.00e+00	92	27	0	48234496	54	6500
2026-01-15 16:26:16.02	21.96	5.15	-40.6	-42.3	18.7	0.00e+00	0	27	0	49283072	54	6666
2026-01-15 16:26:17.03	21.90	5.22	-40.5	-42.1	18.7	0.00e+00	0	27	0	51380224	54	6496
2026-01-15 16:26:18.05	21.85	5.29	-40.3	-41.9	19.0	0.00e+00	0	27	0	53477376	54	6375
2026-01-15 16:26:19.05	21.79	5.35	-40.5	-42.1	18.8	0.00e+00	0	27	0	55574528	54	6500
2026-01-15 16:26:20.07	21.74	5.42	-40.6	-42.3	18.7	0.00e+00	92	27	0	57671680	54	6630
2026-01-15 16:26:21.07	21.68	5.49	-40.3	-41.8	19.0	0.00e+00	0	27	0	58720256	54	6314
2026-01-15 16:26:22.08	21.63	5.56	-40.2	-41.8	19.0	0.00e+00	15	27	0	60817408	54	6253
2026-01-15 16:26:23.09	21.57	5.63	-40.4	-41.9	19.0	0.00e+00	0	27	0	62914560	54	6384
2026-01-15 16:26:24.10	21.51	5.70	-40.1	-41.6	19.3	0.00e+00	0	27	0	65011712	54	6123
2026-01-15 16:26:25.11	21.45	5.76	-40.1	-41.6	19.3	0.00e+00	0	27	0	67108864	54	6152
2026-01-15 16:26:26.12	21.40	5.83	-40.2	-41.7	19.3	0.00e+00	0	27	0	69206016	54	6207
2026-01-15 16:26:27.13	21.34	5.90	-40.3	-41.9	19.0	0.00e+00	44	27	0	70254592	54	6359
2026-01-15 16:26:28.14	21.28	5.97	-40.2	-41.7	19.1	0.00e+00	0	27	0	72351744	54	6239
2026-01-15 16:26:29.15	21.22	6.04	-40.3	-41.9	19.1	0.00e+00	92	27	0	74448896	54	6328
2026-01-15 16:26:30.16	21.16	6.11	-40.2	-41.8	19.2	0.00e+00	0	27	0	76546048	54	6259
2026-01-15 16:26:31.17	21.11	6.18	-40.0	-41.5	19.4	0.00e+00	0	27	0	78643200	54	6082
2026-01-15 16:26:32.18	21.05	6.25	-40.0	-41.5	19.4	0.00e+00	0	27	0	79691776	54	6046
2026-01-15 16:26:33.19	20.99	6.32	-40.1	-41.6	19.4	0.00e+00	32	27	0	81788928	54	6117
2026-01-15 16:26:34.20	20.93	6.39	-40.0	-41.5	19.4	0.00e+00	46	27	0	83886080	54	6051
2026-01-15 16:26:35.21	20.87	6.46	-40.1	-41.6	19.4	0.00e+00	0	27	0	85983232	54	6156
2026-01-15 16:26:36.22	20.81	6.53	-40.1	-41.6	19.5	0.00e+00	80	27	0	88080384	54	6116
2026-01-15 16:26:37.23	20.75	6.60	-40.2	-41.7	19.4	0.00e+00	0	27	0	89128960	54	6235
2026-01-15 16:26:38.24	20.68	6.67	-40.0	-41.5	19.5	0.00e+00	0	27	0	91226112	54	6061
2026-01-15 16:26:39.25	20.62	6.74	-40.1	-41.5	19.5	0.00e+00	0	27	0	93323264	54	6098
2026-01-15 16:26:40.26	20.56	6.81	-40.1	-41.5	19.4	0.00e+00	0	27	0	95420416	54	6093
2026-01-15 16:26:41.27	20.50	6.89	-40.1	-41.6	19.5	0.00e+00	18	27	0	97517568	54	6134
2026-01-15 16:26:42.28	20.44	6.96	-40.2	-41.7	19.3	0.00e+00	0	27	0	98566144	54	6244
2026-01-15 16:26:43.29	20.37	7.03	-40.0	-41.5	19.5	0.00e+00	50	27	0	100663296	54	6064
2026-01-15 16:26:44.30	20.31	7.10	-39.9	-41.3	19.8	0.00e+00	0	27	0	102760448	54	5914
2026-01-15 16:26:45.31	20.25	7.17	-39.8	-41.1	20.0	0.00e+00	32	27	0	104857600	52	6519
2026-01-15 16:26:46.32	20.18	7.25	-39.8	-41.2	19.9	0.00e+00	0	27	0	106954752	52	6568
2026-01-15 16:26:47.33	20.12	7.32	-39.7	-41.1	19.9	0.00e+00	0	27	0	108003328	52	6487
2026-01-15 16:26:48.34	20.06	7.39	-39.7	-41.1	20.0	0.00e+00	0	27	0	110100480	52	6492
2026-01-15 16:26:49.35	19.99	7.46	-39.8	-41.1	20.0	0.00e+00	0	27	0	112197632	52	6524
2026-01-15 16:26:50.36	19.93	7.54	-39.6	-40.9	20.1	0.00e+00	92	27	0	114294784	52	6376
2026-01-15 16:26:51.37	19.86	7.61	-39.5	-40.8	20.2	0.00e+00	0	27	0	116391936	52	6272
2026-01-15 16:26:52.38	19.80	7.68	-39.6	-40.9	20.3	0.00e+00	70	27	0	117440512	52	6348
2026-01-15 16:26:53.40	19.73	7.76	-39.5	-40.8	20.3	0.00e+00	0	27	0	119537664	52	6261
2026-01-15 16:26:54.41	19.66	7.83	-39.3	-40.5	20.5	0.00e+00	0	27	0	121634816	52	6098
2026-01-15 16:26:55.42	19.60	7.90	-39.4	-40.7	20.5	0.00e+00	25	27	0	123731968	52	6178
2026-01-15 16:26:56.43	19.53	7.98	-39.3	-40.5	20.6	0.00e+00	0	27	0	125829120	52	6083
2026-01-15 16:26:57.44	19.46	8.05	-39.1	-40.4	20.6	0.00e+00	41	27	0	126877696	52	5997
2026-01-15 16:26:58.45	19.39	8.12	-39.2	-40.4	20.6	0.00e+00	0	27	0	128974848	52	6010
2026-01-15 16:26:59.46	19.32	8.20	-39.2	-40.4	20.6	0.00e+00	48	27	0	131072000	52	5999
2026-01-15 16:27:00.46	19.26	8.27	-39.1	-40.4	20.7	0.00e+00	0	27	0	133169152	52	5977
2026-01-15 16:27:01.47	19.19	8.35	-39.1	-40.3	20.7	0.00e+00	0	27	0	135266304	52	5935
2026-01-15 16:27:02.48	19.12	8.42	-39.1	-40.4	20.7	0.00e+00	0	27	0	137363456	52	5975
2026-01-15 16:27:03.49	19.05	8.50	-38.9	-40.1	21.0	0.00e+00	0	27	0	138412032	52	5786
2026-01-15 16:27:04.50	18.98	8.57	-38.8	-40.0	21.0	0.00e+00	35	27	0	140509184	50	6455
2026-01-15 16:27:05.51	18.91	8.65	-39.0	-40.2	20.8	0.00e+00	0	27	0	142606336	50	6572
2026-01-15 16:27:06.52	18.84	8.72	-38.8	-39.9	21.0	0.00e+00	44	27	0	144703488	50	6389
2026-01-15 16:27:07.53	18.77	8.80	-38.9	-40.1	20.9	0.00e+00	0	27	0	146800640	50	6533
2026-01-15 16:27:08.54	18.69	8.88	-38.8	-40.0	21.0	0.00e+00	0	27	0	147849216	50	6443
2026-01-15 16:27:09.55	18.62	8.95	-38.9	-40.1	20.9	0.00e+00	0	27	0	149946368	50	6510
2026-01-15 16:27:10.56	18.55	9.03	-39.0	-40.2	20.8	0.00e+00	0	27	0	152043520	50	6560
2026-01-15 16:27:11.57	18.48	9.11	-39.0	-40.2	20.9	0.00e+00	34	27	0	154140672	50	6559
2026-01-15 16:27:12.57	18.40	9.18	-39.2	-40.5	20.7	0.00e+00	0	27	0	156237824	50	6780
2026-01-15 16:27:13.58	18.33	9.26	-38.9	-40.1	21.0	0.00e+00	74	27	0	157286400	50	6533
2026-01-15 16:27:14.60	18.26	9.34	-39.1	-40.3	20.8	0.00e+00	0	27	0	159383552	50	6657
2026-01-15 16:27:15.60	18.18	9.41	-39.0	-40.2	20.9	0.00e+00	0	27	0	161480704	50	6559
2026-01-15 16:27:16.62	18.11	9.49	-39.0	-40.2	20.8	0.00e+00	0	27	0	163577856	50	6615
2026-01-15 16:27:17.63	18.03	9.57	-39.0	-40.3	20.9	0.00e+00	0	27	0	165675008	50	6618
2026-01-15 16:27:18.64	17.95	9.65	-38.9	-40.1	20.9	0.00e+00	0	27	0	166723584	50	6514
2026-01-15 16:27:19.64	17.88	9.72	-38.6	-39.8	21.3	0.00e+00	0	27	0	168820736	50	6254
2026-01-15 16:27:20.65	17.80	9.80	-39.1	-40.3	20.8	0.00e+00	79	27	0	170917888	50	6691
2026-01-15 16:27:21.66	17.73	9.88	-39.0	-40.2	20.9	0.00e+00	0	27	0	173015040	50	6610
2026-01-15 16:27:22.67	17.65	9.96	-38.9	-40.2	20.8	0.00e+00	0	27	0	175112192	50	6548
2026-01-15 16:27:23.68	17.57	10.04	-39.2	-40.5	20.7	0.00e+00	0	27	0	176160768	50	6833
2026-01-15 16:27:24.69	17.49	10.12	-39.1	-40.5	20.8	0.00e+00	0	27	0	178257920	50	6777
2026-01-15 16:27:25.70	17.41	10.20	-39.1	-40.3	20.8	0.00e+00	46	27	0	180355072	50	6683
2026-01-15 16:27:26.71	17.33	10.28	-39.1	-40.3	20.8	0.00e+00	0	27	0	182452224	50	6660
2026-01-15 16:27:27.72	17.25	10.36	-39.0	-40.2	20.9	0.00e+00	44	27	0	184549376	50	6608
2026-01-15 16:27:28.73	17.17	10.44	-39.2	-40.5	20.7	0.00e+00	0	27	0	185597952	50	6803
2026-01-15 16:27:29.74	17.09	10.52	-39.3	-40.5	20.7	0.00e+00	92	27	0	187695104	50	6834
2026-01-15 16:27:30.75	17.01	10.60	-39.2	-40.4	20.7	0.00e+00	0	27	0	189792256	50	6746
2026-01-15 16:27:31.76	16.93	10.68	-39.0	-40.2	21.0	0.00e+00	0	28	0	191889408	50	6607
2026-01-15 16:27:32.77	16.85	10.76	-38.7	-39.9	21.2	0.00e+00	0	27	0	193986560	50	6363
2026-01-15 16:27:33.77	16.77	10.84	-38.9	-40.1	21.0	0.00e+00	0	28	0	195035136	50	6514
2026-01-15 16:27:34.78	16.68	10.92	-38.6	-39.7	21.4	0.00e+00	46	27	0	197132288	50	6236
2026-01-15 16:27:35.79	16.60	11.00	-38.2	-39.3	21.8	0.00e+00	0	27	0	199229440	50	5925
2026-01-15 16:27:36.80	16.52	11.08	-38.8	-39.9	21.3	0.00e+00	92	27	0	201326592	50	6364
2026-01-15 16:27:37.81	16.43	11.16	-38.5	-39.6	21.5	0.00e+00	0	27	0	203423744	50	6132
2026-01-15 16:27:38.82	16.35	11.25	-38.5	-39.6	21.6	0.00e+00	0	27	0	205520896	50	6154
2026-01-15 16:27:39.83	16.26	11.33	-38.2	-39.3	21.7	0.00e+00	0	27	0	206569472	50	5928
2026-01-15 16:27:40.84	16.18	11.41	-38.4	-39.5	21.7	0.00e+00	0	27	0	208666624	50	6059
2026-01-15 16:27:41.85	16.09	11.49	-38.1	-39.2	21.7	0.00e+00	47	27	0	210763776	50	5852
2026-01-15 16:27:42.86	16.00	11.58	-38.2	-39.3	21.9	0.00e+00	0	28	0	212860928	50	5921
2026-01-15 16:27:43.87	15.91	11.66	-37.9	-39.0	22.0	0.00e+00	73	27	0	214958080	50	5697
2026-01-15 16:27:44.88	15.83	11.74	-38.2	-39.2	21.9	0.00e+00	0	27	0	216006656	50	5885
2026-01-15 16:27:45.89	15.74	11.82	-38.0	-39.0	22.1	0.00e+00	0	27	0	218103808	50	5758
2026-01-15 16:27:46.90	15.65	11.91	-38.0	-39.1	21.9	0.00e+00	0	27	0	220200960	48	6511
2026-01-15 16:27:47.91	15.56	11.99	-38.1	-39.1	21.9	0.00e+00	0	27	0	222298112	48	6519
2026-01-15 16:27:48.92	15.47	12.08	-37.9	-39.0	22.1	0.00e+00	50	27	0	224395264	48	6401
2026-01-15 16:27:49.93	15.38	12.16	-38.2	-39.3	21.8	0.00e+00	0	27	0	225443840	48	6640
2026-01-15 16:27:50.93	15.29	12.24	-38.3	-39.3	21.8	0.00e+00	77	27	0	227540992	48	6690
2026-01-15 16:27:51.94	15.20	12.33	-37.9	-38.9	22.1	0.00e+00	0	27	0	229638144	48	6339
2026-01-15 16:27:52.95	15.10	12.41	-37.7	-38.7	22.4	0.00e+00	0	27	0	231735296	48	6199
2026-01-15 16:27:53.96	15.01	12.50	-37.7	-38.7	22.4	0.00e+00	0	27	0	233832448	48	6200
2026-01-15 16:27:54.97	14.92	12.58	-37.5	-38.5	22.5	0.00e+00	0	27	0	234881024	48	6082
2026-01-15 16:27:55.98	14.82	12.67	-37.7	-38.7	22.4	0.00e+00	0	27	0	236978176	48	6201
2026-01-15 16:27:56.99	14.73	12.76	-37.4	-38.4	22.6	0.00e+00	0	27	0	239075328	48	6006
2026-01-15 16:27:58.00	14.64	12.84	-37.7	-38.7	22.3	0.00e+00	92	27	0	241172480	48	6188
2026-01-15 16:27:59.01	14.54	12.93	-37.7	-38.7	22.3	0.00e+00	0	27	0	243269632	48	6243
2026-01-15 16:28:00.02	14.44	13.01	-37.6	-38.6	22.4	0.00e+00	78	27	0	244318208	48	6140
2026-01-15 16:28:01.03	14.35	13.10	-37.7	-38.7	22.3	0.00e+00	0	28	0	246415360	48	6245
2026-01-15 16:28:02.04	14.25	13.19	-37.7	-38.7	22.3	0.00e+00	0	27	0	248512512	48	6216
2026-01-15 16:28:03.05	14.15	13.28	-37.7	-38.7	22.4	0.00e+00	9	27	0	250609664	48	6191
2026-01-15 16:28:04.06	14.05	13.36	-37.6	-38.6	22.4	0.00e+00	0	27	0	252706816	48	6149
2026-01-15 16:28:05.07	13.95	13.45	-37.7	-38.7	22.3	0.00e+00	15	28	0	253755392	48	6191
2026-01-15 16:28:06.08	13.85	13.54	-38.1	-39.1	22.0	0.00e+00	0	28	0	255852544	48	6517
2026-01-15 16:28:07.09	13.75	13.63	-38.0	-39.0	22.1	0.00e+00	26	28	0	257949696	48	6425
2026-01-15 16:28:08.10	13.65	13.72	-38.1	-39.1	22.1	0.00e+00	0	28	0	260046848	48	6516
2026-01-15 16:28:09.11	13.55	13.80	-37.9	-39.0	22.2	0.00e+00	0	28	0	262144000	48	6396
2026-01-15 16:28:10.12	13.45	13.89	-37.9	-38.9	22.3	0.00e+00	0	27	0	263192576	48	6350
2026-01-15 16:28:11.13	13.34	13.98	-37.7	-38.7	22.3	0.00e+00	0	27	0	265289728	48	6243
2026-01-15 16:28:12.14	13.24	14.07	-37.9	-39.0	22.0	0.00e+00	47	28	0	267386880	48	6391
2026-01-15 16:28:13.15	13.14	14.16	-37.9	-38.9	22.3	0.00e+00	0	27	0	269484032	48	6337
2026-01-15 16:28:14.16	13.03	14.25	-38.0	-39.1	22.0	0.00e+00	58	28	0	271581184	48	6500
2026-01-15 16:28:15.17	12.93	14.34	-38.2	-39.2	22.0	0.00e+00	0	27	0	273678336	48	6591
2026-01-15 16:28:16.18	12.82	14.43	-38.0	-39.1	22.1	0.00e+00	0	27	0	274726912	48	6485
2026-01-15 16:28:17.19	12.71	14.52	-38.3	-39.4	21.8	0.00e+00	32	27	0	276824064	48	6715
2026-01-15 16:28:18.19	12.61	14.61	-38.2	-39.3	21.8	0.00e+00	0	28	0	278921216	48	6661
2026-01-15 16:28:19.20	12.50	14.70	-38.4	-39.5	21.8	0.00e+00	50	28	0	281018368	48	6782
2026-01-15 16:28:20.21	12.39	14.79	-38.3	-39.4	21.7	0.00e+00	0	27	0	283115520	48	6710
2026-01-15 16:28:21.22	12.28	14.88	-38.1	-39.2	22.0	0.00e+00	63	28	0	284164096	48	6575
2026-01-15 16:28:22.23	12.17	14.98	-38.0	-39.1	22.1	0.00e+00	0	28	0	286261248	48	6487
2026-01-15 16:28:23.24	12.06	15.07	-38.1	-39.2	22.1	0.00e+00	25	28	0	288358400	48	6553
2026-01-15 16:28:24.25	11.95	15.16	-37.8	-38.9	22.2	0.00e+00	0	27	0	290455552	48	6340
2026-01-15 16:28:25.26	11.83	15.25	-37.8	-38.8	22.3	0.00e+00	0	27	0	292552704	48	6307
2026-01-15 16:28:26.27	11.72	15.34	-37.6	-38.6	22.5	0.00e+00	21	28	0	293601280	48	6154
2026-01-15 16:28:27.28	11.61	15.44	-37.7	-38.7	22.5	0.00e+00	0	28	0	295698432	48	6221
2026-01-15 16:28:28.29	11.49	15.53	-37.5	-38.5	22.6	0.00e+00	49	27	0	297795584	48	6045
2026-01-15 16:28:29.30	11.38	15.62	-37.5	-38.4	22.7	0.00e+00	0	28	0	299892736	48	6019
2026-01-15 16:28:30.31	11.26	15.72	-37.5	-38.5	22.6	0.00e+00	0	28	0	301989888	48	6067
2026-01-15 16:28:31.32	11.14	15.81	-37.3	-38.3	22.8	0.00e+00	0	27	0	303038464	48	5911
2026-01-15 16:28:32.32	11.03	15.90	-37.2	-38.1	22.9	0.00e+00	0	27	0	305135616	48	5802
2026-01-15 16:28:33.34	10.91	16.00	-37.2	-38.2	22.9	0.00e+00	0	27	0	307232768	48	5851
2026-01-15 16:28:34.34	10.79	16.09	-37.1	-38.1	23.0	0.00e+00	0	28	0	309329920	48	5780
2026-01-15 16:28:35.35	10.67	16.19	-37.2	-38.2	22.9	0.00e+00	92	27	0	311427072	48	5845
2026-01-15 16:28:36.36	10.55	16.28	-37.1	-38.0	23.1	0.00e+00	0	27	0	312475648	48	5732
2026-01-15 16:28:37.37	10.43	16.38	-37.1	-38.0	23.1	0.00e+00	79	27	0	314572800	48	5705
2026-01-15 16:28:38.38	10.30	16.47	-37.1	-38.0	23.1	0.00e+00	0	27	0	316669952	48	5705
2026-01-15 16:28:39.39	10.18	16.57	-36.9	-37.8	23.2	0.00e+00	0	27	0	318767104	48	5615
2026-01-15 16:28:40.40	10.06	16.66	-37.2	-38.2	22.9	0.00e+00	0	28	0	320864256	48	5844
2026-01-15 16:28:41.41	9.93	16.76	-37.2	-38.1	22.9	0.00e+00	0	28	0	321912832	48	5824
2026-01-15 16:28:42.42	9.81	16.86	-37.6	-38.6	22.5	0.00e+00	39	28	0	324009984	48	6146
2026-01-15 16:28:43.43	9.68	16.95	-37.5	-38.5	22.5	0.00e+00	0	27	0	326107136	48	6071
2026-01-15 16:28:44.44	9.55	17.05	-37.6	-38.5	22.6	0.00e+00	80	28	0	328204288	48	6089
2026-01-15 16:28:45.45	9.43	17.15	-37.6	-38.5	22.5	0.00e+00	0	28	0	330301440	48	6093
2026-01-15 16:28:46.46	9.30	17.24	-37.8	-38.8	22.5	0.00e+00	0	28	0	331350016	48	6268
2026-01-15 16:28:47.47	9.17	17.34	-37.9	-38.9	22.4	0.00e+00	0	27	0	333447168	48	6370
2026-01-15 16:28:48.48	9.04	17.44	-37.9	-38.9	22.3	0.00e+00	0	27	0	335544320	48	6386
2026-01-15 16:28:49.49	8.90	17.54	-37.7	-38.7	22.5	0.00e+00	45	27	0	337641472	48	6217
2026-01-15 16:28:50.50	8.77	17.63	-37.8	-38.8	22.6	0.00e+00	0	27	0	339738624	48	6306
2026-01-15 16:28:51.51	8.64	17.73	-37.6	-38.6	22.6	0.00e+00	92	28	0	341835776	48	6110
2026-01-15 16:28:52.52	8.50	17.83	-37.5	-38.5	22.7	0.00e+00	0	28	0	342884352	48	6056
2026-01-15 16:28:53.53	8.37	17.93	-37.1	-38.0	23.0	0.00e+00	0	28	0	344981504	48	5710
2026-01-15 16:28:54.54	8.23	18.03	-37.2	-38.1	22.9	0.00e+00	0	27	0	347078656	48	5788
2026-01-15 16:28:55.55	8.10	18.13	-37.3	-38.3	22.8	0.00e+00	0	28	0	349175808	48	5919
2026-01-15 16:28:56.56	7.96	18.23	-37.2	-38.2	23.0	0.00e+00	42	27	0	351272960	48	5852
2026-01-15 16:28:57.57	7.82	18.33	-37.4	-38.4	22.8	0.00e+00	0	28	0	352321536	48	5993
2026-01-15 16:28:58.58	7.68	18.43	-37.7	-38.7	22.7	0.00e+00	69	28	0	354418688	48	6208
2026-01-15 16:28:59.59	7.54	18.53	-37.7	-38.7	22.6	0.00e+00	0	27	0	356515840	48	6177
2026-01-15 16:29:00.57	7.40	18.63	-37.8	-38.8	22.4	0.00e+00	0	27	0	358612992	48	6269
2026-01-15 16:29:01.58	7.26	18.73	-37.9	-38.9	22.4	0.00e+00	0	27	0	359661568	48	6372
2026-01-15 16:29:02.59	7.12	18.83	-38.0	-39.0	22.3	0.00e+00	0	28	0	361758720	48	6419
2026-01-15 16:29:03.60	6.97	18.93	-38.3	-39.4	21.9	0.00e+00	0	28	0	363855872	48	6708
2026-01-15 16:29:04.61	6.83	19.03	-38.2	-39.2	22.2	0.00e+00	0	27	0	365953024	48	6615
2026-01-15 16:29:05.62	6.68	19.13	-38.2	-39.2	22.2	0.00e+00	82	27	0	368050176	48	6589
2026-01-15 16:29:06.63	6.53	19.23	-38.3	-39.4	22.1	0.00e+00	0	27	0	370147328	48	6746
2026-01-15 16:29:07.64	6.38	19.33	-38.1	-39.2	22.2	0.00e+00	30	27	0	371195904	48	6585
2026-01-15 16:29:08.65	6.23	19.44	-38.0	-39.0	22.1	0.00e+00	0	27	0	373293056	48	6449
2026-01-15 16:29:09.66	6.08	19.54	-38.2	-39.3	22.0	0.00e+00	0	27	0	375390208	48	6643
2026-01-15 16:29:10.67	5.93	19.64	-38.1	-39.2	21.6	0.00e+00	9	27	0	377487360	48	6605
2026-01-15 16:29:11.68	5.78	19.74	-38.4	-39.6	21.5	0.00e+00	0	27	0	379584512	48	6876
2026-01-15 16:29:12.69	5.63	19.85	-38.1	-39.3	22.1	0.00e+00	46	27	0	380633088	48	6628
2026-01-15 16:29:13.70	5.47	19.95	-38.0	-39.1	22.3	0.00e+00	0	27	0	382730240	48	6503
2026-01-15 16:29:14.71	5.32	20.05	-38.3	-39.4	22.0	0.00e+00	83	27	0	384827392	48	6747
2026-01-15 16:29:15.72	5.16	20.16	-38.1	-39.1	22.3	0.00e+00	0	27	0	386924544	48	6536
2026-01-15 16:29:16.73	5.00	20.26	-38.1	-39.1	22.3	0.00e+00	0	27	0	389021696	48	6510
2026-01-15 16:29:17.74	4.84	20.37	-38.2	-39.2	22.3	0.00e+00	0	27	0	390070272	48	6577
2026-01-15 16:29:18.75	4.68	20.47	-37.8	-38.8	22.6	0.00e+00	0	27	0	392167424	48	6260
2026-01-15 16:29:19.76	4.52	20.57	-38.6	-39.7	22.0	0.00e+00	49	27	0	394264576	48	6943
2026-01-15 16:29:20.77	4.36	20.68	-38.0	-39.0	22.3	0.00e+00	0	27	0	396361728	48	6455
2026-01-15 16:29:21.78	4.19	20.78	-38.3	-39.3	22.1	0.00e+00	51	27	0	398458880	48	6646
2026-01-15 16:29:22.79	4.03	20.89	-38.1	-39.1	22.4	0.00e+00	0	27	0	399507456	48	6483
2026-01-15 16:29:23.80	3.86	20.99	-38.1	-39.1	22.3	0.00e+00	0	27	0	401604608	48	6519
2026-01-15 16:29:24.81	3.70	21.10	-38.2	-39.3	22.1	0.00e+00	0	28	0	403701760	48	6646
2026-01-15 16:29:25.82	3.53	21.21	-37.9	-38.9	22.4	0.00e+00	0	27	0	405798912	48	6383
2026-01-15 16:29:26.83	3.36	21.31	-37.6	-38.6	22.6	0.00e+00	23	27	0	407896064	48	6155
2026-01-15 16:29:27.83	3.19	21.42	-38.0	-39.1	22.4	0.00e+00	0	28	0	408944640	48	6496
2026-01-15 16:29:28.85	3.02	21.52	-37.6	-38.7	22.8	0.00e+00	90	28	0	411041792	48	6180
2026-01-15 16:29:29.85	2.85	21.63	-37.3	-38.3	22.9	0.00e+00	0	27	0	413138944	48	5934
2026-01-15 16:29:30.86	2.67	21.73	-37.5	-38.5	22.8	0.00e+00	0	27	0	415236096	48	6082
2026-01-15 16:29:31.87	2.50	21.84	-37.6	-38.6	22.6	0.00e+00	0	27	0	417333248	48	6156
2026-01-15 16:29:32.88	2.32	21.95	-37.4	-38.3	22.6	0.00e+00	0	27	0	418381824	48	5960
2026-01-15 16:29:33.89	2.14	22.05	-37.5	-38.5	22.8	0.00e+00	14	27	0	420478976	48	6066
2026-01-15 16:29:34.90	1.96	22.16	-37.4	-38.4	22.8	0.00e+00	0	28	0	422576128	48	6003
2026-01-15 16:29:35.91	1.78	22.27	-37.5	-38.5	22.8	0.00e+00	88	27	0	424673280	48	6098
2026-01-15 16:29:36.92	1.60	22.38	-37.5	-38.5	22.8	0.00e+00	0	27	0	426770432	48	6083
2026-01-15 16:29:37.93	1.42	22.48	-37.2	-38.2	23.0	0.00e+00	19	27	0	427819008	48	5873
2026-01-15 16:29:38.94	1.23	22.59	-37.4	-38.4	22.9	0.00e+00	0	27	0	429916160	48	5993
2026-01-15 16:29:39.95	1.05	22.70	-37.4	-38.5	22.8	0.00e+00	0	27	0	432013312	48	6051
2026-01-15 16:29:40.96	0.86	22.81	-37.9	-39.0	22.3	0.00e+00	10	27	0	434110464	48	6398
2026-01-15 16:29:41.97	0.67	22.91	-37.9	-39.0	22.3	0.00e+00	0	28	0	436207616	48	6401
2026-01-15 16:29:42.97	0.49	23.02	-38.0	-39.1	22.3	0.00e+00	51	27	0	438304768	48	6507
2026-01-15 16:29:43.99	0.29	23.13	-37.9	-38.9	22.4	0.00e+00	0	27	0	439353344	48	6364
2026-01-15 16:29:45.00	0.10	23.24	-38.2	-39.2	22.1	0.00e+00	36	27	0	441450496	48	6611
2026-01-15 16:29:46.00	359.91	23.35	-38.4	-39.5	21.6	0.00e+00	0	27	0	443547648	48	6795
2026-01-15 16:29:47.01	359.72	23.46	-38.5	-39.7	21.4	0.00e+00	0	27	0	445644800	50	6183
2026-01-15 16:29:48.02	359.52	23.56	-38.6	-39.8	21.6	0.00e+00	23	28	0	447741952	50	6265
2026-01-15 16:29:49.03	359.32	23.67	-39.1	-40.4	21.2	0.00e+00	0	27	0	448790528	50	6724
2026-01-15 16:29:50.04	359.12	23.78	-39.0	-40.2	21.4	0.00e+00	28	27	0	450887680	50	6552
2026-01-15 16:29:51.05	358.92	23.89	-39.1	-40.3	21.3	0.00e+00	0	27	0	452984832	50	6627
2026-01-15 16:29:52.06	358.72	24.00	-39.2	-40.4	21.2	0.00e+00	92	27	0	455081984	50	6697
2026-01-15 16:29:53.07	358.52	24.11	-39.2	-40.3	21.3	0.00e+00	0	27	0	457179136	50	6674
2026-01-15 16:29:54.08	358.31	24.22	-39.3	-40.5	21.2	0.00e+00	0	27	0	458227712	50	6785
2026-01-15 16:29:55.09	358.11	24.33	-39.3	-40.5	21.2	0.00e+00	0	27	0	460324864	50	6823
2026-01-15 16:29:56.10	357.90	24.43	-39.0	-40.2	21.5	0.00e+00	0	27	0	462422016	50	6546
2026-01-15 16:29:57.11	357.69	24.54	-39.3	-40.7	21.1	0.00e+00	53	28	0	464519168	50	6933
2026-01-15 16:29:58.12	357.48	24.65	-39.0	-40.3	21.4	0.00e+00	0	27	0	466616320	50	6624
2026-01-15 16:29:59.13	357.27	24.76	-38.7	-39.9	21.7	0.00e+00	92	27	0	467664896	50	6356
2026-01-15 16:30:00.14	357.05	24.87	-38.5	-39.7	21.8	0.00e+00	0	27	0	469762048	50	6180
2026-01-15 16:30:01.15	356.84	24.98	-38.5	-39.7	21.8	0.00e+00	0	27	0	471859200	50	6183
2026-01-15 16:30:02.16	356.62	25.09	-38.6	-39.8	21.7	0.00e+00	0	28	0	473956352	50	6248
2026-01-15 16:30:03.17	356.40	25.20	-38.9	-40.1	21.6	0.00e+00	33	27	0	476053504	50	6468
2026-01-15 16:30:04.17	356.19	25.31	-39.0	-40.1	21.5	0.00e+00	50	27	0	477102080	50	6532
2026-01-15 16:30:05.19	355.96	25.42	-38.8	-40.0	21.6	0.00e+00	0	27	0	479199232	50	6403
2026-01-15 16:30:06.20	355.74	25.53	-38.7	-39.8	21.8	0.00e+00	91	28	0	481296384	50	6264
2026-01-15 16:30:07.20	355.52	25.63	-38.7	-39.8	21.8	0.00e+00	0	28	0	483393536	50	6273
2026-01-15 16:30:08.21	355.29	25.74	-38.2	-39.3	22.2	0.00e+00	0	28	0	485490688	50	5914
2026-01-15 16:30:09.22	355.07	25.85	-38.4	-39.6	22.0	0.00e+00	0	28	0	486539264	50	6106
2026-01-15 16:30:10.24	354.84	25.96	-38.4	-39.5	22.1	0.00e+00	0	28	0	488636416	50	6068
2026-01-15 16:30:11.25	354.60	26.07	-38.2	-39.4	22.0	0.00e+00	53	28	0	490733568	50	5985
2026-01-15 16:30:12.26	354.37	26.18	-38.6	-39.9	21.7	0.00e+00	0	27	0	492830720	50	6351
2026-01-15 16:30:13.27	354.14	26.29	-38.8	-40.1	21.4	0.00e+00	90	28	0	494927872	50	6534
2026-01-15 16:30:14.28	353.90	26.40	-38.8	-40.1	21.5	0.00e+00	0	28	0	495976448	50	6475
2026-01-15 16:30:15.29	353.67	26.51	-38.8	-40.1	21.5	0.00e+00	0	27	0	498073600	50	6524
2026-01-15 16:30:16.29	353.43	26.61	-38.5	-39.7	21.9	0.00e+00	0	28	0	500170752	50	6211
2026-01-15 16:30:17.30	353.19	26.72	-38.5	-39.7	21.9	0.00e+00	0	27	0	502267904	50	6196
2026-01-15 16:30:18.31	352.95	26.83	-38.0	-39.0	22.5	0.00e+00	54	28	0	504365056	50	5735
2026-01-15 16:30:19.32	352.70	26.94	-38.0	-39.0	22.3	0.00e+00	0	28	0	506462208	50	5732
2026-01-15 16:30:20.33	352.46	27.05	-38.5	-39.5	22.1	0.00e+00	67	28	0	507510784	50	6084
2026-01-15 16:30:21.34	352.21	27.15	-38.3	-39.4	22.1	0.00e+00	0	27	0	509607936	48	6695
2026-01-15 16:30:22.35	351.96	27.26	-38.4	-39.5	22.0	0.00e+00	86	28	0	511705088	48	6828
2026-01-15 16:30:23.36	351.71	27.37	-38.3	-39.4	22.1	0.00e+00	0	28	0	513802240	48	6746
2026-01-15 16:30:24.37	351.46	27.48	-38.4	-39.6	22.0	0.00e+00	0	28	0	515899392	48	6876
2026-01-15 16:30:25.38	351.21	27.58	-38.3	-39.5	22.1	0.00e+00	0	28	0	516947968	48	6778
2026-01-15 16:30:26.38	350.95	27.69	-38.2	-39.4	21.8	0.00e+00	0	28	0	519045120	48	6727
2026-01-15 16:30:27.39	350.70	27.80	-38.5	-39.7	21.7	0.00e+00	84	28	0	521142272	48	6980
2026-01-15 16:30:28.40	350.44	27.90	-38.7	-40.1	21.5	0.00e+00	0	28	0	523239424	50	6483
2026-01-15 16:30:29.41	350.18	28.01	-39.1	-40.5	21.2	0.00e+00	69	28	0	525336576	50	6836
2026-01-15 16:30:30.42	349.91	28.11	-38.9	-40.2	21.5	0.00e+00	0	28	0	526385152	50	6557
2026-01-15 16:30:31.43	349.65	28.22	-39.0	-40.2	21.4	0.00e+00	0	28	0	528482304	50	6610
2026-01-15 16:30:32.44	349.38	28.33	-38.3	-39.4	22.2	0.00e+00	0	28	0	530579456	50	5971
2026-01-15 16:30:33.45	349.11	28.43	-38.1	-39.1	22.4	0.00e+00	0	27	0	532676608	50	5767
2026-01-15 16:30:34.46	348.85	28.53	-37.5	-38.4	23.1	0.00e+00	83	27	0	534773760	48	6002
2026-01-15 16:30:35.47	348.57	28.64	-37.1	-38.0	23.3	0.00e+00	0	27	0	535822336	48	5712
2026-01-15 16:30:36.48	348.30	28.74	-37.3	-38.3	22.9	0.00e+00	92	28	0	537919488	48	5916
2026-01-15 16:30:37.49	348.03	28.85	-37.5	-38.5	22.6	0.00e+00	0	27	0	540016640	48	6079
2026-01-15 16:30:38.50	347.75	28.95	-38.3	-39.4	22.1	0.00e+00	0	27	0	542113792	48	6747
2026-01-15 16:30:39.50	347.47	29.05	-38.4	-39.5	22.0	0.00e+00	0	27	0	544210944	50	6100
2026-01-15 16:30:40.51	347.19	29.15	-39.0	-40.2	21.6	0.00e+00	0	28	0	545259520	50	6548
2026-01-15 16:30:41.52	346.91	29.26	-38.7	-39.8	21.9	0.00e+00	48	28	0	547356672	50	6261
2026-01-15 16:30:42.53	346.63	29.36	-38.2	-39.2	22.4	0.00e+00	0	27	0	549453824	50	5846
2026-01-15 16:30:43.54	346.34	29.46	-38.3	-39.3	22.1	0.00e+00	92	28	0	551550976	50	5948
2026-01-15 16:30:44.55	346.05	29.56	-38.7	-39.8	21.8	0.00e+00	0	28	0	553648128	50	6286
2026-01-15 16:30:45.56	345.76	29.66	-39.8	-41.1	20.7	0.00e+00	0	28	0	554696704	52	6502
2026-01-15 16:30:46.57	345.47	29.76	-40.2	-41.6	20.1	0.00e+00	0	27	0	556793856	52	6898
2026-01-15 16:30:47.58	345.18	29.86	-40.9	-42.4	19.4	0.00e+00	0	28	0	558891008	54	6766
2026-01-15 16:30:48.59	344.88	29.96	-41.0	-42.5	19.3	0.00e+00	10	27	0	560988160	54	6845
2026-01-15 16:30:49.60	344.59	30.06	-40.4	-41.8	20.2	0.00e+00	0	28	0	563085312	54	6271
2026-01-15 16:30:50.61	344.29	30.16	-40.0	-41.4	20.7	0.00e+00	76	28	0	564133888	54	5975
2026-01-15 16:30:51.62	343.99	30.25	-39.1	-40.3	21.4	0.00e+00	0	27	0	566231040	52	5908
2026-01-15 16:30:52.63	343.69	30.35	-39.2	-40.3	21.4	0.00e+00	5	27	0	568328192	52	5964
2026-01-15 16:30:53.64	343.38	30.45	-39.3	-40.5	21.1	0.00e+00	0	28	0	570425344	52	6096
2026-01-15 16:30:54.64	343.08	30.54	-40.2	-41.6	20.4	0.00e+00	0	28	0	572522496	52	6870
2026-01-15 16:30:55.65	342.77	30.63	-40.2	-41.6	20.4	0.00e+00	0	28	0	574619648	52	6878
2026-01-15 16:30:56.66	342.46	30.73	-41.0	-42.5	19.5	0.00e+00	0	28	0	575668224	54	6846
2026-01-15 16:30:57.67	342.15	30.82	-40.8	-42.3	19.7	0.00e+00	92	28	0	577765376	54	6637
2026-01-15 16:30:58.68	341.84	30.92	-40.5	-42.0	20.0	0.00e+00	0	28	0	579862528	54	6441
2026-01-15 16:30:59.68	341.52	31.01	-40.1	-41.5	20.4	0.00e+00	92	28	0	581959680	54	6034
2026-01-15 16:31:00.69	341.21	31.10	-40.5	-41.9	19.8	0.00e+00	0	28	0	583008256	54	6359
2026-01-15 16:31:01.70	340.89	31.19	-41.1	-42.7	19.2	0.00e+00	0	28	0	585105408	54	6959
2026-01-15 16:31:02.71	340.57	31.28	-41.7	-43.4	18.6	0.00e+00	0	28	0	587202560	54	7586
2026-01-15 16:31:03.72	340.25	31.37	-42.8	-45.1	17.0	0.00e+00	0	28	0	589299712	58	7280
2026-01-15 16:31:04.73	339.92	31.46	-42.6	-44.8	17.4	0.00e+00	50	28	0	591396864	58	7076
2026-01-15 16:31:05.74	339.60	31.55	-42.2	-44.2	17.8	0.00e+00	0	28	0	592445440	58	6606
2026-01-15 16:31:06.75	339.27	31.63	-41.8	-43.7	18.5	0.00e+00	78	27	0	594542592	58	6221
2026-01-15 16:31:07.76	338.94	31.72	-41.3	-42.9	19.3	0.00e+00	0	28	0	596639744	56	6366
2026-01-15 16:31:08.77	338.61	31.80	-41.0	-42.5	19.6	0.00e+00	0	28	0	598736896	56	6048
2026-01-15 16:31:09.78	338.28	31.89	-40.8	-42.3	19.7	0.00e+00	0	28	0	600834048	54	6636
2026-01-15 16:31:10.79	337.94	31.97	-41.1	-42.6	19.3	0.00e+00	0	28	0	602931200	54	6918
2026-01-15 16:31:11.80	337.60	32.06	-40.9	-42.3	19.4	0.00e+00	43	28	0	603979776	54	6667
2026-01-15 16:31:12.81	337.27	32.14	-40.9	-42.3	19.9	0.00e+00	0	28	0	606076928	54	6616
2026-01-15 16:31:13.82	336.93	32.22	-40.4	-41.7	20.2	0.00e+00	71	28	0	608174080	54	6239
2026-01-15 16:31:14.83	336.59	32.30	-39.9	-41.1	20.6	0.00e+00	0	28	0	610271232	54	5785
2026-01-15 16:31:15.84	336.24	32.38	-39.8	-41.0	21.0	0.00e+00	0	28	0	612368384	52	6458
2026-01-15 16:31:16.85	335.90	32.46	-40.0	-41.3	20.7	0.00e+00	0	28	0	613416960	52	6632
2026-01-15 16:31:17.86	335.55	32.53	-40.2	-41.4	20.5	0.00e+00	0	28	0	615514112	52	6735
2026-01-15 16:31:18.87	335.20	32.61	-40.3	-41.6	20.3	0.00e+00	28	27	0	617611264	52	6870
2026-01-15 16:31:19.88	334.85	32.69	-40.7	-42.1	19.8	0.00e+00	0	28	0	619708416	54	6519
2026-01-15 16:31:20.89	334.50	32.76	-40.9	-42.4	19.6	0.00e+00	91	28	0	621805568	54	6740
2026-01-15 16:31:21.89	334.15	32.83	-40.7	-42.2	19.8	0.00e+00	0	28	0	622854144	54	6544
2026-01-15 16:31:22.90	333.80	32.90	-40.8	-42.3	19.7	0.00e+00	11	28	0	624951296	54	6641
2026-01-15 16:31:23.91	333.44	32.98	-40.5	-41.9	19.9	0.00e+00	0	28	0	627048448	54	6319
2026-01-15 16:31:24.92	333.08	33.05	-40.5	-41.9	20.4	0.00e+00	0	27	0	629145600	54	6349
2026-01-15 16:31:25.93	332.72	33.11	-40.2	-41.5	20.5	0.00e+00	0	28	0	631242752	54	6071
2026-01-15 16:31:26.94	332.36	33.18	-40.6	-42.0	20.0	0.00e+00	0	28	0	632291328	54	6433
2026-01-15 16:31:27.95	332.00	33.25	-41.1	-42.6	19.2	0.00e+00	90	28	0	634388480	54	6919
2026-01-15 16:31:28.96	331.63	33.31	-40.9	-42.5	19.5	0.00e+00	0	28	0	636485632	54	6790
2026-01-15 16:31:29.97	331.27	33.38	-40.2	-41.6	20.3	0.00e+00	86	28	0	638582784	54	6130
2026-01-15 16:31:30.98	330.90	33.44	-39.9	-41.2	20.8	0.00e+00	0	28	0	640679936	52	6556
2026-01-15 16:31:31.99	330.53	33.50	-39.3	-40.5	21.1	0.00e+00	0	28	0	641728512	52	6073
2026-01-15 16:31:33.00	330.16	33.56	-38.8	-39.9	21.8	0.00e+00	0	28	0	643825664	52	5691
2026-01-15 16:31:34.01	329.79	33.62	-38.1	-39.1	22.5	0.00e+00	0	28	0	645922816	50	5791
2026-01-15 16:31:35.02	329.42	33.68	-37.6	-38.6	22.9	0.00e+00	58	28	0	648019968	48	6112
2026-01-15 16:31:36.03	329.05	33.74	-37.0	-37.8	23.5	0.00e+00	0	28	0	650117120	48	5627
2026-01-15 16:31:37.04	328.67	33.79	-36.5	-37.3	23.9	0.00e+00	92	28	0	651165696	46	5957
2026-01-15 16:31:38.05	328.30	33.85	-36.5	-37.3	23.7	0.00e+00	0	28	0	653262848	46	5927
2026-01-15 16:31:39.05	327.92	33.90	-36.4	-37.2	23.8	0.00e+00	0	28	0	655360000	46	5880
2026-01-15 16:31:40.06	327.54	33.95	-36.5	-37.4	23.6	0.00e+00	0	28	0	657457152	46	5996
2026-01-15 16:31:41.07	327.16	34.00	-37.1	-37.9	23.2	0.00e+00	0	28	0	659554304	46	6388
2026-01-15 16:31:42.08	326.78	34.05	-37.8	-38.7	22.7	0.00e+00	31	28	0	660602880	46	6992
2026-01-15 16:31:43.09	326.40	34.10	-38.2	-39.2	22.3	0.00e+00	0	28	0	662700032	48	6601
2026-01-15 16:31:44.10	326.02	34.14	-38.5	-39.6	22.1	0.00e+00	92	28	0	664797184	48	6867
2026-01-15 16:31:45.11	325.63	34.19	-38.5	-39.6	22.2	0.00e+00	0	28	0	666894336	48	6919
2026-01-15 16:31:46.12	325.25	34.23	-38.2	-39.2	22.4	0.00e+00	0	28	0	668991488	48	6575
2026-01-15 16:31:47.13	324.86	34.27	-37.6	-38.5	22.7	0.00e+00	0	28	0	671088640	48	6088
2026-01-15 16:31:48.14	324.47	34.31	-37.7	-38.6	22.8	0.00e+00	0	28	0	672137216	48	6139
2026-01-15 16:31:49.15	324.08	34.35	-37.6	-38.5	22.9	0.00e+00	53	28	0	674234368	48	6075
2026-01-15 16:31:50.16	323.69	34.39	-37.6	-38.5	22.8	0.00e+00	0	28	0	676331520	48	6091
2026-01-15 16:31:51.17	323.30	34.43	-37.4	-38.3	23.1	0.00e+00	89	28	0	678428672	48	5955
2026-01-15 16:31:52.18	322.91	34.46	-37.1	-38.1	23.3	0.00e+00	0	28	0	680525824	48	5769
2026-01-15 16:31:53.19	322.52	34.49	-36.1	-36.9	24.2	0.00e+00	0	28	0	681574400	46	5687
2026-01-15 16:31:54.20	322.13	34.53	-35.9	-36.6	24.4	0.00e+00	0	28	0	683671552	46	5487
2026-01-15 16:31:55.21	321.73	34.56	-36.6	-37.4	23.7	0.00e+00	0	27	0	685768704	46	6005
2026-01-15 16:31:56.22	321.34	34.58	-37.7	-38.7	22.7	0.00e+00	53	27	0	687865856	46	6990
2026-01-15 16:31:57.23	320.94	34.61	-38.4	-39.4	22.2	0.00e+00	0	28	0	689963008	48	6745
2026-01-15 16:31:58.24	320.55	34.64	-38.6	-39.7	22.0	0.00e+00	90	28	0	691011584	48	6934
2026-01-15 16:31:59.25	320.15	34.66	-37.6	-38.6	22.9	0.00e+00	0	28	0	693108736	48	6123
2026-01-15 16:32:00.26	319.76	34.68	-37.0	-37.9	23.5	0.00e+00	0	28	0	695205888	48	5666
2026-01-15 16:32:01.27	319.36	34.70	-36.7	-37.5	23.7	0.00e+00	0	28	0	697303040	46	6096
2026-01-15 16:32:02.28	318.96	34.72	-37.0	-37.9	23.1	0.00e+00	0	27	0	699400192	46	6376
2026-01-15 16:32:03.29	318.56	34.74	-37.8	-38.8	22.7	0.00e+00	17	28	0	700448768	46	7009
2026-01-15 16:32:04.29	318.17	34.76	-38.3	-39.3	22.2	0.00e+00	0	27	0	702545920	48	6670
2026-01-15 16:32:05.30	317.77	34.77	-38.8	-39.9	22.0	0.00e+00	59	28	0	704643072	50	6357
2026-01-15 16:32:06.31	317.37	34.78	-38.5	-39.6	22.0	0.00e+00	0	27	0	706740224	50	6135
2026-01-15 16:32:07.32	316.97	34.80	-38.2	-39.2	22.5	0.00e+00	42	28	0	708837376	50	5858
2026-01-15 16:32:08.33	316.57	34.81	-37.5	-38.4	23.0	0.00e+00	0	28	0	709885952	48	6012
2026-01-15 16:32:09.34	316.17	34.81	-37.3	-38.2	23.1	0.00e+00	0	28	0	711983104	48	5847
2026-01-15 16:32:10.36	315.76	34.82	-37.2	-38.1	23.3	0.00e+00	0	28	0	714080256	48	5784
2026-01-15 16:32:11.36	315.37	34.83	-38.0	-39.0	22.6	0.00e+00	0	27	0	716177408	48	6397
2026-01-15 16:32:12.37	314.97	34.83	-38.3	-39.3	22.3	0.00e+00	74	28	0	718274560	48	6668
2026-01-15 16:32:13.38	314.57	34.83	-38.7	-39.7	21.9	0.00e+00	0	28	0	719323136	50	6243
2026-01-15 16:32:14.39	314.17	34.83	-39.0	-40.1	21.6	0.00e+00	92	28	0	721420288	50	6491
2026-01-15 16:32:15.40	313.77	34.83	-39.1	-40.2	21.7	0.00e+00	0	28	0	723517440	50	6597
2026-01-15 16:32:16.40	313.37	34.83	-39.2	-40.3	21.4	0.00e+00	0	28	0	725614592	50	6682
2026-01-15 16:32:17.41	312.97	34.82	-38.7	-39.8	22.0	0.00e+00	0	28	0	727711744	50	6272
2026-01-15 16:32:18.42	312.57	34.82	-38.2	-39.2	22.4	0.00e+00	0	28	0	728760320	50	5870
2026-01-15 16:32:19.43	312.17	34.81	-38.2	-39.3	22.3	0.00e+00	46	27	0	730857472	50	5901
2026-01-15 16:32:20.44	311.77	34.80	-38.7	-39.8	21.9	0.00e+00	0	28	0	732954624	50	6255
2026-01-15 16:32:21.45	311.37	34.79	-39.2	-40.3	21.4	0.00e+00	92	28	0	735051776	50	6658
2026-01-15 16:32:22.46	310.97	34.78	-39.2	-40.4	21.5	0.00e+00	0	28	0	737148928	50	6700
2026-01-15 16:32:23.47	310.57	34.76	-39.3	-40.4	21.2	0.00e+00	0	28	0	739246080	50	6759
2026-01-15 16:32:24.48	310.17	34.75	-39.8	-40.9	20.2	0.00e+00	0	28	0	740294656	50	7154
2026-01-15 16:32:25.49	309.77	34.73	-39.8	-41.0	20.9	0.00e+00	0	28	0	742391808	52	6456
2026-01-15 16:32:26.50	309.37	34.71	-40.0	-41.2	20.7	0.00e+00	51	28	0	744488960	52	6591
2026-01-15 16:32:27.51	308.97	34.69	-39.0	-40.1	21.8	0.00e+00	0	28	0	746586112	52	5780
2026-01-15 16:32:28.52	308.58	34.67	-38.4	-39.4	22.2	0.00e+00	79	28	0	748683264	50	6004
2026-01-15 16:32:29.53	308.18	34.65	-38.1	-39.1	22.6	0.00e+00	0	28	0	749731840	50	5763
2026-01-15 16:32:30.54	307.78	34.62	-37.8	-38.7	22.9	0.00e+00	0	28	0	751828992	50	5566
2026-01-15 16:32:31.55	307.39	34.59	-37.8	-38.8	22.5	0.00e+00	0	28	0	753926144	50	5568
2026-01-15 16:32:32.56	306.99	34.57	-38.8	-39.8	21.9	0.00e+00	0	28	0	756023296	50	6303
2026-01-15 16:32:33.57	306.60	34.54	-39.9	-41.1	20.8	0.00e+00	51	28	0	758120448	52	6496
2026-01-15 16:32:34.58	306.21	34.51	-40.4	-41.7	20.4	0.00e+00	0	28	0	759169024	52	6944
2026-01-15 16:32:35.59	305.81	34.47	-40.3	-41.6	20.4	0.00e+00	90	28	0	761266176	52	6882
2026-01-15 16:32:36.60	305.42	34.44	-39.6	-40.8	21.2	0.00e+00	0	28	0	763363328	52	6264
2026-01-15 16:32:37.61	305.03	34.40	-39.0	-40.1	21.8	0.00e+00	0	28	0	765460480	52	5805
2026-01-15 16:32:38.62	304.64	34.37	-38.6	-39.6	22.0	0.00e+00	0	28	0	767557632	52	5498
2026-01-15 16:32:39.63	304.25	34.33	-38.5	-39.5	21.8	0.00e+00	0	28	0	768606208	50	6073
2026-01-15 16:32:40.64	303.86	34.29	-38.3	-39.3	22.3	0.00e+00	52	28	0	770703360	50	5952
2026-01-15 16:32:41.65	303.48	34.25	-38.8	-39.9	21.7	0.00e+00	0	28	0	772800512	50	6336
2026-01-15 16:32:42.66	303.09	34.20	-39.3	-40.4	21.4	0.00e+00	92	28	0	774897664	50	6745
2026-01-15 16:32:43.66	302.71	34.16	-39.7	-40.8	21.0	0.00e+00	0	28	0	776994816	52	6309
2026-01-15 16:32:44.67	302.32	34.11	-39.7	-40.9	20.9	0.00e+00	83	28	0	778043392	52	6388
2026-01-15 16:32:45.69	301.94	34.07	-39.8	-41.0	21.1	0.00e+00	0	27	0	780140544	52	6424
2026-01-15 16:32:46.69	301.56	34.02	-39.3	-40.4	21.3	0.00e+00	0	28	0	782237696	52	6029
2026-01-15 16:32:47.70	301.18	33.97	-39.1	-40.3	21.6	0.00e+00	17	28	0	784334848	52	5898
2026-01-15 16:32:48.71	300.80	33.92	-38.4	-39.5	22.2	0.00e+00	0	28	0	786432000	50	6039
2026-01-15 16:32:49.72	300.42	33.87	-38.1	-39.1	22.5	0.00e+00	27	28	0	787480576	50	5765
2026-01-15 16:32:50.73	300.04	33.81	-38.1	-39.1	22.7	0.00e+00	0	28	0	789577728	50	5765
2026-01-15 16:32:51.74	299.67	33.76	-38.4	-39.4	22.2	0.00e+00	67	28	0	791674880	50	6031
2026-01-15 16:32:52.75	299.29	33.70	-38.9	-40.0	21.8	0.00e+00	0	28	0	793772032	50	6404
2026-01-15 16:32:53.76	298.92	33.64	-39.3	-40.5	21.2	0.00e+00	0	28	0	795869184	50	6773
2026-01-15 16:32:54.77	298.55	33.58	-39.3	-40.5	21.2	0.00e+00	0	28	0	796917760	50	6815
2026-01-15 16:32:55.78	298.18	33.52	-39.2	-40.3	21.7	0.00e+00	0	28	0	799014912	50	6663
2026-01-15 16:32:56.78	297.81	33.46	-38.3	-39.3	22.4	0.00e+00	6	28	0	801112064	50	5927
2026-01-15 16:32:57.79	297.44	33.40	-38.1	-39.1	22.4	0.00e+00	0	28	0	803209216	50	5796
2026-01-15 16:32:58.80	297.08	33.34	-37.5	-38.4	23.0	0.00e+00	77	27	0	805306368	48	5991
2026-01-15 16:32:59.81	296.71	33.27	-37.5	-38.4	23.0	0.00e+00	0	27	0	807403520	48	5996
2026-01-15 16:33:00.82	296.35	33.21	-37.1	-38.0	23.7	0.00e+00	0	28	0	808452096	48	5718
2026-01-15 16:33:01.83	295.99	33.14	-37.2	-38.1	23.1	0.00e+00	0	28	0	810549248	48	5800
2026-01-15 16:33:02.84	295.63	33.07	-38.0	-39.0	22.4	0.00e+00	0	28	0	812646400	48	6445
2026-01-15 16:33:03.85	295.27	33.00	-39.0	-40.2	21.5	0.00e+00	20	28	0	814743552	50	6545
2026-01-15 16:33:04.86	294.91	32.93	-40.0	-41.3	20.5	0.00e+00	0	28	0	816840704	52	6684
2026-01-15 16:33:05.87	294.55	32.86	-40.3	-41.6	20.3	0.00e+00	75	28	0	817889280	52	6905
2026-01-15 16:33:06.88	294.20	32.78	-39.5	-40.6	21.2	0.00e+00	0	28	0	819986432	52	6173
2026-01-15 16:33:07.89	293.85	32.71	-38.6	-39.6	22.0	0.00e+00	65	28	0	822083584	50	6162
2026-01-15 16:33:08.90	293.50	32.64	-38.1	-39.0	22.8	0.00e+00	0	28	0	824180736	50	5714
2026-01-15 16:33:09.91	293.15	32.56	-38.0	-39.0	22.5	0.00e+00	0	28	0	826277888	50	5702
2026-01-15 16:33:10.92	292.80	32.48	-38.0	-39.0	22.4	0.00e+00	51	27	0	827326464	50	5719
2026-01-15 16:33:11.93	292.45	32.40	-38.1	-39.1	22.4	0.00e+00	0	28	0	829423616	50	5796
2026-01-15 16:33:12.94	292.11	32.33	-38.4	-39.4	22.2	0.00e+00	90	27	0	831520768	50	6025
2026-01-15 16:33:13.95	291.76	32.25	-38.8	-39.8	22.0	0.00e+00	0	27	0	833617920	50	6285
2026-01-15 16:33:14.96	291.42	32.16	-39.0	-40.1	21.5	0.00e+00	92	28	0	835715072	50	6476
2026-01-15 16:33:15.96	291.09	32.08	-39.9	-41.2	20.7	0.00e+00	0	28	0	836763648	50	7355
2026-01-15 16:33:16.98	290.75	32.00	-40.3	-41.6	20.2	0.00e+00	0	28	0	838860800	52	6902
2026-01-15 16:33:17.99	290.41	31.92	-40.8	-42.3	19.5	0.00e+00	0	28	0	840957952	54	6655
2026-01-15 16:33:19.00	290.08	31.83	-41.2	-42.7	19.3	0.00e+00	0	28	0	843055104	54	6999
2026-01-15 16:33:20.01	289.74	31.75	-40.9	-42.4	19.6	0.00e+00	23	28	0	845152256	54	6718
2026-01-15 16:33:21.02	289.41	31.66	-40.5	-41.9	20.0	0.00e+00	0	28	0	846200832	54	6381
2026-01-15 16:33:22.03	289.08	31.57	-40.1	-41.4	20.4	0.00e+00	90	28	0	848297984	54	6032
2026-01-15 16:33:23.03	288.76	31.49	-40.2	-41.6	20.3	0.00e+00	0	28	0	850395136	54	6147
2026-01-15 16:33:24.04	288.44	31.40	-40.1	-41.4	20.4	0.00e+00	0	28	0	852492288	54	6006
2026-01-15 16:33:25.05	288.11	31.31	-40.1	-41.5	20.4	0.00e+00	0	28	0	854589440	54	6038
2026-01-15 16:33:26.06	287.79	31.22	-39.3	-40.5	21.4	0.00e+00	0	28	0	855638016	52	6038
2026-01-15 16:33:27.07	287.47	31.13	-38.4	-39.4	22.2	0.00e+00	92	28	0	857735168	50	6028
2026-01-15 16:33:28.08	287.15	31.04	-38.3	-39.3	22.2	0.00e+00	0	28	0	859832320	50	5928
2026-01-15 16:33:29.09	286.84	30.94	-38.7	-39.7	21.9	0.00e+00	56	28	0	861929472	50	6243
2026-01-15 16:33:30.10	286.52	30.85	-38.0	-38.9	22.5	0.00e+00	0	27	0	864026624	50	5683
2026-01-15 16:33:31.11	286.21	30.76	-37.6	-38.6	22.7	0.00e+00	0	28	0	865075200	48	6104
2026-01-15 16:33:32.11	285.90	30.66	-37.0	-37.9	23.3	0.00e+00	0	28	0	867172352	48	5667
2026-01-15 16:33:33.13	285.59	30.57	-37.5	-38.4	22.9	0.00e+00	0	28	0	869269504	48	5976
2026-01-15 16:33:34.14	285.28	30.47	-37.7	-38.7	22.7	0.00e+00	34	28	0	871366656	48	6197
2026-01-15 16:33:35.15	284.98	30.38	-38.5	-39.5	22.0	0.00e+00	33	28	0	873463808	48	6802
2026-01-15 16:33:36.16	284.67	30.28	-39.6	-40.8	20.9	0.00e+00	92	28	0	875560960	50	7054
2026-01-15 16:33:37.16	284.37	30.18	-40.7	-42.1	20.0	0.00e+00	0	28	0	876609536	52	7258
2026-01-15 16:33:38.17	284.07	30.09	-40.8	-42.2	19.4	0.00e+00	0	28	0	878706688	54	6586
2026-01-15 16:33:39.18	283.78	29.99	-40.9	-42.3	19.7	0.00e+00	0	28	0	880803840	54	6640
2026-01-15 16:33:40.19	283.48	29.89	-40.1	-41.4	20.5	0.00e+00	0	28	0	882900992	54	5972
2026-01-15 16:33:41.20	283.19	29.79	-39.0	-40.1	21.7	0.00e+00	47	28	0	884998144	52	5807
2026-01-15 16:33:42.21	282.89	29.69	-38.6	-39.6	22.0	0.00e+00	0	28	0	886046720	50	6141
2026-01-15 16:33:43.22	282.60	29.59	-38.3	-39.3	22.2	0.00e+00	65	28	0	888143872	50	5960
2026-01-15 16:33:44.23	282.31	29.49	-39.2	-40.4	21.3	0.00e+00	0	28	0	890241024	50	6722
2026-01-15 16:33:45.24	282.03	29.39	-40.5	-42.0	19.9	0.00e+00	25	28	0	892338176	52	7174
2026-01-15 16:33:46.25	281.74	29.28	-41.5	-43.2	19.4	0.00e+00	0	28	0	894435328	54	7362
2026-01-15 16:33:47.26	281.46	29.18	-41.3	-42.9	19.1	0.00e+00	0	28	0	895483904	54	7094
2026-01-15 16:33:48.27	281.17	29.08	-40.5	-41.9	19.9	0.00e+00	49	28	0	897581056	54	6328
2026-01-15 16:33:49.28	280.89	28.98	-39.7	-40.9	20.8	0.00e+00	0	28	0	899678208	54	5692
2026-01-15 16:33:50.29	280.62	28.87	-39.5	-40.7	21.0	0.00e+00	47	28	0	901775360	52	6211
2026-01-15 16:33:51.30	280.34	28.77	-39.4	-40.6	21.1	0.00e+00	0	28	0	903872512	52	6139
2026-01-15 16:33:52.31	280.07	28.66	-39.3	-40.5	21.3	0.00e+00	92	28	0	904921088	52	6084
2026-01-15 16:33:53.32	279.79	28.56	-39.2	-40.3	21.5	0.00e+00	0	28	0	907018240	52	5943
2026-01-15 16:33:54.33	279.52	28.46	-39.1	-40.2	21.5	0.00e+00	0	28	0	909115392	52	5896
2026-01-15 16:33:55.34	279.25	28.35	-39.7	-41.0	20.8	0.00e+00	0	28	0	911212544	52	6391
2026-01-15 16:33:56.35	278.99	28.24	-40.1	-41.4	20.3	0.00e+00	0	28	0	913309696	52	6761
2026-01-15 16:33:57.36	278.72	28.14	-39.7	-41.0	20.8	0.00e+00	92	28	0	914358272	52	6443
2026-01-15 16:33:58.37	278.46	28.03	-39.5	-40.7	21.1	0.00e+00	0	27	0	916455424	52	6198
2026-01-15 16:33:59.38	278.19	27.93	-38.7	-39.8	21.9	0.00e+00	63	28	0	918552576	50	6246
2026-01-15 16:34:00.39	277.93	27.82	-38.2	-39.1	22.3	0.00e+00	0	27	0	920649728	50	5824
2026-01-15 16:34:01.40	277.68	27.71	-37.6	-38.6	22.8	0.00e+00	0	28	0	922746880	48	6107
2026-01-15 16:34:02.41	277.42	27.61	-37.2	-38.2	23.0	0.00e+00	0	27	0	923795456	48	5831
2026-01-15 16:34:03.42	277.16	27.50	-37.5	-38.4	22.9	0.00e+00	0	28	0	925892608	48	6028
2026-01-15 16:34:04.42	276.91	27.39	-37.7	-38.6	22.7	0.00e+00	43	27	0	927989760	48	6165
2026-01-15 16:34:05.43	276.66	27.29	-37.9	-38.9	22.5	0.00e+00	0	27	0	930086912	48	6374
2026-01-15 16:34:06.44	276.41	27.18	-38.4	-39.5	22.0	0.00e+00	90	28	0	932184064	48	6796
2026-01-15 16:34:07.45	276.16	27.07	-38.4	-39.5	22.0	0.00e+00	0	28	0	933232640	48	6801
2026-01-15 16:34:08.46	275.92	26.96	-38.7	-39.8	21.9	0.00e+00	0	28	0	935329792	48	7015
2026-01-15 16:34:09.47	275.67	26.85	-38.2	-39.2	22.3	0.00e+00	0	28	0	937426944	48	6605
2026-01-15 16:34:10.48	275.43	26.74	-37.7	-38.7	22.7	0.00e+00	0	28	0	939524096	48	6197
2026-01-15 16:34:11.49	275.19	26.64	-37.5	-38.4	22.8	0.00e+00	41	28	0	941621248	48	6023
2026-01-15 16:34:12.50	274.95	26.53	-37.3	-38.3	23.0	0.00e+00	0	28	0	943718400	48	5916
2026-01-15 16:34:13.51	274.71	26.42	-37.3	-38.3	23.1	0.00e+00	55	28	0	944766976	48	5939
2026-01-15 16:34:14.52	274.47	26.31	-37.5	-38.4	22.8	0.00e+00	0	28	0	946864128	48	6022
2026-01-15 16:34:15.53	274.24	26.20	-37.7	-38.7	22.8	0.00e+00	0	28	0	948961280	48	6244
2026-01-15 16:34:16.54	274.00	26.09	-37.5	-38.5	22.8	0.00e+00	0	28	0	951058432	48	6076
2026-01-15 16:34:17.55	273.77	25.98	-37.6	-38.6	22.8	0.00e+00	0	28	0	953155584	48	6166
2026-01-15 16:34:18.56	273.54	25.87	-37.5	-38.4	23.0	0.00e+00	19	28	0	954204160	48	6021
2026-01-15 16:34:19.57	273.31	25.76	-37.0	-37.9	23.4	0.00e+00	0	28	0	956301312	48	5648
2026-01-15 16:34:20.58	273.08	25.65	-36.6	-37.5	23.7	0.00e+00	43	28	0	958398464	46	6051
2026-01-15 16:34:21.59	272.86	25.54	-36.4	-37.2	23.8	0.00e+00	0	28	0	960495616	46	5864
2026-01-15 16:34:22.60	272.64	25.43	-35.8	-36.7	24.2	0.00e+00	7	28	0	962592768	46	5504
2026-01-15 16:34:23.61	272.41	25.33	-35.9	-36.7	24.0	0.00e+00	0	28	0	963641344	46	5505
2026-01-15 16:34:24.62	272.19	25.22	-35.8	-36.6	24.1	0.00e+00	0	28	0	965738496	44	6156
2026-01-15 16:34:25.63	271.97	25.11	-36.2	-37.0	23.7	0.00e+00	0	28	0	967835648	44	6442
2026-01-15 16:34:26.63	271.76	25.00	-36.7	-37.6	23.7	0.00e+00	0	28	0	969932800	44	6921
2026-01-15 16:34:27.64	271.54	24.89	-36.9	-37.8	23.4	0.00e+00	92	28	0	972029952	46	6304
2026-01-15 16:34:28.65	271.33	24.78	-37.3	-38.3	23.1	0.00e+00	0	28	0	973078528	46	6671
2026-01-15 16:34:29.66	271.11	24.67	-36.9	-37.8	23.3	0.00e+00	89	28	0	975175680	46	6295
2026-01-15 16:34:30.67	270.90	24.56	-36.8	-37.7	23.5	0.00e+00	0	28	0	977272832	46	6192
2026-01-15 16:34:31.68	270.69	24.45	-36.0	-36.8	24.1	0.00e+00	0	28	0	979369984	46	5616
2026-01-15 16:34:32.69	270.48	24.34	-36.1	-36.9	24.1	0.00e+00	0	28	0	981467136	46	5692
2026-01-15 16:34:33.70	270.28	24.23	-36.0	-36.8	24.2	0.00e+00	0	28	0	982515712	46	5593
2026-01-15 16:34:34.71	270.07	24.12	-35.9	-36.7	24.1	0.00e+00	80	28	0	984612864	46	5559
2026-01-15 16:34:35.72	269.87	24.01	-36.1	-36.9	24.1	0.00e+00	0	28	0	986710016	46	5653
2026-01-15 16:34:36.73	269.66	23.90	-36.1	-37.0	24.1	0.00e+00	90	28	0	988807168	46	5696
2026-01-15 16:34:37.74	269.46	23.79	-36.3	-37.1	23.7	0.00e+00	0	28	0	990904320	46	5825
2026-01-15 16:34:38.75	269.26	23.69	-36.2	-37.0	23.9	0.00e+00	0	28	0	991952896	46	5755
2026-01-15 16:34:39.76	269.06	23.58	-36.0	-36.8	24.0	0.00e+00	0	28	0	994050048	46	5595
2026-01-15 16:34:40.77	268.86	23.47	-36.2	-37.0	24.0	0.00e+00	0	28	0	996147200	46	5754
2026-01-15 16:34:41.77	268.67	23.36	-36.3	-37.1	23.8	0.00e+00	34	28	0	998244352	46	5814
2026-01-15 16:34:42.78	268.48	23.25	-36.2	-37.1	23.9	0.00e+00	0	28	0	1000341504	46	5788
2026-01-15 16:34:43.79	268.28	23.14	-36.3	-37.2	23.9	0.00e+00	92	28	0	1001390080	46	5845
2026-01-15 16:34:44.80	268.09	23.03	-36.2	-37.0	23.8	0.00e+00	0	28	0	1003487232	46	5739
2026-01-15 16:34:45.81	267.90	22.93	-35.9	-36.7	24.2	0.00e+00	0	28	0	1005584384	46	5538
2026-01-15 16:34:46.82	267.71	22.82	-35.7	-36.5	24.3	0.00e+00	0	28	0	1007681536	44	6063
2026-01-15 16:34:47.83	267.52	22.71	-36.0	-36.8	24.1	0.00e+00	0	28	0	1009778688	44	6276
2026-01-15 16:34:48.84	267.34	22.60	-35.9	-36.8	24.0	0.00e+00	0	28	0	1010827264	44	6250
2026-01-15 16:34:49.85	267.15	22.49	-36.3	-37.1	23.8	0.00e+00	0	28	0	1012924416	44	6502
2026-01-15 16:34:50.86	266.97	22.39	-36.6	-37.5	23.5	0.00e+00	75	28	0	1015021568	44	6775
2026-01-15 16:34:51.87	266.79	22.28	-36.5	-37.3	23.6	0.00e+00	0	28	0	1017118720	44	6691
2026-01-15 16:34:52.88	266.60	22.17	-36.3	-37.1	23.7	0.00e+00	0	28	0	1019215872	44	6508
2026-01-15 16:34:53.89	266.42	22.06	-36.5	-37.3	23.5	0.00e+00	0	28	0	1020264448	44	6678
2026-01-15 16:34:54.89	266.25	21.96	-36.6	-37.4	23.2	0.00e+00	0	28	0	1022361600	44	6762
2026-01-15 16:34:55.90	266.07	21.85	-36.4	-37.3	23.6	0.00e+00	48	28	0	1024458752	44	6675
2026-01-15 16:34:56.91	265.89	21.74	-36.8	-37.7	23.3	0.00e+00	0	28	0	1026555904	46	6211
2026-01-15 16:34:57.91	265.72	21.64	-37.0	-37.9	23.2	0.00e+00	92	28	0	1028653056	46	6355
2026-01-15 16:34:58.92	265.55	21.53	-37.3	-38.2	22.3	0.00e+00	0	28	0	1029701632	46	6605
2026-01-15 16:34:59.93	265.37	21.42	-37.2	-38.1	22.9	0.00e+00	60	27	0	1031798784	46	6525
2026-01-15 16:35:00.94	265.20	21.32	-37.5	-38.5	22.9	0.00e+00	0	28	0	1033895936	46	6782
2026-01-15 16:35:01.95	265.03	21.21	-37.4	-38.4	22.9	0.00e+00	0	28	0	1035993088	46	6715
2026-01-15 16:35:02.96	264.86	21.11	-37.1	-38.0	23.1	0.00e+00	9	28	0	1038090240	46	6458
2026-01-15 16:35:03.97	264.69	21.00	-37.3	-38.3	23.0	0.00e+00	0	27	0	1040187392	46	6634
2026-01-15 16:35:04.98	264.53	20.89	-37.4	-38.4	22.8	0.00e+00	46	28	0	1041235968	46	6708
2026-01-15 16:35:05.99	264.36	20.79	-37.7	-38.7	22.8	0.00e+00	0	27	0	1043333120	48	6218
2026-01-15 16:35:07.00	264.20	20.68	-38.1	-39.2	22.3	7.00e-07	92	28	0	1045430272	48	6555
2026-01-15 16:35:08.01	264.03	20.58	-38.4	-39.4	22.0	0.00e+00	0	28	0	1047527424	48	6750
2026-01-15 16:35:09.02	263.87	20.47	-38.4	-39.4	22.0	0.00e+00	0	28	0	1049624576	48	6755
2026-01-15 16:35:10.03	263.71	20.37	-38.4	-39.5	21.9	0.00e+00	0	27	0	1050673152	48	6824
2026-01-15 16:35:11.04	263.55	20.27	-38.3	-39.3	22.1	0.00e+00	0	28	0	1052770304	48	6667
2026-01-15 16:35:12.05	263.39	20.16	-38.0	-39.0	22.4	0.00e+00	13	28	0	1054867456	48	6431
2026-01-15 16:35:13.06	263.23	20.06	-37.6	-38.6	22.8	0.00e+00	0	28	0	1056964608	48	6104
2026-01-15 16:35:14.07	263.08	19.95	-37.2	-38.1	23.0	0.00e+00	25	28	0	1059061760	48	5821
2026-01-15 16:35:15.07	262.92	19.85	-37.4	-38.3	23.0	0.00e+00	0	28	0	1060110336	48	5923
2026-01-15 16:35:16.08	262.77	19.75	-37.2	-38.1	23.0	0.00e+00	0	28	0	1062207488	48	5783
2026-01-15 16:35:17.09	262.61	19.64	-37.3	-38.2	23.0	0.00e+00	0	28	0	1064304640	48	5857
2026-01-15 16:35:18.10	262.46	19.54	-37.5	-38.5	22.7	0.00e+00	0	28	0	1066401792	48	6058
2026-01-15 16:35:19.11	262.31	19.44	-37.8	-38.7	22.5	0.00e+00	44	28	0	1068498944	48	6231
2026-01-15 16:35:20.12	262.16	19.34	-37.5	-38.5	22.7	0.00e+00	0	28	0	1069547520	48	6050
2026-01-15 16:35:21.13	262.01	19.23	-37.7	-38.7	22.4	0.00e+00	92	28	0	1071644672	48	6218
2026-01-15 16:35:22.14	261.86	19.13	-37.5	-38.5	22.6	0.00e+00	31	28	0	1073741824	48	6055
2026-01-15 16:35:23.15	261.71	19.03	-37.4	-38.3	22.9	0.00e+00	0	28	0	1075838976	48	5954
2026-01-15 16:35:24.16	261.57	18.93	-37.0	-37.9	23.2	0.00e+00	0	28	0	1077936128	48	5652
2026-01-15 16:35:25.17	261.42	18.83	-37.0	-37.9	23.3	0.00e+00	33	28	0	1078984704	48	5669
2026-01-15 16:35:26.18	261.28	18.72	-36.7	-37.6	23.4	0.00e+00	47	28	0	1081081856	48	5488
2026-01-15 16:35:27.19	261.13	18.62	-36.7	-37.6	23.4	0.00e+00	0	28	0	1083179008	46	6135
2026-01-15 16:35:28.20	260.99	18.52	-36.7	-37.6	23.5	0.00e+00	92	28	0	1085276160	46	6151
2026-01-15 16:35:29.21	260.85	18.42	-36.6	-37.5	23.5	0.00e+00	0	28	0	1087373312	46	6071
2026-01-15 16:35:30.22	260.71	18.32	-36.8	-37.7	23.3	0.00e+00	0	28	0	1088421888	46	6238
2026-01-15 16:35:31.23	260.57	18.22	-36.9	-37.8	23.4	0.00e+00	0	28	0	1090519040	46	6250
2026-01-15 16:35:32.24	260.43	18.12	-36.6	-37.5	23.5	0.00e+00	0	28	0	1092616192	46	6072
2026-01-15 16:35:33.25	260.29	18.02	-36.9	-37.7	23.3	0.00e+00	11	28	0	1094713344	46	6231
2026-01-15 16:35:34.26	260.16	17.92	-36.9	-37.8	23.3	0.00e+00	0	28	0	1096810496	46	6286
2026-01-15 16:35:35.26	260.02	17.82	-36.9	-37.7	23.3	0.00e+00	92	28	0	1097859072	46	6238
2026-01-15 16:35:36.27	259.89	17.73	-36.6	-37.5	23.5	0.00e+00	0	28	0	1099956224	46	6067
2026-01-15 16:35:37.28	259.75	17.63	-36.7	-37.6	23.4	0.00e+00	58	28	0	1102053376	46	6140
2026-01-15 16:35:38.29	259.62	17.53	-36.6	-37.5	23.4	0.00e+00	0	28	0	1104150528	46	6052
2026-01-15 16:35:39.30	259.49	17.43	-36.5	-37.4	23.6	0.00e+00	0	28	0	1106247680	46	5992
2026-01-15 16:35:40.31	259.35	17.33	-36.6	-37.5	23.5	0.00e+00	47	28	0	1107296256	46	6035
2026-01-15 16:35:41.32	259.22	17.23	-36.5	-37.4	23.5	0.00e+00	0	28	0	1109393408	46	5973
2026-01-15 16:35:42.33	259.09	17.14	-36.7	-37.5	23.5	0.00e+00	52	28	0	1111490560	46	6079
2026-01-15 16:35:43.34	258.96	17.04	-36.5	-37.3	23.6	0.00e+00	0	28	0	1113587712	46	5957
2026-01-15 16:35:44.35	258.84	16.94	-36.6	-37.5	23.5	0.00e+00	82	28	0	1115684864	46	6051
2026-01-15 16:35:45.36	258.71	16.85	-36.7	-37.6	23.4	0.00e+00	0	28	0	1117782016	46	6138
2026-01-15 16:35:46.37	258.58	16.75	-37.3	-38.2	23.0	0.00e+00	0	28	0	1118830592	46	6572
2026-01-15 16:35:47.38	258.46	16.65	-37.4	-38.3	22.8	0.00e+00	0	28	0	1120927744	46	6687
2026-01-15 16:35:48.39	258.33	16.56	-38.0	-39.0	22.3	0.00e+00	0	28	0	1123024896	48	6406
2026-01-15 16:35:49.40	258.21	16.46	-38.5	-39.6	21.8	0.00e+00	29	28	0	1125122048	48	6876
2026-01-15 16:35:50.41	258.08	16.36	-39.1	-40.3	21.2	0.00e+00	0	28	0	1127219200	50	6649
2026-01-15 16:35:51.42	257.96	16.27	-39.2	-40.4	21.0	0.00e+00	92	28	0	1128267776	50	6735
2026-01-15 16:35:52.42	257.84	16.18	-39.4	-40.6	21.0	0.00e+00	0	28	0	1130364928	50	6874
2026-01-15 16:35:53.43	257.72	16.08	-39.0	-40.1	21.4	0.00e+00	0	28	0	1132462080	50	6485
2026-01-15 16:35:54.44	257.60	15.99	-38.7	-39.8	21.6	0.00e+00	0	28	0	1134559232	50	6275
2026-01-15 16:35:55.45	257.48	15.89	-37.7	-38.7	22.5	0.00e+00	0	28	0	1136656384	50	5524
2026-01-15 16:35:56.46	257.36	15.80	-37.3	-38.3	22.9	0.00e+00	38	28	0	1137704960	48	5897
2026-01-15 16:35:57.47	257.25	15.70	-37.0	-37.9	23.2	0.00e+00	0	28	0	1139802112	48	5638
2026-01-15 16:35:58.48	257.13	15.61	-36.9	-37.8	23.2	0.00e+00	92	28	0	1141899264	48	5571
2026-01-15 16:35:59.49	257.01	15.52	-36.9	-37.7	22.4	0.00e+00	0	28	0	1143996416	48	5561
2026-01-15 16:36:00.48	256.90	15.42	-36.9	-37.8	23.2	0.00e+00	0	28	0	1146093568	46	6284
2026-01-15 16:36:01.49	256.78	15.33	-36.9	-37.8	23.1	0.00e+00	0	28	0	1147142144	46	6297
2026-01-15 16:36:02.50	256.67	15.24	-37.1	-38.1	23.0	0.00e+00	0	28	0	1149239296	46	6482
2026-01-15 16:36:03.51	256.56	15.15	-37.4	-38.3	22.7	0.00e+00	40	28	0	1151336448	46	6687
2026-01-15 16:36:04.52	256.44	15.05	-37.9	-38.9	22.3	0.00e+00	0	28	0	1153433600	48	6350
2026-01-15 16:36:05.53	256.33	14.96	-38.0	-39.1	22.2	0.00e+00	92	28	0	1155530752	48	6476
2026-01-15 16:36:06.54	256.22	14.87	-38.6	-39.7	21.6	0.00e+00	0	28	0	1156579328	48	7001
2026-01-15 16:36:07.55	256.11	14.78	-39.0	-40.1	21.4	0.00e+00	0	28	0	1158676480	50	6522
2026-01-15 16:36:08.56	256.00	14.69	-39.0	-40.1	21.2	0.00e+00	0	28	0	1160773632	50	6532
2026-01-15 16:36:09.57	255.89	14.59	-39.0	-40.1	21.2	0.00e+00	0	28	0	1162870784	50	6537
2026-01-15 16:36:10.58	255.78	14.50	-38.9	-40.0	21.4	0.00e+00	43	28	0	1164967936	50	6431
2026-01-15 16:36:11.59	255.68	14.41	-38.7	-39.8	21.5	0.00e+00	0	28	0	1166016512	50	6274
2026-01-15 16:36:12.60	255.57	14.32	-38.7	-39.8	21.4	0.00e+00	71	28	0	1168113664	50	6317
2026-01-15 16:36:13.61	255.46	14.23	-39.0	-40.2	21.3	0.00e+00	0	28	0	1170210816	50	6542
2026-01-15 16:36:14.62	255.36	14.14	-38.5	-39.6	21.6	0.00e+00	92	28	0	1172307968	50	6125
2026-01-15 16:36:15.63	255.25	14.05	-38.5	-39.6	21.6	0.00e+00	0	28	0	1174405120	50	6140
2026-01-15 16:36:16.64	255.15	13.96	-38.6	-39.7	21.7	0.00e+00	0	28	0	1175453696	50	6189
2026-01-15 16:36:17.65	255.04	13.87	-38.4	-39.5	21.8	0.00e+00	0	28	0	1177550848	50	6039
2026-01-15 16:36:18.66	254.94	13.78	-38.6	-39.7	21.6	0.00e+00	0	28	0	1179648000	50	6179
2026-01-15 16:36:19.67	254.84	13.70	-38.6	-39.7	21.6	0.00e+00	92	28	0	1181745152	50	6244
2026-01-15 16:36:20.68	254.73	13.61	-38.6	-39.7	21.5	0.00e+00	0	28	0	1183842304	50	6241
2026-01-15 16:36:21.69	254.63	13.52	-38.7	-39.8	21.5	0.00e+00	91	28	0	1185939456	50	6265
2026-01-15 16:36:22.70	254.53	13.43	-38.7	-39.8	21.4	0.00e+00	0	28	0	1186988032	50	6307
2026-01-15 16:36:23.71	254.43	13.34	-38.7	-39.8	21.6	0.00e+00	0	28	0	1189085184	50	6247
2026-01-15 16:36:24.71	254.33	13.26	-38.8	-39.9	21.5	0.00e+00	0	28	0	1191182336	50	6359
2026-01-15 16:36:25.72	254.23	13.17	-38.9	-40.1	21.3	0.00e+00	33	28	0	1193279488	50	6470
2026-01-15 16:36:26.73	254.14	13.08	-38.8	-39.9	21.5	0.00e+00	35	28	0	1195376640	50	6390
2026-01-15 16:36:27.74	254.04	12.99	-38.9	-40.0	21.2	0.00e+00	0	28	0	1196425216	50	6462
2026-01-15 16:36:28.74	253.94	12.91	-39.0	-40.1	21.0	0.00e+00	92	28	0	1198522368	50	6516
