passes_logs/2026/01/15/R4.6S_Anadyr/R4.6S_Anadyr__20260115_085330_TY-42_rec.log

#Pass ID: 20260115_085330_TY-42
#Satellite: TY-42
#Configuration: TY-42_900M
#almurnet v.1.7.20251203
#Start time: 2026-01-15 08:54:01

#Version: 2.2.20231116
#Station: R4.6S_Anadyr
#Location: 177.4865 lon 64.73178 lat
#TLE: 1 64048U 25103A   26014.69425926  .00008005  00000-0  38191-3 0 09997
#TLE: 2 64048 097.4117 090.1174 0001564 091.0855 218.1626 15.19145944 36760

#Time	Az	El	Level	Level2	SNR	BER	BlckErr	Temp	State	Recorded	gain1	gain2
2026-01-15 08:54:01.64	144.44	2.11	-48.7	-60.2	3.5	8.44e-01	0	27	0	0	60	37169
2026-01-15 08:54:02.64	144.42	2.18	-46.7	-49.3	6.1	0.00e+00	0	28	104	0	60	35617
2026-01-15 08:54:03.65	144.39	2.25	-46.7	-49.3	6.1	0.00e+00	0	28	104	0	60	35545
2026-01-15 08:54:04.66	144.37	2.32	-46.7	-49.3	6.1	0.00e+00	0	28	104	0	60	35610
2026-01-15 08:54:05.67	144.34	2.39	-46.7	-49.3	6.0	0.00e+00	0	28	104	0	60	35550
2026-01-15 08:54:06.68	144.31	2.46	-46.7	-49.3	6.1	0.00e+00	0	28	104	0	60	35774
2026-01-15 08:54:07.69	144.29	2.53	-46.7	-49.3	6.1	0.00e+00	0	28	104	0	60	35663
2026-01-15 08:54:08.70	144.26	2.60	-46.7	-49.3	6.1	0.00e+00	0	28	104	0	60	35685
2026-01-15 08:54:09.71	144.23	2.68	-46.7	-49.3	6.1	0.00e+00	0	29	104	0	60	35769
2026-01-15 08:54:10.72	144.21	2.75	-46.7	-49.3	6.1	0.00e+00	0	29	104	0	60	35709
2026-01-15 08:54:11.73	144.18	2.82	-46.7	-49.3	6.1	0.00e+00	0	28	104	0	60	35536
2026-01-15 08:54:12.74	144.15	2.89	-46.7	-49.3	6.0	0.00e+00	0	29	104	0	60	35583
2026-01-15 08:54:13.75	144.12	2.97	-46.7	-49.2	6.1	0.00e+00	0	29	104	0	60	35482
2026-01-15 08:54:14.76	144.10	3.04	-46.7	-49.3	6.1	0.00e+00	0	29	104	0	60	35668
2026-01-15 08:54:15.76	144.07	3.11	-46.7	-49.3	6.1	0.00e+00	0	29	104	0	60	35872
2026-01-15 08:54:16.77	144.04	3.19	-46.7	-49.3	6.1	0.00e+00	0	29	104	0	60	35691
2026-01-15 08:54:17.79	144.01	3.26	-46.7	-49.3	6.1	0.00e+00	0	29	104	0	60	35712
2026-01-15 08:54:18.79	143.98	3.34	-46.7	-49.3	6.1	0.00e+00	0	29	104	0	60	35740
2026-01-15 08:54:19.80	143.95	3.41	-46.7	-49.3	6.1	0.00e+00	0	29	104	0	60	35554
2026-01-15 08:54:20.81	143.93	3.48	-46.7	-49.3	6.1	0.00e+00	0	29	104	0	60	35847
2026-01-15 08:54:21.82	143.90	3.56	-46.7	-49.3	6.1	0.00e+00	0	29	104	0	60	35572
2026-01-15 08:54:22.83	143.87	3.64	-46.7	-49.2	6.1	0.00e+00	0	29	104	0	60	35503
2026-01-15 08:54:23.84	143.84	3.71	-46.7	-49.3	6.1	0.00e+00	0	29	104	0	60	35649
2026-01-15 08:54:24.85	143.81	3.79	-46.7	-49.3	6.1	0.00e+00	0	29	104	0	60	35710
2026-01-15 08:54:25.86	143.78	3.86	-46.7	-49.3	6.1	0.00e+00	0	29	104	0	60	35718
2026-01-15 08:54:26.87	143.75	3.94	-46.7	-49.3	6.1	0.00e+00	0	29	104	0	60	35555
2026-01-15 08:54:27.88	143.72	4.02	-46.7	-49.3	6.1	0.00e+00	0	29	104	0	60	35589
2026-01-15 08:54:28.89	143.68	4.09	-46.8	-49.3	6.1	0.00e+00	0	29	104	0	60	35806
2026-01-15 08:54:29.90	143.65	4.17	-46.5	-49.1	6.1	0.00e+00	0	29	104	0	60	34994
2026-01-15 08:54:30.90	143.62	4.25	-47.0	-49.5	6.1	0.00e+00	0	29	104	0	60	36520
2026-01-15 08:54:31.91	143.59	4.33	-46.6	-49.2	6.1	0.00e+00	0	29	104	0	60	35154
2026-01-15 08:54:32.92	143.56	4.40	-46.8	-49.3	6.1	0.00e+00	0	29	104	0	60	35921
2026-01-15 08:54:33.93	143.53	4.48	-46.7	-49.3	6.1	0.00e+00	0	29	104	0	60	35702
2026-01-15 08:54:34.94	143.50	4.56	-46.9	-49.5	6.1	0.00e+00	0	29	104	0	60	36436
2026-01-15 08:54:35.95	143.46	4.64	-46.5	-49.1	6.1	0.00e+00	0	29	104	0	60	34796
2026-01-15 08:54:36.96	143.43	4.72	-46.8	-49.3	6.1	0.00e+00	0	29	104	0	60	35739
2026-01-15 08:54:37.96	143.40	4.80	-46.6	-49.2	6.1	0.00e+00	0	29	104	0	60	35451
2026-01-15 08:54:38.97	143.36	4.88	-46.9	-49.4	6.1	0.00e+00	0	29	104	0	60	36280
2026-01-15 08:54:39.98	143.33	4.96	-46.5	-49.1	6.1	0.00e+00	0	29	104	0	60	34780
2026-01-15 08:54:40.99	143.30	5.04	-46.7	-49.2	6.1	0.00e+00	0	29	104	0	60	35515
2026-01-15 08:54:42.00	143.26	5.12	-46.7	-49.3	6.1	0.00e+00	0	29	104	0	60	35570
2026-01-15 08:54:43.01	143.23	5.20	-46.9	-49.5	6.1	0.00e+00	0	29	104	0	60	36427
2026-01-15 08:54:44.02	143.19	5.28	-46.5	-49.1	6.1	0.00e+00	0	29	104	0	60	34781
2026-01-15 08:54:45.03	143.16	5.37	-46.8	-49.4	6.1	0.00e+00	0	29	104	0	60	36110
2026-01-15 08:54:46.04	143.12	5.45	-46.8	-49.4	6.1	0.00e+00	0	29	104	0	60	36297
2026-01-15 08:54:47.05	143.09	5.53	-33.5	-33.8	11.0	0.00e+00	0	29	104	0	40	19063
2026-01-15 08:54:48.06	143.05	5.61	-45.7	-47.9	6.1	5.72e-02	0	30	104	0	60	30503
2026-01-15 08:54:49.07	143.02	5.70	-44.8	-46.3	6.6	0.00e+00	0	30	104	0	60	25189
2026-01-15 08:54:50.07	142.98	5.78	-45.2	-47.1	6.2	0.00e+00	0	30	104	0	60	27739
2026-01-15 08:54:51.08	142.95	5.86	-35.0	-35.4	10.5	0.00e+00	0	30	104	0	46	16133
2026-01-15 08:54:52.10	142.91	5.95	-34.0	-34.2	12.0	0.00e+00	5474	30	104	0	44	15836
2026-01-15 08:54:53.10	142.87	6.03	-32.9	-33.4	13.1	0.00e+00	0	30	0	109051904	42	16132
2026-01-15 08:54:54.11	142.83	6.12	-32.7	-33.2	13.2	1.69e-01	0	30	0	226492416	40	17706
2026-01-15 08:54:55.12	142.80	6.20	-32.4	-32.9	13.3	1.69e-01	0	30	0	335544320	40	17069
2026-01-15 08:54:56.13	142.76	6.29	-32.3	-32.8	13.3	5.78e-02	0	30	0	452984832	40	16891
2026-01-15 08:54:57.14	142.72	6.38	-32.1	-32.5	13.3	5.78e-02	0	30	0	562036736	40	16421
2026-01-15 08:54:58.15	142.68	6.46	-31.8	-32.3	13.6	5.24e-02	0	30	0	671088640	40	15977
2026-01-15 08:54:59.16	142.64	6.55	-31.7	-32.2	13.8	5.24e-02	0	30	0	788529152	38	17746
2026-01-15 08:55:00.17	142.60	6.64	-31.9	-32.4	13.6	4.16e-02	0	30	0	905969664	38	18073
2026-01-15 08:55:01.18	142.56	6.72	-31.7	-32.2	13.8	4.16e-02	0	30	0	1015021568	38	17759
2026-01-15 08:55:02.19	142.53	6.81	-31.7	-32.2	13.7	3.64e-02	0	30	0	1132462080	38	17663
2026-01-15 08:55:03.20	142.49	6.90	-31.6	-32.1	13.8	3.49e-02	0	30	0	1241513984	38	17503
2026-01-15 08:55:04.20	142.45	6.99	-31.6	-32.1	13.8	3.49e-02	0	30	0	1358954496	38	17582
2026-01-15 08:55:05.21	142.40	7.08	-31.5	-32.0	13.9	3.10e-02	0	30	0	1468006400	38	17336
2026-01-15 08:55:06.22	142.36	7.17	-31.9	-32.4	13.7	3.10e-02	0	30	0	1585446912	38	18070
2026-01-15 08:55:07.23	142.32	7.26	-31.5	-32.0	13.9	3.47e-02	0	30	0	1694498816	38	17226
2026-01-15 08:55:08.24	142.28	7.35	-31.4	-31.9	13.9	3.47e-02	0	30	0	1811939328	38	17069
2026-01-15 08:55:09.25	142.24	7.44	-31.5	-32.0	13.9	3.05e-02	0	30	0	1929379840	38	17350
2026-01-15 08:55:10.26	142.20	7.53	-31.3	-31.8	14.1	2.94e-02	0	30	0	2038431744	38	16874
2026-01-15 08:55:11.27	142.15	7.62	-31.3	-31.8	14.2	2.94e-02	0	30	0	2155872256	38	16827
2026-01-15 08:55:12.28	142.11	7.71	-31.1	-31.5	14.2	2.42e-02	0	30	0	2264924160	38	16414
2026-01-15 08:55:13.29	142.07	7.81	-31.0	-31.5	14.3	2.42e-02	0	30	0	2382364672	38	16347
2026-01-15 08:55:14.30	142.02	7.90	-30.7	-31.2	14.4	2.10e-02	0	30	0	2491416576	36	17778
2026-01-15 08:55:15.31	141.98	7.99	-30.6	-31.2	14.5	2.10e-02	0	30	0	2608857088	36	17605
2026-01-15 08:55:16.32	141.93	8.09	-30.6	-31.1	14.5	1.63e-02	0	30	0	2717908992	36	17582
2026-01-15 08:55:17.32	141.89	8.18	-30.5	-31.0	14.6	1.63e-02	0	30	0	2835349504	36	17306
2026-01-15 08:55:18.33	141.84	8.27	-30.4	-30.9	14.6	1.44e-02	0	30	0	2944401408	36	17109
2026-01-15 08:55:19.34	141.80	8.37	-30.3	-30.8	14.6	1.44e-02	0	31	0	3061841920	36	16992
2026-01-15 08:55:20.34	141.75	8.46	-30.2	-30.7	14.7	1.26e-02	0	31	0	3170893824	36	16779
2026-01-15 08:55:21.35	141.70	8.56	-30.1	-30.6	14.7	1.26e-02	0	31	0	3288334336	36	16605
2026-01-15 08:55:22.36	141.66	8.66	-30.3	-30.8	14.7	1.19e-02	0	31	0	3405774848	36	16867
2026-01-15 08:55:23.37	141.61	8.75	-30.1	-30.6	14.7	1.19e-02	0	30	0	3514826752	36	16506
2026-01-15 08:55:24.38	141.56	8.85	-30.2	-30.7	14.6	1.21e-02	0	31	0	3623878656	36	16757
2026-01-15 08:55:25.39	141.51	8.95	-30.1	-30.6	14.7	1.21e-02	0	31	0	3741319168	36	16601
2026-01-15 08:55:26.40	141.47	9.05	-30.0	-30.5	14.6	1.22e-02	0	31	0	3850371072	36	16344
2026-01-15 08:55:27.41	141.42	9.15	-30.1	-30.6	14.7	1.22e-02	0	31	0	3967811584	36	16590
2026-01-15 08:55:28.42	141.37	9.25	-30.0	-30.5	14.8	1.28e-02	0	31	0	4085252096	36	16366
2026-01-15 08:55:29.42	141.32	9.35	-29.9	-30.4	14.8	1.28e-02	0	31	0	4194304000	36	16225
2026-01-15 08:55:30.43	141.27	9.45	-29.9	-30.4	14.8	1.04e-02	0	31	0	4311744512	36	16204
2026-01-15 08:55:31.44	141.22	9.55	-30.0	-30.5	14.8	1.04e-02	0	31	0	4420796416	36	16295
2026-01-15 08:55:32.45	141.16	9.65	-29.9	-30.4	14.9	1.08e-02	0	31	0	4538236928	36	16138
2026-01-15 08:55:33.46	141.11	9.75	-29.8	-30.3	14.9	1.08e-02	0	31	0	4647288832	34	17883
2026-01-15 08:55:34.47	141.06	9.85	-29.6	-30.1	15.0	9.62e-03	0	31	0	4764729344	34	17574
2026-01-15 08:55:35.48	141.01	9.96	-29.6	-30.1	15.0	9.62e-03	0	31	0	4873781248	34	17535
2026-01-15 08:55:36.49	140.95	10.06	-29.7	-30.2	15.0	7.97e-03	0	31	0	4991221760	34	17671
2026-01-15 08:55:37.50	140.90	10.16	-29.6	-30.1	15.0	7.97e-03	0	31	0	5100273664	34	17466
2026-01-15 08:55:38.50	140.85	10.27	-29.3	-29.8	15.1	7.79e-03	0	31	0	5217714176	34	16907
2026-01-15 08:55:39.51	140.79	10.37	-29.4	-29.9	15.0	7.79e-03	0	31	0	5335154688	34	17069
2026-01-15 08:55:40.53	140.74	10.48	-29.1	-29.6	15.1	6.47e-03	0	31	0	5444206592	34	16547
2026-01-15 08:55:41.53	140.68	10.59	-29.1	-29.6	14.9	6.47e-03	0	31	0	5553258496	34	16538
2026-01-15 08:55:42.55	140.62	10.70	-29.0	-29.5	15.0	6.60e-03	0	31	0	5670699008	34	16413
2026-01-15 08:55:43.55	140.57	10.80	-28.8	-29.3	15.1	6.60e-03	0	31	0	5788139520	34	16006
2026-01-15 08:55:44.56	140.51	10.91	-28.7	-29.2	15.2	6.75e-03	0	31	0	5897191424	32	17702
2026-01-15 08:55:45.57	140.45	11.02	-28.3	-28.8	15.2	6.75e-03	0	31	0	6014631936	32	16975
2026-01-15 08:55:46.59	140.39	11.13	-28.1	-28.6	15.3	4.60e-03	0	31	0	6123683840	32	16509
2026-01-15 08:55:47.60	140.33	11.24	-28.0	-28.5	15.4	4.60e-03	0	31	0	6241124352	32	16290
2026-01-15 08:55:48.61	140.27	11.35	-27.8	-28.3	15.5	3.79e-03	0	31	0	6358564864	32	15974
2026-01-15 08:55:49.62	140.21	11.46	-27.6	-28.1	15.6	2.69e-03	0	31	0	6467616768	30	17538
2026-01-15 08:55:50.63	140.15	11.58	-27.8	-28.3	15.6	2.69e-03	0	31	0	6576668672	30	17865
2026-01-15 08:55:51.64	140.09	11.69	-27.2	-27.7	15.8	1.63e-03	0	31	0	6694109184	30	16717
2026-01-15 08:55:52.65	140.03	11.80	-27.0	-27.5	16.0	1.63e-03	0	31	0	6803161088	30	16289
2026-01-15 08:55:53.65	139.97	11.91	-27.1	-27.7	16.0	1.02e-03	0	31	0	6920601600	30	16644
2026-01-15 08:55:54.66	139.90	12.03	-26.5	-27.0	16.2	1.02e-03	0	31	0	7038042112	28	17299
2026-01-15 08:55:55.66	139.84	12.14	-26.4	-27.0	16.2	6.37e-04	0	31	0	7147094016	28	17244
2026-01-15 08:55:56.67	139.78	12.26	-26.4	-26.9	16.2	6.37e-04	0	31	0	7264534528	28	17087
2026-01-15 08:55:57.68	139.71	12.38	-26.0	-26.5	16.4	2.62e-04	0	31	0	7373586432	28	16405
2026-01-15 08:55:58.68	139.65	12.49	-25.9	-26.5	16.4	2.62e-04	0	31	0	7482638336	28	16320
2026-01-15 08:55:59.69	139.58	12.61	-25.7	-26.3	16.5	2.62e-04	0	31	0	7600078848	26	17831
2026-01-15 08:56:00.70	139.51	12.73	-25.7	-26.2	16.5	1.36e-04	0	31	0	7717519360	26	17710
2026-01-15 08:56:01.71	139.45	12.85	-25.5	-26.0	16.6	1.36e-04	0	31	0	7826571264	26	17263
2026-01-15 08:56:02.72	139.38	12.97	-25.0	-25.6	16.7	5.99e-05	0	31	0	7944011776	26	16473
2026-01-15 08:56:03.73	139.31	13.09	-25.0	-25.6	16.7	5.99e-05	0	31	0	8053063680	26	16437
2026-01-15 08:56:04.74	139.24	13.21	-24.8	-25.4	16.7	6.53e-05	0	31	0	8170504192	26	16113
2026-01-15 08:56:05.75	139.17	13.34	-24.9	-25.5	16.6	6.53e-05	0	31	0	8287944704	26	16241
2026-01-15 08:56:06.76	139.10	13.46	-25.1	-25.6	16.7	3.81e-05	0	31	0	8396996608	26	16527
2026-01-15 08:56:07.77	139.02	13.58	-24.5	-25.1	16.8	3.81e-05	0	31	0	8506048512	24	17404
2026-01-15 08:56:08.78	138.95	13.71	-24.4	-25.0	16.7	3.81e-05	0	31	0	8623489024	24	17254
2026-01-15 08:56:09.79	138.88	13.84	-24.4	-24.9	16.7	3.81e-05	0	31	0	8732540928	24	17107
2026-01-15 08:56:10.80	138.80	13.96	-24.2	-24.8	16.8	1.08e-05	0	31	0	8849981440	24	16847
2026-01-15 08:56:11.81	138.73	14.09	-24.3	-24.8	16.8	1.08e-05	0	31	0	8967421952	24	16922
2026-01-15 08:56:12.82	138.65	14.22	-24.0	-24.6	16.8	5.40e-06	0	31	0	9076473856	24	16436
2026-01-15 08:56:13.83	138.57	14.35	-24.0	-24.6	16.9	5.40e-06	0	31	0	9193914368	24	16482
2026-01-15 08:56:14.84	138.50	14.48	-23.9	-24.5	16.9	0.00e+00	0	31	0	9302966272	24	16312
2026-01-15 08:56:15.85	138.42	14.61	-23.9	-24.5	16.9	0.00e+00	0	31	0	9412018176	24	16315
2026-01-15 08:56:16.86	138.34	14.74	-23.8	-24.3	16.9	1.08e-05	0	31	0	9529458688	24	16018
2026-01-15 08:56:17.86	138.26	14.87	-23.7	-24.2	16.9	1.08e-05	0	31	0	9646899200	22	17789
2026-01-15 08:56:18.87	138.18	15.00	-23.8	-24.3	16.9	5.40e-06	0	31	0	9755951104	22	17989
2026-01-15 08:56:19.88	138.10	15.14	-23.7	-24.2	16.8	5.40e-06	0	31	0	9873391616	22	17759
2026-01-15 08:56:20.89	138.01	15.27	-23.5	-24.0	16.8	0.00e+00	0	31	0	9982443520	22	17387
2026-01-15 08:56:21.90	137.93	15.41	-23.4	-23.9	16.7	0.00e+00	0	31	0	10099884032	22	17095
2026-01-15 08:56:22.91	137.85	15.55	-23.5	-24.0	16.7	2.17e-05	0	31	0	10217324544	22	17398
2026-01-15 08:56:23.92	137.76	15.69	-23.3	-23.8	16.7	2.17e-05	0	31	0	10326376448	22	16963
2026-01-15 08:56:24.93	137.67	15.82	-23.2	-23.7	16.7	2.17e-05	0	31	0	10435428352	22	16807
2026-01-15 08:56:25.94	137.59	15.96	-23.2	-23.7	16.7	2.17e-05	0	31	0	10552868864	22	16764
2026-01-15 08:56:26.95	137.50	16.11	-23.2	-23.7	16.8	2.17e-05	0	31	0	10670309376	22	16683
2026-01-15 08:56:27.96	137.41	16.25	-23.1	-23.7	16.8	2.17e-05	0	31	0	10779361280	22	16644
2026-01-15 08:56:28.97	137.32	16.39	-23.2	-23.7	16.8	1.08e-05	0	31	0	10896801792	22	16704
2026-01-15 08:56:29.98	137.22	16.53	-23.1	-23.6	16.9	1.08e-05	0	31	0	11005853696	22	16543
2026-01-15 08:56:30.98	137.13	16.68	-23.3	-23.8	16.8	5.40e-06	0	31	0	11123294208	22	16955
2026-01-15 08:56:31.99	137.04	16.82	-23.2	-23.7	16.8	1.63e-05	0	31	0	11232346112	22	16673
2026-01-15 08:56:33.00	136.94	16.97	-22.9	-23.4	16.9	1.63e-05	0	31	0	11349786624	22	16228
2026-01-15 08:56:34.01	136.85	17.12	-22.8	-23.4	16.9	1.08e-05	0	31	0	11458838528	22	16057
2026-01-15 08:56:35.02	136.75	17.27	-22.8	-23.4	16.9	1.08e-05	0	31	0	11576279040	22	16116
2026-01-15 08:56:36.03	136.65	17.42	-22.6	-23.2	16.9	0.00e+00	0	31	0	11685330944	20	17652
2026-01-15 08:56:37.04	136.55	17.57	-22.7	-23.2	16.9	0.00e+00	0	31	0	11802771456	20	17793
2026-01-15 08:56:38.05	136.45	17.72	-22.5	-23.1	17.0	0.00e+00	0	31	0	11911823360	20	17408
2026-01-15 08:56:39.06	136.35	17.88	-22.5	-23.1	17.1	0.00e+00	0	31	0	12029263872	20	17423
2026-01-15 08:56:40.07	136.25	18.03	-22.5	-23.0	17.1	0.00e+00	0	31	0	12146704384	20	17263
2026-01-15 08:56:41.08	136.14	18.19	-22.4	-23.0	17.2	0.00e+00	0	31	0	12255756288	20	17233
2026-01-15 08:56:42.08	136.04	18.34	-22.3	-22.8	17.3	0.00e+00	0	31	0	12364808192	20	16983
2026-01-15 08:56:43.09	135.93	18.50	-22.5	-23.0	17.2	0.00e+00	0	32	0	12482248704	20	17271
2026-01-15 08:56:44.10	135.82	18.66	-22.3	-22.8	17.3	0.00e+00	0	31	0	12599689216	20	16904
2026-01-15 08:56:45.11	135.71	18.82	-22.2	-22.7	17.3	0.00e+00	0	31	0	12708741120	20	16799
2026-01-15 08:56:46.12	135.60	18.98	-22.1	-22.6	17.3	0.00e+00	0	31	0	12826181632	20	16536
2026-01-15 08:56:47.13	135.49	19.15	-22.1	-22.6	17.3	0.00e+00	0	31	0	12935233536	20	16589
2026-01-15 08:56:48.14	135.37	19.31	-21.8	-22.4	17.3	0.00e+00	0	31	0	13052674048	20	16080
2026-01-15 08:56:49.15	135.26	19.48	-21.7	-22.3	17.3	0.00e+00	0	31	0	13161725952	18	17907
2026-01-15 08:56:50.15	135.14	19.64	-21.6	-22.1	17.2	0.00e+00	0	31	0	13279166464	18	17578
2026-01-15 08:56:51.17	135.02	19.81	-21.5	-22.1	17.2	0.00e+00	0	32	0	13388218368	18	17422
2026-01-15 08:56:52.17	134.90	19.98	-21.5	-22.1	17.3	0.00e+00	0	32	0	13505658880	18	17412
2026-01-15 08:56:53.18	134.78	20.15	-21.6	-22.1	17.3	0.00e+00	0	31	0	13614710784	18	17565
2026-01-15 08:56:54.19	134.66	20.32	-21.2	-21.8	17.3	0.00e+00	0	32	0	13732151296	18	16823
2026-01-15 08:56:55.20	134.53	20.50	-21.1	-21.7	17.2	0.00e+00	0	32	0	13849591808	18	16627
2026-01-15 08:56:56.21	134.41	20.67	-21.0	-21.5	17.3	0.00e+00	0	32	0	13958643712	18	16404
2026-01-15 08:56:57.22	134.28	20.85	-20.9	-21.4	17.3	0.00e+00	0	32	0	14076084224	18	16232
2026-01-15 08:56:58.23	134.15	21.02	-20.9	-21.5	17.3	0.00e+00	0	32	0	14185136128	18	16283
2026-01-15 08:56:59.24	134.02	21.20	-20.7	-21.3	17.3	0.00e+00	0	32	0	14294188032	16	17813
2026-01-15 08:57:00.25	133.89	21.38	-20.8	-21.3	17.4	0.00e+00	0	31	0	14411628544	16	17943
2026-01-15 08:57:01.26	133.75	21.57	-20.6	-21.1	17.4	0.00e+00	0	32	0	14529069056	16	17510
2026-01-15 08:57:02.26	133.61	21.75	-20.6	-21.2	17.4	0.00e+00	0	32	0	14638120960	16	17630
2026-01-15 08:57:03.27	133.48	21.93	-20.5	-21.0	17.4	0.00e+00	0	31	0	14755561472	16	17393
2026-01-15 08:57:04.28	133.34	22.12	-20.6	-21.1	17.5	0.00e+00	0	32	0	14864613376	16	17598
2026-01-15 08:57:05.29	133.19	22.31	-20.7	-21.2	17.5	0.00e+00	0	32	0	14982053888	16	17638
2026-01-15 08:57:06.30	133.05	22.50	-20.6	-21.1	17.5	0.00e+00	0	32	0	15091105792	16	17513
2026-01-15 08:57:07.31	132.90	22.69	-20.5	-21.1	17.6	0.00e+00	0	32	0	15208546304	16	17454
2026-01-15 08:57:08.32	132.75	22.88	-20.5	-21.0	17.6	0.00e+00	0	32	0	15317598208	16	17383
2026-01-15 08:57:09.33	132.60	23.08	-20.5	-21.1	17.6	0.00e+00	0	32	0	15435038720	16	17428
2026-01-15 08:57:10.34	132.45	23.27	-20.4	-20.9	17.6	0.00e+00	0	32	0	15544090624	16	17176
2026-01-15 08:57:11.35	132.29	23.47	-20.3	-20.8	17.6	0.00e+00	0	32	0	15661531136	16	17003
2026-01-15 08:57:12.36	132.14	23.67	-20.3	-20.9	17.5	0.00e+00	0	32	0	15778971648	16	17042
2026-01-15 08:57:13.37	131.98	23.87	-20.3	-20.8	17.5	0.00e+00	0	32	0	15888023552	16	16945
2026-01-15 08:57:14.38	131.81	24.07	-20.0	-20.5	17.4	0.00e+00	0	32	0	16005464064	16	16427
2026-01-15 08:57:15.39	131.65	24.28	-19.9	-20.5	17.4	0.00e+00	0	32	0	16114515968	16	16315
2026-01-15 08:57:16.40	131.48	24.48	-19.8	-20.4	17.3	0.00e+00	0	32	0	16223567872	16	16062
2026-01-15 08:57:17.41	131.31	24.69	-19.9	-20.4	17.3	0.00e+00	0	32	0	16349396992	14	18175
2026-01-15 08:57:18.42	131.14	24.90	-19.8	-20.4	17.4	0.00e+00	0	32	0	16458448896	14	18067
2026-01-15 08:57:19.43	130.96	25.11	-19.5	-20.1	17.5	0.00e+00	0	32	0	16567500800	14	17467
2026-01-15 08:57:20.44	130.79	25.32	-19.7	-20.2	17.5	0.00e+00	0	32	0	16684941312	14	17799
2026-01-15 08:57:21.45	130.61	25.54	-19.4	-19.9	17.6	0.00e+00	0	32	0	16793993216	14	17172
2026-01-15 08:57:22.46	130.42	25.75	-19.3	-19.8	17.6	0.00e+00	0	32	0	16911433728	14	16872
2026-01-15 08:57:23.47	130.24	25.97	-19.0	-19.6	17.6	0.00e+00	0	32	0	17028874240	14	16476
2026-01-15 08:57:24.48	130.05	26.19	-19.1	-19.6	17.6	0.00e+00	0	32	0	17137926144	14	16513
2026-01-15 08:57:25.49	129.86	26.42	-18.8	-19.4	17.6	0.00e+00	0	32	0	17246978048	14	16066
2026-01-15 08:57:26.50	129.66	26.64	-18.8	-19.4	17.6	0.00e+00	0	32	0	17364418560	14	16103
2026-01-15 08:57:27.51	129.47	26.87	-18.6	-19.2	17.6	0.00e+00	0	32	0	17481859072	12	17633
2026-01-15 08:57:28.52	129.27	27.09	-18.7	-19.2	17.6	0.00e+00	0	32	0	17590910976	12	17742
2026-01-15 08:57:29.53	129.06	27.32	-18.5	-19.0	17.6	0.00e+00	0	32	0	17708351488	12	17226
2026-01-15 08:57:30.54	128.85	27.56	-18.6	-19.1	17.6	0.00e+00	0	32	0	17817403392	12	17583
2026-01-15 08:57:31.55	128.64	27.79	-18.2	-18.8	17.6	0.00e+00	0	32	0	17934843904	12	16816
2026-01-15 08:57:32.56	128.43	28.02	-18.3	-18.8	17.6	0.00e+00	0	32	0	18052284416	12	16984
2026-01-15 08:57:33.57	128.21	28.26	-18.0	-18.5	17.6	0.00e+00	0	32	0	18161336320	12	16396
2026-01-15 08:57:34.58	127.99	28.50	-18.1	-18.6	17.6	0.00e+00	0	32	0	18278776832	12	16507
2026-01-15 08:57:35.59	127.77	28.74	-18.0	-18.5	17.6	0.00e+00	0	32	0	18387828736	12	16385
2026-01-15 08:57:36.60	127.54	28.99	-17.9	-18.4	17.7	0.00e+00	0	31	0	18496880640	12	16065
2026-01-15 08:57:37.61	127.30	29.23	-17.7	-18.2	17.6	0.00e+00	0	32	0	18614321152	10	17767
2026-01-15 08:57:38.62	127.07	29.48	-17.5	-18.0	17.6	0.00e+00	0	32	0	18731761664	10	17388
2026-01-15 08:57:39.63	126.83	29.73	-17.5	-18.0	17.6	0.00e+00	0	32	0	18840813568	10	17323
2026-01-15 08:57:40.64	126.58	29.98	-17.5	-18.0	17.6	0.00e+00	0	32	0	18958254080	10	17304
2026-01-15 08:57:41.64	126.34	30.23	-17.3	-17.7	17.6	0.00e+00	0	32	0	19067305984	10	16767
2026-01-15 08:57:42.65	126.08	30.49	-17.2	-17.7	17.6	0.00e+00	0	32	0	19184746496	10	16630
2026-01-15 08:57:43.66	125.83	30.75	-17.0	-17.5	17.6	0.00e+00	0	32	0	19302187008	10	16313
2026-01-15 08:57:44.67	125.56	31.01	-17.1	-17.6	17.6	0.00e+00	0	32	0	19411238912	10	16492
2026-01-15 08:57:45.68	125.30	31.27	-16.9	-17.4	17.7	0.00e+00	0	32	0	19520290816	10	16081
2026-01-15 08:57:46.69	125.02	31.54	-17.1	-17.6	17.7	0.00e+00	0	32	0	19637731328	10	16468
2026-01-15 08:57:47.70	124.75	31.80	-16.9	-17.3	17.7	0.00e+00	0	32	0	19746783232	10	16046
2026-01-15 08:57:48.71	124.47	32.07	-48.7	-51.2	6.1	0.00e+00	0	32	104	19822280704	60	44483
2026-01-15 08:57:49.72	124.18	32.34	-48.8	-51.3	6.1	0.00e+00	0	31	104	19822280704	60	44830
2026-01-15 08:57:50.73	123.89	32.62	-48.8	-51.3	6.0	0.00e+00	0	31	104	19822280704	60	45135
2026-01-15 08:57:51.74	123.59	32.89	-48.8	-51.3	6.1	0.00e+00	0	31	104	19822280704	60	44888
2026-01-15 08:57:52.75	123.29	33.17	-48.8	-51.2	6.1	0.00e+00	0	31	104	19822280704	60	44662
2026-01-15 08:57:53.76	122.98	33.45	-48.8	-51.3	6.1	0.00e+00	0	31	104	19822280704	60	44837
2026-01-15 08:57:54.77	122.67	33.73	-48.8	-51.3	6.1	0.00e+00	0	31	104	19822280704	60	45027
2026-01-15 08:57:55.78	122.35	34.01	-48.8	-51.3	6.1	0.00e+00	0	31	104	19822280704	60	44891
2026-01-15 08:57:56.79	122.02	34.30	-48.8	-51.3	6.1	0.00e+00	0	31	104	19822280704	60	44742
2026-01-15 08:57:57.80	121.69	34.58	-48.7	-51.2	6.1	0.00e+00	0	31	104	19822280704	60	44545
2026-01-15 08:57:58.81	121.35	34.87	-48.7	-51.2	6.1	0.00e+00	0	31	104	19822280704	60	44469
2026-01-15 08:57:59.82	121.01	35.17	-48.8	-51.2	6.0	0.00e+00	0	31	104	19822280704	60	44714
2026-01-15 08:58:00.83	120.65	35.46	-48.8	-51.3	6.1	0.00e+00	0	31	104	19822280704	60	44978
2026-01-15 08:58:01.84	120.30	35.75	-48.8	-51.3	6.1	0.00e+00	0	31	104	19822280704	60	44843
2026-01-15 08:58:02.85	119.93	36.05	-48.7	-51.2	6.1	0.00e+00	0	31	104	19822280704	60	44321
2026-01-15 08:58:03.86	119.56	36.35	-48.8	-51.3	6.1	0.00e+00	0	31	104	19822280704	60	44793
2026-01-15 08:58:04.87	119.18	36.65	-48.8	-51.3	6.1	0.00e+00	0	31	104	19822280704	60	44933
2026-01-15 08:58:05.88	118.79	36.95	-48.8	-51.3	6.1	0.00e+00	0	31	104	19822280704	60	44942
2026-01-15 08:58:06.89	118.39	37.26	-48.8	-51.3	6.1	0.00e+00	0	31	104	19822280704	60	44899
2026-01-15 08:58:07.90	117.99	37.56	-48.7	-51.2	6.1	0.00e+00	0	31	104	19822280704	60	44625
2026-01-15 08:58:08.91	117.58	37.87	-48.7	-51.2	6.1	0.00e+00	0	31	104	19822280704	60	44702
2026-01-15 08:58:09.92	117.16	38.18	-48.7	-51.2	6.1	0.00e+00	0	31	104	19822280704	60	44625
2026-01-15 08:58:10.93	116.73	38.49	-48.8	-51.3	6.1	0.00e+00	0	31	104	19822280704	60	44765
2026-01-15 08:58:11.94	116.30	38.81	-48.8	-51.3	6.1	0.00e+00	0	31	104	19822280704	60	44739
2026-01-15 08:58:12.95	115.85	39.12	-48.7	-51.2	6.1	0.00e+00	0	31	104	19822280704	60	44285
2026-01-15 08:58:13.96	115.39	39.43	-48.7	-51.2	6.1	0.00e+00	0	31	104	19822280704	60	44491
2026-01-15 08:58:14.97	114.93	39.75	-48.6	-51.1	6.1	0.00e+00	0	31	104	19822280704	60	43998
2026-01-15 08:58:15.98	114.46	40.07	-48.8	-51.3	6.1	0.00e+00	0	31	104	19822280704	60	44734
2026-01-15 08:58:16.99	113.97	40.39	-48.5	-51.1	6.1	0.00e+00	0	31	104	19822280704	60	43748
2026-01-15 08:58:17.99	113.48	40.70	-48.8	-51.2	6.1	0.00e+00	0	32	104	19822280704	60	44678
2026-01-15 08:58:19.00	112.98	41.02	-48.6	-51.1	6.1	0.00e+00	0	31	104	19822280704	60	43953
2026-01-15 08:58:20.01	112.46	41.35	-48.6	-51.1	6.1	0.00e+00	0	31	104	19822280704	60	44052
2026-01-15 08:58:21.02	111.94	41.67	-48.7	-51.1	6.1	0.00e+00	0	31	104	19822280704	60	44212
2026-01-15 08:58:22.03	111.40	41.99	-48.6	-51.1	6.1	0.00e+00	0	31	104	19822280704	60	44044
2026-01-15 08:58:23.04	110.85	42.31	-48.8	-51.3	6.1	0.00e+00	0	31	104	19822280704	60	44943
2026-01-15 08:58:24.05	110.29	42.63	-48.7	-51.2	6.1	0.00e+00	0	31	104	19822280704	60	44561
2026-01-15 08:58:25.06	109.72	42.96	-48.8	-51.2	6.1	0.00e+00	0	31	104	19822280704	60	44635
2026-01-15 08:58:26.07	109.14	43.28	-48.7	-51.2	6.1	0.00e+00	0	31	104	19822280704	60	44619
2026-01-15 08:58:27.08	108.54	43.60	-48.7	-51.2	6.1	0.00e+00	0	31	104	19822280704	60	44608
2026-01-15 08:58:28.09	107.94	43.93	-48.8	-51.3	6.1	0.00e+00	0	31	104	19822280704	60	45012
2026-01-15 08:58:29.10	107.31	44.25	-48.7	-51.2	6.1	0.00e+00	0	31	104	19822280704	60	44477
2026-01-15 08:58:30.11	106.68	44.57	-48.8	-51.2	6.1	0.00e+00	0	31	104	19822280704	60	44700
2026-01-15 08:58:31.12	106.03	44.89	-48.7	-51.2	6.1	0.00e+00	0	31	104	19822280704	60	44614
2026-01-15 08:58:32.13	105.37	45.21	-48.7	-51.2	6.1	0.00e+00	0	31	104	19822280704	60	44590
2026-01-15 08:58:33.14	104.69	45.52	-48.6	-51.1	6.1	0.00e+00	0	31	104	19822280704	60	43985
2026-01-15 08:58:34.15	104.00	45.84	-48.6	-51.2	6.1	0.00e+00	0	32	104	19822280704	60	44256
2026-01-15 08:58:35.15	103.31	46.15	-48.5	-51.1	6.1	0.00e+00	0	32	104	19822280704	60	43844
2026-01-15 08:58:36.16	102.59	46.46	-48.8	-51.3	6.1	0.00e+00	0	31	104	19822280704	60	44893
2026-01-15 08:58:37.17	101.86	46.77	-48.7	-51.2	6.1	0.00e+00	0	31	104	19822280704	60	44683
2026-01-15 08:58:38.17	101.11	47.08	-48.7	-51.2	6.1	0.00e+00	0	31	104	19822280704	60	44344
2026-01-15 08:58:39.18	100.35	47.38	-48.7	-51.3	6.1	0.00e+00	0	31	104	19822280704	60	44814
2026-01-15 08:58:40.19	99.57	47.68	-48.8	-51.3	6.1	0.00e+00	0	31	104	19822280704	60	44902
2026-01-15 08:58:41.20	98.78	47.98	-48.8	-51.3	6.1	0.00e+00	0	31	104	19822280704	60	44808
2026-01-15 08:58:42.21	97.97	48.27	-48.8	-51.3	6.1	0.00e+00	0	31	104	19822280704	60	45015
2026-01-15 08:58:43.21	97.15	48.56	-48.7	-51.2	6.1	0.00e+00	0	31	104	19822280704	60	44458
2026-01-15 08:58:44.22	96.31	48.84	-48.7	-51.2	6.1	0.00e+00	0	32	104	19822280704	60	44664
2026-01-15 08:58:45.23	95.45	49.13	-48.8	-51.3	6.1	0.00e+00	0	31	104	19822280704	60	44832
2026-01-15 08:58:46.24	94.57	49.40	-48.8	-51.3	6.1	0.00e+00	0	31	104	19822280704	60	44863
2026-01-15 08:58:47.25	93.68	49.67	-48.7	-51.2	6.1	0.00e+00	0	31	104	19822280704	60	44449
2026-01-15 08:58:48.26	92.78	49.94	-48.8	-51.3	6.1	0.00e+00	0	31	104	19822280704	60	44956
2026-01-15 08:58:49.27	91.85	50.20	-48.7	-51.2	6.1	0.00e+00	0	31	104	19822280704	60	44708
2026-01-15 08:58:50.28	90.92	50.45	-48.7	-51.2	6.1	0.00e+00	0	31	104	19822280704	60	44298
2026-01-15 08:58:51.29	89.96	50.70	-48.8	-51.2	6.1	0.00e+00	0	31	104	19822280704	60	44704
2026-01-15 08:58:52.30	88.99	50.93	-48.8	-51.3	6.1	0.00e+00	0	32	104	19822280704	60	44740
2026-01-15 08:58:53.31	88.00	51.17	-48.8	-51.3	6.1	0.00e+00	0	31	104	19822280704	60	44884
2026-01-15 08:58:54.32	87.00	51.39	-48.7	-51.2	6.1	0.00e+00	0	31	104	19822280704	60	44484
2026-01-15 08:58:55.33	85.98	51.61	-48.8	-51.3	6.1	0.00e+00	0	32	104	19822280704	60	44854
2026-01-15 08:58:56.34	84.95	51.82	-48.8	-51.3	6.1	0.00e+00	0	31	104	19822280704	60	44886
2026-01-15 08:58:57.35	83.90	52.01	-48.7	-51.2	6.1	0.00e+00	0	31	104	19822280704	60	44533
2026-01-15 08:58:58.36	82.84	52.20	-48.7	-51.3	6.1	0.00e+00	0	32	104	19822280704	60	44824
2026-01-15 08:58:59.36	81.78	52.38	-48.8	-51.3	6.1	0.00e+00	0	32	104	19822280704	60	44799
2026-01-15 08:59:00.37	80.69	52.56	-48.8	-51.3	6.1	0.00e+00	0	31	104	19822280704	60	44900
2026-01-15 08:59:01.38	79.59	52.72	-48.8	-51.3	6.1	0.00e+00	0	32	104	19822280704	60	44817
2026-01-15 08:59:02.39	78.48	52.87	-48.8	-51.3	6.1	0.00e+00	0	31	104	19822280704	60	45004
2026-01-15 08:59:03.40	77.35	53.01	-48.7	-51.2	6.1	0.00e+00	0	32	104	19822280704	60	44571
2026-01-15 08:59:04.41	76.22	53.14	-48.8	-51.3	6.1	0.00e+00	0	31	104	19822280704	60	44769
2026-01-15 08:59:05.42	75.08	53.26	-48.8	-51.3	6.1	0.00e+00	0	31	104	19822280704	60	44952
2026-01-15 08:59:06.43	73.92	53.36	-48.8	-51.2	6.1	0.00e+00	0	31	104	19822280704	60	44678
2026-01-15 08:59:07.44	72.76	53.46	-48.7	-51.1	6.1	0.00e+00	0	31	104	19822280704	60	44201
2026-01-15 08:59:08.45	71.59	53.55	-48.8	-51.3	6.1	0.00e+00	0	32	104	19822280704	60	44885
2026-01-15 08:59:09.46	70.42	53.62	-48.8	-51.2	6.1	0.00e+00	0	31	104	19822280704	60	44663
2026-01-15 08:59:10.47	69.24	53.68	-48.8	-51.3	6.1	0.00e+00	0	31	104	19822280704	60	45182
2026-01-15 08:59:11.48	68.05	53.73	-48.8	-51.3	6.1	0.00e+00	0	31	104	19822280704	60	45070
2026-01-15 08:59:12.48	66.87	53.76	-48.8	-51.2	6.1	0.00e+00	0	31	104	19822280704	60	44645
2026-01-15 08:59:13.49	65.68	53.79	-48.7	-51.2	6.0	0.00e+00	0	31	104	19822280704	60	44663
2026-01-15 08:59:14.50	64.49	53.80	-48.7	-51.2	6.1	0.00e+00	0	31	104	19822280704	60	44374
2026-01-15 08:59:15.51	63.30	53.80	-48.8	-51.3	6.1	0.00e+00	0	31	104	19822280704	60	44903
2026-01-15 08:59:16.52	62.10	53.79	-48.7	-51.2	6.1	0.00e+00	0	31	104	19822280704	60	44599
2026-01-15 08:59:17.52	60.92	53.76	-48.7	-51.2	6.1	0.00e+00	0	31	104	19822280704	60	44660
2026-01-15 08:59:18.53	59.74	53.72	-48.8	-51.2	6.1	0.00e+00	0	31	104	19822280704	60	44679
2026-01-15 08:59:19.54	58.55	53.67	-48.8	-51.3	6.1	0.00e+00	0	31	104	19822280704	60	45091
2026-01-15 08:59:20.55	57.37	53.61	-48.8	-51.3	6.1	0.00e+00	0	31	104	19822280704	60	44846
2026-01-15 08:59:21.56	56.20	53.54	-48.7	-51.2	6.1	0.00e+00	0	31	104	19822280704	60	44556
2026-01-15 08:59:22.57	55.03	53.45	-48.7	-51.2	6.1	0.00e+00	0	32	104	19822280704	60	44583
2026-01-15 08:59:23.58	53.87	53.36	-48.7	-51.2	6.1	0.00e+00	0	31	104	19822280704	60	44383
2026-01-15 08:59:24.59	52.72	53.25	-48.8	-51.3	6.1	0.00e+00	0	31	104	19822280704	60	44802
2026-01-15 08:59:25.60	51.58	53.13	-48.8	-51.2	6.1	0.00e+00	0	32	104	19822280704	60	44657
2026-01-15 08:59:26.61	50.44	53.00	-48.6	-51.1	6.1	0.00e+00	0	31	104	19822280704	60	43834
2026-01-15 08:59:27.62	49.32	52.86	-48.8	-51.3	6.1	0.00e+00	0	31	104	19822280704	60	44973
2026-01-15 08:59:28.63	48.21	52.70	-48.8	-51.3	6.1	0.00e+00	0	32	104	19822280704	60	44960
2026-01-15 08:59:29.64	47.11	52.54	-48.7	-51.3	6.1	0.00e+00	0	32	104	19822280704	60	44913
2026-01-15 08:59:30.65	46.03	52.37	-48.8	-51.3	6.1	0.00e+00	0	31	104	19822280704	60	44754
2026-01-15 08:59:31.65	44.97	52.19	-48.7	-51.2	6.1	0.00e+00	0	32	104	19822280704	60	44511
2026-01-15 08:59:32.66	43.91	52.00	-48.8	-51.3	6.1	0.00e+00	0	31	104	19822280704	60	44896
2026-01-15 08:59:33.67	42.86	51.80	-48.7	-51.2	6.1	0.00e+00	0	31	104	19822280704	60	44706
2026-01-15 08:59:34.68	41.83	51.59	-48.7	-51.2	6.1	0.00e+00	0	31	104	19822280704	60	44337
2026-01-15 08:59:35.69	40.82	51.38	-48.8	-51.2	6.1	0.00e+00	0	31	104	19822280704	60	44595
2026-01-15 08:59:36.70	39.82	51.15	-48.7	-51.2	6.1	0.00e+00	0	31	104	19822280704	60	44413
2026-01-15 08:59:37.71	38.83	50.92	-48.7	-51.2	6.1	0.00e+00	0	31	104	19822280704	60	44546
2026-01-15 08:59:38.72	37.87	50.68	-48.8	-51.2	6.1	0.00e+00	0	31	104	19822280704	60	44700
2026-01-15 08:59:39.73	36.91	50.43	-48.8	-51.3	6.0	0.00e+00	0	31	104	19822280704	60	44953
2026-01-15 08:59:40.74	35.98	50.18	-48.8	-51.3	6.1	0.00e+00	0	31	104	19822280704	60	44867
2026-01-15 08:59:41.75	35.06	49.92	-48.8	-51.3	6.1	0.00e+00	0	31	104	19822280704	60	44996
2026-01-15 08:59:42.75	34.16	49.66	-48.8	-51.3	6.1	0.00e+00	0	32	104	19822280704	60	44935
2026-01-15 08:59:43.76	33.28	49.39	-48.8	-51.3	6.1	0.00e+00	0	31	104	19822280704	60	44944
2026-01-15 08:59:44.77	32.40	49.11	-48.8	-51.3	6.1	0.00e+00	0	31	104	19822280704	60	44965
2026-01-15 08:59:45.78	31.55	48.83	-48.8	-51.3	6.1	0.00e+00	0	31	104	19822280704	60	44858
2026-01-15 08:59:46.79	30.71	48.55	-48.8	-51.3	6.1	0.00e+00	0	31	104	19822280704	60	45044
2026-01-15 08:59:47.80	29.89	48.26	-48.8	-51.3	6.1	0.00e+00	0	31	104	19822280704	60	44853
2026-01-15 08:59:48.81	29.08	47.97	-48.8	-51.3	6.1	0.00e+00	0	31	104	19822280704	60	45025
2026-01-15 08:59:49.82	28.29	47.67	-48.8	-51.3	6.1	0.00e+00	0	31	104	19822280704	60	44876
2026-01-15 08:59:50.82	27.52	47.37	-48.8	-51.3	6.1	0.00e+00	0	31	104	19822280704	60	44936
2026-01-15 08:59:51.84	26.75	47.07	-48.8	-51.3	6.1	0.00e+00	0	31	104	19822280704	60	44895
2026-01-15 08:59:52.84	26.01	46.76	-48.7	-51.3	6.1	0.00e+00	0	31	104	19822280704	60	44843
2026-01-15 08:59:53.86	25.27	46.45	-48.7	-51.3	6.1	0.00e+00	0	32	104	19822280704	60	44761
2026-01-15 08:59:54.86	24.56	46.14	-48.7	-51.2	6.1	0.00e+00	0	32	104	19822280704	60	44681
2026-01-15 08:59:55.87	23.86	45.83	-48.8	-51.2	6.1	0.00e+00	0	31	104	19822280704	60	44722
2026-01-15 08:59:56.88	23.18	45.51	-48.8	-51.3	6.1	0.00e+00	0	31	104	19822280704	60	45035
2026-01-15 08:59:57.89	22.50	45.20	-48.8	-51.3	6.1	0.00e+00	0	31	104	19822280704	60	44880
2026-01-15 08:59:58.90	21.84	44.88	-48.8	-51.3	6.1	0.00e+00	0	31	104	19822280704	60	44869
2026-01-15 08:59:59.90	21.21	44.57	-48.8	-51.3	6.1	0.00e+00	0	31	104	19822280704	60	45116
2026-01-15 09:00:00.92	20.57	44.24	-48.9	-51.4	6.1	0.00e+00	0	31	104	19822280704	60	45299
2026-01-15 09:00:01.92	19.95	43.92	-48.8	-51.3	6.1	0.00e+00	0	31	104	19822280704	60	44902
2026-01-15 09:00:02.94	19.34	43.60	-48.8	-51.3	6.1	0.00e+00	0	31	104	19822280704	60	44856
2026-01-15 09:00:03.94	18.75	43.28	-48.7	-51.2	6.1	0.00e+00	0	31	104	19822280704	60	44598
2026-01-15 09:00:04.95	18.17	42.96	-48.8	-51.3	6.1	0.00e+00	0	31	104	19822280704	60	45158
2026-01-15 09:00:05.96	17.60	42.64	-48.8	-51.3	6.1	0.00e+00	0	31	104	19822280704	60	45087
2026-01-15 09:00:06.97	17.05	42.32	-48.8	-51.3	6.1	0.00e+00	0	31	104	19822280704	60	45032
2026-01-15 09:00:07.98	16.50	42.00	-48.6	-51.2	6.1	0.00e+00	0	31	104	19822280704	60	44263
2026-01-15 09:00:08.98	15.97	41.68	-48.7	-51.2	6.0	0.00e+00	0	31	104	19822280704	60	44488
2026-01-15 09:00:10.00	15.44	41.35	-48.8	-51.2	6.1	0.00e+00	0	31	104	19822280704	60	44701
2026-01-15 09:00:11.01	14.93	41.03	-48.8	-51.2	6.1	0.00e+00	0	31	104	19822280704	60	44532
2026-01-15 09:00:12.01	14.43	40.72	-48.6	-51.1	6.1	0.00e+00	0	31	104	19822280704	60	44001
2026-01-15 09:00:13.03	13.94	40.40	-48.5	-51.0	6.1	0.00e+00	0	31	104	19822280704	60	43652
2026-01-15 09:00:14.03	13.46	40.08	-48.5	-51.0	6.1	0.00e+00	0	31	104	19822280704	60	43629
2026-01-15 09:00:15.04	12.99	39.77	-48.6	-51.1	6.1	0.00e+00	0	31	104	19822280704	60	43834
2026-01-15 09:00:16.06	12.52	39.45	-48.8	-51.3	6.1	0.00e+00	0	31	104	19822280704	60	44983
2026-01-15 09:00:17.06	12.07	39.14	-48.4	-50.9	6.1	0.00e+00	0	31	104	19822280704	60	43105
2026-01-15 09:00:18.07	11.63	38.83	-48.5	-51.1	6.1	0.00e+00	0	31	104	19822280704	60	43770
2026-01-15 09:00:19.08	11.19	38.51	-48.4	-51.0	6.1	0.00e+00	0	31	104	19822280704	60	43393
2026-01-15 09:00:20.09	10.76	38.20	-48.8	-51.3	6.1	0.00e+00	0	31	104	19822280704	60	44895
2026-01-15 09:00:21.09	10.35	37.90	-48.7	-51.2	6.1	0.00e+00	0	31	104	19822280704	60	44611
2026-01-15 09:00:22.10	9.94	37.59	-48.5	-51.0	6.1	0.00e+00	0	31	104	19822280704	60	43350
2026-01-15 09:00:23.11	9.54	37.29	-48.6	-51.1	6.1	0.00e+00	0	31	104	19822280704	60	43971
2026-01-15 09:00:24.12	9.15	36.98	-48.8	-51.2	6.1	0.00e+00	0	31	104	19822280704	60	44604
2026-01-15 09:00:25.13	8.76	36.68	-48.7	-51.2	6.1	0.00e+00	0	32	104	19822280704	60	44578
2026-01-15 09:00:26.13	8.38	36.39	-48.7	-51.2	6.1	0.00e+00	0	31	104	19822280704	60	44521
2026-01-15 09:00:27.14	8.01	36.09	-48.0	-50.7	6.1	0.00e+00	0	31	104	19822280704	60	41796
2026-01-15 09:00:28.15	7.65	35.79	-48.8	-51.3	6.1	0.00e+00	0	31	104	19822280704	60	44805
2026-01-15 09:00:29.16	7.29	35.50	-48.6	-51.1	6.1	0.00e+00	0	31	104	19822280704	60	43898
2026-01-15 09:00:30.17	6.94	35.21	-48.7	-51.2	6.1	0.00e+00	0	31	104	19822280704	60	44302
2026-01-15 09:00:31.18	6.60	34.92	-48.3	-50.9	6.1	0.00e+00	0	32	104	19822280704	60	42751
2026-01-15 09:00:32.18	6.26	34.63	-48.7	-51.2	6.1	0.00e+00	0	32	104	19822280704	60	44414
2026-01-15 09:00:33.19	5.93	34.34	-48.7	-51.2	6.1	0.00e+00	0	31	104	19822280704	60	44332
2026-01-15 09:00:34.20	5.61	34.06	-48.6	-51.1	6.1	0.00e+00	0	32	104	19822280704	60	44033
2026-01-15 09:00:35.21	5.29	33.78	-48.7	-51.2	6.1	0.00e+00	0	31	104	19822280704	60	44288
2026-01-15 09:00:36.22	4.98	33.50	-48.7	-51.2	6.1	0.00e+00	0	31	104	19822280704	60	44483
2026-01-15 09:00:37.23	4.67	33.22	-48.5	-51.0	6.1	0.00e+00	0	31	104	19822280704	60	43533
2026-01-15 09:00:38.23	4.37	32.95	-48.5	-51.1	6.1	0.00e+00	0	31	104	19822280704	60	43709
2026-01-15 09:00:39.24	4.07	32.67	-48.6	-51.1	6.1	0.00e+00	0	32	104	19822280704	60	43792
2026-01-15 09:00:40.25	3.78	32.40	-48.7	-51.2	6.1	0.00e+00	0	31	104	19822280704	60	44619
2026-01-15 09:00:41.26	3.50	32.13	-48.6	-51.1	6.1	0.00e+00	0	31	104	19822280704	60	43897
2026-01-15 09:00:42.27	3.22	31.86	-48.4	-51.0	6.1	0.00e+00	0	32	104	19822280704	60	43441
2026-01-15 09:00:43.28	2.94	31.60	-48.5	-51.0	6.1	0.00e+00	0	32	104	19822280704	60	43236
2026-01-15 09:00:44.29	2.67	31.34	-48.6	-51.1	6.1	0.00e+00	0	32	104	19822280704	60	43870
2026-01-15 09:00:45.30	2.40	31.07	-48.5	-51.1	6.1	0.00e+00	0	31	104	19822280704	60	43866
2026-01-15 09:00:46.31	2.14	30.81	-48.5	-51.0	6.1	0.00e+00	0	32	104	19822280704	60	43674
2026-01-15 09:00:47.32	1.89	30.56	-48.5	-51.0	6.1	0.00e+00	0	31	104	19822280704	60	43507
2026-01-15 09:00:48.33	1.63	30.30	-48.6	-51.1	6.1	0.00e+00	0	31	104	19822280704	60	43716
2026-01-15 09:00:49.34	1.39	30.05	-48.4	-50.9	6.1	0.00e+00	0	31	104	19822280704	60	43111
2026-01-15 09:00:50.35	1.14	29.80	-48.4	-51.0	6.1	0.00e+00	0	31	104	19822280704	60	43256
2026-01-15 09:00:51.36	0.90	29.55	-48.6	-51.1	6.1	0.00e+00	0	32	104	19822280704	60	43982
2026-01-15 09:00:52.37	0.67	29.30	-48.3	-50.9	6.1	0.00e+00	0	32	104	19822280704	60	42832
2026-01-15 09:00:53.38	0.43	29.06	-48.6	-51.1	6.1	0.00e+00	0	32	104	19822280704	60	43781
2026-01-15 09:00:54.39	0.21	28.82	-48.6	-51.1	6.1	0.00e+00	0	32	104	19822280704	60	44138
2026-01-15 09:00:55.40	359.98	28.57	-48.7	-51.2	6.1	0.00e+00	0	32	104	19822280704	60	44468
2026-01-15 09:00:56.41	359.76	28.34	-48.5	-51.0	6.1	0.00e+00	0	31	104	19822280704	60	43690
2026-01-15 09:00:57.41	359.55	28.10	-48.7	-51.2	6.1	0.00e+00	0	31	104	19822280704	60	44559
2026-01-15 09:00:58.42	359.33	27.87	-48.7	-51.2	6.1	0.00e+00	0	31	104	19822280704	60	44442
2026-01-15 09:00:59.43	359.12	27.63	-48.7	-51.2	6.1	0.00e+00	0	32	104	19822280704	60	44514
2026-01-15 09:01:00.44	358.92	27.40	-48.7	-51.2	6.1	0.00e+00	0	31	104	19822280704	60	44423
2026-01-15 09:01:01.45	358.71	27.17	-48.7	-51.1	6.1	0.00e+00	0	32	104	19822280704	60	44183
2026-01-15 09:01:02.46	358.51	26.95	-48.7	-51.2	6.1	0.00e+00	0	31	104	19822280704	60	44278
2026-01-15 09:01:03.47	358.32	26.72	-48.7	-51.2	6.1	0.00e+00	0	31	104	19822280704	60	44333
2026-01-15 09:01:04.48	358.12	26.50	-48.7	-51.1	6.1	0.00e+00	0	31	104	19822280704	60	44191
2026-01-15 09:01:05.49	357.93	26.28	-48.7	-51.2	6.1	0.00e+00	0	32	104	19822280704	60	44423
2026-01-15 09:01:06.49	357.75	26.06	-48.7	-51.2	6.1	0.00e+00	0	31	104	19822280704	60	44427
2026-01-15 09:01:07.50	357.56	25.84	-48.7	-51.2	6.1	0.00e+00	0	31	104	19822280704	60	44440
2026-01-15 09:01:08.51	357.38	25.63	-48.6	-51.1	6.1	0.00e+00	0	32	104	19822280704	60	44152
2026-01-15 09:01:09.52	357.20	25.41	-48.7	-51.2	6.1	0.00e+00	0	31	104	19822280704	60	44359
2026-01-15 09:01:10.53	357.02	25.20	-48.7	-51.2	6.1	0.00e+00	0	32	104	19822280704	60	44346
2026-01-15 09:01:11.54	356.85	24.99	-48.6	-51.1	6.1	0.00e+00	0	31	104	19822280704	60	44010
2026-01-15 09:01:12.55	356.68	24.78	-48.6	-51.1	6.1	0.00e+00	0	31	104	19822280704	60	44065
2026-01-15 09:01:13.56	356.51	24.57	-48.6	-51.1	6.1	0.00e+00	0	31	104	19822280704	60	43976
2026-01-15 09:01:14.57	356.34	24.37	-48.6	-51.1	6.1	0.00e+00	0	32	104	19822280704	60	44041
2026-01-15 09:01:15.58	356.18	24.17	-48.6	-51.1	6.1	0.00e+00	0	31	104	19822280704	60	43787
2026-01-15 09:01:16.59	356.02	23.96	-48.6	-51.1	6.1	0.00e+00	0	31	104	19822280704	60	43999
2026-01-15 09:01:17.60	355.86	23.76	-48.6	-51.1	6.1	0.00e+00	0	32	104	19822280704	60	43833
2026-01-15 09:01:18.61	355.70	23.57	-48.6	-51.1	6.1	0.00e+00	0	32	104	19822280704	60	43947
2026-01-15 09:01:19.62	355.54	23.37	-48.6	-51.2	6.1	0.00e+00	0	31	104	19822280704	60	44268
2026-01-15 09:01:20.63	355.39	23.17	-48.6	-51.1	6.1	0.00e+00	0	32	104	19822280704	60	44138
2026-01-15 09:01:21.63	355.24	22.98	-48.6	-51.1	6.1	0.00e+00	0	32	104	19822280704	60	44016
2026-01-15 09:01:22.64	355.09	22.79	-48.6	-51.2	6.1	0.00e+00	0	31	104	19822280704	60	44490
2026-01-15 09:01:23.66	354.95	22.60	-48.6	-51.1	6.1	0.00e+00	0	31	104	19822280704	60	44101
2026-01-15 09:01:24.67	354.80	22.41	-48.6	-51.1	6.1	0.00e+00	0	31	104	19822280704	60	43984
2026-01-15 09:01:25.67	354.66	22.22	-48.6	-51.1	6.1	0.00e+00	0	31	104	19822280704	60	43899
2026-01-15 09:01:26.68	354.52	22.04	-48.6	-51.1	6.1	0.00e+00	0	31	104	19822280704	60	44214
2026-01-15 09:01:27.69	354.38	21.85	-48.6	-51.1	6.1	0.00e+00	0	31	104	19822280704	60	44054
2026-01-15 09:01:28.71	354.25	21.67	-48.6	-51.2	6.1	0.00e+00	0	32	104	19822280704	60	44331
2026-01-15 09:01:29.71	354.11	21.49	-48.6	-51.2	6.1	0.00e+00	0	32	104	19822280704	60	44272
2026-01-15 09:01:30.72	353.98	21.31	-48.5	-51.1	6.1	0.00e+00	0	32	104	19822280704	60	44073
2026-01-15 09:01:31.73	353.85	21.13	-48.6	-51.1	6.1	0.00e+00	0	32	104	19822280704	60	44042
2026-01-15 09:01:32.74	353.72	20.95	-48.6	-51.1	6.1	0.00e+00	0	31	104	19822280704	60	43918
2026-01-15 09:01:33.75	353.59	20.78	-48.6	-51.1	6.1	0.00e+00	0	32	104	19822280704	60	44021
2026-01-15 09:01:34.76	353.47	20.60	-48.6	-51.2	6.1	0.00e+00	0	32	104	19822280704	60	44218
2026-01-15 09:01:35.77	353.34	20.43	-48.5	-51.1	6.1	0.00e+00	0	32	104	19822280704	60	43766
2026-01-15 09:01:36.77	353.22	20.26	-48.6	-51.1	6.1	0.00e+00	0	31	104	19822280704	60	44042
2026-01-15 09:01:37.79	353.10	20.09	-48.6	-51.1	6.1	0.00e+00	0	32	104	19822280704	60	43972
2026-01-15 09:01:38.80	352.98	19.92	-48.6	-51.1	6.1	0.00e+00	0	31	104	19822280704	60	44009
2026-01-15 09:01:39.80	352.86	19.75	-48.6	-51.1	6.1	0.00e+00	0	31	104	19822280704	60	43997
2026-01-15 09:01:40.81	352.75	19.59	-48.6	-51.1	6.1	0.00e+00	0	31	104	19822280704	60	44027
2026-01-15 09:01:41.82	352.63	19.42	-48.6	-51.1	6.1	0.00e+00	0	31	104	19822280704	60	43928
2026-01-15 09:01:42.83	352.52	19.26	-48.6	-51.1	6.1	0.00e+00	0	32	104	19822280704	60	43943
2026-01-15 09:01:43.84	352.41	19.09	-48.6	-51.1	6.1	0.00e+00	0	31	104	19822280704	60	43799
2026-01-15 09:01:44.85	352.29	18.93	-48.6	-51.1	6.1	0.00e+00	0	32	104	19822280704	60	43984
2026-01-15 09:01:45.86	352.19	18.77	-48.6	-51.1	6.1	0.00e+00	0	31	104	19822280704	60	44203
2026-01-15 09:01:46.87	352.08	18.61	-48.6	-51.1	6.1	0.00e+00	0	31	104	19822280704	60	43880
2026-01-15 09:01:47.88	351.97	18.46	-48.6	-51.0	6.1	0.00e+00	0	31	104	19822280704	60	43609
2026-01-15 09:01:48.89	351.87	18.30	-48.5	-51.1	6.1	0.00e+00	0	31	104	19822280704	60	43718
2026-01-15 09:01:49.90	351.76	18.14	-48.6	-51.1	6.1	0.00e+00	0	31	104	19822280704	60	43862
2026-01-15 09:01:50.91	351.66	17.99	-48.5	-51.1	6.1	0.00e+00	0	31	104	19822280704	60	43761
2026-01-15 09:01:51.91	351.56	17.84	-48.5	-51.0	6.1	0.00e+00	0	31	104	19822280704	60	43642
2026-01-15 09:01:52.92	351.46	17.69	-48.6	-51.1	6.1	0.00e+00	0	31	104	19822280704	60	43717
2026-01-15 09:01:53.93	351.36	17.53	-48.6	-51.1	6.1	0.00e+00	0	31	104	19822280704	60	43811
2026-01-15 09:01:54.94	351.26	17.38	-48.6	-51.1	6.1	0.00e+00	0	32	104	19822280704	60	43995
2026-01-15 09:01:55.95	351.16	17.24	-48.5	-51.0	6.1	0.00e+00	0	31	104	19822280704	60	43520
2026-01-15 09:01:56.96	351.07	17.09	-48.5	-51.0	6.1	0.00e+00	0	31	104	19822280704	60	43534
2026-01-15 09:01:57.97	350.97	16.94	-48.5	-51.0	6.1	0.00e+00	0	32	104	19822280704	60	43386
2026-01-15 09:01:58.98	350.88	16.80	-48.6	-51.1	6.1	0.00e+00	0	31	104	19822280704	60	44109
2026-01-15 09:01:59.98	350.79	16.65	-48.5	-51.0	6.1	0.00e+00	0	31	104	19822280704	60	43568
2026-01-15 09:02:00.99	350.70	16.51	-48.5	-50.9	6.1	0.00e+00	0	31	104	19822280704	60	43027
2026-01-15 09:02:02.00	350.61	16.37	-48.5	-51.0	6.1	0.00e+00	0	31	104	19822280704	60	43621
2026-01-15 09:02:03.01	350.52	16.23	-48.5	-51.0	6.1	0.00e+00	0	31	104	19822280704	60	43400
2026-01-15 09:02:04.02	350.43	16.08	-48.5	-51.0	6.1	0.00e+00	0	32	104	19822280704	60	43221
2026-01-15 09:02:05.03	350.34	15.95	-48.5	-51.0	6.1	0.00e+00	0	31	104	19822280704	60	43316
2026-01-15 09:02:06.03	350.26	15.81	-48.5	-51.0	6.1	0.00e+00	0	31	104	19822280704	60	43690
2026-01-15 09:02:07.04	350.17	15.67	-48.5	-51.0	6.1	0.00e+00	0	31	104	19822280704	60	43551
2026-01-15 09:02:08.05	350.09	15.53	-48.4	-50.9	6.1	0.00e+00	0	31	104	19822280704	60	43169
2026-01-15 09:02:09.06	350.01	15.40	-48.4	-50.9	6.1	0.00e+00	0	31	104	19822280704	60	43072
2026-01-15 09:02:10.07	349.92	15.26	-48.5	-51.0	6.1	0.00e+00	0	31	104	19822280704	60	43622
2026-01-15 09:02:11.08	349.84	15.13	-48.4	-51.0	6.1	0.00e+00	0	31	104	19822280704	60	43217
2026-01-15 09:02:12.09	349.76	15.00	-48.4	-50.9	6.1	0.00e+00	0	31	104	19822280704	60	43035
2026-01-15 09:02:13.09	349.68	14.86	-48.4	-50.9	6.1	0.00e+00	0	32	104	19822280704	60	42871
2026-01-15 09:02:14.10	349.60	14.73	-48.4	-50.8	6.1	0.00e+00	0	31	104	19822280704	60	42707
2026-01-15 09:02:15.11	349.53	14.60	-48.4	-50.9	6.1	0.00e+00	0	31	104	19822280704	60	42820
2026-01-15 09:02:16.12	349.45	14.47	-48.3	-50.8	6.1	0.00e+00	0	31	104	19822280704	60	42561
2026-01-15 09:02:17.13	349.37	14.34	-48.3	-50.9	6.1	0.00e+00	0	31	104	19822280704	60	42757
2026-01-15 09:02:18.14	349.30	14.22	-48.2	-50.8	6.1	0.00e+00	0	31	104	19822280704	60	42483
2026-01-15 09:02:19.15	349.22	14.09	-48.4	-50.9	6.1	0.00e+00	0	32	104	19822280704	60	43017
2026-01-15 09:02:20.16	349.15	13.96	-48.4	-50.9	6.1	0.00e+00	0	31	104	19822280704	60	42732
2026-01-15 09:02:21.16	349.08	13.84	-48.4	-50.9	6.1	0.00e+00	0	31	104	19822280704	60	42881
2026-01-15 09:02:22.17	349.00	13.71	-48.4	-50.9	6.1	0.00e+00	0	31	104	19822280704	60	42861
2026-01-15 09:02:23.18	348.93	13.59	-48.4	-50.9	6.1	0.00e+00	0	32	104	19822280704	60	43052
2026-01-15 09:02:24.19	348.86	13.47	-48.4	-50.9	6.1	0.00e+00	0	31	104	19822280704	60	42721
2026-01-15 09:02:25.20	348.79	13.34	-48.4	-50.9	6.1	0.00e+00	0	31	104	19822280704	60	42909
2026-01-15 09:02:26.21	348.72	13.22	-48.4	-50.9	6.1	0.00e+00	0	32	104	19822280704	60	42945
2026-01-15 09:02:27.22	348.65	13.10	-48.4	-50.9	6.1	0.00e+00	0	31	104	19822280704	60	42966
2026-01-15 09:02:28.23	348.59	12.98	-48.3	-50.9	6.1	0.00e+00	0	31	104	19822280704	60	42865
2026-01-15 09:02:29.24	348.52	12.86	-48.3	-50.8	6.1	0.00e+00	0	31	104	19822280704	60	42661
2026-01-15 09:02:30.25	348.45	12.74	-48.4	-50.9	6.1	0.00e+00	0	31	104	19822280704	60	42927
2026-01-15 09:02:31.26	348.39	12.63	-48.4	-50.8	6.1	0.00e+00	0	31	104	19822280704	60	42691
2026-01-15 09:02:32.26	348.32	12.51	-48.2	-50.7	6.1	0.00e+00	0	31	104	19822280704	60	42008
2026-01-15 09:02:33.27	348.26	12.39	-48.3	-50.8	6.1	0.00e+00	0	31	104	19822280704	60	42650
2026-01-15 09:02:34.28	348.19	12.28	-48.3	-50.8	6.1	0.00e+00	0	31	104	19822280704	60	42519
2026-01-15 09:02:35.29	348.13	12.16	-48.3	-50.8	6.1	0.00e+00	0	31	104	19822280704	60	42590
2026-01-15 09:02:36.30	348.07	12.05	-48.2	-50.8	6.1	0.00e+00	0	31	104	19822280704	60	42351
2026-01-15 09:02:37.31	348.00	11.93	-48.3	-50.8	6.1	0.00e+00	0	31	104	19822280704	60	42276
2026-01-15 09:02:38.32	347.94	11.82	-48.3	-50.8	6.1	0.00e+00	0	31	104	19822280704	60	42450
2026-01-15 09:02:39.32	347.88	11.71	-48.3	-50.8	6.1	0.00e+00	0	31	104	19822280704	60	42271
2026-01-15 09:02:40.33	347.82	11.60	-48.2	-50.7	6.1	0.00e+00	0	31	104	19822280704	60	42061
2026-01-15 09:02:41.34	347.76	11.49	-48.2	-50.7	6.1	0.00e+00	0	31	104	19822280704	60	42170
2026-01-15 09:02:42.35	347.70	11.37	-48.4	-50.9	6.1	0.00e+00	0	31	104	19822280704	60	42860
2026-01-15 09:02:43.36	347.65	11.26	-48.3	-50.8	6.1	0.00e+00	0	31	104	19822280704	60	42532
2026-01-15 09:02:44.37	347.59	11.16	-48.2	-50.7	6.1	0.00e+00	0	31	104	19822280704	60	42195
2026-01-15 09:02:45.37	347.53	11.05	-48.2	-50.7	6.1	0.00e+00	0	31	104	19822280704	60	42034
2026-01-15 09:02:46.38	347.47	10.94	-48.3	-50.8	6.1	0.00e+00	0	31	104	19822280704	60	42550
2026-01-15 09:02:47.39	347.42	10.83	-48.2	-50.7	6.1	0.00e+00	0	31	104	19822280704	60	41891
2026-01-15 09:02:48.40	347.36	10.72	-48.2	-50.7	6.1	0.00e+00	0	32	104	19822280704	60	41851
2026-01-15 09:02:49.41	347.31	10.62	-48.2	-50.7	6.1	0.00e+00	0	31	104	19822280704	60	41934
2026-01-15 09:02:50.42	347.25	10.51	-48.3	-50.8	6.1	0.00e+00	0	31	104	19822280704	60	42589
2026-01-15 09:02:51.43	347.20	10.41	-48.2	-50.7	6.1	0.00e+00	0	31	104	19822280704	60	42019
2026-01-15 09:02:52.43	347.14	10.30	-48.1	-50.7	6.1	0.00e+00	0	31	104	19822280704	60	41747
2026-01-15 09:02:53.44	347.09	10.20	-48.2	-50.7	6.1	0.00e+00	0	31	104	19822280704	60	42052
2026-01-15 09:02:54.45	347.04	10.10	-48.3	-50.7	6.1	0.00e+00	0	31	104	19822280704	60	42218
2026-01-15 09:02:55.46	346.99	9.99	-48.2	-50.7	6.1	0.00e+00	0	31	104	19822280704	60	41984
2026-01-15 09:02:56.47	346.93	9.89	-48.1	-50.7	6.1	0.00e+00	0	31	104	19822280704	60	41840
2026-01-15 09:02:57.48	346.88	9.79	-48.2	-50.7	6.1	0.00e+00	0	32	104	19822280704	60	42020
2026-01-15 09:02:58.49	346.83	9.69	-48.2	-50.8	6.1	0.00e+00	0	31	104	19822280704	60	42386
2026-01-15 09:02:59.50	346.78	9.59	-48.2	-50.7	6.1	0.00e+00	0	31	104	19822280704	60	42200
2026-01-15 09:03:00.51	346.73	9.49	-48.1	-50.6	6.1	0.00e+00	0	32	104	19822280704	60	41567
2026-01-15 09:03:01.52	346.68	9.39	-48.2	-50.6	6.0	0.00e+00	0	31	104	19822280704	60	41679
2026-01-15 09:03:02.52	346.63	9.29	-48.2	-50.7	6.1	0.00e+00	0	31	104	19822280704	60	42218
2026-01-15 09:03:03.53	346.59	9.19	-48.0	-50.5	6.1	0.00e+00	0	31	104	19822280704	60	41251
2026-01-15 09:03:04.54	346.54	9.09	-48.0	-50.5	6.0	0.00e+00	0	31	104	19822280704	60	41014
2026-01-15 09:03:05.55	346.49	8.99	-48.2	-50.7	6.1	0.00e+00	0	31	104	19822280704	60	42050
2026-01-15 09:03:06.56	346.44	8.90	-48.2	-50.7	6.1	0.00e+00	0	31	104	19822280704	60	42037
2026-01-15 09:03:07.57	346.40	8.80	-48.1	-50.6	6.1	0.00e+00	0	32	104	19822280704	60	41440
2026-01-15 09:03:08.58	346.35	8.70	-48.0	-50.5	6.1	0.00e+00	0	31	104	19822280704	60	41118
2026-01-15 09:03:09.59	346.30	8.61	-48.1	-50.6	6.1	0.00e+00	0	32	104	19822280704	60	41563
2026-01-15 09:03:10.60	346.26	8.51	-48.2	-50.7	6.1	0.00e+00	0	31	104	19822280704	60	41937
2026-01-15 09:03:11.61	346.21	8.42	-48.1	-50.6	6.1	0.00e+00	0	31	104	19822280704	60	41345
2026-01-15 09:03:12.62	346.17	8.32	-48.0	-50.5	6.1	0.00e+00	0	31	104	19822280704	60	41089
2026-01-15 09:03:13.62	346.12	8.23	-48.1	-50.6	6.1	0.00e+00	0	31	104	19822280704	60	41681
2026-01-15 09:03:14.63	346.08	8.13	-48.1	-50.6	6.1	0.00e+00	0	31	104	19822280704	60	41487
2026-01-15 09:03:15.64	346.04	8.04	-48.0	-50.5	6.1	0.00e+00	0	31	104	19822280704	60	41152
2026-01-15 09:03:16.65	345.99	7.95	-47.7	-50.3	6.0	0.00e+00	0	31	104	19822280704	60	39876
2026-01-15 09:03:17.66	345.95	7.86	-48.1	-50.5	6.1	0.00e+00	0	31	104	19822280704	60	41247
2026-01-15 09:03:18.67	345.91	7.76	-48.0	-50.5	6.1	0.00e+00	0	31	104	19822280704	60	41174
2026-01-15 09:03:19.68	345.86	7.67	-47.9	-50.4	6.1	0.00e+00	0	31	104	19822280704	60	40716
2026-01-15 09:03:20.68	345.82	7.58	-47.7	-50.3	6.1	0.00e+00	0	31	104	19822280704	60	39875
2026-01-15 09:03:21.69	345.78	7.49	-48.0	-50.5	6.1	0.00e+00	0	31	104	19822280704	60	41117
2026-01-15 09:03:22.70	345.74	7.40	-47.8	-50.4	6.1	0.00e+00	0	31	104	19822280704	60	40459
2026-01-15 09:03:23.71	345.70	7.31	-47.9	-50.3	6.1	0.00e+00	0	31	104	19822280704	60	40312
2026-01-15 09:03:24.72	345.66	7.22	-47.8	-50.3	6.1	0.00e+00	0	31	104	19822280704	60	40255
2026-01-15 09:03:25.73	345.62	7.13	-47.9	-50.5	6.1	0.00e+00	0	31	104	19822280704	60	40839
2026-01-15 09:03:26.74	345.58	7.04	-47.8	-50.4	6.1	0.00e+00	0	31	104	19822280704	60	40579
2026-01-15 09:03:27.75	345.54	6.96	-47.7	-50.2	6.1	0.00e+00	0	31	104	19822280704	60	39719
2026-01-15 09:03:28.76	345.50	6.87	-47.7	-50.2	6.1	0.00e+00	0	31	104	19822280704	60	39737
2026-01-15 09:03:29.77	345.46	6.78	-47.8	-50.3	6.1	0.00e+00	0	32	104	19822280704	60	40229
2026-01-15 09:03:30.77	345.42	6.69	-47.7	-50.2	6.1	0.00e+00	0	32	104	19822280704	60	39802
2026-01-15 09:03:31.78	345.39	6.61	-47.6	-50.2	6.1	0.00e+00	0	31	104	19822280704	60	39525
2026-01-15 09:03:32.79	345.35	6.52	-47.5	-50.1	6.1	0.00e+00	0	31	104	19822280704	60	38968
2026-01-15 09:03:33.79	345.31	6.44	-47.9	-50.4	6.1	0.00e+00	0	32	104	19822280704	60	40577
2026-01-15 09:03:34.80	345.27	6.35	-47.8	-50.4	6.1	0.00e+00	0	32	104	19822280704	60	40419
2026-01-15 09:03:35.81	345.24	6.27	-47.6	-50.1	6.1	0.00e+00	0	31	104	19822280704	60	39088
2026-01-15 09:03:36.82	345.20	6.18	-47.1	-49.7	6.1	0.00e+00	0	32	104	19822280704	60	37326
2026-01-15 09:03:37.83	345.16	6.10	-47.6	-50.2	6.1	0.00e+00	0	31	104	19822280704	60	39474
2026-01-15 09:03:38.84	345.13	6.01	-47.4	-49.9	6.1	0.00e+00	0	32	104	19822280704	60	38417
2026-01-15 09:03:39.85	345.09	5.93	-46.7	-49.2	6.1	0.00e+00	0	31	104	19822280704	60	35193
2026-01-15 09:03:40.86	345.06	5.84	-46.4	-48.8	6.1	0.00e+00	0	31	104	19822280704	60	33910
2026-01-15 09:03:41.87	345.02	5.76	-46.1	-48.6	6.1	0.00e+00	0	32	104	19822280704	60	32942
2026-01-15 09:03:42.88	344.99	5.68	-45.8	-48.3	6.1	0.00e+00	0	31	104	19822280704	60	31850
2026-01-15 09:03:43.89	344.95	5.60	-45.4	-48.0	6.0	0.00e+00	0	32	104	19822280704	60	30628
2026-01-15 09:03:44.90	344.92	5.51	-45.3	-47.8	6.1	0.00e+00	0	31	104	19822280704	60	30165
2026-01-15 09:03:45.91	344.88	5.43	-46.1	-48.7	6.1	0.00e+00	0	32	104	19822280704	60	33223
2026-01-15 09:03:46.92	344.85	5.35	-46.9	-49.4	6.1	0.00e+00	0	31	104	19822280704	60	36222
2026-01-15 09:03:47.93	344.82	5.27	-45.1	-47.6	6.1	0.00e+00	0	31	104	19822280704	60	29310
2026-01-15 09:03:48.93	344.78	5.19	-46.9	-49.4	6.1	0.00e+00	0	31	104	19822280704	60	36031
2026-01-15 09:03:49.94	344.75	5.11	-45.1	-47.6	6.1	0.00e+00	0	31	104	19822280704	60	29489
2026-01-15 09:03:50.95	344.72	5.03	-44.6	-47.1	6.0	0.00e+00	0	31	104	19822280704	60	27747
2026-01-15 09:03:51.96	344.68	4.95	-44.5	-47.1	6.1	0.00e+00	0	31	104	19822280704	60	27607
2026-01-15 09:03:52.97	344.65	4.87	-44.4	-46.9	6.1	0.00e+00	0	32	104	19822280704	60	27158
2026-01-15 09:03:53.98	344.62	4.79	-44.0	-46.5	6.1	0.00e+00	0	32	104	19822280704	60	25905
2026-01-15 09:03:54.99	344.59	4.71	-44.6	-47.1	6.1	0.00e+00	0	31	104	19822280704	60	27740
2026-01-15 09:03:56.00	344.56	4.63	-46.1	-48.6	6.1	0.00e+00	0	31	104	19822280704	60	33059
2026-01-15 09:03:57.01	344.53	4.55	-45.0	-47.5	6.1	0.00e+00	0	31	104	19822280704	60	28957
2026-01-15 09:03:58.01	344.49	4.48	-44.3	-46.8	6.0	0.00e+00	0	31	104	19822280704	60	26756
2026-01-15 09:03:59.02	344.46	4.40	-44.2	-46.7	6.1	0.00e+00	0	31	104	19822280704	60	26466
2026-01-15 09:04:00.03	344.43	4.32	-44.0	-46.6	6.1	0.00e+00	0	32	104	19822280704	60	26061
2026-01-15 09:04:01.04	344.40	4.24	-44.0	-46.5	6.1	0.00e+00	0	32	104	19822280704	60	25777
2026-01-15 09:04:02.05	344.37	4.17	-43.9	-46.5	6.1	0.00e+00	0	32	104	19822280704	60	25806
2026-01-15 09:04:03.06	344.34	4.09	-44.0	-46.4	6.1	0.00e+00	0	32	104	19822280704	60	25714
2026-01-15 09:04:04.07	344.31	4.01	-44.1	-46.6	6.1	0.00e+00	0	31	104	19822280704	60	26175
2026-01-15 09:04:05.07	344.28	3.94	-44.5	-47.0	6.1	0.00e+00	0	31	104	19822280704	60	27498
2026-01-15 09:04:06.08	344.26	3.86	-44.0	-46.5	6.1	0.00e+00	0	32	104	19822280704	60	26002
2026-01-15 09:04:07.09	344.23	3.79	-44.7	-47.2	6.1	0.00e+00	0	31	104	19822280704	60	28179
2026-01-15 09:04:08.10	344.20	3.71	-44.1	-46.6	6.1	0.00e+00	0	31	104	19822280704	60	26333
2026-01-15 09:04:09.11	344.17	3.64	-44.0	-46.5	6.1	0.00e+00	0	32	104	19822280704	60	25900
2026-01-15 09:04:10.12	344.14	3.56	-44.0	-46.5	6.1	0.00e+00	0	31	104	19822280704	60	25804
2026-01-15 09:04:11.13	344.11	3.49	-43.9	-46.5	6.1	0.00e+00	0	31	104	19822280704	60	25876
2026-01-15 09:04:12.14	344.08	3.41	-43.9	-46.4	6.1	0.00e+00	0	31	104	19822280704	60	25645
2026-01-15 09:04:13.14	344.06	3.34	-43.9	-46.4	6.1	0.00e+00	0	31	104	19822280704	60	25610
2026-01-15 09:04:14.15	344.03	3.27	-44.3	-46.8	6.1	0.00e+00	0	31	104	19822280704	60	26785
2026-01-15 09:04:15.16	344.00	3.19	-44.1	-46.6	6.1	0.00e+00	0	31	104	19822280704	60	26134
2026-01-15 09:04:16.17	343.97	3.12	-43.8	-46.3	6.1	0.00e+00	0	31	104	19822280704	60	25352
2026-01-15 09:04:17.18	343.95	3.05	-43.9	-46.5	6.1	0.00e+00	0	31	104	19822280704	60	25738
2026-01-15 09:04:18.19	343.92	2.97	-44.7	-47.3	6.1	0.00e+00	0	31	104	19822280704	60	28295
2026-01-15 09:04:19.20	343.89	2.90	-47.9	-50.4	6.1	0.00e+00	0	31	104	19822280704	60	40736
2026-01-15 09:04:20.20	343.87	2.83	-48.4	-50.9	6.1	0.00e+00	0	31	104	19822280704	60	42802
2026-01-15 09:04:21.21	343.84	2.76	-48.5	-51.0	6.1	0.00e+00	0	31	104	19822280704	60	43603
2026-01-15 09:04:22.21	343.82	2.69	-48.7	-51.2	6.1	0.00e+00	0	31	104	19822280704	60	44655
2026-01-15 09:04:23.22	343.79	2.61	-48.8	-51.3	6.0	0.00e+00	0	31	104	19822280704	60	44884
2026-01-15 09:04:24.23	343.76	2.54	-48.9	-51.3	6.1	0.00e+00	0	31	104	19822280704	60	45240
2026-01-15 09:04:25.24	343.74	2.47	-49.0	-51.5	6.1	0.00e+00	0	31	104	19822280704	60	45928
2026-01-15 09:04:26.25	343.71	2.40	-49.0	-51.4	6.1	0.00e+00	0	31	104	19822280704	60	45721
2026-01-15 09:04:27.26	343.69	2.33	-47.9	-50.6	6.1	0.00e+00	0	31	104	19822280704	60	41515
2026-01-15 09:04:28.27	343.66	2.26	-48.8	-51.4	6.1	0.00e+00	0	31	104	19822280704	60	45417
2026-01-15 09:04:29.28	343.64	2.19	-48.8	-51.2	6.1	0.00e+00	0	31	104	19822280704	60	44651
2026-01-15 09:04:30.29	343.61	2.12	-48.8	-51.2	6.1	0.00e+00	0	31	104	19822280704	60	44554
2026-01-15 09:04:31.30	343.59	2.05	-48.3	-50.9	6.1	0.00e+00	0	31	104	19822280704	60	42720
2026-01-15 09:04:32.31	343.57	1.98	-48.8	-51.3	6.1	0.00e+00	0	31	104	19822280704	60	44997
2026-01-15 09:04:33.32	343.54	1.91	-49.0	-51.5	6.1	0.00e+00	0	32	104	19822280704	60	45945
2026-01-15 09:04:34.33	343.52	1.84	-48.9	-51.4	6.0	0.00e+00	0	31	104	19822280704	60	45542
2026-01-15 09:04:35.34	343.49	1.77	-48.9	-51.4	6.1	0.00e+00	0	31	104	19822280704	60	45417
2026-01-15 09:04:36.34	343.47	1.71	-48.9	-51.4	6.1	0.00e+00	0	32	104	19822280704	60	45610
2026-01-15 09:04:37.35	343.45	1.64	-48.9	-51.4	6.1	0.00e+00	0	31	104	19822280704	60	45424
2026-01-15 09:04:38.36	343.42	1.57	-48.9	-51.4	6.1	0.00e+00	0	31	104	19822280704	60	45522
2026-01-15 09:04:39.37	343.40	1.50	-48.9	-51.4	6.1	0.00e+00	0	32	104	19822280704	60	45278
2026-01-15 09:04:40.39	343.38	1.43	-48.9	-51.4	6.1	0.00e+00	0	32	104	19822280704	60	45433
2026-01-15 09:04:41.40	343.36	1.36	-48.9	-51.4	6.1	0.00e+00	0	31	104	19822280704	60	45373
2026-01-15 09:04:42.41	343.33	1.30	-48.9	-51.4	6.1	0.00e+00	0	31	104	19822280704	60	45424
2026-01-15 09:04:43.42	343.31	1.23	-48.9	-51.4	6.1	0.00e+00	0	32	104	19822280704	60	45397
2026-01-15 09:04:44.43	343.29	1.16	-48.9	-51.3	6.1	0.00e+00	0	32	104	19822280704	60	45237
2026-01-15 09:04:45.44	343.27	1.10	-48.9	-51.4	6.1	0.00e+00	0	31	104	19822280704	60	45299
2026-01-15 09:04:46.45	343.24	1.03	-48.9	-51.4	6.1	0.00e+00	0	32	104	19822280704	60	45273
2026-01-15 09:04:47.45	343.22	0.96	-48.8	-51.3	6.1	0.00e+00	0	31	104	19822280704	60	45215
2026-01-15 09:04:48.46	343.20	0.90	-48.9	-51.4	6.1	0.00e+00	0	32	104	19822280704	60	45383
2026-01-15 09:04:49.47	343.18	0.83	-48.8	-51.3	6.1	0.00e+00	0	31	104	19822280704	60	45133
2026-01-15 09:04:50.48	343.16	0.76	-48.8	-51.3	6.1	0.00e+00	0	31	104	19822280704	60	44986
2026-01-15 09:04:51.49	343.14	0.70	-48.8	-51.3	6.1	0.00e+00	0	32	104	19822280704	60	45093
2026-01-15 09:04:52.49	343.12	0.63	-48.8	-51.3	6.1	0.00e+00	0	31	104	19822280704	60	44888
2026-01-15 09:04:53.50	343.10	0.57	-48.8	-51.3	6.1	0.00e+00	0	31	104	19822280704	60	45113
2026-01-15 09:04:54.51	343.07	0.50	-48.8	-51.4	6.1	0.00e+00	0	31	104	19822280704	60	45274
2026-01-15 09:04:55.52	343.05	0.44	-48.8	-51.3	6.1	0.00e+00	0	32	104	19822280704	60	45146
2026-01-15 09:04:56.53	343.03	0.37	-48.8	-51.3	6.1	0.00e+00	0	31	104	19822280704	60	45049
2026-01-15 09:04:57.54	343.01	0.31	-48.8	-51.3	6.1	0.00e+00	0	32	104	19822280704	60	44885
2026-01-15 09:04:58.55	342.99	0.24	-48.8	-51.3	6.1	0.00e+00	0	32	104	19822280704	60	45117
2026-01-15 09:04:59.56	342.97	0.18	-48.8	-51.3	6.1	0.00e+00	0	32	104	19822280704	60	45224
2026-01-15 09:05:00.57	342.95	0.12	-48.8	-51.3	6.1	0.00e+00	0	32	104	19822280704	60	45097
2026-01-15 09:05:01.57	342.93	0.05	-48.8	-51.3	6.1	0.00e+00	0	32	104	19822280704	60	44930

#Closed at: 2026-01-15 09:05:02
#Recorded file [19822 MB]: D:/lorett/data/35029_260115_205401.dat