passes_logs/2026/01/15/R4.6S_Anadyr/R4.6S_Anadyr__20260115_223048_NOAA_21_JPSS-2_rec.log

#Pass ID: 20260115_223048_NOAA 21 (JPSS-2)
#Satellite: NOAA 21 (JPSS-2)
#Configuration: NOAA-21
#almurnet v.1.7.20251203
#Start time: 2026-01-15 22:30:49

#Version: 2.2.20231116
#Station: R4.6S_Anadyr
#Location: 177.4865 lon 64.73178 lat
#TLE: 1 54234U 22150A   26014.58979933  .00000039  00000+0  39403-4 0  9998
#TLE: 2 54234  98.7497 315.4945 0000653 294.6373  65.4735 14.19534652164756

#Time	Az	El	Level	Level2	SNR	BER	BlckErr	Temp	State	Recorded	gain1	gain2
2026-01-15 22:30:49.21	114.96	0.06	-48.6	-66.4	3.5	7.72e-01	0	24	0	0	60	80120
2026-01-15 22:30:50.21	114.92	0.12	-48.3	-61.2	3.5	1.52e+00	0	26	104	0	60	40180
2026-01-15 22:30:51.22	114.88	0.18	-48.4	-61.3	3.5	1.51e+00	0	26	104	0	60	40932
2026-01-15 22:30:52.23	114.84	0.23	-48.4	-61.3	3.5	1.52e+00	0	26	104	0	60	40962
2026-01-15 22:30:53.24	114.79	0.29	-48.5	-61.3	3.5	1.52e+00	0	26	104	0	60	40941
2026-01-15 22:30:54.25	114.75	0.35	-48.5	-61.4	3.5	1.52e+00	0	26	104	0	60	41009
2026-01-15 22:30:55.26	114.71	0.41	-48.3	-61.3	3.5	1.52e+00	0	26	104	0	60	40597
2026-01-15 22:30:56.27	114.67	0.47	-48.3	-61.2	3.5	1.52e+00	0	26	104	0	60	40373
2026-01-15 22:30:57.28	114.63	0.53	-48.2	-61.1	3.5	1.52e+00	0	26	104	0	60	40061
2026-01-15 22:30:58.29	114.58	0.58	-48.2	-61.1	3.5	1.51e+00	0	26	104	0	60	39907
2026-01-15 22:30:59.29	114.54	0.64	-48.2	-61.1	3.5	1.52e+00	0	26	104	0	60	39866
2026-01-15 22:31:00.29	114.50	0.70	-48.1	-61.0	3.5	1.52e+00	0	26	104	0	60	39545
2026-01-15 22:31:01.29	114.46	0.76	-47.9	-61.1	3.5	1.52e+00	0	26	104	0	60	39613
2026-01-15 22:31:02.30	114.41	0.82	-45.8	-60.9	3.5	1.51e+00	0	26	104	0	60	38803
2026-01-15 22:31:03.31	114.37	0.88	-47.6	-60.7	3.5	1.52e+00	0	26	104	0	60	38127
2026-01-15 22:31:04.32	114.33	0.93	-45.6	-60.5	3.5	1.52e+00	0	26	104	0	60	37019
2026-01-15 22:31:05.33	114.28	0.99	-46.3	-60.2	3.5	1.51e+00	0	26	104	0	60	36054
2026-01-15 22:31:06.34	114.24	1.05	-43.1	-59.3	3.5	1.51e+00	0	26	104	0	60	32269
2026-01-15 22:31:07.34	114.20	1.11	-44.6	-59.1	3.5	1.52e+00	0	26	104	0	60	31561
2026-01-15 22:31:08.35	114.15	1.17	-44.5	-59.0	3.5	1.52e+00	0	26	104	0	60	31245
2026-01-15 22:31:09.36	114.11	1.23	-44.5	-59.1	3.5	1.52e+00	0	26	104	0	60	31600
2026-01-15 22:31:10.37	114.06	1.29	-44.5	-59.1	3.5	1.52e+00	0	26	104	0	60	31518
2026-01-15 22:31:11.38	114.02	1.35	-44.5	-59.1	3.5	1.52e+00	0	26	104	0	60	31501
2026-01-15 22:31:12.39	113.97	1.41	-44.6	-59.1	3.5	1.51e+00	0	26	104	0	60	31635
2026-01-15 22:31:13.40	113.93	1.47	-44.5	-59.1	3.5	1.51e+00	0	26	104	0	60	31680
2026-01-15 22:31:14.41	113.88	1.53	-44.5	-59.1	3.5	1.52e+00	0	26	104	0	60	31574
2026-01-15 22:31:15.42	113.84	1.59	-44.5	-59.1	3.5	1.52e+00	0	26	104	0	60	31570
2026-01-15 22:31:16.43	113.79	1.65	-44.4	-59.1	3.5	1.52e+00	0	26	104	0	60	31577
2026-01-15 22:31:17.44	113.74	1.71	-44.5	-59.0	3.5	1.51e+00	0	26	104	0	60	31461
2026-01-15 22:31:18.45	113.70	1.77	-44.5	-59.0	3.5	1.52e+00	0	26	104	0	60	31375
2026-01-15 22:31:19.46	113.65	1.83	-44.5	-59.0	3.5	1.52e+00	0	26	104	0	60	31389
2026-01-15 22:31:20.47	113.61	1.89	-44.5	-59.1	3.5	1.52e+00	0	26	104	0	60	31488
2026-01-15 22:31:21.48	113.56	1.95	-44.5	-59.0	3.5	1.51e+00	0	26	104	0	60	31230
2026-01-15 22:31:22.49	113.51	2.01	-44.5	-59.0	3.5	1.52e+00	0	26	104	0	60	31111
2026-01-15 22:31:23.50	113.46	2.08	-44.5	-58.9	3.5	1.52e+00	0	27	104	0	60	30863
2026-01-15 22:31:24.51	113.42	2.14	-44.5	-58.8	3.5	1.52e+00	0	27	104	0	60	30513
2026-01-15 22:31:25.51	113.37	2.20	-44.5	-58.8	3.5	1.52e+00	0	26	104	0	60	30587
2026-01-15 22:31:26.52	113.32	2.26	-44.5	-58.8	3.5	1.52e+00	0	26	104	0	60	30668
2026-01-15 22:31:27.54	113.27	2.32	-44.5	-58.9	3.5	1.52e+00	0	26	104	0	60	30939
2026-01-15 22:31:28.54	113.23	2.38	-44.5	-59.0	3.5	1.52e+00	0	27	104	0	60	31311
2026-01-15 22:31:29.55	113.18	2.44	-44.6	-59.0	3.5	1.52e+00	0	27	104	0	60	31196
2026-01-15 22:31:30.56	113.13	2.51	-44.6	-59.0	3.5	1.52e+00	0	27	104	0	60	31283
2026-01-15 22:31:31.57	113.08	2.57	-44.6	-59.0	3.5	1.52e+00	0	27	104	0	60	31109
2026-01-15 22:31:32.58	113.03	2.63	-44.6	-59.0	3.5	1.52e+00	0	27	104	0	60	31183
2026-01-15 22:31:33.59	112.98	2.69	-44.5	-58.8	3.5	1.52e+00	0	27	104	0	60	30621
2026-01-15 22:31:34.60	112.93	2.75	-44.4	-58.7	3.5	1.52e+00	0	27	104	0	60	30107
2026-01-15 22:31:35.61	112.88	2.82	-44.5	-58.6	3.5	1.52e+00	0	27	104	0	60	29806
2026-01-15 22:31:36.62	112.83	2.88	-44.5	-58.3	3.5	1.52e+00	0	27	104	0	60	28834
2026-01-15 22:31:37.63	112.78	2.94	-44.5	-58.4	3.5	1.52e+00	0	27	104	0	60	29152
2026-01-15 22:31:38.64	112.73	3.00	-44.5	-58.5	3.5	1.52e+00	0	27	104	0	60	29417
2026-01-15 22:31:39.65	112.68	3.07	-44.5	-58.4	3.5	1.52e+00	0	27	104	0	60	29039
2026-01-15 22:31:40.66	112.63	3.13	-44.4	-56.8	3.6	1.51e+00	0	27	104	0	60	24203
2026-01-15 22:31:41.67	112.58	3.19	-44.0	-53.3	5.5	1.17e+00	123	27	104	0	60	16138
2026-01-15 22:31:42.68	112.53	3.26	-43.6	-50.1	7.7	1.63e-01	123	27	0	1048576	60	11166
2026-01-15 22:31:43.68	112.48	3.32	-42.5	-47.0	11.1	4.83e-03	122	27	0	4194304	58	8770
2026-01-15 22:31:44.69	112.42	3.38	-41.6	-45.0	13.4	3.50e-05	120	27	0	7340032	56	7814
2026-01-15 22:31:45.70	112.37	3.45	-40.5	-43.2	15.1	0.00e+00	122	27	0	10485760	54	7128
2026-01-15 22:31:46.71	112.32	3.51	-39.1	-41.2	17.0	0.00e+00	120	27	0	13631488	52	6365
2026-01-15 22:31:47.72	112.27	3.57	-42.5	-48.7	6.7	3.96e-04	122	27	0	16777216	56	11970
2026-01-15 22:31:48.73	112.21	3.64	-41.7	-47.8	11.3	1.66e-02	120	27	104	16777216	58	9683
2026-01-15 22:31:49.74	112.16	3.70	-42.3	-45.5	9.5	1.91e-04	123	27	0	18874368	52	10468
2026-01-15 22:31:50.75	112.11	3.77	-43.9	-53.7	4.2	6.32e-01	122	27	104	19922944	58	19157
2026-01-15 22:31:51.76	112.05	3.83	-40.3	-42.7	14.5	6.39e-04	123	27	104	19922944	54	6746
2026-01-15 22:31:52.77	112.00	3.90	-40.5	-42.6	15.9	0.00e+00	123	27	0	22020096	56	5927
2026-01-15 22:31:53.77	111.95	3.96	-39.8	-41.8	16.2	0.00e+00	120	27	0	25165824	54	6115
2026-01-15 22:31:54.78	111.89	4.02	-39.9	-42.0	16.5	0.00e+00	122	27	0	28311552	52	6979
2026-01-15 22:31:55.80	111.84	4.09	-39.8	-41.9	16.4	0.00e+00	123	27	0	31457280	52	6918
2026-01-15 22:31:56.80	111.78	4.15	-38.5	-40.1	18.2	0.00e+00	123	27	0	34603008	50	6313
2026-01-15 22:31:57.81	111.73	4.22	-38.3	-39.9	18.4	0.00e+00	122	27	0	37748736	50	6178
2026-01-15 22:31:58.82	111.67	4.28	-37.5	-38.8	19.5	0.00e+00	122	27	0	40894464	48	6121
2026-01-15 22:31:59.83	111.62	4.35	-37.6	-39.0	19.4	0.00e+00	123	27	0	44040192	48	6221
2026-01-15 22:32:00.84	111.56	4.42	-37.4	-38.7	19.7	0.00e+00	120	27	0	47185920	48	6041
2026-01-15 22:32:01.85	111.51	4.48	-37.6	-38.9	19.4	0.00e+00	120	27	0	50331648	48	6200
2026-01-15 22:32:02.86	111.45	4.55	-37.5	-38.8	19.6	0.00e+00	123	27	0	53477376	48	6092
2026-01-15 22:32:03.87	111.39	4.61	-37.5	-38.8	19.6	0.00e+00	122	27	0	56623104	48	6076
2026-01-15 22:32:04.88	111.34	4.68	-37.3	-38.6	19.8	0.00e+00	123	27	0	59768832	48	5966
2026-01-15 22:32:05.89	111.28	4.75	-37.4	-38.7	19.7	0.00e+00	122	27	0	62914560	48	6015
2026-01-15 22:32:06.90	111.22	4.81	-37.5	-38.9	19.6	0.00e+00	122	27	0	66060288	48	6170
2026-01-15 22:32:07.91	111.16	4.88	-36.9	-38.2	20.3	0.00e+00	120	27	0	69206016	48	5704
2026-01-15 22:32:08.92	111.11	4.95	-36.9	-38.1	20.4	0.00e+00	123	27	0	72351744	48	5646
2026-01-15 22:32:09.92	111.05	5.01	-37.1	-38.3	20.1	0.00e+00	120	27	0	75497472	46	6494
2026-01-15 22:32:10.94	110.99	5.08	-37.0	-38.2	20.3	0.00e+00	122	27	0	78643200	46	6395
2026-01-15 22:32:11.95	110.93	5.15	-36.9	-38.2	20.4	0.00e+00	122	27	0	81788928	46	6373
2026-01-15 22:32:12.95	110.87	5.21	-36.9	-38.2	20.2	0.00e+00	120	27	0	84934656	46	6397
2026-01-15 22:32:13.96	110.81	5.28	-36.8	-38.2	20.4	0.00e+00	123	27	0	88080384	46	6369
2026-01-15 22:32:14.97	110.75	5.35	-36.8	-38.1	20.5	0.00e+00	123	27	0	91226112	46	6287
2026-01-15 22:32:15.98	110.69	5.41	-36.7	-38.0	20.5	0.00e+00	123	27	0	94371840	46	6236
2026-01-15 22:32:17.00	110.63	5.48	-36.6	-37.9	20.6	0.00e+00	123	27	0	97517568	46	6175
2026-01-15 22:32:18.00	110.57	5.55	-36.6	-37.9	20.6	0.00e+00	122	27	0	100663296	46	6171
2026-01-15 22:32:19.01	110.51	5.62	-36.5	-37.7	20.7	0.00e+00	122	27	0	103809024	46	6063
2026-01-15 22:32:20.02	110.45	5.69	-36.4	-37.7	20.8	0.00e+00	122	27	0	106954752	46	6002
2026-01-15 22:32:21.03	110.39	5.76	-36.4	-37.7	20.8	0.00e+00	122	27	0	110100480	46	6049
2026-01-15 22:32:22.04	110.33	5.82	-36.4	-37.7	20.9	0.00e+00	123	27	0	113246208	46	6039
2026-01-15 22:32:23.05	110.26	5.89	-36.3	-37.6	21.0	0.00e+00	123	27	0	116391936	46	5932
2026-01-15 22:32:24.06	110.20	5.96	-36.4	-37.7	20.9	0.00e+00	123	27	0	119537664	46	6030
2026-01-15 22:32:25.07	110.14	6.03	-36.2	-37.4	21.2	0.00e+00	120	27	0	122683392	46	5825
2026-01-15 22:32:26.08	110.08	6.10	-36.3	-37.5	21.1	0.00e+00	122	27	0	126877696	46	5921
2026-01-15 22:32:27.09	110.01	6.17	-36.2	-37.4	21.2	0.00e+00	123	27	0	128974848	46	5833
2026-01-15 22:32:28.10	109.95	6.24	-36.0	-37.3	21.3	0.00e+00	123	27	0	132120576	46	5727
2026-01-15 22:32:29.11	109.89	6.31	-36.2	-37.4	21.1	0.00e+00	122	27	0	135266304	46	5849
2026-01-15 22:32:30.12	109.82	6.38	-36.3	-37.5	21.1	0.00e+00	123	27	0	138412032	46	5912
2026-01-15 22:32:31.12	109.76	6.45	-36.4	-37.6	21.0	0.00e+00	122	27	0	142606336	46	5968
2026-01-15 22:32:32.13	109.69	6.52	-36.5	-37.7	20.9	0.00e+00	123	27	0	145752064	46	6055
2026-01-15 22:32:33.14	109.63	6.59	-36.1	-37.2	21.4	0.00e+00	123	27	0	148897792	46	5723
2026-01-15 22:32:34.15	109.56	6.66	-36.0	-37.2	21.4	0.00e+00	123	27	0	152043520	46	5667
2026-01-15 22:32:35.16	109.50	6.73	-35.9	-37.1	21.5	0.00e+00	122	27	0	154140672	46	5628
2026-01-15 22:32:36.17	109.43	6.80	-36.1	-37.2	21.4	0.00e+00	120	27	0	158334976	46	5717
2026-01-15 22:32:37.18	109.36	6.87	-36.1	-37.3	21.3	0.00e+00	122	27	0	161480704	46	5763
2026-01-15 22:32:38.19	109.30	6.94	-36.1	-37.2	21.3	0.00e+00	122	27	0	164626432	46	5718
2026-01-15 22:32:39.20	109.23	7.01	-36.4	-37.5	21.3	0.00e+00	122	27	0	167772160	46	5900
2026-01-15 22:32:40.21	109.16	7.08	-36.2	-37.3	21.4	0.00e+00	123	27	0	170917888	46	5740
2026-01-15 22:32:41.22	109.09	7.15	-35.9	-37.0	21.7	0.00e+00	123	27	0	174063616	46	5567
2026-01-15 22:32:42.23	109.03	7.22	-36.0	-37.1	21.6	0.00e+00	122	27	0	177209344	46	5646
2026-01-15 22:32:43.24	108.96	7.30	-35.9	-37.0	21.7	0.00e+00	122	27	0	180355072	46	5531
2026-01-15 22:32:44.25	108.89	7.37	-35.9	-37.0	21.7	0.00e+00	123	27	0	183500800	46	5580
2026-01-15 22:32:45.26	108.82	7.44	-35.9	-36.9	21.8	0.00e+00	123	27	0	186646528	46	5520
2026-01-15 22:32:46.27	108.75	7.51	-35.7	-36.8	21.8	0.00e+00	123	27	0	189792256	44	6098
2026-01-15 22:32:47.28	108.68	7.59	-35.7	-36.8	21.9	0.00e+00	123	27	0	192937984	44	6073
2026-01-15 22:32:48.28	108.61	7.66	-35.8	-36.9	21.8	0.00e+00	123	27	0	196083712	44	6169
2026-01-15 22:32:49.29	108.54	7.73	-35.5	-36.6	22.1	0.00e+00	123	27	0	199229440	44	5934
2026-01-15 22:32:50.30	108.47	7.80	-35.7	-36.8	22.0	0.00e+00	122	27	0	202375168	44	6066
2026-01-15 22:32:51.31	108.40	7.88	-35.5	-36.6	22.1	0.00e+00	120	27	0	205520896	44	5927
2026-01-15 22:32:52.32	108.32	7.95	-35.5	-36.5	22.1	0.00e+00	123	27	0	208666624	44	5917
2026-01-15 22:32:53.33	108.25	8.02	-35.3	-36.3	22.2	0.00e+00	123	27	0	211812352	44	5773
2026-01-15 22:32:54.34	108.18	8.10	-35.3	-36.4	22.2	0.00e+00	123	27	0	214958080	44	5796
2026-01-15 22:32:55.35	108.11	8.17	-35.2	-36.4	22.2	0.00e+00	121	27	0	218103808	44	5795
2026-01-15 22:32:56.36	108.03	8.24	-35.2	-36.3	22.3	0.00e+00	120	27	0	221249536	44	5754
2026-01-15 22:32:57.37	107.96	8.32	-35.3	-36.4	22.3	0.00e+00	122	27	0	224395264	44	5801
2026-01-15 22:32:58.38	107.88	8.39	-35.3	-36.4	22.2	0.00e+00	121	27	0	227540992	44	5798
2026-01-15 22:32:59.39	107.81	8.47	-35.1	-36.1	22.4	0.00e+00	123	27	0	230686720	44	5647
2026-01-15 22:33:00.40	107.73	8.54	-35.1	-36.1	22.5	0.00e+00	123	27	0	233832448	44	5620
2026-01-15 22:33:01.41	107.66	8.62	-35.0	-36.1	22.4	0.00e+00	123	27	0	236978176	44	5605
2026-01-15 22:33:02.41	107.58	8.69	-35.0	-36.1	22.4	0.00e+00	122	27	0	240123904	44	5651
2026-01-15 22:33:03.42	107.51	8.76	-35.1	-36.2	22.3	0.00e+00	120	27	0	243269632	44	5673
2026-01-15 22:33:04.43	107.43	8.84	-34.9	-36.0	22.5	0.00e+00	122	27	0	246415360	44	5580
2026-01-15 22:33:05.44	107.35	8.92	-34.8	-35.9	22.5	0.00e+00	122	27	0	249561088	44	5509
2026-01-15 22:33:06.45	107.28	8.99	-34.8	-35.9	22.6	0.00e+00	122	27	0	252706816	44	5485
2026-01-15 22:33:07.46	107.20	9.07	-34.8	-35.9	22.6	0.00e+00	122	27	0	255852544	44	5504
2026-01-15 22:33:08.46	107.12	9.14	-34.9	-35.9	22.6	0.00e+00	121	27	0	258998272	44	5523
2026-01-15 22:33:09.47	107.04	9.22	-35.0	-36.0	22.6	0.00e+00	122	27	0	262144000	44	5558
2026-01-15 22:33:10.48	106.96	9.29	-35.0	-36.0	22.6	0.00e+00	123	27	0	265289728	44	5565
2026-01-15 22:33:11.49	106.88	9.37	-35.0	-36.0	22.6	0.00e+00	121	27	0	268435456	44	5581
2026-01-15 22:33:12.50	106.80	9.45	-35.0	-36.0	22.6	0.00e+00	123	27	0	271581184	44	5564
2026-01-15 22:33:13.51	106.72	9.52	-35.1	-36.1	22.6	0.00e+00	122	27	0	274726912	44	5611
2026-01-15 22:33:14.52	106.64	9.60	-35.0	-36.1	22.6	0.00e+00	123	27	0	277872640	44	5597
2026-01-15 22:33:15.53	106.56	9.68	-34.8	-35.8	22.9	0.00e+00	123	27	0	281018368	42	6089
2026-01-15 22:33:16.54	106.48	9.76	-34.9	-35.9	22.7	0.00e+00	121	27	0	284164096	42	6153
2026-01-15 22:33:17.54	106.40	9.83	-34.9	-35.9	22.7	0.00e+00	124	27	0	287309824	42	6173
2026-01-15 22:33:18.55	106.32	9.91	-34.9	-35.9	22.7	0.00e+00	123	27	0	290455552	42	6155
2026-01-15 22:33:19.56	106.23	9.99	-34.7	-35.7	22.9	0.00e+00	123	27	0	293601280	42	6024
2026-01-15 22:33:20.57	106.15	10.07	-34.8	-35.8	22.8	0.00e+00	122	27	0	296747008	42	6117
2026-01-15 22:33:21.58	106.07	10.15	-34.7	-35.7	22.9	0.00e+00	121	27	0	299892736	42	6019
2026-01-15 22:33:22.59	105.98	10.22	-34.6	-35.6	23.0	0.00e+00	123	27	0	303038464	42	5970
2026-01-15 22:33:23.60	105.90	10.30	-34.8	-35.7	22.9	0.00e+00	123	27	0	306184192	42	6062
2026-01-15 22:33:24.61	105.81	10.38	-34.7	-35.6	23.0	0.00e+00	122	27	0	309329920	42	5994
2026-01-15 22:33:25.62	105.72	10.46	-34.6	-35.6	23.0	0.00e+00	123	27	0	312475648	42	5966
2026-01-15 22:33:26.63	105.64	10.54	-34.6	-35.6	23.0	0.00e+00	122	27	0	315621376	42	5958
2026-01-15 22:33:27.64	105.55	10.62	-34.6	-35.5	23.1	0.00e+00	122	27	0	318767104	42	5920
2026-01-15 22:33:28.65	105.46	10.70	-34.6	-35.6	23.1	0.00e+00	123	27	0	321912832	42	5935
2026-01-15 22:33:29.66	105.38	10.78	-34.6	-35.5	23.2	0.00e+00	123	27	0	325058560	42	5923
2026-01-15 22:33:30.67	105.29	10.86	-34.6	-35.6	23.1	0.00e+00	120	27	0	328204288	42	5941
2026-01-15 22:33:31.68	105.20	10.94	-34.4	-35.5	23.2	0.00e+00	122	27	0	331350016	42	5883
2026-01-15 22:33:32.69	105.11	11.02	-34.3	-35.4	23.2	0.00e+00	120	27	0	334495744	42	5852
2026-01-15 22:33:33.70	105.02	11.10	-34.3	-35.4	23.2	0.00e+00	122	27	0	337641472	42	5854
2026-01-15 22:33:34.71	104.93	11.18	-34.2	-35.4	23.2	0.00e+00	120	27	0	340787200	42	5850
2026-01-15 22:33:35.72	104.84	11.26	-34.2	-35.4	23.3	0.00e+00	123	27	0	343932928	42	5809
2026-01-15 22:33:36.73	104.75	11.34	-34.2	-35.5	23.2	0.00e+00	123	27	0	347078656	42	5863
2026-01-15 22:33:37.73	104.66	11.42	-34.1	-35.3	23.4	0.00e+00	122	27	0	350224384	42	5756
2026-01-15 22:33:38.74	104.56	11.51	-34.2	-35.3	23.3	0.00e+00	123	27	0	353370112	42	5773
2026-01-15 22:33:39.75	104.47	11.59	-34.1	-35.2	23.3	0.00e+00	120	27	0	356515840	42	5697
2026-01-15 22:33:40.76	104.38	11.67	-34.1	-35.2	23.4	0.00e+00	123	27	0	359661568	42	5706
2026-01-15 22:33:41.76	104.28	11.75	-34.2	-35.2	23.4	0.00e+00	122	27	0	362807296	42	5722
2026-01-15 22:33:42.77	104.19	11.83	-34.1	-35.1	23.5	0.00e+00	120	27	0	365953024	42	5624
2026-01-15 22:33:43.78	104.09	11.92	-34.2	-35.2	23.5	0.00e+00	122	27	0	369098752	42	5699
2026-01-15 22:33:44.79	104.00	12.00	-34.2	-35.1	23.5	0.00e+00	120	27	0	372244480	42	5653
2026-01-15 22:33:45.80	103.90	12.08	-34.2	-35.2	23.4	0.00e+00	120	27	0	375390208	42	5663
2026-01-15 22:33:46.81	103.81	12.16	-34.2	-35.1	23.5	0.00e+00	123	27	0	378535936	42	5639
2026-01-15 22:33:47.82	103.71	12.25	-34.3	-35.3	23.5	0.00e+00	123	27	0	381681664	42	5744
2026-01-15 22:33:48.83	103.61	12.33	-34.2	-35.2	23.4	0.00e+00	123	27	0	384827392	42	5702
2026-01-15 22:33:49.84	103.51	12.41	-34.2	-35.2	23.5	0.00e+00	123	27	0	387973120	42	5682
2026-01-15 22:33:50.85	103.41	12.50	-34.1	-35.2	23.4	0.00e+00	122	27	0	391118848	42	5684
2026-01-15 22:33:51.86	103.31	12.58	-34.2	-35.2	23.4	0.00e+00	123	27	0	394264576	42	5705
2026-01-15 22:33:52.87	103.21	12.67	-33.9	-35.0	23.6	0.00e+00	120	27	0	397410304	42	5573
2026-01-15 22:33:53.88	103.11	12.75	-34.0	-35.1	23.5	0.00e+00	123	27	0	400556032	42	5613
2026-01-15 22:33:54.89	103.01	12.84	-33.9	-35.0	23.6	0.00e+00	124	27	0	403701760	42	5538
2026-01-15 22:33:55.90	102.91	12.92	-34.1	-35.1	23.5	0.00e+00	123	27	0	406847488	42	5646
2026-01-15 22:33:56.91	102.81	13.01	-34.1	-35.0	23.6	0.00e+00	120	27	0	409993216	42	5576
2026-01-15 22:33:57.91	102.70	13.09	-34.3	-35.2	23.4	0.00e+00	123	27	0	413138944	42	5685
2026-01-15 22:33:58.92	102.60	13.18	-34.0	-35.0	23.6	0.00e+00	123	27	0	416284672	42	5537
2026-01-15 22:33:59.93	102.50	13.26	-34.2	-35.1	23.5	0.00e+00	123	27	0	419430400	42	5623
2026-01-15 22:34:00.94	102.39	13.35	-34.1	-35.0	23.5	0.00e+00	123	27	0	422576128	42	5587
2026-01-15 22:34:01.95	102.29	13.44	-34.1	-35.0	23.5	0.00e+00	122	27	0	425721856	42	5586
2026-01-15 22:34:02.95	102.18	13.52	-34.1	-35.1	23.4	0.00e+00	123	27	0	428867584	42	5622
2026-01-15 22:34:03.96	102.07	13.61	-34.0	-35.0	23.6	0.00e+00	123	27	0	432013312	42	5555
2026-01-15 22:34:04.97	101.97	13.69	-34.1	-35.0	23.5	0.00e+00	123	27	0	435159040	42	5571
2026-01-15 22:34:05.98	101.86	13.78	-34.0	-34.9	23.5	0.00e+00	122	27	0	438304768	42	5525
2026-01-15 22:34:06.99	101.75	13.87	-34.0	-34.9	23.6	0.00e+00	123	27	0	441450496	42	5514
2026-01-15 22:34:08.00	101.64	13.96	-33.9	-34.8	23.6	0.00e+00	123	27	0	444596224	42	5462
2026-01-15 22:34:09.01	101.53	14.04	-33.9	-34.9	23.7	0.00e+00	122	27	0	447741952	42	5480
2026-01-15 22:34:10.02	101.42	14.13	-34.0	-34.9	23.6	0.00e+00	122	27	0	450887680	42	5522
2026-01-15 22:34:11.03	101.31	14.22	-33.9	-34.8	23.7	0.00e+00	123	27	0	454033408	42	5448
2026-01-15 22:34:12.04	101.19	14.31	-34.1	-35.0	23.7	0.00e+00	120	27	0	457179136	42	5567
2026-01-15 22:34:13.05	101.08	14.40	-33.9	-34.9	23.8	0.00e+00	123	27	0	460324864	42	5469
2026-01-15 22:34:14.06	100.97	14.49	-33.9	-34.8	23.7	0.00e+00	120	27	0	463470592	42	5448
2026-01-15 22:34:15.07	100.85	14.57	-33.9	-34.9	23.7	0.00e+00	123	27	0	466616320	42	5471
2026-01-15 22:34:16.07	100.74	14.66	-33.9	-34.8	23.8	0.00e+00	123	27	0	469762048	42	5467
2026-01-15 22:34:17.09	100.62	14.75	-34.0	-34.9	23.7	0.00e+00	123	27	0	472907776	42	5515
2026-01-15 22:34:18.09	100.51	14.84	-34.1	-35.1	23.6	0.00e+00	122	27	0	476053504	42	5600
2026-01-15 22:34:19.10	100.39	14.93	-34.0	-34.9	23.7	0.00e+00	120	27	0	479199232	42	5527
2026-01-15 22:34:20.12	100.27	15.02	-34.0	-35.0	23.6	0.00e+00	123	27	0	482344960	42	5536
2026-01-15 22:34:21.12	100.15	15.11	-34.2	-35.1	23.4	0.00e+00	123	27	0	485490688	42	5639
2026-01-15 22:34:22.13	100.03	15.20	-34.1	-35.1	23.5	0.00e+00	123	27	0	488636416	42	5619
2026-01-15 22:34:23.14	99.91	15.29	-34.2	-35.2	23.5	0.00e+00	123	27	0	491782144	42	5670
2026-01-15 22:34:24.15	99.79	15.38	-34.3	-35.3	23.5	0.00e+00	123	27	0	494927872	42	5739
2026-01-15 22:34:25.16	99.67	15.47	-34.4	-35.4	23.4	0.00e+00	123	27	0	498073600	42	5796
2026-01-15 22:34:26.17	99.55	15.57	-34.3	-35.3	23.6	0.00e+00	122	27	0	501219328	42	5729
2026-01-15 22:34:27.18	99.43	15.66	-34.6	-35.6	23.3	0.00e+00	123	27	0	504365056	42	5938
2026-01-15 22:34:28.19	99.30	15.75	-34.5	-35.5	23.4	0.00e+00	123	27	0	507510784	42	5872
2026-01-15 22:34:29.20	99.18	15.84	-34.4	-35.3	23.5	0.00e+00	122	27	0	510656512	42	5768
2026-01-15 22:34:30.20	99.05	15.93	-34.3	-35.3	23.5	0.00e+00	123	27	0	513802240	42	5765
2026-01-15 22:34:31.21	98.93	16.02	-34.3	-35.3	23.6	0.00e+00	123	27	0	516947968	42	5788
2026-01-15 22:34:32.22	98.80	16.12	-34.3	-35.3	23.6	0.00e+00	123	27	0	520093696	42	5746
2026-01-15 22:34:33.23	98.67	16.21	-34.4	-35.5	23.5	0.00e+00	120	27	0	523239424	42	5859
2026-01-15 22:34:34.24	98.54	16.30	-34.2	-35.2	23.7	0.00e+00	122	27	0	526385152	42	5662
2026-01-15 22:34:35.25	98.41	16.39	-34.3	-35.3	23.6	0.00e+00	123	27	0	529530880	42	5732
2026-01-15 22:34:36.26	98.28	16.49	-34.3	-35.3	23.6	0.00e+00	123	27	0	532676608	42	5736
2026-01-15 22:34:37.27	98.15	16.58	-34.4	-35.3	23.6	0.00e+00	123	27	0	536870912	42	5786
2026-01-15 22:34:38.28	98.02	16.68	-34.3	-35.3	23.5	0.00e+00	120	27	0	540016640	42	5769
2026-01-15 22:34:39.29	97.89	16.77	-34.4	-35.3	23.5	0.00e+00	122	27	0	542113792	42	5783
2026-01-15 22:34:40.31	97.75	16.86	-34.4	-35.4	23.6	0.00e+00	123	27	0	545259520	42	5802
2026-01-15 22:34:41.31	97.62	16.96	-34.5	-35.5	23.5	0.00e+00	123	27	0	548405248	42	5876
2026-01-15 22:34:42.32	97.48	17.05	-34.3	-35.2	23.6	0.00e+00	122	27	0	552599552	42	5711
2026-01-15 22:34:43.33	97.35	17.15	-34.4	-35.3	23.5	0.00e+00	123	27	0	555745280	42	5790
2026-01-15 22:34:44.34	97.21	17.24	-34.4	-35.5	23.4	0.00e+00	123	27	0	558891008	42	5859
2026-01-15 22:34:45.35	97.07	17.34	-34.4	-35.5	23.5	0.00e+00	123	27	0	562036736	42	5866
2026-01-15 22:34:46.36	96.93	17.43	-34.2	-35.3	23.7	0.00e+00	123	27	0	564133888	42	5747
2026-01-15 22:34:47.37	96.79	17.53	-34.2	-35.2	23.6	0.00e+00	123	27	0	568328192	42	5699
2026-01-15 22:34:48.38	96.65	17.62	-34.1	-35.2	23.7	0.00e+00	120	27	0	571473920	42	5699
2026-01-15 22:34:49.39	96.51	17.72	-34.1	-35.2	23.6	0.00e+00	123	27	0	574619648	42	5711
2026-01-15 22:34:50.40	96.37	17.81	-34.1	-35.1	23.6	0.00e+00	123	27	0	577765376	42	5653
2026-01-15 22:34:51.41	96.23	17.91	-34.1	-35.1	23.7	0.00e+00	123	27	0	580911104	42	5651
2026-01-15 22:34:52.42	96.08	18.01	-34.2	-35.1	23.7	0.00e+00	122	27	0	584056832	42	5655
2026-01-15 22:34:53.43	95.94	18.10	-34.2	-35.1	23.6	0.00e+00	123	27	0	587202560	42	5640
2026-01-15 22:34:54.43	95.79	18.20	-34.1	-35.1	23.7	0.00e+00	122	27	0	590348288	42	5622
2026-01-15 22:34:55.44	95.64	18.30	-34.2	-35.2	23.7	0.00e+00	123	27	0	593494016	42	5669
2026-01-15 22:34:56.45	95.50	18.39	-34.2	-35.2	23.8	0.00e+00	122	27	0	596639744	42	5666
2026-01-15 22:34:57.46	95.35	18.49	-34.2	-35.2	23.7	0.00e+00	123	27	0	599785472	42	5666
2026-01-15 22:34:58.47	95.20	18.59	-34.0	-35.0	23.8	0.00e+00	123	27	0	602931200	42	5555
2026-01-15 22:34:59.48	95.05	18.69	-34.1	-35.0	23.8	0.00e+00	123	27	0	606076928	42	5583
2026-01-15 22:35:00.49	94.89	18.78	-34.2	-35.1	23.8	0.00e+00	123	27	0	609222656	42	5642
2026-01-15 22:35:01.50	94.74	18.88	-34.1	-35.1	23.8	0.00e+00	123	27	0	612368384	42	5603
2026-01-15 22:35:02.50	94.59	18.98	-33.6	-34.5	24.2	0.00e+00	123	27	0	615514112	40	5915
2026-01-15 22:35:03.52	94.43	19.08	-33.5	-34.4	24.3	0.00e+00	122	27	0	618659840	40	5840
2026-01-15 22:35:04.52	94.28	19.18	-33.6	-34.5	24.3	0.00e+00	122	27	0	621805568	40	5863
2026-01-15 22:35:05.53	94.12	19.27	-33.4	-34.3	24.3	0.00e+00	123	27	0	624951296	40	5762
2026-01-15 22:35:06.54	93.96	19.37	-33.6	-34.5	24.1	0.00e+00	123	27	0	628097024	40	5881
2026-01-15 22:35:07.55	93.80	19.47	-33.4	-34.3	24.2	0.00e+00	123	27	0	631242752	40	5784
2026-01-15 22:35:08.56	93.64	19.57	-33.5	-34.4	24.0	0.00e+00	121	27	0	634388480	40	5830
2026-01-15 22:35:09.57	93.48	19.67	-33.3	-34.2	24.2	0.00e+00	123	27	0	637534208	40	5688
2026-01-15 22:35:10.57	93.32	19.77	-33.2	-34.1	24.3	0.00e+00	123	27	0	640679936	40	5655
2026-01-15 22:35:11.58	93.16	19.87	-33.2	-34.2	24.4	0.00e+00	120	27	0	643825664	40	5664
2026-01-15 22:35:12.59	92.99	19.97	-33.2	-34.1	24.4	0.00e+00	123	27	0	646971392	40	5640
2026-01-15 22:35:13.60	92.83	20.07	-33.1	-34.0	24.5	0.00e+00	122	27	0	650117120	40	5575
2026-01-15 22:35:14.61	92.66	20.17	-33.3	-34.2	24.5	0.00e+00	120	27	0	653262848	40	5676
2026-01-15 22:35:15.63	92.49	20.27	-33.1	-33.9	24.6	0.00e+00	122	27	0	656408576	40	5529
2026-01-15 22:35:16.63	92.33	20.37	-33.0	-33.8	24.6	0.00e+00	123	27	0	659554304	40	5460
2026-01-15 22:35:17.64	92.16	20.47	-33.0	-33.9	24.6	0.00e+00	120	27	0	662700032	40	5511
2026-01-15 22:35:18.65	91.98	20.57	-33.0	-33.9	24.6	0.00e+00	123	27	0	665845760	40	5475
2026-01-15 22:35:19.66	91.81	20.67	-33.0	-33.9	24.6	0.00e+00	120	27	0	668991488	40	5508
2026-01-15 22:35:20.67	91.64	20.77	-32.9	-33.8	24.7	0.00e+00	123	27	0	672137216	40	5453
2026-01-15 22:35:21.68	91.46	20.87	-33.0	-33.9	24.6	0.00e+00	122	27	0	675282944	40	5485
2026-01-15 22:35:22.69	91.29	20.97	-33.0	-33.9	24.7	0.00e+00	120	27	0	678428672	40	5492
2026-01-15 22:35:23.70	91.11	21.08	-33.1	-34.0	24.4	0.00e+00	122	27	0	681574400	40	5572
2026-01-15 22:35:24.72	90.93	21.18	-32.9	-33.8	24.7	0.00e+00	122	27	0	684720128	40	5450
2026-01-15 22:35:25.72	90.75	21.28	-33.0	-33.9	24.6	0.00e+00	123	27	0	687865856	40	5516
2026-01-15 22:35:26.73	90.57	21.38	-33.0	-33.9	24.7	0.00e+00	120	27	0	691011584	40	5502
2026-01-15 22:35:27.74	90.39	21.48	-33.1	-34.0	24.5	0.00e+00	123	27	0	694157312	40	5587
2026-01-15 22:35:28.75	90.21	21.58	-33.1	-34.0	24.7	0.00e+00	120	27	0	697303040	40	5549
2026-01-15 22:35:29.76	90.03	21.69	-32.9	-33.8	24.8	0.00e+00	123	27	0	700448768	40	5426
2026-01-15 22:35:30.77	89.84	21.79	-32.9	-33.8	24.7	0.00e+00	123	27	0	703594496	40	5451
2026-01-15 22:35:31.78	89.65	21.89	-32.8	-33.7	24.7	0.00e+00	123	27	0	706740224	40	5374
2026-01-15 22:35:32.79	89.47	21.99	-32.8	-33.7	24.7	0.00e+00	123	27	0	709885952	40	5373
2026-01-15 22:35:33.80	89.28	22.09	-32.8	-33.7	24.7	0.00e+00	123	27	0	713031680	40	5357
2026-01-15 22:35:34.81	89.09	22.20	-32.8	-33.7	24.7	0.00e+00	122	27	0	716177408	40	5380
2026-01-15 22:35:35.82	88.90	22.30	-33.1	-34.0	24.6	0.00e+00	123	27	0	719323136	40	5533
2026-01-15 22:35:36.83	88.70	22.40	-32.8	-33.7	24.7	0.00e+00	123	27	0	722468864	40	5393
2026-01-15 22:35:37.84	88.51	22.50	-32.8	-33.7	24.8	0.00e+00	122	27	0	725614592	40	5388
2026-01-15 22:35:38.85	88.31	22.61	-32.9	-33.7	24.7	0.00e+00	123	27	0	728760320	40	5396
2026-01-15 22:35:39.86	88.12	22.71	-33.2	-34.1	24.6	0.00e+00	120	27	0	731906048	40	5597
2026-01-15 22:35:40.87	87.92	22.81	-33.2	-34.0	24.6	0.00e+00	123	27	0	735051776	40	5594
2026-01-15 22:35:41.88	87.72	22.91	-33.1	-34.0	24.7	0.00e+00	121	27	0	738197504	40	5562
2026-01-15 22:35:42.89	87.52	23.02	-33.2	-34.1	24.7	0.00e+00	123	27	0	741343232	40	5608
2026-01-15 22:35:43.90	87.32	23.12	-32.9	-33.8	24.8	0.00e+00	122	27	0	744488960	40	5428
2026-01-15 22:35:44.91	87.11	23.22	-32.9	-33.8	24.8	0.00e+00	122	27	0	747634688	40	5441
2026-01-15 22:35:45.92	86.91	23.32	-33.0	-33.9	24.7	0.00e+00	123	27	0	750780416	40	5479
2026-01-15 22:35:46.93	86.70	23.43	-33.2	-34.1	24.4	0.00e+00	120	27	0	753926144	40	5620
2026-01-15 22:35:47.94	86.50	23.53	-33.4	-34.3	24.4	0.00e+00	122	27	0	757071872	40	5766
2026-01-15 22:35:48.95	86.29	23.63	-33.3	-34.3	24.4	0.00e+00	120	27	0	760217600	40	5733
2026-01-15 22:35:49.96	86.08	23.73	-33.3	-34.2	24.5	0.00e+00	123	27	0	763363328	40	5662
2026-01-15 22:35:50.97	85.87	23.84	-33.1	-34.0	24.7	0.00e+00	123	27	0	766509056	40	5575
2026-01-15 22:35:51.98	85.65	23.94	-33.2	-34.0	24.7	0.00e+00	120	27	0	769654784	40	5589
2026-01-15 22:35:52.99	85.44	24.04	-33.0	-33.9	24.7	0.00e+00	122	27	0	772800512	40	5477
2026-01-15 22:35:54.00	85.22	24.15	-32.6	-33.5	24.9	0.00e+00	120	27	0	775946240	38	5884
2026-01-15 22:35:55.01	85.00	24.25	-32.8	-33.6	24.8	0.00e+00	121	27	0	779091968	38	5976
2026-01-15 22:35:56.02	84.79	24.35	-32.7	-33.6	24.8	0.00e+00	120	27	0	782237696	38	5944
2026-01-15 22:35:57.03	84.57	24.45	-32.8	-33.7	24.7	0.00e+00	122	27	0	785383424	38	6051
2026-01-15 22:35:58.04	84.34	24.55	-33.0	-33.9	24.6	0.00e+00	120	27	0	788529152	38	6148
2026-01-15 22:35:59.05	84.12	24.66	-33.1	-34.0	24.5	0.00e+00	122	27	0	791674880	38	6256
2026-01-15 22:36:00.06	83.90	24.76	-33.2	-34.1	24.5	0.00e+00	122	27	0	794820608	38	6341
2026-01-15 22:36:01.05	83.68	24.86	-33.4	-34.3	24.5	0.00e+00	122	27	0	797966336	38	6435
2026-01-15 22:36:02.06	83.45	24.96	-33.3	-34.1	24.7	0.00e+00	122	27	0	801112064	38	6341
2026-01-15 22:36:03.07	83.22	25.06	-33.2	-34.1	24.7	0.00e+00	123	27	0	804257792	38	6333
2026-01-15 22:36:04.08	82.99	25.17	-32.9	-33.8	24.9	0.00e+00	123	27	0	807403520	38	6081
2026-01-15 22:36:05.09	82.76	25.27	-33.0	-33.8	24.8	0.00e+00	123	27	0	810549248	38	6124
2026-01-15 22:36:06.10	82.52	25.37	-33.0	-33.9	24.8	0.00e+00	120	27	0	813694976	38	6161
2026-01-15 22:36:07.11	82.29	25.47	-33.2	-34.0	24.6	0.00e+00	122	27	0	816840704	38	6261
2026-01-15 22:36:08.11	82.06	25.57	-33.3	-34.1	24.5	0.00e+00	122	27	0	819986432	38	6348
2026-01-15 22:36:09.12	81.82	25.67	-33.4	-34.3	24.5	0.00e+00	123	27	0	823132160	38	6456
2026-01-15 22:36:10.13	81.58	25.77	-33.6	-34.5	24.4	0.00e+00	120	27	0	826277888	38	6593
2026-01-15 22:36:11.13	81.34	25.87	-33.5	-34.4	24.4	0.00e+00	123	27	0	829423616	38	6503
2026-01-15 22:36:12.14	81.10	25.97	-33.7	-34.6	24.2	0.00e+00	122	27	0	832569344	40	5938
2026-01-15 22:36:13.15	80.85	26.07	-33.6	-34.5	24.3	0.00e+00	123	27	0	835715072	40	5907
2026-01-15 22:36:14.16	80.61	26.17	-33.6	-34.6	24.2	0.00e+00	120	27	0	838860800	40	5927
2026-01-15 22:36:15.17	80.36	26.27	-33.7	-34.6	24.2	0.00e+00	123	27	0	842006528	40	5986
2026-01-15 22:36:16.18	80.11	26.37	-33.7	-34.7	24.1	0.00e+00	123	27	0	845152256	40	6006
2026-01-15 22:36:17.19	79.86	26.47	-33.6	-34.6	24.1	0.00e+00	122	27	0	848297984	40	5928
2026-01-15 22:36:18.20	79.61	26.57	-33.7	-34.7	24.2	0.00e+00	120	27	0	851443712	40	5998
2026-01-15 22:36:19.21	79.36	26.67	-33.7	-34.6	24.1	0.00e+00	123	27	0	854589440	40	5994
2026-01-15 22:36:20.22	79.10	26.77	-33.8	-34.8	24.1	0.00e+00	123	27	0	857735168	40	6073
2026-01-15 22:36:21.23	78.84	26.87	-33.8	-34.8	23.9	0.00e+00	120	27	0	860880896	40	6115
2026-01-15 22:36:22.23	78.59	26.96	-33.7	-34.6	24.1	0.00e+00	123	27	0	864026624	40	5991
2026-01-15 22:36:23.24	78.33	27.06	-33.8	-34.7	24.1	0.00e+00	120	27	0	867172352	40	6038
2026-01-15 22:36:24.25	78.07	27.16	-33.7	-34.6	24.1	0.00e+00	123	27	0	870318080	40	5994
2026-01-15 22:36:25.26	77.80	27.26	-33.5	-34.4	24.3	0.00e+00	123	27	0	873463808	40	5812
2026-01-15 22:36:26.27	77.54	27.35	-33.6	-34.5	24.3	0.00e+00	123	27	0	876609536	40	5895
2026-01-15 22:36:27.28	77.27	27.45	-33.5	-34.4	24.4	0.00e+00	122	27	0	879755264	40	5834
2026-01-15 22:36:28.29	77.00	27.55	-33.5	-34.5	24.4	0.00e+00	123	27	0	882900992	40	5863
2026-01-15 22:36:29.30	76.74	27.64	-33.5	-34.4	24.4	0.00e+00	122	27	0	886046720	40	5848
2026-01-15 22:36:30.31	76.46	27.74	-33.6	-34.4	24.4	0.00e+00	122	27	0	889192448	40	5852
2026-01-15 22:36:31.32	76.19	27.83	-33.5	-34.4	24.3	0.00e+00	122	27	0	892338176	40	5848
2026-01-15 22:36:32.33	75.92	27.93	-33.6	-34.5	24.3	0.00e+00	123	27	0	895483904	40	5898
2026-01-15 22:36:33.34	75.64	28.02	-33.7	-34.6	24.2	0.00e+00	122	27	0	898629632	40	5964
2026-01-15 22:36:34.35	75.36	28.12	-33.8	-34.7	24.1	0.00e+00	123	27	0	901775360	40	6049
2026-01-15 22:36:35.36	75.08	28.21	-33.7	-34.7	24.2	0.00e+00	123	27	0	904921088	40	5996
2026-01-15 22:36:36.37	74.80	28.30	-33.5	-34.4	24.3	0.00e+00	120	27	0	908066816	40	5851
2026-01-15 22:36:37.38	74.52	28.39	-33.6	-34.5	24.3	0.00e+00	123	27	0	911212544	40	5879
2026-01-15 22:36:38.38	74.24	28.49	-33.7	-34.6	24.3	0.00e+00	122	27	0	914358272	40	5983
2026-01-15 22:36:39.39	73.95	28.58	-33.6	-34.5	24.2	0.00e+00	122	27	0	917504000	40	5919
2026-01-15 22:36:40.40	73.67	28.67	-33.5	-34.4	24.3	0.00e+00	122	27	0	921698304	40	5820
2026-01-15 22:36:41.42	73.37	28.76	-33.6	-34.5	24.2	0.00e+00	122	27	0	924844032	40	5893
2026-01-15 22:36:42.43	73.08	28.85	-33.6	-34.5	24.2	0.00e+00	122	27	0	927989760	40	5903
2026-01-15 22:36:43.43	72.79	28.94	-33.6	-34.5	24.4	0.00e+00	123	27	0	930086912	40	5871
2026-01-15 22:36:44.44	72.50	29.03	-33.2	-34.1	24.6	0.00e+00	122	27	0	933232640	40	5631
2026-01-15 22:36:45.45	72.20	29.12	-33.3	-34.2	24.4	0.00e+00	122	27	0	936378368	40	5715
2026-01-15 22:36:46.46	71.91	29.20	-33.5	-34.4	24.2	0.00e+00	123	27	0	940572672	40	5856
2026-01-15 22:36:47.47	71.61	29.29	-33.7	-34.7	24.0	0.00e+00	123	27	0	943718400	40	6026
2026-01-15 22:36:48.48	71.31	29.38	-33.8	-34.7	24.1	0.00e+00	122	27	0	946864128	40	6057
2026-01-15 22:36:49.49	71.00	29.46	-33.9	-34.8	24.1	0.00e+00	123	27	0	950009856	40	6097
2026-01-15 22:36:50.50	70.70	29.55	-33.8	-34.7	24.2	0.00e+00	123	27	0	952107008	40	6001
2026-01-15 22:36:51.51	70.40	29.63	-33.6	-34.5	24.2	0.00e+00	123	27	0	956301312	40	5906
2026-01-15 22:36:52.52	70.09	29.72	-33.6	-34.5	24.2	0.00e+00	120	27	0	959447040	40	5912
2026-01-15 22:36:53.53	69.78	29.80	-33.6	-34.5	24.2	0.00e+00	122	27	0	962592768	40	5926
2026-01-15 22:36:54.53	69.47	29.88	-33.9	-34.8	24.0	0.00e+00	122	27	0	965738496	40	6087
2026-01-15 22:36:55.54	69.16	29.96	-33.9	-34.9	24.1	0.00e+00	122	27	0	968884224	40	6136
2026-01-15 22:36:56.55	68.85	30.04	-33.8	-34.7	24.3	0.00e+00	122	27	0	972029952	40	6006
2026-01-15 22:36:57.56	68.53	30.12	-33.7	-34.6	24.4	0.00e+00	122	27	0	975175680	40	5932
2026-01-15 22:36:58.56	68.22	30.20	-33.5	-34.4	24.5	0.00e+00	123	27	0	978321408	40	5845
2026-01-15 22:36:59.57	67.90	30.28	-33.3	-34.1	24.7	0.00e+00	123	27	0	981467136	40	5654
2026-01-15 22:37:00.58	67.58	30.36	-33.3	-34.2	24.6	0.00e+00	122	28	0	984612864	40	5680
2026-01-15 22:37:01.59	67.26	30.44	-33.4	-34.3	24.5	0.00e+00	123	27	0	987758592	40	5746
2026-01-15 22:37:02.60	66.94	30.51	-33.7	-34.6	24.4	0.00e+00	120	27	0	990904320	40	5933
2026-01-15 22:37:03.61	66.61	30.59	-33.9	-34.8	24.2	0.00e+00	122	27	0	994050048	40	6104
2026-01-15 22:37:04.62	66.29	30.66	-33.9	-34.8	24.2	0.00e+00	120	27	0	997195776	40	6118
2026-01-15 22:37:05.63	65.96	30.74	-34.0	-34.9	24.2	0.00e+00	123	28	0	1000341504	40	6169
2026-01-15 22:37:06.64	65.63	30.81	-34.1	-35.0	24.1	0.00e+00	122	27	0	1003487232	40	6246
2026-01-15 22:37:07.64	65.30	30.88	-34.3	-35.2	23.9	0.00e+00	120	28	0	1006632960	40	6423
2026-01-15 22:37:08.65	64.97	30.95	-34.2	-35.1	24.0	0.00e+00	123	28	0	1009778688	40	6289
2026-01-15 22:37:09.66	64.64	31.02	-34.3	-35.3	23.8	0.00e+00	122	28	0	1012924416	40	6436
2026-01-15 22:37:10.67	64.31	31.09	-34.6	-35.5	23.6	0.00e+00	123	28	0	1016070144	40	6634
2026-01-15 22:37:11.68	63.97	31.16	-34.8	-35.8	23.4	0.00e+00	123	28	0	1019215872	42	6100
2026-01-15 22:37:12.69	63.63	31.23	-34.9	-35.9	23.4	0.00e+00	123	28	0	1022361600	42	6149
2026-01-15 22:37:13.70	63.29	31.29	-34.8	-35.8	23.5	0.00e+00	122	28	0	1025507328	42	6084
2026-01-15 22:37:14.70	62.96	31.36	-34.8	-35.7	23.3	0.00e+00	123	28	0	1028653056	42	6056
2026-01-15 22:37:15.71	62.62	31.42	-34.9	-35.8	23.3	0.00e+00	123	28	0	1031798784	42	6111
2026-01-15 22:37:16.72	62.27	31.49	-34.7	-35.6	23.6	0.00e+00	123	28	0	1034944512	42	5958
2026-01-15 22:37:17.73	61.93	31.55	-34.9	-35.9	23.5	0.00e+00	123	28	0	1038090240	42	6147
2026-01-15 22:37:18.74	61.58	31.61	-34.7	-35.6	23.7	0.00e+00	123	28	0	1041235968	42	5982
2026-01-15 22:37:19.75	61.24	31.67	-34.8	-35.7	23.5	0.00e+00	120	28	0	1044381696	42	6047
2026-01-15 22:37:20.76	60.89	31.73	-34.5	-35.5	23.8	0.00e+00	123	27	0	1047527424	42	5869
2026-01-15 22:37:21.77	60.54	31.79	-34.6	-35.5	23.8	0.00e+00	120	28	0	1050673152	42	5904
2026-01-15 22:37:22.78	60.19	31.85	-34.5	-35.4	23.8	0.00e+00	123	28	0	1053818880	42	5815
2026-01-15 22:37:23.78	59.84	31.90	-34.5	-35.5	23.7	0.00e+00	122	28	0	1056964608	42	5859
2026-01-15 22:37:24.79	59.49	31.96	-34.4	-35.4	23.8	0.00e+00	123	28	0	1060110336	42	5802
2026-01-15 22:37:25.80	59.13	32.01	-34.6	-35.6	23.6	0.00e+00	123	28	0	1063256064	42	5942
2026-01-15 22:37:26.81	58.78	32.06	-34.8	-35.7	23.5	0.00e+00	123	28	0	1066401792	42	6049
2026-01-15 22:37:27.82	58.42	32.11	-34.8	-35.7	23.4	0.00e+00	122	28	0	1069547520	42	6056
2026-01-15 22:37:28.83	58.06	32.16	-34.9	-35.9	23.4	0.00e+00	120	28	0	1072693248	42	6136
2026-01-15 22:37:29.84	57.70	32.21	-35.0	-36.0	23.3	0.00e+00	123	28	0	1075838976	42	6220
2026-01-15 22:37:30.85	57.34	32.26	-34.7	-35.7	23.6	0.00e+00	122	28	0	1078984704	42	6018
2026-01-15 22:37:31.86	56.98	32.31	-34.7	-35.7	23.7	0.00e+00	123	28	0	1082130432	42	6018
2026-01-15 22:37:32.87	56.62	32.35	-34.5	-35.5	23.7	0.00e+00	122	28	0	1085276160	42	5870
2026-01-15 22:37:33.87	56.26	32.40	-34.7	-35.6	23.6	0.00e+00	122	28	0	1088421888	42	5975
2026-01-15 22:37:34.88	55.90	32.44	-34.3	-35.2	23.9	0.00e+00	120	28	0	1091567616	42	5701
2026-01-15 22:37:35.89	55.53	32.48	-34.4	-35.3	23.8	0.00e+00	122	28	0	1094713344	42	5782
2026-01-15 22:37:36.90	55.17	32.52	-34.3	-35.2	23.9	0.00e+00	123	28	0	1097859072	42	5722
2026-01-15 22:37:37.91	54.80	32.56	-34.2	-35.1	23.9	0.00e+00	120	28	0	1101004800	42	5658
2026-01-15 22:37:38.92	54.43	32.60	-34.2	-35.1	23.9	0.00e+00	123	28	0	1104150528	42	5649
2026-01-15 22:37:39.93	54.07	32.63	-34.2	-35.1	24.0	0.00e+00	120	28	0	1107296256	42	5646
2026-01-15 22:37:40.93	53.70	32.67	-34.3	-35.2	24.0	0.00e+00	121	28	0	1110441984	42	5690
2026-01-15 22:37:41.94	53.33	32.70	-34.3	-35.2	23.9	0.00e+00	120	28	0	1113587712	42	5722
2026-01-15 22:37:42.95	52.96	32.74	-34.5	-35.5	23.8	0.00e+00	123	28	0	1116733440	42	5870
2026-01-15 22:37:43.97	52.58	32.77	-34.5	-35.4	23.8	0.00e+00	123	28	0	1119879168	42	5815
2026-01-15 22:37:44.97	52.22	32.80	-34.7	-35.6	23.6	0.00e+00	120	28	0	1123024896	42	5967
2026-01-15 22:37:45.98	51.84	32.83	-34.5	-35.4	23.7	0.00e+00	123	28	0	1126170624	42	5847
2026-01-15 22:37:46.99	51.47	32.85	-34.6	-35.5	23.7	0.00e+00	123	28	0	1129316352	42	5904
2026-01-15 22:37:48.00	51.10	32.88	-34.8	-35.8	23.4	0.00e+00	123	28	0	1132462080	42	6077
2026-01-15 22:37:49.00	50.72	32.90	-35.2	-36.1	23.2	0.00e+00	123	28	0	1135607808	42	6342
2026-01-15 22:37:50.01	50.35	32.93	-35.1	-36.1	23.3	0.00e+00	121	28	0	1138753536	42	6313
2026-01-15 22:37:51.02	49.97	32.95	-35.1	-36.1	23.2	0.00e+00	122	28	0	1141899264	42	6312
2026-01-15 22:37:52.03	49.60	32.97	-34.8	-35.8	23.4	0.00e+00	122	28	0	1145044992	42	6070
2026-01-15 22:37:53.04	49.22	32.99	-34.8	-35.8	23.3	0.00e+00	120	28	0	1148190720	42	6093
2026-01-15 22:37:54.05	48.84	33.01	-34.9	-35.8	23.4	0.00e+00	123	28	0	1151336448	42	6124
2026-01-15 22:37:55.06	48.47	33.02	-34.7	-35.7	23.6	0.00e+00	122	28	0	1154482176	42	5995
2026-01-15 22:37:56.07	48.09	33.04	-34.8	-35.8	23.5	0.00e+00	123	28	0	1157627904	42	6081
2026-01-15 22:37:57.08	47.71	33.05	-34.6	-35.5	23.7	0.00e+00	120	28	0	1160773632	42	5893
2026-01-15 22:37:58.09	47.33	33.06	-34.7	-35.6	23.5	0.00e+00	122	28	0	1163919360	42	5973
2026-01-15 22:37:59.10	46.95	33.07	-34.6	-35.5	23.6	0.00e+00	123	28	0	1167065088	42	5910
2026-01-15 22:38:00.10	46.58	33.08	-34.9	-35.8	23.4	0.00e+00	123	28	0	1170210816	42	6107
2026-01-15 22:38:01.12	46.20	33.09	-34.9	-35.9	23.4	0.00e+00	123	28	0	1173356544	42	6144
2026-01-15 22:38:02.12	45.82	33.10	-35.1	-36.0	23.2	0.00e+00	123	28	0	1176502272	42	6265
2026-01-15 22:38:03.13	45.44	33.10	-35.1	-36.0	23.2	0.00e+00	123	28	0	1179648000	42	6250
2026-01-15 22:38:04.15	45.06	33.10	-35.1	-36.1	23.1	0.00e+00	122	28	0	1182793728	42	6314
2026-01-15 22:38:05.15	44.68	33.11	-35.0	-35.9	23.3	0.00e+00	123	28	0	1185939456	42	6199
2026-01-15 22:38:06.16	44.30	33.11	-34.9	-35.8	23.5	0.00e+00	122	28	0	1189085184	42	6099
2026-01-15 22:38:07.17	43.92	33.11	-34.8	-35.7	23.5	0.00e+00	122	28	0	1192230912	42	6049
2026-01-15 22:38:08.18	43.54	33.10	-34.5	-35.4	23.9	0.00e+00	123	28	0	1195376640	42	5817
2026-01-15 22:38:09.19	43.17	33.10	-34.3	-35.3	23.9	0.00e+00	122	28	0	1198522368	42	5730
2026-01-15 22:38:10.20	42.79	33.09	-34.3	-35.2	24.0	0.00e+00	123	28	0	1201668096	42	5675
2026-01-15 22:38:11.21	42.41	33.09	-34.3	-35.2	23.7	0.00e+00	123	28	0	1204813824	42	5715
2026-01-15 22:38:12.22	42.03	33.08	-34.3	-35.2	23.8	0.00e+00	123	28	0	1207959552	42	5711
2026-01-15 22:38:13.23	41.65	33.07	-34.2	-35.1	24.1	0.00e+00	123	28	0	1211105280	42	5612
2026-01-15 22:38:14.24	41.27	33.06	-34.1	-35.1	23.9	0.00e+00	122	28	0	1214251008	42	5599
2026-01-15 22:38:15.25	40.89	33.05	-34.2	-35.1	23.8	0.00e+00	122	28	0	1217396736	42	5650
2026-01-15 22:38:16.26	40.51	33.03	-34.5	-35.4	23.6	0.00e+00	122	28	0	1220542464	42	5848
2026-01-15 22:38:17.26	40.14	33.02	-34.7	-35.6	23.4	0.00e+00	123	28	0	1223688192	42	5994
2026-01-15 22:38:18.27	39.76	33.00	-34.9	-35.9	23.5	0.00e+00	122	28	0	1226833920	42	6135
2026-01-15 22:38:19.28	39.39	32.99	-35.0	-36.0	23.4	0.00e+00	122	28	0	1229979648	42	6207
2026-01-15 22:38:20.29	39.01	32.97	-34.8	-35.7	23.6	0.00e+00	122	28	0	1233125376	42	6054
2026-01-15 22:38:21.30	38.63	32.95	-34.9	-35.9	23.4	0.00e+00	120	28	0	1236271104	42	6155
2026-01-15 22:38:22.31	38.26	32.92	-34.6	-35.5	23.6	0.00e+00	123	28	0	1239416832	42	5924
2026-01-15 22:38:23.32	37.88	32.90	-34.4	-35.3	23.8	0.00e+00	122	28	0	1242562560	42	5760
2026-01-15 22:38:24.33	37.51	32.88	-34.5	-35.5	23.6	0.00e+00	123	28	0	1245708288	42	5877
2026-01-15 22:38:25.34	37.14	32.85	-34.3	-35.3	23.7	0.00e+00	123	28	0	1248854016	42	5739
2026-01-15 22:38:26.35	36.76	32.82	-34.3	-35.2	23.9	0.00e+00	123	28	0	1251999744	42	5673
2026-01-15 22:38:27.36	36.39	32.79	-34.4	-35.4	23.7	0.00e+00	122	28	0	1255145472	42	5793
2026-01-15 22:38:28.37	36.02	32.76	-34.5	-35.4	23.7	0.00e+00	121	28	0	1258291200	42	5851
2026-01-15 22:38:29.38	35.65	32.73	-34.5	-35.5	23.6	0.00e+00	123	28	0	1261436928	42	5867
2026-01-15 22:38:30.39	35.28	32.70	-34.8	-35.8	23.5	0.00e+00	122	28	0	1264582656	42	6070
2026-01-15 22:38:31.40	34.91	32.67	-34.9	-35.9	23.4	0.00e+00	123	28	0	1267728384	42	6144
2026-01-15 22:38:32.41	34.54	32.63	-34.9	-35.9	23.4	0.00e+00	123	28	0	1270874112	42	6156
2026-01-15 22:38:33.42	34.17	32.59	-34.5	-35.4	23.7	0.00e+00	122	28	0	1274019840	42	5851
2026-01-15 22:38:34.43	33.81	32.56	-34.5	-35.4	23.7	0.00e+00	122	28	0	1277165568	42	5829
2026-01-15 22:38:35.43	33.44	32.52	-34.5	-35.4	23.7	0.00e+00	123	28	0	1280311296	42	5814
2026-01-15 22:38:36.44	33.08	32.48	-34.3	-35.3	23.9	0.00e+00	122	28	0	1283457024	42	5740
2026-01-15 22:38:37.45	32.71	32.43	-34.3	-35.2	23.9	0.00e+00	122	28	0	1286602752	42	5700
2026-01-15 22:38:38.46	32.35	32.39	-34.1	-35.1	24.0	0.00e+00	123	28	0	1289748480	42	5602
2026-01-15 22:38:39.47	31.99	32.35	-34.2	-35.1	23.9	0.00e+00	122	28	0	1292894208	42	5612
2026-01-15 22:38:40.48	31.63	32.30	-34.2	-35.1	23.8	0.00e+00	122	28	0	1296039936	42	5640
2026-01-15 22:38:41.49	31.27	32.25	-34.4	-35.3	23.6	0.00e+00	123	28	0	1299185664	42	5772
2026-01-15 22:38:42.50	30.91	32.21	-34.2	-35.1	23.8	0.00e+00	123	28	0	1302331392	42	5642
2026-01-15 22:38:43.51	30.55	32.16	-34.2	-35.1	23.8	0.00e+00	122	28	0	1305477120	42	5619
2026-01-15 22:38:44.52	30.19	32.11	-34.3	-35.2	23.8	0.00e+00	123	28	0	1308622848	42	5701
2026-01-15 22:38:45.53	29.84	32.06	-34.4	-35.4	23.7	0.00e+00	122	28	0	1311768576	42	5818
2026-01-15 22:38:46.54	29.48	32.00	-34.6	-35.6	23.6	0.00e+00	122	28	0	1314914304	42	5927
2026-01-15 22:38:47.55	29.13	31.95	-34.6	-35.5	23.7	0.00e+00	123	29	0	1318060032	42	5909
2026-01-15 22:38:48.56	28.78	31.89	-34.6	-35.6	23.4	0.00e+00	123	28	0	1321205760	42	5938
2026-01-15 22:38:49.57	28.42	31.84	-34.8	-35.8	23.1	0.00e+00	122	28	0	1324351488	42	6083
2026-01-15 22:38:50.58	28.07	31.78	-34.8	-35.8	23.0	0.00e+00	121	28	0	1327497216	42	6073
2026-01-15 22:38:51.59	27.73	31.72	-34.8	-35.8	23.0	0.00e+00	123	29	0	1330642944	42	6090
2026-01-15 22:38:52.59	27.38	31.66	-34.6	-35.5	23.4	0.00e+00	121	29	0	1333788672	42	5915
2026-01-15 22:38:53.60	27.04	31.60	-33.8	-34.8	23.9	0.00e+00	123	28	0	1337982976	42	5417
2026-01-15 22:38:54.61	26.69	31.54	-33.9	-34.8	23.9	0.00e+00	123	28	0	1340080128	42	5451
2026-01-15 22:38:55.62	26.35	31.48	-33.8	-34.7	24.1	0.00e+00	123	28	0	1343225856	42	5371
2026-01-15 22:38:56.63	26.01	31.42	-33.7	-34.7	24.2	0.00e+00	123	28	0	1346371584	40	5995
2026-01-15 22:38:57.64	25.66	31.35	-33.8	-34.7	24.2	0.00e+00	123	29	0	1349517312	40	6030
2026-01-15 22:38:58.65	25.33	31.29	-33.9	-34.8	23.9	0.00e+00	123	29	0	1352663040	40	6085
2026-01-15 22:38:59.66	24.99	31.22	-33.9	-34.8	23.9	0.00e+00	123	29	0	1356857344	40	6102
2026-01-15 22:39:00.67	24.65	31.15	-34.1	-35.0	23.7	0.00e+00	122	29	0	1360003072	40	6215
2026-01-15 22:39:01.68	24.32	31.08	-34.0	-34.9	23.9	0.00e+00	120	28	0	1363148800	40	6147
2026-01-15 22:39:02.69	23.98	31.02	-34.1	-35.0	23.8	0.00e+00	123	28	0	1365245952	40	6232
2026-01-15 22:39:03.70	23.65	30.95	-34.3	-35.3	23.8	0.00e+00	123	29	0	1369440256	40	6458
2026-01-15 22:39:04.71	23.32	30.87	-34.5	-35.5	23.7	0.00e+00	123	29	0	1372585984	40	6588
2026-01-15 22:39:05.72	22.99	30.80	-34.7	-35.7	23.5	0.00e+00	122	29	0	1375731712	40	6788
2026-01-15 22:39:06.73	22.66	30.73	-34.7	-35.7	23.5	0.00e+00	123	29	0	1378877440	42	6000
2026-01-15 22:39:07.74	22.34	30.66	-34.5	-35.4	23.4	0.00e+00	122	29	0	1382023168	42	5849
2026-01-15 22:39:08.75	22.01	30.58	-34.0	-34.9	23.8	0.00e+00	123	29	0	1385168896	42	5524
2026-01-15 22:39:09.76	21.69	30.51	-34.2	-35.1	23.8	0.00e+00	120	28	0	1388314624	42	5626
2026-01-15 22:39:10.77	21.37	30.43	-33.7	-34.6	24.2	0.00e+00	122	28	0	1391460352	40	5946
2026-01-15 22:39:11.78	21.05	30.35	-33.2	-34.1	24.7	0.00e+00	122	29	0	1394606080	40	5626
2026-01-15 22:39:12.79	20.73	30.27	-33.6	-34.5	24.5	0.00e+00	123	29	0	1397751808	40	5887
2026-01-15 22:39:13.80	20.41	30.20	-34.1	-35.0	24.0	0.00e+00	123	29	0	1400897536	40	6225
2026-01-15 22:39:14.81	20.09	30.12	-34.4	-35.4	23.8	0.00e+00	123	29	0	1404043264	40	6513
2026-01-15 22:39:15.82	19.78	30.04	-34.4	-35.4	23.7	0.00e+00	124	29	0	1407188992	40	6524
2026-01-15 22:39:16.83	19.47	29.95	-34.0	-35.0	23.7	0.00e+00	123	29	0	1410334720	40	6210
2026-01-15 22:39:17.84	19.16	29.87	-34.1	-35.0	23.8	0.00e+00	123	29	0	1413480448	40	6244
2026-01-15 22:39:18.85	18.85	29.79	-34.0	-34.9	24.0	0.00e+00	122	29	0	1416626176	40	6175
2026-01-15 22:39:19.86	18.54	29.71	-33.3	-34.2	24.6	0.00e+00	123	29	0	1419771904	40	5681
2026-01-15 22:39:20.86	18.24	29.62	-33.4	-34.3	24.5	0.00e+00	123	29	0	1422917632	40	5726
2026-01-15 22:39:21.87	17.93	29.54	-33.6	-34.5	24.4	0.00e+00	122	29	0	1426063360	40	5905
2026-01-15 22:39:22.88	17.63	29.45	-33.6	-34.5	24.4	0.00e+00	120	29	0	1429209088	40	5900
2026-01-15 22:39:23.89	17.33	29.37	-33.8	-34.7	24.2	0.00e+00	123	29	0	1432354816	40	6044
2026-01-15 22:39:24.90	17.03	29.28	-33.7	-34.6	24.2	0.00e+00	122	29	0	1435500544	40	5988
2026-01-15 22:39:25.91	16.73	29.20	-33.7	-34.6	24.0	0.00e+00	123	29	0	1438646272	40	5990
2026-01-15 22:39:26.92	16.44	29.11	-33.2	-34.0	24.5	0.00e+00	121	29	0	1441792000	40	5581
2026-01-15 22:39:27.93	16.14	29.02	-33.0	-33.9	24.8	0.00e+00	123	29	0	1444937728	40	5502
2026-01-15 22:39:28.93	15.85	28.93	-32.7	-33.6	25.0	0.00e+00	122	29	0	1448083456	38	5941
2026-01-15 22:39:29.94	15.56	28.84	-32.9	-33.8	24.9	0.00e+00	123	29	0	1451229184	38	6097
2026-01-15 22:39:30.95	15.27	28.75	-33.2	-34.1	24.7	0.00e+00	121	29	0	1454374912	38	6315
2026-01-15 22:39:31.96	14.98	28.66	-33.6	-34.5	24.4	0.00e+00	123	29	0	1457520640	38	6631
2026-01-15 22:39:32.97	14.70	28.57	-33.8	-34.7	24.2	0.00e+00	122	29	0	1460666368	40	6017
2026-01-15 22:39:33.98	14.41	28.48	-34.0	-34.9	24.0	0.00e+00	120	29	0	1463812096	40	6156
2026-01-15 22:39:34.98	14.13	28.39	-33.7	-34.7	24.0	0.00e+00	123	29	0	1466957824	40	6005
2026-01-15 22:39:36.00	13.85	28.30	-33.8	-34.7	24.1	0.00e+00	122	29	0	1470103552	40	6037
2026-01-15 22:39:37.00	13.57	28.21	-33.4	-34.3	24.5	0.00e+00	123	29	0	1473249280	40	5765
2026-01-15 22:39:38.01	13.29	28.11	-33.3	-34.2	24.6	0.00e+00	123	29	0	1476395008	40	5670
2026-01-15 22:39:39.02	13.01	28.02	-33.4	-34.3	24.6	0.00e+00	123	29	0	1479540736	40	5760
2026-01-15 22:39:40.03	12.74	27.92	-33.5	-34.4	24.6	0.00e+00	123	29	0	1482686464	40	5812
2026-01-15 22:39:41.04	12.47	27.83	-33.5	-34.4	24.5	0.00e+00	122	29	0	1485832192	40	5839
2026-01-15 22:39:42.05	12.19	27.74	-33.6	-34.5	24.5	0.00e+00	122	29	0	1488977920	40	5890
2026-01-15 22:39:43.06	11.92	27.64	-33.7	-34.6	24.4	0.00e+00	120	29	0	1492123648	40	5941
2026-01-15 22:39:44.07	11.65	27.54	-33.5	-34.4	24.6	0.00e+00	123	29	0	1495269376	40	5794
2026-01-15 22:39:45.08	11.39	27.45	-33.4	-34.3	24.5	0.00e+00	123	29	0	1498415104	40	5751
2026-01-15 22:39:46.09	11.12	27.35	-33.3	-34.2	24.7	0.00e+00	123	29	0	1501560832	40	5661
2026-01-15 22:39:47.10	10.86	27.26	-33.2	-34.1	24.6	0.00e+00	123	29	0	1504706560	40	5652
2026-01-15 22:39:48.11	10.60	27.16	-33.3	-34.2	24.5	0.00e+00	123	29	0	1507852288	40	5716
2026-01-15 22:39:49.12	10.34	27.06	-33.4	-34.3	24.5	0.00e+00	123	29	0	1510998016	40	5738
2026-01-15 22:39:50.13	10.08	26.96	-33.6	-34.5	24.4	0.00e+00	123	29	0	1514143744	40	5864
2026-01-15 22:39:51.14	9.82	26.87	-33.5	-34.4	24.4	0.00e+00	122	29	0	1517289472	40	5798
2026-01-15 22:39:52.14	9.57	26.77	-33.6	-34.5	24.4	0.00e+00	123	29	0	1520435200	40	5911
2026-01-15 22:39:53.15	9.31	26.67	-33.5	-34.4	24.4	0.00e+00	120	29	0	1523580928	40	5858
2026-01-15 22:39:54.16	9.06	26.57	-33.6	-34.5	24.4	0.00e+00	121	29	0	1526726656	40	5864
2026-01-15 22:39:55.17	8.81	26.47	-33.2	-34.1	24.7	0.00e+00	122	29	0	1529872384	40	5630
2026-01-15 22:39:56.18	8.56	26.37	-33.2	-34.1	24.7	0.00e+00	120	29	0	1533018112	40	5640
2026-01-15 22:39:57.19	8.31	26.27	-33.3	-34.2	24.7	0.00e+00	123	29	0	1536163840	40	5671
2026-01-15 22:39:58.20	8.07	26.17	-33.4	-34.3	24.5	0.00e+00	120	29	0	1539309568	40	5763
2026-01-15 22:39:59.21	7.82	26.07	-33.5	-34.4	24.4	0.00e+00	123	29	0	1542455296	40	5814
2026-01-15 22:40:00.22	7.58	25.97	-33.5	-34.4	24.2	0.00e+00	123	29	0	1545601024	40	5814
2026-01-15 22:40:01.23	7.34	25.87	-33.2	-34.1	24.3	0.00e+00	122	29	0	1548746752	40	5618
2026-01-15 22:40:02.24	7.10	25.77	-33.1	-34.0	24.2	0.00e+00	122	29	0	1551892480	40	5577
2026-01-15 22:40:03.25	6.86	25.67	-33.4	-34.3	24.3	0.00e+00	120	29	0	1555038208	40	5752
2026-01-15 22:40:04.26	6.62	25.57	-33.0	-33.9	24.7	0.00e+00	123	29	0	1558183936	40	5480
2026-01-15 22:40:05.27	6.39	25.47	-33.1	-34.0	24.6	0.00e+00	120	29	0	1561329664	40	5531
2026-01-15 22:40:06.28	6.15	25.37	-33.2	-34.1	24.6	0.00e+00	122	29	0	1564475392	40	5643
2026-01-15 22:40:07.28	5.92	25.27	-33.6	-34.4	24.3	0.00e+00	120	29	0	1567621120	40	5853
2026-01-15 22:40:08.29	5.69	25.17	-34.1	-35.0	24.0	0.00e+00	122	29	0	1570766848	40	6230
2026-01-15 22:40:09.30	5.46	25.07	-34.2	-35.1	23.9	0.00e+00	123	29	0	1573912576	40	6332
2026-01-15 22:40:10.31	5.24	24.97	-34.0	-34.9	24.1	0.00e+00	123	29	0	1577058304	40	6155
2026-01-15 22:40:11.32	5.01	24.86	-33.4	-34.3	24.4	0.00e+00	123	29	0	1580204032	40	5755
2026-01-15 22:40:12.33	4.78	24.76	-33.3	-34.2	24.4	0.00e+00	123	29	0	1583349760	40	5718
2026-01-15 22:40:13.33	4.56	24.66	-33.1	-34.0	24.6	0.00e+00	122	29	0	1586495488	40	5544
2026-01-15 22:40:14.34	4.34	24.56	-33.2	-34.0	24.6	0.00e+00	123	29	0	1589641216	40	5590
2026-01-15 22:40:15.36	4.12	24.46	-33.3	-34.1	24.5	0.00e+00	120	29	0	1592786944	40	5654
2026-01-15 22:40:16.36	3.90	24.36	-33.0	-33.9	24.7	0.00e+00	122	29	0	1595932672	40	5476
2026-01-15 22:40:17.37	3.68	24.25	-33.0	-33.8	24.7	0.00e+00	123	29	0	1599078400	40	5467
2026-01-15 22:40:18.38	3.47	24.15	-32.7	-33.6	24.9	0.00e+00	122	29	0	1602224128	38	5963
2026-01-15 22:40:19.39	3.25	24.05	-32.8	-33.7	24.8	0.00e+00	120	29	0	1605369856	38	6040
2026-01-15 22:40:20.40	3.04	23.95	-32.9	-33.8	24.6	0.00e+00	123	29	0	1608515584	38	6105
2026-01-15 22:40:21.41	2.83	23.84	-32.9	-33.9	24.6	0.00e+00	120	29	0	1611661312	38	6146
2026-01-15 22:40:22.42	2.62	23.74	-33.0	-33.9	24.5	0.00e+00	123	29	0	1614807040	38	6197
2026-01-15 22:40:23.43	2.41	23.64	-33.0	-33.9	24.6	0.00e+00	122	29	0	1617952768	38	6172
2026-01-15 22:40:24.44	2.20	23.54	-33.2	-34.1	24.3	0.00e+00	123	29	0	1621098496	38	6295
2026-01-15 22:40:25.45	1.99	23.44	-33.1	-34.0	24.3	0.00e+00	122	29	0	1624244224	38	6241
2026-01-15 22:40:26.45	1.79	23.33	-33.2	-34.1	24.3	0.00e+00	123	29	0	1627389952	38	6305
2026-01-15 22:40:27.46	1.59	23.23	-33.4	-34.4	24.0	0.00e+00	123	29	0	1630535680	38	6513
2026-01-15 22:40:28.47	1.38	23.13	-33.6	-34.5	23.9	0.00e+00	123	29	0	1633681408	38	6629
2026-01-15 22:40:29.48	1.18	23.03	-33.8	-34.8	23.6	0.00e+00	122	29	0	1636827136	40	6073
2026-01-15 22:40:30.49	0.98	22.92	-33.8	-34.8	23.7	0.00e+00	120	29	0	1639972864	40	6065
2026-01-15 22:40:31.49	0.79	22.82	-33.7	-34.7	23.9	0.00e+00	122	29	0	1643118592	40	6025
2026-01-15 22:40:32.50	0.59	22.72	-33.7	-34.6	24.0	0.00e+00	120	29	0	1646264320	40	5985
2026-01-15 22:40:33.51	0.39	22.62	-33.6	-34.5	24.2	0.00e+00	122	29	0	1649410048	40	5876
2026-01-15 22:40:34.52	0.20	22.52	-33.5	-34.4	24.3	0.00e+00	127	29	0	1652555776	40	5858
2026-01-15 22:40:35.53	0.01	22.41	-33.5	-34.4	24.4	0.00e+00	122	29	0	1655701504	40	5817
2026-01-15 22:40:36.54	359.82	22.31	-33.6	-34.5	24.3	0.00e+00	120	29	0	1658847232	40	5880
2026-01-15 22:40:37.55	359.62	22.21	-33.9	-34.8	24.2	0.00e+00	123	29	0	1661992960	40	6086
2026-01-15 22:40:38.56	359.44	22.11	-33.6	-34.5	24.3	0.00e+00	122	29	0	1665138688	40	5915
2026-01-15 22:40:39.57	359.25	22.01	-33.7	-34.6	24.2	0.00e+00	120	29	0	1668284416	40	5987
2026-01-15 22:40:40.58	359.06	21.91	-33.6	-34.5	24.3	0.00e+00	122	29	0	1671430144	40	5919
2026-01-15 22:40:41.59	358.88	21.80	-33.6	-34.6	24.2	0.00e+00	123	29	0	1674575872	40	5933
2026-01-15 22:40:42.60	358.69	21.70	-33.5	-34.4	24.3	0.00e+00	122	29	0	1677721600	40	5842
2026-01-15 22:40:43.61	358.51	21.60	-33.4	-34.3	24.4	0.00e+00	123	29	0	1680867328	40	5747
2026-01-15 22:40:44.61	358.33	21.50	-33.3	-34.2	24.4	0.00e+00	122	29	0	1684013056	40	5670
2026-01-15 22:40:45.62	358.15	21.40	-33.1	-34.0	24.6	0.00e+00	123	29	0	1687158784	40	5582
2026-01-15 22:40:46.63	357.97	21.30	-33.0	-33.9	24.6	0.00e+00	122	29	0	1690304512	40	5491
2026-01-15 22:40:47.64	357.79	21.20	-33.0	-33.9	24.7	0.00e+00	123	29	0	1693450240	40	5481
2026-01-15 22:40:48.65	357.61	21.10	-33.1	-34.0	24.6	0.00e+00	121	29	0	1696595968	40	5580
2026-01-15 22:40:49.66	357.44	21.00	-33.2	-34.1	24.6	0.00e+00	122	29	0	1699741696	40	5624
2026-01-15 22:40:50.66	357.26	20.90	-33.1	-34.1	24.7	0.00e+00	122	29	0	1702887424	40	5595
2026-01-15 22:40:51.67	357.09	20.79	-33.1	-34.0	24.7	0.00e+00	123	29	0	1706033152	40	5576
2026-01-15 22:40:52.68	356.92	20.69	-33.1	-34.0	24.7	0.00e+00	122	29	0	1709178880	40	5553
2026-01-15 22:40:53.69	356.75	20.59	-33.2	-34.1	24.5	0.00e+00	123	29	0	1712324608	40	5614
2026-01-15 22:40:54.70	356.58	20.49	-32.9	-33.8	24.7	0.00e+00	123	29	0	1715470336	40	5445
2026-01-15 22:40:55.71	356.41	20.39	-32.9	-33.8	24.7	0.00e+00	120	29	0	1718616064	40	5442
2026-01-15 22:40:56.72	356.24	20.29	-32.8	-33.6	24.9	0.00e+00	120	29	0	1721761792	38	5982
2026-01-15 22:40:57.73	356.07	20.19	-32.9	-33.7	24.8	0.00e+00	122	29	0	1724907520	38	6048
2026-01-15 22:40:58.74	355.91	20.09	-32.6	-33.5	25.0	0.00e+00	122	29	0	1728053248	38	5874
2026-01-15 22:40:59.75	355.74	19.99	-32.6	-33.5	25.1	0.00e+00	122	29	0	1731198976	38	5865
2026-01-15 22:41:00.76	355.58	19.90	-32.7	-33.5	25.0	0.00e+00	122	29	0	1734344704	38	5908
2026-01-15 22:41:01.77	355.42	19.80	-32.8	-33.7	24.9	0.00e+00	123	29	0	1737490432	38	6044
2026-01-15 22:41:02.78	355.25	19.70	-32.8	-33.7	24.9	0.00e+00	122	29	0	1740636160	38	6040
2026-01-15 22:41:03.78	355.09	19.60	-33.1	-34.0	24.8	0.00e+00	122	29	0	1743781888	38	6219
2026-01-15 22:41:04.79	354.94	19.50	-33.3	-34.2	24.5	0.00e+00	123	29	0	1746927616	38	6394
2026-01-15 22:41:05.80	354.78	19.40	-33.5	-34.4	24.4	0.00e+00	123	29	0	1750073344	38	6520
2026-01-15 22:41:06.81	354.62	19.30	-33.5	-34.4	24.3	0.00e+00	120	29	0	1753219072	38	6572
2026-01-15 22:41:07.82	354.46	19.20	-33.5	-34.4	24.3	0.00e+00	123	29	0	1756364800	38	6550
2026-01-15 22:41:08.83	354.31	19.11	-33.6	-34.6	24.1	0.00e+00	123	29	0	1759510528	38	6655
2026-01-15 22:41:09.84	354.15	19.01	-33.4	-34.3	24.3	0.00e+00	122	29	0	1762656256	38	6452
2026-01-15 22:41:10.85	354.00	18.91	-33.4	-34.3	24.3	0.00e+00	121	29	0	1765801984	38	6445
2026-01-15 22:41:11.86	353.85	18.81	-33.3	-34.2	24.3	0.00e+00	123	29	0	1769996288	38	6378
2026-01-15 22:41:12.87	353.70	18.72	-33.2	-34.1	24.4	0.00e+00	123	29	0	1773142016	38	6331
2026-01-15 22:41:13.88	353.55	18.62	-33.2	-34.1	24.4	0.00e+00	123	29	0	1775239168	38	6327
2026-01-15 22:41:14.89	353.40	18.52	-33.3	-34.2	24.4	0.00e+00	121	29	0	1778384896	38	6358
2026-01-15 22:41:15.90	353.25	18.42	-33.4	-34.3	24.3	0.00e+00	123	29	0	1781530624	38	6487
2026-01-15 22:41:16.91	353.10	18.33	-33.4	-34.3	24.3	0.00e+00	123	29	0	1785724928	38	6454
2026-01-15 22:41:17.92	352.96	18.23	-33.6	-34.5	24.2	0.00e+00	122	29	0	1788870656	38	6596
2026-01-15 22:41:18.92	352.81	18.14	-33.7	-34.6	24.2	0.00e+00	120	30	0	1792016384	38	6702
2026-01-15 22:41:19.93	352.67	18.04	-33.9	-34.8	24.0	0.00e+00	123	30	0	1795162112	40	6097
2026-01-15 22:41:20.94	352.53	17.94	-34.0	-35.0	23.8	0.00e+00	122	30	0	1797259264	40	6227
2026-01-15 22:41:21.95	352.38	17.85	-34.3	-35.2	23.8	0.00e+00	122	30	0	1801453568	40	6410
2026-01-15 22:41:22.96	352.24	17.75	-34.2	-35.2	23.8	0.00e+00	122	30	0	1804599296	40	6389
2026-01-15 22:41:23.97	352.10	17.66	-34.2	-35.1	23.6	0.00e+00	123	30	0	1807745024	40	6335
2026-01-15 22:41:24.98	351.96	17.56	-34.1	-35.0	23.7	0.00e+00	120	30	0	1810890752	40	6263
2026-01-15 22:41:25.99	351.82	17.47	-34.2	-35.1	23.6	0.00e+00	120	30	0	1814036480	40	6339
2026-01-15 22:41:27.00	351.68	17.37	-33.9	-34.9	23.8	0.00e+00	123	30	0	1817182208	40	6139
2026-01-15 22:41:28.01	351.55	17.28	-33.9	-34.8	23.9	0.00e+00	120	30	0	1820327936	40	6112
2026-01-15 22:41:29.02	351.41	17.18	-33.9	-34.8	23.8	0.00e+00	122	30	0	1823473664	40	6122
2026-01-15 22:41:30.03	351.27	17.09	-33.7	-34.7	24.0	0.00e+00	120	30	0	1826619392	40	6004
2026-01-15 22:41:31.04	351.14	16.99	-33.8	-34.7	24.0	0.00e+00	122	30	0	1829765120	40	6063
2026-01-15 22:41:32.05	351.01	16.90	-33.8	-34.7	24.1	0.00e+00	123	30	0	1832910848	40	6052
2026-01-15 22:41:33.06	350.87	16.81	-33.8	-34.7	24.1	0.00e+00	122	30	0	1836056576	40	6004
2026-01-15 22:41:34.07	350.74	16.71	-33.8	-34.7	24.1	0.00e+00	122	30	0	1839202304	40	6005
2026-01-15 22:41:35.08	350.61	16.62	-33.9	-34.8	24.1	0.00e+00	118	30	0	1842348032	40	6088
2026-01-15 22:41:36.09	350.48	16.53	-34.0	-34.9	24.0	0.00e+00	123	30	0	1845493760	40	6175
2026-01-15 22:41:37.10	350.35	16.43	-34.1	-35.1	23.8	0.00e+00	123	30	0	1848639488	40	6285
2026-01-15 22:41:38.10	350.22	16.34	-34.2	-35.2	23.7	0.00e+00	123	30	0	1851785216	40	6356
2026-01-15 22:41:39.11	350.10	16.25	-34.4	-35.3	23.7	0.00e+00	123	30	0	1854930944	40	6494
2026-01-15 22:41:40.12	349.97	16.16	-34.5	-35.4	23.6	0.00e+00	123	29	0	1858076672	40	6560
2026-01-15 22:41:41.13	349.84	16.06	-34.4	-35.4	23.6	0.00e+00	123	30	0	1861222400	40	6545
2026-01-15 22:41:42.13	349.72	15.97	-34.6	-35.6	23.4	0.00e+00	120	30	0	1864368128	40	6663
2026-01-15 22:41:43.14	349.59	15.88	-34.4	-35.3	23.6	0.00e+00	121	30	0	1867513856	40	6484
2026-01-15 22:41:44.15	349.47	15.79	-34.3	-35.3	23.6	0.00e+00	123	30	0	1870659584	40	6434
2026-01-15 22:41:45.15	349.35	15.70	-34.2	-35.1	23.7	0.00e+00	122	30	0	1873805312	40	6342
2026-01-15 22:41:46.16	349.23	15.61	-34.2	-35.2	23.7	0.00e+00	120	30	0	1876951040	40	6356
2026-01-15 22:41:47.17	349.10	15.52	-34.1	-35.0	23.8	0.00e+00	123	30	0	1880096768	40	6237
2026-01-15 22:41:48.18	348.98	15.43	-34.1	-35.0	23.8	0.00e+00	120	30	0	1883242496	40	6245
2026-01-15 22:41:49.19	348.86	15.34	-34.0	-34.9	23.9	0.00e+00	123	30	0	1886388224	40	6199
2026-01-15 22:41:50.20	348.74	15.25	-34.1	-35.0	23.8	0.00e+00	122	30	0	1889533952	40	6260
2026-01-15 22:41:51.21	348.63	15.16	-34.2	-35.1	23.7	0.00e+00	122	30	0	1892679680	40	6315
2026-01-15 22:41:52.22	348.51	15.07	-34.3	-35.2	23.6	0.00e+00	123	30	0	1895825408	40	6406
2026-01-15 22:41:53.23	348.39	14.98	-34.4	-35.3	23.6	0.00e+00	123	30	0	1898971136	40	6475
2026-01-15 22:41:54.24	348.27	14.89	-34.3	-35.3	23.6	0.00e+00	123	30	0	1902116864	40	6452
2026-01-15 22:41:55.25	348.16	14.80	-34.5	-35.4	23.5	0.00e+00	123	30	0	1905262592	40	6531
2026-01-15 22:41:56.26	348.04	14.71	-34.5	-35.4	23.4	0.00e+00	123	30	0	1908408320	40	6544
2026-01-15 22:41:57.27	347.93	14.62	-34.6	-35.6	23.3	0.00e+00	120	30	0	1911554048	40	6674
2026-01-15 22:41:58.28	347.82	14.53	-34.7	-35.6	23.3	0.00e+00	123	30	0	1914699776	40	6711
2026-01-15 22:41:59.28	347.70	14.44	-34.7	-35.6	23.3	0.00e+00	123	30	0	1917845504	40	6714
2026-01-15 22:42:00.30	347.59	14.35	-34.8	-35.8	23.2	0.00e+00	123	30	0	1920991232	42	6073
2026-01-15 22:42:01.30	347.48	14.27	-34.8	-35.8	23.1	0.00e+00	123	30	0	1924136960	42	6089
2026-01-15 22:42:02.31	347.37	14.18	-34.9	-35.9	23.0	0.00e+00	122	30	0	1927282688	42	6168
2026-01-15 22:42:03.32	347.26	14.09	-34.9	-35.8	23.1	0.00e+00	120	30	0	1930428416	42	6134
2026-01-15 22:42:04.33	347.15	14.00	-34.8	-35.8	23.1	0.00e+00	122	30	0	1933574144	42	6125
2026-01-15 22:42:05.34	347.04	13.92	-34.7	-35.7	23.0	0.00e+00	120	30	0	1936719872	42	6051
2026-01-15 22:42:06.35	346.93	13.83	-34.7	-35.7	23.0	0.00e+00	123	30	0	1939865600	42	6040
2026-01-15 22:42:07.36	346.82	13.74	-34.8	-35.8	23.0	0.00e+00	123	30	0	1943011328	42	6069
2026-01-15 22:42:08.37	346.72	13.66	-34.7	-35.7	23.1	0.00e+00	122	30	0	1946157056	42	6054
2026-01-15 22:42:09.38	346.61	13.57	-34.8	-35.8	22.9	0.00e+00	122	30	0	1949302784	42	6115
2026-01-15 22:42:10.39	346.51	13.48	-34.7	-35.7	23.1	0.00e+00	123	30	0	1952448512	42	6017
2026-01-15 22:42:11.39	346.40	13.40	-34.7	-35.7	23.0	0.00e+00	124	30	0	1955594240	42	5999
